passes_logs/2026/01/28/T1/T1__20260128_063229_FENGYUN_3E_rec.log

#Pass ID: 20260128_063229_FENGYUN 3E
#Satellite: FENGYUN 3E
#Configuration: FENGYUN 3E
#almurnet v.1.7.20251203
#Start time: 2026-01-28 06:32:29

#Version: 2.0.20230620
#Station: T1
#Location: 37.570604 lon 55.790049 lat
#TLE: 1 49008U 21062A   26027.61944472  .00000309  00000+0  16619-3 0  9993
#TLE: 2 49008  98.7500  32.6009 0002501 114.4803 245.6635 14.19888604236631

#Time	Az	El	Level	Level2	SNR	BER	BlckErr	Temp	State	Recorded	gain1	gain2
2026-01-28 06:32:29.40	1.04	5.01	-50.1	-61.2	3.8	8.45e-01	0	39	0	0	70	13054
2026-01-28 06:32:30.39	0.93	5.06	-50.6	-61.3	3.8	8.47e-01	0	39	104	0	71	12462
2026-01-28 06:32:31.39	0.81	5.10	-50.4	-61.3	3.8	8.46e-01	0	39	104	0	71	12460
2026-01-28 06:32:32.39	0.69	5.15	-50.5	-61.3	3.8	8.47e-01	0	39	104	0	71	12434
2026-01-28 06:32:33.39	0.58	5.20	-50.7	-61.3	3.8	8.45e-01	0	39	104	0	71	12472
2026-01-28 06:32:34.38	0.46	5.24	-50.6	-61.3	3.8	8.46e-01	0	39	104	0	71	12398
2026-01-28 06:32:35.38	0.34	5.29	-50.3	-61.3	3.8	8.47e-01	0	39	104	0	71	12475
2026-01-28 06:32:36.37	0.23	5.33	-50.1	-61.3	3.8	8.47e-01	0	39	104	0	71	12407
2026-01-28 06:32:37.37	0.11	5.38	-50.2	-61.2	3.8	8.46e-01	0	39	104	0	71	12345
2026-01-28 06:32:38.37	359.99	5.42	-50.1	-61.2	3.8	8.47e-01	0	39	104	0	71	12352
2026-01-28 06:32:39.36	359.87	5.47	-50.2	-61.3	3.8	8.47e-01	0	39	104	0	70	13142
2026-01-28 06:32:40.36	359.75	5.51	-50.4	-61.3	3.8	8.47e-01	0	40	104	0	70	13210
2026-01-28 06:32:41.36	359.63	5.56	-50.4	-61.3	3.8	8.47e-01	0	40	104	0	70	13119
2026-01-28 06:32:42.35	359.51	5.60	-49.3	-61.3	3.8	8.46e-01	0	39	104	0	69	13894
2026-01-28 06:32:43.35	359.39	5.65	-50.1	-61.2	3.8	8.47e-01	0	40	104	0	69	13843
2026-01-28 06:32:44.35	359.27	5.69	-49.9	-61.1	3.8	8.46e-01	0	39	104	0	69	13726
2026-01-28 06:32:45.34	359.15	5.74	-49.9	-61.2	3.8	8.46e-01	0	39	104	0	69	13756
2026-01-28 06:32:46.34	359.03	5.78	-50.0	-61.2	3.8	8.48e-01	0	40	104	0	69	13744
2026-01-28 06:32:47.34	358.90	5.83	-49.8	-61.2	3.8	8.46e-01	0	40	104	0	69	13767
2026-01-28 06:32:48.33	358.78	5.87	-49.1	-61.1	3.8	8.47e-01	0	40	104	0	69	13684
2026-01-28 06:32:49.33	358.66	5.92	-49.5	-61.1	3.8	8.47e-01	0	40	104	0	69	13653
2026-01-28 06:32:50.33	358.53	5.96	-49.7	-61.1	3.8	8.47e-01	0	40	104	0	68	14476
2026-01-28 06:32:51.32	358.41	6.01	-49.5	-61.0	3.8	8.47e-01	0	40	104	0	69	13561
2026-01-28 06:32:52.32	358.29	6.05	-49.6	-61.0	3.8	8.47e-01	0	40	104	0	69	13547
2026-01-28 06:32:53.32	358.16	6.10	-48.2	-60.8	3.8	8.47e-01	0	40	104	0	66	15701
2026-01-28 06:32:54.31	358.04	6.14	-47.0	-60.6	3.8	8.47e-01	0	40	104	0	64	17223
2026-01-28 06:32:55.31	357.91	6.18	-46.5	-60.7	3.8	8.47e-01	0	40	104	0	63	18417
2026-01-28 06:32:56.31	357.79	6.23	-47.2	-60.7	3.8	8.47e-01	0	40	104	0	63	18317
2026-01-28 06:32:57.31	357.66	6.27	-47.3	-60.7	3.8	8.46e-01	0	40	104	0	63	18420
2026-01-28 06:32:58.30	357.53	6.32	-47.2	-60.6	3.8	8.47e-01	0	40	104	0	63	18183
2026-01-28 06:32:59.30	357.41	6.36	-47.2	-60.6	3.8	8.46e-01	0	40	104	0	63	18258
2026-01-28 06:33:00.29	357.28	6.41	-47.2	-60.6	3.8	8.48e-01	0	40	104	0	64	17091
2026-01-28 06:33:01.29	357.15	6.45	-47.2	-60.6	3.8	8.47e-01	0	40	104	0	64	17155
2026-01-28 06:33:02.28	357.03	6.49	-47.2	-60.6	3.8	8.48e-01	0	40	104	0	64	17142
2026-01-28 06:33:03.28	356.90	6.54	-47.2	-60.5	3.8	8.48e-01	0	40	104	0	64	17012
2026-01-28 06:33:04.28	356.77	6.58	-47.1	-60.5	3.8	8.46e-01	0	40	104	0	64	16981
2026-01-28 06:33:05.28	356.64	6.63	-47.1	-60.6	3.8	8.47e-01	0	40	104	0	64	17097
2026-01-28 06:33:06.27	356.51	6.67	-47.1	-60.5	3.8	8.46e-01	0	40	104	0	64	17073
2026-01-28 06:33:07.27	356.38	6.71	-47.1	-60.5	3.8	8.46e-01	0	40	104	0	64	16937
2026-01-28 06:33:08.27	356.25	6.76	-47.1	-60.5	3.8	8.47e-01	0	40	104	0	64	17030
2026-01-28 06:33:09.26	356.12	6.80	-47.1	-60.5	3.8	8.47e-01	0	40	104	0	64	17024
2026-01-28 06:33:10.26	355.99	6.85	-47.1	-60.5	3.8	8.48e-01	0	40	104	0	64	16984
2026-01-28 06:33:11.26	355.85	6.89	-47.1	-60.4	3.8	8.46e-01	0	40	104	0	64	16860
2026-01-28 06:33:12.25	355.72	6.93	-47.0	-60.4	3.8	8.47e-01	0	41	104	0	64	16850
2026-01-28 06:33:13.25	355.59	6.98	-47.1	-60.5	3.8	8.45e-01	0	41	104	0	64	16919
2026-01-28 06:33:14.25	355.46	7.02	-47.1	-60.4	3.8	8.46e-01	0	40	104	0	64	16755
2026-01-28 06:33:15.24	355.33	7.06	-47.0	-60.4	3.8	8.48e-01	0	40	104	0	64	16751
2026-01-28 06:33:16.24	355.19	7.11	-47.0	-60.4	3.8	8.47e-01	0	40	104	0	64	16829
2026-01-28 06:33:17.23	355.06	7.15	-47.1	-60.5	3.8	8.47e-01	0	40	104	0	64	16983
2026-01-28 06:33:18.23	354.92	7.19	-47.1	-60.5	3.8	8.47e-01	0	40	104	0	64	16923
2026-01-28 06:33:19.23	354.79	7.23	-47.1	-60.5	3.8	8.47e-01	0	41	104	0	64	17030
2026-01-28 06:33:20.22	354.65	7.28	-47.1	-60.5	3.8	8.46e-01	0	41	104	0	64	16902
2026-01-28 06:33:21.22	354.52	7.32	-47.1	-60.5	3.8	8.46e-01	0	41	104	0	64	17015
2026-01-28 06:33:22.21	354.38	7.36	-47.1	-60.5	3.8	8.47e-01	0	41	104	0	64	17024
2026-01-28 06:33:23.21	354.25	7.41	-47.0	-60.6	3.8	8.47e-01	0	41	104	0	64	17150
2026-01-28 06:33:24.20	354.11	7.45	-47.1	-60.5	3.8	8.47e-01	0	40	104	0	64	16998
2026-01-28 06:33:25.20	353.97	7.49	-47.1	-60.5	3.8	8.46e-01	0	41	104	0	64	16901
2026-01-28 06:33:26.20	353.83	7.53	-47.1	-60.4	3.8	8.47e-01	0	40	104	0	64	16822
2026-01-28 06:33:27.19	353.70	7.57	-47.1	-60.5	3.8	8.47e-01	0	41	104	0	64	16892
2026-01-28 06:33:28.19	353.56	7.62	-47.1	-60.5	3.8	8.47e-01	0	41	104	0	64	16934
2026-01-28 06:33:29.19	353.42	7.66	-47.1	-60.5	3.8	8.47e-01	0	41	104	0	64	16943
2026-01-28 06:33:30.18	353.28	7.70	-47.1	-60.5	3.8	8.47e-01	0	41	104	0	64	17075
2026-01-28 06:33:31.18	353.14	7.74	-47.1	-60.5	3.8	8.47e-01	0	41	104	0	64	17040
2026-01-28 06:33:32.18	353.00	7.79	-47.1	-60.6	3.8	8.46e-01	0	41	104	0	64	17090
2026-01-28 06:33:33.17	352.86	7.83	-47.1	-60.5	3.8	8.48e-01	0	41	104	0	64	16935
2026-01-28 06:33:34.17	352.72	7.87	-47.1	-60.4	3.8	8.47e-01	0	41	104	0	64	16772
2026-01-28 06:33:35.17	352.57	7.91	-47.1	-60.3	3.8	8.47e-01	0	41	104	0	64	16672
2026-01-28 06:33:36.16	352.43	7.95	-47.1	-60.3	3.8	8.46e-01	0	41	104	0	64	16509
2026-01-28 06:33:37.16	352.29	7.99	-47.2	-60.2	3.8	8.47e-01	0	41	104	0	64	16416
2026-01-28 06:33:38.16	352.15	8.03	-47.1	-60.3	3.8	8.46e-01	0	41	104	0	64	16640
2026-01-28 06:33:39.15	352.01	8.08	-47.1	-60.3	3.8	8.47e-01	0	41	104	0	64	16580
2026-01-28 06:33:40.15	351.86	8.12	-47.1	-60.4	3.8	8.47e-01	0	41	104	0	64	16733
2026-01-28 06:33:41.14	351.72	8.16	-47.1	-60.4	3.8	8.45e-01	0	41	104	0	64	16725
2026-01-28 06:33:42.14	351.57	8.20	-47.1	-60.3	3.8	8.46e-01	0	41	104	0	64	16593
2026-01-28 06:33:43.13	351.43	8.24	-47.1	-60.2	3.8	8.46e-01	0	41	104	0	64	16485
2026-01-28 06:33:44.13	351.28	8.28	-47.1	-60.2	3.8	8.46e-01	0	41	104	0	64	16455
2026-01-28 06:33:45.13	351.14	8.32	-47.0	-60.2	3.8	8.48e-01	0	41	104	0	64	16320
2026-01-28 06:33:46.12	350.99	8.36	-47.0	-60.3	3.8	8.47e-01	0	41	104	0	64	16527
2026-01-28 06:33:47.12	350.85	8.40	-47.1	-60.2	3.8	8.47e-01	0	41	104	0	64	16364
2026-01-28 06:33:48.11	350.70	8.44	-47.0	-59.9	3.8	8.48e-01	0	41	104	0	64	15772
2026-01-28 06:33:49.11	350.55	8.48	-47.0	-59.2	3.8	8.47e-01	0	41	104	0	64	14627
2026-01-28 06:33:50.10	350.41	8.52	-46.9	-58.4	3.8	8.46e-01	0	41	104	0	64	13347
2026-01-28 06:33:51.10	350.26	8.56	-46.9	-57.8	4.0	8.43e-01	0	41	104	0	64	12441
2026-01-28 06:33:52.10	350.11	8.60	-46.8	-57.3	4.1	8.41e-01	0	41	0	0	64	11751
2026-01-28 06:33:53.09	349.96	8.64	-46.8	-56.9	4.2	8.39e-01	0	41	0	0	64	11286
2026-01-28 06:33:54.09	349.81	8.68	-46.8	-56.6	4.3	8.34e-01	0	41	0	0	64	10901
2026-01-28 06:33:55.08	349.66	8.72	-46.7	-56.3	4.4	8.29e-01	0	41	0	0	64	10429
2026-01-28 06:33:56.08	349.51	8.76	-46.6	-55.8	4.6	8.20e-01	0	41	0	0	64	9920
2026-01-28 06:33:57.07	349.36	8.80	-46.6	-55.2	5.0	7.95e-01	0	41	0	0	63	9738
2026-01-28 06:33:58.07	349.21	8.84	-46.5	-54.1	5.6	7.03e-01	0	41	0	0	63	8613
2026-01-28 06:33:59.07	349.06	8.87	-46.1	-52.5	6.8	2.50e-01	0	41	0	6291456	63	7193
2026-01-28 06:34:00.06	348.91	8.91	-45.5	-50.6	8.7	4.65e-02	0	41	0	13631488	61	6494
2026-01-28 06:34:01.06	348.76	8.95	-44.6	-48.6	10.9	4.99e-03	0	41	0	19922944	60	5407
2026-01-28 06:34:02.05	348.60	8.99	-43.7	-46.6	12.8	2.20e-04	0	41	0	27262976	58	4858
2026-01-28 06:34:03.05	348.45	9.03	-42.6	-45.0	14.4	3.40e-06	0	41	0	34603008	56	4529
2026-01-28 06:34:04.05	348.30	9.07	-42.7	-45.0	14.3	3.40e-06	0	41	0	41943040	55	4797
2026-01-28 06:34:05.05	348.14	9.10	-44.5	-49.3	10.0	8.21e-03	0	41	0	49283072	58	6610
2026-01-28 06:34:06.06	347.99	9.14	-40.7	-42.5	16.8	0.00e+00	0	41	0	56623104	52	4273
2026-01-28 06:34:07.06	347.83	9.18	-45.5	-53.5	6.1	6.33e-02	0	41	0	63963136	60	9579
2026-01-28 06:34:08.06	347.67	9.22	-39.9	-41.4	18.0	0.00e+00	0	41	0	71303168	50	4212
2026-01-28 06:34:09.06	347.52	9.26	-39.4	-40.8	18.5	0.00e+00	0	41	0	78643200	49	4180
2026-01-28 06:34:10.06	347.36	9.29	-39.2	-40.7	18.7	0.00e+00	0	41	0	84934656	49	4114
2026-01-28 06:34:11.06	347.20	9.33	-39.1	-40.6	18.7	0.00e+00	0	41	0	92274688	49	4091
2026-01-28 06:34:12.06	347.05	9.37	-39.2	-40.7	18.6	0.00e+00	0	41	0	99614720	49	4131
2026-01-28 06:34:13.05	346.89	9.40	-39.1	-40.7	18.7	0.00e+00	0	42	0	106954752	48	4344
2026-01-28 06:34:14.06	346.73	9.44	-39.0	-40.7	18.7	0.00e+00	0	41	0	114294784	48	4348
2026-01-28 06:34:15.06	346.57	9.48	-38.9	-40.5	18.8	0.00e+00	0	41	0	121634816	48	4279
2026-01-28 06:34:16.06	346.41	9.52	-39.0	-40.6	18.8	0.00e+00	0	41	0	128974848	48	4306
2026-01-28 06:34:17.06	346.26	9.55	-38.8	-40.4	18.9	0.00e+00	0	41	0	136314880	48	4233
2026-01-28 06:34:18.05	346.10	9.59	-38.9	-40.5	18.8	0.00e+00	0	41	0	142606336	48	4284
2026-01-28 06:34:19.05	345.94	9.62	-38.8	-40.4	19.0	0.00e+00	0	41	0	149946368	48	4209
2026-01-28 06:34:20.05	345.78	9.66	-38.9	-40.5	18.9	0.00e+00	0	41	0	157286400	48	4273
2026-01-28 06:34:21.05	345.62	9.69	-39.0	-40.6	18.8	0.00e+00	0	41	0	164626432	48	4323
2026-01-28 06:34:22.05	345.45	9.73	-39.1	-40.7	18.6	0.00e+00	0	41	0	171966464	48	4391
2026-01-28 06:34:23.05	345.29	9.77	-39.2	-40.9	18.5	0.00e+00	0	41	0	179306496	48	4460
2026-01-28 06:34:24.04	345.13	9.80	-39.3	-40.9	18.5	0.00e+00	0	41	0	185597952	48	4471
2026-01-28 06:34:25.05	344.97	9.84	-39.3	-40.9	18.5	0.00e+00	0	41	0	192937984	48	4482
2026-01-28 06:34:26.05	344.80	9.87	-39.4	-41.1	18.3	0.00e+00	0	41	0	200278016	48	4591
2026-01-28 06:34:27.05	344.64	9.91	-39.3	-41.1	18.4	0.00e+00	0	41	0	207618048	48	4550
2026-01-28 06:34:28.05	344.48	9.94	-39.2	-41.0	18.4	0.00e+00	0	41	0	214958080	48	4538
2026-01-28 06:34:29.05	344.31	9.97	-39.1	-40.9	18.5	0.00e+00	0	41	0	222298112	48	4465
2026-01-28 06:34:30.05	344.15	10.01	-39.0	-40.9	18.5	0.00e+00	0	41	0	229638144	48	4446
2026-01-28 06:34:31.05	343.98	10.04	-39.0	-40.7	18.7	0.00e+00	0	41	0	236978176	48	4387
2026-01-28 06:34:32.05	343.82	10.08	-39.0	-40.6	18.8	0.00e+00	0	41	0	244318208	48	4331
2026-01-28 06:34:33.05	343.65	10.11	-38.9	-40.4	19.0	0.00e+00	0	41	0	250609664	48	4229
2026-01-28 06:34:34.05	343.49	10.14	-38.8	-40.2	19.2	0.00e+00	0	41	0	257949696	48	4130
2026-01-28 06:34:35.05	343.32	10.18	-38.8	-40.1	19.3	0.00e+00	0	41	0	265289728	48	4080
2026-01-28 06:34:36.05	343.15	10.21	-38.8	-40.1	19.3	0.00e+00	0	41	0	272629760	48	4073
2026-01-28 06:34:37.05	342.99	10.24	-38.8	-40.0	19.4	0.00e+00	0	42	0	279969792	48	4030
2026-01-28 06:34:38.05	342.82	10.28	-38.8	-40.0	19.4	0.00e+00	0	42	0	287309824	48	4036
2026-01-28 06:34:39.06	342.65	10.31	-38.7	-39.9	19.5	0.00e+00	0	42	0	294649856	48	4004
2026-01-28 06:34:40.06	342.48	10.34	-38.8	-40.0	19.4	0.00e+00	0	42	0	301989888	48	4032
2026-01-28 06:34:41.06	342.31	10.37	-38.9	-40.1	19.3	0.00e+00	0	41	0	309329920	48	4088
2026-01-28 06:34:42.06	342.14	10.40	-38.9	-40.1	19.3	0.00e+00	0	41	0	316669952	48	4086
2026-01-28 06:34:43.06	341.97	10.44	-39.0	-40.3	19.2	0.00e+00	0	41	0	324009984	48	4148
2026-01-28 06:34:44.06	341.80	10.47	-39.1	-40.3	19.1	0.00e+00	0	41	0	330301440	48	4169
2026-01-28 06:34:45.06	341.63	10.50	-39.2	-40.3	19.1	0.00e+00	0	41	0	337641472	48	4193
2026-01-28 06:34:46.06	341.46	10.53	-39.2	-40.3	19.1	0.00e+00	0	41	0	344981504	48	4192
2026-01-28 06:34:47.06	341.29	10.56	-39.3	-40.5	18.9	0.00e+00	0	41	0	352321536	48	4256
2026-01-28 06:34:48.07	341.12	10.59	-39.3	-40.5	18.9	0.00e+00	0	41	0	359661568	48	4263
2026-01-28 06:34:49.07	340.95	10.62	-39.4	-40.6	18.9	0.00e+00	0	41	0	367001600	48	4314
2026-01-28 06:34:50.07	340.77	10.65	-39.4	-40.6	18.8	0.00e+00	0	41	0	374341632	48	4309
2026-01-28 06:34:51.07	340.60	10.68	-39.2	-40.4	19.0	0.00e+00	0	41	0	381681664	48	4223
2026-01-28 06:34:52.07	340.43	10.71	-39.2	-40.4	19.0	0.00e+00	0	41	0	389021696	48	4210
2026-01-28 06:34:53.07	340.26	10.74	-39.2	-40.3	19.1	0.00e+00	0	41	0	395313152	48	4167
2026-01-28 06:34:54.07	340.08	10.77	-39.2	-40.4	19.1	0.00e+00	0	41	0	402653184	48	4202
2026-01-28 06:34:55.07	339.91	10.80	-39.2	-40.3	19.1	0.00e+00	0	41	0	409993216	48	4181
2026-01-28 06:34:56.07	339.73	10.83	-39.1	-40.2	19.2	0.00e+00	0	41	0	417333248	48	4118
2026-01-28 06:34:57.07	339.56	10.86	-39.0	-40.1	19.3	0.00e+00	0	42	0	424673280	48	4089
2026-01-28 06:34:58.07	339.38	10.89	-39.0	-40.1	19.3	0.00e+00	0	41	0	432013312	48	4086
2026-01-28 06:34:59.07	339.21	10.92	-38.9	-40.1	19.3	0.00e+00	0	42	0	439353344	48	4073
2026-01-28 06:35:00.07	339.03	10.94	-38.8	-40.1	19.4	0.00e+00	0	42	0	446693376	48	4063
2026-01-28 06:35:01.07	338.86	10.97	-38.8	-40.0	19.4	0.00e+00	0	42	0	452984832	48	4021
2026-01-28 06:35:02.07	338.68	11.00	-38.8	-40.0	19.4	0.00e+00	0	42	0	460324864	48	4046
2026-01-28 06:35:03.07	338.50	11.03	-38.8	-40.0	19.4	0.00e+00	0	41	0	467664896	48	4008
2026-01-28 06:35:04.07	338.33	11.05	-38.8	-40.0	19.5	0.00e+00	0	42	0	475004928	48	4009
2026-01-28 06:35:05.07	338.15	11.08	-38.7	-39.8	19.6	0.00e+00	0	42	0	482344960	48	3926
2026-01-28 06:35:06.07	337.97	11.11	-38.6	-39.7	19.7	0.00e+00	0	42	0	489684992	48	3878
2026-01-28 06:35:07.07	337.79	11.13	-38.4	-39.5	19.6	0.00e+00	0	41	0	497025024	47	4032
2026-01-28 06:35:08.07	337.62	11.16	-38.4	-39.6	19.6	0.00e+00	0	42	0	504365056	47	4073
2026-01-28 06:35:09.07	337.44	11.19	-38.4	-39.6	19.6	0.00e+00	0	41	0	511705088	47	4061
2026-01-28 06:35:10.06	337.26	11.21	-38.3	-39.5	19.7	0.00e+00	0	42	0	517996544	47	4020
2026-01-28 06:35:11.07	337.08	11.24	-38.4	-39.5	19.6	0.00e+00	0	41	0	525336576	47	4043
2026-01-28 06:35:12.06	336.90	11.26	-38.3	-39.5	19.7	0.00e+00	0	42	0	532676608	47	4025
2026-01-28 06:35:13.06	336.72	11.29	-38.4	-39.6	19.6	0.00e+00	0	42	0	540016640	47	4052
2026-01-28 06:35:14.06	336.54	11.31	-38.4	-39.5	19.6	0.00e+00	0	42	0	547356672	47	4041
2026-01-28 06:35:15.06	336.36	11.34	-38.4	-39.6	19.6	0.00e+00	0	41	0	554696704	47	4081
2026-01-28 06:35:16.06	336.18	11.36	-38.4	-39.6	19.6	0.00e+00	0	41	0	562036736	47	4061
2026-01-28 06:35:17.07	336.00	11.38	-38.4	-39.5	19.6	0.00e+00	0	41	0	569376768	47	4046
2026-01-28 06:35:18.07	335.81	11.41	-38.4	-39.5	19.7	0.00e+00	0	42	0	576716800	47	4030
2026-01-28 06:35:19.07	335.63	11.43	-38.6	-39.7	19.5	0.00e+00	0	41	0	583008256	47	4136
2026-01-28 06:35:20.08	335.45	11.45	-38.6	-39.7	19.5	0.00e+00	0	41	0	590348288	47	4121
2026-01-28 06:35:21.07	335.27	11.48	-38.7	-39.8	19.4	0.00e+00	0	41	0	597688320	47	4151
2026-01-28 06:35:22.08	335.08	11.50	-38.8	-39.9	19.3	0.00e+00	0	42	0	605028352	47	4220
2026-01-28 06:35:23.08	334.90	11.52	-38.8	-39.9	19.3	0.00e+00	0	41	0	612368384	47	4222
2026-01-28 06:35:24.08	334.72	11.54	-38.9	-40.0	19.2	0.00e+00	0	42	0	619708416	47	4270
2026-01-28 06:35:25.08	334.53	11.57	-38.9	-40.0	19.2	0.00e+00	0	41	0	627048448	47	4290
2026-01-28 06:35:26.07	334.35	11.59	-39.0	-40.1	19.1	0.00e+00	0	41	0	634388480	47	4319
2026-01-28 06:35:27.07	334.17	11.61	-39.0	-40.1	19.1	0.00e+00	0	41	0	640679936	47	4331
2026-01-28 06:35:28.07	333.98	11.63	-39.0	-40.1	19.1	0.00e+00	0	42	0	648019968	47	4310
2026-01-28 06:35:29.07	333.80	11.65	-39.0	-40.1	19.1	0.00e+00	0	41	0	655360000	47	4292
2026-01-28 06:35:30.07	333.61	11.67	-39.0	-40.1	19.1	0.00e+00	0	41	0	662700032	47	4319
2026-01-28 06:35:31.07	333.43	11.69	-38.9	-40.0	19.2	0.00e+00	0	42	0	670040064	47	4272
2026-01-28 06:35:32.07	333.24	11.71	-38.9	-40.0	19.2	0.00e+00	0	42	0	677380096	47	4264
2026-01-28 06:35:33.07	333.06	11.73	-38.9	-39.9	19.3	0.00e+00	0	42	0	684720128	47	4241
2026-01-28 06:35:34.07	332.87	11.75	-38.8	-39.9	19.3	0.00e+00	0	41	0	692060160	47	4207
2026-01-28 06:35:35.07	332.69	11.77	-38.7	-39.8	19.4	0.00e+00	0	41	0	699400192	47	4148
2026-01-28 06:35:36.07	332.50	11.79	-38.6	-39.7	19.5	0.00e+00	0	41	0	705691648	47	4125
2026-01-28 06:35:37.07	332.31	11.81	-38.7	-39.8	19.4	0.00e+00	0	42	0	713031680	47	4165
2026-01-28 06:35:38.07	332.13	11.83	-38.7	-39.7	19.5	0.00e+00	0	41	0	720371712	47	4138
2026-01-28 06:35:39.07	331.94	11.84	-38.5	-39.5	19.7	0.00e+00	0	41	0	727711744	47	4040
2026-01-28 06:35:40.07	331.75	11.86	-38.6	-39.6	19.6	0.00e+00	0	42	0	735051776	47	4088
2026-01-28 06:35:41.07	331.56	11.88	-38.6	-39.6	19.5	0.00e+00	0	41	0	742391808	47	4096
2026-01-28 06:35:42.07	331.38	11.90	-38.7	-39.7	19.5	0.00e+00	0	42	0	749731840	47	4125
2026-01-28 06:35:43.08	331.19	11.91	-38.5	-39.5	19.6	0.00e+00	0	41	0	757071872	47	4047
2026-01-28 06:35:44.08	331.00	11.93	-38.6	-39.7	19.5	0.00e+00	0	42	0	764411904	47	4105
2026-01-28 06:35:45.08	330.81	11.95	-38.6	-39.7	19.5	0.00e+00	0	42	0	770703360	47	4104
2026-01-28 06:35:46.08	330.62	11.96	-38.7	-39.7	19.4	0.00e+00	0	42	0	778043392	47	4139
2026-01-28 06:35:47.08	330.43	11.98	-38.7	-39.7	19.5	0.00e+00	0	42	0	785383424	47	4133
2026-01-28 06:35:48.08	330.24	11.99	-38.7	-39.7	19.4	0.00e+00	0	42	0	792723456	47	4129
2026-01-28 06:35:49.08	330.05	12.01	-38.7	-39.7	19.4	0.00e+00	0	42	0	800063488	47	4137
2026-01-28 06:35:50.08	329.86	12.02	-38.7	-39.7	19.4	0.00e+00	0	42	0	807403520	47	4136
2026-01-28 06:35:51.08	329.67	12.04	-38.7	-39.8	19.4	0.00e+00	0	41	0	814743552	47	4158
2026-01-28 06:35:52.09	329.48	12.05	-38.6	-39.7	19.5	0.00e+00	0	42	0	822083584	47	4110
2026-01-28 06:35:53.09	329.29	12.06	-38.7	-39.8	19.4	0.00e+00	0	41	0	828375040	47	4149
2026-01-28 06:35:54.09	329.10	12.08	-38.6	-39.7	19.5	0.00e+00	0	42	0	835715072	47	4131
2026-01-28 06:35:55.09	328.91	12.09	-38.7	-39.8	19.4	0.00e+00	0	42	0	843055104	47	4161
2026-01-28 06:35:56.09	328.72	12.10	-38.8	-40.0	19.2	0.00e+00	0	42	0	850395136	47	4244
2026-01-28 06:35:57.09	328.53	12.12	-38.8	-39.9	19.3	0.00e+00	0	42	0	857735168	47	4241
2026-01-28 06:35:58.09	328.34	12.13	-38.9	-40.0	19.2	0.00e+00	0	42	0	865075200	47	4249
2026-01-28 06:35:59.09	328.15	12.14	-38.9	-40.0	19.3	0.00e+00	0	42	0	872415232	47	4252
2026-01-28 06:36:00.09	327.96	12.15	-38.9	-40.0	19.2	0.00e+00	0	42	0	879755264	47	4288
2026-01-28 06:36:01.10	327.76	12.17	-39.0	-40.0	19.2	0.00e+00	0	41	0	887095296	47	4288
2026-01-28 06:36:02.09	327.57	12.18	-38.9	-40.0	19.2	0.00e+00	0	42	0	893386752	47	4274
2026-01-28 06:36:03.09	327.38	12.19	-38.9	-40.0	19.3	0.00e+00	0	41	0	900726784	47	4249
2026-01-28 06:36:04.09	327.19	12.20	-38.8	-39.9	19.3	0.00e+00	0	41	0	908066816	47	4214
2026-01-28 06:36:05.09	327.00	12.21	-38.9	-40.0	19.2	0.00e+00	0	42	0	915406848	47	4266
2026-01-28 06:36:06.09	326.81	12.22	-38.8	-39.9	19.3	0.00e+00	0	42	0	922746880	47	4234
2026-01-28 06:36:07.09	326.61	12.23	-38.7	-39.8	19.4	0.00e+00	0	42	0	930086912	47	4183
2026-01-28 06:36:08.09	326.42	12.24	-38.5	-39.6	19.6	0.00e+00	0	41	0	937426944	47	4076
2026-01-28 06:36:09.09	326.23	12.25	-38.5	-39.7	19.5	0.00e+00	0	42	0	944766976	47	4102
2026-01-28 06:36:10.09	326.04	12.25	-38.5	-39.6	19.6	0.00e+00	0	41	0	952107008	47	4068
2026-01-28 06:36:11.09	325.84	12.26	-38.5	-39.7	19.6	0.00e+00	0	42	0	958398464	47	4104
2026-01-28 06:36:12.09	325.65	12.27	-38.5	-39.6	19.6	0.00e+00	0	42	0	965738496	47	4091
2026-01-28 06:36:13.09	325.46	12.28	-38.5	-39.7	19.5	0.00e+00	0	42	0	973078528	47	4108
2026-01-28 06:36:14.09	325.26	12.29	-38.5	-39.6	19.6	0.00e+00	0	42	0	980418560	47	4094
2026-01-28 06:36:15.09	325.07	12.29	-38.5	-39.7	19.5	0.00e+00	0	41	0	987758592	47	4129
2026-01-28 06:36:16.09	324.88	12.30	-38.5	-39.7	19.5	0.00e+00	0	42	0	995098624	47	4113
2026-01-28 06:36:17.10	324.68	12.31	-38.5	-39.7	19.5	0.00e+00	0	42	0	1002438656	47	4143
2026-01-28 06:36:18.10	324.49	12.31	-38.5	-39.7	19.5	0.00e+00	0	41	0	1009778688	47	4104
2026-01-28 06:36:19.10	324.29	12.32	-38.4	-39.6	19.6	0.00e+00	0	42	0	1016070144	47	4079
2026-01-28 06:36:20.09	324.10	12.32	-38.5	-39.7	19.5	0.00e+00	0	42	0	1023410176	47	4110
2026-01-28 06:36:21.10	323.91	12.33	-38.4	-39.5	19.7	0.00e+00	0	41	0	1030750208	47	4041
2026-01-28 06:36:22.09	323.72	12.33	-38.4	-39.5	19.7	0.00e+00	0	41	0	1038090240	47	4045
2026-01-28 06:36:23.10	323.52	12.34	-38.4	-39.5	19.7	0.00e+00	0	42	0	1045430272	47	4019
2026-01-28 06:36:24.09	323.33	12.34	-38.4	-39.5	19.7	0.00e+00	0	42	0	1052770304	47	4037
2026-01-28 06:36:25.09	323.13	12.35	-38.4	-39.5	19.7	0.00e+00	0	42	0	1060110336	47	4012
2026-01-28 06:36:26.09	322.94	12.35	-38.4	-39.5	19.7	0.00e+00	0	41	0	1067450368	47	4015
2026-01-28 06:36:27.09	322.75	12.35	-38.5	-39.6	19.6	0.00e+00	0	42	0	1074790400	47	4057
2026-01-28 06:36:28.09	322.55	12.36	-38.5	-39.5	19.7	0.00e+00	0	42	0	1081081856	47	4039
2026-01-28 06:36:29.09	322.36	12.36	-38.5	-39.5	19.6	0.00e+00	0	42	0	1088421888	47	4049
2026-01-28 06:36:30.09	322.16	12.36	-38.5	-39.6	19.6	0.00e+00	0	42	0	1095761920	47	4068
2026-01-28 06:36:31.09	321.97	12.36	-38.6	-39.7	19.5	0.00e+00	0	42	0	1103101952	47	4113
2026-01-28 06:36:32.09	321.77	12.37	-38.6	-39.6	19.6	0.00e+00	0	42	0	1110441984	47	4079
2026-01-28 06:36:33.10	321.58	12.37	-38.6	-39.6	19.6	0.00e+00	0	42	0	1117782016	47	4085
2026-01-28 06:36:34.10	321.38	12.37	-38.6	-39.6	19.6	0.00e+00	0	42	0	1125122048	47	4091
2026-01-28 06:36:35.10	321.19	12.37	-38.6	-39.6	19.5	0.00e+00	0	42	0	1132462080	47	4094
2026-01-28 06:36:36.10	321.00	12.37	-38.7	-39.7	19.5	0.00e+00	0	42	0	1138753536	47	4124
2026-01-28 06:36:37.10	320.80	12.37	-38.6	-39.7	19.5	0.00e+00	0	41	0	1146093568	47	4125
2026-01-28 06:36:38.10	320.61	12.37	-38.7	-39.7	19.5	0.00e+00	0	41	0	1153433600	47	4141
2026-01-28 06:36:39.10	320.41	12.37	-38.6	-39.6	19.5	0.00e+00	0	42	0	1160773632	47	4092
2026-01-28 06:36:40.10	320.22	12.37	-38.6	-39.7	19.5	0.00e+00	0	42	0	1168113664	47	4119
2026-01-28 06:36:41.10	320.02	12.37	-38.7	-39.8	19.4	0.00e+00	0	42	0	1175453696	47	4186
2026-01-28 06:36:42.10	319.83	12.36	-38.5	-39.7	19.5	0.00e+00	0	42	0	1182793728	47	4112
2026-01-28 06:36:43.10	319.63	12.36	-38.5	-39.6	19.6	0.00e+00	0	41	0	1190133760	47	4064
2026-01-28 06:36:44.10	319.44	12.36	-38.4	-39.5	19.7	0.00e+00	0	41	0	1197473792	47	4036
2026-01-28 06:36:45.10	319.25	12.36	-38.4	-39.5	19.7	0.00e+00	0	41	0	1203765248	47	4018
2026-01-28 06:36:46.10	319.05	12.36	-38.3	-39.4	19.8	0.00e+00	0	42	0	1211105280	47	3976
2026-01-28 06:36:47.10	318.86	12.35	-38.3	-39.4	19.8	0.00e+00	0	42	0	1218445312	47	3969
2026-01-28 06:36:48.10	318.66	12.35	-38.4	-39.4	19.8	0.00e+00	0	41	0	1225785344	47	3989
2026-01-28 06:36:49.10	318.47	12.35	-38.3	-39.3	19.8	0.00e+00	0	41	0	1233125376	47	3947
2026-01-28 06:36:50.10	318.28	12.34	-38.3	-39.3	19.9	0.00e+00	0	42	0	1240465408	47	3947
2026-01-28 06:36:51.10	318.08	12.34	-38.3	-39.3	19.9	0.00e+00	0	42	0	1247805440	47	3923
2026-01-28 06:36:52.10	317.89	12.33	-38.4	-39.4	19.8	0.00e+00	0	42	0	1255145472	47	3963
2026-01-28 06:36:53.10	317.69	12.33	-38.3	-39.3	19.9	0.00e+00	0	41	0	1262485504	47	3942
2026-01-28 06:36:54.10	317.50	12.32	-38.3	-39.3	19.8	0.00e+00	0	42	0	1268776960	47	3952
2026-01-28 06:36:55.10	317.31	12.32	-38.4	-39.4	19.8	0.00e+00	0	42	0	1276116992	47	3991
2026-01-28 06:36:56.10	317.11	12.31	-38.5	-39.6	19.7	0.00e+00	0	42	0	1284505600	47	4053
2026-01-28 06:36:57.10	316.92	12.30	-38.6	-39.6	19.6	0.00e+00	0	41	0	1290797056	47	4078
2026-01-28 06:36:58.11	316.72	12.30	-38.7	-39.7	19.5	0.00e+00	0	42	0	1298137088	47	4144
2026-01-28 06:36:59.11	316.53	12.29	-38.7	-39.7	19.5	0.00e+00	0	42	0	1305477120	47	4140
2026-01-28 06:37:00.11	316.34	12.28	-38.8	-39.9	19.3	0.00e+00	0	42	0	1312817152	47	4215
2026-01-28 06:37:01.11	316.14	12.27	-38.7	-39.8	19.4	0.00e+00	0	42	0	1320157184	47	4187
2026-01-28 06:37:02.11	315.95	12.27	-38.8	-39.8	19.4	0.00e+00	0	42	0	1327497216	47	4193
2026-01-28 06:37:03.11	315.76	12.26	-38.7	-39.8	19.4	0.00e+00	0	41	0	1334837248	47	4173
2026-01-28 06:37:04.11	315.56	12.25	-38.7	-39.8	19.4	0.00e+00	0	41	0	1342177280	47	4162
2026-01-28 06:37:05.11	315.37	12.24	-38.8	-39.9	19.3	0.00e+00	0	41	0	1348468736	47	4219
2026-01-28 06:37:06.11	315.18	12.23	-38.8	-39.8	19.4	0.00e+00	0	41	0	1355808768	47	4183
2026-01-28 06:37:07.11	314.99	12.22	-38.7	-39.8	19.4	0.00e+00	0	41	0	1363148800	47	4162
2026-01-28 06:37:08.11	314.79	12.21	-38.8	-39.8	19.3	0.00e+00	0	42	0	1370488832	47	4193
2026-01-28 06:37:09.11	314.60	12.20	-38.8	-39.8	19.3	0.00e+00	0	42	0	1377828864	47	4192
2026-01-28 06:37:10.12	314.41	12.19	-39.0	-40.1	19.1	0.00e+00	0	42	0	1385168896	47	4321
2026-01-28 06:37:11.12	314.22	12.18	-39.1	-40.2	19.0	0.00e+00	0	42	0	1392508928	47	4351
2026-01-28 06:37:12.12	314.02	12.17	-39.1	-40.1	19.1	0.00e+00	0	41	0	1399848960	47	4337
2026-01-28 06:37:13.12	313.83	12.16	-39.1	-40.2	19.1	0.00e+00	0	42	0	1407188992	47	4343
2026-01-28 06:37:14.12	313.64	12.15	-39.0	-40.1	19.1	0.00e+00	0	41	0	1413480448	47	4311
2026-01-28 06:37:15.13	313.45	12.14	-39.0	-40.1	19.1	0.00e+00	0	42	0	1420820480	47	4297
2026-01-28 06:37:16.12	313.26	12.12	-38.9	-40.0	19.2	0.00e+00	0	42	0	1428160512	47	4279
2026-01-28 06:37:17.13	313.07	12.11	-38.9	-40.0	19.2	0.00e+00	0	41	0	1435500544	47	4270
2026-01-28 06:37:18.13	312.87	12.10	-38.9	-40.0	19.2	0.00e+00	0	41	0	1442840576	47	4269
2026-01-28 06:37:19.13	312.68	12.08	-38.9	-40.0	19.2	0.00e+00	0	41	0	1450180608	47	4278
2026-01-28 06:37:20.14	312.49	12.07	-38.9	-40.0	19.2	0.00e+00	0	42	0	1457520640	47	4275
2026-01-28 06:37:21.14	312.30	12.06	-39.0	-40.1	19.1	0.00e+00	0	41	0	1464860672	47	4335
2026-01-28 06:37:22.14	312.11	12.04	-39.1	-40.2	19.0	0.00e+00	0	42	0	1472200704	47	4350
2026-01-28 06:37:23.14	311.92	12.03	-39.2	-40.3	18.9	0.00e+00	0	42	0	1478492160	47	4398
2026-01-28 06:37:24.14	311.73	12.01	-39.1	-40.2	19.0	0.00e+00	0	42	0	1485832192	47	4387
2026-01-28 06:37:25.14	311.54	12.00	-39.1	-40.2	19.0	0.00e+00	0	41	0	1493172224	47	4388
2026-01-28 06:37:26.14	311.35	11.98	-39.2	-40.3	18.9	0.00e+00	0	41	0	1500512256	47	4423
2026-01-28 06:37:27.14	311.16	11.97	-39.2	-40.3	18.9	0.00e+00	0	42	0	1507852288	47	4434
2026-01-28 06:37:28.14	310.97	11.95	-39.1	-40.3	18.9	0.00e+00	0	42	0	1515192320	47	4392
2026-01-28 06:37:29.14	310.78	11.94	-39.2	-40.3	18.9	0.00e+00	0	42	0	1522532352	47	4406
2026-01-28 06:37:30.14	310.59	11.92	-39.1	-40.2	19.0	0.00e+00	0	42	0	1529872384	47	4361
2026-01-28 06:37:31.14	310.41	11.90	-39.2	-40.3	18.9	0.00e+00	0	42	0	1536163840	47	4410
2026-01-28 06:37:32.14	310.22	11.89	-39.1	-40.1	19.0	0.00e+00	0	42	0	1543503872	47	4338
2026-01-28 06:37:33.14	310.03	11.87	-39.0	-40.1	19.1	0.00e+00	0	41	0	1550843904	47	4320
2026-01-28 06:37:34.14	309.84	11.85	-39.2	-40.3	18.9	0.00e+00	0	41	0	1558183936	47	4393
2026-01-28 06:37:35.15	309.65	11.83	-39.2	-40.2	18.9	0.00e+00	0	41	0	1565523968	47	4384
2026-01-28 06:37:36.15	309.47	11.81	-39.2	-40.3	18.9	0.00e+00	0	41	0	1572864000	47	4397
2026-01-28 06:37:37.15	309.28	11.80	-39.1	-40.2	19.0	0.00e+00	0	41	0	1580204032	47	4362
2026-01-28 06:37:38.15	309.09	11.78	-39.1	-40.2	18.9	0.00e+00	0	41	0	1587544064	47	4378
2026-01-28 06:37:39.15	308.90	11.76	-39.2	-40.3	18.8	0.00e+00	0	41	0	1594884096	47	4439
2026-01-28 06:37:40.15	308.72	11.74	-39.2	-40.3	18.9	0.00e+00	0	41	0	1601175552	47	4403
2026-01-28 06:37:41.15	308.53	11.72	-39.4	-40.5	19.0	0.00e+00	0	41	0	1608515584	48	4250
2026-01-28 06:37:42.15	308.35	11.70	-39.4	-40.5	18.9	0.00e+00	0	42	0	1616904192	48	4279
2026-01-28 06:37:43.16	308.16	11.68	-39.4	-40.4	19.0	0.00e+00	0	42	0	1623195648	48	4241
2026-01-28 06:37:44.16	307.97	11.66	-39.3	-40.3	19.1	0.00e+00	0	42	0	1630535680	48	4179
2026-01-28 06:37:45.16	307.79	11.64	-39.3	-40.3	19.1	0.00e+00	0	41	0	1637875712	48	4175
2026-01-28 06:37:46.16	307.60	11.62	-39.3	-40.3	19.1	0.00e+00	0	41	0	1645215744	48	4179
2026-01-28 06:37:47.16	307.42	11.60	-39.3	-40.4	19.1	0.00e+00	0	42	0	1652555776	48	4198
2026-01-28 06:37:48.16	307.23	11.57	-39.3	-40.3	19.1	0.00e+00	0	42	0	1659895808	48	4180
2026-01-28 06:37:49.16	307.05	11.55	-39.4	-40.5	18.9	0.00e+00	0	41	0	1667235840	48	4266
2026-01-28 06:37:50.16	306.87	11.53	-39.5	-40.5	18.9	0.00e+00	0	42	0	1674575872	48	4287
2026-01-28 06:37:51.16	306.68	11.51	-39.4	-40.5	19.0	0.00e+00	0	42	0	1681915904	48	4250
2026-01-28 06:37:52.16	306.50	11.49	-39.5	-40.6	18.8	0.00e+00	0	41	0	1688207360	48	4307
2026-01-28 06:37:53.16	306.32	11.46	-39.4	-40.4	19.0	0.00e+00	0	42	0	1695547392	48	4234
2026-01-28 06:37:54.16	306.13	11.44	-39.5	-40.5	18.9	0.00e+00	0	42	0	1702887424	48	4282
2026-01-28 06:37:55.16	305.95	11.42	-39.4	-40.5	19.0	0.00e+00	0	41	0	1710227456	48	4255
2026-01-28 06:37:56.17	305.77	11.39	-39.4	-40.4	19.0	0.00e+00	0	41	0	1717567488	48	4242
2026-01-28 06:37:57.17	305.59	11.37	-39.4	-40.4	19.0	0.00e+00	0	42	0	1724907520	48	4223
2026-01-28 06:37:58.16	305.41	11.35	-39.3	-40.4	19.1	0.00e+00	0	41	0	1732247552	48	4195
2026-01-28 06:37:59.17	305.22	11.32	-39.3	-40.3	19.1	0.00e+00	0	41	0	1739587584	48	4168
2026-01-28 06:38:00.17	305.04	11.30	-39.3	-40.4	19.0	0.00e+00	0	41	0	1745879040	48	4217
2026-01-28 06:38:01.17	304.86	11.27	-39.2	-40.3	19.1	0.00e+00	0	41	0	1753219072	48	4150
2026-01-28 06:38:02.16	304.68	11.25	-39.2	-40.3	19.1	0.00e+00	0	42	0	1760559104	48	4170
2026-01-28 06:38:03.16	304.50	11.22	-39.2	-40.3	19.1	0.00e+00	0	42	0	1767899136	48	4162
2026-01-28 06:38:04.16	304.32	11.20	-39.3	-40.3	19.0	0.00e+00	0	41	0	1775239168	48	4190
2026-01-28 06:38:05.16	304.15	11.17	-39.3	-40.3	19.1	0.00e+00	0	42	0	1782579200	48	4189
2026-01-28 06:38:06.16	303.97	11.14	-39.4	-40.5	18.9	0.00e+00	0	42	0	1789919232	48	4255
2026-01-28 06:38:07.16	303.79	11.12	-39.4	-40.5	18.9	0.00e+00	0	42	0	1797259264	48	4255
2026-01-28 06:38:08.16	303.61	11.09	-39.5	-40.6	18.8	0.00e+00	0	42	0	1804599296	48	4318
2026-01-28 06:38:09.17	303.43	11.06	-39.6	-40.7	18.7	0.00e+00	0	41	0	1810890752	48	4356
2026-01-28 06:38:10.17	303.25	11.04	-39.7	-40.8	18.6	0.00e+00	0	42	0	1818230784	48	4400
2026-01-28 06:38:11.17	303.07	11.01	-39.7	-40.8	18.6	0.00e+00	0	42	0	1825570816	48	4416
2026-01-28 06:38:12.17	302.90	10.98	-39.7	-40.8	18.6	0.00e+00	0	41	0	1832910848	48	4415
2026-01-28 06:38:13.17	302.72	10.95	-39.6	-40.7	18.7	0.00e+00	0	42	0	1840250880	48	4366
2026-01-28 06:38:14.18	302.54	10.93	-39.6	-40.7	18.7	0.00e+00	0	41	0	1847590912	48	4367
2026-01-28 06:38:15.18	302.37	10.90	-39.6	-40.7	18.7	0.00e+00	0	41	0	1854930944	48	4342
2026-01-28 06:38:16.18	302.19	10.87	-39.5	-40.6	18.8	0.00e+00	0	42	0	1862270976	48	4316
2026-01-28 06:38:17.18	302.02	10.84	-39.6	-40.7	18.7	0.00e+00	0	42	0	1868562432	48	4350
2026-01-28 06:38:18.18	301.84	10.81	-39.7	-40.8	18.6	0.00e+00	0	41	0	1875902464	48	4422
2026-01-28 06:38:19.18	301.67	10.78	-39.6	-40.7	18.7	0.00e+00	0	41	0	1883242496	48	4366
2026-01-28 06:38:20.18	301.49	10.75	-39.7	-40.7	18.6	0.00e+00	0	42	0	1890582528	48	4387
2026-01-28 06:38:21.18	301.32	10.72	-39.6	-40.7	18.7	0.00e+00	0	42	0	1897922560	48	4361
2026-01-28 06:38:22.18	301.14	10.69	-39.7	-40.8	18.6	0.00e+00	0	42	0	1905262592	48	4409
2026-01-28 06:38:23.19	300.97	10.66	-39.8	-40.9	18.5	0.00e+00	0	42	0	1912602624	49	4195
2026-01-28 06:38:24.18	300.80	10.63	-39.7	-40.8	18.5	0.00e+00	0	42	0	1919942656	49	4177
2026-01-28 06:38:25.18	300.63	10.60	-39.8	-40.9	18.4	0.00e+00	0	41	0	1927282688	49	4229
2026-01-28 06:38:26.18	300.45	10.57	-39.6	-40.7	18.6	0.00e+00	0	42	0	1933574144	49	4130
2026-01-28 06:38:27.18	300.28	10.54	-39.5	-40.6	18.7	0.00e+00	0	41	0	1940914176	49	4072
2026-01-28 06:38:28.18	300.11	10.51	-39.5	-40.6	18.7	0.00e+00	0	42	0	1948254208	49	4086
2026-01-28 06:38:29.18	299.94	10.48	-39.5	-40.6	18.7	0.00e+00	0	42	0	1955594240	49	4079
2026-01-28 06:38:30.18	299.77	10.45	-39.6	-40.7	18.6	0.00e+00	0	42	0	1962934272	49	4139
2026-01-28 06:38:31.19	299.60	10.42	-39.7	-40.8	18.5	0.00e+00	0	41	0	1970274304	49	4159
2026-01-28 06:38:32.19	299.43	10.38	-39.9	-41.0	18.3	0.00e+00	0	41	0	1977614336	49	4273
2026-01-28 06:38:33.19	299.26	10.35	-39.8	-41.0	18.4	0.00e+00	0	42	0	1984954368	49	4247
2026-01-28 06:38:34.19	299.09	10.32	-39.8	-41.0	18.4	0.00e+00	0	42	0	1992294400	49	4255
2026-01-28 06:38:35.19	298.92	10.29	-40.0	-41.1	18.2	0.00e+00	0	42	0	1998585856	49	4315
2026-01-28 06:38:36.19	298.75	10.25	-40.0	-41.1	18.2	0.00e+00	0	42	0	2005925888	49	4315
2026-01-28 06:38:37.19	298.58	10.22	-40.1	-41.2	18.1	0.00e+00	0	42	0	2013265920	49	4373
2026-01-28 06:38:38.19	298.42	10.19	-40.0	-41.2	18.1	0.00e+00	0	41	0	2020605952	49	4352
2026-01-28 06:38:39.19	298.25	10.16	-40.0	-41.1	18.2	0.00e+00	0	42	0	2027945984	49	4302
2026-01-28 06:38:40.20	298.08	10.12	-40.0	-41.1	18.2	0.00e+00	0	42	0	2035286016	49	4309
2026-01-28 06:38:41.20	297.91	10.09	-40.0	-41.2	18.2	0.00e+00	0	42	0	2042626048	49	4349
2026-01-28 06:38:42.20	297.75	10.05	-39.9	-41.0	18.3	0.00e+00	0	42	0	2049966080	49	4269
2026-01-28 06:38:43.20	297.58	10.02	-39.8	-40.9	18.4	0.00e+00	0	42	0	2056257536	49	4224
2026-01-28 06:38:44.20	297.42	9.99	-39.9	-41.0	18.3	0.00e+00	0	41	0	2063597568	49	4259
2026-01-28 06:38:45.20	297.25	9.95	-39.8	-40.9	18.4	0.00e+00	0	41	0	2070937600	49	4195
2026-01-28 06:38:46.20	297.09	9.92	-39.9	-41.0	18.3	0.00e+00	0	42	0	2078277632	49	4277
2026-01-28 06:38:47.20	296.92	9.88	-39.8	-40.9	18.4	0.00e+00	0	42	0	2085617664	49	4220
2026-01-28 06:38:48.20	296.76	9.85	-39.7	-40.9	18.4	0.00e+00	0	41	0	2092957696	49	4198
2026-01-28 06:38:49.20	296.60	9.81	-39.7	-40.9	18.5	0.00e+00	0	42	0	2100297728	49	4199
2026-01-28 06:38:50.21	296.43	9.78	-39.7	-40.8	18.4	0.00e+00	0	42	0	2107637760	49	4191
2026-01-28 06:38:51.21	296.27	9.74	-39.8	-40.9	18.5	0.00e+00	0	42	0	2114977792	49	4200
2026-01-28 06:38:52.21	296.11	9.71	-39.8	-40.9	18.3	0.00e+00	0	41	0	2122317824	49	4240
2026-01-28 06:38:53.21	295.94	9.67	-39.8	-40.9	18.4	0.00e+00	0	42	0	2129657856	49	4206
2026-01-28 06:38:54.21	295.78	9.63	-39.8	-40.9	18.4	0.00e+00	0	42	0	2136997888	49	4229
2026-01-28 06:38:55.21	295.62	9.60	-39.8	-40.9	18.4	0.00e+00	0	42	0	2143289344	49	4207
2026-01-28 06:38:56.21	295.46	9.56	-39.8	-40.9	18.4	0.00e+00	0	41	0	2150629376	49	4214
2026-01-28 06:38:57.22	295.30	9.53	-39.7	-40.8	18.5	0.00e+00	0	41	0	2157969408	49	4190
2026-01-28 06:38:58.22	295.14	9.49	-39.9	-41.0	18.3	0.00e+00	0	42	0	2165309440	49	4263
2026-01-28 06:38:59.22	294.98	9.45	-39.8	-41.0	18.3	0.00e+00	0	42	0	2172649472	49	4260
2026-01-28 06:39:00.22	294.82	9.42	-39.8	-40.9	18.3	0.00e+00	0	42	0	2179989504	49	4239
2026-01-28 06:39:01.22	294.66	9.38	-39.9	-41.1	18.2	0.00e+00	0	42	0	2187329536	49	4296
2026-01-28 06:39:02.22	294.50	9.34	-40.0	-41.1	18.2	0.00e+00	0	42	0	2194669568	49	4331
2026-01-28 06:39:03.22	294.35	9.30	-39.9	-41.0	18.2	0.00e+00	0	42	0	2200961024	49	4284
2026-01-28 06:39:04.22	294.19	9.27	-40.0	-41.1	18.1	0.00e+00	0	42	0	2208301056	49	4339
2026-01-28 06:39:05.22	294.03	9.23	-39.9	-41.1	18.2	0.00e+00	0	42	0	2215641088	49	4293
2026-01-28 06:39:06.22	293.88	9.19	-40.0	-41.1	18.2	0.00e+00	0	42	0	2222981120	49	4314
2026-01-28 06:39:07.22	293.72	9.15	-40.1	-41.2	18.1	0.00e+00	0	42	0	2230321152	49	4364
2026-01-28 06:39:08.22	293.56	9.12	-40.1	-41.2	18.1	0.00e+00	0	41	0	2237661184	49	4379
2026-01-28 06:39:09.22	293.41	9.08	-40.1	-41.3	18.0	0.00e+00	0	41	0	2245001216	49	4398
2026-01-28 06:39:10.22	293.25	9.04	-40.2	-41.4	17.9	0.00e+00	0	42	0	2252341248	49	4447
2026-01-28 06:39:11.22	293.10	9.00	-40.2	-41.4	17.8	0.00e+00	0	42	0	2259681280	50	4217
2026-01-28 06:39:12.21	292.95	8.96	-48.8	-55.5	4.8	4.08e-02	0	42	0	2265972736	66	8505
2026-01-28 06:39:13.21	292.79	8.92	-49.8	-60.5	3.8	8.47e-01	0	42	104	2265972736	69	12701
2026-01-28 06:39:14.20	292.64	8.88	-49.6	-60.4	3.8	8.46e-01	0	41	104	2265972736	69	12644
2026-01-28 06:39:15.20	292.49	8.85	-49.6	-60.4	3.8	8.45e-01	0	41	104	2265972736	69	12643
2026-01-28 06:39:16.19	292.34	8.81	-49.6	-60.5	3.8	8.48e-01	0	42	104	2265972736	69	12724
2026-01-28 06:39:17.19	292.19	8.77	-49.6	-60.5	3.8	8.46e-01	0	42	104	2265972736	69	12697
2026-01-28 06:39:18.18	292.04	8.73	-49.6	-60.3	3.8	8.47e-01	0	42	104	2265972736	69	12507
2026-01-28 06:39:19.18	291.89	8.69	-49.6	-60.2	3.8	8.47e-01	0	42	104	2265972736	69	12263
2026-01-28 06:39:20.18	291.73	8.65	-49.5	-60.0	3.8	8.48e-01	0	42	104	2265972736	69	12042
2026-01-28 06:39:21.17	291.59	8.61	-49.5	-59.8	3.8	8.47e-01	0	42	104	2265972736	69	11764
2026-01-28 06:39:22.17	291.44	8.57	-49.5	-59.8	3.8	8.48e-01	0	42	104	2265972736	69	11752
2026-01-28 06:39:23.17	291.29	8.53	-49.5	-59.9	3.8	8.46e-01	0	42	104	2265972736	69	11893
2026-01-28 06:39:24.17	291.14	8.49	-49.5	-60.0	3.8	8.46e-01	0	42	104	2265972736	69	12070
2026-01-28 06:39:25.16	290.99	8.45	-49.5	-60.1	3.8	8.47e-01	0	41	104	2265972736	69	12191
2026-01-28 06:39:26.16	290.84	8.41	-49.6	-60.2	3.8	8.48e-01	0	42	104	2265972736	69	12286
2026-01-28 06:39:27.15	290.70	8.37	-49.5	-60.2	3.8	8.47e-01	0	42	104	2265972736	69	12354
2026-01-28 06:39:28.15	290.55	8.33	-49.5	-60.2	3.8	8.47e-01	0	42	104	2265972736	69	12254
2026-01-28 06:39:29.15	290.40	8.29	-49.5	-60.1	3.8	8.48e-01	0	41	104	2265972736	69	12117
2026-01-28 06:39:30.14	290.26	8.25	-49.5	-60.0	3.8	8.47e-01	0	42	104	2265972736	69	11994
2026-01-28 06:39:31.13	290.11	8.21	-49.5	-60.0	3.8	8.46e-01	0	42	104	2265972736	69	12039
2026-01-28 06:39:32.13	289.97	8.17	-49.5	-60.0	3.8	8.46e-01	0	42	104	2265972736	69	11968
2026-01-28 06:39:33.12	289.82	8.13	-49.5	-60.0	3.8	8.47e-01	0	42	104	2265972736	69	12009
2026-01-28 06:39:34.12	289.68	8.08	-49.5	-60.0	3.8	8.47e-01	0	42	104	2265972736	69	12074
2026-01-28 06:39:35.12	289.53	8.04	-49.6	-60.2	3.8	8.45e-01	0	42	104	2265972736	69	12282
2026-01-28 06:39:36.11	289.39	8.00	-49.6	-60.3	3.8	8.46e-01	0	42	104	2265972736	69	12410
2026-01-28 06:39:37.11	289.25	7.96	-49.5	-60.1	3.8	8.47e-01	0	41	104	2265972736	69	12162
2026-01-28 06:39:38.10	289.10	7.92	-49.4	-59.5	3.8	8.47e-01	0	42	104	2265972736	69	11307
2026-01-28 06:39:39.10	288.96	7.88	-49.3	-58.7	3.8	8.46e-01	0	42	104	2265972736	69	10356
2026-01-28 06:39:40.09	288.82	7.84	-49.3	-58.2	3.8	8.45e-01	0	41	104	2265972736	69	9789
2026-01-28 06:39:41.09	288.68	7.79	-49.3	-58.4	3.8	8.45e-01	0	42	104	2265972736	69	10014
2026-01-28 06:39:42.08	288.54	7.75	-49.4	-59.3	3.8	8.46e-01	0	42	104	2265972736	69	11075
2026-01-28 06:39:43.08	288.40	7.71	-49.5	-60.1	3.8	8.47e-01	0	41	104	2265972736	69	12207
2026-01-28 06:39:44.08	288.26	7.67	-49.5	-59.6	3.8	8.47e-01	0	42	104	2265972736	69	11424
2026-01-28 06:39:45.07	288.12	7.63	-49.1	-57.5	3.9	8.43e-01	0	41	104	2265972736	69	9013
2026-01-28 06:39:46.07	287.98	7.58	-48.7	-55.2	4.9	8.10e-01	0	42	0	2265972736	68	7370
2026-01-28 06:39:47.06	287.84	7.54	-48.2	-53.7	5.7	6.25e-01	0	42	0	2265972736	67	6535
2026-01-28 06:39:48.06	287.70	7.50	-48.0	-53.2	6.1	3.35e-01	0	42	0	2273312768	66	6560
2026-01-28 06:39:49.06	287.56	7.46	-48.1	-53.5	5.9	3.41e-01	0	42	0	2280652800	66	6764
2026-01-28 06:39:50.05	287.42	7.41	-48.4	-54.3	5.3	7.17e-01	0	42	0	2284847104	66	7449
2026-01-28 06:39:51.05	287.29	7.37	-48.7	-55.6	4.6	7.98e-01	0	42	0	2284847104	66	8636
2026-01-28 06:39:52.04	287.15	7.33	-49.0	-57.2	4.1	8.36e-01	0	42	0	2284847104	67	9747
2026