passes_logs/2026/01/28/T1/T1__20260128_144153_FENGYUN_3E_rec.log

#Pass ID: 20260128_144153_FENGYUN 3E
#Satellite: FENGYUN 3E
#Configuration: FENGYUN 3E
#almurnet v.1.7.20251203
#Start time: 2026-01-28 14:41:54

#Version: 2.0.20230620
#Station: T1
#Location: 37.570604 lon 55.790049 lat
#TLE: 1 49008U 21062A   26027.83084825  .00000170  00000+0  10081-3 0  9997
#TLE: 2 49008  98.7501  32.8098 0002509 114.2687 245.8752 14.19888158236667

#Time	Az	El	Level	Level2	SNR	BER	BlckErr	Temp	State	Recorded	gain1	gain2
2026-01-28 14:41:54.25	175.65	5.02	-50.3	-61.3	3.8	8.47e-01	0	41	0	0	70	13257
2026-01-28 14:41:55.23	175.67	5.08	-50.7	-61.4	3.8	8.46e-01	0	41	104	0	71	12556
2026-01-28 14:41:56.23	175.70	5.16	-50.7	-61.4	3.8	8.47e-01	0	41	104	0	71	12597
2026-01-28 14:41:57.22	175.73	5.23	-50.5	-61.4	3.8	8.47e-01	0	41	104	0	71	12608
2026-01-28 14:41:58.21	175.76	5.30	-50.7	-61.4	3.8	8.47e-01	0	41	104	0	71	12602
2026-01-28 14:41:59.21	175.79	5.37	-50.7	-61.4	3.8	8.47e-01	0	41	104	0	71	12543
2026-01-28 14:42:00.20	175.82	5.44	-50.4	-61.4	3.8	8.47e-01	0	41	104	0	71	12543
2026-01-28 14:42:01.19	175.85	5.51	-50.5	-61.3	3.8	8.47e-01	0	41	104	0	71	12490
2026-01-28 14:42:02.18	175.88	5.58	-50.5	-61.5	3.8	8.48e-01	0	42	104	0	71	12677
2026-01-28 14:42:03.18	175.91	5.65	-50.7	-61.4	3.8	8.47e-01	0	41	104	0	71	12634
2026-01-28 14:42:04.17	175.94	5.73	-50.7	-61.3	3.8	8.46e-01	0	41	104	0	71	12490
2026-01-28 14:42:05.16	175.96	5.80	-50.3	-61.4	3.8	8.48e-01	0	41	104	0	71	12599
2026-01-28 14:42:06.16	175.99	5.87	-50.7	-61.4	3.8	8.48e-01	0	42	104	0	71	12568
2026-01-28 14:42:07.15	176.02	5.94	-50.6	-61.4	3.8	8.47e-01	0	42	104	0	71	12533
2026-01-28 14:42:08.14	176.05	6.01	-50.6	-61.3	3.8	8.46e-01	0	42	104	0	71	12496
2026-01-28 14:42:09.14	176.09	6.09	-50.6	-61.4	3.8	8.47e-01	0	42	104	0	71	12583
2026-01-28 14:42:10.13	176.12	6.16	-50.4	-61.3	3.8	8.48e-01	0	42	104	0	71	12444
2026-01-28 14:42:11.12	176.15	6.23	-50.5	-61.3	3.8	8.47e-01	0	42	104	0	71	12448
2026-01-28 14:42:12.12	176.18	6.31	-50.5	-61.3	3.8	8.48e-01	0	42	104	0	71	12391
2026-01-28 14:42:13.11	176.21	6.38	-50.4	-61.2	3.8	8.47e-01	0	42	104	0	71	12313
2026-01-28 14:42:14.10	176.24	6.45	-50.5	-61.2	3.8	8.46e-01	0	42	104	0	71	12290
2026-01-28 14:42:15.09	176.27	6.53	-50.2	-61.1	3.8	8.47e-01	0	42	104	0	71	12230
2026-01-28 14:42:16.09	176.30	6.60	-50.2	-61.2	3.8	8.47e-01	0	42	104	0	70	13030
2026-01-28 14:42:17.08	176.33	6.68	-50.2	-61.2	3.8	8.47e-01	0	42	104	0	70	12962
2026-01-28 14:42:18.07	176.36	6.75	-50.0	-61.1	3.8	8.47e-01	0	42	104	0	70	12823
2026-01-28 14:42:19.07	176.40	6.83	-49.5	-60.9	3.8	8.47e-01	0	42	104	0	69	13394
2026-01-28 14:42:20.06	176.43	6.90	-49.4	-60.4	3.8	8.46e-01	0	42	104	0	69	12622
2026-01-28 14:42:21.05	176.46	6.98	-48.7	-58.6	3.8	8.46e-01	0	42	104	0	67	11477
2026-01-28 14:42:22.04	176.49	7.05	-47.3	-59.0	3.8	8.47e-01	0	42	104	0	65	13461
2026-01-28 14:42:23.04	176.52	7.13	-47.0	-56.9	4.2	8.40e-01	0	42	0	0	64	11226
2026-01-28 14:42:24.03	176.56	7.21	-46.7	-54.5	5.3	7.87e-01	0	42	0	0	64	8490
2026-01-28 14:42:25.02	176.59	7.28	-46.2	-52.4	7.0	1.75e-01	0	42	0	4194304	63	7062
2026-01-28 14:42:26.02	176.62	7.36	-45.5	-50.4	8.9	3.77e-02	0	42	0	11534336	61	6330
2026-01-28 14:42:27.01	176.65	7.43	-44.7	-48.7	10.7	3.20e-03	0	42	0	18874368	60	5470
2026-01-28 14:42:28.00	176.69	7.51	-43.8	-47.0	12.3	3.02e-04	0	42	0	26214400	58	5066
2026-01-28 14:42:28.99	176.72	7.59	-43.1	-45.8	13.5	2.28e-05	0	42	0	33554432	56	4964
2026-01-28 14:42:29.99	176.75	7.67	-42.3	-44.8	14.5	0.00e+00	0	42	0	39845888	55	4666
2026-01-28 14:42:30.98	176.79	7.74	-41.9	-44.2	15.0	0.00e+00	0	42	0	47185920	54	4631
2026-01-28 14:42:31.97	176.82	7.82	-41.2	-43.3	15.9	0.00e+00	0	42	0	54525952	53	4416
2026-01-28 14:42:32.97	176.85	7.90	-40.9	-42.9	16.3	0.00e+00	0	42	0	61865984	52	4462
2026-01-28 14:42:33.96	176.89	7.98	-40.7	-42.6	16.5	0.00e+00	0	43	0	69206016	52	4338
2026-01-28 14:42:34.95	176.92	8.06	-40.7	-42.7	16.6	0.00e+00	0	42	0	76546048	51	4608
2026-01-28 14:42:35.94	176.96	8.13	-40.7	-42.7	16.6	0.00e+00	0	42	0	82837504	51	4603
2026-01-28 14:42:36.94	176.99	8.21	-40.9	-42.9	16.3	0.00e+00	0	42	0	90177536	51	4748
2026-01-28 14:42:37.93	177.03	8.29	-41.4	-43.6	15.6	0.00e+00	0	42	0	97517568	52	4826
2026-01-28 14:42:38.92	177.06	8.37	-41.8	-44.1	15.1	0.00e+00	0	43	0	104857600	53	4845
2026-01-28 14:42:39.92	177.10	8.45	-42.4	-44.9	14.3	2.20e-06	0	43	0	112197632	54	5012
2026-01-28 14:42:40.91	177.13	8.53	-43.2	-46.1	13.2	1.02e-05	0	43	0	119537664	55	5408
2026-01-28 14:42:41.90	177.17	8.61	-44.1	-47.3	12.0	1.53e-04	0	43	0	126877696	57	5588
2026-01-28 14:42:42.90	177.20	8.69	-44.7	-48.5	10.8	1.24e-03	0	43	0	133169152	58	6049
2026-01-28 14:42:43.89	177.24	8.77	-45.4	-50.2	9.2	1.45e-02	0	43	0	140509184	60	6531
2026-01-28 14:42:44.88	177.27	8.85	-45.9	-51.7	7.6	6.46e-02	0	42	0	147849216	61	7370
2026-01-28 14:42:45.87	177.31	8.94	-46.4	-53.3	6.2	2.51e-01	0	43	0	155189248	62	8318
2026-01-28 14:42:46.87	177.35	9.02	-46.8	-55.1	5.0	7.33e-01	0	43	0	159383552	62	10190
2026-01-28 14:42:47.86	177.38	9.10	-46.8	-53.7	5.9	6.86e-01	0	43	0	161480704	63	8184
2026-01-28 14:42:48.85	177.42	9.18	-44.2	-46.8	12.6	1.38e-03	0	43	0	168820736	59	4674
2026-01-28 14:42:49.84	177.46	9.26	-47.1	-59.6	3.8	8.02e-01	0	43	104	173015040	64	15251
2026-01-28 14:42:50.84	177.49	9.35	-46.9	-51.7	7.6	8.36e-01	0	43	104	173015040	64	6137
2026-01-28 14:42:51.83	177.53	9.43	-42.7	-44.7	14.7	3.08e-05	0	43	0	179306496	56	4367
2026-01-28 14:42:52.82	177.57	9.51	-42.1	-44.1	15.2	0.00e+00	0	43	0	185597952	54	4561
2026-01-28 14:42:53.81	177.61	9.59	-41.8	-43.7	15.5	0.00e+00	0	43	0	192937984	53	4650
2026-01-28 14:42:54.81	177.64	9.68	-41.2	-43.0	16.2	0.00e+00	0	43	0	200278016	52	4512
2026-01-28 14:42:55.80	177.68	9.76	-40.2	-41.9	17.3	0.00e+00	0	43	0	207618048	51	4211
2026-01-28 14:42:56.79	177.72	9.85	-40.4	-42.2	17.1	0.00e+00	0	43	0	214958080	50	4616
2026-01-28 14:42:57.79	177.76	9.93	-40.3	-42.0	17.2	0.00e+00	0	43	0	222298112	50	4522
2026-01-28 14:42:58.78	177.80	10.02	-39.8	-41.4	17.8	0.00e+00	0	43	0	228589568	50	4228
2026-01-28 14:42:59.77	177.84	10.10	-39.6	-41.3	17.8	0.00e+00	0	43	0	235929600	50	4164
2026-01-28 14:43:00.76	177.88	10.18	-39.8	-41.5	17.7	0.00e+00	0	43	0	243269632	50	4254
2026-01-28 14:43:01.76	177.91	10.27	-39.4	-41.1	18.1	0.00e+00	0	43	0	250609664	49	4306
2026-01-28 14:43:02.75	177.95	10.36	-39.0	-40.6	18.5	0.00e+00	0	43	0	257949696	48	4307
2026-01-28 14:43:03.74	177.99	10.44	-38.8	-40.4	18.7	0.00e+00	0	43	0	265289728	48	4203
2026-01-28 14:43:04.74	178.03	10.53	-38.8	-40.4	18.7	0.00e+00	0	43	0	271581184	48	4219
2026-01-28 14:43:05.73	178.07	10.62	-38.8	-40.4	18.7	0.00e+00	0	43	0	278921216	48	4213
2026-01-28 14:43:06.72	178.11	10.70	-38.6	-40.1	18.9	0.00e+00	0	43	0	286261248	48	4095
2026-01-28 14:43:07.72	178.16	10.79	-38.5	-40.1	18.7	0.00e+00	0	43	0	293601280	47	4302
2026-01-28 14:43:08.71	178.20	10.88	-38.3	-39.9	18.9	0.00e+00	0	43	0	300941312	47	4215
2026-01-28 14:43:09.70	178.24	10.97	-38.2	-39.7	19.1	0.00e+00	0	43	0	308281344	47	4125
2026-01-28 14:43:10.70	178.28	11.05	-38.3	-39.8	19.0	0.00e+00	0	43	0	314572800	47	4163
2026-01-28 14:43:11.69	178.32	11.14	-38.0	-39.5	19.2	0.00e+00	0	43	0	321912832	46	4285
2026-01-28 14:43:12.68	178.36	11.23	-38.2	-39.7	19.1	0.00e+00	0	43	0	329252864	46	4354
2026-01-28 14:43:13.67	178.40	11.32	-38.2	-39.7	19.0	0.00e+00	0	43	0	336592896	46	4381
2026-01-28 14:43:14.67	178.45	11.41	-38.2	-39.8	19.0	0.00e+00	0	43	0	343932928	46	4394
2026-01-28 14:43:15.66	178.49	11.50	-38.1	-39.6	19.2	0.00e+00	0	43	0	351272960	46	4327
2026-01-28 14:43:16.65	178.53	11.59	-38.2	-39.6	19.2	0.00e+00	0	43	0	358612992	46	4340
2026-01-28 14:43:17.64	178.57	11.68	-38.1	-39.6	19.2	0.00e+00	0	43	0	364904448	46	4308
2026-01-28 14:43:18.64	178.62	11.77	-38.1	-39.6	19.2	0.00e+00	0	43	0	372244480	46	4321
2026-01-28 14:43:19.63	178.66	11.86	-38.0	-39.5	19.3	0.00e+00	0	43	0	379584512	46	4280
2026-01-28 14:43:20.62	178.70	11.95	-38.0	-39.5	19.3	0.00e+00	0	43	0	386924544	46	4260
2026-01-28 14:43:21.62	178.75	12.05	-38.1	-39.6	19.2	0.00e+00	0	43	0	394264576	46	4301
2026-01-28 14:43:22.61	178.79	12.14	-38.0	-39.5	19.3	0.00e+00	0	43	0	401604608	46	4268
2026-01-28 14:43:23.60	178.84	12.23	-37.9	-39.4	19.3	0.00e+00	0	43	0	408944640	46	4229
2026-01-28 14:43:24.60	178.88	12.32	-37.8	-39.3	19.5	0.00e+00	0	43	0	415236096	46	4159
2026-01-28 14:43:25.59	178.93	12.42	-37.7	-39.2	19.6	0.00e+00	0	43	0	422576128	46	4121
2026-01-28 14:43:26.58	178.97	12.51	-37.8	-39.3	19.5	0.00e+00	0	43	0	429916160	46	4154
2026-01-28 14:43:27.57	179.02	12.60	-37.8	-39.2	19.5	0.00e+00	0	43	0	437256192	46	4141
2026-01-28 14:43:28.57	179.06	12.70	-37.6	-39.1	19.6	0.00e+00	0	43	0	444596224	46	4082
2026-01-28 14:43:29.56	179.11	12.79	-37.6	-39.1	19.6	0.00e+00	0	43	0	450887680	46	4078
2026-01-28 14:43:30.55	179.16	12.89	-37.7	-39.2	19.5	0.00e+00	0	43	0	458227712	46	4117
2026-01-28 14:43:31.54	179.20	12.98	-37.6	-39.1	19.7	0.00e+00	0	43	0	465567744	46	4059
2026-01-28 14:43:32.54	179.25	13.08	-37.8	-39.3	19.4	0.00e+00	0	43	0	472907776	46	4177
2026-01-28 14:43:33.53	179.30	13.17	-37.6	-39.1	19.6	0.00e+00	0	43	0	480247808	46	4080
2026-01-28 14:43:34.52	179.34	13.27	-37.5	-39.0	19.7	0.00e+00	0	43	0	487587840	45	4249
2026-01-28 14:43:35.52	179.39	13.37	-37.5	-39.0	19.7	0.00e+00	0	43	0	493879296	45	4248
2026-01-28 14:43:36.51	179.44	13.46	-37.4	-38.9	19.8	0.00e+00	0	43	0	501219328	45	4218
2026-01-28 14:43:37.50	179.49	13.56	-37.4	-38.9	19.8	0.00e+00	0	43	0	508559360	45	4217
2026-01-28 14:43:38.49	179.54	13.66	-37.4	-38.9	19.8	0.00e+00	0	43	0	515899392	45	4194
2026-01-28 14:43:39.49	179.59	13.76	-37.5	-39.0	19.7	0.00e+00	0	43	0	523239424	45	4252
2026-01-28 14:43:40.48	179.64	13.85	-37.5	-39.0	19.7	0.00e+00	0	43	0	530579456	45	4249
2026-01-28 14:43:41.47	179.69	13.95	-37.3	-38.8	19.9	0.00e+00	0	43	0	536870912	45	4146
2026-01-28 14:43:42.47	179.74	14.05	-37.2	-38.7	19.9	0.00e+00	0	43	0	544210944	45	4131
2026-01-28 14:43:43.46	179.79	14.15	-37.2	-38.6	20.0	0.00e+00	0	44	0	551550976	45	4089
2026-01-28 14:43:44.45	179.84	14.25	-37.1	-38.6	20.0	0.00e+00	0	43	0	558891008	44	4314
2026-01-28 14:43:45.44	179.89	14.35	-37.1	-38.5	20.1	0.00e+00	0	43	0	566231040	44	4278
2026-01-28 14:43:46.44	179.94	14.45	-37.0	-38.5	20.1	0.00e+00	0	43	0	572522496	44	4259
2026-01-28 14:43:47.43	179.99	14.55	-36.9	-38.3	20.3	0.00e+00	0	43	0	579862528	44	4176
2026-01-28 14:43:48.42	180.04	14.66	-36.8	-38.3	20.4	0.00e+00	0	43	0	587202560	44	4155
2026-01-28 14:43:49.42	180.09	14.76	-36.9	-38.3	20.2	0.00e+00	0	43	0	594542592	44	4181
2026-01-28 14:43:50.41	180.15	14.86	-36.9	-38.3	20.2	0.00e+00	0	43	0	601882624	44	4184
2026-01-28 14:43:51.40	180.20	14.96	-36.8	-38.2	20.4	0.00e+00	0	43	0	609222656	44	4126
2026-01-28 14:43:52.39	180.25	15.07	-36.8	-38.3	20.3	0.00e+00	0	43	0	615514112	44	4149
2026-01-28 14:43:53.39	180.31	15.17	-36.9	-38.3	20.3	0.00e+00	0	44	0	622854144	44	4172
2026-01-28 14:43:54.38	180.36	15.27	-36.8	-38.3	20.3	0.00e+00	0	44	0	630194176	44	4149
2026-01-28 14:43:55.37	180.42	15.38	-36.8	-38.2	20.4	0.00e+00	0	43	0	637534208	44	4121
2026-01-28 14:43:56.37	180.47	15.48	-36.7	-38.1	20.5	0.00e+00	0	43	0	644874240	44	4083
2026-01-28 14:43:57.36	180.53	15.59	-36.7	-38.2	20.4	0.00e+00	0	43	0	652214272	44	4100
2026-01-28 14:43:58.35	180.58	15.70	-36.7	-38.1	20.5	0.00e+00	0	43	0	659554304	44	4064
2026-01-28 14:43:59.34	180.64	15.80	-36.5	-37.9	20.5	0.00e+00	0	43	0	665845760	43	4196
2026-01-28 14:44:00.34	180.69	15.91	-36.5	-37.9	20.5	0.00e+00	0	43	0	673185792	43	4231
2026-01-28 14:44:01.33	180.75	16.02	-36.6	-38.0	20.4	0.00e+00	0	43	0	680525824	43	4267
2026-01-28 14:44:02.32	180.81	16.12	-36.6	-38.0	20.4	0.00e+00	0	43	0	687865856	43	4268
2026-01-28 14:44:03.32	180.86	16.23	-36.5	-37.9	20.5	0.00e+00	0	43	0	695205888	43	4225
2026-01-28 14:44:04.31	180.92	16.34	-36.3	-37.8	20.5	0.00e+00	0	44	0	702545920	43	4147
2026-01-28 14:44:05.30	180.98	16.45	-36.4	-37.8	20.5	0.00e+00	0	43	0	709885952	43	4182
2026-01-28 14:44:06.30	181.04	16.56	-36.4	-37.9	20.5	0.00e+00	0	43	0	716177408	43	4199
2026-01-28 14:44:07.29	181.10	16.67	-36.4	-37.8	20.5	0.00e+00	0	44	0	723517440	43	4158
2026-01-28 14:44:08.28	181.16	16.78	-36.4	-37.8	20.5	0.00e+00	0	44	0	730857472	43	4183
2026-01-28 14:44:09.27	181.21	16.89	-36.3	-37.7	20.6	0.00e+00	0	44	0	738197504	43	4141
2026-01-28 14:44:10.27	181.28	17.00	-36.2	-37.6	20.7	0.00e+00	0	43	0	745537536	43	4089
2026-01-28 14:44:11.26	181.34	17.11	-36.3	-37.7	20.6	0.00e+00	0	44	0	752877568	43	4115
2026-01-28 14:44:12.25	181.40	17.23	-36.3	-37.7	20.6	0.00e+00	0	44	0	759169024	43	4131
2026-01-28 14:44:13.25	181.46	17.34	-36.3	-37.8	20.5	0.00e+00	0	44	0	766509056	43	4148
2026-01-28 14:44:14.24	181.52	17.45	-36.2	-37.7	20.6	0.00e+00	0	44	0	773849088	43	4107
2026-01-28 14:44:15.23	181.58	17.57	-36.2	-37.6	20.7	0.00e+00	0	44	0	781189120	42	4299
2026-01-28 14:44:16.23	181.65	17.68	-36.3	-37.7	20.5	0.00e+00	0	43	0	788529152	42	4374
2026-01-28 14:44:17.22	181.71	17.80	-36.2	-37.6	20.6	0.00e+00	0	44	0	795869184	42	4338
2026-01-28 14:44:18.21	181.77	17.91	-36.2	-37.7	20.6	0.00e+00	0	44	0	802160640	42	4358
2026-01-28 14:44:19.20	181.84	18.03	-36.1	-37.6	20.7	0.00e+00	0	43	0	809500672	42	4297
2026-01-28 14:44:20.20	181.90	18.14	-36.2	-37.7	20.6	0.00e+00	0	44	0	816840704	42	4352
2026-01-28 14:44:21.19	181.97	18.26	-36.1	-37.5	20.7	0.00e+00	0	44	0	824180736	42	4264
2026-01-28 14:44:22.18	182.03	18.38	-36.1	-37.5	20.8	0.00e+00	0	44	0	831520768	42	4253
2026-01-28 14:44:23.18	182.10	18.50	-35.9	-37.3	20.9	0.00e+00	0	44	0	838860800	42	4183
2026-01-28 14:44:24.17	182.16	18.61	-36.0	-37.4	20.9	0.00e+00	0	44	0	845152256	42	4199
2026-01-28 14:44:25.16	182.23	18.73	-36.1	-37.5	20.7	0.00e+00	0	43	0	852492288	42	4291
2026-01-28 14:44:26.16	182.30	18.85	-35.8	-37.1	21.0	0.00e+00	0	44	0	859832320	42	4089
2026-01-28 14:44:27.15	182.37	18.97	-35.9	-37.3	21.0	0.00e+00	0	44	0	867172352	42	4150
2026-01-28 14:44:28.14	182.44	19.09	-35.7	-37.1	21.1	0.00e+00	0	44	0	874512384	42	4093
2026-01-28 14:44:29.13	182.50	19.21	-35.8	-37.1	21.1	0.00e+00	0	44	0	880803840	42	4097
2026-01-28 14:44:30.13	182.57	19.34	-35.8	-37.1	21.0	0.00e+00	0	44	0	888143872	42	4095
2026-01-28 14:44:31.12	182.64	19.46	-35.9	-37.3	21.0	0.00e+00	0	44	0	895483904	41	4406
2026-01-28 14:44:32.11	182.71	19.58	-35.7	-37.1	21.1	0.00e+00	0	44	0	902823936	41	4308
2026-01-28 14:44:33.11	182.79	19.71	-35.8	-37.2	21.0	0.00e+00	0	44	0	910163968	41	4370
2026-01-28 14:44:34.10	182.86	19.83	-35.7	-37.1	21.1	0.00e+00	0	44	0	917504000	41	4322
2026-01-28 14:44:35.09	182.93	19.95	-35.7	-37.1	21.1	0.00e+00	0	43	0	923795456	41	4325
2026-01-28 14:44:36.08	183.00	20.08	-35.9	-37.3	20.9	0.00e+00	0	44	0	931135488	41	4409
2026-01-28 14:44:37.08	183.08	20.20	-35.8	-37.1	21.1	0.00e+00	0	44	0	938475520	41	4339
2026-01-28 14:44:38.07	183.15	20.33	-35.8	-37.2	21.1	0.00e+00	0	44	0	945815552	41	4350
2026-01-28 14:44:39.06	183.22	20.46	-35.8	-37.2	21.1	0.00e+00	0	44	0	953155584	41	4352
2026-01-28 14:44:40.06	183.30	20.59	-35.8	-37.1	21.1	0.00e+00	0	44	0	960495616	41	4338
2026-01-28 14:44:41.05	183.38	20.71	-35.8	-37.2	21.0	0.00e+00	0	44	0	967835648	41	4366
2026-01-28 14:44:42.04	183.45	20.84	-35.8	-37.2	21.1	0.00e+00	0	44	0	974127104	41	4363
2026-01-28 14:44:43.04	183.53	20.97	-35.8	-37.2	21.1	0.00e+00	0	43	0	981467136	41	4354
2026-01-28 14:44:44.03	183.61	21.10	-35.8	-37.2	21.1	0.00e+00	0	44	0	988807168	41	4378
2026-01-28 14:44:45.02	183.68	21.23	-35.9	-37.2	21.1	0.00e+00	0	43	0	996147200	41	4387
2026-01-28 14:44:46.01	183.76	21.36	-35.6	-36.9	21.3	0.00e+00	0	43	0	1003487232	41	4231
2026-01-28 14:44:47.01	183.84	21.50	-35.8	-37.1	21.2	0.00e+00	0	44	0	1010827264	41	4326
2026-01-28 14:44:48.00	183.92	21.63	-35.9	-37.2	21.1	0.00e+00	0	44	0	1018167296	41	4374
2026-01-28 14:44:48.99	184.00	21.76	-35.8	-37.2	21.2	0.00e+00	0	44	0	1024458752	41	4351
2026-01-28 14:44:49.99	184.09	21.90	-35.7	-37.1	21.2	0.00e+00	0	44	0	1031798784	41	4313
2026-01-28 14:44:50.98	184.17	22.03	-35.7	-37.0	21.3	0.00e+00	0	44	0	1039138816	41	4262
2026-01-28 14:44:51.97	184.25	22.16	-35.7	-37.0	21.0	0.00e+00	0	43	0	1046478848	41	4278
2026-01-28 14:44:52.96	184.33	22.30	-35.6	-36.9	21.4	0.00e+00	0	44	0	1053818880	41	4228
2026-01-28 14:44:53.96	184.42	22.44	-35.6	-36.9	21.4	0.00e+00	0	44	0	1061158912	41	4209
2026-01-28 14:44:54.95	184.50	22.57	-35.6	-36.9	21.4	0.00e+00	0	43	0	1067450368	41	4222
2026-01-28 14:44:55.94	184.59	22.71	-35.6	-36.9	21.4	0.00e+00	0	44	0	1074790400	41	4231
2026-01-28 14:44:56.94	184.68	22.85	-35.5	-36.8	21.5	0.00e+00	0	44	0	1082130432	41	4150
2026-01-28 14:44:57.93	184.76	22.99	-35.7	-37.0	21.3	0.00e+00	0	44	0	1089470464	41	4260
2026-01-28 14:44:58.92	184.85	23.13	-35.6	-36.9	21.3	0.00e+00	0	44	0	1096810496	41	4234
2026-01-28 14:44:59.91	184.94	23.27	-35.5	-36.9	21.4	0.00e+00	0	44	0	1103101952	41	4196
2026-01-28 14:45:00.91	185.03	23.41	-35.6	-37.0	21.3	0.00e+00	0	43	0	1110441984	41	4244
2026-01-28 14:45:01.90	185.12	23.55	-35.3	-36.6	21.6	0.00e+00	0	44	0	1117782016	41	4078
2026-01-28 14:45:02.89	185.21	23.70	-35.5	-36.9	21.3	0.00e+00	0	44	0	1125122048	41	4210
2026-01-28 14:45:03.89	185.30	23.84	-35.5	-36.9	21.4	0.00e+00	0	44	0	1132462080	41	4195
2026-01-28 14:45:04.88	185.40	23.98	-35.5	-36.8	21.4	0.00e+00	0	44	0	1139802112	41	4187
2026-01-28 14:45:05.87	185.49	24.13	-35.4	-36.8	21.5	0.00e+00	0	44	0	1146093568	41	4154
2026-01-28 14:45:06.86	185.58	24.27	-35.5	-36.9	21.4	0.00e+00	0	44	0	1153433600	41	4195
2026-01-28 14:45:07.86	185.68	24.42	-35.3	-36.6	21.6	0.00e+00	0	44	0	1160773632	41	4079
2026-01-28 14:45:08.85	185.77	24.57	-35.2	-36.6	21.6	0.00e+00	0	44	0	1168113664	41	4053
2026-01-28 14:45:09.84	185.87	24.72	-35.1	-36.4	21.8	0.00e+00	0	44	0	1175453696	41	3974
2026-01-28 14:45:10.83	185.97	24.86	-35.1	-36.4	21.7	0.00e+00	0	44	0	1182793728	41	3989
2026-01-28 14:45:11.83	186.07	25.01	-35.1	-36.4	21.7	0.00e+00	0	44	0	1189085184	40	4205
2026-01-28 14:45:12.82	186.17	25.16	-35.1	-36.4	21.7	0.00e+00	0	44	0	1196425216	40	4234
2026-01-28 14:45:13.81	186.27	25.32	-35.0	-36.3	21.8	0.00e+00	0	44	0	1203765248	40	4146
2026-01-28 14:45:14.81	186.37	25.47	-34.9	-36.2	21.9	0.00e+00	0	44	0	1211105280	40	4104
2026-01-28 14:45:15.80	186.47	25.62	-34.8	-36.0	22.0	0.00e+00	0	44	0	1218445312	40	4045
2026-01-28 14:45:16.79	186.57	25.77	-34.9	-36.2	21.9	0.00e+00	0	44	0	1225785344	40	4120
2026-01-28 14:45:17.79	186.68	25.93	-34.6	-35.8	22.2	0.00e+00	0	44	0	1232076800	40	3946
2026-01-28 14:45:18.78	186.78	26.08	-34.8	-36.1	22.0	0.00e+00	0	44	0	1239416832	40	4070
2026-01-28 14:45:19.77	186.89	26.24	-34.8	-36.1	21.9	0.00e+00	0	44	0	1246756864	40	4082
2026-01-28 14:45:20.76	187.00	26.39	-34.7	-36.0	22.0	0.00e+00	0	44	0	1254096896	40	4045
2026-01-28 14:45:21.76	187.11	26.55	-34.8	-36.1	22.0	0.00e+00	0	44	0	1261436928	40	4088
2026-01-28 14:45:22.75	187.22	26.71	-35.0	-36.3	21.8	0.00e+00	0	44	0	1268776960	40	4188
2026-01-28 14:45:23.74	187.33	26.87	-34.8	-36.2	21.9	0.00e+00	0	44	0	1275068416	40	4113
2026-01-28 14:45:24.74	187.44	27.03	-34.8	-36.1	21.9	0.00e+00	0	44	0	1282408448	40	4095
2026-01-28 14:45:25.73	187.55	27.19	-34.8	-36.2	21.9	0.00e+00	0	44	0	1289748480	40	4100
2026-01-28 14:45:26.72	187.66	27.35	-34.9	-36.3	21.9	0.00e+00	0	44	0	1297088512	40	4147
2026-01-28 14:45:27.71	187.78	27.51	-34.9	-36.3	21.9	0.00e+00	0	44	0	1304428544	40	4151
2026-01-28 14:45:28.70	187.89	27.67	-35.0	-36.4	21.8	0.00e+00	0	44	0	1311768576	40	4195
2026-01-28 14:45:29.70	188.01	27.84	-34.9	-36.3	21.9	0.00e+00	0	44	0	1319108608	40	4154
2026-01-28 14:45:30.69	188.13	28.00	-35.0	-36.4	21.8	0.00e+00	0	44	0	1325400064	40	4202
2026-01-28 14:45:31.68	188.25	28.17	-34.8	-36.2	22.0	0.00e+00	0	44	0	1332740096	40	4105
2026-01-28 14:45:32.68	188.37	28.34	-34.9	-36.2	22.0	0.00e+00	0	44	0	1340080128	40	4118
2026-01-28 14:45:33.67	188.49	28.50	-34.8	-36.1	22.1	0.00e+00	0	44	0	1347420160	40	4078
2026-01-28 14:45:34.66	188.62	28.67	-34.7	-36.0	22.1	0.00e+00	0	44	0	1354760192	40	4023
2026-01-28 14:45:35.65	188.74	28.84	-34.6	-35.9	22.3	0.00e+00	0	44	0	1362100224	39	4205
2026-01-28 14:45:36.65	188.87	29.01	-34.6	-35.8	22.4	0.00e+00	0	44	0	1368391680	39	4186
2026-01-28 14:45:37.64	188.99	29.18	-34.6	-35.8	22.4	0.00e+00	0	44	0	1375731712	39	4170
2026-01-28 14:45:38.63	189.12	29.35	-34.2	-35.4	22.8	0.00e+00	0	44	0	1383071744	39	3964
2026-01-28 14:45:39.62	189.25	29.53	-34.5	-35.7	22.5	0.00e+00	0	44	0	1390411776	39	4133
2026-01-28 14:45:40.62	189.38	29.70	-34.6	-35.8	22.4	0.00e+00	0	44	0	1397751808	39	4176
2026-01-28 14:45:41.61	189.51	29.88	-34.5	-35.7	22.5	0.00e+00	0	44	0	1405091840	39	4142
2026-01-28 14:45:42.60	189.65	30.05	-34.6	-35.8	22.5	0.00e+00	0	44	0	1411383296	39	4169
2026-01-28 14:45:43.60	189.78	30.23	-34.7	-35.9	22.4	0.00e+00	0	44	0	1418723328	39	4224
2026-01-28 14:45:44.59	189.92	30.40	-34.9	-36.1	22.2	0.00e+00	0	44	0	1426063360	39	4335
2026-01-28 14:45:45.58	190.06	30.58	-34.9	-36.2	22.2	0.00e+00	0	44	0	1433403392	39	4356
2026-01-28 14:45:46.58	190.20	30.76	-35.0	-36.3	22.1	0.00e+00	0	44	0	1440743424	39	4397
2026-01-28 14:45:47.57	190.34	30.94	-35.0	-36.3	22.0	0.00e+00	0	44	0	1448083456	39	4433
2026-01-28 14:45:48.56	190.48	31.12	-35.0	-36.3	22.0	0.00e+00	0	44	0	1454374912	39	4416
2026-01-28 14:45:49.55	190.62	31.30	-35.1	-36.5	21.8	0.00e+00	0	44	0	1461714944	39	4524
2026-01-28 14:45:50.55	190.77	31.49	-34.9	-36.3	22.0	0.00e+00	0	44	0	1469054976	39	4409
2026-01-28 14:45:51.54	190.92	31.67	-34.9	-36.2	22.0	0.00e+00	0	44	0	1476395008	39	4388
2026-01-28 14:45:52.53	191.07	31.86	-34.9	-36.2	22.1	0.00e+00	0	44	0	1483735040	39	4369
2026-01-28 14:45:53.53	191.22	32.04	-34.9	-36.3	22.0	0.00e+00	0	44	0	1490026496	39	4401
2026-01-28 14:45:54.52	191.37	32.23	-34.7	-36.0	22.2	0.00e+00	0	44	0	1497366528	39	4288
2026-01-28 14:45:55.51	191.53	32.42	-34.7	-36.0	22.2	0.00e+00	0	44	0	1504706560	39	4266
2026-01-28 14:45:56.50	191.68	32.60	-34.6	-36.0	22.3	0.00e+00	0	44	0	1512046592	39	4250
2026-01-28 14:45:57.50	191.84	32.80	-34.5	-35.8	22.4	0.00e+00	0	44	0	1519386624	39	4193
2026-01-28 14:45:58.49	192.00	32.99	-34.7	-36.0	22.3	0.00e+00	0	44	0	1526726656	39	4270
2026-01-28 14:45:59.48	192.16	33.18	-34.7	-36.1	22.1	0.00e+00	0	44	0	1533018112	39	4320
2026-01-28 14:46:00.48	192.32	33.37	-34.7	-36.1	22.2	0.00e+00	0	44	0	1540358144	39	4302
2026-01-28 14:46:01.47	192.49	33.56	-34.6	-35.9	22.3	0.00e+00	0	44	0	1547698176	39	4237
2026-01-28 14:46:02.46	192.66	33.76	-34.5	-35.9	22.3	0.00e+00	0	44	0	1555038208	39	4197
2026-01-28 14:46:03.45	192.82	33.95	-34.4	-35.7	22.4	0.00e+00	0	44	0	1562378240	39	4139
2026-01-28 14:46:04.45	193.00	34.15	-34.4	-35.7	22.5	0.00e+00	0	44	0	1569718272	39	4123
2026-01-28 14:46:05.44	193.17	34.35	-34.4	-35.7	22.5	0.00e+00	0	44	0	1576009728	39	4121
2026-01-28 14:46:06.43	193.34	34.54	-34.5	-35.8	22.4	0.00e+00	0	44	0	1583349760	39	4157
2026-01-28 14:46:07.43	193.52	34.75	-34.5	-35.8	22.4	0.00e+00	0	44	0	1590689792	39	4152
2026-01-28 14:46:08.42	193.70	34.95	-34.6	-35.8	22.4	0.00e+00	0	44	0	1598029824	39	4179
2026-01-28 14:46:09.41	193.88	35.15	-34.7	-36.0	22.3	0.00e+00	0	44	0	1605369856	39	4247
2026-01-28 14:46:10.40	194.06	35.35	-35.1	-36.4	21.7	0.00e+00	0	44	0	1612709888	40	4234
2026-01-28 14:46:11.40	194.25	35.55	-34.9	-36.2	22.0	0.00e+00	0	44	0	1620049920	39	4344
2026-01-28 14:46:12.39	194.44	35.76	-35.0	-36.3	22.0	0.00e+00	0	44	0	1626341376	39	4408
2026-01-28 14:46:13.38	194.63	35.96	-35.0	-36.3	21.9	0.00e+00	0	44	0	1633681408	39	4427
2026-01-28 14:46:14.38	194.82	36.17	-35.1	-36.4	21.8	0.00e+00	0	44	0	1641021440	39	4479
2026-01-28 14:46:15.37	195.02	36.37	-35.2	-36.6	21.5	0.00e+00	0	44	0	1648361472	40	4297
2026-01-28 14:46:16.36	195.22	36.58	-35.0	-36.4	21.8	0.00e+00	0	44	0	1655701504	39	4450
2026-01-28 14:46:17.35	195.42	36.79	-34.9	-36.2	21.9	0.00e+00	0	44	0	1663041536	39	4391
2026-01-28 14:46:18.35	195.62	37.00	-34.8	-36.0	22.1	0.00e+00	0	44	0	1670381568	39	4290
2026-01-28 14:46:19.34	195.83	37.21	-34.7	-36.0	22.2	0.00e+00	0	44	0	1676673024	39	4261
2026-01-28 14:46:20.33	196.03	37.42	-34.7	-36.0	22.3	0.00e+00	0	44	0	1684013056	39	4259
2026-01-28 14:46:21.32	196.24	37.64	-35.0	-36.3	22.0	0.00e+00	0	44	0	1691353088	39	4415
2026-01-28 14:46:22.32	196.46	37.85	-35.0	-36.3	22.0	0.00e+00	0	44	0	1698693120	39	4415
2026-01-28 14:46:23.31	196.67	38.06	-35.1	-36.4	21.9	0.00e+00	0	44	0	1706033152	39	4492
2026-01-28 14:46:24.30	196.89	38.28	-35.2	-36.6	21.8	0.00e+00	0	44	0	1713373184	39	4580
2026-01-28 14:46:25.30	197.12	38.50	-35.1	-36.5	22.0	0.00e+00	0	44	0	1719664640	39	4494
2026-01-28 14:46:26.29	197.34	38.71	-35.3	-36.7	21.6	0.00e+00	0	44	0	1727004672	40	4378
2026-01-28 14:46:27.28	197.57	38.93	-34.9	-36.2	22.1	0.00e+00	0	44	0	1734344704	40	4126
2026-01-28 14:46:28.27	197.80	39.15	-34.9	-36.2	22.2	0.00e+00	0	44	0	1741684736	40	4122
2026-01-28 14:46:29.27	198.03	39.37	-35.0	-36.3	22.1	0.00e+00	0	44	0	1749024768	40	4148
2026-01-28 14:46:30.26	198.27	39.59	-35.2	-36.5	21.9	0.00e+00	0	44	0	1755316224	40	4289
2026-01-28 14:46:31.25	198.51	39.81	-35.3	-36.7	21.8	0.00e+00	0	44	0	1762656256	40	4350
2026-01-28 14:46:32.25	198.75	40.04	-35.5	-36.8	21.6	0.00e+00	0	44	0	1769996288	40	4441
2026-01-28 14:46:33.24	199.00	40.26	-35.3	-36.7	21.7	0.00e+00	0	44	0	1777336320	40	4362
2026-01-28 14:46:34.23	199.25	40.49	-35.3	-36.7	21.7	0.00e+00	0	44	0	1784676352	40	4348
2026-01-28 14:46:35.22	199.50	40.71	-35.2	-36.5	21.9	0.00e+00	0	44	0	1792016384	40	4281
2026-01-28 14:46:36.22	199.76	40.94	-34.9	-36.2	22.1	0.00e+00	0	44	0	1798307840	40	4135
2026-01-28 14:46:37.21	200.02	41.16	-34.8	-36.1	22.2	0.00e+00	0	44	0	1805647872	40	4065
2026-01-28 14:46:38.20	200.29	41.39	-34.7	-35.9	22.3	0.00e+00	0	44	0	1812987904	40	3994
2026-01-28 14:46:39.20	200.56	41.62	-34.8	-36.0	22.2	0.00e+00	0	44	0	1820327936	40	4043
2026-01-28 14:46:40.19	200.83	41.85	-34.8	-36.0	22.2	0.00e+00	0	44	0	1827667968	40	4038
2026-01-28 14:46:41.18	201.10	42.08	-35.1	-36.4	21.9	0.00e+00	0	44	0	1835008000	40	4235
2026-01-28 14:46:42.18	201.38	42.31	-35.5	-36.9	21.5	0.00e+00	0	44	0	1841299456	40	4448
2026-01-28 14:46:43.17	201.67	42.54	-35.4	-36.8	21.6	0.00e+00	0	44	0	1848639488	40	4422
2026-01-28 14:46:44.16	201.95	42.77	-35.4	-36.8	21.7	0.00e+00	0	44	0	1855979520	40	4392
2026-01-28 14:46:45.16	202.25	43.01	-35.2	-36.5	22.0	0.00e+00	0	44	0	1863319552	40	4272
2026-01-28 14:46:46.15	202.54	43.24	-35.2	-36.5	22.0	0.00e+00	0	44	0	1870659584	40	4283
2026-01-28 14:46:47.14	202.84	43.47	-35.4	-36.8	21.8	0.00e+00	0	44	0	1876951040	40	4409
2026-01-28 14:46:48.13	203.14	43.70	-35.4	-36.7	21.8	0.00e+00	0	44	0	1884291072	40	4369
2026-01-28 14:46:49.13	203.45	43.94	-35.4	-36.7	21.8	0.00e+00	0	44	0	1891631104	40	4383
2026-01-28 14:46:50.12	203.77	44.18	-35.3	-36.6	21.8	0.00e+00	0	44	0	1898971136	40	4322
2026-01-28 14:46:51.11	204.08	44.41	-35.2	-36.5	21.9	0.00e+00	0	44	0	1906311168	40	4269
2026-01-28 14:46:52.10	204.41	44.65	-35.2	-36.5	21.9	0.00e+00	0	44	0	1913651200	40	4265
2026-01-28 14:46:53.10	204.74	44.88	-35.3	-36.7	21.8	0.00e+00	0	44	0	1920991232	40	4341
2026-01-28 14:46:54.09	205.07	45.12	-35.1	-36.4	22.0	0.00e+00	0	44	0	1927282688	40	4216
2026-01-28 14:46:55.08	205.40	45.36	-35.2	-36.5	22.0	0.00e+00	0	44	0	1934622720	40	4246
2026-01-28 14:46:56.08	205.75	45.60	-35.3	-36.6	21.8	0.00e+00	0	44	0	1941962752	40	4330
2026-01-28 14:46:57.07	206.09	45.83	-35.4	-36.6	21.9	0.00e+00	0	44	0	1949302784	40	4335
2026-01-28 14:46:58.06	206.45	46.07	-35.8	-37.1	21.5	0.00e+00	0	44	0	1956642816	41	4319
2026-01-28 14:46:59.06	206.81	46.31	-35.6	-36.8	21.8	0.00e+00	0	44	0	1963982848	41	4182
2026-01-28 14:47:00.05	207.17	46.55	-35.8	-36.7	22.5	0.00e+00	0	44	0	1971322880	41	4120
2026-01-28 14:47:01.04	207.54	46.79	-36.1	-36.9	22.3	0.00e+00	0	44	0	1977614336	41	4232
2026-01-28 14:47:02.04	207.91	47.03	-36.1	-37.0	22.2	0.00e+00	0	44	0	1984954368	41	4272
2026-01-28 14:47:03.03	208.29	47.27	-36.5	-37.4	21.8	0.00e+00	0	44	0	1992294400	42	4230
2026-01-28 14:47:04.02	208.68	47.50	-36.6	-37.5	21.7	0.00e+00	0	44	0	1999634432	43	4049
2026-01-28 14:47:05.01	209.07	47.74	-36.8	-37.7	21.7	0.00e+00	0	44	0	2006974464	43	4101
2026-01-28 14:47:06.01	209.47	47.98	-36.6	-37.5	21.8	0.00e+00	0	44	0	2014314496	43	4027
2026-01-28 14:47:07.00	209.87	48.22	-36.5	-37.4	21.9	0.00e+00	0	44	0	2020605952	43	3977
2026-01-28 14:47:07.99	210.28	48.46	-36.1	-37.0	22.2	0.00e+00	0	44	0	2027945984	43	3792
2026-01-28 14:47:08.99	210.70	48.70	-36.2	-37.0	22.2	0.00e+00	0	44	0	2035286016	42	4049
2026-01-28 14:47:09.98	211.12	48.93	-36.2	-37.1	22.2	0.00e+00	0	44	0	2042626048	42	4053
2026-01-28 14:47:10.97	211.55	49.17	-36.0	-36.9	22.3	0.00e+00	0	44	0	2049966080	42	3979
2026-01-28 14:47:11.97	211.99	49.41	-36.1	-36.9	22.3	0.00e+00	0	44	0	2057306112	42	3997
2026-01-28 14:47:12.96	212.43	49.65	-36.2	-37.1	22.2	0.00e+00	0	44	0	2063597568	42	4067
2026-01-28 14:47:13.95	212.88	49.88	-36.5	-37.4	21.9	0.00e+00	0	44	0	2070937600	42	4214
2026-01-28 14:47:14.94	213.33	50.11	-36.7	-37.6	21.7	0.00e+00	0	44	0	2078277632	42	4338
2026-01-28 14:47:15.94	213.80	50.35	-36.9	-37.8	21.5	0.00e+00	0	44	0	2085617664	43	4170
2026-01-28 14:47:16.93	214.27	50.58	-37.0	-37.9	21.4	0.00e+00	0	44	0	2092957696	43	4238
2026-01-28 14:47:17.92	214.75	50.82	-37.0	-37.9	21.5	0.00e+00	0	44	0	2100297728	43	4207
2026-01-28 14:47:18.92	215.24	51.05	-36.8	-37.6	21.7	0.00e+00	0	44	0	2106589184	44	3864
2026-01-28 14:47:19.91	215.73	51.28	-37.0	-37.9	21.6	0.00e+00	0	44	0	2113929216	44	3974
2026-01-28 14:47:20.90	216.23	51.51	-37.1	-38.0	21.5	0.00e+00	0	44	0	2121269248	44	4042
2026-01-28 14:47:21.89	216.73	51.74	-37.0	-37.9	21.6	0.00e+00	0	44	0	2128609280	44	3998
2026-01-28 14:47:22.89	217.25	51.97	-36.6	-37.5	21.8	0.00e+00	0	44	0	2135949312	43	4026
2026-01-28 14:47:23.88	217.77	52.19	-36.7	-37.5	21.7	0.00e+00	0	44	0	2142240768	43	4049
2026-01-28 14:47:24.87	218.30	52.41	-36.7	-37.6	21.7	0.00e+00	0	44	0	2149580800	43	4077
2026-01-28 14:47:25.86	218.84	52.64	-36.6	-37.5	21.8	0.00e+00	0	44	0	2156920832	43	4022
2026-01-28 14:47:26.86	219.39	52.86	-36.5	-37.4	21.9	0.00e+00	0	44	0	2164260864	43	3980
2026-01-28 14:47:27.85	219.95	53.08	-36.6	-37.5	21.8	0.00e+00	0	44	0	2171600896	43	4026
2026-01-28 14:47:28.84	220.51	53.30	-36.8	-37.7	21.6	0.00e+00	0	44	0	2178940928	43	4115
2026-01-28 14:47:29.84	221.09	53.51	-36.8	-37.7	21.6	0.00e+00	0	44	0	2185232384	43	4131
2026-01-28 14:47:30.83	221.67	53.73	-36.8	-37.7	21.6	0.00e+00	0	44	0	2192572416	43	4117
2026-01-28 14:47:31.82	222.25	53.94	-36.9	-37.9	21.5	0.00e+00	0	44	0	2199912448	43	4204
2026-01-28 14:47:32.82	222.86	54.15	-37.0	-37.9	21.4	0.00e+00	0	44	0	2207252480	43	4222
2026-01-28 14:47:33.81	223.46	54.36	-37.1	-38.0	21.4	0.00e+00	0	44	0	2214592512	43	4269
2026-01-28 14:47:34.80	224.08	54.56	-36.8	-37.7	21.6	0.00e+00	0	44	0	2221932544	43	4143
2026-01-28 14:47:35.79	224.70	54.76	-36.7	-37.6	21.6	0.00e+00	0	44	0	2228224000	43	4076
2026-01-28 14:47:36.79	225.34	54.96	-36.4	-37.3	22.0	0.00e+00	0	44	0	2235564032	43	3928
2026-01-28 14:47:37.78	225.98	55.16	-36.4	-37.3	22.0	0.00e+00	0	44	0	2242904064	43	3932
2026-01-28 14:47:38.77	226.63	55.36	-36.7	-37.6	21.8	0.00e+00	0	44	0	2250244096	43	4053
2026-01-28 14:47:39.77	227.29	55.55	-36.5	-37.3	21.9	0.00e+00	0	44	0	2257584128	43	3950
2026-01-28 14:47:40.76	227.96	55.74	-36.3	-37.2	22.1	0.00e+00	0	44	0	2264924160	43	3880
2026-01-28 14:47:41.75	228.63	55.92	-36.5	-37.3	22.0	0.00e+00	0	44	0	2272264192	43	3950
2026-01-28 14:47:42.75	229.32	56.10	-36.6	-37.5	21.8	0.00e+00	0	44	0	2278555648	43	4028
2026-01-28 14:47:43.74	230.02	56.28	-36.8	-37.7	21.5	0.00e+00	0	44	0	2285895680	43	4128
2026-01-28 14:47:44.73	230.72	56.46	-36.9	-37.8	21.4	0.00e+00	0	44	0	2293235712	43	4184
2026-01-28 14:47:45.72	231.43	56.63	-37.2	-38.1	21.2	0.00e+00	0	44	0	2300575744	43	4314
2026-01-28 14:47:46.72	232.16	56.80	-37.3	-38.2	21.3	0.00e+00	0	44	0	2307915776	44	4145
2026-01-28 14:47:47.71	232.89	56.96	-37.1	-38.0	21.5	0.00e+00	0	44	0	2315255808	44	4042
2026-01-28 14:47:48.70	233.62	57.12	-36.9	-37.8	21.7	0.00e+00	0	44	0	2322595840	44	3942
2026-01-28 14:47:49.69	234.37	57.27	-36.6	-37.5	22.0	0.00e+00	0	44	0	2328887296	44	3798
2026-01-28 14:47:50.69	235.13	57.43	-36.3	-37.1	22.1	0.00e+00	0	44	0	2336227328	43	3864
2026-01-28 14:47:51.68	235.89	57.57	-36.4	-37.3	22.0	0.00e+00	0	44	0	2343567360	43	3918
2026-01-28 14:47:52.67	236.66	57.72	-36.4	-37.3	22.0	0.00e+00	0	44	0	2350907392	43	3922
2026-01-28 14:47:53.67	237.45	57.86	-36.3	-37.1	22.1	0.00e+00	0	44	0	2358247424	43	3862
2026-01-28 14:47:54.66	238.24	57.99	-36.1	-37.0	22.2	0.00e+00	0	44	0	2365587456	43	3815
2026-01-28 14:47:55.65	239.03	58.12	-36.3	-37.2	22.1	0.00e+00	0	44	0	2371878912	43	3877
2026-01-28 14:47:56.64	239.83	58.24	-36.6	-37.4	21.9	0.00e+00	0	44	0	2379218944	43	3992
2026-01-28 14:47:57.64	240.65	58.36	-37.0	-38.0	21.4	0.00e+00	0	44	0	2386558976	43	4250
2026-01-28 14:47:58.63	241.46	58.47	-36.8	-37.6	21.7	0.00e+00	0	44	0	2393899008	43	4098
2026-01-28 14:47:59.62	242.28	58.58	-36.5	-37.4	21.9	0.00e+00	0	44	0	2401239040	43	3965
2026-01-28 14:48:00.60	243.11	58.68	-36.5	-37.3	22.0	0.00e+00	0	44	0	2407530496	43	3955
2026-01-28 14:48:01.59	243.94	58.78	-36.6	-37.5	21.8	0.00e+00	0	44	0	2414870528	43	4027
2026-01-28 14:48:02.58	244.78	58.87	-36.6	-37.4	21.9	0.00e+00	0	44	0	2422210560	43	3997
2026-01-28 14:48:03.58	245.64	58.96	-36.7	-37.5	21.8	0.00e+00	0	44	0	2429550592	43	4050
2026-01-28 14:48:04.57	246.49	59.04	-36.7	-37.6	21.7	0.00e+00	0	44	0	2436890624	43	4064
2026-01-28 14:48:05.56	247.34	59.12	-36.8	-37.7	21.6	0.00e+00	0	44	0	2444230656	43	4128
2026-01-28 14:48:06.56	248.22	59.19	-36.7	-37.6	21.7	0.00e+00	0	44	0	2450522112	43	4094
2026-01-28 14:48:07.55	249.08	59.25	-36.9	-37.8	21.4	0.00e+00	0	44	0	2457862144	43	4181
2026-01-28 14:48:08.54	249.95	59.31	-37.0	-38.0	21.4	0.00e+00	0	44	0	2465202176	43	4243
2026-01-28 14:48:09.54	250.83	59.36	-37.3	-38.3	21.2	0.00e+00	0	44	0	2472542208	44	4151
2026-01-28 14:48:10.53	251.71	59.41	-37.2	-38.1	21.4	0.00e+00	0	44	0	2479882240	44	4057
2026-01-28 14:48:11.52	252.59	59.45	-36.8	-37.6	21.8	0.00e+00	0	44	0	2487222272	44	3868
2026-01-28 14:48:12.51	253.47	59.48	-36.4	-37.3	22.0	0.00e+00	0	44	0	2493513728	43	3924
2026-01-28 14:48:13.51	254.37	59.51	-36.3	-37.2	22.1	0.00e+00	0	44	0	2500853760	43	3871
2026-01-28 14:48:14.50	255.25	59.53	-36.5	-37.3	22.0	0.00e+00	0	44	0	2508193792	43	3950
2026-01-28 14:48:15.49	256.14	59.54	-36.4	-37.2	22.1	0.00e+00	0	44	0	2515533824	43	3903
2026-01-28 14:48:16.49	257.04	59.55	-36.3	-37.1	22.2	0.00e+00	0	44	0	2522873856	43	3861
2026-01-28 14:48:17.48	257.92	59.56	-36.6	-37.5	21.8	0.00e+00	0	44	0	2529165312	43	4018
2026-01-28 14:48:18.47	258.81	59.55	-36.4	-37.2	22.0	0.00e+00	0	44	0	2536505344	43	3911
2026-01-28 14:48:19.46	259.70	59.54	-36.5	-37.3	22.0	0.00e+00	0	44	0	2543845376	43	3954
2026-01-28 14:48:20.46	260.60	59.53	-36.6	-37.5	21.8	0.00e+00	0	44	0	2551185408	43	4030
2026-01-28 14:48:21.45	261.48	59.51	-36.7	-37.6	21.8	0.00e+00	0	44	0	2558525440	43	4052
2026-01-28 14:48:22.44	262.37	59.48	-36.8	-37.7	21.6	0.00e+00	0	44	0	2565865472	43	4137
2026-01-28 14:48:23.44	263.26	59.44	-36.9	-37.8	21.5	0.00e+00	0	44	0	2572156928	43	4184
2026-01-28 14:48:24.43	264.14	59.40	-36.8	-37.7	21.5	0.00e+00	0	44	0	2579496960	43	4138
2026-01-28 14:48:25.42	265.01	59.36	-36.9	-37.8	21.5	0.00e+00	0	44	0	2586836992	43	4178
2026-01-28 14:48:26.41	265.89	59.31	-37.0	-37.9	21.5	0.00e+00	0	44	0	2594177024	43	4205
2026-01-28 14:48:27.41	266.76	59.25	-36.8	-37.7	21.6	0.00e+00	0	44	0	2601517056	43	4108
2026-01-28 14:48:28.40	267.63	59.18	-36.7	-37.6	21.7	0.00e+00	0	44	0	2608857088	43	4077
2026-01-28 14:48:29.39	268.49	59.11	-36.5	-37.4	21.9	0.00e+00	0	44	0	2615148544	43	3983
2026-01-28 14:48:30.39	269.35	59.04	-36.8	-37.7	21.6	0.00e+00	0	44	0	2622488576	43	4117
2026-01-28 14:48:31.38	270.21	58.96	-36.9	-37.7	21.6	0.00e+00	0	44	0	2629828608	43	4142
2026-01-28 14:48:32.37	271.05	58.87	-36.7	-37.6	21.7	0.00e+00	0	44	0	2637168640	43	4075
2026-01-28 14:48:33.37	271.90	58.77	-36.7	-37.6	21.7	0.00e+00	0	44	0	2644508672	43	4088
2026-01-28 14:48:34.36	272.73	58.68	-36.7	-37.5	21.8	0.00e+00	0	44	0	2651848704	43	4051
2026-01-28 14:48:35.35	273.56	58.57	-36.7	-37.6	21.7	0.00e+00	0	44	0	2659188736	43	4080
2026-01-28 14:48:36.34	274.38	58.47	-36.7	-37.6	21.7	0.00e+00	0	44	0	2665480192	43	4089
2026-01-28 14:48:37.34	275.20	58.35	-36.8	-37.6	21.7	0.00e+00	0	44	0	2672820224	43	4093
2026-01-28 14:48:38.33	276.01	58.23	-36.7	-37.5	21.8	0.00e+00	0	44	0	2680160256	43	4049
2026-01-28 14:48:39.31	276.80	58.11	-36.6	-37.5	21.7	0.00e+00	0	44	0	2687500288	43	4036
2026-01-28 14:48:40.30	277.60	57.98	-36.7	-37.6	21.7	0.00e+00	0	44	0	2694840320	43	4073
2026-01-28 14:48:41.29	278.38	57.85	-36.7	-37.7	21.7	0.00e+00	0	44	0	2702180352	43	4100
2026-01-28 14:48:42.29	279.16	57.71	-37.2	-38.1	21.3	0.00e+00	0	44	0	2709520384	43	4318
2026-01-28 14:48:43.28	279.93	57.57	-37.8	-38.8	20.8	0.00e+00	0	44	0	2715811840	45	4150
2026-01-28 14:48:44.27	280.69	57.42	-37.7	-38.7	20.8	0.00e+00	0	44	0	2723151872	45	4099
2026-01-28 14:48:45.27	281.45	57.27	-37.5	-38.4	21.0	0.00e+00	0	44	0	2730491904	45	3995
2026-01-28 14:48:46.26	282.20	57.11	-37.1	-38.0	21.4	0.00e+00	0	44	0	2737831936	45	3799
2026-01-28 14:48:47.25	282.93	56.95	-36.9	-37.8	21.6	0.00e+00	0	44	0	2745171968	44	3944
2026-01-28 14:48:48.24	283.66	56.79	-36.9	-37.9	21.5	0.00e+00	0	44	0	2752512000	44	3964
2026-01-28 14:48:49.24	284.39	56.62	-36.8	-37.7	21.7	0.00e+00	0	44	0	2758803456	44	3883
2026-01-28 14:48:50.23	285.10	56.45	-36.8	-37.7	21.7	0.00e+00	0	44	0	2766143488	44	3877
2026-01-28 14:48:51.22	285.80	56.28	-37.1	-38.0	21.4	0.00e+00	0	44	0	2773483520	44	4028
2026-01-28 14:48:52.22	286.49	56.10	-37.0	-37.9	21.5	0.00e+00	0	44	0	2780823552	44	3999
2026-01-28 14:48:53.21	287.18	55.92	-36.9	-37.8	21.6	0.00e+00	0	44	0	2788163584	44	3943
2026-01-28 14:48:54.20	287.85	55.73	-36.9	-37.8	21.7	0.00e+00	0	44	0	2794455040	44	3921
2026-01-28 14:48:55.19	288.52	55.54	-36.9	-37.8	21.5	0.00e+00	0	44	0	2801795072	44	3941
2026-01-28 14:48:56.19	289.18	55.35	-36.8	-37.7	21.8	0.00e+00	0	44	0	2809135104	44	3891
2026-01-28 14:48:57.18	289.83	55.16	-37.0	-37.9	21.6	0.00e+00	0	44	0	2816475136	44	3984
2026-01-28 14:48:58.17	290.47	54.96	-37.2	-38.1	21.4	0.00e+00	0	44	0	2823815168	44	4079
2026-01-28 14:48:59.17	291.10	54.76	-37.1	-38.0	21.5	0.00e+00	0	44	0	2831155200	44	4020
2026-01-28 14:49:00.16	291.72	54.56	-37.0	-37.9	21.6	0.00e+00	0	44	0	2837446656	44	3967
2026-01-28 14:49:01.15	292.34	54.35	-36.9	-37.8	21.6	0.00e+00	0	44	0	2844786688	44	3950
2026-01-28 14:49:02.15	292.95	54.15	-36.8	-37.7	21.8	0.00e+00	0	44	0	2852126720	44	3879
2026-01-28 14:49:03.14	293.54	53.94	-36.4	-37.2	22.0	0.00e+00	0	44	0	2859466752	43	3910
2026-01-28 14:49:04.13	294.13	53.73	-36.5	-37.3	21.9	0.00e+00	0	44	0	2866806784	43	3941
2026-01-28 14:49:05.12	294.71	53.51	-36.9	-37.8	21.5	0.00e+00	0	44	0	2874146816	43	4153
2026-01-28 14:49:06.12	295.28	53.30	-37.2	-38.1	21.1	0.00e+00	0	44	0	2880438272	43	4324
2026-01-28 14:49:07.11	295.84	53.08	-37.1	-38.0	21.3	0.00e+00	0	44	0	2887778304	43	4258
2026-01-28 14:49:08.10	296.39	52.86	-36.9	-37.8	21.6	0.00e+00	0	44	0	2895118336	43	4166
2026-01-28 14:49:09.09	296.94	52.64	-36.8	-37.7	21.6	0.00e+00	0	44	0	2902458368	43	4115
2026-01-28 14:49:10.09	297.48	52.42	-37.1	-38.0	21.3	0.00e+00	0	44	0	2909798400	43	4270
2026-01-28 14:49:11.08	298.01	52.19	-37.4	-38.4	20.8	0.00e+00	0	44	0	2916089856	44	4199
2026-01-28 14:49:12.07	298.53	51.97	-37.2	-38.2	21.3	0.00e+00	0	44	0	2923429888	44	4107
2026-01-28 14:49:13.06	299.04	51.74	-36.9	-37.8	21.6	0.00e+00	0	44	0	2930769920	44	3924
2026-01-28 14:49:14.06	299.55	51.51	-36.8	-37.7	21.8	0.00e+00	0	44	0	2938109952	44	3869
2026-01-28 14:49:15.05	300.05	51.29	-36.7	-37.6	21.9	0.00e+00	0	44	0	2945449984	44	3825
2026-01-28 14:49:16.04	300.54	51.06	-36.9	-37.8	21.7	0.00e+00	0	44	0	2952790016	44	3924
2026-01-28 14:49:17.04	301.03	50.82	-36.9	-37.8	21.6	0.00e+00	0	44	0	2960130048	44	3945
2026-01-28 14:49:18.03	301.50	50.59	-37.0	-37.9	21.6	0.00e+00	0	44	0	2966421504	44	3968
2026-01-28 14:49:19.02	301.97	50.36	-37.0	-37.9	21.6	0.00e+00	0	44	0	2973761536	44	3980
2026-01-28 14:49:20.01	302.43	50.13	-37.0	-37.9	21.3	0.00e+00	0	44	0	2981101568	44	4000
2026-01-28 14:49:21.01	302.89	49.89	-36.9	-37.8	21.6	0.00e+00	0	44	0	2988441600	44	3945
2026-01-28 14:49:22.00	303.34	49.66	-36.8	-37.7	21.7	0.00e+00	0	44	0	2995781632	44	3911
2026-01-28 14:49:22.99	303.78	49.42	-36.7	-37.6	21.9	0.00e+00	0	44	0	3003121664	44	3828
2026-01-28 14:49:23.98	304.21	49.19	-36.7	-37.6	21.8	0.00e+00	0	44	0	3010461696	44	3862
2026-01-28 14:49:24.98	304.64	48.95	-36.6	-37.5	21.8	0.00e+00	0	44	0	3016753152	44	3808
2026-01-28 14:49:25.97	305.07	48.71	-36.9	-37.8	21.7	0.00e+00	0	44	0	3024093184	44	3922
2026-01-28 14:49:26.96	305.48	48.48	-36.9	-37.8	21.6	0.00e+00	0	44	0	3031433216	44	3947
2026-01-28 14:49:27.96	305.89	48.24	-36.8	-37.7	21.7	0.00e+00	0	44	0	3038773248	44	3896
2026-01-28 14:49:28.95	306.29	48.00	-36.8	-37.7	21.8	0.00e+00	0	44	0	3046113280	44	3876
2026-01-28 14:49:29.94	306.69	47.76	-36.6	-37.4	21.9	0.00e+00	0	44	0	3053453312	44	3779
2026-01-28 14:49:30.93	307.08	47.53	-36.3	-37.1	22.1	0.00e+00	0	44	0	3059744768	43	3865
2026-01-28 14:49:31.93	307.47	47.29	-36.2	-37.0	22.2	0.00e+00	0	44	0	3067084800	43	3820
2026-01-28 14:49:32.92	307.85	47.05	-36.3	-37.1	22.1	0.00e+00	0	44	0	3074424832	43	3864
2026-01-28 14:49:33.91	308.22	46.81	-36.1	-37.0	22.2	0.00e+00	0	44	0	3081764864	43	3811
2026-01-28 14:49:34.90	308.58	46.58	-36.1	-37.0	22.3	0.00e+00	0	44	0	3089104896	42	4006
2026-01-28 14:49:35.90	308.95	46.34	-35.9	-36.8	22.4	0.00e+00	0	44	0	3096444928	42	3935
2026-01-28 14:49:36.89	309.31	46.10	-35.8	-36.7	22.5	0.00e+00	0	44	0	3102736384	42	3877
2026-01-28 14:49:37.88	309.66	45.86	-35.8	-36.7	22.5	0.00e+00	0	44	0	3110076416	42	3875
2026-01-28 14:49:38.88	310.01	45.63	-35.7	-36.6	22.6	0.00e+00	0	44	0	3117416448	42	3847
2026-01-28 14:49:39.87	310.35	45.39	-35.7	-36.5	22.7	0.00e+00	0	44	0	3124756480	42	3808
2026-01-28 14:49:40.86	310.68	45.15	-35.5	-36.3	22.6	0.00e+00	0	44	0	3132096512	41	3943
2026-01-28 14:49:41.85	311.01	44.92	-35.5	-36.3	22.8	0.00e+00	0	44	0	3139436544	41	3952
2026-01-28 14:49:42.85	311.34	44.68	-35.4	-36.2	22.9	0.00e+00	0	44	0	3145728000	41	3895
2026-01-28 14:49:43.84	311.66	44.45	-35.5	-36.3	22.8	0.00e+00	0	44	0	3153068032	41	3939
2026-01-28 14:49:44.83	311.98	44.21	-35.1	-36.0	23.1	0.00e+00	0	44	0	3160408064	41	3786
2026-01-28 14:49:45.83	312.30	43.98	-35.1	-35.9	23.2	0.00e+00	0	44	0	3167748096	40	3971
2026-01-28 14:49:46.82	312.60	43.74	-35.2	-36.0	23.0	0.00e+00	0	44	0	3175088128	40	4018
2026-01-28 14:49:47.81	312.91	43.51	-35.2	-36.0	23.1	0.00e+00	0	44	0	3181379584	40	4034
2026-01-28 14:49:48.80	313.20	43.28	-35.4	-36.2	22.9	0.00e+00	0	44	0	3188719616	40	4135
2026-01-28 14:49:49.79	313.50	43.05	-35.6	-36.5	22.6	0.00e+00	0	44	0	3196059648	40	4264
2026-01-28 14:49:50.79	313.79	42.82	-35.8	-36.7	22.3	0.00e+00	0	44	0	3203399680	40	4342
2026-01-28 14:49:51.78	314.08	42.59	-35.6	-36.5	22.7	0.00e+00	0	44	0	3210739712	41	4012
2026-01-28 14:49:52.77	314.36	42.36	-35.6	-36.5	22.6	0.00e+00	0	44	0	3218079744	41	4025
2026-01-28 14:49:53.77	314.64	42.13	-35.8	-36.6	22.5	0.00e+00	0	44	0	3224371200	41	4081
2026-01-28 14:49:54.76	314.92	41.90	-35.5	-36.4	22.7	0.00e+00	0	44	0	3231711232	41	3974
2026-01-28 14:49:55.75	315.19	41.67	-35.3	-36.1	22.9	0.00e+00	0	44	0	3239051264	41	3859
2026-01-28 14:49:56.75	315.46	41.44	-35.3	-36.1	22.9	0.00e+00	0	44	0	3246391296	41	3838
2026-01-28 14:49:57.74	315.72	41.22	-35.3	-36.1	23.0	0.00e+00	0	44	0	3253731328	41	3851
2026-01-28 14:49:58.73	315.98	40.99	-35.3	-36.2	22.9	0.00e+00	0	44	0	3261071360	41	3882
2026-01-28 14:49:59.72	316.24	40.77	-35.3	-36.1	22.9	0.00e+00	0	44	0	3267362816	41	3864
2026-01-28 14:50:00.71	316.49	40.54	-35.4	-36.2	22.9	0.00e+00	0	44	0	3274702848	41	3898
2026-01-28 14:50:01.70	316.74	40.32	-35.5	-36.4	22.0	0.00e+00	0	44	0	3282042880	41	3990
2026-01-28 14:50:02.70	316.99	40.10	-35.4	-36.3	22.8	0.00e+00	0	44	0	3289382912	41	3917
2026-01-28 14:50:03.69	317.23	39.88	-35.5	-36.4	22.7	0.00e+00	0	44	0	3296722944	41	3975
2026-01-28 14:50:04.68	317.47	39.65	-35.5	-36.4	22.7	0.00e+00	0	44	0	3304062976	41	3974
2026-01-28 14:50:05.67	317.70	39.44	-35.6	-36.5	22.6	0.00e+00	0	44	0	3310354432	41	4024
2026-01-28 14:50:06.67	317.94	39.21	-35.5	-36.4	22.7	0.00e+00	0	44	0	3317694464	41	3972
2026-01-28 14:50:07.66	318.17	39.00	-35.5	-36.3	22.7	0.00e+00	0	44	0	3325034496	41	3957
2026-01-28 14:50:08.65	318.40	38.78	-35.4	-36.3	22.7	0.00e+00	0	44	0	3332374528	41	3914
2026-01-28 14:50:09.65	318.62	38.56	-35.4	-36.3	22.7	0.00e+00	0	44	0	3339714560	41	3926
2026-01-28 14:50:10.64	318.84	38.35	-35.2	-36.1	23.0	0.00e+00	0	44	0	3347054592	41	3839
2026-01-28 14:50:11.63	319.06	38.13	-35.2	-36.0	22.9	0.00e+00	0	44	0	3354394624	41	3821
2026-01-28 14:50:12.62	319.28	37.92	-35.2	-36.0	23.0	0.00e+00	0	44	0	3360686080	41	3808
2026-01-28 14:50:13.62	319.49	37.71	-35.1	-35.9	23.1	0.00e+00	0	44	0	3368026112	40	3988
2026-01-28 14:50:14.61	319.70	37.50	-35.1	-36.0	23.1	0.00e+00	0	44	0	3375366144	40	4007
2026-01-28 14:50:15.60	319.91	37.29	-35.2	-36.0	22.9	0.00e+00	0	44	0	3382706176	40	4029
2026-01-28 14:50:16.60	320.12	37.07	-35.0	-35.8	23.2	0.00e+00	0	44	0	3390046208	40	3953
2026-01-28 14:50:17.59	320.32	36.87	-35.1	-35.9	23.0	0.00e+00	0	44	0	3397386240	40	3982
2026-01-28 14:50:18.58	320.52	36.66	-35.0	-35.8	23.2	0.00e+00	0	44	0	3404726272	40	3938
2026-01-28 14:50:19.57	320.72	36.45	-35.0	-35.9	23.2	0.00e+00	0	44	0	3411017728	40	3965
2026-01-28 14:50:20.57	320.91	36.24	-35.0	-35.9	23.2	0.00e+00	0	44	0	3418357760	40	3967
2026-01-28 14:50:21.56	321.11	36.04	-35.0	-35.8	23.2	0.00e+00	0	44	0	3425697792	40	3958
2026-01-28 14:50:22.55	321.30	35.84	-35.1	-36.0	23.0	0.00e+00	0	44	0	3433037824	40	4032
2026-01-28 14:50:23.55	321.49	35.63	-35.2	-36.0	23.0	0.00e+00	0	44	0	3440377856	40	4051
2026-01-28 14:50:24.54	321.67	35.43	-35.3	-36.2	22.9	0.00e+00	0	44	0	3446669312	40	4115
2026-01-28 14:50:25.53	321.85	35.23	-35.3	-36.2	22.9	0.00e+00	0	44	0	3454009344	40	4120
2026-01-28 14:50:26.52	322.03	35.03	-35.4	-36.3	22.8	0.00e+00	0	44	0	3461349376	40	4149
2026-01-28 14:50:27.51	322.21	34.83	-35.3	-36.2	22.8	0.00e+00	0	44	0	3468689408	40	4102
2026-01-28 14:50:28.51	322.39	34.63	-35.2	-36.0	23.0	0.00e+00	0	44	0	3476029440	40	4033
2026-01-28 14:50:29.50	322.57	34.43	-35.0	-35.9	23.1	0.00e+00	0	44	0	3483369472	40	3965
2026-01-28 14:50:30.49	322.74	34.24	-35.0	-35.9	23.1	0.00e+00	0	44	0	3489660928	40	3975
2026-01-28 14:50:31.49	322.91	34.04	-34.9	-35.7	23.3	0.00e+00	0	44	0	3497000960	40	3882
2026-01-28 14:50:32.48	323.08	33.85	-34.8	-35.6	23.3	0.00e+00	0	44	0	3504340992	40	3842
2026-01-28 14:50:33.47	323.25	33.65	-34.8	-35.6	23.3	0.00e+00	0	44	0	3511681024	40	3834
2026-01-28 14:50:34.46	323.41	33.46	-34.7	-35.5	23.5	0.00e+00	0	44	0	3519021056	39	4025
2026-01-28 14:50:35.46	323.58	33.27	-34.8	-35.6	23.4	0.00e+00	0	44	0	3526361088	39	4089
2026-01-28 14:50:36.45	323.74	33.08	-34.8	-35.6	23.4	0.00e+00	0	44	0	3532652544	39	4088
2026-01-28 14:50:37.44	323.90	32.89	-34.9	-35.8	23.3	0.00e+00	0	44	0	3539992576	39	4164
2026-01-28 14:50:38.44	324.06	32.70	-35.1	-35.9	23.0	0.00e+00	0	44	0	3547332608	39	4238
2026-01-28 14:50:39.43	324.21	32.51	-35.2	-36.0	23.1	0.00e+00	0	44	0	3554672640	39	4284
2026-01-28 14:50:40.42	324.37	32.33	-35.3	-36.1	22.9	0.00e+00	0	44	0	3562012672	40	4096
2026-01-28 14:50:41.41	324.52	32.14	-35.3	-36.2	22.7	0.00e+00	0	44	0	3568304128	40	4133
2026-01-28 14:50:42.41	324.67	31.95	-35.5	-36.3	22.7	0.00e+00	0	44	0	3575644160	40	4188
2026-01-28 14:50:43.40	324.82	31.77	-35.4	-36.3	22.8	0.00e+00	0	44	0	3582984192	40	4163
2026-01-28 14:50:44.39	324.97	31.59	-35.4	-36.2	22.6	0.00e+00	0	44	0	3590324224	40	4142
2026-01-28 14:50:45.39	325.11	31.41	-35.3	-36.2	22.9	0.00e+00	0	44	0	3597664256	40	4104
2026-01-28 14:50:46.38	325.26	31.22	-35.2	-36.0	23.0	0.00e+00	0	44	0	3605004288	40	4038
2026-01-28 14:50:47.37	325.40	31.05	-35.2	-36.1	23.0	0.00e+00	0	44	0	3611295744	40	4062
2026-01-28 14:50:48.36	325.54	30.87	-35.0	-35.9	23.2	0.00e+00	0	44	0	3618635776	40	3965
2026-01-28 14:50:49.36	325.68	30.69	-35.0	-35.8	23.1	0.00e+00	0	44	0	3625975808	40	3952
2026-01-28 14:50:50.35	325.82	30.51	-35.0	-35.8	23.2	0.00e+00	0	44	0	3633315840	40	3952
2026-01-28 14:50:51.34	325.96	30.33	-35.0	-35.8	23.2	0.00e+00	0	44	0	3640655872	40	3939
2026-01-28 14:50:52.34	326.09	30.16	-34.9	-35.8	23.2	0.00e+00	0	44	0	3647995904	40	3914
2026-01-28 14:50:53.33	326.23	29.98	-35.0	-35.9	23.1	0.00e+00	0	44	0	3654287360	40	3966
2026-01-28 14:50:54.32	326.36	29.81	-35.0	-35.9	23.1	0.00e+00	0	44	0	3661627392	40	3970
2026-01-28 14:50:55.31	326.49	29.64	-35.0	-35.9	23.2	0.00e+00	0	44	0	3668967424	40	3961
2026-01-28 14:50:56.31	326.62	29.46	-35.2	-36.0	23.0	0.00e+00	0	44	0	3676307456	40	4041
2026-01-28 14:50:57.30	326.75	29.29	-35.3	-36.1	22.9	0.00e+00	0	44	0	3683647488	40	4090
2026-01-28 14:50:58.29	326.88	29.12	-35.3	-36.2	22.8	0.00e+00	0	44	0	3690987520	40	4107
2026-01-28 14:50:59.29	327.00	28.95	-35.2	-36.1	22.7	0.00e+00	0	44	0	3698327552	40	4081
2026-01-28 14:51:00.28	327.13	28.79	-35.3	-36.2	22.8	0.00e+00	0	44	0	3704619008	40	4129
2026-01-28 14:51:01.27	327.25	28.62	-35.4	-36.3	22.8	0.00e+00	0	44	0	3711959040	40	4172
2026-01-28 14:51:02.26	327.37	28.45	-35.4	-36.3	22.8	0.00e+00	0	44	0	3719299072	40	4172
2026-01-28 14:51:03.26	327.49	28.29	-35.4	-36.3	22.8	0.00e+00	0	44	0	3726639104	40	4155
2026-01-28 14:51:04.25	327.61	28.12	-35.5	-36.4	22.6	0.00e+00	0	44	0	3733979136	40	4222
2026-01-28 14:51:05.24	327.73	27.96	-35.5	-36.4	22.6	0.00e+00	0	44	0	3741319168	40	4237
2026-01-28 14:51:06.24	327.85	27.79	-35.5	-36.4	22.7	0.00e+00	0	44	0	3748659200	40	4201
2026-01-28 14:51:07.23	327.97	27.63	-35.6	-36.5	22.5	0.00e+00	0	44	0	3754950656	40	4260
2026-01-28 14:51:08.22	328.08	27.47	-35.5	-36.3	22.7	0.00e+00	0	44	0	3762290688	40	4189
2026-01-28 14:51:09.21	328.19	27.31	-35.4	-36.3	22.7	0.00e+00	0	44	0	3769630720	40	4165
2026-01-28 14:51:10.21	328.31	27.15	-35.5	-36.4	22.7	0.00e+00	0	44	0	3776970752	40	4197
2026-01-28 14:51:11.20	328.42	26.99	-35.4	-36.3	22.8	0.00e+00	0	44	0	3784310784	40	4160
2026-01-28 14:51:12.19	328.53	26.83	-35.5	-36.3	22.7	0.00e+00	0	44	0	3790602240	40	4177
2026-01-28 14:51:13.19	328.64	26.67	-35.4	-36.3	22.8	0.00e+00	0	44	0	3797942272	40	4149
2026-01-28 14:51:14.18	328.75	26.52	-35.5	-36.4	22.5	0.00e+00	0	44	0	3805282304	40	4211
2026-01-28 14:51:15.17	328.86	26.36	-35.4	-36.3	22.7	0.00e+00	0	44	0	3812622336	40	4149
2026-01-28 14:51:16.16	328.96	26.21	-35.5	-36.4	22.5	0.00e+00	0	44	0	3819962368	40	4232
2026-01-28 14:51:17.16	329.07	26.05	-35.5	-36.4	22.6	0.00e+00	0	44	0	3827302400	40	4207
2026-01-28 14:51:18.15	329.17	25.90	-35.6	-36.5	22.6	0.00e+00	0	44	0	3833593856	40	4243
2026-01-28 14:51:19.14	329.28	25.75	-35.6	-36.5	22.5	0.00e+00	0	44	0	3840933888	40	4277
2026-01-28 14:51:20.14	329.38	25.59	-35.5	-36.4	22.5	0.00e+00	0	44	0	3848273920	40	4234
2026-01-28 14:51:21.13	329.48	25.44	-35.5	-36.5	22.6	0.00e+00	0	44	0	3855613952	40	4244
2026-01-28 14:51:22.12	329.58	25.29	-35.5	-36.4	22.6	0.00e+00	0	44	0	3862953984	40	4223
2026-01-28 14:51:23.11	329.68	25.14	-35.5	-36.4	22.6	0.00e+00	0	44	0	3870294016	40	4222
2026-01-28 14:51:24.11	329.78	24.99	-35.6	-36.5	22.5	0.00e+00	0	44	0	3876585472	40	4274
2026-01-28 14:51:25.10	329.88	24.85	-35.6	-36.4	22.6	0.00e+00	0	44	0	3883925504	40	4236
2026-01-28 14:51:26.09	329.98	24.70	-35.5	-36.4	22.6	0.00e+00	0	44	0	3891265536	40	4209
2026-01-28 14:51:27.09	330.07	24.55	-35.6	-36.4	22.6	0.00e+00	0	44	0	3898605568	40	4223
2026-01-28 14:51:28.08	330.17	24.41	-35.5	-36.4	22.6	0.00e+00	0	44	0	3905945600	40	4204
2026-01-28 14:51:29.07	330.26	24.26	-35.6	-36.4	22.6	0.00e+00	0	44	0	3912237056	40	4239
2026-01-28 14:51:30.06	330.36	24.12	-35.5	-36.3	22.7	0.00e+00	0	44	0	3919577088	40	4184
2026-01-28 14:51:31.06	330.45	23.97	-35.5	-36.4	22.7	0.00e+00	0	44	0	3926917120	40	4201
2026-01-28 14:51:32.05	330.54	23.83	-35.5	-36.3	22.6	0.00e+00	0	44	0	3934257152	40	4186
2026-01-28 14:51:33.04	330.63	23.69	-35.5	-36.3	22.7	0.00e+00	0	44	0	3941597184	40	4184
2026-01-28 14:51:34.04	330.73	23.55	-35.5	-36.4	22.7	0.00e+00	0	44	0	3948937216	40	4199
2026-01-28 14:51:35.03	330.82	23.41	-35.4	-36.3	22.6	0.00e+00	0	44	0	3955228672	40	4175
2026-01-28 14:51:36.02	330.90	23.27	-35.5	-36.3	22.7	0.00e+00	0	44	0	3962568704	40	4189
2026-01-28 14:51:37.01	330.99	23.13	-35.5	-36.3	22.6	0.00e+00	0	44	0	3969908736	40	4181
2026-01-28 14:51:38.01	331.08	22.99	-35.5	-36.4	22.6	0.00e+00	0	44	0	3977248768	40	4196
2026-01-28 14:51:39.00	331.17	22.85	-35.6	-36.5	22.5	0.00e+00	0	44	0	3984588800	40	4255
2026-01-28 14:51:39.99	331.25	22.71	-35.6	-36.4	22.6	0.00e+00	0	44	0	3991928832	40	4223
2026-01-28 14:51:40.99	331.34	22.58	-35.6	-36.5	22.5	0.00e+00	0	44	0	3999268864	40	4251
2026-01-28 14:51:41.98	331.42	22.44	-35.6	-36.5	22.5	0.00e+00	0	44	0	4005560320	40	4268
2026-01-28 14:51:42.97	331.51	22.31	-35.6	-36.5	22.5	0.00e+00	0	44	0	4012900352	40	4252
2026-01-28 14:51:43.97	331.59	22.17	-35.7	-36.6	22.4	0.00e+00	0	44	0	4020240384	40	4327
2026-01-28 14:51:44.96	331.68	22.04	-35.7	-36.6	22.4	0.00e+00	0	44	0	4027580416	41	4096
2026-01-28 14:51:45.95	331.76	21.90	-35.8	-36.7	22.3	0.00e+00	0	44	0	4034920448	41	4138
2026-01-28 14:51:46.94	331.84	21.77	-35.9	-36.8	22.3	0.00e+00	0	44	0	4042260480	41	4162
2026-01-28 14:51:47.94	331.92	21.64	-35.8	-36.7	22.3	0.00e+00	0	44	0	4049600512	41	4139
2026-01-28 14:51:48.93	332.00	21.51	-36.0	-36.9	22.1	0.00e+00	0	44	0	4055891968	41	4221
2026-01-28 14:51:49.92	332.08	21.38	-36.0	-36.9	22.1	0.00e+00	0	44	0	4063232000	41	4235
2026-01-28 14:51:50.92	332.16	21.25	-36.0	-36.9	22.1	0.00e+00	0	44	0	4070572032	41	4238
2026-01-28 14:51:51.91	332.24	21.12	-36.1	-37.0	22.0	0.00e+00	0	44	0	4077912064	41	4286
2026-01-28 14:51:52.90	332.31	20.99	-36.2	-37.1	21.9	0.00e+00	0	44	0	4085252096	41	4333
2026-01-28 14:51:53.90	332.39	20.86	-36.3	-37.2	21.9	0.00e+00	0	44	0	4092592128	42	4135
2026-01-28 14:51:54.89	332.47	20.73	-36.3	-37.2	21.9	0.00e+00	0	44	0	4098883584	42	4099
2026-01-28 14:51:55.88	332.54	20.61	-36.3	-37.2	21.8	0.00e+00	0	44	0	4106223616	42	4130
2026-01-28 14:51:56.87	332.62	20.48	-36.3	-37.2	21.8	0.00e+00	0	44	0	4113563648	42	4130
2026-01-28 14:51:57.87	332.69	20.35	-36.4	-37.3	21.8	0.00e+00	0	44	0	4120903680	42	4149
2026-01-28 14:51:58.86	332.77	20.23	-36.4	-37.3	21.8	0.00e+00	0	44	0	4128243712	42	4154
2026-01-28 14:51:59.85	332.84	20.10	-36.4	-37.3	21.7	0.00e+00	0	44	0	4135583744	42	4175
2026-01-28 14:52:00.85	332.91	19.98	-36.4	-37.3	21.8	0.00e+00	0	44	0	4141875200	42	4164
2026-01-28 14:52:01.84	332.99	19.86	-36.5	-37.4	21.7	0.00e+00	0	44	0	4149215232	42	4203
2026-01-28 14:52:02.83	333.06	19.73	-36.5	-37.4	21.7	0.00e+00	0	44	0	4156555264	42	4238
2026-01-28 14:52:03.83	333.13	19.61	-36.6	-37.5	21.6	0.00e+00	0	44	0	4163895296	42	4259
2026-01-28 14:52:04.82	333.20	19.49	-36.6	-37.5	21.6	0.00e+00	0	44	0	4171235328	42	4283
2026-01-28 14:52:05.81	333.27	19.37	-36.5	-37.4	21.7	0.00e+00	0	44	0	4177526784	42	4223
2026-01-28 14:52:06.80	333.34	19.25	-36.5	-37.4	21.7	0.00e+00	0	44	0	4184866816	42	4240
2026-01-28 14:52:07.80	333.41	19.13	-36.4	-37.4	21.7	0.00e+00	0	44	0	4192206848	42	4206
2026-01-28 14:52:08.79	333.48	19.01	-36.5	-37.5	21.6	0.00e+00	0	44	0	4199546880	42	4249
2026-01-28 14:52:09.78	333.54	18.89	-36.5	-37.5	21.6	0.00e+00	0	44	0	4206886912	42	4257
2026-01-28 14:52:10.78	333.61	18.77	-36.4	-37.4	21.7	0.00e+00	0	44	0	4214226944	42	4225
2026-01-28 14:52:11.77	333.68	18.65	-36.5	-37.4	21.6	0.00e+00	0	44	0	4220518400	42	4237
2026-01-28 14:52:12.76	333.75	18.53	-36.5	-37.5	21.6	0.00e+00	0	44	0	4227858432	42	4255
2026-01-28 14:52:13.75	333.81	18.42	-36.5	-37.5	21.6	0.00e+00	0	44	0	4235198464	42	4244
2026-01-28 14:52:14.75	333.88	18.30	-36.6	-37.5	21.5	0.00e+00	0	44	0	4242538496	42	4278
2026-01-28 14:52:15.74	333.94	18.18	-36.5	-37.4	21.6	0.00e+00	0	44	0	4249878528	42	4239
2026-01-28 14:52:16.73	334.01	18.07	-36.6	-37.6	21.5	0.00e+00	0	44	0	4257218560	42	4304
2026-01-28 14:52:17.73	334.07	17.95	-36.6	-37.6	21.5	0.00e+00	0	44	0	4263510016	42	4295
2026-01-28 14:52:18.72	334.14	17.84	-36.6	-37.6	21.5	0.00e+00	0	44	0	4270850048	42	4303
2026-01-28 14:52:19.71	334.20	17.73	-36.6	-37.6	21.5	0.00e+00	0	44	0	4278190080	42	4292
2026-01-28 14:52:20.71	334.26	17.61	-36.8	-37.7	21.4	0.00e+00	0	44	0	4285530112	42	4368
2026-01-28 14:52:21.70	334.33	17.50	-36.6	-37.6	21.5	0.00e+00	0	44	0	4292870144	42	4300
2026-01-28 14:52:22.69	334.39	17.39	-36.7	-37.7	21.4	0.00e+00	0	44	0	4300210176	42	4350
2026-01-28 14:52:23.69	334.45	17.27	-36.7	-37.7	21.4	0.00e+00	0	44	0	4307550208	42	4355
2026-01-28 14:52:24.68	334.51	17.16	-36.8	-37.8	21.3	0.00e+00	0	44	0	4313841664	43	4160
2026-01-28 14:52:25.67	334.57	17.05	-36.8	-37.7	21.4	0.00e+00	0	44	0	4321181696	43	4127
2026-01-28 14:52:26.66	334.63	16.94	-36.8	-37.8	21.3	0.00e+00	0	44	0	4328521728	43	4156
2026-01-28 14:52:27.66	334.69	16.83	-36.9	-37.9	21.2	0.00e+00	0	44	0	4335861760	43	4208
2026-01-28 14:52:28.65	334.75	16.72	-37.0	-38.0	21.1	0.00e+00	0	44	0	4343201792	43	4255
2026-01-28 14:52:29.64	334.81	16.61	-37.0	-38.0	21.1	0.00e+00	0	44	0	4350541824	43	4245
2026-01-28 14:52:30.64	334.87	16.50	-37.1	-38.0	21.1	0.00e+00	0	44	0	4357881856	43	4270
2026-01-28 14:52:31.63	334.93	16.40	-37.1	-38.0	21.1	0.00e+00	0	44	0	4364173312	43	4264
2026-01-28 14:52:32.62	334.99	16.29	-37.1	-38.1	21.0	0.00e+00	0	44	0	4371513344	43	4307
2026-01-28 14:52:33.62	335.04	16.18	-37.2	-38.1	21.0	0.00e+00	0	44	0	4378853376	43	4331
2026-01-28 14:52:34.61	335.10	16.07	-37.2	-38.1	21.0	0.00e+00	0	44	0	4386193408	43	4328
2026-01-28 14:52:35.60	335.16	15.97	-37.2	-38.2	20.9	0.00e+00	0	44	0	4393533440	43	4351
2026-01-28 14:52:36.59	335.21	15.86	-37.5	-38.4	20.8	0.00e+00	0	44	0	4400873472	44	4229
2026-01-28 14:52:37.59	335.27	15.76	-37.5	-38.4	20.8	0.00e+00	0	44	0	4407164928	44	4229
2026-01-28 14:52:38.58	335.33	15.65	-37.6	-38.6	20.7	0.00e+00	0	44	0	4414504960	44	4324
2026-01-28 14:52:39.57	335.38	15.55	-37.5	-38.5	20.7	0.00e+00	0	44	0	4421844992	44	4271
2026-01-28 14:52:40.57	335.44	15.44	-37.7	-38.7	20.6	0.00e+00	0	44	0	4429185024	44	4360
2026-01-28 14:52:41.56	335.49	15.34	-37.6	-38.6	20.7	0.00e+00	0	44	0	4436525056	44	4316
2026-01-28 14:52:42.55	335.55	15.24	-37.5	-38.5	20.8	0.00e+00	0	44	0	4442816512	44	4265
2026-01-28 14:52:43.55	335.60	15.13	-37.6	-38.5	20.7	0.00e+00	0	44	0	4450156544	44	4288
2026-01-28 14:52:44.54	335.65	15.03	-37.6	-38.6	20.6	0.00e+00	0	44	0	4457496576	44	4313
2026-01-28 14:52:45.53	335.71	14.93	-37.6	-38.6	20.6	0.00e+00	0	44	0	4464836608	44	4335
2026-01-28 14:52:46.52	335.76	14.83	-37.7	-38.7	20.5	0.00e+00	0	44	0	4472176640	44	4364
2026-01-28 14:52:47.52	335.81	14.73	-37.5	-38.5	20.7	0.00e+00	0	44	0	4479516672	44	4277
2026-01-28 14:52:48.51	335.87	14.62	-37.6	-38.6	20.6	0.00e+00	0	44	0	4485808128	44	4325
2026-01-28 14:52:49.50	335.92	14.52	-37.6	-38.6	20.5	0.00e+00	0	44	0	4493148160	44	4334
2026-01-28 14:52:50.50	335.97	14.42	-37.6	-38.5	20.6	0.00e+00	0	44	0	4500488192	44	4288
2026-01-28 14:52:51.49	336.02	14.32	-37.6	-38.6	20.6	0.00e+00	0	44	0	4507828224	44	4295
2026-01-28 14:52:52.48	336.07	14.23	-37.6	-38.6	20.6	0.00e+00	0	44	0	4515168256	44	4313
2026-01-28 14:52:53.48	336.12	14.13	-37.6	-38.5	20.7	0.00e+00	0	44	0	4522508288	44	4279
2026-01-28 14:52:54.47	336.17	14.03	-37.7	-38.6	20.6	0.00e+00	0	44	0	4528799744	44	4338
2026-01-28 14:52:55.46	336.22	13.93	-37.6	-38.6	20.6	0.00e+00	0	44	0	4536139776	44	4312
2026-01-28 14:52:56.46	336.27	13.83	-37.7	-38.6	20.6	0.00e+00	0	44	0	4543479808	44	4334
2026-01-28 14:52:57.45	336.32	13.73	-37.6	-38.6	20.6	0.00e+00	0	44	0	4550819840	44	4304
2026-01-28 14:52:58.44	336.37	13.64	-37.7	-38.7	20.5	0.00e+00	0	44	0	4558159872	44	4358
2026-01-28 14:52:59.43	336.42	13.54	-37.7	-38.8	20.4	0.00e+00	0	44	0	4565499904	45	4147
2026-01-28 14:53:00.42	336.47	13.44	-37.8	-38.8	20.5	0.00e+00	0	44	0	4571791360	45	4166
2026-01-28 14:53:01.42	336.52	13.35	-37.7	-38.8	20.4	0.00e+00	0	44	0	4579131392	45	4153
2026-01-28 14:53:02.41	336.57	13.25	-37.8	-38.9	20.3	0.00e+00	0	44	0	4586471424	45	4194
2026-01-28 14:53:03.40	336.61	13.16	-37.7	-38.7	20.5	0.00e+00	0	44	0	4593811456	45	4118
2026-01-28 14:53:04.40	336.66	13.06	-37.7	-38.8	20.4	0.00e+00	0	44	0	4601151488	45	4147
2026-01-28 14:53:05.39	336.71	12.97	-37.7	-38.7	20.5	0.00e+00	0	44	0	4608491520	45	4129
2026-01-28 14:53:06.38	336.76	12.87	-37.8	-38.8	20.4	0.00e+00	0	44	0	4615831552	45	4182
2026-01-28 14:53:07.38	336.80	12.78	-37.8	-38.9	20.4	0.00e+00	0	44	0	4622123008	45	4197
2026-01-28 14:53:08.37	336.85	12.69	-37.9	-39.0	20.2	0.00e+00	0	44	0	4629463040	45	4260
2026-01-28 14:53:09.36	336.89	12.59	-38.0	-39.0	20.2	0.00e+00	0	44	0	4636803072	45	4283
