passes_logs/2026/01/28/T1/T1__20260128_030907_FENGYUN_3D_rec.log

#Pass ID: 20260128_030907_FENGYUN 3D
#Satellite: FENGYUN 3D
#Configuration: FENGYUN 3D
#almurnet v.1.7.20251203
#Start time: 2026-01-28 03:09:08

#Version: 2.0.20230620
#Station: T1
#Location: 37.570604 lon 55.790049 lat
#TLE: 1 43010U 17072A   26027.47796828  .00000374  00000+0  19850-3 0  9992
#TLE: 2 43010  98.9960 359.4888 0002523  87.5419 272.6045 14.19701595425023

#Time	Az	El	Level	Level2	SNR	BER	BlckErr	Temp	State	Recorded	gain1	gain2
2026-01-28 03:09:08.84	8.74	5.08	-50.1	-62.4	3.8	8.48e-01	0	40	0	0	71	15082
2026-01-28 03:09:09.83	8.68	5.15	-50.3	-62.4	3.8	8.46e-01	0	40	104	0	72	14292
2026-01-28 03:09:10.82	8.61	5.21	-50.3	-62.4	3.8	8.47e-01	0	40	104	0	72	14290
2026-01-28 03:09:11.82	8.54	5.27	-50.3	-62.4	3.8	8.48e-01	0	40	104	0	72	14273
2026-01-28 03:09:12.81	8.48	5.34	-50.2	-62.4	3.8	8.46e-01	0	40	104	0	72	14243
2026-01-28 03:09:13.80	8.41	5.40	-50.1	-62.4	3.8	8.47e-01	0	40	104	0	72	14239
2026-01-28 03:09:14.79	8.35	5.47	-50.2	-62.3	3.8	8.47e-01	0	40	104	0	72	14180
2026-01-28 03:09:15.79	8.28	5.53	-50.1	-62.3	3.8	8.47e-01	0	40	104	0	72	14107
2026-01-28 03:09:16.78	8.21	5.60	-50.1	-62.3	3.8	8.47e-01	0	40	104	0	72	14166
2026-01-28 03:09:17.77	8.15	5.66	-50.0	-62.3	3.8	8.47e-01	0	41	104	0	72	14113
2026-01-28 03:09:18.76	8.08	5.73	-50.1	-62.3	3.8	8.47e-01	0	40	104	0	71	14978
2026-01-28 03:09:19.76	8.01	5.79	-49.9	-62.3	3.8	8.47e-01	0	41	104	0	71	14928
2026-01-28 03:09:20.75	7.94	5.86	-49.9	-62.3	3.8	8.48e-01	0	41	104	0	71	14934
2026-01-28 03:09:21.74	7.87	5.92	-50.0	-62.3	3.8	8.48e-01	0	41	104	0	71	14893
2026-01-28 03:09:22.74	7.80	5.99	-49.5	-62.2	3.8	8.46e-01	0	41	104	0	71	14845
2026-01-28 03:09:23.73	7.73	6.05	-49.6	-62.2	3.8	8.47e-01	0	41	104	0	70	15669
2026-01-28 03:09:24.72	7.66	6.12	-49.5	-62.2	3.8	8.49e-01	0	41	104	0	70	15653
2026-01-28 03:09:25.72	7.59	6.19	-49.5	-62.2	3.8	8.47e-01	0	40	104	0	70	15604
2026-01-28 03:09:26.71	7.52	6.25	-49.4	-62.1	3.8	8.47e-01	0	41	104	0	70	15537
2026-01-28 03:09:27.70	7.45	6.32	-49.1	-62.1	3.8	8.47e-01	0	41	104	0	69	16412
2026-01-28 03:09:28.70	7.38	6.39	-48.8	-62.1	3.8	8.47e-01	0	41	104	0	68	17300
2026-01-28 03:09:29.69	7.31	6.45	-48.5	-61.9	3.8	8.46e-01	0	41	104	0	68	16980
2026-01-28 03:09:30.68	7.24	6.52	-47.4	-61.6	3.8	8.46e-01	0	41	104	0	66	18482
2026-01-28 03:09:31.68	7.17	6.59	-47.3	-61.6	3.8	8.47e-01	0	41	104	0	66	18471
2026-01-28 03:09:32.67	7.09	6.65	-47.3	-61.6	3.8	8.47e-01	0	41	104	0	66	18489
2026-01-28 03:09:33.66	7.02	6.72	-47.3	-61.6	3.8	8.47e-01	0	41	104	0	66	18336
2026-01-28 03:09:34.66	6.95	6.79	-47.3	-61.5	3.8	8.48e-01	0	41	104	0	66	18238
2026-01-28 03:09:35.65	6.87	6.85	-47.2	-61.5	3.8	8.47e-01	0	41	104	0	66	18152
2026-01-28 03:09:36.64	6.80	6.92	-47.2	-61.4	3.8	8.47e-01	0	41	104	0	66	17953
2026-01-28 03:09:37.63	6.73	6.99	-47.2	-61.4	3.8	8.47e-01	0	41	104	0	66	17903
2026-01-28 03:09:38.63	6.65	7.06	-47.3	-61.3	3.8	8.46e-01	0	41	104	0	66	17713
2026-01-28 03:09:39.62	6.58	7.12	-47.2	-61.1	3.8	8.47e-01	0	41	104	0	66	17393
2026-01-28 03:09:40.61	6.50	7.19	-47.2	-60.9	3.8	8.47e-01	0	41	104	0	66	16899
2026-01-28 03:09:41.61	6.43	7.26	-47.2	-60.5	3.8	8.47e-01	0	41	104	0	66	16137
2026-01-28 03:09:42.60	6.35	7.33	-47.1	-60.0	3.8	8.47e-01	0	41	104	0	66	15243
2026-01-28 03:09:43.59	6.27	7.40	-47.1	-59.5	3.8	8.45e-01	0	41	104	0	66	14396
2026-01-28 03:09:44.58	6.20	7.46	-47.1	-58.7	4.1	8.45e-01	0	41	104	0	66	13241
2026-01-28 03:09:45.58	6.12	7.53	-47.0	-58.2	4.1	8.41e-01	0	42	0	0	66	12505
2026-01-28 03:09:46.57	6.04	7.60	-47.0	-57.9	4.2	8.37e-01	0	42	0	0	66	11996
2026-01-28 03:09:47.56	5.96	7.67	-46.9	-57.7	4.3	8.33e-01	0	42	0	0	65	12377
2026-01-28 03:09:48.56	5.88	7.74	-46.9	-57.5	4.4	8.31e-01	0	42	0	0	65	12162
2026-01-28 03:09:49.55	5.81	7.81	-46.9	-57.4	4.4	8.28e-01	0	42	0	0	65	12012
2026-01-28 03:09:50.54	5.73	7.88	-46.9	-57.4	4.4	8.28e-01	0	42	0	0	65	12032
2026-01-28 03:09:51.53	5.65	7.95	-46.9	-57.5	4.3	8.32e-01	0	42	0	0	65	12166
2026-01-28 03:09:52.53	5.57	8.02	-46.9	-57.4	4.4	8.29e-01	0	42	0	0	65	11982
2026-01-28 03:09:53.52	5.49	8.09	-46.9	-57.2	4.5	8.24e-01	0	41	0	0	65	11731
2026-01-28 03:09:54.51	5.41	8.16	-46.7	-56.4	4.8	8.02e-01	0	42	0	0	65	10669
2026-01-28 03:09:55.51	5.33	8.23	-46.5	-55.1	5.5	7.36e-01	0	42	0	0	65	9265
2026-01-28 03:09:56.50	5.24	8.30	-46.2	-53.5	6.8	3.14e-01	0	42	0	5242880	64	8139
2026-01-28 03:09:57.49	5.16	8.37	-45.7	-51.7	8.6	7.03e-02	0	42	0	10485760	63	6985
2026-01-28 03:09:58.48	5.08	8.44	-45.1	-50.1	10.2	1.32e-02	0	42	0	15728640	62	6191
2026-01-28 03:09:59.48	5.00	8.51	-44.3	-48.5	11.9	8.17e-04	0	42	0	20971520	60	5760
2026-01-28 03:10:00.47	4.91	8.58	-43.7	-47.3	13.2	9.61e-05	0	42	0	27262976	59	5308
2026-01-28 03:10:01.46	4.83	8.65	-43.1	-46.4	14.1	1.48e-05	0	42	0	32505856	58	5065
2026-01-28 03:10:02.46	4.75	8.72	-42.7	-45.8	14.7	0.00e+00	0	42	0	38797312	57	5030
2026-01-28 03:10:03.45	4.66	8.79	-42.5	-45.6	14.9	1.10e-06	0	42	0	44040192	57	4891
2026-01-28 03:10:04.44	4.58	8.86	-42.6	-45.6	14.9	0.00e+00	0	42	0	49283072	57	4903
2026-01-28 03:10:05.43	4.49	8.93	-42.9	-46.1	14.4	0.00e+00	0	42	0	54525952	57	5182
2026-01-28 03:10:06.43	4.40	9.00	-43.4	-46.9	13.6	1.02e-05	0	42	0	60817408	57	5680
2026-01-28 03:10:07.42	4.32	9.08	-43.1	-46.3	14.2	8.58e-05	0	42	0	66060288	58	5028
2026-01-28 03:10:08.41	4.23	9.15	-42.3	-45.0	15.6	0.00e+00	0	42	0	71303168	56	4843
2026-01-28 03:10:09.40	4.15	9.22	-42.9	-46.0	14.5	0.00e+00	0	42	0	77594624	56	5447
2026-01-28 03:10:10.40	4.06	9.29	-46.0	-52.6	7.6	3.52e-01	0	42	0	82837504	63	7745
2026-01-28 03:10:11.39	3.97	9.36	-44.9	-49.4	10.9	1.12e-01	0	42	0	88080384	61	6022
2026-01-28 03:10:12.38	3.88	9.44	-40.3	-42.4	17.9	0.00e+00	0	42	0	94371840	52	4508
2026-01-28 03:10:13.38	3.79	9.51	-40.1	-42.1	18.1	0.00e+00	0	42	0	99614720	52	4389
2026-01-28 03:10:14.37	3.70	9.58	-40.2	-42.3	18.0	0.00e+00	0	42	0	104857600	52	4452
2026-01-28 03:10:15.36	3.61	9.65	-40.0	-42.1	18.3	0.00e+00	0	42	0	111149056	51	4624
2026-01-28 03:10:16.36	3.52	9.73	-39.9	-42.0	18.4	0.00e+00	0	42	0	116391936	51	4553
2026-01-28 03:10:17.35	3.43	9.80	-39.8	-41.9	18.5	0.00e+00	0	42	0	122683392	51	4523
2026-01-28 03:10:18.34	3.34	9.87	-39.8	-41.9	18.5	0.00e+00	0	42	0	127926272	51	4508
2026-01-28 03:10:19.33	3.25	9.95	-39.8	-41.8	18.6	0.00e+00	0	42	0	133169152	51	4488
2026-01-28 03:10:20.33	3.16	10.02	-39.8	-41.9	18.5	0.00e+00	0	42	0	138412032	51	4519
2026-01-28 03:10:21.32	3.06	10.09	-39.8	-41.9	18.5	0.00e+00	0	42	0	144703488	51	4506
2026-01-28 03:10:22.31	2.97	10.17	-39.8	-41.9	18.5	0.00e+00	0	42	0	149946368	51	4534
2026-01-28 03:10:23.30	2.88	10.24	-39.8	-41.9	18.5	0.00e+00	0	42	0	155189248	51	4522
2026-01-28 03:10:24.30	2.78	10.31	-39.6	-41.8	18.7	0.00e+00	0	42	0	161480704	51	4451
2026-01-28 03:10:25.29	2.69	10.39	-39.6	-41.7	18.7	0.00e+00	0	42	0	166723584	51	4439
2026-01-28 03:10:26.28	2.59	10.46	-39.6	-41.7	18.7	0.00e+00	0	42	0	171966464	51	4426
2026-01-28 03:10:27.27	2.50	10.54	-39.5	-41.6	18.8	0.00e+00	0	42	0	178257920	50	4633
2026-01-28 03:10:28.27	2.40	10.61	-39.4	-41.6	18.9	0.00e+00	0	42	0	183500800	50	4600
2026-01-28 03:10:29.26	2.30	10.69	-39.3	-41.4	19.0	0.00e+00	0	42	0	188743680	50	4544
2026-01-28 03:10:30.25	2.21	10.76	-39.3	-41.4	19.1	0.00e+00	0	42	0	195035136	50	4500
2026-01-28 03:10:31.25	2.11	10.84	-39.3	-41.4	19.0	0.00e+00	0	42	0	200278016	50	4518
2026-01-28 03:10:32.24	2.01	10.91	-39.3	-41.4	19.1	0.00e+00	0	42	0	205520896	50	4516
2026-01-28 03:10:33.23	1.91	10.99	-39.2	-41.3	19.1	0.00e+00	0	42	0	211812352	50	4471
2026-01-28 03:10:34.23	1.81	11.06	-39.2	-41.3	19.1	0.00e+00	0	42	0	217055232	50	4482
2026-01-28 03:10:35.22	1.71	11.14	-39.2	-41.2	19.2	0.00e+00	0	42	0	222298112	50	4436
2026-01-28 03:10:36.21	1.61	11.21	-39.2	-41.2	19.2	0.00e+00	0	42	0	228589568	50	4440
2026-01-28 03:10:37.21	1.51	11.29	-39.2	-41.3	19.2	0.00e+00	0	42	0	233832448	50	4456
2026-01-28 03:10:38.20	1.41	11.37	-39.2	-41.3	19.2	0.00e+00	0	42	0	239075328	50	4448
2026-01-28 03:10:39.19	1.31	11.44	-39.1	-41.1	19.3	0.00e+00	0	42	0	245366784	50	4383
2026-01-28 03:10:40.18	1.21	11.52	-39.1	-41.1	19.3	0.00e+00	0	42	0	250609664	50	4375
2026-01-28 03:10:41.18	1.10	11.60	-39.1	-41.1	19.3	0.00e+00	0	42	0	255852544	50	4384
2026-01-28 03:10:42.17	1.00	11.67	-39.2	-41.3	19.2	0.00e+00	0	42	0	262144000	50	4447
2026-01-28 03:10:43.16	0.89	11.75	-39.2	-41.2	19.3	0.00e+00	0	42	0	267386880	50	4441
2026-01-28 03:10:44.16	0.79	11.83	-38.9	-41.0	19.5	0.00e+00	0	42	0	272629760	49	4562
2026-01-28 03:10:45.15	0.68	11.90	-38.9	-40.9	19.5	0.00e+00	0	42	0	278921216	49	4518
2026-01-28 03:10:46.14	0.58	11.98	-39.0	-41.1	19.4	0.00e+00	0	42	0	284164096	49	4622
2026-01-28 03:10:47.13	0.47	12.06	-39.0	-41.0	19.5	0.00e+00	0	42	0	289406976	49	4562
2026-01-28 03:10:48.13	0.36	12.14	-38.9	-40.9	19.5	0.00e+00	0	42	0	294649856	49	4537
2026-01-28 03:10:49.12	0.26	12.21	-39.0	-41.0	19.5	0.00e+00	0	42	0	300941312	49	4547
2026-01-28 03:10:50.11	0.15	12.29	-38.9	-40.8	19.6	0.00e+00	0	42	0	306184192	49	4485
2026-01-28 03:10:51.10	0.04	12.37	-38.9	-40.9	19.6	0.00e+00	0	42	0	312475648	49	4497
2026-01-28 03:10:52.10	359.93	12.45	-39.0	-41.0	19.5	0.00e+00	0	42	0	317718528	49	4546
2026-01-28 03:10:53.09	359.82	12.52	-38.9	-40.9	19.6	0.00e+00	0	42	0	322961408	49	4524
2026-01-28 03:10:54.08	359.71	12.60	-38.9	-40.8	19.7	0.00e+00	0	42	0	328204288	49	4467
2026-01-28 03:10:55.08	359.60	12.68	-38.8	-40.8	19.7	0.00e+00	0	42	0	334495744	49	4452
2026-01-28 03:10:56.07	359.49	12.76	-38.9	-40.8	19.7	0.00e+00	0	42	0	339738624	49	4470
2026-01-28 03:10:57.06	359.37	12.84	-38.9	-40.8	19.6	0.00e+00	0	42	0	344981504	49	4477
2026-01-28 03:10:58.05	359.26	12.92	-38.9	-40.9	19.6	0.00e+00	0	42	0	351272960	49	4504
2026-01-28 03:10:59.05	359.15	13.00	-39.0	-41.0	19.5	0.00e+00	0	42	0	356515840	49	4566
2026-01-28 03:11:00.04	359.03	13.08	-38.8	-40.7	19.7	0.00e+00	0	43	0	361758720	49	4433
2026-01-28 03:11:01.03	358.92	13.16	-38.8	-40.7	19.8	0.00e+00	0	42	0	368050176	49	4428
2026-01-28 03:11:02.03	358.80	13.24	-38.7	-40.7	19.8	0.00e+00	0	43	0	373293056	49	4393
2026-01-28 03:11:03.02	358.68	13.32	-38.7	-40.6	19.9	0.00e+00	0	42	0	378535936	49	4374
2026-01-28 03:11:04.01	358.57	13.40	-38.6	-40.5	20.0	0.00e+00	0	42	0	384827392	49	4309
2026-01-28 03:11:05.00	358.45	13.47	-38.6	-40.5	20.0	0.00e+00	0	42	0	390070272	49	4302
2026-01-28 03:11:06.00	358.33	13.56	-38.7	-40.6	19.9	0.00e+00	0	43	0	395313152	49	4368
2026-01-28 03:11:06.99	358.21	13.64	-38.5	-40.5	20.0	0.00e+00	0	42	0	401604608	49	4297
2026-01-28 03:11:07.98	358.09	13.72	-38.6	-40.5	20.0	0.00e+00	0	42	0	406847488	49	4328
2026-01-28 03:11:08.98	357.97	13.80	-38.6	-40.6	20.0	0.00e+00	0	42	0	412090368	49	4341
2026-01-28 03:11:09.97	357.85	13.88	-38.6	-40.6	19.9	0.00e+00	0	42	0	418381824	49	4353
2026-01-28 03:11:10.96	357.73	13.96	-38.7	-40.6	19.9	0.00e+00	0	43	0	423624704	49	4359
2026-01-28 03:11:11.96	357.61	14.04	-38.6	-40.5	20.0	0.00e+00	0	42	0	428867584	49	4320
2026-01-28 03:11:12.95	357.48	14.12	-38.6	-40.5	20.0	0.00e+00	0	42	0	435159040	49	4310
2026-01-28 03:11:13.94	357.36	14.20	-38.6	-40.6	19.9	0.00e+00	0	42	0	440401920	49	4353
2026-01-28 03:11:14.93	357.24	14.28	-38.5	-40.4	20.1	0.00e+00	0	42	0	445644800	49	4267
2026-01-28 03:11:15.93	357.11	14.36	-38.4	-40.3	20.1	0.00e+00	0	43	0	451936256	48	4484
2026-01-28 03:11:16.92	356.98	14.45	-38.4	-40.3	20.2	0.00e+00	0	42	0	457179136	48	4479
2026-01-28 03:11:17.91	356.86	14.53	-38.4	-40.3	20.2	0.00e+00	0	43	0	462422016	48	4477
2026-01-28 03:11:18.91	356.73	14.61	-38.4	-40.3	20.2	0.00e+00	0	43	0	468713472	48	4448
2026-01-28 03:11:19.90	356.60	14.69	-38.3	-40.2	20.3	0.00e+00	0	43	0	473956352	48	4409
2026-01-28 03:11:20.89	356.47	14.77	-38.3	-40.1	20.3	0.00e+00	0	43	0	479199232	48	4390
2026-01-28 03:11:21.88	356.35	14.86	-38.3	-40.2	20.3	0.00e+00	0	43	0	485490688	48	4396
2026-01-28 03:11:22.88	356.21	14.94	-38.2	-40.1	20.4	0.00e+00	0	43	0	490733568	48	4342
2026-01-28 03:11:23.87	356.08	15.02	-38.2	-40.1	20.4	0.00e+00	0	43	0	495976448	48	4359
2026-01-28 03:11:24.86	355.95	15.10	-38.1	-40.0	20.5	0.00e+00	0	42	0	502267904	48	4297
2026-01-28 03:11:25.86	355.82	15.19	-38.1	-39.9	20.6	0.00e+00	0	42	0	507510784	48	4284
2026-01-28 03:11:26.85	355.69	15.27	-38.1	-39.9	20.6	0.00e+00	0	43	0	512753664	48	4268
2026-01-28 03:11:27.84	355.55	15.35	-38.0	-39.9	20.6	0.00e+00	0	42	0	519045120	48	4250
2026-01-28 03:11:28.83	355.42	15.44	-38.2	-40.0	20.5	0.00e+00	0	43	0	524288000	48	4307
2026-01-28 03:11:29.83	355.28	15.52	-38.1	-39.9	20.6	0.00e+00	0	43	0	529530880	48	4261
2026-01-28 03:11:30.82	355.15	15.60	-38.2	-40.1	20.5	0.00e+00	0	42	0	535822336	48	4352
2026-01-28 03:11:31.81	355.01	15.69	-38.2	-40.1	20.4	0.00e+00	0	43	0	541065216	48	4355
2026-01-28 03:11:32.81	354.87	15.77	-38.1	-39.9	20.6	0.00e+00	0	42	0	546308096	48	4289
2026-01-28 03:11:33.80	354.73	15.85	-38.1	-39.9	20.6	0.00e+00	0	42	0	552599552	48	4286
2026-01-28 03:11:34.79	354.59	15.94	-38.1	-39.9	20.6	0.00e+00	0	43	0	557842432	48	4281
2026-01-28 03:11:35.79	354.45	16.02	-38.0	-39.8	20.7	0.00e+00	0	43	0	563085312	48	4238
2026-01-28 03:11:36.78	354.31	16.11	-37.9	-39.8	20.6	0.00e+00	0	43	0	568328192	47	4446
2026-01-28 03:11:37.77	354.17	16.19	-37.8	-39.7	20.6	0.00e+00	0	43	0	574619648	47	4403
2026-01-28 03:11:38.76	354.03	16.27	-37.9	-39.7	20.6	0.00e+00	0	42	0	579862528	47	4418
2026-01-28 03:11:39.76	353.88	16.36	-37.8	-39.6	20.7	0.00e+00	0	43	0	586153984	47	4351
2026-01-28 03:11:40.75	353.74	16.44	-37.9	-39.7	20.7	0.00e+00	0	43	0	591396864	47	4396
2026-01-28 03:11:41.74	353.59	16.53	-37.7	-39.5	20.8	0.00e+00	0	43	0	596639744	47	4321
2026-01-28 03:11:42.74	353.45	16.61	-37.8	-39.6	20.7	0.00e+00	0	42	0	601882624	47	4361
2026-01-28 03:11:43.73	353.30	16.70	-37.7	-39.4	20.8	0.00e+00	0	43	0	608174080	47	4279
2026-01-28 03:11:44.72	353.15	16.78	-37.6	-39.4	20.9	0.00e+00	0	43	0	613416960	47	4266
2026-01-28 03:11:45.71	353.00	16.87	-37.7	-39.4	20.9	0.00e+00	0	43	0	618659840	47	4283
2026-01-28 03:11:46.71	352.85	16.95	-37.5	-39.3	21.0	0.00e+00	0	43	0	624951296	47	4218
2026-01-28 03:11:47.70	352.70	17.04	-37.5	-39.3	21.0	0.00e+00	0	43	0	630194176	46	4445
2026-01-28 03:11:48.69	352.55	17.12	-37.5	-39.3	21.0	0.00e+00	0	42	0	636485632	46	4456
2026-01-28 03:11:49.69	352.40	17.21	-37.4	-39.2	21.1	0.00e+00	0	42	0	641728512	46	4415
2026-01-28 03:11:50.68	352.25	17.30	-37.4	-39.2	21.1	0.00e+00	0	43	0	646971392	46	4406
2026-01-28 03:11:51.67	352.09	17.38	-37.5	-39.3	21.0	0.00e+00	0	43	0	652214272	46	4464
2026-01-28 03:11:52.67	351.94	17.47	-37.5	-39.3	21.0	0.00e+00	0	43	0	658505728	46	4483
2026-01-28 03:11:53.66	351.78	17.55	-37.5	-39.3	21.0	0.00e+00	0	43	0	663748608	46	4455
2026-01-28 03:11:54.65	351.63	17.64	-37.5	-39.3	21.0	0.00e+00	0	43	0	668991488	46	4447
2026-01-28 03:11:55.64	351.47	17.72	-37.5	-39.4	20.9	0.00e+00	0	43	0	675282944	46	4501
2026-01-28 03:11:56.64	351.31	17.81	-37.5	-39.3	21.0	0.00e+00	0	43	0	680525824	46	4493
2026-01-28 03:11:57.63	351.15	17.90	-37.6	-39.4	20.9	0.00e+00	0	43	0	685768704	46	4518
2026-01-28 03:11:58.62	350.99	17.98	-37.5	-39.3	21.0	0.00e+00	0	43	0	692060160	46	4473
2026-01-28 03:11:59.62	350.83	18.07	-37.4	-39.2	21.1	0.00e+00	0	42	0	697303040	46	4401
2026-01-28 03:12:00.61	350.67	18.16	-37.4	-39.2	21.1	0.00e+00	0	43	0	702545920	46	4410
2026-01-28 03:12:01.60	350.51	18.24	-37.4	-39.2	21.1	0.00e+00	0	43	0	708837376	46	4407
2026-01-28 03:12:02.59	350.34	18.33	-37.1	-38.9	21.4	0.00e+00	0	43	0	714080256	46	4263
2026-01-28 03:12:03.59	350.18	18.41	-37.1	-38.9	21.4	0.00e+00	0	43	0	719323136	46	4279
2026-01-28 03:12:04.58	350.01	18.50	-37.1	-38.9	21.4	0.00e+00	0	42	0	725614592	46	4262
2026-01-28 03:12:05.57	349.84	18.59	-37.1	-38.9	21.4	0.00e+00	0	42	0	730857472	46	4278
2026-01-28 03:12:06.57	349.67	18.67	-37.2	-39.0	21.3	0.00e+00	0	43	0	736100352	46	4306
2026-01-28 03:12:07.56	349.51	18.76	-37.2	-39.0	21.3	0.00e+00	0	43	0	742391808	46	4326
2026-01-28 03:12:08.55	349.34	18.85	-37.1	-38.9	21.4	0.00e+00	0	43	0	747634688	46	4256
2026-01-28 03:12:09.55	349.17	18.94	-37.1	-38.8	21.4	0.00e+00	0	43	0	752877568	46	4228
2026-01-28 03:12:10.54	348.99	19.02	-37.0	-38.8	21.5	0.00e+00	0	43	0	758120448	46	4207
2026-01-28 03:12:11.53	348.82	19.11	-37.0	-38.8	21.5	0.00e+00	0	43	0	764411904	46	4204
2026-01-28 03:12:12.53	348.65	19.20	-36.9	-38.6	21.6	0.00e+00	0	42	0	769654784	45	4383
2026-01-28 03:12:13.52	348.47	19.28	-36.8	-38.5	21.7	0.00e+00	0	43	0	775946240	45	4336
2026-01-28 03:12:14.51	348.30	19.37	-36.8	-38.5	21.7	0.00e+00	0	43	0	781189120	45	4317
2026-01-28 03:12:15.51	348.12	19.46	-36.9	-38.6	21.6	0.00e+00	0	43	0	786432000	45	4388
2026-01-28 03:12:16.50	347.94	19.54	-36.9	-38.7	21.6	0.00e+00	0	43	0	792723456	45	4401
2026-01-28 03:12:17.49	347.76	19.63	-36.9	-38.6	21.6	0.00e+00	0	42	0	797966336	45	4377
2026-01-28 03:12:18.48	347.58	19.72	-37.0	-38.7	21.6	0.00e+00	0	43	0	803209216	45	4420
2026-01-28 03:12:19.48	347.40	19.80	-37.2	-38.9	21.4	0.00e+00	0	42	0	809500672	45	4520
2026-01-28 03:12:20.47	347.22	19.89	-37.2	-39.0	21.3	0.00e+00	0	43	0	814743552	45	4558
2026-01-28 03:12:21.46	347.04	19.98	-37.2	-38.9	21.3	0.00e+00	0	43	0	819986432	45	4538
2026-01-28 03:12:22.46	346.85	20.07	-37.3	-39.0	21.3	0.00e+00	0	43	0	826277888	45	4584
2026-01-28 03:12:23.45	346.67	20.15	-37.2	-39.0	21.3	0.00e+00	0	43	0	831520768	45	4548
2026-01-28 03:12:24.44	346.48	20.24	-37.2	-38.9	21.4	0.00e+00	0	43	0	836763648	45	4528
2026-01-28 03:12:25.43	346.29	20.33	-37.1	-38.8	21.5	0.00e+00	0	43	0	842006528	45	4474
2026-01-28 03:12:26.43	346.10	20.41	-37.0	-38.7	21.6	0.00e+00	0	42	0	848297984	45	4407
2026-01-28 03:12:27.42	345.92	20.50	-36.8	-38.6	21.7	0.00e+00	0	43	0	853540864	45	4348
2026-01-28 03:12:28.41	345.72	20.59	-36.8	-38.5	21.7	0.00e+00	0	43	0	859832320	45	4318
2026-01-28 03:12:29.41	345.53	20.67	-36.7	-38.5	21.8	0.00e+00	0	42	0	865075200	45	4301
2026-01-28 03:12:30.40	345.34	20.76	-36.7	-38.4	21.8	0.00e+00	0	43	0	870318080	45	4273
2026-01-28 03:12:31.39	345.15	20.85	-36.8	-38.5	21.7	0.00e+00	0	43	0	875560960	45	4327
2026-01-28 03:12:32.38	344.95	20.93	-36.8	-38.5	21.7	0.00e+00	0	43	0	881852416	45	4334
2026-01-28 03:12:33.38	344.75	21.02	-36.9	-38.6	21.7	0.00e+00	0	43	0	887095296	45	4363
2026-01-28 03:12:34.37	344.56	21.11	-36.7	-38.5	21.8	0.00e+00	0	43	0	892338176	45	4292
2026-01-28 03:12:35.36	344.36	21.19	-36.7	-38.4	21.8	0.00e+00	0	43	0	898629632	45	4290
2026-01-28 03:12:36.36	344.16	21.28	-36.7	-38.4	21.8	0.00e+00	0	43	0	903872512	45	4290
2026-01-28 03:12:37.35	343.96	21.37	-36.7	-38.5	21.8	0.00e+00	0	43	0	910163968	45	4296
2026-01-28 03:12:38.34	343.76	21.45	-36.8	-38.6	21.7	0.00e+00	0	43	0	915406848	45	4362
2026-01-28 03:12:39.33	343.55	21.54	-36.8	-38.6	21.7	0.00e+00	0	43	0	920649728	45	4341
2026-01-28 03:12:40.33	343.35	21.63	-36.7	-38.4	21.8	0.00e+00	0	43	0	925892608	45	4290
2026-01-28 03:12:41.32	343.14	21.71	-36.6	-38.4	21.8	0.00e+00	0	43	0	932184064	45	4283
2026-01-28 03:12:42.31	342.94	21.80	-36.6	-38.4	21.8	0.00e+00	0	43	0	937426944	45	4287
2026-01-28 03:12:43.31	342.73	21.88	-36.7	-38.5	21.8	0.00e+00	0	43	0	942669824	45	4296
2026-01-28 03:12:44.30	342.52	21.97	-36.7	-38.4	21.9	0.00e+00	0	43	0	948961280	45	4277
2026-01-28 03:12:45.29	342.31	22.05	-36.6	-38.3	22.0	0.00e+00	0	43	0	954204160	45	4219
2026-01-28 03:12:46.28	342.10	22.14	-36.6	-38.3	21.9	0.00e+00	0	43	0	959447040	45	4239
2026-01-28 03:12:47.28	341.89	22.23	-36.7	-38.4	21.8	0.00e+00	0	43	0	965738496	45	4269
2026-01-28 03:12:48.27	341.67	22.31	-36.5	-38.2	22.0	0.00e+00	0	43	0	970981376	45	4180
2026-01-28 03:12:49.26	341.46	22.39	-36.2	-37.9	22.3	0.00e+00	0	43	0	976224256	44	4267
2026-01-28 03:12:50.26	341.24	22.48	-36.2	-37.9	22.3	0.00e+00	0	43	0	982515712	44	4264
2026-01-28 03:12:51.25	341.03	22.56	-36.3	-38.0	22.2	0.00e+00	0	43	0	987758592	44	4311
2026-01-28 03:12:52.24	340.81	22.65	-36.4	-38.1	22.1	0.00e+00	0	43	0	993001472	44	4372
2026-01-28 03:12:53.23	340.59	22.73	-36.4	-38.1	22.1	0.00e+00	0	43	0	999292928	44	4363
2026-01-28 03:12:54.23	340.37	22.82	-36.4	-38.1	22.1	0.00e+00	0	43	0	1004535808	44	4363
2026-01-28 03:12:55.22	340.15	22.90	-36.4	-38.1	22.2	0.00e+00	0	43	0	1009778688	44	4356
2026-01-28 03:12:56.21	339.92	22.99	-36.4	-38.1	22.1	0.00e+00	0	43	0	1016070144	44	4391
2026-01-28 03:12:57.21	339.70	23.07	-36.3	-38.0	22.3	0.00e+00	0	43	0	1021313024	44	4298
2026-01-28 03:12:58.20	339.47	23.15	-36.3	-38.0	22.3	0.00e+00	0	43	0	1026555904	44	4304
2026-01-28 03:12:59.19	339.25	23.24	-36.2	-37.9	22.3	0.00e+00	0	43	0	1032847360	44	4272
2026-01-28 03:13:00.18	339.02	23.32	-36.1	-37.8	22.4	0.00e+00	0	42	0	1038090240	44	4218
2026-01-28 03:13:01.18	338.79	23.40	-36.0	-37.6	22.5	0.00e+00	0	43	0	1043333120	44	4145
2026-01-28 03:13:02.17	338.56	23.48	-35.8	-37.4	22.6	0.00e+00	0	43	0	1049624576	43	4286
2026-01-28 03:13:03.16	338.33	23.57	-35.8	-37.5	22.5	0.00e+00	0	43	0	1054867456	43	4324
2026-01-28 03:13:04.16	338.09	23.65	-35.9	-37.6	22.4	0.00e+00	0	43	0	1060110336	43	4388
2026-01-28 03:13:05.15	337.86	23.73	-35.9	-37.6	22.4	0.00e+00	0	43	0	1066401792	43	4370
2026-01-28 03:13:06.14	337.62	23.81	-36.0	-37.7	22.3	0.00e+00	0	43	0	1071644672	43	4428
2026-01-28 03:13:07.13	337.39	23.89	-35.9	-37.6	22.4	0.00e+00	0	43	0	1076887552	43	4379
2026-01-28 03:13:08.13	337.15	23.97	-35.9	-37.6	22.4	0.00e+00	0	43	0	1082130432	43	4380
2026-01-28 03:13:09.12	336.91	24.05	-35.9	-37.5	22.5	0.00e+00	0	43	0	1088421888	43	4339
2026-01-28 03:13:10.11	336.67	24.13	-35.8	-37.5	22.6	0.00e+00	0	43	0	1093664768	43	4303
2026-01-28 03:13:11.11	336.43	24.22	-35.8	-37.4	22.5	0.00e+00	0	43	0	1099956224	43	4280
2026-01-28 03:13:12.10	336.18	24.29	-35.8	-37.4	22.6	0.00e+00	0	43	0	1105199104	43	4279
2026-01-28 03:13:13.09	335.94	24.37	-35.8	-37.5	22.6	0.00e+00	0	43	0	1110441984	43	4293
2026-01-28 03:13:14.08	335.70	24.45	-35.8	-37.5	22.5	0.00e+00	0	43	0	1115684864	43	4319
2026-01-28 03:13:15.08	335.45	24.53	-35.8	-37.5	22.5	0.00e+00	0	43	0	1121976320	43	4312
2026-01-28 03:13:16.07	335.20	24.61	-35.8	-37.6	22.5	0.00e+00	0	43	0	1127219200	43	4348
2026-01-28 03:13:17.06	334.95	24.69	-36.0	-37.7	22.4	0.00e+00	0	43	0	1132462080	43	4412
2026-01-28 03:13:18.06	334.70	24.77	-36.0	-37.8	22.3	0.00e+00	0	43	0	1138753536	43	4457
2026-01-28 03:13:19.05	334.45	24.84	-36.1	-37.8	22.2	0.00e+00	0	43	0	1143996416	43	4463
2026-01-28 03:13:20.04	334.20	24.92	-36.1	-37.8	22.2	0.00e+00	0	43	0	1150287872	43	4484
2026-01-28 03:13:21.03	333.94	25.00	-36.1	-37.8	22.3	0.00e+00	0	43	0	1155530752	43	4445
2026-01-28 03:13:22.03	333.68	25.07	-35.8	-37.5	22.5	0.00e+00	0	43	0	1160773632	43	4327
2026-01-28 03:13:23.02	333.43	25.15	-35.9	-37.6	22.4	0.00e+00	0	43	0	1166016512	43	4358
2026-01-28 03:13:24.01	333.17	25.22	-35.7	-37.4	22.6	0.00e+00	0	43	0	1172307968	43	4267
2026-01-28 03:13:25.01	332.91	25.30	-35.8	-37.5	22.6	0.00e+00	0	43	0	1177550848	43	4301
2026-01-28 03:13:26.00	332.65	25.37	-36.0	-37.7	22.4	0.00e+00	0	43	0	1183842304	43	4393
2026-01-28 03:13:26.99	332.39	25.45	-35.9	-37.6	22.5	0.00e+00	0	43	0	1189085184	43	4357
2026-01-28 03:13:27.99	332.12	25.52	-36.0	-37.7	22.4	0.00e+00	0	43	0	1194328064	43	4393
2026-01-28 03:13:28.98	331.86	25.59	-35.9	-37.6	22.4	0.00e+00	0	43	0	1199570944	43	4360
2026-01-28 03:13:29.97	331.60	25.67	-35.8	-37.5	22.6	0.00e+00	0	43	0	1205862400	43	4294
2026-01-28 03:13:30.96	331.33	25.74	-35.8	-37.4	22.6	0.00e+00	0	43	0	1211105280	43	4291
2026-01-28 03:13:31.96	331.06	25.81	-35.8	-37.5	22.5	0.00e+00	0	43	0	1216348160	43	4338
2026-01-28 03:13:32.95	330.79	25.88	-35.7	-37.4	22.6	0.00e+00	0	43	0	1222639616	43	4279
2026-01-28 03:13:33.94	330.52	25.95	-35.6	-37.3	22.7	0.00e+00	0	43	0	1227882496	43	4228
2026-01-28 03:13:34.93	330.25	26.02	-35.6	-37.3	22.7	0.00e+00	0	43	0	1233125376	43	4226
2026-01-28 03:13:35.93	329.98	26.09	-35.6	-37.3	22.7	0.00e+00	0	43	0	1239416832	43	4222
2026-01-28 03:13:36.92	329.70	26.16	-35.5	-37.2	22.8	0.00e+00	0	43	0	1244659712	43	4182
2026-01-28 03:13:37.91	329.43	26.23	-35.6	-37.2	22.8	0.00e+00	0	43	0	1249902592	43	4187
2026-01-28 03:13:38.91	329.15	26.30	-35.6	-37.3	22.7	0.00e+00	0	43	0	1256194048	43	4222
2026-01-28 03:13:39.90	328.87	26.37	-35.8	-37.4	22.6	0.00e+00	0	43	0	1261436928	43	4288
2026-01-28 03:13:40.89	328.60	26.43	-35.7	-37.4	22.6	0.00e+00	0	43	0	1266679808	43	4266
2026-01-28 03:13:41.89	328.31	26.50	-35.8	-37.4	22.6	0.00e+00	0	43	0	1272971264	43	4287
2026-01-28 03:13:42.88	328.03	26.56	-35.7	-37.4	22.7	0.00e+00	0	43	0	1278214144	43	4255
2026-01-28 03:13:43.87	327.75	26.63	-35.7	-37.4	22.7	0.00e+00	0	43	0	1283457024	43	4266
2026-01-28 03:13:44.86	327.47	26.69	-35.7	-37.4	22.7	0.00e+00	0	43	0	1289748480	43	4253
2026-01-28 03:13:45.86	327.18	26.76	-35.6	-37.3	22.8	0.00e+00	0	43	0	1294991360	43	4194
2026-01-28 03:13:46.85	326.90	26.82	-35.5	-37.2	22.8	0.00e+00	0	43	0	1300234240	43	4156
2026-01-28 03:13:47.84	326.61	26.88	-35.6	-37.3	22.8	0.00e+00	0	43	0	1306525696	43	4198
2026-01-28 03:13:48.84	326.32	26.95	-35.7	-37.4	22.7	0.00e+00	0	43	0	1311768576	43	4260
2026-01-28 03:13:49.83	326.03	27.01	-35.8	-37.5	22.6	0.00e+00	0	43	0	1317011456	43	4299
2026-01-28 03:13:50.82	325.74	27.07	-35.9	-37.6	22.4	0.00e+00	0	43	0	1323302912	43	4389
2026-01-28 03:13:51.81	325.45	27.13	-35.9	-37.6	22.4	0.00e+00	0	43	0	1328545792	43	4380
2026-01-28 03:13:52.81	325.16	27.19	-35.7	-37.4	22.7	0.00e+00	0	43	0	1333788672	43	4243
2026-01-28 03:13:53.80	324.87	27.24	-35.5	-37.2	22.8	0.00e+00	0	43	0	1340080128	43	4164
2026-01-28 03:13:54.79	324.57	27.30	-35.6	-37.3	22.7	0.00e+00	0	43	0	1345323008	43	4211
2026-01-28 03:13:55.79	324.27	27.36	-35.6	-37.3	22.8	0.00e+00	0	43	0	1350565888	43	4202
2026-01-28 03:13:56.78	323.98	27.42	-35.7	-37.4	22.6	0.00e+00	0	43	0	1355808768	43	4260
2026-01-28 03:13:57.77	323.68	27.47	-35.5	-37.2	22.8	0.00e+00	0	43	0	1362100224	43	4182
2026-01-28 03:13:58.76	323.38	27.53	-35.5	-37.2	22.7	0.00e+00	0	43	0	1367343104	43	4171
2026-01-28 03:13:59.76	323.08	27.58	-35.6	-37.3	22.7	0.00e+00	0	43	0	1373634560	43	4210
2026-01-28 03:14:00.75	322.78	27.63	-35.6	-37.3	22.8	0.00e+00	0	43	0	1378877440	43	4208
2026-01-28 03:14:01.74	322.48	27.69	-35.5	-37.2	22.8	0.00e+00	0	43	0	1384120320	43	4155
2026-01-28 03:14:02.74	322.17	27.74	-35.3	-36.9	23.1	0.00e+00	0	43	0	1389363200	42	4289
2026-01-28 03:14:03.73	321.87	27.79	-35.3	-37.0	23.1	0.00e+00	0	43	0	1395654656	42	4292
2026-01-28 03:14:04.72	321.57	27.84	-35.3	-37.0	23.1	0.00e+00	0	43	0	1400897536	42	4293
2026-01-28 03:14:05.71	321.26	27.89	-35.3	-37.0	23.0	0.00e+00	0	43	0	1406140416	42	4298
2026-01-28 03:14:06.71	320.95	27.94	-35.4	-37.1	23.0	0.00e+00	0	43	0	1412431872	42	4345
2026-01-28 03:14:07.70	320.65	27.98	-35.4	-37.1	22.9	0.00e+00	0	43	0	1417674752	42	4369
2026-01-28 03:14:08.69	320.34	28.03	-35.3	-37.0	23.0	0.00e+00	0	43	0	1423966208	42	4300
2026-01-28 03:14:09.69	320.03	28.08	-35.2	-36.8	23.1	0.00e+00	0	43	0	1429209088	42	4242
2026-01-28 03:14:10.68	319.72	28.12	-35.3	-36.9	23.1	0.00e+00	0	43	0	1434451968	42	4289
2026-01-28 03:14:11.67	319.41	28.17	-35.3	-37.0	23.0	0.00e+00	0	43	0	1439694848	42	4302
2026-01-28 03:14:12.67	319.09	28.21	-35.4	-37.0	23.0	0.00e+00	0	43	0	1445986304	42	4333
2026-01-28 03:14:13.66	318.78	28.25	-35.3	-37.0	23.0	0.00e+00	0	43	0	1451229184	42	4310
2026-01-28 03:14:14.65	318.47	28.29	-35.4	-37.0	23.0	0.00e+00	0	43	0	1456472064	42	4337
2026-01-28 03:14:15.65	318.15	28.34	-35.4	-37.1	22.9	0.00e+00	0	43	0	1462763520	42	4357
2026-01-28 03:14:16.64	317.83	28.38	-35.3	-37.0	23.0	0.00e+00	0	43	0	1468006400	42	4306
2026-01-28 03:14:17.63	317.52	28.41	-35.3	-36.9	23.1	0.00e+00	0	43	0	1473249280	42	4284
2026-01-28 03:14:18.62	317.20	28.45	-35.1	-36.8	23.2	0.00e+00	0	43	0	1479540736	42	4201
2026-01-28 03:14:19.62	316.88	28.49	-35.0	-36.6	23.3	0.00e+00	0	43	0	1484783616	42	4137
2026-01-28 03:14:20.61	316.56	28.53	-35.0	-36.7	23.3	0.00e+00	0	43	0	1490026496	42	4149
2026-01-28 03:14:21.60	316.25	28.56	-35.1	-36.8	23.2	0.00e+00	0	43	0	1496317952	42	4205
2026-01-28 03:14:22.60	315.92	28.59	-35.2	-36.9	23.1	0.00e+00	0	43	0	1501560832	42	4246
2026-01-28 03:14:23.59	315.60	28.63	-35.1	-36.8	23.2	0.00e+00	0	43	0	1506803712	42	4218
2026-01-28 03:14:24.58	315.28	28.66	-35.2	-36.9	23.1	0.00e+00	0	43	0	1513095168	42	4286
2026-01-28 03:14:25.58	314.96	28.69	-35.2	-36.9	23.1	0.00e+00	0	43	0	1518338048	42	4257
2026-01-28 03:14:26.57	314.64	28.72	-35.0	-36.7	23.3	0.00e+00	0	43	0	1523580928	42	4168
2026-01-28 03:14:27.56	314.31	28.75	-35.0	-36.6	23.3	0.00e+00	0	43	0	1529872384	42	4133
2026-01-28 03:14:28.55	313.99	28.78	-35.0	-36.7	23.3	0.00e+00	0	43	0	1535115264	41	4401
2026-01-28 03:14:29.55	313.66	28.81	-35.1	-36.7	23.2	0.00e+00	0	43	0	1540358144	41	4429
2026-01-28 03:14:30.54	313.34	28.83	-35.1	-36.7	23.2	0.00e+00	0	43	0	1546649600	41	4413
2026-01-28 03:14:31.53	313.02	28.86	-35.0	-36.7	23.3	0.00e+00	0	43	0	1551892480	41	4405
2026-01-28 03:14:32.53	312.69	28.88	-35.0	-36.6	23.3	0.00e+00	0	43	0	1557135360	41	4384
2026-01-28 03:14:33.52	312.36	28.91	-35.2	-36.9	23.1	0.00e+00	0	43	0	1563426816	41	4500
2026-01-28 03:14:34.51	312.03	28.93	-35.1	-36.8	23.2	0.00e+00	0	43	0	1568669696	41	4454
2026-01-28 03:14:35.51	311.70	28.95	-35.1	-36.7	23.2	0.00e+00	0	43	0	1573912576	41	4429
2026-01-28 03:14:36.50	311.38	28.97	-35.1	-36.7	23.3	0.00e+00	0	43	0	1580204032	41	4412
2026-01-28 03:14:37.49	311.05	28.99	-35.0	-36.7	23.3	0.00e+00	0	43	0	1585446912	41	4393
2026-01-28 03:14:38.48	310.72	29.01	-34.9	-36.5	23.4	0.00e+00	0	43	0	1590689792	41	4300
2026-01-28 03:14:39.48	310.39	29.03	-34.9	-36.5	23.4	0.00e+00	0	43	0	1596981248	41	4316
2026-01-28 03:14:40.47	310.06	29.04	-34.9	-36.5	23.4	0.00e+00	0	43	0	1602224128	41	4310
2026-01-28 03:14:41.46	309.73	29.06	-34.9	-36.5	23.4	0.00e+00	0	43	0	1607467008	41	4319
2026-01-28 03:14:42.46	309.40	29.07	-34.8	-36.4	23.5	0.00e+00	0	43	0	1613758464	41	4277
2026-01-28 03:14:43.45	309.07	29.08	-34.8	-36.4	23.4	0.00e+00	0	43	0	1619001344	41	4285
2026-01-28 03:14:44.44	308.74	29.10	-34.8	-36.4	23.5	0.00e+00	0	43	0	1624244224	41	4264
2026-01-28 03:14:45.43	308.41	29.11	-34.6	-36.3	23.6	0.00e+00	0	43	0	1629487104	41	4195
2026-01-28 03:14:46.43	308.08	29.12	-34.7	-36.3	23.6	0.00e+00	0	43	0	1635778560	41	4211
2026-01-28 03:14:47.42	307.75	29.12	-34.9	-36.5	23.4	0.00e+00	0	43	0	1641021440	41	4323
2026-01-28 03:14:48.41	307.42	29.13	-34.9	-36.5	23.4	0.00e+00	0	43	0	1647312896	41	4336
2026-01-28 03:14:49.41	307.08	29.14	-35.0	-36.6	23.3	0.00e+00	0	43	0	1652555776	41	4376
2026-01-28 03:14:50.40	306.75	29.14	-35.1	-36.8	23.2	0.00e+00	0	43	0	1657798656	41	4458
2026-01-28 03:14:51.39	306.42	29.15	-35.0	-36.7	23.3	0.00e+00	0	43	0	1663041536	41	4401
2026-01-28 03:14:52.38	306.09	29.15	-35.0	-36.6	23.4	0.00e+00	0	43	0	1669332992	41	4355
2026-01-28 03:14:53.38	305.76	29.15	-35.0	-36.7	23.3	0.00e+00	0	43	0	1674575872	41	4395
2026-01-28 03:14:54.37	305.42	29.16	-35.1	-36.7	23.2	0.00e+00	0	43	0	1679818752	41	4438
2026-01-28 03:14:55.36	305.09	29.16	-35.1	-36.7	23.3	0.00e+00	0	43	0	1686110208	41	4417
2026-01-28 03:14:56.35	304.76	29.15	-35.1	-36.7	23.2	0.00e+00	0	43	0	1691353088	41	4438
2026-01-28 03:14:57.35	304.43	29.15	-34.9	-36.6	23.4	0.00e+00	0	43	0	1697644544	41	4346
2026-01-28 03:14:58.34	304.10	29.15	-34.9	-36.5	23.4	0.00e+00	0	43	0	1702887424	41	4330
2026-01-28 03:14:59.33	303.76	29.15	-34.9	-36.5	23.4	0.00e+00	0	43	0	1708130304	41	4321
2026-01-28 03:15:00.33	303.43	29.14	-34.8	-36.4	23.5	0.00e+00	0	43	0	1713373184	41	4287
2026-01-28 03:15:01.32	303.10	29.13	-34.8	-36.4	23.5	0.00e+00	0	43	0	1719664640	41	4288
2026-01-28 03:15:02.31	302.77	29.13	-34.7	-36.4	23.6	0.00e+00	0	43	0	1724907520	41	4243
2026-01-28 03:15:03.30	302.44	29.12	-34.8	-36.4	23.5	0.00e+00	0	43	0	1730150400	41	4261
2026-01-28 03:15:04.30	302.10	29.11	-34.9	-36.5	23.4	0.00e+00	0	43	0	1736441856	41	4315
2026-01-28 03:15:05.29	301.77	29.10	-34.8	-36.5	23.5	0.00e+00	0	43	0	1741684736	41	4292
2026-01-28 03:15:06.28	301.44	29.09	-34.8	-36.5	23.5	0.00e+00	0	43	0	1746927616	41	4292
2026-01-28 03:15:07.27	301.11	29.07	-34.8	-36.5	23.4	0.00e+00	0	43	0	1753219072	41	4304
2026-01-28 03:15:08.27	300.78	29.06	-34.9	-36.5	23.4	0.00e+00	0	43	0	1758461952	41	4339
2026-01-28 03:15:09.26	300.45	29.04	-34.8	-36.5	23.5	0.00e+00	0	43	0	1763704832	41	4300
2026-01-28 03:15:10.25	300.12	29.03	-34.8	-36.5	23.5	0.00e+00	0	43	0	1769996288	41	4296
2026-01-28 03:15:11.25	299.79	29.01	-34.8	-36.4	23.5	0.00e+00	0	43	0	1775239168	41	4275
2026-01-28 03:15:12.24	299.46	28.99	-34.8	-36.5	23.4	0.00e+00	0	43	0	1780482048	41	4297
2026-01-28 03:15:13.23	299.14	28.98	-34.9	-36.5	23.5	0.00e+00	0	43	0	1786773504	41	4301
2026-01-28 03:15:14.23	298.81	28.95	-34.9	-36.5	23.4	0.00e+00	0	43	0	1792016384	41	4333
2026-01-28 03:15:15.22	298.48	28.93	-34.8	-36.4	23.5	0.00e+00	0	43	0	1797259264	41	4278
2026-01-28 03:15:16.21	298.15	28.91	-34.8	-36.4	23.5	0.00e+00	0	43	0	1803550720	41	4279
2026-01-28 03:15:17.21	297.82	28.89	-34.8	-36.4	23.5	0.00e+00	0	43	0	1808793600	41	4264
2026-01-28 03:15:18.20	297.50	28.86	-34.9	-36.5	23.4	0.00e+00	0	43	0	1814036480	41	4304
2026-01-28 03:15:19.19	297.17	28.84	-34.8	-36.4	23.5	0.00e+00	0	43	0	1820327936	41	4270
2026-01-28 03:15:20.19	296.84	28.81	-34.9	-36.5	23.4	0.00e+00	0	43	0	1825570816	41	4334
2026-01-28 03:15:21.18	296.52	28.79	-35.0	-36.7	23.3	0.00e+00	0	43	0	1830813696	41	4401
2026-01-28 03:15:22.17	296.20	28.76	-35.0	-36.6	23.3	0.00e+00	0	43	0	1837105152	41	4357
2026-01-28 03:15:23.16	295.87	28.73	-35.0	-36.7	23.3	0.00e+00	0	43	0	1842348032	41	4396
2026-01-28 03:15:24.16	295.55	28.70	-35.1	-36.7	23.2	0.00e+00	0	43	0	1847590912	41	4440
2026-01-28 03:15:25.15	295.23	28.67	-34.9	-36.5	23.4	0.00e+00	0	43	0	1853882368	41	4323
2026-01-28 03:15:26.14	294.90	28.64	-34.7	-36.3	23.6	0.00e+00	0	43	0	1859125248	41	4223
2026-01-28 03:15:27.14	294.58	28.60	-34.6	-36.2	23.7	0.00e+00	0	43	0	1864368128	41	4174
2026-01-28 03:15:28.13	294.26	28.57	-34.6	-36.2	23.6	0.00e+00	0	43	0	1870659584	41	4192
2026-01-28 03:15:29.12	293.94	28.53	-34.5	-36.2	23.7	0.00e+00	0	43	0	1875902464	41	4152
2026-01-28 03:15:30.11	293.62	28.50	-34.7	-36.3	23.6	0.00e+00	0	43	0	1881145344	41	4212
2026-01-28 03:15:31.11	293.30	28.46	-34.7	-36.4	23.5	0.00e+00	0	43	0	1887436800	41	4250
2026-01-28 03:15:32.10	292.99	28.42	-34.8	-36.4	23.5	0.00e+00	0	43	0	1892679680	41	4255
2026-01-28 03:15:33.09	292.67	28.38	-34.8	-36.4	23.5	0.00e+00	0	43	0	1897922560	41	4259
2026-01-28 03:15:34.08	292.35	28.34	-34.9	-36.6	23.3	0.00e+00	0	43	0	1903165440	41	4346
2026-01-28 03:15:35.08	292.04	28.30	-34.9	-36.5	23.4	0.00e+00	0	43	0	1909456896	41	4304
2026-01-28 03:15:36.07	291.72	28.26	-34.9	-36.5	23.4	0.00e+00	0	43	0	1914699776	41	4334
2026-01-28 03:15:37.06	291.41	28.22	-35.0	-36.6	23.3	0.00e+00	0	43	0	1920991232	41	4391
2026-01-28 03:15:38.05	291.10	28.18	-35.0	-36.6	23.3	0.00e+00	0	43	0	1926234112	41	4361
2026-01-28 03:15:39.05	290.78	28.13	-35.0	-36.6	23.3	0.00e+00	0	43	0	1931476992	41	4388
2026-01-28 03:15:40.04	290.47	28.09	-35.0	-36.6	23.3	0.00e+00	0	43	0	1936719872	41	4381
2026-01-28 03:15:41.03	290.16	28.04	-35.1	-36.7	23.2	0.00e+00	0	43	0	1943011328	41	4436
2026-01-28 03:15:42.03	289.85	27.99	-35.1	-36.7	23.2	0.00e+00	0	43	0	1948254208	41	4438
2026-01-28 03:15:43.02	289.54	27.95	-35.0	-36.6	23.3	0.00e+00	0	43	0	1953497088	41	4360
2026-01-28 03:15:44.01	289.24	27.90	-35.0	-36.6	23.3	0.00e+00	0	43	0	1959788544	41	4377
2026-01-28 03:15:45.01	288.93	27.85	-35.0	-36.7	23.3	0.00e+00	0	43	0	1965031424	41	4392
2026-01-28 03:15:46.00	288.62	27.80	-34.8	-36.4	23.5	0.00e+00	0	43	0	1971322880	41	4276
2026-01-28 03:15:46.99	288.32	27.75	-34.8	-36.4	23.5	0.00e+00	0	43	0	1976565760	41	4275
2026-01-28 03:15:47.98	288.01	27.70	-34.9	-36.5	23.4	0.00e+00	0	43	0	1981808640	41	4317
2026-01-28 03:15:48.98	287.71	27.64	-34.9	-36.6	23.3	0.00e+00	0	43	0	1987051520	41	4349
2026-01-28 03:15:49.97	287.41	27.59	-35.0	-36.6	23.3	0.00e+00	0	43	0	1993342976	41	4376
2026-01-28 03:15:50.96	287.11	27.54	-35.0	-36.6	23.3	0.00e+00	0	43	0	1998585856	41	4369
2026-01-28 03:15:51.96	286.81	27.48	-35.1	-36.7	23.2	0.00e+00	0	43	0	2003828736	41	4407
2026-01-28 03:15:52.95	286.51	27.43	-35.1	-36.7	23.2	0.00e+00	0	43	0	2010120192	41	4411
2026-01-28 03:15:53.94	286.21	27.37	-35.2	-36.9	23.1	0.00e+00	0	43	0	2015363072	41	4500
2026-01-28 03:15:54.94	285.91	27.31	-35.2	-36.8	23.1	0.00e+00	0	43	0	2020605952	41	4484
2026-01-28 03:15:55.93	285.62	27.26	-35.1	-36.8	23.2	0.00e+00	0	43	0	2026897408	41	4454
2026-01-28 03:15:56.92	285.32	27.20	-35.2	-36.8	23.1	0.00e+00	0	43	0	2032140288	41	4485
2026-01-28 03:15:57.92	285.03	27.14	-35.1	-36.8	23.2	0.00e+00	0	43	0	2037383168	41	4442
2026-01-28 03:15:58.91	284.74	27.08	-35.0	-36.6	23.3	0.00e+00	0	43	0	2043674624	41	4381
2026-01-28 03:15:59.90	284.44	27.02	-35.0	-36.7	23.3	0.00e+00	0	43	0	2048917504	41	4392
2026-01-28 03:16:00.89	284.16	26.96	-35.1	-36.8	23.2	0.00e+00	0	43	0	2054160384	41	4442
2026-01-28 03:16:01.89	283.86	26.89	-35.1	-36.7	23.2	0.00e+00	0	43	0	2060451840	41	4435
2026-01-28 03:16:02.88	283.58	26.83	-35.1	-36.7	23.2	0.00e+00	0	43	0	2065694720	41	4423
2026-01-28 03:16:03.87	283.29	26.77	-35.1	-36.7	23.2	0.00e+00	0	43	0	2070937600	41	4436
2026-01-28 03:16:04.87	283.00	26.70	-35.2	-36.8	23.1	0.00e+00	0	43	0	2077229056	41	4479
2026-01-28 03:16:05.86	282.72	26.64	-35.1	-36.8	23.2	0.00e+00	0	43	0	2082471936	41	4442
2026-01-28 03:16:06.85	282.44	26.58	-35.2	-36.8	23.2	0.00e+00	0	43	0	2087714816	41	4471
2026-01-28 03:16:07.85	282.15	26.51	-35.2	-36.9	23.1	0.00e+00	0	43	0	2094006272	41	4496
2026-01-28 03:16:08.84	281.87	26.44	-35.1	-36.8	23.2	0.00e+00	0	43	0	2099249152	41	4452
2026-01-28 03:16:09.83	281.59	26.38	-35.1	-36.7	23.2	0.00e+00	0	43	0	2104492032	41	4435
2026-01-28 03:16:10.82	281.32	26.31	-35.0	-36.6	23.3	0.00e+00	0	43	0	2110783488	41	4358
2026-01-28 03:16:11.82	281.04	26.24	-35.0	-36.6	23.3	0.00e+00	0	43	0	2116026368	41	4383
2026-01-28 03:16:12.81	280.76	26.17	-35.1	-36.7	23.2	0.00e+00	0	43	0	2121269248	41	4435
2026-01-28 03:16:13.80	280.49	26.10	-35.1	-36.7	23.3	0.00e+00	0	43	0	2127560704	41	4408
2026-01-28 03:16:14.80	280.21	26.03	-35.2	-36.8	23.2	0.00e+00	0	43	0	2132803584	41	4472
2026-01-28 03:16:15.79	279.94	25.96	-35.1	-36.7	23.2	0.00e+00	0	43	0	2138046464	41	4438
2026-01-28 03:16:16.78	279.67	25.89	-35.1	-36.8	23.2	0.00e+00	0	43	0	2143289344	41	4448
2026-01-28 03:16:17.78	279.40	25.82	-35.2	-36.9	23.1	0.00e+00	0	43	0	2149580800	41	4507
2026-01-28 03:16:18.77	279.13	25.75	-35.3	-36.9	23.0	0.00e+00	0	43	0	2154823680	41	4542
2026-01-28 03:16:19.76	278.86	25.68	-35.4	-37.0	22.9	0.00e+00	0	43	0	2161115136	41	4587
2026-01-28 03:16:20.75	278.59	25.60	-35.3	-37.0	23.0	0.00e+00	0	43	0	2166358016	41	4552
2026-01-28 03:16:21.75	278.33	25.53	-35.4	-37.0	22.9	0.00e+00	0	43	0	2171600896	41	4598
2026-01-28 03:16:22.74	278.06	25.46	-35.4	-37.1	22.9	0.00e+00	0	43	0	2176843776	41	4606
2026-01-28 03:16:23.73	277.80	25.38	-35.4	-37.1	22.9	0.00e+00	0	43	0	2183135232	41	4615
2026-01-28 03:16:24.73	277.54	25.31	-35.5	-37.1	22.9	0.00e+00	0	43	0	2188378112	41	4640
2026-01-28 03:16:25.72	277.28	25.23	-35.5	-37.2	22.8	0.00e+00	0	43	0	2193620992	41	4653
2026-01-28 03:16:26.71	277.02	25.16	-35.3	-37.0	22.9	0.00e+00	0	43	0	2199912448	41	4563
2026-01-28 03:16:27.70	276.76	25.08	-35.4	-37.0	22.9	0.00e+00	0	43	0	2205155328	41	4588
2026-01-28 03:16:28.70	276.50	25.00	-35.4	-37.0	22.9	0.00e+00	0	43	0	2211446784	41	4577
2026-01-28 03:16:29.69	276.25	24.93	-35.4	-37.1	22.9	0.00e+00	0	43	0	2216689664	41	4608
2026-01-28 03:16:30.68	276.00	24.85	-35.4	-37.0	22.9	0.00e+00	0	43	0	2221932544	41	4595
2026-01-28 03:16:31.68	275.74	24.77	-35.4	-37.1	22.9	0.00e+00	0	43	0	2227175424	41	4600
2026-01-28 03:16:32.67	275.49	24.70	-35.4	-37.0	22.9	0.00e+00	0	43	0	2233466880	41	4591
2026-01-28 03:16:33.66	275.24	24.62	-35.5	-37.1	22.8	0.00e+00	0	43	0	2238709760	41	4633
2026-01-28 03:16:34.65	274.99	24.54	-35.5	-37.1	22.8	0.00e+00	0	43	0	2245001216	41	4648
2026-01-28 03:16:35.65	274.74	24.46	-35.5	-37.1	22.9	0.00e+00	0	43	0	2250244096	41	4651
2026-01-28 03:16:36.64	274.50	24.38	-35.4	-37.1	22.9	0.00e+00	0	43	0	2255486976	41	4603
2026-01-28 03:16:37.63	274.25	24.30	-35.5	-37.1	22.8	0.00e+00	0	43	0	2260729856	41	4647
2026-01-28 03:16:38.63	274.01	24.22	-35.5	-37.2	22.8	0.00e+00	0	43	0	2267021312	41	4670
2026-01-28 03:16:39.62	273.76	24.14	-35.3	-36.9	23.0	0.00e+00	0	43	0	2272264192	41	4538
2026-01-28 03:16:40.61	273.52	24.06	-35.2	-36.9	23.1	0.00e+00	0	43	0	2277507072	41	4501
2026-01-28 03:16:41.61	273.28	23.98	-35.3	-36.9	23.0	0.00e+00	0	43	0	2283798528	41	4510
2026-01-28 03:16:42.60	273.04	23.90	-35.2	-36.8	23.1	0.00e+00	0	43	0	2289041408	41	4471
2026-01-28 03:16:43.59	272.80	23.82	-35.2	-36.9	23.0	0.00e+00	0	43	0	2295332864	41	4503
2026-01-28 03:16:44.58	272.57	23.74	-35.4	-37.1	22.9	0.00e+00	0	43	0	2300575744	41	4611
2026-01-28 03:16:45.58	272.33	23.65	-35.5	-37.2	22.8	0.00e+00	0	43	0	2305818624	41	4669
2026-01-28 03:16:46.57	272.10	23.57	-35.5	-37.2	22.7	0.00e+00	0	43	0	2311061504	41	4678
2026-01-28 03:16:47.56	271.87	23.49	-35.6	-37.3	22.7	0.00e+00	0	43	0	2317352960	41	4718
2026-01-28 03:16:48.56	271.63	23.40	-35.5	-37.2	22.8	0.00e+00	0	43	0	2322595840	41	4655
2026-01-28 03:16:49.55	271.40	23.32	-35.3	-36.9	23.0	0.00e+00	0	43	0	2327838720	41	4506
2026-01-28 03:16:50.54	271.17	23.24	-35.3	-37.0	22.9	0.00e+00	0	43	0	2334130176	41	4558
2026-01-28 03:16:51.53	270.95	23.16	-35.5	-37.1	22.8	0.00e+00	0	43	0	2339373056	41	4637
2026-01-28 03:16:52.53	270.72	23.07	-35.6	-37.3	22.7	0.00e+00	0	43	0	2344615936	41	4723
2026-01-28 03:16:53.52	270.49	22.99	-35.6	-37.3	22.7	0.00e+00	0	43	0	2350907392	41	4727
2026-01-28 03:16:54.51	270.27	22.90	-35.5	-37.2	22.8	0.00e+00	0	43	0	2356150272	41	4656
2026-01-28 03:16:55.50	270.05	22.82	-35.6	-37.3	22.7	0.00e+00	0	43	0	2361393152	41	4730
2026-01-28 03:16:56.50	269.82	22.73	-35.7	-37.3	22.7	0.00e+00	0	43	0	2367684608	42	4484
2026-01-28 03:16:57.49	269.60	22.65	-35.7	-37.4	22.6	0.00e+00	0	43	0	2372927488	42	4502
2026-01-28 03:16:58.48	269.38	22.57	-35.8	-37.5	22.6	0.00e+00	0	43	0	2378170368	42	4548
2026-01-28 03:16:59.47	269.17	22.48	-35.7	-37.4	22.6	0.00e+00	0	43	0	2384461824	42	4504
2026-01-28 03:17:00.47	268.95	22.40	-35.8	-37.5	22.5	0.00e+00	0	43	0	2389704704	42	4547
2026-01-28 03:17:01.46	268.73	22.31	-35.9	-37.5	22.5	0.00e+00	0	43	0	2394947584	42	4593
2026-01-28 03:17:02.45	268.52	22.23	-35.8	-37.5	22.5	0.00e+00	0	43	0	2401239040	42	4556
2026-01-28 03:17:03.45	268.30	22.14	-35.9	-37.6	22.4	0.00e+00	0	43	0	2406481920	42	4602
2026-01-28 03:17:04.44	268.09	22.05	-36.0	-37.6	22.4	0.00e+00	0	43	0	2411724800	42	4645
2026-01-28 03:17:05.43	267.88	21.97	-36.1	-37.8	22.3	0.00e+00	0	43	0	2416967680	42	4724
2026-01-28 03:17:06.43	267.67	21.88	-36.1	-37.8	22.2	0.00e+00	0	43	0	2423259136	43	4473
2026-01-28 03:17:07.42	267.46	21.80	-36.1	-37.8	22.3	0.00e+00	0	43	0	2428502016	43	4444
2026-01-28 03:17:08.41	267.25	21.71	-36.2	-37.9	22.2	0.00e+00	0	43	0	2434793472	43	4506
2026-01-28 03:17:09.41	267.04	21.62	-36.1	-37.8	22.2	0.00e+00	0	43	0	2440036352	43	4468
2026-01-28 03:17:10.40	266.84	21.54	-36.1	-37.8	22.2	0.00e+00	0	43	0	2445279232	43	4468
2026-01-28 03:17:11.39	266.64	21.45	-36.2	-37.9	22.2	0.00e+00	0	43	0	2451570688	43	4501
2026-01-28 03:17:12.38	266.43	21.36	-36.2	-37.8	22.2	0.00e+00	0	43	0	2456813568	43	4487
2026-01-28 03:17:13.38	266.23	21.28	-36.1	-37.8	22.2	0.00e+00	0	43	0	2462056448	43	4481
2026-01-28 03:17:14.37	266.03	21.19	-36.1	-37.8	22.2	0.00e+00	0	43	0	2467299328	43	4460
2026-01-28 03:17:15.36	265.83	21.10	-36.1	-37.8	22.3	0.00e+00	0	43	0	2473590784	43	4443
2026-01-28 03:17:16.36	265.63	21.02	-36.2	-37.9	22.1	0.00e+00	0	43	0	2478833664	43	4502
2026-01-28 03:17:17.35	265.43	20.93	-36.2	-37.9	22.1	0.00e+00	0	43	0	2485125120	43	4543
2026-01-28 03:17:18.34	265.24	20.84	-36.2	-37.9	22.1	0.00e+00	0	43	0	2490368000	43	4511
2026-01-28 03:17:19.33	265.04	20.76	-36.2	-37.9	22.1	0.00e+00	0	43	0	2495610880	43	4542
2026-01-28 03:17:20.33	264.85	20.67	-36.1	-37.8	22.2	0.00e+00	0	43	0	2500853760	43	4472
2026-01-28 03:17:21.32	264.66	20.58	-36.1	-37.8	22.2	0.00e+00	0	43	0	2507145216	43	4464
2026-01-28 03:17:22.31	264.46	20.49	-36.1	-37.8	22.2	0.00e+00	0	43	0	2512388096	43	4456
2026-01-28 03:17:23.30	264.27	20.41	-36.2	-37.9	22.1	0.00e+00	0	43	0	2517630976	43	4504
2026-01-28 03:17:24.30	264.08	20.32	-36.2	-37.9	22.1	0.00e+00	0	43	0	2523922432	43	4517
2026-01-28 03:17:25.29	263.89	20.23	-36.2	-37.9	22.1	0.00e+00	0	43	0	2529165312	43	4519
2026-01-28 03:17:26.28	263.71	20.14	-36.2	-37.9	22.1	0.00e+00	0	43	0	2534408192	43	4525
2026-01-28 03:17:27.28	263.52	20.06	-36.3	-38.0	22.0	0.00e+00	0	43	0	2540699648	43	4548
2026-01-28 03:17:28.27	263.33	19.97	-36.3	-38.0	22.0	0.00e+00	0	43	0	2545942528	43	4553
2026-01-28 03:17:29.26	263.15	19.88	-36.4	-38.1	21.9	0.00e+00	0	43	0	2551185408	43	4622
2026-01-28 03:17:30.26	262.97	19.79	-36.4	-38.1	21.9	0.00e+00	0	43	0	2557476864	43	4622
2026-01-28 03:17:31.25	262.78	19.71	-36.4	-38.1	21.9	0.00e+00	0	43	0	2562719744	43	4641
2026-01-28 03:17:32.24	262.60	19.62	-36.3	-38.1	21.9	0.00e+00	0	43	0	2567962624	43	4602
2026-01-28 03:17:33.23	262.42	19.53	-36.3	-38.0	22.0	0.00e+00	0	43	0	2574254080	43	4549
2026-01-28 03:17:34.23	262.24	19.45	-36.2	-37.9	22.0	0.00e+00	0	43	0	2579496960	43	4537
2026-01-28 03:17:35.22	262.07	19.36	-36.1	-37.8	22.2	0.00e+00	0	43	0	2584739840	43	4446
2026-01-28 03:17:36.21	261.89	19.27	-36.0	-37.7	22.3	0.00e+00	0	43	0	2591031296	43	4426
2026-01-28 03:17:37.21	261.71	19.18	-36.1	-37.8	22.2	0.00e+00	0	43	0	2596274176	43	4464
2026-01-28 03:17:38.20	261.54	19.10	-36.2	-37.9	22.1	0.00e+00	0	43	0	2601517056	43	4508
2026-01-28 03:17:39.19	261.36	19.01	-36.2	-37.9	22.1	0.00e+00	0	43	0	2607808512	43	4509
2026-01-28 03:17:40.19	261.19	18.92	-36.3	-38.0	22.0	0.00e+00	0	43	0	2613051392	43	4546
2026-01-28 03:17:41.18	261.02	18.83	-36.4	-38.0	21.9	0.00e+00	0	43	0	2618294272	43	4598
2026-01-28 03:17:42.17	260.85	18.75	-36.5	-38.2	21.8	0.00e+00	0	43	0	2624585728	43	4673
2026-01-28 03:17:43.17	260.68	18.66	-36.5	-38.3	21.7	0.00e+00	0	43	0	2629828608	43	4712
2026-01-28 03:17:44.16	260.51	18.57	-36.4	-38.1	21.8	0.00e+00	0	43	0	2635071488	43	4635
2026-01-28 03:17:45.15	260.34	18.49	-36.5	-38.2	21.8	0.00e+00	0	43	0	2641362944	43	4661
2026-01-28 03:17:46.14	260.17	18.40	-36.6	-38.3	21.7	0.00e+00	0	43	0	2646605824	43	4756
2026-01-28 03:17:47.14	260.01	18.31	-36.6	-38.3	21.7	0.00e+00	0	43	0	2651848704	43	4711
2026-01-28 03:17:48.13	259.84	18.23	-36.9	-38.6	21.6	0.00e+00	0	43	0	2658140160	44	4619
2026-01-28 03:17:49.12	259.68	18.14	-36.8	-38.5	21.6	0.00e+00	0	43	0	2663383040	44	4570
2026-01-28 03:17:50.12	259.51	18.05	-36.9	-38.6	21.5	0.00e+00	0	43	0	2668625920	44	4636
2026-01-28 03:17:51.11	259.35	17.97	-37.0	-38.7	21.5	0.00e+00	0	43	0	2674917376	44	4655
2026-01-28 03:17:52.10	259.19	17.88	-37.0	-38.7	21.5	0.00e+00	0	43	0	2680160256	44	4676
2026-01-28 03:17:53.10	259.03	17.79	-37.0	-38.7	21.4	0.00e+00	0	43	0	2685403136	44	4702
2026-01-28 03:17:54.09	258.87	17.71	-37.1	-38.8	21.4	0.00e+00	0	43	0	2690646016	44	4737
2026-01-28 03:17:55.08	258.71	17.62	-37.1	-38.8	21.3	0.00e+00	0	43	0	2696937472	44	4747
2026-01-28 03:17:56.07	258.55	17.53	-37.2	-38.9	21.2	0.00e+00	0	43	0	2702180352	45	4531
2026-01-28 03:17:57.07	258.40	17.45	-37.1	-38.9	21.3	0.00e+00	0	43	0	2708471808	45	4510
2026-01-28 03:17:58.06	258.24	17.36	-37.2	-38.9	21.3	0.00e+00	0	43	0	2713714688	45	4521
2026-01-28 03:17:59.05	258.09	17.28	-37.2	-39.0	21.2	0.00e+00	0	43	0	2718957568	45	4568
2026-01-28 03:18:00.04	257.93	17.19	-37.1	-38.9	21.3	0.00e+00	0	43	0	2725249024	45	4503
2026-01-28 03:18:01.04	257.78	17.10	-37.1	-38.8	21.3	0.00e+00	0	43	0	2730491904	45	4482
2026-01-28 03:18:02.03	257.63	17.02	-37.1	-38.9	21.3	0.00e+00	0	43	0	2735734784	45	4501
2026-01-28 03:18:03.02	257.48	16.93	-37.1	-38.9	21.3	0.00e+00	0	43	0	2740977664	45	4502
2026-01-28 03:18:04.02	257.32	16.85	-37.3	-39.0	21.2	0.00e+00	0	43	0	2747269120	45	4577
2026-01-28 03:18:05.01	257.17	16.76	-37.2	-38.9	21.2	0.00e+00	0	43	0	2752512000	45	4527
2026-01-28 03:18:06.00	257.03	16.68	-37.2	-38.9	21.3	0.00e+00	0	43	0	2758803456	45	4514
2026-01-28 03:18:07.00	256.88	16.59	-37.2	-39.0	21.2	0.00e+00	0	43	0	2764046336	45	4554
2026-01-28 03:18:07.99	256.73	16.51	-37.3	-39.1	21.1	0.00e+00	0	43	0	2769289216	45	4615
2026-01-28 03:18:08.98	256.58	16.42	-37.2	-39.0	21.2	0.00e+00	0	43	0	2774532096	45	4569
2026-01-28 03:18:09.98	256.44	16.33	-37.3	-39.0	21.1	0.00e+00	0	43	0	2780823552	45	4592
2026-01-28 03:18:10.97	256.29	16.25	-37.3	-39.1	21.1	0.00e+00	0	43	0	2786066432	45	4603
2026-01-28 03:18:11.96	256.15	16.17	-37.5	-39.2	20.9	0.00e+00	0	43	0	2791309312	45	4700
2026-01-28 03:18:12.96	256.01	16.08	-37.5	-39.3	20.9	0.00e+00	0	43	0	2797600768	45	4716
2026-01-28 03:18:13.95	255.86	16.00	-37.4	-39.2	21.0	0.00e+00	0	43	0	2802843648	45	4657
2026-01-28 03:18:14.94	255.72	15.91	-37.6	-39.3	20.9	0.00e+00	0	43	0	2808086528	45	4740
2026-01-28 03:18:15.93	255.58	15.83	-37.6	-39.3	20.8	0.00e+00	0	43	0	2814377984	45	4734
2026-01-28 03:18:16.93	255.44	15.74	-37.5	-39.3	20.9	0.00e+00	0	43	0	2819620864	45	4723
2026-01-28 03:18:17.92	255.30	15.66	-37.6	-39.3	20.8	0.00e+00	0	43	0	2824863744	45	4758
2026-01-28 03:18:18.91	255.17	15.58	-37.7	-39.5	20.7	0.00e+00	0	43	0	2831155200	46	4557
2026-01-28 03:18:19.90	255.03	15.49	-37.6	-39.3	20.8	0.00e+00	0	43	0	2836398080	46	4478
2026-01-28 03:18:20.90	254.89	15.41	-37.6	-39.4	20.8	0.00e+00	0	43	0	2841640960	46	4494
2026-01-28 03:18:21.89	254.76	15.32	-37.6	-39.3	20.8	0.00e+00	0	43	0	2847932416	46	4488
2026-01-28 03:18:22.89	254.62	15.24	-37.7	-39.4	20.7	0.00e+00	0	43	0	2853175296	46	4543
2026-01-28 03:18:23.88	254.49	15.16	-37.7	-39.4	20.7	0.00e+00	0	43	0	2858418176	46	4539
2026-01-28 03:18:24.87	254.35	15.07	-37.6	-39.4	20.8	0.00e+00	0	43	0	2864709632	46	4506
2026-01-28 03:18:25.86	254.22	14.99	-37.6	-39.4	20.8	0.00e+00	0	43	0	2869952512	46	4508
2026-01-28 03:18:26.86	254.09	14.91	-37.7	-39.5	20.7	0.00e+00	0	43	0	2875195392	46	4569
2026-01-28 03:18:27.85	253.96	14.83	-37.8	-39.6	20.6	0.00e+00	0	43	0	2881486848	46	4603
2026-01-28 03:18:28.83	253.83	14.74	-37.7	-39.5	20.6	0.00e+00	0	43	0	2886729728	46	4581
2026-01-28 03:18:29.82	253.70	14.66	-37.8	-39.6	20.5	0.00e+00	0	43	0	2891972608	46	4643
2026-01-28 03:18:30.81	253.57	14.58	-37.9	-39.7	20.5	0.00e+00	0	43	0	2898264064	46	4652
2026-01-28 03:18:31.81	253.44	14.50	-37.9	-39.7	20.4	0.00e+00	0	43	0	2903506944	46	4699
2026-01-28 03:18:32.80	253.31	14.42	-38.1	-39.9	20.3	0.00e+00	0	43	0	2908749824	46	4781
2026-01-28 03:18:33.79	253.18	14.33	-38.1	-39.9	20.3	0.00e+00	0	43	0	2915041280	46	4764
2026-01-28 03:18:34.79	253.06	14.25	-38.0	-39.8	20.3	0.00e+00	0	43	0	2920284160	46	4737
2026-01-28 03:18:35.78	252.93	14.17	-38.1	-39.9	20.3	0.00e+00	0	43	0	2925527040	46	4770
2026-01-28 03:18:36.77	252.81	14.09	-38.0	-39.8	20.4	0.00e+00	0	43	0	2930769920	46	4712
2026-01-28 03:18:37.76	252.68	14.01	-38.1	-39.8	20.3	0.00e+00	0	43	0	2937061376	46	4758
2026-01-28 03:18:38.76	252.56	13.92	-38.0	-39.8	20.4	0.00e+00	0	43	0	2942304256	46	4724
2026-01-28 03:18:39.75	252.44	13.84	-38.0	-39.8	20.3	0.00e+00	0	43	0	2948595712	46	4735
2026-01-28 03:18:40.74	252.32	13.76	-38.0	-39.8	20.4	0.00e+00	0	43	0	2953838592	46	4712
2026-01-28 03:18:41.73	252.19	13.68	-38.0	-39.8	20.3	0.00e+00	0	43	0	2959081472	46	4750
2026-01-28 03:18:42.73	252.07	13.60	-38.0	-39.8	20.3	0.00e+00	0	43	0	2965372928	46	4740
2026-01-28 03:18:43.72	251.95	13.52	-38.0	-39.8	20.4	0.00e+00	0	43	0	2970615808	46	4711
2026-01-28 03:18:44.71	251.83	13.44	-38.0	-39.8	20.3	0.00e+00	0	43	0	2975858688	46	4739
2026-01-28 03:18:45.71	251.71	13.36	-38.0	-39.8	20.3	0.00e+00	0	43	0	2981101568	46	4734
2026-01-28 03:18:46.70	251.60	13.28	-38.1	-39.9	20.3	0.00e+00	0	43	0	2987393024	46	4770
2026-01-28 03:18:47.69	251.48	13.20	-38.0	-39.8	20.3	0.00e+00	0	43	0	2992635904	46	4738
2026-01-28 03:18:48.68	251.36	13.12	-38.1	-39.9	20.2	0.00e+00	0	43	0	2998927360	46	4803
2026-01-28 03:18:49.68	251.25	13.04	-38.0	-39.8	20.3	0.00e+00	0	43	0	3004170240	46	4720
2026-01-28 03:18:50.67	251.13	12.96	-38.0	-39.7	20.4	0.00e+00	0	43	0	3009413120	46	4702
2026-01-28 03:18:51.66	251.02	12.88	-38.0	-39.8	20.3	0.00e+00	0	43	0	3014656000	46	4729
2026-01-28 03:18:52.66	250.90	12.80	-38.1	-39.9	20.2	0.00e+00	0	43	0	3020947456	46	4785
2026-01-28 03:18:53.65	250.79	12.72	-38.2	-40.0	20.1	0.00e+00	0	43	0	3026190336	46	4842
2026-01-28 03:18:54.64	250.67	12.64	-38.2	-40.0	20.1	0.00e+00	0	43	0	3032481792	47	4586
2026-01-28 03:18:55.63	250.56	12.57	-38.2	-40.1	20.0	0.00e+00	0	43	0	3037724672	47	4620
2026-01-28 03:18:56.63	250.45	12.49	-38.4	-40.2	19.9	0.00e+00	0	43	0	3042967552	47	4705
2026-01-28 03:18:57.62	250.34	12.41	-38.4	-40.3	19.8	0.00e+00	0	43	0	3048210432	47	4722
2026-01-28 03:18:58.61	250.23	12.33	-38.4	-40.3	19.8	0.00e+00	0	43	0	3054501888	47	4719
2026-01-28 03:18:59.61	250.12	12.25	-38.4	-40.3	19.8	0.00e+00	0	43	0	3059744768	47	4733
2026-01-28 03:19:00.60	250.01	12.17	-38.5	-40.4	19.7	0.00e+00	0	43	0	3064987648	47	4786
2026-01-28 03:19:01.59	249.90	12.09	-38.6	-40.4	19.7	0.00e+00	0	43	0	3071279104	47	4794
2026-01-28 03:19:02.59	249.79	12.02	-38.6	-40.4	19.7	0.00e+00	0	43	0	3076521984	47	4790
2026-01-28 03:19:03.58	249.68	11.94	-38.5	-40.3	19.8	0.00e+00	0	43	0	3082813440	47	4749
2026-01-28 03:19:04.57	249.58	11.86	-38.5	-40.3	19.8	0.00e+00	0	43	0	3088056320	47	4724
2026-01-28 03:19:05.57	249.47	11.78	-38.5	-40.4	19.7	0.00e+00	0	43	0	3093299200	47	4772
2026-01-28 03:19:06.56	249.36	11.71	-38.6	-40.4	19.7	0.00e+00	0	43	0	3098542080	47	4795
2026-01-28 03:19:07.55	249.26	11.63	-38.6	-40.5	19.6	0.00e+00	0	43	0	3104833536	47	4838
2026-01-28 03:19:08.54	249.15	11.55	-38.6	-40.4	19.6	0.00e+00	0	43	0	3110076416	47	4811
2026-01-28 03:19:09.54	249.05	11.48	-38.8	-40.6	19.7	0.00e+00	0	43	0	3115319296	48	4635
2026-01-28 03:19:10.53	248.95	11.40	-38.8	-40.7	19.6	0.00e+00	0	43	0	3121610752	48	4665
2026-01-28 03:19:11.52	248.84	11.32	-38.8	-40.7	19.6	0.00e+00	0	43	0	3126853632	48	4677
2026-01-28 03:19:12.51	248.74	11.25	-38.8	-40.6	19.7	0.00e+00	0	43	0	3132096512	48	4649
2026-01-28 03:19:13.51	248.64	11.17	-38.7	-40.6	19.7	0.00e+00	0	43	0	3138387968	48	4617
2026-01-28 03:19:14.50	248.54	11.09	-38.8	-40.6	19.7	0.00e+00	0	43	0	3143630848	48	4642
2026-01-28 03:19:15.49	248.44	11.02	-38.8	-40.7	19.6	0.00e+00	0	43	0	3148873728	48	4659
2026-01-28 03:19:16.48	248.34	10.94	-38.7	-40.6	19.7	0.00e+00	0	43	0	3155165184	48	4614
2026-01-28 03:19:17.48	248.24	10.87	-38.8	-40.6	19.7	0.00e+00	0	43	0	3160408064	48	4615
2026-01-28 03:19:18.47	248.14	10.79	-38.8	-40.6	19.6	0.00e+00	0	43	0	3165650944	48	4650
2026-01-28 03:19:19.46	248.04	10.72	-38.9	-40.8	19.5	0.00e+00	0	43	0	3171942400	48	4708
2026-01-28 03:19:20.46	247.94	10.64	-38.9	-40.7	19.5	0.00e+00	0	43	0	3177185280	48	4701
2026-01-28 03:19:21.45	247.84	10.57	-39.0	-40.8	19.5	0.00e+00	0	43	0	3182428160	48	4750
2026-01-28 03:19:22.44	247.74	10.49	-39.1	-40.9	19.3	0.00e+00	0	43	0	3188719616	48	4810
2026-01-28 03:19:23.43	247.65	10.42	-39.1	-41.0	19.3	0.00e+00	0	43	0	3193962496	48	4816
2026-01-28 03:19:24.43	247.55	10.34	-39.2	-41.1	19.2	0.00e+00	0	43	0	3199205376	48	4890
2026-01-28 03:19:25.42	247.45	10.27	-39.1	-41.0	19.3	0.00e+00	0	43	0	3204448256	48	4851
2026-01-28 03:19:26.41	247.36	10.19	-39.2	-41.1	19.2	0.00e+00	0	43	0	3210739712	49	4621
2026-01-28 03:19:27.41	247.26	10.12	-39.2	-41.1	19.2	0.00e+00	0	43	0	3215982592	49	4634
2026-01-28 03:19:28.40	247.17	10.04	-39.2	-41.1	19.2	0.00e+00	0	43	0	3222274048	49	4613
2026-01-28 03:19:29.39	247.08	9.97	-39.2	-41.1	19.2	0.00e+00	0	43	0	3227516928	49	4628
2026-01-28 03:19:30.39	246.98	9.90	-39.2	-41.2	19.1	0.00e+00	0	43	0	3232759808	49	4655
2026-01-28 03:19:31.38	246.89	9.82	-39.2	-41.1	19.2	0.00e+00	0	43	0	3239051264	49	4611
2026-01-28 03:19:32.37	246.80	9.75	-39.2	-41.2	19.1	0.00e+00	0	43	0	3244294144	49	4653
2026-01-28 03:19:33.36	246.71	9.68	-39.2	-41.1	19.1	0.00e+00	0	43	0	3249537024	49	4646
2026-01-28 03:19:34.36	246.61	9.60	-39.2	-41.2	19.1	0.00e+00	0	43	0	3254779904	49	4657
2026-01-28 03:19:35.35	246.52	9.53	-39.2	-41.1	19.1	0.00e+00	0	43	0	3261071360	49	4628
2026-01-28 03:19:36.34	246.43	9.46	-39.2	-41.1	19.1	0.00e+00	0	43	0	3266314240	49	4627
2026-01-28 03:19:37.33	246.34	9.39	-39.3	-41.2	19.0	0.00e+00	0	43	0	3272605696	49	4679
2026-01-28 03:19:38.33	246.25	9.31	-39.3	-41.2	19.0	0.00e+00	0	43	0	3277848576	49	4652
2026-01-28 03:19:39.32	246.16	9.24	-39.2	-41.1	19.1	0.00e+00	0	43	0	3283091456	49	4644
2026-01-28 03:19:40.31	246.08	9.17	-39.3	-41.2	19.0	0.00e+00	0	43	0	3288334336	49	4658
2026-01-28 03:19:41.31	245.99	9.10	-39.4	-41.3	18.9	0.00e+00	0	43	0	3294625792	49	4749
2026-01-28 03:19:42.30	245.90	9.02	-39.4	-41.4	18.9	0.00e+00	0	43	0	3299868672	49	4761
2026-01-28 03:19:43.29	245.81	8.95	-49.0	-60.9	3.8	7.00e-01	0	43	104	3303014400	68	15178
2026-01-28 03:19:44.28	245.73	8.88	-49.2	-61.2	3.8	8.47e-01	0	43	104	3303014400	69	14807
2026-01-28 03:19:45.28	245.64	8.81	-49.4	-61.6	3.8	8.48e-01	0	43	104	3303014400	69	15455
2026-01-28 03:19:46.27	245.55	8.74	-49.4	-61.7	3.8	8.46e-01	0	43	104	3303014400	69	15728
2026-01-28 03:19:47.26	245.47	8.67	-49.3	-61.7	3.8	8.47e-01	0	43	104	3303014400	69	15706
2026-01-28 03:19:48.26	245.38	8.59	-49.3	-61.7	3.8	8.46e-01	0	43	104	3303014400	69	15623
2026-01-28 03:19:49.25	245.30	8.52	-49.4	-61.7	3.8	8.47e-01	0	43	104	3303014400	69	15668
2026-01-28 03:19:50.24	245.21	8.45	-49.2	-61.7	3.8	8.45e-01	0	43	104	3303014400	69	15660
2026-01-28 03:19:51.24	245.13	8.38	-49.5	-61.7	3.8	8.46e-01	0	43	104	3303014400	69	15744
2026-01-28 03:19:52.23	245.05	8.31	-49.4	-61.7	3.8	8.46e-01	0	43	104	3303014400	69	15591
2026-01-28 03:19:53.22	244.96	8.24	-49.4	-61.7	3.8	8.47e-01	0	43	104	3303014400	69	15666
2026-01-28 03:19:54.21	244.88	8.17	-49.5	-61.7	3.8	8.47e-01	0	43	104	3303014400	69	15639
2026-01-28 03:19:55.21	244.80	8.10	-49.5	-61.7	3.8	8.48e-01	0	43	104	3303014400	69	15597
2026-01-28 03:19:56.20	244.72	8.03	-49.5	-61.7	3.8	8.47e-01	0	43	104	3303014400	69	15610
2026-01-28 03:19:57.19	244.63	7.96	-49.5	-61.6	3.8	8.47e-01	0	43	104	3303014400	69	15506
2026-01-28 03:19:58.19	244.55	7.89	-49.3	-61.6	3.8	8.47e-01	0	43	104	3303014400	69	15533
2026-01-28 03:19:59.18	244.47	7.82	-49.3	-61.6	3.8	8.47e-01	0	43	104	3303014400	69	15478
2026-01-28 03:20:00.17	244.39	7.75	-49.3	-61.6	3.8	8.47e-01	0	43	104	3303014400	69	15473
2026-01-28 03:20:01.16	244.31	7.68	-49.3	-61.6	3.8	8.47e-01	0	43	104	3303014400	69	15436
2026-01-28 03:20:02.16	244.23	7.61	-49.3	-61.6	3.8	8.47e-01	0	43	104	3303014400	69	15479
2026-01-28 03:20:03.15	244.15	7.54	-49.3	-61.6	3.8	8.47e-01	0	43	104	3303014400	69	15441
2026-01-28 03:20:04.14	244.07	7.48	-49.3	-61.6	3.8	8.47e-01	0	43	104	3303014400	69	15409
2026-01-28 03:20:05.14	244.00	7.41	-49.3	-61.6	3.8	8.47e-01	0	43	104	3303014400	69	15430
2026-01-28 03:20:06.13	243.92	7.34	-49.3	-61.6	3.8	8.47e-01	0	43	104	3303014400	69	15429
2026-01-28 03:20:07.12	243.84	7.27	-49.3	-61.6	3.8	8.47e-01	0	43	104	3303014400	69	15405
2026-01-28 03:20:08.11	243.76	7.20	-49.3	-61.6	3.8	8.47e-01	0	43	104	3303014400	69	15419
2026-01-28 03:20:09.11	243.69	7.13	-49.3	-61.5	3.8	8.46e-01	0	43	104	3303014400	69	15378
2026-01-28 03:20:10.10	243.61	7.06	-49.3	-61.5	3.8	8.46e-01	0	43	104	3303014400	69	15389
2026-01-28 03:20:11.09	243.53	7.00	-49.3	-61.6	3.8	8.47e-01	0	43	104	3303014400	69	15425
2026-01-28 03:20:12.09	243.46	6.93	-49.3	-61.6	3.8	8.47e-01	0	43	104	3303014400	69	15459
2026-01-28 03:20:13.08	243.38	6.86	-49.3	-61.6	3.8	8.47e-01	0	43	104	3303014400	69	15422
2026-01-28 03:20:14.07	243.31	6.79	-49.3	-61.6	3.8	8.46e-01	0	43	104	3303014400	69	15436
2026-01-28 03:20:15.06	243.23	6.73	-49.3	-61.6	3.8	8.46e-01	0	43	104	3303014400	69	15443
2026-01-28 03:20:16.06	243.16	6.66	-49.3	-61.6	3.8	8.47e-01	0	43	104	3303014400	69	15439
2026-01-28 03:20:17.05	243.09	6.59	-49.3	-61.6	3.8	8.46e-01	0	43	104	3303014400	69	15420
2026-01-28 03:20:18.04	243.01	6.52	-49.3	-61.5	3.8	8.47e-01	0	43	104	3303014400	69	15377
2026-01-28 03:20:19.04	242.94	6.46	-49.3	-61.6	3.8	8.47e-01	0	43	104	3303014400	69	15435
2026-01-28 03:20:20.03	242.87	6.39	-49.3	-61.6	3.8	8.48e-01	0	43	104	3303014400	69	15462
2026-01-28 03:20:21.02	242.79	6.32	-49.3	-61.6	3.8	8.48e-01	0	43	104	3303014400	69	15515
2026-01-28 03:20:22.01	242.72	6.26	-49.3	-61.6	3.8	8.47e-01	0	43	104	3303014400	69	15446
2026-01-28 03:20:23.01	242.65	6.19	-49.3	-61.5	3.8	8.47e-01	0	43	104	3303014400	69	15397
2026-01-28 03:20:24.00	242.58	6.13	-49.3	-61.5	3.8	8.46e-01	0	43	104	3303014400	69	15367
2026-01-28 03:20:24.99	242.51	6.06	-49.3	-61.6	3.8	8.47e-01	0	43	104	3303014400	69	15409
2026-01-28 03:20:25.99	242.43	5.99	-49.3	-61.6	3.8	8.47e-01	0	43	104	3303014400	69	15446
2026-01-28 03:20:26.98	242.36	5.93	-49.3	-61.6	3.8	8.46e-01	0	43	104	3303014400	69	15403
2026-01-28 03:20:27.97	242.29	5.86	-49.3	-61.6	3.8	8.48e-01	0	43	104	3303014400	69	15404
