passes_logs/2026/01/28/T1/T1__20260128_023120_AQUA_rec.log

#Pass ID: 20260128_023120_AQUA
#Satellite: AQUA
#Configuration: AQUA
#almurnet v.1.7.20251203
#Start time: 2026-01-28 02:31:22

#Version: 2.0.20230620
#Station: T1
#Location: 37.570604 lon 55.790049 lat
#TLE: 1 27424U 02022A   26027.49103455  .00001862  00000+0  38220-3 0  9997
#TLE: 2 27424  98.4102 354.1298 0001846  63.8060  46.9979 14.61867034262711

#Time	Az	El	Level	Level2	SNR	BER	BlckErr	Temp	State	Recorded	gain1	gain2
2026-01-28 02:31:22.71	6.31	5.13	-51.7	-71.8	3.8	7.46e-01	0	38	0	0	74	37553
2026-01-28 02:31:23.70	6.24	5.20	-51.9	-71.9	3.8	7.45e-01	0	38	104	0	74	37879
2026-01-28 02:31:24.69	6.17	5.27	-51.9	-71.9	3.8	7.46e-01	0	38	104	0	74	37862
2026-01-28 02:31:25.68	6.10	5.34	-51.8	-71.9	3.8	7.46e-01	0	38	104	0	74	37814
2026-01-28 02:31:26.68	6.03	5.41	-51.4	-71.8	3.8	7.48e-01	0	38	104	0	74	37672
2026-01-28 02:31:27.67	5.96	5.48	-51.6	-71.8	3.8	7.46e-01	0	38	104	0	74	37724
2026-01-28 02:31:28.66	5.89	5.54	-51.7	-71.8	3.8	7.46e-01	0	38	104	0	74	37696
2026-01-28 02:31:29.66	5.82	5.61	-51.3	-71.8	3.8	7.45e-01	0	38	104	0	74	37575
2026-01-28 02:31:30.65	5.75	5.68	-51.1	-71.8	3.8	7.44e-01	0	38	104	0	74	37655
2026-01-28 02:31:31.64	5.68	5.75	-51.1	-71.8	3.8	7.44e-01	0	38	104	0	73	39718
2026-01-28 02:31:32.64	5.60	5.82	-51.6	-71.8	3.8	7.42e-01	0	38	104	0	73	39678
2026-01-28 02:31:33.63	5.53	5.89	-51.2	-71.8	3.8	7.43e-01	0	38	104	0	74	37420
2026-01-28 02:31:34.62	5.46	5.96	-50.6	-71.7	3.8	7.45e-01	0	39	104	0	73	39475
2026-01-28 02:31:35.61	5.38	6.03	-51.1	-71.7	3.8	7.46e-01	0	38	104	0	73	39433
2026-01-28 02:31:36.61	5.31	6.10	-50.2	-71.7	3.7	7.47e-01	0	39	104	0	72	41541
2026-01-28 02:31:37.60	5.23	6.17	-50.1	-71.7	3.8	7.47e-01	0	39	104	0	71	44281
2026-01-28 02:31:38.59	5.16	6.24	-50.1	-71.7	3.8	7.45e-01	0	39	104	0	72	41549
2026-01-28 02:31:39.59	5.08	6.31	-50.0	-71.6	3.8	7.47e-01	0	39	104	0	72	41343
2026-01-28 02:31:40.58	5.01	6.39	-49.9	-71.6	3.7	7.45e-01	0	39	104	0	71	43733
2026-01-28 02:31:41.57	4.93	6.46	-49.8	-71.6	3.8	7.46e-01	0	39	104	0	70	46227
2026-01-28 02:31:42.57	4.85	6.53	-49.9	-71.5	3.8	7.45e-01	0	39	104	0	70	45877
2026-01-28 02:31:43.56	4.78	6.60	-49.6	-71.5	3.8	7.46e-01	0	39	104	0	70	45560
2026-01-28 02:31:44.55	4.70	6.67	-50.0	-71.1	3.8	7.47e-01	0	39	104	0	70	43808
2026-01-28 02:31:45.55	4.62	6.74	-48.4	-70.8	3.8	7.46e-01	0	39	104	0	68	47130
2026-01-28 02:31:46.54	4.54	6.81	-50.7	-71.1	3.8	7.49e-01	0	39	104	0	72	38714
2026-01-28 02:31:47.53	4.46	6.89	-50.6	-71.0	3.8	7.48e-01	0	39	104	0	72	38568
2026-01-28 02:31:48.53	4.38	6.96	-50.6	-71.0	3.8	7.47e-01	0	39	104	0	72	38376
2026-01-28 02:31:49.52	4.30	7.03	-50.6	-71.0	3.8	7.47e-01	0	39	104	0	72	38290
2026-01-28 02:31:50.51	4.22	7.10	-50.6	-70.9	3.8	7.46e-01	0	39	104	0	72	38072
2026-01-28 02:31:51.50	4.14	7.18	-50.6	-70.8	3.8	7.44e-01	0	39	104	0	72	37583
2026-01-28 02:31:52.50	4.06	7.25	-50.6	-70.5	3.8	7.45e-01	0	39	104	0	72	36112
2026-01-28 02:31:53.49	3.98	7.32	-50.6	-69.7	3.9	7.42e-01	0	39	104	0	72	33116
2026-01-28 02:31:54.48	3.90	7.40	-50.6	-68.4	4.1	7.37e-01	0	39	104	0	72	28402
2026-01-28 02:31:55.48	3.82	7.47	-50.5	-67.1	4.4	7.30e-01	0	39	104	0	72	24562
2026-01-28 02:31:56.47	3.73	7.54	-50.5	-66.0	4.8	7.17e-01	0	39	104	0	72	21603
2026-01-28 02:31:57.46	3.65	7.62	-50.4	-65.1	5.2	7.01e-01	0	39	0	0	72	19604
2026-01-28 02:31:58.45	3.57	7.69	-50.4	-64.6	5.6	6.97e-01	0	39	0	524288	72	18376
2026-01-28 02:31:59.45	3.48	7.77	-50.4	-64.2	5.9	6.86e-01	0	39	0	2097152	72	17560
2026-01-28 02:32:00.44	3.40	7.84	-50.4	-64.2	5.9	6.87e-01	0	40	0	3670016	72	17496
2026-01-28 02:32:01.43	3.31	7.92	-50.4	-64.2	5.9	6.86e-01	0	39	0	5242880	72	17506
2026-01-28 02:32:02.42	3.23	7.99	-50.4	-64.1	6.0	6.88e-01	0	39	0	6815744	72	17385
2026-01-28 02:32:03.42	3.14	8.07	-50.3	-63.9	6.1	6.82e-01	0	40	0	8912896	72	16891
2026-01-28 02:32:04.41	3.05	8.14	-50.3	-63.2	6.7	6.71e-01	0	40	0	10485760	72	15619
2026-01-28 02:32:05.40	2.96	8.22	-50.2	-62.1	7.7	6.50e-01	0	40	0	12582912	72	13779
2026-01-28 02:32:06.40	2.88	8.29	-50.0	-60.5	9.3	6.26e-01	0	40	0	14155776	72	11427
2026-01-28 02:32:07.39	2.79	8.37	-49.8	-58.8	11.0	6.11e-01	0	39	0	16252928	71	10031
2026-01-28 02:32:08.38	2.70	8.44	-49.3	-56.7	13.2	6.02e-01	0	40	0	17825792	70	8355
2026-01-28 02:32:09.38	2.61	8.52	-48.7	-54.9	15.0	6.00e-01	0	40	0	19922944	69	7144
2026-01-28 02:32:10.37	2.52	8.60	-48.1	-53.2	16.7	6.03e-01	0	39	0	21495808	68	6255
2026-01-28 02:32:11.36	2.43	8.67	-47.5	-52.3	17.5	6.01e-01	0	40	0	23592960	67	5938
2026-01-28 02:32:12.35	2.34	8.75	-47.1	-51.5	18.3	6.01e-01	0	40	0	25165824	66	5758
2026-01-28 02:32:13.35	2.25	8.83	-46.9	-51.1	18.8	6.01e-01	0	39	0	27262976	65	5809
2026-01-28 02:32:14.34	2.15	8.90	-47.0	-51.2	18.6	6.01e-01	0	40	0	29360128	65	5869
2026-01-28 02:32:15.33	2.06	8.98	-47.2	-51.5	18.2	6.02e-01	0	40	0	30932992	65	6127
2026-01-28 02:32:16.33	1.97	9.06	-47.8	-52.7	17.1	6.04e-01	0	40	0	33030144	66	6618
2026-01-28 02:32:17.32	1.87	9.14	-49.1	-57.1	13.0	6.06e-01	0	40	0	34603008	68	9756
2026-01-28 02:32:18.31	1.78	9.21	-49.0	-56.4	12.6	6.07e-01	0	40	0	36700160	69	8513
2026-01-28 02:32:19.31	1.68	9.29	-44.0	-47.5	22.0	6.02e-01	0	40	0	38273024	60	5125
2026-01-28 02:32:20.30	1.59	9.37	-43.6	-46.8	22.9	6.03e-01	0	40	0	40370176	59	5012
2026-01-28 02:32:21.29	1.49	9.45	-46.9	-53.0	16.4	6.00e-01	0	40	0	41943040	65	7207
2026-01-28 02:32:22.28	1.40	9.53	-43.6	-46.8	21.8	6.01e-01	0	40	0	44040192	59	4991
2026-01-28 02:32:23.28	1.30	9.61	-43.7	-47.0	22.6	6.00e-01	0	40	0	46137344	59	5114
2026-01-28 02:32:24.27	1.20	9.69	-43.5	-46.8	22.8	6.03e-01	0	40	0	47710208	58	5310
2026-01-28 02:32:25.26	1.10	9.77	-43.4	-46.7	22.9	6.03e-01	0	40	0	49807360	58	5246
2026-01-28 02:32:26.26	1.00	9.85	-43.5	-46.7	22.9	6.01e-01	0	40	0	51380224	58	5269
2026-01-28 02:32:27.25	0.90	9.93	-43.5	-46.6	23.0	6.05e-01	0	40	0	53477376	58	5171
2026-01-28 02:32:28.24	0.80	10.01	-43.5	-46.6	23.0	6.04e-01	0	40	0	55050240	58	5194
2026-01-28 02:32:29.23	0.70	10.09	-43.5	-46.6	23.0	6.04e-01	0	40	0	57147392	58	5186
2026-01-28 02:32:30.23	0.60	10.17	-43.5	-46.6	23.1	6.01e-01	0	40	0	58720256	58	5192
2026-01-28 02:32:31.22	0.50	10.25	-43.4	-46.5	23.3	6.01e-01	0	40	0	60817408	58	5101
2026-01-28 02:32:32.21	0.39	10.33	-43.6	-46.5	23.3	6.01e-01	0	40	0	62914560	58	5144
2026-01-28 02:32:33.21	0.29	10.41	-43.6	-46.5	23.4	6.04e-01	0	40	0	64487424	58	5110
2026-01-28 02:32:34.20	0.19	10.49	-43.4	-46.3	23.6	6.06e-01	0	40	0	66584576	58	5017
2026-01-28 02:32:35.19	0.08	10.57	-43.5	-46.4	23.6	6.02e-01	0	40	0	68157440	58	5054
2026-01-28 02:32:36.19	359.97	10.65	-43.4	-46.3	23.7	6.02e-01	0	40	0	70254592	58	5001
2026-01-28 02:32:37.18	359.87	10.74	-43.3	-46.2	23.7	6.05e-01	0	40	0	71827456	58	4974
2026-01-28 02:32:38.17	359.76	10.82	-43.4	-46.2	23.7	6.01e-01	0	40	0	73924608	58	4963
2026-01-28 02:32:39.16	359.66	10.90	-43.4	-46.2	23.7	6.00e-01	0	40	0	75497472	58	4972
2026-01-28 02:32:40.16	359.55	10.98	-43.3	-46.1	23.7	6.04e-01	0	40	0	77594624	58	4915
2026-01-28 02:32:41.15	359.44	11.07	-43.3	-46.2	23.7	6.02e-01	0	40	0	79167488	58	4932
2026-01-28 02:32:42.14	359.33	11.15	-43.4	-46.3	23.6	6.00e-01	0	40	0	81264640	58	4987
2026-01-28 02:32:43.14	359.22	11.23	-43.6	-46.4	23.5	6.02e-01	0	40	0	83361792	58	5062
2026-01-28 02:32:44.13	359.11	11.31	-43.4	-46.2	23.7	6.02e-01	0	40	0	84934656	58	4932
2026-01-28 02:32:45.12	359.00	11.40	-43.3	-46.2	23.7	6.01e-01	0	40	0	87031808	58	4941
2026-01-28 02:32:46.11	358.88	11.48	-43.3	-46.1	23.8	6.02e-01	0	40	0	88604672	58	4887
2026-01-28 02:32:47.11	358.77	11.57	-43.4	-46.1	23.8	6.04e-01	0	40	0	90701824	58	4924
2026-01-28 02:32:48.10	358.66	11.65	-43.3	-46.0	23.9	6.00e-01	0	40	0	92274688	58	4845
2026-01-28 02:32:49.09	358.54	11.73	-43.4	-46.1	23.9	6.04e-01	0	40	0	94371840	58	4879
2026-01-28 02:32:50.09	358.43	11.82	-43.5	-46.2	23.9	6.01e-01	0	40	0	95944704	58	4934
2026-01-28 02:32:51.08	358.31	11.90	-43.5	-46.2	23.9	6.00e-01	0	40	0	98041856	58	4932
2026-01-28 02:32:52.07	358.19	11.99	-43.4	-46.0	23.9	6.03e-01	0	40	0	100139008	58	4863
2026-01-28 02:32:53.06	358.08	12.07	-43.5	-46.1	23.8	6.03e-01	0	40	0	101711872	58	4903
2026-01-28 02:32:54.06	357.96	12.16	-43.5	-46.1	23.8	6.02e-01	0	40	0	103809024	58	4882
2026-01-28 02:32:55.05	357.84	12.25	-43.4	-46.0	23.9	6.04e-01	0	40	0	105381888	58	4852
2026-01-28 02:32:56.04	357.72	12.33	-43.4	-46.0	24.0	6.02e-01	0	40	0	107479040	58	4827
2026-01-28 02:32:57.03	357.60	12.42	-43.5	-46.0	23.9	6.03e-01	0	40	0	109051904	58	4868
2026-01-28 02:32:58.03	357.48	12.50	-43.4	-46.0	24.0	6.03e-01	0	40	0	111149056	58	4834
2026-01-28 02:32:59.02	357.35	12.59	-43.4	-46.0	24.0	6.04e-01	0	40	0	112721920	58	4855
2026-01-28 02:33:00.01	357.23	12.68	-43.4	-46.0	24.0	6.03e-01	0	40	0	114819072	58	4828
2026-01-28 02:33:01.01	357.11	12.77	-43.3	-45.9	24.1	6.00e-01	0	40	0	116391936	58	4796
2026-01-28 02:33:02.00	356.98	12.85	-43.3	-45.9	24.1	6.00e-01	0	40	0	118489088	58	4792
2026-01-28 02:33:02.99	356.86	12.94	-43.2	-45.8	24.2	6.04e-01	0	40	0	120586240	58	4724
2026-01-28 02:33:03.99	356.73	13.03	-43.1	-45.7	24.2	6.02e-01	0	40	0	122159104	58	4699
2026-01-28 02:33:04.98	356.60	13.12	-43.2	-45.8	24.2	6.04e-01	0	40	0	124256256	58	4736
2026-01-28 02:33:05.97	356.48	13.20	-43.0	-45.7	24.3	6.00e-01	0	40	0	125829120	58	4667
2026-01-28 02:33:06.96	356.35	13.29	-43.1	-45.8	24.3	6.01e-01	0	40	0	127926272	58	4713
2026-01-28 02:33:07.96	356.22	13.38	-43.1	-45.7	24.2	6.01e-01	0	40	0	129499136	58	4703
2026-01-28 02:33:08.95	356.09	13.47	-43.0	-45.7	24.3	6.01e-01	0	40	0	131596288	58	4663
2026-01-28 02:33:09.94	355.96	13.56	-43.0	-45.7	23.4	6.01e-01	0	40	0	133169152	58	4672
2026-01-28 02:33:10.93	355.83	13.65	-43.0	-45.6	24.2	6.01e-01	0	40	0	135266304	58	4649
2026-01-28 02:33:11.93	355.69	13.74	-43.0	-45.6	24.2	6.03e-01	0	40	0	137363456	57	4919
2026-01-28 02:33:12.92	355.56	13.83	-43.1	-45.7	24.2	6.00e-01	0	40	0	138936320	57	4936
2026-01-28 02:33:13.91	355.42	13.92	-43.1	-45.6	24.3	5.99e-01	0	41	0	141033472	57	4907
2026-01-28 02:33:14.91	355.29	14.01	-43.0	-45.5	24.3	6.01e-01	0	40	0	142606336	57	4866
2026-01-28 02:33:15.90	355.15	14.10	-43.1	-45.6	24.3	6.03e-01	0	40	0	144703488	57	4872
2026-01-28 02:33:16.89	355.01	14.19	-43.1	-45.6	24.2	6.03e-01	0	40	0	146276352	57	4885
2026-01-28 02:33:17.88	354.88	14.28	-43.0	-45.5	24.2	6.02e-01	0	40	0	148373504	57	4861
2026-01-28 02:33:18.88	354.73	14.37	-43.0	-45.7	24.2	6.04e-01	0	40	0	149946368	57	4932
2026-01-28 02:33:19.87	354.60	14.46	-42.8	-45.5	24.3	6.01e-01	0	40	0	152043520	57	4853
2026-01-28 02:33:20.86	354.45	14.55	-42.9	-45.6	24.2	6.02e-01	0	40	0	154140672	57	4911
2026-01-28 02:33:21.86	354.31	14.64	-42.7	-45.6	24.2	6.02e-01	0	40	0	155713536	57	4893
2026-01-28 02:33:22.85	354.17	14.74	-42.7	-45.6	24.3	6.01e-01	0	41	0	157810688	57	4873
2026-01-28 02:33:23.84	354.02	14.83	-42.7	-45.6	24.3	6.01e-01	0	40	0	159383552	57	4890
2026-01-28 02:33:24.83	353.88	14.92	-42.8	-45.7	24.3	6.03e-01	0	41	0	161480704	57	4938
2026-01-28 02:33:25.83	353.73	15.01	-42.8	-45.6	24.4	6.03e-01	0	40	0	163053568	57	4911
2026-01-28 02:33:26.82	353.59	15.11	-42.9	-45.7	24.3	6.04e-01	0	40	0	165150720	57	4934
2026-01-28 02:33:27.81	353.44	15.20	-43.1	-45.7	24.3	6.00e-01	0	40	0	166723584	57	4975
2026-01-28 02:33:28.81	353.29	15.29	-43.2	-45.8	24.3	6.02e-01	0	40	0	168820736	57	5026
2026-01-28 02:33:29.80	353.14	15.39	-43.1	-45.7	24.4	6.00e-01	0	41	0	170393600	57	4966
2026-01-28 02:33:30.79	352.99	15.48	-43.1	-45.7	24.4	6.01e-01	0	41	0	172490752	57	4951
2026-01-28 02:33:31.78	352.84	15.57	-43.2	-45.7	24.4	6.00e-01	0	40	0	174587904	57	4967
2026-01-28 02:33:32.78	352.68	15.67	-43.1	-45.6	24.5	6.00e-01	0	40	0	176160768	57	4902
2026-01-28 02:33:33.77	352.53	15.76	-43.1	-45.7	24.5	6.04e-01	0	40	0	178257920	57	4927
2026-01-28 02:33:34.76	352.37	15.85	-43.1	-45.7	24.4	6.00e-01	0	40	0	179830784	57	4952
2026-01-28 02:33:35.75	352.22	15.95	-43.0	-45.6	24.6	6.02e-01	0	40	0	181927936	57	4877
2026-01-28 02:33:36.75	352.06	16.04	-43.0	-45.7	24.4	6.03e-01	0	41	0	183500800	57	4949
2026-01-28 02:33:37.74	351.90	16.14	-42.9	-45.6	24.6	6.03e-01	0	40	0	185597952	57	4890
2026-01-28 02:33:38.73	351.74	16.23	-42.8	-45.4	24.7	6.02e-01	0	41	0	187170816	57	4786
2026-01-28 02:33:39.72	351.58	16.33	-42.7	-45.3	24.8	6.05e-01	0	40	0	189267968	57	4733
2026-01-28 02:33:40.72	351.42	16.42	-42.7	-45.3	24.8	5.98e-01	0	41	0	191365120	57	4733
2026-01-28 02:33:41.71	351.25	16.52	-42.8	-45.3	24.8	6.03e-01	0	40	0	192937984	57	4752
2026-01-28 02:33:42.70	351.09	16.62	-42.9	-45.4	24.7	6.03e-01	0	41	0	195035136	57	4782
2026-01-28 02:33:43.70	350.92	16.71	-42.9	-45.4	24.6	6.00e-01	0	41	0	196608000	57	4803
2026-01-28 02:33:44.69	350.76	16.81	-42.9	-45.4	24.6	6.01e-01	0	40	0	198705152	57	4776
2026-01-28 02:33:45.68	350.59	16.90	-42.9	-45.4	24.6	6.02e-01	0	40	0	200278016	57	4797
2026-01-28 02:33:46.68	350.42	17.00	-42.9	-45.4	24.6	6.03e-01	0	41	0	202375168	57	4763
2026-01-28 02:33:47.67	350.25	17.10	-42.9	-45.5	24.5	6.03e-01	0	41	0	203948032	57	4824
2026-01-28 02:33:48.66	350.08	17.20	-42.8	-45.3	24.6	6.04e-01	0	40	0	206045184	57	4720
2026-01-28 02:33:49.65	349.91	17.29	-42.8	-45.4	24.5	6.03e-01	0	41	0	207618048	57	4778
2026-01-28 02:33:50.65	349.73	17.39	-42.9	-45.5	24.3	6.02e-01	0	40	0	209715200	57	4832
2026-01-28 02:33:51.64	349.56	17.49	-42.8	-45.4	24.4	6.03e-01	0	40	0	211812352	57	4801
2026-01-28 02:33:52.64	349.38	17.59	-42.7	-45.4	24.4	6.03e-01	0	41	0	213385216	57	4797
2026-01-28 02:33:53.63	349.20	17.68	-42.7	-45.4	24.3	6.01e-01	0	40	0	215482368	57	4807
2026-01-28 02:33:54.62	349.03	17.78	-42.5	-45.4	24.3	6.02e-01	0	41	0	217055232	57	4793
2026-01-28 02:33:55.61	348.85	17.88	-42.5	-45.4	24.3	6.01e-01	0	41	0	219152384	56	5089
2026-01-28 02:33:56.61	348.67	17.98	-42.5	-45.5	24.2	6.03e-01	0	40	0	220725248	56	5144
2026-01-28 02:33:57.60	348.48	18.08	-42.4	-45.4	24.2	6.02e-01	0	40	0	222822400	56	5059
2026-01-28 02:33:58.59	348.30	18.17	-42.4	-45.4	24.2	6.01e-01	0	40	0	224395264	56	5066
2026-01-28 02:33:59.58	348.12	18.27	-42.5	-45.3	24.3	6.02e-01	0	41	0	226492416	56	5021
2026-01-28 02:34:00.58	347.93	18.37	-42.6	-45.3	24.3	6.01e-01	0	41	0	228589568	56	5038
2026-01-28 02:34:01.57	347.74	18.47	-42.9	-45.5	24.2	6.02e-01	0	41	0	230162432	56	5130
2026-01-28 02:34:02.56	347.55	18.57	-42.9	-45.4	24.3	6.01e-01	0	41	0	232259584	56	5053
2026-01-28 02:34:03.56	347.36	18.67	-43.1	-45.6	24.1	6.03e-01	0	41	0	233832448	56	5175
2026-01-28 02:34:04.55	347.17	18.77	-43.1	-45.6	24.1	6.05e-01	0	41	0	235929600	56	5207
2026-01-28 02:34:05.54	346.98	18.87	-43.0	-45.6	24.2	6.04e-01	0	41	0	237502464	56	5165
2026-01-28 02:34:06.54	346.78	18.97	-43.0	-45.6	24.2	6.00e-01	0	40	0	239599616	56	5193
2026-01-28 02:34:07.53	346.59	19.07	-42.9	-45.5	24.3	6.02e-01	0	41	0	241172480	56	5128
2026-01-28 02:34:08.52	346.39	19.17	-42.9	-45.5	24.3	6.03e-01	0	41	0	243269632	56	5134
2026-01-28 02:34:09.52	346.19	19.27	-42.8	-45.4	24.5	6.03e-01	0	41	0	245366784	56	5068
2026-01-28 02:34:10.51	345.99	19.37	-42.8	-45.3	24.7	6.02e-01	0	41	0	246939648	56	5031
2026-01-28 02:34:11.50	345.79	19.47	-42.8	-45.2	24.8	6.01e-01	0	41	0	249036800	56	4975
2026-01-28 02:34:12.49	345.59	19.57	-42.9	-45.3	24.8	6.03e-01	0	41	0	250609664	56	5013
2026-01-28 02:34:13.49	345.38	19.67	-43.0	-45.4	24.7	6.04e-01	0	41	0	252706816	56	5052
2026-01-28 02:34:14.48	345.18	19.77	-43.1	-45.5	24.7	6.03e-01	0	40	0	254279680	56	5102
2026-01-28 02:34:15.47	344.97	19.87	-43.0	-45.4	24.7	6.00e-01	0	41	0	256376832	56	5081
2026-01-28 02:34:16.46	344.77	19.97	-43.0	-45.5	24.8	6.04e-01	0	41	0	257949696	56	5106
2026-01-28 02:34:17.46	344.55	20.07	-42.9	-45.5	24.7	6.02e-01	0	40	0	260046848	56	5134
2026-01-28 02:34:18.45	344.34	20.17	-42.9	-45.5	24.7	6.02e-01	0	41	0	261619712	56	5122
2026-01-28 02:34:19.44	344.13	20.27	-43.0	-45.6	24.6	6.03e-01	0	41	0	263716864	56	5214
2026-01-28 02:34:20.44	343.92	20.37	-43.1	-45.7	24.5	6.04e-01	0	41	0	265814016	56	5272
2026-01-28 02:34:21.43	343.70	20.47	-43.3	-45.9	24.4	6.03e-01	0	41	0	267386880	57	5062
2026-01-28 02:34:22.42	343.48	20.57	-43.2	-45.7	24.5	6.03e-01	0	41	0	269484032	57	4955
2026-01-28 02:34:23.41	343.27	20.67	-43.1	-45.6	24.6	6.02e-01	0	41	0	271056896	57	4875
2026-01-28 02:34:24.41	343.04	20.77	-43.2	-45.6	24.5	6.01e-01	0	41	0	273154048	57	4926
2026-01-28 02:34:25.40	342.82	20.87	-43.0	-45.5	24.6	6.02e-01	0	41	0	274726912	57	4869
2026-01-28 02:34:26.39	342.60	20.97	-42.7	-45.5	24.6	6.02e-01	0	41	0	276824064	57	4846
2026-01-28 02:34:27.39	342.37	21.07	-42.6	-45.6	24.5	6.01e-01	0	41	0	278396928	57	4880
2026-01-28 02:34:28.38	342.15	21.17	-42.5	-45.5	24.6	6.02e-01	0	41	0	280494080	57	4843
2026-01-28 02:34:29.37	341.92	21.28	-42.8	-45.7	24.4	6.03e-01	0	41	0	282591232	57	4944
2026-01-28 02:34:30.37	341.69	21.38	-43.0	-45.7	24.4	6.00e-01	0	41	0	284164096	57	4937
2026-01-28 02:34:31.36	341.46	21.48	-43.1	-45.7	24.4	6.00e-01	0	41	0	286261248	57	4936
2026-01-28 02:34:32.35	341.23	21.58	-43.0	-45.5	24.5	6.02e-01	0	41	0	287834112	57	4852
2026-01-28 02:34:33.34	340.99	21.68	-43.0	-45.4	24.6	6.01e-01	0	41	0	289931264	57	4790
2026-01-28 02:34:34.34	340.75	21.78	-43.0	-45.4	24.6	6.02e-01	0	41	0	291504128	57	4802
2026-01-28 02:34:35.33	340.52	21.88	-42.8	-45.4	24.6	6.01e-01	0	41	0	293601280	57	4784
2026-01-28 02:34:36.32	340.28	21.98	-42.8	-45.5	24.5	6.03e-01	0	40	0	295174144	57	4847
2026-01-28 02:34:37.32	340.04	22.08	-42.9	-45.6	24.4	6.02e-01	0	41	0	297271296	57	4905
2026-01-28 02:34:38.31	339.79	22.18	-43.1	-45.8	24.3	6.03e-01	0	41	0	298844160	57	5003
2026-01-28 02:34:39.30	339.55	22.28	-43.2	-45.8	24.2	6.02e-01	0	41	0	300941312	57	5037
2026-01-28 02:34:40.30	339.30	22.38	-43.3	-45.9	24.2	6.02e-01	0	41	0	303038464	57	5054
2026-01-28 02:34:41.29	339.05	22.48	-43.2	-45.8	24.3	6.05e-01	0	41	0	304611328	57	4999
2026-01-28 02:34:42.28	338.81	22.58	-43.2	-45.8	24.3	6.01e-01	0	41	0	306708480	57	5036
2026-01-28 02:34:43.27	338.56	22.68	-43.0	-45.7	24.5	6.01e-01	0	41	0	308281344	57	4927
2026-01-28 02:34:44.27	338.30	22.78	-42.9	-45.5	24.6	6.01e-01	0	41	0	310378496	57	4854
2026-01-28 02:34:45.26	338.05	22.88	-42.9	-45.5	24.7	6.03e-01	0	41	0	311951360	57	4824
2026-01-28 02:34:46.25	337.79	22.98	-43.0	-45.6	24.7	6.02e-01	0	41	0	314048512	57	4908
2026-01-28 02:34:47.25	337.53	23.08	-43.1	-45.7	24.6	6.00e-01	0	41	0	315621376	57	4953
2026-01-28 02:34:48.24	337.27	23.17	-43.2	-45.8	24.5	6.01e-01	0	41	0	317718528	57	5014
2026-01-28 02:34:49.23	337.01	23.27	-43.2	-45.8	24.4	6.02e-01	0	41	0	319815680	57	4993
2026-01-28 02:34:50.23	336.75	23.37	-43.3	-45.8	24.3	6.01e-01	0	41	0	321388544	57	5028
2026-01-28 02:34:51.22	336.48	23.47	-43.2	-45.7	24.5	6.03e-01	0	41	0	323485696	57	4943
2026-01-28 02:34:52.21	336.22	23.57	-43.2	-45.7	24.5	6.03e-01	0	41	0	325058560	57	4945
2026-01-28 02:34:53.20	335.95	23.66	-43.3	-45.7	24.4	6.02e-01	0	41	0	327155712	57	4982
2026-01-28 02:34:54.20	335.68	23.76	-43.2	-45.7	24.5	6.00e-01	0	41	0	328728576	57	4935
2026-01-28 02:34:55.19	335.40	23.86	-43.1	-45.6	24.5	6.03e-01	0	41	0	330825728	57	4899
2026-01-28 02:34:56.18	335.13	23.95	-43.0	-45.7	24.5	6.00e-01	0	41	0	332398592	57	4965
2026-01-28 02:34:57.18	334.85	24.05	-43.0	-45.8	24.4	5.98e-01	0	41	0	334495744	57	5011
2026-01-28 02:34:58.17	334.58	24.15	-43.0	-45.9	24.3	6.02e-01	0	41	0	336592896	57	5058
2026-01-28 02:34:59.16	334.30	24.24	-42.9	-45.7	24.4	6.05e-01	0	41	0	338165760	57	4978
2026-01-28 02:35:00.16	334.02	24.34	-42.9	-45.6	24.5	6.02e-01	0	41	0	340262912	57	4909
2026-01-28 02:35:01.15	333.73	24.43	-43.0	-45.6	24.6	6.05e-01	0	41	0	341835776	57	4907
2026-01-28 02:35:02.14	333.45	24.53	-43.2	-45.8	24.4	6.02e-01	0	41	0	343932928	57	5002
2026-01-28 02:35:03.14	333.16	24.62	-43.2	-45.8	24.4	6.03e-01	0	41	0	345505792	57	5007
2026-01-28 02:35:04.13	332.87	24.72	-43.2	-45.7	24.5	6.02e-01	0	41	0	347602944	57	4962
2026-01-28 02:35:05.12	332.58	24.81	-43.2	-45.7	24.6	6.03e-01	0	41	0	349175808	57	4983
2026-01-28 02:35:06.11	332.29	24.90	-43.3	-45.8	24.5	6.01e-01	0	41	0	351272960	57	4994
2026-01-28 02:35:07.11	332.00	25.00	-43.2	-45.6	24.7	6.06e-01	0	41	0	352845824	57	4906
2026-01-28 02:35:08.10	331.70	25.09	-43.2	-45.6	24.6	6.02e-01	0	41	0	354942976	57	4918
2026-01-28 02:35:09.09	331.41	25.18	-43.2	-45.7	24.6	6.00e-01	0	41	0	357040128	57	4938
2026-01-28 02:35:10.09	331.10	25.27	-43.2	-45.8	24.5	6.01e-01	0	41	0	358612992	57	4998
2026-01-28 02:35:11.08	330.80	25.36	-43.2	-45.8	24.5	5.99e-01	0	41	0	360710144	57	4991
2026-01-28 02:35:12.07	330.50	25.45	-43.0	-45.5	24.6	6.02e-01	0	41	0	362283008	57	4859
2026-01-28 02:35:13.06	330.20	25.54	-42.9	-45.4	24.7	6.00e-01	0	41	0	364380160	57	4812
2026-01-28 02:35:14.06	329.89	25.63	-42.8	-45.5	24.7	6.03e-01	0	41	0	365953024	57	4832
2026-01-28 02:35:15.05	329.58	25.72	-42.8	-45.5	24.6	6.02e-01	0	41	0	368050176	57	4857
2026-01-28 02:35:16.04	329.27	25.81	-42.8	-45.6	24.6	6.01e-01	0	41	0	369623040	57	4883
2026-01-28 02:35:17.04	328.96	25.90	-42.8	-45.5	24.6	6.03e-01	0	41	0	371720192	57	4849
2026-01-28 02:35:18.03	328.65	25.98	-43.1	-45.7	23.3	6.04e-01	0	41	0	373817344	57	4965
2026-01-28 02:35:19.02	328.33	26.07	-43.1	-45.7	24.5	6.03e-01	0	41	0	375390208	57	4944
2026-01-28 02:35:20.02	328.01	26.15	-43.0	-45.5	24.7	6.06e-01	0	41	0	377487360	57	4846
2026-01-28 02:35:21.01	327.69	26.24	-43.0	-45.5	24.6	6.00e-01	0	41	0	379060224	57	4858
2026-01-28 02:35:22.00	327.37	26.32	-42.9	-45.4	24.8	6.01e-01	0	41	0	381157376	57	4786
2026-01-28 02:35:23.00	327.05	26.41	-43.0	-45.5	24.7	6.02e-01	0	41	0	382730240	57	4857
2026-01-28 02:35:23.99	326.72	26.49	-43.0	-45.5	24.7	6.03e-01	0	41	0	384827392	57	4840
2026-01-28 02:35:24.98	326.40	26.57	-42.9	-45.5	24.7	6.02e-01	0	41	0	386400256	57	4847
2026-01-28 02:35:25.98	326.07	26.65	-43.0	-45.6	24.6	6.00e-01	0	41	0	388497408	57	4916
2026-01-28 02:35:26.97	325.74	26.74	-42.9	-45.5	24.7	6.02e-01	0	41	0	390594560	57	4837
2026-01-28 02:35:27.96	325.41	26.81	-42.9	-45.5	24.7	6.04e-01	0	41	0	392167424	57	4853
2026-01-28 02:35:28.95	325.08	26.89	-42.9	-45.6	24.6	6.02e-01	0	41	0	394264576	57	4890
2026-01-28 02:35:29.95	324.74	26.97	-42.9	-45.5	24.8	6.00e-01	0	41	0	395837440	57	4822
2026-01-28 02:35:30.94	324.40	27.05	-42.8	-45.3	24.9	6.04e-01	0	41	0	397934592	57	4759
2026-01-28 02:35:31.93	324.07	27.13	-42.8	-45.3	24.9	6.01e-01	0	41	0	399507456	57	4753
2026-01-28 02:35:32.93	323.72	27.20	-42.8	-45.4	24.7	6.02e-01	0	41	0	401604608	57	4780
2026-01-28 02:35:33.92	323.38	27.28	-42.8	-45.4	23.1	6.05e-01	0	41	0	403177472	57	4809
2026-01-28 02:35:34.91	323.04	27.35	-42.7	-45.3	24.9	6.03e-01	0	41	0	405274624	57	4742
2026-01-28 02:35:35.91	322.69	27.43	-42.7	-45.3	24.9	6.02e-01	0	41	0	406847488	57	4730
2026-01-28 02:35:36.90	322.34	27.50	-42.7	-45.2	25.0	6.01e-01	0	41	0	408944640	57	4704
2026-01-28 02:35:37.89	322.00	27.57	-42.8	-45.3	25.0	6.00e-01	0	41	0	411041792	57	4717
2026-01-28 02:35:38.88	321.65	27.64	-42.8	-45.3	25.0	6.01e-01	0	41	0	412614656	57	4714
2026-01-28 02:35:39.88	321.29	27.71	-42.8	-45.3	24.9	6.02e-01	0	41	0	414711808	57	4746
2026-01-28 02:35:40.87	320.94	27.78	-42.8	-45.4	24.9	6.01e-01	0	41	0	416284672	57	4763
2026-01-28 02:35:41.86	320.59	27.85	-42.7	-45.3	24.9	6.03e-01	0	41	0	418381824	57	4736
2026-01-28 02:35:42.86	320.23	27.91	-42.8	-45.4	24.9	6.04e-01	0	41	0	419954688	57	4767
2026-01-28 02:35:43.85	319.87	27.98	-42.8	-45.4	24.9	6.02e-01	0	41	0	422051840	57	4767
2026-01-28 02:35:44.84	319.51	28.04	-42.7	-45.3	25.0	6.00e-01	0	41	0	423624704	57	4709
2026-01-28 02:35:45.84	319.15	28.11	-42.8	-45.4	24.9	6.02e-01	0	41	0	425721856	57	4777
2026-01-28 02:35:46.83	318.79	28.17	-42.9	-45.4	24.8	6.01e-01	0	41	0	427819008	57	4807
2026-01-28 02:35:47.82	318.42	28.23	-42.7	-45.2	25.0	6.04e-01	0	41	0	429391872	57	4657
2026-01-28 02:35:48.81	318.06	28.29	-42.8	-45.2	25.0	6.01e-01	0	41	0	431489024	57	4667
2026-01-28 02:35:49.81	317.69	28.35	-42.8	-45.2	25.0	6.06e-01	0	41	0	433061888	57	4665
2026-01-28 02:35:50.80	317.32	28.41	-42.8	-45.2	25.0	6.02e-01	0	41	0	435159040	57	4680
2026-01-28 02:35:51.79	316.95	28.46	-42.9	-45.3	24.9	6.04e-01	0	41	0	436731904	57	4736
2026-01-28 02:35:52.78	316.58	28.52	-42.9	-45.3	24.9	6.00e-01	0	41	0	438829056	57	4725
2026-01-28 02:35:53.78	316.21	28.57	-43.0	-45.5	24.8	6.02e-01	0	41	0	440401920	57	4826
2026-01-28 02:35:54.77	315.83	28.63	-42.7	-45.3	25.0	6.01e-01	0	41	0	442499072	57	4712
2026-01-28 02:35:55.76	315.46	28.68	-42.6	-45.2	25.0	6.03e-01	0	41	0	444596224	57	4699
2026-01-28 02:35:56.76	315.08	28.73	-42.6	-45.3	24.9	6.01e-01	0	41	0	446169088	57	4732
2026-01-28 02:35:57.75	314.70	28.78	-42.7	-45.4	24.9	6.02e-01	0	41	0	448266240	57	4778
2026-01-28 02:35:58.74	314.33	28.83	-42.7	-45.3	25.0	6.01e-01	0	41	0	449839104	57	4715
2026-01-28 02:35:59.74	313.94	28.88	-42.7	-45.2	25.0	6.01e-01	0	41	0	451936256	57	4691
2026-01-28 02:36:00.73	313.56	28.92	-42.8	-45.2	25.0	6.01e-01	0	41	0	453509120	57	4704
2026-01-28 02:36:01.72	313.18	28.97	-42.8	-45.2	25.0	6.01e-01	0	41	0	455606272	57	4671
2026-01-28 02:36:02.72	312.80	29.01	-42.9	-45.3	25.0	6.03e-01	0	41	0	457179136	57	4723
2026-01-28 02:36:03.71	312.41	29.05	-42.9	-45.3	25.0	6.02e-01	0	41	0	459276288	57	4744
2026-01-28 02:36:04.70	312.03	29.09	-43.0	-45.4	24.8	6.03e-01	0	41	0	460849152	57	4801
2026-01-28 02:36:05.69	311.64	29.13	-43.0	-45.4	24.8	6.01e-01	0	41	0	462946304	57	4783
2026-01-28 02:36:06.69	311.25	29.17	-42.9	-45.2	25.1	6.03e-01	0	41	0	465043456	57	4665
2026-01-28 02:36:07.68	310.86	29.20	-43.1	-45.5	24.8	6.03e-01	0	41	0	466616320	57	4818
2026-01-28 02:36:08.67	310.48	29.24	-43.1	-45.5	24.8	6.04e-01	0	41	0	468713472	57	4816
2026-01-28 02:36:09.67	310.08	29.27	-42.8	-45.1	25.1	6.03e-01	0	41	0	470286336	57	4625
2026-01-28 02:36:10.66	309.69	29.31	-42.8	-45.2	25.0	6.03e-01	0	41	0	472383488	57	4669
2026-01-28 02:36:11.65	309.30	29.34	-43.0	-45.4	24.9	6.05e-01	0	41	0	473956352	57	4775
2026-01-28 02:36:12.64	308.91	29.37	-42.9	-45.3	25.0	6.02e-01	0	41	0	476053504	57	4739
2026-01-28 02:36:13.64	308.51	29.39	-42.8	-45.2	25.0	5.99e-01	0	41	0	477626368	57	4679
2026-01-28 02:36:14.63	308.12	29.42	-42.9	-45.3	24.8	6.01e-01	0	41	0	479723520	57	4746
2026-01-28 02:36:15.62	307.73	29.44	-43.0	-45.4	24.9	6.03e-01	0	41	0	481820672	57	4762
2026-01-28 02:36:16.62	307.33	29.47	-42.9	-45.3	25.0	6.01e-01	0	41	0	483393536	57	4709
2026-01-28 02:36:17.61	306.93	29.49	-42.8	-45.1	25.1	6.04e-01	0	41	0	485490688	57	4617
2026-01-28 02:36:18.60	306.54	29.51	-42.8	-45.2	25.0	6.02e-01	0	41	0	487063552	57	4666
2026-01-28 02:36:19.59	306.14	29.53	-43.2	-45.6	24.7	6.02e-01	0	41	0	489160704	57	4896
2026-01-28 02:36:20.59	305.74	29.55	-43.1	-45.4	24.8	6.02e-01	0	41	0	490733568	57	4791
2026-01-28 02:36:21.58	305.35	29.56	-42.7	-44.9	25.2	6.03e-01	0	41	0	492830720	57	4543
2026-01-28 02:36:22.57	304.95	29.58	-43.3	-45.7	24.5	6.01e-01	0	41	0	494403584	57	4972
2026-01-28 02:36:23.57	304.55	29.59	-43.5	-45.9	24.4	6.00e-01	0	41	0	496500736	57	5071
2026-01-28 02:36:24.56	304.15	29.60	-42.9	-45.2	25.1	6.04e-01	0	41	0	498073600	57	4675
2026-01-28 02:36:25.55	303.75	29.61	-43.2	-45.5	24.5	6.02e-01	0	41	0	500170752	58	4596
2026-01-28 02:36:26.55	303.35	29.62	-43.8	-46.3	24.0	6.02e-01	0	41	0	502267904	58	5037
2026-01-28 02:36:27.54	302.95	29.63	-42.9	-45.2	24.9	6.02e-01	0	41	0	503840768	56	4979
2026-01-28 02:36:28.53	302.55	29.64	-42.4	-44.7	25.2	6.02e-01	0	41	0	505937920	56	4664
2026-01-28 02:36:29.52	302.15	29.64	-43.5	-46.0	24.1	6.01e-01	0	41	0	507510784	58	4832
2026-01-28 02:36:30.52	301.75	29.64	-43.7	-46.3	24.1	5.99e-01	0	41	0	509607936	57	5282
2026-01-28 02:36:31.51	301.35	29.64	-42.5	-44.8	25.4	6.02e-01	0	41	0	511180800	56	4740
2026-01-28 02:36:32.50	300.95	29.64	-42.6	-44.9	25.0	6.01e-01	0	41	0	513277952	57	4543
2026-01-28 02:36:33.50	300.55	29.64	-43.6	-46.2	24.0	6.01e-01	0	41	0	514850816	57	5277
2026-01-28 02:36:34.49	300.15	29.64	-43.2	-45.7	24.5	6.02e-01	0	41	0	516947968	56	5235
2026-01-28 02:36:35.48	299.75	29.63	-42.4	-44.7	25.4	5.98e-01	0	41	0	519045120	56	4705
2026-01-28 02:36:36.47	299.35	29.63	-43.0	-45.4	24.7	6.03e-01	0	41	0	520617984	58	4514
2026-01-28 02:36:37.47	298.95	29.62	-43.6	-46.2	24.2	6.00e-01	0	41	0	522715136	57	5227
2026-01-28 02:36:38.46	298.55	29.61	-42.9	-45.3	25.0	6.01e-01	0	41	0	524288000	57	4728
2026-01-28 02:36:39.45	298.15	29.60	-43.2	-45.7	24.5	6.01e-01	0	41	0	526385152	57	4949
2026-01-28 02:36:40.45	297.75	29.58	-43.5	-46.0	24.3	6.01e-01	0	41	0	527958016	57	5148
2026-01-28 02:36:41.44	297.35	29.57	-42.2	-44.4	25.6	6.01e-01	0	41	0	530055168	56	4542
2026-01-28 02:36:42.43	296.95	29.56	-42.7	-45.0	24.7	6.02e-01	0	41	0	531628032	57	4551
2026-01-28 02:36:43.42	296.56	29.54	-44.2	-46.9	23.2	6.02e-01	0	41	0	533725184	59	5055
2026-01-28 02:36:44.42	296.16	29.52	-43.5	-46.0	24.4	6.04e-01	0	41	0	535822336	57	5112
2026-01-28 02:36:45.41	295.76	29.50	-43.2	-45.6	24.7	6.01e-01	0	41	0	537395200	57	4883
2026-01-28 02:36:46.40	295.36	29.48	-43.1	-45.5	24.7	6.02e-01	0	41	0	539492352	57	4860
2026-01-28 02:36:47.39	294.97	29.46	-42.7	-44.9	25.2	5.98e-01	0	41	0	541065216	57	4538
2026-01-28 02:36:48.39	294.57	29.43	-43.1	-45.5	24.6	6.02e-01	0	41	0	543162368	58	4563
2026-01-28 02:36:49.38	294.18	29.41	-43.4	-45.9	24.3	6.01e-01	0	41	0	544735232	57	5045
2026-01-28 02:36:50.38	293.78	29.38	-43.4	-45.9	24.3	6.03e-01	0	41	0	546832384	57	5073
2026-01-28 02:36:51.37	293.39	29.35	-43.8	-46.4	24.0	6.01e-01	0	41	0	548405248	58	5080
2026-01-28 02:36:52.36	293.00	29.32	-43.1	-45.5	24.7	6.01e-01	0	41	0	550502400	57	4858
2026-01-28 02:36:53.35	292.61	29.29	-43.4	-45.9	24.1	6.02e-01	0	41	0	552075264	58	4802
2026-01-28 02:36:54.35	292.21	29.25	-43.7	-46.3	24.0	6.01e-01	0	41	0	554172416	58	5002
2026-01-28 02:36:55.34	291.82	29.22	-43.2	-45.7	24.6	6.01e-01	0	41	0	556269568	57	4946
2026-01-28 02:36:56.33	291.43	29.18	-43.5	-46.0	24.3	6.02e-01	0	41	0	557842432	57	5109
2026-01-28 02:36:57.32	291.05	29.15	-43.2	-45.6	24.7	6.01e-01	0	41	0	559939584	57	4905
2026-01-28 02:36:58.32	290.66	29.11	-43.6	-46.1	24.2	6.04e-01	0	41	0	561512448	58	4889
2026-01-28 02:36:59.31	290.27	29.07	-43.7	-46.1	24.2	6.01e-01	0	41	0	563609600	58	4926
2026-01-28 02:37:00.30	289.89	29.03	-43.4	-45.8	24.4	6.03e-01	0	41	0	565182464	58	4715
2026-01-28 02:37:01.30	289.50	28.98	-44.1	-46.7	23.7	6.03e-01	0	41	0	567279616	58	5231
2026-01-28 02:37:02.29	289.12	28.94	-43.2	-45.6	24.7	6.03e-01	0	41	0	568852480	58	4606
2026-01-28 02:37:03.28	288.74	28.90	-43.6	-46.1	24.0	6.01e-01	0	41	0	570949632	59	4650
2026-01-28 02:37:04.27	288.36	28.85	-43.8	-46.4	23.9	6.02e-01	0	41	0	573046784	58	5095
2026-01-28 02:37:05.27	287.97	28.80	-42.9	-45.3	25.0	6.01e-01	0	41	0	574619648	57	4710
2026-01-28 02:37:06.26	287.59	28.75	-43.8	-46.3	23.8	6.02e-01	0	41	0	576716800	58	5029
2026-01-28 02:37:07.25	287.22	28.70	-43.7	-46.3	24.1	6.01e-01	0	41	0	578289664	58	4991
2026-01-28 02:37:08.24	286.84	28.65	-43.3	-45.7	24.5	6.03e-01	0	41	0	580386816	58	4698
2026-01-28 02:37:09.24	286.46	28.60	-44.0	-46.6	23.7	6.00e-01	0	41	0	581959680	58	5184
2026-01-28 02:37:10.23	286.09	28.54	-43.7	-46.3	24.1	6.01e-01	0	41	0	584056832	58	4985
2026-01-28 02:37:11.22	285.72	28.49	-43.2	-45.5	24.5	6.04e-01	0	41	0	585629696	58	4590
2026-01-28 02:37:12.22	285.35	28.43	-44.2	-46.9	23.4	6.03e-01	0	41	0	587726848	59	5044
2026-01-28 02:37:13.21	284.98	28.37	-43.3	-45.6	24.6	6.01e-01	0	41	0	589299712	58	4619
2026-01-28 02:37:14.20	284.61	28.32	-44.5	-47.2	23.0	6.04e-01	0	41	0	591396864	59	5236
2026-01-28 02:37:15.20	284.24	28.25	-43.6	-46.0	24.2	6.02e-01	0	41	0	593494016	58	4851
2026-01-28 02:37:16.19	283.88	28.19	-44.0	-46.6	23.2	6.01e-01	0	41	0	595066880	59	4876
2026-01-28 02:37:17.18	283.51	28.13	-44.3	-46.9	23.3	6.03e-01	0	41	0	597164032	59	5081
2026-01-28 02:37:18.17	283.15	28.07	-43.4	-45.8	24.2	6.02e-01	0	41	0	598736896	58	4746
2026-01-28 02:37:19.17	282.79	28.00	-44.2	-46.8	23.6	6.03e-01	0	41	0	600834048	58	5291
2026-01-28 02:37:20.16	282.43	27.94	-43.6	-46.0	24.2	6.01e-01	0	41	0	602406912	59	4592
2026-01-28 02:37:21.15	282.07	27.87	-44.3	-47.0	23.3	6.02e-01	0	41	0	604504064	59	5117
2026-01-28 02:37:22.14	281.71	27.81	-43.8	-46.2	24.1	6.02e-01	0	41	0	606076928	59	4695
2026-01-28 02:37:23.14	281.36	27.74	-43.6	-46.1	24.1	6.02e-01	0	41	0	608174080	59	4600
2026-01-28 02:37:24.13	281.00	27.67	-43.9	-46.4	23.8	6.00e-01	0	41	0	610271232	58	5088
2026-01-28 02:37:25.12	280.65	27.60	-43.8	-46.3	23.8	6.02e-01	0	41	0	611844096	59	4706
2026-01-28 02:37:26.12	280.30	27.53	-43.9	-46.4	24.0	5.98e-01	0	41	0	613941248	58	5048
2026-01-28 02:37:27.11	279.95	27.45	-44.1	-46.7	23.5	6.02e-01	0	41	0	615514112	59	4967
2026-01-28 02:37:28.10	279.61	27.38	-43.9	-46.5	23.9	6.02e-01	0	41	0	617611264	59	4818
2026-01-28 02:37:29.09	279.26	27.31	-43.8	-46.2	24.0	6.02e-01	0	41	0	619184128	59	4699
2026-01-28 02:37:30.09	278.92	27.23	-44.3	-46.9	23.5	6.00e-01	0	41	0	621281280	59	5073
2026-01-28 02:37:31.08	278.57	27.16	-44.2	-46.7	23.5	6.04e-01	0	41	0	622854144	59	4974
2026-01-28 02:37:32.07	278.24	27.08	-44.4	-47.0	23.3	6.01e-01	0	41	0	624951296	59	5145
2026-01-28 02:37:33.07	277.89	27.00	-44.7	-47.5	22.8	6.03e-01	0	41	0	627048448	60	5102
2026-01-28 02:37:34.06	277.56	26.92	-44.3	-46.9	23.4	6.02e-01	0	41	0	628621312	60	4788
2026-01-28 02:37:35.05	277.22	26.84	-44.4	-47.0	23.4	6.02e-01	0	41	0	630718464	59	5110
2026-01-28 02:37:36.05	276.89	26.76	-44.5	-47.1	23.2	6.02e-01	0	41	0	632291328	59	5187
2026-01-28 02:37:37.04	276.56	26.68	-44.6	-47.2	23.2	6.00e-01	0	41	0	634388480	59	5275
2026-01-28 02:37:38.03	276.23	26.60	-44.4	-47.0	23.3	6.03e-01	0	41	0	635961344	59	5150
2026-01-28 02:37:39.02	275.90	26.52	-44.6	-47.3	22.9	6.05e-01	0	41	0	638058496	60	5036
2026-01-28 02:37:40.02	275.57	26.44	-43.8	-46.3	24.0	6.01e-01	0	41	0	639631360	59	4712
2026-01-28 02:37:41.01	275.25	26.35	-44.2	-46.8	23.6	6.02e-01	0	41	0	641728512	59	4996
2026-01-28 02:37:42.00	274.93	26.27	-44.0	-46.6	23.4	6.04e-01	0	41	0	643301376	59	4907
2026-01-28 02:37:43.00	274.60	26.18	-43.9	-46.4	23.9	6.04e-01	0	41	0	645398528	59	4813
2026-01-28 02:37:43.99	274.28	26.10	-44.4	-47.1	23.2	6.02e-01	0	41	0	647495680	59	5192
2026-01-28 02:37:44.98	273.97	26.01	-44.2	-46.7	23.6	6.02e-01	0	41	0	649068544	59	4975
2026-01-28 02:37:45.98	273.65	25.92	-44.3	-46.8	23.6	6.01e-01	0	41	0	651165696	59	5035
2026-01-28 02:37:46.97	273.34	25.84	-44.6	-47.2	23.2	6.03e-01	0	41	0	652738560	59	5277
2026-01-28 02:37:47.96	273.03	25.75	-44.2	-46.8	23.6	6.03e-01	0	41	0	654835712	59	4988
2026-01-28 02:37:48.95	272.72	25.66	-44.2	-46.7	23.7	6.02e-01	0	41	0	656408576	59	4955
2026-01-28 02:37:49.95	272.41	25.57	-44.3	-46.8	23.6	6.01e-01	0	41	0	658505728	59	5014
2026-01-28 02:37:50.94	272.10	25.48	-44.3	-46.9	23.4	6.03e-01	0	41	0	660078592	59	5094
2026-01-28 02:37:51.93	271.80	25.39	-44.3	-46.9	23.4	6.01e-01	0	41	0	662175744	59	5080
2026-01-28 02:37:52.93	271.49	25.30	-44.3	-47.0	23.4	6.00e-01	0	41	0	664272896	59	5111
2026-01-28 02:37:53.92	271.19	25.21	-44.2	-46.9	23.5	6.01e-01	0	41	0	665845760	59	5065
2026-01-28 02:37:54.91	270.89	25.12	-43.9	-46.4	23.9	6.01e-01	0	41	0	667942912	59	4793
2026-01-28 02:37:55.91	270.59	25.02	-44.0	-46.6	23.8	6.00e-01	0	41	0	669515776	59	4874
2026-01-28 02:37:56.90	270.30	24.93	-44.4	-47.1	23.3	6.04e-01	0	41	0	671612928	59	5174
2026-01-28 02:37:57.89	270.00	24.84	-44.3	-46.9	23.4	6.01e-01	0	41	0	673185792	59	5087
2026-01-28 02:37:58.88	269.71	24.74	-44.2	-46.8	23.6	6.02e-01	0	41	0	675282944	59	5004
2026-01-28 02:37:59.88	269.42	24.65	-44.3	-47.0	23.4	5.99e-01	0	42	0	676855808	59	5159
2026-01-28 02:38:00.87	269.13	24.55	-44.2	-46.9	23.4	6.02e-01	0	41	0	678952960	59	5063
2026-01-28 02:38:01.86	268.85	24.46	-43.7	-46.3	24.0	6.00e-01	0	41	0	681050112	59	4708
2026-01-28 02:38:02.86	268.56	24.36	-43.9	-46.5	23.8	6.02e-01	0	41	0	682622976	59	4818
2026-01-28 02:38:03.85	268.28	24.27	-44.5	-47.3	23.1	6.04e-01	0	41	0	684720128	59	5300
2026-01-28 02:38:04.84	268.00	24.17	-44.5	-47.3	23.0	6.02e-01	0	41	0	686292992	59	5314
2026-01-28 02:38:05.84	267.72	24.08	-44.1	-46.7	23.6	6.00e-01	0	41	0	688390144	59	4939
2026-01-28 02:38:06.83	267.44	23.98	-44.2	-46.7	23.6	6.01e-01	0	41	0	689963008	59	4977
2026-01-28 02:38:07.82	267.16	23.88	-44.6	-47.2	23.2	6.03e-01	0	41	0	692060160	59	5268
2026-01-28 02:38:08.81	266.89	23.79	-44.6	-47.3	22.9	6.03e-01	0	41	0	693633024	60	5040
2026-01-28 02:38:09.81	266.62	23.69	-44.1	-46.7	23.4	6.03e-01	0	41	0	695730176	60	4678
2026-01-28 02:38:10.80	266.35	23.59	-44.0	-46.6	23.5	6.00e-01	0	41	0	697303040	60	4632
2026-01-28 02:38:11.79	266.08	23.49	-44.1	-46.7	23.5	6.04e-01	0	41	0	699400192	60	4664
2026-01-28 02:38:12.78	265.81	23.39	-44.4	-47.2	23.1	6.03e-01	0	41	0	701497344	60	4945
2026-01-28 02:38:13.78	265.55	23.29	-44.2	-46.9	23.3	6.01e-01	0	41	0	703070208	60	4784
2026-01-28 02:38:14.77	265.28	23.20	-44.0	-46.6	23.7	6.00e-01	0	41	0	705167360	59	4892
2026-01-28 02:38:15.76	265.02	23.10	-43.9	-46.5	23.7	5.98e-01	0	41	0	706740224	59	4838
2026-01-28 02:38:16.76	264.76	23.00	-44.3	-46.9	23.4	6.02e-01	0	41	0	708837376	59	5096
2026-01-28 02:38:17.75	264.50	22.90	-44.4	-47.2	23.2	6.03e-01	0	41	0	710410240	59	5221
2026-01-28 02:38:18.74	264.25	22.80	-44.3	-46.9	23.3	6.01e-01	0	41	0	712507392	59	5089
2026-01-28 02:38:19.74	263.99	22.70	-44.0	-46.7	23.6	6.01e-01	0	41	0	714080256	59	4931
2026-01-28 02:38:20.73	263.74	22.60	-44.0	-46.7	23.6	6.02e-01	0	41	0	716177408	59	4939
2026-01-28 02:38:21.72	263.49	22.50	-44.1	-46.7	23.6	5.99e-01	0	42	0	718274560	59	4963
2026-01-28 02:38:22.72	263.24	22.40	-44.2	-46.9	23.4	6.03e-01	0	41	0	719847424	59	5044
2026-01-28 02:38:23.71	262.99	22.30	-44.2	-46.9	23.4	6.02e-01	0	41	0	721944576	59	5085
2026-01-28 02:38:24.70	262.74	22.20	-44.2	-46.9	23.4	6.03e-01	0	41	0	723517440	59	5078
2026-01-28 02:38:25.70	262.50	22.10	-44.0	-46.6	23.7	6.02e-01	0	41	0	725614592	59	4877
2026-01-28 02:38:26.69	262.25	22.00	-43.9	-46.5	23.8	6.01e-01	0	41	0	727187456	59	4817
2026-01-28 02:38:27.68	262.01	21.90	-44.0	-46.6	23.7	6.03e-01	0	41	0	729284608	59	4873
2026-01-28 02:38:28.67	261.77	21.80	-44.0	-46.7	23.7	6.04e-01	0	41	0	730857472	59	4936
2026-01-28 02:38:29.67	261.53	21.69	-44.1	-46.7	23.6	6.02e-01	0	41	0	732954624	59	4962
2026-01-28 02:38:30.66	261.30	21.59	-44.3	-47.0	23.3	6.00e-01	0	41	0	734527488	59	5106
2026-01-28 02:38:31.65	261.06	21.49	-44.2	-46.8	23.5	6.00e-01	0	41	0	736624640	59	5035
2026-01-28 02:38:32.65	260.83	21.39	-44.0	-46.6	23.6	6.05e-01	0	41	0	738721792	59	4912
2026-01-28 02:38:33.64	260.60	21.29	-44.0	-46.6	23.6	6.03e-01	0	41	0	740294656	59	4879
2026-01-28 02:38:34.63	260.37	21.19	-43.9	-46.5	23.8	6.00e-01	0	41	0	742391808	59	4827
2026-01-28 02:38:35.62	260.14	21.09	-44.1	-46.7	23.6	6.04e-01	0	41	0	743964672	59	4963
2026-01-28 02:38:36.62	259.91	20.99	-44.1	-46.8	23.5	6.01e-01	0	41	0	746061824	59	4997
2026-01-28 02:38:37.61	259.69	20.89	-44.0	-46.6	23.6	6.01e-01	0	41	0	747634688	59	4926
2026-01-28 02:38:38.60	259.47	20.78	-43.9	-46.5	23.7	6.04e-01	0	41	0	749731840	59	4869
2026-01-28 02:38:39.59	259.24	20.68	-43.8	-46.4	23.8	5.99e-01	0	41	0	751304704	59	4786
2026-01-28 02:38:40.59	259.02	20.58	-43.9	-46.5	23.8	6.00e-01	0	41	0	753401856	59	4832
2026-01-28 02:38:41.58	258.80	20.48	-43.9	-46.5	23.7	6.02e-01	0	41	0	755499008	59	4836
2026-01-28 02:38:42.57	258.59	20.38	-43.9	-46.5	23.7	6.00e-01	0	41	0	757071872	59	4846
2026-01-28 02:38:43.57	258.37	20.28	-43.9	-46.5	23.7	6.00e-01	0	41	0	759169024	59	4818
2026-01-28 02:38:44.56	258.16	20.18	-43.9	-46.4	23.7	6.05e-01	0	41	0	760741888	59	4807
2026-01-28 02:38:45.55	257.94	20.08	-43.9	-46.5	23.7	6.04e-01	0	41	0	762839040	59	4848
2026-01-28 02:38:46.54	257.73	19.98	-44.0	-46.6	23.7	6.00e-01	0	41	0	764411904	59	4894
2026-01-28 02:38:47.54	257.52	19.87	-43.9	-46.5	23.7	6.02e-01	0	41	0	766509056	59	4845
2026-01-28 02:38:48.53	257.31	19.77	-44.0	-46.6	23.7	6.02e-01	0	41	0	768081920	59	4897
2026-01-28 02:38:49.52	257.11	19.67	-43.9	-46.5	23.7	6.01e-01	0	41	0	770179072	59	4847
2026-01-28 02:38:50.52	256.90	19.57	-44.0	-46.7	23.6	6.03e-01	0	41	0	772276224	59	4941
2026-01-28 02:38:51.51	256.69	19.47	-44.1	-46.8	23.4	6.02e-01	0	41	0	773849088	59	5015
2026-01-28 02:38:52.50	256.49	19.37	-44.0	-46.6	23.6	6.04e-01	0	41	0	775946240	59	4896
2026-01-28 02:38:53.49	256.29	19.27	-44.0	-46.6	23.6	6.01e-01	0	41	0	777519104	59	4922
2026-01-28 02:38:54.49	256.09	19.17	-44.0	-46.6	23.6	6.01e-01	0	41	0	779616256	59	4903
2026-01-28 02:38:55.48	255.89	19.07	-43.8	-46.4	23.8	6.02e-01	0	41	0	781189120	59	4782
2026-01-28 02:38:56.47	255.70	18.97	-43.9	-46.5	23.7	6.03e-01	0	41	0	783286272	59	4819
2026-01-28 02:38:57.46	255.50	18.87	-44.1	-46.6	23.6	6.03e-01	0	41	0	784859136	59	4925
2026-01-28 02:38:58.46	255.30	18.77	-44.1	-46.8	23.5	6.01e-01	0	41	0	786956288	59	4986
2026-01-28 02:38:59.45	255.11	18.67	-44.1	-46.7	23.5	6.03e-01	0	41	0	788529152	59	4954
2026-01-28 02:39:00.44	254.92	18.57	-44.1	-46.7	23.5	6.03e-01	0	41	0	790626304	59	4974
2026-01-28 02:39:01.44	254.73	18.47	-44.1	-46.7	23.5	6.01e-01	0	41	0	792723456	59	4954
2026-01-28 02:39:02.43	254.54	18.37	-44.1	-46.8	23.4	6.03e-01	0	41	0	794296320	59	4997
2026-01-28 02:39:03.42	254.35	18.27	-44.0	-46.7	23.5	6.00e-01	0	41	0	796393472	59	4958
2026-01-28 02:39:04.41	254.17	18.17	-43.9	-46.6	23.7	6.02e-01	0	41	0	797966336	59	4876
2026-01-28 02:39:05.41	253.98	18.07	-43.8	-46.5	23.7	5.99e-01	0	41	0	800063488	59	4838
2026-01-28 02:39:06.40	253.80	17.97	-43.8	-46.5	23.7	6.07e-01	0	41	0	801636352	59	4823
2026-01-28 02:39:07.39	253.61	17.88	-43.8	-46.4	23.8	6.02e-01	0	41	0	803733504	59	4791
2026-01-28 02:39:08.39	253.43	17.78	-43.9	-46.5	23.8	6.04e-01	0	41	0	805306368	59	4818
2026-01-28 02:39:09.38	253.25	17.68	-44.0	-46.6	23.6	6.02e-01	0	41	0	807403520	59	4891
2026-01-28 02:39:10.37	253.07	17.58	-44.0	-46.6	23.6	6.03e-01	0	41	0	809500672	59	4895
2026-01-28 02:39:11.36	252.90	17.48	-44.0	-46.5	23.6	6.04e-01	0	41	0	811073536	59	4859
2026-01-28 02:39:12.36	252.72	17.38	-44.0	-46.5	23.7	6.01e-01	0	41	0	813170688	59	4845
2026-01-28 02:39:13.35	252.54	17.29	-44.0	-46.6	23.6	6.02e-01	0	41	0	814743552	59	4890
2026-01-28 02:39:14.34	252.37	17.19	-44.1	-46.8	23.5	6.02e-01	0	41	0	816840704	59	4989
2026-01-28 02:39:15.34	252.20	17.09	-44.1	-46.7	23.5	6.02e-01	0	41	0	818413568	59	4941
2026-01-28 02:39:16.33	252.03	16.99	-44.1	-46.7	23.5	6.01e-01	0	41	0	820510720	59	4957
2026-01-28 02:39:17.32	251.86	16.90	-44.1	-46.7	23.3	6.04e-01	0	41	0	822083584	59	4975
2026-01-28 02:39:18.32	251.68	16.80	-44.1	-46.7	23.5	6.03e-01	0	41	0	824180736	59	4983
2026-01-28 02:39:19.31	251.52	16.70	-43.9	-46.5	23.6	6.04e-01	0	41	0	825753600	59	4864
2026-01-28 02:39:20.30	251.35	16.61	-43.8	-46.4	23.8	6.01e-01	0	41	0	827850752	59	4772
2026-01-28 02:39:21.30	251.18	16.51	-43.9	-46.4	23.7	6.01e-01	0	41	0	829947904	59	4804
2026-01-28 02:39:22.29	251.02	16.41	-44.0	-46.6	23.6	6.03e-01	0	41	0	831520768	59	4893
2026-01-28 02:39:23.28	250.86	16.32	-44.0	-46.6	23.5	6.04e-01	0	41	0	833617920	59	4916
2026-01-28 02:39:24.27	250.69	16.22	-44.0	-46.6	23.6	6.01e-01	0	41	0	835190784	59	4890
2026-01-28 02:39:25.27	250.53	16.13	-44.0	-46.6	23.6	6.03e-01	0	41	0	837287936	59	4876
2026-01-28 02:39:26.26	250.37	16.03	-44.0	-46.6	23.6	6.01e-01	0	42	0	838860800	59	4876
2026-01-28 02:39:27.25	250.21	15.94	-43.9	-46.5	23.6	6.01e-01	0	42	0	840957952	59	4867
2026-01-28 02:39:28.24	250.06	15.84	-44.1	-46.7	23.5	6.05e-01	0	41	0	842530816	59	4979
2026-01-28 02:39:29.24	249.90	15.75	-44.1	-46.8	23.4	6.00e-01	0	42	0	844627968	59	5003
2026-01-28 02:39:30.23	249.74	15.65	-44.1	-46.8	23.3	6.00e-01	0	41	0	846725120	59	5034
2026-01-28 02:39:31.22	249.59	15.56	-44.2	-46.9	23.2	6.01e-01	0	41	0	848297984	59	5063
2026-01-28 02:39:32.22	249.43	15.46	-44.0	-46.6	23.5	6.05e-01	0	41	0	850395136	59	4913
2026-01-28 02:39:33.21	249.28	15.37	-43.9	-46.5	23.6	6.04e-01	0	41	0	851968000	59	4845
2026-01-28 02:39:34.20	249.13	15.28	-44.0	-46.6	23.5	6.01e-01	0	41	0	854065152	59	4902
2026-01-28 02:39:35.20	248.98	15.18	-43.9	-46.5	23.6	5.98e-01	0	41	0	855638016	59	4852
2026-01-28 02:39:36.19	248.83	15.09	-44.1	-46.7	23.5	6.01e-01	0	41	0	857735168	59	4959
2026-01-28 02:39:37.18	248.68	14.99	-44.1	-46.7	23.4	6.03e-01	0	41	0	859308032	59	4975
2026-01-28 02:39:38.18	248.53	14.90	-44.1	-46.8	23.4	6.02e-01	0	41	0	861405184	59	4993
2026-01-28 02:39:39.17	248.39	14.81	-44.1	-46.8	23.4	6.01e-01	0	41	0	863502336	59	4997
2026-01-28 02:39:40.16	248.24	14.72	-44.1	-46.7	23.5	6.02e-01	0	42	0	865075200	59	4966
2026-01-28 02:39:41.15	248.10	14.62	-44.1	-46.7	23.4	6.03e-01	0	41	0	866648064	59	4954
2026-01-28 02:39:42.15	247.95	14.53	-44.0	-46.7	23.5	6.01e-01	0	41	0	868745216	59	4941
2026-01-28 02:39:43.14	247.81	14.44	-44.0	-46.6	23.5	6.04e-01	0	41	0	870842368	59	4919
2026-01-28 02:39:44.13	247.67	14.35	-44.0	-46.7	23.5	6.04e-01	0	42	0	872415232	59	4941
2026-01-28 02:39:45.13	247.53	14.26	-44.0	-46.6	23.6	6.02e-01	0	42	0	874512384	59	4885
2026-01-28 02:39:46.12	247.39	14.17	-44.1	-46.7	23.4	6.00e-01	0	42	0	876085248	59	4960
2026-01-28 02:39:47.11	247.25	14.07	-44.1	-46.8	23.4	5.99e-01	0	42	0	878182400	59	4997
2026-01-28 02:39:48.11	247.11	13.98	-44.2	-46.8	23.3	6.01e-01	0	42	0	879755264	59	5032
2026-01-28 02:39:49.10	246.97	13.89	-44.2	-46.9	23.3	6.04e-01	0	42	0	881852416	59	5058
2026-01-28 02:39:50.09	246.84	13.80	-44.3	-47.0	23.2	6.03e-01	0	42	0	883949568	59	5133
2026-01-28 02:39:51.08	246.70	13.71	-44.3	-47.0	23.2	5.98e-01	0	41	0	885522432	59	5108
2026-01-28 02:39:52.08	246.57	13.62	-44.2	-46.9	23.2	6.03e-01	0	42	0	887619584	59	5063
2026-01-28 02:39:53.07	246.43	13.53	-44.2	-46.9	23.2	5.99e-01	0	42	0	889192448	59	5054
2026-01-28 02:39:54.06	246.30	13.44	-44.0	-46.7	23.4	6.04e-01	0	41	0	891289600	59	4952
2026-01-28 02:39:55.05	246.17	13.35	-44.0	-46.7	23.4	6.03e-01	0	42	0	892862464	59	4953
2026-01-28 02:39:56.05	246.04	13.26	-44.1	-46.8	23.4	6.00e-01	0	42	0	894959616	59	4993
2026-01-28 02:39:57.04	245.91	13.18	-44.0	-46.7	23.4	6.01e-01	0	42	0	896532480	59	4947
2026-01-28 02:39:58.03	245.78	13.09	-44.1	-46.8	23.3	6.02e-01	0	41	0	898629632	59	5010
2026-01-28 02:39:59.03	245.65	13.00	-44.1	-46.9	23.3	6.07e-01	0	42	0	900726784	59	5054
2026-01-28 02:40:00.02	245.52	12.91	-44.2	-46.9	23.2	6.01e-01	0	42	0	902299648	59	5100
2026-01-28 02:40:01.01	245.40	12.82	-44.3	-47.0	23.1	6.01e-01	0	41	0	904396800	59	5148
2026-01-28 02:40:02.01	245.27	12.73	-44.4	-47.1	23.1	6.01e-01	0	42	0	905969664	59	5179
2026-01-28 02:40:03.00	245.14	12.65	-44.2	-46.9	23.2	6.04e-01	0	42	0	908066816	59	5087
2026-01-28 02:40:03.99	245.02	12.56	-44.4	-47.1	23.1	5.99e-01	0	41	0	909639680	59	5203
2026-01-28 02:40:04.98	244.90	12.47	-44.3	-46.9	23.2	6.02e-01	0	42	0	911736832	59	5089
2026-01-28 02:40:05.98	244.77	12.39	-44.3	-47.0	23.0	6.03e-01	0	42	0	913309696	59	5110
2026-01-28 02:40:06.97	244.65	12.30	-44.3	-47.0	23.1	6.01e-01	0	42	0	915406848	59	5137
2026-01-28 02:40:07.96	244.53	12.21	-44.4	-47.1	23.0	6.00e-01	0	42	0	917504000	59	5200
2026-01-28 02:40:08.96	244.41	12.13	-44.3	-47.0	23.2	6.00e-01	0	41	0	919076864	59	5110
2026-01-28 02:40:09.95	244.29	12.04	-44.4	-47.1	23.0	6.02e-01	0	41	0	920649728	59	5191
2026-01-28 02:40:10.94	244.17	11.95	-44.4	-47.1	23.0	6.04e-01	0	41	0	922746880	59	5192
2026-01-28 02:40:11.93	244.05	11.87	-44.5	-47.1	23.0	6.03e-01	0	41	0	924844032	59	5209
2026-01-28 02:40:12.93	243.94	11.78	-44.6	-47.3	22.8	6.01e-01	0	41	0	926416896	59	5305
2026-01-28 02:40:13.92	243.82	11.70	-44.5	-47.2	22.9	6.00e-01	0	42	0	928514048	59	5270
2026-01-28 02:40:14.91	243.70	11.61	-44.6	-47.3	22.9	6.05e-01	0	42	0	930086912	59	5291
2026-01-28 02:40:15.90	243.59	11.53	-44.6	-47.3	22.8	6.05e-01	0	41	0	932184064	59	5332
2026-01-28 02:40:16.90	243.47	11.44	-44.6	-47.3	22.8	6.03e-01	0	42	0	933756928	59	5311
2026-01-28 02:40:17.89	243.36	11.36	-44.5	-47.3	22.9	6.04e-01	0	41	0	935854080	59	5283
2026-01-28 02:40:18.88	243.25	11.28	-44.6	-47.3	22.8	6.01e-01	0	42	0	937426944	59	5328
2026-01-28 02:40:19.88	243.14	11.19	-44.5	-47.3	22.8	6.02e-01	0	42	0	939524096	59	5300
2026-01-28 02:40:20.87	243.02	11.11	-44.5	-47.3	22.9	6.02e-01	0	42	0	941621248	59	5292
2026-01-28 02:40:21.86	242.91	11.03	-44.5	-47.3	22.8	6.02e-01	0	42	0	943194112	59	5292
2026-01-28 02:40:22.86	242.80	10.94	-44.6	-47.4	22.6	6.02e-01	0	41	0	945291264	59	5387
2026-01-28 02:40:23.85	242.69	10.86	-44.5	-47.3	22.7	6.02e-01	0	42	0	946864128	59	5338
2026-01-28 02:40:24.84	242.58	10.78	-44.4	-47.3	22.7	6.02e-01	0	42	0	948961280	59	5325
2026-01-28 02:40:25.84	242.48	10.69	-44.4	-47.4	22.6	6.01e-01	0	42	0	950534144	59	5384
2026-01-28 02:40:26.83	242.37	10.61	-44.5	-47.5	22.6	6.01e-01	0	42	0	952631296	59	5429
2026-01-28 02:40:27.82	242.26	10.53	-44.5	-47.4	22.6	6.01e-01	0	42	0	954728448	59	5396
2026-01-28 02:40:28.82	242.16	10.45	-44.5	-47.4	22.7	6.02e-01	0	42	0	956301312	59	5376
2026-01-28 02:40:29.81	242.05	10.37	-44.5	-47.4	22.7	6.01e-01	0	42	0	957874176	59	5383
2026-01-28 02:40:30.80	241.95	10.28	-44.5	-47.4	22.7	6.01e-01	0	42	0	959971328	59	5346
2026-01-28 02:40:31.79	241.84	10.20	-44.6	-47.4	22.7	6.03e-01	0	42	0	962068480	59	5378
2026-01-28 02:40:32.79	241.74	10.12	-44.5	-47.3	22.7	6.03e-01	0	41	0	963641344	60	5020
2026-01-28 02:40:33.78	241.63	10.04	-44.5	-47.3	22.6	6.02e-01	0	41	0	965738496	60	5023
2026-01-28 02:40:34.77	241.53	9.96	-44.6	-47.4	22.5	6.03e-01	0	41	0	967311360	60	5085
2026-01-28 02:40:35.77	241.43	9.88	-44.7	-47.5	22.5	6.02e-01	0	42	0	969408512	60	5148
2026-01-28 02:40:36.76	241.33	9.80	-44.8	-47.6	22.3	6.00e-01	0	41	0	970981376	60	5217
2026-01-28 02:40:37.75	241.23	9.72	-44.8	-47.7	22.2	6.01e-01	0	41	0	973078528	60	5255
2026-01-28 02:40:38.75	241.13	9.64	-44.7	-47.6	22.3	6.03e-01	0	42	0	974651392	60	5208
2026-01-28 02:40:39.74	241.03	9.56	-44.7	-47.6	22.4	6.02e-01	0	42	0	976748544	60	5193
2026-01-28 02:40:40.73	240.93	9.48	-44.7	-47.6	22.3	6.02e-01	0	41	0	978845696	60	5211
2026-01-28 02:40:41.72	240.83	9.40	-44.7	-47.6	22.3	6.03e-01	0	41	0	980418560	60	5211
2026-01-28 02:40:42.72	240.74	9.32	-44.6	-47.4	22.5	6.03e-01	0	41	0	982515712	60	5077
2026-01-28 02:40:43.71	240.64	9.24	-44.5	-47.4	22.5	6.03e-01	0	42	0	984088576	60	5066
2026-01-28 02:40:44.70	240.54	9.17	-44.5	-47.3	22.5	6.04e-01	0	42	0	986185728	60	5032
2026-01-28 02:40:45.70	240.45	9.09	-44.5	-47.3	22.6	6.00e-01	0	41	0	987758592	60	5028
2026-01-28 02:40:46.69	240.35	9.01	-48.2	-53.2	18.2	6.01e-01	0	42	0	989855744	66	6987
2026-01-28 02:40:47.68	240.26	8.93	-50.3	-67.8	4.2	7.38e-01	0	42	104	990380032	72	26588
2026-01-28 02:40:48.68	240.16	8.85	-51.1	-71.1	3.8	7.45e-01	0	42	104	990380032	73	36789
2026-01-28 02:40:49.67	240.07	8.78	-51.2	-71.2	3.9	7.46e-01	0	41	104	990380032	73	36969
2026-01-28 02:40:50.66	239.98	8.70	-50.9	-71.2	3.8	7.45e-01	0	42	104	990380032	73	37355
2026-01-28 02:40:51.66	239.88	8.62	-50.7	-71.0	3.8	7.47e-01	0	42	104	990380032	73	36254
2026-01-28 02:40:52.65	239.79	8.54	-50.7	-71.0	3.8	7.47e-01	0	42	104	990380032	73	36306
2026-01-28 02:40:53.64	239.70	8.47	-50.3	-71.0	3.8	7.43e-01	0	42	104	990380032	72	38448
2026-01-28 02:40:54.63	239.61	8.39	-50.8	-70.7	3.8	7.47e-01	0	42	104	990380032	72	37031
2026-01-28 02:40:55.63	239.52	8.31	-50.9	-70.5	3.9	7.44e-01	0	42	104	990380032	72	36225
2026-01-28 02:40:56.62	239.43	8.24	-50.9	-70.6	3.8	7.46e-01	0	42	104	990380032	72	36701
2026-01-28 02:40:57.61	239.34	8.16	-50.0	-70.9	3.8	7.43e-01	0	41	104	990380032	72	38175
2026-01-28 02:40:58.61	239.25	8.09	-50.3	-71.1	3.8	7.48e-01	0	42	104	990380032	72	39076
2026-01-28 02:40:59.60	239.16	8.01	-50.5	-71.2	3.8	7.47e-01	0	42	104	990380032	72	39448
2026-01-28 02:41:00.59	239.08	7.94	-50.8	-71.2	3.8	7.51e-01	0	42	104	990380032	72	39459
2026-01-28 02:41:01.59	238.99	7.86	-51.0	-71.2	3.8	7.46e-01	0	41	104	990380032	72	39380
2026-01-28 02:41:02.58	238.90	7.79	-50.7	-71.2	3.8	7.44e-01	0	42	104	990380032	72	39276
2026-01-28 02:41:03.57	238.82	7.71	-50.1	-71.1	3.8	7.44e-01	0	42	104	990380032	72	39019
2026-01-28 02:41:04.57	238.73	7.64	-50.1	-71.1	3.8	7.46e-01	0	41	104	990380032	72	38963
2026-01-28 02:41:05.56	238.64	7.56	-50.1	-71.1	3.8	7.47e-01	0	42	104	990380032	72	38852
2026-01-28 02:41:06.55	238.56	7.49	-50.1	-71.0	3.8	7.47e-01	0	42	104	990380032	72	38646
2026-01-28 02:41:07.55	238.47	7.41	-50.1	-71.0	3.8	7.45e-01	0	42	104	990380032	72	38569
2026-01-28 02:41:08.54	238.39	7.34	-50.1	-71.0	3.8	7.48e-01	0	42	104	990380032	72	38575
2026-01-28 02:41:09.53	238.31	7.27	-50.1	-71.0	3.8	7.48e-01	0	42	104	990380032	72	38623
2026-01-28 02:41:10.52	238.23	7.19	-50.1	-71.0	3.8	7.46e-01	0	42	104	990380032	72	38660
2026-01-28 02:41:11.52	238.14	7.12	-50.0	-71.0	3.8	7.45e-01	0	42	104	990380032	72	38604
2026-01-28 02:41:12.51	238.06	7.05	-50.1	-71.0	3.8	7.45e-01	0	42	104	990380032	72	38544
2026-01-28 02:41:13.50	237.98	6.97	-50.0	-71.0	3.8	7.44e-01	0	42	104	990380032	72	38669
2026-01-28 02:41:14.50	237.90	6.90	-50.0	-71.0	3.8	7.44e-01	0	42	104	990380032	72	38602
2026-01-28 02:41:15.49	237.82	6.83	-50.0	-71.0	3.8	7.43e-01	0	42	104	990380032	72	38544
2026-01-28 02:41:16.48	237.74	6.75	-50.0	-71.0	3.8	7.46e-01	0	42	104	990380032	72	38442
2026-01-28 02:41:17.47	237.66	6.68	-50.0	-71.0	3.8	7.44e-01	0	42	104	990380032	72	38536
2026-01-28 02:41:18.47	237.58	6.61	-50.0	-71.0	3.8	7.45e-01	0	42	104	990380032	72	38543
2026-01-28 02:41:19.46	237.50	6.54	-50.0	-71.0	3.8	7.42e-01	0	42	104	990380032	72	38527
2026-01-28 02:41:20.45	237.42	6.47	-50.0	-71.0	3.8	7.46e-01	0	42	104	990380032	72	38577
2026-01-28 02:41:21.45	237.34	6.39	-50.0	-71.0	3.8	7.48e-01	0	42	104	990380032	72	38640
2026-01-28 02:41:22.44	237.27	6.32	-50.0	-71.1	3.8	7.45e-01	0	42	104	990380032	72	38771
2026-01-28 02:41:23.43	237.19	6.25	-50.1	-71.1	3.8	7.47e-01	0	42	104	990380032	72	38772
2026-01-28 02:41:24.43	237.11	6.18	-50.0	-71.1	3.8	7.48e-01	0	42	104	990380032	72	38869
2026-01-28 02:41:25.42	237.04	6.11	-50.1	-71.1	3.8	7.47e-01	0	42	104	990380032	72	38748
2026-01-28 02:41:26.41	236.96	6.04	-50.0	-71.1	3.8	7.43e-01	0	42	104	990380032	72	38866
2026-01-28 02:41:27.40	236.89	5.97	-50.1	-71.1	3.8	7.44e-01	0	42	104	990380032	72	38730
2026-01-28 02:41:28.39	236.81	5.90	-50.1	-71.1	3.8	7.46e-01	0	42	104	990380032	72	38851
2026-01-28 02:41:29.39	236.74	5.83	-50.1	-71.1	3.8	7.48e-01	0	42	104	990380032	72	38733
2026-01-28 02:41:30.38	236.66	5.76	-50.1	-71.1	3.8	7.44e-01	0	42	104	990380032	72	38805
2026-01-28 02:41:31.37	236.59	5.69	-50.1	-71.1	3.8	7.47e-01	0	42	104	990380032	72	38722
2026-01-28 02:41:32.37	236.51	5.62	-50.0	-71.1	3.8	7.48e-01	0	42	104	990380032	72	38764
2026-01-28 02:41:33.36	236.44	5.55	-50.0	-71.0	3.8	7.43e-01	0	42	104	990380032	72	38650
2026-01-28 02:41:34.35	236.37	5.48	-50.0	-71.1	3.8	7.47e-01	0	42	104	990380032	72	38723
2026-01-28 02:41:35.34	236.30	5.41	-50.0	-71.1	3.8	7.46e-01	0	42	104	990380032	72	38718
2026-01-28 02:41:36.34	236.22	5.34	-50.0	-71.1	3.8	7.46e-01	0	42	104	990380032	72	38753
2026-01-28 02:41:37.33	236.15	5.27	-50.0	-71.1	3.8	7.49e-01	0	42	104	990380032	72	38716
2026-01-28 02:41:38.32	236.08	5.20	-50.0	-71.0	3.8	7.48e-01	0	42	104	990380032	72	38622
2026-01-28 02:41:39.31	236.01	5.14	-50.0	-71.1	3.8	7.48e-01	0	42	104	990380032	72	38717
2026-01-28 02:41:40.31	235.94	5.07	-50.0	-71.1	3.8	7.44e-01	0	42	104	990380032	72	38699
2026-01-28 02:41:41.30	235.87	5.00	-50.0	-71.0	3.8	7.47e-01	0	42	104	990380032	72	38673
2026-01-28 02:41:42.29	235.80	4.93	-50.0	-71.1	3.8	7.47e-01	0	42	104	990380032	72	38711

#Closed at: 2026-01-28 02:41:43
#Recorded file [990 MB]: D:/Data/31040_260128_053122.dat