passes_logs/2026/01/28/T1/T1__20260128_095235_NOAA_21_JPSS-2_rec.log

#Pass ID: 20260128_095235_NOAA 21 (JPSS-2)
#Satellite: NOAA 21 (JPSS-2)
#Configuration: NOAA 21
#almurnet v.1.7.20251203
#Start time: 2026-01-28 09:52:35

#Version: 2.0.20230620
#Station: T1
#Location: 37.570604 lon 55.790049 lat
#TLE: 1 54234U 22150A   26027.55906748  .00000170  00000+0  10132-3 0  9996
#TLE: 2 54234  98.7510 328.3076 0000860 204.4692 155.6443 14.19540154166599

#Time	Az	El	Level	Level2	SNR	BER	BlckErr	Temp	State	Recorded	gain1	gain2
2026-01-28 09:52:35.49	158.63	5.02	-49.7	-63.0	3.8	1.49e+00	0	42	0	0	70	17159
2026-01-28 09:52:36.48	158.63	5.09	-50.0	-63.0	3.8	1.49e+00	0	42	104	0	71	16308
2026-01-28 09:52:37.47	158.63	5.16	-50.1	-63.0	3.8	1.49e+00	0	42	104	0	71	16285
2026-01-28 09:52:38.46	158.62	5.23	-49.8	-63.0	3.8	1.49e+00	0	42	104	0	71	16291
2026-01-28 09:52:39.46	158.62	5.31	-50.0	-63.0	3.8	1.49e+00	0	42	104	0	71	16223
2026-01-28 09:52:40.45	158.62	5.38	-49.9	-63.0	3.8	1.49e+00	0	42	104	0	71	16290
2026-01-28 09:52:41.44	158.62	5.45	-49.6	-63.0	3.8	1.49e+00	0	42	104	0	71	16281
2026-01-28 09:52:42.43	158.62	5.52	-49.9	-63.0	3.8	1.49e+00	0	42	104	0	70	17224
2026-01-28 09:52:43.43	158.62	5.60	-49.9	-63.0	3.8	1.49e+00	0	42	104	0	70	17097
2026-01-28 09:52:44.42	158.62	5.67	-50.0	-63.0	3.8	1.49e+00	0	42	104	0	70	17110
2026-01-28 09:52:45.41	158.62	5.74	-49.9	-62.9	3.8	1.49e+00	0	42	104	0	70	17055
2026-01-28 09:52:46.41	158.61	5.82	-49.8	-62.9	3.8	1.49e+00	0	42	104	0	70	17002
2026-01-28 09:52:47.40	158.61	5.89	-49.8	-62.9	3.8	1.49e+00	0	42	104	0	70	16929
2026-01-28 09:52:48.39	158.61	5.96	-49.8	-62.8	3.8	1.49e+00	0	42	104	0	70	16832
2026-01-28 09:52:49.39	158.61	6.04	-49.7	-62.7	3.8	1.49e+00	0	42	104	0	70	16608
2026-01-28 09:52:50.38	158.61	6.11	-49.3	-62.7	3.8	1.49e+00	0	42	104	0	70	16617
2026-01-28 09:52:51.37	158.61	6.18	-49.6	-62.7	3.8	1.49e+00	0	42	104	0	70	16623
2026-01-28 09:52:52.36	158.60	6.26	-49.3	-62.7	3.8	1.49e+00	0	42	104	0	70	16555
2026-01-28 09:52:53.36	158.60	6.33	-49.5	-62.6	3.8	1.49e+00	0	43	104	0	70	16481
2026-01-28 09:52:54.35	158.60	6.41	-49.3	-62.6	3.8	1.49e+00	0	43	104	0	70	16410
2026-01-28 09:52:55.34	158.60	6.48	-49.1	-62.5	3.8	1.49e+00	0	42	104	0	70	16235
2026-01-28 09:52:56.34	158.60	6.56	-48.9	-62.4	3.8	1.49e+00	0	42	104	0	69	16934
2026-01-28 09:52:57.33	158.60	6.64	-49.1	-62.3	3.8	1.49e+00	0	42	104	0	69	16714
2026-01-28 09:52:58.32	158.59	6.71	-49.2	-62.1	3.8	1.49e+00	0	43	104	0	69	16356
2026-01-28 09:52:59.31	158.59	6.79	-49.1	-61.5	3.8	1.49e+00	0	42	104	0	69	15337
2026-01-28 09:53:00.31	158.59	6.87	-49.1	-61.5	3.8	1.49e+00	0	43	104	0	69	15380
2026-01-28 09:53:01.30	158.59	6.94	-49.0	-61.4	3.8	1.49e+00	0	43	104	0	69	15220
2026-01-28 09:53:02.29	158.59	7.02	-49.0	-61.2	3.8	1.49e+00	0	43	104	0	69	14846
2026-01-28 09:53:03.29	158.59	7.10	-49.0	-61.0	3.8	1.49e+00	0	42	104	0	69	14398
2026-01-28 09:53:04.28	158.58	7.17	-48.9	-60.4	3.8	1.49e+00	0	43	104	0	69	13545
2026-01-28 09:53:05.27	158.58	7.25	-48.8	-59.1	4.1	1.48e+00	0	43	104	0	69	11674
2026-01-28 09:53:06.26	158.58	7.33	-48.7	-58.1	4.4	1.46e+00	0	43	104	0	69	10320
2026-01-28 09:53:07.26	158.58	7.41	-48.0	-56.6	4.9	8.26e-01	0	43	0	0	68	9195
2026-01-28 09:53:08.25	158.58	7.49	-48.2	-55.6	5.7	4.82e-01	0	43	0	0	68	8218
2026-01-28 09:53:09.24	158.57	7.56	-47.7	-54.1	6.7	2.19e-01	0	43	0	0	67	7361
2026-01-28 09:53:10.24	158.57	7.64	-47.3	-53.0	7.8	1.15e-01	0	43	0	0	66	6841
2026-01-28 09:53:11.23	158.57	7.72	-46.9	-52.0	8.7	4.13e-02	0	43	0	0	65	6453
2026-01-28 09:53:12.22	158.57	7.80	-46.5	-51.1	9.7	1.27e-02	0	43	0	0	65	5806
2026-01-28 09:53:13.22	158.57	7.88	-46.1	-50.3	10.5	4.62e-03	0	43	0	0	64	5616
2026-01-28 09:53:14.21	158.56	7.96	-45.8	-49.7	11.3	1.79e-03	0	43	0	0	63	5541
2026-01-28 09:53:15.20	158.56	8.04	-45.6	-49.2	11.8	6.27e-04	0	43	0	0	63	5252
2026-01-28 09:53:16.20	158.56	8.12	-45.4	-48.9	12.2	3.36e-04	0	43	0	0	62	5342
2026-01-28 09:53:17.19	158.56	8.20	-45.2	-48.6	12.4	1.59e-04	0	43	0	0	62	5209
2026-01-28 09:53:18.18	158.56	8.28	-45.2	-48.6	12.4	1.50e-04	0	43	0	0	62	5183
2026-01-28 09:53:19.17	158.55	8.36	-45.3	-48.8	12.2	1.59e-04	0	43	0	0	62	5320
2026-01-28 09:53:20.17	158.55	8.44	-45.5	-49.0	12.0	3.00e-04	0	43	0	0	62	5463
2026-01-28 09:53:21.16	158.55	8.53	-45.8	-49.5	11.4	7.52e-04	0	43	0	0	62	5788
2026-01-28 09:53:22.15	158.55	8.61	-46.1	-50.2	10.7	2.23e-03	0	43	0	0	62	6239
2026-01-28 09:53:23.14	158.54	8.69	-46.6	-51.1	9.8	8.81e-03	0	43	0	0	63	6541
2026-01-28 09:53:24.14	158.54	8.77	-46.9	-52.1	8.7	2.16e-02	0	43	0	0	64	6890
2026-01-28 09:53:25.13	158.54	8.86	-47.5	-53.4	7.4	8.25e-02	0	43	0	0	65	7591
2026-01-28 09:53:26.12	158.54	8.94	-47.9	-54.9	6.1	2.59e-01	0	43	0	0	66	8473
2026-01-28 09:53:27.11	158.54	9.02	-48.3	-56.4	5.1	6.28e-01	0	43	0	0	67	9585
2026-01-28 09:53:28.11	158.53	9.11	-44.4	-47.4	13.7	1.52e-04	0	43	0	0	60	5078
2026-01-28 09:53:29.10	158.53	9.19	-48.8	-60.4	3.8	1.13e+00	0	43	104	0	68	14280
2026-01-28 09:53:30.10	158.53	9.27	-47.3	-52.7	8.0	1.14e-01	0	43	0	0	66	6641
2026-01-28 09:53:31.09	158.53	9.36	-42.9	-45.3	15.8	0.00e+00	0	43	0	0	57	4706
2026-01-28 09:53:32.08	158.52	9.44	-49.0	-62.2	3.8	1.49e+00	0	43	104	0	68	17586
2026-01-28 09:53:33.07	158.52	9.53	-43.1	-45.5	15.5	5.79e-01	0	43	0	0	58	4587
2026-01-28 09:53:34.07	158.52	9.61	-42.1	-44.3	16.7	0.00e+00	0	43	0	0	56	4471
2026-01-28 09:53:35.06	158.51	9.70	-41.6	-43.8	17.1	3.07e-02	0	43	0	0	55	4448
2026-01-28 09:53:36.05	158.51	9.78	-41.7	-43.8	17.1	0.00e+00	0	43	0	0	55	4480
2026-01-28 09:53:37.04	158.51	9.87	-41.7	-43.8	17.1	0.00e+00	0	43	0	0	55	4452
2026-01-28 09:53:38.04	158.51	9.96	-41.5	-43.5	17.3	2.29e-02	0	43	0	0	55	4329
2026-01-28 09:53:39.03	158.50	10.04	-41.4	-43.4	17.4	0.00e+00	0	43	0	0	54	4544
2026-01-28 09:53:40.02	158.50	10.13	-41.4	-43.4	17.5	0.00e+00	0	43	0	0	54	4525
2026-01-28 09:53:41.02	158.50	10.22	-41.2	-43.2	17.6	0.00e+00	0	43	0	0	54	4436
2026-01-28 09:53:42.01	158.50	10.30	-41.0	-43.0	17.8	0.00e+00	0	43	0	0	54	4319
2026-01-28 09:53:43.00	158.49	10.39	-40.8	-42.7	18.1	0.00e+00	0	43	0	0	53	4431
2026-01-28 09:53:43.99	158.49	10.48	-40.7	-42.6	18.2	0.00e+00	0	43	0	0	53	4371
2026-01-28 09:53:44.99	158.49	10.57	-40.6	-42.5	18.3	0.00e+00	0	43	0	0	53	4330
2026-01-28 09:53:45.98	158.48	10.66	-40.6	-42.5	18.2	0.00e+00	0	43	0	0	53	4339
2026-01-28 09:53:46.97	158.48	10.75	-40.5	-42.4	18.4	0.00e+00	0	43	0	0	53	4284
2026-01-28 09:53:47.97	158.48	10.84	-40.5	-42.4	18.4	0.00e+00	0	43	0	0	53	4265
2026-01-28 09:53:48.96	158.47	10.93	-40.5	-42.4	18.5	0.00e+00	0	43	0	0	52	4497
2026-01-28 09:53:49.95	158.47	11.02	-40.4	-42.4	18.5	0.00e+00	0	43	0	0	52	4499
2026-01-28 09:53:50.94	158.47	11.11	-40.5	-42.3	18.5	0.00e+00	0	43	0	0	52	4493
2026-01-28 09:53:51.94	158.46	11.20	-40.5	-42.4	18.5	0.00e+00	0	43	0	0	52	4497
2026-01-28 09:53:52.93	158.46	11.29	-40.4	-42.3	18.5	0.00e+00	0	43	0	0	52	4459
2026-01-28 09:53:53.92	158.46	11.38	-40.5	-42.4	18.4	0.00e+00	0	43	0	0	52	4514
2026-01-28 09:53:54.92	158.45	11.47	-40.4	-42.2	18.5	2.51e-02	0	43	0	0	52	4439
2026-01-28 09:53:55.91	158.45	11.57	-40.3	-42.2	18.6	0.00e+00	0	43	0	0	52	4423
2026-01-28 09:53:56.90	158.45	11.66	-40.2	-42.1	18.7	0.00e+00	0	43	0	0	52	4367
2026-01-28 09:53:57.90	158.44	11.75	-40.3	-42.2	18.6	1.89e-02	0	43	0	0	52	4406
2026-01-28 09:53:58.89	158.44	11.85	-40.4	-42.3	18.6	0.00e+00	0	43	0	0	52	4457
2026-01-28 09:53:59.88	158.44	11.94	-40.3	-42.2	18.7	0.00e+00	0	43	0	0	52	4392
2026-01-28 09:54:00.87	158.43	12.03	-40.2	-42.0	18.8	1.60e-02	0	43	0	0	52	4319
2026-01-28 09:54:01.87	158.43	12.13	-40.2	-42.1	18.8	0.00e+00	0	43	0	0	52	4344
2026-01-28 09:54:02.86	158.43	12.22	-40.3	-42.1	18.7	0.00e+00	0	43	0	0	52	4382
2026-01-28 09:54:03.85	158.42	12.32	-40.2	-42.0	18.8	0.00e+00	0	43	0	0	52	4332
2026-01-28 09:54:04.85	158.42	12.41	-40.2	-42.0	18.8	0.00e+00	0	43	0	0	52	4315
2026-01-28 09:54:05.84	158.42	12.51	-40.2	-42.1	18.8	0.00e+00	0	43	0	0	52	4342
2026-01-28 09:54:06.83	158.41	12.60	-40.1	-41.9	18.9	0.00e+00	0	43	0	0	52	4283
2026-01-28 09:54:07.83	158.41	12.70	-40.0	-41.8	19.0	0.00e+00	0	43	0	0	52	4217
2026-01-28 09:54:08.82	158.40	12.80	-40.1	-41.9	18.9	0.00e+00	0	43	0	0	52	4268
2026-01-28 09:54:09.81	158.40	12.90	-40.1	-42.0	18.9	0.00e+00	0	43	0	0	52	4296
2026-01-28 09:54:10.80	158.40	12.99	-40.2	-42.0	18.8	0.00e+00	0	43	0	0	52	4328
2026-01-28 09:54:11.80	158.39	13.09	-40.2	-42.0	18.8	0.00e+00	0	43	0	0	52	4329
2026-01-28 09:54:12.79	158.39	13.19	-40.1	-41.9	18.9	0.00e+00	0	43	0	0	52	4263
2026-01-28 09:54:13.78	158.38	13.29	-40.1	-41.9	18.9	0.00e+00	0	43	0	0	52	4274
2026-01-28 09:54:14.78	158.38	13.39	-40.0	-41.8	19.1	0.00e+00	0	43	0	0	51	4479
2026-01-28 09:54:15.77	158.38	13.49	-40.0	-41.8	19.1	0.00e+00	0	43	0	0	51	4489
2026-01-28 09:54:16.76	158.37	13.59	-40.0	-41.8	19.1	0.00e+00	0	43	0	0	51	4487
2026-01-28 09:54:17.75	158.37	13.69	-40.0	-41.8	19.1	0.00e+00	0	43	0	0	51	4474
2026-01-28 09:54:18.74	158.36	13.79	-39.9	-41.7	19.2	0.00e+00	0	43	0	0	51	4414
2026-01-28 09:54:19.74	158.36	13.89	-40.0	-41.8	19.1	0.00e+00	0	43	0	0	51	4474
2026-01-28 09:54:20.73	158.35	13.99	-40.1	-42.0	15.6	0.00e+00	0	43	0	0	51	4553
2026-01-28 09:54:21.72	158.35	14.10	-40.0	-41.8	19.1	0.00e+00	0	43	0	0	51	4488
2026-01-28 09:54:22.72	158.34	14.20	-40.0	-41.8	19.1	0.00e+00	0	43	0	0	51	4464
2026-01-28 09:54:23.71	158.34	14.30	-40.0	-41.8	19.1	0.00e+00	0	43	0	0	51	4478
2026-01-28 09:54:24.70	158.34	14.41	-40.0	-41.8	19.2	0.00e+00	0	43	0	0	51	4458
2026-01-28 09:54:25.70	158.33	14.51	-40.0	-41.8	19.2	0.00e+00	0	43	0	0	51	4451
2026-01-28 09:54:26.69	158.33	14.62	-39.9	-41.7	19.2	3.00e-06	0	43	0	0	51	4441
2026-01-28 09:54:27.68	158.32	14.72	-39.9	-41.8	19.2	0.00e+00	0	43	0	0	51	4446
2026-01-28 09:54:28.68	158.32	14.83	-39.9	-41.7	19.3	0.00e+00	0	43	0	0	51	4405
2026-01-28 09:54:29.67	158.31	14.93	-40.0	-41.8	19.1	0.00e+00	0	43	0	0	51	4465
2026-01-28 09:54:30.66	158.31	15.04	-39.9	-41.7	19.2	0.00e+00	0	43	0	0	51	4422
2026-01-28 09:54:31.66	158.30	15.15	-39.9	-41.7	19.2	0.00e+00	0	43	0	0	51	4419
2026-01-28 09:54:32.65	158.30	15.25	-39.8	-41.6	19.3	0.00e+00	0	43	0	0	51	4375
2026-01-28 09:54:33.64	158.29	15.36	-39.9	-41.7	19.2	0.00e+00	0	43	0	0	51	4414
2026-01-28 09:54:34.64	158.29	15.47	-39.8	-41.6	19.3	0.00e+00	0	43	0	0	51	4367
2026-01-28 09:54:35.63	158.28	15.58	-39.9	-41.7	19.2	0.00e+00	0	43	0	0	51	4417
2026-01-28 09:54:36.62	158.28	15.69	-39.8	-41.6	19.3	0.00e+00	0	44	0	0	51	4378
2026-01-28 09:54:37.61	158.27	15.80	-39.8	-41.7	19.3	0.00e+00	0	43	0	0	51	4393
2026-01-28 09:54:38.61	158.26	15.91	-39.8	-41.7	19.3	0.00e+00	0	43	0	0	51	4399
2026-01-28 09:54:39.60	158.26	16.02	-39.8	-41.6	19.3	0.00e+00	0	44	0	0	51	4384
2026-01-28 09:54:40.59	158.25	16.13	-39.8	-41.7	19.3	0.00e+00	0	43	0	0	51	4396
2026-01-28 09:54:41.58	158.25	16.24	-39.8	-41.7	19.3	0.00e+00	0	43	0	0	51	4399
2026-01-28 09:54:42.58	158.24	16.35	-39.9	-41.8	19.2	0.00e+00	0	43	0	0	51	4443
2026-01-28 09:54:43.57	158.24	16.47	-39.9	-41.7	19.3	0.00e+00	0	44	0	0	51	4436
2026-01-28 09:54:44.56	158.23	16.58	-39.9	-41.8	19.2	0.00e+00	0	43	0	0	51	4456
2026-01-28 09:54:45.56	158.22	16.69	-40.0	-41.8	19.1	0.00e+00	0	43	0	0	51	4491
2026-01-28 09:54:46.55	158.22	16.81	-40.0	-41.8	19.2	0.00e+00	0	43	0	0	51	4455
2026-01-28 09:54:47.54	158.21	16.92	-40.0	-41.8	19.1	0.00e+00	0	44	0	0	51	4490
2026-01-28 09:54:48.53	158.21	17.04	-39.9	-41.7	19.2	0.00e+00	0	43	0	0	51	4432
2026-01-28 09:54:49.53	158.20	17.15	-39.9	-41.7	18.5	0.00e+00	0	43	0	0	51	4432
2026-01-28 09:54:50.52	158.19	17.27	-39.9	-41.7	19.3	0.00e+00	0	44	0	0	51	4414
2026-01-28 09:54:51.51	158.19	17.39	-40.0	-41.8	19.2	0.00e+00	0	43	0	0	51	4471
2026-01-28 09:54:52.51	158.18	17.50	-40.0	-41.8	19.2	0.00e+00	0	43	0	0	51	4472
2026-01-28 09:54:53.50	158.18	17.62	-40.0	-41.8	19.2	0.00e+00	0	43	0	0	51	4480
2026-01-28 09:54:54.49	158.17	17.74	-40.0	-41.8	19.1	0.00e+00	0	44	0	0	51	4491
2026-01-28 09:54:55.48	158.16	17.86	-40.1	-41.9	19.1	0.00e+00	0	43	0	0	51	4512
2026-01-28 09:54:56.48	158.16	17.98	-40.1	-42.0	19.0	0.00e+00	0	44	0	0	51	4558
2026-01-28 09:54:57.47	158.15	18.10	-40.1	-41.9	19.1	0.00e+00	0	43	0	0	51	4504
2026-01-28 09:54:58.46	158.14	18.22	-40.1	-41.9	19.1	0.00e+00	0	44	0	0	51	4523
2026-01-28 09:54:59.45	158.14	18.34	-40.2	-42.0	19.0	0.00e+00	0	44	0	0	51	4569
2026-01-28 09:55:00.45	158.13	18.47	-40.2	-42.0	19.0	0.00e+00	0	43	0	0	51	4575
2026-01-28 09:55:01.44	158.12	18.59	-40.1	-41.9	19.0	0.00e+00	0	44	0	0	51	4543
2026-01-28 09:55:02.43	158.11	18.71	-40.1	-41.9	19.0	0.00e+00	0	43	0	0	51	4545
2026-01-28 09:55:03.43	158.11	18.84	-40.1	-41.9	19.1	0.00e+00	0	43	0	0	51	4543
2026-01-28 09:55:04.42	158.10	18.96	-40.1	-41.9	19.1	0.00e+00	0	43	0	0	51	4545
2026-01-28 09:55:05.41	158.09	19.09	-40.0	-41.9	19.1	0.00e+00	0	44	0	0	51	4507
2026-01-28 09:55:06.41	158.08	19.21	-40.0	-41.9	19.1	0.00e+00	0	43	0	0	51	4506
2026-01-28 09:55:07.40	158.08	19.34	-40.1	-42.0	19.0	0.00e+00	0	44	0	0	51	4555
2026-01-28 09:55:08.39	158.07	19.47	-40.1	-41.9	19.1	0.00e+00	0	44	0	0	51	4524
2026-01-28 09:55:09.39	158.06	19.60	-40.0	-41.9	19.1	0.00e+00	0	43	0	0	51	4503
2026-01-28 09:55:10.38	158.05	19.73	-40.1	-41.9	19.1	0.00e+00	0	43	0	0	51	4544
2026-01-28 09:55:11.37	158.05	19.85	-40.1	-41.9	19.1	0.00e+00	0	44	0	0	51	4528
2026-01-28 09:55:12.36	158.04	19.98	-40.0	-41.9	19.2	0.00e+00	0	43	0	0	51	4497
2026-01-28 09:55:13.36	158.03	20.12	-39.9	-41.7	19.3	0.00e+00	0	44	0	0	51	4410
2026-01-28 09:55:14.35	158.02	20.25	-39.9	-41.7	19.3	0.00e+00	0	44	0	0	51	4429
2026-01-28 09:55:15.34	158.01	20.38	-39.9	-41.7	19.3	0.00e+00	0	43	0	0	51	4419
2026-01-28 09:55:16.33	158.01	20.51	-40.0	-41.8	19.2	0.00e+00	0	44	0	0	51	4448
2026-01-28 09:55:17.33	158.00	20.65	-39.7	-41.5	19.4	0.00e+00	0	44	0	0	51	4337
2026-01-28 09:55:18.32	157.99	20.78	-39.7	-41.5	19.5	0.00e+00	0	43	0	0	51	4300
2026-01-28 09:55:19.31	157.98	20.91	-39.7	-41.5	19.6	0.00e+00	0	44	0	0	51	4302
2026-01-28 09:55:20.30	157.97	21.05	-39.5	-41.3	19.7	0.00e+00	0	43	0	0	51	4206
2026-01-28 09:55:21.30	157.96	21.19	-39.5	-41.2	19.8	0.00e+00	0	43	0	0	50	4421
2026-01-28 09:55:22.29	157.95	21.32	-39.4	-41.2	19.8	0.00e+00	0	43	0	0	50	4407
2026-01-28 09:55:23.28	157.94	21.46	-39.4	-41.1	19.9	0.00e+00	0	43	0	0	50	4391
2026-01-28 09:55:24.28	157.94	21.60	-39.3	-41.1	19.9	0.00e+00	0	43	0	0	50	4350
2026-01-28 09:55:25.27	157.93	21.74	-39.3	-41.0	19.9	0.00e+00	0	44	0	0	50	4327
2026-01-28 09:55:26.26	157.92	21.88	-39.3	-41.0	20.0	0.00e+00	0	43	0	0	50	4292
2026-01-28 09:55:27.26	157.91	22.02	-39.2	-40.8	20.1	0.00e+00	0	44	0	0	50	4241
2026-01-28 09:55:28.25	157.90	22.16	-39.1	-40.7	20.2	0.00e+00	0	43	0	0	50	4186
2026-01-28 09:55:29.24	157.89	22.30	-39.0	-40.7	20.2	0.00e+00	0	43	0	0	50	4153
2026-01-28 09:55:30.23	157.88	22.45	-38.9	-40.5	20.3	0.00e+00	0	43	0	0	49	4328
2026-01-28 09:55:31.23	157.87	22.59	-38.9	-40.6	20.3	0.00e+00	0	44	0	0	49	4367
2026-01-28 09:55:32.22	157.86	22.74	-39.0	-40.7	20.2	0.00e+00	0	43	0	0	49	4414
2026-01-28 09:55:33.21	157.85	22.88	-38.9	-40.6	20.3	0.00e+00	0	44	0	0	49	4350
2026-01-28 09:55:34.21	157.84	23.03	-38.7	-40.4	20.5	0.00e+00	0	44	0	0	49	4254
2026-01-28 09:55:35.20	157.83	23.18	-38.6	-40.3	20.5	0.00e+00	0	44	0	0	49	4213
2026-01-28 09:55:36.19	157.82	23.33	-38.7	-40.3	20.5	0.00e+00	0	43	0	0	49	4220
2026-01-28 09:55:37.19	157.81	23.48	-38.6	-40.2	20.6	0.00e+00	0	44	0	0	49	4176
2026-01-28 09:55:38.18	157.80	23.63	-38.5	-40.1	20.6	0.00e+00	0	43	0	0	49	4140
2026-01-28 09:55:39.17	157.78	23.78	-38.5	-40.1	20.7	0.00e+00	0	43	0	0	48	4354
2026-01-28 09:55:40.16	157.77	23.93	-38.6	-40.2	20.6	0.00e+00	0	43	0	0	48	4412
2026-01-28 09:55:41.16	157.76	24.08	-38.4	-40.1	20.7	0.00e+00	0	43	0	0	48	4349
2026-01-28 09:55:42.15	157.75	24.23	-38.4	-40.0	20.7	0.00e+00	0	44	0	0	48	4324
2026-01-28 09:55:43.14	157.74	24.39	-38.4	-40.0	20.7	0.00e+00	0	44	0	0	48	4324
2026-01-28 09:55:44.13	157.73	24.54	-38.4	-40.0	20.7	0.00e+00	0	43	0	0	48	4338
2026-01-28 09:55:45.13	157.72	24.70	-38.4	-40.0	20.7	0.00e+00	0	44	0	0	48	4319
2026-01-28 09:55:46.12	157.70	24.86	-38.5	-40.1	20.7	0.00e+00	0	43	0	0	48	4364
2026-01-28 09:55:47.11	157.69	25.02	-38.6	-40.2	20.6	0.00e+00	0	44	0	0	48	4410
2026-01-28 09:55:48.11	157.68	25.18	-38.6	-40.2	20.6	0.00e+00	0	43	0	0	48	4417
2026-01-28 09:55:49.10	157.67	25.34	-38.6	-40.2	20.6	0.00e+00	0	44	0	0	48	4431
2026-01-28 09:55:50.09	157.65	25.50	-38.6	-40.2	20.6	0.00e+00	0	43	0	0	48	4437
2026-01-28 09:55:51.08	157.64	25.66	-38.6	-40.3	20.6	0.00e+00	0	44	0	0	48	4443
2026-01-28 09:55:52.08	157.63	25.82	-38.6	-40.2	20.6	0.00e+00	0	44	0	0	48	4441
2026-01-28 09:55:53.07	157.62	25.99	-38.7	-40.4	20.4	0.00e+00	0	43	0	0	48	4504
2026-01-28 09:55:54.06	157.60	26.15	-38.8	-40.5	20.4	0.00e+00	0	44	0	0	48	4550
2026-01-28 09:55:55.06	157.59	26.32	-38.9	-40.6	20.2	0.00e+00	0	44	0	0	48	4628
2026-01-28 09:55:56.05	157.58	26.48	-39.1	-40.7	20.2	0.00e+00	0	44	0	0	48	4689
2026-01-28 09:55:57.04	157.56	26.65	-39.1	-40.8	20.1	0.00e+00	0	44	0	0	48	4740
2026-01-28 09:55:58.03	157.55	26.82	-39.2	-40.9	20.0	0.00e+00	0	44	0	0	48	4766
2026-01-28 09:55:59.03	157.53	26.99	-39.3	-41.0	19.9	0.00e+00	0	44	0	0	49	4561
2026-01-28 09:56:00.02	157.52	27.16	-39.4	-41.1	19.9	0.00e+00	0	43	0	0	49	4604
2026-01-28 09:56:01.01	157.51	27.33	-39.5	-41.2	19.8	0.00e+00	0	43	0	0	49	4673
2026-01-28 09:56:02.01	157.49	27.51	-39.6	-41.3	19.6	0.00e+00	0	44	0	0	49	4741
2026-01-28 09:56:03.00	157.48	27.68	-39.8	-41.5	19.4	0.00e+00	0	44	0	0	50	4577
2026-01-28 09:56:03.99	157.46	27.86	-39.8	-41.5	19.4	0.00e+00	0	43	0	0	50	4586
2026-01-28 09:56:04.98	157.45	28.03	-39.9	-41.7	19.3	0.00e+00	0	44	0	0	50	4678
2026-01-28 09:56:05.98	157.43	28.21	-40.0	-41.8	19.1	0.00e+00	0	44	0	0	50	4740
2026-01-28 09:56:06.97	157.42	28.39	-40.0	-41.8	19.1	0.00e+00	0	44	0	0	50	4748
2026-01-28 09:56:07.96	157.40	28.57	-40.1	-41.8	19.1	0.00e+00	0	44	0	0	50	4755
2026-01-28 09:56:08.96	157.38	28.75	-40.1	-41.8	19.1	0.00e+00	0	43	0	0	50	4758
2026-01-28 09:56:09.95	157.37	28.94	-40.1	-41.9	19.1	0.00e+00	0	44	0	0	50	4813
2026-01-28 09:56:10.94	157.35	29.12	-40.2	-42.0	19.0	0.00e+00	0	43	0	0	51	4585
2026-01-28 09:56:11.94	157.33	29.31	-40.1	-41.8	19.2	0.00e+00	0	44	0	0	51	4484
2026-01-28 09:56:12.93	157.32	29.49	-40.0	-41.8	19.2	0.00e+00	0	43	0	0	51	4453
2026-01-28 09:56:13.92	157.30	29.68	-40.0	-41.7	19.4	0.00e+00	0	44	0	0	51	4429
2026-01-28 09:56:14.91	157.28	29.87	-39.9	-41.7	19.5	0.00e+00	0	44	0	0	51	4393
2026-01-28 09:56:15.91	157.27	30.06	-39.9	-41.6	19.5	0.00e+00	0	44	0	0	51	4381
2026-01-28 09:56:16.90	157.25	30.25	-39.7	-41.4	19.7	0.00e+00	0	43	0	0	51	4277
2026-01-28 09:56:17.89	157.23	30.44	-39.7	-41.5	19.6	0.00e+00	0	43	0	0	51	4325
2026-01-28 09:56:18.89	157.21	30.64	-39.5	-41.3	19.8	0.00e+00	0	44	0	0	51	4201
2026-01-28 09:56:19.88	157.19	30.83	-39.4	-41.1	20.0	0.00e+00	0	43	0	0	50	4391
2026-01-28 09:56:20.87	157.17	31.03	-39.5	-41.2	19.9	0.00e+00	0	43	0	0	50	4412
2026-01-28 09:56:21.86	157.15	31.22	-39.4	-41.1	20.0	0.00e+00	0	43	0	0	50	4389
2026-01-28 09:56:22.86	157.13	31.42	-39.3	-41.1	20.1	0.00e+00	0	44	0	0	50	4346
2026-01-28 09:56:23.85	157.12	31.62	-39.5	-41.2	20.0	0.00e+00	0	44	0	0	50	4413
2026-01-28 09:56:24.84	157.10	31.83	-39.5	-41.2	19.9	0.00e+00	0	44	0	0	50	4427
2026-01-28 09:56:25.84	157.07	32.03	-39.6	-41.3	19.8	0.00e+00	0	43	0	0	50	4474
2026-01-28 09:56:26.83	157.05	32.23	-39.7	-41.4	19.8	0.00e+00	0	44	0	0	50	4529
2026-01-28 09:56:27.82	157.03	32.44	-39.7	-41.5	19.7	0.00e+00	0	43	0	0	50	4548
2026-01-28 09:56:28.81	157.01	32.65	-39.9	-41.7	19.5	0.00e+00	0	43	0	0	50	4672
2026-01-28 09:56:29.81	156.99	32.86	-39.9	-41.6	19.5	0.00e+00	0	43	0	0	50	4638
2026-01-28 09:56:30.80	156.97	33.07	-40.0	-41.7	19.4	0.00e+00	0	43	0	0	50	4697
2026-01-28 09:56:31.79	156.95	33.28	-40.0	-41.8	19.4	0.00e+00	0	43	0	0	50	4720
2026-01-28 09:56:32.79	156.92	33.49	-40.0	-41.8	19.4	0.00e+00	0	44	0	0	50	4714
2026-01-28 09:56:33.78	156.90	33.71	-40.2	-42.0	19.2	0.00e+00	0	44	0	0	51	4566
2026-01-28 09:56:34.77	156.88	33.92	-40.3	-42.1	19.1	0.00e+00	0	44	0	0	51	4631
2026-01-28 09:56:35.76	156.86	34.14	-40.4	-42.2	18.9	0.00e+00	0	44	0	0	51	4704
2026-01-28 09:56:36.76	156.83	34.36	-40.6	-42.4	18.8	0.00e+00	0	44	0	0	51	4778
2026-01-28 09:56:37.75	156.81	34.58	-40.6	-42.5	18.6	0.00e+00	0	44	0	0	52	4549
2026-01-28 09:56:38.74	156.78	34.80	-40.7	-42.5	18.6	0.00e+00	0	44	0	0	52	4598
2026-01-28 09:56:39.74	156.76	35.03	-40.8	-42.7	18.4	0.00e+00	0	44	0	0	52	4675
2026-01-28 09:56:40.73	156.73	35.25	-41.0	-42.9	18.2	0.00e+00	0	44	0	0	52	4784
2026-01-28 09:56:41.72	156.71	35.48	-41.2	-43.1	18.0	0.00e+00	0	44	0	0	53	4643
2026-01-28 09:56:42.72	156.68	35.71	-41.3	-43.3	17.9	0.00e+00	0	44	0	0	53	4708
2026-01-28 09:56:43.71	156.65	35.94	-41.3	-43.3	17.9	0.00e+00	0	44	0	0	53	4743
2026-01-28 09:56:44.70	156.63	36.17	-41.3	-43.2	18.0	0.00e+00	0	44	0	0	53	4673
2026-01-28 09:56:45.70	156.60	36.41	-41.3	-43.2	18.0	0.00e+00	0	44	0	0	53	4700
2026-01-28 09:56:46.69	156.57	36.64	-41.3	-43.2	18.0	0.00e+00	0	44	0	0	53	4680
2026-01-28 09:56:47.68	156.54	36.88	-41.2	-43.1	18.1	0.00e+00	0	44	0	0	53	4619
2026-01-28 09:56:48.67	156.52	37.11	-41.3	-43.2	18.0	0.00e+00	0	44	0	0	53	4694
2026-01-28 09:56:49.67	156.49	37.36	-41.3	-43.2	18.0	0.00e+00	0	43	0	0	53	4691
2026-01-28 09:56:50.66	156.46	37.60	-41.4	-43.3	18.0	0.00e+00	0	44	0	0	53	4729
2026-01-28 09:56:51.65	156.43	37.84	-41.4	-43.3	17.9	0.00e+00	0	44	0	0	53	4748
2026-01-28 09:56:52.64	156.40	38.09	-41.2	-43.1	18.1	0.00e+00	0	44	0	0	53	4630
2026-01-28 09:56:53.64	156.36	38.34	-41.3	-43.2	18.1	0.00e+00	0	44	0	0	53	4683
2026-01-28 09:56:54.63	156.33	38.59	-41.1	-43.0	18.2	0.00e+00	0	44	0	0	53	4584
2026-01-28 09:56:55.62	156.30	38.84	-41.1	-42.9	18.3	0.00e+00	0	44	0	0	53	4535
2026-01-28 09:56:56.62	156.27	39.09	-41.0	-42.8	18.4	0.00e+00	0	44	0	0	53	4491
2026-01-28 09:56:57.61	156.23	39.34	-41.1	-43.0	18.3	0.00e+00	0	43	0	0	53	4555
2026-01-28 09:56:58.60	156.20	39.60	-41.1	-42.9	18.2	0.00e+00	0	43	0	0	53	4541
2026-01-28 09:56:59.59	156.17	39.86	-41.2	-43.1	17.9	0.00e+00	0	44	0	0	53	4646
2026-01-28 09:57:00.59	156.13	40.12	-41.2	-43.1	18.0	0.00e+00	0	44	0	0	53	4603
2026-01-28 09:57:01.58	156.10	40.38	-41.3	-43.3	17.8	0.00e+00	0	44	0	0	53	4719
2026-01-28 09:57:02.57	156.06	40.65	-41.5	-43.5	17.7	0.00e+00	0	44	0	0	53	4823
2026-01-28 09:57:03.57	156.02	40.92	-41.4	-43.4	17.8	0.00e+00	0	44	0	0	53	4762
2026-01-28 09:57:04.56	155.98	41.18	-41.5	-43.5	17.7	0.00e+00	0	43	0	0	53	4817
2026-01-28 09:57:05.55	155.95	41.45	-41.6	-43.5	17.7	0.00e+00	0	43	0	0	53	4853
2026-01-28 09:57:06.55	155.91	41.73	-41.6	-43.5	17.7	0.00e+00	0	44	0	0	53	4855
2026-01-28 09:57:07.54	155.87	42.00	-41.8	-43.8	17.5	0.00e+00	0	44	0	0	54	4716
2026-01-28 09:57:08.53	155.83	42.28	-41.7	-43.7	17.6	0.00e+00	0	43	0	0	54	4679
2026-01-28 09:57:09.52	155.79	42.55	-41.7	-43.6	17.6	0.00e+00	0	44	0	0	54	4651
2026-01-28 09:57:10.51	155.74	42.83	-41.7	-43.6	17.6	0.00e+00	0	44	0	0	54	4643
2026-01-28 09:57:11.51	155.70	43.12	-41.5	-43.5	17.7	0.00e+00	0	43	0	0	54	4550
2026-01-28 09:57:12.50	155.66	43.40	-41.5	-43.4	17.8	0.00e+00	0	44	0	0	54	4516
2026-01-28 09:57:13.49	155.61	43.69	-41.4	-43.3	17.8	0.00e+00	0	44	0	0	54	4492
2026-01-28 09:57:14.49	155.57	43.98	-41.5	-43.4	17.7	0.00e+00	0	44	0	0	54	4519
2026-01-28 09:57:15.48	155.52	44.27	-41.7	-43.7	17.4	0.00e+00	0	44	0	0	54	4679
2026-01-28 09:57:16.47	155.47	44.56	-41.8	-43.8	17.2	0.00e+00	0	44	0	0	54	4748
2026-01-28 09:57:17.47	155.42	44.86	-42.2	-44.2	17.0	0.00e+00	0	44	0	0	55	4695
2026-01-28 09:57:18.46	155.38	45.16	-42.4	-44.6	16.7	0.00e+00	0	44	0	0	55	4878
2026-01-28 09:57:19.45	155.33	45.46	-42.6	-44.7	16.6	0.00e+00	0	44	0	0	55	4978
2026-01-28 09:57:20.45	155.27	45.76	-42.8	-45.0	16.5	0.00e+00	0	44	0	0	56	4846
2026-01-28 09:57:21.44	155.22	46.06	-42.8	-45.0	16.5	0.00e+00	0	44	0	0	56	4853
2026-01-28 09:57:22.43	155.17	46.37	-42.6	-44.8	16.8	0.00e+00	0	44	0	0	56	4717
2026-01-28 09:57:23.42	155.12	46.68	-42.6	-44.7	16.7	0.00e+00	0	43	0	0	56	4694
2026-01-28 09:57:24.42	155.06	46.99	-42.3	-44.4	17.1	0.00e+00	0	44	0	0	56	4508
2026-01-28 09:57:25.41	155.00	47.30	-42.1	-44.2	17.3	0.00e+00	0	43	0	0	56	4411
2026-01-28 09:57:26.40	154.95	47.62	-41.7	-43.7	17.6	0.00e+00	0	44	0	0	55	4433
2026-01-28 09:57:27.39	154.89	47.93	-41.4	-43.4	17.9	0.00e+00	0	44	0	0	54	4513
2026-01-28 09:57:28.39	154.83	48.26	-41.6	-43.5	17.8	0.00e+00	0	43	0	0	54	4598
2026-01-28 09:57:29.38	154.76	48.58	-41.5	-43.5	17.8	0.00e+00	0	44	0	0	54	4591
2026-01-28 09:57:30.37	154.70	48.90	-41.7	-43.7	17.7	0.00e+00	0	43	0	0	54	4659
2026-01-28 09:57:31.36	154.64	49.23	-41.7	-43.7	17.6	0.00e+00	0	44	0	0	54	4692
2026-01-28 09:57:32.36	154.57	49.56	-41.7	-43.7	17.6	0.00e+00	0	44	0	0	54	4697
2026-01-28 09:57:33.35	154.50	49.89	-41.8	-43.8	17.6	0.00e+00	0	44	0	0	54	4717
2026-01-28 09:57:34.34	154.43	50.23	-41.7	-43.7	17.7	0.00e+00	0	43	0	0	54	4654
2026-01-28 09:57:35.34	154.36	50.57	-41.6	-43.6	17.8	0.00e+00	0	43	0	0	54	4617
2026-01-28 09:57:36.33	154.29	50.90	-41.5	-43.5	17.9	0.00e+00	0	44	0	0	54	4559
2026-01-28 09:57:37.32	154.22	51.24	-41.6	-43.6	17.7	0.00e+00	0	44	0	0	54	4617
2026-01-28 09:57:38.32	154.14	51.59	-41.5	-43.5	17.8	0.00e+00	0	44	0	0	54	4547
2026-01-28 09:57:39.31	154.06	51.94	-41.0	-42.9	18.2	0.00e+00	0	44	0	0	54	4284
2026-01-28 09:57:40.30	153.98	52.29	-40.7	-42.5	18.5	0.00e+00	0	44	0	0	53	4318
2026-01-28 09:57:41.29	153.90	52.64	-40.5	-42.3	18.8	0.00e+00	0	43	0	0	52	4458
2026-01-28 09:57:42.29	153.82	52.99	-40.4	-42.2	18.9	0.00e+00	0	44	0	0	52	4435
2026-01-28 09:57:43.28	153.73	53.35	-40.5	-42.4	18.8	0.00e+00	0	44	0	0	52	4495
2026-01-28 09:57:44.27	153.65	53.71	-40.4	-42.2	19.0	0.00e+00	0	44	0	0	52	4408
2026-01-28 09:57:45.27	153.55	54.07	-40.3	-42.1	19.1	0.00e+00	0	44	0	0	52	4355
2026-01-28 09:57:46.26	153.46	54.43	-40.0	-41.8	19.3	0.00e+00	0	44	0	0	52	4209
2026-01-28 09:57:47.25	153.37	54.80	-40.0	-41.7	19.5	0.00e+00	0	44	0	0	51	4406
2026-01-28 09:57:48.25	153.27	55.17	-39.8	-41.5	19.7	0.00e+00	0	44	0	0	51	4316
2026-01-28 09:57:49.24	153.17	55.54	-39.7	-41.5	19.7	0.00e+00	0	44	0	0	51	4299
2026-01-28 09:57:50.23	153.07	55.91	-39.6	-41.3	19.9	0.00e+00	0	44	0	0	51	4206
2026-01-28 09:57:51.22	152.96	56.29	-39.4	-41.1	20.1	0.00e+00	0	44	0	0	50	4360
2026-01-28 09:57:52.22	152.85	56.67	-39.2	-40.9	20.3	0.00e+00	0	44	0	0	50	4255
2026-01-28 09:57:53.21	152.74	57.05	-39.1	-40.7	20.4	0.00e+00	0	44	0	0	50	4179
2026-01-28 09:57:54.20	152.62	57.43	-39.0	-40.6	20.5	0.00e+00	0	43	0	0	49	4382
2026-01-28 09:57:55.19	152.50	57.82	-39.0	-40.6	20.5	0.00e+00	0	44	0	0	49	4355
2026-01-28 09:57:56.19	152.38	58.21	-38.9	-40.5	20.6	0.00e+00	0	43	0	0	49	4335
2026-01-28 09:57:57.18	152.26	58.60	-38.7	-40.3	20.8	0.00e+00	0	44	0	0	49	4207
2026-01-28 09:57:58.17	152.13	58.99	-38.6	-40.2	20.8	0.00e+00	0	44	0	0	49	4175
2026-01-28 09:57:59.17	151.99	59.39	-38.6	-40.2	20.8	0.00e+00	0	44	0	0	49	4190
2026-01-28 09:58:00.16	151.85	59.78	-38.9	-40.6	20.5	0.00e+00	0	44	0	0	49	4341
2026-01-28 09:58:01.15	151.71	60.18	-38.8	-40.5	20.6	0.00e+00	0	44	0	0	49	4294
2026-01-28 09:58:02.15	151.56	60.59	-38.8	-40.5	20.7	0.00e+00	0	44	0	0	49	4292
2026-01-28 09:58:03.14	151.41	60.99	-38.8	-40.4	20.6	0.00e+00	0	43	0	0	49	4261
2026-01-28 09:58:04.13	151.25	61.40	-38.7	-40.3	20.7	0.00e+00	0	44	0	0	49	4208
2026-01-28 09:58:05.12	151.09	61.81	-38.5	-40.1	20.8	0.00e+00	0	44	0	0	48	4372
2026-01-28 09:58:06.12	150.92	62.22	-38.4	-40.0	20.8	0.00e+00	0	44	0	0	48	4309
2026-01-28 09:58:07.11	150.75	62.64	-38.4	-40.0	20.9	0.00e+00	0	44	0	0	48	4315
2026-01-28 09:58:08.10	150.57	63.05	-38.2	-39.8	21.2	0.00e+00	0	44	0	0	48	4224
2026-01-28 09:58:09.10	150.38	63.47	-38.2	-39.8	21.3	0.00e+00	0	44	0	0	48	4195
2026-01-28 09:58:10.09	150.19	63.89	-38.2	-39.8	21.3	0.00e+00	0	44	0	0	48	4200
2026-01-28 09:58:11.08	149.99	64.32	-38.1	-39.7	21.2	0.00e+00	0	44	0	0	48	4175
2026-01-28 09:58:12.08	149.78	64.75	-38.1	-39.7	21.2	0.00e+00	0	44	0	0	48	4161
2026-01-28 09:58:13.07	149.56	65.17	-37.9	-39.5	21.3	0.00e+00	0	44	0	0	47	4300
2026-01-28 09:58:14.06	149.34	65.60	-37.8	-39.4	21.4	0.00e+00	0	44	0	0	47	4246
2026-01-28 09:58:15.05	149.10	66.03	-37.5	-39.1	21.6	0.00e+00	0	44	0	0	47	4111
2026-01-28 09:58:16.05	148.86	66.47	-37.4	-39.0	21.7	0.00e+00	0	44	0	0	46	4316
2026-01-28 09:58:17.04	148.60	66.90	-37.5	-39.0	21.7	0.00e+00	0	43	0	0	46	4327
2026-01-28 09:58:18.03	148.34	67.34	-37.7	-39.3	21.3	0.00e+00	0	44	0	0	46	4479
2026-01-28 09:58:19.03	148.06	67.78	-37.9	-39.5	21.3	0.00e+00	0	44	0	0	46	4551
2026-01-28 09:58:20.02	147.77	68.22	-37.7	-39.2	21.4	0.00e+00	0	44	0	0	46	4437
2026-01-28 09:58:21.01	147.47	68.66	-37.7	-39.2	21.4	0.00e+00	0	43	0	0	46	4437
2026-01-28 09:58:22.01	147.15	69.11	-37.8	-39.3	21.4	0.00e+00	0	43	0	0	46	4478
2026-01-28 09:58:23.00	146.82	69.55	-38.1	-39.7	21.1	0.00e+00	0	44	0	0	46	4662
2026-01-28 09:58:23.99	146.47	70.00	-38.5	-40.1	20.6	0.00e+00	0	44	0	0	47	4622
2026-01-28 09:58:24.98	146.11	70.44	-38.8	-40.4	20.5	0.00e+00	0	43	0	0	48	4531
2026-01-28 09:58:25.98	145.72	70.90	-38.8	-40.4	20.6	0.00e+00	0	44	0	0	48	4523
2026-01-28 09:58:26.97	145.32	71.34	-38.8	-40.5	20.5	0.00e+00	0	44	0	0	48	4578
2026-01-28 09:58:27.96	144.90	71.79	-38.9	-40.6	20.6	0.00e+00	0	44	0	0	48	4609
2026-01-28 09:58:28.96	144.45	72.25	-38.8	-40.5	20.5	0.00e+00	0	44	0	0	48	4577
2026-01-28 09:58:29.95	143.98	72.70	-38.7	-40.4	20.6	0.00e+00	0	44	0	0	48	4521
2026-01-28 09:58:30.94	143.48	73.15	-38.6	-40.3	20.7	0.00e+00	0	44	0	0	48	4453
2026-01-28 09:58:31.94	142.95	73.61	-38.4	-40.1	21.0	0.00e+00	0	44	0	0	48	4341
2026-01-28 09:58:32.93	142.39	74.07	-38.3	-39.9	21.1	0.00e+00	0	44	0	0	48	4253
2026-01-28 09:58:33.92	141.79	74.52	-38.3	-39.9	20.9	0.00e+00	0	44	0	0	48	4287
2026-01-28 09:58:34.92	141.16	74.98	-38.4	-40.1	20.9	0.00e+00	0	44	0	0	48	4346
2026-01-28 09:58:35.91	140.48	75.43	-38.5	-40.1	20.9	0.00e+00	0	44	0	0	48	4386
2026-01-28 09:58:36.90	139.77	75.88	-38.5	-40.1	21.0	0.00e+00	0	44	0	0	48	4353
2026-01-28 09:58:37.89	139.00	76.33	-38.3	-39.9	21.1	0.00e+00	0	44	0	0	48	4282
2026-01-28 09:58:38.89	138.17	76.79	-38.6	-40.2	20.8	0.00e+00	0	44	0	0	48	4427
2026-01-28 09:58:39.88	137.29	77.24	-38.4	-40.1	20.9	0.00e+00	0	43	0	0	48	4342
2026-01-28 09:58:40.87	136.34	77.68	-38.2	-39.8	21.2	0.00e+00	0	44	0	0	48	4202
2026-01-28 09:58:41.87	135.31	78.13	-38.3	-39.8	21.2	0.00e+00	0	44	0	0	48	4238
2026-01-28 09:58:42.86	134.21	78.58	-38.3	-39.9	21.1	0.00e+00	0	44	0	0	48	4262
2026-01-28 09:58:43.85	133.02	79.01	-38.6	-40.2	20.7	0.00e+00	0	44	0	0	48	4406
2026-01-28 09:58:44.85	131.71	79.45	-38.3	-39.9	21.0	0.00e+00	0	44	0	0	48	4273
2026-01-28 09:58:45.84	130.30	79.88	-38.1	-39.7	21.2	0.00e+00	0	44	0	0	48	4167
2026-01-28 09:58:46.83	128.77	80.31	-38.2	-39.7	21.2	0.00e+00	0	44	0	0	48	4181
2026-01-28 09:58:47.82	127.09	80.72	-38.3	-39.9	20.9	0.00e+00	0	44	0	0	48	4249
2026-01-28 09:58:48.82	125.23	81.14	-38.4	-40.0	21.0	0.00e+00	0	44	0	0	48	4327
2026-01-28 09:58:49.81	123.22	81.54	-38.6	-40.2	20.8	0.00e+00	0	44	0	0	48	4418
2026-01-28 09:58:50.80	121.00	81.93	-38.6	-40.3	20.7	0.00e+00	0	43	0	0	48	4464
2026-01-28 09:58:51.80	118.54	82.31	-38.8	-40.4	20.4	0.00e+00	0	44	0	0	48	4544
2026-01-28 09:58:52.79	115.84	82.67	-39.0	-40.7	20.3	0.00e+00	0	44	0	0	48	4697
2026-01-28 09:58:53.78	112.88	83.01	-39.1	-40.8	20.4	0.00e+00	0	44	0	0	48	4742
2026-01-28 09:58:54.78	109.58	83.34	-39.4	-41.1	20.0	0.00e+00	0	44	0	0	49	4627
2026-01-28 09:58:55.77	105.98	83.64	-39.3	-41.0	20.1	0.00e+00	0	44	0	0	49	4596
2026-01-28 09:58:56.76	102.04	83.92	-39.2	-40.8	20.3	0.00e+00	0	44	0	0	49	4489
2026-01-28 09:58:57.76	97.71	84.16	-38.9	-40.6	20.5	0.00e+00	0	44	0	0	49	4349
2026-01-28 09:58:58.75	93.07	84.37	-38.9	-40.6	20.5	0.00e+00	0	44	0	0	49	4360
2026-01-28 09:58:59.74	88.11	84.54	-38.7	-40.3	20.7	0.00e+00	0	44	0	0	49	4234
2026-01-28 09:59:00.73	82.87	84.66	-38.9	-40.5	20.6	0.00e+00	0	44	0	0	49	4323
2026-01-28 09:59:01.72	77.43	84.74	-38.6	-40.2	20.9	0.00e+00	0	43	0	0	49	4165
2026-01-28 09:59:02.72	71.83	84.77	-38.2	-39.8	21.1	0.00e+00	0	44	0	0	48	4234
2026-01-28 09:59:03.71	66.26	84.75	-38.2	-39.8	21.1	0.00e+00	0	44	0	0	48	4223
2026-01-28 09:59:04.70	60.79	84.68	-38.4	-40.0	20.8	0.00e+00	0	43	0	0	48	4334
2026-01-28 09:59:05.70	55.46	84.57	-38.5	-40.2	20.8	0.00e+00	0	44	0	0	48	4402
2026-01-28 09:59:06.69	50.44	84.41	-38.5	-40.1	20.7	0.00e+00	0	44	0	0	48	4371
2026-01-28 09:59:07.68	45.73	84.21	-38.9	-40.5	20.5	0.00e+00	0	44	0	0	48	4592
2026-01-28 09:59:08.68	41.33	83.97	-38.7	-40.3	20.7	0.00e+00	0	44	0	0	48	4488
2026-01-28 09:59:09.67	37.32	83.70	-38.3	-39.9	21.1	0.00e+00	0	44	0	0	48	4256
2026-01-28 09:59:10.66	33.66	83.40	-38.4	-40.0	21.0	0.00e+00	0	44	0	0	48	4321
2026-01-28 09:59:11.65	30.32	83.09	-38.7	-40.3	20.7	0.00e+00	0	44	0	0	48	4488
2026-01-28 09:59:12.65	27.27	82.74	-38.6	-40.3	20.9	0.00e+00	0	44	0	0	48	4444
2026-01-28 09:59:13.64	24.52	82.38	-38.5	-40.1	21.1	0.00e+00	0	44	0	0	48	4349
2026-01-28 09:59:14.63	22.03	82.01	-38.3	-39.9	21.2	0.00e+00	0	44	0	0	48	4271
2026-01-28 09:59:15.62	19.77	81.62	-38.6	-40.2	20.8	0.00e+00	0	43	0	0	48	4408
2026-01-28 09:59:16.62	17.69	81.22	-38.7	-40.4	20.7	0.00e+00	0	44	0	0	48	4506
2026-01-28 09:59:17.61	15.82	80.81	-38.4	-39.9	21.1	0.00e+00	0	44	0	0	48	4291
2026-01-28 09:59:18.60	14.11	80.40	-38.0	-39.6	21.3	0.00e+00	0	44	0	0	48	4109
2026-01-28 09:59:19.60	12.54	79.97	-37.8	-39.4	21.2	0.00e+00	0	43	0	0	47	4270
2026-01-28 09:59:20.59	11.10	79.54	-37.7	-39.3	21.3	0.00e+00	0	44	0	0	47	4214
2026-01-28 09:59:21.58	9.79	79.11	-38.0	-39.5	21.1	0.00e+00	0	44	0	0	47	4334
2026-01-28 09:59:22.58	8.56	78.67	-38.4	-40.1	20.7	0.00e+00	0	44	0	0	47	4622
2026-01-28 09:59:23.57	7.44	78.23	-39.1	-40.8	20.3	0.00e+00	0	44	0	0	48	4734
2026-01-28 09:59:24.56	6.41	77.79	-39.2	-40.9	20.2	0.00e+00	0	44	0	0	49	4538
2026-01-28 09:59:25.56	5.43	77.33	-38.8	-40.4	20.7	0.00e+00	0	44	0	0	49	4269
2026-01-28 09:59:26.55	4.54	76.89	-38.5	-40.1	20.7	0.00e+00	0	44	0	0	49	4135
2026-01-28 09:59:27.54	3.71	76.44	-38.1	-39.6	21.2	0.00e+00	0	44	0	0	48	4139
2026-01-28 09:59:28.53	2.93	75.99	-38.4	-40.0	21.0	0.00e+00	0	44	0	0	48	4329
2026-01-28 09:59:29.53	2.20	75.53	-38.8	-40.4	20.7	0.00e+00	0	44	0	0	48	4533
2026-01-28 09:59:30.52	1.52	75.08	-38.7	-40.4	20.6	0.00e+00	0	44	0	0	48	4496
2026-01-28 09:59:31.51	0.88	74.63	-38.1	-39.7	20.8	0.00e+00	0	44	0	0	48	4159
2026-01-28 09:59:32.51	0.27	74.17	-38.1	-39.7	20.8	0.00e+00	0	44	0	0	48	4167
2026-01-28 09:59:33.50	359.71	73.72	-38.3	-39.9	20.8	0.00e+00	0	44	0	0	48	4250
2026-01-28 09:59:34.49	359.17	73.26	-38.5	-40.1	20.7	0.00e+00	0	44	0	0	48	4387
2026-01-28 09:59:35.48	358.67	72.81	-38.5	-40.1	21.0	0.00e+00	0	44	0	0	48	4347
2026-01-28 09:59:36.48	358.19	72.36	-38.5	-40.1	21.0	0.00e+00	0	44	0	0	48	4345
2026-01-28 09:59:37.47	357.74	71.91	-38.3	-39.9	20.9	0.00e+00	0	44	0	0	48	4268
2026-01-28 09:59:38.46	357.31	71.46	-38.1	-39.6	21.1	0.00e+00	0	44	0	0	48	4133
2026-01-28 09:59:39.46	356.90	71.00	-37.7	-39.3	21.3	0.00e+00	0	44	0	0	47	4208
2026-01-28 09:59:40.45	356.51	70.56	-38.0	-39.6	21.2	0.00e+00	0	44	0	0	47	4357
2026-01-28 09:59:41.44	356.15	70.11	-38.2	-39.8	21.1	0.00e+00	0	44	0	0	47	4445
2026-01-28 09:59:42.44	355.79	69.66	-39.0	-40.7	20.4	0.00e+00	0	44	0	0	48	4665
2026-01-28 09:59:43.43	355.46	69.22	-39.6	-41.3	19.5	0.00e+00	0	44	0	0	49	4743
2026-01-28 09:59:44.42	355.14	68.78	-39.3	-41.0	19.6	0.00e+00	0	44	0	0	49	4585
2026-01-28 09:59:45.41	354.84	68.34	-38.7	-40.4	20.3	0.00e+00	0	44	0	0	49	4247
2026-01-28 09:59:46.41	354.54	67.89	-38.4	-39.9	20.9	0.00e+00	0	44	0	0	48	4287
2026-01-28 09:59:47.40	354.26	67.46	-38.2	-39.8	21.1	0.00e+00	0	44	0	0	48	4207
2026-01-28 09:59:48.39	354.00	67.02	-38.1	-39.7	21.2	0.00e+00	0	44	0	0	47	4392
2026-01-28 09:59:49.39	353.74	66.58	-38.5	-40.1	20.8	0.00e+00	0	44	0	0	47	4650
2026-01-28 09:59:50.38	353.49	66.15	-39.5	-41.2	20.0	0.00e+00	0	44	0	0	49	4689
2026-01-28 09:59:51.37	353.26	65.72	-39.7	-41.4	19.8	0.00e+00	0	44	0	0	50	4525
2026-01-28 09:59:52.36	353.03	65.29	-38.4	-40.0	20.6	0.00e+00	0	44	0	0	48	4312
2026-01-28 09:59:53.36	352.81	64.86	-38.1	-39.7	20.7	0.00e+00	0	44	0	0	48	4153
2026-01-28 09:59:54.35	352.60	64.44	-37.8	-39.4	20.8	0.00e+00	0	44	0	0	47	4260
2026-01-28 09:59:55.35	352.40	64.01	-37.6	-39.1	21.3	0.00e+00	0	44	0	0	47	4120
2026-01-28 09:59:56.34	352.20	63.60	-37.7	-39.2	21.5	0.00e+00	0	44	0	0	47	4191
2026-01-28 09:59:57.33	352.02	63.18	-38.6	-40.2	20.8	0.00e+00	0	43	0	0	47	4674
2026-01-28 09:59:58.32	351.83	62.76	-39.7	-41.5	19.9	0.00e+00	0	44	0	0	50	4569
2026-01-28 09:59:59.31	351.66	62.35	-40.1	-41.8	19.4	0.00e+00	0	44	0	0	50	4746
2026-01-28 10:00:00.31	351.49	61.94	-39.5	-41.2	19.3	0.00e+00	0	44	0	0	50	4405
2026-01-28 10:00:01.30	351.33	61.53	-38.9	-40.5	19.9	0.00e+00	0	44	0	0	49	4318
2026-01-28 10:00:02.29	351.17	61.12	-38.7	-40.3	20.4	0.00e+00	0	44	0	0	49	4227
2026-01-28 10:00:03.29	351.01	60.72	-38.7	-40.3	20.6	0.00e+00	0	43	0	0	49	4221
2026-01-28 10:00:04.28	350.87	60.31	-38.7	-40.3	20.9	0.00e+00	0	44	0	0	49	4194
2026-01-28 10:00:05.27	350.72	59.92	-38.9	-40.5	20.7	0.00e+00	0	44	0	0	48	4558
2026-01-28 10:00:06.26	350.58	59.52	-39.8	-41.5	19.8	0.00e+00	0	44	0	0	50	4559
2026-01-28 10:00:07.26	350.45	59.12	-40.2	-42.0	19.3	0.00e+00	0	44	0	0	50	4816
2026-01-28 10:00:08.25	350.32	58.73	-40.8	-42.7	18.6	0.00e+00	0	44	0	0	52	4700
2026-01-28 10:00:09.24	350.19	58.34	-40.9	-42.9	18.4	0.00e+00	0	44	0	0	52	4761
2026-01-28 10:00:10.24	350.07	57.95	-40.5	-42.4	18.5	0.00e+00	0	44	0	0	52	4522
2026-01-28 10:00:11.23	349.95	57.57	-39.6	-41.3	19.5	0.00e+00	0	44	0	0	51	4212
2026-01-28 10:00:12.22	349.83	57.18	-39.1	-40.8	19.9	0.00e+00	0	44	0	0	50	4235
2026-01-28 10:00:13.22	349.72	56.80	-39.6	-41.3	19.6	0.00e+00	0	44	0	0	50	4477
2026-01-28 10:00:14.21	349.61	56.42	-40.2	-42.0	19.1	0.00e+00	0	44	0	0	50	4841
2026-01-28 10:00:15.20	349.51	56.05	-40.7	-42.6	18.5	0.00e+00	0	44	0	0	52	4634
2026-01-28 10:00:16.19	349.40	55.68	-40.9	-42.8	18.5	0.00e+00	0	43	0	0	52	4711
2026-01-28 10:00:17.19	349.30	55.30	-41.1	-43.0	18.2	0.00e+00	0	43	0	0	52	4854
2026-01-28 10:00:18.18	349.20	54.94	-41.5	-43.5	17.8	0.00e+00	0	44	0	0	53	4825
2026-01-28 10:00:19.17	349.11	54.57	-41.9	-44.0	17.1	0.00e+00	0	44	0	0	54	4870
2026-01-28 10:00:20.17	349.01	54.21	-42.2	-44.4	16.7	0.00e+00	0	44	0	0	55	4810
2026-01-28 10:00:21.16	348.92	53.85	-41.8	-43.9	17.4	0.00e+00	0	44	0	0	55	4496
2026-01-28 10:00:22.15	348.84	53.49	-40.5	-42.3	18.9	0.00e+00	0	44	0	0	53	4225
2026-01-28 10:00:23.15	348.75	53.13	-39.8	-41.6	19.7	0.00e+00	0	44	0	0	51	4355
2026-01-28 10:00:24.14	348.67	52.78	-39.9	-41.6	19.7	0.00e+00	0	44	0	0	51	4370
2026-01-28 10:00:25.13	348.58	52.43	-40.3	-42.1	19.3	0.00e+00	0	44	0	0	51	4642
2026-01-28 10:00:26.12	348.50	52.08	-41.1	-43.0	18.5	0.00e+00	0	44	0	0	52	4833
2026-01-28 10:00:27.12	348.43	51.73	-41.3	-43.2	18.2	0.00e+00	0	43	0	0	53	4676
2026-01-28 10:00:28.11	348.35	51.39	-41.3	-43.2	18.0	0.00e+00	0	44	0	0	53	4678
2026-01-28 10:00:29.10	348.28	51.05	-41.3	-43.2	17.7	0.00e+00	0	44	0	0	53	4691
2026-01-28 10:00:30.10	348.20	50.71	-41.6	-43.6	17.4	0.00e+00	0	44	0	0	53	4902
2026-01-28 10:00:31.09	348.13	50.37	-41.8	-43.7	17.3	0.00e+00	0	44	0	0	54	4698
2026-01-28 10:00:32.08	348.06	50.04	-41.9	-44.0	17.1	0.00e+00	0	44	0	0	54	4821
2026-01-28 10:00:33.08	348.00	49.71	-42.0	-44.1	16.9	0.00e+00	0	43	0	0	54	4871
2026-01-28 10:00:34.07	347.93	49.38	-41.9	-43.9	17.0	0.00e+00	0	44	0	0	54	4799
2026-01-28 10:00:35.06	347.87	49.05	-41.8	-43.9	17.1	0.00e+00	0	44	0	0	54	4779
2026-01-28 10:00:36.05	347.80	48.73	-41.6	-43.6	17.5	0.00e+00	0	44	0	0	54	4650
2026-01-28 10:00:37.05	347.74	48.41	-41.5	-43.5	17.8	0.00e+00	0	44	0	0	54	4563
2026-01-28 10:00:38.04	347.68	48.09	-41.4	-43.3	18.1	0.00e+00	0	43	0	0	54	4483
2026-01-28 10:00:39.03	347.62	47.77	-41.8	-43.8	17.7	0.00e+00	0	43	0	0	54	4713
2026-01-28 10:00:40.03	347.56	47.45	-42.3	-44.4	17.1	0.00e+00	0	44	0	0	55	4791
2026-01-28 10:00:41.02	347.51	47.14	-42.9	-45.1	16.6	0.00e+00	0	44	0	0	56	4909
2026-01-28 10:00:42.01	347.45	46.83	-43.2	-45.5	16.1	0.00e+00	0	44	0	0	56	5133
2026-01-28 10:00:43.00	347.40	46.52	-43.2	-45.6	15.7	0.00e+00	0	43	0	0	57	4917
2026-01-28 10:00:44.00	347.34	46.22	-43.1	-45.5	15.8	0.00e+00	0	44	0	0	57	4844
2026-01-28 10:00:44.99	347.29	45.91	-42.9	-45.2	16.1	0.00e+00	0	44	0	0	57	4682
2026-01-28 10:00:45.98	347.24	45.61	-42.8	-45.1	16.2	0.00e+00	0	43	0	0	57	4617
2026-01-28 10:00:46.97	347.19	45.31	-42.7	-45.0	16.3	0.00e+00	0	44	0	0	57	4577
2026-01-28 10:00:47.97	347.14	45.01	-42.6	-44.8	16.6	0.00e+00	0	43	0	0	57	4463
2026-01-28 10:00:48.96	347.10	44.72	-42.6	-44.8	16.6	0.00e+00	0	44	0	0	57	4459
2026-01-28 10:00:49.95	347.05	44.43	-42.5	-44.7	16.6	0.00e+00	0	44	0	0	57	4436
2026-01-28 10:00:50.95	347.00	44.14	-42.4	-44.5	16.7	0.00e+00	0	43	0	0	56	4580
2026-01-28 10:00:51.94	346.96	43.85	-42.2	-44.3	16.9	0.00e+00	0	43	0	0	56	4468
2026-01-28 10:00:52.93	346.91	43.56	-41.8	-43.9	17.3	0.00e+00	0	44	0	0	55	4509
2026-01-28 10:00:53.92	346.87	43.28	-41.6	-43.6	17.6	0.00e+00	0	44	0	0	55	4374
2026-01-28 10:00:54.92	346.83	42.99	-41.6	-43.6	17.7	0.00e+00	0	44	0	0	55	4369
2026-01-28 10:00:55.91	346.78	42.72	-41.8	-43.8	17.6	0.00e+00	0	43	0	0	55	4488
2026-01-28 10:00:56.90	346.74	42.44	-41.7	-43.7	17.6	0.00e+00	0	44	0	0	55	4440
2026-01-28 10:00:57.90	346.70	42.16	-41.8	-43.9	17.5	0.00e+00	0	44	0	0	55	4497
2026-01-28 10:00:58.89	346.66	41.89	-41.9	-44.0	17.4	0.00e+00	0	44	0	0	55	4556
2026-01-28 10:00:59.88	346.62	41.62	-42.0	-44.2	17.2	0.00e+00	0	44	0	0	55	4653
2026-01-28 10:01:00.87	346.59	41.35	-42.3	-44.5	17.0	0.00e+00	0	44	0	0	55	4838
2026-01-28 10:01:01.87	346.55	41.08	-42.4	-44.6	16.9	0.00e+00	0	44	0	0	55	4890
2026-01-28 10:01:02.86	346.51	40.81	-42.4	-44.5	16.9	0.00e+00	0	44	0	0	55	4850
2026-01-28 10:01:03.85	346.48	40.55	-42.2	-44.3	17.2	0.00e+00	0	44	0	0	55	4707
2026-01-28 10:01:04.85	346.44	40.29	-42.0	-44.1	17.4	0.00e+00	0	44	0	0	55	4614
2026-01-28 10:01:05.84	346.41	40.03	-42.3	-44.4	17.1	0.00e+00	0	44	0	0	55	4775
2026-01-28 10:01:06.83	346.37	39.77	-42.4	-44.5	16.9	0.00e+00	0	43	0	0	55	4864
2026-01-28 10:01:07.82	346.34	39.51	-42.6	-44.7	16.8	0.00e+00	0	44	0	0	55	4961
2026-01-28 10:01:08.82	346.30	39.26	-42.6	-44.8	16.7	0.00e+00	0	44	0	0	55	4987
2026-01-28 10:01:09.81	346.27	39.00	-42.4	-44.5	16.9	0.00e+00	0	44	0	0	55	4858
2026-01-28 10:01:10.80	346.24	38.75	-42.2	-44.3	17.2	0.00e+00	0	44	0	0	55	4732
2026-01-28 10:01:11.80	346.21	38.50	-42.2	-44.3	17.2	0.00e+00	0	44	0	0	55	4729
2026-01-28 10:01:12.79	346.18	38.26	-41.6	-43.6	17.8	0.00e+00	0	43	0	0	55	4363
2026-01-28 10:01:13.78	346.15	38.01	-41.1	-43.0	18.3	0.00e+00	0	44	0	0	54	4325
2026-01-28 10:01:14.78	346.12	37.77	-40.5	-42.3	18.9	0.00e+00	0	43	0	0	52	4474
2026-01-28 10:01:15.77	346.09	37.53	-40.3	-42.2	19.0	0.00e+00	0	44	0	0	52	4404
2026-01-28 10:01:16.76	346.06	37.29	-40.2	-42.0	19.1	0.00e+00	0	43	0	0	52	4329
2026-01-28 10:01:17.75	346.03	37.05	-40.2	-42.0	19.1	0.00e+00	0	44	0	0	52	4334
2026-01-28 10:01:18.75	346.00	36.81	-40.5	-42.3	18.9	0.00e+00	0	44	0	0	52	4482
2026-01-28 10:01:19.74	345.98	36.58	-40.8	-42.7	18.6	0.00e+00	0	43	0	0	52	4659
2026-01-28 10:01:20.73	345.95	36.34	-41.0	-42.9	18.4	0.00e+00	0	44	0	0	52	4776
2026-01-28 10:01:21.73	345.92	36.11	-41.1	-43.0	18.3	0.00e+00	0	43	0	0	52	4869
2026-01-28 10:01:22.72	345.90	35.88	-41.1	-43.1	18.3	0.00e+00	0	44	0	0	52	4878
2026-01-28 10:01:23.71	345.87	35.65	-41.0	-42.9	18.4	0.00e+00	0	44	0	0	52	4799
2026-01-28 10:01:24.71	345.84	35.42	-41.0	-42.9	18.5	0.00e+00	0	44	0	0	52	4794
2026-01-28 10:01:25.70	345.82	35.20	-41.1	-43.0	18.3	0.00e+00	0	44	0	0	52	4831
2026-01-28 10:01:26.69	345.80	34.98	-40.9	-42.8	18.5	0.00e+00	0	44	0	0	52	4736
2026-01-28 10:01:27.68	345.77	34.76	-40.8	-42.7	18.6	0.00e+00	0	44	0	0	52	4704
2026-01-28 10:01:28.68	345.75	34.53	-40.9	-42.7	18.6	0.00e+00	0	44	0	0	52	4700
2026-01-28 10:01:29.67	345.72	34.32	-40.7	-42.5	18.7	0.00e+00	0	44	0	0	52	4598
2026-01-28 10:01:30.66	345.70	34.10	-40.4	-42.2	18.8	0.00e+00	0	44	0	0	52	4438
2026-01-28 10:01:31.66	345.68	33.88	-40.4	-42.3	18.8	0.00e+00	0	44	0	0	52	4449
2026-01-28 10:01:32.65	345.66	33.67	-40.4	-42.3	18.7	0.00e+00	0	44	0	0	52	4471
2026-01-28 10:01:33.64	345.63	33.46	-40.4	-42.3	18.7	0.00e+00	0	44	0	0	52	4485
2026-01-28 10:01:34.64	345.61	33.24	-40.4	-42.3	18.7	0.00e+00	0	44	0	0	52	4456
2026-01-28 10:01:35.63	345.59	33.03	-40.4	-42.3	18.8	0.00e+00	0	44	0	0	52	4470
2026-01-28 10:01:36.62	345.57	32.83	-40.4	-42.3	18.9	0.00e+00	0	44	0	0	52	4446
2026-01-28 10:01:37.61	345.55	32.62	-40.2	-42.0	19.2	0.00e+00	0	44	0	0	52	4328
2026-01-28 10:01:38.61	345.53	32.41	-40.2	-42.0	19.2	0.00e+00	0	44	0	0	52	4314
2026-01-28 10:01:39.60	345.51	32.21	-40.2	-42.0	19.2	0.00e+00	0	43	0	0	52	4331
2026-01-28 10:01:40.59	345.49	32.01	-40.2	-42.0	19.3	0.00e+00	0	44	0	0	52	4326
2026-01-28 10:01:41.59	345.47	31.80	-40.2	-42.0	19.3	0.00e+00	0	44	0	0	52	4304
2026-01-28 10:01:42.58	345.45	31.60	-40.1	-41.9	19.3	0.00e+00	0	44	0	0	52	4275
2026-01-28 10:01:43.57	345.43	31.41	-40.1	-41.8	19.4	0.00e+00	0	44	0	0	52	4238
2026-01-28 10:01:44.57	345.41	31.21	-40.0	-41.9	19.4	0.00e+00	0	44	0	0	52	4249
2026-01-28 10:01:45.56	345.39	31.01	-40.0	-41.9	19.4	0.00e+00	0	44	0	0	52	4249
2026-01-28 10:01:46.55	345.38	30.82	-40.0	-41.8	19.4	0.00e+00	0	44	0	0	52	4237
2026-01-28 10:01:47.55	345.36	30.62	-40.1	-41.9	19.4	0.00e+00	0	44	0	0	52	4258
2026-01-28 10:01:48.54	345.34	30.43	-40.3	-42.1	19.2	0.00e+00	0	44	0	0	52	4367
2026-01-28 10:01:49.53	345.32	30.24	-40.1	-41.9	19.3	0.00e+00	0	44	0	0	52	4259
2026-01-28 10:01:50.52	345.31	30.05	-40.1	-41.9	19.2	0.00e+00	0	43	0	0	52	4261
2026-01-28 10:01:51.52	345.29	29.86	-40.1	-42.0	19.1	0.00e+00	0	44	0	0	52	4292
2026-01-28 10:01:52.51	345.27	29.68	-40.2	-42.1	18.9	0.00e+00	0	44	0	0	52	4369
2026-01-28 10:01:53.50	345.26	29.49	-40.4	-42.3	18.7	0.00e+00	0	44	0	0	52	4483
2026-01-28 10:01:54.50	345.24	29.30	-40.4	-42.4	18.6	0.00e+00	0	44	0	0	52	4501
2026-01-28 10:01:55.49	345.22	29.12	-40.5	-42.5	18.5	0.00e+00	0	44	0	0	52	4550
2026-01-28 10:01:56.48	345.21	28.94	-40.4	-42.4	18.6	0.00e+00	0	44	0	0	52	4525
2026-01-28 10:01:57.48	345.19	28.76	-40.4	-42.4	18.6	0.00e+00	0	44	0	0	52	4521
2026-01-28 10:01:58.47	345.18	28.58	-40.4	-42.3	18.7	0.00e+00	0	44	0	0	52	4473
2026-01-28 10:01:59.46	345.16	28.40	-40.3	-42.2	18.8	0.00e+00	0	44	0	0	52	4402
2026-01-28 10:02:00.45	345.15	28.22	-40.4	-42.2	18.7	0.00e+00	0	44	0	0	52	4423
2026-01-28 10:02:01.45	345.13	28.04	-40.4	-42.2	18.7	0.00e+00	0	44	0	0	52	4417
2026-01-28 10:02:02.44	345.12	27.87	-40.3	-42.1	18.8	0.00e+00	0	44	0	0	52	4387
2026-01-28 10:02:03.43	345.10	27.70	-40.3	-42.1	18.9	0.00e+00	0	44	0	0	52	4362
2026-01-28 10:02:04.43	345.09	27.52	-40.2	-42.1	18.9	0.00e+00	0	44	0	0	52	4345
2026-01-28 10:02:05.42	345.08	27.35	-40.3	-42.1	18.9	0.00e+00	0	44	0	0	52	4378
2026-01-28 10:02:06.41	345.06	27.18	-40.0	-41.9	19.2	0.00e+00	0	44	0	0	51	4509
2026-01-28 10:02:07.40	345.05	27.01	-39.9	-41.7	19.4	0.00e+00	0	44	0	0	51	4429
2026-01-28 10:02:08.40	345.03	26.84	-39.7	-41.5	19.6	0.00e+00	0	44	0	0	51	4305
2026-01-28 10:02:09.39	345.02	26.67	-39.4	-41.2	19.7	0.00e+00	0	44	0	0	50	4437
2026-01-28 10:02:10.38	345.01	26.51	-39.3	-41.0	19.9	0.00e+00	0	44	0	0	50	4329
2026-01-28 10:02:11.38	345.00	26.34	-39.2	-40.9	20.0	0.00e+00	0	44	0	0	50	4284
2026-01-28 10:02:12.37	344.98	26.18	-39.1	-40.8	20.1	0.00e+00	0	44	0	0	50	4207
2026-01-28 10:02:13.36	344.97	26.01	-39.1	-40.9	20.1	0.00e+00	0	44	0	0	50	4244
2026-01-28 10:02:14.35	344.96	25.85	-39.1	-40.8	20.1	0.00e+00	0	44	0	0	50	4216
2026-01-28 10:02:15.35	344.95	25.69	-39.1	-40.8	20.2	0.00e+00	0	44	0	0	50	4223
2026-01-28 10:02:16.34	344.93	25.53	-39.1	-40.7	20.2	0.00e+00	0	44	0	0	50	4190
2026-01-28 10:02:17.33	344.92	25.37	-39.0	-40.7	20.3	0.00e+00	0	44	0	0	50	4163
2026-01-28 10:02:18.33	344.91	25.21	-39.0	-40.7	20.4	0.00e+00	0	44	0	0	50	4148
2026-01-28 10:02:19.32	344.90	25.05	-39.0	-40.7	20.3	0.00e+00	0	44	0	0	50	4159
2026-01-28 10:02:20.31	344.89	24.89	-38.9	-40.6	20.4	0.00e+00	0	44	0	0	49	4347
2026-01-28 10:02:21.31	344.88	24.74	-38.9	-40.6	20.4	0.00e+00	0	44	0	0	49	4361
2026-01-28 10:02:22.30	344.87	24.58	-38.9	-40.6	20.4	0.00e+00	0	44	0	0	49	4351
2026-01-28 10:02:23.29	344.85	24.43	-39.0	-40.7	20.4	0.00e+00	0	44	0	0	49	4396
2026-01-28 10:02:24.28	344.84	24.27	-38.9	-40.6	20.4	0.00e+00	0	44	0	0	49	4384
2026-01-28 10:02:25.28	344.83	24.12	-39.1	-40.8	20.3	0.00e+00	0	44	0	0	49	4456
2026-01-28 10:02:26.27	344.82	23.97	-39.1	-40.9	20.3	0.00e+00	0	44	0	0	49	4495
2026-01-28 10:02:27.26	344.81	23.82	-39.2	-40.9	20.2	0.00e+00	0	44	0	0	49	4541
2026-01-28 10:02:28.26	344.80	23.67	-39.2	-40.9	20.2	0.00e+00	0	44	0	0	49	4531
2026-01-28 10:02:29.25	344.79	23.52	-39.2	-40.9	20.2	0.00e+00	0	44	0	0	49	4533
2026-01-28 10:02:30.24	344.78	23.37	-39.2	-41.0	20.2	0.00e+00	0	44	0	0	49	4550
2026-01-28 10:02:31.24	344.77	23.22	-39.3	-41.1	20.1	0.00e+00	0	44	0	0	49	4599
2026-01-28 10:02:32.23	344.76	23.08	-39.3	-41.1	20.1	0.00e+00	0	44	0	0	49	4640
2026-01-28 10:02:33.22	344.75	22.93	-39.4	-41.2	20.0	0.00e+00	0	43	0	0	49	4667
2026-01-28 10:02:34.22	344.74	22.79	-39.3	-41.2	20.0	0.00e+00	0	43	0	0	49	4665
2026-01-28 10:02:35.21	344.73	22.64	-39.3	-41.2	20.0	0.00e+00	0	43	0	0	49	4673
2026-01-28 10:02:36.20	344.73	22.50	-39.3	-41.2	20.0	0.00e+00	0	43	0	0	49	4687
2026-01-28 10:02:37.19	344.72	22.36	-39.2	-41.1	20.0	0.00e+00	0	44	0	0	49	4634
2026-01-28 10:02:38.19	344.71	22.22	-39.3	-41.2	20.0	0.00e+00	0	44	0	0	49	4671
2026-01-28 10:02:39.18	344.70	22.08	-39.2	-41.1	20.0	0.00e+00	0	44	0	0	49	4638
2026-01-28 10:02:40.17	344.69	21.94	-39.3	-41.1	20.0	0.00e+00	0	44	0	0	49	4636
2026-01-28 10:02:41.17	344.68	21.80	-39.3	-41.1	20.1	0.00e+00	0	44	0	0	49	4627
2026-01-28 10:02:42.16	344.67	21.66	-39.3	-41.0	20.1	0.00e+00	0	44	0	0	49	4598
2026-01-28 10:02:43.15	344.66	21.52	-39.2	-41.0	20.2	0.00e+00	0	44	0	0	49	4551
2026-01-28 10:02:44.14	344.66	21.38	-39.3	-41.1	20.1	0.00e+00	0	44	0	0	49	4614
2026-01-28 10:02:45.14	344.65	21.25	-39.4	-41.2	20.0	0.00e+00	0	44	0	0	49	4662
2026-01-28 10:02:46.13	344.64	21.11	-39.4	-41.1	20.0	0.00e+00	0	44	0	0	49	4611
2026-01-28 10:02:47.12	344.63	20.98	-39.3	-41.1	20.0	0.00e+00	0	44	0	0	49	4610
2026-01-28 10:02:48.12	344.62	20.84	-39.3	-41.0	20.1	0.00e+00	0	44	0	0	49	4577
2026-01-28 10:02:49.11	344.62	20.71	-39.4	-41.1	19.9	0.00e+00	0	44	0	0	49	4650
2026-01-28 10:02:50.10	344.61	20.58	-39.4	-41.1	20.0	0.00e+00	0	43	0	0	49	4640
2026-01-28 10:02:51.10	344.60	20.44	-39.4	-41.2	19.9	0.00e+00	0	44	0	0	49	4661
2026-01-28 10:02:52.09	344.59	20.31	-39.4	-41.2	19.9	0.00e+00	0	44	0	0	49	4695
2026-01-28 10:02:53.08	344.59	20.18	-39.4	-41.2	19.8	0.00e+00	0	44	0	0	49	4694
2026-01-28 10:02:54.07	344.58	20.05	-39.4	-41.2	19.8	0.00e+00	0	44	0	0	49	4694
2026-01-28 10:02:55.07	344.57	19.92	-39.5	-41.3	19.8	0.00e+00	0	44	0	0	49	4709
2026-01-28 10:02:56.06	344.56	19.80	-39.5	-41.3	19.7	0.00e+00	0	44	0	0	49	4736
2026-01-28 10:02:57.05	344.56	19.67	-39.6	-41.4	19.6	0.00e+00	0	44	0	0	49	4777
2026-01-28 10:02:58.05	344.55	19.54	-39.6	-41.4	19.6	0.00e+00	0	44	0	0	50	4499
2026-01-28 10:02:59.04	344.54	19.41	-39.6	-41.3	19.6	0.00e+00	0	44	0	0	50	4488
2026-01-28 10:03:00.03	344.54	19.29	-39.7	-41.5	19.5	0.00e+00	0	44	0	0	50	4549
2026-01-28 10:03:01.03	344.53	19.16	-39.7	-41.5	19.5	0.00e+00	0	44	0	0	50	4567
2026-01-28 10:03:02.02	344.52	19.04	-39.8	-41.6	19.4	0.00e+00	0	44	0	0	50	4618
2026-01-28 10:03:03.01	344.52	18.91	-39.9	-41.6	19.4	0.00e+00	0	44	0	0	50	4650
2026-01-28 10:03:04.00	344.51	18.79	-39.8	-41.6	19.4	0.00e+00	0	44	0	0	50	4633
2026-01-28 10:03:05.00	344.50	18.67	-39.8	-41.6	19.4	0.00e+00	0	44	0	0	50	4617
2026-01-28 10:03:05.99	344.50	18.55	-39.9	-41.7	19.3	0.00e+00	0	44	0	0	50	4682
2026-01-28 10:03:06.98	344.49	18.42	-39.9	-41.7	19.2	0.00e+00	0	44	0	0	50	4704
2026-01-28 10:03:07.97	344.49	18.30	-39.9	-41.8	19.2	0.00e+00	0	44	0	0	50	4749
2026-01-28 10:03:08.97	344.48	18.18	-40.0	-41.8	19.2	0.00e+00	0	44	0	0	50	4753
2026-01-28 10:03:09.96	344.47	18.06	-39.9	-41.8	19.3	0.00e+00	0	44	0	0	50	4712
2026-01-28 10:03:10.95	344.47	17.94	-40.0	-41.9	19.2	0.00e+00	0	44	0	0	50	4762
2026-01-28 10:03:11.95	344.46	17.83	-40.0	-41.8	19.2	0.00e+00	0	44	0	0	50	4757
2026-01-28 10:03:12.94	344.46	17.71	-40.0	-41.9	19.2	0.00e+00	0	44	0	0	50	4768
2026-01-28 10:03:13.93	344.45	17.59	-40.1	-41.9	19.1	0.00e+00	0	44	0	0	50	4813
2026-01-28 10:03:14.93	344.45	17.47	-40.1	-41.9	19.1	0.00e+00	0	44	0	0	50	4800
2026-01-28 10:03:15.92	344.44	17.36	-40.2	-42.0	19.1	0.00e+00	0	44	0	0	51	4563
2026-01-28 10:03:16.91	344.44	17.24	-40.2	-42.1	19.0	0.00e+00	0	44	0	0	51	4616
2026-01-28 10:03:17.90	344.43	17.13	-40.2	-42.1	19.0	0.00e+00	0	44	0	0	51	4612
2026-01-28 10:03:18.90	344.42	17.01	-40.2	-42.1	19.0	0.00e+00	0	44	0	0	51	4605
2026-01-28 10:03:19.89	344.42	16.90	-40.1	-42.0	19.1	0.00e+00	0	43	0	0	51	4565
2026-01-28 10:03:20.88	344.41	16.78	-40.1	-42.1	19.1	0.00e+00	0	44	0	0	51	4602
2026-01-28 10:03:21.88	344.41	16.67	-40.2	-42.2	19.0	0.00e+00	0	44	0	0	51	4663
2026-01-28 10:03:22.87	344.40	16.56	-40.0	-42.0	19.1	0.00e+00	0	44	0	0	51	4577
2026-01-28 10:03:23.86	344.40	16.45	-40.0	-42.0	19.1	0.00e+00	0	44	0	0	51	4594
2026-01-28 10:03:24.86	344.39	16.33	-40.0	-42.0	19.1	0.00e+00	0	44	0	0	51	4574
2026-01-28 10:03:25.85	344.39	16.22	-39.9	-42.0	19.1	0.00e+00	0	44	0	0	51	4566
2026-01-28 10:03:26.84	344.39	16.11	-40.0	-42.0	19.1	0.00e+00	0	44	0	0	51	4577
2026-01-28 10:03:27.83	344.38	16.00	-39.9	-42.0	19.1	0.00e+00	0	44	0	0	51	4566
2026-01-28 10:03:28.83	344.38	15.89	-39.9	-41.9	19.2	0.00e+00	0	44	0	0	51	4515
2026-01-28 10:03:29.82	344.37	15.78	-39.9	-41.9	19.2	0.00e+00	0	44	0	0	51	4514
2026-01-28 10:03:30.81	344.37	15.67	-39.9	-41.9	19.2	0.00e+00	0	44	0	0	51	4494
2026-01-28 10:03:31.81	344.36	15.57	-40.0	-41.9	19.2	0.00e+00	0	44	0	0	51	4531
2026-01-28 10:03:32.80	344.36	15.46	-40.0	-42.0	19.1	0.00e+00	0	44	0	0	51	4546
2026-01-28 10:03:33.79	344.35	15.35	-40.1	-42.0	19.1	0.00e+00	0	44	0	0	51	4561
2026-01-28 10:03:34.78	344.35	15.25	-40.0	-41.9	19.2	0.00e+00	0	44	0	0	51	4511
2026-01-28 10:03:35.78	344.35	15.14	-40.1	-42.0	19.1	0.00e+00	0	44	0	0	51	4564
2026-01-28 10:03:36.77	344.34	15.03	-40.1	-42.0	19.1	0.00e+00	0	44	0	0	51	4552
2026-01-28 10:03:37.76	344.34	14.93	-40.0	-41.9	19.1	0.00e+00	0	44	0	0	51	4543
2026-01-28 10:03:38.76	344.33	14.82	-40.0	-42.0	19.0	0.00e+00	0	44	0	0	51	4571
2026-01-28 10:03:39.75	344.33	14.72	-40.0	-42.0	19.0	0.00e+00	0	44	0	0	51	4562
2026-01-28 10:03:40.74	344.33	14.61	-40.1	-42.0	19.0	0.00e+00	0	44	0	0	51	4592
2026-01-28 10:03:41.74	344.32	14.51	-40.0	-42.0	19.0	0.00e+00	0	44	0	0	51	4594
2026-01-28 10:03:42.73	344.32	14.41	-40.0	-42.0	19.0	0.00e+00	0	44	0	0	51	4597
2026-01-28 10:03:43.72	344.31	14.31	-40.1	-42.1	18.9	0.00e+00	0	44	0	0	51	4650
2026-01-28 10:03:44.71	344.31	14.20	-40.0	-42.1	18.9	0.00e+00	0	44	0	0	51	4612
2026-01-28 10:03:45.71	344.31	14.10	-40.1	-42.1	18.9	0.00e+00	0	44	0	0	51	4637
2026-01-28 10:03:46.70	344.30	14.00	-40.1	-42.1	18.9	0.00e+00	0	44	0	0	51	4637
2026-01-28 10:03:47.69	344.30	13.90	-40.1	-42.1	18.9	0.00e+00	0	44	0	0	51	4625
2026-01-28 10:03:48.69	344.30	13.80	-40.1	-42.2	18.9	0.00e+00	0	44	0	0	51	4671
2026-01-28 10:03:49.68	344.29	13.70	-40.1	-42.2	18.9	0.00e+00	0	44	0	0	51	4666
2026-01-28 10:03:50.67	344.29	13.60	-40.1	-42.1	18.9	0.00e+00	0	44	0	0	51	4641
2026-01-28 10:03:51.66	344.29	13.50	-40.1	-42.1	19.0	0.00e+00	0	44	0	0	51	4609
2026-01-28 10:03:52.66	344.28	13.40	-40.1	-42.0	19.0	0.00e+00	0	44	0	0	51	4584
2026-01-28 10:03:53.65	344.28	13.30	-40.2	-42.2	18.8	0.00e+00	0	44	0	0	51	4675
2026-01-28 10:03:54.64	344.28	13.20	-40.1	-42.1	18.9	0.00e+00	0	44	0	0	51	4636
2026-01-28 10:03:55.64	344.27	13.11	-40.1	-42.1	19.0	0.00e+00	0	44	0	0	51	4606
2026-01-28 10:03:56.63	344.27	13.01	-40.1	-42.1	18.9	0.00e+00	0	44	0	0	51	4607
2026-01-28 10:03:57.62	344.27	12.91	-40.0	-42.0	19.0	0.00e+00	0	44	0	0	51	4569
2026-01-28 10:03:58.61	344.27	12.82	-40.1	-42.1	18.9	0.00e+00	0	44	0	0	51	4634
2026-01-28 10:03:59.61	344.26	12.72	-40.1	-42.1	18.9	0.00e+00	0	44	0	0	51	4627
2026-01-28 10:04:00.60	344.26	12.62	-40.2	-42.2	18.8	0.00e+00	0	44	0	0	51	4674
2026-01-28 10:04:01.59	344.26	12.53	-40.2	-42.2	18.8	0.00e+00	0	44	0	0	51	4688
2026-01-28 10:04:02.59	344.25	12.43	-40.1	-42.2	18.8	0.00e+00	0	44	0	0	51	4660
2026-01-28 10:04:03.58	344.25	12.34	-40.1	-42.1	18.9	0.00e+00	0	44	0	0	51	4617
2026-01-28 10:04:04.57	344.25	12.24	-40.2	-42.2	18.8	0.00e+00	0	44	0	0	51	4679
2026-01-28 10:04:05.56	344.25	12.15	-40.1	-42.1	18.9	0.00e+00	0	44	0	0	51	4618
2026-01-28 10:04:06.56	344.24	12.06	-40.2	-42.2	18.8	0.00e+00	0	44	0	0	51	4680
2026-01-28 10:04:07.55	344.24	11.96	-40.3	-42.4	18.6	0.00e+00	0	44	0	0	51	4769
2026-01-28 10:04:08.54	344.24	11.87	-40.2	-42.2	18.8	0.00e+00	0	44	0	0	51	4682
2026-01-28 10:04:09.54	344.24	11.78	-40.2	-42.2	18.8	0.00e+00	0	44	0	0	51	4663
2026-01-28 10:04:10.53	344.23	11.69	-40.3	-42.2	18.7	0.00e+00	0	44	0	0	51	4695
2026-01-28 10:04:11.52	344.23	11.59	-40.2	-42.2	18.8	0.00e+00	0	44	0	0	51	4667
2026-01-28 10:04:12.51	344.23	11.50	-40.3	-42.3	18.7	0.00e+00	0	44	0	0	51	4707
2026-01-28 10:04:13.51	344.23	11.41	-40.3	-42.3	18.7	0.00e+00	0	44	0	0	51	4719
2026-01-28 10:04:14.50	344.22	11.32	-40.3	-42.4	18.6	0.00e+00	0	44	0	0	51	4764
2026-01-28 10:04:15.49	344.22	11.23	-40.3	-42.4	18.6	0.00e+00	0	44	0	0	51	4773
2026-01-28 10:04:16.49	344.22	11.14	-40.4	-42.4	18.5	0.00e+00	0	44	0	0	51	4799
2026-01-28 10:04:17.48	344.22	11.05	-40.3	-42.4	18.5	0.00e+00	0	44	0	0	51	4785
2026-01-28 10:04:18.47	344.22	10.96	-40.4	-42.5	18.4	0.00e+00	0	44	0	0	51	4855
2026-01-28 10:04:19.46	344.21	10.87	-40.4	-42.6	18.4	0.00e+00	0	44	0	0	51	4883
2026-01-28 10:04:20.46	344.21	10.78	-40.3	-42.5	18.4	0.00e+00	0	44	0	0	51	4835
2026-01-28 10:04:21.45	344.21	10.69	-40.2	-42.5	18.4	0.00e+00	0	44	0	0	51	4870
2026-01-28 10:04:22.44	344.21	10.61	-40.2	-42.6	18.4	0.00e+00	0	44	0	0	51	4883
2026-01-28 10:04:23.44	344.21	10.52	-40.2	-42.6	18.3	0.00e+00	0	44	0	0	51	4918
2026-01-28 10:04:24.43	344.20	10.43	-40.2	-42.8	18.2	0.00e+00	0	44	0	0	51	5000
2026-01-28 10:04:25.42	344.20	10.34	-40.1	-42.6	18.3	0.00e+00	0	44	0	0	51	4920
2026-01-28 10:04:26.41	344.20	10.26	-40.1	-42.7	18.2	0.00e+00	0	44	0	0	51	4969
2026-01-28 10:04:27.41	344.20	10.17	-40.0	-42.8	18.1	0.00e+00	0	44	0	0	51	5000
2026-01-28 10:04:28.40	344.20	10.08	-40.1	-42.9	18.0	0.00e+00	0	44	0	0	51	5051
2026-01-28 10:04:29.39	344.19	10.00	-40.0	-42.8	18.1	0.00e+00	0	44	0	0	51	5004
2026-01-28 10:04:30.39	344.19	9.91	-40.1	-42.9	18.0	0.00e+00	0	44	0	0	51	5088
2026-01-28 10:04:31.38	344.19	9.83	-40.1	-43.0	17.9	0.00e+00	0	44	0	0	51	5107
2026-01-28 10:04:32.37	344.19	9.74	-40.2	-43.0	17.9	0.00e+00	0	44	0	0	51	5119
2026-01-28 10:04:33.37	344.19	9.66	-40.2	-43.0	17.9	0.00e+00	0	44	0	0	51	5126
2026-01-28 10:04:34.36	344.19	9.57	-40.3	-43.1	17.8	0.00e+00	0	44	0	0	51	5189
2026-01-28 10:04:35.35	344.18	9.49	-40.4	-43.2	17.7	0.00e+00	0	44	0	0	51	5233
2026-01-28 10:04:36.34	344.18	9.40	-40.3	-43.1	17.8	0.00e+00	0	44	0	0	51	5175
2026-01-28 10:04:37.34	344.18	9.32	-40.4	-43.1	17.8	0.00e+00	0	44	0	0	51	5198
2026-01-28 10:04:38.33	344.18	9.24	-40.4	-43.1	17.7	0.00e+00	0	44	0	0	51	5215
2026-01-28 10:04:39.32	344.18	9.15	-40.5	-43.3	17.6	0.00e+00	0	44	0	0	51	5289
2026-01-28 10:04:40.32	344.18	9.07	-40.5	-43.3	17.6	0.00e+00	0	44	0	0	51	5313
2026-01-28 10:04:41.31	344.18	8.99	-40.4	-43.2	17.6	0.00e+00	0	44	0	0	51	5274
2026-01-28 10:04:42.30	344.18	8.91	-46.7	-61.0	3.8	5.79e-01	0	44	104	0	64	19286
2026-01-28 10:04:43.29	344.17	8.82	-48.5	-62.4	3.8	1.49e+00	0	44	104	0	67	18953
2026-01-28 10:04:44.29	344.17	8.74	-47.6	-62.4	3.8	1.49e+00	0	44	104	0	66	20206
2026-01-28 10:04:45.28	344.17	8.66	-48.7	-62.4	3.8	1.49e+00	0	44	104	0	67	19075
2026-01-28 10:04:46.27	344.17	8.58	-48.6	-62.5	3.8	1.49e+00	0	44	104	0	68	18226
2026-01-28 10:04:47.27	344.17	8.50	-49.0	-62.5	3.8	1.49e+00	0	44	104	0	68	18116
2026-01-28 10:04:48.26	344.17	8.42	-48.0	-62.2	3.8	1.49e+00	0	44	104	0	66	19661
2026-01-28 10:04:49.25	344.17	8.34	-47.8	-62.0	3.8	1.49e+00	0	44	104	0	67	18131
2026-01-28 10:04:50.25	344.17	8.26	-48.9	-62.2	3.8	1.49e+00	0	44	104	0	68	17627
2026-01-28 10:04:51.24	344.17	8.18	-48.6	-62.2	3.8	1.49e+00	0	44	104	0	68	17585
2026-01-28 10:04:52.23	344.16	8.10	-48.8	-62.3	3.8	1.49e+00	0	44	104	0	68	17693
2026-01-28 10:04:53.22	344.16	8.02	-49.1	-62.3	3.8	1.49e+00	0	44	104	0	68	17755
2026-01-28 10:04:54.22	344.16	7.94	-49.1	-62.3	3.8	1.49e+00	0	44	104	0	69	16788
2026-01-28 10:04:55.21	344.16	7.86	-49.0	-62.3	3.8	1.49e+00	0	44	104	0	69	16817
2026-01-28 10:04:56.20	344.16	7.78	-49.3	-62.3	3.8	1.49e+00	0	44	104	0	69	16720
2026-01-28 10:04:57.19	344.16	7.70	-49.3	-62.3	3.8	1.49e+00	0	44	104	0	69	16828
2026-01-28 10:04:58.19	344.16	7.63	-49.2	-62.4	3.8	1.49e+00	0	44	104	0	69	17023
2026-01-28 10:04:59.18	344.16	7.55	-49.3	-62.4	3.8	1.49e+00	0	44	104	0	69	16895
2026-01-28 10:05:00.17	344.16	7.47	-49.4	-62.4	3.8	1.49e+00	0	44	104	0	69	16961
2026-01-28 10:05:01.17	344.16	7.39	-49.2	-62.4	3.8	1.49e+00	0	44	104	0	69	16998
2026-01-28 10:05:02.16	344.16	7.31	-49.2	-62.4	3.8	1.49e+00	0	44	104	0	69	17021
2026-01-28 10:05:03.15	344.15	7.24	-49.1	-62.4	3.8	1.49e+00	0	44	104	0	69	17002
