passes_logs/2026/01/28/T1/T1__20260128_045130_FENGYUN_3E_rec.log

#Pass ID: 20260128_045130_FENGYUN 3E
#Satellite: FENGYUN 3E
#Configuration: FENGYUN 3E
#almurnet v.1.7.20251203
#Start time: 2026-01-28 04:51:31

#Version: 2.0.20230620
#Station: T1
#Location: 37.570604 lon 55.790049 lat
#TLE: 1 49008U 21062A   26027.61944472  .00000309  00000+0  16619-3 0  9993
#TLE: 2 49008  98.7500  32.6009 0002501 114.4803 245.6635 14.19888604236631

#Time	Az	El	Level	Level2	SNR	BER	BlckErr	Temp	State	Recorded	gain1	gain2
2026-01-28 04:51:31.05	10.87	5.05	-50.6	-61.5	3.8	8.45e-01	0	41	0	0	70	13425
2026-01-28 04:51:32.04	10.82	5.12	-50.8	-61.4	3.8	8.47e-01	0	41	104	0	71	12645
2026-01-28 04:51:33.04	10.78	5.19	-50.8	-61.5	3.8	8.47e-01	0	41	104	0	71	12665
2026-01-28 04:51:34.04	10.74	5.26	-50.7	-61.4	3.8	8.47e-01	0	42	104	0	71	12632
2026-01-28 04:51:35.04	10.69	5.33	-50.8	-61.6	3.8	8.46e-01	0	42	104	0	71	12830
2026-01-28 04:51:36.03	10.65	5.39	-50.7	-61.5	3.8	8.47e-01	0	41	104	0	71	12785
2026-01-28 04:51:37.03	10.61	5.46	-50.7	-61.5	3.8	8.47e-01	0	41	104	0	71	12684
2026-01-28 04:51:38.03	10.56	5.53	-50.7	-61.4	3.8	8.47e-01	0	42	104	0	71	12608
2026-01-28 04:51:39.03	10.52	5.60	-50.7	-61.4	3.8	8.47e-01	0	42	104	0	71	12530
2026-01-28 04:51:40.02	10.47	5.67	-50.5	-61.3	3.8	8.47e-01	0	42	104	0	71	12480
2026-01-28 04:51:41.02	10.43	5.74	-50.6	-61.3	3.8	8.46e-01	0	42	104	0	71	12381
2026-01-28 04:51:42.02	10.38	5.81	-50.5	-61.2	3.8	8.47e-01	0	42	104	0	71	12361
2026-01-28 04:51:43.01	10.34	5.88	-50.2	-61.2	3.8	8.46e-01	0	42	104	0	71	12368
2026-01-28 04:51:44.01	10.29	5.95	-50.4	-61.2	3.8	8.47e-01	0	42	104	0	71	12373
2026-01-28 04:51:45.01	10.25	6.02	-50.3	-61.1	3.8	8.47e-01	0	42	104	0	71	12214
2026-01-28 04:51:46.01	10.20	6.09	-49.7	-61.2	3.8	8.47e-01	0	42	104	0	70	13065
2026-01-28 04:51:47.01	10.16	6.16	-50.1	-61.2	3.8	8.46e-01	0	42	104	0	70	13098
2026-01-28 04:51:48.01	10.11	6.23	-49.9	-61.2	3.8	8.47e-01	0	42	104	0	70	13033
2026-01-28 04:51:49.01	10.06	6.31	-49.7	-61.1	3.8	8.48e-01	0	42	104	0	69	13631
2026-01-28 04:51:50.00	10.02	6.38	-49.7	-61.1	3.8	8.47e-01	0	42	104	0	70	12853
2026-01-28 04:51:51.00	9.97	6.45	-49.1	-61.1	3.8	8.47e-01	0	42	104	0	68	14438
2026-01-28 04:51:52.00	9.92	6.52	-48.9	-60.9	3.8	8.46e-01	0	42	104	0	68	14189
2026-01-28 04:51:53.00	9.87	6.59	-47.1	-60.8	3.8	8.47e-01	0	42	104	0	64	17579
2026-01-28 04:51:54.00	9.82	6.66	-47.8	-59.9	3.8	8.47e-01	0	42	104	0	65	15004
2026-01-28 04:51:55.00	9.78	6.74	-47.7	-59.6	3.8	8.45e-01	0	42	104	0	65	14404
2026-01-28 04:51:55.99	9.73	6.81	-47.7	-59.0	3.8	8.46e-01	0	42	104	0	65	13467
2026-01-28 04:51:56.99	9.68	6.88	-47.6	-58.5	3.8	8.46e-01	0	42	104	0	65	12704
2026-01-28 04:51:57.99	9.63	6.95	-47.6	-57.9	3.9	8.45e-01	0	42	104	0	65	11941
2026-01-28 04:51:58.98	9.58	7.03	-47.5	-57.4	4.1	8.40e-01	0	42	0	0	65	11278
2026-01-28 04:51:59.98	9.53	7.10	-47.5	-57.2	4.2	8.39e-01	0	43	0	0	65	10923
2026-01-28 04:52:00.98	9.48	7.17	-47.4	-56.9	4.3	8.35e-01	0	42	0	0	65	10650
2026-01-28 04:52:01.97	9.43	7.25	-47.4	-56.8	4.3	8.34e-01	0	42	0	0	65	10445
2026-01-28 04:52:02.97	9.38	7.32	-47.4	-56.8	4.3	8.33e-01	0	42	0	0	65	10451
2026-01-28 04:52:03.97	9.33	7.39	-47.4	-56.7	4.3	8.34e-01	0	43	0	0	65	10399
2026-01-28 04:52:04.97	9.28	7.47	-47.5	-56.8	4.3	8.33e-01	0	43	0	0	65	10531
2026-01-28 04:52:05.96	9.23	7.54	-47.5	-56.9	4.3	8.34e-01	0	42	0	0	65	10627
2026-01-28 04:52:06.96	9.18	7.62	-47.5	-56.9	4.3	8.34e-01	0	43	0	0	65	10577
2026-01-28 04:52:07.95	9.13	7.69	-47.4	-56.8	4.3	8.35e-01	0	43	0	0	65	10464
2026-01-28 04:52:08.95	9.07	7.77	-47.4	-56.5	4.4	8.30e-01	0	43	0	0	65	10075
2026-01-28 04:52:09.95	9.02	7.84	-47.3	-56.1	4.6	8.20e-01	0	43	0	0	65	9620
2026-01-28 04:52:10.94	8.97	7.92	-47.2	-54.9	5.2	7.73e-01	0	43	0	0	65	8443
2026-01-28 04:52:11.94	8.92	7.99	-46.9	-53.5	6.1	5.25e-01	0	43	0	2097152	64	7616
2026-01-28 04:52:12.94	8.86	8.07	-46.5	-52.2	7.3	1.48e-01	0	43	0	9437184	63	6902
2026-01-28 04:52:13.94	8.81	8.14	-46.0	-50.6	8.9	4.58e-02	0	43	0	16777216	62	6101
2026-01-28 04:52:14.94	8.76	8.22	-45.4	-49.3	10.3	1.10e-02	0	43	0	23068672	61	5531
2026-01-28 04:52:15.93	8.70	8.30	-44.7	-48.1	11.5	8.58e-04	0	43	0	30408704	60	5109
2026-01-28 04:52:16.92	8.65	8.37	-44.2	-47.0	12.6	1.79e-04	0	43	0	37748736	59	4765
2026-01-28 04:52:17.92	8.59	8.45	-43.7	-46.1	13.5	1.37e-05	0	43	0	45088768	58	4591
2026-01-28 04:52:18.92	8.54	8.53	-43.2	-45.5	14.1	4.50e-06	0	43	0	52428800	57	4494
2026-01-28 04:52:19.92	8.48	8.60	-43.1	-45.3	14.3	1.10e-06	0	43	0	59768832	56	4692
2026-01-28 04:52:20.92	8.43	8.68	-42.9	-45.1	14.5	1.10e-06	0	43	0	67108864	56	4553
2026-01-28 04:52:21.91	8.37	8.76	-43.1	-45.3	14.3	1.10e-06	0	43	0	74448896	56	4671
2026-01-28 04:52:22.91	8.31	8.84	-43.3	-45.6	14.0	2.20e-06	0	43	0	80740352	56	4848
2026-01-28 04:52:23.91	8.26	8.91	-43.7	-46.2	13.3	1.48e-05	0	43	0	88080384	56	5215
2026-01-28 04:52:24.90	8.20	8.99	-44.4	-47.3	12.3	1.69e-04	0	43	0	95420416	58	5235
2026-01-28 04:52:25.90	8.14	9.07	-44.6	-47.6	12.0	2.66e-04	0	43	0	102760448	58	5418
2026-01-28 04:52:26.90	8.09	9.15	-46.6	-53.2	6.5	8.58e-02	0	43	0	110100480	62	8227
2026-01-28 04:52:27.90	8.03	9.23	-42.2	-44.0	15.4	0.00e+00	0	43	0	117440512	55	4257
2026-01-28 04:52:28.89	7.97	9.31	-39.8	-41.0	18.5	0.00e+00	0	43	0	123731968	50	4026
2026-01-28 04:52:29.89	7.91	9.39	-47.0	-52.6	7.2	7.20e-05	0	43	0	131072000	63	7246
2026-01-28 04:52:30.89	7.85	9.46	-39.9	-41.1	18.4	0.00e+00	0	43	0	138412032	50	4065
2026-01-28 04:52:31.88	7.79	9.54	-39.7	-40.9	18.6	0.00e+00	0	43	0	145752064	49	4213
2026-01-28 04:52:32.89	7.73	9.62	-39.5	-40.7	18.8	0.00e+00	0	43	0	153092096	49	4119
2026-01-28 04:52:33.88	7.67	9.70	-39.3	-40.5	19.0	0.00e+00	0	43	0	159383552	49	4019
2026-01-28 04:52:34.88	7.61	9.78	-39.3	-40.5	19.0	0.00e+00	0	43	0	166723584	49	4026
2026-01-28 04:52:35.88	7.55	9.87	-39.3	-40.5	19.0	0.00e+00	0	43	0	174063616	49	4011
2026-01-28 04:52:36.88	7.49	9.95	-39.4	-40.6	18.9	0.00e+00	0	43	0	181403648	49	4071
2026-01-28 04:52:37.87	7.43	10.03	-39.4	-40.5	19.0	0.00e+00	0	43	0	188743680	49	4046
2026-01-28 04:52:38.87	7.37	10.11	-39.2	-40.4	19.1	0.00e+00	0	43	0	196083712	49	3971
2026-01-28 04:52:39.87	7.31	10.19	-39.1	-40.3	19.3	0.00e+00	0	43	0	203423744	49	3919
2026-01-28 04:52:40.86	7.24	10.27	-39.1	-40.3	19.2	0.00e+00	0	43	0	210763776	48	4153
2026-01-28 04:52:41.87	7.18	10.35	-39.2	-40.4	19.1	0.00e+00	0	43	0	218103808	48	4213
2026-01-28 04:52:42.86	7.12	10.44	-39.1	-40.3	19.2	0.00e+00	0	43	0	224395264	48	4157
2026-01-28 04:52:43.86	7.05	10.52	-39.0	-40.2	19.3	0.00e+00	0	43	0	231735296	48	4109
2026-01-28 04:52:44.85	6.99	10.60	-39.1	-40.3	19.3	0.00e+00	0	43	0	239075328	48	4146
2026-01-28 04:52:45.85	6.92	10.68	-39.0	-40.1	19.4	0.00e+00	0	43	0	246415360	48	4079
2026-01-28 04:52:46.85	6.86	10.77	-38.9	-40.0	19.5	0.00e+00	0	43	0	253755392	48	4027
2026-01-28 04:52:47.85	6.79	10.85	-38.9	-40.0	19.5	0.00e+00	0	43	0	261095424	48	4039
2026-01-28 04:52:48.85	6.73	10.94	-38.9	-40.0	19.5	0.00e+00	0	43	0	267386880	48	4013
2026-01-28 04:52:49.85	6.66	11.02	-38.9	-40.0	19.5	0.00e+00	0	43	0	274726912	48	4022
2026-01-28 04:52:50.85	6.60	11.10	-38.7	-39.8	19.7	0.00e+00	0	43	0	282066944	48	3946
2026-01-28 04:52:51.85	6.53	11.19	-38.8	-39.9	19.6	0.00e+00	0	43	0	289406976	48	4003
2026-01-28 04:52:52.85	6.46	11.27	-38.9	-40.0	19.5	0.00e+00	0	43	0	296747008	48	4032
2026-01-28 04:52:53.84	6.39	11.36	-39.1	-40.2	19.4	0.00e+00	0	44	0	304087040	48	4114
2026-01-28 04:52:54.84	6.33	11.44	-39.0	-40.1	19.4	0.00e+00	0	43	0	311427072	48	4071
2026-01-28 04:52:55.84	6.26	11.53	-38.9	-40.1	19.4	0.00e+00	0	43	0	318767104	48	4067
2026-01-28 04:52:56.84	6.19	11.62	-38.7	-39.9	19.7	0.00e+00	0	43	0	325058560	48	3960
2026-01-28 04:52:57.84	6.12	11.70	-38.8	-39.9	19.6	0.00e+00	0	43	0	332398592	48	3985
2026-01-28 04:52:58.84	6.05	11.79	-38.7	-39.8	19.7	0.00e+00	0	43	0	339738624	48	3936
2026-01-28 04:52:59.84	5.98	11.87	-38.7	-39.8	19.7	0.00e+00	0	43	0	347078656	48	3951
2026-01-28 04:53:00.84	5.91	11.96	-38.6	-39.7	19.7	0.00e+00	0	43	0	354418688	48	3910
2026-01-28 04:53:01.84	5.84	12.05	-38.6	-39.7	19.9	0.00e+00	0	43	0	361758720	48	3877
2026-01-28 04:53:02.83	5.77	12.14	-38.6	-39.7	19.5	0.00e+00	0	43	0	369098752	47	4135
2026-01-28 04:53:03.83	5.69	12.22	-38.5	-39.6	19.6	0.00e+00	0	43	0	376438784	47	4094
2026-01-28 04:53:04.83	5.62	12.31	-38.5	-39.6	19.6	0.00e+00	0	44	0	383778816	47	4096
2026-01-28 04:53:05.83	5.55	12.40	-38.5	-39.6	19.6	0.00e+00	0	43	0	390070272	47	4070
2026-01-28 04:53:06.83	5.47	12.49	-38.5	-39.7	19.6	0.00e+00	0	43	0	397410304	47	4110
2026-01-28 04:53:07.83	5.40	12.58	-38.4	-39.5	19.7	0.00e+00	0	43	0	404750336	47	4041
2026-01-28 04:53:08.82	5.33	12.67	-38.5	-39.6	19.7	0.00e+00	0	43	0	412090368	47	4083
2026-01-28 04:53:09.82	5.25	12.75	-38.5	-39.6	19.7	0.00e+00	0	43	0	419430400	47	4065
2026-01-28 04:53:10.82	5.18	12.84	-38.5	-39.6	19.6	0.00e+00	0	43	0	426770432	47	4091
2026-01-28 04:53:11.81	5.10	12.93	-38.3	-39.5	19.8	0.00e+00	0	44	0	434110464	47	4005
2026-01-28 04:53:12.81	5.02	13.02	-38.3	-39.4	19.8	0.00e+00	0	44	0	441450496	47	4001
2026-01-28 04:53:13.81	4.95	13.11	-38.2	-39.3	20.0	0.00e+00	0	43	0	448790528	46	4163
2026-01-28 04:53:14.81	4.87	13.21	-38.3	-39.4	19.9	0.00e+00	0	44	0	455081984	46	4215
2026-01-28 04:53:15.81	4.79	13.30	-38.4	-39.5	19.8	0.00e+00	0	44	0	462422016	46	4245
2026-01-28 04:53:16.80	4.72	13.39	-38.1	-39.2	20.1	0.00e+00	0	44	0	469762048	46	4099
2026-01-28 04:53:17.80	4.64	13.48	-38.1	-39.2	20.1	0.00e+00	0	44	0	477102080	46	4107
2026-01-28 04:53:18.80	4.56	13.57	-38.1	-39.1	20.1	0.00e+00	0	44	0	484442112	46	4083
2026-01-28 04:53:19.79	4.48	13.66	-38.0	-39.0	20.2	0.00e+00	0	44	0	490733568	46	4048
2026-01-28 04:53:20.79	4.40	13.75	-37.9	-39.0	20.3	0.00e+00	0	43	0	498073600	46	4010
2026-01-28 04:53:21.79	4.32	13.85	-38.0	-39.0	20.3	0.00e+00	0	43	0	505413632	46	4038
2026-01-28 04:53:22.79	4.23	13.94	-38.0	-39.0	20.2	0.00e+00	0	44	0	512753664	46	4033
2026-01-28 04:53:23.79	4.15	14.03	-37.8	-38.8	20.5	0.00e+00	0	44	0	520093696	46	3939
2026-01-28 04:53:24.78	4.07	14.13	-37.8	-38.8	20.5	0.00e+00	0	44	0	527433728	46	3953
2026-01-28 04:53:25.77	3.99	14.22	-37.8	-38.8	20.5	0.00e+00	0	43	0	534773760	46	3936
2026-01-28 04:53:26.77	3.90	14.31	-37.9	-38.9	20.4	0.00e+00	0	44	0	542113792	46	3976
2026-01-28 04:53:27.76	3.82	14.41	-37.8	-38.8	20.5	0.00e+00	0	44	0	549453824	46	3936
2026-01-28 04:53:28.76	3.74	14.50	-37.7	-38.7	20.6	0.00e+00	0	44	0	555745280	46	3871
2026-01-28 04:53:29.75	3.65	14.60	-37.8	-38.8	20.5	0.00e+00	0	44	0	563085312	46	3925
2026-01-28 04:53:30.76	3.57	14.69	-37.8	-38.8	20.5	0.00e+00	0	44	0	570425344	46	3946
2026-01-28 04:53:31.75	3.48	14.79	-37.8	-38.7	20.5	0.00e+00	0	44	0	577765376	46	3911
2026-01-28 04:53:32.75	3.39	14.89	-37.9	-38.8	20.4	0.00e+00	0	43	0	585105408	46	3957
2026-01-28 04:53:33.74	3.31	14.98	-37.8	-38.8	20.5	0.00e+00	0	44	0	592445440	46	3922
2026-01-28 04:53:34.74	3.22	15.08	-38.0	-38.9	20.3	0.00e+00	0	43	0	598736896	46	4001
2026-01-28 04:53:35.74	3.13	15.18	-37.9	-38.9	20.4	0.00e+00	0	44	0	606076928	46	3969
2026-01-28 04:53:36.74	3.04	15.27	-37.8	-38.7	20.5	0.00e+00	0	44	0	613416960	46	3913
2026-01-28 04:53:37.73	2.95	15.37	-37.7	-38.7	20.6	0.00e+00	0	44	0	620756992	46	3871
2026-01-28 04:53:38.73	2.86	15.47	-37.7	-38.7	20.6	0.00e+00	0	44	0	628097024	46	3881
2026-01-28 04:53:39.72	2.77	15.57	-37.9	-38.9	20.5	0.00e+00	0	44	0	635437056	46	3968
2026-01-28 04:53:40.72	2.68	15.66	-37.7	-38.6	20.7	0.00e+00	0	44	0	642777088	46	3857
2026-01-28 04:53:41.72	2.58	15.76	-37.8	-38.7	20.6	0.00e+00	0	44	0	650117120	46	3911
2026-01-28 04:53:42.71	2.49	15.86	-37.8	-38.8	20.6	0.00e+00	0	43	0	656408576	46	3918
2026-01-28 04:53:43.71	2.40	15.96	-37.7	-38.6	20.7	0.00e+00	0	44	0	663748608	46	3863
2026-01-28 04:53:44.71	2.30	16.06	-37.8	-38.8	20.6	0.00e+00	0	44	0	671088640	46	3926
2026-01-28 04:53:45.71	2.21	16.16	-37.6	-38.6	20.7	0.00e+00	0	44	0	678428672	45	4077
2026-01-28 04:53:46.70	2.11	16.26	-37.7	-38.7	20.6	0.00e+00	0	44	0	685768704	45	4106
2026-01-28 04:53:47.70	2.02	16.36	-37.6	-38.5	20.8	0.00e+00	0	44	0	693108736	45	4041
2026-01-28 04:53:48.70	1.92	16.46	-37.6	-38.6	20.7	0.00e+00	0	44	0	699400192	45	4064
2026-01-28 04:53:49.69	1.82	16.56	-37.5	-38.5	20.8	0.00e+00	0	44	0	706740224	45	4017
2026-01-28 04:53:50.69	1.72	16.67	-37.4	-38.4	20.9	0.00e+00	0	44	0	714080256	45	3984
2026-01-28 04:53:51.69	1.63	16.77	-37.2	-38.2	21.1	0.00e+00	0	44	0	721420288	45	3902
2026-01-28 04:53:52.69	1.53	16.87	-37.1	-38.0	21.2	0.00e+00	0	44	0	728760320	45	3821
2026-01-28 04:53:53.69	1.42	16.97	-37.1	-38.1	21.3	0.00e+00	0	44	0	736100352	44	4055
2026-01-28 04:53:54.69	1.32	17.08	-37.1	-38.0	21.3	0.00e+00	0	44	0	743440384	44	4046
2026-01-28 04:53:55.69	1.22	17.18	-37.1	-38.0	21.3	0.00e+00	0	44	0	750780416	44	4048
2026-01-28 04:53:56.68	1.12	17.29	-37.0	-38.0	21.3	0.00e+00	0	44	0	758120448	44	4023
2026-01-28 04:53:57.68	1.02	17.39	-37.0	-38.0	21.3	0.00e+00	0	44	0	764411904	44	4029
2026-01-28 04:53:58.68	0.91	17.49	-37.0	-37.9	21.4	0.00e+00	0	44	0	771751936	44	3996
2026-01-28 04:53:59.67	0.81	17.60	-36.9	-37.9	21.4	0.00e+00	0	44	0	779091968	44	3986
2026-01-28 04:54:00.67	0.70	17.70	-36.8	-37.8	21.5	0.00e+00	0	44	0	786432000	44	3934
2026-01-28 04:54:01.67	0.59	17.81	-37.0	-38.0	21.3	0.00e+00	0	44	0	793772032	44	4025
2026-01-28 04:54:02.67	0.49	17.92	-37.0	-38.0	21.3	0.00e+00	0	44	0	801112064	44	4014
2026-01-28 04:54:03.66	0.38	18.02	-36.9	-37.9	21.4	0.00e+00	0	44	0	808452096	44	3977
2026-01-28 04:54:04.66	0.27	18.13	-37.0	-38.0	21.3	0.00e+00	0	44	0	815792128	44	4030
2026-01-28 04:54:05.66	0.16	18.24	-36.7	-37.6	21.6	0.00e+00	0	44	0	822083584	44	3864
2026-01-28 04:54:06.65	0.05	18.34	-36.9	-37.9	21.5	0.00e+00	0	44	0	829423616	44	3961
2026-01-28 04:54:07.65	359.94	18.45	-36.9	-37.8	21.5	0.00e+00	0	44	0	836763648	44	3944
2026-01-28 04:54:08.65	359.83	18.56	-36.9	-37.8	21.5	0.00e+00	0	44	0	844103680	44	3941
2026-01-28 04:54:09.65	359.72	18.67	-36.9	-37.8	21.5	0.00e+00	0	44	0	851443712	44	3933
2026-01-28 04:54:10.65	359.60	18.78	-36.7	-37.6	21.7	0.00e+00	0	44	0	858783744	44	3857
2026-01-28 04:54:11.65	359.49	18.89	-36.7	-37.6	21.7	0.00e+00	0	44	0	865075200	44	3861
2026-01-28 04:54:12.65	359.37	19.00	-36.8	-37.7	21.6	0.00e+00	0	44	0	872415232	44	3901
2026-01-28 04:54:13.64	359.26	19.11	-36.6	-37.5	21.8	0.00e+00	0	44	0	879755264	44	3817
2026-01-28 04:54:14.64	359.14	19.22	-36.4	-37.3	21.8	0.00e+00	0	44	0	887095296	43	3938
2026-01-28 04:54:15.64	359.02	19.33	-36.2	-37.1	22.0	0.00e+00	0	44	0	894435328	43	3855
2026-01-28 04:54:16.63	358.90	19.44	-36.2	-37.1	22.0	0.00e+00	0	44	0	901775360	42	4054
2026-01-28 04:54:17.63	358.78	19.55	-36.2	-37.0	22.0	0.00e+00	0	44	0	909115392	42	4048
2026-01-28 04:54:18.63	358.66	19.66	-36.1	-37.0	22.1	0.00e+00	0	44	0	916455424	42	4015
2026-01-28 04:54:19.62	358.54	19.77	-36.0	-36.9	22.2	0.00e+00	0	44	0	923795456	42	3974
2026-01-28 04:54:20.62	358.42	19.88	-36.0	-36.9	22.2	0.00e+00	0	44	0	930086912	42	3980
2026-01-28 04:54:21.63	358.29	20.00	-35.9	-36.8	22.3	0.00e+00	0	44	0	937426944	42	3938
2026-01-28 04:54:22.62	358.17	20.11	-36.1	-37.0	22.1	0.00e+00	0	44	0	944766976	42	4032
2026-01-28 04:54:23.62	358.05	20.23	-36.1	-37.0	22.1	0.00e+00	0	44	0	952107008	42	4042
2026-01-28 04:54:24.62	357.92	20.34	-36.1	-37.0	22.1	0.00e+00	0	44	0	959447040	42	4042
2026-01-28 04:54:25.62	357.79	20.45	-36.2	-37.1	22.1	0.00e+00	0	44	0	966787072	42	4054
2026-01-28 04:54:26.61	357.66	20.57	-35.8	-36.7	22.3	0.00e+00	0	44	0	974127104	42	3902
2026-01-28 04:54:27.61	357.54	20.68	-36.3	-37.2	22.0	0.00e+00	0	44	0	981467136	42	4115
2026-01-28 04:54:28.61	357.40	20.80	-36.3	-37.2	21.9	0.00e+00	0	44	0	987758592	42	4119
2026-01-28 04:54:29.61	357.27	20.92	-36.3	-37.2	21.9	0.00e+00	0	44	0	995098624	42	4142
2026-01-28 04:54:30.61	357.14	21.03	-36.3	-37.2	21.9	0.00e+00	0	44	0	1002438656	42	4144
2026-01-28 04:54:31.61	357.01	21.15	-36.2	-37.1	22.1	0.00e+00	0	44	0	1009778688	42	4070
2026-01-28 04:54:32.61	356.87	21.27	-36.4	-37.3	21.9	0.00e+00	0	44	0	1017118720	42	4152
2026-01-28 04:54:33.61	356.74	21.38	-36.3	-37.2	22.0	0.00e+00	0	44	0	1024458752	42	4104
2026-01-28 04:54:34.60	356.60	21.50	-36.2	-37.0	22.1	0.00e+00	0	44	0	1031798784	42	4051
2026-01-28 04:54:35.60	356.46	21.62	-36.3	-37.2	22.0	0.00e+00	0	44	0	1038090240	42	4108
2026-01-28 04:54:36.60	356.33	21.74	-36.2	-37.1	22.1	0.00e+00	0	44	0	1045430272	42	4073
2026-01-28 04:54:37.59	356.19	21.86	-36.0	-36.9	22.2	0.00e+00	0	44	0	1052770304	41	4234
2026-01-28 04:54:38.59	356.05	21.97	-36.0	-36.9	22.2	0.00e+00	0	44	0	1060110336	41	4211
2026-01-28 04:54:39.59	355.90	22.09	-35.9	-36.8	22.4	0.00e+00	0	44	0	1067450368	41	4158
2026-01-28 04:54:40.59	355.76	22.22	-35.8	-36.7	22.4	0.00e+00	0	44	0	1074790400	41	4105
2026-01-28 04:54:41.59	355.62	22.34	-35.7	-36.6	22.5	0.00e+00	0	44	0	1082130432	41	4081
2026-01-28 04:54:42.59	355.47	22.46	-35.7	-36.6	22.5	0.00e+00	0	44	0	1089470464	41	4085
2026-01-28 04:54:43.59	355.32	22.58	-35.7	-36.5	22.5	0.00e+00	0	44	0	1095761920	41	4042
2026-01-28 04:54:44.59	355.18	22.70	-35.8	-36.7	22.4	0.00e+00	0	44	0	1103101952	41	4111
2026-01-28 04:54:45.58	355.03	22.82	-35.9	-36.8	22.3	0.00e+00	0	44	0	1110441984	41	4164
2026-01-28 04:54:46.58	354.88	22.94	-35.9	-36.8	22.3	0.00e+00	0	44	0	1117782016	41	4154
2026-01-28 04:54:47.58	354.73	23.07	-36.5	-37.4	21.8	0.00e+00	0	44	0	1125122048	42	4237
2026-01-28 04:54:48.58	354.57	23.19	-36.1	-37.0	22.2	0.00e+00	0	44	0	1132462080	42	4009
2026-01-28 04:54:49.57	354.42	23.31	-36.1	-37.0	22.2	0.00e+00	0	44	0	1139802112	42	4049
2026-01-28 04:54:50.57	354.27	23.44	-36.2	-37.2	22.0	0.00e+00	0	44	0	1147142144	42	4105
2026-01-28 04:54:51.56	354.11	23.56	-36.2	-37.1	22.1	0.00e+00	0	44	0	1153433600	42	4090
2026-01-28 04:54:52.56	353.95	23.68	-36.1	-37.1	22.1	0.00e+00	0	44	0	1160773632	42	4059
2026-01-28 04:54:53.56	353.80	23.81	-36.2	-37.1	22.1	0.00e+00	0	44	0	1168113664	42	4083
2026-01-28 04:54:54.56	353.64	23.93	-36.2	-37.1	22.1	0.00e+00	0	44	0	1175453696	42	4098
2026-01-28 04:54:55.55	353.48	24.06	-36.1	-37.1	22.1	0.00e+00	0	44	0	1182793728	42	4052
2026-01-28 04:54:56.55	353.31	24.18	-36.1	-37.1	22.1	0.00e+00	0	44	0	1190133760	42	4061
2026-01-28 04:54:57.55	353.15	24.31	-36.1	-37.0	22.2	0.00e+00	0	44	0	1196425216	42	4038
2026-01-28 04:54:58.54	352.98	24.44	-36.1	-37.0	22.2	0.00e+00	0	44	0	1203765248	41	4262
2026-01-28 04:54:59.54	352.82	24.56	-36.1	-37.0	22.2	0.00e+00	0	44	0	1211105280	41	4264
2026-01-28 04:55:00.54	352.65	24.69	-36.0	-36.9	22.2	0.00e+00	0	44	0	1218445312	41	4238
2026-01-28 04:55:01.54	352.48	24.82	-36.0	-36.9	22.3	0.00e+00	0	44	0	1225785344	41	4201
2026-01-28 04:55:02.54	352.31	24.95	-35.9	-36.8	22.3	0.00e+00	0	44	0	1233125376	41	4174
2026-01-28 04:55:03.54	352.14	25.08	-35.9	-36.8	22.3	0.00e+00	0	44	0	1240465408	41	4187
2026-01-28 04:55:04.54	351.96	25.20	-35.8	-36.7	22.5	0.00e+00	0	44	0	1247805440	41	4119
2026-01-28 04:55:05.53	351.79	25.33	-35.7	-36.6	22.6	0.00e+00	0	44	0	1255145472	41	4059
2026-01-28 04:55:06.53	351.61	25.46	-35.8	-36.7	22.5	0.00e+00	0	44	0	1261436928	41	4120
2026-01-28 04:55:07.53	351.43	25.59	-35.8	-36.7	22.5	0.00e+00	0	44	0	1268776960	41	4111
2026-01-28 04:55:08.52	351.25	25.72	-36.1	-37.0	22.2	0.00e+00	0	44	0	1276116992	41	4270
2026-01-28 04:55:09.52	351.07	25.85	-35.9	-36.8	22.4	0.00e+00	0	44	0	1283457024	41	4160
2026-01-28 04:55:10.52	350.89	25.98	-35.7	-36.6	22.6	0.00e+00	0	44	0	1290797056	41	4074
2026-01-28 04:55:11.52	350.71	26.11	-35.8	-36.7	22.5	0.00e+00	0	44	0	1298137088	41	4119
2026-01-28 04:55:12.52	350.52	26.25	-35.8	-36.7	22.4	0.00e+00	0	44	0	1305477120	41	4135
2026-01-28 04:55:13.52	350.33	26.38	-35.9	-36.8	22.3	0.00e+00	0	44	0	1312817152	41	4187
2026-01-28 04:55:14.52	350.14	26.51	-36.0	-36.9	22.3	0.00e+00	0	44	0	1319108608	42	3969
2026-01-28 04:55:15.52	349.95	26.64	-36.1	-36.9	22.3	0.00e+00	0	44	0	1326448640	42	4001
2026-01-28 04:55:16.51	349.76	26.77	-36.2	-37.1	22.1	0.00e+00	0	44	0	1333788672	42	4067
2026-01-28 04:55:17.51	349.57	26.91	-36.1	-37.0	22.2	0.00e+00	0	44	0	1341128704	42	4026
2026-01-28 04:55:18.51	349.37	27.04	-36.0	-36.9	22.3	0.00e+00	0	44	0	1348468736	42	3971
2026-01-28 04:55:19.50	349.18	27.17	-36.0	-36.8	22.4	0.00e+00	0	44	0	1355808768	42	3953
2026-01-28 04:55:20.50	348.98	27.31	-36.0	-36.9	22.3	0.00e+00	0	44	0	1362100224	42	3976
2026-01-28 04:55:21.49	348.78	27.44	-36.1	-36.9	22.3	0.00e+00	0	44	0	1369440256	42	3998
2026-01-28 04:55:22.50	348.57	27.57	-35.9	-36.8	22.4	0.00e+00	0	44	0	1376780288	42	3917
2026-01-28 04:55:23.49	348.37	27.71	-35.8	-36.7	22.5	0.00e+00	0	44	0	1384120320	42	3876
2026-01-28 04:55:24.49	348.17	27.84	-35.6	-36.4	22.7	0.00e+00	0	44	0	1391460352	41	3996
2026-01-28 04:55:25.49	347.96	27.98	-35.5	-36.3	22.8	0.00e+00	0	44	0	1398800384	41	3949
2026-01-28 04:55:26.49	347.75	28.11	-35.5	-36.3	22.8	0.00e+00	0	44	0	1406140416	41	3939
2026-01-28 04:55:27.48	347.54	28.25	-35.6	-36.5	22.7	0.00e+00	0	44	0	1413480448	41	4018
2026-01-28 04:55:28.48	347.33	28.38	-35.5	-36.4	22.7	0.00e+00	0	44	0	1420820480	41	3964
2026-01-28 04:55:29.48	347.11	28.52	-35.6	-36.4	22.7	0.00e+00	0	44	0	1427111936	41	3988
2026-01-28 04:55:30.47	346.90	28.65	-35.4	-36.2	22.9	0.00e+00	0	44	0	1434451968	41	3911
2026-01-28 04:55:31.47	346.68	28.79	-35.2	-36.1	23.0	0.00e+00	0	44	0	1441792000	41	3839
2026-01-28 04:55:32.47	346.46	28.93	-35.2	-36.1	23.0	0.00e+00	0	44	0	1449132032	41	3839
2026-01-28 04:55:33.47	346.23	29.06	-35.3	-36.1	23.0	0.00e+00	0	44	0	1456472064	41	3862
2026-01-28 04:55:34.47	346.01	29.20	-35.4	-36.3	22.8	0.00e+00	0	44	0	1463812096	41	3927
2026-01-28 04:55:35.47	345.78	29.34	-35.2	-36.0	23.1	0.00e+00	0	44	0	1471152128	40	4038
2026-01-28 04:55:36.47	345.55	29.48	-35.1	-36.0	23.1	0.00e+00	0	44	0	1478492160	40	4006
2026-01-28 04:55:37.47	345.32	29.61	-35.1	-36.0	23.1	0.00e+00	0	44	0	1484783616	40	4022
2026-01-28 04:55:38.46	345.09	29.75	-35.2	-36.1	23.0	0.00e+00	0	44	0	1492123648	40	4065
2026-01-28 04:55:39.46	344.86	29.89	-35.1	-35.9	23.2	0.00e+00	0	44	0	1499463680	40	3993
2026-01-28 04:55:40.47	344.62	30.03	-35.3	-36.1	23.0	0.00e+00	0	44	0	1506803712	40	4090
2026-01-28 04:55:41.46	344.38	30.16	-35.2	-36.0	23.1	0.00e+00	0	44	0	1514143744	40	4025
2026-01-28 04:55:42.46	344.14	30.30	-35.2	-36.0	23.1	0.00e+00	0	44	0	1521483776	40	4032
2026-01-28 04:55:43.46	343.90	30.44	-35.1	-35.9	23.1	0.00e+00	0	44	0	1528823808	40	3998
2026-01-28 04:55:44.46	343.66	30.58	-35.0	-35.9	23.2	0.00e+00	0	44	0	1536163840	40	3970
2026-01-28 04:55:45.46	343.41	30.72	-35.1	-35.9	23.2	0.00e+00	0	44	0	1543503872	40	3990
2026-01-28 04:55:46.45	343.16	30.85	-35.2	-36.1	23.0	0.00e+00	0	44	0	1549795328	40	4069
2026-01-28 04:55:47.45	342.91	30.99	-35.2	-36.0	23.0	0.00e+00	0	44	0	1557135360	40	4051
2026-01-28 04:55:48.44	342.66	31.13	-35.3	-36.1	23.0	0.00e+00	0	44	0	1564475392	40	4086
2026-01-28 04:55:49.44	342.40	31.27	-35.4	-36.3	22.9	0.00e+00	0	44	0	1571815424	40	4147
2026-01-28 04:55:50.44	342.15	31.41	-35.3	-36.2	23.0	0.00e+00	0	44	0	1579155456	40	4121
2026-01-28 04:55:51.44	341.89	31.54	-35.4	-36.3	22.9	0.00e+00	0	44	0	1585446912	40	4147
2026-01-28 04:55:52.44	341.62	31.68	-35.5	-36.4	22.8	0.00e+00	0	44	0	1592786944	40	4230
2026-01-28 04:55:53.43	341.36	31.82	-35.5	-36.4	22.8	0.00e+00	0	44	0	1600126976	40	4202
2026-01-28 04:55:54.44	341.09	31.96	-35.5	-36.4	22.7	0.00e+00	0	44	0	1607467008	40	4219
2026-01-28 04:55:55.43	340.83	32.10	-35.7	-36.6	22.5	0.00e+00	0	44	0	1614807040	40	4334
2026-01-28 04:55:56.43	340.55	32.23	-35.6	-36.5	22.6	0.00e+00	0	44	0	1622147072	40	4272
2026-01-28 04:55:57.43	340.28	32.37	-35.7	-36.6	22.5	0.00e+00	0	44	0	1629487104	40	4315
2026-01-28 04:55:58.43	340.00	32.51	-35.7	-36.6	22.6	0.00e+00	0	44	0	1636827136	40	4327
2026-01-28 04:55:59.42	339.73	32.65	-35.7	-36.6	22.6	0.00e+00	0	44	0	1644167168	41	4054
2026-01-28 04:56:00.42	339.45	32.79	-35.8	-36.7	22.5	0.00e+00	0	44	0	1650458624	41	4105
2026-01-28 04:56:01.42	339.16	32.92	-35.7	-36.5	22.6	0.00e+00	0	44	0	1657798656	41	4045
2026-01-28 04:56:02.41	338.88	33.06	-35.5	-36.4	22.7	0.00e+00	0	44	0	1665138688	41	3984
2026-01-28 04:56:03.41	338.59	33.20	-35.6	-36.5	22.7	0.00e+00	0	44	0	1672478720	41	4015
2026-01-28 04:56:04.41	338.30	33.33	-35.4	-36.3	22.8	0.00e+00	0	44	0	1679818752	41	3929
2026-01-28 04:56:05.40	338.01	33.47	-35.5	-36.3	22.8	0.00e+00	0	44	0	1687158784	41	3958
2026-01-28 04:56:06.40	337.72	33.61	-35.4	-36.3	22.9	0.00e+00	0	44	0	1693450240	41	3926
2026-01-28 04:56:07.40	337.42	33.74	-35.3	-36.2	22.9	0.00e+00	0	44	0	1700790272	41	3888
2026-01-28 04:56:08.40	337.12	33.88	-35.4	-36.2	22.9	0.00e+00	0	44	0	1708130304	41	3906
2026-01-28 04:56:09.40	336.81	34.01	-35.3	-36.1	23.0	0.00e+00	0	44	0	1715470336	41	3857
2026-01-28 04:56:10.40	336.51	34.15	-35.2	-36.0	23.1	0.00e+00	0	44	0	1722810368	41	3814
2026-01-28 04:56:11.39	336.20	34.28	-34.8	-35.6	23.4	0.00e+00	0	44	0	1730150400	40	3868
2026-01-28 04:56:12.39	335.89	34.42	-34.6	-35.5	23.5	0.00e+00	0	44	0	1737490432	40	3784
2026-01-28 04:56:13.39	335.58	34.55	-34.6	-35.5	23.6	0.00e+00	0	44	0	1744830464	39	4015
2026-01-28 04:56:14.38	335.26	34.68	-34.7	-35.6	23.6	0.00e+00	0	44	0	1751121920	39	4057
2026-01-28 04:56:15.38	334.94	34.82	-34.8	-35.6	23.5	0.00e+00	0	44	0	1758461952	39	4071
2026-01-28 04:56:16.38	334.62	34.95	-34.7	-35.5	23.6	0.00e+00	0	44	0	1765801984	39	4045
2026-01-28 04:56:17.38	334.30	35.08	-35.0	-35.8	23.3	0.00e+00	0	44	0	1773142016	39	4174
2026-01-28 04:56:18.37	333.97	35.21	-35.1	-35.9	23.3	0.00e+00	0	44	0	1780482048	39	4211
2026-01-28 04:56:19.37	333.65	35.34	-35.1	-36.0	23.2	0.00e+00	0	44	0	1787822080	39	4256
2026-01-28 04:56:20.36	333.32	35.47	-35.1	-36.0	23.1	0.00e+00	0	44	0	1795162112	40	4011
2026-01-28 04:56:21.36	332.98	35.60	-35.3	-36.1	23.0	0.00e+00	0	44	0	1802502144	40	4071
2026-01-28 04:56:22.36	332.64	35.73	-35.3	-36.1	23.0	0.00e+00	0	44	0	1809842176	40	4074
2026-01-28 04:56:23.36	332.30	35.86	-35.3	-36.1	23.0	0.00e+00	0	44	0	1816133632	40	4080
2026-01-28 04:56:24.36	331.96	35.99	-35.2	-36.1	23.0	0.00e+00	0	44	0	1823473664	40	4068
2026-01-28 04:56:25.35	331.62	36.12	-35.2	-36.1	23.1	0.00e+00	0	44	0	1830813696	40	4068
2026-01-28 04:56:26.35	331.27	36.25	-35.4	-36.3	22.8	0.00e+00	0	44	0	1838153728	40	4170
2026-01-28 04:56:27.35	330.92	36.37	-35.6	-36.4	22.7	0.00e+00	0	44	0	1845493760	40	4242
2026-01-28 04:56:28.34	330.57	36.50	-35.7	-36.6	22.6	0.00e+00	0	44	0	1852833792	41	4070
2026-01-28 04:56:29.34	330.21	36.62	-35.9	-36.8	22.5	0.00e+00	0	44	0	1859125248	41	4155
2026-01-28 04:56:30.34	329.85	36.75	-35.9	-36.8	22.4	0.00e+00	0	44	0	1866465280	41	4161
2026-01-28 04:56:31.34	329.49	36.87	-35.9	-36.8	22.4	0.00e+00	0	44	0	1873805312	41	4156
2026-01-28 04:56:32.34	329.12	36.99	-35.8	-36.7	22.5	0.00e+00	0	44	0	1881145344	41	4142
2026-01-28 04:56:33.34	328.76	37.11	-35.8	-36.7	22.6	0.00e+00	0	44	0	1888485376	41	4106
2026-01-28 04:56:34.33	328.39	37.23	-35.6	-36.5	22.7	0.00e+00	0	44	0	1895825408	41	4036
2026-01-28 04:56:35.33	328.02	37.35	-35.8	-36.7	22.5	0.00e+00	0	44	0	1903165440	41	4102
2026-01-28 04:56:36.33	327.64	37.47	-35.5	-36.4	22.8	0.00e+00	0	44	0	1910505472	41	3984
2026-01-28 04:56:37.32	327.26	37.59	-35.4	-36.2	22.9	0.00e+00	0	44	0	1916796928	41	3909
2026-01-28 04:56:38.32	326.88	37.71	-35.5	-36.4	22.8	0.00e+00	0	44	0	1924136960	41	3982
2026-01-28 04:56:39.32	326.50	37.82	-35.6	-36.5	22.7	0.00e+00	0	44	0	1931476992	41	4019
2026-01-28 04:56:40.31	326.11	37.93	-35.6	-36.4	22.7	0.00e+00	0	44	0	1938817024	41	3997
2026-01-28 04:56:41.31	325.72	38.05	-35.4	-36.3	22.8	0.00e+00	0	44	0	1946157056	41	3937
2026-01-28 04:56:42.31	325.33	38.16	-35.3	-36.2	22.9	0.00e+00	0	44	0	1953497088	41	3883
2026-01-28 04:56:43.30	324.94	38.27	-35.3	-36.1	23.0	0.00e+00	0	44	0	1960837120	41	3857
2026-01-28 04:56:44.30	324.54	38.38	-35.4	-36.2	22.9	0.00e+00	0	44	0	1967128576	41	3903
2026-01-28 04:56:45.30	324.14	38.49	-35.5	-36.4	22.8	0.00e+00	0	44	0	1974468608	41	3970
2026-01-28 04:56:46.30	323.74	38.60	-35.6	-36.5	22.7	0.00e+00	0	44	0	1981808640	41	4036
2026-01-28 04:56:47.30	323.33	38.70	-35.7	-36.6	22.6	0.00e+00	0	44	0	1989148672	41	4075
2026-01-28 04:56:48.29	322.93	38.81	-35.7	-36.6	22.6	0.00e+00	0	44	0	1996488704	41	4071
2026-01-28 04:56:49.29	322.52	38.91	-35.7	-36.6	22.6	0.00e+00	0	44	0	2003828736	41	4071
2026-01-28 04:56:50.29	322.10	39.01	-35.6	-36.4	22.7	0.00e+00	0	44	0	2011168768	41	3998
2026-01-28 04:56:51.28	321.69	39.11	-35.5	-36.4	22.8	0.00e+00	0	44	0	2018508800	41	3969
2026-01-28 04:56:52.28	321.27	39.21	-35.4	-36.2	22.9	0.00e+00	0	44	0	2024800256	41	3891
2026-01-28 04:56:53.28	320.85	39.31	-35.4	-36.2	22.9	0.00e+00	0	44	0	2032140288	41	3897
2026-01-28 04:56:54.28	320.42	39.41	-35.4	-36.3	22.8	0.00e+00	0	44	0	2039480320	41	3921
2026-01-28 04:56:55.28	320.00	39.50	-35.4	-36.3	22.9	0.00e+00	0	44	0	2046820352	41	3925
2026-01-28 04:56:56.27	319.57	39.59	-35.5	-36.4	22.8	0.00e+00	0	44	0	2054160384	41	3960
2026-01-28 04:56:57.27	319.14	39.69	-35.5	-36.4	22.8	0.00e+00	0	44	0	2061500416	41	3975
2026-01-28 04:56:58.27	318.71	39.78	-35.6	-36.5	22.7	0.00e+00	0	44	0	2068840448	41	4033
2026-01-28 04:56:59.27	318.27	39.86	-35.6	-36.5	22.7	0.00e+00	0	44	0	2076180480	41	4036
2026-01-28 04:57:00.26	317.83	39.95	-35.5	-36.4	22.7	0.00e+00	0	44	0	2082471936	41	3983
2026-01-28 04:57:01.26	317.39	40.03	-35.8	-36.6	22.5	0.00e+00	0	44	0	2089811968	41	4096
2026-01-28 04:57:02.26	316.95	40.12	-36.0	-36.8	22.4	0.00e+00	0	44	0	2097152000	41	4190
2026-01-28 04:57:03.26	316.50	40.20	-35.8	-36.7	22.5	0.00e+00	0	44	0	2104492032	41	4126
2026-01-28 04:57:04.26	316.05	40.28	-35.8	-36.6	22.6	0.00e+00	0	44	0	2111832064	41	4092
2026-01-28 04:57:05.26	315.60	40.36	-35.7	-36.5	22.6	0.00e+00	0	44	0	2119172096	41	4047
2026-01-28 04:57:06.25	315.16	40.43	-35.6	-36.5	22.7	0.00e+00	0	44	0	2125463552	41	4027
2026-01-28 04:57:07.25	314.70	40.51	-35.6	-36.4	22.8	0.00e+00	0	44	0	2132803584	41	3988
2026-01-28 04:57:08.25	314.24	40.58	-35.3	-36.2	23.0	0.00e+00	0	44	0	2140143616	41	3885
2026-01-28 04:57:09.25	313.79	40.65	-35.2	-36.0	23.1	0.00e+00	0	44	0	2147483648	41	3819
2026-01-28 04:57:10.25	313.32	40.72	-35.2	-36.0	23.1	0.00e+00	0	44	0	2154823680	41	3803
2026-01-28 04:57:11.25	312.86	40.78	-35.2	-36.0	23.1	0.00e+00	0	44	0	2162163712	41	3818
2026-01-28 04:57:12.25	312.40	40.85	-35.3	-36.2	22.9	0.00e+00	0	44	0	2169503744	41	3879
2026-01-28 04:57:13.24	311.93	40.91	-35.4	-36.2	22.9	0.00e+00	0	44	0	2176843776	41	3893
2026-01-28 04:57:14.24	311.47	40.97	-35.4	-36.3	22.9	0.00e+00	0	44	0	2184183808	41	3925
2026-01-28 04:57:15.24	311.00	41.03	-35.5	-36.4	22.8	0.00e+00	0	44	0	2190475264	41	3968
2026-01-28 04:57:16.23	310.53	41.08	-35.6	-36.4	22.8	0.00e+00	0	44	0	2197815296	41	3994
2026-01-28 04:57:17.23	310.06	41.14	-35.6	-36.4	22.7	0.00e+00	0	44	0	2205155328	41	3987
2026-01-28 04:57:18.22	309.59	41.19	-35.6	-36.5	22.6	0.00e+00	0	44	0	2212495360	41	4027
2026-01-28 04:57:19.22	309.11	41.24	-35.5	-36.3	22.7	0.00e+00	0	44	0	2219835392	41	3935
2026-01-28 04:57:20.22	308.63	41.29	-35.6	-36.4	22.7	0.00e+00	0	44	0	2227175424	41	3994
2026-01-28 04:57:21.22	308.15	41.33	-35.5	-36.3	22.8	0.00e+00	0	44	0	2234515456	41	3944
2026-01-28 04:57:22.21	307.68	41.38	-35.5	-36.4	22.8	0.00e+00	0	44	0	2241855488	41	3977
2026-01-28 04:57:23.21	307.19	41.42	-35.5	-36.4	22.7	0.00e+00	0	44	0	2248146944	41	3983
2026-01-28 04:57:24.21	306.71	41.46	-35.6	-36.5	22.7	0.00e+00	0	44	0	2255486976	41	4014
2026-01-28 04:57:25.20	306.23	41.49	-35.5	-36.4	22.8	0.00e+00	0	44	0	2262827008	41	3969
2026-01-28 04:57:26.20	305.75	41.53	-35.5	-36.4	22.8	0.00e+00	0	44	0	2270167040	41	3963
2026-01-28 04:57:27.19	305.26	41.56	-35.3	-36.2	23.0	0.00e+00	0	44	0	2277507072	41	3874
2026-01-28 04:57:28.19	304.78	41.59	-35.3	-36.1	23.0	0.00e+00	0	44	0	2284847104	41	3856
2026-01-28 04:57:29.19	304.29	41.61	-35.4	-36.2	22.9	0.00e+00	0	44	0	2291138560	41	3901
2026-01-28 04:57:30.19	303.80	41.64	-35.2	-36.0	23.1	0.00e+00	0	44	0	2298478592	41	3802
2026-01-28 04:57:31.19	303.31	41.66	-35.2	-36.0	23.1	0.00e+00	0	44	0	2305818624	40	4036
2026-01-28 04:57:32.19	302.82	41.68	-35.1	-36.0	23.1	0.00e+00	0	44	0	2313158656	40	4012
2026-01-28 04:57:33.19	302.33	41.70	-35.2	-36.0	23.0	0.00e+00	0	44	0	2320498688	40	4026
2026-01-28 04:57:34.19	301.84	41.72	-35.2	-36.0	23.1	0.00e+00	0	44	0	2327838720	40	4018
2026-01-28 04:57:35.18	301.35	41.73	-35.1	-36.0	23.1	0.00e+00	0	44	0	2335178752	40	4008
2026-01-28 04:57:36.18	300.86	41.74	-35.3	-36.1	23.0	0.00e+00	0	44	0	2342518784	40	4088
2026-01-28 04:57:37.18	300.36	41.75	-35.4	-36.3	22.8	0.00e+00	0	44	0	2349858816	40	4166
2026-01-28 04:57:38.17	299.88	41.75	-35.4	-36.3	22.8	0.00e+00	0	44	0	2356150272	40	4169
2026-01-28 04:57:39.17	299.38	41.76	-35.5	-36.4	22.8	0.00e+00	0	44	0	2363490304	40	4202
2026-01-28 04:57:40.17	298.89	41.76	-35.4	-36.2	22.9	0.00e+00	0	44	0	2370830336	40	4128
2026-01-28 04:57:41.17	298.40	41.76	-35.3	-36.1	23.0	0.00e+00	0	44	0	2378170368	40	4073
2026-01-28 04:57:42.17	297.90	41.75	-35.1	-35.9	23.2	0.00e+00	0	44	0	2385510400	40	3982
2026-01-28 04:57:43.17	297.41	41.75	-35.2	-36.0	23.1	0.00e+00	0	44	0	2392850432	40	4027
2026-01-28 04:57:44.17	296.92	41.74	-35.3	-36.1	23.0	0.00e+00	0	44	0	2400190464	40	4081
2026-01-28 04:57:45.17	296.43	41.73	-35.2	-36.1	23.0	0.00e+00	0	44	0	2407530496	40	4058
2026-01-28 04:57:46.17	295.93	41.72	-35.3	-36.1	23.0	0.00e+00	0	44	0	2413821952	40	4093
2026-01-28 04:57:47.17	295.44	41.70	-35.3	-36.1	22.9	0.00e+00	0	44	0	2421161984	40	4095
2026-01-28 04:57:48.17	294.95	41.68	-35.4	-36.2	22.9	0.00e+00	0	44	0	2428502016	40	4126
2026-01-28 04:57:49.17	294.46	41.66	-35.2	-36.1	23.0	0.00e+00	0	44	0	2435842048	40	4055
2026-01-28 04:57:50.16	293.97	41.64	-35.2	-36.0	23.1	0.00e+00	0	44	0	2443182080	40	4027
2026-01-28 04:57:51.16	293.49	41.62	-35.3	-36.1	23.0	0.00e+00	0	44	0	2450522112	40	4078
2026-01-28 04:57:52.16	293.00	41.59	-35.4	-36.2	22.9	0.00e+00	0	44	0	2457862144	40	4131
2026-01-28 04:57:53.16	292.51	41.56	-35.2	-36.0	23.1	0.00e+00	0	44	0	2465202176	40	4037
2026-01-28 04:57:54.17	292.02	41.53	-35.3	-36.2	22.9	0.00e+00	0	44	0	2472542208	40	4108
2026-01-28 04:57:55.17	291.53	41.49	-35.3	-36.1	23.0	0.00e+00	0	44	0	2478833664	40	4096
2026-01-28 04:57:56.17	291.05	41.46	-35.3	-36.1	23.0	0.00e+00	0	44	0	2486173696	40	4081
2026-01-28 04:57:57.16	290.57	41.42	-35.4	-36.2	22.9	0.00e+00	0	44	0	2493513728	40	4125
2026-01-28 04:57:58.17	290.08	41.38	-35.2	-36.0	23.1	0.00e+00	0	44	0	2500853760	40	4023
2026-01-28 04:57:59.16	289.60	41.33	-35.1	-35.9	23.2	0.00e+00	0	44	0	2508193792	40	3992
2026-01-28 04:58:00.16	289.12	41.29	-35.2	-36.0	23.1	0.00e+00	0	44	0	2515533824	40	4024
2026-01-28 04:58:01.16	288.65	41.24	-35.2	-36.0	23.0	0.00e+00	0	44	0	2522873856	40	4049
2026-01-28 04:58:02.16	288.17	41.19	-35.3	-36.1	22.9	0.00e+00	0	44	0	2530213888	40	4095
2026-01-28 04:58:03.15	287.70	41.14	-35.5	-36.3	22.8	0.00e+00	0	44	0	2536505344	40	4183
2026-01-28 04:58:04.15	287.22	41.08	-35.5	-36.4	22.8	0.00e+00	0	44	0	2543845376	40	4198
2026-01-28 04:58:05.15	286.75	41.03	-35.3	-36.1	23.0	0.00e+00	0	44	0	2551185408	40	4088
2026-01-28 04:58:06.15	286.28	40.97	-35.2	-36.0	23.1	0.00e+00	0	44	0	2558525440	40	4020
2026-01-28 04:58:07.15	285.81	40.91	-35.2	-36.1	23.0	0.00e+00	0	44	0	2565865472	40	4070
2026-01-28 04:58:08.14	285.35	40.85	-35.2	-36.0	23.0	0.00e+00	0	44	0	2573205504	40	4047
2026-01-28 04:58:09.14	284.88	40.78	-35.2	-36.0	23.0	0.00e+00	0	44	0	2579496960	40	4048
2026-01-28 04:58:10.14	284.42	40.72	-35.2	-36.0	23.1	0.00e+00	0	44	0	2586836992	40	4041
2026-01-28 04:58:11.14	283.96	40.65	-35.0	-35.9	23.2	0.00e+00	0	44	0	2594177024	40	3966
2026-01-28 04:58:12.13	283.50	40.58	-35.0	-35.9	23.2	0.00e+00	0	44	0	2601517056	40	3966
2026-01-28 04:58:13.13	283.05	40.51	-35.0	-35.8	23.2	0.00e+00	0	44	0	2608857088	40	3952
2026-01-28 04:58:14.13	282.59	40.43	-35.1	-35.9	23.1	0.00e+00	0	44	0	2616197120	40	3991
2026-01-28 04:58:15.13	282.14	40.35	-35.2	-36.0	23.1	0.00e+00	0	44	0	2623537152	40	4029
2026-01-28 04:58:16.13	281.69	40.28	-35.1	-35.9	23.2	0.00e+00	0	44	0	2630877184	40	3990
2026-01-28 04:58:17.13	281.24	40.20	-35.1	-36.0	23.1	0.00e+00	0	44	0	2638217216	40	4013
2026-01-28 04:58:18.12	280.79	40.12	-35.2	-36.0	23.1	0.00e+00	0	44	0	2644508672	40	4044
2026-01-28 04:58:19.12	280.35	40.03	-35.3	-36.2	22.9	0.00e+00	0	44	0	2651848704	40	4110
2026-01-28 04:58:20.12	279.91	39.95	-35.4	-36.3	22.8	0.00e+00	0	44	0	2659188736	40	4171
2026-01-28 04:58:21.12	279.47	39.86	-35.4	-36.3	22.8	0.00e+00	0	44	0	2666528768	40	4158
2026-01-28 04:58:22.12	279.03	39.77	-35.3	-36.1	23.0	0.00e+00	0	44	0	2673868800	40	4085
2026-01-28 04:58:23.12	278.59	39.68	-35.2	-36.0	23.1	0.00e+00	0	44	0	2681208832	40	4030
2026-01-28 04:58:24.12	278.16	39.59	-35.2	-36.1	23.1	0.00e+00	0	44	0	2688548864	40	4054
2026-01-28 04:58:25.12	277.73	39.50	-35.2	-36.0	23.1	0.00e+00	0	44	0	2695888896	40	4036
2026-01-28 04:58:26.12	277.30	39.40	-35.3	-36.2	22.9	0.00e+00	0	44	0	2702180352	40	4115
2026-01-28 04:58:27.11	276.88	39.30	-35.4	-36.3	22.8	0.00e+00	0	44	0	2709520384	40	4150
2026-01-28 04:58:28.11	276.46	39.21	-35.4	-36.3	22.8	0.00e+00	0	44	0	2716860416	40	4174
2026-01-28 04:58:29.11	276.04	39.11	-35.5	-36.3	22.8	0.00e+00	0	44	0	2724200448	40	4185
2026-01-28 04:58:30.10	275.63	39.01	-35.3	-36.2	23.0	0.00e+00	0	44	0	2731540480	40	4105
2026-01-28 04:58:31.10	275.21	38.90	-35.3	-36.2	22.9	0.00e+00	0	44	0	2738880512	40	4102
2026-01-28 04:58:32.10	274.80	38.80	-35.2	-36.1	23.0	0.00e+00	0	44	0	2745171968	40	4052
2026-01-28 04:58:33.09	274.39	38.70	-35.3	-36.2	22.9	0.00e+00	0	44	0	2752512000	40	4105
2026-01-28 04:58:34.09	273.98	38.59	-35.3	-36.2	22.9	0.00e+00	0	44	0	2759852032	40	4114
2026-01-28 04:58:35.09	273.58	38.48	-35.2	-36.1	23.0	0.00e+00	0	44	0	2767192064	40	4060
2026-01-28 04:58:36.09	273.18	38.37	-35.3	-36.1	22.9	0.00e+00	0	44	0	2774532096	40	4088
2026-01-28 04:58:37.09	272.78	38.26	-35.2	-36.0	23.0	0.00e+00	0	44	0	2781872128	40	4040
2026-01-28 04:58:38.08	272.39	38.15	-35.1	-35.9	23.1	0.00e+00	0	44	0	2789212160	40	4004
2026-01-28 04:58:39.08	271.99	38.04	-35.1	-35.9	23.2	0.00e+00	0	44	0	2796552192	40	3983
2026-01-28 04:58:40.07	271.61	37.93	-35.0	-35.8	23.2	0.00e+00	0	44	0	2803892224	40	3944
2026-01-28 04:58:41.08	271.21	37.81	-35.0	-35.8	23.2	0.00e+00	0	44	0	2810183680	40	3944
2026-01-28 04:58:42.07	270.83	37.69	-35.0	-35.9	23.2	0.00e+00	0	44	0	2817523712	40	3972
2026-01-28 04:58:43.07	270.45	37.58	-35.0	-35.9	23.2	0.00e+00	0	44	0	2824863744	40	3969
2026-01-28 04:58:44.07	270.07	37.46	-35.1	-36.0	23.1	0.00e+00	0	44	0	2832203776	40	4011
2026-01-28 04:58:45.07	269.69	37.34	-35.1	-36.0	23.1	0.00e+00	0	44	0	2839543808	40	4015
2026-01-28 04:58:46.07	269.32	37.22	-35.3	-36.1	23.0	0.00e+00	0	44	0	2846883840	40	4084
2026-01-28 04:58:47.07	268.95	37.10	-35.3	-36.1	23.0	0.00e+00	0	44	0	2854223872	40	4089
2026-01-28 04:58:48.06	268.58	36.98	-35.3	-36.2	22.9	0.00e+00	0	44	0	2861563904	40	4105
2026-01-28 04:58:49.07	268.21	36.85	-35.3	-36.1	23.0	0.00e+00	0	44	0	2867855360	40	4076
2026-01-28 04:58:50.07	267.85	36.73	-35.3	-36.2	22.9	0.00e+00	0	44	0	2875195392	40	4122
2026-01-28 04:58:51.06	267.49	36.61	-35.1	-35.9	23.1	0.00e+00	0	44	0	2882535424	40	3990
2026-01-28 04:58:52.06	267.13	36.48	-35.0	-35.8	23.2	0.00e+00	0	44	0	2889875456	40	3942
2026-01-28 04:58:53.06	266.78	36.35	-35.0	-35.8	23.1	0.00e+00	0	44	0	2897215488	40	3956
2026-01-28 04:58:54.06	266.43	36.23	-35.1	-36.0	23.1	0.00e+00	0	44	0	2904555520	40	4009
2026-01-28 04:58:55.06	266.08	36.10	-35.1	-35.9	23.2	0.00e+00	0	44	0	2911895552	40	3984
2026-01-28 04:58:56.05	265.73	35.97	-35.1	-35.9	23.1	0.00e+00	0	44	0	2919235584	40	3998
2026-01-28 04:58:57.05	265.39	35.84	-35.2	-36.0	23.1	0.00e+00	0	44	0	2925527040	40	4026
2026-01-28 04:58:58.05	265.05	35.71	-35.2	-36.1	23.0	0.00e+00	0	44	0	2932867072	40	4056
2026-01-28 04:58:59.05	264.71	35.58	-35.1	-35.9	23.2	0.00e+00	0	44	0	2940207104	40	3992
2026-01-28 04:59:00.05	264.37	35.45	-35.1	-35.9	23.1	0.00e+00	0	44	0	2947547136	40	3998
2026-01-28 04:59:01.05	264.04	35.32	-35.1	-36.0	23.1	0.00e+00	0	44	0	2954887168	40	4016
2026-01-28 04:59:02.05	263.71	35.19	-35.0	-35.8	23.3	0.00e+00	0	44	0	2962227200	40	3939
2026-01-28 04:59:03.05	263.38	35.06	-35.0	-35.8	23.2	0.00e+00	0	44	0	2969567232	40	3948
2026-01-28 04:59:04.04	263.06	34.93	-34.9	-35.7	23.3	0.00e+00	0	44	0	2975858688	40	3898
2026-01-28 04:59:05.04	262.74	34.79	-34.8	-35.7	23.4	0.00e+00	0	44	0	2983198720	40	3879
2026-01-28 04:59:06.04	262.42	34.66	-35.0	-35.8	23.3	0.00e+00	0	44	0	2990538752	40	3931
2026-01-28 04:59:07.03	262.10	34.52	-35.0	-35.9	23.2	0.00e+00	0	44	0	2997878784	40	3973
2026-01-28 04:59:08.03	261.79	34.39	-35.1	-36.0	23.1	0.00e+00	0	44	0	3005218816	40	4017
2026-01-28 04:59:09.03	261.48	34.25	-35.2	-36.1	23.0	0.00e+00	0	44	0	3012558848	40	4058
2026-01-28 04:59:10.03	261.17	34.12	-35.0	-35.9	23.2	0.00e+00	0	44	0	3019898880	40	3972
2026-01-28 04:59:11.03	260.86	33.98	-34.9	-35.7	23.3	0.00e+00	0	44	0	3027238912	40	3912
2026-01-28 04:59:12.02	260.56	33.85	-34.9	-35.7	23.3	0.00e+00	0	44	0	3033530368	40	3902
2026-01-28 04:59:13.02	260.26	33.71	-34.8	-35.6	23.4	0.00e+00	0	44	0	3040870400	40	3839
2026-01-28 04:59:14.03	259.95	33.57	-34.8	-35.7	23.4	0.00e+00	0	44	0	3048210432	40	3877
2026-01-28 04:59:15.02	259.66	33.44	-34.8	-35.6	23.4	0.00e+00	0	44	0	3055550464	40	3840
2026-01-28 04:59:16.03	259.36	33.30	-34.8	-35.6	23.4	0.00e+00	0	44	0	3062890496	40	3856
2026-01-28 04:59:17.03	259.07	33.16	-34.8	-35.6	23.4	0.00e+00	0	44	0	3070230528	40	3866
2026-01-28 04:59:18.02	258.78	33.02	-34.8	-35.7	23.4	0.00e+00	0	44	0	3077570560	40	3881
2026-01-28 04:59:19.02	258.50	32.89	-34.9	-35.7	23.3	0.00e+00	0	44	0	3084910592	40	3902
2026-01-28 04:59:20.02	258.21	32.75	-34.9	-35.7	23.3	0.00e+00	0	44	0	3092250624	40	3893
2026-01-28 04:59:21.02	257.93	32.61	-34.9	-35.8	23.3	0.00e+00	0	44	0	3098542080	40	3927
2026-01-28 04:59:22.02	257.65	32.47	-35.0	-35.8	23.2	0.00e+00	0	44	0	3105882112	40	3923
2026-01-28 04:59:23.01	257.38	32.33	-35.0	-35.8	23.2	0.00e+00	0	44	0	3113222144	40	3946
2026-01-28 04:59:24.01	257.10	32.19	-35.1	-35.9	23.1	0.00e+00	0	44	0	3120562176	40	3982
2026-01-28 04:59:25.01	256.83	32.06	-35.3	-36.1	22.9	0.00e+00	0	44	0	3127902208	40	4086
2026-01-28 04:59:26.01	256.56	31.92	-35.3	-36.1	23.0	0.00e+00	0	44	0	3135242240	40	4072
2026-01-28 04:59:27.00	256.29	31.78	-35.4	-36.2	22.8	0.00e+00	0	44	0	3142582272	40	4143
2026-01-28 04:59:28.00	256.03	31.64	-35.3	-36.1	23.0	0.00e+00	0	44	0	3148873728	40	4085
2026-01-28 04:59:29.00	255.77	31.50	-35.2	-36.0	23.0	0.00e+00	0	44	0	3156213760	40	4047
2026-01-28 04:59:29.99	255.51	31.36	-35.1	-36.0	23.1	0.00e+00	0	44	0	3163553792	40	4005
2026-01-28 04:59:30.99	255.25	31.22	-35.2	-36.1	23.0	0.00e+00	0	44	0	3170893824	40	4053
2026-01-28 04:59:31.99	254.99	31.09	-35.1	-35.9	23.1	0.00e+00	0	44	0	3178233856	40	3983
2026-01-28 04:59:32.99	254.74	30.95	-35.2	-36.0	23.1	0.00e+00	0	44	0	3185573888	40	4021
2026-01-28 04:59:33.99	254.49	30.81	-35.1	-35.9	23.1	0.00e+00	0	44	0	3192913920	40	3999
2026-01-28 04:59:34.99	254.24	30.67	-35.2	-36.1	23.0	0.00e+00	0	44	0	3199205376	40	4055
2026-01-28 04:59:35.99	253.99	30.53	-35.3	-36.2	22.9	0.00e+00	0	44	0	3206545408	40	4104
2026-01-28 04:59:36.99	253.74	30.39	-35.4	-36.2	22.9	0.00e+00	0	44	0	3213885440	40	4119
2026-01-28 04:59:37.98	253.50	30.25	-35.4	-36.3	22.8	0.00e+00	0	44	0	3221225472	40	4170
2026-01-28 04:59:38.98	253.26	30.11	-35.5	-36.4	22.7	0.00e+00	0	44	0	3228565504	40	4212
2026-01-28 04:59:39.98	253.02	29.98	-35.6	-36.4	22.6	0.00e+00	0	44	0	3235905536	40	4242
2026-01-28 04:59:40.98	252.78	29.84	-35.6	-36.5	22.7	0.00e+00	0	44	0	3243245568	40	4250
2026-01-28 04:59:41.98	252.55	29.70	-35.4	-36.3	22.8	0.00e+00	0	44	0	3250585600	40	4157
2026-01-28 04:59:42.97	252.32	29.56	-35.2	-36.0	23.0	0.00e+00	0	44	0	3257925632	40	4047
2026-01-28 04:59:43.97	252.08	29.42	-35.2	-36.0	23.0	0.00e+00	0	44	0	3264217088	40	4035
2026-01-28 04:59:44.97	251.86	29.29	-35.2	-36.0	23.1	0.00e+00	0	44	0	3271557120	40	4039
2026-01-28 04:59:45.96	251.63	29.15	-35.3	-36.1	23.0	0.00e+00	0	44	0	3278897152	40	4079
2026-01-28 04:59:46.96	251.40	29.01	-35.3	-36.1	23.0	0.00e+00	0	44	0	3286237184	40	4085
2026-01-28 04:59:47.96	251.18	28.87	-35.5	-36.3	22.8	0.00e+00	0	44	0	3293577216	40	4182
2026-01-28 04:59:48.96	250.96	28.74	-35.5	-36.3	22.8	0.00e+00	0	44	0	3300917248	40	4177
2026-01-28 04:59:49.96	250.74	28.60	-35.4	-36.3	22.7	0.00e+00	0	44	0	3308257280	40	4169
2026-01-28 04:59:50.96	250.52	28.46	-35.4	-36.3	22.8	0.00e+00	0	44	0	3315597312	40	4165
2026-01-28 04:59:51.95	250.31	28.33	-35.4	-36.2	22.8	0.00e+00	0	44	0	3321888768	40	4141
2026-01-28 04:59:52.96	250.09	28.19	-35.3	-36.1	22.9	0.00e+00	0	44	0	3329228800	40	4079
2026-01-28 04:59:53.95	249.88	28.05	-35.3	-36.1	22.9	0.00e+00	0	44	0	3336568832	40	4091
2026-01-28 04:59:54.95	249.67	27.92	-35.4	-36.2	22.9	0.00e+00	0	44	0	3343908864	40	4118
2026-01-28 04:59:55.95	249.46	27.78	-35.5	-36.3	22.7	0.00e+00	0	44	0	3351248896	40	4175
2026-01-28 04:59:56.95	249.26	27.65	-35.6	-36.5	22.7	0.00e+00	0	44	0	3358588928	40	4244
2026-01-28 04:59:57.95	249.05	27.51	-35.6	-36.5	22.6	0.00e+00	0	44	0	3364880384	40	4249
2026-01-28 04:59:58.95	248.85	27.38	-35.7	-36.5	22.6	0.00e+00	0	44	0	3372220416	40	4283
2026-01-28 04:59:59.94	248.65	27.24	-35.7	-36.6	22.4	0.00e+00	0	44	0	3379560448	41	4082
2026-01-28 05:00:00.94	248.45	27.11	-35.6	-36.5	22.6	0.00e+00	0	44	0	3386900480	41	4036
2026-01-28 05:00:01.94	248.25	26.97	-35.6	-36.5	22.6	0.00e+00	0	44	0	3394240512	41	4020
2026-01-28 05:00:02.94	248.05	26.84	-35.6	-36.5	22.6	0.00e+00	0	44	0	3401580544	41	4018
2026-01-28 05:00:03.94	247.86	26.71	-35.6	-36.4	22.6	0.00e+00	0	44	0	3408920576	41	3988
2026-01-28 05:00:04.93	247.67	26.58	-35.6	-36.5	22.6	0.00e+00	0	44	0	3416260608	41	4011
2026-01-28 05:00:05.93	247.48	26.44	-35.4	-36.2	22.8	0.00e+00	0	44	0	3423600640	41	3897
2026-01-28 05:00:06.93	247.29	26.31	-35.3	-36.2	22.9	0.00e+00	0	44	0	3429892096	41	3879
2026-01-28 05:00:07.93	247.10	26.18	-35.5	-36.3	22.7	0.00e+00	0	44	0	3437232128	41	3936
2026-01-28 05:00:08.93	246.91	26.05	-35.5	-36.3	22.7	0.00e+00	0	44	0	3444572160	41	3956
2026-01-28 05:00:09.93	246.72	25.91	-35.5	-36.4	22.7	0.00e+00	0	44	0	3451912192	41	3982
2026-01-28 05:00:10.92	246.54	25.78	-35.6	-36.5	22.5	0.00e+00	0	44	0	3459252224	41	4025
2026-01-28 05:00:11.92	246.36	25.65	-35.6	-36.5	22.6	0.00e+00	0	44	0	3466592256	41	4031
2026-01-28 05:00:12.92	246.18	25.52	-35.7	-36.6	22.5	0.00e+00	0	44	0	3473932288	41	4065
2026-01-28 05:00:13.91	246.00	25.39	-35.4	-36.3	22.8	0.00e+00	0	44	0	3481272320	41	3917
2026-01-28 05:00:14.91	245.82	25.26	-35.2	-36.0	23.0	0.00e+00	0	44	0	3487563776	41	3800
2026-01-28 05:00:15.91	245.65	25.13	-35.1	-36.0	23.0	0.00e+00	0	44	0	3494903808	41	3784
2026-01-28 05:00:16.91	245.47	25.00	-35.1	-36.0	23.0	0.00e+00	0	44	0	3502243840	41	3789
2026-01-28 05:00:17.90	245.30	24.87	-35.3	-36.1	22.9	0.00e+00	0	44	0	3509583872	41	3847
2026-01-28 05:00:18.90	245.13	24.75	-35.3	-36.2	22.9	0.00e+00	0	44	0	3516923904	41	3880
2026-01-28 05:00:19.90	244.96	24.62	-35.5	-36.4	22.7	0.00e+00	0	44	0	3524263936	41	3960
2026-01-28 05:00:20.90	244.79	24.49	-35.6	-36.5	22.5	0.00e+00	0	44	0	3530555392	41	4017
2026-01-28 05:00:21.90	244.62	24.36	-35.7	-36.6	22.5	0.00e+00	0	44	0	3537895424	41	4079
2026-01-28 05:00:22.90	244.46	24.23	-35.8	-36.6	22.5	0.00e+00	0	44	0	3545235456	41	4088
2026-01-28 05:00:23.89	244.29	24.11	-35.8	-36.7	22.3	0.00e+00	0	44	0	3552575488	41	4126
2026-01-28 05:00:24.89	244.13	23.98	-35.7	-36.6	22.5	0.00e+00	0	44	0	3559915520	41	4060
2026-01-28 05:00:25.89	243.97	23.86	-35.6	-36.5	22.6	0.00e+00	0	44	0	3567255552	41	4022
2026-01-28 05:00:26.89	243.80	23.73	-35.6	-36.5	22.6	0.00e+00	0	44	0	3574595584	41	4019
2026-01-28 05:00:27.88	243.65	23.61	-35.5	-36.4	22.7	0.00e+00	0	44	0	3581935616	41	3980
2026-01-28 05:00:28.88	243.49	23.48	-35.5	-36.4	22.7	0.00e+00	0	44	0	3589275648	41	3965
2026-01-28 05:00:29.88	243.33	23.36	-35.4	-36.2	22.8	0.00e+00	0	44	0	3595567104	41	3912
2026-01-28 05:00:30.88	243.17	23.23	-35.4	-36.2	22.8	0.00e+00	0	44	0	3602907136	41	3893
2026-01-28 05:00:31.88	243.02	23.11	-35.4	-36.3	22.8	0.00e+00	0	44	0	3610247168	41	3914
2026-01-28 05:00:32.88	242.87	22.98	-35.3	-36.2	22.8	0.00e+00	0	44	0	3617587200	41	3881
2026-01-28 05:00:33.87	242.72	22.86	-35.4	-36.2	22.8	0.00e+00	0	44	0	3624927232	41	3912
2026-01-28 05:00:34.87	242.56	22.74	-35.4	-36.2	22.8	0.00e+00	0	44	0	3632267264	41	3895
2026-01-28 05:00:35.86	242.42	22.62	-35.5	-36.4	22.6	0.00e+00	0	44	0	3639607296	41	3971
2026-01-28 05:00:36.86	242.27	22.49	-35.6	-36.4	22.6	0.00e+00	0	44	0	3646947328	41	3983
2026-01-28 05:00:37.86	242.12	22.37	-35.6	-36.5	22.5	0.00e+00	0	44	0	3653238784	41	4017
2026-01-28 05:00:38.85	241.98	22.25	-35.7	-36.6	22.5	0.00e+00	0	44	0	3660578816	41	4052
2026-01-28 05:00:39.85	241.83	22.13	-35.7	-36.6	22.4	0.00e+00	0	44	0	3667918848	41	4063
2026-01-28 05:00:40.85	241.69	22.01	-35.8	-36.7	22.4	0.00e+00	0	44	0	3675258880	41	4099
2026-01-28 05:00:41.85	241.54	21.89	-35.7	-36.5	22.3	0.00e+00	0	44	0	3682598912	41	4047
2026-01-28 05:00:42.84	241.40	21.77	-35.6	-36.5	22.5	0.00e+00	0	44	0	3689938944	41	4028
2026-01-28 05:00:43.85	241.26	21.65	-35.7	-36.5	22.4	0.00e+00	0	44	0	3696230400	41	4044
2026-01-28 05:00:44.85	241.12	21.53	-35.6	-36.4	22.6	0.00e+00	0	44	0	3703570432	41	4004
2026-01-28 05:00:45.84	240.98	21.41	-35.4	-36.2	22.7	0.00e+00	0	44	0	3710910464	41	3912
2026-01-28 05:00:46.84	240.85	21.29	-35.4	-36.2	22.8	0.00e+00	0	44	0	3718250496	41	3911
2026-01-28 05:00:47.85	240.71	21.18	-35.4	-36.2	22.7	0.00e+00	0	44	0	3725590528	41	3904
2026-01-28 05:00:48.84	240.58	21.06	-35.5	-36.4	22.6	0.00e+00	0	44	0	3732930560	41	3971
2026-01-28 05:00:49.84	240.44	20.94	-35.6	-36.5	22.5	0.00e+00	0	44	0	3740270592	41	4021
2026-01-28 05:00:50.83	240.31	20.83	-35.9	-36.7	22.3	0.00e+00	0	44	0	3747610624	41	4142
2026-01-28 05:00:51.83	240.18	20.71	-36.1	-37.0	22.1	0.00e+00	0	44	0	3754950656	41	4244
2026-01-28 05:00:52.83	240.05	20.59	-36.3	-37.2	21.9	0.00e+00	0	44	0	3761242112	41	4347
2026-01-28 05:00:53.83	239.92	20.48	-36.4	-37.3	21.8	0.00e+00	0	44	0	3768582144	42	4162
2026-01-28 05:00:54.83	239.79	20.36	-36.5	-37.4	21.7	0.00e+00	0	44	0	3775922176	42	4224
2026-01-28 05:00:55.83	239.66	20.25	-36.6	-37.5	21.7	0.00e+00	0	44	0	3783262208	42	4248
2026-01-28 05:00:56.83	239.53	20.13	-36.7	-37.6	21.5	0.00e+00	0	44	0	3790602240	42	4312
2026-01-28 05:00:57.83	239.40	20.02	-36.6	-37.5	21.6	0.00e+00	0	44	0	3797942272	42	4262
2026-01-28 05:00:58.82	239.28	19.90	-36.6	-37.5	21.6	0.00e+00	0	44	0	3805282304	42	4262
2026-01-28 05:00:59.82	239.16	19.79	-36.6	-37.5	21.6	0.00e+00	0	44	0	3812622336	42	4277
2026-01-28 05:01:00.82	239.03	19.68	-36.6	-37.5	21.6	0.00e+00	0	44	0	3818913792	42	4270
2026-01-28 05:01:01.81	238.91	19.57	-36.7	-37.6	21.5	0.00e+00	0	44	0	3826253824	42	4320
2026-01-28 05:01:02.81	238.79	19.45	-36.7	-37.6	21.3	0.00e+00	0	44	0	3833593856	42	4330
2026-01-28 05:01:03.81	238.67	19.34	-36.9	-37.9	21.3	0.00e+00	0	44	0	3840933888	43	4198
2026-01-28 05:01:04.80	238.55	19.23	-36.9	-37.9	21.2	0.00e+00	0	44	0	3848273920	43	4205
2026-01-28 05:01:05.80	238.43	19.12	-37.0	-37.9	21.2	0.00e+00	0	44	0	3855613952	43	4238
2026-01-28 05:01:06.80	238.31	19.01	-37.0	-37.9	21.2	0.00e+00	0	44	0	3861905408	43	4212
2026-01-28 05:01:07.79	238.20	18.90	-37.1	-38.0	21.1	0.00e+00	0	44	0	3869245440	43	4268
2026-01-28 05:01:08.79	238.08	18.79	-37.0	-37.9	21.1	0.00e+00	0	44	0	3876585472	43	4240
2026-01-28 05:01:09.78	237.97	18.68	-36.8	-37.8	21.3	0.00e+00	0	44	0	3883925504	43	4147
2026-01-28 05:01:10.79	237.85	18.57	-36.8	-37.7	21.4	0.00e+00	0	44	0	3891265536	43	4140
2026-01-28 05:01:11.79	237.74	18.46	-36.9	-37.8	21.3	0.00e+00	0	44	0	3898605568	43	4157
2026-01-28 05:01:12.78	237.62	18.35	-36.8	-37.7	21.4	0.00e+00	0	44	0	3905945600	43	4121
2026-01-28 05:01:13.78	237.51	18.24	-36.7	-37.6	21.5	0.00e+00	0	44	0	3913285632	43	4057
2026-01-28 05:01:14.78	237.40	18.14	-36.7	-37.5	21.6	0.00e+00	0	44	0	3919577088	43	4047
2026-01-28 05:01:15.78	237.29	18.03	-36.6	-37.5	21.5	0.00e+00	0	44	0	3926917120	43	4047
2026-01-28 05:01:16.78	237.18	17.92	-36.8	-37.7	21.4	0.00e+00	0	44	0	3934257152	43	4122
2026-01-28 05:01:17.78	237.07	17.81	-36.7	-37.6	21.5	0.00e+00	0	44	0	3941597184	43	4079
2026-01-28 05:01:18.78	236.96	17.71	-36.8	-37.7	21.4	0.00e+00	0	44	0	3948937216	43	4112
2026-01-28 05:01:19.77	236.86	17.60	-36.8	-37.7	21.4	0.00e+00	0	44	0	3956277248	43	4126
2026-01-28 05:01:20.77	236.75	17.50	-36.8	-37.8	21.3	0.00e+00	0	44	0	3963617280	43	4154
2026-01-28 05:01:21.77	236.64	17.39	-36.9	-37.9	21.2	0.00e+00	0	44	0	3970957312	43	4200
2026-01-28 05:01:22.77	236.54	17.29	-36.9	-37.9	21.2	0.00e+00	0	44	0	3978297344	43	4201
2026-01-28 05:01:23.77	236.43	17.18	-37.0	-38.0	21.0	0.00e+00	0	44	0	3984588800	43	4261
2026-01-28 05:01:24.76	236.33	17.08	-37.1	-38.0	21.1	0.00e+00	0	44	0	3991928832	43	4270
2026-01-28 05:01:25.76	236.23	16.97	-37.2	-38.1	20.9	0.00e+00	0	44	0	3999268864	43	4324
2026-01-28 05:01:26.75	236.13	16.87	-37.0	-38.0	21.1	0.00e+00	0	44	0	4006608896	43	4249
2026-01-28 05:01:27.75	236.03	16.77	-37.0	-38.0	21.1	0.00e+00	0	44	0	4013948928	43	4247
2026-01-28 05:01:28.74	235.93	16.66	-37.1	-38.0	21.1	0.00e+00	0	44	0	4021288960	43	4281
2026-01-28 05:01:29.74	235.83	16.56	-37.2	-38.1	21.0	0.00e+00	0	44	0	4027580416	43	4309
2026-01-28 05:01:30.74	235.73	16.46	-37.2	-38.1	21.0	0.00e+00	0	44	0	4034920448	43	4340
2026-01-28 05:01:31.74	235.63	16.36	-37.3	-38.2	20.9	0.00e+00	0	44	0	4042260480	43	4369
2026-01-28 05:01:32.74	235.53	16.26	-37.5	-38.4	20.9	0.00e+00	0	44	0	4049600512	44	4219
2026-01-28 05:01:33.73	235.43	16.15	-37.5	-38.4	20.8	0.00e+00	0	44	0	4056940544	44	4230
2026-01-28 05:01:34.73	235.34	16.05	-37.6	-38.5	20.7	0.00e+00	0	44	0	4064280576	44	4283
2026-01-28 05:01:35.73	235.24	15.95	-37.7	-38.7	20.6	0.00e+00	0	44	0	4071620608	44	4367
2026-01-28 05:01:36.72	235.15	15.85	-37.6	-38.6	20.6	0.00e+00	0	44	0	4078960640	44	4320
2026-01-28 05:01:37.72	235.05	15.75	-37.7	-38.6	20.6	0.00e+00	0	44	0	4085252096	44	4330
2026-01-28 05:01:38.72	234.96	15.65	-37.7	-38.7	20.6	0.00e+00	0	44	0	4092592128	44	4361
2026-01-28 05:01:39.72	234.86	15.55	-37.8	-38.8	20.5	0.00e+00	0	44	0	4099932160	45	4187
2026-01-28 05:01:40.72	234.77	15.46	-37.9	-38.9	20.4	0.00e+00	0	44	0	4107272192	45	4196
2026-01-28 05:01:41.71	234.68	15.36	-37.7	-38.7	20.6	0.00e+00	0	44	0	4114612224	45	4115
2026-01-28 05:01:42.71	234.59	15.26	-37.7	-38.6	20.6	0.00e+00	0	44	0	4121952256	45	4091
2026-01-28 05:01:43.71	234.50	15.16	-37.7	-38.7	20.6	0.00e+00	0	44	0	4129292288	45	4106
2026-01-28 05:01:44.71	234.41	15.06	-37.8	-38.8	20.5	0.00e+00	0	44	0	4136632320	45	4147
2026-01-28 05:01:45.71	234.32	14.97	-37.8	-38.8	20.4	0.00e+00	0	44	0	4143972352	45	4171
2026-01-28 05:01:46.71	234.23	14.87	-37.8	-38.8	20.5	0.00e+00	0	44	0	4150263808	45	4151
2026-01-28 05:01:47.71	234.14	14.77	-37.9	-38.9	20.3	0.00e+00	0	44	0	4157603840	45	4216
2026-01-28 05:01:48.70	234.05	14.68	-37.9	-38.9	20.3	0.00e+00	0	44	0	4164943872	45	4223
2026-01-28 05:01:49.70	233.97	14.58	-37.9	-38.8	20.4	0.00e+00	0	44	0	4172283904	45	4184
2026-01-28 05:01:50.70	233.88	14.48	-37.9	-38.9	20.3	0.00e+00	0	44	0	4179623936	45	4214
2026-01-28 05:01:51.70	233.79	14.39	-38.1	-39.1	20.1	0.00e+00	0	44	0	4186963968	45	4333
2026-01-28 05:01:52.70	233.71	14.29	-38.2	-39.2	20.1	0.00e+00	0	44	0	4193255424	45	4349
2026-01-28 05:01:53.69	233.62	14.20	-38.1	-39.1	20.1	0.00e+00	0	44	0	4200595456	45	4319
2026-01-28 05:01:54.69	233.54	14.10	-38.3	-39.3	19.9	0.00e+00	0	44	0	4207935488	46	4173
2026-01-28 05:01:55.69	233.45	14.01	-38.4	-39.4	19.9	0.00e+00	0	44	0	4215275520	46	4203
2026-01-28 05:01:56.68	233.37	13.92	-38.4	-39.5	19.8	0.00e+00	0	44	0	4222615552	46	4260
2026-01-28 05:01:57.68	233.29	13.82	-38.5	-39.5	19.7	0.00e+00	0	44	0	4229955584	46	4290
2026-01-28 05:01:58.67	233.21	13.73	-38.6	-39.7	19.6	0.00e+00	0	44	0	4237295616	46	4365
2026-01-28 05:01:59.67	233.13	13.64	-38.7	-39.8	19.5	0.00e+00	0	44	0	4244635648	46	4401
2026-01-28 05:02:00.67	233.04	13.54	-38.6	-39.7	19.6	0.00e+00	0	44	0	4250927104	46	4361
2026-01-28 05:02:01.66	232.96	13.45	-38.7	-39.7	19.6	0.00e+00	0	44	0	4258267136	46	4367
2026-01-28 05:02:02.66	232.88	13.36	-38.7	-39.7	19.6	0.00e+00	0	44	0	4265607168	47	4131
2026-01-28 05:02:03.66	232.80	13.27	-38.5	-39.6	19.7	0.00e+00	0	44	0	4272947200	47	4064
2026-01-28 05:02:04.66	232.72	13.18	-38.5	-39.6	19.7	0.00e+00	0	44	0	4280287232	47	4054
2026-01-28 05:02:05.65	232.65	13.09	-38.5	-39.5	19.7	0.00e+00	0	44	0	4287627264	47	4024
2026-01-28 05:02:06.65	232.57	12.99	-38.3	-39.4	19.9	0.00e+00	0	44	0	4293918720	47	3964
2026-01-28 05:02:07.65	232.49	12.90	-38.3	-39.3	19.9	0.00e+00	0	44	0	4301258752	47	3951
2026-01-28 05:02:08.65	232.41	12.81	-38.4	-39.4	19.8	0.00e+00	0	44	0	4308598784	47	4002
2026-01-28 05:02:09.64	232.34	12.72	-38.3	-39.3	20.0	0.00e+00	0	44	0	4315938816	47	3915
2026-01-28 05:02:10.64	232.26	12.63	-38.3	-39.3	19.9	0.00e+00	0	44	0	4323278848	47	3929
2026-01-28 05:02:11.64	232.19	12.54	-38.3	-39.3	19.9	0.00e+00	0	44	0	4330618880	47	3928
2026-01-28 05:02:12.64	232.11	12.45	-38.2	-39.1	20.0	0.00e+00	0	44	0	4337958912	47	3865
2026-01-28 05:02:13.64	232.04	12.37	-38.1	-39.1	20.1	0.00e+00	0	44	0	4345298944	47	3860
2026-01-28 05:02:14.64	231.96	12.28	-38.2	-39.2	20.0	0.00e+00	0	44	0	4352638976	47	3876
2026-01-28 05:02:15.64	231.89	12.19	-38.2	-39.1	20.1	0.00e+00	0	44	0	4358930432	47	3863
2026-01-28 05:02:16.64	231.81	12.10	-38.2	-39.2	20.0	0.00e+00	0	44	0	4366270464	47	3877
2026-01-28 05:02:17.64	231.74	12.01	-38.2	-39.2	20.0	0.00e+00	0	44	0	4373610496	47	3872
2026-01-28 05:02:18.63	231.67	11.92	-38.2	-39.2	20.0	0.00e+00	0	44	0	4380950528	47	3883
2026-01-28 05:02:19.63	231.60	11.84	-38.4	-39.4	19.9	0.00e+00	0	44	0	4388290560	47	3964
2026-01-28 05:02:20.63	231.52	11.75	-38.3	-39.2	19.9	0.00e+00	0	44	0	4395630592	47	3912
2026-01-28 05:02:21.62	231.45	11.66	-38.5	-39.5	19.7	0.00e+00	0	44	0	4402970624	47	4010
2026-01-28 05:02:22.62	231.38	11.58	-38.4	-39.3	19.8	0.00e+00	0	44	0	4410310656	46	4192
2026-01-28 05:02:23.62	231.31	11.49	-38.5	-39.5	19.7	0.00e+00	0	44	0	4416602112	46	4252
2026-01-28 05:02:24.61	231.24	11.41	-38.5	-39.5	19.7	0.00e+00	0	44	0	4423942144	46	4285
2026-01-28 05:02:25.61	231.17	11.32	-38.5	-39.5	19.7	0.00e+00	0	44	0	4431282176	46	4275
2026-01-28 05:02:26.61	231.10	11.23	-38.5	-39.6	19.6	0.00e+00	0	44	0	4438622208	46	4322
2026-01-28 05:02:27.61	231.04	11.15	-38.6	-39.6	19.6	0.00e+00	0	44	0	4445962240	46	4316
2026-01-28 05:02:28.61	230.97	11.06	-38.7	-39.7	19.5	0.00e+00	0	44	0	4453302272	46	4370
2026-01-28 05:02:29.61	230.90	10.98	-38.7	-39.8	19.4	0.00e+00	0	44	0	4460642304	46	4393
2026-01-28 05:02:30.61	230.83	10.89	-38.8	-39.9	19.3	0.00e+00	0	44	0	4467982336	47	4209
2026-01-28 05:02:31.61	230.77	10.81	-38.8	-39.8	19.3	0.00e+00	0	44	0	4475322368	47	4189
2026-01-28 05:02:32.61	230.70	10.72	-38.8	-39.8	19.4	0.00e+00	0	44	0	4481613824	47	4174
2026-01-28 05:02:33.61	230.63	10.64	-38.9	-39.9	19.3	0.00e+00	0	44	0	4488953856	47	4228
2026-01-28 05:02:34.61	230.57	10.56	-38.8	-39.9	19.2	0.00e+00	0	44	0	4496293888	47	4238
2026-01-28 05:02:35.60	230.50	10.47	-38.9	-40.0	19.2	0.00e+00	0	44	0	4503633920	47	4250
2026-01-28 05:02:36.60	230.44	10.39	-38.8	-39.9	19.2	0.00e+00	0	44	0	4510973952	47	4229
2026-01-28 05:02:37.60	230.37	10.31	-38.9	-40.1	19.1	0.00e+00	0	44	0	4517265408	47	4293
2026-01-28 05:02:38.60	230.31	10.23	-39.0	-40.1	19.0	0.00e+00	0	44	0	4524605440	47	4339
2026-01-28 05:02:39.60	230.24	10.14	-39.1	-40.2	19.0	0.00e+00	0	44	0	4531945472	47	4368
2026-01-28 05:02:40.60	230.18	10.06	-39.1	-40.2	18.9	0.00e+00	0	44	0	4539285504	47	4386
2026-01-28 05:02:41.59	230.12	9.98	-39.0	-40.2	19.0	0.00e+00	0	44	0	4546625536	47	4351
2026-01-28 05:02:42.59	230.05	9.90	-39.2	-40.3	18.9	0.00e+00	0	44	0	4553965568	47	4421
2026-01-28 05:02:43.59	229.99	9.82	-39.4	-40.5	18.9	0.00e+00	0	44	0	4561305600	48	4260
2026-01-28 05:02:44.59	229.93	9.74	-39.4	-40.5	18.9	0.00e+00	0	44	0	4568645632	48	4282
2026-01-28 05:02:45.59	229.87	9.65	-39.2	-40.4	18.8	0.00e+00	0	44	0	4575985664	47	4449
2026-01-28 05:02:46.59	229.81	9.57	-39.4	-40.5	18.9	0.00e+00	0	44	0	4582277120	48	4279
2026-01-28 05:02:47.58	229.75	9.49	-39.5	-40.6	18.8	0.00e+00	0	44	0	4589617152	48	4312
2026-01-28 05:02:48.58	229.68	9.41	-39.5	-40.6	18.8	0.00e+00	0	44	0	4596957184	48	4314
2026-01-28 05:02:49.58	229.62	9.33	-39.6	-40.7	18.7	0.00e+00	0	44	0	4604297216	48	4359
2026-01-28 05:02:50.57	229.56	9.25	-39.5	-40.6	18.8	0.00e+00	0	44	0	4611637248	48	4306
2026-01-28 05:02:51.57	229.50	9.17	-39.4	-40.7	18.7	0.00e+00	0	44	0	4618977280	48	4345
2026-01-28 05:02:52.57	229.45	9.10	-39.3	-40.7	18.7	0.00e+00	0	44	0	4626317312	48	4363
2026-01-28 05:02:53.57	229.39	9.02	-40.6	-41.8	17.7	0.00e+00	0	44	0	4633657344	50	4397
2026-01-28 05:02:54.57	229.33	8.94	-49.6	-59.5	3.8	8.47e-01	0	44	104	4635754496	69	11339
