passes_logs/2026/01/28/T1/T1__20260128_014251_NOAA_21_JPSS-2_rec.log

#Pass ID: 20260128_014251_NOAA 21 (JPSS-2)
#Satellite: NOAA 21 (JPSS-2)
#Configuration: NOAA 21
#almurnet v.1.7.20251203
#Start time: 2026-01-28 01:42:52

#Version: 2.0.20230620
#Station: T1
#Location: 37.570604 lon 55.790049 lat
#TLE: 1 54234U 22150A   26027.41809747  .00000179  00000+0  10565-3 0  9991
#TLE: 2 54234  98.7510 328.1683 0000854 205.0798 155.0336 14.19540145166571

#Time	Az	El	Level	Level2	SNR	BER	BlckErr	Temp	State	Recorded	gain1	gain2
2026-01-28 01:42:52.58	4.44	5.07	-50.2	-63.4	3.8	1.49e+00	0	40	0	0	71	16985
2026-01-28 01:42:53.57	4.35	5.12	-50.4	-63.4	3.8	1.49e+00	0	40	104	0	72	15987
2026-01-28 01:42:54.56	4.25	5.18	-50.3	-63.3	3.8	1.49e+00	0	40	104	0	72	15912
2026-01-28 01:42:55.55	4.16	5.23	-50.3	-63.4	3.8	1.49e+00	0	40	104	0	72	15960
2026-01-28 01:42:56.55	4.06	5.29	-50.3	-63.4	3.8	1.49e+00	0	40	104	0	72	16074
2026-01-28 01:42:57.54	3.97	5.34	-50.3	-63.4	3.8	1.49e+00	0	40	104	0	72	15976
2026-01-28 01:42:58.53	3.87	5.40	-50.2	-63.4	3.8	1.49e+00	0	40	104	0	72	16048
2026-01-28 01:42:59.52	3.77	5.46	-50.2	-63.4	3.8	1.49e+00	0	40	104	0	71	17003
2026-01-28 01:43:00.52	3.68	5.51	-50.1	-63.4	3.8	1.49e+00	0	40	104	0	71	16992
2026-01-28 01:43:01.51	3.58	5.57	-50.3	-63.4	3.8	1.49e+00	0	41	104	0	71	16995
2026-01-28 01:43:02.50	3.48	5.62	-50.4	-63.4	3.8	1.49e+00	0	40	104	0	71	16980
2026-01-28 01:43:03.50	3.38	5.68	-50.2	-63.4	3.8	1.49e+00	0	40	104	0	71	16915
2026-01-28 01:43:04.49	3.29	5.73	-50.2	-63.4	3.8	1.49e+00	0	40	104	0	71	16978
2026-01-28 01:43:05.48	3.19	5.79	-50.1	-63.4	3.8	1.49e+00	0	41	104	0	71	16982
2026-01-28 01:43:06.47	3.09	5.84	-50.2	-63.3	3.8	1.49e+00	0	41	104	0	71	16871
2026-01-28 01:43:07.47	2.99	5.90	-49.8	-63.4	3.8	1.49e+00	0	41	104	0	71	16901
2026-01-28 01:43:08.46	2.89	5.95	-50.2	-63.3	3.8	1.49e+00	0	41	104	0	71	16876
2026-01-28 01:43:09.45	2.79	6.01	-50.1	-63.3	3.8	1.49e+00	0	41	104	0	71	16809
2026-01-28 01:43:10.45	2.69	6.07	-50.2	-63.3	3.8	1.49e+00	0	41	104	0	71	16775
2026-01-28 01:43:11.44	2.58	6.12	-50.0	-63.3	3.8	1.49e+00	0	41	104	0	71	16732
2026-01-28 01:43:12.43	2.48	6.18	-49.7	-63.2	3.8	1.49e+00	0	41	104	0	70	17648
2026-01-28 01:43:13.43	2.38	6.23	-49.8	-63.2	3.8	1.49e+00	0	41	104	0	70	17636
2026-01-28 01:43:14.42	2.28	6.29	-49.6	-63.2	3.8	1.49e+00	0	41	104	0	69	18531
2026-01-28 01:43:15.41	2.18	6.34	-49.5	-63.1	3.8	1.49e+00	0	41	104	0	70	17325
2026-01-28 01:43:16.41	2.07	6.40	-48.5	-63.0	3.8	1.49e+00	0	41	104	0	69	18238
2026-01-28 01:43:17.40	1.97	6.46	-48.1	-62.7	3.8	1.49e+00	0	41	104	0	67	19755
2026-01-28 01:43:18.39	1.86	6.51	-47.9	-62.7	3.8	1.49e+00	0	41	104	0	67	19663
2026-01-28 01:43:19.38	1.76	6.57	-47.8	-62.7	3.8	1.49e+00	0	41	104	0	67	19758
2026-01-28 01:43:20.38	1.65	6.62	-47.8	-62.7	3.8	1.49e+00	0	41	104	0	67	19640
2026-01-28 01:43:21.37	1.55	6.68	-47.8	-62.7	3.8	1.49e+00	0	41	104	0	67	19668
2026-01-28 01:43:22.36	1.44	6.74	-47.8	-62.7	3.8	1.49e+00	0	41	104	0	67	19677
2026-01-28 01:43:23.36	1.34	6.79	-47.8	-62.7	3.8	1.49e+00	0	41	104	0	67	19625
2026-01-28 01:43:24.35	1.23	6.85	-47.8	-62.6	3.8	1.49e+00	0	41	104	0	67	19576
2026-01-28 01:43:25.34	1.12	6.90	-47.8	-62.6	3.8	1.49e+00	0	41	104	0	67	19565
2026-01-28 01:43:26.33	1.02	6.96	-47.8	-62.6	3.8	1.49e+00	0	41	104	0	67	19476
2026-01-28 01:43:27.33	0.91	7.02	-47.8	-62.6	3.8	1.49e+00	0	41	104	0	67	19450
2026-01-28 01:43:28.32	0.80	7.07	-47.8	-62.6	3.8	1.49e+00	0	41	104	0	67	19450
2026-01-28 01:43:29.31	0.69	7.13	-47.8	-62.5	3.8	1.49e+00	0	41	104	0	67	19387
2026-01-28 01:43:30.31	0.58	7.19	-47.8	-62.5	3.8	1.49e+00	0	41	104	0	67	19377
2026-01-28 01:43:31.30	0.47	7.24	-47.8	-62.6	3.8	1.49e+00	0	41	104	0	67	19458
2026-01-28 01:43:32.29	0.36	7.30	-47.8	-62.6	3.8	1.49e+00	0	41	104	0	67	19470
2026-01-28 01:43:33.29	0.25	7.36	-47.8	-62.6	3.8	1.49e+00	0	41	104	0	67	19525
2026-01-28 01:43:34.28	0.14	7.41	-47.8	-62.6	3.8	1.49e+00	0	41	104	0	67	19520
2026-01-28 01:43:35.27	0.03	7.47	-47.8	-62.6	3.8	1.49e+00	0	41	104	0	67	19572
2026-01-28 01:43:36.27	359.92	7.52	-47.8	-62.7	3.8	1.49e+00	0	41	104	0	67	19701
2026-01-28 01:43:37.26	359.80	7.58	-47.8	-62.7	3.8	1.49e+00	0	41	104	0	67	19652
2026-01-28 01:43:38.25	359.69	7.64	-47.8	-62.7	3.8	1.49e+00	0	41	104	0	67	19682
2026-01-28 01:43:39.25	359.58	7.69	-47.8	-62.7	3.8	1.49e+00	0	41	104	0	67	19651
2026-01-28 01:43:40.24	359.46	7.75	-47.8	-62.6	3.8	1.49e+00	0	41	104	0	67	19576
2026-01-28 01:43:41.23	359.35	7.81	-47.8	-62.6	3.8	1.49e+00	0	41	104	0	67	19596
2026-01-28 01:43:42.22	359.23	7.86	-47.8	-62.7	3.8	1.49e+00	0	41	104	0	67	19656
2026-01-28 01:43:43.22	359.12	7.92	-47.8	-62.7	3.8	1.49e+00	0	41	104	0	67	19671
2026-01-28 01:43:44.21	359.00	7.98	-47.8	-62.7	3.8	1.49e+00	0	41	104	0	67	19678
2026-01-28 01:43:45.20	358.89	8.03	-47.7	-62.6	3.8	1.49e+00	0	41	104	0	67	19412
2026-01-28 01:43:46.20	358.77	8.09	-47.7	-62.3	3.8	1.49e+00	0	41	104	0	67	18877
2026-01-28 01:43:47.19	358.65	8.15	-47.7	-62.1	3.8	1.49e+00	0	41	104	0	67	18342
2026-01-28 01:43:48.18	358.54	8.20	-47.7	-61.7	3.8	1.49e+00	0	41	104	0	67	17560
2026-01-28 01:43:49.17	358.42	8.26	-47.7	-61.3	3.8	1.49e+00	0	41	104	0	67	16827
2026-01-28 01:43:50.17	358.30	8.32	-47.7	-61.0	3.9	1.49e+00	0	41	104	0	67	16210
2026-01-28 01:43:51.16	358.18	8.37	-47.6	-60.3	4.0	1.49e+00	0	41	104	0	67	14973
2026-01-28 01:43:52.15	358.06	8.43	-47.6	-59.9	4.0	1.48e+00	0	41	104	0	67	14371
2026-01-28 01:43:53.15	357.94	8.49	-47.6	-59.3	4.1	1.47e+00	0	41	104	0	67	13398
2026-01-28 01:43:54.14	357.82	8.54	-47.5	-58.5	4.2	1.45e+00	0	41	104	0	67	12106
2026-01-28 01:43:55.13	357.70	8.60	-47.4	-57.9	4.1	1.18e+00	0	41	104	0	66	12083
2026-01-28 01:43:56.13	357.58	8.66	-47.1	-55.6	5.9	4.39e-01	0	41	0	0	66	9263
2026-01-28 01:43:57.12	357.46	8.71	-46.7	-53.9	7.4	1.47e-01	0	41	0	0	65	8073
2026-01-28 01:43:58.11	357.34	8.77	-46.2	-52.2	9.1	3.26e-02	0	41	0	0	64	7027
2026-01-28 01:43:59.10	357.21	8.83	-45.7	-50.7	10.7	6.47e-03	0	41	0	0	63	6272
2026-01-28 01:44:00.10	357.09	8.88	-45.1	-49.5	12.0	7.12e-04	0	41	0	0	62	5767
2026-01-28 01:44:01.09	356.97	8.94	-44.7	-48.6	12.9	7.01e-05	0	41	0	0	61	5508
2026-01-28 01:44:02.08	356.84	9.00	-44.3	-48.1	13.5	1.60e-05	0	41	0	0	60	5468
2026-01-28 01:44:03.08	356.72	9.05	-44.2	-47.9	13.7	5.30e-06	0	41	0	0	60	5366
2026-01-28 01:44:04.07	356.59	9.11	-45.1	-49.2	12.4	8.01e-05	0	41	0	0	60	6247
2026-01-28 01:44:05.06	356.47	9.17	-47.0	-57.1	5.1	3.11e-01	0	41	0	0	64	12249
2026-01-28 01:44:06.06	356.34	9.22	-40.4	-43.3	17.9	0.00e+00	0	41	0	0	52	5033
2026-01-28 01:44:07.05	356.21	9.28	-41.7	-45.2	16.1	0.00e+00	0	41	0	0	54	5578
2026-01-28 01:44:08.04	356.09	9.34	-41.5	-45.2	16.0	0.00e+00	0	41	0	0	53	5890
2026-01-28 01:44:09.03	355.96	9.39	-40.3	-43.2	18.0	0.00e+00	0	41	0	0	52	4932
2026-01-28 01:44:10.02	355.83	9.45	-40.6	-43.4	17.8	0.00e+00	0	41	0	0	52	5074
2026-01-28 01:44:11.02	355.70	9.51	-40.5	-43.3	17.9	0.00e+00	0	41	0	0	52	5009
2026-01-28 01:44:12.01	355.57	9.56	-40.4	-43.3	17.9	0.00e+00	0	41	0	0	52	5011
2026-01-28 01:44:13.00	355.44	9.62	-40.4	-43.3	17.9	0.00e+00	0	41	0	0	52	5025
2026-01-28 01:44:13.99	355.31	9.67	-40.4	-43.3	17.9	0.00e+00	0	41	0	0	52	4988
2026-01-28 01:44:14.99	355.18	9.73	-40.6	-43.3	17.9	0.00e+00	0	41	0	0	52	5013
2026-01-28 01:44:15.98	355.05	9.79	-40.5	-43.2	17.9	0.00e+00	0	41	0	0	52	4947
2026-01-28 01:44:16.98	354.92	9.84	-40.7	-43.2	18.0	0.00e+00	0	41	0	0	52	4954
2026-01-28 01:44:17.97	354.79	9.90	-40.9	-43.3	17.8	0.00e+00	0	41	0	0	52	5010
2026-01-28 01:44:18.96	354.65	9.96	-40.9	-43.2	17.9	0.00e+00	0	41	0	0	52	4979
2026-01-28 01:44:19.96	354.52	10.01	-40.7	-43.0	18.1	0.00e+00	0	41	0	0	52	4860
2026-01-28 01:44:20.95	354.39	10.07	-40.7	-43.1	18.1	0.00e+00	0	41	0	0	52	4891
2026-01-28 01:44:21.94	354.25	10.13	-40.6	-43.0	18.1	0.00e+00	0	41	0	0	52	4844
2026-01-28 01:44:22.93	354.12	10.18	-40.6	-43.0	18.1	0.00e+00	0	41	0	0	52	4821
2026-01-28 01:44:23.92	353.98	10.24	-40.7	-43.1	18.0	0.00e+00	0	41	0	0	52	4891
2026-01-28 01:44:24.92	353.84	10.30	-40.6	-43.0	18.1	0.00e+00	0	41	0	0	52	4854
2026-01-28 01:44:25.91	353.71	10.35	-40.6	-43.2	17.9	0.00e+00	0	41	0	0	52	4950
2026-01-28 01:44:26.90	353.57	10.41	-40.5	-43.1	18.1	0.00e+00	0	41	0	0	52	4909
2026-01-28 01:44:27.90	353.43	10.46	-40.5	-43.1	18.1	0.00e+00	0	41	0	0	52	4884
2026-01-28 01:44:28.89	353.29	10.52	-40.4	-43.1	18.0	0.00e+00	0	41	0	0	52	4913
2026-01-28 01:44:29.88	353.16	10.58	-40.3	-42.9	18.2	0.00e+00	0	41	0	0	52	4813
2026-01-28 01:44:30.88	353.02	10.63	-40.3	-43.0	18.2	0.00e+00	0	41	0	0	52	4836
2026-01-28 01:44:31.87	352.88	10.69	-40.3	-43.1	18.1	0.00e+00	0	41	0	0	52	4888
2026-01-28 01:44:32.86	352.74	10.75	-40.2	-43.0	18.2	0.00e+00	0	41	0	0	52	4845
2026-01-28 01:44:33.86	352.59	10.80	-40.1	-42.9	18.4	0.00e+00	0	41	0	0	52	4786
2026-01-28 01:44:34.85	352.45	10.86	-40.1	-42.8	18.4	0.00e+00	0	41	0	0	51	5040
2026-01-28 01:44:35.84	352.31	10.91	-40.0	-42.8	18.5	0.00e+00	0	41	0	0	51	5003
2026-01-28 01:44:36.83	352.17	10.97	-40.2	-42.9	18.4	0.00e+00	0	41	0	0	51	5100
2026-01-28 01:44:37.83	352.03	11.03	-40.3	-42.9	18.4	0.00e+00	0	41	0	0	51	5066
2026-01-28 01:44:38.82	351.88	11.08	-40.5	-43.0	18.3	0.00e+00	0	41	0	0	51	5137
2026-01-28 01:44:39.81	351.74	11.14	-40.4	-42.8	18.5	0.00e+00	0	41	0	0	51	5016
2026-01-28 01:44:40.81	351.59	11.19	-40.5	-42.7	18.5	0.00e+00	0	41	0	0	51	4980
2026-01-28 01:44:41.80	351.45	11.25	-40.4	-42.6	18.7	0.00e+00	0	41	0	0	51	4909
2026-01-28 01:44:42.79	351.30	11.30	-40.5	-42.7	18.6	0.00e+00	0	41	0	0	51	4962
2026-01-28 01:44:43.78	351.16	11.36	-40.5	-42.7	18.6	0.00e+00	0	41	0	0	51	4964
2026-01-28 01:44:44.78	351.01	11.41	-40.5	-42.7	18.6	0.00e+00	0	41	0	0	51	4953
2026-01-28 01:44:45.77	350.86	11.47	-40.5	-42.7	18.5	0.00e+00	0	41	0	0	51	4944
2026-01-28 01:44:46.76	350.71	11.53	-40.7	-42.9	18.4	0.00e+00	0	41	0	0	52	4762
2026-01-28 01:44:47.75	350.56	11.58	-40.6	-42.8	18.3	0.00e+00	0	41	0	0	52	4736
2026-01-28 01:44:48.75	350.41	11.64	-40.6	-42.8	18.4	0.00e+00	0	41	0	0	52	4731
2026-01-28 01:44:49.74	350.26	11.69	-40.7	-42.9	18.4	0.00e+00	0	41	0	0	52	4760
2026-01-28 01:44:50.73	350.11	11.75	-40.7	-42.9	18.3	0.00e+00	0	41	0	0	52	4787
2026-01-28 01:44:51.72	349.96	11.80	-40.7	-42.9	18.3	0.00e+00	0	41	0	0	52	4790
2026-01-28 01:44:52.72	349.81	11.86	-40.8	-43.0	18.3	0.00e+00	0	41	0	0	52	4825
2026-01-28 01:44:53.71	349.66	11.91	-40.6	-42.9	18.4	0.00e+00	0	41	0	0	52	4769
2026-01-28 01:44:54.70	349.50	11.97	-40.6	-42.9	18.4	0.00e+00	0	41	0	0	52	4786
2026-01-28 01:44:55.70	349.35	12.02	-40.5	-42.8	18.5	0.00e+00	0	41	0	0	52	4719
2026-01-28 01:44:56.69	349.20	12.07	-40.4	-42.8	18.5	0.00e+00	0	41	0	0	52	4732
2026-01-28 01:44:57.68	349.04	12.13	-40.4	-42.8	18.5	0.00e+00	0	41	0	0	52	4707
2026-01-28 01:44:58.67	348.89	12.18	-40.4	-42.8	18.5	0.00e+00	0	41	0	0	52	4713
2026-01-28 01:44:59.67	348.73	12.24	-40.4	-42.8	18.5	0.00e+00	0	41	0	0	52	4710
2026-01-28 01:45:00.66	348.57	12.29	-40.5	-42.8	18.5	0.00e+00	0	41	0	0	52	4739
2026-01-28 01:45:01.65	348.42	12.35	-40.5	-42.8	18.5	0.00e+00	0	41	0	0	52	4728
2026-01-28 01:45:02.65	348.26	12.40	-40.6	-42.9	18.4	0.00e+00	0	41	0	0	52	4765
2026-01-28 01:45:03.64	348.10	12.45	-40.6	-42.8	18.5	0.00e+00	0	41	0	0	52	4739
2026-01-28 01:45:04.63	347.94	12.51	-40.6	-42.7	18.6	0.00e+00	0	41	0	0	52	4654
2026-01-28 01:45:05.62	347.78	12.56	-40.6	-42.7	18.6	0.00e+00	0	41	0	0	52	4678
2026-01-28 01:45:06.62	347.62	12.62	-40.6	-42.6	18.7	0.00e+00	0	41	0	0	52	4629
2026-01-28 01:45:07.61	347.46	12.67	-40.6	-42.6	18.7	0.00e+00	0	41	0	0	52	4616
2026-01-28 01:45:08.60	347.30	12.72	-40.6	-42.6	18.7	0.00e+00	0	41	0	0	52	4626
2026-01-28 01:45:09.59	347.14	12.78	-40.7	-42.7	18.5	0.00e+00	0	41	0	0	52	4658
2026-01-28 01:45:10.59	346.98	12.83	-40.8	-42.8	18.4	0.00e+00	0	41	0	0	52	4716
2026-01-28 01:45:11.58	346.81	12.88	-40.8	-42.9	18.4	0.00e+00	0	41	0	0	52	4775
2026-01-28 01:45:12.57	346.65	12.94	-40.7	-42.8	18.5	0.00e+00	0	41	0	0	52	4707
2026-01-28 01:45:13.57	346.49	12.99	-40.9	-43.0	18.3	0.00e+00	0	41	0	0	52	4854
2026-01-28 01:45:14.56	346.32	13.04	-40.7	-42.8	18.5	0.00e+00	0	41	0	0	52	4726
2026-01-28 01:45:15.55	346.16	13.09	-40.7	-42.7	18.5	0.00e+00	0	41	0	0	52	4685
2026-01-28 01:45:16.54	345.99	13.15	-40.7	-42.7	18.5	0.00e+00	0	41	0	0	52	4680
2026-01-28 01:45:17.54	345.82	13.20	-40.7	-42.8	18.5	0.00e+00	0	41	0	0	52	4717
2026-01-28 01:45:18.53	345.66	13.25	-40.8	-42.9	18.4	0.00e+00	0	41	0	0	52	4772
2026-01-28 01:45:19.52	345.49	13.30	-40.8	-42.9	18.4	0.00e+00	0	41	0	0	52	4782
2026-01-28 01:45:20.52	345.32	13.36	-40.9	-43.0	18.4	0.00e+00	0	41	0	0	52	4821
2026-01-28 01:45:21.51	345.15	13.41	-41.0	-43.1	18.2	0.00e+00	0	41	0	0	52	4886
2026-01-28 01:45:22.50	344.98	13.46	-41.0	-43.1	18.3	0.00e+00	0	41	0	0	52	4890
2026-01-28 01:45:23.50	344.81	13.51	-41.1	-43.2	18.2	0.00e+00	0	41	0	0	52	4930
2026-01-28 01:45:24.49	344.64	13.56	-41.0	-43.1	18.3	0.00e+00	0	41	0	0	52	4893
2026-01-28 01:45:25.48	344.47	13.61	-40.9	-43.0	18.3	0.00e+00	0	41	0	0	52	4862
2026-01-28 01:45:26.47	344.30	13.66	-40.7	-42.8	18.5	0.00e+00	0	41	0	0	52	4759
2026-01-28 01:45:27.47	344.12	13.72	-40.7	-42.8	18.6	0.00e+00	0	41	0	0	52	4741
2026-01-28 01:45:28.46	343.95	13.77	-40.7	-42.8	18.5	0.00e+00	0	41	0	0	52	4728
2026-01-28 01:45:29.45	343.78	13.82	-40.7	-42.8	18.6	0.00e+00	0	41	0	0	52	4727
2026-01-28 01:45:30.45	343.60	13.87	-40.7	-42.9	18.5	0.00e+00	0	41	0	0	52	4763
2026-01-28 01:45:31.44	343.43	13.92	-40.7	-42.8	18.6	0.00e+00	0	41	0	0	52	4729
2026-01-28 01:45:32.43	343.25	13.97	-40.7	-42.7	18.6	0.00e+00	0	41	0	0	52	4698
2026-01-28 01:45:33.43	343.07	14.02	-40.7	-42.7	18.6	0.00e+00	0	41	0	0	52	4703
2026-01-28 01:45:34.42	342.90	14.07	-40.7	-42.7	18.6	0.00e+00	0	41	0	0	52	4690
2026-01-28 01:45:35.41	342.72	14.12	-40.6	-42.6	18.7	0.00e+00	0	41	0	0	52	4631
2026-01-28 01:45:36.40	342.54	14.17	-40.4	-42.5	18.8	0.00e+00	0	41	0	0	52	4563
2026-01-28 01:45:37.40	342.36	14.22	-40.4	-42.5	18.8	0.00e+00	0	41	0	0	52	4584
2026-01-28 01:45:38.39	342.18	14.27	-40.4	-42.5	18.8	0.00e+00	0	41	0	0	52	4586
2026-01-28 01:45:39.38	342.01	14.32	-40.4	-42.5	18.7	0.00e+00	0	41	0	0	52	4582
2026-01-28 01:45:40.38	341.82	14.36	-40.5	-42.6	18.6	0.00e+00	0	41	0	0	52	4649
2026-01-28 01:45:41.37	341.64	14.41	-40.7	-42.8	18.6	0.00e+00	0	41	0	0	52	4716
2026-01-28 01:45:42.36	341.46	14.46	-40.8	-42.9	18.4	0.00e+00	0	41	0	0	52	4778
2026-01-28 01:45:43.35	341.28	14.51	-40.9	-42.9	18.4	0.00e+00	0	41	0	0	52	4771
2026-01-28 01:45:44.34	341.10	14.56	-40.9	-42.9	18.4	0.00e+00	0	41	0	0	52	4777
2026-01-28 01:45:45.34	340.91	14.61	-41.0	-42.9	18.5	0.00e+00	0	41	0	0	52	4781
2026-01-28 01:45:46.33	340.73	14.65	-40.8	-42.7	18.6	0.00e+00	0	41	0	0	52	4693
2026-01-28 01:45:47.32	340.54	14.70	-40.8	-42.8	18.5	0.00e+00	0	41	0	0	52	4755
2026-01-28 01:45:48.32	340.36	14.75	-40.7	-42.7	18.6	0.00e+00	0	41	0	0	52	4704
2026-01-28 01:45:49.31	340.17	14.80	-40.6	-42.6	18.6	0.00e+00	0	41	0	0	52	4650
2026-01-28 01:45:50.30	339.99	14.84	-40.6	-42.6	18.7	0.00e+00	0	41	0	0	52	4637
2026-01-28 01:45:51.30	339.80	14.89	-40.7	-42.7	18.7	0.00e+00	0	41	0	0	52	4667
2026-01-28 01:45:52.29	339.61	14.93	-40.6	-42.6	18.7	0.00e+00	0	41	0	0	52	4610
2026-01-28 01:45:53.28	339.42	14.98	-40.7	-42.7	18.6	0.00e+00	0	41	0	0	52	4666
2026-01-28 01:45:54.27	339.23	15.03	-40.7	-42.7	18.6	0.00e+00	0	41	0	0	52	4666
2026-01-28 01:45:55.27	339.04	15.07	-40.8	-42.7	18.6	0.00e+00	0	41	0	0	52	4688
2026-01-28 01:45:56.26	338.85	15.12	-40.6	-42.5	18.8	0.00e+00	0	41	0	0	52	4580
2026-01-28 01:45:57.25	338.66	15.16	-40.6	-42.5	18.8	0.00e+00	0	41	0	0	52	4578
2026-01-28 01:45:58.24	338.47	15.21	-40.6	-42.5	18.7	0.00e+00	0	41	0	0	52	4595
2026-01-28 01:45:59.24	338.28	15.25	-40.6	-42.6	18.7	0.00e+00	0	41	0	0	52	4611
2026-01-28 01:46:00.23	338.09	15.30	-40.6	-42.6	18.7	0.00e+00	0	41	0	0	52	4628
2026-01-28 01:46:01.22	337.90	15.34	-40.6	-42.6	18.8	0.00e+00	0	41	0	0	52	4607
2026-01-28 01:46:02.22	337.70	15.39	-40.8	-42.7	18.6	0.00e+00	0	41	0	0	52	4677
2026-01-28 01:46:03.21	337.51	15.43	-40.7	-42.5	18.7	0.00e+00	0	41	0	0	52	4589
2026-01-28 01:46:04.20	337.31	15.47	-40.7	-42.6	18.7	0.00e+00	0	41	0	0	52	4606
2026-01-28 01:46:05.19	337.12	15.52	-40.8	-42.6	18.6	0.00e+00	0	41	0	0	52	4646
2026-01-28 01:46:06.19	336.92	15.56	-40.7	-42.6	18.6	0.00e+00	0	41	0	0	52	4630
2026-01-28 01:46:07.18	336.72	15.60	-40.7	-42.6	18.6	0.00e+00	0	41	0	0	52	4637
2026-01-28 01:46:08.17	336.53	15.64	-40.7	-42.6	18.7	0.00e+00	0	41	0	0	52	4633
2026-01-28 01:46:09.17	336.33	15.69	-40.7	-42.7	18.6	0.00e+00	0	41	0	0	52	4669
2026-01-28 01:46:10.16	336.13	15.73	-40.6	-42.5	18.7	0.00e+00	0	41	0	0	52	4584
2026-01-28 01:46:11.15	335.93	15.77	-40.6	-42.6	18.7	0.00e+00	0	41	0	0	52	4604
2026-01-28 01:46:12.14	335.73	15.81	-40.7	-42.6	18.7	0.00e+00	0	41	0	0	52	4623
2026-01-28 01:46:13.14	335.53	15.85	-40.6	-42.5	18.8	0.00e+00	0	41	0	0	52	4591
2026-01-28 01:46:14.13	335.33	15.89	-40.5	-42.4	18.9	0.00e+00	0	41	0	0	52	4532
2026-01-28 01:46:15.12	335.13	15.93	-40.4	-42.3	19.0	0.00e+00	0	41	0	0	52	4481
2026-01-28 01:46:16.12	334.93	15.97	-40.4	-42.3	19.1	0.00e+00	0	41	0	0	52	4459
2026-01-28 01:46:17.11	334.73	16.01	-40.4	-42.3	19.0	0.00e+00	0	41	0	0	52	4451
2026-01-28 01:46:18.10	334.53	16.05	-40.3	-42.2	19.1	0.00e+00	0	41	0	0	52	4410
2026-01-28 01:46:19.10	334.32	16.09	-40.3	-42.2	19.1	0.00e+00	0	41	0	0	52	4409
2026-01-28 01:46:20.09	334.12	16.13	-40.1	-42.0	19.3	0.00e+00	0	41	0	0	52	4302
2026-01-28 01:46:21.08	333.91	16.17	-40.1	-41.9	19.4	0.00e+00	0	41	0	0	52	4265
2026-01-28 01:46:22.07	333.71	16.21	-40.2	-42.0	19.3	0.00e+00	0	41	0	0	52	4309
2026-01-28 01:46:23.07	333.50	16.25	-40.1	-41.9	19.4	0.00e+00	0	41	0	0	52	4291
2026-01-28 01:46:24.06	333.30	16.29	-40.2	-42.1	19.2	0.00e+00	0	41	0	0	52	4347
2026-01-28 01:46:25.05	333.09	16.32	-40.3	-42.2	19.1	0.00e+00	0	41	0	0	52	4401
2026-01-28 01:46:26.05	332.88	16.36	-40.2	-42.1	19.2	0.00e+00	0	41	0	0	52	4375
2026-01-28 01:46:27.04	332.68	16.40	-40.2	-42.1	19.2	0.00e+00	0	41	0	0	52	4371
2026-01-28 01:46:28.03	332.47	16.43	-40.2	-42.0	19.3	0.00e+00	0	41	0	0	52	4333
2026-01-28 01:46:29.02	332.26	16.47	-40.2	-42.0	19.3	0.00e+00	0	41	0	0	52	4336
2026-01-28 01:46:30.02	332.05	16.51	-40.0	-41.9	19.4	0.00e+00	0	41	0	0	52	4279
2026-01-28 01:46:31.01	331.84	16.54	-40.0	-41.9	19.5	0.00e+00	0	41	0	0	51	4513
2026-01-28 01:46:32.00	331.63	16.58	-40.0	-41.9	19.4	0.00e+00	0	41	0	0	51	4505
2026-01-28 01:46:33.00	331.42	16.61	-40.1	-41.9	19.4	0.00e+00	0	41	0	0	51	4515
2026-01-28 01:46:33.99	331.21	16.65	-40.2	-42.0	19.3	0.00e+00	0	41	0	0	51	4585
2026-01-28 01:46:34.98	331.00	16.68	-40.2	-42.0	19.3	0.00e+00	0	41	0	0	51	4563
2026-01-28 01:46:35.97	330.79	16.71	-40.2	-42.0	19.3	0.00e+00	0	41	0	0	51	4583
2026-01-28 01:46:36.97	330.57	16.75	-40.2	-42.0	19.2	0.00e+00	0	41	0	0	51	4598
2026-01-28 01:46:37.96	330.36	16.78	-40.2	-42.1	19.2	0.00e+00	0	41	0	0	51	4601
2026-01-28 01:46:38.95	330.15	16.81	-40.3	-42.2	19.2	0.00e+00	0	41	0	0	51	4655
2026-01-28 01:46:39.94	329.93	16.84	-40.4	-42.2	19.1	0.00e+00	0	41	0	0	51	4662
2026-01-28 01:46:40.94	329.72	16.88	-40.4	-42.2	19.1	0.00e+00	0	41	0	0	51	4682
2026-01-28 01:46:41.93	329.50	16.91	-40.4	-42.2	19.1	0.00e+00	0	41	0	0	51	4682
2026-01-28 01:46:42.93	329.29	16.94	-40.4	-42.2	19.1	0.00e+00	0	41	0	0	51	4695
2026-01-28 01:46:43.92	329.07	16.97	-40.3	-42.1	19.2	0.00e+00	0	41	0	0	51	4644
2026-01-28 01:46:44.91	328.86	17.00	-40.5	-42.3	19.1	0.00e+00	0	41	0	0	51	4751
2026-01-28 01:46:45.91	328.64	17.03	-40.4	-42.3	19.1	0.00e+00	0	41	0	0	51	4714
2026-01-28 01:46:46.90	328.42	17.06	-40.2	-42.1	19.2	0.00e+00	0	41	0	0	51	4648
2026-01-28 01:46:47.89	328.20	17.09	-40.1	-42.0	19.4	0.00e+00	0	41	0	0	51	4555
2026-01-28 01:46:48.88	327.99	17.12	-40.1	-42.1	19.3	0.00e+00	0	41	0	0	51	4610
2026-01-28 01:46:49.88	327.77	17.15	-40.2	-42.1	19.3	0.00e+00	0	41	0	0	51	4616
2026-01-28 01:46:50.87	327.55	17.18	-40.0	-41.9	19.4	0.00e+00	0	41	0	0	51	4537
2026-01-28 01:46:51.86	327.33	17.20	-40.1	-42.1	19.3	0.00e+00	0	41	0	0	51	4607
2026-01-28 01:46:52.86	327.11	17.23	-40.2	-42.1	19.3	0.00e+00	0	41	0	0	51	4626
2026-01-28 01:46:53.85	326.89	17.26	-40.2	-42.1	19.2	0.00e+00	0	41	0	0	51	4646
2026-01-28 01:46:54.84	326.67	17.28	-40.0	-42.0	19.3	0.00e+00	0	41	0	0	51	4574
2026-01-28 01:46:55.83	326.45	17.31	-40.1	-42.1	19.2	0.00e+00	0	41	0	0	51	4620
2026-01-28 01:46:56.83	326.23	17.34	-40.0	-42.1	19.2	0.00e+00	0	41	0	0	51	4599
2026-01-28 01:46:57.82	326.01	17.36	-40.1	-42.1	19.3	0.00e+00	0	41	0	0	51	4607
2026-01-28 01:46:58.81	325.79	17.39	-40.1	-42.0	19.3	0.00e+00	0	41	0	0	51	4589
2026-01-28 01:46:59.81	325.56	17.41	-40.3	-42.2	19.1	0.00e+00	0	41	0	0	51	4666
2026-01-28 01:47:00.80	325.34	17.44	-40.2	-42.1	19.2	0.00e+00	0	41	0	0	51	4626
2026-01-28 01:47:01.79	325.12	17.46	-40.3	-42.2	19.1	0.00e+00	0	41	0	0	51	4668
2026-01-28 01:47:02.79	324.89	17.48	-40.4	-42.2	19.1	0.00e+00	0	41	0	0	51	4701
2026-01-28 01:47:03.78	324.67	17.50	-40.3	-42.1	19.2	0.00e+00	0	41	0	0	51	4644
2026-01-28 01:47:04.77	324.45	17.53	-40.4	-42.2	19.2	0.00e+00	0	41	0	0	51	4659
2026-01-28 01:47:05.76	324.22	17.55	-40.5	-42.3	19.1	0.00e+00	0	41	0	0	51	4707
2026-01-28 01:47:06.76	323.99	17.57	-40.5	-42.3	19.0	0.00e+00	0	41	0	0	51	4732
2026-01-28 01:47:07.75	323.77	17.59	-40.5	-42.3	19.0	0.00e+00	0	41	0	0	51	4725
2026-01-28 01:47:08.74	323.55	17.61	-40.5	-42.4	19.1	0.00e+00	0	41	0	0	51	4760
2026-01-28 01:47:09.74	323.32	17.63	-40.3	-42.2	19.2	0.00e+00	0	41	0	0	51	4675
2026-01-28 01:47:10.73	323.09	17.65	-40.3	-42.2	19.2	0.00e+00	0	41	0	0	51	4672
2026-01-28 01:47:11.72	322.87	17.67	-40.3	-42.1	19.3	0.00e+00	0	41	0	0	51	4639
2026-01-28 01:47:12.71	322.64	17.69	-40.3	-42.1	19.3	0.00e+00	0	41	0	0	51	4642
2026-01-28 01:47:13.71	322.41	17.71	-40.2	-42.0	19.4	0.00e+00	0	41	0	0	51	4546
2026-01-28 01:47:14.70	322.19	17.73	-40.1	-41.9	19.5	0.00e+00	0	41	0	0	51	4510
2026-01-28 01:47:15.69	321.96	17.74	-40.1	-41.9	19.4	0.00e+00	0	41	0	0	51	4533
2026-01-28 01:47:16.69	321.73	17.76	-40.2	-42.0	19.3	0.00e+00	0	41	0	0	51	4571
2026-01-28 01:47:17.68	321.50	17.78	-40.3	-42.1	19.2	0.00e+00	0	41	0	0	51	4618
2026-01-28 01:47:18.67	321.28	17.79	-40.3	-42.2	19.2	0.00e+00	0	41	0	0	51	4661
2026-01-28 01:47:19.66	321.05	17.81	-40.2	-42.0	19.3	0.00e+00	0	41	0	0	51	4591
2026-01-28 01:47:20.66	320.82	17.83	-40.2	-42.1	19.3	0.00e+00	0	41	0	0	51	4612
2026-01-28 01:47:21.65	320.59	17.84	-40.2	-42.1	19.3	0.00e+00	0	41	0	0	51	4617
2026-01-28 01:47:22.64	320.36	17.85	-40.2	-42.1	19.2	0.00e+00	0	41	0	0	51	4622
2026-01-28 01:47:23.64	320.13	17.87	-40.4	-42.3	19.1	0.00e+00	0	41	0	0	51	4710
2026-01-28 01:47:24.63	319.90	17.88	-40.4	-42.3	19.0	0.00e+00	0	41	0	0	51	4742
2026-01-28 01:47:25.62	319.67	17.89	-40.5	-42.3	19.0	0.00e+00	0	41	0	0	51	4756
2026-01-28 01:47:26.61	319.44	17.91	-40.5	-42.4	19.0	0.00e+00	0	41	0	0	51	4786
2026-01-28 01:47:27.61	319.21	17.92	-40.5	-42.4	19.0	0.00e+00	0	41	0	0	51	4789
2026-01-28 01:47:28.60	318.98	17.93	-40.5	-42.3	19.1	0.00e+00	0	41	0	0	51	4714
2026-01-28 01:47:29.59	318.75	17.94	-40.4	-42.2	19.2	0.00e+00	0	41	0	0	51	4665
2026-01-28 01:47:30.59	318.52	17.95	-40.2	-42.0	19.3	0.00e+00	0	41	0	0	51	4590
2026-01-28 01:47:31.58	318.29	17.96	-40.1	-41.9	19.4	0.00e+00	0	41	0	0	51	4540
2026-01-28 01:47:32.57	318.06	17.97	-40.1	-42.0	19.4	0.00e+00	0	41	0	0	51	4568
2026-01-28 01:47:33.57	317.82	17.98	-40.2	-42.1	19.3	0.00e+00	0	41	0	0	51	4629
2026-01-28 01:47:34.56	317.59	17.99	-40.2	-42.1	19.3	0.00e+00	0	41	0	0	51	4619
2026-01-28 01:47:35.55	317.36	18.00	-40.2	-42.1	19.3	0.00e+00	0	41	0	0	51	4625
2026-01-28 01:47:36.54	317.13	18.01	-40.3	-42.1	19.3	0.00e+00	0	41	0	0	51	4647
2026-01-28 01:47:37.54	316.90	18.01	-40.4	-42.2	19.2	0.00e+00	0	41	0	0	51	4691
2026-01-28 01:47:38.53	316.67	18.02	-40.4	-42.3	19.2	0.00e+00	0	41	0	0	51	4724
2026-01-28 01:47:39.52	316.44	18.03	-40.3	-42.1	19.2	0.00e+00	0	41	0	0	51	4649
2026-01-28 01:47:40.51	316.20	18.03	-40.3	-42.1	19.4	0.00e+00	0	41	0	0	51	4601
2026-01-28 01:47:41.51	315.97	18.04	-40.4	-42.1	19.2	0.00e+00	0	41	0	0	51	4647
2026-01-28 01:47:42.50	315.74	18.04	-40.4	-42.2	19.1	0.00e+00	0	41	0	0	51	4684
2026-01-28 01:47:43.49	315.51	18.05	-40.5	-42.3	19.1	0.00e+00	0	41	0	0	51	4724
2026-01-28 01:47:44.49	315.27	18.05	-40.4	-42.2	19.2	0.00e+00	0	41	0	0	51	4668
2026-01-28 01:47:45.48	315.04	18.05	-40.5	-42.3	19.1	0.00e+00	0	41	0	0	51	4723
2026-01-28 01:47:46.47	314.81	18.06	-40.5	-42.3	19.1	0.00e+00	0	41	0	0	51	4737
2026-01-28 01:47:47.47	314.57	18.06	-40.5	-42.3	19.1	0.00e+00	0	41	0	0	51	4754
2026-01-28 01:47:48.46	314.34	18.06	-40.6	-42.4	19.0	0.00e+00	0	41	0	0	51	4790
2026-01-28 01:47:49.45	314.11	18.06	-40.6	-42.4	18.8	0.00e+00	0	41	0	0	52	4536
2026-01-28 01:47:50.44	313.88	18.06	-40.7	-42.6	18.7	0.00e+00	0	41	0	0	52	4637
2026-01-28 01:47:51.44	313.64	18.06	-40.8	-42.7	18.6	0.00e+00	0	41	0	0	52	4686
2026-01-28 01:47:52.43	313.41	18.06	-40.8	-42.7	18.6	0.00e+00	0	41	0	0	52	4695
2026-01-28 01:47:53.42	313.18	18.06	-40.8	-42.7	18.7	0.00e+00	0	41	0	0	52	4692
2026-01-28 01:47:54.42	312.95	18.06	-40.8	-42.6	18.8	0.00e+00	0	41	0	0	52	4629
2026-01-28 01:47:55.41	312.71	18.06	-40.5	-42.3	19.0	0.00e+00	0	41	0	0	52	4478
2026-01-28 01:47:56.40	312.48	18.06	-40.4	-42.1	19.2	0.00e+00	0	41	0	0	52	4390
2026-01-28 01:47:57.40	312.25	18.06	-40.3	-42.1	19.2	0.00e+00	0	41	0	0	52	4368
2026-01-28 01:47:58.39	312.02	18.05	-40.3	-42.1	19.2	0.00e+00	0	41	0	0	52	4380
2026-01-28 01:47:59.38	311.78	18.05	-40.2	-42.0	19.3	0.00e+00	0	41	0	0	52	4322
2026-01-28 01:48:00.36	311.56	18.05	-40.2	-42.0	19.3	0.00e+00	0	41	0	0	52	4301
2026-01-28 01:48:01.35	311.32	18.04	-40.3	-42.1	19.2	0.00e+00	0	41	0	0	52	4359
2026-01-28 01:48:02.35	311.09	18.04	-40.3	-42.1	19.2	0.00e+00	0	41	0	0	52	4345
2026-01-28 01:48:03.34	310.86	18.03	-40.2	-42.1	19.2	0.00e+00	0	41	0	0	52	4345
2026-01-28 01:48:04.33	310.63	18.02	-40.3	-42.1	19.2	0.00e+00	0	41	0	0	52	4351
2026-01-28 01:48:05.33	310.39	18.02	-40.3	-42.1	19.2	0.00e+00	0	41	0	0	52	4365
2026-01-28 01:48:06.32	310.16	18.01	-40.2	-42.0	19.2	0.00e+00	0	41	0	0	52	4331
2026-01-28 01:48:07.31	309.93	18.00	-40.2	-42.0	19.2	0.00e+00	0	42	0	0	52	4322
2026-01-28 01:48:08.30	309.70	18.00	-40.2	-42.0	19.2	0.00e+00	0	41	0	0	52	4326
2026-01-28 01:48:09.30	309.47	17.99	-40.2	-42.0	19.2	0.00e+00	0	41	0	0	52	4314
2026-01-28 01:48:10.28	309.24	17.98	-40.2	-42.0	19.2	0.00e+00	0	41	0	0	52	4301
2026-01-28 01:48:11.28	309.00	17.97	-40.2	-42.0	19.2	0.00e+00	0	41	0	0	52	4297
2026-01-28 01:48:12.27	308.77	17.96	-40.2	-42.0	19.2	0.00e+00	0	41	0	0	52	4308
2026-01-28 01:48:13.26	308.54	17.95	-40.2	-42.0	19.2	0.00e+00	0	41	0	0	52	4317
2026-01-28 01:48:14.26	308.31	17.94	-40.2	-41.9	19.3	0.00e+00	0	41	0	0	52	4287
2026-01-28 01:48:15.25	308.08	17.93	-40.2	-41.9	19.3	0.00e+00	0	41	0	0	52	4279
2026-01-28 01:48:16.24	307.85	17.92	-40.2	-42.0	19.3	0.00e+00	0	41	0	0	52	4310
2026-01-28 01:48:17.24	307.62	17.90	-40.3	-42.1	19.2	0.00e+00	0	41	0	0	52	4354
2026-01-28 01:48:18.23	307.39	17.89	-40.2	-42.0	19.3	0.00e+00	0	41	0	0	52	4319
2026-01-28 01:48:19.22	307.16	17.88	-40.3	-42.1	19.2	0.00e+00	0	41	0	0	52	4352
2026-01-28 01:48:20.22	306.93	17.87	-40.4	-42.2	19.1	0.00e+00	0	41	0	0	52	4431
2026-01-28 01:48:21.21	306.70	17.85	-40.3	-42.1	19.1	0.00e+00	0	41	0	0	52	4365
2026-01-28 01:48:22.20	306.47	17.84	-40.4	-42.1	19.1	0.00e+00	0	41	0	0	52	4388
2026-01-28 01:48:23.19	306.24	17.82	-40.3	-42.1	19.1	0.00e+00	0	41	0	0	52	4386
2026-01-28 01:48:24.19	306.01	17.81	-40.4	-42.2	19.0	0.00e+00	0	41	0	0	52	4404
2026-01-28 01:48:25.18	305.78	17.79	-40.3	-42.1	19.1	0.00e+00	0	41	0	0	52	4375
2026-01-28 01:48:26.17	305.55	17.78	-40.3	-42.1	19.1	0.00e+00	0	41	0	0	52	4367
2026-01-28 01:48:27.17	305.32	17.76	-40.3	-42.1	19.1	0.00e+00	0	41	0	0	52	4373
2026-01-28 01:48:28.12	305.11	17.74	-40.4	-42.2	19.0	0.00e+00	0	41	0	0	52	4417
2026-01-28 01:48:29.11	304.88	17.72	-40.5	-42.3	19.0	0.00e+00	0	41	0	0	52	4462
2026-01-28 01:48:30.11	304.65	17.71	-40.5	-42.3	19.0	0.00e+00	0	41	0	0	52	4464
2026-01-28 01:48:31.10	304.42	17.69	-40.5	-42.3	18.9	0.00e+00	0	41	0	0	52	4488
2026-01-28 01:48:32.09	304.20	17.67	-40.6	-42.4	18.9	0.00e+00	0	41	0	0	52	4511
2026-01-28 01:48:33.08	303.97	17.65	-40.6	-42.4	18.9	0.00e+00	0	41	0	0	52	4513
2026-01-28 01:48:34.08	303.74	17.63	-40.7	-42.5	18.8	0.00e+00	0	41	0	0	52	4558
2026-01-28 01:48:35.07	303.52	17.61	-40.6	-42.5	18.8	0.00e+00	0	41	0	0	52	4548
2026-01-28 01:48:36.06	303.29	17.59	-40.7	-42.6	18.7	0.00e+00	0	41	0	0	52	4611
2026-01-28 01:48:37.06	303.07	17.57	-40.8	-42.6	18.6	0.00e+00	0	41	0	0	52	4641
2026-01-28 01:48:38.05	302.84	17.55	-40.8	-42.7	18.5	0.00e+00	0	41	0	0	52	4657
2026-01-28 01:48:39.04	302.62	17.52	-40.7	-42.6	18.6	0.00e+00	0	41	0	0	52	4609
2026-01-28 01:48:40.03	302.39	17.50	-40.6	-42.5	18.8	0.00e+00	0	41	0	0	52	4546
2026-01-28 01:48:41.03	302.17	17.48	-40.5	-42.4	18.8	0.00e+00	0	41	0	0	52	4496
2026-01-28 01:48:42.02	301.94	17.46	-40.4	-42.1	19.1	0.00e+00	0	41	0	0	52	4382
2026-01-28 01:48:43.01	301.72	17.43	-40.3	-42.1	19.2	0.00e+00	0	41	0	0	52	4358
2026-01-28 01:48:44.01	301.50	17.41	-40.3	-42.1	19.2	0.00e+00	0	41	0	0	52	4365
2026-01-28 01:48:45.00	301.27	17.38	-40.4	-42.2	19.1	0.00e+00	0	41	0	0	52	4394
2026-01-28 01:48:45.99	301.05	17.36	-40.3	-42.1	19.2	0.00e+00	0	41	0	0	52	4358
2026-01-28 01:48:46.98	300.83	17.33	-40.4	-42.2	19.1	0.00e+00	0	41	0	0	52	4403
2026-01-28 01:48:47.98	300.61	17.31	-40.5	-42.3	18.9	0.00e+00	0	41	0	0	52	4456
2026-01-28 01:48:48.97	300.39	17.28	-40.6	-42.4	18.8	0.00e+00	0	41	0	0	52	4497
2026-01-28 01:48:49.96	300.17	17.25	-40.6	-42.4	18.8	0.00e+00	0	41	0	0	52	4516
2026-01-28 01:48:50.96	299.95	17.23	-40.7	-42.5	18.7	0.00e+00	0	41	0	0	52	4562
2026-01-28 01:48:51.95	299.73	17.20	-40.6	-42.3	18.8	0.00e+00	0	41	0	0	52	4493
2026-01-28 01:48:52.94	299.51	17.17	-40.6	-42.4	18.9	0.00e+00	0	41	0	0	52	4496
2026-01-28 01:48:53.93	299.29	17.14	-40.5	-42.3	18.9	0.00e+00	0	41	0	0	52	4476
2026-01-28 01:48:54.93	299.07	17.11	-40.5	-42.3	18.9	0.00e+00	0	41	0	0	52	4468
2026-01-28 01:48:55.92	298.85	17.09	-40.5	-42.3	19.0	0.00e+00	0	41	0	0	52	4442
2026-01-28 01:48:56.91	298.63	17.06	-40.5	-42.3	19.0	0.00e+00	0	41	0	0	52	4455
2026-01-28 01:48:57.91	298.41	17.03	-40.4	-42.2	19.0	0.00e+00	0	41	0	0	52	4430
2026-01-28 01:48:58.90	298.20	17.00	-40.4	-42.2	18.9	0.00e+00	0	41	0	0	52	4433
2026-01-28 01:48:59.89	297.98	16.97	-40.4	-42.2	19.0	0.00e+00	0	41	0	0	52	4393
2026-01-28 01:49:00.88	297.76	16.93	-40.4	-42.2	19.0	0.00e+00	0	41	0	0	52	4408
2026-01-28 01:49:01.88	297.55	16.90	-40.3	-42.1	19.1	0.00e+00	0	41	0	0	52	4379
2026-01-28 01:49:02.87	297.33	16.87	-40.4	-42.2	19.0	0.00e+00	0	41	0	0	52	4408
2026-01-28 01:49:03.86	297.12	16.84	-40.4	-42.3	18.9	0.00e+00	0	41	0	0	52	4443
2026-01-28 01:49:04.86	296.90	16.81	-40.5	-42.3	18.9	0.00e+00	0	41	0	0	52	4470
2026-01-28 01:49:05.85	296.69	16.77	-40.5	-42.4	18.9	0.00e+00	0	41	0	0	52	4500
2026-01-28 01:49:06.84	296.48	16.74	-40.5	-42.3	18.9	0.00e+00	0	41	0	0	52	4492
2026-01-28 01:49:07.83	296.26	16.71	-40.4	-42.3	18.9	0.00e+00	0	41	0	0	52	4447
2026-01-28 01:49:08.83	296.05	16.67	-40.3	-42.1	19.0	0.00e+00	0	41	0	0	52	4387
2026-01-28 01:49:09.82	295.84	16.64	-40.4	-42.2	19.0	0.00e+00	0	41	0	0	52	4402
2026-01-28 01:49:10.81	295.63	16.60	-40.4	-42.2	19.0	0.00e+00	0	41	0	0	52	4407
2026-01-28 01:49:11.81	295.41	16.57	-40.4	-42.2	19.0	0.00e+00	0	41	0	0	52	4404
2026-01-28 01:49:12.80	295.20	16.53	-40.5	-42.3	18.9	0.00e+00	0	41	0	0	52	4450
2026-01-28 01:49:13.79	294.99	16.50	-40.4	-42.2	19.0	0.00e+00	0	41	0	0	52	4418
2026-01-28 01:49:14.79	294.78	16.46	-40.4	-42.2	19.0	0.00e+00	0	41	0	0	52	4432
2026-01-28 01:49:15.78	294.57	16.43	-40.3	-42.1	19.1	0.00e+00	0	41	0	0	52	4370
2026-01-28 01:49:16.77	294.37	16.39	-40.4	-42.1	19.1	0.00e+00	0	41	0	0	52	4383
2026-01-28 01:49:17.76	294.16	16.35	-40.4	-42.1	19.0	0.00e+00	0	41	0	0	52	4391
2026-01-28 01:49:18.76	293.95	16.32	-40.5	-42.3	18.9	0.00e+00	0	41	0	0	52	4469
2026-01-28 01:49:19.75	293.74	16.28	-40.5	-42.2	18.9	0.00e+00	0	41	0	0	52	4438
2026-01-28 01:49:20.74	293.54	16.24	-40.5	-42.3	18.8	0.00e+00	0	41	0	0	52	4474
2026-01-28 01:49:21.74	293.33	16.20	-40.6	-42.4	18.8	0.00e+00	0	41	0	0	52	4502
2026-01-28 01:49:22.73	293.13	16.16	-40.7	-42.5	18.7	0.00e+00	0	41	0	0	52	4567
2026-01-28 01:49:23.72	292.92	16.12	-40.6	-42.4	18.8	0.00e+00	0	41	0	0	52	4521
2026-01-28 01:49:24.71	292.72	16.09	-40.5	-42.3	18.9	0.00e+00	0	41	0	0	52	4478
2026-01-28 01:49:25.71	292.51	16.05	-40.5	-42.3	18.9	0.00e+00	0	41	0	0	52	4448
2026-01-28 01:49:26.70	292.31	16.01	-40.6	-42.4	18.8	0.00e+00	0	41	0	0	52	4503
2026-01-28 01:49:27.69	292.11	15.97	-40.6	-42.4	18.8	0.00e+00	0	41	0	0	52	4504
2026-01-28 01:49:28.69	291.90	15.93	-40.6	-42.4	18.8	0.00e+00	0	41	0	0	52	4527
2026-01-28 01:49:29.68	291.70	15.88	-40.5	-42.3	18.8	0.00e+00	0	41	0	0	52	4489
2026-01-28 01:49:30.67	291.50	15.84	-40.4	-42.2	19.0	0.00e+00	0	41	0	0	52	4418
2026-01-28 01:49:31.66	291.30	15.80	-40.4	-42.2	19.0	0.00e+00	0	41	0	0	52	4412
2026-01-28 01:49:32.66	291.10	15.76	-40.5	-42.3	18.9	0.00e+00	0	41	0	0	52	4461
2026-01-28 01:49:33.65	290.90	15.72	-40.3	-42.1	19.0	0.00e+00	0	41	0	0	52	4362
2026-01-28 01:49:34.64	290.70	15.68	-40.2	-41.9	19.2	0.00e+00	0	41	0	0	52	4275
2026-01-28 01:49:35.64	290.50	15.63	-40.1	-41.9	19.2	0.00e+00	0	41	0	0	52	4264
2026-01-28 01:49:36.63	290.30	15.59	-40.2	-42.0	19.1	0.00e+00	0	41	0	0	52	4310
2026-01-28 01:49:37.62	290.11	15.55	-40.3	-42.1	19.1	0.00e+00	0	41	0	0	52	4345
2026-01-28 01:49:38.62	289.91	15.51	-40.3	-42.1	19.0	0.00e+00	0	41	0	0	52	4382
2026-01-28 01:49:39.61	289.71	15.46	-40.5	-42.3	18.8	0.00e+00	0	41	0	0	52	4482
2026-01-28 01:49:40.60	289.52	15.42	-40.6	-42.5	18.8	0.00e+00	0	41	0	0	52	4547
2026-01-28 01:49:41.59	289.33	15.38	-40.6	-42.4	18.8	0.00e+00	0	41	0	0	52	4519
2026-01-28 01:49:42.59	289.13	15.33	-40.6	-42.4	18.8	0.00e+00	0	41	0	0	52	4542
2026-01-28 01:49:43.58	288.94	15.29	-40.6	-42.4	18.8	0.00e+00	0	41	0	0	52	4517
2026-01-28 01:49:44.57	288.74	15.24	-40.5	-42.3	18.9	0.00e+00	0	41	0	0	52	4454
2026-01-28 01:49:45.57	288.55	15.20	-40.6	-42.4	18.8	0.00e+00	0	41	0	0	52	4512
2026-01-28 01:49:46.56	288.36	15.15	-40.5	-42.3	18.9	0.00e+00	0	41	0	0	52	4462
2026-01-28 01:49:47.55	288.17	15.11	-40.5	-42.3	18.9	0.00e+00	0	41	0	0	52	4446
2026-01-28 01:49:48.54	287.98	15.06	-40.2	-42.0	19.2	0.00e+00	0	41	0	0	52	4302
2026-01-28 01:49:49.54	287.79	15.01	-40.2	-42.0	19.2	0.00e+00	0	41	0	0	52	4302
2026-01-28 01:49:50.53	287.60	14.97	-40.3	-42.0	19.2	0.00e+00	0	41	0	0	52	4338
2026-01-28 01:49:51.52	287.41	14.92	-40.3	-42.0	19.2	0.00e+00	0	41	0	0	52	4334
2026-01-28 01:49:52.51	287.22	14.88	-40.4	-42.2	19.0	0.00e+00	0	41	0	0	52	4410
2026-01-28 01:49:53.51	287.03	14.83	-40.4	-42.2	19.0	0.00e+00	0	41	0	0	52	4415
2026-01-28 01:49:54.50	286.84	14.78	-40.5	-42.3	18.9	0.00e+00	0	41	0	0	52	4449
2026-01-28 01:49:55.49	286.66	14.73	-40.6	-42.4	18.8	0.00e+00	0	41	0	0	52	4536
2026-01-28 01:49:56.49	286.47	14.69	-40.6	-42.4	18.8	0.00e+00	0	41	0	0	52	4509
2026-01-28 01:49:57.48	286.28	14.64	-40.7	-42.5	18.8	0.00e+00	0	41	0	0	52	4560
2026-01-28 01:49:58.47	286.10	14.59	-40.6	-42.4	18.8	0.00e+00	0	41	0	0	52	4530
2026-01-28 01:49:59.47	285.91	14.54	-40.7	-42.6	18.7	0.00e+00	0	41	0	0	52	4607
2026-01-28 01:50:00.46	285.73	14.50	-40.8	-42.6	18.7	0.00e+00	0	41	0	0	52	4629
2026-01-28 01:50:01.45	285.55	14.45	-40.8	-42.6	18.7	0.00e+00	0	41	0	0	52	4618
2026-01-28 01:50:02.44	285.37	14.40	-40.8	-42.7	18.6	0.00e+00	0	41	0	0	52	4664
2026-01-28 01:50:03.44	285.18	14.35	-40.9	-42.8	18.5	0.00e+00	0	41	0	0	52	4713
2026-01-28 01:50:04.43	285.00	14.30	-40.8	-42.7	18.6	0.00e+00	0	41	0	0	52	4668
2026-01-28 01:50:05.42	284.82	14.25	-40.8	-42.6	18.6	0.00e+00	0	41	0	0	52	4646
2026-01-28 01:50:06.42	284.64	14.20	-40.8	-42.7	18.5	0.00e+00	0	41	0	0	52	4662
2026-01-28 01:50:07.41	284.46	14.15	-40.8	-42.7	18.5	0.00e+00	0	41	0	0	52	4660
2026-01-28 01:50:08.40	284.28	14.10	-40.8	-42.6	18.5	0.00e+00	0	41	0	0	52	4626
2026-01-28 01:50:09.40	284.10	14.05	-40.8	-42.6	18.5	0.00e+00	0	41	0	0	52	4647
2026-01-28 01:50:10.39	283.93	14.00	-40.8	-42.7	18.5	0.00e+00	0	41	0	0	52	4652
2026-01-28 01:50:11.38	283.75	13.95	-40.7	-42.6	18.5	0.00e+00	0	41	0	0	52	4601
2026-01-28 01:50:12.37	283.57	13.90	-40.7	-42.5	18.5	0.00e+00	0	41	0	0	52	4596
2026-01-28 01:50:13.37	283.40	13.85	-40.6	-42.4	18.7	0.00e+00	0	41	0	0	52	4538
2026-01-28 01:50:14.36	283.22	13.80	-40.6	-42.5	18.7	0.00e+00	0	41	0	0	52	4552
2026-01-28 01:50:15.35	283.05	13.75	-40.5	-42.3	18.8	0.00e+00	0	41	0	0	52	4482
2026-01-28 01:50:16.35	282.87	13.70	-40.5	-42.3	18.8	0.00e+00	0	41	0	0	52	4473
2026-01-28 01:50:17.34	282.70	13.65	-40.6	-42.4	18.7	0.00e+00	0	41	0	0	52	4523
2026-01-28 01:50:18.33	282.53	13.60	-40.7	-42.5	18.6	0.00e+00	0	41	0	0	52	4591
2026-01-28 01:50:19.33	282.35	13.54	-40.9	-42.7	18.4	0.00e+00	0	41	0	0	52	4691
2026-01-28 01:50:20.32	282.18	13.49	-40.9	-42.8	18.4	0.00e+00	0	41	0	0	52	4709
2026-01-28 01:50:21.31	282.01	13.44	-41.0	-42.8	18.3	0.00e+00	0	41	0	0	52	4758
2026-01-28 01:50:22.30	281.84	13.39	-41.0	-42.9	18.3	0.00e+00	0	41	0	0	52	4767
2026-01-28 01:50:23.30	281.67	13.34	-41.0	-42.9	18.2	0.00e+00	0	41	0	0	52	4808
2026-01-28 01:50:24.29	281.50	13.28	-41.1	-43.0	18.1	0.00e+00	0	41	0	0	52	4843
2026-01-28 01:50:25.28	281.33	13.23	-41.1	-43.1	18.1	0.00e+00	0	41	0	0	52	4882
2026-01-28 01:50:26.27	281.17	13.18	-41.2	-43.1	18.1	0.00e+00	0	41	0	0	53	4636
2026-01-28 01:50:27.27	281.00	13.13	-41.2	-43.1	18.1	0.00e+00	0	41	0	0	53	4637
2026-01-28 01:50:28.26	280.83	13.07	-41.2	-43.2	18.0	0.00e+00	0	41	0	0	53	4677
2026-01-28 01:50:29.25	280.66	13.02	-41.3	-43.3	18.0	0.00e+00	0	41	0	0	53	4709
2026-01-28 01:50:30.24	280.50	12.97	-41.2	-43.2	18.0	0.00e+00	0	41	0	0	53	4656
2026-01-28 01:50:31.24	280.33	12.91	-41.1	-43.0	18.1	0.00e+00	0	41	0	0	53	4590
2026-01-28 01:50:32.23	280.17	12.86	-41.1	-43.1	18.1	0.00e+00	0	41	0	0	53	4609
2026-01-28 01:50:33.22	280.01	12.81	-41.1	-43.0	18.1	0.00e+00	0	41	0	0	53	4586
2026-01-28 01:50:34.22	279.84	12.75	-41.1	-43.0	18.2	0.00e+00	0	41	0	0	53	4574
2026-01-28 01:50:35.21	279.68	12.70	-41.1	-43.0	18.1	0.00e+00	0	41	0	0	53	4586
2026-01-28 01:50:36.20	279.52	12.65	-41.1	-43.0	18.2	0.00e+00	0	41	0	0	53	4585
2026-01-28 01:50:37.19	279.36	12.59	-41.1	-43.1	18.1	0.00e+00	0	41	0	0	53	4610
2026-01-28 01:50:38.19	279.19	12.54	-41.2	-43.1	18.1	0.00e+00	0	41	0	0	53	4633
2026-01-28 01:50:39.18	279.03	12.49	-41.1	-43.1	18.1	0.00e+00	0	41	0	0	53	4619
2026-01-28 01:50:40.17	278.88	12.43	-41.2	-43.2	18.0	0.00e+00	0	41	0	0	53	4661
2026-01-28 01:50:41.16	278.72	12.38	-41.3	-43.2	17.9	0.00e+00	0	41	0	0	53	4702
2026-01-28 01:50:42.16	278.56	12.32	-41.2	-43.1	17.9	0.00e+00	0	41	0	0	53	4644
2026-01-28 01:50:43.15	278.40	12.27	-41.1	-43.0	17.9	0.00e+00	0	41	0	0	53	4584
2026-01-28 01:50:44.14	278.24	12.21	-40.9	-42.8	18.1	0.00e+00	0	41	0	0	53	4485
2026-01-28 01:50:45.13	278.09	12.16	-40.9	-42.8	18.1	0.00e+00	0	41	0	0	53	4478
2026-01-28 01:50:46.13	277.93	12.11	-40.9	-42.8	18.1	0.00e+00	0	41	0	0	53	4480
2026-01-28 01:50:47.12	277.77	12.05	-40.9	-42.8	18.2	0.00e+00	0	41	0	0	53	4487
2026-01-28 01:50:48.11	277.62	12.00	-40.9	-42.8	18.2	0.00e+00	0	41	0	0	53	4492
2026-01-28 01:50:49.11	277.46	11.94	-40.7	-42.6	18.4	0.00e+00	0	41	0	0	53	4353
2026-01-28 01:50:50.10	277.31	11.89	-40.7	-42.6	18.4	0.00e+00	0	41	0	0	53	4369
2026-01-28 01:50:51.09	277.16	11.83	-40.7	-42.6	18.4	0.00e+00	0	41	0	0	53	4369
2026-01-28 01:50:52.09	277.00	11.78	-40.7	-42.6	18.4	0.00e+00	0	41	0	0	53	4362
2026-01-28 01:50:53.08	276.85	11.72	-40.8	-42.7	18.4	0.00e+00	0	41	0	0	53	4403
2026-01-28 01:50:54.07	276.70	11.67	-40.8	-42.7	18.3	0.00e+00	0	41	0	0	53	4424
2026-01-28 01:50:55.06	276.55	11.61	-40.9	-42.8	18.2	0.00e+00	0	41	0	0	53	4487
2026-01-28 01:50:56.06	276.40	11.55	-41.0	-42.9	18.2	0.00e+00	0	41	0	0	53	4505
2026-01-28 01:50:57.05	276.25	11.50	-41.1	-43.0	18.1	0.00e+00	0	41	0	0	53	4592
2026-01-28 01:50:58.04	276.10	11.44	-41.2	-43.1	18.0	0.00e+00	0	41	0	0	53	4643
2026-01-28 01:50:59.04	275.95	11.39	-41.2	-43.1	18.0	0.00e+00	0	41	0	0	53	4639
2026-01-28 01:51:00.03	275.80	11.33	-41.2	-43.2	18.0	0.00e+00	0	41	0	0	53	4663
2026-01-28 01:51:01.02	275.66	11.28	-41.4	-43.4	17.8	0.00e+00	0	41	0	0	53	4765
2026-01-28 01:51:02.02	275.51	11.22	-41.4	-43.4	17.7	0.00e+00	0	41	0	0	53	4810
2026-01-28 01:51:03.01	275.36	11.16	-41.4	-43.4	17.8	0.00e+00	0	41	0	0	53	4794
2026-01-28 01:51:04.00	275.22	11.11	-41.5	-43.5	17.6	0.00e+00	0	41	0	0	53	4868
2026-01-28 01:51:05.00	275.07	11.05	-41.6	-43.6	17.5	0.00e+00	0	41	0	0	53	4897
2026-01-28 01:51:05.99	274.93	11.00	-41.4	-43.4	17.7	0.00e+00	0	41	0	0	53	4781
2026-01-28 01:51:06.98	274.78	10.94	-41.5	-43.5	17.6	0.00e+00	0	41	0	0	53	4817
2026-01-28 01:51:07.97	274.64	10.88	-41.4	-43.4	17.7	0.00e+00	0	41	0	0	53	4765
2026-01-28 01:51:08.97	274.50	10.83	-41.5	-43.5	17.6	0.00e+00	0	41	0	0	53	4870
2026-01-28 01:51:09.96	274.35	10.77	-41.7	-43.7	17.5	0.00e+00	0	41	0	0	53	4962
2026-01-28 01:51:10.95	274.21	10.72	-41.8	-43.9	17.3	0.00e+00	0	41	0	0	54	4779
2026-01-28 01:51:11.95	274.07	10.66	-41.9	-44.0	17.1	0.00e+00	0	41	0	0	54	4864
2026-01-28 01:51:12.94	273.93	10.60	-42.0	-44.1	17.0	0.00e+00	0	41	0	0	54	4921
2026-01-28 01:51:13.93	273.79	10.55	-42.0	-44.1	17.1	0.00e+00	0	41	0	0	54	4888
2026-01-28 01:51:14.93	273.65	10.49	-41.9	-44.0	17.1	0.00e+00	0	41	0	0	54	4869
2026-01-28 01:51:15.92	273.51	10.43	-41.8	-43.9	17.3	0.00e+00	0	41	0	0	54	4785
2026-01-28 01:51:16.91	273.37	10.38	-41.8	-43.8	17.3	0.00e+00	0	41	0	0	54	4752
2026-01-28 01:51:17.90	273.23	10.32	-41.7	-43.8	17.4	0.00e+00	0	41	0	0	54	4724
2026-01-28 01:51:18.90	273.10	10.26	-41.7	-43.7	17.5	0.00e+00	0	41	0	0	54	4679
2026-01-28 01:51:19.89	272.96	10.21	-41.4	-43.4	17.7	0.00e+00	0	41	0	0	54	4540
2026-01-28 01:51:20.88	272.82	10.15	-41.4	-43.3	17.8	0.00e+00	0	41	0	0	54	4492
2026-01-28 01:51:21.88	272.69	10.09	-41.3	-43.2	17.9	0.00e+00	0	41	0	0	54	4423
2026-01-28 01:51:22.87	272.55	10.04	-41.1	-43.1	18.0	0.00e+00	0	41	0	0	54	4354
2026-01-28 01:51:23.86	272.42	9.98	-41.2	-43.2	17.9	0.00e+00	0	41	0	0	54	4421
2026-01-28 01:51:24.86	272.28	9.92	-41.2	-43.2	17.9	0.00e+00	0	41	0	0	54	4414
2026-01-28 01:51:25.85	272.15	9.87	-41.2	-43.2	17.9	0.00e+00	0	41	0	0	54	4412
2026-01-28 01:51:26.84	272.01	9.81	-41.2	-43.3	17.8	0.00e+00	0	41	0	0	54	4473
2026-01-28 01:51:27.83	271.88	9.76	-41.1	-43.2	17.9	0.00e+00	0	41	0	0	54	4421
2026-01-28 01:51:28.83	271.75	9.70	-41.2	-43.3	17.8	0.00e+00	0	41	0	0	54	4458
2026-01-28 01:51:29.82	271.62	9.64	-41.2	-43.3	17.8	0.00e+00	0	41	0	0	54	4466
2026-01-28 01:51:30.81	271.49	9.58	-41.2	-43.3	17.8	0.00e+00	0	41	0	0	54	4457
2026-01-28 01:51:31.81	271.36	9.53	-41.2	-43.2	17.8	0.00e+00	0	41	0	0	54	4428
2026-01-28 01:51:32.80	271.23	9.47	-41.2	-43.2	17.8	0.00e+00	0	41	0	0	54	4410
2026-01-28 01:51:33.79	271.10	9.41	-41.3	-43.3	17.7	0.00e+00	0	41	0	0	54	4480
2026-01-28 01:51:34.79	270.97	9.36	-41.3	-43.3	17.7	0.00e+00	0	41	0	0	54	4469
2026-01-28 01:51:35.78	270.84	9.30	-41.4	-43.4	17.6	0.00e+00	0	41	0	0	54	4497
2026-01-28 01:51:36.77	270.71	9.24	-41.5	-43.5	17.5	0.00e+00	0	41	0	0	54	4572
2026-01-28 01:51:37.77	270.58	9.19	-41.6	-43.6	17.4	0.00e+00	0	41	0	0	54	4613
2026-01-28 01:51:38.76	270.45	9.13	-41.6	-43.6	17.4	0.00e+00	0	41	0	0	54	4643
2026-01-28 01:51:39.75	270.33	9.07	-41.7	-43.8	17.2	0.00e+00	0	41	0	0	54	4742
2026-01-28 01:51:40.75	270.20	9.02	-41.9	-43.9	17.1	0.00e+00	0	41	0	0	54	4814
2026-01-28 01:51:41.74	270.08	8.96	-47.6	-53.2	8.5	1.52e-03	0	41	0	0	65	7403
2026-01-28 01:51:42.73	269.95	8.90	-49.4	-62.3	3.8	1.49e+00	0	41	104	0	69	16883
2026-01-28 01:51:43.73	269.83	8.85	-49.5	-62.5	3.8	1.49e+00	0	41	104	0	69	17101
2026-01-28 01:51:44.72	269.70	8.79	-49.6	-62.6	3.8	1.49e+00	0	41	104	0	69	17446
2026-01-28 01:51:45.71	269.58	8.73	-49.6	-62.7	3.8	1.49e+00	0	41	104	0	69	17504
2026-01-28 01:51:46.71	269.45	8.67	-49.7	-62.6	3.8	1.49e+00	0	41	104	0	69	17441
2026-01-28 01:51:47.70	269.33	8.62	-49.6	-62.7	3.8	1.49e+00	0	41	104	0	70	16512
2026-01-28 01:51:48.69	269.21	8.56	-49.5	-62.7	3.8	1.49e+00	0	41	104	0	70	16509
2026-01-28 01:51:49.69	269.09	8.50	-49.5	-62.6	3.8	1.49e+00	0	41	104	0	70	16385
2026-01-28 01:51:50.68	268.97	8.45	-49.4	-62.6	3.8	1.49e+00	0	41	104	0	70	16451
2026-01-28 01:51:51.67	268.85	8.39	-49.4	-62.6	3.8	1.49e+00	0	41	104	0	70	16425
2026-01-28 01:51:52.67	268.73	8.33	-49.4	-62.6	3.8	1.49e+00	0	41	104	0	70	16424
2026-01-28 01:51:53.66	268.61	8.28	-49.4	-62.6	3.8	1.49e+00	0	41	104	0	70	16380
2026-01-28 01:51:54.65	268.49	8.22	-49.4	-62.6	3.8	1.49e+00	0	41	104	0	70	16350
2026-01-28 01:51:55.64	268.37	8.16	-49.5	-62.6	3.8	1.49e+00	0	41	104	0	70	16396
2026-01-28 01:51:56.64	268.25	8.11	-49.4	-62.6	3.8	1.49e+00	0	41	104	0	70	16418
2026-01-28 01:51:57.63	268.13	8.05	-49.4	-62.6	3.8	1.49e+00	0	41	104	0	70	16398
2026-01-28 01:51:58.62	268.01	7.99	-49.4	-62.6	3.8	1.49e+00	0	41	104	0	70	16436
2026-01-28 01:51:59.62	267.90	7.94	-49.4	-62.6	3.8	1.49e+00	0	41	104	0	70	16342
2026-01-28 01:52:00.61	267.78	7.88	-49.4	-62.6	3.8	1.49e+00	0	41	104	0	70	16463
2026-01-28 01:52:01.60	267.66	7.82	-49.4	-62.6	3.8	1.49e+00	0	41	104	0	70	16396
2026-01-28 01:52:02.60	267.55	7.77	-49.4	-62.6	3.8	1.49e+00	0	41	104	0	70	16341
2026-01-28 01:52:03.59	267.43	7.71	-49.4	-62.6	3.8	1.49e+00	0	41	104	0	70	16426
2026-01-28 01:52:04.58	267.32	7.65	-49.4	-62.6	3.8	1.49e+00	0	41	104	0	70	16412
2026-01-28 01:52:05.58	267.20	7.60	-49.4	-62.6	3.8	1.49e+00	0	41	104	0	70	16415
2026-01-28 01:52:06.57	267.09	7.54	-49.4	-62.6	3.8	1.49e+00	0	41	104	0	70	16362
2026-01-28 01:52:07.56	266.98	7.48	-49.4	-62.6	3.8	1.49e+00	0	41	104	0	70	16401
2026-01-28 01:52:08.56	266.86	7.43	-49.4	-62.6	3.8	1.49e+00	0	41	104	0	70	16391
2026-01-28 01:52:09.55	266.75	7.37	-49.4	-62.6	3.8	1.49e+00	0	41	104	0	70	16318
2026-01-28 01:52:10.54	266.64	7.31	-49.4	-62.6	3.8	1.49e+00	0	41	104	0	70	16386
2026-01-28 01:52:11.54	266.53	7.26	-49.4	-62.6	3.8	1.49e+00	0	41	104	0	70	16411
2026-01-28 01:52:12.53	266.42	7.20	-49.4	-62.6	3.8	1.49e+00	0	41	104	0	70	16411
2026-01-28 01:52:13.52	266.31	7.14	-49.4	-62.6	3.8	1.49e+00	0	41	104	0	70	16394
2026-01-28 01:52:14.51	266.20	7.09	-49.4	-62.6	3.8	1.49e+00	0	41	104	0	70	16377
2026-01-28 01:52:15.51	266.09	7.03	-49.4	-62.5	3.8	1.49e+00	0	41	104	0	70	16302
2026-01-28 01:52:16.50	265.98	6.97	-49.4	-62.6	3.8	1.49e+00	0	41	104	0	70	16451
2026-01-28 01:52:17.49	265.87	6.92	-49.4	-62.6	3.8	1.49e+00	0	41	104	0	70	16430
2026-01-28 01:52:18.49	265.76	6.86	-49.4	-62.6	3.8	1.49e+00	0	41	104	0	70	16369
2026-01-28 01:52:19.48	265.65	6.80	-49.4	-62.6	3.8	1.49e+00	0	41	104	0	70	16360
2026-01-28 01:52:20.47	265.54	6.75	-49.4	-62.6	3.8	1.49e+00	0	41	104	0	70	16338
2026-01-28 01:52:21.46	265.44	6.69	-49.4	-62.6	3.8	1.49e+00	0	41	104	0	70	16354
2026-01-28 01:52:22.46	265.33	6.64	-49.4	-62.6	3.8	1.49e+00	0	41	104	0	70	16343
2026-01-28 01:52:23.45	265.22	6.58	-49.4	-62.5	3.8	1.49e+00	0	41	104	0	70	16309
2026-01-28 01:52:24.44	265.12	6.52	-49.4	-62.6	3.8	1.49e+00	0	41	104	0	70	16371
2026-01-28 01:52:25.44	265.01	6.47	-49.4	-62.6	3.8	1.49e+00	0	41	104	0	70	16321
2026-01-28 01:52:26.43	264.91	6.41	-49.4	-62.5	3.8	1.49e+00	0	41	104	0	70	16310
2026-01-28 01:52:27.42	264.80	6.36	-49.4	-62.6	3.8	1.49e+00	0	41	104	0	70	16350
2026-01-28 01:52:28.42	264.70	6.30	-49.4	-62.5	3.8	1.49e+00	0	41	104	0	70	16313
2026-01-28 01:52:29.41	264.59	6.24	-49.4	-62.6	3.8	1.49e+00	0	41	104	0	70	16386
2026-01-28 01:52:30.40	264.49	6.19	-49.4	-62.6	3.8	1.49e+00	0	41	104	0	70	16334
2026-01-28 01:52:31.40	264.39	6.13	-49.4	-62.6	3.8	1.49e+00	0	41	104	0	70	16382
2026-01-28 01:52:32.39	264.28	6.07	-49.4	-62.5	3.8	1.49e+00	0	41	104	0	70	16258
2026-01-28 01:52:33.38	264.18	6.02	-49.4	-62.6	3.8	1.49e+00	0	41	104	0	70	16342
2026-01-28 01:52:34.38	264.08	5.96	-49.4	-62.6	3.8	1.49e+00	0	41	104	0	70	16339
2026-01-28 01:52:35.37	263.98	5.91	-49.4	-62.6	3.8	1.49e+00	0	41	104	0	70	16320
2026-01-28 01:52:36.36	263.88	5.85	-49.4	-62.6	3.8	1.49e+00	0	41	104	0	70	16354
2026-01-28 01:52:37.35	263.78	5.80	-49.4	-62.6	3.8	1.49e+00	0	41	104	0	70	16351
2026-01-28 01:52:38.35	263.68	5.74	-49.4	-62.6	3.8	1.49e+00	0	41	104	0	70	16342
2026-01-28 01:52:39.34	263.58	5.68	-49.4	-62.5	3.8	1.49e+00	0	41	104	0	70	16280
2026-01-28 01:52:40.33	263.48	5.63	-49.4	-62.5	3.8	1.49e+00	0	41	104	0	70	16309
2026-01-28 01:52:41.33	263.38	5.57	-49.4	-62.6	3.8	1.49e+00	0	41	104	0	70	16315
2026-01-28 01:52:42.32	263.28	5.52	-49.4	-62.6	3.8	1.49e+00	0	41	104	0	70	16334
2026-01-28 01:52:43.31	263.18	5.46	-49.4	-62.6	3.8	1.49e+00	0	41	104	0	70	16340
2026-01-28 01:52:44.31	263.08	5.41	-49.4	-62.6	3.8	1.49e+00	0	41	104	0	70	16318
2026-01-28 01:52:45.30	262.98	5.35	-49.4	-62.6	3.8	1.49e+00	0	41	104	0	70	16344
2026-01-28 01:52:46.29	262.89	5.30	-49.4	-62.5	3.8	1.49e+00	0	41	104	0	70	16264
2026-01-28 01:52:47.29	262.79	5.24	-49.4	-62.6	3.8	1.49e+00	0	41	104	0	70	16371
2026-01-28 01:52:48.28	262.69	5.18	-49.4	-62.6	3.8	1.49e+00	0	41	104	0	70	16318
2026-01-28 01:52:49.27	262.60	5.13	-49.4	-62.6	3.8	1.49e+00	0	41	104	0	70	16384
2026-01-28 01:52:50.26	262.50	5.07	-49.4	-62.6	3.8	1.49e+00	0	41	104	0	70	16327
2026-01-28 01:52:51.26	262.41	5.02	-49.4	-62.6	3.8	1.49e+00	0	41	104	0	70	16332
2026-01-28 01:52:52.25	262.31	4.96	-49.4	-62.6	3.8	1.49e+00	0	41	104	0	70	16371

#Closed at: 2026-01-28 01:52:53
#Recorded file [0 MB]: D:/Data/31040_260128_044252.dat