passes_logs/2026/01/28/T1/T1__20260128_104312_NOAA_20_JPSS-1_rec.log

#Pass ID: 20260128_104312_NOAA 20 (JPSS-1)
#Satellite: NOAA 20 (JPSS-1)
#Configuration: NOAA 20
#almurnet v.1.7.20251203
#Start time: 2026-01-28 10:43:13

#Version: 2.0.20230620
#Station: T1
#Location: 37.570604 lon 55.790049 lat
#TLE: 1 43013U 17073A   26027.80586608  .00000156  00000+0  94940-4 0  9998
#TLE: 2 43013  98.7647 328.6108 0000947  21.3465 338.7750 14.19541216424550

#Time	Az	El	Level	Level2	SNR	BER	BlckErr	Temp	State	Recorded	gain1	gain2
2026-01-28 10:43:13.73	185.38	5.10	-50.2	-65.4	3.8	1.49e+00	0	41	0	0	71	21355
2026-01-28 10:43:14.72	185.42	5.17	-50.1	-65.4	3.8	1.49e+00	0	41	104	0	71	21420
2026-01-28 10:43:15.71	185.47	5.24	-50.2	-65.4	3.8	1.49e+00	0	41	104	0	71	21413
2026-01-28 10:43:16.70	185.52	5.30	-49.9	-65.4	3.8	1.49e+00	0	41	104	0	71	21322
2026-01-28 10:43:17.69	185.56	5.37	-50.1	-65.4	3.8	1.49e+00	0	41	104	0	71	21335
2026-01-28 10:43:18.69	185.61	5.44	-50.1	-65.3	3.8	1.49e+00	0	41	104	0	71	21240
2026-01-28 10:43:19.68	185.65	5.51	-50.1	-65.3	3.8	1.49e+00	0	41	104	0	71	21254
2026-01-28 10:43:20.67	185.70	5.58	-50.0	-65.3	3.8	1.49e+00	0	41	104	0	71	21218
2026-01-28 10:43:21.66	185.75	5.65	-50.0	-65.3	3.8	1.49e+00	0	41	104	0	71	21236
2026-01-28 10:43:22.66	185.79	5.72	-50.0	-65.3	3.8	1.49e+00	0	41	104	0	71	21064
2026-01-28 10:43:23.65	185.84	5.79	-50.0	-65.2	3.8	1.49e+00	0	42	104	0	71	20900
2026-01-28 10:43:24.64	185.89	5.86	-49.9	-65.2	3.8	1.49e+00	0	42	104	0	71	20934
2026-01-28 10:43:25.64	185.94	5.93	-49.9	-65.1	3.8	1.49e+00	0	42	104	0	71	20769
2026-01-28 10:43:26.63	185.98	6.00	-49.8	-65.2	3.8	1.49e+00	0	42	104	0	71	20795
2026-01-28 10:43:27.62	186.03	6.07	-49.7	-65.1	3.8	1.49e+00	0	42	104	0	71	20686
2026-01-28 10:43:28.62	186.08	6.14	-49.8	-65.1	3.8	1.49e+00	0	42	104	0	71	20617
2026-01-28 10:43:29.61	186.13	6.21	-49.5	-64.9	3.8	1.49e+00	0	42	104	0	70	21442
2026-01-28 10:43:30.60	186.18	6.29	-49.2	-64.7	3.8	1.49e+00	0	42	104	0	70	21005
2026-01-28 10:43:31.60	186.23	6.36	-47.9	-63.6	3.8	1.49e+00	0	42	104	0	68	20646
2026-01-28 10:43:32.59	186.27	6.43	-48.6	-64.5	3.8	1.49e+00	0	42	104	0	67	24361
2026-01-28 10:43:33.58	186.32	6.50	-48.4	-64.7	3.8	1.49e+00	0	42	104	0	68	23470
2026-01-28 10:43:34.57	186.37	6.57	-48.6	-64.8	3.8	1.49e+00	0	42	104	0	68	23608
2026-01-28 10:43:35.57	186.42	6.64	-48.7	-64.5	3.8	1.49e+00	0	42	104	0	68	22823
2026-01-28 10:43:36.56	186.47	6.72	-48.6	-64.0	3.8	1.49e+00	0	42	104	0	68	21664
2026-01-28 10:43:37.55	186.52	6.79	-48.6	-63.5	3.8	1.49e+00	0	42	104	0	68	20359
2026-01-28 10:43:38.55	186.57	6.86	-48.6	-63.0	3.8	1.49e+00	0	42	104	0	68	19242
2026-01-28 10:43:39.54	186.62	6.94	-48.6	-62.5	3.8	1.49e+00	0	42	104	0	68	18243
2026-01-28 10:43:40.53	186.67	7.01	-48.5	-62.4	3.8	1.49e+00	0	42	104	0	68	18007
2026-01-28 10:43:41.52	186.73	7.08	-48.5	-62.3	4.0	1.48e+00	0	42	104	0	68	17693
2026-01-28 10:43:42.52	186.78	7.15	-48.6	-62.4	3.9	1.48e+00	0	42	104	0	68	18035
2026-01-28 10:43:43.51	186.83	7.23	-48.6	-62.7	3.8	1.48e+00	0	42	104	0	68	18594
2026-01-28 10:43:44.50	186.88	7.30	-48.5	-62.3	3.8	1.48e+00	0	42	104	0	68	17888
2026-01-28 10:43:45.50	186.93	7.38	-48.4	-60.9	4.2	1.44e+00	0	42	0	0	68	15222
2026-01-28 10:43:46.49	186.99	7.45	-48.2	-58.8	5.2	7.57e-01	0	42	0	1048576	68	11865
2026-01-28 10:43:47.48	187.04	7.52	-47.7	-56.3	6.9	2.64e-01	0	42	0	3145728	67	9419
2026-01-28 10:43:48.48	187.09	7.60	-47.3	-54.3	8.8	6.74e-02	0	42	0	4194304	66	7946
2026-01-28 10:43:49.47	187.14	7.67	-46.7	-52.5	10.7	1.10e-02	0	42	0	6291456	65	6836
2026-01-28 10:43:50.46	187.20	7.75	-46.0	-50.9	12.3	3.33e-04	0	42	0	8388608	64	6050
2026-01-28 10:43:51.45	187.25	7.82	-45.5	-49.8	13.6	2.59e-05	0	42	0	10485760	63	5642
2026-01-28 10:43:52.45	187.31	7.90	-45.0	-48.9	14.5	4.50e-06	0	42	0	12582912	62	5363
2026-01-28 10:43:53.44	187.36	7.98	-44.6	-48.2	15.1	0.00e+00	0	43	0	13631488	61	5264
2026-01-28 10:43:54.43	187.41	8.05	-44.4	-47.9	15.5	0.00e+00	0	42	0	15728640	60	5376
2026-01-28 10:43:55.43	187.47	8.13	-44.3	-47.7	15.7	0.00e+00	0	42	0	17825792	60	5230
2026-01-28 10:43:56.42	187.52	8.20	-44.3	-47.8	15.6	0.00e+00	0	43	0	19922944	60	5284
2026-01-28 10:43:57.41	187.58	8.28	-44.4	-48.0	15.4	0.00e+00	0	42	0	20971520	60	5408
2026-01-28 10:43:58.41	187.64	8.36	-44.7	-48.5	14.9	0.00e+00	0	43	0	23068672	60	5732
2026-01-28 10:43:59.40	187.69	8.43	-45.1	-49.1	14.3	7.00e-07	0	43	0	25165824	60	6135
2026-01-28 10:44:00.39	187.75	8.51	-45.6	-50.0	13.3	4.50e-06	0	43	0	27262976	61	6474
2026-01-28 10:44:01.39	187.80	8.59	-46.1	-51.0	12.3	9.23e-05	0	43	0	29360128	62	6866
2026-01-28 10:44:02.38	187.86	8.67	-46.6	-52.2	11.1	7.17e-04	0	42	0	30408704	63	7381
2026-01-28 10:44:03.37	187.92	8.74	-46.9	-53.3	9.9	3.91e-03	0	43	0	32505856	64	7903
2026-01-28 10:44:04.37	187.97	8.82	-47.3	-54.5	8.6	1.74e-02	0	42	0	34603008	65	8593
2026-01-28 10:44:05.36	188.03	8.90	-47.6	-55.8	7.3	9.00e-02	0	43	0	36700160	65	9993
2026-01-28 10:44:06.35	188.09	8.98	-47.8	-57.1	6.2	2.27e-01	0	42	0	37748736	66	11002
2026-01-28 10:44:07.35	188.15	9.06	-47.9	-56.9	6.3	3.98e-01	0	43	0	39845888	66	10674
2026-01-28 10:44:08.34	188.21	9.14	-46.6	-52.3	11.0	1.89e-02	0	43	0	41943040	65	6667
2026-01-28 10:44:09.33	188.27	9.21	-47.5	-55.1	8.3	3.93e-03	0	43	0	44040192	65	9268
2026-01-28 10:44:10.32	188.32	9.29	-48.2	-60.5	4.3	1.35e+00	0	43	0	45088768	67	15240
2026-01-28 10:44:11.32	188.38	9.37	-47.4	-54.6	8.4	3.02e-01	0	43	0	46137344	66	8185
2026-01-28 10:44:12.31	188.44	9.45	-46.7	-52.5	10.7	3.61e-03	0	43	0	48234496	64	7228
2026-01-28 10:44:13.30	188.50	9.53	-46.5	-52.1	11.1	1.51e-03	0	43	0	50331648	64	6936
2026-01-28 10:44:14.29	188.56	9.61	-46.2	-51.3	12.0	8.37e-04	0	43	0	52428800	64	6342
2026-01-28 10:44:15.29	188.62	9.69	-45.9	-50.6	12.9	2.13e-04	0	43	0	53477376	63	6153
2026-01-28 10:44:16.28	188.68	9.77	-45.4	-49.5	13.9	8.30e-06	0	43	0	55574528	62	5779
2026-01-28 10:44:17.27	188.75	9.86	-44.9	-48.7	14.8	7.00e-07	0	43	0	57671680	61	5531
2026-01-28 10:44:18.27	188.81	9.94	-44.5	-48.1	15.4	0.00e+00	0	43	0	59768832	61	5167
2026-01-28 10:44:19.26	188.87	10.02	-44.4	-47.8	15.6	0.00e+00	0	43	0	60817408	60	5316
2026-01-28 10:44:20.25	188.93	10.10	-44.3	-47.6	15.9	0.00e+00	0	43	0	62914560	60	5198
2026-01-28 10:44:21.25	188.99	10.18	-44.3	-47.6	15.8	0.00e+00	0	43	0	65011712	60	5207
2026-01-28 10:44:22.24	189.06	10.26	-44.1	-47.5	16.0	0.00e+00	0	43	0	67108864	60	5119
2026-01-28 10:44:23.23	189.12	10.35	-44.1	-47.4	16.1	0.00e+00	0	43	0	69206016	60	5048
2026-01-28 10:44:24.22	189.18	10.43	-44.0	-47.4	16.1	0.00e+00	0	43	0	70254592	60	5048
2026-01-28 10:44:25.22	189.25	10.51	-43.8	-46.9	16.5	0.00e+00	0	43	0	72351744	59	5083
2026-01-28 10:44:26.21	189.31	10.60	-43.7	-46.8	16.6	0.00e+00	0	43	0	74448896	59	4995
2026-01-28 10:44:27.20	189.38	10.68	-43.7	-46.8	16.6	0.00e+00	0	43	0	76546048	59	5005
2026-01-28 10:44:28.20	189.44	10.76	-43.6	-46.6	16.8	0.00e+00	0	43	0	77594624	59	4922
2026-01-28 10:44:29.19	189.51	10.85	-43.6	-46.6	16.8	0.00e+00	0	43	0	79691776	59	4904
2026-01-28 10:44:30.18	189.57	10.93	-43.6	-46.6	16.8	0.00e+00	0	43	0	81788928	59	4903
2026-01-28 10:44:31.17	189.64	11.01	-43.6	-46.6	16.8	0.00e+00	0	43	0	83886080	59	4925
2026-01-28 10:44:32.17	189.71	11.10	-43.5	-46.4	17.1	0.00e+00	0	43	0	85983232	58	5069
2026-01-28 10:44:33.16	189.77	11.18	-43.4	-46.4	17.1	0.00e+00	0	43	0	87031808	58	5043
2026-01-28 10:44:34.15	189.84	11.27	-43.5	-46.4	17.1	0.00e+00	0	43	0	89128960	58	5079
2026-01-28 10:44:35.15	189.91	11.36	-43.4	-46.3	17.1	0.00e+00	0	43	0	91226112	58	5033
2026-01-28 10:44:36.14	189.97	11.44	-43.3	-46.3	17.2	0.00e+00	0	43	0	93323264	58	5000
2026-01-28 10:44:37.13	190.04	11.53	-43.2	-46.1	17.4	0.00e+00	0	43	0	94371840	58	4913
2026-01-28 10:44:38.12	190.11	11.61	-43.2	-46.1	17.4	0.00e+00	0	43	0	96468992	58	4921
2026-01-28 10:44:39.12	190.18	11.70	-43.2	-46.1	17.4	0.00e+00	0	43	0	98566144	58	4884
2026-01-28 10:44:40.11	190.25	11.79	-43.0	-45.9	17.6	0.00e+00	0	43	0	100663296	58	4771
2026-01-28 10:44:41.10	190.32	11.87	-43.0	-45.9	17.6	0.00e+00	0	43	0	102760448	58	4776
2026-01-28 10:44:42.10	190.39	11.96	-43.0	-45.9	17.6	0.00e+00	0	43	0	103809024	58	4785
2026-01-28 10:44:43.09	190.46	12.05	-43.0	-45.9	17.6	0.00e+00	0	43	0	105906176	58	4768
2026-01-28 10:44:44.08	190.53	12.14	-42.9	-45.7	17.7	0.00e+00	0	43	0	108003328	57	4968
2026-01-28 10:44:45.07	190.60	12.22	-43.0	-45.8	17.7	0.00e+00	0	43	0	110100480	57	4987
2026-01-28 10:44:46.07	190.67	12.31	-42.9	-45.7	17.8	0.00e+00	0	43	0	111149056	57	4939
2026-01-28 10:44:47.06	190.75	12.40	-42.8	-45.5	18.0	0.00e+00	0	43	0	113246208	57	4848
2026-01-28 10:44:48.05	190.82	12.49	-42.9	-45.6	17.9	0.00e+00	0	43	0	115343360	57	4877
2026-01-28 10:44:49.05	190.89	12.58	-42.9	-45.5	18.0	0.00e+00	0	43	0	117440512	57	4864
2026-01-28 10:44:50.04	190.97	12.67	-42.9	-45.6	18.0	0.00e+00	0	43	0	119537664	57	4879
2026-01-28 10:44:51.03	191.04	12.76	-42.9	-45.6	17.9	0.00e+00	0	43	0	120586240	57	4887
2026-01-28 10:44:52.03	191.11	12.85	-42.8	-45.6	18.0	0.00e+00	0	43	0	122683392	57	4873
2026-01-28 10:44:53.02	191.19	12.94	-42.8	-45.4	18.1	0.00e+00	0	43	0	124780544	57	4802
2026-01-28 10:44:54.01	191.26	13.03	-42.8	-45.5	18.0	0.00e+00	0	43	0	126877696	57	4832
2026-01-28 10:44:55.00	191.34	13.12	-42.9	-45.5	18.0	0.00e+00	0	43	0	127926272	57	4858
2026-01-28 10:44:56.00	191.42	13.21	-42.9	-45.5	18.0	0.00e+00	0	43	0	130023424	57	4861
2026-01-28 10:44:56.99	191.49	13.31	-42.9	-45.5	18.0	0.00e+00	0	43	0	132120576	57	4862
2026-01-28 10:44:57.98	191.57	13.40	-43.0	-45.7	17.9	0.00e+00	0	43	0	134217728	57	4940
2026-01-28 10:44:58.98	191.65	13.49	-42.9	-45.5	18.0	0.00e+00	0	43	0	135266304	57	4853
2026-01-28 10:44:59.97	191.73	13.58	-42.9	-45.5	18.0	0.00e+00	0	43	0	137363456	57	4851
2026-01-28 10:45:00.96	191.80	13.68	-42.9	-45.5	18.0	0.00e+00	0	43	0	139460608	57	4844
2026-01-28 10:45:01.96	191.88	13.77	-42.8	-45.4	18.0	0.00e+00	0	43	0	141557760	57	4798
2026-01-28 10:45:02.95	191.96	13.86	-42.8	-45.4	18.1	0.00e+00	0	43	0	143654912	57	4762
2026-01-28 10:45:03.94	192.04	13.96	-42.7	-45.4	18.1	0.00e+00	0	43	0	144703488	57	4762
2026-01-28 10:45:04.94	192.12	14.05	-42.7	-45.3	18.1	0.00e+00	0	43	0	146800640	57	4727
2026-01-28 10:45:05.93	192.20	14.14	-42.7	-45.4	18.1	0.00e+00	0	43	0	148897792	57	4769
2026-01-28 10:45:06.92	192.28	14.24	-42.7	-45.4	18.1	0.00e+00	0	43	0	150994944	57	4768
2026-01-28 10:45:07.92	192.37	14.34	-42.7	-45.3	18.1	0.00e+00	0	43	0	152043520	57	4736
2026-01-28 10:45:08.91	192.45	14.43	-42.6	-45.3	18.2	0.00e+00	0	43	0	154140672	57	4717
2026-01-28 10:45:09.90	192.53	14.53	-42.6	-45.3	18.2	0.00e+00	0	43	0	156237824	57	4709
2026-01-28 10:45:10.89	192.61	14.62	-42.6	-45.2	18.3	0.00e+00	0	43	0	158334976	57	4664
2026-01-28 10:45:11.89	192.70	14.72	-42.6	-45.2	18.3	0.00e+00	0	43	0	160432128	57	4686
2026-01-28 10:45:12.88	192.78	14.82	-42.7	-45.2	18.2	0.00e+00	0	43	0	161480704	57	4696
2026-01-28 10:45:13.87	192.87	14.91	-42.6	-45.1	18.4	0.00e+00	0	43	0	163577856	57	4645
2026-01-28 10:45:14.86	192.95	15.01	-42.7	-45.3	18.2	0.00e+00	0	43	0	165675008	57	4730
2026-01-28 10:45:15.86	193.04	15.11	-42.7	-45.3	18.3	0.00e+00	0	43	0	167772160	57	4706
2026-01-28 10:45:16.85	193.13	15.21	-42.7	-45.3	18.2	0.00e+00	0	43	0	168820736	57	4739
2026-01-28 10:45:17.84	193.21	15.30	-42.7	-45.3	18.2	0.00e+00	0	43	0	170917888	57	4727
2026-01-28 10:45:18.83	193.30	15.40	-42.6	-45.2	18.3	0.00e+00	0	43	0	173015040	57	4676
2026-01-28 10:45:19.83	193.39	15.50	-42.5	-45.1	18.3	0.00e+00	0	44	0	175112192	57	4613
2026-01-28 10:45:20.82	193.48	15.60	-42.5	-45.0	18.3	0.00e+00	0	43	0	177209344	57	4573
2026-01-28 10:45:21.81	193.57	15.70	-42.5	-45.0	18.3	0.00e+00	0	43	0	178257920	56	4855
2026-01-28 10:45:22.81	193.66	15.80	-42.5	-45.0	18.2	0.00e+00	0	43	0	180355072	56	4867
2026-01-28 10:45:23.80	193.75	15.90	-42.4	-44.9	18.2	0.00e+00	0	43	0	182452224	56	4803
2026-01-28 10:45:24.79	193.84	16.00	-42.4	-44.9	18.1	0.00e+00	0	43	0	184549376	56	4806
2026-01-28 10:45:25.79	193.93	16.10	-42.4	-45.0	17.8	0.00e+00	0	43	0	185597952	56	4833
2026-01-28 10:45:26.78	194.02	16.20	-42.2	-44.8	17.7	0.00e+00	0	43	0	187695104	56	4748
2026-01-28 10:45:27.77	194.12	16.31	-42.2	-44.8	17.7	0.00e+00	0	43	0	189792256	56	4720
2026-01-28 10:45:28.77	194.21	16.41	-42.2	-44.9	17.7	0.00e+00	0	43	0	191889408	56	4762
2026-01-28 10:45:29.76	194.30	16.51	-42.0	-44.6	17.7	0.00e+00	0	43	0	193986560	56	4645
2026-01-28 10:45:30.75	194.40	16.61	-41.8	-44.5	17.5	0.00e+00	0	43	0	195035136	55	4821
2026-01-28 10:45:31.75	194.49	16.72	-41.9	-44.6	17.4	0.00e+00	0	43	0	197132288	55	4885
2026-01-28 10:45:32.74	194.59	16.82	-41.9	-44.6	17.7	0.00e+00	0	43	0	199229440	55	4892
2026-01-28 10:45:33.73	194.69	16.93	-42.0	-44.6	17.8	0.00e+00	0	43	0	201326592	55	4915
2026-01-28 10:45:34.72	194.78	17.03	-42.1	-44.8	17.9	0.00e+00	0	43	0	202375168	55	4986
2026-01-28 10:45:35.71	194.88	17.13	-42.3	-44.9	18.1	0.00e+00	0	43	0	204472320	55	5056
2026-01-28 10:45:36.71	194.98	17.24	-42.3	-44.9	18.3	0.00e+00	0	43	0	206569472	55	5071
2026-01-28 10:45:37.70	195.08	17.35	-42.4	-45.0	18.1	0.00e+00	0	43	0	208666624	55	5154
2026-01-28 10:45:38.69	195.18	17.45	-42.4	-45.0	18.1	0.00e+00	0	43	0	210763776	55	5121
2026-01-28 10:45:39.69	195.28	17.56	-42.3	-44.9	18.1	0.00e+00	0	43	0	211812352	55	5082
2026-01-28 10:45:40.68	195.38	17.66	-42.3	-44.8	18.3	0.00e+00	0	43	0	213909504	55	5012
2026-01-28 10:45:41.67	195.48	17.77	-42.3	-44.8	18.3	0.00e+00	0	43	0	216006656	55	5029
2026-01-28 10:45:42.67	195.59	17.88	-42.4	-44.9	18.4	0.00e+00	0	44	0	218103808	55	5057
2026-01-28 10:45:43.66	195.69	17.99	-42.4	-45.0	18.3	0.00e+00	0	43	0	219152384	55	5107
2026-01-28 10:45:44.65	195.79	18.09	-42.5	-45.0	18.3	0.00e+00	0	43	0	221249536	55	5142
2026-01-28 10:45:45.65	195.90	18.20	-42.6	-45.1	18.3	0.00e+00	0	43	0	223346688	55	5204
2026-01-28 10:45:46.64	196.00	18.31	-42.6	-45.2	18.2	0.00e+00	0	43	0	225443840	55	5246
2026-01-28 10:45:47.63	196.11	18.42	-42.9	-45.5	18.1	0.00e+00	0	43	0	227540992	56	5148
2026-01-28 10:45:48.63	196.22	18.53	-42.9	-45.5	18.1	0.00e+00	0	43	0	228589568	56	5121
2026-01-28 10:45:49.62	196.32	18.64	-42.9	-45.4	18.2	0.00e+00	0	43	0	230686720	56	5067
2026-01-28 10:45:50.61	196.43	18.75	-43.0	-45.5	18.1	0.00e+00	0	43	0	232783872	56	5139
2026-01-28 10:45:51.60	196.54	18.86	-43.0	-45.5	18.1	0.00e+00	0	43	0	234881024	56	5140
2026-01-28 10:45:52.60	196.65	18.98	-43.1	-45.6	18.0	0.00e+00	0	43	0	235929600	56	5188
2026-01-28 10:45:53.59	196.76	19.09	-43.1	-45.6	18.0	0.00e+00	0	43	0	238026752	56	5204
2026-01-28 10:45:54.58	196.87	19.20	-43.0	-45.5	18.1	0.00e+00	0	43	0	240123904	56	5137
2026-01-28 10:45:55.58	196.99	19.31	-43.1	-45.6	18.0	0.00e+00	0	44	0	242221056	56	5218
2026-01-28 10:45:56.57	197.10	19.42	-43.1	-45.6	18.0	0.00e+00	0	43	0	243269632	56	5187
2026-01-28 10:45:57.56	197.21	19.54	-43.0	-45.5	18.0	0.00e+00	0	43	0	245366784	56	5156
2026-01-28 10:45:58.55	197.33	19.65	-43.1	-45.7	17.9	0.00e+00	0	44	0	247463936	56	5247
2026-01-28 10:45:59.55	197.45	19.77	-43.0	-45.6	18.0	0.00e+00	0	43	0	249561088	56	5170
2026-01-28 10:46:00.54	197.56	19.88	-43.0	-45.5	18.1	0.00e+00	0	43	0	251658240	56	5145
2026-01-28 10:46:01.53	197.68	20.00	-43.0	-45.6	18.1	0.00e+00	0	43	0	252706816	56	5160
2026-01-28 10:46:02.53	197.80	20.11	-42.9	-45.4	18.2	0.00e+00	0	43	0	254803968	56	5091
2026-01-28 10:46:03.52	197.92	20.23	-43.0	-45.5	18.2	0.00e+00	0	43	0	256901120	56	5135
2026-01-28 10:46:04.51	198.04	20.34	-43.1	-45.6	18.1	0.00e+00	0	43	0	258998272	56	5207
2026-01-28 10:46:05.51	198.16	20.46	-43.1	-45.7	18.0	0.00e+00	0	43	0	260046848	56	5246
2026-01-28 10:46:06.50	198.28	20.58	-43.1	-45.6	18.1	0.00e+00	0	43	0	262144000	56	5191
2026-01-28 10:46:07.49	198.40	20.69	-43.1	-45.7	18.1	0.00e+00	0	44	0	264241152	56	5222
2026-01-28 10:46:08.48	198.52	20.81	-43.2	-45.7	18.0	0.00e+00	0	43	0	266338304	57	4982
2026-01-28 10:46:09.48	198.65	20.93	-43.2	-45.7	18.0	0.00e+00	0	43	0	268435456	57	4970
2026-01-28 10:46:10.47	198.78	21.05	-43.1	-45.7	18.1	0.00e+00	0	43	0	269484032	57	4934
2026-01-28 10:46:11.46	198.90	21.17	-43.1	-45.7	18.0	0.00e+00	0	43	0	271581184	57	4928
2026-01-28 10:46:12.45	199.03	21.29	-43.1	-45.6	18.1	0.00e+00	0	43	0	273678336	57	4906
2026-01-28 10:46:13.45	199.16	21.41	-43.0	-45.5	18.2	0.00e+00	0	44	0	275775488	57	4840
2026-01-28 10:46:14.44	199.29	21.53	-43.0	-45.6	18.2	0.00e+00	0	43	0	276824064	57	4871
2026-01-28 10:46:15.43	199.42	21.65	-43.0	-45.5	18.2	0.00e+00	0	43	0	278921216	57	4859
2026-01-28 10:46:16.43	199.55	21.77	-43.0	-45.5	18.2	0.00e+00	0	44	0	281018368	57	4824
2026-01-28 10:46:17.42	199.68	21.89	-43.0	-45.5	18.3	0.00e+00	0	43	0	283115520	57	4817
2026-01-28 10:46:18.41	199.81	22.02	-42.9	-45.4	18.3	0.00e+00	0	43	0	285212672	57	4782
2026-01-28 10:46:19.40	199.95	22.14	-42.8	-45.2	18.5	0.00e+00	0	43	0	286261248	57	4692
2026-01-28 10:46:20.40	200.08	22.26	-42.8	-45.3	18.5	0.00e+00	0	43	0	288358400	57	4714
2026-01-28 10:46:21.39	200.22	22.39	-42.9	-45.3	18.4	0.00e+00	0	43	0	290455552	57	4752
2026-01-28 10:46:22.38	200.36	22.51	-42.9	-45.3	18.4	0.00e+00	0	43	0	292552704	57	4728
2026-01-28 10:46:23.38	200.50	22.63	-42.9	-45.3	18.4	0.00e+00	0	43	0	293601280	57	4732
2026-01-28 10:46:24.37	200.63	22.76	-42.9	-45.3	18.4	0.00e+00	0	43	0	295698432	57	4737
2026-01-28 10:46:25.36	200.77	22.88	-42.9	-45.3	18.4	0.00e+00	0	43	0	297795584	57	4725
2026-01-28 10:46:26.36	200.92	23.01	-43.0	-45.4	18.3	0.00e+00	0	43	0	299892736	57	4811
2026-01-28 10:46:27.35	201.06	23.14	-43.1	-45.5	18.2	0.00e+00	0	43	0	301989888	57	4860
2026-01-28 10:46:28.34	201.20	23.26	-43.1	-45.5	18.2	0.00e+00	0	43	0	303038464	57	4846
2026-01-28 10:46:29.34	201.35	23.39	-43.0	-45.5	18.2	0.00e+00	0	43	0	305135616	57	4822
2026-01-28 10:46:30.33	201.50	23.52	-43.1	-45.5	18.2	0.00e+00	0	43	0	307232768	57	4870
2026-01-28 10:46:31.32	201.64	23.65	-43.2	-45.7	18.0	0.00e+00	0	43	0	309329920	57	4959
2026-01-28 10:46:32.31	201.79	23.77	-43.1	-45.6	18.1	0.00e+00	0	44	0	310378496	57	4880
2026-01-28 10:46:33.31	201.94	23.90	-43.1	-45.6	18.1	0.00e+00	0	43	0	312475648	57	4910
2026-01-28 10:46:34.30	202.09	24.03	-43.2	-45.7	18.0	0.00e+00	0	43	0	314572800	57	4982
2026-01-28 10:46:35.29	202.24	24.16	-43.2	-45.7	18.1	0.00e+00	0	43	0	316669952	57	4938
2026-01-28 10:46:36.28	202.40	24.29	-43.1	-45.6	18.2	0.00e+00	0	43	0	318767104	57	4893
2026-01-28 10:46:37.28	202.55	24.42	-43.1	-45.6	18.2	0.00e+00	0	43	0	319815680	57	4879
2026-01-28 10:46:38.27	202.71	24.55	-43.2	-45.7	18.0	0.00e+00	0	43	0	321912832	57	4958
2026-01-28 10:46:39.26	202.87	24.69	-42.9	-45.3	18.4	0.00e+00	0	43	0	324009984	57	4742
2026-01-28 10:46:40.26	203.02	24.82	-42.9	-45.3	18.4	0.00e+00	0	44	0	326107136	57	4737
2026-01-28 10:46:41.25	203.18	24.95	-42.9	-45.3	18.4	0.00e+00	0	43	0	327155712	57	4750
2026-01-28 10:46:42.24	203.34	25.08	-42.8	-45.2	18.5	0.00e+00	0	43	0	329252864	57	4703
2026-01-28 10:46:43.24	203.51	25.22	-42.9	-45.4	18.4	0.00e+00	0	43	0	331350016	57	4771
2026-01-28 10:46:44.23	203.67	25.35	-43.0	-45.5	18.3	0.00e+00	0	43	0	333447168	57	4825
2026-01-28 10:46:45.22	203.84	25.48	-43.1	-45.6	18.2	0.00e+00	0	43	0	334495744	57	4887
2026-01-28 10:46:46.21	204.00	25.62	-43.1	-45.6	18.2	0.00e+00	0	43	0	336592896	57	4890
2026-01-28 10:46:47.21	204.17	25.75	-43.2	-45.8	18.0	0.00e+00	0	44	0	338690048	57	4991
2026-01-28 10:46:48.20	204.34	25.89	-43.4	-45.9	17.9	0.00e+00	0	43	0	340787200	57	5070
2026-01-28 10:46:49.19	204.51	26.02	-43.3	-45.8	18.0	0.00e+00	0	44	0	342884352	57	5013
2026-01-28 10:46:50.18	204.68	26.16	-43.3	-45.8	18.0	0.00e+00	0	43	0	343932928	57	5039
2026-01-28 10:46:51.18	204.86	26.30	-43.2	-45.6	18.1	0.00e+00	0	43	0	346030080	57	4924
2026-01-28 10:46:52.17	205.03	26.43	-43.2	-45.7	18.1	0.00e+00	0	44	0	348127232	57	4965
2026-01-28 10:46:53.16	205.21	26.57	-43.2	-45.7	18.1	0.00e+00	0	44	0	350224384	57	4947
2026-01-28 10:46:54.16	205.39	26.71	-43.3	-45.8	18.0	0.00e+00	0	44	0	351272960	57	5014
2026-01-28 10:46:55.15	205.57	26.85	-43.3	-45.9	17.9	0.00e+00	0	43	0	353370112	57	5050
2026-01-28 10:46:56.14	205.75	26.99	-43.5	-46.0	17.7	0.00e+00	0	44	0	355467264	57	5153
2026-01-28 10:46:57.13	205.93	27.13	-43.6	-46.2	17.6	0.00e+00	0	43	0	357564416	57	5251
2026-01-28 10:46:58.13	206.11	27.27	-43.7	-46.3	17.5	0.00e+00	0	44	0	359661568	58	5029
2026-01-28 10:46:59.12	206.30	27.41	-43.8	-46.5	17.4	0.00e+00	0	44	0	360710144	58	5107
2026-01-28 10:47:00.11	206.49	27.55	-43.9	-46.6	17.3	0.00e+00	0	43	0	362807296	58	5183
2026-01-28 10:47:01.11	206.68	27.69	-44.1	-46.8	17.0	0.00e+00	0	43	0	364904448	58	5320
2026-01-28 10:47:02.10	206.87	27.83	-44.2	-47.1	16.8	0.00e+00	0	44	0	367001600	59	5163
2026-01-28 10:47:03.09	207.06	27.97	-44.3	-47.1	16.7	0.00e+00	0	43	0	368050176	59	5215
2026-01-28 10:47:04.08	207.25	28.11	-44.2	-47.0	16.9	0.00e+00	0	44	0	370147328	59	5104
2026-01-28 10:47:05.08	207.45	28.25	-44.2	-47.0	16.9	0.00e+00	0	43	0	372244480	59	5102
2026-01-28 10:47:06.07	207.65	28.40	-44.3	-47.2	16.7	0.00e+00	0	43	0	374341632	59	5219
2026-01-28 10:47:07.06	207.84	28.54	-44.2	-47.0	16.8	0.00e+00	0	43	0	376438784	59	5154
2026-01-28 10:47:08.06	208.05	28.68	-44.1	-46.9	16.9	0.00e+00	0	43	0	377487360	59	5077
2026-01-28 10:47:09.05	208.25	28.83	-44.3	-47.2	16.7	0.00e+00	0	43	0	379584512	59	5219
2026-01-28 10:47:10.04	208.45	28.97	-44.5	-47.4	16.5	0.00e+00	0	43	0	381681664	59	5349
2026-01-28 10:47:11.04	208.66	29.12	-44.5	-47.3	16.5	0.00e+00	0	44	0	383778816	59	5338
2026-01-28 10:47:12.03	208.87	29.26	-44.5	-47.4	16.4	0.00e+00	0	44	0	384827392	59	5395
2026-01-28 10:47:13.02	209.08	29.41	-44.7	-47.6	16.2	0.00e+00	0	43	0	386924544	59	5526
2026-01-28 10:47:14.02	209.29	29.55	-44.7	-47.8	16.1	0.00e+00	0	43	0	389021696	60	5313
2026-01-28 10:47:15.01	209.50	29.70	-44.9	-48.0	16.0	0.00e+00	0	43	0	391118848	60	5444
2026-01-28 10:47:16.00	209.72	29.84	-45.1	-48.4	15.5	0.00e+00	0	43	0	393216000	60	5705
2026-01-28 10:47:16.99	209.93	29.99	-45.1	-48.2	15.7	0.00e+00	0	43	0	394264576	60	5578
2026-01-28 10:47:17.99	210.16	30.14	-45.1	-48.2	15.7	0.00e+00	0	44	0	396361728	60	5577
2026-01-28 10:47:18.98	210.38	30.28	-45.0	-48.2	15.8	0.00e+00	0	44	0	398458880	60	5540
2026-01-28 10:47:19.97	210.60	30.43	-44.8	-47.9	16.0	0.00e+00	0	44	0	400556032	60	5353
2026-01-28 10:47:20.96	210.82	30.58	-44.6	-47.6	16.3	0.00e+00	0	44	0	401604608	60	5204
2026-01-28 10:47:21.96	211.05	30.73	-44.5	-47.4	16.6	0.00e+00	0	43	0	403701760	60	5062
2026-01-28 10:47:22.95	211.28	30.88	-44.2	-47.0	16.8	0.00e+00	0	43	0	405798912	60	4860
2026-01-28 10:47:23.94	211.51	31.02	-44.2	-47.0	16.9	0.00e+00	0	43	0	407896064	60	4842
2026-01-28 10:47:24.93	211.74	31.17	-44.1	-46.9	17.1	0.00e+00	0	44	0	409993216	60	4763
2026-01-28 10:47:25.93	211.98	31.32	-44.2	-47.1	16.9	0.00e+00	0	44	0	411041792	60	4899
2026-01-28 10:47:26.92	212.22	31.47	-44.3	-47.2	16.7	0.00e+00	0	44	0	413138944	60	4978
2026-01-28 10:47:27.91	212.46	31.62	-44.3	-47.2	16.7	0.00e+00	0	44	0	415236096	60	4947
2026-01-28 10:47:28.91	212.70	31.77	-44.3	-47.2	16.8	0.00e+00	0	44	0	417333248	60	4929
2026-01-28 10:47:29.90	212.95	31.92	-44.1	-46.8	17.1	0.00e+00	0	44	0	418381824	60	4755
2026-01-28 10:47:30.89	213.19	32.07	-44.1	-46.8	17.1	0.00e+00	0	44	0	420478976	59	5016
2026-01-28 10:47:31.89	213.44	32.22	-44.0	-46.7	17.2	0.00e+00	0	44	0	422576128	59	4977
2026-01-28 10:47:32.88	213.69	32.37	-44.1	-46.8	17.1	0.00e+00	0	44	0	424673280	59	4994
2026-01-28 10:47:33.87	213.95	32.52	-44.0	-46.7	17.1	0.00e+00	0	44	0	425721856	59	4983
2026-01-28 10:47:34.86	214.20	32.67	-43.9	-46.6	17.3	0.00e+00	0	44	0	427819008	59	4886
2026-01-28 10:47:35.86	214.46	32.82	-43.9	-46.6	17.3	0.00e+00	0	43	0	429916160	59	4878
2026-01-28 10:47:36.85	214.72	32.97	-43.9	-46.6	17.3	0.00e+00	0	44	0	432013312	59	4885
2026-01-28 10:47:37.84	214.98	33.13	-43.9	-46.6	17.3	0.00e+00	0	44	0	434110464	59	4886
2026-01-28 10:47:38.83	215.25	33.28	-44.1	-46.9	17.1	0.00e+00	0	44	0	435159040	59	5048
2026-01-28 10:47:39.83	215.52	33.43	-44.1	-46.9	17.0	0.00e+00	0	44	0	437256192	59	5044
2026-01-28 10:47:40.82	215.78	33.58	-44.2	-46.9	16.9	0.00e+00	0	44	0	439353344	59	5095
2026-01-28 10:47:41.81	216.06	33.73	-44.0	-46.7	17.2	0.00e+00	0	44	0	441450496	59	4948
2026-01-28 10:47:42.81	216.33	33.88	-43.9	-46.5	17.3	0.00e+00	0	43	0	442499072	59	4869
2026-01-28 10:47:43.80	216.61	34.03	-44.0	-46.7	17.2	0.00e+00	0	44	0	444596224	59	4961
2026-01-28 10:47:44.79	216.89	34.18	-44.0	-46.8	17.1	0.00e+00	0	44	0	446693376	59	4991
2026-01-28 10:47:45.79	217.17	34.34	-44.0	-46.7	17.2	0.00e+00	0	44	0	448790528	59	4945
2026-01-28 10:47:46.78	217.46	34.49	-44.1	-46.8	17.1	0.00e+00	0	43	0	450887680	59	5029
2026-01-28 10:47:47.77	217.75	34.64	-44.1	-46.8	17.1	0.00e+00	0	44	0	451936256	59	5034
2026-01-28 10:47:48.77	218.04	34.79	-44.1	-46.9	17.0	0.00e+00	0	43	0	454033408	59	5087
2026-01-28 10:47:49.76	218.33	34.94	-44.2	-47.1	16.9	0.00e+00	0	44	0	456130560	59	5172
2026-01-28 10:47:50.75	218.63	35.09	-44.3	-47.1	16.8	0.00e+00	0	44	0	458227712	59	5190
2026-01-28 10:47:51.74	218.92	35.24	-44.1	-46.9	17.0	0.00e+00	0	44	0	459276288	59	5043
2026-01-28 10:47:52.74	219.23	35.39	-44.1	-46.8	17.1	0.00e+00	0	44	0	461373440	59	4987
2026-01-28 10:47:53.73	219.53	35.54	-43.7	-46.3	17.5	0.00e+00	0	44	0	463470592	59	4757
2026-01-28 10:47:54.72	219.84	35.69	-43.5	-46.0	17.8	0.00e+00	0	44	0	465567744	59	4571
2026-01-28 10:47:55.71	220.14	35.84	-43.1	-45.5	18.4	0.00e+00	0	43	0	467664896	58	4582
2026-01-28 10:47:56.71	220.46	36.00	-43.0	-45.5	18.4	0.00e+00	0	44	0	468713472	58	4578
2026-01-28 10:47:57.70	220.77	36.14	-42.8	-45.3	18.6	0.00e+00	0	44	0	470810624	57	4710
2026-01-28 10:47:58.69	221.09	36.29	-42.9	-45.4	18.5	0.00e+00	0	43	0	472907776	57	4783
2026-01-28 10:47:59.69	221.41	36.44	-43.0	-45.5	18.4	0.00e+00	0	43	0	475004928	57	4815
2026-01-28 10:48:00.65	221.73	36.59	-43.1	-45.6	18.3	0.00e+00	0	43	0	476053504	57	4871
2026-01-28 10:48:01.65	222.06	36.74	-43.3	-45.8	18.1	0.00e+00	0	44	0	478150656	57	5007
2026-01-28 10:48:02.64	222.38	36.89	-43.4	-45.9	18.0	0.00e+00	0	43	0	480247808	57	5068
2026-01-28 10:48:03.63	222.72	37.03	-43.4	-45.9	18.0	0.00e+00	0	43	0	482344960	57	5069
2026-01-28 10:48:04.63	223.05	37.18	-43.4	-45.9	18.0	0.00e+00	0	44	0	483393536	57	5085
2026-01-28 10:48:05.62	223.39	37.33	-43.2	-45.7	18.2	0.00e+00	0	43	0	485490688	57	4953
2026-01-28 10:48:06.61	223.73	37.47	-43.1	-45.5	18.3	0.00e+00	0	44	0	487587840	57	4866
2026-01-28 10:48:07.60	224.08	37.62	-42.9	-45.3	18.6	0.00e+00	0	43	0	489684992	57	4732
2026-01-28 10:48:08.60	224.43	37.77	-42.9	-45.4	18.5	0.00e+00	0	44	0	491782144	57	4768
2026-01-28 10:48:09.59	224.78	37.91	-43.3	-45.8	18.1	0.00e+00	0	44	0	492830720	57	4985
2026-01-28 10:48:10.58	225.13	38.05	-43.6	-46.1	17.8	0.00e+00	0	44	0	494927872	57	5210
2026-01-28 10:48:11.58	225.49	38.20	-44.0	-46.6	17.3	0.00e+00	0	44	0	497025024	58	5202
2026-01-28 10:48:12.57	225.85	38.34	-44.3	-47.1	16.9	0.00e+00	0	43	0	499122176	59	5160
2026-01-28 10:48:13.56	226.21	38.48	-44.4	-47.3	16.7	0.00e+00	0	44	0	500170752	59	5281
2026-01-28 10:48:14.56	226.58	38.63	-44.4	-47.2	16.8	0.00e+00	0	43	0	502267904	59	5227
2026-01-28 10:48:15.55	226.95	38.77	-44.3	-47.1	16.8	0.00e+00	0	44	0	504365056	59	5168
2026-01-28 10:48:16.54	227.32	38.91	-44.2	-47.0	16.9	0.00e+00	0	43	0	506462208	59	5112
2026-01-28 10:48:17.54	227.70	39.05	-44.3	-47.1	16.8	0.00e+00	0	44	0	508559360	59	5199
2026-01-28 10:48:18.53	228.07	39.19	-44.4	-47.2	16.7	0.00e+00	0	44	0	509607936	59	5269
2026-01-28 10:48:19.52	228.45	39.32	-44.7	-47.6	16.4	0.00e+00	0	44	0	511705088	60	5191
2026-01-28 10:48:20.52	228.84	39.46	-44.9	-47.8	16.1	0.00e+00	0	44	0	513802240	60	5339
2026-01-28 10:48:21.51	229.23	39.60	-45.1	-48.2	15.8	0.00e+00	0	44	0	515899392	60	5543
2026-01-28 10:48:22.50	229.62	39.73	-44.9	-47.9	16.1	0.00e+00	0	44	0	516947968	60	5343
2026-01-28 10:48:23.49	230.01	39.87	-44.7	-47.6	16.3	0.00e+00	0	43	0	519045120	60	5193
2026-01-28 10:48:24.49	230.42	40.00	-44.3	-47.1	16.9	0.00e+00	0	43	0	521142272	60	4914
2026-01-28 10:48:25.48	230.82	40.13	-44.1	-46.8	17.2	0.00e+00	0	44	0	523239424	60	4727
2026-01-28 10:48:26.47	231.22	40.26	-44.0	-46.6	17.3	0.00e+00	0	44	0	525336576	59	4910
2026-01-28 10:48:27.47	231.63	40.39	-43.9	-46.5	17.4	0.00e+00	0	44	0	526385152	59	4839
2026-01-28 10:48:28.46	232.04	40.52	-44.1	-46.8	17.1	0.00e+00	0	44	0	528482304	59	5005
2026-01-28 10:48:29.45	232.45	40.65	-44.2	-47.1	16.8	0.00e+00	0	44	0	530579456	59	5165
2026-01-28 10:48:30.44	232.87	40.78	-44.3	-47.2	16.8	0.00e+00	0	44	0	532676608	59	5238
2026-01-28 10:48:31.44	233.29	40.90	-44.5	-47.3	16.6	0.00e+00	0	44	0	533725184	59	5338
2026-01-28 10:48:32.43	233.72	41.03	-44.4	-47.2	16.7	0.00e+00	0	44	0	535822336	59	5271
2026-01-28 10:48:33.42	234.14	41.15	-44.3	-47.0	16.9	0.00e+00	0	44	0	537919488	59	5152
2026-01-28 10:48:34.42	234.58	41.27	-44.0	-46.7	17.2	0.00e+00	0	44	0	540016640	59	4934
2026-01-28 10:48:35.41	235.01	41.39	-44.0	-46.6	17.3	0.00e+00	0	43	0	542113792	59	4926
2026-01-28 10:48:36.40	235.44	41.51	-44.4	-47.2	16.7	0.00e+00	0	44	0	543162368	59	5246
2026-01-28 10:48:37.39	235.88	41.63	-45.1	-48.1	15.9	0.00e+00	0	44	0	545259520	60	5516
2026-01-28 10:48:38.39	236.33	41.74	-45.4	-48.7	15.3	0.00e+00	0	44	0	547356672	61	5549
2026-01-28 10:48:39.37	236.77	41.85	-45.6	-48.9	15.1	0.00e+00	0	44	0	549453824	61	5678
2026-01-28 10:48:40.36	237.22	41.97	-45.4	-48.7	15.2	0.00e+00	0	44	0	550502400	61	5565
2026-01-28 10:48:41.35	237.67	42.08	-45.1	-48.2	15.8	7.00e-07	0	44	0	552599552	61	5263
2026-01-28 10:48:42.34	238.12	42.19	-44.9	-48.0	16.0	0.00e+00	0	44	0	554696704	61	5119
2026-01-28 10:48:43.34	238.58	42.29	-44.9	-47.8	16.1	0.00e+00	0	43	0	556793856	61	5026
2026-01-28 10:48:44.33	239.04	42.40	-45.4	-48.6	15.5	0.00e+00	0	44	0	558891008	61	5487
2026-01-28 10:48:45.32	239.50	42.50	-45.9	-49.4	14.6	0.00e+00	0	44	0	559939584	62	5685
2026-01-28 10:48:46.32	239.97	42.61	-46.2	-49.9	14.2	1.50e-06	0	44	0	562036736	63	5657
2026-01-28 10:48:47.31	240.44	42.71	-46.0	-49.7	14.4	0.00e+00	0	44	0	564133888	63	5559
2026-01-28 10:48:48.30	240.91	42.81	-45.5	-48.9	15.1	7.00e-07	0	44	0	566231040	63	5081
2026-01-28 10:48:49.30	241.39	42.90	-45.2	-48.5	15.6	0.00e+00	0	44	0	567279616	62	5123
2026-01-28 10:48:50.29	241.87	43.00	-44.9	-48.1	15.9	0.00e+00	0	44	0	569376768	61	5170
2026-01-28 10:48:51.28	242.35	43.09	-44.9	-48.1	16.0	0.00e+00	0	44	0	571473920	61	5160
2026-01-28 10:48:52.27	242.83	43.18	-45.0	-48.2	15.9	0.00e+00	0	44	0	573571072	61	5233
2026-01-28 10:48:53.27	243.32	43.27	-45.4	-48.7	15.3	0.00e+00	0	44	0	575668224	61	5565
2026-01-28 10:48:54.26	243.81	43.36	-45.4	-48.8	15.2	0.00e+00	0	44	0	576716800	61	5604
2026-01-28 10:48:55.25	244.30	43.44	-45.2	-48.5	15.5	0.00e+00	0	44	0	578813952	61	5418
2026-01-28 10:48:56.25	244.80	43.52	-44.7	-47.7	16.3	0.00e+00	0	44	0	580911104	61	4961
2026-01-28 10:48:57.24	245.30	43.60	-44.6	-47.6	16.5	0.00e+00	0	44	0	583008256	61	4898
2026-01-28 10:48:58.23	245.79	43.68	-44.4	-47.2	16.8	0.00e+00	0	44	0	584056832	60	4968
2026-01-28 10:48:59.22	246.29	43.76	-44.7	-47.6	16.4	0.00e+00	0	44	0	586153984	60	5203
2026-01-28 10:49:00.22	246.80	43.83	-45.1	-48.3	15.8	0.00e+00	0	44	0	588251136	60	5619
2026-01-28 10:49:01.21	247.31	43.90	-44.7	-47.8	16.2	0.00e+00	0	44	0	590348288	60	5290
2026-01-28 10:49:02.20	247.81	43.97	-44.4	-47.3	16.7	0.00e+00	0	44	0	591396864	60	5021
2026-01-28 10:49:03.20	248.33	44.04	-44.2	-47.1	16.9	0.00e+00	0	44	0	593494016	60	4876
2026-01-28 10:49:04.19	248.84	44.10	-44.1	-47.0	17.1	0.00e+00	0	44	0	595591168	60	4818
2026-01-28 10:49:05.18	249.35	44.16	-44.1	-46.9	17.1	0.00e+00	0	44	0	597688320	60	4767
2026-01-28 10:49:06.17	249.87	44.22	-44.3	-47.1	16.9	0.00e+00	0	44	0	599785472	60	4923
2026-01-28 10:49:07.17	250.39	44.28	-44.6	-47.5	16.6	0.00e+00	0	44	0	600834048	60	5112
2026-01-28 10:49:08.16	250.91	44.34	-44.9	-48.0	16.1	0.00e+00	0	44	0	602931200	60	5430
2026-01-28 10:49:09.15	251.43	44.39	-44.9	-48.0	16.1	0.00e+00	0	44	0	605028352	60	5427
2026-01-28 10:49:10.15	251.96	44.44	-44.8	-47.9	16.2	0.00e+00	0	44	0	607125504	60	5356
2026-01-28 10:49:11.14	252.48	44.48	-45.0	-48.1	16.0	0.00e+00	0	44	0	608174080	60	5465
2026-01-28 10:49:12.13	253.01	44.53	-45.0	-48.0	16.0	0.00e+00	0	44	0	610271232	60	5431
2026-01-28 10:49:13.12	253.53	44.57	-44.8	-47.8	16.3	0.00e+00	0	44	0	612368384	60	5288
2026-01-28 10:49:14.12	254.07	44.61	-44.5	-47.4	16.6	0.00e+00	0	44	0	614465536	60	5074
2026-01-28 10:49:15.11	254.59	44.65	-44.8	-47.7	16.3	0.00e+00	0	44	0	616562688	60	5271
2026-01-28 10:49:16.10	255.12	44.68	-45.2	-48.4	15.7	0.00e+00	0	44	0	617611264	60	5658
2026-01-28 10:49:17.10	255.66	44.71	-45.3	-48.5	15.5	0.00e+00	0	44	0	619708416	61	5455
2026-01-28 10:49:18.09	256.19	44.74	-45.0	-48.2	15.9	0.00e+00	0	44	0	621805568	61	5219
2026-01-28 10:49:19.08	256.73	44.77	-44.6	-47.5	16.5	0.00e+00	0	44	0	623902720	61	4842
2026-01-28 10:49:20.07	257.26	44.79	-44.4	-47.2	16.8	0.00e+00	0	44	0	624951296	60	4971
2026-01-28 10:49:21.07	257.80	44.81	-44.1	-46.8	17.2	0.00e+00	0	44	0	627048448	60	4732
2026-01-28 10:49:22.06	258.34	44.83	-43.9	-46.6	17.4	0.00e+00	0	44	0	629145600	59	4899
2026-01-28 10:49:23.05	258.87	44.84	-44.0	-46.7	17.3	0.00e+00	0	44	0	631242752	59	4938
2026-01-28 10:49:24.05	259.41	44.85	-44.1	-46.8	17.2	0.00e+00	0	44	0	633339904	59	5021
2026-01-28 10:49:25.04	259.95	44.86	-44.5	-47.3	16.7	0.00e+00	0	44	0	634388480	59	5322
2026-01-28 10:49:26.03	260.49	44.87	-44.3	-47.1	16.9	0.00e+00	0	44	0	636485632	59	5187
2026-01-28 10:49:27.02	261.02	44.87	-44.0	-46.7	17.2	0.00e+00	0	44	0	638582784	59	4957
2026-01-28 10:49:28.02	261.57	44.88	-44.0	-46.7	17.3	0.00e+00	0	44	0	640679936	59	4934
2026-01-28 10:49:29.01	262.10	44.87	-44.1	-46.8	17.1	0.00e+00	0	44	0	641728512	59	5035
2026-01-28 10:49:30.00	262.64	44.87	-43.8	-46.4	17.6	0.00e+00	0	44	0	643825664	59	4790
2026-01-28 10:49:30.99	263.18	44.86	-43.6	-46.2	17.7	0.00e+00	0	44	0	645922816	59	4689
2026-01-28 10:49:31.99	263.72	44.85	-43.4	-46.0	17.9	0.00e+00	0	43	0	648019968	58	4840
2026-01-28 10:49:32.98	264.26	44.84	-43.3	-45.8	18.1	0.00e+00	0	44	0	650117120	58	4746
2026-01-28 10:49:33.97	264.79	44.83	-43.2	-45.6	18.3	0.00e+00	0	44	0	651165696	58	4645
2026-01-28 10:49:34.97	265.33	44.81	-43.4	-45.9	18.1	0.00e+00	0	44	0	653262848	58	4809
2026-01-28 10:49:35.96	265.87	44.79	-43.9	-46.6	17.5	0.00e+00	0	44	0	655360000	58	5160
2026-01-28 10:49:36.95	266.40	44.76	-44.0	-46.7	17.3	0.00e+00	0	44	0	657457152	58	5234
2026-01-28 10:49:37.95	266.94	44.74	-43.6	-46.1	17.9	0.00e+00	0	44	0	658505728	58	4899
2026-01-28 10:49:38.94	267.47	44.71	-43.3	-45.7	18.3	0.00e+00	0	44	0	660602880	58	4683
2026-01-28 10:49:39.93	268.00	44.68	-43.1	-45.5	18.5	0.00e+00	0	44	0	662700032	58	4551
2026-01-28 10:49:40.93	268.54	44.64	-43.4	-45.9	18.1	0.00e+00	0	44	0	664797184	58	4798
2026-01-28 10:49:41.92	269.06	44.61	-44.0	-46.7	17.3	0.00e+00	0	44	0	666894336	58	5257
2026-01-28 10:49:42.91	269.59	44.57	-44.2	-46.9	17.0	0.00e+00	0	44	0	667942912	59	5094
2026-01-28 10:49:43.90	270.12	44.53	-44.0	-46.7	17.3	0.00e+00	0	44	0	670040064	59	4962
2026-01-28 10:49:44.90	270.65	44.48	-43.9	-46.6	17.3	0.00e+00	0	44	0	672137216	59	4885
2026-01-28 10:49:45.89	271.17	44.44	-43.7	-46.3	17.6	0.00e+00	0	43	0	674234368	59	4747
2026-01-28 10:49:46.88	271.69	44.39	-43.7	-46.2	17.7	0.00e+00	0	44	0	675282944	59	4705
2026-01-28 10:49:47.87	272.21	44.33	-43.6	-46.2	17.8	0.00e+00	0	44	0	677380096	59	4663
2026-01-28 10:49:48.87	272.74	44.28	-43.5	-46.0	17.9	0.00e+00	0	44	0	679477248	59	4564
2026-01-28 10:49:49.86	273.25	44.22	-43.4	-45.9	18.1	0.00e+00	0	44	0	681574400	58	4783
2026-01-28 10:49:50.86	273.77	44.16	-43.7	-46.2	17.7	0.00e+00	0	44	0	682622976	58	4955
2026-01-28 10:49:51.85	274.28	44.10	-44.2	-46.9	17.1	0.00e+00	0	44	0	684720128	59	5072
2026-01-28 10:49:52.84	274.79	44.04	-44.8	-47.7	16.3	0.00e+00	0	44	0	686817280	60	5269
2026-01-28 10:49:53.83	275.30	43.97	-44.9	-47.9	16.1	0.00e+00	0	44	0	688914432	60	5366
2026-01-28 10:49:54.83	275.81	43.90	-44.9	-47.9	16.1	0.00e+00	0	44	0	691011584	60	5390
2026-01-28 10:49:55.82	276.32	43.83	-44.6	-47.6	16.5	0.00e+00	0	44	0	692060160	60	5177
2026-01-28 10:49:56.81	276.82	43.76	-44.7	-47.7	16.4	0.00e+00	0	44	0	694157312	60	5263
2026-01-28 10:49:57.81	277.32	43.68	-44.7	-47.7	16.3	0.00e+00	0	44	0	696254464	60	5237
2026-01-28 10:49:58.80	277.82	43.60	-44.7	-47.7	16.3	0.00e+00	0	44	0	698351616	60	5273
2026-01-28 10:49:59.79	278.32	43.52	-44.6	-47.5	16.6	0.00e+00	0	43	0	699400192	60	5132
2026-01-28 10:50:00.78	278.81	43.44	-44.0	-46.6	17.4	0.00e+00	0	44	0	701497344	59	4916
2026-01-28 10:50:01.77	279.30	43.36	-43.6	-46.2	17.8	0.00e+00	0	44	0	703594496	59	4658
2026-01-28 10:50:02.76	279.78	43.27	-43.9	-46.5	17.6	0.00e+00	0	44	0	705691648	59	4817
2026-01-28 10:50:03.76	280.27	43.18	-44.2	-46.9	17.1	0.00e+00	0	44	0	707788800	59	5078
2026-01-28 10:50:04.75	280.75	43.09	-44.7	-47.8	16.4	0.00e+00	0	44	0	708837376	60	5285
2026-01-28 10:50:05.74	281.23	43.00	-44.4	-47.3	16.8	0.00e+00	0	44	0	710934528	60	5016
2026-01-28 10:50:06.73	281.71	42.90	-44.0	-46.7	17.3	0.00e+00	0	44	0	713031680	60	4664
2026-01-28 10:50:07.73	282.19	42.81	-44.0	-46.6	17.4	0.00e+00	0	44	0	715128832	59	4906
2026-01-28 10:50:08.72	282.66	42.71	-44.2	-46.9	17.1	0.00e+00	0	44	0	716177408	59	5042
2026-01-28 10:50:09.71	283.13	42.61	-44.4	-47.2	16.7	0.00e+00	0	44	0	718274560	59	5271
2026-01-28 10:50:10.71	283.59	42.51	-44.6	-47.5	16.5	0.00e+00	0	44	0	720371712	59	5429
2026-01-28 10:50:11.70	284.06	42.40	-44.2	-46.9	17.1	0.00e+00	0	43	0	722468864	59	5088
2026-01-28 10:50:12.69	284.52	42.30	-43.6	-46.1	17.8	0.00e+00	0	44	0	724566016	59	4645
2026-01-28 10:50:13.68	284.97	42.19	-43.3	-45.7	18.2	0.00e+00	0	44	0	725614592	58	4689
2026-01-28 10:50:14.68	285.43	42.08	-43.3	-45.8	18.2	0.00e+00	0	44	0	727711744	58	4725
2026-01-28 10:50:15.67	285.88	41.97	-43.8	-46.4	17.6	0.00e+00	0	44	0	729808896	58	5050
2026-01-28 10:50:16.66	286.32	41.86	-43.5	-46.0	18.0	0.00e+00	0	44	0	731906048	58	4834
2026-01-28 10:50:17.66	286.77	41.75	-42.6	-44.9	19.0	0.00e+00	0	44	0	732954624	57	4510
2026-01-28 10:50:18.65	287.21	41.63	-41.8	-43.9	19.8	0.00e+00	0	44	0	735051776	55	4539
2026-01-28 10:50:19.64	287.65	41.51	-41.7	-43.8	19.9	0.00e+00	0	44	0	737148928	55	4481
2026-01-28 10:50:20.64	288.09	41.40	-42.2	-44.5	19.3	0.00e+00	0	44	0	739246080	55	4850
2026-01-28 10:50:21.63	288.52	41.28	-43.4	-45.9	18.1	0.00e+00	0	44	0	741343232	57	5046
2026-01-28 10:50:22.62	288.95	41.16	-43.5	-46.0	18.0	0.00e+00	0	44	0	742391808	57	5108
2026-01-28 10:50:23.61	289.37	41.03	-42.8	-45.1	18.8	0.00e+00	0	44	0	744488960	57	4620
2026-01-28 10:50:24.61	289.80	40.91	-42.4	-44.6	19.3	0.00e+00	0	44	0	746586112	56	4628
2026-01-28 10:50:25.60	290.22	40.79	-42.2	-44.5	19.5	0.00e+00	0	44	0	748683264	56	4547
2026-01-28 10:50:26.59	290.63	40.66	-42.5	-44.8	19.1	0.00e+00	0	44	0	749731840	56	4740
2026-01-28 10:50:27.59	291.05	40.53	-42.8	-45.1	18.9	0.00e+00	0	44	0	751828992	56	4900
2026-01-28 10:50:28.58	291.46	40.40	-42.7	-45.0	18.9	0.00e+00	0	44	0	753926144	56	4839
2026-01-28 10:50:29.57	291.86	40.27	-42.2	-44.4	19.5	0.00e+00	0	44	0	756023296	56	4509
2026-01-28 10:50:30.56	292.26	40.14	-42.1	-44.3	19.6	0.00e+00	0	44	0	758120448	56	4474
2026-01-28 10:50:31.56	292.67	40.01	-42.1	-44.3	19.6	0.00e+00	0	44	0	759169024	56	4444
2026-01-28 10:50:32.55	293.06	39.88	-42.6	-44.9	19.0	0.00e+00	0	44	0	761266176	56	4811
2026-01-28 10:50:33.54	293.45	39.75	-42.9	-45.2	18.7	0.00e+00	0	44	0	763363328	56	4978
2026-01-28 10:50:34.54	293.85	39.61	-43.2	-45.7	18.2	0.00e+00	0	44	0	765460480	57	4953
2026-01-28 10:50:35.53	294.23	39.48	-42.9	-45.3	18.6	0.00e+00	0	44	0	766509056	57	4724
2026-01-28 10:50:36.52	294.62	39.34	-42.5	-44.8	19.1	0.00e+00	0	44	0	768606208	56	4709
2026-01-28 10:50:37.52	295.00	39.20	-42.6	-44.9	19.0	0.00e+00	0	44	0	770703360	56	4803
2026-01-28 10:50:38.51	295.38	39.06	-42.9	-45.3	18.6	0.00e+00	0	44	0	772800512	56	5029
2026-01-28 10:50:39.50	295.75	38.93	-43.2	-45.7	18.3	0.00e+00	0	44	0	773849088	57	4950
2026-01-28 10:50:40.49	296.12	38.79	-43.2	-45.6	18.4	0.00e+00	0	44	0	775946240	57	4904
2026-01-28 10:50:41.48	296.49	38.65	-42.9	-45.3	18.6	0.00e+00	0	43	0	778043392	57	4752
2026-01-28 10:50:42.48	296.86	38.50	-42.7	-45.1	18.8	0.00e+00	0	44	0	780140544	57	4620
2026-01-28 10:50:43.47	297.22	38.36	-42.8	-45.2	18.7	0.00e+00	0	44	0	782237696	57	4694
2026-01-28 10:50:44.46	297.57	38.22	-43.0	-45.4	18.5	0.00e+00	0	44	0	783286272	57	4800
2026-01-28 10:50:45.46	297.93	38.08	-43.0	-45.5	18.5	0.00e+00	0	44	0	785383424	57	4823
2026-01-28 10:50:46.45	298.28	37.93	-43.1	-45.5	18.4	0.00e+00	0	44	0	787480576	57	4845
2026-01-28 10:50:47.44	298.63	37.79	-42.8	-45.1	18.8	0.00e+00	0	44	0	789577728	57	4624
2026-01-28 10:50:48.44	298.98	37.64	-42.7	-45.1	18.8	0.00e+00	0	44	0	790626304	57	4617
2026-01-28 10:50:49.43	299.32	37.50	-43.0	-45.4	18.6	0.00e+00	0	44	0	792723456	57	4784
2026-01-28 10:50:50.42	299.66	37.35	-43.2	-45.7	18.3	0.00e+00	0	43	0	794820608	57	4939
2026-01-28 10:50:51.41	300.00	37.21	-43.3	-45.8	18.2	0.00e+00	0	44	0	796917760	57	5007
2026-01-28 10:50:52.41	300.34	37.06	-43.4	-45.9	18.1	0.00e+00	0	44	0	797966336	57	5065
2026-01-28 10:50:53.40	300.67	36.91	-43.3	-45.8	18.2	0.00e+00	0	44	0	800063488	57	4997
2026-01-28 10:50:54.39	301.00	36.77	-43.1	-45.5	18.5	0.00e+00	0	44	0	802160640	57	4830
2026-01-28 10:50:55.38	301.32	36.62	-42.9	-45.3	18.6	0.00e+00	0	44	0	804257792	57	4741
2026-01-28 10:50:56.38	301.65	36.47	-42.8	-45.2	18.7	0.00e+00	0	44	0	806354944	57	4684
2026-01-28 10:50:57.37	301.96	36.32	-42.4	-44.7	19.2	0.00e+00	0	44	0	807403520	56	4665
2026-01-28 10:50:58.36	302.28	36.18	-42.1	-44.3	19.6	0.00e+00	0	44	0	809500672	56	4463
2026-01-28 10:50:59.36	302.60	36.03	-41.8	-44.0	19.7	0.00e+00	0	44	0	811597824	55	4584
2026-01-28 10:51:00.35	302.91	35.88	-42.0	-44.2	19.5	0.00e+00	0	44	0	813694976	55	4693
2026-01-28 10:51:01.34	303.21	35.73	-42.6	-45.0	18.8	0.00e+00	0	44	0	815792128	55	5120
2026-01-28 10:51:02.34	303.52	35.58	-43.3	-45.8	18.2	0.00e+00	0	43	0	816840704	57	5003
2026-01-28 10:51:03.33	303.82	35.43	-43.6	-46.3	17.7	0.00e+00	0	44	0	818937856	57	5282
2026-01-28 10:51:04.32	304.12	35.28	-43.1	-45.7	18.2	0.00e+00	0	44	0	821035008	57	4937
2026-01-28 10:51:05.32	304.42	35.13	-42.7	-45.0	18.9	0.00e+00	0	44	0	823132160	57	4590
2026-01-28 10:51:06.31	304.72	34.98	-42.4	-44.7	19.1	0.00e+00	0	44	0	824180736	56	4690
2026-01-28 10:51:07.30	305.01	34.83	-42.7	-45.1	18.9	0.00e+00	0	44	0	826277888	56	4894
2026-01-28 10:51:08.29	305.30	34.68	-43.5	-46.0	17.9	0.00e+00	0	44	0	828375040	57	5158
2026-01-28 10:51:09.29	305.59	34.53	-44.2	-47.0	17.0	0.00e+00	0	44	0	830472192	59	5119
2026-01-28 10:51:10.28	305.87	34.38	-44.5	-47.4	16.6	0.00e+00	0	44	0	832569344	59	5364
2026-01-28 10:51:11.27	306.15	34.23	-44.1	-46.9	17.1	0.00e+00	0	43	0	833617920	59	5062
2026-01-28 10:51:12.27	306.43	34.08	-43.8	-46.5	17.5	0.00e+00	0	43	0	835715072	59	4815
2026-01-28 10:51:13.26	306.71	33.93	-43.5	-46.1	17.9	0.00e+00	0	44	0	837812224	59	4626
2026-01-28 10:51:14.25	306.98	33.78	-43.5	-46.1	17.9	0.00e+00	0	44	0	839909376	59	4605
2026-01-28 10:51:15.24	307.25	33.63	-43.7	-46.3	17.7	0.00e+00	0	44	0	840957952	58	5004
2026-01-28 10:51:16.24	307.52	33.47	-44.3	-47.0	17.0	0.00e+00	0	44	0	843055104	59	5144
2026-01-28 10:51:17.23	307.79	33.33	-45.0	-48.1	16.0	0.00e+00	0	43	0	845152256	60	5501
2026-01-28 10:51:18.22	308.05	33.18	-45.0	-48.1	15.9	0.00e+00	0	44	0	847249408	60	5471
2026-01-28 10:51:19.21	308.31	33.03	-44.1	-46.8	17.2	0.00e+00	0	44	0	849346560	60	4737
2026-01-28 10:51:20.21	308.58	32.87	-43.2	-45.7	18.3	0.00e+00	0	43	0	850395136	58	4653
2026-01-28 10:51:21.20	308.83	32.73	-42.7	-45.0	18.9	0.00e+00	0	44	0	852492288	57	4585
2026-01-28 10:51:22.19	309.09	32.58	-42.7	-45.0	18.9	0.00e+00	0	44	0	854589440	57	4548
2026-01-28 10:51:23.18	309.34	32.43	-43.2	-45.7	18.3	0.00e+00	0	44	0	856686592	57	4938
2026-01-28 10:51:24.18	309.59	32.28	-44.5	-47.4	16.6	0.00e+00	0	43	0	857735168	59	5358
2026-01-28 10:51:25.17	309.84	32.13	-45.5	-49.0	15.1	0.00e+00	0	44	0	859832320	61	5741
2026-01-28 10:51:26.16	310.08	31.98	-45.5	-48.9	15.1	7.00e-07	0	44	0	861929472	61	5680
2026-01-28 10:51:27.16	310.33	31.83	-44.8	-47.9	16.1	0.00e+00	0	44	0	864026624	61	5086
2026-01-28 10:51:28.15	310.57	31.68	-44.3	-47.1	16.9	0.00e+00	0	44	0	865075200	60	4889
2026-01-28 10:51:29.14	310.81	31.53	-44.0	-46.7	17.3	0.00e+00	0	44	0	867172352	60	4652
2026-01-28 10:51:30.14	311.05	31.38	-43.1	-45.5	18.4	0.00e+00	0	44	0	869269504	58	4579
2026-01-28 10:51:31.13	311.28	31.24	-43.2	-45.6	18.3	0.00e+00	0	44	0	871366656	57	4926
2026-01-28 10:51:32.12	311.51	31.09	-43.8	-46.4	17.5	0.00e+00	0	44	0	873463808	58	5088
2026-01-28 10:51:33.11	311.74	30.94	-44.6	-47.5	16.5	0.00e+00	0	44	0	874512384	59	5449
2026-01-28 10:51:34.11	311.97	30.79	-45.2	-48.4	15.7	0.00e+00	0	44	0	876609536	61	5371
2026-01-28 10:51:35.10	312.20	30.65	-45.1	-48.2	15.8	0.00e+00	0	44	0	878706688	61	5266
2026-01-28 10:51:36.09	312.43	30.50	-44.6	-47.5	16.6	0.00e+00	0	44	0	880803840	61	4815
2026-01-28 10:51:37.09	312.65	30.35	-43.8	-46.4	17.6	0.00e+00	0	44	0	881852416	59	4793
2026-01-28 10:51:38.08	312.87	30.21	-43.6	-46.2	17.7	0.00e+00	0	44	0	883949568	59	4675
2026-01-28 10:51:39.07	313.09	30.06	-43.2	-45.6	18.3	0.00e+00	0	43	0	886046720	58	4651
2026-01-28 10:51:40.07	313.31	29.92	-42.9	-45.3	18.6	0.00e+00	0	44	0	888143872	57	4731
2026-01-28 10:51:41.06	313.52	29.77	-43.3	-45.8	18.1	0.00e+00	0	44	0	889192448	57	5039
2026-01-28 10:51:42.05	313.73	29.63	-44.1	-47.0	17.0	0.00e+00	0	44	0	891289600	58	5407
2026-01-28 10:51:43.05	313.95	29.48	-44.7	-47.9	16.1	0.00e+00	0	44	0	893386752	59	5720
2026-01-28 10:51:44.04	314.15	29.34	-44.5	-47.7	16.3	0.00e+00	0	44	0	895483904	60	5276
2026-01-28 10:51:45.03	314.36	29.19	-43.7	-46.7	17.2	0.00e+00	0	44	0	897581056	59	4940
2026-01-28 10:51:46.02	314.57	29.05	-43.0	-45.7	18.2	0.00e+00	0	44	0	898629632	58	4677
2026-01-28 10:51:47.02	314.77	28.91	-42.7	-45.2	18.6	0.00e+00	0	44	0	900726784	57	4704
2026-01-28 10:51:48.01	314.97	28.76	-42.3	-44.7	19.1	0.00e+00	0	43	0	902823936	56	4698
2026-01-28 10:51:49.00	315.17	28.62	-41.7	-44.0	19.7	0.00e+00	0	44	0	904921088	55	4554
2026-01-28 10:51:50.00	315.37	28.48	-42.0	-44.3	19.4	0.00e+00	0	44	0	905969664	55	4753
2026-01-28 10:51:50.99	315.57	28.34	-42.5	-44.9	18.8	0.00e+00	0	44	0	908066816	55	5099
2026-01-28 10:51:51.98	315.77	28.20	-43.4	-46.0	17.9	0.00e+00	0	44	0	910163968	57	5112
2026-01-28 10:51:52.97	315.96	28.06	-43.9	-46.7	17.3	0.00e+00	0	44	0	912261120	58	5238
2026-01-28 10:51:53.97	316.15	27.91	-44.0	-46.8	17.2	0.00e+00	0	44	0	914358272	58	5305
2026-01-28 10:51:54.96	316.34	27.77	-43.9	-46.6	17.3	0.00e+00	0	44	0	915406848	58	5206
2026-01-28 10:51:55.95	316.53	27.64	-43.6	-46.2	17.7	0.00e+00	0	43	0	917504000	58	4952
2026-01-28 10:51:56.95	316.72	27.49	-43.5	-46.0	17.8	0.00e+00	0	44	0	919601152	58	4865
2026-01-28 10:51:57.94	316.90	27.36	-43.1	-45.6	18.2	0.00e+00	0	44	0	921698304	58	4634
2026-01-28 10:51:58.93	317.09	27.22	-42.4	-44.8	19.1	0.00e+00	0	44	0	922746880	56	4712
2026-01-28 10:51:59.92	317.27	27.08	-42.4	-44.8	19.1	0.00e+00	0	44	0	924844032	56	4713
2026-01-28 10:52:00.92	317.45	26.94	-42.6	-45.0	18.9	0.00e+00	0	44	0	926941184	56	4845
2026-01-28 10:52:01.91	317.63	26.80	-43.0	-45.5	18.4	0.00e+00	0	44	0	929038336	56	5133
2026-01-28 10:52:02.90	317.81	26.67	-43.4	-46.0	17.9	0.00e+00	0	44	0	931135488	57	5127
2026-01-28 10:52:03.90	317.98	26.53	-43.5	-46.2	17.7	0.00e+00	0	44	0	932184064	57	5260
2026-01-28 10:52:04.89	318.16	26.39	-43.6	-46.4	17.5	0.00e+00	0	44	0	934281216	57	5346
2026-01-28 10:52:05.88	318.33	26.26	-43.3	-46.0	17.9	0.00e+00	0	44	0	936378368	57	5113
2026-01-28 10:52:06.88	318.50	26.12	-43.2	-45.8	18.1	0.00e+00	0	44	0	938475520	57	5012
2026-01-28 10:52:07.87	318.67	25.99	-42.8	-45.3	18.6	0.00e+00	0	43	0	940572672	57	4712
2026-01-28 10:52:08.86	318.84	25.85	-42.3	-44.7	19.1	0.00e+00	0	44	0	941621248	56	4682
2026-01-28 10:52:09.85	319.01	25.72	-42.4	-44.7	19.1	0.00e+00	0	44	0	943718400	56	4696
2026-01-28 10:52:10.85	319.18	25.59	-42.4	-44.7	19.1	0.00e+00	0	44	0	945815552	56	4697
2026-01-28 10:52:11.84	319.34	25.45	-42.4	-44.8	19.0	0.00e+00	0	44	0	947912704	56	4741
2026-01-28 10:52:12.83	319.51	25.32	-42.4	-44.9	19.0	0.00e+00	0	44	0	948961280	56	4761
2026-01-28 10:52:13.83	319.67	25.19	-42.7	-45.2	18.7	0.00e+00	0	44	0	951058432	56	4940
2026-01-28 10:52:14.82	319.83	25.06	-42.8	-45.3	18.5	0.00e+00	0	43	0	953155584	56	5032
2026-01-28 10:52:15.81	319.99	24.92	-43.0	-45.6	18.3	0.00e+00	0	44	0	955252736	56	5179
2026-01-28 10:52:16.81	320.15	24.79	-43.2	-45.9	18.0	0.00e+00	0	44	0	956301312	57	5065
2026-01-28 10:52:17.80	320.31	24.66	-43.2	-45.9	18.0	0.00e+00	0	44	0	958398464	57	5099
2026-01-28 10:52:18.79	320.46	24.53	-43.1	-45.9	18.0	0.00e+00	0	44	0	960495616	57	5051
2026-01-28 10:52:19.79	320.62	24.40	-43.1	-45.9	18.0	0.00e+00	0	44	0	962592768	57	5057
2026-01-28 10:52:20.78	320.77	24.27	-43.1	-45.8	18.0	0.00e+00	0	44	0	964689920	57	5023
2026-01-28 10:52:21.77	320.92	24.14	-42.9	-45.7	18.2	0.00e+00	0	43	0	965738496	57	4937
2026-01-28 10:52:22.77	321.07	24.02	-42.7	-45.3	18.5	0.00e+00	0	44	0	967835648	57	4749
2026-01-28 10:52:23.76	321.22	23.89	-42.4	-45.0	18.9	0.00e+00	0	44	0	969932800	56	4835
2026-01-28 10:52:24.75	321.37	23.76	-42.4	-44.9	18.9	0.00e+00	0	44	0	972029952	56	4812
2026-01-28 10:52:25.74	321.52	23.63	-42.3	-44.8	19.0	0.00e+00	0	43	0	973078528	56	4732
2026-01-28 10:52:26.74	321.67	23.51	-42.4	-44.8	19.0	0.00e+00	0	44	0	975175680	56	4714
2026-01-28 10:52:27.73	321.81	23.38	-42.4	-44.8	19.0	0.00e+00	0	43	0	977272832	56	4746
2026-01-28 10:52:28.72	321.95	23.25	-42.5	-44.9	18.9	0.00e+00	0	44	0	979369984	56	4804
2026-01-28 10:52:29.72	322.10	23.13	-42.5	-45.0	18.9	0.00e+00	0	43	0	981467136	56	4820
2026-01-28 10:52:30.71	322.24	23.00	-42.6	-45.1	18.7	0.00e+00	0	43	0	982515712	56	4904
2026-01-28 10:52:31.70	322.38	22.88	-42.7	-45.2	18.6	0.00e+00	0	43	0	984612864	56	4981
2026-01-28 10:52:32.69	322.52	22.76	-42.7	-45.3	18.6	0.00e+00	0	44	0	986710016	56	4997
2026-01-28 10:52:33.69	322.66	22.63	-42.9	-45.4	18.4	0.00e+00	0	43	0	988807168	56	5092
2026-01-28 10:52:34.68	322.80	22.51	-43.0	-45.6	18.3	0.00e+00	0	43	0	989855744	56	5167
2026-01-28 10:52:35.67	322.93	22.39	-43.0	-45.5	18.3	0.00e+00	0	43	0	991952896	56	5151
2026-01-28 10:52:36.67	323.07	22.26	-43.0	-45.6	18.3	0.00e+00	0	43	0	994050048	56	5176
2026-01-28 10:52:37.66	323.20	22.14	-43.0	-45.6	18.3	0.00e+00	0	44	0	996147200	56	5177
2026-01-28 10:52:38.65	323.33	22.02	-42.9	-45.5	18.3	0.00e+00	0	44	0	997195776	56	5143
2026-01-28 10:52:39.64	323.47	21.90	-43.1	-45.7	18.1	0.00e+00	0	44	0	999292928	56	5257
2026-01-28 10:52:40.64	323.60	21.78	-42.9	-45.5	18.3	0.00e+00	0	44	0	1001390080	56	5145
2026-01-28 10:52:41.63	323.73	21.66	-43.0	-45.6	18.3	0.00e+00	0	44	0	1003487232	56	5186
2026-01-28 10:52:42.62	323.86	21.54	-43.1	-45.7	18.1	0.00e+00	0	44	0	1005584384	56	5255
2026-01-28 10:52:43.62	323.99	21.42	-43.1	-45.8	18.1	0.00e+00	0	44	0	1006632960	56	5302
2026-01-28 10:52:44.61	324.11	21.30	-43.1	-45.7	18.1	0.00e+00	0	44	0	1008730112	56	5274
2026-01-28 10:52:45.60	324.24	21.18	-43.2	-46.0	17.9	0.00e+00	0	44	0	1010827264	57	5112
2026-01-28 10:52:46.59	324.37	21.06	-43.2	-45.9	17.9	0.00e+00	0	43	0	1012924416	57	5081
2026-01-28 10:52:47.59	324.49	20.95	-43.4	-46.2	17.6	0.00e+00	0	43	0	1013972992	57	5269
2026-01-28 10:52:48.58	324.61	20.83	-43.4	-46.2	17.7	0.00e+00	0	44	0	1016070144	57	5231
2026-01-28 10:52:49.57	324.74	20.71	-43.5	-46.3	17.5	0.00e+00	0	44	0	1018167296	57	5317
2026-01-28 10:52:50.57	324.86	20.60	-43.6	-46.5	17.3	0.00e+00	0	44	0	1020264448	57	5440
2026-01-28 10:52:51.56	324.98	20.48	-43.6	-46.4	17.4	0.00e+00	0	44	0	1022361600	57	5386
2026-01-28 10:52:52.55	325.10	20.36	-43.6	-46.5	17.3	0.00e+00	0	43	0	1023410176	57	5418
2026-01-28 10:52:53.55	325.22	20.25	-43.6	-46.4	17.4	0.00e+00	0	43	0	1025507328	57	5378
2026-01-28 10:52:54.54	325.34	20.13	-43.5	-46.3	17.5	0.00e+00	0	44	0	1027604480	57	5307
2026-01-28 10:52:55.53	325.46	20.02	-43.6	-46.3	17.5	0.00e+00	0	44	0	1029701632	57	5288
2026-01-28 10:52:56.53	325.57	19.91	-43.4	-46.1	17.7	0.00e+00	0	44	0	1030750208	57	5185
2026-01-28 10:52:57.52	325.69	19.79	-43.5	-46.1	17.7	0.00e+00	0	44	0	1032847360	57	5180
2026-01-28 10:52:58.51	325.80	19.68	-43.4	-46.0	17.8	0.00e+00	0	44	0	1034944512	57	5120
2026-01-28 10:52:59.51	325.92	19.57	-43.1	-45.7	18.1	0.00e+00	0	44	0	1037041664	57	4934
2026-01-28 10:53:00.50	326.03	19.45	-43.1	-45.6	18.1	0.00e+00	0	43	0	1039138816	57	4915
2026-01-28 10:53:01.49	326.14	19.34	-43.0	-45.5	18.3	0.00e+00	0	44	0	1040187392	57	4841
2026-01-28 10:53:02.48	326.26	19.23	-43.0	-45.5	18.2	0.00e+00	0	43	0	1042284544	57	4862
2026-01-28 10:53:03.48	326.37	19.12	-42.9	-45.5	18.3	0.00e+00	0	43	0	1044381696	57	4839
2026-01-28 10:53:04.47	326.48	19.01	-43.0	-45.6	18.1	0.00e+00	0	43	0	1046478848	57	4908
2026-01-28 10:53:05.46	326.59	18.90	-43.0	-45.8	18.0	0.00e+00	0	43	0	1047527424	57	5006
2026-01-28 10:53:06.46	326.70	18.79	-43.0	-45.8	18.0	0.00e+00	0	44	0	1049624576	57	4984
2026-01-28 10:53:07.45	326.81	18.68	-43.0	-45.9	17.8	0.00e+00	0	44	0	1051721728	57	5055
2026-01-28 10:53:08.44	326.91	18.57	-43.0	-45.9	17.8	0.00e+00	0	44	0	1053818880	57	5092
2026-01-28 10:53:09.43	327.02	18.46	-43.1	-46.1	17.7	0.00e+00	0	44	0	1055916032	57	5171
2026-01-28 10:53:10.43	327.13	18.35	-43.1	-46.1	17.7	0.00e+00	0	43	0	1056964608	57	5171
2026-01-28 10:53:11.42	327.23	18.25	-43.2	-46.1	17.7	0.00e+00	0	44	0	1059061760	57	5204
2026-01-28 10:53:12.41	327.33	18.14	-43.3	-46.2	17.5	0.00e+00	0	44	0	1061158912	57	5270
2026-01-28 10:53:13.41	327.44	18.03	-43.1	-46.0	17.8	0.00e+00	0	44	0	1063256064	57	5109
2026-01-28 10:53:14.40	327.54	17.92	-43.1	-46.0	17.8	0.00e+00	0	43	0	1064304640	57	5108
2026-01-28 10:53:15.39	327.64	17.82	-43.0	-45.9	17.9	0.00e+00	0	43	0	1066401792	57	5045
2026-01-28 10:53:16.39	327.75	17.71	-43.0	-45.8	17.9	0.00e+00	0	44	0	1068498944	57	5036
2026-01-28 10:53:17.38	327.85	17.61	-43.0	-45.8	18.0	0.00e+00	0	43	0	1070596096	57	5010
2026-01-28 10:53:18.37	327.95	17.50	-42.9	-45.7	18.0	0.00e+00	0	44	0	1072693248	57	4975
2026-01-28 10:53:19.36	328.05	17.40	-42.9	-45.7	18.0	0.00e+00	0	43	0	1073741824	57	4965
2026-01-28 10:53:20.36	328.15	17.29	-42.9	-45.8	18.0	0.00e+00	0	43	0	1075838976	57	5001
2026-01-28 10:53:21.35	328.24	17.19	-43.0	-45.9	17.8	0.00e+00	0	43	0	1077936128	57	5066
2026-01-28 10:53:22.34	328.34	17.08	-43.1	-46.0	17.8	0.00e+00	0	43	0	1080033280	57	5105
2026-01-28 10:53:23.34	328.44	16.98	-43.3	-46.2	17.5	0.00e+00	0	44	0	1081081856	57	5250
2026-01-28 10:53:24.33	328.54	16.88	-43.5	-46.3	17.4	0.00e+00	0	44	0	1083179008	57	5309
2026-01-28 10:53:25.32	328.63	16.78	-43.6	-46.4	17.3	0.00e+00	0	43	0	1085276160	57	5391
2026-01-28 10:53:26.31	328.73	16.67	-43.9	-46.7	17.0	0.00e+00	0	43	0	1087373312	58	5262
2026-01-28 10:53:27.31	328.82	16.57	-44.0	-46.8	16.9	0.00e+00	0	43	0	1088421888	58	5318
2026-01-28 10:53:28.30	328.91	16.47	-44.2	-47.1	16.7	0.00e+00	0	43	0	1090519040	58	5479
2026-01-28 10:53:29.29	329.01	16.37	-44.2	-47.1	16.7	0.00e+00	0	44	0	1092616192	59	5166
2026-01-28 10:53:30.29	329.10	16.27	-44.2	-47.1	16.7	0.00e+00	0	44	0	1094713344	59	5170
2026-01-28 10:53:31.28	329.19	16.17	-44.2	-47.1	16.6	0.00e+00	0	44	0	1096810496	59	5196
2026-01-28 10:53:32.27	329.28	16.07	-44.2	-47.0	16.7	0.00e+00	0	43	0	1097859072	59	5154
2026-01-28 10:53:33.27	329.38	15.97	-44.1	-46.9	16.8	0.00e+00	0	43	0	1099956224	59	5072
2026-01-28 10:53:34.26	329.47	15.87	-44.0	-46.8	16.9	0.00e+00	0	43	0	1102053376	59	5028
2026-01-28 10:53:35.25	329.56	15.77	-43.9	-46.7	17.0	0.00e+00	0	44	0	1104150528	59	4974
2026-01-28 10:53:36.24	329.64	15.67	-44.0	-46.8	16.9	0.00e+00	0	43	0	1105199104	59	5017
2026-01-28 10:53:37.24	329.73	15.57	-43.9	-46.7	17.1	0.00e+00	0	44	0	1107296256	59	4944
2026-01-28 10:53:38.23	329.82	15.47	-43.8	-46.6	17.1	0.00e+00	0	44	0	1109393408	59	4913
2026-01-28 10:53:39.22	329.91	15.37	-43.7	-46.5	17.2	0.00e+00	0	44	0	1111490560	59	4859
2026-01-28 10:53:40.21	330.00	15.28	-43.7	-46.5	17.2	0.00e+00	0	43	0	1113587712	59	4846
2026-01-28 10:53:41.21	330.08	15.18	-43.6	-46.4	17.3	0.00e+00	0	43	0	1114636288	59	4778
2026-01-28 10:53:42.20	330.17	15.08	-43.5	-46.3	17.4	0.00e+00	0	44	0	1116733440	59	4728
2026-01-28 10:53:43.19	330.25	14.99	-43.5	-46.3	17.4	0.00e+00	0	44	0	1118830592	58	5020
2026-01-28 10:53:44.19	330.34	14.89	-43.5	-46.3	17.4	0.00e+00	0	44	0	1120927744	58	5000
2026-01-28 10:53:45.18	330.42	14.79	-43.5	-46.3	17.4	0.00e+00	0	44	0	1121976320	58	5029
2026-01-28 10:53:46.17	330.51	14.70	-43.5	-46.4	17.3	0.00e+00	0	44	0	1124073472	58	5046
2026-01-28 10:53:47.17	330.59	14.60	-43.6	-46.4	17.3	0.00e+00	0	44	0	1126170624	58	5080
2026-01-28 10:53:48.16	330.67	14.51	-43.5	-46.3	17.4	0.00e+00	0	43	0	1128267776	58	5013
2026-01-28 10:53:49.15	330.76	14.41	-43.4	-46.3	17.4	0.00e+00	0	44	0	1130364928	58	4986
2026-01-28 10:53:50.14	330.84	14.32	-43.4	-46.2	17.4	0.00e+00	0	43	0	1131413504	58	4969
2026-01-28 10:53:51.14	330.92	14.23	-43.4	-46.2	17.5	0.00e+00	0	43	0	1133510656	58	4954
2026-01-28 10:53:52.13	331.00	14.13	-43.5	-46.3	17.3	0.00e+00	0	44	0	1135607808	58	5012
2026-01-28 10:53:53.12	331.08	14.04	-43.5	-46.3	17.4	0.00e+00	0	43	0	1137704960	58	5003
2026-01-28 10:53:54.12	331.16	13.95	-43.5	-46.3	17.4	0.00e+00	0	43	0	1138753536	58	5011
2026-01-28 10:53:55.11	331.24	13.85	-43.6	-46.5	17.2	0.00e+00	0	43	0	1140850688	58	5114
2026-01-28 10:53:56.10	331.32	13.76	-43.6	-46.5	17.2	0.00e+00	0	43	0	1142947840	58	5126
2026-01-28 10:53:57.10	331.40	13.67	-43.8	-46.7	17.0	0.00e+00	0	43	0	1145044992	58	5232
2026-01-28 10:53:58.09	331.48	13.58	-43.9	-46.7	16.9	0.00e+00	0	44	0	1147142144	58	5274
2026-01-28 10:53:59.08	331.56	13.49	-43.8	-46.7	17.0	0.00e+00	0	44	0	1148190720	58	5258
2026-01-28 10:54:00.08	331.63	13.39	-43.9	-46.8	16.9	0.00e+00	0	43	0	1150287872	58	5282
2026-01-28 10:54:01.07	331.71	13.30	-44.0	-46.9	16.8	0.00e+00	0	43	0	1152385024	58	5352
2026-01-28 10:54:02.06	331.79	13.21	-44.0	-46.9	16.8	0.00e+00	0	44	0	1154482176	58	5379
2026-01-28 10:54:03.05	331.86	13.12	-44.1	-47.0	16.7	0.00e+00	0	43	0	1155530752	58	5427
2026-01-28 10:54:04.05	331.94	13.03	-44.2	-47.1	16.6	0.00e+00	0	43	0	1157627904	58	5496
2026-01-28 10:54:05.04	332.01	12.94	-44.2	-47.1	16.5	0.00e+00	0	44	0	1159725056	59	5214
2026-01-28 10:54:06.03	332.09	12.85	-44.1	-47.1	16.6	0.00e+00	0	43	0	1161822208	59	5164
2026-01-28 10:54:07.03	332.16	12.76	-44.2	-47.1	16.5	0.00e+00	0	43	0	1163919360	59	5193
2026-01-28 10:54:08.02	332.23	12.68	-44.1	-47.0	16.7	0.00e+00	0	43	0	1164967936	59	5123
2026-01-28 10:54:09.01	332.31	12.59	-44.1	-47.1	16.6	0.00e+00	0	43	0	1167065088	59	5193
2026-01-28 10:54:10.00	332.38	12.50	-44.1	-47.1	16.5	0.00e+00	0	43	0	1169162240	59	5205
2026-01-28 10:54:11.00	332.45	12.41	-44.1	-47.1	16.5	0.00e+00	0	43	0	1171259392	59	5208
2026-01-28 10:54:11.99	332.53	12.32	-44.1	-47.2	16.4	0.00e+00	0	43	0	1172307968	59	5225
2026-01-28 10:54:12.98	332.60	12.24	-44.1	-47.1	16.4	0.00e+00	0	43	0	1174405120	59	5191
2026-01-28 10:54:13.98	332.67	12.15	-44.1	-47.1	16.3	0.00e+00	0	44	0	1176502272	59	5212
2026-01-28 10:54:14.97	332.74	12.06	-44.1	-47.2	16.1	0.00e+00	0	43	0	1178599424	59	5254
2026-01-28 10:54:15.96	332.81	11.98	-44.2	-47.3	15.9	0.00e+00	0	43	0	1179648000	59	5306
2026-01-28 10:54:16.95	332.88	11.89	-44.2	-47.3	15.9	0.00e+00	0	43	0	1181745152	59	5317
2026-01-28 10:54:17.95	332.95	11.80	-44.3	-47.4	15.8	0.00e+00	0	43	0	1183842304	59	5397
2026-01-28 10:54:18.94	333.02	11.72	-44.4	-47.5	15.9	0.00e+00	0	44	0	1185939456	59	5463
2026-01-28 10:54:19.93	333.09	11.63	-44.4	-47.5	16.1	0.00e+00	0	43	0	1188036608	59	5410
2026-01-28 10:54:20.93	333.16	11.55	-44.4	-47.5	16.1	0.00e+00	0	43	0	1189085184	59	5461
2026-01-28 10:54:21.92	333.23	11.46	-44.6	-47.7	15.9	0.00e+00	0	43	0	1191182336	59	5580
2026-01-28 10:54:22.91	333.29	11.38	-44.6	-47.7	15.9	0.00e+00	0	43	0	1193279488	59	5586
2026-01-28 10:54:23.90	333.36	11.29	-44.7	-47.9	15.7	0.00e+00	0	43	0	1195376640	60	5383
2026-01-28 10:54:24.90	333.43	11.21	-44.7	-48.0	15.6	0.00e+00	0	43	0	1196425216	60	5428
2026-01-28 10:54:25.89	333.49	11.12	-44.8	-48.1	15.4	0.00e+00	0	43	0	1198522368	60	5489
2026-01-28 10:54:26.88	333.56	11.04	-44.7	-48.0	15.6	0.00e+00	0	43	0	1200619520	60	5447
2026-01-28 10:54:27.88	333.63	10.96	-44.7	-48.0	15.6	0.00e+00	0	43	0	1202716672	60	5430
2026-01-28 10:54:28.87	333.69	10.87	-44.7	-48.1	15.5	0.00e+00	0	43	0	1204813824	60	5506
2026-01-28 10:54:29.86	333.76	10.79	-44.6	-48.0	15.6	0.00e+00	0	43	0	1205862400	60	5425
2026-01-28 10:54:30.85	333.82	10.71	-44.5	-48.0	15.6	0.00e+00	0	43	0	1207959552	60	5422
2026-01-28 10:54:31.85	333.89	10.63	-44.6	-48.2	15.4	0.00e+00	0	43	0	1210056704	60	5537
2026-01-28 10:54:32.84	333.95	10.54	-44.4	-47.9	15.5	0.00e+00	0	43	0	1212153856	60	5357
2026-01-28 10:54:33.83	334.02	10.46	-44.3	-47.8	15.4	0.00e+00	0	43	0	1213202432	60	5329
