passes_logs/2026/01/28/T1/T1__20260128_081407_NOAA_21_JPSS-2_rec.log

#Pass ID: 20260128_081407_NOAA 21 (JPSS-2)
#Satellite: NOAA 21 (JPSS-2)
#Configuration: NOAA 21
#almurnet v.1.7.20251203
#Start time: 2026-01-28 08:14:07

#Version: 2.0.20230620
#Station: T1
#Location: 37.570604 lon 55.790049 lat
#TLE: 1 54234U 22150A   26027.55906748  .00000170  00000+0  10132-3 0  9996
#TLE: 2 54234  98.7510 328.3076 0000860 204.4692 155.6443 14.19540154166599

#Time	Az	El	Level	Level2	SNR	BER	BlckErr	Temp	State	Recorded	gain1	gain2
2026-01-28 08:14:07.40	106.47	5.00	-49.2	-62.2	3.8	1.49e+00	0	40	0	0	70	15613
2026-01-28 08:14:08.39	106.38	5.06	-49.2	-62.2	3.8	1.49e+00	0	40	104	0	70	15664
2026-01-28 08:14:09.39	106.30	5.12	-49.2	-62.2	3.8	1.49e+00	0	40	104	0	70	15696
2026-01-28 08:14:10.38	106.21	5.18	-49.2	-62.2	3.8	1.49e+00	0	40	104	0	70	15639
2026-01-28 08:14:11.38	106.13	5.24	-49.2	-62.2	3.8	1.49e+00	0	40	104	0	70	15743
2026-01-28 08:14:12.37	106.04	5.30	-49.2	-62.2	3.8	1.49e+00	0	40	104	0	70	15651
2026-01-28 08:14:13.37	105.96	5.36	-49.2	-62.2	3.8	1.49e+00	0	40	104	0	70	15727
2026-01-28 08:14:14.36	105.87	5.42	-49.2	-62.2	3.8	1.49e+00	0	40	104	0	70	15741
2026-01-28 08:14:15.36	105.78	5.48	-49.2	-62.2	3.8	1.49e+00	0	40	104	0	70	15698
2026-01-28 08:14:16.35	105.70	5.54	-49.2	-62.2	3.8	1.49e+00	0	40	104	0	70	15745
2026-01-28 08:14:17.35	105.61	5.60	-49.2	-62.2	3.8	1.49e+00	0	41	104	0	70	15692
2026-01-28 08:14:18.34	105.52	5.66	-49.2	-62.2	3.8	1.49e+00	0	40	104	0	70	15740
2026-01-28 08:14:19.34	105.44	5.72	-49.2	-62.2	3.8	1.49e+00	0	41	104	0	70	15724
2026-01-28 08:14:20.34	105.35	5.78	-49.2	-62.2	3.8	1.49e+00	0	41	104	0	70	15708
2026-01-28 08:14:21.33	105.26	5.84	-49.2	-62.2	3.8	1.49e+00	0	41	104	0	70	15640
2026-01-28 08:14:22.33	105.17	5.90	-49.2	-62.1	3.8	1.49e+00	0	41	104	0	70	15542
2026-01-28 08:14:23.32	105.08	5.96	-49.2	-62.1	3.8	1.49e+00	0	41	104	0	70	15501
2026-01-28 08:14:24.32	104.99	6.02	-49.2	-62.0	3.8	1.49e+00	0	41	104	0	70	15345
2026-01-28 08:14:25.31	104.90	6.08	-49.2	-62.0	3.8	1.49e+00	0	41	104	0	70	15307
2026-01-28 08:14:26.31	104.81	6.14	-49.2	-62.0	3.8	1.49e+00	0	41	104	0	70	15227
2026-01-28 08:14:27.30	104.72	6.20	-49.2	-61.9	3.8	1.49e+00	0	41	104	0	70	15222
2026-01-28 08:14:28.30	104.63	6.26	-49.2	-61.9	3.8	1.49e+00	0	41	104	0	70	15189
2026-01-28 08:14:29.29	104.54	6.32	-49.2	-61.9	3.8	1.49e+00	0	41	104	0	70	15185
2026-01-28 08:14:30.29	104.44	6.39	-49.2	-62.0	3.8	1.49e+00	0	41	104	0	70	15268
2026-01-28 08:14:31.28	104.35	6.45	-49.2	-62.0	3.8	1.49e+00	0	41	104	0	70	15299
2026-01-28 08:14:32.28	104.26	6.51	-49.2	-62.0	3.8	1.49e+00	0	41	104	0	70	15388
2026-01-28 08:14:33.28	104.16	6.57	-49.2	-62.1	3.8	1.49e+00	0	41	104	0	70	15412
2026-01-28 08:14:34.27	104.07	6.63	-49.2	-62.0	3.8	1.49e+00	0	41	104	0	70	15366
2026-01-28 08:14:35.27	103.98	6.69	-49.2	-62.0	3.8	1.49e+00	0	41	104	0	70	15312
2026-01-28 08:14:36.26	103.88	6.75	-49.2	-61.9	3.8	1.49e+00	0	41	104	0	70	15085
2026-01-28 08:14:37.26	103.79	6.81	-49.1	-61.7	3.8	1.49e+00	0	41	104	0	70	14810
2026-01-28 08:14:38.25	103.69	6.88	-49.1	-61.5	3.8	1.49e+00	0	41	104	0	70	14395
2026-01-28 08:14:39.25	103.59	6.94	-49.1	-61.2	3.8	1.49e+00	0	41	104	0	70	14036
2026-01-28 08:14:40.24	103.50	7.00	-49.0	-60.9	3.8	1.49e+00	0	41	104	0	70	13468
2026-01-28 08:14:41.24	103.40	7.06	-49.0	-60.8	3.8	1.49e+00	0	41	104	0	70	13406
2026-01-28 08:14:42.23	103.31	7.12	-49.0	-60.6	3.8	1.49e+00	0	41	104	0	70	13070
2026-01-28 08:14:43.23	103.21	7.19	-49.0	-60.7	3.8	1.49e+00	0	41	104	0	70	13133
2026-01-28 08:14:44.22	103.11	7.25	-49.0	-60.7	3.8	1.49e+00	0	41	104	0	70	13165
2026-01-28 08:14:45.22	103.01	7.31	-49.0	-60.8	3.8	1.49e+00	0	41	104	0	70	13283
2026-01-28 08:14:46.21	102.91	7.37	-49.1	-61.0	3.8	1.49e+00	0	41	104	0	70	13632
2026-01-28 08:14:47.21	102.81	7.43	-49.1	-61.1	3.8	1.49e+00	0	41	104	0	70	13759
2026-01-28 08:14:48.20	102.71	7.50	-49.1	-61.2	3.8	1.49e+00	0	41	104	0	70	13910
2026-01-28 08:14:49.20	102.61	7.56	-49.1	-61.1	3.8	1.49e+00	0	41	104	0	70	13835
2026-01-28 08:14:50.19	102.51	7.62	-49.0	-61.0	3.8	1.49e+00	0	41	104	0	70	13604
2026-01-28 08:14:51.19	102.41	7.68	-49.0	-60.7	3.8	1.49e+00	0	41	104	0	70	13254
2026-01-28 08:14:52.18	102.31	7.75	-49.0	-60.7	3.8	1.49e+00	0	41	104	0	70	13176
2026-01-28 08:14:53.18	102.21	7.81	-49.0	-60.8	3.8	1.49e+00	0	42	104	0	70	13299
2026-01-28 08:14:54.17	102.11	7.87	-49.1	-61.1	3.8	1.49e+00	0	42	104	0	70	13864
2026-01-28 08:14:55.17	102.00	7.93	-49.1	-61.5	3.8	1.49e+00	0	41	104	0	70	14428
2026-01-28 08:14:56.16	101.90	8.00	-49.0	-60.6	3.8	1.49e+00	0	41	104	0	70	13058
2026-01-28 08:14:57.15	101.80	8.06	-48.6	-57.4	4.2	1.45e+00	0	41	104	0	69	9536
2026-01-28 08:14:58.15	101.69	8.12	-47.7	-53.9	6.8	3.72e-01	0	42	0	0	67	7138
2026-01-28 08:14:59.15	101.59	8.19	-46.5	-51.0	9.7	2.83e-02	0	42	0	0	65	5777
2026-01-28 08:15:00.14	101.48	8.25	-45.3	-48.8	12.1	7.27e-04	0	42	0	0	62	5301
2026-01-28 08:15:01.14	101.38	8.31	-44.1	-46.9	14.0	4.50e-06	0	42	0	0	60	4764
2026-01-28 08:15:02.14	101.27	8.38	-43.2	-45.6	15.3	0.00e+00	0	42	0	0	58	4630
2026-01-28 08:15:03.13	101.17	8.44	-42.5	-44.7	16.1	0.00e+00	0	42	0	0	56	4681
2026-01-28 08:15:04.13	101.06	8.50	-42.1	-44.3	16.6	0.00e+00	0	42	0	0	56	4445
2026-01-28 08:15:05.12	100.95	8.57	-42.1	-44.2	16.6	0.00e+00	0	42	0	0	56	4438
2026-01-28 08:15:06.12	100.84	8.63	-42.3	-44.5	16.3	0.00e+00	0	42	0	0	56	4595
2026-01-28 08:15:07.12	100.74	8.69	-43.1	-45.5	15.4	0.00e+00	0	41	0	0	56	5117
2026-01-28 08:15:08.11	100.63	8.76	-44.0	-46.8	14.1	0.00e+00	0	42	0	0	58	5296
2026-01-28 08:15:09.11	100.52	8.82	-45.1	-48.5	12.4	3.89e-05	0	42	0	0	60	5732
2026-01-28 08:15:10.10	100.41	8.88	-46.5	-50.8	10.0	3.63e-03	0	42	0	0	63	6309
2026-01-28 08:15:11.10	100.30	8.95	-47.4	-53.2	7.4	7.82e-02	0	42	0	0	65	7452
2026-01-28 08:15:12.09	100.19	9.01	-48.3	-56.5	5.0	4.02e-01	0	42	0	0	67	9666
2026-01-28 08:15:13.09	100.08	9.08	-48.0	-54.6	6.4	9.15e-02	0	42	0	0	66	8206
2026-01-28 08:15:14.09	99.96	9.14	-45.1	-48.5	12.5	1.06e-05	0	42	0	0	60	5729
2026-01-28 08:15:15.09	99.85	9.20	-49.1	-62.0	3.8	1.49e+00	0	42	104	0	68	17249
2026-01-28 08:15:16.09	99.74	9.27	-44.5	-47.5	13.5	9.53e-05	0	42	0	0	61	4819
2026-01-28 08:15:17.09	99.62	9.33	-48.2	-55.9	5.3	1.83e-02	0	42	0	0	67	9001
2026-01-28 08:15:18.09	99.51	9.40	-44.0	-46.7	14.2	2.20e-06	0	42	0	0	59	4980
2026-01-28 08:15:19.09	99.39	9.46	-44.0	-46.7	14.3	1.50e-06	0	42	0	0	59	4938
2026-01-28 08:15:20.09	99.28	9.53	-44.2	-47.0	13.9	2.20e-06	0	42	0	0	59	5153
2026-01-28 08:15:21.09	99.16	9.59	-43.9	-46.6	14.4	2.20e-06	0	42	0	0	59	4879
2026-01-28 08:15:22.09	99.05	9.66	-43.1	-45.6	15.4	0.00e+00	0	42	0	0	58	4607
2026-01-28 08:15:23.09	98.93	9.72	-42.6	-44.9	16.1	0.00e+00	0	42	0	0	57	4502
2026-01-28 08:15:24.09	98.81	9.79	-42.2	-44.3	16.6	0.00e+00	0	42	0	0	56	4484
2026-01-28 08:15:25.10	98.69	9.85	-41.7	-43.8	17.0	0.00e+00	0	42	0	0	55	4472
2026-01-28 08:15:26.09	98.58	9.92	-41.5	-43.5	17.2	0.00e+00	0	42	0	0	55	4331
2026-01-28 08:15:27.09	98.46	9.98	-41.3	-43.3	17.5	0.00e+00	0	42	0	0	54	4460
2026-01-28 08:15:28.10	98.34	10.05	-41.2	-43.2	17.5	0.00e+00	0	42	0	0	54	4437
2026-01-28 08:15:29.09	98.22	10.11	-41.2	-43.2	17.5	0.00e+00	0	42	0	0	54	4414
2026-01-28 08:15:30.09	98.10	10.18	-40.8	-42.8	17.9	0.00e+00	0	42	0	0	53	4443
2026-01-28 08:15:31.09	97.97	10.24	-40.9	-42.8	17.8	0.00e+00	0	42	0	0	53	4490
2026-01-28 08:15:32.09	97.85	10.31	-40.8	-42.8	17.9	0.00e+00	0	42	0	0	53	4451
2026-01-28 08:15:33.09	97.73	10.37	-40.9	-42.9	17.7	0.00e+00	0	42	0	0	53	4525
2026-01-28 08:15:34.09	97.61	10.44	-40.8	-42.7	17.9	0.00e+00	0	42	0	0	53	4435
2026-01-28 08:15:35.09	97.48	10.50	-40.8	-42.7	17.9	0.00e+00	0	42	0	0	53	4436
2026-01-28 08:15:36.09	97.36	10.57	-40.8	-42.8	17.8	0.00e+00	0	42	0	0	53	4468
2026-01-28 08:15:37.09	97.24	10.63	-40.9	-42.9	17.8	0.00e+00	0	42	0	0	53	4513
2026-01-28 08:15:38.09	97.11	10.70	-41.0	-42.9	17.7	0.00e+00	0	42	0	0	53	4539
2026-01-28 08:15:39.09	96.98	10.77	-41.0	-42.9	17.8	0.00e+00	0	42	0	0	53	4536
2026-01-28 08:15:40.09	96.86	10.83	-40.8	-42.8	17.9	0.00e+00	0	42	0	0	53	4458
2026-01-28 08:15:41.09	96.73	10.90	-40.9	-42.9	17.8	0.00e+00	0	42	0	0	53	4518
2026-01-28 08:15:42.09	96.60	10.96	-41.0	-43.0	17.8	0.00e+00	0	42	0	0	53	4551
2026-01-28 08:15:43.08	96.48	11.03	-40.9	-42.8	17.9	0.00e+00	0	42	0	0	53	4481
2026-01-28 08:15:44.08	96.35	11.09	-40.9	-42.9	17.9	0.00e+00	0	42	0	0	53	4512
2026-01-28 08:15:45.08	96.22	11.16	-40.6	-42.5	18.3	0.00e+00	0	42	0	0	53	4303
2026-01-28 08:15:46.08	96.09	11.23	-40.4	-42.3	18.4	0.00e+00	0	42	0	0	52	4462
2026-01-28 08:15:47.08	95.96	11.29	-40.3	-42.2	18.5	0.00e+00	0	42	0	0	52	4402
2026-01-28 08:15:48.08	95.83	11.36	-40.3	-42.2	18.6	0.00e+00	0	42	0	0	52	4395
2026-01-28 08:15:49.08	95.70	11.42	-40.3	-42.1	18.6	0.00e+00	0	42	0	0	52	4372
2026-01-28 08:15:50.07	95.57	11.49	-40.2	-42.0	18.7	0.00e+00	0	42	0	0	52	4340
2026-01-28 08:15:51.08	95.43	11.55	-40.2	-42.1	18.6	0.00e+00	0	42	0	0	52	4344
2026-01-28 08:15:52.08	95.30	11.62	-40.3	-42.1	18.6	0.00e+00	0	42	0	0	52	4376
2026-01-28 08:15:53.07	95.17	11.69	-40.2	-42.1	18.6	0.00e+00	0	42	0	0	52	4358
2026-01-28 08:15:54.07	95.03	11.75	-40.3	-42.2	18.5	0.00e+00	0	42	0	0	52	4400
2026-01-28 08:15:55.07	94.90	11.82	-40.1	-42.0	18.8	0.00e+00	0	42	0	0	52	4306
2026-01-28 08:15:56.06	94.76	11.88	-40.2	-42.0	18.8	0.00e+00	0	42	0	0	52	4311
2026-01-28 08:15:57.06	94.63	11.95	-40.2	-42.0	18.7	0.00e+00	0	42	0	0	52	4340
2026-01-28 08:15:58.07	94.49	12.02	-40.1	-41.9	18.8	0.00e+00	0	42	0	0	52	4279
2026-01-28 08:15:59.06	94.35	12.08	-40.1	-41.9	18.9	0.00e+00	0	42	0	0	52	4247
2026-01-28 08:16:00.06	94.21	12.15	-40.1	-41.9	18.8	0.00e+00	0	42	0	0	52	4258
2026-01-28 08:16:01.07	94.07	12.22	-40.0	-41.8	19.0	0.00e+00	0	42	0	0	51	4444
2026-01-28 08:16:02.06	93.93	12.28	-40.1	-41.9	18.9	0.00e+00	0	42	0	0	51	4531
2026-01-28 08:16:03.06	93.79	12.35	-40.2	-42.0	18.8	0.00e+00	0	42	0	0	51	4563
2026-01-28 08:16:04.06	93.65	12.41	-40.2	-42.0	18.7	0.00e+00	0	42	0	0	51	4597
2026-01-28 08:16:05.06	93.51	12.48	-40.2	-42.0	18.7	0.00e+00	0	42	0	0	51	4594
2026-01-28 08:16:06.06	93.37	12.55	-40.2	-42.1	18.7	0.00e+00	0	42	0	0	51	4614
2026-01-28 08:16:07.06	93.23	12.61	-40.3	-42.2	18.7	0.00e+00	0	42	0	0	51	4665
2026-01-28 08:16:08.05	93.08	12.68	-40.3	-42.1	18.7	0.00e+00	0	42	0	0	51	4651
2026-01-28 08:16:09.05	92.94	12.74	-40.4	-42.2	18.6	0.00e+00	0	42	0	0	51	4675
2026-01-28 08:16:10.05	92.80	12.81	-40.4	-42.3	18.6	0.00e+00	0	42	0	0	51	4709
2026-01-28 08:16:11.05	92.65	12.88	-40.3	-42.2	18.7	0.00e+00	0	42	0	0	51	4660
2026-01-28 08:16:12.05	92.50	12.94	-40.3	-42.2	18.7	0.00e+00	0	43	0	0	51	4674
2026-01-28 08:16:13.05	92.36	13.01	-40.3	-42.1	18.7	0.00e+00	0	42	0	0	51	4637
2026-01-28 08:16:14.04	92.21	13.08	-40.3	-42.1	18.8	0.00e+00	0	42	0	0	51	4635
2026-01-28 08:16:15.04	92.06	13.14	-40.4	-42.2	18.7	0.00e+00	0	42	0	0	51	4699
2026-01-28 08:16:16.04	91.91	13.21	-40.3	-42.1	18.8	0.00e+00	0	42	0	0	51	4636
2026-01-28 08:16:17.04	91.76	13.27	-40.3	-42.1	18.8	0.00e+00	0	42	0	0	51	4641
2026-01-28 08:16:18.04	91.61	13.34	-40.3	-42.2	18.8	0.00e+00	0	42	0	0	51	4665
2026-01-28 08:16:19.04	91.46	13.41	-40.3	-42.2	18.8	0.00e+00	0	42	0	0	51	4664
2026-01-28 08:16:20.03	91.31	13.47	-40.3	-42.2	18.8	0.00e+00	0	42	0	0	51	4679
2026-01-28 08:16:21.03	91.16	13.54	-40.4	-42.3	18.7	0.00e+00	0	42	0	0	51	4709
2026-01-28 08:16:22.03	91.01	13.60	-40.2	-42.1	18.9	0.00e+00	0	42	0	0	51	4600
2026-01-28 08:16:23.03	90.86	13.67	-40.2	-42.0	18.9	0.00e+00	0	42	0	0	51	4588
2026-01-28 08:16:24.03	90.70	13.74	-40.2	-42.1	18.9	0.00e+00	0	42	0	0	51	4606
2026-01-28 08:16:25.03	90.55	13.80	-40.2	-42.0	18.9	0.00e+00	0	42	0	0	51	4582
2026-01-28 08:16:26.02	90.39	13.87	-40.1	-41.9	19.0	0.00e+00	0	42	0	0	51	4533
2026-01-28 08:16:27.02	90.24	13.93	-40.2	-42.0	18.9	0.00e+00	0	43	0	0	51	4568
2026-01-28 08:16:28.02	90.08	14.00	-40.3	-42.1	18.8	0.00e+00	0	42	0	0	51	4624
2026-01-28 08:16:29.01	89.92	14.07	-40.3	-42.2	18.8	0.00e+00	0	43	0	0	51	4656
2026-01-28 08:16:30.01	89.76	14.13	-40.3	-42.2	18.7	0.00e+00	0	42	0	0	51	4659
2026-01-28 08:16:31.01	89.60	14.20	-40.3	-42.2	18.7	0.00e+00	0	42	0	0	51	4668
2026-01-28 08:16:32.01	89.45	14.26	-40.3	-42.2	18.8	0.00e+00	0	42	0	0	51	4680
2026-01-28 08:16:33.01	89.28	14.33	-40.2	-42.0	18.9	0.00e+00	0	43	0	0	51	4592
2026-01-28 08:16:34.01	89.12	14.39	-40.2	-42.0	18.9	0.00e+00	0	42	0	0	51	4566
2026-01-28 08:16:35.00	88.96	14.46	-40.3	-42.1	18.8	0.00e+00	0	42	0	0	51	4633
2026-01-28 08:16:36.00	88.80	14.52	-40.3	-42.2	18.7	0.00e+00	0	42	0	0	51	4683
2026-01-28 08:16:37.00	88.64	14.59	-40.2	-42.1	18.8	0.00e+00	0	42	0	0	51	4609
2026-01-28 08:16:38.00	88.47	14.66	-40.3	-42.2	18.7	0.00e+00	0	42	0	0	51	4675
2026-01-28 08:16:39.00	88.31	14.72	-40.3	-42.2	18.7	0.00e+00	0	42	0	0	51	4692
2026-01-28 08:16:39.99	88.14	14.79	-40.3	-42.2	18.7	0.00e+00	0	42	0	0	51	4675
2026-01-28 08:16:40.99	87.98	14.85	-40.3	-42.2	18.7	0.00e+00	0	42	0	0	51	4687
2026-01-28 08:16:41.99	87.81	14.92	-40.2	-42.0	18.9	0.00e+00	0	42	0	0	51	4592
2026-01-28 08:16:42.99	87.64	14.98	-40.1	-42.0	19.0	0.00e+00	0	42	0	0	51	4558
2026-01-28 08:16:43.99	87.47	15.05	-40.1	-41.9	19.0	0.00e+00	0	42	0	0	51	4533
2026-01-28 08:16:44.99	87.30	15.11	-40.1	-42.0	19.0	0.00e+00	0	42	0	0	51	4550
2026-01-28 08:16:45.98	87.14	15.18	-40.1	-41.9	19.0	0.00e+00	0	42	0	0	51	4538
2026-01-28 08:16:46.98	86.97	15.24	-40.2	-42.1	18.9	0.00e+00	0	43	0	0	51	4599
2026-01-28 08:16:47.97	86.80	15.31	-40.0	-41.8	19.1	0.00e+00	0	43	0	0	51	4478
2026-01-28 08:16:48.97	86.62	15.37	-40.2	-42.0	18.9	0.00e+00	0	42	0	0	51	4581
2026-01-28 08:16:49.97	86.45	15.43	-40.3	-42.1	18.8	0.00e+00	0	42	0	0	51	4642
2026-01-28 08:16:50.96	86.28	15.50	-40.2	-42.1	18.8	0.00e+00	0	42	0	0	51	4629
2026-01-28 08:16:51.96	86.10	15.56	-40.1	-42.0	19.0	0.00e+00	0	42	0	0	51	4546
2026-01-28 08:16:52.95	85.93	15.63	-40.2	-42.0	18.9	0.00e+00	0	42	0	0	51	4588
2026-01-28 08:16:53.95	85.75	15.69	-40.1	-42.0	18.9	0.00e+00	0	42	0	0	51	4571
2026-01-28 08:16:54.95	85.58	15.75	-40.1	-42.0	19.0	0.00e+00	0	42	0	0	51	4564
2026-01-28 08:16:55.94	85.40	15.82	-40.2	-42.1	18.8	0.00e+00	0	42	0	0	51	4620
2026-01-28 08:16:56.94	85.22	15.88	-40.3	-42.2	18.8	0.00e+00	0	42	0	0	51	4665
2026-01-28 08:16:57.94	85.04	15.95	-40.3	-42.1	18.8	0.00e+00	0	42	0	0	51	4646
2026-01-28 08:16:58.94	84.86	16.01	-40.4	-42.3	18.7	0.00e+00	0	43	0	0	51	4715
2026-01-28 08:16:59.93	84.68	16.07	-40.4	-42.3	18.6	0.00e+00	0	42	0	0	51	4747
2026-01-28 08:17:00.93	84.50	16.14	-40.4	-42.3	18.6	0.00e+00	0	42	0	0	51	4744
2026-01-28 08:17:01.92	84.32	16.20	-40.4	-42.3	18.7	0.00e+00	0	43	0	0	51	4734
2026-01-28 08:17:02.92	84.14	16.26	-40.3	-42.2	18.8	0.00e+00	0	43	0	0	51	4668
2026-01-28 08:17:03.92	83.96	16.32	-40.3	-42.2	18.8	0.00e+00	0	42	0	0	51	4699
2026-01-28 08:17:04.92	83.77	16.39	-40.4	-42.2	18.8	0.00e+00	0	42	0	0	51	4697
2026-01-28 08:17:05.92	83.59	16.45	-40.2	-42.1	18.9	0.00e+00	0	43	0	0	51	4609
2026-01-28 08:17:06.91	83.40	16.51	-40.1	-42.0	19.0	0.00e+00	0	42	0	0	51	4564
2026-01-28 08:17:07.91	83.21	16.57	-40.3	-42.2	18.8	0.00e+00	0	42	0	0	51	4661
2026-01-28 08:17:08.90	83.03	16.64	-40.3	-42.2	18.8	0.00e+00	0	42	0	0	51	4665
2026-01-28 08:17:09.90	82.84	16.70	-40.4	-42.3	18.7	0.00e+00	0	43	0	0	51	4730
2026-01-28 08:17:10.91	82.65	16.76	-40.5	-42.4	18.7	0.00e+00	0	42	0	0	51	4771
2026-01-28 08:17:11.90	82.46	16.82	-40.3	-42.1	18.9	0.00e+00	0	42	0	0	51	4640
2026-01-28 08:17:12.89	82.27	16.88	-40.3	-42.1	18.8	0.00e+00	0	42	0	0	51	4648
2026-01-28 08:17:13.89	82.08	16.94	-40.2	-42.1	18.9	0.00e+00	0	43	0	0	51	4620
2026-01-28 08:17:14.88	81.89	17.00	-40.3	-42.2	18.8	0.00e+00	0	43	0	0	51	4653
2026-01-28 08:17:15.88	81.70	17.07	-40.4	-42.3	18.7	0.00e+00	0	43	0	0	51	4735
2026-01-28 08:17:16.88	81.50	17.13	-40.3	-42.1	18.8	0.00e+00	0	42	0	0	51	4649
2026-01-28 08:17:17.88	81.31	17.19	-40.2	-42.0	18.9	0.00e+00	0	42	0	0	51	4598
2026-01-28 08:17:18.88	81.11	17.25	-40.2	-42.0	19.0	0.00e+00	0	43	0	0	51	4579
2026-01-28 08:17:19.88	80.92	17.31	-40.2	-42.0	19.0	0.00e+00	0	42	0	0	51	4580
2026-01-28 08:17:20.87	80.72	17.37	-40.2	-42.1	18.9	0.00e+00	0	43	0	0	51	4608
2026-01-28 08:17:21.87	80.52	17.43	-40.3	-42.1	18.8	0.00e+00	0	43	0	0	51	4645
2026-01-28 08:17:22.87	80.33	17.49	-40.3	-42.2	18.8	0.00e+00	0	43	0	0	51	4661
2026-01-28 08:17:23.87	80.13	17.55	-40.2	-42.1	18.9	0.00e+00	0	43	0	0	51	4610
2026-01-28 08:17:24.87	79.93	17.61	-40.3	-42.1	18.8	0.00e+00	0	43	0	0	51	4639
2026-01-28 08:17:25.87	79.72	17.67	-40.3	-42.1	18.9	0.00e+00	0	43	0	0	51	4650
2026-01-28 08:17:26.87	79.52	17.72	-40.3	-42.1	18.9	0.00e+00	0	43	0	0	51	4608
2026-01-28 08:17:27.86	79.32	17.78	-40.2	-42.0	19.0	0.00e+00	0	43	0	0	51	4552
2026-01-28 08:17:28.86	79.12	17.84	-40.2	-42.0	18.9	0.00e+00	0	43	0	0	51	4597
2026-01-28 08:17:29.86	78.91	17.90	-40.2	-42.0	18.9	0.00e+00	0	43	0	0	51	4593
2026-01-28 08:17:30.85	78.71	17.96	-40.2	-42.0	19.0	0.00e+00	0	43	0	0	51	4572
2026-01-28 08:17:31.85	78.51	18.01	-40.1	-41.9	19.1	0.00e+00	0	43	0	0	51	4526
2026-01-28 08:17:32.85	78.30	18.07	-40.1	-41.9	19.1	0.00e+00	0	42	0	0	51	4503
2026-01-28 08:17:33.85	78.09	18.13	-39.8	-41.6	19.4	0.00e+00	0	43	0	0	51	4347
2026-01-28 08:17:34.84	77.89	18.19	-39.9	-41.6	19.3	0.00e+00	0	43	0	0	51	4389
2026-01-28 08:17:35.84	77.68	18.24	-39.8	-41.5	19.4	0.00e+00	0	43	0	0	51	4334
2026-01-28 08:17:36.84	77.47	18.30	-39.7	-41.5	19.4	0.00e+00	0	43	0	0	51	4308
2026-01-28 08:17:37.84	77.26	18.35	-39.5	-41.3	19.7	0.00e+00	0	43	0	0	51	4204
2026-01-28 08:17:38.83	77.05	18.41	-39.4	-41.1	19.8	0.00e+00	0	43	0	0	50	4379
2026-01-28 08:17:39.83	76.84	18.47	-39.5	-41.2	19.7	0.00e+00	0	43	0	0	50	4409
2026-01-28 08:17:40.83	76.62	18.52	-39.3	-41.0	19.9	0.00e+00	0	43	0	0	50	4339
2026-01-28 08:17:41.83	76.41	18.58	-39.3	-41.0	19.9	0.00e+00	0	43	0	0	50	4332
2026-01-28 08:17:42.82	76.20	18.63	-39.4	-41.1	19.9	0.00e+00	0	42	0	0	50	4345
2026-01-28 08:17:43.82	75.98	18.68	-39.4	-41.1	19.9	0.00e+00	0	43	0	0	50	4346
2026-01-28 08:17:44.82	75.77	18.74	-39.5	-41.2	19.7	0.00e+00	0	43	0	0	50	4410
2026-01-28 08:17:45.81	75.55	18.79	-39.4	-41.1	19.7	0.00e+00	0	43	0	0	50	4382
2026-01-28 08:17:46.81	75.33	18.85	-39.5	-41.2	19.7	0.00e+00	0	43	0	0	50	4410
2026-01-28 08:17:47.81	75.12	18.90	-39.6	-41.3	19.6	0.00e+00	0	43	0	0	50	4458
2026-01-28 08:17:48.80	74.90	18.95	-39.4	-41.1	19.8	0.00e+00	0	43	0	0	50	4381
2026-01-28 08:17:49.80	74.68	19.00	-39.5	-41.2	19.7	0.00e+00	0	43	0	0	50	4412
2026-01-28 08:17:50.80	74.46	19.06	-39.4	-41.1	19.8	0.00e+00	0	43	0	0	50	4367
2026-01-28 08:17:51.80	74.24	19.11	-39.4	-41.1	19.8	0.00e+00	0	43	0	0	50	4383
2026-01-28 08:17:52.80	74.02	19.16	-39.4	-41.2	19.8	0.00e+00	0	43	0	0	50	4398
2026-01-28 08:17:53.80	73.79	19.21	-39.6	-41.3	19.6	0.00e+00	0	43	0	0	50	4462
2026-01-28 08:17:54.79	73.57	19.26	-39.6	-41.3	19.7	0.00e+00	0	43	0	0	50	4465
2026-01-28 08:17:55.79	73.35	19.31	-39.5	-41.3	19.7	0.00e+00	0	43	0	0	50	4450
2026-01-28 08:17:56.79	73.12	19.36	-39.5	-41.2	19.8	0.00e+00	0	43	0	0	50	4418
2026-01-28 08:17:57.78	72.90	19.41	-39.5	-41.2	19.8	0.00e+00	0	43	0	0	50	4425
2026-01-28 08:17:58.78	72.67	19.46	-39.4	-41.1	19.9	0.00e+00	0	43	0	0	50	4355
2026-01-28 08:17:59.77	72.45	19.51	-39.4	-41.1	19.8	0.00e+00	0	43	0	0	50	4377
2026-01-28 08:18:00.77	72.22	19.56	-39.4	-41.1	19.8	0.00e+00	0	43	0	0	50	4369
2026-01-28 08:18:01.77	71.99	19.61	-39.3	-41.0	20.0	0.00e+00	0	43	0	0	50	4329
2026-01-28 08:18:02.77	71.76	19.65	-39.3	-41.0	20.0	0.00e+00	0	43	0	0	50	4294
2026-01-28 08:18:03.76	71.54	19.70	-39.2	-40.9	20.0	0.00e+00	0	43	0	0	50	4271
2026-01-28 08:18:04.76	71.30	19.75	-39.2	-40.9	19.9	0.00e+00	0	43	0	0	50	4289
2026-01-28 08:18:05.76	71.07	19.80	-39.2	-40.9	20.0	0.00e+00	0	43	0	0	50	4276
2026-01-28 08:18:06.75	70.84	19.84	-39.3	-41.0	19.9	0.00e+00	0	43	0	0	50	4307
2026-01-28 08:18:07.75	70.61	19.89	-39.4	-41.1	19.8	0.00e+00	0	43	0	0	50	4365
2026-01-28 08:18:08.74	70.38	19.93	-39.4	-41.1	19.8	0.00e+00	0	43	0	0	50	4389
2026-01-28 08:18:09.75	70.14	19.98	-39.3	-40.9	20.0	0.00e+00	0	43	0	0	50	4290
2026-01-28 08:18:10.75	69.91	20.02	-39.2	-40.9	19.9	0.00e+00	0	43	0	0	50	4279
2026-01-28 08:18:11.75	69.67	20.07	-39.3	-41.0	19.8	0.00e+00	0	43	0	0	50	4328
2026-01-28 08:18:12.75	69.44	20.11	-39.3	-41.0	19.9	0.00e+00	0	43	0	0	50	4322
2026-01-28 08:18:13.75	69.20	20.15	-39.3	-41.0	19.9	0.00e+00	0	43	0	0	50	4322
2026-01-28 08:18:14.75	68.96	20.20	-39.2	-40.9	20.0	0.00e+00	0	43	0	0	50	4266
2026-01-28 08:18:15.75	68.72	20.24	-39.2	-40.9	20.0	0.00e+00	0	43	0	0	50	4274
2026-01-28 08:18:16.75	68.48	20.28	-39.3	-41.0	19.9	0.00e+00	0	43	0	0	50	4307
2026-01-28 08:18:17.74	68.25	20.32	-39.2	-40.9	20.0	0.00e+00	0	43	0	0	50	4263
2026-01-28 08:18:18.74	68.01	20.36	-39.2	-40.9	20.1	0.00e+00	0	43	0	0	50	4245
2026-01-28 08:18:19.74	67.77	20.40	-39.1	-40.8	20.2	0.00e+00	0	43	0	0	50	4200
2026-01-28 08:18:20.74	67.52	20.45	-39.1	-40.8	20.2	0.00e+00	0	43	0	0	50	4203
2026-01-28 08:18:21.74	67.28	20.48	-39.1	-40.8	20.2	0.00e+00	0	43	0	0	50	4215
2026-01-28 08:18:22.74	67.04	20.52	-39.1	-40.8	20.1	0.00e+00	0	43	0	0	50	4232
2026-01-28 08:18:23.74	66.80	20.56	-39.0	-40.7	20.2	0.00e+00	0	43	0	0	50	4175
2026-01-28 08:18:24.74	66.55	20.60	-39.1	-40.8	20.2	0.00e+00	0	43	0	0	50	4205
2026-01-28 08:18:25.73	66.31	20.64	-39.2	-40.9	20.1	0.00e+00	0	43	0	0	50	4249
2026-01-28 08:18:26.73	66.06	20.68	-39.1	-40.8	20.1	0.00e+00	0	43	0	0	50	4214
2026-01-28 08:18:27.73	65.82	20.71	-39.2	-40.9	20.0	0.00e+00	0	43	0	0	50	4263
2026-01-28 08:18:28.72	65.58	20.75	-39.3	-41.0	19.9	0.00e+00	0	43	0	0	50	4317
2026-01-28 08:18:29.72	65.33	20.78	-39.2	-40.9	20.0	0.00e+00	0	43	0	0	50	4287
2026-01-28 08:18:30.73	65.08	20.82	-39.3	-41.0	19.9	0.00e+00	0	43	0	0	50	4310
2026-01-28 08:18:31.72	64.83	20.85	-39.3	-41.0	19.9	0.00e+00	0	43	0	0	50	4331
2026-01-28 08:18:32.72	64.58	20.89	-39.4	-41.1	19.9	0.00e+00	0	43	0	0	50	4343
2026-01-28 08:18:33.72	64.34	20.92	-39.5	-41.2	19.8	0.00e+00	0	43	0	0	50	4403
2026-01-28 08:18:34.72	64.09	20.96	-39.3	-41.0	19.9	0.00e+00	0	43	0	0	50	4326
2026-01-28 08:18:35.72	63.84	20.99	-39.5	-41.2	19.8	0.00e+00	0	43	0	0	50	4408
2026-01-28 08:18:36.72	63.58	21.02	-39.6	-41.3	19.7	0.00e+00	0	43	0	0	50	4469
2026-01-28 08:18:37.71	63.34	21.05	-39.5	-41.2	19.8	0.00e+00	0	43	0	0	50	4429
2026-01-28 08:18:38.69	63.09	21.08	-39.5	-41.2	19.8	0.00e+00	0	43	0	0	50	4440
2026-01-28 08:18:39.69	62.84	21.11	-39.4	-41.1	19.8	0.00e+00	0	43	0	0	50	4384
2026-01-28 08:18:40.69	62.58	21.14	-39.5	-41.2	19.8	0.00e+00	0	43	0	0	50	4408
2026-01-28 08:18:41.68	62.33	21.17	-39.4	-41.1	19.9	0.00e+00	0	43	0	0	50	4369
2026-01-28 08:18:42.68	62.08	21.20	-39.4	-41.1	19.9	0.00e+00	0	42	0	0	50	4379
2026-01-28 08:18:43.68	61.83	21.23	-39.3	-41.0	20.0	0.00e+00	0	43	0	0	50	4311
2026-01-28 08:18:44.67	61.57	21.26	-39.5	-41.2	19.8	0.00e+00	0	43	0	0	50	4402
2026-01-28 08:18:45.67	61.32	21.28	-39.3	-41.0	20.0	0.00e+00	0	43	0	0	50	4301
2026-01-28 08:18:46.67	61.06	21.31	-39.2	-40.9	20.1	0.00e+00	0	43	0	0	50	4252
2026-01-28 08:18:47.67	60.81	21.34	-39.3	-41.0	20.0	0.00e+00	0	43	0	0	50	4295
2026-01-28 08:18:48.67	60.55	21.36	-39.2	-40.9	20.1	0.00e+00	0	43	0	0	50	4247
2026-01-28 08:18:49.67	60.29	21.39	-39.2	-40.9	20.1	0.00e+00	0	43	0	0	50	4251
2026-01-28 08:18:50.66	60.04	21.41	-39.2	-41.0	20.0	0.00e+00	0	43	0	0	50	4303
2026-01-28 08:18:51.66	59.78	21.43	-39.2	-40.9	20.0	0.00e+00	0	43	0	0	50	4288
2026-01-28 08:18:52.65	59.53	21.46	-39.3	-41.0	19.9	0.00e+00	0	43	0	0	50	4321
2026-01-28 08:18:53.65	59.27	21.48	-39.3	-41.0	19.9	0.00e+00	0	43	0	0	50	4322
2026-01-28 08:18:54.65	59.01	21.50	-39.3	-41.0	20.0	0.00e+00	0	43	0	0	50	4303
2026-01-28 08:18:55.65	58.75	21.52	-39.2	-40.8	20.1	0.00e+00	0	43	0	0	50	4233
2026-01-28 08:18:56.65	58.49	21.54	-39.1	-40.8	20.1	0.00e+00	0	43	0	0	50	4209
2026-01-28 08:18:57.65	58.23	21.56	-39.1	-40.8	20.2	0.00e+00	0	43	0	0	50	4203
2026-01-28 08:18:58.65	57.97	21.58	-39.2	-40.9	20.1	0.00e+00	0	43	0	0	50	4249
2026-01-28 08:18:59.64	57.71	21.60	-39.3	-41.0	20.0	0.00e+00	0	43	0	0	50	4315
2026-01-28 08:19:00.64	57.45	21.62	-39.3	-41.1	20.0	0.00e+00	0	43	0	0	50	4342
2026-01-28 08:19:01.64	57.19	21.64	-39.3	-41.0	20.0	0.00e+00	0	43	0	0	50	4321
2026-01-28 08:19:02.64	56.93	21.65	-39.3	-41.0	20.0	0.00e+00	0	43	0	0	50	4332
2026-01-28 08:19:03.64	56.67	21.67	-39.3	-41.0	20.0	0.00e+00	0	43	0	0	50	4309
2026-01-28 08:19:04.63	56.41	21.69	-39.3	-41.0	20.0	0.00e+00	0	43	0	0	50	4335
2026-01-28 08:19:05.63	56.15	21.70	-39.3	-41.0	20.0	0.00e+00	0	43	0	0	50	4326
2026-01-28 08:19:06.63	55.88	21.72	-39.2	-40.9	20.1	0.00e+00	0	43	0	0	50	4271
2026-01-28 08:19:07.62	55.62	21.73	-39.2	-40.8	20.1	0.00e+00	0	43	0	0	50	4237
2026-01-28 08:19:08.62	55.36	21.74	-39.1	-40.8	20.1	0.00e+00	0	43	0	0	50	4219
2026-01-28 08:19:09.62	55.10	21.76	-39.2	-40.8	20.1	0.00e+00	0	43	0	0	50	4230
2026-01-28 08:19:10.61	54.84	21.77	-39.1	-40.8	20.2	0.00e+00	0	43	0	0	50	4205
2026-01-28 08:19:11.61	54.57	21.78	-39.2	-40.9	20.0	0.00e+00	0	43	0	0	50	4270
2026-01-28 08:19:12.60	54.31	21.79	-39.3	-41.0	20.0	0.00e+00	0	43	0	0	50	4307
2026-01-28 08:19:13.60	54.05	21.80	-39.4	-41.1	19.9	0.00e+00	0	43	0	0	50	4355
2026-01-28 08:19:14.59	53.79	21.81	-39.5	-41.2	19.8	0.00e+00	0	43	0	0	50	4410
2026-01-28 08:19:15.59	53.52	21.82	-39.5	-41.2	19.8	0.00e+00	0	43	0	0	50	4426
2026-01-28 08:19:16.59	53.26	21.83	-39.5	-41.2	19.8	0.00e+00	0	43	0	0	50	4439
2026-01-28 08:19:17.59	52.99	21.83	-39.4	-41.2	19.8	0.00e+00	0	43	0	0	50	4394
2026-01-28 08:19:18.59	52.73	21.84	-39.4	-41.1	19.9	0.00e+00	0	43	0	0	50	4366
2026-01-28 08:19:19.59	52.47	21.85	-39.5	-41.2	19.8	0.00e+00	0	43	0	0	50	4418
2026-01-28 08:19:20.59	52.20	21.85	-39.4	-41.1	19.8	0.00e+00	0	43	0	0	50	4378
2026-01-28 08:19:21.59	51.94	21.86	-39.3	-41.0	19.9	0.00e+00	0	43	0	0	50	4324
2026-01-28 08:19:22.58	51.67	21.86	-39.4	-41.1	19.9	0.00e+00	0	43	0	0	50	4371
2026-01-28 08:19:23.58	51.41	21.87	-39.6	-41.3	19.7	0.00e+00	0	43	0	0	50	4466
2026-01-28 08:19:24.58	51.14	21.87	-39.2	-40.9	20.0	0.00e+00	0	43	0	0	50	4256
2026-01-28 08:19:25.57	50.88	21.87	-39.2	-40.9	20.0	0.00e+00	0	43	0	0	50	4276
2026-01-28 08:19:26.57	50.62	21.87	-39.4	-41.1	19.8	0.00e+00	0	43	0	0	50	4364
2026-01-28 08:19:27.57	50.35	21.87	-39.4	-41.2	19.8	0.00e+00	0	43	0	0	50	4397
2026-01-28 08:19:28.58	50.08	21.87	-39.5	-41.2	19.8	0.00e+00	0	43	0	0	50	4404
2026-01-28 08:19:29.58	49.82	21.87	-39.4	-41.1	19.8	0.00e+00	0	43	0	0	50	4386
2026-01-28 08:19:30.58	49.55	21.87	-39.5	-41.2	19.8	0.00e+00	0	43	0	0	50	4402
2026-01-28 08:19:31.57	49.29	21.87	-39.4	-41.1	19.8	0.00e+00	0	43	0	0	50	4369
2026-01-28 08:19:32.57	49.03	21.87	-39.4	-41.1	19.8	0.00e+00	0	43	0	0	50	4375
2026-01-28 08:19:33.57	48.76	21.87	-39.4	-41.2	19.8	0.00e+00	0	43	0	0	50	4406
2026-01-28 08:19:34.57	48.50	21.86	-39.6	-41.3	19.7	0.00e+00	0	43	0	0	50	4462
2026-01-28 08:19:35.56	48.23	21.86	-39.6	-41.4	19.6	0.00e+00	0	43	0	0	50	4505
2026-01-28 08:19:36.56	47.97	21.85	-39.8	-41.5	19.5	0.00e+00	0	43	0	0	50	4590
2026-01-28 08:19:37.55	47.71	21.85	-39.7	-41.5	19.6	0.00e+00	0	43	0	0	50	4547
2026-01-28 08:19:38.56	47.44	21.84	-39.7	-41.4	19.6	0.00e+00	0	43	0	0	50	4526
2026-01-28 08:19:39.55	47.18	21.83	-39.6	-41.4	19.7	0.00e+00	0	43	0	0	50	4513
2026-01-28 08:19:40.55	46.91	21.83	-39.5	-41.3	19.8	0.00e+00	0	43	0	0	50	4443
2026-01-28 08:19:41.55	46.65	21.82	-39.4	-41.1	19.9	0.00e+00	0	43	0	0	50	4384
2026-01-28 08:19:42.55	46.39	21.81	-39.4	-41.1	19.9	0.00e+00	0	43	0	0	50	4361
2026-01-28 08:19:43.54	46.12	21.80	-39.5	-41.2	19.8	0.00e+00	0	43	0	0	50	4404
2026-01-28 08:19:44.54	45.86	21.79	-39.5	-41.2	19.8	0.00e+00	0	43	0	0	50	4420
2026-01-28 08:19:45.54	45.60	21.78	-39.4	-41.1	19.9	0.00e+00	0	43	0	0	50	4365
2026-01-28 08:19:46.53	45.34	21.77	-39.3	-41.0	20.0	0.00e+00	0	43	0	0	50	4306
2026-01-28 08:19:47.53	45.07	21.76	-39.2	-40.8	20.1	0.00e+00	0	43	0	0	50	4241
2026-01-28 08:19:48.53	44.81	21.74	-39.2	-40.9	20.1	0.00e+00	0	43	0	0	50	4247
2026-01-28 08:19:49.52	44.55	21.73	-39.3	-41.0	20.0	0.00e+00	0	43	0	0	50	4303
2026-01-28 08:19:50.52	44.29	21.72	-39.3	-41.0	20.0	0.00e+00	0	43	0	0	50	4298
2026-01-28 08:19:51.52	44.03	21.70	-39.3	-41.0	20.0	0.00e+00	0	43	0	0	50	4297
2026-01-28 08:19:52.52	43.76	21.69	-39.5	-41.2	19.8	0.00e+00	0	43	0	0	50	4406
2026-01-28 08:19:53.52	43.50	21.67	-39.5	-41.2	19.7	0.00e+00	0	43	0	0	50	4441
2026-01-28 08:19:54.52	43.24	21.66	-39.6	-41.3	19.7	0.00e+00	0	43	0	0	50	4443
2026-01-28 08:19:55.52	42.98	21.64	-39.6	-41.4	19.7	0.00e+00	0	43	0	0	50	4501
2026-01-28 08:19:56.52	42.72	21.62	-39.4	-41.1	19.9	0.00e+00	0	43	0	0	50	4353
2026-01-28 08:19:57.52	42.46	21.60	-39.3	-41.0	19.9	0.00e+00	0	43	0	0	50	4326
2026-01-28 08:19:58.52	42.20	21.58	-39.3	-41.0	19.9	0.00e+00	0	43	0	0	50	4308
2026-01-28 08:19:59.52	41.94	21.56	-39.3	-41.0	20.0	0.00e+00	0	43	0	0	50	4294
2026-01-28 08:20:00.52	41.68	21.54	-39.4	-41.0	19.9	0.00e+00	0	43	0	0	50	4338
2026-01-28 08:20:01.51	41.42	21.52	-39.3	-41.0	19.9	0.00e+00	0	43	0	0	50	4309
2026-01-28 08:20:02.51	41.16	21.50	-39.3	-41.0	19.9	0.00e+00	0	43	0	0	50	4298
2026-01-28 08:20:03.51	40.91	21.48	-39.3	-40.9	20.0	0.00e+00	0	43	0	0	50	4282
2026-01-28 08:20:04.51	40.65	21.46	-39.1	-40.7	20.1	0.00e+00	0	43	0	0	50	4185
2026-01-28 08:20:05.50	40.39	21.44	-39.2	-40.9	20.0	0.00e+00	0	43	0	0	50	4264
2026-01-28 08:20:06.50	40.14	21.41	-39.2	-40.9	20.0	0.00e+00	0	43	0	0	50	4265
2026-01-28 08:20:07.50	39.88	21.39	-39.3	-41.0	19.9	0.00e+00	0	43	0	0	50	4301
2026-01-28 08:20:08.50	39.62	21.36	-39.4	-41.1	19.8	0.00e+00	0	43	0	0	50	4357
2026-01-28 08:20:09.49	39.37	21.34	-39.5	-41.2	19.7	0.00e+00	0	43	0	0	50	4412
2026-01-28 08:20:10.49	39.11	21.31	-39.6	-41.3	19.7	0.00e+00	0	43	0	0	50	4460
2026-01-28 08:20:11.49	38.86	21.29	-39.7	-41.4	19.6	0.00e+00	0	43	0	0	50	4509
2026-01-28 08:20:12.49	38.60	21.26	-39.6	-41.3	19.6	0.00e+00	0	43	0	0	50	4475
2026-01-28 08:20:13.49	38.35	21.23	-39.6	-41.3	19.7	0.00e+00	0	43	0	0	50	4454
2026-01-28 08:20:14.49	38.10	21.20	-39.7	-41.4	19.6	0.00e+00	0	43	0	0	50	4512
2026-01-28 08:20:15.50	37.84	21.17	-39.6	-41.3	19.7	0.00e+00	0	43	0	0	50	4487
2026-01-28 08:20:16.50	37.59	21.14	-39.6	-41.3	19.7	0.00e+00	0	43	0	0	50	4467
2026-01-28 08:20:17.50	37.33	21.11	-39.6	-41.3	19.6	0.00e+00	0	43	0	0	50	4483
2026-01-28 08:20:18.49	37.09	21.08	-39.6	-41.3	19.6	0.00e+00	0	43	0	0	50	4470
2026-01-28 08:20:19.49	36.83	21.05	-39.7	-41.4	19.5	0.00e+00	0	43	0	0	50	4525
2026-01-28 08:20:20.49	36.58	21.02	-39.7	-41.4	19.5	0.00e+00	0	43	0	0	50	4540
2026-01-28 08:20:21.49	36.33	20.99	-39.7	-41.5	19.5	0.00e+00	0	43	0	0	50	4550
2026-01-28 08:20:22.49	36.08	20.96	-39.5	-41.3	19.7	0.00e+00	0	43	0	0	50	4451
2026-01-28 08:20:23.49	35.83	20.92	-39.6	-41.3	19.7	0.00e+00	0	43	0	0	50	4467
2026-01-28 08:20:24.49	35.59	20.89	-39.6	-41.3	19.7	0.00e+00	0	43	0	0	50	4476
2026-01-28 08:20:25.49	35.34	20.86	-39.6	-41.4	19.5	0.00e+00	0	43	0	0	50	4519
2026-01-28 08:20:26.49	35.09	20.82	-39.5	-41.2	19.7	0.00e+00	0	43	0	0	50	4429
2026-01-28 08:20:27.48	34.85	20.79	-39.5	-41.2	19.8	0.00e+00	0	43	0	0	50	4437
2026-01-28 08:20:28.48	34.60	20.75	-39.5	-41.2	19.7	0.00e+00	0	43	0	0	50	4428
2026-01-28 08:20:29.48	34.35	20.71	-39.4	-41.1	19.8	0.00e+00	0	43	0	0	50	4382
2026-01-28 08:20:30.47	34.11	20.68	-39.5	-41.2	19.7	0.00e+00	0	43	0	0	50	4416
2026-01-28 08:20:31.47	33.87	20.64	-39.5	-41.3	19.7	0.00e+00	0	43	0	0	50	4461
2026-01-28 08:20:32.47	33.62	20.60	-39.6	-41.4	19.6	0.00e+00	0	43	0	0	50	4497
2026-01-28 08:20:33.46	33.38	20.57	-39.6	-41.4	19.6	0.00e+00	0	43	0	0	50	4526
2026-01-28 08:20:34.46	33.14	20.53	-39.7	-41.5	19.5	0.00e+00	0	43	0	0	50	4584
2026-01-28 08:20:35.46	32.90	20.49	-39.7	-41.5	19.6	0.00e+00	0	43	0	0	50	4558
2026-01-28 08:20:36.46	32.65	20.45	-39.6	-41.4	19.7	0.00e+00	0	43	0	0	50	4515
2026-01-28 08:20:37.45	32.42	20.41	-39.7	-41.4	19.6	0.00e+00	0	43	0	0	50	4543
2026-01-28 08:20:38.45	32.18	20.37	-39.7	-41.4	19.6	0.00e+00	0	43	0	0	50	4544
2026-01-28 08:20:39.45	31.94	20.33	-39.8	-41.5	19.5	0.00e+00	0	43	0	0	50	4591
2026-01-28 08:20:40.45	31.70	20.29	-39.7	-41.5	19.6	0.00e+00	0	43	0	0	50	4563
2026-01-28 08:20:41.45	31.46	20.24	-39.8	-41.5	19.6	0.00e+00	0	43	0	0	50	4586
2026-01-28 08:20:42.45	31.22	20.20	-39.5	-41.2	19.9	0.00e+00	0	43	0	0	50	4416
2026-01-28 08:20:43.44	30.99	20.16	-39.4	-41.1	20.0	0.00e+00	0	43	0	0	50	4353
2026-01-28 08:20:44.44	30.75	20.11	-39.5	-41.2	19.9	0.00e+00	0	43	0	0	50	4399
2026-01-28 08:20:45.44	30.51	20.07	-39.4	-41.1	19.9	0.00e+00	0	43	0	0	50	4357
2026-01-28 08:20:46.43	30.28	20.03	-39.3	-41.0	20.0	0.00e+00	0	43	0	0	50	4332
2026-01-28 08:20:47.43	30.05	19.98	-39.4	-41.1	20.0	0.00e+00	0	43	0	0	50	4356
2026-01-28 08:20:48.43	29.81	19.94	-39.5	-41.2	19.8	0.00e+00	0	43	0	0	50	4407
2026-01-28 08:20:49.43	29.58	19.89	-39.4	-41.1	19.9	0.00e+00	0	43	0	0	50	4381
2026-01-28 08:20:50.43	29.35	19.85	-39.6	-41.4	19.7	0.00e+00	0	43	0	0	50	4511
2026-01-28 08:20:51.43	29.12	19.80	-39.7	-41.5	19.6	0.00e+00	0	43	0	0	50	4561
2026-01-28 08:20:52.43	28.89	19.75	-39.8	-41.6	19.6	0.00e+00	0	43	0	0	50	4605
2026-01-28 08:20:53.42	28.66	19.71	-39.9	-41.7	19.5	0.00e+00	0	43	0	0	50	4677
2026-01-28 08:20:54.42	28.43	19.66	-40.0	-41.8	19.4	0.00e+00	0	43	0	0	50	4729
2026-01-28 08:20:55.42	28.20	19.61	-40.1	-41.9	19.3	0.00e+00	0	43	0	0	50	4782
2026-01-28 08:20:56.42	27.97	19.56	-40.1	-41.9	19.4	0.00e+00	0	43	0	0	50	4761
2026-01-28 08:20:57.42	27.75	19.52	-40.0	-41.8	19.3	0.00e+00	0	43	0	0	50	4743
2026-01-28 08:20:58.42	27.52	19.47	-39.9	-41.7	19.4	0.00e+00	0	43	0	0	50	4700
2026-01-28 08:20:59.41	27.30	19.42	-39.7	-41.5	19.6	0.00e+00	0	43	0	0	50	4585
2026-01-28 08:21:00.41	27.07	19.37	-39.8	-41.6	19.5	0.00e+00	0	43	0	0	50	4609
2026-01-28 08:21:01.41	26.85	19.32	-39.5	-41.3	19.7	0.00e+00	0	43	0	0	50	4471
2026-01-28 08:21:02.41	26.62	19.27	-39.6	-41.4	19.7	0.00e+00	0	43	0	0	50	4507
2026-01-28 08:21:03.41	26.40	19.22	-39.6	-41.4	19.7	0.00e+00	0	43	0	0	50	4507
2026-01-28 08:21:04.41	26.18	19.17	-39.7	-41.6	19.5	0.00e+00	0	43	0	0	50	4613
2026-01-28 08:21:05.41	25.96	19.11	-39.9	-41.7	19.4	0.00e+00	0	43	0	0	50	4695
2026-01-28 08:21:06.41	25.74	19.06	-40.0	-41.9	19.3	0.00e+00	0	43	0	0	50	4769
2026-01-28 08:21:07.40	25.52	19.01	-40.1	-42.0	19.1	0.00e+00	0	43	0	0	50	4857
2026-01-28 08:21:08.40	25.30	18.96	-40.2	-42.1	19.0	0.00e+00	0	43	0	0	51	4627
2026-01-28 08:21:09.41	25.08	18.91	-40.1	-42.0	19.1	0.00e+00	0	43	0	0	51	4579
2026-01-28 08:21:10.40	24.87	18.85	-40.0	-41.9	19.2	0.00e+00	0	43	0	0	51	4498
2026-01-28 08:21:11.40	24.65	18.80	-39.9	-41.8	19.3	0.00e+00	0	43	0	0	51	4446
2026-01-28 08:21:12.39	24.44	18.75	-39.8	-41.6	19.4	0.00e+00	0	43	0	0	51	4345
2026-01-28 08:21:13.39	24.22	18.69	-39.8	-41.6	19.4	0.00e+00	0	43	0	0	51	4376
2026-01-28 08:21:14.39	24.01	18.64	-39.8	-41.6	19.4	0.00e+00	0	43	0	0	51	4385
2026-01-28 08:21:15.39	23.79	18.58	-39.8	-41.6	19.5	0.00e+00	0	43	0	0	51	4359
2026-01-28 08:21:16.38	23.58	18.53	-39.8	-41.6	19.5	0.00e+00	0	43	0	0	51	4362
2026-01-28 08:21:17.39	23.37	18.47	-39.8	-41.5	19.5	0.00e+00	0	43	0	0	51	4339
2026-01-28 08:21:18.39	23.16	18.42	-39.8	-41.5	19.5	0.00e+00	0	43	0	0	51	4336
2026-01-28 08:21:19.38	22.95	18.36	-39.8	-41.6	19.5	0.00e+00	0	43	0	0	51	4374
2026-01-28 08:21:20.38	22.74	18.31	-39.8	-41.6	19.5	0.00e+00	0	43	0	0	51	4367
2026-01-28 08:21:21.38	22.53	18.25	-39.6	-41.4	19.7	0.00e+00	0	43	0	0	51	4263
2026-01-28 08:21:22.37	22.33	18.19	-39.5	-41.2	19.8	0.00e+00	0	43	0	0	50	4433
2026-01-28 08:21:23.37	22.12	18.14	-39.6	-41.4	19.7	0.00e+00	0	43	0	0	50	4505
2026-01-28 08:21:24.37	21.91	18.08	-39.7	-41.5	19.6	0.00e+00	0	43	0	0	50	4547
2026-01-28 08:21:25.37	21.71	18.02	-39.8	-41.6	19.5	0.00e+00	0	43	0	0	50	4606
2026-01-28 08:21:26.36	21.50	17.97	-40.0	-41.8	19.2	0.00e+00	0	43	0	0	50	4733
2026-01-28 08:21:27.36	21.30	17.91	-40.0	-41.8	19.3	0.00e+00	0	43	0	0	50	4741
2026-01-28 08:21:28.36	21.10	17.85	-40.0	-41.8	19.2	0.00e+00	0	43	0	0	50	4754
2026-01-28 08:21:29.36	20.89	17.79	-39.9	-41.7	19.3	0.00e+00	0	43	0	0	50	4691
2026-01-28 08:21:30.36	20.69	17.73	-39.9	-41.7	19.3	0.00e+00	0	43	0	0	50	4672
2026-01-28 08:21:31.35	20.49	17.68	-39.8	-41.6	19.4	0.00e+00	0	43	0	0	50	4633
2026-01-28 08:21:32.35	20.29	17.62	-39.8	-41.6	19.4	0.00e+00	0	43	0	0	50	4613
2026-01-28 08:21:33.35	20.09	17.56	-39.7	-41.5	19.5	0.00e+00	0	43	0	0	50	4566
2026-01-28 08:21:34.35	19.89	17.50	-39.7	-41.5	19.5	0.00e+00	0	43	0	0	50	4570
2026-01-28 08:21:35.35	19.70	17.44	-39.7	-41.5	19.6	0.00e+00	0	43	0	0	50	4554
2026-01-28 08:21:36.34	19.50	17.38	-39.7	-41.5	19.6	0.00e+00	0	43	0	0	50	4550
2026-01-28 08:21:37.34	19.31	17.32	-39.8	-41.6	19.5	0.00e+00	0	43	0	0	50	4605
2026-01-28 08:21:38.34	19.11	17.26	-39.8	-41.6	19.4	0.00e+00	0	43	0	0	50	4608
2026-01-28 08:21:39.34	18.92	17.20	-39.9	-41.7	19.3	0.00e+00	0	43	0	0	50	4679
2026-01-28 08:21:40.33	18.72	17.14	-39.8	-41.7	19.3	0.00e+00	0	43	0	0	50	4666
2026-01-28 08:21:41.33	18.53	17.08	-39.8	-41.7	19.3	0.00e+00	0	43	0	0	50	4668
2026-01-28 08:21:42.33	18.34	17.02	-39.9	-41.8	19.2	0.00e+00	0	43	0	0	50	4727
2026-01-28 08:21:43.33	18.15	16.96	-39.9	-41.8	19.2	0.00e+00	0	43	0	0	50	4732
2026-01-28 08:21:44.33	17.96	16.90	-40.0	-41.9	19.1	0.00e+00	0	43	0	0	50	4777
2026-01-28 08:21:45.33	17.77	16.83	-40.1	-42.0	19.1	0.00e+00	0	43	0	0	51	4556
2026-01-28 08:21:46.33	17.58	16.77	-40.1	-42.0	19.1	0.00e+00	0	43	0	0	51	4555
2026-01-28 08:21:47.33	17.39	16.71	-40.2	-42.1	19.0	0.00e+00	0	43	0	0	51	4611
2026-01-28 08:21:48.33	17.20	16.65	-40.3	-42.1	19.0	0.00e+00	0	43	0	0	51	4648
2026-01-28 08:21:49.32	17.02	16.59	-40.3	-42.1	19.0	0.00e+00	0	43	0	0	51	4628
2026-01-28 08:21:50.32	16.83	16.53	-40.4	-42.2	18.9	0.00e+00	0	43	0	0	51	4673
2026-01-28 08:21:51.32	16.65	16.46	-40.2	-42.0	19.1	0.00e+00	0	43	0	0	51	4584
2026-01-28 08:21:52.32	16.46	16.40	-40.3	-42.1	19.0	0.00e+00	0	43	0	0	51	4622
2026-01-28 08:21:53.32	16.28	16.34	-40.2	-42.0	19.1	0.00e+00	0	43	0	0	51	4555
2026-01-28 08:21:54.32	16.10	16.28	-40.0	-41.8	19.3	0.00e+00	0	43	0	0	51	4476
2026-01-28 08:21:55.32	15.91	16.21	-40.0	-41.8	19.2	0.00e+00	0	43	0	0	51	4485
2026-01-28 08:21:56.31	15.73	16.15	-40.0	-41.9	19.2	0.00e+00	0	43	0	0	51	4512
2026-01-28 08:21:57.31	15.55	16.09	-40.1	-42.0	19.1	0.00e+00	0	43	0	0	51	4576
2026-01-28 08:21:58.31	15.37	16.02	-40.2	-42.2	18.9	0.00e+00	0	43	0	0	51	4657
2026-01-28 08:21:59.31	15.19	15.96	-40.2	-42.2	18.9	0.00e+00	0	43	0	0	51	4679
2026-01-28 08:22:00.30	15.02	15.90	-40.2	-42.2	18.8	0.00e+00	0	43	0	0	51	4699
2026-01-28 08:22:01.30	14.84	15.83	-40.2	-42.3	18.8	0.00e+00	0	43	0	0	51	4707
2026-01-28 08:22:02.30	14.66	15.77	-40.2	-42.2	18.8	0.00e+00	0	43	0	0	51	4703
2026-01-28 08:22:03.30	14.49	15.71	-40.2	-42.2	18.8	0.00e+00	0	43	0	0	51	4698
2026-01-28 08:22:04.30	14.31	15.64	-40.1	-42.2	18.8	0.00e+00	0	43	0	0	51	4660
2026-01-28 08:22:05.29	14.14	15.58	-40.0	-41.9	19.0	0.00e+00	0	43	0	0	51	4539
2026-01-28 08:22:06.30	13.97	15.51	-40.0	-41.9	19.0	0.00e+00	0	43	0	0	51	4543
2026-01-28 08:22:07.29	13.79	15.45	-40.0	-42.0	19.0	0.00e+00	0	43	0	0	51	4550
2026-01-28 08:22:08.29	13.62	15.39	-40.1	-42.1	18.9	0.00e+00	0	43	0	0	51	4605
2026-01-28 08:22:09.28	13.45	15.32	-40.2	-42.2	18.8	0.00e+00	0	43	0	0	51	4670
2026-01-28 08:22:10.28	13.28	15.26	-40.2	-42.2	18.9	0.00e+00	0	43	0	0	51	4674
2026-01-28 08:22:11.28	13.11	15.19	-40.4	-42.4	18.7	0.00e+00	0	43	0	0	51	4800
2026-01-28 08:22:12.28	12.94	15.13	-40.5	-42.5	18.6	0.00e+00	0	43	0	0	51	4827
2026-01-28 08:22:13.28	12.77	15.06	-40.5	-42.5	18.7	0.00e+00	0	43	0	0	51	4830
2026-01-28 08:22:14.29	12.61	15.00	-40.5	-42.5	18.6	0.00e+00	0	43	0	0	51	4846
2026-01-28 08:22:15.29	12.44	14.93	-40.6	-42.6	18.4	0.00e+00	0	43	0	0	52	4622
2026-01-28 08:22:16.28	12.27	14.87	-40.7	-42.6	18.4	0.00e+00	0	43	0	0	52	4636
2026-01-28 08:22:17.28	12.11	14.80	-40.7	-42.7	18.3	0.00e+00	0	43	0	0	52	4666
2026-01-28 08:22:18.28	11.94	14.74	-40.6	-42.5	18.5	0.00e+00	0	43	0	0	52	4583
2026-01-28 08:22:19.27	11.78	14.67	-40.4	-42.4	18.6	0.00e+00	0	43	0	0	52	4509
2026-01-28 08:22:20.27	11.62	14.61	-40.5	-42.5	18.5	0.00e+00	0	43	0	0	52	4569
2026-01-28 08:22:21.27	11.46	14.54	-40.4	-42.4	18.5	0.00e+00	0	43	0	0	52	4529
2026-01-28 08:22:22.27	11.29	14.48	-40.2	-42.2	18.8	0.00e+00	0	43	0	0	52	4404
2026-01-28 08:22:23.26	11.14	14.41	-40.2	-42.2	18.7	0.00e+00	0	43	0	0	52	4430
2026-01-28 08:22:24.26	10.97	14.35	-40.0	-42.0	19.0	0.00e+00	0	43	0	0	52	4292
2026-01-28 08:22:25.27	10.81	14.28	-40.2	-42.2	18.9	0.00e+00	0	43	0	0	51	4656
2026-01-28 08:22:26.26	10.66	14.22	-40.2	-42.1	18.9	0.00e+00	0	43	0	0	51	4641
2026-01-28 08:22:27.26	10.50	14.15	-40.2	-42.2	18.9	0.00e+00	0	43	0	0	51	4678
2026-01-28 08:22:28.26	10.34	14.09	-40.2	-42.1	18.9	0.00e+00	0	43	0	0	51	4630
2026-01-28 08:22:29.26	10.18	14.02	-40.1	-42.0	19.0	0.00e+00	0	43	0	0	51	4573
2026-01-28 08:22:30.27	10.03	13.95	-40.1	-42.1	19.0	0.00e+00	0	43	0	0	51	4599
2026-01-28 08:22:31.27	9.87	13.89	-40.1	-42.0	19.0	0.00e+00	0	43	0	0	51	4593
2026-01-28 08:22:32.27	9.72	13.82	-40.1	-42.0	19.0	0.00e+00	0	43	0	0	51	4587
2026-01-28 08:22:33.26	9.56	13.76	-40.1	-42.1	18.9	0.00e+00	0	43	0	0	51	4624
2026-01-28 08:22:34.26	9.41	13.69	-40.2	-42.1	18.9	0.00e+00	0	43	0	0	51	4649
2026-01-28 08:22:35.26	9.26	13.62	-40.3	-42.2	18.8	0.00e+00	0	43	0	0	51	4685
2026-01-28 08:22:36.26	9.11	13.56	-40.2	-42.1	18.9	0.00e+00	0	43	0	0	51	4641
2026-01-28 08:22:37.26	8.96	13.49	-40.3	-42.2	18.8	0.00e+00	0	43	0	0	51	4685
2026-01-28 08:22:38.25	8.81	13.43	-40.2	-42.2	18.8	0.00e+00	0	43	0	0	51	4668
2026-01-28 08:22:39.25	8.66	13.36	-40.3	-42.3	18.7	0.00e+00	0	43	0	0	51	4710
2026-01-28 08:22:40.25	8.51	13.30	-40.3	-42.3	18.7	0.00e+00	0	43	0	0	51	4714
2026-01-28 08:22:41.25	8.36	13.23	-40.3	-42.3	18.7	0.00e+00	0	43	0	0	51	4743
2026-01-28 08:22:42.25	8.21	13.16	-40.3	-42.3	18.7	0.00e+00	0	43	0	0	51	4741
2026-01-28 08:22:43.25	8.06	13.10	-40.3	-42.4	18.6	0.00e+00	0	43	0	0	51	4773
2026-01-28 08:22:44.25	7.92	13.03	-40.3	-42.4	18.7	0.00e+00	0	43	0	0	51	4762
2026-01-28 08:22:45.24	7.77	12.97	-40.4	-42.4	18.6	0.00e+00	0	43	0	0	51	4794
2026-01-28 08:22:46.24	7.63	12.90	-40.5	-42.6	18.5	0.00e+00	0	43	0	0	51	4886
2026-01-28 08:22:47.24	7.48	12.83	-40.6	-42.6	18.5	0.00e+00	0	43	0	0	51	4890
2026-01-28 08:22:48.24	7.34	12.77	-40.6	-42.7	18.3	0.00e+00	0	43	0	0	52	4688
2026-01-28 08:22:49.24	7.20	12.70	-40.7	-42.8	18.2	0.00e+00	0	43	0	0	52	4755
2026-01-28 08:22:50.24	7.06	12.64	-40.9	-43.0	18.0	0.00e+00	0	43	0	0	52	4866
2026-01-28 08:22:51.23	6.92	12.57	-41.0	-43.3	17.8	0.00e+00	0	43	0	0	52	4985
2026-01-28 08:22:52.23	6.77	12.50	-41.1	-43.3	17.7	0.00e+00	0	43	0	0	52	5035
2026-01-28 08:22:53.22	6.63	12.44	-41.2	-43.4	17.6	0.00e+00	0	43	0	0	53	4777
2026-01-28 08:22:54.23	6.49	12.37	-41.1	-43.3	17.7	0.00e+00	0	43	0	0	53	4722
2026-01-28 08:22:55.22	6.36	12.31	-41.1	-43.2	17.7	0.00e+00	0	43	0	0	53	4695
2026-01-28 08:22:56.22	6.22	12.24	-41.1	-43.2	17.7	0.00e+00	0	43	0	0	53	4696
2026-01-28 08:22:57.22	6.08	12.18	-41.1	-43.2	17.7	0.00e+00	0	43	0	0	53	4697
2026-01-28 08:22:58.22	5.94	12.11	-40.8	-42.9	17.9	0.00e+00	0	43	0	0	53	4529
2026-01-28 08:22:59.22	5.81	12.04	-40.8	-42.9	18.0	0.00e+00	0	43	0	0	53	4499
2026-01-28 08:23:00.21	5.67	11.98	-40.7	-42.8	18.1	0.00e+00	0	43	0	0	53	4472
2026-01-28 08:23:01.22	5.53	11.91	-40.7	-42.8	18.0	0.00e+00	0	43	0	0	53	4485
2026-01-28 08:23:02.22	5.40	11.85	-40.6	-42.7	18.2	0.00e+00	0	43	0	0	53	4399
2026-01-28 08:23:03.21	5.27	11.78	-40.7	-42.8	18.1	0.00e+00	0	43	0	0	53	4485
2026-01-28 08:23:04.21	5.13	11.71	-40.8	-43.0	18.0	0.00e+00	0	43	0	0	53	4555
2026-01-28 08:23:05.21	5.00	11.65	-40.9	-43.1	17.9	0.00e+00	0	43	0	0	53	4606
2026-01-28 08:23:06.20	4.87	11.58	-40.9	-43.1	17.9	0.00e+00	0	43	0	0	53	4620
2026-01-28 08:23:07.20	4.74	11.52	-41.0	-43.2	17.8	0.00e+00	0	43	0	0	53	4666
2026-01-28 08:23:08.20	4.61	11.45	-41.1	-43.3	17.7	0.00e+00	0	43	0	0	53	4716
2026-01-28 08:23:09.20	4.48	11.39	-41.1	-43.3	17.7	0.00e+00	0	43	0	0	53	4722
2026-01-28 08:23:10.20	4.35	11.32	-41.1	-43.2	17.7	0.00e+00	0	43	0	0	53	4703
2026-01-28 08:23:11.20	4.22	11.25	-41.0	-43.1	17.8	0.00e+00	0	43	0	0	53	4615
2026-01-28 08:23:12.20	4.09	11.19	-40.9	-43.0	17.8	0.00e+00	0	43	0	0	53	4579
2026-01-28 08:23:13.20	3.96	11.12	-40.9	-43.1	17.7	0.00e+00	0	43	0	0	53	4644
2026-01-28 08:23:14.20	3.83	11.06	-40.7	-42.9	17.9	0.00e+00	0	43	0	0	53	4525
2026-01-28 08:23:15.20	3.70	10.99	-40.7	-42.9	18.0	0.00e+00	0	43	0	0	53	4495
2026-01-28 08:23:16.20	3.58	10.93	-40.7	-42.9	18.0	0.00e+00	0	43	0	0	53	4501
2026-01-28 08:23:17.20	3.45	10.86	-40.8	-42.9	18.0	0.00e+00	0	43	0	0	53	4535
2026-01-28 08:23:18.20	3.33	10.80	-40.9	-42.9	18.0	0.00e+00	0	43	0	0	53	4520
2026-01-28 08:23:19.20	3.20	10.73	-40.9	-42.9	17.9	0.00e+00	0	43	0	0	53	4532
2026-01-28 08:23:20.19	3.08	10.67	-41.0	-43.0	17.9	0.00e+00	0	43	0	0	53	4564
2026-01-28 08:23:21.19	2.96	10.60	-41.1	-43.2	17.7	0.00e+00	0	43	0	0	53	4683
2026-01-28 08:23:22.19	2.83	10.54	-41.1	-43.3	17.6	0.00e+00	0	43	0	0	53	4743
2026-01-28 08:23:23.19	2.71	10.47	-41.1	-43.5	17.5	0.00e+00	0	43	0	0	53	4819
2026-01-28 08:23:24.19	2.59	10.41	-41.1	-43.4	17.5	0.00e+00	0	43	0	0	53	4814
2026-01-28 08:23:25.19	2.47	10.34	-41.2	-43.6	17.3	0.00e+00	0	43	0	0	53	4888
2026-01-28 08:23:26.19	2.35	10.28	-41.2	-43.6	17.3	0.00e+00	0	43	0	0	53	4892
2026-01-28 08:23:27.19	2.23	10.21	-41.3	-43.6	17.3	0.00e+00	0	43	0	0	53	4872
2026-01-28 08:23:28.18	2.11	10.15	-41.3	-43.5	17.4	0.00e+00	0	43	0	0	53	4824
2026-01-28 08:23:29.18	1.99	10.08	-41.3	-43.5	17.4	0.00e+00	0	43	0	0	53	4824
2026-01-28 08:23:30.18	1.87	10.02	-41.3	-43.4	17.5	0.00e+00	0	43	0	0	53	4771
2026-01-28 08:23:31.18	1.75	9.95	-41.2	-43.3	17.5	0.00e+00	0	43	0	0	53	4742
2026-01-28 08:23:32.17	1.64	9.89	-41.2	-43.3	17.5	0.00e+00	0	43	0	0	53	4753
2026-01-28 08:23:33.17	1.52	9.82	-41.1	-43.3	17.6	0.00e+00	0	43	0	0	53	4713
2026-01-28 08:23:34.17	1.40	9.76	-41.1	-43.3	17.6	0.00e+00	0	43	0	0	53	4727
2026-01-28 08:23:35.17	1.29	9.69	-41.2	-43.4	17.4	0.00e+00	0	43	0	0	53	4813
2026-01-28 08:23:36.17	1.17	9.63	-41.2	-43.5	17.4	0.00e+00	0	43	0	0	53	4868
2026-01-28 08:23:37.17	1.06	9.56	-41.2	-43.6	17.4	0.00e+00	0	43	0	0	53	4893
2026-01-28 08:23:38.16	0.94	9.50	-41.4	-43.8	17.1	0.00e+00	0	43	0	0	53	5006
2026-01-28 08:23:39.17	0.83	9.44	-41.3	-43.8	17.1	0.00e+00	0	43	0	0	53	5019
2026-01-28 08:23:40.17	0.72	9.37	-41.5	-44.0	16.9	0.00e+00	0	43	0	0	53	5142
2026-01-28 08:23:41.17	0.60	9.31	-41.6	-44.2	16.8	0.00e+00	0	43	0	0	53	5227
2026-01-28 08:23:42.16	0.49	9.24	-41.6	-44.2	16.7	0.00e+00	0	43	0	0	53	5274
2026-01-28 08:23:43.16	0.38	9.18	-41.6	-44.3	16.7	0.00e+00	0	43	0	0	53	5286
2026-01-28 08:23:44.16	0.27	9.11	-41.6	-44.2	16.7	0.00e+00	0	43	0	0	53	5246
2026-01-28 08:23:45.16	0.16	9.05	-41.6	-44.1	16.7	0.00e+00	0	43	0	0	53	5208
2026-01-28 08:23:46.16	0.05	8.99	-48.6	-61.1	3.8	7.28e-01	0	43	104	0	67	16455
2026-01-28 08:23:47.16	359.94	8.92	-49.2	-62.8	3.8	1.49e+00	0	43	104	0	69	17739
2026-01-28 08:23:48.15	359.83	8.86	-48.8	-62.9	3.8	1.49e+00	0	43	104	0	68	19016
2026-01-28 08:23:49.15	359.72	8.80	-49.3	-62.9	3.8	1.49e+00	0	43	104	0	69	18036
2026-01-28 08:23:50.15	359.61	8.73	-49.6	-63.0	3.8	1.49e+00	0	43	104	0	69	18245
2026-01-28 08:23:51.14	359.51	8.67	-49.7	-63.0	3.8	1.49e+00	0	43	104	0	69	18288
2026-01-28 08:23:52.14	359.40	8.61	-49.9	-63.1	3.8	1.49e+00	0	43	104	0	70	17410
2026-01-28 08:23:53.13	359.29	8.54	-50.0	-63.1	3.8	1.49e+00	0	43	104	0	70	17393
2026-01-28 08:23:54.13	359.19	8.48	-49.5	-63.2	3.8	1.49e+00	0	43	104	0	70	17530
2026-01-28 08:23:55.13	359.08	8.42	-49.7	-63.2	3.8	1.49e+00	0	43	104	0	70	17533
2026-01-28 08:23:56.13	358.98	8.35	-50.2	-63.2	3.8	1.49e+00	0	43	104	0	70	17504
2026-01-28 08:23:57.13	358.87	8.29	-49.9	-63.2	3.8	1.49e+00	0	43	104	0	70	17516
2026-01-28 08:23:58.12	358.77	8.23	-49.8	-63.2	3.8	1.49e+00	0	43	104	0	70	17624
2026-01-28 08:23:59.12	358.66	8.16	-50.0	-63.2	3.8	1.49e+00	0	43	104	0	70	17595
2026-01-28 08:24:00.12	358.56	8.10	-50.1	-63.2	3.8	1.49e+00	0	43	104	0	71	16623
2026-01-28 08:24:01.12	358.46	8.04	-49.9	-63.2	3.8	1.49e+00	0	43	104	0	71	16598
2026-01-28 08:24:02.12	358.35	7.97	-49.9	-63.2	3.8	1.49e+00	0	43	104	0	71	16611
2026-01-28 08:24:03.12	358.25	7.91	-49.8	-63.2	3.8	1.49e+00	0	43	104	0	71	16574
2026-01-28 08:24:04.12	358.15	7.85	-50.2	-63.2	3.8	1.49e+00	0	43	104	0	71	16651
2026-01-28 08:24:05.11	358.05	7.79	-50.2	-63.2	3.8	1.49e+00	0	43	104	0	71	16600
2026-01-28 08:24:06.11	357.95	7.72	-50.1	-63.2	3.8	1.49e+00	0	43	104	0	71	16612
2026-01-28 08:24:07.11	357.85	7.66	-50.2	-63.2	3.8	1.49e+00	0	43	104	0	71	16656
2026-01-28 08:24:08.11	357.75	7.60	-50.2	-63.2	3.8	1.49e+00	0	43	104	0	71	16602
2026-01-28 08:24:09.11	357.65	7.54	-50.2	-63.2	3.8	1.49e+00	0	43	104	0	71	16605
2026-01-28 08:24:10.11	357.55	7.47	-50.0	-63.2	3.8	1.49e+00	0	43	104	0	71	16635
2026-01-28 08:24:11.10	357.45	7.41	-50.1	-63.2	3.8	1.49e+00	0	43	104	0	71	16542
2026-01-28 08:24:12.10	357.35	7.35	-50.0	-63.2	3.8	1.49e+00	0	43	104	0	71	16559
2026-01-28 08:24:13.10	357.26	7.29	-50.0	-63.2	3.8	1.49e+00	0	43	104	0	71	16597
2026-01-28 08:24:14.09	357.16	7.23	-49.9	-63.2	3.8	1.49e+00	0	43	104	0	71	16589
2026-01-28 08:24:15.08	357.06	7.16	-49.8	-63.2	3.8	1.49e+00	0	43	104	0	71	16559
2026-01-28 08:24:16.09	356.97	7.10	-49.8	-63.1	3.8	1.49e+00	0	43	104	0	71	16482
2026-01-28 08:24:17.08	356.87	7.04	-49.8	-63.1	3.8	1.49e+00	0	43	104	0	71	16495
2026-01-28 08:24:18.08	356.78	6.98	-49.7	-63.1	3.8	1.49e+00	0	43	104	0	71	16468
2026-01-28 08:24:19.08	356.68	6.92	-49.7	-63.1	3.8	1.49e+00	0	43	104	0	71	16404
2026-01-28 08:24:20.07	356.59	6.86	-49.7	-63.1	3.8	1.49e+00	0	43	104	0	71	16408
2026-01-28 08:24:21.07	356.49	6.79	-49.7	-63.1	3.8	1.49e+00	0	43	104	0	71	16429
2026-01-28 08:24:22.07	356.40	6.73	-49.7	-63.1	3.8	1.49e+00	0	43	104	0	71	16418
2026-01-28 08:24:23.07	356.31	6.67	-49.7	-63.0	3.8	1.49e+00	0	43	104	0	71	16303
2026-01-28 08:24:24.06	356.21	6.61	-49.7	-63.1	3.8	1.49e+00	0	43	104	0	71	16391
2026-01-28 08:24:25.06	356.12	6.55	-49.7	-63.1	3.8	1.49e+00	0	43	104	0	71	16360
2026-01-28 08:24:26.06	356.03	6.49	-49.7	-63.1	3.8	1.49e+00	0	43	104	0	71	16347
2026-01-28 08:24:27.05	355.94	6.43	-49.7	-63.1	3.8	1.49e+00	0	43	104	0	71	16358
2026-01-28 08:24:28.05	355.85	6.37	-49.7	-63.1	3.8	1.49e+00	0	43	104	0	71	16372
2026-01-28 08:24:29.05	355.76	6.31	-49.7	-63.1	3.8	1.49e+00	0	43	104	0	71	16355
2026-01-28 08:24:30.04	355.67	6.24	-49.7	-63.1	3.8	1.49e+00	0	43	104	0	71	16359
2026-01-28 08:24:31.04	355.58	6.18	-49.7	-63.0	3.8	1.49e+00	0	43	104	0	71	16265
2026-01-28 08:24:32.04	355.49	6.12	-49.7	-63.0	3.8	1.49e+00	0	43	104	0	71	16285
2026-01-28 08:24:33.04	355.40	6.06	-49.7	-63.1	3.8	1.49e+00	0	43	104	0	71	16360
2026-01-28 08:24:34.04	355.31	6.00	-49.7	-63.1	3.8	1.49e+00	0	43	104	0	71	16375
2026-01-28 08:24:35.03	355.22	5.94	-49.7	-63.1	3.8	1.49e+00	0	43	104	0	71	16315
2026-01-28 08:24:36.03	355.13	5.88	-49.7	-63.1	3.8	1.49e+00	0	43	104	0	71	16382
2026-01-28 08:24:37.03	355.04	5.82	-49.7	-63.1	3.8	1.49e+00	0	43	104	0	71	16373
2026-01-28 08:24:38.02	354.96	5.76	-49.7	-63.1	3.8	1.49e+00	0	43	104	0	71	16316
2026-01-28 08:24:39.02	354.87	5.70	-49.7	-63.0	3.8	1.49e+00	0	43	104	0	71	16310
2026-01-28 08:24:40.01	354.78	5.64	-49.7	-63.1	3.8	1.49e+00	0	43	104	0	71	16330
2026-01-28 08:24:41.01	354.70	5.58	-49.7	-63.0	3.8	1.49e+00	0	43	104	0	71	16282
2026-01-28 08:24:42.01	354.61	5.52	-49.7	-63.0	3.8	1.49e+00	0	43	104	0	71	16308
2026-01-28 08:24:43.01	354.52	5.46	-49.7	-63.0	3.8	1.49e+00	0	43	104	0	71	16256
2026-01-28 08:24:44.01	354.44	5.40	-49.7	-63.0	3.8	1.49e+00	0	43	104	0	71	16229
2026-01-28 08:24:45.00	354.35	5.34	-49.7	-63.0	3.8	1.49e+00	0	43	104	0	71	16239
2026-01-28 08:24:45.99	354.27	5.28	-49.7	-63.0	3.8	1.49e+00	0	43	104	0	71	16267
2026-01-28 08:24:46.99	354.19	5.22	-49.7	-63.0	3.8	1.49e+00	0	43	104	0	71	16301
2026-01-28 08:24:47.99	354.10	5.16	-49.6	-63.0	3.8	1.49e+00	0	43	104	0	71	16294
2026-01-28 08:24:48.99	354.02	5.10	-49.7	-63.0	3.8	1.49e+00	0	43	104	0	71	16228
2026-01-28 08:24:49.98	353.94	5.04	-49.7	-63.0	3.8	1.49e+00	0	43	104	0	71	16235
2026-01-28 08:24:50.98	353.85	4.99	-49.6	-63.0	3.8	1.49e+00	0	43	104	0	71	16214

#Closed at: 2026-01-28 08:24:51
#Recorded file [0 MB]: D:/Data/31040_260128_111407.dat