passes_logs/2026/01/28/T1/T1__20260128_082714_KHAYYAM_rec.log

#Pass ID: 20260128_082714_KHAYYAM
#Satellite: KHAYYAM
#Configuration: KHAYYAM_480M
#almurnet v.1.7.20251203
#Start time: 2026-01-28 08:27:15

#Version: 2.0.20230620
#Station: T1
#Location: 37.570604 lon 55.790049 lat
#TLE: 1 53370U 22096A   26027.62333840  .00009189  00000+0  37322-3 0  9999
#TLE: 2 53370  97.3550 294.4067 0002110 106.9293 253.2176 15.24792297193169

#Time	Az	El	Level	Level2	SNR	BER	BlckErr	Temp	State	Recorded	gain1	gain2
2026-01-28 08:27:15.51	187.24	5.12	-49.8	-54.9	3.3	0.00e+00	0	46	0	0	70	26961
2026-01-28 08:27:16.50	187.31	5.20	-49.8	-54.8	3.7	0.00e+00	0	46	104	0	70	26806
2026-01-28 08:27:17.49	187.37	5.28	-49.9	-54.9	3.7	0.00e+00	0	46	104	0	70	27130
2026-01-28 08:27:18.48	187.44	5.36	-49.8	-54.9	3.7	0.00e+00	0	46	104	0	70	26979
2026-01-28 08:27:19.48	187.50	5.44	-49.8	-54.8	3.7	0.00e+00	0	46	104	0	70	26791
2026-01-28 08:27:20.48	187.57	5.52	-49.8	-54.8	3.7	0.00e+00	0	46	104	0	70	26697
2026-01-28 08:27:21.47	187.64	5.60	-49.8	-54.8	3.7	0.00e+00	0	46	104	0	70	26880
2026-01-28 08:27:22.47	187.70	5.68	-49.8	-54.9	3.7	0.00e+00	0	47	104	0	70	26894
2026-01-28 08:27:23.46	187.77	5.76	-49.9	-54.9	3.7	0.00e+00	0	47	104	0	70	26943
2026-01-28 08:27:24.46	187.84	5.84	-49.8	-54.8	3.7	0.00e+00	0	47	104	0	70	26878
2026-01-28 08:27:25.45	187.91	5.92	-49.8	-54.8	3.7	0.00e+00	0	47	104	0	70	26844
2026-01-28 08:27:26.45	187.98	6.00	-49.8	-54.9	3.7	0.00e+00	0	47	104	0	70	26963
2026-01-28 08:27:27.45	188.05	6.08	-49.7	-54.8	3.7	0.00e+00	0	47	104	0	70	26662
2026-01-28 08:27:28.44	188.12	6.16	-49.8	-54.8	3.7	0.00e+00	0	47	104	0	70	26823
2026-01-28 08:27:29.44	188.19	6.25	-49.9	-54.9	3.7	0.00e+00	0	47	104	0	70	27129
2026-01-28 08:27:30.44	188.26	6.33	-49.9	-54.9	3.7	0.00e+00	0	47	104	0	70	26960
2026-01-28 08:27:31.43	188.33	6.41	-49.8	-54.9	3.7	0.00e+00	0	47	104	0	70	26967
2026-01-28 08:27:32.43	188.40	6.49	-49.8	-54.9	3.7	0.00e+00	0	47	104	0	70	26931
2026-01-28 08:27:33.42	188.47	6.58	-49.8	-54.9	3.7	0.00e+00	0	47	104	0	70	27012
2026-01-28 08:27:34.41	188.55	6.66	-49.8	-54.8	3.7	0.00e+00	0	47	104	0	70	26829
2026-01-28 08:27:35.41	188.62	6.75	-49.8	-54.8	3.7	0.00e+00	0	48	104	0	70	26817
2026-01-28 08:27:36.41	188.69	6.83	-49.8	-54.8	3.7	0.00e+00	0	48	104	0	70	26747
2026-01-28 08:27:37.40	188.77	6.92	-49.8	-54.8	3.7	0.00e+00	0	48	104	0	70	26678
2026-01-28 08:27:38.40	188.84	7.00	-49.7	-54.7	3.7	0.00e+00	0	48	104	0	70	26389
2026-01-28 08:27:39.39	188.92	7.09	-49.7	-54.8	3.7	0.00e+00	0	48	104	0	70	26717
2026-01-28 08:27:40.39	189.00	7.17	-49.8	-54.8	3.7	0.00e+00	0	48	104	0	70	26850
2026-01-28 08:27:41.39	189.07	7.26	-49.8	-54.8	3.7	0.00e+00	0	48	104	0	70	26707
2026-01-28 08:27:42.38	189.15	7.35	-49.7	-54.7	3.7	0.00e+00	0	48	104	0	70	26348
2026-01-28 08:27:43.38	189.23	7.43	-49.7	-54.7	3.7	0.00e+00	0	48	104	0	70	26549
2026-01-28 08:27:44.37	189.30	7.52	-49.8	-54.8	3.7	0.00e+00	0	48	104	0	70	26685
2026-01-28 08:27:45.37	189.38	7.61	-49.7	-54.8	3.7	0.00e+00	0	48	104	0	70	26651
2026-01-28 08:27:46.37	189.46	7.70	-49.8	-54.8	3.7	0.00e+00	0	48	104	0	70	26648
2026-01-28 08:27:47.36	189.54	7.78	-49.6	-54.7	3.7	0.00e+00	0	48	104	0	70	26319
2026-01-28 08:27:48.36	189.62	7.87	-49.7	-54.7	3.7	0.00e+00	0	48	104	0	70	26493
2026-01-28 08:27:49.36	189.71	7.96	-49.7	-54.7	3.7	0.00e+00	0	48	104	0	70	26421
2026-01-28 08:27:50.35	189.79	8.05	-49.7	-54.6	3.7	0.00e+00	0	48	104	0	70	26175
2026-01-28 08:27:51.35	189.87	8.14	-49.7	-54.6	3.7	0.00e+00	0	48	104	0	70	26020
2026-01-28 08:27:52.34	189.95	8.23	-49.6	-54.5	3.7	0.00e+00	0	49	104	0	70	25847
2026-01-28 08:27:53.34	190.04	8.33	-49.7	-54.6	3.7	0.00e+00	0	48	104	0	70	26105
2026-01-28 08:27:54.33	190.12	8.42	-49.7	-54.6	3.7	0.00e+00	0	49	104	0	70	26147
2026-01-28 08:27:55.33	190.21	8.51	-49.8	-54.7	3.7	0.00e+00	0	49	104	0	70	26338
2026-01-28 08:27:56.33	190.29	8.60	-49.7	-54.8	3.7	0.00e+00	0	48	104	0	70	26712
2026-01-28 08:27:57.32	190.38	8.69	-49.8	-54.8	3.7	0.00e+00	0	49	104	0	70	26730
2026-01-28 08:27:58.31	190.46	8.79	-49.7	-54.7	3.7	0.00e+00	0	49	104	0	70	26575
2026-01-28 08:27:59.31	190.55	8.88	-49.7	-54.7	3.7	0.00e+00	0	49	104	0	70	26437
2026-01-28 08:28:00.31	190.64	8.97	-49.8	-54.8	3.7	0.00e+00	0	49	104	0	70	26859
2026-01-28 08:28:01.30	190.73	9.07	-49.8	-54.8	3.7	0.00e+00	0	49	104	0	70	26697
2026-01-28 08:28:02.30	190.82	9.16	-49.8	-54.8	3.7	0.00e+00	0	49	104	0	70	26635
2026-01-28 08:28:03.30	190.91	9.26	-49.5	-54.5	3.7	0.00e+00	0	49	104	0	70	25908
2026-01-28 08:28:04.30	191.00	9.35	-49.7	-54.7	3.7	0.00e+00	0	49	104	0	70	26572
2026-01-28 08:28:05.30	191.09	9.45	-49.4	-54.5	3.7	0.00e+00	0	49	104	0	70	25830
2026-01-28 08:28:06.31	191.19	9.55	-49.5	-54.5	3.7	0.00e+00	0	49	104	0	70	25974
2026-01-28 08:28:07.31	191.28	9.65	-49.5	-54.5	3.7	0.00e+00	0	49	104	0	70	25857
2026-01-28 08:28:08.31	191.38	9.74	-49.3	-54.4	3.7	0.00e+00	0	49	104	0	70	25501
2026-01-28 08:28:09.31	191.47	9.84	-49.4	-54.4	3.7	0.00e+00	0	49	104	0	70	25568
2026-01-28 08:28:10.31	191.57	9.94	-49.4	-54.5	3.7	0.00e+00	0	49	104	0	70	25771
2026-01-28 08:28:11.30	191.66	10.04	-49.4	-54.5	3.7	0.00e+00	0	49	104	0	70	25789
2026-01-28 08:28:12.30	191.76	10.14	-49.4	-54.4	3.7	0.00e+00	0	49	104	0	70	25622
2026-01-28 08:28:13.30	191.86	10.24	-49.5	-54.6	3.7	0.00e+00	0	49	104	0	70	26016
2026-01-28 08:28:14.30	191.96	10.34	-49.4	-54.5	3.7	0.00e+00	0	49	104	0	70	25739
2026-01-28 08:28:15.30	192.06	10.44	-49.3	-54.4	3.7	0.00e+00	0	49	104	0	70	25594
2026-01-28 08:28:16.29	192.16	10.54	-49.4	-54.4	3.7	0.00e+00	0	49	104	0	70	25566
2026-01-28 08:28:17.28	192.26	10.64	-49.3	-54.5	3.7	0.00e+00	0	49	104	0	70	25718
2026-01-28 08:28:18.28	192.36	10.75	-49.4	-54.5	3.7	0.00e+00	0	49	104	0	70	25685
2026-01-28 08:28:19.28	192.46	10.85	-49.7	-54.7	3.7	0.00e+00	0	49	104	0	70	26548
2026-01-28 08:28:20.28	192.57	10.95	-49.3	-54.4	3.7	0.00e+00	0	49	104	0	70	25574
2026-01-28 08:28:21.27	192.67	11.06	-49.6	-54.7	3.7	0.00e+00	0	49	104	0	70	26374
2026-01-28 08:28:22.27	192.78	11.16	-50.1	-54.9	3.7	0.00e+00	0	49	104	0	70	27200
2026-01-28 08:28:23.26	192.88	11.26	-50.2	-55.2	3.7	0.00e+00	0	49	104	0	71	26505
2026-01-28 08:28:24.26	192.99	11.37	-49.8	-54.8	3.7	0.00e+00	0	49	104	0	71	25337
2026-01-28 08:28:25.26	193.10	11.48	-50.3	-55.3	3.7	0.00e+00	0	49	104	0	71	26870
2026-01-28 08:28:26.26	193.21	11.58	-50.3	-55.3	3.7	0.00e+00	0	50	104	0	71	26799
2026-01-28 08:28:27.25	193.32	11.69	-50.4	-55.4	3.7	0.00e+00	0	49	104	0	71	27142
2026-01-28 08:28:28.25	193.43	11.80	-50.3	-55.3	3.7	0.00e+00	0	50	104	0	71	26686
2026-01-28 08:28:29.25	193.54	11.91	-50.5	-55.5	3.7	0.00e+00	0	50	104	0	71	27406
2026-01-28 08:28:30.25	193.66	12.02	-50.4	-55.5	3.7	0.00e+00	0	50	104	0	71	27388
2026-01-28 08:28:31.25	193.77	12.13	-50.6	-55.5	3.7	0.00e+00	0	50	104	0	72	25973
2026-01-28 08:28:32.25	193.89	12.24	-50.3	-55.4	3.7	0.00e+00	0	50	104	0	72	25492
2026-01-28 08:28:33.25	194.00	12.35	-50.5	-55.5	3.7	0.00e+00	0	50	104	0	72	25774
2026-01-28 08:28:34.25	194.12	12.46	-50.6	-55.5	3.7	0.00e+00	0	50	104	0	72	25788
2026-01-28 08:28:35.25	194.24	12.57	-50.3	-55.3	3.7	0.00e+00	0	50	104	0	72	25120
2026-01-28 08:28:36.24	194.36	12.68	-50.5	-55.5	3.7	0.00e+00	0	49	104	0	72	25871
2026-01-28 08:28:37.24	194.48	12.79	-50.3	-55.3	3.7	0.00e+00	0	50	104	0	72	25321
2026-01-28 08:28:38.24	194.60	12.91	-50.3	-55.1	3.7	0.00e+00	0	50	104	0	72	24758
2026-01-28 08:28:39.23	194.72	13.02	-50.2	-55.2	3.7	0.00e+00	0	50	104	0	72	24904
2026-01-28 08:28:40.23	194.85	13.14	-50.3	-55.3	3.7	0.00e+00	0	50	104	0	72	25177
2026-01-28 08:28:41.23	194.97	13.25	-50.3	-55.2	3.7	0.00e+00	0	50	104	0	72	25085
2026-01-28 08:28:42.23	195.10	13.37	-50.4	-55.3	3.7	0.00e+00	0	50	104	0	72	25314
2026-01-28 08:28:43.22	195.22	13.48	-50.7	-55.6	3.7	0.00e+00	0	50	104	0	72	26115
2026-01-28 08:28:44.22	195.35	13.60	-50.4	-55.3	3.7	0.00e+00	0	50	104	0	72	25242
2026-01-28 08:28:45.22	195.48	13.72	-50.7	-55.6	3.7	0.00e+00	0	50	104	0	72	26082
2026-01-28 08:28:46.22	195.61	13.84	-50.9	-55.8	3.7	0.00e+00	0	50	104	0	72	26862
2026-01-28 08:28:47.22	195.75	13.96	-50.8	-55.8	3.7	0.00e+00	0	50	104	0	72	26822
2026-01-28 08:28:48.21	195.88	14.08	-50.8	-55.7	3.7	0.00e+00	0	50	104	0	72	26468
2026-01-28 08:28:49.21	196.01	14.20	-50.9	-55.8	3.7	0.00e+00	0	50	104	0	72	26670
2026-01-28 08:28:50.21	196.15	14.32	-51.1	-55.9	3.7	0.00e+00	0	50	104	0	72	27060
2026-01-28 08:28:51.21	196.29	14.44	-51.2	-55.9	3.7	0.00e+00	0	50	104	0	72	27047
2026-01-28 08:28:52.21	196.43	14.57	-50.9	-55.9	3.7	0.00e+00	0	50	104	0	72	26903
2026-01-28 08:28:53.20	196.57	14.69	-51.2	-55.9	3.7	0.00e+00	0	50	104	0	73	25676
2026-01-28 08:28:54.20	196.71	14.81	-51.3	-56.0	3.7	0.00e+00	0	50	104	0	73	25802
2026-01-28 08:28:55.20	196.85	14.94	-50.9	-55.6	3.7	0.00e+00	0	50	104	0	73	24769
2026-01-28 08:28:56.19	196.99	15.06	-51.1	-55.9	3.7	0.00e+00	0	50	104	0	73	25600
2026-01-28 08:28:57.19	197.14	15.19	-50.8	-55.6	3.7	0.00e+00	0	50	104	0	73	24749
2026-01-28 08:28:58.18	197.28	15.31	-50.8	-55.7	3.7	0.00e+00	0	50	104	0	73	24858
2026-01-28 08:28:59.18	197.43	15.44	-50.7	-55.5	3.7	0.00e+00	0	50	104	0	73	24403
2026-01-28 08:29:00.18	197.58	15.57	-50.7	-55.6	3.7	0.00e+00	0	50	104	0	73	24584
2026-01-28 08:29:01.18	197.73	15.70	-50.8	-55.6	3.7	0.00e+00	0	50	104	0	73	24590
2026-01-28 08:29:02.18	197.89	15.83	-51.0	-55.9	3.7	0.00e+00	0	50	104	0	73	25641
2026-01-28 08:29:03.17	198.04	15.96	-51.1	-56.0	3.7	0.00e+00	0	50	104	0	73	25817
2026-01-28 08:29:04.17	198.20	16.09	-51.0	-55.8	3.7	0.00e+00	0	50	104	0	73	25246
2026-01-28 08:29:05.17	198.35	16.22	-51.0	-55.9	3.7	0.00e+00	0	50	104	0	73	25575
2026-01-28 08:29:06.17	198.51	16.35	-51.1	-56.2	3.7	0.00e+00	0	50	104	0	73	26347
2026-01-28 08:29:07.16	198.67	16.49	-51.9	-56.7	3.7	0.00e+00	0	50	104	0	74	26448
2026-01-28 08:29:08.17	198.84	16.62	-51.1	-56.1	3.7	0.00e+00	0	50	104	0	74	24578
2026-01-28 08:29:09.17	199.00	16.76	-51.4	-56.2	3.7	0.00e+00	0	50	104	0	74	25005
2026-01-28 08:29:10.17	199.17	16.89	-51.8	-56.6	3.7	0.00e+00	0	50	104	0	74	26105
2026-01-28 08:29:11.17	199.34	17.03	-52.0	-56.8	3.7	0.00e+00	0	50	104	0	74	26812
2026-01-28 08:29:12.17	199.51	17.17	-52.4	-57.0	3.7	0.00e+00	0	50	104	0	75	25888
2026-01-28 08:29:13.16	199.68	17.31	-52.6	-57.2	3.7	0.00e+00	0	50	104	0	75	26456
2026-01-28 08:29:14.16	199.85	17.44	-52.6	-57.3	3.7	0.00e+00	0	50	104	0	76	25155
2026-01-28 08:29:15.16	200.02	17.58	-52.7	-57.3	3.7	0.00e+00	0	50	104	0	76	25188
2026-01-28 08:29:16.16	200.20	17.73	-52.6	-57.2	3.7	0.00e+00	0	50	104	0	76	24951
2026-01-28 08:29:17.16	200.38	17.87	-51.9	-56.7	3.7	0.00e+00	0	50	104	0	75	25065
2026-01-28 08:29:18.16	200.56	18.01	-52.0	-56.9	3.7	0.00e+00	0	50	104	0	75	25564
2026-01-28 08:29:19.15	200.74	18.15	-51.8	-56.8	3.7	0.00e+00	0	50	104	0	75	25142
2026-01-28 08:29:20.15	200.93	18.30	-51.6	-56.5	3.7	0.00e+00	0	50	104	0	74	25844
2026-01-28 08:29:21.15	201.11	18.44	-51.8	-56.8	3.7	0.00e+00	0	50	104	0	74	26647
2026-01-28 08:29:22.15	201.30	18.59	-51.6	-56.5	3.7	0.00e+00	0	50	104	0	74	25713
2026-01-28 08:29:23.14	201.49	18.73	-51.8	-56.5	3.7	0.00e+00	0	50	104	0	74	25864
2026-01-28 08:29:24.14	201.68	18.88	-51.8	-56.6	3.7	0.00e+00	0	50	104	0	74	26181
2026-01-28 08:29:25.13	201.88	19.03	-51.5	-56.4	3.7	0.00e+00	0	50	104	0	74	25539
2026-01-28 08:29:26.13	202.07	19.17	-51.8	-56.6	3.7	0.00e+00	0	51	104	0	74	26237
2026-01-28 08:29:27.13	202.27	19.32	-52.1	-56.7	3.7	0.00e+00	0	50	104	0	75	25076
2026-01-28 08:29:28.13	202.47	19.48	-52.2	-56.7	3.7	0.00e+00	0	50	104	0	75	25077
2026-01-28 08:29:29.13	202.68	19.63	-52.1	-56.8	3.7	0.00e+00	0	50	104	0	75	25323
2026-01-28 08:29:30.13	202.88	19.78	-52.1	-56.9	3.7	0.00e+00	0	50	104	0	75	25624
2026-01-28 08:29:31.12	203.09	19.93	-52.3	-57.0	3.7	0.00e+00	0	51	104	0	75	25900
2026-01-28 08:29:32.12	203.30	20.09	-52.5	-56.9	3.7	0.00e+00	0	50	104	0	75	25551
2026-01-28 08:29:33.12	203.51	20.24	-52.4	-57.0	3.7	0.00e+00	0	50	104	0	75	25819
2026-01-28 08:29:34.11	203.73	20.40	-52.7	-57.3	3.7	0.00e+00	0	50	104	0	76	25172
2026-01-28 08:29:35.11	203.94	20.55	-52.6	-57.3	3.7	0.00e+00	0	50	104	0	76	25301
2026-01-28 08:29:36.11	204.17	20.71	-52.2	-56.8	3.7	0.00e+00	0	50	104	0	75	25238
2026-01-28 08:29:37.11	204.39	20.87	-52.7	-57.3	3.7	0.00e+00	0	50	104	0	76	25197
2026-01-28 08:29:38.11	204.61	21.03	-52.3	-57.0	3.7	0.00e+00	0	50	104	0	76	24367
2026-01-28 08:29:39.11	204.84	21.19	-52.2	-56.6	3.7	0.00e+00	0	50	104	0	75	24724
2026-01-28 08:29:40.11	205.07	21.35	-52.1	-56.4	3.7	0.00e+00	0	50	104	0	75	24002
2026-01-28 08:29:41.11	205.31	21.51	-52.0	-56.2	3.7	0.00e+00	0	51	104	0	75	23666
2026-01-28 08:29:42.11	205.54	21.68	-51.9	-56.0	3.7	0.00e+00	0	50	104	0	75	22953
2026-01-28 08:29:43.10	205.78	21.84	-51.7	-55.8	3.7	0.00e+00	0	50	104	0	75	22580
2026-01-28 08:29:44.10	206.02	22.00	-51.4	-55.1	3.7	0.00e+00	0	50	104	0	74	21913
2026-01-28 08:29:45.10	206.27	22.17	-52.0	-56.3	3.7	0.00e+00	0	50	104	0	74	25323
2026-01-28 08:29:46.09	206.51	22.33	-52.5	-57.1	3.7	0.00e+00	0	50	104	0	75	26176
2026-01-28 08:29:47.09	206.76	22.50	-52.6	-57.1	3.7	0.00e+00	0	50	104	0	75	26223
2026-01-28 08:29:48.09	207.02	22.67	-52.6	-56.6	3.7	0.00e+00	0	50	104	0	76	23270
2026-01-28 08:29:49.08	207.27	22.84	-52.5	-56.6	3.7	0.00e+00	0	51	104	0	76	23162
2026-01-28 08:29:50.08	207.53	23.01	-52.3	-56.4	3.7	0.00e+00	0	50	104	0	76	22885
2026-01-28 08:29:51.08	207.80	23.18	-52.5	-57.0	3.7	0.00e+00	0	51	104	0	76	24251
2026-01-28 08:29:52.07	208.06	23.35	-52.5	-57.0	3.7	0.00e+00	0	51	104	0	76	24257
2026-01-28 08:29:53.07	208.33	23.52	-52.6	-56.8	3.7	0.00e+00	0	50	104	0	76	23863
2026-01-28 08:29:54.07	208.60	23.69	-52.7	-57.2	3.7	0.00e+00	0	50	104	0	76	25054
2026-01-28 08:29:55.07	208.88	23.87	-52.7	-57.3	3.7	0.00e+00	0	50	104	0	76	25340
2026-01-28 08:29:56.07	209.16	24.04	-52.8	-57.3	3.7	0.00e+00	0	51	104	0	76	25373
2026-01-28 08:29:57.07	209.44	24.22	-52.7	-57.3	3.7	0.00e+00	0	51	104	0	76	25109
2026-01-28 08:29:58.07	209.73	24.39	-52.5	-57.2	3.7	0.00e+00	0	50	104	0	76	24937
2026-01-28 08:29:59.06	210.01	24.57	-52.6	-57.2	3.7	0.00e+00	0	51	104	0	76	25089
2026-01-28 08:30:00.06	210.31	24.75	-52.6	-57.3	3.6	0.00e+00	0	50	104	0	76	25322
2026-01-28 08:30:01.06	210.61	24.93	-52.6	-57.3	3.7	0.00e+00	0	51	104	0	76	25227
2026-01-28 08:30:02.06	210.91	25.11	-52.6	-57.2	3.7	0.00e+00	0	50	104	0	76	25063
2026-01-28 08:30:03.06	211.21	25.29	-52.6	-57.3	3.7	0.00e+00	0	51	104	0	76	25294
2026-01-28 08:30:04.07	211.52	25.47	-52.6	-57.2	3.7	0.00e+00	0	50	104	0	76	25055
2026-01-28 08:30:05.07	211.84	25.65	-52.4	-57.2	3.7	0.00e+00	0	51	104	0	76	24961
2026-01-28 08:30:06.06	212.15	25.83	-51.9	-56.5	3.7	0.00e+00	0	51	104	0	75	24327
2026-01-28 08:30:07.06	212.47	26.01	-52.3	-57.1	3.7	0.00e+00	0	51	104	0	75	26180
2026-01-28 08:30:08.06	212.80	26.20	-52.3	-57.1	3.7	0.00e+00	0	51	104	0	75	26092
2026-01-28 08:30:09.06	213.12	26.38	-52.6	-57.0	3.7	0.00e+00	0	51	104	0	75	25750
2026-01-28 08:30:10.06	213.46	26.57	-52.5	-56.7	3.7	0.00e+00	0	51	104	0	76	23596
2026-01-28 08:30:11.06	213.80	26.75	-52.7	-57.0	3.7	0.00e+00	0	50	104	0	76	24342
2026-01-28 08:30:12.05	214.13	26.94	-52.7	-57.1	3.7	0.00e+00	0	50	104	0	76	24617
2026-01-28 08:30:13.05	214.48	27.12	-52.6	-57.0	3.7	0.00e+00	0	51	104	0	76	24268
2026-01-28 08:30:14.05	214.83	27.31	-52.6	-57.2	3.7	0.00e+00	0	50	104	0	76	24973
2026-01-28 08:30:15.05	215.18	27.50	-52.6	-57.1	3.7	0.00e+00	0	51	104	0	76	24548
2026-01-28 08:30:16.04	215.54	27.69	-52.7	-57.3	3.7	0.00e+00	0	50	104	0	76	25372
2026-01-28 08:30:17.04	215.90	27.87	-52.6	-57.2	3.7	0.00e+00	0	51	104	0	76	25025
2026-01-28 08:30:18.03	216.27	28.06	-52.8	-57.3	3.7	0.00e+00	0	50	104	0	76	25207
2026-01-28 08:30:19.03	216.64	28.25	-52.7	-57.4	3.7	0.00e+00	0	51	104	0	76	25429
2026-01-28 08:30:20.03	217.02	28.44	-52.7	-57.3	3.7	0.00e+00	0	51	104	0	76	25362
2026-01-28 08:30:21.03	217.40	28.63	-52.7	-57.4	3.7	0.00e+00	0	51	104	0	76	25657
2026-01-28 08:30:22.03	217.79	28.82	-52.9	-57.3	3.7	0.00e+00	0	51	104	0	76	25176
2026-01-28 08:30:23.03	218.19	29.01	-52.2	-56.2	3.7	0.00e+00	0	51	104	0	76	22345
2026-01-28 08:30:24.03	218.58	29.20	-52.8	-57.4	3.7	0.00e+00	0	51	104	0	76	25628
2026-01-28 08:30:25.03	218.99	29.39	-52.8	-57.2	3.7	0.00e+00	0	51	104	0	76	24839
2026-01-28 08:30:26.03	219.39	29.58	-52.6	-56.6	3.7	0.00e+00	0	51	104	0	76	23236
2026-01-28 08:30:27.03	219.81	29.77	-52.3	-56.3	3.7	0.00e+00	0	51	104	0	76	22520
2026-01-28 08:30:28.03	220.23	29.97	-52.1	-56.2	3.7	0.00e+00	0	51	104	0	76	22206
2026-01-28 08:30:29.02	220.65	30.15	-52.0	-56.1	3.7	0.00e+00	0	51	104	0	76	22000
2026-01-28 08:30:30.02	221.08	30.35	-51.9	-55.8	3.7	0.00e+00	0	51	104	0	75	22572
2026-01-28 08:30:31.03	221.52	30.54	-51.4	-54.8	3.7	0.00e+00	0	51	104	0	74	21160
2026-01-28 08:30:32.03	221.96	30.73	-52.0	-55.8	3.7	0.00e+00	0	51	104	0	74	23717
2026-01-28 08:30:33.03	222.40	30.92	-52.7	-57.3	3.7	0.00e+00	0	51	104	0	76	25275
2026-01-28 08:30:34.03	222.85	31.11	-52.9	-57.2	3.7	0.00e+00	0	51	104	0	76	24902
2026-01-28 08:30:35.03	223.31	31.30	-52.5	-56.6	3.7	0.00e+00	0	51	104	0	76	23280
2026-01-28 08:30:36.03	223.77	31.49	-52.1	-56.1	3.7	0.00e+00	0	51	104	0	76	22095
2026-01-28 08:30:37.03	224.24	31.68	-51.9	-56.0	3.7	0.00e+00	0	51	104	0	75	23009
2026-01-28 08:30:38.03	224.72	31.86	-51.9	-55.6	3.7	0.00e+00	0	51	104	0	75	22046
2026-01-28 08:30:39.03	225.20	32.05	-51.8	-55.6	3.7	0.00e+00	0	50	104	0	75	21932
2026-01-28 08:30:40.03	225.69	32.24	-51.8	-55.8	3.7	0.00e+00	0	51	104	0	75	22399
2026-01-28 08:30:41.03	226.18	32.42	-52.3	-56.5	3.7	0.00e+00	0	51	104	0	75	24505
2026-01-28 08:30:42.03	226.68	32.61	-52.8	-57.4	3.7	0.00e+00	0	51	104	0	76	25541
2026-01-28 08:30:43.03	227.18	32.79	-52.5	-57.3	3.7	0.00e+00	0	51	104	0	76	25264
2026-01-28 08:30:44.02	227.69	32.97	-52.4	-56.8	3.7	0.00e+00	0	51	104	0	76	23799
2026-01-28 08:30:45.03	228.21	33.16	-52.5	-56.8	3.7	0.00e+00	0	51	104	0	76	23695
2026-01-28 08:30:46.03	228.73	33.34	-52.4	-56.4	3.7	0.00e+00	0	51	104	0	76	22746
2026-01-28 08:30:47.02	229.26	33.52	-52.1	-56.0	3.7	0.00e+00	0	51	104	0	76	21796
2026-01-28 08:30:48.02	229.79	33.69	-51.7	-55.7	3.7	0.00e+00	0	50	104	0	75	22125
2026-01-28 08:30:49.02	230.33	33.87	-51.6	-55.6	3.7	0.00e+00	0	51	104	0	74	23214
2026-01-28 08:30:50.02	230.88	34.05	-51.8	-56.3	3.7	0.00e+00	0	51	104	0	74	25371
2026-01-28 08:30:51.02	231.43	34.22	-52.2	-57.2	3.7	0.00e+00	0	51	104	0	75	26432
2026-01-28 08:30:52.02	231.99	34.39	-52.3	-57.2	3.7	0.00e+00	0	51	104	0	75	26309
2026-01-28 08:30:53.02	232.56	34.56	-52.0	-56.2	3.7	0.00e+00	0	51	104	0	75	23582
2026-01-28 08:30:54.01	233.13	34.73	-52.0	-56.1	3.7	0.00e+00	0	51	104	0	75	23408
2026-01-28 08:30:55.01	233.71	34.90	-52.1	-56.2	3.7	0.00e+00	0	51	104	0	75	23622
2026-01-28 08:30:56.01	234.29	35.06	-52.1	-56.3	3.7	0.00e+00	0	51	104	0	75	23710
2026-01-28 08:30:57.01	234.88	35.22	-52.0	-56.3	3.7	0.00e+00	0	51	104	0	75	23726
2026-01-28 08:30:58.01	235.48	35.38	-51.7	-55.6	3.7	0.00e+00	0	51	104	0	75	21900
2026-01-28 08:30:59.00	236.08	35.54	-52.0	-55.9	3.7	0.00e+00	0	51	104	0	75	22732
2026-01-28 08:31:00.00	236.69	35.69	-52.4	-57.1	3.7	0.00e+00	0	51	104	0	75	26240
2026-01-28 08:31:01.00	237.30	35.84	-52.7	-56.9	3.7	0.00e+00	0	51	104	0	76	24192
2026-01-28 08:31:01.99	237.92	35.99	-52.2	-55.8	3.7	0.00e+00	0	51	104	0	75	22537
2026-01-28 08:31:02.99	238.55	36.14	-52.4	-56.2	3.7	0.00e+00	0	51	104	0	75	23649
2026-01-28 08:31:03.99	239.18	36.28	-52.3	-56.0	3.7	0.00e+00	0	51	104	0	75	23023
2026-01-28 08:31:04.99	239.82	36.42	-52.2	-56.0	3.7	0.00e+00	0	51	104	0	75	22889
2026-01-28 08:31:05.98	240.46	36.56	-52.2	-55.8	3.7	0.00e+00	0	51	104	0	75	22432
2026-01-28 08:31:06.98	241.11	36.69	-51.8	-55.3	3.7	0.00e+00	0	51	104	0	75	21237
2026-01-28 08:31:07.98	241.76	36.83	-52.2	-55.9	3.7	0.00e+00	0	51	104	0	75	22754
2026-01-28 08:31:08.98	242.42	36.95	-53.0	-57.4	3.7	0.00e+00	0	51	104	0	76	25660
2026-01-28 08:31:09.98	243.09	37.08	-52.9	-57.2	3.7	0.00e+00	0	51	104	0	76	24969
2026-01-28 08:31:10.97	243.76	37.20	-52.0	-56.2	3.7	0.00e+00	0	51	104	0	75	23589
2026-01-28 08:31:11.97	244.43	37.31	-51.8	-55.8	3.7	0.00e+00	0	51	104	0	75	22612
2026-01-28 08:31:12.97	245.12	37.43	-52.0	-56.0	3.7	0.00e+00	0	51	104	0	75	22962
2026-01-28 08:31:13.97	245.80	37.54	-51.9	-55.8	3.7	0.00e+00	0	51	104	0	75	22408
2026-01-28 08:31:14.97	246.50	37.64	-51.9	-56.0	3.7	0.00e+00	0	51	104	0	75	22927
2026-01-28 08:31:15.97	247.19	37.74	-51.9	-56.1	3.7	0.00e+00	0	51	104	0	75	23364
2026-01-28 08:31:16.97	247.89	37.84	-52.2	-56.5	3.7	0.00e+00	0	51	104	0	75	24455
2026-01-28 08:31:17.97	248.60	37.93	-52.5	-57.4	3.7	0.00e+00	0	51	104	0	75	26977
2026-01-28 08:31:18.97	249.31	38.02	-52.7	-57.4	3.7	0.00e+00	0	51	104	0	76	25431
2026-01-28 08:31:19.97	250.02	38.11	-52.4	-57.1	3.7	0.00e+00	0	51	104	0	76	24803
2026-01-28 08:31:20.97	250.74	38.19	-52.7	-57.4	3.7	0.00e+00	0	51	104	0	76	25538
2026-01-28 08:31:21.97	251.46	38.26	-53.0	-57.5	3.7	0.00e+00	0	51	104	0	76	25695
2026-01-28 08:31:22.96	252.17	38.33	-52.6	-57.1	3.7	0.00e+00	0	51	104	0	76	24788
2026-01-28 08:31:23.96	252.90	38.40	-52.4	-56.9	3.7	0.00e+00	0	51	104	0	76	24193
2026-01-28 08:31:24.96	253.63	38.46	-53.1	-57.5	3.7	0.00e+00	0	51	104	0	76	25742
2026-01-28 08:31:25.96	254.36	38.51	-53.0	-57.3	3.7	0.00e+00	0	51	104	0	76	25166
2026-01-28 08:31:26.95	255.09	38.56	-53.1	-57.5	3.7	0.00e+00	0	51	104	0	76	25924
2026-01-28 08:31:27.95	255.83	38.61	-52.7	-57.3	3.7	0.00e+00	0	51	104	0	76	25301
2026-01-28 08:31:28.95	256.57	38.65	-52.7	-57.4	3.7	0.00e+00	0	51	104	0	76	25470
2026-01-28 08:31:29.94	257.30	38.69	-52.9	-57.5	3.7	0.00e+00	0	51	104	0	76	25804
2026-01-28 08:31:30.95	258.05	38.72	-53.0	-57.7	3.7	0.00e+00	0	51	104	0	76	26290
2026-01-28 08:31:31.95	258.80	38.74	-52.5	-57.3	3.7	0.00e+00	0	51	104	0	76	25343
2026-01-28 08:31:32.95	259.54	38.76	-52.6	-57.3	3.7	0.00e+00	0	51	104	0	76	25265
2026-01-28 08:31:33.95	260.29	38.78	-52.7	-57.1	3.7	0.00e+00	0	51	104	0	76	24641
2026-01-28 08:31:34.95	261.03	38.79	-52.9	-57.4	3.7	0.00e+00	0	51	104	0	76	25573
2026-01-28 08:31:35.95	261.78	38.80	-52.6	-57.3	3.7	0.00e+00	0	51	104	0	76	25237
2026-01-28 08:31:36.95	262.53	38.80	-52.8	-57.3	3.7	0.00e+00	0	51	104	0	76	25301
2026-01-28 08:31:37.95	263.27	38.79	-51.8	-55.8	3.7	0.00e+00	0	51	104	0	75	22531
2026-01-28 08:31:38.95	264.02	38.78	-52.5	-57.2	3.7	0.00e+00	0	51	104	0	75	26529
2026-01-28 08:31:39.95	264.76	38.76	-52.7	-57.0	3.7	0.00e+00	0	51	104	0	76	24496
2026-01-28 08:31:40.95	265.51	38.74	-52.9	-57.2	3.7	0.00e+00	0	51	104	0	76	24967
2026-01-28 08:31:41.96	266.26	38.72	-51.9	-55.9	3.7	0.00e+00	0	51	104	0	75	22831
2026-01-28 08:31:42.96	267.00	38.69	-51.9	-56.1	3.7	0.00e+00	0	51	104	0	75	23163
2026-01-28 08:31:43.96	267.74	38.65	-52.0	-55.9	3.7	0.00e+00	0	51	104	0	75	22821
2026-01-28 08:31:44.96	268.48	38.61	-52.1	-56.2	3.7	0.00e+00	0	51	104	0	75	23453
2026-01-28 08:31:45.97	269.23	38.56	-52.2	-57.0	3.7	0.00e+00	0	51	104	0	75	25693
2026-01-28 08:31:46.97	269.96	38.51	-52.1	-57.0	3.7	0.00e+00	0	51	104	0	75	25765
2026-01-28 08:31:47.97	270.69	38.46	-52.4	-57.4	3.7	0.00e+00	0	51	104	0	75	26902
2026-01-28 08:31:48.98	271.43	38.40	-52.3	-57.3	3.7	0.00e+00	0	51	104	0	75	26858
2026-01-28 08:31:49.97	272.15	38.33	-52.2	-57.3	3.7	0.00e+00	0	51	104	0	75	26741
2026-01-28 08:31:50.98	272.88	38.26	-51.3	-54.9	3.7	0.00e+00	0	51	104	0	74	21506
2026-01-28 08:31:51.98	273.60	38.19	-52.5	-57.5	3.7	0.00e+00	0	51	104	0	75	27240
2026-01-28 08:31:52.98	274.31	38.11	-52.3	-56.2	3.7	0.00e+00	0	51	104	0	75	23609
2026-01-28 08:31:53.98	275.02	38.02	-50.3	-53.0	3.8	0.00e+00	0	51	104	0	71	20419
2026-01-28 08:31:54.98	275.73	37.94	-48.4	-50.5	4.0	0.00e+00	0	51	104	0	68	18208
2026-01-28 08:31:55.98	276.44	37.84	-47.7	-49.7	4.1	0.00e+00	0	51	104	0	67	17735
2026-01-28 08:31:56.98	277.14	37.75	-47.2	-49.0	4.1	0.00e+00	0	51	104	0	66	17288
2026-01-28 08:31:57.98	277.83	37.65	-46.7	-48.4	4.2	0.00e+00	0	51	104	0	65	17062
2026-01-28 08:31:58.98	278.52	37.54	-47.8	-49.7	4.1	0.00e+00	0	51	104	0	66	18607
2026-01-28 08:31:59.98	279.21	37.43	-47.1	-48.8	4.2	0.00e+00	0	51	104	0	64	18913
2026-01-28 08:32:00.98	279.89	37.32	-52.8	-56.8	3.7	0.00e+00	0	51	104	0	76	23853
2026-01-28 08:32:01.98	280.56	37.20	-50.8	-53.9	3.8	0.00e+00	0	51	104	0	72	21472
2026-01-28 08:32:02.98	281.23	37.08	-49.3	-51.4	3.9	0.00e+00	0	51	104	0	69	19205
2026-01-28 08:32:03.99	281.91	36.96	-47.8	-49.5	4.1	0.00e+00	0	51	104	0	67	17335
2026-01-28 08:32:04.98	282.56	36.83	-47.8	-49.7	4.1	0.00e+00	0	51	104	0	67	17621
2026-01-28 08:32:05.97	283.21	36.70	-48.3	-50.4	4.0	0.00e+00	0	51	104	0	67	19081
2026-01-28 08:32:06.97	283.86	36.57	-49.3	-51.5	4.0	0.00e+00	0	51	104	0	69	19470
2026-01-28 08:32:07.97	284.50	36.43	-50.6	-53.4	3.8	0.00e+00	0	51	104	0	71	21386
2026-01-28 08:32:08.97	285.14	36.29	-27.7	-28.6	4.6	0.00e+00	0	51	104	0	45	5494
2026-01-28 08:32:09.98	285.78	36.14	-40.9	-42.0	4.5	0.00e+00	0	51	104	0	52	17335
2026-01-28 08:32:10.97	286.40	36.00	-30.3	-31.2	4.6	0.00e+00	0	51	104	0	31	16730
2026-01-28 08:32:11.97	287.01	35.85	-27.9	-28.8	4.6	0.00e+00	0	51	104	0	26	16820
2026-01-28 08:32:12.97	287.63	35.70	-25.3	-26.2	4.6	0.00e+00	0	51	104	0	22	15722
2026-01-28 08:32:13.97	288.24	35.54	-24.8	-25.7	4.6	0.00e+00	0	51	104	0	21	15758
2026-01-28 08:32:14.97	288.84	35.39	-24.5	-25.4	4.6	0.00e+00	0	51	104	0	20	16019
2026-01-28 08:32:15.96	289.43	35.23	-24.4	-25.2	4.6	0.00e+00	0	51	104	0	20	15821
2026-01-28 08:32:16.96	290.02	35.07	-26.9	-27.8	4.6	0.00e+00	0	51	104	0	24	16814
2026-01-28 08:32:17.96	290.60	34.91	-26.0	-26.9	4.6	0.00e+00	0	51	104	0	22	17019
2026-01-28 08:32:18.96	291.18	34.74	-40.9	-42.0	4.5	0.00e+00	0	51	104	0	52	17215
2026-01-28 08:32:19.96	291.75	34.57	-30.3	-31.1	4.6	0.00e+00	0	51	104	0	31	16576
2026-01-28 08:32:20.96	292.31	34.40	-27.7	-28.6	4.7	0.00e+00	0	51	104	0	26	16524
2026-01-28 08:32:21.95	292.86	34.23	-25.6	-26.4	4.6	0.00e+00	0	51	104	0	23	15281
2026-01-28 08:32:22.95	293.42	34.06	-26.1	-27.0	4.6	0.00e+00	0	51	104	0	23	16297
2026-01-28 08:32:23.94	293.96	33.89	-26.2	-27.1	4.6	0.00e+00	0	51	104	0	23	16433
2026-01-28 08:32:24.94	294.50	33.71	-26.3	-27.1	4.6	0.00e+00	0	51	104	0	23	16548
2026-01-28 08:32:25.93	295.02	33.54	-24.5	-25.3	22.0	0.00e+00	0	51	0	0	20	15965
2026-01-28 08:32:26.93	295.55	33.36	-24.5	-25.3	22.0	0.00e+00	0	51	0	58720256	20	15973
2026-01-28 08:32:27.93	296.07	33.18	-40.2	-41.3	14.2	0.00e+00	0	52	0	117440512	50	17777
2026-01-28 08:32:28.93	296.59	33.00	-29.5	-30.4	19.8	3.39e-05	0	51	0	176160768	30	16057
2026-01-28 08:32:29.92	297.09	32.82	-28.6	-29.5	20.2	0.00e+00	0	51	0	234881024	27	17207
2026-01-28 08:32:30.92	297.59	32.64	-25.3	-26.1	21.8	0.00e+00	0	52	0	301989888	22	15637
2026-01-28 08:32:31.92	298.09	32.45	-25.1	-25.9	22.0	0.00e+00	0	51	0	360710144	22	15185
2026-01-28 08:32:32.92	298.58	32.27	-24.6	-25.4	22.2	0.00e+00	0	51	0	419430400	21	15220
2026-01-28 08:32:33.91	299.06	32.08	-25.1	-26.0	21.9	0.00e+00	0	52	0	478150656	21	16223
2026-01-28 08:32:34.91	299.54	31.90	-25.1	-25.9	21.9	0.00e+00	0	51	0	536870912	21	16200
2026-01-28 08:32:35.91	300.02	31.71	-24.7	-25.5	22.0	0.00e+00	0	52	0	595591168	20	16369
2026-01-28 08:32:36.91	300.48	31.52	-24.6	-25.4	22.0	0.00e+00	0	51	0	654311424	20	16154
2026-01-28 08:32:37.90	300.94	31.34	-24.8	-25.6	22.0	0.00e+00	0	52	0	713031680	21	15536
2026-01-28 08:32:38.90	301.40	31.15	-24.6	-25.5	22.0	0.00e+00	0	51	0	771751936	21	15315
2026-01-28 08:32:39.90	301.85	30.96	-24.8	-25.6	21.9	0.00e+00	0	52	0	838860800	21	15539
2026-01-28 08:32:40.90	302.29	30.77	-24.7	-25.5	22.0	0.00e+00	0	51	0	897581056	21	15386
2026-01-28 08:32:41.90	302.73	30.58	-24.8	-25.6	21.8	0.00e+00	0	52	0	956301312	21	15636
2026-01-28 08:32:42.90	303.16	30.39	-25.1	-26.0	21.9	0.00e+00	0	52	0	1015021568	21	16231
2026-01-28 08:32:43.90	303.59	30.20	-24.6	-25.4	22.1	0.00e+00	0	52	0	1073741824	21	15214
2026-01-28 08:32:44.90	304.01	30.01	-24.8	-25.6	22.0	0.00e+00	0	52	0	1132462080	21	15520
2026-01-28 08:32:45.90	304.43	29.82	-25.2	-26.1	21.8	0.00e+00	0	52	0	1191182336	21	16424
2026-01-28 08:32:46.89	304.84	29.64	-24.8	-25.6	22.1	0.00e+00	0	52	0	1258291200	21	15586
2026-01-28 08:32:47.89	305.25	29.45	-24.9	-25.8	22.0	0.00e+00	0	52	0	1317011456	21	15841
2026-01-28 08:32:48.89	305.65	29.26	-25.5	-26.3	21.7	0.00e+00	0	52	0	1375731712	21	16893
2026-01-28 08:32:49.89	306.05	29.07	-25.0	-25.9	22.0	0.00e+00	0	52	0	1434451968	21	16061
2026-01-28 08:32:50.89	306.44	28.88	-25.2	-26.0	21.9	0.00e+00	0	52	0	1493172224	21	16313
2026-01-28 08:32:51.88	306.82	28.69	-25.7	-26.6	21.7	0.00e+00	0	52	0	1551892480	21	17374
2026-01-28 08:32:52.88	307.20	28.50	-25.3	-26.1	21.9	0.00e+00	0	52	0	1619001344	22	15538
2026-01-28 08:32:53.88	307.58	28.31	-25.4	-26.2	21.8	0.00e+00	0	52	0	1677721600	22	15779
2026-01-28 08:32:54.88	307.95	28.12	-25.6	-26.4	21.7	0.00e+00	0	52	0	1736441856	22	16155
2026-01-28 08:32:55.88	308.32	27.94	-25.4	-26.3	21.8	0.00e+00	0	52	0	1795162112	22	15886
2026-01-28 08:32:56.87	308.68	27.75	-25.6	-26.4	21.8	0.00e+00	0	52	0	1853882368	22	16106
2026-01-28 08:32:57.87	309.04	27.56	-25.8	-26.6	21.7	0.00e+00	0	52	0	1912602624	22	16461
2026-01-28 08:32:58.86	309.39	27.38	-25.6	-26.4	21.8	0.00e+00	0	52	0	1971322880	23	15271
2026-01-28 08:32:59.86	309.74	27.19	-25.7	-26.6	21.8	0.00e+00	0	52	0	2038431744	23	15515
2026-01-28 08:33:00.86	310.08	27.01	-25.8	-26.7	21.7	0.00e+00	0	52	0	2097152000	23	15703
2026-01-28 08:33:01.85	310.42	26.82	-25.7	-26.6	21.8	0.00e+00	0	52	0	2155872256	23	15491
2026-01-28 08:33:02.85	310.76	26.64	-25.9	-26.7	21.7	0.00e+00	0	52	0	2214592512	23	15728
2026-01-28 08:33:03.85	311.09	26.46	-26.0	-26.9	21.6	0.00e+00	0	52	0	2273312768	23	16075
2026-01-28 08:33:04.84	311.41	26.28	-26.1	-26.9	21.5	0.00e+00	0	52	0	2332033024	23	16191
2026-01-28 08:33:05.84	311.74	26.09	-26.0	-26.8	21.5	0.00e+00	0	52	0	2390753280	24	15095
2026-01-28 08:33:06.84	312.06	25.91	-26.2	-27.0	21.4	0.00e+00	0	52	0	2449473536	24	15366
2026-01-28 08:33:07.84	312.37	25.73	-26.2	-27.1	21.2	0.00e+00	0	52	0	2508193792	24	15476
2026-01-28 08:33:08.84	312.69	25.55	-26.1	-27.0	21.2	0.00e+00	0	52	0	2575302656	24	15303
2026-01-28 08:33:09.84	312.99	25.37	-26.2	-27.1	21.1	0.00e+00	0	52	0	2634022912	24	15525
2026-01-28 08:33:10.84	313.30	25.19	-26.4	-27.2	21.1	0.00e+00	0	52	0	2692743168	24	15772
2026-01-28 08:33:11.84	313.60	25.01	-26.5	-27.3	21.0	0.00e+00	0	52	0	2751463424	24	16003
2026-01-28 08:33:12.84	313.90	24.83	-26.4	-27.2	21.1	0.00e+00	0	52	0	2810183680	24	15748
2026-01-28 08:33:13.83	314.19	24.66	-26.4	-27.3	21.2	0.00e+00	0	52	0	2868903936	24	15840
2026-01-28 08:33:14.83	314.48	24.48	-26.6	-27.5	21.2	0.00e+00	0	52	0	2936012800	24	16206
2026-01-28 08:33:15.83	314.76	24.31	-26.7	-27.5	21.1	0.00e+00	0	52	0	2994733056	24	16314
2026-01-28 08:33:16.83	315.04	24.13	-26.6	-27.4	21.2	0.00e+00	0	52	0	3053453312	25	15259
2026-01-28 08:33:17.83	315.32	23.96	-26.7	-27.5	21.1	0.00e+00	0	52	0	3112173568	25	15423
2026-01-28 08:33:18.82	315.60	23.79	-26.8	-27.7	21.0	0.00e+00	0	52	0	3170893824	25	15689
2026-01-28 08:33:19.82	315.87	23.62	-27.0	-27.8	21.0	0.00e+00	0	52	0	3229614080	25	15923
2026-01-28 08:33:20.81	316.14	23.45	-26.7	-27.6	21.1	0.00e+00	0	52	0	3288334336	25	15523
2026-01-28 08:33:21.81	316.40	23.28	-26.9	-27.7	20.9	0.00e+00	0	52	0	3355443200	25	15807
2026-01-28 08:33:22.81	316.66	23.11	-27.0	-27.8	20.8	0.00e+00	0	52	0	3414163456	25	15994
2026-01-28 08:33:23.81	316.92	22.94	-27.2	-28.0	20.6	0.00e+00	0	52	0	3472883712	25	16300
2026-01-28 08:33:24.82	317.18	22.77	-27.0	-27.8	20.8	0.00e+00	0	52	0	3531603968	25	15956
2026-01-28 08:33:25.81	317.43	22.60	-27.2	-28.0	20.7	0.00e+00	0	52	0	3590324224	25	16315
2026-01-28 08:33:26.81	317.68	22.44	-27.7	-28.5	20.3	0.00e+00	0	52	0	3649044480	25	17292
2026-01-28 08:33:27.81	317.93	22.27	-27.7	-28.5	20.4	0.00e+00	0	52	0	3707764736	26	16366
2026-01-28 08:33:28.81	318.18	22.11	-27.5	-28.4	20.5	0.00e+00	0	52	0	3774873600	27	15214
2026-01-28 08:33:29.81	318.42	21.94	-27.7	-28.5	20.4	0.00e+00	0	53	0	3833593856	27	15404
2026-01-28 08:33:30.80	318.65	21.78	-27.8	-28.7	20.2	0.00e+00	0	52	0	3892314112	27	15661
2026-01-28 08:33:31.80	318.89	21.62	-27.9	-28.7	19.9	0.00e+00	0	52	0	3951034368	27	15766
2026-01-28 08:33:32.80	319.12	21.46	-28.0	-28.9	19.7	0.00e+00	0	52	0	4009754624	27	16068
2026-01-28 08:33:33.80	319.35	21.30	-27.8	-28.6	19.9	0.00e+00	0	53	0	4068474880	27	15584
2026-01-28 08:33:34.79	319.58	21.14	-28.0	-28.8	19.8	0.00e+00	0	52	0	4127195136	27	15934
2026-01-28 08:33:35.79	319.81	20.98	-27.9	-28.8	20.1	0.00e+00	0	52	0	4185915392	27	15894
2026-01-28 08:33:36.80	320.03	20.82	-28.0	-28.9	20.3	0.00e+00	0	52	0	4253024256	27	16033
2026-01-28 08:33:37.79	320.25	20.67	-28.2	-29.0	20.2	0.00e+00	0	52	0	4311744512	27	16368
2026-01-28 08:33:38.78	320.46	20.51	-28.0	-28.9	20.3	0.00e+00	0	53	0	4370464768	27	16049
2026-01-28 08:33:39.79	320.68	20.35	-28.1	-28.9	20.2	0.00e+00	0	52	0	4429185024	27	16192
2026-01-28 08:33:40.78	320.89	20.20	-28.2	-29.1	20.0	0.00e+00	0	52	0	4487905280	27	16430
2026-01-28 08:33:41.78	321.10	20.05	-28.3	-29.2	20.0	0.00e+00	0	52	0	4546625536	27	16581
2026-01-28 08:33:42.78	321.31	19.90	-28.4	-29.3	19.9	0.00e+00	0	52	0	4605345792	27	16800
2026-01-28 08:33:43.78	321.52	19.74	-28.2	-29.1	20.0	0.00e+00	0	52	0	4672454656	28	15492
2026-01-28 08:33:44.78	321.72	19.59	-28.2	-29.1	19.9	0.00e+00	0	52	0	4731174912	28	15494
2026-01-28 08:33:45.77	321.92	19.45	-28.6	-29.4	19.5	0.00e+00	0	53	0	4789895168	28	16155
2026-01-28 08:33:46.77	322.12	19.30	-28.7	-29.6	19.4	0.00e+00	0	52	0	4848615424	28	16413
2026-01-28 08:33:47.77	322.32	19.15	-28.8	-29.7	19.4	0.00e+00	0	53	0	4907335680	28	16612
2026-01-28 08:33:48.77	322.51	19.00	-28.6	-29.5	19.5	0.00e+00	0	52	0	4966055936	29	15391
2026-01-28 08:33:49.77	322.70	18.85	-28.7	-29.6	19.5	0.00e+00	0	53	0	5024776192	29	15517
2026-01-28 08:33:50.77	322.90	18.71	-28.8	-29.7	19.5	0.00e+00	0	52	0	5091885056	29	15716
2026-01-28 08:33:51.77	323.08	18.56	-28.9	-29.8	19.5	0.00e+00	0	52	0	5150605312	29	15936
2026-01-28 08:33:52.76	323.27	18.42	-29.0	-29.9	19.5	0.00e+00	0	52	0	5209325568	29	16020
2026-01-28 08:33:53.76	323.45	18.28	-28.9	-29.8	19.7	0.00e+00	0	52	0	5268045824	29	15860
2026-01-28 08:33:54.76	323.64	18.14	-28.9	-29.8	19.7	0.00e+00	0	52	0	5326766080	29	15861
2026-01-28 08:33:55.76	323.82	17.99	-29.1	-29.9	19.6	0.00e+00	0	52	0	5385486336	29	16146
2026-01-28 08:33:56.75	323.99	17.85	-29.1	-30.0	19.7	0.00e+00	0	52	0	5444206592	29	16251
2026-01-28 08:33:57.75	324.17	17.71	-29.2	-30.1	19.7	0.00e+00	0	53	0	5502926848	29	16494
2026-01-28 08:33:58.75	324.34	17.57	-29.3	-30.2	19.6	0.00e+00	0	52	0	5570035712	29	16605
2026-01-28 08:33:59.74	324.52	17.44	-29.2	-30.0	19.8	0.00e+00	0	52	0	5628755968	30	15421
2026-01-28 08:34:00.74	324.69	17.30	-29.2	-30.0	19.6	0.00e+00	0	53	0	5687476224	30	15469
2026-01-28 08:34:01.74	324.86	17.16	-29.3	-30.2	19.4	0.00e+00	0	53	0	5746196480	30	15656
2026-01-28 08:34:02.74	325.03	17.03	-29.8	-30.6	18.7	0.00e+00	0	53	0	5804916736	30	16570
2026-01-28 08:34:03.73	325.19	16.89	-29.8	-30.6	18.5	0.00e+00	0	52	0	5863636992	30	16549
2026-01-28 08:34:04.73	325.35	16.76	-29.8	-30.7	18.2	0.00e+00	0	52	0	5922357248	30	16686
2026-01-28 08:34:05.73	325.52	16.63	-29.9	-30.8	17.9	0.00e+00	0	52	0	5989466112	30	16884
2026-01-28 08:34:06.73	325.68	16.49	-29.7	-30.6	18.0	0.00e+00	0	53	0	6048186368	31	15550
2026-01-28 08:34:07.73	325.84	16.36	-29.7	-30.6	18.0	0.00e+00	0	53	0	6106906624	31	15580
2026-01-28 08:34:08.73	326.00	16.23	-29.9	-30.8	17.9	0.00e+00	0	52	0	6165626880	31	15979
2026-01-28 08:34:09.73	326.15	16.10	-30.0	-30.9	18.0	0.00e+00	0	52	0	6224347136	31	16150
2026-01-28 08:34:10.72	326.31	15.97	-30.0	-30.9	18.2	0.00e+00	0	52	0	6283067392	31	16038
2026-01-28 08:34:11.72	326.46	15.84	-30.1	-31.0	18.1	0.00e+00	0	52	0	6341787648	31	16267
2026-01-28 08:34:12.72	326.61	15.71	-30.0	-30.8	18.2	0.00e+00	0	52	0	6408896512	31	16010
2026-01-28 08:34:13.72	326.76	15.58	-30.0	-30.8	18.2	0.00e+00	0	53	0	6467616768	31	16003
2026-01-28 08:34:14.72	326.91	15.46	-30.1	-31.0	18.1	0.00e+00	0	52	0	6526337024	31	16297
2026-01-28 08:34:15.71	327.06	15.33	-30.1	-30.9	18.1	0.00e+00	0	52	0	6585057280	31	16202
2026-01-28 08:34:16.71	327.20	15.21	-30.2	-31.1	18.1	0.00e+00	0	52	0	6643777536	31	16412
2026-01-28 08:34:17.71	327.35	15.08	-30.2	-31.1	18.1	0.00e+00	0	52	0	6702497792	31	16541
2026-01-28 08:34:18.71	327.49	14.96	-30.6	-31.5	17.9	0.00e+00	0	52	0	6761218048	31	17245
2026-01-28 08:34:19.71	327.63	14.83	-30.5	-31.4	18.3	0.00e+00	0	52	0	6828326912	32	16050
2026-01-28 08:34:20.71	327.77	14.71	-30.6	-31.5	18.5	0.00e+00	0	53	0	6878658560	32	16330
2026-01-28 08:34:21.71	327.91	14.59	-30.7	-31.5	18.6	0.00e+00	0	52	0	6945767424	32	16355
2026-01-28 08:34:22.71	328.05	14.47	-30.7	-31.5	18.7	0.00e+00	0	53	0	7004487680	32	16336
2026-01-28 08:34:23.70	328.18	14.35	-30.8	-31.7	18.6	0.00e+00	0	53	0	7063207936	32	16642
2026-01-28 08:34:24.70	328.32	14.23	-30.8	-31.7	18.5	0.00e+00	0	53	0	7121928192	32	16700
2026-01-28 08:34:25.70	328.45	14.11	-31.0	-31.9	18.1	0.00e+00	0	53	0	7180648448	32	17103
2026-01-28 08:34:26.69	328.58	13.99	-31.0	-31.9	17.9	0.00e+00	0	52	0	7239368704	32	17089
2026-01-28 08:34:27.68	328.71	13.87	-30.7	-31.6	18.1	0.00e+00	0	52	0	7306477568	33	15481
2026-01-28 08:34:28.68	328.84	13.75	-30.9	-31.7	17.9	0.00e+00	0	52	0	7365197824	33	15792
2026-01-28 08:34:29.68	328.97	13.64	-31.0	-31.8	17.8	0.00e+00	0	53	0	7423918080	33	16011
2026-01-28 08:34:30.68	329.10	13.52	-30.9	-31.8	17.9	0.00e+00	0	52	0	7482638336	33	15977
2026-01-28 08:34:31.68	329.23	13.41	-31.1	-32.0	18.0	0.00e+00	0	52	0	7541358592	33	16244
2026-01-28 08:34:32.67	329.35	13.29	-31.1	-32.0	18.1	0.00e+00	0	53	0	7600078848	33	16300
2026-01-28 08:34:33.67	329.48	13.18	-31.2	-32.1	18.2	0.00e+00	0	52	0	7658799104	33	16436
2026-01-28 08:34:34.67	329.60	13.06	-31.5	-32.4	18.0	0.00e+00	0	53	0	7725907968	33	17061
2026-01-28 08:34:35.67	329.72	12.95	-31.3	-32.1	18.3	0.00e+00	0	53	0	7784628224	34	15633
2026-01-28 08:34:36.67	329.84	12.84	-31.4	-32.3	18.2	0.00e+00	0	52	0	7843348480	34	15883
2026-01-28 08:34:37.67	329.96	12.73	-31.4	-32.3	18.1	0.00e+00	0	53	0	7902068736	34	15910
2026-01-28 08:34:38.67	330.08	12.61	-31.5	-32.4	17.9	0.00e+00	0	53	0	7960788992	34	16113
2026-01-28 08:34:39.67	330.20	12.50	-31.6	-32.5	17.8	0.00e+00	0	52	0	8019509248	34	16222
2026-01-28 08:34:40.67	330.32	12.39	-31.7	-32.6	17.7	0.00e+00	0	52	0	8086618112	34	16426
2026-01-28 08:34:41.67	330.43	12.28	-31.7	-32.6	17.7	0.00e+00	0	53	0	8145338368	34	16509
2026-01-28 08:34:42.67	330.55	12.17	-31.8	-32.7	17.6	0.00e+00	0	53	0	8204058624	34	16637
2026-01-28 08:34:43.66	330.66	12.07	-31.8	-32.7	17.6	0.00e+00	0	53	0	8262778880	34	16580
2026-01-28 08:34:44.66	330.77	11.96	-31.6	-32.5	17.8	0.00e+00	0	53	0	8321499136	35	15408
2026-01-28 08:34:45.66	330.88	11.85	-31.7	-32.6	17.8	0.00e+00	0	52	0	8380219392	35	15483
2026-01-28 08:34:46.66	331.00	11.74	-31.7	-32.6	17.8	0.00e+00	0	53	0	8438939648	35	15604
2026-01-28 08:34:47.65	331.10	11.64	-31.8	-32.6	17.9	0.00e+00	0	53	0	8497659904	35	15621
2026-01-28 08:34:48.65	331.21	11.53	-31.8	-32.7	17.9	0.00e+00	0	52	0	8556380160	35	15765
2026-01-28 08:34:49.65	331.32	11.43	-32.0	-32.9	17.7	0.00e+00	0	53	0	8623489024	35	16040
2026-01-28 08:34:50.65	331.43	11.32	-32.0	-32.8	17.8	0.00e+00	0	53	0	8682209280	35	16006
2026-01-28 08:34:51.65	331.54	11.22	-32.3	-33.2	17.5	0.00e+00	0	53	0	8740929536	35	16711
2026-01-28 08:34:52.65	331.64	11.11	-32.4	-33.3	17.5	0.00e+00	0	52	0	8799649792	35	16803
2026-01-28 08:34:53.64	331.74	11.01	-32.5	-33.4	17.4	0.00e+00	0	53	0	8858370048	35	17092
2026-01-28 08:34:54.64	331.85	10.91	-33.5	-34.4	18.1	0.00e+00	0	53	0	8917090304	38	16156
2026-01-28 08:34:55.64	331.95	10.81	-33.6	-34.5	18.1	0.00e+00	0	53	0	8975810560	38	16252
2026-01-28 08:34:56.63	332.05	10.71	-33.6	-34.5	18.0	0.00e+00	0	53	0	9042919424	38	16232
2026-01-28 08:34:57.63	332.15	10.61	-33.7	-34.6	18.0	0.00e+00	0	53	0	9101639680	38	16407
2026-01-28 08:34:58.62	332.25	10.51	-33.7	-34.6	18.0	0.00e+00	0	53	0	9160359936	38	16440
2026-01-28 08:34:59.62	332.35	10.41	-33.7	-34.6	18.0	0.00e+00	0	53	0	9219080192	38	16550
2026-01-28 08:35:00.61	332.45	10.31	-33.8	-34.7	18.0	0.00e+00	0	53	0	9277800448	38	16621
2026-01-28 08:35:01.61	332.55	10.21	-33.9	-34.8	17.9	0.00e+00	0	53	0	9336520704	38	16820
2026-01-28 08:35:02.61	332.65	10.11	-33.9	-34.8	17.9	0.00e+00	0	53	0	9403629568	38	16931
2026-01-28 08:35:03.62	332.74	10.01	-34.0	-34.9	17.8	0.00e+00	0	53	0	9462349824	38	17127
2026-01-28 08:35:04.61	332.84	9.91	-33.9	-34.8	17.8	0.00e+00	0	53	0	9521070080	39	15977
2026-01-28 08:35:05.61	332.93	9.81	-33.8	-34.7	17.8	0.00e+00	0	52	0	9579790336	39	15709
2026-01-28 08:35:06.61	333.03	9.72	-33.8	-34.7	17.6	0.00e+00	0	53	0	9638510592	39	15801
2026-01-28 08:35:07.61	333.12	9.62	-33.9	-34.8	17.4	0.00e+00	0	53	0	9697230848	39	15894
2026-01-28 08:35:08.61	333.21	9.53	-33.9	-34.8	17.3	0.00e+00	0	53	0	9755951104	39	15980
2026-01-28 08:35:09.60	333.30	9.43	-34.3	-35.2	16.9	0.00e+00	0	53	0	9814671360	39	16679
2026-01-28 08:35:10.60	333.40	9.34	-34.5	-35.4	16.8	0.00e+00	0	53	0	9873391616	39	17071
2026-01-28 08:35:11.60	333.49	9.24	-34.3	-35.3	16.8	0.00e+00	0	53	0	9940500480	39	16774
2026-01-28 08:35:12.60	333.58	9.15	-34.4	-35.3	16.9	0.00e+00	0	53	0	9999220736	39	16845
2026-01-28 08:35:13.60	333.67	9.05	-34.4	-35.3	17.0	0.00e+00	0	53	0	10057940992	39	16890
2026-01-28 08:35:14.60	333.75	8.96	-35.7	-36.6	15.7	0.00e+00	0	53	0	10116661248	41	17513
2026-01-28 08:35:15.60	333.84	8.87	-51.9	-56.6	3.7	4.36e-02	0	52	104	10133438464	74	26059
2026-01-28 08:35:16.59	333.93	8.77	-51.1	-56.3	3.7	4.36e-02	0	52	104	10133438464	73	26808
2026-01-28 08:35:17.59	334.01	8.68	-50.0	-55.8	3.7	4.36e-02	0	52	104	10133438464	72	26593
2026-01-28 08:35:18.59	334.10	8.59	-51.4	-56.5	3.7	4.36e-02	0	52	104	10133438464	73	27406
2026-01-28 08:35:19.59	334.19	8.50	-51.9	-57.0	3.7	4.36e-02	0	52	104	10133438464	74	27414
2026-01-28 08:35:20.59	334.27	8.41	-51.8	-56.8	3.7	4.36e-02	0	52	104	10133438464	74	26813
2026-01-28 08:35:21.59	334.35	8.32	-51.4	-56.4	3.7	4.36e-02	0	52	104	10133438464	74	25485
2026-01-28 08:35:22.59	334.44	8.23	-52.6	-57.4	3.7	4.36e-02	0	52	104	10133438464	76	25523
2026-01-28 08:35:23.59	334.52	8.14	-51.3	-56.7	3.7	4.36e-02	0	52	104	10133438464	73	28043
2026-01-28 08:35:24.59	334.60	8.05	-53.1	-57.7	3.7	4.36e-02	0	52	104	10133438464	76	26440
2026-01-28 08:35:25.58	334.68	7.96	-52.4	-57.3	3.7	4.36e-02	0	52	104	10133438464	76	25275
2026-01-28 08:35:26.58	334.76	7.87	-52.8	-57.4	3.7	4.36e-02	0	52	104	10133438464	76	25596
2026-01-28 08:35:27.58	334.84	7.78	-52.5	-57.4	3.7	4.36e-02	0	52	104	10133438464	75	27093
2026-01-28 08:35:28.58	334.92	7.70	-53.3	-57.9	3.7	4.36e-02	0	52	104	10133438464	77	25482
2026-01-28 08:35:29.57	335.00	7.61	-53.2	-57.9	3.7	4.36e-02	0	52	104	10133438464	77	25415
2026-01-28 08:35:30.57	335.08	7.52	-53.3	-57.9	3.7	4.36e-02	0	52	104	10133438464	77	25460
2026-01-28 08:35:31.56	335.16	7.44	-53.2	-57.9	3.7	4.36e-02	0	52	104	10133438464	77	25466
2026-01-28 08:35:32.56	335.24	7.35	-53.0	-57.7	3.7	4.36e-02	0	52	104	10133438464	77	25029
2026-01-28 08:35:33.55	335.31	7.26	-53.4	-57.9	3.7	4.36e-02	0	52	104	10133438464	77	25556
2026-01-28 08:35:34.55	335.39	7.18	-53.1	-57.8	3.7	4.36e-02	0	52	104	10133438464	77	25319
2026-01-28 08:35:35.54	335.46	7.09	-53.1	-57.8	3.7	4.36e-02	0	52	104	10133438464	77	25118
2026-01-28 08:35:36.54	335.54	7.01	-53.0	-57.6	3.7	4.36e-02	0	52	104	10133438464	77	24685
2026-01-28 08:35:37.54	335.62	6.92	-52.8	-57.3	3.7	4.36e-02	0	52	104	10133438464	77	23931
2026-01-28 08:35:38.53	335.69	6.84	-52.4	-57.1	3.7	4.36e-02	0	52	104	10133438464	76	24553
2026-01-28 08:35:39.53	335.76	6.76	-52.3	-57.1	3.7	4.36e-02	0	52	104	10133438464	76	24593
2026-01-28 08:35:40.53	335.84	6.67	-52.3	-57.0	3.7	4.36e-02	0	52	104	10133438464	76	24468
2026-01-28 08:35:41.53	335.91	6.59	-52.3	-57.0	3.7	4.36e-02	0	52	104	10133438464	76	24492
2026-01-28 08:35:42.53	335.98	6.51	-52.3	-57.0	3.7	4.36e-02	0	52	104	10133438464	76	24369
2026-01-28 08:35:43.52	336.05	6.43	-52.3	-57.0	3.7	4.36e-02	0	52	104	10133438464	76	24381
2026-01-28 08:35:44.52	336.12	6.34	-52.3	-57.0	3.7	4.36e-02	0	52	104	10133438464	76	24440
2026-01-28 08:35:45.51	336.19	6.26	-52.3	-57.0	3.7	4.36e-02	0	52	104	10133438464	76	24359
2026-01-28 08:35:46.51	336.27	6.18	-52.3	-57.0	3.7	4.36e-02	0	52	104	10133438464	76	24342
2026-01-28 08:35:47.50	336.33	6.10	-52.3	-57.0	3.7	4.36e-02	0	52	104	10133438464	76	24426
2026-01-28 08:35:48.50	336.40	6.02	-52.3	-57.0	3.7	4.36e-02	0	52	104	10133438464	76	24454
2026-01-28 08:35:49.49	336.47	5.94	-52.3	-57.0	3.7	4.36e-02	0	52	104	10133438464	76	24342
2026-01-28 08:35:50.49	336.54	5.86	-52.3	-57.0	3.7	4.36e-02	0	52	104	10133438464	76	24318
2026-01-28 08:35:51.48	336.61	5.78	-52.3	-57.0	3.7	4.36e-02	0	52	104	10133438464	76	24360
2026-01-28 08:35:52.48	336.68	5.70	-52.3	-57.0	3.7	4.36e-02	0	52	104	10133438464	76	24330
2026-01-28 08:35:53.48	336.74	5.62	-52.3	-57.0	3.7	4.36e-02	0	52	104	10133438464	76	24366
2026-01-28 08:35:54.47	336.81	5.54	-52.3	-57.0	3.7	4.36e-02	0	52	104	10133438464	76	24392
2026-01-28 08:35:55.46	336.88	5.46	-52.3	-57.0	3.7	4.36e-02	0	52	104	10133438464	76	24265
2026-01-28 08:35:56.46	336.94	5.39	-52.3	-57.0	3.7	4.36e-02	0	52	104	10133438464	76	24287
2026-01-28 08:35:57.45	337.01	5.31	-52.3	-57.0	3.7	4.36e-02	0	52	104	10133438464	76	24435
2026-01-28 08:35:58.44	337.07	5.23	-52.3	-57.0	3.7	4.36e-02	0	52	104	10133438464	76	24319
2026-01-28 08:35:59.43	337.14	5.15	-52.3	-57.0	3.7	4.36e-02	0	52	104	10133438464	76	24307
2026-01-28 08:36:00.43	337.20	5.08	-52.3	-57.0	3.7	4.36e-02	0	52	104	10133438464	76	24254
2026-01-28 08:36:01.43	337.26	5.00	-52.3	-57.0	3.7	4.36e-02	0	52	104	10133438464	76	24286
2026-01-28 08:36:02.42	337.33	4.92	-52.3	-57.0	3.7	4.36e-02	0	52	104	10133438464	76	24327

#Closed at: 2026-01-28 08:36:03
#Recorded file [10133 MB]: D:/Data/31040_260128_112715.dat