passes_logs/2026/01/28/T1/T1__20260128_220324_NOAA_21_JPSS-2_rec.log

#Pass ID: 20260128_220324_NOAA 21 (JPSS-2)
#Satellite: NOAA 21 (JPSS-2)
#Configuration: NOAA 21
#almurnet v.1.7.20251203
#Start time: 2026-01-28 22:03:24

#Version: 2.0.20230620
#Station: T1
#Location: 37.570604 lon 55.790049 lat
#TLE: 1 54234U 22150A   26027.77052245  .00000166  00000+0  99439-4 0  9997
#TLE: 2 54234  98.7510 328.5165 0000872 203.6403 156.4733 14.19540252166628

#Time	Az	El	Level	Level2	SNR	BER	BlckErr	Temp	State	Recorded	gain1	gain2
2026-01-28 22:03:24.93	31.13	5.01	-49.7	-63.0	3.8	1.49e+00	0	38	0	0	70	17182
2026-01-28 22:03:25.92	31.22	5.07	-49.9	-63.1	3.8	1.49e+00	0	38	104	0	71	16331
2026-01-28 22:03:26.91	31.32	5.12	-50.0	-63.0	3.8	1.49e+00	0	38	104	0	71	16303
2026-01-28 22:03:27.90	31.41	5.18	-50.0	-63.0	3.8	1.49e+00	0	38	104	0	71	16308
2026-01-28 22:03:28.89	31.50	5.23	-50.1	-63.1	3.8	1.49e+00	0	39	104	0	71	16349
2026-01-28 22:03:29.89	31.60	5.29	-50.2	-63.1	3.8	1.49e+00	0	38	104	0	71	16370
2026-01-28 22:03:30.88	31.69	5.34	-50.2	-63.1	3.8	1.49e+00	0	38	104	0	71	16433
2026-01-28 22:03:31.87	31.79	5.40	-50.1	-63.1	3.8	1.49e+00	0	39	104	0	71	16400
2026-01-28 22:03:32.87	31.88	5.46	-50.0	-63.1	3.8	1.49e+00	0	38	104	0	71	16344
2026-01-28 22:03:33.86	31.98	5.51	-50.0	-63.1	3.8	1.49e+00	0	39	104	0	71	16315
2026-01-28 22:03:34.86	32.08	5.57	-50.0	-63.1	3.8	1.49e+00	0	39	104	0	71	16354
2026-01-28 22:03:35.85	32.17	5.62	-50.0	-63.0	3.8	1.49e+00	0	39	104	0	71	16214
2026-01-28 22:03:36.84	32.27	5.68	-49.9	-63.0	3.8	1.49e+00	0	39	104	0	71	16205
2026-01-28 22:03:37.84	32.37	5.74	-50.0	-63.0	3.8	1.49e+00	0	39	104	0	71	16158
2026-01-28 22:03:38.83	32.46	5.79	-49.9	-62.9	3.8	1.49e+00	0	39	104	0	71	16067
2026-01-28 22:03:39.82	32.56	5.85	-49.8	-62.9	3.8	1.49e+00	0	39	104	0	71	15948
2026-01-28 22:03:40.82	32.66	5.90	-49.7	-62.7	3.8	1.49e+00	0	39	104	0	71	15712
2026-01-28 22:03:41.81	32.76	5.96	-49.7	-62.7	3.8	1.49e+00	0	39	104	0	71	15616
2026-01-28 22:03:42.80	32.86	6.02	-49.5	-62.6	3.8	1.49e+00	0	39	104	0	70	16364
2026-01-28 22:03:43.79	32.96	6.07	-49.3	-62.4	3.8	1.49e+00	0	39	104	0	70	16089
2026-01-28 22:03:44.79	33.06	6.13	-49.2	-62.4	3.8	1.49e+00	0	39	104	0	70	16040
2026-01-28 22:03:45.78	33.16	6.19	-49.2	-62.4	3.8	1.49e+00	0	39	104	0	70	16038
2026-01-28 22:03:46.77	33.26	6.24	-49.2	-62.4	3.8	1.49e+00	0	39	104	0	70	16007
2026-01-28 22:03:47.77	33.36	6.30	-49.2	-62.3	3.8	1.49e+00	0	39	104	0	70	15943
2026-01-28 22:03:48.76	33.46	6.36	-49.2	-62.3	3.8	1.49e+00	0	39	104	0	70	15888
2026-01-28 22:03:49.75	33.56	6.41	-49.2	-62.3	3.8	1.49e+00	0	39	104	0	70	15849
2026-01-28 22:03:50.75	33.66	6.47	-49.2	-62.3	3.8	1.49e+00	0	39	104	0	70	15932
2026-01-28 22:03:51.74	33.76	6.53	-49.2	-62.3	3.8	1.49e+00	0	39	104	0	70	15810
2026-01-28 22:03:52.74	33.87	6.58	-49.2	-62.3	3.8	1.49e+00	0	39	104	0	70	15847
2026-01-28 22:03:53.73	33.97	6.64	-49.2	-62.3	3.8	1.49e+00	0	40	104	0	70	15775
2026-01-28 22:03:54.72	34.07	6.70	-49.2	-62.3	3.8	1.49e+00	0	39	104	0	70	15835
2026-01-28 22:03:55.72	34.18	6.75	-49.2	-62.3	3.8	1.49e+00	0	39	104	0	70	15824
2026-01-28 22:03:56.71	34.28	6.81	-49.2	-62.3	3.8	1.49e+00	0	39	104	0	70	15875
2026-01-28 22:03:57.70	34.39	6.87	-49.2	-62.3	3.8	1.49e+00	0	39	104	0	70	15864
2026-01-28 22:03:58.70	34.49	6.93	-49.2	-62.3	3.8	1.49e+00	0	39	104	0	70	15896
2026-01-28 22:03:59.69	34.60	6.98	-49.2	-62.3	3.8	1.49e+00	0	39	104	0	70	15899
2026-01-28 22:04:00.68	34.70	7.04	-49.2	-62.4	3.8	1.49e+00	0	39	104	0	70	15949
2026-01-28 22:04:01.68	34.81	7.10	-49.2	-62.4	3.8	1.49e+00	0	39	104	0	70	15975
2026-01-28 22:04:02.67	34.91	7.15	-49.2	-62.4	3.8	1.49e+00	0	39	104	0	70	15989
2026-01-28 22:04:03.66	35.02	7.21	-49.2	-62.4	3.8	1.49e+00	0	39	104	0	70	15954
2026-01-28 22:04:04.66	35.13	7.27	-49.2	-62.3	3.8	1.49e+00	0	39	104	0	70	15840
2026-01-28 22:04:05.65	35.24	7.33	-49.2	-62.3	3.8	1.49e+00	0	39	104	0	70	15767
2026-01-28 22:04:06.65	35.35	7.38	-49.2	-62.3	3.8	1.49e+00	0	39	104	0	70	15790
2026-01-28 22:04:07.64	35.45	7.44	-49.2	-62.2	3.8	1.49e+00	0	40	104	0	70	15647
2026-01-28 22:04:08.63	35.56	7.50	-49.2	-62.1	3.8	1.49e+00	0	39	104	0	70	15567
2026-01-28 22:04:09.63	35.67	7.56	-49.2	-62.1	3.8	1.49e+00	0	39	104	0	70	15554
2026-01-28 22:04:10.62	35.78	7.62	-49.2	-62.1	3.8	1.49e+00	0	40	104	0	70	15486
2026-01-28 22:04:11.61	35.89	7.67	-49.2	-62.1	3.8	1.49e+00	0	40	104	0	70	15459
2026-01-28 22:04:12.61	36.00	7.73	-49.2	-62.0	3.8	1.49e+00	0	40	104	0	70	15298
2026-01-28 22:04:13.60	36.11	7.79	-49.1	-61.9	3.8	1.49e+00	0	40	104	0	70	15098
2026-01-28 22:04:14.59	36.23	7.85	-49.1	-61.8	3.8	1.49e+00	0	40	104	0	70	14898
2026-01-28 22:04:15.59	36.34	7.90	-49.1	-61.7	3.8	1.49e+00	0	39	104	0	70	14801
2026-01-28 22:04:16.58	36.45	7.96	-49.1	-61.7	3.8	1.49e+00	0	40	104	0	70	14767
2026-01-28 22:04:17.57	36.56	8.02	-49.1	-61.8	3.8	1.49e+00	0	40	104	0	70	14926
2026-01-28 22:04:18.57	36.68	8.08	-49.1	-61.9	3.8	1.49e+00	0	40	104	0	70	15071
2026-01-28 22:04:19.56	36.79	8.14	-49.2	-62.0	3.8	1.49e+00	0	40	104	0	70	15284
2026-01-28 22:04:20.55	36.90	8.19	-49.2	-62.1	3.8	1.49e+00	0	40	104	0	70	15514
2026-01-28 22:04:21.55	37.02	8.25	-49.2	-62.2	3.8	1.49e+00	0	40	104	0	70	15705
2026-01-28 22:04:22.54	37.13	8.31	-49.2	-62.3	3.8	1.49e+00	0	40	104	0	70	15796
2026-01-28 22:04:23.53	37.25	8.37	-49.2	-62.3	3.8	1.49e+00	0	40	104	0	70	15802
2026-01-28 22:04:24.53	37.37	8.43	-49.2	-62.3	3.8	1.49e+00	0	40	104	0	70	15819
2026-01-28 22:04:25.52	37.48	8.49	-49.2	-62.3	3.8	1.49e+00	0	40	104	0	70	15818
2026-01-28 22:04:26.51	37.60	8.54	-49.2	-62.3	3.8	1.49e+00	0	40	104	0	70	15876
2026-01-28 22:04:27.51	37.72	8.60	-49.2	-62.3	3.8	1.49e+00	0	40	104	0	70	15856
2026-01-28 22:04:28.50	37.83	8.66	-49.2	-62.2	3.8	1.49e+00	0	40	104	0	70	15749
2026-01-28 22:04:29.49	37.95	8.72	-49.2	-62.1	3.8	1.49e+00	0	40	104	0	70	15428
2026-01-28 22:04:30.49	38.07	8.78	-49.1	-61.7	3.8	1.49e+00	0	40	104	0	70	14871
2026-01-28 22:04:31.48	38.19	8.84	-49.0	-60.9	3.8	1.49e+00	0	40	104	0	70	13540
2026-01-28 22:04:32.47	38.31	8.90	-48.8	-59.1	4.1	1.48e+00	0	40	104	0	69	11653
2026-01-28 22:04:33.47	38.43	8.95	-48.5	-56.9	4.6	1.02e+00	0	40	104	0	69	8979
2026-01-28 22:04:34.46	38.55	9.01	-47.8	-54.3	6.6	2.82e-01	0	40	0	0	67	7472
2026-01-28 22:04:35.46	38.67	9.07	-46.3	-50.5	10.3	3.08e-02	0	40	0	0	64	5778
2026-01-28 22:04:36.45	38.79	9.13	-47.2	-52.5	8.5	2.94e-02	0	40	0	0	65	6851
2026-01-28 22:04:37.45	38.91	9.19	-48.2	-55.4	5.6	1.47e+00	0	40	104	0	68	8023
2026-01-28 22:04:38.44	39.04	9.25	-46.9	-51.8	9.2	4.62e-04	0	40	0	0	64	6710
2026-01-28 22:04:39.44	39.16	9.31	-46.3	-50.5	10.0	1.47e+00	0	40	104	0	64	5753
2026-01-28 22:04:40.43	39.28	9.37	-42.5	-44.7	16.3	0.00e+00	0	40	0	0	56	4697
2026-01-28 22:04:41.43	39.41	9.43	-42.6	-44.9	16.1	0.00e+00	0	40	0	0	56	4772
2026-01-28 22:04:42.42	39.53	9.48	-42.2	-44.3	16.6	0.00e+00	0	40	0	0	56	4487
2026-01-28 22:04:43.42	39.66	9.54	-41.7	-43.8	16.9	0.00e+00	0	40	0	0	55	4471
2026-01-28 22:04:44.42	39.78	9.60	-41.9	-44.0	16.8	0.00e+00	0	40	0	0	55	4572
2026-01-28 22:04:45.48	39.92	9.67	-41.7	-43.8	17.0	0.00e+00	0	40	0	0	55	4488
2026-01-28 22:04:46.37	40.03	9.72	-41.5	-43.6	17.2	0.00e+00	0	40	0	0	55	4352
2026-01-28 22:04:47.48	40.17	9.78	-41.4	-43.4	17.4	0.00e+00	0	40	0	0	54	4545
2026-01-28 22:04:48.33	40.28	9.84	-41.4	-43.4	17.4	0.00e+00	0	40	0	0	54	4515
2026-01-28 22:04:49.47	40.43	9.90	-41.6	-43.6	17.2	0.00e+00	0	40	0	0	54	4643
2026-01-28 22:04:50.32	40.54	9.95	-41.6	-43.6	17.2	0.00e+00	0	40	0	0	54	4634
2026-01-28 22:04:51.46	40.68	10.02	-41.6	-43.7	17.2	0.00e+00	0	40	0	0	54	4663
2026-01-28 22:04:52.31	40.79	10.07	-41.7	-43.8	17.1	0.00e+00	0	40	0	0	54	4720
2026-01-28 22:04:53.45	40.94	10.14	-41.6	-43.6	17.3	0.00e+00	0	40	0	0	54	4632
2026-01-28 22:04:54.30	41.05	10.19	-41.5	-43.5	17.4	0.00e+00	0	40	0	0	54	4589
2026-01-28 22:04:55.43	41.20	10.26	-41.3	-43.3	17.5	0.00e+00	0	40	0	0	54	4490
2026-01-28 22:04:56.29	41.32	10.31	-41.3	-43.3	17.6	0.00e+00	0	40	0	0	54	4467
2026-01-28 22:04:57.43	41.47	10.38	-41.3	-43.3	17.6	0.00e+00	0	40	0	0	54	4446
2026-01-28 22:04:58.28	41.58	10.43	-41.2	-43.2	17.7	0.00e+00	0	40	0	0	54	4420
2026-01-28 22:04:59.52	41.75	10.50	-41.2	-43.2	17.7	0.00e+00	0	40	0	0	54	4413
2026-01-28 22:05:00.38	41.86	10.55	-41.2	-43.2	17.6	0.00e+00	0	40	0	0	54	4434
2026-01-28 22:05:01.51	42.01	10.62	-41.2	-43.1	17.8	0.00e+00	0	40	0	0	54	4378
2026-01-28 22:05:02.37	42.13	10.67	-41.0	-42.9	18.0	0.00e+00	0	40	0	0	54	4277
2026-01-28 22:05:03.50	42.28	10.74	-41.0	-42.9	17.9	0.00e+00	0	40	0	0	53	4536
2026-01-28 22:05:04.36	42.40	10.79	-41.0	-43.0	17.9	0.00e+00	0	40	0	0	53	4580
2026-01-28 22:05:05.68	42.58	10.87	-41.0	-43.0	17.9	0.00e+00	0	40	0	0	53	4580
2026-01-28 22:05:06.39	42.68	10.91	-41.0	-43.0	17.9	0.00e+00	0	40	0	0	53	4583
2026-01-28 22:05:07.67	42.86	10.99	-41.1	-43.0	17.8	0.00e+00	0	40	0	0	53	4582
2026-01-28 22:05:08.40	42.96	11.03	-41.0	-43.0	17.9	0.00e+00	0	40	0	0	53	4558
2026-01-28 22:05:09.68	43.14	11.11	-41.1	-43.1	17.8	0.00e+00	0	40	0	0	53	4619
2026-01-28 22:05:10.50	43.25	11.16	-41.1	-43.0	17.8	0.00e+00	0	40	0	0	53	4594
2026-01-28 22:05:11.64	43.41	11.22	-41.0	-43.0	17.9	0.00e+00	0	40	0	0	53	4570
2026-01-28 22:05:12.49	43.53	11.28	-41.0	-42.9	17.9	0.00e+00	0	40	0	0	53	4527
2026-01-28 22:05:13.62	43.69	11.34	-41.0	-43.0	17.8	0.00e+00	0	40	0	0	53	4567
2026-01-28 22:05:14.48	43.81	11.39	-41.0	-43.0	17.9	0.00e+00	0	40	0	0	53	4551
2026-01-28 22:05:15.62	43.97	11.46	-40.9	-42.9	18.0	0.00e+00	0	41	0	0	53	4504
2026-01-28 22:05:16.47	44.10	11.51	-41.0	-43.0	17.9	0.00e+00	0	40	0	0	53	4569
2026-01-28 22:05:17.60	44.26	11.58	-40.9	-42.9	18.0	0.00e+00	0	40	0	0	53	4513
2026-01-28 22:05:18.82	44.43	11.65	-40.8	-42.8	18.1	0.00e+00	0	40	0	0	53	4449
2026-01-28 22:05:19.67	44.56	11.70	-40.8	-42.7	18.1	0.00e+00	0	40	0	0	53	4436
2026-01-28 22:05:20.81	44.72	11.77	-40.8	-42.8	18.1	0.00e+00	0	40	0	0	53	4449
2026-01-28 22:05:21.66	44.85	11.82	-40.9	-42.8	18.0	0.00e+00	0	40	0	0	53	4490
2026-01-28 22:05:22.80	45.01	11.89	-40.8	-42.7	18.2	0.00e+00	0	40	0	0	53	4436
2026-01-28 22:05:23.65	45.14	11.94	-40.8	-42.7	18.2	0.00e+00	0	40	0	0	53	4403
2026-01-28 22:05:24.90	45.32	12.01	-40.7	-42.6	18.3	0.00e+00	0	40	0	0	53	4366
2026-01-28 22:05:25.76	45.45	12.07	-40.7	-42.6	18.3	0.00e+00	0	40	0	0	53	4358
2026-01-28 22:05:26.90	45.62	12.13	-40.8	-42.7	18.2	0.00e+00	0	41	0	0	53	4435
2026-01-28 22:05:27.75	45.75	12.18	-40.7	-42.6	18.3	0.00e+00	0	40	0	0	53	4371
2026-01-28 22:05:28.89	45.92	12.25	-40.7	-42.6	18.3	0.00e+00	0	40	0	0	53	4381
2026-01-28 22:05:29.74	46.05	12.30	-40.8	-42.6	18.2	0.00e+00	0	40	0	0	53	4386
2026-01-28 22:05:30.88	46.22	12.37	-40.7	-42.5	18.3	0.00e+00	0	40	0	0	53	4340
2026-01-28 22:05:31.73	46.35	12.42	-40.7	-42.6	18.3	0.00e+00	0	40	0	0	53	4343
2026-01-28 22:05:32.87	46.52	12.49	-40.6	-42.4	18.4	0.00e+00	0	40	0	0	53	4287
2026-01-28 22:05:33.72	46.65	12.54	-40.6	-42.5	18.3	0.00e+00	0	40	0	0	53	4316
2026-01-28 22:05:34.86	46.83	12.61	-40.7	-42.6	18.3	0.00e+00	0	40	0	0	53	4371
2026-01-28 22:05:35.71	46.96	12.66	-40.7	-42.6	18.3	0.00e+00	0	41	0	0	53	4368
2026-01-28 22:05:36.85	47.14	12.72	-40.7	-42.6	18.3	0.00e+00	0	40	0	0	53	4356
2026-01-28 22:05:37.70	47.27	12.77	-40.7	-42.6	18.2	0.00e+00	0	41	0	0	53	4388
2026-01-28 22:05:38.94	47.46	12.85	-40.8	-42.7	18.2	0.00e+00	0	40	0	0	53	4429
2026-01-28 22:05:39.79	47.60	12.90	-40.8	-42.7	18.2	0.00e+00	0	40	0	0	53	4400
2026-01-28 22:05:40.92	47.77	12.96	-40.7	-42.6	18.3	0.00e+00	0	40	0	0	53	4378
2026-01-28 22:05:41.78	47.91	13.01	-40.8	-42.7	18.2	0.00e+00	0	40	0	0	53	4400
2026-01-28 22:05:42.92	48.09	13.08	-40.6	-42.5	18.4	0.00e+00	0	41	0	0	53	4328
2026-01-28 22:05:43.77	48.22	13.13	-40.7	-42.6	18.3	0.00e+00	0	40	0	0	53	4365
2026-01-28 22:05:45.14	48.44	13.21	-40.7	-42.5	18.4	0.00e+00	0	40	0	0	53	4338
2026-01-28 22:05:45.85	48.56	13.25	-40.6	-42.5	18.5	0.00e+00	0	40	0	0	53	4298
2026-01-28 22:05:47.13	48.76	13.33	-40.6	-42.5	18.5	0.00e+00	0	40	0	0	53	4305
2026-01-28 22:05:47.84	48.88	13.37	-40.7	-42.5	18.5	0.00e+00	0	40	0	0	53	4333
2026-01-28 22:05:49.12	49.09	13.44	-40.6	-42.4	18.5	0.00e+00	0	40	0	0	53	4288
2026-01-28 22:05:49.89	49.21	13.49	-40.5	-42.3	18.6	0.00e+00	0	40	0	0	53	4225
2026-01-28 22:05:51.17	49.42	13.56	-40.6	-42.4	18.5	0.00e+00	0	40	0	0	52	4535
2026-01-28 22:05:51.88	49.54	13.60	-40.5	-42.4	18.6	0.00e+00	0	40	0	0	52	4520
2026-01-28 22:05:53.16	49.75	13.68	-40.5	-42.4	18.6	0.00e+00	0	40	0	0	52	4504
2026-01-28 22:05:54.06	49.90	13.73	-40.5	-42.4	18.6	0.00e+00	0	40	0	0	52	4508
2026-01-28 22:05:55.46	50.13	13.81	-40.3	-42.2	18.8	0.00e+00	0	41	0	0	52	4404
2026-01-28 22:05:56.18	50.25	13.85	-40.4	-42.2	18.8	0.00e+00	0	40	0	0	52	4413
2026-01-28 22:05:57.45	50.46	13.93	-40.4	-42.2	18.7	0.00e+00	0	40	0	0	52	4426
2026-01-28 22:05:58.16	50.58	13.97	-40.4	-42.3	18.7	0.00e+00	0	41	0	0	52	4449
2026-01-28 22:05:59.74	50.85	14.06	-40.5	-42.3	18.6	0.00e+00	0	40	0	0	52	4477
2026-01-28 22:06:00.39	50.96	14.10	-40.5	-42.4	18.6	0.00e+00	0	40	0	0	52	4514
2026-01-28 22:06:01.81	51.20	14.18	-40.5	-42.4	18.6	0.00e+00	0	40	0	0	52	4519
2026-01-28 22:06:02.52	51.32	14.22	-40.6	-42.5	18.5	0.00e+00	0	40	0	0	52	4549
2026-01-28 22:06:03.80	51.54	14.29	-40.5	-42.3	18.7	0.00e+00	0	40	0	0	52	4477
2026-01-28 22:06:04.51	51.67	14.33	-40.5	-42.3	18.7	0.00e+00	0	40	0	0	52	4485
2026-01-28 22:06:05.79	51.89	14.41	-40.6	-42.5	18.6	0.00e+00	0	40	0	0	52	4566
2026-01-28 22:06:06.50	52.01	14.45	-40.6	-42.5	18.6	0.00e+00	0	40	0	0	52	4555
2026-01-28 22:06:07.78	52.23	14.52	-40.5	-42.4	18.6	0.00e+00	0	41	0	0	52	4528
2026-01-28 22:06:08.52	52.36	14.56	-40.6	-42.5	18.5	0.00e+00	0	40	0	0	52	4563
2026-01-28 22:06:09.80	52.59	14.63	-40.6	-42.4	18.6	0.00e+00	0	40	0	0	52	4532
2026-01-28 22:06:10.58	52.73	14.68	-40.7	-42.6	18.5	0.00e+00	0	41	0	0	52	4601
2026-01-28 22:06:11.85	52.95	14.75	-40.5	-42.3	18.7	0.00e+00	0	40	0	0	52	4478
2026-01-28 22:06:12.61	53.08	14.79	-40.4	-42.3	18.7	0.00e+00	0	41	0	0	52	4461
2026-01-28 22:06:13.89	53.31	14.86	-40.4	-42.3	18.7	0.00e+00	0	40	0	0	52	4443
2026-01-28 22:06:14.68	53.45	14.91	-40.3	-42.1	18.8	0.00e+00	0	40	0	0	52	4389
2026-01-28 22:06:15.89	53.67	14.97	-40.3	-42.1	18.8	0.00e+00	0	41	0	0	52	4371
2026-01-28 22:06:16.74	53.82	15.02	-40.3	-42.2	18.8	0.00e+00	0	41	0	0	52	4393
2026-01-28 22:06:18.14	54.08	15.10	-40.4	-42.2	18.7	0.00e+00	0	41	0	0	52	4427
2026-01-28 22:06:18.85	54.21	15.14	-40.6	-42.4	18.5	0.00e+00	0	40	0	0	52	4531
2026-01-28 22:06:20.13	54.44	15.21	-40.4	-42.3	18.7	0.00e+00	0	40	0	0	52	4468
2026-01-28 22:06:20.84	54.57	15.25	-40.4	-42.3	18.7	0.00e+00	0	41	0	0	52	4446
2026-01-28 22:06:22.12	54.81	15.32	-40.5	-42.4	18.6	0.00e+00	0	40	0	0	52	4501
2026-01-28 22:06:22.83	54.94	15.36	-40.6	-42.5	18.5	0.00e+00	0	40	0	0	52	4559
2026-01-28 22:06:24.11	55.17	15.43	-40.6	-42.5	18.5	0.00e+00	0	40	0	0	52	4576
2026-01-28 22:06:24.98	55.33	15.48	-40.6	-42.5	18.5	0.00e+00	0	40	0	0	52	4561
2026-01-28 22:06:26.12	55.55	15.54	-40.6	-42.4	18.6	0.00e+00	0	40	0	0	52	4528
2026-01-28 22:06:26.97	55.71	15.58	-40.6	-42.4	18.6	0.00e+00	0	40	0	0	52	4527
2026-01-28 22:06:28.11	55.92	15.64	-40.4	-42.3	18.7	0.00e+00	0	41	0	0	52	4450
2026-01-28 22:06:28.96	56.08	15.69	-40.2	-42.1	18.9	0.00e+00	0	40	0	0	52	4341
2026-01-28 22:06:30.10	56.30	15.75	-40.2	-42.0	19.0	0.00e+00	0	40	0	0	52	4303
2026-01-28 22:06:31.03	56.47	15.80	-40.2	-42.0	18.9	0.00e+00	0	41	0	0	52	4331
2026-01-28 22:06:32.03	56.66	15.85	-40.2	-42.0	18.9	0.00e+00	0	41	0	0	52	4326
2026-01-28 22:06:33.02	56.85	15.91	-40.1	-41.9	19.0	0.00e+00	0	41	0	0	52	4279
2026-01-28 22:06:34.01	57.04	15.96	-40.2	-42.1	18.9	0.00e+00	0	40	0	0	52	4343
2026-01-28 22:06:35.01	57.23	16.01	-40.4	-42.2	18.8	0.00e+00	0	40	0	0	52	4417
2026-01-28 22:06:36.00	57.42	16.06	-40.4	-42.2	18.7	0.00e+00	0	41	0	0	52	4421
2026-01-28 22:06:37.00	57.62	16.12	-40.3	-42.2	18.8	0.00e+00	0	41	0	0	52	4408
2026-01-28 22:06:37.99	57.81	16.17	-40.3	-42.2	18.8	0.00e+00	0	41	0	0	52	4406
2026-01-28 22:06:38.98	58.00	16.22	-40.2	-42.0	19.0	0.00e+00	0	41	0	0	52	4329
2026-01-28 22:06:39.98	58.20	16.27	-40.3	-42.1	18.9	0.00e+00	0	40	0	0	52	4381
2026-01-28 22:06:40.97	58.39	16.32	-40.2	-42.0	19.1	0.00e+00	0	41	0	0	52	4299
2026-01-28 22:06:41.98	58.59	16.37	-40.0	-41.8	19.2	0.00e+00	0	41	0	0	52	4202
2026-01-28 22:06:42.98	58.79	16.43	-40.0	-41.8	19.2	0.00e+00	0	40	0	0	51	4475
2026-01-28 22:06:43.98	58.99	16.48	-40.1	-41.9	19.2	0.00e+00	0	41	0	0	51	4514
2026-01-28 22:06:44.97	59.18	16.53	-39.9	-41.6	19.4	0.00e+00	0	40	0	0	51	4384
2026-01-28 22:06:45.97	59.38	16.58	-39.9	-41.7	19.3	0.00e+00	0	40	0	0	51	4404
2026-01-28 22:06:46.96	59.58	16.63	-40.0	-41.7	19.2	0.00e+00	0	41	0	0	51	4428
2026-01-28 22:06:47.96	59.78	16.68	-40.0	-41.8	19.1	0.00e+00	0	40	0	0	51	4480
2026-01-28 22:06:48.95	59.98	16.73	-40.0	-41.8	19.2	0.00e+00	0	40	0	0	51	4447
2026-01-28 22:06:49.95	60.18	16.78	-40.1	-41.9	19.1	0.00e+00	0	41	0	0	51	4506
2026-01-28 22:06:50.94	60.39	16.83	-40.1	-42.0	19.1	0.00e+00	0	40	0	0	51	4551
2026-01-28 22:06:51.94	60.59	16.87	-40.1	-41.9	19.1	0.00e+00	0	41	0	0	51	4511
2026-01-28 22:06:52.93	60.79	16.92	-40.0	-41.7	19.3	0.00e+00	0	41	0	0	51	4437
2026-01-28 22:06:53.93	61.00	16.97	-39.9	-41.7	19.3	0.00e+00	0	40	0	0	51	4408
2026-01-28 22:06:54.92	61.20	17.02	-40.0	-41.8	19.3	0.00e+00	0	41	0	0	51	4442
2026-01-28 22:06:55.92	61.41	17.07	-39.9	-41.7	19.3	0.00e+00	0	41	0	0	51	4419
2026-01-28 22:06:56.91	61.61	17.11	-40.1	-41.8	19.2	0.00e+00	0	41	0	0	51	4493
2026-01-28 22:06:57.91	61.82	17.16	-39.9	-41.6	19.3	0.00e+00	0	41	0	0	51	4384
2026-01-28 22:06:58.97	62.04	17.21	-39.9	-41.7	19.3	0.00e+00	0	41	0	0	51	4395
2026-01-28 22:06:59.85	62.22	17.25	-39.8	-41.6	19.4	0.00e+00	0	40	0	0	51	4353
2026-01-28 22:07:00.99	62.46	17.31	-39.9	-41.7	19.3	0.00e+00	0	41	0	0	51	4394
2026-01-28 22:07:01.84	62.64	17.35	-40.0	-41.8	19.2	0.00e+00	0	40	0	0	51	4455
2026-01-28 22:07:02.98	62.88	17.40	-39.8	-41.6	19.4	0.00e+00	0	40	0	0	51	4362
2026-01-28 22:07:03.83	63.06	17.44	-39.8	-41.6	19.4	0.00e+00	0	41	0	0	51	4364
2026-01-28 22:07:04.97	63.30	17.49	-39.9	-41.7	19.3	0.00e+00	0	40	0	0	51	4393
2026-01-28 22:07:05.82	63.48	17.53	-39.8	-41.5	19.4	0.00e+00	0	40	0	0	51	4321
2026-01-28 22:07:06.96	63.72	17.58	-39.7	-41.5	19.5	0.00e+00	0	40	0	0	51	4296
2026-01-28 22:07:07.81	63.90	17.62	-39.7	-41.5	19.5	0.00e+00	0	40	0	0	51	4301
2026-01-28 22:07:08.95	64.15	17.67	-39.7	-41.4	19.5	0.00e+00	0	41	0	0	51	4290
2026-01-28 22:07:09.81	64.33	17.71	-39.7	-41.5	19.5	0.00e+00	0	41	0	0	51	4304
2026-01-28 22:07:10.95	64.58	17.76	-39.7	-41.4	19.5	0.00e+00	0	40	0	0	51	4276
2026-01-28 22:07:11.80	64.76	17.79	-39.7	-41.4	19.5	0.00e+00	0	40	0	0	51	4266
2026-01-28 22:07:13.11	65.05	17.85	-39.7	-41.4	19.4	0.00e+00	0	40	0	0	51	4276
2026-01-28 22:07:13.82	65.20	17.88	-39.6	-41.3	19.6	0.00e+00	0	41	0	0	51	4231
2026-01-28 22:07:15.10	65.48	17.94	-39.7	-41.5	19.5	0.00e+00	0	40	0	0	51	4292
2026-01-28 22:07:15.81	65.64	17.97	-39.8	-41.5	19.4	0.00e+00	0	40	0	0	51	4331
2026-01-28 22:07:17.09	65.92	18.02	-39.6	-41.4	19.6	0.00e+00	0	40	0	0	51	4251
2026-01-28 22:07:17.87	66.09	18.05	-39.5	-41.2	19.7	0.00e+00	0	40	0	0	51	4179
2026-01-28 22:07:19.14	66.37	18.10	-39.6	-41.3	19.6	0.00e+00	0	41	0	0	51	4241
2026-01-28 22:07:19.90	66.53	18.14	-39.6	-41.3	19.6	0.00e+00	0	40	0	0	51	4212
2026-01-28 22:07:21.18	66.82	18.19	-39.6	-41.3	19.6	0.00e+00	0	40	0	0	51	4222
2026-01-28 22:07:21.89	66.98	18.22	-39.6	-41.3	19.7	0.00e+00	0	41	0	0	51	4214
2026-01-28 22:07:23.17	67.26	18.27	-39.5	-41.2	19.7	0.00e+00	0	40	0	0	50	4437
2026-01-28 22:07:23.88	67.42	18.30	-39.4	-41.1	19.8	0.00e+00	0	40	0	0	50	4390
2026-01-28 22:07:25.16	67.71	18.35	-39.4	-41.1	19.9	0.00e+00	0	40	0	0	50	4384
2026-01-28 22:07:25.89	67.87	18.37	-39.5	-41.2	19.8	0.00e+00	0	40	0	0	50	4419
2026-01-28 22:07:27.16	68.16	18.42	-39.3	-41.0	19.9	0.00e+00	0	40	0	0	50	4324
2026-01-28 22:07:28.19	68.39	18.46	-39.3	-41.0	20.0	0.00e+00	0	41	0	0	50	4301
2026-01-28 22:07:29.19	68.62	18.50	-39.2	-40.9	20.0	0.00e+00	0	40	0	0	50	4268
2026-01-28 22:07:30.54	68.92	18.55	-39.3	-41.0	20.0	0.00e+00	0	40	0	0	50	4308
2026-01-28 22:07:31.25	69.08	18.58	-39.4	-41.1	19.9	0.00e+00	0	40	0	0	50	4359
2026-01-28 22:07:32.54	69.38	18.62	-39.5	-41.2	19.8	0.00e+00	0	41	0	0	50	4427
2026-01-28 22:07:33.25	69.54	18.65	-39.5	-41.2	19.7	0.00e+00	0	41	0	0	50	4428
2026-01-28 22:07:34.53	69.83	18.69	-39.3	-41.0	20.0	0.00e+00	0	40	0	0	50	4313
2026-01-28 22:07:35.25	70.00	18.72	-39.3	-41.0	20.0	0.00e+00	0	40	0	0	50	4324
2026-01-28 22:07:36.53	70.29	18.76	-39.3	-41.0	20.0	0.00e+00	0	40	0	0	50	4293
2026-01-28 22:07:37.25	70.46	18.79	-39.2	-40.9	20.1	0.00e+00	0	40	0	0	50	4255
2026-01-28 22:07:38.56	70.76	18.83	-39.3	-40.9	20.1	0.00e+00	0	40	0	0	50	4282
2026-01-28 22:07:39.27	70.93	18.86	-39.3	-41.0	20.0	0.00e+00	0	40	0	0	50	4299
2026-01-28 22:07:40.55	71.22	18.90	-39.3	-41.0	19.9	0.00e+00	0	41	0	0	50	4329
2026-01-28 22:07:41.26	71.39	18.92	-39.4	-41.1	19.8	0.00e+00	0	40	0	0	50	4353
2026-01-28 22:07:42.67	71.72	18.97	-39.5	-41.2	19.8	0.00e+00	0	40	0	0	50	4395
2026-01-28 22:07:43.38	71.88	18.99	-39.5	-41.2	19.8	0.00e+00	0	41	0	0	50	4413
2026-01-28 22:07:44.72	72.20	19.03	-39.3	-41.0	20.0	0.00e+00	0	40	0	0	50	4327
2026-01-28 22:07:45.43	72.36	19.06	-39.3	-41.0	20.0	0.00e+00	0	40	0	0	50	4303
2026-01-28 22:07:46.72	72.67	19.10	-39.2	-40.8	20.1	0.00e+00	0	40	0	0	50	4236
2026-01-28 22:07:47.44	72.84	19.12	-39.2	-40.9	20.0	0.00e+00	0	40	0	0	50	4272
2026-01-28 22:07:48.72	73.14	19.16	-39.3	-41.0	19.9	0.00e+00	0	40	0	0	50	4299
2026-01-28 22:07:49.46	73.31	19.18	-39.3	-41.0	20.0	0.00e+00	0	40	0	0	50	4302
2026-01-28 22:07:50.74	73.62	19.21	-39.4	-41.0	19.9	0.00e+00	0	41	0	0	50	4337
2026-01-28 22:07:51.46	73.79	19.23	-39.4	-41.1	19.9	0.00e+00	0	41	0	0	50	4343
2026-01-28 22:07:52.74	74.09	19.27	-39.2	-40.9	20.0	0.00e+00	0	41	0	0	50	4280
2026-01-28 22:07:53.45	74.26	19.29	-39.3	-40.9	20.1	0.00e+00	0	41	0	0	50	4291
2026-01-28 22:07:54.73	74.57	19.32	-39.2	-40.9	20.2	0.00e+00	0	40	0	0	50	4255
2026-01-28 22:07:55.51	74.75	19.34	-39.2	-40.9	20.2	0.00e+00	0	40	0	0	50	4248
2026-01-28 22:07:56.79	75.06	19.38	-39.3	-41.0	20.0	0.00e+00	0	40	0	0	50	4309
2026-01-28 22:07:57.61	75.26	19.40	-39.4	-41.1	19.9	0.00e+00	0	40	0	0	50	4361
2026-01-28 22:07:58.75	75.53	19.43	-39.5	-41.2	19.8	0.00e+00	0	40	0	0	50	4413
2026-01-28 22:07:59.79	75.78	19.45	-39.5	-41.2	19.7	0.00e+00	0	40	0	0	50	4429
2026-01-28 22:08:00.92	76.05	19.48	-39.6	-41.3	19.7	0.00e+00	0	41	0	0	50	4480
2026-01-28 22:08:01.78	76.26	19.50	-39.5	-41.3	19.7	0.00e+00	0	40	0	0	50	4453
2026-01-28 22:08:02.91	76.54	19.53	-39.5	-41.2	19.8	0.00e+00	0	41	0	0	50	4420
2026-01-28 22:08:03.77	76.74	19.55	-39.4	-41.2	19.9	0.00e+00	0	40	0	0	50	4400
2026-01-28 22:08:04.91	77.02	19.57	-39.5	-41.3	19.7	0.00e+00	0	41	0	0	50	4454
2026-01-28 22:08:05.76	77.23	19.59	-39.4	-41.1	19.8	0.00e+00	0	40	0	0	50	4386
2026-01-28 22:08:06.89	77.50	19.61	-39.4	-41.1	19.9	0.00e+00	0	41	0	0	50	4371
2026-01-28 22:08:07.75	77.71	19.63	-39.5	-41.2	19.6	0.00e+00	0	40	0	0	50	4438
2026-01-28 22:08:08.89	77.99	19.66	-39.6	-41.3	19.7	0.00e+00	0	40	0	0	50	4479
2026-01-28 22:08:09.74	78.20	19.67	-39.5	-41.3	19.8	0.00e+00	0	40	0	0	50	4445
2026-01-28 22:08:10.88	78.48	19.69	-39.5	-41.2	19.8	0.00e+00	0	40	0	0	50	4416
2026-01-28 22:08:11.73	78.68	19.71	-39.5	-41.2	19.8	0.00e+00	0	40	0	0	50	4427
2026-01-28 22:08:12.87	78.96	19.73	-39.5	-41.2	19.8	0.00e+00	0	41	0	0	50	4420
2026-01-28 22:08:13.72	79.17	19.75	-39.4	-41.1	19.8	0.00e+00	0	41	0	0	50	4389
2026-01-28 22:08:15.08	79.51	19.77	-39.4	-41.1	19.8	0.00e+00	0	40	0	0	50	4378
2026-01-28 22:08:15.79	79.68	19.78	-39.4	-41.1	19.9	0.00e+00	0	41	0	0	50	4354
2026-01-28 22:08:17.07	80.00	19.80	-39.4	-41.2	19.8	0.00e+00	0	40	0	0	50	4392
2026-01-28 22:08:17.79	80.18	19.81	-39.4	-41.1	19.8	0.00e+00	0	41	0	0	50	4388
2026-01-28 22:08:19.08	80.49	19.83	-39.5	-41.3	19.7	0.00e+00	0	41	0	0	50	4446
2026-01-28 22:08:19.79	80.67	19.84	-39.4	-41.2	19.8	0.00e+00	0	40	0	0	50	4395
2026-01-28 22:08:21.07	80.99	19.86	-39.4	-41.2	19.8	0.00e+00	0	41	0	0	50	4394
2026-01-28 22:08:21.78	81.16	19.87	-39.5	-41.2	19.8	0.00e+00	0	41	0	0	50	4419
2026-01-28 22:08:23.05	81.48	19.89	-39.6	-41.3	19.7	0.00e+00	0	41	0	0	50	4472
2026-01-28 22:08:23.78	81.66	19.90	-39.6	-41.3	19.7	0.00e+00	0	40	0	0	50	4483
2026-01-28 22:08:25.06	81.98	19.91	-39.6	-41.4	19.6	0.00e+00	0	40	0	0	50	4504
2026-01-28 22:08:25.77	82.15	19.92	-39.5	-41.3	19.7	0.00e+00	0	41	0	0	50	4454
2026-01-28 22:08:27.05	82.47	19.93	-39.5	-41.3	19.7	0.00e+00	0	40	0	0	50	4462
2026-01-28 22:08:27.76	82.65	19.94	-39.6	-41.3	19.6	0.00e+00	0	41	0	0	50	4485
2026-01-28 22:08:29.04	82.97	19.95	-39.6	-41.4	19.6	0.00e+00	0	40	0	0	50	4495
2026-01-28 22:08:29.75	83.14	19.96	-39.6	-41.4	19.6	0.00e+00	0	40	0	0	50	4522
2026-01-28 22:08:31.26	83.52	19.97	-39.6	-41.4	19.6	0.00e+00	0	40	0	0	50	4527
2026-01-28 22:08:31.98	83.70	19.98	-39.7	-41.5	19.5	0.00e+00	0	40	0	0	50	4585
2026-01-28 22:08:33.26	84.02	19.99	-39.6	-41.4	19.6	0.00e+00	0	40	0	0	50	4500
2026-01-28 22:08:33.97	84.20	20.00	-39.5	-41.3	19.7	0.00e+00	0	41	0	0	50	4475
2026-01-28 22:08:35.25	84.51	20.00	-39.4	-41.1	19.8	0.00e+00	0	41	0	0	50	4388
2026-01-28 22:08:35.97	84.69	20.01	-39.5	-41.2	19.7	0.00e+00	0	40	0	0	50	4425
2026-01-28 22:08:37.25	85.01	20.02	-39.5	-41.2	19.7	0.00e+00	0	40	0	0	50	4415
2026-01-28 22:08:38.01	85.21	20.02	-39.5	-41.3	19.7	0.00e+00	0	40	0	0	50	4469
2026-01-28 22:08:39.29	85.53	20.03	-39.4	-41.1	19.8	0.00e+00	0	41	0	0	50	4387
2026-01-28 22:08:40.01	85.71	20.03	-39.3	-41.1	19.9	0.00e+00	0	41	0	0	50	4349
2026-01-28 22:08:41.29	86.03	20.03	-39.3	-41.0	20.0	0.00e+00	0	40	0	0	50	4327
2026-01-28 22:08:42.02	86.21	20.03	-39.4	-41.1	19.8	0.00e+00	0	41	0	0	50	4371
2026-01-28 22:08:43.30	86.53	20.04	-39.4	-41.1	19.9	0.00e+00	0	41	0	0	50	4355
2026-01-28 22:08:44.02	86.71	20.04	-39.4	-41.2	19.8	0.00e+00	0	40	0	0	50	4401
2026-01-28 22:08:45.30	87.03	20.04	-39.5	-41.3	19.7	0.00e+00	0	40	0	0	50	4447
2026-01-28 22:08:46.01	87.21	20.04	-39.5	-41.3	19.7	0.00e+00	0	40	0	0	50	4442
2026-01-28 22:08:47.29	87.53	20.04	-39.6	-41.3	19.7	0.00e+00	0	41	0	0	50	4482
2026-01-28 22:08:48.02	87.71	20.04	-39.4	-41.2	19.8	0.00e+00	0	40	0	0	50	4404
2026-01-28 22:08:49.30	88.03	20.04	-39.4	-41.1	19.9	0.00e+00	0	40	0	0	50	4371
2026-01-28 22:08:50.01	88.21	20.04	-39.4	-41.1	19.8	0.00e+00	0	40	0	0	50	4383
2026-01-28 22:08:51.30	88.53	20.04	-39.5	-41.2	19.7	0.00e+00	0	40	0	0	50	4411
2026-01-28 22:08:52.01	88.71	20.03	-39.5	-41.3	19.7	0.00e+00	0	40	0	0	50	4453
2026-01-28 22:08:53.29	89.03	20.03	-39.5	-41.3	19.7	0.00e+00	0	40	0	0	50	4450
2026-01-28 22:08:54.03	89.22	20.03	-39.5	-41.3	19.7	0.00e+00	0	40	0	0	50	4465
2026-01-28 22:08:55.31	89.54	20.02	-39.5	-41.3	19.8	0.00e+00	0	41	0	0	50	4446
2026-01-28 22:08:56.02	89.72	20.02	-39.5	-41.2	19.8	0.00e+00	0	40	0	0	50	4438
2026-01-28 22:08:57.30	90.04	20.01	-39.5	-41.2	19.8	0.00e+00	0	40	0	0	50	4401
2026-01-28 22:08:58.02	90.22	20.01	-39.4	-41.1	19.9	0.00e+00	0	41	0	0	50	4353
2026-01-28 22:08:59.30	90.54	20.00	-39.4	-41.1	19.9	0.00e+00	0	40	0	0	50	4368
2026-01-28 22:09:00.12	90.74	19.99	-39.4	-41.1	19.8	0.00e+00	0	40	0	0	50	4391
2026-01-28 22:09:01.26	91.03	19.99	-39.4	-41.1	19.8	0.00e+00	0	40	0	0	50	4369
2026-01-28 22:09:02.11	91.24	19.98	-39.4	-41.1	19.9	0.00e+00	0	40	0	0	50	4386
2026-01-28 22:09:03.25	91.52	19.97	-39.5	-41.2	19.8	0.00e+00	0	40	0	0	50	4424
2026-01-28 22:09:04.10	91.74	19.96	-39.5	-41.2	19.8	0.00e+00	0	41	0	0	50	4423
2026-01-28 22:09:05.24	92.02	19.95	-39.5	-41.3	19.7	0.00e+00	0	40	0	0	50	4452
2026-01-28 22:09:06.39	92.31	19.94	-39.5	-41.2	19.8	0.00e+00	0	40	0	0	50	4409
2026-01-28 22:09:07.42	92.56	19.93	-39.5	-41.2	19.7	0.00e+00	0	40	0	0	50	4422
2026-01-28 22:09:08.41	92.81	19.92	-39.5	-41.2	19.7	0.00e+00	0	41	0	0	50	4441
2026-01-28 22:09:09.41	93.06	19.90	-39.5	-41.2	19.8	0.00e+00	0	40	0	0	50	4407
2026-01-28 22:09:10.41	93.31	19.89	-39.4	-41.1	19.9	0.00e+00	0	41	0	0	50	4385
2026-01-28 22:09:11.40	93.55	19.88	-39.3	-41.0	19.9	0.00e+00	0	40	0	0	50	4332
2026-01-28 22:09:12.40	93.80	19.87	-39.4	-41.1	19.8	0.00e+00	0	40	0	0	50	4384
2026-01-28 22:09:13.39	94.05	19.85	-39.3	-41.0	19.9	0.00e+00	0	40	0	0	50	4305
2026-01-28 22:09:14.39	94.29	19.84	-39.2	-40.8	20.0	0.00e+00	0	41	0	0	50	4241
2026-01-28 22:09:15.39	94.54	19.82	-39.2	-40.9	20.0	0.00e+00	0	41	0	0	50	4281
2026-01-28 22:09:16.38	94.78	19.81	-39.2	-40.9	20.1	0.00e+00	0	40	0	0	50	4263
2026-01-28 22:09:17.38	95.03	19.79	-39.1	-40.8	20.1	0.00e+00	0	40	0	0	50	4231
2026-01-28 22:09:18.37	95.28	19.78	-39.1	-40.8	20.1	0.00e+00	0	40	0	0	50	4231
2026-01-28 22:09:19.36	95.52	19.76	-39.1	-40.8	20.1	0.00e+00	0	41	0	0	50	4221
2026-01-28 22:09:20.45	95.79	19.74	-39.1	-40.8	20.1	0.00e+00	0	40	0	0	50	4229
2026-01-28 22:09:21.34	96.01	19.72	-39.1	-40.8	20.1	0.00e+00	0	41	0	0	50	4225
2026-01-28 22:09:22.47	96.28	19.70	-39.2	-40.9	20.1	0.00e+00	0	40	0	0	50	4245
2026-01-28 22:09:23.33	96.50	19.69	-39.1	-40.7	20.2	0.00e+00	0	40	0	0	50	4187
2026-01-28 22:09:24.46	96.77	19.66	-39.1	-40.8	20.2	0.00e+00	0	40	0	0	50	4202
2026-01-28 22:09:25.31	96.98	19.65	-39.0	-40.6	20.3	0.00e+00	0	41	0	0	50	4144
2026-01-28 22:09:26.45	97.26	19.62	-39.0	-40.6	20.3	0.00e+00	0	40	0	0	49	4382
2026-01-28 22:09:27.30	97.47	19.61	-39.0	-40.7	20.2	0.00e+00	0	40	0	0	49	4415
2026-01-28 22:09:28.44	97.74	19.58	-39.0	-40.7	20.2	0.00e+00	0	40	0	0	49	4406
2026-01-28 22:09:29.29	97.95	19.56	-39.1	-40.8	20.1	0.00e+00	0	40	0	0	49	4447
2026-01-28 22:09:30.43	98.23	19.54	-39.0	-40.7	20.2	0.00e+00	0	41	0	0	49	4418
2026-01-28 22:09:31.29	98.44	19.52	-39.0	-40.7	20.2	0.00e+00	0	40	0	0	49	4402
2026-01-28 22:09:32.42	98.71	19.49	-39.1	-40.8	20.1	0.00e+00	0	40	0	0	49	4458
2026-01-28 22:09:33.28	98.92	19.47	-39.2	-40.8	20.0	0.00e+00	0	41	0	0	49	4493
2026-01-28 22:09:34.52	99.22	19.44	-39.2	-40.8	20.0	0.00e+00	0	40	0	0	49	4487
2026-01-28 22:09:35.38	99.43	19.42	-39.2	-40.9	20.0	0.00e+00	0	40	0	0	49	4515
2026-01-28 22:09:36.59	99.72	19.39	-39.3	-40.9	19.9	0.00e+00	0	40	0	0	49	4541
2026-01-28 22:09:37.44	99.92	19.37	-39.3	-41.0	19.9	0.00e+00	0	40	0	0	49	4588
2026-01-28 22:09:38.58	100.20	19.34	-39.4	-41.1	19.8	0.00e+00	0	40	0	0	49	4612
2026-01-28 22:09:39.43	100.40	19.31	-39.4	-41.1	19.8	0.00e+00	0	40	0	0	49	4636
2026-01-28 22:09:40.57	100.67	19.28	-39.4	-41.1	19.8	0.00e+00	0	41	0	0	49	4629
2026-01-28 22:09:41.42	100.88	19.26	-39.3	-41.0	19.9	0.00e+00	0	40	0	0	49	4583
2026-01-28 22:09:42.56	101.15	19.23	-39.4	-41.1	19.9	0.00e+00	0	40	0	0	49	4601
2026-01-28 22:09:43.41	101.35	19.20	-39.2	-40.9	20.0	0.00e+00	0	40	0	0	49	4522
2026-01-28 22:09:44.55	101.62	19.17	-39.2	-40.9	20.0	0.00e+00	0	40	0	0	49	4510
2026-01-28 22:09:45.41	101.82	19.14	-39.2	-40.8	20.1	0.00e+00	0	41	0	0	49	4492
2026-01-28 22:09:46.54	102.09	19.11	-39.2	-40.9	20.1	0.00e+00	0	40	0	0	49	4502
2026-01-28 22:09:47.40	102.30	19.08	-39.1	-40.8	20.1	0.00e+00	0	40	0	0	49	4481
2026-01-28 22:09:48.54	102.56	19.05	-39.2	-40.9	20.1	0.00e+00	0	40	0	0	49	4519
2026-01-28 22:09:49.39	102.76	19.02	-39.1	-40.8	20.1	0.00e+00	0	40	0	0	49	4480
2026-01-28 22:09:50.60	103.05	18.98	-39.3	-41.0	19.9	0.00e+00	0	41	0	0	49	4571
2026-01-28 22:09:51.46	103.25	18.96	-39.3	-41.0	20.0	0.00e+00	0	40	0	0	49	4561
2026-01-28 22:09:52.60	103.52	18.92	-39.2	-40.9	20.0	0.00e+00	0	40	0	0	49	4534
2026-01-28 22:09:53.45	103.72	18.89	-39.1	-40.8	20.1	0.00e+00	0	40	0	0	49	4476
2026-01-28 22:09:54.58	103.98	18.85	-39.1	-40.8	20.1	0.00e+00	0	40	0	0	49	4472
2026-01-28 22:09:55.44	104.18	18.82	-39.1	-40.8	20.1	0.00e+00	0	40	0	0	49	4484
2026-01-28 22:09:56.58	104.44	18.78	-39.1	-40.7	20.1	0.00e+00	0	40	0	0	49	4440
2026-01-28 22:09:57.43	104.64	18.75	-39.0	-40.7	20.2	0.00e+00	0	41	0	0	49	4422
2026-01-28 22:09:58.57	104.90	18.71	-39.1	-40.8	20.1	0.00e+00	0	40	0	0	49	4486
2026-01-28 22:09:59.42	105.10	18.68	-39.1	-40.8	20.1	0.00e+00	0	40	0	0	49	4454
2026-01-28 22:10:00.56	105.36	18.64	-39.2	-40.9	20.0	0.00e+00	0	40	0	0	49	4502
2026-01-28 22:10:01.41	105.56	18.61	-39.2	-40.9	20.0	0.00e+00	0	40	0	0	49	4514
2026-01-28 22:10:02.54	105.81	18.57	-39.1	-40.8	20.1	0.00e+00	0	40	0	0	49	4480
2026-01-28 22:10:03.40	106.01	18.54	-39.2	-40.9	20.0	0.00e+00	0	41	0	0	49	4497
2026-01-28 22:10:04.54	106.27	18.50	-39.1	-40.8	20.1	0.00e+00	0	40	0	0	49	4468
2026-01-28 22:10:05.39	106.46	18.46	-39.2	-40.9	19.9	0.00e+00	0	40	0	0	49	4544
2026-01-28 22:10:06.65	106.75	18.42	-39.2	-40.9	19.9	0.00e+00	0	40	0	0	49	4534
2026-01-28 22:10:07.44	106.93	18.39	-39.2	-40.9	20.0	0.00e+00	0	41	0	0	49	4515
2026-01-28 22:10:08.74	107.22	18.34	-39.2	-40.9	20.0	0.00e+00	0	41	0	0	49	4520
2026-01-28 22:10:09.45	107.38	18.31	-39.2	-40.9	20.0	0.00e+00	0	40	0	0	49	4511
2026-01-28 22:10:10.73	107.67	18.26	-39.3	-41.0	19.8	0.00e+00	0	41	0	0	49	4584
2026-01-28 22:10:11.44	107.83	18.23	-39.3	-41.1	19.8	0.00e+00	0	40	0	0	49	4601
2026-01-28 22:10:12.72	108.11	18.18	-39.3	-41.0	19.9	0.00e+00	0	40	0	0	49	4578
2026-01-28 22:10:13.43	108.27	18.15	-39.4	-41.1	19.8	0.00e+00	0	41	0	0	49	4629
2026-01-28 22:10:14.71	108.55	18.09	-39.4	-41.1	19.7	0.00e+00	0	40	0	0	49	4647
2026-01-28 22:10:15.44	108.72	18.06	-39.5	-41.2	19.6	0.00e+00	0	40	0	0	49	4677
2026-01-28 22:10:16.72	109.00	18.01	-39.6	-41.3	19.5	0.00e+00	0	40	0	0	49	4759
2026-01-28 22:10:17.43	109.15	17.98	-39.6	-41.4	19.5	0.00e+00	0	41	0	0	49	4782
2026-01-28 22:10:18.71	109.44	17.93	-39.5	-41.3	19.6	0.00e+00	0	41	0	0	50	4455
2026-01-28 22:10:19.42	109.59	17.90	-39.5	-41.2	19.6	0.00e+00	0	41	0	0	50	4430
2026-01-28 22:10:20.70	109.87	17.84	-39.5	-41.3	19.6	0.00e+00	0	41	0	0	50	4449
2026-01-28 22:10:21.68	110.08	17.80	-39.6	-41.3	19.6	0.00e+00	0	40	0	0	50	4490
2026-01-28 22:10:22.68	110.30	17.75	-39.7	-41.5	19.5	0.00e+00	0	40	0	0	50	4550
2026-01-28 22:10:23.67	110.52	17.71	-39.6	-41.4	19.6	0.00e+00	0	41	0	0	50	4509
2026-01-28 22:10:24.67	110.73	17.67	-39.7	-41.5	19.5	0.00e+00	0	41	0	0	50	4547
2026-01-28 22:10:25.66	110.95	17.62	-39.8	-41.6	19.4	0.00e+00	0	40	0	0	50	4613
2026-01-28 22:10:26.65	111.16	17.58	-39.8	-41.6	19.4	0.00e+00	0	40	0	0	50	4621
2026-01-28 22:10:27.65	111.37	17.53	-39.7	-41.5	19.4	0.00e+00	0	40	0	0	50	4571
2026-01-28 22:10:28.64	111.58	17.49	-39.8	-41.6	19.3	0.00e+00	0	40	0	0	50	4609
2026-01-28 22:10:29.64	111.80	17.44	-39.6	-41.4	19.4	0.00e+00	0	41	0	0	50	4522
2026-01-28 22:10:30.63	112.01	17.39	-39.7	-41.5	19.2	0.00e+00	0	40	0	0	50	4561
2026-01-28 22:10:31.62	112.22	17.35	-39.8	-41.6	19.1	0.00e+00	0	41	0	0	50	4647
2026-01-28 22:10:32.62	112.43	17.30	-39.7	-41.5	19.4	0.00e+00	0	40	0	0	50	4554
2026-01-28 22:10:33.62	112.64	17.25	-39.6	-41.3	19.5	0.00e+00	0	40	0	0	50	4466
2026-01-28 22:10:34.61	112.84	17.21	-39.5	-41.2	19.7	0.00e+00	0	40	0	0	50	4405
2026-01-28 22:10:35.61	113.05	17.16	-39.4	-41.1	19.8	0.00e+00	0	40	0	0	50	4347
2026-01-28 22:10:36.60	113.26	17.11	-39.5	-41.2	19.7	0.00e+00	0	41	0	0	50	4410
2026-01-28 22:10:37.60	113.47	17.06	-39.6	-41.3	19.6	0.00e+00	0	40	0	0	50	4474
2026-01-28 22:10:38.59	113.67	17.02	-39.7	-41.4	19.5	0.00e+00	0	40	0	0	50	4517
2026-01-28 22:10:39.59	113.88	16.97	-39.7	-41.5	19.4	0.00e+00	0	41	0	0	50	4564
2026-01-28 22:10:40.58	114.08	16.92	-39.8	-41.6	19.3	0.00e+00	0	40	0	0	50	4624
2026-01-28 22:10:41.58	114.29	16.87	-39.9	-41.6	19.3	0.00e+00	0	41	0	0	50	4635
2026-01-28 22:10:42.57	114.49	16.82	-40.0	-41.8	19.1	0.00e+00	0	41	0	0	50	4720
2026-01-28 22:10:43.57	114.70	16.77	-40.1	-41.9	19.0	0.00e+00	0	41	0	0	51	4536
2026-01-28 22:10:44.56	114.90	16.72	-40.1	-41.8	19.1	0.00e+00	0	40	0	0	51	4490
2026-01-28 22:10:45.56	115.10	16.67	-40.1	-41.8	19.1	0.00e+00	0	40	0	0	51	4482
2026-01-28 22:10:46.55	115.30	16.62	-39.8	-41.6	19.3	0.00e+00	0	40	0	0	51	4349
2026-01-28 22:10:47.54	115.50	16.57	-39.9	-41.6	19.3	0.00e+00	0	40	0	0	51	4377
2026-01-28 22:10:48.54	115.70	16.52	-39.8	-41.6	19.3	0.00e+00	0	40	0	0	51	4341
2026-01-28 22:10:49.53	115.90	16.47	-39.7	-41.4	19.5	0.00e+00	0	40	0	0	51	4259
2026-01-28 22:10:50.53	116.10	16.42	-39.6	-41.3	19.6	0.00e+00	0	41	0	0	51	4230
2026-01-28 22:10:51.52	116.29	16.37	-39.6	-41.4	19.6	0.00e+00	0	40	0	0	51	4243
2026-01-28 22:10:52.52	116.49	16.32	-39.6	-41.3	19.6	0.00e+00	0	41	0	0	51	4231
2026-01-28 22:10:53.51	116.69	16.26	-39.7	-41.4	19.6	0.00e+00	0	40	0	0	51	4250
2026-01-28 22:10:54.51	116.88	16.21	-39.8	-41.5	19.4	0.00e+00	0	40	0	0	51	4332
2026-01-28 22:10:55.50	117.08	16.16	-39.8	-41.6	19.4	0.00e+00	0	40	0	0	51	4359
2026-01-28 22:10:56.50	117.27	16.11	-40.0	-41.8	19.2	0.00e+00	0	40	0	0	51	4469
2026-01-28 22:10:57.51	117.47	16.05	-40.2	-42.0	19.0	0.00e+00	0	40	0	0	51	4566
2026-01-28 22:10:58.51	117.66	16.00	-40.3	-42.1	18.9	0.00e+00	0	40	0	0	51	4637
2026-01-28 22:10:59.55	117.86	15.95	-40.2	-42.0	19.0	0.00e+00	0	40	0	0	51	4559
2026-01-28 22:11:00.50	118.05	15.90	-40.1	-41.9	19.1	0.00e+00	0	40	0	0	51	4524
2026-01-28 22:11:01.49	118.24	15.84	-40.1	-41.9	19.0	0.00e+00	0	40	0	0	51	4543
2026-01-28 22:11:02.49	118.43	15.79	-40.1	-41.9	19.0	0.00e+00	0	40	0	0	51	4525
2026-01-28 22:11:03.48	118.62	15.74	-40.0	-41.8	19.1	0.00e+00	0	40	0	0	51	4459
2026-01-28 22:11:04.47	118.81	15.68	-40.0	-41.7	19.2	0.00e+00	0	40	0	0	51	4429
2026-01-28 22:11:05.47	119.00	15.63	-39.8	-41.6	19.3	0.00e+00	0	40	0	0	51	4368
2026-01-28 22:11:06.46	119.18	15.57	-40.0	-41.7	19.3	0.00e+00	0	40	0	0	51	4424
2026-01-28 22:11:07.45	119.37	15.52	-40.0	-41.7	19.2	0.00e+00	0	40	0	0	51	4430
2026-01-28 22:11:08.45	119.56	15.46	-40.0	-41.7	19.3	0.00e+00	0	40	0	0	51	4430
2026-01-28 22:11:09.44	119.74	15.41	-40.0	-41.8	19.2	0.00e+00	0	40	0	0	51	4461
2026-01-28 22:11:10.44	119.93	15.35	-40.1	-41.8	19.2	0.00e+00	0	40	0	0	51	4492
2026-01-28 22:11:11.43	120.11	15.30	-40.2	-42.0	19.0	0.00e+00	0	40	0	0	51	4577
2026-01-28 22:11:12.44	120.30	15.24	-40.2	-42.0	19.0	0.00e+00	0	40	0	0	51	4595
2026-01-28 22:11:13.47	120.49	15.19	-40.2	-42.0	19.0	0.00e+00	0	40	0	0	51	4573
2026-01-28 22:11:14.50	120.68	15.13	-40.2	-42.0	19.0	0.00e+00	0	40	0	0	51	4598
2026-01-28 22:11:15.49	120.86	15.07	-40.3	-42.1	18.9	0.00e+00	0	40	0	0	51	4641
2026-01-28 22:11:16.48	121.04	15.02	-40.3	-42.1	18.9	0.00e+00	0	40	0	0	51	4609
2026-01-28 22:11:17.58	121.24	14.96	-40.3	-42.2	18.8	0.00e+00	0	40	0	0	51	4653
2026-01-28 22:11:18.43	121.39	14.91	-40.2	-42.1	18.9	0.00e+00	0	40	0	0	51	4606
2026-01-28 22:11:19.57	121.60	14.84	-40.2	-42.1	18.9	0.00e+00	0	40	0	0	51	4600
2026-01-28 22:11:20.42	121.75	14.80	-40.3	-42.2	18.8	0.00e+00	0	40	0	0	51	4659
2026-01-28 22:11:21.56	121.95	14.73	-40.3	-42.1	18.8	0.00e+00	0	40	0	0	51	4628
2026-01-28 22:11:22.41	122.10	14.68	-40.3	-42.1	18.8	0.00e+00	0	40	0	0	51	4634
2026-01-28 22:11:23.55	122.31	14.62	-40.3	-42.2	18.8	0.00e+00	0	40	0	0	51	4665
2026-01-28 22:11:24.40	122.46	14.57	-40.1	-41.9	19.0	0.00e+00	0	40	0	0	51	4521
2026-01-28 22:11:25.54	122.66	14.51	-40.1	-41.9	19.0	0.00e+00	0	40	0	0	51	4531
2026-01-28 22:11:26.40	122.81	14.46	-40.1	-41.9	19.1	0.00e+00	0	40	0	0	51	4517
2026-01-28 22:11:27.53	123.00	14.39	-40.2	-42.0	19.0	0.00e+00	0	40	0	0	51	4552
2026-01-28 22:11:28.39	123.15	14.34	-40.1	-41.9	19.1	0.00e+00	0	41	0	0	51	4498
2026-01-28 22:11:29.55	123.36	14.27	-40.1	-41.9	19.1	0.00e+00	0	41	0	0	51	4506
2026-01-28 22:11:30.41	123.50	14.23	-40.2	-42.0	19.0	0.00e+00	0	40	0	0	51	4558
2026-01-28 22:11:31.59	123.71	14.16	-40.3	-42.1	18.9	0.00e+00	0	40	0	0	51	4613
2026-01-28 22:11:32.45	123.86	14.11	-40.2	-42.0	18.9	0.00e+00	0	40	0	0	51	4587
2026-01-28 22:11:33.59	124.05	14.04	-40.3	-42.1	18.9	0.00e+00	0	41	0	0	51	4623
2026-01-28 22:11:34.44	124.19	13.99	-40.2	-42.0	19.0	0.00e+00	0	41	0	0	51	4592
2026-01-28 22:11:35.58	124.39	13.93	-40.2	-42.0	19.0	0.00e+00	0	41	0	0	51	4582
2026-01-28 22:11:36.43	124.53	13.88	-40.1	-41.9	19.1	0.00e+00	0	41	0	0	51	4529
2026-01-28 22:11:37.56	124.72	13.81	-40.1	-41.9	19.1	0.00e+00	0	40	0	0	51	4508
2026-01-28 22:11:38.42	124.87	13.76	-40.1	-41.9	19.1	0.00e+00	0	40	0	0	51	4531
2026-01-28 22:11:39.55	125.06	13.69	-40.1	-41.9	19.1	0.00e+00	0	41	0	0	51	4513
2026-01-28 22:11:40.40	125.20	13.64	-40.1	-41.9	19.0	0.00e+00	0	40	0	0	51	4542
2026-01-28 22:11:41.54	125.39	13.58	-40.1	-41.9	19.1	0.00e+00	0	40	0	0	51	4514
2026-01-28 22:11:42.39	125.53	13.53	-40.1	-41.8	19.1	0.00e+00	0	40	0	0	51	4493
2026-01-28 22:11:43.53	125.71	13.46	-40.1	-41.9	19.0	0.00e+00	0	40	0	0	51	4542
2026-01-28 22:11:44.38	125.85	13.41	-39.9	-41.7	19.2	0.00e+00	0	40	0	0	51	4408
2026-01-28 22:11:45.52	126.04	13.34	-40.0	-41.7	19.2	0.00e+00	0	41	0	0	51	4440
2026-01-28 22:11:46.37	126.18	13.29	-40.0	-41.7	19.2	0.00e+00	0	40	0	0	51	4436
2026-01-28 22:11:47.57	126.37	13.22	-40.1	-41.9	19.0	0.00e+00	0	41	0	0	51	4541
2026-01-28 22:11:48.43	126.51	13.17	-40.1	-41.9	19.0	0.00e+00	0	40	0	0	51	4533
2026-01-28 22:11:49.63	126.70	13.10	-40.1	-41.9	19.0	0.00e+00	0	40	0	0	51	4511
2026-01-28 22:11:50.48	126.84	13.05	-40.0	-41.8	19.1	0.00e+00	0	40	0	0	51	4442
2026-01-28 22:11:51.62	127.02	12.98	-40.2	-42.0	18.9	0.00e+00	0	41	0	0	51	4567
2026-01-28 22:11:52.48	127.16	12.93	-40.2	-41.9	18.9	0.00e+00	0	40	0	0	51	4545
2026-01-28 22:11:53.61	127.34	12.86	-40.3	-42.1	18.8	0.00e+00	0	40	0	0	51	4611
2026-01-28 22:11:54.47	127.47	12.81	-40.3	-42.1	18.8	0.00e+00	0	41	0	0	51	4622
2026-01-28 22:11:55.60	127.65	12.74	-40.3	-42.1	18.8	0.00e+00	0	40	0	0	51	4613
2026-01-28 22:11:56.55	127.80	12.69	-40.5	-42.3	18.6	0.00e+00	0	40	0	0	51	4744
2026-01-28 22:11:57.55	127.95	12.63	-40.3	-42.2	18.7	0.00e+00	0	41	0	0	51	4672
2026-01-28 22:11:58.54	128.11	12.57	-40.4	-42.3	18.6	0.00e+00	0	40	0	0	51	4732
2026-01-28 22:11:59.54	128.26	12.51	-40.4	-42.3	18.6	0.00e+00	0	40	0	0	51	4724
2026-01-28 22:12:00.53	128.41	12.45	-40.4	-42.3	18.6	0.00e+00	0	40	0	0	51	4737
2026-01-28 22:12:01.53	128.57	12.39	-40.5	-42.4	18.5	0.00e+00	0	41	0	0	51	4781
2026-01-28 22:12:02.53	128.72	12.33	-40.5	-42.4	18.5	0.00e+00	0	41	0	0	51	4800
2026-01-28 22:12:03.52	128.87	12.27	-40.6	-42.5	18.4	0.00e+00	0	41	0	0	51	4859
2026-01-28 22:12:04.52	129.02	12.21	-40.5	-42.4	18.4	0.00e+00	0	40	0	0	52	4532
2026-01-28 22:12:05.51	129.17	12.15	-40.5	-42.4	18.4	0.00e+00	0	40	0	0	52	4531
2026-01-28 22:12:06.51	129.32	12.09	-40.6	-42.5	18.2	0.00e+00	0	40	0	0	52	4551
2026-01-28 22:12:07.52	129.47	12.03	-40.6	-42.5	18.2	0.00e+00	0	40	0	0	52	4596
2026-01-28 22:12:08.51	129.62	11.97	-40.6	-42.6	18.2	0.00e+00	0	40	0	0	52	4603
2026-01-28 22:12:09.51	129.77	11.91	-40.7	-42.7	18.1	0.00e+00	0	40	0	0	52	4653
2026-01-28 22:12:10.50	129.92	11.85	-40.8	-42.7	18.0	0.00e+00	0	40	0	0	52	4699
2026-01-28 22:12:11.50	130.06	11.79	-40.9	-42.8	18.0	0.00e+00	0	40	0	0	52	4729
2026-01-28 22:12:12.49	130.21	11.73	-40.9	-42.8	18.0	0.00e+00	0	40	0	0	52	4748
2026-01-28 22:12:13.49	130.35	11.67	-40.9	-42.8	17.9	0.00e+00	0	40	0	0	52	4759
2026-01-28 22:12:14.48	130.50	11.61	-40.8	-42.8	18.0	0.00e+00	0	41	0	0	52	4717
2026-01-28 22:12:15.48	130.64	11.55	-40.9	-42.9	18.0	0.00e+00	0	40	0	0	52	4762
2026-01-28 22:12:16.47	130.79	11.49	-40.8	-42.8	18.0	0.00e+00	0	40	0	0	52	4726
2026-01-28 22:12:17.46	130.93	11.43	-40.8	-42.8	18.1	0.00e+00	0	40	0	0	52	4708
2026-01-28 22:12:18.46	131.07	11.37	-40.7	-42.6	18.2	0.00e+00	0	40	0	0	52	4642
2026-01-28 22:12:19.45	131.21	11.31	-40.7	-42.6	18.2	0.00e+00	0	40	0	0	52	4634
2026-01-28 22:12:20.45	131.36	11.25	-40.7	-42.6	18.2	0.00e+00	0	41	0	0	52	4619
2026-01-28 22:12:21.44	131.50	11.19	-40.7	-42.6	18.1	0.00e+00	0	40	0	0	52	4648
2026-01-28 22:12:22.44	131.64	11.13	-40.7	-42.6	18.2	0.00e+00	0	40	0	0	52	4636
2026-01-28 22:12:23.45	131.78	11.07	-40.7	-42.7	18.2	0.00e+00	0	40	0	0	52	4656
2026-01-28 22:12:24.47	131.92	11.01	-40.8	-42.8	18.0	0.00e+00	0	40	0	0	52	4724
2026-01-28 22:12:25.50	132.07	10.95	-40.8	-42.8	18.1	0.00e+00	0	40	0	0	52	4708
2026-01-28 22:12:26.49	132.20	10.89	-40.9	-42.8	18.0	0.00e+00	0	40	0	0	52	4744
2026-01-28 22:12:27.55	132.35	10.82	-41.0	-42.9	17.9	0.00e+00	0	40	0	0	52	4800
2026-01-28 22:12:28.42	132.47	10.77	-41.0	-42.9	17.9	0.00e+00	0	41	0	0	52	4805
2026-01-28 22:12:29.56	132.63	10.70	-41.0	-43.0	17.8	0.00e+00	0	40	0	0	52	4836
2026-01-28 22:12:30.41	132.74	10.65	-41.1	-43.1	17.8	0.00e+00	0	40	0	0	52	4880
2026-01-28 22:12:31.55	132.90	10.58	-41.1	-43.1	17.7	0.00e+00	0	41	0	0	52	4885
2026-01-28 22:12:32.40	133.01	10.53	-41.2	-43.2	17.6	0.00e+00	0	40	0	0	53	4693
2026-01-28 22:12:33.54	133.17	10.46	-41.1	-43.1	17.7	0.00e+00	0	40	0	0	53	4620
2026-01-28 22:12:34.39	133.28	10.41	-41.1	-43.1	17.6	0.00e+00	0	41	0	0	53	4647
2026-01-28 22:12:35.53	133.43	10.34	-41.1	-43.2	17.6	0.00e+00	0	40	0	0	53	4652
2026-01-28 22:12:36.38	133.55	10.29	-41.1	-43.1	17.6	0.00e+00	0	41	0	0	53	4634
2026-01-28 22:12:37.52	133.70	10.22	-41.2	-43.2	17.6	0.00e+00	0	40	0	0	53	4661
2026-01-28 22:12:38.38	133.81	10.17	-41.1	-43.1	17.7	0.00e+00	0	40	0	0	53	4605
2026-01-28 22:12:39.51	133.96	10.10	-41.1	-43.0	17.7	0.00e+00	0	40	0	0	53	4591
2026-01-28 22:12:40.37	134.07	10.05	-41.2	-43.2	17.5	0.00e+00	0	40	0	0	53	4660
2026-01-28 22:12:41.50	134.22	9.98	-41.3	-43.3	17.4	0.00e+00	0	40	0	0	53	4706
2026-01-28 22:12:42.36	134.33	9.93	-41.3	-43.3	17.3	0.00e+00	0	40	0	0	53	4746
2026-01-28 22:12:43.50	134.48	9.86	-41.3	-43.3	17.3	0.00e+00	0	40	0	0	53	4739
2026-01-28 22:12:44.35	134.59	9.81	-41.3	-43.4	17.3	0.00e+00	0	40	0	0	53	4765
2026-01-28 22:12:45.48	134.74	9.74	-41.5	-43.6	17.2	0.00e+00	0	40	0	0	53	4881
2026-01-28 22:12:46.34	134.85	9.69	-41.5	-43.6	17.1	0.00e+00	0	40	0	0	53	4923
2026-01-28 22:12:47.47	134.99	9.62	-41.4	-43.5	17.2	0.00e+00	0	40	0	0	53	4860
2026-01-28 22:12:48.33	135.10	9.57	-41.5	-43.6	17.1	0.00e+00	0	41	0	0	53	4922
2026-01-28 22:12:49.46	135.25	9.50	-41.5	-43.6	17.2	0.00e+00	0	40	0	0	53	4876
2026-01-28 22:12:50.32	135.35	9.45	-41.4	-43.5	17.2	0.00e+00	0	40	0	0	53	4852
2026-01-28 22:12:51.45	135.50	9.38	-41.5	-43.5	17.2	0.00e+00	0	40	0	0	53	4868
2026-01-28 22:12:52.30	135.60	9.33	-41.5	-43.6	17.1	0.00e+00	0	40	0	0	53	4886
2026-01-28 22:12:53.44	135.75	9.26	-41.6	-43.7	17.1	0.00e+00	0	40	0	0	53	4942
2026-01-28 22:12:54.29	135.85	9.21	-41.5	-43.6	17.1	0.00e+00	0	40	0	0	53	4898
2026-01-28 22:12:55.43	135.99	9.15	-41.6	-43.7	17.0	0.00e+00	0	40	0	0	53	4945
2026-01-28 22:12:56.28	136.10	9.09	-41.6	-43.6	17.1	0.00e+00	0	40	0	0	53	4922
2026-01-28 22:12:57.59	136.26	9.02	-44.4	-47.3	13.9	0.00e+00	0	40	0	0	59	5320
2026-01-28 22:12:58.30	136.34	8.97	-49.3	-61.6	3.8	1.49e+00	0	40	104	0	69	15527
2026-01-28 22:12:59.80	136.53	8.88	-49.6	-62.6	3.8	1.49e+00	0	41	104	0	69	17416
2026-01-28 22:13:00.51	136.61	8.84	-49.7	-62.7	3.8	1.49e+00	0	40	104	0	69	17570
2026-01-28 22:13:01.85	136.77	8.76	-49.5	-62.8	3.8	1.49e+00	0	40	104	0	70	16741
2026-01-28 22:13:02.56	136.86	8.72	-49.8	-62.8	3.8	1.49e+00	0	40	104	0	70	16867
2026-01-28 22:13:03.84	137.01	8.64	-49.9	-62.9	3.8	1.49e+00	0	40	104	0	70	17040
2026-01-28 22:13:04.55	137.10	8.60	-49.7	-62.9	3.8	1.49e+00	0	40	104	0	70	17041
2026-01-28 22:13:05.83	137.25	8.52	-50.0	-63.0	3.8	1.49e+00	0	41	104	0	70	17122
2026-01-28 22:13:06.54	137.33	8.48	-50.0	-63.0	3.8	1.49e+00	0	40	104	0	70	17140
2026-01-28 22:13:07.81	137.48	8.41	-50.0	-63.0	3.8	1.49e+00	0	41	104	0	70	17200
2026-01-28 22:13:08.52	137.57	8.36	-50.0	-63.0	3.8	1.49e+00	0	41	104	0	70	17257
2026-01-28 22:13:09.80	137.72	8.29	-50.1	-63.1	3.8	1.49e+00	0	40	104	0	70	17304
2026-01-28 22:13:10.51	137.80	8.25	-49.9	-63.1	3.8	1.49e+00	0	41	104	0	70	17388
2026-01-28 22:13:11.79	137.95	8.17	-50.1	-63.1	3.8	1.49e+00	0	40	104	0	70	17425
2026-01-28 22:13:12.51	138.03	8.13	-50.1	-63.1	3.8	1.49e+00	0	40	104	0	70	17394
2026-01-28 22:13:13.79	138.18	8.05	-49.6	-63.1	3.8	1.49e+00	0	40	104	0	70	17427
2026-01-28 22:13:14.50	138.26	8.01	-49.9	-63.2	3.8	1.49e+00	0	41	104	0	70	17487
2026-01-28 22:13:15.77	138.41	7.93	-50.0	-63.1	3.8	1.49e+00	0	40	104	0	70	17392
2026-01-28 22:13:16.50	138.49	7.89	-50.1	-63.1	3.8	1.49e+00	0	40	104	0	70	17454
2026-01-28 22:13:17.77	138.63	7.82	-50.1	-63.1	3.8	1.49e+00	0	40	104	0	70	17415
2026-01-28 22:13:18.48	138.71	7.77	-50.1	-63.1	3.8	1.49e+00	0	40	104	0	71	16497
2026-01-28 22:13:19.79	138.86	7.70	-50.2	-63.1	3.8	1.49e+00	0	41	104	0	71	16495
2026-01-28 22:13:20.50	138.94	7.66	-50.1	-63.2	3.8	1.49e+00	0	40	104	0	71	16530
2026-01-28 22:13:21.87	139.09	7.57	-50.1	-63.1	3.8	1.49e+00	0	40	104	0	71	16465
2026-01-28 22:13:22.58	139.17	7.53	-50.1	-63.1	3.8	1.49e+00	0	40	104	0	71	16495
2026-01-28 22:13:23.86	139.31	7.46	-50.1	-63.1	3.8	1.49e+00	0	40	104	0	71	16475
2026-01-28 22:13:24.59	139.39	7.41	-50.1	-63.1	3.8	1.49e+00	0	40	104	0	71	16456
2026-01-28 22:13:25.86	139.53	7.34	-50.1	-63.1	3.8	1.49e+00	0	40	104	0	71	16491
2026-01-28 22:13:26.59	139.61	7.30	-50.1	-63.2	3.8	1.49e+00	0	40	104	0	71	16579
2026-01-28 22:13:27.87	139.75	7.22	-50.1	-63.2	3.8	1.49e+00	0	40	104	0	71	16521
2026-01-28 22:13:28.57	139.83	7.18	-50.0	-63.1	3.8	1.49e+00	0	41	104	0	71	16501
2026-01-28 22:13:29.85	139.97	7.11	-50.0	-63.2	3.8	1.49e+00	0	40	104	0	71	16524
2026-01-28 22:13:30.58	140.05	7.06	-50.0	-63.1	3.8	1.49e+00	0	41	104	0	71	16479
2026-01-28 22:13:31.85	140.18	6.99	-50.0	-63.1	3.8	1.49e+00	0	40	104	0	71	16347
2026-01-28 22:13:32.56	140.26	6.95	-50.0	-63.1	3.8	1.49e+00	0	40	104	0	71	16357
2026-01-28 22:13:33.84	140.39	6.87	-49.9	-63.0	3.8	1.49e+00	0	41	104	0	71	16305
2026-01-28 22:13:34.55	140.47	6.83	-49.7	-63.0	3.8	1.49e+00	0	40	104	0	71	16273
2026-01-28 22:13:35.83	140.61	6.76	-49.8	-63.0	3.8	1.49e+00	0	40	104	0	71	16138
2026-01-28 22:13:36.54	140.68	6.72	-49.9	-62.9	3.8	1.49e+00	0	41	104	0	71	16115
2026-01-28 22:13:37.81	140.81	6.64	-49.7	-62.8	3.8	1.49e+00	0	40	104	0	71	15937
2026-01-28 22:13:38.52	140.89	6.60	-49.7	-62.7	3.8	1.49e+00	0	41	104	0	71	15590
2026-01-28 22:13:39.80	141.02	6.53	-49.4	-62.5	3.8	1.49e+00	0	41	104	0	70	16228
2026-01-28 22:13:40.51	141.09	6.49	-49.3	-62.5	3.8	1.49e+00	0	40	104	0	70	16222
2026-01-28 22:13:41.81	141.23	6.41	-49.0	-62.2	3.9	1.49e+00	0	40	104	0	69	16560
2026-01-28 22:13:42.51	141.30	6.37	-49.0	-62.1	3.9	1.49e+00	0	40	104	0	69	16488
2026-01-28 22:13:43.79	141.43	6.30	-48.8	-62.1	3.9	1.49e+00	0	41	104	0	69	16426
2026-01-28 22:13:44.50	141.50	6.25	-48.8	-62.1	3.9	1.49e+00	0	40	104	0	69	16428
2026-01-28 22:13:45.78	141.63	6.18	-49.0	-62.1	3.9	1.49e+00	0	40	104	0	69	16462
2026-01-28 22:13:46.49	141.71	6.14	-49.0	-62.2	3.9	1.49e+00	0	41	104	0	69	16504
2026-01-28 22:13:47.77	141.84	6.07	-49.1	-62.2	3.8	1.49e+00	0	40	104	0	69	16673
2026-01-28 22:13:48.49	141.91	6.02	-49.1	-62.2	3.8	1.49e+00	0	40	104	0	69	16689
2026-01-28 22:13:49.77	142.04	5.95	-49.2	-62.3	3.8	1.49e+00	0	40	104	0	69	16851
2026-01-28 22:13:50.48	142.11	5.91	-49.3	-62.4	3.8	1.49e+00	0	40	104	0	69	16943
2026-01-28 22:13:51.75	142.23	5.84	-49.3	-62.4	3.8	1.49e+00	0	40	104	0	69	16993
2026-01-28 22:13:52.48	142.31	5.80	-49.2	-62.4	3.8	1.49e+00	0	40	104	0	69	16943
2026-01-28 22:13:53.76	142.43	5.72	-49.2	-62.3	3.8	1.49e+00	0	40	104	0	69	16863
2026-01-28 22:13:54.47	142.50	5.68	-49.2	-62.4	3.8	1.49e+00	0	40	104	0	69	16927
2026-01-28 22:13:55.74	142.63	5.61	-49.2	-62.3	3.8	1.49e+00	0	40	104	0	69	16800
2026-01-28 22:13:56.45	142.70	5.57	-49.2	-62.4	3.8	1.49e+00	0	40	104	0	69	16931
2026-01-28 22:13:57.73	142.82	5.49	-49.2	-62.4	3.8	1.49e+00	0	40	104	0	69	16919
2026-01-28 22:13:58.44	142.89	5.45	-49.2	-62.4	3.8	1.49e+00	0	40	104	0	69	16971
2026-01-28 22:13:59.72	143.01	5.38	-49.2	-62.4	3.8	1.49e+00	0	40	104	0	69	16898
2026-01-28 22:14:00.43	143.08	5.34	-49.2	-62.4	3.8	1.49e+00	0	40	104	0	69	16943
2026-01-28 22:14:01.71	143.20	5.27	-49.2	-62.3	3.8	1.49e+00	0	40	104	0	69	16851
2026-01-28 22:14:02.42	143.27	5.23	-49.2	-62.4	3.8	1.49e+00	0	41	104	0	69	16890
2026-01-28 22:14:03.69	143.39	5.16	-49.2	-62.4	3.8	1.49e+00	0	40	104	0	69	16964
2026-01-28 22:14:04.42	143.46	5.11	-49.2	-62.4	3.8	1.49e+00	0	40	104	0	69	16942
2026-01-28 22:14:05.69	143.58	5.04	-49.2	-62.4	3.8	1.49e+00	0	41	104	0	69	16932
2026-01-28 22:14:06.40	143.65	5.00	-49.2	-62.4	3.8	1.49e+00	0	40	104	0	69	16890

#Closed at: 2026-01-28 22:14:07
#Recorded file [0 MB]: D:/Data/31040_260129_010324.dat