passes_logs/2026/01/28/T1/T1__20260128_102224_SUOMI_NPP_rec.log

#Pass ID: 20260128_102224_SUOMI NPP
#Satellite: SUOMI NPP
#Configuration: NPP
#almurnet v.1.7.20251203
#Start time: 2026-01-28 10:22:25

#Version: 2.0.20230620
#Station: T1
#Location: 37.570604 lon 55.790049 lat
#TLE: 1 37849U 11061A   26027.86188320  .00000172  00000+0  10275-3 0  9990
#TLE: 2 37849  98.7823 329.8005 0002088  41.4184 318.7150 14.19530883738530

#Time	Az	El	Level	Level2	SNR	BER	BlckErr	Temp	State	Recorded	gain1	gain2
2026-01-28 10:22:25.83	171.83	5.11	-50.0	-65.4	3.8	1.49e+00	0	41	0	0	71	21432
2026-01-28 10:22:26.82	171.85	5.18	-50.3	-65.4	3.8	1.49e+00	0	41	104	0	71	21404
2026-01-28 10:22:27.81	171.87	5.25	-50.2	-65.4	3.8	1.49e+00	0	41	104	0	71	21438
2026-01-28 10:22:28.81	171.90	5.33	-50.1	-65.4	3.8	1.49e+00	0	41	104	0	71	21399
2026-01-28 10:22:29.80	171.92	5.40	-49.8	-65.4	3.8	1.49e+00	0	41	104	0	71	21434
2026-01-28 10:22:30.79	171.94	5.47	-50.2	-65.4	3.8	1.49e+00	0	42	104	0	71	21417
2026-01-28 10:22:31.79	171.96	5.54	-50.3	-65.4	3.8	1.49e+00	0	42	104	0	71	21476
2026-01-28 10:22:32.78	171.98	5.61	-50.2	-65.4	3.8	1.49e+00	0	42	104	0	71	21416
2026-01-28 10:22:33.77	172.01	5.69	-50.2	-65.4	3.8	1.49e+00	0	42	104	0	71	21382
2026-01-28 10:22:34.77	172.03	5.76	-50.1	-65.4	3.8	1.49e+00	0	42	104	0	71	21360
2026-01-28 10:22:35.76	172.05	5.83	-50.2	-65.4	3.8	1.49e+00	0	42	104	0	71	21366
2026-01-28 10:22:36.75	172.08	5.90	-50.2	-65.3	3.8	1.49e+00	0	42	104	0	71	21249
2026-01-28 10:22:37.74	172.10	5.98	-50.2	-65.4	3.8	1.49e+00	0	42	104	0	71	21304
2026-01-28 10:22:38.74	172.12	6.05	-50.0	-65.4	3.8	1.49e+00	0	42	104	0	71	21297
2026-01-28 10:22:39.73	172.15	6.12	-50.1	-65.4	3.8	1.49e+00	0	42	104	0	71	21284
2026-01-28 10:22:40.72	172.17	6.20	-50.0	-65.3	3.8	1.49e+00	0	42	104	0	71	21130
2026-01-28 10:22:41.72	172.19	6.27	-49.9	-65.3	3.8	1.49e+00	0	42	104	0	71	21232
2026-01-28 10:22:42.71	172.22	6.35	-49.9	-65.3	3.8	1.49e+00	0	42	104	0	71	21108
2026-01-28 10:22:43.70	172.24	6.42	-49.9	-65.2	3.8	1.49e+00	0	42	104	0	71	21017
2026-01-28 10:22:44.70	172.26	6.50	-49.6	-65.2	3.8	1.49e+00	0	42	104	0	71	20903
2026-01-28 10:22:45.69	172.29	6.57	-48.7	-65.1	3.8	1.49e+00	0	42	104	0	68	24539
2026-01-28 10:22:46.68	172.31	6.64	-47.9	-65.0	3.9	1.49e+00	0	42	104	0	66	27141
2026-01-28 10:22:47.68	172.34	6.72	-48.8	-65.0	3.8	1.49e+00	0	42	104	0	69	23005
2026-01-28 10:22:48.67	172.36	6.80	-48.3	-64.9	3.8	1.49e+00	0	42	104	0	68	23953
2026-01-28 10:22:49.66	172.38	6.87	-46.7	-63.9	3.8	1.49e+00	0	42	104	0	65	25533
2026-01-28 10:22:50.66	172.41	6.95	-45.9	-64.6	3.8	1.49e+00	0	42	104	0	63	30950
2026-01-28 10:22:51.65	172.43	7.02	-46.0	-64.5	3.8	1.49e+00	0	42	104	0	63	30633
2026-01-28 10:22:52.64	172.46	7.10	-46.1	-64.3	3.8	1.49e+00	0	42	104	0	63	29974
2026-01-28 10:22:53.64	172.48	7.18	-46.0	-63.9	3.8	1.49e+00	0	42	104	0	63	28365
2026-01-28 10:22:54.63	172.51	7.25	-46.0	-63.1	3.8	1.49e+00	0	42	104	0	63	26061
2026-01-28 10:22:55.62	172.53	7.33	-46.1	-61.9	3.9	1.49e+00	0	42	104	0	63	22661
2026-01-28 10:22:56.61	172.56	7.41	-45.9	-60.4	4.4	1.36e+00	0	42	0	0	63	18970
2026-01-28 10:22:57.61	172.58	7.49	-45.9	-58.8	5.1	8.51e-01	0	42	0	2097152	63	15881
2026-01-28 10:22:58.60	172.61	7.56	-45.7	-57.3	6.1	4.97e-01	0	42	0	3145728	63	13323
2026-01-28 10:22:59.59	172.63	7.64	-45.5	-56.0	7.3	1.65e-01	0	42	0	5242880	63	11518
2026-01-28 10:23:00.58	172.66	7.72	-45.2	-55.0	8.3	7.37e-02	0	42	0	7340032	62	10794
2026-01-28 10:23:01.58	172.68	7.80	-45.1	-54.0	9.2	3.31e-02	0	43	0	9437184	62	9680
2026-01-28 10:23:02.57	172.71	7.88	-44.9	-53.3	9.9	1.16e-02	0	43	0	11534336	61	9440
2026-01-28 10:23:03.56	172.74	7.95	-44.8	-52.7	10.6	4.84e-03	0	43	0	12582912	61	8851
2026-01-28 10:23:04.56	172.76	8.03	-44.6	-52.3	11.0	2.37e-03	0	42	0	14680064	61	8398
2026-01-28 10:23:05.55	172.79	8.11	-44.7	-52.1	11.2	1.47e-03	0	42	0	16777216	61	8193
2026-01-28 10:23:06.54	172.81	8.19	-44.4	-51.8	10.8	7.87e-04	0	43	0	18874368	60	8386
2026-01-28 10:23:07.54	172.84	8.27	-44.6	-51.9	11.4	8.10e-04	0	43	0	19922944	60	8492
2026-01-28 10:23:08.53	172.87	8.35	-44.7	-52.2	11.1	9.48e-04	0	43	0	22020096	60	8857
2026-01-28 10:23:09.52	172.89	8.43	-44.7	-52.5	10.8	1.68e-03	0	43	0	24117248	60	9152
2026-01-28 10:23:10.52	172.92	8.51	-44.8	-53.1	10.2	5.23e-03	0	43	0	26214400	60	9817
2026-01-28 10:23:11.51	172.95	8.60	-45.0	-54.0	9.3	1.14e-02	0	43	0	28311552	60	10808
2026-01-28 10:23:12.50	172.98	8.68	-45.4	-55.1	8.2	3.31e-02	0	43	0	29360128	61	11563
2026-01-28 10:23:13.49	173.00	8.76	-45.5	-56.3	7.1	1.10e-01	0	43	0	31457280	61	13299
2026-01-28 10:23:14.49	173.03	8.84	-45.5	-57.8	5.8	2.62e-01	0	43	0	33554432	61	15866
2026-01-28 10:23:15.48	173.06	8.92	-45.7	-59.4	4.8	5.83e-01	0	43	0	35651584	62	17980
2026-01-28 10:23:16.47	173.09	9.00	-45.8	-60.9	4.2	9.87e-01	0	43	0	36700160	62	21471
2026-01-28 10:23:17.46	173.11	9.09	-45.5	-59.3	4.8	1.45e+00	0	43	104	36700160	62	17738
2026-01-28 10:23:18.46	173.14	9.17	-45.4	-58.6	5.4	1.01e-01	0	43	0	37748736	62	16414
2026-01-28 10:23:19.45	173.17	9.25	-45.8	-62.3	3.9	1.49e+00	0	43	104	37748736	62	25163
2026-01-28 10:23:20.44	173.20	9.34	-44.8	-55.2	7.8	1.10e+00	0	43	0	37748736	61	11717
2026-01-28 10:23:21.44	173.23	9.42	-45.1	-56.2	7.6	3.26e-04	0	43	0	39845888	60	14019
2026-01-28 10:23:22.43	173.25	9.50	-45.3	-63.9	3.8	1.49e+00	0	43	104	39845888	62	30320
2026-01-28 10:23:23.42	173.28	9.59	-44.3	-49.5	13.8	4.46e-03	0	43	0	39845888	60	6489
2026-01-28 10:23:24.41	173.31	9.67	-44.3	-49.2	14.3	2.20e-06	0	43	0	41943040	60	6242
2026-01-28 10:23:25.41	173.34	9.76	-44.4	-49.3	14.1	3.80e-06	0	43	0	44040192	60	6338
2026-01-28 10:23:26.40	173.37	9.84	-44.3	-49.1	14.3	7.00e-07	0	43	0	46137344	60	6189
2026-01-28 10:23:27.39	173.40	9.93	-44.3	-48.9	14.6	0.00e+00	0	43	0	48234496	60	6018
2026-01-28 10:23:28.39	173.43	10.01	-44.4	-49.0	14.4	7.00e-07	0	43	0	49283072	60	6117
2026-01-28 10:23:29.38	173.46	10.10	-44.2	-48.6	14.7	7.00e-07	0	43	0	51380224	60	5852
2026-01-28 10:23:30.37	173.49	10.18	-44.1	-48.3	15.1	0.00e+00	0	43	0	53477376	59	5972
2026-01-28 10:23:31.37	173.52	10.27	-43.6	-47.6	15.8	0.00e+00	0	43	0	55574528	59	5494
2026-01-28 10:23:32.36	173.55	10.36	-43.4	-47.3	16.1	0.00e+00	0	43	0	56623104	58	5609
2026-01-28 10:23:33.35	173.58	10.44	-43.4	-47.2	16.1	0.00e+00	0	43	0	58720256	58	5578
2026-01-28 10:23:34.34	173.61	10.53	-43.5	-47.2	16.2	0.00e+00	0	43	0	60817408	58	5569
2026-01-28 10:23:35.34	173.64	10.62	-43.4	-47.0	15.8	7.00e-07	0	43	0	62914560	58	5446
2026-01-28 10:23:36.33	173.67	10.71	-43.3	-47.0	16.4	0.00e+00	0	43	0	65011712	58	5415
2026-01-28 10:23:37.32	173.70	10.80	-43.1	-46.6	16.7	0.00e+00	0	43	0	66060288	58	5200
2026-01-28 10:23:38.31	173.73	10.88	-43.0	-46.5	16.9	0.00e+00	0	43	0	68157440	58	5103
2026-01-28 10:23:39.31	173.76	10.97	-42.8	-46.2	17.2	0.00e+00	0	43	0	70254592	57	5241
2026-01-28 10:23:40.30	173.80	11.06	-42.8	-46.2	17.2	0.00e+00	0	43	0	72351744	57	5250
2026-01-28 10:23:41.29	173.83	11.15	-42.7	-46.1	17.2	0.00e+00	0	43	0	73400320	57	5213
2026-01-28 10:23:42.29	173.86	11.24	-42.7	-46.1	17.2	0.00e+00	0	43	0	75497472	57	5217
2026-01-28 10:23:43.28	173.89	11.33	-42.5	-45.9	17.4	0.00e+00	0	43	0	77594624	57	5055
2026-01-28 10:23:44.27	173.92	11.42	-42.5	-45.7	17.6	0.00e+00	0	43	0	79691776	57	4964
2026-01-28 10:23:45.27	173.96	11.51	-42.4	-45.5	17.8	0.00e+00	0	43	0	81788928	56	5128
2026-01-28 10:23:46.26	173.99	11.60	-42.5	-45.5	17.8	0.00e+00	0	43	0	82837504	56	5150
2026-01-28 10:23:47.25	174.02	11.70	-42.6	-45.5	17.8	0.00e+00	0	43	0	84934656	56	5118
2026-01-28 10:23:48.24	174.05	11.79	-42.7	-45.6	17.8	0.00e+00	0	43	0	87031808	56	5187
2026-01-28 10:23:49.24	174.09	11.88	-42.8	-45.6	17.8	0.00e+00	0	43	0	89128960	56	5166
2026-01-28 10:23:50.23	174.12	11.97	-42.8	-45.6	17.7	0.00e+00	0	43	0	90177536	56	5208
2026-01-28 10:23:51.22	174.15	12.07	-42.9	-45.6	17.7	0.00e+00	0	43	0	92274688	56	5193
2026-01-28 10:23:52.22	174.19	12.16	-42.9	-45.6	17.7	0.00e+00	0	43	0	94371840	56	5215
2026-01-28 10:23:53.21	174.22	12.25	-43.0	-45.8	17.6	0.00e+00	0	43	0	96468992	56	5281
2026-01-28 10:23:54.20	174.26	12.35	-42.9	-45.6	17.7	0.00e+00	0	44	0	98566144	56	5195
2026-01-28 10:23:55.19	174.29	12.44	-42.9	-45.6	17.8	0.00e+00	0	44	0	99614720	56	5169
2026-01-28 10:23:56.19	174.32	12.54	-43.0	-45.6	17.8	0.00e+00	0	43	0	101711872	56	5187
2026-01-28 10:23:57.18	174.36	12.63	-43.0	-45.5	17.8	0.00e+00	0	43	0	103809024	56	5149
2026-01-28 10:23:58.17	174.39	12.73	-42.9	-45.4	17.9	0.00e+00	0	43	0	105906176	56	5091
2026-01-28 10:23:59.17	174.43	12.82	-43.0	-45.5	17.9	0.00e+00	0	43	0	106954752	56	5139
2026-01-28 10:24:00.16	174.46	12.92	-42.8	-45.3	18.1	0.00e+00	0	43	0	109051904	56	5017
2026-01-28 10:24:01.15	174.50	13.01	-42.7	-45.1	18.2	0.00e+00	0	43	0	111149056	56	4921
2026-01-28 10:24:02.15	174.54	13.11	-42.8	-45.3	18.0	0.00e+00	0	43	0	113246208	56	5039
2026-01-28 10:24:03.14	174.57	13.21	-42.7	-45.1	18.3	0.00e+00	0	43	0	115343360	56	4910
2026-01-28 10:24:04.13	174.61	13.31	-42.8	-45.3	17.2	0.00e+00	0	43	0	116391936	56	5005
2026-01-28 10:24:05.12	174.64	13.40	-42.7	-45.1	18.3	0.00e+00	0	43	0	118489088	56	4922
2026-01-28 10:24:06.12	174.68	13.50	-42.7	-45.2	18.2	0.00e+00	0	43	0	120586240	56	4941
2026-01-28 10:24:07.11	174.72	13.60	-42.7	-45.2	18.1	0.00e+00	0	44	0	122683392	56	4962
2026-01-28 10:24:08.10	174.75	13.70	-42.6	-45.1	18.3	0.00e+00	0	43	0	123731968	56	4878
2026-01-28 10:24:09.10	174.79	13.80	-42.6	-45.1	18.3	0.00e+00	0	43	0	125829120	56	4884
2026-01-28 10:24:10.09	174.83	13.90	-42.6	-45.1	18.2	0.00e+00	0	43	0	127926272	56	4921
2026-01-28 10:24:11.08	174.87	14.00	-42.5	-45.0	18.4	0.00e+00	0	43	0	130023424	56	4826
2026-01-28 10:24:12.08	174.90	14.10	-42.5	-45.1	18.3	0.00e+00	0	43	0	131072000	56	4876
2026-01-28 10:24:13.07	174.94	14.20	-42.7	-45.2	18.2	0.00e+00	0	43	0	133169152	56	4962
2026-01-28 10:24:14.06	174.98	14.30	-42.6	-45.1	18.3	0.00e+00	0	43	0	135266304	56	4907
2026-01-28 10:24:15.05	175.02	14.41	-42.5	-45.1	18.4	0.00e+00	0	43	0	137363456	56	4874
2026-01-28 10:24:16.05	175.06	14.51	-42.6	-45.1	18.3	0.00e+00	0	43	0	139460608	56	4924
2026-01-28 10:24:17.04	175.10	14.61	-42.5	-45.0	18.4	0.00e+00	0	43	0	140509184	56	4856
2026-01-28 10:24:18.03	175.14	14.72	-42.4	-44.9	18.4	0.00e+00	0	43	0	142606336	56	4790
2026-01-28 10:24:19.02	175.18	14.82	-42.6	-45.1	18.3	0.00e+00	0	44	0	144703488	56	4922
2026-01-28 10:24:20.02	175.22	14.92	-42.6	-45.1	18.3	0.00e+00	0	43	0	146800640	56	4920
2026-01-28 10:24:21.01	175.26	15.03	-42.4	-44.9	18.5	0.00e+00	0	43	0	147849216	56	4781
2026-01-28 10:24:22.00	175.30	15.13	-42.7	-45.2	18.2	0.00e+00	0	43	0	149946368	56	4966
2026-01-28 10:24:23.00	175.34	15.24	-42.7	-45.2	18.2	0.00e+00	0	43	0	152043520	56	4972
2026-01-28 10:24:23.99	175.38	15.34	-42.8	-45.3	18.1	0.00e+00	0	44	0	154140672	56	5007
2026-01-28 10:24:24.98	175.42	15.45	-42.8	-45.3	18.1	0.00e+00	0	44	0	156237824	56	5041
2026-01-28 10:24:25.97	175.46	15.56	-42.8	-45.3	18.1	0.00e+00	0	43	0	157286400	56	5017
2026-01-28 10:24:26.97	175.50	15.67	-42.8	-45.4	18.1	0.00e+00	0	44	0	159383552	56	5065
2026-01-28 10:24:27.96	175.55	15.77	-42.9	-45.5	18.0	0.00e+00	0	44	0	161480704	56	5125
2026-01-28 10:24:28.95	175.59	15.88	-42.9	-45.4	18.1	0.00e+00	0	43	0	163577856	56	5071
2026-01-28 10:24:29.94	175.63	15.99	-42.9	-45.5	18.0	0.00e+00	0	44	0	164626432	56	5140
2026-01-28 10:24:30.94	175.67	16.10	-42.9	-45.5	18.0	0.00e+00	0	43	0	166723584	56	5139
2026-01-28 10:24:31.93	175.72	16.21	-43.0	-45.6	17.9	0.00e+00	0	44	0	168820736	56	5163
2026-01-28 10:24:32.92	175.76	16.32	-43.1	-45.7	17.8	0.00e+00	0	43	0	170917888	56	5261
2026-01-28 10:24:33.92	175.80	16.43	-43.2	-45.8	17.7	0.00e+00	0	43	0	173015040	57	5033
2026-01-28 10:24:34.91	175.85	16.54	-43.2	-45.9	17.6	0.00e+00	0	44	0	174063616	57	5047
2026-01-28 10:24:35.90	175.89	16.65	-43.2	-45.9	17.6	0.00e+00	0	44	0	176160768	57	5061
2026-01-28 10:24:36.90	175.94	16.76	-43.2	-45.8	17.7	0.00e+00	0	44	0	178257920	57	5027
2026-01-28 10:24:37.89	175.98	16.88	-43.2	-45.9	17.7	0.00e+00	0	44	0	180355072	57	5043
2026-01-28 10:24:38.88	176.03	16.99	-43.4	-46.0	17.5	0.00e+00	0	43	0	181403648	57	5147
2026-01-28 10:24:39.88	176.07	17.10	-43.4	-46.1	17.5	0.00e+00	0	44	0	183500800	57	5178
2026-01-28 10:24:40.87	176.12	17.22	-43.4	-46.1	17.4	0.00e+00	0	44	0	185597952	57	5183
2026-01-28 10:24:41.86	176.17	17.33	-43.4	-46.1	17.5	0.00e+00	0	43	0	187695104	57	5175
2026-01-28 10:24:42.85	176.21	17.45	-43.6	-46.3	17.2	0.00e+00	0	43	0	189792256	57	5334
2026-01-28 10:24:43.85	176.26	17.56	-43.5	-46.2	17.4	0.00e+00	0	44	0	190840832	57	5223
2026-01-28 10:24:44.84	176.31	17.68	-43.5	-46.2	17.3	0.00e+00	0	44	0	192937984	57	5247
2026-01-28 10:24:45.83	176.36	17.80	-43.6	-46.3	17.3	0.00e+00	0	43	0	195035136	58	5017
2026-01-28 10:24:46.83	176.40	17.91	-43.6	-46.4	17.2	0.00e+00	0	44	0	197132288	58	5047
2026-01-28 10:24:47.82	176.45	18.03	-43.9	-46.7	16.9	0.00e+00	0	43	0	198180864	58	5258
2026-01-28 10:24:48.81	176.50	18.15	-43.8	-46.6	17.0	0.00e+00	0	44	0	200278016	58	5206
2026-01-28 10:24:49.81	176.55	18.27	-43.9	-46.7	16.9	0.00e+00	0	44	0	202375168	58	5255
2026-01-28 10:24:50.80	176.60	18.39	-44.0	-46.8	16.8	0.00e+00	0	43	0	204472320	58	5320
2026-01-28 10:24:51.79	176.65	18.51	-44.0	-46.9	16.7	0.00e+00	0	44	0	206569472	58	5359
2026-01-28 10:24:52.78	176.70	18.63	-44.1	-46.9	16.7	0.00e+00	0	44	0	207618048	58	5379
2026-01-28 10:24:53.78	176.75	18.75	-44.1	-47.0	16.6	0.00e+00	0	44	0	209715200	58	5454
2026-01-28 10:24:54.77	176.80	18.87	-44.0	-46.8	16.8	0.00e+00	0	44	0	211812352	59	5019
2026-01-28 10:24:55.76	176.85	19.00	-44.2	-47.1	16.5	0.00e+00	0	44	0	213909504	59	5199
2026-01-28 10:24:56.76	176.90	19.12	-44.0	-46.8	16.9	0.00e+00	0	43	0	214958080	59	5001
2026-01-28 10:24:57.75	176.96	19.24	-44.1	-47.0	16.6	0.00e+00	0	44	0	217055232	59	5142
2026-01-28 10:24:58.74	177.01	19.37	-43.7	-46.4	16.9	0.00e+00	0	44	0	219152384	59	4807
2026-01-28 10:24:59.73	177.06	19.49	-43.7	-46.4	17.2	0.00e+00	0	44	0	221249536	59	4766
2026-01-28 10:25:00.73	177.12	19.62	-43.7	-46.5	17.1	0.00e+00	0	44	0	222298112	59	4836
2026-01-28 10:25:01.72	177.17	19.74	-43.6	-46.3	17.3	0.00e+00	0	44	0	224395264	58	4990
2026-01-28 10:25:02.71	177.22	19.87	-43.6	-46.3	17.3	0.00e+00	0	44	0	226492416	58	4999
2026-01-28 10:25:03.71	177.28	20.00	-43.5	-46.1	17.5	0.00e+00	0	44	0	228589568	58	4923
2026-01-28 10:25:04.70	177.33	20.13	-43.6	-46.2	17.4	0.00e+00	0	44	0	230686720	58	4973
2026-01-28 10:25:05.69	177.39	20.25	-43.5	-46.2	17.4	0.00e+00	0	44	0	231735296	58	4930
2026-01-28 10:25:06.69	177.44	20.38	-43.6	-46.4	17.2	0.00e+00	0	44	0	233832448	58	5059
2026-01-28 10:25:07.68	177.50	20.51	-43.7	-46.5	17.1	0.00e+00	0	44	0	235929600	58	5114
2026-01-28 10:25:08.67	177.56	20.64	-43.7	-46.6	17.0	0.00e+00	0	44	0	238026752	58	5166
2026-01-28 10:25:09.66	177.61	20.77	-43.7	-46.6	17.0	0.00e+00	0	44	0	239075328	58	5174
2026-01-28 10:25:10.66	177.67	20.91	-43.8	-46.7	16.9	0.00e+00	0	43	0	241172480	58	5237
2026-01-28 10:25:11.65	177.73	21.04	-44.0	-47.0	16.6	0.00e+00	0	44	0	243269632	58	5406
2026-01-28 10:25:12.64	177.79	21.17	-44.1	-47.0	16.6	0.00e+00	0	44	0	245366784	58	5425
2026-01-28 10:25:13.64	177.85	21.31	-44.0	-47.0	16.7	0.00e+00	0	44	0	247463936	59	5123
2026-01-28 10:25:14.63	177.91	21.44	-44.1	-47.0	16.7	0.00e+00	0	44	0	248512512	59	5116
2026-01-28 10:25:15.62	177.97	21.58	-44.2	-47.1	16.6	0.00e+00	0	43	0	250609664	59	5185
2026-01-28 10:25:16.61	178.03	21.71	-44.1	-47.1	16.6	0.00e+00	0	44	0	252706816	59	5184
2026-01-28 10:25:17.60	178.09	21.85	-44.0	-46.9	16.7	0.00e+00	0	44	0	254803968	59	5062
2026-01-28 10:25:18.60	178.15	21.99	-44.0	-46.8	16.8	0.00e+00	0	44	0	255852544	59	5026
2026-01-28 10:25:19.59	178.21	22.12	-43.8	-46.6	17.0	0.00e+00	0	44	0	257949696	59	4917
2026-01-28 10:25:20.58	178.28	22.26	-43.8	-46.6	17.0	0.00e+00	0	44	0	260046848	59	4908
2026-01-28 10:25:21.58	178.34	22.40	-43.8	-46.6	17.1	0.00e+00	0	44	0	262144000	59	4871
2026-01-28 10:25:22.57	178.40	22.54	-43.8	-46.5	17.1	0.00e+00	0	44	0	264241152	59	4848
2026-01-28 10:25:23.56	178.47	22.68	-43.6	-46.4	17.2	0.00e+00	0	44	0	265289728	59	4766
2026-01-28 10:25:24.56	178.53	22.83	-43.7	-46.4	17.2	0.00e+00	0	44	0	267386880	59	4794
2026-01-28 10:25:25.55	178.60	22.97	-43.8	-46.6	17.0	0.00e+00	0	44	0	269484032	59	4891
2026-01-28 10:25:26.54	178.66	23.11	-43.7	-46.4	17.3	0.00e+00	0	44	0	271581184	59	4765
2026-01-28 10:25:27.54	178.73	23.26	-43.4	-46.1	17.6	0.00e+00	0	44	0	272629760	58	4872
2026-01-28 10:25:28.53	178.80	23.40	-43.5	-46.2	17.4	0.00e+00	0	43	0	274726912	58	4953
2026-01-28 10:25:29.52	178.87	23.55	-43.4	-46.0	17.6	0.00e+00	0	44	0	276824064	58	4854
2026-01-28 10:25:30.51	178.93	23.69	-43.5	-46.1	17.6	0.00e+00	0	44	0	278921216	58	4887
2026-01-28 10:25:31.51	179.00	23.84	-43.3	-45.8	17.8	0.00e+00	0	44	0	281018368	58	4740
2026-01-28 10:25:32.50	179.07	23.99	-43.0	-45.4	18.1	0.00e+00	0	44	0	282066944	58	4535
2026-01-28 10:25:33.49	179.14	24.13	-42.7	-45.0	18.5	0.00e+00	0	44	0	284164096	57	4594
2026-01-28 10:25:34.49	179.21	24.29	-42.8	-45.2	18.4	0.00e+00	0	44	0	286261248	57	4660
2026-01-28 10:25:35.48	179.29	24.44	-42.7	-45.1	18.5	0.00e+00	0	44	0	288358400	57	4640
2026-01-28 10:25:36.47	179.36	24.59	-42.7	-45.1	18.5	0.00e+00	0	44	0	289406976	56	4897
2026-01-28 10:25:37.47	179.43	24.74	-42.6	-45.0	18.6	0.00e+00	0	44	0	291504128	56	4833
2026-01-28 10:25:38.46	179.50	24.89	-42.8	-45.3	18.3	0.00e+00	0	44	0	293601280	56	4995
2026-01-28 10:25:39.45	179.58	25.04	-42.7	-45.1	18.5	0.00e+00	0	44	0	295698432	56	4879
2026-01-28 10:25:40.44	179.65	25.20	-42.8	-45.2	18.4	0.00e+00	0	44	0	297795584	56	4967
2026-01-28 10:25:41.44	179.73	25.36	-42.5	-44.9	18.7	0.00e+00	0	44	0	298844160	56	4780
2026-01-28 10:25:42.43	179.80	25.51	-42.7	-45.1	18.4	0.00e+00	0	44	0	300941312	56	4912
2026-01-28 10:25:43.42	179.88	25.67	-42.9	-45.3	18.3	0.00e+00	0	44	0	303038464	56	5006
2026-01-28 10:25:44.41	179.96	25.83	-42.6	-45.0	18.6	0.00e+00	0	44	0	305135616	56	4833
2026-01-28 10:25:45.41	180.04	25.99	-42.8	-45.2	18.4	0.00e+00	0	43	0	306184192	56	4951
2026-01-28 10:25:46.40	180.12	26.15	-42.7	-45.1	18.4	0.00e+00	0	44	0	308281344	56	4883
2026-01-28 10:25:47.39	180.20	26.31	-43.0	-45.4	18.2	0.00e+00	0	44	0	310378496	56	5076
2026-01-28 10:25:48.39	180.28	26.47	-42.9	-45.3	18.3	0.00e+00	0	43	0	312475648	56	5031
2026-01-28 10:25:49.38	180.36	26.63	-43.0	-45.5	18.1	0.00e+00	0	44	0	313524224	56	5126
2026-01-28 10:25:50.37	180.44	26.79	-43.1	-45.6	18.0	0.00e+00	0	44	0	315621376	57	4911
2026-01-28 10:25:51.37	180.53	26.96	-43.4	-45.9	17.8	0.00e+00	0	44	0	317718528	57	5079
2026-01-28 10:25:52.36	180.61	27.12	-43.3	-45.8	17.8	0.00e+00	0	44	0	319815680	57	5025
2026-01-28 10:25:53.35	180.69	27.29	-43.2	-45.8	17.9	0.00e+00	0	43	0	321912832	57	4986
2026-01-28 10:25:54.34	180.78	27.46	-43.0	-45.5	18.1	0.00e+00	0	44	0	322961408	57	4824
2026-01-28 10:25:55.34	180.87	27.63	-43.1	-45.5	18.1	0.00e+00	0	44	0	325058560	57	4862
2026-01-28 10:25:56.33	180.95	27.79	-42.9	-45.4	18.2	0.00e+00	0	44	0	327155712	57	4780
2026-01-28 10:25:57.32	181.04	27.96	-43.1	-45.6	18.0	0.00e+00	0	44	0	329252864	57	4892
2026-01-28 10:25:58.31	181.13	28.13	-42.8	-45.3	18.3	0.00e+00	0	44	0	330301440	57	4719
2026-01-28 10:25:59.31	181.22	28.31	-42.8	-45.3	18.3	0.00e+00	0	44	0	332398592	57	4716
2026-01-28 10:26:00.30	181.31	28.48	-42.9	-45.4	18.2	0.00e+00	0	44	0	334495744	57	4786
2026-01-28 10:26:01.29	181.41	28.65	-42.8	-45.3	18.3	0.00e+00	0	44	0	336592896	57	4729
2026-01-28 10:26:02.29	181.50	28.83	-42.9	-45.3	18.3	0.00e+00	0	44	0	338690048	57	4750
2026-01-28 10:26:03.28	181.59	29.01	-42.7	-45.1	18.4	0.00e+00	0	44	0	339738624	57	4643
2026-01-28 10:26:04.27	181.69	29.18	-42.8	-45.2	18.4	0.00e+00	0	44	0	341835776	57	4689
2026-01-28 10:26:05.27	181.78	29.36	-42.6	-44.9	18.6	0.00e+00	0	44	0	343932928	57	4533
2026-01-28 10:26:06.26	181.88	29.54	-42.6	-44.9	18.7	0.00e+00	0	44	0	346030080	56	4805
2026-01-28 10:26:07.25	181.98	29.72	-42.5	-44.9	18.7	0.00e+00	0	44	0	347078656	56	4761
2026-01-28 10:26:08.25	182.08	29.90	-42.2	-44.5	19.1	0.00e+00	0	44	0	349175808	56	4583
2026-01-28 10:26:09.24	182.18	30.09	-42.7	-45.1	18.5	0.00e+00	0	44	0	351272960	56	4890
2026-01-28 10:26:10.23	182.28	30.27	-42.9	-45.3	18.4	0.00e+00	0	44	0	353370112	56	5027
2026-01-28 10:26:11.22	182.38	30.45	-43.1	-45.6	18.1	0.00e+00	0	44	0	355467264	56	5182
2026-01-28 10:26:12.22	182.49	30.64	-43.6	-46.2	17.5	0.00e+00	0	44	0	356515840	58	4955
2026-01-28 10:26:13.21	182.59	30.83	-43.6	-46.2	17.5	0.00e+00	0	44	0	358612992	58	4968
2026-01-28 10:26:14.20	182.70	31.01	-44.4	-47.3	16.5	0.00e+00	0	44	0	360710144	59	5306
2026-01-28 10:26:15.20	182.81	31.20	-44.5	-47.4	16.4	0.00e+00	0	44	0	362807296	59	5357
2026-01-28 10:26:16.19	182.91	31.39	-45.0	-48.2	15.7	0.00e+00	0	44	0	363855872	60	5542
2026-01-28 10:26:17.18	183.02	31.58	-44.8	-47.9	15.9	0.00e+00	0	44	0	365953024	60	5400
2026-01-28 10:26:18.17	183.13	31.78	-44.8	-47.8	16.1	0.00e+00	0	44	0	368050176	60	5319
2026-01-28 10:26:19.17	183.25	31.97	-44.8	-47.8	15.9	0.00e+00	0	44	0	370147328	60	5334
2026-01-28 10:26:20.16	183.36	32.17	-44.8	-47.8	15.9	0.00e+00	0	44	0	372244480	60	5338
2026-01-28 10:26:21.15	183.47	32.36	-45.1	-48.3	15.6	0.00e+00	0	44	0	373293056	60	5605
2026-01-28 10:26:22.15	183.59	32.56	-45.0	-48.1	15.7	0.00e+00	0	44	0	375390208	61	5161
2026-01-28 10:26:23.14	183.71	32.76	-45.1	-48.2	15.7	0.00e+00	0	44	0	377487360	61	5239
2026-01-28 10:26:24.13	183.83	32.96	-44.9	-48.0	15.8	0.00e+00	0	44	0	379584512	61	5134
2026-01-28 10:26:25.12	183.95	33.16	-44.6	-47.6	16.2	0.00e+00	0	44	0	380633088	61	4896
2026-01-28 10:26:26.12	184.07	33.36	-44.8	-47.9	16.2	0.00e+00	0	44	0	382730240	61	5069
2026-01-28 10:26:27.11	184.19	33.56	-44.8	-47.8	16.0	0.00e+00	0	44	0	384827392	61	5040
2026-01-28 10:26:28.10	184.32	33.77	-45.2	-48.4	15.4	0.00e+00	0	44	0	386924544	61	5391
2026-01-28 10:26:29.10	184.44	33.97	-45.1	-48.4	15.5	0.00e+00	0	44	0	389021696	61	5353
2026-01-28 10:26:30.09	184.57	34.18	-45.4	-48.8	15.1	0.00e+00	0	44	0	390070272	61	5622
2026-01-28 10:26:31.08	184.70	34.39	-45.1	-48.3	15.5	0.00e+00	0	44	0	392167424	61	5313
2026-01-28 10:26:32.08	184.83	34.60	-44.5	-47.5	16.3	0.00e+00	0	44	0	394264576	61	4845
2026-01-28 10:26:33.07	184.97	34.81	-44.9	-48.0	15.8	0.00e+00	0	44	0	396361728	60	5438
2026-01-28 10:26:34.06	185.10	35.02	-44.6	-47.6	16.4	0.00e+00	0	44	0	397410304	60	5160
2026-01-28 10:26:35.06	185.24	35.23	-44.6	-47.5	16.3	0.00e+00	0	44	0	399507456	60	5154
2026-01-28 10:26:36.05	185.38	35.45	-44.5	-47.5	16.4	0.00e+00	0	44	0	401604608	60	5117
2026-01-28 10:26:37.04	185.51	35.66	-44.9	-47.9	16.0	0.00e+00	0	44	0	403701760	60	5389
2026-01-28 10:26:38.03	185.66	35.88	-45.0	-48.1	15.7	0.00e+00	0	44	0	405798912	60	5514
2026-01-28 10:26:39.03	185.80	36.10	-45.2	-48.4	15.4	0.00e+00	0	44	0	406847488	61	5392
2026-01-28 10:26:40.02	185.94	36.32	-45.0	-48.1	15.7	0.00e+00	0	44	0	408944640	61	5213
2026-01-28 10:26:41.01	186.09	36.54	-44.9	-48.1	15.8	0.00e+00	0	44	0	411041792	61	5162
2026-01-28 10:26:42.00	186.24	36.76	-44.9	-48.1	15.8	0.00e+00	0	44	0	413138944	61	5169
2026-01-28 10:26:43.00	186.39	36.98	-45.0	-48.2	15.6	0.00e+00	0	44	0	414187520	61	5278
2026-01-28 10:26:43.99	186.55	37.21	-45.4	-48.7	15.2	0.00e+00	0	44	0	416284672	61	5567
2026-01-28 10:26:44.98	186.70	37.43	-45.7	-49.1	14.8	0.00e+00	0	44	0	418381824	61	5838
2026-01-28 10:26:45.98	186.86	37.66	-45.9	-49.5	14.4	0.00e+00	0	44	0	420478976	62	5755
2026-01-28 10:26:46.97	187.02	37.89	-46.5	-50.5	13.4	3.80e-06	0	44	0	421527552	63	6119
2026-01-28 10:26:47.96	187.18	38.12	-46.1	-49.9	13.9	5.30e-06	0	44	0	423624704	63	5690
2026-01-28 10:26:48.95	187.34	38.35	-46.3	-50.2	13.8	3.80e-06	0	44	0	425721856	63	5881
2026-01-28 10:26:49.95	187.51	38.58	-46.0	-49.7	14.3	3.80e-06	0	44	0	427819008	63	5544
2026-01-28 10:26:50.94	187.68	38.81	-45.3	-48.5	15.4	0.00e+00	0	44	0	429916160	62	5125
2026-01-28 10:26:51.93	187.85	39.05	-45.3	-48.5	15.4	0.00e+00	0	44	0	430964736	62	5140
2026-01-28 10:26:52.93	188.02	39.29	-45.6	-49.0	14.9	0.00e+00	0	44	0	433061888	62	5415
2026-01-28 10:26:53.92	188.20	39.52	-45.8	-49.3	14.7	0.00e+00	0	44	0	435159040	62	5607
2026-01-28 10:26:54.91	188.38	39.76	-45.9	-49.5	14.4	0.00e+00	0	44	0	437256192	62	5742
2026-01-28 10:26:55.90	188.56	40.00	-46.4	-50.2	13.8	0.00e+00	0	44	0	438304768	63	5899
2026-01-28 10:26:56.90	188.74	40.25	-46.3	-50.2	13.6	1.90e-05	0	44	0	440401920	64	5588
2026-01-28 10:26:57.89	188.93	40.49	-46.3	-50.3	13.5	3.00e-06	0	44	0	442499072	64	5619
2026-01-28 10:26:58.88	189.12	40.73	-46.3	-50.3	13.4	4.50e-06	0	44	0	444596224	64	5635
2026-01-28 10:26:59.88	189.31	40.98	-46.1	-49.9	14.1	7.00e-07	0	44	0	446693376	63	5683
2026-01-28 10:27:00.87	189.51	41.23	-46.2	-50.0	13.9	1.50e-06	0	44	0	447741952	63	5779
2026-01-28 10:27:01.86	189.70	41.47	-46.0	-49.7	14.2	3.00e-06	0	44	0	449839104	63	5554
2026-01-28 10:27:02.85	189.90	41.72	-46.1	-49.8	14.1	3.00e-06	0	44	0	451936256	63	5611
2026-01-28 10:27:03.85	190.11	41.98	-46.3	-50.2	13.6	1.06e-05	0	44	0	454033408	63	5903
2026-01-28 10:27:04.84	190.31	42.23	-46.5	-50.7	13.2	8.30e-06	0	44	0	455081984	63	6234
2026-01-28 10:27:05.83	190.52	42.48	-46.2	-50.2	13.6	3.80e-06	0	44	0	457179136	63	5894
2026-01-28 10:27:06.82	190.74	42.73	-46.2	-50.2	13.7	2.20e-06	0	44	0	459276288	63	5898
2026-01-28 10:27:07.82	190.96	42.99	-45.4	-48.7	15.1	0.00e+00	0	44	0	461373440	62	5262
2026-01-28 10:27:08.81	191.18	43.25	-45.0	-48.1	15.8	0.00e+00	0	44	0	463470592	61	5215
2026-01-28 10:27:09.80	191.40	43.51	-44.8	-47.8	16.1	0.00e+00	0	44	0	464519168	61	5002
2026-01-28 10:27:10.80	191.63	43.77	-44.0	-46.7	17.2	0.00e+00	0	44	0	466616320	59	4956
2026-01-28 10:27:11.79	191.86	44.03	-43.8	-46.4	17.3	0.00e+00	0	44	0	468713472	59	4799
2026-01-28 10:27:12.78	192.09	44.29	-43.7	-46.2	17.6	0.00e+00	0	44	0	470810624	59	4682
2026-01-28 10:27:13.77	192.33	44.56	-43.8	-46.4	17.4	0.00e+00	0	44	0	471859200	59	4772
2026-01-28 10:27:14.77	192.58	44.82	-43.8	-46.4	17.3	0.00e+00	0	44	0	473956352	59	4800
2026-01-28 10:27:15.76	192.82	45.09	-44.1	-46.9	16.9	0.00e+00	0	44	0	476053504	59	5074
2026-01-28 10:27:16.75	193.07	45.36	-44.3	-47.2	16.6	0.00e+00	0	44	0	478150656	59	5240
2026-01-28 10:27:17.75	193.33	45.63	-44.8	-47.9	16.0	0.00e+00	0	44	0	480247808	60	5373
2026-01-28 10:27:18.74	193.59	45.90	-44.7	-47.8	16.1	0.00e+00	0	44	0	481296384	60	5288
2026-01-28 10:27:19.73	193.85	46.17	-44.4	-47.3	16.5	0.00e+00	0	44	0	483393536	60	5029
2026-01-28 10:27:20.73	194.12	46.44	-45.1	-48.3	15.6	0.00e+00	0	44	0	485490688	61	5309
2026-01-28 10:27:21.72	194.39	46.71	-45.0	-48.1	15.8	0.00e+00	0	44	0	487587840	61	5210
2026-01-28 10:27:22.71	194.67	46.99	-45.2	-48.4	15.5	0.00e+00	0	44	0	488636416	61	5374
2026-01-28 10:27:23.70	194.95	47.26	-44.7	-47.6	16.3	0.00e+00	0	44	0	490733568	61	4874
2026-01-28 10:27:24.70	195.24	47.54	-44.5	-47.3	16.5	0.00e+00	0	44	0	492830720	61	4737
2026-01-28 10:27:25.69	195.53	47.82	-44.4	-47.3	16.6	0.00e+00	0	44	0	494927872	60	5012
2026-01-28 10:27:26.68	195.83	48.10	-44.1	-46.7	17.0	0.00e+00	0	44	0	497025024	59	4980
2026-01-28 10:27:27.68	196.14	48.38	-43.5	-46.0	17.8	0.00e+00	0	44	0	498073600	58	4826
2026-01-28 10:27:28.67	196.44	48.66	-43.2	-45.7	18.1	0.00e+00	0	44	0	500170752	58	4658
2026-01-28 10:27:29.66	196.76	48.94	-43.6	-46.2	17.6	0.00e+00	0	44	0	502267904	58	4929
2026-01-28 10:27:30.66	197.08	49.22	-43.8	-46.5	17.4	0.00e+00	0	44	0	504365056	58	5108
2026-01-28 10:27:31.65	197.40	49.50	-43.5	-46.2	17.6	0.00e+00	0	44	0	505413632	58	4950
2026-01-28 10:27:32.64	197.74	49.79	-43.3	-45.9	17.8	0.00e+00	0	44	0	507510784	58	4803
2026-01-28 10:27:33.63	198.07	50.07	-43.0	-45.5	18.2	0.00e+00	0	44	0	509607936	57	4851
2026-01-28 10:27:34.63	198.42	50.36	-43.1	-45.7	18.0	0.00e+00	0	44	0	511705088	57	4966
2026-01-28 10:27:35.62	198.77	50.64	-42.6	-45.1	18.6	0.00e+00	0	44	0	512753664	57	4611
2026-01-28 10:27:36.61	199.13	50.93	-41.9	-44.2	19.3	0.00e+00	0	44	0	514850816	55	4682
2026-01-28 10:27:37.61	199.49	51.22	-41.6	-43.7	19.7	0.00e+00	0	44	0	516947968	54	4682
2026-01-28 10:27:38.60	199.86	51.51	-41.5	-43.7	19.8	0.00e+00	0	44	0	519045120	54	4653
2026-01-28 10:27:39.59	200.24	51.80	-41.9	-44.1	19.4	0.00e+00	0	44	0	521142272	54	4885
2026-01-28 10:27:40.58	200.63	52.08	-42.2	-44.4	19.0	0.00e+00	0	44	0	522190848	55	4812
2026-01-28 10:27:41.58	201.02	52.37	-42.4	-44.8	18.8	0.00e+00	0	44	0	524288000	55	4997
2026-01-28 10:27:42.57	201.42	52.66	-41.5	-43.6	19.8	0.00e+00	0	44	0	526385152	55	4360
2026-01-28 10:27:43.56	201.83	52.95	-41.0	-43.0	20.2	0.00e+00	0	44	0	528482304	54	4336
2026-01-28 10:27:44.56	202.25	53.24	-40.5	-42.5	20.7	0.00e+00	0	44	0	529530880	52	4580
2026-01-28 10:27:45.55	202.67	53.53	-40.0	-41.9	21.3	0.00e+00	0	44	0	531628032	51	4538
2026-01-28 10:27:46.54	203.11	53.82	-40.0	-41.9	21.3	0.00e+00	0	44	0	533725184	51	4509
2026-01-28 10:27:47.53	203.55	54.11	-39.8	-41.8	21.4	0.00e+00	0	44	0	535822336	51	4447
2026-01-28 10:27:48.53	204.00	54.41	-39.9	-41.8	21.4	0.00e+00	0	44	0	536870912	51	4475
2026-01-28 10:27:49.52	204.46	54.69	-40.4	-42.4	20.9	0.00e+00	0	44	0	538968064	51	4764
2026-01-28 10:27:50.51	204.93	54.98	-40.3	-42.2	21.0	0.00e+00	0	44	0	541065216	51	4689
2026-01-28 10:27:51.51	205.41	55.27	-40.4	-42.5	20.9	0.00e+00	0	44	0	543162368	51	4816
2026-01-28 10:27:52.50	205.90	55.56	-40.7	-42.8	20.5	0.00e+00	0	44	0	545259520	52	4714
2026-01-28 10:27:53.49	206.40	55.85	-41.1	-43.3	20.1	0.00e+00	0	44	0	546308096	52	5003
2026-01-28 10:27:54.48	206.91	56.14	-41.7	-43.9	19.5	0.00e+00	0	44	0	548405248	53	5090
2026-01-28 10:27:55.48	207.43	56.43	-41.7	-43.9	19.6	0.00e+00	0	44	0	550502400	54	4798
2026-01-28 10:27:56.47	207.96	56.71	-41.3	-43.5	19.9	0.00e+00	0	44	0	552599552	54	4547
2026-01-28 10:27:57.46	208.50	57.00	-41.1	-43.2	20.1	0.00e+00	0	44	0	554696704	53	4692
2026-01-28 10:27:58.46	209.06	57.28	-40.8	-42.9	20.5	0.00e+00	0	44	0	555745280	53	4507
2026-01-28 10:27:59.45	209.62	57.57	-41.2	-43.3	19.9	0.00e+00	0	44	0	557842432	53	4729
2026-01-28 10:28:00.44	210.20	57.85	-41.1	-43.2	20.1	0.00e+00	0	44	0	559939584	53	4689
2026-01-28 10:28:01.43	210.79	58.13	-41.1	-43.2	20.1	0.00e+00	0	44	0	562036736	53	4654
2026-01-28 10:28:02.43	211.39	58.41	-40.9	-42.9	20.3	0.00e+00	0	44	0	563085312	53	4544
2026-01-28 10:28:03.42	212.00	58.68	-41.7	-43.9	19.6	0.00e+00	0	44	0	565182464	54	4777
2026-01-28 10:28:04.41	212.63	58.96	-42.0	-44.3	19.2	0.00e+00	0	44	0	567279616	54	5031
2026-01-28 10:28:05.41	213.27	59.24	-42.1	-44.4	19.1	0.00e+00	0	44	0	569376768	54	5053
2026-01-28 10:28:06.40	213.93	59.51	-42.5	-44.9	18.7	0.00e+00	0	44	0	571473920	55	5061
2026-01-28 10:28:07.39	214.59	59.77	-42.9	-45.4	18.4	0.00e+00	0	44	0	572522496	56	5058
2026-01-28 10:28:08.38	215.27	60.04	-43.2	-45.7	18.1	0.00e+00	0	44	0	574619648	57	4940
2026-01-28 10:28:09.38	215.97	60.31	-42.6	-44.9	18.8	0.00e+00	0	44	0	576716800	57	4523
2026-01-28 10:28:10.37	216.68	60.57	-42.5	-44.8	19.0	0.00e+00	0	44	0	578813952	56	4743
2026-01-28 10:28:11.36	217.40	60.83	-42.7	-45.0	18.8	0.00e+00	0	44	0	579862528	56	4830
2026-01-28 10:28:12.35	218.13	61.08	-42.7	-45.0	18.8	0.00e+00	0	44	0	581959680	56	4843
2026-01-28 10:28:13.35	218.89	61.34	-42.6	-44.9	18.8	0.00e+00	0	44	0	584056832	56	4793
2026-01-28 10:28:14.34	219.66	61.58	-42.6	-44.9	18.8	0.00e+00	0	44	0	586153984	56	4807
2026-01-28 10:28:15.33	220.44	61.83	-42.7	-45.0	18.7	0.00e+00	0	44	0	588251136	56	4854
2026-01-28 10:28:16.33	221.25	62.07	-42.0	-44.2	19.4	0.00e+00	0	44	0	589299712	56	4435
2026-01-28 10:28:17.32	222.06	62.31	-41.5	-43.7	19.8	0.00e+00	0	44	0	591396864	54	4662
2026-01-28 10:28:18.31	222.89	62.54	-42.0	-44.3	19.2	0.00e+00	0	44	0	593494016	54	5011
2026-01-28 10:28:19.30	223.74	62.77	-43.4	-46.0	17.8	0.00e+00	0	44	0	595591168	57	5123
2026-01-28 10:28:20.29	224.60	63.00	-43.7	-46.4	17.4	0.00e+00	0	44	0	596639744	58	5043
2026-01-28 10:28:21.29	225.48	63.22	-42.7	-45.0	18.7	0.00e+00	0	44	0	598736896	57	4591
2026-01-28 10:28:22.28	226.38	63.43	-41.7	-43.9	19.5	0.00e+00	0	44	0	600834048	55	4535
2026-01-28 10:28:23.27	227.29	63.64	-41.7	-43.9	19.6	0.00e+00	0	44	0	602931200	54	4770
2026-01-28 10:28:24.27	228.22	63.85	-42.0	-44.3	19.3	0.00e+00	0	44	0	603979776	54	5013
2026-01-28 10:28:25.26	229.16	64.05	-41.7	-43.9	19.5	0.00e+00	0	44	0	606076928	54	4797
2026-01-28 10:28:26.25	230.12	64.24	-41.4	-43.5	20.0	0.00e+00	0	44	0	608174080	54	4568
2026-01-28 10:28:27.24	231.09	64.42	-40.6	-42.7	20.7	0.00e+00	0	44	0	610271232	53	4395
2026-01-28 10:28:28.24	232.09	64.61	-40.6	-42.6	20.7	0.00e+00	0	44	0	612368384	52	4632
2026-01-28 10:28:29.23	233.10	64.78	-41.4	-43.6	19.8	0.00e+00	0	44	0	613416960	53	4898
2026-01-28 10:28:30.22	234.12	64.95	-43.6	-46.2	17.6	0.00e+00	0	44	0	615514112	58	4975
2026-01-28 10:28:31.22	235.16	65.11	-44.4	-47.2	16.7	0.00e+00	0	44	0	617611264	59	5252
2026-01-28 10:28:32.21	236.21	65.26	-43.6	-46.3	17.5	0.00e+00	0	44	0	619708416	58	4984
2026-01-28 10:28:33.20	237.28	65.41	-42.9	-45.4	18.4	0.00e+00	0	44	0	620756992	57	4773
2026-01-28 10:28:34.19	238.35	65.55	-43.4	-45.9	17.9	0.00e+00	0	44	0	622854144	57	5095
2026-01-28 10:28:35.19	239.45	65.68	-42.9	-45.2	18.4	0.00e+00	0	44	0	624951296	57	4690
2026-01-28 10:28:36.18	240.56	65.80	-42.8	-45.1	18.6	0.00e+00	0	44	0	627048448	57	4638
2026-01-28 10:28:37.17	241.67	65.92	-43.1	-45.6	18.2	0.00e+00	0	44	0	628097024	57	4895
2026-01-28 10:28:38.17	242.81	66.03	-42.8	-45.2	18.5	0.00e+00	0	44	0	630194176	57	4695
2026-01-28 10:28:39.16	243.95	66.13	-42.2	-44.4	19.3	0.00e+00	0	44	0	632291328	56	4505
2026-01-28 10:28:40.15	245.09	66.22	-43.1	-45.6	18.3	0.00e+00	0	44	0	634388480	56	5162
2026-01-28 10:28:41.14	246.25	66.30	-44.3	-47.1	16.9	0.00e+00	0	44	0	636485632	59	5174
2026-01-28 10:28:42.14	247.43	66.37	-44.0	-46.7	17.2	0.00e+00	0	44	0	637534208	59	4950
2026-01-28 10:28:43.13	248.60	66.44	-43.6	-46.1	17.7	0.00e+00	0	44	0	639631360	58	4902
2026-01-28 10:28:44.12	249.78	66.49	-43.5	-46.1	17.8	0.00e+00	0	44	0	641728512	58	4871
2026-01-28 10:28:45.11	250.96	66.54	-43.4	-45.9	17.9	0.00e+00	0	44	0	643825664	58	4765
2026-01-28 10:28:46.11	252.16	66.57	-43.5	-46.0	17.8	0.00e+00	0	44	0	644874240	58	4825
2026-01-28 10:28:47.10	253.35	66.60	-42.7	-45.0	18.7	0.00e+00	0	44	0	646971392	57	4550
2026-01-28 10:28:48.09	254.55	66.62	-42.5	-44.7	18.9	0.00e+00	0	44	0	649068544	56	4704
2026-01-28 10:28:49.09	255.76	66.63	-43.2	-45.6	18.2	0.00e+00	0	44	0	651165696	56	5218
2026-01-28 10:28:50.08	256.95	66.63	-43.1	-45.6	18.1	0.00e+00	0	44	0	653262848	57	4901
2026-01-28 10:28:51.07	258.15	66.62	-42.7	-45.1	18.6	0.00e+00	0	44	0	654311424	57	4625
2026-01-28 10:28:52.06	259.34	66.60	-43.2	-45.8	18.1	0.00e+00	0	44	0	656408576	57	4988
2026-01-28 10:28:53.06	260.55	66.58	-44.1	-47.0	16.9	0.00e+00	0	44	0	658505728	59	5107
2026-01-28 10:28:54.05	261.74	66.54	-42.8	-45.2	18.5	0.00e+00	0	44	0	660602880	57	4687
2026-01-28 10:28:55.04	262.92	66.49	-42.2	-44.5	19.3	0.00e+00	0	44	0	662700032	56	4560
2026-01-28 10:28:56.04	264.11	66.44	-41.6	-43.8	19.7	0.00e+00	0	44	0	663748608	54	4735
2026-01-28 10:28:57.03	265.28	66.38	-42.0	-44.2	19.4	0.00e+00	0	44	0	665845760	54	4956
2026-01-28 10:28:58.02	266.45	66.30	-42.2	-44.5	19.2	0.00e+00	0	44	0	667942912	54	5103
2026-01-28 10:28:59.01	267.60	66.22	-42.4	-44.7	18.8	0.00e+00	0	44	0	670040064	55	4974
2026-01-28 10:29:00.01	268.76	66.13	-42.2	-44.6	18.9	0.00e+00	0	44	0	671088640	55	4876
2026-01-28 10:29:01.00	269.90	66.03	-41.5	-43.6	19.8	0.00e+00	0	44	0	673185792	55	4390
2026-01-28 10:29:01.99	271.02	65.93	-41.1	-43.2	20.2	0.00e+00	0	44	0	675282944	54	4399
2026-01-28 10:29:02.99	272.15	65.81	-41.5	-43.6	19.9	0.00e+00	0	44	0	677380096	54	4607
2026-01-28 10:29:03.98	273.25	65.69	-42.0	-44.1	19.3	0.00e+00	0	44	0	678428672	54	4926
2026-01-28 10:29:04.97	274.34	65.56	-41.7	-43.8	19.5	0.00e+00	0	44	0	680525824	54	4733
2026-01-28 10:29:05.96	275.42	65.42	-41.2	-43.3	20.1	0.00e+00	0	44	0	682622976	54	4471
2026-01-28 10:29:06.96	276.49	65.27	-41.6	-43.8	19.7	0.00e+00	0	44	0	684720128	54	4725
2026-01-28 10:29:07.95	277.54	65.12	-42.5	-44.9	18.8	0.00e+00	0	44	0	686817280	55	5051
2026-01-28 10:29:08.94	278.58	64.96	-42.9	-45.4	18.4	0.00e+00	0	44	0	687865856	56	5045
2026-01-28 10:29:09.94	279.61	64.79	-42.3	-44.6	19.1	0.00e+00	0	44	0	689963008	56	4629
2026-01-28 10:29:10.93	280.61	64.62	-42.3	-44.5	19.2	0.00e+00	0	44	0	692060160	56	4569
2026-01-28 10:29:11.92	281.60	64.44	-41.8	-44.0	19.5	0.00e+00	0	44	0	694157312	55	4568
2026-01-28 10:29:12.91	282.57	64.25	-41.6	-43.7	19.8	0.00e+00	0	44	0	695205888	55	4426
2026-01-28 10:29:13.91	283.54	64.06	-41.5	-43.6	19.8	0.00e+00	0	44	0	697303040	54	4636
2026-01-28 10:29:14.90	284.48	63.86	-42.1	-44.4	19.2	0.00e+00	0	44	0	699400192	54	5047
2026-01-28 10:29:15.89	285.41	63.66	-42.4	-44.7	18.8	0.00e+00	0	44	0	701497344	55	4981
2026-01-28 10:29:16.89	286.33	63.45	-42.9	-45.3	18.5	0.00e+00	0	44	0	703594496	56	5034
2026-01-28 10:29:17.88	287.22	63.23	-42.5	-44.9	18.8	0.00e+00	0	44	0	704643072	56	4768
2026-01-28 10:29:18.87	288.10	63.02	-41.2	-43.3	20.1	0.00e+00	0	44	0	706740224	54	4467
2026-01-28 10:29:19.87	288.97	62.79	-40.9	-43.0	20.4	0.00e+00	0	44	0	708837376	53	4580
2026-01-28 10:29:20.86	289.81	62.56	-40.9	-43.0	20.4	0.00e+00	0	44	0	710934528	53	4549
2026-01-28 10:29:21.85	290.64	62.33	-40.4	-42.4	20.9	0.00e+00	0	44	0	711983104	52	4503
2026-01-28 10:29:22.84	291.45	62.09	-40.3	-42.3	21.0	0.00e+00	0	44	0	714080256	52	4449
2026-01-28 10:29:23.84	292.26	61.85	-39.8	-41.7	21.5	0.00e+00	0	44	0	716177408	51	4422
2026-01-28 10:29:24.83	293.04	61.61	-38.9	-40.7	22.3	0.00e+00	0	44	0	718274560	49	4418
2026-01-28 10:29:25.82	293.81	61.36	-39.4	-41.2	22.0	0.00e+00	0	44	0	719323136	49	4673
2026-01-28 10:29:26.82	294.56	61.11	-40.8	-42.9	20.5	0.00e+00	0	44	0	721420288	52	4761
2026-01-28 10:29:27.81	295.30	60.85	-41.1	-43.1	20.2	0.00e+00	0	44	0	723517440	53	4649
2026-01-28 10:29:28.80	296.02	60.60	-39.8	-41.7	21.5	0.00e+00	0	44	0	725614592	51	4418
2026-01-28 10:29:29.80	296.74	60.33	-39.2	-41.0	22.0	0.00e+00	0	44	0	727711744	50	4327
2026-01-28 10:29:30.79	297.43	60.07	-39.2	-41.0	22.1	0.00e+00	0	44	0	728760320	50	4326
2026-01-28 10:29:31.78	298.11	59.80	-39.5	-41.3	21.9	0.00e+00	0	44	0	730857472	50	4473
2026-01-28 10:29:32.77	298.77	59.54	-39.7	-41.6	21.6	0.00e+00	0	44	0	732954624	50	4603
2026-01-28 10:29:33.77	299.43	59.26	-40.0	-42.0	21.3	0.00e+00	0	44	0	735051776	50	4820
2026-01-28 10:29:34.76	300.07	58.99	-40.0	-41.9	21.3	0.00e+00	0	44	0	736100352	50	4814
2026-01-28 10:29:35.75	300.69	58.72	-39.9	-41.9	21.3	0.00e+00	0	44	0	738197504	50	4778
2026-01-28 10:29:36.75	301.31	58.44	-39.4	-41.3	21.9	0.00e+00	0	44	0	740294656	50	4479
2026-01-28 10:29:37.74	301.91	58.16	-40.4	-42.4	20.9	0.00e+00	0	44	0	742391808	51	4813
2026-01-28 10:29:38.73	302.50	57.88	-41.1	-43.3	20.1	0.00e+00	0	44	0	744488960	52	4996
2026-01-28 10:29:39.73	303.08	57.60	-40.2	-42.2	21.0	0.00e+00	0	44	0	745537536	52	4435
2026-01-28 10:29:40.72	303.64	57.32	-39.7	-41.7	21.5	0.00e+00	0	44	0	747634688	51	4413
2026-01-28 10:29:41.71	304.19	57.04	-40.4	-42.5	20.7	0.00e+00	0	44	0	749731840	51	4869
2026-01-28 10:29:42.71	304.74	56.75	-41.1	-43.4	19.8	0.00e+00	0	44	0	751828992	52	5078
2026-01-28 10:29:43.70	305.27	56.47	-40.6	-42.9	20.2	0.00e+00	0	44	0	752877568	52	4760
2026-01-28 10:29:44.69	305.79	56.18	-40.3	-42.5	20.5	0.00e+00	0	44	0	754974720	52	4566
2026-01-28 10:29:45.68	306.30	55.90	-40.4	-42.6	20.3	0.00e+00	0	44	0	757071872	52	4648
2026-01-28 10:29:46.68	306.80	55.61	-40.2	-42.2	20.9	0.00e+00	0	44	0	759169024	52	4418
2026-01-28 10:29:47.67	307.29	55.32	-39.9	-41.9	21.4	0.00e+00	0	44	0	761266176	51	4503
2026-01-28 10:29:48.66	307.76	55.03	-39.8	-41.7	21.4	0.00e+00	0	44	0	762314752	51	4439
2026-01-28 10:29:49.66	308.24	54.74	-40.4	-42.4	20.9	0.00e+00	0	44	0	764411904	51	4812
2026-01-28 10:29:50.65	308.70	54.45	-41.1	-43.3	20.0	0.00e+00	0	44	0	766509056	53	4745
2026-01-28 10:29:51.64	309.15	54.17	-41.4	-43.6	19.7	0.00e+00	0	44	0	768606208	54	4643
2026-01-28 10:29:52.63	309.59	53.88	-41.0	-43.1	20.2	0.00e+00	0	44	0	769654784	54	4384
2026-01-28 10:29:53.63	310.03	53.59	-41.4	-43.5	19.9	0.00e+00	0	44	0	771751936	54	4579
2026-01-28 10:29:54.62	310.45	53.30	-41.4	-43.5	19.9	0.00e+00	0	44	0	773849088	54	4560
2026-01-28 10:29:55.61	310.87	53.01	-42.3	-44.7	18.8	0.00e+00	0	44	0	775946240	55	4968
2026-01-28 10:29:56.60	311.27	52.72	-42.3	-44.7	18.8	0.00e+00	0	44	0	778043392	55	4969
2026-01-28 10:29:57.60	311.68	52.43	-42.8	-45.3	18.5	0.00e+00	0	44	0	779091968	56	4993
2026-01-28 10:29:58.59	312.07	52.14	-42.4	-44.7	19.1	0.00e+00	0	44	0	781189120	56	4673
2026-01-28 10:29:59.58	312.45	51.86	-42.1	-44.4	19.3	0.00e+00	0	44	0	783286272	56	4495
2026-01-28 10:30:00.58	312.84	51.57	-41.7	-43.9	19.6	0.00e+00	0	44	0	785383424	55	4515
2026-01-28 10:30:01.57	313.21	51.28	-41.7	-43.9	19.7	0.00e+00	0	44	0	786432000	55	4505
2026-01-28 10:30:02.56	313.57	51.00	-41.6	-43.8	19.7	0.00e+00	0	44	0	788529152	55	4459
2026-01-28 10:30:03.55	313.93	50.71	-42.1	-44.4	19.2	0.00e+00	0	44	0	790626304	54	5067
2026-01-28 10:30:04.55	314.28	50.42	-42.6	-45.0	18.6	0.00e+00	0	44	0	792723456	55	5120
2026-01-28 10:30:05.54	314.62	50.14	-42.3	-44.6	18.9	0.00e+00	0	44	0	794820608	55	4899
2026-01-28 10:30:06.53	314.96	49.86	-41.8	-44.0	19.5	0.00e+00	0	44	0	795869184	55	4582
2026-01-28 10:30:07.53	315.29	49.57	-41.8	-44.0	19.5	0.00e+00	0	44	0	797966336	55	4574
2026-01-28 10:30:08.52	315.62	49.29	-42.3	-44.6	19.0	0.00e+00	0	44	0	800063488	55	4883
2026-01-28 10:30:09.51	315.94	49.01	-42.9	-45.3	18.5	0.00e+00	0	44	0	802160640	56	4984
2026-01-28 10:30:10.51	316.26	48.73	-43.1	-45.6	18.1	0.00e+00	0	44	0	803209216	57	4926
2026-01-28 10:30:11.50	316.56	48.45	-42.7	-45.1	18.6	0.00e+00	0	44	0	805306368	57	4641
2026-01-28 10:30:12.49	316.87	48.17	-42.3	-44.6	19.1	0.00e+00	0	44	0	807403520	56	4650
2026-01-28 10:30:13.48	317.16	47.90	-41.4	-43.6	19.8	0.00e+00	0	44	0	809500672	54	4619
2026-01-28 10:30:14.48	317.46	47.62	-42.0	-44.2	19.3	0.00e+00	0	44	0	810549248	54	4958
2026-01-28 10:30:15.47	317.74	47.34	-43.3	-45.8	18.0	0.00e+00	0	44	0	812646400	57	5029
2026-01-28 10:30:16.46	318.03	47.07	-44.6	-47.6	16.3	0.00e+00	0	44	0	814743552	59	5493
2026-01-28 10:30:17.46	318.31	46.79	-45.2	-48.6	15.4	0.00e+00	0	44	0	816840704	61	5477
2026-01-28 10:30:18.45	318.58	46.52	-44.8	-47.8	16.1	0.00e+00	0	44	0	818937856	61	5032
2026-01-28 10:30:19.44	318.85	46.25	-44.2	-47.0	16.9	0.00e+00	0	44	0	819986432	60	4868
2026-01-28 10:30:20.44	319.11	45.98	-43.8	-46.3	17.4	0.00e+00	0	44	0	822083584	59	4757
2026-01-28 10:30:21.43	319.37	45.71	-43.9	-46.6	17.3	0.00e+00	0	44	0	824180736	59	4883
2026-01-28 10:30:22.42	319.63	45.45	-43.8	-46.5	17.4	0.00e+00	0	44	0	826277888	59	4821
2026-01-28 10:30:23.41	319.88	45.18	-44.1	-46.8	17.0	0.00e+00	0	44	0	827326464	59	5034
2026-01-28 10:30:24.41	320.12	44.91	-43.7	-46.4	17.5	0.00e+00	0	44	0	829423616	59	4793
2026-01-28 10:30:25.40	320.37	44.65	-43.5	-46.1	17.6	0.00e+00	0	44	0	831520768	58	4922
2026-01-28 10:30:26.39	320.61	44.39	-43.4	-45.9	17.8	0.00e+00	0	44	0	833617920	58	4814
2026-01-28 10:30:27.39	320.84	44.12	-43.5	-46.0	17.8	0.00e+00	0	44	0	835715072	58	4869
2026-01-28 10:30:28.38	321.07	43.86	-43.2	-45.6	18.1	0.00e+00	0	44	0	836763648	58	4634
2026-01-28 10:30:29.37	321.30	43.61	-43.3	-45.8	18.0	0.00e+00	0	44	0	838860800	58	4733
2026-01-28 10:30:30.36	321.52	43.35	-43.7	-46.3	17.5	0.00e+00	0	44	0	840957952	58	4998
2026-01-28 10:30:31.36	321.75	43.09	-44.4	-47.2	16.6	0.00e+00	0	44	0	843055104	59	5275
2026-01-28 10:30:32.35	321.96	42.84	-45.4	-48.7	15.3	7.00e-07	0	44	0	844103680	61	5546
2026-01-28 10:30:33.34	322.18	42.58	-45.0	-48.2	15.7	0.00e+00	0	44	0	846200832	61	5260
2026-01-28 10:30:34.33	322.39	42.33	-43.4	-46.0	17.8	0.00e+00	0	44	0	848297984	58	4816
2026-01-28 10:30:35.33	322.59	42.08	-41.7	-43.8	19.6	0.00e+00	0	44	0	850395136	55	4488
2026-01-28 10:30:36.32	322.80	41.83	-40.7	-42.7	20.6	0.00e+00	0	44	0	852492288	53	4422
2026-01-28 10:30:37.31	323.00	41.58	-40.3	-42.2	21.0	0.00e+00	0	44	0	853540864	52	4438
2026-01-28 10:30:38.31	323.20	41.33	-40.7	-42.7	20.6	0.00e+00	0	44	0	855638016	52	4689
2026-01-28 10:30:39.30	323.39	41.09	-41.8	-43.9	19.5	0.00e+00	0	44	0	857735168	54	4810
2026-01-28 10:30:40.29	323.58	40.84	-43.7	-46.4	17.4	0.00e+00	0	44	0	859832320	58	5090
2026-01-28 10:30:41.29	323.78	40.60	-44.2	-47.1	16.7	0.00e+00	0	44	0	860880896	59	5188
2026-01-28 10:30:42.28	323.96	40.36	-44.9	-48.1	15.8	0.00e+00	0	44	0	862978048	60	5527
2026-01-28 10:30:43.27	324.15	40.12	-44.3	-47.3	16.6	0.00e+00	0	44	0	865075200	60	4997
2026-01-28 10:30:44.26	324.33	39.88	-43.8	-46.6	17.1	0.00e+00	0	44	0	867172352	59	4885
2026-01-28 10:30:45.26	324.51	39.64	-43.3	-45.9	17.8	0.00e+00	0	44	0	869269504	58	4807
2026-01-28 10:30:46.25	324.68	39.40	-42.3	-44.7	19.0	0.00e+00	0	44	0	870318080	56	4685
2026-01-28 10:30:47.24	324.86	39.17	-41.2	-43.5	19.9	0.00e+00	0	44	0	872415232	54	4579
2026-01-28 10:30:48.24	325.03	38.93	-40.6	-42.8	20.5	0.00e+00	0	44	0	874512384	53	4463
2026-01-28 10:30:49.23	325.20	38.70	-41.1	-43.4	20.0	0.00e+00	0	44	0	876609536	53	4777
2026-01-28 10:30:50.22	325.36	38.47	-42.1	-44.6	18.9	0.00e+00	0	44	0	877658112	54	5209
2026-01-28 10:30:51.22	325.53	38.24	-43.3	-46.1	17.7	0.00e+00	0	44	0	879755264	57	5212
2026-01-28 10:30:52.21	325.69	38.01	-44.2	-47.4	16.4	0.00e+00	0	44	0	881852416	59	5388
2026-01-28 10:30:53.20	325.85	37.78	-44.3	-47.4	16.4	0.00e+00	0	44	0	883949568	59	5402
2026-01-28 10:30:54.19	326.01	37.56	-43.8	-46.6	17.1	0.00e+00	0	44	0	886046720	59	4926
2026-01-28 10:30:55.19	326.16	37.33	-42.7	-45.2	18.5	0.00e+00	0	44	0	887095296	57	4669
2026-01-28 10:30:56.18	326.32	37.11	-42.3	-44.6	19.0	0.00e+00	0	44	0	889192448	56	4647
2026-01-28 10:30:57.17	326.47	36.88	-41.4	-43.6	19.9	0.00e+00	0	44	0	891289600	54	4599
2026-01-28 10:30:58.17	326.62	36.66	-41.5	-43.7	19.8	0.00e+00	0	44	0	893386752	54	4683
2026-01-28 10:30:59.16	326.76	36.44	-42.2	-44.5	19.0	0.00e+00	0	44	0	894435328	55	4858
2026-01-28 10:31:00.15	326.91	36.23	-42.9	-45.4	18.3	0.00e+00	0	44	0	896532480	56	5055
2026-01-28 10:31:01.14	327.05	36.01	-43.7	-46.5	17.3	0.00e+00	0	44	0	898629632	58	5122
2026-01-28 10:31:02.14	327.20	35.79	-44.4	-47.5	16.4	0.00e+00	0	44	0	900726784	59	5440
2026-01-28 10:31:03.13	327.34	35.58	-44.3	-47.3	16.5	0.00e+00	0	44	0	901775360	59	5335
2026-01-28 10:31:04.12	327.47	35.36	-44.1	-47.1	16.7	0.00e+00	0	44	0	903872512	59	5207
2026-01-28 10:31:05.12	327.61	35.15	-43.6	-46.4	17.3	0.00e+00	0	44	0	905969664	59	4806
2026-01-28 10:31:06.11	327.75	34.94	-43.3	-45.9	17.8	0.00e+00	0	44	0	908066816	58	4807
2026-01-28 10:31:07.10	327.88	34.73	-42.7	-45.2	18.5	0.00e+00	0	44	0	910163968	57	4660
2026-01-28 10:31:08.10	328.01	34.52	-42.5	-44.9	18.7	0.00e+00	0	44	0	911212544	56	4807
2026-01-28 10:31:09.09	328.14	34.32	-42.1	-44.5	19.2	0.00e+00	0	44	0	913309696	56	4547
2026-01-28 10:31:10.08	328.27	34.11	-42.4	-44.7	18.9	0.00e+00	0	44	0	915406848	56	4694
2026-01-28 10:31:11.07	328.40	33.91	-42.8	-45.3	18.4	0.00e+00	0	44	0	917504000	56	4994
2026-01-28 10:31:12.07	328.52	33.70	-43.0	-45.5	18.2	0.00e+00	0	44	0	918552576	56	5128
2026-01-28 10:31:13.06	328.64	33.50	-43.3	-45.8	18.0	0.00e+00	0	44	0	920649728	57	5026
2026-01-28 10:31:14.05	328.77	33.30	-43.4	-46.0	17.8	0.00e+00	0	44	0	922746880	57	5141
2026-01-28 10:31:15.04	328.89	33.10	-43.7	-46.4	17.4	0.00e+00	0	44	0	924844032	58	5045
2026-01-28 10:31:16.04	329.01	32.90	-43.3	-45.9	17.8	0.00e+00	0	44	0	926941184	58	4811
2026-01-28 10:31:17.03	329.13	32.70	-43.4	-46.0	17.7	0.00e+00	0	44	0	927989760	58	4869
2026-01-28 10:31:18.02	329.24	32.51	-43.4	-46.0	17.7	0.00e+00	0	44	0	930086912	58	4830
2026-01-28 10:31:19.01	329.36	32.31	-42.8	-45.3	18.4	0.00e+00	0	44	0	932184064	57	4735
2026-01-28 10:31:20.01	329.47	32.12	-43.1	-45.7	18.1	0.00e+00	0	44	0	934281216	57	4944
2026-01-28 10:31:21.00	329.58	31.93	-43.2	-45.7	18.0	0.00e+00	0	44	0	935329792	57	4970
2026-01-28 10:31:21.99	329.69	31.73	-43.9	-46.7	17.1	0.00e+00	0	44	0	937426944	58	5221
2026-01-28 10:31:22.99	329.81	31.54	-44.1	-46.9	16.9	0.00e+00	0	44	0	939524096	58	5393
2026-01-28 10:31:23.98	329.91	31.35	-44.1	-47.0	16.8	0.00e+00	0	44	0	941621248	58	5463
2026-01-28 10:31:24.97	330.02	31.17	-44.0	-47.0	16.8	0.00e+00	0	44	0	943718400	59	5122
2026-01-28 10:31:25.97	330.13	30.98	-44.1	-47.2	16.6	0.00e+00	0	44	0	944766976	59	5239
2026-01-28 10:31:26.96	330.23	30.79	-44.1	-47.4	16.5	0.00e+00	0	44	0	946864128	59	5343
2026-01-28 10:31:27.95	330.34	30.61	-43.8	-46.8	16.9	0.00e+00	0	44	0	948961280	59	5023
2026-01-28 10:31:28.94	330.44	30.42	-43.8	-46.9	16.9	0.00e+00	0	44	0	951058432	59	5056
2026-01-28 10:31:29.94	330.54	30.24	-43.8	-46.8	16.9	0.00e+00	0	44	0	952107008	59	5012
2026-01-28 10:31:30.93	330.64	30.06	-43.6	-46.4	17.3	0.00e+00	0	44	0	954204160	59	4808
2026-01-28 10:31:31.92	330.74	29.88	-43.8	-46.7	17.1	0.00e+00	0	44	0	956301312	58	5236
2026-01-28 10:31:32.91	330.84	29.70	-43.8	-46.6	17.1	0.00e+00	0	44	0	958398464	58	5215
2026-01-28 10:31:33.91	330.94	29.52	-43.7	-46.4	17.3	0.00e+00	0	44	0	960495616	58	5079
2026-01-28 10:31:34.90	331.04	29.34	-43.9	-46.7	17.0	0.00e+00	0	44	0	961544192	58	5259
2026-01-28 10:31:35.89	331.13	29.17	-44.1	-47.0	16.8	0.00e+00	0	44	0	963641344	58	5426
2026-01-28 10:31:36.89	331.23	28.99	-44.1	-47.0	16.7	0.00e+00	0	44	0	965738496	59	5113
2026-01-28 10:31:37.88	331.32	28.82	-44.0	-46.9	16.9	0.00e+00	0	44	0	967835648	59	5065
2026-01-28 10:31:38.87	331.41	28.64	-44.1	-47.1	16.7	0.00e+00	0	44	0	968884224	59	5181
2026-01-28 10:31:39.86	331.50	28.47	-44.0	-46.9	16.9	0.00e+00	0	44	0	970981376	59	5063
2026-01-28 10:31:40.86	331.60	28.30	-44.0	-47.0	16.9	0.00e+00	0	44	0	973078528	59	5120
2026-01-28 10:31:41.85	331.68	28.13	-43.8	-46.8	17.0	0.00e+00	0	44	0	975175680	59	5018
2026-01-28 10:31:42.84	331.77	27.96	-43.3	-46.1	17.6	0.00e+00	0	44	0	977272832	58	4919
2026-01-28 10:31:43.84	331.86	27.79	-43.3	-46.2	17.6	0.00e+00	0	44	0	978321408	58	4933
2026-01-28 10:31:44.83	331.95	27.62	-42.8	-45.5	18.1	0.00e+00	0	44	0	980418560	57	4867
2026-01-28 10:31:45.82	332.04	27.46	-42.5	-45.2	18.4	0.00e+00	0	44	0	982515712	57	4652
2026-01-28 10:31:46.82	332.12	27.29	-42.5	-45.1	18.5	0.00e+00	0	44	0	984612864	57	4641
2026-01-28 10:31:47.81	332.21	27.13	-42.5	-45.0	18.6	0.00e+00	0	44	0	985661440	56	4850
2026-01-28 10:31:48.80	332.29	26.96	-42.3	-44.8	18.8	0.00e+00	0	44	0	987758592	56	4711
2026-01-28 10:31:49.79	332.37	26.80	-42.4	-44.9	18.8	0.00e+00	0	44	0	989855744	56	4767
2026-01-28 10:31:50.79	332.45	26.64	-42.2	-44.5	19.0	0.00e+00	0	44	0	991952896	56	4582
2026-01-28 10:31:51.78	332.54	26.48	-42.3	-44.7	18.9	0.00e+00	0	44	0	993001472	56	4677
2026-01-28 10:31:52.77	332.62	26.32	-42.4	-44.8	18.8	0.00e+00	0	44	0	995098624	56	4739
2026-01-28 10:31:53.77	332.70	26.16	-42.8	-45.3	18.4	0.00e+00	0	44	0	997195776	56	4984
2026-01-28 10:31:54.76	332.78	26.00	-43.3	-45.8	17.9	0.00e+00	0	44	0	999292928	57	5020
2026-01-28 10:31:55.75	332.85	25.84	-43.1	-45.6	18.1	0.00e+00	0	44	0	1001390080	57	4887
2026-01-28 10:31:56.74	332.93	25.69	-43.1	-45.7	18.0	0.00e+00	0	44	0	1002438656	57	4955
2026-01-28 10:31:57.74	333.01	25.53	-43.1	-45.7	18.0	0.00e+00	0	44	0	1004535808	57	4942
2026-01-28 10:31:58.73	333.08	25.37	-43.2	-45.8	17.9	0.00e+00	0	44	0	1006632960	57	4992
2026-01-28 10:31:59.72	333.16	25.22	-42.9	-45.4	18.2	0.00e+00	0	44	0	1008730112	57	4802
2026-01-28 10:32:00.72	333.23	25.07	-43.0	-45.6	18.1	0.00e+00	0	44	0	1009778688	57	4893
2026-01-28 10:32:01.71	333.31	24.91	-42.9	-45.5	18.1	0.00e+00	0	44	0	1011875840	57	4847
2026-01-28 10:32:02.70	333.38	24.76	-42.9	-45.4	18.2	0.00e+00	0	44	0	1013972992	57	4812
2026-01-28 10:32:03.70	333.45	24.61	-43.1	-45.7	17.9	0.00e+00	0	44	0	1016070144	57	4971
2026-01-28 10:32:04.69	333.53	24.46	-43.0	-45.6	18.0	0.00e+00	0	44	0	1018167296	57	4916
2026-01-28 10:32:05.68	333.60	24.31	-43.0	-45.7	18.0	0.00e+00	0	44	0	1019215872	57	4949
2026-01-28 10:32:06.68	333.67	24.16	-42.9	-45.7	18.0	0.00e+00	0	44	0	1021313024	57	4937
2026-01-28 10:32:07.67	333.74	24.02	-42.7	-45.4	18.3	0.00e+00	0	44	0	1023410176	57	4774
2026-01-28 10:32:08.66	333.81	23.87	-42.6	-45.3	18.3	0.00e+00	0	44	0	1025507328	57	4745
2026-01-28 10:32:09.65	333.88	23.73	-42.5	-45.2	18.4	0.00e+00	0	44	0	1026555904	57	4685
2026-01-28 10:32:10.65	333.95	23.58	-42.2	-44.8	18.8	0.00e+00	0	44	0	1028653056	56	4718
2026-01-28 10:32:11.64	334.01	23.44	-41.7	-44.2	19.1	0.00e+00	0	44	0	1030750208	55	4697
2026-01-28 10:32:12.63	334.08	23.29	-41.5	-43.9	19.4	0.00e+00	0	44	0	1032847360	55	4529
2026-01-28 10:32:13.62	334.15	23.15	-41.3	-43.6	19.7	0.00e+00	0	44	0	1034944512	54	4611
2026-01-28 10:32:14.62	334.21	23.01	-40.8	-43.0	20.3	0.00e+00	0	44	0	1035993088	53	4569
2026-01-28 10:32:15.61	334.28	22.87	-40.4	-42.5	20.7	0.00e+00	0	44	0	1038090240	52	4561
2026-01-28 10:32:16.60	334.34	22.73	-40.2	-42.2	20.9	0.00e+00	0	44	0	1040187392	52	4410
2026-01-28 10:32:17.60	334.41	22.59	-40.0	-42.0	21.1	0.00e+00	0	44	0	1042284544	52	4324
2026-01-28 10:32:18.59	334.47	22.45	-40.0	-42.0	21.1	0.00e+00	0	44	0	1043333120	52	4312
2026-01-28 10:32:19.58	334.54	22.31	-40.1	-42.1	21.0	0.00e+00	0	44	0	1045430272	51	4636
2026-01-28 10:32:20.57	334.60	22.17	-40.2	-42.2	21.0	0.00e+00	0	44	0	1047527424	51	4684
2026-01-28 10:32:21.57	334.66	22.04	-40.5	-42.5	20.7	0.00e+00	0	44	0	1049624576	51	4828
2026-01-28 10:32:22.56	334.72	21.90	-40.6	-42.7	20.5	0.00e+00	0	44	0	1051721728	51	4927
2026-01-28 10:32:23.55	334.78	21.76	-40.7	-42.7	20.4	0.00e+00	0	44	0	1052770304	52	4688
2026-01-28 10:32:24.55	334.85	21.63	-40.9	-43.0	20.2	0.00e+00	0	44	0	1054867456	52	4838
2026-01-28 10:32:25.54	334.91	21.49	-40.9	-43.1	20.2	0.00e+00	0	44	0	1056964608	52	4876
2026-01-28 10:32:26.53	334.96	21.36	-41.2	-43.4	19.9	0.00e+00	0	44	0	1059061760	53	4787
2026-01-28 10:32:27.52	335.02	21.23	-41.2	-43.4	19.9	0.00e+00	0	44	0	1060110336	53	4783
2026-01-28 10:32:28.52	335.08	21.10	-41.3	-43.5	19.7	0.00e+00	0	44	0	1062207488	53	4850
2026-01-28 10:32:29.51	335.14	20.97	-41.2	-43.5	19.8	0.00e+00	0	44	0	1064304640	53	4824
2026-01-28 10:32:30.50	335.20	20.84	-41.1	-43.4	19.9	0.00e+00	0	44	0	1066401792	53	4761
2026-01-28 10:32:31.50	335.26	20.70	-40.9	-43.1	20.1	0.00e+00	0	44	0	1068498944	53	4608
2026-01-28 10:32:32.49	335.31	20.58	-40.8	-43.0	20.2	0.00e+00	0	44	0	1069547520	53	4590
2026-01-28 10:32:33.48	335.37	20.45	-40.8	-43.0	20.1	0.00e+00	0	44	0	1071644672	53	4591
2026-01-28 10:32:34.47	335.43	20.32	-40.9	-43.1	20.1	0.00e+00	0	44	0	1073741824	53	4649
2026-01-28 10:32:35.47	335.48	20.19	-40.6	-42.8	20.4	0.00e+00	0	44	0	1075838976	53	4463
2026-01-28 10:32:36.46	335.54	20.06	-40.7	-42.9	20.3	0.00e+00	0	44	0	1076887552	53	4501
2026-01-28 10:32:37.45	335.59	19.94	-40.8	-43.0	20.2	0.00e+00	0	44	0	1078984704	53	4553
2026-01-28 10:32:38.45	335.65	19.81	-40.9	-43.1	20.1	0.00e+00	0	44	0	1081081856	53	4645
2026-01-28 10:32:39.44	335.70	19.69	-40.7	-42.9	20.3	0.00e+00	0	44	0	1083179008	53	4521
2026-01-28 10:32:40.43	335.75	19.56	-40.7	-42.9	20.3	0.00e+00	0	44	0	1084227584	53	4521
2026-01-28 10:32:41.42	335.81	19.44	-41.0	-43.2	20.0	0.00e+00	0	44	0	1086324736	53	4685
2026-01-28 10:32:42.42	335.86	19.32	-40.9	-43.2	20.0	0.00e+00	0	44	0	1088421888	53	4655
2026-01-28 10:32:43.41	335.91	19.19	-41.0	-43.3	20.0	0.00e+00	0	44	0	1090519040	53	4712
2026-01-28 10:32:44.40	335.97	19.07	-41.1	-43.4	19.8	0.00e+00	0	44	0	1092616192	53	4801
2026-01-28 10:32:45.40	336.02	18.95	-41.2	-43.5	19.7	0.00e+00	0	44	0	1093664768	53	4815
2026-01-28 10:32:46.39	336.07	18.83	-41.2	-43.5	19.6	0.00e+00	0	44	0	1095761920	53	4848
2026-01-28 10:32:47.38	336.12	18.71	-41.4	-43.7	19.5	0.00e+00	0	44	0	1097859072	53	4982
2026-01-28 10:32:48.38	336.17	18.59	-41.5	-43.8	19.4	0.00e+00	0	44	0	1099956224	53	5027
2026-01-28 10:32:49.37	336.22	18.47	-41.7	-44.1	19.2	0.00e+00	0	44	0	1101004800	54	4905
2026-01-28 10:32:50.36	336.27	18.35	-41.8	-44.1	19.2	0.00e+00	0	44	0	1103101952	54	4921
2026-01-28 10:32:51.35	336.32	18.23	-41.9	-44.3	19.0	0.00e+00	0	44	0	1105199104	54	5021
2026-01-28 10:32:52.35	336.37	18.12	-42.1	-44.5	18.8	0.00e+00	0	44	0	1107296256	54	5145
2026-01-28 10:32:53.34	336.42	18.00	-42.2	-44.7	18.7	0.00e+00	0	44	0	1109393408	55	4934
2026-01-28 10:32:54.33	336.47	17.88	-42.2	-44.6	18.7	0.00e+00	0	44	0	1110441984	55	4912
2026-01-28 10:32:55.33	336.51	17.77	-42.4	-44.9	18.4	0.00e+00	0	44	0	1112539136	55	5082
2026-01-28 10:32:56.32	336.56	17.65	-42.4	-44.9	18.5	0.00e+00	0	44	0	1114636288	55	5051
2026-01-28 10:32:57.31	336.61	17.54	-42.5	-45.0	18.4	0.00e+00	0	44	0	1116733440	55	5120
2026-01-28 10:32:58.30	336.66	17.42	-42.5	-45.0	18.3	0.00e+00	0	44	0	1117782016	55	5130
2026-01-28 10:32:59.30	336.70	17.31	-42.5	-45.0	18.4	0.00e+00	0	44	0	1119879168	55	5127
2026-01-28 10:33:00.29	336.75	17.19	-42.5	-45.0	18.4	0.00e+00	0	44	0	1121976320	55	5118
2026-01-28 10:33:01.28	336.80	17.08	-42.4	-44.9	18.4	0.00e+00	0	44	0	1124073472	55	5070
2026-01-28 10:33:02.28	336.84	16.97	-42.5	-45.0	18.3	0.00e+00	0	44	0	1126170624	55	5146
2026-01-28 10:33:03.27	336.89	16.86	-42.4	-44.9	18.5	0.00e+00	0	44	0	1127219200	55	5050
2026-01-28 10:33:04.26	336.93	16.75	-42.1	-44.5	18.8	0.00e+00	0	44	0	1129316352	55	4855
2026-01-28 10:33:05.25	336.98	16.64	-42.1	-44.5	18.8	0.00e+00	0	44	0	1131413504	55	4858
2026-01-28 10:33:06.25	337.02	16.53	-42.1	-44.5	18.8	0.00e+00	0	44	0	1133510656	55	4847
2026-01-28 10:33:07.24	337.07	16.42	-41.8	-44.1	19.1	0.00e+00	0	44	0	1134559232	55	4644
2026-01-28 10:33:08.23	337.11	16.31	-41.8	-44.1	19.1	0.00e+00	0	44	0	1136656384	55	4632
2026-01-28 10:33:09.22	337.15	16.20	-41.7	-43.9	19.2	0.00e+00	0	44	0	1138753536	55	4539
2026-01-28 10:33:10.22	337.20	16.09	-41.6	-43.8	19.3	0.00e+00	0	44	0	1140850688	55	4478
2026-01-28 10:33:11.21	337.24	15.98	-41.5	-43.7	19.4	0.00e+00	0	44	0	1142947840	55	4428
2026-01-28 10:33:12.20	337.28	15.87	-41.6	-43.8	19.4	0.00e+00	0	44	0	1143996416	54	4725
2026-01-28 10:33:13.20	337.33	15.77	-41.5	-43.7	19.5	0.00e+00	0	44	0	1146093568	54	4673
2026-01-28 10:33:14.19	337.37	15.66	-41.5	-43.7	19.5	0.00e+00	0	44	0	1148190720	54	4676
2026-01-28 10:33:15.18	337.41	15.55	-41.3	-43.5	19.6	0.00e+00	0	44	0	1150287872	54	4591
2026-01-28 10:33:16.18	337.45	15.45	-41.4	-43.6	19.6	0.00e+00	0	44	0	1151336448	54	4639
2026-01-28 10:33:17.17	337.50	15.34	-41.3	-43.5	19.7	0.00e+00	0	44	0	1153433600	54	4590
2026-01-28 10:33:18.16	337.54	15.24	-41.4	-43.7	19.5	0.00e+00	0	44	0	1155530752	54	4669
2026-01-28 10:33:19.16	337.58	15.13	-41.3	-43.6	19.6	0.00e+00	0	44	0	1157627904	54	4637
2026-01-28 10:33:20.15	337.62	15.03	-41.4	-43.8	19.5	0.00e+00	0	44	0	1159725056	54	4719
2026-01-28 10:33:21.14	337.66	14.93	-41.3	-43.7	19.5	0.00e+00	0	44	0	1160773632	54	4681
2026-01-28 10:33:22.13	337.70	14.82	-41.5	-43.9	19.3	0.00e+00	0	44	0	1162870784	54	4771
2026-01-28 10:33:23.13	337.74	14.72	-41.5	-43.9	19.3	0.00e+00	0	44	0	1164967936	54	4804
2026-01-28 10:33:24.12	337.78	14.62	-41.5	-43.9	19.3	0.00e+00	0	44	0	1167065088	54	4792
2026-01-28 10:33:25.11	337.82	14.52	-41.6	-44.1	19.1	0.00e+00	0	44	0	1168113664	54	4907
2026-01-28 10:33:26.10	337.86	14.42	-41.7	-44.2	19.0	0.00e+00	0	44	0	1170210816	54	4977
2026-01-28 10:33:27.10	337.90	14.32	-41.7	-44.2	19.0	0.00e+00	0	44	0	1172307968	54	4964
2026-01-28 10:33:28.09	337.94	14.21	-41.9	-44.5	18.8	0.00e+00	0	44	0	1174405120	54	5102
2026-01-28 10:33:29.08	337.97	14.12	-41.9	-44.4	18.8	0.00e+00	0	44	0	1176502272	54	5079
2026-01-28 10:33:30.08	338.01	14.01	-41.8	-44.3	18.8	0.00e+00	0	44	0	1177550848	54	5015
2026-01-28 10:33:31.07	338.05	13.92	-41.9	-44.5	18.8	0.00e+00	0	44	0	1179648000	54	5116
2026-01-28 10:33:32.06	338.09	13.82	-41.9	-44.5	18.8	0.00e+00	0	44	0	1181745152	54	5111
2026-01-28 10:33:33.05	338.13	13.72	-41.9	-44.5	18.8	0.00e+00	0	44	0	1183842304	54	5120
2026-01-28 10:33:34.05	338.16	13.62	-42.1	-44.7	18.5	0.00e+00	0	44	0	1184890880	54	5250
2026-01-28 10:33:35.04	338.20	13.52	-42.1	-44.7	18.6	0.00e+00	0	44	0	1186988032	54	5254
2026-01-28 10:33:36.03	338.24	13.43	-42.0	-44.7	18.5	0.00e+00	0	44	0	1189085184	54	5244
2026-01-28 10:33:37.03	338.28	13.33	-42.1	-44.9	18.3	0.00e+00	0	44	0	1191182336	54	5372
2026-01-28 10:33:38.02	338.31	13.23	-42.1	-45.0	18.2	0.00e+00	0	44	0	1192230912	54	5412
2026-01-28 10:33:39.01	338.35	13.14	-42.2	-45.1	18.2	0.00e+00	0	44	0	1194328064	55	5185
2026-01-28 10:33:40.01	338.38	13.04	-42.2	-45.2	18.1	0.00e+00	0	44	0	1196425216	55	5234
2026-01-28 10:33:41.00	338.42	12.94	-42.3	-45.3	17.9	0.00e+00	0	44	0	1198522368	55	5309
2026-01-28 10:33:41.99	338.46	12.85	-42.4	-45.4	17.8	0.00e+00	0	44	0	1200619520	55	5392
2026-01-28 10:33:42.98	338.49	12.75	-42.5	-45.5	17.8	0.00e+00	0	44	0	1201668096	55	5403
2026-01-28 10:33:43.98	338.53	12.66	-42.8	-45.8	17.7	0.00e+00	0	44	0	1203765248	56	5299
2026-01-28 10:33:44.97	338.56	12.57	-42.9	-45.9	17.6	0.00e+00	0	44	0	1205862400	56	5345
2026-01-28 10:33:45.96	338.60	12.47	-43.0	-45.9	17.5	0.00e+00	0	44	0	1207959552	56	5396
