passes_logs/2026/01/28/T1/T1__20260128_003152_SUOMI_NPP_rec.log

#Pass ID: 20260128_003152_SUOMI NPP
#Satellite: SUOMI NPP
#Configuration: NPP
#almurnet v.1.7.20251203
#Start time: 2026-01-28 00:31:52

#Version: 2.0.20230620
#Station: T1
#Location: 37.570604 lon 55.790049 lat
#TLE: 1 37849U 11061A   26027.50945616  .00000185  00000+0  10897-3 0  9994
#TLE: 2 37849  98.7823 329.4511 0002105  42.1421 317.9917 14.19530771738482

#Time	Az	El	Level	Level2	SNR	BER	BlckErr	Temp	State	Recorded	gain1	gain2
2026-01-28 00:31:52.46	11.72	4.99	-50.1	-65.6	3.8	1.49e+00	0	41	0	0	71	21770
2026-01-28 00:31:53.45	11.69	5.06	-50.3	-65.6	3.8	1.49e+00	0	41	104	0	72	20563
2026-01-28 00:31:54.45	11.65	5.13	-50.3	-65.6	3.8	1.49e+00	0	41	104	0	72	20634
2026-01-28 00:31:55.44	11.62	5.19	-50.4	-65.6	3.8	1.49e+00	0	41	104	0	72	20605
2026-01-28 00:31:56.43	11.58	5.26	-50.3	-65.6	3.8	1.49e+00	0	41	104	0	72	20645
2026-01-28 00:31:57.43	11.54	5.33	-50.5	-65.6	3.8	1.49e+00	0	41	104	0	72	20614
2026-01-28 00:31:58.42	11.51	5.40	-50.4	-65.6	3.8	1.49e+00	0	41	104	0	72	20703
2026-01-28 00:31:59.41	11.47	5.47	-50.3	-65.6	3.8	1.49e+00	0	41	104	0	72	20602
2026-01-28 00:32:00.41	11.43	5.54	-50.2	-65.6	3.8	1.49e+00	0	42	104	0	72	20646
2026-01-28 00:32:01.40	11.40	5.61	-50.3	-65.6	3.8	1.49e+00	0	42	104	0	72	20582
2026-01-28 00:32:02.39	11.36	5.68	-50.2	-65.6	3.8	1.49e+00	0	41	104	0	72	20569
2026-01-28 00:32:03.38	11.32	5.75	-50.2	-65.5	3.8	1.49e+00	0	41	104	0	72	20534
2026-01-28 00:32:04.38	11.28	5.82	-50.3	-65.5	3.8	1.49e+00	0	42	104	0	72	20489
2026-01-28 00:32:05.37	11.24	5.89	-50.3	-65.5	3.8	1.49e+00	0	42	104	0	72	20350
2026-01-28 00:32:06.36	11.21	5.96	-50.2	-65.5	3.8	1.49e+00	0	42	104	0	72	20344
2026-01-28 00:32:07.36	11.17	6.04	-50.2	-65.4	3.8	1.49e+00	0	42	104	0	72	20212
2026-01-28 00:32:08.35	11.13	6.11	-50.0	-65.4	3.8	1.49e+00	0	42	104	0	71	21395
2026-01-28 00:32:09.34	11.09	6.18	-50.2	-65.4	3.8	1.49e+00	0	42	104	0	71	21452
2026-01-28 00:32:10.33	11.05	6.25	-50.2	-65.4	3.8	1.49e+00	0	42	104	0	71	21421
2026-01-28 00:32:11.33	11.01	6.32	-49.4	-65.4	3.8	1.49e+00	0	42	104	0	70	22593
2026-01-28 00:32:12.32	10.97	6.39	-49.8	-65.4	3.8	1.49e+00	0	42	104	0	70	22531
2026-01-28 00:32:13.31	10.93	6.47	-49.9	-65.3	3.8	1.49e+00	0	42	104	0	70	22431
2026-01-28 00:32:14.31	10.89	6.54	-49.4	-65.3	3.8	1.49e+00	0	42	104	0	70	22340
2026-01-28 00:32:15.30	10.85	6.61	-48.2	-65.2	3.8	1.49e+00	0	42	104	0	68	24816
2026-01-28 00:32:16.29	10.81	6.68	-49.3	-65.1	3.9	1.49e+00	0	42	104	0	69	23163
2026-01-28 00:32:17.29	10.77	6.76	-48.1	-64.8	3.8	1.49e+00	0	42	104	0	68	23705
2026-01-28 00:32:18.28	10.73	6.83	-46.4	-63.4	3.8	1.49e+00	0	42	104	0	64	25353
2026-01-28 00:32:19.27	10.69	6.90	-46.3	-63.1	3.8	1.49e+00	0	42	104	0	64	24504
2026-01-28 00:32:20.27	10.65	6.98	-46.4	-62.9	3.8	1.49e+00	0	42	104	0	64	23958
2026-01-28 00:32:21.26	10.60	7.05	-46.4	-62.7	3.8	1.49e+00	0	42	104	0	64	23457
2026-01-28 00:32:22.25	10.56	7.12	-46.4	-62.6	3.9	1.49e+00	0	42	104	0	64	23054
2026-01-28 00:32:23.25	10.52	7.20	-46.4	-62.4	3.9	1.48e+00	0	42	104	0	64	22753
2026-01-28 00:32:24.24	10.48	7.27	-46.4	-62.4	3.8	1.48e+00	0	42	104	0	64	22734
2026-01-28 00:32:25.23	10.44	7.35	-46.4	-62.5	3.8	1.48e+00	0	42	104	0	64	23030
2026-01-28 00:32:26.22	10.39	7.42	-46.4	-62.4	4.0	1.48e+00	0	42	104	0	64	22579
2026-01-28 00:32:27.22	10.35	7.50	-46.4	-62.4	3.8	1.48e+00	0	43	104	0	64	22724
2026-01-28 00:32:28.21	10.31	7.57	-46.4	-62.3	4.0	1.48e+00	0	42	104	0	64	22449
2026-01-28 00:32:29.20	10.26	7.65	-46.4	-62.1	4.0	1.47e+00	0	43	104	0	64	21763
2026-01-28 00:32:30.20	10.22	7.72	-46.4	-61.8	4.1	1.45e+00	0	42	0	0	64	21248
2026-01-28 00:32:31.19	10.18	7.80	-46.4	-61.2	4.2	1.43e+00	0	42	0	0	64	19671
2026-01-28 00:32:32.18	10.13	7.87	-46.4	-60.5	4.5	1.34e+00	0	43	0	0	64	18134
2026-01-28 00:32:33.18	10.09	7.95	-46.3	-59.1	5.1	7.71e-01	0	42	0	2097152	64	15529
2026-01-28 00:32:34.17	10.04	8.03	-46.2	-57.9	5.9	5.30e-01	0	43	0	4194304	64	13418
2026-01-28 00:32:35.16	10.00	8.10	-46.1	-56.9	6.6	3.03e-01	0	43	0	5242880	64	11982
2026-01-28 00:32:36.15	9.95	8.18	-45.9	-55.4	8.1	1.53e-01	0	42	0	7340032	63	10742
2026-01-28 00:32:37.15	9.91	8.26	-45.7	-54.3	9.2	3.00e-02	0	43	0	9437184	63	9448
2026-01-28 00:32:38.14	9.86	8.33	-45.6	-53.5	10.0	1.30e-02	0	43	0	11534336	63	8632
2026-01-28 00:32:39.13	9.81	8.41	-45.4	-52.8	10.7	4.47e-03	0	43	0	13631488	62	8428
2026-01-28 00:32:40.13	9.77	8.49	-45.2	-52.0	11.5	9.57e-04	0	42	0	14680064	62	7709
2026-01-28 00:32:41.12	9.72	8.57	-45.1	-51.8	11.8	5.54e-04	0	43	0	16777216	62	7466
2026-01-28 00:32:42.11	9.67	8.64	-45.1	-51.6	11.9	4.27e-04	0	43	0	18874368	62	7358
2026-01-28 00:32:43.11	9.63	8.72	-45.0	-51.6	12.0	2.51e-04	0	43	0	20971520	62	7327
2026-01-28 00:32:44.10	9.58	8.80	-45.0	-51.5	12.0	3.39e-04	0	43	0	22020096	62	7270
2026-01-28 00:32:45.09	9.53	8.88	-45.3	-52.3	11.3	9.13e-04	0	43	0	24117248	62	7947
2026-01-28 00:32:46.09	9.48	8.96	-45.4	-53.0	10.6	2.28e-03	0	43	0	26214400	62	8574
2026-01-28 00:32:47.08	9.44	9.04	-45.6	-53.8	9.7	4.97e-03	0	43	0	28311552	62	9478
2026-01-28 00:32:48.07	9.39	9.12	-45.9	-55.0	8.6	2.83e-02	0	43	0	30408704	62	10796
2026-01-28 00:32:49.07	9.34	9.20	-45.0	-51.3	12.3	8.30e-04	0	43	0	31457280	62	7092
2026-01-28 00:32:50.06	9.29	9.28	-46.6	-61.7	4.1	5.31e-02	0	43	0	33554432	63	22095
2026-01-28 00:32:51.05	9.24	9.36	-46.4	-57.4	6.4	1.91e-01	0	43	0	34603008	63	13476
2026-01-28 00:32:52.04	9.19	9.44	-43.4	-47.4	16.1	3.45e-04	0	43	0	36700160	58	5720
2026-01-28 00:32:53.04	9.14	9.52	-43.2	-47.0	16.5	0.00e+00	0	43	0	38797312	58	5438
2026-01-28 00:32:54.03	9.09	9.60	-43.2	-46.8	16.7	0.00e+00	0	43	0	40894464	58	5339
2026-01-28 00:32:55.02	9.04	9.68	-43.0	-46.5	17.0	0.00e+00	0	43	0	41943040	58	5132
2026-01-28 00:32:56.02	8.99	9.76	-42.8	-46.3	17.2	0.00e+00	0	43	0	44040192	57	5302
2026-01-28 00:32:57.01	8.94	9.84	-42.9	-46.2	17.3	0.00e+00	0	43	0	46137344	57	5258
2026-01-28 00:32:58.00	8.88	9.93	-43.0	-46.3	17.2	0.00e+00	0	43	0	48234496	57	5303
2026-01-28 00:32:59.00	8.83	10.01	-42.9	-46.2	17.3	0.00e+00	0	43	0	50331648	57	5246
2026-01-28 00:32:59.99	8.78	10.09	-42.9	-46.2	17.3	0.00e+00	0	43	0	51380224	57	5230
2026-01-28 00:33:00.98	8.73	10.17	-42.8	-46.0	17.6	0.00e+00	0	43	0	53477376	57	5104
2026-01-28 00:33:01.97	8.68	10.25	-43.0	-46.1	17.4	0.00e+00	0	43	0	55574528	57	5193
2026-01-28 00:33:02.97	8.62	10.34	-42.8	-45.8	17.7	0.00e+00	0	43	0	57671680	57	5023
2026-01-28 00:33:03.96	8.57	10.42	-42.7	-45.7	17.8	0.00e+00	0	43	0	58720256	57	4964
2026-01-28 00:33:04.95	8.52	10.50	-42.9	-45.9	17.6	0.00e+00	0	43	0	60817408	57	5091
2026-01-28 00:33:05.95	8.46	10.59	-42.8	-45.8	17.6	0.00e+00	0	43	0	62914560	57	5006
2026-01-28 00:33:06.94	8.41	10.67	-42.8	-45.8	17.7	0.00e+00	0	43	0	65011712	57	5007
2026-01-28 00:33:07.93	8.35	10.76	-42.9	-45.9	17.6	0.00e+00	0	43	0	67108864	57	5066
2026-01-28 00:33:08.93	8.30	10.84	-42.8	-45.7	17.8	0.00e+00	0	43	0	68157440	57	4963
2026-01-28 00:33:09.92	8.24	10.93	-42.8	-45.7	17.8	0.00e+00	0	43	0	70254592	57	4976
2026-01-28 00:33:10.91	8.19	11.01	-42.8	-45.7	17.8	0.00e+00	0	43	0	72351744	57	4940
2026-01-28 00:33:11.90	8.13	11.10	-42.8	-45.7	17.8	0.00e+00	0	43	0	74448896	57	4946
2026-01-28 00:33:12.90	8.07	11.18	-42.9	-45.8	17.7	0.00e+00	0	43	0	75497472	57	5002
2026-01-28 00:33:13.89	8.02	11.27	-42.9	-45.8	17.7	0.00e+00	0	43	0	77594624	57	5010
2026-01-28 00:33:14.88	7.96	11.36	-42.9	-45.8	17.7	0.00e+00	0	43	0	79691776	57	5006
2026-01-28 00:33:15.88	7.90	11.44	-43.0	-45.9	17.6	0.00e+00	0	43	0	81788928	57	5072
2026-01-28 00:33:16.87	7.84	11.53	-43.0	-45.9	17.6	0.00e+00	0	43	0	83886080	57	5066
2026-01-28 00:33:17.86	7.78	11.62	-43.0	-45.9	17.6	0.00e+00	0	43	0	84934656	57	5062
2026-01-28 00:33:18.86	7.73	11.70	-42.9	-45.8	17.7	0.00e+00	0	43	0	87031808	57	5024
2026-01-28 00:33:19.85	7.67	11.79	-43.1	-46.0	17.6	0.00e+00	0	43	0	89128960	57	5113
2026-01-28 00:33:20.84	7.61	11.88	-43.1	-46.0	17.5	0.00e+00	0	43	0	91226112	57	5149
2026-01-28 00:33:21.84	7.55	11.97	-43.0	-45.8	17.7	0.00e+00	0	43	0	92274688	57	5034
2026-01-28 00:33:22.83	7.49	12.06	-43.0	-45.9	17.6	0.00e+00	0	43	0	94371840	57	5087
2026-01-28 00:33:23.82	7.43	12.14	-43.0	-45.9	17.7	0.00e+00	0	43	0	96468992	57	5047
2026-01-28 00:33:24.81	7.37	12.23	-42.9	-45.8	17.7	0.00e+00	0	43	0	98566144	57	5024
2026-01-28 00:33:25.81	7.30	12.32	-42.9	-45.7	17.8	0.00e+00	0	43	0	99614720	57	4974
2026-01-28 00:33:26.80	7.24	12.41	-42.9	-45.7	17.8	0.00e+00	0	43	0	101711872	57	4968
2026-01-28 00:33:27.79	7.18	12.50	-43.0	-45.9	17.6	0.00e+00	0	43	0	103809024	57	5077
2026-01-28 00:33:28.79	7.12	12.59	-42.8	-45.7	17.9	0.00e+00	0	43	0	105906176	57	4938
2026-01-28 00:33:29.78	7.06	12.68	-42.7	-45.5	18.0	0.00e+00	0	43	0	108003328	57	4860
2026-01-28 00:33:30.77	6.99	12.77	-42.9	-45.7	17.9	0.00e+00	0	43	0	109051904	57	4952
2026-01-28 00:33:31.77	6.93	12.87	-42.9	-45.7	17.9	0.00e+00	0	43	0	111149056	57	4954
2026-01-28 00:33:32.76	6.86	12.96	-42.8	-45.6	17.9	0.00e+00	0	43	0	113246208	57	4898
2026-01-28 00:33:33.75	6.80	13.05	-42.8	-45.6	18.0	0.00e+00	0	43	0	115343360	57	4917
2026-01-28 00:33:34.74	6.73	13.14	-42.8	-45.6	18.0	0.00e+00	0	43	0	116391936	57	4882
2026-01-28 00:33:35.74	6.67	13.23	-42.9	-45.7	17.8	0.00e+00	0	43	0	118489088	57	4977
2026-01-28 00:33:36.73	6.60	13.33	-42.8	-45.6	18.0	0.00e+00	0	43	0	120586240	57	4893
2026-01-28 00:33:37.72	6.54	13.42	-42.6	-45.4	18.2	0.00e+00	0	43	0	122683392	57	4767
2026-01-28 00:33:38.72	6.47	13.51	-42.7	-45.5	18.1	0.00e+00	0	43	0	124780544	57	4830
2026-01-28 00:33:39.71	6.40	13.61	-42.7	-45.4	18.1	0.00e+00	0	43	0	125829120	57	4789
2026-01-28 00:33:40.70	6.33	13.70	-42.6	-45.3	18.3	0.00e+00	0	43	0	127926272	57	4728
2026-01-28 00:33:41.69	6.27	13.79	-42.8	-45.5	18.1	0.00e+00	0	43	0	130023424	57	4838
2026-01-28 00:33:42.69	6.20	13.89	-42.8	-45.5	18.1	0.00e+00	0	43	0	132120576	57	4817
2026-01-28 00:33:43.68	6.13	13.98	-42.9	-45.6	18.0	0.00e+00	0	43	0	133169152	57	4910
2026-01-28 00:33:44.67	6.06	14.08	-42.7	-45.3	18.2	0.00e+00	0	43	0	135266304	57	4753
2026-01-28 00:33:45.67	5.99	14.17	-42.8	-45.5	18.0	0.00e+00	0	43	0	137363456	57	4856
2026-01-28 00:33:46.66	5.92	14.27	-43.0	-45.7	18.0	0.00e+00	0	43	0	139460608	57	4939
2026-01-28 00:33:47.65	5.85	14.37	-42.8	-45.5	18.1	0.00e+00	0	43	0	141557760	57	4834
2026-01-28 00:33:48.65	5.78	14.46	-42.9	-45.6	18.0	0.00e+00	0	43	0	142606336	57	4906
2026-01-28 00:33:49.64	5.70	14.56	-42.9	-45.7	18.0	0.00e+00	0	43	0	144703488	57	4933
2026-01-28 00:33:50.63	5.63	14.66	-42.8	-45.5	18.1	0.00e+00	0	43	0	146800640	57	4844
2026-01-28 00:33:51.62	5.56	14.75	-42.9	-45.6	18.0	0.00e+00	0	43	0	148897792	57	4909
2026-01-28 00:33:52.62	5.48	14.85	-42.8	-45.5	18.1	0.00e+00	0	43	0	149946368	57	4856
2026-01-28 00:33:53.61	5.41	14.95	-42.8	-45.4	18.2	0.00e+00	0	43	0	152043520	57	4794
2026-01-28 00:33:54.60	5.34	15.05	-42.7	-45.4	18.2	0.00e+00	0	43	0	154140672	57	4783
2026-01-28 00:33:55.60	5.26	15.15	-42.8	-45.4	18.2	0.00e+00	0	43	0	156237824	57	4789
2026-01-28 00:33:56.59	5.19	15.25	-42.9	-45.5	18.1	0.00e+00	0	43	0	158334976	57	4868
2026-01-28 00:33:57.58	5.11	15.35	-42.9	-45.5	18.1	0.00e+00	0	43	0	159383552	57	4849
2026-01-28 00:33:58.58	5.03	15.45	-42.9	-45.6	18.1	0.00e+00	0	43	0	161480704	57	4878
2026-01-28 00:33:59.57	4.96	15.55	-42.9	-45.5	18.2	0.00e+00	0	43	0	163577856	57	4837
2026-01-28 00:34:00.56	4.88	15.65	-42.9	-45.5	18.2	0.00e+00	0	43	0	165675008	57	4848
2026-01-28 00:34:01.55	4.80	15.75	-43.0	-45.6	18.1	0.00e+00	0	43	0	166723584	57	4883
2026-01-28 00:34:02.54	4.72	15.85	-43.1	-45.8	17.9	0.00e+00	0	43	0	168820736	57	5008
2026-01-28 00:34:03.54	4.64	15.95	-43.2	-45.9	17.8	0.00e+00	0	44	0	170917888	57	5084
2026-01-28 00:34:04.53	4.56	16.06	-43.2	-45.8	17.9	0.00e+00	0	43	0	173015040	57	5026
2026-01-28 00:34:05.53	4.48	16.16	-43.1	-45.7	18.0	0.00e+00	0	43	0	175112192	57	4953
2026-01-28 00:34:06.52	4.40	16.26	-43.2	-45.8	17.9	0.00e+00	0	44	0	176160768	57	4993
2026-01-28 00:34:07.51	4.32	16.36	-43.0	-45.5	18.1	0.00e+00	0	43	0	178257920	57	4843
2026-01-28 00:34:08.51	4.24	16.47	-43.2	-45.8	17.9	0.00e+00	0	43	0	180355072	57	4989
2026-01-28 00:34:09.50	4.15	16.57	-43.2	-45.7	17.9	0.00e+00	0	44	0	182452224	57	4982
2026-01-28 00:34:10.49	4.07	16.68	-43.2	-45.8	17.9	0.00e+00	0	43	0	183500800	57	5009
2026-01-28 00:34:11.48	3.99	16.78	-43.2	-45.8	17.9	0.00e+00	0	43	0	185597952	57	5032
2026-01-28 00:34:12.48	3.90	16.89	-43.4	-46.0	17.7	0.00e+00	0	43	0	187695104	57	5124
2026-01-28 00:34:13.47	3.82	16.99	-43.3	-46.0	17.7	0.00e+00	0	43	0	189792256	57	5114
2026-01-28 00:34:14.46	3.73	17.10	-43.3	-46.0	17.8	0.00e+00	0	43	0	190840832	57	5101
2026-01-28 00:34:15.45	3.64	17.21	-43.3	-46.0	17.7	0.00e+00	0	44	0	192937984	57	5111
2026-01-28 00:34:16.45	3.56	17.31	-43.3	-46.0	17.7	0.00e+00	0	43	0	195035136	57	5115
2026-01-28 00:34:17.44	3.47	17.42	-43.3	-45.9	17.8	0.00e+00	0	43	0	197132288	57	5081
2026-01-28 00:34:18.43	3.38	17.53	-43.0	-45.6	18.1	0.00e+00	0	44	0	199229440	57	4903
2026-01-28 00:34:19.43	3.29	17.64	-43.2	-45.8	17.9	0.00e+00	0	43	0	200278016	57	5024
2026-01-28 00:34:20.42	3.20	17.74	-43.2	-45.9	17.9	0.00e+00	0	43	0	202375168	57	5064
2026-01-28 00:34:21.41	3.11	17.85	-43.2	-45.8	17.9	0.00e+00	0	43	0	204472320	57	5033
2026-01-28 00:34:22.41	3.02	17.96	-43.0	-45.7	17.9	0.00e+00	0	44	0	206569472	57	4929
2026-01-28 00:34:23.40	2.93	18.07	-43.1	-45.7	18.0	0.00e+00	0	44	0	207618048	57	4957
2026-01-28 00:34:24.39	2.84	18.18	-43.1	-45.7	18.0	0.00e+00	0	44	0	209715200	57	4955
2026-01-28 00:34:25.38	2.74	18.29	-43.0	-45.6	18.1	0.00e+00	0	43	0	211812352	57	4878
2026-01-28 00:34:26.38	2.65	18.40	-42.8	-45.3	18.4	0.00e+00	0	44	0	213909504	57	4738
2026-01-28 00:34:27.37	2.55	18.51	-43.0	-45.7	18.0	0.00e+00	0	43	0	216006656	57	4948
2026-01-28 00:34:28.36	2.46	18.63	-42.9	-45.5	18.2	0.00e+00	0	43	0	217055232	57	4843
2026-01-28 00:34:29.36	2.36	18.74	-42.8	-45.4	18.3	0.00e+00	0	44	0	219152384	57	4775
2026-01-28 00:34:30.35	2.26	18.85	-43.1	-45.7	18.0	0.00e+00	0	43	0	221249536	57	4980
2026-01-28 00:34:31.34	2.17	18.96	-43.1	-45.8	17.9	0.00e+00	0	43	0	223346688	57	5000
2026-01-28 00:34:32.33	2.07	19.08	-43.1	-45.7	18.1	0.00e+00	0	43	0	224395264	57	4947
2026-01-28 00:34:33.33	1.97	19.19	-43.3	-46.0	17.7	0.00e+00	0	44	0	226492416	57	5128
2026-01-28 00:34:34.32	1.87	19.31	-43.2	-45.8	17.9	0.00e+00	0	44	0	228589568	57	5003
2026-01-28 00:34:35.31	1.77	19.42	-43.4	-46.0	17.8	0.00e+00	0	43	0	230686720	57	5113
2026-01-28 00:34:36.31	1.67	19.54	-43.3	-45.9	17.9	0.00e+00	0	43	0	232783872	57	5045
2026-01-28 00:34:37.30	1.57	19.65	-43.4	-46.0	17.7	0.00e+00	0	44	0	233832448	57	5158
2026-01-28 00:34:38.29	1.46	19.77	-43.4	-46.0	17.8	0.00e+00	0	44	0	235929600	57	5104
2026-01-28 00:34:39.28	1.36	19.88	-43.5	-46.1	17.7	0.00e+00	0	43	0	238026752	57	5176
2026-01-28 00:34:40.28	1.25	20.00	-43.6	-46.2	17.5	0.00e+00	0	44	0	240123904	57	5276
2026-01-28 00:34:41.27	1.15	20.12	-43.4	-46.1	17.7	0.00e+00	0	44	0	241172480	57	5172
2026-01-28 00:34:42.26	1.04	20.24	-43.5	-46.1	17.7	0.00e+00	0	43	0	243269632	57	5211
2026-01-28 00:34:43.25	0.94	20.35	-43.5	-46.2	17.6	0.00e+00	0	43	0	245366784	57	5224
2026-01-28 00:34:44.25	0.83	20.47	-43.5	-46.2	17.6	0.00e+00	0	44	0	247463936	57	5229
2026-01-28 00:34:45.24	0.72	20.59	-43.5	-46.1	17.7	0.00e+00	0	43	0	249561088	58	4909
2026-01-28 00:34:46.23	0.61	20.71	-43.6	-46.3	17.4	0.00e+00	0	44	0	250609664	58	5030
2026-01-28 00:34:47.22	0.50	20.83	-43.7	-46.5	17.3	0.00e+00	0	44	0	252706816	58	5144
2026-01-28 00:34:48.22	0.39	20.95	-43.9	-46.7	17.1	0.00e+00	0	44	0	254803968	58	5276
2026-01-28 00:34:49.21	0.27	21.07	-43.7	-46.5	17.3	0.00e+00	0	43	0	256901120	58	5137
2026-01-28 00:34:50.20	0.16	21.19	-43.4	-46.1	17.7	0.00e+00	0	43	0	257949696	58	4895
2026-01-28 00:34:51.20	0.05	21.32	-43.7	-46.5	17.3	0.00e+00	0	44	0	260046848	58	5136
2026-01-28 00:34:52.19	359.93	21.44	-43.7	-46.5	17.4	0.00e+00	0	44	0	262144000	58	5129
2026-01-28 00:34:53.18	359.81	21.56	-43.4	-46.0	17.7	0.00e+00	0	44	0	264241152	58	4842
2026-01-28 00:34:54.18	359.70	21.69	-43.5	-46.1	17.7	0.00e+00	0	44	0	266338304	58	4894
2026-01-28 00:34:55.17	359.58	21.81	-43.5	-46.1	17.7	0.00e+00	0	44	0	267386880	58	4893
2026-01-28 00:34:56.16	359.46	21.93	-43.7	-46.4	17.4	0.00e+00	0	44	0	269484032	58	5093
2026-01-28 00:34:57.15	359.34	22.06	-43.4	-45.9	17.9	0.00e+00	0	43	0	271581184	58	4799
2026-01-28 00:34:58.15	359.22	22.18	-43.5	-46.1	17.7	0.00e+00	0	43	0	273678336	58	4887
2026-01-28 00:34:59.14	359.10	22.31	-43.6	-46.3	17.5	0.00e+00	0	43	0	274726912	58	5018
2026-01-28 00:35:00.13	358.97	22.44	-43.6	-46.3	17.5	0.00e+00	0	43	0	276824064	58	5014
2026-01-28 00:35:01.13	358.85	22.56	-43.6	-46.3	17.6	0.00e+00	0	44	0	278921216	58	4997
2026-01-28 00:35:02.12	358.72	22.69	-44.0	-46.8	17.1	0.00e+00	0	44	0	281018368	58	5280
2026-01-28 00:35:03.11	358.60	22.82	-44.0	-46.8	17.1	0.00e+00	0	43	0	282066944	58	5336
2026-01-28 00:35:04.10	358.47	22.95	-44.2	-47.1	16.8	0.00e+00	0	44	0	284164096	59	5218
2026-01-28 00:35:05.10	358.34	23.07	-44.1	-47.0	16.9	0.00e+00	0	43	0	286261248	59	5126
2026-01-28 00:35:06.09	358.21	23.20	-44.2	-47.1	16.8	0.00e+00	0	44	0	288358400	59	5189
2026-01-28 00:35:07.08	358.08	23.33	-44.2	-47.2	16.7	0.00e+00	0	44	0	290455552	59	5248
2026-01-28 00:35:08.08	357.95	23.46	-44.4	-47.5	16.4	0.00e+00	0	44	0	291504128	59	5412
2026-01-28 00:35:09.07	357.82	23.59	-44.1	-47.1	16.8	0.00e+00	0	43	0	293601280	59	5194
2026-01-28 00:35:10.06	357.68	23.72	-44.4	-47.5	16.5	0.00e+00	0	44	0	295698432	59	5419
2026-01-28 00:35:11.05	357.55	23.86	-44.1	-47.0	16.9	0.00e+00	0	44	0	297795584	59	5145
2026-01-28 00:35:12.05	357.41	23.99	-44.2	-47.2	16.8	0.00e+00	0	43	0	298844160	59	5226
2026-01-28 00:35:13.04	357.27	24.12	-44.1	-47.1	16.8	0.00e+00	0	44	0	300941312	59	5203
2026-01-28 00:35:14.03	357.14	24.25	-44.2	-47.3	16.7	0.00e+00	0	43	0	303038464	59	5281
2026-01-28 00:35:15.03	356.99	24.39	-44.2	-47.2	16.7	0.00e+00	0	44	0	305135616	59	5258
2026-01-28 00:35:16.02	356.85	24.52	-44.2	-47.1	16.8	0.00e+00	0	44	0	307232768	59	5209
2026-01-28 00:35:17.01	356.71	24.66	-44.4	-47.4	16.5	0.00e+00	0	43	0	308281344	59	5381
2026-01-28 00:35:18.00	356.57	24.79	-44.6	-47.6	16.3	0.00e+00	0	43	0	310378496	59	5524
2026-01-28 00:35:19.00	356.42	24.93	-44.7	-47.8	16.1	0.00e+00	0	44	0	312475648	59	5616
2026-01-28 00:35:19.99	356.28	25.06	-44.9	-48.1	15.9	0.00e+00	0	43	0	314572800	60	5521
2026-01-28 00:35:20.98	356.13	25.20	-44.7	-47.9	16.1	0.00e+00	0	44	0	315621376	60	5365
2026-01-28 00:35:21.98	355.98	25.34	-44.7	-47.8	16.2	0.00e+00	0	44	0	317718528	60	5316
2026-01-28 00:35:22.97	355.83	25.47	-44.7	-47.9	16.2	0.00e+00	0	44	0	319815680	60	5344
2026-01-28 00:35:23.96	355.68	25.61	-44.5	-47.7	16.3	0.00e+00	0	44	0	321912832	60	5232
2026-01-28 00:35:24.95	355.53	25.75	-44.5	-47.6	16.3	0.00e+00	0	44	0	324009984	60	5190
2026-01-28 00:35:25.95	355.37	25.89	-44.3	-47.3	16.7	0.00e+00	0	44	0	325058560	60	5009
2026-01-28 00:35:26.94	355.22	26.03	-44.3	-47.3	16.7	0.00e+00	0	44	0	327155712	60	4998
2026-01-28 00:35:27.93	355.06	26.17	-43.9	-46.7	17.3	0.00e+00	0	44	0	329252864	59	4933
2026-01-28 00:35:28.93	354.90	26.31	-43.8	-46.5	17.4	0.00e+00	0	44	0	331350016	59	4864
2026-01-28 00:35:29.92	354.74	26.45	-43.5	-46.1	17.7	0.00e+00	0	44	0	332398592	59	4641
2026-01-28 00:35:30.91	354.58	26.59	-43.6	-46.2	17.7	0.00e+00	0	44	0	334495744	58	4967
2026-01-28 00:35:31.91	354.42	26.73	-43.5	-46.1	17.8	0.00e+00	0	44	0	336592896	58	4895
2026-01-28 00:35:32.90	354.25	26.88	-43.6	-46.2	17.6	0.00e+00	0	44	0	338690048	58	4962
2026-01-28 00:35:33.89	354.09	27.02	-43.5	-46.0	17.8	0.00e+00	0	44	0	340787200	58	4864
2026-01-28 00:35:34.89	353.92	27.16	-43.9	-46.5	17.4	0.00e+00	0	44	0	341835776	58	5131
2026-01-28 00:35:35.88	353.75	27.31	-43.8	-46.5	17.4	0.00e+00	0	43	0	343932928	58	5103
2026-01-28 00:35:36.87	353.58	27.45	-44.0	-46.7	17.2	0.00e+00	0	44	0	346030080	58	5259
2026-01-28 00:35:37.86	353.41	27.60	-43.9	-46.6	17.2	0.00e+00	0	43	0	348127232	58	5201
2026-01-28 00:35:38.85	353.24	27.74	-43.8	-46.4	17.5	0.00e+00	0	44	0	349175808	58	5082
2026-01-28 00:35:39.85	353.06	27.89	-43.8	-46.4	17.5	0.00e+00	0	44	0	351272960	58	5100
2026-01-28 00:35:40.84	352.88	28.03	-43.9	-46.6	17.3	0.00e+00	0	44	0	353370112	58	5204
2026-01-28 00:35:41.83	352.70	28.18	-43.7	-46.4	17.5	0.00e+00	0	44	0	355467264	58	5065
2026-01-28 00:35:42.83	352.52	28.33	-43.8	-46.5	17.4	0.00e+00	0	44	0	357564416	58	5157
2026-01-28 00:35:43.82	352.34	28.48	-43.8	-46.4	17.4	0.00e+00	0	44	0	358612992	58	5091
2026-01-28 00:35:44.81	352.16	28.62	-44.1	-46.9	17.1	0.00e+00	0	44	0	360710144	58	5344
2026-01-28 00:35:45.80	351.97	28.77	-44.4	-47.2	16.7	0.00e+00	0	44	0	362807296	59	5277
2026-01-28 00:35:46.80	351.79	28.92	-44.4	-47.2	16.7	0.00e+00	0	44	0	364904448	59	5272
2026-01-28 00:35:47.79	351.60	29.07	-44.4	-47.3	16.6	0.00e+00	0	44	0	365953024	59	5310
2026-01-28 00:35:48.78	351.41	29.22	-44.5	-47.3	16.5	0.00e+00	0	44	0	368050176	59	5331
2026-01-28 00:35:49.78	351.21	29.37	-44.4	-47.2	16.7	0.00e+00	0	44	0	370147328	59	5262
2026-01-28 00:35:50.77	351.02	29.52	-44.0	-46.8	17.1	0.00e+00	0	44	0	372244480	59	5000
2026-01-28 00:35:51.76	350.82	29.67	-43.9	-46.7	17.2	0.00e+00	0	43	0	373293056	59	4944
2026-01-28 00:35:52.75	350.63	29.82	-44.1	-47.0	17.0	0.00e+00	0	44	0	375390208	59	5106
2026-01-28 00:35:53.75	350.43	29.98	-44.2	-47.0	16.8	0.00e+00	0	43	0	377487360	59	5158
2026-01-28 00:35:54.74	350.22	30.13	-44.3	-47.2	16.7	0.00e+00	0	44	0	379584512	59	5270
2026-01-28 00:35:55.73	350.02	30.28	-44.4	-47.3	16.6	0.00e+00	0	44	0	381681664	59	5335
2026-01-28 00:35:56.72	349.82	30.43	-44.4	-47.2	16.7	0.00e+00	0	44	0	382730240	59	5273
2026-01-28 00:35:57.72	349.61	30.59	-44.5	-47.4	16.5	0.00e+00	0	43	0	384827392	59	5392
2026-01-28 00:35:58.71	349.40	30.74	-44.5	-47.4	16.6	0.00e+00	0	44	0	386924544	60	5050
2026-01-28 00:35:59.70	349.19	30.90	-44.5	-47.4	16.6	0.00e+00	0	43	0	389021696	60	5076
2026-01-28 00:36:00.70	348.97	31.05	-44.6	-47.5	16.5	0.00e+00	0	44	0	390070272	60	5112
2026-01-28 00:36:01.69	348.76	31.21	-44.7	-47.7	16.3	0.00e+00	0	44	0	392167424	60	5250
2026-01-28 00:36:02.68	348.54	31.36	-44.9	-48.1	16.0	0.00e+00	0	44	0	394264576	60	5474
2026-01-28 00:36:03.68	348.32	31.52	-45.0	-48.2	15.9	0.00e+00	0	44	0	396361728	60	5580
2026-01-28 00:36:04.67	348.09	31.67	-45.0	-48.2	15.8	0.00e+00	0	44	0	398458880	60	5568
2026-01-28 00:36:05.66	347.87	31.83	-44.9	-48.1	15.9	0.00e+00	0	44	0	399507456	60	5500
2026-01-28 00:36:06.65	347.64	31.99	-44.9	-48.0	16.0	0.00e+00	0	43	0	401604608	60	5422
2026-01-28 00:36:07.65	347.41	32.15	-44.9	-48.0	15.9	0.00e+00	0	44	0	403701760	60	5426
2026-01-28 00:36:08.64	347.18	32.30	-44.8	-47.9	16.1	0.00e+00	0	44	0	405798912	60	5344
2026-01-28 00:36:09.63	346.95	32.46	-44.7	-47.8	16.2	0.00e+00	0	43	0	406847488	60	5315
2026-01-28 00:36:10.63	346.71	32.62	-44.4	-47.5	16.6	0.00e+00	0	43	0	408944640	60	5126
2026-01-28 00:36:11.62	346.47	32.78	-44.7	-48.0	16.1	0.00e+00	0	43	0	411041792	60	5416
2026-01-28 00:36:12.61	346.23	32.94	-44.7	-48.0	16.1	0.00e+00	0	44	0	413138944	60	5409
2026-01-28 00:36:13.60	345.99	33.09	-44.7	-47.9	16.1	0.00e+00	0	44	0	415236096	60	5390
2026-01-28 00:36:14.60	345.74	33.25	-45.0	-48.4	15.7	0.00e+00	0	44	0	416284672	60	5705
2026-01-28 00:36:15.59	345.50	33.41	-45.1	-48.6	15.4	0.00e+00	0	44	0	418381824	61	5498
2026-01-28 00:36:16.58	345.25	33.57	-45.2	-48.7	15.4	0.00e+00	0	44	0	420478976	61	5546
2026-01-28 00:36:17.58	344.99	33.73	-45.1	-48.5	15.6	0.00e+00	0	43	0	422576128	61	5420
2026-01-28 00:36:18.57	344.74	33.89	-45.0	-48.2	15.9	0.00e+00	0	44	0	423624704	61	5277
2026-01-28 00:36:19.56	344.48	34.05	-45.0	-48.2	15.9	0.00e+00	0	44	0	425721856	61	5247
2026-01-28 00:36:20.56	344.22	34.21	-44.9	-48.1	16.0	0.00e+00	0	44	0	427819008	61	5170
2026-01-28 00:36:21.55	343.96	34.37	-44.8	-47.8	16.2	0.00e+00	0	44	0	429916160	60	5309
2026-01-28 00:36:22.54	343.69	34.53	-44.5	-47.4	16.6	0.00e+00	0	44	0	432013312	60	5087
2026-01-28 00:36:23.53	343.42	34.69	-44.7	-47.7	16.6	0.00e+00	0	44	0	433061888	60	5236
2026-01-28 00:36:24.53	343.15	34.86	-44.9	-47.9	16.1	0.00e+00	0	44	0	435159040	60	5376
2026-01-28 00:36:25.52	342.88	35.02	-44.9	-48.0	16.1	0.00e+00	0	44	0	437256192	60	5407
2026-01-28 00:36:26.51	342.60	35.18	-45.4	-48.7	15.4	0.00e+00	0	44	0	439353344	61	5547
2026-01-28 00:36:27.51	342.32	35.34	-45.9	-49.4	14.7	7.00e-07	0	44	0	440401920	62	5689
2026-01-28 00:36:28.50	342.04	35.50	-46.1	-49.9	14.1	1.50e-06	0	44	0	442499072	63	5705
2026-01-28 00:36:29.49	341.76	35.66	-46.5	-50.7	13.5	3.00e-06	0	44	0	444596224	63	6203
2026-01-28 00:36:30.48	341.47	35.82	-46.2	-50.3	13.9	3.00e-06	0	44	0	446693376	63	5942
2026-01-28 00:36:31.48	341.18	35.98	-46.0	-50.1	14.3	1.50e-06	0	44	0	448790528	63	5813
2026-01-28 00:36:32.47	340.88	36.14	-45.6	-49.3	14.8	1.50e-06	0	44	0	449839104	63	5320
2026-01-28 00:36:33.46	340.59	36.30	-45.5	-49.1	15.0	0.00e+00	0	44	0	451936256	62	5496
2026-01-28 00:36:34.45	340.29	36.46	-45.1	-48.6	15.5	0.00e+00	0	43	0	454033408	62	5166
2026-01-28 00:36:35.45	339.98	36.63	-44.8	-48.0	16.0	0.00e+00	0	44	0	456130560	61	5131
2026-01-28 00:36:36.44	339.68	36.79	-44.5	-47.5	16.6	0.00e+00	0	44	0	457179136	60	5118
2026-01-28 00:36:37.43	339.37	36.95	-44.0	-46.8	17.2	0.00e+00	0	44	0	459276288	60	4722
2026-01-28 00:36:38.43	339.06	37.11	-44.3	-47.1	17.0	0.00e+00	0	44	0	461373440	60	4876
2026-01-28 00:36:39.42	338.74	37.27	-44.6	-47.5	16.5	0.00e+00	0	44	0	463470592	60	5131
2026-01-28 00:36:40.41	338.43	37.43	-44.4	-47.3	16.7	0.00e+00	0	44	0	464519168	60	5006
2026-01-28 00:36:41.41	338.10	37.59	-45.0	-48.1	15.9	0.00e+00	0	44	0	466616320	60	5513
2026-01-28 00:36:42.40	337.78	37.75	-45.2	-48.3	15.7	0.00e+00	0	44	0	468713472	61	5322
2026-01-28 00:36:43.39	337.45	37.90	-45.2	-48.4	15.7	0.00e+00	0	43	0	470810624	61	5345
2026-01-28 00:36:44.39	337.12	38.06	-45.2	-48.3	15.9	0.00e+00	0	44	0	472907776	61	5295
2026-01-28 00:36:45.38	336.79	38.22	-45.1	-48.2	15.8	0.00e+00	0	44	0	473956352	61	5233
2026-01-28 00:36:46.37	336.45	38.38	-45.1	-48.3	15.8	0.00e+00	0	44	0	476053504	61	5304
2026-01-28 00:36:47.36	336.11	38.54	-45.2	-48.4	15.7	0.00e+00	0	44	0	478150656	61	5375
2026-01-28 00:36:48.36	335.76	38.70	-45.3	-48.6	15.5	0.00e+00	0	44	0	480247808	61	5517
2026-01-28 00:36:49.35	335.42	38.85	-45.5	-49.1	15.0	0.00e+00	0	44	0	481296384	61	5847
2026-01-28 00:36:50.34	335.07	39.01	-45.8	-49.6	14.5	0.00e+00	0	44	0	483393536	62	5802
2026-01-28 00:36:51.33	334.71	39.16	-46.0	-50.0	14.1	7.00e-07	0	44	0	485490688	62	6080
2026-01-28 00:36:52.33	334.35	39.32	-46.1	-50.2	14.0	1.50e-06	0	44	0	487587840	63	5867
2026-01-28 00:36:53.32	333.99	39.47	-45.4	-48.8	15.3	7.00e-07	0	44	0	489684992	62	5303
2026-01-28 00:36:54.31	333.63	39.63	-44.7	-47.7	16.4	0.00e+00	0	44	0	490733568	61	4934
2026-01-28 00:36:55.31	333.26	39.78	-44.2	-47.0	17.0	0.00e+00	0	44	0	492830720	60	4826
2026-01-28 00:36:56.30	332.89	39.93	-44.3	-47.1	16.9	0.00e+00	0	43	0	494927872	59	5186
2026-01-28 00:36:57.29	332.51	40.08	-44.8	-47.9	16.2	0.00e+00	0	44	0	497025024	60	5373
2026-01-28 00:36:58.29	332.13	40.24	-45.4	-48.9	15.2	0.00e+00	0	44	0	498073600	61	5680
2026-01-28 00:36:59.28	331.75	40.39	-45.8	-49.6	14.5	0.00e+00	0	44	0	500170752	62	5800
2026-01-28 00:37:00.27	331.37	40.53	-45.9	-49.7	14.4	0.00e+00	0	44	0	502267904	62	5886
2026-01-28 00:37:01.26	330.98	40.68	-45.3	-48.7	15.4	0.00e+00	0	44	0	504365056	62	5240
2026-01-28 00:37:02.26	330.58	40.83	-44.5	-47.5	16.6	0.00e+00	0	44	0	506462208	61	4837
2026-01-28 00:37:03.25	330.19	40.98	-44.3	-47.2	16.8	0.00e+00	0	44	0	507510784	60	4979
2026-01-28 00:37:04.24	329.79	41.12	-44.2	-47.1	16.9	0.00e+00	0	44	0	509607936	60	4896
2026-01-28 00:37:05.24	329.38	41.27	-44.3	-47.4	16.6	0.00e+00	0	44	0	511705088	60	5047
2026-01-28 00:37:06.23	328.98	41.41	-44.4	-47.5	16.5	0.00e+00	0	44	0	513802240	60	5131
2026-01-28 00:37:07.22	328.57	41.55	-44.1	-47.1	16.9	0.00e+00	0	44	0	514850816	59	5172
2026-01-28 00:37:08.22	328.15	41.70	-44.1	-47.1	16.8	0.00e+00	0	44	0	516947968	59	5175
2026-01-28 00:37:09.21	327.73	41.84	-44.3	-47.2	16.7	0.00e+00	0	44	0	519045120	59	5276
2026-01-28 00:37:10.20	327.31	41.97	-44.3	-47.3	16.7	0.00e+00	0	44	0	521142272	59	5290
2026-01-28 00:37:11.19	326.88	42.11	-44.4	-47.3	16.7	0.00e+00	0	44	0	523239424	59	5321
2026-01-28 00:37:12.19	326.45	42.25	-44.3	-47.1	16.9	0.00e+00	0	44	0	524288000	59	5190
2026-01-28 00:37:13.18	326.02	42.38	-44.2	-47.0	17.0	0.00e+00	0	44	0	526385152	59	5112
2026-01-28 00:37:14.17	325.58	42.52	-43.3	-45.7	18.1	0.00e+00	0	44	0	528482304	58	4696
2026-01-28 00:37:15.16	325.15	42.65	-42.6	-44.9	18.9	0.00e+00	0	44	0	530579456	57	4506
2026-01-28 00:37:16.16	324.70	42.78	-42.3	-44.5	19.3	0.00e+00	0	44	0	531628032	56	4587
2026-01-28 00:37:17.15	324.25	42.91	-43.0	-45.4	18.5	0.00e+00	0	44	0	533725184	56	5073
2026-01-28 00:37:18.14	323.80	43.04	-43.1	-45.5	18.3	0.00e+00	0	44	0	535822336	57	4844
2026-01-28 00:37:19.14	323.34	43.16	-44.0	-46.7	17.3	0.00e+00	0	44	0	537919488	58	5226
2026-01-28 00:37:20.13	322.89	43.29	-44.5	-47.4	16.7	0.00e+00	0	44	0	540016640	59	5346
2026-01-28 00:37:21.12	322.42	43.41	-44.7	-47.7	16.4	0.00e+00	0	44	0	541065216	60	5220
2026-01-28 00:37:22.11	321.96	43.53	-44.5	-47.5	16.5	0.00e+00	0	44	0	543162368	60	5118
2026-01-28 00:37:23.11	321.49	43.65	-44.0	-46.7	17.3	0.00e+00	0	44	0	545259520	60	4674
2026-01-28 00:37:24.10	321.02	43.77	-43.4	-46.0	17.9	0.00e+00	0	44	0	547356672	58	4821
2026-01-28 00:37:25.09	320.54	43.89	-43.0	-45.4	18.4	0.00e+00	0	44	0	548405248	57	4793
2026-01-28 00:37:26.09	320.06	44.00	-43.0	-45.4	18.5	0.00e+00	0	44	0	550502400	57	4780
2026-01-28 00:37:27.08	319.58	44.11	-42.7	-45.0	18.8	0.00e+00	0	44	0	552599552	57	4571
2026-01-28 00:37:28.07	319.09	44.22	-42.4	-44.6	19.1	0.00e+00	0	44	0	554696704	56	4646
2026-01-28 00:37:29.06	318.60	44.33	-41.8	-44.0	19.6	0.00e+00	0	44	0	555745280	55	4554
2026-01-28 00:37:30.06	318.10	44.44	-42.0	-44.2	19.4	0.00e+00	0	44	0	557842432	55	4687
2026-01-28 00:37:31.05	317.61	44.54	-42.6	-44.9	18.7	0.00e+00	0	44	0	559939584	55	5091
2026-01-28 00:37:32.04	317.11	44.64	-43.8	-46.4	17.6	0.00e+00	0	44	0	562036736	58	5075
2026-01-28 00:37:33.03	316.61	44.74	-44.6	-47.6	16.4	0.00e+00	0	44	0	564133888	59	5488
2026-01-28 00:37:34.03	316.10	44.84	-44.4	-47.3	16.7	0.00e+00	0	44	0	565182464	60	5039
2026-01-28 00:37:35.02	315.59	44.93	-44.6	-47.6	16.5	0.00e+00	0	44	0	567279616	60	5205
2026-01-28 00:37:36.01	315.08	45.03	-45.0	-48.1	15.9	0.00e+00	0	44	0	569376768	60	5504
2026-01-28 00:37:37.01	314.56	45.12	-45.6	-49.1	15.0	0.00e+00	0	44	0	571473920	62	5466
2026-01-28 00:37:38.00	314.05	45.20	-45.9	-49.5	14.6	7.00e-07	0	44	0	572522496	62	5782
2026-01-28 00:37:38.99	313.53	45.29	-46.2	-50.1	13.9	3.80e-06	0	44	0	574619648	63	5849
2026-01-28 00:37:39.98	313.00	45.37	-45.9	-49.8	14.3	2.20e-06	0	44	0	576716800	63	5604
2026-01-28 00:37:40.98	312.47	45.45	-45.3	-48.6	15.4	0.00e+00	0	44	0	578813952	62	5208
2026-01-28 00:37:41.97	311.94	45.53	-44.3	-47.1	17.0	0.00e+00	0	44	0	580911104	60	4878
2026-01-28 00:37:42.96	311.41	45.61	-43.4	-45.8	18.1	0.00e+00	0	44	0	581959680	58	4745
2026-01-28 00:37:43.96	310.88	45.68	-43.3	-45.7	18.2	0.00e+00	0	44	0	584056832	57	4956
2026-01-28 00:37:44.95	310.34	45.75	-43.5	-46.1	17.9	0.00e+00	0	44	0	586153984	57	5170
2026-01-28 00:37:45.94	309.80	45.82	-44.3	-47.0	16.9	0.00e+00	0	44	0	588251136	59	5136
2026-01-28 00:37:46.94	309.26	45.88	-44.3	-47.1	16.9	0.00e+00	0	44	0	589299712	59	5180
2026-01-28 00:37:47.93	308.71	45.94	-44.1	-46.7	17.2	0.00e+00	0	44	0	591396864	59	4964
2026-01-28 00:37:48.92	308.17	46.00	-44.3	-47.0	17.2	0.00e+00	0	44	0	593494016	59	5132
2026-01-28 00:37:49.91	307.62	46.06	-45.4	-48.7	15.4	0.00e+00	0	44	0	595591168	61	5537
2026-01-28 00:37:50.90	307.08	46.11	-45.9	-49.6	14.6	0.00e+00	0	44	0	597688320	62	5817
2026-01-28 00:37:51.90	306.52	46.16	-45.8	-49.4	14.7	7.00e-07	0	44	0	598736896	63	5377
2026-01-28 00:37:52.89	305.97	46.21	-44.6	-47.5	16.4	0.00e+00	0	44	0	600834048	61	4860
2026-01-28 00:37:53.88	305.41	46.26	-44.2	-46.9	17.1	0.00e+00	0	44	0	602931200	60	4794
2026-01-28 00:37:54.88	304.85	46.30	-44.1	-46.8	17.2	0.00e+00	0	44	0	605028352	59	5017
2026-01-28 00:37:55.87	304.30	46.34	-44.4	-47.2	16.8	0.00e+00	0	44	0	606076928	59	5279
2026-01-28 00:37:56.86	303.74	46.37	-44.8	-47.8	16.5	0.00e+00	0	44	0	608174080	60	5327
2026-01-28 00:37:57.86	303.17	46.41	-45.3	-48.7	15.5	0.00e+00	0	44	0	610271232	61	5535
2026-01-28 00:37:58.85	302.61	46.44	-45.0	-48.2	15.9	0.00e+00	0	44	0	612368384	61	5229
2026-01-28 00:37:59.84	302.05	46.46	-45.0	-48.1	15.9	0.00e+00	0	44	0	614465536	61	5177
2026-01-28 00:38:00.83	301.49	46.49	-45.3	-48.5	15.6	0.00e+00	0	44	0	615514112	61	5453
2026-01-28 00:38:01.83	300.92	46.51	-45.5	-48.9	15.2	0.00e+00	0	44	0	617611264	61	5714
2026-01-28 00:38:02.82	300.36	46.53	-45.7	-49.2	14.9	0.00e+00	0	44	0	619708416	62	5592
2026-01-28 00:38:03.81	299.79	46.54	-45.5	-48.9	15.2	0.00e+00	0	44	0	621805568	62	5378
2026-01-28 00:38:04.81	299.22	46.55	-44.9	-48.0	16.0	0.00e+00	0	44	0	622854144	61	5130
2026-01-28 00:38:05.80	298.66	46.56	-44.5	-47.3	16.8	0.00e+00	0	44	0	624951296	60	5032
2026-01-28 00:38:06.79	298.09	46.57	-44.4	-47.1	17.0	0.00e+00	0	44	0	627048448	60	4916
2026-01-28 00:38:07.78	297.53	46.57	-44.7	-47.6	16.5	0.00e+00	0	44	0	629145600	60	5176
2026-01-28 00:38:08.78	296.96	46.57	-44.8	-47.8	16.3	0.00e+00	0	44	0	631242752	60	5321
2026-01-28 00:38:09.77	296.39	46.57	-44.4	-47.3	16.8	0.00e+00	0	44	0	632291328	60	4996
2026-01-28 00:38:10.76	295.82	46.56	-44.2	-47.0	17.0	0.00e+00	0	44	0	634388480	60	4833
2026-01-28 00:38:11.76	295.25	46.55	-44.4	-47.2	16.8	0.00e+00	0	44	0	636485632	60	4982
2026-01-28 00:38:12.75	294.69	46.54	-44.6	-47.4	16.7	0.00e+00	0	44	0	638582784	60	5052
2026-01-28 00:38:13.74	294.12	46.52	-44.0	-46.6	17.4	0.00e+00	0	44	0	639631360	60	4632
2026-01-28 00:38:14.73	293.56	46.50	-43.5	-46.0	17.9	0.00e+00	0	44	0	641728512	59	4548
2026-01-28 00:38:15.73	292.99	46.48	-43.3	-45.7	18.1	0.00e+00	0	44	0	643825664	58	4705
2026-01-28 00:38:16.72	292.43	46.46	-43.3	-45.8	18.2	0.00e+00	0	44	0	645922816	58	4706
2026-01-28 00:38:17.71	291.87	46.43	-43.5	-45.9	18.1	0.00e+00	0	44	0	648019968	58	4792
2026-01-28 00:38:18.71	291.30	46.40	-43.9	-46.5	17.5	0.00e+00	0	44	0	649068544	58	5141
2026-01-28 00:38:19.70	290.74	46.36	-44.6	-47.5	16.6	0.00e+00	0	44	0	651165696	59	5430
2026-01-28 00:38:20.69	290.18	46.33	-44.6	-47.5	16.6	0.00e+00	0	44	0	653262848	60	5125
2026-01-28 00:38:21.69	289.62	46.28	-44.4	-47.1	16.9	0.00e+00	0	44	0	655360000	60	4919
2026-01-28 00:38:22.68	289.07	46.24	-43.7	-46.3	17.7	0.00e+00	0	44	0	656408576	59	4723
2026-01-28 00:38:23.67	288.51	46.20	-44.4	-47.2	16.8	0.00e+00	0	44	0	658505728	59	5247
2026-01-28 00:38:24.66	287.96	46.15	-44.2	-46.9	17.1	0.00e+00	0	44	0	660602880	59	5055
2026-01-28 00:38:25.66	287.41	46.10	-44.2	-46.9	17.0	0.00e+00	0	44	0	662700032	59	5072
2026-01-28 00:38:26.65	286.86	46.04	-44.4	-47.2	16.8	0.00e+00	0	44	0	663748608	59	5231
2026-01-28 00:38:27.64	286.31	45.98	-44.8	-47.8	16.1	0.00e+00	0	44	0	665845760	60	5339
2026-01-28 00:38:28.64	285.76	45.92	-44.7	-47.7	16.4	0.00e+00	0	44	0	667942912	61	4950
2026-01-28 00:38:29.63	285.22	45.86	-44.9	-47.9	16.2	0.00e+00	0	44	0	670040064	61	5083
2026-01-28 00:38:30.62	284.68	45.79	-44.7	-47.7	16.4	0.00e+00	0	44	0	672137216	61	4929
2026-01-28 00:38:31.62	284.14	45.73	-44.6	-47.4	16.7	0.00e+00	0	44	0	673185792	60	5096
2026-01-28 00:38:32.61	283.60	45.65	-44.0	-46.6	17.4	0.00e+00	0	44	0	675282944	59	4871
2026-01-28 00:38:33.60	283.07	45.58	-44.0	-46.6	17.5	0.00e+00	0	44	0	677380096	59	4882
2026-01-28 00:38:34.59	282.54	45.51	-44.6	-47.4	16.7	0.00e+00	0	44	0	679477248	60	5095
2026-01-28 00:38:35.59	282.01	45.43	-45.2	-48.2	15.8	0.00e+00	0	44	0	680525824	61	5274
2026-01-28 00:38:36.58	281.48	45.34	-44.4	-47.1	16.9	0.00e+00	0	44	0	682622976	60	4923
2026-01-28 00:38:37.57	280.96	45.26	-43.5	-46.0	17.9	0.00e+00	0	44	0	684720128	59	4552
2026-01-28 00:38:38.56	280.44	45.17	-43.4	-45.8	18.2	0.00e+00	0	44	0	686817280	58	4721
2026-01-28 00:38:39.56	279.92	45.09	-44.0	-46.6	17.3	0.00e+00	0	44	0	687865856	58	5213
2026-01-28 00:38:40.55	279.40	44.99	-44.2	-47.0	17.1	0.00e+00	0	44	0	689963008	59	5109
2026-01-28 00:38:41.54	278.89	44.90	-44.3	-47.1	16.9	0.00e+00	0	44	0	692060160	59	5211
2026-01-28 00:38:42.54	278.38	44.80	-43.9	-46.5	17.5	0.00e+00	0	44	0	694157312	59	4824
2026-01-28 00:38:43.53	277.88	44.71	-44.8	-47.9	16.2	0.00e+00	0	44	0	696254464	60	5351
2026-01-28 00:38:44.52	277.37	44.61	-45.2	-48.5	15.7	0.00e+00	0	44	0	697303040	61	5435
2026-01-28 00:38:45.52	276.87	44.50	-45.3	-48.6	15.5	0.00e+00	0	44	0	699400192	61	5483
2026-01-28 00:38:46.51	276.38	44.40	-44.8	-47.8	16.3	0.00e+00	0	44	0	701497344	61	5034
2026-01-28 00:38:47.50	275.88	44.29	-44.4	-47.3	16.9	0.00e+00	0	44	0	703594496	60	5006
2026-01-28 00:38:48.49	275.40	44.18	-44.9	-47.9	16.2	0.00e+00	0	44	0	704643072	60	5381
2026-01-28 00:38:49.49	274.91	44.07	-45.0	-48.1	16.1	0.00e+00	0	44	0	706740224	61	5189
2026-01-28 00:38:50.48	274.42	43.96	-44.4	-47.1	17.0	0.00e+00	0	44	0	708837376	60	4902
2026-01-28 00:38:51.47	273.95	43.85	-43.5	-45.9	18.0	0.00e+00	0	44	0	710934528	59	4529
2026-01-28 00:38:52.47	273.47	43.73	-43.0	-45.4	18.5	0.00e+00	0	44	0	713031680	58	4494
2026-01-28 00:38:53.46	273.00	43.61	-43.3	-45.7	18.1	0.00e+00	0	44	0	714080256	57	4972
2026-01-28 00:38:54.45	272.53	43.49	-43.4	-45.9	18.0	0.00e+00	0	44	0	716177408	57	5099
2026-01-28 00:38:55.44	272.06	43.37	-44.1	-46.9	17.1	0.00e+00	0	44	0	718274560	58	5357
2026-01-28 00:38:56.44	271.60	43.24	-44.9	-48.0	16.0	0.00e+00	0	44	0	720371712	60	5426
2026-01-28 00:38:57.43	271.14	43.12	-44.3	-47.0	17.0	0.00e+00	0	44	0	722468864	60	4852
2026-01-28 00:38:58.42	270.69	42.99	-43.5	-46.0	17.9	0.00e+00	0	44	0	723517440	59	4574
2026-01-28 00:38:59.42	270.23	42.86	-43.1	-45.5	18.4	0.00e+00	0	44	0	725614592	58	4548
2026-01-28 00:39:00.41	269.79	42.73	-43.4	-45.9	18.0	0.00e+00	0	44	0	727711744	57	5073
2026-01-28 00:39:01.40	269.34	42.60	-43.7	-46.3	17.6	0.00e+00	0	44	0	729808896	58	5025
2026-01-28 00:39:02.39	268.90	42.47	-42.9	-45.3	18.6	0.00e+00	0	44	0	730857472	57	4730
2026-01-28 00:39:03.39	268.47	42.33	-42.4	-44.6	19.2	0.00e+00	0	44	0	732954624	56	4636
2026-01-28 00:39:04.38	268.03	42.20	-42.2	-44.4	19.4	0.00e+00	0	44	0	735051776	56	4505
2026-01-28 00:39:05.37	267.61	42.06	-42.0	-44.2	19.5	0.00e+00	0	44	0	737148928	56	4413
2026-01-28 00:39:06.37	267.18	41.92	-41.5	-43.7	19.8	0.00e+00	0	44	0	739246080	55	4399
2026-01-28 00:39:07.36	266.76	41.78	-40.9	-43.0	20.4	0.00e+00	0	44	0	740294656	53	4560
2026-01-28 00:39:08.35	266.34	41.64	-40.6	-42.6	20.8	0.00e+00	0	44	0	742391808	53	4386
2026-01-28 00:39:09.34	265.93	41.50	-40.5	-42.5	20.9	0.00e+00	0	44	0	744488960	52	4582
2026-01-28 00:39:10.34	265.51	41.35	-40.6	-42.6	20.8	0.00e+00	0	44	0	746586112	52	4619
2026-01-28 00:39:11.33	265.11	41.21	-40.5	-42.4	20.9	0.00e+00	0	44	0	747634688	52	4537
2026-01-28 00:39:12.32	264.70	41.06	-41.0	-43.1	20.4	0.00e+00	0	44	0	749731840	52	4881
2026-01-28 00:39:13.31	264.30	40.92	-41.2	-43.3	20.2	0.00e+00	0	44	0	751828992	52	4995
2026-01-28 00:39:14.31	263.90	40.77	-41.1	-43.2	20.2	0.00e+00	0	44	0	753926144	53	4700
2026-01-28 00:39:15.30	263.51	40.62	-40.8	-42.9	20.6	0.00e+00	0	44	0	754974720	53	4504
2026-01-28 00:39:16.29	263.12	40.47	-40.9	-42.9	20.5	0.00e+00	0	44	0	757071872	53	4535
2026-01-28 00:39:17.29	262.74	40.32	-41.2	-43.3	20.2	0.00e+00	0	44	0	759169024	53	4742
2026-01-28 00:39:18.28	262.35	40.17	-41.5	-43.7	19.8	0.00e+00	0	44	0	761266176	53	4958
2026-01-28 00:39:19.27	261.98	40.02	-41.5	-43.7	19.9	0.00e+00	0	44	0	763363328	53	4933
2026-01-28 00:39:20.27	261.60	39.87	-42.2	-44.5	19.1	0.00e+00	0	44	0	764411904	55	4833
2026-01-28 00:39:21.26	261.23	39.71	-42.9	-45.3	18.6	0.00e+00	0	44	0	766509056	56	5032
2026-01-28 00:39:22.25	260.86	39.56	-43.5	-46.1	17.9	0.00e+00	0	44	0	768606208	58	4879
2026-01-28 00:39:23.24	260.50	39.41	-43.6	-46.2	17.8	0.00e+00	0	44	0	770703360	58	4942
2026-01-28 00:39:24.24	260.14	39.25	-43.2	-45.6	18.3	0.00e+00	0	44	0	771751936	58	4630
2026-01-28 00:39:25.23	259.78	39.09	-43.2	-45.7	18.2	0.00e+00	0	44	0	773849088	57	4936
2026-01-28 00:39:26.22	259.43	38.94	-43.4	-45.8	18.1	0.00e+00	0	44	0	775946240	57	5022
2026-01-28 00:39:27.21	259.08	38.78	-43.2	-45.6	18.3	0.00e+00	0	44	0	778043392	57	4887
2026-01-28 00:39:28.21	258.73	38.62	-43.2	-45.7	18.2	0.00e+00	0	43	0	779091968	57	4933
2026-01-28 00:39:29.20	258.38	38.47	-43.1	-45.5	18.4	0.00e+00	0	44	0	781189120	57	4840
2026-01-28 00:39:30.19	258.04	38.31	-43.5	-46.0	17.9	0.00e+00	0	44	0	783286272	57	5158
2026-01-28 00:39:31.19	257.70	38.15	-43.8	-46.5	17.5	0.00e+00	0	44	0	785383424	58	5148
2026-01-28 00:39:32.18	257.37	37.99	-43.6	-46.2	17.8	0.00e+00	0	44	0	787480576	58	4943
2026-01-28 00:39:33.17	257.04	37.83	-42.9	-45.3	18.5	0.00e+00	0	44	0	788529152	57	4736
2026-01-28 00:39:34.17	256.71	37.67	-42.8	-45.2	18.7	0.00e+00	0	44	0	790626304	57	4667
2026-01-28 00:39:35.16	256.39	37.51	-43.0	-45.4	18.4	0.00e+00	0	44	0	792723456	57	4810
2026-01-28 00:39:36.15	256.07	37.35	-43.5	-46.1	17.8	0.00e+00	0	44	0	794820608	57	5193
2026-01-28 00:39:37.14	255.75	37.19	-42.8	-45.2	18.6	0.00e+00	0	44	0	795869184	57	4666
2026-01-28 00:39:38.14	255.43	37.03	-42.5	-44.7	19.0	0.00e+00	0	44	0	797966336	57	4438
2026-01-28 00:39:39.13	255.12	36.87	-42.5	-44.8	19.1	0.00e+00	0	44	0	800063488	56	4724
2026-01-28 00:39:40.12	254.82	36.71	-42.9	-45.3	18.6	0.00e+00	0	44	0	802160640	56	4986
2026-01-28 00:39:41.11	254.51	36.55	-43.3	-45.7	18.2	0.00e+00	0	44	0	804257792	57	4952
2026-01-28 00:39:42.11	254.21	36.39	-43.4	-45.8	18.2	0.00e+00	0	44	0	805306368	57	5011
2026-01-28 00:39:43.10	253.91	36.22	-43.6	-46.0	17.9	0.00e+00	0	44	0	807403520	57	5137
2026-01-28 00:39:44.09	253.61	36.06	-44.6	-47.5	16.5	0.00e+00	0	44	0	809500672	59	5421
2026-01-28 00:39:45.09	253.32	35.90	-44.9	-47.9	16.2	0.00e+00	0	44	0	811597824	60	5359
2026-01-28 00:39:46.08	253.03	35.74	-45.0	-48.0	16.1	0.00e+00	0	44	0	812646400	60	5441
2026-01-28 00:39:47.07	252.74	35.58	-44.3	-47.1	16.9	0.00e+00	0	44	0	814743552	60	4894
2026-01-28 00:39:48.07	252.45	35.41	-43.9	-46.6	17.4	0.00e+00	0	44	0	816840704	59	4875
2026-01-28 00:39:49.06	252.17	35.25	-44.1	-46.8	17.2	0.00e+00	0	44	0	818937856	59	4990
2026-01-28 00:39:50.05	251.89	35.09	-44.7	-47.6	16.5	0.00e+00	0	44	0	821035008	60	5197
2026-01-28 00:39:51.04	251.62	34.93	-45.0	-48.0	16.0	0.00e+00	0	44	0	822083584	60	5464
2026-01-28 00:39:52.04	251.34	34.77	-45.2	-48.3	15.9	0.00e+00	0	44	0	824180736	61	5284
2026-01-28 00:39:53.03	251.07	34.61	-45.2	-48.2	15.8	0.00e+00	0	44	0	826277888	61	5276
2026-01-28 00:39:54.02	250.80	34.45	-45.7	-49.0	15.1	0.00e+00	0	44	0	828375040	62	5437
2026-01-28 00:39:55.02	250.53	34.28	-46.3	-50.1	14.0	3.80e-06	0	44	0	829423616	63	5811
2026-01-28 00:39:56.01	250.27	34.12	-46.6	-50.6	13.4	1.22e-05	0	44	0	831520768	64	5837
2026-01-28 00:39:57.00	250.01	33.96	-46.4	-50.4	13.6	6.10e-06	0	44	0	833617920	64	5664
2026-01-28 00:39:58.00	249.75	33.80	-45.8	-49.2	14.9	0.00e+00	0	44	0	835715072	63	5258
2026-01-28 00:39:58.99	249.50	33.64	-45.7	-49.0	15.1	0.00e+00	0	44	0	837812224	63	5126
2026-01-28 00:39:59.98	249.24	33.48	-46.0	-49.5	14.6	7.00e-07	0	44	0	838860800	62	5776
2026-01-28 00:40:00.97	248.99	33.32	-46.7	-50.9	13.1	0.00e+00	0	44	0	840957952	64	6015
2026-01-28 00:40:01.97	248.74	33.16	-47.2	-51.7	12.4	1.04e-04	0	44	0	843055104	65	6215
2026-01-28 00:40:02.96	248.50	33.00	-47.2	-51.7	12.3	1.75e-04	0	44	0	845152256	65	6260
2026-01-28 00:40:03.95	248.26	32.84	-46.7	-50.8	13.2	2.97e-05	0	44	0	846200832	65	5630
2026-01-28 00:40:04.95	248.02	32.68	-46.7	-50.9	13.1	1.37e-05	0	44	0	848297984	65	5670
2026-01-28 00:40:05.94	247.78	32.52	-46.2	-50.1	13.9	1.75e-05	0	44	0	850395136	64	5471
2026-01-28 00:40:06.93	247.54	32.37	-46.2	-50.0	14.0	1.50e-06	0	44	0	852492288	64	5429
2026-01-28 00:40:07.92	247.31	32.21	-45.7	-49.2	14.8	3.00e-06	0	44	0	854589440	63	5237
2026-01-28 00:40:08.92	247.08	32.05	-45.5	-48.8	15.2	0.00e+00	0	44	0	855638016	62	5285
2026-01-28 00:40:09.91	246.85	31.89	-45.1	-48.2	15.8	0.00e+00	0	44	0	857735168	62	4983
2026-01-28 00:40:10.90	246.62	31.73	-45.1	-48.2	15.9	0.00e+00	0	44	0	859832320	61	5222
2026-01-28 00:40:11.89	246.40	31.58	-45.1	-48.2	15.8	0.00e+00	0	44	0	861929472	61	5244
2026-01-28 00:40:12.89	246.17	31.42	-45.3	-48.4	16.1	0.00e+00	0	44	0	862978048	61	5364
2026-01-28 00:40:13.88	245.95	31.26	-44.8	-47.6	16.3	0.00e+00	0	44	0	865075200	61	4906
2026-01-28 00:40:14.87	245.74	31.11	-44.4	-47.2	16.8	0.00e+00	0	44	0	867172352	60	4936
2026-01-28 00:40:15.87	245.52	30.95	-44.4	-47.2	16.8	0.00e+00	0	44	0	869269504	60	4958
2026-01-28 00:40:16.86	245.30	30.80	-44.0	-46.7	17.3	0.00e+00	0	44	0	870318080	60	4686
2026-01-28 00:40:17.85	245.09	30.64	-44.3	-47.1	16.9	0.00e+00	0	44	0	872415232	60	4887
2026-01-28 00:40:18.84	244.88	30.49	-44.6	-47.6	16.4	0.00e+00	0	44	0	874512384	60	5168
2026-01-28 00:40:19.84	244.67	30.33	-45.3	-48.6	15.4	0.00e+00	0	44	0	876609536	61	5483
2026-01-28 00:40:20.83	244.47	30.18	-45.3	-48.5	15.5	0.00e+00	0	44	0	878706688	61	5413
2026-01-28 00:40:21.82	244.26	30.03	-44.9	-47.9	16.1	0.00e+00	0	44	0	879755264	61	5059
2026-01-28 00:40:22.82	244.06	29.87	-44.5	-47.2	16.7	0.00e+00	0	44	0	881852416	60	4981
2026-01-28 00:40:23.81	243.86	29.72	-44.5	-47.3	16.6	0.00e+00	0	44	0	883949568	60	5028
2026-01-28 00:40:24.80	243.66	29.57	-44.4	-47.1	16.9	0.00e+00	0	44	0	886046720	60	4910
2026-01-28 00:40:25.80	243.47	29.42	-44.7	-47.5	16.4	0.00e+00	0	44	0	887095296	60	5158
2026-01-28 00:40:26.79	243.27	29.27	-44.9	-47.9	16.1	0.00e+00	0	44	0	889192448	60	5393
2026-01-28 00:40:27.78	243.08	29.12	-44.9	-47.8	16.2	0.00e+00	0	44	0	891289600	60	5325
2026-01-28 00:40:28.78	242.89	28.96	-44.9	-47.9	15.9	0.00e+00	0	44	0	893386752	60	5396
2026-01-28 00:40:29.77	242.70	28.81	-44.8	-47.7	16.3	0.00e+00	0	44	0	895483904	60	5250
2026-01-28 00:40:30.76	242.51	28.67	-44.8	-47.7	16.2	0.00e+00	0	44	0	896532480	60	5278
2026-01-28 00:40:31.75	242.33	28.52	-44.6	-47.5	16.5	0.00e+00	0	44	0	898629632	60	5108
2026-01-28 00:40:32.75	242.14	28.37	-44.8	-47.8	16.2	0.00e+00	0	44	0	900726784	60	5280
2026-01-28 00:40:33.74	241.96	28.22	-44.6	-47.5	16.5	0.00e+00	0	44	0	902823936	60	5107
2026-01-28 00:40:34.73	241.78	28.07	-44.8	-47.7	16.3	0.00e+00	0	44	0	903872512	60	5238
2026-01-28 00:40:35.72	241.60	27.93	-44.5	-47.4	16.6	0.00e+00	0	44	0	905969664	60	5049
2026-01-28 00:40:36.72	241.42	27.78	-44.2	-47.0	16.9	0.00e+00	0	44	0	908066816	60	4857
2026-01-28 00:40:37.71	241.25	27.63	-44.5	-47.4	16.5	0.00e+00	0	44	0	910163968	60	5088
2026-01-28 00:40:38.70	241.08	27.49	-44.5	-47.4	16.5	0.00e+00	0	44	0	912261120	60	5096
2026-01-28 00:40:39.70	240.90	27.34	-44.3	-47.3	16.7	0.00e+00	0	44	0	913309696	60	4994
2026-01-28 00:40:40.69	240.73	27.20	-44.3	-47.2	16.8	0.00e+00	0	44	0	915406848	60	4946
2026-01-28 00:40:41.68	240.56	27.05	-44.1	-46.8	17.1	0.00e+00	0	44	0	917504000	60	4755
2026-01-28 00:40:42.68	240.39	26.91	-43.8	-46.4	17.4	0.00e+00	0	44	0	919601152	59	4804
2026-01-28 00:40:43.67	240.23	26.76	-44.3	-47.1	16.8	0.00e+00	0	44	0	920649728	59	5186
2026-01-28 00:40:44.66	240.07	26.62	-44.3	-47.1	16.8	0.00e+00	0	44	0	922746880	59	5176
2026-01-28 00:40:45.66	239.90	26.48	-44.6	-47.4	16.5	0.00e+00	0	44	0	924844032	59	5381
2026-01-28 00:40:46.65	239.74	26.34	-44.5	-47.3	16.6	0.00e+00	0	44	0	926941184	59	5325
2026-01-28 00:40:47.64	239.58	26.20	-44.9	-48.0	16.0	0.00e+00	0	44	0	929038336	60	5422
2026-01-28 00:40:48.63	239.42	26.06	-44.8	-47.8	16.1	0.00e+00	0	44	0	930086912	61	5007
2026-01-28 00:40:49.63	239.26	25.91	-44.7	-47.7	16.2	0.00e+00	0	44	0	932184064	61	4982
2026-01-28 00:40:50.62	239.11	25.77	-44.7	-47.7	16.3	0.00e+00	0	44	0	934281216	61	4937
2026-01-28 00:40:51.61	238.95	25.64	-44.0	-46.8	17.1	0.00e+00	0	44	0	936378368	60	4738
2026-01-28 00:40:52.60	238.80	25.50	-43.7	-46.4	17.5	0.00e+00	0	44	0	937426944	59	4770
2026-01-28 00:40:53.60	238.65	25.36	-43.2	-45.7	18.1	0.00e+00	0	44	0	939524096	58	4660
2026-01-28 00:40:54.59	238.50	25.22	-43.2	-45.7	18.1	0.00e+00	0	44	0	941621248	58	4666
2026-01-28 00:40:55.58	238.35	25.08	-42.9	-45.3	18.4	0.00e+00	0	44	0	943718400	57	4749
2026-01-28 00:40:56.58	238.20	24.95	-43.1	-45.6	18.2	0.00e+00	0	44	0	945815552	57	4876
2026-01-28 00:40:57.57	238.05	24.81	-43.5	-46.1	17.6	0.00e+00	0	44	0	946864128	57	5191
2026-01-28 00:40:58.56	237.91	24.67	-43.8	-46.5	17.4	0.00e+00	0	44	0	948961280	58	5133
2026-01-28 00:40:59.55	237.77	24.54	-44.2	-47.0	16.9	0.00e+00	0	44	0	951058432	59	5110
2026-01-28 00:41:00.55	237.62	24.40	-44.3	-47.1	16.7	0.00e+00	0	44	0	953155584	59	5187
2026-01-28 00:41:01.54	237.48	24.27	-44.7	-47.6	16.3	0.00e+00	0	44	0	954204160	59	5479
2026-01-28 00:41:02.53	237.34	24.14	-44.3	-47.1	16.7	0.00e+00	0	44	0	956301312	59	5210
2026-01-28 00:41:03.53	237.20	24.00	-44.2	-47.0	17.0	0.00e+00	0	44	0	958398464	59	5124
2026-01-28 00:41:04.52	237.06	23.87	-44.4	-47.2	16.7	0.00e+00	0	44	0	960495616	59	5260
2026-01-28 00:41:05.51	236.93	23.74	-44.6	-47.4	16.4	0.00e+00	0	44	0	961544192	59	5370
2026-01-28 00:41:06.51	236.79	23.60	-44.8	-47.8	16.0	0.00e+00	0	44	0	963641344	60	5294
2026-01-28 00:41:07.50	236.66	23.47	-45.0	-48.1	15.9	0.00e+00	0	44	0	965738496	60	5493
2026-01-28 00:41:08.49	236.52	23.34	-45.2	-48.4	15.5	0.00e+00	0	44	0	967835648	61	5372
2026-01-28 00:41:09.49	236.39	23.21	-45.4	-48.7	15.3	0.00e+00	0	44	0	969932800	61	5562
2026-01-28 00:41:10.48	236.26	23.08	-45.7	-49.2	14.8	0.00e+00	0	44	0	970981376	62	5530
2026-01-28 00:41:11.47	236.13	22.95	-45.4	-48.6	15.4	0.00e+00	0	44	0	973078528	62	5218
2026-01-28 00:41:12.47	236.00	22.82	-45.0	-48.2	15.8	0.00e+00	0	44	0	975175680	62	4928
2026-01-28 00:41:13.46	235.87	22.69	-44.8	-47.8	16.1	0.00e+00	0	44	0	977272832	61	5008
2026-01-28 00:41:14.45	235.75	22.57	-44.4	-47.3	16.6	0.00e+00	0	44	0	978321408	60	5014
2026-01-28 00:41:15.44	235.62	22.44	-44.0	-46.8	17.1	0.00e+00	0	44	0	980418560	60	4714
2026-01-28 00:41:16.44	235.50	22.31	-44.0	-46.7	17.1	0.00e+00	0	44	0	982515712	59	4951
2026-01-28 00:41:17.43	235.37	22.19	-44.0	-46.7	17.2	0.00e+00	0	44	0	984612864	59	4937
2026-01-28 00:41:18.42	235.25	22.06	-43.8	-46.4	17.4	0.00e+00	0	44	0	986710016	59	4783
2026-01-28 00:41:19.42	235.13	21.93	-43.7	-46.3	17.4	0.00e+00	0	44	0	987758592	59	4750
2026-01-28 00:41:20.41	235.01	21.81	-43.5	-46.1	17.6	0.00e+00	0	44	0	989855744	59	4619
2026-01-28 00:41:21.40	234.89	21.68	-43.5	-46.1	17.7	0.00e+00	0	44	0	991952896	58	4888
2026-01-28 00:41:22.40	234.77	21.56	-43.6	-46.2	17.6	0.00e+00	0	44	0	994050048	58	4944
2026-01-28 00:41:23.39	234.65	21.44	-43.4	-46.0	17.7	0.00e+00	0	44	0	995098624	58	4839
2026-01-28 00:41:24.38	234.54	21.31	-43.6	-46.3	17.5	0.00e+00	0	44	0	997195776	58	4994
2026-01-28 00:41:25.37	234.42	21.19	-43.8	-46.4	17.4	0.00e+00	0	44	0	999292928	58	5077
2026-01-28 00:41:26.37	234.30	21.07	-43.8	-46.5	17.3	0.00e+00	0	44	0	1001390080	58	5133
2026-01-28 00:41:27.36	234.19	20.95	-43.8	-46.5	17.3	0.00e+00	0	44	0	1003487232	58	5135
2026-01-28 00:41:28.35	234.08	20.83	-44.0	-46.7	17.1	0.00e+00	0	44	0	1004535808	58	5275
2026-01-28 00:41:29.35	233.97	20.70	-43.9	-46.6	17.2	0.00e+00	0	44	0	1006632960	58	5206
2026-01-28 00:41:30.34	233.85	20.58	-43.9	-46.6	17.2	0.00e+00	0	44	0	1008730112	58	5210
2026-01-28 00:41:31.33	233.74	20.46	-43.9	-46.6	17.2	0.00e+00	0	44	0	1010827264	59	4909
2026-01-28 00:41:32.32	233.64	20.34	-44.0	-46.6	17.1	0.00e+00	0	44	0	1011875840	59	4926
2026-01-28 00:41:33.32	233.53	20.23	-43.8	-46.5	17.3	0.00e+00	0	44	0	1013972992	59	4815
2026-01-28 00:41:34.31	233.42	20.11	-43.6	-46.2	17.6	0.00e+00	0	44	0	1016070144	59	4681
2026-01-28 00:41:35.30	233.31	19.99	-43.5	-46.0	17.7	0.00e+00	0	44	0	1018167296	58	4850
2026-01-28 00:41:36.30	233.21	19.87	-43.3	-45.9	17.9	0.00e+00	0	44	0	1020264448	58	4769
2026-01-28 00:41:37.29	233.10	19.75	-43.5	-46.1	17.7	0.00e+00	0	44	0	1021313024	58	4892
2026-01-28 00:41:38.28	233.00	19.64	-43.6	-46.2	17.6	0.00e+00	0	44	0	1023410176	58	4938
2026-01-28 00:41:39.27	232.89	19.52	-43.9	-46.5	17.3	0.00e+00	0	44	0	1025507328	58	5135
2026-01-28 00:41:40.27	232.79	19.40	-43.9	-46.6	17.2	0.00e+00	0	44	0	1027604480	58	5168
2026-01-28 00:41:41.26	232.69	19.29	-44.3	-47.1	16.7	0.00e+00	0	44	0	1028653056	59	5187
2026-01-28 00:41:42.25	232.59	19.17	-44.4	-47.2	16.6	0.00e+00	0	44	0	1030750208	59	5242
2026-01-28 00:41:43.25	232.49	19.06	-44.7	-47.7	16.1	0.00e+00	0	44	0	1032847360	60	5237
2026-01-28 00:41:44.24	232.39	18.95	-44.9	-48.0	15.9	0.00e+00	0	44	0	1034944512	60	5407
2026-01-28 00:41:45.23	232.29	18.83	-45.0	-48.1	15.8	0.00e+00	0	44	0	1037041664	60	5476
2026-01-28 00:41:46.22	232.19	18.72	-45.1	-48.2	15.5	0.00e+00	0	44	0	1038090240	61	5271
2026-01-28 00:41:47.22	232.09	18.61	-44.9	-48.1	15.8	0.00e+00	0	44	0	1040187392	61	5165
2026-01-28 00:41:48.21	232.00	18.49	-44.9	-48.0	15.9	0.00e+00	0	44	0	1042284544	61	5141
2026-01-28 00:41:49.20	231.90	18.38	-44.9	-48.0	15.8	0.00e+00	0	44	0	1044381696	61	5153
2026-01-28 00:41:50.20	231.80	18.27	-44.8	-47.9	15.9	0.00e+00	0	44	0	1045430272	61	5061
2026-01-28 00:41:51.19	231.71	18.16	-44.8	-47.9	15.9	0.00e+00	0	44	0	1047527424	61	5077
2026-01-28 00:41:52.18	231.62	18.05	-44.8	-47.8	16.0	0.00e+00	0	44	0	1049624576	61	5036
2026-01-28 00:41:53.18	231.52	17.94	-44.8	-47.9	15.9	0.00e+00	0	44	0	1051721728	61	5058
2026-01-28 00:41:54.17	231.43	17.83	-44.7	-47.7	16.2	0.00e+00	0	44	0	1053818880	61	4964
2026-01-28 00:41:55.16	231.34	17.72	-44.8	-47.8	16.1	0.00e+00	0	44	0	1054867456	61	5015
2026-01-28 00:41:56.15	231.25	17.61	-44.4	-47.4	16.4	0.00e+00	0	44	0	1056964608	60	5053
2026-01-28 00:41:57.15	231.16	17.50	-44.2	-47.1	16.7	0.00e+00	0	44	0	1059061760	60	4887
2026-01-28 00:41:58.14	231.07	17.39	-44.1	-46.9	16.9	0.00e+00	0	44	0	1061158912	60	4793
2026-01-28 00:41:59.13	230.98	17.28	-44.1	-46.8	17.0	0.00e+00	0	44	0	1062207488	60	4733
2026-01-28 00:42:00.13	230.89	17.18	-44.0	-46.7	17.1	0.00e+00	0	44	0	1064304640	59	4932
2026-01-28 00:42:01.12	230.80	17.07	-43.7	-46.3	17.3	0.00e+00	0	44	0	1066401792	59	4755
2026-01-28 00:42:02.11	230.71	16.96	-43.8	-46.4	17.3	0.00e+00	0	44	0	1068498944	59	4800
2026-01-28 00:42:03.11	230.63	16.86	-43.8	-46.4	17.3	0.00e+00	0	44	0	1069547520	59	4804
2026-01-28 00:42:04.10	230.54	16.75	-43.8	-46.5	17.2	0.00e+00	0	44	0	1071644672	59	4822
2026-01-28 00:42:05.09	230.46	16.65	-43.9	-46.6	17.1	0.00e+00	0	44	0	1073741824	59	4902
2026-01-28 00:42:06.09	230.37	16.54	-44.0	-46.8	16.9	0.00e+00	0	44	0	1075838976	59	5021
2026-01-28 00:42:07.08	230.29	16.44	-44.1	-46.9	16.8	0.00e+00	0	44	0	1077936128	59	5066
2026-01-28 00:42:08.07	230.20	16.33	-44.3	-47.2	16.6	0.00e+00	0	44	0	1078984704	59	5222
2026-01-28 00:42:09.06	230.12	16.23	-44.3	-47.2	16.5	0.00e+00	0	44	0	1081081856	59	5246
2026-01-28 00:42:10.06	230.04	16.12	-44.4	-47.4	16.4	0.00e+00	0	44	0	1083179008	59	5348
2026-01-28 00:42:11.05	229.96	16.02	-44.3	-47.2	16.5	0.00e+00	0	44	0	1085276160	59	5256
2026-01-28 00:42:12.04	229.88	15.92	-44.4	-47.3	16.4	0.00e+00	0	44	0	1086324736	59	5338
2026-01-28 00:42:13.03	229.80	15.82	-44.3	-47.2	16.6	0.00e+00	0	44	0	1088421888	59	5227
2026-01-28 00:42:14.03	229.72	15.71	-44.3	-47.2	16.5	0.00e+00	0	44	0	1090519040	59	5234
2026-01-28 00:42:15.02	229.64	15.61	-44.1	-47.0	16.8	0.00e+00	0	44	0	1092616192	59	5108
2026-01-28 00:42:16.01	229.56	15.51	-44.0	-46.8	16.9	0.00e+00	0	44	0	1094713344	59	5025
2026-01-28 00:42:17.00	229.48	15.41	-43.9	-46.7	17.0	0.00e+00	0	44	0	1095761920	59	4961
2026-01-28 00:42:18.00	229.40	15.31	-44.0	-46.9	16.8	0.00e+00	0	44	0	1097859072	59	5057
2026-01-28 00:42:18.99	229.32	15.21	-44.0	-46.8	16.9	0.00e+00	0	44	0	1099956224	59	4995
2026-01-28 00:42:19.98	229.25	15.11	-44.0	-46.8	16.8	0.00e+00	0	44	0	1102053376	59	5037
2026-01-28 00:42:20.98	229.17	15.01	-44.2	-47.0	16.6	0.00e+00	0	44	0	1103101952	59	5149
2026-01-28 00:42:21.97	229.10	14.91	-44.2	-47.1	16.6	0.00e+00	0	44	0	1105199104	59	5169
2026-01-28 00:42:22.96	229.02	14.81	-44.3	-47.1	16.6	0.00e+00	0	44	0	1107296256	59	5205
2026-01-28 00:42:23.96	228.95	14.71	-44.6	-47.6	16.1	0.00e+00	0	44	0	1109393408	59	5520
2026-01-28 00:42:24.95	228.87	14.61	-44.6	-47.6	16.1	0.00e+00	0	44	0	1111490560	60	5202
2026-01-28 00:42:25.94	228.80	14.52	-44.7	-47.8	15.9	0.00e+00	0	44	0	1112539136	60	5318
2026-01-28 00:42:26.94	228.72	14.42	-45.0	-48.3	15.4	0.00e+00	0	44	0	1114636288	60	5638
2026-01-28 00:42:27.93	228.65	14.32	-45.1	-48.4	15.4	0.00e+00	0	44	0	1116733440	61	5380
2026-01-28 00:42:28.92	228.58	14.23	-45.4	-48.9	14.8	0.00e+00	0	44	0	1118830592	61	5693
2026-01-28 00:42:29.91	228.51	14.13	-45.4	-48.9	14.8	7.00e-07	0	44	0	1119879168	61	5693
2026-01-28 00:42:30.91	228.44	14.03	-45.5	-49.0	14.7	7.00e-07	0	44	0	1121976320	61	5780
2026-01-28 00:42:31.90	228.37	13.94	-45.4	-49.0	14.8	7.00e-07	0	44	0	1124073472	61	5724
2026-01-28 00:42:32.89	228.30	13.84	-45.5	-49.1	14.7	0.00e+00	0	44	0	1126170624	61	5824
2026-01-28 00:42:33.88	228.23	13.75	-45.5	-49.1	14.7	0.00e+00	0	44	0	1128267776	61	5810
2026-01-28 00:42:34.88	228.16	13.65	-45.4	-48.9	14.8	7.00e-07	0	44	0	1129316352	61	5720
2026-01-28 00:42:35.87	228.09	13.56	-45.4	-48.9	14.8	0.00e+00	0	44	0	1131413504	61	5692
2026-01-28 00:42:36.86	228.02	13.46	-45.3	-48.8	14.9	0.00e+00	0	44	0	1133510656	61	5614
2026-01-28 00:42:37.86	227.95	13.37	-45.1	-48.5	15.3	0.00e+00	0	44	0	1135607808	61	5413
2026-01-28 00:42:38.85	227.88	13.28	-45.0	-48.4	15.3	0.00e+00	0	44	0	1136656384	61	5369
2026-01-28 00:42:39.84	227.82	13.18	-44.9	-48.2	15.5	0.00e+00	0	44	0	1138753536	61	5264
2026-01-28 00:42:40.83	227.75	13.09	-44.9	-48.3	15.5	0.00e+00	0	44	0	1140850688	61	5285
2026-01-28 00:42:41.83	227.68	13.00	-45.0	-48.3	15.4	0.00e+00	0	44	0	1142947840	61	5326
2026-01-28 00:42:42.82	227.62	12.91	-45.0	-48.2	15.5	0.00e+00	0	44	0	1145044992	61	5273
2026-01-28 00:42:43.81	227.55	12.81	-44.9	-48.1	15.6	0.00e+00	0	44	0	1146093568	61	5171
2026-01-28 00:42:44.81	227.49	12.72	-44.9	-48.1	15.6	0.00e+00	0	44	0	1148190720	61	5218
2026-01-28 00:42:45.80	227.42	12.63	-45.0	-48.3	15.4	0.00e+00	0	44	0	1150287872	61	5303
2026-01-28 00:42:46.79	227.36	12.54	-44.9	-48.2	15.6	0.00e+00	0	44	0	1152385024	61	5227
2026-01-28 00:42:47.78	227.30	12.45	-44.8	-47.9	15.8	0.00e+00	0	44	0	1153433600	61	5079
2026-01-28 00:42:48.78	227.23	12.36	-44.8	-47.9	15.8	0.00e+00	0	44	0	1155530752	61	5085
2026-01-28 00:42:49.77	227.17	12.27	-44.8	-48.0	15.7	0.00e+00	0	44	0	1157627904	61	5123
2026-01-28 00:42:50.76	227.11	12.18	-44.7	-47.9	15.8	0.00e+00	0	44	0	1159725056	61	5052
2026-01-28 00:42:51.76	227.04	12.09	-44.8	-48.0	15.7	0.00e+00	0	44	0	1160773632	61	5133
2026-01-28 00:42:52.75	226.98	12.00	-44.8	-48.0	15.7	0.00e+00	0	44	0	1162870784	61	5128
2026-01-28 00:42:53.74	226.92	11.91	-44.9	-48.1	15.6	0.00e+00	0	44	0	1164967936	61	5170
2026-01-28 00:42:54.73	226.86	11.82	-44.8	-48.0	15.7	0.00e+00	0	44	0	1167065088	61	5111
2026-01-28 00:42:55.73	226.80	11.73	-44.9	-48.1	15.6	0.00e+00	0	44	0	1169162240	61	5186
2026-01-28 00:42:56.72	226.74	11.65	-44.9	-48.1	15.6	0.00e+00	0	44	0	1170210816	61	5180
2026-01-28 00:42:57.71	226.68	11.56	-44.9	-48.1	15.5	0.00e+00	0	44	0	1172307968	61	5208
2026-01-28 00:42:58.71	226.62	11.47	-44.8	-48.1	15.6	0.00e+00	0	44	0	1174405120	61	5172
2026-01-28 00:42:59.70	226.56	11.38	-44.9	-48.1	15.5	0.00e+00	0	44	0	1176502272	61	5211
2026-01-28 00:43:00.69	226.50	11.30	-44.9	-48.1	15.6	0.00e+00	0	44	0	1177550848	61	5204
2026-01-28 00:43:01.68	226.44	11.21	-44.9	-48.2	15.5	0.00e+00	0	44	0	1179648000	61	5238
2026-01-28 00:43:02.68	226.39	11.12	-44.9	-48.2	15.5	0.00e+00	0	44	0	1181745152	61	5224
2026-01-28 00:43:03.67	226.33	11.04	-44.8	-47.9	15.7	0.00e+00	0	44	0	1183842304	61	5095
2026-01-28 00:43:04.66	226.27	10.95	-45.0	-48.2	15.4	0.00e+00	0	44	0	1185939456	61	5273
2026-01-28 00:43:05.66	226.21	10.87	-45.0	-48.2	15.4	0.00e+00	0	44	0	1186988032	61	5259
2026-01-28 00:43:06.65	226.16	10.78	-44.8	-48.0	15.6	0.00e+00	0	44	0	1189085184	61	5119
2026-01-28 00:43:07.64	226.10	10.70	-45.0	-48.2	15.4	0.00e+00	0	44	0	1191182336	61	5259
2026-01-28 00:43:08.63	226.05	10.61	-45.0	-48.3	15.3	0.00e+00	0	44	0	1193279488	61	5302
2026-01-28 00:43:09.63	225.99	10.53	-44.9	-48.1	15.5	0.00e+00	0	44	0	1194328064	61	5176
2026-01-28 00:43:10.62	225.93	10.44	-45.1	-48.3	15.3	0.00e+00	0	44	0	1196425216	61	5340
2026-01-28 00:43:11.61	225.88	10.36	-45.0	-48.2	15.3	0.00e+00	0	44	0	1198522368	61	5270
2026-01-28 00:43:12.61	225.82	10.28	-45.1	-48.5	15.1	0.00e+00	0	44	0	1200619520	61	5415
2026-01-28 00:43:13.60	225.77	10.19	-45.1	-48.4	15.2	0.00e+00	0	44	0	1202716672	61	5384
2026-01-28 00:43:14.59	225.72	10.11	-45.1	-48.4	15.2	0.00e+00	0	44	0	1203765248	61	5383
2026-01-28 00:43:15.59	225.66	10.03	-45.2	-48.6	15.0	0.00e+00	0	44	0	1205862400	61	5495
2026-01-28 00:43:16.58	225.61	9.94	-45.2	-48.6	14.9	0.00e+00	0	44	0	1207959552	61	5524
2026-01-28 00:43:17.57	225.56	9.86	-45.1	-48.4	15.2	0.00e+00	0	44	0	1210056704	61	5397
