passes_logs/2026/01/19/R4.6S_Anadyr/R4.6S_Anadyr__20260119_200813_SUOMI_NPP_rec.log

#Pass ID: 20260119_200813_SUOMI NPP
#Satellite: SUOMI NPP
#Configuration: NPP
#almurnet v.1.7.20251203
#Start time: 2026-01-19 20:08:15

#Version: 2.2.20231116
#Station: R4.6S_Anadyr
#Location: 177.4865 lon 64.73178 lat
#TLE: 1 37849U 11061A   26019.26265094  .00000081  00000+0  59609-4 0  9993
#TLE: 2 37849  98.7817 321.2746 0002356  56.2510 303.8890 14.19526363737315

#Time	Az	El	Level	Level2	SNR	BER	BlckErr	Temp	State	Recorded	gain1	gain2
2026-01-19 20:08:15.30	63.20	0.11	-50.7	-62.3	3.4	8.45e-01	0	38	0	0	60	46939
2026-01-19 20:08:16.31	63.13	0.16	-52.1	-67.2	3.6	1.51e+00	0	39	104	0	60	83279
2026-01-19 20:08:17.32	63.05	0.21	-51.8	-67.1	3.6	1.51e+00	0	39	104	0	60	81892
2026-01-19 20:08:18.33	62.97	0.26	-51.1	-66.3	3.6	1.51e+00	0	39	104	0	60	74306
2026-01-19 20:08:19.34	62.90	0.30	-50.5	-65.7	3.6	1.51e+00	0	39	104	0	60	69643
2026-01-19 20:08:20.35	62.82	0.35	-50.2	-65.4	3.6	1.51e+00	0	39	104	0	60	67672
2026-01-19 20:08:21.36	62.75	0.40	-50.0	-65.3	3.6	1.51e+00	0	39	104	0	60	66685
2026-01-19 20:08:22.37	62.67	0.45	-50.0	-65.3	3.6	1.51e+00	0	39	104	0	60	66358
2026-01-19 20:08:23.38	62.59	0.50	-50.0	-65.2	3.6	1.51e+00	0	39	104	0	60	65849
2026-01-19 20:08:24.39	62.51	0.55	-50.0	-65.2	3.6	1.51e+00	0	39	104	0	60	65784
2026-01-19 20:08:25.40	62.44	0.60	-50.0	-65.2	3.6	1.51e+00	0	39	104	0	60	65490
2026-01-19 20:08:26.41	62.36	0.65	-50.0	-65.2	3.6	1.51e+00	0	40	104	0	60	65996
2026-01-19 20:08:27.42	62.28	0.70	-49.9	-65.2	3.6	1.51e+00	0	39	104	0	60	65650
2026-01-19 20:08:28.43	62.20	0.75	-49.8	-65.1	3.6	1.51e+00	0	40	104	0	60	64918
2026-01-19 20:08:29.44	62.12	0.80	-49.9	-65.1	3.6	1.51e+00	0	40	104	0	60	64969
2026-01-19 20:08:30.45	62.04	0.85	-49.8	-65.0	3.6	1.51e+00	0	40	104	0	60	64595
2026-01-19 20:08:31.46	61.96	0.90	-49.7	-65.0	3.6	1.51e+00	0	40	104	0	60	64162
2026-01-19 20:08:32.47	61.88	0.95	-49.7	-64.9	3.6	1.51e+00	0	40	104	0	60	63733
2026-01-19 20:08:33.48	61.80	1.00	-49.5	-64.9	3.6	1.51e+00	0	40	104	0	60	63415
2026-01-19 20:08:34.49	61.72	1.05	-49.6	-64.8	3.6	1.51e+00	0	40	104	0	60	62968
2026-01-19 20:08:35.50	61.64	1.10	-49.5	-64.7	3.6	1.51e+00	0	40	104	0	60	62104
2026-01-19 20:08:36.51	61.56	1.15	-49.3	-64.6	3.6	1.51e+00	0	40	104	0	60	61173
2026-01-19 20:08:37.52	61.48	1.20	-49.1	-64.3	3.6	1.51e+00	0	40	104	0	60	59625
2026-01-19 20:08:38.53	61.40	1.25	-48.8	-64.0	3.6	1.51e+00	0	40	104	0	60	57315
2026-01-19 20:08:39.54	61.32	1.30	-48.4	-63.7	3.6	1.51e+00	0	40	104	0	60	55137
2026-01-19 20:08:40.55	61.24	1.35	-48.1	-63.3	3.6	1.51e+00	0	40	104	0	60	52695
2026-01-19 20:08:41.56	61.16	1.40	-48.1	-63.3	3.6	1.51e+00	0	40	104	0	60	52802
2026-01-19 20:08:42.57	61.07	1.45	-48.1	-63.3	3.6	1.51e+00	0	40	104	0	60	52794
2026-01-19 20:08:43.58	60.99	1.50	-48.1	-63.3	3.6	1.51e+00	0	40	104	0	60	52650
2026-01-19 20:08:44.59	60.91	1.55	-48.1	-63.2	3.6	1.51e+00	0	40	104	0	60	52439
2026-01-19 20:08:45.60	60.82	1.60	-48.1	-63.2	3.6	1.51e+00	0	40	104	0	60	52129
2026-01-19 20:08:46.61	60.74	1.65	-48.1	-63.2	3.6	1.51e+00	0	40	104	0	60	52281
2026-01-19 20:08:47.62	60.66	1.70	-48.1	-63.2	3.6	1.51e+00	0	40	104	0	60	52337
2026-01-19 20:08:48.63	60.57	1.76	-48.1	-63.2	3.6	1.51e+00	0	40	104	0	60	52427
2026-01-19 20:08:49.64	60.49	1.81	-48.1	-63.2	3.6	1.51e+00	0	40	104	0	60	52480
2026-01-19 20:08:50.65	60.40	1.86	-48.1	-63.2	3.6	1.51e+00	0	40	104	0	60	52447
2026-01-19 20:08:51.66	60.32	1.91	-48.1	-63.1	3.6	1.51e+00	0	40	104	0	60	51556
2026-01-19 20:08:52.67	60.23	1.96	-48.1	-63.2	3.6	1.51e+00	0	40	104	0	60	52019
2026-01-19 20:08:53.68	60.15	2.01	-48.1	-62.9	3.6	1.51e+00	0	40	104	0	60	50626
2026-01-19 20:08:54.69	60.06	2.06	-48.1	-63.2	3.6	1.51e+00	0	40	104	0	60	51971
2026-01-19 20:08:55.70	59.97	2.11	-48.1	-63.2	3.6	1.51e+00	0	40	104	0	60	51975
2026-01-19 20:08:56.71	59.89	2.16	-48.0	-62.5	3.6	1.51e+00	0	40	104	0	60	48374
2026-01-19 20:08:57.72	59.80	2.21	-48.1	-63.0	3.6	1.51e+00	0	40	104	0	60	51211
2026-01-19 20:08:58.73	59.71	2.26	-48.1	-63.1	3.6	1.51e+00	0	40	104	0	60	51937
2026-01-19 20:08:59.74	59.63	2.31	-48.1	-63.3	3.6	1.51e+00	0	40	104	0	60	52709
2026-01-19 20:09:00.75	59.54	2.36	-48.1	-63.2	3.6	1.51e+00	0	40	104	0	60	52432
2026-01-19 20:09:01.76	59.45	2.41	-48.1	-63.2	3.6	1.51e+00	0	40	104	0	60	52466
2026-01-19 20:09:02.77	59.36	2.46	-48.1	-63.2	3.6	1.51e+00	0	40	104	0	60	52460
2026-01-19 20:09:03.78	59.27	2.52	-48.1	-63.3	3.6	1.51e+00	0	40	104	0	60	52590
2026-01-19 20:09:04.79	59.18	2.57	-48.1	-63.2	3.6	1.51e+00	0	40	104	0	60	52149
2026-01-19 20:09:05.80	59.09	2.62	-48.0	-62.4	3.6	1.51e+00	0	40	104	0	60	47689
2026-01-19 20:09:06.81	59.00	2.67	-48.0	-61.9	3.6	1.51e+00	0	40	104	0	60	45169
2026-01-19 20:09:07.82	58.91	2.72	-48.0	-61.8	3.6	1.51e+00	0	40	104	0	60	44446
2026-01-19 20:09:08.83	58.82	2.77	-48.0	-61.6	3.6	1.51e+00	0	40	104	0	60	43440
2026-01-19 20:09:09.84	58.73	2.82	-48.0	-62.8	3.6	1.51e+00	0	40	104	0	60	50069
2026-01-19 20:09:10.85	58.64	2.87	-48.0	-62.5	3.6	1.51e+00	0	40	104	0	60	48341
2026-01-19 20:09:11.86	58.55	2.92	-48.0	-60.8	3.7	1.51e+00	0	40	104	0	60	39716
2026-01-19 20:09:12.87	58.46	2.97	-47.3	-54.6	6.7	5.15e-01	0	40	0	0	60	19334
2026-01-19 20:09:13.88	58.37	3.03	-47.3	-54.1	7.0	1.25e-01	92	40	0	2097152	60	18303
2026-01-19 20:09:14.89	58.27	3.08	-48.3	-63.1	3.6	1.85e-01	0	40	104	3145728	60	51809
2026-01-19 20:09:15.90	58.18	3.13	-48.1	-62.9	3.6	1.51e+00	0	40	104	3145728	60	50593
2026-01-19 20:09:16.91	58.09	3.18	-46.9	-53.1	8.3	1.49e+00	11	40	104	3145728	60	16384
2026-01-19 20:09:17.92	57.99	3.23	-43.2	-45.3	16.9	4.34e-05	0	40	0	3145728	60	6656
2026-01-19 20:09:18.93	57.90	3.28	-47.9	-62.4	3.6	2.44e-01	0	40	104	4194304	60	47664
2026-01-19 20:09:19.94	57.81	3.33	-44.6	-47.6	14.7	1.51e+00	2	40	104	4194304	60	8638
2026-01-19 20:09:20.95	57.71	3.38	-44.0	-46.5	16.1	0.00e+00	90	40	0	4194304	60	7638
2026-01-19 20:09:21.96	57.62	3.44	-44.1	-46.6	15.5	0.00e+00	0	40	0	6291456	60	7719
2026-01-19 20:09:22.97	57.52	3.49	-43.3	-45.4	16.8	0.00e+00	0	40	0	8388608	60	6727
2026-01-19 20:09:23.98	57.43	3.54	-45.1	-48.2	14.1	1.50e-06	90	40	0	10485760	60	9304
2026-01-19 20:09:24.99	57.33	3.59	-44.2	-46.8	15.4	0.00e+00	0	40	0	11534336	60	7931
2026-01-19 20:09:26.00	57.24	3.64	-43.5	-45.7	16.6	0.00e+00	47	40	0	13631488	60	6974
2026-01-19 20:09:27.01	57.14	3.69	-44.8	-47.7	14.0	0.00e+00	0	40	0	15728640	60	8802
2026-01-19 20:09:28.02	57.04	3.74	-43.9	-46.3	16.2	7.00e-07	92	40	0	17825792	60	7486
2026-01-19 20:09:29.02	56.95	3.80	-43.8	-46.1	16.2	0.00e+00	0	40	0	19922944	60	7329
2026-01-19 20:09:30.03	56.85	3.85	-44.2	-46.7	15.6	0.00e+00	60	40	0	20971520	60	7802
2026-01-19 20:09:31.04	56.75	3.90	-43.1	-45.1	17.5	0.00e+00	52	40	0	23068672	60	6469
2026-01-19 20:09:32.05	56.65	3.95	-44.3	-47.0	15.2	0.00e+00	0	40	0	25165824	60	8073
2026-01-19 20:09:33.06	56.55	4.00	-42.5	-44.2	18.1	0.00e+00	60	40	0	27262976	60	5881
2026-01-19 20:09:34.07	56.45	4.05	-45.0	-48.0	14.4	0.00e+00	0	40	0	29360128	60	9106
2026-01-19 20:09:35.08	56.35	4.11	-43.2	-45.2	17.4	1.50e-06	92	40	0	30408704	60	6594
2026-01-19 20:09:36.08	56.26	4.16	-43.9	-46.3	16.0	0.00e+00	0	40	0	32505856	60	7429
2026-01-19 20:09:37.09	56.16	4.21	-44.9	-47.8	14.4	0.00e+00	71	40	0	34603008	60	8909
2026-01-19 20:09:38.10	56.06	4.26	-44.2	-46.7	15.8	0.00e+00	15	40	0	36700160	60	7836
2026-01-19 20:09:39.11	55.95	4.31	-44.0	-46.5	16.0	0.00e+00	0	40	0	38797312	60	7619
2026-01-19 20:09:40.11	55.85	4.36	-42.8	-44.7	17.2	0.00e+00	88	40	0	40894464	60	6227
2026-01-19 20:09:41.12	55.75	4.41	-44.3	-46.8	16.0	0.00e+00	16	40	0	41943040	60	7909
2026-01-19 20:09:42.13	55.65	4.47	-43.7	-46.0	16.3	0.00e+00	92	40	0	44040192	60	7211
2026-01-19 20:09:43.14	55.55	4.52	-43.9	-46.3	16.1	0.00e+00	0	40	0	46137344	60	7434
2026-01-19 20:09:44.15	55.45	4.57	-43.7	-45.9	16.6	0.00e+00	45	40	0	48234496	60	7168
2026-01-19 20:09:45.16	55.34	4.62	-44.4	-47.1	15.5	0.00e+00	67	40	0	49283072	60	8170
2026-01-19 20:09:46.17	55.24	4.67	-43.6	-45.8	16.9	0.00e+00	0	40	0	51380224	60	7064
2026-01-19 20:09:47.18	55.14	4.73	-43.4	-45.6	16.8	0.00e+00	90	40	0	53477376	60	6853
2026-01-19 20:09:48.19	55.03	4.78	-43.8	-46.1	16.4	0.00e+00	0	40	0	55574528	60	7254
2026-01-19 20:09:49.20	54.93	4.83	-43.6	-45.8	16.7	0.00e+00	92	40	0	57671680	60	7078
2026-01-19 20:09:50.21	54.82	4.88	-43.1	-45.1	17.4	0.00e+00	32	40	0	58720256	60	6485
2026-01-19 20:09:51.22	54.72	4.93	-43.4	-45.6	16.8	0.00e+00	91	40	0	60817408	60	6882
2026-01-19 20:09:52.23	54.61	4.98	-43.1	-45.2	17.4	0.00e+00	14	40	0	62914560	60	6573
2026-01-19 20:09:53.24	54.51	5.04	-43.4	-45.6	16.9	0.00e+00	33	40	0	65011712	60	6879
2026-01-19 20:09:54.24	54.40	5.09	-42.9	-44.9	17.7	0.00e+00	92	40	0	67108864	60	6350
2026-01-19 20:09:55.25	54.29	5.14	-43.7	-45.9	16.4	0.00e+00	0	40	0	69206016	58	8004
2026-01-19 20:09:56.26	54.19	5.19	-45.3	-48.5	13.9	0.00e+00	47	40	0	70254592	60	9634
2026-01-19 20:09:57.27	54.08	5.24	-43.8	-46.1	16.8	0.00e+00	0	40	0	72351744	60	7287
2026-01-19 20:09:58.28	53.97	5.30	-42.5	-44.3	18.2	0.00e+00	92	40	0	74448896	58	6631
2026-01-19 20:09:59.29	53.86	5.35	-43.2	-45.3	17.2	0.00e+00	25	40	0	76546048	58	7433
2026-01-19 20:10:00.30	53.75	5.40	-43.2	-45.2	17.2	0.00e+00	89	40	0	78643200	58	7412
2026-01-19 20:10:01.31	53.64	5.45	-43.0	-45.0	17.6	0.00e+00	92	40	0	79691776	58	7185
2026-01-19 20:10:02.32	53.53	5.50	-43.2	-45.2	17.4	0.00e+00	0	40	0	81788928	58	7392
2026-01-19 20:10:03.33	53.42	5.55	-43.0	-44.9	17.7	0.00e+00	90	40	0	83886080	58	7160
2026-01-19 20:10:04.34	53.31	5.61	-42.8	-44.7	17.8	0.00e+00	0	40	0	85983232	58	6978
2026-01-19 20:10:05.35	53.20	5.66	-43.2	-45.2	17.4	0.00e+00	90	40	0	88080384	58	7386
2026-01-19 20:10:06.36	53.09	5.71	-43.2	-45.1	17.4	0.00e+00	0	40	0	89128960	58	7334
2026-01-19 20:10:07.37	52.98	5.76	-42.7	-44.6	18.0	0.00e+00	0	40	0	91226112	58	6855
2026-01-19 20:10:08.38	52.87	5.81	-42.6	-44.4	18.2	0.00e+00	92	40	0	93323264	58	6697
2026-01-19 20:10:09.39	52.76	5.87	-42.7	-44.5	18.3	0.00e+00	0	40	0	95420416	58	6774
2026-01-19 20:10:10.40	52.64	5.92	-43.0	-44.9	17.6	0.00e+00	48	40	0	97517568	58	7129
2026-01-19 20:10:11.41	52.53	5.97	-42.6	-44.4	18.1	0.00e+00	0	40	0	98566144	58	6707
2026-01-19 20:10:12.42	52.42	6.02	-42.5	-44.2	18.4	0.00e+00	91	40	0	100663296	58	6615
2026-01-19 20:10:13.43	52.30	6.07	-42.5	-44.2	18.6	0.00e+00	0	40	0	102760448	58	6611
2026-01-19 20:10:14.44	52.19	6.13	-41.9	-43.4	19.2	0.00e+00	84	40	0	104857600	58	6020
2026-01-19 20:10:15.44	52.07	6.18	-42.0	-43.6	19.1	0.00e+00	92	40	0	106954752	56	6883
2026-01-19 20:10:16.45	51.96	6.23	-42.6	-44.3	18.3	0.00e+00	0	40	0	108003328	56	7480
2026-01-19 20:10:17.46	51.84	6.28	-42.2	-43.8	18.8	0.00e+00	34	40	0	110100480	56	7057
2026-01-19 20:10:18.47	51.73	6.33	-41.8	-43.3	19.2	0.00e+00	0	40	0	112197632	56	6681
2026-01-19 20:10:19.48	51.61	6.38	-42.0	-43.5	19.1	0.00e+00	90	40	0	114294784	56	6804
2026-01-19 20:10:20.49	51.49	6.44	-42.2	-43.8	18.9	0.00e+00	0	40	0	116391936	56	7011
2026-01-19 20:10:21.50	51.37	6.49	-42.4	-44.0	18.6	0.00e+00	64	40	0	117440512	56	7221
2026-01-19 20:10:22.51	51.26	6.54	-41.9	-43.4	19.1	0.00e+00	91	40	0	119537664	56	6721
2026-01-19 20:10:23.52	51.14	6.59	-42.4	-44.1	18.5	0.00e+00	0	40	0	121634816	56	7272
2026-01-19 20:10:24.53	51.02	6.64	-42.2	-43.8	18.8	0.00e+00	40	40	0	123731968	56	7055
2026-01-19 20:10:25.54	50.90	6.70	-42.3	-43.9	18.6	0.00e+00	0	40	0	125829120	56	7166
2026-01-19 20:10:26.55	50.78	6.75	-42.0	-43.5	19.2	0.00e+00	92	40	0	126877696	56	6812
2026-01-19 20:10:27.56	50.66	6.80	-42.0	-43.6	19.0	0.00e+00	0	40	0	128974848	56	6893
2026-01-19 20:10:28.57	50.54	6.85	-41.9	-43.4	19.3	0.00e+00	92	40	0	131072000	56	6764
2026-01-19 20:10:29.58	50.42	6.90	-42.1	-43.6	19.0	0.00e+00	0	40	0	133169152	56	6902
2026-01-19 20:10:30.59	50.30	6.95	-42.0	-43.5	19.0	0.00e+00	0	40	0	135266304	56	6828
2026-01-19 20:10:31.60	50.18	7.01	-41.9	-43.5	19.2	0.00e+00	90	40	0	137363456	56	6783
2026-01-19 20:10:32.60	50.05	7.06	-42.2	-43.8	18.7	0.00e+00	0	40	0	138412032	56	7038
2026-01-19 20:10:33.61	49.93	7.11	-42.6	-44.3	18.5	0.00e+00	80	40	0	140509184	56	7444
2026-01-19 20:10:34.62	49.81	7.16	-42.3	-43.9	18.6	0.00e+00	0	40	0	142606336	56	7106
2026-01-19 20:10:35.63	49.69	7.21	-42.6	-44.2	18.4	0.00e+00	92	40	0	144703488	58	6615
2026-01-19 20:10:36.64	49.56	7.26	-42.6	-44.2	18.5	0.00e+00	0	41	0	146800640	58	6601
2026-01-19 20:10:37.65	49.44	7.32	-42.9	-44.7	17.8	0.00e+00	0	41	0	147849216	58	6995
2026-01-19 20:10:38.66	49.31	7.37	-42.6	-44.3	18.8	0.00e+00	45	40	0	149946368	58	6660
2026-01-19 20:10:39.67	49.19	7.42	-42.8	-44.5	18.0	0.00e+00	0	41	0	152043520	58	6815
2026-01-19 20:10:40.68	49.06	7.47	-42.9	-44.6	18.2	0.00e+00	70	41	0	154140672	58	6904
2026-01-19 20:10:41.69	48.93	7.52	-42.8	-44.5	18.3	0.00e+00	0	41	0	156237824	58	6814
2026-01-19 20:10:42.70	48.81	7.57	-42.2	-43.8	18.9	0.00e+00	90	41	0	157286400	58	6259
2026-01-19 20:10:43.71	48.68	7.63	-42.5	-44.2	18.4	0.00e+00	0	40	0	159383552	58	6608
2026-01-19 20:10:44.72	48.55	7.68	-42.6	-44.3	18.5	0.00e+00	0	40	0	161480704	58	6658
2026-01-19 20:10:45.73	48.42	7.73	-42.6	-44.4	18.6	0.00e+00	92	41	0	163577856	58	6701
2026-01-19 20:10:46.74	48.30	7.78	-42.5	-44.2	18.5	0.00e+00	0	41	0	165675008	58	6560
2026-01-19 20:10:47.74	48.17	7.83	-42.5	-44.2	18.8	0.00e+00	60	41	0	166723584	58	6542
2026-01-19 20:10:48.76	48.04	7.88	-42.1	-43.7	19.3	0.00e+00	0	41	0	168820736	58	6187
2026-01-19 20:10:49.77	47.91	7.93	-42.4	-44.0	18.8	0.00e+00	90	40	0	170917888	58	6422
2026-01-19 20:10:50.78	47.78	7.98	-42.1	-43.7	18.9	0.00e+00	0	41	0	173015040	58	6200
2026-01-19 20:10:51.79	47.64	8.04	-42.1	-43.6	19.1	0.00e+00	9	41	0	175112192	58	6135
2026-01-19 20:10:52.80	47.51	8.09	-42.3	-43.9	19.1	0.00e+00	45	41	0	176160768	58	6353
2026-01-19 20:10:53.81	47.38	8.14	-41.8	-43.2	19.5	0.00e+00	0	41	0	178257920	58	5860
2026-01-19 20:10:54.82	47.25	8.19	-41.7	-43.2	19.6	0.00e+00	47	41	0	180355072	56	6551
2026-01-19 20:10:55.83	47.12	8.24	-42.3	-43.8	19.1	0.00e+00	0	41	0	182452224	56	7058
2026-01-19 20:10:56.84	46.98	8.29	-41.9	-43.3	19.5	0.00e+00	75	41	0	184549376	56	6685
2026-01-19 20:10:57.84	46.85	8.34	-41.9	-43.4	19.4	0.00e+00	0	41	0	185597952	56	6700
2026-01-19 20:10:58.85	46.72	8.39	-41.8	-43.2	19.6	0.00e+00	92	41	0	187695104	56	6594
2026-01-19 20:10:59.86	46.58	8.44	-42.1	-43.7	19.2	0.00e+00	33	41	0	189792256	56	6935
2026-01-19 20:11:00.87	46.45	8.49	-42.0	-43.5	19.4	0.00e+00	0	41	0	191889408	56	6780
2026-01-19 20:11:01.88	46.31	8.54	-42.1	-43.6	19.2	0.00e+00	82	41	0	193986560	56	6923
2026-01-19 20:11:02.89	46.17	8.59	-42.0	-43.5	19.3	0.00e+00	0	41	0	195035136	56	6788
2026-01-19 20:11:03.90	46.04	8.65	-42.0	-43.5	19.5	0.00e+00	92	41	0	197132288	56	6822
2026-01-19 20:11:04.91	45.90	8.70	-41.9	-43.4	19.3	0.00e+00	0	41	0	199229440	56	6746
2026-01-19 20:11:05.92	45.76	8.75	-42.1	-43.6	19.3	0.00e+00	92	41	0	201326592	56	6910
2026-01-19 20:11:06.92	45.63	8.80	-42.5	-44.1	18.8	0.00e+00	9	41	0	203423744	56	7301
2026-01-19 20:11:07.93	45.49	8.85	-42.6	-44.3	18.5	0.00e+00	0	41	0	205520896	56	7494
2026-01-19 20:11:08.94	45.35	8.90	-42.7	-44.4	18.3	0.00e+00	92	41	0	206569472	56	7549
2026-01-19 20:11:09.95	45.21	8.95	-42.5	-44.2	18.8	0.00e+00	0	41	0	208666624	58	6557
2026-01-19 20:11:10.96	45.07	9.00	-42.3	-44.0	18.9	0.00e+00	92	41	0	210763776	58	6407
2026-01-19 20:11:11.97	44.93	9.05	-42.3	-43.9	18.9	0.00e+00	0	41	0	212860928	58	6368
2026-01-19 20:11:12.98	44.79	9.10	-42.3	-43.9	19.0	0.00e+00	61	41	0	214958080	58	6378
2026-01-19 20:11:13.99	44.64	9.15	-42.2	-43.7	19.1	0.00e+00	0	41	0	216006656	58	6240
2026-01-19 20:11:15.00	44.50	9.20	-42.2	-43.8	19.1	0.00e+00	4	41	0	218103808	58	6288
2026-01-19 20:11:16.01	44.36	9.25	-42.2	-43.8	19.1	0.00e+00	76	41	0	220200960	58	6262
2026-01-19 20:11:17.02	44.22	9.30	-41.9	-43.4	19.5	0.00e+00	0	41	0	222298112	58	5981
2026-01-19 20:11:18.03	44.07	9.35	-42.0	-43.5	19.5	0.00e+00	49	41	0	224395264	58	6055
2026-01-19 20:11:19.04	43.93	9.40	-41.8	-43.3	19.6	0.00e+00	0	41	0	225443840	58	5918
2026-01-19 20:11:20.05	43.78	9.45	-42.0	-43.5	19.5	0.00e+00	77	41	0	227540992	58	6058
2026-01-19 20:11:21.06	43.64	9.50	-41.9	-43.4	19.5	0.00e+00	0	41	0	229638144	58	6033
2026-01-19 20:11:22.07	43.49	9.54	-41.7	-43.2	19.6	0.00e+00	0	41	0	231735296	56	6543
2026-01-19 20:11:23.08	43.35	9.59	-41.6	-43.0	19.8	0.00e+00	36	41	0	233832448	56	6406
2026-01-19 20:11:24.09	43.20	9.64	-41.4	-42.7	20.2	0.00e+00	0	41	0	234881024	56	6228
2026-01-19 20:11:25.10	43.05	9.69	-41.3	-42.6	20.1	0.00e+00	0	41	0	236978176	56	6169
2026-01-19 20:11:26.11	42.91	9.74	-41.3	-42.6	20.3	0.00e+00	0	41	0	239075328	56	6163
2026-01-19 20:11:27.12	42.76	9.79	-41.2	-42.5	20.4	0.00e+00	92	41	0	241172480	56	6064
2026-01-19 20:11:28.13	42.61	9.84	-40.8	-42.1	20.8	0.00e+00	0	41	0	243269632	56	5796
2026-01-19 20:11:29.14	42.46	9.89	-40.9	-42.2	20.5	0.00e+00	16	41	0	244318208	54	6571
2026-01-19 20:11:30.15	42.31	9.94	-41.0	-42.3	20.4	0.00e+00	16	41	0	246415360	54	6646
2026-01-19 20:11:31.16	42.16	9.99	-41.0	-42.3	20.4	0.00e+00	0	41	0	248512512	54	6616
2026-01-19 20:11:32.17	42.01	10.03	-40.8	-42.0	20.7	0.00e+00	49	41	0	250609664	54	6454
2026-01-19 20:11:33.18	41.86	10.08	-40.8	-42.0	20.5	0.00e+00	0	41	0	252706816	54	6437
2026-01-19 20:11:34.19	41.71	10.13	-40.9	-42.1	20.7	0.00e+00	83	41	0	253755392	54	6521
2026-01-19 20:11:35.20	41.56	10.18	-40.7	-41.9	20.8	0.00e+00	0	41	0	255852544	54	6339
2026-01-19 20:11:36.21	41.40	10.23	-40.4	-41.6	21.1	0.00e+00	91	41	0	257949696	54	6141
2026-01-19 20:11:37.22	41.25	10.27	-40.1	-41.2	21.5	0.00e+00	43	41	0	260046848	54	5891
2026-01-19 20:11:38.23	41.10	10.32	-40.1	-41.2	21.4	0.00e+00	0	41	0	262144000	54	5893
2026-01-19 20:11:39.23	40.94	10.37	-40.2	-41.3	21.4	0.00e+00	91	41	0	263192576	54	5946
2026-01-19 20:11:40.24	40.79	10.42	-40.0	-41.1	21.6	0.00e+00	0	41	0	265289728	54	5774
2026-01-19 20:11:41.25	40.63	10.47	-40.1	-41.2	21.4	0.00e+00	79	41	0	267386880	54	5896
2026-01-19 20:11:42.26	40.48	10.51	-40.2	-41.3	21.3	0.00e+00	0	41	0	269484032	54	5955
2026-01-19 20:11:43.27	40.32	10.56	-40.4	-41.6	21.0	0.00e+00	92	41	0	271581184	54	6161
2026-01-19 20:11:44.28	40.16	10.61	-40.3	-41.5	21.1	0.00e+00	0	41	0	273678336	54	6094
2026-01-19 20:11:45.29	40.01	10.65	-40.4	-41.7	21.1	0.00e+00	0	41	0	274726912	54	6174
2026-01-19 20:11:46.30	39.85	10.70	-40.5	-41.7	20.9	0.00e+00	72	41	0	276824064	54	6233
2026-01-19 20:11:47.31	39.69	10.75	-40.6	-41.8	21.0	0.00e+00	0	41	0	278921216	54	6291
2026-01-19 20:11:48.32	39.53	10.79	-40.4	-41.6	21.2	0.00e+00	92	41	0	281018368	54	6133
2026-01-19 20:11:49.33	39.37	10.84	-40.4	-41.6	21.2	0.00e+00	0	41	0	283115520	54	6110
2026-01-19 20:11:50.34	39.21	10.89	-40.4	-41.6	21.2	0.00e+00	92	41	0	284164096	54	6116
2026-01-19 20:11:51.35	39.05	10.93	-40.2	-41.4	21.2	0.00e+00	0	41	0	286261248	54	5975
2026-01-19 20:11:52.36	38.89	10.98	-40.1	-41.3	21.4	0.00e+00	0	41	0	288358400	54	5931
2026-01-19 20:11:53.37	38.73	11.03	-40.0	-41.1	21.6	0.00e+00	83	41	0	290455552	54	5789
2026-01-19 20:11:54.38	38.57	11.07	-39.9	-41.0	21.7	0.00e+00	0	41	0	292552704	52	6460
2026-01-19 20:11:55.39	38.41	11.12	-39.8	-40.9	21.8	0.00e+00	49	41	0	293601280	52	6327
2026-01-19 20:11:56.40	38.24	11.16	-39.6	-40.6	22.0	0.00e+00	0	41	0	295698432	52	6152
2026-01-19 20:11:57.40	38.08	11.21	-39.3	-40.4	22.2	0.00e+00	90	41	0	297795584	52	5975
2026-01-19 20:11:58.41	37.92	11.25	-39.3	-40.4	22.2	0.00e+00	0	41	0	299892736	52	5971
2026-01-19 20:11:59.42	37.75	11.30	-39.5	-40.6	22.1	0.00e+00	0	41	0	301989888	52	6120
2026-01-19 20:12:00.43	37.59	11.34	-39.5	-40.5	22.0	0.00e+00	48	41	0	303038464	52	6078
2026-01-19 20:12:01.44	37.42	11.39	-39.5	-40.6	22.1	0.00e+00	0	41	0	305135616	52	6132
2026-01-19 20:12:02.44	37.26	11.43	-39.5	-40.6	22.1	0.00e+00	49	41	0	307232768	52	6108
2026-01-19 20:12:03.45	37.09	11.48	-39.5	-40.5	22.1	0.00e+00	0	41	0	309329920	52	6095
2026-01-19 20:12:04.46	36.92	11.52	-39.7	-40.8	21.9	0.00e+00	0	41	0	311427072	52	6294
2026-01-19 20:12:05.47	36.76	11.57	-39.9	-41.0	21.7	0.00e+00	0	41	0	312475648	52	6455
2026-01-19 20:12:06.48	36.59	11.61	-40.1	-41.2	21.6	0.00e+00	0	41	0	314572800	52	6564
2026-01-19 20:12:07.49	36.42	11.66	-39.7	-40.8	21.9	0.00e+00	22	41	0	316669952	52	6286
2026-01-19 20:12:08.50	36.25	11.70	-39.8	-40.9	21.7	0.00e+00	0	41	0	318767104	52	6355
2026-01-19 20:12:09.51	36.08	11.74	-39.7	-40.7	22.0	0.00e+00	68	41	0	320864256	52	6230
2026-01-19 20:12:10.52	35.91	11.79	-39.3	-40.3	22.3	0.00e+00	0	41	0	321912832	52	5948
2026-01-19 20:12:11.52	35.74	11.83	-39.2	-40.2	22.5	0.00e+00	0	41	0	324009984	52	5858
2026-01-19 20:12:12.53	35.57	11.87	-39.0	-40.0	22.6	0.00e+00	0	41	0	326107136	52	5707
2026-01-19 20:12:13.54	35.40	11.92	-39.1	-40.1	22.5	0.00e+00	0	41	0	328204288	52	5788
2026-01-19 20:12:14.55	35.23	11.96	-39.2	-40.3	22.4	0.00e+00	22	41	0	330301440	52	5899
2026-01-19 20:12:15.56	35.05	12.00	-39.2	-40.2	22.4	0.00e+00	0	41	0	331350016	52	5863
2026-01-19 20:12:16.57	34.88	12.04	-39.1	-40.1	22.5	0.00e+00	84	41	0	333447168	52	5808
2026-01-19 20:12:17.58	34.71	12.09	-39.3	-40.3	22.4	0.00e+00	0	41	0	335544320	52	5935
2026-01-19 20:12:18.59	34.53	12.13	-39.2	-40.2	22.4	0.00e+00	92	41	0	337641472	52	5896
2026-01-19 20:12:19.60	34.36	12.17	-39.5	-40.6	22.1	0.00e+00	0	41	0	339738624	52	6112
2026-01-19 20:12:20.61	34.18	12.21	-39.7	-40.8	21.9	0.00e+00	0	41	0	340787200	52	6280
2026-01-19 20:12:21.62	34.01	12.25	-39.8	-40.9	21.8	0.00e+00	0	41	0	342884352	52	6355
2026-01-19 20:12:22.63	33.83	12.29	-40.0	-41.1	21.6	0.00e+00	0	41	0	344981504	52	6523
2026-01-19 20:12:23.63	33.66	12.34	-39.7	-40.8	22.1	0.00e+00	42	41	0	347078656	52	6250
2026-01-19 20:12:24.64	33.48	12.38	-39.8	-40.9	21.6	0.00e+00	0	41	0	349175808	52	6345
2026-01-19 20:12:25.65	33.30	12.42	-39.8	-40.9	21.8	0.00e+00	53	41	0	350224384	52	6370
2026-01-19 20:12:26.66	33.12	12.46	-39.9	-41.0	21.8	0.00e+00	0	41	0	352321536	52	6423
2026-01-19 20:12:27.67	32.94	12.50	-39.8	-40.8	21.9	0.00e+00	0	41	0	354418688	52	6295
2026-01-19 20:12:28.68	32.76	12.54	-39.9	-41.0	21.8	0.00e+00	0	41	0	356515840	52	6402
2026-01-19 20:12:29.69	32.58	12.58	-39.7	-40.8	21.9	0.00e+00	0	41	0	358612992	52	6263
2026-01-19 20:12:30.70	32.40	12.62	-39.7	-40.7	22.0	0.00e+00	35	41	0	359661568	52	6239
2026-01-19 20:12:31.71	32.22	12.66	-39.8	-40.8	22.0	0.00e+00	0	41	0	361758720	52	6314
2026-01-19 20:12:32.72	32.04	12.70	-40.1	-41.3	21.6	0.00e+00	79	41	0	363855872	52	6633
2026-01-19 20:12:33.73	31.86	12.73	-40.4	-41.6	21.3	0.00e+00	0	41	0	365953024	52	6860
2026-01-19 20:12:34.74	31.68	12.77	-40.5	-41.7	21.2	0.00e+00	0	41	0	368050176	52	6947
2026-01-19 20:12:35.75	31.50	12.81	-40.4	-41.6	21.3	0.00e+00	0	41	0	370147328	52	6900
2026-01-19 20:12:36.76	31.31	12.85	-40.4	-41.6	21.4	0.00e+00	0	41	0	371195904	52	6863
2026-01-19 20:12:37.77	31.13	12.89	-40.0	-41.1	21.6	0.00e+00	58	41	0	373293056	52	6537
2026-01-19 20:12:38.78	30.95	12.93	-40.1	-41.3	21.6	0.00e+00	0	41	0	375390208	52	6635
2026-01-19 20:12:39.78	30.76	12.96	-40.2	-41.3	21.7	0.00e+00	89	41	0	377487360	52	6684
2026-01-19 20:12:40.80	30.58	13.00	-39.7	-40.8	22.0	0.00e+00	0	41	0	379584512	52	6270
2026-01-19 20:12:41.81	30.39	13.04	-39.8	-40.8	22.0	0.00e+00	0	41	0	380633088	52	6311
2026-01-19 20:12:42.82	30.20	13.08	-39.3	-40.3	22.4	0.00e+00	0	41	0	382730240	52	5928
2026-01-19 20:12:43.82	30.02	13.11	-39.5	-40.5	22.2	0.00e+00	0	41	0	384827392	52	6059
2026-01-19 20:12:44.84	29.83	13.15	-39.7	-40.8	22.1	0.00e+00	47	41	0	386924544	52	6259
2026-01-19 20:12:45.85	29.64	13.18	-39.6	-40.7	22.1	0.00e+00	0	41	0	389021696	52	6198
2026-01-19 20:12:46.85	29.46	13.22	-39.9	-41.0	21.9	0.00e+00	90	41	0	390070272	52	6391
2026-01-19 20:12:47.86	29.27	13.26	-40.0	-41.1	21.9	0.00e+00	0	41	0	392167424	52	6510
2026-01-19 20:12:48.87	29.08	13.29	-39.8	-40.8	21.9	0.00e+00	0	41	0	394264576	52	6303
2026-01-19 20:12:49.88	28.89	13.33	-39.7	-40.7	22.1	0.00e+00	0	41	0	396361728	52	6239
2026-01-19 20:12:50.89	28.70	13.36	-39.4	-40.5	22.3	0.00e+00	0	41	0	398458880	52	6049
2026-01-19 20:12:51.90	28.51	13.40	-39.5	-40.5	22.2	0.00e+00	50	41	0	399507456	52	6082
2026-01-19 20:12:52.91	28.32	13.43	-39.2	-40.2	22.1	0.00e+00	0	41	0	401604608	52	5872
2026-01-19 20:12:53.92	28.13	13.46	-39.6	-40.6	22.2	0.00e+00	42	41	0	403701760	52	6143
2026-01-19 20:12:54.93	27.94	13.50	-39.4	-40.4	22.2	0.00e+00	0	41	0	405798912	52	6025
2026-01-19 20:12:55.94	27.75	13.53	-39.5	-40.6	22.2	0.00e+00	90	41	0	407896064	52	6106
2026-01-19 20:12:56.95	27.55	13.57	-39.8	-40.8	21.9	0.00e+00	0	41	0	408944640	52	6308
2026-01-19 20:12:57.96	27.36	13.60	-39.9	-41.0	21.9	0.00e+00	0	41	0	411041792	52	6463
2026-01-19 20:12:58.97	27.17	13.63	-40.0	-41.1	21.6	0.00e+00	49	41	0	413138944	52	6534
2026-01-19 20:12:59.98	26.98	13.66	-40.2	-41.4	21.5	0.00e+00	0	41	0	415236096	52	6759
2026-01-19 20:13:00.99	26.78	13.70	-40.2	-41.4	21.5	0.00e+00	47	41	0	417333248	52	6726
2026-01-19 20:13:02.00	26.59	13.73	-40.3	-41.5	21.5	0.00e+00	0	41	0	418381824	52	6785
2026-01-19 20:13:03.01	26.39	13.76	-39.8	-40.9	21.9	0.00e+00	92	41	0	420478976	52	6336
2026-01-19 20:13:04.02	26.20	13.79	-39.4	-40.5	22.3	0.00e+00	0	41	0	422576128	52	6045
2026-01-19 20:13:05.02	26.00	13.82	-39.4	-40.4	22.3	0.00e+00	0	41	0	424673280	52	5990
2026-01-19 20:13:06.03	25.81	13.85	-39.3	-40.2	22.2	0.00e+00	0	41	0	426770432	52	5893
2026-01-19 20:13:07.04	25.61	13.88	-39.4	-40.4	21.9	0.00e+00	0	41	0	427819008	52	5992
2026-01-19 20:13:08.05	25.41	13.91	-39.5	-40.5	22.3	0.00e+00	44	41	0	429916160	52	6065
2026-01-19 20:13:09.06	25.22	13.94	-39.4	-40.4	22.4	0.00e+00	0	41	0	432013312	52	5994
2026-01-19 20:13:10.07	25.02	13.97	-38.7	-39.6	23.0	0.00e+00	92	41	0	434110464	50	6135
2026-01-19 20:13:11.08	24.82	14.00	-38.8	-39.7	23.0	0.00e+00	0	41	0	436207616	50	6220
2026-01-19 20:13:12.09	24.62	14.03	-38.9	-39.9	22.8	0.00e+00	0	41	0	438304768	50	6334
2026-01-19 20:13:13.10	24.42	14.06	-39.0	-40.0	22.7	0.00e+00	0	41	0	439353344	50	6443
2026-01-19 20:13:14.10	24.22	14.09	-39.2	-40.3	22.4	0.00e+00	0	41	0	441450496	50	6626
2026-01-19 20:13:15.11	24.03	14.11	-39.1	-40.1	22.5	0.00e+00	17	41	0	443547648	50	6530
2026-01-19 20:13:16.12	23.82	14.14	-39.2	-40.2	22.6	0.00e+00	0	41	0	445644800	50	6551
2026-01-19 20:13:17.13	23.62	14.17	-38.9	-39.8	22.8	0.00e+00	91	41	0	447741952	50	6307
2026-01-19 20:13:18.14	23.42	14.20	-38.7	-39.6	23.0	0.00e+00	0	41	0	448790528	50	6140
2026-01-19 20:13:19.15	23.22	14.22	-38.6	-39.6	22.9	0.00e+00	0	41	0	450887680	50	6107
2026-01-19 20:13:20.16	23.02	14.25	-38.8	-39.7	22.8	0.00e+00	0	41	0	452984832	50	6195
2026-01-19 20:13:21.17	22.82	14.28	-39.0	-40.0	22.7	0.00e+00	0	41	0	455081984	50	6411
2026-01-19 20:13:22.18	22.62	14.30	-39.4	-40.4	22.3	0.00e+00	15	41	0	457179136	50	6767
2026-01-19 20:13:23.19	22.41	14.33	-39.5	-40.5	22.1	0.00e+00	0	41	0	458227712	50	6826
2026-01-19 20:13:24.20	22.21	14.35	-39.6	-40.6	22.0	0.00e+00	91	41	0	460324864	50	6924
2026-01-19 20:13:25.21	22.01	14.38	-39.9	-41.0	21.9	0.00e+00	0	41	0	462422016	52	6398
2026-01-19 20:13:26.22	21.80	14.40	-39.9	-41.0	21.9	0.00e+00	31	41	0	464519168	52	6408
2026-01-19 20:13:27.23	21.60	14.42	-39.8	-40.9	22.0	0.00e+00	0	41	0	466616320	52	6370
2026-01-19 20:13:28.24	21.40	14.45	-39.9	-41.0	22.0	0.00e+00	0	41	0	467664896	52	6452
2026-01-19 20:13:29.24	21.19	14.47	-39.9	-41.0	21.8	0.00e+00	9	41	0	469762048	52	6439
2026-01-19 20:13:30.26	20.99	14.49	-40.1	-41.2	21.9	0.00e+00	0	41	0	471859200	52	6593
2026-01-19 20:13:31.26	20.78	14.52	-40.0	-41.1	21.8	0.00e+00	92	41	0	473956352	52	6468
2026-01-19 20:13:32.27	20.58	14.54	-39.9	-41.0	21.5	0.00e+00	0	41	0	476053504	52	6436
2026-01-19 20:13:33.28	20.37	14.56	-39.8	-40.9	21.8	0.00e+00	92	41	0	477102080	52	6332
2026-01-19 20:13:34.29	20.17	14.58	-40.1	-41.2	21.7	0.00e+00	0	41	0	479199232	52	6559
2026-01-19 20:13:35.30	19.96	14.60	-40.0	-41.1	21.8	0.00e+00	0	41	0	481296384	52	6494
2026-01-19 20:13:36.31	19.75	14.63	-40.1	-41.2	21.7	0.00e+00	0	41	0	483393536	52	6587
2026-01-19 20:13:37.32	19.54	14.65	-40.1	-41.2	21.7	0.00e+00	0	41	0	485490688	52	6603
2026-01-19 20:13:38.33	19.34	14.67	-40.2	-41.3	21.6	0.00e+00	86	41	0	486539264	52	6686
2026-01-19 20:13:39.34	19.13	14.69	-40.1	-41.2	21.7	0.00e+00	0	41	0	488636416	52	6584
2026-01-19 20:13:40.35	18.92	14.71	-39.9	-41.0	21.8	0.00e+00	92	41	0	490733568	52	6451
2026-01-19 20:13:41.36	18.71	14.72	-39.7	-40.7	22.1	0.00e+00	0	41	0	492830720	52	6233
2026-01-19 20:13:42.36	18.51	14.74	-39.6	-40.6	22.3	0.00e+00	0	41	0	494927872	52	6167
2026-01-19 20:13:43.37	18.30	14.76	-39.4	-40.4	22.4	0.00e+00	0	41	0	495976448	52	6023
2026-01-19 20:13:44.38	18.09	14.78	-39.3	-40.3	22.4	0.00e+00	0	41	0	498073600	52	5935
2026-01-19 20:13:45.39	17.88	14.80	-39.2	-40.2	22.5	0.00e+00	51	41	0	500170752	52	5852
2026-01-19 20:13:46.40	17.67	14.81	-39.1	-40.1	22.7	0.00e+00	0	41	0	502267904	52	5772
2026-01-19 20:13:47.41	17.46	14.83	-39.2	-40.2	22.6	0.00e+00	56	41	0	504365056	52	5864
2026-01-19 20:13:48.42	17.25	14.85	-39.4	-40.5	22.4	0.00e+00	0	41	0	506462208	52	6042
2026-01-19 20:13:49.43	17.04	14.86	-39.5	-40.5	22.2	0.00e+00	0	41	0	507510784	52	6099
2026-01-19 20:13:50.44	16.83	14.88	-39.7	-40.7	22.1	0.00e+00	0	41	0	509607936	52	6200
2026-01-19 20:13:51.45	16.62	14.89	-39.7	-40.8	22.0	0.00e+00	0	41	0	511705088	52	6275
2026-01-19 20:13:52.46	16.41	14.91	-39.9	-40.9	22.0	0.00e+00	23	41	0	513802240	52	6368
2026-01-19 20:13:53.47	16.20	14.92	-39.9	-41.0	21.9	0.00e+00	0	41	0	515899392	52	6410
2026-01-19 20:13:54.48	15.99	14.94	-39.9	-41.0	21.9	0.00e+00	92	41	0	516947968	52	6424
2026-01-19 20:13:55.49	15.77	14.95	-39.8	-40.8	22.0	0.00e+00	0	41	0	519045120	52	6306
2026-01-19 20:13:56.50	15.56	14.97	-39.8	-40.8	22.0	0.00e+00	30	41	0	521142272	52	6288
2026-01-19 20:13:57.51	15.35	14.98	-39.9	-41.0	21.8	0.00e+00	0	41	0	523239424	52	6417
2026-01-19 20:13:58.52	15.14	14.99	-39.8	-40.9	22.0	0.00e+00	0	41	0	525336576	52	6372
2026-01-19 20:13:59.53	14.93	15.00	-39.7	-40.8	22.0	0.00e+00	44	41	0	526385152	52	6265
2026-01-19 20:14:00.53	14.72	15.02	-39.9	-40.9	22.0	0.00e+00	0	41	0	528482304	52	6383
2026-01-19 20:14:01.54	14.50	15.03	-40.0	-41.0	21.8	0.00e+00	43	41	0	530579456	52	6462
2026-01-19 20:14:02.55	14.29	15.04	-39.8	-40.9	21.9	0.00e+00	0	41	0	532676608	52	6373
2026-01-19 20:14:03.56	14.08	15.05	-39.9	-41.0	21.9	0.00e+00	64	41	0	534773760	52	6419
2026-01-19 20:14:04.57	13.87	15.06	-40.1	-41.3	21.7	0.00e+00	0	41	0	535822336	52	6638
2026-01-19 20:14:05.58	13.65	15.07	-39.9	-41.1	21.8	0.00e+00	0	41	0	537919488	52	6469
2026-01-19 20:14:06.59	13.44	15.08	-39.9	-41.1	21.9	0.00e+00	0	41	0	540016640	52	6471
2026-01-19 20:14:07.60	13.23	15.09	-39.8	-40.9	21.9	0.00e+00	0	41	0	542113792	52	6328
2026-01-19 20:14:08.61	13.01	15.10	-39.8	-40.9	22.0	0.00e+00	70	41	0	544210944	52	6360
2026-01-19 20:14:09.62	12.80	15.11	-39.8	-40.8	21.9	0.00e+00	0	41	0	545259520	52	6314
2026-01-19 20:14:10.63	12.58	15.11	-39.7	-40.8	22.0	0.00e+00	88	41	0	547356672	52	6296
2026-01-19 20:14:11.63	12.37	15.12	-39.6	-40.6	22.2	0.00e+00	0	41	0	549453824	52	6158
2026-01-19 20:14:12.64	12.16	15.13	-39.7	-40.7	22.1	0.00e+00	0	41	0	551550976	52	6236
2026-01-19 20:14:13.65	11.94	15.14	-39.6	-40.7	22.3	0.00e+00	0	41	0	553648128	52	6205
2026-01-19 20:14:14.66	11.73	15.14	-39.6	-40.7	22.1	0.00e+00	0	41	0	554696704	52	6208
2026-01-19 20:14:15.67	11.52	15.15	-39.9	-40.9	21.9	0.00e+00	43	41	0	556793856	52	6388
2026-01-19 20:14:16.68	11.30	15.15	-39.7	-40.7	22.2	0.00e+00	0	41	0	558891008	52	6229
2026-01-19 20:14:17.69	11.09	15.16	-39.6	-40.7	22.2	0.00e+00	91	41	0	560988160	52	6183
2026-01-19 20:14:18.70	10.87	15.16	-39.4	-40.4	22.4	0.00e+00	0	41	0	563085312	52	6021
2026-01-19 20:14:19.70	10.66	15.17	-39.4	-40.5	22.3	0.00e+00	0	41	0	564133888	52	6040
2026-01-19 20:14:20.72	10.44	15.17	-39.5	-40.5	22.3	0.00e+00	0	41	0	566231040	52	6088
2026-01-19 20:14:21.73	10.23	15.18	-39.6	-40.7	22.1	0.00e+00	0	41	0	568328192	52	6207
2026-01-19 20:14:22.74	10.01	15.18	-39.8	-40.9	22.0	0.00e+00	51	41	0	570425344	52	6327
2026-01-19 20:14:23.74	9.80	15.18	-39.9	-41.0	21.9	0.00e+00	0	41	0	572522496	52	6402
2026-01-19 20:14:24.75	9.59	15.18	-40.0	-41.1	21.8	0.00e+00	77	41	0	573571072	52	6516
2026-01-19 20:14:25.76	9.37	15.19	-40.2	-41.3	21.8	0.00e+00	0	41	0	575668224	52	6640
2026-01-19 20:14:26.77	9.16	15.19	-40.1	-41.2	21.8	0.00e+00	0	41	0	577765376	52	6553
2026-01-19 20:14:27.78	8.94	15.19	-39.9	-41.0	21.8	0.00e+00	0	41	0	579862528	52	6406
2026-01-19 20:14:28.79	8.73	15.19	-39.7	-40.8	22.1	0.00e+00	0	41	0	581959680	52	6286
2026-01-19 20:14:29.80	8.51	15.19	-39.6	-40.6	22.2	0.00e+00	47	41	0	583008256	52	6127
2026-01-19 20:14:30.81	8.30	15.19	-39.6	-40.6	22.3	0.00e+00	0	41	0	585105408	52	6160
2026-01-19 20:14:31.82	8.08	15.19	-39.1	-40.1	22.7	0.00e+00	92	41	0	587202560	52	5767
2026-01-19 20:14:32.83	7.87	15.19	-39.0	-40.0	22.7	0.00e+00	0	41	0	589299712	52	5714
2026-01-19 20:14:33.84	7.65	15.19	-39.0	-40.0	22.7	0.00e+00	30	41	0	591396864	52	5713
2026-01-19 20:14:34.85	7.44	15.18	-39.2	-40.2	22.6	0.00e+00	0	41	0	592445440	52	5873
2026-01-19 20:14:35.86	7.22	15.18	-39.3	-40.3	22.4	0.00e+00	0	41	0	594542592	52	5905
2026-01-19 20:14:36.86	7.01	15.18	-39.5	-40.5	22.2	0.00e+00	50	41	0	596639744	52	6096
2026-01-19 20:14:37.88	6.79	15.18	-39.6	-40.7	22.2	0.00e+00	0	41	0	598736896	52	6207
2026-01-19 20:14:38.88	6.58	15.17	-39.8	-40.9	22.0	0.00e+00	63	41	0	600834048	52	6321
2026-01-19 20:14:39.89	6.36	15.17	-39.9	-41.0	22.1	0.00e+00	0	41	0	602931200	52	6395
2026-01-19 20:14:40.91	6.15	15.17	-39.8	-40.9	21.9	0.00e+00	92	41	0	603979776	52	6371
2026-01-19 20:14:41.91	5.93	15.16	-40.2	-41.3	21.7	0.00e+00	0	41	0	606076928	52	6634
2026-01-19 20:14:42.92	5.72	15.16	-39.8	-40.9	21.8	0.00e+00	0	41	0	608174080	52	6353
2026-01-19 20:14:43.93	5.51	15.15	-40.2	-41.3	21.4	0.00e+00	0	41	0	610271232	52	6651
2026-01-19 20:14:44.94	5.29	15.15	-40.3	-41.5	21.2	0.00e+00	0	41	0	612368384	52	6780
2026-01-19 20:14:45.95	5.08	15.14	-40.4	-41.5	21.4	0.00e+00	50	41	0	613416960	52	6832
2026-01-19 20:14:46.96	4.86	15.13	-40.5	-41.7	21.3	0.00e+00	0	41	0	615514112	52	6983
2026-01-19 20:14:47.97	4.65	15.13	-40.5	-41.7	21.3	0.00e+00	91	41	0	617611264	52	6929
2026-01-19 20:14:48.98	4.43	15.12	-40.3	-41.5	21.5	0.00e+00	0	41	0	619708416	52	6778
2026-01-19 20:14:49.99	4.22	15.11	-40.0	-41.1	21.8	0.00e+00	0	41	0	621805568	52	6536
2026-01-19 20:14:51.00	4.01	15.10	-40.0	-41.1	21.8	0.00e+00	0	41	0	622854144	52	6514
2026-01-19 20:14:52.01	3.79	15.09	-39.9	-41.1	21.9	0.00e+00	0	41	0	624951296	52	6471
2026-01-19 20:14:53.02	3.58	15.08	-39.9	-41.1	21.7	0.00e+00	50	41	0	627048448	52	6499
2026-01-19 20:14:54.03	3.37	15.08	-39.8	-40.9	22.0	0.00e+00	0	41	0	629145600	52	6353
2026-01-19 20:14:55.04	3.15	15.07	-39.7	-40.9	21.9	0.00e+00	92	41	0	631242752	52	6321
2026-01-19 20:14:56.04	2.94	15.06	-39.8	-40.8	22.0	0.00e+00	0	41	0	632291328	52	6315
2026-01-19 20:14:57.05	2.73	15.05	-39.6	-40.7	22.1	0.00e+00	0	41	0	634388480	52	6220
2026-01-19 20:14:58.06	2.52	15.03	-39.6	-40.6	22.2	0.00e+00	0	41	0	636485632	52	6169
2026-01-19 20:14:59.07	2.30	15.02	-39.5	-40.6	22.2	0.00e+00	0	41	0	638582784	52	6133
2026-01-19 20:15:00.08	2.09	15.01	-39.6	-40.6	22.2	0.00e+00	14	41	0	640679936	52	6169
2026-01-19 20:15:01.09	1.88	15.00	-39.7	-40.8	22.0	0.00e+00	0	41	0	641728512	52	6279
2026-01-19 20:15:02.10	1.67	14.99	-39.8	-40.9	22.0	0.00e+00	92	41	0	643825664	52	6373
2026-01-19 20:15:03.11	1.46	14.97	-39.8	-40.8	22.1	0.00e+00	0	41	0	645922816	52	6309
2026-01-19 20:15:04.12	1.24	14.96	-39.7	-40.8	22.1	0.00e+00	0	41	0	648019968	52	6272
2026-01-19 20:15:05.13	1.03	14.95	-39.6	-40.6	22.2	0.00e+00	0	41	0	650117120	52	6148
2026-01-19 20:15:06.14	0.82	14.93	-39.5	-40.6	22.2	0.00e+00	0	41	0	651165696	52	6121
2026-01-19 20:15:07.15	0.61	14.92	-39.5	-40.5	22.3	0.00e+00	57	41	0	653262848	52	6055
2026-01-19 20:15:08.16	0.40	14.90	-39.1	-40.0	22.6	0.00e+00	0	41	0	655360000	52	5760
2026-01-19 20:15:09.17	0.19	14.89	-39.1	-40.1	22.6	0.00e+00	92	41	0	657457152	52	5805
2026-01-19 20:15:10.18	359.98	14.87	-39.2	-40.2	22.5	0.00e+00	0	41	0	659554304	52	5890
2026-01-19 20:15:11.19	359.77	14.86	-39.3	-40.3	22.4	0.00e+00	92	41	0	660602880	52	5958
2026-01-19 20:15:12.20	359.56	14.84	-39.3	-40.3	22.5	0.00e+00	0	41	0	662700032	52	5959
2026-01-19 20:15:13.21	359.35	14.82	-39.6	-40.6	22.2	0.00e+00	0	41	0	664797184	52	6149
2026-01-19 20:15:14.22	359.14	14.81	-39.3	-40.4	22.4	0.00e+00	9	41	0	666894336	52	5981
2026-01-19 20:15:15.23	358.93	14.79	-39.6	-40.6	22.2	0.00e+00	33	41	0	668991488	52	6165
2026-01-19 20:15:16.24	358.72	14.77	-39.7	-40.7	22.0	0.00e+00	92	41	0	671088640	52	6245
2026-01-19 20:15:17.25	358.51	14.75	-39.6	-40.7	22.0	0.00e+00	0	41	0	672137216	52	6223
2026-01-19 20:15:18.26	358.30	14.74	-39.9	-41.0	21.8	0.00e+00	92	41	0	674234368	52	6457
2026-01-19 20:15:19.27	358.09	14.72	-39.8	-40.9	21.9	0.00e+00	0	41	0	676331520	52	6359
2026-01-19 20:15:20.28	357.89	14.70	-40.0	-41.1	21.7	0.00e+00	0	41	0	678428672	52	6525
2026-01-19 20:15:21.29	357.68	14.68	-39.8	-41.0	21.8	0.00e+00	25	41	0	680525824	52	6401
2026-01-19 20:15:22.30	357.47	14.66	-40.1	-41.2	21.6	0.00e+00	0	41	0	681574400	52	6613
2026-01-19 20:15:23.31	357.26	14.64	-39.9	-41.0	21.9	0.00e+00	46	41	0	683671552	52	6420
2026-01-19 20:15:24.32	357.06	14.62	-40.1	-41.2	21.7	0.00e+00	0	41	0	685768704	52	6571
2026-01-19 20:15:25.33	356.85	14.60	-40.2	-41.4	21.7	0.00e+00	90	41	0	687865856	52	6704
2026-01-19 20:15:26.34	356.64	14.57	-39.9	-41.1	21.9	0.00e+00	0	41	0	689963008	52	6465
2026-01-19 20:15:27.35	356.44	14.55	-40.0	-41.1	21.8	0.00e+00	0	41	0	691011584	52	6528
2026-01-19 20:15:28.36	356.23	14.53	-39.3	-40.3	22.4	0.00e+00	0	41	0	693108736	52	5951
2026-01-19 20:15:29.37	356.03	14.51	-39.4	-40.5	22.3	0.00e+00	33	41	0	695205888	52	6064
2026-01-19 20:15:30.38	355.82	14.48	-38.9	-39.9	22.7	0.00e+00	49	41	0	697303040	52	5676
2026-01-19 20:15:31.39	355.62	14.46	-38.8	-39.8	22.8	0.00e+00	0	41	0	699400192	50	6291
2026-01-19 20:15:32.40	355.41	14.44	-38.9	-39.9	22.7	0.00e+00	85	41	0	700448768	50	6328
2026-01-19 20:15:33.40	355.21	14.41	-39.1	-40.1	22.4	0.00e+00	0	41	0	702545920	50	6492
2026-01-19 20:15:34.41	355.01	14.39	-39.2	-40.2	22.5	0.00e+00	0	41	0	704643072	50	6586
2026-01-19 20:15:35.41	354.81	14.37	-39.0	-40.1	22.6	0.00e+00	0	41	0	706740224	50	6483
2026-01-19 20:15:36.42	354.60	14.34	-39.2	-40.2	22.5	0.00e+00	0	41	0	708837376	50	6562
2026-01-19 20:15:37.43	354.40	14.32	-38.9	-39.9	22.9	0.00e+00	50	41	0	709885952	50	6327
2026-01-19 20:15:38.44	354.20	14.29	-39.0	-40.0	22.6	0.00e+00	0	41	0	711983104	50	6399
2026-01-19 20:15:39.45	354.00	14.26	-39.1	-40.1	22.6	0.00e+00	90	41	0	714080256	50	6492
2026-01-19 20:15:40.46	353.79	14.24	-39.1	-40.1	22.5	0.00e+00	0	41	0	716177408	50	6516
2026-01-19 20:15:41.47	353.59	14.21	-39.3	-40.3	22.4	0.00e+00	0	41	0	718274560	50	6645
2026-01-19 20:15:42.48	353.39	14.19	-39.6	-40.7	22.1	0.00e+00	0	41	0	719323136	50	6981
2026-01-19 20:15:43.48	353.19	14.16	-39.8	-40.8	22.0	0.00e+00	0	41	0	721420288	50	7087
2026-01-19 20:15:44.49	352.99	14.13	-39.7	-40.8	22.0	0.00e+00	0	41	0	723517440	52	6283
2026-01-19 20:15:45.50	352.79	14.10	-39.6	-40.7	22.1	0.00e+00	0	41	0	725614592	52	6181
2026-01-19 20:15:46.51	352.59	14.08	-39.7	-40.8	22.0	0.00e+00	42	41	0	727711744	52	6258
2026-01-19 20:15:47.52	352.39	14.05	-39.7	-40.8	22.0	0.00e+00	0	41	0	728760320	52	6283
2026-01-19 20:15:48.53	352.20	14.02	-39.8	-40.9	22.0	0.00e+00	84	41	0	730857472	52	6328
2026-01-19 20:15:49.54	352.00	13.99	-40.1	-41.3	21.7	0.00e+00	0	41	0	732954624	52	6619
2026-01-19 20:15:50.55	351.80	13.96	-39.7	-40.8	21.9	0.00e+00	0	41	0	735051776	52	6309
2026-01-19 20:15:51.56	351.60	13.93	-40.0	-41.1	21.7	0.00e+00	0	41	0	737148928	52	6526
2026-01-19 20:15:52.57	351.41	13.90	-40.1	-41.2	21.7	0.00e+00	0	41	0	739246080	52	6610
2026-01-19 20:15:53.58	351.21	13.87	-40.0	-41.1	21.8	0.00e+00	43	41	0	740294656	52	6521
2026-01-19 20:15:54.59	351.01	13.84	-39.9	-41.0	21.8	0.00e+00	0	41	0	742391808	52	6460
2026-01-19 20:15:55.60	350.82	13.81	-40.1	-41.2	21.6	0.00e+00	92	41	0	744488960	52	6565
2026-01-19 20:15:56.60	350.62	13.78	-40.2	-41.3	21.6	0.00e+00	0	41	0	746586112	52	6647
2026-01-19 20:15:57.61	350.43	13.75	-39.7	-40.8	21.9	0.00e+00	0	41	0	747634688	52	6289
2026-01-19 20:15:58.62	350.23	13.71	-39.7	-40.7	22.0	0.00e+00	0	41	0	749731840	52	6238
2026-01-19 20:15:59.63	350.04	13.68	-39.5	-40.5	22.3	0.00e+00	0	41	0	751828992	52	6053
2026-01-19 20:16:00.64	349.85	13.65	-39.2	-40.2	22.5	0.00e+00	54	41	0	753926144	52	5851
2026-01-19 20:16:01.65	349.65	13.62	-39.5	-40.5	22.3	0.00e+00	0	41	0	756023296	52	6093
2026-01-19 20:16:02.66	349.46	13.59	-39.3	-40.4	22.4	0.00e+00	92	41	0	758120448	52	5972
2026-01-19 20:16:03.67	349.27	13.55	-39.3	-40.3	22.3	0.00e+00	0	41	0	759169024	52	5955
2026-01-19 20:16:04.68	349.08	13.52	-39.2	-40.2	22.5	0.00e+00	0	41	0	761266176	52	5858
2026-01-19 20:16:05.69	348.88	13.49	-39.2	-40.3	22.5	0.00e+00	0	41	0	763363328	52	5919
2026-01-19 20:16:06.70	348.69	13.45	-39.2	-40.3	22.3	0.00e+00	0	41	0	765460480	52	5921
2026-01-19 20:16:07.71	348.50	13.42	-39.4	-40.4	22.4	0.00e+00	45	41	0	767557632	52	5998
2026-01-19 20:16:08.71	348.31	13.38	-38.9	-39.9	22.7	0.00e+00	0	41	0	768606208	52	5640
2026-01-19 20:16:09.72	348.12	13.35	-38.7	-39.7	22.9	0.00e+00	81	41	0	770703360	50	6188
2026-01-19 20:16:10.73	347.93	13.31	-38.4	-39.3	23.1	0.00e+00	0	41	0	772800512	50	5923
2026-01-19 20:16:11.74	347.75	13.28	-38.4	-39.3	23.0	0.00e+00	0	41	0	774897664	50	5958
2026-01-19 20:16:12.75	347.56	13.24	-38.4	-39.4	22.9	0.00e+00	0	41	0	776994816	50	5972
2026-01-19 20:16:13.76	347.37	13.21	-38.5	-39.5	22.8	0.00e+00	0	41	0	778043392	50	6045
2026-01-19 20:16:14.78	347.18	13.17	-38.7	-39.6	22.8	0.00e+00	47	41	0	780140544	50	6163
2026-01-19 20:16:15.78	347.00	13.13	-38.6	-39.6	22.8	0.00e+00	0	41	0	782237696	50	6122
2026-01-19 20:16:16.79	346.81	13.10	-39.0	-40.0	22.4	0.00e+00	65	41	0	784334848	50	6425
2026-01-19 20:16:17.80	346.62	13.06	-39.3	-40.3	22.3	0.00e+00	0	41	0	786432000	50	6675
2026-01-19 20:16:18.81	346.44	13.02	-39.5	-40.6	22.1	0.00e+00	12	41	0	787480576	50	6867
2026-01-19 20:16:19.82	346.25	12.99	-39.5	-40.6	22.1	0.00e+00	0	41	0	789577728	50	6870
2026-01-19 20:16:20.83	346.07	12.95	-39.6	-40.7	21.9	0.00e+00	0	41	0	791674880	52	6240
2026-01-19 20:16:21.84	345.88	12.91	-39.9	-41.1	21.7	0.00e+00	17	41	0	793772032	52	6479
2026-01-19 20:16:22.85	345.70	12.87	-40.2	-41.4	21.5	0.00e+00	0	41	0	795869184	52	6711
2026-01-19 20:16:23.86	345.52	12.84	-40.5	-41.7	21.1	0.00e+00	44	41	0	796917760	52	6976
2026-01-19 20:16:24.86	345.34	12.80	-40.4	-41.7	21.2	0.00e+00	0	41	0	799014912	52	6928
2026-01-19 20:16:25.87	345.15	12.76	-40.4	-41.7	21.2	0.00e+00	33	41	0	801112064	52	6953
2026-01-19 20:16:26.88	344.97	12.72	-40.3	-41.6	21.2	0.00e+00	0	41	0	803209216	52	6873
2026-01-19 20:16:27.90	344.79	12.68	-40.4	-41.7	21.0	0.00e+00	0	41	0	805306368	52	6929
2026-01-19 20:16:28.90	344.61	12.64	-40.4	-41.7	21.2	0.00e+00	9	41	0	806354944	52	6939
2026-01-19 20:16:29.91	344.43	12.60	-40.2	-41.4	21.4	0.00e+00	0	41	0	808452096	52	6722
2026-01-19 20:16:30.92	344.25	12.56	-40.3	-41.5	21.3	0.00e+00	48	41	0	810549248	52	6786
2026-01-19 20:16:31.93	344.07	12.52	-40.1	-41.3	21.2	0.00e+00	0	41	0	812646400	52	6678
2026-01-19 20:16:32.94	343.89	12.48	-40.4	-41.6	21.3	0.00e+00	72	41	0	814743552	52	6881
2026-01-19 20:16:33.95	343.71	12.44	-40.4	-41.7	21.2	0.00e+00	0	41	0	815792128	52	6955
2026-01-19 20:16:34.96	343.53	12.40	-40.6	-41.9	21.0	0.00e+00	0	41	0	817889280	52	7126
2026-01-19 20:16:35.97	343.36	12.36	-40.5	-41.7	21.2	0.00e+00	0	41	0	819986432	52	7000
2026-01-19 20:16:36.98	343.18	12.32	-40.5	-41.8	21.1	0.00e+00	0	41	0	822083584	52	7048
2026-01-19 20:16:37.98	343.01	12.28	-40.5	-41.8	21.0	0.00e+00	47	41	0	824180736	52	7046
2026-01-19 20:16:39.00	342.83	12.24	-40.4	-41.7	21.1	0.00e+00	0	41	0	825229312	52	6930
2026-01-19 20:16:40.01	342.65	12.20	-40.3	-41.4	21.5	0.00e+00	49	41	0	827326464	52	6765
2026-01-19 20:16:41.01	342.48	12.16	-40.4	-41.6	21.2	0.00e+00	0	41	0	829423616	52	6919
2026-01-19 20:16:42.02	342.31	12.11	-40.4	-41.6	21.3	0.00e+00	0	41	0	831520768	52	6920
2026-01-19 20:16:43.03	342.13	12.07	-40.4	-41.6	21.3	0.00e+00	0	41	0	833617920	52	6870
2026-01-19 20:16:44.04	341.96	12.03	-40.7	-41.9	21.1	0.00e+00	0	41	0	835715072	52	7145
2026-01-19 20:16:45.05	341.79	11.99	-40.5	-41.7	21.2	0.00e+00	47	41	0	836763648	52	6971
2026-01-19 20:16:46.06	341.61	11.94	-40.7	-41.9	21.0	0.00e+00	0	41	0	838860800	52	7135
2026-01-19 20:16:47.07	341.44	11.90	-40.6	-41.8	21.0	0.00e+00	90	41	0	840957952	54	6250
2026-01-19 20:16:48.08	341.27	11.86	-40.5	-41.6	21.2	0.00e+00	0	41	0	843055104	54	6168
2026-01-19 20:16:49.08	341.10	11.81	-40.2	-41.3	21.7	0.00e+00	26	41	0	845152256	54	5921
2026-01-19 20:16:50.09	340.93	11.77	-40.0	-41.1	21.8	0.00e+00	0	41	0	846200832	54	5798
2026-01-19 20:16:51.10	340.76	11.73	-39.6	-40.7	22.0	0.00e+00	0	41	0	848297984	52	6187
2026-01-19 20:16:52.11	340.59	11.68	-39.7	-40.8	22.1	0.00e+00	0	41	0	850395136	52	6248
2026-01-19 20:16:53.12	340.42	11.64	-40.0	-41.1	21.7	0.00e+00	0	41	0	852492288	52	6494
2026-01-19 20:16:54.13	340.26	11.60	-40.1	-41.2	21.6	0.00e+00	13	41	0	854589440	52	6581
2026-01-19 20:16:55.14	340.09	11.55	-40.4	-41.5	21.3	0.00e+00	0	41	0	855638016	52	6834
2026-01-19 20:16:56.15	339.92	11.51	-40.5	-41.7	21.1	0.00e+00	48	41	0	857735168	54	6223
2026-01-19 20:16:57.16	339.75	11.46	-41.1	-42.4	20.6	0.00e+00	0	41	0	859832320	54	6721
2026-01-19 20:16:58.17	339.59	11.42	-41.6	-42.9	20.3	0.00e+00	0	41	0	861929472	54	7166
2026-01-19 20:16:59.18	339.42	11.37	-41.6	-43.0	20.0	0.00e+00	44	41	0	864026624	54	7204
2026-01-19 20:17:00.19	339.26	11.33	-41.9	-43.3	19.9	0.00e+00	0	41	0	865075200	56	6677
2026-01-19 20:17:01.20	339.09	11.28	-41.6	-43.0	20.0	0.00e+00	92	41	0	867172352	56	6464
2026-01-19 20:17:02.20	338.93	11.24	-41.7	-43.2	19.9	0.00e+00	0	41	0	869269504	56	6564
2026-01-19 20:17:03.21	338.77	11.19	-41.4	-42.8	20.2	0.00e+00	92	41	0	871366656	56	6264
2026-01-19 20:17:04.22	338.60	11.15	-41.5	-42.9	20.2	0.00e+00	0	41	0	873463808	56	6359
2026-01-19 20:17:05.23	338.44	11.10	-41.4	-42.7	20.5	0.00e+00	0	41	0	874512384	56	6208
2026-01-19 20:17:06.24	338.28	11.06	-41.2	-42.6	20.2	0.00e+00	0	41	0	876609536	56	6106
2026-01-19 20:17:07.25	338.12	11.01	-41.3	-42.6	20.3	0.00e+00	0	41	0	878706688	56	6139
2026-01-19 20:17:08.26	337.96	10.96	-41.5	-42.9	20.1	0.00e+00	85	41	0	880803840	56	6355
2026-01-19 20:17:09.27	337.80	10.92	-42.3	-43.8	19.2	0.00e+00	0	41	0	882900992	56	7032
2026-01-19 20:17:10.28	337.64	10.87	-42.5	-44.2	18.9	0.00e+00	91	41	0	883949568	56	7339
2026-01-19 20:17:11.28	337.48	10.83	-43.0	-44.7	18.2	0.00e+00	0	41	0	886046720	58	6961
2026-01-19 20:17:12.29	337.32	10.78	-43.5	-45.5	17.6	0.00e+00	0	41	0	888143872	58	7644
2026-01-19 20:17:13.30	337.16	10.73	-43.8	-45.8	17.2	0.00e+00	0	41	0	890241024	60	7080
2026-01-19 20:17:14.31	337.00	10.69	-43.9	-46.0	17.2	0.00e+00	0	41	0	892338176	60	7232
2026-01-19 20:17:15.32	336.85	10.64	-44.0	-46.1	17.1	0.00e+00	15	41	0	893386752	60	7284
2026-01-19 20:17:16.33	336.69	10.59	-43.6	-45.5	17.7	0.00e+00	0	41	0	895483904	60	6846
2026-01-19 20:17:17.34	336.53	10.54	-43.5	-45.4	17.7	0.00e+00	81	41	0	897581056	60	6697
2026-01-19 20:17:18.35	336.38	10.50	-43.2	-45.0	18.2	0.00e+00	0	41	0	899678208	60	6419
2026-01-19 20:17:19.36	336.22	10.45	-43.1	-44.9	18.3	0.00e+00	0	41	0	901775360	60	6335
2026-01-19 20:17:20.37	336.07	10.40	-43.0	-44.8	18.4	0.00e+00	0	41	0	902823936	60	6254
2026-01-19 20:17:21.38	335.91	10.35	-42.9	-44.5	18.6	0.00e+00	0	41	0	904921088	60	6095
2026-01-19 20:17:22.39	335.76	10.31	-43.0	-44.7	18.2	0.00e+00	0	41	0	907018240	60	6236
2026-01-19 20:17:23.40	335.60	10.26	-42.8	-44.4	18.6	0.00e+00	0	41	0	909115392	60	6016
2026-01-19 20:17:24.40	335.45	10.21	-42.7	-44.3	18.8	0.00e+00	92	41	0	911212544	58	6680
2026-01-19 20:17:25.41	335.30	10.16	-42.4	-44.0	19.0	0.00e+00	0	41	0	912261120	58	6428
2026-01-19 20:17:26.42	335.15	10.11	-42.3	-43.8	19.2	0.00e+00	0	41	0	914358272	58	6302
2026-01-19 20:17:27.43	335.00	10.07	-42.1	-43.6	19.3	0.00e+00	0	41	0	916455424	58	6138
2026-01-19 20:17:28.44	334.85	10.02	-41.9	-43.3	19.8	0.00e+00	0	41	0	918552576	58	5960
2026-01-19 20:17:29.45	334.70	9.97	-42.1	-43.5	19.6	0.00e+00	0	41	0	920649728	56	6804
2026-01-19 20:17:30.46	334.55	9.92	-41.8	-43.1	19.6	0.00e+00	0	41	0	922746880	56	6539
2026-01-19 20:17:31.47	334.40	9.87	-41.9	-43.3	19.8	0.00e+00	90	41	0	923795456	56	6658
2026-01-19 20:17:32.48	334.25	9.82	-42.0	-43.4	19.7	0.00e+00	0	41	0	925892608	56	6734
2026-01-19 20:17:33.49	334.10	9.77	-42.0	-43.5	19.5	0.00e+00	92	41	0	927989760	56	6770
2026-01-19 20:17:34.50	333.95	9.73	-42.1	-43.5	19.6	0.00e+00	0	41	0	930086912	56	6826
2026-01-19 20:17:35.51	333.81	9.68	-41.7	-43.1	19.8	0.00e+00	0	41	0	931135488	56	6488
2026-01-19 20:17:36.52	333.66	9.63	-41.8	-43.1	19.8	0.00e+00	0	41	0	933232640	56	6526
2026-01-19 20:17:37.53	333.51	9.58	-41.5	-42.8	20.0	0.00e+00	0	41	0	935329792	56	6295
2026-01-19 20:17:38.54	333.37	9.53	-41.4	-42.7	20.4	0.00e+00	40	41	0	937426944	56	6186
2026-01-19 20:17:39.55	333.22	9.48	-41.4	-42.7	20.3	0.00e+00	0	41	0	939524096	56	6205
2026-01-19 20:17:40.56	333.08	9.43	-41.3	-42.5	20.4	0.00e+00	90	41	0	941621248	56	6091
2026-01-19 20:17:41.56	332.94	9.38	-41.0	-42.3	20.4	0.00e+00	0	41	0	942669824	56	5927
2026-01-19 20:17:42.57	332.79	9.33	-41.1	-42.4	20.5	0.00e+00	0	41	0	944766976	56	6000
2026-01-19 20:17:43.58	332.65	9.28	-41.1	-42.4	20.4	0.00e+00	0	41	0	946864128	56	6000
2026-01-19 20:17:44.60	332.50	9.23	-41.3	-42.6	20.3	0.00e+00	0	41	0	948961280	56	6135
2026-01-19 20:17:45.61	332.36	9.18	-41.3	-42.6	20.2	0.00e+00	41	41	0	951058432	56	6171
2026-01-19 20:17:46.62	332.22	9.13	-41.3	-42.6	20.3	0.00e+00	0	41	0	952107008	56	6139
2026-01-19 20:17:47.63	332.08	9.08	-41.5	-42.8	20.2	0.00e+00	57	41	0	954204160	56	6289
2026-01-19 20:17:48.64	331.94	9.03	-41.5	-42.8	20.1	0.00e+00	0	41	0	956301312	56	6284
2026-01-19 20:17:49.65	331.80	8.98	-41.5	-42.8	20.1	0.00e+00	0	41	0	958398464	56	6310
2026-01-19 20:17:50.66	331.66	8.93	-41.7	-43.1	19.8	0.00e+00	0	41	0	960495616	56	6500
2026-01-19 20:17:51.67	331.52	8.88	-41.8	-43.1	19.7	0.00e+00	0	41	0	961544192	56	6534
2026-01-19 20:17:52.67	331.38	8.83	-41.8	-43.2	19.9	0.00e+00	23	41	0	963641344	56	6555
2026-01-19 20:17:53.68	331.24	8.78	-41.7	-43.1	19.9	0.00e+00	0	41	0	965738496	56	6487
2026-01-19 20:17:54.69	331.11	8.73	-41.8	-43.2	19.7	0.00e+00	60	41	0	967835648	56	6572
2026-01-19 20:17:55.70	330.97	8.68	-41.6	-43.0	19.8	0.00e+00	0	41	0	969932800	56	6398
2026-01-19 20:17:56.71	330.83	8.63	-41.7	-43.2	19.7	0.00e+00	21	41	0	970981376	56	6542
2026-01-19 20:17:57.72	330.70	8.58	-41.6	-43.0	19.9	0.00e+00	0	41	0	973078528	56	6406
2026-01-19 20:17:58.73	330.56	8.53	-41.7	-43.1	19.8	0.00e+00	0	41	0	975175680	56	6470
2026-01-19 20:17:59.74	330.42	8.48	-41.5	-42.9	20.0	0.00e+00	44	41	0	977272832	56	6329
2026-01-19 20:18:00.75	330.29	8.43	-41.6	-43.0	19.9	0.00e+00	0	41	0	979369984	56	6405
2026-01-19 20:18:01.76	330.16	8.38	-41.6	-43.0	19.8	0.00e+00	91	41	0	980418560	56	6443
2026-01-19 20:18:02.77	330.02	8.33	-41.7	-43.1	19.8	0.00e+00	0	41	0	982515712	56	6470
2026-01-19 20:18:03.78	329.89	8.28	-41.6	-43.0	19.9	0.00e+00	0	41	0	984612864	56	6449
2026-01-19 20:18:04.78	329.76	8.22	-41.6	-43.0	20.0	0.00e+00	0	41	0	986710016	56	6399
2026-01-19 20:18:05.79	329.62	8.17	-41.1	-42.4	20.4	0.00e+00	0	41	0	988807168	56	6007
2026-01-19 20:18:06.80	329.49	8.12	-41.2	-42.5	20.5	0.00e+00	45	41	0	989855744	56	6039
2026-01-19 20:18:07.81	329.36	8.07	-41.0	-42.2	20.7	0.00e+00	0	41	0	991952896	56	5877
2026-01-19 20:18:08.82	329.23	8.02	-40.8	-42.0	20.7	0.00e+00	92	41	0	994050048	54	6460
2026-01-19 20:18:09.83	329.10	7.97	-40.5	-41.7	21.2	0.00e+00	0	41	0	996147200	54	6205
2026-01-19 20:18:10.84	328.97	7.92	-40.1	-41.2	21.5	0.00e+00	89	41	0	998244352	54	5849
2026-01-19 20:18:11.85	328.84	7.87	-40.1	-41.2	21.4	0.00e+00	0	41	0	999292928	54	5861
2026-01-19 20:18:12.86	328.71	7.82	-40.2	-41.3	21.3	0.00e+00	0	41	0	1001390080	54	5917
2026-01-19 20:18:13.87	328.58	7.76	-40.1	-41.2	21.3	0.00e+00	33	41	0	1003487232	54	5874
2026-01-19 20:18:14.88	328.45	7.71	-40.3	-41.5	21.2	0.00e+00	0	41	0	1005584384	54	6047
2026-01-19 20:18:15.89	328.33	7.66	-40.1	-41.3	21.2	0.00e+00	43	41	0	1007681536	54	5909
2026-01-19 20:18:16.90	328.20	7.61	-40.1	-41.3	21.3	0.00e+00	0	41	0	1009778688	54	5899
2026-01-19 20:18:17.91	328.07	7.56	-40.4	-41.6	20.9	0.00e+00	73	41	0	1010827264	54	6136
2026-01-19 20:18:18.91	327.95	7.51	-40.4	-41.6	21.0	0.00e+00	33	41	0	1012924416	54	6115
2026-01-19 20:18:19.92	327.82	7.46	-40.6	-41.8	20.7	0.00e+00	0	41	0	1015021568	54	6314
2026-01-19 20:18:20.93	327.69	7.41	-40.5	-41.7	20.8	0.00e+00	0	41	0	1017118720	54	6227
2026-01-19 20:18:21.94	327.57	7.35	-40.6	-41.8	21.0	0.00e+00	0	41	0	1019215872	54	6271
2026-01-19 20:18:22.95	327.44	7.30	-40.4	-41.6	20.9	0.00e+00	29	41	0	1020264448	54	6128
2026-01-19 20:18:23.96	327.32	7.25	-40.2	-41.4	21.2	0.00e+00	0	41	0	1022361600	54	5967
2026-01-19 20:18:24.97	327.20	7.20	-40.4	-41.6	21.0	0.00e+00	54	41	0	1024458752	54	6139
2026-01-19 20:18:25.98	327.07	7.15	-40.4	-41.6	20.9	0.00e+00	0	41	0	1026555904	54	6117
2026-01-19 20:18:26.99	326.95	7.10	-39.8	-40.9	21.3	0.00e+00	0	41	0	1028653056	54	5651
2026-01-19 20:18:28.00	326.83	7.04	-40.0	-41.1	21.3	0.00e+00	0	41	0	1029701632	54	5817
2026-01-19 20:18:29.01	326.71	6.99	-40.5	-41.8	20.9	0.00e+00	0	41	0	1031798784	54	6253
2026-01-19 20:18:30.02	326.59	6.94	-40.2	-41.3	20.9	0.00e+00	46	41	0	1033895936	54	5957
2026-01-19 20:18:31.03	326.46	6.89	-40.5	-41.8	20.8	0.00e+00	0	41	0	1035993088	54	6250
2026-01-19 20:18:32.04	326.34	6.84	-40.7	-41.9	20.9	0.00e+00	76	41	0	1038090240	54	6381
2026-01-19 20:18:33.04	326.22	6.79	-40.5	-41.8	20.8	0.00e+00	0	41	0	1039138816	54	6255
2026-01-19 20:18:34.05	326.10	6.73	-40.9	-42.2	20.5	0.00e+00	0	41	0	1041235968	54	6570
2026-01-19 20:18:35.06	325.99	6.68	-41.0	-42.3	20.3	0.00e+00	0	41	0	1043333120	54	6617
2026-01-19 20:18:36.07	325.87	6.63	-40.9	-42.1	20.3	0.00e+00	0	41	0	1045430272	54	6538
2026-01-19 20:18:37.08	325.75	6.58	-41.0	-42.4	20.1	0.00e+00	0	41	0	1047527424	54	6708
2026-01-19 20:18:38.09	325.63	6.53	-41.0	-42.3	20.3	0.00e+00	0	41	0	1048576000	54	6660
2026-01-19 20:18:39.10	325.51	6.48	-41.1	-42.4	20.4	0.00e+00	90	41	0	1050673152	54	6763
2026-01-19 20:18:40.11	325.40	6.42	-40.6	-41.8	20.7	0.00e+00	0	41	0	1052770304	54	6291
2026-01-19 20:18:41.12	325.28	6.37	-41.1	-42.5	20.1	0.00e+00	60	41	0	1054867456	54	6790
2026-01-19 20:18:42.13	325.16	6.32	-41.3	-42.6	19.8	0.00e+00	0	41	0	1056964608	54	6902
2026-01-19 20:18:43.14	325.05	6.27	-40.9	-42.2	20.2	0.00e+00	0	41	0	1058013184	54	6615
2026-01-19 20:18:44.15	324.93	6.22	-41.5	-42.9	19.6	0.00e+00	0	41	0	1060110336	54	7107
2026-01-19 20:18:45.16	324.82	6.16	-41.4	-42.7	19.9	0.00e+00	0	41	0	1062207488	54	6991
2026-01-19 20:18:46.17	324.70	6.11	-41.1	-42.4	20.0	0.00e+00	91	41	0	1064304640	54	6762
2026-01-19 20:18:47.18	324.59	6.06	-41.1	-42.4	20.1	0.00e+00	0	41	0	1066401792	54	6726
2026-01-19 20:18:48.19	324.47	6.01	-40.8	-42.1	20.4	0.00e+00	92	41	0	1067450368	54	6512
2026-01-19 20:18:49.20	324.36	5.96	-41.0	-42.3	20.2	0.00e+00	32	41	0	1069547520	54	6624
2026-01-19 20:18:50.21	324.25	5.91	-41.0	-42.4	20.4	0.00e+00	0	41	0	1071644672	54	6693
2026-01-19 20:18:51.21	324.14	5.85	-40.5	-41.7	21.0	0.00e+00	0	41	0	1073741824	54	6223
2026-01-19 20:18:52.22	324.02	5.80	-39.9	-41.0	21.2	0.00e+00	23	41	0	1075838976	52	6455
2026-01-19 20:18:53.23	323.91	5.75	-40.3	-41.4	20.7	0.00e+00	63	41	0	1077936128	52	6768
2026-01-19 20:18:54.24	323.80	5.70	-41.6	-43.0	19.0	0.00e+00	0	41	0	1078984704	54	7224
2026-01-19 20:18:55.25	323.69	5.65	-40.9	-42.1	20.5	0.00e+00	92	41	0	1081081856	56	5811
2026-01-19 20:18:56.26	323.58	5.59	-39.3	-40.4	21.7	0.00e+00	0	41	0	1083179008	52	5995
2026-01-19 20:18:57.27	323.47	5.54	-40.5	-41.7	20.9	0.00e+00	0	41	0	1085276160	56	5553
2026-01-19 20:18:58.28	323.36	5.49	-40.3	-41.5	20.8	0.00e+00	0	41	0	1087373312	54	6049
2026-01-19 20:18:59.29	323.25	5.44	-41.6	-43.1	19.5	0.00e+00	0	41	0	1088421888	56	6484
2026-01-19 20:19:00.30	323.14	5.39	-41.1	-42.5	20.3	0.00e+00	25	41	0	1090519040	56	6036
2026-01-19 20:19:01.31	323.03	5.34	-39.7	-40.8	21.3	0.00e+00	0	41	0	1092616192	54	5621
2026-01-19 20:19:02.32	322.93	5.28	-41.5	-43.0	19.4	0.00e+00	90	41	0	1094713344	54	7189
2026-01-19 20:19:03.33	322.82	5.23	-40.8	-42.1	20.6	0.00e+00	0	41	0	1096810496	54	6516
2026-01-19 20:19:04.34	322.71	5.18	-41.8	-43.2	19.3	0.00e+00	0	41	0	1097859072	54	7419
2026-01-19 20:19:05.35	322.60	5.13	-41.7	-43.2	19.1	0.00e+00	0	41	0	1099956224	56	6593
2026-01-19 20:19:06.36	322.50	5.08	-41.4	-42.9	19.9	0.00e+00	0	41	0	1102053376	56	6328
2026-01-19 20:19:07.37	322.39	5.02	-42.2	-43.8	18.7	0.00e+00	28	41	0	1104150528	56	7050
2026-01-19 20:19:08.38	322.29	4.97	-41.7	-43.2	19.4	0.00e+00	0	41	0	1106247680	56	6580
2026-01-19 20:19:09.39	322.18	4.92	-42.5	-44.1	18.5	0.00e+00	61	41	0	1107296256	56	7332
2026-01-19 20:19:10.40	322.08	4.87	-42.0	-43.6	18.9	0.00e+00	0	41	0	1109393408	56	6879
2026-01-19 20:19:11.40	321.97	4.82	-42.0	-43.5	19.2	0.00e+00	92	41	0	1111490560	56	6835
2026-01-19 20:19:12.41	321.87	4.77	-42.1	-43.7	18.9	0.00e+00	0	41	0	1113587712	56	6948
2026-01-19 20:19:13.42	321.76	4.71	-42.0	-43.6	18.8	0.00e+00	0	41	0	1115684864	56	6881
2026-01-19 20:19:14.43	321.66	4.66	-42.0	-43.6	18.6	0.00e+00	14	41	0	1116733440	56	6858
2026-01-19 20:19:15.44	321.56	4.61	-41.9	-43.5	19.3	0.00e+00	0	41	0	1118830592	58	6062
2026-01-19 20:19:16.45	321.46	4.56	-40.6	-41.9	20.0	0.00e+00	90	41	0	1120927744	52	7122
2026-01-19 20:19:17.46	321.35	4.51	-41.5	-42.9	19.9	0.00e+00	0	41	0	1123024896	56	6352
2026-01-19 20:19:18.47	321.25	4.46	-40.9	-42.2	19.9	0.00e+00	90	41	0	1125122048	54	6577
2026-01-19 20:19:19.48	321.15	4.40	-40.8	-42.1	20.1	0.00e+00	0	41	0	1126170624	54	6469
2026-01-19 20:19:20.49	321.05	4.35	-41.1	-42.5	19.9	0.00e+00	0	41	0	1128267776	54	6799
2026-01-19 20:19:21.50	320.95	4.30	-40.4	-41.7	20.4	0.00e+00	0	41	0	1130364928	54	6208
2026-01-19 20:19:22.51	320.85	4.25	-41.3	-42.7	19.7	0.00e+00	0	41	0	1132462080	54	6954
2026-01-19 20:19:23.52	320.75	4.20	-40.0	-41.1	21.0	0.00e+00	91	41	0	1134559232	54	5820
2026-01-19 20:19:24.52	320.65	4.15	-41.1	-42.5	19.7	0.00e+00	32	41	0	1135607808	54	6773
2026-01-19 20:19:25.53	320.55	4.09	-42.1	-43.7	18.7	0.00e+00	63	41	0	1137704960	56	6998
2026-01-19 20:19:26.54	320.45	4.04	-40.7	-41.9	20.3	0.00e+00	0	41	0	1139802112	56	5684
2026-01-19 20:19:27.55	320.35	3.99	-42.0	-43.6	18.5	0.00e+00	0	41	0	1141899264	54	7729
2026-01-19 20:19:28.56	320.25	3.94	-41.9	-43.4	19.1	0.00e+00	0	41	0	1143996416	56	6748
2026-01-19 20:19:29.57	320.16	3.89	-40.7	-42.0	20.3	0.00e+00	0	41	0	1146093568	54	6417
2026-01-19 20:19:30.58	320.06	3.84	-41.5	-43.0	19.2	0.00e+00	39	41	0	1147142144	56	6392
2026-01-19 20:19:31.58	319.96	3.79	-41.3	-42.7	19.5	0.00e+00	0	41	0	1149239296	56	6229
2026-01-19 20:19:32.59	319.86	3.73	-41.8	-43.3	18.2	0.00e+00	92	41	0	1151336448	56	6669
2026-01-19 20:19:33.60	319.77	3.68	-43.4	-45.6	16.1	0.00e+00	0	41	0	1153433600	58	7737
2026-01-19 20:19:34.61	319.67	3.63	-42.2	-43.9	18.4	0.00e+00	0	41	0	1155530752	58	6378
2026-01-19 20:19:35.62	319.58	3.58	-42.6	-44.4	18.0	0.00e+00	0	41	0	1156579328	58	6713
2026-01-19 20:19:36.64	319.48	3.53	-42.9	-44.9	17.3	0.00e+00	0	41	0	1158676480	56	7981
2026-01-19 20:19:37.65	319.38	3.48	-44.8	-47.8	14.5	0.00e+00	59	41	0	1160773632	60	8871
2026-01-19 20:19:38.65	319.29	3.43	-43.2	-45.3	16.9	0.00e+00	0	41	0	1162870784	58	7474
2026-01-19 20:19:39.66	319.20	3.38	-42.3	-44.0	18.4	0.00e+00	51	41	0	1164967936	58	6462
2026-01-19 20:19:40.67	319.10	3.32	-43.3	-45.4	17.3	0.00e+00	0	41	0	1166016512	60	6715
2026-01-19 20:19:41.68	319.01	3.27	-44.4	-47.1	14.9	0.00e+00	20	41	0	1168113664	60	8192
2026-01-19 20:19:42.69	318.92	3.22	-41.9	-43.6	18.5	0.00e+00	0	41	0	1170210816	58	6129
2026-01-19 20:19:43.70	318.82	3.17	-44.2	-46.7	16.1	0.00e+00	0	41	0	1172307968	60	7848
2026-01-19 20:19:44.71	318.73	3.12	-43.2	-45.3	16.8	0.00e+00	39	41	0	1174405120	58	7454
2026-01-19 20:19:45.72	318.64	3.07	-43.1	-45.2	16.8	0.00e+00	0	41	0	1175453696	60	6594
2026-01-19 20:19:46.73	318.54	3.02	-43.6	-45.9	16.5	0.00e+00	33	41	0	1177550848	60	7134
2026-01-19 20:19:47.74	318.45	2.97	-48.5	-63.7	3.6	8.06e-01	0	41	104	1178599424	60	55309
2026-01-19 20:19:48.75	318.36	2.91	-49.0	-64.1	3.6	1.51e+00	0	41	104	1178599424	60	57944
2026-01-19 20:19:49.76	318.27	2.86	-49.3	-64.4	3.6	1.51e+00	0	41	104	1178599424	60	60026
2026-01-19 20:19:50.77	318.18	2.81	-49.5	-64.6	3.6	1.51e+00	0	41	104	1178599424	60	61244
2026-01-19 20:19:51.78	318.09	2.76	-49.6	-64.8	3.6	1.51e+00	0	41	104	1178599424	60	62506
2026-01-19 20:19:52.79	318.00	2.71	-49.7	-64.9	3.6	1.51e+00	0	41	104	1178599424	60	63706
2026-01-19 20:19:53.80	317.91	2.66	-49.8	-65.0	3.6	1.51e+00	0	41	104	1178599424	60	64267
2026-01-19 20:19:54.80	317.82	2.61	-49.9	-65.1	3.6	1.51e+00	0	41	104	1178599424	60	64767
