passes_logs/2026/01/19/R4.6S_Anadyr/R4.6S_Anadyr__20260119_120933_NOAA_20_JPSS-1_rec.log

#Pass ID: 20260119_120933_NOAA 20 (JPSS-1)
#Satellite: NOAA 20 (JPSS-1)
#Configuration: NOAA 20
#almurnet v.1.7.20251203
#Start time: 2026-01-19 12:09:34

#Version: 2.2.20231116
#Station: R4.6S_Anadyr
#Location: 177.4865 lon 64.73178 lat
#TLE: 1 43013U 17073A   26018.92475364  .00000071  00000+0  54435-4 0  9998
#TLE: 2 43013  98.7641 319.8227 0001354  33.6678 326.4584 14.19536868423299

#Time	Az	El	Level	Level2	SNR	BER	BlckErr	Temp	State	Recorded	gain1	gain2
2026-01-19 12:09:34.66	19.35	0.04	-50.2	-65.1	3.5	1.51e+00	0	38	0	0	60	64948
2026-01-19 12:09:35.66	19.43	0.09	-50.1	-65.4	3.6	1.51e+00	0	39	104	0	60	67573
2026-01-19 12:09:36.67	19.51	0.14	-50.2	-65.4	3.6	1.51e+00	0	39	104	0	60	67138
2026-01-19 12:09:37.68	19.59	0.18	-50.2	-65.4	3.6	1.51e+00	0	39	104	0	60	67193
2026-01-19 12:09:38.69	19.67	0.23	-50.2	-65.4	3.6	1.51e+00	0	39	104	0	60	67102
2026-01-19 12:09:39.70	19.75	0.28	-50.2	-65.5	3.6	1.51e+00	0	39	104	0	60	67719
2026-01-19 12:09:40.71	19.84	0.32	-50.2	-65.4	3.6	1.51e+00	0	39	104	0	60	67694
2026-01-19 12:09:41.73	19.92	0.37	-50.2	-65.4	3.6	1.51e+00	0	40	104	0	60	67367
2026-01-19 12:09:42.74	20.00	0.42	-50.3	-65.4	3.6	1.51e+00	0	40	104	0	60	67598
2026-01-19 12:09:43.75	20.08	0.47	-50.3	-65.4	3.6	1.51e+00	0	40	104	0	60	67462
2026-01-19 12:09:44.75	20.17	0.51	-50.3	-65.4	3.6	1.51e+00	0	39	104	0	60	67585
2026-01-19 12:09:45.77	20.25	0.56	-50.2	-65.4	3.6	1.51e+00	0	40	104	0	60	67606
2026-01-19 12:09:46.78	20.33	0.61	-50.2	-65.4	3.6	1.51e+00	0	40	104	0	60	67691
2026-01-19 12:09:47.79	20.42	0.66	-50.1	-65.3	3.6	1.51e+00	0	40	104	0	60	66534
2026-01-19 12:09:48.80	20.50	0.70	-50.1	-65.3	3.6	1.51e+00	0	40	104	0	60	66617
2026-01-19 12:09:49.81	20.58	0.75	-50.0	-65.2	3.5	1.51e+00	0	40	104	0	60	66027
2026-01-19 12:09:50.82	20.67	0.80	-49.9	-65.2	3.6	1.51e+00	0	40	104	0	60	65556
2026-01-19 12:09:51.83	20.75	0.85	-49.9	-65.1	3.6	1.51e+00	0	40	104	0	60	64811
2026-01-19 12:09:52.84	20.84	0.89	-49.8	-65.0	3.6	1.51e+00	0	40	104	0	60	64374
2026-01-19 12:09:53.85	20.92	0.94	-49.7	-64.8	3.6	1.51e+00	0	40	104	0	60	63081
2026-01-19 12:09:54.86	21.01	0.99	-49.6	-64.8	3.6	1.51e+00	0	40	104	0	60	63150
2026-01-19 12:09:55.87	21.09	1.04	-49.5	-64.7	3.6	1.51e+00	0	40	104	0	60	61957
2026-01-19 12:09:56.88	21.18	1.08	-49.3	-64.5	3.6	1.51e+00	0	40	104	0	60	60660
2026-01-19 12:09:57.89	21.26	1.13	-49.1	-64.3	3.6	1.51e+00	0	40	104	0	60	59210
2026-01-19 12:09:58.90	21.35	1.18	-48.7	-64.0	3.6	1.51e+00	0	40	104	0	60	57199
2026-01-19 12:09:59.91	21.44	1.23	-48.5	-63.7	3.6	1.51e+00	0	40	104	0	60	55271
2026-01-19 12:10:00.92	21.52	1.28	-48.5	-63.7	3.6	1.51e+00	0	40	104	0	60	55123
2026-01-19 12:10:01.93	21.61	1.32	-48.5	-63.7	3.6	1.51e+00	0	40	104	0	60	55145
2026-01-19 12:10:02.94	21.70	1.37	-48.5	-63.7	3.6	1.51e+00	0	40	104	0	60	55028
2026-01-19 12:10:03.95	21.79	1.42	-48.5	-63.7	3.6	1.51e+00	0	40	104	0	60	55260
2026-01-19 12:10:04.96	21.87	1.47	-48.5	-63.7	3.6	1.51e+00	0	40	104	0	60	55166
2026-01-19 12:10:05.97	21.96	1.51	-48.5	-63.7	3.6	1.51e+00	0	40	104	0	60	55087
2026-01-19 12:10:06.98	22.05	1.56	-48.5	-63.7	3.6	1.51e+00	0	40	104	0	60	55316
2026-01-19 12:10:07.99	22.14	1.61	-48.5	-63.6	3.6	1.51e+00	0	40	104	0	60	54935
2026-01-19 12:10:09.00	22.23	1.66	-48.5	-63.7	3.6	1.51e+00	0	40	104	0	60	55200
2026-01-19 12:10:10.01	22.32	1.71	-48.5	-63.7	3.6	1.51e+00	0	40	104	0	60	55082
2026-01-19 12:10:11.02	22.41	1.76	-48.5	-63.7	3.6	1.51e+00	0	40	104	0	60	55122
2026-01-19 12:10:12.03	22.50	1.80	-48.5	-63.6	3.6	1.51e+00	0	40	104	0	60	54944
2026-01-19 12:10:13.04	22.59	1.85	-48.5	-63.7	3.6	1.51e+00	0	40	104	0	60	55224
2026-01-19 12:10:14.05	22.68	1.90	-48.5	-63.7	3.6	1.51e+00	0	40	104	0	60	55147
2026-01-19 12:10:15.06	22.77	1.95	-48.5	-63.7	3.6	1.51e+00	0	40	104	0	60	55445
2026-01-19 12:10:16.07	22.86	2.00	-48.5	-63.7	3.6	1.51e+00	0	40	104	0	60	55611
2026-01-19 12:10:17.08	22.95	2.04	-48.5	-63.7	3.6	1.51e+00	0	40	104	0	60	55355
2026-01-19 12:10:18.09	23.04	2.09	-48.5	-63.7	3.6	1.51e+00	0	40	104	0	60	55149
2026-01-19 12:10:19.11	23.13	2.14	-48.5	-63.7	3.6	1.51e+00	0	40	104	0	60	55342
2026-01-19 12:10:20.12	23.22	2.19	-48.5	-63.7	3.6	1.51e+00	0	40	104	0	60	55175
2026-01-19 12:10:21.13	23.32	2.24	-48.5	-63.4	3.6	1.51e+00	0	40	104	0	60	53512
2026-01-19 12:10:22.14	23.41	2.29	-48.5	-62.8	3.6	1.51e+00	0	40	104	0	60	49985
2026-01-19 12:10:23.15	23.50	2.33	-48.4	-62.1	3.6	1.51e+00	0	40	104	0	60	46134
2026-01-19 12:10:24.16	23.60	2.38	-48.4	-61.4	3.7	1.50e+00	0	40	104	0	60	42421
2026-01-19 12:10:25.17	23.69	2.43	-48.4	-60.6	3.9	1.49e+00	0	40	104	0	60	38942
2026-01-19 12:10:26.18	23.78	2.48	-48.2	-57.5	4.4	1.18e+00	0	40	0	0	60	27077
2026-01-19 12:10:27.19	23.88	2.53	-47.7	-54.4	7.3	4.06e-01	90	40	0	2097152	60	18953
2026-01-19 12:10:28.20	23.97	2.58	-46.9	-51.8	10.5	3.86e-02	0	40	0	4194304	60	14068
2026-01-19 12:10:29.21	24.06	2.63	-45.9	-49.5	13.1	1.23e-04	90	40	0	6291456	60	10781
2026-01-19 12:10:30.22	24.16	2.67	-44.8	-47.4	15.4	0.00e+00	3	40	0	8388608	60	8508
2026-01-19 12:10:31.23	24.25	2.72	-43.9	-46.1	16.7	0.00e+00	81	40	0	9437184	60	7260
2026-01-19 12:10:32.24	24.35	2.77	-43.5	-45.6	17.2	0.00e+00	81	40	0	11534336	60	6890
2026-01-19 12:10:33.25	24.45	2.82	-43.6	-45.7	17.0	0.00e+00	82	40	0	13631488	60	6935
2026-01-19 12:10:34.26	24.54	2.87	-44.5	-47.0	15.7	0.00e+00	92	40	0	15728640	60	8054
2026-01-19 12:10:35.27	24.64	2.92	-45.3	-48.3	14.2	0.00e+00	0	40	0	16777216	60	9425
2026-01-19 12:10:36.28	24.74	2.97	-46.6	-51.0	11.2	1.51e-04	91	40	0	18874368	60	12841
2026-01-19 12:10:37.29	24.83	3.02	-47.3	-52.9	10.5	1.83e-02	0	40	0	20971520	60	16045
2026-01-19 12:10:38.30	24.93	3.06	-43.9	-46.1	16.2	0.00e+00	3	40	0	23068672	60	7292
2026-01-19 12:10:39.31	25.03	3.11	-48.4	-63.5	3.6	1.51e+00	0	40	104	24117248	60	54239
2026-01-19 12:10:40.32	25.12	3.16	-48.0	-56.1	7.0	1.09e+00	0	40	104	24117248	60	23024
2026-01-19 12:10:41.33	25.22	3.21	-45.0	-47.8	14.8	1.40e-04	92	40	0	25165824	60	8884
2026-01-19 12:10:42.34	25.32	3.26	-48.5	-61.8	3.7	1.50e+00	0	40	104	25165824	60	44402
2026-01-19 12:10:43.35	25.42	3.31	-44.2	-46.5	16.4	0.00e+00	91	40	0	25165824	60	7659
2026-01-19 12:10:44.36	25.52	3.36	-44.2	-46.4	16.6	0.00e+00	0	40	0	27262976	60	7568
2026-01-19 12:10:45.37	25.62	3.41	-43.6	-45.7	17.3	0.00e+00	75	40	0	29360128	60	6932
2026-01-19 12:10:46.38	25.72	3.45	-42.9	-44.7	18.3	0.00e+00	0	40	0	31457280	60	6185
2026-01-19 12:10:47.38	25.82	3.50	-42.7	-44.4	18.4	0.00e+00	81	40	0	33554432	58	6744
2026-01-19 12:10:48.39	25.92	3.55	-42.7	-44.4	18.4	0.00e+00	0	40	0	34603008	58	6765
2026-01-19 12:10:49.40	26.02	3.60	-42.7	-44.3	18.5	0.00e+00	0	40	0	36700160	58	6680
2026-01-19 12:10:50.41	26.12	3.65	-42.7	-44.5	18.4	0.00e+00	92	40	0	38797312	58	6770
2026-01-19 12:10:51.42	26.22	3.70	-42.6	-44.3	18.6	0.00e+00	0	40	0	40894464	58	6634
2026-01-19 12:10:52.43	26.32	3.75	-42.6	-44.2	18.7	0.00e+00	92	40	0	42991616	58	6590
2026-01-19 12:10:53.44	26.42	3.80	-42.7	-44.4	18.6	0.00e+00	78	40	0	45088768	58	6725
2026-01-19 12:10:54.45	26.53	3.85	-42.7	-44.4	18.6	0.00e+00	77	40	0	46137344	58	6696
2026-01-19 12:10:55.46	26.63	3.90	-42.7	-44.4	18.6	0.00e+00	0	40	0	48234496	58	6693
2026-01-19 12:10:56.46	26.73	3.94	-42.6	-44.3	18.5	0.00e+00	81	40	0	50331648	58	6656
2026-01-19 12:10:57.47	26.83	3.99	-42.8	-44.5	18.4	0.00e+00	92	40	0	52428800	58	6830
2026-01-19 12:10:58.48	26.94	4.04	-42.6	-44.2	18.3	0.00e+00	0	40	0	54525952	58	6610
2026-01-19 12:10:59.49	27.04	4.09	-42.6	-44.2	18.5	0.00e+00	73	40	0	55574528	58	6589
2026-01-19 12:11:00.50	27.15	4.14	-42.6	-44.2	18.7	0.00e+00	4	40	0	57671680	58	6568
2026-01-19 12:11:01.51	27.25	4.19	-42.5	-44.1	18.9	0.00e+00	5	40	0	59768832	58	6514
2026-01-19 12:11:02.52	27.36	4.24	-42.5	-44.1	18.9	0.00e+00	5	40	0	61865984	58	6484
2026-01-19 12:11:03.53	27.46	4.29	-42.4	-44.0	19.0	0.00e+00	0	40	0	63963136	58	6398
2026-01-19 12:11:04.54	27.57	4.34	-42.4	-44.0	19.0	0.00e+00	0	40	0	65011712	58	6410
2026-01-19 12:11:05.54	27.67	4.39	-42.4	-43.9	19.1	0.00e+00	6	40	0	67108864	58	6363
2026-01-19 12:11:06.55	27.78	4.44	-42.4	-43.9	19.1	0.00e+00	92	40	0	69206016	58	6377
2026-01-19 12:11:07.56	27.88	4.48	-42.3	-43.9	19.2	0.00e+00	0	40	0	71303168	58	6323
2026-01-19 12:11:08.58	27.99	4.53	-42.2	-43.8	19.2	0.00e+00	76	40	0	73400320	58	6249
2026-01-19 12:11:09.58	28.10	4.58	-42.2	-43.7	19.4	0.00e+00	0	40	0	74448896	58	6176
2026-01-19 12:11:10.59	28.21	4.63	-42.1	-43.6	19.5	0.00e+00	76	40	0	76546048	58	6112
2026-01-19 12:11:11.60	28.31	4.68	-42.1	-43.6	19.5	0.00e+00	0	40	0	78643200	58	6151
2026-01-19 12:11:12.61	28.42	4.73	-42.2	-43.8	19.3	0.00e+00	0	40	0	80740352	58	6246
2026-01-19 12:11:13.62	28.53	4.78	-42.1	-43.6	19.6	0.00e+00	92	40	0	82837504	58	6108
2026-01-19 12:11:14.63	28.64	4.83	-42.1	-43.5	19.5	0.00e+00	83	40	0	83886080	58	6087
2026-01-19 12:11:15.64	28.75	4.88	-42.1	-43.6	19.4	0.00e+00	92	40	0	85983232	58	6162
2026-01-19 12:11:16.65	28.86	4.93	-42.1	-43.6	19.5	0.00e+00	7	40	0	88080384	58	6133
2026-01-19 12:11:17.66	28.97	4.98	-42.0	-43.5	19.7	0.00e+00	77	40	0	90177536	58	6039
2026-01-19 12:11:18.67	29.08	5.03	-41.9	-43.3	19.8	0.00e+00	77	40	0	92274688	58	5909
2026-01-19 12:11:19.68	29.19	5.08	-41.8	-43.2	20.0	0.00e+00	7	40	0	93323264	58	5844
2026-01-19 12:11:20.69	29.30	5.13	-41.9	-43.3	19.8	0.00e+00	92	40	0	95420416	58	5916
2026-01-19 12:11:21.70	29.41	5.18	-41.9	-43.3	19.9	0.00e+00	0	40	0	97517568	58	5961
2026-01-19 12:11:22.71	29.53	5.22	-41.8	-43.2	20.0	0.00e+00	90	40	0	99614720	58	5848
2026-01-19 12:11:23.72	29.64	5.27	-41.7	-43.0	20.1	0.00e+00	6	40	0	101711872	56	6459
2026-01-19 12:11:24.73	29.75	5.32	-41.5	-42.8	20.3	0.00e+00	6	40	0	102760448	56	6316
2026-01-19 12:11:25.74	29.86	5.37	-41.5	-42.8	20.4	0.00e+00	0	40	0	104857600	56	6286
2026-01-19 12:11:26.74	29.98	5.42	-41.6	-42.9	20.3	0.00e+00	6	40	0	106954752	56	6360
2026-01-19 12:11:27.75	30.09	5.47	-41.7	-43.1	20.2	0.00e+00	36	40	0	109051904	56	6511
2026-01-19 12:11:28.76	30.20	5.52	-41.8	-43.2	20.1	0.00e+00	0	40	0	111149056	56	6571
2026-01-19 12:11:29.77	30.32	5.57	-41.7	-43.0	20.3	0.00e+00	92	40	0	113246208	56	6431
2026-01-19 12:11:30.78	30.43	5.62	-41.7	-43.1	20.0	0.00e+00	81	40	0	114294784	56	6480
2026-01-19 12:11:31.79	30.55	5.67	-41.9	-43.3	19.9	0.00e+00	5	40	0	116391936	56	6649
2026-01-19 12:11:32.80	30.66	5.72	-41.9	-43.3	19.9	0.00e+00	0	40	0	118489088	56	6688
2026-01-19 12:11:33.81	30.78	5.77	-42.1	-43.6	19.8	0.00e+00	80	40	0	120586240	56	6864
2026-01-19 12:11:34.82	30.90	5.82	-42.2	-43.6	19.5	0.00e+00	0	40	0	121634816	56	6890
2026-01-19 12:11:35.83	31.01	5.87	-42.4	-43.9	19.4	0.00e+00	81	40	0	123731968	56	7113
2026-01-19 12:11:36.84	31.13	5.92	-42.3	-43.7	19.4	0.00e+00	92	40	0	125829120	56	7006
2026-01-19 12:11:37.85	31.25	5.97	-42.7	-44.3	19.1	0.00e+00	0	40	0	127926272	56	7426
2026-01-19 12:11:38.86	31.36	6.01	-42.0	-43.4	20.0	0.00e+00	92	40	0	130023424	56	6724
2026-01-19 12:11:39.87	31.48	6.06	-42.3	-43.7	19.9	0.00e+00	81	40	0	131072000	56	6961
2026-01-19 12:11:40.88	31.60	6.11	-42.2	-43.7	19.7	0.00e+00	2	40	0	133169152	56	6984
2026-01-19 12:11:41.89	31.72	6.16	-42.1	-43.5	19.9	0.00e+00	0	40	0	135266304	56	6811
2026-01-19 12:11:42.90	31.84	6.21	-42.1	-43.5	19.8	0.00e+00	2	40	0	137363456	56	6818
2026-01-19 12:11:43.90	31.96	6.26	-42.2	-43.6	19.7	0.00e+00	92	40	0	139460608	56	6913
2026-01-19 12:11:44.91	32.08	6.31	-42.1	-43.6	19.8	0.00e+00	0	40	0	141557760	56	6849
2026-01-19 12:11:45.92	32.20	6.36	-42.4	-43.8	19.5	0.00e+00	92	40	0	142606336	56	7078
2026-01-19 12:11:46.93	32.32	6.41	-42.4	-43.9	19.5	0.00e+00	0	40	0	144703488	56	7130
2026-01-19 12:11:47.94	32.44	6.46	-42.5	-44.1	19.1	0.00e+00	0	40	0	146800640	56	7262
2026-01-19 12:11:48.95	32.56	6.51	-42.5	-44.0	19.6	0.00e+00	0	40	0	148897792	56	7238
2026-01-19 12:11:49.96	32.68	6.56	-42.5	-43.9	19.2	0.00e+00	0	41	0	150994944	56	7158
2026-01-19 12:11:50.97	32.81	6.61	-42.5	-44.1	19.5	0.00e+00	0	41	0	152043520	58	6471
2026-01-19 12:11:51.98	32.93	6.66	-42.4	-43.9	19.4	0.00e+00	0	40	0	154140672	58	6353
2026-01-19 12:11:52.99	33.05	6.71	-42.4	-43.9	19.5	0.00e+00	91	40	0	156237824	58	6353
2026-01-19 12:11:54.00	33.18	6.75	-42.2	-43.7	19.9	0.00e+00	81	40	0	158334976	58	6194
2026-01-19 12:11:55.01	33.30	6.80	-42.2	-43.6	19.6	0.00e+00	48	40	0	160432128	58	6138
2026-01-19 12:11:56.02	33.43	6.85	-41.9	-43.3	20.0	0.00e+00	0	40	0	161480704	58	5937
2026-01-19 12:11:57.03	33.55	6.90	-42.2	-43.6	19.7	0.00e+00	80	40	0	163577856	58	6119
2026-01-19 12:11:58.04	33.68	6.95	-42.1	-43.5	19.9	0.00e+00	15	40	0	165675008	58	6092
2026-01-19 12:11:59.05	33.80	7.00	-42.2	-43.6	19.8	0.00e+00	0	40	0	167772160	58	6143
2026-01-19 12:12:00.06	33.93	7.05	-42.0	-43.4	20.1	0.00e+00	92	40	0	169869312	58	5984
2026-01-19 12:12:01.07	34.05	7.10	-42.1	-43.5	19.9	0.00e+00	81	40	0	170917888	58	6060
2026-01-19 12:12:02.08	34.18	7.15	-42.0	-43.4	20.2	0.00e+00	92	40	0	173015040	58	5972
2026-01-19 12:12:03.09	34.31	7.20	-41.8	-43.2	20.3	0.00e+00	0	40	0	175112192	58	5833
2026-01-19 12:12:04.10	34.44	7.25	-41.8	-43.1	20.3	0.00e+00	2	40	0	177209344	56	6534
2026-01-19 12:12:05.11	34.56	7.29	-41.3	-42.6	20.9	0.00e+00	2	40	0	179306496	56	6115
2026-01-19 12:12:06.12	34.69	7.34	-41.5	-42.8	20.7	0.00e+00	0	40	0	180355072	56	6260
2026-01-19 12:12:07.13	34.82	7.39	-41.4	-42.7	20.7	0.00e+00	90	40	0	182452224	56	6175
2026-01-19 12:12:08.14	34.95	7.44	-41.4	-42.6	20.9	0.00e+00	0	40	0	184549376	56	6136
2026-01-19 12:12:09.15	35.08	7.49	-41.1	-42.3	21.0	0.00e+00	92	40	0	186646528	56	5948
2026-01-19 12:12:10.16	35.21	7.54	-41.0	-42.2	21.2	0.00e+00	0	40	0	188743680	56	5871
2026-01-19 12:12:11.17	35.34	7.59	-41.1	-42.2	21.2	0.00e+00	0	40	0	189792256	56	5896
2026-01-19 12:12:12.17	35.47	7.64	-40.9	-42.1	21.3	0.00e+00	82	40	0	191889408	56	5767
2026-01-19 12:12:13.19	35.60	7.69	-41.0	-42.2	21.2	0.00e+00	0	40	0	193986560	56	5877
2026-01-19 12:12:14.20	35.74	7.73	-41.1	-42.3	21.1	0.00e+00	2	40	0	196083712	56	5940
2026-01-19 12:12:15.21	35.87	7.78	-40.9	-42.0	21.4	0.00e+00	0	40	0	198180864	56	5750
2026-01-19 12:12:16.22	36.00	7.83	-41.0	-42.2	21.2	0.00e+00	91	40	0	199229440	56	5866
2026-01-19 12:12:17.23	36.14	7.88	-40.9	-42.1	21.4	0.00e+00	0	40	0	201326592	56	5770
2026-01-19 12:12:18.24	36.27	7.93	-41.0	-42.1	21.3	0.00e+00	57	40	0	203423744	56	5809
2026-01-19 12:12:19.25	36.40	7.98	-41.0	-42.1	21.4	0.00e+00	0	40	0	205520896	56	5822
2026-01-19 12:12:20.25	36.54	8.03	-40.9	-42.1	21.4	0.00e+00	79	40	0	207618048	56	5773
2026-01-19 12:12:21.27	36.67	8.08	-40.9	-42.0	21.4	0.00e+00	3	40	0	209715200	56	5759
2026-01-19 12:12:22.28	36.81	8.12	-40.7	-41.8	21.5	0.00e+00	2	40	0	210763776	54	6286
2026-01-19 12:12:23.29	36.94	8.17	-40.8	-41.9	21.6	0.00e+00	91	41	0	212860928	54	6371
2026-01-19 12:12:24.30	37.08	8.22	-40.6	-41.7	21.7	0.00e+00	0	41	0	214958080	54	6181
2026-01-19 12:12:25.30	37.22	8.27	-40.6	-41.7	21.6	0.00e+00	91	40	0	217055232	54	6214
2026-01-19 12:12:26.32	37.35	8.32	-40.6	-41.7	21.7	0.00e+00	0	40	0	219152384	54	6205
2026-01-19 12:12:27.32	37.49	8.36	-40.6	-41.7	21.6	0.00e+00	0	40	0	220200960	54	6223
2026-01-19 12:12:28.33	37.63	8.41	-40.5	-41.6	21.7	0.00e+00	0	40	0	222298112	54	6134
2026-01-19 12:12:29.34	37.77	8.46	-40.6	-41.6	21.7	0.00e+00	0	40	0	224395264	54	6164
2026-01-19 12:12:30.35	37.91	8.51	-40.5	-41.6	21.8	0.00e+00	80	40	0	226492416	54	6129
2026-01-19 12:12:31.36	38.04	8.56	-40.6	-41.7	21.7	0.00e+00	0	40	0	228589568	54	6206
2026-01-19 12:12:32.37	38.18	8.61	-40.6	-41.7	21.8	0.00e+00	90	40	0	229638144	54	6193
2026-01-19 12:12:33.38	38.32	8.65	-40.6	-41.7	21.7	0.00e+00	82	40	0	231735296	54	6223
2026-01-19 12:12:34.38	38.46	8.70	-40.6	-41.7	21.7	0.00e+00	0	40	0	233832448	54	6237
2026-01-19 12:12:35.40	38.61	8.75	-40.6	-41.8	21.7	0.00e+00	0	40	0	235929600	54	6247
2026-01-19 12:12:36.40	38.75	8.80	-40.6	-41.8	21.6	0.00e+00	0	40	0	238026752	54	6249
2026-01-19 12:12:37.41	38.89	8.84	-40.6	-41.8	21.6	0.00e+00	0	40	0	239075328	54	6251
2026-01-19 12:12:38.42	39.03	8.89	-40.7	-41.9	21.7	0.00e+00	4	40	0	241172480	54	6331
2026-01-19 12:12:39.43	39.17	8.94	-40.7	-41.8	21.7	0.00e+00	92	40	0	243269632	54	6265
2026-01-19 12:12:40.44	39.32	8.99	-40.6	-41.7	21.7	0.00e+00	81	40	0	245366784	54	6215
2026-01-19 12:12:41.45	39.46	9.03	-40.6	-41.7	21.7	0.00e+00	90	40	0	247463936	54	6198
2026-01-19 12:12:42.46	39.60	9.08	-40.5	-41.6	21.9	0.00e+00	0	40	0	248512512	54	6165
2026-01-19 12:12:43.47	39.75	9.13	-40.7	-41.8	21.7	0.00e+00	0	40	0	250609664	54	6251
2026-01-19 12:12:44.49	39.90	9.18	-40.5	-41.6	21.8	0.00e+00	0	40	0	252706816	54	6162
2026-01-19 12:12:45.50	40.04	9.22	-40.6	-41.7	21.7	0.00e+00	3	41	0	254803968	54	6230
2026-01-19 12:12:46.50	40.19	9.27	-40.7	-41.8	21.6	0.00e+00	92	40	0	256901120	54	6315
2026-01-19 12:12:47.51	40.33	9.32	-40.7	-41.8	21.7	0.00e+00	0	40	0	257949696	54	6262
2026-01-19 12:12:48.52	40.48	9.36	-40.7	-41.8	21.6	0.00e+00	92	40	0	260046848	54	6293
2026-01-19 12:12:49.53	40.63	9.41	-40.8	-41.9	21.6	0.00e+00	0	40	0	262144000	54	6354
2026-01-19 12:12:50.54	40.78	9.46	-40.8	-41.9	21.5	0.00e+00	0	40	0	264241152	54	6376
2026-01-19 12:12:51.55	40.92	9.51	-40.8	-42.0	21.5	0.00e+00	0	41	0	266338304	54	6400
2026-01-19 12:12:52.56	41.07	9.55	-40.7	-41.8	21.6	0.00e+00	7	40	0	267386880	54	6307
2026-01-19 12:12:53.57	41.22	9.60	-40.8	-41.9	21.5	0.00e+00	91	40	0	269484032	54	6342
2026-01-19 12:12:54.58	41.37	9.65	-40.6	-41.7	21.8	0.00e+00	0	40	0	271581184	54	6191
2026-01-19 12:12:55.58	41.52	9.69	-40.6	-41.7	21.8	0.00e+00	92	40	0	273678336	54	6203
2026-01-19 12:12:56.59	41.67	9.74	-40.7	-41.8	21.8	0.00e+00	0	40	0	275775488	54	6250
2026-01-19 12:12:57.60	41.82	9.78	-40.6	-41.7	21.8	0.00e+00	0	41	0	277872640	54	6175
2026-01-19 12:12:58.61	41.97	9.83	-40.7	-41.8	21.7	0.00e+00	86	40	0	278921216	54	6286
2026-01-19 12:12:59.62	42.13	9.88	-40.7	-41.9	21.7	0.00e+00	82	40	0	281018368	54	6322
2026-01-19 12:13:00.63	42.28	9.92	-40.8	-41.9	21.6	0.00e+00	0	41	0	283115520	54	6335
2026-01-19 12:13:01.64	42.43	9.97	-40.8	-42.0	21.6	0.00e+00	85	40	0	285212672	54	6399
2026-01-19 12:13:02.65	42.58	10.01	-40.8	-42.0	21.6	0.00e+00	92	40	0	287309824	54	6406
2026-01-19 12:13:03.66	42.74	10.06	-40.9	-42.1	21.4	0.00e+00	83	41	0	288358400	54	6487
2026-01-19 12:13:04.67	42.89	10.11	-40.8	-42.0	21.6	0.00e+00	92	40	0	290455552	54	6406
2026-01-19 12:13:05.68	43.05	10.15	-40.7	-41.8	21.7	0.00e+00	0	41	0	292552704	54	6298
2026-01-19 12:13:06.68	43.20	10.20	-40.8	-41.9	21.6	0.00e+00	6	40	0	294649856	54	6363
2026-01-19 12:13:07.70	43.36	10.24	-40.7	-41.8	21.7	0.00e+00	0	40	0	296747008	54	6296
2026-01-19 12:13:08.70	43.51	10.29	-40.8	-41.9	21.6	0.00e+00	2	40	0	297795584	54	6378
2026-01-19 12:13:09.71	43.67	10.33	-40.9	-42.1	21.5	0.00e+00	92	40	0	299892736	54	6481
2026-01-19 12:13:10.72	43.83	10.38	-40.7	-41.8	21.7	0.00e+00	7	40	0	301989888	54	6293
2026-01-19 12:13:11.73	43.98	10.42	-40.8	-41.9	21.6	0.00e+00	92	40	0	304087040	54	6390
2026-01-19 12:13:12.74	44.14	10.47	-40.9	-42.0	21.5	0.00e+00	8	40	0	306184192	54	6429
2026-01-19 12:13:13.75	44.30	10.51	-40.8	-42.0	21.5	0.00e+00	8	41	0	307232768	54	6394
2026-01-19 12:13:14.76	44.46	10.56	-41.0	-42.1	21.5	0.00e+00	5	40	0	309329920	54	6539
2026-01-19 12:13:15.76	44.62	10.60	-41.1	-42.2	21.4	0.00e+00	7	40	0	311427072	54	6585
2026-01-19 12:13:16.77	44.78	10.65	-41.1	-42.3	21.4	0.00e+00	92	41	0	313524224	54	6656
2026-01-19 12:13:17.78	44.94	10.69	-41.0	-42.2	21.4	0.00e+00	81	41	0	315621376	54	6577
2026-01-19 12:13:18.79	45.10	10.73	-41.1	-42.3	21.3	0.00e+00	92	40	0	316669952	54	6675
2026-01-19 12:13:19.80	45.26	10.78	-41.2	-42.4	21.2	0.00e+00	82	41	0	318767104	54	6752
2026-01-19 12:13:20.81	45.42	10.82	-41.3	-42.5	21.1	0.00e+00	4	40	0	320864256	54	6780
2026-01-19 12:13:21.82	45.59	10.87	-41.1	-42.3	21.3	0.00e+00	81	41	0	322961408	54	6641
2026-01-19 12:13:22.83	45.75	10.91	-41.2	-42.4	21.1	0.00e+00	0	40	0	325058560	54	6748
2026-01-19 12:13:23.84	45.91	10.95	-41.3	-42.5	21.2	0.00e+00	78	41	0	326107136	54	6777
2026-01-19 12:13:24.85	46.08	11.00	-41.3	-42.4	21.1	0.00e+00	82	41	0	328204288	54	6759
2026-01-19 12:13:25.86	46.24	11.04	-41.4	-42.6	21.1	0.00e+00	92	41	0	330301440	54	6864
2026-01-19 12:13:26.86	46.40	11.08	-41.4	-42.6	21.1	0.00e+00	82	41	0	332398592	54	6885
2026-01-19 12:13:27.87	46.57	11.13	-41.5	-42.7	20.9	0.00e+00	92	41	0	334495744	54	6972
2026-01-19 12:13:28.88	46.73	11.17	-41.6	-42.8	20.8	0.00e+00	2	41	0	335544320	54	7042
2026-01-19 12:13:29.89	46.90	11.21	-41.5	-42.7	20.9	0.00e+00	0	41	0	337641472	54	6978
2026-01-19 12:13:30.90	47.07	11.25	-41.5	-42.8	20.7	0.00e+00	0	41	0	339738624	54	7022
2026-01-19 12:13:31.91	47.23	11.30	-41.6	-42.9	20.4	0.00e+00	2	40	0	341835776	54	7103
2026-01-19 12:13:32.92	47.40	11.34	-41.7	-43.0	20.7	0.00e+00	92	41	0	343932928	54	7193
2026-01-19 12:13:33.93	47.57	11.38	-41.7	-43.0	20.7	0.00e+00	0	41	0	346030080	56	6396
2026-01-19 12:13:34.94	47.74	11.42	-41.8	-43.1	20.8	0.00e+00	92	41	0	347078656	56	6472
2026-01-19 12:13:35.95	47.91	11.46	-41.6	-42.9	20.8	0.00e+00	2	41	0	349175808	56	6341
2026-01-19 12:13:36.96	48.08	11.51	-41.8	-43.0	20.6	0.00e+00	0	41	0	351272960	56	6449
2026-01-19 12:13:37.97	48.25	11.55	-42.0	-43.3	20.8	0.00e+00	2	41	0	353370112	56	6620
2026-01-19 12:13:38.98	48.42	11.59	-42.0	-43.3	20.5	0.00e+00	4	41	0	355467264	56	6686
2026-01-19 12:13:39.99	48.59	11.63	-42.0	-43.3	20.5	0.00e+00	81	41	0	356515840	56	6620
2026-01-19 12:13:41.00	48.76	11.67	-41.7	-43.0	20.8	0.00e+00	80	41	0	358612992	56	6405
2026-01-19 12:13:42.00	48.93	11.71	-41.9	-43.2	20.6	0.00e+00	90	41	0	360710144	56	6576
2026-01-19 12:13:43.01	49.10	11.75	-41.8	-43.0	20.7	0.00e+00	81	41	0	362807296	56	6431
2026-01-19 12:13:44.02	49.27	11.79	-41.9	-43.1	20.7	0.00e+00	90	41	0	364904448	56	6528
2026-01-19 12:13:45.03	49.45	11.83	-41.8	-43.1	20.7	0.00e+00	0	41	0	365953024	56	6488
2026-01-19 12:13:46.04	49.62	11.88	-41.8	-43.1	20.7	0.00e+00	81	41	0	368050176	56	6504
2026-01-19 12:13:47.05	49.79	11.92	-41.8	-43.1	20.7	0.00e+00	0	41	0	370147328	56	6493
2026-01-19 12:13:48.06	49.97	11.96	-41.8	-43.1	20.6	0.00e+00	82	41	0	372244480	56	6505
2026-01-19 12:13:49.07	50.14	12.00	-41.7	-43.0	20.8	0.00e+00	90	41	0	374341632	56	6397
2026-01-19 12:13:50.08	50.32	12.03	-41.7	-43.0	20.8	0.00e+00	0	41	0	375390208	56	6409
2026-01-19 12:13:51.09	50.49	12.07	-41.6	-42.8	21.0	0.00e+00	92	41	0	377487360	56	6292
2026-01-19 12:13:52.10	50.67	12.11	-41.5	-42.7	21.1	0.00e+00	0	41	0	379584512	56	6225
2026-01-19 12:13:53.10	50.85	12.15	-41.6	-42.8	20.9	0.00e+00	0	41	0	381681664	56	6288
2026-01-19 12:13:54.11	51.02	12.19	-41.6	-42.8	21.0	0.00e+00	2	41	0	383778816	56	6257
2026-01-19 12:13:55.12	51.20	12.23	-41.7	-43.0	20.9	0.00e+00	0	41	0	384827392	56	6400
2026-01-19 12:13:56.13	51.38	12.27	-41.7	-42.9	20.9	0.00e+00	92	41	0	386924544	56	6357
2026-01-19 12:13:57.14	51.56	12.31	-41.6	-42.8	20.9	0.00e+00	0	41	0	389021696	56	6314
2026-01-19 12:13:58.15	51.74	12.35	-41.8	-43.0	20.8	0.00e+00	92	41	0	391118848	56	6442
2026-01-19 12:13:59.16	51.92	12.38	-41.8	-43.1	20.7	0.00e+00	0	41	0	393216000	56	6504
2026-01-19 12:14:00.17	52.10	12.42	-41.9	-43.2	20.6	0.00e+00	77	40	0	394264576	56	6589
2026-01-19 12:14:01.18	52.28	12.46	-42.1	-43.4	20.4	0.00e+00	0	41	0	396361728	56	6697
2026-01-19 12:14:02.18	52.46	12.50	-42.2	-43.5	20.4	0.00e+00	2	41	0	398458880	56	6785
2026-01-19 12:14:03.19	52.64	12.53	-42.1	-43.4	20.4	0.00e+00	0	41	0	400556032	56	6745
2026-01-19 12:14:04.20	52.82	12.57	-42.2	-43.5	20.3	0.00e+00	0	41	0	402653184	56	6828
2026-01-19 12:14:05.22	53.00	12.61	-42.1	-43.5	20.4	0.00e+00	92	41	0	403701760	56	6776
2026-01-19 12:14:06.23	53.19	12.64	-42.1	-43.4	20.4	0.00e+00	81	41	0	405798912	56	6693
2026-01-19 12:14:07.24	53.37	12.68	-41.9	-43.1	20.7	0.00e+00	92	41	0	407896064	56	6532
2026-01-19 12:14:08.24	53.55	12.72	-42.0	-43.3	20.6	0.00e+00	0	41	0	409993216	56	6635
2026-01-19 12:14:09.25	53.73	12.75	-41.9	-43.2	20.6	0.00e+00	81	41	0	412090368	56	6569
2026-01-19 12:14:10.27	53.92	12.79	-41.9	-43.2	20.6	0.00e+00	0	41	0	413138944	56	6591
2026-01-19 12:14:11.27	54.10	12.82	-41.8	-43.0	20.8	0.00e+00	0	40	0	415236096	56	6453
2026-01-19 12:14:12.28	54.29	12.86	-41.8	-43.1	20.7	0.00e+00	92	41	0	417333248	56	6484
2026-01-19 12:14:13.29	54.47	12.89	-41.8	-43.0	20.7	0.00e+00	2	41	0	419430400	56	6446
2026-01-19 12:14:14.30	54.66	12.93	-41.8	-43.0	20.9	0.00e+00	92	41	0	421527552	56	6449
2026-01-19 12:14:15.30	54.85	12.96	-41.8	-43.1	20.7	0.00e+00	2	41	0	422576128	56	6489
2026-01-19 12:14:16.31	55.03	13.00	-41.9	-43.2	20.7	0.00e+00	0	41	0	424673280	56	6555
2026-01-19 12:14:17.32	55.22	13.03	-42.0	-43.2	20.6	0.00e+00	0	41	0	426770432	56	6600
2026-01-19 12:14:18.33	55.41	13.07	-41.9	-43.2	20.7	0.00e+00	0	41	0	428867584	56	6571
2026-01-19 12:14:19.34	55.60	13.10	-42.0	-43.3	20.5	0.00e+00	92	41	0	430964736	56	6668
2026-01-19 12:14:20.35	55.79	13.13	-42.0	-43.3	20.5	0.00e+00	2	41	0	432013312	56	6618
2026-01-19 12:14:21.36	55.97	13.17	-42.0	-43.2	20.6	0.00e+00	92	41	0	434110464	56	6614
2026-01-19 12:14:22.37	56.16	13.20	-41.8	-43.1	20.7	0.00e+00	0	41	0	436207616	56	6503
2026-01-19 12:14:23.38	56.35	13.23	-41.8	-43.0	20.8	0.00e+00	0	41	0	438304768	56	6423
2026-01-19 12:14:24.38	56.54	13.27	-41.5	-42.6	21.2	0.00e+00	0	41	0	440401920	56	6173
2026-01-19 12:14:25.39	56.73	13.30	-41.2	-42.4	21.3	0.00e+00	82	41	0	442499072	56	5999
2026-01-19 12:14:26.40	56.92	13.33	-41.1	-42.2	21.5	0.00e+00	0	41	0	443547648	56	5892
2026-01-19 12:14:27.41	57.12	13.36	-41.0	-42.1	21.7	0.00e+00	0	41	0	445644800	56	5785
2026-01-19 12:14:28.42	57.31	13.39	-40.9	-42.0	21.8	0.00e+00	92	40	0	447741952	56	5735
2026-01-19 12:14:29.43	57.50	13.42	-41.0	-42.1	21.7	0.00e+00	81	40	0	449839104	56	5794
2026-01-19 12:14:30.44	57.69	13.46	-41.0	-42.1	21.7	0.00e+00	62	41	0	451936256	56	5792
2026-01-19 12:14:31.45	57.89	13.49	-41.0	-42.1	21.7	0.00e+00	0	41	0	452984832	56	5782
2026-01-19 12:14:32.46	58.08	13.52	-41.0	-42.1	21.7	0.00e+00	81	41	0	455081984	56	5817
2026-01-19 12:14:33.47	58.27	13.55	-41.0	-42.1	21.7	0.00e+00	0	40	0	457179136	56	5816
2026-01-19 12:14:34.48	58.47	13.58	-40.9	-42.1	21.7	0.00e+00	0	41	0	459276288	56	5763
2026-01-19 12:14:35.49	58.66	13.61	-41.0	-42.1	21.6	0.00e+00	92	41	0	461373440	56	5826
2026-01-19 12:14:36.50	58.86	13.64	-41.0	-42.1	21.6	0.00e+00	5	40	0	462422016	56	5786
2026-01-19 12:14:37.51	59.05	13.67	-41.1	-42.2	21.6	0.00e+00	90	41	0	464519168	56	5857
2026-01-19 12:14:38.52	59.25	13.70	-41.0	-42.2	21.7	0.00e+00	5	40	0	466616320	56	5847
2026-01-19 12:14:39.53	59.45	13.72	-40.9	-42.0	21.7	0.00e+00	0	41	0	468713472	56	5758
2026-01-19 12:14:40.54	59.64	13.75	-40.8	-41.9	21.9	0.00e+00	5	40	0	470810624	56	5654
2026-01-19 12:14:41.54	59.84	13.78	-40.7	-41.8	21.9	0.00e+00	0	40	0	471859200	54	6301
2026-01-19 12:14:42.55	60.03	13.81	-40.5	-41.6	22.1	0.00e+00	69	40	0	473956352	54	6135
2026-01-19 12:14:43.56	60.23	13.84	-40.4	-41.5	22.2	0.00e+00	0	41	0	476053504	54	6040
2026-01-19 12:14:44.57	60.43	13.86	-40.4	-41.4	22.2	0.00e+00	92	40	0	478150656	54	6007
2026-01-19 12:14:45.58	60.63	13.89	-40.4	-41.4	22.2	0.00e+00	86	41	0	480247808	54	6014
2026-01-19 12:14:46.59	60.83	13.92	-40.5	-41.5	22.2	0.00e+00	8	40	0	481296384	54	6102
2026-01-19 12:14:47.60	61.03	13.94	-40.6	-41.7	21.9	0.00e+00	84	41	0	483393536	54	6196
2026-01-19 12:14:48.61	61.23	13.97	-40.8	-41.9	21.8	0.00e+00	86	40	0	485490688	54	6347
2026-01-19 12:14:49.62	61.43	14.00	-40.9	-42.1	21.6	0.00e+00	0	40	0	487587840	54	6468
2026-01-19 12:14:50.63	61.63	14.02	-41.0	-42.1	21.3	0.00e+00	0	41	0	489684992	54	6527
2026-01-19 12:14:51.64	61.83	14.05	-41.2	-42.4	21.3	0.00e+00	91	41	0	490733568	54	6728
2026-01-19 12:14:52.65	62.03	14.07	-41.3	-42.5	21.3	0.00e+00	83	41	0	492830720	54	6796
2026-01-19 12:14:53.66	62.23	14.10	-41.3	-42.5	21.3	0.00e+00	92	40	0	494927872	54	6774
2026-01-19 12:14:54.67	62.43	14.12	-41.4	-42.6	21.2	0.00e+00	85	40	0	497025024	54	6867
2026-01-19 12:14:55.68	62.63	14.14	-41.4	-42.6	21.2	0.00e+00	1	41	0	499122176	54	6872
2026-01-19 12:14:56.69	62.83	14.17	-41.5	-42.6	21.1	0.00e+00	0	40	0	500170752	54	6926
2026-01-19 12:14:57.70	63.04	14.19	-41.4	-42.6	21.1	0.00e+00	0	41	0	502267904	54	6903
2026-01-19 12:14:58.71	63.24	14.22	-41.5	-42.7	21.0	0.00e+00	90	40	0	504365056	54	7007
2026-01-19 12:14:59.72	63.44	14.24	-41.4	-42.6	21.2	0.00e+00	2	41	0	506462208	54	6853
2026-01-19 12:15:00.72	63.64	14.26	-41.4	-42.6	21.1	0.00e+00	92	40	0	508559360	54	6850
2026-01-19 12:15:01.73	63.85	14.28	-41.5	-42.7	21.0	0.00e+00	0	40	0	510656512	54	6949
2026-01-19 12:15:02.74	64.05	14.31	-41.5	-42.7	21.1	0.00e+00	8	41	0	511705088	54	6930
2026-01-19 12:15:03.75	64.26	14.33	-41.5	-42.7	20.9	0.00e+00	0	41	0	513802240	54	6981
2026-01-19 12:15:04.76	64.46	14.35	-41.6	-42.8	20.9	0.00e+00	6	41	0	515899392	54	7027
2026-01-19 12:15:05.77	64.67	14.37	-41.5	-42.8	21.0	0.00e+00	91	41	0	517996544	54	7026
2026-01-19 12:15:06.78	64.87	14.39	-41.5	-42.7	21.0	0.00e+00	0	41	0	520093696	54	6987
2026-01-19 12:15:07.79	65.08	14.41	-41.5	-42.6	21.1	0.00e+00	92	41	0	521142272	54	6927
2026-01-19 12:15:08.80	65.28	14.43	-41.4	-42.6	21.1	0.00e+00	0	41	0	523239424	54	6918
2026-01-19 12:15:09.81	65.49	14.45	-41.3	-42.5	21.3	0.00e+00	35	41	0	525336576	54	6815
2026-01-19 12:15:10.82	65.69	14.47	-41.3	-42.4	21.4	0.00e+00	81	40	0	527433728	54	6754
2026-01-19 12:15:11.83	65.90	14.49	-41.3	-42.5	21.3	0.00e+00	0	41	0	529530880	54	6805
2026-01-19 12:15:12.84	66.11	14.51	-41.4	-42.6	21.1	0.00e+00	48	40	0	530579456	54	6899
2026-01-19 12:15:13.85	66.31	14.53	-41.4	-42.6	21.2	0.00e+00	0	41	0	532676608	54	6911
2026-01-19 12:15:14.86	66.52	14.54	-41.3	-42.6	21.2	0.00e+00	92	41	0	534773760	54	6850
2026-01-19 12:15:15.86	66.73	14.56	-41.4	-42.6	21.1	0.00e+00	0	41	0	536870912	54	6919
2026-01-19 12:15:16.87	66.94	14.58	-41.2	-42.6	21.2	0.00e+00	92	41	0	538968064	54	6850
2026-01-19 12:15:17.88	67.14	14.60	-41.2	-42.6	21.1	0.00e+00	0	41	0	540016640	54	6864
2026-01-19 12:15:18.89	67.35	14.61	-41.2	-42.5	21.3	0.00e+00	0	41	0	542113792	54	6830
2026-01-19 12:15:19.90	67.56	14.63	-41.0	-42.4	21.4	0.00e+00	0	40	0	544210944	54	6716
2026-01-19 12:15:20.91	67.77	14.65	-40.9	-42.2	21.5	0.00e+00	0	41	0	546308096	54	6596
2026-01-19 12:15:21.92	67.98	14.66	-40.9	-42.2	21.5	0.00e+00	92	41	0	548405248	54	6540
2026-01-19 12:15:22.93	68.19	14.68	-40.9	-42.0	21.7	0.00e+00	0	41	0	549453824	54	6464
2026-01-19 12:15:23.94	68.40	14.69	-41.0	-42.1	21.5	0.00e+00	92	41	0	551550976	54	6506
2026-01-19 12:15:24.94	68.60	14.71	-41.1	-42.2	21.4	0.00e+00	0	41	0	553648128	54	6578
2026-01-19 12:15:25.95	68.81	14.72	-41.1	-42.2	21.5	0.00e+00	0	41	0	555745280	54	6587
2026-01-19 12:15:26.96	69.02	14.73	-41.0	-42.2	21.5	0.00e+00	0	41	0	557842432	54	6583
2026-01-19 12:15:27.97	69.23	14.75	-40.9	-42.1	21.6	0.00e+00	0	41	0	558891008	54	6516
2026-01-19 12:15:28.98	69.44	14.76	-41.0	-42.2	21.5	0.00e+00	92	41	0	560988160	54	6604
2026-01-19 12:15:29.99	69.65	14.77	-40.9	-42.3	21.4	0.00e+00	81	41	0	563085312	54	6621
2026-01-19 12:15:31.00	69.86	14.79	-40.8	-42.1	21.6	0.00e+00	92	41	0	565182464	54	6495
2026-01-19 12:15:32.01	70.08	14.80	-40.8	-42.1	21.6	0.00e+00	0	41	0	567279616	54	6474
2026-01-19 12:15:33.02	70.29	14.81	-40.9	-42.1	21.6	0.00e+00	92	41	0	568328192	54	6534
2026-01-19 12:15:34.02	70.50	14.82	-40.8	-42.0	21.7	0.00e+00	0	41	0	570425344	54	6453
2026-01-19 12:15:35.03	70.71	14.83	-40.8	-42.0	21.7	0.00e+00	0	41	0	572522496	54	6435
2026-01-19 12:15:36.04	70.92	14.84	-41.0	-42.1	21.6	0.00e+00	80	41	0	574619648	54	6523
2026-01-19 12:15:37.06	71.13	14.85	-41.0	-42.1	21.6	0.00e+00	0	41	0	576716800	54	6518
2026-01-19 12:15:38.06	71.34	14.86	-41.0	-42.2	21.5	0.00e+00	92	41	0	577765376	54	6553
2026-01-19 12:15:39.07	71.55	14.87	-41.0	-42.1	21.6	0.00e+00	0	40	0	579862528	54	6521
2026-01-19 12:15:40.08	71.77	14.88	-41.0	-42.2	21.5	0.00e+00	91	41	0	581959680	54	6549
2026-01-19 12:15:41.09	71.98	14.89	-40.9	-42.1	21.5	0.00e+00	0	41	0	584056832	54	6490
2026-01-19 12:15:42.10	72.19	14.90	-41.0	-42.2	21.5	0.00e+00	0	41	0	586153984	54	6552
2026-01-19 12:15:43.12	72.41	14.91	-40.9	-42.0	21.7	0.00e+00	0	41	0	587202560	54	6408
2026-01-19 12:15:44.13	72.62	14.92	-40.6	-41.7	21.9	0.00e+00	0	41	0	589299712	54	6213
2026-01-19 12:15:45.14	72.83	14.93	-40.6	-41.7	21.9	0.00e+00	92	41	0	591396864	54	6182
2026-01-19 12:15:46.15	73.04	14.93	-40.5	-41.6	22.0	0.00e+00	0	41	0	593494016	54	6134
2026-01-19 12:15:47.16	73.26	14.94	-40.4	-41.5	22.0	0.00e+00	92	41	0	595591168	54	6083
2026-01-19 12:15:48.17	73.47	14.95	-40.4	-41.5	22.1	0.00e+00	0	41	0	596639744	54	6058
2026-01-19 12:15:49.18	73.68	14.95	-40.4	-41.4	22.1	0.00e+00	0	41	0	598736896	54	6017
2026-01-19 12:15:50.18	73.89	14.96	-40.4	-41.5	22.1	0.00e+00	81	41	0	600834048	54	6045
2026-01-19 12:15:51.19	74.11	14.96	-40.5	-41.6	22.1	0.00e+00	0	41	0	602931200	54	6131
2026-01-19 12:15:52.20	74.32	14.97	-40.5	-41.5	22.1	0.00e+00	87	41	0	605028352	54	6082
2026-01-19 12:15:53.21	74.53	14.97	-40.6	-41.7	22.0	0.00e+00	0	41	0	607125504	54	6204
2026-01-19 12:15:54.22	74.75	14.98	-40.7	-41.8	21.8	0.00e+00	90	41	0	608174080	54	6280
2026-01-19 12:15:55.23	74.96	14.98	-40.6	-41.8	21.9	0.00e+00	0	41	0	610271232	54	6254
2026-01-19 12:15:56.24	75.17	14.98	-40.6	-41.7	21.9	0.00e+00	77	41	0	612368384	54	6234
2026-01-19 12:15:57.25	75.39	14.99	-40.6	-41.7	21.9	0.00e+00	0	41	0	614465536	54	6201
2026-01-19 12:15:58.26	75.60	14.99	-40.6	-41.7	22.0	0.00e+00	0	41	0	616562688	54	6200
2026-01-19 12:15:59.27	75.82	14.99	-40.4	-41.5	22.2	0.00e+00	65	41	0	617611264	54	6068
2026-01-19 12:16:00.28	76.03	15.00	-40.2	-41.2	22.4	0.00e+00	0	41	0	619708416	54	5869
2026-01-19 12:16:01.29	76.24	15.00	-40.2	-41.2	22.4	0.00e+00	92	41	0	621805568	54	5890
2026-01-19 12:16:02.30	76.46	15.00	-40.1	-41.2	22.5	0.00e+00	0	41	0	623902720	54	5844
2026-01-19 12:16:03.31	76.67	15.00	-40.1	-41.2	22.5	0.00e+00	54	41	0	625999872	54	5856
2026-01-19 12:16:04.32	76.89	15.00	-40.2	-41.3	22.3	0.00e+00	0	40	0	627048448	54	5923
2026-01-19 12:16:05.32	77.10	15.00	-40.3	-41.4	22.3	0.00e+00	0	41	0	629145600	54	5984
2026-01-19 12:16:06.33	77.31	15.00	-40.3	-41.3	22.3	0.00e+00	0	41	0	631242752	54	5940
2026-01-19 12:16:07.34	77.52	15.00	-40.3	-41.3	22.3	0.00e+00	0	41	0	633339904	54	5956
2026-01-19 12:16:08.35	77.74	15.00	-40.3	-41.3	22.3	0.00e+00	92	41	0	635437056	54	5960
2026-01-19 12:16:09.36	77.95	15.00	-40.3	-41.3	22.2	0.00e+00	2	41	0	636485632	54	5937
2026-01-19 12:16:10.37	78.17	15.00	-40.4	-41.4	22.3	0.00e+00	92	41	0	638582784	54	6016
2026-01-19 12:16:11.38	78.38	14.99	-40.1	-41.1	22.5	0.00e+00	0	41	0	640679936	54	5786
2026-01-19 12:16:12.39	78.59	14.99	-40.1	-41.1	22.5	0.00e+00	31	41	0	642777088	54	5786
2026-01-19 12:16:13.40	78.81	14.99	-40.0	-41.0	22.5	0.00e+00	81	41	0	644874240	54	5754
2026-01-19 12:16:14.41	79.02	14.99	-40.0	-41.0	22.5	0.00e+00	0	41	0	645922816	54	5730
2026-01-19 12:16:15.42	79.24	14.98	-40.0	-41.0	22.5	0.00e+00	85	41	0	648019968	54	5717
2026-01-19 12:16:16.42	79.45	14.98	-40.0	-41.0	22.5	0.00e+00	0	41	0	650117120	54	5732
2026-01-19 12:16:17.43	79.66	14.97	-39.9	-41.0	22.5	0.00e+00	92	41	0	652214272	54	5740
2026-01-19 12:16:18.45	79.88	14.97	-39.9	-41.0	22.6	0.00e+00	2	41	0	654311424	54	5747
2026-01-19 12:16:19.45	80.09	14.96	-39.8	-41.0	22.6	0.00e+00	2	41	0	655360000	54	5727
2026-01-19 12:16:20.46	80.30	14.96	-39.9	-41.1	22.6	0.00e+00	81	41	0	657457152	54	5782
2026-01-19 12:16:21.48	80.52	14.95	-39.8	-41.0	22.6	0.00e+00	0	41	0	659554304	54	5731
2026-01-19 12:16:22.48	80.73	14.95	-39.9	-41.0	22.6	0.00e+00	4	41	0	661651456	54	5741
2026-01-19 12:16:23.49	80.94	14.94	-39.9	-41.1	22.5	0.00e+00	0	41	0	663748608	54	5790
2026-01-19 12:16:24.50	81.15	14.93	-40.1	-41.3	22.4	0.00e+00	92	41	0	664797184	54	5959
2026-01-19 12:16:25.51	81.37	14.93	-40.1	-41.3	22.4	0.00e+00	5	41	0	666894336	54	5952
2026-01-19 12:16:26.52	81.58	14.92	-40.2	-41.4	22.3	0.00e+00	6	41	0	668991488	54	5974
2026-01-19 12:16:27.53	81.79	14.91	-40.4	-41.5	22.2	0.00e+00	0	41	0	671088640	54	6048
2026-01-19 12:16:28.54	82.00	14.90	-40.2	-41.2	22.4	0.00e+00	5	41	0	673185792	54	5884
2026-01-19 12:16:29.55	82.22	14.89	-40.1	-41.2	22.4	0.00e+00	5	41	0	675282944	54	5864
2026-01-19 12:16:30.56	82.43	14.89	-39.9	-41.0	22.6	0.00e+00	0	41	0	676331520	54	5715
2026-01-19 12:16:31.57	82.64	14.88	-39.9	-41.0	22.6	0.00e+00	84	41	0	678428672	54	5698
2026-01-19 12:16:32.58	82.85	14.87	-39.9	-40.9	22.6	0.00e+00	0	41	0	680525824	54	5674
2026-01-19 12:16:33.59	83.07	14.86	-40.1	-41.2	22.4	0.00e+00	92	41	0	682622976	54	5834
2026-01-19 12:16:34.60	83.28	14.85	-40.2	-41.2	22.4	0.00e+00	0	41	0	684720128	54	5859
2026-01-19 12:16:35.61	83.49	14.83	-40.2	-41.3	22.1	0.00e+00	79	41	0	685768704	54	5908
2026-01-19 12:16:36.62	83.70	14.82	-40.2	-41.3	22.4	0.00e+00	0	41	0	687865856	54	5909
2026-01-19 12:16:37.63	83.91	14.81	-40.1	-41.2	22.5	0.00e+00	80	41	0	689963008	54	5851
2026-01-19 12:16:38.64	84.12	14.80	-40.2	-41.2	22.5	0.00e+00	0	41	0	692060160	54	5852
2026-01-19 12:16:39.65	84.34	14.79	-40.1	-41.1	22.5	0.00e+00	79	41	0	694157312	54	5825
2026-01-19 12:16:40.66	84.55	14.78	-40.1	-41.1	22.5	0.00e+00	92	41	0	695205888	54	5793
2026-01-19 12:16:41.67	84.76	14.76	-39.9	-40.9	22.9	0.00e+00	0	41	0	697303040	54	5645
2026-01-19 12:16:42.68	84.97	14.75	-39.8	-40.8	22.9	0.00e+00	7	41	0	699400192	52	6272
2026-01-19 12:16:43.69	85.18	14.74	-39.8	-40.8	22.9	0.00e+00	7	41	0	701497344	52	6317
2026-01-19 12:16:44.70	85.39	14.72	-39.9	-40.9	22.8	0.00e+00	0	41	0	703594496	52	6368
2026-01-19 12:16:45.71	85.60	14.71	-39.9	-40.9	22.8	0.00e+00	0	41	0	704643072	52	6361
2026-01-19 12:16:46.72	85.81	14.69	-40.1	-41.1	22.6	0.00e+00	7	41	0	706740224	52	6482
2026-01-19 12:16:47.73	86.02	14.68	-40.2	-41.2	22.4	0.00e+00	92	41	0	708837376	52	6588
2026-01-19 12:16:48.74	86.23	14.66	-40.2	-41.3	22.5	0.00e+00	0	41	0	710934528	52	6621
2026-01-19 12:16:49.75	86.44	14.65	-40.1	-41.2	22.6	0.00e+00	90	41	0	713031680	52	6576
2026-01-19 12:16:50.76	86.65	14.63	-39.9	-41.0	22.7	0.00e+00	7	41	0	714080256	52	6444
2026-01-19 12:16:51.77	86.86	14.61	-40.1	-41.1	22.6	0.00e+00	0	41	0	716177408	52	6510
2026-01-19 12:16:52.78	87.06	14.60	-40.0	-41.1	22.6	0.00e+00	59	41	0	718274560	52	6478
2026-01-19 12:16:53.79	87.27	14.58	-39.8	-40.8	22.9	0.00e+00	81	41	0	720371712	52	6307
2026-01-19 12:16:54.80	87.48	14.56	-39.6	-40.6	23.0	0.00e+00	92	41	0	722468864	52	6135
2026-01-19 12:16:55.80	87.69	14.54	-39.6	-40.6	23.1	0.00e+00	0	41	0	723517440	52	6108
2026-01-19 12:16:56.81	87.89	14.53	-39.5	-40.4	23.2	0.00e+00	92	41	0	725614592	52	6003
2026-01-19 12:16:57.82	88.10	14.51	-39.4	-40.4	23.3	0.00e+00	81	41	0	727711744	52	5984
2026-01-19 12:16:58.83	88.31	14.49	-39.3	-40.3	23.4	0.00e+00	81	41	0	729808896	52	5914
2026-01-19 12:16:59.84	88.52	14.47	-39.3	-40.3	23.3	0.00e+00	81	41	0	731906048	52	5942
2026-01-19 12:17:00.85	88.72	14.45	-39.3	-40.3	23.3	0.00e+00	81	41	0	732954624	52	5944
2026-01-19 12:17:01.86	88.93	14.43	-39.4	-40.4	23.2	0.00e+00	65	41	0	735051776	52	5998
2026-01-19 12:17:02.88	89.14	14.41	-39.4	-40.5	23.1	0.00e+00	0	41	0	737148928	52	6043
2026-01-19 12:17:03.88	89.34	14.39	-39.6	-40.6	23.0	0.00e+00	92	41	0	739246080	52	6144
2026-01-19 12:17:04.90	89.55	14.37	-39.8	-40.8	22.8	0.00e+00	0	41	0	741343232	52	6311
2026-01-19 12:17:05.90	89.75	14.35	-39.9	-40.9	22.8	0.00e+00	92	41	0	743440384	52	6331
2026-01-19 12:17:06.91	89.96	14.33	-39.9	-40.9	22.7	0.00e+00	6	41	0	744488960	52	6364
2026-01-19 12:17:07.92	90.16	14.31	-39.9	-40.9	22.8	0.00e+00	0	41	0	746586112	52	6375
2026-01-19 12:17:08.93	90.37	14.28	-39.7	-40.7	22.8	0.00e+00	2	41	0	748683264	52	6236
2026-01-19 12:17:09.94	90.57	14.26	-39.8	-40.9	22.8	0.00e+00	0	41	0	750780416	52	6347
2026-01-19 12:17:10.95	90.77	14.24	-39.5	-40.6	23.0	0.00e+00	92	41	0	752877568	52	6145
2026-01-19 12:17:11.96	90.98	14.22	-39.3	-40.3	23.3	0.00e+00	0	41	0	753926144	52	5944
2026-01-19 12:17:12.97	91.18	14.19	-39.3	-40.2	23.3	0.00e+00	92	41	0	756023296	52	5886
2026-01-19 12:17:13.98	91.38	14.17	-39.3	-40.2	23.4	0.00e+00	0	41	0	758120448	52	5860
2026-01-19 12:17:14.99	91.59	14.14	-39.1	-40.0	23.5	0.00e+00	4	41	0	760217600	52	5742
2026-01-19 12:17:16.00	91.79	14.12	-39.0	-39.9	23.5	0.00e+00	0	41	0	762314752	52	5666
2026-01-19 12:17:17.01	91.99	14.10	-39.0	-40.0	23.5	0.00e+00	82	41	0	763363328	52	5715
2026-01-19 12:17:18.02	92.19	14.07	-39.0	-40.0	23.5	0.00e+00	90	41	0	765460480	52	5728
2026-01-19 12:17:19.03	92.39	14.05	-39.1	-40.1	23.4	0.00e+00	82	40	0	767557632	52	5796
2026-01-19 12:17:20.04	92.60	14.02	-39.1	-40.1	23.5	0.00e+00	90	41	0	769654784	52	5772
2026-01-19 12:17:21.05	92.80	14.00	-39.2	-40.1	23.4	0.00e+00	0	41	0	771751936	52	5828
2026-01-19 12:17:22.06	93.00	13.97	-39.2	-40.1	23.4	0.00e+00	0	41	0	772800512	52	5792
2026-01-19 12:17:23.07	93.20	13.94	-39.4	-40.3	23.3	0.00e+00	0	41	0	774897664	52	5949
2026-01-19 12:17:24.08	93.40	13.92	-39.5	-40.5	23.2	0.00e+00	2	41	0	776994816	52	6076
2026-01-19 12:17:25.09	93.60	13.89	-39.5	-40.5	23.2	0.00e+00	92	41	0	779091968	52	6036
2026-01-19 12:17:26.10	93.79	13.86	-39.5	-40.5	23.2	0.00e+00	0	41	0	781189120	52	6068
2026-01-19 12:17:27.11	93.99	13.83	-39.4	-40.4	23.2	0.00e+00	92	41	0	782237696	52	5991
2026-01-19 12:17:28.12	94.19	13.81	-39.5	-40.4	23.1	0.00e+00	0	41	0	784334848	52	6024
2026-01-19 12:17:29.13	94.39	13.78	-39.3	-40.3	23.3	0.00e+00	69	41	0	786432000	52	5902
2026-01-19 12:17:30.14	94.59	13.75	-39.2	-40.1	23.4	0.00e+00	0	41	0	788529152	52	5811
2026-01-19 12:17:31.15	94.78	13.72	-39.1	-40.0	23.5	0.00e+00	0	41	0	790626304	52	5744
2026-01-19 12:17:32.16	94.98	13.69	-39.2	-40.1	23.5	0.00e+00	0	41	0	791674880	52	5795
2026-01-19 12:17:33.17	95.18	13.66	-39.2	-40.1	23.4	0.00e+00	0	41	0	793772032	52	5826
2026-01-19 12:17:34.18	95.37	13.63	-39.2	-40.1	23.4	0.00e+00	92	41	0	795869184	52	5819
2026-01-19 12:17:35.19	95.57	13.60	-39.2	-40.2	23.4	0.00e+00	0	41	0	797966336	52	5844
2026-01-19 12:17:36.20	95.76	13.57	-39.1	-40.1	23.4	0.00e+00	92	41	0	800063488	52	5778
2026-01-19 12:17:37.21	95.96	13.54	-39.2	-40.2	23.4	0.00e+00	0	41	0	801112064	52	5847
2026-01-19 12:17:38.22	96.15	13.51	-39.2	-40.1	23.4	0.00e+00	2	41	0	803209216	52	5804
2026-01-19 12:17:39.23	96.35	13.48	-39.4	-40.3	23.3	0.00e+00	0	41	0	805306368	52	5919
2026-01-19 12:17:40.24	96.54	13.45	-39.5	-40.5	23.1	0.00e+00	81	41	0	807403520	52	6037
2026-01-19 12:17:41.25	96.74	13.42	-39.7	-40.7	22.9	0.00e+00	92	41	0	809500672	52	6199
2026-01-19 12:17:42.25	96.93	13.39	-39.8	-40.9	22.8	0.00e+00	1	41	0	811597824	52	6332
2026-01-19 12:17:43.26	97.12	13.36	-39.9	-41.1	22.6	0.00e+00	92	41	0	812646400	52	6487
2026-01-19 12:17:44.27	97.31	13.33	-39.9	-41.1	22.4	0.00e+00	0	41	0	814743552	52	6530
2026-01-19 12:17:45.28	97.50	13.29	-40.0	-41.2	22.4	0.00e+00	43	41	0	816840704	52	6568
2026-01-19 12:17:46.29	97.69	13.26	-40.0	-41.1	22.5	0.00e+00	2	41	0	818937856	52	6497
2026-01-19 12:17:47.30	97.89	13.23	-40.1	-41.2	22.3	0.00e+00	0	41	0	821035008	52	6545
2026-01-19 12:17:48.31	98.08	13.20	-40.0	-41.1	22.5	0.00e+00	79	41	0	822083584	52	6501
2026-01-19 12:17:49.32	98.27	13.16	-40.1	-41.2	22.2	0.00e+00	0	41	0	824180736	52	6589
2026-01-19 12:17:50.33	98.46	13.13	-40.3	-41.4	22.1	0.00e+00	90	41	0	826277888	52	6714
2026-01-19 12:17:51.34	98.65	13.10	-40.3	-41.4	22.2	0.00e+00	0	41	0	828375040	52	6743
2026-01-19 12:17:52.35	98.83	13.06	-40.4	-41.4	22.3	0.00e+00	26	41	0	830472192	52	6742
2026-01-19 12:17:53.36	99.02	13.03	-40.5	-41.5	22.1	0.00e+00	0	41	0	831520768	52	6815
2026-01-19 12:17:54.37	99.21	12.99	-40.4	-41.4	22.2	0.00e+00	2	41	0	833617920	52	6745
2026-01-19 12:17:55.38	99.40	12.96	-40.4	-41.4	22.3	0.00e+00	0	41	0	835715072	52	6751
2026-01-19 12:17:56.39	99.59	12.92	-40.3	-41.4	22.3	0.00e+00	0	41	0	837812224	52	6745
2026-01-19 12:17:57.39	99.77	12.89	-40.4	-41.6	22.2	0.00e+00	92	41	0	839909376	52	6857
2026-01-19 12:17:58.40	99.96	12.85	-40.4	-41.5	22.1	0.00e+00	81	41	0	840957952	52	6800
2026-01-19 12:17:59.42	100.15	12.82	-40.3	-41.4	22.2	0.00e+00	92	41	0	843055104	52	6739
2026-01-19 12:18:00.42	100.33	12.78	-40.5	-41.6	22.0	0.00e+00	81	41	0	845152256	52	6884
2026-01-19 12:18:01.43	100.51	12.75	-40.8	-41.9	21.7	0.00e+00	0	41	0	847249408	52	7123
2026-01-19 12:18:02.45	100.70	12.71	-40.9	-42.1	21.4	0.00e+00	0	41	0	849346560	54	6467
2026-01-19 12:18:03.46	100.88	12.67	-41.2	-42.4	21.1	0.00e+00	0	41	0	850395136	54	6726
2026-01-19 12:18:04.47	101.07	12.64	-41.4	-42.7	20.9	0.00e+00	80	41	0	852492288	54	6946
2026-01-19 12:18:05.48	101.25	12.60	-41.7	-43.0	20.7	0.00e+00	0	41	0	854589440	54	7202
2026-01-19 12:18:06.49	101.43	12.56	-42.0	-43.3	20.4	0.00e+00	90	41	0	856686592	56	6632
2026-01-19 12:18:07.50	101.62	12.52	-42.1	-43.5	20.3	0.00e+00	3	41	0	858783744	56	6771
2026-01-19 12:18:08.50	101.80	12.49	-42.2	-43.5	20.3	0.00e+00	6	41	0	859832320	56	6806
2026-01-19 12:18:09.51	101.98	12.45	-42.3	-43.6	20.2	0.00e+00	6	41	0	861929472	56	6920
2026-01-19 12:18:10.52	102.16	12.41	-42.4	-43.7	20.1	0.00e+00	7	41	0	864026624	56	6980
2026-01-19 12:18:11.53	102.34	12.37	-42.5	-43.9	19.9	0.00e+00	0	41	0	866123776	56	7146
2026-01-19 12:18:12.54	102.52	12.34	-42.6	-44.1	19.7	0.00e+00	5	41	0	868220928	56	7271
2026-01-19 12:18:13.55	102.70	12.30	-42.6	-44.2	19.6	0.00e+00	92	41	0	869269504	56	7357
2026-01-19 12:18:14.56	102.88	12.26	-42.6	-44.3	19.6	0.00e+00	0	41	0	871366656	56	7442
2026-01-19 12:18:15.57	103.06	12.22	-42.6	-44.2	19.7	0.00e+00	92	41	0	873463808	56	7351
2026-01-19 12:18:16.58	103.24	12.18	-42.4	-44.0	19.8	0.00e+00	84	41	0	875560960	56	7218
2026-01-19 12:18:17.59	103.41	12.14	-42.2	-43.8	19.9	0.00e+00	0	41	0	877658112	56	7065
2026-01-19 12:18:18.60	103.59	12.10	-42.0	-43.5	20.4	0.00e+00	0	41	0	879755264	56	6772
2026-01-19 12:18:19.61	103.77	12.06	-41.9	-43.3	20.5	0.00e+00	82	41	0	880803840	56	6619
2026-01-19 12:18:20.62	103.95	12.02	-41.8	-43.2	20.6	0.00e+00	92	41	0	882900992	56	6564
2026-01-19 12:18:21.63	104.12	11.98	-41.6	-42.9	20.9	0.00e+00	84	41	0	884998144	56	6369
2026-01-19 12:18:22.64	104.30	11.94	-41.5	-42.9	20.9	0.00e+00	92	41	0	887095296	56	6321
2026-01-19 12:18:23.65	104.47	11.90	-41.5	-42.9	20.8	0.00e+00	83	41	0	889192448	56	6376
2026-01-19 12:18:24.66	104.65	11.86	-41.7	-43.2	20.6	0.00e+00	84	41	0	890241024	56	6579
2026-01-19 12:18:25.67	104.82	11.82	-41.9	-43.4	20.4	0.00e+00	0	41	0	892338176	56	6708
2026-01-19 12:18:26.68	105.00	11.78	-42.0	-43.5	20.3	0.00e+00	6	41	0	894435328	56	6771
2026-01-19 12:18:27.69	105.17	11.74	-42.0	-43.7	20.1	0.00e+00	92	41	0	896532480	56	6928
2026-01-19 12:18:28.70	105.34	11.70	-42.1	-43.8	20.0	0.00e+00	1	41	0	898629632	56	7062
2026-01-19 12:18:29.71	105.51	11.66	-42.4	-44.0	19.7	0.00e+00	92	41	0	899678208	56	7229
2026-01-19 12:18:30.72	105.69	11.62	-42.7	-44.2	19.5	0.00e+00	3	41	0	901775360	56	7417
2026-01-19 12:18:31.73	105.86	11.57	-42.7	-44.2	19.4	0.00e+00	30	41	0	903872512	58	6594
2026-01-19 12:18:32.74	106.03	11.53	-42.7	-44.3	19.4	0.00e+00	7	41	0	905969664	58	6617
2026-01-19 12:18:33.75	106.20	11.49	-42.7	-44.3	19.4	0.00e+00	0	41	0	908066816	58	6623
2026-01-19 12:18:34.76	106.37	11.45	-42.5	-43.9	19.8	0.00e+00	0	41	0	909115392	58	6358
2026-01-19 12:18:35.77	106.54	11.41	-42.3	-43.7	20.1	0.00e+00	0	41	0	911212544	58	6175
2026-01-19 12:18:36.78	106.71	11.36	-42.2	-43.6	20.2	0.00e+00	92	41	0	913309696	58	6112
2026-01-19 12:18:37.78	106.87	11.32	-42.0	-43.3	20.4	0.00e+00	0	41	0	915406848	58	5962
2026-01-19 12:18:38.80	107.04	11.28	-41.8	-43.1	20.6	0.00e+00	90	41	0	917504000	58	5827
2026-01-19 12:18:39.80	107.21	11.24	-42.0	-43.3	20.4	0.00e+00	0	41	0	918552576	58	5930
2026-01-19 12:18:40.81	107.38	11.19	-42.1	-43.4	20.2	0.00e+00	80	41	0	920649728	58	6030
2026-01-19 12:18:41.82	107.54	11.15	-42.1	-43.5	20.2	0.00e+00	79	41	0	922746880	58	6055
2026-01-19 12:18:42.83	107.71	11.11	-42.0	-43.4	20.2	0.00e+00	1	41	0	924844032	58	5985
2026-01-19 12:18:43.84	107.88	11.06	-41.8	-43.1	20.4	0.00e+00	92	41	0	926941184	58	5817
2026-01-19 12:18:44.85	108.04	11.02	-41.6	-42.9	20.7	0.00e+00	82	41	0	927989760	56	6346
2026-01-19 12:18:45.86	108.21	10.98	-41.5	-42.8	20.7	0.00e+00	92	41	0	930086912	56	6280
2026-01-19 12:18:46.87	108.37	10.93	-41.2	-42.5	21.1	0.00e+00	0	41	0	932184064	56	6034
2026-01-19 12:18:47.88	108.53	10.89	-41.2	-42.4	21.2	0.00e+00	0	41	0	934281216	56	6004
2026-01-19 12:18:48.89	108.70	10.84	-41.0	-42.2	21.4	0.00e+00	0	41	0	936378368	56	5871
2026-01-19 12:18:49.90	108.86	10.80	-40.9	-42.1	21.4	0.00e+00	0	41	0	937426944	56	5803
2026-01-19 12:18:50.91	109.02	10.76	-40.9	-42.2	21.5	0.00e+00	68	41	0	939524096	56	5843
2026-01-19 12:18:51.92	109.19	10.71	-41.0	-42.4	21.3	0.00e+00	0	41	0	941621248	56	5973
2026-01-19 12:18:52.93	109.35	10.67	-41.1	-42.5	21.2	0.00e+00	90	41	0	943718400	56	6046
2026-01-19 12:18:53.94	109.51	10.62	-41.2	-42.6	21.0	0.00e+00	0	41	0	945815552	56	6163
2026-01-19 12:18:54.95	109.67	10.58	-41.3	-42.7	20.8	0.00e+00	0	41	0	947912704	56	6231
2026-01-19 12:18:55.96	109.83	10.53	-41.4	-42.8	20.8	0.00e+00	2	41	0	948961280	56	6283
2026-01-19 12:18:56.97	109.99	10.49	-41.5	-42.8	20.9	0.00e+00	0	41	0	951058432	56	6267
2026-01-19 12:18:57.98	110.15	10.44	-41.6	-42.9	20.8	0.00e+00	2	41	0	953155584	56	6362
2026-01-19 12:18:58.99	110.31	10.40	-41.5	-42.9	20.7	0.00e+00	5	41	0	955252736	56	6348
2026-01-19 12:19:00.00	110.46	10.35	-41.6	-43.0	20.7	0.00e+00	91	41	0	957349888	56	6424
2026-01-19 12:19:01.01	110.62	10.31	-41.6	-42.9	20.8	0.00e+00	81	41	0	958398464	56	6329
2026-01-19 12:19:02.02	110.78	10.26	-41.6	-42.9	20.7	0.00e+00	91	41	0	960495616	56	6384
2026-01-19 12:19:03.02	110.93	10.22	-41.3	-42.9	20.7	0.00e+00	0	41	0	962592768	56	6380
2026-01-19 12:19:04.03	111.09	10.17	-41.1	-42.8	20.8	0.00e+00	82	41	0	964689920	56	6306
2026-01-19 12:19:05.04	111.25	10.12	-41.2	-42.8	20.9	0.00e+00	33	41	0	966787072	56	6265
2026-01-19 12:19:06.05	111.40	10.08	-41.1	-42.6	21.1	0.00e+00	3	41	0	967835648	56	6132
2026-01-19 12:19:07.06	111.56	10.03	-41.3	-42.6	21.1	0.00e+00	92	41	0	969932800	56	6144
2026-01-19 12:19:08.07	111.71	9.99	-41.4	-42.6	21.1	0.00e+00	78	41	0	972029952	56	6129
2026-01-19 12:19:09.08	111.87	9.94	-40.6	-41.7	21.8	0.00e+00	91	41	0	974127104	54	6201
2026-01-19 12:19:10.09	112.02	9.89	-40.4	-41.5	22.0	0.00e+00	2	41	0	976224256	54	6055
2026-01-19 12:19:11.10	112.17	9.85	-40.2	-41.3	22.2	0.00e+00	2	41	0	977272832	54	5912
2026-01-19 12:19:12.11	112.32	9.80	-40.3	-41.4	22.1	0.00e+00	0	41	0	979369984	54	6004
2026-01-19 12:19:13.12	112.48	9.75	-40.5	-41.6	21.9	0.00e+00	0	41	0	981467136	54	6114
2026-01-19 12:19:14.13	112.63	9.71	-40.4	-41.6	21.9	0.00e+00	92	41	0	983564288	54	6114
2026-01-19 12:19:15.13	112.78	9.66	-40.7	-41.8	21.6	0.00e+00	0	41	0	985661440	54	6314
2026-01-19 12:19:16.14	112.93	9.61	-40.9	-42.1	21.4	0.00e+00	92	41	0	986710016	54	6488
2026-01-19 12:19:17.15	113.08	9.57	-40.9	-42.1	21.4	0.00e+00	0	41	0	988807168	54	6496
2026-01-19 12:19:18.16	113.23	9.52	-41.0	-42.2	21.3	0.00e+00	90	41	0	990904320	54	6568
2026-01-19 12:19:19.17	113.38	9.47	-41.0	-42.3	21.3	0.00e+00	2	41	0	993001472	54	6650
2026-01-19 12:19:20.18	113.53	9.42	-40.9	-42.2	21.4	0.00e+00	81	41	0	995098624	54	6545
2026-01-19 12:19:21.19	113.67	9.38	-40.8	-42.1	21.4	0.00e+00	82	41	0	996147200	54	6528
2026-01-19 12:19:22.20	113.82	9.33	-40.7	-42.0	21.5	0.00e+00	0	41	0	998244352	54	6424
2026-01-19 12:19:23.21	113.97	9.28	-40.6	-41.9	21.6	0.00e+00	91	41	0	1000341504	54	6324
2026-01-19 12:19:24.22	114.12	9.24	-40.6	-41.8	21.7	0.00e+00	0	41	0	1002438656	54	6256
2026-01-19 12:19:25.23	114.26	9.19	-40.8	-42.0	21.5	0.00e+00	91	41	0	1004535808	54	6393
2026-01-19 12:19:26.24	114.41	9.14	-40.8	-42.0	21.5	0.00e+00	81	41	0	1005584384	54	6415
2026-01-19 12:19:27.25	114.56	9.09	-40.9	-42.1	21.4	0.00e+00	0	41	0	1007681536	54	6497
2026-01-19 12:19:28.26	114.70	9.04	-41.2	-42.3	21.2	0.00e+00	2	41	0	1009778688	54	6689
2026-01-19 12:19:29.26	114.84	9.00	-40.9	-42.1	21.5	0.00e+00	0	41	0	1011875840	54	6501
2026-01-19 12:19:30.27	114.99	8.95	-41.1	-42.3	21.3	0.00e+00	90	41	0	1013972992	54	6616
2026-01-19 12:19:31.28	115.13	8.90	-40.8	-42.0	21.4	0.00e+00	0	41	0	1016070144	54	6432
2026-01-19 12:19:32.29	115.27	8.85	-40.8	-42.0	21.5	0.00e+00	92	41	0	1017118720	54	6422
2026-01-19 12:19:33.30	115.42	8.81	-40.8	-42.0	21.5	0.00e+00	2	41	0	1019215872	54	6403
2026-01-19 12:19:34.31	115.56	8.76	-40.5	-41.7	21.8	0.00e+00	0	41	0	1021313024	54	6225
2026-01-19 12:19:35.32	115.70	8.71	-40.6	-41.9	21.6	0.00e+00	0	41	0	1023410176	54	6337
2026-01-19 12:19:36.33	115.84	8.66	-40.5	-41.8	21.6	0.00e+00	0	41	0	1025507328	54	6271
2026-01-19 12:19:37.34	115.98	8.61	-40.7	-42.0	21.5	0.00e+00	92	41	0	1026555904	54	6427
2026-01-19 12:19:38.35	116.13	8.56	-40.9	-42.2	21.3	0.00e+00	0	41	0	1028653056	54	6569
2026-01-19 12:19:39.36	116.27	8.52	-41.0	-42.2	21.3	0.00e+00	92	41	0	1030750208	54	6572
2026-01-19 12:19:40.37	116.41	8.47	-41.1	-42.3	21.2	0.00e+00	0	41	0	1032847360	54	6669
2026-01-19 12:19:41.38	116.54	8.42	-41.2	-42.4	21.1	0.00e+00	79	41	0	1034944512	54	6734
2026-01-19 12:19:42.39	116.68	8.37	-41.2	-42.4	21.1	0.00e+00	0	41	0	1035993088	54	6724
2026-01-19 12:19:43.40	116.82	8.32	-41.1	-42.2	21.3	0.00e+00	81	41	0	1038090240	54	6600
2026-01-19 12:19:44.41	116.96	8.27	-41.1	-42.3	21.2	0.00e+00	0	41	0	1040187392	54	6658
2026-01-19 12:19:45.42	117.10	8.22	-41.0	-42.2	21.3	0.00e+00	80	41	0	1042284544	54	6588
2026-01-19 12:19:46.43	117.23	8.18	-40.9	-42.1	21.4	0.00e+00	92	41	0	1044381696	54	6491
2026-01-19 12:19:47.44	117.37	8.13	-40.6	-41.8	21.7	0.00e+00	2	41	0	1045430272	54	6252
2026-01-19 12:19:48.44	117.51	8.08	-40.7	-41.8	21.6	0.00e+00	91	41	0	1047527424	54	6293
2026-01-19 12:19:49.45	117.64	8.03	-40.9	-42.0	21.5	0.00e+00	80	41	0	1049624576	54	6447
2026-01-19 12:19:50.46	117.78	7.98	-40.7	-41.9	21.6	0.00e+00	80	41	0	1051721728	54	6349
2026-01-19 12:19:51.47	117.91	7.93	-40.8	-42.1	21.4	0.00e+00	0	41	0	1053818880	54	6471
2026-01-19 12:19:52.48	118.05	7.88	-40.9	-42.2	21.3	0.00e+00	5	41	0	1054867456	54	6560
2026-01-19 12:19:53.49	118.18	7.83	-41.1	-42.4	21.1	0.00e+00	90	41	0	1056964608	54	6708
2026-01-19 12:19:54.51	118.31	7.78	-41.3	-42.5	20.9	0.00e+00	5	41	0	1059061760	54	6832
2026-01-19 12:19:55.51	118.45	7.73	-41.3	-42.6	20.9	0.00e+00	92	41	0	1061158912	54	6856
2026-01-19 12:19:56.53	118.58	7.68	-41.4	-42.7	20.8	0.00e+00	0	41	0	1063256064	54	6957
2026-01-19 12:19:57.54	118.71	7.64	-41.3	-42.5	20.9	0.00e+00	0	41	0	1064304640	54	6841
2026-01-19 12:19:58.55	118.84	7.59	-41.3	-42.6	20.9	0.00e+00	6	41	0	1066401792	54	6876
2026-01-19 12:19:59.55	118.97	7.54	-41.2	-42.4	20.9	0.00e+00	0	41	0	1068498944	54	6765
2026-01-19 12:20:00.57	119.11	7.49	-41.2	-42.4	21.0	0.00e+00	92	41	0	1070596096	54	6762
2026-01-19 12:20:01.58	119.24	7.44	-41.2	-42.4	21.0	0.00e+00	0	41	0	1072693248	54	6744
2026-01-19 12:20:02.58	119.37	7.39	-41.0	-42.2	21.2	0.00e+00	92	41	0	1073741824	54	6611
2026-01-19 12:20:03.60	119.50	7.34	-41.1	-42.3	21.1	0.00e+00	0	41	0	1075838976	54	6681
2026-01-19 12:20:04.61	119.63	7.29	-41.2	-42.4	21.1	0.00e+00	75	41	0	1077936128	54	6741
2026-01-19 12:20:05.62	119.76	7.24	-41.3	-42.6	20.9	0.00e+00	0	41	0	1080033280	54	6869
2026-01-19 12:20:06.63	119.88	7.19	-41.4	-42.7	20.6	0.00e+00	75	41	0	1082130432	54	6987
2026-01-19 12:20:07.64	120.01	7.14	-41.5	-42.7	20.6	0.00e+00	0	41	0	1084227584	54	7007
2026-01-19 12:20:08.65	120.14	7.09	-41.6	-42.9	20.5	0.00e+00	77	41	0	1085276160	54	7091
2026-01-19 12:20:09.66	120.27	7.04	-41.7	-43.0	20.4	0.00e+00	91	41	0	1087373312	54	7211
2026-01-19 12:20:10.67	120.39	6.99	-41.8	-43.2	20.3	0.00e+00	76	41	0	1089470464	56	6544
2026-01-19 12:20:11.68	120.52	6.94	-41.9	-43.3	20.2	0.00e+00	92	41	0	1091567616	56	6637
2026-01-19 12:20:12.69	120.65	6.89	-41.9	-43.2	20.2	0.00e+00	8	41	0	1093664768	56	6609
2026-01-19 12:20:13.70	120.77	6.84	-41.8	-43.1	20.3	0.00e+00	5	41	0	1094713344	56	6491
2026-01-19 12:20:14.71	120.90	6.79	-41.9	-43.2	20.2	0.00e+00	0	41	0	1096810496	56	6573
2026-01-19 12:20:15.72	121.02	6.75	-41.7	-43.0	20.4	0.00e+00	4	41	0	1098907648	56	6420
2026-01-19 12:20:16.73	121.15	6.70	-41.8	-43.1	20.3	0.00e+00	92	41	0	1101004800	56	6495
2026-01-19 12:20:17.74	121.27	6.65	-41.7	-43.1	20.2	0.00e+00	8	41	0	1103101952	56	6503
2026-01-19 12:20:18.75	121.39	6.60	-41.6	-42.9	20.4	0.00e+00	92	41	0	1104150528	56	6381
2026-01-19 12:20:19.76	121.52	6.55	-41.8	-43.2	20.1	0.00e+00	0	41	0	1106247680	56	6605
2026-01-19 12:20:20.77	121.64	6.50	-42.0	-43.4	19.9	0.00e+00	0	41	0	1108344832	56	6760
2026-01-19 12:20:21.78	121.76	6.45	-42.0	-43.4	19.8	0.00e+00	0	41	0	1110441984	56	6747
2026-01-19 12:20:22.79	121.88	6.40	-42.0	-43.4	19.8	0.00e+00	0	41	0	1112539136	56	6738
2026-01-19 12:20:23.80	122.00	6.35	-41.9	-43.5	19.8	0.00e+00	92	41	0	1113587712	56	6833
2026-01-19 12:20:24.80	122.12	6.30	-42.0	-43.7	19.6	0.00e+00	0	41	0	1115684864	56	6952
2026-01-19 12:20:25.81	122.25	6.25	-42.0	-43.7	19.5	0.00e+00	92	41	0	1117782016	56	6977
2026-01-19 12:20:26.82	122.37	6.20	-42.0	-43.6	19.6	0.00e+00	0	41	0	1119879168	56	6921
2026-01-19 12:20:27.83	122.49	6.15	-42.0	-43.6	19.5	0.00e+00	81	41	0	1121976320	56	6897
2026-01-19 12:20:28.84	122.60	6.10	-42.1	-43.6	19.4	0.00e+00	81	41	0	1123024896	56	6907
2026-01-19 12:20:29.84	122.72	6.05	-41.9	-43.4	19.8	0.00e+00	81	41	0	1125122048	56	6763
2026-01-19 12:20:30.85	122.84	6.00	-42.1	-43.7	19.7	0.00e+00	0	41	0	1127219200	56	6954
2026-01-19 12:20:31.86	122.96	5.95	-41.9	-43.5	19.8	0.00e+00	81	41	0	1129316352	56	6823
2026-01-19 12:20:32.87	123.08	5.90	-42.0	-43.7	19.7	0.00e+00	92	41	0	1131413504	56	6946
2026-01-19 12:20:33.88	123.20	5.85	-42.4	-44.2	19.2	0.00e+00	0	41	0	1132462080	56	7352
2026-01-19 12:20:34.89	123.31	5.80	-42.4	-44.1	19.2	0.00e+00	92	41	0	1134559232	56	7257
2026-01-19 12:20:35.91	123.43	5.75	-42.7	-44.3	19.1	0.00e+00	5	41	0	1136656384	56	7449
2026-01-19 12:20:36.91	123.55	5.70	-42.5	-44.1	19.3	0.00e+00	2	41	0	1138753536	56	7271
2026-01-19 12:20:37.92	123.66	5.65	-42.6	-44.2	19.2	0.00e+00	0	41	0	1140850688	56	7357
2026-01-19 12:20:38.94	123.78	5.60	-42.6	-44.2	19.1	0.00e+00	2	41	0	1141899264	56	7418
2026-01-19 12:20:39.94	123.89	5.55	-42.7	-44.4	19.0	0.00e+00	92	41	0	1143996416	56	7551
2026-01-19 12:20:40.95	124.01	5.50	-42.6	-44.1	19.2	0.00e+00	0	41	0	1146093568	56	7333
2026-01-19 12:20:41.96	124.12	5.45	-42.6	-44.2	19.1	0.00e+00	90	41	0	1148190720	58	6590
2026-01-19 12:20:42.97	124.24	5.40	-42.5	-44.1	19.2	0.00e+00	0	41	0	1150287872	58	6482
2026-01-19 12:20:43.98	124.35	5.35	-42.6	-44.1	19.2	0.00e+00	0	41	0	1152385024	58	6531
2026-01-19 12:20:44.99	124.46	5.30	-42.5	-44.1	19.3	0.00e+00	81	41	0	1153433600	58	6488
2026-01-19 12:20:46.00	124.58	5.25	-42.4	-43.9	19.3	0.00e+00	0	41	0	1155530752	58	6348
2026-01-19 12:20:47.01	124.69	5.20	-42.5	-44.0	19.3	0.00e+00	81	41	0	1157627904	58	6432
2026-01-19 12:20:48.02	124.80	5.15	-42.5	-44.0	19.3	0.00e+00	80	41	0	1159725056	58	6422
2026-01-19 12:20:49.03	124.91	5.10	-42.5	-44.1	19.3	0.00e+00	92	41	0	1161822208	58	6495
2026-01-19 12:20:50.04	125.03	5.05	-42.7	-44.3	19.0	0.00e+00	80	41	0	1162870784	58	6651
2026-01-19 12:20:51.05	125.14	5.00	-42.6	-44.2	18.9	0.00e+00	91	41	0	1164967936	58	6552
2026-01-19 12:20:52.06	125.25	4.95	-43.0	-44.7	18.7	0.00e+00	80	41	0	1167065088	58	6942
2026-01-19 12:20:53.07	125.36	4.90	-42.8	-44.5	18.7	0.00e+00	2	41	0	1169162240	58	6818
2026-01-19 12:20:54.08	125.47	4.85	-42.8	-44.5	18.7	0.00e+00	73	41	0	1171259392	58	6804
2026-01-19 12:20:55.09	125.58	4.80	-42.9	-44.6	18.7	0.00e+00	1	41	0	1172307968	58	6872
2026-01-19 12:20:56.10	125.69	4.75	-42.8	-44.5	18.7	0.00e+00	92	41	0	1174405120	58	6802
2026-01-19 12:20:57.11	125.80	4.70	-43.1	-44.8	18.3	0.00e+00	2	41	0	1176502272	58	7085
2026-01-19 12:20:58.12	125.90	4.65	-43.1	-44.8	18.4	0.00e+00	92	41	0	1178599424	58	7083
2026-01-19 12:20:59.13	126.01	4.60	-43.1	-44.8	18.5	0.00e+00	0	41	0	1180696576	58	7073
2026-01-19 12:21:00.14	126.12	4.55	-43.1	-44.9	18.3	0.00e+00	0	41	0	1181745152	58	7123
2026-01-19 12:21:01.16	126.23	4.50	-43.1	-44.9	18.3	0.00e+00	0	41	0	1183842304	58	7090
2026-01-19 12:21:02.17	126.34	4.45	-43.0	-44.7	18.5	0.00e+00	0	41	0	1185939456	58	6998
2026-01-19 12:21:03.18	126.44	4.40	-42.8	-44.4	18.6	0.00e+00	92	41	0	1188036608	58	6768
2026-01-19 12:21:04.18	126.55	4.35	-43.0	-44.8	18.3	0.00e+00	81	41	0	1190133760	58	7043
2026-01-19 12:21:05.19	126.66	4.30	-43.0	-44.8	18.4	0.00e+00	92	41	0	1191182336	58	7064
2026-01-19 12:21:06.20	126.76	4.26	-43.0	-44.9	18.2	0.00e+00	2	41	0	1193279488	58	7120
2026-01-19 12:21:07.21	126.87	4.21	-42.8	-44.6	18.5	0.00e+00	0	41	0	1195376640	58	6909
2026-01-19 12:21:08.22	126.97	4.16	-43.0	-44.9	18.3	0.00e+00	0	41	0	1197473792	58	7103
2026-01-19 12:21:09.23	127.08	4.11	-43.1	-45.1	18.0	0.00e+00	76	41	0	1199570944	58	7308
2026-01-19 12:21:10.24	127.18	4.06	-43.2	-45.2	17.9	0.00e+00	74	41	0	1200619520	58	7395
2026-01-19 12:21:11.25	127.29	4.01	-43.3	-45.3	17.8	0.00e+00	7	41	0	1202716672	58	7435
2026-01-19 12:21:12.26	127.39	3.96	-43.2	-45.2	17.8	0.00e+00	92	41	0	1204813824	58	7398
2026-01-19 12:21:13.27	127.49	3.91	-43.4	-45.4	17.7	0.00e+00	80	41	0	1206910976	58	7555
