passes_logs/2026/01/19/R4.6S_Anadyr/R4.6S_Anadyr__20260119_174819_FENGYUN_3D_rec.log

#Pass ID: 20260119_174819_FENGYUN 3D
#Satellite: FENGYUN 3D
#Configuration: FENGYUN 3D
#almurnet v.1.7.20251203
#Start time: 2026-01-19 17:48:22

#Version: 2.2.20231116
#Station: R4.6S_Anadyr
#Location: 177.4865 lon 64.73178 lat
#TLE: 1 43010U 17072A   26018.95027258  .00000058  00000+0  49274-4 0  9992
#TLE: 2 43010  98.9939 350.8271 0002416 102.0826 258.0620 14.19696908423819

#Time	Az	El	Level	Level2	SNR	BER	BlckErr	Temp	State	Recorded	gain1	gain2
2026-01-19 17:48:22.81	23.71	0.18	-52.8	-63.6	3.3	8.40e-01	0	38	0	0	60	54421
2026-01-19 17:48:23.82	23.68	0.24	-50.8	-63.0	3.6	8.45e-01	0	38	104	0	60	50809
2026-01-19 17:48:24.83	23.66	0.30	-50.4	-62.5	3.6	8.45e-01	0	38	104	0	60	48399
2026-01-19 17:48:25.84	23.64	0.36	-50.0	-62.1	3.6	8.46e-01	0	38	104	0	60	46151
2026-01-19 17:48:26.84	23.62	0.42	-49.9	-62.1	3.6	8.44e-01	0	38	104	0	60	45930
2026-01-19 17:48:27.85	23.59	0.48	-50.0	-62.1	3.6	8.44e-01	0	38	104	0	60	46168
2026-01-19 17:48:28.86	23.57	0.54	-49.9	-62.0	3.6	8.45e-01	0	38	104	0	60	45635
2026-01-19 17:48:29.87	23.55	0.60	-49.8	-62.0	3.6	8.44e-01	0	38	104	0	60	45349
2026-01-19 17:48:30.88	23.52	0.66	-49.7	-61.9	3.6	8.45e-01	0	38	104	0	60	44897
2026-01-19 17:48:31.89	23.50	0.72	-49.7	-61.8	3.6	8.47e-01	0	38	104	0	60	44422
2026-01-19 17:48:32.91	23.48	0.78	-49.6	-61.8	3.6	8.45e-01	0	38	104	0	60	44279
2026-01-19 17:48:33.92	23.45	0.84	-49.6	-61.7	3.6	8.44e-01	0	38	104	0	60	43897
2026-01-19 17:48:34.93	23.43	0.90	-49.5	-61.6	3.6	8.45e-01	0	39	104	0	60	43706
2026-01-19 17:48:35.94	23.41	0.96	-49.4	-61.5	3.6	8.46e-01	0	39	104	0	60	43207
2026-01-19 17:48:36.95	23.38	1.02	-49.4	-61.5	3.6	8.45e-01	0	38	104	0	60	42902
2026-01-19 17:48:37.96	23.36	1.09	-49.2	-61.3	3.6	8.45e-01	0	39	104	0	60	42126
2026-01-19 17:48:38.97	23.34	1.15	-49.0	-61.1	3.6	8.45e-01	0	39	104	0	60	41051
2026-01-19 17:48:39.98	23.31	1.21	-49.0	-61.1	3.6	8.44e-01	0	39	104	0	60	41262
2026-01-19 17:48:40.99	23.29	1.27	-48.9	-61.0	3.6	8.46e-01	0	39	104	0	60	40619
2026-01-19 17:48:42.00	23.26	1.33	-48.7	-60.7	3.6	8.45e-01	0	38	104	0	60	39306
2026-01-19 17:48:43.01	23.24	1.40	-48.5	-60.6	3.6	8.45e-01	0	39	104	0	60	38533
2026-01-19 17:48:44.02	23.21	1.46	-48.1	-60.1	3.6	8.45e-01	0	39	104	0	60	36571
2026-01-19 17:48:45.03	23.19	1.52	-48.1	-60.2	3.6	8.46e-01	0	39	104	0	60	36930
2026-01-19 17:48:46.04	23.16	1.58	-48.1	-60.2	3.6	8.45e-01	0	39	104	0	60	37147
2026-01-19 17:48:47.05	23.14	1.64	-48.1	-60.3	3.6	8.44e-01	0	39	104	0	60	37328
2026-01-19 17:48:48.06	23.11	1.71	-48.1	-60.2	3.6	8.45e-01	0	39	104	0	60	37063
2026-01-19 17:48:49.07	23.09	1.77	-48.1	-60.2	3.6	8.46e-01	0	39	104	0	60	36812
2026-01-19 17:48:50.08	23.06	1.83	-48.1	-60.0	3.6	8.45e-01	0	39	104	0	60	36021
2026-01-19 17:48:51.09	23.04	1.90	-48.1	-60.0	3.6	8.44e-01	0	39	104	0	60	36002
2026-01-19 17:48:52.10	23.01	1.96	-48.0	-59.8	3.6	8.45e-01	0	39	104	0	60	35514
2026-01-19 17:48:53.11	22.99	2.02	-48.1	-59.9	3.6	8.45e-01	0	39	104	0	60	35875
2026-01-19 17:48:54.12	22.96	2.09	-48.0	-59.9	3.6	8.44e-01	0	39	104	0	60	35816
2026-01-19 17:48:55.14	22.93	2.15	-48.0	-60.0	3.6	8.44e-01	0	39	104	0	60	36346
2026-01-19 17:48:56.14	22.91	2.21	-48.1	-60.2	3.6	8.45e-01	0	39	104	0	60	36989
2026-01-19 17:48:57.16	22.88	2.28	-48.1	-60.2	3.6	8.44e-01	0	39	104	0	60	36895
2026-01-19 17:48:58.17	22.85	2.34	-48.1	-60.2	3.6	8.45e-01	0	39	104	0	60	36991
2026-01-19 17:48:59.18	22.83	2.41	-48.1	-60.1	3.6	8.46e-01	0	39	104	0	60	36612
2026-01-19 17:49:00.19	22.80	2.47	-48.0	-60.1	3.6	8.45e-01	0	39	104	0	60	36437
2026-01-19 17:49:01.20	22.77	2.53	-48.0	-60.0	3.6	8.45e-01	0	39	104	0	60	36342
2026-01-19 17:49:02.21	22.75	2.60	-48.0	-59.9	3.6	8.44e-01	0	39	104	0	60	35857
2026-01-19 17:49:03.22	22.72	2.66	-48.0	-59.9	3.6	8.45e-01	0	39	104	0	60	35660
2026-01-19 17:49:04.23	22.69	2.73	-48.1	-59.8	3.6	8.46e-01	0	39	104	0	60	35286
2026-01-19 17:49:05.24	22.67	2.79	-48.0	-59.4	3.6	8.45e-01	0	39	104	0	60	33902
2026-01-19 17:49:06.25	22.64	2.86	-48.0	-59.2	3.6	8.45e-01	0	39	104	0	60	32908
2026-01-19 17:49:07.26	22.61	2.92	-48.0	-58.9	3.6	8.45e-01	0	39	104	0	60	31990
2026-01-19 17:49:08.27	22.58	2.99	-47.9	-58.8	3.6	8.45e-01	0	39	104	0	60	31307
2026-01-19 17:49:09.28	22.56	3.05	-47.9	-58.9	3.6	8.45e-01	0	39	104	0	60	31675
2026-01-19 17:49:10.29	22.53	3.12	-48.0	-59.0	3.6	8.45e-01	0	39	104	0	60	32292
2026-01-19 17:49:11.30	22.50	3.19	-48.0	-59.3	3.6	8.44e-01	0	39	104	0	60	33517
2026-01-19 17:49:12.31	22.47	3.25	-48.0	-59.4	3.6	8.46e-01	0	39	104	0	60	33666
2026-01-19 17:49:13.32	22.44	3.32	-48.0	-59.3	3.6	8.44e-01	0	39	104	0	60	33251
2026-01-19 17:49:14.33	22.41	3.38	-48.0	-59.1	3.6	8.45e-01	0	39	104	0	60	32670
2026-01-19 17:49:15.33	22.38	3.45	-48.0	-59.2	3.5	8.45e-01	0	39	104	0	60	33002
2026-01-19 17:49:16.34	22.36	3.52	-48.0	-59.2	3.6	8.46e-01	0	39	104	0	60	33077
2026-01-19 17:49:17.35	22.33	3.58	-48.0	-59.1	3.6	8.46e-01	0	39	104	0	60	32443
2026-01-19 17:49:18.36	22.30	3.65	-48.0	-58.8	3.6	8.44e-01	0	39	104	0	60	31591
2026-01-19 17:49:19.37	22.27	3.72	-48.0	-57.9	3.7	8.43e-01	0	39	104	0	60	28408
2026-01-19 17:49:20.38	22.24	3.78	-48.2	-59.3	3.6	8.44e-01	0	39	104	0	60	33354
2026-01-19 17:49:21.39	22.21	3.85	-48.0	-60.0	3.6	8.45e-01	0	39	104	0	60	36321
2026-01-19 17:49:22.40	22.18	3.92	-43.7	-45.9	10.5	4.87e-01	0	39	104	0	56	9013
2026-01-19 17:49:23.41	22.15	3.99	-47.8	-57.5	3.7	8.45e-01	0	39	104	0	60	27231
2026-01-19 17:49:24.42	22.12	4.06	-40.4	-41.6	17.3	0.00e+00	0	39	104	0	56	5466
2026-01-19 17:49:25.43	22.09	4.12	-38.1	-39.0	20.3	0.00e+00	0	39	0	4194304	50	5751
2026-01-19 17:49:26.43	22.06	4.19	-38.2	-39.1	20.2	0.00e+00	0	39	0	10485760	50	5818
2026-01-19 17:49:27.44	22.03	4.26	-38.2	-39.1	20.3	0.00e+00	0	39	0	15728640	50	5823
2026-01-19 17:49:28.45	22.00	4.33	-38.3	-39.2	20.4	0.00e+00	0	39	0	20971520	50	5889
2026-01-19 17:49:29.46	21.97	4.40	-38.0	-38.9	20.6	0.00e+00	0	39	0	27262976	50	5693
2026-01-19 17:49:30.47	21.93	4.46	-37.9	-38.8	20.8	0.00e+00	0	39	0	32505856	48	6246
2026-01-19 17:49:31.48	21.90	4.53	-38.1	-39.0	20.4	0.00e+00	0	39	0	38797312	48	6449
2026-01-19 17:49:32.49	21.87	4.60	-38.3	-39.3	20.3	0.00e+00	0	39	0	44040192	48	6638
2026-01-19 17:49:33.50	21.84	4.67	-38.3	-39.3	20.2	0.00e+00	0	39	0	49283072	50	5917
2026-01-19 17:49:34.51	21.81	4.74	-38.5	-39.5	19.7	0.00e+00	0	39	0	55574528	50	6039
2026-01-19 17:49:35.52	21.78	4.81	-38.0	-39.0	20.6	0.00e+00	0	39	0	60817408	48	6396
2026-01-19 17:49:36.53	21.74	4.88	-38.1	-39.0	20.5	0.00e+00	0	39	0	67108864	48	6413
2026-01-19 17:49:37.54	21.71	4.95	-37.5	-38.3	21.2	0.00e+00	0	39	0	72351744	48	5948
2026-01-19 17:49:38.56	21.68	5.02	-37.3	-38.2	21.2	0.00e+00	0	39	0	77594624	48	5835
2026-01-19 17:49:39.56	21.65	5.09	-37.3	-38.2	21.3	0.00e+00	0	39	0	83886080	48	5839
2026-01-19 17:49:40.58	21.61	5.16	-37.4	-38.3	21.1	0.00e+00	0	39	0	89128960	48	5932
2026-01-19 17:49:41.59	21.58	5.23	-37.1	-37.9	21.4	0.00e+00	0	39	0	95420416	48	5688
2026-01-19 17:49:42.60	21.55	5.30	-37.1	-38.0	21.6	0.00e+00	0	39	0	100663296	48	5709
2026-01-19 17:49:43.61	21.51	5.38	-36.9	-37.8	21.7	0.00e+00	0	39	0	106954752	48	5582
2026-01-19 17:49:44.62	21.48	5.45	-36.5	-37.3	22.0	0.00e+00	0	39	0	112197632	46	5950
2026-01-19 17:49:45.63	21.44	5.52	-36.4	-37.2	22.3	0.00e+00	0	39	0	118489088	46	5856
2026-01-19 17:49:46.64	21.41	5.59	-36.5	-37.3	22.3	0.00e+00	0	39	0	123731968	46	5903
2026-01-19 17:49:47.65	21.38	5.66	-36.4	-37.2	22.3	0.00e+00	0	39	0	128974848	46	5852
2026-01-19 17:49:48.66	21.34	5.73	-36.2	-37.0	22.5	0.00e+00	0	39	0	135266304	46	5711
2026-01-19 17:49:49.67	21.31	5.81	-36.3	-37.1	22.4	0.00e+00	0	39	0	140509184	46	5823
2026-01-19 17:49:50.68	21.27	5.88	-36.3	-37.1	22.4	0.00e+00	0	39	0	146800640	46	5813
2026-01-19 17:49:51.69	21.24	5.95	-36.5	-37.3	22.4	0.00e+00	0	39	0	152043520	46	5934
2026-01-19 17:49:52.70	21.20	6.02	-36.2	-37.0	22.5	0.00e+00	0	39	0	157286400	46	5717
2026-01-19 17:49:53.71	21.17	6.10	-36.2	-37.0	22.5	0.00e+00	0	39	0	163577856	46	5707
2026-01-19 17:49:54.73	21.13	6.17	-36.3	-37.0	22.5	0.00e+00	0	39	0	168820736	46	5750
2026-01-19 17:49:55.74	21.10	6.24	-36.1	-36.9	22.7	0.00e+00	0	39	0	175112192	46	5644
2026-01-19 17:49:56.75	21.06	6.32	-36.0	-36.8	22.7	0.00e+00	0	39	0	180355072	46	5600
2026-01-19 17:49:57.76	21.02	6.39	-36.1	-36.8	22.7	0.00e+00	0	39	0	185597952	46	5623
2026-01-19 17:49:58.77	20.99	6.47	-35.9	-36.6	22.9	0.00e+00	0	39	0	191889408	46	5501
2026-01-19 17:49:59.78	20.95	6.54	-36.0	-36.7	22.9	0.00e+00	0	39	0	197132288	46	5551
2026-01-19 17:50:00.79	20.91	6.61	-36.0	-36.8	22.9	0.00e+00	0	39	0	203423744	46	5582
2026-01-19 17:50:01.80	20.88	6.69	-36.0	-36.8	22.8	0.00e+00	0	39	0	208666624	46	5580
2026-01-19 17:50:02.80	20.84	6.76	-36.1	-36.9	22.9	0.00e+00	0	39	0	214958080	46	5650
2026-01-19 17:50:03.82	20.80	6.84	-36.2	-36.9	22.7	0.00e+00	0	39	0	220200960	46	5664
2026-01-19 17:50:04.83	20.76	6.91	-36.3	-37.1	22.6	0.00e+00	0	39	0	226492416	46	5765
2026-01-19 17:50:05.84	20.73	6.99	-35.8	-36.6	23.1	0.00e+00	0	39	0	231735296	46	5454
2026-01-19 17:50:06.85	20.69	7.06	-35.5	-36.3	23.3	0.00e+00	0	39	0	236978176	44	5903
2026-01-19 17:50:07.86	20.65	7.14	-35.8	-36.5	23.0	0.00e+00	0	39	0	243269632	44	6090
2026-01-19 17:50:08.87	20.61	7.22	-35.8	-36.6	23.1	0.00e+00	0	39	0	248512512	44	6111
2026-01-19 17:50:09.88	20.57	7.29	-35.7	-36.4	23.1	0.00e+00	0	39	0	254803968	44	6019
2026-01-19 17:50:10.89	20.53	7.37	-35.8	-36.6	23.1	0.00e+00	0	39	0	260046848	44	6128
2026-01-19 17:50:11.90	20.49	7.45	-35.6	-36.3	23.2	0.00e+00	0	39	0	265289728	44	5945
2026-01-19 17:50:12.91	20.46	7.52	-35.6	-36.3	23.3	0.00e+00	0	39	0	271581184	44	5951
2026-01-19 17:50:13.92	20.42	7.60	-35.6	-36.4	23.3	0.00e+00	0	39	0	276824064	44	5988
2026-01-19 17:50:14.93	20.38	7.68	-35.6	-36.3	23.3	0.00e+00	0	39	0	283115520	44	5962
2026-01-19 17:50:15.94	20.34	7.75	-35.5	-36.2	23.5	0.00e+00	0	39	0	288358400	44	5872
2026-01-19 17:50:16.95	20.30	7.83	-35.4	-36.1	23.5	0.00e+00	0	39	0	293601280	44	5824
2026-01-19 17:50:17.96	20.25	7.91	-35.4	-36.1	23.6	0.00e+00	0	39	0	299892736	44	5824
2026-01-19 17:50:18.97	20.21	7.99	-35.5	-36.2	23.5	0.00e+00	0	39	0	305135616	44	5869
2026-01-19 17:50:19.98	20.17	8.07	-35.4	-36.2	23.4	0.00e+00	0	39	0	311427072	44	5846
2026-01-19 17:50:20.99	20.13	8.14	-35.5	-36.2	23.5	0.00e+00	0	39	0	316669952	44	5866
2026-01-19 17:50:22.00	20.09	8.22	-35.3	-36.0	23.7	0.00e+00	0	39	0	322961408	44	5744
2026-01-19 17:50:23.01	20.05	8.30	-35.2	-35.9	23.6	0.00e+00	0	39	0	328204288	44	5688
2026-01-19 17:50:24.02	20.01	8.38	-35.2	-35.9	23.7	0.00e+00	0	39	0	333447168	44	5674
2026-01-19 17:50:25.03	19.96	8.46	-35.4	-36.1	23.6	0.00e+00	0	39	0	339738624	44	5826
2026-01-19 17:50:26.04	19.92	8.54	-35.2	-36.0	23.7	0.00e+00	0	39	0	344981504	44	5699
2026-01-19 17:50:27.05	19.88	8.62	-35.2	-35.9	23.7	0.00e+00	0	39	0	351272960	44	5646
2026-01-19 17:50:28.06	19.83	8.70	-35.2	-35.9	23.8	0.00e+00	0	39	0	356515840	44	5690
2026-01-19 17:50:29.07	19.79	8.78	-35.2	-35.9	23.7	0.00e+00	0	39	0	361758720	44	5656
2026-01-19 17:50:30.08	19.75	8.86	-35.1	-35.9	23.9	0.00e+00	0	39	0	368050176	44	5634
2026-01-19 17:50:31.09	19.70	8.94	-35.2	-35.9	23.8	0.00e+00	0	39	0	373293056	44	5693
2026-01-19 17:50:32.10	19.66	9.03	-35.3	-36.0	23.7	0.00e+00	0	39	0	379584512	44	5715
2026-01-19 17:50:33.11	19.62	9.11	-35.3	-36.0	23.7	0.00e+00	0	39	0	384827392	44	5716
2026-01-19 17:50:34.12	19.57	9.19	-35.5	-36.2	23.7	0.00e+00	0	39	0	391118848	44	5867
2026-01-19 17:50:35.14	19.53	9.27	-35.3	-36.0	23.7	0.00e+00	0	39	0	396361728	44	5746
2026-01-19 17:50:36.15	19.48	9.35	-35.4	-36.1	23.7	0.00e+00	0	39	0	401604608	44	5827
2026-01-19 17:50:37.16	19.43	9.44	-35.4	-36.2	23.6	0.00e+00	0	39	0	407896064	44	5829
2026-01-19 17:50:38.16	19.39	9.52	-35.5	-36.2	23.5	0.00e+00	0	39	0	413138944	44	5891
2026-01-19 17:50:39.18	19.34	9.60	-35.6	-36.4	23.5	0.00e+00	0	39	0	419430400	44	5992
2026-01-19 17:50:40.19	19.30	9.69	-35.4	-36.1	23.6	0.00e+00	0	39	0	424673280	44	5800
2026-01-19 17:50:41.19	19.25	9.77	-35.5	-36.3	23.7	0.00e+00	0	39	0	430964736	44	5931
2026-01-19 17:50:42.20	19.20	9.85	-35.3	-36.1	23.7	0.00e+00	0	39	0	436207616	44	5774
2026-01-19 17:50:43.21	19.16	9.94	-35.5	-36.2	23.6	0.00e+00	0	39	0	441450496	44	5874
2026-01-19 17:50:44.22	19.11	10.02	-35.6	-36.4	23.5	0.00e+00	0	39	0	447741952	44	5980
2026-01-19 17:50:45.23	19.06	10.10	-35.9	-36.7	23.2	0.00e+00	0	39	0	452984832	44	6215
2026-01-19 17:50:46.24	19.01	10.19	-36.1	-36.9	23.0	0.00e+00	0	39	0	459276288	44	6336
2026-01-19 17:50:47.25	18.96	10.27	-36.3	-37.0	22.9	0.00e+00	0	39	0	464519168	44	6460
2026-01-19 17:50:48.26	18.91	10.36	-35.6	-36.4	23.4	0.00e+00	0	39	0	469762048	44	5984
2026-01-19 17:50:49.27	18.87	10.45	-35.8	-36.6	23.3	0.00e+00	0	39	0	476053504	44	6149
2026-01-19 17:50:50.28	18.82	10.53	-36.2	-37.0	22.9	0.00e+00	0	39	0	481296384	44	6403
2026-01-19 17:50:51.29	18.77	10.62	-35.6	-36.4	23.5	0.00e+00	0	39	0	487587840	44	5999
2026-01-19 17:50:52.30	18.72	10.70	-35.1	-35.8	24.0	0.00e+00	0	39	0	492830720	44	5607
2026-01-19 17:50:53.31	18.67	10.79	-35.1	-35.8	24.0	0.00e+00	0	39	0	498073600	44	5624
2026-01-19 17:50:54.32	18.62	10.88	-35.1	-35.8	24.0	0.00e+00	0	39	0	504365056	44	5598
2026-01-19 17:50:55.33	18.56	10.97	-35.1	-35.8	24.0	0.00e+00	0	39	0	509607936	44	5592
2026-01-19 17:50:56.34	18.51	11.05	-35.2	-35.9	24.0	0.00e+00	0	39	0	515899392	44	5668
2026-01-19 17:50:57.35	18.46	11.14	-35.0	-35.7	24.1	0.00e+00	0	39	0	521142272	44	5558
2026-01-19 17:50:58.36	18.41	11.23	-34.8	-35.5	24.3	0.00e+00	0	39	0	527433728	44	5430
2026-01-19 17:50:59.37	18.36	11.32	-34.9	-35.6	24.3	0.00e+00	0	39	0	532676608	44	5472
2026-01-19 17:51:00.39	18.30	11.41	-35.0	-35.7	24.0	0.00e+00	0	39	0	538968064	44	5564
2026-01-19 17:51:01.39	18.25	11.50	-34.8	-35.5	24.3	0.00e+00	0	39	0	544210944	44	5435
2026-01-19 17:51:02.40	18.20	11.59	-34.7	-35.4	24.5	0.00e+00	0	39	0	549453824	42	6000
2026-01-19 17:51:03.41	18.14	11.68	-34.7	-35.5	24.4	0.00e+00	0	39	0	555745280	42	6040
2026-01-19 17:51:04.43	18.09	11.77	-34.8	-35.5	24.4	0.00e+00	0	39	0	560988160	42	6078
2026-01-19 17:51:05.43	18.04	11.86	-34.6	-35.3	24.6	0.00e+00	0	39	0	567279616	42	5919
2026-01-19 17:51:06.45	17.98	11.95	-34.7	-35.4	24.6	0.00e+00	0	39	0	572522496	42	5986
2026-01-19 17:51:07.45	17.93	12.04	-34.7	-35.4	24.5	0.00e+00	0	39	0	577765376	42	6019
2026-01-19 17:51:08.46	17.87	12.13	-34.5	-35.2	24.7	0.00e+00	0	39	0	584056832	42	5871
2026-01-19 17:51:09.48	17.81	12.22	-34.4	-35.1	24.9	0.00e+00	0	39	0	589299712	42	5792
2026-01-19 17:51:10.49	17.76	12.31	-34.5	-35.2	24.7	0.00e+00	0	39	0	595591168	42	5859
2026-01-19 17:51:11.50	17.70	12.40	-34.8	-35.4	24.6	0.00e+00	0	39	0	600834048	42	6020
2026-01-19 17:51:12.51	17.64	12.50	-34.4	-35.0	24.9	0.00e+00	0	39	0	606076928	42	5756
2026-01-19 17:51:13.52	17.59	12.59	-34.3	-34.9	25.0	0.00e+00	0	39	0	612368384	42	5692
2026-01-19 17:51:14.53	17.53	12.68	-34.2	-34.9	25.0	0.00e+00	0	39	0	617611264	42	5690
2026-01-19 17:51:15.53	17.47	12.78	-34.2	-34.9	25.1	0.00e+00	0	39	0	623902720	42	5652
2026-01-19 17:51:16.54	17.41	12.87	-34.1	-34.8	25.1	0.00e+00	0	39	0	629145600	42	5603
2026-01-19 17:51:17.55	17.35	12.96	-34.3	-34.9	25.1	0.00e+00	0	39	0	635437056	42	5695
2026-01-19 17:51:18.56	17.29	13.06	-34.0	-34.7	25.2	0.00e+00	0	39	0	640679936	42	5556
2026-01-19 17:51:19.57	17.23	13.15	-34.2	-34.9	25.1	0.00e+00	0	39	0	645922816	42	5631
2026-01-19 17:51:20.58	17.17	13.25	-34.2	-34.9	25.0	0.00e+00	0	39	0	652214272	42	5663
2026-01-19 17:51:21.59	17.11	13.34	-34.2	-34.9	25.0	0.00e+00	0	39	0	657457152	42	5646
2026-01-19 17:51:22.60	17.05	13.44	-34.3	-35.0	25.0	0.00e+00	0	39	0	663748608	42	5731
2026-01-19 17:51:23.61	16.99	13.54	-34.2	-34.9	25.1	0.00e+00	0	39	0	668991488	42	5649
2026-01-19 17:51:24.62	16.93	13.63	-34.1	-34.8	25.2	0.00e+00	0	39	0	674234368	42	5569
2026-01-19 17:51:25.63	16.87	13.73	-34.2	-34.9	25.1	0.00e+00	0	39	0	680525824	42	5644
2026-01-19 17:51:26.64	16.80	13.83	-34.1	-34.8	25.1	0.00e+00	0	39	0	685768704	42	5586
2026-01-19 17:51:27.65	16.74	13.92	-34.2	-34.9	25.0	0.00e+00	0	39	0	692060160	42	5668
2026-01-19 17:51:28.66	16.68	14.02	-34.2	-34.9	25.1	0.00e+00	0	39	0	697303040	42	5632
2026-01-19 17:51:29.67	16.61	14.12	-34.0	-34.7	25.3	0.00e+00	0	39	0	703594496	42	5525
2026-01-19 17:51:30.68	16.55	14.22	-34.0	-34.7	25.3	0.00e+00	0	39	0	708837376	42	5506
2026-01-19 17:51:31.69	16.48	14.32	-34.0	-34.7	25.1	0.00e+00	0	39	0	714080256	42	5532
2026-01-19 17:51:32.70	16.42	14.42	-34.0	-34.7	25.2	0.00e+00	0	39	0	720371712	42	5524
2026-01-19 17:51:33.71	16.35	14.52	-34.0	-34.7	25.3	0.00e+00	0	39	0	725614592	42	5534
2026-01-19 17:51:34.72	16.28	14.62	-34.0	-34.7	25.2	0.00e+00	0	39	0	731906048	42	5555
2026-01-19 17:51:35.73	16.22	14.72	-34.1	-34.8	25.2	0.00e+00	0	39	0	737148928	42	5588
2026-01-19 17:51:36.75	16.15	14.82	-34.0	-34.7	25.3	0.00e+00	0	39	0	743440384	42	5526
2026-01-19 17:51:37.76	16.08	14.92	-34.1	-34.8	25.1	0.00e+00	0	39	0	748683264	42	5606
2026-01-19 17:51:38.77	16.01	15.02	-34.0	-34.7	25.3	0.00e+00	0	39	0	753926144	42	5531
2026-01-19 17:51:39.78	15.94	15.12	-34.0	-34.7	25.3	0.00e+00	0	39	0	760217600	42	5504
2026-01-19 17:51:40.79	15.88	15.23	-33.8	-34.4	25.5	0.00e+00	0	39	0	765460480	42	5356
2026-01-19 17:51:41.80	15.81	15.33	-33.8	-34.5	25.4	0.00e+00	0	39	0	771751936	42	5410
2026-01-19 17:51:42.81	15.74	15.43	-33.6	-34.3	25.6	0.00e+00	0	39	0	776994816	40	5916
2026-01-19 17:51:43.82	15.66	15.54	-33.5	-34.2	25.7	0.00e+00	0	39	0	782237696	40	5852
2026-01-19 17:51:44.83	15.59	15.64	-33.6	-34.2	25.7	0.00e+00	0	39	0	788529152	40	5896
2026-01-19 17:51:45.84	15.52	15.75	-33.5	-34.1	25.7	0.00e+00	0	39	0	793772032	40	5815
2026-01-19 17:51:46.85	15.45	15.85	-33.4	-34.1	25.9	0.00e+00	0	39	0	800063488	40	5762
2026-01-19 17:51:47.86	15.38	15.95	-33.4	-34.1	25.8	0.00e+00	0	39	0	805306368	40	5782
2026-01-19 17:51:48.87	15.30	16.06	-33.5	-34.1	25.8	0.00e+00	0	39	0	810549248	40	5817
2026-01-19 17:51:49.88	15.23	16.17	-33.3	-33.9	26.0	0.00e+00	0	39	0	816840704	40	5669
2026-01-19 17:51:50.89	15.15	16.27	-33.2	-33.9	26.0	0.00e+00	0	39	0	822083584	40	5645
2026-01-19 17:51:51.90	15.08	16.38	-33.3	-33.9	25.9	0.00e+00	0	39	0	828375040	40	5661
2026-01-19 17:51:52.91	15.00	16.49	-33.2	-33.9	25.9	0.00e+00	0	39	0	833617920	40	5659
2026-01-19 17:51:53.92	14.93	16.59	-33.2	-33.9	26.0	0.00e+00	0	39	0	839909376	40	5640
2026-01-19 17:51:54.93	14.85	16.70	-33.3	-33.9	26.0	0.00e+00	0	39	0	845152256	40	5687
2026-01-19 17:51:55.94	14.77	16.81	-33.2	-33.8	26.0	0.00e+00	0	39	0	851443712	40	5630
2026-01-19 17:51:56.95	14.69	16.92	-33.3	-34.0	25.9	0.00e+00	0	39	0	856686592	40	5714
2026-01-19 17:51:57.96	14.61	17.03	-33.3	-34.0	25.9	0.00e+00	0	39	0	861929472	40	5716
2026-01-19 17:51:58.96	14.54	17.14	-33.4	-34.1	25.9	0.00e+00	0	39	0	868220928	40	5772
2026-01-19 17:51:59.97	14.46	17.25	-33.3	-33.9	25.8	0.00e+00	0	39	0	873463808	40	5680
2026-01-19 17:52:00.95	14.38	17.36	-33.2	-33.8	26.0	0.00e+00	0	39	0	878706688	40	5625
2026-01-19 17:52:01.96	14.30	17.47	-33.3	-34.0	26.0	0.00e+00	0	39	0	884998144	40	5712
2026-01-19 17:52:02.97	14.22	17.58	-33.0	-33.7	26.2	0.00e+00	0	39	0	890241024	40	5535
2026-01-19 17:52:03.98	14.13	17.69	-33.0	-33.6	26.2	0.00e+00	0	39	0	896532480	40	5487
2026-01-19 17:52:04.99	14.05	17.80	-33.1	-33.8	26.1	0.00e+00	0	39	0	901775360	40	5603
2026-01-19 17:52:06.00	13.97	17.92	-32.8	-33.5	26.4	0.00e+00	0	39	0	907018240	40	5402
2026-01-19 17:52:07.01	13.88	18.03	-32.9	-33.5	26.4	0.00e+00	0	39	0	913309696	38	6076
2026-01-19 17:52:08.02	13.80	18.14	-32.7	-33.3	26.5	0.00e+00	0	39	0	918552576	38	5963
2026-01-19 17:52:09.04	13.71	18.26	-32.7	-33.3	26.5	0.00e+00	0	39	0	924844032	38	5943
2026-01-19 17:52:10.04	13.63	18.37	-32.6	-33.3	26.6	0.00e+00	0	39	0	930086912	38	5900
2026-01-19 17:52:11.05	13.54	18.49	-32.7	-33.4	26.5	0.00e+00	0	39	0	936378368	38	5971
2026-01-19 17:52:12.06	13.45	18.60	-32.5	-33.2	26.7	0.00e+00	0	39	0	941621248	38	5831
2026-01-19 17:52:13.07	13.36	18.72	-32.5	-33.2	26.7	0.00e+00	0	39	0	947912704	38	5842
2026-01-19 17:52:14.08	13.27	18.84	-32.4	-33.0	26.8	0.00e+00	0	39	0	953155584	38	5745
2026-01-19 17:52:15.09	13.18	18.95	-32.5	-33.1	26.7	0.00e+00	0	39	0	958398464	38	5820
2026-01-19 17:52:16.10	13.09	19.07	-32.6	-33.2	26.6	0.00e+00	0	39	0	964689920	38	5881
2026-01-19 17:52:17.12	13.00	19.19	-32.6	-33.3	26.6	0.00e+00	0	39	0	969932800	38	5911
2026-01-19 17:52:18.13	12.91	19.31	-32.5	-33.1	26.7	0.00e+00	0	39	0	976224256	38	5804
2026-01-19 17:52:19.14	12.82	19.43	-32.5	-33.1	26.8	0.00e+00	0	39	0	981467136	38	5811
2026-01-19 17:52:20.15	12.72	19.55	-32.6	-33.3	26.5	0.00e+00	0	39	0	986710016	38	5904
2026-01-19 17:52:21.16	12.63	19.67	-32.6	-33.3	26.6	0.00e+00	0	39	0	993001472	38	5917
2026-01-19 17:52:22.17	12.53	19.79	-32.7	-33.3	26.6	0.00e+00	0	39	0	998244352	38	5944
2026-01-19 17:52:23.18	12.44	19.91	-32.6	-33.3	26.5	0.00e+00	0	39	0	1004535808	38	5928
2026-01-19 17:52:24.19	12.34	20.03	-32.5	-33.1	26.7	0.00e+00	0	39	0	1009778688	38	5828
2026-01-19 17:52:25.20	12.24	20.15	-32.5	-33.1	26.7	0.00e+00	0	39	0	1015021568	38	5818
2026-01-19 17:52:26.21	12.14	20.27	-32.5	-33.2	26.6	0.00e+00	0	39	0	1021313024	38	5856
2026-01-19 17:52:27.22	12.05	20.40	-32.2	-32.9	27.0	0.00e+00	0	39	0	1026555904	38	5650
2026-01-19 17:52:28.23	11.95	20.52	-32.3	-32.9	26.9	0.00e+00	0	39	0	1032847360	38	5650
2026-01-19 17:52:29.24	11.84	20.64	-32.1	-32.8	27.1	0.00e+00	0	39	0	1038090240	38	5568
2026-01-19 17:52:30.25	11.74	20.77	-32.0	-32.6	27.2	0.00e+00	0	39	0	1044381696	38	5488
2026-01-19 17:52:31.26	11.64	20.89	-31.9	-32.5	27.3	0.00e+00	0	39	0	1049624576	38	5416
2026-01-19 17:52:32.28	11.54	21.02	-31.9	-32.5	27.2	0.00e+00	0	39	0	1055916032	38	5405
2026-01-19 17:52:33.29	11.43	21.15	-32.0	-32.6	27.2	0.00e+00	0	39	0	1061158912	38	5488
2026-01-19 17:52:34.30	11.33	21.27	-32.0	-32.6	27.2	0.00e+00	0	39	0	1066401792	38	5490
2026-01-19 17:52:35.31	11.22	21.40	-32.2	-32.8	27.1	0.00e+00	0	39	0	1072693248	38	5605
2026-01-19 17:52:36.32	11.11	21.53	-32.4	-33.0	26.9	0.00e+00	0	40	0	1077936128	38	5723
2026-01-19 17:52:37.33	11.01	21.66	-32.2	-32.8	27.0	0.00e+00	0	40	0	1084227584	38	5591
2026-01-19 17:52:38.34	10.90	21.79	-32.4	-33.0	26.9	0.00e+00	0	39	0	1089470464	38	5721
2026-01-19 17:52:39.35	10.79	21.92	-32.2	-32.9	27.0	0.00e+00	0	39	0	1094713344	38	5655
2026-01-19 17:52:40.36	10.68	22.05	-32.2	-32.9	27.0	0.00e+00	0	39	0	1101004800	38	5637
2026-01-19 17:52:41.37	10.57	22.18	-32.2	-32.8	26.9	0.00e+00	0	39	0	1106247680	38	5630
2026-01-19 17:52:42.38	10.45	22.31	-32.2	-32.8	26.9	0.00e+00	0	39	0	1112539136	38	5588
2026-01-19 17:52:43.39	10.34	22.44	-32.1	-32.7	27.1	0.00e+00	0	39	0	1117782016	38	5540
2026-01-19 17:52:44.40	10.22	22.57	-32.0	-32.6	27.2	0.00e+00	0	39	0	1123024896	38	5459
2026-01-19 17:52:45.41	10.11	22.70	-32.2	-32.8	27.0	0.00e+00	0	39	0	1129316352	38	5595
2026-01-19 17:52:46.42	9.99	22.84	-31.9	-32.5	27.3	0.00e+00	0	39	0	1134559232	38	5419
2026-01-19 17:52:47.43	9.88	22.97	-31.8	-32.4	27.4	0.00e+00	0	39	0	1140850688	38	5357
2026-01-19 17:52:48.44	9.76	23.10	-31.7	-32.3	27.4	0.00e+00	0	39	0	1146093568	36	5914
2026-01-19 17:52:49.45	9.64	23.24	-31.5	-32.1	27.5	0.00e+00	0	39	0	1152385024	36	5819
2026-01-19 17:52:50.46	9.52	23.38	-31.6	-32.2	27.5	0.00e+00	0	39	0	1157627904	36	5852
2026-01-19 17:52:51.47	9.39	23.51	-31.7	-32.3	27.5	0.00e+00	0	39	0	1163919360	36	5900
2026-01-19 17:52:52.48	9.27	23.65	-31.6	-32.3	27.5	0.00e+00	0	39	0	1169162240	36	5911
2026-01-19 17:52:53.49	9.15	23.79	-31.6	-32.2	27.4	0.00e+00	0	39	0	1174405120	36	5890
2026-01-19 17:52:54.50	9.02	23.92	-31.7	-32.4	27.5	0.00e+00	0	39	0	1180696576	36	5968
2026-01-19 17:52:55.51	8.90	24.06	-31.7	-32.3	27.4	0.00e+00	0	39	0	1185939456	36	5941
2026-01-19 17:52:56.52	8.77	24.20	-31.8	-32.5	27.3	0.00e+00	0	39	0	1192230912	36	6038
2026-01-19 17:52:57.53	8.64	24.34	-31.7	-32.4	27.4	0.00e+00	0	39	0	1197473792	36	5982
2026-01-19 17:52:58.54	8.51	24.48	-31.8	-32.4	27.4	0.00e+00	0	39	0	1202716672	36	6032
2026-01-19 17:52:59.56	8.38	24.62	-31.5	-32.1	27.6	0.00e+00	0	39	0	1209008128	36	5806
2026-01-19 17:53:00.56	8.25	24.76	-31.5	-32.1	27.7	0.00e+00	0	39	0	1214251008	36	5818
2026-01-19 17:53:01.57	8.11	24.90	-31.3	-32.0	27.7	0.00e+00	0	39	0	1220542464	36	5708
2026-01-19 17:53:02.58	7.98	25.05	-31.2	-31.8	27.8	0.00e+00	0	39	0	1225785344	36	5608
2026-01-19 17:53:03.59	7.84	25.19	-31.2	-31.8	27.8	0.00e+00	0	39	0	1231028224	36	5598
2026-01-19 17:53:04.60	7.70	25.33	-31.4	-32.0	27.8	0.00e+00	0	39	0	1237319680	36	5732
2026-01-19 17:53:05.61	7.57	25.48	-31.3	-31.9	27.8	0.00e+00	0	39	0	1242562560	36	5657
2026-01-19 17:53:06.62	7.43	25.62	-31.3	-32.0	27.7	0.00e+00	0	39	0	1248854016	36	5704
2026-01-19 17:53:07.63	7.28	25.77	-31.3	-32.0	27.7	0.00e+00	0	39	0	1254096896	36	5705
2026-01-19 17:53:08.64	7.14	25.91	-31.4	-32.0	27.7	0.00e+00	0	39	0	1260388352	36	5718
2026-01-19 17:53:09.65	7.00	26.06	-31.4	-32.0	27.7	0.00e+00	0	39	0	1265631232	36	5728
2026-01-19 17:53:10.67	6.85	26.21	-31.4	-32.0	27.7	0.00e+00	0	39	0	1270874112	36	5737
2026-01-19 17:53:11.67	6.71	26.36	-31.4	-32.0	27.7	0.00e+00	0	39	0	1277165568	36	5749
2026-01-19 17:53:12.69	6.56	26.51	-31.3	-31.9	27.8	0.00e+00	0	39	0	1282408448	36	5681
2026-01-19 17:53:13.70	6.41	26.66	-31.4	-32.0	27.7	0.00e+00	0	39	0	1288699904	36	5751
2026-01-19 17:53:14.71	6.26	26.81	-31.2	-31.9	27.8	0.00e+00	0	40	0	1293942784	36	5637
2026-01-19 17:53:15.72	6.10	26.96	-31.2	-31.9	27.8	0.00e+00	0	40	0	1299185664	36	5634
2026-01-19 17:53:16.73	5.95	27.11	-31.2	-31.8	27.9	0.00e+00	0	39	0	1305477120	36	5593
2026-01-19 17:53:17.74	5.79	27.26	-31.0	-31.6	28.0	0.00e+00	0	39	0	1310720000	36	5483
2026-01-19 17:53:18.75	5.64	27.41	-31.0	-31.6	28.0	0.00e+00	0	39	0	1317011456	36	5471
2026-01-19 17:53:19.76	5.48	27.56	-31.0	-31.7	28.0	0.00e+00	0	39	0	1322254336	36	5506
2026-01-19 17:53:20.77	5.32	27.72	-31.2	-31.8	27.9	0.00e+00	0	39	0	1327497216	36	5608
2026-01-19 17:53:21.78	5.16	27.87	-31.3	-31.9	27.8	0.00e+00	0	40	0	1333788672	36	5656
2026-01-19 17:53:22.79	4.99	28.02	-31.5	-32.1	27.7	0.00e+00	0	39	0	1339031552	36	5768
2026-01-19 17:53:23.80	4.83	28.18	-31.4	-32.0	27.7	0.00e+00	0	39	0	1345323008	36	5728
2026-01-19 17:53:24.81	4.66	28.34	-31.4	-32.0	27.7	0.00e+00	0	39	0	1350565888	36	5729
2026-01-19 17:53:25.81	4.50	28.49	-31.4	-32.0	27.7	0.00e+00	0	39	0	1356857344	36	5739
2026-01-19 17:53:26.83	4.33	28.65	-31.3	-31.9	27.7	0.00e+00	0	39	0	1362100224	36	5686
2026-01-19 17:53:27.84	4.15	28.81	-31.3	-31.9	27.9	0.00e+00	0	40	0	1368391680	36	5644
2026-01-19 17:53:28.85	3.98	28.97	-31.3	-31.8	27.8	0.00e+00	0	39	0	1373634560	36	5627
2026-01-19 17:53:29.86	3.81	29.12	-31.0	-31.6	28.1	0.00e+00	0	39	0	1378877440	36	5480
2026-01-19 17:53:30.87	3.63	29.28	-31.1	-31.7	28.0	0.00e+00	0	39	0	1385168896	36	5522
2026-01-19 17:53:31.88	3.45	29.44	-31.0	-31.6	28.0	0.00e+00	0	39	0	1390411776	36	5458
2026-01-19 17:53:32.89	3.27	29.60	-31.1	-31.7	28.0	0.00e+00	0	39	0	1396703232	36	5551
2026-01-19 17:53:33.90	3.09	29.76	-31.1	-31.7	28.0	0.00e+00	0	39	0	1401946112	36	5539
2026-01-19 17:53:34.91	2.90	29.93	-31.3	-32.0	27.7	0.00e+00	0	39	0	1407188992	36	5701
2026-01-19 17:53:35.92	2.72	30.09	-31.2	-31.8	27.8	0.00e+00	0	39	0	1413480448	36	5594
2026-01-19 17:53:36.93	2.53	30.25	-31.2	-31.8	27.9	0.00e+00	0	39	0	1418723328	36	5627
2026-01-19 17:53:37.94	2.34	30.42	-31.4	-32.0	27.7	0.00e+00	0	39	0	1425014784	36	5697
2026-01-19 17:53:38.95	2.15	30.58	-31.5	-32.1	27.7	0.00e+00	0	39	0	1430257664	36	5781
2026-01-19 17:53:39.96	1.95	30.74	-31.2	-31.8	27.9	0.00e+00	0	39	0	1435500544	36	5588
2026-01-19 17:53:40.97	1.76	30.91	-31.3	-31.9	27.9	0.00e+00	0	39	0	1441792000	36	5656
2026-01-19 17:53:41.98	1.56	31.07	-31.1	-31.7	28.0	0.00e+00	0	40	0	1447034880	36	5525
2026-01-19 17:53:42.99	1.36	31.24	-31.2	-31.8	27.9	0.00e+00	0	40	0	1453326336	36	5598
2026-01-19 17:53:44.00	1.16	31.41	-31.0	-31.6	28.1	0.00e+00	0	40	0	1458569216	36	5464
2026-01-19 17:53:45.01	0.95	31.58	-30.9	-31.5	28.1	0.00e+00	0	39	0	1464860672	36	5399
2026-01-19 17:53:46.02	0.75	31.74	-30.7	-31.3	28.2	0.00e+00	0	39	0	1470103552	34	5939
2026-01-19 17:53:47.03	0.54	31.91	-30.9	-31.5	28.1	0.00e+00	0	39	0	1476395008	34	6052
2026-01-19 17:53:48.04	0.33	32.08	-31.0	-31.6	28.0	0.00e+00	0	39	0	1481637888	34	6116
2026-01-19 17:53:49.05	0.12	32.25	-31.1	-31.7	28.0	0.00e+00	0	40	0	1486880768	34	6183
2026-01-19 17:53:50.06	359.90	32.42	-30.9	-31.5	28.1	0.00e+00	0	39	0	1493172224	34	6045
2026-01-19 17:53:51.07	359.68	32.59	-30.8	-31.4	28.1	0.00e+00	0	40	0	1498415104	34	5989
2026-01-19 17:53:52.08	359.46	32.76	-30.9	-31.5	28.2	0.00e+00	0	40	0	1504706560	34	6064
2026-01-19 17:53:53.09	359.24	32.93	-30.9	-31.6	28.1	0.00e+00	0	39	0	1509949440	34	6126
2026-01-19 17:53:54.10	359.02	33.10	-30.8	-31.4	28.3	0.00e+00	0	40	0	1515192320	34	5997
2026-01-19 17:53:55.11	358.79	33.28	-30.8	-31.4	28.1	0.00e+00	0	39	0	1521483776	34	5994
2026-01-19 17:53:56.12	358.56	33.45	-30.7	-31.3	28.3	0.00e+00	0	39	0	1526726656	34	5906
2026-01-19 17:53:57.13	358.33	33.62	-30.9	-31.5	28.2	0.00e+00	0	39	0	1533018112	34	6071
2026-01-19 17:53:58.14	358.09	33.80	-30.8	-31.4	28.3	0.00e+00	0	40	0	1538260992	34	6004
2026-01-19 17:53:59.15	357.86	33.97	-30.6	-31.2	28.4	0.00e+00	0	39	0	1543503872	34	5839
2026-01-19 17:54:00.16	357.62	34.15	-30.8	-31.4	28.1	0.00e+00	0	39	0	1549795328	34	5973
2026-01-19 17:54:01.17	357.37	34.32	-30.8	-31.5	28.1	0.00e+00	0	39	0	1555038208	34	6035
2026-01-19 17:54:02.18	357.13	34.50	-31.0	-31.6	28.1	0.00e+00	0	40	0	1561329664	34	6164
2026-01-19 17:54:03.19	356.88	34.67	-31.0	-31.6	28.0	0.00e+00	0	40	0	1566572544	34	6115
2026-01-19 17:54:04.20	356.63	34.85	-31.0	-31.6	28.0	0.00e+00	0	39	0	1572864000	34	6138
2026-01-19 17:54:05.21	356.38	35.02	-31.2	-31.9	27.9	0.00e+00	0	39	0	1578106880	34	6318
2026-01-19 17:54:06.22	356.12	35.20	-31.1	-31.7	27.7	0.00e+00	0	39	0	1584398336	34	6230
2026-01-19 17:54:07.23	355.86	35.38	-31.2	-31.8	27.8	0.00e+00	0	39	0	1589641216	34	6276
2026-01-19 17:54:08.24	355.60	35.56	-31.3	-31.9	27.9	0.00e+00	0	39	0	1594884096	34	6374
2026-01-19 17:54:09.25	355.34	35.73	-31.2	-31.8	27.9	0.00e+00	0	40	0	1601175552	34	6264
2026-01-19 17:54:10.26	355.07	35.91	-31.1	-31.7	28.0	0.00e+00	0	40	0	1606418432	34	6206
2026-01-19 17:54:11.27	354.80	36.09	-30.9	-31.5	28.1	0.00e+00	0	40	0	1611661312	34	6085
2026-01-19 17:54:12.28	354.52	36.27	-30.8	-31.5	28.2	0.00e+00	0	39	0	1617952768	34	6034
2026-01-19 17:54:13.29	354.25	36.45	-30.8	-31.4	28.2	0.00e+00	0	39	0	1623195648	34	5982
2026-01-19 17:54:14.30	353.97	36.63	-30.6	-31.3	28.3	0.00e+00	0	40	0	1629487104	34	5904
2026-01-19 17:54:15.31	353.69	36.81	-30.8	-31.4	28.2	0.00e+00	0	40	0	1634729984	34	5965
2026-01-19 17:54:16.32	353.40	36.98	-30.8	-31.4	28.1	0.00e+00	0	40	0	1639972864	34	6016
2026-01-19 17:54:17.33	353.11	37.16	-31.0	-31.7	27.9	0.00e+00	0	40	0	1646264320	34	6180
2026-01-19 17:54:18.34	352.82	37.34	-31.0	-31.6	28.1	0.00e+00	0	39	0	1651507200	34	6157
2026-01-19 17:54:19.35	352.52	37.52	-31.1	-31.7	28.0	0.00e+00	0	39	0	1657798656	34	6243
2026-01-19 17:54:20.36	352.22	37.70	-31.0	-31.6	28.0	0.00e+00	0	39	0	1663041536	34	6141
2026-01-19 17:54:21.37	351.92	37.88	-30.7	-31.3	28.2	0.00e+00	0	39	0	1669332992	34	5944
2026-01-19 17:54:22.38	351.62	38.06	-30.7	-31.4	28.2	0.00e+00	0	39	0	1674575872	34	5976
2026-01-19 17:54:23.39	351.31	38.24	-30.8	-31.4	28.2	0.00e+00	0	40	0	1680867328	34	6005
2026-01-19 17:54:24.40	350.99	38.42	-30.9	-31.5	28.1	0.00e+00	0	39	0	1686110208	34	6055
2026-01-19 17:54:25.41	350.68	38.60	-30.8	-31.4	28.1	0.00e+00	0	40	0	1691353088	34	6010
2026-01-19 17:54:26.42	350.36	38.78	-30.9	-31.5	28.1	0.00e+00	0	39	0	1697644544	34	6041
2026-01-19 17:54:27.43	350.03	38.96	-30.7	-31.3	28.2	0.00e+00	0	39	0	1702887424	34	5931
2026-01-19 17:54:28.44	349.71	39.14	-30.7	-31.3	28.2	0.00e+00	0	39	0	1709178880	34	5959
2026-01-19 17:54:29.45	349.38	39.32	-30.8	-31.4	28.2	0.00e+00	0	40	0	1714421760	34	5967
2026-01-19 17:54:30.46	349.04	39.50	-30.8	-31.4	28.3	0.00e+00	0	39	0	1719664640	34	5976
2026-01-19 17:54:31.47	348.70	39.68	-30.9	-31.5	28.0	0.00e+00	0	40	0	1725956096	34	6093
2026-01-19 17:54:32.48	348.36	39.86	-31.3	-31.9	27.8	0.00e+00	0	39	0	1731198976	34	6344
2026-01-19 17:54:33.49	348.02	40.04	-31.4	-32.0	27.9	0.00e+00	0	39	0	1737490432	34	6419
2026-01-19 17:54:34.50	347.67	40.22	-31.3	-31.9	27.8	0.00e+00	0	39	0	1742733312	34	6324
2026-01-19 17:54:35.51	347.31	40.39	-31.0	-31.6	28.0	0.00e+00	0	39	0	1747976192	34	6165
2026-01-19 17:54:36.52	346.96	40.57	-31.2	-31.8	28.0	0.00e+00	0	40	0	1754267648	34	6299
2026-01-19 17:54:37.54	346.59	40.75	-31.0	-31.6	28.1	0.00e+00	0	39	0	1759510528	34	6131
2026-01-19 17:54:38.55	346.23	40.93	-30.9	-31.5	28.2	0.00e+00	0	39	0	1765801984	34	6095
2026-01-19 17:54:39.56	345.86	41.10	-30.8	-31.5	28.1	0.00e+00	0	40	0	1771044864	34	6059
2026-01-19 17:54:40.57	345.48	41.28	-30.8	-31.4	28.0	0.00e+00	0	39	0	1777336320	34	6004
2026-01-19 17:54:41.58	345.11	41.46	-30.9	-31.5	28.1	0.00e+00	0	39	0	1782579200	34	6100
2026-01-19 17:54:42.59	344.72	41.63	-31.1	-31.7	27.9	0.00e+00	0	40	0	1788870656	34	6200
2026-01-19 17:54:43.59	344.34	41.80	-31.1	-31.7	27.9	0.00e+00	0	39	0	1794113536	34	6217
2026-01-19 17:54:44.60	343.95	41.98	-31.2	-31.8	27.8	0.00e+00	0	39	0	1799356416	34	6276
2026-01-19 17:54:45.61	343.56	42.15	-31.1	-31.7	27.9	0.00e+00	0	39	0	1805647872	34	6236
2026-01-19 17:54:46.62	343.16	42.32	-30.8	-31.4	28.2	0.00e+00	0	39	0	1810890752	34	6004
2026-01-19 17:54:47.64	342.75	42.49	-30.4	-31.0	28.4	0.00e+00	0	39	0	1817182208	34	5719
2026-01-19 17:54:48.65	342.34	42.66	-30.4	-31.0	28.4	0.00e+00	0	40	0	1822425088	34	5751
2026-01-19 17:54:49.66	341.93	42.83	-30.6	-31.2	28.2	0.00e+00	0	39	0	1827667968	34	5880
2026-01-19 17:54:50.67	341.52	43.00	-30.9	-31.5	28.1	0.00e+00	0	39	0	1833959424	34	6079
2026-01-19 17:54:51.68	341.10	43.17	-31.1	-31.7	27.9	0.00e+00	0	39	0	1839202304	34	6222
2026-01-19 17:54:52.69	340.67	43.34	-31.1	-31.7	27.9	0.00e+00	0	39	0	1845493760	34	6245
2026-01-19 17:54:53.70	340.24	43.50	-31.4	-32.0	27.8	0.00e+00	0	39	0	1850736640	34	6436
2026-01-19 17:54:54.71	339.81	43.67	-31.1	-31.7	28.0	0.00e+00	0	39	0	1855979520	34	6213
2026-01-19 17:54:55.72	339.37	43.83	-31.2	-31.8	28.0	0.00e+00	0	40	0	1862270976	34	6295
2026-01-19 17:54:56.73	338.93	43.99	-31.5	-32.2	27.6	0.00e+00	0	40	0	1867513856	34	6543
2026-01-19 17:54:57.74	338.48	44.15	-31.4	-32.0	27.8	0.00e+00	0	39	0	1873805312	34	6415
2026-01-19 17:54:58.75	338.03	44.31	-31.2	-31.8	27.9	0.00e+00	0	39	0	1879048192	34	6289
2026-01-19 17:54:59.76	337.57	44.47	-30.8	-31.5	28.1	0.00e+00	0	39	0	1885339648	34	6052
2026-01-19 17:55:00.77	337.11	44.63	-30.8	-31.4	28.3	0.00e+00	0	40	0	1890582528	34	5987
2026-01-19 17:55:01.78	336.64	44.78	-31.0	-31.6	28.1	0.00e+00	0	39	0	1896873984	34	6165
2026-01-19 17:55:02.79	336.17	44.93	-31.2	-31.7	27.9	0.00e+00	0	40	0	1902116864	34	6244
2026-01-19 17:55:03.80	335.70	45.09	-31.2	-31.9	28.0	0.00e+00	0	40	0	1907359744	34	6336
2026-01-19 17:55:04.81	335.22	45.24	-31.1	-31.7	28.0	0.00e+00	0	40	0	1913651200	34	6216
2026-01-19 17:55:05.82	334.73	45.39	-30.9	-31.5	28.3	0.00e+00	0	40	0	1918894080	34	6073
2026-01-19 17:55:06.83	334.24	45.53	-31.0	-31.7	28.1	0.00e+00	0	39	0	1925185536	34	6175
2026-01-19 17:55:07.84	333.75	45.68	-31.2	-31.9	28.0	0.00e+00	0	39	0	1930428416	34	6331
2026-01-19 17:55:08.85	333.25	45.82	-31.4	-32.0	27.9	0.00e+00	0	39	0	1935671296	34	6418
2026-01-19 17:55:09.86	332.75	45.96	-31.3	-31.9	28.0	0.00e+00	0	40	0	1941962752	34	6367
2026-01-19 17:55:10.87	332.24	46.10	-31.1	-31.7	28.1	0.00e+00	0	40	0	1947205632	34	6176
2026-01-19 17:55:11.88	331.73	46.24	-31.4	-32.0	28.0	0.00e+00	0	39	0	1953497088	34	6447
2026-01-19 17:55:12.89	331.22	46.37	-31.9	-32.5	27.8	0.00e+00	0	39	0	1958739968	36	6087
2026-01-19 17:55:13.90	330.70	46.51	-32.0	-32.6	27.7	0.00e+00	0	39	0	1963982848	36	6163
2026-01-19 17:55:14.90	330.18	46.64	-32.1	-32.7	27.5	0.00e+00	0	39	0	1970274304	36	6212
2026-01-19 17:55:15.92	329.64	46.77	-31.9	-32.6	27.6	0.00e+00	0	39	0	1975517184	36	6109
2026-01-19 17:55:16.93	329.11	46.89	-32.0	-32.6	27.7	0.00e+00	0	39	0	1981808640	36	6153
2026-01-19 17:55:17.94	328.57	47.02	-31.6	-32.2	27.8	0.00e+00	0	40	0	1987051520	36	5836
2026-01-19 17:55:18.95	328.03	47.14	-32.0	-32.7	27.5	0.00e+00	0	39	0	1993342976	36	6189
2026-01-19 17:55:19.96	327.48	47.26	-32.3	-33.0	27.2	0.00e+00	0	39	0	1998585856	36	6427
2026-01-19 17:55:20.97	326.93	47.37	-32.3	-32.9	27.3	0.00e+00	0	39	0	2003828736	36	6358
2026-01-19 17:55:21.98	326.38	47.49	-32.2	-32.8	27.3	0.00e+00	0	40	0	2010120192	36	6287
2026-01-19 17:55:22.99	325.82	47.60	-32.2	-32.9	27.3	0.00e+00	0	39	0	2015363072	36	6336
2026-01-19 17:55:24.00	325.26	47.71	-32.1	-32.8	27.3	0.00e+00	0	40	0	2021654528	36	6254
2026-01-19 17:55:25.01	324.69	47.81	-32.3	-32.9	27.2	0.00e+00	0	39	0	2026897408	36	6373
2026-01-19 17:55:26.02	324.12	47.92	-32.5	-33.2	27.3	0.00e+00	0	39	0	2032140288	36	6548
2026-01-19 17:55:27.03	323.54	48.02	-32.2	-32.8	27.6	0.00e+00	0	40	0	2038431744	36	6252
2026-01-19 17:55:28.04	322.97	48.11	-32.0	-32.6	27.6	0.00e+00	0	40	0	2043674624	36	6172
2026-01-19 17:55:29.05	322.39	48.21	-32.3	-33.0	27.4	0.00e+00	0	39	0	2049966080	36	6400
2026-01-19 17:55:30.06	321.80	48.30	-32.2	-32.8	27.4	0.00e+00	0	39	0	2055208960	36	6317
2026-01-19 17:55:31.07	321.21	48.39	-32.3	-32.9	27.2	0.00e+00	0	40	0	2060451840	36	6375
2026-01-19 17:55:32.08	320.62	48.47	-32.3	-33.0	27.2	0.00e+00	0	39	0	2066743296	36	6425
2026-01-19 17:55:33.09	320.03	48.55	-32.5	-33.2	27.1	0.00e+00	0	39	0	2071986176	36	6590
2026-01-19 17:55:34.10	319.43	48.63	-32.6	-33.3	27.2	0.00e+00	0	40	0	2078277632	36	6627
2026-01-19 17:55:35.11	318.83	48.71	-32.3	-33.0	27.2	0.00e+00	0	39	0	2083520512	36	6394
2026-01-19 17:55:36.12	318.22	48.78	-32.3	-32.9	27.3	0.00e+00	0	39	0	2089811968	36	6359
2026-01-19 17:55:37.13	317.61	48.85	-32.2	-32.8	27.3	0.00e+00	0	40	0	2095054848	36	6307
2026-01-19 17:55:38.14	317.01	48.91	-32.2	-32.8	27.3	0.00e+00	0	39	0	2101346304	36	6303
2026-01-19 17:55:39.15	316.39	48.97	-32.0	-32.7	27.3	0.00e+00	0	40	0	2106589184	36	6180
2026-01-19 17:55:40.16	315.78	49.03	-32.0	-32.6	27.6	0.00e+00	0	40	0	2111832064	36	6170
2026-01-19 17:55:41.17	315.16	49.09	-31.8	-32.4	27.7	0.00e+00	0	40	0	2118123520	36	6029
2026-01-19 17:55:42.18	314.54	49.14	-31.8	-32.4	27.6	0.00e+00	0	40	0	2123366400	36	6032
2026-01-19 17:55:43.19	313.92	49.19	-31.9	-32.6	27.6	0.00e+00	0	39	0	2129657856	36	6105
2026-01-19 17:55:44.20	313.30	49.23	-31.8	-32.4	27.7	0.00e+00	0	40	0	2134900736	36	6011
2026-01-19 17:55:45.21	312.67	49.27	-31.9	-32.5	27.7	0.00e+00	0	40	0	2140143616	36	6070
2026-01-19 17:55:46.22	312.05	49.31	-32.1	-32.7	27.5	0.00e+00	0	40	0	2146435072	36	6236
2026-01-19 17:55:47.23	311.42	49.34	-32.3	-32.9	27.3	0.00e+00	0	39	0	2151677952	36	6356
2026-01-19 17:55:48.25	310.79	49.37	-32.2	-32.9	27.4	0.00e+00	0	40	0	2157969408	36	6352
2026-01-19 17:55:49.26	310.16	49.40	-32.0	-32.7	27.6	0.00e+00	0	40	0	2163212288	36	6187
2026-01-19 17:55:50.27	309.52	49.42	-32.0	-32.6	27.3	0.00e+00	0	39	0	2168455168	36	6153
2026-01-19 17:55:51.28	308.89	49.44	-33.1	-33.7	27.2	0.00e+00	0	39	0	2174746624	38	6230
2026-01-19 17:55:52.29	308.26	49.45	-32.8	-33.4	27.2	0.00e+00	0	40	0	2179989504	38	5972
2026-01-19 17:55:53.30	307.63	49.46	-32.3	-33.0	27.4	0.00e+00	0	40	0	2186280960	38	5728
2026-01-19 17:55:54.31	306.99	49.47	-32.6	-33.1	27.6	0.00e+00	0	40	0	2191523840	38	5807
2026-01-19 17:55:55.32	306.36	49.47	-32.1	-32.7	27.6	0.00e+00	0	40	0	2197815296	38	5525
2026-01-19 17:55:56.33	305.72	49.47	-32.3	-33.0	27.3	0.00e+00	0	40	0	2203058176	38	5705
2026-01-19 17:55:57.34	305.09	49.47	-31.8	-32.5	27.6	0.00e+00	0	40	0	2209349632	38	5415
2026-01-19 17:55:58.35	304.46	49.46	-31.7	-32.3	27.8	0.00e+00	0	40	0	2214592512	36	5935
2026-01-19 17:55:59.36	303.82	49.45	-31.7	-32.3	27.9	0.00e+00	0	40	0	2219835392	36	5957
2026-01-19 17:56:00.37	303.19	49.44	-32.1	-32.6	27.6	0.00e+00	0	40	0	2226126848	36	6158
2026-01-19 17:56:01.38	302.56	49.42	-32.2	-32.8	27.4	0.00e+00	0	39	0	2231369728	36	6312
2026-01-19 17:56:02.39	301.93	49.39	-32.5	-33.2	27.4	0.00e+00	0	39	0	2237661184	36	6543
2026-01-19 17:56:03.40	301.30	49.37	-32.3	-33.0	27.4	0.00e+00	0	40	0	2242904064	36	6392
2026-01-19 17:56:04.41	300.67	49.34	-32.2	-32.8	27.4	0.00e+00	0	40	0	2248146944	36	6296
2026-01-19 17:56:05.42	300.04	49.30	-32.1	-32.7	27.4	0.00e+00	0	40	0	2254438400	36	6191
2026-01-19 17:56:06.43	299.41	49.27	-31.9	-32.5	27.6	0.00e+00	0	40	0	2259681280	36	6088
2026-01-19 17:56:07.45	298.78	49.22	-32.4	-33.0	27.3	0.00e+00	0	40	0	2265972736	36	6412
2026-01-19 17:56:08.45	298.17	49.18	-32.5	-33.1	27.3	0.00e+00	0	40	0	2271215616	36	6534
2026-01-19 17:56:09.46	297.55	49.13	-32.6	-33.3	27.4	0.00e+00	0	40	0	2276458496	36	6616
2026-01-19 17:56:10.47	296.93	49.08	-32.0	-32.6	27.6	0.00e+00	0	40	0	2282749952	36	6139
2026-01-19 17:56:11.48	296.31	49.02	-32.6	-33.1	27.8	0.00e+00	0	40	0	2287992832	36	6514
2026-01-19 17:56:12.49	295.69	48.97	-32.8	-33.4	27.8	0.00e+00	0	39	0	2294284288	38	5966
2026-01-19 17:56:13.50	295.08	48.90	-32.6	-33.2	27.8	0.00e+00	0	40	0	2299527168	38	5888
2026-01-19 17:56:14.51	294.47	48.84	-32.3	-32.9	27.5	0.00e+00	0	40	0	2305818624	38	5695
2026-01-19 17:56:15.51	293.87	48.77	-32.7	-33.4	27.6	0.00e+00	0	40	0	2311061504	38	5983
2026-01-19 17:56:16.52	293.27	48.70	-32.4	-33.0	27.4	0.00e+00	0	40	0	2317352960	38	5703
2026-01-19 17:56:17.54	292.66	48.62	-32.2	-32.8	27.5	0.00e+00	0	40	0	2322595840	38	5622
2026-01-19 17:56:18.55	292.06	48.54	-32.1	-32.6	27.6	0.00e+00	0	39	0	2327838720	38	5496
2026-01-19 17:56:19.56	291.47	48.46	-32.2	-32.8	27.7	0.00e+00	0	40	0	2334130176	38	5624
2026-01-19 17:56:20.57	290.88	48.37	-31.9	-32.5	27.6	0.00e+00	0	40	0	2339373056	38	5413
2026-01-19 17:56:21.58	290.29	48.28	-31.9	-32.6	27.5	0.00e+00	0	39	0	2345664512	38	5468
2026-01-19 17:56:22.59	289.70	48.19	-31.7	-32.3	27.7	0.00e+00	0	40	0	2350907392	36	5964
2026-01-19 17:56:23.60	289.12	48.10	-31.4	-32.0	27.9	0.00e+00	0	39	0	2356150272	36	5748
2026-01-19 17:56:24.61	288.54	48.00	-31.1	-31.6	28.1	0.00e+00	0	40	0	2362441728	36	5490
2026-01-19 17:56:25.62	287.97	47.90	-31.2	-31.7	28.0	0.00e+00	0	40	0	2367684608	36	5566
2026-01-19 17:56:26.63	287.40	47.80	-31.3	-31.9	28.0	0.00e+00	0	39	0	2373976064	36	5683
2026-01-19 17:56:27.64	286.83	47.69	-31.4	-32.1	27.8	0.00e+00	0	40	0	2379218944	36	5798
2026-01-19 17:56:28.65	286.27	47.58	-31.4	-32.1	27.9	0.00e+00	0	39	0	2384461824	36	5778
2026-01-19 17:56:29.66	285.71	47.47	-31.4	-32.1	27.9	0.00e+00	0	40	0	2390753280	36	5762
2026-01-19 17:56:30.67	285.15	47.36	-31.7	-32.4	27.7	0.00e+00	0	40	0	2395996160	36	6000
2026-01-19 17:56:31.68	284.60	47.24	-31.9	-32.6	27.7	0.00e+00	0	40	0	2402287616	36	6158
2026-01-19 17:56:32.69	284.06	47.12	-31.8	-32.4	27.8	0.00e+00	0	40	0	2407530496	36	6019
2026-01-19 17:56:33.70	283.51	47.00	-31.7	-32.3	27.9	0.00e+00	0	40	0	2413821952	36	5902
2026-01-19 17:56:34.71	282.98	46.87	-31.8	-32.5	27.6	0.00e+00	0	40	0	2419064832	36	6068
2026-01-19 17:56:35.72	282.44	46.74	-31.7	-32.4	27.9	0.00e+00	0	40	0	2425356288	36	6008
2026-01-19 17:56:36.73	281.91	46.62	-32.1	-32.8	27.9	0.00e+00	0	40	0	2430599168	36	6264
2026-01-19 17:56:37.74	281.39	46.48	-31.7	-32.3	28.0	0.00e+00	0	39	0	2435842048	36	5915
2026-01-19 17:56:38.75	280.87	46.35	-31.4	-31.9	28.1	0.00e+00	0	40	0	2442133504	36	5684
2026-01-19 17:56:39.76	280.35	46.21	-31.3	-32.0	28.2	0.00e+00	0	40	0	2447376384	36	5717
2026-01-19 17:56:40.77	279.84	46.08	-31.6	-32.2	28.1	0.00e+00	0	40	0	2453667840	36	5831
2026-01-19 17:56:41.78	279.33	45.94	-31.3	-31.9	28.0	0.00e+00	0	39	0	2458910720	36	5655
2026-01-19 17:56:42.79	278.83	45.80	-31.2	-31.9	28.1	0.00e+00	0	40	0	2464153600	36	5647
2026-01-19 17:56:43.81	278.33	45.65	-31.5	-32.1	28.2	0.00e+00	0	40	0	2470445056	36	5816
2026-01-19 17:56:44.81	277.84	45.51	-31.5	-32.0	28.2	0.00e+00	0	40	0	2475687936	36	5753
2026-01-19 17:56:45.83	277.35	45.36	-31.2	-31.8	28.4	0.00e+00	0	40	0	2481979392	36	5586
2026-01-19 17:56:46.84	276.86	45.21	-30.9	-31.5	28.3	0.00e+00	0	40	0	2487222272	36	5439
2026-01-19 17:56:47.85	276.38	45.06	-31.4	-31.9	28.2	0.00e+00	0	40	0	2492465152	36	5687
2026-01-19 17:56:48.86	275.91	44.90	-31.2	-31.7	28.4	0.00e+00	0	40	0	2498756608	36	5550
2026-01-19 17:56:49.87	275.44	44.75	-31.1	-31.8	28.4	0.00e+00	0	40	0	2503999488	36	5570
2026-01-19 17:56:50.88	274.97	44.59	-31.2	-31.7	28.4	0.00e+00	0	39	0	2510290944	36	5564
2026-01-19 17:56:51.89	274.51	44.44	-31.3	-31.8	28.4	0.00e+00	0	40	0	2515533824	36	5614
2026-01-19 17:56:52.90	274.05	44.28	-31.1	-31.6	28.3	0.00e+00	0	40	0	2521825280	36	5474
2026-01-19 17:56:53.91	273.60	44.12	-31.3	-31.9	28.4	0.00e+00	0	40	0	2527068160	36	5693
2026-01-19 17:56:54.92	273.15	43.96	-31.4	-32.0	28.3	0.00e+00	0	40	0	2532311040	36	5697
2026-01-19 17:56:55.93	272.71	43.79	-31.7	-32.2	28.3	0.00e+00	0	39	0	2538602496	36	5876
2026-01-19 17:56:56.94	272.27	43.63	-31.4	-32.0	28.4	0.00e+00	0	39	0	2543845376	36	5745
2026-01-19 17:56:57.95	271.84	43.47	-31.4	-32.1	28.3	0.00e+00	0	40	0	2550136832	36	5762
2026-01-19 17:56:58.96	271.41	43.30	-31.2	-31.8	28.3	0.00e+00	0	40	0	2555379712	36	5581
2026-01-19 17:56:59.97	270.98	43.13	-31.0	-31.5	28.4	0.00e+00	0	39	0	2560622592	36	5414
2026-01-19 17:57:00.98	270.56	42.96	-30.8	-31.4	28.4	0.00e+00	0	40	0	2566914048	36	5319
2026-01-19 17:57:01.99	270.14	42.79	-30.7	-31.2	28.5	0.00e+00	0	40	0	2572156928	34	5891
2026-01-19 17:57:03.00	269.73	42.62	-30.9	-31.4	28.5	0.00e+00	0	40	0	2578448384	34	5997
2026-01-19 17:57:04.01	269.32	42.45	-31.0	-31.6	28.3	0.00e+00	0	40	0	2583691264	34	6121
2026-01-19 17:57:05.02	268.92	42.28	-30.9	-31.5	28.5	0.00e+00	0	40	0	2588934144	34	6096
2026-01-19 17:57:06.03	268.52	42.11	-30.9	-31.5	28.3	0.00e+00	0	40	0	2595225600	34	6082
2026-01-19 17:57:07.04	268.13	41.94	-30.8	-31.5	28.3	0.00e+00	0	39	0	2600468480	34	6036
2026-01-19 17:57:08.05	267.74	41.76	-30.8	-31.5	28.4	0.00e+00	0	40	0	2606759936	34	6059
2026-01-19 17:57:09.06	267.35	41.59	-31.1	-31.6	28.3	0.00e+00	0	39	0	2612002816	34	6121
2026-01-19 17:57:10.07	266.97	41.41	-31.2	-31.9	28.0	0.00e+00	0	39	0	2618294272	34	6370
2026-01-19 17:57:11.08	266.59	41.24	-31.3	-31.9	28.0	0.00e+00	0	40	0	2623537152	34	6333
2026-01-19 17:57:12.09	266.22	41.06	-31.1	-31.7	28.2	0.00e+00	0	40	0	2629828608	34	6208
2026-01-19 17:57:13.10	265.85	40.88	-30.9	-31.5	28.2	0.00e+00	0	40	0	2635071488	34	6086
2026-01-19 17:57:14.11	265.48	40.70	-31.0	-31.6	28.2	0.00e+00	0	40	0	2640314368	34	6161
2026-01-19 17:57:15.12	265.12	40.53	-31.1	-31.7	28.2	0.00e+00	0	40	0	2646605824	34	6183
2026-01-19 17:57:16.13	264.76	40.35	-31.1	-31.7	28.1	0.00e+00	0	40	0	2651848704	34	6192
2026-01-19 17:57:17.14	264.41	40.17	-31.1	-31.8	28.2	0.00e+00	0	40	0	2658140160	34	6286
2026-01-19 17:57:18.15	264.06	39.99	-31.1	-31.8	28.1	0.00e+00	0	40	0	2663383040	34	6287
2026-01-19 17:57:19.16	263.71	39.81	-31.2	-31.7	28.1	0.00e+00	0	39	0	2668625920	34	6226
2026-01-19 17:57:20.17	263.37	39.63	-31.3	-32.0	28.0	0.00e+00	0	40	0	2674917376	34	6393
2026-01-19 17:57:21.18	263.03	39.45	-31.1	-31.7	28.1	0.00e+00	0	40	0	2680160256	34	6204
2026-01-19 17:57:22.19	262.70	39.27	-31.1	-31.6	28.0	0.00e+00	0	40	0	2686451712	34	6142
2026-01-19 17:57:23.21	262.36	39.09	-31.2	-31.8	28.0	0.00e+00	0	40	0	2691694592	34	6259
2026-01-19 17:57:24.22	262.04	38.91	-31.2	-31.7	28.0	0.00e+00	0	40	0	2696937472	34	6206
2026-01-19 17:57:25.23	261.71	38.73	-31.0	-31.5	28.2	0.00e+00	0	40	0	2703228928	34	6087
2026-01-19 17:57:26.23	261.40	38.55	-31.0	-31.5	28.0	0.00e+00	0	40	0	2708471808	34	6101
2026-01-19 17:57:27.25	261.08	38.37	-30.8	-31.5	27.9	0.00e+00	0	40	0	2714763264	34	6043
2026-01-19 17:57:28.25	260.77	38.19	-30.7	-31.3	27.8	0.00e+00	0	40	0	2720006144	34	5915
2026-01-19 17:57:29.26	260.46	38.01	-30.6	-31.1	28.1	0.00e+00	0	39	0	2726297600	34	5792
2026-01-19 17:57:30.27	260.15	37.83	-30.6	-31.3	28.1	0.00e+00	0	39	0	2731540480	34	5932
2026-01-19 17:57:31.28	259.85	37.65	-30.7	-31.3	28.2	0.00e+00	0	40	0	2737831936	34	5899
2026-01-19 17:57:32.29	259.55	37.47	-30.7	-31.3	28.4	0.00e+00	0	40	0	2743074816	34	5941
2026-01-19 17:57:33.30	259.25	37.29	-30.4	-30.9	28.5	0.00e+00	0	40	0	2748317696	34	5683
2026-01-19 17:57:34.31	258.96	37.11	-30.5	-31.1	28.4	0.00e+00	0	40	0	2754609152	34	5812
2026-01-19 17:57:35.32	258.67	36.93	-30.4	-31.0	28.6	0.00e+00	0	40	0	2759852032	34	5721
2026-01-19 17:57:36.33	258.39	36.75	-30.4	-30.9	28.5	0.00e+00	0	40	0	2766143488	34	5655
2026-01-19 17:57:37.34	258.10	36.57	-30.5	-31.0	28.5	0.00e+00	0	40	0	2771386368	34	5761
2026-01-19 17:57:38.35	257.82	36.39	-30.6	-31.3	28.3	0.00e+00	0	40	0	2776629248	34	5917
2026-01-19 17:57:39.36	257.55	36.21	-30.7	-31.2	28.3	0.00e+00	0	40	0	2782920704	34	5893
2026-01-19 17:57:40.37	257.27	36.03	-30.7	-31.2	28.5	0.00e+00	0	40	0	2788163584	34	5864
2026-01-19 17:57:41.38	257.00	35.85	-30.6	-31.1	28.5	0.00e+00	0	40	0	2794455040	34	5784
2026-01-19 17:57:42.39	256.73	35.67	-30.6	-31.1	28.4	0.00e+00	0	40	0	2799697920	34	5784
2026-01-19 17:57:43.40	256.47	35.49	-30.4	-31.0	28.5	0.00e+00	0	40	0	2804940800	34	5723
2026-01-19 17:57:44.40	256.21	35.32	-30.5	-31.1	28.5	0.00e+00	0	40	0	2811232256	34	5795
2026-01-19 17:57:45.41	255.95	35.14	-30.4	-31.1	28.4	0.00e+00	0	39	0	2816475136	34	5809
2026-01-19 17:57:46.42	255.69	34.96	-30.5	-31.1	28.5	0.00e+00	0	39	0	2822766592	34	5817
2026-01-19 17:57:47.43	255.44	34.79	-30.4	-30.9	28.5	0.00e+00	0	39	0	2828009472	34	5689
2026-01-19 17:57:48.44	255.19	34.61	-30.4	-31.0	28.5	0.00e+00	0	40	0	2834300928	34	5697
2026-01-19 17:57:49.45	254.94	34.43	-30.4	-30.9	28.5	0.00e+00	0	39	0	2839543808	34	5680
2026-01-19 17:57:50.46	254.70	34.26	-30.4	-31.0	28.5	0.00e+00	0	40	0	2844786688	34	5704
2026-01-19 17:57:51.47	254.45	34.08	-30.4	-30.9	28.4	0.00e+00	0	39	0	2851078144	34	5661
2026-01-19 17:57:52.48	254.21	33.91	-30.4	-31.1	28.5	0.00e+00	0	40	0	2856321024	34	5792
2026-01-19 17:57:53.50	253.97	33.73	-30.5	-31.0	28.4	0.00e+00	0	40	0	2862612480	34	5720
2026-01-19 17:57:54.51	253.74	33.56	-30.6	-31.1	28.5	0.00e+00	0	40	0	2867855360	34	5825
2026-01-19 17:57:55.51	253.51	33.38	-30.6	-31.1	28.4	0.00e+00	0	39	0	2873098240	34	5772
2026-01-19 17:57:56.52	253.28	33.21	-30.7	-31.4	28.3	0.00e+00	0	39	0	2879389696	34	6003
2026-01-19 17:57:57.53	253.05	33.04	-30.8	-31.4	28.2	0.00e+00	0	40	0	2884632576	34	6027
2026-01-19 17:57:58.54	252.83	32.86	-30.9	-31.6	28.1	0.00e+00	0	40	0	2890924032	34	6151
2026-01-19 17:57:59.55	252.60	32.69	-30.9	-31.6	28.1	0.00e+00	0	40	0	2896166912	34	6139
2026-01-19 17:58:00.56	252.38	32.52	-30.8	-31.4	28.2	0.00e+00	0	40	0	2901409792	34	5991
2026-01-19 17:58:01.57	252.17	32.35	-30.7	-31.3	28.3	0.00e+00	0	40	0	2907701248	34	5902
2026-01-19 17:58:02.57	251.95	32.18	-30.8	-31.3	28.2	0.00e+00	0	40	0	2912944128	34	5912
2026-01-19 17:58:03.59	251.74	32.01	-30.9	-31.6	28.1	0.00e+00	0	40	0	2919235584	34	6124
2026-01-19 17:58:04.60	251.53	31.84	-30.9	-31.6	28.0	0.00e+00	0	39	0	2924478464	34	6104
2026-01-19 17:58:05.61	251.32	31.67	-31.0	-31.5	27.9	0.00e+00	0	40	0	2930769920	34	6096
2026-01-19 17:58:06.62	251.11	31.50	-31.1	-31.6	27.8	0.00e+00	0	39	0	2936012800	34	6162
2026-01-19 17:58:07.63	250.91	31.33	-31.1	-31.7	27.8	0.00e+00	0	39	0	2942304256	34	6175
2026-01-19 17:58:08.64	250.70	31.17	-31.1	-31.7	27.8	0.00e+00	0	39	0	2947547136	34	6204
2026-01-19 17:58:09.65	250.50	31.00	-31.1	-31.6	27.8	0.00e+00	0	39	0	2952790016	34	6147
2026-01-19 17:58:10.65	250.31	30.84	-31.1	-31.6	27.7	0.00e+00	0	39	0	2959081472	34	6165
2026-01-19 17:58:11.66	250.11	30.67	-31.1	-31.8	27.7	0.00e+00	0	39	0	2964324352	34	6285
2026-01-19 17:58:12.67	249.92	30.51	-31.2	-31.7	27.7	0.00e+00	0	39	0	2970615808	34	6222
2026-01-19 17:58:13.68	249.73	30.34	-31.3	-32.0	27.6	0.00e+00	0	40	0	2975858688	34	6439
2026-01-19 17:58:14.69	249.54	30.18	-31.3	-31.9	27.7	0.00e+00	0	40	0	2981101568	34	6389
2026-01-19 17:58:15.70	249.35	30.01	-31.3	-31.8	27.7	0.00e+00	0	39	0	2987393024	34	6288
2026-01-19 17:58:16.71	249.16	29.85	-31.1	-31.7	27.8	0.00e+00	0	39	0	2992635904	34	6179
2026-01-19 17:58:17.72	248.98	29.69	-31.1	-31.6	27.7	0.00e+00	0	40	0	2997878784	34	6164
2026-01-19 17:58:18.73	248.79	29.53	-31.2	-31.7	27.7	0.00e+00	0	39	0	3004170240	34	6218
2026-01-19 17:58:19.74	248.61	29.37	-31.1	-31.7	27.7	0.00e+00	0	40	0	3009413120	34	6197
2026-01-19 17:58:20.75	248.43	29.21	-31.2	-31.8	27.6	0.00e+00	0	40	0	3015704576	34	6264
2026-01-19 17:58:21.76	248.26	29.05	-31.4	-32.1	27.5	0.00e+00	0	40	0	3020947456	34	6491
2026-01-19 17:58:22.77	248.08	28.89	-31.5	-32.1	27.5	0.00e+00	0	39	0	3027238912	34	6484
2026-01-19 17:58:23.78	247.91	28.73	-31.2	-31.7	27.7	0.00e+00	0	39	0	3032481792	34	6243
2026-01-19 17:58:24.79	247.74	28.57	-31.2	-31.9	27.7	0.00e+00	0	39	0	3038773248	34	6363
2026-01-19 17:58:25.80	247.57	28.41	-31.2	-31.9	27.8	0.00e+00	0	39	0	3044016128	34	6360
2026-01-19 17:58:26.81	247.40	28.26	-31.1	-31.6	27.8	0.00e+00	0	40	0	3049259008	34	6161
2026-01-19 17:58:27.83	247.23	28.10	-31.1	-31.6	27.8	0.00e+00	0	39	0	3055550464	34	6170
2026-01-19 17:58:28.83	247.07	27.94	-31.3	-31.8	27.7	0.00e+00	0	40	0	3060793344	34	6288
2026-01-19 17:58:29.85	246.90	27.79	-31.3	-31.8	27.6	0.00e+00	0	40	0	3067084800	34	6284
2026-01-19 17:58:30.85	246.74	27.63	-31.5	-32.2	27.6	0.00e+00	0	40	0	3072327680	34	6568
2026-01-19 17:58:31.86	246.58	27.48	-31.4	-32.1	27.6	0.00e+00	0	40	0	3077570560	34	6469
2026-01-19 17:58:32.87	246.42	27.33	-31.6	-32.3	27.4	0.00e+00	0	40	0	3083862016	34	6647
2026-01-19 17:58:33.89	246.26	27.17	-31.5	-32.0	27.5	0.00e+00	0	40	0	3089104896	34	6452
2026-01-19 17:58:34.90	246.11	27.02	-31.5	-32.1	27.5	0.00e+00	0	40	0	3095396352	34	6495
2026-01-19 17:58:35.90	245.95	26.87	-31.5	-32.2	27.4	0.00e+00	0	40	0	3100639232	34	6574
2026-01-19 17:58:36.91	245.80	26.72	-31.5	-32.2	27.4	0.00e+00	0	39	0	3105882112	34	6587
2026-01-19 17:58:37.91	245.65	26.57	-31.5	-32.2	27.4	0.00e+00	0	40	0	3112173568	34	6557
2026-01-19 17:58:38.92	245.50	26.42	-31.5	-32.2	27.5	0.00e+00	0	39	0	3117416448	34	6569
2026-01-19 17:58:39.93	245.35	26.27	-31.3	-31.8	27.5	0.00e+00	0	39	0	3123707904	34	6300
2026-01-19 17:58:40.94	245.21	26.13	-31.4	-31.9	27.6	0.00e+00	0	40	0	3128950784	34	6378
2026-01-19 17:58:41.95	245.06	25.98	-31.3	-31.9	27.5	0.00e+00	0	39	0	3135242240	34	6327
2026-01-19 17:58:42.96	244.92	25.83	-31.4	-31.9	27.5	0.00e+00	0	40	0	3140485120	34	6367
2026-01-19 17:58:43.97	244.77	25.68	-31.3	-31.8	27.7	0.00e+00	0	39	0	3146776576	34	6281
2026-01-19 17:58:44.98	244.63	25.54	-31.3	-31.9	27.6	0.00e+00	0	40	0	3152019456	34	6344
2026-01-19 17:58:45.99	244.49	25.39	-31.3	-31.9	27.5	0.00e+00	0	40	0	3157262336	34	6342
2026-01-19 17:58:47.00	244.35	25.25	-31.3	-31.9	27.6	0.00e+00	0	40	0	3163553792	34	6337
2026-01-19 17:58:48.01	244.21	25.10	-31.3	-31.9	27.6	0.00e+00	0	40	0	3168796672	34	6326
2026-01-19 17:58:49.02	244.08	24.96	-31.2	-31.9	27.6	0.00e+00	0	39	0	3175088128	34	6345
2026-01-19 17:58:50.03	243.94	24.82	-31.3	-32.0	27.4	0.00e+00	0	40	0	3180331008	34	6436
2026-01-19 17:58:51.04	243.81	24.68	-31.2	-31.7	27.7	0.00e+00	0	40	0	3185573888	34	6244
2026-01-19 17:58:52.05	243.68	24.53	-31.2	-31.9	27.6	0.00e+00	0	40	0	3191865344	34	6348
2026-01-19 17:58:53.06	243.54	24.39	-31.4	-32.0	27.6	0.00e+00	0	40	0	3197108224	34	6451
2026-01-19 17:58:54.07	243.41	24.25	-31.5	-32.2	27.4	0.00e+00	0	40	0	3203399680	34	6601
2026-01-19 17:58:55.09	243.28	24.11	-31.5	-32.2	27.4	0.00e+00	0	40	0	3208642560	34	6549
2026-01-19 17:58:56.09	243.16	23.97	-31.4	-32.0	27.4	0.00e+00	0	40	0	3213885440	34	6420
2026-01-19 17:58:57.10	243.03	23.83	-31.5	-32.0	27.4	0.00e+00	0	40	0	3220176896	34	6437
2026-01-19 17:58:58.11	242.90	23.70	-31.6	-32.1	27.3	0.00e+00	0	40	0	3225419776	34	6515
2026-01-19 17:58:59.12	242.78	23.56	-31.7	-32.2	27.2	0.00e+00	0	40	0	3231711232	34	6597
2026-01-19 17:59:00.13	242.66	23.42	-31.4	-31.9	27.4	0.00e+00	0	40	0	3236954112	34	6377
2026-01-19 17:59:01.14	242.53	23.28	-31.4	-31.9	27.5	0.00e+00	0	40	0	3243245568	34	6377
2026-01-19 17:59:02.15	242.41	23.15	-31.5	-32.1	27.4	0.00e+00	0	40	0	3248488448	34	6533
2026-01-19 17:59:03.16	242.29	23.01	-31.4	-31.9	27.5	0.00e+00	0	40	0	3253731328	34	6360
2026-01-19 17:59:04.17	242.17	22.88	-31.4	-32.0	27.4	0.00e+00	0	40	0	3260022784	34	6409
2026-01-19 17:59:05.18	242.06	22.74	-31.4	-32.0	27.4	0.00e+00	0	40	0	3265265664	34	6400
2026-01-19 17:59:06.19	241.94	22.61	-31.5	-32.0	27.4	0.00e+00	0	40	0	3271557120	34	6419
2026-01-19 17:59:07.20	241.82	22.48	-31.6	-32.3	27.4	0.00e+00	0	40	0	3276800000	34	6647
2026-01-19 17:59:08.21	241.71	22.35	-31.6	-32.3	27.4	0.00e+00	0	40	0	3282042880	34	6639
2026-01-19 17:59:09.22	241.59	22.21	-31.8	-32.4	27.2	0.00e+00	0	40	0	3288334336	36	6032
2026-01-19 17:59:10.23	241.48	22.08	-31.8	-32.5	27.3	0.00e+00	0	40	0	3293577216	36	6084
2026-01-19 17:59:11.24	241.37	21.95	-31.9	-32.6	27.2	0.00e+00	0	40	0	3299868672	36	6109
2026-01-19 17:59:12.25	241.26	21.82	-31.8	-32.5	27.2	0.00e+00	0	40	0	3305111552	36	6034
2026-01-19 17:59:13.26	241.15	21.69	-31.9	-32.6	27.2	0.00e+00	0	40	0	3310354432	36	6107
2026-01-19 17:59:14.27	241.04	21.56	-31.9	-32.6	27.1	0.00e+00	0	40	0	3316645888	36	6120
2026-01-19 17:59:15.28	240.93	21.43	-32.1	-32.7	27.0	0.00e+00	0	40	0	3321888768	36	6175
2026-01-19 17:59:16.29	240.82	21.31	-32.3	-33.0	26.8	0.00e+00	0	40	0	3328180224	36	6425
2026-01-19 17:59:17.30	240.72	21.18	-31.9	-32.6	27.1	0.00e+00	0	40	0	3333423104	36	6130
2026-01-19 17:59:18.31	240.61	21.05	-32.1	-32.8	27.0	0.00e+00	0	40	0	3339714560	36	6284
2026-01-19 17:59:19.31	240.51	20.93	-31.8	-32.4	27.2	0.00e+00	0	40	0	3344957440	36	5972
2026-01-19 17:59:20.32	240.40	20.80	-32.0	-32.5	27.2	0.00e+00	0	40	0	3351248896	36	6087
2026-01-19 17:59:21.33	240.30	20.67	-31.8	-32.4	27.1	0.00e+00	0	40	0	3356491776	36	5994
2026-01-19 17:59:22.34	240.20	20.55	-31.9	-32.5	27.2	0.00e+00	0	40	0	3361734656	36	6099
2026-01-19 17:59:23.35	240.10	20.43	-31.9	-32.6	27.1	0.00e+00	0	40	0	3368026112	36	6123
2026-01-19 17:59:24.36	240.00	20.30	-31.9	-32.6	27.1	0.00e+00	0	40	0	3373268992	36	6129
2026-01-19 17:59:25.37	239.90	20.18	-32.0	-32.5	27.1	0.00e+00	0	40	0	3378511872	36	6082
2026-01-19 17:59:26.38	239.80	20.06	-31.9	-32.5	27.1	0.00e+00	0	40	0	3384803328	36	6049
2026-01-19 17:59:27.39	239.70	19.93	-32.0	-32.6	27.0	0.00e+00	0	40	0	3390046208	36	6133
2026-01-19 17:59:28.40	239.60	19.81	-32.0	-32.6	27.0	0.00e+00	0	40	0	3396337664	36	6133
2026-01-19 17:59:29.41	239.51	19.69	-32.1	-32.7	27.0	0.00e+00	0	40	0	3401580544	36	6190
2026-01-19 17:59:30.42	239.41	19.57	-32.1	-32.7	27.0	0.00e+00	0	40	0	3406823424	36	6175
2026-01-19 17:59:31.43	239.32	19.45	-32.2	-32.8	26.8	0.00e+00	0	40	0	3413114880	36	6270
2026-01-19 17:59:32.44	239.22	19.33	-32.3	-32.9	26.8	0.00e+00	0	40	0	3418357760	36	6321
2026-01-19 17:59:33.45	239.13	19.21	-32.3	-33.0	26.8	0.00e+00	0	40	0	3424649216	36	6402
2026-01-19 17:59:34.46	239.04	19.09	-32.3	-33.0	26.7	0.00e+00	0	40	0	3429892096	36	6422
2026-01-19 17:59:35.47	238.94	18.97	-32.5	-33.2	26.6	0.00e+00	0	40	0	3436183552	36	6591
2026-01-19 17:59:36.48	238.85	18.85	-32.5	-33.2	26.6	0.00e+00	0	39	0	3441426432	36	6590
2026-01-19 17:59:37.49	238.76	18.74	-32.6	-33.3	26.6	0.00e+00	0	40	0	3447717888	36	6633
2026-01-19 17:59:38.50	238.67	18.62	-32.8	-33.5	26.4	0.00e+00	0	40	0	3452960768	38	6074
2026-01-19 17:59:39.51	238.58	18.50	-32.7	-33.3	26.4	0.00e+00	0	40	0	3458203648	38	5954
2026-01-19 17:59:40.52	238.50	18.39	-32.8	-33.3	26.4	0.00e+00	0	40	0	3464495104	38	5963
2026-01-19 17:59:41.53	238.41	18.27	-32.8	-33.4	26.4	0.00e+00	0	40	0	3469737984	38	5993
2026-01-19 17:59:42.54	238.32	18.16	-32.9	-33.6	26.1	0.00e+00	0	40	0	3476029440	38	6163
2026-01-19 17:59:43.56	238.23	18.04	-32.9	-33.7	26.2	0.00e+00	0	40	0	3481272320	38	6188
2026-01-19 17:59:44.57	238.15	17.93	-33.0	-33.6	26.2	0.00e+00	0	40	0	3486515200	38	6105
2026-01-19 17:59:45.58	238.06	17.81	-33.0	-33.6	26.1	0.00e+00	0	40	0	3492806656	38	6105
2026-01-19 17:59:46.59	237.98	17.70	-32.9	-33.6	26.3	0.00e+00	0	40	0	3498049536	38	6149
2026-01-19 17:59:47.59	237.90	17.59	-32.8	-33.4	26.3	0.00e+00	0	40	0	3504340992	38	5996
2026-01-19 17:59:48.60	237.81	17.48	-32.8	-33.3	26.4	0.00e+00	0	40	0	3509583872	38	5960
2026-01-19 17:59:49.61	237.73	17.37	-32.8	-33.5	26.3	0.00e+00	0	40	0	3514826752	38	6074
2026-01-19 17:59:50.63	237.65	17.25	-33.0	-33.6	26.3	0.00e+00	0	40	0	3521118208	38	6136
2026-01-19 17:59:51.64	237.57	17.14	-32.9	-33.4	26.2	0.00e+00	0	40	0	3526361088	38	6016
2026-01-19 17:59:52.65	237.49	17.03	-33.1	-33.6	26.1	0.00e+00	0	40	0	3532652544	38	6165
2026-01-19 17:59:53.66	237.41	16.92	-33.0	-33.5	26.2	0.00e+00	0	40	0	3537895424	38	6079
2026-01-19 17:59:54.67	237.33	16.81	-32.8	-33.4	26.3	0.00e+00	0	40	0	3544186880	38	5983
2026-01-19 17:59:55.67	237.25	16.70	-32.9	-33.5	26.2	0.00e+00	0	40	0	3549429760	38	6065
2026-01-19 17:59:56.69	237.17	16.59	-33.0	-33.5	26.2	0.00e+00	0	40	0	3555721216	38	6084
2026-01-19 17:59:57.70	237.10	16.49	-33.0	-33.7	26.2	0.00e+00	0	40	0	3560964096	38	6207
