passes_logs/2026/01/19/R4.6S_Anadyr/R4.6S_Anadyr__20260119_114859_SUOMI_NPP_rec.log

#Pass ID: 20260119_114859_SUOMI NPP
#Satellite: SUOMI NPP
#Configuration: NPP
#almurnet v.1.7.20251203
#Start time: 2026-01-19 11:49:00

#Version: 2.2.20231116
#Station: R4.6S_Anadyr
#Location: 177.4865 lon 64.73178 lat
#TLE: 1 37849U 11061A   26018.91022273  .00000066  00000+0  52264-4 0  9997
#TLE: 2 37849  98.7816 320.9252 0002364  56.8129 303.3273 14.19526186737260

#Time	Az	El	Level	Level2	SNR	BER	BlckErr	Temp	State	Recorded	gain1	gain2
2026-01-19 11:49:00.84	20.31	0.05	-50.8	-68.5	3.5	3.03e+01	0	38	0	0	60	102492
2026-01-19 11:49:01.85	20.41	0.09	-50.2	-65.4	3.6	1.51e+00	0	39	104	0	60	67406
2026-01-19 11:49:02.86	20.50	0.14	-50.1	-65.4	3.6	1.51e+00	0	39	104	0	60	66995
2026-01-19 11:49:03.87	20.59	0.18	-50.2	-65.4	3.6	1.51e+00	0	39	104	0	60	67207
2026-01-19 11:49:04.89	20.69	0.22	-50.2	-65.4	3.6	1.51e+00	0	39	104	0	60	67216
2026-01-19 11:49:05.89	20.78	0.26	-50.2	-65.5	3.6	1.51e+00	0	39	104	0	60	67925
2026-01-19 11:49:06.91	20.87	0.31	-50.2	-65.4	3.6	1.51e+00	0	39	104	0	60	67424
2026-01-19 11:49:07.91	20.96	0.35	-50.1	-65.5	3.6	1.51e+00	0	39	104	0	60	67994
2026-01-19 11:49:08.93	21.06	0.39	-50.2	-65.5	3.6	1.51e+00	0	39	104	0	60	67703
2026-01-19 11:49:09.93	21.15	0.43	-50.2	-65.4	3.6	1.51e+00	0	39	104	0	60	67509
2026-01-19 11:49:10.95	21.25	0.47	-50.2	-65.4	3.6	1.51e+00	0	39	104	0	60	67151
2026-01-19 11:49:11.96	21.34	0.52	-50.1	-65.4	3.6	1.51e+00	0	39	104	0	60	67379
2026-01-19 11:49:12.97	21.44	0.56	-50.2	-65.4	3.6	1.51e+00	0	39	104	0	60	67276
2026-01-19 11:49:13.98	21.53	0.60	-50.1	-65.4	3.6	1.51e+00	0	39	104	0	60	67136
2026-01-19 11:49:14.99	21.63	0.64	-50.1	-65.3	3.6	1.51e+00	0	39	104	0	60	66336
2026-01-19 11:49:16.00	21.72	0.69	-49.9	-65.2	3.6	1.51e+00	0	39	104	0	60	65722
2026-01-19 11:49:17.01	21.82	0.73	-49.9	-65.1	3.6	1.51e+00	0	39	104	0	60	65075
2026-01-19 11:49:18.02	21.92	0.77	-49.9	-65.1	3.6	1.51e+00	0	39	104	0	60	65358
2026-01-19 11:49:19.03	22.01	0.81	-49.8	-65.0	3.6	1.51e+00	0	39	104	0	60	64114
2026-01-19 11:49:20.04	22.11	0.85	-49.7	-64.9	3.6	1.51e+00	0	39	104	0	60	63779
2026-01-19 11:49:21.05	22.21	0.90	-49.6	-64.8	3.6	1.51e+00	0	39	104	0	60	63053
2026-01-19 11:49:22.06	22.30	0.94	-49.5	-64.7	3.6	1.51e+00	0	39	104	0	60	62240
2026-01-19 11:49:23.07	22.40	0.98	-49.3	-64.5	3.6	1.51e+00	0	39	104	0	60	60865
2026-01-19 11:49:24.08	22.50	1.02	-49.1	-64.3	3.6	1.51e+00	0	39	104	0	60	59122
2026-01-19 11:49:25.09	22.60	1.06	-48.8	-63.9	3.6	1.51e+00	0	39	104	0	60	56486
2026-01-19 11:49:26.10	22.70	1.11	-48.5	-63.7	3.6	1.51e+00	0	39	104	0	60	55629
2026-01-19 11:49:27.12	22.80	1.15	-48.5	-63.7	3.6	1.51e+00	0	39	104	0	60	55034
2026-01-19 11:49:28.13	22.89	1.19	-48.5	-63.6	3.6	1.51e+00	0	39	104	0	60	54913
2026-01-19 11:49:29.14	22.99	1.23	-48.5	-63.6	3.6	1.51e+00	0	39	104	0	60	55010
2026-01-19 11:49:30.15	23.09	1.28	-48.5	-63.6	3.6	1.51e+00	0	39	104	0	60	54731
2026-01-19 11:49:31.16	23.19	1.32	-48.5	-63.6	3.6	1.51e+00	0	39	104	0	60	54822
2026-01-19 11:49:32.17	23.29	1.36	-48.5	-63.7	3.6	1.51e+00	0	40	104	0	60	55220
2026-01-19 11:49:33.18	23.39	1.40	-48.5	-63.7	3.6	1.51e+00	0	40	104	0	60	55500
2026-01-19 11:49:34.19	23.49	1.44	-48.5	-63.6	3.6	1.51e+00	0	40	104	0	60	54999
2026-01-19 11:49:35.20	23.59	1.49	-48.5	-63.7	3.6	1.51e+00	0	39	104	0	60	55115
2026-01-19 11:49:36.21	23.69	1.53	-48.5	-63.7	3.6	1.51e+00	0	39	104	0	60	55097
2026-01-19 11:49:37.22	23.80	1.57	-48.5	-63.7	3.6	1.51e+00	0	40	104	0	60	55166
2026-01-19 11:49:38.23	23.90	1.61	-48.5	-63.6	3.6	1.51e+00	0	40	104	0	60	54837
2026-01-19 11:49:39.24	24.00	1.66	-48.5	-63.7	3.6	1.51e+00	0	40	104	0	60	55064
2026-01-19 11:49:40.25	24.10	1.70	-48.5	-63.7	3.6	1.51e+00	0	40	104	0	60	55047
2026-01-19 11:49:41.26	24.20	1.74	-48.5	-63.6	3.6	1.51e+00	0	40	104	0	60	54847
2026-01-19 11:49:42.27	24.31	1.78	-48.5	-63.6	3.6	1.51e+00	0	40	104	0	60	54800
2026-01-19 11:49:43.28	24.41	1.82	-48.5	-63.6	3.6	1.51e+00	0	40	104	0	60	54990
2026-01-19 11:49:44.29	24.51	1.87	-48.5	-63.7	3.6	1.51e+00	0	40	104	0	60	55327
2026-01-19 11:49:45.30	24.62	1.91	-48.5	-63.6	3.6	1.51e+00	0	40	104	0	60	54970
2026-01-19 11:49:46.31	24.72	1.95	-48.5	-63.6	3.6	1.51e+00	0	40	104	0	60	54967
2026-01-19 11:49:47.32	24.82	1.99	-48.5	-63.7	3.6	1.51e+00	0	40	104	0	60	55123
2026-01-19 11:49:48.33	24.93	2.03	-48.5	-63.6	3.6	1.51e+00	0	40	104	0	60	54878
2026-01-19 11:49:49.34	25.03	2.08	-48.5	-63.7	3.6	1.51e+00	0	40	104	0	60	55289
2026-01-19 11:49:50.35	25.14	2.12	-48.5	-63.7	3.6	1.51e+00	0	40	104	0	60	55109
2026-01-19 11:49:51.36	25.24	2.16	-48.5	-63.7	3.6	1.51e+00	0	40	104	0	60	55062
2026-01-19 11:49:52.37	25.35	2.20	-48.5	-63.7	3.6	1.51e+00	0	40	104	0	60	55255
2026-01-19 11:49:53.38	25.45	2.24	-48.5	-63.7	3.6	1.51e+00	0	40	104	0	60	55064
2026-01-19 11:49:54.39	25.56	2.29	-48.5	-63.6	3.6	1.51e+00	0	40	104	0	60	54548
2026-01-19 11:49:55.40	25.67	2.33	-48.5	-63.6	3.6	1.51e+00	0	40	104	0	60	54588
2026-01-19 11:49:56.41	25.77	2.37	-48.5	-63.6	3.6	1.51e+00	0	40	104	0	60	54771
2026-01-19 11:49:57.42	25.88	2.41	-48.5	-63.6	3.6	1.51e+00	0	40	104	0	60	54878
2026-01-19 11:49:58.43	25.99	2.45	-48.5	-63.0	3.6	1.51e+00	0	40	104	0	60	51341
2026-01-19 11:49:59.44	26.09	2.49	-48.4	-62.3	3.6	1.51e+00	0	40	104	0	60	47082
2026-01-19 11:50:00.44	26.20	2.54	-48.4	-61.3	3.7	1.51e+00	0	40	104	0	60	41746
2026-01-19 11:50:01.44	26.31	2.58	-48.3	-60.1	3.7	1.49e+00	0	40	104	0	60	36726
2026-01-19 11:50:02.46	26.42	2.62	-48.1	-57.0	5.1	9.10e-01	0	40	0	0	60	25694
2026-01-19 11:50:03.47	26.53	2.66	-47.4	-53.4	8.8	2.44e-01	0	40	0	2097152	60	16908
2026-01-19 11:50:04.48	26.63	2.70	-46.3	-50.4	12.3	1.56e-03	54	40	0	3145728	60	11906
2026-01-19 11:50:05.48	26.74	2.74	-44.9	-47.7	15.0	4.50e-06	0	40	0	5242880	60	8785
2026-01-19 11:50:06.49	26.85	2.79	-43.8	-46.0	16.7	0.00e+00	43	40	0	7340032	60	7171
2026-01-19 11:50:07.50	26.96	2.83	-43.0	-44.9	17.7	0.00e+00	0	40	0	9437184	60	6354
2026-01-19 11:50:08.51	27.07	2.87	-43.0	-45.0	17.5	0.00e+00	0	40	0	10485760	60	6407
2026-01-19 11:50:09.52	27.18	2.91	-43.6	-45.8	16.8	0.00e+00	0	40	0	12582912	60	7020
2026-01-19 11:50:10.53	27.29	2.95	-44.7	-47.5	15.1	0.00e+00	0	40	0	14680064	60	8528
2026-01-19 11:50:11.54	27.40	2.99	-46.2	-50.3	12.2	3.28e-05	38	40	0	16777216	60	11802
2026-01-19 11:50:12.55	27.52	3.04	-45.6	-48.8	14.9	3.98e-03	0	40	0	18874368	60	9955
2026-01-19 11:50:13.56	27.63	3.08	-44.5	-47.1	12.6	1.50e-06	47	40	0	20971520	60	8210
2026-01-19 11:50:14.57	27.74	3.12	-46.9	-52.2	5.6	1.51e+00	0	40	104	20971520	60	14805
2026-01-19 11:50:15.57	27.85	3.16	-45.2	-48.2	14.9	3.29e-01	0	40	104	20971520	60	9249
2026-01-19 11:50:16.58	27.96	3.20	-46.7	-51.4	9.2	0.00e+00	0	40	0	22020096	60	13414
2026-01-19 11:50:17.59	28.08	3.24	-46.8	-51.5	12.5	1.20e+00	0	40	104	22020096	60	13640
2026-01-19 11:50:18.60	28.19	3.29	-43.3	-45.3	17.4	0.00e+00	44	40	0	23068672	60	6617
2026-01-19 11:50:19.61	28.30	3.33	-43.2	-45.1	17.8	0.00e+00	0	40	0	25165824	60	6479
2026-01-19 11:50:20.62	28.42	3.37	-43.3	-45.2	17.0	0.00e+00	92	40	0	26214400	60	6573
2026-01-19 11:50:21.63	28.53	3.41	-43.7	-45.8	17.5	0.00e+00	0	40	0	28311552	60	7072
2026-01-19 11:50:22.64	28.64	3.45	-43.3	-45.2	17.4	0.00e+00	25	40	0	30408704	60	6574
2026-01-19 11:50:23.65	28.76	3.49	-43.2	-45.1	16.8	0.00e+00	0	40	0	32505856	60	6496
2026-01-19 11:50:24.66	28.87	3.53	-43.3	-45.2	17.6	0.00e+00	0	40	0	34603008	60	6543
2026-01-19 11:50:25.67	28.99	3.57	-43.4	-45.3	17.2	0.00e+00	0	40	0	35651584	60	6680
2026-01-19 11:50:26.68	29.10	3.62	-43.2	-45.1	17.4	0.00e+00	0	40	0	37748736	60	6502
2026-01-19 11:50:27.69	29.22	3.66	-43.1	-44.9	18.2	0.00e+00	73	40	0	39845888	60	6357
2026-01-19 11:50:28.70	29.34	3.70	-42.7	-44.5	18.6	0.00e+00	0	40	0	41943040	58	6792
2026-01-19 11:50:29.71	29.45	3.74	-42.5	-44.1	18.6	0.00e+00	79	40	0	44040192	58	6522
2026-01-19 11:50:30.72	29.57	3.78	-42.4	-44.1	18.6	0.00e+00	0	40	0	46137344	58	6489
2026-01-19 11:50:31.73	29.69	3.82	-42.2	-43.8	18.8	0.00e+00	0	40	0	47185920	58	6278
2026-01-19 11:50:32.74	29.80	3.86	-42.3	-43.9	18.8	0.00e+00	0	40	0	49283072	58	6349
2026-01-19 11:50:33.75	29.92	3.90	-42.3	-43.9	18.7	0.00e+00	0	40	0	51380224	58	6345
2026-01-19 11:50:34.76	30.04	3.95	-42.7	-44.4	18.4	0.00e+00	41	40	0	53477376	58	6725
2026-01-19 11:50:35.76	30.16	3.99	-42.5	-44.2	18.5	0.00e+00	0	40	0	55574528	58	6589
2026-01-19 11:50:36.77	30.28	4.03	-42.9	-44.7	18.2	0.00e+00	91	40	0	56623104	58	6979
2026-01-19 11:50:37.78	30.39	4.07	-42.7	-44.4	18.4	0.00e+00	0	40	0	58720256	58	6758
2026-01-19 11:50:38.79	30.51	4.11	-42.8	-44.5	18.3	0.00e+00	0	40	0	60817408	58	6822
2026-01-19 11:50:39.80	30.63	4.15	-42.4	-44.1	18.7	0.00e+00	0	40	0	62914560	58	6491
2026-01-19 11:50:40.81	30.75	4.19	-42.6	-44.2	18.7	0.00e+00	0	40	0	65011712	58	6609
2026-01-19 11:50:41.82	30.87	4.23	-42.4	-44.0	18.8	0.00e+00	44	40	0	66060288	58	6419
2026-01-19 11:50:42.83	30.99	4.27	-42.3	-43.9	18.8	0.00e+00	0	40	0	68157440	58	6349
2026-01-19 11:50:43.84	31.12	4.31	-42.2	-43.7	19.0	0.00e+00	92	40	0	70254592	58	6230
2026-01-19 11:50:44.85	31.24	4.35	-42.0	-43.5	19.2	0.00e+00	0	40	0	72351744	58	6099
2026-01-19 11:50:45.86	31.36	4.39	-42.1	-43.6	19.2	0.00e+00	0	40	0	74448896	58	6157
2026-01-19 11:50:46.87	31.48	4.43	-42.0	-43.5	19.2	0.00e+00	0	40	0	75497472	58	6097
2026-01-19 11:50:47.88	31.60	4.47	-42.1	-43.6	19.2	0.00e+00	0	40	0	77594624	58	6140
2026-01-19 11:50:48.89	31.73	4.51	-42.2	-43.7	19.1	0.00e+00	0	40	0	79691776	58	6238
2026-01-19 11:50:49.90	31.85	4.55	-42.1	-43.6	19.2	0.00e+00	0	40	0	81788928	58	6157
2026-01-19 11:50:50.91	31.97	4.60	-42.1	-43.6	19.2	0.00e+00	92	40	0	83886080	58	6135
2026-01-19 11:50:51.92	32.09	4.64	-42.1	-43.6	19.2	0.00e+00	0	40	0	84934656	58	6163
2026-01-19 11:50:52.93	32.22	4.68	-42.1	-43.6	19.3	0.00e+00	0	40	0	87031808	58	6168
2026-01-19 11:50:53.94	32.34	4.72	-42.3	-43.9	19.0	0.00e+00	0	40	0	89128960	58	6349
2026-01-19 11:50:54.94	32.47	4.76	-42.3	-43.8	19.0	0.00e+00	0	40	0	91226112	58	6304
2026-01-19 11:50:55.95	32.59	4.80	-42.3	-43.8	19.1	0.00e+00	0	40	0	93323264	58	6292
2026-01-19 11:50:56.96	32.72	4.84	-42.3	-43.8	19.2	0.00e+00	0	40	0	94371840	58	6305
2026-01-19 11:50:57.97	32.84	4.88	-42.3	-43.8	19.1	0.00e+00	90	40	0	96468992	58	6287
2026-01-19 11:50:58.98	32.97	4.92	-42.3	-43.8	19.0	0.00e+00	0	40	0	98566144	58	6299
2026-01-19 11:50:59.99	33.09	4.96	-42.2	-43.8	19.1	0.00e+00	90	40	0	100663296	58	6277
2026-01-19 11:51:01.00	33.22	5.00	-42.0	-43.5	19.5	0.00e+00	0	40	0	102760448	58	6048
2026-01-19 11:51:02.01	33.35	5.04	-42.0	-43.5	19.4	0.00e+00	0	40	0	103809024	58	6096
2026-01-19 11:51:03.02	33.47	5.08	-41.9	-43.3	19.5	0.00e+00	0	40	0	105906176	58	5961
2026-01-19 11:51:04.03	33.60	5.12	-41.8	-43.2	19.6	0.00e+00	0	40	0	108003328	58	5885
2026-01-19 11:51:05.04	33.73	5.15	-41.8	-43.2	19.7	0.00e+00	91	40	0	110100480	56	6584
2026-01-19 11:51:06.05	33.86	5.19	-41.8	-43.2	19.7	0.00e+00	0	40	0	112197632	56	6558
2026-01-19 11:51:07.05	33.98	5.23	-41.7	-43.1	19.9	0.00e+00	45	40	0	113246208	56	6515
2026-01-19 11:51:08.06	34.11	5.27	-41.6	-43.0	19.7	0.00e+00	0	40	0	115343360	56	6403
2026-01-19 11:51:09.07	34.24	5.31	-41.7	-43.1	19.7	0.00e+00	0	40	0	117440512	56	6478
2026-01-19 11:51:10.08	34.37	5.35	-41.8	-43.2	19.8	0.00e+00	0	40	0	119537664	56	6545
2026-01-19 11:51:11.09	34.50	5.39	-41.7	-43.2	19.7	0.00e+00	0	40	0	121634816	56	6541
2026-01-19 11:51:12.10	34.63	5.43	-41.9	-43.3	19.6	0.00e+00	22	40	0	122683392	56	6668
2026-01-19 11:51:13.11	34.76	5.47	-41.8	-43.2	19.7	0.00e+00	0	40	0	124780544	56	6615
2026-01-19 11:51:14.12	34.89	5.51	-42.0	-43.4	19.6	0.00e+00	56	40	0	126877696	56	6755
2026-01-19 11:51:15.13	35.02	5.55	-41.9	-43.4	19.6	0.00e+00	0	40	0	128974848	56	6714
2026-01-19 11:51:16.14	35.16	5.59	-41.9	-43.3	19.7	0.00e+00	0	40	0	131072000	56	6634
2026-01-19 11:51:17.15	35.29	5.63	-42.0	-43.4	19.5	0.00e+00	0	40	0	132120576	56	6746
2026-01-19 11:51:18.16	35.42	5.66	-41.9	-43.4	19.6	0.00e+00	0	40	0	134217728	56	6699
2026-01-19 11:51:19.17	35.55	5.70	-42.0	-43.5	19.6	0.00e+00	46	40	0	136314880	56	6782
2026-01-19 11:51:20.18	35.68	5.74	-41.9	-43.3	19.5	0.00e+00	0	40	0	138412032	56	6656
2026-01-19 11:51:21.19	35.82	5.78	-42.0	-43.4	19.6	0.00e+00	92	40	0	140509184	56	6723
2026-01-19 11:51:22.20	35.95	5.82	-42.0	-43.4	19.4	0.00e+00	0	40	0	142606336	56	6768
2026-01-19 11:51:23.21	36.09	5.86	-42.2	-43.8	19.3	0.00e+00	0	40	0	143654912	56	7013
2026-01-19 11:51:24.22	36.22	5.90	-42.3	-43.8	19.3	0.00e+00	0	40	0	145752064	56	7028
2026-01-19 11:51:25.22	36.35	5.93	-42.4	-43.9	19.2	0.00e+00	0	40	0	147849216	56	7161
2026-01-19 11:51:26.23	36.49	5.97	-42.5	-44.0	19.0	0.00e+00	44	41	0	149946368	56	7228
2026-01-19 11:51:27.24	36.62	6.01	-42.3	-43.9	19.1	0.00e+00	33	40	0	152043520	56	7090
2026-01-19 11:51:28.25	36.76	6.05	-42.2	-43.6	19.4	0.00e+00	92	40	0	153092096	56	6927
2026-01-19 11:51:29.26	36.89	6.09	-42.0	-43.4	19.6	0.00e+00	0	40	0	155189248	56	6768
2026-01-19 11:51:30.27	37.03	6.12	-42.0	-43.4	19.7	0.00e+00	0	40	0	157286400	56	6730
2026-01-19 11:51:31.28	37.17	6.16	-41.9	-43.3	19.7	0.00e+00	0	40	0	159383552	56	6651
2026-01-19 11:51:32.29	37.30	6.20	-42.0	-43.4	19.5	0.00e+00	0	40	0	161480704	56	6764
2026-01-19 11:51:33.30	37.44	6.24	-42.2	-43.7	19.3	0.00e+00	47	40	0	162529280	56	6964
2026-01-19 11:51:34.31	37.58	6.28	-42.3	-43.8	19.4	0.00e+00	0	40	0	164626432	56	7025
2026-01-19 11:51:35.32	37.72	6.31	-42.3	-43.8	19.4	0.00e+00	44	40	0	166723584	56	7010
2026-01-19 11:51:36.33	37.86	6.35	-42.3	-43.8	19.3	0.00e+00	0	40	0	168820736	56	7038
2026-01-19 11:51:37.34	37.99	6.39	-42.4	-43.9	19.3	0.00e+00	67	40	0	170917888	56	7123
2026-01-19 11:51:38.34	38.13	6.43	-42.3	-43.8	19.3	0.00e+00	0	40	0	171966464	56	7066
2026-01-19 11:51:39.35	38.27	6.46	-42.7	-44.3	18.8	0.00e+00	0	40	0	174063616	56	7441
2026-01-19 11:51:40.36	38.41	6.50	-42.7	-44.3	18.7	0.00e+00	0	40	0	176160768	58	6676
2026-01-19 11:51:41.37	38.55	6.54	-42.4	-44.0	19.1	0.00e+00	0	41	0	178257920	58	6411
2026-01-19 11:51:42.38	38.69	6.57	-42.5	-44.0	19.1	0.00e+00	50	41	0	180355072	58	6440
2026-01-19 11:51:43.39	38.83	6.61	-42.6	-44.2	19.0	0.00e+00	0	40	0	181403648	58	6550
2026-01-19 11:51:44.39	38.97	6.65	-42.3	-43.8	19.3	0.00e+00	91	40	0	183500800	58	6285
2026-01-19 11:51:45.41	39.11	6.68	-42.2	-43.7	19.4	0.00e+00	0	40	0	185597952	58	6201
2026-01-19 11:51:46.42	39.26	6.72	-42.1	-43.6	19.5	0.00e+00	0	40	0	187695104	58	6114
2026-01-19 11:51:47.43	39.40	6.76	-41.8	-43.2	19.8	0.00e+00	0	40	0	189792256	58	5888
2026-01-19 11:51:48.44	39.54	6.79	-41.7	-43.1	19.9	0.00e+00	0	40	0	190840832	58	5805
2026-01-19 11:51:49.44	39.68	6.83	-41.9	-43.3	19.8	0.00e+00	43	40	0	192937984	56	6649
2026-01-19 11:51:50.46	39.83	6.87	-41.9	-43.3	19.9	0.00e+00	0	40	0	195035136	56	6626
2026-01-19 11:51:51.46	39.97	6.90	-41.8	-43.2	19.9	0.00e+00	90	40	0	197132288	56	6567
2026-01-19 11:51:52.48	40.11	6.94	-42.0	-43.4	19.8	0.00e+00	0	40	0	199229440	56	6724
2026-01-19 11:51:53.49	40.26	6.97	-42.2	-43.7	19.6	0.00e+00	0	40	0	200278016	56	6995
2026-01-19 11:51:54.50	40.40	7.01	-42.1	-43.6	19.6	0.00e+00	0	40	0	202375168	56	6879
2026-01-19 11:51:55.51	40.55	7.05	-42.1	-43.6	19.4	0.00e+00	0	40	0	204472320	56	6861
2026-01-19 11:51:56.51	40.69	7.08	-42.1	-43.6	19.6	0.00e+00	40	41	0	206569472	56	6862
2026-01-19 11:51:57.52	40.84	7.12	-42.4	-43.9	19.3	0.00e+00	0	40	0	208666624	56	7140
2026-01-19 11:51:58.53	40.98	7.15	-42.3	-43.8	19.4	0.00e+00	92	40	0	210763776	56	7022
2026-01-19 11:51:59.54	41.13	7.19	-42.3	-43.7	19.4	0.00e+00	0	40	0	211812352	56	7007
2026-01-19 11:52:00.55	41.27	7.22	-42.4	-43.8	19.3	0.00e+00	63	40	0	213909504	56	7072
2026-01-19 11:52:01.55	41.42	7.26	-42.5	-44.0	19.3	0.00e+00	0	41	0	216006656	56	7178
2026-01-19 11:52:02.55	41.57	7.29	-42.4	-43.8	19.4	0.00e+00	0	40	0	218103808	56	7077
2026-01-19 11:52:03.56	41.71	7.33	-42.4	-43.9	19.3	0.00e+00	0	40	0	220200960	56	7120
2026-01-19 11:52:04.57	41.86	7.36	-42.4	-43.9	19.3	0.00e+00	0	41	0	221249536	56	7152
2026-01-19 11:52:05.58	42.01	7.40	-42.5	-44.1	19.1	0.00e+00	90	40	0	223346688	56	7258
2026-01-19 11:52:06.59	42.16	7.43	-42.5	-44.0	19.2	0.00e+00	0	40	0	225443840	56	7240
2026-01-19 11:52:07.60	42.31	7.47	-42.4	-43.9	19.3	0.00e+00	91	40	0	227540992	56	7161
2026-01-19 11:52:08.60	42.45	7.50	-42.7	-44.3	19.0	0.00e+00	0	40	0	228589568	56	7463
2026-01-19 11:52:09.61	42.60	7.53	-42.7	-44.3	18.9	0.00e+00	0	40	0	230686720	58	6618
2026-01-19 11:52:10.62	42.75	7.57	-42.5	-44.0	19.2	0.00e+00	0	40	0	232783872	58	6426
2026-01-19 11:52:11.63	42.90	7.60	-42.4	-43.9	19.2	0.00e+00	0	40	0	234881024	58	6386
2026-01-19 11:52:12.64	43.05	7.64	-42.4	-43.9	19.2	0.00e+00	72	40	0	236978176	58	6346
2026-01-19 11:52:13.65	43.21	7.67	-42.3	-43.8	19.4	0.00e+00	0	41	0	239075328	58	6302
2026-01-19 11:52:14.66	43.36	7.70	-42.2	-43.7	19.6	0.00e+00	73	40	0	240123904	58	6195
2026-01-19 11:52:15.67	43.51	7.74	-42.1	-43.5	19.5	0.00e+00	0	40	0	242221056	58	6059
2026-01-19 11:52:16.68	43.66	7.77	-42.2	-43.6	19.5	0.00e+00	33	41	0	244318208	58	6162
2026-01-19 11:52:17.69	43.81	7.80	-42.1	-43.5	19.6	0.00e+00	0	40	0	246415360	58	6094
2026-01-19 11:52:18.70	43.97	7.84	-42.1	-43.6	19.7	0.00e+00	0	40	0	248512512	58	6138
2026-01-19 11:52:19.70	44.12	7.87	-42.1	-43.6	19.6	0.00e+00	32	40	0	249561088	58	6137
2026-01-19 11:52:20.71	44.27	7.90	-42.1	-43.5	19.7	0.00e+00	0	40	0	251658240	58	6102
2026-01-19 11:52:21.72	44.42	7.93	-42.0	-43.4	19.8	0.00e+00	92	40	0	253755392	58	6016
2026-01-19 11:52:22.73	44.58	7.97	-42.0	-43.5	19.7	0.00e+00	0	40	0	255852544	58	6064
2026-01-19 11:52:23.73	44.73	8.00	-42.2	-43.6	19.6	0.00e+00	0	40	0	257949696	58	6161
2026-01-19 11:52:24.74	44.89	8.03	-42.1	-43.5	19.7	0.00e+00	0	40	0	258998272	58	6099
2026-01-19 11:52:25.75	45.04	8.06	-42.2	-43.7	19.6	0.00e+00	0	40	0	261095424	58	6190
2026-01-19 11:52:26.76	45.20	8.10	-42.4	-43.9	19.4	0.00e+00	8	40	0	263192576	58	6319
2026-01-19 11:52:27.77	45.35	8.13	-42.4	-43.9	19.4	0.00e+00	0	40	0	265289728	58	6342
2026-01-19 11:52:28.78	45.51	8.16	-42.5	-44.0	19.2	0.00e+00	90	40	0	267386880	58	6449
2026-01-19 11:52:29.79	45.66	8.19	-42.4	-43.9	19.4	0.00e+00	0	40	0	268435456	58	6356
2026-01-19 11:52:30.80	45.82	8.22	-42.4	-43.9	19.3	0.00e+00	26	40	0	270532608	58	6383
2026-01-19 11:52:31.81	45.98	8.25	-42.2	-43.7	19.6	0.00e+00	0	40	0	272629760	58	6181
2026-01-19 11:52:32.82	46.13	8.28	-42.2	-43.6	19.7	0.00e+00	0	40	0	274726912	58	6168
2026-01-19 11:52:33.83	46.29	8.32	-42.0	-43.5	19.8	0.00e+00	12	40	0	276824064	58	6052
2026-01-19 11:52:34.84	46.45	8.35	-41.9	-43.3	19.7	0.00e+00	0	40	0	277872640	58	5931
2026-01-19 11:52:35.85	46.61	8.38	-41.9	-43.2	20.0	0.00e+00	39	40	0	279969792	58	5882
2026-01-19 11:52:36.85	46.77	8.41	-41.6	-42.9	20.3	0.00e+00	0	40	0	282066944	56	6384
2026-01-19 11:52:37.87	46.93	8.44	-41.7	-43.1	20.2	0.00e+00	0	40	0	284164096	56	6501
2026-01-19 11:52:38.88	47.08	8.47	-41.9	-43.3	20.0	0.00e+00	0	40	0	286261248	56	6626
2026-01-19 11:52:39.88	47.24	8.50	-42.0	-43.4	19.9	0.00e+00	0	41	0	287309824	56	6739
2026-01-19 11:52:40.89	47.40	8.53	-42.1	-43.6	19.7	0.00e+00	17	40	0	289406976	56	6876
2026-01-19 11:52:41.90	47.56	8.56	-42.3	-43.8	19.5	0.00e+00	0	40	0	291504128	56	7015
2026-01-19 11:52:42.91	47.72	8.59	-42.6	-44.2	19.3	0.00e+00	45	40	0	293601280	56	7338
2026-01-19 11:52:43.92	47.88	8.62	-42.5	-44.0	19.3	0.00e+00	0	40	0	295698432	56	7238
2026-01-19 11:52:44.93	48.05	8.65	-42.6	-44.1	19.2	0.00e+00	92	40	0	296747008	56	7335
2026-01-19 11:52:45.94	48.21	8.68	-42.7	-44.2	19.2	0.00e+00	0	40	0	298844160	56	7362
2026-01-19 11:52:46.95	48.37	8.70	-42.5	-44.0	19.3	0.00e+00	0	40	0	300941312	56	7230
2026-01-19 11:52:47.96	48.53	8.73	-42.4	-43.9	19.5	0.00e+00	0	40	0	303038464	56	7123
2026-01-19 11:52:48.97	48.69	8.76	-42.4	-43.9	19.6	0.00e+00	0	40	0	305135616	56	7128
2026-01-19 11:52:49.98	48.86	8.79	-42.4	-43.9	19.3	0.00e+00	45	40	0	307232768	56	7131
2026-01-19 11:52:50.99	49.02	8.82	-42.6	-44.2	19.2	0.00e+00	0	41	0	308281344	56	7349
2026-01-19 11:52:52.00	49.18	8.85	-42.4	-43.9	19.5	0.00e+00	71	41	0	310378496	56	7092
2026-01-19 11:52:53.01	49.35	8.88	-42.4	-43.9	19.4	0.00e+00	0	41	0	312475648	56	7110
2026-01-19 11:52:54.02	49.51	8.90	-42.1	-43.5	19.6	0.00e+00	0	41	0	314572800	56	6829
2026-01-19 11:52:55.03	49.67	8.93	-42.1	-43.6	19.7	0.00e+00	0	41	0	316669952	56	6856
2026-01-19 11:52:56.04	49.84	8.96	-42.1	-43.4	19.9	0.00e+00	0	41	0	317718528	56	6759
2026-01-19 11:52:57.05	50.00	8.99	-42.0	-43.4	20.0	0.00e+00	26	40	0	319815680	56	6736
2026-01-19 11:52:58.06	50.17	9.01	-41.8	-43.2	20.1	0.00e+00	0	40	0	321912832	56	6563
2026-01-19 11:52:59.07	50.33	9.04	-41.7	-43.0	20.2	0.00e+00	84	40	0	324009984	56	6455
2026-01-19 11:53:00.08	50.50	9.07	-41.8	-43.1	20.2	0.00e+00	0	41	0	326107136	56	6516
2026-01-19 11:53:01.09	50.67	9.09	-41.8	-43.1	20.2	0.00e+00	0	41	0	327155712	56	6538
2026-01-19 11:53:02.10	50.83	9.12	-42.1	-43.5	19.8	0.00e+00	0	41	0	329252864	56	6835
2026-01-19 11:53:03.11	51.00	9.15	-42.3	-43.8	19.5	0.00e+00	0	40	0	331350016	56	7049
2026-01-19 11:53:04.12	51.16	9.17	-42.5	-44.0	19.2	0.00e+00	20	41	0	333447168	56	7246
2026-01-19 11:53:05.13	51.33	9.20	-42.8	-44.4	18.9	0.00e+00	0	41	0	335544320	58	6743
2026-01-19 11:53:06.14	51.50	9.22	-43.1	-44.7	18.6	0.00e+00	92	41	0	336592896	58	6985
2026-01-19 11:53:07.15	51.67	9.25	-43.4	-45.2	18.3	0.00e+00	0	40	0	338690048	58	7378
2026-01-19 11:53:08.16	51.84	9.28	-43.3	-45.0	18.4	0.00e+00	7	40	0	340787200	58	7212
2026-01-19 11:53:09.17	52.00	9.30	-43.2	-44.9	18.6	0.00e+00	0	40	0	342884352	58	7098
2026-01-19 11:53:10.18	52.17	9.33	-43.0	-44.7	18.7	0.00e+00	33	41	0	344981504	58	6938
2026-01-19 11:53:11.19	52.34	9.35	-42.7	-44.2	19.2	0.00e+00	44	40	0	346030080	58	6577
2026-01-19 11:53:12.20	52.51	9.38	-42.4	-43.9	19.4	0.00e+00	0	40	0	348127232	58	6330
2026-01-19 11:53:13.21	52.68	9.40	-42.2	-43.6	19.8	0.00e+00	92	41	0	350224384	58	6128
2026-01-19 11:53:14.22	52.85	9.42	-42.1	-43.5	19.8	0.00e+00	33	40	0	352321536	58	6052
2026-01-19 11:53:15.23	53.02	9.45	-42.0	-43.4	20.0	0.00e+00	28	41	0	354418688	58	5988
2026-01-19 11:53:16.24	53.19	9.47	-42.1	-43.5	19.8	0.00e+00	0	41	0	355467264	58	6062
2026-01-19 11:53:17.25	53.36	9.50	-42.2	-43.6	19.7	0.00e+00	33	40	0	357564416	58	6155
2026-01-19 11:53:18.26	53.53	9.52	-42.3	-43.7	19.6	0.00e+00	0	41	0	359661568	58	6229
2026-01-19 11:53:19.27	53.70	9.54	-42.4	-43.8	19.4	0.00e+00	0	41	0	361758720	58	6300
2026-01-19 11:53:20.27	53.87	9.57	-42.1	-43.5	19.9	0.00e+00	44	40	0	363855872	58	6083
2026-01-19 11:53:21.28	54.04	9.59	-42.1	-43.5	19.8	0.00e+00	0	41	0	364904448	58	6069
2026-01-19 11:53:22.29	54.22	9.61	-41.9	-43.3	20.1	0.00e+00	72	41	0	367001600	58	5918
2026-01-19 11:53:23.30	54.39	9.63	-41.7	-43.0	20.3	0.00e+00	0	40	0	369098752	56	6401
2026-01-19 11:53:24.31	54.56	9.66	-41.7	-43.0	20.4	0.00e+00	0	40	0	371195904	56	6421
2026-01-19 11:53:25.32	54.73	9.68	-41.6	-42.9	20.4	0.00e+00	0	40	0	373293056	56	6327
2026-01-19 11:53:26.33	54.91	9.70	-42.0	-43.3	20.1	0.00e+00	0	41	0	375390208	56	6654
2026-01-19 11:53:27.34	55.08	9.72	-41.8	-43.1	20.2	0.00e+00	55	41	0	376438784	56	6489
2026-01-19 11:53:28.35	55.25	9.74	-42.1	-43.5	19.8	0.00e+00	0	40	0	378535936	56	6811
2026-01-19 11:53:29.36	55.43	9.76	-42.4	-43.8	19.7	0.00e+00	92	40	0	380633088	56	7079
2026-01-19 11:53:30.37	55.60	9.78	-42.5	-44.0	19.4	0.00e+00	0	40	0	382730240	56	7199
2026-01-19 11:53:31.38	55.77	9.81	-42.5	-44.0	19.5	0.00e+00	0	41	0	384827392	56	7200
2026-01-19 11:53:32.39	55.95	9.83	-42.2	-43.6	19.8	0.00e+00	0	41	0	385875968	56	6904
2026-01-19 11:53:33.40	56.12	9.85	-42.1	-43.4	19.9	0.00e+00	0	40	0	387973120	56	6769
2026-01-19 11:53:34.41	56.30	9.87	-41.7	-43.0	20.3	0.00e+00	9	41	0	390070272	56	6453
2026-01-19 11:53:35.42	56.47	9.89	-41.7	-43.0	20.3	0.00e+00	0	41	0	392167424	56	6463
2026-01-19 11:53:36.43	56.65	9.91	-41.9	-43.3	20.1	0.00e+00	92	40	0	394264576	56	6652
2026-01-19 11:53:37.44	56.82	9.93	-42.0	-43.4	19.9	0.00e+00	0	40	0	395313152	56	6729
2026-01-19 11:53:38.45	57.00	9.94	-42.2	-43.6	19.8	0.00e+00	0	41	0	397410304	56	6927
2026-01-19 11:53:39.46	57.18	9.96	-42.6	-44.1	19.2	0.00e+00	0	40	0	399507456	56	7327
2026-01-19 11:53:40.46	57.35	9.98	-42.6	-44.2	19.2	0.00e+00	0	40	0	401604608	58	6577
2026-01-19 11:53:41.48	57.53	10.00	-42.5	-44.0	19.4	0.00e+00	42	41	0	403701760	58	6412
2026-01-19 11:53:42.49	57.70	10.02	-42.1	-43.5	19.9	0.00e+00	0	41	0	404750336	58	6085
2026-01-19 11:53:43.50	57.88	10.04	-41.8	-43.1	20.2	0.00e+00	90	41	0	406847488	58	5823
2026-01-19 11:53:44.51	58.06	10.06	-41.7	-43.0	20.2	0.00e+00	0	41	0	408944640	56	6418
2026-01-19 11:53:45.51	58.23	10.07	-41.6	-42.9	20.5	0.00e+00	0	40	0	411041792	56	6319
2026-01-19 11:53:46.52	58.41	10.09	-41.7	-43.0	20.4	0.00e+00	0	41	0	413138944	56	6391
2026-01-19 11:53:47.53	58.59	10.11	-41.7	-43.1	20.3	0.00e+00	0	41	0	414187520	56	6467
2026-01-19 11:53:48.54	58.77	10.13	-42.0	-43.4	20.0	0.00e+00	0	41	0	416284672	56	6700
2026-01-19 11:53:49.55	58.95	10.14	-42.2	-43.6	19.9	0.00e+00	0	40	0	418381824	56	6865
2026-01-19 11:53:50.56	59.12	10.16	-42.4	-43.8	19.6	0.00e+00	92	41	0	420478976	56	7070
2026-01-19 11:53:51.57	59.30	10.18	-42.5	-44.0	19.3	0.00e+00	0	41	0	422576128	56	7177
2026-01-19 11:53:52.58	59.48	10.19	-42.2	-43.7	19.8	0.00e+00	92	41	0	423624704	56	6934
2026-01-19 11:53:53.59	59.66	10.21	-42.3	-43.7	19.7	0.00e+00	0	41	0	425721856	56	6973
2026-01-19 11:53:54.60	59.84	10.22	-42.2	-43.6	19.8	0.00e+00	0	41	0	427819008	56	6897
2026-01-19 11:53:55.61	60.02	10.24	-42.5	-44.0	19.5	0.00e+00	0	40	0	429916160	56	7217
2026-01-19 11:53:56.62	60.20	10.25	-42.7	-44.2	19.2	0.00e+00	0	41	0	432013312	58	6605
2026-01-19 11:53:57.63	60.38	10.27	-43.1	-44.7	18.8	0.00e+00	91	41	0	433061888	58	6977
2026-01-19 11:53:58.63	60.56	10.28	-43.5	-45.3	18.2	0.00e+00	0	40	0	435159040	58	7473
2026-01-19 11:53:59.64	60.74	10.30	-44.0	-45.9	17.8	0.00e+00	47	40	0	437256192	60	7151
2026-01-19 11:54:00.65	60.92	10.31	-44.2	-46.2	17.5	0.00e+00	0	40	0	439353344	60	7351
2026-01-19 11:54:01.66	61.10	10.33	-44.2	-46.2	17.4	0.00e+00	0	41	0	441450496	60	7368
2026-01-19 11:54:02.67	61.28	10.34	-44.1	-46.1	17.6	0.00e+00	0	40	0	443547648	60	7260
2026-01-19 11:54:03.68	61.46	10.35	-43.7	-45.5	18.0	0.00e+00	0	40	0	444596224	60	6811
2026-01-19 11:54:04.69	61.64	10.37	-43.7	-45.5	18.2	0.00e+00	35	40	0	446693376	60	6818
2026-01-19 11:54:05.70	61.82	10.38	-43.4	-45.1	18.5	0.00e+00	0	40	0	448790528	60	6484
2026-01-19 11:54:06.71	62.00	10.39	-43.1	-44.8	18.8	0.00e+00	90	41	0	450887680	60	6248
2026-01-19 11:54:07.72	62.18	10.40	-43.1	-44.8	18.7	0.00e+00	0	40	0	452984832	60	6255
2026-01-19 11:54:08.73	62.36	10.42	-43.1	-44.8	18.7	0.00e+00	0	41	0	454033408	60	6279
2026-01-19 11:54:09.74	62.55	10.43	-43.1	-44.7	18.8	0.00e+00	0	41	0	456130560	60	6217
2026-01-19 11:54:10.75	62.73	10.44	-43.1	-44.8	18.7	0.00e+00	0	40	0	458227712	60	6248
2026-01-19 11:54:11.76	62.91	10.45	-43.1	-44.7	18.8	0.00e+00	36	40	0	460324864	60	6227
2026-01-19 11:54:12.77	63.09	10.46	-43.1	-44.8	18.7	0.00e+00	0	41	0	462422016	60	6253
2026-01-19 11:54:13.78	63.27	10.47	-42.9	-44.5	18.9	0.00e+00	65	41	0	463470592	60	6096
2026-01-19 11:54:14.79	63.46	10.49	-42.9	-44.5	19.0	0.00e+00	0	41	0	465567744	60	6054
2026-01-19 11:54:15.80	63.64	10.50	-42.7	-44.3	19.0	0.00e+00	40	40	0	467664896	60	5911
2026-01-19 11:54:16.81	63.82	10.51	-42.6	-44.1	19.3	0.00e+00	0	41	0	469762048	58	6507
2026-01-19 11:54:17.82	64.00	10.52	-42.6	-44.1	19.4	0.00e+00	0	41	0	471859200	58	6493
2026-01-19 11:54:18.83	64.19	10.53	-42.6	-44.1	19.3	0.00e+00	47	41	0	472907776	58	6529
2026-01-19 11:54:19.84	64.37	10.54	-42.6	-44.1	19.3	0.00e+00	0	41	0	475004928	58	6533
2026-01-19 11:54:20.85	64.55	10.54	-42.7	-44.2	19.3	0.00e+00	45	41	0	477102080	58	6607
2026-01-19 11:54:21.86	64.74	10.55	-42.6	-44.1	19.4	0.00e+00	0	40	0	479199232	58	6482
2026-01-19 11:54:22.87	64.92	10.56	-42.3	-43.8	19.6	0.00e+00	0	41	0	481296384	58	6299
2026-01-19 11:54:23.88	65.10	10.57	-42.3	-43.8	19.6	0.00e+00	0	41	0	482344960	58	6271
2026-01-19 11:54:24.89	65.29	10.58	-42.1	-43.5	19.9	0.00e+00	0	41	0	484442112	58	6059
2026-01-19 11:54:25.90	65.47	10.59	-41.8	-43.2	20.1	0.00e+00	50	40	0	486539264	58	5837
2026-01-19 11:54:26.91	65.65	10.59	-41.9	-43.2	20.1	0.00e+00	0	41	0	488636416	58	5881
2026-01-19 11:54:27.92	65.84	10.60	-41.8	-43.1	20.2	0.00e+00	90	41	0	490733568	56	6481
2026-01-19 11:54:28.93	66.02	10.61	-41.9	-43.2	20.1	0.00e+00	0	41	0	491782144	56	6587
2026-01-19 11:54:29.94	66.20	10.62	-41.9	-43.3	20.1	0.00e+00	78	41	0	493879296	56	6642
2026-01-19 11:54:30.95	66.39	10.62	-41.9	-43.3	20.0	0.00e+00	0	41	0	495976448	56	6677
2026-01-19 11:54:31.96	66.57	10.63	-42.0	-43.4	20.1	0.00e+00	0	41	0	498073600	56	6719
2026-01-19 11:54:32.97	66.76	10.64	-41.9	-43.3	20.0	0.00e+00	0	41	0	500170752	56	6681
2026-01-19 11:54:33.98	66.94	10.64	-41.8	-43.2	20.1	0.00e+00	0	41	0	501219328	56	6544
2026-01-19 11:54:34.99	67.13	10.65	-41.8	-43.1	20.2	0.00e+00	33	41	0	503316480	56	6494
2026-01-19 11:54:36.00	67.31	10.65	-41.8	-43.1	20.3	0.00e+00	0	41	0	505413632	56	6516
2026-01-19 11:54:37.01	67.50	10.66	-41.8	-43.1	20.4	0.00e+00	91	40	0	507510784	56	6485
2026-01-19 11:54:38.02	67.68	10.66	-41.7	-43.0	20.4	0.00e+00	0	40	0	509607936	56	6436
2026-01-19 11:54:39.03	67.86	10.67	-41.9	-43.2	20.2	0.00e+00	0	41	0	511705088	56	6589
2026-01-19 11:54:40.03	68.05	10.67	-41.8	-43.1	20.3	0.00e+00	0	41	0	512753664	56	6538
2026-01-19 11:54:41.04	68.23	10.68	-41.9	-43.2	20.1	0.00e+00	0	41	0	514850816	56	6608
2026-01-19 11:54:42.05	68.42	10.68	-41.9	-43.3	20.1	0.00e+00	50	41	0	516947968	56	6650
2026-01-19 11:54:43.06	68.60	10.68	-41.8	-43.1	20.1	0.00e+00	0	40	0	519045120	56	6536
2026-01-19 11:54:44.07	68.79	10.69	-41.6	-42.9	20.4	0.00e+00	92	41	0	521142272	56	6339
2026-01-19 11:54:45.08	68.97	10.69	-41.3	-42.5	20.7	0.00e+00	0	41	0	522190848	56	6082
2026-01-19 11:54:46.09	69.16	10.69	-41.2	-42.4	20.7	0.00e+00	0	41	0	524288000	56	6013
2026-01-19 11:54:47.10	69.34	10.70	-41.0	-42.2	21.0	0.00e+00	0	41	0	526385152	56	5870
2026-01-19 11:54:48.11	69.53	10.70	-41.1	-42.3	21.1	0.00e+00	0	40	0	528482304	56	5927
2026-01-19 11:54:49.12	69.71	10.70	-41.2	-42.4	20.8	0.00e+00	62	41	0	530579456	56	6001
2026-01-19 11:54:50.13	69.90	10.70	-41.2	-42.4	20.9	0.00e+00	0	41	0	531628032	56	5990
2026-01-19 11:54:51.14	70.08	10.70	-41.1	-42.3	20.9	0.00e+00	92	41	0	533725184	56	5963
2026-01-19 11:54:52.15	70.27	10.70	-41.1	-42.3	20.9	0.00e+00	0	41	0	535822336	56	5953
2026-01-19 11:54:53.16	70.45	10.71	-41.0	-42.2	21.0	0.00e+00	63	41	0	537919488	56	5840
2026-01-19 11:54:54.17	70.64	10.71	-40.8	-41.9	21.4	0.00e+00	33	41	0	540016640	56	5682
2026-01-19 11:54:55.17	70.82	10.71	-40.6	-41.7	21.5	0.00e+00	0	40	0	541065216	54	6220
2026-01-19 11:54:56.19	71.01	10.71	-40.6	-41.8	21.3	0.00e+00	0	41	0	543162368	54	6279
2026-01-19 11:54:57.19	71.19	10.71	-40.8	-42.0	21.2	0.00e+00	0	41	0	545259520	54	6410
2026-01-19 11:54:58.20	71.38	10.71	-40.9	-42.1	21.0	0.00e+00	92	40	0	547356672	54	6538
2026-01-19 11:54:59.21	71.56	10.71	-41.3	-42.6	20.5	0.00e+00	0	41	0	549453824	54	6860
2026-01-19 11:55:00.22	71.75	10.70	-41.6	-42.9	20.2	0.00e+00	92	40	0	550502400	54	7134
2026-01-19 11:55:01.23	71.93	10.70	-41.4	-42.7	20.5	0.00e+00	33	41	0	552599552	54	6966
2026-01-19 11:55:02.23	72.12	10.70	-41.3	-42.6	20.6	0.00e+00	0	40	0	554696704	54	6870
2026-01-19 11:55:03.24	72.30	10.70	-41.2	-42.5	20.7	0.00e+00	0	40	0	556793856	54	6822
2026-01-19 11:55:04.26	72.49	10.70	-41.0	-42.3	20.9	0.00e+00	33	41	0	558891008	54	6632
2026-01-19 11:55:05.26	72.67	10.70	-40.9	-42.1	21.0	0.00e+00	85	41	0	559939584	54	6534
2026-01-19 11:55:06.27	72.86	10.69	-40.9	-42.2	21.0	0.00e+00	0	41	0	562036736	54	6547
2026-01-19 11:55:07.29	73.04	10.69	-40.9	-42.2	20.9	0.00e+00	91	40	0	564133888	54	6542
2026-01-19 11:55:08.30	73.23	10.69	-40.7	-42.0	21.2	0.00e+00	0	41	0	566231040	54	6401
2026-01-19 11:55:09.30	73.41	10.68	-41.0	-42.3	20.9	0.00e+00	0	41	0	568328192	54	6644
2026-01-19 11:55:10.31	73.60	10.68	-41.0	-42.2	21.0	0.00e+00	0	40	0	569376768	54	6593
2026-01-19 11:55:11.32	73.78	10.68	-41.2	-42.5	20.7	0.00e+00	0	41	0	571473920	54	6812
2026-01-19 11:55:12.33	73.97	10.67	-41.0	-42.2	20.9	0.00e+00	76	41	0	573571072	54	6599
2026-01-19 11:55:13.34	74.15	10.67	-40.9	-42.2	21.0	0.00e+00	0	40	0	575668224	54	6608
2026-01-19 11:55:14.35	74.34	10.66	-40.7	-42.0	21.1	0.00e+00	90	41	0	577765376	54	6396
2026-01-19 11:55:15.36	74.52	10.66	-40.5	-41.8	20.8	0.00e+00	0	40	0	579862528	54	6258
2026-01-19 11:55:16.37	74.71	10.65	-40.7	-42.0	21.1	0.00e+00	0	40	0	580911104	54	6421
2026-01-19 11:55:17.38	74.89	10.65	-40.4	-41.7	21.5	0.00e+00	0	41	0	583008256	54	6183
2026-01-19 11:55:18.39	75.07	10.64	-40.4	-41.6	21.4	0.00e+00	0	40	0	585105408	54	6141
2026-01-19 11:55:19.40	75.26	10.64	-40.3	-41.5	21.6	0.00e+00	9	40	0	587202560	54	6053
2026-01-19 11:55:20.41	75.44	10.63	-40.4	-41.6	21.4	0.00e+00	0	40	0	589299712	54	6157
2026-01-19 11:55:21.42	75.63	10.63	-40.4	-41.6	21.4	0.00e+00	90	40	0	590348288	54	6172
2026-01-19 11:55:22.43	75.81	10.62	-40.4	-41.6	21.5	0.00e+00	0	40	0	592445440	54	6148
2026-01-19 11:55:23.44	76.00	10.61	-40.6	-41.8	21.4	0.00e+00	0	41	0	594542592	54	6280
2026-01-19 11:55:24.45	76.18	10.60	-40.2	-41.4	21.7	0.00e+00	0	40	0	596639744	54	5987
2026-01-19 11:55:25.46	76.36	10.60	-40.1	-41.3	21.8	0.00e+00	0	41	0	597688320	54	5920
2026-01-19 11:55:26.47	76.55	10.59	-39.8	-40.9	21.6	0.00e+00	18	40	0	599785472	54	5694
2026-01-19 11:55:27.48	76.73	10.58	-39.7	-40.9	22.1	0.00e+00	0	40	0	601882624	52	6369
2026-01-19 11:55:28.49	76.92	10.57	-39.6	-40.8	22.2	0.00e+00	92	40	0	603979776	52	6288
2026-01-19 11:55:29.50	77.10	10.56	-39.5	-40.8	22.2	0.00e+00	0	40	0	606076928	52	6247
2026-01-19 11:55:30.50	77.28	10.56	-39.5	-40.8	22.2	0.00e+00	80	40	0	608174080	52	6251
2026-01-19 11:55:31.51	77.46	10.55	-39.7	-41.0	22.0	0.00e+00	0	40	0	609222656	52	6420
2026-01-19 11:55:32.52	77.65	10.54	-39.9	-41.2	21.9	0.00e+00	0	41	0	611319808	52	6572
2026-01-19 11:55:33.53	77.83	10.53	-40.1	-41.4	21.6	0.00e+00	31	40	0	613416960	52	6758
2026-01-19 11:55:34.54	78.01	10.52	-40.2	-41.5	21.6	0.00e+00	0	41	0	615514112	52	6819
2026-01-19 11:55:35.55	78.20	10.51	-40.2	-41.4	21.6	0.00e+00	92	41	0	617611264	52	6742
2026-01-19 11:55:36.56	78.38	10.50	-40.1	-41.4	21.7	0.00e+00	0	40	0	618659840	52	6710
2026-01-19 11:55:37.57	78.56	10.49	-40.1	-41.3	21.8	0.00e+00	91	41	0	620756992	52	6659
2026-01-19 11:55:38.58	78.75	10.48	-40.0	-41.1	21.9	0.00e+00	0	40	0	622854144	52	6537
2026-01-19 11:55:39.59	78.93	10.47	-40.0	-41.1	21.9	0.00e+00	0	41	0	624951296	52	6521
2026-01-19 11:55:40.60	79.11	10.46	-40.1	-41.2	21.8	0.00e+00	9	41	0	627048448	52	6609
2026-01-19 11:55:41.61	79.29	10.44	-40.2	-41.3	21.8	0.00e+00	0	41	0	628097024	52	6618
2026-01-19 11:55:42.62	79.47	10.43	-40.2	-41.3	21.8	0.00e+00	92	41	0	630194176	52	6662
2026-01-19 11:55:43.63	79.66	10.42	-40.2	-41.2	21.8	0.00e+00	0	41	0	632291328	52	6612
2026-01-19 11:55:44.64	79.84	10.41	-40.2	-41.4	21.7	0.00e+00	92	41	0	634388480	52	6698
2026-01-19 11:55:45.64	80.02	10.40	-40.2	-41.4	21.6	0.00e+00	0	41	0	636485632	52	6695
2026-01-19 11:55:46.65	80.20	10.38	-40.3	-41.5	21.6	0.00e+00	0	41	0	637534208	52	6771
2026-01-19 11:55:47.67	80.38	10.37	-40.3	-41.4	21.6	0.00e+00	0	41	0	639631360	52	6744
2026-01-19 11:55:48.67	80.56	10.36	-40.3	-41.5	21.5	0.00e+00	0	41	0	641728512	52	6780
2026-01-19 11:55:49.68	80.74	10.34	-40.3	-41.4	21.5	0.00e+00	41	41	0	643825664	52	6727
2026-01-19 11:55:50.69	80.92	10.33	-40.4	-41.5	21.4	0.00e+00	0	41	0	645922816	52	6818
2026-01-19 11:55:51.70	81.10	10.32	-40.5	-41.6	21.3	0.00e+00	75	41	0	646971392	52	6917
2026-01-19 11:55:52.71	81.29	10.30	-40.5	-41.7	21.2	0.00e+00	0	41	0	649068544	52	6950
2026-01-19 11:55:53.73	81.47	10.29	-40.6	-41.9	21.2	0.00e+00	0	41	0	651165696	52	7109
2026-01-19 11:55:54.73	81.65	10.27	-40.7	-42.0	21.1	0.00e+00	0	41	0	653262848	52	7179
2026-01-19 11:55:55.74	81.83	10.26	-40.7	-42.0	21.0	0.00e+00	0	41	0	655360000	54	6452
2026-01-19 11:55:56.75	82.01	10.24	-40.8	-42.1	20.8	0.00e+00	29	41	0	656408576	54	6513
2026-01-19 11:55:57.76	82.19	10.23	-41.1	-42.4	20.6	0.00e+00	0	41	0	658505728	54	6744
2026-01-19 11:55:58.77	82.37	10.21	-41.1	-42.4	20.6	0.00e+00	56	41	0	660602880	54	6719
2026-01-19 11:55:59.78	82.54	10.19	-40.9	-42.1	20.8	0.00e+00	0	41	0	662700032	54	6529
2026-01-19 11:56:00.79	82.72	10.18	-40.8	-42.1	20.7	0.00e+00	0	41	0	664797184	54	6472
2026-01-19 11:56:01.80	82.90	10.16	-40.6	-41.8	21.2	0.00e+00	0	41	0	665845760	54	6284
2026-01-19 11:56:02.81	83.08	10.15	-40.6	-41.7	21.3	0.00e+00	0	41	0	667942912	54	6228
2026-01-19 11:56:03.82	83.26	10.13	-40.5	-41.7	21.3	0.00e+00	29	41	0	670040064	54	6197
2026-01-19 11:56:04.83	83.44	10.11	-40.1	-41.2	21.7	0.00e+00	0	41	0	672137216	54	5853
2026-01-19 11:56:05.84	83.62	10.09	-40.1	-41.2	21.6	0.00e+00	69	41	0	674234368	54	5879
2026-01-19 11:56:06.85	83.79	10.08	-39.7	-40.8	22.0	0.00e+00	0	41	0	676331520	52	6263
2026-01-19 11:56:07.86	83.97	10.06	-39.7	-40.7	22.1	0.00e+00	0	41	0	677380096	52	6227
2026-01-19 11:56:08.87	84.15	10.04	-39.7	-40.7	22.0	0.00e+00	0	41	0	679477248	52	6221
2026-01-19 11:56:09.88	84.33	10.02	-39.5	-40.5	22.3	0.00e+00	0	41	0	681574400	52	6053
2026-01-19 11:56:10.88	84.50	10.01	-39.3	-40.3	22.5	0.00e+00	47	41	0	683671552	52	5898
2026-01-19 11:56:11.89	84.68	9.99	-39.1	-40.0	22.6	0.00e+00	0	41	0	685768704	52	5748
2026-01-19 11:56:12.90	84.86	9.97	-39.0	-39.9	22.7	0.00e+00	91	41	0	686817280	52	5690
2026-01-19 11:56:13.91	85.03	9.95	-39.0	-39.9	22.8	0.00e+00	0	41	0	688914432	52	5670
2026-01-19 11:56:14.92	85.21	9.93	-39.1	-40.1	22.7	0.00e+00	92	41	0	691011584	52	5803
2026-01-19 11:56:15.93	85.38	9.91	-39.2	-40.1	22.6	0.00e+00	0	41	0	693108736	52	5813
2026-01-19 11:56:16.94	85.56	9.89	-39.5	-40.5	22.2	0.00e+00	0	41	0	695205888	52	6063
2026-01-19 11:56:17.95	85.74	9.87	-39.7	-40.7	22.2	0.00e+00	0	41	0	696254464	52	6193
2026-01-19 11:56:18.97	85.91	9.85	-39.7	-40.7	22.1	0.00e+00	0	41	0	698351616	52	6239
2026-01-19 11:56:19.97	86.09	9.83	-39.7	-40.8	22.1	0.00e+00	43	41	0	700448768	52	6271
2026-01-19 11:56:20.98	86.26	9.81	-39.7	-40.8	22.1	0.00e+00	0	41	0	702545920	52	6253
2026-01-19 11:56:21.99	86.44	9.79	-39.8	-40.9	22.0	0.00e+00	92	41	0	704643072	52	6355
2026-01-19 11:56:23.00	86.61	9.77	-39.8	-40.9	22.1	0.00e+00	0	41	0	705691648	52	6345
2026-01-19 11:56:24.01	86.78	9.75	-39.8	-40.9	22.1	0.00e+00	0	41	0	707788800	52	6330
2026-01-19 11:56:25.02	86.96	9.72	-39.8	-40.9	21.9	0.00e+00	0	40	0	709885952	52	6372
2026-01-19 11:56:26.03	87.13	9.70	-39.9	-41.0	21.9	0.00e+00	0	40	0	711983104	52	6418
2026-01-19 11:56:27.04	87.31	9.68	-40.0	-41.1	21.8	0.00e+00	46	40	0	714080256	52	6512
2026-01-19 11:56:28.05	87.48	9.66	-40.0	-41.0	21.9	0.00e+00	0	41	0	715128832	52	6449
2026-01-19 11:56:29.06	87.65	9.64	-40.0	-41.1	21.9	0.00e+00	92	41	0	717225984	52	6482
2026-01-19 11:56:30.07	87.82	9.61	-40.0	-41.0	21.8	0.00e+00	0	41	0	719323136	52	6464
2026-01-19 11:56:31.08	88.00	9.59	-40.1	-41.2	21.8	0.00e+00	0	41	0	721420288	52	6575
2026-01-19 11:56:32.09	88.17	9.57	-40.1	-41.3	21.6	0.00e+00	0	40	0	723517440	52	6623
2026-01-19 11:56:33.10	88.34	9.54	-40.1	-41.3	21.6	0.00e+00	0	40	0	724566016	52	6642
2026-01-19 11:56:34.11	88.51	9.52	-40.0	-41.3	21.7	0.00e+00	20	40	0	726663168	52	6625
2026-01-19 11:56:35.12	88.68	9.50	-39.6	-41.0	22.0	0.00e+00	0	41	0	728760320	52	6391
2026-01-19 11:56:36.13	88.85	9.47	-39.3	-40.6	22.2	0.00e+00	92	41	0	730857472	52	6140
2026-01-19 11:56:37.14	89.03	9.45	-39.1	-40.4	22.5	0.00e+00	0	40	0	732954624	52	5988
2026-01-19 11:56:38.15	89.20	9.43	-39.0	-40.2	22.6	0.00e+00	0	41	0	734003200	52	5857
2026-01-19 11:56:39.16	89.37	9.40	-39.1	-40.1	22.7	0.00e+00	0	41	0	736100352	52	5803
2026-01-19 11:56:40.17	89.54	9.38	-39.3	-40.3	22.5	0.00e+00	0	41	0	738197504	52	5940
2026-01-19 11:56:41.18	89.71	9.35	-39.5	-40.5	22.3	0.00e+00	41	41	0	740294656	52	6057
2026-01-19 11:56:42.19	89.88	9.33	-39.6	-40.6	22.3	0.00e+00	0	41	0	742391808	52	6134
2026-01-19 11:56:43.20	90.04	9.30	-39.7	-40.8	22.0	0.00e+00	90	41	0	744488960	52	6295
2026-01-19 11:56:44.21	90.21	9.28	-39.7	-40.9	22.1	0.00e+00	0	40	0	745537536	52	6367
2026-01-19 11:56:45.22	90.38	9.25	-39.7	-41.0	21.9	0.00e+00	90	40	0	747634688	52	6437
2026-01-19 11:56:46.23	90.55	9.23	-39.5	-40.9	22.1	0.00e+00	0	41	0	749731840	52	6340
2026-01-19 11:56:47.24	90.72	9.20	-39.5	-40.9	22.1	0.00e+00	0	40	0	751828992	52	6339
2026-01-19 11:56:48.24	90.88	9.17	-39.7	-40.9	22.0	0.00e+00	33	40	0	753926144	52	6385
2026-01-19 11:56:49.25	91.05	9.15	-39.7	-40.9	22.1	0.00e+00	0	41	0	754974720	52	6321
2026-01-19 11:56:50.27	91.22	9.12	-39.7	-40.9	22.1	0.00e+00	90	41	0	757071872	52	6321
2026-01-19 11:56:51.28	91.39	9.10	-39.7	-41.0	21.9	0.00e+00	0	41	0	759169024	52	6424
2026-01-19 11:56:52.29	91.55	9.07	-39.8	-41.1	21.8	0.00e+00	90	41	0	761266176	52	6517
2026-01-19 11:56:53.30	91.72	9.04	-40.0	-41.3	21.6	0.00e+00	0	41	0	763363328	52	6671
2026-01-19 11:56:54.31	91.89	9.01	-40.2	-41.6	21.4	0.00e+00	0	41	0	764411904	52	6876
2026-01-19 11:56:55.31	92.05	8.99	-40.4	-41.7	21.3	0.00e+00	0	40	0	766509056	52	6992
2026-01-19 11:56:56.32	92.22	8.96	-40.7	-41.9	21.1	0.00e+00	0	41	0	768606208	54	6381
2026-01-19 11:56:57.33	92.38	8.93	-40.9	-42.1	20.9	0.00e+00	45	41	0	770703360	54	6526
2026-01-19 11:56:58.34	92.55	8.90	-41.1	-42.4	20.6	0.00e+00	0	40	0	772800512	54	6734
2026-01-19 11:56:59.35	92.71	8.88	-41.2	-42.5	20.5	0.00e+00	92	40	0	773849088	54	6790
2026-01-19 11:57:00.36	92.87	8.85	-41.5	-42.8	20.2	0.00e+00	0	40	0	775946240	54	7084
2026-01-19 11:57:01.37	93.04	8.82	-41.5	-42.9	20.1	0.00e+00	0	41	0	778043392	54	7123
2026-01-19 11:57:02.38	93.20	8.79	-41.3	-42.7	20.3	0.00e+00	0	41	0	780140544	54	6940
2026-01-19 11:57:03.39	93.37	8.76	-41.3	-42.6	20.3	0.00e+00	0	40	0	782237696	54	6916
2026-01-19 11:57:04.40	93.53	8.73	-41.4	-42.7	20.3	0.00e+00	39	41	0	783286272	54	6991
2026-01-19 11:57:05.41	93.69	8.70	-41.3	-42.7	20.4	0.00e+00	0	41	0	785383424	54	6944
2026-01-19 11:57:06.42	93.85	8.68	-41.4	-42.8	20.3	0.00e+00	92	41	0	787480576	54	7044
2026-01-19 11:57:07.43	94.02	8.65	-41.4	-42.8	20.0	0.00e+00	0	41	0	789577728	54	7060
2026-01-19 11:57:08.44	94.18	8.62	-41.4	-42.7	20.4	0.00e+00	0	41	0	791674880	54	6954
2026-01-19 11:57:09.45	94.34	8.59	-41.4	-42.7	20.2	0.00e+00	0	41	0	792723456	54	6982
2026-01-19 11:57:10.46	94.50	8.56	-41.4	-42.7	20.3	0.00e+00	0	41	0	794820608	54	6980
2026-01-19 11:57:11.47	94.66	8.53	-41.5	-42.9	20.2	0.00e+00	38	41	0	796917760	54	7117
2026-01-19 11:57:12.48	94.82	8.50	-41.5	-42.9	20.1	0.00e+00	0	41	0	799014912	54	7157
2026-01-19 11:57:13.49	94.98	8.47	-41.5	-42.9	20.2	0.00e+00	91	41	0	801112064	54	7159
2026-01-19 11:57:14.50	95.14	8.44	-41.2	-42.8	20.3	0.00e+00	0	41	0	802160640	54	7020
2026-01-19 11:57:15.51	95.30	8.41	-41.5	-43.0	20.1	0.00e+00	44	41	0	804257792	54	7240
2026-01-19 11:57:16.52	95.46	8.37	-41.6	-43.2	19.9	0.00e+00	0	41	0	806354944	54	7352
2026-01-19 11:57:17.53	95.62	8.34	-41.8	-43.4	19.8	0.00e+00	0	41	0	808452096	56	6716
2026-01-19 11:57:18.54	95.78	8.31	-41.9	-43.5	19.7	0.00e+00	39	41	0	810549248	56	6795
2026-01-19 11:57:19.54	95.93	8.28	-42.0	-43.6	19.6	0.00e+00	0	41	0	812646400	56	6879
2026-01-19 11:57:20.55	96.09	8.25	-41.9	-43.4	19.8	0.00e+00	92	41	0	813694976	56	6701
2026-01-19 11:57:21.56	96.25	8.22	-41.9	-43.3	19.8	0.00e+00	0	41	0	815792128	56	6690
2026-01-19 11:57:22.57	96.41	8.19	-42.1	-43.6	19.6	0.00e+00	0	41	0	817889280	56	6882
2026-01-19 11:57:23.58	96.56	8.16	-42.0	-43.4	19.6	0.00e+00	0	41	0	819986432	56	6769
2026-01-19 11:57:24.59	96.72	8.12	-42.0	-43.4	19.7	0.00e+00	0	41	0	822083584	56	6731
2026-01-19 11:57:25.60	96.88	8.09	-42.1	-43.5	19.4	0.00e+00	0	41	0	823132160	56	6828
2026-01-19 11:57:26.61	97.03	8.06	-42.3	-43.8	19.3	0.00e+00	0	40	0	825229312	56	7060
2026-01-19 11:57:27.62	97.19	8.03	-42.7	-44.3	18.8	0.00e+00	38	41	0	827326464	56	7451
2026-01-19 11:57:28.63	97.34	7.99	-42.7	-44.4	18.7	0.00e+00	0	41	0	829423616	58	6736
2026-01-19 11:57:29.64	97.50	7.96	-43.1	-45.0	18.3	0.00e+00	69	41	0	831520768	58	7187
2026-01-19 11:57:30.65	97.65	7.93	-43.1	-45.0	18.1	0.00e+00	0	41	0	832569344	58	7206
2026-01-19 11:57:31.66	97.81	7.90	-42.7	-44.7	18.2	0.00e+00	0	41	0	834666496	58	6942
2026-01-19 11:57:32.67	97.96	7.86	-42.8	-44.8	18.2	0.00e+00	0	41	0	836763648	58	7039
2026-01-19 11:57:33.68	98.11	7.83	-42.6	-44.6	18.5	0.00e+00	0	41	0	838860800	58	6896
2026-01-19 11:57:34.69	98.27	7.80	-42.5	-44.5	18.5	0.00e+00	39	41	0	840957952	58	6833
2026-01-19 11:57:35.70	98.42	7.76	-42.3	-44.4	18.6	0.00e+00	0	41	0	842006528	58	6752
2026-01-19 11:57:36.70	98.57	7.73	-42.3	-44.3	18.7	0.00e+00	92	41	0	844103680	58	6681
2026-01-19 11:57:37.71	98.72	7.70	-42.3	-44.4	18.7	0.00e+00	0	41	0	846200832	58	6745
2026-01-19 11:57:38.72	98.87	7.66	-42.2	-44.3	18.7	0.00e+00	0	41	0	848297984	58	6658
2026-01-19 11:57:39.73	99.03	7.63	-42.3	-44.3	18.9	0.00e+00	0	41	0	850395136	58	6621
2026-01-19 11:57:40.74	99.18	7.59	-42.2	-44.1	19.0	0.00e+00	0	41	0	851443712	58	6535
2026-01-19 11:57:41.75	99.33	7.56	-42.5	-44.3	18.9	0.00e+00	48	41	0	853540864	58	6628
2026-01-19 11:57:42.76	99.48	7.53	-42.4	-44.1	19.0	0.00e+00	0	41	0	855638016	58	6512
2026-01-19 11:57:43.77	99.63	7.49	-42.6	-44.3	18.9	0.00e+00	47	41	0	857735168	58	6635
2026-01-19 11:57:44.78	99.78	7.46	-42.5	-44.2	18.9	0.00e+00	0	41	0	859832320	58	6540
2026-01-19 11:57:45.79	99.93	7.42	-42.5	-44.2	18.9	0.00e+00	0	41	0	860880896	58	6582
2026-01-19 11:57:46.79	100.08	7.39	-42.7	-44.3	18.8	0.00e+00	0	41	0	862978048	58	6686
2026-01-19 11:57:47.80	100.22	7.35	-42.7	-44.4	18.7	0.00e+00	0	41	0	865075200	58	6765
2026-01-19 11:57:48.81	100.37	7.32	-42.6	-44.4	18.6	0.00e+00	49	41	0	867172352	58	6756
2026-01-19 11:57:49.82	100.52	7.28	-42.6	-44.6	18.5	0.00e+00	0	41	0	869269504	58	6902
2026-01-19 11:57:50.83	100.67	7.25	-42.6	-44.6	18.6	0.00e+00	90	41	0	870318080	58	6876
2026-01-19 11:57:51.84	100.82	7.21	-42.7	-44.6	18.5	0.00e+00	0	41	0	872415232	58	6889
2026-01-19 11:57:52.85	100.96	7.18	-42.9	-44.7	18.3	0.00e+00	76	41	0	874512384	58	6959
2026-01-19 11:57:53.86	101.11	7.14	-42.9	-44.7	18.2	0.00e+00	0	41	0	876609536	58	6981
2026-01-19 11:57:54.87	101.26	7.11	-42.7	-44.5	18.4	0.00e+00	33	41	0	878706688	58	6796
2026-01-19 11:57:55.88	101.40	7.07	-42.7	-44.5	18.4	0.00e+00	45	41	0	880803840	58	6847
2026-01-19 11:57:56.89	101.55	7.03	-42.5	-44.2	18.7	0.00e+00	0	41	0	881852416	58	6591
2026-01-19 11:57:57.90	101.69	7.00	-42.5	-44.2	18.7	0.00e+00	79	41	0	883949568	58	6588
2026-01-19 11:57:58.91	101.84	6.96	-42.1	-44.1	18.8	0.00e+00	0	41	0	886046720	58	6487
2026-01-19 11:57:59.92	101.98	6.93	-41.7	-44.0	18.8	0.00e+00	30	41	0	888143872	56	7233
2026-01-19 11:58:00.93	102.13	6.89	-41.4	-44.2	18.6	0.00e+00	0	41	0	890241024	56	7365
2026-01-19 11:58:01.94	102.27	6.85	-41.3	-44.1	18.4	0.00e+00	0	41	0	891289600	56	7303
2026-01-19 11:58:02.95	102.42	6.82	-41.5	-44.1	18.6	0.00e+00	0	41	0	893386752	56	7296
2026-01-19 11:58:03.96	102.56	6.78	-41.8	-44.1	18.7	0.00e+00	0	41	0	895483904	56	7331
2026-01-19 11:58:04.97	102.70	6.74	-42.0	-44.0	19.0	0.00e+00	92	41	0	897581056	56	7183
2026-01-19 11:58:05.98	102.84	6.71	-42.3	-44.1	18.9	0.00e+00	0	41	0	899678208	56	7269
2026-01-19 11:58:06.99	102.99	6.67	-42.1	-43.7	19.3	0.00e+00	91	41	0	900726784	56	6967
2026-01-19 11:58:08.00	103.13	6.63	-42.1	-43.6	19.4	0.00e+00	0	41	0	902823936	56	6899
2026-01-19 11:58:09.01	103.27	6.59	-42.0	-43.5	19.4	0.00e+00	0	41	0	904921088	56	6810
2026-01-19 11:58:10.02	103.41	6.56	-41.8	-43.3	19.6	0.00e+00	0	41	0	907018240	56	6658
2026-01-19 11:58:11.03	103.55	6.52	-41.9	-43.4	19.6	0.00e+00	0	41	0	909115392	56	6733
2026-01-19 11:58:12.04	103.69	6.48	-42.0	-43.4	19.5	0.00e+00	43	41	0	910163968	56	6752
2026-01-19 11:58:13.05	103.83	6.45	-42.0	-43.5	19.5	0.00e+00	0	41	0	912261120	56	6797
2026-01-19 11:58:14.06	103.97	6.41	-42.1	-43.7	19.3	0.00e+00	92	41	0	914358272	56	6972
2026-01-19 11:58:15.07	104.11	6.37	-42.1	-43.6	19.3	0.00e+00	0	41	0	916455424	56	6918
2026-01-19 11:58:16.07	104.25	6.33	-42.0	-43.5	19.4	0.00e+00	0	41	0	918552576	56	6842
2026-01-19 11:58:17.08	104.39	6.30	-42.1	-43.6	19.2	0.00e+00	0	41	0	919601152	56	6918
2026-01-19 11:58:18.09	104.53	6.26	-42.1	-43.5	19.3	0.00e+00	0	41	0	921698304	56	6846
2026-01-19 11:58:19.10	104.67	6.22	-42.0	-43.5	19.3	0.00e+00	14	41	0	923795456	56	6829
2026-01-19 11:58:20.11	104.80	6.18	-42.3	-43.8	19.0	0.00e+00	0	41	0	925892608	56	7067
2026-01-19 11:58:21.12	104.94	6.14	-42.1	-43.8	19.1	0.00e+00	91	41	0	927989760	56	7059
2026-01-19 11:58:22.13	105.08	6.10	-41.6	-43.6	19.3	0.00e+00	0	41	0	929038336	56	6868
2026-01-19 11:58:23.14	105.21	6.07	-41.5	-43.7	19.2	0.00e+00	0	41	0	931135488	56	6943
2026-01-19 11:58:24.15	105.35	6.03	-41.5	-43.6	19.3	0.00e+00	0	41	0	933232640	56	6857
2026-01-19 11:58:25.16	105.49	5.99	-41.8	-43.7	19.1	0.00e+00	33	41	0	935329792	56	6938
2026-01-19 11:58:26.17	105.62	5.95	-42.0	-43.6	19.2	0.00e+00	38	41	0	937426944	56	6872
2026-01-19 11:58:27.18	105.76	5.91	-42.2	-43.7	19.1	0.00e+00	0	41	0	938475520	56	6958
2026-01-19 11:58:28.19	105.89	5.87	-42.3	-43.9	19.0	0.00e+00	90	41	0	940572672	56	7107
2026-01-19 11:58:29.20	106.03	5.84	-42.1	-43.8	18.9	0.00e+00	0	41	0	942669824	56	7088
2026-01-19 11:58:30.21	106.16	5.80	-42.0	-43.8	18.9	0.00e+00	32	41	0	944766976	56	7078
2026-01-19 11:58:31.22	106.30	5.76	-41.9	-44.0	18.8	0.00e+00	0	41	0	946864128	56	7182
2026-01-19 11:58:32.23	106.43	5.72	-41.6	-43.6	19.1	0.00e+00	0	41	0	948961280	56	6889
2026-01-19 11:58:33.24	106.56	5.68	-41.7	-43.6	19.3	0.00e+00	33	41	0	950009856	56	6903
2026-01-19 11:58:34.25	106.70	5.64	-41.8	-43.5	19.2	0.00e+00	0	41	0	952107008	56	6837
2026-01-19 11:58:35.25	106.83	5.60	-41.8	-43.4	19.5	0.00e+00	92	41	0	954204160	56	6726
2026-01-19 11:58:36.26	106.96	5.56	-41.9	-43.5	19.3	0.00e+00	0	41	0	956301312	56	6816
2026-01-19 11:58:37.27	107.09	5.52	-41.6	-43.1	19.7	0.00e+00	92	41	0	958398464	56	6471
2026-01-19 11:58:38.28	107.22	5.48	-41.3	-42.9	19.9	0.00e+00	0	41	0	959447040	56	6350
2026-01-19 11:58:39.29	107.35	5.44	-41.3	-42.8	19.9	0.00e+00	0	41	0	961544192	56	6315
2026-01-19 11:58:40.30	107.49	5.40	-41.1	-42.7	20.0	0.00e+00	0	41	0	963641344	56	6190
2026-01-19 11:58:41.31	107.62	5.37	-41.1	-42.8	19.9	0.00e+00	0	41	0	965738496	56	6291
2026-01-19 11:58:42.32	107.75	5.33	-41.0	-42.8	20.0	0.00e+00	36	41	0	967835648	56	6272
2026-01-19 11:58:43.33	107.88	5.29	-41.1	-42.9	19.8	0.00e+00	0	41	0	968884224	56	6380
2026-01-19 11:58:44.34	108.01	5.25	-41.2	-42.9	19.7	0.00e+00	72	41	0	970981376	56	6353
2026-01-19 11:58:45.35	108.13	5.21	-41.3	-43.1	19.4	0.00e+00	0	41	0	973078528	56	6530
2026-01-19 11:58:46.36	108.26	5.17	-41.3	-43.1	19.5	0.00e+00	0	41	0	975175680	56	6523
2026-01-19 11:58:47.36	108.39	5.13	-41.2	-43.2	19.6	0.00e+00	0	41	0	977272832	56	6567
2026-01-19 11:58:48.38	108.52	5.09	-40.9	-42.9	19.7	0.00e+00	0	41	0	978321408	56	6380
2026-01-19 11:58:49.39	108.65	5.05	-40.7	-42.6	20.0	0.00e+00	44	41	0	980418560	54	6864
2026-01-19 11:58:50.39	108.77	5.01	-40.8	-42.5	20.0	0.00e+00	0	41	0	982515712	54	6835
2026-01-19 11:58:51.40	108.90	4.97	-41.1	-42.6	19.9	0.00e+00	92	41	0	984612864	54	6912
2026-01-19 11:58:52.41	109.03	4.93	-40.9	-42.4	20.2	0.00e+00	0	41	0	986710016	54	6764
2026-01-19 11:58:53.42	109.15	4.89	-40.9	-42.5	20.1	0.00e+00	0	41	0	987758592	54	6812
2026-01-19 11:58:54.43	109.28	4.85	-40.9	-42.6	19.8	0.00e+00	0	41	0	989855744	54	6911
2026-01-19 11:58:55.44	109.41	4.81	-41.1	-42.9	19.7	0.00e+00	0	41	0	991952896	54	7122
2026-01-19 11:58:56.45	109.53	4.76	-41.2	-42.8	19.8	0.00e+00	30	41	0	994050048	54	7044
2026-01-19 11:58:57.46	109.66	4.72	-41.5	-43.0	19.7	0.00e+00	0	41	0	996147200	54	7231
2026-01-19 11:58:58.47	109.78	4.68	-41.7	-43.3	19.3	0.00e+00	90	41	0	997195776	56	6636
2026-01-19 11:58:59.48	109.91	4.64	-41.9	-43.5	19.2	0.00e+00	0	41	0	999292928	56	6829
2026-01-19 11:59:00.49	110.03	4.60	-42.0	-43.8	18.8	0.00e+00	79	41	0	1001390080	56	7071
2026-01-19 11:59:01.50	110.15	4.56	-41.8	-43.7	18.9	0.00e+00	0	41	0	1003487232	56	6990
2026-01-19 11:59:02.51	110.28	4.52	-42.2	-44.1	18.4	0.00e+00	0	41	0	1005584384	56	7304
2026-01-19 11:59:03.52	110.40	4.48	-42.2	-43.9	18.7	0.00e+00	30	41	0	1006632960	56	7095
2026-01-19 11:59:04.53	110.52	4.44	-42.2	-43.8	18.9	0.00e+00	0	41	0	1008730112	56	7016
2026-01-19 11:59:05.54	110.65	4.40	-42.1	-43.8	18.9	0.00e+00	92	41	0	1010827264	56	7033
2026-01-19 11:59:06.55	110.77	4.36	-41.9	-43.8	18.8	0.00e+00	0	41	0	1012924416	56	7022
2026-01-19 11:59:07.56	110.89	4.32	-41.6	-43.7	18.7	0.00e+00	0	41	0	1015021568	56	6937
2026-01-19 11:59:08.57	111.01	4.28	-41.9	-43.9	18.6	0.00e+00	0	41	0	1017118720	56	7144
2026-01-19 11:59:09.58	111.13	4.23	-42.4	-44.5	17.9	0.00e+00	0	41	0	1018167296	56	7598
2026-01-19 11:59:10.59	111.25	4.19	-42.5	-44.6	18.0	0.00e+00	0	41	0	1020264448	56	7718
2026-01-19 11:59:11.60	111.38	4.15	-42.5	-44.8	17.3	0.00e+00	0	41	0	1022361600	56	7903
2026-01-19 11:59:12.61	111.50	4.11	-42.3	-44.7	17.6	0.00e+00	92	41	0	1024458752	56	7811
2026-01-19 11:59:13.62	111.62	4.07	-42.6	-45.0	17.2	0.00e+00	0	41	0	1026555904	56	8120
2026-01-19 11:59:14.63	111.74	4.03	-42.7	-44.9	17.3	0.00e+00	92	41	0	1027604480	58	7100
2026-01-19 11:59:15.64	111.85	3.99	-42.4	-44.2	18.0	0.00e+00	0	41	0	1029701632	58	6604
2026-01-19 11:59:16.65	111.97	3.95	-42.1	-44.0	18.0	0.00e+00	0	41	0	1031798784	58	6423
2026-01-19 11:59:17.66	112.09	3.90	-41.8	-43.9	18.1	0.00e+00	0	41	0	1033895936	58	6382
2026-01-19 11:59:18.67	112.21	3.86	-41.5	-43.8	18.3	0.00e+00	0	41	0	1035993088	56	7021
2026-01-19 11:59:19.68	112.33	3.82	-41.6	-43.9	18.3	0.00e+00	76	41	0	1037041664	56	7109
2026-01-19 11:59:20.69	112.45	3.78	-41.7	-43.8	18.4	0.00e+00	0	41	0	1039138816	56	7060
2026-01-19 11:59:21.70	112.56	3.74	-41.7	-43.6	18.7	0.00e+00	92	41	0	1041235968	56	6881
2026-01-19 11:59:22.71	112.68	3.70	-41.6	-43.4	18.6	0.00e+00	0	41	0	1043333120	56	6736
2026-01-19 11:59:23.72	112.80	3.66	-42.1	-43.9	18.4	0.00e+00	0	41	0	1045430272	56	7145
2026-01-19 11:59:24.73	112.91	3.61	-41.9	-43.7	18.4	0.00e+00	0	41	0	1046478848	56	6979
2026-01-19 11:59:25.74	113.03	3.57	-42.2	-44.2	18.0	0.00e+00	0	41	0	1048576000	56	7402
2026-01-19 11:59:26.75	113.15	3.53	-42.1	-44.1	18.3	0.00e+00	40	41	0	1050673152	56	7269
2026-01-19 11:59:27.75	113.26	3.49	-42.4	-44.6	17.5	0.00e+00	0	41	0	1052770304	56	7701
2026-01-19 11:59:28.76	113.37	3.45	-42.0	-44.4	17.8	0.00e+00	72	41	0	1054867456	58	6716
2026-01-19 11:59:29.77	113.49	3.41	-41.8	-44.6	17.5	0.00e+00	0	41	0	1055916032	58	6914
2026-01-19 11:59:30.78	113.60	3.36	-41.7	-44.9	17.3	0.00e+00	0	41	0	1058013184	56	8003
2026-01-19 11:59:31.79	113.72	3.32	-41.9	-45.2	17.1	0.00e+00	0	41	0	1060110336	56	8262
2026-01-19 11:59:32.81	113.83	3.28	-42.2	-45.1	17.1	0.00e+00	0	41	0	1062207488	56	8230
2026-01-19 11:59:33.82	113.95	3.24	-42.6	-45.1	17.0	0.00e+00	40	41	0	1064304640	56	8212
2026-01-19 11:59:34.83	114.06	3.20	-42.9	-45.5	16.6	0.00e+00	0	41	0	1065353216	58	7627
2026-01-19 11:59:35.84	114.17	3.16	-43.0	-45.5	16.5	0.00e+00	73	41	0	1067450368	58	7649
2026-01-19 11:59:36.85	114.29	3.11	-43.1	-45.7	16.3	0.00e+00	0	41	0	1069547520	58	7784
2026-01-19 11:59:37.86	114.40	3.07	-43.1	-45.7	16.3	0.00e+00	0	41	0	1071644672	58	7846
2026-01-19 11:59:38.87	114.51	3.03	-42.9	-45.5	16.4	0.00e+00	0	41	0	1073741824	58	7637
2026-01-19 11:59:39.88	114.62	2.99	-48.3	-63.0	3.6	7.03e-01	0	41	104	1074790400	60	51179
2026-01-19 11:59:40.89	114.73	2.95	-48.5	-64.4	3.5	1.51e+00	0	41	104	1074790400	60	59949
2026-01-19 11:59:41.90	114.84	2.90	-49.3	-64.6	3.6	1.51e+00	0	41	104	1074790400	60	61251
2026-01-19 11:59:42.91	114.96	2.86	-48.7	-64.9	3.6	1.51e+00	0	41	104	1074790400	60	63343
2026-01-19 11:59:43.92	115.07	2.82	-49.8	-65.0	3.6	1.51e+00	0	41	104	1074790400	60	64573
2026-01-19 11:59:44.93	115.18	2.78	-49.7	-65.1	3.6	1.51e+00	0	41	104	1074790400	60	65266
2026-01-19 11:59:45.94	115.29	2.73	-49.9	-65.2	3.6	1.51e+00	0	41	104	1074790400	60	65492
2026-01-19 11:59:46.95	115.40	2.69	-49.7	-65.3	3.6	1.51e+00	0	41	104	1074790400	60	66273
2026-01-19 11:59:47.96	115.51	2.65	-50.0	-65.3	3.6	1.51e+00	0	41	104	1074790400	60	66238
2026-01-19 11:59:48.97	115.61	2.61	-50.2	-65.3	3.6	1.51e+00	0	41	104	1074790400	60	66676
2026-01-19 11:59:49.98	115.72	2.57	-50.2	-65.4	3.6	1.51e+00	0	41	104	1074790400	60	66947
2026-01-19 11:59:50.99	115.83	2.52	-50.2	-65.4	3.6	1.51e+00	0	41	104	1074790400	60	67397
2026-01-19 11:59:52.00	115.94	2.48	-50.2	-65.4	3.6	1.51e+00	0	41	104	1074790400	60	67442
2026-01-19 11:59:53.01	116.05	2.44	-50.2	-65.4	3.6	1.51e+00	0	41	104	1074790400	60	66977
2026-01-19 11:59:54.03	116.16	2.40	-50.2	-65.4	3.6	1.51e+00	0	41	104	1074790400	60	67455
2026-01-19 11:59:55.04	116.26	2.35	-50.2	-65.4	3.6	1.51e+00	0	41	104	1074790400	60	66947
2026-01-19 11:59:56.05	116.37	2.31	-50.1	-65.4	3.6	1.51e+00	0	41	104	1074790400	60	67088
2026-01-19 11:59:57.06	116.48	2.27	-50.2	-65.4	3.6	1.51e+00	0	41	104	1074790400	60	67405
2026-01-19 11:59:58.07	116.58	2.23	-50.2	-65.5	3.6	1.51e+00	0	41	104	1074790400	60	67762
2026-01-19 11:59:59.08	116.69	2.18	-50.2	-65.3	3.6	1.51e+00	0	41	104	1074790400	60	66816
2026-01-19 12:00:00.09	116.80	2.14	-50.2	-65.4	3.6	1.51e+00	0	41	104	1074790400	60	67365
2026-01-19 12:00:01.10	116.90	2.10	-50.2	-65.4	3.6	1.51e+00	0	41	104	1074790400	60	67358
2026-01-19 12:00:02.11	117.01	2.06	-50.2	-65.4	3.6	1.51e+00	0	41	104	1074790400	60	66926
2026-01-19 12:00:03.12	117.11	2.02	-50.2	-65.4	3.6	1.51e+00	0	41	104	1074790400	60	67073
2026-01-19 12:00:04.13	117.22	1.97	-50.1	-65.3	3.6	1.51e+00	0	41	104	1074790400	60	66848
2026-01-19 12:00:05.14	117.32	1.93	-50.1	-65.4	3.6	1.51e+00	0	41	104	1074790400	60	67341
2026-01-19 12:00:06.15	117.42	1.89	-50.2	-65.3	3.6	1.51e+00	0	41	104	1074790400	60	66868
2026-01-19 12:00:07.16	117.53	1.85	-50.1	-65.3	3.6	1.51e+00	0	41	104	1074790400	60	66797
2026-01-19 12:00:08.17	117.63	1.80	-50.1	-65.3	3.6	1.51e+00	0	41	104	1074790400	60	66914
2026-01-19 12:00:09.18	117.73	1.76	-50.1	-65.3	3.6	1.51e+00	0	41	104	1074790400	60	66547
2026-01-19 12:00:10.19	117.84	1.72	-50.1	-65.4	3.6	1.51e+00	0	41	104	1074790400	60	67139
2026-01-19 12:00:11.20	117.94	1.68	-50.1	-65.3	3.6	1.51e+00	0	41	104	1074790400	60	66890
2026-01-19 12:00:12.21	118.04	1.63	-50.1	-65.3	3.6	1.51e+00	0	41	104	1074790400	60	66862
2026-01-19 12:00:13.22	118.14	1.59	-50.1	-65.3	3.6	1.51e+00	0	41	104	1074790400	60	66764
2026-01-19 12:00:14.23	118.25	1.55	-50.1	-65.4	3.6	1.51e+00	0	41	104	1074790400	60	67025
2026-01-19 12:00:15.24	118.35	1.51	-50.1	-65.3	3.5	1.51e+00	0	41	104	1074790400	60	66855
2026-01-19 12:00:16.25	118.45	1.46	-50.1	-65.3	3.6	1.51e+00	0	41	104	1074790400	60	66685
2026-01-19 12:00:17.26	118.55	1.42	-50.1	-65.4	3.6	1.51e+00	0	41	104	1074790400	60	66936
2026-01-19 12:00:18.27	118.65	1.38	-50.1	-65.4	3.6	1.51e+00	0	41	104	1074790400	60	67221
2026-01-19 12:00:19.28	118.75	1.34	-50.1	-65.3	3.6	1.51e+00	0	41	104	1074790400	60	66870
2026-01-19 12:00:20.29	118.85	1.29	-50.1	-65.3	3.6	1.51e+00	0	41	104	1074790400	60	66606
2026-01-19 12:00:21.30	118.95	1.25	-50.1	-65.4	3.5	1.51e+00	0	41	104	1074790400	60	67096
2026-01-19 12:00:22.31	119.05	1.21	-50.1	-65.4	3.6	1.51e+00	0	41	104	1074790400	60	66996
2026-01-19 12:00:23.32	119.15	1.16	-50.1	-65.3	3.6	1.51e+00	0	41	104	1074790400	60	66595
2026-01-19 12:00:24.33	119.25	1.12	-50.1	-65.4	3.5	1.51e+00	0	41	104	1074790400	60	67105
2026-01-19 12:00:25.34	119.35	1.08	-50.1	-65.3	3.6	1.51e+00	0	41	104	1074790400	60	66870
2026-01-19 12:00:26.35	119.45	1.04	-50.1	-65.3	3.6	1.51e+00	0	41	104	1074790400	60	66852
2026-01-19 12:00:27.36	119.55	0.99	-50.1	-65.4	3.6	1.51e+00	0	41	104	1074790400	60	66978
2026-01-19 12:00:28.37	119.64	0.95	-50.1	-65.3	3.6	1.51e+00	0	41	104	1074790400	60	66886
2026-01-19 12:00:29.38	119.74	0.91	-50.1	-65.3	3.6	1.51e+00	0	41	104	1074790400	60	66631
2026-01-19 12:00:30.39	119.84	0.87	-50.1	-65.4	3.6	1.51e+00	0	41	104	1074790400	60	67128
2026-01-19 12:00:31.40	119.94	0.82	-50.1	-65.4	3.6	1.51e+00	0	41	104	1074790400	60	67135
2026-01-19 12:00:32.41	120.03	0.78	-50.1	-65.3	3.6	1.51e+00	0	41	104	1074790400	60	66826
2026-01-19 12:00:33.42	120.13	0.74	-50.1	-65.3	3.6	1.51e+00	0	41	104	1074790400	60	66906
2026-01-19 12:00:34.43	120.23	0.70	-50.1	-65.3	3.6	1.51e+00	0	41	104	1074790400	60	66753
2026-01-19 12:00:35.44	120.32	0.65	-50.1	-65.4	3.6	1.51e+00	0	41	104	1074790400	60	66925
2026-01-19 12:00:36.45	120.42	0.61	-50.1	-65.4	3.6	1.51e+00	0	41	104	1074790400	60	67102
2026-01-19 12:00:37.46	120.51	0.57	-50.1	-65.4	3.6	1.51e+00	0	41	104	1074790400	60	67153
2026-01-19 12:00:38.47	120.61	0.53	-50.1	-65.4	3.6	1.51e+00	0	41	104	1074790400	60	66941
2026-01-19 12:00:39.48	120.70	0.48	-50.1	-65.4	3.6	1.51e+00	0	41	104	1074790400	60	67104
2026-01-19 12:00:40.49	120.80	0.44	-50.2	-65.3	3.6	1.51e+00	0	41	104	1074790400	60	66810
2026-01-19 12:00:41.50	120.89	0.40	-50.1	-65.4	3.5	1.51e+00	0	41	104	1074790400	60	67010
2026-01-19 12:00:42.51	120.99	0.35	-50.1	-65.4	3.5	1.51e+00	0	41	104	1074790400	60	67225
2026-01-19 12:00:43.52	121.08	0.31	-50.1	-65.4	3.6	1.51e+00	0	41	104	1074790400	60	67069
