passes_logs/2026/01/19/R4.6S_Anadyr/R4.6S_Anadyr__20260119_044302_AQUA_rec.log

#Pass ID: 20260119_044302_AQUA
#Satellite: AQUA
#Configuration: AQUA
#almurnet v.1.7.20251203
#Start time: 2026-01-19 04:43:04

#Version: 2.2.20231116
#Station: R4.6S_Anadyr
#Location: 177.4865 lon 64.73178 lat
#TLE: 1 27424U 02022A   26018.67315038  .00000896  00000+0  18931-3 0  9992
#TLE: 2 27424  98.4088 345.1622 0002002  73.7601  98.9671 14.61828261261423

#Time	Az	El	Level	Level2	SNR	BER	BlckErr	Temp	State	Recorded	gain1	gain2
2026-01-19 04:43:04.61	234.27	0.10	-50.5	-68.4	3.5	3.03e+01	0	39	104	0	60	101278
2026-01-19 04:43:06.40	234.45	0.18	-50.4	-68.4	3.5	3.03e+01	0	39	104	0	60	101269
2026-01-19 04:43:06.98	234.51	0.20	-50.5	-68.4	3.5	3.03e+01	0	40	104	0	60	100742
2026-01-19 04:43:08.56	234.67	0.27	-50.5	-68.4	3.5	3.03e+01	0	39	104	0	60	100800
2026-01-19 04:43:09.14	234.73	0.30	-50.5	-68.4	3.5	3.03e+01	0	40	104	0	60	100966
2026-01-19 04:43:10.72	234.89	0.37	-50.5	-68.4	3.5	3.03e+01	0	40	104	0	60	101326
2026-01-19 04:43:11.30	234.95	0.39	-50.5	-68.4	3.5	3.03e+01	0	40	104	0	60	101377
2026-01-19 04:43:12.89	235.11	0.47	-50.6	-68.4	3.5	3.03e+01	0	40	104	0	60	101775
2026-01-19 04:43:13.46	235.17	0.49	-50.6	-68.4	3.5	3.03e+01	0	40	104	0	60	101667
2026-01-19 04:43:15.05	235.33	0.56	-50.6	-68.5	3.5	3.03e+01	0	40	104	0	60	102549
2026-01-19 04:43:15.63	235.39	0.59	-50.6	-68.6	3.5	3.03e+01	0	40	104	0	60	103007
2026-01-19 04:43:17.22	235.55	0.66	-50.6	-68.5	3.5	3.03e+01	0	40	104	0	60	102589
2026-01-19 04:43:17.79	235.61	0.68	-50.6	-68.6	3.5	3.03e+01	0	40	104	0	60	103273
2026-01-19 04:43:19.38	235.78	0.76	-50.6	-68.5	3.5	3.03e+01	0	40	104	0	60	102614
2026-01-19 04:43:19.96	235.84	0.78	-50.6	-68.5	3.5	3.03e+01	0	40	104	0	60	102899
2026-01-19 04:43:21.55	236.00	0.85	-50.6	-68.5	3.5	3.03e+01	0	40	104	0	60	102447
2026-01-19 04:43:22.13	236.07	0.88	-50.6	-68.5	3.5	3.03e+01	0	40	104	0	60	102880
2026-01-19 04:43:23.71	236.23	0.95	-50.6	-68.4	3.5	3.03e+01	0	40	104	0	60	101651
2026-01-19 04:43:24.29	236.29	0.98	-50.5	-68.4	3.5	3.03e+01	0	40	104	0	60	101347
2026-01-19 04:43:25.88	236.46	1.05	-50.5	-68.3	3.5	3.03e+01	0	40	104	0	60	100200
2026-01-19 04:43:26.45	236.52	1.07	-50.4	-68.2	3.5	3.03e+01	0	40	104	0	60	98853
2026-01-19 04:43:28.04	236.69	1.14	-49.8	-67.6	3.5	3.03e+01	0	40	104	0	60	92812
2026-01-19 04:43:28.62	236.76	1.17	-49.6	-67.5	3.5	3.03e+01	0	40	104	0	60	91194
2026-01-19 04:43:30.21	236.93	1.24	-48.5	-66.3	3.5	3.03e+01	0	40	104	0	60	79500
2026-01-19 04:43:30.78	236.99	1.27	-48.4	-66.3	3.5	3.03e+01	0	40	104	0	60	79118
2026-01-19 04:43:32.37	237.16	1.34	-48.4	-66.2	3.5	3.03e+01	0	40	104	0	60	78677
2026-01-19 04:43:32.95	237.22	1.36	-48.3	-66.2	3.5	3.03e+01	0	40	104	0	60	78570
2026-01-19 04:43:34.54	237.40	1.43	-48.3	-66.2	3.5	3.03e+01	0	40	104	0	60	78906
2026-01-19 04:43:35.12	237.46	1.46	-48.4	-66.2	3.5	3.03e+01	0	40	104	0	60	78914
2026-01-19 04:43:36.70	237.63	1.53	-48.3	-66.2	3.5	3.03e+01	0	40	104	0	60	79010
2026-01-19 04:43:37.28	237.70	1.56	-48.3	-66.2	3.5	3.03e+01	0	40	104	0	60	78980
2026-01-19 04:43:38.87	237.87	1.63	-48.3	-66.1	3.5	3.03e+01	0	40	104	0	60	78066
2026-01-19 04:43:39.44	237.94	1.65	-48.3	-66.1	3.5	3.03e+01	0	40	104	0	60	77881
2026-01-19 04:43:41.03	238.11	1.72	-48.3	-66.1	3.5	3.03e+01	0	40	104	0	60	77775
2026-01-19 04:43:41.61	238.18	1.75	-48.3	-66.2	3.5	3.03e+01	0	40	104	0	60	78644
2026-01-19 04:43:43.19	238.36	1.82	-48.3	-66.2	3.5	3.03e+01	0	40	104	0	60	78253
2026-01-19 04:43:43.78	238.42	1.85	-48.3	-66.1	3.5	3.03e+01	0	40	104	0	60	77306
2026-01-19 04:43:45.37	238.60	1.92	-48.3	-66.0	3.5	3.03e+01	0	40	104	0	60	77005
2026-01-19 04:43:45.95	238.67	1.94	-48.3	-66.0	3.5	3.03e+01	0	40	104	0	60	76924
2026-01-19 04:43:47.53	238.85	2.01	-48.3	-65.9	3.5	3.03e+01	0	40	104	0	60	75937
2026-01-19 04:43:48.12	238.91	2.04	-48.3	-65.9	3.5	3.03e+01	0	40	104	0	60	76098
2026-01-19 04:43:49.71	239.10	2.11	-48.3	-65.8	3.5	3.03e+01	0	40	104	0	60	75280
2026-01-19 04:43:50.29	239.16	2.14	-48.3	-65.4	3.5	3.03e+01	0	40	104	0	60	71842
2026-01-19 04:43:51.88	239.35	2.21	-48.3	-65.4	3.5	3.03e+01	0	40	104	0	60	72073
2026-01-19 04:43:52.45	239.41	2.23	-48.3	-65.1	3.5	3.03e+01	0	40	104	0	60	69565
2026-01-19 04:43:54.04	239.60	2.31	-48.3	-65.0	3.5	3.03e+01	0	40	104	0	60	68357
2026-01-19 04:43:54.62	239.66	2.33	-48.3	-64.6	3.5	3.03e+01	0	40	104	0	60	65194
2026-01-19 04:43:56.21	239.85	2.40	-48.3	-64.2	3.8	3.03e+01	0	40	104	0	60	62507
2026-01-19 04:43:56.78	239.92	2.43	-48.3	-63.6	3.6	3.03e+01	0	40	104	0	60	58345
2026-01-19 04:43:58.37	240.10	2.50	-48.2	-62.9	4.0	3.03e+01	0	40	104	0	60	53784
2026-01-19 04:43:58.95	240.17	2.52	-48.2	-63.1	4.0	3.03e+01	0	40	104	0	60	55163
2026-01-19 04:44:00.54	240.36	2.60	-48.2	-62.4	4.4	3.03e+01	0	40	104	0	60	50488
2026-01-19 04:44:01.12	240.43	2.62	-48.2	-62.5	3.7	3.03e+01	0	40	104	0	60	51328
2026-01-19 04:44:02.70	240.62	2.69	-48.2	-62.0	4.5	3.03e+01	0	40	104	0	60	48693
2026-01-19 04:44:03.28	240.69	2.72	-48.2	-61.9	4.5	3.03e+01	0	40	104	0	60	47792
2026-01-19 04:44:04.86	240.88	2.79	-48.2	-62.5	4.4	3.03e+01	0	40	104	0	60	51524
2026-01-19 04:44:05.44	240.95	2.81	-48.1	-62.0	4.7	3.03e+01	0	40	104	0	60	48301
2026-01-19 04:44:07.03	241.14	2.88	-48.1	-61.6	4.8	3.03e+01	0	40	104	0	60	46495
2026-01-19 04:44:07.61	241.21	2.91	-48.1	-61.6	4.8	3.03e+01	0	40	104	0	60	46492
2026-01-19 04:44:09.20	241.40	2.98	-48.0	-60.1	5.8	3.03e+01	61	40	104	0	60	38782
2026-01-19 04:44:09.77	241.47	3.01	-48.0	-59.4	5.5	3.03e+01	85	40	0	524288	60	35850
2026-01-19 04:44:11.36	241.67	3.08	-48.8	-64.2	3.5	3.03e+01	0	40	104	1048576	60	62064
2026-01-19 04:44:11.94	241.74	3.10	-48.2	-66.2	3.5	3.03e+01	0	40	104	1048576	60	78191
2026-01-19 04:44:13.53	241.94	3.17	-47.4	-54.6	11.4	3.03e+01	91	40	104	1048576	60	20653
2026-01-19 04:44:14.11	242.01	3.20	-47.3	-53.6	12.3	3.03e+01	92	40	0	1572864	60	18346
2026-01-19 04:44:15.70	242.20	3.27	-47.4	-53.9	12.3	3.03e+01	92	41	0	4718592	60	19122
2026-01-19 04:44:16.27	242.28	3.29	-47.0	-52.7	13.1	3.03e+01	92	40	0	5767168	60	16556
2026-01-19 04:44:17.86	242.47	3.36	-46.5	-51.3	14.6	3.03e+01	92	40	0	8912896	60	14196
2026-01-19 04:44:18.44	242.55	3.39	-46.4	-51.0	14.9	3.03e+01	92	40	0	9961472	60	13643
2026-01-19 04:44:20.02	242.75	3.46	-46.7	-51.5	14.6	3.03e+01	92	40	0	12582912	60	14519
2026-01-19 04:44:20.60	242.82	3.49	-46.3	-50.8	15.4	3.03e+01	92	40	0	13631488	60	13293
2026-01-19 04:44:22.19	243.02	3.56	-46.2	-50.5	15.5	3.03e+01	91	40	0	16777216	60	12882
2026-01-19 04:44:22.76	243.09	3.58	-46.0	-50.1	16.1	3.03e+01	86	40	0	17825792	60	12373
2026-01-19 04:44:24.35	243.30	3.65	-45.5	-49.1	17.1	3.03e+01	90	40	0	20971520	60	10975
2026-01-19 04:44:24.92	243.37	3.68	-45.3	-48.8	17.3	3.03e+01	89	40	0	22020096	60	10609
2026-01-19 04:44:26.51	243.58	3.75	-45.5	-49.0	17.1	3.03e+01	92	40	0	25165824	60	10856
2026-01-19 04:44:27.09	243.65	3.77	-45.3	-48.7	17.6	3.03e+01	92	40	0	26214400	60	10472
2026-01-19 04:44:28.68	243.86	3.84	-45.3	-48.6	17.6	3.03e+01	85	40	0	28835840	60	10356
2026-01-19 04:44:29.25	243.93	3.87	-45.0	-48.1	18.6	3.03e+01	90	40	0	29884416	60	9764
2026-01-19 04:44:30.84	244.14	3.94	-44.9	-47.9	18.4	3.03e+01	91	40	0	33030144	60	9524
2026-01-19 04:44:31.42	244.21	3.96	-44.8	-47.8	18.9	3.03e+01	91	40	0	34078720	60	9490
2026-01-19 04:44:33.00	244.42	4.03	-44.4	-47.2	19.2	3.03e+01	91	40	0	37224448	60	8799
2026-01-19 04:44:33.58	244.50	4.06	-44.3	-47.0	19.5	3.03e+01	90	40	0	38273024	60	8619
2026-01-19 04:44:35.17	244.71	4.12	-44.5	-47.3	19.1	3.03e+01	92	40	0	41418752	60	8897
2026-01-19 04:44:35.76	244.79	4.15	-44.3	-47.1	19.3	3.03e+01	92	40	0	42467328	60	8707
2026-01-19 04:44:37.35	245.00	4.22	-44.1	-46.8	19.8	3.03e+01	92	40	0	45088768	60	8401
2026-01-19 04:44:37.92	245.07	4.24	-43.7	-46.2	20.2	3.03e+01	91	40	0	46661632	60	7821
2026-01-19 04:44:39.51	245.29	4.31	-43.4	-45.7	20.7	3.03e+01	90	40	0	49283072	60	7400
2026-01-19 04:44:40.09	245.36	4.34	-43.1	-45.4	21.0	3.03e+01	90	40	0	50331648	60	7145
2026-01-19 04:44:41.67	245.58	4.41	-43.3	-45.5	20.9	3.03e+01	90	40	0	53477376	60	7277
2026-01-19 04:44:42.25	245.66	4.43	-43.4	-45.7	21.0	3.03e+01	90	40	0	54525952	60	7382
2026-01-19 04:44:43.84	245.87	4.50	-43.2	-45.4	21.2	3.03e+01	92	40	0	57671680	60	7136
2026-01-19 04:44:44.42	245.95	4.53	-42.9	-45.1	21.2	3.03e+01	91	40	0	58720256	60	6892
2026-01-19 04:44:46.01	246.17	4.60	-43.2	-45.4	21.3	3.03e+01	90	40	0	61341696	60	7143
2026-01-19 04:44:46.58	246.25	4.62	-42.8	-44.9	21.5	3.03e+01	90	40	0	62390272	60	6793
2026-01-19 04:44:48.17	246.47	4.69	-42.9	-45.0	21.5	3.03e+01	92	40	0	65536000	60	6866
2026-01-19 04:44:48.75	246.55	4.71	-42.9	-45.0	21.6	3.03e+01	92	41	0	66584576	60	6817
2026-01-19 04:44:50.33	246.77	4.78	-42.3	-44.2	22.4	3.03e+01	92	40	0	69730304	60	6241
2026-01-19 04:44:50.91	246.85	4.81	-42.2	-44.1	22.6	3.03e+01	92	40	0	70778880	60	6172
2026-01-19 04:44:52.50	247.07	4.87	-42.1	-44.0	22.6	3.03e+01	90	40	0	73924608	60	6117
2026-01-19 04:44:53.07	247.15	4.90	-42.0	-43.9	22.7	3.03e+01	91	40	0	74973184	60	6030
2026-01-19 04:44:54.66	247.37	4.97	-41.9	-43.7	22.8	3.03e+01	92	40	0	77594624	58	6640
2026-01-19 04:44:55.24	247.45	4.99	-41.6	-43.4	23.1	3.03e+01	92	40	0	78643200	58	6408
2026-01-19 04:44:56.82	247.68	5.06	-40.9	-42.6	23.9	3.03e+01	92	40	0	81788928	58	5848
2026-01-19 04:44:57.40	247.76	5.08	-41.4	-43.1	23.5	3.03e+01	91	40	0	82837504	56	6957
2026-01-19 04:44:58.98	247.98	5.15	-40.6	-42.2	24.3	3.03e+01	91	40	0	85983232	56	6269
2026-01-19 04:44:59.56	248.07	5.18	-40.9	-42.5	23.9	3.03e+01	92	40	0	87031808	56	6471
2026-01-19 04:45:01.15	248.29	5.24	-40.9	-42.5	24.2	3.03e+01	89	40	0	89653248	56	6481
2026-01-19 04:45:01.72	248.38	5.27	-40.8	-42.5	24.1	3.03e+01	92	40	0	91226112	56	6424
2026-01-19 04:45:03.31	248.61	5.33	-40.8	-42.4	24.2	3.03e+01	92	40	0	93847552	56	6396
2026-01-19 04:45:03.89	248.69	5.36	-40.5	-42.1	24.5	3.03e+01	92	40	0	94896128	56	6199
2026-01-19 04:45:05.48	248.92	5.43	-40.5	-42.1	24.6	3.03e+01	92	40	0	98041856	56	6165
2026-01-19 04:45:06.05	249.00	5.45	-40.5	-42.1	24.7	3.03e+01	90	40	0	99090432	56	6144
2026-01-19 04:45:07.64	249.24	5.52	-40.6	-42.2	24.5	3.03e+01	91	41	0	102236160	56	6236
2026-01-19 04:45:08.23	249.32	5.54	-40.5	-42.1	24.4	3.03e+01	92	40	0	103284736	56	6203
2026-01-19 04:45:09.82	249.56	5.61	-40.9	-42.5	24.1	3.03e+01	90	40	0	105906176	56	6480
2026-01-19 04:45:10.39	249.64	5.63	-40.6	-42.3	24.5	3.03e+01	92	40	0	107479040	56	6289
2026-01-19 04:45:11.98	249.88	5.70	-40.4	-41.9	24.8	3.03e+01	91	41	0	110100480	56	6057
2026-01-19 04:45:12.57	249.96	5.72	-40.2	-41.8	25.0	3.03e+01	91	40	0	111149056	56	5939
2026-01-19 04:45:14.16	250.20	5.79	-40.0	-41.5	25.2	3.03e+01	92	40	0	114294784	54	6481
2026-01-19 04:45:14.75	250.29	5.81	-40.1	-41.7	25.0	3.03e+01	92	40	0	115343360	54	6611
2026-01-19 04:45:16.33	250.53	5.88	-40.3	-41.9	24.9	3.03e+01	92	40	0	118489088	54	6747
2026-01-19 04:45:16.91	250.61	5.90	-40.1	-41.7	25.1	3.03e+01	91	40	0	119537664	54	6577
2026-01-19 04:45:18.50	250.85	5.97	-40.3	-41.9	24.9	3.03e+01	91	40	0	122683392	54	6762
2026-01-19 04:45:19.08	250.94	5.99	-39.9	-41.5	25.3	3.03e+01	92	40	0	123731968	54	6431
2026-01-19 04:45:20.66	251.18	6.05	-39.8	-41.3	25.5	3.03e+01	91	41	0	126353408	54	6294
2026-01-19 04:45:21.24	251.27	6.08	-39.8	-41.3	25.4	3.03e+01	92	40	0	127401984	54	6314
2026-01-19 04:45:22.83	251.51	6.14	-39.7	-41.2	25.5	3.03e+01	92	40	0	130547712	54	6265
2026-01-19 04:45:23.40	251.60	6.17	-39.8	-41.3	25.4	3.03e+01	92	40	0	131596288	54	6294
2026-01-19 04:45:24.99	251.84	6.23	-40.0	-41.5	25.3	3.03e+01	92	40	0	134742016	54	6470
2026-01-19 04:45:25.57	251.93	6.25	-39.7	-41.2	25.5	3.03e+01	89	40	0	135790592	54	6267
2026-01-19 04:45:27.15	252.18	6.32	-39.8	-41.4	25.4	3.03e+01	91	40	0	138412032	54	6351
2026-01-19 04:45:27.73	252.27	6.34	-39.8	-41.3	25.4	3.03e+01	92	40	0	139984896	54	6336
2026-01-19 04:45:29.32	252.52	6.40	-39.8	-41.3	25.5	3.03e+01	91	40	0	142606336	54	6340
2026-01-19 04:45:29.91	252.61	6.43	-39.9	-41.4	25.4	3.03e+01	92	40	0	143654912	54	6389
2026-01-19 04:45:31.49	252.86	6.49	-39.9	-41.4	25.4	3.03e+01	90	41	0	146800640	54	6386
2026-01-19 04:45:32.07	252.95	6.51	-39.8	-41.3	25.5	3.03e+01	90	41	0	147849216	54	6304
2026-01-19 04:45:33.65	253.20	6.58	-39.9	-41.4	25.3	3.03e+01	91	40	0	150994944	54	6413
2026-01-19 04:45:34.23	253.29	6.60	-40.1	-41.6	25.3	3.03e+01	92	40	0	152043520	54	6561
2026-01-19 04:45:35.82	253.54	6.66	-39.9	-41.4	25.4	3.03e+01	92	41	0	154664960	54	6355
2026-01-19 04:45:36.39	253.63	6.68	-39.6	-41.1	25.7	3.03e+01	92	40	0	156237824	54	6159
2026-01-19 04:45:37.98	253.89	6.75	-39.7	-41.1	25.6	3.03e+01	92	41	0	158859264	54	6187
2026-01-19 04:45:38.56	253.98	6.77	-39.7	-41.2	25.6	3.03e+01	92	41	0	159907840	54	6254
2026-01-19 04:45:40.14	254.23	6.83	-39.8	-41.3	25.5	3.03e+01	91	41	0	163053568	54	6332
2026-01-19 04:45:40.72	254.33	6.85	-39.6	-41.1	25.7	3.03e+01	91	40	0	164102144	54	6170
2026-01-19 04:45:42.31	254.58	6.91	-39.7	-41.1	25.7	3.03e+01	92	41	0	167247872	54	6182
2026-01-19 04:45:42.89	254.68	6.94	-39.7	-41.1	25.8	3.03e+01	92	40	0	168296448	54	6198
2026-01-19 04:45:44.47	254.93	7.00	-39.6	-41.1	25.9	3.03e+01	92	41	0	171442176	54	6148
2026-01-19 04:45:45.05	255.03	7.02	-39.5	-41.0	25.8	3.03e+01	92	40	0	171966464	54	6088
2026-01-19 04:45:46.63	255.29	7.08	-39.4	-40.9	25.9	3.03e+01	91	41	0	175112192	54	5999
2026-01-19 04:45:47.21	255.38	7.10	-39.4	-40.8	26.0	3.03e+01	92	40	0	176160768	54	5978
2026-01-19 04:45:48.80	255.64	7.16	-39.4	-40.9	26.1	3.03e+01	91	41	0	179306496	54	5995
2026-01-19 04:45:49.38	255.74	7.18	-39.4	-40.8	26.0	3.03e+01	92	41	0	180355072	54	5961
2026-01-19 04:45:50.96	256.00	7.24	-39.5	-41.0	25.9	3.03e+01	91	41	0	183500800	54	6074
2026-01-19 04:45:51.54	256.10	7.27	-39.9	-41.4	25.6	3.03e+01	90	41	0	184549376	54	6351
2026-01-19 04:45:53.13	256.36	7.32	-39.5	-41.0	26.0	3.03e+01	92	41	0	187170816	54	6079
2026-01-19 04:45:53.71	256.46	7.35	-39.3	-40.8	26.0	3.03e+01	92	41	0	188219392	54	5958
2026-01-19 04:45:55.30	256.73	7.41	-39.3	-40.8	26.1	3.03e+01	92	40	0	191365120	54	5927
2026-01-19 04:45:55.87	256.82	7.43	-39.5	-40.9	25.9	3.03e+01	92	41	0	192413696	54	6062
2026-01-19 04:45:57.46	257.09	7.48	-39.5	-41.0	26.0	3.03e+01	92	40	0	195559424	54	6065
2026-01-19 04:45:58.04	257.19	7.51	-39.3	-40.7	26.2	3.03e+01	92	41	0	196608000	54	5906
2026-01-19 04:45:59.62	257.46	7.56	-39.2	-40.6	26.3	3.03e+01	92	41	0	199753728	54	5826
2026-01-19 04:46:00.20	257.55	7.58	-39.2	-40.6	26.3	3.03e+01	92	40	0	200802304	54	5821
2026-01-19 04:46:01.78	257.82	7.64	-39.3	-40.7	26.2	3.03e+01	92	41	0	203423744	54	5922
2026-01-19 04:46:02.36	257.92	7.66	-39.4	-40.9	26.1	3.03e+01	92	40	0	204472320	54	5998
2026-01-19 04:46:03.95	258.19	7.72	-39.3	-40.7	26.2	3.03e+01	92	41	0	207618048	54	5879
2026-01-19 04:46:04.52	258.29	7.74	-39.4	-40.8	26.1	3.03e+01	90	41	0	208666624	54	5957
2026-01-19 04:46:06.11	258.57	7.80	-39.3	-40.7	26.0	3.03e+01	92	41	0	211812352	54	5912
2026-01-19 04:46:06.69	258.67	7.82	-39.3	-40.7	26.2	3.03e+01	90	41	0	212860928	54	5902
2026-01-19 04:46:08.28	258.94	7.87	-39.4	-40.9	25.9	3.03e+01	92	41	0	216006656	54	6000
2026-01-19 04:46:08.85	259.04	7.89	-39.5	-41.0	26.1	3.03e+01	92	41	0	217055232	54	6085
2026-01-19 04:46:10.44	259.32	7.95	-39.3	-40.7	26.2	3.03e+01	89	41	0	219676672	54	5925
2026-01-19 04:46:11.02	259.42	7.97	-39.1	-40.5	26.2	3.03e+01	90	41	0	220725248	54	5756
2026-01-19 04:46:12.61	259.70	8.02	-39.4	-40.8	26.0	3.03e+01	92	41	0	223870976	54	5951
2026-01-19 04:46:13.18	259.80	8.04	-39.4	-40.8	26.3	3.03e+01	92	41	0	224919552	54	5976
2026-01-19 04:46:14.77	260.08	8.10	-39.5	-40.9	26.1	3.03e+01	90	41	0	228065280	54	6026
2026-01-19 04:46:15.36	260.18	8.12	-39.7	-41.1	25.9	3.03e+01	90	41	0	229113856	54	6189
2026-01-19 04:46:16.95	260.46	8.17	-39.6	-41.1	25.9	3.03e+01	91	40	0	232259584	54	6144
2026-01-19 04:46:17.53	260.57	8.19	-39.3	-40.8	26.2	3.03e+01	92	40	0	233308160	54	5930
2026-01-19 04:46:19.11	260.85	8.24	-39.3	-40.7	26.3	3.03e+01	89	41	0	235929600	54	5919
2026-01-19 04:46:19.69	260.95	8.26	-39.4	-40.8	26.2	3.03e+01	92	41	0	236978176	54	5992
2026-01-19 04:46:21.28	261.24	8.31	-39.5	-40.9	26.2	3.03e+01	92	41	0	240123904	54	6049
2026-01-19 04:46:21.86	261.34	8.33	-39.4	-40.8	26.0	3.03e+01	90	41	0	241172480	54	5981
2026-01-19 04:46:23.44	261.62	8.38	-39.2	-40.6	26.4	3.03e+01	90	41	0	244318208	54	5847
2026-01-19 04:46:24.02	261.73	8.40	-39.2	-40.6	26.4	3.03e+01	92	41	0	245366784	54	5816
2026-01-19 04:46:25.60	262.01	8.45	-39.1	-40.5	26.6	3.03e+01	90	41	0	247988224	52	6440
2026-01-19 04:46:26.18	262.12	8.47	-39.0	-40.4	26.7	3.03e+01	90	40	0	249561088	52	6352
2026-01-19 04:46:27.77	262.41	8.52	-39.1	-40.5	26.5	3.03e+01	92	41	0	252182528	52	6455
2026-01-19 04:46:28.35	262.51	8.54	-39.2	-40.6	26.5	3.03e+01	92	41	0	253231104	52	6518
2026-01-19 04:46:29.93	262.80	8.59	-39.4	-40.8	26.4	3.03e+01	92	41	0	256376832	52	6677
2026-01-19 04:46:30.51	262.91	8.61	-39.1	-40.5	26.5	3.03e+01	91	41	0	257425408	52	6469
2026-01-19 04:46:32.09	263.20	8.66	-39.3	-40.7	26.1	3.03e+01	90	40	0	260571136	52	6615
2026-01-19 04:46:32.69	263.31	8.67	-39.7	-41.2	26.2	3.03e+01	91	40	0	261619712	52	7004
2026-01-19 04:46:34.27	263.60	8.72	-39.6	-41.0	26.3	3.03e+01	92	40	0	264765440	52	6846
2026-01-19 04:46:34.86	263.71	8.74	-39.8	-41.3	25.9	3.03e+01	92	41	0	265814016	52	7077
2026-01-19 04:46:36.45	264.00	8.79	-39.8	-41.3	26.0	3.03e+01	92	41	0	268435456	52	7056
2026-01-19 04:46:37.03	264.11	8.81	-39.4	-40.9	26.0	3.03e+01	92	41	0	269484032	52	6735
2026-01-19 04:46:38.61	264.40	8.85	-39.7	-41.1	26.3	3.03e+01	91	41	0	272629760	52	6927
2026-01-19 04:46:39.19	264.51	8.87	-39.5	-40.9	26.0	3.03e+01	92	40	0	273678336	52	6776
2026-01-19 04:46:40.77	264.81	8.92	-39.1	-40.5	26.3	3.03e+01	92	41	0	276824064	52	6465
2026-01-19 04:46:41.35	264.91	8.93	-39.2	-40.5	26.6	3.03e+01	92	41	0	277872640	52	6489
2026-01-19 04:46:42.94	265.21	8.98	-38.8	-40.2	26.8	3.03e+01	92	41	0	281018368	52	6255
2026-01-19 04:46:43.51	265.32	8.99	-39.1	-40.5	26.4	3.03e+01	90	41	0	282066944	52	6463
2026-01-19 04:46:45.10	265.62	9.04	-39.2	-40.6	26.3	3.03e+01	91	41	0	284688384	52	6546
2026-01-19 04:46:45.68	265.73	9.05	-39.1	-40.5	26.6	3.03e+01	92	41	0	285736960	52	6444
2026-01-19 04:46:47.26	266.03	9.10	-39.5	-41.0	26.4	3.03e+01	92	41	0	288882688	52	6811
2026-01-19 04:46:47.84	266.14	9.11	-39.1	-40.5	26.4	3.03e+01	92	40	0	289931264	52	6463
2026-01-19 04:46:49.43	266.44	9.16	-39.2	-40.7	26.4	3.03e+01	91	41	0	293076992	52	6574
2026-01-19 04:46:50.05	266.56	9.17	-39.2	-40.6	26.4	3.03e+01	91	40	0	294125568	52	6558
2026-01-19 04:46:51.63	266.86	9.22	-38.9	-40.2	26.8	3.03e+01	92	40	0	297271296	52	6257
2026-01-19 04:46:52.21	266.97	9.23	-39.0	-40.4	26.7	3.03e+01	92	41	0	298319872	52	6414
2026-01-19 04:46:53.80	267.28	9.27	-38.9	-40.3	26.8	3.03e+01	90	40	0	300941312	52	6293
2026-01-19 04:46:54.38	267.39	9.29	-38.9	-40.3	26.8	3.03e+01	92	40	0	301989888	52	6334
2026-01-19 04:46:55.96	267.69	9.33	-38.6	-40.0	27.0	3.03e+01	91	41	0	305135616	52	6081
2026-01-19 04:46:56.54	267.80	9.34	-38.5	-39.9	27.2	3.03e+01	91	41	0	306184192	52	6020
2026-01-19 04:46:58.13	268.11	9.38	-38.9	-40.2	26.9	3.03e+01	90	41	0	309329920	52	6271
2026-01-19 04:46:58.70	268.22	9.40	-38.8	-40.1	26.9	3.03e+01	90	41	0	310378496	52	6194
2026-01-19 04:47:00.29	268.53	9.44	-39.1	-40.4	26.9	3.03e+01	92	41	0	313524224	52	6407
2026-01-19 04:47:00.87	268.64	9.45	-38.9	-40.3	26.7	3.03e+01	92	41	0	314572800	52	6287
2026-01-19 04:47:02.45	268.95	9.49	-38.8	-40.1	26.8	3.03e+01	91	41	0	317194240	52	6175
2026-01-19 04:47:03.03	269.06	9.50	-38.8	-40.2	26.9	3.03e+01	92	41	0	318242816	52	6243
2026-01-19 04:47:04.62	269.37	9.54	-38.9	-40.3	26.8	3.03e+01	91	41	0	321388544	52	6322
2026-01-19 04:47:05.19	269.48	9.55	-38.7	-40.1	26.8	3.03e+01	90	41	0	322437120	52	6147
2026-01-19 04:47:06.78	269.80	9.59	-38.8	-40.2	27.0	3.03e+01	92	41	0	325582848	52	6243
2026-01-19 04:47:07.36	269.91	9.60	-38.9	-40.3	26.8	3.03e+01	92	41	0	326631424	52	6306
2026-01-19 04:47:08.95	270.22	9.64	-38.8	-40.2	26.9	3.03e+01	91	41	0	329777152	52	6238
2026-01-19 04:47:09.53	270.34	9.65	-38.9	-40.3	26.9	3.03e+01	92	40	0	330825728	52	6303
2026-01-19 04:47:11.11	270.65	9.69	-39.0	-40.4	26.6	3.03e+01	92	41	0	333447168	52	6372
2026-01-19 04:47:11.69	270.76	9.70	-38.9	-40.2	26.8	3.03e+01	92	41	0	334495744	52	6258
2026-01-19 04:47:13.27	271.08	9.73	-38.9	-40.2	26.8	3.03e+01	90	41	0	337641472	52	6259
2026-01-19 04:47:13.85	271.19	9.75	-38.9	-40.3	26.9	3.03e+01	90	40	0	338690048	52	6317
2026-01-19 04:47:15.43	271.51	9.78	-39.2	-40.6	26.7	3.03e+01	90	41	0	341835776	52	6504
2026-01-19 04:47:16.01	271.62	9.79	-39.2	-40.5	26.5	3.03e+01	91	41	0	342884352	52	6498
2026-01-19 04:47:17.60	271.94	9.82	-38.7	-40.1	27.1	3.03e+01	92	40	0	345505792	52	6144
2026-01-19 04:47:18.18	272.06	9.83	-38.8	-40.2	27.0	3.03e+01	92	40	0	347078656	52	6216
2026-01-19 04:47:19.76	272.37	9.86	-38.9	-40.3	26.9	3.03e+01	91	40	0	349700096	52	6315
2026-01-19 04:47:20.34	272.49	9.88	-38.9	-40.2	26.9	3.03e+01	90	40	0	350748672	52	6275
2026-01-19 04:47:21.93	272.81	9.91	-38.7	-40.0	27.1	3.03e+01	90	41	0	353894400	52	6125
2026-01-19 04:47:22.50	272.92	9.92	-38.5	-39.8	27.3	3.03e+01	92	41	0	354942976	52	5977
2026-01-19 04:47:24.09	273.24	9.95	-38.5	-39.9	27.3	3.03e+01	91	40	0	358088704	52	6003
2026-01-19 04:47:24.66	273.36	9.96	-38.6	-39.9	27.2	3.03e+01	92	40	0	359137280	52	6032
2026-01-19 04:47:26.25	273.68	9.98	-38.6	-39.9	27.2	3.03e+01	92	41	0	361758720	52	6047
2026-01-19 04:47:26.83	273.79	9.99	-38.6	-39.9	27.2	3.03e+01	92	41	0	363331584	52	6033
2026-01-19 04:47:28.41	274.11	10.02	-38.4	-39.8	27.4	3.03e+01	92	40	0	365953024	52	5937
2026-01-19 04:47:28.99	274.23	10.03	-38.4	-39.7	27.4	3.03e+01	90	40	0	367001600	52	5879
2026-01-19 04:47:30.58	274.55	10.06	-38.5	-39.8	27.3	3.03e+01	91	40	0	370147328	52	5974
2026-01-19 04:47:31.15	274.67	10.07	-38.5	-39.8	27.2	3.03e+01	92	41	0	371195904	52	5975
2026-01-19 04:47:32.74	274.99	10.09	-38.6	-40.0	27.2	3.03e+01	92	41	0	374341632	52	6080
2026-01-19 04:47:33.32	275.11	10.10	-38.5	-39.8	27.3	3.03e+01	91	41	0	375390208	52	5989
2026-01-19 04:47:34.91	275.43	10.13	-38.4	-39.8	27.3	3.03e+01	92	41	0	378011648	52	5934
2026-01-19 04:47:35.48	275.55	10.13	-38.4	-39.8	27.4	3.03e+01	92	40	0	379060224	52	5931
2026-01-19 04:47:37.06	275.87	10.16	-38.6	-39.9	27.2	3.03e+01	92	40	0	382205952	52	6021
2026-01-19 04:47:37.64	275.99	10.17	-38.6	-39.9	27.2	3.03e+01	92	41	0	383254528	52	6032
2026-01-19 04:47:39.23	276.32	10.19	-38.5	-39.8	27.3	3.03e+01	91	40	0	386400256	52	5991
2026-01-19 04:47:39.80	276.43	10.20	-38.5	-39.8	27.2	3.03e+01	92	41	0	387448832	52	5983
2026-01-19 04:47:41.39	276.76	10.22	-38.4	-39.7	27.4	3.03e+01	90	40	0	390594560	52	5904
2026-01-19 04:47:41.97	276.88	10.23	-38.5	-39.8	27.2	3.03e+01	92	41	0	391643136	52	5985
2026-01-19 04:47:43.55	277.20	10.25	-38.5	-39.9	27.3	3.03e+01	90	41	0	394264576	52	6000
2026-01-19 04:47:44.13	277.32	10.25	-38.3	-39.6	27.5	3.03e+01	89	41	0	395313152	52	5830
2026-01-19 04:47:45.72	277.65	10.27	-38.6	-39.9	27.3	3.03e+01	91	41	0	398458880	52	6016
2026-01-19 04:47:46.29	277.77	10.28	-38.5	-39.8	27.3	3.03e+01	92	41	0	399507456	52	5973
2026-01-19 04:47:47.88	278.10	10.30	-38.6	-39.9	27.2	3.03e+01	92	41	0	402653184	52	6039
2026-01-19 04:47:48.46	278.22	10.30	-38.6	-39.9	27.3	3.03e+01	90	40	0	403701760	52	6031
2026-01-19 04:47:50.04	278.54	10.32	-38.3	-39.7	27.4	3.03e+01	92	41	0	406847488	52	5869
2026-01-19 04:47:50.62	278.66	10.33	-38.5	-39.8	27.4	3.03e+01	91	41	0	407371776	52	5970
2026-01-19 04:47:52.21	278.99	10.34	-38.5	-39.8	27.4	3.03e+01	92	41	0	410517504	52	5959
2026-01-19 04:47:52.78	279.11	10.35	-38.6	-39.9	27.3	3.03e+01	91	41	0	411566080	52	6030
2026-01-19 04:47:54.37	279.44	10.36	-38.7	-40.1	27.1	3.03e+01	92	41	0	414711808	52	6141
2026-01-19 04:47:54.94	279.56	10.37	-38.4	-39.8	27.4	3.03e+01	91	41	0	415760384	52	5934
2026-01-19 04:47:56.53	279.89	10.38	-38.4	-39.7	27.4	3.03e+01	92	41	0	418906112	52	5913
2026-01-19 04:47:57.11	280.01	10.39	-38.6	-39.9	27.2	3.03e+01	90	41	0	419954688	52	6027
2026-01-19 04:47:58.69	280.34	10.40	-38.3	-39.6	27.5	3.03e+01	91	41	0	422576128	52	5813
2026-01-19 04:47:59.27	280.46	10.40	-38.4	-39.7	27.4	3.03e+01	92	41	0	424148992	52	5892
2026-01-19 04:48:00.87	280.79	10.42	-38.6	-40.0	27.2	3.03e+01	92	41	0	426770432	52	6066
2026-01-19 04:48:01.46	280.91	10.42	-38.7	-40.0	27.1	3.03e+01	92	41	0	427819008	52	6126
2026-01-19 04:48:03.05	281.24	10.43	-38.4	-39.7	27.4	3.03e+01	92	41	0	430964736	52	5880
2026-01-19 04:48:03.63	281.36	10.43	-38.4	-39.7	27.4	3.03e+01	92	41	0	432013312	52	5914
2026-01-19 04:48:05.22	281.69	10.44	-38.4	-39.7	27.4	3.03e+01	92	41	0	435159040	52	5871
2026-01-19 04:48:05.79	281.81	10.45	-38.5	-39.8	27.4	3.03e+01	92	41	0	436207616	52	5963
2026-01-19 04:48:07.38	282.15	10.46	-38.5	-39.8	27.3	3.03e+01	92	40	0	439353344	52	5990
2026-01-19 04:48:07.96	282.27	10.46	-38.7	-40.0	27.1	3.03e+01	92	41	0	440401920	52	6109
2026-01-19 04:48:09.54	282.60	10.47	-38.4	-39.7	27.4	3.03e+01	92	41	0	443023360	52	5874
2026-01-19 04:48:10.12	282.72	10.47	-38.2	-39.5	27.5	3.03e+01	91	41	0	444071936	52	5764
2026-01-19 04:48:11.71	283.05	10.48	-38.5	-39.9	27.3	3.03e+01	87	41	0	447217664	52	5995
2026-01-19 04:48:12.29	283.17	10.48	-38.5	-39.8	27.4	3.03e+01	91	41	0	448266240	52	5956
2026-01-19 04:48:13.87	283.50	10.48	-38.4	-39.7	27.5	3.03e+01	92	41	0	451411968	52	5899
2026-01-19 04:48:14.45	283.62	10.48	-38.4	-39.7	27.6	3.03e+01	89	41	0	452460544	52	5901
2026-01-19 04:48:16.04	283.95	10.49	-38.6	-39.9	27.3	3.03e+01	92	41	0	455081984	52	6038
2026-01-19 04:48:16.61	284.07	10.49	-38.4	-39.7	27.5	3.03e+01	89	41	0	456130560	52	5907
2026-01-19 04:48:18.20	284.41	10.49	-38.3	-39.6	27.5	3.03e+01	92	41	0	459276288	52	5840
2026-01-19 04:48:18.78	284.53	10.49	-38.3	-39.6	27.6	3.03e+01	92	41	0	460324864	52	5818
2026-01-19 04:48:20.37	284.86	10.50	-38.4	-39.7	27.5	3.03e+01	92	41	0	463470592	52	5897
2026-01-19 04:48:20.94	284.98	10.50	-38.2	-39.5	27.7	3.03e+01	92	41	0	464519168	52	5744
2026-01-19 04:48:22.53	285.31	10.50	-38.2	-39.5	27.6	3.03e+01	92	41	0	467664896	52	5783
2026-01-19 04:48:23.11	285.43	10.50	-38.3	-39.6	27.5	3.03e+01	91	41	0	468713472	52	5813
2026-01-19 04:48:24.69	285.76	10.50	-38.5	-39.8	27.3	3.03e+01	91	41	0	471334912	52	5980
2026-01-19 04:48:25.27	285.89	10.50	-38.4	-39.7	27.5	3.03e+01	90	40	0	472907776	52	5877
2026-01-19 04:48:26.86	286.22	10.50	-38.3	-39.6	27.5	3.03e+01	92	41	0	475529216	52	5833
2026-01-19 04:48:27.44	286.34	10.49	-38.3	-39.6	27.6	3.03e+01	92	41	0	476577792	52	5807
2026-01-19 04:48:29.02	286.67	10.49	-38.3	-39.6	27.6	3.03e+01	92	41	0	479723520	52	5808
2026-01-19 04:48:29.60	286.79	10.49	-38.1	-39.4	27.7	3.03e+01	92	41	0	480772096	52	5699
2026-01-19 04:48:31.19	287.12	10.49	-38.2	-39.5	27.6	3.03e+01	92	41	0	483917824	52	5742
2026-01-19 04:48:31.77	287.25	10.49	-38.2	-39.5	27.7	3.03e+01	90	41	0	484966400	52	5762
2026-01-19 04:48:33.35	287.58	10.48	-38.3	-39.6	27.5	3.03e+01	92	41	0	487587840	52	5847
2026-01-19 04:48:33.93	287.70	10.48	-38.3	-39.6	27.5	3.03e+01	90	41	0	489160704	52	5828
2026-01-19 04:48:35.51	288.03	10.47	-38.5	-39.8	27.3	3.03e+01	92	41	0	491782144	52	5974
2026-01-19 04:48:36.09	288.15	10.47	-38.6	-39.9	27.2	3.03e+01	89	40	0	492830720	52	6020
2026-01-19 04:48:37.68	288.48	10.46	-38.5	-39.8	27.3	3.03e+01	92	40	0	495976448	52	5990
2026-01-19 04:48:38.25	288.60	10.46	-38.6	-39.9	27.3	3.03e+01	92	40	0	497025024	52	6018
2026-01-19 04:48:39.84	288.93	10.45	-38.3	-39.6	27.5	3.03e+01	90	41	0	500170752	52	5843
2026-01-19 04:48:40.42	289.05	10.45	-38.4	-39.7	27.5	3.03e+01	92	41	0	501219328	52	5898
2026-01-19 04:48:42.00	289.38	10.44	-38.4	-39.8	27.4	3.03e+01	90	40	0	503840768	52	5944
2026-01-19 04:48:42.59	289.50	10.44	-38.6	-40.0	27.2	3.03e+01	92	41	0	504889344	52	6075
2026-01-19 04:48:44.18	289.83	10.43	-38.4	-39.7	27.4	3.03e+01	88	40	0	508035072	52	5922
2026-01-19 04:48:44.76	289.96	10.42	-38.5	-39.8	27.4	3.03e+01	92	41	0	509083648	52	5979
2026-01-19 04:48:46.34	290.28	10.41	-38.2	-39.4	27.7	3.03e+01	90	41	0	512229376	52	5723
2026-01-19 04:48:46.92	290.40	10.41	-38.2	-39.5	27.5	3.03e+01	90	41	0	513277952	52	5786
2026-01-19 04:48:48.51	290.73	10.40	-38.4	-39.7	27.5	3.03e+01	91	40	0	516423680	52	5893
2026-01-19 04:48:49.08	290.85	10.39	-38.4	-39.7	27.4	3.03e+01	92	41	0	517472256	52	5917
2026-01-19 04:48:50.67	291.18	10.38	-38.5	-39.8	27.4	3.03e+01	92	40	0	520093696	52	5948
2026-01-19 04:48:51.26	291.30	10.37	-38.4	-39.7	27.5	3.03e+01	92	40	0	521142272	52	5897
2026-01-19 04:48:52.85	291.63	10.36	-38.4	-39.8	27.4	3.03e+01	92	41	0	524288000	52	5939
2026-01-19 04:48:53.42	291.75	10.35	-38.4	-39.7	27.5	3.03e+01	92	41	0	525336576	52	5903
2026-01-19 04:48:55.01	292.08	10.34	-38.4	-39.7	27.4	3.03e+01	90	41	0	528482304	52	5894
2026-01-19 04:48:55.59	292.20	10.33	-38.3	-39.6	27.5	3.03e+01	91	41	0	529530880	52	5827
2026-01-19 04:48:57.17	292.53	10.32	-38.4	-39.7	27.4	3.03e+01	92	41	0	532676608	52	5919
2026-01-19 04:48:57.75	292.65	10.31	-38.6	-40.0	27.3	3.03e+01	92	41	0	533725184	52	6066
2026-01-19 04:48:59.34	292.97	10.29	-38.8	-40.1	27.2	3.03e+01	92	40	0	536346624	52	6173
2026-01-19 04:48:59.92	293.09	10.29	-38.5	-39.8	27.3	3.03e+01	92	40	0	537395200	52	5971
2026-01-19 04:49:01.51	293.42	10.27	-38.5	-39.8	27.4	3.03e+01	91	41	0	540540928	52	5989
2026-01-19 04:49:02.09	293.54	10.26	-38.7	-40.0	27.3	3.03e+01	91	40	0	541589504	52	6123
2026-01-19 04:49:03.67	293.86	10.24	-38.6	-39.9	27.5	3.03e+01	92	41	0	544735232	52	6062
2026-01-19 04:49:04.26	293.99	10.23	-38.7	-40.1	27.4	3.03e+01	92	41	0	545783808	52	6154
2026-01-19 04:49:05.85	294.31	10.21	-38.4	-39.7	27.4	3.03e+01	92	41	0	548929536	52	5895
2026-01-19 04:49:06.43	294.43	10.20	-38.6	-39.9	27.3	3.03e+01	91	41	0	549978112	52	6015
2026-01-19 04:49:08.02	294.76	10.18	-38.4	-39.7	27.5	3.03e+01	91	41	0	552599552	52	5876
2026-01-19 04:49:08.59	294.87	10.17	-38.6	-39.9	27.3	3.03e+01	92	41	0	553648128	52	6042
2026-01-19 04:49:10.18	295.20	10.15	-38.8	-40.1	27.1	3.03e+01	92	41	0	556793856	52	6191
2026-01-19 04:49:10.76	295.31	10.14	-38.8	-40.1	27.3	3.03e+01	92	40	0	557842432	52	6187
2026-01-19 04:49:12.34	295.64	10.12	-38.4	-39.7	27.6	3.03e+01	91	41	0	560988160	52	5872
2026-01-19 04:49:12.92	295.75	10.11	-38.3	-39.6	27.6	3.03e+01	91	41	0	562036736	52	5812
2026-01-19 04:49:14.51	296.08	10.09	-38.4	-39.7	27.5	3.03e+01	92	41	0	565182464	52	5876
2026-01-19 04:49:15.08	296.19	10.08	-38.4	-39.7	27.5	3.03e+01	91	41	0	566231040	52	5898
2026-01-19 04:49:16.67	296.51	10.05	-38.6	-39.9	27.3	3.03e+01	88	41	0	568852480	52	6008
2026-01-19 04:49:17.26	296.63	10.04	-38.5	-39.8	27.5	3.03e+01	92	41	0	569901056	52	5940
2026-01-19 04:49:18.85	296.96	10.01	-38.6	-39.9	27.3	3.03e+01	91	41	0	573046784	52	6032
2026-01-19 04:49:19.42	297.07	10.00	-38.5	-39.9	27.3	3.03e+01	92	41	0	574095360	52	6017
2026-01-19 04:49:21.01	297.39	9.98	-38.4	-39.8	27.5	3.03e+01	91	40	0	577241088	52	5931
2026-01-19 04:49:21.59	297.51	9.97	-38.3	-39.6	27.6	3.03e+01	89	41	0	578289664	52	5812
2026-01-19 04:49:23.17	297.83	9.94	-38.4	-39.7	27.5	3.03e+01	90	41	0	581435392	52	5920
2026-01-19 04:49:23.75	297.94	9.93	-38.4	-39.7	27.5	3.03e+01	90	41	0	582483968	52	5896
2026-01-19 04:49:25.33	298.26	9.90	-38.5	-39.8	27.4	3.03e+01	92	41	0	585105408	52	5965
2026-01-19 04:49:25.91	298.37	9.89	-38.6	-40.0	27.4	3.03e+01	92	41	0	586153984	52	6067
2026-01-19 04:49:27.49	298.69	9.86	-38.8	-40.1	27.3	3.03e+01	92	40	0	589299712	52	6174
2026-01-19 04:49:28.07	298.81	9.85	-38.4	-39.7	27.4	3.03e+01	92	41	0	590348288	52	5913
2026-01-19 04:49:29.65	299.12	9.81	-38.5	-39.8	27.4	3.03e+01	92	40	0	593494016	52	5975
2026-01-19 04:49:30.23	299.24	9.80	-38.5	-39.8	27.4	3.03e+01	90	41	0	594542592	52	5951
2026-01-19 04:49:31.82	299.55	9.77	-38.5	-39.8	27.4	3.03e+01	92	40	0	597688320	52	5993
2026-01-19 04:49:32.40	299.67	9.76	-38.3	-39.7	27.5	3.03e+01	92	40	0	598736896	52	5865
2026-01-19 04:49:33.99	299.98	9.73	-38.5	-39.8	27.4	3.03e+01	92	40	0	601358336	52	5956
2026-01-19 04:49:34.58	300.10	9.71	-38.4	-39.7	27.4	3.03e+01	92	40	0	602406912	52	5886
2026-01-19 04:49:36.16	300.41	9.68	-38.5	-39.8	27.5	3.03e+01	91	41	0	605552640	52	5958
2026-01-19 04:49:36.74	300.52	9.67	-38.4	-39.8	27.4	3.03e+01	91	41	0	606601216	52	5939
2026-01-19 04:49:38.33	300.84	9.63	-38.8	-40.1	27.1	3.03e+01	90	40	0	609746944	52	6187
2026-01-19 04:49:38.91	300.95	9.62	-38.9	-40.2	27.0	3.03e+01	90	41	0	610795520	52	6242
2026-01-19 04:49:40.49	301.26	9.58	-38.8	-40.1	27.0	3.03e+01	92	41	0	613941248	52	6188
2026-01-19 04:49:41.08	301.37	9.57	-38.7	-40.0	27.2	3.03e+01	92	41	0	614989824	52	6096
2026-01-19 04:49:42.67	301.68	9.53	-38.7	-40.0	27.1	3.03e+01	91	41	0	617611264	52	6118
2026-01-19 04:49:43.26	301.80	9.52	-38.7	-40.0	27.3	3.03e+01	91	40	0	618659840	52	6089
2026-01-19 04:49:44.84	302.11	9.48	-38.8	-40.1	27.0	3.03e+01	62	41	0	621805568	52	6178
2026-01-19 04:49:45.42	302.22	9.47	-38.8	-40.2	27.1	3.03e+01	53	41	0	622854144	52	6215
2026-01-19 04:49:47.00	302.52	9.43	-38.4	-39.8	27.4	3.03e+01	60	40	0	625999872	52	5939
2026-01-19 04:49:47.58	302.64	9.41	-38.5	-39.8	27.3	3.03e+01	45	40	0	627048448	52	5994
2026-01-19 04:49:49.17	302.94	9.37	-38.7	-40.0	27.1	3.03e+01	60	41	0	629669888	52	6100
2026-01-19 04:49:49.75	303.06	9.36	-38.7	-40.0	27.1	3.03e+01	56	41	0	631242752	52	6126
2026-01-19 04:49:51.33	303.36	9.32	-38.7	-40.0	27.2	3.03e+01	61	41	0	633864192	52	6130
2026-01-19 04:49:51.91	303.47	9.31	-38.7	-40.0	27.1	3.03e+01	58	41	0	634912768	52	6109
2026-01-19 04:49:53.50	303.77	9.26	-38.6	-39.9	27.1	3.03e+01	56	41	0	638058496	52	6057
2026-01-19 04:49:54.08	303.88	9.25	-38.7	-40.0	27.1	3.03e+01	60	41	0	639107072	52	6105
2026-01-19 04:49:55.66	304.19	9.21	-38.5	-39.8	27.3	3.03e+01	58	40	0	642252800	52	5964
2026-01-19 04:49:56.24	304.30	9.19	-38.6	-39.9	27.3	3.03e+01	58	40	0	643301376	52	6020
2026-01-19 04:49:57.82	304.60	9.15	-38.6	-39.9	27.2	3.03e+01	63	40	0	646447104	52	6063
2026-01-19 04:49:58.40	304.71	9.13	-38.7	-40.0	27.1	3.03e+01	45	40	0	647495680	52	6108
2026-01-19 04:49:59.99	305.01	9.09	-38.8	-40.2	27.0	3.03e+01	58	40	0	650117120	52	6217
2026-01-19 04:50:00.56	305.11	9.08	-38.7	-40.1	27.0	3.03e+01	61	41	0	651165696	52	6136
2026-01-19 04:50:02.15	305.41	9.03	-38.9	-40.3	26.8	3.03e+01	59	41	0	654311424	52	6287
2026-01-19 04:50:02.74	305.52	9.01	-38.6	-40.0	27.1	3.03e+01	57	40	0	655360000	52	6083
2026-01-19 04:50:04.33	305.82	8.97	-38.6	-39.9	27.2	3.03e+01	62	41	0	658505728	52	6024
2026-01-19 04:50:04.91	305.93	8.95	-38.7	-40.0	27.1	3.03e+01	55	40	0	659554304	52	6112
2026-01-19 04:50:06.49	306.22	8.91	-38.6	-40.0	27.1	3.03e+01	53	40	0	662175744	52	6086
2026-01-19 04:50:07.07	306.33	8.89	-38.7	-40.0	27.0	3.03e+01	61	40	0	663748608	52	6112
2026-01-19 04:50:08.65	306.63	8.85	-38.7	-40.0	27.0	3.03e+01	60	41	0	666370048	52	6118
2026-01-19 04:50:09.23	306.73	8.83	-38.7	-40.0	27.1	3.03e+01	46	41	0	667418624	52	6122
2026-01-19 04:50:10.82	307.03	8.78	-38.7	-40.1	27.1	3.03e+01	60	41	0	670564352	52	6163
2026-01-19 04:50:11.39	307.13	8.76	-38.9	-40.2	26.9	3.03e+01	61	41	0	671612928	52	6277
2026-01-19 04:50:12.98	307.42	8.72	-38.9	-40.3	27.0	3.03e+01	59	41	0	674758656	52	6282
2026-01-19 04:50:13.57	307.53	8.70	-39.0	-40.3	26.9	3.03e+01	59	41	0	675807232	52	6333
2026-01-19 04:50:15.16	307.82	8.65	-38.7	-40.1	27.0	3.03e+01	61	41	0	678428672	52	6143
2026-01-19 04:50:15.74	307.93	8.63	-38.7	-40.1	27.0	3.03e+01	55	41	0	680001536	52	6167
2026-01-19 04:50:17.32	308.22	8.58	-38.7	-40.1	26.9	3.03e+01	53	41	0	682622976	52	6163
2026-01-19 04:50:17.90	308.32	8.57	-38.7	-40.1	27.1	3.03e+01	60	41	0	683671552	52	6153
2026-01-19 04:50:19.49	308.61	8.52	-38.7	-40.0	27.0	3.03e+01	60	41	0	686817280	52	6132
2026-01-19 04:50:20.06	308.71	8.50	-38.7	-40.0	27.1	3.03e+01	52	40	0	687865856	52	6131
2026-01-19 04:50:21.65	309.00	8.45	-38.8	-40.2	26.9	3.03e+01	61	41	0	691011584	52	6215
2026-01-19 04:50:22.23	309.11	8.43	-39.0	-40.4	26.7	3.03e+01	46	40	0	692060160	52	6389
2026-01-19 04:50:23.82	309.39	8.38	-38.7	-40.1	26.9	3.03e+01	59	41	0	694681600	52	6168
2026-01-19 04:50:24.39	309.49	8.36	-38.9	-40.3	26.8	3.03e+01	57	40	0	696254464	52	6302
2026-01-19 04:50:25.98	309.78	8.31	-39.1	-40.5	26.6	3.03e+01	58	41	0	698875904	52	6424
2026-01-19 04:50:26.56	309.88	8.29	-39.1	-40.5	26.6	3.03e+01	63	40	0	699924480	52	6473
2026-01-19 04:50:28.15	310.16	8.24	-38.8	-40.1	26.9	3.03e+01	44	41	0	703070208	52	6205
2026-01-19 04:50:28.74	310.27	8.22	-38.9	-40.3	26.7	3.03e+01	60	41	0	704118784	52	6282
2026-01-19 04:50:30.32	310.55	8.16	-38.9	-40.3	26.6	3.03e+01	55	41	0	707264512	52	6296
2026-01-19 04:50:30.91	310.65	8.14	-39.1	-40.5	26.7	3.03e+01	63	41	0	708313088	52	6444
2026-01-19 04:50:32.50	310.93	8.09	-39.0	-40.4	26.7	3.03e+01	58	41	0	710934528	52	6376
2026-01-19 04:50:33.07	311.03	8.07	-39.2	-40.6	26.5	3.03e+01	51	40	0	712507392	52	6521
2026-01-19 04:50:34.66	311.31	8.02	-38.9	-40.2	26.7	3.03e+01	59	41	0	715128832	52	6272
2026-01-19 04:50:35.24	311.41	8.00	-39.0	-40.4	26.8	3.03e+01	61	41	0	716177408	52	6351
2026-01-19 04:50:36.82	311.68	7.94	-39.1	-40.5	26.5	3.03e+01	59	40	0	719323136	52	6452
2026-01-19 04:50:37.40	311.78	7.92	-39.1	-40.5	26.6	3.03e+01	57	41	0	720371712	52	6449
2026-01-19 04:50:38.99	312.06	7.87	-39.2	-40.6	26.5	3.03e+01	56	41	0	723517440	52	6519
2026-01-19 04:50:39.57	312.16	7.85	-39.3	-40.7	26.3	3.03e+01	61	41	0	724566016	52	6586
2026-01-19 04:50:41.15	312.43	7.79	-39.0	-40.4	26.5	3.03e+01	51	41	0	727187456	52	6414
2026-01-19 04:50:41.74	312.53	7.77	-39.2	-40.6	26.4	3.03e+01	58	40	0	728760320	52	6569
2026-01-19 04:50:43.33	312.80	7.72	-39.1	-40.5	26.5	3.03e+01	60	41	0	731381760	52	6445
2026-01-19 04:50:43.91	312.90	7.70	-39.1	-40.5	26.5	3.03e+01	44	40	0	732430336	52	6442
2026-01-19 04:50:45.49	313.17	7.64	-39.3	-40.7	26.3	3.03e+01	61	41	0	735576064	52	6622
2026-01-19 04:50:46.07	313.27	7.62	-39.3	-40.8	26.4	3.03e+01	58	40	0	736624640	52	6653
2026-01-19 04:50:47.65	313.54	7.56	-39.3	-40.7	26.3	3.03e+01	59	41	0	739770368	52	6603
2026-01-19 04:50:48.23	313.64	7.54	-39.2	-40.6	26.4	3.03e+01	60	41	0	740818944	52	6547
2026-01-19 04:50:49.82	313.90	7.48	-39.1	-40.5	26.5	3.03e+01	60	40	0	743440384	52	6458
2026-01-19 04:50:50.40	314.00	7.46	-39.3	-40.7	26.2	3.03e+01	63	40	0	744488960	52	6579
2026-01-19 04:50:51.98	314.26	7.40	-39.3	-40.7	26.4	3.03e+01	51	41	0	747634688	52	6607
2026-01-19 04:50:52.55	314.36	7.38	-39.1	-40.4	26.5	3.03e+01	60	41	0	748683264	52	6421
2026-01-19 04:50:54.14	314.62	7.33	-39.2	-40.6	26.3	3.03e+01	53	41	0	751828992	52	6561
2026-01-19 04:50:54.75	314.73	7.30	-39.4	-40.8	26.2	3.03e+01	49	41	0	752877568	52	6679
2026-01-19 04:50:56.33	314.99	7.24	-39.5	-40.9	26.0	3.03e+01	60	40	0	756023296	52	6773
2026-01-19 04:50:56.91	315.08	7.22	-39.4	-40.8	26.2	3.03e+01	52	41	0	757071872	52	6709
2026-01-19 04:50:58.50	315.34	7.16	-39.4	-40.8	26.2	3.03e+01	57	41	0	759693312	52	6673
2026-01-19 04:50:59.07	315.44	7.14	-39.4	-40.8	26.2	3.03e+01	61	40	0	761266176	52	6683
2026-01-19 04:51:00.66	315.70	7.08	-39.1	-40.5	26.4	3.03e+01	57	41	0	763887616	52	6443
2026-01-19 04:51:01.24	315.79	7.06	-39.0	-40.4	26.5	3.03e+01	61	41	0	764936192	52	6381
2026-01-19 04:51:02.82	316.05	7.00	-39.2	-40.6	26.4	3.03e+01	48	41	0	768081920	52	6525
2026-01-19 04:51:03.40	316.14	6.98	-39.4	-40.8	26.1	3.03e+01	59	40	0	769130496	52	6695
2026-01-19 04:51:04.98	316.40	6.92	-39.4	-40.8	26.1	3.03e+01	54	40	0	772276224	52	6707
2026-01-19 04:51:05.56	316.49	6.89	-39.5	-41.0	26.0	3.03e+01	62	40	0	773324800	52	6806
2026-01-19 04:51:07.15	316.75	6.83	-39.6	-41.1	25.9	3.03e+01	58	40	0	775946240	52	6908
2026-01-19 04:51:07.72	316.84	6.81	-39.3	-40.8	26.2	3.03e+01	45	40	0	777519104	52	6650
2026-01-19 04:51:09.31	317.09	6.75	-39.3	-40.8	26.1	3.03e+01	57	40	0	780140544	52	6650
2026-01-19 04:51:09.89	317.18	6.73	-39.2	-40.7	26.3	3.03e+01	61	40	0	781189120	52	6580
2026-01-19 04:51:11.48	317.43	6.67	-39.2	-40.7	26.2	3.03e+01	58	40	0	784334848	52	6590
2026-01-19 04:51:12.05	317.52	6.64	-39.5	-40.9	26.0	3.03e+01	61	41	0	785383424	52	6769
2026-01-19 04:51:13.64	317.78	6.58	-39.4	-40.9	26.1	3.03e+01	58	41	0	788529152	52	6745
2026-01-19 04:51:14.22	317.87	6.56	-39.4	-40.8	26.1	3.03e+01	60	40	0	789577728	52	6723
2026-01-19 04:51:15.80	318.11	6.50	-39.2	-40.6	26.2	3.03e+01	43	41	0	792199168	52	6546
2026-01-19 04:51:16.38	318.20	6.47	-39.4	-40.9	26.0	3.03e+01	53	40	0	793247744	52	6734
2026-01-19 04:51:17.96	318.45	6.41	-39.3	-40.7	26.2	3.03e+01	61	41	0	796393472	52	6612
2026-01-19 04:51:18.54	318.54	6.39	-39.3	-40.7	26.1	3.03e+01	54	41	0	797442048	52	6598
2026-01-19 04:51:20.13	318.79	6.32	-39.3	-40.7	26.2	3.03e+01	60	40	0	800587776	52	6614
2026-01-19 04:51:20.71	318.88	6.30	-39.4	-40.8	26.1	3.03e+01	58	41	0	801636352	52	6678
2026-01-19 04:51:22.29	319.12	6.24	-39.5	-41.0	25.9	3.03e+01	53	40	0	804782080	52	6826
2026-01-19 04:51:22.87	319.21	6.21	-39.7	-41.1	25.7	3.03e+01	60	41	0	805830656	52	6951
2026-01-19 04:51:24.45	319.45	6.15	-39.6	-41.0	25.8	3.03e+01	58	41	0	808452096	52	6877
2026-01-19 04:51:25.04	319.54	6.13	-39.4	-40.8	26.1	3.03e+01	57	40	0	809500672	52	6683
2026-01-19 04:51:26.63	319.78	6.06	-39.8	-41.3	25.5	3.03e+01	39	41	0	812646400	52	7054
2026-01-19 04:51:27.20	319.87	6.04	-39.6	-41.1	25.8	3.03e+01	58	41	0	813694976	52	6903
2026-01-19 04:51:28.79	320.11	5.98	-40.0	-41.5	25.3	3.03e+01	58	40	0	816840704	54	6456
2026-01-19 04:51:29.37	320.19	5.95	-39.7	-41.2	25.6	3.03e+01	44	40	0	817889280	54	6257
2026-01-19 04:51:30.95	320.43	5.89	-39.9	-41.4	25.6	3.03e+01	58	40	0	821035008	54	6359
2026-01-19 04:51:31.53	320.52	5.86	-39.3	-40.8	26.0	3.03e+01	46	40	0	822083584	54	5941
2026-01-19 04:51:33.12	320.75	5.80	-39.8	-41.3	25.5	3.03e+01	57	40	0	824705024	54	6298
2026-01-19 04:51:33.70	320.84	5.78	-39.6	-41.1	25.7	3.03e+01	57	40	0	825753600	54	6159
2026-01-19 04:51:35.28	321.07	5.71	-40.2	-41.7	25.1	3.03e+01	58	40	0	828899328	54	6608
2026-01-19 04:51:35.87	321.16	5.69	-39.7	-41.2	25.6	3.03e+01	59	40	0	829947904	54	6219
2026-01-19 04:51:37.46	321.39	5.62	-39.6	-41.0	25.7	3.03e+01	44	40	0	833093632	54	6108
2026-01-19 04:51:38.04	321.48	5.60	-39.7	-41.1	25.7	3.03e+01	59	40	0	834142208	54	6200
2026-01-19 04:51:39.62	321.71	5.53	-39.8	-41.3	25.5	3.03e+01	57	41	0	837287936	54	6321
2026-01-19 04:51:40.20	321.79	5.51	-39.8	-41.3	25.4	3.03e+01	59	40	0	838336512	54	6328
2026-01-19 04:51:41.78	322.02	5.44	-40.5	-42.1	24.8	3.03e+01	57	41	0	840957952	54	6911
2026-01-19 04:51:42.36	322.11	5.42	-39.8	-41.3	25.5	3.03e+01	55	41	0	842006528	54	6292
2026-01-19 04:51:43.95	322.34	5.35	-39.4	-40.9	25.9	3.03e+01	57	41	0	845152256	54	6014
2026-01-19 04:51:44.53	322.42	5.33	-39.5	-41.0	25.7	3.03e+01	57	41	0	846200832	54	6082
2026-01-19 04:51:46.11	322.64	5.26	-40.0	-41.5	25.4	3.03e+01	60	41	0	849346560	54	6448
2026-01-19 04:51:46.69	322.73	5.24	-39.9	-41.5	25.3	3.03e+01	55	41	0	850395136	54	6425
2026-01-19 04:51:48.28	322.95	5.17	-39.4	-40.9	25.8	3.03e+01	58	41	0	853540864	54	6035
2026-01-19 04:51:48.85	323.03	5.14	-40.1	-41.6	25.1	3.03e+01	53	41	0	854589440	54	6536
2026-01-19 04:51:50.44	323.26	5.08	-39.9	-41.4	25.2	3.03e+01	55	41	0	857210880	54	6357
2026-01-19 04:51:51.02	323.34	5.05	-39.4	-40.9	25.8	3.03e+01	62	41	0	858259456	54	6035
2026-01-19 04:51:52.60	323.56	4.99	-39.9	-41.4	25.3	3.03e+01	58	41	0	861405184	54	6420
2026-01-19 04:51:53.18	323.64	4.96	-40.1	-41.6	25.0	3.03e+01	50	41	0	862453760	54	6551
2026-01-19 04:51:54.77	323.87	4.89	-39.7	-41.2	25.5	3.03e+01	53	41	0	865599488	54	6234
2026-01-19 04:51:55.35	323.95	4.87	-39.9	-41.4	25.2	3.03e+01	56	41	0	866648064	54	6375
2026-01-19 04:51:56.93	324.17	4.80	-39.9	-41.4	25.2	3.03e+01	60	41	0	869269504	54	6410
2026-01-19 04:51:57.51	324.25	4.78	-40.0	-41.5	25.1	3.03e+01	59	41	0	870318080	54	6474
2026-01-19 04:51:59.10	324.46	4.71	-39.9	-41.4	25.3	3.03e+01	57	40	0	873463808	54	6390
2026-01-19 04:51:59.67	324.54	4.69	-39.8	-41.4	25.2	3.03e+01	55	41	0	874512384	54	6356
2026-01-19 04:52:01.26	324.76	4.62	-39.9	-41.4	25.2	3.03e+01	44	41	0	877658112	54	6417
2026-01-19 04:52:01.84	324.84	4.59	-40.0	-41.6	25.0	3.03e+01	60	40	0	878706688	54	6531
2026-01-19 04:52:03.43	325.05	4.53	-40.1	-41.6	25.0	3.03e+01	59	41	0	881852416	54	6541
2026-01-19 04:52:04.01	325.13	4.50	-40.2	-41.8	24.9	3.03e+01	50	41	0	882900992	54	6688
2026-01-19 04:52:05.59	325.35	4.43	-40.6	-51.2	3.6	3.03e+01	0	41	104	883425280	54	19736
2026-01-19 04:52:06.17	325.42	4.41	-40.2	-50.6	3.6	3.03e+01	0	41	104	883425280	54	18461
2026-01-19 04:52:07.76	325.64	4.34	-41.1	-51.5	3.6	3.03e+01	0	41	104	883425280	54	20520
2026-01-19 04:52:08.33	325.71	4.31	-41.5	-52.0	3.6	3.03e+01	0	41	104	883425280	56	19245
2026-01-19 04:52:09.92	325.92	4.25	-48.9	-65.4	3.5	3.03e+01	0	41	104	883425280	60	71512
2026-01-19 04:52:10.49	326.00	4.22	-49.0	-65.7	3.5	3.03e+01	0	41	104	883425280	60	74251
2026-01-19 04:52:12.08	326.21	4.15	-43.8	-54.8	3.6	3.03e+01	0	41	104	883425280	60	21261
2026-01-19 04:52:12.66	326.29	4.13	-43.0	-53.8	3.6	3.03e+01	0	41	104	883425280	60	18773
2026-01-19 04:52:14.25	326.50	4.06	-42.9	-53.7	4.0	3.03e+01	0	41	104	883425280	60	18544
2026-01-19 04:52:14.82	326.57	4.03	-43.4	-54.3	3.4	3.03e+01	0	41	104	883425280	60	20042
2026-01-19 04:52:16.41	326.78	3.97	-42.1	-52.7	4.1	3.03e+01	0	41	104	883425280	60	16674
2026-01-19 04:52:16.98	326.85	3.94	-41.5	-52.1	4.0	3.03e+01	0	40	104	883425280	58	17446
2026-01-19 04:52:18.57	327.06	3.87	-43.8	-55.0	3.9	3.03e+01	0	40	104	883425280	60	21723
2026-01-19 04:52:19.15	327.13	3.85	-49.1	-66.6	3.5	3.03e+01	0	40	104	883425280	60	82402
2026-01-19 04:52:20.73	327.34	3.78	-42.9	-53.9	3.5	3.03e+01	0	41	104	883425280	60	19009
2026-01-19 04:52:21.31	327.41	3.75	-43.9	-55.2	3.5	3.03e+01	0	41	104	883425280	60	22219
2026-01-19 04:52:22.90	327.61	3.68	-44.1	-55.5	3.5	3.03e+01	0	41	104	883425280	60	22809
2026-01-19 04:52:23.47	327.69	3.66	-44.1	-55.4	3.5	3.03e+01	0	41	104	883425280	60	22677
2026-01-19 04:52:25.06	327.89	3.59	-43.8	-55.1	3.6	3.03e+01	0	40	104	883425280	60	21847
2026-01-19 04:52:25.64	327.96	3.56	-46.0	-58.2	3.5	3.03e+01	0	41	104	883425280	60	31411
2026-01-19 04:52:27.23	328.16	3.49	-42.6	-53.4	3.5	3.03e+01	0	41	104	883425280	60	18006
2026-01-19 04:52:27.80	328.23	3.47	-48.5	-66.1	3.5	3.03e+01	0	41	104	883425280	60	77432
2026-01-19 04:52:29.39	328.43	3.40	-45.8	-58.2	3.6	3.03e+01	0	41	104	883425280	60	31385
2026-01-19 04:52:29.97	328.51	3.37	-43.8	-55.1	3.5	3.03e+01	0	41	104	883425280	60	21850
2026-01-19 04:52:31.55	328.70	3.31	-42.4	-53.2	3.5	3.03e+01	0	41	104	883425280	60	17626
2026-01-19 04:52:32.13	328.77	3.28	-42.5	-53.4	3.5	3.03e+01	0	41	104	883425280	60	18020
2026-01-19 04:52:33.71	328.97	3.21	-43.7	-54.9	3.5	3.03e+01	0	41	104	883425280	60	21493
2026-01-19 04:52:34.29	329.04	3.18	-43.1	-54.3	3.5	3.03e+01	0	41	104	883425280	60	20009
2026-01-19 04:52:35.88	329.24	3.12	-44.6	-56.5	3.5	3.03e+01	0	41	104	883425280	60	25656
2026-01-19 04:52:36.45	329.31	3.09	-43.7	-55.3	3.5	3.03e+01	0	41	104	883425280	60	22392
2026-01-19 04:52:38.04	329.50	3.02	-46.1	-62.5	3.5	3.03e+01	0	41	104	883425280	60	51485
2026-01-19 04:52:38.62	329.57	2.99	-47.9	-65.6	3.5	3.03e+01	0	41	104	883425280	60	73427
2026-01-19 04:52:40.21	329.76	2.92	-49.7	-67.5	3.5	3.03e+01	0	41	104	883425280	60	91267
2026-01-19 04:52:40.79	329.83	2.90	-49.9	-67.7	3.5	3.03e+01	0	41	104	883425280	60	93828
2026-01-19 04:52:42.37	330.02	2.83	-50.4	-68.2	3.5	3.03e+01	0	41	104	883425280	60	99024
2026-01-19 04:52:42.95	330.09	2.80	-50.5	-68.4	3.5	3.03e+01	0	41	104	883425280	60	100774
2026-01-19 04:52:44.54	330.28	2.73	-50.7	-68.5	3.5	3.03e+01	0	41	104	883425280	60	102584
2026-01-19 04:52:45.11	330.35	2.71	-50.6	-68.5	3.5	3.03e+01	0	41	104	883425280	60	102648
2026-01-19 04:52:46.70	330.54	2.64	-50.8	-68.7	3.5	3.03e+01	0	41	104	883425280	60	104299
2026-01-19 04:52:47.28	330.61	2.61	-50.8	-68.6	3.5	3.03e+01	0	41	104	883425280	60	104162
2026-01-19 04:52:48.86	330.79	2.54	-50.8	-68.8	3.5	3.03e+01	0	41	104	883425280	60	105492
2026-01-19 04:52:49.44	330.86	2.52	-50.8	-68.8	3.5	3.03e+01	0	41	104	883425280	60	106020
2026-01-19 04:52:51.02	331.05	2.45	-50.8	-68.8	3.5	3.03e+01	0	41	104	883425280	60	105460
2026-01-19 04:52:51.60	331.11	2.42	-50.9	-68.7	3.5	3.03e+01	0	41	104	883425280	60	105295
2026-01-19 04:52:53.19	331.30	2.35	-50.9	-68.7	3.5	3.03e+01	0	41	104	883425280	60	105194
2026-01-19 04:52:53.77	331.36	2.33	-50.9	-68.7	3.5	3.03e+01	0	41	104	883425280	60	105092
2026-01-19 04:52:55.36	331.55	2.26	-50.7	-68.7	3.5	3.03e+01	0	41	104	883425280	60	104957
2026-01-19 04:52:55.93	331.61	2.23	-50.7	-68.7	3.5	3.03e+01	0	41	104	883425280	60	104542
2026-01-19 04:52:57.52	331.80	2.16	-50.8	-68.7	3.5	3.03e+01	0	41	104	883425280	60	104750
2026-01-19 04:52:58.10	331.86	2.14	-50.8	-68.7	3.5	3.03e+01	0	41	104	883425280	60	104527
2026-01-19 04:52:59.69	332.04	2.07	-50.8	-68.6	3.5	3.03e+01	0	41	104	883425280	60	103815
2026-01-19 04:53:00.26	332.11	2.04	-50.8	-68.6	3.5	3.03e+01	0	41	104	883425280	60	104032
2026-01-19 04:53:01.85	332.29	1.97	-50.6	-68.6	3.5	3.03e+01	0	41	104	883425280	60	103952
2026-01-19 04:53:02.43	332.35	1.94	-50.8	-68.6	3.5	3.03e+01	0	41	104	883425280	60	103851
2026-01-19 04:53:04.02	332.53	1.87	-50.9	-68.8	3.5	3.03e+01	0	41	104	883425280	60	105646
2026-01-19 04:53:04.60	332.60	1.85	-50.9	-68.7	3.5	3.03e+01	0	41	104	883425280	60	105133
2026-01-19 04:53:06.18	332.77	1.78	-50.9	-68.7	3.5	3.03e+01	0	41	104	883425280	60	105014
2026-01-19 04:53:06.76	332.84	1.75	-50.9	-68.7	3.5	3.03e+01	0	41	104	883425280	60	104715
2026-01-19 04:53:08.35	333.01	1.68	-50.9	-68.7	3.5	3.03e+01	0	41	104	883425280	60	104271
2026-01-19 04:53:08.92	333.08	1.66	-50.9	-68.7	3.5	3.03e+01	0	41	104	883425280	60	104873
2026-01-19 04:53:10.51	333.25	1.59	-50.8	-68.7	3.5	3.03e+01	0	41	104	883425280	60	104496
2026-01-19 04:53:11.09	333.32	1.56	-50.8	-68.7	3.5	3.03e+01	0	41	104	883425280	60	104550
2026-01-19 04:53:12.67	333.49	1.49	-50.8	-68.7	3.5	3.03e+01	0	41	104	883425280	60	104394
2026-01-19 04:53:13.25	333.55	1.47	-50.8	-68.7	3.5	3.03e+01	0	41	104	883425280	60	104785
2026-01-19 04:53:14.83	333.72	1.40	-50.8	-68.7	3.5	3.03e+01	0	41	104	883425280	60	104386
2026-01-19 04:53:15.41	333.79	1.37	-50.8	-68.7	3.5	3.03e+01	0	41	104	883425280	60	104463
2026-01-19 04:53:17.00	333.96	1.30	-50.8	-68.6	3.5	3.03e+01	0	41	104	883425280	60	104014
2026-01-19 04:53:17.57	334.02	1.27	-50.8	-68.6	3.5	3.03e+01	0	41	104	883425280	60	104105
2026-01-19 04:53:19.16	334.19	1.20	-50.8	-68.7	3.5	3.03e+01	0	41	104	883425280	60	104185
2026-01-19 04:53:19.74	334.25	1.18	-50.8	-68.7	3.5	3.03e+01	0	41	104	883425280	60	104321
2026-01-19 04:53:21.32	334.42	1.11	-50.8	-68.6	3.5	3.03e+01	0	41	104	883425280	60	103883
2026-01-19 04:53:21.90	334.48	1.08	-50.8	-68.7	3.5	3.03e+01	0	41	104	883425280	60	104558
2026-01-19 04:53:23.49	334.65	1.01	-50.8	-68.6	3.5	3.03e+01	0	41	104	883425280	60	103868
2026-01-19 04:53:24.07	334.71	0.99	-50.8	-68.7	3.5	3.03e+01	0	41	104	883425280	60	104483
2026-01-19 04:53:25.65	334.88	0.92	-50.8	-68.6	3.5	3.03e+01	0	41	104	883425280	60	104159
2026-01-19 04:53:26.23	334.94	0.89	-50.8	-68.7	3.5	3.03e+01	0	41	104	883425280	60	104628
2026-01-19 04:53:27.82	335.10	0.82	-50.8	-68.7	3.5	3.03e+01	0	41	104	883425280	60	104650
2026-01-19 04:53:28.39	335.16	0.79	-50.8	-68.7	3.5	3.03e+01	0	41	104	883425280	60	104589
2026-01-19 04:53:29.98	335.33	0.72	-50.8	-68.6	3.5	3.03e+01	0	41	104	883425280	60	104067
2026-01-19 04:53:30.57	335.39	0.70	-50.8	-68.7	3.5	3.03e+01	0	41	104	883425280	60	104384
2026-01-19 04:53:32.16	335.55	0.63	-50.8	-68.7	3.5	3.03e+01	0	41	104	883425280	60	104377
2026-01-19 04:53:32.73	335.61	0.60	-50.8	-68.6	3.5	3.03e+01	0	41	104	883425280	60	103974
2026-01-19 04:53:34.32	335.77	0.53	-50.8	-68.7	3.5	3.03e+01	0	41	104	883425280	60	104414
2026-01-19 04:53:34.90	335.83	0.51	-50.8	-68.7	3.5	3.03e+01	0	41	104	883425280	60	104512
2026-01-19 04:53:36.49	335.99	0.44	-50.8	-68.7	3.5	3.03e+01	0	41	104	883425280	60	104362
2026-01-19 04:53:37.06	336.05	0.41	-50.8	-68.7	3.5	3.03e+01	0	41	104	883425280	60	104206
2026-01-19 04:53:38.65	336.21	0.34	-50.8	-68.6	3.5	3.03e+01	0	41	104	883425280	60	104015
2026-01-19 04:53:39.23	336.27	0.32	-50.8	-68.7	3.5	3.03e+01	0	41	104	883425280	60	104539
2026-01-19 04:53:40.81	336.43	0.25	-50.8	-68.6	3.5	3.03e+01	0	41	104	883425280	60	103834
2026-01-19 04:53:41.39	336.48	0.22	-50.8	-68.7	3.5	3.03e+01	0	41	104	883425280	60	104321
2026-01-19 04:53:42.98	336.64	0.15	-50.8	-68.7	3.5	3.03e+01	0	41	104	883425280	60	104223
2026-01-19 04:53:43.55	336.70	0.13	-50.8	-68.7	3.5	3.03e+01	0	41	104	883425280	60	104313
2026-01-19 04:53:45.14	336.86	0.05	-50.8	-68.7	3.5	3.03e+01	0	41	104	883425280	60	104292
2026-01-19 04:53:45.72	336.91	0.03	-50.8	-68.6	3.5	3.03e+01	0	41	104	883425280	60	103978
2026-01-19 04:53:47.30	337.07	-0.04	-50.8	-68.7	3.5	3.03e+01	0	41	104	883425280	60	104285
2026-01-19 04:53:47.92	337.13	-0.07	-50.8	-68.7	3.5	3.03e+01	0	41	104	883425280	60	104530

#Closed at: 2026-01-19 04:53:49
#Recorded file [883 MB]: D:/lorett/data/35029_260119_164304.dat