passes_logs/2026/01/19/R4.6S_Anadyr/R4.6S_Anadyr__20260119_164958_SUOMI_NPP_rec.log

#Pass ID: 20260119_164958_SUOMI NPP
#Satellite: SUOMI NPP
#Configuration: NPP
#almurnet v.1.7.20251203
#Start time: 2026-01-19 16:49:59

#Version: 2.2.20231116
#Station: R4.6S_Anadyr
#Location: 177.4865 lon 64.73178 lat
#TLE: 1 37849U 11061A   26018.91022273  .00000066  00000+0  52264-4 0  9997
#TLE: 2 37849  98.7816 320.9252 0002364  56.8129 303.3273 14.19526186737260

#Time	Az	El	Level	Level2	SNR	BER	BlckErr	Temp	State	Recorded	gain1	gain2
2026-01-19 16:49:59.58	27.73	0.06	-51.2	-68.9	3.5	3.04e+01	0	38	0	0	60	107325
2026-01-19 16:50:00.58	27.68	0.11	-51.9	-67.0	3.6	1.51e+00	0	39	104	0	60	81020
2026-01-19 16:50:01.59	27.63	0.17	-51.9	-67.1	3.6	1.51e+00	0	39	104	0	60	81817
2026-01-19 16:50:02.60	27.59	0.22	-52.2	-67.4	3.6	1.51e+00	0	39	104	0	60	84336
2026-01-19 16:50:03.61	27.54	0.28	-50.8	-66.1	3.6	1.51e+00	0	39	104	0	60	72618
2026-01-19 16:50:04.62	27.49	0.34	-50.5	-65.8	3.6	1.51e+00	0	39	104	0	60	70308
2026-01-19 16:50:05.63	27.44	0.39	-50.2	-65.4	3.6	1.51e+00	0	39	104	0	60	67470
2026-01-19 16:50:06.64	27.40	0.45	-50.6	-65.8	3.6	1.51e+00	0	39	104	0	60	70575
2026-01-19 16:50:07.65	27.35	0.51	-51.3	-66.4	3.6	1.51e+00	0	39	104	0	60	75408
2026-01-19 16:50:08.66	27.30	0.57	-50.4	-65.6	3.6	1.51e+00	0	39	104	0	60	68553
2026-01-19 16:50:09.67	27.25	0.62	-50.4	-65.6	3.6	1.51e+00	0	39	104	0	60	68492
2026-01-19 16:50:10.68	27.20	0.68	-50.1	-65.3	3.6	1.51e+00	0	39	104	0	60	66634
2026-01-19 16:50:11.69	27.15	0.74	-50.1	-65.3	3.6	1.51e+00	0	39	104	0	60	66344
2026-01-19 16:50:12.70	27.11	0.79	-50.1	-65.3	3.6	1.51e+00	0	39	104	0	60	66738
2026-01-19 16:50:13.71	27.06	0.85	-50.0	-65.2	3.6	1.51e+00	0	39	104	0	60	65913
2026-01-19 16:50:14.71	27.01	0.91	-49.8	-65.0	3.6	1.51e+00	0	39	104	0	60	64203
2026-01-19 16:50:15.72	26.96	0.97	-49.8	-65.0	3.6	1.51e+00	0	39	104	0	60	64391
2026-01-19 16:50:16.73	26.91	1.02	-49.6	-64.9	3.6	1.51e+00	0	39	104	0	60	63199
2026-01-19 16:50:17.75	26.86	1.08	-49.6	-64.8	3.6	1.51e+00	0	39	104	0	60	62570
2026-01-19 16:50:18.75	26.81	1.14	-49.1	-64.6	3.6	1.51e+00	0	40	104	0	60	61564
2026-01-19 16:50:19.76	26.76	1.20	-49.3	-64.5	3.6	1.51e+00	0	40	104	0	60	60808
2026-01-19 16:50:20.77	26.71	1.26	-49.2	-64.4	3.6	1.51e+00	0	39	104	0	60	59857
2026-01-19 16:50:21.78	26.66	1.31	-49.1	-64.3	3.6	1.51e+00	0	39	104	0	60	59058
2026-01-19 16:50:22.79	26.60	1.37	-48.8	-64.0	3.6	1.51e+00	0	40	104	0	60	57276
2026-01-19 16:50:23.80	26.55	1.43	-48.5	-63.7	3.6	1.51e+00	0	40	104	0	60	55317
2026-01-19 16:50:24.81	26.50	1.49	-48.3	-63.5	3.6	1.51e+00	0	40	104	0	60	54141
2026-01-19 16:50:25.82	26.45	1.55	-48.3	-63.5	3.6	1.51e+00	0	40	104	0	60	53884
2026-01-19 16:50:26.83	26.40	1.61	-48.3	-63.4	3.6	1.51e+00	0	40	104	0	60	53638
2026-01-19 16:50:27.84	26.35	1.67	-48.3	-63.4	3.6	1.51e+00	0	39	104	0	60	53582
2026-01-19 16:50:28.85	26.29	1.72	-48.3	-63.4	3.6	1.51e+00	0	39	104	0	60	53572
2026-01-19 16:50:29.86	26.24	1.78	-48.3	-63.4	3.6	1.51e+00	0	40	104	0	60	53654
2026-01-19 16:50:30.87	26.19	1.84	-48.3	-63.4	3.5	1.51e+00	0	39	104	0	60	53465
2026-01-19 16:50:31.88	26.13	1.90	-48.3	-63.4	3.6	1.51e+00	0	39	104	0	60	53277
2026-01-19 16:50:32.89	26.08	1.96	-48.3	-63.3	3.6	1.51e+00	0	40	104	0	60	52885
2026-01-19 16:50:33.90	26.03	2.02	-48.3	-63.3	3.6	1.51e+00	0	39	104	0	60	53034
2026-01-19 16:50:34.91	25.97	2.08	-48.3	-63.2	3.6	1.51e+00	0	40	104	0	60	52010
2026-01-19 16:50:35.92	25.92	2.14	-48.3	-63.2	3.6	1.51e+00	0	40	104	0	60	52511
2026-01-19 16:50:36.93	25.87	2.20	-48.3	-63.4	3.6	1.51e+00	0	40	104	0	60	53280
2026-01-19 16:50:37.94	25.81	2.26	-48.3	-63.4	3.6	1.51e+00	0	40	104	0	60	53579
2026-01-19 16:50:38.95	25.76	2.32	-48.3	-63.5	3.6	1.51e+00	0	40	104	0	60	54025
2026-01-19 16:50:39.96	25.70	2.38	-48.3	-63.5	3.6	1.51e+00	0	40	104	0	60	53967
2026-01-19 16:50:40.97	25.65	2.44	-48.3	-63.5	3.6	1.51e+00	0	40	104	0	60	53788
2026-01-19 16:50:41.98	25.59	2.50	-48.3	-63.4	3.6	1.51e+00	0	40	104	0	60	53746
2026-01-19 16:50:42.99	25.53	2.56	-48.3	-63.4	3.6	1.51e+00	0	40	104	0	60	53596
2026-01-19 16:50:43.99	25.48	2.62	-48.3	-63.3	3.6	1.51e+00	0	40	104	0	60	52611
2026-01-19 16:50:45.00	25.42	2.68	-48.2	-63.1	3.6	1.51e+00	0	40	104	0	60	51863
2026-01-19 16:50:46.01	25.37	2.74	-48.3	-62.9	3.6	1.51e+00	0	40	104	0	60	50605
2026-01-19 16:50:47.02	25.31	2.80	-48.2	-62.7	3.6	1.51e+00	0	40	104	0	60	49605
2026-01-19 16:50:48.03	25.25	2.86	-48.2	-62.7	3.6	1.51e+00	0	40	104	0	60	49532
2026-01-19 16:50:49.04	25.20	2.92	-48.3	-63.3	3.6	1.51e+00	0	40	104	0	60	53014
2026-01-19 16:50:50.05	25.14	2.98	-48.3	-63.2	3.6	1.51e+00	0	40	104	0	60	52450
2026-01-19 16:50:51.06	25.08	3.04	-48.2	-61.9	3.6	1.51e+00	0	40	104	0	60	45055
2026-01-19 16:50:52.07	25.02	3.11	-47.9	-57.8	5.1	1.50e+00	92	40	104	0	60	28089
2026-01-19 16:50:53.08	24.96	3.17	-47.6	-55.0	6.9	2.67e-01	0	40	0	0	60	20296
2026-01-19 16:50:54.09	24.91	3.23	-47.1	-52.8	8.7	6.39e-02	0	40	0	2097152	60	15825
2026-01-19 16:50:55.10	24.85	3.29	-46.7	-51.8	10.2	2.87e-02	0	40	0	4194304	60	14075
2026-01-19 16:50:56.11	24.79	3.35	-46.7	-51.6	10.4	2.33e-03	0	40	0	6291456	60	13775
2026-01-19 16:50:57.12	24.73	3.41	-46.5	-51.4	10.5	2.34e-03	38	40	0	8388608	60	13392
2026-01-19 16:50:58.13	24.67	3.48	-48.1	-61.9	3.6	6.77e-01	0	40	104	9437184	60	44950
2026-01-19 16:50:59.14	24.61	3.54	-43.9	-46.3	15.6	1.46e+00	79	40	104	9437184	60	7472
2026-01-19 16:51:00.15	24.55	3.60	-48.1	-63.1	3.6	7.03e-01	0	40	104	9437184	60	51630
2026-01-19 16:51:01.16	24.49	3.66	-48.0	-57.4	5.3	1.40e+00	2	40	104	9437184	60	26882
2026-01-19 16:51:02.16	24.43	3.72	-45.2	-48.5	13.7	2.08e-02	0	40	0	9437184	60	9620
2026-01-19 16:51:03.18	24.37	3.79	-43.6	-45.9	16.6	0.00e+00	0	40	0	11534336	60	7098
2026-01-19 16:51:04.19	24.31	3.85	-43.1	-45.1	17.5	0.00e+00	52	40	0	13631488	60	6499
2026-01-19 16:51:05.20	24.25	3.91	-43.4	-45.5	16.8	0.00e+00	0	40	0	15728640	60	6826
2026-01-19 16:51:06.21	24.18	3.97	-43.6	-45.8	16.8	0.00e+00	76	40	0	16777216	60	7013
2026-01-19 16:51:07.22	24.12	4.04	-43.3	-45.4	16.9	0.00e+00	0	40	0	18874368	60	6720
2026-01-19 16:51:08.23	24.06	4.10	-43.1	-45.0	17.6	0.00e+00	0	40	0	20971520	60	6455
2026-01-19 16:51:09.23	24.00	4.16	-43.1	-45.1	17.4	0.00e+00	0	40	0	23068672	60	6488
2026-01-19 16:51:10.24	23.93	4.23	-42.8	-44.7	17.9	0.00e+00	0	40	0	25165824	60	6194
2026-01-19 16:51:11.25	23.87	4.29	-42.8	-44.7	17.8	0.00e+00	22	40	0	26214400	58	6939
2026-01-19 16:51:12.26	23.81	4.35	-42.7	-44.5	17.8	0.00e+00	0	40	0	28311552	58	6782
2026-01-19 16:51:13.27	23.74	4.42	-43.0	-44.9	17.7	0.00e+00	35	40	0	30408704	58	7125
2026-01-19 16:51:14.28	23.68	4.48	-42.5	-44.2	18.3	0.00e+00	0	40	0	32505856	58	6568
2026-01-19 16:51:15.29	23.62	4.54	-42.7	-44.5	18.2	0.00e+00	14	40	0	34603008	58	6776
2026-01-19 16:51:16.30	23.55	4.61	-42.9	-44.8	17.8	0.00e+00	0	40	0	35651584	58	7010
2026-01-19 16:51:17.31	23.49	4.67	-42.9	-44.7	17.8	0.00e+00	0	40	0	37748736	58	6960
2026-01-19 16:51:18.32	23.42	4.74	-42.8	-44.6	18.0	0.00e+00	0	40	0	39845888	58	6925
2026-01-19 16:51:19.33	23.36	4.80	-42.9	-44.8	17.9	0.00e+00	0	40	0	41943040	58	7050
2026-01-19 16:51:20.34	23.29	4.86	-42.6	-44.4	18.2	0.00e+00	20	40	0	44040192	58	6725
2026-01-19 16:51:21.35	23.22	4.93	-42.7	-44.4	18.2	0.00e+00	0	40	0	46137344	58	6757
2026-01-19 16:51:22.36	23.16	4.99	-42.6	-44.3	18.2	0.00e+00	92	40	0	47185920	58	6676
2026-01-19 16:51:23.37	23.09	5.06	-42.8	-44.6	18.0	0.00e+00	0	40	0	49283072	58	6883
2026-01-19 16:51:24.38	23.02	5.12	-42.3	-43.9	18.6	0.00e+00	31	40	0	51380224	58	6382
2026-01-19 16:51:25.39	22.96	5.19	-42.3	-43.9	18.7	0.00e+00	0	40	0	53477376	58	6356
2026-01-19 16:51:26.40	22.89	5.25	-42.4	-44.0	18.8	0.00e+00	0	40	0	55574528	58	6411
2026-01-19 16:51:27.41	22.82	5.32	-42.1	-43.7	19.0	0.00e+00	92	40	0	56623104	58	6188
2026-01-19 16:51:28.41	22.75	5.38	-42.0	-43.5	19.2	0.00e+00	0	40	0	58720256	58	6073
2026-01-19 16:51:29.43	22.68	5.45	-42.2	-43.7	19.0	0.00e+00	84	40	0	60817408	58	6208
2026-01-19 16:51:30.44	22.61	5.51	-42.1	-43.6	19.0	0.00e+00	0	40	0	62914560	58	6155
2026-01-19 16:51:31.44	22.55	5.58	-41.9	-43.4	19.3	0.00e+00	0	40	0	65011712	58	5992
2026-01-19 16:51:32.45	22.48	5.64	-41.9	-43.4	19.3	0.00e+00	0	40	0	66060288	58	5983
2026-01-19 16:51:33.46	22.41	5.71	-42.0	-43.5	19.2	0.00e+00	0	40	0	68157440	58	6077
2026-01-19 16:51:34.47	22.34	5.78	-41.9	-43.4	19.2	0.00e+00	51	40	0	70254592	58	6026
2026-01-19 16:51:35.48	22.27	5.84	-42.1	-43.6	19.1	0.00e+00	0	40	0	72351744	58	6148
2026-01-19 16:51:36.49	22.19	5.91	-42.3	-43.9	19.0	0.00e+00	92	40	0	74448896	58	6323
2026-01-19 16:51:37.50	22.12	5.98	-41.9	-43.4	19.4	0.00e+00	0	40	0	75497472	58	5996
2026-01-19 16:51:38.51	22.05	6.04	-41.9	-43.3	19.5	0.00e+00	0	40	0	77594624	56	6650
2026-01-19 16:51:39.52	21.98	6.11	-41.9	-43.3	19.5	0.00e+00	0	40	0	79691776	56	6658
2026-01-19 16:51:40.53	21.91	6.18	-41.9	-43.4	19.6	0.00e+00	0	40	0	81788928	56	6727
2026-01-19 16:51:41.54	21.83	6.24	-41.8	-43.2	19.5	0.00e+00	54	40	0	83886080	56	6612
2026-01-19 16:51:42.55	21.76	6.31	-41.8	-43.3	19.6	0.00e+00	0	40	0	84934656	56	6629
2026-01-19 16:51:43.56	21.69	6.38	-41.8	-43.2	19.7	0.00e+00	72	40	0	87031808	56	6564
2026-01-19 16:51:44.57	21.61	6.44	-41.7	-43.1	19.6	0.00e+00	0	40	0	89128960	56	6490
2026-01-19 16:51:45.58	21.54	6.51	-42.1	-43.6	19.5	0.00e+00	2	40	0	91226112	56	6881
2026-01-19 16:51:46.59	21.47	6.58	-42.2	-43.7	19.0	0.00e+00	0	40	0	93323264	56	6968
2026-01-19 16:51:47.59	21.39	6.65	-41.9	-43.3	19.6	0.00e+00	0	40	0	94371840	56	6636
2026-01-19 16:51:48.60	21.32	6.71	-42.0	-43.5	19.4	0.00e+00	41	40	0	96468992	56	6783
2026-01-19 16:51:49.61	21.24	6.78	-42.1	-43.5	19.4	0.00e+00	0	40	0	98566144	56	6825
2026-01-19 16:51:50.62	21.16	6.85	-42.2	-43.7	19.2	0.00e+00	92	40	0	100663296	56	6948
2026-01-19 16:51:51.63	21.09	6.92	-42.4	-43.9	18.9	0.00e+00	0	40	0	102760448	56	7124
2026-01-19 16:51:52.64	21.01	6.99	-42.5	-44.1	19.2	0.00e+00	92	40	0	103809024	58	6483
2026-01-19 16:51:53.66	20.93	7.06	-42.0	-43.5	19.4	0.00e+00	0	40	0	105906176	58	6086
2026-01-19 16:51:54.66	20.86	7.12	-42.3	-43.8	19.2	0.00e+00	0	40	0	108003328	58	6316
2026-01-19 16:51:55.68	20.78	7.19	-42.0	-43.5	19.5	0.00e+00	0	40	0	110100480	58	6061
2026-01-19 16:51:56.68	20.70	7.26	-42.1	-43.5	19.5	0.00e+00	0	40	0	112197632	58	6101
2026-01-19 16:51:57.69	20.62	7.33	-41.9	-43.3	19.6	0.00e+00	36	40	0	114294784	58	5938
2026-01-19 16:51:58.70	20.54	7.40	-42.1	-43.6	19.3	0.00e+00	0	40	0	115343360	58	6142
2026-01-19 16:51:59.71	20.46	7.47	-42.0	-43.4	19.4	0.00e+00	92	40	0	117440512	58	6022
2026-01-19 16:52:00.70	20.38	7.54	-41.9	-43.3	19.7	0.00e+00	0	40	0	119537664	58	5923
2026-01-19 16:52:01.69	20.31	7.60	-41.9	-43.4	19.6	0.00e+00	0	40	0	121634816	58	5972
2026-01-19 16:52:02.70	20.23	7.67	-42.0	-43.5	19.5	0.00e+00	0	40	0	122683392	56	6786
2026-01-19 16:52:03.71	20.14	7.74	-41.9	-43.3	19.6	0.00e+00	0	40	0	124780544	56	6670
2026-01-19 16:52:04.72	20.06	7.81	-41.9	-43.3	19.7	0.00e+00	45	40	0	126877696	56	6643
2026-01-19 16:52:05.73	19.98	7.88	-41.9	-43.3	19.7	0.00e+00	0	40	0	128974848	56	6682
2026-01-19 16:52:06.74	19.90	7.95	-41.9	-43.4	19.7	0.00e+00	68	40	0	131072000	56	6712
2026-01-19 16:52:07.75	19.82	8.02	-42.1	-43.5	19.2	0.00e+00	0	40	0	132120576	56	6819
2026-01-19 16:52:08.75	19.73	8.09	-41.8	-43.2	19.8	0.00e+00	0	40	0	134217728	56	6546
2026-01-19 16:52:09.76	19.65	8.16	-41.9	-43.4	19.7	0.00e+00	0	40	0	136314880	56	6718
2026-01-19 16:52:10.77	19.57	8.24	-42.1	-43.5	19.6	0.00e+00	0	40	0	138412032	56	6838
2026-01-19 16:52:11.78	19.48	8.31	-41.8	-43.2	19.8	0.00e+00	45	40	0	140509184	56	6588
2026-01-19 16:52:12.79	19.40	8.38	-41.9	-43.3	19.7	0.00e+00	0	40	0	142606336	56	6680
2026-01-19 16:52:13.80	19.31	8.45	-42.1	-43.6	19.5	0.00e+00	67	40	0	143654912	56	6864
2026-01-19 16:52:14.81	19.23	8.52	-41.8	-43.2	19.9	0.00e+00	0	40	0	145752064	56	6553
2026-01-19 16:52:15.82	19.14	8.59	-41.7	-43.1	19.9	0.00e+00	71	40	0	147849216	56	6511
2026-01-19 16:52:16.83	19.05	8.66	-41.7	-43.1	20.0	0.00e+00	0	40	0	149946368	56	6494
2026-01-19 16:52:17.84	18.97	8.73	-41.6	-43.0	20.1	0.00e+00	0	40	0	152043520	56	6417
2026-01-19 16:52:18.85	18.88	8.81	-41.5	-42.8	20.1	0.00e+00	0	40	0	153092096	56	6308
2026-01-19 16:52:19.86	18.79	8.88	-41.6	-42.9	20.1	0.00e+00	0	40	0	155189248	56	6387
2026-01-19 16:52:20.87	18.70	8.95	-41.2	-42.5	20.5	0.00e+00	48	40	0	157286400	56	6048
2026-01-19 16:52:21.88	18.61	9.02	-41.2	-42.4	20.6	0.00e+00	0	40	0	159383552	56	6014
2026-01-19 16:52:22.89	18.52	9.10	-41.2	-42.5	20.5	0.00e+00	19	40	0	161480704	56	6040
2026-01-19 16:52:23.90	18.44	9.17	-41.5	-42.8	20.3	0.00e+00	0	40	0	162529280	56	6295
2026-01-19 16:52:24.91	18.34	9.24	-41.1	-42.4	20.6	0.00e+00	0	40	0	164626432	56	6001
2026-01-19 16:52:25.92	18.25	9.31	-41.1	-42.3	20.7	0.00e+00	0	40	0	166723584	56	5949
2026-01-19 16:52:26.93	18.16	9.39	-41.3	-42.5	20.6	0.00e+00	0	40	0	168820736	56	6088
2026-01-19 16:52:27.94	18.07	9.46	-41.1	-42.3	20.7	0.00e+00	48	40	0	170917888	56	5928
2026-01-19 16:52:28.95	17.98	9.53	-41.1	-42.3	20.7	0.00e+00	0	40	0	171966464	56	5962
2026-01-19 16:52:29.96	17.89	9.61	-41.1	-42.4	20.7	0.00e+00	90	40	0	174063616	56	5971
2026-01-19 16:52:30.97	17.79	9.68	-41.1	-42.4	20.6	0.00e+00	0	40	0	176160768	56	5995
2026-01-19 16:52:31.98	17.70	9.75	-41.3	-42.6	20.5	0.00e+00	0	40	0	178257920	56	6104
2026-01-19 16:52:32.99	17.61	9.83	-41.4	-42.7	20.4	0.00e+00	0	40	0	180355072	56	6200
2026-01-19 16:52:34.00	17.51	9.90	-41.4	-42.8	20.2	0.00e+00	0	40	0	181403648	56	6248
2026-01-19 16:52:35.01	17.42	9.98	-41.5	-42.9	20.2	0.00e+00	46	40	0	183500800	56	6369
2026-01-19 16:52:36.02	17.32	10.05	-41.9	-43.3	19.7	0.00e+00	0	40	0	185597952	56	6658
2026-01-19 16:52:37.03	17.23	10.12	-42.1	-43.5	19.6	0.00e+00	68	40	0	187695104	56	6835
2026-01-19 16:52:38.04	17.13	10.20	-41.9	-43.3	19.9	0.00e+00	0	40	0	189792256	56	6668
2026-01-19 16:52:39.04	17.03	10.27	-41.7	-43.1	20.0	0.00e+00	32	40	0	190840832	56	6489
2026-01-19 16:52:40.06	16.93	10.35	-41.8	-43.2	19.9	0.00e+00	0	40	0	192937984	56	6542
2026-01-19 16:52:41.07	16.84	10.42	-41.2	-42.4	20.6	0.00e+00	0	40	0	195035136	56	6026
2026-01-19 16:52:42.08	16.74	10.50	-41.2	-42.5	20.6	0.00e+00	6	40	0	197132288	56	6091
2026-01-19 16:52:43.09	16.64	10.57	-41.1	-42.3	20.7	0.00e+00	0	40	0	199229440	56	5940
2026-01-19 16:52:44.09	16.54	10.65	-40.9	-42.1	21.0	0.00e+00	92	40	0	200278016	56	5789
2026-01-19 16:52:45.11	16.44	10.72	-41.1	-42.4	20.7	0.00e+00	0	40	0	202375168	56	5975
2026-01-19 16:52:46.11	16.34	10.80	-40.9	-42.1	20.9	0.00e+00	0	40	0	204472320	56	5819
2026-01-19 16:52:47.13	16.24	10.88	-41.0	-42.3	20.8	0.00e+00	0	40	0	206569472	56	5925
2026-01-19 16:52:48.14	16.13	10.95	-41.2	-42.5	20.5	0.00e+00	0	40	0	208666624	56	6067
2026-01-19 16:52:49.15	16.03	11.03	-41.3	-42.5	20.7	0.00e+00	54	40	0	210763776	56	6086
2026-01-19 16:52:50.16	15.93	11.10	-41.3	-42.5	20.7	0.00e+00	0	40	0	211812352	56	6100
2026-01-19 16:52:51.17	15.83	11.18	-41.1	-42.4	20.7	0.00e+00	92	40	0	213909504	56	5967
2026-01-19 16:52:52.17	15.72	11.26	-40.9	-42.1	21.0	0.00e+00	0	40	0	216006656	56	5800
2026-01-19 16:52:53.19	15.62	11.33	-40.6	-41.8	21.2	0.00e+00	0	40	0	218103808	54	6298
2026-01-19 16:52:54.19	15.51	11.41	-40.9	-42.1	20.9	0.00e+00	0	40	0	220200960	54	6512
2026-01-19 16:52:55.20	15.41	11.49	-40.7	-41.9	21.1	0.00e+00	0	40	0	221249536	54	6367
2026-01-19 16:52:56.21	15.30	11.56	-40.8	-42.0	21.0	0.00e+00	9	40	0	223346688	54	6421
2026-01-19 16:52:57.22	15.19	11.64	-40.9	-42.1	21.0	0.00e+00	0	40	0	225443840	54	6518
2026-01-19 16:52:58.23	15.09	11.72	-40.7	-41.9	21.2	0.00e+00	50	40	0	227540992	54	6335
2026-01-19 16:52:59.24	14.98	11.80	-40.7	-41.9	21.3	0.00e+00	0	40	0	229638144	54	6332
2026-01-19 16:53:00.25	14.87	11.87	-40.6	-41.8	21.2	0.00e+00	92	40	0	230686720	54	6286
2026-01-19 16:53:01.26	14.76	11.95	-40.6	-41.8	21.3	0.00e+00	0	40	0	232783872	54	6266
2026-01-19 16:53:02.27	14.65	12.03	-40.9	-42.2	21.1	0.00e+00	0	40	0	234881024	54	6547
2026-01-19 16:53:03.28	14.54	12.11	-41.0	-42.3	20.8	0.00e+00	0	40	0	236978176	54	6636
2026-01-19 16:53:04.29	14.43	12.19	-41.5	-42.8	20.5	0.00e+00	0	40	0	239075328	54	7050
2026-01-19 16:53:05.30	14.32	12.27	-41.2	-42.5	20.6	0.00e+00	90	40	0	240123904	54	6818
2026-01-19 16:53:06.31	14.20	12.34	-41.3	-42.5	20.7	0.00e+00	0	40	0	242221056	54	6827
2026-01-19 16:53:07.32	14.09	12.42	-41.2	-42.4	20.7	0.00e+00	21	40	0	244318208	54	6766
2026-01-19 16:53:08.33	13.98	12.50	-41.0	-42.3	20.8	0.00e+00	0	40	0	246415360	54	6643
2026-01-19 16:53:09.34	13.86	12.58	-40.7	-41.9	21.0	0.00e+00	0	40	0	248512512	54	6376
2026-01-19 16:53:10.35	13.75	12.66	-41.1	-42.3	20.5	0.00e+00	0	40	0	249561088	54	6681
2026-01-19 16:53:11.36	13.63	12.74	-41.0	-42.3	20.7	0.00e+00	32	40	0	251658240	54	6642
2026-01-19 16:53:12.37	13.52	12.82	-41.4	-42.7	20.6	0.00e+00	65	40	0	253755392	54	6944
2026-01-19 16:53:13.38	13.40	12.90	-41.2	-42.4	20.8	0.00e+00	0	40	0	255852544	54	6767
2026-01-19 16:53:14.39	13.28	12.98	-41.1	-42.4	20.7	0.00e+00	72	40	0	257949696	54	6702
2026-01-19 16:53:15.40	13.17	13.06	-41.1	-42.3	20.8	0.00e+00	0	40	0	258998272	54	6680
2026-01-19 16:53:16.41	13.05	13.14	-40.9	-42.2	21.0	0.00e+00	0	40	0	261095424	54	6546
2026-01-19 16:53:17.42	12.93	13.22	-40.9	-42.1	20.6	0.00e+00	0	40	0	263192576	54	6495
2026-01-19 16:53:18.43	12.81	13.30	-41.2	-42.4	20.8	0.00e+00	0	40	0	265289728	54	6761
2026-01-19 16:53:19.44	12.69	13.38	-41.1	-42.4	20.8	0.00e+00	51	40	0	267386880	54	6697
2026-01-19 16:53:20.45	12.57	13.46	-40.7	-41.8	21.2	0.00e+00	0	40	0	268435456	54	6316
2026-01-19 16:53:21.46	12.44	13.54	-40.5	-41.6	21.5	0.00e+00	89	40	0	270532608	54	6148
2026-01-19 16:53:22.47	12.32	13.62	-40.3	-41.4	21.7	0.00e+00	0	40	0	272629760	54	6019
2026-01-19 16:53:23.48	12.20	13.70	-40.2	-41.4	21.7	0.00e+00	0	40	0	274726912	54	5965
2026-01-19 16:53:24.49	12.07	13.78	-40.5	-41.6	21.5	0.00e+00	0	40	0	276824064	54	6147
2026-01-19 16:53:25.50	11.95	13.86	-40.3	-41.4	21.5	0.00e+00	0	40	0	278921216	54	5984
2026-01-19 16:53:26.51	11.82	13.94	-40.4	-41.5	21.7	0.00e+00	11	40	0	279969792	54	6036
2026-01-19 16:53:27.52	11.70	14.03	-40.5	-41.6	21.6	0.00e+00	0	40	0	282066944	54	6150
2026-01-19 16:53:28.53	11.57	14.11	-40.6	-41.8	21.2	0.00e+00	90	40	0	284164096	54	6262
2026-01-19 16:53:29.53	11.44	14.19	-40.7	-41.8	21.4	0.00e+00	0	40	0	286261248	54	6296
2026-01-19 16:53:30.54	11.31	14.27	-40.2	-41.2	21.9	0.00e+00	60	40	0	288358400	54	5867
2026-01-19 16:53:31.55	11.19	14.35	-40.5	-41.6	21.4	0.00e+00	0	40	0	289406976	54	6150
2026-01-19 16:53:32.56	11.06	14.43	-40.3	-41.4	21.5	0.00e+00	0	40	0	291504128	54	6029
2026-01-19 16:53:33.57	10.92	14.52	-40.2	-41.3	21.7	0.00e+00	56	40	0	293601280	54	5941
2026-01-19 16:53:34.58	10.79	14.60	-40.5	-41.6	21.5	0.00e+00	0	40	0	295698432	54	6139
2026-01-19 16:53:35.59	10.66	14.68	-40.6	-41.7	21.4	0.00e+00	92	40	0	297795584	54	6227
2026-01-19 16:53:36.60	10.53	14.76	-40.5	-41.6	21.4	0.00e+00	0	40	0	298844160	54	6155
2026-01-19 16:53:37.61	10.39	14.85	-40.9	-42.1	20.7	0.00e+00	66	40	0	300941312	54	6496
2026-01-19 16:53:38.62	10.26	14.93	-40.4	-41.6	21.3	0.00e+00	0	40	0	303038464	54	6104
2026-01-19 16:53:39.63	10.13	15.01	-40.9	-42.1	21.0	0.00e+00	0	40	0	305135616	54	6507
2026-01-19 16:53:40.64	9.99	15.10	-41.1	-42.4	20.8	0.00e+00	0	40	0	307232768	54	6699
2026-01-19 16:53:41.65	9.85	15.18	-41.1	-42.3	21.0	0.00e+00	0	40	0	308281344	54	6673
2026-01-19 16:53:42.66	9.72	15.26	-41.1	-42.4	20.8	0.00e+00	34	40	0	310378496	54	6719
2026-01-19 16:53:43.66	9.58	15.34	-40.9	-42.1	21.0	0.00e+00	0	40	0	312475648	54	6536
2026-01-19 16:53:44.68	9.44	15.43	-40.9	-42.1	21.2	0.00e+00	92	40	0	314572800	54	6519
2026-01-19 16:53:45.68	9.30	15.51	-40.9	-42.1	21.1	0.00e+00	0	40	0	316669952	54	6503
2026-01-19 16:53:46.69	9.16	15.60	-40.3	-41.4	21.5	0.00e+00	0	40	0	317718528	54	6016
2026-01-19 16:53:47.70	9.02	15.68	-40.8	-42.0	21.3	0.00e+00	0	40	0	319815680	54	6396
2026-01-19 16:53:48.71	8.87	15.76	-40.9	-42.1	21.3	0.00e+00	0	40	0	321912832	54	6523
2026-01-19 16:53:49.72	8.73	15.85	-40.6	-41.7	21.6	0.00e+00	41	40	0	324009984	54	6237
2026-01-19 16:53:50.73	8.59	15.93	-40.7	-41.8	21.5	0.00e+00	0	40	0	326107136	54	6298
2026-01-19 16:53:51.74	8.44	16.02	-40.3	-41.4	21.8	0.00e+00	85	40	0	327155712	54	5987
2026-01-19 16:53:52.75	8.30	16.10	-40.5	-41.7	21.6	0.00e+00	0	40	0	329252864	54	6180
2026-01-19 16:53:53.76	8.15	16.19	-40.4	-41.6	21.7	0.00e+00	0	40	0	331350016	54	6104
2026-01-19 16:53:54.77	8.00	16.27	-39.8	-40.9	22.0	0.00e+00	0	40	0	333447168	54	5659
2026-01-19 16:53:55.78	7.86	16.35	-40.3	-41.4	21.8	0.00e+00	0	40	0	335544320	54	6010
2026-01-19 16:53:56.79	7.71	16.44	-40.2	-41.4	21.9	0.00e+00	49	40	0	336592896	54	5981
2026-01-19 16:53:57.80	7.56	16.52	-40.0	-41.0	22.1	0.00e+00	0	40	0	338690048	54	5760
2026-01-19 16:53:58.81	7.41	16.61	-39.8	-40.9	22.2	0.00e+00	92	40	0	340787200	54	5675
2026-01-19 16:53:59.82	7.25	16.69	-39.4	-40.4	22.7	0.00e+00	0	40	0	342884352	52	6006
2026-01-19 16:54:00.83	7.10	16.78	-39.6	-40.6	22.4	0.00e+00	38	40	0	344981504	52	6159
2026-01-19 16:54:01.83	6.95	16.86	-39.6	-40.6	22.5	0.00e+00	0	40	0	346030080	52	6130
2026-01-19 16:54:02.84	6.80	16.95	-39.7	-40.7	22.4	0.00e+00	0	40	0	348127232	52	6191
2026-01-19 16:54:03.85	6.64	17.03	-39.5	-40.5	22.7	0.00e+00	51	40	0	350224384	52	6063
2026-01-19 16:54:04.86	6.48	17.12	-39.4	-40.3	22.7	0.00e+00	0	40	0	352321536	52	5951
2026-01-19 16:54:05.87	6.33	17.21	-39.3	-40.2	22.7	0.00e+00	92	40	0	354418688	52	5872
2026-01-19 16:54:06.88	6.17	17.29	-39.4	-40.3	22.7	0.00e+00	0	40	0	355467264	52	5956
2026-01-19 16:54:07.89	6.01	17.38	-39.3	-40.3	22.8	0.00e+00	75	40	0	357564416	52	5944
2026-01-19 16:54:08.90	5.85	17.46	-39.6	-40.6	22.5	0.00e+00	0	40	0	359661568	52	6134
2026-01-19 16:54:09.91	5.69	17.55	-39.7	-40.7	22.4	0.00e+00	0	40	0	361758720	52	6206
2026-01-19 16:54:10.92	5.53	17.63	-39.9	-40.9	22.1	0.00e+00	0	40	0	363855872	52	6376
2026-01-19 16:54:11.93	5.37	17.72	-40.1	-41.1	22.1	0.00e+00	0	40	0	364904448	52	6535
2026-01-19 16:54:12.94	5.20	17.81	-39.9	-41.0	22.0	0.00e+00	85	40	0	367001600	52	6433
2026-01-19 16:54:13.95	5.04	17.89	-40.3	-41.4	21.6	0.00e+00	0	40	0	369098752	52	6740
2026-01-19 16:54:14.96	4.87	17.98	-40.0	-41.1	22.1	0.00e+00	92	40	0	371195904	52	6523
2026-01-19 16:54:15.97	4.71	18.07	-39.8	-40.9	22.1	0.00e+00	0	40	0	373293056	52	6335
2026-01-19 16:54:16.98	4.54	18.15	-40.0	-41.1	22.1	0.00e+00	0	40	0	375390208	52	6465
2026-01-19 16:54:17.99	4.37	18.24	-40.0	-41.1	22.0	0.00e+00	0	40	0	376438784	52	6508
2026-01-19 16:54:19.00	4.20	18.32	-40.2	-41.3	21.7	0.00e+00	0	40	0	378535936	52	6616
2026-01-19 16:54:20.01	4.03	18.41	-40.1	-41.1	21.3	0.00e+00	54	40	0	380633088	52	6536
2026-01-19 16:54:21.01	3.86	18.50	-40.1	-41.2	21.7	0.00e+00	0	40	0	382730240	52	6574
2026-01-19 16:54:22.02	3.69	18.58	-40.2	-41.3	22.0	0.00e+00	58	40	0	384827392	52	6690
2026-01-19 16:54:23.03	3.52	18.67	-40.0	-41.1	22.1	0.00e+00	0	40	0	385875968	52	6513
2026-01-19 16:54:24.04	3.34	18.76	-39.7	-40.7	22.2	0.00e+00	0	40	0	387973120	52	6215
2026-01-19 16:54:25.05	3.17	18.84	-39.7	-40.7	22.5	0.00e+00	0	40	0	390070272	52	6200
2026-01-19 16:54:26.06	2.99	18.93	-39.5	-40.4	22.8	0.00e+00	0	40	0	392167424	52	6014
2026-01-19 16:54:27.07	2.81	19.02	-39.2	-40.1	22.9	0.00e+00	56	40	0	394264576	52	5823
2026-01-19 16:54:28.08	2.64	19.10	-39.1	-40.1	22.8	0.00e+00	0	40	0	395313152	52	5772
2026-01-19 16:54:29.09	2.46	19.19	-39.5	-40.5	22.7	0.00e+00	91	40	0	397410304	52	6057
2026-01-19 16:54:30.10	2.28	19.28	-39.4	-40.4	22.7	0.00e+00	0	40	0	399507456	52	5972
2026-01-19 16:54:31.11	2.09	19.36	-39.9	-40.9	22.2	0.00e+00	0	40	0	401604608	52	6357
2026-01-19 16:54:32.12	1.91	19.45	-40.0	-41.1	22.1	0.00e+00	0	40	0	403701760	52	6468
2026-01-19 16:54:33.13	1.73	19.53	-40.0	-41.1	22.1	0.00e+00	0	40	0	404750336	52	6485
2026-01-19 16:54:34.14	1.54	19.62	-40.2	-41.4	22.0	0.00e+00	56	40	0	406847488	52	6693
2026-01-19 16:54:35.15	1.36	19.71	-40.4	-41.5	21.9	0.00e+00	0	40	0	408944640	52	6835
2026-01-19 16:54:36.16	1.17	19.79	-40.2	-41.3	21.8	0.00e+00	92	40	0	411041792	52	6652
2026-01-19 16:54:37.17	0.98	19.88	-40.1	-41.2	21.8	0.00e+00	0	40	0	413138944	52	6585
2026-01-19 16:54:38.18	0.79	19.97	-40.3	-41.4	21.9	0.00e+00	40	40	0	414187520	52	6739
2026-01-19 16:54:39.18	0.61	20.05	-40.3	-41.5	21.7	0.00e+00	0	40	0	416284672	52	6790
2026-01-19 16:54:40.19	0.42	20.14	-40.7	-41.9	21.4	0.00e+00	0	40	0	418381824	52	7145
2026-01-19 16:54:41.20	0.22	20.23	-40.8	-41.9	21.4	0.00e+00	57	40	0	420478976	54	6383
2026-01-19 16:54:42.21	0.03	20.31	-40.6	-41.8	21.5	0.00e+00	0	40	0	422576128	54	6263
2026-01-19 16:54:43.22	359.84	20.40	-40.4	-41.5	21.8	0.00e+00	53	40	0	423624704	54	6075
2026-01-19 16:54:44.23	359.64	20.48	-40.4	-41.4	21.9	0.00e+00	0	40	0	425721856	54	6011
2026-01-19 16:54:45.24	359.44	20.57	-40.0	-41.0	22.3	0.00e+00	64	40	0	427819008	54	5755
2026-01-19 16:54:46.25	359.25	20.66	-39.8	-40.8	22.4	0.00e+00	0	40	0	429916160	54	5625
2026-01-19 16:54:47.26	359.05	20.74	-39.8	-40.8	22.4	0.00e+00	0	40	0	432013312	52	6308
2026-01-19 16:54:48.27	358.85	20.83	-40.2	-41.2	22.1	0.00e+00	0	40	0	433061888	52	6596
2026-01-19 16:54:49.28	358.65	20.92	-40.6	-41.7	21.7	0.00e+00	0	40	0	435159040	52	6961
2026-01-19 16:54:50.29	358.44	21.00	-40.8	-41.9	21.4	0.00e+00	26	40	0	437256192	54	6376
2026-01-19 16:54:51.30	358.24	21.09	-40.8	-42.0	21.3	0.00e+00	0	40	0	439353344	54	6418
2026-01-19 16:54:52.31	358.04	21.17	-40.7	-41.8	21.5	0.00e+00	96	40	0	441450496	54	6314
2026-01-19 16:54:53.31	357.83	21.26	-40.6	-41.7	21.4	0.00e+00	0	40	0	443547648	54	6237
2026-01-19 16:54:54.33	357.62	21.34	-39.6	-40.6	22.5	0.00e+00	0	40	0	444596224	52	6169
2026-01-19 16:54:55.34	357.42	21.43	-39.4	-40.3	22.7	0.00e+00	0	40	0	446693376	52	5958
2026-01-19 16:54:56.34	357.21	21.51	-39.8	-40.8	22.6	0.00e+00	0	40	0	448790528	52	6300
2026-01-19 16:54:57.35	357.00	21.60	-39.5	-40.5	22.6	0.00e+00	46	40	0	450887680	52	6076
2026-01-19 16:54:58.36	356.79	21.68	-39.6	-40.6	22.3	0.00e+00	33	40	0	452984832	52	6161
2026-01-19 16:54:59.37	356.57	21.77	-39.6	-40.7	22.4	0.00e+00	92	40	0	454033408	52	6174
2026-01-19 16:55:00.38	356.36	21.85	-39.7	-40.7	22.4	0.00e+00	0	40	0	456130560	52	6216
2026-01-19 16:55:01.39	356.15	21.94	-39.5	-40.5	22.7	0.00e+00	32	40	0	458227712	52	6064
2026-01-19 16:55:02.40	355.93	22.02	-39.6	-40.6	22.6	0.00e+00	0	40	0	460324864	52	6148
2026-01-19 16:55:03.41	355.71	22.11	-39.7	-40.7	22.5	0.00e+00	0	40	0	462422016	52	6218
2026-01-19 16:55:04.42	355.49	22.19	-39.8	-40.8	22.4	0.00e+00	51	40	0	463470592	52	6291
2026-01-19 16:55:05.43	355.27	22.27	-39.9	-41.0	22.0	0.00e+00	0	40	0	465567744	52	6423
2026-01-19 16:55:06.44	355.05	22.36	-40.0	-41.1	22.0	0.00e+00	74	40	0	467664896	52	6539
2026-01-19 16:55:07.45	354.83	22.44	-40.4	-41.5	21.8	0.00e+00	0	40	0	469762048	52	6823
2026-01-19 16:55:08.46	354.61	22.52	-40.5	-41.8	21.6	0.00e+00	14	40	0	471859200	52	7023
2026-01-19 16:55:09.47	354.38	22.61	-39.6	-40.6	22.5	0.00e+00	0	40	0	472907776	52	6171
2026-01-19 16:55:10.47	354.16	22.69	-39.6	-40.7	22.4	0.00e+00	0	40	0	475004928	52	6195
2026-01-19 16:55:11.48	353.93	22.77	-39.1	-40.0	23.1	0.00e+00	0	40	0	477102080	52	5760
2026-01-19 16:55:12.49	353.70	22.85	-38.5	-39.4	23.6	0.00e+00	0	40	0	479199232	50	6003
2026-01-19 16:55:13.50	353.47	22.94	-38.2	-39.1	23.8	0.00e+00	91	40	0	481296384	50	5787
2026-01-19 16:55:14.51	353.24	23.02	-38.2	-39.1	23.8	0.00e+00	0	40	0	482344960	50	5775
2026-01-19 16:55:15.52	353.01	23.10	-38.4	-39.3	23.5	0.00e+00	71	40	0	484442112	50	5920
2026-01-19 16:55:16.53	352.78	23.18	-38.6	-39.5	23.3	0.00e+00	0	40	0	486539264	50	6098
2026-01-19 16:55:17.54	352.54	23.26	-38.7	-39.7	23.2	0.00e+00	0	40	0	488636416	50	6179
2026-01-19 16:55:18.56	352.30	23.34	-38.7	-39.7	23.1	0.00e+00	0	40	0	490733568	50	6179
2026-01-19 16:55:19.56	352.07	23.42	-39.0	-40.0	23.1	0.00e+00	0	40	0	491782144	50	6401
2026-01-19 16:55:20.58	351.83	23.50	-38.9	-39.8	23.2	0.00e+00	76	40	0	493879296	50	6306
2026-01-19 16:55:21.58	351.59	23.58	-39.0	-40.0	23.1	0.00e+00	0	40	0	495976448	50	6394
2026-01-19 16:55:22.60	351.35	23.66	-39.3	-40.3	22.8	0.00e+00	24	40	0	498073600	50	6675
2026-01-19 16:55:23.60	351.11	23.74	-39.1	-40.2	22.9	0.00e+00	0	40	0	500170752	50	6559
2026-01-19 16:55:24.62	350.86	23.82	-39.1	-40.1	23.0	0.00e+00	0	40	0	501219328	50	6525
2026-01-19 16:55:25.63	350.62	23.90	-39.0	-40.0	23.1	0.00e+00	0	40	0	503316480	50	6404
2026-01-19 16:55:26.64	350.37	23.98	-39.0	-39.9	23.1	0.00e+00	0	40	0	505413632	50	6388
2026-01-19 16:55:27.65	350.13	24.06	-38.4	-39.3	23.5	0.00e+00	65	40	0	507510784	50	5964
2026-01-19 16:55:28.66	349.88	24.14	-38.1	-39.0	23.8	0.00e+00	0	40	0	509607936	50	5728
2026-01-19 16:55:29.67	349.63	24.21	-38.1	-39.0	23.8	0.00e+00	72	40	0	511705088	50	5720
2026-01-19 16:55:30.68	349.38	24.29	-38.0	-38.8	23.9	0.00e+00	0	40	0	512753664	50	5598
2026-01-19 16:55:31.69	349.13	24.37	-38.4	-39.3	23.6	0.00e+00	0	40	0	514850816	50	5899
2026-01-19 16:55:32.70	348.87	24.44	-38.7	-39.6	23.4	0.00e+00	0	40	0	516947968	50	6134
2026-01-19 16:55:33.71	348.62	24.52	-38.5	-39.4	23.6	0.00e+00	0	40	0	519045120	50	6002
2026-01-19 16:55:34.71	348.37	24.59	-38.5	-39.4	23.6	0.00e+00	49	40	0	521142272	50	6008
2026-01-19 16:55:35.73	348.11	24.67	-38.6	-39.5	23.6	0.00e+00	0	40	0	522190848	50	6058
2026-01-19 16:55:36.74	347.85	24.75	-38.0	-38.9	24.0	0.00e+00	88	40	0	524288000	50	5658
2026-01-19 16:55:37.75	347.59	24.82	-37.9	-38.7	24.0	0.00e+00	0	40	0	526385152	50	5550
2026-01-19 16:55:38.76	347.33	24.89	-38.0	-38.9	23.9	0.00e+00	0	40	0	528482304	50	5646
2026-01-19 16:55:39.76	347.07	24.97	-38.4	-39.3	23.6	0.00e+00	0	40	0	530579456	50	5911
2026-01-19 16:55:40.77	346.81	25.04	-38.4	-39.3	23.4	0.00e+00	0	40	0	531628032	50	5915
2026-01-19 16:55:41.78	346.54	25.11	-38.3	-39.1	23.6	0.00e+00	50	40	0	533725184	50	5812
2026-01-19 16:55:42.79	346.28	25.18	-38.1	-38.9	23.9	0.00e+00	0	40	0	535822336	50	5679
2026-01-19 16:55:43.80	346.01	25.25	-37.7	-38.5	24.0	0.00e+00	83	40	0	537919488	48	6079
2026-01-19 16:55:44.81	345.74	25.33	-37.7	-38.5	24.2	0.00e+00	0	40	0	540016640	48	6045
2026-01-19 16:55:45.82	345.47	25.40	-38.1	-38.9	23.9	0.00e+00	0	40	0	541065216	48	6366
2026-01-19 16:55:46.83	345.20	25.47	-38.4	-39.3	23.5	0.00e+00	0	40	0	543162368	48	6636
2026-01-19 16:55:47.84	344.93	25.54	-39.2	-40.1	23.0	0.00e+00	0	40	0	545259520	50	6527
2026-01-19 16:55:48.85	344.66	25.60	-39.5	-40.5	22.7	0.00e+00	56	40	0	547356672	50	6829
2026-01-19 16:55:49.86	344.39	25.67	-39.4	-40.4	22.7	0.00e+00	0	40	0	549453824	50	6702
2026-01-19 16:55:50.87	344.11	25.74	-39.3	-40.2	22.9	0.00e+00	92	40	0	550502400	52	5880
2026-01-19 16:55:51.87	343.84	25.81	-39.4	-40.4	22.6	0.00e+00	0	40	0	552599552	52	6001
2026-01-19 16:55:52.88	343.56	25.87	-39.1	-40.0	23.0	0.00e+00	92	40	0	554696704	52	5754
2026-01-19 16:55:53.89	343.28	25.94	-39.2	-40.2	22.9	0.00e+00	0	40	0	556793856	52	5862
2026-01-19 16:55:54.90	343.00	26.01	-39.5	-40.5	22.8	0.00e+00	0	40	0	558891008	52	6043
2026-01-19 16:55:55.91	342.72	26.07	-39.4	-40.4	22.9	0.00e+00	9	40	0	559939584	52	5990
2026-01-19 16:55:56.92	342.44	26.14	-39.2	-40.2	23.0	0.00e+00	0	40	0	562036736	52	5870
2026-01-19 16:55:57.93	342.15	26.20	-39.0	-39.9	23.3	0.00e+00	92	40	0	564133888	52	5661
2026-01-19 16:55:58.94	341.87	26.26	-39.3	-40.3	23.0	0.00e+00	0	40	0	566231040	52	5907
2026-01-19 16:55:59.95	341.58	26.32	-39.3	-40.2	22.9	0.00e+00	92	40	0	568328192	52	5896
2026-01-19 16:56:00.96	341.30	26.39	-39.2	-40.2	23.0	0.00e+00	0	40	0	569376768	52	5859
2026-01-19 16:56:01.97	341.01	26.45	-39.3	-40.2	22.9	0.00e+00	0	40	0	571473920	52	5894
2026-01-19 16:56:02.97	340.72	26.51	-39.4	-40.4	22.7	0.00e+00	0	40	0	573571072	52	5989
2026-01-19 16:56:03.99	340.43	26.57	-39.2	-40.2	23.0	0.00e+00	0	40	0	575668224	52	5848
2026-01-19 16:56:04.99	340.14	26.63	-39.0	-40.0	23.0	0.00e+00	55	40	0	577765376	52	5712
2026-01-19 16:56:06.00	339.85	26.69	-38.7	-39.6	23.5	0.00e+00	0	40	0	579862528	52	5486
2026-01-19 16:56:07.01	339.56	26.74	-38.3	-39.2	23.7	0.00e+00	90	40	0	580911104	50	5841
2026-01-19 16:56:08.02	339.26	26.80	-38.5	-39.4	23.6	0.00e+00	0	40	0	583008256	50	5989
2026-01-19 16:56:09.03	338.97	26.86	-38.7	-39.6	23.3	0.00e+00	0	40	0	585105408	50	6119
2026-01-19 16:56:10.04	338.67	26.91	-38.9	-39.9	23.1	0.00e+00	0	40	0	587202560	50	6331
2026-01-19 16:56:11.05	338.37	26.97	-39.3	-40.3	22.2	0.00e+00	0	40	0	589299712	50	6652
2026-01-19 16:56:12.06	338.07	27.02	-39.4	-40.3	23.0	0.00e+00	19	40	0	590348288	50	6657
2026-01-19 16:56:13.07	337.77	27.07	-39.0	-39.9	23.4	0.00e+00	0	40	0	592445440	50	6366
2026-01-19 16:56:14.08	337.47	27.13	-38.5	-39.4	23.6	0.00e+00	64	40	0	594542592	50	5993
2026-01-19 16:56:15.09	337.17	27.18	-38.6	-39.4	23.7	0.00e+00	0	40	0	596639744	50	6027
2026-01-19 16:56:16.09	336.87	27.23	-39.1	-40.0	23.4	0.00e+00	0	40	0	598736896	50	6461
2026-01-19 16:56:17.10	336.57	27.28	-39.1	-40.1	23.4	0.00e+00	0	40	0	599785472	50	6476
2026-01-19 16:56:18.11	336.26	27.33	-39.5	-40.4	22.9	0.00e+00	0	40	0	601882624	50	6737
2026-01-19 16:56:19.12	335.96	27.38	-39.6	-40.5	23.2	0.00e+00	58	40	0	603979776	50	6848
2026-01-19 16:56:20.13	335.65	27.43	-39.2	-40.1	23.1	0.00e+00	0	40	0	606076928	50	6488
2026-01-19 16:56:21.14	335.35	27.47	-39.0	-40.0	23.2	0.00e+00	55	40	0	608174080	50	6414
2026-01-19 16:56:22.15	335.04	27.52	-38.8	-39.8	23.6	0.00e+00	0	40	0	609222656	50	6246
2026-01-19 16:56:23.16	334.73	27.56	-39.5	-40.5	23.0	0.00e+00	0	40	0	611319808	50	6810
2026-01-19 16:56:24.17	334.42	27.61	-40.2	-41.2	22.4	0.00e+00	0	40	0	613416960	52	6604
2026-01-19 16:56:25.18	334.11	27.65	-40.5	-41.6	22.1	0.00e+00	0	40	0	615514112	52	6878
2026-01-19 16:56:26.19	333.80	27.70	-40.8	-42.0	21.8	0.00e+00	58	40	0	617611264	54	6423
2026-01-19 16:56:27.20	333.48	27.74	-40.9	-42.0	21.8	0.00e+00	0	40	0	618659840	54	6446
2026-01-19 16:56:28.20	333.17	27.78	-40.5	-41.5	22.3	0.00e+00	90	40	0	620756992	54	6083
2026-01-19 16:56:29.22	332.85	27.82	-40.0	-41.0	22.5	0.00e+00	0	40	0	622854144	54	5722
2026-01-19 16:56:30.23	332.54	27.86	-39.8	-40.7	22.8	0.00e+00	30	40	0	624951296	52	6243
2026-01-19 16:56:31.24	332.22	27.90	-39.5	-40.5	22.8	0.00e+00	0	40	0	627048448	52	6085
2026-01-19 16:56:32.25	331.91	27.93	-40.0	-41.0	22.6	0.00e+00	0	40	0	628097024	52	6448
2026-01-19 16:56:33.26	331.59	27.97	-40.2	-41.2	22.4	0.00e+00	18	40	0	630194176	52	6561
2026-01-19 16:56:34.27	331.27	28.00	-40.4	-41.4	22.2	0.00e+00	0	40	0	632291328	52	6752
2026-01-19 16:56:35.28	330.95	28.04	-40.1	-41.1	22.5	0.00e+00	21	40	0	634388480	52	6467
2026-01-19 16:56:36.29	330.63	28.07	-39.8	-40.8	22.5	0.00e+00	0	40	0	636485632	52	6296
2026-01-19 16:56:37.29	330.32	28.11	-40.1	-41.2	22.3	0.00e+00	91	40	0	637534208	52	6543
2026-01-19 16:56:38.30	330.00	28.14	-40.2	-41.2	22.2	0.00e+00	0	40	0	639631360	52	6555
2026-01-19 16:56:39.31	329.68	28.17	-40.5	-41.6	22.0	0.00e+00	0	40	0	641728512	52	6856
2026-01-19 16:56:40.32	329.35	28.20	-40.8	-41.9	21.7	0.00e+00	0	40	0	643825664	54	6353
2026-01-19 16:56:41.34	329.03	28.23	-41.2	-42.4	21.4	0.00e+00	0	40	0	645922816	54	6702
2026-01-19 16:56:42.34	328.71	28.25	-41.4	-42.6	21.4	0.00e+00	64	40	0	648019968	54	6851
2026-01-19 16:56:43.35	328.38	28.28	-41.5	-42.6	21.4	0.00e+00	0	40	0	649068544	54	6908
2026-01-19 16:56:44.37	328.06	28.31	-41.3	-42.4	21.6	0.00e+00	90	40	0	651165696	54	6753
2026-01-19 16:56:45.38	327.73	28.33	-41.0	-42.1	21.9	0.00e+00	33	40	0	653262848	54	6494
2026-01-19 16:56:46.39	327.41	28.36	-40.6	-41.6	22.0	0.00e+00	0	40	0	655360000	54	6159
2026-01-19 16:56:47.40	327.08	28.38	-41.3	-42.3	21.8	0.00e+00	33	40	0	657457152	54	6687
2026-01-19 16:56:48.41	326.75	28.40	-41.1	-42.1	21.9	0.00e+00	0	40	0	658505728	54	6524
2026-01-19 16:56:49.42	326.43	28.42	-41.2	-42.3	21.7	0.00e+00	55	40	0	660602880	54	6620
2026-01-19 16:56:50.43	326.10	28.44	-41.4	-42.5	21.7	0.00e+00	0	40	0	662700032	54	6821
2026-01-19 16:56:51.44	325.77	28.46	-41.3	-42.5	21.5	0.00e+00	90	40	0	664797184	54	6793
2026-01-19 16:56:52.45	325.45	28.48	-41.0	-42.2	21.7	0.00e+00	0	40	0	666894336	54	6545
2026-01-19 16:56:53.46	325.12	28.49	-41.2	-42.3	21.9	0.00e+00	0	40	0	667942912	54	6676
2026-01-19 16:56:54.47	324.79	28.51	-41.3	-42.4	21.7	0.00e+00	0	40	0	670040064	54	6722
2026-01-19 16:56:55.48	324.46	28.52	-41.4	-42.5	21.4	0.00e+00	0	40	0	672137216	54	6808
2026-01-19 16:56:56.49	324.13	28.54	-40.9	-42.0	21.7	0.00e+00	0	40	0	674234368	54	6426
2026-01-19 16:56:57.50	323.80	28.55	-41.4	-42.5	21.5	0.00e+00	0	40	0	676331520	54	6809
2026-01-19 16:56:58.51	323.47	28.56	-41.5	-42.7	21.4	0.00e+00	84	40	0	677380096	54	6953
2026-01-19 16:56:59.52	323.14	28.57	-41.4	-42.5	21.3	0.00e+00	0	40	0	679477248	56	6087
2026-01-19 16:57:00.53	322.81	28.58	-41.7	-42.9	21.4	0.00e+00	27	40	0	681574400	56	6354
2026-01-19 16:57:01.54	322.48	28.59	-41.6	-42.8	21.2	0.00e+00	0	40	0	683671552	56	6282
2026-01-19 16:57:02.55	322.15	28.60	-42.0	-43.3	21.1	0.00e+00	0	40	0	685768704	56	6636
2026-01-19 16:57:03.56	321.82	28.60	-41.9	-43.2	21.0	0.00e+00	58	40	0	686817280	56	6544
2026-01-19 16:57:04.57	321.49	28.61	-41.7	-43.0	21.0	0.00e+00	0	40	0	688914432	56	6397
2026-01-19 16:57:05.58	321.16	28.61	-41.6	-42.7	21.5	0.00e+00	61	40	0	691011584	56	6223
2026-01-19 16:57:06.59	320.83	28.61	-41.6	-42.6	21.9	0.00e+00	0	40	0	693108736	56	6170
2026-01-19 16:57:07.60	320.50	28.61	-40.8	-41.9	22.1	0.00e+00	76	40	0	695205888	56	5654
2026-01-19 16:57:08.61	320.17	28.62	-40.2	-41.2	22.5	0.00e+00	0	40	0	696254464	54	5852
2026-01-19 16:57:09.62	319.84	28.62	-40.5	-41.5	22.6	0.00e+00	0	40	0	698351616	54	6074
2026-01-19 16:57:10.63	319.50	28.61	-40.5	-41.5	22.8	0.00e+00	0	40	0	700448768	54	6070
2026-01-19 16:57:11.64	319.17	28.61	-40.2	-41.2	22.7	0.00e+00	0	40	0	702545920	54	5831
2026-01-19 16:57:12.65	318.84	28.61	-40.0	-40.9	22.7	0.00e+00	92	40	0	704643072	54	5690
2026-01-19 16:57:13.65	318.52	28.60	-40.4	-41.4	22.8	0.00e+00	0	40	0	705691648	54	5999
2026-01-19 16:57:14.66	318.18	28.60	-40.9	-42.0	22.3	0.00e+00	90	40	0	707788800	54	6418
2026-01-19 16:57:15.67	317.85	28.59	-40.9	-42.0	21.9	0.00e+00	0	40	0	709885952	54	6435
2026-01-19 16:57:16.68	317.52	28.58	-42.4	-43.5	21.3	0.00e+00	0	40	0	711983104	56	6836
2026-01-19 16:57:17.69	317.19	28.57	-41.9	-43.0	21.5	0.00e+00	0	40	0	714080256	56	6463
2026-01-19 16:57:18.70	316.86	28.56	-41.3	-42.4	22.1	0.00e+00	0	40	0	716177408	56	5978
2026-01-19 16:57:19.71	316.53	28.55	-40.4	-41.4	22.4	0.00e+00	62	40	0	717225984	54	5994
2026-01-19 16:57:20.72	316.20	28.54	-40.5	-41.5	22.9	0.00e+00	0	40	0	719323136	54	6046
2026-01-19 16:57:21.73	315.87	28.53	-40.1	-41.1	22.9	0.00e+00	92	40	0	721420288	54	5782
2026-01-19 16:57:22.74	315.55	28.51	-40.7	-41.8	22.3	0.00e+00	0	40	0	723517440	54	6276
2026-01-19 16:57:23.75	315.22	28.50	-40.5	-41.6	22.2	0.00e+00	0	40	0	725614592	54	6132
2026-01-19 16:57:24.76	314.89	28.48	-40.8	-41.8	21.9	0.00e+00	0	40	0	726663168	54	6310
2026-01-19 16:57:25.77	314.56	28.47	-41.6	-42.7	21.7	0.00e+00	0	40	0	728760320	54	7003
2026-01-19 16:57:26.78	314.23	28.45	-42.0	-43.3	21.2	0.00e+00	6	40	0	730857472	56	6632
2026-01-19 16:57:27.79	313.91	28.43	-42.0	-43.2	21.4	0.00e+00	0	40	0	732954624	56	6604
2026-01-19 16:57:28.80	313.58	28.41	-41.4	-42.5	21.7	0.00e+00	67	40	0	735051776	56	6096
2026-01-19 16:57:29.81	313.25	28.39	-40.5	-41.6	22.3	0.00e+00	0	40	0	736100352	54	6150
2026-01-19 16:57:30.82	312.93	28.36	-40.3	-41.3	22.7	0.00e+00	0	40	0	738197504	54	5940
2026-01-19 16:57:31.83	312.60	28.34	-39.5	-40.4	23.1	0.00e+00	0	40	0	740294656	52	5992
2026-01-19 16:57:32.84	312.27	28.32	-40.0	-40.9	23.4	0.00e+00	0	40	0	742391808	52	6380
2026-01-19 16:57:33.85	311.95	28.29	-39.6	-40.5	23.4	0.00e+00	7	40	0	744488960	52	6042
2026-01-19 16:57:34.86	311.63	28.26	-39.9	-40.8	23.4	0.00e+00	0	40	0	745537536	52	6271
2026-01-19 16:57:35.87	311.30	28.24	-40.1	-40.9	23.2	0.00e+00	92	40	0	747634688	52	6386
2026-01-19 16:57:36.88	310.98	28.21	-39.9	-40.8	22.8	0.00e+00	0	40	0	749731840	52	6290
2026-01-19 16:57:37.89	310.66	28.18	-39.8	-40.8	23.0	0.00e+00	68	40	0	751828992	52	6290
2026-01-19 16:57:38.90	310.34	28.15	-40.1	-41.0	23.1	0.00e+00	0	40	0	753926144	52	6448
2026-01-19 16:57:39.91	310.01	28.12	-39.7	-40.6	23.4	0.00e+00	0	40	0	754974720	52	6119
2026-01-19 16:57:40.92	309.69	28.09	-39.9	-40.8	23.6	0.00e+00	0	40	0	757071872	52	6272
2026-01-19 16:57:41.93	309.37	28.05	-39.5	-40.4	23.6	0.00e+00	0	40	0	759169024	52	6009
2026-01-19 16:57:42.93	309.06	28.02	-39.5	-40.4	23.7	0.00e+00	50	40	0	761266176	52	5965
2026-01-19 16:57:43.94	308.74	27.98	-39.6	-40.4	23.8	0.00e+00	0	40	0	763363328	52	6012
2026-01-19 16:57:44.95	308.42	27.95	-39.7	-40.6	23.5	0.00e+00	0	40	0	764411904	52	6141
2026-01-19 16:57:45.96	308.10	27.91	-39.7	-40.6	23.1	0.00e+00	0	40	0	766509056	52	6145
2026-01-19 16:57:46.97	307.79	27.87	-39.6	-40.6	23.1	0.00e+00	0	40	0	768606208	52	6119
2026-01-19 16:57:47.98	307.47	27.83	-40.1	-41.0	22.9	0.00e+00	0	40	0	770703360	52	6461
2026-01-19 16:57:48.99	307.16	27.79	-40.0	-40.9	23.1	0.00e+00	0	40	0	772800512	52	6371
2026-01-19 16:57:50.00	306.84	27.75	-40.3	-41.2	23.0	0.00e+00	92	40	0	773849088	52	6575
2026-01-19 16:57:51.01	306.53	27.71	-39.8	-40.7	22.8	0.00e+00	0	40	0	775946240	52	6229
2026-01-19 16:57:52.02	306.22	27.67	-41.0	-42.0	22.2	0.00e+00	54	40	0	778043392	54	6443
2026-01-19 16:57:53.03	305.91	27.63	-41.7	-42.7	22.1	0.00e+00	0	40	0	780140544	56	6235
2026-01-19 16:57:54.04	305.59	27.58	-41.4	-42.5	22.1	0.00e+00	0	40	0	782237696	56	6048
2026-01-19 16:57:55.05	305.28	27.54	-40.7	-41.7	22.5	0.00e+00	0	40	0	784334848	56	5531
2026-01-19 16:57:56.06	304.98	27.49	-40.6	-41.6	22.4	0.00e+00	0	40	0	785383424	54	6170
2026-01-19 16:57:57.07	304.67	27.44	-40.7	-41.6	23.0	0.00e+00	59	40	0	787480576	54	6160
2026-01-19 16:57:58.08	304.36	27.40	-40.0	-40.8	23.5	0.00e+00	0	40	0	789577728	54	5629
2026-01-19 16:57:59.09	304.05	27.35	-39.9	-40.7	23.6	0.00e+00	86	40	0	791674880	52	6229
2026-01-19 16:58:00.10	303.75	27.30	-40.0	-40.9	23.4	0.00e+00	0	40	0	793772032	52	6335
2026-01-19 16:58:01.11	303.44	27.25	-40.4	-41.3	23.0	0.00e+00	0	40	0	794820608	52	6669
2026-01-19 16:58:02.11	303.14	27.20	-40.2	-41.2	22.7	0.00e+00	0	40	0	796917760	54	5843
2026-01-19 16:58:03.13	302.84	27.15	-40.3	-41.3	22.3	0.00e+00	0	40	0	799014912	54	5938
2026-01-19 16:58:04.13	302.54	27.10	-41.4	-42.4	22.6	0.00e+00	24	40	0	801112064	54	6708
2026-01-19 16:58:05.14	302.24	27.04	-41.3	-42.3	22.4	0.00e+00	0	40	0	803209216	54	6621
2026-01-19 16:58:06.15	301.94	26.99	-41.1	-42.2	22.3	0.00e+00	58	40	0	804257792	54	6557
2026-01-19 16:58:07.17	301.64	26.93	-41.5	-42.5	22.1	0.00e+00	0	40	0	806354944	54	6819
2026-01-19 16:58:08.17	301.34	26.88	-40.8	-41.9	22.0	0.00e+00	0	40	0	808452096	54	6327
2026-01-19 16:58:09.18	301.05	26.82	-41.6	-42.7	21.7	0.00e+00	0	40	0	810549248	54	6941
2026-01-19 16:58:10.19	300.75	26.77	-42.5	-43.6	21.5	0.00e+00	0	40	0	812646400	56	6904
2026-01-19 16:58:11.20	300.46	26.71	-42.2	-43.4	21.4	0.00e+00	16	40	0	813694976	58	5973
2026-01-19 16:58:12.21	300.17	26.65	-41.5	-42.6	21.8	0.00e+00	0	40	0	815792128	56	6155
2026-01-19 16:58:13.22	299.87	26.59	-41.5	-42.6	21.9	0.00e+00	55	40	0	817889280	56	6160
2026-01-19 16:58:14.23	299.58	26.53	-41.3	-42.4	21.9	0.00e+00	0	40	0	819986432	56	5978
2026-01-19 16:58:15.24	299.29	26.47	-41.1	-42.2	22.1	0.00e+00	7	40	0	822083584	56	5841
2026-01-19 16:58:16.25	299.00	26.41	-41.2	-42.3	21.7	0.00e+00	0	40	0	823132160	54	6649
2026-01-19 16:58:17.26	298.72	26.35	-41.3	-42.5	21.6	0.00e+00	0	40	0	825229312	54	6772
2026-01-19 16:58:18.27	298.43	26.29	-41.4	-42.5	21.5	0.00e+00	40	40	0	827326464	54	6800
2026-01-19 16:58:19.28	298.14	26.22	-41.1	-42.2	21.6	0.00e+00	0	40	0	829423616	54	6571
2026-01-19 16:58:20.29	297.86	26.16	-41.2	-42.3	21.4	0.00e+00	36	40	0	831520768	54	6644
2026-01-19 16:58:21.29	297.58	26.09	-41.3	-42.5	21.3	0.00e+00	0	40	0	832569344	54	6778
2026-01-19 16:58:22.30	297.30	26.03	-41.5	-42.7	21.0	0.00e+00	65	40	0	834666496	54	6970
2026-01-19 16:58:23.31	297.02	25.96	-41.2	-42.4	21.3	0.00e+00	0	40	0	836763648	54	6698
2026-01-19 16:58:24.32	296.74	25.90	-41.4	-42.5	21.3	0.00e+00	0	40	0	838860800	54	6833
2026-01-19 16:58:25.33	296.46	25.83	-40.9	-42.0	21.5	0.00e+00	0	40	0	840957952	54	6404
2026-01-19 16:58:26.34	296.18	25.76	-41.1	-42.2	21.7	0.00e+00	0	40	0	842006528	54	6566
2026-01-19 16:58:27.35	295.90	25.70	-41.0	-42.1	21.7	0.00e+00	77	40	0	844103680	54	6524
2026-01-19 16:58:28.36	295.63	25.63	-40.8	-41.9	22.0	0.00e+00	0	40	0	846200832	54	6332
2026-01-19 16:58:29.37	295.36	25.56	-40.0	-41.0	22.5	0.00e+00	91	40	0	848297984	54	5700
2026-01-19 16:58:30.38	295.08	25.49	-39.9	-40.9	22.5	0.00e+00	0	40	0	850395136	52	6319
2026-01-19 16:58:31.39	294.81	25.42	-39.9	-40.8	22.5	0.00e+00	0	40	0	851443712	52	6293
2026-01-19 16:58:32.40	294.54	25.35	-39.9	-40.9	22.7	0.00e+00	30	40	0	853540864	52	6330
2026-01-19 16:58:33.41	294.27	25.28	-39.7	-40.6	22.8	0.00e+00	0	40	0	855638016	52	6147
2026-01-19 16:58:34.42	294.01	25.21	-39.9	-40.8	23.0	0.00e+00	55	40	0	857735168	52	6309
2026-01-19 16:58:35.43	293.74	25.14	-39.4	-40.3	23.2	0.00e+00	0	40	0	859832320	52	5903
2026-01-19 16:58:36.44	293.47	25.06	-38.8	-39.6	23.7	0.00e+00	90	40	0	860880896	52	5498
2026-01-19 16:58:37.44	293.21	24.99	-39.3	-40.2	23.2	0.00e+00	0	40	0	862978048	52	5860
2026-01-19 16:58:38.45	292.95	24.92	-39.9	-40.8	22.8	0.00e+00	0	40	0	865075200	52	6284
2026-01-19 16:58:39.46	292.69	24.84	-40.2	-41.2	22.4	0.00e+00	0	40	0	867172352	52	6552
2026-01-19 16:58:40.47	292.43	24.77	-40.3	-41.2	22.4	0.00e+00	0	40	0	869269504	52	6609
2026-01-19 16:58:41.48	292.17	24.69	-40.4	-41.4	22.2	0.00e+00	0	40	0	870318080	52	6762
2026-01-19 16:58:42.49	291.91	24.62	-40.5	-41.6	22.1	0.00e+00	0	40	0	872415232	52	6876
2026-01-19 16:58:43.50	291.65	24.54	-40.6	-41.7	21.8	0.00e+00	92	40	0	874512384	54	6233
2026-01-19 16:58:44.51	291.40	24.47	-40.9	-42.1	21.8	0.00e+00	0	40	0	876609536	54	6485
2026-01-19 16:58:45.52	291.14	24.39	-41.1	-42.3	21.7	0.00e+00	36	40	0	878706688	54	6658
2026-01-19 16:58:46.54	290.89	24.31	-40.7	-41.9	21.9	0.00e+00	0	40	0	880803840	54	6325
2026-01-19 16:58:47.55	290.64	24.24	-40.6	-41.8	21.9	0.00e+00	0	40	0	881852416	54	6246
2026-01-19 16:58:48.56	290.39	24.16	-40.4	-41.5	22.1	0.00e+00	51	40	0	883949568	54	6085
2026-01-19 16:58:49.57	290.14	24.08	-40.4	-41.4	22.2	0.00e+00	0	40	0	886046720	54	6030
2026-01-19 16:58:50.58	289.89	24.00	-40.3	-41.4	22.3	0.00e+00	73	40	0	888143872	54	5987
2026-01-19 16:58:51.59	289.64	23.93	-40.7	-41.8	22.0	0.00e+00	0	40	0	890241024	54	6279
2026-01-19 16:58:52.60	289.40	23.85	-40.8	-41.9	21.9	0.00e+00	0	40	0	891289600	54	6388
2026-01-19 16:58:53.60	289.16	23.77	-41.2	-42.4	21.6	0.00e+00	0	40	0	893386752	54	6732
2026-01-19 16:58:54.61	288.91	23.69	-41.0	-42.1	21.8	0.00e+00	0	40	0	895483904	54	6498
2026-01-19 16:58:55.62	288.67	23.61	-41.0	-42.1	22.0	0.00e+00	0	40	0	897581056	54	6533
2026-01-19 16:58:56.63	288.43	23.53	-40.9	-42.0	22.2	0.00e+00	0	40	0	899678208	54	6395
2026-01-19 16:58:57.64	288.19	23.45	-40.2	-41.2	22.5	0.00e+00	92	40	0	900726784	54	5844
2026-01-19 16:58:58.65	287.95	23.37	-39.8	-40.7	23.0	0.00e+00	0	40	0	902823936	52	6243
2026-01-19 16:58:59.66	287.72	23.29	-39.7	-40.6	23.2	0.00e+00	92	40	0	904921088	52	6144
2026-01-19 16:59:00.67	287.48	23.21	-39.3	-40.3	23.4	0.00e+00	0	40	0	907018240	52	5898
2026-01-19 16:59:01.67	287.25	23.12	-39.2	-40.1	23.5	0.00e+00	0	40	0	909115392	52	5781
2026-01-19 16:59:02.68	287.02	23.04	-39.2	-40.1	23.5	0.00e+00	0	40	0	910163968	52	5799
2026-01-19 16:59:03.69	286.78	22.96	-39.2	-40.1	23.4	0.00e+00	0	40	0	912261120	52	5818
2026-01-19 16:59:04.70	286.55	22.88	-39.3	-40.2	23.4	0.00e+00	50	40	0	914358272	52	5852
2026-01-19 16:59:05.71	286.32	22.80	-39.2	-40.1	23.3	0.00e+00	0	40	0	916455424	52	5825
2026-01-19 16:59:06.72	286.10	22.71	-39.0	-39.9	23.5	0.00e+00	51	40	0	918552576	52	5657
2026-01-19 16:59:07.73	285.87	22.63	-38.3	-39.2	23.8	0.00e+00	0	40	0	919601152	50	5856
2026-01-19 16:59:08.74	285.64	22.55	-38.2	-39.0	24.0	0.00e+00	0	40	0	921698304	50	5743
2026-01-19 16:59:09.75	285.42	22.46	-38.1	-38.9	24.0	0.00e+00	0	40	0	923795456	50	5654
2026-01-19 16:59:10.75	285.20	22.38	-38.1	-38.9	24.0	0.00e+00	0	40	0	925892608	50	5689
2026-01-19 16:59:11.76	284.98	22.30	-37.9	-38.8	24.2	0.00e+00	52	40	0	927989760	50	5574
2026-01-19 16:59:12.77	284.75	22.21	-37.7	-38.5	24.4	0.00e+00	0	40	0	929038336	48	6052
2026-01-19 16:59:13.78	284.53	22.13	-37.6	-38.3	24.4	0.00e+00	92	40	0	931135488	48	5962
2026-01-19 16:59:14.79	284.32	22.05	-37.5	-38.3	24.4	0.00e+00	0	40	0	933232640	48	5953
2026-01-19 16:59:15.80	284.10	21.96	-37.6	-38.4	24.6	0.00e+00	0	40	0	935329792	48	5982
2026-01-19 16:59:16.81	283.88	21.88	-37.7	-38.5	24.3	0.00e+00	0	40	0	937426944	48	6100
2026-01-19 16:59:17.82	283.67	21.79	-38.2	-39.0	24.2	0.00e+00	0	40	0	938475520	48	6460
2026-01-19 16:59:18.83	283.45	21.71	-38.6	-39.4	23.9	0.00e+00	50	40	0	940572672	48	6754
2026-01-19 16:59:19.84	283.24	21.62	-38.8	-39.7	23.5	0.00e+00	0	40	0	942669824	50	6222
2026-01-19 16:59:20.85	283.03	21.54	-39.1	-40.1	23.4	0.00e+00	92	40	0	944766976	50	6474
2026-01-19 16:59:21.86	282.82	21.45	-39.3	-40.2	23.2	0.00e+00	0	40	0	946864128	50	6611
2026-01-19 16:59:22.87	282.61	21.37	-39.5	-40.4	23.2	0.00e+00	40	40	0	947912704	50	6744
2026-01-19 16:59:23.88	282.40	21.28	-39.5	-40.5	22.8	0.00e+00	0	40	0	950009856	50	6815
2026-01-19 16:59:24.89	282.20	21.19	-39.5	-40.5	22.9	0.00e+00	0	40	0	952107008	50	6772
2026-01-19 16:59:25.90	281.99	21.11	-39.1	-40.0	23.3	0.00e+00	1	40	0	954204160	50	6416
2026-01-19 16:59:26.91	281.79	21.02	-38.8	-39.7	23.5	0.00e+00	0	40	0	956301312	50	6183
2026-01-19 16:59:27.92	281.58	20.94	-38.6	-39.4	23.7	0.00e+00	91	40	0	958398464	50	6025
2026-01-19 16:59:28.93	281.38	20.85	-38.8	-39.7	23.5	0.00e+00	0	40	0	959447040	50	6184
2026-01-19 16:59:29.94	281.18	20.76	-38.8	-39.7	23.4	0.00e+00	46	40	0	961544192	50	6194
2026-01-19 16:59:30.95	280.98	20.68	-39.0	-39.9	23.3	0.00e+00	0	40	0	963641344	50	6351
2026-01-19 16:59:31.96	280.78	20.59	-38.7	-39.6	23.5	0.00e+00	0	40	0	965738496	50	6116
2026-01-19 16:59:32.97	280.58	20.51	-38.2	-39.1	23.9	0.00e+00	0	40	0	967835648	50	5775
2026-01-19 16:59:33.98	280.39	20.42	-37.9	-38.7	24.0	0.00e+00	0	40	0	968884224	50	5552
2026-01-19 16:59:34.99	280.19	20.33	-37.3	-38.1	24.4	0.00e+00	39	40	0	970981376	48	5825
2026-01-19 16:59:36.00	280.00	20.25	-37.0	-37.8	24.6	0.00e+00	0	40	0	973078528	48	5604
2026-01-19 16:59:37.01	279.80	20.16	-37.0	-37.7	24.8	0.00e+00	90	40	0	975175680	48	5560
2026-01-19 16:59:38.02	279.61	20.07	-37.0	-37.8	24.7	0.00e+00	0	40	0	977272832	48	5615
2026-01-19 16:59:39.03	279.42	19.99	-37.1	-37.9	24.6	0.00e+00	0	40	0	978321408	48	5678
2026-01-19 16:59:40.03	279.23	19.90	-37.3	-38.1	24.5	0.00e+00	0	40	0	980418560	48	5819
2026-01-19 16:59:41.05	279.04	19.81	-37.6	-38.4	24.4	0.00e+00	0	40	0	982515712	48	6002
2026-01-19 16:59:42.06	278.85	19.73	-37.8	-38.6	24.2	0.00e+00	16	40	0	984612864	48	6121
2026-01-19 16:59:43.07	278.67	19.64	-37.9	-38.8	24.1	0.00e+00	0	40	0	986710016	48	6266
2026-01-19 16:59:44.07	278.48	19.55	-38.2	-39.1	23.8	0.00e+00	92	40	0	987758592	48	6496
2026-01-19 16:59:45.09	278.30	19.47	-38.3	-39.2	23.8	0.00e+00	0	40	0	989855744	48	6596
2026-01-19 16:59:46.09	278.12	19.38	-38.3	-39.1	24.0	0.00e+00	0	40	0	991952896	48	6519
2026-01-19 16:59:47.11	277.93	19.29	-38.5	-39.3	23.9	0.00e+00	0	40	0	994050048	48	6664
2026-01-19 16:59:48.12	277.75	19.21	-38.5	-39.3	23.9	0.00e+00	0	40	0	996147200	48	6678
2026-01-19 16:59:49.12	277.57	19.12	-38.0	-38.9	24.0	0.00e+00	21	40	0	997195776	48	6333
2026-01-19 16:59:50.13	277.39	19.03	-38.5	-39.3	23.7	0.00e+00	0	40	0	999292928	48	6663
2026-01-19 16:59:51.15	277.21	18.94	-38.4	-39.2	23.8	0.00e+00	67	40	0	1001390080	48	6604
2026-01-19 16:59:52.16	277.04	18.86	-38.3	-39.1	23.9	0.00e+00	0	40	0	1003487232	48	6536
2026-01-19 16:59:53.17	276.86	18.77	-38.6	-39.5	23.6	0.00e+00	0	40	0	1005584384	48	6799
2026-01-19 16:59:54.18	276.68	18.68	-38.5	-39.4	23.6	0.00e+00	0	40	0	1006632960	48	6708
2026-01-19 16:59:55.19	276.51	18.60	-38.7	-39.6	23.4	0.00e+00	0	40	0	1008730112	50	6139
2026-01-19 16:59:56.20	276.34	18.51	-38.9	-39.8	23.4	0.00e+00	27	40	0	1010827264	50	6267
2026-01-19 16:59:57.20	276.17	18.43	-39.2	-40.1	23.3	0.00e+00	0	40	0	1012924416	50	6530
2026-01-19 16:59:58.21	275.99	18.34	-39.0	-39.8	23.4	0.00e+00	83	40	0	1015021568	50	6317
2026-01-19 16:59:59.22	275.82	18.25	-39.0	-39.9	23.3	0.00e+00	0	40	0	1016070144	50	6328
2026-01-19 17:00:00.24	275.65	18.16	-38.7	-39.6	23.5	0.00e+00	4	40	0	1018167296	50	6123
2026-01-19 17:00:01.25	275.49	18.08	-38.7	-39.5	23.5	0.00e+00	0	40	0	1020264448	50	6095
2026-01-19 17:00:02.26	275.32	17.99	-38.2	-39.0	23.9	0.00e+00	0	40	0	1022361600	50	5728
2026-01-19 17:00:03.27	275.15	17.91	-37.8	-38.6	24.1	0.00e+00	21	40	0	1024458752	48	6123
2026-01-19 17:00:04.28	274.99	17.82	-37.7	-38.5	24.2	0.00e+00	0	40	0	1026555904	48	6097
2026-01-19 17:00:05.29	274.82	17.73	-37.4	-38.3	24.3	0.00e+00	37	40	0	1027604480	48	5897
2026-01-19 17:00:06.30	274.66	17.65	-37.7	-38.5	24.1	0.00e+00	0	40	0	1029701632	48	6064
2026-01-19 17:00:07.30	274.50	17.56	-38.0	-38.9	23.9	0.00e+00	81	40	0	1031798784	48	6333
2026-01-19 17:00:08.31	274.34	17.48	-38.5	-39.4	23.4	0.00e+00	0	40	0	1033895936	48	6704
2026-01-19 17:00:09.33	274.17	17.39	-38.7	-39.6	22.9	0.00e+00	0	40	0	1035993088	48	6920
2026-01-19 17:00:10.33	274.02	17.30	-39.2	-40.1	22.9	0.00e+00	0	40	0	1037041664	50	6513
2026-01-19 17:00:11.35	273.86	17.22	-39.5	-40.5	22.6	0.00e+00	0	40	0	1039138816	50	6779
2026-01-19 17:00:12.35	273.70	17.13	-39.4	-40.4	22.7	0.00e+00	54	40	0	1041235968	50	6716
2026-01-19 17:00:13.36	273.54	17.05	-39.4	-40.3	22.6	0.00e+00	0	40	0	1043333120	50	6673
2026-01-19 17:00:14.37	273.39	16.96	-39.1	-40.1	23.0	0.00e+00	92	40	0	1045430272	50	6467
2026-01-19 17:00:15.38	273.23	16.87	-39.0	-39.9	23.0	0.00e+00	0	40	0	1046478848	50	6357
2026-01-19 17:00:16.39	273.08	16.79	-38.8	-39.7	23.2	0.00e+00	0	40	0	1048576000	50	6216
2026-01-19 17:00:17.40	272.92	16.70	-38.9	-39.9	23.2	0.00e+00	0	40	0	1050673152	50	6334
2026-01-19 17:00:18.41	272.77	16.62	-39.0	-39.9	23.1	0.00e+00	0	40	0	1052770304	50	6373
2026-01-19 17:00:19.42	272.62	16.53	-38.9	-39.8	23.1	0.00e+00	89	40	0	1054867456	50	6275
2026-01-19 17:00:20.43	272.47	16.45	-38.9	-39.9	23.2	0.00e+00	0	40	0	1055916032	50	6323
2026-01-19 17:00:21.44	272.32	16.36	-38.8	-39.7	23.2	0.00e+00	74	40	0	1058013184	50	6212
2026-01-19 17:00:22.45	272.17	16.28	-39.0	-40.0	23.0	0.00e+00	0	40	0	1060110336	50	6412
2026-01-19 17:00:23.46	272.02	16.19	-38.9	-39.8	23.2	0.00e+00	0	40	0	1062207488	50	6280
2026-01-19 17:00:24.47	271.87	16.11	-39.2	-40.1	23.0	0.00e+00	0	40	0	1064304640	50	6526
2026-01-19 17:00:25.48	271.73	16.02	-39.4	-40.4	22.7	0.00e+00	0	40	0	1065353216	50	6746
2026-01-19 17:00:26.48	271.58	15.94	-39.9	-40.9	22.4	0.00e+00	46	40	0	1067450368	52	6353
2026-01-19 17:00:27.49	271.44	15.86	-40.3	-41.3	22.0	0.00e+00	0	40	0	1069547520	52	6683
2026-01-19 17:00:28.50	271.29	15.77	-40.2	-41.2	22.1	0.00e+00	84	40	0	1071644672	52	6591
2026-01-19 17:00:29.51	271.15	15.69	-40.2	-41.3	22.0	0.00e+00	0	40	0	1073741824	52	6647
2026-01-19 17:00:30.52	271.01	15.60	-40.1	-41.1	22.1	0.00e+00	0	40	0	1074790400	52	6519
2026-01-19 17:00:31.53	270.87	15.52	-39.8	-40.8	22.5	0.00e+00	0	40	0	1076887552	52	6274
2026-01-19 17:00:32.54	270.73	15.43	-39.4	-40.3	22.7	0.00e+00	0	40	0	1078984704	52	5941
2026-01-19 17:00:33.55	270.59	15.35	-39.2	-40.1	23.0	0.00e+00	53	40	0	1081081856	52	5828
2026-01-19 17:00:34.56	270.45	15.27	-38.7	-39.6	23.3	0.00e+00	0	40	0	1083179008	50	6146
2026-01-19 17:00:35.57	270.31	15.18	-38.9	-39.8	23.1	0.00e+00	92	40	0	1084227584	50	6301
2026-01-19 17:00:36.58	270.17	15.10	-39.5	-40.4	22.9	0.00e+00	0	40	0	1086324736	50	6740
2026-01-19 17:00:37.59	270.03	15.02	-39.5	-40.4	23.0	0.00e+00	0	40	0	1088421888	50	6756
2026-01-19 17:00:38.60	269.90	14.93	-39.5	-40.4	22.9	0.00e+00	0	40	0	1090519040	50	6728
2026-01-19 17:00:39.61	269.76	14.85	-39.8	-40.8	22.5	0.00e+00	0	40	0	1092616192	50	7021
2026-01-19 17:00:40.63	269.63	14.77	-40.2	-41.2	22.2	0.00e+00	33	40	0	1094713344	52	6608
2026-01-19 17:00:41.63	269.49	14.68	-40.0	-41.0	22.2	0.00e+00	0	40	0	1095761920	52	6462
2026-01-19 17:00:42.65	269.36	14.60	-40.1	-41.1	22.2	0.00e+00	92	40	0	1097859072	52	6496
2026-01-19 17:00:43.66	269.23	14.52	-39.9	-40.9	22.4	0.00e+00	0	40	0	1099956224	52	6357
2026-01-19 17:00:44.67	269.10	14.44	-39.5	-40.5	22.7	0.00e+00	92	40	0	1102053376	52	6040
2026-01-19 17:00:45.68	268.96	14.35	-39.5	-40.4	22.8	0.00e+00	0	40	0	1104150528	52	6002
2026-01-19 17:00:46.69	268.83	14.27	-39.3	-40.2	22.9	0.00e+00	0	40	0	1105199104	52	5883
2026-01-19 17:00:47.69	268.71	14.19	-39.2	-40.1	23.0	0.00e+00	0	40	0	1107296256	52	5817
2026-01-19 17:00:48.70	268.58	14.11	-39.2	-40.1	22.9	0.00e+00	0	40	0	1109393408	52	5808
2026-01-19 17:00:49.71	268.45	14.03	-39.3	-40.3	22.8	0.00e+00	40	40	0	1111490560	52	5909
2026-01-19 17:00:50.72	268.32	13.94	-39.2	-40.1	22.9	0.00e+00	0	40	0	1113587712	52	5793
2026-01-19 17:00:51.73	268.20	13.86	-39.2	-40.1	22.8	0.00e+00	64	40	0	1114636288	52	5805
2026-01-19 17:00:52.74	268.07	13.78	-39.3	-40.2	22.7	0.00e+00	0	40	0	1116733440	52	5896
2026-01-19 17:00:53.75	267.95	13.70	-39.1	-40.1	22.9	0.00e+00	0	40	0	1118830592	52	5764
2026-01-19 17:00:54.76	267.82	13.62	-39.2	-40.2	22.8	0.00e+00	0	40	0	1120927744	52	5836
2026-01-19 17:00:55.77	267.70	13.54	-39.1	-40.1	22.8	0.00e+00	0	40	0	1123024896	52	5773
2026-01-19 17:00:56.78	267.58	13.46	-39.3	-40.3	22.7	0.00e+00	45	40	0	1124073472	52	5900
2026-01-19 17:00:57.79	267.45	13.38	-39.4	-40.3	22.7	0.00e+00	0	40	0	1126170624	52	5936
2026-01-19 17:00:58.80	267.33	13.30	-39.7	-40.7	22.3	0.00e+00	54	40	0	1128267776	52	6233
2026-01-19 17:00:59.81	267.21	13.22	-39.8	-40.8	22.3	0.00e+00	0	40	0	1130364928	52	6246
2026-01-19 17:01:00.82	267.09	13.14	-40.1	-41.1	22.0	0.00e+00	0	40	0	1132462080	52	6484
2026-01-19 17:01:01.83	266.97	13.06	-40.2	-41.3	21.8	0.00e+00	0	40	0	1133510656	52	6644
2026-01-19 17:01:02.84	266.85	12.98	-40.4	-41.4	21.9	0.00e+00	0	40	0	1135607808	52	6750
2026-01-19 17:01:03.85	266.73	12.90	-40.5	-41.6	21.7	0.00e+00	48	40	0	1137704960	52	6905
2026-01-19 17:01:04.86	266.62	12.82	-40.7	-41.7	21.5	0.00e+00	0	40	0	1139802112	52	7007
2026-01-19 17:01:05.87	266.50	12.74	-40.4	-41.5	21.8	0.00e+00	92	40	0	1141899264	52	6770
2026-01-19 17:01:06.88	266.38	12.66	-40.1	-41.2	22.0	0.00e+00	33	40	0	1142947840	52	6559
2026-01-19 17:01:07.89	266.27	12.58	-40.1	-41.1	22.1	0.00e+00	44	40	0	1145044992	52	6518
2026-01-19 17:01:08.90	266.15	12.50	-40.0	-41.0	22.1	0.00e+00	0	40	0	1147142144	52	6459
2026-01-19 17:01:09.91	266.04	12.42	-40.0	-41.1	22.2	0.00e+00	0	40	0	1149239296	52	6465
2026-01-19 17:01:10.92	265.92	12.34	-40.0	-41.0	22.1	0.00e+00	9	40	0	1151336448	52	6438
2026-01-19 17:01:11.93	265.81	12.26	-39.9	-40.9	22.2	0.00e+00	0	40	0	1152385024	52	6343
2026-01-19 17:01:12.94	265.70	12.18	-40.1	-41.1	22.1	0.00e+00	45	40	0	1154482176	52	6489
2026-01-19 17:01:13.95	265.59	12.10	-40.2	-41.3	21.9	0.00e+00	0	40	0	1156579328	52	6645
2026-01-19 17:01:14.96	265.48	12.03	-40.6	-41.7	21.4	0.00e+00	85	40	0	1158676480	52	6975
2026-01-19 17:01:15.97	265.36	11.95	-40.6	-41.8	21.4	0.00e+00	0	40	0	1160773632	54	6257
2026-01-19 17:01:16.98	265.25	11.87	-41.0	-42.2	21.2	0.00e+00	0	40	0	1162870784	54	6542
2026-01-19 17:01:17.99	265.15	11.79	-41.2	-42.4	20.9	0.00e+00	49	40	0	1163919360	54	6755
2026-01-19 17:01:19.00	265.04	11.71	-41.3	-42.5	20.8	0.00e+00	0	40	0	1166016512	54	6843
2026-01-19 17:01:20.01	264.93	11.64	-41.4	-42.7	20.7	0.00e+00	43	40	0	1168113664	54	6931
2026-01-19 17:01:21.02	264.82	11.56	-41.2	-42.5	20.9	0.00e+00	0	40	0	1170210816	54	6770
2026-01-19 17:01:22.03	264.71	11.48	-40.8	-41.9	21.4	0.00e+00	75	40	0	1172307968	54	6358
2026-01-19 17:01:23.04	264.61	11.40	-40.4	-41.5	21.8	0.00e+00	0	40	0	1173356544	54	6043
2026-01-19 17:01:24.05	264.50	11.33	-40.3	-41.4	21.8	0.00e+00	0	40	0	1175453696	54	5987
2026-01-19 17:01:25.06	264.39	11.25	-40.3	-41.3	15.2	1.82e-01	50	40	0	1177550848	56	5282
2026-01-19 17:01:26.07	264.29	11.17	-40.5	-41.6	22.3	0.00e+00	0	40	0	1179648000	54	6113
2026-01-19 17:01:27.08	264.19	11.10	-39.9	-40.9	22.3	0.00e+00	47	40	0	1181745152	54	5663
2026-01-19 17:01:28.09	264.08	11.02	-39.8	-40.8	22.6	3.00e-06	0	40	0	1182793728	52	6281
2026-01-19 17:01:29.10	263.98	10.94	-39.6	-40.6	22.6	0.00e+00	92	40	0	1184890880	52	6114
2026-01-19 17:01:30.11	263.88	10.87	-39.6	-40.6	22.5	0.00e+00	0	40	0	1186988032	52	6136
2026-01-19 17:01:31.12	263.77	10.79	-39.8	-40.8	22.3	0.00e+00	0	40	0	1189085184	52	6280
2026-01-19 17:01:32.13	263.67	10.72	-39.7	-40.7	22.3	0.00e+00	0	40	0	1191182336	52	6220
2026-01-19 17:01:33.14	263.57	10.64	-39.9	-40.9	22.0	0.00e+00	0	40	0	1192230912	52	6364
2026-01-19 17:01:34.15	263.47	10.56	-40.2	-41.3	21.9	0.00e+00	24	40	0	1194328064	52	6633
2026-01-19 17:01:35.16	263.37	10.49	-40.6	-41.7	21.4	0.00e+00	0	40	0	1196425216	52	6956
2026-01-19 17:01:36.17	263.27	10.41	-40.8	-41.9	21.3	0.00e+00	55	40	0	1198522368	54	6385
