passes_logs/2026/01/19/R4.6S_Anadyr/R4.6S_Anadyr__20260119_032910_NOAA_20_JPSS-1_rec.log

#Pass ID: 20260119_032910_NOAA 20 (JPSS-1)
#Satellite: NOAA 20 (JPSS-1)
#Configuration: NOAA 20
#almurnet v.1.7.20251203
#Start time: 2026-01-19 03:29:11

#Version: 2.2.20231116
#Station: R4.6S_Anadyr
#Location: 177.4865 lon 64.73178 lat
#TLE: 1 43013U 17073A   26018.57232797  .00000065  00000+0  51758-4 0  9998
#TLE: 2 43013  98.7640 319.4740 0001368  34.2083 325.9181 14.19536753423241

#Time	Az	El	Level	Level2	SNR	BER	BlckErr	Temp	State	Recorded	gain1	gain2
2026-01-19 03:29:11.98	245.37	0.06	-50.6	-68.3	3.5	3.02e+01	0	39	0	0	60	100461
2026-01-19 03:29:12.99	245.47	0.10	-50.1	-65.3	3.6	1.51e+00	0	40	104	0	60	66803
2026-01-19 03:29:14.00	245.57	0.14	-50.1	-65.3	3.6	1.51e+00	0	40	104	0	60	66640
2026-01-19 03:29:15.01	245.67	0.18	-50.1	-65.4	3.6	1.51e+00	0	40	104	0	60	66979
2026-01-19 03:29:16.02	245.76	0.22	-50.1	-65.4	3.6	1.51e+00	0	40	104	0	60	67064
2026-01-19 03:29:17.03	245.86	0.26	-50.1	-65.3	3.6	1.51e+00	0	40	104	0	60	66818
2026-01-19 03:29:18.03	245.96	0.30	-50.1	-65.3	3.6	1.51e+00	0	40	104	0	60	66914
2026-01-19 03:29:19.04	246.06	0.34	-50.1	-65.4	3.6	1.51e+00	0	40	104	0	60	67387
2026-01-19 03:29:20.05	246.16	0.38	-50.1	-65.4	3.6	1.51e+00	0	40	104	0	60	67349
2026-01-19 03:29:21.06	246.26	0.42	-50.1	-65.4	3.6	1.51e+00	0	40	104	0	60	67065
2026-01-19 03:29:22.07	246.36	0.46	-50.1	-65.4	3.6	1.51e+00	0	40	104	0	60	67285
2026-01-19 03:29:23.08	246.46	0.50	-50.1	-65.5	3.6	1.51e+00	0	40	104	0	60	67953
2026-01-19 03:29:24.09	246.57	0.54	-50.2	-65.5	3.6	1.51e+00	0	40	104	0	60	68044
2026-01-19 03:29:25.10	246.67	0.58	-50.3	-65.5	3.6	1.51e+00	0	40	104	0	60	68050
2026-01-19 03:29:26.11	246.77	0.62	-50.3	-65.5	3.6	1.51e+00	0	40	104	0	60	68310
2026-01-19 03:29:27.12	246.87	0.66	-50.3	-65.5	3.6	1.51e+00	0	40	104	0	60	68273
2026-01-19 03:29:28.13	246.97	0.70	-50.3	-65.5	3.6	1.51e+00	0	40	104	0	60	68046
2026-01-19 03:29:29.14	247.07	0.74	-50.3	-65.4	3.6	1.51e+00	0	40	104	0	60	67670
2026-01-19 03:29:30.15	247.18	0.78	-50.3	-65.5	3.6	1.51e+00	0	40	104	0	60	67998
2026-01-19 03:29:31.16	247.28	0.82	-50.2	-65.4	3.6	1.51e+00	0	40	104	0	60	67467
2026-01-19 03:29:32.17	247.38	0.86	-50.1	-65.4	3.6	1.51e+00	0	40	104	0	60	67142
2026-01-19 03:29:33.18	247.49	0.90	-50.1	-65.3	3.6	1.51e+00	0	40	104	0	60	66316
2026-01-19 03:29:34.19	247.59	0.94	-49.9	-65.1	3.6	1.51e+00	0	40	104	0	60	65133
2026-01-19 03:29:35.20	247.69	0.97	-49.7	-64.9	3.6	1.51e+00	0	40	104	0	60	63352
2026-01-19 03:29:36.21	247.80	1.01	-49.3	-64.5	3.6	1.51e+00	0	40	104	0	60	60911
2026-01-19 03:29:37.22	247.90	1.05	-48.4	-63.6	3.6	1.51e+00	0	40	104	0	60	54726
2026-01-19 03:29:38.22	248.01	1.09	-48.1	-63.2	3.6	1.51e+00	0	40	104	0	60	52454
2026-01-19 03:29:39.23	248.11	1.13	-48.1	-63.2	3.6	1.51e+00	0	40	104	0	60	52312
2026-01-19 03:29:40.24	248.22	1.17	-48.1	-63.2	3.6	1.51e+00	0	40	104	0	60	52481
2026-01-19 03:29:41.25	248.32	1.21	-48.1	-63.3	3.6	1.51e+00	0	40	104	0	60	52706
2026-01-19 03:29:42.26	248.43	1.25	-48.1	-63.2	3.6	1.51e+00	0	40	104	0	60	52305
2026-01-19 03:29:43.27	248.53	1.29	-48.0	-63.2	3.6	1.51e+00	0	40	104	0	60	52297
2026-01-19 03:29:44.28	248.64	1.33	-48.0	-63.1	3.6	1.51e+00	0	40	104	0	60	51788
2026-01-19 03:29:45.29	248.75	1.37	-48.0	-63.1	3.6	1.51e+00	0	40	104	0	60	51831
2026-01-19 03:29:46.30	248.85	1.41	-48.0	-63.2	3.6	1.51e+00	0	40	104	0	60	52309
2026-01-19 03:29:47.31	248.96	1.45	-48.1	-63.3	3.6	1.51e+00	0	40	104	0	60	52674
2026-01-19 03:29:48.32	249.07	1.48	-48.0	-63.2	3.6	1.51e+00	0	40	104	0	60	52326
2026-01-19 03:29:49.33	249.18	1.52	-48.0	-63.2	3.6	1.51e+00	0	40	104	0	60	52475
2026-01-19 03:29:50.34	249.28	1.56	-48.0	-63.2	3.5	1.51e+00	0	40	104	0	60	52408
2026-01-19 03:29:51.35	249.39	1.60	-48.0	-63.1	3.6	1.51e+00	0	40	104	0	60	51930
2026-01-19 03:29:52.35	249.50	1.64	-48.0	-63.2	3.6	1.51e+00	0	40	104	0	60	52092
2026-01-19 03:29:53.37	249.61	1.68	-48.0	-63.1	3.6	1.51e+00	0	40	104	0	60	51884
2026-01-19 03:29:54.38	249.72	1.72	-48.0	-63.1	3.6	1.51e+00	0	40	104	0	60	51862
2026-01-19 03:29:55.39	249.83	1.76	-48.0	-63.2	3.6	1.51e+00	0	40	104	0	60	52057
2026-01-19 03:29:56.40	249.94	1.80	-48.0	-63.2	3.6	1.51e+00	0	40	104	0	60	52073
2026-01-19 03:29:57.41	250.05	1.83	-48.0	-63.2	3.6	1.51e+00	0	41	104	0	60	52309
2026-01-19 03:29:58.42	250.16	1.87	-48.0	-63.2	3.6	1.51e+00	0	40	104	0	60	52241
2026-01-19 03:29:59.43	250.27	1.91	-48.0	-63.2	3.6	1.51e+00	0	40	104	0	60	52226
2026-01-19 03:30:00.44	250.38	1.95	-48.0	-63.1	3.6	1.51e+00	0	40	104	0	60	51781
2026-01-19 03:30:01.45	250.49	1.99	-48.0	-63.1	3.6	1.51e+00	0	40	104	0	60	51773
2026-01-19 03:30:02.46	250.60	2.03	-48.0	-63.1	3.6	1.51e+00	0	40	104	0	60	51812
2026-01-19 03:30:03.47	250.71	2.07	-48.0	-63.2	3.6	1.51e+00	0	40	104	0	60	51966
2026-01-19 03:30:04.48	250.82	2.11	-48.0	-63.1	3.6	1.51e+00	0	40	104	0	60	51761
2026-01-19 03:30:05.49	250.93	2.14	-48.0	-63.2	3.6	1.51e+00	0	40	104	0	60	52179
2026-01-19 03:30:06.50	251.05	2.18	-48.0	-63.2	3.6	1.51e+00	0	41	104	0	60	52001
2026-01-19 03:30:07.51	251.16	2.22	-48.0	-63.2	3.6	1.51e+00	0	41	104	0	60	51950
2026-01-19 03:30:08.52	251.27	2.26	-48.0	-63.1	3.6	1.51e+00	0	41	104	0	60	51935
2026-01-19 03:30:09.53	251.39	2.30	-48.0	-63.2	3.6	1.51e+00	0	41	104	0	60	52053
2026-01-19 03:30:10.53	251.50	2.34	-48.0	-63.1	3.6	1.51e+00	0	40	104	0	60	51677
2026-01-19 03:30:11.55	251.61	2.38	-48.0	-62.9	3.6	1.51e+00	0	40	104	0	60	50523
2026-01-19 03:30:12.56	251.73	2.41	-48.0	-62.7	3.6	1.51e+00	0	41	104	0	60	49406
2026-01-19 03:30:13.57	251.84	2.45	-48.0	-62.8	3.6	1.51e+00	0	40	104	0	60	49786
2026-01-19 03:30:14.58	251.96	2.49	-48.0	-63.0	3.6	1.51e+00	0	41	104	0	60	51115
2026-01-19 03:30:15.59	252.07	2.53	-48.0	-63.2	3.6	1.51e+00	0	40	104	0	60	52050
2026-01-19 03:30:16.59	252.18	2.57	-48.0	-63.0	3.6	1.51e+00	0	40	104	0	60	51051
2026-01-19 03:30:17.61	252.30	2.60	-48.0	-62.7	3.6	1.51e+00	0	40	104	0	60	49155
2026-01-19 03:30:18.62	252.42	2.64	-48.0	-62.7	3.6	1.51e+00	0	40	104	0	60	49145
2026-01-19 03:30:19.62	252.53	2.68	-48.0	-62.7	3.6	1.51e+00	0	40	104	0	60	49387
2026-01-19 03:30:20.63	252.65	2.72	-48.0	-62.3	3.6	1.51e+00	0	41	104	0	60	47365
2026-01-19 03:30:21.64	252.76	2.76	-47.9	-61.5	3.6	1.51e+00	0	41	104	0	60	42934
2026-01-19 03:30:22.65	252.88	2.79	-47.9	-60.7	3.6	1.50e+00	0	40	104	0	60	39385
2026-01-19 03:30:23.66	253.00	2.83	-47.9	-61.6	3.6	1.50e+00	0	41	104	0	60	43414
2026-01-19 03:30:24.67	253.12	2.87	-48.0	-62.8	3.5	1.51e+00	0	41	104	0	60	49813
2026-01-19 03:30:25.68	253.23	2.91	-47.8	-59.5	3.8	1.51e+00	0	40	104	0	60	34092
2026-01-19 03:30:26.69	253.35	2.95	-47.3	-54.9	7.0	2.47e-01	92	41	0	0	60	20098
2026-01-19 03:30:27.70	253.47	2.98	-46.9	-52.7	8.7	4.66e-02	0	40	0	2097152	60	15633
2026-01-19 03:30:28.71	253.59	3.02	-46.4	-51.4	10.3	1.60e-02	92	41	0	4194304	60	13424
2026-01-19 03:30:29.72	253.71	3.06	-46.0	-50.2	7.8	7.70e-04	5	41	0	5242880	60	11674
2026-01-19 03:30:30.74	253.83	3.10	-48.4	-62.1	3.8	1.51e+00	0	41	104	5242880	60	45853
2026-01-19 03:30:31.75	253.95	3.13	-47.6	-56.7	10.2	1.49e+00	92	41	0	5242880	60	24747
2026-01-19 03:30:32.76	254.07	3.17	-44.4	-47.1	14.3	0.00e+00	90	40	0	6291456	60	8164
2026-01-19 03:30:33.77	254.19	3.21	-43.3	-45.3	17.6	3.51e-03	92	41	0	8388608	60	6633
2026-01-19 03:30:34.78	254.31	3.25	-44.7	-47.6	15.3	1.98e-05	92	41	0	10485760	60	8658
2026-01-19 03:30:35.78	254.43	3.28	-43.5	-45.7	16.7	0.00e+00	92	40	0	12582912	60	6979
2026-01-19 03:30:36.79	254.55	3.32	-43.7	-46.0	16.4	0.00e+00	0	41	0	14680064	60	7200
2026-01-19 03:30:37.80	254.67	3.36	-43.5	-45.7	16.8	0.00e+00	90	41	0	15728640	60	6971
2026-01-19 03:30:38.81	254.79	3.39	-43.3	-45.4	17.0	0.00e+00	13	41	0	17825792	60	6761
2026-01-19 03:30:39.82	254.91	3.43	-43.5	-45.6	17.1	0.00e+00	90	41	0	19922944	60	6913
2026-01-19 03:30:40.83	255.03	3.47	-43.3	-45.4	17.0	0.00e+00	92	41	0	22020096	60	6733
2026-01-19 03:30:41.84	255.16	3.51	-43.3	-45.4	17.4	0.00e+00	92	41	0	24117248	60	6729
2026-01-19 03:30:42.85	255.28	3.54	-43.1	-45.0	17.5	0.00e+00	92	41	0	25165824	60	6436
2026-01-19 03:30:43.86	255.40	3.58	-43.0	-44.9	17.5	0.00e+00	10	41	0	27262976	60	6370
2026-01-19 03:30:44.87	255.53	3.62	-43.0	-45.0	17.5	0.00e+00	92	40	0	29360128	60	6402
2026-01-19 03:30:45.88	255.65	3.65	-43.1	-45.0	17.6	0.00e+00	72	41	0	31457280	60	6429
2026-01-19 03:30:46.89	255.77	3.69	-43.2	-45.1	17.4	0.00e+00	91	41	0	33554432	60	6534
2026-01-19 03:30:47.90	255.90	3.73	-43.1	-45.1	17.5	0.00e+00	90	41	0	34603008	60	6498
2026-01-19 03:30:48.91	256.02	3.76	-42.8	-44.6	17.9	0.00e+00	91	40	0	36700160	60	6146
2026-01-19 03:30:49.92	256.15	3.80	-43.2	-45.1	17.5	0.00e+00	91	41	0	38797312	60	6522
2026-01-19 03:30:50.93	256.27	3.84	-43.2	-45.2	17.5	0.00e+00	0	40	0	40894464	60	6552
2026-01-19 03:30:51.94	256.40	3.87	-43.1	-44.9	17.8	0.00e+00	92	41	0	42991616	60	6390
2026-01-19 03:30:52.95	256.52	3.91	-42.6	-44.4	18.1	0.00e+00	6	40	0	44040192	58	6737
2026-01-19 03:30:53.96	256.65	3.94	-42.7	-44.5	18.1	0.00e+00	92	40	0	46137344	58	6837
2026-01-19 03:30:54.96	256.77	3.98	-42.9	-44.8	17.9	0.00e+00	92	40	0	48234496	58	7042
2026-01-19 03:30:55.97	256.90	4.02	-42.1	-43.7	19.0	0.00e+00	90	40	0	50331648	58	6200
2026-01-19 03:30:56.98	257.03	4.05	-42.2	-43.8	18.7	0.00e+00	92	40	0	52428800	58	6271
2026-01-19 03:30:57.99	257.15	4.09	-42.6	-44.3	18.3	0.00e+00	92	41	0	53477376	58	6654
2026-01-19 03:30:59.00	257.28	4.12	-42.3	-43.9	18.7	0.00e+00	92	41	0	55574528	58	6349
2026-01-19 03:31:00.01	257.41	4.16	-42.2	-43.8	18.8	0.00e+00	82	40	0	57671680	58	6271
2026-01-19 03:31:01.02	257.54	4.20	-42.0	-43.6	19.1	0.00e+00	90	41	0	59768832	58	6107
2026-01-19 03:31:02.03	257.66	4.23	-42.5	-44.2	18.5	0.00e+00	12	41	0	61865984	58	6551
2026-01-19 03:31:03.04	257.79	4.27	-42.3	-43.9	18.8	0.00e+00	90	41	0	62914560	58	6376
2026-01-19 03:31:04.05	257.92	4.30	-42.2	-43.8	19.0	0.00e+00	92	41	0	65011712	58	6304
2026-01-19 03:31:05.06	258.05	4.34	-41.8	-43.4	19.3	0.00e+00	92	41	0	67108864	58	5968
2026-01-19 03:31:06.07	258.18	4.37	-41.9	-43.5	19.2	0.00e+00	90	40	0	69206016	58	6052
2026-01-19 03:31:07.08	258.31	4.41	-42.0	-43.5	19.1	0.00e+00	1	41	0	71303168	58	6089
2026-01-19 03:31:08.09	258.44	4.44	-41.9	-43.4	19.2	0.00e+00	90	41	0	72351744	58	6020
2026-01-19 03:31:09.10	258.57	4.48	-42.2	-43.8	19.0	0.00e+00	0	41	0	74448896	58	6288
2026-01-19 03:31:10.11	258.70	4.52	-42.2	-43.8	18.8	0.00e+00	92	41	0	76546048	58	6288
2026-01-19 03:31:11.12	258.83	4.55	-42.2	-43.8	19.0	0.00e+00	92	41	0	78643200	58	6272
2026-01-19 03:31:12.13	258.96	4.59	-42.2	-43.8	18.9	0.00e+00	92	40	0	80740352	58	6275
2026-01-19 03:31:13.14	259.10	4.62	-42.4	-44.0	18.7	0.00e+00	92	41	0	81788928	58	6458
2026-01-19 03:31:14.15	259.23	4.66	-42.1	-43.6	19.1	0.00e+00	16	41	0	83886080	58	6170
2026-01-19 03:31:15.16	259.36	4.69	-42.1	-43.7	19.1	0.00e+00	92	41	0	85983232	58	6194
2026-01-19 03:31:16.17	259.49	4.72	-42.5	-44.1	18.7	0.00e+00	8	41	0	88080384	58	6511
2026-01-19 03:31:17.17	259.62	4.76	-42.6	-44.2	18.6	0.00e+00	92	40	0	90177536	58	6610
2026-01-19 03:31:18.19	259.76	4.79	-42.5	-44.1	18.7	0.00e+00	90	41	0	92274688	58	6509
2026-01-19 03:31:19.19	259.89	4.83	-42.3	-43.9	18.9	0.00e+00	90	41	0	93323264	58	6359
2026-01-19 03:31:20.20	260.02	4.86	-42.4	-44.0	18.9	0.00e+00	92	41	0	95420416	58	6408
2026-01-19 03:31:21.21	260.16	4.90	-42.2	-43.8	19.1	0.00e+00	92	41	0	97517568	58	6267
2026-01-19 03:31:22.22	260.29	4.93	-42.4	-44.0	18.8	0.00e+00	92	41	0	99614720	58	6431
2026-01-19 03:31:23.23	260.43	4.96	-42.7	-44.4	18.4	0.00e+00	3	40	0	101711872	58	6727
2026-01-19 03:31:24.24	260.56	5.00	-42.9	-44.6	18.3	0.00e+00	92	41	0	102760448	58	6898
2026-01-19 03:31:25.25	260.70	5.03	-42.7	-44.4	18.6	0.00e+00	67	41	0	104857600	58	6694
2026-01-19 03:31:26.26	260.83	5.07	-42.7	-44.4	18.5	0.00e+00	92	41	0	106954752	58	6707
2026-01-19 03:31:27.27	260.97	5.10	-42.5	-44.1	18.7	0.00e+00	92	41	0	109051904	58	6520
2026-01-19 03:31:28.28	261.11	5.13	-42.4	-44.0	18.8	0.00e+00	92	41	0	111149056	58	6459
2026-01-19 03:31:29.29	261.24	5.17	-42.6	-44.3	18.6	0.00e+00	92	41	0	112197632	58	6626
2026-01-19 03:31:30.30	261.38	5.20	-42.5	-44.2	18.6	0.00e+00	37	41	0	114294784	58	6556
2026-01-19 03:31:31.31	261.52	5.23	-42.4	-44.0	19.0	0.00e+00	92	41	0	116391936	58	6402
2026-01-19 03:31:32.32	261.65	5.27	-42.6	-44.2	18.7	0.00e+00	0	41	0	118489088	58	6575
2026-01-19 03:31:33.33	261.79	5.30	-42.3	-43.9	19.2	0.00e+00	90	41	0	120586240	58	6355
2026-01-19 03:31:34.34	261.93	5.33	-42.5	-44.2	18.6	0.00e+00	92	41	0	121634816	58	6553
2026-01-19 03:31:35.35	262.07	5.37	-42.6	-44.2	18.6	0.00e+00	92	41	0	123731968	58	6596
2026-01-19 03:31:36.36	262.21	5.40	-42.8	-44.5	18.5	0.00e+00	90	41	0	125829120	58	6826
2026-01-19 03:31:37.37	262.34	5.43	-42.4	-44.1	18.8	0.00e+00	92	41	0	127926272	58	6469
2026-01-19 03:31:38.38	262.48	5.47	-42.6	-44.3	18.6	0.00e+00	90	41	0	130023424	58	6639
2026-01-19 03:31:39.39	262.62	5.50	-42.5	-44.1	19.0	0.00e+00	0	40	0	131072000	58	6483
2026-01-19 03:31:40.40	262.76	5.53	-42.5	-44.1	18.7	0.00e+00	91	41	0	133169152	58	6494
2026-01-19 03:31:41.41	262.90	5.56	-42.7	-44.4	18.7	0.00e+00	92	41	0	135266304	58	6715
2026-01-19 03:31:42.42	263.04	5.59	-42.6	-44.2	18.7	0.00e+00	92	41	0	137363456	58	6548
2026-01-19 03:31:43.43	263.18	5.63	-42.7	-44.3	18.6	0.00e+00	92	41	0	139460608	58	6690
2026-01-19 03:31:44.44	263.32	5.66	-42.2	-43.7	19.3	0.00e+00	90	41	0	140509184	58	6189
2026-01-19 03:31:45.45	263.47	5.69	-42.1	-43.6	19.3	0.00e+00	90	41	0	142606336	58	6148
2026-01-19 03:31:46.45	263.61	5.72	-42.2	-43.7	19.3	0.00e+00	0	41	0	144703488	58	6243
2026-01-19 03:31:47.46	263.75	5.75	-42.2	-43.8	19.3	0.00e+00	90	40	0	146800640	58	6268
2026-01-19 03:31:48.47	263.89	5.79	-42.1	-43.5	19.4	0.00e+00	71	41	0	148897792	58	6096
2026-01-19 03:31:49.48	264.03	5.82	-42.2	-43.7	19.4	0.00e+00	95	40	0	149946368	58	6179
2026-01-19 03:31:50.49	264.17	5.85	-42.1	-43.6	19.4	0.00e+00	91	40	0	152043520	58	6132
2026-01-19 03:31:51.50	264.32	5.88	-42.2	-43.7	19.3	0.00e+00	92	41	0	154140672	58	6220
2026-01-19 03:31:52.51	264.46	5.91	-42.2	-43.7	19.3	0.00e+00	90	40	0	156237824	58	6193
2026-01-19 03:31:53.52	264.60	5.94	-42.2	-43.7	19.3	0.00e+00	63	40	0	158334976	58	6213
2026-01-19 03:31:54.53	264.75	5.97	-42.3	-43.8	19.4	0.00e+00	92	41	0	160432128	58	6266
2026-01-19 03:31:55.54	264.89	6.00	-41.8	-43.2	19.9	0.00e+00	0	41	0	161480704	58	5836
2026-01-19 03:31:56.55	265.04	6.04	-42.0	-43.5	19.6	0.00e+00	91	41	0	163577856	56	6813
2026-01-19 03:31:57.56	265.18	6.07	-41.9	-43.3	19.7	0.00e+00	92	41	0	165675008	56	6681
2026-01-19 03:31:58.57	265.33	6.10	-42.1	-43.5	19.6	0.00e+00	92	41	0	167772160	56	6810
2026-01-19 03:31:59.57	265.47	6.13	-42.0	-43.5	19.6	0.00e+00	92	41	0	169869312	56	6787
2026-01-19 03:32:00.58	265.62	6.16	-42.2	-43.7	19.4	0.00e+00	91	41	0	170917888	56	6933
2026-01-19 03:32:01.59	265.76	6.19	-42.1	-43.5	19.6	0.00e+00	92	41	0	173015040	56	6825
2026-01-19 03:32:02.60	265.91	6.22	-42.2	-43.7	19.4	0.00e+00	2	41	0	175112192	56	6982
2026-01-19 03:32:03.61	266.06	6.25	-42.2	-43.7	19.4	0.00e+00	91	41	0	177209344	56	7007
2026-01-19 03:32:04.62	266.20	6.28	-42.1	-43.5	19.5	0.00e+00	91	41	0	179306496	56	6820
2026-01-19 03:32:05.63	266.35	6.31	-42.1	-43.6	19.5	0.00e+00	90	40	0	180355072	56	6879
2026-01-19 03:32:06.65	266.50	6.34	-42.2	-43.7	19.5	0.00e+00	92	40	0	182452224	56	6933
2026-01-19 03:32:07.66	266.65	6.37	-42.1	-43.6	19.6	0.00e+00	92	41	0	184549376	56	6876
2026-01-19 03:32:08.66	266.79	6.40	-42.1	-43.5	19.6	0.00e+00	92	40	0	186646528	56	6827
2026-01-19 03:32:09.68	266.94	6.43	-42.1	-43.6	19.5	0.00e+00	92	41	0	188743680	56	6878
2026-01-19 03:32:10.69	267.09	6.45	-42.2	-43.7	19.4	0.00e+00	92	41	0	189792256	56	6940
2026-01-19 03:32:11.70	267.24	6.48	-42.1	-43.5	19.7	0.00e+00	7	41	0	191889408	56	6814
2026-01-19 03:32:12.71	267.39	6.51	-42.2	-43.7	19.4	0.00e+00	92	41	0	193986560	56	6975
2026-01-19 03:32:13.72	267.54	6.54	-42.2	-43.6	19.5	0.00e+00	91	40	0	196083712	56	6922
2026-01-19 03:32:14.73	267.69	6.57	-42.3	-43.8	19.4	0.00e+00	92	41	0	198180864	56	7035
2026-01-19 03:32:15.74	267.84	6.60	-42.2	-43.7	19.4	0.00e+00	92	41	0	199229440	56	6954
2026-01-19 03:32:16.75	267.99	6.63	-42.5	-44.1	19.2	0.00e+00	92	40	0	201326592	56	7293
2026-01-19 03:32:17.76	268.14	6.65	-42.4	-43.9	19.2	0.00e+00	92	41	0	203423744	56	7140
2026-01-19 03:32:18.77	268.29	6.68	-42.5	-44.0	19.3	0.00e+00	0	40	0	205520896	56	7216
2026-01-19 03:32:19.78	268.44	6.71	-42.3	-43.8	19.3	0.00e+00	92	41	0	207618048	56	7069
2026-01-19 03:32:20.79	268.59	6.74	-42.3	-43.8	19.4	0.00e+00	92	40	0	208666624	56	7012
2026-01-19 03:32:21.80	268.74	6.77	-42.5	-44.1	19.1	0.00e+00	92	40	0	210763776	56	7279
2026-01-19 03:32:22.81	268.89	6.79	-42.4	-43.9	19.3	0.00e+00	92	40	0	212860928	56	7143
2026-01-19 03:32:23.82	269.05	6.82	-42.5	-44.0	19.2	0.00e+00	92	40	0	214958080	56	7205
2026-01-19 03:32:24.83	269.20	6.85	-42.6	-44.1	19.1	0.00e+00	92	41	0	217055232	56	7318
2026-01-19 03:32:25.84	269.35	6.87	-42.5	-44.0	19.2	0.00e+00	11	40	0	218103808	56	7215
2026-01-19 03:32:26.85	269.50	6.90	-42.6	-44.1	19.1	0.00e+00	92	41	0	220200960	56	7315
2026-01-19 03:32:27.86	269.66	6.93	-42.6	-44.2	19.0	0.00e+00	92	41	0	222298112	56	7381
2026-01-19 03:32:28.87	269.81	6.95	-42.6	-44.2	19.0	0.00e+00	91	41	0	224395264	56	7373
2026-01-19 03:32:29.88	269.96	6.98	-42.7	-44.3	18.9	0.00e+00	92	41	0	226492416	56	7451
2026-01-19 03:32:30.89	270.12	7.01	-42.7	-44.3	19.0	0.00e+00	90	41	0	228589568	56	7429
2026-01-19 03:32:31.90	270.27	7.03	-42.7	-44.3	19.0	0.00e+00	91	41	0	229638144	56	7439
2026-01-19 03:32:32.91	270.43	7.06	-42.6	-44.1	18.7	0.00e+00	0	41	0	231735296	56	7298
2026-01-19 03:32:33.91	270.58	7.09	-42.7	-44.2	19.0	0.00e+00	92	41	0	233832448	56	7401
2026-01-19 03:32:34.93	270.74	7.11	-42.7	-44.3	18.9	0.00e+00	79	41	0	235929600	58	6677
2026-01-19 03:32:35.93	270.89	7.14	-42.8	-44.4	18.9	0.00e+00	92	41	0	238026752	58	6721
2026-01-19 03:32:36.94	271.05	7.16	-42.8	-44.4	18.9	0.00e+00	92	41	0	239075328	58	6698
2026-01-19 03:32:37.96	271.20	7.19	-42.7	-44.3	19.0	0.00e+00	90	41	0	241172480	58	6648
2026-01-19 03:32:38.96	271.36	7.21	-42.4	-43.9	19.2	0.00e+00	92	41	0	243269632	58	6384
2026-01-19 03:32:39.97	271.52	7.24	-42.5	-44.0	19.3	0.00e+00	1	41	0	245366784	58	6434
2026-01-19 03:32:40.98	271.67	7.26	-42.6	-44.1	19.1	0.00e+00	92	41	0	247463936	58	6516
2026-01-19 03:32:41.99	271.83	7.29	-42.3	-43.8	19.6	0.00e+00	0	41	0	248512512	58	6274
2026-01-19 03:32:43.00	271.99	7.31	-42.4	-43.9	19.4	0.00e+00	92	40	0	250609664	58	6326
2026-01-19 03:32:44.01	272.14	7.34	-42.2	-43.7	19.5	0.00e+00	90	41	0	252706816	58	6204
2026-01-19 03:32:45.02	272.30	7.36	-42.2	-43.7	19.5	0.00e+00	92	41	0	254803968	58	6191
2026-01-19 03:32:46.03	272.46	7.38	-42.4	-43.9	19.4	0.00e+00	92	41	0	256901120	58	6327
2026-01-19 03:32:47.04	272.62	7.41	-42.4	-43.9	19.4	0.00e+00	92	41	0	257949696	58	6356
2026-01-19 03:32:48.05	272.78	7.43	-42.3	-43.7	19.5	0.00e+00	91	41	0	260046848	58	6229
2026-01-19 03:32:49.06	272.93	7.45	-42.3	-43.8	19.4	0.00e+00	87	40	0	262144000	58	6274
2026-01-19 03:32:50.07	273.09	7.48	-42.5	-44.1	19.2	0.00e+00	90	41	0	264241152	58	6478
2026-01-19 03:32:51.08	273.25	7.50	-42.7	-44.2	19.1	0.00e+00	87	41	0	266338304	58	6611
2026-01-19 03:32:52.09	273.41	7.52	-42.6	-44.2	19.2	0.00e+00	90	41	0	267386880	58	6562
2026-01-19 03:32:53.10	273.57	7.55	-42.6	-44.2	19.1	0.00e+00	92	41	0	269484032	58	6584
2026-01-19 03:32:54.11	273.73	7.57	-42.7	-44.3	19.2	0.00e+00	90	41	0	271581184	58	6623
2026-01-19 03:32:55.12	273.89	7.59	-42.6	-44.2	19.2	0.00e+00	92	41	0	273678336	58	6555
2026-01-19 03:32:56.13	274.05	7.61	-42.4	-43.9	19.4	0.00e+00	0	41	0	275775488	58	6328
2026-01-19 03:32:57.14	274.21	7.64	-42.5	-44.0	19.3	0.00e+00	91	41	0	276824064	58	6420
2026-01-19 03:32:58.15	274.37	7.66	-42.4	-43.8	19.5	0.00e+00	53	41	0	278921216	58	6307
2026-01-19 03:32:59.16	274.53	7.68	-42.5	-44.0	19.3	0.00e+00	92	41	0	281018368	58	6404
2026-01-19 03:33:00.17	274.69	7.70	-42.3	-43.7	19.5	0.00e+00	92	41	0	283115520	58	6217
2026-01-19 03:33:01.18	274.86	7.72	-42.2	-43.6	19.7	0.00e+00	92	41	0	285212672	58	6148
2026-01-19 03:33:02.19	275.02	7.75	-42.2	-43.7	19.6	0.00e+00	92	41	0	286261248	58	6184
2026-01-19 03:33:03.20	275.18	7.77	-42.2	-43.7	19.8	0.00e+00	0	41	0	288358400	58	6185
2026-01-19 03:33:04.21	275.34	7.79	-42.2	-43.6	19.6	0.00e+00	92	41	0	290455552	58	6156
2026-01-19 03:33:05.22	275.50	7.81	-42.4	-43.9	19.4	0.00e+00	0	41	0	292552704	58	6362
2026-01-19 03:33:06.23	275.67	7.83	-42.6	-44.1	19.4	0.00e+00	90	40	0	294649856	58	6507
2026-01-19 03:33:07.24	275.83	7.85	-42.4	-43.8	19.5	0.00e+00	92	41	0	296747008	58	6308
2026-01-19 03:33:08.25	275.99	7.87	-42.5	-44.1	19.3	0.00e+00	92	41	0	297795584	58	6474
2026-01-19 03:33:09.26	276.16	7.89	-42.6	-44.1	19.3	0.00e+00	92	41	0	299892736	58	6529
2026-01-19 03:33:10.27	276.32	7.91	-42.6	-44.1	19.2	0.00e+00	90	41	0	301989888	58	6507
2026-01-19 03:33:11.28	276.48	7.93	-42.6	-44.1	19.3	0.00e+00	92	40	0	304087040	58	6488
2026-01-19 03:33:12.29	276.65	7.95	-42.5	-44.0	19.2	0.00e+00	0	41	0	306184192	58	6451
2026-01-19 03:33:13.30	276.81	7.97	-42.9	-44.6	18.9	0.00e+00	92	41	0	307232768	58	6861
2026-01-19 03:33:14.31	276.97	7.99	-43.0	-44.6	18.8	0.00e+00	91	41	0	309329920	58	6878
2026-01-19 03:33:15.32	277.14	8.01	-42.9	-44.5	18.9	0.00e+00	92	41	0	311427072	58	6847
2026-01-19 03:33:16.33	277.30	8.02	-42.6	-44.1	19.3	0.00e+00	92	41	0	313524224	58	6521
2026-01-19 03:33:17.34	277.47	8.04	-42.9	-44.5	18.8	0.00e+00	92	40	0	315621376	58	6835
2026-01-19 03:33:18.35	277.63	8.06	-43.0	-44.7	18.8	0.00e+00	92	41	0	316669952	58	6950
2026-01-19 03:33:19.36	277.80	8.08	-43.0	-44.6	18.7	0.00e+00	7	40	0	318767104	58	6925
2026-01-19 03:33:20.37	277.96	8.10	-42.7	-44.3	19.1	0.00e+00	89	41	0	320864256	58	6624
2026-01-19 03:33:21.38	278.13	8.12	-42.7	-44.2	19.1	0.00e+00	53	40	0	322961408	58	6574
2026-01-19 03:33:22.39	278.30	8.13	-42.4	-43.9	19.5	0.00e+00	92	41	0	325058560	58	6363
2026-01-19 03:33:23.40	278.46	8.15	-42.5	-44.0	19.4	0.00e+00	92	40	0	326107136	58	6412
2026-01-19 03:33:24.41	278.63	8.17	-42.5	-44.0	19.4	0.00e+00	26	41	0	328204288	58	6421
2026-01-19 03:33:25.42	278.80	8.18	-42.5	-44.0	19.4	0.00e+00	92	41	0	330301440	58	6414
2026-01-19 03:33:26.43	278.96	8.20	-42.6	-44.1	19.3	0.00e+00	86	41	0	332398592	58	6493
2026-01-19 03:33:27.44	279.13	8.22	-42.6	-44.1	19.3	0.00e+00	91	40	0	334495744	58	6484
2026-01-19 03:33:28.45	279.30	8.23	-42.4	-43.9	19.5	0.00e+00	0	41	0	336592896	58	6370
2026-01-19 03:33:29.46	279.46	8.25	-42.5	-44.0	19.4	0.00e+00	92	41	0	337641472	58	6438
2026-01-19 03:33:30.47	279.63	8.27	-42.3	-43.7	19.6	0.00e+00	92	40	0	339738624	58	6234
2026-01-19 03:33:31.48	279.80	8.28	-42.2	-43.6	19.8	0.00e+00	88	41	0	341835776	58	6171
2026-01-19 03:33:32.49	279.97	8.30	-42.1	-43.5	19.9	0.00e+00	92	41	0	343932928	58	6074
2026-01-19 03:33:33.50	280.13	8.31	-42.3	-43.8	19.7	0.00e+00	2	41	0	346030080	58	6254
2026-01-19 03:33:34.51	280.30	8.33	-42.3	-43.8	19.7	0.00e+00	92	40	0	347078656	58	6267
2026-01-19 03:33:35.52	280.47	8.34	-42.4	-43.9	19.6	0.00e+00	0	40	0	349175808	58	6340
2026-01-19 03:33:36.53	280.64	8.36	-42.4	-43.9	19.6	0.00e+00	90	40	0	351272960	58	6319
2026-01-19 03:33:37.54	280.81	8.37	-42.5	-44.0	19.4	0.00e+00	70	41	0	353370112	58	6450
2026-01-19 03:33:38.54	280.97	8.39	-42.7	-44.2	19.0	0.00e+00	92	40	0	355467264	58	6583
2026-01-19 03:33:39.56	281.14	8.40	-42.8	-44.3	19.3	0.00e+00	92	40	0	356515840	58	6659
2026-01-19 03:33:40.56	281.31	8.42	-42.9	-44.4	19.1	0.00e+00	0	40	0	358612992	58	6755
2026-01-19 03:33:41.57	281.48	8.43	-42.7	-44.2	19.3	0.00e+00	92	41	0	360710144	58	6584
2026-01-19 03:33:42.58	281.65	8.44	-42.4	-43.8	19.7	0.00e+00	0	41	0	362807296	58	6294
2026-01-19 03:33:43.59	281.82	8.46	-42.5	-44.0	19.5	0.00e+00	92	40	0	364904448	58	6410
2026-01-19 03:33:44.60	281.99	8.47	-42.5	-44.0	19.5	0.00e+00	90	41	0	365953024	58	6416
2026-01-19 03:33:45.61	282.16	8.48	-42.5	-44.0	19.4	0.00e+00	92	40	0	368050176	58	6420
2026-01-19 03:33:46.62	282.33	8.50	-42.4	-43.8	19.6	0.00e+00	92	40	0	370147328	58	6298
2026-01-19 03:33:47.63	282.50	8.51	-42.5	-43.9	19.6	0.00e+00	2	40	0	372244480	58	6367
2026-01-19 03:33:48.64	282.67	8.52	-42.2	-43.7	19.8	0.00e+00	92	41	0	374341632	58	6181
2026-01-19 03:33:49.65	282.84	8.53	-42.4	-43.8	19.7	0.00e+00	0	41	0	375390208	58	6273
2026-01-19 03:33:50.65	283.01	8.54	-42.4	-43.9	19.6	0.00e+00	90	40	0	377487360	58	6331
2026-01-19 03:33:51.66	283.18	8.56	-42.4	-43.9	19.7	0.00e+00	17	40	0	379584512	58	6318
2026-01-19 03:33:52.68	283.35	8.57	-42.5	-43.9	19.5	0.00e+00	92	40	0	381681664	58	6371
2026-01-19 03:33:53.68	283.52	8.58	-42.6	-44.1	19.4	0.00e+00	92	41	0	383778816	58	6510
2026-01-19 03:33:54.69	283.69	8.59	-42.6	-44.1	19.4	0.00e+00	92	41	0	384827392	58	6519
2026-01-19 03:33:55.70	283.86	8.60	-42.6	-44.1	19.5	0.00e+00	92	41	0	386924544	58	6476
2026-01-19 03:33:56.71	284.03	8.61	-42.4	-43.8	19.6	0.00e+00	11	40	0	389021696	58	6308
2026-01-19 03:33:57.72	284.20	8.62	-42.5	-44.0	19.4	0.00e+00	92	41	0	391118848	58	6435
2026-01-19 03:33:58.73	284.37	8.63	-42.7	-44.2	19.3	0.00e+00	12	41	0	393216000	58	6552
2026-01-19 03:33:59.74	284.55	8.64	-42.8	-44.3	19.2	0.00e+00	92	41	0	394264576	58	6659
2026-01-19 03:34:00.75	284.72	8.65	-42.6	-44.1	19.4	0.00e+00	91	41	0	396361728	58	6511
2026-01-19 03:34:01.76	284.89	8.66	-42.8	-44.3	19.2	0.00e+00	92	40	0	398458880	58	6640
2026-01-19 03:34:02.77	285.06	8.67	-42.7	-44.2	19.3	0.00e+00	92	41	0	400556032	58	6552
2026-01-19 03:34:03.78	285.23	8.68	-42.9	-44.4	19.1	0.00e+00	0	41	0	402653184	58	6742
2026-01-19 03:34:04.79	285.41	8.69	-43.0	-44.6	19.0	0.00e+00	91	41	0	403701760	58	6887
2026-01-19 03:34:05.80	285.58	8.70	-43.2	-44.8	18.8	0.00e+00	0	40	0	405798912	58	7048
2026-01-19 03:34:06.81	285.75	8.71	-43.1	-44.8	18.7	0.00e+00	91	40	0	407896064	58	7036
2026-01-19 03:34:07.82	285.92	8.71	-43.3	-44.9	18.6	0.00e+00	91	41	0	409993216	58	7162
2026-01-19 03:34:08.83	286.09	8.72	-43.3	-45.0	18.5	0.00e+00	90	41	0	412090368	58	7189
2026-01-19 03:34:09.84	286.27	8.73	-43.2	-44.9	18.6	0.00e+00	91	41	0	413138944	58	7120
2026-01-19 03:34:10.85	286.44	8.74	-43.2	-44.9	18.7	0.00e+00	5	41	0	415236096	58	7101
2026-01-19 03:34:11.86	286.61	8.74	-43.2	-44.8	18.7	0.00e+00	91	41	0	417333248	58	7072
2026-01-19 03:34:12.87	286.78	8.75	-43.1	-44.7	18.8	0.00e+00	85	41	0	419430400	58	7002
2026-01-19 03:34:13.88	286.96	8.76	-43.1	-44.7	18.9	0.00e+00	92	41	0	421527552	58	6990
2026-01-19 03:34:14.89	287.13	8.77	-43.1	-44.7	18.9	0.00e+00	1	41	0	422576128	58	6991
2026-01-19 03:34:15.90	287.30	8.77	-43.0	-44.6	19.0	0.00e+00	92	41	0	424673280	58	6878
2026-01-19 03:34:16.91	287.48	8.78	-43.0	-44.6	18.9	0.00e+00	92	41	0	426770432	58	6922
2026-01-19 03:34:17.92	287.65	8.78	-42.9	-44.5	19.0	0.00e+00	92	40	0	428867584	58	6821
2026-01-19 03:34:18.93	287.82	8.79	-43.0	-44.6	18.9	0.00e+00	91	41	0	430964736	58	6863
2026-01-19 03:34:19.94	288.00	8.80	-43.0	-44.6	18.9	0.00e+00	0	40	0	433061888	58	6919
2026-01-19 03:34:20.95	288.17	8.80	-43.2	-44.8	18.8	0.00e+00	92	40	0	434110464	58	7053
2026-01-19 03:34:21.97	288.34	8.81	-43.4	-45.0	18.6	0.00e+00	11	40	0	436207616	58	7237
2026-01-19 03:34:22.98	288.52	8.81	-43.3	-45.0	18.5	0.00e+00	92	40	0	438304768	58	7214
2026-01-19 03:34:23.99	288.69	8.82	-43.6	-45.3	18.3	0.00e+00	92	41	0	440401920	58	7507
2026-01-19 03:34:25.00	288.86	8.82	-43.4	-45.1	18.4	0.00e+00	92	41	0	442499072	58	7261
2026-01-19 03:34:26.01	289.04	8.82	-43.6	-45.3	18.3	0.00e+00	90	41	0	443547648	58	7461
2026-01-19 03:34:27.02	289.21	8.83	-43.5	-45.2	18.5	0.00e+00	81	41	0	445644800	58	7407
2026-01-19 03:34:28.03	289.39	8.83	-43.4	-45.0	18.3	0.00e+00	92	41	0	447741952	58	7252
2026-01-19 03:34:29.04	289.56	8.84	-43.6	-45.4	18.4	0.00e+00	0	40	0	449839104	58	7566
2026-01-19 03:34:30.05	289.73	8.84	-43.4	-45.0	18.5	0.00e+00	91	41	0	451936256	58	7247
2026-01-19 03:34:31.06	289.91	8.84	-43.5	-45.2	18.5	0.00e+00	0	40	0	452984832	58	7374
2026-01-19 03:34:32.07	290.08	8.84	-43.2	-44.9	18.6	0.00e+00	92	41	0	455081984	58	7113
2026-01-19 03:34:33.08	290.25	8.85	-43.3	-45.0	18.6	0.00e+00	92	41	0	457179136	58	7187
2026-01-19 03:34:34.09	290.43	8.85	-43.2	-44.8	18.8	0.00e+00	92	40	0	459276288	58	7053
2026-01-19 03:34:35.09	290.60	8.85	-43.0	-44.6	19.0	0.00e+00	92	41	0	461373440	58	6905
2026-01-19 03:34:36.10	290.77	8.85	-42.9	-44.4	19.2	0.00e+00	7	41	0	462422016	58	6739
2026-01-19 03:34:37.11	290.95	8.86	-42.7	-44.2	19.3	0.00e+00	90	40	0	464519168	58	6602
2026-01-19 03:34:38.13	291.12	8.86	-42.6	-44.1	19.5	0.00e+00	0	41	0	466616320	58	6473
2026-01-19 03:34:39.13	291.30	8.86	-42.7	-44.2	19.4	0.00e+00	92	41	0	468713472	58	6561
2026-01-19 03:34:40.14	291.47	8.86	-42.7	-44.2	19.3	0.00e+00	92	40	0	470810624	58	6613
2026-01-19 03:34:41.15	291.64	8.86	-42.7	-44.2	19.5	0.00e+00	92	40	0	472907776	58	6546
2026-01-19 03:34:42.16	291.82	8.86	-42.6	-44.1	19.5	0.00e+00	92	40	0	473956352	58	6468
2026-01-19 03:34:43.17	291.99	8.86	-42.7	-44.2	19.3	0.00e+00	0	40	0	476053504	58	6602
2026-01-19 03:34:44.18	292.17	8.86	-42.7	-44.2	19.3	0.00e+00	92	40	0	478150656	58	6574
2026-01-19 03:34:45.19	292.34	8.86	-42.8	-44.4	19.2	0.00e+00	0	40	0	480247808	58	6715
2026-01-19 03:34:46.20	292.51	8.86	-42.8	-44.3	19.2	0.00e+00	92	40	0	482344960	58	6652
2026-01-19 03:34:47.21	292.69	8.86	-42.8	-44.3	19.2	0.00e+00	92	40	0	483393536	58	6674
2026-01-19 03:34:48.22	292.86	8.86	-42.8	-44.3	19.2	0.00e+00	90	40	0	485490688	58	6676
2026-01-19 03:34:49.23	293.03	8.86	-42.5	-44.0	19.6	0.00e+00	92	41	0	487587840	58	6415
2026-01-19 03:34:50.24	293.21	8.86	-42.4	-43.9	19.7	0.00e+00	81	41	0	489684992	58	6327
2026-01-19 03:34:51.25	293.38	8.86	-42.5	-43.9	19.6	0.00e+00	90	41	0	491782144	58	6387
2026-01-19 03:34:52.26	293.56	8.85	-42.4	-43.8	19.7	0.00e+00	82	41	0	492830720	58	6303
2026-01-19 03:34:53.27	293.73	8.85	-42.2	-43.6	20.0	0.00e+00	92	40	0	494927872	58	6144
2026-01-19 03:34:54.28	293.90	8.85	-42.1	-43.4	20.1	0.00e+00	0	40	0	497025024	58	6014
2026-01-19 03:34:55.29	294.08	8.85	-42.0	-43.4	20.2	0.00e+00	92	41	0	499122176	58	5983
2026-01-19 03:34:56.30	294.25	8.85	-42.1	-43.4	20.2	0.00e+00	90	41	0	501219328	58	6030
2026-01-19 03:34:57.31	294.43	8.84	-42.0	-43.3	20.3	0.00e+00	0	41	0	502267904	58	5943
2026-01-19 03:34:58.32	294.60	8.84	-41.9	-43.2	20.3	0.00e+00	92	40	0	504365056	58	5864
2026-01-19 03:34:59.33	294.77	8.84	-42.0	-43.4	20.2	0.00e+00	0	40	0	506462208	58	5989
2026-01-19 03:35:00.34	294.95	8.83	-41.9	-43.2	20.3	0.00e+00	92	41	0	508559360	58	5891
2026-01-19 03:35:01.35	295.12	8.83	-42.1	-43.5	20.1	0.00e+00	8	40	0	510656512	58	6062
2026-01-19 03:35:02.36	295.29	8.83	-42.1	-43.5	20.1	0.00e+00	92	40	0	511705088	58	6047
2026-01-19 03:35:03.37	295.47	8.82	-42.3	-43.7	19.8	0.00e+00	92	40	0	513802240	58	6199
2026-01-19 03:35:04.38	295.64	8.82	-42.3	-43.8	19.9	0.00e+00	38	40	0	515899392	58	6259
2026-01-19 03:35:05.39	295.81	8.81	-42.0	-43.4	20.2	0.00e+00	90	41	0	517996544	58	5987
2026-01-19 03:35:06.40	295.99	8.81	-42.1	-43.4	20.1	0.00e+00	8	41	0	520093696	58	6019
2026-01-19 03:35:07.41	296.16	8.80	-41.9	-43.3	20.3	0.00e+00	92	40	0	521142272	58	5916
2026-01-19 03:35:08.42	296.33	8.80	-41.6	-42.9	20.7	0.00e+00	76	40	0	523239424	56	6340
2026-01-19 03:35:09.43	296.51	8.79	-41.7	-42.9	20.6	0.00e+00	90	40	0	525336576	56	6370
2026-01-19 03:35:10.44	296.68	8.79	-41.5	-42.7	20.7	0.00e+00	92	40	0	527433728	56	6244
2026-01-19 03:35:11.45	296.85	8.78	-41.6	-42.9	20.6	0.00e+00	92	40	0	529530880	56	6344
2026-01-19 03:35:12.46	297.02	8.77	-41.6	-42.8	20.7	0.00e+00	92	40	0	530579456	56	6303
2026-01-19 03:35:13.47	297.20	8.77	-41.6	-42.9	20.7	0.00e+00	86	40	0	532676608	56	6330
2026-01-19 03:35:14.48	297.37	8.76	-41.7	-42.9	20.6	0.00e+00	92	40	0	534773760	56	6373
2026-01-19 03:35:15.48	297.54	8.75	-41.7	-43.0	20.5	0.00e+00	0	41	0	536870912	56	6431
2026-01-19 03:35:16.49	297.71	8.75	-41.8	-43.1	20.4	0.00e+00	92	40	0	538968064	56	6489
2026-01-19 03:35:17.50	297.89	8.74	-41.6	-42.9	20.6	0.00e+00	76	40	0	541065216	56	6376
2026-01-19 03:35:18.51	298.06	8.73	-41.6	-42.9	20.6	0.00e+00	92	40	0	542113792	56	6367
2026-01-19 03:35:19.52	298.23	8.72	-41.7	-42.9	20.6	0.00e+00	92	40	0	544210944	56	6388
2026-01-19 03:35:20.53	298.40	8.72	-41.7	-43.0	20.5	0.00e+00	0	40	0	546308096	56	6408
2026-01-19 03:35:21.54	298.58	8.71	-41.5	-42.8	20.7	0.00e+00	90	40	0	548405248	56	6280
2026-01-19 03:35:22.55	298.75	8.70	-41.5	-42.8	20.7	0.00e+00	0	41	0	550502400	56	6286
2026-01-19 03:35:23.56	298.92	8.69	-41.6	-42.9	20.7	0.00e+00	92	40	0	551550976	56	6333
2026-01-19 03:35:24.57	299.09	8.68	-41.6	-42.9	20.6	0.00e+00	0	40	0	553648128	56	6346
2026-01-19 03:35:25.58	299.26	8.67	-41.5	-42.8	20.8	0.00e+00	92	40	0	555745280	56	6246
2026-01-19 03:35:26.59	299.43	8.66	-41.5	-42.7	20.8	0.00e+00	92	40	0	557842432	56	6239
2026-01-19 03:35:27.60	299.61	8.65	-41.5	-42.7	20.8	0.00e+00	3	40	0	559939584	56	6208
2026-01-19 03:35:28.61	299.78	8.64	-41.6	-42.8	20.7	0.00e+00	92	41	0	560988160	56	6309
2026-01-19 03:35:29.62	299.95	8.63	-41.7	-43.0	20.5	0.00e+00	0	40	0	563085312	56	6421
2026-01-19 03:35:30.63	300.12	8.62	-41.8	-43.1	20.5	0.00e+00	92	40	0	565182464	56	6467
2026-01-19 03:35:31.64	300.29	8.61	-41.7	-43.0	20.5	0.00e+00	7	40	0	567279616	56	6446
2026-01-19 03:35:32.65	300.46	8.60	-41.8	-43.1	20.5	0.00e+00	92	40	0	569376768	56	6499
2026-01-19 03:35:33.66	300.63	8.59	-41.9	-43.2	20.2	0.00e+00	92	40	0	570425344	56	6615
2026-01-19 03:35:34.67	300.80	8.58	-41.9	-43.2	20.4	0.00e+00	41	41	0	572522496	56	6564
2026-01-19 03:35:35.68	300.97	8.57	-41.6	-42.9	20.6	0.00e+00	89	40	0	574619648	56	6359
2026-01-19 03:35:36.69	301.14	8.56	-41.8	-43.1	20.5	0.00e+00	3	40	0	576716800	56	6479
2026-01-19 03:35:37.71	301.32	8.55	-41.7	-42.9	20.6	0.00e+00	92	40	0	578813952	56	6365
2026-01-19 03:35:38.72	301.49	8.54	-41.4	-42.7	20.8	0.00e+00	11	40	0	579862528	56	6186
2026-01-19 03:35:39.73	301.66	8.52	-41.4	-42.6	20.9	0.00e+00	92	40	0	581959680	56	6145
2026-01-19 03:35:40.73	301.82	8.51	-41.4	-42.6	20.9	0.00e+00	87	40	0	584056832	56	6161
2026-01-19 03:35:41.74	301.99	8.50	-41.5	-42.8	20.8	0.00e+00	34	40	0	586153984	56	6249
2026-01-19 03:35:42.75	302.16	8.49	-41.6	-42.8	20.7	0.00e+00	92	40	0	588251136	56	6301
2026-01-19 03:35:43.76	302.33	8.47	-41.7	-43.0	20.6	0.00e+00	11	40	0	589299712	56	6403
2026-01-19 03:35:44.77	302.50	8.46	-41.7	-43.0	20.5	0.00e+00	92	40	0	591396864	56	6430
2026-01-19 03:35:45.78	302.67	8.45	-41.9	-43.3	20.2	0.00e+00	0	40	0	593494016	56	6642
2026-01-19 03:35:46.79	302.84	8.43	-41.7	-43.0	20.5	0.00e+00	90	40	0	595591168	56	6434
2026-01-19 03:35:47.80	303.01	8.42	-41.8	-43.1	20.5	0.00e+00	0	40	0	597688320	56	6501
2026-01-19 03:35:48.81	303.18	8.41	-41.8	-43.1	20.4	0.00e+00	92	40	0	598736896	56	6470
2026-01-19 03:35:49.82	303.35	8.39	-42.0	-43.3	20.3	0.00e+00	92	40	0	600834048	56	6664
2026-01-19 03:35:50.83	303.51	8.38	-41.7	-43.0	20.5	0.00e+00	86	40	0	602931200	56	6416
2026-01-19 03:35:51.83	303.68	8.36	-41.9	-43.3	20.2	0.00e+00	92	41	0	605028352	56	6638
2026-01-19 03:35:52.85	303.85	8.35	-41.9	-43.3	20.1	0.00e+00	87	41	0	607125504	56	6621
2026-01-19 03:35:53.85	304.02	8.33	-42.1	-43.5	20.0	0.00e+00	92	41	0	609222656	56	6774
2026-01-19 03:35:54.87	304.19	8.32	-42.2	-43.6	19.9	0.00e+00	86	40	0	610271232	56	6863
2026-01-19 03:35:55.87	304.35	8.30	-42.0	-43.3	20.2	0.00e+00	86	40	0	612368384	56	6654
2026-01-19 03:35:56.88	304.52	8.29	-42.0	-43.4	20.1	0.00e+00	90	41	0	614465536	56	6707
2026-01-19 03:35:57.89	304.69	8.27	-42.0	-43.3	20.1	0.00e+00	87	41	0	616562688	56	6678
2026-01-19 03:35:58.90	304.85	8.26	-42.0	-43.4	20.1	0.00e+00	92	40	0	618659840	56	6728
2026-01-19 03:35:59.91	305.02	8.24	-41.9	-43.3	20.3	0.00e+00	6	41	0	619708416	56	6630
2026-01-19 03:36:00.92	305.19	8.22	-41.9	-43.2	20.3	0.00e+00	90	41	0	621805568	56	6573
2026-01-19 03:36:01.93	305.35	8.21	-41.7	-43.0	20.5	0.00e+00	0	40	0	623902720	56	6449
2026-01-19 03:36:02.93	305.52	8.19	-41.8	-43.2	20.4	0.00e+00	92	40	0	625999872	56	6552
2026-01-19 03:36:03.94	305.68	8.17	-41.7	-42.9	20.5	0.00e+00	92	40	0	628097024	56	6387
2026-01-19 03:36:04.96	305.85	8.16	-41.6	-42.9	20.6	0.00e+00	7	40	0	629145600	56	6322
2026-01-19 03:36:05.97	306.02	8.14	-41.5	-42.8	20.6	0.00e+00	92	40	0	631242752	56	6280
2026-01-19 03:36:06.98	306.18	8.12	-41.4	-42.6	20.8	0.00e+00	0	40	0	633339904	56	6148
2026-01-19 03:36:07.99	306.35	8.10	-41.7	-43.0	20.5	0.00e+00	92	40	0	635437056	56	6435
2026-01-19 03:36:09.00	306.51	8.09	-41.7	-43.0	20.5	0.00e+00	0	40	0	637534208	56	6393
2026-01-19 03:36:10.01	306.68	8.07	-41.7	-43.0	20.4	0.00e+00	92	41	0	638582784	56	6435
2026-01-19 03:36:11.02	306.84	8.05	-41.9	-43.2	20.3	0.00e+00	0	41	0	640679936	56	6592
2026-01-19 03:36:12.03	307.01	8.03	-41.9	-43.2	20.3	0.00e+00	81	41	0	642777088	56	6558
2026-01-19 03:36:13.03	307.17	8.01	-42.0	-43.4	20.1	0.00e+00	92	40	0	644874240	56	6694
2026-01-19 03:36:14.04	307.33	7.99	-41.9	-43.3	20.2	0.00e+00	0	40	0	646971392	56	6628
2026-01-19 03:36:15.05	307.50	7.98	-42.0	-43.4	20.1	0.00e+00	92	41	0	648019968	56	6719
2026-01-19 03:36:16.06	307.66	7.96	-42.1	-43.4	20.0	0.00e+00	0	40	0	650117120	56	6756
2026-01-19 03:36:16.84	307.79	7.94	-41.9	-43.3	20.2	0.00e+00	93	40	0	652214272	56	6622
2026-01-19 03:36:18.00	307.97	7.92	-41.7	-43.1	20.4	0.00e+00	0	41	0	654311424	56	6468
2026-01-19 03:36:18.86	308.11	7.90	-41.8	-43.1	20.3	0.00e+00	92	40	0	656408576	56	6523
2026-01-19 03:36:20.01	308.30	7.88	-41.8	-43.1	20.3	0.00e+00	92	40	0	658505728	56	6472
2026-01-19 03:36:20.88	308.44	7.86	-41.7	-43.0	20.4	0.00e+00	0	40	0	659554304	56	6437
2026-01-19 03:36:22.03	308.62	7.84	-41.9	-43.2	20.2	0.00e+00	91	40	0	661651456	56	6586
2026-01-19 03:36:22.90	308.76	7.82	-41.6	-42.9	20.5	0.00e+00	0	40	0	663748608	56	6375
2026-01-19 03:36:24.05	308.95	7.80	-41.7	-43.0	20.4	0.00e+00	91	40	0	665845760	56	6408
2026-01-19 03:36:24.92	309.09	7.78	-41.6	-42.9	20.5	0.00e+00	0	40	0	666894336	56	6359
2026-01-19 03:36:26.07	309.27	7.76	-41.3	-42.5	20.9	0.00e+00	0	41	0	670040064	56	6073
2026-01-19 03:36:26.93	309.41	7.74	-41.4	-42.6	20.8	0.00e+00	0	40	0	671088640	56	6134
2026-01-19 03:36:28.09	309.59	7.71	-41.2	-42.4	21.0	0.00e+00	0	40	0	673185792	56	6012
2026-01-19 03:36:28.95	309.73	7.70	-41.2	-42.4	21.1	0.00e+00	90	40	0	675282944	56	5997
2026-01-19 03:36:30.11	309.91	7.67	-41.2	-42.4	21.0	0.00e+00	0	40	0	677380096	56	6033
2026-01-19 03:36:30.97	310.05	7.65	-41.3	-42.5	20.9	0.00e+00	90	40	0	678428672	56	6056
2026-01-19 03:36:32.13	310.23	7.63	-41.3	-42.5	20.9	0.00e+00	0	40	0	680525824	56	6089
2026-01-19 03:36:33.00	310.37	7.61	-41.5	-42.8	20.8	0.00e+00	90	40	0	682622976	56	6261
2026-01-19 03:36:34.15	310.55	7.58	-41.3	-42.5	20.9	0.00e+00	92	41	0	684720128	56	6081
2026-01-19 03:36:35.02	310.69	7.56	-41.2	-42.4	20.9	0.00e+00	0	41	0	685768704	56	6003
2026-01-19 03:36:36.17	310.87	7.54	-41.2	-42.4	20.9	0.00e+00	92	41	0	688914432	56	5990
2026-01-19 03:36:37.04	311.01	7.52	-41.4	-42.7	20.7	0.00e+00	0	41	0	689963008	56	6176
2026-01-19 03:36:38.19	311.19	7.49	-41.5	-42.8	20.6	0.00e+00	92	41	0	692060160	56	6286
2026-01-19 03:36:39.06	311.33	7.47	-41.5	-42.8	20.5	0.00e+00	0	41	0	694157312	56	6272
2026-01-19 03:36:40.21	311.51	7.45	-41.4	-42.6	20.8	0.00e+00	90	40	0	696254464	56	6135
2026-01-19 03:36:41.08	311.64	7.42	-41.4	-42.7	20.7	0.00e+00	0	41	0	697303040	56	6177
2026-01-19 03:36:42.23	311.82	7.40	-41.5	-42.8	20.6	0.00e+00	0	41	0	699400192	56	6291
2026-01-19 03:36:43.10	311.96	7.38	-41.5	-42.8	20.4	0.00e+00	53	41	0	701497344	56	6303
2026-01-19 03:36:44.25	312.14	7.35	-41.7	-43.0	20.3	0.00e+00	81	40	0	703594496	56	6455
2026-01-19 03:36:45.12	312.27	7.33	-41.5	-42.8	20.5	0.00e+00	92	41	0	705691648	56	6292
2026-01-19 03:36:46.27	312.45	7.30	-41.6	-42.9	20.5	0.00e+00	0	41	0	707788800	56	6341
2026-01-19 03:36:47.14	312.58	7.28	-41.6	-42.9	20.4	0.00e+00	90	40	0	708837376	56	6352
2026-01-19 03:36:48.29	312.76	7.25	-41.8	-43.1	20.3	0.00e+00	0	40	0	710934528	56	6503
2026-01-19 03:36:49.15	312.90	7.23	-41.6	-42.9	20.5	0.00e+00	92	40	0	713031680	56	6352
2026-01-19 03:36:50.31	313.07	7.20	-41.4	-42.7	20.7	0.00e+00	90	40	0	715128832	56	6211
2026-01-19 03:36:51.17	313.21	7.18	-41.4	-42.6	20.7	0.00e+00	0	40	0	716177408	56	6170
2026-01-19 03:36:52.33	313.38	7.15	-41.4	-42.7	20.7	0.00e+00	92	41	0	718274560	56	6183
2026-01-19 03:36:53.19	313.52	7.13	-41.1	-42.3	21.0	0.00e+00	0	41	0	720371712	56	5939
2026-01-19 03:36:54.34	313.69	7.10	-41.2	-42.4	20.9	0.00e+00	92	40	0	722468864	56	6004
2026-01-19 03:36:55.20	313.82	7.08	-41.1	-42.3	20.9	0.00e+00	81	40	0	724566016	56	5953
2026-01-19 03:36:56.36	314.00	7.05	-41.3	-42.6	20.8	0.00e+00	92	40	0	726663168	56	6109
2026-01-19 03:36:57.22	314.13	7.03	-41.3	-42.6	20.7	0.00e+00	17	40	0	727711744	56	6130
2026-01-19 03:36:58.38	314.31	7.00	-41.5	-42.8	20.5	0.00e+00	2	41	0	729808896	56	6292
2026-01-19 03:36:59.24	314.44	6.98	-41.5	-42.8	20.5	0.00e+00	92	41	0	731906048	56	6288
2026-01-19 03:37:00.39	314.61	6.95	-41.8	-43.1	20.1	0.00e+00	0	40	0	734003200	56	6527
2026-01-19 03:37:01.26	314.74	6.92	-42.1	-43.4	19.9	0.00e+00	92	41	0	735051776	56	6760
2026-01-19 03:37:02.41	314.92	6.89	-42.2	-43.6	19.6	0.00e+00	82	40	0	737148928	56	6920
2026-01-19 03:37:03.28	315.05	6.87	-42.3	-43.8	19.6	0.00e+00	91	40	0	739246080	56	7040
2026-01-19 03:37:04.43	315.22	6.84	-42.3	-43.8	19.4	0.00e+00	0	40	0	741343232	56	7068
2026-01-19 03:37:05.30	315.35	6.82	-42.5	-44.0	19.2	0.00e+00	30	40	0	743440384	56	7206
2026-01-19 03:37:06.45	315.52	6.79	-42.5	-44.0	19.2	0.00e+00	90	41	0	745537536	56	7245
2026-01-19 03:37:07.32	315.65	6.76	-42.2	-43.7	19.6	0.00e+00	0	41	0	746586112	56	6966
2026-01-19 03:37:08.48	315.83	6.73	-42.1	-43.5	19.8	0.00e+00	92	40	0	748683264	56	6838
2026-01-19 03:37:09.34	315.96	6.71	-42.1	-43.6	19.7	0.00e+00	0	40	0	750780416	56	6866
2026-01-19 03:37:10.50	316.13	6.68	-42.3	-43.8	19.5	0.00e+00	90	40	0	752877568	56	7084
2026-01-19 03:37:11.36	316.26	6.65	-42.1	-43.6	19.7	0.00e+00	0	40	0	753926144	56	6879
2026-01-19 03:37:12.52	316.43	6.62	-41.9	-43.2	20.1	0.00e+00	52	40	0	757071872	56	6599
2026-01-19 03:37:13.38	316.56	6.60	-41.9	-43.3	20.0	0.00e+00	88	41	0	758120448	56	6626
2026-01-19 03:37:14.53	316.73	6.56	-41.9	-43.3	19.9	0.00e+00	6	40	0	760217600	56	6654
2026-01-19 03:37:15.40	316.85	6.54	-42.0	-43.5	19.8	0.00e+00	90	41	0	762314752	56	6777
2026-01-19 03:37:16.55	317.02	6.51	-42.2	-43.6	19.6	0.00e+00	6	40	0	764411904	56	6882
2026-01-19 03:37:17.42	317.15	6.48	-42.2	-43.7	19.5	0.00e+00	92	40	0	765460480	56	6954
2026-01-19 03:37:18.57	317.32	6.45	-42.0	-43.5	19.7	0.00e+00	0	40	0	767557632	56	6776
2026-01-19 03:37:19.44	317.45	6.42	-42.2	-43.6	19.5	0.00e+00	92	40	0	769654784	56	6921
2026-01-19 03:37:20.59	317.61	6.39	-42.1	-43.6	19.6	0.00e+00	92	40	0	771751936	56	6863
2026-01-19 03:37:21.45	317.74	6.37	-42.3	-43.8	19.4	0.00e+00	82	40	0	773849088	56	7057
2026-01-19 03:37:22.61	317.91	6.33	-42.8	-44.4	18.9	0.00e+00	92	40	0	775946240	56	7521
2026-01-19 03:37:23.47	318.03	6.31	-42.7	-44.2	19.0	0.00e+00	0	40	0	776994816	58	6603
2026-01-19 03:37:24.63	318.20	6.27	-42.9	-44.6	18.7	0.00e+00	92	40	0	779091968	58	6890
2026-01-19 03:37:25.49	318.33	6.25	-43.0	-44.6	18.6	0.00e+00	0	41	0	781189120	58	6907
2026-01-19 03:37:26.65	318.49	6.21	-43.1	-44.9	18.3	0.00e+00	92	41	0	783286272	58	7108
2026-01-19 03:37:27.51	318.62	6.19	-43.3	-45.0	18.1	0.00e+00	4	41	0	784334848	58	7246
2026-01-19 03:37:28.66	318.78	6.15	-43.6	-45.5	17.8	0.00e+00	86	41	0	786432000	58	7609
2026-01-19 03:37:29.53	318.91	6.13	-43.8	-45.8	17.4	0.00e+00	92	40	0	788529152	60	7052
2026-01-19 03:37:30.68	319.07	6.09	-43.9	-45.9	17.3	0.00e+00	6	40	0	790626304	60	7156
2026-01-19 03:37:31.55	319.20	6.07	-43.7	-45.6	17.7	0.00e+00	92	40	0	792723456	60	6900
2026-01-19 03:37:32.70	319.36	6.03	-43.6	-45.5	17.7	0.00e+00	6	40	0	794820608	60	6832
2026-01-19 03:37:33.57	319.48	6.01	-43.5	-45.4	17.9	0.00e+00	92	41	0	795869184	60	6703
2026-01-19 03:37:34.72	319.65	5.97	-43.7	-45.7	17.6	0.00e+00	6	40	0	797966336	60	6934
2026-01-19 03:37:35.59	319.77	5.95	-43.4	-45.3	18.0	0.00e+00	92	40	0	800063488	60	6633
2026-01-19 03:37:36.74	319.93	5.91	-43.6	-45.4	17.8	0.00e+00	91	41	0	802160640	60	6756
2026-01-19 03:37:37.61	320.06	5.88	-43.5	-45.4	17.7	0.00e+00	5	41	0	803209216	60	6727
2026-01-19 03:37:38.76	320.22	5.85	-43.4	-45.2	18.0	0.00e+00	92	41	0	805306368	60	6609
2026-01-19 03:37:39.62	320.34	5.82	-43.4	-45.3	18.0	0.00e+00	87	40	0	807403520	60	6619
2026-01-19 03:37:40.78	320.50	5.79	-43.5	-45.4	17.8	0.00e+00	91	40	0	809500672	60	6705
2026-01-19 03:37:41.64	320.62	5.76	-43.4	-45.2	18.0	0.00e+00	86	40	0	811597824	60	6596
2026-01-19 03:37:42.80	320.78	5.72	-43.1	-44.8	18.4	0.00e+00	92	40	0	813694976	60	6301
2026-01-19 03:37:43.66	320.90	5.70	-43.2	-45.0	18.0	0.00e+00	85	40	0	814743552	60	6438
2026-01-19 03:37:44.82	321.06	5.66	-43.5	-45.3	17.8	0.00e+00	0	40	0	816840704	60	6679
2026-01-19 03:37:45.68	321.18	5.63	-43.3	-45.1	18.0	0.00e+00	90	40	0	818937856	60	6523
2026-01-19 03:37:46.84	321.34	5.59	-43.1	-44.8	18.4	0.00e+00	0	41	0	821035008	60	6292
2026-01-19 03:37:47.70	321.46	5.57	-43.1	-44.9	18.1	0.00e+00	92	41	0	822083584	60	6360
2026-01-19 03:37:48.86	321.62	5.53	-43.6	-45.5	17.6	0.00e+00	0	40	0	825229312	60	6816
2026-01-19 03:37:49.72	321.74	5.50	-43.7	-45.6	17.5	0.00e+00	90	41	0	826277888	60	6910
2026-01-19 03:37:50.88	321.90	5.47	-44.0	-46.0	17.1	0.00e+00	83	41	0	828375040	60	7222
2026-01-19 03:37:51.74	322.02	5.44	-44.1	-46.3	16.8	0.00e+00	0	41	0	830472192	60	7459
2026-01-19 03:37:52.90	322.18	5.40	-44.6	-46.9	16.2	0.00e+00	92	41	0	832569344	60	8038
2026-01-19 03:37:53.76	322.30	5.37	-44.7	-47.1	15.9	0.00e+00	7	41	0	833617920	60	8201
2026-01-19 03:37:54.91	322.45	5.34	-44.9	-47.4	15.6	0.00e+00	91	41	0	835715072	60	8499
2026-01-19 03:37:55.78	322.57	5.31	-44.8	-47.3	15.7	0.00e+00	82	41	0	837812224	60	8403
2026-01-19 03:37:56.93	322.73	5.27	-44.8	-47.3	15.8	0.00e+00	0	41	0	839909376	60	8398
2026-01-19 03:37:57.80	322.84	5.24	-44.9	-47.4	15.6	0.00e+00	0	41	0	842006528	60	8454
2026-01-19 03:37:58.95	323.00	5.20	-44.9	-47.5	15.5	0.00e+00	0	40	0	844103680	60	8535
2026-01-19 03:37:59.82	323.12	5.18	-45.1	-47.7	15.3	0.00e+00	0	41	0	845152256	60	8794
2026-01-19 03:38:00.97	323.27	5.14	-44.7	-47.2	15.7	0.00e+00	82	41	0	847249408	60	8314
2026-01-19 03:38:01.84	323.39	5.11	-44.9	-47.5	15.5	0.00e+00	90	41	0	849346560	60	8574
2026-01-19 03:38:02.99	323.54	5.07	-44.9	-47.5	15.4	0.00e+00	5	40	0	851443712	60	8543
2026-01-19 03:38:03.86	323.66	5.04	-44.9	-47.5	15.5	0.00e+00	90	41	0	852492288	60	8574
2026-01-19 03:38:05.01	323.81	5.00	-44.6	-47.0	15.9	0.00e+00	0	41	0	854589440	60	8119
2026-01-19 03:38:05.87	323.92	4.97	-44.6	-47.0	16.0	0.00e+00	0	41	0	856686592	60	8111
2026-01-19 03:38:07.03	324.08	4.94	-44.7	-47.3	15.7	0.00e+00	90	40	0	858783744	60	8366
2026-01-19 03:38:07.89	324.19	4.91	-44.6	-47.0	15.9	0.00e+00	0	40	0	860880896	60	8083
2026-01-19 03:38:09.05	324.35	4.87	-44.5	-46.9	16.0	0.00e+00	92	41	0	862978048	60	8034
2026-01-19 03:38:09.91	324.46	4.84	-44.3	-46.6	16.3	0.00e+00	0	41	0	864026624	60	7735
2026-01-19 03:38:11.06	324.61	4.80	-44.2	-46.5	16.6	0.00e+00	0	41	0	866123776	60	7647
2026-01-19 03:38:11.93	324.72	4.77	-44.4	-46.8	16.3	0.00e+00	0	41	0	868220928	60	7896
2026-01-19 03:38:13.08	324.87	4.73	-44.2	-46.4	16.5	0.00e+00	0	40	0	870318080	60	7575
2026-01-19 03:38:13.95	324.99	4.70	-44.4	-46.7	16.1	0.00e+00	0	40	0	871366656	60	7855
2026-01-19 03:38:15.10	325.14	4.66	-44.2	-46.5	16.5	0.00e+00	0	41	0	873463808	60	7633
2026-01-19 03:38:15.97	325.25	4.63	-44.2	-46.5	16.5	0.00e+00	68	40	0	875560960	60	7602
2026-01-19 03:38:17.12	325.40	4.59	-44.4	-46.8	16.3	0.00e+00	0	41	0	877658112	60	7865
2026-01-19 03:38:17.99	325.51	4.56	-44.5	-46.9	16.0	0.00e+00	92	41	0	879755264	60	8021
2026-01-19 03:38:19.14	325.66	4.52	-44.3	-46.6	16.2	0.00e+00	0	41	0	881852416	60	7758
2026-01-19 03:38:20.01	325.77	4.49	-44.4	-46.8	16.2	0.00e+00	82	41	0	882900992	60	7902
2026-01-19 03:38:21.16	325.92	4.45	-44.2	-46.4	16.5	0.00e+00	0	41	0	884998144	60	7595
2026-01-19 03:38:22.03	326.03	4.42	-44.0	-46.2	16.8	0.00e+00	82	41	0	887095296	60	7342
2026-01-19 03:38:23.18	326.18	4.38	-44.1	-46.3	16.7	0.00e+00	90	41	0	889192448	60	7500
2026-01-19 03:38:24.05	326.29	4.35	-44.2	-46.5	16.5	0.00e+00	81	40	0	890241024	60	7606
2026-01-19 03:38:25.20	326.44	4.31	-44.2	-46.4	16.5	0.00e+00	92	41	0	893386752	60	7585
2026-01-19 03:38:26.06	326.55	4.28	-44.0	-46.2	16.7	0.00e+00	0	41	0	894435328	60	7377
2026-01-19 03:38:27.22	326.69	4.24	-43.9	-46.1	16.7	0.00e+00	0	41	0	896532480	60	7279
2026-01-19 03:38:28.08	326.80	4.21	-44.3	-46.6	16.3	0.00e+00	0	41	0	898629632	60	7770
2026-01-19 03:38:29.24	326.95	4.17	-44.5	-46.9	16.1	0.00e+00	0	41	0	900726784	60	7980
2026-01-19 03:38:30.10	327.06	4.14	-44.6	-47.1	15.8	0.00e+00	0	41	0	901775360	60	8201
2026-01-19 03:38:31.26	327.20	4.10	-44.5	-46.9	16.0	0.00e+00	81	41	0	903872512	60	8007
2026-01-19 03:38:32.12	327.31	4.07	-44.3	-46.7	16.1	0.00e+00	92	41	0	905969664	60	7814
2026-01-19 03:38:33.28	327.45	4.03	-44.6	-47.1	15.7	0.00e+00	0	41	0	908066816	60	8145
2026-01-19 03:38:34.14	327.56	4.00	-44.9	-47.5	15.3	0.00e+00	92	41	0	910163968	60	8598
2026-01-19 03:38:35.30	327.71	3.96	-44.4	-46.9	16.0	0.00e+00	0	41	0	912261120	60	7970
2026-01-19 03:38:36.16	327.81	3.93	-44.4	-46.9	16.0	0.00e+00	4	41	0	913309696	60	7984
2026-01-19 03:38:37.32	327.96	3.89	-44.3	-46.7	16.2	0.00e+00	21	41	0	915406848	60	7848
2026-01-19 03:38:38.18	328.06	3.86	-43.9	-46.1	16.7	0.00e+00	81	41	0	917504000	60	7282
2026-01-19 03:38:39.34	328.21	3.81	-43.9	-46.2	16.6	0.00e+00	92	41	0	919601152	60	7344
2026-01-19 03:38:40.21	328.31	3.78	-44.0	-46.2	16.6	0.00e+00	81	41	0	920649728	60	7381
2026-01-19 03:38:41.36	328.45	3.74	-43.6	-45.7	17.1	0.00e+00	92	41	0	922746880	60	6988
2026-01-19 03:38:42.23	328.56	3.71	-43.3	-45.3	17.4	0.00e+00	0	41	0	924844032	60	6662
2026-01-19 03:38:43.38	328.70	3.67	-43.6	-45.6	17.1	0.00e+00	0	41	0	926941184	60	6914
2026-01-19 03:38:44.24	328.80	3.64	-43.6	-45.7	17.0	0.00e+00	82	41	0	929038336	60	6992
2026-01-19 03:38:45.40	328.95	3.60	-43.4	-45.5	17.1	0.00e+00	81	41	0	931135488	60	6802
2026-01-19 03:38:46.26	329.05	3.57	-43.6	-45.7	16.9	0.00e+00	73	41	0	932184064	60	6976
2026-01-19 03:38:47.42	329.19	3.52	-43.6	-45.7	16.9	0.00e+00	0	41	0	934281216	60	6972
2026-01-19 03:38:48.28	329.29	3.49	-44.2	-46.7	15.8	0.00e+00	90	41	0	936378368	60	7787
2026-01-19 03:38:49.43	329.43	3.45	-44.1	-46.6	15.8	0.00e+00	81	41	0	938475520	60	7747
2026-01-19 03:38:50.30	329.54	3.42	-44.2	-46.7	15.7	0.00e+00	92	41	0	939524096	60	7838
2026-01-19 03:38:51.45	329.67	3.38	-43.7	-46.0	16.3	0.00e+00	0	41	0	941621248	60	7248
2026-01-19 03:38:52.32	329.78	3.35	-43.7	-46.1	16.1	0.00e+00	2	41	0	943718400	60	7279
2026-01-19 03:38:53.47	329.91	3.30	-43.9	-46.5	15.4	0.00e+00	71	41	0	945815552	60	7634
2026-01-19 03:38:54.34	330.02	3.27	-44.2	-47.1	14.6	0.00e+00	0	41	0	947912704	60	8224
2026-01-19 03:38:55.49	330.15	3.23	-44.2	-47.2	14.5	0.00e+00	91	41	0	950009856	60	8245
2026-01-19 03:38:56.36	330.26	3.20	-44.3	-47.3	14.5	0.00e+00	0	41	0	951058432	60	8365
2026-01-19 03:38:57.51	330.39	3.16	-44.8	-48.3	13.3	9.90e-06	12	41	0	953155584	60	9351
2026-01-19 03:38:58.38	330.50	3.12	-45.0	-48.7	12.8	5.26e-05	2	41	0	955252736	60	9888
2026-01-19 03:38:59.53	330.63	3.08	-45.3	-49.4	11.9	1.64e-04	5	41	0	957349888	60	10709
2026-01-19 03:39:00.40	330.73	3.05	-45.2	-49.4	11.7	4.23e-04	82	41	0	958398464	60	10729
2026-01-19 03:39:01.55	330.87	3.01	-48.1	-61.7	3.4	2.08e-03	10	41	0	960495616	60	44002
2026-01-19 03:39:02.42	330.97	2.97	-48.8	-64.0	3.6	1.51e+00	0	41	104	960495616	60	57011
2026-01-19 03:39:03.57	331.10	2.93	-49.3	-64.5	3.6	1.51e+00	0	41	104	960495616	60	60774
2026-01-19 03:39:04.44	331.20	2.90	-49.5	-64.7	3.6	1.51e+00	0	41	104	960495616	60	62175
2026-01-19 03:39:05.59	331.34	2.86	-49.8	-65.0	3.6	1.51e+00	0	41	104	960495616	60	64348
2026-01-19 03:39:06.46	331.44	2.82	-49.9	-65.1	3.6	1.51e+00	0	41	104	960495616	60	65260
2026-01-19 03:39:07.61	331.57	2.78	-50.1	-65.3	3.6	1.51e+00	0	41	104	960495616	60	66367
2026-01-19 03:39:08.48	331.67	2.75	-50.1	-65.4	3.6	1.51e+00	0	41	104	960495616	60	67058
2026-01-19 03:39:09.63	331.80	2.71	-50.2	-65.4	3.6	1.51e+00	0	41	104	960495616	60	67619
2026-01-19 03:39:10.50	331.90	2.67	-50.2	-65.4	3.5	1.51e+00	0	41	104	960495616	60	67309
2026-01-19 03:39:11.65	332.03	2.63	-50.3	-65.5	3.6	1.51e+00	0	41	104	960495616	60	67937
2026-01-19 03:39:12.52	332.13	2.60	-50.3	-65.5	3.6	1.51e+00	0	41	104	960495616	60	68197
2026-01-19 03:39:13.67	332.26	2.56	-50.3	-65.5	3.6	1.51e+00	0	41	104	960495616	60	68190
2026-01-19 03:39:14.54	332.36	2.52	-50.3	-65.5	3.6	1.51e+00	0	41	104	960495616	60	67813
2026-01-19 03:39:15.69	332.49	2.48	-50.3	-65.5	3.6	1.51e+00	0	41	104	960495616	60	68458
2026-01-19 03:39:16.56	332.59	2.45	-50.1	-65.4	3.6	1.51e+00	0	41	104	960495616	60	67346
2026-01-19 03:39:17.71	332.72	2.40	-49.9	-65.4	3.6	1.51e+00	0	41	104	960495616	60	66945
2026-01-19 03:39:18.58	332.81	2.37	-50.2	-65.4	3.6	1.51e+00	0	41	104	960495616	60	67240
2026-01-19 03:39:19.73	332.94	2.33	-50.2	-65.4	3.6	1.51e+00	0	41	104	960495616	60	67597
2026-01-19 03:39:20.60	333.04	2.30	-50.1	-65.3	3.6	1.51e+00	0	41	104	960495616	60	66878
2026-01-19 03:39:21.76	333.17	2.25	-50.2	-65.4	3.6	1.51e+00	0	41	104	960495616	60	67252
2026-01-19 03:39:22.62	333.26	2.22	-50.1	-65.4	3.6	1.51e+00	0	41	104	960495616	60	66994
2026-01-19 03:39:23.78	333.39	2.18	-50.1	-65.3	3.6	1.51e+00	0	41	104	960495616	60	66824
2026-01-19 03:39:24.64	333.49	2.14	-50.2	-65.4	3.6	1.51e+00	0	41	104	960495616	60	67268
2026-01-19 03:39:25.80	333.62	2.10	-50.3	-65.5	3.6	1.51e+00	0	41	104	960495616	60	68230
2026-01-19 03:39:26.66	333.71	2.07	-50.2	-65.5	3.6	1.51e+00	0	41	104	960495616	60	67740
2026-01-19 03:39:27.81	333.84	2.02	-50.2	-65.4	3.6	1.51e+00	0	41	104	960495616	60	67666
2026-01-19 03:39:28.68	333.93	1.99	-50.2	-65.4	3.6	1.51e+00	0	41	104	960495616	60	67376
2026-01-19 03:39:29.83	334.06	1.95	-50.2	-65.4	3.6	1.51e+00	0	41	104	960495616	60	67195
2026-01-19 03:39:30.70	334.15	1.91	-50.2	-65.4	3.6	1.51e+00	0	41	104	960495616	60	67353
2026-01-19 03:39:31.85	334.28	1.87	-50.2	-65.4	3.6	1.51e+00	0	41	104	960495616	60	67358
2026-01-19 03:39:32.72	334.37	1.84	-50.2	-65.4	3.6	1.51e+00	0	41	104	960495616	60	67226
2026-01-19 03:39:33.87	334.50	1.79	-50.2	-65.4	3.6	1.51e+00	0	41	104	960495616	60	67398
2026-01-19 03:39:34.74	334.59	1.76	-50.2	-65.4	3.6	1.51e+00	0	41	104	960495616	60	67158
2026-01-19 03:39:35.89	334.71	1.72	-50.2	-65.4	3.6	1.51e+00	0	41	104	960495616	60	67533
2026-01-19 03:39:36.76	334.81	1.68	-50.2	-65.4	3.6	1.51e+00	0	41	104	960495616	60	67455
2026-01-19 03:39:37.91	334.93	1.64	-50.2	-65.4	3.6	1.51e+00	0	41	104	960495616	60	67407
2026-01-19 03:39:38.78	335.02	1.61	-50.2	-65.4	3.6	1.51e+00	0	41	104	960495616	60	67502
2026-01-19 03:39:39.93	335.14	1.56	-50.2	-65.4	3.6	1.51e+00	0	41	104	960495616	60	67172
2026-01-19 03:39:40.80	335.24	1.53	-50.2	-65.4	3.6	1.51e+00	0	41	104	960495616	60	67281
2026-01-19 03:39:41.95	335.36	1.48	-50.2	-65.4	3.6	1.51e+00	0	41	104	960495616	60	67446
2026-01-19 03:39:42.82	335.45	1.45	-50.2	-65.4	3.6	1.51e+00	0	41	104	960495616	60	67328
2026-01-19 03:39:43.97	335.57	1.41	-50.2	-65.4	3.6	1.51e+00	0	41	104	960495616	60	67519
2026-01-19 03:39:44.84	335.66	1.37	-50.2	-65.4	3.6	1.51e+00	0	41	104	960495616	60	67330
2026-01-19 03:39:45.99	335.78	1.33	-50.2	-65.4	3.6	1.51e+00	0	41	104	960495616	60	67126
2026-01-19 03:39:46.86	335.88	1.30	-50.2	-65.4	3.6	1.51e+00	0	41	104	960495616	60	67331
2026-01-19 03:39:48.01	336.00	1.25	-50.2	-65.4	3.6	1.51e+00	0	41	104	960495616	60	67371
2026-01-19 03:39:48.88	336.09	1.22	-50.2	-65.4	3.6	1.51e+00	0	41	104	960495616	60	67149
2026-01-19 03:39:50.03	336.21	1.17	-50.2	-65.4	3.6	1.51e+00	0	41	104	960495616	60	67477
2026-01-19 03:39:50.90	336.30	1.14	-50.2	-65.4	3.6	1.51e+00	0	41	104	960495616	60	67163
2026-01-19 03:39:52.05	336.41	1.10	-50.2	-65.4	3.6	1.51e+00	0	41	104	960495616	60	67368
2026-01-19 03:39:52.92	336.50	1.06	-50.2	-65.5	3.6	1.51e+00	0	41	104	960495616	60	67772
2026-01-19 03:39:54.07	336.62	1.02	-50.2	-65.4	3.6	1.51e+00	0	41	104	960495616	60	67131
2026-01-19 03:39:54.93	336.71	0.99	-50.2	-65.4	3.6	1.51e+00	0	41	104	960495616	60	67414
2026-01-19 03:39:56.09	336.83	0.94	-50.2	-65.4	3.6	1.51e+00	0	41	104	960495616	60	67340
2026-01-19 03:39:56.95	336.92	0.91	-50.2	-65.4	3.6	1.51e+00	0	41	104	960495616	60	67540
2026-01-19 03:39:58.11	337.04	0.86	-50.2	-65.5	3.6	1.51e+00	0	41	104	960495616	60	67800
2026-01-19 03:39:58.97	337.12	0.83	-50.2	-65.4	3.6	1.51e+00	0	41	104	960495616	60	67590
2026-01-19 03:40:00.13	337.24	0.78	-50.2	-65.4	3.6	1.51e+00	0	41	104	960495616	60	67494
2026-01-19 03:40:00.99	337.33	0.75	-50.2	-65.4	3.6	1.51e+00	0	41	104	960495616	60	67459
2026-01-19 03:40:02.15	337.44	0.71	-50.2	-65.4	3.6	1.51e+00	0	41	104	960495616	60	67148
2026-01-19 03:40:03.01	337.53	0.67	-50.2	-65.4	3.5	1.51e+00	0	41	104	960495616	60	67186
2026-01-19 03:40:04.17	337.65	0.63	-50.2	-65.4	3.6	1.51e+00	0	41	104	960495616	60	67589
2026-01-19 03:40:05.03	337.73	0.60	-50.2	-65.4	3.6	1.51e+00	0	41	104	960495616	60	67473
2026-01-19 03:40:06.19	337.85	0.55	-50.2	-65.4	3.6	1.51e+00	0	41	104	960495616	60	67466
2026-01-19 03:40:07.05	337.93	0.52	-50.1	-65.3	3.6	1.51e+00	0	41	104	960495616	60	66878
2026-01-19 03:40:08.21	338.05	0.47	-50.2	-65.4	3.6	1.51e+00	0	41	104	960495616	60	67203
2026-01-19 03:40:09.07	338.13	0.44	-50.2	-65.4	3.6	1.51e+00	0	41	104	960495616	60	67569
2026-01-19 03:40:10.23	338.25	0.39	-50.2	-65.4	3.6	1.51e+00	0	41	104	960495616	60	67303
2026-01-19 03:40:11.09	338.33	0.36	-50.2	-65.4	3.6	1.51e+00	0	41	104	960495616	60	67206
2026-01-19 03:40:12.24	338.45	0.32	-50.2	-65.4	3.6	1.51e+00	0	41	104	960495616	60	67437
2026-01-19 03:40:13.11	338.53	0.28	-50.2	-65.4	3.6	1.51e+00	0	41	104	960495616	60	67249
2026-01-19 03:40:14.26	338.65	0.24	-50.2	-65.4	3.6	1.51e+00	0	41	104	960495616	60	67106
2026-01-19 03:40:15.13	338.73	0.20	-50.2	-65.4	3.6	1.51e+00	0	41	104	960495616	60	67333
2026-01-19 03:40:16.28	338.84	0.16	-50.2	-65.4	3.6	1.51e+00	0	41	104	960495616	60	67338
2026-01-19 03:40:17.15	338.93	0.12	-50.2	-65.4	3.6	1.51e+00	0	41	104	960495616	60	67392
2026-01-19 03:40:18.30	339.04	0.08	-50.2	-65.4	3.6	1.51e+00	0	41	104	960495616	60	67025
2026-01-19 03:40:19.17	339.12	0.05	-50.2	-65.4	3.6	1.51e+00	0	41	104	960495616	60	67272
2026-01-19 03:40:20.32	339.23	0.00	-50.2	-65.4	3.6	1.51e+00	0	41	104	960495616	60	67381

#Closed at: 2026-01-19 03:40:21
#Recorded file [960 MB]: D:/lorett/data/35029_260119_152911.dat