passes_logs/2026/01/19/R4.6S_Anadyr/R4.6S_Anadyr__20260119_192819_FENGYUN_3D_rec.log

#Pass ID: 20260119_192819_FENGYUN 3D
#Satellite: FENGYUN 3D
#Configuration: FENGYUN 3D
#almurnet v.1.7.20251203
#Start time: 2026-01-19 19:28:23

#Version: 2.2.20231116
#Station: R4.6S_Anadyr
#Location: 177.4865 lon 64.73178 lat
#TLE: 1 43010U 17072A   26019.30265705  .00000224  00000+0  12791-3 0  9991
#TLE: 2 43010  98.9940 351.1850 0002428 100.8496 259.2953 14.19697535423864

#Time	Az	El	Level	Level2	SNR	BER	BlckErr	Temp	State	Recorded	gain1	gain2
2026-01-19 19:28:23.08	32.08	0.17	-52.2	-63.0	3.3	8.40e-01	0	39	0	0	60	51035
2026-01-19 19:28:24.09	32.02	0.22	-51.3	-63.4	3.6	8.44e-01	0	39	104	0	60	53652
2026-01-19 19:28:25.10	31.96	0.28	-50.2	-62.4	3.6	8.45e-01	0	39	104	0	60	47751
2026-01-19 19:28:26.11	31.90	0.33	-50.1	-62.2	3.6	8.45e-01	0	39	104	0	60	46435
2026-01-19 19:28:27.12	31.84	0.39	-49.9	-62.0	3.6	8.45e-01	0	39	104	0	60	45667
2026-01-19 19:28:28.13	31.79	0.44	-49.8	-61.9	3.6	8.46e-01	0	39	104	0	60	45003
2026-01-19 19:28:29.14	31.73	0.49	-49.7	-61.9	3.6	8.45e-01	0	39	104	0	60	45235
2026-01-19 19:28:30.15	31.67	0.55	-49.8	-61.9	3.6	8.45e-01	0	39	104	0	60	45057
2026-01-19 19:28:31.16	31.61	0.60	-49.7	-61.8	3.6	8.46e-01	0	39	104	0	60	44599
2026-01-19 19:28:32.17	31.55	0.66	-49.6	-61.8	3.6	8.46e-01	0	39	104	0	60	44313
2026-01-19 19:28:33.18	31.49	0.71	-49.6	-61.7	3.6	8.45e-01	0	39	104	0	60	44143
2026-01-19 19:28:34.19	31.43	0.77	-49.5	-61.6	3.6	8.45e-01	0	39	104	0	60	43477
2026-01-19 19:28:35.20	31.37	0.82	-49.4	-61.6	3.6	8.45e-01	0	39	104	0	60	43329
2026-01-19 19:28:36.21	31.31	0.88	-49.3	-61.4	3.6	8.45e-01	0	39	104	0	60	42579
2026-01-19 19:28:37.22	31.24	0.93	-49.3	-61.4	3.6	8.44e-01	0	39	104	0	60	42363
2026-01-19 19:28:38.23	31.18	0.99	-49.1	-61.3	3.6	8.44e-01	0	39	104	0	60	41942
2026-01-19 19:28:39.24	31.12	1.04	-49.0	-61.2	3.6	8.47e-01	0	39	104	0	60	41372
2026-01-19 19:28:40.24	31.06	1.10	-48.9	-61.1	3.5	8.45e-01	0	39	104	0	60	40792
2026-01-19 19:28:41.25	31.00	1.15	-48.8	-60.9	3.6	8.46e-01	0	39	104	0	60	40058
2026-01-19 19:28:42.26	30.94	1.21	-48.6	-60.7	3.6	8.44e-01	0	39	104	0	60	39189
2026-01-19 19:28:43.27	30.87	1.27	-48.2	-60.3	3.6	8.45e-01	0	39	104	0	60	37574
2026-01-19 19:28:44.28	30.81	1.32	-47.8	-59.6	3.6	8.45e-01	0	39	104	0	60	34708
2026-01-19 19:28:45.29	30.75	1.38	-47.7	-59.7	3.6	8.45e-01	0	39	104	0	60	34805
2026-01-19 19:28:46.30	30.68	1.43	-47.7	-59.6	3.6	8.46e-01	0	39	104	0	60	34677
2026-01-19 19:28:47.31	30.62	1.49	-47.7	-59.7	3.6	8.45e-01	0	39	104	0	60	34914
2026-01-19 19:28:48.32	30.56	1.54	-47.6	-59.7	3.6	8.45e-01	0	39	104	0	60	34898
2026-01-19 19:28:49.33	30.49	1.60	-47.6	-59.7	3.6	8.45e-01	0	39	104	0	60	35093
2026-01-19 19:28:50.34	30.43	1.66	-47.6	-59.7	3.6	8.46e-01	0	40	104	0	60	35078
2026-01-19 19:28:51.35	30.36	1.71	-47.6	-59.8	3.6	8.45e-01	0	39	104	0	60	35206
2026-01-19 19:28:52.36	30.30	1.77	-47.6	-59.6	3.6	8.45e-01	0	39	104	0	60	34517
2026-01-19 19:28:53.37	30.23	1.83	-47.6	-59.7	3.6	8.45e-01	0	39	104	0	60	35101
2026-01-19 19:28:54.38	30.17	1.88	-47.6	-59.6	3.6	8.46e-01	0	39	104	0	60	34502
2026-01-19 19:28:55.39	30.10	1.94	-47.6	-59.4	3.6	8.44e-01	0	39	104	0	60	33618
2026-01-19 19:28:56.40	30.04	2.00	-47.6	-59.5	3.6	8.44e-01	0	39	104	0	60	34244
2026-01-19 19:28:57.41	29.97	2.05	-47.5	-58.5	3.6	8.46e-01	0	39	104	0	60	30460
2026-01-19 19:28:58.42	29.91	2.11	-47.6	-59.4	3.6	8.45e-01	0	40	104	0	60	33561
2026-01-19 19:28:59.43	29.84	2.17	-47.6	-59.6	3.6	8.45e-01	0	40	104	0	60	34489
2026-01-19 19:29:00.44	29.77	2.22	-47.6	-59.6	3.6	8.45e-01	0	39	104	0	60	34619
2026-01-19 19:29:01.46	29.70	2.28	-47.6	-59.8	3.6	8.45e-01	0	40	104	0	60	35133
2026-01-19 19:29:02.47	29.64	2.34	-47.6	-59.7	3.6	8.45e-01	0	40	104	0	60	35055
2026-01-19 19:29:03.48	29.57	2.39	-47.6	-59.7	3.6	8.45e-01	0	39	104	0	60	34762
2026-01-19 19:29:04.49	29.50	2.45	-47.6	-59.6	3.6	8.44e-01	0	39	104	0	60	34694
2026-01-19 19:29:05.50	29.43	2.51	-47.6	-59.7	3.6	8.45e-01	0	40	104	0	60	34935
2026-01-19 19:29:06.51	29.36	2.57	-47.6	-59.7	3.6	8.45e-01	0	40	104	0	60	34723
2026-01-19 19:29:07.52	29.29	2.62	-47.6	-59.2	3.6	8.46e-01	0	40	104	0	60	32911
2026-01-19 19:29:08.53	29.23	2.68	-47.5	-58.3	3.6	8.45e-01	0	40	104	0	60	29833
2026-01-19 19:29:09.54	29.16	2.74	-47.4	-57.7	3.6	8.44e-01	0	40	104	0	60	27791
2026-01-19 19:29:10.55	29.09	2.80	-47.5	-58.4	3.6	8.44e-01	0	40	104	0	60	30011
2026-01-19 19:29:11.56	29.02	2.85	-47.5	-59.0	3.6	8.44e-01	0	40	104	0	60	32071
2026-01-19 19:29:12.57	28.95	2.91	-47.5	-58.7	3.6	8.46e-01	0	40	104	0	60	31241
2026-01-19 19:29:13.58	28.87	2.97	-47.4	-57.3	3.6	8.45e-01	0	40	104	0	60	26472
2026-01-19 19:29:14.59	28.80	3.03	-47.1	-54.4	4.7	8.31e-01	0	40	0	0	60	18899
2026-01-19 19:29:15.60	28.73	3.09	-46.9	-53.0	4.8	1.51e-01	0	40	0	4194304	60	16195
2026-01-19 19:29:16.61	28.66	3.14	-44.0	-46.5	11.8	9.91e-04	0	40	0	8388608	60	7678
2026-01-19 19:29:17.62	28.59	3.20	-45.7	-49.7	8.3	1.17e-03	0	40	0	14680064	60	11101
2026-01-19 19:29:18.63	28.52	3.26	-46.0	-50.2	7.8	1.34e-01	0	40	0	19922944	60	11657
2026-01-19 19:29:19.64	28.44	3.32	-46.4	-51.5	4.7	2.03e-02	0	40	0	25165824	60	13588
2026-01-19 19:29:20.65	28.37	3.38	-45.2	-49.1	5.1	8.16e-01	0	40	104	25165824	60	10270
2026-01-19 19:29:21.66	28.30	3.43	-38.6	-39.7	18.8	1.16e-02	0	40	104	25165824	50	6181
2026-01-19 19:29:22.67	28.23	3.49	-46.8	-53.5	3.6	6.80e-06	0	40	0	30408704	60	17018
2026-01-19 19:29:23.68	28.15	3.55	-45.4	-49.1	5.6	8.45e-01	0	40	104	30408704	60	10361
2026-01-19 19:29:24.68	28.08	3.61	-40.4	-41.7	17.2	0.00e+00	0	40	0	30408704	54	6181
2026-01-19 19:29:25.69	28.00	3.67	-38.9	-40.0	18.4	0.00e+00	0	40	0	35651584	50	6433
2026-01-19 19:29:26.70	27.93	3.73	-37.6	-38.5	20.5	0.00e+00	0	40	0	41943040	50	5402
2026-01-19 19:29:27.72	27.85	3.79	-39.8	-41.0	18.1	0.00e+00	0	40	0	47185920	52	6431
2026-01-19 19:29:28.72	27.78	3.85	-39.1	-40.2	18.5	0.00e+00	0	40	0	52428800	52	5836
2026-01-19 19:29:29.74	27.70	3.91	-39.1	-40.2	18.3	0.00e+00	0	40	0	58720256	50	6544
2026-01-19 19:29:30.75	27.63	3.97	-38.2	-39.2	19.7	0.00e+00	0	40	0	63963136	50	5857
2026-01-19 19:29:31.76	27.55	4.02	-39.5	-40.7	18.3	0.00e+00	0	40	0	70254592	50	6950
2026-01-19 19:29:32.77	27.47	4.08	-37.3	-38.2	21.1	0.00e+00	0	40	0	75497472	48	5848
2026-01-19 19:29:33.78	27.40	4.14	-39.6	-40.7	17.7	0.00e+00	0	40	0	80740352	50	6966
2026-01-19 19:29:34.79	27.32	4.20	-38.4	-39.4	20.0	0.00e+00	0	40	0	87031808	50	6016
2026-01-19 19:29:35.80	27.24	4.26	-39.0	-40.0	19.0	0.00e+00	0	40	0	92274688	50	6458
2026-01-19 19:29:36.81	27.17	4.32	-37.6	-38.5	20.4	0.00e+00	0	40	0	98566144	50	5428
2026-01-19 19:29:37.82	27.09	4.38	-39.8	-40.9	18.0	0.00e+00	0	40	0	103809024	50	7152
2026-01-19 19:29:38.83	27.01	4.44	-40.2	-41.4	17.7	0.00e+00	0	40	0	110100480	52	6738
2026-01-19 19:29:39.84	26.93	4.50	-39.7	-40.9	18.3	0.00e+00	0	40	0	115343360	52	6323
2026-01-19 19:29:40.85	26.85	4.56	-37.8	-38.7	19.9	0.00e+00	0	40	0	121634816	48	6242
2026-01-19 19:29:41.86	26.77	4.62	-39.0	-40.1	18.9	0.00e+00	0	40	0	126877696	50	6485
2026-01-19 19:29:42.87	26.69	4.68	-37.5	-38.4	20.2	0.00e+00	0	40	0	132120576	48	6022
2026-01-19 19:29:43.88	26.61	4.74	-38.0	-39.0	19.8	0.00e+00	0	40	0	138412032	50	5718
2026-01-19 19:29:44.89	26.53	4.80	-40.5	-41.8	17.4	0.00e+00	0	40	0	143654912	52	7042
2026-01-19 19:29:45.90	26.45	4.86	-38.8	-39.8	19.1	0.00e+00	0	40	0	149946368	52	5626
2026-01-19 19:29:46.90	26.37	4.92	-39.4	-40.5	18.9	0.00e+00	0	40	0	155189248	50	6830
2026-01-19 19:29:47.91	26.29	4.98	-36.9	-37.8	21.2	0.00e+00	0	40	0	160432128	48	5608
2026-01-19 19:29:48.92	26.21	5.04	-37.8	-38.8	20.0	0.00e+00	0	40	0	166723584	48	6265
2026-01-19 19:29:49.93	26.12	5.11	-38.1	-39.0	20.5	0.00e+00	0	40	0	171966464	48	6458
2026-01-19 19:29:50.94	26.04	5.17	-36.3	-37.1	22.1	0.00e+00	0	40	0	177209344	46	5777
2026-01-19 19:29:51.95	25.96	5.23	-37.1	-38.0	21.3	0.00e+00	0	40	0	183500800	46	6414
2026-01-19 19:29:52.96	25.87	5.29	-37.4	-38.3	21.0	0.00e+00	0	40	0	188743680	46	6619
2026-01-19 19:29:53.97	25.79	5.35	-37.3	-38.1	21.1	0.00e+00	0	40	0	195035136	46	6516
2026-01-19 19:29:54.98	25.71	5.41	-36.7	-37.5	21.7	0.00e+00	0	40	0	200278016	48	5428
2026-01-19 19:29:55.99	25.62	5.47	-36.7	-37.5	21.7	0.00e+00	0	40	0	206569472	46	6042
2026-01-19 19:29:57.00	25.54	5.53	-37.1	-38.0	21.2	0.00e+00	0	40	0	211812352	46	6409
2026-01-19 19:29:58.01	25.45	5.59	-37.3	-38.2	21.1	0.00e+00	0	40	0	218103808	48	5877
2026-01-19 19:29:59.02	25.37	5.66	-36.6	-37.4	21.7	0.00e+00	0	40	0	223346688	46	5996
2026-01-19 19:30:00.03	25.28	5.72	-36.9	-37.7	21.6	0.00e+00	0	40	0	228589568	46	6229
2026-01-19 19:30:01.04	25.19	5.78	-36.8	-37.6	21.7	0.00e+00	0	40	0	234881024	46	6165
2026-01-19 19:30:02.05	25.11	5.84	-36.6	-37.4	21.9	0.00e+00	0	40	0	240123904	46	6014
2026-01-19 19:30:03.07	25.02	5.90	-37.0	-37.8	21.7	0.00e+00	0	40	0	246415360	46	6283
2026-01-19 19:30:04.08	24.93	5.97	-36.6	-37.4	21.8	0.00e+00	0	40	0	251658240	46	6027
2026-01-19 19:30:05.09	24.84	6.03	-37.4	-38.3	21.3	0.00e+00	0	40	0	256901120	46	6635
2026-01-19 19:30:06.09	24.76	6.09	-36.9	-37.8	21.5	0.00e+00	0	40	0	263192576	46	6262
2026-01-19 19:30:07.11	24.67	6.15	-37.6	-38.5	21.0	0.00e+00	0	40	0	268435456	46	6814
2026-01-19 19:30:08.12	24.58	6.21	-37.0	-37.8	21.5	0.00e+00	0	40	0	274726912	46	6288
2026-01-19 19:30:09.13	24.49	6.28	-37.7	-38.5	20.9	0.00e+00	0	40	0	279969792	48	6087
2026-01-19 19:30:10.14	24.40	6.34	-37.6	-38.5	20.9	0.00e+00	0	40	0	285212672	48	6069
2026-01-19 19:30:11.15	24.31	6.40	-38.2	-39.1	20.3	0.00e+00	0	40	0	291504128	48	6524
2026-01-19 19:30:12.16	24.22	6.46	-37.8	-38.7	20.5	0.00e+00	0	40	0	296747008	48	6178
2026-01-19 19:30:13.17	24.13	6.53	-37.3	-38.1	21.4	0.00e+00	0	40	0	303038464	48	5824
2026-01-19 19:30:14.18	24.03	6.59	-37.3	-38.1	21.3	0.00e+00	0	40	0	308281344	48	5789
2026-01-19 19:30:15.19	23.94	6.65	-37.5	-38.3	21.2	0.00e+00	0	40	0	314572800	48	5936
2026-01-19 19:30:16.20	23.85	6.72	-37.4	-38.2	21.5	0.00e+00	0	40	0	319815680	48	5893
2026-01-19 19:30:17.20	23.76	6.78	-37.6	-38.5	21.0	0.00e+00	0	40	0	326107136	48	6058
2026-01-19 19:30:18.21	23.66	6.84	-36.8	-37.6	21.8	0.00e+00	0	40	0	331350016	48	5487
2026-01-19 19:30:19.23	23.57	6.90	-37.5	-38.4	21.1	0.00e+00	0	40	0	336592896	48	5969
2026-01-19 19:30:20.24	23.48	6.97	-37.1	-37.9	21.7	0.00e+00	0	40	0	342884352	48	5669
2026-01-19 19:30:21.24	23.38	7.03	-38.1	-39.0	20.5	0.00e+00	0	40	0	348127232	48	6442
2026-01-19 19:30:22.25	23.29	7.09	-36.8	-37.6	22.0	0.00e+00	0	40	0	354418688	48	5459
2026-01-19 19:30:23.27	23.19	7.16	-37.2	-38.0	21.7	0.00e+00	0	40	0	359661568	46	6442
2026-01-19 19:30:24.27	23.10	7.22	-37.3	-38.1	21.5	0.00e+00	0	40	0	364904448	46	6532
2026-01-19 19:30:25.28	23.00	7.28	-36.8	-37.6	22.1	0.00e+00	0	40	0	371195904	46	6126
2026-01-19 19:30:26.30	22.90	7.35	-37.5	-38.3	21.5	0.00e+00	0	40	0	376438784	46	6673
2026-01-19 19:30:27.31	22.81	7.41	-37.1	-37.9	21.4	0.00e+00	0	40	0	382730240	46	6340
2026-01-19 19:30:28.32	22.71	7.48	-36.5	-37.3	22.5	0.00e+00	0	40	0	387973120	46	5908
2026-01-19 19:30:29.32	22.61	7.54	-36.7	-37.5	22.1	0.00e+00	0	40	0	393216000	46	6065
2026-01-19 19:30:30.34	22.51	7.60	-36.9	-37.7	22.0	0.00e+00	0	40	0	399507456	46	6216
2026-01-19 19:30:31.34	22.41	7.67	-36.3	-37.1	22.5	0.00e+00	0	40	0	404750336	46	5789
2026-01-19 19:30:32.36	22.31	7.73	-37.3	-38.1	21.6	0.00e+00	0	40	0	411041792	46	6496
2026-01-19 19:30:33.37	22.21	7.80	-36.9	-37.7	22.0	0.00e+00	0	40	0	416284672	46	6201
2026-01-19 19:30:34.38	22.11	7.86	-36.7	-37.5	22.0	0.00e+00	0	40	0	422576128	46	6041
2026-01-19 19:30:35.38	22.01	7.93	-37.0	-37.8	22.0	0.00e+00	0	40	0	427819008	46	6266
2026-01-19 19:30:36.39	21.91	7.99	-36.8	-37.6	22.1	0.00e+00	0	40	0	433061888	46	6143
2026-01-19 19:30:37.40	21.81	8.05	-36.7	-37.5	22.2	0.00e+00	0	40	0	439353344	46	6071
2026-01-19 19:30:38.41	21.71	8.12	-37.0	-37.8	21.9	0.00e+00	0	40	0	444596224	46	6302
2026-01-19 19:30:39.42	21.61	8.18	-36.3	-37.0	22.6	0.00e+00	0	40	0	450887680	46	5761
2026-01-19 19:30:40.43	21.50	8.25	-35.8	-36.5	23.1	0.00e+00	0	40	0	456130560	46	5426
2026-01-19 19:30:41.44	21.40	8.31	-36.1	-36.9	22.8	0.00e+00	0	40	0	461373440	44	6355
2026-01-19 19:30:42.45	21.30	8.38	-36.4	-37.2	22.3	0.00e+00	0	40	0	467664896	44	6598
2026-01-19 19:30:43.46	21.19	8.44	-36.2	-37.0	22.7	0.00e+00	0	40	0	472907776	44	6405
2026-01-19 19:30:44.47	21.09	8.51	-36.2	-37.0	22.6	0.00e+00	0	40	0	479199232	44	6443
2026-01-19 19:30:45.48	20.98	8.57	-35.7	-36.4	23.1	0.00e+00	0	40	0	484442112	44	5999
2026-01-19 19:30:46.49	20.88	8.64	-36.0	-36.7	22.9	0.00e+00	0	40	0	489684992	44	6240
2026-01-19 19:30:47.50	20.77	8.70	-36.1	-36.8	23.0	0.00e+00	0	40	0	495976448	44	6306
2026-01-19 19:30:48.51	20.66	8.77	-35.6	-36.3	23.2	0.00e+00	0	40	0	501219328	44	5954
2026-01-19 19:30:49.52	20.55	8.84	-35.8	-36.5	23.1	0.00e+00	0	40	0	507510784	44	6103
2026-01-19 19:30:50.53	20.45	8.90	-35.7	-36.4	23.2	0.00e+00	0	40	0	512753664	44	6031
2026-01-19 19:30:51.54	20.34	8.97	-35.7	-36.4	23.2	0.00e+00	0	40	0	519045120	44	6027
2026-01-19 19:30:52.55	20.23	9.03	-35.9	-36.6	23.0	0.00e+00	0	40	0	524288000	44	6167
2026-01-19 19:30:53.56	20.12	9.10	-35.7	-36.4	23.2	0.00e+00	0	40	0	530579456	44	6032
2026-01-19 19:30:54.57	20.01	9.16	-36.0	-36.8	23.0	0.00e+00	0	40	0	535822336	44	6281
2026-01-19 19:30:55.58	19.90	9.23	-35.6	-36.3	23.4	0.00e+00	0	40	0	541065216	44	5946
2026-01-19 19:30:56.59	19.79	9.30	-36.0	-36.8	23.0	0.00e+00	0	40	0	547356672	44	6252
2026-01-19 19:30:57.60	19.68	9.36	-36.1	-36.9	22.7	0.00e+00	0	40	0	552599552	44	6323
2026-01-19 19:30:58.61	19.56	9.43	-36.0	-36.7	23.0	0.00e+00	0	40	0	558891008	44	6230
2026-01-19 19:30:59.62	19.45	9.49	-36.1	-36.8	22.9	0.00e+00	0	40	0	564133888	44	6308
2026-01-19 19:31:00.63	19.34	9.56	-35.7	-36.4	23.3	0.00e+00	0	40	0	569376768	44	6004
2026-01-19 19:31:01.64	19.23	9.63	-35.6	-36.4	23.3	0.00e+00	0	40	0	575668224	44	5978
2026-01-19 19:31:02.65	19.11	9.69	-35.4	-36.2	23.6	0.00e+00	0	40	0	580911104	44	5831
2026-01-19 19:31:03.66	19.00	9.76	-35.2	-36.0	23.6	0.00e+00	0	40	0	587202560	44	5720
2026-01-19 19:31:04.67	18.88	9.83	-35.6	-36.4	23.3	0.00e+00	0	40	0	592445440	44	5970
2026-01-19 19:31:05.68	18.77	9.89	-35.7	-36.4	23.4	0.00e+00	0	40	0	597688320	44	6017
2026-01-19 19:31:06.68	18.65	9.96	-35.4	-36.1	23.5	0.00e+00	0	40	0	603979776	44	5824
2026-01-19 19:31:07.69	18.53	10.03	-35.3	-36.0	23.6	0.00e+00	0	40	0	609222656	44	5752
2026-01-19 19:31:08.70	18.42	10.09	-35.5	-36.2	23.5	0.00e+00	0	40	0	615514112	44	5884
2026-01-19 19:31:09.72	18.30	10.16	-35.5	-36.3	23.5	0.00e+00	0	40	0	620756992	44	5897
2026-01-19 19:31:10.72	18.18	10.23	-35.4	-36.1	23.7	0.00e+00	0	40	0	627048448	44	5796
2026-01-19 19:31:11.73	18.06	10.29	-35.2	-35.9	23.8	0.00e+00	0	40	0	632291328	44	5679
2026-01-19 19:31:12.74	17.94	10.36	-35.5	-36.2	23.6	0.00e+00	0	40	0	637534208	44	5885
2026-01-19 19:31:13.75	17.82	10.43	-35.6	-36.3	23.5	0.00e+00	0	40	0	643825664	44	5939
2026-01-19 19:31:14.76	17.70	10.49	-35.5	-36.3	23.5	0.00e+00	0	40	0	649068544	44	5905
2026-01-19 19:31:15.77	17.58	10.56	-35.3	-36.0	23.8	0.00e+00	0	40	0	655360000	44	5732
2026-01-19 19:31:16.78	17.46	10.63	-35.3	-36.0	23.8	0.00e+00	0	40	0	660602880	44	5761
2026-01-19 19:31:17.79	17.33	10.70	-35.4	-36.1	23.7	0.00e+00	0	40	0	665845760	44	5786
2026-01-19 19:31:18.80	17.21	10.76	-35.4	-36.1	23.7	0.00e+00	0	40	0	672137216	44	5798
2026-01-19 19:31:19.81	17.09	10.83	-35.0	-35.8	23.9	0.00e+00	0	40	0	677380096	44	5575
2026-01-19 19:31:20.82	16.96	10.90	-35.3	-36.0	23.8	0.00e+00	0	40	0	683671552	44	5700
2026-01-19 19:31:21.84	16.84	10.97	-34.9	-35.6	24.0	0.00e+00	0	40	0	688914432	44	5459
2026-01-19 19:31:22.85	16.71	11.03	-35.1	-35.9	24.0	0.00e+00	0	40	0	695205888	44	5633
2026-01-19 19:31:23.86	16.59	11.10	-35.0	-35.7	24.1	0.00e+00	0	40	0	700448768	44	5561
2026-01-19 19:31:24.87	16.46	11.17	-35.0	-35.7	24.0	0.00e+00	0	40	0	705691648	44	5512
2026-01-19 19:31:25.88	16.33	11.24	-35.2	-35.9	23.9	0.00e+00	0	40	0	711983104	44	5687
2026-01-19 19:31:26.89	16.20	11.31	-35.2	-35.9	23.9	0.00e+00	0	40	0	717225984	44	5652
2026-01-19 19:31:27.90	16.08	11.37	-35.0	-35.7	24.1	0.00e+00	0	40	0	723517440	44	5511
2026-01-19 19:31:28.91	15.95	11.44	-35.2	-36.0	23.8	0.00e+00	0	40	0	728760320	44	5705
2026-01-19 19:31:29.92	15.82	11.51	-35.1	-35.8	24.0	0.00e+00	0	40	0	735051776	44	5603
2026-01-19 19:31:30.93	15.69	11.58	-35.2	-35.9	23.8	0.00e+00	0	40	0	740294656	44	5645
2026-01-19 19:31:31.94	15.56	11.65	-35.2	-35.9	23.9	0.00e+00	0	40	0	745537536	44	5670
2026-01-19 19:31:32.95	15.42	11.71	-34.6	-35.2	24.6	0.00e+00	0	40	0	751828992	42	5884
2026-01-19 19:31:33.96	15.29	11.78	-34.9	-35.6	24.1	0.00e+00	0	40	0	757071872	42	6151
2026-01-19 19:31:34.97	15.16	11.85	-35.0	-35.8	24.1	0.00e+00	0	40	0	763363328	42	6251
2026-01-19 19:31:35.98	15.03	11.92	-35.2	-36.0	23.9	0.00e+00	0	40	0	768606208	42	6399
2026-01-19 19:31:36.99	14.89	11.99	-35.4	-36.1	23.8	0.00e+00	0	40	0	774897664	42	6509
2026-01-19 19:31:38.01	14.76	12.05	-35.4	-36.1	23.9	0.00e+00	0	40	0	780140544	42	6511
2026-01-19 19:31:39.02	14.62	12.12	-35.5	-36.3	23.8	0.00e+00	0	40	0	785383424	42	6643
2026-01-19 19:31:40.03	14.48	12.19	-34.9	-35.6	24.3	0.00e+00	0	40	0	791674880	42	6114
2026-01-19 19:31:41.04	14.35	12.26	-34.6	-35.3	24.6	0.00e+00	0	40	0	796917760	42	5927
2026-01-19 19:31:42.05	14.21	12.33	-34.6	-35.2	24.7	0.00e+00	0	40	0	803209216	42	5880
2026-01-19 19:31:43.06	14.07	12.40	-34.5	-35.2	24.7	0.00e+00	0	40	0	808452096	42	5835
2026-01-19 19:31:44.07	13.93	12.46	-34.3	-35.0	24.8	0.00e+00	0	40	0	813694976	42	5758
2026-01-19 19:31:45.08	13.80	12.53	-34.5	-35.2	24.6	0.00e+00	0	40	0	819986432	42	5866
2026-01-19 19:31:46.09	13.66	12.60	-34.5	-35.2	24.7	0.00e+00	0	40	0	825229312	42	5837
2026-01-19 19:31:47.10	13.51	12.67	-34.7	-35.4	24.6	0.00e+00	0	40	0	831520768	42	5975
2026-01-19 19:31:48.11	13.37	12.74	-34.4	-35.1	24.8	0.00e+00	0	40	0	836763648	42	5810
2026-01-19 19:31:49.12	13.23	12.81	-34.7	-35.4	24.6	0.00e+00	0	40	0	843055104	42	6019
2026-01-19 19:31:50.13	13.09	12.88	-34.2	-34.9	24.8	0.00e+00	0	40	0	848297984	42	5669
2026-01-19 19:31:51.14	12.95	12.94	-34.6	-35.3	24.6	0.00e+00	0	40	0	853540864	42	5941
2026-01-19 19:31:52.15	12.80	13.01	-34.5	-35.2	24.8	0.00e+00	0	40	0	859832320	42	5842
2026-01-19 19:31:53.16	12.66	13.08	-34.7	-35.3	24.5	0.00e+00	0	40	0	865075200	42	5960
2026-01-19 19:31:54.17	12.51	13.15	-34.3	-35.0	24.9	0.00e+00	0	40	0	871366656	42	5703
2026-01-19 19:31:55.18	12.37	13.22	-34.5	-35.2	24.7	0.00e+00	0	40	0	876609536	42	5868
2026-01-19 19:31:56.19	12.22	13.29	-34.6	-35.3	24.7	0.00e+00	0	40	0	881852416	42	5909
2026-01-19 19:31:57.20	12.07	13.36	-34.6	-35.3	24.5	0.00e+00	0	40	0	888143872	42	5907
2026-01-19 19:31:58.21	11.92	13.42	-34.7	-35.4	24.5	0.00e+00	0	40	0	893386752	42	5999
2026-01-19 19:31:59.22	11.77	13.49	-34.6	-35.3	24.7	0.00e+00	0	40	0	899678208	42	5943
2026-01-19 19:32:00.23	11.62	13.56	-34.6	-35.3	24.5	0.00e+00	0	40	0	904921088	42	5942
2026-01-19 19:32:01.24	11.47	13.63	-34.5	-35.2	24.6	0.00e+00	0	40	0	910163968	42	5853
2026-01-19 19:32:02.25	11.32	13.70	-34.6	-35.3	24.7	0.00e+00	0	40	0	916455424	42	5951
2026-01-19 19:32:03.26	11.17	13.77	-34.5	-35.2	24.6	0.00e+00	0	40	0	921698304	42	5881
2026-01-19 19:32:04.26	11.02	13.83	-34.5	-35.1	24.8	0.00e+00	0	40	0	927989760	42	5826
2026-01-19 19:32:05.27	10.87	13.90	-34.5	-35.1	24.8	0.00e+00	0	40	0	933232640	42	5825
2026-01-19 19:32:06.28	10.71	13.97	-34.4	-35.1	24.9	0.00e+00	0	40	0	939524096	42	5804
2026-01-19 19:32:07.30	10.56	14.04	-34.0	-34.7	25.2	0.00e+00	0	40	0	944766976	42	5529
2026-01-19 19:32:08.30	10.40	14.11	-34.1	-34.7	25.1	0.00e+00	0	40	0	951058432	42	5547
2026-01-19 19:32:09.31	10.25	14.18	-34.2	-34.9	25.1	0.00e+00	0	40	0	956301312	42	5655
2026-01-19 19:32:10.33	10.09	14.25	-34.0	-34.6	25.3	0.00e+00	0	40	0	961544192	42	5476
2026-01-19 19:32:11.33	9.93	14.31	-33.8	-34.4	25.3	0.00e+00	0	40	0	967835648	42	5374
2026-01-19 19:32:12.34	9.78	14.38	-33.8	-34.4	25.5	0.00e+00	0	40	0	973078528	40	6032
2026-01-19 19:32:13.35	9.62	14.45	-33.9	-34.5	25.4	0.00e+00	0	40	0	979369984	40	6086
2026-01-19 19:32:14.36	9.46	14.52	-33.8	-34.5	25.4	0.00e+00	0	40	0	984612864	40	6051
2026-01-19 19:32:15.37	9.30	14.59	-33.8	-34.5	25.4	0.00e+00	0	40	0	989855744	40	6074
2026-01-19 19:32:16.38	9.13	14.66	-33.9	-34.5	25.3	0.00e+00	0	40	0	996147200	40	6097
2026-01-19 19:32:17.39	8.97	14.72	-33.9	-34.6	25.2	0.00e+00	0	40	0	1001390080	40	6148
2026-01-19 19:32:18.40	8.81	14.79	-33.9	-34.6	25.2	0.00e+00	0	40	0	1007681536	40	6127
2026-01-19 19:32:19.41	8.65	14.86	-34.0	-34.7	25.2	0.00e+00	0	40	0	1012924416	40	6187
2026-01-19 19:32:20.42	8.48	14.93	-33.9	-34.6	25.3	0.00e+00	0	40	0	1018167296	40	6148
2026-01-19 19:32:21.43	8.32	15.00	-34.0	-34.6	25.3	0.00e+00	0	40	0	1024458752	40	6167
2026-01-19 19:32:22.44	8.15	15.06	-33.9	-34.6	25.4	0.00e+00	0	40	0	1029701632	40	6113
2026-01-19 19:32:23.45	7.98	15.13	-33.8	-34.4	25.4	0.00e+00	0	40	0	1035993088	40	6016
2026-01-19 19:32:24.46	7.82	15.20	-33.7	-34.4	25.5	0.00e+00	0	40	0	1041235968	40	5967
2026-01-19 19:32:25.47	7.65	15.27	-33.6	-34.2	25.6	0.00e+00	0	40	0	1047527424	40	5890
2026-01-19 19:32:26.48	7.48	15.34	-33.9	-34.6	25.3	0.00e+00	0	40	0	1052770304	40	6163
2026-01-19 19:32:27.49	7.31	15.40	-34.0	-34.7	25.4	0.00e+00	0	40	0	1058013184	40	6234
2026-01-19 19:32:28.50	7.14	15.47	-33.6	-34.2	25.6	0.00e+00	0	40	0	1064304640	40	5875
2026-01-19 19:32:29.50	6.97	15.54	-33.9	-34.6	25.3	0.00e+00	0	40	0	1069547520	40	6109
2026-01-19 19:32:30.51	6.80	15.61	-34.0	-34.7	25.4	0.00e+00	0	40	0	1075838976	40	6197
2026-01-19 19:32:31.52	6.63	15.67	-34.0	-34.7	25.2	0.00e+00	0	40	0	1081081856	40	6174
2026-01-19 19:32:32.53	6.45	15.74	-34.1	-34.8	25.1	0.00e+00	0	40	0	1086324736	40	6285
2026-01-19 19:32:33.54	6.28	15.81	-34.0	-34.7	25.3	0.00e+00	0	40	0	1092616192	40	6210
2026-01-19 19:32:34.55	6.10	15.88	-34.0	-34.6	25.3	0.00e+00	0	40	0	1097859072	40	6164
2026-01-19 19:32:35.56	5.93	15.94	-33.9	-34.6	25.4	0.00e+00	0	40	0	1104150528	40	6143
2026-01-19 19:32:36.57	5.75	16.01	-33.8	-34.5	25.5	0.00e+00	0	40	0	1109393408	40	6054
2026-01-19 19:32:37.58	5.57	16.08	-33.9	-34.6	25.4	0.00e+00	0	40	0	1114636288	40	6117
2026-01-19 19:32:38.59	5.39	16.14	-33.8	-34.5	25.5	0.00e+00	0	40	0	1120927744	40	6036
2026-01-19 19:32:39.60	5.21	16.21	-33.4	-34.0	25.9	0.00e+00	0	40	0	1126170624	40	5759
2026-01-19 19:32:40.61	5.03	16.28	-33.5	-34.1	25.8	0.00e+00	0	40	0	1132462080	40	5802
2026-01-19 19:32:41.62	4.85	16.34	-33.6	-34.3	25.7	0.00e+00	0	40	0	1137704960	40	5903
2026-01-19 19:32:42.63	4.67	16.41	-33.6	-34.2	25.7	0.00e+00	0	40	0	1143996416	40	5879
2026-01-19 19:32:43.64	4.49	16.48	-33.4	-34.1	25.7	0.00e+00	0	40	0	1149239296	40	5815
2026-01-19 19:32:44.65	4.30	16.54	-33.6	-34.3	25.6	0.00e+00	0	40	0	1155530752	40	5897
2026-01-19 19:32:45.66	4.12	16.61	-33.6	-34.2	25.6	0.00e+00	0	40	0	1160773632	40	5862
2026-01-19 19:32:46.67	3.94	16.67	-33.6	-34.2	25.7	0.00e+00	0	40	0	1166016512	40	5895
2026-01-19 19:32:47.68	3.75	16.74	-33.4	-34.1	25.8	0.00e+00	0	40	0	1172307968	40	5781
2026-01-19 19:32:48.69	3.56	16.80	-33.4	-34.0	25.9	0.00e+00	0	40	0	1177550848	40	5737
2026-01-19 19:32:49.70	3.38	16.87	-33.4	-34.0	25.8	0.00e+00	0	40	0	1183842304	40	5746
2026-01-19 19:32:50.71	3.19	16.94	-33.4	-34.0	25.9	0.00e+00	0	40	0	1189085184	40	5731
2026-01-19 19:32:51.72	3.00	17.00	-33.3	-33.9	26.0	0.00e+00	0	40	0	1194328064	40	5693
2026-01-19 19:32:52.73	2.81	17.07	-33.3	-34.0	25.9	0.00e+00	0	40	0	1200619520	40	5729
2026-01-19 19:32:53.74	2.62	17.13	-33.3	-33.9	25.9	0.00e+00	0	40	0	1205862400	40	5692
2026-01-19 19:32:54.75	2.42	17.20	-33.4	-34.1	25.9	0.00e+00	0	40	0	1212153856	40	5774
2026-01-19 19:32:55.76	2.23	17.26	-33.4	-34.0	25.9	0.00e+00	0	40	0	1217396736	40	5744
2026-01-19 19:32:56.77	2.04	17.32	-33.4	-34.0	25.9	0.00e+00	0	40	0	1222639616	40	5753
2026-01-19 19:32:57.79	1.84	17.39	-33.5	-34.1	25.9	0.00e+00	0	40	0	1228931072	40	5816
2026-01-19 19:32:58.80	1.65	17.45	-33.4	-34.1	25.8	0.00e+00	0	40	0	1234173952	40	5790
2026-01-19 19:32:59.80	1.45	17.52	-33.4	-34.0	25.8	0.00e+00	0	40	0	1240465408	40	5746
2026-01-19 19:33:00.81	1.26	17.58	-33.3	-33.9	26.0	0.00e+00	0	40	0	1245708288	40	5675
2026-01-19 19:33:01.82	1.06	17.64	-33.1	-33.8	26.1	0.00e+00	0	40	0	1251999744	40	5567
2026-01-19 19:33:02.83	0.86	17.71	-33.2	-33.9	26.0	0.00e+00	0	40	0	1257242624	40	5680
2026-01-19 19:33:03.84	0.66	17.77	-33.2	-33.9	26.0	0.00e+00	0	40	0	1262485504	40	5661
2026-01-19 19:33:04.85	0.46	17.83	-33.2	-33.9	26.0	0.00e+00	0	40	0	1268776960	40	5658
2026-01-19 19:33:05.86	0.26	17.90	-33.2	-33.9	26.0	0.00e+00	0	40	0	1274019840	40	5654
2026-01-19 19:33:06.87	0.06	17.96	-33.2	-33.8	26.1	0.00e+00	0	40	0	1280311296	40	5620
2026-01-19 19:33:07.88	359.86	18.02	-33.3	-34.0	26.0	0.00e+00	0	40	0	1285554176	40	5719
2026-01-19 19:33:08.89	359.65	18.08	-33.2	-33.9	26.0	0.00e+00	0	40	0	1290797056	40	5645
2026-01-19 19:33:09.90	359.45	18.14	-33.3	-34.0	25.9	0.00e+00	0	40	0	1297088512	40	5706
2026-01-19 19:33:10.91	359.24	18.21	-33.2	-33.8	26.0	0.00e+00	0	40	0	1302331392	40	5625
2026-01-19 19:33:11.92	359.04	18.27	-33.1	-33.8	26.1	0.00e+00	0	40	0	1308622848	40	5606
2026-01-19 19:33:12.93	358.83	18.33	-33.3	-33.9	26.0	0.00e+00	0	40	0	1313865728	40	5679
2026-01-19 19:33:13.94	358.62	18.39	-32.8	-33.4	26.3	0.00e+00	0	40	0	1319108608	40	5359
2026-01-19 19:33:14.95	358.41	18.45	-32.7	-33.3	26.4	0.00e+00	0	40	0	1325400064	40	5306
2026-01-19 19:33:15.96	358.20	18.51	-32.8	-33.5	26.2	0.00e+00	0	40	0	1330642944	38	6045
2026-01-19 19:33:16.97	357.99	18.57	-33.0	-33.7	26.3	0.00e+00	0	40	0	1336934400	38	6174
2026-01-19 19:33:17.98	357.78	18.63	-33.0	-33.6	26.0	0.00e+00	0	40	0	1342177280	38	6146
2026-01-19 19:33:18.98	357.57	18.69	-33.1	-33.7	26.0	0.00e+00	0	40	0	1348468736	38	6212
2026-01-19 19:33:19.99	357.36	18.75	-33.3	-34.0	26.0	0.00e+00	0	40	0	1353711616	38	6423
2026-01-19 19:33:21.00	357.15	18.81	-33.1	-33.8	26.0	0.00e+00	0	40	0	1360003072	38	6264
2026-01-19 19:33:22.01	356.93	18.87	-32.9	-33.5	26.3	0.00e+00	0	40	0	1365245952	38	6080
2026-01-19 19:33:23.02	356.72	18.93	-33.0	-33.7	26.2	0.00e+00	0	40	0	1370488832	38	6213
2026-01-19 19:33:24.03	356.50	18.98	-32.9	-33.6	26.2	0.00e+00	0	40	0	1376780288	38	6104
2026-01-19 19:33:25.04	356.28	19.04	-33.1	-33.7	26.2	0.00e+00	0	40	0	1382023168	38	6236
2026-01-19 19:33:26.05	356.07	19.10	-32.9	-33.6	26.4	0.00e+00	0	40	0	1388314624	38	6123
2026-01-19 19:33:27.06	355.85	19.16	-33.1	-33.8	26.3	0.00e+00	0	40	0	1393557504	38	6263
2026-01-19 19:33:28.07	355.63	19.21	-33.3	-34.0	26.1	0.00e+00	0	40	0	1398800384	38	6399
2026-01-19 19:33:29.08	355.41	19.27	-33.0	-33.6	26.4	0.00e+00	0	40	0	1405091840	38	6165
2026-01-19 19:33:30.09	355.19	19.33	-32.7	-33.4	26.5	0.00e+00	0	40	0	1410334720	38	5969
2026-01-19 19:33:31.10	354.96	19.38	-32.8	-33.5	26.4	0.00e+00	0	40	0	1416626176	38	6034
2026-01-19 19:33:32.11	354.74	19.44	-32.7	-33.4	26.5	0.00e+00	0	40	0	1421869056	38	5968
2026-01-19 19:33:33.12	354.52	19.49	-32.9	-33.6	26.3	0.00e+00	0	40	0	1427111936	38	6133
2026-01-19 19:33:34.13	354.29	19.55	-33.1	-33.7	26.3	0.00e+00	0	40	0	1433403392	38	6202
2026-01-19 19:33:35.14	354.07	19.60	-33.0	-33.6	26.2	0.00e+00	0	40	0	1438646272	38	6163
2026-01-19 19:33:36.15	353.84	19.66	-32.9	-33.5	26.4	0.00e+00	0	40	0	1444937728	38	6091
2026-01-19 19:33:37.16	353.62	19.71	-32.6	-33.3	26.6	0.00e+00	0	40	0	1450180608	38	5935
2026-01-19 19:33:38.17	353.39	19.77	-32.6	-33.3	26.7	0.00e+00	0	40	0	1456472064	38	5935
2026-01-19 19:33:39.18	353.16	19.82	-32.8	-33.4	26.5	0.00e+00	0	40	0	1461714944	38	6019
2026-01-19 19:33:40.19	352.93	19.87	-32.6	-33.2	26.6	0.00e+00	0	40	0	1466957824	38	5851
2026-01-19 19:33:41.20	352.70	19.93	-32.8	-33.5	26.4	0.00e+00	0	40	0	1473249280	38	6077
2026-01-19 19:33:42.21	352.47	19.98	-32.6	-33.3	26.5	0.00e+00	0	40	0	1478492160	38	5943
2026-01-19 19:33:43.22	352.24	20.03	-32.6	-33.3	26.6	0.00e+00	0	40	0	1484783616	38	5901
2026-01-19 19:33:44.23	352.00	20.08	-32.5	-33.2	26.7	0.00e+00	0	40	0	1490026496	38	5843
2026-01-19 19:33:45.24	351.77	20.13	-32.4	-33.1	26.8	0.00e+00	0	40	0	1495269376	38	5763
2026-01-19 19:33:46.25	351.54	20.18	-32.4	-33.1	26.7	0.00e+00	0	40	0	1501560832	38	5796
2026-01-19 19:33:47.26	351.30	20.23	-32.2	-32.9	26.9	0.00e+00	0	40	0	1506803712	38	5633
2026-01-19 19:33:48.27	351.07	20.28	-32.4	-33.0	26.9	0.00e+00	0	40	0	1513095168	38	5700
2026-01-19 19:33:49.28	350.83	20.33	-32.3	-32.9	26.9	0.00e+00	0	40	0	1518338048	38	5693
2026-01-19 19:33:50.30	350.59	20.38	-32.3	-33.0	26.9	0.00e+00	0	40	0	1524629504	38	5696
2026-01-19 19:33:51.30	350.35	20.43	-32.3	-32.9	26.9	0.00e+00	0	40	0	1529872384	38	5691
2026-01-19 19:33:52.31	350.12	20.48	-32.2	-32.8	26.9	0.00e+00	0	40	0	1535115264	38	5609
2026-01-19 19:33:53.33	349.87	20.53	-32.1	-32.8	27.0	0.00e+00	0	40	0	1541406720	38	5575
2026-01-19 19:33:54.34	349.63	20.57	-32.1	-32.6	27.1	0.00e+00	0	40	0	1546649600	38	5500
2026-01-19 19:33:55.35	349.39	20.62	-32.2	-32.8	27.0	0.00e+00	0	40	0	1552941056	38	5609
2026-01-19 19:33:56.36	349.15	20.67	-32.3	-33.0	26.8	0.00e+00	0	40	0	1558183936	38	5704
2026-01-19 19:33:57.37	348.91	20.71	-32.5	-33.1	26.8	0.00e+00	0	40	0	1564475392	38	5806
2026-01-19 19:33:58.38	348.66	20.76	-32.6	-33.2	26.6	0.00e+00	0	41	0	1569718272	38	5863
2026-01-19 19:33:59.39	348.42	20.80	-32.8	-33.4	26.5	0.00e+00	0	41	0	1574961152	38	6000
2026-01-19 19:34:00.40	348.18	20.85	-32.3	-33.0	26.9	0.00e+00	0	40	0	1581252608	38	5703
2026-01-19 19:34:01.41	347.93	20.89	-32.2	-32.8	26.9	0.00e+00	0	40	0	1586495488	38	5629
2026-01-19 19:34:02.42	347.68	20.94	-32.2	-32.8	27.0	0.00e+00	0	40	0	1592786944	38	5619
2026-01-19 19:34:03.43	347.44	20.98	-32.3	-33.0	26.8	0.00e+00	0	40	0	1598029824	38	5716
2026-01-19 19:34:04.44	347.19	21.02	-32.3	-33.0	26.8	0.00e+00	0	40	0	1603272704	38	5724
2026-01-19 19:34:05.45	346.94	21.07	-32.4	-33.1	26.7	0.00e+00	0	40	0	1609564160	38	5777
2026-01-19 19:34:06.46	346.69	21.11	-32.3	-33.0	26.9	0.00e+00	0	40	0	1614807040	38	5729
2026-01-19 19:34:07.47	346.44	21.15	-32.4	-33.0	26.8	0.00e+00	0	40	0	1621098496	38	5745
2026-01-19 19:34:08.48	346.19	21.19	-32.5	-33.2	26.6	0.00e+00	0	40	0	1626341376	38	5853
2026-01-19 19:34:09.49	345.94	21.23	-32.3	-32.9	26.9	0.00e+00	0	40	0	1631584256	38	5667
2026-01-19 19:34:10.50	345.69	21.27	-32.4	-33.0	26.7	0.00e+00	0	40	0	1637875712	38	5709
2026-01-19 19:34:11.51	345.44	21.31	-32.3	-32.9	26.9	0.00e+00	0	40	0	1643118592	38	5679
2026-01-19 19:34:12.52	345.19	21.35	-32.2	-32.9	27.0	0.00e+00	0	40	0	1649410048	38	5645
2026-01-19 19:34:13.53	344.93	21.38	-32.3	-32.9	26.9	0.00e+00	0	40	0	1654652928	38	5695
2026-01-19 19:34:14.54	344.68	21.42	-32.1	-32.7	27.1	0.00e+00	0	41	0	1660944384	38	5511
2026-01-19 19:34:15.56	344.42	21.46	-32.1	-32.7	27.1	0.00e+00	0	41	0	1666187264	38	5559
2026-01-19 19:34:16.57	344.17	21.49	-32.1	-32.7	27.0	0.00e+00	0	41	0	1672478720	38	5556
2026-01-19 19:34:17.58	343.91	21.53	-32.0	-32.7	27.0	0.00e+00	0	40	0	1677721600	38	5514
2026-01-19 19:34:18.59	343.65	21.57	-32.1	-32.8	27.0	0.00e+00	0	40	0	1682964480	38	5576
2026-01-19 19:34:19.60	343.40	21.60	-32.1	-32.7	27.1	0.00e+00	0	40	0	1689255936	38	5520
2026-01-19 19:34:20.61	343.14	21.63	-32.1	-32.7	27.1	0.00e+00	0	40	0	1694498816	38	5553
2026-01-19 19:34:21.62	342.88	21.67	-31.9	-32.6	27.2	0.00e+00	0	40	0	1700790272	38	5452
2026-01-19 19:34:22.63	342.62	21.70	-32.1	-32.8	27.0	0.00e+00	0	40	0	1706033152	38	5581
2026-01-19 19:34:23.64	342.36	21.73	-31.9	-32.6	27.1	0.00e+00	0	40	0	1711276032	38	5441
2026-01-19 19:34:24.65	342.10	21.77	-32.2	-32.8	27.0	0.00e+00	0	40	0	1717567488	38	5596
2026-01-19 19:34:25.66	341.84	21.80	-32.2	-32.8	27.0	0.00e+00	0	41	0	1722810368	38	5592
2026-01-19 19:34:26.67	341.58	21.83	-32.2	-32.8	27.0	0.00e+00	0	40	0	1729101824	38	5618
2026-01-19 19:34:27.68	341.32	21.86	-32.2	-32.8	27.0	0.00e+00	0	40	0	1734344704	38	5603
2026-01-19 19:34:28.69	341.06	21.89	-32.2	-32.8	27.0	0.00e+00	0	40	0	1739587584	38	5590
2026-01-19 19:34:29.70	340.79	21.91	-32.3	-32.9	26.9	0.00e+00	0	40	0	1745879040	38	5673
2026-01-19 19:34:30.71	340.53	21.94	-32.3	-32.9	26.8	0.00e+00	0	40	0	1751121920	38	5687
2026-01-19 19:34:31.72	340.27	21.97	-32.6	-33.3	26.6	0.00e+00	0	40	0	1757413376	38	5900
2026-01-19 19:34:32.73	340.00	22.00	-32.3	-32.9	27.0	0.00e+00	0	40	0	1762656256	38	5679
2026-01-19 19:34:33.74	339.74	22.02	-32.3	-33.0	26.8	0.00e+00	0	40	0	1768947712	38	5723
2026-01-19 19:34:34.75	339.47	22.05	-32.3	-33.0	27.0	0.00e+00	0	40	0	1774190592	38	5696
2026-01-19 19:34:35.76	339.21	22.07	-32.4	-33.0	26.9	0.00e+00	0	40	0	1780482048	38	5724
2026-01-19 19:34:36.77	338.94	22.10	-32.3	-32.9	26.9	0.00e+00	0	40	0	1785724928	38	5690
2026-01-19 19:34:37.78	338.68	22.12	-32.3	-32.9	26.9	0.00e+00	0	40	0	1790967808	38	5690
2026-01-19 19:34:38.79	338.41	22.15	-32.3	-32.9	27.0	0.00e+00	0	40	0	1797259264	38	5671
2026-01-19 19:34:39.80	338.14	22.17	-32.3	-32.9	26.9	0.00e+00	0	40	0	1802502144	38	5677
2026-01-19 19:34:40.81	337.88	22.19	-32.2	-32.8	26.9	0.00e+00	0	40	0	1808793600	38	5626
2026-01-19 19:34:41.82	337.61	22.21	-32.0	-32.7	27.2	0.00e+00	0	40	0	1814036480	38	5510
2026-01-19 19:34:42.83	337.34	22.23	-32.0	-32.6	27.2	0.00e+00	0	40	0	1819279360	38	5484
2026-01-19 19:34:43.84	337.07	22.25	-31.8	-32.3	27.3	0.00e+00	0	40	0	1825570816	38	5313
2026-01-19 19:34:44.85	336.80	22.27	-31.8	-32.4	27.4	0.00e+00	0	40	0	1830813696	38	5347
2026-01-19 19:34:45.86	336.53	22.29	-31.9	-32.5	27.2	0.00e+00	0	40	0	1837105152	38	5427
2026-01-19 19:34:46.87	336.26	22.31	-32.0	-32.6	27.2	0.00e+00	0	40	0	1842348032	38	5489
2026-01-19 19:34:47.88	335.99	22.32	-32.0	-32.7	27.2	0.00e+00	0	40	0	1847590912	38	5513
2026-01-19 19:34:48.89	335.72	22.34	-32.1	-32.8	27.1	0.00e+00	0	40	0	1853882368	38	5576
2026-01-19 19:34:49.90	335.45	22.36	-32.0	-32.7	27.1	0.00e+00	0	40	0	1859125248	38	5539
2026-01-19 19:34:50.91	335.18	22.37	-32.1	-32.7	27.1	0.00e+00	0	40	0	1865416704	38	5548
2026-01-19 19:34:51.91	334.92	22.39	-32.2	-32.8	27.0	0.00e+00	0	40	0	1870659584	38	5579
2026-01-19 19:34:52.92	334.64	22.40	-32.1	-32.8	27.1	0.00e+00	0	40	0	1876951040	38	5604
2026-01-19 19:34:53.93	334.37	22.41	-32.1	-32.7	27.1	0.00e+00	0	40	0	1882193920	38	5508
2026-01-19 19:34:54.94	334.10	22.43	-31.9	-32.6	27.2	0.00e+00	0	40	0	1887436800	38	5457
2026-01-19 19:34:55.95	333.83	22.44	-31.9	-32.5	27.4	0.00e+00	0	40	0	1893728256	38	5405
2026-01-19 19:34:56.96	333.56	22.45	-31.9	-32.6	27.3	0.00e+00	0	40	0	1898971136	38	5467
2026-01-19 19:34:57.97	333.28	22.46	-31.8	-32.5	27.4	0.00e+00	0	40	0	1905262592	38	5390
2026-01-19 19:34:58.98	333.01	22.47	-32.0	-32.7	27.3	0.00e+00	0	40	0	1910505472	38	5532
2026-01-19 19:34:59.99	332.74	22.48	-32.1	-32.7	27.3	0.00e+00	0	40	0	1916796928	38	5543
2026-01-19 19:35:01.00	332.47	22.49	-32.1	-32.7	27.1	0.00e+00	0	40	0	1922039808	38	5564
2026-01-19 19:35:02.01	332.19	22.49	-32.3	-32.9	27.0	0.00e+00	0	40	0	1927282688	38	5682
2026-01-19 19:35:03.02	331.92	22.50	-32.2	-32.9	27.1	0.00e+00	0	40	0	1933574144	38	5648
2026-01-19 19:35:04.03	331.65	22.51	-32.2	-32.8	27.1	0.00e+00	0	40	0	1938817024	38	5581
2026-01-19 19:35:05.04	331.37	22.51	-32.2	-32.8	27.1	0.00e+00	0	41	0	1944059904	38	5629
2026-01-19 19:35:06.05	331.10	22.52	-32.3	-32.9	27.0	0.00e+00	0	40	0	1950351360	38	5648
2026-01-19 19:35:07.06	330.83	22.52	-32.4	-33.1	27.0	0.00e+00	0	40	0	1955594240	38	5766
2026-01-19 19:35:08.08	330.55	22.53	-32.0	-32.6	27.3	0.00e+00	0	40	0	1961885696	38	5491
2026-01-19 19:35:09.09	330.28	22.53	-32.0	-32.6	27.2	0.00e+00	0	40	0	1967128576	38	5483
2026-01-19 19:35:10.10	330.00	22.53	-31.9	-32.5	27.4	0.00e+00	0	40	0	1973420032	38	5390
2026-01-19 19:35:11.11	329.73	22.53	-31.9	-32.5	27.4	0.00e+00	0	40	0	1978662912	38	5399
2026-01-19 19:35:12.12	329.46	22.53	-32.0	-32.6	27.3	0.00e+00	0	40	0	1984954368	38	5481
2026-01-19 19:35:13.13	329.18	22.53	-31.9	-32.5	27.4	0.00e+00	0	40	0	1990197248	38	5423
2026-01-19 19:35:14.14	328.91	22.53	-32.0	-32.6	27.4	0.00e+00	0	40	0	1995440128	38	5479
2026-01-19 19:35:15.15	328.64	22.53	-32.1	-32.7	27.3	0.00e+00	0	40	0	2001731584	38	5544
2026-01-19 19:35:16.16	328.36	22.53	-32.2	-32.8	27.1	0.00e+00	0	40	0	2006974464	38	5607
2026-01-19 19:35:17.17	328.09	22.53	-32.0	-32.6	27.3	0.00e+00	0	40	0	2013265920	38	5493
2026-01-19 19:35:18.18	327.82	22.52	-32.0	-32.7	27.3	0.00e+00	0	40	0	2018508800	38	5533
2026-01-19 19:35:19.19	327.54	22.52	-32.0	-32.6	27.3	0.00e+00	0	40	0	2023751680	38	5471
2026-01-19 19:35:20.20	327.27	22.51	-32.1	-32.8	27.1	0.00e+00	0	40	0	2030043136	38	5583
2026-01-19 19:35:21.21	326.99	22.51	-32.2	-32.8	27.1	0.00e+00	0	40	0	2035286016	38	5584
2026-01-19 19:35:22.22	326.72	22.50	-32.4	-33.0	27.1	0.00e+00	0	41	0	2041577472	38	5700
2026-01-19 19:35:23.23	326.45	22.49	-32.4	-33.0	27.1	0.00e+00	0	40	0	2046820352	38	5743
2026-01-19 19:35:24.24	326.18	22.49	-32.4	-33.0	26.9	0.00e+00	0	40	0	2052063232	38	5736
2026-01-19 19:35:25.25	325.90	22.48	-32.4	-33.0	27.0	0.00e+00	0	41	0	2058354688	38	5717
2026-01-19 19:35:26.26	325.63	22.47	-32.2	-32.8	27.0	0.00e+00	0	41	0	2063597568	38	5601
2026-01-19 19:35:27.27	325.36	22.46	-32.2	-32.9	27.0	0.00e+00	0	40	0	2069889024	38	5635
2026-01-19 19:35:28.28	325.09	22.45	-32.2	-32.8	27.1	0.00e+00	0	40	0	2075131904	38	5623
2026-01-19 19:35:29.29	324.81	22.44	-32.2	-32.8	27.0	0.00e+00	0	40	0	2081423360	38	5619
2026-01-19 19:35:30.30	324.54	22.43	-32.1	-32.7	27.3	0.00e+00	0	40	0	2086666240	38	5533
2026-01-19 19:35:31.31	324.27	22.41	-32.0	-32.6	27.4	0.00e+00	0	40	0	2092957696	38	5470
2026-01-19 19:35:32.31	324.00	22.40	-32.0	-32.6	27.4	0.00e+00	0	40	0	2098200576	38	5463
2026-01-19 19:35:33.32	323.73	22.39	-32.0	-32.7	27.4	0.00e+00	0	40	0	2103443456	38	5505
2026-01-19 19:35:34.33	323.46	22.37	-32.1	-32.8	27.3	0.00e+00	0	40	0	2109734912	38	5588
2026-01-19 19:35:35.34	323.19	22.36	-32.1	-32.8	27.2	0.00e+00	0	40	0	2114977792	38	5617
2026-01-19 19:35:36.35	322.92	22.34	-32.0	-32.7	27.4	0.00e+00	0	40	0	2121269248	38	5522
2026-01-19 19:35:37.37	322.64	22.32	-32.0	-32.6	27.3	0.00e+00	0	41	0	2126512128	38	5481
2026-01-19 19:35:38.38	322.37	22.31	-32.4	-33.1	27.2	0.00e+00	0	41	0	2131755008	38	5776
2026-01-19 19:35:39.39	322.10	22.29	-32.4	-33.0	27.1	0.00e+00	0	40	0	2138046464	38	5720
2026-01-19 19:35:40.40	321.84	22.27	-32.5	-33.1	27.1	0.00e+00	0	41	0	2143289344	38	5779
2026-01-19 19:35:41.41	321.57	22.25	-32.3	-32.9	27.2	0.00e+00	0	41	0	2149580800	38	5676
2026-01-19 19:35:42.42	321.30	22.23	-32.3	-32.9	27.3	0.00e+00	0	40	0	2154823680	38	5651
2026-01-19 19:35:43.43	321.03	22.21	-32.1	-32.7	27.3	0.00e+00	0	40	0	2160066560	38	5520
2026-01-19 19:35:44.44	320.76	22.19	-32.1	-32.7	27.3	0.00e+00	0	41	0	2166358016	38	5524
2026-01-19 19:35:45.44	320.50	22.17	-32.2	-32.8	27.3	0.00e+00	0	41	0	2171600896	38	5610
2026-01-19 19:35:46.45	320.23	22.14	-32.3	-32.9	27.2	0.00e+00	0	40	0	2177892352	38	5636
2026-01-19 19:35:47.46	319.96	22.12	-32.2	-32.8	27.4	0.00e+00	0	40	0	2183135232	38	5601
2026-01-19 19:35:48.47	319.70	22.10	-32.5	-33.2	27.2	0.00e+00	0	40	0	2189426688	38	5830
2026-01-19 19:35:49.48	319.43	22.07	-32.1	-32.7	27.3	0.00e+00	0	41	0	2194669568	38	5530
2026-01-19 19:35:50.49	319.16	22.05	-32.2	-32.9	27.3	0.00e+00	0	40	0	2199912448	38	5654
2026-01-19 19:35:51.50	318.90	22.02	-32.4	-33.0	27.3	0.00e+00	0	41	0	2206203904	38	5741
2026-01-19 19:35:52.51	318.63	22.00	-32.4	-33.0	27.0	0.00e+00	0	41	0	2211446784	38	5715
2026-01-19 19:35:53.52	318.37	21.97	-32.2	-32.8	27.2	0.00e+00	0	40	0	2217738240	38	5577
2026-01-19 19:35:54.53	318.11	21.94	-32.5	-33.2	27.1	0.00e+00	0	40	0	2222981120	38	5868
2026-01-19 19:35:55.54	317.84	21.91	-32.4	-33.1	27.1	0.00e+00	0	40	0	2228224000	38	5792
2026-01-19 19:35:56.55	317.58	21.88	-32.4	-33.0	27.2	0.00e+00	0	40	0	2234515456	38	5744
2026-01-19 19:35:57.56	317.32	21.85	-32.4	-33.0	27.3	0.00e+00	0	40	0	2239758336	38	5754
2026-01-19 19:35:58.57	317.06	21.82	-32.5	-33.1	27.1	0.00e+00	0	40	0	2246049792	38	5811
2026-01-19 19:35:59.58	316.80	21.79	-32.5	-33.2	27.2	0.00e+00	0	40	0	2251292672	38	5888
2026-01-19 19:36:00.59	316.53	21.76	-32.6	-33.2	27.2	0.00e+00	0	40	0	2256535552	38	5845
2026-01-19 19:36:01.60	316.27	21.73	-32.3	-33.0	27.3	0.00e+00	0	40	0	2262827008	38	5711
2026-01-19 19:36:02.61	316.01	21.70	-32.4	-32.9	27.3	0.00e+00	0	40	0	2268069888	38	5668
2026-01-19 19:36:03.63	315.75	21.67	-32.4	-33.1	27.3	0.00e+00	0	41	0	2274361344	38	5779
2026-01-19 19:36:04.64	315.49	21.63	-32.4	-32.9	27.3	0.00e+00	0	40	0	2279604224	38	5679
2026-01-19 19:36:05.65	315.24	21.60	-32.5	-33.1	27.3	0.00e+00	0	40	0	2285895680	38	5790
2026-01-19 19:36:06.66	314.98	21.56	-32.4	-33.0	27.2	0.00e+00	0	40	0	2291138560	38	5719
2026-01-19 19:36:07.67	314.72	21.53	-32.4	-33.0	27.1	0.00e+00	0	40	0	2297430016	38	5729
2026-01-19 19:36:08.68	314.47	21.49	-32.8	-33.4	26.9	0.00e+00	0	40	0	2302672896	38	5986
2026-01-19 19:36:09.69	314.21	21.46	-32.8	-33.4	26.9	0.00e+00	0	40	0	2307915776	38	5970
2026-01-19 19:36:10.70	313.96	21.42	-32.7	-33.3	27.1	0.00e+00	0	40	0	2314207232	38	5944
2026-01-19 19:36:11.71	313.70	21.38	-32.4	-32.9	27.1	0.00e+00	0	40	0	2319450112	38	5691
2026-01-19 19:36:12.72	313.45	21.34	-32.6	-33.3	27.1	0.00e+00	0	40	0	2325741568	38	5936
2026-01-19 19:36:13.73	313.19	21.30	-32.4	-33.0	27.1	0.00e+00	0	41	0	2330984448	38	5716
2026-01-19 19:36:14.74	312.94	21.26	-32.6	-33.1	27.0	0.00e+00	0	41	0	2336227328	38	5811
2026-01-19 19:36:15.75	312.69	21.23	-32.5	-33.1	27.0	0.00e+00	0	40	0	2342518784	38	5801
2026-01-19 19:36:16.75	312.44	21.19	-32.6	-33.3	26.9	0.00e+00	0	40	0	2347761664	38	5963
2026-01-19 19:36:17.76	312.19	21.14	-32.9	-33.4	26.9	0.00e+00	0	40	0	2354053120	38	6015
2026-01-19 19:36:18.76	311.94	21.10	-32.7	-33.2	26.9	0.00e+00	0	40	0	2359296000	38	5880
2026-01-19 19:36:19.77	311.69	21.06	-32.7	-33.3	27.0	0.00e+00	0	40	0	2364538880	38	5921
2026-01-19 19:36:20.78	311.45	21.02	-32.5	-33.2	27.0	0.00e+00	0	40	0	2370830336	38	5831
2026-01-19 19:36:21.79	311.20	20.98	-32.4	-33.1	27.1	0.00e+00	0	40	0	2376073216	38	5795
2026-01-19 19:36:22.80	310.95	20.93	-32.4	-33.1	27.1	0.00e+00	0	40	0	2382364672	38	5821
2026-01-19 19:36:23.81	310.70	20.89	-33.0	-33.6	26.7	0.00e+00	0	40	0	2387607552	38	6171
2026-01-19 19:36:24.82	310.46	20.85	-33.1	-33.8	26.9	0.00e+00	0	40	0	2393899008	38	6272
2026-01-19 19:36:25.84	310.21	20.80	-32.8	-33.5	27.0	0.00e+00	0	40	0	2399141888	38	6045
2026-01-19 19:36:26.85	309.97	20.76	-33.0	-33.6	26.9	0.00e+00	0	40	0	2405433344	38	6130
2026-01-19 19:36:27.86	309.72	20.71	-32.6	-33.1	27.1	0.00e+00	0	40	0	2410676224	38	5826
2026-01-19 19:36:28.87	309.48	20.66	-32.7	-33.4	27.1	0.00e+00	0	40	0	2415919104	38	6008
2026-01-19 19:36:29.88	309.24	20.62	-32.6	-33.2	27.1	0.00e+00	0	40	0	2422210560	38	5874
2026-01-19 19:36:30.89	309.00	20.57	-32.9	-33.6	26.9	0.00e+00	0	40	0	2427453440	38	6123
2026-01-19 19:36:31.90	308.76	20.52	-33.4	-34.1	26.5	0.00e+00	0	40	0	2433744896	38	6482
2026-01-19 19:36:32.91	308.52	20.48	-33.5	-34.3	26.4	0.00e+00	0	40	0	2438987776	40	5897
2026-01-19 19:36:33.92	308.28	20.43	-33.6	-34.3	26.4	0.00e+00	0	40	0	2444230656	40	5946
2026-01-19 19:36:34.93	308.04	20.38	-33.4	-33.9	26.3	0.00e+00	0	40	0	2450522112	40	5676
2026-01-19 19:36:35.94	307.80	20.33	-33.2	-33.8	26.6	0.00e+00	0	40	0	2455764992	40	5579
2026-01-19 19:36:36.95	307.56	20.28	-33.5	-34.2	26.4	0.00e+00	0	41	0	2462056448	40	5835
2026-01-19 19:36:37.95	307.33	20.23	-33.2	-33.8	26.6	0.00e+00	0	41	0	2467299328	40	5577
2026-01-19 19:36:38.96	307.09	20.18	-33.1	-33.7	26.6	0.00e+00	0	41	0	2472542208	40	5550
2026-01-19 19:36:39.97	306.86	20.13	-33.0	-33.6	26.6	0.00e+00	0	40	0	2478833664	40	5497
2026-01-19 19:36:40.98	306.63	20.08	-32.8	-33.5	26.8	0.00e+00	0	41	0	2484076544	40	5427
2026-01-19 19:36:41.99	306.39	20.03	-32.9	-33.5	26.8	0.00e+00	0	41	0	2490368000	40	5379
2026-01-19 19:36:43.00	306.16	19.97	-32.6	-33.2	26.9	0.00e+00	0	41	0	2495610880	38	5877
2026-01-19 19:36:44.01	305.93	19.92	-33.1	-33.7	26.8	0.00e+00	0	40	0	2501902336	38	6176
2026-01-19 19:36:45.02	305.70	19.87	-33.2	-33.8	26.8	0.00e+00	0	40	0	2507145216	38	6263
2026-01-19 19:36:46.03	305.47	19.82	-33.5	-34.1	26.6	0.00e+00	0	40	0	2512388096	38	6470
2026-01-19 19:36:47.04	305.24	19.76	-33.3	-33.9	26.6	0.00e+00	0	41	0	2518679552	38	6359
2026-01-19 19:36:48.05	305.01	19.71	-33.3	-34.0	26.7	0.00e+00	0	40	0	2523922432	38	6412
2026-01-19 19:36:49.06	304.78	19.65	-33.6	-34.2	26.6	0.00e+00	0	40	0	2530213888	38	6598
2026-01-19 19:36:50.07	304.56	19.60	-33.1	-33.9	26.8	0.00e+00	0	40	0	2535456768	38	6319
2026-01-19 19:36:51.08	304.33	19.54	-33.4	-34.0	26.6	0.00e+00	0	40	0	2540699648	38	6419
2026-01-19 19:36:52.09	304.11	19.49	-33.5	-34.2	26.6	0.00e+00	0	40	0	2546991104	38	6543
2026-01-19 19:36:53.10	303.88	19.43	-33.3	-34.0	26.6	0.00e+00	0	41	0	2552233984	38	6418
2026-01-19 19:36:54.11	303.66	19.38	-33.4	-34.0	26.6	0.00e+00	0	40	0	2558525440	38	6396
2026-01-19 19:36:55.12	303.44	19.32	-33.2	-33.8	26.5	0.00e+00	0	40	0	2563768320	38	6280
2026-01-19 19:36:56.13	303.22	19.27	-33.4	-34.0	26.5	0.00e+00	0	40	0	2569011200	38	6412
2026-01-19 19:36:57.14	302.99	19.21	-33.3	-34.0	26.2	0.00e+00	0	40	0	2575302656	38	6404
2026-01-19 19:36:58.15	302.77	19.15	-33.3	-33.9	26.3	0.00e+00	0	40	0	2580545536	38	6372
2026-01-19 19:36:59.16	302.56	19.09	-33.1	-33.8	26.4	0.00e+00	0	40	0	2586836992	38	6278
2026-01-19 19:37:00.17	302.34	19.04	-33.1	-33.7	26.5	0.00e+00	0	40	0	2592079872	38	6239
2026-01-19 19:37:01.18	302.12	18.98	-32.9	-33.5	26.5	0.00e+00	0	40	0	2598371328	38	6072
2026-01-19 19:37:02.19	301.90	18.92	-33.0	-33.7	26.6	0.00e+00	0	40	0	2603614208	38	6175
2026-01-19 19:37:03.20	301.69	18.86	-33.1	-33.7	26.5	0.00e+00	0	40	0	2609905664	38	6199
2026-01-19 19:37:04.21	301.47	18.80	-33.2	-33.8	26.4	0.00e+00	0	40	0	2615148544	38	6301
2026-01-19 19:37:05.22	301.26	18.74	-33.4	-34.0	26.4	0.00e+00	0	40	0	2620391424	38	6415
2026-01-19 19:37:06.23	301.04	18.68	-33.3	-34.0	26.4	0.00e+00	0	41	0	2626682880	38	6408
2026-01-19 19:37:07.24	300.83	18.62	-33.3	-33.9	26.4	0.00e+00	0	40	0	2631925760	38	6343
2026-01-19 19:37:08.25	300.62	18.56	-33.1	-33.8	26.5	0.00e+00	0	40	0	2638217216	38	6301
2026-01-19 19:37:09.26	300.41	18.50	-33.3	-34.0	26.5	0.00e+00	0	40	0	2643460096	38	6410
2026-01-19 19:37:10.27	300.20	18.44	-33.0	-33.6	26.6	0.00e+00	0	40	0	2648702976	38	6113
2026-01-19 19:37:11.28	299.99	18.38	-33.1	-33.7	26.4	0.00e+00	0	41	0	2654994432	38	6201
2026-01-19 19:37:12.29	299.78	18.32	-33.1	-33.7	26.5	0.00e+00	0	40	0	2660237312	38	6203
2026-01-19 19:37:13.30	299.58	18.26	-33.3	-34.0	26.3	0.00e+00	0	40	0	2666528768	38	6413
2026-01-19 19:37:14.31	299.37	18.20	-33.2	-33.8	26.4	0.00e+00	0	41	0	2671771648	38	6317
2026-01-19 19:37:15.32	299.16	18.14	-33.3	-33.9	26.4	0.00e+00	0	40	0	2677014528	38	6360
2026-01-19 19:37:16.33	298.96	18.07	-33.3	-34.0	26.5	0.00e+00	0	40	0	2683305984	38	6431
2026-01-19 19:37:17.34	298.75	18.01	-33.4	-34.1	26.4	0.00e+00	0	40	0	2688548864	38	6516
2026-01-19 19:37:18.35	298.55	17.95	-33.2	-33.8	26.4	0.00e+00	0	41	0	2694840320	38	6307
2026-01-19 19:37:19.36	298.35	17.89	-33.2	-33.8	26.4	0.00e+00	0	40	0	2700083200	38	6284
2026-01-19 19:37:20.37	298.15	17.82	-33.2	-33.8	26.3	0.00e+00	0	41	0	2706374656	38	6304
2026-01-19 19:37:21.38	297.95	17.76	-33.4	-34.1	26.3	0.00e+00	0	41	0	2711617536	38	6519
2026-01-19 19:37:22.39	297.75	17.70	-33.6	-34.1	26.2	0.00e+00	0	40	0	2717908992	38	6519
2026-01-19 19:37:23.41	297.55	17.63	-33.7	-34.2	26.2	0.00e+00	0	41	0	2723151872	38	6600
2026-01-19 19:37:24.42	297.35	17.57	-33.7	-34.4	26.0	0.00e+00	0	41	0	2728394752	40	6024
2026-01-19 19:37:25.43	297.15	17.51	-33.7	-34.5	25.9	0.00e+00	0	41	0	2734686208	40	6043
2026-01-19 19:37:26.44	296.95	17.44	-33.8	-34.4	25.9	0.00e+00	0	40	0	2739929088	40	6007
2026-01-19 19:37:27.45	296.76	17.38	-33.7	-34.3	25.8	0.00e+00	0	41	0	2746220544	40	5956
2026-01-19 19:37:28.46	296.56	17.31	-33.5	-34.1	26.0	0.00e+00	0	41	0	2751463424	40	5785
2026-01-19 19:37:29.47	296.37	17.25	-33.6	-34.2	25.9	0.00e+00	0	41	0	2756706304	40	5862
2026-01-19 19:37:30.48	296.18	17.18	-33.6	-34.2	26.0	0.00e+00	0	40	0	2762997760	40	5853
2026-01-19 19:37:31.49	295.99	17.12	-33.7	-34.2	25.8	0.00e+00	0	40	0	2768240640	40	5891
2026-01-19 19:37:32.50	295.79	17.05	-33.9	-34.5	25.6	0.00e+00	0	41	0	2774532096	40	6075
2026-01-19 19:37:33.51	295.60	16.99	-33.9	-34.7	25.5	0.00e+00	0	40	0	2779774976	40	6176
2026-01-19 19:37:34.52	295.41	16.92	-33.8	-34.3	25.9	0.00e+00	0	41	0	2785017856	40	5964
2026-01-19 19:37:35.53	295.22	16.86	-33.6	-34.3	26.0	0.00e+00	0	41	0	2791309312	40	5930
2026-01-19 19:37:36.54	295.04	16.79	-33.4	-34.1	26.0	0.00e+00	0	40	0	2796552192	40	5765
2026-01-19 19:37:37.55	294.85	16.73	-33.3	-34.0	26.2	0.00e+00	0	40	0	2802843648	40	5700
2026-01-19 19:37:38.56	294.66	16.66	-33.6	-34.1	26.0	0.00e+00	0	40	0	2808086528	40	5800
2026-01-19 19:37:39.57	294.48	16.59	-33.5	-34.1	25.8	0.00e+00	0	40	0	2814377984	40	5804
2026-01-19 19:37:40.58	294.29	16.53	-33.6	-34.2	25.6	0.00e+00	0	40	0	2819620864	40	5865
2026-01-19 19:37:41.59	294.11	16.46	-33.5	-34.2	26.0	0.00e+00	0	41	0	2825912320	40	5867
2026-01-19 19:37:42.60	293.93	16.40	-33.5	-34.2	26.0	0.00e+00	0	41	0	2831155200	40	5845
2026-01-19 19:37:43.61	293.74	16.33	-33.3	-33.9	26.1	0.00e+00	0	40	0	2836398080	40	5656
2026-01-19 19:37:44.62	293.56	16.26	-33.3	-33.8	26.0	0.00e+00	0	41	0	2842689536	40	5617
2026-01-19 19:37:45.63	293.38	16.20	-33.3	-34.0	26.0	0.00e+00	0	40	0	2847932416	40	5754
2026-01-19 19:37:46.64	293.20	16.13	-33.6	-34.2	25.7	0.00e+00	0	40	0	2854223872	40	5864
2026-01-19 19:37:47.65	293.02	16.06	-33.8	-34.4	25.8	0.00e+00	0	40	0	2859466752	40	5975
2026-01-19 19:37:48.66	292.84	15.99	-33.9	-34.5	25.4	0.00e+00	0	40	0	2864709632	40	6088
2026-01-19 19:37:49.67	292.67	15.93	-34.1	-34.7	25.3	0.00e+00	0	40	0	2871001088	40	6204
2026-01-19 19:37:50.68	292.49	15.86	-34.0	-34.7	25.5	0.00e+00	0	40	0	2876243968	40	6184
2026-01-19 19:37:51.69	292.31	15.79	-33.8	-34.4	25.6	0.00e+00	0	41	0	2882535424	40	6001
2026-01-19 19:37:52.70	292.14	15.73	-33.7	-34.4	25.7	0.00e+00	0	40	0	2887778304	40	5994
2026-01-19 19:37:53.71	291.97	15.66	-33.6	-34.3	25.8	0.00e+00	0	40	0	2893021184	40	5960
2026-01-19 19:37:54.72	291.79	15.59	-33.5	-34.0	25.8	0.00e+00	0	40	0	2899312640	40	5756
2026-01-19 19:37:55.73	291.62	15.52	-33.7	-34.3	25.6	0.00e+00	0	40	0	2904555520	40	5960
2026-01-19 19:37:56.74	291.45	15.46	-33.7	-34.4	25.5	0.00e+00	0	40	0	2910846976	40	5997
2026-01-19 19:37:57.75	291.28	15.39	-33.6	-34.3	25.8	0.00e+00	0	40	0	2916089856	40	5927
2026-01-19 19:37:58.76	291.11	15.32	-33.4	-34.0	25.8	0.00e+00	0	40	0	2922381312	40	5745
2026-01-19 19:37:59.77	290.94	15.25	-33.4	-34.0	25.8	0.00e+00	0	40	0	2927624192	40	5752
2026-01-19 19:38:00.78	290.77	15.18	-33.7	-34.3	25.7	0.00e+00	0	40	0	2933915648	40	5924
2026-01-19 19:38:01.80	290.60	15.11	-33.7	-34.3	25.6	0.00e+00	0	40	0	2939158528	40	5907
2026-01-19 19:38:02.81	290.43	15.05	-33.9	-34.5	25.4	0.00e+00	0	40	0	2944401408	40	6071
2026-01-19 19:38:03.82	290.27	14.98	-33.9	-34.5	25.4	0.00e+00	0	40	0	2950692864	40	6072
2026-01-19 19:38:04.83	290.10	14.91	-33.6	-34.2	25.6	0.00e+00	0	40	0	2955935744	40	5840
2026-01-19 19:38:05.84	289.93	14.84	-33.4	-34.0	25.8	0.00e+00	0	40	0	2962227200	40	5750
2026-01-19 19:38:06.85	289.77	14.77	-33.3	-34.1	25.9	0.00e+00	0	40	0	2967470080	40	5768
2026-01-19 19:38:07.86	289.61	14.71	-33.8	-34.4	25.4	0.00e+00	0	41	0	2972712960	40	6012
2026-01-19 19:38:08.87	289.45	14.64	-34.0	-34.6	25.4	0.00e+00	0	40	0	2979004416	40	6164
2026-01-19 19:38:09.88	289.28	14.57	-33.9	-34.6	25.3	0.00e+00	0	40	0	2984247296	40	6140
2026-01-19 19:38:10.89	289.12	14.50	-34.1	-34.7	25.2	0.00e+00	0	40	0	2990538752	40	6241
2026-01-19 19:38:11.90	288.96	14.43	-34.6	-35.2	24.9	0.00e+00	0	41	0	2995781632	40	6577
2026-01-19 19:38:12.91	288.80	14.36	-33.7	-34.2	25.6	0.00e+00	0	40	0	3001024512	40	5892
2026-01-19 19:38:13.92	288.64	14.29	-34.0	-34.6	25.2	0.00e+00	0	40	0	3007315968	40	6160
2026-01-19 19:38:14.93	288.49	14.23	-34.6	-35.2	24.7	0.00e+00	0	41	0	3012558848	40	6614
2026-01-19 19:38:15.94	288.33	14.16	-34.3	-35.1	25.0	0.00e+00	0	41	0	3018850304	40	6490
2026-01-19 19:38:16.95	288.17	14.09	-34.2	-34.9	25.1	0.00e+00	0	40	0	3024093184	40	6381
2026-01-19 19:38:17.96	288.02	14.02	-34.4	-35.2	24.9	0.00e+00	0	40	0	3030384640	40	6563
2026-01-19 19:38:18.97	287.86	13.95	-34.1	-34.8	25.2	0.00e+00	0	41	0	3035627520	40	6307
2026-01-19 19:38:19.98	287.71	13.88	-34.1	-34.7	25.1	0.00e+00	0	41	0	3040870400	40	6234
2026-01-19 19:38:20.99	287.55	13.81	-34.2	-34.8	25.1	0.00e+00	0	41	0	3047161856	40	6298
2026-01-19 19:38:22.00	287.40	13.75	-34.4	-35.1	24.8	0.00e+00	0	41	0	3052404736	40	6519
2026-01-19 19:38:23.01	287.25	13.68	-34.3	-34.9	25.0	0.00e+00	0	41	0	3058696192	40	6387
2026-01-19 19:38:24.02	287.10	13.61	-34.5	-35.2	24.8	0.00e+00	0	41	0	3063939072	40	6581
2026-01-19 19:38:25.03	286.95	13.54	-34.4	-35.0	24.8	0.00e+00	0	41	0	3069181952	40	6456
2026-01-19 19:38:26.04	286.80	13.47	-34.5	-35.1	24.8	0.00e+00	0	41	0	3075473408	40	6522
2026-01-19 19:38:27.05	286.65	13.40	-34.6	-35.2	24.8	0.00e+00	0	41	0	3080716288	40	6561
2026-01-19 19:38:28.06	286.50	13.33	-34.6	-35.2	24.7	0.00e+00	0	41	0	3087007744	40	6572
2026-01-19 19:38:29.07	286.35	13.26	-34.7	-35.4	24.7	0.00e+00	0	41	0	3092250624	42	5974
2026-01-19 19:38:30.08	286.20	13.20	-34.6	-35.2	24.7	0.00e+00	0	41	0	3097493504	42	5864
2026-01-19 19:38:31.08	286.06	13.13	-34.5	-35.2	24.9	0.00e+00	0	41	0	3103784960	42	5841
2026-01-19 19:38:32.10	285.91	13.06	-34.5	-35.2	24.7	0.00e+00	0	41	0	3109027840	42	5856
2026-01-19 19:38:33.11	285.76	12.99	-34.9	-35.5	24.5	0.00e+00	0	41	0	3115319296	42	6095
2026-01-19 19:38:34.12	285.62	12.92	-34.7	-35.3	24.6	0.00e+00	0	41	0	3120562176	42	5949
2026-01-19 19:38:35.13	285.48	12.85	-35.1	-35.7	24.3	0.00e+00	0	41	0	3126853632	42	6235
2026-01-19 19:38:36.14	285.33	12.78	-34.9	-35.7	24.3	0.00e+00	0	41	0	3132096512	42	6180
2026-01-19 19:38:37.15	285.19	12.71	-34.9	-35.7	24.4	0.00e+00	0	40	0	3138387968	42	6184
2026-01-19 19:38:38.16	285.05	12.65	-34.5	-35.3	24.7	0.00e+00	0	41	0	3143630848	42	5932
2026-01-19 19:38:39.17	284.91	12.58	-34.7	-35.3	24.5	0.00e+00	0	41	0	3148873728	42	5956
2026-01-19 19:38:40.18	284.77	12.51	-34.5	-35.2	24.7	0.00e+00	0	41	0	3155165184	42	5835
2026-01-19 19:38:41.19	284.63	12.44	-34.4	-35.2	24.8	0.00e+00	0	41	0	3160408064	42	5843
2026-01-19 19:38:42.20	284.49	12.37	-34.4	-35.1	24.8	0.00e+00	0	41	0	3166699520	42	5791
2026-01-19 19:38:43.21	284.35	12.30	-34.5	-35.1	24.7	0.00e+00	0	41	0	3171942400	42	5821
2026-01-19 19:38:44.22	284.21	12.23	-34.7	-35.4	24.6	0.00e+00	0	41	0	3177185280	42	5966
2026-01-19 19:38:45.23	284.08	12.17	-34.7	-35.4	24.6	0.00e+00	0	41	0	3183476736	42	6026
2026-01-19 19:38:46.24	283.94	12.10	-34.6	-35.2	24.7	0.00e+00	0	40	0	3188719616	42	5875
2026-01-19 19:38:47.25	283.80	12.03	-34.7	-35.5	24.6	0.00e+00	0	40	0	3195011072	42	6041
2026-01-19 19:38:48.26	283.67	11.96	-34.9	-35.7	24.4	0.00e+00	0	41	0	3200253952	42	6195
2026-01-19 19:38:49.27	283.53	11.89	-35.0	-35.7	24.3	0.00e+00	0	40	0	3205496832	42	6178
2026-01-19 19:38:50.28	283.40	11.82	-34.8	-35.4	24.4	0.00e+00	0	41	0	3211788288	42	5990
2026-01-19 19:38:51.29	283.27	11.76	-34.7	-35.3	24.6	0.00e+00	0	41	0	3217031168	42	5913
2026-01-19 19:38:52.30	283.13	11.69	-34.8	-35.5	24.5	0.00e+00	0	41	0	3223322624	42	6092
2026-01-19 19:38:53.31	283.00	11.62	-34.9	-35.5	24.3	0.00e+00	0	41	0	3228565504	42	6103
2026-01-19 19:38:54.32	282.87	11.55	-35.0	-35.6	24.3	0.00e+00	0	40	0	3234856960	42	6155
2026-01-19 19:38:55.33	282.74	11.48	-35.0	-35.7	24.2	0.00e+00	0	41	0	3240099840	42	6188
2026-01-19 19:38:56.34	282.61	11.41	-35.3	-35.9	24.0	0.00e+00	0	41	0	3246391296	42	6349
2026-01-19 19:38:57.35	282.48	11.35	-35.3	-36.1	23.8	0.00e+00	0	41	0	3251634176	42	6522
2026-01-19 19:38:58.36	282.35	11.28	-35.3	-36.1	24.0	0.00e+00	0	41	0	3256877056	42	6482
2026-01-19 19:38:59.37	282.22	11.21	-35.2	-35.9	24.0	0.00e+00	0	41	0	3263168512	42	6385
2026-01-19 19:39:00.38	282.09	11.14	-35.2	-36.0	23.9	0.00e+00	0	41	0	3268411392	42	6447
2026-01-19 19:39:01.39	281.97	11.08	-35.2	-35.8	24.1	0.00e+00	0	41	0	3274702848	42	6282
2026-01-19 19:39:02.40	281.84	11.01	-35.0	-35.7	24.1	0.00e+00	0	41	0	3279945728	42	6195
2026-01-19 19:39:03.42	281.71	10.94	-35.0	-35.7	24.2	0.00e+00	0	41	0	3285188608	42	6185
2026-01-19 19:39:04.43	281.59	10.87	-35.0	-35.7	24.1	0.00e+00	0	41	0	3291480064	42	6225
2026-01-19 19:39:05.44	281.46	10.80	-35.3	-35.9	24.0	0.00e+00	0	41	0	3296722944	42	6345
2026-01-19 19:39:06.45	281.34	10.74	-35.0	-35.8	24.1	0.00e+00	0	40	0	3303014400	42	6246
2026-01-19 19:39:07.46	281.22	10.67	-35.3	-36.1	23.9	0.00e+00	0	41	0	3308257280	42	6482
2026-01-19 19:39:08.47	281.09	10.60	-35.4	-36.0	23.8	0.00e+00	0	41	0	3313500160	42	6433
2026-01-19 19:39:09.48	280.97	10.53	-35.3	-36.1	23.9	0.00e+00	0	41	0	3319791616	42	6498
2026-01-19 19:39:10.49	280.85	10.47	-35.3	-35.9	23.9	0.00e+00	0	41	0	3325034496	42	6387
2026-01-19 19:39:11.50	280.73	10.40	-35.3	-36.0	23.8	0.00e+00	0	40	0	3331325952	42	6432
2026-01-19 19:39:12.51	280.61	10.33	-35.4	-36.2	23.8	0.00e+00	0	41	0	3336568832	42	6551
2026-01-19 19:39:13.52	280.49	10.26	-35.4	-36.2	23.8	0.00e+00	0	41	0	3342860288	42	6568
2026-01-19 19:39:14.53	280.37	10.20	-35.6	-36.3	23.6	0.00e+00	0	41	0	3348103168	42	6644
2026-01-19 19:39:15.54	280.25	10.13	-35.4	-36.1	23.8	0.00e+00	0	41	0	3354394624	42	6468
2026-01-19 19:39:16.55	280.13	10.06	-35.6	-36.4	23.5	0.00e+00	0	41	0	3359637504	42	6740
2026-01-19 19:39:17.56	280.01	10.00	-35.4	-36.2	23.7	0.00e+00	0	41	0	3364880384	42	6582
2026-01-19 19:39:18.57	279.89	9.93	-35.7	-36.5	23.5	0.00e+00	0	41	0	3371171840	42	6795
2026-01-19 19:39:19.58	279.78	9.86	-35.7	-36.5	23.4	0.00e+00	0	40	0	3376414720	44	6098
2026-01-19 19:39:20.59	279.66	9.80	-35.7	-36.5	23.4	0.00e+00	0	41	0	3382706176	44	6052
2026-01-19 19:39:21.60	279.55	9.73	-35.4	-36.1	23.7	0.00e+00	0	41	0	3387949056	44	5795
2026-01-19 19:39:22.61	279.43	9.66	-35.6	-36.4	23.5	0.00e+00	0	41	0	3393191936	44	5969
2026-01-19 19:39:23.62	279.32	9.60	-35.5	-36.2	23.5	0.00e+00	0	41	0	3399483392	44	5856
2026-01-19 19:39:24.63	279.20	9.53	-35.6	-36.4	23.5	0.00e+00	0	40	0	3404726272	44	6009
2026-01-19 19:39:25.64	279.09	9.46	-35.9	-36.6	23.2	0.00e+00	0	40	0	3411017728	44	6115
2026-01-19 19:39:26.65	278.97	9.40	-35.6	-36.3	23.5	0.00e+00	0	40	0	3416260608	44	5899
2026-01-19 19:39:27.67	278.86	9.33	-35.7	-36.4	23.4	0.00e+00	0	41	0	3421503488	44	6005
2026-01-19 19:39:28.67	278.75	9.26	-35.7	-36.5	23.3	0.00e+00	0	40	0	3427794944	44	6074
2026-01-19 19:39:29.68	278.64	9.20	-36.0	-36.8	23.1	0.00e+00	0	41	0	3433037824	44	6276
2026-01-19 19:39:30.69	278.53	9.13	-35.7	-36.5	23.2	0.00e+00	0	41	0	3439329280	44	6047
2026-01-19 19:39:31.70	278.42	9.07	-35.7	-36.4	23.3	0.00e+00	0	41	0	3444572160	44	5996
2026-01-19 19:39:32.71	278.31	9.00	-36.0	-36.7	23.0	0.00e+00	0	41	0	3450863616	44	6215
2026-01-19 19:39:33.72	278.20	8.93	-36.2	-36.9	22.8	0.00e+00	0	41	0	3456106496	44	6363
2026-01-19 19:39:34.73	278.09	8.87	-36.1	-36.9	23.0	0.00e+00	0	41	0	3461349376	44	6369
2026-01-19 19:39:35.74	277.98	8.80	-36.0	-36.9	23.0	0.00e+00	0	41	0	3467640832	44	6318
2026-01-19 19:39:36.75	277.87	8.74	-35.9	-36.8	23.1	0.00e+00	0	41	0	3472883712	44	6254
2026-01-19 19:39:37.76	277.77	8.67	-35.9	-36.6	23.0	0.00e+00	0	41	0	3479175168	44	6139
2026-01-19 19:39:38.77	277.66	8.61	-36.4	-37.1	22.5	0.00e+00	0	40	0	3484418048	44	6500
2026-01-19 19:39:39.78	277.55	8.54	-36.1	-37.0	23.0	0.00e+00	0	41	0	3489660928	44	6394
2026-01-19 19:39:40.79	277.45	8.48	-36.4	-37.1	22.6	0.00e+00	0	41	0	3495952384	44	6533
2026-01-19 19:39:41.80	277.34	8.41	-36.5	-37.3	22.5	0.00e+00	0	41	0	3501195264	44	6682
2026-01-19 19:39:42.80	277.24	8.35	-36.2	-36.9	22.7	0.00e+00	0	41	0	3507486720	44	6389
2026-01-19 19:39:43.81	277.13	8.28	-36.3	-37.0	22.5	0.00e+00	0	41	0	3512729600	44	6451
2026-01-19 19:39:44.82	277.03	8.22	-36.7	-37.5	21.5	0.00e+00	0	40	0	3517972480	44	6786
2026-01-19 19:39:45.83	276.92	8.15	-36.4	-37.2	22.7	0.00e+00	0	41	0	3524263936	46	5835
2026-01-19 19:39:46.84	276.82	8.09	-36.5	-37.4	22.5	0.00e+00	0	41	0	3529506816	46	6014
2026-01-19 19:39:47.85	276.72	8.02	-36.7	-37.4	22.4	0.00e+00	0	41	0	3535798272	46	5983
2026-01-19 19:39:48.86	276.62	7.96	-36.5	-37.3	22.6	0.00e+00	0	41	0	3541041152	46	5944
2026-01-19 19:39:49.87	276.51	7.89	-37.1	-37.8	21.9	0.00e+00	0	41	0	3547332608	46	6280
2026-01-19 19:39:50.88	276.41	7.83	-36.7	-37.4	22.3	0.00e+00	0	41	0	3552575488	46	6027
2026-01-19 19:39:51.89	276.31	7.76	-36.0	-36.7	22.9	0.00e+00	0	41	0	3557818368	46	5564
2026-01-19 19:39:52.89	276.21	7.70	-36.3	-37.0	22.7	0.00e+00	0	40	0	3564109824	46	5760
2026-01-19 19:39:53.91	276.11	7.63	-36.2	-36.9	22.7	0.00e+00	0	40	0	3569352704	46	5678
2026-01-19 19:39:54.91	276.01	7.57	-36.6	-37.4	22.3	0.00e+00	0	41	0	3575644160	46	5975
2026-01-19 19:39:55.93	275.91	7.51	-36.7	-37.5	22.3	0.00e+00	0	41	0	3580887040	46	6086
2026-01-19 19:39:56.94	275.82	7.44	-36.2	-37.1	22.6	0.00e+00	0	41	0	3587178496	46	5765
2026-01-19 19:39:57.94	275.72	7.38	-36.7	-37.5	22.2	0.00e+00	0	41	0	3592421376	46	6038
