passes_logs/2026/01/19/R4.6S_Anadyr/R4.6S_Anadyr__20260119_150945_SUOMI_NPP_rec.log

#Pass ID: 20260119_150945_SUOMI NPP
#Satellite: SUOMI NPP
#Configuration: NPP
#almurnet v.1.7.20251203
#Start time: 2026-01-19 15:09:47

#Version: 2.2.20231116
#Station: R4.6S_Anadyr
#Location: 177.4865 lon 64.73178 lat
#TLE: 1 37849U 11061A   26018.91022273  .00000066  00000+0  52264-4 0  9997
#TLE: 2 37849  98.7816 320.9252 0002364  56.8129 303.3273 14.19526186737260

#Time	Az	El	Level	Level2	SNR	BER	BlckErr	Temp	State	Recorded	gain1	gain2
2026-01-19 15:09:47.17	21.37	0.12	-50.5	-62.9	3.5	1.52e+00	0	39	0	0	60	49205
2026-01-19 15:09:48.18	21.36	0.18	-50.7	-65.9	3.6	1.51e+00	0	40	104	0	60	71301
2026-01-19 15:09:49.19	21.36	0.24	-50.6	-65.8	3.6	1.51e+00	0	40	104	0	60	70419
2026-01-19 15:09:50.20	21.35	0.30	-50.8	-66.0	3.6	1.51e+00	0	40	104	0	60	71840
2026-01-19 15:09:51.21	21.35	0.36	-50.5	-65.7	3.6	1.51e+00	0	40	104	0	60	69594
2026-01-19 15:09:52.22	21.34	0.42	-50.5	-65.7	3.6	1.51e+00	0	40	104	0	60	69717
2026-01-19 15:09:53.23	21.33	0.48	-50.5	-65.6	3.6	1.51e+00	0	40	104	0	60	69269
2026-01-19 15:09:54.24	21.33	0.54	-50.4	-65.7	3.6	1.51e+00	0	40	104	0	60	69505
2026-01-19 15:09:55.25	21.32	0.61	-50.5	-65.7	3.6	1.51e+00	0	40	104	0	60	69451
2026-01-19 15:09:56.26	21.32	0.67	-50.4	-65.6	3.6	1.51e+00	0	40	104	0	60	68843
2026-01-19 15:09:57.27	21.31	0.73	-50.4	-65.6	3.6	1.51e+00	0	40	104	0	60	69133
2026-01-19 15:09:58.28	21.30	0.79	-50.4	-65.6	3.6	1.51e+00	0	40	104	0	60	68694
2026-01-19 15:09:59.29	21.30	0.85	-50.4	-65.5	3.6	1.51e+00	0	40	104	0	60	68455
2026-01-19 15:10:00.30	21.29	0.91	-50.4	-65.5	3.6	1.51e+00	0	40	104	0	60	68287
2026-01-19 15:10:01.31	21.28	0.98	-50.3	-65.4	3.6	1.51e+00	0	40	104	0	60	67657
2026-01-19 15:10:02.31	21.28	1.04	-50.2	-65.4	3.6	1.51e+00	0	40	104	0	60	67361
2026-01-19 15:10:03.32	21.27	1.10	-50.1	-65.4	3.6	1.51e+00	0	40	104	0	60	66937
2026-01-19 15:10:04.33	21.27	1.16	-50.0	-65.3	3.6	1.51e+00	0	40	104	0	60	66388
2026-01-19 15:10:05.34	21.26	1.23	-50.0	-65.2	3.6	1.51e+00	0	40	104	0	60	65603
2026-01-19 15:10:06.35	21.25	1.29	-49.7	-65.0	3.6	1.51e+00	0	40	104	0	60	64444
2026-01-19 15:10:07.36	21.25	1.35	-49.6	-65.0	3.6	1.51e+00	0	40	104	0	60	63956
2026-01-19 15:10:08.37	21.24	1.41	-49.6	-64.8	3.6	1.51e+00	0	40	104	0	60	62698
2026-01-19 15:10:09.38	21.23	1.48	-49.4	-64.6	3.6	1.51e+00	0	40	104	0	60	61496
2026-01-19 15:10:10.39	21.23	1.54	-49.2	-64.4	3.6	1.51e+00	0	40	104	0	60	60129
2026-01-19 15:10:11.40	21.22	1.60	-48.9	-63.9	3.6	1.51e+00	0	40	104	0	60	56329
2026-01-19 15:10:12.41	21.21	1.67	-48.8	-64.0	3.6	1.51e+00	0	40	104	0	60	57007
2026-01-19 15:10:13.42	21.21	1.73	-48.8	-64.0	3.6	1.51e+00	0	40	104	0	60	57277
2026-01-19 15:10:14.43	21.20	1.79	-48.8	-64.0	3.6	1.51e+00	0	40	104	0	60	57519
2026-01-19 15:10:15.44	21.19	1.86	-48.8	-64.0	3.6	1.51e+00	0	40	104	0	60	57369
2026-01-19 15:10:16.45	21.19	1.92	-48.8	-64.0	3.6	1.51e+00	0	40	104	0	60	57402
2026-01-19 15:10:17.46	21.18	1.99	-48.8	-64.0	3.6	1.51e+00	0	40	104	0	60	57324
2026-01-19 15:10:18.47	21.17	2.05	-48.8	-64.0	3.6	1.51e+00	0	40	104	0	60	57098
2026-01-19 15:10:19.48	21.17	2.12	-48.8	-63.9	3.6	1.51e+00	0	40	104	0	60	56930
2026-01-19 15:10:20.49	21.16	2.18	-48.8	-64.0	3.6	1.51e+00	0	40	104	0	60	57080
2026-01-19 15:10:21.50	21.15	2.25	-48.8	-64.0	3.6	1.51e+00	0	40	104	0	60	57042
2026-01-19 15:10:22.51	21.14	2.31	-48.8	-63.8	3.6	1.51e+00	0	40	104	0	60	56207
2026-01-19 15:10:23.52	21.14	2.38	-48.8	-63.6	3.6	1.51e+00	0	41	104	0	60	54835
2026-01-19 15:10:24.53	21.13	2.44	-48.8	-63.3	3.6	1.51e+00	0	40	104	0	60	52938
2026-01-19 15:10:25.54	21.12	2.51	-48.8	-63.1	3.6	1.51e+00	0	41	104	0	60	51837
2026-01-19 15:10:26.55	21.11	2.57	-48.8	-62.8	3.6	1.51e+00	0	41	104	0	60	49790
2026-01-19 15:10:27.56	21.11	2.64	-48.8	-62.7	3.6	1.51e+00	0	41	104	0	60	49607
2026-01-19 15:10:28.57	21.10	2.70	-48.8	-62.9	3.6	1.51e+00	0	40	104	0	60	50460
2026-01-19 15:10:29.58	21.09	2.77	-48.8	-63.4	3.5	1.51e+00	0	41	104	0	60	53220
2026-01-19 15:10:30.59	21.08	2.84	-48.8	-63.8	3.6	1.51e+00	0	41	104	0	60	55802
2026-01-19 15:10:31.60	21.08	2.90	-48.8	-63.9	3.6	1.51e+00	0	41	104	0	60	56356
2026-01-19 15:10:32.61	21.07	2.97	-48.8	-63.4	3.6	1.51e+00	0	41	104	0	60	53343
2026-01-19 15:10:33.62	21.06	3.04	-48.7	-62.0	3.6	1.51e+00	0	41	104	0	60	45694
2026-01-19 15:10:34.63	21.05	3.10	-48.6	-59.0	4.0	1.48e+00	35	41	0	0	60	32368
2026-01-19 15:10:35.64	21.05	3.17	-48.4	-57.1	4.9	7.79e-01	0	41	0	1048576	60	26021
2026-01-19 15:10:36.65	21.04	3.24	-48.2	-55.9	6.0	3.77e-01	0	41	0	3145728	60	22598
2026-01-19 15:10:37.66	21.03	3.30	-48.1	-55.1	6.8	1.92e-01	92	41	0	5242880	60	20528
2026-01-19 15:10:38.67	21.02	3.37	-47.9	-54.5	7.6	8.36e-02	0	41	0	7340032	60	19095
2026-01-19 15:10:39.68	21.01	3.44	-47.7	-53.9	8.4	5.51e-02	67	41	0	9437184	60	17811
2026-01-19 15:10:40.69	21.00	3.51	-47.8	-54.0	8.2	3.25e-02	0	41	0	10485760	60	18193
2026-01-19 15:10:41.71	21.00	3.57	-47.7	-53.6	8.7	1.48e-03	0	41	0	12582912	60	17289
2026-01-19 15:10:42.71	20.99	3.64	-47.8	-54.2	8.0	4.73e-02	0	41	0	14680064	60	18524
2026-01-19 15:10:43.72	20.98	3.71	-47.9	-54.6	7.5	7.79e-02	0	41	0	16777216	60	19476
2026-01-19 15:10:44.74	20.97	3.78	-48.1	-55.3	6.5	1.34e-01	34	41	0	18874368	60	20962
2026-01-19 15:10:45.74	20.96	3.85	-45.2	-47.9	15.0	5.73e-03	0	41	0	19922944	60	9002
2026-01-19 15:10:46.75	20.95	3.92	-47.5	-53.0	8.6	0.00e+00	90	41	0	22020096	60	16132
2026-01-19 15:10:47.76	20.95	3.99	-48.6	-60.3	3.6	1.27e-01	0	41	104	24117248	60	37389
2026-01-19 15:10:48.77	20.94	4.05	-45.7	-49.1	5.9	1.49e+00	0	41	104	24117248	60	10265
2026-01-19 15:10:49.78	20.93	4.12	-48.9	-63.9	3.6	1.29e-01	0	41	104	24117248	60	56808
2026-01-19 15:10:50.79	20.92	4.19	-45.5	-48.5	5.9	1.50e+00	0	41	104	24117248	60	9648
2026-01-19 15:10:51.80	20.91	4.26	-45.0	-47.6	15.6	0.00e+00	42	41	0	24117248	60	8635
2026-01-19 15:10:52.81	20.90	4.33	-45.1	-47.8	15.1	0.00e+00	0	41	0	26214400	60	8899
2026-01-19 15:10:53.82	20.89	4.40	-45.1	-47.8	15.5	0.00e+00	90	41	0	28311552	60	8835
2026-01-19 15:10:54.83	20.88	4.47	-44.4	-46.7	16.4	0.00e+00	0	41	0	29360128	60	7822
2026-01-19 15:10:55.84	20.87	4.54	-44.5	-46.8	16.4	0.00e+00	0	41	0	31457280	60	7893
2026-01-19 15:10:56.85	20.86	4.61	-44.0	-46.2	17.0	0.00e+00	0	41	0	33554432	60	7338
2026-01-19 15:10:57.86	20.86	4.69	-44.2	-46.4	16.7	0.00e+00	0	41	0	35651584	60	7588
2026-01-19 15:10:58.87	20.85	4.76	-43.8	-45.8	17.2	0.00e+00	14	41	0	37748736	60	7048
2026-01-19 15:10:59.88	20.84	4.83	-43.8	-45.9	17.4	0.00e+00	0	41	0	38797312	60	7103
2026-01-19 15:11:00.89	20.83	4.90	-43.7	-45.6	17.7	0.00e+00	92	41	0	40894464	60	6903
2026-01-19 15:11:01.90	20.82	4.97	-43.7	-45.7	17.5	0.00e+00	0	41	0	42991616	60	6956
2026-01-19 15:11:02.90	20.81	5.04	-43.8	-45.8	17.5	0.00e+00	0	41	0	45088768	60	7026
2026-01-19 15:11:03.91	20.80	5.11	-43.7	-45.6	17.7	0.00e+00	0	41	0	47185920	60	6888
2026-01-19 15:11:04.93	20.79	5.19	-43.9	-45.9	17.3	0.00e+00	0	41	0	48234496	60	7167
2026-01-19 15:11:05.93	20.78	5.26	-43.9	-45.9	17.3	0.00e+00	0	41	0	50331648	60	7160
2026-01-19 15:11:06.94	20.77	5.33	-43.9	-45.9	17.3	0.00e+00	0	41	0	52428800	60	7151
2026-01-19 15:11:07.95	20.76	5.40	-44.0	-46.0	17.3	0.00e+00	92	41	0	54525952	60	7247
2026-01-19 15:11:08.96	20.75	5.48	-43.9	-45.9	17.6	0.00e+00	0	41	0	56623104	60	7131
2026-01-19 15:11:09.97	20.74	5.55	-43.6	-45.5	17.7	0.00e+00	91	41	0	57671680	60	6844
2026-01-19 15:11:10.98	20.73	5.62	-43.8	-45.7	17.6	0.00e+00	0	41	0	59768832	60	6974
2026-01-19 15:11:11.99	20.72	5.70	-43.6	-45.5	17.7	0.00e+00	0	41	0	61865984	60	6786
2026-01-19 15:11:13.00	20.71	5.77	-43.9	-45.8	17.6	0.00e+00	0	41	0	63963136	60	7075
2026-01-19 15:11:14.01	20.70	5.84	-43.8	-45.8	17.7	0.00e+00	0	41	0	66060288	60	7012
2026-01-19 15:11:15.02	20.69	5.92	-43.7	-45.6	17.9	0.00e+00	29	41	0	67108864	60	6865
2026-01-19 15:11:16.03	20.68	5.99	-43.6	-45.5	18.1	0.00e+00	0	41	0	69206016	60	6801
2026-01-19 15:11:17.04	20.67	6.07	-43.5	-45.3	18.1	0.00e+00	16	41	0	71303168	60	6655
2026-01-19 15:11:18.05	20.66	6.14	-43.5	-45.3	18.1	0.00e+00	0	41	0	73400320	60	6678
2026-01-19 15:11:19.06	20.64	6.22	-43.3	-45.1	18.3	0.00e+00	0	41	0	75497472	60	6471
2026-01-19 15:11:20.07	20.63	6.29	-43.2	-45.0	18.4	0.00e+00	0	41	0	77594624	60	6411
2026-01-19 15:11:21.08	20.62	6.37	-43.5	-45.3	18.2	0.00e+00	0	41	0	78643200	60	6641
2026-01-19 15:11:22.09	20.61	6.44	-43.4	-45.2	18.2	0.00e+00	41	41	0	80740352	60	6608
2026-01-19 15:11:23.10	20.60	6.52	-43.3	-45.0	18.4	0.00e+00	0	41	0	82837504	60	6439
2026-01-19 15:11:24.11	20.59	6.59	-43.4	-45.1	18.4	0.00e+00	92	41	0	84934656	60	6503
2026-01-19 15:11:25.12	20.58	6.67	-43.0	-44.7	18.7	0.00e+00	0	41	0	87031808	60	6197
2026-01-19 15:11:26.13	20.57	6.75	-43.3	-45.0	18.3	0.00e+00	0	41	0	88080384	60	6452
2026-01-19 15:11:27.14	20.56	6.82	-43.2	-44.9	18.6	0.00e+00	33	41	0	90177536	60	6372
2026-01-19 15:11:28.15	20.54	6.90	-43.1	-44.8	18.6	0.00e+00	0	41	0	92274688	60	6255
2026-01-19 15:11:29.16	20.53	6.98	-43.1	-44.8	18.7	0.00e+00	40	41	0	94371840	60	6260
2026-01-19 15:11:30.17	20.52	7.06	-43.0	-44.7	18.6	0.00e+00	33	41	0	96468992	60	6186
2026-01-19 15:11:31.18	20.51	7.13	-42.9	-44.5	18.9	0.00e+00	73	41	0	97517568	60	6102
2026-01-19 15:11:32.19	20.50	7.21	-42.9	-44.5	19.0	0.00e+00	0	41	0	99614720	60	6081
2026-01-19 15:11:33.20	20.49	7.29	-42.8	-44.3	19.1	0.00e+00	37	41	0	101711872	60	5962
2026-01-19 15:11:34.20	20.47	7.37	-42.9	-44.6	18.8	0.00e+00	0	41	0	103809024	58	6869
2026-01-19 15:11:35.21	20.46	7.45	-42.8	-44.3	19.0	0.00e+00	0	41	0	105906176	58	6684
2026-01-19 15:11:36.22	20.45	7.52	-42.7	-44.3	19.1	0.00e+00	0	41	0	106954752	58	6633
2026-01-19 15:11:37.23	20.44	7.60	-42.8	-44.3	19.1	0.00e+00	0	41	0	109051904	58	6673
2026-01-19 15:11:38.24	20.42	7.68	-42.6	-44.2	19.2	0.00e+00	47	41	0	111149056	58	6562
2026-01-19 15:11:39.25	20.41	7.76	-42.7	-44.2	19.2	0.00e+00	0	41	0	113246208	58	6585
2026-01-19 15:11:40.26	20.40	7.84	-42.7	-44.2	19.1	0.00e+00	92	41	0	115343360	58	6615
2026-01-19 15:11:41.27	20.39	7.92	-42.4	-43.9	19.4	0.00e+00	0	41	0	116391936	58	6355
2026-01-19 15:11:42.27	20.37	8.00	-42.6	-44.2	19.2	0.00e+00	0	41	0	118489088	58	6552
2026-01-19 15:11:43.29	20.36	8.08	-42.6	-44.2	19.1	0.00e+00	0	41	0	120586240	58	6558
2026-01-19 15:11:44.30	20.35	8.16	-42.8	-44.4	19.1	0.00e+00	0	41	0	122683392	58	6709
2026-01-19 15:11:45.31	20.34	8.25	-42.9	-44.5	19.3	0.00e+00	41	41	0	124780544	58	6780
2026-01-19 15:11:46.32	20.32	8.33	-42.6	-44.1	19.5	0.00e+00	0	41	0	125829120	58	6469
2026-01-19 15:11:47.33	20.31	8.41	-42.6	-44.1	19.2	0.00e+00	90	41	0	127926272	58	6472
2026-01-19 15:11:48.34	20.30	8.49	-42.5	-44.0	19.4	0.00e+00	0	41	0	130023424	58	6455
2026-01-19 15:11:49.35	20.28	8.57	-42.2	-43.6	19.8	0.00e+00	0	41	0	132120576	58	6169
2026-01-19 15:11:50.36	20.27	8.66	-42.4	-43.9	19.6	0.00e+00	0	41	0	134217728	58	6327
2026-01-19 15:11:51.37	20.26	8.74	-42.3	-43.8	19.6	0.00e+00	0	41	0	135266304	58	6250
2026-01-19 15:11:52.38	20.24	8.82	-42.3	-43.8	19.7	0.00e+00	63	41	0	137363456	58	6280
2026-01-19 15:11:53.39	20.23	8.90	-42.3	-43.8	19.7	0.00e+00	0	41	0	139460608	58	6264
2026-01-19 15:11:54.40	20.21	8.99	-42.1	-43.4	19.9	0.00e+00	82	41	0	141557760	58	6029
2026-01-19 15:11:55.41	20.20	9.07	-42.4	-43.9	19.6	0.00e+00	0	41	0	143654912	58	6333
2026-01-19 15:11:56.41	20.19	9.15	-42.3	-43.7	19.7	0.00e+00	0	41	0	145752064	58	6210
2026-01-19 15:11:57.42	20.17	9.24	-42.0	-43.4	20.0	0.00e+00	0	41	0	146800640	58	6014
2026-01-19 15:11:58.43	20.16	9.32	-42.3	-43.7	19.8	0.00e+00	0	41	0	148897792	58	6242
2026-01-19 15:11:59.44	20.14	9.41	-42.2	-43.7	19.9	0.00e+00	59	41	0	150994944	58	6189
2026-01-19 15:12:00.45	20.13	9.49	-42.2	-43.6	19.9	0.00e+00	0	41	0	153092096	58	6106
2026-01-19 15:12:01.46	20.11	9.58	-42.0	-43.4	20.0	0.00e+00	66	41	0	155189248	58	5999
2026-01-19 15:12:02.47	20.10	9.67	-42.0	-43.3	20.1	0.00e+00	0	41	0	156237824	58	5946
2026-01-19 15:12:03.48	20.08	9.75	-42.2	-43.6	19.9	0.00e+00	0	41	0	158334976	58	6150
2026-01-19 15:12:04.49	20.07	9.84	-42.1	-43.5	20.0	0.00e+00	0	41	0	160432128	58	6061
2026-01-19 15:12:05.50	20.05	9.92	-42.1	-43.5	19.9	0.00e+00	0	41	0	162529280	58	6086
2026-01-19 15:12:06.51	20.04	10.01	-42.2	-43.6	19.9	0.00e+00	40	41	0	164626432	58	6148
2026-01-19 15:12:07.52	20.02	10.10	-42.0	-43.3	20.2	0.00e+00	0	41	0	165675008	58	5950
2026-01-19 15:12:08.53	20.01	10.19	-42.0	-43.4	20.2	0.00e+00	92	41	0	167772160	56	6722
2026-01-19 15:12:09.54	19.99	10.27	-41.9	-43.2	20.3	0.00e+00	0	41	0	169869312	56	6572
2026-01-19 15:12:10.55	19.98	10.36	-41.7	-43.0	20.5	0.00e+00	0	41	0	171966464	56	6411
2026-01-19 15:12:11.56	19.96	10.45	-41.8	-43.2	20.4	0.00e+00	0	41	0	174063616	56	6546
2026-01-19 15:12:12.57	19.94	10.54	-41.7	-43.0	20.5	0.00e+00	0	41	0	175112192	56	6427
2026-01-19 15:12:13.58	19.93	10.63	-41.7	-43.0	20.5	0.00e+00	0	41	0	177209344	56	6396
2026-01-19 15:12:14.59	19.91	10.72	-41.8	-43.1	20.5	0.00e+00	0	41	0	179306496	56	6496
2026-01-19 15:12:15.60	19.90	10.81	-41.6	-42.8	20.7	0.00e+00	92	41	0	181403648	56	6307
2026-01-19 15:12:16.61	19.88	10.90	-41.5	-42.8	20.6	0.00e+00	0	41	0	183500800	56	6274
2026-01-19 15:12:17.62	19.86	10.99	-41.8	-43.1	20.5	0.00e+00	44	41	0	184549376	56	6501
2026-01-19 15:12:18.63	19.85	11.08	-41.5	-42.7	20.7	0.00e+00	0	41	0	186646528	56	6234
2026-01-19 15:12:19.64	19.83	11.17	-41.8	-43.1	20.5	0.00e+00	0	41	0	188743680	56	6515
2026-01-19 15:12:20.65	19.81	11.26	-42.0	-43.4	20.4	0.00e+00	17	41	0	190840832	56	6696
2026-01-19 15:12:21.66	19.79	11.35	-41.9	-43.3	20.3	0.00e+00	0	41	0	192937984	56	6629
2026-01-19 15:12:22.67	19.78	11.45	-41.8	-43.2	20.4	0.00e+00	92	41	0	193986560	56	6571
2026-01-19 15:12:23.68	19.76	11.54	-41.6	-42.9	20.7	0.00e+00	0	41	0	196083712	56	6346
2026-01-19 15:12:24.69	19.74	11.63	-41.6	-42.9	20.7	0.00e+00	92	41	0	198180864	56	6383
2026-01-19 15:12:25.70	19.72	11.73	-41.3	-42.5	20.9	0.00e+00	0	41	0	200278016	56	6092
2026-01-19 15:12:26.71	19.71	11.82	-41.2	-42.4	21.1	0.00e+00	0	41	0	202375168	56	6015
2026-01-19 15:12:27.72	19.69	11.91	-41.5	-42.8	20.8	0.00e+00	0	41	0	203423744	56	6256
2026-01-19 15:12:28.72	19.67	12.01	-41.3	-42.6	20.9	0.00e+00	0	41	0	205520896	56	6129
2026-01-19 15:12:29.74	19.65	12.10	-41.3	-42.6	21.0	0.00e+00	32	41	0	207618048	56	6107
2026-01-19 15:12:30.74	19.63	12.20	-41.4	-42.7	20.8	0.00e+00	0	41	0	209715200	56	6201
2026-01-19 15:12:31.75	19.62	12.29	-41.1	-42.3	21.1	0.00e+00	58	41	0	211812352	56	5960
2026-01-19 15:12:32.76	19.60	12.39	-41.2	-42.4	21.0	0.00e+00	0	41	0	213909504	56	6013
2026-01-19 15:12:33.77	19.58	12.48	-41.4	-42.7	20.9	0.00e+00	0	41	0	214958080	56	6228
2026-01-19 15:12:34.78	19.56	12.58	-41.3	-42.5	21.1	0.00e+00	0	41	0	217055232	56	6085
2026-01-19 15:12:35.79	19.54	12.68	-41.3	-42.5	21.1	0.00e+00	0	41	0	219152384	56	6075
2026-01-19 15:12:36.80	19.52	12.77	-41.2	-42.4	21.2	0.00e+00	43	41	0	221249536	56	6004
2026-01-19 15:12:37.81	19.50	12.87	-41.2	-42.4	21.1	0.00e+00	0	41	0	223346688	56	5987
2026-01-19 15:12:38.82	19.48	12.97	-41.2	-42.4	21.1	0.00e+00	92	41	0	224395264	56	6018
2026-01-19 15:12:39.83	19.46	13.07	-41.1	-42.3	21.3	0.00e+00	0	41	0	226492416	56	5948
2026-01-19 15:12:40.84	19.44	13.17	-41.2	-42.5	21.1	0.00e+00	0	41	0	228589568	56	6047
2026-01-19 15:12:41.85	19.42	13.27	-41.2	-42.4	21.1	0.00e+00	0	41	0	230686720	56	6006
2026-01-19 15:12:42.86	19.40	13.37	-41.1	-42.3	21.2	0.00e+00	0	41	0	232783872	56	5930
2026-01-19 15:12:43.87	19.38	13.47	-41.1	-42.3	21.2	0.00e+00	46	41	0	233832448	56	5960
2026-01-19 15:12:44.88	19.36	13.57	-41.0	-42.2	21.2	0.00e+00	0	41	0	235929600	56	5882
2026-01-19 15:12:45.89	19.34	13.67	-41.0	-42.2	21.3	0.00e+00	92	41	0	238026752	56	5862
2026-01-19 15:12:46.90	19.32	13.77	-41.2	-42.4	21.0	0.00e+00	0	41	0	240123904	56	6003
2026-01-19 15:12:47.91	19.30	13.87	-41.2	-42.4	21.0	0.00e+00	30	41	0	242221056	56	6003
2026-01-19 15:12:48.92	19.28	13.97	-41.3	-42.6	21.1	0.00e+00	0	41	0	243269632	56	6106
2026-01-19 15:12:49.93	19.26	14.07	-41.3	-42.5	20.9	0.00e+00	0	41	0	245366784	56	6061
2026-01-19 15:12:50.94	19.23	14.18	-41.2	-42.4	21.1	0.00e+00	0	41	0	247463936	56	6021
2026-01-19 15:12:51.95	19.21	14.28	-41.2	-42.5	20.9	0.00e+00	0	41	0	249561088	56	6048
2026-01-19 15:12:52.96	19.19	14.39	-41.1	-42.3	21.4	0.00e+00	43	41	0	251658240	56	5899
2026-01-19 15:12:53.96	19.17	14.49	-41.0	-42.1	21.2	0.00e+00	0	41	0	252706816	56	5824
2026-01-19 15:12:54.97	19.15	14.59	-41.0	-42.2	21.2	0.00e+00	92	41	0	254803968	56	5830
2026-01-19 15:12:55.98	19.12	14.70	-40.9	-42.0	21.5	0.00e+00	0	41	0	256901120	56	5739
2026-01-19 15:12:56.99	19.10	14.80	-40.9	-42.1	21.4	0.00e+00	0	41	0	258998272	56	5805
2026-01-19 15:12:58.00	19.08	14.91	-40.8	-41.9	21.6	0.00e+00	22	41	0	261095424	56	5674
2026-01-19 15:12:59.01	19.05	15.02	-40.8	-42.0	21.5	0.00e+00	0	41	0	262144000	54	6419
2026-01-19 15:13:00.02	19.03	15.12	-40.6	-41.7	21.7	0.00e+00	18	41	0	264241152	54	6203
2026-01-19 15:13:01.03	19.01	15.23	-40.6	-41.7	21.8	0.00e+00	0	41	0	266338304	54	6220
2026-01-19 15:13:02.04	18.98	15.34	-40.6	-41.7	21.8	0.00e+00	48	41	0	268435456	54	6227
2026-01-19 15:13:03.05	18.96	15.45	-40.4	-41.5	21.9	0.00e+00	0	41	0	270532608	54	6103
2026-01-19 15:13:04.06	18.94	15.56	-40.4	-41.5	21.9	0.00e+00	0	41	0	271581184	54	6039
2026-01-19 15:13:05.07	18.91	15.67	-40.4	-41.5	22.0	0.00e+00	0	41	0	273678336	54	6055
2026-01-19 15:13:06.08	18.89	15.78	-40.3	-41.3	22.2	0.00e+00	0	41	0	275775488	54	5959
2026-01-19 15:13:07.09	18.86	15.89	-40.2	-41.3	22.2	0.00e+00	15	41	0	277872640	54	5900
2026-01-19 15:13:08.10	18.84	16.00	-40.2	-41.3	22.2	0.00e+00	0	41	0	279969792	54	5916
2026-01-19 15:13:09.11	18.81	16.11	-40.2	-41.3	22.2	0.00e+00	88	41	0	282066944	54	5924
2026-01-19 15:13:10.12	18.79	16.22	-40.1	-41.1	22.3	0.00e+00	0	41	0	283115520	54	5817
2026-01-19 15:13:11.13	18.76	16.33	-40.0	-41.1	22.2	0.00e+00	0	41	0	285212672	54	5780
2026-01-19 15:13:12.14	18.74	16.45	-40.1	-41.1	22.3	0.00e+00	0	41	0	287309824	54	5801
2026-01-19 15:13:13.15	18.71	16.56	-40.0	-41.0	22.4	0.00e+00	0	41	0	289406976	54	5759
2026-01-19 15:13:14.16	18.68	16.67	-40.0	-41.1	22.3	0.00e+00	69	41	0	291504128	54	5789
2026-01-19 15:13:15.17	18.66	16.79	-40.0	-41.0	22.3	0.00e+00	0	41	0	292552704	54	5727
2026-01-19 15:13:16.18	18.63	16.90	-40.1	-41.2	22.2	0.00e+00	92	41	0	294649856	54	5838
2026-01-19 15:13:17.19	18.60	17.02	-39.9	-40.9	22.5	0.00e+00	0	41	0	296747008	54	5691
2026-01-19 15:13:18.19	18.58	17.13	-40.0	-41.0	22.4	0.00e+00	0	41	0	298844160	54	5723
2026-01-19 15:13:19.20	18.55	17.25	-40.0	-41.0	22.4	0.00e+00	0	41	0	300941312	54	5729
2026-01-19 15:13:20.21	18.52	17.37	-40.1	-41.1	22.3	0.00e+00	0	41	0	301989888	54	5805
2026-01-19 15:13:21.22	18.49	17.48	-40.0	-41.0	22.4	0.00e+00	0	41	0	304087040	54	5749
2026-01-19 15:13:22.23	18.46	17.60	-40.2	-41.2	22.2	0.00e+00	0	41	0	306184192	54	5890
2026-01-19 15:13:23.24	18.44	17.72	-40.0	-41.1	22.3	0.00e+00	92	41	0	308281344	54	5774
2026-01-19 15:13:24.25	18.41	17.84	-40.1	-41.1	22.3	0.00e+00	0	41	0	310378496	54	5814
2026-01-19 15:13:25.26	18.38	17.96	-40.1	-41.1	22.4	0.00e+00	0	41	0	311427072	54	5796
2026-01-19 15:13:26.27	18.35	18.08	-40.1	-41.1	22.3	0.00e+00	0	41	0	313524224	54	5801
2026-01-19 15:13:27.28	18.32	18.20	-40.1	-41.1	22.4	0.00e+00	0	41	0	315621376	54	5789
2026-01-19 15:13:28.29	18.29	18.32	-40.1	-41.2	22.3	0.00e+00	0	41	0	317718528	54	5855
2026-01-19 15:13:29.30	18.26	18.45	-39.9	-40.9	22.5	0.00e+00	0	41	0	319815680	54	5680
2026-01-19 15:13:30.31	18.23	18.57	-39.8	-40.9	22.6	0.00e+00	48	41	0	320864256	52	6319
2026-01-19 15:13:31.32	18.20	18.69	-39.9	-40.9	22.6	0.00e+00	0	41	0	322961408	52	6346
2026-01-19 15:13:32.33	18.17	18.82	-39.8	-40.8	22.6	0.00e+00	92	41	0	325058560	52	6283
2026-01-19 15:13:33.34	18.14	18.94	-39.9	-40.9	22.6	0.00e+00	0	41	0	327155712	52	6390
2026-01-19 15:13:34.35	18.10	19.07	-40.0	-41.1	22.4	0.00e+00	0	41	0	329252864	52	6469
2026-01-19 15:13:35.35	18.07	19.19	-39.9	-40.9	22.5	0.00e+00	0	41	0	330301440	52	6367
2026-01-19 15:13:36.36	18.04	19.32	-39.8	-40.8	22.7	0.00e+00	0	41	0	332398592	52	6300
2026-01-19 15:13:37.37	18.01	19.45	-39.7	-40.7	22.6	0.00e+00	65	41	0	334495744	52	6235
2026-01-19 15:13:38.38	17.98	19.57	-39.8	-40.8	22.6	0.00e+00	0	41	0	336592896	52	6310
2026-01-19 15:13:39.39	17.94	19.70	-39.9	-40.9	22.5	0.00e+00	90	41	0	338690048	52	6381
2026-01-19 15:13:40.40	17.91	19.83	-39.9	-40.9	22.6	0.00e+00	0	41	0	339738624	52	6362
2026-01-19 15:13:41.41	17.88	19.96	-39.9	-40.9	22.6	0.00e+00	0	41	0	341835776	52	6371
2026-01-19 15:13:42.42	17.84	20.09	-39.9	-40.9	22.6	0.00e+00	0	41	0	343932928	52	6351
2026-01-19 15:13:43.43	17.81	20.22	-39.8	-40.8	22.7	0.00e+00	0	41	0	346030080	52	6252
2026-01-19 15:13:44.44	17.77	20.35	-39.8	-40.8	22.7	0.00e+00	42	41	0	348127232	52	6268
2026-01-19 15:13:45.45	17.74	20.49	-39.8	-40.8	22.7	0.00e+00	0	41	0	350224384	52	6287
2026-01-19 15:13:46.46	17.70	20.62	-39.8	-40.8	22.5	0.00e+00	91	41	0	351272960	52	6264
2026-01-19 15:13:47.47	17.67	20.75	-39.8	-40.8	22.7	0.00e+00	0	41	0	353370112	52	6301
2026-01-19 15:13:48.48	17.63	20.89	-39.8	-40.8	22.6	0.00e+00	0	41	0	355467264	52	6282
2026-01-19 15:13:49.49	17.60	21.02	-39.7	-40.7	22.7	0.00e+00	0	41	0	357564416	52	6228
2026-01-19 15:13:50.50	17.56	21.16	-39.7	-40.7	22.7	0.00e+00	0	41	0	359661568	52	6201
2026-01-19 15:13:51.51	17.52	21.30	-39.7	-40.7	22.6	0.00e+00	22	41	0	360710144	52	6241
2026-01-19 15:13:52.52	17.48	21.44	-39.5	-40.5	22.9	0.00e+00	0	41	0	362807296	52	6044
2026-01-19 15:13:53.53	17.45	21.57	-39.4	-40.3	23.0	0.00e+00	90	41	0	364904448	52	5962
2026-01-19 15:13:54.54	17.41	21.71	-39.5	-40.5	22.9	0.00e+00	0	41	0	367001600	52	6080
2026-01-19 15:13:55.55	17.37	21.85	-39.5	-40.5	23.0	0.00e+00	0	41	0	369098752	52	6056
2026-01-19 15:13:56.56	17.33	21.99	-39.4	-40.3	23.1	0.00e+00	0	41	0	370147328	52	5952
2026-01-19 15:13:57.57	17.29	22.13	-39.5	-40.5	23.0	0.00e+00	0	41	0	372244480	52	6069
2026-01-19 15:13:58.57	17.25	22.28	-39.3	-40.3	23.2	0.00e+00	0	41	0	374341632	52	5904
2026-01-19 15:13:59.58	17.21	22.42	-39.4	-40.3	23.2	0.00e+00	0	41	0	376438784	52	5962
2026-01-19 15:14:00.59	17.17	22.56	-39.3	-40.3	23.1	0.00e+00	92	41	0	378535936	52	5914
2026-01-19 15:14:01.60	17.13	22.71	-39.3	-40.3	23.1	0.00e+00	0	41	0	379584512	52	5910
2026-01-19 15:14:02.61	17.09	22.85	-39.5	-40.4	23.0	0.00e+00	76	41	0	381681664	52	6022
2026-01-19 15:14:03.63	17.05	23.00	-39.3	-40.3	23.0	0.00e+00	0	41	0	383778816	52	5898
2026-01-19 15:14:04.63	17.01	23.15	-39.5	-40.4	23.1	0.00e+00	0	41	0	385875968	52	6012
2026-01-19 15:14:05.64	16.96	23.29	-39.2	-40.1	23.3	0.00e+00	17	41	0	387973120	52	5819
2026-01-19 15:14:06.65	16.92	23.44	-39.3	-40.2	23.2	0.00e+00	0	41	0	389021696	52	5852
2026-01-19 15:14:07.66	16.88	23.59	-39.7	-40.6	22.8	0.00e+00	92	41	0	391118848	52	6166
2026-01-19 15:14:08.67	16.83	23.74	-39.3	-40.2	23.3	0.00e+00	0	41	0	393216000	52	5894
2026-01-19 15:14:09.68	16.79	23.89	-38.8	-39.7	23.6	0.00e+00	81	41	0	395313152	52	5551
2026-01-19 15:14:10.69	16.74	24.04	-38.8	-39.7	23.5	0.00e+00	0	41	0	397410304	52	5544
2026-01-19 15:14:11.70	16.70	24.20	-38.7	-39.6	23.6	0.00e+00	0	41	0	398458880	50	6140
2026-01-19 15:14:12.71	16.65	24.35	-39.0	-39.9	23.4	0.00e+00	0	41	0	400556032	50	6329
2026-01-19 15:14:13.71	16.61	24.50	-38.9	-39.8	23.5	0.00e+00	0	41	0	402653184	50	6263
2026-01-19 15:14:14.72	16.56	24.66	-39.1	-40.0	23.3	0.00e+00	49	41	0	404750336	50	6442
2026-01-19 15:14:15.73	16.51	24.82	-39.3	-40.2	23.1	0.00e+00	0	41	0	406847488	50	6608
2026-01-19 15:14:16.74	16.46	24.97	-39.3	-40.2	23.1	0.00e+00	80	41	0	407896064	50	6604
2026-01-19 15:14:17.75	16.42	25.13	-39.6	-40.6	23.0	0.00e+00	0	41	0	409993216	50	6863
2026-01-19 15:14:18.76	16.37	25.29	-39.8	-40.8	22.7	0.00e+00	0	41	0	412090368	52	6280
2026-01-19 15:14:19.77	16.32	25.45	-39.8	-40.8	22.7	0.00e+00	0	41	0	414187520	52	6253
2026-01-19 15:14:20.78	16.27	25.61	-39.7	-40.7	22.9	0.00e+00	0	41	0	416284672	52	6213
2026-01-19 15:14:21.79	16.22	25.77	-39.5	-40.5	23.0	0.00e+00	50	41	0	418381824	52	6053
2026-01-19 15:14:22.81	16.17	25.94	-39.4	-40.4	23.1	0.00e+00	0	41	0	419430400	52	5975
2026-01-19 15:14:23.81	16.11	26.10	-39.2	-40.2	23.1	0.00e+00	82	41	0	421527552	52	5845
2026-01-19 15:14:24.82	16.06	26.27	-39.1	-40.1	23.3	0.00e+00	0	41	0	423624704	52	5763
2026-01-19 15:14:25.83	16.01	26.43	-39.2	-40.1	23.2	0.00e+00	0	41	0	425721856	52	5827
2026-01-19 15:14:26.84	15.96	26.60	-39.5	-40.5	23.0	0.00e+00	0	41	0	427819008	52	6040
2026-01-19 15:14:27.85	15.90	26.77	-39.3	-40.3	23.1	0.00e+00	0	41	0	428867584	52	5903
2026-01-19 15:14:28.85	15.85	26.93	-39.5	-40.5	22.9	0.00e+00	51	41	0	430964736	52	6041
2026-01-19 15:14:29.87	15.79	27.11	-39.5	-40.4	23.1	0.00e+00	0	41	0	433061888	52	5998
2026-01-19 15:14:30.88	15.74	27.28	-39.8	-40.7	22.8	0.00e+00	70	41	0	435159040	52	6235
2026-01-19 15:14:31.89	15.68	27.45	-40.3	-41.3	22.4	0.00e+00	0	41	0	436207616	52	6656
2026-01-19 15:14:32.89	15.62	27.62	-40.0	-41.0	22.5	0.00e+00	4	41	0	438304768	52	6448
2026-01-19 15:14:33.90	15.56	27.79	-40.1	-41.1	22.5	0.00e+00	0	41	0	440401920	52	6512
2026-01-19 15:14:34.91	15.51	27.97	-40.3	-41.3	22.4	0.00e+00	0	41	0	442499072	52	6683
2026-01-19 15:14:35.92	15.45	28.15	-40.4	-41.4	22.2	0.00e+00	0	41	0	444596224	52	6760
2026-01-19 15:14:36.93	15.39	28.32	-40.2	-41.2	22.4	0.00e+00	0	41	0	446693376	52	6586
2026-01-19 15:14:37.94	15.33	28.50	-39.8	-40.7	22.8	0.00e+00	79	41	0	447741952	52	6213
2026-01-19 15:14:38.95	15.26	28.68	-39.8	-40.8	22.8	0.00e+00	0	41	0	449839104	52	6292
2026-01-19 15:14:39.96	15.20	28.86	-40.1	-41.0	22.6	0.00e+00	23	41	0	451936256	52	6460
2026-01-19 15:14:40.96	15.14	29.04	-40.1	-41.1	22.4	0.00e+00	0	41	0	454033408	52	6531
2026-01-19 15:14:41.97	15.08	29.23	-40.2	-41.2	22.3	0.00e+00	0	41	0	456130560	52	6561
2026-01-19 15:14:42.98	15.01	29.41	-40.6	-41.7	22.0	0.00e+00	0	41	0	457179136	54	6203
2026-01-19 15:14:43.99	14.95	29.60	-41.0	-42.1	21.7	0.00e+00	0	41	0	459276288	54	6516
2026-01-19 15:14:45.00	14.88	29.78	-41.1	-42.2	21.6	0.00e+00	23	41	0	461373440	54	6567
2026-01-19 15:14:46.01	14.81	29.97	-41.4	-42.5	21.4	0.00e+00	0	41	0	463470592	54	6847
2026-01-19 15:14:47.02	14.75	30.16	-41.5	-42.7	21.2	0.00e+00	92	41	0	465567744	54	6960
2026-01-19 15:14:48.03	14.68	30.35	-41.7	-42.9	21.0	0.00e+00	0	41	0	466616320	54	7108
2026-01-19 15:14:49.04	14.61	30.54	-41.8	-43.0	20.9	0.00e+00	0	41	0	468713472	54	7240
2026-01-19 15:14:50.05	14.54	30.73	-41.8	-43.0	20.8	0.00e+00	0	41	0	470810624	56	6427
2026-01-19 15:14:51.05	14.47	30.92	-41.5	-42.7	21.3	0.00e+00	0	41	0	472907776	56	6183
2026-01-19 15:14:52.06	14.40	31.12	-41.2	-42.4	21.5	0.00e+00	33	41	0	475004928	56	5973
2026-01-19 15:14:53.07	14.32	31.32	-41.3	-42.4	21.3	0.00e+00	0	41	0	476053504	56	6011
2026-01-19 15:14:54.08	14.25	31.51	-41.4	-42.5	21.4	0.00e+00	34	41	0	478150656	56	6088
2026-01-19 15:14:55.09	14.17	31.71	-41.8	-43.1	20.8	0.00e+00	0	41	0	480247808	56	6518
2026-01-19 15:14:56.10	14.10	31.91	-42.3	-43.7	20.0	0.00e+00	0	41	0	482344960	56	6949
2026-01-19 15:14:57.11	14.02	32.11	-42.3	-43.7	20.2	0.00e+00	0	41	0	484442112	56	6983
2026-01-19 15:14:58.12	13.94	32.32	-42.5	-43.9	20.2	0.00e+00	33	41	0	485490688	58	6374
2026-01-19 15:14:59.13	13.86	32.52	-42.6	-44.1	19.8	0.00e+00	47	41	0	487587840	58	6513
2026-01-19 15:15:00.14	13.79	32.73	-43.0	-44.5	19.7	0.00e+00	0	41	0	489684992	58	6787
2026-01-19 15:15:01.15	13.70	32.93	-42.7	-44.0	20.1	0.00e+00	90	41	0	491782144	58	6463
2026-01-19 15:15:02.16	13.62	33.14	-42.7	-44.1	20.0	0.00e+00	0	41	0	493879296	58	6507
2026-01-19 15:15:03.17	13.54	33.35	-43.3	-44.8	19.4	0.00e+00	0	41	0	494927872	58	7043
2026-01-19 15:15:04.18	13.45	33.56	-42.9	-44.4	19.5	0.00e+00	33	41	0	497025024	58	6749
2026-01-19 15:15:05.19	13.37	33.77	-43.0	-44.6	19.5	0.00e+00	0	41	0	499122176	58	6897
2026-01-19 15:15:06.19	13.28	33.99	-43.2	-44.8	19.5	0.00e+00	47	41	0	501219328	58	7043
2026-01-19 15:15:07.20	13.20	34.20	-43.6	-45.3	18.9	0.00e+00	0	41	0	503316480	60	6660
2026-01-19 15:15:08.21	13.11	34.42	-43.8	-45.5	18.6	0.00e+00	92	41	0	504365056	60	6803
2026-01-19 15:15:09.22	13.02	34.64	-43.5	-45.1	19.2	0.00e+00	0	41	0	506462208	60	6508
2026-01-19 15:15:10.23	12.92	34.85	-42.8	-44.2	20.0	0.00e+00	92	41	0	508559360	60	5889
2026-01-19 15:15:11.24	12.83	35.08	-42.6	-44.0	20.2	0.00e+00	0	41	0	510656512	58	6422
2026-01-19 15:15:12.25	12.74	35.30	-42.1	-43.4	20.8	0.00e+00	0	41	0	512753664	58	6016
2026-01-19 15:15:13.26	12.64	35.52	-41.8	-43.1	20.9	0.00e+00	0	41	0	514850816	58	5782
2026-01-19 15:15:14.27	12.55	35.75	-42.0	-43.4	20.6	0.00e+00	0	41	0	515899392	58	5981
2026-01-19 15:15:15.28	12.45	35.97	-42.1	-43.5	20.4	0.00e+00	47	41	0	517996544	58	6070
2026-01-19 15:15:16.29	12.35	36.20	-42.6	-44.0	20.1	0.00e+00	0	41	0	520093696	58	6459
2026-01-19 15:15:17.29	12.25	36.43	-42.6	-44.1	20.1	0.00e+00	92	41	0	522190848	58	6533
2026-01-19 15:15:18.30	12.14	36.66	-43.4	-45.0	19.4	0.00e+00	0	41	0	524288000	58	7250
2026-01-19 15:15:19.31	12.04	36.89	-43.2	-44.8	19.4	0.00e+00	0	41	0	525336576	58	7064
2026-01-19 15:15:20.32	11.93	37.13	-42.8	-44.3	19.9	0.00e+00	0	41	0	527433728	58	6659
2026-01-19 15:15:21.34	11.83	37.37	-41.8	-43.0	21.1	0.00e+00	0	41	0	529530880	58	5753
2026-01-19 15:15:22.34	11.72	37.60	-41.3	-42.4	21.7	0.00e+00	92	41	0	531628032	56	6022
2026-01-19 15:15:23.35	11.61	37.84	-41.0	-42.1	21.8	0.00e+00	0	41	0	533725184	54	6495
2026-01-19 15:15:24.36	11.50	38.08	-40.6	-41.6	22.2	0.00e+00	92	41	0	534773760	54	6170
2026-01-19 15:15:25.37	11.38	38.32	-40.1	-41.1	22.5	0.00e+00	0	41	0	536870912	54	5788
2026-01-19 15:15:26.38	11.27	38.57	-40.9	-42.0	21.7	0.00e+00	0	41	0	538968064	54	6441
2026-01-19 15:15:27.39	11.15	38.81	-40.9	-42.0	21.3	0.00e+00	0	41	0	541065216	54	6409
2026-01-19 15:15:28.40	11.03	39.06	-41.4	-42.6	21.2	0.00e+00	0	41	0	543162368	54	6896
2026-01-19 15:15:29.41	10.91	39.31	-41.4	-42.6	21.3	0.00e+00	31	41	0	544210944	54	6899
2026-01-19 15:15:30.42	10.78	39.56	-41.7	-42.9	21.3	0.00e+00	0	41	0	546308096	56	6372
2026-01-19 15:15:31.43	10.66	39.81	-41.8	-43.0	21.0	0.00e+00	74	41	0	548405248	56	6457
2026-01-19 15:15:32.44	10.53	40.07	-41.7	-42.8	21.3	0.00e+00	0	41	0	550502400	56	6316
2026-01-19 15:15:33.45	10.40	40.32	-41.3	-42.4	21.6	0.00e+00	0	41	0	552599552	56	6003
2026-01-19 15:15:34.46	10.27	40.58	-41.3	-42.4	21.5	0.00e+00	0	41	0	553648128	56	5995
2026-01-19 15:15:35.47	10.14	40.84	-41.3	-42.4	21.3	0.00e+00	0	41	0	555745280	56	5996
2026-01-19 15:15:36.48	10.00	41.10	-41.8	-43.0	21.1	0.00e+00	20	41	0	557842432	56	6458
2026-01-19 15:15:37.49	9.86	41.36	-41.9	-43.2	20.9	0.00e+00	0	41	0	559939584	56	6551
2026-01-19 15:15:38.49	9.72	41.62	-42.0	-43.3	20.7	0.00e+00	75	41	0	562036736	56	6651
2026-01-19 15:15:39.51	9.58	41.89	-42.0	-43.2	20.9	0.00e+00	0	41	0	563085312	56	6568
2026-01-19 15:15:40.51	9.43	42.16	-42.2	-43.4	20.6	0.00e+00	29	41	0	565182464	56	6767
2026-01-19 15:15:41.53	9.29	42.43	-42.1	-43.4	20.8	0.00e+00	0	41	0	567279616	56	6707
2026-01-19 15:15:42.53	9.14	42.70	-42.8	-44.3	19.9	0.00e+00	0	41	0	569376768	56	7423
2026-01-19 15:15:43.54	8.98	42.97	-42.8	-44.2	20.0	0.00e+00	47	41	0	571473920	58	6549
2026-01-19 15:15:44.55	8.83	43.24	-43.3	-44.9	19.5	0.00e+00	0	41	0	572522496	58	7110
2026-01-19 15:15:45.56	8.67	43.52	-43.1	-44.6	19.6	0.00e+00	45	41	0	574619648	58	6889
2026-01-19 15:15:46.57	8.51	43.80	-43.4	-45.1	19.2	0.00e+00	0	41	0	576716800	58	7311
2026-01-19 15:15:47.58	8.34	44.08	-43.0	-44.5	19.7	0.00e+00	48	41	0	578813952	58	6806
2026-01-19 15:15:48.59	8.18	44.36	-43.1	-44.7	19.7	0.00e+00	0	41	0	580911104	58	6959
2026-01-19 15:15:49.61	8.00	44.64	-42.5	-43.8	20.5	0.00e+00	0	41	0	583008256	58	6311
2026-01-19 15:15:50.61	7.83	44.93	-41.8	-43.0	21.0	0.00e+00	48	41	0	584056832	56	6436
2026-01-19 15:15:51.63	7.65	45.22	-41.6	-42.8	20.6	0.00e+00	0	41	0	586153984	56	6253
2026-01-19 15:15:52.63	7.48	45.50	-40.7	-41.8	22.1	0.00e+00	45	41	0	588251136	54	6283
2026-01-19 15:15:53.64	7.29	45.79	-40.7	-41.8	22.1	0.00e+00	0	41	0	590348288	54	6285
2026-01-19 15:15:54.65	7.11	46.08	-40.5	-41.6	22.2	0.00e+00	67	41	0	592445440	54	6134
2026-01-19 15:15:55.66	6.92	46.38	-41.1	-42.2	21.7	0.00e+00	0	41	0	593494016	54	6570
2026-01-19 15:15:56.67	6.72	46.67	-41.4	-42.7	21.2	0.00e+00	0	41	0	595591168	54	6931
2026-01-19 15:15:57.68	6.52	46.97	-41.5	-42.7	21.4	0.00e+00	0	41	0	597688320	56	6205
2026-01-19 15:15:58.69	6.32	47.27	-41.2	-42.4	21.5	0.00e+00	0	41	0	599785472	56	5976
2026-01-19 15:15:59.70	6.12	47.57	-41.1	-42.2	21.9	0.00e+00	47	41	0	601882624	56	5867
2026-01-19 15:16:00.71	5.91	47.87	-41.0	-42.1	21.7	0.00e+00	0	41	0	602931200	54	6523
2026-01-19 15:16:01.72	5.69	48.18	-40.9	-42.0	21.8	0.00e+00	50	41	0	605028352	54	6433
2026-01-19 15:16:02.73	5.47	48.48	-40.5	-41.5	22.3	0.00e+00	0	41	0	607125504	54	6072
2026-01-19 15:16:03.74	5.25	48.79	-40.8	-41.9	21.9	0.00e+00	0	41	0	609222656	54	6380
2026-01-19 15:16:04.75	5.02	49.10	-40.5	-41.5	22.4	0.00e+00	0	41	0	611319808	54	6103
2026-01-19 15:16:05.76	4.79	49.41	-40.4	-41.4	22.4	0.00e+00	0	41	0	612368384	54	5987
2026-01-19 15:16:06.76	4.56	49.72	-40.0	-41.1	22.8	0.00e+00	20	41	0	614465536	54	5764
2026-01-19 15:16:07.77	4.32	50.03	-39.8	-40.8	22.7	0.00e+00	0	41	0	616562688	52	6310
2026-01-19 15:16:08.79	4.07	50.35	-39.9	-40.9	22.7	0.00e+00	86	41	0	618659840	52	6325
2026-01-19 15:16:09.79	3.82	50.67	-39.7	-40.7	23.0	0.00e+00	0	41	0	620756992	52	6180
2026-01-19 15:16:10.80	3.56	50.98	-39.8	-40.8	22.8	0.00e+00	0	41	0	621805568	52	6299
2026-01-19 15:16:11.81	3.30	51.30	-39.8	-40.7	22.9	0.00e+00	0	41	0	623902720	52	6236
2026-01-19 15:16:12.82	3.03	51.63	-39.9	-40.9	22.8	0.00e+00	0	41	0	625999872	52	6374
2026-01-19 15:16:13.83	2.75	51.95	-40.1	-41.1	22.5	0.00e+00	48	41	0	628097024	52	6495
2026-01-19 15:16:14.84	2.47	52.27	-40.4	-41.4	22.3	0.00e+00	0	41	0	630194176	52	6767
2026-01-19 15:16:15.85	2.18	52.60	-40.7	-41.9	22.0	0.00e+00	78	41	0	631242752	54	6337
2026-01-19 15:16:16.86	1.89	52.93	-40.8	-42.0	21.8	0.00e+00	0	41	0	633339904	54	6424
2026-01-19 15:16:17.87	1.59	53.26	-40.8	-42.0	21.8	0.00e+00	0	41	0	635437056	54	6435
2026-01-19 15:16:18.88	1.28	53.59	-40.7	-41.9	21.9	0.00e+00	0	41	0	637534208	54	6336
2026-01-19 15:16:19.89	0.96	53.92	-40.1	-41.1	22.5	0.00e+00	0	41	0	639631360	54	5811
2026-01-19 15:16:20.90	0.64	54.25	-40.4	-41.5	22.5	0.00e+00	0	41	0	640679936	54	6057
2026-01-19 15:16:21.91	0.31	54.59	-40.7	-41.8	22.1	0.00e+00	0	41	0	642777088	54	6292
2026-01-19 15:16:22.92	359.97	54.92	-40.3	-41.4	22.2	0.00e+00	50	41	0	644874240	54	6000
2026-01-19 15:16:23.93	359.63	55.26	-39.6	-40.6	22.9	0.00e+00	0	41	0	646971392	52	6148
2026-01-19 15:16:24.94	359.27	55.60	-39.4	-40.3	23.3	0.00e+00	62	41	0	649068544	52	5933
2026-01-19 15:16:25.95	358.91	55.94	-38.1	-38.9	24.1	0.00e+00	0	41	0	651165696	50	5684
2026-01-19 15:16:26.96	358.54	56.27	-38.5	-39.4	23.8	0.00e+00	0	41	0	652214272	50	5965
2026-01-19 15:16:27.97	358.15	56.62	-39.2	-40.1	23.4	0.00e+00	0	41	0	654311424	50	6489
2026-01-19 15:16:28.98	357.76	56.96	-40.1	-41.1	22.6	0.00e+00	0	41	0	656408576	52	6505
2026-01-19 15:16:29.99	357.36	57.30	-40.3	-41.4	22.4	0.00e+00	34	41	0	658505728	52	6709
2026-01-19 15:16:31.00	356.95	57.64	-40.5	-41.5	22.3	0.00e+00	0	41	0	660602880	52	6821
2026-01-19 15:16:32.01	356.53	57.98	-40.7	-41.8	21.9	0.00e+00	67	41	0	661651456	54	6266
2026-01-19 15:16:33.02	356.09	58.33	-41.7	-43.0	21.0	0.00e+00	0	41	0	663748608	54	7188
2026-01-19 15:16:34.03	355.65	58.67	-41.3	-42.5	21.4	0.00e+00	0	41	0	665845760	54	6846
2026-01-19 15:16:35.04	355.19	59.02	-41.2	-42.4	21.4	0.00e+00	0	41	0	667942912	54	6767
2026-01-19 15:16:36.05	354.72	59.36	-41.0	-42.2	21.7	0.00e+00	0	41	0	670040064	54	6590
2026-01-19 15:16:37.06	354.24	59.71	-41.0	-42.2	21.5	0.00e+00	28	41	0	671088640	54	6615
2026-01-19 15:16:38.07	353.75	60.05	-41.0	-42.2	21.6	0.00e+00	0	41	0	673185792	54	6603
2026-01-19 15:16:39.08	353.24	60.40	-40.5	-41.6	22.2	0.00e+00	36	41	0	675282944	54	6139
2026-01-19 15:16:40.09	352.71	60.74	-40.1	-41.1	22.5	0.00e+00	0	41	0	677380096	52	6475
2026-01-19 15:16:41.10	352.18	61.08	-40.7	-41.8	21.9	0.00e+00	0	41	0	679477248	54	6281
2026-01-19 15:16:42.11	351.63	61.43	-41.0	-42.2	21.2	0.00e+00	0	41	0	680525824	54	6572
2026-01-19 15:16:43.12	351.06	61.77	-40.3	-41.3	22.5	0.00e+00	0	41	0	682622976	54	5949
2026-01-19 15:16:44.13	350.47	62.11	-40.0	-40.9	22.8	0.00e+00	26	41	0	684720128	52	6355
2026-01-19 15:16:45.13	349.88	62.45	-40.4	-41.4	22.2	0.00e+00	0	41	0	686817280	52	6717
2026-01-19 15:16:46.14	349.26	62.79	-41.3	-42.5	21.4	0.00e+00	92	41	0	688914432	54	6770
2026-01-19 15:16:47.16	348.62	63.13	-40.5	-41.7	22.2	0.00e+00	0	41	0	689963008	54	6184
2026-01-19 15:16:48.17	347.97	63.47	-39.2	-40.2	23.4	0.00e+00	0	41	0	692060160	52	5874
2026-01-19 15:16:49.18	347.29	63.81	-38.4	-39.3	24.0	0.00e+00	0	41	0	694157312	50	5942
2026-01-19 15:16:50.19	346.60	64.14	-37.9	-38.7	24.4	0.00e+00	0	41	0	696254464	50	5538
2026-01-19 15:16:51.20	345.89	64.47	-38.2	-39.1	24.1	0.00e+00	54	41	0	698351616	50	5793
2026-01-19 15:16:52.21	345.15	64.80	-39.1	-40.0	23.6	0.00e+00	0	41	0	699400192	50	6447
2026-01-19 15:16:53.22	344.40	65.13	-39.6	-40.6	23.2	0.00e+00	92	41	0	701497344	50	6854
2026-01-19 15:16:54.23	343.62	65.46	-39.7	-40.7	23.1	0.00e+00	0	41	0	703594496	50	6969
2026-01-19 15:16:55.23	342.83	65.78	-39.1	-40.0	23.5	0.00e+00	85	41	0	705691648	50	6437
2026-01-19 15:16:56.24	342.00	66.09	-38.7	-39.6	23.0	0.00e+00	0	41	0	707788800	50	6147
2026-01-19 15:16:57.25	341.15	66.41	-39.9	-40.9	22.5	0.00e+00	0	41	0	708837376	52	6385
2026-01-19 15:16:58.26	340.28	66.72	-41.4	-42.6	21.2	0.00e+00	0	41	0	710934528	54	6882
2026-01-19 15:16:59.27	339.37	67.03	-41.8	-43.0	20.7	0.00e+00	0	41	0	713031680	56	6457
2026-01-19 15:17:00.28	338.45	67.33	-42.0	-43.4	20.7	0.00e+00	91	41	0	715128832	56	6716
2026-01-19 15:17:01.29	337.49	67.63	-43.3	-45.0	19.2	0.00e+00	0	41	0	717225984	58	7193
2026-01-19 15:17:02.30	336.51	67.93	-44.0	-45.9	18.2	0.00e+00	15	41	0	719323136	60	7149
2026-01-19 15:17:03.31	335.49	68.22	-44.1	-46.1	18.2	0.00e+00	0	41	0	720371712	60	7292
2026-01-19 15:17:04.32	334.45	68.50	-43.5	-45.1	19.2	0.00e+00	0	41	0	722468864	60	6506
2026-01-19 15:17:05.33	333.38	68.78	-42.9	-44.4	19.8	0.00e+00	0	41	0	724566016	58	6698
2026-01-19 15:17:06.34	332.28	69.05	-44.0	-45.8	18.5	0.00e+00	0	41	0	726663168	60	7063
2026-01-19 15:17:07.35	331.14	69.31	-43.9	-45.7	18.2	0.00e+00	92	41	0	728760320	60	6995
2026-01-19 15:17:08.36	329.98	69.57	-43.4	-45.0	19.1	0.00e+00	0	41	0	729808896	60	6450
2026-01-19 15:17:09.37	328.78	69.82	-41.9	-43.1	20.9	0.00e+00	43	41	0	731906048	58	5792
2026-01-19 15:17:10.38	327.56	70.06	-41.2	-42.4	21.6	0.00e+00	33	41	0	734003200	56	5975
2026-01-19 15:17:11.39	326.30	70.30	-41.0	-42.1	21.0	0.00e+00	0	41	0	736100352	56	5825
2026-01-19 15:17:12.40	325.00	70.52	-42.0	-43.3	20.5	0.00e+00	0	41	0	738197504	56	6625
2026-01-19 15:17:13.41	323.68	70.74	-42.0	-43.3	20.7	0.00e+00	0	41	0	739246080	56	6648
2026-01-19 15:17:14.42	322.33	70.95	-41.3	-42.4	21.3	0.00e+00	47	41	0	741343232	56	6004
2026-01-19 15:17:15.43	320.94	71.14	-41.7	-42.9	20.8	0.00e+00	0	41	0	743440384	56	6378
2026-01-19 15:17:16.44	319.52	71.33	-40.8	-41.9	21.7	0.00e+00	50	41	0	745537536	56	5668
2026-01-19 15:17:17.45	318.08	71.51	-40.8	-41.8	21.9	0.00e+00	0	41	0	747634688	54	6299
2026-01-19 15:17:18.46	316.60	71.67	-40.4	-41.4	22.2	0.00e+00	0	41	0	748683264	54	5987
2026-01-19 15:17:19.47	315.10	71.82	-41.0	-42.2	21.7	0.00e+00	0	41	0	750780416	54	6540
2026-01-19 15:17:20.48	313.57	71.97	-42.2	-43.6	20.5	0.00e+00	0	41	0	752877568	56	6909
2026-01-19 15:17:21.49	312.02	72.09	-43.1	-44.6	19.6	0.00e+00	32	41	0	754974720	58	6904
2026-01-19 15:17:22.50	310.45	72.21	-43.3	-44.9	19.6	0.00e+00	0	41	0	757071872	58	7131
2026-01-19 15:17:23.51	308.85	72.32	-43.9	-45.6	18.6	0.00e+00	91	41	0	758120448	60	6892
2026-01-19 15:17:24.52	307.23	72.41	-44.0	-45.8	18.5	0.00e+00	0	41	0	760217600	60	7014
2026-01-19 15:17:25.53	305.60	72.48	-43.2	-44.7	19.6	0.00e+00	0	41	0	762314752	60	6228
2026-01-19 15:17:26.54	303.96	72.55	-42.8	-44.2	19.8	0.00e+00	0	41	0	764411904	58	6543
2026-01-19 15:17:27.55	302.30	72.60	-43.9	-45.7	18.6	0.00e+00	0	41	0	766509056	60	6942
2026-01-19 15:17:28.56	300.64	72.63	-43.2	-44.7	19.5	0.00e+00	24	41	0	767557632	60	6223
2026-01-19 15:17:29.57	298.96	72.66	-42.6	-44.0	20.2	0.00e+00	0	41	0	769654784	58	6437
2026-01-19 15:17:30.58	297.29	72.66	-42.9	-44.5	19.7	0.00e+00	48	41	0	771751936	58	6796
2026-01-19 15:17:31.59	295.62	72.66	-42.6	-44.1	20.1	0.00e+00	0	41	0	773849088	58	6512
2026-01-19 15:17:32.60	293.94	72.64	-41.6	-42.8	21.3	0.00e+00	50	41	0	775946240	56	6272
2026-01-19 15:17:33.61	292.28	72.60	-40.8	-41.9	22.2	0.00e+00	0	41	0	776994816	56	5631
2026-01-19 15:17:34.62	290.62	72.55	-40.3	-41.3	22.4	0.00e+00	0	41	0	779091968	54	5964
2026-01-19 15:17:35.63	288.97	72.49	-40.4	-41.5	22.4	0.00e+00	0	41	0	781189120	54	6055
2026-01-19 15:17:36.64	287.34	72.42	-39.7	-40.6	22.0	0.00e+00	0	41	0	783286272	54	5476
2026-01-19 15:17:37.65	285.72	72.33	-39.6	-40.5	22.8	0.00e+00	50	41	0	785383424	52	6098
2026-01-19 15:17:38.66	284.12	72.23	-40.5	-41.6	22.2	0.00e+00	0	41	0	787480576	52	6887
2026-01-19 15:17:39.67	282.54	72.11	-40.8	-41.9	22.1	0.00e+00	37	41	0	788529152	54	6344
2026-01-19 15:17:40.68	280.99	71.98	-41.8	-43.0	21.0	0.00e+00	0	41	0	790626304	54	7227
2026-01-19 15:17:41.69	279.45	71.84	-42.4	-43.7	20.4	0.00e+00	0	41	0	792723456	56	6951
2026-01-19 15:17:42.69	277.96	71.69	-41.0	-42.1	22.0	0.00e+00	0	41	0	794820608	56	5778
2026-01-19 15:17:43.70	276.48	71.53	-41.0	-42.1	21.5	0.00e+00	0	41	0	796917760	54	6506
2026-01-19 15:17:44.71	275.03	71.35	-42.6	-44.0	20.6	0.00e+00	52	41	0	797966336	56	7177
2026-01-19 15:17:45.72	273.61	71.17	-43.3	-44.8	19.4	0.00e+00	0	41	0	800063488	58	7081
2026-01-19 15:17:46.73	272.22	70.97	-43.6	-45.1	19.0	0.00e+00	81	41	0	802160640	58	7314
2026-01-19 15:17:47.74	270.86	70.77	-42.7	-44.0	20.3	0.00e+00	0	41	0	804257792	58	6404
2026-01-19 15:17:48.75	269.53	70.55	-42.3	-43.7	20.4	0.00e+00	0	41	0	806354944	58	6177
2026-01-19 15:17:49.76	268.24	70.33	-44.2	-45.9	18.2	0.00e+00	0	41	0	807403520	60	7165
2026-01-19 15:17:50.76	266.98	70.10	-45.2	-47.3	17.4	0.00e+00	0	41	0	809500672	60	8414
2026-01-19 15:17:51.77	265.75	69.85	-44.3	-45.9	18.4	0.00e+00	52	41	0	811597824	60	7132
2026-01-19 15:17:52.78	264.55	69.61	-45.1	-47.0	17.3	0.00e+00	0	41	0	813694976	60	8121
2026-01-19 15:17:53.79	263.38	69.35	-43.7	-45.3	19.4	0.00e+00	92	41	0	815792128	60	6619
2026-01-19 15:17:54.80	262.24	69.08	-42.6	-43.8	20.5	0.00e+00	0	41	0	816840704	58	6300
2026-01-19 15:17:55.81	261.13	68.81	-42.6	-43.9	20.3	0.00e+00	0	41	0	818937856	58	6371
2026-01-19 15:17:56.82	260.06	68.54	-43.5	-44.9	19.6	0.00e+00	0	41	0	821035008	58	7163
2026-01-19 15:17:57.83	259.01	68.25	-43.0	-44.4	20.0	0.00e+00	0	41	0	823132160	58	6697
2026-01-19 15:17:58.84	257.99	67.96	-43.0	-44.3	20.0	0.00e+00	53	41	0	825229312	58	6664
2026-01-19 15:17:59.85	257.00	67.67	-41.7	-42.9	21.3	0.00e+00	0	41	0	826277888	58	5647
2026-01-19 15:18:00.86	256.04	67.37	-40.4	-41.3	22.6	0.00e+00	92	41	0	828375040	54	5960
2026-01-19 15:18:01.87	255.11	67.07	-41.0	-42.1	22.0	0.00e+00	0	41	0	830472192	54	6485
2026-01-19 15:18:02.88	254.20	66.76	-42.2	-43.5	20.7	0.00e+00	10	41	0	832569344	56	6828
2026-01-19 15:18:03.89	253.32	66.45	-41.6	-42.7	21.5	0.00e+00	0	41	0	834666496	56	6214
2026-01-19 15:18:04.90	252.47	66.13	-40.8	-41.8	22.6	0.00e+00	0	41	0	835715072	56	5609
2026-01-19 15:18:05.91	251.64	65.81	-40.9	-42.0	22.2	0.00e+00	0	41	0	837812224	54	6431
2026-01-19 15:18:06.92	250.83	65.49	-40.3	-41.4	22.5	0.00e+00	0	41	0	839909376	54	5983
2026-01-19 15:18:07.92	250.06	65.17	-40.6	-41.6	22.3	0.00e+00	73	41	0	842006528	54	6161
2026-01-19 15:18:08.93	249.30	64.84	-41.4	-42.5	22.1	0.00e+00	0	41	0	844103680	54	6790
2026-01-19 15:18:09.94	248.56	64.51	-39.0	-39.9	23.8	0.00e+00	0	41	0	845152256	52	5645
2026-01-19 15:18:10.95	247.84	64.18	-38.9	-39.7	23.9	0.00e+00	0	41	0	847249408	50	6223
2026-01-19 15:18:11.96	247.15	63.84	-39.0	-39.9	23.6	0.00e+00	0	41	0	849346560	50	6350
2026-01-19 15:18:12.97	246.47	63.51	-39.0	-39.9	23.4	0.00e+00	0	41	0	851443712	50	6385
2026-01-19 15:18:13.98	245.81	63.17	-38.5	-39.3	24.0	0.00e+00	0	41	0	853540864	50	5943
2026-01-19 15:18:14.99	245.18	62.83	-38.2	-39.0	24.1	0.00e+00	92	41	0	855638016	50	5741
2026-01-19 15:18:16.00	244.56	62.49	-38.6	-39.5	23.6	0.00e+00	0	41	0	856686592	50	6097
2026-01-19 15:18:17.01	243.95	62.15	-38.8	-39.7	23.7	0.00e+00	45	41	0	858783744	50	6201
2026-01-19 15:18:18.01	243.37	61.81	-38.7	-39.7	23.6	0.00e+00	0	41	0	860880896	50	6196
2026-01-19 15:18:19.02	242.80	61.46	-38.9	-39.9	23.1	0.00e+00	0	41	0	862978048	50	6329
2026-01-19 15:18:20.03	242.25	61.12	-40.2	-41.3	22.4	0.00e+00	0	41	0	864026624	52	6674
2026-01-19 15:18:21.04	241.71	60.78	-40.0	-41.1	22.3	0.00e+00	0	41	0	866123776	52	6479
2026-01-19 15:18:22.05	241.18	60.43	-40.5	-41.6	22.3	0.00e+00	92	41	0	868220928	54	6142
2026-01-19 15:18:23.06	240.67	60.08	-40.4	-41.4	22.3	0.00e+00	0	41	0	870318080	54	6004
2026-01-19 15:18:24.07	240.17	59.74	-40.0	-41.0	22.7	0.00e+00	92	41	0	872415232	52	6416
2026-01-19 15:18:25.08	239.69	59.39	-40.9	-42.1	21.6	0.00e+00	0	41	0	873463808	54	6496
2026-01-19 15:18:26.09	239.22	59.05	-41.5	-42.8	21.3	0.00e+00	11	41	0	875560960	54	7062
2026-01-19 15:18:27.10	238.76	58.70	-40.5	-41.6	22.2	0.00e+00	0	41	0	877658112	54	6112
2026-01-19 15:18:28.11	238.31	58.36	-39.4	-40.4	23.1	0.00e+00	0	41	0	879755264	52	5970
2026-01-19 15:18:29.12	237.88	58.01	-39.3	-40.2	23.2	0.00e+00	55	41	0	881852416	52	5895
2026-01-19 15:18:30.13	237.45	57.67	-39.5	-40.5	22.9	0.00e+00	0	41	0	883949568	52	6057
2026-01-19 15:18:31.14	237.04	57.33	-40.0	-41.0	22.7	0.00e+00	92	41	0	884998144	52	6410
2026-01-19 15:18:32.15	236.63	56.98	-39.9	-40.9	22.7	0.00e+00	33	41	0	887095296	52	6348
2026-01-19 15:18:33.15	236.24	56.64	-40.2	-41.2	22.5	0.00e+00	0	41	0	889192448	52	6576
2026-01-19 15:18:34.16	235.86	56.30	-38.9	-39.8	23.3	0.00e+00	0	41	0	891289600	52	5569
2026-01-19 15:18:35.17	235.49	55.96	-37.4	-38.2	24.7	0.00e+00	0	41	0	893386752	48	5881
2026-01-19 15:18:36.18	235.12	55.62	-36.8	-37.6	25.0	0.00e+00	51	41	0	894435328	48	5452
2026-01-19 15:18:37.19	234.76	55.29	-37.8	-38.7	24.4	0.00e+00	0	41	0	896532480	48	6175
2026-01-19 15:18:38.20	234.42	54.95	-38.5	-39.4	23.9	0.00e+00	92	41	0	898629632	48	6702
2026-01-19 15:18:39.21	234.08	54.61	-38.3	-39.1	24.0	0.00e+00	0	41	0	900726784	48	6516
2026-01-19 15:18:40.22	233.74	54.28	-38.8	-39.7	23.4	0.00e+00	0	41	0	902823936	50	6207
2026-01-19 15:18:41.23	233.42	53.94	-40.4	-41.6	22.1	0.00e+00	0	41	0	903872512	52	6855
2026-01-19 15:18:42.24	233.10	53.61	-40.8	-41.9	21.6	0.00e+00	0	41	0	905969664	54	6389
2026-01-19 15:18:43.25	232.79	53.28	-40.2	-41.2	22.4	0.00e+00	52	41	0	908066816	54	5896
2026-01-19 15:18:44.26	232.49	52.95	-41.4	-42.7	21.2	0.00e+00	0	41	0	910163968	54	6984
2026-01-19 15:18:45.27	232.20	52.62	-41.8	-43.1	20.8	0.00e+00	53	41	0	912261120	56	6482
2026-01-19 15:18:46.28	231.91	52.29	-41.0	-42.2	21.6	0.00e+00	0	41	0	913309696	56	5845
2026-01-19 15:18:47.29	231.62	51.97	-40.7	-41.9	22.0	0.00e+00	0	41	0	915406848	54	6325
2026-01-19 15:18:48.30	231.35	51.64	-41.3	-42.6	21.4	0.00e+00	0	41	0	917504000	54	6851
2026-01-19 15:18:49.30	231.08	51.32	-41.3	-42.4	21.4	0.00e+00	0	41	0	919601152	54	6769
2026-01-19 15:18:50.32	230.81	51.00	-40.8	-41.9	22.0	0.00e+00	49	41	0	921698304	54	6364
2026-01-19 15:18:51.33	230.55	50.68	-40.6	-41.7	22.1	0.00e+00	0	41	0	922746880	54	6196
2026-01-19 15:18:52.33	230.30	50.36	-40.9	-42.0	21.8	0.00e+00	43	41	0	924844032	54	6423
2026-01-19 15:18:53.35	230.05	50.04	-40.6	-41.6	22.2	0.00e+00	0	41	0	926941184	54	6169
2026-01-19 15:18:54.35	229.81	49.73	-39.4	-40.4	23.1	0.00e+00	86	41	0	929038336	52	5971
2026-01-19 15:18:55.36	229.57	49.42	-39.0	-39.9	23.4	0.00e+00	0	41	0	931135488	52	5692
2026-01-19 15:18:56.37	229.34	49.10	-39.1	-40.0	23.4	0.00e+00	0	41	0	932184064	50	6406
2026-01-19 15:18:57.38	229.11	48.79	-39.3	-40.2	23.3	0.00e+00	0	41	0	934281216	50	6558
2026-01-19 15:18:58.39	228.89	48.49	-38.7	-39.5	23.5	0.00e+00	0	41	0	936378368	50	6077
2026-01-19 15:18:59.40	228.67	48.18	-39.5	-40.4	23.0	0.00e+00	29	41	0	938475520	50	6750
2026-01-19 15:19:00.41	228.45	47.87	-40.5	-41.5	22.1	0.00e+00	0	41	0	940572672	52	6825
2026-01-19 15:19:01.42	228.24	47.57	-41.3	-42.6	21.3	0.00e+00	83	41	0	941621248	54	6850
2026-01-19 15:19:02.43	228.04	47.27	-41.0	-42.1	21.7	0.00e+00	0	41	0	943718400	54	6522
2026-01-19 15:19:03.44	227.83	46.97	-40.8	-41.9	21.9	0.00e+00	0	41	0	945815552	54	6376
2026-01-19 15:19:04.45	227.63	46.67	-41.4	-42.6	21.1	0.00e+00	0	41	0	947912704	54	6908
2026-01-19 15:19:05.46	227.44	46.37	-42.9	-44.5	19.5	0.00e+00	0	41	0	950009856	58	6778
2026-01-19 15:19:06.47	227.25	46.08	-43.5	-45.3	18.9	0.00e+00	36	41	0	952107008	58	7426
2026-01-19 15:19:07.47	227.06	45.79	-42.4	-43.9	20.2	0.00e+00	0	41	0	953155584	58	6331
2026-01-19 15:19:08.48	226.88	45.50	-41.6	-42.8	21.2	0.00e+00	81	41	0	955252736	56	6268
2026-01-19 15:19:09.49	226.70	45.21	-41.3	-42.6	21.2	0.00e+00	0	41	0	957349888	54	6853
2026-01-19 15:19:10.50	226.52	44.92	-42.0	-43.3	20.6	0.00e+00	0	41	0	959447040	56	6668
2026-01-19 15:19:11.51	226.35	44.63	-42.0	-43.4	20.2	0.00e+00	0	41	0	961544192	56	6738
2026-01-19 15:19:12.52	226.17	44.35	-42.0	-43.3	20.6	0.00e+00	0	41	0	962592768	56	6689
2026-01-19 15:19:13.53	226.01	44.07	-42.0	-43.4	20.6	0.00e+00	0	41	0	964689920	56	6734
2026-01-19 15:19:14.54	225.84	43.79	-43.4	-45.2	18.6	0.00e+00	0	41	0	966787072	58	7367
2026-01-19 15:19:15.55	225.68	43.51	-44.7	-47.0	17.0	0.00e+00	76	41	0	968884224	60	8114
2026-01-19 15:19:16.56	225.52	43.23	-45.9	-48.9	16.0	0.00e+00	0	41	0	970981376	60	10019
2026-01-19 15:19:17.57	225.36	42.96	-44.2	-46.2	17.8	0.00e+00	92	41	0	972029952	60	7421
2026-01-19 15:19:18.58	225.21	42.68	-44.1	-46.0	18.2	0.00e+00	0	41	0	974127104	60	7197
2026-01-19 15:19:19.59	225.06	42.41	-43.7	-45.5	18.5	0.00e+00	0	41	0	976224256	60	6846
2026-01-19 15:19:20.59	224.91	42.14	-43.9	-45.8	18.5	0.00e+00	0	41	0	978321408	60	7031
2026-01-19 15:19:21.60	224.77	41.87	-43.2	-44.9	19.3	0.00e+00	0	41	0	980418560	60	6352
2026-01-19 15:19:22.61	224.62	41.61	-43.0	-44.6	19.6	0.00e+00	79	41	0	981467136	58	6855
2026-01-19 15:19:23.62	224.48	41.34	-42.0	-43.4	20.7	0.00e+00	0	41	0	983564288	56	6712
2026-01-19 15:19:24.63	224.34	41.08	-41.2	-42.4	21.6	0.00e+00	92	41	0	985661440	56	5972
2026-01-19 15:19:25.64	224.21	40.82	-40.9	-42.0	21.7	0.00e+00	33	41	0	987758592	56	5725
2026-01-19 15:19:26.65	224.07	40.56	-41.5	-42.7	21.1	0.00e+00	0	41	0	989855744	56	6233
2026-01-19 15:19:27.66	223.94	40.30	-41.6	-42.8	21.2	0.00e+00	0	41	0	990904320	56	6249
2026-01-19 15:19:28.67	223.81	40.04	-42.8	-44.2	19.8	0.00e+00	0	41	0	993001472	58	6589
2026-01-19 15:19:29.68	223.68	39.79	-43.7	-45.4	18.9	0.00e+00	75	41	0	995098624	58	7556
2026-01-19 15:19:30.69	223.55	39.53	-43.3	-44.9	19.0	0.00e+00	0	41	0	997195776	58	7118
2026-01-19 15:19:31.70	223.43	39.28	-43.4	-45.0	19.2	0.00e+00	75	41	0	999292928	60	6400
2026-01-19 15:19:32.71	223.31	39.03	-43.5	-45.1	19.1	0.00e+00	0	41	0	1000341504	60	6539
2026-01-19 15:19:33.72	223.19	38.79	-44.2	-46.1	18.3	0.00e+00	0	41	0	1002438656	60	7335
2026-01-19 15:19:34.73	223.07	38.54	-44.5	-46.5	17.5	0.00e+00	0	41	0	1004535808	60	7675
2026-01-19 15:19:35.74	222.95	38.29	-44.7	-46.8	17.5	0.00e+00	0	41	0	1006632960	60	7929
2026-01-19 15:19:36.75	222.84	38.05	-44.5	-46.5	18.0	0.00e+00	91	41	0	1008730112	60	7607
2026-01-19 15:19:37.76	222.73	37.81	-43.1	-44.6	20.0	0.00e+00	0	41	0	1009778688	60	6160
2026-01-19 15:19:38.77	222.61	37.57	-41.1	-42.2	21.7	0.00e+00	91	41	0	1011875840	56	5839
2026-01-19 15:19:39.78	222.51	37.33	-40.8	-41.9	22.2	0.00e+00	0	41	0	1013972992	56	5641
2026-01-19 15:19:40.79	222.40	37.09	-39.7	-40.7	22.4	0.00e+00	0	41	0	1016070144	54	5526
2026-01-19 15:19:41.80	222.29	36.86	-39.6	-40.6	22.9	0.00e+00	0	41	0	1018167296	52	6167
2026-01-19 15:19:42.81	222.19	36.62	-39.6	-40.5	23.0	0.00e+00	0	41	0	1020264448	52	6085
2026-01-19 15:19:43.82	222.08	36.39	-39.9	-40.9	22.7	0.00e+00	49	41	0	1021313024	52	6369
2026-01-19 15:19:44.83	221.98	36.16	-39.7	-40.7	22.9	0.00e+00	0	41	0	1023410176	52	6176
2026-01-19 15:19:45.84	221.88	35.93	-39.8	-40.7	22.8	0.00e+00	92	41	0	1025507328	52	6230
2026-01-19 15:19:46.85	221.78	35.70	-40.5	-41.6	22.3	0.00e+00	0	41	0	1027604480	52	6864
2026-01-19 15:19:47.86	221.68	35.48	-41.0	-42.2	21.7	0.00e+00	0	41	0	1029701632	54	6550
2026-01-19 15:19:48.87	221.59	35.25	-42.1	-43.4	20.5	0.00e+00	0	41	0	1030750208	56	6737
2026-01-19 15:19:49.88	221.49	35.03	-43.3	-44.9	19.2	0.00e+00	0	41	0	1032847360	58	7163
2026-01-19 15:19:50.89	221.40	34.81	-44.3	-46.2	17.9	0.00e+00	17	41	0	1034944512	60	7373
2026-01-19 15:19:51.90	221.31	34.59	-44.4	-46.2	18.2	0.00e+00	0	41	0	1037041664	60	7398
2026-01-19 15:19:52.91	221.22	34.37	-44.2	-46.0	18.4	0.00e+00	92	41	0	1039138816	60	7215
2026-01-19 15:19:53.92	221.13	34.15	-43.4	-45.0	19.2	0.00e+00	0	41	0	1040187392	60	6434
2026-01-19 15:19:54.93	221.04	33.94	-43.0	-44.5	19.3	0.00e+00	17	41	0	1042284544	60	6092
2026-01-19 15:19:55.94	220.95	33.72	-42.9	-44.4	19.9	0.00e+00	0	41	0	1044381696	60	6019
2026-01-19 15:19:56.95	220.87	33.51	-42.9	-44.4	19.5	0.00e+00	0	41	0	1046478848	58	6754
2026-01-19 15:19:57.96	220.78	33.30	-42.5	-43.9	20.1	0.00e+00	33	41	0	1048576000	58	6343
2026-01-19 15:19:58.97	220.70	33.09	-42.4	-43.8	20.3	0.00e+00	33	41	0	1049624576	58	6304
2026-01-19 15:19:59.98	220.62	32.88	-42.1	-43.4	20.5	0.00e+00	92	41	0	1051721728	58	5974
2026-01-19 15:20:00.99	220.53	32.67	-41.6	-42.8	21.1	0.00e+00	0	41	0	1053818880	56	6283
2026-01-19 15:20:02.00	220.45	32.47	-41.4	-42.6	21.2	0.00e+00	43	41	0	1055916032	56	6133
2026-01-19 15:20:03.01	220.37	32.26	-41.4	-42.6	21.4	0.00e+00	0	41	0	1058013184	56	6135
2026-01-19 15:20:04.02	220.30	32.06	-41.7	-42.9	21.0	0.00e+00	0	41	0	1059061760	56	6370
2026-01-19 15:20:05.03	220.22	31.85	-41.8	-43.0	20.8	0.00e+00	0	41	0	1061158912	56	6463
2026-01-19 15:20:06.05	220.14	31.65	-41.7	-43.0	20.9	0.00e+00	0	41	0	1063256064	56	6426
2026-01-19 15:20:07.06	220.07	31.45	-42.2	-43.5	20.5	0.00e+00	90	41	0	1065353216	56	6790
2026-01-19 15:20:08.07	219.99	31.25	-42.4	-43.7	20.3	0.00e+00	0	41	0	1067450368	56	6992
2026-01-19 15:20:09.08	219.92	31.06	-42.4	-43.7	20.2	0.00e+00	90	41	0	1068498944	58	6217
2026-01-19 15:20:10.09	219.85	30.86	-42.8	-44.3	19.6	0.00e+00	0	41	0	1070596096	58	6619
2026-01-19 15:20:11.09	219.77	30.67	-43.6	-45.3	18.9	0.00e+00	0	41	0	1072693248	58	7433
2026-01-19 15:20:12.10	219.70	30.48	-43.8	-45.5	18.6	0.00e+00	0	41	0	1074790400	60	6844
2026-01-19 15:20:13.11	219.63	30.28	-44.7	-46.7	17.6	0.00e+00	33	41	0	1076887552	60	7847
2026-01-19 15:20:14.12	219.57	30.09	-44.9	-47.0	17.2	0.00e+00	44	41	0	1077936128	60	8122
2026-01-19 15:20:15.13	219.50	29.90	-45.0	-47.2	17.0	0.00e+00	0	41	0	1080033280	60	8239
2026-01-19 15:20:16.14	219.43	29.72	-45.1	-47.2	17.4	0.00e+00	80	41	0	1082130432	60	8264
2026-01-19 15:20:17.15	219.36	29.53	-44.7	-46.7	17.7	0.00e+00	0	41	0	1084227584	60	7796
2026-01-19 15:20:18.16	219.30	29.34	-44.9	-46.9	18.1	0.00e+00	0	41	0	1086324736	60	7994
2026-01-19 15:20:19.17	219.23	29.16	-44.8	-46.8	17.4	0.00e+00	0	41	0	1088421888	60	7884
2026-01-19 15:20:20.18	219.17	28.97	-44.3	-46.2	18.0	0.00e+00	0	41	0	1089470464	60	7366
2026-01-19 15:20:21.19	219.11	28.79	-44.0	-45.8	18.2	0.00e+00	27	41	0	1091567616	60	7081
2026-01-19 15:20:22.20	219.04	28.61	-44.3	-46.2	18.1	0.00e+00	0	41	0	1093664768	60	7384
2026-01-19 15:20:23.21	218.98	28.43	-44.0	-45.8	18.1	0.00e+00	90	41	0	1095761920	60	7076
2026-01-19 15:20:24.22	218.92	28.25	-43.6	-45.3	18.9	0.00e+00	0	41	0	1097859072	60	6628
2026-01-19 15:20:25.23	218.86	28.07	-43.3	-44.8	19.3	0.00e+00	0	41	0	1098907648	60	6300
2026-01-19 15:20:26.24	218.80	27.90	-42.4	-43.7	20.2	0.00e+00	0	41	0	1101004800	58	6243
2026-01-19 15:20:27.25	218.74	27.72	-41.7	-42.9	21.0	0.00e+00	0	41	0	1103101952	58	5659
2026-01-19 15:20:28.26	218.68	27.54	-41.3	-42.5	21.3	0.00e+00	16	41	0	1105199104	56	6070
2026-01-19 15:20:29.28	218.62	27.37	-41.0	-42.0	21.8	0.00e+00	0	41	0	1107296256	56	5754
2026-01-19 15:20:30.29	218.57	27.20	-40.6	-41.7	21.9	0.00e+00	92	41	0	1108344832	54	6193
2026-01-19 15:20:31.29	218.51	27.03	-40.4	-41.4	22.2	0.00e+00	0	41	0	1110441984	54	5999
2026-01-19 15:20:32.30	218.45	26.86	-39.9	-40.8	22.7	0.00e+00	92	41	0	1112539136	54	5630
2026-01-19 15:20:33.32	218.40	26.69	-39.7	-40.6	22.8	0.00e+00	0	41	0	1114636288	52	6160
2026-01-19 15:20:34.32	218.34	26.52	-39.5	-40.4	23.1	0.00e+00	0	41	0	1116733440	52	6003
2026-01-19 15:20:35.33	218.29	26.35	-39.3	-40.2	23.1	0.00e+00	46	41	0	1117782016	52	5855
2026-01-19 15:20:36.34	218.24	26.18	-39.4	-40.3	23.0	0.00e+00	0	41	0	1119879168	52	5947
2026-01-19 15:20:37.35	218.18	26.02	-40.0	-41.0	22.5	0.00e+00	27	41	0	1121976320	52	6408
2026-01-19 15:20:38.36	218.13	25.85	-40.1	-41.1	22.5	0.00e+00	0	41	0	1124073472	52	6529
2026-01-19 15:20:39.37	218.08	25.69	-40.5	-41.6	21.9	0.00e+00	92	41	0	1126170624	52	6866
2026-01-19 15:20:40.38	218.03	25.53	-41.6	-42.8	20.9	0.00e+00	0	41	0	1127219200	54	7070
2026-01-19 15:20:41.39	217.98	25.37	-42.2	-43.5	20.4	0.00e+00	0	41	0	1129316352	56	6833
2026-01-19 15:20:42.40	217.93	25.21	-42.8	-44.4	19.6	0.00e+00	0	41	0	1131413504	58	6708
2026-01-19 15:20:43.41	217.88	25.05	-43.1	-44.7	19.3	0.00e+00	0	41	0	1133510656	58	6979
2026-01-19 15:20:44.42	217.83	24.89	-43.3	-45.0	19.1	0.00e+00	31	41	0	1135607808	58	7196
2026-01-19 15:20:45.43	217.78	24.73	-43.7	-45.5	18.5	0.00e+00	0	41	0	1136656384	60	6799
2026-01-19 15:20:46.44	217.74	24.57	-43.9	-45.8	18.4	0.00e+00	92	41	0	1138753536	60	7047
2026-01-19 15:20:47.45	217.69	24.42	-43.6	-45.3	18.9	0.00e+00	0	41	0	1140850688	60	6648
2026-01-19 15:20:48.46	217.64	24.26	-43.5	-45.2	18.9	0.00e+00	0	41	0	1142947840	60	6586
2026-01-19 15:20:49.47	217.59	24.11	-43.3	-45.0	19.2	0.00e+00	0	41	0	1145044992	60	6436
2026-01-19 15:20:50.47	217.55	23.96	-42.5	-44.0	20.0	0.00e+00	0	41	0	1146093568	58	6410
2026-01-19 15:20:51.48	217.50	23.80	-42.3	-43.7	20.2	0.00e+00	41	41	0	1148190720	58	6242
2026-01-19 15:20:52.49	217.46	23.65	-42.4	-43.9	20.1	0.00e+00	0	41	0	1150287872	58	6373
2026-01-19 15:20:53.50	217.41	23.50	-41.8	-43.1	20.8	0.00e+00	49	41	0	1152385024	58	5801
2026-01-19 15:20:54.51	217.37	23.35	-41.9	-43.2	20.6	0.00e+00	0	41	0	1154482176	56	6592
2026-01-19 15:20:55.52	217.33	23.20	-41.7	-43.0	20.8	0.00e+00	0	41	0	1155530752	56	6394
2026-01-19 15:20:56.53	217.28	23.05	-41.8	-43.1	20.8	0.00e+00	0	41	0	1157627904	56	6498
2026-01-19 15:20:57.53	217.24	22.91	-41.8	-43.2	20.9	0.00e+00	0	41	0	1159725056	56	6554
2026-01-19 15:20:58.55	217.20	22.76	-41.4	-42.7	21.0	0.00e+00	42	41	0	1161822208	56	6223
2026-01-19 15:20:59.55	217.16	22.62	-41.6	-42.9	21.2	0.00e+00	0	41	0	1163919360	56	6329
2026-01-19 15:21:00.56	217.12	22.47	-41.7	-43.0	21.0	0.00e+00	92	41	0	1166016512	56	6413
2026-01-19 15:21:01.57	217.07	22.33	-41.5	-42.7	21.2	0.00e+00	0	41	0	1167065088	56	6240
2026-01-19 15:21:02.58	217.03	22.18	-41.2	-42.5	21.4	0.00e+00	0	41	0	1169162240	56	6046
2026-01-19 15:21:03.59	216.99	22.04	-41.2	-42.4	21.4	0.00e+00	0	41	0	1171259392	56	6011
2026-01-19 15:21:04.60	216.95	21.90	-41.0	-42.2	21.6	0.00e+00	0	41	0	1173356544	56	5849
2026-01-19 15:21:05.61	216.91	21.76	-40.5	-41.6	22.0	0.00e+00	43	41	0	1175453696	54	6132
2026-01-19 15:21:06.62	216.88	21.62	-40.4	-41.6	22.0	0.00e+00	0	41	0	1176502272	54	6113
2026-01-19 15:21:07.63	216.84	21.48	-40.1	-41.2	22.3	0.00e+00	91	41	0	1178599424	54	5881
2026-01-19 15:21:08.64	216.80	21.34	-40.2	-41.3	22.1	0.00e+00	0	41	0	1180696576	54	5959
2026-01-19 15:21:09.65	216.76	21.20	-40.3	-41.4	22.1	0.00e+00	9	41	0	1182793728	54	6018
2026-01-19 15:21:10.66	216.72	21.07	-40.5	-41.6	22.0	0.00e+00	0	41	0	1184890880	54	6129
2026-01-19 15:21:11.67	216.69	20.93	-40.3	-41.4	22.1	0.00e+00	0	41	0	1185939456	54	6017
2026-01-19 15:21:12.67	216.65	20.79	-40.3	-41.5	22.1	0.00e+00	0	41	0	1188036608	54	6041
2026-01-19 15:21:13.69	216.61	20.66	-40.5	-41.7	21.9	0.00e+00	0	41	0	1190133760	54	6197
2026-01-19 15:21:14.69	216.58	20.52	-40.5	-41.6	22.0	0.00e+00	67	41	0	1192230912	54	6142
2026-01-19 15:21:15.70	216.54	20.39	-40.6	-41.8	21.8	0.00e+00	0	41	0	1194328064	54	6263
2026-01-19 15:21:16.71	216.51	20.26	-40.9	-42.1	21.6	0.00e+00	92	41	0	1195376640	54	6487
2026-01-19 15:21:17.72	216.47	20.13	-40.8	-42.0	21.7	0.00e+00	0	41	0	1197473792	54	6449
2026-01-19 15:21:18.73	216.44	19.99	-40.7	-41.9	21.7	0.00e+00	0	41	0	1199570944	54	6324
2026-01-19 15:21:19.74	216.40	19.86	-40.7	-41.9	21.7	0.00e+00	0	41	0	1201668096	54	6350
2026-01-19 15:21:20.75	216.37	19.73	-40.8	-42.0	21.5	0.00e+00	0	41	0	1203765248	54	6441
2026-01-19 15:21:21.76	216.33	19.60	-40.7	-41.9	21.7	0.00e+00	92	41	0	1204813824	54	6341
2026-01-19 15:21:22.77	216.30	19.47	-40.6	-41.7	21.9	0.00e+00	0	41	0	1206910976	54	6200
2026-01-19 15:21:23.78	216.27	19.35	-40.6	-41.8	21.8	0.00e+00	73	41	0	1209008128	54	6262
