passes_logs/2026/01/19/R4.6S_Anadyr/R4.6S_Anadyr__20260119_005415_NOAA_21_JPSS-2_rec.log

#Pass ID: 20260119_005415_NOAA 21 (JPSS-2)
#Satellite: NOAA 21 (JPSS-2)
#Configuration: NOAA-21
#almurnet v.1.7.20251203
#Start time: 2026-01-19 00:54:16

#Version: 2.2.20231116
#Station: R4.6S_Anadyr
#Location: 177.4865 lon 64.73178 lat
#TLE: 1 54234U 22150A   26018.60745868  .00000048  00000+0  43754-4 0  9997
#TLE: 2 54234  98.7503 319.4636 0000607 264.0480  96.0627 14.19535445165329

#Time	Az	El	Level	Level2	SNR	BER	BlckErr	Temp	State	Recorded	gain1	gain2
2026-01-19 00:54:16.72	173.56	0.08	-50.0	-64.9	3.5	1.51e+00	0	38	0	0	60	63224
2026-01-19 00:54:17.72	173.58	0.14	-50.3	-63.1	3.5	1.52e+00	0	39	104	0	60	50015
2026-01-19 00:54:18.73	173.61	0.20	-50.1	-63.0	3.5	1.51e+00	0	39	104	0	60	49315
2026-01-19 00:54:19.74	173.63	0.26	-50.1	-63.1	3.5	1.52e+00	0	39	104	0	60	49918
2026-01-19 00:54:20.75	173.65	0.32	-50.2	-63.0	3.5	1.52e+00	0	39	104	0	60	49707
2026-01-19 00:54:21.77	173.68	0.38	-50.2	-63.0	3.5	1.52e+00	0	39	104	0	60	49717
2026-01-19 00:54:22.77	173.70	0.44	-50.2	-63.1	3.5	1.52e+00	0	39	104	0	60	50132
2026-01-19 00:54:23.79	173.73	0.51	-50.1	-62.9	3.5	1.51e+00	0	39	104	0	60	48949
2026-01-19 00:54:24.80	173.75	0.57	-50.2	-63.1	3.5	1.52e+00	0	39	104	0	60	50025
2026-01-19 00:54:25.81	173.78	0.63	-50.2	-63.0	3.5	1.52e+00	0	39	104	0	60	49570
2026-01-19 00:54:26.82	173.80	0.69	-50.3	-63.1	3.5	1.52e+00	0	39	104	0	60	50237
2026-01-19 00:54:27.83	173.83	0.75	-50.2	-63.0	3.5	1.52e+00	0	40	104	0	60	49568
2026-01-19 00:54:28.84	173.85	0.81	-50.2	-63.1	3.5	1.51e+00	0	39	104	0	60	49898
2026-01-19 00:54:29.85	173.88	0.87	-50.2	-63.0	3.5	1.52e+00	0	40	104	0	60	49701
2026-01-19 00:54:30.86	173.90	0.93	-50.1	-63.0	3.5	1.52e+00	0	40	104	0	60	49472
2026-01-19 00:54:31.87	173.93	0.99	-50.2	-63.1	3.5	1.52e+00	0	40	104	0	60	49915
2026-01-19 00:54:32.88	173.95	1.06	-50.1	-63.0	3.5	1.52e+00	0	40	104	0	60	49472
2026-01-19 00:54:33.89	173.98	1.12	-50.1	-62.9	3.5	1.52e+00	0	40	104	0	60	49192
2026-01-19 00:54:34.90	174.00	1.18	-50.1	-62.9	3.5	1.51e+00	0	40	104	0	60	49027
2026-01-19 00:54:35.91	174.03	1.24	-50.0	-62.9	3.5	1.52e+00	0	40	104	0	60	48808
2026-01-19 00:54:36.92	174.06	1.30	-49.9	-62.8	3.5	1.51e+00	0	40	104	0	60	48724
2026-01-19 00:54:37.92	174.08	1.37	-49.8	-62.6	3.5	1.52e+00	0	40	104	0	60	47386
2026-01-19 00:54:38.93	174.11	1.43	-49.7	-62.5	3.5	1.51e+00	0	40	104	0	60	46790
2026-01-19 00:54:39.95	174.13	1.49	-49.5	-62.4	3.5	1.52e+00	0	40	104	0	60	46037
2026-01-19 00:54:40.95	174.16	1.55	-49.3	-62.1	3.5	1.52e+00	0	40	104	0	60	44856
2026-01-19 00:54:41.96	174.19	1.62	-48.7	-61.3	3.5	1.52e+00	0	40	104	0	60	40581
2026-01-19 00:54:42.97	174.21	1.68	-48.5	-60.7	3.5	1.52e+00	0	40	104	0	60	38086
2026-01-19 00:54:43.98	174.24	1.74	-48.5	-60.8	3.5	1.52e+00	0	40	104	0	60	38525
2026-01-19 00:54:44.99	174.27	1.81	-48.5	-61.0	3.5	1.51e+00	0	40	104	0	60	39210
2026-01-19 00:54:46.00	174.29	1.87	-48.5	-61.0	3.5	1.52e+00	0	40	104	0	60	39592
2026-01-19 00:54:47.01	174.32	1.93	-48.5	-61.1	3.5	1.52e+00	0	40	104	0	60	39869
2026-01-19 00:54:48.02	174.35	2.00	-48.5	-61.2	3.5	1.52e+00	0	40	104	0	60	40171
2026-01-19 00:54:49.03	174.37	2.06	-48.6	-61.2	3.5	1.52e+00	0	40	104	0	60	40135
2026-01-19 00:54:50.04	174.40	2.12	-48.6	-61.2	3.5	1.52e+00	0	40	104	0	60	40237
2026-01-19 00:54:51.05	174.43	2.19	-48.6	-61.2	3.5	1.52e+00	0	40	104	0	60	40344
2026-01-19 00:54:52.06	174.45	2.25	-48.6	-61.3	3.5	1.52e+00	0	40	104	0	60	40561
2026-01-19 00:54:53.07	174.48	2.32	-48.5	-61.3	3.5	1.51e+00	0	40	104	0	60	40768
2026-01-19 00:54:54.08	174.51	2.38	-48.6	-61.2	3.5	1.52e+00	0	40	104	0	60	40144
2026-01-19 00:54:55.09	174.54	2.44	-48.5	-60.9	3.5	1.52e+00	0	40	104	0	60	38722
2026-01-19 00:54:56.10	174.56	2.51	-48.5	-60.3	3.5	1.52e+00	0	40	104	0	60	36536
2026-01-19 00:54:57.11	174.59	2.57	-48.4	-59.6	3.5	1.51e+00	0	40	104	0	60	33341
2026-01-19 00:54:58.12	174.62	2.64	-48.4	-59.3	3.7	1.51e+00	0	40	104	0	60	32240
2026-01-19 00:54:59.13	174.65	2.70	-48.3	-58.8	3.8	1.49e+00	0	40	104	0	60	30714
2026-01-19 00:55:00.14	174.68	2.77	-48.4	-59.2	3.7	1.49e+00	0	40	104	0	60	31987
2026-01-19 00:55:01.15	174.70	2.84	-48.5	-60.2	3.5	1.51e+00	0	40	104	0	60	35806
2026-01-19 00:55:02.15	174.73	2.90	-48.5	-60.1	3.5	1.52e+00	0	40	104	0	60	35510
2026-01-19 00:55:03.16	174.76	2.97	-48.3	-58.4	4.0	1.51e+00	0	40	104	0	60	29052
2026-01-19 00:55:04.17	174.79	3.03	-47.7	-54.9	6.3	1.30e+00	11	40	104	0	60	19404
2026-01-19 00:55:05.18	174.82	3.10	-46.8	-51.3	9.0	4.78e-02	123	40	0	1048576	60	12883
2026-01-19 00:55:06.19	174.85	3.16	-45.5	-48.7	11.7	9.42e-04	123	40	0	4194304	60	9595
2026-01-19 00:55:07.20	174.88	3.23	-44.0	-46.2	14.6	3.00e-06	123	40	0	7340032	60	7203
2026-01-19 00:55:08.21	174.91	3.30	-42.8	-44.7	16.1	0.00e+00	120	40	0	10485760	60	6052
2026-01-19 00:55:09.22	174.93	3.36	-41.3	-42.9	17.8	0.00e+00	123	40	0	13631488	56	6157
2026-01-19 00:55:10.23	174.96	3.43	-41.3	-42.8	17.8	0.00e+00	120	40	0	16777216	56	6122
2026-01-19 00:55:11.24	174.99	3.50	-40.3	-41.7	18.8	0.00e+00	122	40	0	19922944	54	6011
2026-01-19 00:55:12.24	175.02	3.56	-40.5	-41.9	18.6	0.00e+00	123	40	0	23068672	54	6163
2026-01-19 00:55:13.25	175.05	3.63	-40.0	-41.3	19.0	0.00e+00	123	40	0	26214400	54	5742
2026-01-19 00:55:14.26	175.08	3.70	-40.5	-41.9	18.6	0.00e+00	123	40	0	29360128	54	6154
2026-01-19 00:55:15.27	175.11	3.77	-41.1	-42.6	17.9	0.00e+00	121	40	0	32505856	54	6707
2026-01-19 00:55:16.28	175.14	3.83	-41.3	-42.7	18.6	6.63e-05	125	40	0	35651584	60	4809
2026-01-19 00:55:17.29	175.17	3.90	-47.1	-53.0	7.9	1.14e+00	0	40	104	37748736	60	15668
2026-01-19 00:55:18.30	175.20	3.97	-43.1	-45.0	17.1	2.32e-03	122	40	0	37748736	60	6249
2026-01-19 00:55:19.31	175.23	4.04	-45.1	-47.7	13.5	4.65e-03	122	40	0	40894464	60	8507
2026-01-19 00:55:20.32	175.26	4.11	-41.0	-42.4	18.5	0.00e+00	122	40	0	44040192	54	6543
2026-01-19 00:55:21.33	175.29	4.18	-40.6	-42.0	18.8	0.00e+00	120	40	0	48234496	54	6209
2026-01-19 00:55:22.35	175.32	4.25	-40.2	-41.5	19.3	0.00e+00	123	40	0	51380224	54	5890
2026-01-19 00:55:23.35	175.35	4.31	-40.5	-41.9	18.8	0.00e+00	123	40	0	54525952	54	6137
2026-01-19 00:55:24.36	175.39	4.38	-40.0	-41.3	19.4	0.00e+00	122	40	0	57671680	54	5757
2026-01-19 00:55:25.37	175.42	4.45	-40.1	-41.4	19.4	0.00e+00	123	40	0	59768832	54	5795
2026-01-19 00:55:26.38	175.45	4.52	-40.1	-41.3	19.5	0.00e+00	123	40	0	63963136	52	6493
2026-01-19 00:55:27.39	175.48	4.59	-39.8	-41.0	19.7	0.00e+00	123	40	0	67108864	52	6248
2026-01-19 00:55:28.40	175.51	4.66	-40.3	-41.6	19.1	0.00e+00	121	40	0	70254592	52	6710
2026-01-19 00:55:29.41	175.54	4.73	-40.1	-41.3	19.6	0.00e+00	122	40	0	73400320	52	6478
2026-01-19 00:55:30.42	175.57	4.80	-39.8	-41.0	19.8	0.00e+00	122	40	0	76546048	52	6229
2026-01-19 00:55:31.43	175.61	4.87	-39.8	-41.0	19.8	0.00e+00	120	40	0	79691776	52	6249
2026-01-19 00:55:32.44	175.64	4.94	-39.6	-40.9	20.0	0.00e+00	121	40	0	82837504	52	6143
2026-01-19 00:55:33.44	175.67	5.01	-39.6	-40.8	20.0	0.00e+00	122	40	0	85983232	52	6116
2026-01-19 00:55:34.45	175.70	5.08	-39.7	-41.0	20.0	0.00e+00	120	40	0	89128960	52	6207
2026-01-19 00:55:35.46	175.74	5.16	-39.6	-40.8	20.0	0.00e+00	122	40	0	92274688	52	6089
2026-01-19 00:55:36.46	175.77	5.23	-39.4	-40.6	20.3	0.00e+00	122	40	0	95420416	52	5945
2026-01-19 00:55:37.48	175.80	5.30	-39.7	-40.9	20.0	0.00e+00	127	40	0	98566144	52	6150
2026-01-19 00:55:38.49	175.83	5.37	-39.5	-40.7	20.1	0.00e+00	120	40	0	101711872	52	6032
2026-01-19 00:55:39.50	175.87	5.44	-39.6	-40.8	20.0	0.00e+00	123	40	0	104857600	52	6085
2026-01-19 00:55:40.50	175.90	5.51	-39.6	-40.9	20.0	0.00e+00	122	40	0	108003328	52	6142
2026-01-19 00:55:41.51	175.93	5.59	-39.3	-40.4	20.4	0.00e+00	122	40	0	111149056	52	5847
2026-01-19 00:55:42.52	175.97	5.66	-39.5	-40.7	20.3	0.00e+00	122	40	0	114294784	52	6005
2026-01-19 00:55:43.54	176.00	5.73	-39.4	-40.6	20.2	0.00e+00	122	40	0	117440512	52	5986
2026-01-19 00:55:44.54	176.03	5.80	-39.2	-40.4	20.4	0.00e+00	120	40	0	120586240	52	5798
2026-01-19 00:55:45.55	176.07	5.88	-39.4	-40.6	20.4	0.00e+00	122	40	0	123731968	52	5944
2026-01-19 00:55:46.56	176.10	5.95	-39.4	-40.6	20.2	0.00e+00	122	40	0	126877696	52	5965
2026-01-19 00:55:47.57	176.14	6.02	-39.2	-40.3	20.5	0.00e+00	123	40	0	130023424	52	5770
2026-01-19 00:55:48.58	176.17	6.10	-39.2	-40.4	20.5	0.00e+00	123	40	0	133169152	52	5824
2026-01-19 00:55:49.59	176.21	6.17	-39.3	-40.4	20.4	0.00e+00	122	40	0	136314880	52	5844
2026-01-19 00:55:50.60	176.24	6.24	-39.1	-40.3	20.6	0.00e+00	122	40	0	139460608	52	5740
2026-01-19 00:55:51.61	176.28	6.32	-39.0	-40.1	20.7	0.00e+00	122	40	0	142606336	52	5641
2026-01-19 00:55:52.62	176.31	6.39	-39.2	-40.4	20.5	0.00e+00	123	40	0	145752064	52	5833
2026-01-19 00:55:53.64	176.35	6.47	-39.0	-40.2	20.7	0.00e+00	123	40	0	148897792	52	5671
2026-01-19 00:55:54.65	176.38	6.54	-39.1	-40.3	20.6	0.00e+00	120	40	0	152043520	52	5778
2026-01-19 00:55:55.66	176.42	6.62	-39.3	-40.4	20.5	0.00e+00	120	40	0	155189248	52	5836
2026-01-19 00:55:56.67	176.45	6.69	-39.0	-40.2	20.7	0.00e+00	123	40	0	158334976	52	5661
2026-01-19 00:55:57.68	176.49	6.77	-39.2	-40.3	20.5	0.00e+00	123	40	0	161480704	52	5767
2026-01-19 00:55:58.69	176.52	6.84	-39.1	-40.2	20.7	0.00e+00	120	40	0	164626432	52	5701
2026-01-19 00:55:59.70	176.56	6.92	-39.4	-40.5	20.2	0.00e+00	123	40	0	167772160	52	5920
2026-01-19 00:56:00.71	176.60	7.00	-39.8	-41.0	20.4	0.00e+00	120	40	0	170917888	52	6239
2026-01-19 00:56:01.72	176.63	7.07	-39.4	-40.5	20.6	0.00e+00	123	40	0	174063616	52	5910
2026-01-19 00:56:02.73	176.67	7.15	-39.1	-40.2	20.8	0.00e+00	123	40	0	177209344	52	5715
2026-01-19 00:56:03.74	176.71	7.23	-38.7	-39.8	21.1	0.00e+00	123	40	0	180355072	50	6080
2026-01-19 00:56:04.75	176.74	7.30	-38.7	-39.8	21.1	0.00e+00	122	40	0	183500800	50	6114
2026-01-19 00:56:05.76	176.78	7.38	-38.5	-39.5	21.3	0.00e+00	122	40	0	186646528	50	5922
2026-01-19 00:56:06.77	176.82	7.46	-38.7	-39.8	21.1	0.00e+00	123	40	0	189792256	50	6099
2026-01-19 00:56:07.78	176.86	7.54	-38.6	-39.7	21.2	0.00e+00	123	40	0	192937984	50	6035
2026-01-19 00:56:08.79	176.90	7.61	-38.5	-39.6	21.4	0.00e+00	123	40	0	196083712	50	5966
2026-01-19 00:56:09.80	176.93	7.69	-38.7	-39.7	21.2	0.00e+00	123	40	0	199229440	50	6058
2026-01-19 00:56:10.81	176.97	7.77	-38.5	-39.6	21.3	0.00e+00	120	40	0	202375168	50	5956
2026-01-19 00:56:11.83	177.01	7.85	-38.9	-40.0	21.1	0.00e+00	122	40	0	205520896	50	6235
2026-01-19 00:56:12.84	177.05	7.93	-38.5	-39.6	21.3	0.00e+00	123	40	0	208666624	50	5929
2026-01-19 00:56:13.85	177.09	8.01	-38.7	-39.8	21.3	0.00e+00	122	40	0	211812352	50	6133
2026-01-19 00:56:14.86	177.13	8.09	-38.4	-39.4	21.6	0.00e+00	122	40	0	214958080	50	5846
2026-01-19 00:56:15.87	177.17	8.17	-38.4	-39.5	21.4	0.00e+00	123	40	0	218103808	50	5878
2026-01-19 00:56:16.88	177.21	8.25	-38.3	-39.3	21.7	0.00e+00	123	40	0	221249536	50	5778
2026-01-19 00:56:17.89	177.24	8.33	-38.3	-39.4	21.6	0.00e+00	123	40	0	224395264	50	5827
2026-01-19 00:56:18.90	177.28	8.41	-38.1	-39.2	21.8	0.00e+00	122	40	0	227540992	50	5688
2026-01-19 00:56:19.91	177.32	8.49	-38.3	-39.3	21.6	0.00e+00	123	40	0	230686720	50	5791
2026-01-19 00:56:20.92	177.36	8.57	-38.1	-39.2	21.7	0.00e+00	120	40	0	233832448	50	5702
2026-01-19 00:56:21.93	177.41	8.65	-38.2	-39.3	21.7	0.00e+00	123	40	0	236978176	50	5741
2026-01-19 00:56:22.94	177.45	8.73	-38.1	-39.1	21.9	0.00e+00	123	40	0	240123904	50	5653
2026-01-19 00:56:23.95	177.49	8.81	-38.1	-39.2	21.9	0.00e+00	122	40	0	243269632	50	5663
2026-01-19 00:56:24.96	177.53	8.89	-38.0	-39.0	21.9	0.00e+00	122	40	0	246415360	50	5593
2026-01-19 00:56:25.97	177.57	8.98	-38.0	-39.1	21.9	0.00e+00	122	40	0	249561088	50	5595
2026-01-19 00:56:26.98	177.61	9.06	-38.2	-39.2	21.6	0.00e+00	123	40	0	252706816	50	5723
2026-01-19 00:56:27.99	177.65	9.14	-38.0	-39.1	21.9	0.00e+00	123	40	0	255852544	50	5602
2026-01-19 00:56:29.01	177.69	9.22	-38.1	-39.1	21.9	0.00e+00	122	40	0	258998272	50	5628
2026-01-19 00:56:30.01	177.74	9.31	-38.2	-39.2	21.8	0.00e+00	121	40	0	262144000	50	5706
2026-01-19 00:56:31.02	177.78	9.39	-38.1	-39.2	21.9	0.00e+00	123	40	0	265289728	50	5670
2026-01-19 00:56:32.03	177.82	9.47	-37.9	-38.9	22.0	0.00e+00	123	41	0	268435456	50	5501
2026-01-19 00:56:33.05	177.86	9.56	-38.1	-39.1	21.9	0.00e+00	122	40	0	271581184	50	5621
2026-01-19 00:56:34.06	177.91	9.64	-37.9	-38.9	22.0	0.00e+00	123	40	0	274726912	50	5506
2026-01-19 00:56:35.07	177.95	9.73	-37.9	-38.9	22.1	0.00e+00	122	40	0	277872640	50	5490
2026-01-19 00:56:36.08	177.99	9.81	-37.8	-38.9	22.2	0.00e+00	120	40	0	281018368	50	5472
2026-01-19 00:56:37.09	178.04	9.90	-37.8	-38.9	22.2	0.00e+00	122	41	0	284164096	50	5488
2026-01-19 00:56:38.10	178.08	9.98	-38.0	-39.0	22.0	0.00e+00	122	40	0	287309824	50	5568
2026-01-19 00:56:39.11	178.12	10.07	-38.0	-39.1	21.9	0.00e+00	123	40	0	290455552	50	5609
2026-01-19 00:56:40.12	178.17	10.15	-37.8	-38.8	22.1	0.00e+00	122	40	0	293601280	50	5463
2026-01-19 00:56:41.13	178.21	10.24	-37.8	-38.8	22.3	0.00e+00	122	40	0	296747008	48	6087
2026-01-19 00:56:42.14	178.26	10.33	-37.8	-38.9	22.2	0.00e+00	123	40	0	299892736	48	6149
2026-01-19 00:56:43.15	178.30	10.41	-37.7	-38.7	22.3	0.00e+00	123	40	0	303038464	48	6042
2026-01-19 00:56:44.16	178.35	10.50	-37.9	-39.0	22.2	0.00e+00	122	40	0	306184192	48	6209
2026-01-19 00:56:45.17	178.39	10.59	-37.8	-38.8	22.3	0.00e+00	123	40	0	309329920	48	6099
2026-01-19 00:56:46.18	178.44	10.68	-37.5	-38.5	22.5	0.00e+00	123	40	0	312475648	48	5909
2026-01-19 00:56:47.19	178.49	10.76	-37.6	-38.6	22.5	0.00e+00	120	40	0	315621376	48	5974
2026-01-19 00:56:48.20	178.53	10.85	-37.4	-38.4	22.6	0.00e+00	123	40	0	318767104	48	5850
2026-01-19 00:56:49.21	178.58	10.94	-37.5	-38.5	22.5	0.00e+00	122	40	0	321912832	48	5921
2026-01-19 00:56:50.22	178.63	11.03	-37.6	-38.6	22.4	0.00e+00	122	41	0	325058560	48	5960
2026-01-19 00:56:51.23	178.67	11.12	-37.5	-38.5	22.6	0.00e+00	120	40	0	328204288	48	5879
2026-01-19 00:56:52.24	178.72	11.21	-37.4	-38.4	22.6	0.00e+00	122	40	0	331350016	48	5826
2026-01-19 00:56:53.25	178.77	11.30	-37.4	-38.4	22.7	0.00e+00	123	40	0	334495744	48	5796
2026-01-19 00:56:54.26	178.82	11.39	-37.3	-38.3	22.8	0.00e+00	123	40	0	337641472	48	5743
2026-01-19 00:56:55.27	178.86	11.48	-37.2	-38.2	22.8	0.00e+00	123	40	0	340787200	48	5687
2026-01-19 00:56:56.28	178.91	11.57	-37.3	-38.3	22.7	0.00e+00	122	41	0	344981504	48	5759
2026-01-19 00:56:57.29	178.96	11.66	-37.2	-38.2	22.9	0.00e+00	121	41	0	348127232	48	5716
2026-01-19 00:56:58.30	179.01	11.75	-37.2	-38.2	22.8	0.00e+00	123	40	0	351272960	48	5704
2026-01-19 00:56:59.31	179.06	11.84	-37.2	-38.2	22.9	0.00e+00	123	41	0	353370112	48	5667
2026-01-19 00:57:00.32	179.11	11.93	-37.1	-38.0	22.9	0.00e+00	123	41	0	356515840	48	5576
2026-01-19 00:57:01.33	179.16	12.03	-37.1	-38.1	22.9	0.00e+00	120	41	0	360710144	48	5595
2026-01-19 00:57:02.34	179.21	12.12	-37.2	-38.2	22.9	0.00e+00	122	41	0	363855872	48	5663
2026-01-19 00:57:03.35	179.26	12.21	-37.2	-38.2	22.8	0.00e+00	120	41	0	367001600	48	5703
2026-01-19 00:57:04.36	179.31	12.31	-37.0	-37.9	23.1	0.00e+00	122	41	0	370147328	48	5523
2026-01-19 00:57:05.38	179.36	12.40	-37.0	-38.0	23.0	0.00e+00	123	41	0	373293056	48	5559
2026-01-19 00:57:06.39	179.41	12.49	-37.0	-37.9	23.1	0.00e+00	123	40	0	376438784	48	5512
2026-01-19 00:57:07.40	179.47	12.59	-37.1	-38.1	22.9	0.00e+00	122	41	0	379584512	48	5601
2026-01-19 00:57:08.41	179.52	12.68	-36.9	-37.9	23.1	0.00e+00	123	40	0	382730240	48	5511
2026-01-19 00:57:09.42	179.57	12.78	-36.9	-37.9	23.1	0.00e+00	123	41	0	385875968	48	5492
2026-01-19 00:57:10.43	179.62	12.87	-37.0	-37.9	23.0	0.00e+00	123	41	0	389021696	48	5511
2026-01-19 00:57:11.44	179.68	12.97	-36.9	-37.9	23.1	0.00e+00	123	41	0	392167424	48	5503
2026-01-19 00:57:12.45	179.73	13.07	-36.9	-37.8	23.2	0.00e+00	122	41	0	395313152	48	5453
2026-01-19 00:57:13.46	179.78	13.16	-36.9	-37.8	23.2	0.00e+00	122	41	0	398458880	48	5465
2026-01-19 00:57:14.47	179.84	13.26	-36.9	-37.8	23.1	0.00e+00	122	41	0	401604608	48	5453
2026-01-19 00:57:15.48	179.89	13.36	-36.9	-37.9	23.2	0.00e+00	122	41	0	404750336	48	5469
2026-01-19 00:57:16.49	179.95	13.45	-36.9	-37.9	23.1	0.00e+00	123	41	0	407896064	48	5476
2026-01-19 00:57:17.50	180.00	13.55	-37.0	-37.9	23.0	0.00e+00	123	41	0	411041792	48	5519
2026-01-19 00:57:18.51	180.06	13.65	-36.8	-37.8	23.2	0.00e+00	123	41	0	414187520	46	6067
2026-01-19 00:57:19.52	180.11	13.75	-36.8	-37.7	23.1	0.00e+00	122	41	0	417333248	46	6060
2026-01-19 00:57:20.53	180.17	13.85	-36.7	-37.7	23.2	0.00e+00	123	41	0	420478976	46	6011
2026-01-19 00:57:21.54	180.22	13.95	-36.7	-37.7	23.2	0.00e+00	120	41	0	423624704	46	6034
2026-01-19 00:57:22.55	180.28	14.05	-36.7	-37.6	23.2	0.00e+00	123	41	0	426770432	46	5965
2026-01-19 00:57:23.56	180.34	14.15	-36.6	-37.6	23.3	0.00e+00	123	41	0	429916160	46	5945
2026-01-19 00:57:24.57	180.39	14.25	-36.7	-37.7	23.3	0.00e+00	123	41	0	433061888	46	6015
2026-01-19 00:57:25.58	180.45	14.35	-36.5	-37.5	23.4	0.00e+00	122	41	0	436207616	46	5871
2026-01-19 00:57:26.59	180.51	14.45	-36.7	-37.6	23.3	0.00e+00	120	41	0	439353344	46	5988
2026-01-19 00:57:27.60	180.57	14.55	-36.5	-37.5	23.4	0.00e+00	122	41	0	442499072	46	5875
2026-01-19 00:57:28.62	180.63	14.66	-36.4	-37.3	23.5	0.00e+00	123	41	0	445644800	46	5786
2026-01-19 00:57:29.63	180.69	14.76	-36.4	-37.4	23.5	0.00e+00	123	41	0	448790528	46	5805
2026-01-19 00:57:30.64	180.75	14.86	-36.5	-37.5	23.5	0.00e+00	123	41	0	451936256	46	5860
2026-01-19 00:57:31.65	180.81	14.96	-36.4	-37.3	23.5	0.00e+00	122	41	0	455081984	46	5785
2026-01-19 00:57:32.66	180.87	15.07	-36.6	-37.5	23.5	0.00e+00	120	41	0	458227712	46	5896
2026-01-19 00:57:33.66	180.93	15.17	-36.4	-37.4	23.6	0.00e+00	123	41	0	461373440	46	5806
2026-01-19 00:57:34.67	180.99	15.28	-36.5	-37.5	23.5	0.00e+00	123	41	0	464519168	46	5863
2026-01-19 00:57:35.68	181.05	15.38	-36.4	-37.4	23.6	0.00e+00	122	41	0	467664896	46	5814
2026-01-19 00:57:36.69	181.11	15.49	-36.5	-37.5	23.5	0.00e+00	122	41	0	470810624	46	5874
2026-01-19 00:57:37.70	181.18	15.59	-36.5	-37.4	23.5	0.00e+00	123	41	0	473956352	46	5856
2026-01-19 00:57:38.71	181.24	15.70	-36.6	-37.5	23.4	0.00e+00	123	41	0	477102080	46	5910
2026-01-19 00:57:39.72	181.30	15.81	-36.4	-37.3	23.6	0.00e+00	120	41	0	480247808	46	5788
2026-01-19 00:57:40.73	181.37	15.91	-36.5	-37.5	23.4	0.00e+00	123	41	0	483393536	46	5895
2026-01-19 00:57:41.74	181.43	16.02	-36.4	-37.4	23.5	0.00e+00	122	41	0	486539264	46	5798
2026-01-19 00:57:42.75	181.49	16.13	-36.5	-37.5	23.4	0.00e+00	122	41	0	489684992	46	5883
2026-01-19 00:57:43.76	181.56	16.24	-36.4	-37.4	23.5	0.00e+00	123	41	0	492830720	46	5825
2026-01-19 00:57:44.77	181.62	16.35	-36.5	-37.5	23.4	0.00e+00	122	41	0	495976448	46	5869
2026-01-19 00:57:45.78	181.69	16.46	-36.5	-37.5	23.4	0.00e+00	123	41	0	499122176	46	5885
2026-01-19 00:57:46.79	181.76	16.57	-36.5	-37.5	23.3	0.00e+00	120	41	0	502267904	46	5888
2026-01-19 00:57:47.80	181.82	16.68	-36.5	-37.4	23.5	0.00e+00	122	41	0	505413632	46	5831
2026-01-19 00:57:48.81	181.89	16.79	-36.5	-37.4	23.4	0.00e+00	123	41	0	508559360	46	5823
2026-01-19 00:57:49.81	181.96	16.90	-36.5	-37.5	23.4	0.00e+00	122	41	0	511705088	46	5869
2026-01-19 00:57:50.82	182.03	17.01	-36.6	-37.6	23.4	0.00e+00	123	41	0	514850816	46	5944
2026-01-19 00:57:51.83	182.09	17.12	-36.5	-37.4	23.5	0.00e+00	122	41	0	517996544	46	5834
2026-01-19 00:57:52.84	182.16	17.24	-36.4	-37.3	23.5	0.00e+00	123	41	0	521142272	46	5763
2026-01-19 00:57:53.85	182.23	17.35	-36.5	-37.4	23.5	0.00e+00	120	41	0	524288000	46	5846
2026-01-19 00:57:54.86	182.30	17.46	-36.5	-37.4	23.5	0.00e+00	123	41	0	527433728	46	5853
2026-01-19 00:57:55.87	182.37	17.58	-36.3	-37.2	23.7	0.00e+00	120	41	0	530579456	46	5718
2026-01-19 00:57:56.88	182.45	17.69	-36.3	-37.2	23.7	0.00e+00	122	41	0	533725184	46	5719
2026-01-19 00:57:57.89	182.52	17.81	-36.4	-37.3	23.6	0.00e+00	122	41	0	536870912	46	5787
2026-01-19 00:57:58.90	182.59	17.92	-36.5	-37.4	23.6	0.00e+00	122	41	0	540016640	46	5825
2026-01-19 00:57:59.91	182.66	18.04	-36.6	-37.5	23.5	0.00e+00	122	41	0	543162368	46	5902
2026-01-19 00:58:00.92	182.74	18.16	-36.6	-37.5	23.5	0.00e+00	123	41	0	546308096	46	5898
2026-01-19 00:58:01.93	182.81	18.27	-36.5	-37.5	23.6	0.00e+00	123	41	0	549453824	46	5871
2026-01-19 00:58:02.94	182.88	18.39	-36.7	-37.6	23.4	0.00e+00	123	41	0	552599552	46	5975
2026-01-19 00:58:03.94	182.96	18.51	-36.5	-37.5	23.5	0.00e+00	120	41	0	555745280	46	5862
2026-01-19 00:58:04.96	183.03	18.63	-36.7	-37.6	23.4	0.00e+00	122	41	0	558891008	46	5986
2026-01-19 00:58:05.96	183.11	18.75	-36.6	-37.6	23.5	0.00e+00	122	41	0	562036736	46	5933
2026-01-19 00:58:06.97	183.19	18.87	-36.8	-37.7	23.4	0.00e+00	123	41	0	565182464	46	6040
2026-01-19 00:58:07.98	183.26	18.99	-36.6	-37.6	23.5	0.00e+00	120	41	0	568328192	46	5939
2026-01-19 00:58:08.99	183.34	19.11	-36.7	-37.7	23.4	0.00e+00	122	41	0	571473920	46	6019
2026-01-19 00:58:10.00	183.42	19.23	-36.6	-37.5	23.5	0.00e+00	120	41	0	574619648	46	5921
2026-01-19 00:58:11.02	183.50	19.35	-36.6	-37.5	23.5	0.00e+00	122	41	0	577765376	46	5902
2026-01-19 00:58:12.02	183.58	19.47	-36.7	-37.6	23.4	0.00e+00	120	41	0	580911104	46	5963
2026-01-19 00:58:13.04	183.66	19.60	-36.6	-37.6	23.3	0.00e+00	122	41	0	584056832	46	5957
2026-01-19 00:58:14.05	183.74	19.72	-36.6	-37.6	23.4	0.00e+00	123	41	0	587202560	46	5943
2026-01-19 00:58:15.06	183.82	19.85	-36.7	-37.7	23.3	0.00e+00	123	41	0	590348288	46	5995
2026-01-19 00:58:16.07	183.90	19.97	-36.6	-37.6	23.3	0.00e+00	122	41	0	593494016	46	5947
2026-01-19 00:58:17.07	183.98	20.10	-36.5	-37.4	23.5	0.00e+00	121	41	0	596639744	46	5855
2026-01-19 00:58:18.08	184.07	20.22	-36.6	-37.5	23.4	0.00e+00	122	41	0	599785472	46	5894
2026-01-19 00:58:19.09	184.15	20.35	-36.5	-37.4	23.5	0.00e+00	123	41	0	602931200	46	5856
2026-01-19 00:58:20.10	184.24	20.48	-36.4	-37.3	23.5	0.00e+00	123	41	0	606076928	46	5778
2026-01-19 00:58:21.11	184.32	20.60	-36.4	-37.4	23.6	0.00e+00	122	41	0	609222656	46	5809
2026-01-19 00:58:22.12	184.41	20.73	-36.4	-37.4	23.5	0.00e+00	122	41	0	612368384	46	5816
2026-01-19 00:58:23.13	184.49	20.86	-36.2	-37.2	23.6	0.00e+00	123	41	0	615514112	46	5684
2026-01-19 00:58:24.15	184.58	20.99	-36.3	-37.3	23.5	0.00e+00	123	41	0	618659840	46	5732
2026-01-19 00:58:25.16	184.67	21.12	-36.2	-37.1	23.7	0.00e+00	120	41	0	621805568	46	5637
2026-01-19 00:58:26.17	184.76	21.25	-36.1	-37.1	23.7	0.00e+00	123	41	0	624951296	46	5621
2026-01-19 00:58:27.18	184.85	21.39	-35.9	-36.9	23.8	0.00e+00	123	41	0	628097024	46	5493
2026-01-19 00:58:28.19	184.94	21.52	-35.6	-36.5	23.9	0.00e+00	120	41	0	631242752	44	5922
2026-01-19 00:58:29.20	185.03	21.65	-35.6	-36.6	24.0	0.00e+00	123	41	0	634388480	44	5939
2026-01-19 00:58:30.20	185.12	21.78	-35.5	-36.4	24.0	0.00e+00	120	41	0	637534208	44	5852
2026-01-19 00:58:31.21	185.21	21.92	-35.5	-36.4	24.0	0.00e+00	122	41	0	640679936	44	5824
2026-01-19 00:58:32.22	185.31	22.05	-35.4	-36.3	24.0	0.00e+00	123	41	0	643825664	44	5742
2026-01-19 00:58:33.23	185.40	22.19	-35.3	-36.2	24.2	0.00e+00	123	41	0	646971392	44	5700
2026-01-19 00:58:34.24	185.50	22.32	-35.3	-36.2	24.3	0.00e+00	122	41	0	650117120	44	5696
2026-01-19 00:58:35.25	185.59	22.46	-35.2	-36.1	24.4	0.00e+00	123	41	0	653262848	44	5621
2026-01-19 00:58:36.26	185.69	22.60	-35.2	-36.1	24.4	0.00e+00	123	41	0	656408576	44	5655
2026-01-19 00:58:37.27	185.78	22.73	-35.2	-36.1	24.4	0.00e+00	123	41	0	659554304	44	5601
2026-01-19 00:58:38.29	185.88	22.87	-35.2	-36.1	24.5	0.00e+00	122	41	0	663748608	44	5621
2026-01-19 00:58:39.30	185.98	23.01	-35.1	-36.0	24.6	0.00e+00	123	41	0	666894336	44	5562
2026-01-19 00:58:40.31	186.08	23.15	-35.2	-36.1	24.6	0.00e+00	123	41	0	670040064	44	5597
2026-01-19 00:58:41.32	186.18	23.29	-35.2	-36.1	24.6	0.00e+00	120	41	0	672137216	44	5623
2026-01-19 00:58:42.33	186.28	23.43	-35.3	-36.2	24.5	0.00e+00	122	41	0	676331520	44	5666
2026-01-19 00:58:43.34	186.39	23.58	-35.2	-36.1	24.5	0.00e+00	123	41	0	679477248	44	5637
2026-01-19 00:58:44.35	186.49	23.72	-35.3	-36.2	24.6	0.00e+00	123	41	0	682622976	44	5666
2026-01-19 00:58:45.36	186.59	23.86	-35.1	-35.9	24.7	0.00e+00	122	41	0	685768704	44	5521
2026-01-19 00:58:46.37	186.70	24.01	-35.1	-36.0	24.6	0.00e+00	120	41	0	688914432	44	5580
2026-01-19 00:58:47.38	186.80	24.15	-35.0	-35.9	24.7	0.00e+00	123	41	0	692060160	44	5497
2026-01-19 00:58:48.39	186.91	24.30	-35.2	-36.1	24.7	0.00e+00	123	41	0	695205888	44	5609
2026-01-19 00:58:49.40	187.02	24.44	-35.1	-36.0	24.6	0.00e+00	123	41	0	698351616	44	5563
2026-01-19 00:58:50.41	187.13	24.59	-35.1	-36.0	24.6	0.00e+00	122	41	0	701497344	44	5586
2026-01-19 00:58:51.42	187.24	24.74	-35.1	-36.0	24.6	0.00e+00	123	41	0	704643072	44	5575
2026-01-19 00:58:52.43	187.35	24.88	-35.3	-36.2	24.5	0.00e+00	122	41	0	707788800	44	5689
2026-01-19 00:58:53.44	187.46	25.03	-35.3	-36.2	24.5	0.00e+00	123	41	0	710934528	44	5675
2026-01-19 00:58:54.45	187.57	25.18	-35.4	-36.3	24.5	0.00e+00	123	41	0	714080256	44	5790
2026-01-19 00:58:55.46	187.69	25.33	-35.4	-36.3	24.4	0.00e+00	123	41	0	717225984	44	5759
2026-01-19 00:58:56.47	187.80	25.49	-35.6	-36.5	24.2	0.00e+00	122	41	0	720371712	44	5860
2026-01-19 00:58:57.48	187.92	25.64	-35.6	-36.5	24.1	0.00e+00	123	41	0	723517440	44	5886
2026-01-19 00:58:58.49	188.04	25.79	-35.8	-36.7	24.0	0.00e+00	122	41	0	726663168	44	6026
2026-01-19 00:58:59.50	188.15	25.94	-35.7	-36.7	24.1	0.00e+00	123	41	0	729808896	44	6002
2026-01-19 00:59:00.51	188.27	26.10	-35.9	-36.8	23.9	0.00e+00	122	41	0	732954624	44	6118
2026-01-19 00:59:01.52	188.39	26.25	-36.0	-36.9	23.9	0.00e+00	122	41	0	736100352	44	6166
2026-01-19 00:59:02.53	188.52	26.41	-35.9	-36.8	24.0	0.00e+00	123	41	0	739246080	44	6082
2026-01-19 00:59:03.54	188.64	26.56	-35.9	-36.8	24.1	0.00e+00	123	41	0	742391808	44	6083
2026-01-19 00:59:04.55	188.76	26.72	-35.9	-36.9	23.9	0.00e+00	123	41	0	745537536	44	6138
2026-01-19 00:59:05.56	188.89	26.88	-36.0	-36.9	24.0	0.00e+00	123	41	0	748683264	44	6153
2026-01-19 00:59:06.57	189.01	27.04	-36.1	-37.0	23.9	0.00e+00	120	41	0	751828992	44	6238
2026-01-19 00:59:07.58	189.14	27.20	-36.3	-37.2	23.7	0.00e+00	123	41	0	754974720	44	6364
2026-01-19 00:59:08.59	189.27	27.36	-36.4	-37.3	23.7	0.00e+00	123	41	0	758120448	44	6462
2026-01-19 00:59:09.61	189.40	27.52	-36.5	-37.4	23.6	0.00e+00	118	41	0	761266176	44	6526
2026-01-19 00:59:10.61	189.53	27.68	-36.6	-37.5	23.5	0.00e+00	122	41	0	764411904	44	6633
2026-01-19 00:59:11.62	189.66	27.85	-36.7	-37.6	23.4	0.00e+00	123	41	0	767557632	44	6714
2026-01-19 00:59:12.63	189.80	28.01	-36.8	-37.8	23.2	0.00e+00	123	41	0	770703360	46	6100
2026-01-19 00:59:13.64	189.93	28.17	-36.8	-37.8	23.2	0.00e+00	122	41	0	773849088	46	6083
2026-01-19 00:59:14.66	190.07	28.34	-37.0	-38.0	22.9	0.00e+00	123	41	0	776994816	46	6213
2026-01-19 00:59:15.67	190.21	28.51	-36.9	-37.9	22.7	0.00e+00	123	41	0	780140544	46	6162
2026-01-19 00:59:16.68	190.35	28.67	-36.8	-37.8	22.7	0.00e+00	124	41	0	783286272	46	6091
2026-01-19 00:59:17.68	190.49	28.84	-36.8	-37.8	22.7	0.00e+00	122	41	0	786432000	46	6105
2026-01-19 00:59:18.70	190.63	29.01	-36.8	-37.8	22.7	0.00e+00	123	41	0	789577728	46	6078
2026-01-19 00:59:19.71	190.77	29.18	-36.8	-37.7	22.8	0.00e+00	123	41	0	792723456	46	6059
2026-01-19 00:59:20.71	190.92	29.35	-36.9	-37.9	22.8	0.00e+00	123	41	0	795869184	46	6164
2026-01-19 00:59:21.72	191.06	29.52	-36.7	-37.7	22.9	0.00e+00	123	41	0	799014912	46	6031
2026-01-19 00:59:22.73	191.21	29.69	-36.8	-37.8	22.8	0.00e+00	122	41	0	802160640	46	6105
2026-01-19 00:59:23.75	191.36	29.86	-36.7	-37.7	22.9	0.00e+00	120	41	0	805306368	46	6050
2026-01-19 00:59:24.76	191.52	30.04	-36.6	-37.6	23.1	0.00e+00	122	41	0	808452096	46	5935
2026-01-19 00:59:25.77	191.67	30.21	-36.8	-37.8	23.0	0.00e+00	122	41	0	811597824	46	6082
2026-01-19 00:59:26.78	191.82	30.39	-36.6	-37.6	23.1	0.00e+00	122	41	0	814743552	46	5972
2026-01-19 00:59:27.79	191.98	30.56	-36.5	-37.5	23.3	0.00e+00	123	41	0	817889280	46	5903
2026-01-19 00:59:28.80	192.14	30.74	-36.3	-37.2	23.5	0.00e+00	115	41	0	821035008	46	5716
2026-01-19 00:59:29.80	192.29	30.92	-36.3	-37.2	23.5	0.00e+00	123	41	0	824180736	46	5710
2026-01-19 00:59:30.81	192.46	31.10	-36.1	-37.1	23.6	0.00e+00	122	41	0	827326464	46	5603
2026-01-19 00:59:31.82	192.62	31.28	-36.0	-36.9	23.8	0.00e+00	123	41	0	830472192	46	5515
2026-01-19 00:59:32.83	192.78	31.46	-36.0	-37.0	23.8	0.00e+00	116	41	0	833617920	46	5545
2026-01-19 00:59:33.84	192.95	31.64	-36.2	-37.1	23.8	0.00e+00	122	41	0	836763648	46	5642
2026-01-19 00:59:34.85	193.12	31.82	-36.2	-37.2	23.8	0.00e+00	123	41	0	839909376	46	5672
2026-01-19 00:59:35.86	193.29	32.00	-36.1	-37.0	23.9	0.00e+00	123	41	0	843055104	46	5555
2026-01-19 00:59:36.87	193.46	32.19	-36.2	-37.1	23.8	0.00e+00	120	41	0	846200832	46	5640
2026-01-19 00:59:37.88	193.63	32.37	-36.3	-37.2	23.7	0.00e+00	122	41	0	849346560	46	5714
2026-01-19 00:59:38.89	193.81	32.56	-36.3	-37.2	23.8	0.00e+00	123	41	0	852492288	46	5688
2026-01-19 00:59:39.91	193.99	32.74	-36.3	-37.3	23.8	0.00e+00	122	41	0	855638016	46	5740
2026-01-19 00:59:40.91	194.17	32.93	-36.4	-37.4	23.7	0.00e+00	122	41	0	858783744	46	5819
2026-01-19 00:59:41.93	194.35	33.12	-36.5	-37.4	23.7	0.00e+00	123	41	0	861929472	46	5828
2026-01-19 00:59:42.94	194.54	33.31	-36.3	-37.3	23.8	0.00e+00	120	41	0	865075200	46	5750
2026-01-19 00:59:43.95	194.72	33.50	-36.5	-37.4	23.8	0.00e+00	123	41	0	868220928	46	5851
2026-01-19 00:59:44.96	194.91	33.69	-36.4	-37.4	23.9	0.00e+00	123	41	0	871366656	46	5796
2026-01-19 00:59:45.97	195.10	33.88	-36.6	-37.6	23.7	0.00e+00	123	41	0	874512384	46	5948
2026-01-19 00:59:46.98	195.29	34.07	-36.9	-37.9	23.3	0.00e+00	123	41	0	877658112	46	6165
2026-01-19 00:59:47.99	195.49	34.27	-37.2	-38.1	23.1	0.00e+00	123	41	0	880803840	46	6331
2026-01-19 00:59:49.00	195.68	34.46	-37.5	-38.5	22.9	0.00e+00	122	41	0	883949568	46	6600
2026-01-19 00:59:50.01	195.88	34.66	-37.7	-38.7	22.8	0.00e+00	123	41	0	887095296	46	6764
2026-01-19 00:59:51.01	196.08	34.85	-38.0	-39.1	22.4	0.00e+00	120	41	0	890241024	48	6289
2026-01-19 00:59:52.02	196.29	35.05	-38.0	-39.0	22.3	0.00e+00	123	41	0	893386752	48	6237
2026-01-19 00:59:53.03	196.49	35.24	-38.1	-39.1	22.3	0.00e+00	120	41	0	896532480	48	6322
2026-01-19 00:59:54.04	196.70	35.44	-38.0	-39.0	22.3	0.00e+00	123	41	0	899678208	48	6251
2026-01-19 00:59:55.05	196.91	35.64	-37.8	-38.8	22.5	0.00e+00	122	41	0	902823936	48	6128
2026-01-19 00:59:56.06	197.13	35.84	-37.8	-38.8	22.5	0.00e+00	122	41	0	905969664	48	6113
2026-01-19 00:59:57.07	197.35	36.04	-37.7	-38.7	22.5	0.00e+00	122	41	0	909115392	48	6025
2026-01-19 00:59:58.08	197.56	36.24	-37.8	-38.8	22.5	0.00e+00	120	41	0	912261120	48	6128
2026-01-19 00:59:59.09	197.79	36.44	-37.9	-38.9	22.4	0.00e+00	121	41	0	915406848	48	6204
2026-01-19 01:00:00.10	198.01	36.65	-37.9	-38.9	22.5	0.00e+00	123	41	0	918552576	48	6161
2026-01-19 01:00:01.11	198.24	36.85	-37.8	-38.8	22.6	0.00e+00	120	41	0	921698304	48	6122
2026-01-19 01:00:02.12	198.47	37.06	-37.8	-38.8	22.6	0.00e+00	121	41	0	924844032	48	6104
2026-01-19 01:00:03.13	198.70	37.26	-37.7	-38.6	22.8	0.00e+00	122	41	0	927989760	48	5974
2026-01-19 01:00:04.14	198.94	37.47	-37.7	-38.7	22.8	0.00e+00	120	41	0	931135488	48	6035
2026-01-19 01:00:05.15	199.18	37.67	-37.6	-38.6	23.0	0.00e+00	122	41	0	934281216	48	5941
2026-01-19 01:00:06.16	199.42	37.88	-37.5	-38.5	23.0	0.00e+00	123	41	0	937426944	48	5868
2026-01-19 01:00:07.17	199.66	38.09	-37.6	-38.6	23.0	0.00e+00	127	41	0	940572672	48	5927
2026-01-19 01:00:08.18	199.91	38.30	-37.8	-38.8	22.8	0.00e+00	122	41	0	943718400	48	6075
2026-01-19 01:00:09.19	200.16	38.51	-37.7	-38.7	22.7	0.00e+00	123	41	0	946864128	48	6047
2026-01-19 01:00:10.20	200.42	38.72	-37.8	-38.8	22.4	0.00e+00	123	41	0	950009856	48	6098
2026-01-19 01:00:11.21	200.67	38.93	-37.8	-38.8	22.4	0.00e+00	123	41	0	953155584	48	6108
2026-01-19 01:00:12.22	200.94	39.14	-37.8	-38.8	22.4	0.00e+00	122	41	0	956301312	48	6119
2026-01-19 01:00:13.23	201.20	39.36	-37.9	-38.9	22.4	0.00e+00	123	41	0	960495616	48	6161
2026-01-19 01:00:14.24	201.47	39.57	-38.1	-39.1	22.2	0.00e+00	123	41	0	962592768	48	6333
2026-01-19 01:00:15.25	201.74	39.78	-38.3	-39.4	22.0	0.00e+00	122	41	0	965738496	48	6511
2026-01-19 01:00:16.27	202.02	40.00	-38.6	-39.6	21.8	0.00e+00	122	41	0	968884224	48	6705
2026-01-19 01:00:17.27	202.29	40.21	-38.5	-39.6	21.9	0.00e+00	122	41	0	972029952	48	6690
2026-01-19 01:00:18.29	202.58	40.43	-38.8	-39.8	21.7	0.00e+00	120	41	0	976224256	50	6117
2026-01-19 01:00:19.30	202.86	40.65	-38.8	-39.9	21.7	0.00e+00	122	41	0	979369984	50	6159
2026-01-19 01:00:20.30	203.15	40.86	-38.4	-39.4	22.2	0.00e+00	123	41	0	982515712	50	5819
2026-01-19 01:00:21.31	203.44	41.08	-38.5	-39.5	22.1	0.00e+00	122	41	0	985661440	50	5904
2026-01-19 01:00:22.32	203.74	41.29	-38.7	-39.7	21.9	0.00e+00	123	41	0	987758592	50	6057
2026-01-19 01:00:23.33	204.04	41.51	-38.8	-39.8	21.8	0.00e+00	123	41	0	990904320	50	6109
2026-01-19 01:00:24.34	204.35	41.73	-38.9	-39.9	21.7	0.00e+00	123	41	0	995098624	50	6190
2026-01-19 01:00:25.35	204.65	41.95	-39.0	-40.1	21.5	0.00e+00	123	41	0	998244352	50	6284
2026-01-19 01:00:26.36	204.97	42.17	-38.9	-40.0	21.5	0.00e+00	123	41	0	1001390080	50	6247
2026-01-19 01:00:27.37	205.29	42.39	-39.1	-40.2	21.5	0.00e+00	123	41	0	1004535808	50	6352
2026-01-19 01:00:28.38	205.61	42.61	-38.9	-40.0	21.4	0.00e+00	123	41	0	1007681536	50	6272
2026-01-19 01:00:29.39	205.93	42.83	-39.0	-40.1	21.3	0.00e+00	123	41	0	1010827264	50	6320
2026-01-19 01:00:30.40	206.26	43.05	-38.9	-40.0	21.5	0.00e+00	122	41	0	1013972992	50	6231
2026-01-19 01:00:31.41	206.60	43.27	-39.0	-40.1	21.5	0.00e+00	122	41	0	1017118720	50	6295
2026-01-19 01:00:32.42	206.94	43.49	-39.3	-40.4	21.3	0.00e+00	122	41	0	1020264448	50	6499
2026-01-19 01:00:33.43	207.28	43.71	-39.4	-40.6	21.1	0.00e+00	123	41	0	1023410176	50	6650
2026-01-19 01:00:34.44	207.63	43.93	-39.4	-40.5	21.1	0.00e+00	122	41	0	1026555904	50	6622
2026-01-19 01:00:35.45	207.99	44.15	-39.1	-40.2	21.2	0.00e+00	123	41	0	1029701632	50	6402
2026-01-19 01:00:36.46	208.35	44.37	-39.2	-40.2	21.2	0.00e+00	121	41	0	1032847360	50	6422
2026-01-19 01:00:37.47	208.71	44.60	-39.1	-40.2	21.5	0.00e+00	123	41	0	1035993088	50	6363
2026-01-19 01:00:38.48	209.08	44.82	-38.7	-39.7	21.8	0.00e+00	123	41	0	1039138816	50	6060
2026-01-19 01:00:39.49	209.45	45.04	-38.8	-39.8	21.8	0.00e+00	122	41	0	1042284544	50	6102
2026-01-19 01:00:40.50	209.83	45.26	-38.8	-39.8	21.8	0.00e+00	123	41	0	1045430272	50	6110
2026-01-19 01:00:41.51	210.22	45.48	-38.7	-39.7	21.8	0.00e+00	122	41	0	1048576000	50	6038
2026-01-19 01:00:42.52	210.61	45.70	-38.6	-39.7	21.8	0.00e+00	122	41	0	1051721728	50	5998
2026-01-19 01:00:43.53	211.00	45.92	-38.7	-39.7	21.6	0.00e+00	122	41	0	1054867456	50	6045
2026-01-19 01:00:44.54	211.40	46.14	-38.3	-39.3	21.7	0.00e+00	122	41	0	1058013184	50	5767
2026-01-19 01:00:45.55	211.81	46.36	-38.2	-39.3	21.5	0.00e+00	123	41	0	1061158912	50	5759
2026-01-19 01:00:46.56	212.22	46.58	-38.5	-39.5	21.4	0.00e+00	120	41	0	1064304640	50	5899
2026-01-19 01:00:47.57	212.64	46.80	-38.7	-39.8	21.4	0.00e+00	122	41	0	1067450368	50	6095
2026-01-19 01:00:48.58	213.06	47.02	-39.0	-40.1	21.1	0.00e+00	122	41	0	1070596096	50	6347
2026-01-19 01:00:49.59	213.49	47.24	-39.2	-40.3	21.0	0.00e+00	123	41	0	1073741824	50	6463
2026-01-19 01:00:50.60	213.92	47.45	-39.1	-40.2	21.0	0.00e+00	120	41	0	1076887552	50	6382
2026-01-19 01:00:51.61	214.36	47.67	-38.8	-39.8	21.3	0.00e+00	123	41	0	1080033280	50	6134
2026-01-19 01:00:52.62	214.81	47.89	-38.3	-39.3	21.9	0.00e+00	123	41	0	1083179008	50	5760
2026-01-19 01:00:53.63	215.26	48.10	-38.0	-39.0	22.2	0.00e+00	122	41	0	1086324736	50	5585
2026-01-19 01:00:54.64	215.72	48.32	-37.8	-38.7	22.7	0.00e+00	122	41	0	1089470464	50	5386
2026-01-19 01:00:55.65	216.19	48.53	-37.8	-38.8	22.8	0.00e+00	123	41	0	1092616192	48	6093
2026-01-19 01:00:56.66	216.66	48.74	-37.8	-38.8	22.8	0.00e+00	123	41	0	1095761920	48	6067
2026-01-19 01:00:57.67	217.14	48.95	-37.8	-38.8	22.6	0.00e+00	122	41	0	1098907648	48	6081
2026-01-19 01:00:58.68	217.63	49.16	-37.8	-38.8	22.6	0.00e+00	123	41	0	1102053376	48	6116
2026-01-19 01:00:59.69	218.12	49.37	-37.7	-38.7	22.4	0.00e+00	122	41	0	1105199104	48	6019
2026-01-19 01:01:00.70	218.62	49.58	-37.6	-38.6	22.4	0.00e+00	123	41	0	1108344832	48	5978
2026-01-19 01:01:01.71	219.12	49.79	-37.6	-38.5	22.2	0.00e+00	123	41	0	1111490560	48	5915
2026-01-19 01:01:02.72	219.63	49.99	-37.6	-38.5	22.4	0.00e+00	122	41	0	1114636288	48	5917
2026-01-19 01:01:03.73	220.15	50.19	-37.8	-38.8	22.4	0.00e+00	123	41	0	1117782016	48	6085
2026-01-19 01:01:04.74	220.68	50.40	-38.0	-39.1	22.1	0.00e+00	121	41	0	1120927744	48	6287
2026-01-19 01:01:05.76	221.22	50.60	-38.1	-39.2	22.0	0.00e+00	122	41	0	1124073472	48	6360
2026-01-19 01:01:06.76	221.75	50.79	-38.3	-39.4	21.8	0.00e+00	120	41	0	1127219200	48	6524
2026-01-19 01:01:07.78	222.30	50.99	-38.5	-39.6	21.8	0.00e+00	123	41	0	1130364928	48	6707
2026-01-19 01:01:08.78	222.85	51.19	-38.3	-39.3	22.3	0.00e+00	122	41	0	1133510656	48	6472
2026-01-19 01:01:09.80	223.42	51.38	-38.2	-39.2	22.5	0.00e+00	122	41	0	1136656384	48	6362
2026-01-19 01:01:10.81	223.99	51.57	-37.9	-38.8	22.8	0.00e+00	123	41	0	1139802112	48	6130
2026-01-19 01:01:11.82	224.56	51.76	-37.4	-38.4	23.0	0.00e+00	123	41	0	1142947840	48	5811
2026-01-19 01:01:12.83	225.15	51.95	-37.2	-38.1	23.3	0.00e+00	120	41	0	1146093568	48	5654
2026-01-19 01:01:13.84	225.74	52.13	-37.3	-38.2	23.2	0.00e+00	122	41	0	1149239296	48	5717
2026-01-19 01:01:14.85	226.33	52.31	-37.2	-38.2	23.2	0.00e+00	120	41	0	1152385024	48	5678
2026-01-19 01:01:15.86	226.94	52.49	-37.0	-37.9	23.3	0.00e+00	123	41	0	1155530752	48	5521
2026-01-19 01:01:16.88	227.56	52.67	-37.2	-38.2	22.9	0.00e+00	123	41	0	1158676480	48	5673
2026-01-19 01:01:17.89	228.18	52.84	-37.3	-38.3	22.8	0.00e+00	123	41	0	1161822208	48	5748
2026-01-19 01:01:18.89	228.80	53.01	-37.5	-38.5	22.6	0.00e+00	120	41	0	1164967936	48	5878
2026-01-19 01:01:19.91	229.44	53.18	-37.7	-38.8	22.3	0.00e+00	123	41	0	1168113664	48	6077
2026-01-19 01:01:20.91	230.07	53.34	-37.6	-38.7	22.6	0.00e+00	122	41	0	1171259392	48	6003
2026-01-19 01:01:21.92	230.72	53.51	-37.5	-38.4	22.8	0.00e+00	123	41	0	1174405120	48	5853
2026-01-19 01:01:22.93	231.37	53.66	-37.5	-38.5	22.7	0.00e+00	123	41	0	1177550848	48	5895
2026-01-19 01:01:23.94	232.03	53.82	-37.6	-38.6	22.7	0.00e+00	122	41	0	1180696576	48	5987
2026-01-19 01:01:24.95	232.70	53.97	-37.6	-38.6	22.6	0.00e+00	123	41	0	1183842304	48	5969
2026-01-19 01:01:25.96	233.38	54.12	-37.4	-38.4	22.9	0.00e+00	120	41	0	1186988032	48	5815
2026-01-19 01:01:26.97	234.06	54.26	-37.3	-38.3	22.9	0.00e+00	123	41	0	1190133760	48	5744
2026-01-19 01:01:27.98	234.75	54.41	-36.7	-37.7	23.3	0.00e+00	120	41	0	1193279488	46	6028
2026-01-19 01:01:28.99	235.45	54.54	-36.5	-37.5	23.4	0.00e+00	123	41	0	1196425216	46	5878
2026-01-19 01:01:30.01	236.16	54.68	-36.4	-37.4	23.5	0.00e+00	121	41	0	1199570944	46	5820
2026-01-19 01:01:31.01	236.86	54.81	-36.3	-37.2	23.8	0.00e+00	123	41	0	1202716672	46	5675
2026-01-19 01:01:32.03	237.58	54.93	-36.3	-37.2	23.5	0.00e+00	123	41	0	1205862400	46	5700
2026-01-19 01:01:33.04	238.31	55.06	-36.7	-37.7	23.2	0.00e+00	123	41	0	1209008128	46	5999
2026-01-19 01:01:34.05	239.03	55.17	-36.9	-37.9	23.2	0.00e+00	122	41	0	1212153856	46	6177
2026-01-19 01:01:35.06	239.77	55.29	-36.5	-37.4	23.6	0.00e+00	122	41	0	1215299584	46	5856
2026-01-19 01:01:36.07	240.51	55.39	-36.5	-37.4	23.6	0.00e+00	122	41	0	1218445312	46	5822
2026-01-19 01:01:37.08	241.25	55.50	-36.1	-37.0	23.9	0.00e+00	122	41	0	1221591040	46	5553
2026-01-19 01:01:38.09	242.00	55.60	-36.2	-37.1	23.8	0.00e+00	123	41	0	1224736768	46	5611
2026-01-19 01:01:39.10	242.76	55.69	-36.3	-37.2	23.8	0.00e+00	123	41	0	1227882496	46	5708
2026-01-19 01:01:40.11	243.52	55.78	-36.3	-37.2	23.8	0.00e+00	122	41	0	1231028224	46	5677
2026-01-19 01:01:41.12	244.28	55.87	-36.4	-37.3	23.5	0.00e+00	122	41	0	1234173952	46	5775
2026-01-19 01:01:42.13	245.05	55.95	-36.6	-37.5	23.3	0.00e+00	122	41	0	1237319680	46	5901
2026-01-19 01:01:43.14	245.83	56.03	-36.5	-37.5	23.3	0.00e+00	123	41	0	1240465408	46	5870
2026-01-19 01:01:44.15	246.61	56.10	-36.4	-37.3	23.5	0.00e+00	122	41	0	1243611136	46	5760
2026-01-19 01:01:45.16	247.39	56.16	-36.2	-37.1	23.5	0.00e+00	120	41	0	1246756864	46	5621
2026-01-19 01:01:46.17	248.17	56.22	-36.2	-37.2	23.5	0.00e+00	122	41	0	1249902592	46	5678
2026-01-19 01:01:47.18	248.96	56.28	-36.3	-37.2	23.5	0.00e+00	120	41	0	1254096896	46	5708
2026-01-19 01:01:48.19	249.75	56.33	-36.3	-37.2	23.4	0.00e+00	123	41	0	1256194048	46	5683
2026-01-19 01:01:49.20	250.55	56.38	-36.2	-37.2	23.3	0.00e+00	121	41	0	1259339776	46	5674
2026-01-19 01:01:50.22	251.35	56.42	-35.9	-36.9	23.5	0.00e+00	123	41	0	1262485504	46	5471
2026-01-19 01:01:51.23	252.15	56.45	-35.9	-36.8	23.6	0.00e+00	123	41	0	1265631232	46	5443
2026-01-19 01:01:52.24	252.95	56.48	-36.2	-37.2	23.3	0.00e+00	123	41	0	1269825536	46	5668
2026-01-19 01:01:53.25	253.76	56.50	-36.5	-37.5	23.2	0.00e+00	123	41	0	1272971264	46	5893
2026-01-19 01:01:54.26	254.56	56.52	-37.0	-38.0	22.8	0.00e+00	123	41	0	1276116992	46	6275
2026-01-19 01:01:55.27	255.36	56.54	-37.4	-38.4	22.6	0.00e+00	122	41	0	1279262720	46	6563
2026-01-19 01:01:56.28	256.17	56.55	-37.0	-38.0	23.1	0.00e+00	120	41	0	1282408448	46	6228
2026-01-19 01:01:57.29	256.98	56.55	-36.5	-37.4	23.5	0.00e+00	123	41	0	1285554176	46	5828
2026-01-19 01:01:58.30	257.78	56.55	-36.2	-37.1	23.6	0.00e+00	123	41	0	1288699904	46	5625
2026-01-19 01:01:59.31	258.59	56.54	-36.3	-37.3	23.7	0.00e+00	122	41	0	1291845632	46	5738
2026-01-19 01:02:00.32	259.39	56.52	-36.3	-37.3	23.6	0.00e+00	123	41	0	1294991360	46	5732
2026-01-19 01:02:01.33	260.19	56.50	-36.4	-37.4	23.6	0.00e+00	122	41	0	1298137088	46	5794
2026-01-19 01:02:02.34	261.00	56.48	-36.4	-37.3	23.5	0.00e+00	123	41	0	1301282816	46	5790
2026-01-19 01:02:03.35	261.80	56.45	-36.4	-37.4	23.5	0.00e+00	120	41	0	1304428544	46	5809
2026-01-19 01:02:04.36	262.60	56.42	-36.5	-37.5	23.7	0.00e+00	123	41	0	1307574272	46	5871
2026-01-19 01:02:05.37	263.39	56.38	-36.4	-37.3	23.7	0.00e+00	120	41	0	1310720000	46	5748
2026-01-19 01:02:06.39	264.19	56.33	-36.1	-37.0	23.8	0.00e+00	123	41	0	1313865728	46	5562
2026-01-19 01:02:07.40	264.99	56.28	-36.5	-37.4	23.6	0.00e+00	123	41	0	1317011456	46	5834
2026-01-19 01:02:08.41	265.77	56.22	-36.6	-37.6	23.5	0.00e+00	123	41	0	1320157184	46	5958
2026-01-19 01:02:09.42	266.56	56.16	-36.4	-37.3	23.6	0.00e+00	122	41	0	1323302912	46	5758
2026-01-19 01:02:10.43	267.34	56.10	-36.0	-37.0	23.8	0.00e+00	123	41	0	1326448640	46	5536
2026-01-19 01:02:11.44	268.12	56.03	-35.9	-36.8	23.9	0.00e+00	123	41	0	1329594368	46	5421
2026-01-19 01:02:12.45	268.89	55.95	-36.3	-37.2	23.6	0.00e+00	123	41	0	1332740096	46	5713
2026-01-19 01:02:13.46	269.66	55.87	-36.8	-37.7	23.3	0.00e+00	123	41	0	1335885824	46	6045
2026-01-19 01:02:14.47	270.43	55.79	-36.8	-37.7	23.4	0.00e+00	123	41	0	1339031552	46	6035
2026-01-19 01:02:15.48	271.19	55.70	-36.7	-37.6	23.6	0.00e+00	123	41	0	1342177280	46	5978
2026-01-19 01:02:16.49	271.94	55.60	-37.0	-38.0	23.4	0.00e+00	123	41	0	1345323008	46	6226
2026-01-19 01:02:17.50	272.69	55.50	-37.0	-38.0	23.4	0.00e+00	123	41	0	1348468736	46	6248
2026-01-19 01:02:18.51	273.44	55.40	-36.9	-37.8	23.5	0.00e+00	123	41	0	1351614464	46	6102
2026-01-19 01:02:19.52	274.17	55.29	-36.8	-37.7	23.6	0.00e+00	122	41	0	1354760192	46	6040
2026-01-19 01:02:20.53	274.91	55.18	-37.0	-38.0	23.3	0.00e+00	122	41	0	1357905920	46	6230
2026-01-19 01:02:21.54	275.64	55.06	-37.5	-38.5	22.9	0.00e+00	121	41	0	1361051648	46	6619
2026-01-19 01:02:22.55	276.36	54.94	-37.7	-38.7	22.8	0.00e+00	122	41	0	1364197376	48	6059
2026-01-19 01:02:23.56	277.07	54.81	-37.3	-38.3	23.2	0.00e+00	123	41	0	1367343104	48	5758
2026-01-19 01:02:24.57	277.78	54.68	-37.3	-38.2	23.1	0.00e+00	121	41	0	1370488832	48	5722
2026-01-19 01:02:25.58	278.48	54.55	-37.2	-38.2	23.4	0.00e+00	122	41	0	1373634560	48	5672
2026-01-19 01:02:26.58	279.17	54.41	-37.0	-37.9	23.5	0.00e+00	123	41	0	1376780288	48	5499
2026-01-19 01:02:27.60	279.87	54.27	-37.0	-38.0	23.4	0.00e+00	122	41	0	1379926016	48	5537
2026-01-19 01:02:28.60	280.54	54.13	-36.9	-37.8	23.7	0.00e+00	120	41	0	1383071744	48	5434
2026-01-19 01:02:29.62	281.22	53.98	-36.8	-37.7	23.8	0.00e+00	123	41	0	1386217472	48	5368
2026-01-19 01:02:30.63	281.89	53.83	-36.9	-37.9	23.5	0.00e+00	123	41	0	1389363200	46	6148
2026-01-19 01:02:31.64	282.55	53.67	-37.0	-38.0	23.6	0.00e+00	123	41	0	1392508928	46	6228
2026-01-19 01:02:32.65	283.21	53.52	-36.7	-37.7	23.6	0.00e+00	122	41	0	1395654656	46	6000
2026-01-19 01:02:33.66	283.86	53.35	-36.6	-37.5	23.7	0.00e+00	121	41	0	1398800384	46	5879
2026-01-19 01:02:34.67	284.49	53.19	-36.6	-37.6	23.6	0.00e+00	123	41	0	1401946112	46	5934
2026-01-19 01:02:35.68	285.13	53.02	-37.0	-37.9	23.4	0.00e+00	122	41	0	1405091840	46	6169
2026-01-19 01:02:36.69	285.75	52.85	-37.4	-38.4	23.2	0.00e+00	123	41	0	1408237568	46	6500
2026-01-19 01:02:37.70	286.37	52.68	-37.5	-38.5	23.1	0.00e+00	123	41	0	1411383296	46	6597
2026-01-19 01:02:38.71	286.98	52.50	-38.0	-39.0	22.6	0.00e+00	120	41	0	1414529024	48	6246
2026-01-19 01:02:39.73	287.59	52.32	-38.4	-39.5	22.2	0.00e+00	122	41	0	1417674752	48	6575
2026-01-19 01:02:40.73	288.18	52.14	-38.3	-39.3	22.3	0.00e+00	123	41	0	1420820480	48	6467
2026-01-19 01:02:41.74	288.77	51.96	-37.9	-38.9	22.7	0.00e+00	122	41	0	1423966208	48	6153
2026-01-19 01:02:42.75	289.35	51.78	-37.6	-38.5	22.9	0.00e+00	122	41	0	1427111936	48	5903
2026-01-19 01:02:43.76	289.93	51.59	-37.6	-38.6	23.1	0.00e+00	123	41	0	1430257664	48	5937
2026-01-19 01:02:44.77	290.50	51.40	-38.0	-38.9	22.8	0.00e+00	123	41	0	1433403392	48	6181
2026-01-19 01:02:45.78	291.06	51.21	-38.3	-39.3	22.5	0.00e+00	122	41	0	1436549120	48	6487
2026-01-19 01:02:46.79	291.61	51.01	-38.3	-39.4	22.4	0.00e+00	122	41	0	1439694848	48	6510
2026-01-19 01:02:47.81	292.16	50.81	-38.4	-39.4	22.1	0.00e+00	121	41	0	1442840576	48	6528
2026-01-19 01:02:48.82	292.70	50.62	-38.3	-39.4	22.1	0.00e+00	123	41	0	1445986304	48	6553
2026-01-19 01:02:49.83	293.23	50.42	-38.4	-39.5	22.0	0.00e+00	120	41	0	1449132032	48	6575
2026-01-19 01:02:50.83	293.75	50.22	-38.0	-39.0	22.5	0.00e+00	123	41	0	1452277760	48	6273
2026-01-19 01:02:51.84	294.27	50.01	-37.8	-38.8	22.8	0.00e+00	123	41	0	1455423488	48	6105
2026-01-19 01:02:52.86	294.79	49.81	-38.0	-39.0	22.8	0.00e+00	122	41	0	1458569216	48	6210
2026-01-19 01:02:53.87	295.29	49.60	-38.1	-39.1	22.8	0.00e+00	123	41	0	1461714944	48	6321
2026-01-19 01:02:54.88	295.79	49.40	-38.3	-39.3	22.5	0.00e+00	123	41	0	1464860672	48	6495
2026-01-19 01:02:55.89	296.28	49.19	-38.8	-39.9	21.9	0.00e+00	123	41	0	1468006400	48	6889
2026-01-19 01:02:56.90	296.77	48.98	-39.3	-40.4	21.7	0.00e+00	123	41	0	1471152128	50	6543
2026-01-19 01:02:57.91	297.25	48.77	-39.1	-40.2	21.8	0.00e+00	123	41	0	1474297856	50	6403
2026-01-19 01:02:58.92	297.72	48.56	-39.0	-40.0	21.7	0.00e+00	123	41	0	1477443584	50	6245
2026-01-19 01:02:59.93	298.18	48.34	-39.2	-40.2	21.6	0.00e+00	122	41	0	1480589312	50	6372
2026-01-19 01:03:00.94	298.64	48.13	-39.1	-40.2	21.5	0.00e+00	122	41	0	1483735040	50	6368
2026-01-19 01:03:01.95	299.09	47.92	-39.4	-40.5	21.5	0.00e+00	123	41	0	1486880768	50	6574
2026-01-19 01:03:02.96	299.54	47.70	-39.1	-40.1	21.8	0.00e+00	123	41	0	1490026496	50	6344
2026-01-19 01:03:03.97	299.98	47.49	-39.2	-40.2	21.8	0.00e+00	122	41	0	1493172224	50	6410
2026-01-19 01:03:04.98	300.42	47.27	-39.2	-40.3	21.7	0.00e+00	122	41	0	1496317952	50	6454
2026-01-19 01:03:05.99	300.84	47.05	-38.9	-39.9	21.8	0.00e+00	123	41	0	1499463680	50	6189
2026-01-19 01:03:07.00	301.27	46.83	-38.7	-39.8	22.0	0.00e+00	122	41	0	1502609408	50	6078
2026-01-19 01:03:08.01	301.68	46.62	-38.8	-39.8	21.8	0.00e+00	122	41	0	1505755136	50	6113
2026-01-19 01:03:09.03	302.10	46.40	-38.7	-39.7	21.9	0.00e+00	123	41	0	1508900864	50	6058
2026-01-19 01:03:10.04	302.50	46.18	-38.9	-40.0	21.7	0.00e+00	120	41	0	1512046592	50	6225
2026-01-19 01:03:11.05	302.90	45.96	-38.8	-39.8	22.1	0.00e+00	123	41	0	1515192320	50	6124
2026-01-19 01:03:12.06	303.30	45.74	-38.3	-39.3	22.5	0.00e+00	122	41	0	1518338048	50	5767
2026-01-19 01:03:13.07	303.69	45.52	-38.1	-39.1	22.7	0.00e+00	123	41	0	1521483776	50	5643
2026-01-19 01:03:14.08	304.07	45.30	-38.7	-39.7	22.3	0.00e+00	127	41	0	1524629504	50	6011
2026-01-19 01:03:15.09	304.45	45.08	-39.0	-40.0	21.8	0.00e+00	122	41	0	1527775232	50	6268
2026-01-19 01:03:16.10	304.82	44.86	-39.3	-40.4	21.6	0.00e+00	123	41	0	1530920960	50	6516
2026-01-19 01:03:17.11	305.19	44.64	-39.4	-40.5	21.5	0.00e+00	122	41	0	1534066688	50	6605
2026-01-19 01:03:18.12	305.56	44.42	-39.5	-40.6	21.2	0.00e+00	122	41	0	1537212416	50	6665
2026-01-19 01:03:19.13	305.91	44.20	-39.6	-40.7	21.0	0.00e+00	120	41	0	1541406720	50	6782
2026-01-19 01:03:20.14	306.27	43.98	-39.5	-40.6	21.1	0.00e+00	120	41	0	1544552448	50	6660
2026-01-19 01:03:21.15	306.62	43.76	-39.1	-40.1	21.6	0.00e+00	123	41	0	1547698176	50	6345
2026-01-19 01:03:22.16	306.96	43.54	-38.8	-39.8	21.9	0.00e+00	122	41	0	1549795328	50	6114
2026-01-19 01:03:23.17	307.30	43.32	-38.3	-39.3	22.4	0.00e+00	120	41	0	1552941056	50	5762
2026-01-19 01:03:24.18	307.63	43.10	-38.2	-39.2	22.3	0.00e+00	123	41	0	1557135360	50	5713
2026-01-19 01:03:25.19	307.96	42.88	-38.7	-39.7	22.0	0.00e+00	120	41	0	1560281088	50	6045
2026-01-19 01:03:26.20	308.29	42.66	-39.1	-40.2	21.6	0.00e+00	122	41	0	1563426816	50	6373
2026-01-19 01:03:27.21	308.61	42.44	-39.4	-40.5	21.5	0.00e+00	120	41	0	1566572544	50	6597
2026-01-19 01:03:28.22	308.93	42.22	-39.3	-40.4	21.6	0.00e+00	122	41	0	1569718272	50	6518
2026-01-19 01:03:29.24	309.25	42.00	-39.4	-40.5	21.5	0.00e+00	120	41	0	1572864000	50	6630
2026-01-19 01:03:30.25	309.55	41.78	-39.1	-40.1	21.8	0.00e+00	123	41	0	1576009728	50	6339
2026-01-19 01:03:31.26	309.86	41.57	-38.8	-39.9	21.9	0.00e+00	123	41	0	1579155456	50	6155
2026-01-19 01:03:32.27	310.16	41.35	-38.8	-39.8	22.0	0.00e+00	123	41	0	1582301184	50	6131
2026-01-19 01:03:33.28	310.46	41.13	-38.7	-39.8	22.1	0.00e+00	122	41	0	1585446912	50	6072
2026-01-19 01:03:34.29	310.75	40.92	-38.7	-39.7	22.2	0.00e+00	121	41	0	1588592640	50	6047
2026-01-19 01:03:35.30	311.04	40.70	-38.6	-39.6	22.3	0.00e+00	123	41	0	1591738368	50	5960
2026-01-19 01:03:36.31	311.32	40.49	-38.8	-39.8	22.1	0.00e+00	122	41	0	1594884096	50	6111
2026-01-19 01:03:37.32	311.61	40.27	-38.7	-39.8	22.2	0.00e+00	122	41	0	1598029824	50	6067
2026-01-19 01:03:38.33	311.88	40.06	-38.5	-39.5	22.4	0.00e+00	123	41	0	1601175552	50	5860
2026-01-19 01:03:39.34	312.16	39.84	-38.5	-39.5	22.3	0.00e+00	122	41	0	1604321280	50	5876
2026-01-19 01:03:40.35	312.43	39.63	-38.6	-39.6	21.9	0.00e+00	122	41	0	1607467008	50	5948
2026-01-19 01:03:41.36	312.70	39.42	-39.1	-40.2	21.3	0.00e+00	120	41	0	1610612736	50	6385
2026-01-19 01:03:42.37	312.96	39.21	-39.3	-40.4	21.2	0.00e+00	122	41	0	1613758464	50	6547
2026-01-19 01:03:43.38	313.22	39.00	-39.1	-40.3	21.6	0.00e+00	120	41	0	1616904192	50	6432
2026-01-19 01:03:44.39	313.48	38.79	-38.8	-39.8	22.0	0.00e+00	123	41	0	1620049920	50	6114
2026-01-19 01:03:45.41	313.74	38.57	-38.3	-39.3	22.5	0.00e+00	120	41	0	1623195648	50	5776
2026-01-19 01:03:46.42	313.99	38.37	-38.3	-39.3	22.5	0.00e+00	123	41	0	1626341376	50	5773
2026-01-19 01:03:47.43	314.23	38.16	-38.4	-39.4	22.5	0.00e+00	122	41	0	1629487104	50	5847
2026-01-19 01:03:48.44	314.48	37.95	-38.8	-39.8	22.1	0.00e+00	123	41	0	1632632832	50	6066
2026-01-19 01:03:49.45	314.72	37.74	-38.8	-39.8	22.1	0.00e+00	121	41	0	1635778560	50	6112
2026-01-19 01:03:50.46	314.96	37.54	-38.5	-39.5	22.4	0.00e+00	120	41	0	1638924288	50	5896
2026-01-19 01:03:51.47	315.20	37.33	-38.4	-39.4	22.5	0.00e+00	123	41	0	1642070016	50	5842
2026-01-19 01:03:52.48	315.43	37.13	-38.1	-39.1	22.8	0.00e+00	123	41	0	1645215744	50	5641
2026-01-19 01:03:53.49	315.66	36.92	-37.8	-38.8	22.9	0.00e+00	120	41	0	1648361472	50	5428
2026-01-19 01:03:54.50	315.89	36.72	-37.8	-38.8	23.1	0.00e+00	123	41	0	1651507200	48	6092
2026-01-19 01:03:55.51	316.11	36.52	-37.5	-38.4	23.2	0.00e+00	122	41	0	1654652928	48	5850
2026-01-19 01:03:56.52	316.33	36.32	-37.6	-38.5	23.1	0.00e+00	123	41	0	1657798656	48	5925
2026-01-19 01:03:57.53	316.55	36.12	-37.4	-38.4	23.3	0.00e+00	121	41	0	1660944384	48	5810
2026-01-19 01:03:58.54	316.77	35.92	-37.5	-38.5	23.2	0.00e+00	123	41	0	1664090112	48	5880
2026-01-19 01:03:59.55	316.98	35.72	-37.6	-38.6	23.1	0.00e+00	124	41	0	1667235840	48	5930
2026-01-19 01:04:00.56	317.19	35.52	-37.6	-38.6	23.2	0.00e+00	123	41	0	1670381568	48	5940
2026-01-19 01:04:01.57	317.40	35.32	-37.7	-38.7	23.0	0.00e+00	123	41	0	1673527296	48	6011
2026-01-19 01:04:02.58	317.61	35.13	-37.5	-38.5	23.2	0.00e+00	123	41	0	1676673024	48	5903
2026-01-19 01:04:03.59	317.81	34.93	-37.4	-38.4	23.3	0.00e+00	123	41	0	1679818752	48	5814
2026-01-19 01:04:04.60	318.01	34.74	-37.4	-38.3	23.3	0.00e+00	123	41	0	1682964480	48	5752
2026-01-19 01:04:05.61	318.21	34.54	-37.1	-38.1	23.5	0.00e+00	123	41	0	1686110208	48	5611
2026-01-19 01:04:06.62	318.41	34.35	-37.2	-38.2	23.3	0.00e+00	123	41	0	1689255936	48	5667
2026-01-19 01:04:07.63	318.61	34.16	-37.1	-38.1	23.3	0.00e+00	123	41	0	1692401664	48	5621
2026-01-19 01:04:08.64	318.80	33.96	-37.1	-38.1	23.4	0.00e+00	123	41	0	1695547392	48	5597
2026-01-19 01:04:09.65	318.99	33.77	-37.2	-38.1	23.4	0.00e+00	122	41	0	1698693120	48	5633
2026-01-19 01:04:10.66	319.18	33.58	-36.9	-37.8	23.7	0.00e+00	123	41	0	1701838848	48	5418
2026-01-19 01:04:11.67	319.36	33.40	-36.8	-37.7	23.8	0.00e+00	122	41	0	1704984576	48	5375
2026-01-19 01:04:12.69	319.55	33.21	-36.7	-37.6	23.8	0.00e+00	122	41	0	1708130304	46	5939
2026-01-19 01:04:13.70	319.73	33.02	-36.6	-37.5	23.9	0.00e+00	123	41	0	1711276032	46	5915
2026-01-19 01:04:14.71	319.91	32.83	-36.8	-37.7	23.8	0.00e+00	122	41	0	1714421760	46	6014
2026-01-19 01:04:15.72	320.09	32.65	-37.0	-38.0	23.5	0.00e+00	123	41	0	1717567488	46	6213
2026-01-19 01:04:16.73	320.26	32.46	-37.3	-38.3	23.3	0.00e+00	122	41	0	1720713216	46	6436
2026-01-19 01:04:17.74	320.44	32.28	-37.3	-38.3	23.3	0.00e+00	123	41	0	1723858944	46	6441
2026-01-19 01:04:18.75	320.61	32.09	-37.4	-38.3	23.3	0.00e+00	122	41	0	1727004672	46	6491
2026-01-19 01:04:19.76	320.78	31.91	-37.4	-38.3	23.1	0.00e+00	120	41	0	1730150400	46	6489
2026-01-19 01:04:20.77	320.95	31.73	-37.0	-37.9	23.3	0.00e+00	122	41	0	1733296128	46	6177
2026-01-19 01:04:21.78	321.11	31.55	-36.8	-37.8	23.4	0.00e+00	123	41	0	1736441856	46	6090
2026-01-19 01:04:22.79	321.28	31.37	-36.7	-37.7	23.5	0.00e+00	123	41	0	1739587584	46	6003
2026-01-19 01:04:23.80	321.44	31.19	-36.3	-37.2	23.9	0.00e+00	120	41	0	1742733312	46	5677
2026-01-19 01:04:24.81	321.60	31.02	-36.1	-37.0	24.1	0.00e+00	122	41	0	1745879040	46	5573
2026-01-19 01:04:25.83	321.76	30.84	-35.9	-36.8	24.2	0.00e+00	123	41	0	1749024768	46	5454
2026-01-19 01:04:26.84	321.92	30.66	-35.8	-36.7	24.3	0.00e+00	116	41	0	1752170496	46	5345
2026-01-19 01:04:27.85	322.08	30.48	-35.8	-36.7	24.3	0.00e+00	122	41	0	1755316224	46	5385
2026-01-19 01:04:28.86	322.23	30.31	-35.6	-36.5	24.4	0.00e+00	120	41	0	1758461952	44	5893
2026-01-19 01:04:29.87	322.39	30.14	-35.7	-36.6	24.4	0.00e+00	120	41	0	1761607680	44	5951
2026-01-19 01:04:30.88	322.54	29.96	-35.9	-36.7	24.3	0.00e+00	123	41	0	1764753408	44	6046
2026-01-19 01:04:31.89	322.69	29.79	-36.0	-36.9	24.2	0.00e+00	123	41	0	1767899136	44	6202
2026-01-19 01:04:32.90	322.84	29.62	-36.2	-37.1	24.0	0.00e+00	123	41	0	1771044864	44	6330
2026-01-19 01:04:33.91	322.98	29.45	-36.5	-37.4	23.7	0.00e+00	120	41	0	1774190592	44	6547
2026-01-19 01:04:34.92	323.13	29.28	-36.6	-37.5	23.8	0.00e+00	123	41	0	1777336320	44	6583
2026-01-19 01:04:35.93	323.27	29.11	-36.6	-37.5	23.7	0.00e+00	122	41	0	1780482048	44	6645
2026-01-19 01:04:36.94	323.41	28.94	-36.7	-37.6	23.7	0.00e+00	120	41	0	1783627776	44	6664
2026-01-19 01:04:37.95	323.55	28.78	-36.7	-37.6	23.6	0.00e+00	123	41	0	1786773504	46	5968
2026-01-19 01:04:38.96	323.69	28.61	-36.9	-37.8	23.3	0.00e+00	122	41	0	1789919232	46	6117
2026-01-19 01:04:39.97	323.83	28.45	-36.7	-37.7	23.4	0.00e+00	123	41	0	1793064960	46	6023
2026-01-19 01:04:40.98	323.97	28.28	-36.9	-37.8	23.3	0.00e+00	120	41	0	1796210688	46	6097
2026-01-19 01:04:41.99	324.10	28.12	-36.9	-37.8	23.4	0.00e+00	122	41	0	1799356416	46	6121
2026-01-19 01:04:43.00	324.24	27.96	-36.9	-37.8	23.3	0.00e+00	122	41	0	1802502144	46	6132
2026-01-19 01:04:44.01	324.37	27.79	-36.7	-37.6	23.4	0.00e+00	122	41	0	1805647872	46	5973
2026-01-19 01:04:45.02	324.50	27.63	-36.7	-37.7	23.4	0.00e+00	122	41	0	1808793600	46	6024
2026-01-19 01:04:46.03	324.63	27.47	-36.7	-37.7	23.4	0.00e+00	122	41	0	1812987904	46	6001
2026-01-19 01:04:47.04	324.76	27.31	-36.6	-37.5	23.6	0.00e+00	120	41	0	1816133632	46	5895
2026-01-19 01:04:48.05	324.89	27.15	-36.6	-37.5	23.5	0.00e+00	123	41	0	1818230784	46	5891
2026-01-19 01:04:49.06	325.02	26.99	-36.5	-37.4	23.6	0.00e+00	122	41	0	1821376512	46	5828
2026-01-19 01:04:50.07	325.14	26.84	-36.5	-37.4	23.5	0.00e+00	123	41	0	1824522240	46	5844
2026-01-19 01:04:51.09	325.27	26.68	-36.4	-37.3	23.6	0.00e+00	122	41	0	1828716544	46	5789
2026-01-19 01:04:52.10	325.39	26.52	-36.3	-37.3	23.6	0.00e+00	120	41	0	1831862272	46	5739
2026-01-19 01:04:53.11	325.51	26.37	-36.3	-37.3	23.6	0.00e+00	122	41	0	1835008000	46	5729
2026-01-19 01:04:54.12	325.63	26.21	-36.4	-37.3	23.6	0.00e+00	120	41	0	1838153728	46	5751
2026-01-19 01:04:55.13	325.75	26.06	-36.4	-37.3	23.5	0.00e+00	123	41	0	1840250880	46	5781
2026-01-19 01:04:56.14	325.87	25.91	-36.4	-37.4	23.6	0.00e+00	122	41	0	1844445184	46	5793
2026-01-19 01:04:57.15	325.99	25.76	-36.2	-37.1	23.8	0.00e+00	123	41	0	1847590912	46	5659
2026-01-19 01:04:58.16	326.10	25.60	-36.1	-37.1	23.8	0.00e+00	123	41	0	1850736640	46	5600
2026-01-19 01:04:59.17	326.22	25.45	-36.2	-37.1	23.9	0.00e+00	123	41	0	1853882368	46	5616
2026-01-19 01:05:00.18	326.33	25.30	-36.3	-37.2	23.8	0.00e+00	123	41	0	1857028096	46	5701
2026-01-19 01:05:01.19	326.45	25.15	-36.2	-37.1	23.9	0.00e+00	122	41	0	1860173824	46	5633
2026-01-19 01:05:02.20	326.56	25.01	-35.9	-36.8	24.1	0.00e+00	123	41	0	1863319552	46	5461
2026-01-19 01:05:03.21	326.67	24.86	-36.0	-36.9	24.2	0.00e+00	123	41	0	1866465280	46	5473
2026-01-19 01:05:04.22	326.78	24.71	-35.9	-36.8	24.2	0.00e+00	122	41	0	1869611008	46	5409
2026-01-19 01:05:05.23	326.89	24.57	-35.9	-36.8	24.3	0.00e+00	123	41	0	1872756736	46	5418
2026-01-19 01:05:06.24	327.00	24.42	-35.9	-36.8	24.1	0.00e+00	122	41	0	1875902464	46	5451
2026-01-19 01:05:07.25	327.10	24.28	-36.0	-36.9	24.1	0.00e+00	123	41	0	1879048192	46	5483
2026-01-19 01:05:08.26	327.21	24.13	-36.0	-37.0	24.1	0.00e+00	122	41	0	1882193920	46	5539
2026-01-19 01:05:09.27	327.32	23.99	-36.1	-37.0	24.0	0.00e+00	123	41	0	1885339648	46	5583
2026-01-19 01:05:10.28	327.42	23.85	-36.1	-37.0	24.0	0.00e+00	122	41	0	1888485376	46	5591
2026-01-19 01:05:11.29	327.52	23.70	-36.2	-37.1	24.0	0.00e+00	119	41	0	1891631104	46	5644
2026-01-19 01:05:12.29	327.63	23.56	-36.4	-37.3	23.9	0.00e+00	123	41	0	1894776832	46	5767
2026-01-19 01:05:13.31	327.73	23.42	-36.4	-37.3	23.9	0.00e+00	120	41	0	1897922560	46	5741
2026-01-19 01:05:14.32	327.83	23.28	-36.3	-37.2	24.0	0.00e+00	122	41	0	1901068288	46	5712
2026-01-19 01:05:15.33	327.93	23.14	-36.2	-37.2	24.0	0.00e+00	123	41	0	1904214016	46	5668
2026-01-19 01:05:16.34	328.03	23.00	-36.3	-37.2	24.0	0.00e+00	123	41	0	1907359744	46	5692
2026-01-19 01:05:17.35	328.13	22.87	-36.3	-37.2	24.0	0.00e+00	123	41	0	1910505472	46	5678
2026-01-19 01:05:18.36	328.22	22.73	-36.4	-37.3	23.9	0.00e+00	122	41	0	1913651200	46	5746
2026-01-19 01:05:19.37	328.32	22.59	-36.4	-37.3	23.9	0.00e+00	120	41	0	1916796928	46	5748
2026-01-19 01:05:20.38	328.42	22.46	-36.5	-37.5	23.7	0.00e+00	120	41	0	1919942656	46	5875
2026-01-19 01:05:21.39	328.51	22.32	-36.4	-37.4	23.8	0.00e+00	120	41	0	1923088384	46	5798
2026-01-19 01:05:22.40	328.61	22.19	-36.5	-37.4	23.8	0.00e+00	123	41	0	1926234112	46	5832
2026-01-19 01:05:23.41	328.70	22.05	-36.4	-37.3	23.9	0.00e+00	122	41	0	1929379840	46	5770
2026-01-19 01:05:24.42	328.79	21.92	-36.5	-37.4	23.8	0.00e+00	123	41	0	1932525568	46	5852
2026-01-19 01:05:25.43	328.89	21.79	-36.4	-37.4	23.8	0.00e+00	120	41	0	1935671296	46	5805
2026-01-19 01:05:26.44	328.98	21.65	-36.4	-37.3	23.8	0.00e+00	123	41	0	1938817024	46	5761
2026-01-19 01:05:27.45	329.07	21.52	-36.3	-37.2	23.8	0.00e+00	122	41	0	1941962752	46	5694
2026-01-19 01:05:28.46	329.16	21.39	-36.2	-37.2	23.9	0.00e+00	123	41	0	1945108480	46	5667
2026-01-19 01:05:29.48	329.25	21.26	-36.2	-37.1	23.9	0.00e+00	123	41	0	1948254208	46	5612
2026-01-19 01:05:30.49	329.34	21.13	-36.2	-37.2	23.8	0.00e+00	123	41	0	1951399936	46	5664
2026-01-19 01:05:31.50	329.42	21.00	-36.1	-37.0	23.9	0.00e+00	123	41	0	1954545664	46	5587
2026-01-19 01:05:32.51	329.51	20.87	-36.2	-37.1	23.8	0.00e+00	122	41	0	1957691392	46	5659
2026-01-19 01:05:33.52	329.60	20.74	-36.1	-37.0	23.9	0.00e+00	120	41	0	1960837120	46	5566
