passes_logs/2026/01/19/R4.6S_Anadyr/R4.6S_Anadyr__20260119_182934_SUOMI_NPP_rec.log

#Pass ID: 20260119_182934_SUOMI NPP
#Satellite: SUOMI NPP
#Configuration: NPP
#almurnet v.1.7.20251203
#Start time: 2026-01-19 18:29:37

#Version: 2.2.20231116
#Station: R4.6S_Anadyr
#Location: 177.4865 lon 64.73178 lat
#TLE: 1 37849U 11061A   26019.26265094  .00000081  00000+0  59609-4 0  9993
#TLE: 2 37849  98.7817 321.2746 0002356  56.2510 303.8890 14.19526363737315

#Time	Az	El	Level	Level2	SNR	BER	BlckErr	Temp	State	Recorded	gain1	gain2
2026-01-19 18:29:37.64	40.34	0.14	-50.1	-61.8	3.5	8.46e-01	0	37	0	0	60	44325
2026-01-19 18:29:38.65	40.27	0.19	-51.2	-66.4	3.6	1.51e+00	0	38	104	0	60	75334
2026-01-19 18:29:39.66	40.20	0.24	-51.7	-66.9	3.6	1.51e+00	0	38	104	0	60	79848
2026-01-19 18:29:40.67	40.12	0.29	-52.0	-67.2	3.6	1.51e+00	0	38	104	0	60	83261
2026-01-19 18:29:41.68	40.05	0.34	-51.9	-67.1	3.6	1.51e+00	0	38	104	0	60	81934
2026-01-19 18:29:42.69	39.98	0.39	-52.2	-67.4	3.6	1.51e+00	0	38	104	0	60	84430
2026-01-19 18:29:43.70	39.91	0.45	-51.8	-67.0	3.6	1.51e+00	0	38	104	0	60	80809
2026-01-19 18:29:44.71	39.83	0.50	-51.4	-66.6	3.6	1.51e+00	0	39	104	0	60	77644
2026-01-19 18:29:45.72	39.76	0.55	-51.2	-66.4	3.6	1.51e+00	0	39	104	0	60	75426
2026-01-19 18:29:46.73	39.68	0.60	-50.7	-65.9	3.6	1.51e+00	0	39	104	0	60	71564
2026-01-19 18:29:47.73	39.61	0.65	-50.3	-65.5	3.6	1.51e+00	0	39	104	0	60	68331
2026-01-19 18:29:48.74	39.54	0.70	-50.2	-65.5	3.6	1.51e+00	0	39	104	0	60	67860
2026-01-19 18:29:49.75	39.46	0.75	-50.2	-65.3	3.6	1.51e+00	0	39	104	0	60	66726
2026-01-19 18:29:50.76	39.39	0.80	-49.9	-65.1	3.6	1.51e+00	0	39	104	0	60	64905
2026-01-19 18:29:51.77	39.31	0.85	-49.7	-64.9	3.6	1.51e+00	0	39	104	0	60	63647
2026-01-19 18:29:52.78	39.24	0.90	-49.6	-64.8	3.6	1.51e+00	0	39	104	0	60	62758
2026-01-19 18:29:53.79	39.16	0.95	-49.6	-64.8	3.6	1.51e+00	0	39	104	0	60	63037
2026-01-19 18:29:54.80	39.09	1.01	-49.5	-64.7	3.6	1.51e+00	0	39	104	0	60	62332
2026-01-19 18:29:55.81	39.01	1.06	-49.5	-64.7	3.6	1.51e+00	0	39	104	0	60	62435
2026-01-19 18:29:56.82	38.93	1.11	-49.4	-64.6	3.6	1.51e+00	0	39	104	0	60	61695
2026-01-19 18:29:57.83	38.86	1.16	-49.4	-64.6	3.6	1.51e+00	0	39	104	0	60	61598
2026-01-19 18:29:58.83	38.78	1.21	-49.4	-64.6	3.6	1.51e+00	0	39	104	0	60	61314
2026-01-19 18:29:59.84	38.70	1.26	-49.3	-64.5	3.6	1.51e+00	0	39	104	0	60	60548
2026-01-19 18:30:00.85	38.62	1.31	-49.2	-64.4	3.6	1.51e+00	0	39	104	0	60	59815
2026-01-19 18:30:01.86	38.55	1.36	-49.1	-64.3	3.6	1.51e+00	0	39	104	0	60	59056
2026-01-19 18:30:02.87	38.47	1.42	-48.9	-64.1	3.6	1.51e+00	0	39	104	0	60	57681
2026-01-19 18:30:03.88	38.39	1.47	-48.6	-63.8	3.6	1.51e+00	0	39	104	0	60	56170
2026-01-19 18:30:04.89	38.31	1.52	-48.4	-63.6	3.6	1.51e+00	0	39	104	0	60	54482
2026-01-19 18:30:05.90	38.23	1.57	-47.9	-63.1	3.6	1.51e+00	0	39	104	0	60	51541
2026-01-19 18:30:06.91	38.15	1.62	-47.9	-63.0	3.6	1.51e+00	0	39	104	0	60	50914
2026-01-19 18:30:07.92	38.07	1.67	-47.8	-63.0	3.6	1.51e+00	0	39	104	0	60	50814
2026-01-19 18:30:08.93	37.99	1.73	-47.8	-63.0	3.6	1.51e+00	0	39	104	0	60	51216
2026-01-19 18:30:09.94	37.91	1.78	-47.8	-63.0	3.6	1.51e+00	0	39	104	0	60	51193
2026-01-19 18:30:10.95	37.83	1.83	-47.8	-63.0	3.6	1.51e+00	0	39	104	0	60	50879
2026-01-19 18:30:11.96	37.75	1.88	-47.8	-63.0	3.6	1.51e+00	0	39	104	0	60	51144
2026-01-19 18:30:12.97	37.67	1.93	-47.8	-62.9	3.6	1.51e+00	0	39	104	0	60	50693
2026-01-19 18:30:13.99	37.59	1.99	-47.8	-62.8	3.6	1.51e+00	0	39	104	0	60	49769
2026-01-19 18:30:14.99	37.51	2.04	-47.8	-62.8	3.6	1.51e+00	0	39	104	0	60	50055
2026-01-19 18:30:16.00	37.43	2.09	-47.8	-62.7	3.6	1.51e+00	0	39	104	0	60	49550
2026-01-19 18:30:17.01	37.34	2.14	-47.8	-62.6	3.6	1.51e+00	0	39	104	0	60	48807
2026-01-19 18:30:18.02	37.26	2.19	-47.8	-62.7	3.6	1.51e+00	0	39	104	0	60	49522
2026-01-19 18:30:19.03	37.18	2.25	-47.8	-62.8	3.6	1.51e+00	0	39	104	0	60	50061
2026-01-19 18:30:20.04	37.09	2.30	-47.8	-63.0	3.6	1.51e+00	0	39	104	0	60	51239
2026-01-19 18:30:21.05	37.01	2.35	-47.8	-63.1	3.6	1.51e+00	0	39	104	0	60	51369
2026-01-19 18:30:22.06	36.93	2.40	-47.8	-63.0	3.6	1.51e+00	0	39	104	0	60	51005
2026-01-19 18:30:23.07	36.84	2.45	-47.8	-63.0	3.6	1.51e+00	0	39	104	0	60	50808
2026-01-19 18:30:24.08	36.76	2.51	-47.8	-63.0	3.6	1.51e+00	0	39	104	0	60	50946
2026-01-19 18:30:25.09	36.67	2.56	-47.8	-63.0	3.6	1.51e+00	0	39	104	0	60	50789
2026-01-19 18:30:26.10	36.59	2.61	-47.8	-62.8	3.6	1.51e+00	0	39	104	0	60	49725
2026-01-19 18:30:27.11	36.50	2.66	-47.8	-62.0	3.6	1.51e+00	0	39	104	0	60	45307
2026-01-19 18:30:28.12	36.42	2.72	-47.7	-61.5	3.6	1.51e+00	0	39	104	0	60	42870
2026-01-19 18:30:29.13	36.33	2.77	-47.8	-62.0	3.6	1.50e+00	0	39	104	0	60	45286
2026-01-19 18:30:30.14	36.25	2.82	-47.8	-62.5	3.6	1.51e+00	0	39	104	0	60	48270
2026-01-19 18:30:31.15	36.16	2.87	-47.8	-62.2	3.6	1.51e+00	0	39	104	0	60	46406
2026-01-19 18:30:32.16	36.07	2.93	-47.6	-59.5	3.7	1.51e+00	0	39	104	0	60	34244
2026-01-19 18:30:33.17	35.98	2.98	-47.3	-56.0	5.8	5.06e-01	0	39	104	0	60	22898
2026-01-19 18:30:34.18	35.90	3.03	-47.0	-53.6	7.5	1.63e-01	0	39	0	1048576	60	17337
2026-01-19 18:30:35.19	35.81	3.09	-46.5	-52.1	9.2	7.27e-02	0	39	0	3145728	60	14560
2026-01-19 18:30:36.20	35.72	3.14	-48.0	-62.5	3.6	1.51e+00	0	39	104	4194304	60	48375
2026-01-19 18:30:37.21	35.63	3.19	-43.3	-45.7	15.9	8.07e-01	0	39	104	4194304	60	6946
2026-01-19 18:30:38.22	35.54	3.24	-47.7	-62.5	3.6	9.79e-01	0	39	104	4194304	60	48067
2026-01-19 18:30:39.23	35.45	3.30	-47.7	-58.3	4.2	1.46e+00	0	39	104	4194304	60	29623
2026-01-19 18:30:40.24	35.36	3.35	-44.9	-48.3	13.5	2.97e-01	0	39	104	4194304	60	9379
2026-01-19 18:30:41.25	35.27	3.40	-45.0	-48.5	13.5	7.00e-07	0	39	0	5242880	60	9641
2026-01-19 18:30:42.26	35.18	3.46	-45.0	-48.5	12.8	1.60e-05	0	39	0	7340032	60	9585
2026-01-19 18:30:43.27	35.09	3.51	-45.1	-48.7	13.6	5.30e-06	0	39	0	9437184	60	9841
2026-01-19 18:30:44.28	35.00	3.56	-44.8	-48.0	13.6	5.30e-06	0	39	0	10485760	60	9123
2026-01-19 18:30:45.29	34.91	3.61	-45.4	-49.2	13.6	3.80e-06	0	39	0	12582912	60	10369
2026-01-19 18:30:46.30	34.82	3.67	-45.0	-48.3	14.2	1.75e-05	0	39	0	14680064	60	9351
2026-01-19 18:30:47.31	34.73	3.72	-44.5	-47.5	14.8	1.50e-06	0	39	0	16777216	60	8527
2026-01-19 18:30:48.32	34.63	3.77	-45.1	-48.3	14.3	3.80e-06	0	39	0	18874368	60	9410
2026-01-19 18:30:49.33	34.54	3.83	-44.6	-47.5	14.2	2.20e-06	0	39	0	19922944	60	8603
2026-01-19 18:30:50.34	34.45	3.88	-45.1	-48.5	14.0	7.00e-07	0	39	0	22020096	60	9591
2026-01-19 18:30:51.35	34.36	3.93	-44.4	-47.2	14.5	0.00e+00	0	39	0	24117248	60	8255
2026-01-19 18:30:52.36	34.26	3.99	-44.9	-48.0	14.5	0.00e+00	0	39	0	26214400	60	9078
2026-01-19 18:30:53.37	34.17	4.04	-44.4	-47.0	14.9	0.00e+00	0	39	0	28311552	60	8109
2026-01-19 18:30:54.37	34.07	4.09	-45.0	-48.1	14.6	7.00e-07	0	39	0	29360128	60	9183
2026-01-19 18:30:55.38	33.98	4.15	-44.6	-47.4	14.5	7.00e-07	0	39	0	31457280	60	8513
2026-01-19 18:30:56.39	33.88	4.20	-44.6	-47.4	15.0	0.00e+00	0	39	0	33554432	60	8491
2026-01-19 18:30:57.40	33.79	4.25	-44.2	-46.7	15.6	0.00e+00	0	39	0	35651584	60	7785
2026-01-19 18:30:58.41	33.69	4.31	-44.4	-47.1	15.1	0.00e+00	0	39	0	37748736	60	8214
2026-01-19 18:30:59.42	33.60	4.36	-44.2	-46.7	16.3	0.00e+00	0	39	0	38797312	60	7788
2026-01-19 18:31:00.43	33.50	4.41	-43.8	-46.1	16.2	0.00e+00	0	39	0	40894464	60	7261
2026-01-19 18:31:01.44	33.40	4.47	-43.8	-46.1	16.5	0.00e+00	0	39	0	42991616	60	7256
2026-01-19 18:31:02.45	33.31	4.52	-43.5	-45.7	17.0	0.00e+00	0	39	0	45088768	60	6935
2026-01-19 18:31:03.46	33.21	4.58	-43.4	-45.5	17.1	0.00e+00	0	39	0	47185920	60	6796
2026-01-19 18:31:04.47	33.11	4.63	-43.1	-45.0	17.4	0.00e+00	0	39	0	48234496	60	6453
2026-01-19 18:31:05.48	33.01	4.68	-42.6	-44.5	17.8	0.00e+00	0	39	0	50331648	58	6775
2026-01-19 18:31:06.49	32.91	4.74	-42.9	-44.9	17.5	0.00e+00	0	39	0	52428800	58	7095
2026-01-19 18:31:07.50	32.81	4.79	-42.6	-44.4	17.9	0.00e+00	0	39	0	54525952	58	6738
2026-01-19 18:31:08.51	32.71	4.84	-42.7	-44.6	17.5	0.00e+00	0	39	0	56623104	58	6864
2026-01-19 18:31:09.52	32.61	4.90	-43.0	-44.9	17.3	0.00e+00	0	39	0	57671680	58	7159
2026-01-19 18:31:10.53	32.51	4.95	-43.3	-45.4	17.0	0.00e+00	0	39	0	59768832	58	7515
2026-01-19 18:31:11.54	32.41	5.01	-43.6	-45.7	16.5	0.00e+00	0	39	0	61865984	58	7837
2026-01-19 18:31:12.55	32.31	5.06	-43.3	-45.3	17.0	0.00e+00	0	39	0	63963136	58	7483
2026-01-19 18:31:13.56	32.21	5.11	-43.6	-45.8	16.6	0.00e+00	0	39	0	66060288	58	7866
2026-01-19 18:31:14.57	32.11	5.17	-42.9	-44.8	17.6	0.00e+00	0	39	0	68157440	58	7060
2026-01-19 18:31:15.58	32.00	5.22	-43.6	-45.9	16.7	0.00e+00	0	39	0	69206016	58	7977
2026-01-19 18:31:16.59	31.90	5.28	-43.0	-44.9	17.3	0.00e+00	0	39	0	71303168	58	7163
2026-01-19 18:31:17.60	31.80	5.33	-43.1	-45.0	17.4	0.00e+00	0	39	0	73400320	58	7253
2026-01-19 18:31:18.61	31.70	5.38	-42.9	-44.8	17.7	0.00e+00	0	39	0	75497472	58	7011
2026-01-19 18:31:19.62	31.59	5.44	-43.1	-45.0	17.3	0.00e+00	0	39	0	77594624	58	7249
2026-01-19 18:31:20.63	31.49	5.49	-43.3	-45.3	17.0	0.00e+00	0	39	0	78643200	58	7473
2026-01-19 18:31:21.64	31.38	5.55	-43.1	-45.1	17.1	0.00e+00	0	39	0	80740352	58	7316
2026-01-19 18:31:22.65	31.28	5.60	-43.2	-45.2	17.3	0.00e+00	0	39	0	82837504	58	7367
2026-01-19 18:31:23.66	31.17	5.66	-42.9	-44.8	17.7	0.00e+00	0	39	0	84934656	58	7045
2026-01-19 18:31:24.67	31.07	5.71	-42.5	-44.3	18.1	0.00e+00	0	39	0	87031808	58	6657
2026-01-19 18:31:25.68	30.96	5.76	-42.7	-44.5	18.0	0.00e+00	0	39	0	88080384	58	6808
2026-01-19 18:31:26.69	30.85	5.82	-42.4	-44.1	18.3	0.00e+00	0	39	0	90177536	58	6515
2026-01-19 18:31:27.70	30.75	5.87	-42.5	-44.2	18.2	0.00e+00	0	39	0	92274688	58	6609
2026-01-19 18:31:28.71	30.64	5.93	-42.6	-44.4	18.1	0.00e+00	0	39	0	94371840	58	6737
2026-01-19 18:31:29.72	30.53	5.98	-42.7	-44.5	18.1	0.00e+00	0	39	0	96468992	58	6771
2026-01-19 18:31:30.73	30.42	6.04	-42.6	-44.4	18.0	0.00e+00	0	39	0	97517568	58	6744
2026-01-19 18:31:31.74	30.31	6.09	-42.6	-44.3	18.1	0.00e+00	0	39	0	99614720	58	6684
2026-01-19 18:31:32.75	30.20	6.14	-42.7	-44.5	18.0	0.00e+00	0	39	0	101711872	58	6810
2026-01-19 18:31:33.76	30.09	6.20	-42.5	-44.3	18.2	0.00e+00	0	39	0	103809024	58	6675
2026-01-19 18:31:34.77	29.98	6.25	-42.7	-44.5	18.1	0.00e+00	0	39	0	105906176	58	6803
2026-01-19 18:31:35.77	29.87	6.31	-42.7	-44.6	18.3	0.00e+00	0	39	0	106954752	58	6849
2026-01-19 18:31:36.78	29.76	6.36	-42.1	-43.7	18.9	0.00e+00	0	39	0	109051904	58	6245
2026-01-19 18:31:37.79	29.65	6.42	-42.3	-43.9	18.6	0.00e+00	0	39	0	111149056	58	6343
2026-01-19 18:31:38.80	29.54	6.47	-42.1	-43.8	18.8	0.00e+00	0	39	0	113246208	58	6246
2026-01-19 18:31:39.81	29.43	6.52	-42.0	-43.7	18.8	0.00e+00	0	39	0	115343360	58	6177
2026-01-19 18:31:40.82	29.32	6.58	-42.3	-44.0	18.4	0.00e+00	0	39	0	116391936	58	6430
2026-01-19 18:31:41.83	29.20	6.63	-42.5	-44.3	18.3	0.00e+00	0	39	0	118489088	58	6655
2026-01-19 18:31:42.84	29.09	6.69	-42.8	-44.7	18.1	0.00e+00	0	39	0	120586240	58	6957
2026-01-19 18:31:43.84	28.98	6.74	-42.7	-44.6	18.1	0.00e+00	0	39	0	122683392	58	6884
2026-01-19 18:31:44.86	28.86	6.80	-42.4	-44.1	18.6	0.00e+00	0	39	0	124780544	58	6479
2026-01-19 18:31:45.87	28.75	6.85	-42.3	-44.0	18.5	0.00e+00	0	40	0	125829120	58	6448
2026-01-19 18:31:46.88	28.63	6.91	-42.4	-44.0	18.6	0.00e+00	0	39	0	127926272	58	6464
2026-01-19 18:31:47.89	28.51	6.96	-42.1	-43.7	18.9	0.00e+00	0	39	0	130023424	58	6196
2026-01-19 18:31:48.90	28.40	7.01	-42.0	-43.6	18.8	0.00e+00	0	39	0	132120576	58	6107
2026-01-19 18:31:49.91	28.28	7.07	-42.5	-44.2	18.5	0.00e+00	0	39	0	134217728	58	6557
2026-01-19 18:31:50.92	28.17	7.12	-42.0	-43.5	18.9	0.00e+00	0	39	0	136314880	58	6100
2026-01-19 18:31:51.93	28.05	7.18	-42.7	-44.6	18.0	0.00e+00	0	40	0	137363456	58	6852
2026-01-19 18:31:52.94	27.93	7.23	-42.5	-44.3	18.3	0.00e+00	0	39	0	139460608	58	6634
2026-01-19 18:31:53.95	27.81	7.29	-42.2	-43.9	18.8	0.00e+00	0	39	0	141557760	58	6328
2026-01-19 18:31:54.96	27.69	7.34	-42.2	-43.9	18.8	0.00e+00	0	39	0	143654912	58	6339
2026-01-19 18:31:55.97	27.57	7.40	-42.2	-43.9	18.8	0.00e+00	0	39	0	145752064	58	6324
2026-01-19 18:31:56.98	27.45	7.45	-42.3	-43.9	18.6	0.00e+00	0	39	0	146800640	58	6381
2026-01-19 18:31:57.99	27.33	7.50	-42.1	-43.8	19.0	0.00e+00	0	39	0	148897792	58	6246
2026-01-19 18:31:59.00	27.21	7.56	-42.0	-43.5	19.1	0.00e+00	0	39	0	150994944	58	6091
2026-01-19 18:32:00.01	27.09	7.61	-41.8	-43.3	19.3	0.00e+00	0	39	0	153092096	58	5959
2026-01-19 18:32:01.02	26.97	7.67	-41.5	-42.9	19.8	0.00e+00	0	39	0	155189248	56	6333
2026-01-19 18:32:02.03	26.85	7.72	-41.5	-42.9	19.7	0.00e+00	0	39	0	156237824	56	6377
2026-01-19 18:32:03.04	26.72	7.78	-41.7	-43.2	19.5	0.00e+00	0	39	0	158334976	56	6576
2026-01-19 18:32:04.05	26.60	7.83	-41.9	-43.4	19.3	0.00e+00	0	39	0	160432128	56	6724
2026-01-19 18:32:05.06	26.48	7.89	-41.5	-42.9	19.7	0.00e+00	0	39	0	162529280	56	6338
2026-01-19 18:32:06.07	26.35	7.94	-41.3	-42.6	20.0	0.00e+00	0	39	0	164626432	56	6159
2026-01-19 18:32:07.08	26.23	7.99	-41.3	-42.7	19.8	0.00e+00	0	39	0	165675008	56	6199
2026-01-19 18:32:08.09	26.10	8.05	-41.4	-42.7	19.9	0.00e+00	0	39	0	167772160	56	6245
2026-01-19 18:32:09.10	25.98	8.10	-41.3	-42.7	19.9	0.00e+00	0	39	0	169869312	56	6220
2026-01-19 18:32:10.11	25.85	8.16	-41.1	-42.4	20.1	0.00e+00	0	39	0	171966464	56	6030
2026-01-19 18:32:11.12	25.73	8.21	-41.2	-42.6	20.0	0.00e+00	0	39	0	174063616	56	6110
2026-01-19 18:32:12.13	25.60	8.27	-41.3	-42.6	20.0	0.00e+00	0	39	0	175112192	56	6152
2026-01-19 18:32:13.14	25.47	8.32	-41.6	-43.1	19.8	0.00e+00	0	39	0	177209344	56	6476
2026-01-19 18:32:14.15	25.34	8.37	-41.3	-42.7	19.9	0.00e+00	0	39	0	179306496	56	6234
2026-01-19 18:32:15.16	25.22	8.43	-41.5	-43.0	19.7	0.00e+00	0	39	0	181403648	56	6404
2026-01-19 18:32:16.17	25.09	8.48	-41.3	-42.7	20.1	0.00e+00	0	40	0	183500800	56	6175
2026-01-19 18:32:17.18	24.96	8.54	-41.4	-42.8	19.9	0.00e+00	0	40	0	184549376	56	6315
2026-01-19 18:32:18.19	24.83	8.59	-41.4	-42.8	20.0	0.00e+00	0	39	0	186646528	56	6248
2026-01-19 18:32:19.20	24.70	8.65	-41.6	-43.1	19.6	0.00e+00	0	39	0	188743680	56	6483
2026-01-19 18:32:20.21	24.57	8.70	-41.5	-43.0	19.8	0.00e+00	0	39	0	190840832	56	6399
2026-01-19 18:32:21.22	24.44	8.75	-41.6	-43.0	19.8	0.00e+00	0	39	0	192937984	56	6412
2026-01-19 18:32:22.23	24.30	8.81	-41.7	-43.1	19.6	0.00e+00	0	39	0	193986560	56	6511
2026-01-19 18:32:23.24	24.17	8.86	-41.7	-43.2	19.6	0.00e+00	0	39	0	196083712	56	6572
2026-01-19 18:32:24.25	24.04	8.92	-41.6	-43.0	19.8	0.00e+00	0	39	0	198180864	56	6427
2026-01-19 18:32:25.26	23.91	8.97	-41.6	-43.0	19.7	0.00e+00	0	40	0	200278016	56	6401
2026-01-19 18:32:26.26	23.77	9.02	-41.5	-42.9	19.8	0.00e+00	0	40	0	202375168	56	6329
2026-01-19 18:32:27.27	23.64	9.08	-41.5	-42.9	19.9	0.00e+00	0	39	0	204472320	56	6347
2026-01-19 18:32:28.28	23.50	9.13	-41.7	-43.1	19.7	0.00e+00	0	40	0	205520896	56	6522
2026-01-19 18:32:29.29	23.37	9.19	-41.7	-43.1	19.7	0.00e+00	0	40	0	207618048	56	6521
2026-01-19 18:32:30.30	23.23	9.24	-41.6	-43.0	19.7	0.00e+00	0	40	0	209715200	56	6400
2026-01-19 18:32:31.31	23.10	9.29	-41.6	-43.0	19.8	0.00e+00	0	39	0	211812352	56	6418
2026-01-19 18:32:32.32	22.96	9.35	-41.5	-43.0	19.9	0.00e+00	0	40	0	213909504	56	6391
2026-01-19 18:32:33.32	22.82	9.40	-41.9	-43.3	19.5	0.00e+00	0	39	0	214958080	56	6691
2026-01-19 18:32:34.33	22.69	9.45	-41.3	-42.7	20.1	0.00e+00	0	39	0	217055232	56	6216
2026-01-19 18:32:35.34	22.55	9.51	-41.5	-42.9	19.9	0.00e+00	0	40	0	219152384	56	6338
2026-01-19 18:32:36.35	22.41	9.56	-41.5	-42.9	19.9	0.00e+00	0	39	0	221249536	56	6346
2026-01-19 18:32:37.36	22.27	9.61	-41.6	-43.0	19.7	0.00e+00	0	40	0	223346688	56	6425
2026-01-19 18:32:38.37	22.13	9.67	-41.5	-42.9	19.9	0.00e+00	0	40	0	224395264	56	6322
2026-01-19 18:32:39.37	21.99	9.72	-41.6	-43.0	19.7	0.00e+00	0	40	0	226492416	56	6411
2026-01-19 18:32:40.39	21.85	9.77	-41.5	-42.9	20.0	0.00e+00	0	40	0	228589568	56	6376
2026-01-19 18:32:41.40	21.71	9.83	-41.2	-42.5	20.3	0.00e+00	0	40	0	230686720	56	6079
2026-01-19 18:32:42.41	21.56	9.88	-41.7	-43.1	19.7	0.00e+00	0	40	0	232783872	56	6489
2026-01-19 18:32:43.42	21.42	9.93	-41.3	-42.7	20.0	0.00e+00	0	40	0	233832448	56	6197
2026-01-19 18:32:44.43	21.28	9.99	-41.4	-42.7	20.1	0.00e+00	0	40	0	235929600	56	6240
2026-01-19 18:32:45.44	21.13	10.04	-41.3	-42.6	20.1	0.00e+00	0	39	0	238026752	56	6167
2026-01-19 18:32:46.45	20.99	10.09	-41.3	-42.7	20.1	0.00e+00	0	40	0	240123904	56	6176
2026-01-19 18:32:47.46	20.84	10.15	-41.6	-43.0	19.9	0.00e+00	0	40	0	242221056	56	6422
2026-01-19 18:32:48.47	20.70	10.20	-41.6	-43.0	19.9	0.00e+00	0	40	0	243269632	56	6410
2026-01-19 18:32:49.48	20.55	10.25	-41.9	-43.4	19.5	0.00e+00	0	40	0	245366784	56	6704
2026-01-19 18:32:50.49	20.41	10.30	-41.9	-43.4	19.5	0.00e+00	0	40	0	247463936	56	6741
2026-01-19 18:32:51.50	20.26	10.36	-41.8	-43.2	19.6	0.00e+00	0	40	0	249561088	56	6615
2026-01-19 18:32:52.51	20.11	10.41	-41.8	-43.3	19.6	0.00e+00	0	40	0	251658240	56	6616
2026-01-19 18:32:53.52	19.96	10.46	-41.8	-43.2	19.6	0.00e+00	0	40	0	252706816	56	6615
2026-01-19 18:32:54.52	19.82	10.51	-42.0	-43.5	19.4	0.00e+00	0	40	0	254803968	56	6811
2026-01-19 18:32:55.53	19.67	10.57	-42.1	-43.6	19.2	0.00e+00	0	40	0	256901120	56	6893
2026-01-19 18:32:56.54	19.52	10.62	-42.2	-43.8	19.1	0.00e+00	0	40	0	258998272	56	7047
2026-01-19 18:32:57.55	19.37	10.67	-42.0	-43.6	19.3	0.00e+00	0	39	0	261095424	56	6861
2026-01-19 18:32:58.56	19.22	10.72	-42.1	-43.6	19.3	0.00e+00	0	40	0	262144000	56	6916
2026-01-19 18:32:59.57	19.07	10.78	-41.6	-43.1	19.8	0.00e+00	0	40	0	264241152	56	6498
2026-01-19 18:33:00.58	18.91	10.83	-41.4	-42.8	20.0	0.00e+00	0	40	0	266338304	56	6307
2026-01-19 18:33:01.59	18.76	10.88	-41.2	-42.6	20.3	0.00e+00	0	40	0	268435456	56	6120
2026-01-19 18:33:02.60	18.61	10.93	-41.3	-42.7	20.1	0.00e+00	0	40	0	270532608	56	6203
2026-01-19 18:33:03.61	18.46	10.98	-41.4	-42.7	20.1	0.00e+00	0	40	0	272629760	56	6223
2026-01-19 18:33:04.62	18.30	11.03	-41.4	-42.8	20.1	0.00e+00	0	40	0	273678336	56	6263
2026-01-19 18:33:05.63	18.15	11.09	-41.4	-42.8	20.0	0.00e+00	0	40	0	275775488	56	6271
2026-01-19 18:33:06.64	17.99	11.14	-41.1	-42.4	20.4	0.00e+00	0	40	0	277872640	56	5994
2026-01-19 18:33:07.65	17.84	11.19	-40.9	-42.2	20.6	0.00e+00	0	40	0	279969792	56	5853
2026-01-19 18:33:08.66	17.68	11.24	-41.0	-42.3	20.6	0.00e+00	0	40	0	282066944	56	5922
2026-01-19 18:33:09.67	17.52	11.29	-40.6	-41.8	21.0	0.00e+00	0	40	0	283115520	56	5626
2026-01-19 18:33:10.68	17.37	11.34	-40.6	-41.8	20.7	0.00e+00	0	40	0	285212672	54	6310
2026-01-19 18:33:11.69	17.21	11.39	-40.3	-41.5	20.9	0.00e+00	0	40	0	287309824	54	6046
2026-01-19 18:33:12.70	17.05	11.44	-40.5	-41.7	20.9	0.00e+00	0	40	0	289406976	54	6224
2026-01-19 18:33:13.71	16.89	11.49	-40.4	-41.6	21.1	0.00e+00	0	40	0	291504128	54	6154
2026-01-19 18:33:14.72	16.73	11.54	-40.4	-41.7	21.1	0.00e+00	0	40	0	292552704	54	6177
2026-01-19 18:33:15.73	16.57	11.60	-40.3	-41.5	21.2	0.00e+00	0	40	0	294649856	54	6066
2026-01-19 18:33:16.74	16.41	11.65	-40.2	-41.3	21.4	0.00e+00	0	40	0	296747008	54	5964
2026-01-19 18:33:17.75	16.25	11.70	-39.8	-40.9	21.8	0.00e+00	0	40	0	298844160	54	5667
2026-01-19 18:33:18.76	16.09	11.75	-39.7	-40.7	21.8	0.00e+00	0	40	0	300941312	52	6225
2026-01-19 18:33:19.77	15.92	11.80	-39.6	-40.6	21.8	0.00e+00	0	40	0	301989888	52	6166
2026-01-19 18:33:20.78	15.76	11.85	-39.6	-40.7	21.8	0.00e+00	0	40	0	304087040	52	6209
2026-01-19 18:33:21.79	15.60	11.90	-39.7	-40.8	21.8	0.00e+00	0	40	0	306184192	52	6264
2026-01-19 18:33:22.80	15.43	11.94	-39.8	-40.8	21.7	0.00e+00	0	40	0	308281344	52	6317
2026-01-19 18:33:23.81	15.27	11.99	-39.6	-40.7	21.9	0.00e+00	0	40	0	310378496	52	6216
2026-01-19 18:33:24.82	15.10	12.04	-39.6	-40.7	21.9	0.00e+00	0	40	0	311427072	52	6217
2026-01-19 18:33:25.83	14.94	12.09	-39.8	-41.0	21.8	0.00e+00	0	40	0	313524224	52	6393
2026-01-19 18:33:26.84	14.77	12.14	-40.0	-41.2	21.5	0.00e+00	0	40	0	315621376	52	6547
2026-01-19 18:33:27.85	14.61	12.19	-40.3	-41.5	21.2	0.00e+00	0	40	0	317718528	52	6804
2026-01-19 18:33:28.86	14.44	12.24	-40.2	-41.4	21.3	0.00e+00	0	40	0	319815680	52	6729
2026-01-19 18:33:29.87	14.27	12.29	-40.1	-41.3	21.4	0.00e+00	0	40	0	320864256	52	6630
2026-01-19 18:33:30.88	14.10	12.34	-39.7	-40.8	21.8	0.00e+00	0	40	0	322961408	52	6288
2026-01-19 18:33:31.89	13.93	12.38	-39.6	-40.7	21.9	0.00e+00	0	40	0	325058560	52	6226
2026-01-19 18:33:32.90	13.76	12.43	-39.7	-40.8	21.9	0.00e+00	0	40	0	327155712	52	6317
2026-01-19 18:33:33.91	13.59	12.48	-39.6	-40.7	22.0	0.00e+00	0	40	0	329252864	52	6182
2026-01-19 18:33:34.92	13.42	12.53	-39.8	-40.9	21.9	0.00e+00	0	40	0	330301440	52	6324
2026-01-19 18:33:35.93	13.25	12.58	-39.8	-40.9	21.8	0.00e+00	0	40	0	332398592	52	6324
2026-01-19 18:33:36.94	13.08	12.62	-39.6	-40.7	21.9	0.00e+00	0	40	0	334495744	52	6223
2026-01-19 18:33:37.95	12.90	12.67	-39.7	-40.8	22.0	0.00e+00	0	40	0	336592896	52	6286
2026-01-19 18:33:38.96	12.73	12.72	-39.7	-40.7	22.0	0.00e+00	0	40	0	338690048	52	6232
2026-01-19 18:33:39.97	12.56	12.77	-39.6	-40.7	22.0	0.00e+00	0	40	0	340787200	52	6184
2026-01-19 18:33:40.97	12.39	12.81	-39.5	-40.5	22.1	0.00e+00	0	40	0	341835776	52	6069
2026-01-19 18:33:41.99	12.21	12.86	-39.5	-40.5	22.1	0.00e+00	0	40	0	343932928	52	6076
2026-01-19 18:33:42.99	12.04	12.91	-39.7	-40.8	21.9	0.00e+00	0	40	0	346030080	52	6304
2026-01-19 18:33:44.00	11.86	12.95	-40.0	-41.2	21.5	0.00e+00	0	40	0	348127232	52	6556
2026-01-19 18:33:45.01	11.68	13.00	-40.1	-41.3	21.4	0.00e+00	0	40	0	350224384	52	6668
2026-01-19 18:33:46.02	11.51	13.04	-40.1	-41.2	21.5	0.00e+00	0	40	0	351272960	52	6608
2026-01-19 18:33:47.03	11.33	13.09	-40.1	-41.2	21.5	0.00e+00	0	40	0	353370112	52	6599
2026-01-19 18:33:48.04	11.15	13.14	-39.8	-41.0	21.7	0.00e+00	0	40	0	355467264	52	6408
2026-01-19 18:33:49.05	10.97	13.18	-40.1	-41.3	21.4	0.00e+00	0	40	0	357564416	52	6672
2026-01-19 18:33:50.06	10.79	13.23	-39.5	-40.6	22.1	0.00e+00	0	40	0	359661568	52	6132
2026-01-19 18:33:51.07	10.61	13.27	-39.2	-40.3	22.2	0.00e+00	0	40	0	360710144	52	5911
2026-01-19 18:33:52.08	10.43	13.32	-38.9	-39.9	22.7	0.00e+00	0	40	0	362807296	52	5686
2026-01-19 18:33:53.09	10.25	13.36	-38.8	-39.8	22.7	0.00e+00	0	40	0	364904448	50	6252
2026-01-19 18:33:54.09	10.07	13.40	-38.7	-39.7	22.7	0.00e+00	0	40	0	367001600	50	6195
2026-01-19 18:33:55.10	9.89	13.45	-38.5	-39.4	23.0	0.00e+00	0	40	0	369098752	50	6026
2026-01-19 18:33:56.11	9.71	13.49	-38.4	-39.4	23.0	0.00e+00	0	40	0	370147328	50	5991
2026-01-19 18:33:57.12	9.52	13.54	-38.3	-39.2	23.2	0.00e+00	0	40	0	372244480	50	5890
2026-01-19 18:33:58.13	9.34	13.58	-38.4	-39.3	23.1	0.00e+00	0	40	0	374341632	50	5934
2026-01-19 18:33:59.15	9.15	13.62	-38.4	-39.4	22.8	0.00e+00	0	40	0	376438784	50	5978
2026-01-19 18:34:00.15	8.97	13.67	-38.8	-39.8	22.7	0.00e+00	0	40	0	378535936	50	6248
2026-01-19 18:34:01.16	8.78	13.71	-39.2	-40.2	22.2	0.00e+00	0	40	0	379584512	50	6579
2026-01-19 18:34:02.17	8.60	13.75	-39.3	-40.3	22.3	0.00e+00	0	40	0	381681664	50	6671
2026-01-19 18:34:03.18	8.41	13.79	-39.1	-40.1	22.5	0.00e+00	0	40	0	383778816	50	6507
2026-01-19 18:34:04.19	8.23	13.84	-39.3	-40.4	22.2	0.00e+00	0	40	0	385875968	50	6711
2026-01-19 18:34:05.20	8.04	13.88	-39.6	-40.7	22.1	0.00e+00	0	40	0	387973120	50	6933
2026-01-19 18:34:06.21	7.85	13.92	-39.5	-40.6	22.0	0.00e+00	0	40	0	389021696	50	6873
2026-01-19 18:34:07.22	7.66	13.96	-39.6	-40.7	22.0	0.00e+00	0	40	0	391118848	50	6955
2026-01-19 18:34:08.23	7.47	14.00	-39.7	-40.8	21.9	0.00e+00	0	40	0	393216000	52	6306
2026-01-19 18:34:09.24	7.28	14.04	-39.6	-40.7	22.2	0.00e+00	0	40	0	395313152	52	6179
2026-01-19 18:34:10.25	7.09	14.09	-39.3	-40.3	22.4	0.00e+00	0	40	0	397410304	52	5929
2026-01-19 18:34:11.26	6.90	14.13	-39.3	-40.3	22.4	0.00e+00	0	40	0	398458880	52	5920
2026-01-19 18:34:12.27	6.71	14.17	-39.3	-40.4	22.2	0.00e+00	0	40	0	400556032	52	6001
2026-01-19 18:34:13.28	6.52	14.21	-39.8	-40.9	21.8	0.00e+00	0	40	0	402653184	52	6340
2026-01-19 18:34:14.29	6.33	14.25	-40.0	-41.1	21.7	0.00e+00	0	40	0	404750336	52	6534
2026-01-19 18:34:15.30	6.13	14.29	-40.2	-41.5	21.4	0.00e+00	0	40	0	406847488	52	6782
2026-01-19 18:34:16.31	5.94	14.32	-40.3	-41.5	21.3	0.00e+00	0	40	0	408944640	52	6831
2026-01-19 18:34:17.32	5.75	14.36	-40.4	-41.6	21.3	0.00e+00	0	40	0	409993216	52	6891
2026-01-19 18:34:18.32	5.55	14.40	-39.7	-40.8	21.9	0.00e+00	0	40	0	412090368	52	6296
2026-01-19 18:34:19.33	5.36	14.44	-39.5	-40.6	22.2	0.00e+00	0	40	0	414187520	52	6159
2026-01-19 18:34:20.35	5.16	14.48	-39.4	-40.5	22.2	0.00e+00	0	40	0	416284672	52	6043
2026-01-19 18:34:21.36	4.97	14.52	-39.2	-40.2	22.4	0.00e+00	0	40	0	418381824	52	5890
2026-01-19 18:34:22.37	4.77	14.55	-39.5	-40.6	22.2	0.00e+00	0	40	0	419430400	52	6116
2026-01-19 18:34:23.38	4.57	14.59	-39.4	-40.5	22.2	0.00e+00	0	40	0	421527552	52	6068
2026-01-19 18:34:24.38	4.38	14.63	-39.3	-40.3	22.4	0.00e+00	0	40	0	423624704	52	5941
2026-01-19 18:34:25.40	4.18	14.67	-39.0	-40.1	22.6	0.00e+00	0	40	0	425721856	52	5768
2026-01-19 18:34:26.41	3.98	14.70	-38.9	-39.9	22.7	0.00e+00	0	40	0	427819008	52	5690
2026-01-19 18:34:27.42	3.78	14.74	-38.8	-39.8	22.5	0.00e+00	0	40	0	428867584	50	6290
2026-01-19 18:34:28.43	3.58	14.77	-38.9	-39.9	22.5	0.00e+00	0	40	0	430964736	50	6390
2026-01-19 18:34:29.44	3.38	14.81	-39.3	-40.4	22.3	0.00e+00	0	40	0	433061888	50	6693
2026-01-19 18:34:30.45	3.18	14.85	-39.3	-40.4	22.3	0.00e+00	0	40	0	435159040	50	6729
2026-01-19 18:34:31.46	2.98	14.88	-39.3	-40.3	22.4	0.00e+00	0	40	0	437256192	50	6653
2026-01-19 18:34:32.47	2.78	14.92	-39.0	-40.0	22.6	0.00e+00	0	40	0	438304768	50	6446
2026-01-19 18:34:33.48	2.58	14.95	-39.1	-40.1	22.6	0.00e+00	0	40	0	440401920	50	6537
2026-01-19 18:34:34.49	2.37	14.98	-38.8	-39.8	22.8	0.00e+00	0	40	0	442499072	50	6279
2026-01-19 18:34:35.50	2.17	15.02	-38.8	-39.8	22.8	0.00e+00	0	40	0	444596224	50	6315
2026-01-19 18:34:36.51	1.97	15.05	-39.0	-40.0	22.5	0.00e+00	0	40	0	446693376	50	6417
2026-01-19 18:34:37.52	1.76	15.08	-39.1	-40.1	22.5	0.00e+00	0	40	0	447741952	50	6529
2026-01-19 18:34:38.53	1.56	15.12	-39.1	-40.1	22.5	0.00e+00	0	40	0	449839104	50	6495
2026-01-19 18:34:39.54	1.35	15.15	-39.0	-40.1	22.5	0.00e+00	0	40	0	451936256	50	6465
2026-01-19 18:34:40.55	1.15	15.18	-38.9	-39.9	22.1	0.00e+00	0	40	0	454033408	50	6352
2026-01-19 18:34:41.56	0.94	15.21	-38.9	-39.9	22.6	0.00e+00	0	40	0	456130560	50	6359
2026-01-19 18:34:42.56	0.74	15.24	-38.6	-39.5	23.0	0.00e+00	0	40	0	457179136	50	6100
2026-01-19 18:34:43.57	0.53	15.28	-38.7	-39.6	23.0	0.00e+00	0	40	0	459276288	50	6137
2026-01-19 18:34:44.59	0.33	15.31	-38.5	-39.4	23.0	0.00e+00	0	40	0	461373440	50	6011
2026-01-19 18:34:45.59	0.12	15.34	-38.5	-39.4	23.1	0.00e+00	0	40	0	463470592	50	6012
2026-01-19 18:34:46.60	359.91	15.37	-38.6	-39.5	23.0	0.00e+00	0	40	0	465567744	50	6081
2026-01-19 18:34:47.61	359.70	15.40	-38.6	-39.5	23.1	0.00e+00	0	40	0	466616320	50	6103
2026-01-19 18:34:48.62	359.50	15.43	-38.5	-39.5	23.1	0.00e+00	0	40	0	468713472	50	6051
2026-01-19 18:34:49.63	359.29	15.46	-38.5	-39.5	23.2	0.00e+00	0	40	0	470810624	50	6048
2026-01-19 18:34:50.64	359.08	15.48	-38.7	-39.7	22.9	0.00e+00	0	40	0	472907776	50	6223
2026-01-19 18:34:51.65	358.87	15.51	-38.9	-39.9	22.6	0.00e+00	0	40	0	475004928	50	6374
2026-01-19 18:34:52.66	358.66	15.54	-39.1	-40.1	22.3	0.00e+00	0	40	0	477102080	50	6493
2026-01-19 18:34:53.67	358.45	15.57	-39.1	-40.2	22.4	0.00e+00	0	40	0	478150656	50	6556
2026-01-19 18:34:54.68	358.24	15.60	-38.8	-39.8	22.7	0.00e+00	0	40	0	480247808	50	6280
2026-01-19 18:34:55.69	358.02	15.62	-38.8	-39.8	22.9	0.00e+00	0	40	0	482344960	50	6248
2026-01-19 18:34:56.69	357.82	15.65	-38.7	-39.6	22.9	0.00e+00	0	40	0	484442112	50	6152
2026-01-19 18:34:57.71	357.60	15.68	-38.7	-39.7	22.9	0.00e+00	0	40	0	486539264	50	6224
2026-01-19 18:34:58.71	357.39	15.70	-38.7	-39.7	22.9	0.00e+00	0	40	0	487587840	50	6183
2026-01-19 18:34:59.72	357.18	15.73	-39.0	-40.0	22.5	0.00e+00	0	40	0	489684992	50	6440
2026-01-19 18:35:00.73	356.96	15.75	-39.2	-40.2	22.5	0.00e+00	0	40	0	491782144	50	6585
2026-01-19 18:35:01.74	356.75	15.78	-39.5	-40.5	22.2	0.00e+00	0	40	0	493879296	50	6840
2026-01-19 18:35:02.75	356.54	15.80	-39.4	-40.4	22.3	0.00e+00	0	40	0	494927872	50	6762
2026-01-19 18:35:03.76	356.32	15.83	-39.1	-40.1	22.5	0.00e+00	0	40	0	497025024	50	6536
2026-01-19 18:35:04.77	356.11	15.85	-38.9	-39.9	22.6	0.00e+00	0	40	0	499122176	50	6360
2026-01-19 18:35:05.79	355.89	15.87	-39.0	-40.0	22.5	0.00e+00	0	40	0	501219328	50	6440
2026-01-19 18:35:06.79	355.68	15.90	-39.1	-40.1	22.5	0.00e+00	0	40	0	503316480	50	6477
2026-01-19 18:35:07.80	355.46	15.92	-39.3	-40.4	22.3	0.00e+00	0	40	0	505413632	50	6705
2026-01-19 18:35:08.81	355.25	15.94	-39.5	-40.6	22.0	0.00e+00	0	40	0	506462208	50	6867
2026-01-19 18:35:09.82	355.03	15.96	-39.7	-40.8	21.9	0.00e+00	0	40	0	508559360	52	6313
2026-01-19 18:35:10.83	354.81	15.98	-39.5	-40.6	22.1	0.00e+00	0	40	0	510656512	52	6107
2026-01-19 18:35:11.84	354.60	16.00	-39.3	-40.4	22.3	0.00e+00	0	40	0	512753664	52	6015
2026-01-19 18:35:12.85	354.38	16.02	-39.0	-40.0	22.6	0.00e+00	0	40	0	514850816	52	5720
2026-01-19 18:35:13.86	354.16	16.04	-39.0	-40.0	22.7	0.00e+00	0	40	0	515899392	52	5707
2026-01-19 18:35:14.87	353.94	16.06	-38.8	-39.7	22.8	0.00e+00	0	40	0	517996544	50	6237
2026-01-19 18:35:15.88	353.73	16.08	-39.0	-40.0	22.6	0.00e+00	0	40	0	520093696	50	6409
2026-01-19 18:35:16.89	353.51	16.10	-39.0	-40.0	22.7	0.00e+00	0	40	0	522190848	50	6447
2026-01-19 18:35:17.90	353.29	16.12	-39.0	-40.0	22.5	0.00e+00	0	40	0	524288000	50	6434
2026-01-19 18:35:18.91	353.07	16.14	-38.9	-39.9	22.7	0.00e+00	0	40	0	525336576	50	6357
2026-01-19 18:35:19.92	352.85	16.16	-38.6	-39.6	22.9	0.00e+00	0	40	0	527433728	50	6142
2026-01-19 18:35:20.93	352.63	16.17	-38.5	-39.5	23.1	0.00e+00	0	40	0	529530880	50	6058
2026-01-19 18:35:21.94	352.41	16.19	-38.4	-39.3	23.2	0.00e+00	0	40	0	531628032	50	5930
2026-01-19 18:35:22.95	352.19	16.21	-38.4	-39.3	23.2	0.00e+00	0	40	0	533725184	50	5963
2026-01-19 18:35:23.96	351.97	16.22	-38.6	-39.5	23.0	0.00e+00	0	40	0	534773760	50	6084
2026-01-19 18:35:24.96	351.75	16.24	-39.0	-40.0	22.8	0.00e+00	0	40	0	536870912	50	6408
2026-01-19 18:35:25.97	351.53	16.25	-38.9	-39.9	22.7	0.00e+00	0	40	0	538968064	50	6336
2026-01-19 18:35:26.98	351.31	16.27	-38.9	-39.9	22.6	0.00e+00	0	40	0	541065216	50	6351
2026-01-19 18:35:27.99	351.09	16.28	-39.0	-40.0	22.6	0.00e+00	0	40	0	543162368	50	6448
2026-01-19 18:35:29.00	350.87	16.30	-39.0	-40.0	22.6	0.00e+00	0	40	0	544210944	50	6391
2026-01-19 18:35:30.01	350.65	16.31	-39.0	-40.0	22.6	0.00e+00	0	40	0	546308096	50	6409
2026-01-19 18:35:31.02	350.43	16.32	-39.0	-40.0	22.6	0.00e+00	0	40	0	548405248	50	6448
2026-01-19 18:35:32.03	350.20	16.33	-39.3	-40.3	22.3	0.00e+00	0	40	0	550502400	50	6639
2026-01-19 18:35:33.04	349.98	16.35	-39.5	-40.5	22.2	0.00e+00	0	40	0	552599552	50	6818
2026-01-19 18:35:34.05	349.76	16.36	-39.7	-40.8	21.9	0.00e+00	0	40	0	553648128	50	7067
2026-01-19 18:35:35.05	349.54	16.37	-39.8	-41.0	21.8	0.00e+00	0	40	0	555745280	52	6392
2026-01-19 18:35:36.07	349.32	16.38	-40.0	-41.1	21.7	0.00e+00	0	40	0	557842432	52	6511
2026-01-19 18:35:37.07	349.10	16.39	-40.2	-41.4	21.6	0.00e+00	0	40	0	559939584	52	6712
2026-01-19 18:35:38.09	348.87	16.40	-39.9	-41.0	21.9	0.00e+00	0	40	0	562036736	52	6442
2026-01-19 18:35:39.09	348.65	16.41	-40.0	-41.1	21.9	0.00e+00	0	40	0	563085312	52	6494
2026-01-19 18:35:40.11	348.42	16.42	-39.9	-41.1	21.8	0.00e+00	0	40	0	565182464	52	6470
2026-01-19 18:35:41.12	348.20	16.43	-39.8	-40.9	21.9	0.00e+00	0	40	0	567279616	52	6355
2026-01-19 18:35:42.13	347.98	16.44	-39.5	-40.6	22.2	0.00e+00	0	40	0	569376768	52	6149
2026-01-19 18:35:43.14	347.75	16.44	-39.5	-40.6	22.2	0.00e+00	0	40	0	571473920	52	6143
2026-01-19 18:35:44.15	347.53	16.45	-39.6	-40.6	22.1	0.00e+00	0	40	0	573571072	52	6167
2026-01-19 18:35:45.16	347.31	16.46	-39.5	-40.6	22.2	0.00e+00	0	40	0	574619648	52	6124
2026-01-19 18:35:46.17	347.08	16.46	-39.7	-40.7	22.0	0.00e+00	0	40	0	576716800	52	6241
2026-01-19 18:35:47.18	346.86	16.47	-39.5	-40.6	22.1	0.00e+00	0	40	0	578813952	52	6132
2026-01-19 18:35:48.19	346.63	16.48	-39.5	-40.6	22.2	0.00e+00	0	40	0	580911104	52	6143
2026-01-19 18:35:49.20	346.41	16.48	-39.5	-40.6	22.2	0.00e+00	0	40	0	583008256	52	6166
2026-01-19 18:35:50.21	346.19	16.49	-39.4	-40.4	22.4	0.00e+00	0	40	0	584056832	52	6021
2026-01-19 18:35:51.21	345.96	16.49	-39.2	-40.3	22.4	0.00e+00	0	40	0	586153984	52	5897
2026-01-19 18:35:52.22	345.74	16.49	-39.0	-40.1	22.5	0.00e+00	0	40	0	588251136	52	5787
2026-01-19 18:35:53.23	345.52	16.50	-39.1	-40.1	22.6	0.00e+00	0	40	0	590348288	52	5805
2026-01-19 18:35:54.24	345.29	16.50	-39.0	-40.1	22.6	0.00e+00	0	40	0	592445440	52	5768
2026-01-19 18:35:55.25	345.07	16.50	-39.3	-40.3	22.4	0.00e+00	0	40	0	593494016	52	5941
2026-01-19 18:35:56.26	344.84	16.50	-39.5	-40.5	22.2	0.00e+00	0	40	0	595591168	52	6085
2026-01-19 18:35:57.27	344.62	16.51	-39.5	-40.6	22.1	0.00e+00	0	40	0	597688320	52	6148
2026-01-19 18:35:58.28	344.39	16.51	-39.5	-40.6	22.2	0.00e+00	0	40	0	599785472	52	6157
2026-01-19 18:35:59.29	344.17	16.51	-39.5	-40.6	22.2	0.00e+00	0	40	0	601882624	52	6118
2026-01-19 18:36:00.30	343.94	16.51	-39.5	-40.5	22.2	0.00e+00	0	40	0	602931200	52	6099
2026-01-19 18:36:01.31	343.72	16.51	-39.5	-40.5	22.2	0.00e+00	0	40	0	605028352	52	6103
2026-01-19 18:36:02.32	343.49	16.51	-39.6	-40.7	22.3	0.00e+00	0	40	0	607125504	52	6176
2026-01-19 18:36:03.33	343.27	16.51	-39.5	-40.6	22.2	0.00e+00	0	40	0	609222656	52	6122
2026-01-19 18:36:04.34	343.05	16.50	-39.5	-40.6	22.3	0.00e+00	0	40	0	611319808	52	6116
2026-01-19 18:36:05.35	342.82	16.50	-39.1	-40.1	22.7	0.00e+00	0	40	0	612368384	52	5798
2026-01-19 18:36:06.36	342.60	16.50	-38.9	-39.9	22.8	0.00e+00	0	40	0	614465536	52	5635
2026-01-19 18:36:07.37	342.37	16.50	-38.8	-39.8	23.1	0.00e+00	0	40	0	616562688	50	6259
2026-01-19 18:36:08.37	342.15	16.49	-38.7	-39.7	23.0	0.00e+00	0	40	0	618659840	50	6217
2026-01-19 18:36:09.38	341.93	16.49	-38.8	-39.8	22.9	0.00e+00	0	40	0	620756992	50	6260
2026-01-19 18:36:10.39	341.70	16.48	-38.8	-39.8	22.8	0.00e+00	0	40	0	621805568	50	6287
2026-01-19 18:36:11.40	341.48	16.48	-38.8	-39.8	22.8	0.00e+00	0	40	0	623902720	50	6308
2026-01-19 18:36:12.41	341.25	16.47	-38.9	-40.0	22.6	0.00e+00	0	40	0	625999872	50	6419
2026-01-19 18:36:13.42	341.03	16.47	-39.2	-40.3	22.4	0.00e+00	0	40	0	628097024	50	6622
2026-01-19 18:36:14.43	340.80	16.46	-39.1	-40.2	22.3	0.00e+00	0	40	0	630194176	50	6586
2026-01-19 18:36:15.44	340.58	16.46	-39.3	-40.4	22.4	0.00e+00	0	40	0	631242752	50	6705
2026-01-19 18:36:16.45	340.36	16.45	-39.7	-40.9	21.9	0.00e+00	0	40	0	633339904	50	7113
2026-01-19 18:36:17.46	340.13	16.44	-39.8	-41.0	21.7	0.00e+00	0	40	0	635437056	52	6417
2026-01-19 18:36:18.46	339.91	16.43	-39.9	-41.1	21.7	0.00e+00	0	40	0	637534208	52	6520
2026-01-19 18:36:19.46	339.69	16.43	-40.0	-41.2	21.7	0.00e+00	0	40	0	639631360	52	6607
2026-01-19 18:36:20.47	339.47	16.42	-40.2	-41.4	21.6	0.00e+00	0	40	0	641728512	52	6727
2026-01-19 18:36:21.48	339.24	16.41	-40.1	-41.4	21.7	0.00e+00	0	40	0	642777088	52	6704
2026-01-19 18:36:22.49	339.02	16.40	-39.7	-40.9	21.8	0.00e+00	0	40	0	644874240	52	6382
2026-01-19 18:36:23.50	338.80	16.39	-39.9	-41.1	21.9	0.00e+00	0	40	0	646971392	52	6506
2026-01-19 18:36:24.51	338.58	16.38	-39.5	-40.6	22.1	0.00e+00	0	40	0	649068544	52	6151
2026-01-19 18:36:25.52	338.35	16.37	-39.5	-40.6	22.3	0.00e+00	0	40	0	651165696	52	6146
2026-01-19 18:36:26.53	338.13	16.36	-39.4	-40.6	22.4	0.00e+00	0	40	0	652214272	52	6111
2026-01-19 18:36:27.54	337.91	16.34	-39.2	-40.3	22.5	0.00e+00	0	40	0	654311424	52	5939
2026-01-19 18:36:28.55	337.69	16.33	-39.3	-40.4	22.5	0.00e+00	0	40	0	656408576	52	5988
2026-01-19 18:36:29.56	337.46	16.32	-39.3	-40.3	22.4	0.00e+00	0	40	0	658505728	52	5959
2026-01-19 18:36:30.57	337.24	16.31	-39.3	-40.4	22.4	0.00e+00	0	40	0	660602880	52	5992
2026-01-19 18:36:31.58	337.02	16.29	-39.3	-40.3	22.6	0.00e+00	0	40	0	661651456	52	5941
2026-01-19 18:36:32.59	336.80	16.28	-39.6	-40.7	22.0	0.00e+00	0	40	0	663748608	52	6178
2026-01-19 18:36:33.60	336.58	16.26	-40.0	-41.1	21.8	0.00e+00	0	40	0	665845760	52	6530
2026-01-19 18:36:34.60	336.36	16.25	-40.0	-41.2	21.8	0.00e+00	0	40	0	667942912	52	6554
2026-01-19 18:36:35.61	336.14	16.23	-39.6	-40.7	22.1	0.00e+00	0	40	0	670040064	52	6183
2026-01-19 18:36:36.62	335.92	16.22	-39.3	-40.4	22.3	0.00e+00	0	40	0	671088640	52	6003
2026-01-19 18:36:37.63	335.70	16.20	-39.3	-40.3	22.3	0.00e+00	0	40	0	673185792	52	5958
2026-01-19 18:36:38.64	335.48	16.19	-38.9	-39.9	22.8	0.00e+00	0	40	0	675282944	52	5642
2026-01-19 18:36:39.65	335.26	16.17	-38.8	-39.8	23.0	0.00e+00	0	40	0	677380096	50	6265
2026-01-19 18:36:40.66	335.04	16.15	-38.8	-39.8	22.9	0.00e+00	0	40	0	679477248	50	6271
2026-01-19 18:36:41.67	334.82	16.13	-38.8	-39.8	22.6	0.00e+00	0	40	0	680525824	50	6278
2026-01-19 18:36:42.68	334.60	16.12	-39.3	-40.3	22.5	0.00e+00	0	40	0	682622976	50	6684
2026-01-19 18:36:43.69	334.38	16.10	-39.3	-40.4	22.2	0.00e+00	0	40	0	684720128	50	6697
2026-01-19 18:36:44.70	334.17	16.08	-39.2	-40.2	22.5	0.00e+00	0	40	0	686817280	50	6587
2026-01-19 18:36:45.71	333.95	16.06	-38.9	-39.9	22.6	0.00e+00	0	40	0	688914432	50	6365
2026-01-19 18:36:46.72	333.73	16.04	-39.0	-40.0	22.7	0.00e+00	0	40	0	689963008	50	6404
2026-01-19 18:36:47.73	333.51	16.02	-38.9	-39.9	22.7	0.00e+00	0	40	0	692060160	50	6352
2026-01-19 18:36:48.73	333.30	16.00	-39.0	-40.0	22.6	0.00e+00	0	40	0	694157312	50	6428
2026-01-19 18:36:49.75	333.08	15.98	-39.2	-40.2	22.3	0.00e+00	0	40	0	696254464	50	6576
2026-01-19 18:36:50.76	332.86	15.96	-39.1	-40.2	22.5	0.00e+00	0	40	0	698351616	50	6555
2026-01-19 18:36:51.76	332.65	15.94	-39.4	-40.4	22.2	0.00e+00	0	40	0	699400192	50	6751
2026-01-19 18:36:52.77	332.43	15.91	-39.4	-40.5	22.4	0.00e+00	0	40	0	701497344	50	6774
2026-01-19 18:36:53.78	332.22	15.89	-39.4	-40.5	22.3	0.00e+00	0	40	0	703594496	50	6801
2026-01-19 18:36:54.79	332.00	15.87	-39.4	-40.5	22.3	0.00e+00	0	40	0	705691648	50	6788
2026-01-19 18:36:55.80	331.78	15.84	-39.6	-40.7	22.1	0.00e+00	0	40	0	707788800	50	6986
2026-01-19 18:36:56.81	331.57	15.82	-39.5	-40.6	22.2	0.00e+00	0	40	0	709885952	50	6906
2026-01-19 18:36:57.82	331.36	15.80	-39.4	-40.4	22.2	0.00e+00	0	40	0	710934528	50	6765
2026-01-19 18:36:58.83	331.14	15.77	-39.2	-40.2	22.5	0.00e+00	0	40	0	713031680	50	6600
2026-01-19 18:36:59.83	330.93	15.75	-39.6	-40.7	22.4	0.00e+00	0	40	0	715128832	50	6936
2026-01-19 18:37:00.84	330.72	15.72	-39.4	-40.4	22.6	0.00e+00	0	40	0	717225984	50	6752
2026-01-19 18:37:01.85	330.50	15.70	-39.2	-40.2	22.5	0.00e+00	0	40	0	719323136	50	6570
2026-01-19 18:37:02.86	330.29	15.67	-39.3	-40.3	22.5	0.00e+00	0	40	0	720371712	50	6668
2026-01-19 18:37:03.87	330.08	15.64	-39.2	-40.1	22.6	0.00e+00	0	40	0	722468864	50	6531
2026-01-19 18:37:04.88	329.87	15.62	-39.2	-40.2	22.6	0.00e+00	0	40	0	724566016	50	6604
2026-01-19 18:37:05.89	329.66	15.59	-39.4	-40.4	22.5	0.00e+00	0	40	0	726663168	50	6700
2026-01-19 18:37:06.90	329.45	15.56	-39.2	-40.2	22.6	0.00e+00	0	40	0	728760320	50	6562
2026-01-19 18:37:07.91	329.24	15.54	-39.0	-39.9	22.9	0.00e+00	0	40	0	729808896	50	6358
2026-01-19 18:37:08.92	329.03	15.51	-38.9	-39.8	22.9	0.00e+00	0	40	0	731906048	50	6308
2026-01-19 18:37:09.93	328.82	15.48	-38.9	-39.8	22.9	0.00e+00	0	40	0	734003200	50	6282
2026-01-19 18:37:10.94	328.61	15.45	-38.8	-39.8	22.8	0.00e+00	0	40	0	736100352	50	6268
2026-01-19 18:37:11.95	328.40	15.42	-39.0	-39.9	22.8	0.00e+00	0	40	0	738197504	50	6366
2026-01-19 18:37:12.96	328.19	15.39	-39.1	-40.1	22.6	0.00e+00	0	40	0	739246080	50	6523
2026-01-19 18:37:13.97	327.98	15.36	-39.1	-40.1	22.6	0.00e+00	0	40	0	741343232	50	6483
2026-01-19 18:37:14.98	327.77	15.33	-39.2	-40.2	22.6	0.00e+00	0	40	0	743440384	50	6568
2026-01-19 18:37:15.99	327.57	15.30	-39.4	-40.4	22.4	0.00e+00	0	40	0	745537536	50	6708
2026-01-19 18:37:17.00	327.36	15.27	-39.8	-40.8	22.0	0.00e+00	0	40	0	747634688	50	7081
2026-01-19 18:37:18.01	327.15	15.24	-39.7	-40.7	22.2	0.00e+00	0	40	0	748683264	52	6221
2026-01-19 18:37:19.02	326.95	15.21	-39.9	-41.0	22.1	0.00e+00	0	40	0	750780416	52	6404
2026-01-19 18:37:20.03	326.74	15.17	-40.0	-41.1	22.0	0.00e+00	0	40	0	752877568	52	6479
2026-01-19 18:37:21.04	326.54	15.14	-39.9	-40.9	22.1	0.00e+00	0	40	0	754974720	52	6363
2026-01-19 18:37:22.05	326.33	15.11	-40.0	-41.1	22.1	0.00e+00	0	40	0	757071872	52	6505
2026-01-19 18:37:23.06	326.13	15.08	-40.0	-41.1	21.8	0.00e+00	0	40	0	758120448	52	6525
2026-01-19 18:37:24.07	325.92	15.04	-40.2	-41.4	21.7	0.00e+00	0	40	0	760217600	52	6700
2026-01-19 18:37:25.07	325.72	15.01	-40.2	-41.3	21.8	0.00e+00	0	40	0	762314752	52	6676
2026-01-19 18:37:26.08	325.52	14.98	-40.4	-41.5	21.7	0.00e+00	0	40	0	764411904	52	6814
2026-01-19 18:37:27.09	325.32	14.94	-40.2	-41.3	21.7	0.00e+00	0	40	0	766509056	52	6690
2026-01-19 18:37:28.10	325.11	14.91	-40.1	-41.2	21.7	0.00e+00	0	40	0	767557632	52	6602
2026-01-19 18:37:29.11	324.91	14.87	-39.9	-41.0	22.1	0.00e+00	0	40	0	769654784	52	6391
2026-01-19 18:37:30.12	324.71	14.84	-39.9	-40.9	22.0	0.00e+00	0	40	0	771751936	52	6386
2026-01-19 18:37:31.13	324.51	14.80	-39.7	-40.7	22.2	0.00e+00	0	40	0	773849088	52	6237
2026-01-19 18:37:32.14	324.31	14.77	-39.6	-40.6	22.1	0.00e+00	0	40	0	775946240	52	6167
2026-01-19 18:37:33.15	324.11	14.73	-39.5	-40.6	22.2	0.00e+00	0	40	0	778043392	52	6109
2026-01-19 18:37:34.16	323.91	14.70	-39.4	-40.4	22.3	0.00e+00	0	40	0	779091968	52	6029
2026-01-19 18:37:35.17	323.72	14.66	-39.4	-40.4	22.3	0.00e+00	0	40	0	781189120	52	5996
2026-01-19 18:37:36.17	323.52	14.62	-39.3	-40.4	22.4	0.00e+00	0	40	0	783286272	52	5970
2026-01-19 18:37:37.19	323.32	14.58	-39.5	-40.5	22.3	0.00e+00	0	40	0	785383424	52	6087
2026-01-19 18:37:38.20	323.12	14.55	-39.2	-40.1	22.6	0.00e+00	0	40	0	787480576	52	5820
2026-01-19 18:37:39.21	322.93	14.51	-38.9	-39.8	22.9	0.00e+00	0	40	0	788529152	52	5612
2026-01-19 18:37:40.21	322.73	14.47	-38.8	-39.7	22.6	0.00e+00	0	40	0	790626304	52	5552
2026-01-19 18:37:41.22	322.54	14.43	-38.6	-39.6	23.0	0.00e+00	0	40	0	792723456	50	6122
2026-01-19 18:37:42.23	322.34	14.39	-38.5	-39.4	23.2	0.00e+00	0	40	0	794820608	50	6022
2026-01-19 18:37:43.24	322.15	14.36	-38.7	-39.6	22.9	0.00e+00	0	40	0	795869184	50	6157
2026-01-19 18:37:44.25	321.95	14.32	-38.9	-39.8	23.0	0.00e+00	0	40	0	797966336	50	6290
2026-01-19 18:37:45.26	321.76	14.28	-39.0	-39.9	22.8	0.00e+00	0	40	0	800063488	50	6377
2026-01-19 18:37:46.27	321.57	14.24	-39.0	-39.9	22.8	0.00e+00	0	40	0	802160640	50	6388
2026-01-19 18:37:47.28	321.37	14.20	-39.3	-40.2	22.7	0.00e+00	0	40	0	804257792	50	6613
2026-01-19 18:37:48.29	321.18	14.16	-39.7	-40.7	22.2	0.00e+00	0	40	0	806354944	52	6221
2026-01-19 18:37:49.30	320.99	14.12	-40.2	-41.2	22.1	0.00e+00	0	40	0	807403520	52	6584
2026-01-19 18:37:50.31	320.80	14.08	-39.9	-40.9	22.2	0.00e+00	0	40	0	809500672	52	6355
2026-01-19 18:37:51.32	320.61	14.04	-39.8	-40.9	22.1	0.00e+00	0	40	0	811597824	52	6339
2026-01-19 18:37:52.33	320.42	14.00	-40.1	-41.2	21.7	0.00e+00	0	40	0	813694976	52	6576
2026-01-19 18:37:53.34	320.23	13.95	-40.5	-41.7	21.4	0.00e+00	0	40	0	815792128	52	6943
2026-01-19 18:37:54.35	320.04	13.91	-40.9	-42.1	21.0	0.00e+00	0	40	0	816840704	54	6495
2026-01-19 18:37:55.36	319.85	13.87	-40.6	-41.7	21.1	0.00e+00	0	40	0	818937856	54	6244
2026-01-19 18:37:56.37	319.67	13.83	-41.0	-42.2	21.0	0.00e+00	0	40	0	821035008	54	6579
2026-01-19 18:37:57.38	319.48	13.79	-40.5	-41.7	21.4	0.00e+00	0	40	0	823132160	54	6225
2026-01-19 18:37:58.39	319.29	13.74	-40.5	-41.6	21.5	0.00e+00	0	40	0	825229312	54	6171
2026-01-19 18:37:59.40	319.11	13.70	-40.6	-41.7	21.4	0.00e+00	0	40	0	826277888	54	6231
2026-01-19 18:38:00.41	318.92	13.66	-40.6	-41.7	21.5	0.00e+00	0	40	0	828375040	54	6217
2026-01-19 18:38:01.42	318.74	13.61	-40.4	-41.6	21.4	0.00e+00	0	40	0	830472192	54	6128
2026-01-19 18:38:02.43	318.55	13.57	-40.8	-42.0	21.2	0.00e+00	0	40	0	832569344	54	6439
2026-01-19 18:38:03.43	318.37	13.53	-40.5	-41.7	21.6	0.00e+00	0	40	0	834666496	54	6175
2026-01-19 18:38:04.44	318.19	13.48	-40.8	-42.0	21.4	0.00e+00	0	40	0	835715072	54	6453
2026-01-19 18:38:05.45	318.00	13.44	-41.2	-42.4	21.3	0.00e+00	0	40	0	837812224	54	6694
2026-01-19 18:38:06.46	317.82	13.40	-40.9	-42.1	21.1	0.00e+00	0	40	0	839909376	54	6513
2026-01-19 18:38:07.47	317.64	13.35	-40.9	-42.1	21.0	0.00e+00	0	40	0	842006528	54	6471
2026-01-19 18:38:08.48	317.46	13.31	-40.7	-41.9	21.2	0.00e+00	0	40	0	844103680	54	6370
2026-01-19 18:38:09.49	317.28	13.26	-41.0	-42.2	21.2	0.00e+00	0	40	0	845152256	54	6586
2026-01-19 18:38:10.49	317.10	13.22	-40.9	-42.1	21.1	0.00e+00	0	40	0	847249408	54	6482
2026-01-19 18:38:11.51	316.92	13.17	-40.9	-42.1	21.2	0.00e+00	0	40	0	849346560	54	6511
2026-01-19 18:38:12.51	316.74	13.13	-40.8	-42.0	21.2	0.00e+00	0	40	0	851443712	54	6408
2026-01-19 18:38:13.52	316.56	13.08	-40.6	-41.8	21.3	0.00e+00	0	40	0	853540864	54	6281
2026-01-19 18:38:14.53	316.39	13.03	-40.7	-41.9	21.3	0.00e+00	0	40	0	854589440	54	6323
2026-01-19 18:38:15.54	316.21	12.99	-40.4	-41.6	21.5	0.00e+00	0	40	0	856686592	54	6115
2026-01-19 18:38:16.55	316.03	12.94	-40.4	-41.5	21.5	0.00e+00	0	40	0	858783744	54	6085
2026-01-19 18:38:17.56	315.86	12.90	-40.1	-41.2	21.8	0.00e+00	0	40	0	860880896	54	5865
2026-01-19 18:38:18.57	315.68	12.85	-39.8	-40.9	22.0	0.00e+00	0	40	0	862978048	54	5640
2026-01-19 18:38:19.58	315.51	12.80	-40.0	-41.0	22.0	0.00e+00	0	40	0	864026624	54	5751
2026-01-19 18:38:20.59	315.33	12.76	-39.8	-40.8	21.7	0.00e+00	0	40	0	866123776	54	5615
2026-01-19 18:38:21.60	315.16	12.71	-39.8	-40.8	22.2	0.00e+00	0	40	0	868220928	52	6317
2026-01-19 18:38:22.61	314.99	12.66	-39.9	-40.9	22.1	0.00e+00	0	40	0	870318080	52	6375
2026-01-19 18:38:23.62	314.81	12.61	-40.4	-41.4	21.8	0.00e+00	0	40	0	872415232	52	6758
2026-01-19 18:38:24.63	314.64	12.57	-40.5	-41.6	21.6	0.00e+00	0	40	0	874512384	52	6926
2026-01-19 18:38:25.64	314.47	12.52	-40.7	-41.8	21.4	0.00e+00	0	40	0	875560960	54	6274
2026-01-19 18:38:26.65	314.30	12.47	-40.8	-41.9	21.2	0.00e+00	0	40	0	877658112	54	6384
2026-01-19 18:38:27.66	314.13	12.42	-41.2	-42.4	21.1	0.00e+00	0	40	0	879755264	54	6752
2026-01-19 18:38:28.67	313.96	12.37	-41.2	-42.4	21.1	0.00e+00	0	40	0	881852416	54	6734
2026-01-19 18:38:29.67	313.79	12.33	-41.1	-42.3	21.2	0.00e+00	0	40	0	883949568	54	6630
2026-01-19 18:38:30.69	313.62	12.28	-41.1	-42.3	21.1	0.00e+00	0	40	0	884998144	54	6679
2026-01-19 18:38:31.69	313.45	12.23	-41.0	-42.1	21.1	0.00e+00	0	40	0	887095296	54	6528
2026-01-19 18:38:32.71	313.28	12.18	-40.8	-41.9	21.4	0.00e+00	0	40	0	889192448	54	6352
2026-01-19 18:38:33.71	313.12	12.13	-40.4	-41.5	21.6	0.00e+00	0	40	0	891289600	54	6098
2026-01-19 18:38:34.72	312.95	12.08	-40.5	-41.7	21.5	0.00e+00	0	40	0	893386752	54	6175
2026-01-19 18:38:35.74	312.78	12.03	-40.5	-41.6	21.5	0.00e+00	0	40	0	894435328	54	6110
2026-01-19 18:38:36.74	312.62	11.98	-41.2	-42.3	21.1	0.00e+00	0	40	0	896532480	54	6684
2026-01-19 18:38:37.75	312.46	11.93	-41.7	-43.0	20.6	0.00e+00	0	40	0	898629632	54	7209
2026-01-19 18:38:38.76	312.29	11.89	-42.2	-43.6	19.8	0.00e+00	0	40	0	900726784	56	6905
2026-01-19 18:38:39.77	312.13	11.84	-42.5	-44.0	19.5	0.00e+00	0	40	0	902823936	56	7239
2026-01-19 18:38:40.78	311.97	11.79	-43.2	-44.9	18.6	0.00e+00	0	40	0	903872512	58	7129
2026-01-19 18:38:41.79	311.80	11.74	-43.7	-45.7	17.8	0.00e+00	0	40	0	905969664	58	7810
2026-01-19 18:38:42.80	311.64	11.69	-43.9	-45.9	17.8	0.00e+00	0	40	0	908066816	60	7131
2026-01-19 18:38:43.81	311.48	11.64	-43.7	-45.6	17.9	0.00e+00	0	40	0	910163968	60	6910
2026-01-19 18:38:44.82	311.32	11.58	-43.5	-45.3	18.2	0.00e+00	0	40	0	912261120	60	6684
2026-01-19 18:38:45.83	311.16	11.53	-43.2	-45.0	18.4	0.00e+00	0	40	0	913309696	60	6436
2026-01-19 18:38:46.84	311.00	11.48	-43.1	-44.7	18.9	0.00e+00	0	40	0	915406848	60	6195
2026-01-19 18:38:47.85	310.84	11.43	-42.9	-44.5	18.9	0.00e+00	0	40	0	917504000	60	6065
2026-01-19 18:38:48.86	310.68	11.38	-42.9	-44.4	19.3	0.00e+00	0	40	0	919601152	58	6757
2026-01-19 18:38:49.86	310.52	11.33	-42.5	-44.0	19.4	0.00e+00	0	40	0	921698304	58	6423
2026-01-19 18:38:50.87	310.37	11.28	-42.4	-43.8	19.6	0.00e+00	0	40	0	922746880	58	6304
2026-01-19 18:38:51.88	310.21	11.23	-42.2	-43.7	19.8	0.00e+00	0	40	0	924844032	58	6181
2026-01-19 18:38:52.89	310.05	11.18	-42.3	-43.7	19.9	0.00e+00	0	40	0	926941184	58	6224
2026-01-19 18:38:53.90	309.90	11.13	-42.5	-43.8	20.3	0.00e+00	0	40	0	929038336	56	7070
2026-01-19 18:38:54.91	309.74	11.08	-42.0	-43.3	20.7	0.00e+00	0	40	0	931135488	58	5898
2026-01-19 18:38:55.92	309.59	11.02	-41.7	-42.9	20.8	0.00e+00	0	40	0	932184064	56	6368
2026-01-19 18:38:56.92	309.44	10.97	-41.6	-42.8	20.7	0.00e+00	0	40	0	934281216	56	6317
2026-01-19 18:38:57.94	309.28	10.92	-41.4	-42.6	20.8	0.00e+00	0	40	0	936378368	56	6167
2026-01-19 18:38:58.95	309.13	10.87	-41.5	-42.7	20.7	7.00e-07	0	40	0	938475520	56	6199
2026-01-19 18:38:59.96	308.97	10.82	-41.5	-42.7	20.7	0.00e+00	0	40	0	940572672	56	6240
2026-01-19 18:39:00.97	308.82	10.76	-41.7	-42.9	20.6	0.00e+00	0	40	0	942669824	56	6374
2026-01-19 18:39:01.98	308.67	10.71	-41.7	-42.9	20.6	0.00e+00	0	40	0	943718400	56	6334
2026-01-19 18:39:02.98	308.52	10.66	-42.0	-43.2	20.4	0.00e+00	0	40	0	945815552	56	6607
2026-01-19 18:39:03.99	308.37	10.61	-41.8	-43.0	20.4	0.00e+00	0	40	0	947912704	56	6452
2026-01-19 18:39:05.00	308.22	10.56	-41.6	-42.8	20.6	0.00e+00	0	40	0	950009856	56	6297
2026-01-19 18:39:06.01	308.07	10.50	-41.7	-42.9	20.7	0.00e+00	0	40	0	952107008	56	6370
2026-01-19 18:39:07.02	307.92	10.45	-41.7	-42.9	20.9	0.00e+00	0	40	0	953155584	56	6389
2026-01-19 18:39:08.03	307.78	10.40	-41.4	-42.7	20.7	0.00e+00	0	40	0	955252736	56	6179
2026-01-19 18:39:09.04	307.63	10.35	-40.7	-41.8	21.3	0.00e+00	0	40	0	957349888	54	6276
2026-01-19 18:39:10.05	307.48	10.29	-41.0	-42.1	21.1	0.00e+00	0	40	0	959447040	54	6520
2026-01-19 18:39:11.06	307.33	10.24	-40.9	-42.1	21.2	0.00e+00	0	40	0	961544192	54	6484
2026-01-19 18:39:12.07	307.19	10.19	-41.0	-42.2	21.2	0.00e+00	0	40	0	962592768	54	6549
2026-01-19 18:39:13.08	307.04	10.14	-40.8	-42.0	21.3	0.00e+00	0	40	0	964689920	54	6406
2026-01-19 18:39:14.09	306.90	10.08	-41.1	-42.3	21.1	0.00e+00	0	40	0	966787072	54	6642
2026-01-19 18:39:15.10	306.75	10.03	-41.1	-42.3	21.0	0.00e+00	0	40	0	968884224	54	6657
2026-01-19 18:39:16.10	306.61	9.98	-41.0	-42.2	21.0	0.00e+00	0	40	0	970981376	54	6600
2026-01-19 18:39:17.11	306.47	9.92	-41.3	-42.5	20.8	0.00e+00	0	40	0	972029952	54	6790
2026-01-19 18:39:18.12	306.33	9.87	-41.3	-42.6	20.6	0.00e+00	0	40	0	974127104	54	6853
2026-01-19 18:39:19.13	306.18	9.82	-41.5	-42.8	20.5	0.00e+00	0	40	0	976224256	54	7023
2026-01-19 18:39:20.14	306.04	9.76	-41.7	-42.9	20.4	0.00e+00	0	40	0	978321408	54	7170
2026-01-19 18:39:21.15	305.90	9.71	-41.8	-43.2	20.3	0.00e+00	0	40	0	980418560	56	6540
2026-01-19 18:39:22.16	305.76	9.66	-41.8	-43.0	20.5	0.00e+00	0	40	0	981467136	56	6438
2026-01-19 18:39:23.17	305.62	9.60	-42.0	-43.3	20.3	0.00e+00	0	40	0	983564288	56	6681
2026-01-19 18:39:24.18	305.48	9.55	-41.9	-43.2	20.4	0.00e+00	0	40	0	985661440	56	6595
2026-01-19 18:39:25.19	305.34	9.50	-41.9	-43.2	20.3	0.00e+00	0	40	0	987758592	56	6613
2026-01-19 18:39:26.20	305.20	9.44	-41.8	-43.0	20.5	0.00e+00	0	40	0	989855744	56	6461
2026-01-19 18:39:27.21	305.06	9.39	-41.9	-43.2	20.5	0.00e+00	0	40	0	990904320	56	6600
2026-01-19 18:39:28.22	304.93	9.34	-41.9	-43.2	20.4	0.00e+00	0	40	0	993001472	56	6562
2026-01-19 18:39:29.23	304.79	9.28	-41.8	-43.1	20.4	0.00e+00	0	40	0	995098624	56	6495
2026-01-19 18:39:30.24	304.65	9.23	-42.1	-43.5	20.1	0.00e+00	0	40	0	997195776	56	6783
2026-01-19 18:39:31.25	304.52	9.17	-41.5	-42.8	20.5	0.00e+00	0	40	0	999292928	56	6248
2026-01-19 18:39:32.26	304.38	9.12	-41.3	-42.6	20.8	0.00e+00	0	40	0	1000341504	56	6109
2026-01-19 18:39:33.27	304.25	9.07	-41.3	-42.5	21.0	0.00e+00	0	40	0	1002438656	56	6061
2026-01-19 18:39:34.28	304.11	9.01	-41.0	-42.2	21.1	0.00e+00	0	40	0	1004535808	56	5885
2026-01-19 18:39:35.29	303.98	8.96	-40.8	-42.0	21.5	0.00e+00	0	40	0	1006632960	54	6404
2026-01-19 18:39:36.30	303.84	8.90	-40.6	-41.7	21.8	0.00e+00	0	40	0	1008730112	54	6209
2026-01-19 18:39:37.31	303.71	8.85	-40.6	-41.6	21.9	0.00e+00	0	40	0	1010827264	54	6144
2026-01-19 18:39:38.31	303.58	8.80	-40.0	-41.0	21.9	0.00e+00	0	40	0	1011875840	54	5738
2026-01-19 18:39:39.32	303.45	8.74	-40.4	-41.5	21.8	0.00e+00	0	40	0	1013972992	54	6049
2026-01-19 18:39:40.33	303.32	8.69	-39.8	-40.8	22.1	0.00e+00	0	40	0	1016070144	54	5591
2026-01-19 18:39:41.34	303.19	8.63	-40.1	-41.2	22.1	0.00e+00	0	40	0	1018167296	54	5848
2026-01-19 18:39:42.35	303.06	8.58	-40.3	-41.3	21.9	0.00e+00	0	40	0	1020264448	54	5939
2026-01-19 18:39:43.36	302.93	8.53	-40.5	-41.6	21.9	0.00e+00	0	40	0	1021313024	54	6109
2026-01-19 18:39:44.37	302.80	8.47	-40.4	-41.5	21.8	0.00e+00	0	40	0	1023410176	54	6048
2026-01-19 18:39:45.38	302.67	8.42	-40.4	-41.4	21.7	0.00e+00	0	40	0	1025507328	54	6027
2026-01-19 18:39:46.39	302.54	8.36	-40.5	-41.5	21.7	0.00e+00	0	40	0	1027604480	54	6089
2026-01-19 18:39:47.40	302.41	8.31	-40.5	-41.6	21.7	0.00e+00	0	40	0	1029701632	54	6131
2026-01-19 18:39:48.40	302.28	8.25	-40.8	-42.0	21.3	0.00e+00	0	40	0	1030750208	54	6409
2026-01-19 18:39:49.41	302.16	8.20	-40.4	-41.5	21.7	0.00e+00	0	40	0	1032847360	54	6060
2026-01-19 18:39:50.42	302.03	8.15	-40.6	-41.7	21.7	0.00e+00	0	40	0	1034944512	54	6185
2026-01-19 18:39:51.43	301.90	8.09	-40.0	-41.1	22.1	0.00e+00	0	40	0	1037041664	54	5792
2026-01-19 18:39:52.44	301.78	8.04	-40.3	-41.4	22.1	0.00e+00	0	40	0	1039138816	54	6000
2026-01-19 18:39:53.45	301.65	7.98	-40.4	-41.4	21.9	0.00e+00	0	40	0	1040187392	54	6025
2026-01-19 18:39:54.46	301.53	7.93	-40.1	-41.2	22.1	0.00e+00	0	40	0	1042284544	54	5842
2026-01-19 18:39:55.47	301.40	7.87	-40.2	-41.3	22.0	0.00e+00	0	40	0	1044381696	54	5932
2026-01-19 18:39:56.48	301.28	7.82	-40.6	-41.8	21.8	0.00e+00	0	40	0	1046478848	54	6248
2026-01-19 18:39:57.49	301.16	7.76	-40.9	-42.1	21.5	0.00e+00	0	40	0	1048576000	54	6469
2026-01-19 18:39:58.50	301.04	7.71	-40.8	-41.9	21.6	0.00e+00	0	40	0	1049624576	54	6365
2026-01-19 18:39:59.51	300.91	7.66	-40.9	-42.0	21.6	0.00e+00	0	40	0	1051721728	54	6447
2026-01-19 18:40:00.52	300.79	7.60	-41.0	-42.1	21.4	0.00e+00	0	40	0	1053818880	54	6538
2026-01-19 18:40:01.53	300.67	7.55	-40.7	-41.9	21.4	0.00e+00	0	40	0	1055916032	54	6342
2026-01-19 18:40:02.54	300.55	7.49	-41.1	-42.2	21.2	0.00e+00	0	40	0	1058013184	54	6590
2026-01-19 18:40:03.55	300.43	7.44	-41.2	-42.4	21.0	0.00e+00	0	40	0	1059061760	54	6748
2026-01-19 18:40:04.56	300.31	7.38	-41.6	-42.8	20.9	0.00e+00	0	40	0	1061158912	56	6292
2026-01-19 18:40:05.57	300.19	7.33	-41.3	-42.5	21.0	0.00e+00	0	40	0	1063256064	56	6048
2026-01-19 18:40:06.58	300.07	7.27	-41.6	-42.8	20.9	0.00e+00	0	40	0	1065353216	56	6316
2026-01-19 18:40:07.59	299.95	7.22	-41.3	-42.5	20.8	0.00e+00	0	40	0	1067450368	56	6084
2026-01-19 18:40:08.60	299.83	7.17	-41.7	-43.0	20.5	0.00e+00	0	40	0	1068498944	56	6396
2026-01-19 18:40:09.61	299.72	7.11	-41.7	-42.9	20.5	0.00e+00	0	40	0	1070596096	56	6357
2026-01-19 18:40:10.62	299.60	7.06	-41.3	-42.5	20.7	0.00e+00	0	40	0	1072693248	56	6070
2026-01-19 18:40:11.63	299.48	7.00	-41.5	-42.8	20.8	0.00e+00	0	40	0	1074790400	56	6288
2026-01-19 18:40:12.64	299.37	6.95	-41.7	-42.9	20.4	0.00e+00	0	40	0	1076887552	56	6370
2026-01-19 18:40:13.65	299.25	6.89	-42.0	-43.3	20.5	0.00e+00	0	40	0	1078984704	56	6678
2026-01-19 18:40:14.66	299.13	6.84	-42.2	-43.5	19.9	0.00e+00	0	40	0	1080033280	56	6816
2026-01-19 18:40:15.67	299.02	6.78	-41.6	-42.8	21.0	0.00e+00	0	40	0	1082130432	56	6306
2026-01-19 18:40:16.68	298.90	6.73	-41.2	-42.4	20.7	0.00e+00	0	40	0	1084227584	56	5992
2026-01-19 18:40:17.69	298.79	6.67	-41.7	-43.0	20.7	0.00e+00	0	40	0	1086324736	56	6392
2026-01-19 18:40:18.70	298.68	6.62	-41.6	-42.9	20.6	0.00e+00	0	40	0	1088421888	56	6336
2026-01-19 18:40:19.71	298.56	6.57	-41.1	-42.2	21.3	0.00e+00	0	40	0	1089470464	56	5891
2026-01-19 18:40:20.71	298.45	6.51	-41.3	-42.5	21.3	0.00e+00	0	40	0	1091567616	54	6781
2026-01-19 18:40:21.73	298.34	6.46	-40.7	-41.8	21.3	0.00e+00	0	40	0	1093664768	54	6306
2026-01-19 18:40:22.74	298.23	6.40	-40.4	-41.5	21.7	0.00e+00	0	40	0	1095761920	54	6059
2026-01-19 18:40:23.74	298.12	6.35	-40.4	-41.5	21.5	0.00e+00	0	40	0	1097859072	54	6053
2026-01-19 18:40:24.76	298.00	6.29	-40.6	-41.7	21.5	0.00e+00	0	40	0	1098907648	54	6215
2026-01-19 18:40:25.76	297.89	6.24	-40.5	-41.6	21.6	0.00e+00	0	40	0	1101004800	54	6155
2026-01-19 18:40:26.77	297.78	6.19	-40.8	-41.9	21.5	0.00e+00	0	40	0	1103101952	54	6389
2026-01-19 18:40:27.79	297.67	6.13	-40.9	-42.1	21.2	0.00e+00	0	40	0	1105199104	54	6499
2026-01-19 18:40:28.80	297.56	6.08	-41.1	-42.3	20.9	0.00e+00	0	40	0	1107296256	54	6643
2026-01-19 18:40:29.81	297.45	6.02	-41.4	-42.6	20.9	0.00e+00	0	40	0	1108344832	54	6922
2026-01-19 18:40:30.82	297.35	5.97	-41.9	-43.2	20.6	0.00e+00	0	40	0	1110441984	56	6565
2026-01-19 18:40:31.83	297.24	5.91	-41.1	-42.3	20.8	0.00e+00	0	40	0	1112539136	56	5964
2026-01-19 18:40:32.84	297.13	5.86	-41.6	-43.0	19.9	0.00e+00	0	40	0	1114636288	56	6396
2026-01-19 18:40:33.85	297.02	5.80	-41.6	-43.0	20.1	0.00e+00	0	40	0	1116733440	56	6415
2026-01-19 18:40:34.86	296.92	5.75	-41.7	-43.1	20.0	0.00e+00	0	40	0	1117782016	56	6473
2026-01-19 18:40:35.87	296.81	5.70	-41.8	-43.1	20.1	0.00e+00	0	40	0	1119879168	56	6520
2026-01-19 18:40:36.88	296.70	5.64	-42.0	-43.4	19.8	0.00e+00	0	40	0	1121976320	56	6750
2026-01-19 18:40:37.89	296.60	5.59	-41.8	-43.1	19.7	0.00e+00	0	40	0	1124073472	56	6516
2026-01-19 18:40:38.90	296.49	5.53	-42.0	-43.3	20.0	0.00e+00	0	40	0	1126170624	56	6684
2026-01-19 18:40:39.91	296.39	5.48	-42.1	-43.4	20.2	0.00e+00	0	40	0	1127219200	56	6717
2026-01-19 18:40:40.91	296.28	5.43	-41.3	-42.5	20.8	0.00e+00	0	40	0	1129316352	56	6062
2026-01-19 18:40:41.92	296.18	5.37	-41.4	-42.6	20.6	0.00e+00	0	40	0	1131413504	56	6127
2026-01-19 18:40:42.93	296.08	5.32	-41.3	-42.5	20.8	0.00e+00	0	40	0	1133510656	56	6053
2026-01-19 18:40:43.94	295.97	5.26	-40.7	-41.9	21.0	0.00e+00	0	40	0	1135607808	56	5639
2026-01-19 18:40:44.95	295.87	5.21	-40.7	-41.8	20.9	0.00e+00	0	40	0	1136656384	54	6307
2026-01-19 18:40:45.96	295.77	5.16	-40.6	-41.7	20.9	0.00e+00	0	40	0	1138753536	54	6244
2026-01-19 18:40:46.97	295.66	5.10	-40.7	-41.9	20.8	0.00e+00	0	40	0	1140850688	54	6321
2026-01-19 18:40:47.98	295.56	5.05	-40.4	-41.6	21.1	0.00e+00	0	40	0	1142947840	54	6108
2026-01-19 18:40:48.99	295.46	4.99	-40.6	-41.8	20.9	0.00e+00	0	40	0	1145044992	54	6296
2026-01-19 18:40:50.00	295.36	4.94	-40.9	-42.1	20.7	0.00e+00	0	40	0	1147142144	54	6501
2026-01-19 18:40:51.01	295.26	4.89	-41.0	-42.2	20.5	0.00e+00	0	40	0	1148190720	54	6576
2026-01-19 18:40:52.02	295.16	4.83	-41.2	-42.4	20.6	0.00e+00	0	40	0	1150287872	54	6760
2026-01-19 18:40:53.03	295.06	4.78	-41.4	-42.6	20.3	0.00e+00	0	40	0	1152385024	54	6925
2026-01-19 18:40:54.04	294.96	4.72	-41.4	-42.7	20.3	0.00e+00	0	40	0	1154482176	54	6931
2026-01-19 18:40:55.05	294.86	4.67	-41.7	-43.1	20.0	0.00e+00	0	40	0	1156579328	54	7305
2026-01-19 18:40:56.06	294.76	4.62	-42.1	-43.5	20.0	0.00e+00	0	40	0	1157627904	56	6771
2026-01-19 18:40:57.07	294.66	4.56	-42.7	-44.1	19.4	0.00e+00	0	40	0	1159725056	58	6527
2026-01-19 18:40:58.08	294.57	4.51	-42.4	-43.9	19.4	0.00e+00	0	40	0	1161822208	58	6324
2026-01-19 18:40:59.10	294.47	4.46	-42.9	-44.5	18.9	0.00e+00	0	40	0	1163919360	58	6783
2026-01-19 18:41:00.11	294.37	4.40	-43.2	-44.8	19.0	0.00e+00	0	40	0	1166016512	58	7059
2026-01-19 18:41:01.12	294.27	4.35	-42.9	-44.5	18.5	0.00e+00	0	40	0	1167065088	58	6814
2026-01-19 18:41:02.12	294.18	4.29	-43.4	-45.0	18.6	0.00e+00	0	40	0	1169162240	58	7236
2026-01-19 18:41:03.13	294.08	4.24	-43.1	-44.7	18.6	0.00e+00	0	40	0	1171259392	58	6965
2026-01-19 18:41:04.14	293.99	4.19	-43.5	-45.3	17.9	0.00e+00	0	40	0	1173356544	58	7503
2026-01-19 18:41:05.15	293.89	4.13	-43.3	-45.1	18.1	0.00e+00	0	40	0	1175453696	60	6502
2026-01-19 18:41:06.17	293.79	4.08	-43.6	-45.3	18.2	0.00e+00	0	40	0	1176502272	60	6679
2026-01-19 18:41:07.17	293.70	4.03	-43.0	-44.6	18.4	0.00e+00	0	40	0	1178599424	60	6172
2026-01-19 18:41:08.18	293.61	3.97	-43.4	-45.1	18.4	0.00e+00	0	40	0	1180696576	60	6511
2026-01-19 18:41:09.19	293.51	3.92	-43.7	-45.4	18.3	0.00e+00	0	40	0	1182793728	58	7534
2026-01-19 18:41:10.20	293.42	3.87	-42.5	-44.1	18.7	0.00e+00	0	40	0	1184890880	58	6521
2026-01-19 18:41:11.21	293.33	3.81	-42.7	-44.3	18.7	0.00e+00	0	40	0	1185939456	58	6667
2026-01-19 18:41:12.22	293.23	3.76	-42.9	-44.4	18.9	0.00e+00	0	40	0	1188036608	58	6748
2026-01-19 18:41:13.23	293.14	3.71	-42.5	-44.1	18.9	0.00e+00	0	40	0	1190133760	58	6491
2026-01-19 18:41:14.24	293.05	3.65	-42.6	-44.1	19.0	0.00e+00	0	40	0	1192230912	58	6537
2026-01-19 18:41:15.25	292.96	3.60	-43.3	-45.0	18.2	0.00e+00	0	40	0	1194328064	58	7172
2026-01-19 18:41:16.26	292.86	3.55	-43.2	-44.8	18.8	0.00e+00	0	40	0	1195376640	60	6305
2026-01-19 18:41:17.27	292.77	3.49	-43.2	-44.9	18.6	0.00e+00	0	40	0	1197473792	58	7094
2026-01-19 18:41:18.28	292.68	3.44	-42.9	-44.5	18.8	0.00e+00	0	40	0	1199570944	58	6821
