passes_logs/2026/01/19/R4.6S_Anadyr/R4.6S_Anadyr__20260119_000406_NOAA_20_JPSS-1_rec.log

#Pass ID: 20260119_000406_NOAA 20 (JPSS-1)
#Satellite: NOAA 20 (JPSS-1)
#Configuration: NOAA 20
#almurnet v.1.7.20251203
#Start time: 2026-01-19 00:04:07

#Version: 2.2.20231116
#Station: R4.6S_Anadyr
#Location: 177.4865 lon 64.73178 lat
#TLE: 1 43013U 17073A   26018.57232797  .00000065  00000+0  51758-4 0  9998
#TLE: 2 43013  98.7640 319.4740 0001368  34.2083 325.9181 14.19536753423241

#Time	Az	El	Level	Level2	SNR	BER	BlckErr	Temp	State	Recorded	gain1	gain2
2026-01-19 00:04:07.83	152.50	0.08	-49.9	-64.9	3.5	1.51e+00	0	38	0	0	60	63516
2026-01-19 00:04:08.84	152.50	0.14	-49.9	-65.2	3.6	1.51e+00	0	39	104	0	60	65459
2026-01-19 00:04:09.85	152.50	0.20	-50.0	-65.1	3.6	1.51e+00	0	39	104	0	60	65266
2026-01-19 00:04:10.86	152.50	0.26	-50.0	-65.2	3.6	1.51e+00	0	39	104	0	60	65594
2026-01-19 00:04:11.87	152.50	0.32	-50.0	-65.1	3.6	1.51e+00	0	39	104	0	60	65321
2026-01-19 00:04:12.88	152.50	0.39	-50.0	-65.2	3.6	1.51e+00	0	39	104	0	60	65981
2026-01-19 00:04:13.89	152.50	0.45	-50.0	-65.2	3.6	1.51e+00	0	40	104	0	60	65939
2026-01-19 00:04:14.90	152.50	0.51	-50.0	-65.2	3.6	1.51e+00	0	40	104	0	60	65855
2026-01-19 00:04:15.90	152.50	0.57	-49.9	-65.2	3.6	1.51e+00	0	40	104	0	60	65634
2026-01-19 00:04:16.91	152.50	0.63	-50.0	-65.3	3.6	1.51e+00	0	40	104	0	60	66262
2026-01-19 00:04:17.92	152.49	0.69	-50.0	-65.2	3.6	1.51e+00	0	39	104	0	60	65793
2026-01-19 00:04:18.93	152.49	0.76	-49.9	-65.2	3.6	1.51e+00	0	40	104	0	60	65523
2026-01-19 00:04:19.94	152.49	0.82	-49.9	-65.2	3.6	1.51e+00	0	40	104	0	60	65481
2026-01-19 00:04:20.95	152.49	0.88	-49.9	-65.1	3.6	1.51e+00	0	40	104	0	60	65096
2026-01-19 00:04:21.96	152.49	0.94	-49.9	-65.0	3.6	1.51e+00	0	40	104	0	60	64540
2026-01-19 00:04:22.97	152.49	1.01	-48.9	-65.1	3.6	1.51e+00	0	40	104	0	60	64663
2026-01-19 00:04:23.98	152.49	1.07	-49.7	-64.9	3.6	1.51e+00	0	40	104	0	60	63679
2026-01-19 00:04:24.99	152.49	1.13	-49.2	-64.8	3.6	1.51e+00	0	40	104	0	60	62992
2026-01-19 00:04:26.00	152.49	1.20	-49.6	-64.8	3.6	1.51e+00	0	40	104	0	60	62600
2026-01-19 00:04:27.01	152.49	1.26	-49.3	-64.6	3.6	1.51e+00	0	40	104	0	60	61184
2026-01-19 00:04:28.01	152.48	1.32	-49.0	-64.3	3.6	1.51e+00	0	40	104	0	60	59569
2026-01-19 00:04:29.02	152.48	1.38	-48.6	-63.8	3.6	1.51e+00	0	40	104	0	60	55675
2026-01-19 00:04:30.03	152.48	1.45	-48.5	-63.7	3.6	1.51e+00	0	40	104	0	60	55446
2026-01-19 00:04:31.05	152.48	1.51	-48.4	-63.6	3.6	1.51e+00	0	40	104	0	60	54515
2026-01-19 00:04:32.05	152.48	1.58	-48.3	-63.4	3.6	1.51e+00	0	40	104	0	60	53758
2026-01-19 00:04:33.06	152.48	1.64	-48.2	-63.4	3.6	1.51e+00	0	40	104	0	60	53593
2026-01-19 00:04:34.07	152.48	1.70	-48.2	-63.4	3.6	1.51e+00	0	40	104	0	60	53550
2026-01-19 00:04:35.08	152.48	1.77	-48.2	-63.4	3.6	1.51e+00	0	40	104	0	60	53695
2026-01-19 00:04:36.09	152.48	1.83	-48.2	-63.4	3.6	1.51e+00	0	40	104	0	60	53654
2026-01-19 00:04:37.10	152.47	1.90	-48.2	-63.5	3.6	1.51e+00	0	40	104	0	60	53983
2026-01-19 00:04:38.11	152.47	1.96	-48.2	-63.5	3.6	1.51e+00	0	40	104	0	60	53830
2026-01-19 00:04:39.12	152.47	2.03	-48.2	-63.5	3.6	1.51e+00	0	40	104	0	60	54049
2026-01-19 00:04:40.13	152.47	2.09	-48.2	-63.5	3.6	1.51e+00	0	40	104	0	60	53773
2026-01-19 00:04:41.14	152.47	2.16	-48.2	-63.4	3.6	1.51e+00	0	40	104	0	60	53509
2026-01-19 00:04:42.16	152.47	2.22	-48.2	-63.5	3.6	1.51e+00	0	40	104	0	60	53824
2026-01-19 00:04:43.17	152.47	2.29	-48.2	-63.4	3.5	1.51e+00	0	40	104	0	60	53583
2026-01-19 00:04:44.18	152.47	2.35	-48.2	-63.5	3.6	1.51e+00	0	40	104	0	60	53961
2026-01-19 00:04:45.18	152.46	2.42	-48.2	-63.4	3.6	1.51e+00	0	40	104	0	60	53725
2026-01-19 00:04:46.19	152.46	2.49	-48.2	-63.4	3.6	1.51e+00	0	40	104	0	60	53377
2026-01-19 00:04:47.20	152.46	2.55	-48.2	-63.3	3.6	1.51e+00	0	40	104	0	60	52843
2026-01-19 00:04:48.21	152.46	2.62	-48.2	-63.1	3.6	1.51e+00	0	40	104	0	60	51696
2026-01-19 00:04:49.22	152.46	2.68	-48.2	-62.8	3.6	1.51e+00	0	40	104	0	60	49956
2026-01-19 00:04:50.23	152.46	2.75	-48.2	-62.5	3.6	1.51e+00	0	40	104	0	60	48297
2026-01-19 00:04:51.24	152.45	2.82	-48.2	-62.6	3.6	1.51e+00	0	40	104	0	60	49016
2026-01-19 00:04:52.25	152.45	2.89	-48.2	-62.9	3.6	1.51e+00	0	40	104	0	60	50235
2026-01-19 00:04:53.26	152.45	2.95	-48.2	-63.2	3.6	1.51e+00	0	40	104	0	60	52393
2026-01-19 00:04:54.27	152.45	3.02	-48.2	-63.5	3.6	1.51e+00	0	40	104	0	60	54021
2026-01-19 00:04:55.28	152.45	3.09	-48.2	-63.0	3.6	1.51e+00	0	40	104	0	60	50867
2026-01-19 00:04:56.29	152.45	3.15	-48.1	-61.5	3.6	1.51e+00	0	40	104	0	60	43097
2026-01-19 00:04:57.30	152.45	3.22	-48.0	-59.1	4.4	1.44e+00	13	40	104	0	60	32703
2026-01-19 00:04:58.31	152.44	3.29	-47.7	-55.9	5.7	8.80e-01	0	40	0	1048576	60	22511
2026-01-19 00:04:59.32	152.44	3.36	-47.4	-54.3	7.1	1.86e-01	0	40	0	3145728	60	18806
2026-01-19 00:05:00.33	152.44	3.43	-47.1	-52.9	9.1	5.21e-02	0	40	0	5242880	60	15949
2026-01-19 00:05:01.34	152.44	3.49	-46.7	-51.7	10.4	9.47e-03	0	40	0	6291456	60	13963
2026-01-19 00:05:02.35	152.44	3.56	-46.3	-50.8	11.3	1.59e-03	0	40	0	8388608	60	12602
2026-01-19 00:05:03.36	152.43	3.63	-46.0	-50.0	12.3	2.46e-04	0	40	0	10485760	60	11366
2026-01-19 00:05:04.37	152.43	3.70	-46.1	-50.2	12.1	2.48e-04	0	40	0	12582912	60	11711
2026-01-19 00:05:05.38	152.43	3.77	-45.9	-49.8	12.5	1.26e-04	0	40	0	14680064	60	11228
2026-01-19 00:05:06.39	152.43	3.84	-46.5	-51.3	9.2	1.88e-04	0	40	0	15728640	60	13235
2026-01-19 00:05:07.39	152.43	3.91	-48.1	-59.1	5.1	1.51e+00	0	40	104	16777216	60	32723
2026-01-19 00:05:08.40	152.43	3.98	-44.7	-47.5	13.8	0.00e+00	0	40	104	16777216	60	8591
2026-01-19 00:05:09.41	152.42	4.05	-47.6	-55.6	4.9	1.51e+00	7	40	104	16777216	60	21698
2026-01-19 00:05:10.42	152.42	4.12	-44.0	-46.3	16.1	8.61e-01	0	40	104	16777216	60	7479
2026-01-19 00:05:11.43	152.42	4.19	-46.9	-52.8	10.5	7.14e-01	5	40	104	16777216	60	15797
2026-01-19 00:05:12.44	152.42	4.26	-43.9	-46.2	16.4	0.00e+00	0	40	0	16777216	60	7400
2026-01-19 00:05:13.45	152.42	4.33	-43.6	-45.7	16.7	0.00e+00	0	40	0	18874368	60	6966
2026-01-19 00:05:14.46	152.41	4.40	-43.7	-46.0	16.7	0.00e+00	0	40	0	20971520	60	7181
2026-01-19 00:05:15.47	152.41	4.47	-43.6	-45.7	16.7	0.00e+00	0	40	0	23068672	60	7001
2026-01-19 00:05:16.48	152.41	4.54	-43.8	-46.0	16.5	0.00e+00	0	40	0	24117248	60	7239
2026-01-19 00:05:17.49	152.41	4.61	-43.8	-46.1	16.7	0.00e+00	0	40	0	26214400	60	7266
2026-01-19 00:05:18.50	152.41	4.68	-43.5	-45.6	17.0	0.00e+00	0	40	0	28311552	60	6890
2026-01-19 00:05:19.51	152.40	4.76	-43.7	-45.9	16.8	0.00e+00	0	40	0	30408704	60	7106
2026-01-19 00:05:20.52	152.40	4.83	-43.8	-46.0	16.7	0.00e+00	0	40	0	32505856	60	7190
2026-01-19 00:05:21.53	152.40	4.90	-43.7	-46.0	16.7	0.00e+00	0	40	0	33554432	60	7189
2026-01-19 00:05:22.54	152.40	4.97	-43.5	-45.6	17.0	0.00e+00	0	40	0	35651584	60	6922
2026-01-19 00:05:23.55	152.39	5.04	-43.6	-45.7	16.8	0.00e+00	0	40	0	37748736	60	6985
2026-01-19 00:05:24.56	152.39	5.12	-43.7	-45.9	16.6	0.00e+00	0	40	0	39845888	60	7160
2026-01-19 00:05:25.57	152.39	5.19	-43.4	-45.5	17.1	0.00e+00	0	40	0	41943040	60	6806
2026-01-19 00:05:26.58	152.39	5.26	-43.4	-45.5	17.1	0.00e+00	0	40	0	42991616	60	6801
2026-01-19 00:05:27.59	152.38	5.34	-43.6	-45.7	17.0	0.00e+00	0	40	0	45088768	60	6978
2026-01-19 00:05:28.60	152.38	5.41	-43.8	-46.0	16.7	0.00e+00	0	40	0	47185920	60	7199
2026-01-19 00:05:29.61	152.38	5.48	-43.6	-45.7	17.1	0.00e+00	0	40	0	49283072	60	6974
2026-01-19 00:05:30.62	152.38	5.56	-43.4	-45.4	17.4	0.00e+00	0	40	0	51380224	60	6708
2026-01-19 00:05:31.63	152.38	5.63	-43.4	-45.4	17.3	0.00e+00	0	40	0	53477376	60	6724
2026-01-19 00:05:32.64	152.37	5.71	-43.4	-45.3	17.5	0.00e+00	0	40	0	54525952	60	6664
2026-01-19 00:05:33.65	152.37	5.78	-43.3	-45.3	17.5	0.00e+00	0	40	0	56623104	60	6659
2026-01-19 00:05:34.66	152.37	5.86	-43.4	-45.4	17.4	0.00e+00	0	40	0	58720256	60	6713
2026-01-19 00:05:35.67	152.36	5.93	-43.4	-45.4	17.4	0.00e+00	0	40	0	60817408	60	6756
2026-01-19 00:05:36.68	152.36	6.01	-43.4	-45.4	17.5	0.00e+00	0	40	0	62914560	60	6696
2026-01-19 00:05:37.69	152.36	6.08	-43.5	-45.5	17.5	0.00e+00	0	40	0	63963136	60	6816
2026-01-19 00:05:38.70	152.36	6.16	-43.2	-45.1	17.8	0.00e+00	0	40	0	66060288	60	6488
2026-01-19 00:05:39.71	152.35	6.23	-43.3	-45.3	17.6	0.00e+00	0	40	0	68157440	60	6656
2026-01-19 00:05:40.72	152.35	6.31	-43.4	-45.3	17.6	0.00e+00	0	41	0	70254592	60	6690
2026-01-19 00:05:41.73	152.35	6.38	-43.2	-45.1	17.8	0.00e+00	0	41	0	72351744	60	6536
2026-01-19 00:05:42.74	152.35	6.46	-43.3	-45.2	17.7	0.00e+00	0	40	0	73400320	60	6564
2026-01-19 00:05:43.75	152.34	6.54	-43.3	-45.2	17.7	0.00e+00	0	40	0	75497472	60	6599
2026-01-19 00:05:44.76	152.34	6.61	-42.9	-44.7	18.2	0.00e+00	0	40	0	77594624	60	6242
2026-01-19 00:05:45.77	152.34	6.69	-43.1	-45.0	17.9	0.00e+00	0	40	0	79691776	60	6402
2026-01-19 00:05:46.78	152.33	6.77	-43.0	-44.8	18.2	0.00e+00	0	40	0	81788928	60	6290
2026-01-19 00:05:47.79	152.33	6.85	-43.1	-45.0	18.0	0.00e+00	0	40	0	82837504	60	6395
2026-01-19 00:05:48.80	152.33	6.92	-43.1	-44.9	18.1	0.00e+00	0	40	0	84934656	60	6332
2026-01-19 00:05:49.81	152.33	7.00	-43.1	-44.9	18.1	0.00e+00	0	40	0	87031808	60	6364
2026-01-19 00:05:50.82	152.32	7.08	-43.0	-44.7	18.4	0.00e+00	0	40	0	89128960	60	6235
2026-01-19 00:05:51.83	152.32	7.16	-42.8	-44.5	18.5	0.00e+00	0	40	0	91226112	60	6073
2026-01-19 00:05:52.84	152.32	7.24	-42.9	-44.6	18.3	0.00e+00	0	40	0	92274688	60	6165
2026-01-19 00:05:53.85	152.31	7.32	-43.1	-44.8	18.2	0.00e+00	0	41	0	94371840	60	6311
2026-01-19 00:05:54.86	152.31	7.40	-42.9	-44.6	18.4	0.00e+00	0	40	0	96468992	60	6168
2026-01-19 00:05:55.87	152.31	7.48	-42.7	-44.4	18.7	0.00e+00	0	41	0	98566144	60	5989
2026-01-19 00:05:56.88	152.30	7.56	-42.5	-44.1	18.8	0.00e+00	0	41	0	100663296	58	6521
2026-01-19 00:05:57.89	152.30	7.64	-42.6	-44.2	18.8	0.00e+00	0	41	0	101711872	58	6591
2026-01-19 00:05:58.90	152.30	7.72	-42.6	-44.2	18.7	0.00e+00	0	41	0	103809024	58	6605
2026-01-19 00:05:59.91	152.29	7.80	-42.5	-44.0	19.0	0.00e+00	0	40	0	105906176	58	6452
2026-01-19 00:06:00.92	152.29	7.88	-42.6	-44.2	18.8	0.00e+00	0	41	0	108003328	58	6587
2026-01-19 00:06:01.93	152.29	7.96	-42.5	-44.0	19.0	0.00e+00	0	41	0	110100480	58	6445
2026-01-19 00:06:02.94	152.28	8.04	-42.5	-44.1	19.0	0.00e+00	0	41	0	111149056	58	6471
2026-01-19 00:06:03.95	152.28	8.12	-42.3	-43.9	19.1	0.00e+00	0	41	0	113246208	58	6346
2026-01-19 00:06:04.96	152.28	8.20	-42.4	-43.9	19.1	0.00e+00	0	41	0	115343360	58	6381
2026-01-19 00:06:05.97	152.27	8.29	-42.5	-44.1	19.0	0.00e+00	0	41	0	117440512	58	6473
2026-01-19 00:06:06.98	152.27	8.37	-42.5	-44.0	19.1	0.00e+00	0	41	0	119537664	58	6448
2026-01-19 00:06:07.99	152.26	8.45	-42.5	-44.1	19.0	0.00e+00	0	41	0	121634816	58	6515
2026-01-19 00:06:09.00	152.26	8.53	-42.3	-43.8	19.3	0.00e+00	0	41	0	122683392	58	6298
2026-01-19 00:06:10.01	152.26	8.62	-42.3	-43.8	19.3	0.00e+00	0	41	0	124780544	58	6262
2026-01-19 00:06:11.02	152.25	8.70	-42.3	-43.8	19.3	0.00e+00	0	41	0	126877696	58	6267
2026-01-19 00:06:12.03	152.25	8.78	-42.4	-43.9	19.3	0.00e+00	0	41	0	128974848	58	6356
2026-01-19 00:06:13.04	152.25	8.87	-42.2	-43.7	19.4	0.00e+00	0	41	0	131072000	58	6242
2026-01-19 00:06:14.05	152.24	8.95	-42.3	-43.8	19.3	0.00e+00	0	41	0	132120576	58	6289
2026-01-19 00:06:15.06	152.24	9.04	-42.2	-43.7	19.4	0.00e+00	0	41	0	134217728	58	6226
2026-01-19 00:06:16.07	152.23	9.12	-42.1	-43.6	19.6	0.00e+00	0	41	0	136314880	58	6130
2026-01-19 00:06:17.08	152.23	9.21	-42.1	-43.6	19.6	0.00e+00	0	41	0	138412032	58	6104
2026-01-19 00:06:18.09	152.23	9.29	-42.2	-43.7	19.4	0.00e+00	0	41	0	140509184	58	6206
2026-01-19 00:06:19.10	152.22	9.38	-42.1	-43.6	19.4	0.00e+00	0	41	0	141557760	58	6144
2026-01-19 00:06:20.11	152.22	9.47	-42.1	-43.5	19.6	0.00e+00	0	41	0	143654912	58	6097
2026-01-19 00:06:21.12	152.21	9.55	-42.1	-43.7	19.5	0.00e+00	0	41	0	145752064	58	6174
2026-01-19 00:06:22.13	152.21	9.64	-42.0	-43.4	19.7	0.00e+00	0	41	0	147849216	58	6021
2026-01-19 00:06:23.14	152.20	9.73	-41.9	-43.4	19.8	0.00e+00	0	41	0	149946368	58	5965
2026-01-19 00:06:24.15	152.20	9.81	-42.0	-43.5	19.7	0.00e+00	0	41	0	150994944	58	6059
2026-01-19 00:06:25.16	152.20	9.90	-42.1	-43.6	19.6	0.00e+00	0	41	0	153092096	58	6116
2026-01-19 00:06:26.17	152.19	9.99	-42.1	-43.5	19.6	0.00e+00	0	41	0	155189248	58	6091
2026-01-19 00:06:27.18	152.19	10.08	-42.2	-43.6	19.6	0.00e+00	0	41	0	157286400	58	6139
2026-01-19 00:06:28.19	152.18	10.17	-41.9	-43.3	20.0	0.00e+00	0	41	0	159383552	58	5904
2026-01-19 00:06:29.20	152.18	10.25	-42.0	-43.4	19.9	0.00e+00	0	41	0	161480704	58	5980
2026-01-19 00:06:30.21	152.17	10.34	-41.8	-43.2	20.1	0.00e+00	0	41	0	162529280	56	6570
2026-01-19 00:06:31.22	152.17	10.43	-41.9	-43.2	20.1	0.00e+00	0	41	0	164626432	56	6595
2026-01-19 00:06:32.23	152.16	10.52	-41.9	-43.3	20.1	0.00e+00	0	41	0	166723584	56	6621
2026-01-19 00:06:33.24	152.16	10.61	-42.0	-43.4	19.9	0.00e+00	0	41	0	168820736	56	6711
2026-01-19 00:06:34.25	152.15	10.70	-41.7	-43.0	20.2	0.00e+00	0	41	0	170917888	56	6459
2026-01-19 00:06:35.26	152.15	10.79	-41.9	-43.3	20.0	0.00e+00	0	41	0	171966464	56	6650
2026-01-19 00:06:36.27	152.14	10.89	-41.8	-43.2	20.1	0.00e+00	0	41	0	174063616	56	6576
2026-01-19 00:06:37.28	152.14	10.98	-41.8	-43.1	20.2	0.00e+00	0	41	0	176160768	56	6517
2026-01-19 00:06:38.29	152.13	11.07	-41.8	-43.2	20.2	0.00e+00	0	41	0	178257920	56	6545
2026-01-19 00:06:39.30	152.13	11.16	-41.9	-43.3	20.1	0.00e+00	0	41	0	180355072	56	6618
2026-01-19 00:06:40.31	152.12	11.25	-41.7	-43.0	20.3	0.00e+00	0	41	0	181403648	56	6416
2026-01-19 00:06:41.32	152.12	11.35	-41.8	-43.1	20.2	0.00e+00	0	41	0	183500800	56	6519
2026-01-19 00:06:42.33	152.11	11.44	-41.9	-43.2	20.1	0.00e+00	0	41	0	185597952	56	6596
2026-01-19 00:06:43.34	152.11	11.53	-41.7	-43.1	20.2	0.00e+00	0	41	0	187695104	56	6467
2026-01-19 00:06:44.35	152.10	11.63	-41.6	-42.9	20.4	0.00e+00	0	41	0	189792256	56	6382
2026-01-19 00:06:45.36	152.10	11.72	-41.5	-42.8	20.6	0.00e+00	0	41	0	190840832	56	6254
2026-01-19 00:06:46.37	152.09	11.82	-41.5	-42.8	20.6	0.00e+00	0	41	0	192937984	56	6254
2026-01-19 00:06:47.38	152.09	11.91	-41.5	-42.7	20.7	0.00e+00	0	41	0	195035136	56	6220
2026-01-19 00:06:48.39	152.08	12.01	-41.4	-42.7	20.7	0.00e+00	0	41	0	197132288	56	6210
2026-01-19 00:06:49.40	152.08	12.10	-41.3	-42.6	20.8	0.00e+00	0	41	0	199229440	56	6124
2026-01-19 00:06:50.41	152.07	12.20	-41.2	-42.5	20.9	0.00e+00	0	41	0	200278016	56	6040
2026-01-19 00:06:51.42	152.06	12.30	-41.3	-42.5	20.8	0.00e+00	0	41	0	202375168	56	6096
2026-01-19 00:06:52.43	152.06	12.39	-41.3	-42.5	20.9	0.00e+00	0	41	0	204472320	56	6055
2026-01-19 00:06:53.44	152.05	12.49	-41.4	-42.7	20.8	0.00e+00	0	41	0	206569472	56	6182
2026-01-19 00:06:54.45	152.05	12.59	-41.4	-42.7	20.8	0.00e+00	0	41	0	208666624	56	6178
2026-01-19 00:06:55.46	152.04	12.69	-41.4	-42.6	20.8	0.00e+00	0	41	0	209715200	56	6163
2026-01-19 00:06:56.47	152.03	12.78	-41.4	-42.6	20.9	0.00e+00	0	41	0	211812352	56	6130
2026-01-19 00:06:57.48	152.03	12.88	-41.1	-42.3	21.1	0.00e+00	0	41	0	213909504	56	5942
2026-01-19 00:06:58.49	152.02	12.98	-41.2	-42.4	21.0	0.00e+00	0	41	0	216006656	56	5984
2026-01-19 00:06:59.50	152.02	13.08	-41.1	-42.3	21.2	0.00e+00	0	41	0	218103808	56	5964
2026-01-19 00:07:00.51	152.01	13.18	-41.0	-42.2	21.2	0.00e+00	0	41	0	219152384	56	5841
2026-01-19 00:07:01.52	152.00	13.28	-40.8	-42.0	21.4	0.00e+00	0	41	0	221249536	56	5726
2026-01-19 00:07:02.53	152.00	13.38	-40.9	-42.1	21.4	0.00e+00	0	41	0	223346688	56	5770
2026-01-19 00:07:03.54	151.99	13.49	-40.9	-42.1	21.4	0.00e+00	0	41	0	225443840	56	5771
2026-01-19 00:07:04.55	151.98	13.59	-40.9	-42.0	21.4	0.00e+00	0	41	0	227540992	56	5757
2026-01-19 00:07:05.56	151.98	13.69	-40.8	-41.9	21.5	0.00e+00	0	41	0	229638144	56	5687
2026-01-19 00:07:06.57	151.97	13.79	-40.7	-41.8	21.5	0.00e+00	0	41	0	230686720	54	6274
2026-01-19 00:07:07.58	151.96	13.90	-40.7	-41.8	21.5	0.00e+00	0	41	0	232783872	54	6283
2026-01-19 00:07:08.59	151.96	14.00	-40.7	-41.8	21.5	0.00e+00	0	41	0	234881024	54	6313
2026-01-19 00:07:09.60	151.95	14.10	-40.7	-41.9	21.4	0.00e+00	0	41	0	236978176	54	6328
2026-01-19 00:07:10.61	151.94	14.21	-40.6	-41.8	21.7	0.00e+00	0	41	0	239075328	54	6271
2026-01-19 00:07:11.62	151.94	14.31	-40.7	-41.8	21.6	0.00e+00	0	41	0	240123904	54	6314
2026-01-19 00:07:12.63	151.93	14.42	-40.6	-41.7	21.7	0.00e+00	0	41	0	242221056	54	6236
2026-01-19 00:07:13.64	151.92	14.52	-40.5	-41.6	21.7	0.00e+00	0	41	0	244318208	54	6158
2026-01-19 00:07:14.65	151.91	14.63	-40.6	-41.7	21.6	0.00e+00	0	41	0	246415360	54	6227
2026-01-19 00:07:15.66	151.91	14.74	-40.7	-41.8	21.5	0.00e+00	0	41	0	248512512	54	6275
2026-01-19 00:07:16.67	151.90	14.84	-40.5	-41.7	21.7	0.00e+00	0	41	0	249561088	54	6177
2026-01-19 00:07:17.69	151.89	14.95	-40.6	-41.7	21.7	0.00e+00	0	41	0	251658240	54	6195
2026-01-19 00:07:18.70	151.88	15.06	-40.7	-41.9	21.4	0.00e+00	0	41	0	253755392	54	6318
2026-01-19 00:07:19.71	151.88	15.17	-40.6	-41.7	21.7	0.00e+00	0	41	0	255852544	54	6185
2026-01-19 00:07:20.72	151.87	15.28	-40.4	-41.5	21.9	0.00e+00	0	41	0	257949696	54	6049
2026-01-19 00:07:21.73	151.86	15.39	-40.3	-41.4	21.9	0.00e+00	0	41	0	258998272	54	6018
2026-01-19 00:07:22.74	151.85	15.50	-40.3	-41.4	22.0	0.00e+00	0	41	0	261095424	54	6020
2026-01-19 00:07:23.75	151.85	15.61	-40.3	-41.4	22.0	0.00e+00	0	41	0	263192576	54	5973
2026-01-19 00:07:24.76	151.84	15.72	-40.3	-41.3	22.0	0.00e+00	0	41	0	265289728	54	5951
2026-01-19 00:07:25.77	151.83	15.83	-40.2	-41.3	22.0	0.00e+00	0	41	0	267386880	54	5937
2026-01-19 00:07:26.78	151.82	15.94	-40.3	-41.3	22.0	0.00e+00	0	41	0	268435456	54	5936
2026-01-19 00:07:27.79	151.81	16.06	-40.2	-41.2	22.1	0.00e+00	0	41	0	270532608	54	5891
2026-01-19 00:07:28.80	151.80	16.17	-40.0	-41.1	22.3	0.00e+00	0	41	0	272629760	54	5777
2026-01-19 00:07:29.81	151.80	16.28	-40.1	-41.2	22.2	0.00e+00	0	41	0	274726912	54	5844
2026-01-19 00:07:30.82	151.79	16.40	-40.1	-41.1	22.2	0.00e+00	0	41	0	276824064	54	5801
2026-01-19 00:07:31.83	151.78	16.51	-40.1	-41.1	22.2	0.00e+00	0	41	0	277872640	54	5803
2026-01-19 00:07:32.84	151.77	16.63	-40.0	-41.0	22.3	0.00e+00	0	41	0	279969792	54	5744
2026-01-19 00:07:33.85	151.76	16.74	-40.0	-41.0	22.4	0.00e+00	0	41	0	282066944	54	5735
2026-01-19 00:07:34.86	151.75	16.86	-40.0	-41.0	22.4	0.00e+00	0	41	0	284164096	54	5727
2026-01-19 00:07:35.87	151.74	16.98	-39.8	-40.8	22.6	0.00e+00	0	41	0	286261248	54	5622
2026-01-19 00:07:36.88	151.73	17.09	-39.8	-40.8	22.6	0.00e+00	0	41	0	287309824	54	5596
2026-01-19 00:07:37.89	151.72	17.21	-39.8	-40.8	22.6	0.00e+00	0	41	0	289406976	52	6283
2026-01-19 00:07:38.90	151.71	17.33	-39.9	-40.9	22.6	0.00e+00	0	41	0	291504128	52	6345
2026-01-19 00:07:39.91	151.71	17.45	-39.8	-40.8	22.6	0.00e+00	0	41	0	293601280	52	6282
2026-01-19 00:07:40.92	151.70	17.57	-39.8	-40.8	22.6	0.00e+00	0	41	0	295698432	52	6268
2026-01-19 00:07:41.93	151.69	17.69	-39.7	-40.7	22.6	0.00e+00	0	41	0	297795584	52	6218
2026-01-19 00:07:42.94	151.68	17.81	-39.8	-40.8	22.7	0.00e+00	0	41	0	298844160	52	6275
2026-01-19 00:07:43.95	151.67	17.93	-39.8	-40.8	22.6	0.00e+00	0	41	0	300941312	52	6316
2026-01-19 00:07:44.95	151.66	18.05	-39.7	-40.7	22.7	0.00e+00	0	41	0	303038464	52	6186
2026-01-19 00:07:45.97	151.65	18.18	-39.6	-40.6	22.8	0.00e+00	0	41	0	305135616	52	6164
2026-01-19 00:07:46.97	151.64	18.30	-39.7	-40.7	22.8	0.00e+00	0	41	0	307232768	52	6185
2026-01-19 00:07:47.99	151.63	18.43	-39.5	-40.5	23.0	0.00e+00	0	41	0	308281344	52	6034
2026-01-19 00:07:49.00	151.62	18.55	-39.4	-40.4	23.0	0.00e+00	0	41	0	310378496	52	6003
2026-01-19 00:07:50.01	151.61	18.68	-39.4	-40.3	23.2	0.00e+00	0	41	0	312475648	52	5930
2026-01-19 00:07:51.02	151.59	18.80	-39.5	-40.4	23.0	0.00e+00	0	41	0	314572800	52	6005
2026-01-19 00:07:52.03	151.58	18.93	-39.4	-40.4	23.1	0.00e+00	0	41	0	316669952	52	5965
2026-01-19 00:07:53.04	151.57	19.06	-39.4	-40.3	23.1	0.00e+00	0	41	0	317718528	52	5944
2026-01-19 00:07:54.05	151.56	19.18	-39.3	-40.2	23.3	0.00e+00	0	41	0	319815680	52	5868
2026-01-19 00:07:55.06	151.55	19.31	-39.3	-40.2	23.2	0.00e+00	0	41	0	321912832	52	5890
2026-01-19 00:07:56.07	151.54	19.44	-39.5	-40.4	23.0	0.00e+00	0	41	0	324009984	52	6004
2026-01-19 00:07:57.08	151.53	19.57	-39.3	-40.3	23.2	0.00e+00	0	41	0	326107136	52	5897
2026-01-19 00:07:58.09	151.52	19.70	-39.5	-40.4	23.0	0.00e+00	0	41	0	327155712	52	6014
2026-01-19 00:07:59.10	151.51	19.83	-39.3	-40.3	23.2	0.00e+00	0	41	0	329252864	52	5920
2026-01-19 00:08:00.11	151.49	19.97	-39.3	-40.2	23.2	0.00e+00	0	41	0	331350016	52	5870
2026-01-19 00:08:01.12	151.48	20.10	-39.2	-40.1	23.3	0.00e+00	0	41	0	333447168	52	5801
2026-01-19 00:08:02.13	151.47	20.23	-39.3	-40.3	23.2	0.00e+00	0	41	0	335544320	52	5904
2026-01-19 00:08:03.14	151.46	20.37	-39.2	-40.1	23.4	0.00e+00	0	41	0	336592896	52	5814
2026-01-19 00:08:04.15	151.45	20.50	-39.2	-40.1	23.4	0.00e+00	0	41	0	338690048	52	5825
2026-01-19 00:08:05.16	151.43	20.64	-39.3	-40.2	23.2	0.00e+00	0	41	0	340787200	52	5888
2026-01-19 00:08:06.17	151.42	20.77	-39.3	-40.2	23.3	0.00e+00	0	41	0	342884352	52	5866
2026-01-19 00:08:07.18	151.41	20.91	-39.3	-40.2	23.2	0.00e+00	0	41	0	344981504	52	5879
2026-01-19 00:08:08.19	151.39	21.05	-39.4	-40.3	23.2	0.00e+00	0	41	0	346030080	52	5952
2026-01-19 00:08:09.20	151.38	21.19	-39.3	-40.2	23.3	0.00e+00	0	41	0	348127232	52	5860
2026-01-19 00:08:10.20	151.37	21.32	-39.3	-40.3	23.3	0.00e+00	0	41	0	350224384	52	5900
2026-01-19 00:08:11.21	151.36	21.46	-39.4	-40.3	23.3	0.00e+00	0	41	0	352321536	52	5952
2026-01-19 00:08:12.22	151.34	21.60	-39.2	-40.1	23.4	0.00e+00	0	41	0	354418688	52	5827
2026-01-19 00:08:13.23	151.33	21.75	-39.2	-40.1	23.4	0.00e+00	0	41	0	355467264	52	5810
2026-01-19 00:08:14.24	151.31	21.89	-39.2	-40.1	23.4	0.00e+00	0	41	0	357564416	52	5795
2026-01-19 00:08:15.25	151.30	22.03	-39.3	-40.2	23.3	0.00e+00	0	41	0	359661568	52	5860
2026-01-19 00:08:16.26	151.29	22.18	-39.2	-40.1	23.4	0.00e+00	0	41	0	361758720	52	5814
2026-01-19 00:08:17.27	151.27	22.32	-39.2	-40.1	23.4	0.00e+00	0	41	0	363855872	52	5808
2026-01-19 00:08:18.28	151.26	22.47	-39.2	-40.1	23.4	0.00e+00	0	41	0	365953024	52	5785
2026-01-19 00:08:19.29	151.24	22.61	-39.2	-40.1	23.4	0.00e+00	0	41	0	367001600	52	5818
2026-01-19 00:08:20.30	151.23	22.76	-39.1	-40.0	23.5	0.00e+00	0	41	0	369098752	52	5738
2026-01-19 00:08:21.31	151.21	22.91	-39.0	-39.9	23.6	0.00e+00	0	41	0	371195904	52	5691
2026-01-19 00:08:22.32	151.20	23.06	-39.0	-40.0	23.6	0.00e+00	0	41	0	373293056	52	5697
2026-01-19 00:08:23.33	151.18	23.21	-38.9	-39.8	23.6	0.00e+00	0	41	0	375390208	52	5629
2026-01-19 00:08:24.34	151.17	23.36	-39.0	-40.0	23.6	0.00e+00	0	41	0	376438784	52	5701
2026-01-19 00:08:25.35	151.15	23.51	-39.1	-40.1	23.5	0.00e+00	0	41	0	378535936	52	5780
2026-01-19 00:08:26.36	151.14	23.66	-39.0	-40.0	23.6	0.00e+00	0	41	0	380633088	52	5700
2026-01-19 00:08:27.37	151.12	23.82	-38.9	-39.8	23.7	0.00e+00	0	41	0	382730240	52	5591
2026-01-19 00:08:28.38	151.10	23.97	-39.0	-39.9	23.6	0.00e+00	0	41	0	384827392	52	5658
2026-01-19 00:08:29.39	151.09	24.12	-39.0	-39.9	23.7	0.00e+00	0	41	0	385875968	52	5655
2026-01-19 00:08:30.40	151.07	24.28	-38.9	-39.8	23.7	0.00e+00	0	41	0	387973120	52	5587
2026-01-19 00:08:31.41	151.06	24.44	-39.0	-39.9	23.5	0.00e+00	0	41	0	390070272	52	5689
2026-01-19 00:08:32.42	151.04	24.60	-39.0	-39.9	23.6	0.00e+00	0	41	0	392167424	52	5656
2026-01-19 00:08:33.43	151.02	24.76	-39.0	-39.9	23.6	0.00e+00	0	41	0	394264576	52	5670
2026-01-19 00:08:34.44	151.00	24.92	-39.0	-39.9	23.6	0.00e+00	0	41	0	395313152	52	5688
2026-01-19 00:08:35.45	150.99	25.08	-39.1	-40.0	23.5	0.00e+00	0	41	0	397410304	52	5726
2026-01-19 00:08:36.46	150.97	25.24	-39.2	-40.1	23.5	0.00e+00	0	41	0	399507456	52	5787
2026-01-19 00:08:37.47	150.95	25.40	-39.0	-39.9	23.6	0.00e+00	0	41	0	401604608	52	5675
2026-01-19 00:08:38.48	150.93	25.57	-39.1	-40.0	23.5	0.00e+00	0	41	0	403701760	52	5711
2026-01-19 00:08:39.49	150.91	25.73	-39.1	-40.0	23.5	0.00e+00	0	41	0	404750336	52	5748
2026-01-19 00:08:40.50	150.90	25.90	-39.3	-40.2	23.4	0.00e+00	0	41	0	406847488	52	5861
2026-01-19 00:08:41.51	150.88	26.06	-39.2	-40.2	23.5	0.00e+00	0	41	0	408944640	52	5836
2026-01-19 00:08:42.52	150.86	26.23	-39.4	-40.3	23.2	0.00e+00	0	41	0	411041792	52	5925
2026-01-19 00:08:43.53	150.84	26.40	-39.4	-40.4	23.2	0.00e+00	0	41	0	413138944	52	5982
2026-01-19 00:08:44.54	150.82	26.57	-39.6	-40.6	23.1	0.00e+00	0	41	0	414187520	52	6137
2026-01-19 00:08:45.55	150.80	26.74	-39.6	-40.5	23.2	0.00e+00	0	41	0	416284672	52	6075
2026-01-19 00:08:46.56	150.78	26.91	-39.8	-40.8	22.8	0.00e+00	0	41	0	418381824	52	6275
2026-01-19 00:08:47.56	150.76	27.09	-39.6	-40.6	23.1	0.00e+00	0	41	0	420478976	52	6105
2026-01-19 00:08:48.58	150.74	27.26	-39.8	-40.8	22.9	0.00e+00	0	41	0	422576128	52	6281
2026-01-19 00:08:49.59	150.72	27.44	-39.8	-40.8	22.9	0.00e+00	0	41	0	423624704	52	6263
2026-01-19 00:08:50.60	150.70	27.61	-40.0	-41.0	22.7	0.00e+00	0	41	0	425721856	52	6401
2026-01-19 00:08:51.60	150.67	27.79	-40.1	-41.1	22.6	0.00e+00	0	41	0	427819008	52	6528
2026-01-19 00:08:52.61	150.65	27.97	-40.2	-41.2	22.5	0.00e+00	0	41	0	429916160	52	6572
2026-01-19 00:08:53.62	150.63	28.15	-40.3	-41.3	22.3	0.00e+00	0	41	0	432013312	52	6691
2026-01-19 00:08:54.63	150.61	28.33	-40.5	-41.5	22.2	0.00e+00	0	41	0	434110464	52	6813
2026-01-19 00:08:55.64	150.59	28.51	-40.5	-41.6	22.0	0.00e+00	0	41	0	435159040	52	6888
2026-01-19 00:08:56.65	150.56	28.70	-40.7	-41.8	22.1	0.00e+00	0	41	0	437256192	52	7023
2026-01-19 00:08:57.66	150.54	28.88	-40.8	-41.9	21.8	0.00e+00	0	41	0	439353344	54	6346
2026-01-19 00:08:58.68	150.52	29.07	-40.8	-41.9	21.9	0.00e+00	0	41	0	441450496	54	6318
2026-01-19 00:08:59.68	150.49	29.26	-40.9	-42.0	21.8	0.00e+00	0	41	0	443547648	54	6449
2026-01-19 00:09:00.70	150.47	29.45	-41.0	-42.1	21.7	0.00e+00	0	41	0	444596224	54	6507
2026-01-19 00:09:01.70	150.44	29.63	-41.1	-42.3	21.6	0.00e+00	0	41	0	446693376	54	6624
2026-01-19 00:09:02.71	150.42	29.83	-41.0	-42.1	21.7	0.00e+00	0	41	0	448790528	54	6492
2026-01-19 00:09:03.72	150.39	30.02	-41.1	-42.2	21.6	0.00e+00	0	41	0	450887680	54	6608
2026-01-19 00:09:04.73	150.37	30.21	-41.1	-42.2	21.6	0.00e+00	0	41	0	452984832	54	6563
2026-01-19 00:09:05.74	150.34	30.41	-41.3	-42.4	21.4	0.00e+00	0	41	0	454033408	54	6753
2026-01-19 00:09:06.75	150.32	30.60	-41.5	-42.6	21.3	0.00e+00	0	41	0	456130560	54	6912
2026-01-19 00:09:07.76	150.29	30.80	-41.6	-42.8	21.1	0.00e+00	0	41	0	458227712	54	7067
2026-01-19 00:09:08.77	150.26	31.00	-42.0	-43.2	20.8	0.00e+00	0	41	0	460324864	56	6602
2026-01-19 00:09:09.78	150.24	31.20	-42.2	-43.4	20.6	0.00e+00	0	41	0	462422016	56	6749
2026-01-19 00:09:10.79	150.21	31.40	-42.3	-43.5	20.5	0.00e+00	0	41	0	463470592	56	6846
2026-01-19 00:09:11.80	150.18	31.61	-42.4	-43.7	20.4	0.00e+00	0	41	0	465567744	56	6931
2026-01-19 00:09:12.81	150.15	31.81	-42.4	-43.7	20.2	0.00e+00	0	41	0	467664896	56	6981
2026-01-19 00:09:13.82	150.12	32.02	-42.5	-43.9	20.2	0.00e+00	0	41	0	469762048	56	7098
2026-01-19 00:09:14.83	150.09	32.22	-42.4	-43.8	20.3	0.00e+00	0	41	0	471859200	56	7022
2026-01-19 00:09:15.84	150.06	32.43	-42.5	-43.8	20.2	0.00e+00	0	41	0	472907776	56	7068
2026-01-19 00:09:16.85	150.03	32.64	-42.5	-43.8	20.2	0.00e+00	0	41	0	475004928	56	7070
2026-01-19 00:09:17.86	150.00	32.85	-42.3	-43.7	20.4	0.00e+00	0	41	0	477102080	56	6933
2026-01-19 00:09:18.87	149.97	33.07	-42.4	-43.7	20.4	0.00e+00	0	41	0	479199232	56	6977
2026-01-19 00:09:19.88	149.94	33.28	-42.2	-43.5	20.5	0.00e+00	0	41	0	481296384	56	6833
2026-01-19 00:09:20.89	149.91	33.50	-41.9	-43.2	20.8	0.00e+00	0	41	0	482344960	56	6565
2026-01-19 00:09:21.90	149.88	33.72	-41.6	-42.8	21.1	0.00e+00	0	41	0	484442112	56	6309
2026-01-19 00:09:22.91	149.84	33.94	-41.4	-42.6	21.4	0.00e+00	0	41	0	486539264	56	6132
2026-01-19 00:09:23.92	149.81	34.16	-41.3	-42.4	21.6	0.00e+00	0	41	0	488636416	56	6011
2026-01-19 00:09:24.93	149.78	34.38	-41.1	-42.2	21.8	0.00e+00	0	41	0	490733568	56	5848
2026-01-19 00:09:25.94	149.74	34.60	-40.8	-41.8	22.1	0.00e+00	0	41	0	491782144	56	5623
2026-01-19 00:09:26.94	149.71	34.83	-40.8	-41.9	22.1	0.00e+00	0	41	0	493879296	56	5639
2026-01-19 00:09:27.95	149.67	35.05	-40.5	-41.5	22.4	0.00e+00	0	41	0	495976448	54	6065
2026-01-19 00:09:28.96	149.64	35.28	-40.5	-41.5	22.3	0.00e+00	0	41	0	498073600	54	6099
2026-01-19 00:09:29.97	149.60	35.51	-39.8	-40.7	23.1	0.00e+00	0	41	0	500170752	54	5538
2026-01-19 00:09:30.98	149.56	35.75	-39.5	-40.4	23.4	0.00e+00	0	41	0	502267904	52	5984
2026-01-19 00:09:31.99	149.52	35.98	-39.3	-40.2	23.6	0.00e+00	0	41	0	503316480	52	5840
2026-01-19 00:09:32.99	149.49	36.21	-39.2	-40.1	23.6	0.00e+00	0	41	0	505413632	52	5765
2026-01-19 00:09:34.01	149.45	36.45	-38.8	-39.7	23.9	0.00e+00	0	41	0	507510784	52	5528
2026-01-19 00:09:35.02	149.41	36.69	-38.8	-39.7	24.0	0.00e+00	0	41	0	509607936	52	5519
2026-01-19 00:09:36.03	149.37	36.93	-38.9	-39.7	24.0	0.00e+00	0	41	0	511705088	52	5564
2026-01-19 00:09:37.04	149.33	37.18	-38.8	-39.7	23.7	0.00e+00	0	41	0	512753664	50	6188
2026-01-19 00:09:38.05	149.29	37.42	-38.5	-39.4	24.3	0.00e+00	0	41	0	514850816	50	5976
2026-01-19 00:09:39.05	149.24	37.66	-38.7	-39.5	24.1	0.00e+00	0	41	0	516947968	50	6087
2026-01-19 00:09:40.06	149.20	37.91	-38.6	-39.4	24.2	0.00e+00	0	41	0	519045120	50	6016
2026-01-19 00:09:41.07	149.16	38.16	-38.6	-39.4	24.1	0.00e+00	0	41	0	521142272	50	6029
2026-01-19 00:09:42.08	149.11	38.41	-38.8	-39.6	24.0	0.00e+00	0	41	0	522190848	50	6169
2026-01-19 00:09:43.09	149.07	38.67	-38.7	-39.6	24.1	0.00e+00	0	41	0	524288000	50	6114
2026-01-19 00:09:44.10	149.02	38.92	-38.8	-39.6	24.1	0.00e+00	0	41	0	526385152	50	6167
2026-01-19 00:09:45.11	148.98	39.18	-39.0	-39.8	23.8	0.00e+00	0	41	0	528482304	50	6303
2026-01-19 00:09:46.12	148.93	39.44	-39.1	-39.9	23.8	0.00e+00	0	41	0	530579456	50	6384
2026-01-19 00:09:47.13	148.88	39.70	-39.3	-40.3	23.4	0.00e+00	0	41	0	531628032	50	6635
2026-01-19 00:09:48.14	148.83	39.96	-39.5	-40.5	23.3	0.00e+00	0	41	0	533725184	50	6775
2026-01-19 00:09:49.15	148.78	40.23	-39.6	-40.5	23.2	0.00e+00	0	41	0	535822336	50	6838
2026-01-19 00:09:50.16	148.73	40.49	-40.0	-40.9	23.0	0.00e+00	0	41	0	537919488	52	6368
2026-01-19 00:09:51.17	148.68	40.76	-40.0	-40.9	22.9	0.00e+00	0	41	0	540016640	52	6386
2026-01-19 00:09:52.18	148.63	41.03	-40.1	-41.1	22.8	0.00e+00	0	41	0	541065216	52	6503
2026-01-19 00:09:53.19	148.57	41.31	-40.2	-41.2	22.7	0.00e+00	0	41	0	543162368	52	6576
2026-01-19 00:09:54.20	148.52	41.58	-40.4	-41.4	22.5	0.00e+00	0	41	0	545259520	52	6760
2026-01-19 00:09:55.21	148.46	41.86	-40.5	-41.5	22.4	0.00e+00	0	41	0	547356672	52	6823
2026-01-19 00:09:56.22	148.41	42.14	-40.7	-41.8	22.1	0.00e+00	0	41	0	549453824	54	6283
2026-01-19 00:09:57.23	148.35	42.42	-40.6	-41.7	22.2	0.00e+00	0	41	0	550502400	54	6197
2026-01-19 00:09:58.24	148.29	42.70	-40.6	-41.7	22.3	0.00e+00	0	41	0	552599552	54	6177
2026-01-19 00:09:59.25	148.23	42.99	-40.4	-41.4	22.4	0.00e+00	0	41	0	554696704	54	5999
2026-01-19 00:10:00.26	148.17	43.27	-40.4	-41.4	22.5	0.00e+00	0	41	0	556793856	54	5999
2026-01-19 00:10:01.27	148.11	43.56	-40.4	-41.5	22.4	0.00e+00	0	41	0	558891008	54	6043
2026-01-19 00:10:02.28	148.04	43.86	-40.7	-41.7	22.2	0.00e+00	0	41	0	559939584	54	6217
2026-01-19 00:10:03.29	147.98	44.15	-40.6	-41.7	22.2	0.00e+00	0	41	0	562036736	54	6195
2026-01-19 00:10:04.30	147.91	44.45	-41.0	-42.1	21.9	0.00e+00	0	41	0	564133888	54	6506
2026-01-19 00:10:05.31	147.85	44.74	-40.8	-41.9	22.0	0.00e+00	0	41	0	566231040	54	6327
2026-01-19 00:10:06.32	147.78	45.04	-40.8	-41.9	21.9	0.00e+00	0	41	0	568328192	54	6358
2026-01-19 00:10:07.33	147.71	45.35	-41.3	-42.4	21.6	0.00e+00	0	41	0	570425344	54	6747
2026-01-19 00:10:08.34	147.64	45.65	-41.5	-42.7	21.2	0.00e+00	0	41	0	571473920	54	6958
2026-01-19 00:10:09.35	147.57	45.96	-42.0	-43.3	20.7	0.00e+00	0	41	0	573571072	56	6624
2026-01-19 00:10:10.36	147.49	46.27	-42.2	-43.4	20.6	0.00e+00	0	41	0	575668224	56	6760
2026-01-19 00:10:11.37	147.42	46.58	-42.4	-43.7	20.5	0.00e+00	0	41	0	577765376	56	6976
2026-01-19 00:10:12.38	147.34	46.89	-42.5	-43.9	20.1	0.00e+00	0	41	0	579862528	56	7130
2026-01-19 00:10:13.39	147.26	47.21	-42.7	-44.2	19.8	0.00e+00	0	41	0	580911104	58	6546
2026-01-19 00:10:14.40	147.18	47.53	-42.8	-44.2	19.9	0.00e+00	0	41	0	583008256	58	6576
2026-01-19 00:10:15.41	147.10	47.85	-42.7	-44.0	20.1	0.00e+00	0	41	0	585105408	58	6462
2026-01-19 00:10:16.42	147.01	48.17	-42.6	-44.0	20.0	0.00e+00	0	41	0	587202560	58	6448
2026-01-19 00:10:17.43	146.93	48.50	-42.6	-44.0	20.1	0.00e+00	0	41	0	589299712	58	6424
2026-01-19 00:10:18.44	146.84	48.83	-42.4	-43.7	20.4	0.00e+00	0	41	0	590348288	58	6195
2026-01-19 00:10:19.45	146.75	49.16	-42.1	-43.4	20.7	0.00e+00	0	41	0	592445440	58	6012
2026-01-19 00:10:20.46	146.66	49.49	-41.6	-42.8	21.2	0.00e+00	0	41	0	594542592	56	6312
2026-01-19 00:10:21.47	146.56	49.83	-41.2	-42.4	21.7	0.00e+00	0	41	0	596639744	56	5977
2026-01-19 00:10:22.48	146.47	50.16	-40.5	-41.6	22.3	0.00e+00	0	41	0	598736896	54	6124
2026-01-19 00:10:23.49	146.37	50.50	-40.2	-41.2	22.6	0.00e+00	0	41	0	599785472	54	5878
2026-01-19 00:10:24.50	146.27	50.85	-39.7	-40.6	23.3	0.00e+00	0	41	0	601882624	52	6168
2026-01-19 00:10:25.51	146.16	51.19	-39.1	-40.0	23.8	0.00e+00	0	41	0	603979776	52	5728
2026-01-19 00:10:26.52	146.06	51.54	-38.2	-39.1	24.6	0.00e+00	0	40	0	606076928	50	5776
2026-01-19 00:10:27.53	145.95	51.89	-37.9	-38.7	24.8	0.00e+00	0	41	0	608174080	50	5562
2026-01-19 00:10:28.54	145.84	52.24	-37.8	-38.6	24.8	0.00e+00	0	41	0	609222656	50	5476
2026-01-19 00:10:29.55	145.73	52.59	-38.2	-39.0	24.5	0.00e+00	0	41	0	611319808	50	5724
2026-01-19 00:10:30.56	145.61	52.95	-38.2	-39.0	24.5	0.00e+00	0	41	0	613416960	50	5714
2026-01-19 00:10:31.57	145.49	53.31	-38.3	-39.1	24.4	0.00e+00	0	41	0	615514112	50	5807
2026-01-19 00:10:32.58	145.37	53.67	-38.2	-39.1	24.5	0.00e+00	0	41	0	617611264	50	5773
2026-01-19 00:10:33.59	145.24	54.04	-38.3	-39.2	24.5	0.00e+00	0	41	0	618659840	50	5838
2026-01-19 00:10:34.60	145.11	54.40	-38.4	-39.3	24.4	0.00e+00	0	41	0	620756992	50	5899
2026-01-19 00:10:35.61	144.98	54.77	-38.4	-39.3	24.4	0.00e+00	0	41	0	622854144	50	5900
2026-01-19 00:10:36.62	144.84	55.15	-39.0	-39.9	23.8	0.00e+00	0	41	0	624951296	50	6321
2026-01-19 00:10:37.63	144.70	55.52	-39.6	-40.6	23.3	0.00e+00	0	41	0	627048448	50	6863
2026-01-19 00:10:38.64	144.56	55.90	-40.0	-41.0	22.8	0.00e+00	0	41	0	628097024	52	6457
2026-01-19 00:10:39.65	144.41	56.28	-40.2	-41.2	22.6	0.00e+00	0	41	0	630194176	52	6568
2026-01-19 00:10:40.66	144.26	56.66	-40.6	-41.6	22.2	0.00e+00	0	41	0	632291328	52	6914
2026-01-19 00:10:41.67	144.10	57.04	-41.3	-42.5	21.3	0.00e+00	0	40	0	634388480	54	6788
2026-01-19 00:10:42.68	143.94	57.43	-42.0	-43.3	20.9	0.00e+00	0	41	0	636485632	56	6628
2026-01-19 00:10:43.69	143.78	57.82	-42.8	-44.2	19.7	0.00e+00	0	41	0	638582784	58	6592
2026-01-19 00:10:44.70	143.61	58.21	-43.3	-44.8	19.2	0.00e+00	0	41	0	639631360	58	7070
2026-01-19 00:10:45.71	143.43	58.60	-44.0	-45.8	18.4	0.00e+00	0	41	0	641728512	60	7026
2026-01-19 00:10:46.72	143.25	59.00	-44.3	-46.1	18.1	0.00e+00	0	41	0	643825664	60	7321
2026-01-19 00:10:47.73	143.06	59.39	-43.9	-45.6	18.6	0.00e+00	0	41	0	645922816	60	6871
2026-01-19 00:10:48.74	142.87	59.79	-43.4	-45.0	19.2	0.00e+00	0	41	0	648019968	60	6405
2026-01-19 00:10:49.75	142.67	60.20	-42.7	-44.1	20.1	0.00e+00	0	41	0	649068544	60	5799
2026-01-19 00:10:50.75	142.47	60.60	-41.8	-43.0	21.1	0.00e+00	0	41	0	651165696	58	5733
2026-01-19 00:10:51.77	142.25	61.01	-40.7	-41.7	22.3	0.00e+00	0	41	0	653262848	56	5538
2026-01-19 00:10:52.78	142.03	61.42	-39.7	-40.7	23.2	0.00e+00	0	41	0	655360000	54	5504
2026-01-19 00:10:53.79	141.81	61.83	-39.1	-40.0	23.7	0.00e+00	0	41	0	657457152	52	5751
2026-01-19 00:10:54.80	141.57	62.24	-38.7	-39.6	24.2	0.00e+00	0	41	0	658505728	50	6108
2026-01-19 00:10:55.81	141.33	62.66	-38.2	-39.1	24.6	0.00e+00	0	41	0	660602880	50	5774
2026-01-19 00:10:56.82	141.08	63.07	-38.0	-38.8	24.7	0.00e+00	0	41	0	662700032	50	5574
2026-01-19 00:10:57.83	140.82	63.49	-38.0	-38.8	24.8	0.00e+00	0	40	0	664797184	50	5581
2026-01-19 00:10:58.84	140.55	63.91	-38.0	-38.9	24.6	0.00e+00	0	41	0	666894336	50	5633
2026-01-19 00:10:59.85	140.27	64.34	-38.5	-39.4	24.2	0.00e+00	0	40	0	667942912	50	5973
2026-01-19 00:11:00.86	139.98	64.76	-38.6	-39.4	24.1	0.00e+00	0	41	0	670040064	50	6017
2026-01-19 00:11:01.87	139.67	65.19	-38.9	-39.7	23.9	0.00e+00	0	41	0	672137216	50	6222
2026-01-19 00:11:02.88	139.36	65.62	-39.1	-40.0	23.7	0.00e+00	0	40	0	674234368	50	6439
2026-01-19 00:11:03.89	139.03	66.05	-39.3	-40.2	23.5	0.00e+00	0	41	0	676331520	50	6613
2026-01-19 00:11:04.90	138.69	66.48	-39.9	-40.8	22.9	0.00e+00	0	40	0	678428672	52	6300
2026-01-19 00:11:05.91	138.34	66.91	-40.0	-41.0	22.7	0.00e+00	0	41	0	679477248	52	6435
2026-01-19 00:11:06.92	137.97	67.35	-40.2	-41.2	22.6	0.00e+00	0	41	0	681574400	52	6554
2026-01-19 00:11:07.93	137.58	67.78	-39.9	-40.8	23.0	0.00e+00	0	41	0	683671552	52	6310
2026-01-19 00:11:08.94	137.18	68.22	-40.1	-41.1	22.7	0.00e+00	0	40	0	685768704	52	6488
2026-01-19 00:11:09.95	136.76	68.66	-40.1	-41.1	22.8	0.00e+00	0	40	0	687865856	52	6479
2026-01-19 00:11:10.96	136.32	69.10	-39.8	-40.8	23.0	0.00e+00	0	41	0	688914432	52	6287
2026-01-19 00:11:11.97	135.86	69.54	-39.9	-40.9	22.9	0.00e+00	0	41	0	691011584	52	6324
2026-01-19 00:11:12.98	135.38	69.98	-39.7	-40.7	23.0	0.00e+00	0	41	0	693108736	52	6209
2026-01-19 00:11:13.99	134.87	70.42	-39.7	-40.6	23.3	0.00e+00	0	41	0	695205888	52	6160
2026-01-19 00:11:15.00	134.34	70.86	-39.5	-40.4	23.4	0.00e+00	0	40	0	697303040	52	6025
2026-01-19 00:11:16.01	133.78	71.31	-39.8	-40.8	22.9	0.00e+00	0	41	0	698351616	52	6251
2026-01-19 00:11:17.02	133.20	71.75	-39.7	-40.6	23.1	0.00e+00	0	41	0	700448768	52	6160
2026-01-19 00:11:18.03	132.58	72.19	-39.3	-40.2	23.4	0.00e+00	0	41	0	702545920	52	5874
2026-01-19 00:11:19.04	131.93	72.63	-39.3	-40.2	23.5	0.00e+00	0	41	0	704643072	52	5848
2026-01-19 00:11:20.05	131.24	73.07	-39.7	-40.6	23.2	0.00e+00	0	41	0	706740224	52	6140
2026-01-19 00:11:21.06	130.51	73.51	-40.5	-41.5	22.2	0.00e+00	0	40	0	707788800	52	6801
2026-01-19 00:11:22.08	129.74	73.96	-41.3	-42.4	21.4	0.00e+00	0	41	0	709885952	54	6753
2026-01-19 00:11:23.09	128.92	74.40	-41.6	-42.8	21.2	0.00e+00	0	41	0	711983104	54	7009
2026-01-19 00:11:24.09	128.07	74.83	-41.5	-42.8	21.2	0.00e+00	0	40	0	714080256	54	7022
2026-01-19 00:11:25.10	127.15	75.26	-40.9	-42.0	21.9	0.00e+00	0	40	0	716177408	54	6416
2026-01-19 00:11:26.11	126.18	75.69	-40.7	-41.8	22.1	0.00e+00	0	41	0	717225984	54	6258
2026-01-19 00:11:27.13	125.13	76.13	-40.7	-41.8	22.1	0.00e+00	0	40	0	719323136	54	6247
2026-01-19 00:11:28.13	124.04	76.55	-41.1	-42.2	21.7	0.00e+00	0	40	0	721420288	54	6548
2026-01-19 00:11:29.14	122.86	76.97	-41.4	-42.6	21.4	0.00e+00	0	41	0	723517440	54	6865
2026-01-19 00:11:30.15	121.60	77.39	-41.7	-42.9	21.1	0.00e+00	0	40	0	725614592	56	6344
2026-01-19 00:11:31.17	120.24	77.80	-41.0	-42.1	21.8	0.00e+00	0	40	0	726663168	56	5811
2026-01-19 00:11:32.18	118.80	78.21	-40.1	-41.1	22.7	0.00e+00	0	41	0	728760320	54	5787
2026-01-19 00:11:33.19	117.25	78.61	-39.8	-40.7	22.3	0.00e+00	0	41	0	730857472	54	5564
2026-01-19 00:11:34.20	115.58	79.00	-39.4	-40.3	23.4	0.00e+00	0	41	0	732954624	52	5938
2026-01-19 00:11:35.21	113.79	79.38	-38.9	-39.8	23.9	0.00e+00	0	40	0	735051776	52	5599
2026-01-19 00:11:36.22	111.87	79.75	-38.7	-39.6	24.0	0.00e+00	0	40	0	736100352	50	6138
2026-01-19 00:11:37.23	109.81	80.11	-38.4	-39.3	24.3	0.00e+00	0	40	0	738197504	50	5919
2026-01-19 00:11:38.24	107.58	80.46	-38.6	-39.5	24.2	0.00e+00	0	41	0	740294656	50	6045
2026-01-19 00:11:39.25	105.19	80.79	-39.3	-40.3	23.4	0.00e+00	0	41	0	742391808	50	6625
2026-01-19 00:11:40.26	102.63	81.11	-39.8	-40.7	23.1	0.00e+00	0	40	0	744488960	52	6213
2026-01-19 00:11:41.27	99.87	81.40	-40.2	-41.2	22.7	0.00e+00	0	40	0	746586112	52	6576
2026-01-19 00:11:42.28	96.93	81.68	-40.8	-41.8	21.9	0.00e+00	0	40	0	747634688	52	7074
2026-01-19 00:11:43.29	93.79	81.93	-41.2	-42.3	21.6	0.00e+00	0	41	0	749731840	54	6680
2026-01-19 00:11:44.30	90.45	82.16	-41.9	-43.1	20.9	0.00e+00	0	40	0	751828992	56	6511
2026-01-19 00:11:45.31	86.92	82.36	-42.5	-43.8	20.1	0.00e+00	0	40	0	753926144	56	7053
2026-01-19 00:11:46.32	83.22	82.53	-42.7	-44.0	20.2	0.00e+00	0	41	0	756023296	56	7231
2026-01-19 00:11:47.33	79.36	82.67	-42.3	-43.5	20.5	0.00e+00	0	40	0	757071872	56	6845
2026-01-19 00:11:48.34	75.37	82.77	-42.5	-43.8	20.3	0.00e+00	0	40	0	759169024	56	7009
2026-01-19 00:11:49.35	71.28	82.84	-42.5	-43.8	20.2	0.00e+00	0	40	0	761266176	56	7060
2026-01-19 00:11:50.36	67.13	82.87	-43.0	-44.4	19.5	0.00e+00	0	40	0	763363328	58	6733
2026-01-19 00:11:51.36	63.01	82.87	-43.1	-44.6	19.5	0.00e+00	0	40	0	765460480	58	6883
2026-01-19 00:11:52.37	58.88	82.83	-42.9	-44.4	19.7	0.00e+00	0	40	0	766509056	58	6705
2026-01-19 00:11:53.38	54.81	82.75	-42.7	-44.1	19.9	0.00e+00	0	41	0	768606208	58	6511
2026-01-19 00:11:54.39	50.86	82.63	-42.5	-43.9	20.1	0.00e+00	0	40	0	770703360	58	6334
2026-01-19 00:11:55.40	47.04	82.48	-42.4	-43.7	20.2	0.00e+00	0	41	0	772800512	58	6223
2026-01-19 00:11:56.41	43.39	82.30	-42.3	-43.6	20.2	0.00e+00	0	40	0	774897664	58	6165
2026-01-19 00:11:57.42	39.92	82.09	-42.6	-44.0	20.0	0.00e+00	0	41	0	775946240	58	6416
2026-01-19 00:11:58.43	36.65	81.86	-42.0	-43.2	20.9	0.00e+00	0	41	0	778043392	58	5863
2026-01-19 00:11:59.44	33.57	81.60	-40.9	-41.9	22.1	0.00e+00	0	40	0	780140544	56	5665
2026-01-19 00:12:00.45	30.68	81.32	-40.6	-41.6	22.3	0.00e+00	0	41	0	782237696	54	6142
2026-01-19 00:12:01.46	27.99	81.01	-40.5	-41.5	22.3	0.00e+00	0	41	0	784334848	54	6096
2026-01-19 00:12:02.47	25.48	80.69	-40.3	-41.3	22.7	0.00e+00	0	40	0	785383424	54	5962
2026-01-19 00:12:03.48	23.14	80.36	-40.2	-41.2	22.5	0.00e+00	0	40	0	787480576	54	5874
2026-01-19 00:12:04.49	20.97	80.00	-40.0	-41.0	22.8	0.00e+00	0	40	0	789577728	54	5699
2026-01-19 00:12:05.50	18.95	79.64	-39.4	-40.3	23.4	0.00e+00	0	40	0	791674880	52	5939
2026-01-19 00:12:06.51	17.07	79.27	-40.1	-41.1	22.9	0.00e+00	0	40	0	793772032	52	6476
2026-01-19 00:12:07.52	15.32	78.88	-40.8	-41.9	22.0	0.00e+00	0	40	0	794820608	52	7107
2026-01-19 00:12:08.53	13.69	78.49	-41.1	-42.2	21.6	0.00e+00	0	41	0	796917760	54	6585
2026-01-19 00:12:09.54	12.17	78.09	-41.5	-42.7	21.2	0.00e+00	0	41	0	799014912	54	6986
2026-01-19 00:12:10.55	10.76	77.68	-41.6	-42.8	21.2	0.00e+00	0	40	0	801112064	54	7038
2026-01-19 00:12:11.56	9.44	77.27	-41.0	-42.1	22.0	0.00e+00	0	41	0	803209216	54	6494
2026-01-19 00:12:12.57	8.21	76.85	-40.6	-41.7	22.2	0.00e+00	0	41	0	804257792	54	6176
2026-01-19 00:12:13.58	7.05	76.43	-40.9	-42.0	21.8	0.00e+00	0	40	0	806354944	54	6412
2026-01-19 00:12:14.59	5.97	76.00	-41.2	-42.4	21.5	0.00e+00	0	40	0	808452096	54	6724
2026-01-19 00:12:15.60	4.95	75.57	-41.0	-42.1	21.9	0.00e+00	0	41	0	810549248	54	6476
2026-01-19 00:12:16.61	3.99	75.14	-40.7	-41.7	22.1	0.00e+00	0	41	0	812646400	54	6235
2026-01-19 00:12:17.62	3.09	74.71	-39.9	-40.9	22.9	0.00e+00	0	41	0	814743552	54	5636
2026-01-19 00:12:18.63	2.25	74.27	-39.7	-40.7	23.0	0.00e+00	0	41	0	815792128	52	6197
2026-01-19 00:12:19.64	1.45	73.83	-39.7	-40.7	23.1	0.00e+00	0	41	0	817889280	52	6194
2026-01-19 00:12:20.65	0.69	73.39	-39.6	-40.6	23.3	0.00e+00	0	41	0	819986432	52	6116
2026-01-19 00:12:21.66	359.98	72.95	-39.1	-40.0	23.7	0.00e+00	0	41	0	822083584	52	5717
2026-01-19 00:12:22.67	359.30	72.51	-38.5	-39.4	24.2	0.00e+00	0	41	0	824180736	50	5966
2026-01-19 00:12:23.68	358.66	72.07	-37.9	-38.6	24.8	0.00e+00	0	41	0	825229312	50	5500
2026-01-19 00:12:24.69	358.05	71.63	-38.0	-38.8	24.6	0.00e+00	0	41	0	827326464	50	5580
2026-01-19 00:12:25.70	357.48	71.19	-38.1	-38.9	24.5	0.00e+00	0	40	0	829423616	50	5647
2026-01-19 00:12:26.70	356.93	70.75	-38.1	-38.9	24.5	0.00e+00	0	40	0	831520768	50	5659
2026-01-19 00:12:27.72	356.40	70.31	-38.5	-39.4	24.1	0.00e+00	0	41	0	833617920	50	5995
2026-01-19 00:12:28.73	355.91	69.87	-39.5	-40.5	23.1	0.00e+00	0	40	0	834666496	50	6770
2026-01-19 00:12:29.73	355.44	69.43	-40.4	-41.5	22.4	0.00e+00	0	40	0	836763648	52	6781
2026-01-19 00:12:30.74	354.98	68.99	-41.2	-42.4	21.6	0.00e+00	0	41	0	838860800	54	6709
2026-01-19 00:12:31.75	354.55	68.55	-42.1	-43.4	20.4	0.00e+00	0	41	0	840957952	56	6731
2026-01-19 00:12:32.76	354.13	68.12	-43.0	-44.5	19.4	0.00e+00	0	40	0	843055104	58	6796
2026-01-19 00:12:33.77	353.73	67.68	-43.5	-45.1	18.6	0.00e+00	0	41	0	844103680	58	7326
2026-01-19 00:12:34.78	353.35	67.25	-43.7	-45.4	18.3	0.00e+00	0	41	0	846200832	60	6699
2026-01-19 00:12:35.79	352.99	66.81	-43.5	-45.1	19.2	0.00e+00	0	41	0	848297984	60	6506
2026-01-19 00:12:36.80	352.64	66.38	-42.8	-44.3	20.0	0.00e+00	0	41	0	850395136	60	5913
2026-01-19 00:12:37.81	352.30	65.95	-42.1	-43.4	20.5	0.00e+00	0	41	0	852492288	58	6009
2026-01-19 00:12:38.82	351.98	65.52	-41.0	-42.1	21.9	0.00e+00	0	41	0	853540864	56	5773
2026-01-19 00:12:39.83	351.67	65.10	-39.7	-40.6	23.1	0.00e+00	0	41	0	855638016	52	6161
2026-01-19 00:12:40.84	351.37	64.67	-39.1	-40.0	23.8	0.00e+00	0	40	0	857735168	52	5699
2026-01-19 00:12:41.85	351.08	64.25	-38.7	-39.5	24.0	0.00e+00	0	40	0	859832320	50	6090
2026-01-19 00:12:42.86	350.80	63.82	-37.9	-38.7	24.8	0.00e+00	0	41	0	861929472	50	5555
2026-01-19 00:12:43.87	350.54	63.40	-37.6	-38.3	25.0	0.00e+00	0	41	0	862978048	48	5958
2026-01-19 00:12:44.88	350.28	62.99	-37.5	-38.3	25.0	0.00e+00	0	40	0	865075200	48	5918
2026-01-19 00:12:45.89	350.03	62.57	-37.6	-38.4	25.0	0.00e+00	0	40	0	867172352	48	5983
2026-01-19 00:12:46.90	349.79	62.16	-37.5	-38.3	25.0	0.00e+00	0	41	0	869269504	48	5957
2026-01-19 00:12:47.90	349.56	61.75	-37.9	-38.7	24.7	0.00e+00	0	40	0	871366656	48	6229
2026-01-19 00:12:48.91	349.34	61.34	-38.1	-38.9	24.6	0.00e+00	0	41	0	872415232	48	6378
2026-01-19 00:12:49.92	349.12	60.93	-38.3	-39.2	24.2	0.00e+00	0	41	0	874512384	48	6548
2026-01-19 00:12:50.93	348.91	60.53	-39.4	-40.3	23.3	0.00e+00	0	41	0	876609536	50	6628
2026-01-19 00:12:51.94	348.70	60.12	-40.7	-41.7	21.8	0.00e+00	0	41	0	878706688	52	7004
2026-01-19 00:12:52.95	348.51	59.72	-41.2	-42.4	21.5	0.00e+00	0	41	0	880803840	54	6699
2026-01-19 00:12:53.96	348.32	59.32	-41.0	-42.1	21.6	0.00e+00	0	40	0	882900992	54	6504
2026-01-19 00:12:54.97	348.13	58.93	-41.2	-42.3	21.4	0.00e+00	0	40	0	883949568	54	6658
2026-01-19 00:12:55.98	347.95	58.53	-41.4	-42.5	21.3	0.00e+00	0	41	0	886046720	54	6846
2026-01-19 00:12:56.99	347.78	58.14	-41.2	-42.4	21.4	0.00e+00	0	41	0	888143872	54	6701
2026-01-19 00:12:57.99	347.61	57.76	-41.0	-42.1	21.7	0.00e+00	0	41	0	890241024	54	6521
2026-01-19 00:12:59.00	347.45	57.37	-41.9	-43.2	20.7	0.00e+00	0	41	0	892338176	56	6554
2026-01-19 00:13:00.01	347.29	56.99	-42.0	-43.3	20.7	0.00e+00	0	40	0	893386752	56	6688
2026-01-19 00:13:01.02	347.13	56.60	-41.5	-42.7	21.2	0.00e+00	0	41	0	895483904	56	6191
2026-01-19 00:13:02.03	346.98	56.22	-40.3	-41.4	22.5	0.00e+00	0	41	0	897581056	54	5969
2026-01-19 00:13:03.04	346.83	55.85	-39.5	-40.5	23.3	0.00e+00	0	41	0	899678208	52	6038
2026-01-19 00:13:04.05	346.69	55.47	-39.0	-39.9	23.8	0.00e+00	0	41	0	901775360	52	5633
2026-01-19 00:13:05.06	346.55	55.10	-39.2	-40.1	23.5	0.00e+00	0	41	0	902823936	52	5771
2026-01-19 00:13:06.07	346.42	54.73	-38.9	-39.7	23.9	0.00e+00	0	41	0	904921088	52	5551
2026-01-19 00:13:07.08	346.29	54.36	-38.3	-39.1	24.4	0.00e+00	0	40	0	907018240	50	5804
2026-01-19 00:13:08.09	346.16	54.00	-38.2	-39.0	24.4	0.00e+00	0	41	0	909115392	50	5759
2026-01-19 00:13:09.10	346.03	53.63	-38.4	-39.2	24.3	0.00e+00	0	40	0	911212544	50	5877
2026-01-19 00:13:10.11	345.91	53.27	-38.4	-39.2	24.3	0.00e+00	0	41	0	912261120	50	5862
2026-01-19 00:13:11.12	345.79	52.92	-38.2	-39.1	24.5	0.00e+00	0	41	0	914358272	50	5781
2026-01-19 00:13:12.13	345.68	52.56	-38.4	-39.3	24.3	0.00e+00	0	40	0	916455424	50	5917
2026-01-19 00:13:13.14	345.57	52.21	-38.8	-39.7	24.0	0.00e+00	0	40	0	918552576	50	6239
2026-01-19 00:13:14.15	345.46	51.86	-39.6	-40.5	23.2	0.00e+00	0	41	0	920649728	50	6839
2026-01-19 00:13:15.16	345.35	51.51	-40.2	-41.3	22.5	0.00e+00	0	41	0	921698304	52	6651
2026-01-19 00:13:16.17	345.24	51.16	-40.8	-41.9	21.8	0.00e+00	0	41	0	923795456	54	6356
2026-01-19 00:13:17.18	345.14	50.82	-41.0	-42.2	21.6	0.00e+00	0	41	0	925892608	54	6567
2026-01-19 00:13:18.19	345.04	50.48	-41.4	-42.7	21.1	0.00e+00	0	41	0	927989760	54	6930
2026-01-19 00:13:19.20	344.94	50.14	-41.4	-42.6	21.1	0.00e+00	0	41	0	930086912	54	6892
2026-01-19 00:13:20.21	344.85	49.81	-41.7	-42.9	20.8	0.00e+00	0	41	0	931135488	54	7159
2026-01-19 00:13:21.22	344.76	49.47	-41.6	-42.8	20.9	0.00e+00	0	41	0	933232640	54	7076
2026-01-19 00:13:22.23	344.66	49.14	-42.0	-43.2	20.6	0.00e+00	0	41	0	935329792	56	6609
2026-01-19 00:13:23.24	344.57	48.81	-42.2	-43.5	20.3	0.00e+00	0	41	0	937426944	56	6839
2026-01-19 00:13:24.25	344.49	48.48	-43.2	-44.8	19.1	0.00e+00	0	41	0	939524096	58	7059
2026-01-19 00:13:25.26	344.40	48.16	-43.9	-45.7	18.5	0.00e+00	0	41	0	940572672	60	6936
2026-01-19 00:13:26.27	344.32	47.84	-43.7	-45.4	18.7	0.00e+00	0	41	0	942669824	60	6751
2026-01-19 00:13:27.28	344.24	47.52	-43.0	-44.6	19.6	0.00e+00	0	41	0	944766976	60	6106
2026-01-19 00:13:28.28	344.16	47.21	-42.7	-44.2	19.9	0.00e+00	0	41	0	946864128	58	6571
2026-01-19 00:13:29.29	344.08	46.89	-41.1	-42.2	22.0	0.00e+00	0	41	0	948961280	56	5852
2026-01-19 00:13:30.30	344.00	46.58	-40.4	-41.5	22.4	0.00e+00	0	41	0	951058432	54	6056
2026-01-19 00:13:31.32	343.93	46.27	-40.3	-41.4	22.5	0.00e+00	0	41	0	952107008	54	5969
2026-01-19 00:13:32.32	343.85	45.96	-40.8	-41.9	22.1	0.00e+00	0	41	0	954204160	54	6349
2026-01-19 00:13:33.33	343.78	45.65	-41.5	-42.7	21.2	0.00e+00	0	41	0	956301312	54	6950
2026-01-19 00:13:34.34	343.71	45.35	-42.0	-43.2	20.7	0.00e+00	0	41	0	958398464	56	6614
2026-01-19 00:13:35.35	343.64	45.05	-42.4	-43.8	20.1	0.00e+00	0	41	0	960495616	56	7050
2026-01-19 00:13:36.36	343.58	44.75	-42.7	-44.2	19.8	0.00e+00	0	41	0	961544192	56	7361
2026-01-19 00:13:37.37	343.51	44.45	-42.4	-43.8	20.1	0.00e+00	0	41	0	963641344	58	6301
2026-01-19 00:13:38.37	343.44	44.16	-42.1	-43.5	20.3	0.00e+00	0	40	0	965738496	58	6072
2026-01-19 00:13:39.39	343.38	43.87	-41.8	-43.1	20.6	0.00e+00	0	41	0	967835648	58	5801
2026-01-19 00:13:40.40	343.32	43.58	-40.9	-42.0	21.5	0.00e+00	0	40	0	969932800	56	5761
2026-01-19 00:13:41.41	343.26	43.29	-40.4	-41.5	22.2	0.00e+00	0	41	0	970981376	54	6067
2026-01-19 00:13:42.42	343.20	43.00	-39.8	-40.8	22.9	0.00e+00	0	40	0	973078528	54	5572
2026-01-19 00:13:43.43	343.14	42.72	-40.2	-41.2	22.5	0.00e+00	0	40	0	975175680	52	6589
2026-01-19 00:13:44.44	343.08	42.44	-40.6	-41.7	21.9	0.00e+00	0	40	0	977272832	52	6994
2026-01-19 00:13:45.44	343.02	42.16	-41.3	-42.5	21.3	0.00e+00	0	41	0	979369984	54	6792
2026-01-19 00:13:46.45	342.97	41.88	-41.8	-43.1	20.8	0.00e+00	0	40	0	980418560	54	7294
2026-01-19 00:13:47.47	342.91	41.60	-42.4	-43.8	20.3	0.00e+00	0	41	0	982515712	56	7014
2026-01-19 00:13:48.48	342.86	41.33	-42.5	-43.9	20.2	0.00e+00	0	40	0	984612864	56	7128
2026-01-19 00:13:49.49	342.80	41.06	-42.5	-43.9	20.2	0.00e+00	0	40	0	986710016	56	7136
2026-01-19 00:13:50.49	342.75	40.79	-42.5	-43.9	20.2	0.00e+00	0	40	0	988807168	56	7118
2026-01-19 00:13:51.50	342.70	40.52	-42.1	-43.5	20.7	0.00e+00	0	41	0	989855744	56	6770
2026-01-19 00:13:52.51	342.65	40.26	-42.0	-43.3	20.8	0.00e+00	0	40	0	991952896	56	6660
2026-01-19 00:13:53.52	342.60	40.00	-41.5	-42.6	21.5	0.00e+00	0	41	0	994050048	56	6158
2026-01-19 00:13:54.53	342.55	39.73	-41.1	-42.2	21.8	0.00e+00	0	41	0	996147200	56	5875
2026-01-19 00:13:55.54	342.50	39.47	-41.0	-42.1	21.9	0.00e+00	0	41	0	998244352	56	5818
2026-01-19 00:13:56.55	342.46	39.22	-41.4	-42.5	21.4	0.00e+00	0	41	0	999292928	56	6085
2026-01-19 00:13:57.56	342.41	38.96	-41.8	-43.0	20.8	0.00e+00	0	41	0	1001390080	56	6450
2026-01-19 00:13:58.57	342.37	38.71	-42.2	-43.5	20.6	0.00e+00	0	41	0	1003487232	56	6825
2026-01-19 00:13:59.58	342.32	38.45	-42.3	-43.6	20.4	0.00e+00	0	41	0	1005584384	56	6910
2026-01-19 00:14:00.59	342.28	38.20	-42.6	-44.0	19.9	0.00e+00	0	40	0	1007681536	56	7221
2026-01-19 00:14:01.60	342.24	37.96	-42.7	-44.1	19.9	0.00e+00	0	40	0	1008730112	56	7309
2026-01-19 00:14:02.61	342.19	37.71	-42.7	-44.1	20.0	0.00e+00	0	41	0	1010827264	56	7275
2026-01-19 00:14:03.61	342.15	37.47	-42.6	-44.0	20.1	0.00e+00	0	41	0	1012924416	58	6417
2026-01-19 00:14:04.62	342.11	37.22	-42.6	-43.9	20.0	0.00e+00	0	41	0	1015021568	58	6380
2026-01-19 00:14:05.63	342.07	36.98	-42.2	-43.6	20.5	0.00e+00	0	40	0	1017118720	58	6108
2026-01-19 00:14:06.64	342.03	36.74	-42.2	-43.4	20.5	0.00e+00	0	41	0	1018167296	58	6025
2026-01-19 00:14:07.65	341.99	36.50	-41.8	-43.0	21.0	0.00e+00	0	41	0	1020264448	58	5742
2026-01-19 00:14:08.66	341.95	36.27	-41.3	-42.4	21.6	0.00e+00	0	40	0	1022361600	56	6023
2026-01-19 00:14:09.67	341.92	36.03	-41.2	-42.3	21.7	0.00e+00	0	40	0	1024458752	56	5909
2026-01-19 00:14:10.68	341.88	35.80	-41.2	-42.3	21.7	0.00e+00	0	41	0	1026555904	56	5909
2026-01-19 00:14:11.69	341.84	35.57	-41.2	-42.3	21.6	0.00e+00	0	41	0	1027604480	56	5949
2026-01-19 00:14:12.70	341.81	35.34	-41.3	-42.4	21.6	0.00e+00	0	41	0	1029701632	56	5989
2026-01-19 00:14:13.71	341.77	35.11	-41.5	-42.6	21.2	0.00e+00	0	40	0	1031798784	56	6172
2026-01-19 00:14:14.72	341.73	34.89	-41.7	-42.9	21.1	0.00e+00	0	41	0	1033895936	56	6382
2026-01-19 00:14:15.73	341.70	34.66	-42.2	-43.5	20.5	0.00e+00	0	41	0	1035993088	56	6828
2026-01-19 00:14:16.74	341.67	34.44	-42.5	-43.9	20.2	0.00e+00	0	41	0	1037041664	56	7109
2026-01-19 00:14:17.75	341.63	34.22	-42.8	-44.2	19.9	0.00e+00	0	41	0	1039138816	56	7385
2026-01-19 00:14:18.76	341.60	34.00	-43.0	-44.5	19.6	0.00e+00	0	40	0	1041235968	58	6838
2026-01-19 00:14:19.76	341.57	33.78	-43.3	-44.9	19.2	0.00e+00	0	41	0	1043333120	58	7097
2026-01-19 00:14:20.77	341.54	33.56	-43.6	-45.2	18.8	0.00e+00	0	40	0	1045430272	58	7406
2026-01-19 00:14:21.78	341.50	33.35	-43.5	-45.1	18.8	0.00e+00	0	41	0	1047527424	58	7336
2026-01-19 00:14:22.79	341.47	33.13	-43.5	-45.2	18.8	0.00e+00	0	40	0	1048576000	58	7362
2026-01-19 00:14:23.80	341.44	32.92	-43.5	-45.1	19.0	0.00e+00	0	40	0	1050673152	58	7265
2026-01-19 00:14:24.81	341.41	32.71	-43.1	-44.7	19.3	0.00e+00	0	41	0	1052770304	58	6939
2026-01-19 00:14:25.82	341.38	32.50	-43.0	-44.5	19.4	0.00e+00	0	40	0	1054867456	58	6793
2026-01-19 00:14:26.83	341.35	32.29	-42.7	-44.1	19.7	0.00e+00	0	41	0	1056964608	58	6521
2026-01-19 00:14:27.84	341.33	32.09	-42.5	-43.9	20.0	0.00e+00	0	41	0	1058013184	58	6368
2026-01-19 00:14:28.85	341.30	31.88	-42.5	-43.9	20.0	0.00e+00	0	41	0	1060110336	58	6369
2026-01-19 00:14:29.86	341.27	31.68	-42.2	-43.6	20.3	0.00e+00	0	40	0	1062207488	58	6120
2026-01-19 00:14:30.87	341.24	31.48	-42.2	-43.5	20.5	0.00e+00	0	41	0	1064304640	58	6060
2026-01-19 00:14:31.88	341.21	31.28	-42.0	-43.3	20.7	0.00e+00	0	41	0	1066401792	58	5908
2026-01-19 00:14:32.89	341.19	31.08	-41.9	-43.1	20.9	0.00e+00	0	40	0	1067450368	58	5806
2026-01-19 00:14:33.90	341.16	30.88	-41.9	-43.2	20.8	0.00e+00	0	40	0	1069547520	58	5831
2026-01-19 00:14:34.91	341.14	30.68	-42.0	-43.3	20.9	0.00e+00	0	40	0	1071644672	58	5906
2026-01-19 00:14:35.92	341.11	30.49	-41.9	-43.1	20.9	0.00e+00	0	41	0	1073741824	58	5803
2026-01-19 00:14:36.93	341.08	30.29	-42.0	-43.2	20.8	0.00e+00	0	40	0	1075838976	58	5895
2026-01-19 00:14:37.94	341.06	30.10	-42.0	-43.2	20.7	0.00e+00	0	41	0	1076887552	58	5873
2026-01-19 00:14:38.95	341.03	29.91	-41.8	-43.1	20.9	0.00e+00	0	40	0	1078984704	58	5775
2026-01-19 00:14:39.96	341.01	29.72	-41.8	-43.1	20.9	0.00e+00	0	40	0	1081081856	58	5774
2026-01-19 00:14:40.97	340.99	29.53	-41.9	-43.1	20.8	0.00e+00	0	40	0	1083179008	56	6490
2026-01-19 00:14:41.98	340.96	29.34	-41.8	-43.0	21.0	0.00e+00	0	41	0	1085276160	56	6429
2026-01-19 00:14:42.98	340.94	29.15	-41.7	-43.0	20.9	0.00e+00	0	40	0	1086324736	56	6400
2026-01-19 00:14:44.00	340.92	28.97	-41.7	-42.9	21.0	0.00e+00	0	40	0	1088421888	56	6321
2026-01-19 00:14:45.01	340.89	28.78	-41.6	-42.8	21.1	0.00e+00	0	41	0	1090519040	56	6303
2026-01-19 00:14:46.02	340.87	28.60	-41.6	-42.8	21.1	0.00e+00	0	40	0	1092616192	56	6308
2026-01-19 00:14:47.03	340.85	28.42	-41.6	-42.8	21.1	0.00e+00	0	40	0	1094713344	56	6264
2026-01-19 00:14:48.04	340.83	28.24	-41.4	-42.6	21.3	0.00e+00	0	40	0	1095761920	56	6126
2026-01-19 00:14:49.05	340.81	28.06	-41.4	-42.5	21.4	0.00e+00	0	41	0	1097859072	56	6092
2026-01-19 00:14:50.05	340.78	27.88	-41.1	-42.3	21.5	0.00e+00	0	40	0	1099956224	56	5908
2026-01-19 00:14:51.06	340.76	27.70	-40.9	-42.0	21.8	0.00e+00	0	41	0	1102053376	56	5739
2026-01-19 00:14:52.07	340.74	27.53	-40.6	-41.6	22.0	0.00e+00	0	40	0	1104150528	54	6150
2026-01-19 00:14:53.08	340.72	27.35	-40.6	-41.6	22.0	0.00e+00	0	40	0	1105199104	54	6152
2026-01-19 00:14:54.09	340.70	27.18	-40.3	-41.3	22.4	0.00e+00	0	40	0	1107296256	54	5941
2026-01-19 00:14:55.10	340.68	27.01	-40.2	-41.3	22.4	0.00e+00	0	40	0	1109393408	54	5900
2026-01-19 00:14:56.11	340.66	26.84	-40.1	-41.1	22.5	0.00e+00	0	40	0	1111490560	54	5813
2026-01-19 00:14:57.12	340.64	26.67	-40.0	-41.0	22.7	0.00e+00	0	40	0	1113587712	54	5710
2026-01-19 00:14:58.13	340.62	26.50	-39.9	-40.9	22.8	0.00e+00	0	41	0	1115684864	54	5678
2026-01-19 00:14:59.14	340.61	26.33	-39.9	-40.9	22.8	0.00e+00	0	40	0	1116733440	54	5634
2026-01-19 00:15:00.15	340.59	26.16	-39.7	-40.7	23.1	0.00e+00	0	40	0	1118830592	52	6181
2026-01-19 00:15:01.16	340.57	25.99	-39.8	-40.8	22.9	0.00e+00	0	40	0	1120927744	52	6262
2026-01-19 00:15:02.17	340.55	25.83	-39.6	-40.6	22.9	0.00e+00	0	40	0	1123024896	52	6140
2026-01-19 00:15:03.17	340.53	25.67	-39.7	-40.7	22.9	0.00e+00	0	41	0	1125122048	52	6184
2026-01-19 00:15:04.18	340.51	25.50	-39.7	-40.7	22.9	0.00e+00	0	40	0	1126170624	52	6204
2026-01-19 00:15:05.20	340.50	25.34	-39.9	-40.9	22.8	0.00e+00	0	40	0	1128267776	52	6330
2026-01-19 00:15:06.21	340.48	25.18	-39.8	-40.7	22.9	0.00e+00	0	40	0	1130364928	52	6240
2026-01-19 00:15:07.22	340.46	25.02	-39.8	-40.8	22.8	0.00e+00	0	40	0	1132462080	52	6257
2026-01-19 00:15:08.23	340.45	24.86	-39.7	-40.6	22.9	0.00e+00	0	40	0	1134559232	52	6171
2026-01-19 00:15:09.23	340.43	24.70	-39.7	-40.7	22.8	0.00e+00	0	40	0	1135607808	52	6212
2026-01-19 00:15:10.24	340.41	24.54	-39.7	-40.6	22.9	0.00e+00	0	40	0	1137704960	52	6157
2026-01-19 00:15:11.25	340.40	24.39	-39.8	-40.7	22.8	0.00e+00	0	40	0	1139802112	52	6236
2026-01-19 00:15:12.26	340.38	24.23	-39.6	-40.6	23.0	0.00e+00	0	40	0	1141899264	52	6126
2026-01-19 00:15:13.27	340.36	24.08	-39.6	-40.6	22.9	0.00e+00	0	41	0	1143996416	52	6116
2026-01-19 00:15:14.28	340.35	23.92	-39.6	-40.6	23.0	0.00e+00	0	40	0	1145044992	52	6127
2026-01-19 00:15:15.29	340.33	23.77	-39.6	-40.6	23.0	0.00e+00	0	40	0	1147142144	52	6114
2026-01-19 00:15:16.30	340.32	23.62	-39.7	-40.6	22.9	0.00e+00	0	40	0	1149239296	52	6172
2026-01-19 00:15:17.31	340.30	23.47	-39.7	-40.7	22.9	0.00e+00	0	40	0	1151336448	52	6198
2026-01-19 00:15:18.32	340.29	23.32	-39.6	-40.5	23.0	0.00e+00	0	40	0	1153433600	52	6100
2026-01-19 00:15:19.33	340.27	23.17	-39.5	-40.5	23.1	0.00e+00	0	41	0	1154482176	52	6040
2026-01-19 00:15:20.34	340.26	23.02	-39.4	-40.4	23.1	0.00e+00	0	40	0	1156579328	52	5977
2026-01-19 00:15:21.35	340.25	22.87	-39.4	-40.3	23.2	0.00e+00	0	41	0	1158676480	52	5945
2026-01-19 00:15:22.35	340.23	22.73	-39.4	-40.3	23.2	0.00e+00	0	40	0	1160773632	52	5945
2026-01-19 00:15:23.36	340.22	22.58	-39.3	-40.2	23.3	0.00e+00	0	40	0	1162870784	52	5880
2026-01-19 00:15:24.38	340.20	22.43	-39.4	-40.3	23.3	0.00e+00	0	40	0	1163919360	52	5931
2026-01-19 00:15:25.38	340.19	22.29	-39.3	-40.3	23.2	0.00e+00	0	40	0	1166016512	52	5913
2026-01-19 00:15:26.39	340.18	22.15	-39.3	-40.2	23.3	0.00e+00	0	40	0	1168113664	52	5868
2026-01-19 00:15:27.40	340.16	22.00	-39.2	-40.1	23.3	0.00e+00	0	41	0	1170210816	52	5827
2026-01-19 00:15:28.41	340.15	21.86	-39.3	-40.2	23.3	0.00e+00	0	40	0	1172307968	52	5895
2026-01-19 00:15:29.42	340.14	21.72	-39.4	-40.3	23.1	0.00e+00	0	40	0	1173356544	52	5959
2026-01-19 00:15:30.43	340.12	21.58	-39.4	-40.4	23.1	0.00e+00	0	40	0	1175453696	52	6000
2026-01-19 00:15:31.44	340.11	21.44	-39.6	-40.5	22.9	0.00e+00	0	40	0	1177550848	52	6103
2026-01-19 00:15:32.45	340.10	21.30	-39.6	-40.6	22.8	0.00e+00	0	40	0	1179648000	52	6120
2026-01-19 00:15:33.46	340.09	21.17	-39.7	-40.7	22.7	0.00e+00	0	41	0	1181745152	52	6207
2026-01-19 00:15:34.47	340.07	21.03	-39.9	-40.9	22.5	0.00e+00	0	40	0	1183842304	52	6350
2026-01-19 00:15:35.48	340.06	20.89	-40.0	-41.0	22.4	0.00e+00	0	40	0	1184890880	52	6435
2026-01-19 00:15:36.49	340.05	20.76	-40.0	-41.1	22.4	0.00e+00	0	40	0	1186988032	52	6479
2026-01-19 00:15:37.50	340.04	20.62	-40.2	-41.2	22.2	0.00e+00	0	40	0	1189085184	52	6575
2026-01-19 00:15:38.51	340.03	20.49	-40.1	-41.2	22.3	0.00e+00	0	40	0	1191182336	52	6546
2026-01-19 00:15:39.52	340.01	20.35	-40.2	-41.3	22.1	0.00e+00	0	40	0	1193279488	52	6638
2026-01-19 00:15:40.53	340.00	20.22	-40.3	-41.3	22.1	0.00e+00	0	40	0	1194328064	52	6673
2026-01-19 00:15:41.54	339.99	20.09	-40.3	-41.3	22.0	0.00e+00	0	41	0	1196425216	52	6691
2026-01-19 00:15:42.55	339.98	19.96	-40.3	-41.3	22.1	0.00e+00	0	40	0	1198522368	52	6665
