passes_logs/2026/01/19/R4.6S_Anadyr/R4.6S_Anadyr__20260119_171029_NOAA_20_JPSS-1_rec.log

#Pass ID: 20260119_171029_NOAA 20 (JPSS-1)
#Satellite: NOAA 20 (JPSS-1)
#Configuration: NOAA 20
#almurnet v.1.7.20251203
#Start time: 2026-01-19 17:10:31

#Version: 2.2.20231116
#Station: R4.6S_Anadyr
#Location: 177.4865 lon 64.73178 lat
#TLE: 1 43013U 17073A   26018.92475364  .00000071  00000+0  54435-4 0  9998
#TLE: 2 43013  98.7641 319.8227 0001354  33.6678 326.4584 14.19536868423299

#Time	Az	El	Level	Level2	SNR	BER	BlckErr	Temp	State	Recorded	gain1	gain2
2026-01-19 17:10:31.09	30.12	0.07	-50.5	-65.3	3.5	1.51e+00	0	37	0	0	60	66741
2026-01-19 17:10:32.10	30.07	0.13	-52.5	-67.6	3.6	1.51e+00	0	39	104	0	60	87145
2026-01-19 17:10:33.11	30.01	0.18	-52.0	-67.2	3.6	1.51e+00	0	39	104	0	60	82966
2026-01-19 17:10:34.12	29.96	0.24	-50.6	-65.9	3.6	1.51e+00	0	39	104	0	60	70925
2026-01-19 17:10:35.13	29.90	0.29	-50.8	-66.1	3.6	1.51e+00	0	39	104	0	60	72696
2026-01-19 17:10:36.14	29.85	0.35	-50.9	-66.0	3.6	1.51e+00	0	39	104	0	60	72246
2026-01-19 17:10:37.15	29.79	0.40	-50.5	-65.7	3.6	1.51e+00	0	39	104	0	60	69750
2026-01-19 17:10:38.17	29.74	0.46	-50.4	-65.6	3.6	1.51e+00	0	39	104	0	60	69015
2026-01-19 17:10:39.18	29.68	0.51	-50.3	-65.5	3.6	1.51e+00	0	39	104	0	60	68303
2026-01-19 17:10:40.19	29.62	0.57	-50.3	-65.5	3.5	1.51e+00	0	39	104	0	60	68011
2026-01-19 17:10:41.20	29.57	0.62	-50.1	-65.4	3.6	1.51e+00	0	39	104	0	60	67002
2026-01-19 17:10:42.21	29.51	0.68	-50.2	-65.4	3.6	1.51e+00	0	39	104	0	60	67685
2026-01-19 17:10:43.22	29.45	0.73	-50.1	-65.4	3.6	1.51e+00	0	39	104	0	60	67015
2026-01-19 17:10:44.23	29.40	0.79	-50.2	-65.4	3.6	1.51e+00	0	39	104	0	60	67369
2026-01-19 17:10:45.24	29.34	0.84	-50.2	-65.3	3.6	1.51e+00	0	39	104	0	60	66883
2026-01-19 17:10:46.25	29.28	0.90	-49.9	-65.1	3.6	1.51e+00	0	39	104	0	60	64927
2026-01-19 17:10:47.26	29.22	0.96	-49.7	-64.9	3.6	1.51e+00	0	39	104	0	60	63819
2026-01-19 17:10:48.27	29.16	1.01	-49.6	-64.8	3.6	1.51e+00	0	39	104	0	60	63111
2026-01-19 17:10:49.28	29.11	1.07	-49.5	-64.7	3.6	1.51e+00	0	39	104	0	60	62159
2026-01-19 17:10:50.29	29.05	1.12	-49.5	-64.7	3.6	1.51e+00	0	39	104	0	60	61848
2026-01-19 17:10:51.29	28.99	1.18	-49.3	-64.6	3.6	1.51e+00	0	39	104	0	60	61243
2026-01-19 17:10:52.30	28.93	1.24	-49.3	-64.4	3.6	1.51e+00	0	39	104	0	60	60046
2026-01-19 17:10:53.31	28.87	1.29	-49.1	-64.2	3.6	1.51e+00	0	39	104	0	60	58792
2026-01-19 17:10:54.33	28.81	1.35	-48.9	-64.0	3.6	1.51e+00	0	39	104	0	60	57325
2026-01-19 17:10:55.34	28.75	1.41	-48.5	-63.6	3.5	1.51e+00	0	39	104	0	60	54476
2026-01-19 17:10:56.35	28.69	1.46	-48.3	-63.5	3.6	1.51e+00	0	39	104	0	60	54034
2026-01-19 17:10:57.36	28.63	1.52	-48.3	-63.5	3.6	1.51e+00	0	39	104	0	60	54027
2026-01-19 17:10:58.37	28.57	1.58	-48.3	-63.5	3.6	1.51e+00	0	39	104	0	60	53975
2026-01-19 17:10:59.38	28.51	1.63	-48.3	-63.5	3.6	1.51e+00	0	39	104	0	60	54288
2026-01-19 17:11:00.39	28.45	1.69	-48.3	-63.5	3.6	1.51e+00	0	39	104	0	60	54243
2026-01-19 17:11:01.39	28.39	1.75	-48.3	-63.5	3.6	1.51e+00	0	39	104	0	60	54261
2026-01-19 17:11:02.40	28.32	1.80	-48.3	-63.6	3.6	1.51e+00	0	39	104	0	60	54413
2026-01-19 17:11:03.41	28.26	1.86	-48.3	-63.5	3.6	1.51e+00	0	39	104	0	60	54316
2026-01-19 17:11:04.42	28.20	1.92	-48.3	-63.5	3.6	1.51e+00	0	39	104	0	60	54140
2026-01-19 17:11:05.43	28.14	1.98	-48.3	-63.5	3.6	1.51e+00	0	39	104	0	60	53921
2026-01-19 17:11:06.44	28.07	2.03	-48.3	-63.4	3.6	1.51e+00	0	39	104	0	60	53427
2026-01-19 17:11:07.45	28.01	2.09	-48.3	-63.3	3.6	1.51e+00	0	39	104	0	60	53077
2026-01-19 17:11:08.46	27.95	2.15	-48.3	-63.2	3.6	1.51e+00	0	39	104	0	60	52346
2026-01-19 17:11:09.47	27.89	2.21	-48.3	-63.3	3.6	1.51e+00	0	39	104	0	60	52672
2026-01-19 17:11:10.48	27.82	2.26	-48.3	-63.3	3.6	1.51e+00	0	39	104	0	60	53130
2026-01-19 17:11:11.49	27.76	2.32	-48.3	-63.4	3.6	1.51e+00	0	39	104	0	60	53542
2026-01-19 17:11:12.50	27.69	2.38	-48.3	-63.5	3.6	1.51e+00	0	39	104	0	60	54179
2026-01-19 17:11:13.51	27.63	2.44	-48.3	-63.5	3.6	1.51e+00	0	39	104	0	60	53881
2026-01-19 17:11:14.52	27.56	2.50	-48.3	-63.5	3.6	1.51e+00	0	39	104	0	60	53926
2026-01-19 17:11:15.53	27.50	2.55	-48.3	-63.5	3.6	1.51e+00	0	39	104	0	60	54024
2026-01-19 17:11:16.54	27.43	2.61	-48.3	-63.5	3.6	1.51e+00	0	39	104	0	60	54105
2026-01-19 17:11:17.55	27.37	2.67	-48.3	-63.3	3.6	1.51e+00	0	39	104	0	60	52997
2026-01-19 17:11:18.56	27.30	2.73	-48.3	-63.1	3.6	1.51e+00	0	39	104	0	60	51632
2026-01-19 17:11:19.57	27.24	2.79	-48.3	-62.9	3.6	1.51e+00	0	39	104	0	60	50477
2026-01-19 17:11:20.58	27.17	2.85	-48.3	-62.9	3.6	1.51e+00	0	39	104	0	60	50529
2026-01-19 17:11:21.59	27.10	2.90	-48.3	-63.2	3.6	1.51e+00	0	39	104	0	60	52025
2026-01-19 17:11:22.60	27.04	2.96	-48.3	-63.3	3.6	1.51e+00	0	39	104	0	60	52845
2026-01-19 17:11:23.61	26.97	3.02	-48.2	-61.0	3.6	1.51e+00	0	39	104	0	60	40668
2026-01-19 17:11:24.62	26.90	3.08	-48.1	-59.2	4.3	1.38e+00	74	39	104	0	60	32877
2026-01-19 17:11:25.63	26.83	3.14	-47.7	-55.5	5.9	5.86e-01	0	39	0	1048576	60	21422
2026-01-19 17:11:26.64	26.77	3.20	-47.1	-52.8	9.0	1.72e-01	77	39	0	3145728	60	15827
2026-01-19 17:11:27.65	26.70	3.26	-46.9	-52.1	9.9	9.69e-03	78	40	0	4194304	60	14527
2026-01-19 17:11:28.66	26.63	3.32	-46.6	-51.4	11.0	2.49e-03	0	39	0	6291456	60	13362
2026-01-19 17:11:29.67	26.56	3.38	-46.8	-51.9	10.2	1.38e-03	92	39	0	8388608	60	14277
2026-01-19 17:11:30.68	26.49	3.44	-47.9	-55.7	6.2	8.44e-02	0	39	0	10485760	60	21940
2026-01-19 17:11:31.69	26.42	3.50	-46.8	-51.3	11.0	8.56e-01	90	39	0	11534336	60	13296
2026-01-19 17:11:32.70	26.35	3.55	-45.9	-49.2	13.7	3.62e-01	5	39	0	13631488	60	10464
2026-01-19 17:11:33.71	26.28	3.61	-45.5	-49.0	8.9	1.22e-05	3	39	0	15728640	60	10155
2026-01-19 17:11:34.72	26.21	3.67	-48.3	-62.3	3.8	1.51e+00	0	39	104	15728640	60	47316
2026-01-19 17:11:35.73	26.14	3.73	-44.3	-46.9	15.6	2.44e-01	6	39	104	15728640	60	7978
2026-01-19 17:11:36.74	26.07	3.79	-43.7	-45.9	16.8	0.00e+00	21	39	0	16777216	60	7136
2026-01-19 17:11:37.75	26.00	3.85	-44.1	-46.5	16.1	0.00e+00	2	39	0	18874368	60	7630
2026-01-19 17:11:38.76	25.92	3.91	-43.8	-46.0	16.8	0.00e+00	92	39	0	20971520	60	7206
2026-01-19 17:11:39.77	25.85	3.97	-43.6	-45.6	17.1	0.00e+00	85	39	0	23068672	60	6911
2026-01-19 17:11:40.78	25.78	4.04	-43.1	-45.0	17.7	0.00e+00	84	39	0	24117248	60	6446
2026-01-19 17:11:41.79	25.71	4.10	-43.4	-45.4	17.2	0.00e+00	82	39	0	26214400	60	6718
2026-01-19 17:11:42.80	25.63	4.16	-43.2	-45.1	17.7	0.00e+00	82	39	0	28311552	60	6535
2026-01-19 17:11:43.81	25.56	4.22	-43.3	-45.2	17.5	0.00e+00	0	39	0	30408704	60	6571
2026-01-19 17:11:44.82	25.49	4.28	-43.4	-45.4	17.4	0.00e+00	0	39	0	32505856	60	6749
2026-01-19 17:11:45.83	25.41	4.34	-43.2	-45.0	17.9	0.00e+00	92	39	0	33554432	60	6450
2026-01-19 17:11:46.84	25.34	4.40	-43.2	-45.1	17.8	0.00e+00	0	39	0	35651584	60	6505
2026-01-19 17:11:47.85	25.26	4.46	-42.9	-44.7	18.1	0.00e+00	92	39	0	37748736	60	6218
2026-01-19 17:11:48.86	25.19	4.52	-43.0	-44.8	18.1	0.00e+00	7	39	0	39845888	60	6305
2026-01-19 17:11:49.87	25.11	4.58	-43.1	-44.9	18.0	0.00e+00	0	39	0	41943040	60	6376
2026-01-19 17:11:50.88	25.04	4.64	-43.1	-44.9	18.0	0.00e+00	6	40	0	42991616	60	6370
2026-01-19 17:11:51.89	24.96	4.70	-43.1	-45.0	18.0	0.00e+00	7	39	0	45088768	60	6410
2026-01-19 17:11:52.90	24.89	4.77	-42.8	-44.5	18.5	0.00e+00	69	39	0	47185920	60	6042
2026-01-19 17:11:53.91	24.81	4.83	-42.8	-44.5	18.3	0.00e+00	0	39	0	49283072	58	6841
2026-01-19 17:11:54.92	24.73	4.89	-42.9	-44.6	18.3	0.00e+00	92	39	0	51380224	58	6884
2026-01-19 17:11:55.93	24.66	4.95	-42.7	-44.4	18.4	0.00e+00	5	39	0	52428800	58	6742
2026-01-19 17:11:56.93	24.58	5.01	-42.6	-44.3	18.5	0.00e+00	4	39	0	54525952	58	6635
2026-01-19 17:11:57.95	24.50	5.07	-42.7	-44.3	18.5	0.00e+00	6	39	0	56623104	58	6691
2026-01-19 17:11:58.95	24.42	5.14	-42.8	-44.5	18.4	0.00e+00	4	39	0	58720256	58	6780
2026-01-19 17:11:59.96	24.34	5.20	-42.6	-44.3	18.6	0.00e+00	10	39	0	60817408	58	6634
2026-01-19 17:12:00.97	24.27	5.26	-42.5	-44.1	18.8	0.00e+00	5	39	0	62914560	58	6536
2026-01-19 17:12:01.98	24.19	5.32	-42.7	-44.3	18.6	0.00e+00	92	39	0	63963136	58	6679
2026-01-19 17:12:02.99	24.11	5.38	-42.7	-44.3	18.7	0.00e+00	3	40	0	66060288	58	6655
2026-01-19 17:12:04.00	24.03	5.45	-42.7	-44.3	18.6	0.00e+00	92	39	0	68157440	58	6667
2026-01-19 17:12:05.01	23.95	5.51	-42.6	-44.3	18.7	0.00e+00	78	39	0	70254592	58	6643
2026-01-19 17:12:06.01	23.87	5.57	-42.8	-44.5	18.6	0.00e+00	0	39	0	72351744	58	6817
2026-01-19 17:12:07.02	23.78	5.63	-42.6	-44.2	18.8	0.00e+00	2	40	0	73400320	58	6584
2026-01-19 17:12:08.03	23.70	5.70	-42.5	-44.1	18.8	0.00e+00	0	40	0	75497472	58	6505
2026-01-19 17:12:09.04	23.62	5.76	-42.2	-43.8	19.2	0.00e+00	92	39	0	77594624	58	6246
2026-01-19 17:12:10.05	23.54	5.82	-42.3	-43.9	19.2	0.00e+00	0	39	0	79691776	58	6336
2026-01-19 17:12:11.06	23.46	5.89	-42.2	-43.8	19.2	0.00e+00	92	40	0	81788928	58	6252
2026-01-19 17:12:12.07	23.37	5.95	-42.2	-43.6	19.4	0.00e+00	0	40	0	82837504	58	6170
2026-01-19 17:12:13.08	23.29	6.01	-42.2	-43.7	19.3	0.00e+00	0	40	0	84934656	58	6239
2026-01-19 17:12:14.08	23.21	6.08	-42.2	-43.7	19.3	0.00e+00	0	40	0	87031808	58	6187
2026-01-19 17:12:15.10	23.12	6.14	-42.4	-44.0	19.1	0.00e+00	0	40	0	89128960	58	6431
2026-01-19 17:12:16.11	23.04	6.20	-42.4	-44.0	19.2	0.00e+00	79	40	0	91226112	58	6420
2026-01-19 17:12:17.12	22.95	6.27	-42.7	-44.3	18.8	0.00e+00	6	40	0	92274688	58	6649
2026-01-19 17:12:18.13	22.87	6.33	-42.5	-44.1	19.0	0.00e+00	92	40	0	94371840	58	6476
2026-01-19 17:12:19.14	22.78	6.39	-42.5	-44.1	19.0	0.00e+00	3	40	0	96468992	58	6517
2026-01-19 17:12:20.15	22.70	6.46	-42.3	-43.8	19.2	0.00e+00	5	40	0	98566144	58	6304
2026-01-19 17:12:21.16	22.61	6.52	-42.3	-43.9	19.2	0.00e+00	6	40	0	100663296	58	6325
2026-01-19 17:12:22.17	22.52	6.59	-42.3	-43.8	19.3	0.00e+00	76	40	0	101711872	58	6250
2026-01-19 17:12:23.18	22.44	6.65	-42.3	-43.8	19.3	0.00e+00	0	40	0	103809024	58	6270
2026-01-19 17:12:24.19	22.35	6.71	-42.5	-44.0	19.1	0.00e+00	77	39	0	105906176	58	6446
2026-01-19 17:12:25.20	22.26	6.78	-42.2	-43.6	19.5	0.00e+00	91	40	0	108003328	58	6173
2026-01-19 17:12:26.21	22.17	6.84	-42.4	-43.9	19.2	0.00e+00	76	40	0	110100480	58	6333
2026-01-19 17:12:27.22	22.08	6.91	-42.3	-43.8	19.3	0.00e+00	77	39	0	111149056	58	6281
2026-01-19 17:12:28.23	21.99	6.97	-42.5	-44.0	19.2	0.00e+00	0	40	0	113246208	58	6415
2026-01-19 17:12:29.24	21.90	7.04	-42.4	-43.9	19.3	0.00e+00	76	40	0	115343360	58	6384
2026-01-19 17:12:30.25	21.81	7.10	-42.3	-43.8	19.3	0.00e+00	0	40	0	117440512	58	6265
2026-01-19 17:12:31.26	21.72	7.17	-42.3	-43.8	19.4	0.00e+00	0	40	0	119537664	58	6274
2026-01-19 17:12:32.27	21.63	7.23	-42.4	-44.0	19.2	0.00e+00	92	40	0	120586240	58	6396
2026-01-19 17:12:33.28	21.54	7.30	-42.5	-44.0	19.2	0.00e+00	0	40	0	122683392	58	6444
2026-01-19 17:12:34.29	21.45	7.36	-42.5	-44.1	19.2	0.00e+00	92	40	0	124780544	58	6477
2026-01-19 17:12:35.30	21.36	7.43	-42.1	-43.6	19.6	0.00e+00	0	40	0	126877696	58	6105
2026-01-19 17:12:36.31	21.26	7.49	-42.1	-43.6	19.6	0.00e+00	0	40	0	128974848	58	6118
2026-01-19 17:12:37.32	21.17	7.56	-42.2	-43.6	19.6	0.00e+00	0	40	0	131072000	58	6154
2026-01-19 17:12:38.33	21.08	7.63	-42.1	-43.6	19.6	0.00e+00	0	40	0	132120576	58	6113
2026-01-19 17:12:39.34	20.98	7.69	-42.1	-43.5	19.7	0.00e+00	90	40	0	134217728	58	6078
2026-01-19 17:12:40.35	20.89	7.76	-42.1	-43.6	19.6	0.00e+00	2	40	0	136314880	58	6120
2026-01-19 17:12:41.36	20.79	7.82	-42.1	-43.5	19.7	0.00e+00	90	40	0	138412032	58	6068
2026-01-19 17:12:42.37	20.70	7.89	-42.1	-43.6	19.6	0.00e+00	2	40	0	140509184	58	6115
2026-01-19 17:12:43.38	20.60	7.96	-42.1	-43.6	19.6	0.00e+00	0	40	0	141557760	58	6107
2026-01-19 17:12:44.39	20.51	8.02	-42.4	-43.8	19.5	0.00e+00	6	40	0	143654912	58	6310
2026-01-19 17:12:45.40	20.41	8.09	-42.2	-43.7	19.5	0.00e+00	75	40	0	145752064	58	6219
2026-01-19 17:12:46.41	20.31	8.15	-42.2	-43.6	19.7	0.00e+00	0	40	0	147849216	58	6145
2026-01-19 17:12:47.42	20.21	8.22	-42.2	-43.6	19.7	0.00e+00	75	40	0	149946368	58	6135
2026-01-19 17:12:48.42	20.12	8.29	-42.3	-43.8	19.5	0.00e+00	92	40	0	150994944	58	6249
2026-01-19 17:12:49.43	20.02	8.35	-42.5	-44.0	19.4	0.00e+00	75	40	0	153092096	58	6401
2026-01-19 17:12:50.44	19.92	8.42	-42.1	-43.5	19.8	0.00e+00	68	40	0	155189248	58	6099
2026-01-19 17:12:51.45	19.82	8.49	-42.2	-43.7	19.7	0.00e+00	0	40	0	157286400	58	6188
2026-01-19 17:12:52.46	19.72	8.55	-42.2	-43.7	19.8	0.00e+00	0	40	0	159383552	58	6210
2026-01-19 17:12:53.47	19.62	8.62	-42.4	-43.8	19.5	0.00e+00	0	40	0	160432128	58	6314
2026-01-19 17:12:54.48	19.52	8.69	-42.2	-43.7	19.7	0.00e+00	0	40	0	162529280	58	6197
2026-01-19 17:12:55.49	19.42	8.76	-42.2	-43.6	19.7	0.00e+00	92	40	0	164626432	58	6132
2026-01-19 17:12:56.50	19.32	8.82	-42.2	-43.7	19.7	0.00e+00	0	40	0	166723584	58	6194
2026-01-19 17:12:57.50	19.21	8.89	-42.3	-43.7	19.6	0.00e+00	92	40	0	168820736	58	6234
2026-01-19 17:12:58.51	19.11	8.96	-42.2	-43.6	19.8	0.00e+00	0	40	0	169869312	58	6140
2026-01-19 17:12:59.52	19.01	9.02	-42.2	-43.6	19.9	0.00e+00	0	40	0	171966464	58	6122
2026-01-19 17:13:00.53	18.90	9.09	-42.1	-43.5	20.0	0.00e+00	0	40	0	174063616	58	6040
2026-01-19 17:13:01.54	18.80	9.16	-42.3	-43.7	19.6	0.00e+00	6	40	0	176160768	58	6230
2026-01-19 17:13:02.55	18.70	9.23	-42.2	-43.6	19.9	0.00e+00	90	40	0	178257920	58	6142
2026-01-19 17:13:03.56	18.59	9.30	-42.1	-43.5	19.9	0.00e+00	75	40	0	179306496	58	6044
2026-01-19 17:13:04.57	18.48	9.36	-41.9	-43.3	20.2	0.00e+00	92	40	0	181403648	58	5918
2026-01-19 17:13:05.58	18.38	9.43	-41.9	-43.2	20.3	0.00e+00	0	40	0	183500800	58	5876
2026-01-19 17:13:06.59	18.27	9.50	-41.8	-43.1	20.4	0.00e+00	1	40	0	185597952	58	5796
2026-01-19 17:13:07.60	18.16	9.57	-41.8	-43.1	20.2	0.00e+00	0	40	0	187695104	56	6510
2026-01-19 17:13:08.61	18.06	9.64	-41.8	-43.2	20.3	0.00e+00	81	40	0	188743680	56	6541
2026-01-19 17:13:09.62	17.95	9.71	-41.6	-42.9	20.5	0.00e+00	0	40	0	190840832	56	6343
2026-01-19 17:13:10.63	17.84	9.77	-41.6	-42.9	20.6	0.00e+00	82	40	0	192937984	56	6369
2026-01-19 17:13:11.64	17.73	9.84	-41.6	-42.9	20.6	0.00e+00	92	40	0	195035136	56	6366
2026-01-19 17:13:12.65	17.62	9.91	-41.6	-42.8	20.6	0.00e+00	80	40	0	197132288	56	6317
2026-01-19 17:13:13.66	17.51	9.98	-41.5	-42.8	20.6	0.00e+00	92	40	0	198180864	56	6315
2026-01-19 17:13:14.67	17.40	10.05	-41.5	-42.9	20.6	0.00e+00	6	40	0	200278016	56	6347
2026-01-19 17:13:15.68	17.29	10.12	-41.5	-42.8	20.7	0.00e+00	4	40	0	202375168	56	6296
2026-01-19 17:13:16.69	17.17	10.19	-41.6	-42.9	20.6	0.00e+00	5	40	0	204472320	56	6366
2026-01-19 17:13:17.70	17.06	10.26	-41.6	-42.9	20.6	0.00e+00	0	40	0	206569472	56	6352
2026-01-19 17:13:18.71	16.95	10.33	-41.5	-42.7	20.8	0.00e+00	92	40	0	208666624	56	6221
2026-01-19 17:13:19.72	16.83	10.40	-41.7	-42.9	20.7	0.00e+00	6	40	0	209715200	56	6363
2026-01-19 17:13:20.72	16.72	10.46	-41.5	-42.8	20.6	0.00e+00	91	40	0	211812352	56	6266
2026-01-19 17:13:21.73	16.61	10.53	-41.7	-43.0	20.6	0.00e+00	0	40	0	213909504	56	6427
2026-01-19 17:13:22.74	16.49	10.60	-41.7	-43.0	20.5	0.00e+00	6	40	0	216006656	56	6407
2026-01-19 17:13:23.75	16.37	10.67	-41.7	-43.0	20.4	0.00e+00	6	40	0	217055232	56	6416
2026-01-19 17:13:24.76	16.26	10.74	-41.9	-43.2	20.4	0.00e+00	7	40	0	219152384	56	6549
2026-01-19 17:13:25.77	16.14	10.81	-41.9	-43.2	20.3	0.00e+00	54	40	0	221249536	56	6596
2026-01-19 17:13:26.78	16.02	10.88	-41.9	-43.2	20.2	0.00e+00	79	40	0	223346688	56	6600
2026-01-19 17:13:27.79	15.90	10.95	-41.8	-43.1	20.5	0.00e+00	92	40	0	225443840	56	6501
2026-01-19 17:13:28.80	15.78	11.02	-41.9	-43.3	20.4	0.00e+00	79	40	0	227540992	56	6624
2026-01-19 17:13:29.81	15.67	11.09	-42.0	-43.3	20.2	0.00e+00	3	40	0	228589568	56	6674
2026-01-19 17:13:30.82	15.55	11.16	-42.2	-43.6	20.1	0.00e+00	0	40	0	230686720	56	6893
2026-01-19 17:13:31.83	15.42	11.23	-41.7	-43.0	20.6	0.00e+00	81	40	0	232783872	56	6436
2026-01-19 17:13:32.84	15.30	11.30	-41.6	-42.8	20.7	0.00e+00	0	40	0	234881024	56	6311
2026-01-19 17:13:33.85	15.18	11.37	-41.7	-43.0	20.6	0.00e+00	0	40	0	236978176	56	6402
2026-01-19 17:13:34.86	15.06	11.44	-41.7	-43.0	20.6	0.00e+00	92	40	0	238026752	56	6392
2026-01-19 17:13:35.87	14.94	11.52	-41.6	-42.9	20.6	0.00e+00	6	40	0	240123904	56	6348
2026-01-19 17:13:36.88	14.81	11.59	-41.6	-42.9	20.7	0.00e+00	92	40	0	242221056	56	6353
2026-01-19 17:13:37.89	14.69	11.66	-41.5	-42.8	20.7	0.00e+00	0	40	0	244318208	56	6279
2026-01-19 17:13:38.90	14.56	11.73	-41.8	-43.1	20.4	0.00e+00	6	40	0	246415360	56	6489
2026-01-19 17:13:39.91	14.44	11.80	-41.4	-42.6	21.0	0.00e+00	5	40	0	247463936	56	6140
2026-01-19 17:13:40.92	14.31	11.87	-41.6	-42.9	20.8	0.00e+00	7	40	0	249561088	56	6334
2026-01-19 17:13:41.93	14.18	11.94	-41.6	-42.8	20.8	0.00e+00	90	40	0	251658240	56	6316
2026-01-19 17:13:42.94	14.06	12.01	-41.6	-42.9	20.7	0.00e+00	6	40	0	253755392	56	6360
2026-01-19 17:13:43.95	13.93	12.08	-41.8	-43.1	20.6	0.00e+00	91	40	0	255852544	56	6478
2026-01-19 17:13:44.96	13.80	12.15	-41.4	-42.6	20.8	0.00e+00	73	40	0	256901120	56	6166
2026-01-19 17:13:45.97	13.67	12.23	-41.7	-43.0	20.8	0.00e+00	8	40	0	258998272	56	6431
2026-01-19 17:13:46.98	13.54	12.30	-41.6	-42.8	20.9	0.00e+00	74	40	0	261095424	56	6316
2026-01-19 17:13:47.99	13.41	12.37	-41.6	-42.8	20.9	0.00e+00	7	40	0	263192576	56	6312
2026-01-19 17:13:49.00	13.28	12.44	-41.4	-42.6	20.9	0.00e+00	15	40	0	265289728	56	6141
2026-01-19 17:13:50.01	13.15	12.51	-41.4	-42.6	21.0	0.00e+00	9	40	0	266338304	56	6122
2026-01-19 17:13:51.02	13.01	12.58	-41.2	-42.4	21.3	0.00e+00	92	40	0	268435456	56	5976
2026-01-19 17:13:52.03	12.88	12.65	-41.0	-42.1	21.5	0.00e+00	74	40	0	270532608	56	5793
2026-01-19 17:13:53.04	12.75	12.73	-41.0	-42.2	21.4	0.00e+00	0	40	0	272629760	56	5833
2026-01-19 17:13:54.04	12.61	12.80	-41.0	-42.2	21.5	0.00e+00	0	40	0	274726912	56	5854
2026-01-19 17:13:55.05	12.48	12.87	-41.0	-42.1	21.6	0.00e+00	0	40	0	275775488	56	5790
2026-01-19 17:13:56.06	12.34	12.94	-40.9	-42.0	21.6	0.00e+00	9	40	0	277872640	56	5756
2026-01-19 17:13:57.06	12.21	13.01	-40.9	-42.1	21.4	0.00e+00	0	40	0	279969792	56	5765
2026-01-19 17:13:58.07	12.07	13.08	-41.0	-42.1	21.5	0.00e+00	92	40	0	282066944	56	5817
2026-01-19 17:13:59.08	11.93	13.16	-41.0	-42.2	20.7	0.00e+00	0	40	0	284164096	56	5848
2026-01-19 17:14:00.09	11.79	13.23	-41.2	-42.4	21.1	0.00e+00	82	40	0	285212672	56	5976
2026-01-19 17:14:01.10	11.65	13.30	-41.0	-42.1	21.4	0.00e+00	0	40	0	287309824	56	5821
2026-01-19 17:14:02.11	11.51	13.37	-41.0	-42.1	21.4	0.00e+00	7	40	0	289406976	56	5820
2026-01-19 17:14:03.12	11.37	13.44	-40.9	-42.1	21.6	0.00e+00	0	40	0	291504128	56	5775
2026-01-19 17:14:04.13	11.23	13.52	-41.0	-42.1	21.5	0.00e+00	0	40	0	293601280	56	5827
2026-01-19 17:14:05.14	11.09	13.59	-40.8	-42.0	21.6	0.00e+00	92	40	0	295698432	56	5716
2026-01-19 17:14:06.15	10.94	13.66	-40.9	-42.0	21.6	0.00e+00	0	40	0	296747008	56	5754
2026-01-19 17:14:07.16	10.80	13.73	-40.8	-42.0	21.6	0.00e+00	92	40	0	298844160	56	5707
2026-01-19 17:14:08.17	10.66	13.81	-40.7	-41.9	21.8	0.00e+00	78	40	0	300941312	54	6321
2026-01-19 17:14:09.18	10.51	13.88	-40.6	-41.8	21.8	0.00e+00	1	40	0	303038464	54	6259
2026-01-19 17:14:10.19	10.37	13.95	-40.9	-42.0	21.6	0.00e+00	3	40	0	305135616	54	6420
2026-01-19 17:14:11.20	10.22	14.02	-40.6	-41.6	21.9	0.00e+00	1	40	0	306184192	54	6167
2026-01-19 17:14:12.21	10.07	14.10	-40.6	-41.7	21.9	0.00e+00	92	40	0	308281344	54	6201
2026-01-19 17:14:13.22	9.92	14.17	-40.5	-41.6	21.9	0.00e+00	79	40	0	310378496	54	6136
2026-01-19 17:14:14.23	9.77	14.24	-40.4	-41.5	22.0	0.00e+00	91	40	0	312475648	54	6041
2026-01-19 17:14:15.23	9.63	14.31	-40.4	-41.4	22.0	0.00e+00	72	40	0	314572800	54	6019
2026-01-19 17:14:16.25	9.48	14.39	-40.3	-41.3	22.2	0.00e+00	91	40	0	315621376	54	5944
2026-01-19 17:14:17.25	9.33	14.46	-40.4	-41.4	22.2	0.00e+00	72	40	0	317718528	54	6028
2026-01-19 17:14:18.26	9.17	14.53	-40.3	-41.4	22.2	0.00e+00	0	40	0	319815680	54	5975
2026-01-19 17:14:19.28	9.02	14.60	-40.4	-41.4	22.0	0.00e+00	0	40	0	321912832	54	6023
2026-01-19 17:14:20.29	8.87	14.68	-40.4	-41.5	22.1	0.00e+00	0	40	0	324009984	54	6051
2026-01-19 17:14:21.30	8.71	14.75	-40.5	-41.6	21.9	0.00e+00	92	40	0	325058560	54	6161
2026-01-19 17:14:22.30	8.56	14.82	-40.4	-41.5	22.1	0.00e+00	0	40	0	327155712	54	6064
2026-01-19 17:14:23.31	8.40	14.89	-40.5	-41.6	21.8	0.00e+00	90	40	0	329252864	54	6150
2026-01-19 17:14:24.32	8.25	14.96	-40.6	-41.7	21.9	0.00e+00	10	40	0	331350016	54	6192
2026-01-19 17:14:25.33	8.09	15.04	-41.0	-42.1	21.4	0.00e+00	8	40	0	333447168	54	6517
2026-01-19 17:14:26.34	7.93	15.11	-40.7	-41.8	21.8	0.00e+00	0	40	0	334495744	54	6284
2026-01-19 17:14:27.35	7.77	15.18	-40.8	-41.9	21.6	0.00e+00	0	40	0	336592896	54	6375
2026-01-19 17:14:28.36	7.61	15.26	-40.9	-42.0	21.5	0.00e+00	92	40	0	338690048	54	6450
2026-01-19 17:14:29.37	7.45	15.33	-40.8	-41.9	21.7	0.00e+00	73	40	0	340787200	54	6343
2026-01-19 17:14:30.38	7.29	15.40	-40.8	-41.9	21.6	0.00e+00	92	40	0	342884352	54	6372
2026-01-19 17:14:31.39	7.13	15.47	-40.8	-42.0	21.6	0.00e+00	9	40	0	343932928	54	6396
2026-01-19 17:14:32.40	6.97	15.55	-40.9	-42.0	21.6	0.00e+00	72	40	0	346030080	54	6458
2026-01-19 17:14:33.41	6.80	15.62	-41.1	-42.3	21.4	0.00e+00	0	40	0	348127232	54	6631
2026-01-19 17:14:34.42	6.64	15.69	-40.9	-42.0	21.6	0.00e+00	0	40	0	350224384	54	6447
2026-01-19 17:14:35.43	6.47	15.76	-41.1	-42.3	21.3	0.00e+00	2	40	0	352321536	54	6618
2026-01-19 17:14:36.43	6.31	15.83	-41.2	-42.4	21.3	0.00e+00	78	40	0	353370112	54	6715
2026-01-19 17:14:37.44	6.14	15.91	-41.0	-42.1	21.5	0.00e+00	92	40	0	355467264	54	6516
2026-01-19 17:14:38.45	5.98	15.98	-40.9	-42.1	21.5	0.00e+00	0	40	0	357564416	54	6501
2026-01-19 17:14:39.46	5.81	16.05	-41.1	-42.2	21.4	0.00e+00	0	40	0	359661568	54	6583
2026-01-19 17:14:40.47	5.64	16.12	-41.1	-42.3	21.4	0.00e+00	0	40	0	361758720	54	6674
2026-01-19 17:14:41.48	5.47	16.20	-41.2	-42.4	21.3	0.00e+00	0	40	0	363855872	54	6748
2026-01-19 17:14:42.49	5.30	16.27	-41.0	-42.2	21.4	0.00e+00	0	40	0	364904448	54	6561
2026-01-19 17:14:43.50	5.13	16.34	-41.4	-42.6	21.1	0.00e+00	0	40	0	367001600	54	6895
2026-01-19 17:14:44.51	4.95	16.41	-40.9	-42.0	21.6	0.00e+00	92	40	0	369098752	54	6438
2026-01-19 17:14:45.52	4.78	16.48	-40.9	-42.0	21.6	0.00e+00	0	40	0	371195904	54	6464
2026-01-19 17:14:46.53	4.61	16.56	-41.1	-42.3	21.3	0.00e+00	90	40	0	373293056	54	6633
2026-01-19 17:14:47.54	4.43	16.63	-41.0	-42.2	21.4	0.00e+00	2	40	0	374341632	54	6543
2026-01-19 17:14:48.55	4.25	16.70	-40.9	-42.0	21.5	0.00e+00	9	40	0	376438784	54	6436
2026-01-19 17:14:49.56	4.08	16.77	-41.0	-42.1	21.6	0.00e+00	0	40	0	378535936	54	6530
2026-01-19 17:14:50.57	3.90	16.84	-41.1	-42.2	21.5	0.00e+00	0	40	0	380633088	54	6561
2026-01-19 17:14:51.58	3.72	16.92	-41.0	-42.1	21.6	0.00e+00	90	40	0	382730240	54	6510
2026-01-19 17:14:52.59	3.54	16.99	-41.0	-42.2	21.4	0.00e+00	3	40	0	383778816	54	6579
2026-01-19 17:14:53.59	3.36	17.06	-41.2	-42.4	21.4	0.00e+00	90	40	0	385875968	54	6708
2026-01-19 17:14:54.60	3.18	17.13	-41.3	-42.5	21.4	0.00e+00	74	40	0	387973120	54	6805
2026-01-19 17:14:55.61	3.00	17.20	-41.1	-42.3	21.5	0.00e+00	0	40	0	390070272	54	6635
2026-01-19 17:14:56.62	2.82	17.27	-41.0	-42.2	21.4	0.00e+00	72	40	0	392167424	54	6553
2026-01-19 17:14:57.63	2.63	17.34	-41.0	-42.1	21.6	0.00e+00	5	40	0	393216000	54	6534
2026-01-19 17:14:58.64	2.45	17.41	-41.3	-42.4	21.2	0.00e+00	8	40	0	395313152	54	6766
2026-01-19 17:14:59.65	2.26	17.48	-41.1	-42.2	21.6	0.00e+00	0	40	0	397410304	54	6609
2026-01-19 17:15:00.66	2.08	17.55	-41.0	-42.1	21.5	0.00e+00	92	40	0	399507456	54	6526
2026-01-19 17:15:01.67	1.89	17.63	-41.0	-42.2	21.7	0.00e+00	6	40	0	401604608	54	6543
2026-01-19 17:15:02.68	1.70	17.70	-41.0	-42.1	21.6	0.00e+00	71	40	0	402653184	54	6513
2026-01-19 17:15:03.69	1.51	17.77	-41.1	-42.2	21.6	0.00e+00	6	40	0	404750336	54	6555
2026-01-19 17:15:04.70	1.32	17.84	-41.0	-42.1	21.6	0.00e+00	5	40	0	406847488	54	6530
2026-01-19 17:15:05.71	1.13	17.91	-41.0	-42.2	21.7	0.00e+00	9	40	0	408944640	54	6541
2026-01-19 17:15:06.72	0.94	17.98	-40.8	-41.9	21.8	0.00e+00	5	40	0	411041792	54	6356
2026-01-19 17:15:07.72	0.75	18.05	-40.8	-41.9	21.9	0.00e+00	92	40	0	412090368	54	6380
2026-01-19 17:15:08.73	0.55	18.12	-40.8	-41.9	21.8	0.00e+00	3	40	0	414187520	54	6388
2026-01-19 17:15:09.74	0.36	18.19	-40.8	-41.9	21.7	0.00e+00	92	40	0	416284672	54	6367
2026-01-19 17:15:10.75	0.16	18.26	-40.7	-41.8	21.8	0.00e+00	5	40	0	418381824	54	6257
2026-01-19 17:15:11.76	359.97	18.32	-40.9	-42.0	21.6	0.00e+00	78	40	0	420478976	54	6415
2026-01-19 17:15:12.77	359.77	18.39	-40.7	-41.8	21.9	0.00e+00	86	40	0	421527552	54	6311
2026-01-19 17:15:13.78	359.57	18.46	-40.6	-41.7	22.0	0.00e+00	0	40	0	423624704	54	6182
2026-01-19 17:15:14.79	359.37	18.53	-41.1	-42.2	21.6	0.00e+00	92	40	0	425721856	54	6578
2026-01-19 17:15:15.80	359.17	18.60	-40.1	-41.2	22.5	0.00e+00	1	40	0	427819008	54	5834
2026-01-19 17:15:16.81	358.97	18.67	-40.2	-41.2	22.5	0.00e+00	91	40	0	429916160	54	5891
2026-01-19 17:15:17.82	358.77	18.74	-40.3	-41.3	22.5	0.00e+00	0	40	0	432013312	54	5945
2026-01-19 17:15:18.83	358.57	18.80	-40.0	-41.0	22.8	0.00e+00	0	40	0	433061888	54	5718
2026-01-19 17:15:19.84	358.36	18.87	-39.9	-40.8	22.8	0.00e+00	78	40	0	435159040	54	5620
2026-01-19 17:15:20.85	358.16	18.94	-39.5	-40.4	23.2	0.00e+00	76	40	0	437256192	52	6016
2026-01-19 17:15:21.86	357.95	19.01	-39.4	-40.4	23.1	0.00e+00	0	40	0	439353344	52	5977
2026-01-19 17:15:22.87	357.75	19.08	-39.2	-40.1	23.5	0.00e+00	6	40	0	441450496	52	5779
2026-01-19 17:15:23.88	357.54	19.14	-39.1	-40.0	23.4	0.00e+00	92	40	0	442499072	52	5751
2026-01-19 17:15:24.88	357.33	19.21	-39.0	-39.9	23.6	0.00e+00	7	40	0	444596224	52	5677
2026-01-19 17:15:25.89	357.13	19.28	-39.0	-39.9	23.6	0.00e+00	80	40	0	446693376	52	5655
2026-01-19 17:15:26.90	356.92	19.34	-39.2	-40.1	23.5	0.00e+00	0	40	0	448790528	52	5785
2026-01-19 17:15:27.91	356.70	19.41	-39.1	-40.0	23.6	0.00e+00	6	40	0	450887680	52	5751
2026-01-19 17:15:28.92	356.49	19.47	-38.9	-39.8	23.7	0.00e+00	0	40	0	451936256	52	5603
2026-01-19 17:15:29.93	356.28	19.54	-38.7	-39.6	23.9	0.00e+00	10	40	0	454033408	50	6144
2026-01-19 17:15:30.94	356.07	19.61	-38.6	-39.5	23.8	0.00e+00	92	40	0	456130560	50	6089
2026-01-19 17:15:31.95	355.85	19.67	-38.5	-39.4	23.9	0.00e+00	4	40	0	458227712	50	6003
2026-01-19 17:15:32.96	355.64	19.74	-38.6	-39.5	23.9	0.00e+00	90	40	0	460324864	50	6079
2026-01-19 17:15:33.97	355.42	19.80	-38.6	-39.5	23.9	0.00e+00	76	40	0	461373440	50	6083
2026-01-19 17:15:34.98	355.20	19.86	-38.5	-39.4	24.0	0.00e+00	71	40	0	463470592	50	6010
2026-01-19 17:15:35.99	354.98	19.93	-38.5	-39.4	23.9	0.00e+00	6	40	0	465567744	50	6013
2026-01-19 17:15:37.00	354.76	19.99	-38.5	-39.3	24.0	0.00e+00	11	40	0	467664896	50	5959
2026-01-19 17:15:38.00	354.54	20.06	-38.5	-39.4	24.0	0.00e+00	92	40	0	469762048	50	6025
2026-01-19 17:15:39.01	354.32	20.12	-38.6	-39.5	23.4	0.00e+00	71	40	0	470810624	50	6076
2026-01-19 17:15:40.02	354.10	20.18	-38.6	-39.5	24.1	0.00e+00	92	40	0	472907776	50	6089
2026-01-19 17:15:41.03	353.88	20.25	-38.6	-39.5	24.1	0.00e+00	0	40	0	475004928	50	6083
2026-01-19 17:15:42.04	353.65	20.31	-38.7	-39.6	24.1	0.00e+00	83	40	0	477102080	50	6114
2026-01-19 17:15:43.05	353.43	20.37	-38.6	-39.5	24.1	0.00e+00	73	40	0	479199232	50	6034
2026-01-19 17:15:44.06	353.20	20.43	-38.8	-39.6	23.9	0.00e+00	0	40	0	480247808	50	6173
2026-01-19 17:15:45.07	352.98	20.49	-38.3	-39.2	24.2	0.00e+00	75	40	0	482344960	50	5856
2026-01-19 17:15:46.08	352.75	20.55	-38.2	-39.0	24.4	0.00e+00	0	40	0	484442112	50	5754
2026-01-19 17:15:47.09	352.52	20.62	-38.1	-39.0	24.4	0.00e+00	92	40	0	486539264	50	5706
2026-01-19 17:15:48.10	352.29	20.68	-38.3	-39.1	24.2	0.00e+00	2	40	0	488636416	50	5821
2026-01-19 17:15:49.11	352.06	20.74	-38.3	-39.1	24.2	0.00e+00	89	40	0	489684992	50	5818
2026-01-19 17:15:50.12	351.83	20.80	-38.5	-39.4	24.0	0.00e+00	0	40	0	491782144	50	6014
2026-01-19 17:15:51.13	351.60	20.86	-38.3	-39.2	24.2	0.00e+00	9	40	0	493879296	50	5858
2026-01-19 17:15:52.14	351.36	20.91	-38.4	-39.3	24.2	0.00e+00	0	40	0	495976448	50	5927
2026-01-19 17:15:53.15	351.13	20.97	-38.5	-39.3	24.3	0.00e+00	8	40	0	498073600	50	5940
2026-01-19 17:15:54.16	350.89	21.03	-38.3	-39.2	24.3	0.00e+00	91	40	0	499122176	50	5860
2026-01-19 17:15:55.17	350.66	21.09	-38.5	-39.4	24.2	0.00e+00	3	40	0	501219328	50	5984
2026-01-19 17:15:56.18	350.42	21.15	-38.6	-39.4	24.1	0.00e+00	90	40	0	503316480	50	6029
2026-01-19 17:15:57.19	350.18	21.20	-38.7	-39.6	24.0	0.00e+00	78	40	0	505413632	50	6114
2026-01-19 17:15:58.20	349.95	21.26	-38.5	-39.3	24.1	0.00e+00	73	40	0	507510784	50	5944
2026-01-19 17:15:59.20	349.71	21.32	-38.6	-39.5	24.1	0.00e+00	9	40	0	508559360	50	6041
2026-01-19 17:16:00.21	349.47	21.37	-38.6	-39.5	24.1	0.00e+00	0	40	0	510656512	50	6064
2026-01-19 17:16:01.22	349.23	21.43	-38.7	-39.5	24.0	0.00e+00	92	40	0	512753664	50	6084
2026-01-19 17:16:02.24	348.98	21.48	-38.8	-39.6	23.8	0.00e+00	0	40	0	514850816	50	6171
2026-01-19 17:16:03.24	348.74	21.54	-38.9	-39.8	23.8	0.00e+00	90	40	0	516947968	50	6251
2026-01-19 17:16:04.25	348.50	21.59	-39.3	-40.2	23.9	0.00e+00	78	40	0	519045120	50	6572
2026-01-19 17:16:05.26	348.25	21.65	-39.1	-40.0	23.7	0.00e+00	2	40	0	520093696	50	6395
2026-01-19 17:16:06.27	348.01	21.70	-39.0	-39.9	23.8	0.00e+00	0	40	0	522190848	50	6370
2026-01-19 17:16:07.28	347.76	21.75	-38.7	-39.6	24.1	0.00e+00	2	40	0	524288000	50	6109
2026-01-19 17:16:08.29	347.51	21.81	-38.5	-39.3	24.2	0.00e+00	1	40	0	526385152	50	5964
2026-01-19 17:16:09.30	347.27	21.86	-38.6	-39.4	24.3	0.00e+00	2	40	0	528482304	50	6008
2026-01-19 17:16:10.31	347.02	21.91	-38.4	-39.2	24.3	0.00e+00	92	40	0	529530880	50	5876
2026-01-19 17:16:11.32	346.77	21.96	-38.5	-39.4	24.2	0.00e+00	0	40	0	531628032	50	6001
2026-01-19 17:16:12.33	346.52	22.01	-38.3	-39.1	24.3	0.00e+00	78	40	0	533725184	50	5827
2026-01-19 17:16:13.34	346.26	22.06	-38.3	-39.2	24.3	0.00e+00	2	40	0	535822336	50	5831
2026-01-19 17:16:14.35	346.01	22.11	-38.1	-38.9	24.6	0.00e+00	10	40	0	537919488	50	5687
2026-01-19 17:16:15.36	345.76	22.16	-38.2	-39.0	24.6	0.00e+00	0	40	0	538968064	50	5747
2026-01-19 17:16:16.37	345.51	22.21	-38.2	-39.0	24.6	0.00e+00	71	40	0	541065216	50	5752
2026-01-19 17:16:17.38	345.25	22.26	-38.3	-39.2	24.5	0.00e+00	91	40	0	543162368	50	5841
2026-01-19 17:16:18.39	345.00	22.30	-38.4	-39.3	24.3	0.00e+00	0	40	0	545259520	50	5903
2026-01-19 17:16:19.40	344.74	22.35	-38.5	-39.4	24.4	0.00e+00	91	40	0	547356672	50	5985
2026-01-19 17:16:20.41	344.48	22.40	-38.4	-39.2	24.4	0.00e+00	0	40	0	548405248	50	5875
2026-01-19 17:16:21.42	344.22	22.44	-38.1	-38.9	24.6	0.00e+00	0	40	0	550502400	50	5692
2026-01-19 17:16:22.43	343.97	22.49	-37.9	-38.7	24.8	0.00e+00	0	40	0	552599552	50	5531
2026-01-19 17:16:23.44	343.71	22.53	-37.8	-38.6	24.8	0.00e+00	0	40	0	554696704	48	6111
2026-01-19 17:16:24.45	343.45	22.58	-37.8	-38.6	24.8	0.00e+00	91	40	0	556793856	48	6119
2026-01-19 17:16:25.46	343.19	22.62	-37.8	-38.6	24.9	0.00e+00	72	40	0	557842432	48	6168
2026-01-19 17:16:26.46	342.93	22.67	-37.8	-38.6	24.9	0.00e+00	92	40	0	559939584	48	6168
2026-01-19 17:16:27.47	342.66	22.71	-37.9	-38.7	24.8	0.00e+00	0	40	0	562036736	48	6207
2026-01-19 17:16:28.48	342.40	22.75	-37.7	-38.5	24.9	0.00e+00	0	40	0	564133888	48	6089
2026-01-19 17:16:29.49	342.14	22.79	-37.8	-38.6	24.8	0.00e+00	0	40	0	566231040	48	6122
2026-01-19 17:16:30.50	341.87	22.83	-38.3	-39.1	24.5	0.00e+00	0	40	0	567279616	48	6490
2026-01-19 17:16:31.51	341.61	22.87	-38.0	-38.8	24.6	0.00e+00	37	40	0	569376768	48	6293
2026-01-19 17:16:32.52	341.34	22.91	-38.3	-39.1	24.4	0.00e+00	10	40	0	571473920	48	6538
2026-01-19 17:16:33.53	341.08	22.95	-38.4	-39.3	24.1	0.00e+00	92	40	0	573571072	48	6617
2026-01-19 17:16:34.54	340.81	22.99	-39.1	-40.0	23.3	0.00e+00	0	40	0	575668224	50	6440
2026-01-19 17:16:35.55	340.54	23.03	-39.1	-40.0	23.6	0.00e+00	0	40	0	576716800	50	6408
2026-01-19 17:16:36.56	340.27	23.06	-38.8	-39.7	23.9	0.00e+00	4	40	0	578813952	50	6221
2026-01-19 17:16:37.57	340.00	23.10	-39.0	-39.9	23.8	0.00e+00	77	40	0	580911104	50	6323
2026-01-19 17:16:38.58	339.73	23.14	-38.6	-39.5	24.2	0.00e+00	5	40	0	583008256	50	6056
2026-01-19 17:16:39.59	339.46	23.17	-38.6	-39.5	24.3	0.00e+00	10	40	0	585105408	50	6053
2026-01-19 17:16:40.60	339.19	23.21	-38.8	-39.6	24.0	0.00e+00	91	40	0	587202560	50	6154
2026-01-19 17:16:41.61	338.92	23.24	-38.7	-39.6	24.1	0.00e+00	8	40	0	588251136	50	6143
2026-01-19 17:16:42.61	338.65	23.27	-38.9	-39.7	23.8	0.00e+00	13	40	0	590348288	50	6242
2026-01-19 17:16:43.62	338.38	23.31	-39.5	-40.4	23.4	0.00e+00	0	40	0	592445440	50	6759
2026-01-19 17:16:44.63	338.10	23.34	-39.2	-40.1	23.5	0.00e+00	78	40	0	594542592	50	6522
2026-01-19 17:16:45.64	337.83	23.37	-39.4	-40.3	23.5	0.00e+00	77	40	0	596639744	50	6655
2026-01-19 17:16:46.65	337.55	23.40	-39.7	-40.6	23.0	0.00e+00	73	40	0	597688320	50	6925
2026-01-19 17:16:47.66	337.28	23.43	-40.5	-41.5	22.4	0.00e+00	4	40	0	599785472	52	6836
2026-01-19 17:16:48.67	337.00	23.46	-40.2	-41.2	22.5	0.00e+00	5	40	0	601882624	52	6610
2026-01-19 17:16:49.68	336.73	23.49	-40.1	-41.1	22.7	0.00e+00	92	40	0	603979776	52	6466
2026-01-19 17:16:50.69	336.45	23.52	-39.8	-40.8	23.1	0.00e+00	0	40	0	606076928	52	6252
2026-01-19 17:16:51.70	336.17	23.55	-39.8	-40.7	23.2	0.00e+00	0	40	0	607125504	52	6231
2026-01-19 17:16:52.71	335.90	23.57	-39.7	-40.6	23.1	0.00e+00	5	40	0	609222656	52	6163
2026-01-19 17:16:53.72	335.62	23.60	-39.9	-40.8	22.9	0.00e+00	5	40	0	611319808	52	6299
2026-01-19 17:16:54.72	335.34	23.62	-40.1	-41.1	22.9	0.00e+00	17	40	0	613416960	52	6468
2026-01-19 17:16:55.73	335.06	23.65	-40.2	-41.2	22.6	0.00e+00	6	40	0	615514112	52	6562
2026-01-19 17:16:56.74	334.78	23.67	-40.2	-41.2	22.6	0.00e+00	92	40	0	616562688	52	6575
2026-01-19 17:16:57.75	334.50	23.69	-40.2	-41.2	22.7	0.00e+00	0	40	0	618659840	52	6582
2026-01-19 17:16:58.76	334.22	23.72	-40.2	-41.2	22.8	0.00e+00	10	40	0	620756992	52	6559
2026-01-19 17:16:59.77	333.94	23.74	-40.0	-41.0	23.0	0.00e+00	3	40	0	622854144	52	6407
2026-01-19 17:17:00.78	333.66	23.76	-40.5	-41.5	22.5	0.00e+00	4	40	0	624951296	52	6815
2026-01-19 17:17:01.79	333.38	23.78	-40.3	-41.2	22.7	0.00e+00	0	40	0	625999872	52	6606
2026-01-19 17:17:02.80	333.10	23.80	-40.6	-41.7	22.4	0.00e+00	9	40	0	628097024	52	6955
2026-01-19 17:17:03.81	332.82	23.82	-40.7	-41.8	22.2	0.00e+00	92	40	0	630194176	54	6249
2026-01-19 17:17:04.82	332.53	23.84	-40.7	-41.8	22.2	0.00e+00	0	40	0	632291328	54	6250
2026-01-19 17:17:05.83	332.25	23.85	-40.9	-42.0	22.0	0.00e+00	92	40	0	634388480	54	6408
2026-01-19 17:17:06.84	331.97	23.87	-41.2	-42.3	22.0	0.00e+00	0	40	0	635437056	54	6647
2026-01-19 17:17:07.85	331.69	23.88	-41.0	-42.1	22.1	0.00e+00	0	40	0	637534208	54	6501
2026-01-19 17:17:08.86	331.40	23.90	-40.5	-41.6	22.3	0.00e+00	84	40	0	639631360	54	6134
2026-01-19 17:17:09.87	331.12	23.91	-40.6	-41.7	22.2	0.00e+00	0	40	0	641728512	54	6192
2026-01-19 17:17:10.87	330.84	23.93	-40.6	-41.7	22.3	0.00e+00	91	40	0	643825664	54	6180
2026-01-19 17:17:11.88	330.55	23.94	-40.6	-41.7	22.2	0.00e+00	0	40	0	644874240	54	6190
2026-01-19 17:17:12.89	330.27	23.95	-40.6	-41.7	22.2	0.00e+00	92	40	0	646971392	54	6206
2026-01-19 17:17:13.90	329.98	23.96	-40.6	-41.6	22.4	0.00e+00	8	40	0	649068544	54	6158
2026-01-19 17:17:14.91	329.70	23.97	-40.2	-41.2	22.6	0.00e+00	6	40	0	651165696	54	5883
2026-01-19 17:17:15.92	329.41	23.98	-40.0	-41.0	22.8	0.00e+00	7	40	0	653262848	54	5726
2026-01-19 17:17:16.93	329.13	23.99	-40.6	-41.6	22.5	0.00e+00	7	40	0	654311424	54	6108
2026-01-19 17:17:17.94	328.84	24.00	-40.6	-41.6	22.7	0.00e+00	0	40	0	656408576	54	6121
2026-01-19 17:17:18.95	328.56	24.01	-41.1	-42.1	22.4	0.00e+00	7	40	0	658505728	54	6516
2026-01-19 17:17:19.96	328.27	24.01	-40.9	-42.0	22.2	0.00e+00	92	40	0	660602880	54	6426
2026-01-19 17:17:20.97	327.98	24.02	-40.8	-41.9	22.4	0.00e+00	69	40	0	662700032	54	6326
2026-01-19 17:17:21.98	327.70	24.03	-41.0	-42.0	22.2	0.00e+00	82	40	0	664797184	54	6438
2026-01-19 17:17:22.99	327.41	24.03	-40.6	-41.6	22.5	0.00e+00	8	40	0	665845760	54	6135
2026-01-19 17:17:24.00	327.12	24.03	-40.4	-41.4	22.6	0.00e+00	71	40	0	667942912	54	6019
2026-01-19 17:17:25.01	326.84	24.04	-40.4	-41.4	22.7	0.00e+00	1	40	0	670040064	54	5965
2026-01-19 17:17:26.02	326.55	24.04	-40.4	-41.4	22.8	0.00e+00	0	40	0	672137216	54	6000
2026-01-19 17:17:27.02	326.27	24.04	-40.2	-41.1	23.0	0.00e+00	90	40	0	674234368	54	5821
2026-01-19 17:17:28.03	325.98	24.04	-40.3	-41.2	23.0	0.00e+00	0	40	0	675282944	54	5887
2026-01-19 17:17:29.04	325.70	24.04	-40.2	-41.2	22.9	0.00e+00	92	40	0	677380096	54	5857
2026-01-19 17:17:30.05	325.41	24.04	-40.2	-41.2	22.9	0.00e+00	0	40	0	679477248	54	5861
2026-01-19 17:17:31.06	325.12	24.04	-40.3	-41.3	22.7	0.00e+00	2	40	0	681574400	54	5917
2026-01-19 17:17:32.07	324.84	24.03	-40.1	-41.1	22.4	0.00e+00	0	40	0	683671552	54	5779
2026-01-19 17:17:33.08	324.55	24.03	-40.2	-41.1	22.9	0.00e+00	3	40	0	684720128	54	5808
2026-01-19 17:17:34.09	324.26	24.03	-40.0	-40.9	23.1	0.00e+00	77	40	0	686817280	54	5684
2026-01-19 17:17:35.10	323.98	24.02	-39.7	-40.6	23.5	0.00e+00	0	40	0	688914432	52	6150
2026-01-19 17:17:36.11	323.69	24.01	-39.6	-40.6	23.4	0.00e+00	92	40	0	691011584	52	6105
2026-01-19 17:17:37.12	323.41	24.01	-39.4	-40.3	23.6	0.00e+00	9	40	0	693108736	52	5946
2026-01-19 17:17:38.13	323.12	24.00	-39.6	-40.5	23.5	0.00e+00	4	40	0	694157312	52	6064
2026-01-19 17:17:39.14	322.83	23.99	-39.7	-40.6	23.6	0.00e+00	4	40	0	696254464	52	6117
2026-01-19 17:17:40.15	322.55	23.98	-39.4	-40.3	23.6	0.00e+00	10	40	0	698351616	52	5942
2026-01-19 17:17:41.16	322.26	23.97	-39.4	-40.3	23.7	0.00e+00	0	40	0	700448768	52	5955
2026-01-19 17:17:42.17	321.98	23.96	-39.4	-40.3	23.7	0.00e+00	71	40	0	702545920	52	5903
2026-01-19 17:17:43.17	321.70	23.95	-39.3	-40.2	23.6	0.00e+00	92	40	0	703594496	52	5845
2026-01-19 17:17:44.18	321.41	23.94	-39.3	-40.2	23.8	0.00e+00	72	40	0	705691648	52	5859
2026-01-19 17:17:45.19	321.13	23.93	-39.1	-40.0	23.9	0.00e+00	92	40	0	707788800	52	5742
2026-01-19 17:17:46.20	320.84	23.91	-39.0	-39.9	24.1	0.00e+00	11	40	0	709885952	52	5641
2026-01-19 17:17:47.21	320.56	23.90	-38.9	-39.8	24.3	0.00e+00	0	40	0	711983104	52	5568
2026-01-19 17:17:48.22	320.27	23.89	-38.8	-39.7	24.4	0.00e+00	72	40	0	713031680	52	5519
2026-01-19 17:17:49.23	319.99	23.87	-39.0	-39.9	24.4	0.00e+00	0	40	0	715128832	50	6325
2026-01-19 17:17:50.24	319.71	23.85	-38.7	-39.6	24.5	0.00e+00	90	40	0	717225984	50	6116
2026-01-19 17:17:51.25	319.42	23.84	-38.8	-39.7	24.4	0.00e+00	72	40	0	719323136	50	6178
2026-01-19 17:17:52.26	319.14	23.82	-38.7	-39.6	24.4	0.00e+00	92	40	0	721420288	50	6129
2026-01-19 17:17:53.27	318.86	23.80	-38.6	-39.4	24.6	0.00e+00	2	40	0	722468864	50	6020
2026-01-19 17:17:54.28	318.58	23.78	-38.6	-39.4	24.7	0.00e+00	2	40	0	724566016	50	5986
2026-01-19 17:17:55.29	318.30	23.76	-38.4	-39.2	24.8	0.00e+00	0	40	0	726663168	50	5895
2026-01-19 17:17:56.30	318.02	23.74	-38.1	-38.9	24.9	0.00e+00	0	40	0	728760320	50	5647
2026-01-19 17:17:57.31	317.73	23.72	-37.9	-38.7	25.0	0.00e+00	90	40	0	730857472	50	5534
2026-01-19 17:17:58.32	317.45	23.69	-38.4	-39.2	24.6	0.00e+00	0	40	0	732954624	50	5850
2026-01-19 17:17:59.33	317.17	23.67	-38.7	-39.5	24.6	0.00e+00	92	40	0	734003200	50	6056
2026-01-19 17:18:00.34	316.89	23.65	-38.7	-39.5	24.7	0.00e+00	11	40	0	736100352	50	6074
2026-01-19 17:18:01.35	316.62	23.62	-38.4	-39.2	24.6	0.00e+00	69	40	0	738197504	50	5865
2026-01-19 17:18:02.36	316.34	23.60	-38.4	-39.2	24.9	0.00e+00	0	40	0	740294656	50	5866
2026-01-19 17:18:03.37	316.06	23.57	-38.3	-39.1	24.9	0.00e+00	0	40	0	742391808	50	5778
2026-01-19 17:18:04.38	315.78	23.54	-38.2	-39.0	24.9	0.00e+00	0	40	0	743440384	50	5744
2026-01-19 17:18:05.38	315.51	23.52	-38.3	-39.1	24.9	0.00e+00	71	40	0	745537536	50	5778
2026-01-19 17:18:06.39	315.23	23.49	-38.5	-39.3	24.9	0.00e+00	91	40	0	747634688	48	6650
2026-01-19 17:18:07.40	314.95	23.46	-38.8	-39.6	24.9	0.00e+00	5	40	0	749731840	48	6878
2026-01-19 17:18:08.41	314.68	23.43	-39.3	-40.1	24.2	0.00e+00	92	40	0	751828992	50	6494
2026-01-19 17:18:09.42	314.40	23.40	-38.5	-39.4	24.4	0.00e+00	0	40	0	752877568	50	5969
2026-01-19 17:18:10.43	314.13	23.37	-38.8	-39.6	24.4	0.00e+00	0	40	0	754974720	50	6136
2026-01-19 17:18:11.44	313.85	23.34	-38.8	-39.6	24.6	0.00e+00	0	40	0	757071872	50	6157
2026-01-19 17:18:12.45	313.58	23.31	-39.4	-40.2	24.7	0.00e+00	0	40	0	759169024	50	6596
2026-01-19 17:18:13.46	313.31	23.27	-38.9	-39.8	24.5	0.00e+00	92	40	0	761266176	50	6260
2026-01-19 17:18:14.47	313.03	23.24	-38.3	-39.1	24.9	0.00e+00	0	40	0	762314752	50	5790
2026-01-19 17:18:15.48	312.76	23.21	-38.4	-39.2	24.9	0.00e+00	92	40	0	764411904	50	5855
2026-01-19 17:18:16.49	312.49	23.17	-38.7	-39.5	24.8	0.00e+00	0	40	0	766509056	50	6093
2026-01-19 17:18:17.50	312.22	23.14	-39.2	-40.0	24.5	0.00e+00	7	40	0	768606208	50	6431
2026-01-19 17:18:18.51	311.95	23.10	-39.1	-40.0	24.4	0.00e+00	0	40	0	770703360	50	6391
2026-01-19 17:18:19.52	311.68	23.06	-39.4	-40.2	24.1	0.00e+00	0	40	0	771751936	52	5887
2026-01-19 17:18:20.52	311.41	23.03	-39.5	-40.3	23.9	0.00e+00	67	40	0	773849088	52	5942
2026-01-19 17:18:21.54	311.14	22.99	-39.6	-40.5	23.9	0.00e+00	9	40	0	775946240	52	6065
2026-01-19 17:18:22.54	310.88	22.95	-39.8	-40.7	23.7	0.00e+00	92	40	0	778043392	52	6174
2026-01-19 17:18:23.55	310.61	22.91	-39.8	-40.7	23.9	0.00e+00	2	40	0	780140544	52	6216
2026-01-19 17:18:24.56	310.34	22.87	-40.1	-41.0	23.8	0.00e+00	9	40	0	781189120	52	6433
2026-01-19 17:18:25.57	310.08	22.83	-40.1	-41.0	23.7	0.00e+00	72	40	0	783286272	52	6459
2026-01-19 17:18:26.58	309.81	22.79	-39.9	-40.8	23.6	0.00e+00	0	40	0	785383424	52	6297
2026-01-19 17:18:27.59	309.55	22.75	-39.9	-40.8	23.6	0.00e+00	0	40	0	787480576	52	6261
2026-01-19 17:18:28.60	309.29	22.71	-40.4	-41.3	23.4	0.00e+00	74	40	0	789577728	52	6629
2026-01-19 17:18:29.61	309.02	22.66	-40.2	-41.1	23.6	0.00e+00	90	40	0	790626304	52	6509
2026-01-19 17:18:30.62	308.76	22.62	-40.2	-41.1	23.6	0.00e+00	0	40	0	792723456	52	6494
2026-01-19 17:18:31.63	308.50	22.58	-40.7	-41.6	23.6	0.00e+00	92	40	0	794820608	52	6885
2026-01-19 17:18:32.64	308.24	22.53	-40.3	-41.2	23.5	0.00e+00	72	40	0	796917760	52	6560
2026-01-19 17:18:33.65	307.98	22.49	-40.3	-41.2	23.5	0.00e+00	75	40	0	799014912	54	5881
2026-01-19 17:18:34.66	307.72	22.44	-40.7	-41.6	23.2	0.00e+00	5	40	0	801112064	54	6122
2026-01-19 17:18:35.67	307.46	22.40	-40.6	-41.6	23.2	0.00e+00	0	40	0	802160640	54	6104
2026-01-19 17:18:36.68	307.21	22.35	-40.5	-41.4	23.1	0.00e+00	91	40	0	804257792	54	6012
2026-01-19 17:18:37.69	306.95	22.30	-40.3	-41.3	23.1	0.00e+00	5	40	0	806354944	54	5932
2026-01-19 17:18:38.69	306.70	22.26	-40.6	-41.6	23.1	0.00e+00	92	40	0	808452096	54	6122
2026-01-19 17:18:39.70	306.44	22.21	-40.8	-41.7	23.1	0.00e+00	0	40	0	809500672	54	6204
2026-01-19 17:18:40.71	306.19	22.16	-40.9	-41.8	23.2	0.00e+00	3	40	0	811597824	54	6316
2026-01-19 17:18:41.72	305.93	22.11	-40.6	-41.6	23.0	0.00e+00	5	40	0	813694976	54	6128
2026-01-19 17:18:42.73	305.68	22.06	-40.9	-41.8	23.1	0.00e+00	7	40	0	815792128	54	6303
2026-01-19 17:18:43.74	305.43	22.01	-41.0	-42.0	23.1	0.00e+00	19	40	0	817889280	54	6412
2026-01-19 17:18:44.75	305.18	21.96	-41.4	-42.3	22.9	0.00e+00	8	40	0	818937856	54	6690
2026-01-19 17:18:45.76	304.93	21.91	-40.9	-41.9	22.9	0.00e+00	91	40	0	821035008	54	6320
2026-01-19 17:18:46.77	304.68	21.86	-41.1	-42.1	22.9	0.00e+00	78	40	0	823132160	54	6494
2026-01-19 17:18:47.78	304.43	21.80	-41.7	-42.7	22.6	0.00e+00	92	40	0	825229312	54	6975
2026-01-19 17:18:48.79	304.18	21.75	-41.5	-42.5	22.7	0.00e+00	80	40	0	827326464	56	6067
2026-01-19 17:18:49.80	303.93	21.70	-41.8	-42.8	22.6	0.00e+00	5	40	0	829423616	56	6265
2026-01-19 17:18:50.81	303.69	21.64	-40.3	-41.3	22.6	0.00e+00	0	40	0	830472192	54	5945
2026-01-19 17:18:51.82	303.44	21.59	-41.4	-42.4	22.6	0.00e+00	78	40	0	832569344	56	6023
2026-01-19 17:18:52.83	303.20	21.54	-41.1	-42.1	22.8	0.00e+00	92	40	0	834666496	56	5806
2026-01-19 17:18:53.84	302.96	21.48	-41.1	-42.1	22.6	0.00e+00	78	40	0	836763648	56	5812
2026-01-19 17:18:54.84	302.72	21.43	-41.3	-42.2	23.0	0.00e+00	90	40	0	838860800	56	5891
2026-01-19 17:18:55.85	302.47	21.37	-41.3	-42.3	23.2	0.00e+00	78	40	0	839909376	54	6621
2026-01-19 17:18:56.86	302.23	21.31	-40.8	-41.7	23.1	0.00e+00	0	40	0	842006528	54	6222
2026-01-19 17:18:57.87	301.99	21.26	-40.7	-41.7	23.0	0.00e+00	0	40	0	844103680	54	6189
2026-01-19 17:18:58.88	301.75	21.20	-41.5	-42.4	22.8	0.00e+00	0	40	0	846200832	54	6755
2026-01-19 17:18:59.89	301.52	21.14	-41.9	-42.9	22.5	0.00e+00	74	40	0	848297984	56	6349
2026-01-19 17:19:00.90	301.28	21.09	-42.3	-43.3	22.5	0.00e+00	6	40	0	849346560	56	6628
2026-01-19 17:19:01.91	301.04	21.03	-41.4	-42.4	22.8	0.00e+00	92	40	0	851443712	56	5975
2026-01-19 17:19:02.91	300.81	20.97	-41.0	-42.0	22.7	0.00e+00	6	40	0	853540864	56	5698
2026-01-19 17:19:03.92	300.57	20.91	-40.4	-41.3	23.0	0.00e+00	8	40	0	855638016	54	5936
2026-01-19 17:19:04.93	300.34	20.85	-40.4	-41.4	23.1	0.00e+00	6	40	0	857735168	54	5980
2026-01-19 17:19:05.94	300.11	20.79	-40.5	-41.4	23.1	0.00e+00	3	40	0	858783744	54	6015
2026-01-19 17:19:06.95	299.88	20.73	-40.2	-41.1	23.1	0.00e+00	9	40	0	860880896	54	5818
2026-01-19 17:19:07.96	299.65	20.67	-41.1	-42.1	22.9	0.00e+00	4	40	0	862978048	54	6477
2026-01-19 17:19:08.97	299.42	20.61	-40.7	-41.7	23.0	0.00e+00	92	40	0	865075200	54	6212
2026-01-19 17:19:09.98	299.19	20.55	-40.8	-41.8	22.9	0.00e+00	4	40	0	867172352	54	6312
2026-01-19 17:19:10.99	298.96	20.49	-40.6	-41.6	22.7	0.00e+00	92	40	0	868220928	54	6170
2026-01-19 17:19:12.00	298.73	20.43	-40.6	-41.5	22.8	0.00e+00	3	40	0	870318080	54	6102
2026-01-19 17:19:13.01	298.50	20.37	-40.4	-41.4	22.9	0.00e+00	0	40	0	872415232	54	5985
2026-01-19 17:19:14.02	298.28	20.30	-40.3	-41.2	23.1	0.00e+00	81	40	0	874512384	54	5874
2026-01-19 17:19:15.03	298.05	20.24	-40.1	-41.1	23.2	0.00e+00	0	40	0	876609536	54	5789
2026-01-19 17:19:16.04	297.83	20.18	-40.1	-41.0	23.2	0.00e+00	92	40	0	877658112	54	5725
2026-01-19 17:19:17.05	297.61	20.12	-40.2	-41.1	23.1	0.00e+00	0	40	0	879755264	54	5825
2026-01-19 17:19:18.06	297.39	20.05	-40.7	-41.7	22.8	0.00e+00	90	40	0	881852416	54	6185
2026-01-19 17:19:19.07	297.17	19.99	-40.2	-41.2	23.1	0.00e+00	0	40	0	883949568	54	5847
2026-01-19 17:19:20.08	296.95	19.92	-40.3	-41.3	23.0	0.00e+00	0	40	0	886046720	54	5907
2026-01-19 17:19:21.09	296.73	19.86	-39.9	-40.8	23.2	0.00e+00	0	40	0	887095296	54	5596
2026-01-19 17:19:22.10	296.51	19.79	-39.7	-40.6	23.4	0.00e+00	0	40	0	889192448	52	6142
2026-01-19 17:19:23.11	296.29	19.73	-39.8	-40.7	23.3	0.00e+00	75	40	0	891289600	52	6207
2026-01-19 17:19:24.12	296.07	19.66	-39.6	-40.6	23.3	0.00e+00	10	40	0	893386752	52	6108
2026-01-19 17:19:25.13	295.86	19.60	-39.7	-40.6	23.3	0.00e+00	90	40	0	895483904	52	6135
2026-01-19 17:19:26.14	295.65	19.53	-39.7	-40.7	23.2	0.00e+00	9	40	0	897581056	52	6204
2026-01-19 17:19:27.15	295.43	19.47	-39.8	-40.8	23.1	0.00e+00	7	40	0	898629632	52	6248
2026-01-19 17:19:28.16	295.22	19.40	-39.8	-40.7	23.0	0.00e+00	9	40	0	900726784	52	6238
2026-01-19 17:19:29.17	295.01	19.34	-40.2	-41.2	23.1	0.00e+00	7	40	0	902823936	52	6540
2026-01-19 17:19:30.18	294.80	19.27	-39.9	-40.8	23.1	0.00e+00	0	40	0	904921088	52	6302
2026-01-19 17:19:31.19	294.59	19.20	-39.8	-40.7	23.1	0.00e+00	0	40	0	907018240	52	6205
2026-01-19 17:19:32.20	294.38	19.14	-39.8	-40.7	23.2	0.00e+00	92	40	0	908066816	52	6217
2026-01-19 17:19:33.21	294.17	19.07	-39.9	-40.9	23.2	0.00e+00	74	40	0	910163968	52	6346
2026-01-19 17:19:34.22	293.96	19.00	-39.6	-40.5	23.4	0.00e+00	67	40	0	912261120	52	6092
2026-01-19 17:19:35.23	293.76	18.93	-39.6	-40.5	23.3	0.00e+00	0	40	0	914358272	52	6095
2026-01-19 17:19:36.24	293.55	18.86	-39.6	-40.5	23.1	0.00e+00	78	40	0	916455424	52	6090
2026-01-19 17:19:37.24	293.35	18.80	-39.4	-40.4	23.3	0.00e+00	81	40	0	917504000	52	5977
2026-01-19 17:19:38.25	293.15	18.73	-39.8	-40.7	23.1	0.00e+00	78	40	0	919601152	52	6230
2026-01-19 17:19:39.26	292.94	18.66	-39.8	-40.7	23.1	0.00e+00	92	40	0	921698304	52	6218
2026-01-19 17:19:40.27	292.74	18.59	-39.7	-40.6	23.2	0.00e+00	2	40	0	923795456	52	6141
2026-01-19 17:19:41.28	292.54	18.52	-39.7	-40.7	23.1	0.00e+00	92	40	0	925892608	52	6196
2026-01-19 17:19:42.29	292.34	18.45	-39.9	-40.9	22.9	0.00e+00	0	40	0	926941184	52	6332
2026-01-19 17:19:43.30	292.14	18.39	-39.7	-40.7	23.1	0.00e+00	2	40	0	929038336	52	6210
2026-01-19 17:19:44.31	291.95	18.32	-39.8	-40.7	22.9	0.00e+00	0	40	0	931135488	52	6223
2026-01-19 17:19:45.32	291.75	18.25	-39.8	-40.8	23.0	0.00e+00	7	40	0	933232640	52	6246
2026-01-19 17:19:46.33	291.55	18.18	-39.9	-40.8	23.0	0.00e+00	92	40	0	935329792	52	6307
2026-01-19 17:19:47.34	291.36	18.11	-40.0	-41.0	22.8	0.00e+00	0	40	0	936378368	52	6411
2026-01-19 17:19:48.35	291.16	18.04	-40.2	-41.2	22.8	0.00e+00	92	40	0	938475520	52	6595
2026-01-19 17:19:49.36	290.97	17.97	-40.1	-41.0	23.0	0.00e+00	73	40	0	940572672	52	6452
2026-01-19 17:19:50.37	290.78	17.90	-40.1	-41.1	23.0	0.00e+00	73	40	0	942669824	52	6466
2026-01-19 17:19:51.38	290.59	17.83	-40.0	-40.9	23.2	0.00e+00	72	40	0	944766976	52	6375
2026-01-19 17:19:52.39	290.40	17.76	-39.9	-40.9	23.2	0.00e+00	72	40	0	945815552	52	6342
2026-01-19 17:19:53.40	290.21	17.69	-40.0	-41.0	23.1	0.00e+00	0	40	0	947912704	52	6395
2026-01-19 17:19:54.41	290.02	17.61	-40.0	-40.9	23.1	0.00e+00	0	40	0	950009856	52	6372
2026-01-19 17:19:55.42	289.83	17.54	-39.8	-40.8	23.1	0.00e+00	90	40	0	952107008	52	6267
2026-01-19 17:19:56.43	289.64	17.47	-40.0	-40.9	22.9	0.00e+00	0	40	0	954204160	52	6372
2026-01-19 17:19:57.44	289.46	17.40	-40.0	-41.0	22.9	0.00e+00	92	40	0	955252736	52	6439
2026-01-19 17:19:58.44	289.27	17.33	-39.8	-40.8	23.0	0.00e+00	73	40	0	957349888	52	6263
2026-01-19 17:19:59.46	289.09	17.26	-40.0	-41.0	22.8	0.00e+00	0	40	0	959447040	52	6437
2026-01-19 17:20:00.47	288.90	17.19	-40.0	-41.0	22.9	0.00e+00	0	40	0	961544192	52	6410
2026-01-19 17:20:01.48	288.72	17.12	-39.8	-40.7	23.1	0.00e+00	0	40	0	963641344	52	6222
2026-01-19 17:20:02.49	288.54	17.05	-39.6	-40.5	23.2	0.00e+00	91	40	0	965738496	52	6095
2026-01-19 17:20:03.49	288.36	16.97	-39.7	-40.7	23.3	0.00e+00	0	40	0	966787072	52	6201
2026-01-19 17:20:04.50	288.18	16.90	-39.8	-40.7	23.2	0.00e+00	90	40	0	968884224	52	6200
2026-01-19 17:20:05.51	288.00	16.83	-39.6	-40.5	23.3	0.00e+00	2	40	0	970981376	52	6086
2026-01-19 17:20:06.52	287.82	16.76	-39.6	-40.5	23.4	0.00e+00	0	40	0	973078528	52	6103
2026-01-19 17:20:07.53	287.65	16.69	-39.5	-40.4	23.4	0.00e+00	2	40	0	975175680	52	6018
2026-01-19 17:20:08.54	287.47	16.62	-39.4	-40.3	23.5	0.00e+00	0	40	0	976224256	52	5920
2026-01-19 17:20:09.55	287.29	16.54	-39.4	-40.3	23.5	0.00e+00	92	40	0	978321408	52	5936
2026-01-19 17:20:10.56	287.12	16.47	-39.4	-40.3	23.5	0.00e+00	0	40	0	980418560	52	5945
2026-01-19 17:20:11.57	286.95	16.40	-39.5	-40.4	23.4	0.00e+00	90	40	0	982515712	52	5993
2026-01-19 17:20:12.58	286.77	16.33	-39.5	-40.4	23.5	0.00e+00	82	40	0	984612864	52	6005
2026-01-19 17:20:13.59	286.60	16.25	-39.5	-40.4	23.5	0.00e+00	7	40	0	985661440	52	6023
2026-01-19 17:20:14.60	286.43	16.18	-39.8	-40.8	23.2	0.00e+00	74	40	0	987758592	52	6274
2026-01-19 17:20:15.61	286.26	16.11	-40.1	-41.0	23.2	0.00e+00	0	40	0	989855744	52	6464
2026-01-19 17:20:16.62	286.09	16.04	-40.1	-41.0	23.3	0.00e+00	57	40	0	991952896	52	6444
2026-01-19 17:20:17.63	285.92	15.97	-40.0	-40.9	23.2	0.00e+00	75	40	0	994050048	52	6370
2026-01-19 17:20:18.64	285.75	15.89	-39.7	-40.6	23.2	0.00e+00	92	40	0	995098624	52	6151
2026-01-19 17:20:19.65	285.58	15.82	-39.8	-40.7	23.2	0.00e+00	0	40	0	997195776	52	6224
2026-01-19 17:20:20.66	285.42	15.75	-39.7	-40.6	23.3	0.00e+00	90	40	0	999292928	52	6144
2026-01-19 17:20:21.67	285.25	15.67	-40.1	-41.1	23.0	0.00e+00	0	40	0	1001390080	52	6514
2026-01-19 17:20:22.68	285.09	15.60	-39.7	-40.6	23.4	0.00e+00	0	40	0	1003487232	52	6127
2026-01-19 17:20:23.69	284.92	15.53	-39.6	-40.5	23.4	0.00e+00	2	40	0	1004535808	52	6038
2026-01-19 17:20:24.70	284.76	15.46	-39.4	-40.3	23.7	0.00e+00	5	40	0	1006632960	52	5906
2026-01-19 17:20:25.71	284.60	15.38	-39.5	-40.4	23.6	0.00e+00	91	40	0	1008730112	52	5976
2026-01-19 17:20:26.72	284.44	15.31	-39.1	-40.0	23.5	0.00e+00	5	40	0	1010827264	52	5746
2026-01-19 17:20:27.73	284.28	15.24	-39.0	-39.9	23.6	0.00e+00	31	40	0	1012924416	52	5647
2026-01-19 17:20:28.74	284.12	15.17	-38.9	-39.8	23.8	0.00e+00	5	40	0	1013972992	52	5589
2026-01-19 17:20:29.75	283.96	15.09	-38.9	-39.8	23.8	0.00e+00	6	40	0	1016070144	52	5598
2026-01-19 17:20:30.76	283.80	15.02	-38.8	-39.7	23.4	0.00e+00	86	40	0	1018167296	52	5512
2026-01-19 17:20:31.77	283.64	14.95	-38.9	-39.8	23.7	0.00e+00	5	40	0	1020264448	52	5594
2026-01-19 17:20:32.78	283.48	14.88	-38.9	-39.8	23.7	0.00e+00	53	40	0	1022361600	52	5579
2026-01-19 17:20:33.79	283.33	14.80	-38.8	-39.6	23.7	0.00e+00	0	40	0	1023410176	52	5499
2026-01-19 17:20:34.80	283.17	14.73	-38.7	-39.6	23.9	0.00e+00	91	40	0	1025507328	50	6132
2026-01-19 17:20:35.81	283.02	14.66	-38.7	-39.6	23.5	0.00e+00	86	40	0	1027604480	50	6150
2026-01-19 17:20:36.82	282.86	14.58	-38.7	-39.6	23.9	0.00e+00	19	40	0	1029701632	50	6106
2026-01-19 17:20:37.83	282.71	14.51	-38.7	-39.6	23.8	0.00e+00	86	40	0	1031798784	50	6121
2026-01-19 17:20:38.84	282.56	14.44	-38.7	-39.6	23.8	0.00e+00	0	40	0	1033895936	50	6140
2026-01-19 17:20:39.84	282.41	14.37	-38.8	-39.7	23.7	0.00e+00	78	40	0	1034944512	50	6192
2026-01-19 17:20:40.85	282.26	14.29	-38.9	-39.8	23.7	0.00e+00	0	40	0	1037041664	50	6301
2026-01-19 17:20:41.86	282.11	14.22	-39.0	-39.9	23.6	0.00e+00	92	40	0	1039138816	50	6362
2026-01-19 17:20:42.87	281.96	14.15	-39.0	-39.8	23.8	0.00e+00	0	40	0	1041235968	50	6310
2026-01-19 17:20:43.88	281.81	14.08	-39.2	-40.1	23.6	0.00e+00	32	40	0	1043333120	50	6476
2026-01-19 17:20:44.89	281.66	14.00	-39.5	-40.4	23.3	0.00e+00	7	40	0	1044381696	50	6721
2026-01-19 17:20:45.90	281.51	13.93	-39.4	-40.3	23.3	0.00e+00	0	40	0	1046478848	50	6654
2026-01-19 17:20:46.91	281.37	13.86	-39.0	-39.9	23.5	0.00e+00	6	40	0	1048576000	50	6390
2026-01-19 17:20:47.92	281.22	13.79	-39.4	-40.3	23.2	0.00e+00	3	40	0	1050673152	50	6671
2026-01-19 17:20:48.93	281.08	13.71	-39.4	-40.4	23.2	0.00e+00	92	40	0	1052770304	50	6714
2026-01-19 17:20:49.94	280.93	13.64	-39.3	-40.2	23.2	0.00e+00	5	40	0	1053818880	50	6601
2026-01-19 17:20:50.95	280.79	13.57	-39.4	-40.3	23.2	0.00e+00	92	40	0	1055916032	50	6643
2026-01-19 17:20:51.96	280.65	13.50	-39.3	-40.2	23.1	0.00e+00	6	40	0	1058013184	50	6603
2026-01-19 17:20:52.97	280.50	13.42	-39.5	-40.4	23.2	0.00e+00	78	40	0	1060110336	50	6740
2026-01-19 17:20:53.98	280.36	13.35	-39.5	-40.5	23.1	0.00e+00	76	40	0	1062207488	50	6788
2026-01-19 17:20:54.99	280.22	13.28	-39.3	-40.3	23.2	0.00e+00	76	40	0	1063256064	50	6619
2026-01-19 17:20:56.00	280.08	13.21	-39.4	-40.4	23.1	0.00e+00	92	40	0	1065353216	50	6707
2026-01-19 17:20:57.01	279.94	13.13	-39.5	-40.5	22.9	0.00e+00	75	40	0	1067450368	50	6798
2026-01-19 17:20:58.02	279.80	13.06	-39.6	-40.5	22.9	0.00e+00	92	40	0	1069547520	50	6829
2026-01-19 17:20:59.03	279.67	12.99	-39.6	-40.5	23.0	0.00e+00	76	40	0	1071644672	50	6830
2026-01-19 17:21:00.04	279.53	12.92	-39.4	-40.3	23.2	0.00e+00	0	40	0	1072693248	50	6679
2026-01-19 17:21:01.05	279.39	12.85	-39.5	-40.4	23.1	0.00e+00	0	40	0	1074790400	50	6764
2026-01-19 17:21:02.06	279.26	12.77	-39.3	-40.2	23.3	0.00e+00	0	40	0	1076887552	50	6612
2026-01-19 17:21:03.07	279.12	12.70	-39.3	-40.2	23.2	0.00e+00	20	40	0	1078984704	50	6602
2026-01-19 17:21:04.08	278.99	12.63	-39.2	-40.2	23.2	0.00e+00	2	40	0	1081081856	50	6575
2026-01-19 17:21:05.08	278.85	12.56	-39.3	-40.3	23.2	0.00e+00	92	40	0	1082130432	50	6641
2026-01-19 17:21:06.10	278.72	12.49	-39.3	-40.2	23.2	0.00e+00	0	40	0	1084227584	50	6586
2026-01-19 17:21:07.10	278.59	12.42	-39.4	-40.4	23.1	0.00e+00	92	40	0	1086324736	50	6705
2026-01-19 17:21:08.12	278.46	12.34	-39.4	-40.4	23.0	0.00e+00	2	40	0	1088421888	50	6694
2026-01-19 17:21:09.12	278.33	12.27	-39.5	-40.5	22.9	0.00e+00	2	40	0	1090519040	50	6773
2026-01-19 17:21:10.13	278.20	12.20	-39.6	-40.6	22.7	0.00e+00	0	40	0	1091567616	50	6908
2026-01-19 17:21:11.14	278.07	12.13	-39.9	-40.9	22.6	0.00e+00	2	40	0	1093664768	52	6359
2026-01-19 17:21:12.15	277.94	12.06	-39.9	-41.0	22.4	0.00e+00	92	40	0	1095761920	52	6401
2026-01-19 17:21:13.16	277.81	11.99	-40.0	-41.0	22.4	0.00e+00	81	40	0	1097859072	52	6462
2026-01-19 17:21:14.17	277.68	11.92	-40.0	-41.0	22.5	0.00e+00	92	40	0	1099956224	52	6444
2026-01-19 17:21:15.18	277.55	11.85	-40.3	-41.4	22.2	0.00e+00	0	40	0	1102053376	52	6708
2026-01-19 17:21:16.19	277.42	11.77	-40.0	-41.1	22.5	0.00e+00	78	40	0	1103101952	52	6467
2026-01-19 17:21:17.20	277.30	11.70	-40.2	-41.2	22.3	0.00e+00	77	40	0	1105199104	52	6594
2026-01-19 17:21:18.21	277.17	11.63	-40.2	-41.3	22.3	0.00e+00	76	40	0	1107296256	52	6639
2026-01-19 17:21:19.22	277.05	11.56	-40.1	-41.1	22.4	0.00e+00	92	40	0	1109393408	52	6506
2026-01-19 17:21:20.23	276.92	11.49	-40.2	-41.2	22.4	0.00e+00	77	40	0	1111490560	52	6576
2026-01-19 17:21:21.24	276.80	11.42	-40.2	-41.2	22.3	0.00e+00	92	40	0	1112539136	52	6568
2026-01-19 17:21:22.25	276.68	11.35	-40.2	-41.2	22.3	0.00e+00	77	40	0	1114636288	52	6568
2026-01-19 17:21:23.26	276.55	11.28	-40.2	-41.2	22.4	0.00e+00	5	40	0	1116733440	52	6568
2026-01-19 17:21:24.27	276.43	11.21	-40.2	-41.2	22.3	0.00e+00	0	40	0	1118830592	52	6602
2026-01-19 17:21:25.28	276.31	11.14	-40.1	-41.1	22.4	0.00e+00	2	40	0	1120927744	52	6493
2026-01-19 17:21:26.28	276.19	11.07	-40.1	-41.2	22.3	0.00e+00	0	40	0	1121976320	52	6547
2026-01-19 17:21:27.29	276.07	11.00	-40.1	-41.2	22.2	0.00e+00	0	40	0	1124073472	52	6548
2026-01-19 17:21:28.30	275.95	10.93	-40.2	-41.3	22.2	0.00e+00	92	40	0	1126170624	52	6623
2026-01-19 17:21:29.31	275.83	10.86	-40.4	-41.5	22.1	0.00e+00	2	40	0	1128267776	52	6803
2026-01-19 17:21:30.32	275.72	10.79	-40.6	-41.7	21.9	0.00e+00	92	40	0	1130364928	52	6951
2026-01-19 17:21:31.33	275.60	10.72	-40.5	-41.6	22.1	0.00e+00	0	40	0	1131413504	52	6879
2026-01-19 17:21:32.34	275.48	10.65	-40.7	-41.8	22.0	0.00e+00	2	40	0	1133510656	54	6247
2026-01-19 17:21:33.35	275.36	10.58	-40.7	-41.8	21.9	0.00e+00	0	40	0	1135607808	54	6269
2026-01-19 17:21:34.35	275.25	10.51	-40.8	-41.9	21.8	0.00e+00	0	40	0	1137704960	54	6388
2026-01-19 17:21:35.36	275.13	10.44	-40.7	-41.8	21.8	0.00e+00	92	40	0	1139802112	54	6291
2026-01-19 17:21:36.37	275.02	10.37	-40.7	-41.8	21.9	0.00e+00	81	40	0	1140850688	54	6255
2026-01-19 17:21:37.38	274.90	10.30	-40.7	-41.8	21.8	0.00e+00	92	40	0	1142947840	54	6260
2026-01-19 17:21:38.39	274.79	10.23	-40.8	-41.9	21.8	0.00e+00	0	40	0	1145044992	54	6343
2026-01-19 17:21:39.40	274.68	10.16	-40.7	-41.8	21.8	0.00e+00	0	40	0	1147142144	54	6282
2026-01-19 17:21:40.41	274.56	10.09	-40.9	-42.0	21.6	0.00e+00	81	40	0	1149239296	54	6430
2026-01-19 17:21:41.42	274.45	10.02	-41.0	-42.1	21.6	0.00e+00	81	40	0	1150287872	54	6521
2026-01-19 17:21:42.43	274.34	9.95	-41.2	-42.3	21.4	0.00e+00	0	40	0	1152385024	54	6673
2026-01-19 17:21:43.44	274.23	9.88	-41.0	-42.2	21.3	0.00e+00	0	40	0	1154482176	54	6544
2026-01-19 17:21:44.45	274.12	9.82	-40.9	-42.0	21.4	0.00e+00	90	40	0	1156579328	54	6440
2026-01-19 17:21:45.46	274.01	9.75	-41.1	-42.3	21.3	0.00e+00	2	40	0	1158676480	54	6653
2026-01-19 17:21:46.47	273.90	9.68	-40.9	-42.0	21.5	0.00e+00	0	40	0	1159725056	54	6457
2026-01-19 17:21:47.48	273.79	9.61	-41.4	-42.6	21.2	0.00e+00	0	40	0	1161822208	54	6862
2026-01-19 17:21:48.49	273.68	9.54	-41.5	-42.6	21.3	0.00e+00	0	40	0	1163919360	54	6914
2026-01-19 17:21:49.50	273.57	9.47	-40.9	-42.0	21.7	0.00e+00	0	40	0	1166016512	54	6413
2026-01-19 17:21:50.51	273.47	9.40	-40.8	-41.9	21.5	0.00e+00	2	40	0	1168113664	54	6373
2026-01-19 17:21:51.52	273.36	9.34	-40.8	-42.0	21.5	0.00e+00	92	40	0	1170210816	54	6396
2026-01-19 17:21:52.53	273.25	9.27	-40.8	-42.0	21.4	0.00e+00	2	40	0	1171259392	54	6404
2026-01-19 17:21:53.54	273.15	9.20	-40.9	-42.1	21.3	0.00e+00	92	40	0	1173356544	54	6472
2026-01-19 17:21:54.55	273.04	9.13	-41.1	-42.2	21.2	0.00e+00	2	40	0	1175453696	54	6613
2026-01-19 17:21:55.56	272.94	9.06	-41.1	-42.2	21.2	0.00e+00	0	40	0	1177550848	54	6604
2026-01-19 17:21:56.57	272.83	9.00	-41.1	-42.3	21.1	0.00e+00	0	40	0	1179648000	54	6646
2026-01-19 17:21:57.58	272.73	8.93	-41.2	-42.4	21.0	0.00e+00	4	40	0	1180696576	54	6739
2026-01-19 17:21:58.59	272.63	8.86	-41.2	-42.5	20.9	0.00e+00	93	40	0	1182793728	54	6780
2026-01-19 17:21:59.60	272.52	8.79	-41.4	-42.6	20.9	0.00e+00	81	40	0	1184890880	54	6877
2026-01-19 17:22:00.61	272.42	8.73	-41.6	-42.8	20.7	0.00e+00	92	40	0	1186988032	54	7078
2026-01-19 17:22:01.62	272.32	8.66	-41.5	-42.8	20.6	0.00e+00	1	40	0	1189085184	54	7010
2026-01-19 17:22:02.63	272.22	8.59	-41.8	-43.1	20.4	0.00e+00	0	40	0	1190133760	56	6524
2026-01-19 17:22:03.64	272.12	8.52	-41.9	-43.3	20.4	0.00e+00	0	40	0	1192230912	56	6624
2026-01-19 17:22:04.65	272.02	8.46	-41.9	-43.2	20.4	0.00e+00	0	40	0	1194328064	56	6543
2026-01-19 17:22:05.66	271.92	8.39	-41.8	-43.1	20.6	0.00e+00	92	40	0	1196425216	56	6467
2026-01-19 17:22:06.67	271.82	8.32	-41.9	-43.2	20.5	0.00e+00	0	40	0	1198522368	56	6552
