passes_logs/2026/01/19/R4.6S_Anadyr/R4.6S_Anadyr__20260119_184952_NOAA_20_JPSS-1_rec.log

#Pass ID: 20260119_184952_NOAA 20 (JPSS-1)
#Satellite: NOAA 20 (JPSS-1)
#Configuration: NOAA 20
#almurnet v.1.7.20251203
#Start time: 2026-01-19 18:49:53

#Version: 2.2.20231116
#Station: R4.6S_Anadyr
#Location: 177.4865 lon 64.73178 lat
#TLE: 1 43013U 17073A   26019.27717929  .00000087  00000+0  62288-4 0  9995
#TLE: 2 43013  98.7641 320.1715 0001339  33.1986 326.9274 14.19537047423343

#Time	Az	El	Level	Level2	SNR	BER	BlckErr	Temp	State	Recorded	gain1	gain2
2026-01-19 18:49:53.23	45.13	0.03	-51.1	-66.0	3.5	1.51e+00	0	38	0	0	60	72315
2026-01-19 18:49:54.24	45.05	0.08	-51.7	-66.8	3.6	1.51e+00	0	39	104	0	60	79377
2026-01-19 18:49:55.25	44.98	0.13	-51.7	-66.8	3.6	1.51e+00	0	39	104	0	60	79442
2026-01-19 18:49:56.26	44.90	0.18	-51.8	-67.0	3.6	1.51e+00	0	39	104	0	60	80858
2026-01-19 18:49:57.27	44.83	0.23	-51.3	-66.5	3.6	1.51e+00	0	39	104	0	60	76070
2026-01-19 18:49:58.28	44.75	0.28	-50.1	-65.3	3.6	1.51e+00	0	39	104	0	60	66487
2026-01-19 18:49:59.29	44.68	0.33	-50.0	-65.2	3.6	1.51e+00	0	39	104	0	60	65979
2026-01-19 18:50:00.30	44.60	0.38	-49.9	-65.2	3.6	1.51e+00	0	39	104	0	60	65516
2026-01-19 18:50:01.31	44.52	0.43	-49.8	-65.1	3.6	1.51e+00	0	39	104	0	60	64836
2026-01-19 18:50:02.32	44.45	0.48	-49.8	-65.0	3.6	1.51e+00	0	39	104	0	60	64527
2026-01-19 18:50:03.33	44.37	0.53	-49.8	-65.0	3.6	1.51e+00	0	39	104	0	60	64267
2026-01-19 18:50:04.34	44.30	0.58	-49.6	-64.9	3.6	1.51e+00	0	39	104	0	60	63498
2026-01-19 18:50:05.35	44.22	0.63	-49.6	-64.8	3.6	1.51e+00	0	39	104	0	60	62773
2026-01-19 18:50:06.36	44.14	0.68	-49.6	-64.8	3.6	1.51e+00	0	39	104	0	60	62543
2026-01-19 18:50:07.37	44.06	0.73	-49.5	-64.7	3.6	1.51e+00	0	39	104	0	60	62141
2026-01-19 18:50:08.38	43.99	0.78	-49.5	-64.7	3.6	1.51e+00	0	39	104	0	60	62008
2026-01-19 18:50:09.39	43.91	0.83	-49.4	-64.7	3.6	1.51e+00	0	39	104	0	60	61752
2026-01-19 18:50:10.40	43.83	0.88	-49.4	-64.6	3.6	1.51e+00	0	39	104	0	60	61540
2026-01-19 18:50:11.41	43.75	0.93	-49.2	-64.5	3.6	1.51e+00	0	39	104	0	60	61013
2026-01-19 18:50:12.43	43.67	0.98	-49.2	-64.4	3.6	1.51e+00	0	39	104	0	60	60208
2026-01-19 18:50:13.44	43.59	1.03	-49.1	-64.4	3.6	1.51e+00	0	39	104	0	60	59976
2026-01-19 18:50:14.45	43.51	1.08	-48.9	-64.2	3.6	1.51e+00	0	39	104	0	60	58908
2026-01-19 18:50:15.46	43.43	1.13	-48.8	-64.1	3.6	1.51e+00	0	39	104	0	60	57902
2026-01-19 18:50:16.47	43.35	1.18	-48.7	-63.8	3.6	1.51e+00	0	39	104	0	60	56146
2026-01-19 18:50:17.48	43.27	1.23	-48.2	-63.4	3.6	1.51e+00	0	39	104	0	60	53436
2026-01-19 18:50:18.49	43.19	1.28	-47.8	-62.9	3.6	1.51e+00	0	39	104	0	60	50489
2026-01-19 18:50:19.50	43.11	1.33	-47.5	-62.6	3.6	1.51e+00	0	39	104	0	60	48853
2026-01-19 18:50:20.51	43.03	1.38	-47.4	-62.6	3.6	1.51e+00	0	39	104	0	60	48831
2026-01-19 18:50:21.52	42.95	1.43	-47.4	-62.6	3.6	1.51e+00	0	39	104	0	60	48875
2026-01-19 18:50:22.53	42.86	1.48	-47.4	-62.6	3.6	1.51e+00	0	39	104	0	60	48960
2026-01-19 18:50:23.54	42.78	1.53	-47.4	-62.6	3.6	1.51e+00	0	39	104	0	60	48649
2026-01-19 18:50:24.55	42.70	1.58	-47.4	-62.5	3.6	1.51e+00	0	39	104	0	60	48356
2026-01-19 18:50:25.56	42.62	1.63	-47.4	-62.6	3.6	1.51e+00	0	39	104	0	60	48615
2026-01-19 18:50:26.57	42.53	1.68	-47.4	-62.6	3.6	1.51e+00	0	39	104	0	60	48715
2026-01-19 18:50:27.58	42.45	1.73	-47.4	-62.6	3.6	1.51e+00	0	39	104	0	60	48588
2026-01-19 18:50:28.59	42.37	1.78	-47.4	-62.6	3.6	1.51e+00	0	39	104	0	60	48857
2026-01-19 18:50:29.60	42.28	1.83	-47.4	-62.6	3.6	1.51e+00	0	39	104	0	60	48615
2026-01-19 18:50:30.61	42.20	1.88	-47.4	-62.6	3.6	1.51e+00	0	39	104	0	60	48561
2026-01-19 18:50:31.62	42.12	1.94	-47.4	-62.5	3.5	1.51e+00	0	39	104	0	60	48157
2026-01-19 18:50:32.62	42.03	1.99	-47.4	-62.4	3.6	1.51e+00	0	39	104	0	60	47626
2026-01-19 18:50:33.63	41.95	2.04	-47.4	-62.4	3.6	1.51e+00	0	39	104	0	60	47624
2026-01-19 18:50:34.64	41.86	2.09	-47.4	-62.3	3.6	1.51e+00	0	39	104	0	60	46949
2026-01-19 18:50:35.65	41.78	2.14	-47.4	-62.4	3.6	1.51e+00	0	39	104	0	60	47440
2026-01-19 18:50:36.66	41.69	2.19	-47.4	-62.4	3.6	1.51e+00	0	39	104	0	60	47514
2026-01-19 18:50:37.67	41.60	2.24	-47.4	-62.5	3.6	1.51e+00	0	39	104	0	60	48460
2026-01-19 18:50:38.68	41.52	2.29	-47.4	-62.6	3.6	1.51e+00	0	39	104	0	60	48821
2026-01-19 18:50:39.69	41.43	2.34	-47.4	-62.6	3.6	1.51e+00	0	39	104	0	60	48926
2026-01-19 18:50:40.70	41.34	2.39	-47.4	-62.6	3.6	1.51e+00	0	39	104	0	60	48498
2026-01-19 18:50:41.71	41.25	2.44	-47.4	-62.5	3.6	1.51e+00	0	39	104	0	60	48390
2026-01-19 18:50:42.72	41.17	2.49	-47.4	-62.6	3.6	1.51e+00	0	39	104	0	60	48776
2026-01-19 18:50:43.73	41.08	2.55	-47.4	-62.5	3.6	1.51e+00	0	39	104	0	60	48003
2026-01-19 18:50:44.74	40.99	2.60	-47.4	-62.1	3.6	1.51e+00	0	39	104	0	60	45874
2026-01-19 18:50:45.75	40.90	2.65	-47.4	-61.4	3.6	1.51e+00	0	39	104	0	60	42435
2026-01-19 18:50:46.76	40.81	2.70	-47.4	-61.7	3.6	1.51e+00	0	39	104	0	60	43874
2026-01-19 18:50:47.77	40.72	2.75	-47.4	-62.3	3.6	1.51e+00	0	39	104	0	60	47014
2026-01-19 18:50:48.78	40.63	2.80	-47.4	-62.3	3.6	1.51e+00	0	39	104	0	60	47227
2026-01-19 18:50:49.79	40.54	2.85	-47.4	-61.1	3.6	1.51e+00	0	39	104	0	60	40963
2026-01-19 18:50:50.80	40.45	2.90	-47.3	-59.7	3.7	1.51e+00	0	40	104	0	60	34925
2026-01-19 18:50:51.81	40.36	2.96	-47.0	-56.2	5.4	1.26e+00	0	39	104	0	60	23424
2026-01-19 18:50:52.82	40.27	3.01	-46.8	-54.3	6.3	4.96e-01	0	39	0	1048576	60	18731
2026-01-19 18:50:53.83	40.18	3.06	-47.0	-55.5	5.0	2.31e-01	0	39	0	2097152	60	21471
2026-01-19 18:50:54.84	40.09	3.11	-44.6	-47.6	14.2	8.84e-02	0	40	0	4194304	60	8667
2026-01-19 18:50:55.85	40.00	3.16	-47.3	-62.4	3.6	2.49e-03	0	39	104	6291456	60	47387
2026-01-19 18:50:56.86	39.90	3.21	-47.3	-57.6	3.8	1.46e+00	0	39	104	6291456	60	27417
2026-01-19 18:50:57.87	39.81	3.26	-44.3	-47.3	14.1	6.60e-02	0	39	0	6291456	60	8377
2026-01-19 18:50:58.88	39.72	3.32	-44.7	-48.0	14.1	5.64e-05	0	39	0	8388608	60	9081
2026-01-19 18:50:59.89	39.62	3.37	-44.5	-47.6	14.4	1.67e-05	0	40	0	10485760	60	8645
2026-01-19 18:51:00.90	39.53	3.42	-45.3	-49.3	12.1	1.50e-06	0	39	0	11534336	60	10512
2026-01-19 18:51:01.91	39.44	3.47	-45.9	-50.6	10.9	3.74e-03	0	40	0	13631488	60	12260
2026-01-19 18:51:02.92	39.34	3.52	-43.9	-46.5	15.3	1.56e-04	0	40	0	15728640	60	7634
2026-01-19 18:51:03.93	39.25	3.57	-45.1	-48.8	12.9	8.84e-04	0	40	0	17825792	60	9926
2026-01-19 18:51:04.94	39.15	3.62	-44.5	-47.6	13.7	7.60e-06	0	39	0	19922944	60	8656
2026-01-19 18:51:05.95	39.06	3.68	-44.8	-48.1	13.4	9.10e-06	0	40	0	20971520	60	9178
2026-01-19 18:51:06.96	38.96	3.73	-45.1	-48.7	12.9	1.74e-04	0	40	0	23068672	60	9898
2026-01-19 18:51:07.97	38.86	3.78	-44.6	-47.8	14.1	4.50e-06	0	39	0	25165824	60	8854
2026-01-19 18:51:08.98	38.77	3.83	-45.0	-48.4	13.3	8.30e-06	0	40	0	27262976	60	9554
2026-01-19 18:51:09.99	38.67	3.88	-43.9	-46.6	15.4	7.00e-07	0	39	0	29360128	60	7694
2026-01-19 18:51:10.99	38.57	3.93	-43.9	-46.5	15.3	0.00e+00	0	40	0	30408704	60	7629
2026-01-19 18:51:12.00	38.48	3.99	-43.8	-46.3	15.9	0.00e+00	0	40	0	32505856	60	7446
2026-01-19 18:51:13.01	38.38	4.04	-43.9	-46.5	14.9	0.00e+00	0	40	0	34603008	60	7663
2026-01-19 18:51:14.02	38.28	4.09	-44.0	-46.6	15.6	0.00e+00	0	40	0	36700160	60	7732
2026-01-19 18:51:15.03	38.18	4.14	-44.0	-46.6	15.6	0.00e+00	0	40	0	38797312	60	7703
2026-01-19 18:51:16.04	38.08	4.19	-43.6	-46.0	16.4	0.00e+00	0	39	0	39845888	60	7203
2026-01-19 18:51:17.05	37.98	4.25	-43.6	-46.0	16.0	0.00e+00	0	39	0	41943040	60	7237
2026-01-19 18:51:18.06	37.88	4.30	-44.0	-46.6	15.5	0.00e+00	0	40	0	44040192	60	7693
2026-01-19 18:51:19.06	37.78	4.35	-43.8	-46.3	15.9	0.00e+00	0	40	0	46137344	60	7445
2026-01-19 18:51:20.07	37.68	4.40	-43.4	-45.7	16.3	0.00e+00	0	40	0	48234496	60	6987
2026-01-19 18:51:21.08	37.58	4.45	-42.8	-44.8	17.4	0.00e+00	0	39	0	49283072	60	6287
2026-01-19 18:51:22.09	37.48	4.50	-43.2	-45.5	16.9	0.00e+00	0	40	0	51380224	58	7604
2026-01-19 18:51:23.10	37.38	4.56	-43.2	-45.4	16.6	0.00e+00	0	40	0	53477376	58	7520
2026-01-19 18:51:24.11	37.28	4.61	-43.6	-45.9	16.1	0.00e+00	0	40	0	55574528	58	8044
2026-01-19 18:51:25.12	37.18	4.66	-43.6	-45.9	16.2	0.00e+00	0	40	0	57671680	60	7144
2026-01-19 18:51:26.13	37.07	4.71	-43.6	-45.9	16.2	0.00e+00	0	40	0	59768832	60	7155
2026-01-19 18:51:27.14	36.97	4.77	-43.1	-45.2	17.0	0.00e+00	0	40	0	60817408	60	6590
2026-01-19 18:51:28.15	36.87	4.82	-43.2	-45.3	16.8	0.00e+00	0	40	0	62914560	60	6681
2026-01-19 18:51:29.16	36.76	4.87	-43.6	-45.9	16.2	0.00e+00	0	40	0	65011712	60	7113
2026-01-19 18:51:30.17	36.66	4.92	-43.3	-45.4	16.9	0.00e+00	0	40	0	67108864	60	6757
2026-01-19 18:51:31.18	36.55	4.97	-43.8	-46.3	16.0	0.00e+00	0	40	0	69206016	60	7427
2026-01-19 18:51:32.18	36.45	5.02	-43.4	-45.6	16.6	0.00e+00	0	40	0	70254592	60	6887
2026-01-19 18:51:33.20	36.34	5.08	-43.3	-45.5	16.3	0.00e+00	0	40	0	72351744	60	6803
2026-01-19 18:51:34.21	36.24	5.13	-42.7	-44.6	17.8	0.00e+00	0	40	0	74448896	60	6165
2026-01-19 18:51:35.22	36.13	5.18	-42.5	-44.4	17.5	0.00e+00	0	40	0	76546048	58	6710
2026-01-19 18:51:36.22	36.02	5.23	-42.9	-45.0	16.8	0.00e+00	0	40	0	78643200	58	7176
2026-01-19 18:51:37.23	35.92	5.29	-43.6	-45.9	16.2	0.00e+00	0	40	0	79691776	58	7987
2026-01-19 18:51:38.25	35.81	5.34	-42.3	-44.1	18.1	0.00e+00	0	40	0	81788928	58	6533
2026-01-19 18:51:39.25	35.70	5.39	-42.9	-44.9	17.4	0.00e+00	0	40	0	83886080	58	7129
2026-01-19 18:51:40.26	35.59	5.44	-43.1	-45.2	17.0	0.00e+00	0	40	0	85983232	58	7347
2026-01-19 18:51:41.27	35.49	5.49	-42.9	-44.9	17.4	0.00e+00	0	40	0	88080384	58	7099
2026-01-19 18:51:42.28	35.38	5.55	-42.9	-44.9	17.2	0.00e+00	0	40	0	89128960	58	7135
2026-01-19 18:51:43.29	35.27	5.60	-41.9	-43.5	18.6	0.00e+00	0	40	0	91226112	58	6091
2026-01-19 18:51:44.30	35.16	5.65	-42.5	-44.3	17.7	0.00e+00	0	40	0	93323264	58	6644
2026-01-19 18:51:45.31	35.05	5.70	-42.3	-44.0	18.0	0.00e+00	0	40	0	95420416	58	6456
2026-01-19 18:51:46.32	34.94	5.76	-43.0	-45.1	17.3	0.00e+00	0	40	0	97517568	58	7255
2026-01-19 18:51:47.33	34.83	5.81	-42.7	-44.6	17.6	0.00e+00	0	40	0	98566144	58	6866
2026-01-19 18:51:48.34	34.71	5.86	-42.8	-44.7	17.6	0.00e+00	0	40	0	100663296	58	6963
2026-01-19 18:51:49.34	34.60	5.91	-42.4	-44.2	17.9	0.00e+00	0	40	0	102760448	58	6593
2026-01-19 18:51:50.36	34.49	5.96	-42.5	-44.4	18.1	0.00e+00	0	40	0	104857600	58	6710
2026-01-19 18:51:51.36	34.38	6.02	-42.5	-44.3	17.9	0.00e+00	0	40	0	106954752	56	7507
2026-01-19 18:51:52.37	34.27	6.07	-42.2	-43.9	18.5	0.00e+00	0	40	0	108003328	58	6347
2026-01-19 18:51:53.38	34.15	6.12	-42.2	-44.0	18.2	0.00e+00	0	40	0	110100480	58	6416
2026-01-19 18:51:54.39	34.04	6.17	-43.4	-45.5	17.1	0.00e+00	0	40	0	112197632	58	7672
2026-01-19 18:51:55.40	33.92	6.22	-42.6	-44.5	17.8	0.00e+00	0	40	0	114294784	58	6803
2026-01-19 18:51:56.41	33.81	6.28	-42.7	-44.6	17.8	0.00e+00	0	40	0	116391936	58	6853
2026-01-19 18:51:57.42	33.69	6.33	-42.3	-44.1	18.3	0.00e+00	0	40	0	117440512	58	6484
2026-01-19 18:51:58.43	33.58	6.38	-42.0	-43.6	18.7	0.00e+00	0	40	0	119537664	56	6918
2026-01-19 18:51:59.44	33.46	6.43	-42.3	-44.0	18.4	0.00e+00	0	40	0	121634816	56	7195
2026-01-19 18:52:00.45	33.35	6.49	-41.8	-43.4	19.1	0.00e+00	0	40	0	123731968	56	6733
2026-01-19 18:52:01.46	33.23	6.54	-42.2	-43.9	18.5	0.00e+00	0	40	0	125829120	56	7140
2026-01-19 18:52:02.47	33.11	6.59	-41.7	-43.2	19.3	0.00e+00	0	40	0	127926272	56	6612
2026-01-19 18:52:03.48	32.99	6.64	-41.8	-43.3	19.2	0.00e+00	0	40	0	128974848	56	6663
2026-01-19 18:52:04.49	32.88	6.69	-42.5	-44.2	18.1	0.00e+00	0	40	0	131072000	56	7409
2026-01-19 18:52:05.50	32.76	6.75	-42.4	-44.2	18.5	0.00e+00	0	40	0	133169152	58	6544
2026-01-19 18:52:06.50	32.64	6.80	-41.9	-43.5	18.8	0.00e+00	0	40	0	135266304	58	6093
2026-01-19 18:52:07.52	32.52	6.85	-42.2	-43.8	18.7	0.00e+00	0	40	0	137363456	58	6307
2026-01-19 18:52:08.53	32.40	6.90	-42.3	-43.9	18.6	0.00e+00	0	40	0	138412032	58	6388
2026-01-19 18:52:09.54	32.28	6.95	-42.1	-43.7	18.8	0.00e+00	0	40	0	140509184	58	6244
2026-01-19 18:52:10.54	32.16	7.01	-42.0	-43.6	18.9	0.00e+00	0	40	0	142606336	58	6153
2026-01-19 18:52:11.55	32.04	7.06	-42.1	-43.7	18.8	0.00e+00	0	40	0	144703488	58	6235
2026-01-19 18:52:12.56	31.92	7.11	-42.1	-43.7	18.8	0.00e+00	0	40	0	146800640	58	6210
2026-01-19 18:52:13.57	31.79	7.16	-42.4	-44.1	18.5	0.00e+00	0	40	0	147849216	58	6530
2026-01-19 18:52:14.58	31.67	7.21	-42.2	-43.9	18.8	0.00e+00	0	40	0	149946368	58	6340
2026-01-19 18:52:15.59	31.55	7.27	-42.1	-43.7	19.0	0.00e+00	0	40	0	152043520	58	6183
2026-01-19 18:52:16.60	31.42	7.32	-42.1	-43.7	18.8	0.00e+00	0	40	0	154140672	58	6214
2026-01-19 18:52:17.61	31.30	7.37	-42.2	-43.9	18.8	0.00e+00	0	40	0	156237824	58	6345
2026-01-19 18:52:18.62	31.18	7.42	-42.1	-43.7	18.9	0.00e+00	0	40	0	157286400	58	6180
2026-01-19 18:52:19.63	31.05	7.47	-42.0	-43.5	19.0	0.00e+00	0	40	0	159383552	58	6101
2026-01-19 18:52:20.64	30.93	7.53	-42.2	-43.8	18.8	0.00e+00	0	40	0	161480704	58	6316
2026-01-19 18:52:21.65	30.80	7.58	-42.0	-43.6	19.2	0.00e+00	0	40	0	163577856	58	6112
2026-01-19 18:52:22.66	30.67	7.63	-41.9	-43.5	19.1	0.00e+00	0	40	0	165675008	56	6780
2026-01-19 18:52:23.67	30.55	7.68	-42.3	-43.9	18.9	0.00e+00	0	40	0	166723584	56	7149
2026-01-19 18:52:24.68	30.42	7.73	-42.0	-43.6	18.9	0.00e+00	0	40	0	168820736	56	6896
2026-01-19 18:52:25.69	30.29	7.79	-41.8	-43.3	19.5	0.00e+00	0	40	0	170917888	56	6650
2026-01-19 18:52:26.70	30.16	7.84	-41.7	-43.1	19.4	0.00e+00	0	40	0	173015040	56	6517
2026-01-19 18:52:27.71	30.04	7.89	-42.2	-43.8	19.1	0.00e+00	0	40	0	175112192	56	7021
2026-01-19 18:52:28.72	29.91	7.94	-42.1	-43.6	19.1	0.00e+00	0	40	0	176160768	56	6920
2026-01-19 18:52:29.73	29.78	7.99	-42.0	-43.6	19.1	0.00e+00	0	40	0	178257920	56	6872
2026-01-19 18:52:30.74	29.65	8.04	-41.8	-43.2	19.5	0.00e+00	0	40	0	180355072	56	6609
2026-01-19 18:52:31.75	29.52	8.09	-42.0	-43.6	19.1	0.00e+00	0	40	0	182452224	56	6880
2026-01-19 18:52:32.76	29.39	8.15	-41.9	-43.4	19.3	0.00e+00	0	40	0	184549376	56	6719
2026-01-19 18:52:33.76	29.26	8.20	-41.8	-43.2	19.5	0.00e+00	0	40	0	185597952	56	6607
2026-01-19 18:52:34.77	29.12	8.25	-41.9	-43.4	19.4	0.00e+00	0	40	0	187695104	56	6744
2026-01-19 18:52:35.78	28.99	8.30	-41.8	-43.3	19.5	0.00e+00	0	40	0	189792256	56	6618
2026-01-19 18:52:36.79	28.86	8.35	-41.5	-42.9	19.9	0.00e+00	0	40	0	191889408	56	6376
2026-01-19 18:52:37.80	28.73	8.40	-41.6	-43.1	19.7	0.00e+00	0	40	0	193986560	56	6475
2026-01-19 18:52:38.81	28.59	8.45	-41.9	-43.4	19.3	0.00e+00	0	40	0	196083712	56	6718
2026-01-19 18:52:39.82	28.46	8.51	-41.8	-43.2	19.5	0.00e+00	0	40	0	197132288	56	6587
2026-01-19 18:52:40.83	28.32	8.56	-41.7	-43.2	19.6	0.00e+00	0	40	0	199229440	56	6556
2026-01-19 18:52:41.84	28.19	8.61	-41.5	-42.9	19.9	0.00e+00	0	40	0	201326592	56	6344
2026-01-19 18:52:42.84	28.05	8.66	-41.8	-43.3	19.4	0.00e+00	0	40	0	203423744	56	6661
2026-01-19 18:52:43.86	27.92	8.71	-41.9	-43.4	19.4	0.00e+00	0	40	0	205520896	56	6748
2026-01-19 18:52:44.86	27.78	8.76	-41.9	-43.4	19.5	0.00e+00	0	40	0	206569472	56	6726
2026-01-19 18:52:45.87	27.64	8.81	-41.7	-43.2	19.6	0.00e+00	0	40	0	208666624	56	6572
2026-01-19 18:52:46.88	27.51	8.86	-41.7	-43.1	19.7	0.00e+00	0	40	0	210763776	56	6497
2026-01-19 18:52:47.89	27.37	8.91	-41.4	-42.8	19.9	0.00e+00	0	40	0	212860928	56	6302
2026-01-19 18:52:48.90	27.23	8.96	-41.7	-43.1	19.7	0.00e+00	0	40	0	214958080	56	6506
2026-01-19 18:52:49.91	27.09	9.01	-42.0	-43.5	19.3	0.00e+00	0	40	0	216006656	56	6846
2026-01-19 18:52:50.92	26.95	9.06	-41.6	-43.0	19.8	0.00e+00	0	40	0	218103808	56	6431
2026-01-19 18:52:51.93	26.81	9.11	-41.5	-42.9	19.9	0.00e+00	0	40	0	220200960	56	6337
2026-01-19 18:52:52.94	26.67	9.17	-41.5	-42.9	19.9	0.00e+00	0	40	0	222298112	56	6354
2026-01-19 18:52:53.95	26.53	9.22	-41.8	-43.3	19.6	0.00e+00	0	40	0	224395264	56	6624
2026-01-19 18:52:54.96	26.39	9.27	-41.7	-43.2	19.6	0.00e+00	0	40	0	225443840	56	6555
2026-01-19 18:52:55.97	26.25	9.32	-41.8	-43.3	19.6	0.00e+00	0	40	0	227540992	56	6659
2026-01-19 18:52:56.98	26.10	9.37	-41.5	-42.8	20.0	0.00e+00	0	40	0	229638144	56	6303
2026-01-19 18:52:57.99	25.96	9.42	-41.7	-43.2	19.5	0.00e+00	0	40	0	231735296	56	6565
2026-01-19 18:52:58.99	25.82	9.47	-41.6	-43.1	19.7	0.00e+00	0	40	0	233832448	56	6474
2026-01-19 18:53:00.00	25.67	9.52	-41.7	-43.1	19.9	0.00e+00	0	40	0	234881024	56	6496
2026-01-19 18:53:01.00	25.53	9.57	-41.7	-43.2	19.6	0.00e+00	0	40	0	236978176	56	6562
2026-01-19 18:53:02.01	25.39	9.62	-41.8	-43.3	19.5	0.00e+00	0	40	0	239075328	56	6637
2026-01-19 18:53:03.02	25.24	9.67	-41.4	-42.8	20.1	0.00e+00	0	40	0	241172480	56	6261
2026-01-19 18:53:04.02	25.10	9.71	-41.6	-43.1	19.8	0.00e+00	0	40	0	243269632	56	6490
2026-01-19 18:53:05.03	24.95	9.76	-41.7	-43.1	19.6	0.00e+00	0	40	0	244318208	56	6512
2026-01-19 18:53:06.04	24.80	9.81	-41.7	-43.1	19.8	0.00e+00	0	40	0	246415360	56	6496
2026-01-19 18:53:07.05	24.65	9.86	-41.8	-43.2	19.6	0.00e+00	0	40	0	248512512	56	6582
2026-01-19 18:53:08.06	24.51	9.91	-41.7	-43.1	19.8	0.00e+00	0	40	0	250609664	56	6503
2026-01-19 18:53:09.07	24.36	9.96	-41.9	-43.3	19.7	0.00e+00	0	40	0	252706816	56	6650
2026-01-19 18:53:10.08	24.21	10.01	-41.5	-42.8	20.1	0.00e+00	0	40	0	253755392	56	6300
2026-01-19 18:53:11.09	24.06	10.06	-41.7	-43.1	19.8	0.00e+00	0	40	0	255852544	56	6487
2026-01-19 18:53:12.10	23.91	10.11	-41.4	-42.7	20.1	0.00e+00	0	40	0	257949696	56	6236
2026-01-19 18:53:13.11	23.76	10.16	-41.4	-42.8	20.2	0.00e+00	0	40	0	260046848	56	6270
2026-01-19 18:53:14.12	23.61	10.21	-41.7	-43.1	19.8	0.00e+00	0	40	0	262144000	56	6533
2026-01-19 18:53:15.13	23.45	10.26	-41.6	-43.0	20.0	0.00e+00	0	40	0	263192576	56	6405
2026-01-19 18:53:16.14	23.30	10.30	-41.6	-43.0	19.9	0.00e+00	0	40	0	265289728	56	6394
2026-01-19 18:53:17.15	23.15	10.35	-41.2	-42.5	20.4	0.00e+00	0	40	0	267386880	56	6078
2026-01-19 18:53:18.16	23.00	10.40	-41.3	-42.6	20.5	0.00e+00	0	40	0	269484032	56	6124
2026-01-19 18:53:19.17	22.84	10.45	-40.9	-42.1	20.8	0.00e+00	0	40	0	271581184	56	5791
2026-01-19 18:53:20.17	22.69	10.50	-40.9	-42.1	20.8	0.00e+00	0	40	0	272629760	56	5801
2026-01-19 18:53:21.19	22.53	10.55	-40.7	-41.9	20.9	0.00e+00	0	40	0	274726912	54	6357
2026-01-19 18:53:22.19	22.38	10.59	-40.5	-41.7	21.1	0.00e+00	0	40	0	276824064	54	6226
2026-01-19 18:53:23.20	22.22	10.64	-40.5	-41.7	21.1	0.00e+00	0	40	0	278921216	54	6206
2026-01-19 18:53:24.21	22.07	10.69	-40.6	-41.8	21.0	0.00e+00	0	40	0	281018368	54	6309
2026-01-19 18:53:25.22	21.91	10.74	-40.8	-42.0	20.8	0.00e+00	0	40	0	282066944	54	6441
2026-01-19 18:53:26.23	21.75	10.78	-41.1	-42.4	20.5	0.00e+00	0	40	0	284164096	54	6708
2026-01-19 18:53:27.24	21.59	10.83	-40.8	-42.0	20.9	0.00e+00	0	40	0	286261248	54	6432
2026-01-19 18:53:28.25	21.44	10.88	-40.5	-41.6	21.3	0.00e+00	0	40	0	288358400	54	6172
2026-01-19 18:53:29.26	21.28	10.92	-40.4	-41.6	21.3	0.00e+00	0	40	0	290455552	54	6153
2026-01-19 18:53:30.27	21.12	10.97	-40.5	-41.7	21.2	0.00e+00	0	40	0	292552704	54	6194
2026-01-19 18:53:31.28	20.96	11.02	-40.3	-41.4	21.3	0.00e+00	0	40	0	293601280	54	6019
2026-01-19 18:53:32.29	20.80	11.07	-40.3	-41.4	21.3	0.00e+00	0	40	0	295698432	54	6019
2026-01-19 18:53:33.30	20.64	11.11	-40.3	-41.5	21.3	0.00e+00	0	40	0	297795584	54	6072
2026-01-19 18:53:34.31	20.47	11.16	-40.1	-41.3	21.4	0.00e+00	0	40	0	299892736	54	5911
2026-01-19 18:53:35.32	20.31	11.20	-40.1	-41.2	21.5	0.00e+00	0	40	0	301989888	54	5884
2026-01-19 18:53:36.32	20.15	11.25	-40.0	-41.1	21.8	0.00e+00	0	40	0	303038464	54	5822
2026-01-19 18:53:37.34	19.99	11.30	-40.1	-41.3	21.5	0.00e+00	0	40	0	305135616	54	5928
2026-01-19 18:53:38.35	19.82	11.34	-40.1	-41.3	21.5	0.00e+00	0	40	0	307232768	54	5921
2026-01-19 18:53:39.35	19.66	11.39	-40.1	-41.2	21.7	0.00e+00	0	40	0	309329920	54	5893
2026-01-19 18:53:40.36	19.50	11.43	-40.0	-41.1	21.7	0.00e+00	0	40	0	311427072	54	5780
2026-01-19 18:53:41.37	19.33	11.48	-39.9	-41.0	21.8	0.00e+00	0	40	0	312475648	54	5756
2026-01-19 18:53:42.38	19.16	11.52	-39.8	-40.8	21.9	0.00e+00	0	40	0	314572800	52	6309
2026-01-19 18:53:43.39	19.00	11.57	-40.5	-41.7	21.2	0.00e+00	0	40	0	316669952	52	6967
2026-01-19 18:53:44.40	18.83	11.62	-40.2	-41.4	21.6	0.00e+00	0	40	0	318767104	52	6695
2026-01-19 18:53:45.41	18.66	11.66	-40.2	-41.3	21.6	0.00e+00	0	40	0	320864256	52	6663
2026-01-19 18:53:46.42	18.50	11.70	-39.8	-40.8	22.0	0.00e+00	0	40	0	321912832	52	6312
2026-01-19 18:53:47.43	18.33	11.75	-39.9	-41.0	21.8	0.00e+00	0	40	0	324009984	52	6446
2026-01-19 18:53:48.44	18.16	11.79	-39.9	-41.0	21.9	0.00e+00	0	40	0	326107136	52	6439
2026-01-19 18:53:49.45	17.99	11.84	-40.0	-41.1	21.8	0.00e+00	0	40	0	328204288	52	6466
2026-01-19 18:53:50.46	17.82	11.88	-39.7	-40.8	22.0	0.00e+00	0	40	0	330301440	52	6289
2026-01-19 18:53:51.46	17.65	11.93	-39.8	-40.8	21.7	0.00e+00	0	40	0	331350016	52	6306
2026-01-19 18:53:52.47	17.48	11.97	-39.7	-40.7	21.9	0.00e+00	0	40	0	333447168	52	6218
2026-01-19 18:53:53.48	17.31	12.01	-39.4	-40.4	22.5	0.00e+00	0	40	0	335544320	52	5985
2026-01-19 18:53:54.49	17.14	12.06	-39.2	-40.2	22.5	0.00e+00	0	40	0	337641472	52	5854
2026-01-19 18:53:55.51	16.96	12.10	-39.3	-40.3	22.6	0.00e+00	0	40	0	339738624	52	5953
2026-01-19 18:53:56.52	16.79	12.14	-39.1	-40.1	22.7	0.00e+00	0	40	0	340787200	52	5806
2026-01-19 18:53:57.53	16.62	12.19	-39.1	-40.1	22.7	0.00e+00	0	40	0	342884352	52	5816
2026-01-19 18:53:58.54	16.44	12.23	-39.1	-40.1	22.7	0.00e+00	0	40	0	344981504	52	5789
2026-01-19 18:53:59.55	16.27	12.27	-39.6	-40.6	22.3	0.00e+00	0	40	0	347078656	52	6148
2026-01-19 18:54:00.55	16.09	12.31	-39.2	-40.2	22.6	0.00e+00	0	40	0	349175808	52	5847
2026-01-19 18:54:01.56	15.92	12.35	-39.4	-40.5	22.2	0.00e+00	0	40	0	350224384	52	6038
2026-01-19 18:54:02.57	15.74	12.40	-39.7	-40.7	22.4	0.00e+00	0	40	0	352321536	52	6223
2026-01-19 18:54:03.58	15.57	12.44	-39.6	-40.6	22.1	0.00e+00	0	40	0	354418688	52	6156
2026-01-19 18:54:04.59	15.39	12.48	-40.1	-41.2	21.8	0.00e+00	0	40	0	356515840	52	6594
2026-01-19 18:54:05.60	15.21	12.52	-40.2	-41.4	21.6	0.00e+00	0	40	0	358612992	52	6696
2026-01-19 18:54:06.61	15.03	12.56	-40.1	-41.2	21.8	0.00e+00	0	40	0	360710144	52	6555
2026-01-19 18:54:07.62	14.86	12.60	-40.0	-41.0	21.8	0.00e+00	0	40	0	361758720	52	6454
2026-01-19 18:54:08.63	14.68	12.64	-39.7	-40.8	21.9	0.00e+00	0	40	0	363855872	52	6274
2026-01-19 18:54:09.64	14.50	12.68	-40.3	-41.5	21.5	0.00e+00	0	40	0	365953024	52	6778
2026-01-19 18:54:10.65	14.32	12.72	-40.0	-41.1	21.6	0.00e+00	0	40	0	368050176	52	6508
2026-01-19 18:54:11.66	14.14	12.76	-40.3	-41.4	21.8	0.00e+00	0	40	0	370147328	52	6729
2026-01-19 18:54:12.67	13.95	12.80	-40.0	-41.1	21.8	0.00e+00	0	40	0	371195904	52	6494
2026-01-19 18:54:13.68	13.77	12.84	-40.0	-41.1	21.7	0.00e+00	0	40	0	373293056	52	6501
2026-01-19 18:54:14.69	13.59	12.88	-40.4	-41.5	21.4	0.00e+00	0	40	0	375390208	52	6835
2026-01-19 18:54:15.70	13.41	12.92	-39.7	-40.7	22.2	0.00e+00	0	40	0	377487360	52	6231
2026-01-19 18:54:16.71	13.23	12.96	-39.7	-40.8	22.1	0.00e+00	0	40	0	379584512	52	6292
2026-01-19 18:54:17.72	13.04	13.00	-39.8	-40.9	22.1	0.00e+00	0	40	0	380633088	52	6334
2026-01-19 18:54:18.73	12.86	13.04	-39.9	-41.0	22.0	0.00e+00	0	40	0	382730240	52	6423
2026-01-19 18:54:19.74	12.67	13.08	-39.9	-41.0	22.0	0.00e+00	0	40	0	384827392	52	6429
2026-01-19 18:54:20.75	12.49	13.11	-40.1	-41.2	21.9	0.00e+00	0	40	0	386924544	52	6562
2026-01-19 18:54:21.76	12.30	13.15	-39.6	-40.6	22.3	0.00e+00	0	40	0	389021696	52	6158
2026-01-19 18:54:22.77	12.12	13.19	-39.5	-40.6	22.3	0.00e+00	0	40	0	390070272	52	6110
2026-01-19 18:54:23.77	11.93	13.23	-39.4	-40.4	22.5	0.00e+00	0	40	0	392167424	52	5991
2026-01-19 18:54:24.79	11.74	13.26	-39.4	-40.4	22.5	0.00e+00	0	40	0	394264576	52	5975
2026-01-19 18:54:25.79	11.56	13.30	-39.4	-40.4	22.5	0.00e+00	0	40	0	396361728	52	6017
2026-01-19 18:54:26.80	11.37	13.34	-39.5	-40.6	22.4	0.00e+00	0	40	0	398458880	52	6113
2026-01-19 18:54:27.81	11.18	13.37	-39.4	-40.4	22.4	0.00e+00	0	40	0	399507456	52	6006
2026-01-19 18:54:28.82	10.99	13.41	-39.6	-40.6	22.4	0.00e+00	0	40	0	401604608	52	6148
2026-01-19 18:54:29.83	10.80	13.45	-39.6	-40.6	22.4	0.00e+00	0	40	0	403701760	52	6157
2026-01-19 18:54:30.84	10.61	13.48	-39.5	-40.5	22.4	0.00e+00	0	40	0	405798912	52	6074
2026-01-19 18:54:31.85	10.42	13.52	-39.5	-40.5	22.4	0.00e+00	0	40	0	407896064	52	6068
2026-01-19 18:54:32.86	10.23	13.55	-39.6	-40.7	22.2	0.00e+00	0	40	0	408944640	52	6208
2026-01-19 18:54:33.87	10.04	13.59	-39.4	-40.4	22.5	0.00e+00	0	40	0	411041792	52	5999
2026-01-19 18:54:34.88	9.85	13.62	-39.5	-40.5	22.6	0.00e+00	0	40	0	413138944	52	6050
2026-01-19 18:54:35.89	9.66	13.65	-39.3	-40.3	22.2	0.00e+00	0	40	0	415236096	52	5932
2026-01-19 18:54:36.90	9.47	13.69	-39.6	-40.6	22.1	0.00e+00	0	40	0	417333248	52	6129
2026-01-19 18:54:37.91	9.27	13.72	-39.7	-40.8	22.3	0.00e+00	0	40	0	418381824	52	6275
2026-01-19 18:54:38.91	9.08	13.76	-39.5	-40.5	22.5	0.00e+00	0	40	0	420478976	52	6063
2026-01-19 18:54:39.92	8.89	13.79	-39.5	-40.5	22.5	0.00e+00	0	40	0	422576128	52	6058
2026-01-19 18:54:40.93	8.69	13.82	-39.8	-40.8	22.2	0.00e+00	0	40	0	424673280	52	6310
2026-01-19 18:54:41.94	8.50	13.85	-39.6	-40.7	22.3	0.00e+00	0	40	0	426770432	52	6186
2026-01-19 18:54:42.95	8.30	13.89	-39.5	-40.5	22.4	0.00e+00	0	40	0	428867584	52	6061
2026-01-19 18:54:43.96	8.11	13.92	-39.5	-40.5	22.5	0.00e+00	0	40	0	429916160	52	6085
2026-01-19 18:54:44.97	7.91	13.95	-39.3	-40.3	22.5	0.00e+00	0	40	0	432013312	52	5899
2026-01-19 18:54:45.98	7.72	13.98	-39.6	-40.7	22.5	0.00e+00	0	40	0	434110464	52	6174
2026-01-19 18:54:46.99	7.52	14.01	-39.4	-40.4	22.5	0.00e+00	0	40	0	436207616	52	6022
2026-01-19 18:54:48.00	7.32	14.04	-39.5	-40.5	22.7	0.00e+00	0	40	0	438304768	52	6053
2026-01-19 18:54:49.01	7.12	14.07	-39.5	-40.5	22.5	0.00e+00	0	40	0	439353344	52	6055
2026-01-19 18:54:50.02	6.93	14.10	-39.2	-40.2	22.8	0.00e+00	0	40	0	441450496	52	5875
2026-01-19 18:54:51.03	6.73	14.13	-39.1	-40.1	22.9	0.00e+00	0	40	0	443547648	52	5786
2026-01-19 18:54:52.04	6.53	14.16	-39.0	-40.0	23.0	0.00e+00	0	40	0	445644800	52	5735
2026-01-19 18:54:53.05	6.33	14.19	-39.2	-40.2	22.7	0.00e+00	0	40	0	447741952	52	5861
2026-01-19 18:54:54.06	6.13	14.22	-39.2	-40.2	22.8	0.00e+00	0	40	0	448790528	52	5860
2026-01-19 18:54:55.07	5.93	14.25	-39.2	-40.2	22.8	0.00e+00	0	40	0	450887680	52	5851
2026-01-19 18:54:56.07	5.73	14.28	-39.2	-40.2	22.7	0.00e+00	0	40	0	452984832	52	5887
2026-01-19 18:54:57.09	5.53	14.31	-39.5	-40.5	22.4	0.00e+00	0	40	0	455081984	52	6063
2026-01-19 18:54:58.09	5.33	14.33	-39.3	-40.3	22.7	0.00e+00	0	40	0	457179136	52	5956
2026-01-19 18:54:59.10	5.13	14.36	-39.2	-40.2	22.8	0.00e+00	0	40	0	458227712	52	5869
2026-01-19 18:55:00.11	4.93	14.39	-39.2	-40.2	22.8	0.00e+00	0	40	0	460324864	52	5865
2026-01-19 18:55:01.12	4.72	14.41	-39.3	-40.3	22.7	0.00e+00	0	40	0	462422016	52	5902
2026-01-19 18:55:02.13	4.52	14.44	-39.1	-40.0	22.8	0.00e+00	0	40	0	464519168	52	5759
2026-01-19 18:55:03.14	4.32	14.47	-39.2	-40.1	22.5	0.00e+00	0	40	0	466616320	52	5810
2026-01-19 18:55:04.14	4.12	14.49	-39.1	-40.1	22.8	0.00e+00	0	40	0	467664896	52	5815
2026-01-19 18:55:05.16	3.91	14.52	-39.2	-40.1	22.8	0.00e+00	0	40	0	469762048	52	5821
2026-01-19 18:55:06.17	3.71	14.54	-39.2	-40.2	22.8	0.00e+00	0	40	0	471859200	52	5850
2026-01-19 18:55:07.18	3.50	14.57	-39.4	-40.4	22.7	0.00e+00	0	40	0	473956352	52	5974
2026-01-19 18:55:08.19	3.30	14.59	-39.3	-40.3	22.6	0.00e+00	0	40	0	476053504	52	5927
2026-01-19 18:55:09.20	3.09	14.62	-39.4	-40.5	22.5	0.00e+00	0	40	0	477102080	52	6048
2026-01-19 18:55:10.21	2.89	14.64	-39.6	-40.7	22.3	0.00e+00	0	40	0	479199232	52	6205
2026-01-19 18:55:11.22	2.68	14.66	-39.5	-40.5	22.4	0.00e+00	0	40	0	481296384	52	6090
2026-01-19 18:55:12.23	2.48	14.69	-39.4	-40.4	22.5	0.00e+00	0	40	0	483393536	52	5977
2026-01-19 18:55:13.24	2.27	14.71	-39.5	-40.6	22.5	0.00e+00	0	40	0	485490688	52	6117
2026-01-19 18:55:14.25	2.06	14.73	-39.3	-40.3	22.7	0.00e+00	0	40	0	486539264	52	5960
2026-01-19 18:55:15.26	1.86	14.75	-39.3	-40.3	22.5	0.00e+00	0	40	0	488636416	52	5944
2026-01-19 18:55:16.27	1.65	14.77	-39.5	-40.5	22.5	0.00e+00	0	40	0	490733568	52	6080
2026-01-19 18:55:17.28	1.44	14.79	-39.6	-40.6	22.4	0.00e+00	0	40	0	492830720	52	6167
2026-01-19 18:55:18.29	1.23	14.82	-39.8	-40.9	22.2	0.00e+00	0	40	0	494927872	52	6321
2026-01-19 18:55:19.30	1.02	14.84	-39.6	-40.7	22.4	0.00e+00	0	40	0	497025024	52	6192
2026-01-19 18:55:20.31	0.82	14.86	-39.8	-40.8	22.3	0.00e+00	0	40	0	498073600	52	6286
2026-01-19 18:55:21.32	0.61	14.88	-39.8	-40.9	22.1	0.00e+00	0	40	0	500170752	52	6352
2026-01-19 18:55:22.33	0.40	14.90	-39.6	-40.6	22.4	0.00e+00	0	40	0	502267904	52	6134
2026-01-19 18:55:23.34	0.19	14.91	-40.0	-41.1	22.0	0.00e+00	0	40	0	504365056	52	6531
2026-01-19 18:55:24.34	359.98	14.93	-39.9	-41.0	22.2	0.00e+00	0	40	0	505413632	52	6415
2026-01-19 18:55:25.35	359.77	14.95	-40.0	-41.0	22.0	0.00e+00	0	40	0	507510784	52	6449
2026-01-19 18:55:26.36	359.56	14.97	-39.8	-40.8	22.1	0.00e+00	0	40	0	509607936	52	6304
2026-01-19 18:55:27.37	359.35	14.99	-39.6	-40.7	22.3	0.00e+00	0	40	0	511705088	52	6177
2026-01-19 18:55:28.38	359.14	15.00	-39.5	-40.5	22.5	0.00e+00	0	40	0	513802240	52	6073
2026-01-19 18:55:29.39	358.93	15.02	-39.2	-40.2	22.7	0.00e+00	0	40	0	514850816	52	5858
2026-01-19 18:55:30.40	358.72	15.04	-39.3	-40.3	22.7	0.00e+00	0	40	0	516947968	52	5927
2026-01-19 18:55:31.41	358.51	15.05	-39.2	-40.2	22.7	0.00e+00	0	40	0	519045120	52	5885
2026-01-19 18:55:32.42	358.30	15.07	-39.4	-40.5	22.6	0.00e+00	0	40	0	521142272	52	6041
2026-01-19 18:55:33.42	358.09	15.08	-39.6	-40.6	22.5	0.00e+00	0	40	0	523239424	52	6139
2026-01-19 18:55:34.43	357.87	15.10	-39.5	-40.5	22.5	0.00e+00	0	40	0	525336576	52	6063
2026-01-19 18:55:35.44	357.66	15.11	-39.3	-40.3	22.6	0.00e+00	0	40	0	526385152	52	5936
2026-01-19 18:55:36.45	357.45	15.13	-39.4	-40.4	22.7	0.00e+00	0	40	0	528482304	52	5983
2026-01-19 18:55:37.46	357.24	15.14	-39.3	-40.3	22.8	0.00e+00	0	40	0	530579456	52	5918
2026-01-19 18:55:38.47	357.02	15.15	-39.2	-40.2	22.7	0.00e+00	0	40	0	532676608	52	5893
2026-01-19 18:55:39.48	356.81	15.17	-39.4	-40.4	22.5	0.00e+00	0	40	0	534773760	52	5968
2026-01-19 18:55:40.49	356.60	15.18	-39.5	-40.5	22.5	0.00e+00	0	40	0	535822336	52	6039
2026-01-19 18:55:41.50	356.38	15.19	-39.5	-40.5	22.4	0.00e+00	0	40	0	537919488	52	6087
2026-01-19 18:55:42.51	356.17	15.20	-39.7	-40.7	22.3	0.00e+00	0	40	0	540016640	52	6205
2026-01-19 18:55:43.52	355.96	15.21	-39.6	-40.7	22.3	0.00e+00	0	40	0	542113792	52	6186
2026-01-19 18:55:44.53	355.74	15.22	-39.7	-40.7	22.3	0.00e+00	0	40	0	544210944	52	6245
2026-01-19 18:55:45.54	355.53	15.24	-39.6	-40.7	22.3	0.00e+00	0	40	0	545259520	52	6201
2026-01-19 18:55:46.55	355.31	15.25	-39.5	-40.6	22.3	0.00e+00	0	40	0	547356672	52	6134
2026-01-19 18:55:47.56	355.10	15.25	-39.4	-40.4	22.5	0.00e+00	0	40	0	549453824	52	5995
2026-01-19 18:55:48.57	354.89	15.26	-39.5	-40.5	22.5	0.00e+00	0	40	0	551550976	52	6103
2026-01-19 18:55:49.58	354.67	15.27	-39.5	-40.5	22.5	0.00e+00	0	40	0	553648128	52	6084
2026-01-19 18:55:50.59	354.46	15.28	-39.5	-40.6	22.4	0.00e+00	0	40	0	554696704	52	6119
2026-01-19 18:55:51.60	354.24	15.29	-39.5	-40.5	22.4	0.00e+00	0	40	0	556793856	52	6079
2026-01-19 18:55:52.61	354.03	15.30	-39.5	-40.5	22.5	0.00e+00	0	40	0	558891008	52	6047
2026-01-19 18:55:53.62	353.81	15.30	-39.5	-40.5	22.6	0.00e+00	0	40	0	560988160	52	6050
2026-01-19 18:55:54.63	353.60	15.31	-39.5	-40.6	22.5	0.00e+00	0	40	0	563085312	52	6105
2026-01-19 18:55:55.64	353.38	15.32	-39.4	-40.4	22.6	0.00e+00	0	40	0	564133888	52	6007
2026-01-19 18:55:56.64	353.17	15.32	-39.4	-40.4	22.6	0.00e+00	0	40	0	566231040	52	6008
2026-01-19 18:55:57.65	352.95	15.33	-39.4	-40.5	22.6	0.00e+00	0	40	0	568328192	52	6046
2026-01-19 18:55:58.66	352.74	15.34	-39.4	-40.5	22.5	0.00e+00	0	40	0	570425344	52	6050
2026-01-19 18:55:59.67	352.52	15.34	-39.7	-40.7	22.4	0.00e+00	0	40	0	572522496	52	6207
2026-01-19 18:56:00.68	352.31	15.34	-39.7	-40.7	22.3	0.00e+00	0	40	0	573571072	52	6209
2026-01-19 18:56:01.69	352.09	15.35	-39.7	-40.7	22.3	0.00e+00	0	40	0	575668224	52	6222
2026-01-19 18:56:02.70	351.87	15.35	-39.7	-40.7	22.4	0.00e+00	0	40	0	577765376	52	6205
2026-01-19 18:56:03.71	351.66	15.36	-39.7	-40.7	22.2	0.00e+00	0	40	0	579862528	52	6229
2026-01-19 18:56:04.72	351.44	15.36	-39.7	-40.7	22.3	0.00e+00	0	40	0	581959680	52	6211
2026-01-19 18:56:05.73	351.23	15.36	-39.5	-40.5	22.6	0.00e+00	0	40	0	583008256	52	6056
2026-01-19 18:56:06.74	351.01	15.36	-39.4	-40.4	22.6	0.00e+00	0	40	0	585105408	52	5981
2026-01-19 18:56:07.75	350.79	15.36	-39.4	-40.4	22.6	0.00e+00	0	40	0	587202560	52	6031
2026-01-19 18:56:08.76	350.58	15.37	-39.6	-40.7	22.4	0.00e+00	0	40	0	589299712	52	6179
2026-01-19 18:56:09.76	350.36	15.37	-39.6	-40.6	22.5	0.00e+00	0	40	0	591396864	52	6125
2026-01-19 18:56:10.77	350.15	15.37	-39.8	-40.8	22.3	0.00e+00	0	40	0	593494016	52	6297
2026-01-19 18:56:11.78	349.93	15.37	-39.7	-40.8	22.4	0.00e+00	0	40	0	594542592	52	6246
2026-01-19 18:56:12.79	349.72	15.37	-39.7	-40.7	22.3	0.00e+00	0	40	0	596639744	52	6239
2026-01-19 18:56:13.80	349.50	15.36	-39.7	-40.7	22.4	0.00e+00	0	40	0	598736896	52	6209
2026-01-19 18:56:14.81	349.28	15.36	-39.6	-40.6	22.5	0.00e+00	0	40	0	600834048	52	6114
2026-01-19 18:56:15.82	349.07	15.36	-39.4	-40.4	22.2	0.00e+00	0	40	0	602931200	52	6029
2026-01-19 18:56:16.83	348.85	15.36	-39.3	-40.3	22.7	0.00e+00	0	40	0	603979776	52	5929
2026-01-19 18:56:17.84	348.64	15.36	-39.3	-40.3	22.7	0.00e+00	0	40	0	606076928	52	5915
2026-01-19 18:56:18.85	348.42	15.35	-39.5	-40.5	22.6	0.00e+00	0	40	0	608174080	52	6043
2026-01-19 18:56:19.86	348.20	15.35	-39.6	-40.6	22.5	0.00e+00	0	40	0	610271232	52	6151
2026-01-19 18:56:20.87	347.99	15.35	-39.6	-40.6	22.4	0.00e+00	0	40	0	612368384	52	6162
2026-01-19 18:56:21.88	347.77	15.34	-39.6	-40.6	22.5	0.00e+00	0	40	0	613416960	52	6135
2026-01-19 18:56:22.89	347.56	15.34	-39.7	-40.7	22.3	0.00e+00	0	40	0	615514112	52	6230
2026-01-19 18:56:23.90	347.34	15.33	-39.6	-40.6	22.4	0.00e+00	0	40	0	617611264	52	6164
2026-01-19 18:56:24.91	347.13	15.33	-39.5	-40.6	22.4	0.00e+00	0	40	0	619708416	52	6140
2026-01-19 18:56:25.92	346.91	15.32	-39.6	-40.7	22.4	0.00e+00	0	40	0	621805568	52	6213
2026-01-19 18:56:26.93	346.70	15.32	-39.9	-41.0	22.1	0.00e+00	0	40	0	622854144	52	6435
2026-01-19 18:56:27.94	346.48	15.31	-39.9	-40.9	22.1	0.00e+00	0	40	0	624951296	52	6388
2026-01-19 18:56:28.95	346.27	15.30	-40.2	-41.3	21.8	0.00e+00	0	40	0	627048448	52	6644
2026-01-19 18:56:29.96	346.05	15.30	-40.1	-41.2	22.1	0.00e+00	0	40	0	629145600	52	6569
2026-01-19 18:56:30.96	345.84	15.29	-40.0	-41.2	22.0	0.00e+00	0	40	0	631242752	52	6545
2026-01-19 18:56:31.97	345.62	15.28	-40.0	-41.1	21.9	0.00e+00	0	40	0	632291328	52	6535
2026-01-19 18:56:32.98	345.41	15.27	-40.1	-41.3	21.8	0.00e+00	0	40	0	634388480	52	6647
2026-01-19 18:56:33.99	345.19	15.26	-39.8	-40.9	22.2	0.00e+00	0	40	0	636485632	52	6354
2026-01-19 18:56:35.00	344.98	15.25	-39.9	-41.0	22.2	0.00e+00	0	40	0	638582784	52	6397
2026-01-19 18:56:36.01	344.76	15.24	-39.7	-40.8	22.3	0.00e+00	0	40	0	640679936	52	6289
2026-01-19 18:56:37.02	344.55	15.23	-39.7	-40.8	22.4	0.00e+00	0	40	0	641728512	52	6273
2026-01-19 18:56:38.03	344.34	15.22	-39.5	-40.6	22.5	0.00e+00	0	40	0	643825664	52	6111
2026-01-19 18:56:39.04	344.12	15.21	-39.7	-40.8	22.2	0.00e+00	0	40	0	645922816	52	6278
2026-01-19 18:56:40.05	343.91	15.20	-39.8	-40.8	22.3	0.00e+00	0	40	0	648019968	52	6310
2026-01-19 18:56:41.06	343.70	15.19	-40.0	-41.1	22.0	0.00e+00	0	40	0	650117120	52	6488
2026-01-19 18:56:42.07	343.48	15.18	-39.9	-41.0	22.1	0.00e+00	0	40	0	651165696	52	6456
2026-01-19 18:56:43.08	343.27	15.16	-40.0	-41.2	22.1	0.00e+00	0	40	0	653262848	52	6545
2026-01-19 18:56:44.09	343.06	15.15	-40.1	-41.3	21.9	0.00e+00	0	40	0	655360000	52	6628
2026-01-19 18:56:45.10	342.84	15.14	-39.9	-41.1	22.0	0.00e+00	0	40	0	657457152	52	6478
2026-01-19 18:56:46.10	342.63	15.12	-40.0	-41.2	22.0	0.00e+00	0	40	0	659554304	52	6544
2026-01-19 18:56:47.11	342.42	15.11	-40.1	-41.2	22.1	0.00e+00	0	40	0	661651456	52	6596
2026-01-19 18:56:48.12	342.21	15.09	-39.8	-40.9	22.3	0.00e+00	0	40	0	662700032	52	6355
2026-01-19 18:56:49.13	342.00	15.08	-39.8	-41.0	22.2	0.00e+00	0	40	0	664797184	52	6391
2026-01-19 18:56:50.14	341.78	15.06	-39.8	-41.0	22.3	0.00e+00	0	40	0	666894336	52	6393
2026-01-19 18:56:51.15	341.57	15.05	-39.4	-40.5	22.4	0.00e+00	0	40	0	668991488	52	6038
2026-01-19 18:56:52.16	341.36	15.03	-39.5	-40.6	22.5	0.00e+00	0	40	0	671088640	52	6126
2026-01-19 18:56:53.17	341.15	15.02	-39.7	-40.8	22.2	0.00e+00	0	40	0	672137216	52	6317
2026-01-19 18:56:54.18	340.94	15.00	-39.5	-40.6	22.3	0.00e+00	0	40	0	674234368	52	6173
2026-01-19 18:56:55.19	340.73	14.98	-39.8	-41.0	22.1	0.00e+00	0	40	0	676331520	52	6415
2026-01-19 18:56:56.20	340.52	14.96	-39.8	-40.9	22.3	0.00e+00	0	40	0	678428672	52	6378
2026-01-19 18:56:57.21	340.31	14.95	-39.6	-40.7	22.5	0.00e+00	0	40	0	680525824	52	6205
2026-01-19 18:56:58.22	340.10	14.93	-39.6	-40.7	22.4	0.00e+00	0	40	0	681574400	52	6238
2026-01-19 18:56:59.23	339.89	14.91	-39.4	-40.5	22.6	0.00e+00	0	40	0	683671552	52	6043
2026-01-19 18:57:00.24	339.68	14.89	-39.4	-40.5	22.6	0.00e+00	0	40	0	685768704	52	6043
2026-01-19 18:57:01.25	339.47	14.87	-39.3	-40.4	22.6	0.00e+00	0	40	0	687865856	52	5983
2026-01-19 18:57:02.26	339.26	14.85	-39.3	-40.4	22.7	0.00e+00	0	40	0	689963008	52	5977
2026-01-19 18:57:03.27	339.05	14.83	-39.3	-40.3	22.7	0.00e+00	0	40	0	691011584	52	5932
2026-01-19 18:57:04.28	338.85	14.81	-39.6	-40.6	22.4	0.00e+00	0	40	0	693108736	52	6156
2026-01-19 18:57:05.28	338.64	14.79	-39.5	-40.6	22.5	0.00e+00	0	40	0	695205888	52	6138
2026-01-19 18:57:06.29	338.43	14.77	-40.0	-41.1	22.0	0.00e+00	0	40	0	697303040	52	6483
2026-01-19 18:57:07.30	338.22	14.75	-39.8	-40.9	22.3	0.00e+00	0	40	0	699400192	52	6359
2026-01-19 18:57:08.31	338.02	14.72	-39.8	-40.8	22.3	0.00e+00	0	40	0	700448768	52	6315
2026-01-19 18:57:09.32	337.81	14.70	-39.6	-40.7	22.3	0.00e+00	0	40	0	702545920	52	6227
2026-01-19 18:57:10.33	337.60	14.68	-39.6	-40.6	22.4	0.00e+00	0	40	0	704643072	52	6144
2026-01-19 18:57:11.34	337.40	14.66	-39.5	-40.5	22.6	0.00e+00	0	40	0	706740224	52	6073
2026-01-19 18:57:12.35	337.19	14.63	-39.5	-40.6	22.5	0.00e+00	0	40	0	708837376	52	6126
2026-01-19 18:57:13.36	336.99	14.61	-39.6	-40.7	22.4	0.00e+00	0	40	0	709885952	52	6183
2026-01-19 18:57:14.37	336.78	14.58	-39.6	-40.6	22.5	0.00e+00	0	40	0	711983104	52	6138
2026-01-19 18:57:15.38	336.58	14.56	-39.6	-40.7	22.3	0.00e+00	0	40	0	714080256	52	6178
2026-01-19 18:57:16.39	336.37	14.54	-39.9	-40.9	22.4	0.00e+00	0	40	0	716177408	52	6351
2026-01-19 18:57:17.40	336.17	14.51	-39.8	-40.9	22.3	0.00e+00	0	40	0	718274560	52	6344
2026-01-19 18:57:18.41	335.97	14.48	-39.8	-40.9	22.2	0.00e+00	0	40	0	719323136	52	6339
2026-01-19 18:57:19.42	335.76	14.46	-39.9	-40.9	22.2	0.00e+00	0	40	0	721420288	52	6388
2026-01-19 18:57:20.43	335.56	14.43	-39.9	-40.9	22.2	0.00e+00	0	40	0	723517440	52	6387
2026-01-19 18:57:21.44	335.36	14.41	-39.9	-40.9	22.2	0.00e+00	0	40	0	725614592	52	6387
2026-01-19 18:57:22.45	335.15	14.38	-40.0	-41.1	22.1	0.00e+00	0	40	0	727711744	52	6515
2026-01-19 18:57:23.45	334.95	14.35	-40.0	-41.1	22.1	0.00e+00	0	40	0	729808896	52	6477
2026-01-19 18:57:24.46	334.75	14.33	-40.0	-41.1	22.1	0.00e+00	0	40	0	730857472	52	6480
2026-01-19 18:57:25.47	334.55	14.30	-40.4	-41.5	21.7	0.00e+00	0	40	0	732954624	52	6807
2026-01-19 18:57:26.48	334.35	14.27	-40.2	-41.3	21.9	0.00e+00	0	40	0	735051776	52	6657
2026-01-19 18:57:27.49	334.15	14.24	-40.2	-41.4	21.7	0.00e+00	0	40	0	737148928	52	6708
2026-01-19 18:57:28.50	333.95	14.21	-40.0	-41.0	22.0	0.00e+00	0	40	0	739246080	52	6450
2026-01-19 18:57:29.51	333.75	14.18	-40.0	-41.0	22.0	0.00e+00	0	40	0	740294656	52	6452
2026-01-19 18:57:30.52	333.55	14.15	-40.1	-41.1	21.9	0.00e+00	0	40	0	742391808	52	6537
2026-01-19 18:57:31.53	333.35	14.12	-40.0	-41.1	21.9	0.00e+00	0	40	0	744488960	52	6494
2026-01-19 18:57:32.54	333.15	14.09	-40.1	-41.2	22.0	0.00e+00	0	40	0	746586112	52	6548
2026-01-19 18:57:33.55	332.96	14.06	-40.4	-41.5	21.8	0.00e+00	0	40	0	748683264	52	6796
2026-01-19 18:57:34.56	332.76	14.03	-40.3	-41.4	21.7	0.00e+00	0	40	0	749731840	52	6736
2026-01-19 18:57:35.57	332.56	14.00	-40.5	-41.7	21.7	0.00e+00	0	40	0	751828992	52	6936
2026-01-19 18:57:36.58	332.37	13.97	-40.3	-41.4	21.9	0.00e+00	0	40	0	753926144	52	6725
2026-01-19 18:57:37.59	332.17	13.94	-40.7	-41.8	22.1	0.00e+00	0	40	0	756023296	52	7021
2026-01-19 18:57:38.60	331.97	13.91	-40.3	-41.4	22.2	0.00e+00	0	40	0	758120448	52	6727
2026-01-19 18:57:39.60	331.78	13.88	-40.1	-41.1	22.3	0.00e+00	0	40	0	759169024	52	6521
2026-01-19 18:57:40.62	331.58	13.84	-40.0	-41.0	22.5	0.00e+00	0	40	0	761266176	52	6436
2026-01-19 18:57:41.63	331.39	13.81	-40.2	-41.2	22.1	0.00e+00	0	40	0	763363328	52	6582
2026-01-19 18:57:42.64	331.19	13.78	-40.3	-41.4	22.2	0.00e+00	0	40	0	765460480	52	6713
2026-01-19 18:57:43.65	331.00	13.75	-40.2	-41.2	22.4	0.00e+00	0	40	0	767557632	52	6580
2026-01-19 18:57:44.66	330.81	13.71	-40.0	-41.0	22.4	0.00e+00	0	40	0	768606208	52	6411
2026-01-19 18:57:45.67	330.61	13.68	-40.2	-41.3	21.9	0.00e+00	0	40	0	770703360	52	6620
2026-01-19 18:57:46.68	330.42	13.64	-40.1	-41.2	22.2	0.00e+00	0	40	0	772800512	52	6562
2026-01-19 18:57:47.69	330.23	13.61	-39.9	-41.0	22.2	0.00e+00	0	40	0	774897664	52	6424
2026-01-19 18:57:48.70	330.04	13.58	-40.1	-41.1	22.0	0.00e+00	0	40	0	776994816	52	6516
2026-01-19 18:57:49.71	329.85	13.54	-39.7	-40.7	22.4	0.00e+00	0	40	0	778043392	52	6204
2026-01-19 18:57:50.72	329.66	13.51	-39.6	-40.6	22.5	0.00e+00	0	40	0	780140544	52	6139
2026-01-19 18:57:51.73	329.47	13.47	-39.8	-40.8	22.5	0.00e+00	0	40	0	782237696	52	6300
2026-01-19 18:57:52.74	329.28	13.43	-39.9	-41.0	22.3	0.00e+00	0	40	0	784334848	52	6395
2026-01-19 18:57:53.75	329.09	13.40	-39.7	-40.7	22.5	0.00e+00	0	40	0	786432000	52	6225
2026-01-19 18:57:54.76	328.90	13.36	-39.6	-40.6	22.6	0.00e+00	0	40	0	787480576	52	6147
2026-01-19 18:57:55.76	328.71	13.33	-39.7	-40.8	22.2	0.00e+00	0	40	0	789577728	52	6273
2026-01-19 18:57:56.77	328.52	13.29	-39.9	-40.9	22.2	0.00e+00	0	40	0	791674880	52	6366
2026-01-19 18:57:57.78	328.34	13.25	-39.9	-40.9	22.2	0.00e+00	0	40	0	793772032	52	6381
2026-01-19 18:57:58.79	328.15	13.22	-40.1	-41.2	22.0	0.00e+00	0	40	0	795869184	52	6548
2026-01-19 18:57:59.80	327.96	13.18	-39.8	-40.8	22.3	0.00e+00	0	40	0	797966336	52	6283
2026-01-19 18:58:00.81	327.78	13.14	-39.8	-40.9	22.5	0.00e+00	0	40	0	799014912	52	6318
2026-01-19 18:58:01.82	327.59	13.10	-39.9	-40.9	22.3	0.00e+00	0	40	0	801112064	52	6379
2026-01-19 18:58:02.83	327.41	13.07	-39.7	-40.7	22.6	0.00e+00	0	40	0	803209216	52	6227
2026-01-19 18:58:03.84	327.22	13.03	-39.7	-40.7	22.6	0.00e+00	0	40	0	805306368	52	6186
2026-01-19 18:58:04.85	327.04	12.99	-39.6	-40.6	22.7	0.00e+00	0	40	0	807403520	52	6105
2026-01-19 18:58:05.86	326.86	12.95	-39.4	-40.4	22.6	0.00e+00	0	40	0	808452096	52	5980
2026-01-19 18:58:06.87	326.67	12.91	-39.4	-40.4	22.7	0.00e+00	0	40	0	810549248	52	6008
2026-01-19 18:58:07.88	326.49	12.87	-39.5	-40.5	22.6	0.00e+00	0	40	0	812646400	52	6086
2026-01-19 18:58:08.88	326.31	12.83	-39.7	-40.7	22.4	0.00e+00	0	40	0	814743552	52	6190
2026-01-19 18:58:09.89	326.13	12.79	-39.7	-40.7	22.3	0.00e+00	0	40	0	815792128	52	6240
2026-01-19 18:58:10.90	325.95	12.75	-39.7	-40.7	22.4	0.00e+00	0	40	0	817889280	52	6215
2026-01-19 18:58:11.91	325.77	12.71	-39.5	-40.5	22.5	0.00e+00	0	40	0	819986432	52	6100
2026-01-19 18:58:12.92	325.59	12.67	-39.5	-40.5	22.5	0.00e+00	0	40	0	822083584	52	6102
2026-01-19 18:58:13.93	325.41	12.63	-39.6	-40.6	22.6	0.00e+00	0	40	0	824180736	52	6124
2026-01-19 18:58:14.94	325.23	12.59	-39.7	-40.7	22.4	0.00e+00	0	40	0	826277888	52	6228
2026-01-19 18:58:15.95	325.05	12.55	-39.9	-40.9	22.1	0.00e+00	0	40	0	827326464	52	6389
2026-01-19 18:58:16.96	324.87	12.51	-39.9	-41.0	22.0	0.00e+00	0	40	0	829423616	52	6422
2026-01-19 18:58:17.97	324.69	12.47	-39.8	-40.9	22.1	0.00e+00	0	40	0	831520768	52	6330
2026-01-19 18:58:18.98	324.52	12.43	-40.2	-41.2	21.9	0.00e+00	0	40	0	833617920	52	6601
2026-01-19 18:58:19.99	324.34	12.38	-40.3	-41.4	21.7	0.00e+00	0	40	0	835715072	52	6704
2026-01-19 18:58:20.99	324.17	12.34	-40.1	-41.1	22.0	0.00e+00	0	40	0	836763648	52	6522
2026-01-19 18:58:22.01	323.99	12.30	-40.5	-41.6	21.5	0.00e+00	0	40	0	838860800	52	6899
2026-01-19 18:58:23.02	323.81	12.26	-40.4	-41.5	21.7	0.00e+00	0	40	0	840957952	52	6839
2026-01-19 18:58:24.03	323.64	12.22	-40.5	-41.6	21.6	0.00e+00	0	40	0	843055104	52	6876
2026-01-19 18:58:25.04	323.47	12.17	-40.5	-41.7	21.4	0.00e+00	0	40	0	845152256	52	6945
2026-01-19 18:58:26.05	323.29	12.13	-40.7	-41.8	21.3	0.00e+00	0	40	0	846200832	52	7074
2026-01-19 18:58:27.06	323.12	12.09	-40.4	-41.5	21.6	0.00e+00	0	40	0	848297984	52	6812
2026-01-19 18:58:28.07	322.95	12.04	-40.5	-41.6	21.5	0.00e+00	0	40	0	850395136	52	6927
2026-01-19 18:58:29.08	322.77	12.00	-40.6	-41.7	21.4	0.00e+00	0	40	0	852492288	52	6999
2026-01-19 18:58:30.08	322.60	11.96	-41.0	-42.2	21.0	0.00e+00	0	40	0	854589440	54	6564
2026-01-19 18:58:31.10	322.43	11.91	-40.8	-42.0	21.2	0.00e+00	0	40	0	855638016	54	6426
2026-01-19 18:58:32.10	322.26	11.87	-41.1	-42.3	21.1	0.00e+00	0	40	0	857735168	54	6639
2026-01-19 18:58:33.11	322.09	11.82	-41.2	-42.5	20.9	0.00e+00	0	40	0	859832320	54	6781
2026-01-19 18:58:34.12	321.92	11.78	-41.4	-42.6	20.6	0.00e+00	0	40	0	861929472	54	6913
2026-01-19 18:58:35.13	321.76	11.74	-41.0	-42.2	20.9	0.00e+00	0	40	0	864026624	54	6582
2026-01-19 18:58:36.14	321.59	11.69	-41.2	-42.4	20.8	0.00e+00	0	40	0	865075200	54	6732
2026-01-19 18:58:37.15	321.42	11.65	-41.3	-42.5	20.6	0.00e+00	0	40	0	867172352	54	6835
2026-01-19 18:58:38.16	321.25	11.60	-41.4	-42.7	20.6	0.00e+00	0	40	0	869269504	54	6934
2026-01-19 18:58:39.17	321.09	11.56	-42.0	-43.3	20.3	0.00e+00	0	40	0	871366656	56	6649
2026-01-19 18:58:40.18	320.92	11.51	-41.9	-43.3	20.2	0.00e+00	0	40	0	873463808	56	6629
2026-01-19 18:58:41.19	320.75	11.47	-41.7	-43.0	20.3	0.00e+00	0	40	0	874512384	56	6410
2026-01-19 18:58:42.20	320.59	11.42	-41.7	-43.1	20.3	0.00e+00	0	40	0	876609536	56	6478
2026-01-19 18:58:43.21	320.42	11.37	-41.9	-43.2	20.3	0.00e+00	0	40	0	878706688	56	6580
2026-01-19 18:58:44.22	320.26	11.33	-42.1	-43.4	20.2	0.00e+00	0	40	0	880803840	56	6768
2026-01-19 18:58:45.23	320.10	11.28	-42.3	-43.6	20.1	0.00e+00	0	40	0	882900992	56	6921
2026-01-19 18:58:46.24	319.93	11.24	-42.2	-43.6	19.9	0.00e+00	0	40	0	883949568	56	6899
2026-01-19 18:58:47.25	319.77	11.19	-42.0	-43.4	20.1	0.00e+00	0	40	0	886046720	56	6709
2026-01-19 18:58:48.26	319.61	11.14	-41.8	-43.2	20.1	0.00e+00	0	40	0	888143872	56	6555
2026-01-19 18:58:49.27	319.45	11.10	-41.7	-43.0	20.3	0.00e+00	0	40	0	890241024	56	6463
2026-01-19 18:58:50.28	319.29	11.05	-42.2	-43.6	20.1	0.00e+00	0	40	0	892338176	56	6877
2026-01-19 18:58:51.29	319.13	11.00	-42.7	-44.2	19.6	0.00e+00	0	40	0	894435328	56	7364
2026-01-19 18:58:52.30	318.97	10.96	-42.7	-44.2	19.1	0.00e+00	0	40	0	895483904	56	7349
2026-01-19 18:58:53.31	318.81	10.91	-42.9	-44.3	19.4	0.00e+00	0	40	0	897581056	58	6681
2026-01-19 18:58:54.31	318.65	10.86	-42.6	-44.1	19.2	0.00e+00	0	40	0	899678208	58	6535
2026-01-19 18:58:55.32	318.49	10.82	-43.3	-44.9	18.9	0.00e+00	0	40	0	901775360	58	7122
2026-01-19 18:58:56.33	318.33	10.77	-43.2	-44.8	18.8	0.00e+00	0	40	0	903872512	58	7072
2026-01-19 18:58:57.34	318.17	10.72	-42.8	-44.4	19.0	0.00e+00	0	40	0	904921088	58	6693
2026-01-19 18:58:58.35	318.02	10.67	-43.0	-44.6	19.1	0.00e+00	0	40	0	907018240	58	6852
2026-01-19 18:58:59.36	317.86	10.63	-42.8	-44.3	19.1	0.00e+00	0	40	0	909115392	58	6689
2026-01-19 18:59:00.37	317.71	10.58	-43.1	-44.7	18.9	0.00e+00	0	40	0	911212544	58	6989
2026-01-19 18:59:01.38	317.55	10.53	-42.8	-44.4	19.0	0.00e+00	0	40	0	913309696	58	6723
2026-01-19 18:59:02.39	317.40	10.48	-43.2	-44.8	18.8	0.00e+00	0	40	0	914358272	58	7081
2026-01-19 18:59:03.40	317.24	10.43	-43.1	-44.7	18.6	0.00e+00	0	40	0	916455424	58	6980
2026-01-19 18:59:04.41	317.09	10.39	-42.9	-44.5	18.9	0.00e+00	0	40	0	918552576	58	6841
2026-01-19 18:59:05.42	316.93	10.34	-43.8	-45.5	18.2	0.00e+00	0	40	0	920649728	58	7672
2026-01-19 18:59:06.42	316.78	10.29	-43.4	-45.1	18.5	0.00e+00	0	40	0	922746880	60	6473
2026-01-19 18:59:07.43	316.63	10.24	-43.1	-44.7	19.0	0.00e+00	0	40	0	923795456	60	6234
2026-01-19 18:59:08.44	316.48	10.19	-43.3	-44.9	18.6	0.00e+00	0	40	0	925892608	60	6389
2026-01-19 18:59:09.45	316.33	10.14	-43.1	-44.7	18.9	0.00e+00	0	40	0	927989760	60	6189
2026-01-19 18:59:10.46	316.18	10.09	-43.2	-44.8	19.1	0.00e+00	0	40	0	930086912	60	6272
2026-01-19 18:59:11.47	316.03	10.04	-43.3	-44.9	18.8	0.00e+00	0	40	0	932184064	60	6387
2026-01-19 18:59:12.48	315.88	10.00	-43.5	-45.1	19.0	0.00e+00	0	40	0	933232640	60	6494
2026-01-19 18:59:13.49	315.73	9.95	-43.2	-44.8	19.0	0.00e+00	0	40	0	935329792	60	6306
2026-01-19 18:59:14.50	315.58	9.90	-43.1	-44.7	19.2	0.00e+00	0	40	0	937426944	60	6190
2026-01-19 18:59:15.50	315.43	9.85	-43.0	-44.6	19.0	0.00e+00	0	40	0	939524096	58	6898
2026-01-19 18:59:16.52	315.28	9.80	-43.1	-44.7	18.8	0.00e+00	0	40	0	941621248	58	6986
2026-01-19 18:59:17.53	315.14	9.75	-43.1	-44.7	19.0	0.00e+00	0	40	0	942669824	58	6985
2026-01-19 18:59:18.53	314.99	9.70	-43.2	-44.8	18.7	0.00e+00	0	40	0	944766976	58	7049
2026-01-19 18:59:19.54	314.85	9.65	-43.1	-44.7	19.0	0.00e+00	0	40	0	946864128	58	6943
2026-01-19 18:59:20.56	314.70	9.60	-43.0	-44.6	18.9	0.00e+00	0	40	0	948961280	58	6852
2026-01-19 18:59:21.57	314.55	9.55	-42.7	-44.4	18.9	0.00e+00	0	40	0	951058432	58	6693
2026-01-19 18:59:22.58	314.41	9.50	-42.7	-44.3	18.9	0.00e+00	0	40	0	952107008	58	6667
2026-01-19 18:59:23.58	314.27	9.45	-43.7	-45.3	18.8	0.00e+00	0	40	0	954204160	58	7484
2026-01-19 18:59:24.59	314.12	9.40	-43.3	-44.8	19.0	0.00e+00	0	40	0	956301312	58	7086
2026-01-19 18:59:25.60	313.98	9.35	-43.6	-45.2	18.7	0.00e+00	0	40	0	958398464	58	7402
2026-01-19 18:59:26.61	313.84	9.30	-43.2	-44.8	19.1	0.00e+00	0	40	0	960495616	58	7011
2026-01-19 18:59:27.62	313.70	9.25	-43.1	-44.8	18.9	0.00e+00	0	40	0	962592768	58	7017
2026-01-19 18:59:28.63	313.55	9.20	-43.5	-45.1	18.7	0.00e+00	0	40	0	963641344	58	7326
2026-01-19 18:59:29.64	313.41	9.15	-42.5	-44.0	19.5	0.00e+00	0	40	0	965738496	58	6400
2026-01-19 18:59:30.65	313.27	9.10	-42.6	-44.2	19.3	0.00e+00	0	40	0	967835648	58	6553
2026-01-19 18:59:31.66	313.13	9.05	-43.0	-44.5	19.5	0.00e+00	0	40	0	969932800	58	6814
2026-01-19 18:59:32.67	312.99	9.00	-42.2	-43.6	19.4	0.00e+00	0	40	0	972029952	58	6157
2026-01-19 18:59:33.68	312.85	8.95	-42.5	-44.1	19.3	0.00e+00	0	40	0	973078528	58	6470
2026-01-19 18:59:34.69	312.71	8.90	-42.7	-44.3	19.3	0.00e+00	0	40	0	975175680	58	6647
2026-01-19 18:59:35.70	312.58	8.84	-42.9	-44.4	19.2	0.00e+00	0	40	0	977272832	58	6735
2026-01-19 18:59:36.71	312.44	8.79	-41.9	-43.3	20.0	0.00e+00	0	40	0	979369984	58	5907
2026-01-19 18:59:37.72	312.30	8.74	-42.2	-43.6	19.6	0.00e+00	0	40	0	981467136	58	6140
2026-01-19 18:59:38.73	312.17	8.69	-42.2	-43.7	19.4	0.00e+00	0	40	0	982515712	58	6210
2026-01-19 18:59:39.74	312.03	8.64	-42.2	-43.6	19.6	0.00e+00	0	40	0	984612864	58	6140
2026-01-19 18:59:40.75	311.89	8.59	-42.1	-43.6	19.6	0.00e+00	0	40	0	986710016	58	6132
2026-01-19 18:59:41.76	311.76	8.54	-42.4	-43.8	19.6	0.00e+00	0	40	0	988807168	58	6304
2026-01-19 18:59:42.77	311.62	8.49	-42.1	-43.5	19.7	0.00e+00	0	40	0	990904320	58	6101
2026-01-19 18:59:43.78	311.49	8.44	-42.1	-43.5	19.8	0.00e+00	0	40	0	991952896	58	6085
2026-01-19 18:59:44.79	311.36	8.39	-41.9	-43.3	19.9	0.00e+00	0	40	0	994050048	58	5950
2026-01-19 18:59:45.80	311.22	8.33	-41.9	-43.2	19.9	0.00e+00	0	40	0	996147200	56	6609
2026-01-19 18:59:46.80	311.09	8.28	-42.1	-43.6	19.6	0.00e+00	0	40	0	998244352	56	6856
2026-01-19 18:59:47.82	310.96	8.23	-42.1	-43.5	19.7	0.00e+00	0	40	0	1000341504	56	6826
2026-01-19 18:59:48.82	310.83	8.18	-41.6	-42.9	20.3	0.00e+00	0	40	0	1001390080	56	6348
2026-01-19 18:59:49.83	310.70	8.13	-42.2	-43.6	19.9	0.00e+00	0	40	0	1003487232	56	6880
2026-01-19 18:59:50.84	310.56	8.08	-42.0	-43.4	19.9	0.00e+00	0	40	0	1005584384	56	6754
2026-01-19 18:59:51.85	310.43	8.03	-41.4	-42.7	20.5	0.00e+00	0	40	0	1007681536	56	6186
2026-01-19 18:59:52.86	310.30	7.97	-41.6	-42.9	20.3	0.00e+00	0	40	0	1009778688	56	6340
2026-01-19 18:59:53.87	310.17	7.92	-41.5	-42.9	20.4	0.00e+00	0	40	0	1010827264	56	6331
2026-01-19 18:59:54.88	310.05	7.87	-42.2	-43.6	19.8	0.00e+00	0	40	0	1012924416	56	6919
2026-01-19 18:59:55.89	309.92	7.82	-41.9	-43.2	20.6	0.00e+00	0	40	0	1015021568	56	6560
2026-01-19 18:59:56.90	309.79	7.77	-41.7	-43.0	20.3	0.00e+00	0	40	0	1017118720	56	6459
2026-01-19 18:59:57.91	309.66	7.72	-41.3	-42.6	20.4	0.00e+00	0	40	0	1019215872	56	6105
2026-01-19 18:59:58.92	309.53	7.66	-41.7	-43.1	20.1	0.00e+00	0	40	0	1020264448	56	6507
2026-01-19 18:59:59.93	309.41	7.61	-41.5	-42.8	20.3	0.00e+00	0	40	0	1022361600	56	6292
2026-01-19 19:00:00.94	309.28	7.56	-42.2	-43.6	20.0	0.00e+00	0	40	0	1024458752	56	6923
2026-01-19 19:00:01.94	309.16	7.51	-41.7	-43.0	20.4	0.00e+00	0	40	0	1026555904	56	6452
2026-01-19 19:00:02.96	309.03	7.46	-43.0	-44.5	19.4	0.00e+00	0	40	0	1028653056	56	7625
2026-01-19 19:00:03.96	308.91	7.41	-42.8	-44.2	20.1	0.00e+00	0	40	0	1030750208	58	6541
2026-01-19 19:00:04.97	308.78	7.35	-42.1	-43.6	20.0	0.00e+00	0	40	0	1031798784	58	6112
2026-01-19 19:00:05.98	308.66	7.30	-42.6	-44.1	19.5	0.00e+00	0	40	0	1033895936	58	6477
2026-01-19 19:00:06.99	308.53	7.25	-42.3	-43.8	19.9	0.00e+00	0	40	0	1035993088	58	6253
2026-01-19 19:00:08.00	308.41	7.20	-41.8	-43.1	20.4	0.00e+00	0	40	0	1038090240	58	5816
2026-01-19 19:00:09.01	308.29	7.15	-41.6	-42.9	20.5	0.00e+00	0	40	0	1040187392	56	6355
2026-01-19 19:00:10.02	308.17	7.09	-41.5	-42.8	20.3	0.00e+00	0	40	0	1041235968	56	6289
2026-01-19 19:00:11.03	308.05	7.04	-42.4	-43.8	19.7	0.00e+00	0	40	0	1043333120	56	7069
2026-01-19 19:00:12.04	307.92	6.99	-42.0	-43.3	19.9	0.00e+00	0	40	0	1045430272	56	6663
2026-01-19 19:00:13.05	307.80	6.94	-41.4	-42.8	20.4	0.00e+00	0	40	0	1047527424	56	6254
2026-01-19 19:00:14.06	307.68	6.89	-40.4	-41.6	21.2	0.00e+00	0	40	0	1049624576	54	6107
2026-01-19 19:00:15.07	307.56	6.83	-41.5	-42.8	20.4	0.00e+00	0	40	0	1050673152	54	7037
2026-01-19 19:00:16.08	307.44	6.78	-41.2	-42.4	20.6	0.00e+00	0	40	0	1052770304	54	6759
2026-01-19 19:00:17.09	307.32	6.73	-41.6	-43.0	20.2	0.00e+00	0	40	0	1054867456	54	7178
2026-01-19 19:00:18.09	307.21	6.68	-40.7	-41.9	20.9	0.00e+00	0	40	0	1056964608	54	6378
2026-01-19 19:00:19.10	307.09	6.62	-38.8	-42.7	17.5	2.21e-02	0	40	0	1059061760	50	8737
2026-01-19 19:00:20.11	306.97	6.57	-38.8	-42.9	17.5	2.12e-02	0	40	0	1060110336	50	8959
2026-01-19 19:00:21.13	306.85	6.52	-38.3	-42.4	17.6	2.05e-02	0	40	0	1062207488	50	8458
2026-01-19 19:00:22.14	306.74	6.47	-38.6	-43.2	16.7	2.61e-02	0	40	0	1064304640	50	9266
2026-01-19 19:00:23.15	306.62	6.42	-38.5	-42.4	16.9	3.08e-02	0	40	0	1066401792	50	8491
2026-01-19 19:00:24.16	306.50	6.36	-38.9	-43.5	16.5	3.40e-02	0	40	0	1068498944	50	9614
2026-01-19 19:00:25.16	306.39	6.31	-37.3	-42.0	16.9	3.17e-02	0	40	0	1069547520	48	9130
2026-01-19 19:00:26.17	306.27	6.26	-41.1	-42.4	20.8	0.00e+00	0	40	0	1071644672	54	6717
2026-01-19 19:00:27.18	306.16	6.21	-41.1	-42.3	20.7	0.00e+00	0	40	0	1073741824	54	6664
2026-01-19 19:00:28.19	306.04	6.16	-41.6	-42.9	20.5	0.00e+00	0	40	0	1075838976	56	6378
2026-01-19 19:00:29.20	305.93	6.10	-41.6	-42.9	20.6	0.00e+00	0	40	0	1077936128	56	6341
2026-01-19 19:00:30.21	305.82	6.05	-41.6	-42.9	20.6	0.00e+00	0	40	0	1078984704	56	6320
2026-01-19 19:00:31.22	305.70	6.00	-41.6	-43.0	20.2	0.00e+00	0	40	0	1081081856	56	6395
2026-01-19 19:00:32.23	305.59	5.95	-42.4	-43.8	19.6	0.00e+00	0	40	0	1083179008	56	7087
2026-01-19 19:00:33.24	305.48	5.89	-41.5	-42.8	20.4	0.00e+00	0	40	0	1085276160	56	6287
2026-01-19 19:00:34.25	305.37	5.84	-41.6	-42.9	20.2	0.00e+00	0	40	0	1087373312	56	6390
2026-01-19 19:00:35.26	305.26	5.79	-41.3	-42.6	20.5	0.00e+00	0	40	0	1088421888	56	6138
2026-01-19 19:00:36.26	305.15	5.74	-42.3	-43.8	19.3	0.00e+00	0	40	0	1090519040	56	7088
2026-01-19 19:00:37.27	305.04	5.69	-41.7	-43.1	20.2	0.00e+00	0	40	0	1092616192	56	6477
2026-01-19 19:00:38.28	304.93	5.63	-41.3	-42.6	20.2	0.00e+00	0	40	0	1094713344	56	6154
2026-01-19 19:00:39.29	304.82	5.58	-41.7	-43.1	19.7	0.00e+00	0	40	0	1096810496	56	6517
2026-01-19 19:00:40.30	304.71	5.53	-41.9	-43.2	20.1	0.00e+00	0	40	0	1098907648	56	6607
2026-01-19 19:00:41.31	304.60	5.48	-42.0	-43.4	19.8	0.00e+00	0	40	0	1099956224	56	6768
2026-01-19 19:00:42.32	304.49	5.42	-42.2	-43.7	19.6	0.00e+00	0	40	0	1102053376	56	6935
2026-01-19 19:00:43.33	304.38	5.37	-42.4	-43.8	20.1	0.00e+00	0	40	0	1104150528	58	6246
2026-01-19 19:00:44.34	304.27	5.32	-42.1	-43.5	19.9	0.00e+00	0	40	0	1106247680	56	6839
2026-01-19 19:00:45.35	304.16	5.27	-41.8	-43.2	20.0	0.00e+00	0	40	0	1108344832	56	6571
2026-01-19 19:00:46.36	304.06	5.22	-41.7	-43.1	20.1	0.00e+00	0	40	0	1109393408	56	6477
2026-01-19 19:00:47.37	303.95	5.16	-41.9	-43.3	19.9	0.00e+00	0	40	0	1111490560	56	6650
2026-01-19 19:00:48.38	303.84	5.11	-41.8	-43.2	19.9	0.00e+00	0	40	0	1113587712	56	6595
2026-01-19 19:00:49.39	303.74	5.06	-41.9	-43.3	20.0	1.50e-06	0	40	0	1115684864	56	6620
2026-01-19 19:00:50.40	303.63	5.01	-41.7	-43.1	19.9	0.00e+00	0	40	0	1117782016	56	6500
2026-01-19 19:00:51.41	303.53	4.96	-41.8	-43.2	20.0	0.00e+00	0	40	0	1118830592	56	6571
2026-01-19 19:00:52.42	303.42	4.90	-42.8	-44.4	19.2	0.00e+00	0	40	0	1120927744	58	6707
2026-01-19 19:00:53.43	303.32	4.85	-42.2	-43.7	19.3	0.00e+00	0	40	0	1123024896	58	6200
2026-01-19 19:00:54.44	303.22	4.80	-42.3	-43.8	19.6	0.00e+00	0	40	0	1125122048	58	6259
2026-01-19 19:00:55.45	303.11	4.75	-41.9	-43.3	19.2	0.00e+00	0	40	0	1127219200	56	6688
2026-01-19 19:00:56.46	303.01	4.69	-41.9	-43.3	19.7	0.00e+00	0	40	0	1128267776	58	5931
2026-01-19 19:00:57.47	302.91	4.64	-42.8	-44.3	19.1	0.00e+00	0	40	0	1130364928	58	6684
2026-01-19 19:00:58.49	302.80	4.59	-42.3	-43.8	19.2	0.00e+00	0	40	0	1132462080	56	7043
2026-01-19 19:00:59.49	302.70	4.54	-42.6	-44.2	18.9	0.00e+00	0	40	0	1134559232	56	7415
2026-01-19 19:01:00.50	302.60	4.49	-42.6	-44.2	19.0	0.00e+00	0	40	0	1136656384	58	6578
2026-01-19 19:01:01.51	302.50	4.43	-42.9	-44.6	18.4	0.00e+00	0	40	0	1137704960	58	6878
2026-01-19 19:01:02.52	302.40	4.38	-43.2	-45.0	18.1	0.00e+00	0	40	0	1139802112	58	7236
2026-01-19 19:01:03.53	302.30	4.33	-42.7	-44.4	18.6	0.00e+00	0	40	0	1141899264	58	6705
2026-01-19 19:01:04.54	302.20	4.28	-43.2	-44.9	18.2	0.00e+00	0	40	0	1143996416	58	7163
2026-01-19 19:01:05.55	302.10	4.23	-42.9	-44.6	18.3	0.00e+00	0	40	0	1146093568	58	6923
2026-01-19 19:01:06.56	302.00	4.18	-42.5	-44.2	18.6	0.00e+00	0	40	0	1147142144	58	6594
2026-01-19 19:01:07.57	301.90	4.12	-43.1	-44.9	18.1	0.00e+00	0	40	0	1149239296	58	7161
2026-01-19 19:01:08.58	301.80	4.07	-43.0	-44.7	18.4	0.00e+00	0	40	0	1151336448	58	7004
2026-01-19 19:01:09.59	301.70	4.02	-43.1	-44.8	18.5	0.00e+00	0	40	0	1153433600	58	7027
2026-01-19 19:01:10.60	301.60	3.97	-43.0	-44.7	18.5	0.00e+00	0	40	0	1155530752	58	6942
2026-01-19 19:01:11.61	301.51	3.92	-44.0	-46.1	17.3	0.00e+00	0	40	0	1156579328	60	7278
2026-01-19 19:01:12.62	301.41	3.86	-42.6	-44.2	18.8	0.00e+00	0	40	0	1158676480	60	5877
2026-01-19 19:01:13.63	301.31	3.81	-43.2	-45.1	17.7	0.00e+00	0	40	0	1160773632	58	7283
2026-01-19 19:01:14.64	301.21	3.76	-43.4	-45.4	17.5	0.00e+00	0	40	0	1162870784	60	6713
2026-01-19 19:01:15.65	301.12	3.71	-43.9	-46.0	17.5	0.00e+00	0	40	0	1164967936	60	7171
2026-01-19 19:01:16.66	301.02	3.66	-43.5	-45.5	17.5	0.00e+00	0	40	0	1167065088	60	6794
2026-01-19 19:01:17.67	300.93	3.61	-43.6	-45.6	17.2	0.00e+00	0	40	0	1168113664	60	6907
2026-01-19 19:01:18.68	300.83	3.55	-43.8	-45.8	17.1	0.00e+00	0	40	0	1170210816	60	7073
2026-01-19 19:01:19.69	300.74	3.50	-42.8	-44.6	17.9	0.00e+00	0	40	0	1172307968	58	6884
2026-01-19 19:01:20.70	300.64	3.45	-43.6	-45.6	17.3	0.00e+00	0	40	0	1174405120	58	7731
2026-01-19 19:01:21.71	300.55	3.40	-43.6	-45.7	17.0	0.00e+00	0	40	0	1176502272	58	7777
2026-01-19 19:01:22.72	300.45	3.35	-43.4	-45.4	17.5	0.00e+00	0	40	0	1177550848	58	7547
2026-01-19 19:01:23.73	300.36	3.30	-43.6	-45.7	17.1	0.00e+00	0	40	0	1179648000	60	6996
2026-01-19 19:01:24.74	300.27	3.24	-43.7	-45.8	17.0	0.00e+00	0	40	0	1181745152	60	7051
2026-01-19 19:01:25.75	300.18	3.19	-44.2	-46.4	16.8	0.00e+00	0	40	0	1183842304	60	7585
2026-01-19 19:01:26.76	300.08	3.14	-43.4	-45.5	17.0	0.00e+00	0	40	0	1185939456	60	6805
2026-01-19 19:01:27.77	299.99	3.09	-43.4	-45.5	17.0	0.00e+00	0	40	0	1186988032	60	6786
2026-01-19 19:01:28.78	299.90	3.04	-44.1	-46.4	16.5	0.00e+00	0	40	0	1189085184	60	7561
2026-01-19 19:01:29.79	299.81	2.99	-48.8	-64.0	3.6	0.00e+00	0	40	104	1190133760	60	57018
2026-01-19 19:01:30.80	299.72	2.94	-49.2	-64.4	3.6	1.51e+00	0	40	104	1190133760	60	60122
2026-01-19 19:01:31.81	299.63	2.89	-49.9	-65.0	3.6	1.51e+00	0	40	104	1190133760	60	64508
2026-01-19 19:01:32.82	299.53	2.83	-50.5	-65.7	3.6	1.51e+00	0	40	104	1190133760	60	69804
2026-01-19 19:01:33.83	299.44	2.78	-50.5	-65.7	3.6	1.51e+00	0	40	104	1190133760	60	69743
