passes_logs/2026/01/19/R4.6S_Anadyr/R4.6S_Anadyr__20260119_040340_FENGYUN_3D_rec.log

#Pass ID: 20260119_040340_FENGYUN 3D
#Satellite: FENGYUN 3D
#Configuration: FENGYUN 3D
#almurnet v.1.7.20251203
#Start time: 2026-01-19 04:03:41

#Version: 2.2.20231116
#Station: R4.6S_Anadyr
#Location: 177.4865 lon 64.73178 lat
#TLE: 1 43010U 17072A   26018.59788810  .00000129  00000+0  82801-4 0  9992
#TLE: 2 43010  98.9937 350.4692 0002400 102.4643 257.6801 14.19696801423766

#Time	Az	El	Level	Level2	SNR	BER	BlckErr	Temp	State	Recorded	gain1	gain2
2026-01-19 04:03:41.95	202.46	0.09	-50.2	-65.1	3.5	1.51e+00	0	39	0	0	60	65085
2026-01-19 04:03:42.96	202.52	0.15	-50.1	-62.2	3.6	8.46e-01	0	40	104	0	60	46599
2026-01-19 04:03:43.97	202.57	0.20	-50.1	-62.2	3.6	8.45e-01	0	40	104	0	60	46351
2026-01-19 04:03:44.98	202.63	0.25	-50.0	-62.2	3.6	8.45e-01	0	40	104	0	60	46465
2026-01-19 04:03:45.99	202.69	0.31	-50.0	-62.2	3.6	8.45e-01	0	40	104	0	60	46682
2026-01-19 04:03:47.00	202.75	0.36	-50.0	-62.2	3.6	8.44e-01	0	40	104	0	60	46736
2026-01-19 04:03:48.01	202.81	0.42	-50.1	-62.2	3.6	8.45e-01	0	40	104	0	60	46718
2026-01-19 04:03:49.02	202.87	0.47	-50.1	-62.3	3.6	8.45e-01	0	40	104	0	60	47191
2026-01-19 04:03:50.03	202.93	0.53	-50.0	-62.2	3.6	8.46e-01	0	40	104	0	60	46757
2026-01-19 04:03:51.03	202.99	0.58	-50.0	-62.2	3.6	8.45e-01	0	40	104	0	60	46546
2026-01-19 04:03:52.05	203.05	0.64	-50.1	-62.2	3.6	8.46e-01	0	40	104	0	60	46680
2026-01-19 04:03:53.05	203.11	0.69	-50.1	-62.3	3.6	8.45e-01	0	40	104	0	60	47228
2026-01-19 04:03:54.06	203.17	0.75	-50.1	-62.2	3.6	8.45e-01	0	40	104	0	60	46724
2026-01-19 04:03:55.07	203.23	0.81	-50.1	-62.2	3.6	8.45e-01	0	40	104	0	60	46796
2026-01-19 04:03:56.08	203.29	0.86	-50.0	-62.2	3.6	8.45e-01	0	40	104	0	60	46360
2026-01-19 04:03:57.09	203.35	0.92	-50.0	-62.1	3.6	8.45e-01	0	40	104	0	60	46294
2026-01-19 04:03:58.10	203.41	0.97	-49.6	-62.0	3.5	8.46e-01	0	40	104	0	60	45556
2026-01-19 04:03:59.11	203.47	1.03	-49.7	-61.9	3.6	8.44e-01	0	40	104	0	60	45120
2026-01-19 04:04:00.13	203.54	1.08	-49.7	-61.9	3.6	8.45e-01	0	40	104	0	60	44752
2026-01-19 04:04:01.14	203.60	1.14	-49.7	-61.8	3.6	8.45e-01	0	40	104	0	60	44339
2026-01-19 04:04:02.15	203.66	1.20	-49.5	-61.7	3.6	8.46e-01	0	40	104	0	60	43852
2026-01-19 04:04:03.16	203.72	1.25	-49.4	-61.6	3.6	8.45e-01	0	40	104	0	60	43468
2026-01-19 04:04:04.17	203.79	1.31	-49.1	-61.2	3.6	8.45e-01	0	40	104	0	60	41574
2026-01-19 04:04:05.18	203.85	1.36	-48.7	-60.9	3.6	8.45e-01	0	40	104	0	60	39937
2026-01-19 04:04:06.18	203.91	1.42	-48.2	-60.3	3.6	8.45e-01	0	40	104	0	60	37309
2026-01-19 04:04:07.20	203.97	1.48	-48.2	-60.2	3.6	8.45e-01	0	40	104	0	60	37048
2026-01-19 04:04:08.20	204.04	1.53	-48.2	-60.3	3.6	8.45e-01	0	40	104	0	60	37274
2026-01-19 04:04:09.21	204.10	1.59	-48.2	-60.3	3.6	8.45e-01	0	40	104	0	60	37323
2026-01-19 04:04:10.22	204.17	1.65	-48.2	-60.2	3.6	8.45e-01	0	40	104	0	60	37142
2026-01-19 04:04:11.23	204.23	1.70	-48.2	-60.3	3.6	8.45e-01	0	40	104	0	60	37263
2026-01-19 04:04:12.24	204.29	1.76	-48.1	-60.2	3.6	8.46e-01	0	40	104	0	60	36973
2026-01-19 04:04:13.25	204.36	1.82	-48.2	-60.1	3.6	8.45e-01	0	40	104	0	60	36743
2026-01-19 04:04:14.26	204.42	1.87	-48.1	-60.0	3.6	8.46e-01	0	40	104	0	60	36307
2026-01-19 04:04:15.27	204.49	1.93	-48.1	-60.0	3.6	8.44e-01	0	40	104	0	60	35943
2026-01-19 04:04:16.28	204.55	1.99	-48.1	-60.0	3.6	8.46e-01	0	40	104	0	60	36088
2026-01-19 04:04:17.29	204.62	2.05	-48.1	-60.1	3.6	8.45e-01	0	40	104	0	60	36441
2026-01-19 04:04:18.30	204.69	2.10	-48.2	-60.2	3.6	8.44e-01	0	40	104	0	60	36974
2026-01-19 04:04:19.31	204.75	2.16	-48.1	-60.3	3.6	8.44e-01	0	40	104	0	60	37359
2026-01-19 04:04:20.32	204.82	2.22	-48.1	-60.1	3.6	8.45e-01	0	40	104	0	60	36476
2026-01-19 04:04:21.33	204.88	2.28	-48.1	-59.7	3.6	8.44e-01	0	41	104	0	60	35006
2026-01-19 04:04:22.34	204.95	2.33	-48.1	-59.5	3.6	8.45e-01	0	40	104	0	60	33943
2026-01-19 04:04:23.36	205.02	2.39	-48.1	-59.5	3.6	8.45e-01	0	40	104	0	60	33962
2026-01-19 04:04:24.37	205.09	2.45	-48.1	-59.6	3.6	8.45e-01	0	40	104	0	60	34485
2026-01-19 04:04:25.38	205.15	2.51	-48.1	-59.7	3.6	8.44e-01	0	40	104	0	60	34759
2026-01-19 04:04:26.38	205.22	2.57	-48.0	-58.7	3.6	8.45e-01	0	40	104	0	60	31181
2026-01-19 04:04:27.39	205.29	2.62	-47.9	-57.5	3.7	8.44e-01	0	41	104	0	60	27256
2026-01-19 04:04:28.40	205.36	2.68	-47.7	-55.4	3.9	8.35e-01	0	41	0	0	60	21261
2026-01-19 04:04:29.41	205.43	2.74	-47.7	-54.7	4.1	8.18e-01	0	41	0	0	60	19625
2026-01-19 04:04:30.42	205.49	2.80	-47.7	-54.9	4.0	8.26e-01	0	41	0	0	60	20183
2026-01-19 04:04:31.43	205.56	2.86	-47.9	-57.7	3.8	8.43e-01	0	41	104	0	60	27810
2026-01-19 04:04:32.45	205.63	2.92	-47.7	-56.3	4.3	8.40e-01	0	41	104	0	60	23621
2026-01-19 04:04:33.46	205.70	2.98	-46.9	-51.8	6.7	4.66e-01	0	41	0	1048576	60	14089
2026-01-19 04:04:34.47	205.77	3.03	-45.1	-48.0	11.0	1.11e-02	0	41	0	7340032	60	9064
2026-01-19 04:04:35.48	205.84	3.09	-43.7	-45.8	13.4	2.24e-04	0	41	0	12582912	60	7055
2026-01-19 04:04:36.49	205.91	3.15	-42.1	-43.7	15.5	0.00e+00	0	41	0	18874368	58	6225
2026-01-19 04:04:37.50	205.98	3.21	-41.1	-42.5	16.9	0.00e+00	0	40	0	24117248	56	6034
2026-01-19 04:04:38.51	206.06	3.27	-41.2	-42.5	16.7	0.00e+00	0	41	0	29360128	56	6103
2026-01-19 04:04:39.52	206.13	3.33	-40.9	-42.2	17.0	0.00e+00	0	41	0	35651584	56	5859
2026-01-19 04:04:40.53	206.20	3.39	-41.2	-42.6	16.5	0.00e+00	0	41	0	40894464	56	6109
2026-01-19 04:04:41.54	206.27	3.45	-46.5	-51.2	5.6	3.63e-03	0	41	0	47185920	60	13073
2026-01-19 04:04:42.55	206.34	3.51	-43.1	-45.1	16.0	8.44e-01	0	41	104	47185920	60	6479
2026-01-19 04:04:43.56	206.41	3.57	-40.2	-41.4	17.5	0.00e+00	0	41	0	51380224	52	6710
2026-01-19 04:04:44.57	206.49	3.63	-38.3	-39.3	20.1	2.20e-06	0	40	0	57671680	52	5255
2026-01-19 04:04:45.58	206.56	3.69	-42.7	-44.3	16.1	8.01e-05	0	41	0	62914560	60	5935
2026-01-19 04:04:46.59	206.63	3.75	-40.3	-41.5	17.8	0.00e+00	0	41	0	68157440	54	6096
2026-01-19 04:04:47.61	206.71	3.81	-39.9	-41.0	18.4	0.00e+00	0	41	0	74448896	54	5732
2026-01-19 04:04:48.62	206.78	3.87	-39.9	-41.0	18.3	0.00e+00	0	41	0	79691776	54	5730
2026-01-19 04:04:49.63	206.85	3.93	-39.8	-40.9	18.5	0.00e+00	0	40	0	85983232	54	5676
2026-01-19 04:04:50.64	206.93	3.99	-39.2	-40.2	19.3	0.00e+00	0	40	0	91226112	52	5864
2026-01-19 04:04:51.65	207.00	4.05	-39.5	-40.6	18.8	0.00e+00	0	40	0	96468992	52	6144
2026-01-19 04:04:52.66	207.08	4.11	-39.0	-40.1	19.4	0.00e+00	0	40	0	102760448	52	5783
2026-01-19 04:04:53.67	207.15	4.17	-39.5	-40.6	19.0	0.00e+00	0	40	0	108003328	52	6144
2026-01-19 04:04:54.68	207.23	4.23	-38.3	-39.2	20.3	0.00e+00	0	40	0	114294784	50	5895
2026-01-19 04:04:55.69	207.31	4.29	-37.7	-38.7	20.8	0.00e+00	0	40	0	119537664	48	6179
2026-01-19 04:04:56.70	207.38	4.35	-37.8	-38.7	20.8	0.00e+00	0	40	0	124780544	48	6240
2026-01-19 04:04:57.71	207.46	4.41	-38.0	-38.9	20.5	0.00e+00	0	40	0	131072000	48	6382
2026-01-19 04:04:58.73	207.53	4.48	-37.6	-38.5	21.1	0.00e+00	0	40	0	136314880	48	6039
2026-01-19 04:04:59.73	207.61	4.54	-37.5	-38.4	21.1	0.00e+00	0	40	0	142606336	48	6003
2026-01-19 04:05:00.75	207.69	4.60	-37.6	-38.5	21.1	0.00e+00	0	40	0	147849216	48	6052
2026-01-19 04:05:01.76	207.77	4.66	-37.7	-38.6	21.0	0.00e+00	0	40	0	154140672	48	6130
2026-01-19 04:05:02.77	207.84	4.72	-37.8	-38.7	20.9	0.00e+00	0	41	0	159383552	48	6226
2026-01-19 04:05:03.78	207.92	4.78	-37.7	-38.6	21.0	0.00e+00	0	40	0	165675008	48	6117
2026-01-19 04:05:04.79	208.00	4.84	-37.4	-38.2	21.3	0.00e+00	0	41	0	170917888	48	5896
2026-01-19 04:05:05.80	208.08	4.91	-37.4	-38.2	21.3	0.00e+00	0	41	0	176160768	48	5884
2026-01-19 04:05:06.81	208.16	4.97	-37.4	-38.2	21.4	0.00e+00	0	41	0	182452224	48	5889
2026-01-19 04:05:07.82	208.24	5.03	-37.4	-38.2	21.4	0.00e+00	0	41	0	187695104	48	5888
2026-01-19 04:05:08.83	208.32	5.09	-37.5	-38.4	21.2	0.00e+00	0	41	0	193986560	48	5978
2026-01-19 04:05:09.84	208.40	5.15	-37.4	-38.2	21.5	0.00e+00	0	41	0	199229440	48	5883
2026-01-19 04:05:10.84	208.48	5.22	-37.3	-38.2	21.4	0.00e+00	0	41	0	204472320	48	5863
2026-01-19 04:05:11.85	208.56	5.28	-37.5	-38.4	21.3	0.00e+00	0	41	0	210763776	48	6001
2026-01-19 04:05:12.86	208.64	5.34	-37.5	-38.3	21.3	0.00e+00	0	41	0	216006656	48	5950
2026-01-19 04:05:13.88	208.72	5.40	-37.2	-38.1	21.6	0.00e+00	0	40	0	222298112	48	5793
2026-01-19 04:05:14.88	208.80	5.47	-37.5	-38.4	21.3	0.00e+00	0	40	0	227540992	48	5969
2026-01-19 04:05:15.89	208.89	5.53	-37.2	-38.0	21.7	0.00e+00	0	41	0	232783872	48	5747
2026-01-19 04:05:16.90	208.97	5.59	-37.2	-38.0	21.7	0.00e+00	0	41	0	239075328	48	5743
2026-01-19 04:05:17.91	209.05	5.65	-37.2	-38.0	21.7	0.00e+00	0	41	0	244318208	48	5754
2026-01-19 04:05:18.92	209.13	5.72	-37.3	-38.1	21.6	0.00e+00	0	41	0	250609664	48	5808
2026-01-19 04:05:19.93	209.22	5.78	-37.2	-38.0	21.7	0.00e+00	0	41	0	255852544	48	5752
2026-01-19 04:05:20.94	209.30	5.84	-37.2	-38.0	21.8	0.00e+00	0	41	0	262144000	48	5747
2026-01-19 04:05:21.96	209.39	5.91	-36.9	-37.7	22.1	0.00e+00	0	40	0	267386880	48	5554
2026-01-19 04:05:22.97	209.47	5.97	-37.1	-37.9	21.8	0.00e+00	0	40	0	273678336	48	5685
2026-01-19 04:05:23.98	209.56	6.04	-37.0	-37.8	22.1	0.00e+00	0	40	0	278921216	48	5600
2026-01-19 04:05:24.99	209.64	6.10	-36.7	-37.5	22.4	0.00e+00	0	41	0	284164096	46	6038
2026-01-19 04:05:26.00	209.73	6.16	-36.9	-37.7	22.2	0.00e+00	0	41	0	290455552	46	6235
2026-01-19 04:05:27.01	209.81	6.23	-36.6	-37.4	22.4	0.00e+00	0	41	0	295698432	46	6012
2026-01-19 04:05:28.02	209.90	6.29	-36.6	-37.4	22.4	0.00e+00	0	41	0	301989888	46	6015
2026-01-19 04:05:29.03	209.99	6.36	-36.5	-37.3	22.6	0.00e+00	0	41	0	307232768	46	5914
2026-01-19 04:05:30.04	210.07	6.42	-36.7	-37.5	22.4	0.00e+00	0	41	0	312475648	46	6040
2026-01-19 04:05:31.05	210.16	6.48	-36.5	-37.3	22.6	0.00e+00	0	41	0	318767104	46	5899
2026-01-19 04:05:32.06	210.25	6.55	-36.5	-37.2	22.6	0.00e+00	0	41	0	324009984	46	5894
2026-01-19 04:05:33.07	210.34	6.61	-36.6	-37.4	22.4	0.00e+00	0	41	0	330301440	46	5995
2026-01-19 04:05:34.08	210.43	6.68	-36.8	-37.6	22.4	0.00e+00	0	41	0	335544320	46	6109
2026-01-19 04:05:35.09	210.51	6.74	-36.6	-37.4	22.4	0.00e+00	0	41	0	340787200	46	6004
2026-01-19 04:05:36.10	210.60	6.81	-36.7	-37.5	22.4	0.00e+00	0	41	0	347078656	46	6078
2026-01-19 04:05:37.11	210.69	6.87	-36.4	-37.2	22.8	0.00e+00	0	41	0	352321536	46	5842
2026-01-19 04:05:38.11	210.78	6.94	-36.4	-37.2	22.7	0.00e+00	0	41	0	358612992	46	5873
2026-01-19 04:05:39.12	210.87	7.00	-36.5	-37.2	22.7	0.00e+00	0	41	0	363855872	46	5895
2026-01-19 04:05:40.13	210.96	7.07	-36.4	-37.2	22.7	0.00e+00	0	41	0	370147328	46	5857
2026-01-19 04:05:41.15	211.06	7.13	-36.4	-37.2	22.8	0.00e+00	0	41	0	375390208	46	5864
2026-01-19 04:05:42.16	211.15	7.20	-36.6	-37.3	22.7	0.00e+00	0	41	0	380633088	46	5948
2026-01-19 04:05:43.17	211.24	7.26	-36.5	-37.3	22.7	0.00e+00	0	41	0	386924544	46	5948
2026-01-19 04:05:44.18	211.33	7.33	-36.4	-37.1	22.8	0.00e+00	0	41	0	392167424	46	5828
2026-01-19 04:05:45.19	211.43	7.40	-36.5	-37.3	22.8	0.00e+00	0	41	0	398458880	46	5920
2026-01-19 04:05:46.19	211.52	7.46	-36.8	-37.6	22.6	0.00e+00	0	41	0	403701760	46	6119
2026-01-19 04:05:47.20	211.61	7.53	-36.5	-37.3	22.8	0.00e+00	0	41	0	408944640	46	5933
2026-01-19 04:05:48.22	211.71	7.59	-36.7	-37.5	22.6	0.00e+00	0	41	0	415236096	46	6067
2026-01-19 04:05:49.22	211.80	7.66	-36.8	-37.5	22.5	0.00e+00	0	41	0	420478976	46	6088
2026-01-19 04:05:50.24	211.90	7.73	-36.9	-37.8	22.5	0.00e+00	0	41	0	426770432	46	6249
2026-01-19 04:05:51.25	211.99	7.79	-36.9	-37.7	22.4	0.00e+00	0	41	0	432013312	46	6212
2026-01-19 04:05:52.26	212.09	7.86	-37.1	-37.9	22.0	0.00e+00	0	41	0	437256192	46	6355
2026-01-19 04:05:53.27	212.18	7.93	-36.6	-37.4	22.8	0.00e+00	0	41	0	443547648	46	6021
2026-01-19 04:05:54.28	212.28	7.99	-37.0	-37.8	22.4	0.00e+00	0	41	0	448790528	46	6279
2026-01-19 04:05:55.29	212.38	8.06	-36.8	-37.5	22.6	0.00e+00	0	41	0	455081984	46	6098
2026-01-19 04:05:56.30	212.47	8.13	-36.6	-37.4	22.7	0.00e+00	0	41	0	460324864	46	5996
2026-01-19 04:05:57.31	212.57	8.20	-36.4	-37.2	23.0	0.00e+00	0	41	0	466616320	46	5858
2026-01-19 04:05:58.32	212.67	8.26	-36.5	-37.2	22.8	0.00e+00	0	41	0	471859200	46	5888
2026-01-19 04:05:59.33	212.77	8.33	-36.6	-37.3	22.9	0.00e+00	0	41	0	478150656	46	5934
2026-01-19 04:06:00.34	212.87	8.40	-36.2	-36.9	23.2	0.00e+00	0	41	0	483393536	46	5666
2026-01-19 04:06:01.35	212.97	8.47	-36.1	-36.9	23.2	0.00e+00	0	41	0	488636416	46	5639
2026-01-19 04:06:02.36	213.07	8.53	-36.3	-37.0	23.1	0.00e+00	0	41	0	494927872	46	5750
2026-01-19 04:06:03.37	213.17	8.60	-36.0	-36.7	23.3	0.00e+00	0	41	0	500170752	46	5559
2026-01-19 04:06:04.38	213.27	8.67	-36.2	-37.0	23.2	0.00e+00	0	41	0	506462208	46	5704
2026-01-19 04:06:05.39	213.37	8.74	-36.0	-36.8	23.4	0.00e+00	0	41	0	511705088	46	5580
2026-01-19 04:06:06.40	213.47	8.81	-36.0	-36.8	23.4	0.00e+00	0	41	0	516947968	46	5588
2026-01-19 04:06:07.42	213.57	8.87	-36.1	-36.8	23.3	0.00e+00	0	41	0	523239424	46	5612
2026-01-19 04:06:08.42	213.68	8.94	-36.0	-36.7	23.4	0.00e+00	0	41	0	528482304	46	5532
2026-01-19 04:06:09.44	213.78	9.01	-36.0	-36.7	23.4	0.00e+00	0	41	0	534773760	46	5528
2026-01-19 04:06:10.45	213.88	9.08	-35.9	-36.7	23.5	0.00e+00	0	41	0	540016640	46	5515
2026-01-19 04:06:11.46	213.99	9.15	-35.8	-36.5	23.6	0.00e+00	0	41	0	545259520	44	6084
2026-01-19 04:06:12.47	214.09	9.22	-35.9	-36.7	23.5	0.00e+00	0	41	0	551550976	44	6203
2026-01-19 04:06:13.48	214.20	9.29	-35.5	-36.3	23.8	0.00e+00	0	41	0	556793856	44	5908
2026-01-19 04:06:14.49	214.30	9.36	-35.7	-36.4	23.7	0.00e+00	0	41	0	563085312	44	6030
2026-01-19 04:06:15.49	214.41	9.42	-35.7	-36.4	23.7	0.00e+00	0	41	0	568328192	44	6009
2026-01-19 04:06:16.50	214.52	9.49	-35.7	-36.4	23.8	0.00e+00	0	41	0	574619648	44	5993
2026-01-19 04:06:17.51	214.62	9.56	-35.6	-36.3	23.8	0.00e+00	0	41	0	579862528	44	5922
2026-01-19 04:06:18.52	214.73	9.63	-35.6	-36.3	23.8	0.00e+00	0	41	0	586153984	44	5935
2026-01-19 04:06:19.54	214.84	9.70	-35.7	-36.4	23.8	0.00e+00	0	41	0	591396864	44	5997
2026-01-19 04:06:20.54	214.95	9.77	-35.6	-36.3	23.8	0.00e+00	0	41	0	596639744	44	5942
2026-01-19 04:06:21.56	215.06	9.84	-35.6	-36.3	23.9	0.00e+00	0	41	0	602931200	44	5923
2026-01-19 04:06:22.57	215.17	9.91	-35.5	-36.2	23.9	0.00e+00	0	41	0	608174080	44	5887
2026-01-19 04:06:23.58	215.28	9.98	-35.4	-36.1	24.0	0.00e+00	0	41	0	614465536	44	5825
2026-01-19 04:06:24.59	215.39	10.05	-35.6	-36.3	23.8	0.00e+00	0	41	0	619708416	44	5936
2026-01-19 04:06:25.60	215.50	10.12	-35.4	-36.1	24.0	0.00e+00	0	41	0	624951296	44	5799
2026-01-19 04:06:26.61	215.61	10.19	-35.5	-36.2	23.9	0.00e+00	0	41	0	631242752	44	5860
2026-01-19 04:06:27.62	215.72	10.26	-35.4	-36.1	24.0	0.00e+00	0	41	0	636485632	44	5797
2026-01-19 04:06:28.63	215.83	10.33	-35.6	-36.3	23.9	0.00e+00	0	41	0	642777088	44	5899
2026-01-19 04:06:29.64	215.95	10.40	-35.4	-36.2	24.0	0.00e+00	0	41	0	648019968	44	5831
2026-01-19 04:06:30.65	216.06	10.47	-35.4	-36.1	24.0	0.00e+00	0	41	0	653262848	44	5825
2026-01-19 04:06:31.66	216.17	10.55	-35.3	-36.0	24.1	0.00e+00	0	41	0	659554304	44	5730
2026-01-19 04:06:32.67	216.29	10.62	-35.5	-36.2	23.9	0.00e+00	0	41	0	664797184	44	5875
2026-01-19 04:06:33.68	216.40	10.69	-35.4	-36.1	24.0	0.00e+00	0	41	0	671088640	44	5811
2026-01-19 04:06:34.69	216.52	10.76	-35.5	-36.2	23.9	0.00e+00	0	41	0	676331520	44	5863
2026-01-19 04:06:35.70	216.64	10.83	-35.5	-36.2	24.1	0.00e+00	0	41	0	682622976	44	5864
2026-01-19 04:06:36.71	216.75	10.90	-35.5	-36.2	24.0	0.00e+00	0	41	0	687865856	44	5888
2026-01-19 04:06:37.72	216.87	10.97	-35.9	-36.7	23.7	0.00e+00	0	41	0	694157312	44	6179
2026-01-19 04:06:38.73	216.99	11.04	-35.8	-36.6	23.6	0.00e+00	0	41	0	699400192	44	6152
2026-01-19 04:06:39.74	217.11	11.12	-35.6	-36.3	23.9	0.00e+00	0	41	0	704643072	44	5957
2026-01-19 04:06:40.75	217.23	11.19	-35.8	-36.5	23.7	0.00e+00	0	41	0	710934528	44	6062
2026-01-19 04:06:41.76	217.35	11.26	-35.4	-36.2	24.0	0.00e+00	0	41	0	716177408	44	5830
2026-01-19 04:06:42.77	217.47	11.33	-35.7	-36.4	23.8	0.00e+00	0	41	0	722468864	44	6000
2026-01-19 04:06:43.78	217.59	11.40	-35.3	-36.0	24.2	0.00e+00	0	41	0	727711744	44	5728
2026-01-19 04:06:44.79	217.71	11.48	-35.1	-35.8	24.3	0.00e+00	0	41	0	732954624	44	5590
2026-01-19 04:06:45.80	217.83	11.55	-35.2	-35.9	24.3	0.00e+00	0	41	0	739246080	44	5666
2026-01-19 04:06:46.81	217.95	11.62	-35.3	-36.0	24.2	0.00e+00	0	41	0	744488960	44	5724
2026-01-19 04:06:47.82	218.08	11.69	-35.2	-36.0	24.2	0.00e+00	0	41	0	750780416	44	5700
2026-01-19 04:06:48.83	218.20	11.77	-35.3	-36.1	24.2	0.00e+00	0	41	0	756023296	44	5780
2026-01-19 04:06:49.83	218.32	11.84	-35.3	-36.0	24.2	0.00e+00	0	41	0	761266176	44	5721
2026-01-19 04:06:50.84	218.45	11.91	-35.3	-36.0	24.2	0.00e+00	0	41	0	767557632	44	5720
2026-01-19 04:06:51.86	218.57	11.98	-35.4	-36.2	24.1	0.00e+00	0	41	0	772800512	44	5840
2026-01-19 04:06:52.87	218.70	12.06	-35.2	-35.9	24.3	0.00e+00	0	41	0	779091968	44	5659
2026-01-19 04:06:53.88	218.83	12.13	-35.2	-35.9	24.3	0.00e+00	0	41	0	784334848	44	5650
2026-01-19 04:06:54.89	218.95	12.20	-35.0	-35.7	24.4	0.00e+00	0	41	0	790626304	44	5564
2026-01-19 04:06:55.90	219.08	12.28	-34.9	-35.6	24.6	0.00e+00	0	41	0	795869184	44	5444
2026-01-19 04:06:56.91	219.21	12.35	-34.8	-35.5	24.6	0.00e+00	0	41	0	801112064	44	5423
2026-01-19 04:06:57.92	219.34	12.42	-34.7	-35.4	24.9	0.00e+00	0	41	0	807403520	42	5973
2026-01-19 04:06:58.93	219.47	12.50	-34.8	-35.4	24.7	0.00e+00	0	41	0	812646400	42	6030
2026-01-19 04:06:59.94	219.60	12.57	-34.8	-35.5	24.6	0.00e+00	0	41	0	818937856	42	6088
2026-01-19 04:07:00.95	219.73	12.65	-34.8	-35.5	24.7	0.00e+00	0	41	0	824180736	42	6050
2026-01-19 04:07:01.95	219.86	12.72	-34.8	-35.5	24.8	0.00e+00	0	41	0	829423616	42	6038
2026-01-19 04:07:02.96	219.99	12.79	-35.0	-35.8	24.6	0.00e+00	0	41	0	835715072	42	6246
2026-01-19 04:07:03.97	220.13	12.87	-35.1	-35.8	24.4	0.00e+00	0	41	0	840957952	42	6268
2026-01-19 04:07:04.98	220.26	12.94	-35.0	-35.8	24.6	0.00e+00	0	41	0	847249408	42	6256
2026-01-19 04:07:05.99	220.39	13.01	-34.9	-35.6	24.7	0.00e+00	0	41	0	852492288	42	6140
2026-01-19 04:07:07.00	220.53	13.09	-34.8	-35.5	24.7	0.00e+00	0	41	0	857735168	42	6090
2026-01-19 04:07:08.01	220.66	13.16	-35.0	-35.7	24.5	0.00e+00	0	41	0	864026624	42	6228
2026-01-19 04:07:09.02	220.80	13.24	-35.1	-35.8	24.5	0.00e+00	0	41	0	869269504	42	6304
2026-01-19 04:07:10.03	220.94	13.31	-34.9	-35.6	24.6	0.00e+00	0	41	0	875560960	42	6171
2026-01-19 04:07:11.04	221.08	13.39	-35.0	-35.7	24.5	0.00e+00	0	41	0	880803840	42	6218
2026-01-19 04:07:12.05	221.21	13.46	-35.1	-35.8	24.6	0.00e+00	0	41	0	887095296	42	6314
2026-01-19 04:07:13.07	221.35	13.54	-34.8	-35.5	24.7	0.00e+00	0	41	0	892338176	42	6084
2026-01-19 04:07:14.08	221.49	13.61	-35.0	-35.7	24.5	0.00e+00	0	41	0	898629632	42	6244
2026-01-19 04:07:15.09	221.63	13.69	-35.1	-35.8	24.5	0.00e+00	0	41	0	903872512	42	6291
2026-01-19 04:07:16.10	221.77	13.76	-34.9	-35.7	24.6	0.00e+00	0	41	0	909115392	42	6180
2026-01-19 04:07:17.11	221.92	13.84	-35.0	-35.7	24.6	0.00e+00	0	41	0	915406848	42	6230
2026-01-19 04:07:18.12	222.06	13.91	-34.8	-35.5	24.8	0.00e+00	0	41	0	920649728	42	6057
2026-01-19 04:07:19.13	222.20	13.99	-34.6	-35.3	25.0	0.00e+00	0	41	0	926941184	42	5932
2026-01-19 04:07:20.14	222.34	14.06	-34.5	-35.2	25.0	0.00e+00	0	41	0	932184064	42	5878
2026-01-19 04:07:21.15	222.49	14.14	-34.5	-35.2	25.1	0.00e+00	0	41	0	937426944	42	5841
2026-01-19 04:07:22.16	222.63	14.21	-34.3	-35.0	25.2	0.00e+00	0	41	0	943718400	42	5717
2026-01-19 04:07:23.17	222.78	14.29	-34.3	-35.1	25.2	0.00e+00	0	41	0	948961280	42	5764
2026-01-19 04:07:24.18	222.93	14.36	-34.5	-35.2	25.1	0.00e+00	0	41	0	955252736	42	5864
2026-01-19 04:07:25.20	223.08	14.44	-34.5	-35.1	25.1	0.00e+00	0	41	0	960495616	42	5807
2026-01-19 04:07:26.21	223.22	14.52	-34.3	-35.0	25.3	0.00e+00	0	41	0	965738496	42	5732
2026-01-19 04:07:27.22	223.37	14.59	-34.5	-35.2	25.1	0.00e+00	0	41	0	972029952	42	5849
2026-01-19 04:07:28.22	223.52	14.67	-34.3	-35.0	25.3	0.00e+00	0	41	0	977272832	42	5717
2026-01-19 04:07:29.23	223.67	14.74	-34.2	-34.9	25.3	0.00e+00	0	41	0	983564288	42	5682
2026-01-19 04:07:30.24	223.82	14.82	-34.2	-34.9	25.3	0.00e+00	0	41	0	988807168	42	5687
2026-01-19 04:07:31.25	223.97	14.89	-34.1	-34.8	25.4	0.00e+00	0	41	0	995098624	42	5595
2026-01-19 04:07:32.26	224.13	14.97	-34.2	-34.9	25.3	0.00e+00	0	41	0	1000341504	42	5676
2026-01-19 04:07:33.27	224.28	15.05	-34.1	-34.8	25.5	0.00e+00	0	41	0	1006632960	42	5596
2026-01-19 04:07:34.29	224.43	15.12	-34.2	-34.9	25.3	0.00e+00	0	41	0	1011875840	42	5649
2026-01-19 04:07:35.29	224.59	15.20	-34.1	-34.8	25.5	0.00e+00	0	41	0	1017118720	42	5583
2026-01-19 04:07:36.30	224.74	15.28	-34.1	-34.8	25.4	0.00e+00	0	41	0	1023410176	42	5596
2026-01-19 04:07:37.31	224.90	15.35	-34.2	-34.8	25.4	0.00e+00	0	41	0	1028653056	42	5628
2026-01-19 04:07:38.32	225.06	15.43	-34.1	-34.7	25.5	0.00e+00	0	41	0	1034944512	42	5561
2026-01-19 04:07:39.33	225.21	15.50	-34.1	-34.8	25.5	0.00e+00	0	41	0	1040187392	42	5596
2026-01-19 04:07:40.34	225.37	15.58	-33.9	-34.6	25.5	0.00e+00	0	41	0	1045430272	42	5466
2026-01-19 04:07:41.35	225.53	15.66	-33.9	-34.6	25.6	0.00e+00	0	41	0	1051721728	42	5471
2026-01-19 04:07:42.36	225.69	15.73	-33.9	-34.6	25.6	0.00e+00	0	41	0	1056964608	42	5486
2026-01-19 04:07:43.37	225.85	15.81	-33.8	-34.6	25.7	0.00e+00	0	41	0	1063256064	42	5441
2026-01-19 04:07:44.38	226.02	15.89	-34.0	-34.7	25.6	0.00e+00	0	41	0	1068498944	42	5505
2026-01-19 04:07:45.39	226.18	15.96	-34.0	-34.7	25.5	0.00e+00	0	41	0	1073741824	42	5532
2026-01-19 04:07:46.40	226.34	16.04	-34.2	-34.9	25.4	0.00e+00	0	41	0	1080033280	42	5661
2026-01-19 04:07:47.41	226.51	16.12	-34.1	-34.8	25.4	0.00e+00	0	41	0	1085276160	42	5584
2026-01-19 04:07:48.42	226.67	16.19	-34.0	-34.7	25.5	0.00e+00	0	41	0	1091567616	42	5560
2026-01-19 04:07:49.43	226.84	16.27	-34.1	-34.8	25.5	0.00e+00	0	41	0	1096810496	42	5592
2026-01-19 04:07:50.44	227.00	16.35	-34.0	-34.7	25.6	0.00e+00	0	41	0	1103101952	42	5518
2026-01-19 04:07:51.46	227.17	16.42	-33.9	-34.5	25.7	0.00e+00	0	41	0	1108344832	42	5435
2026-01-19 04:07:52.47	227.34	16.50	-34.1	-34.8	25.6	0.00e+00	0	41	0	1114636288	42	5580
2026-01-19 04:07:53.48	227.51	16.58	-33.9	-34.5	25.6	0.00e+00	0	41	0	1119879168	42	5426
2026-01-19 04:07:54.49	227.68	16.65	-33.9	-34.5	25.7	0.00e+00	0	41	0	1125122048	42	5411
2026-01-19 04:07:55.50	227.85	16.73	-33.9	-34.5	25.7	0.00e+00	0	41	0	1131413504	42	5436
2026-01-19 04:07:56.51	228.02	16.81	-34.0	-34.6	25.6	0.00e+00	0	41	0	1136656384	42	5475
2026-01-19 04:07:57.51	228.19	16.88	-34.0	-34.7	25.6	0.00e+00	0	41	0	1141899264	42	5544
2026-01-19 04:07:58.52	228.37	16.96	-34.0	-34.7	25.6	0.00e+00	0	41	0	1148190720	42	5529
2026-01-19 04:07:59.53	228.54	17.04	-33.8	-34.5	25.7	0.00e+00	0	41	0	1153433600	42	5387
2026-01-19 04:08:00.54	228.72	17.11	-33.8	-34.5	25.7	0.00e+00	0	41	0	1159725056	42	5398
2026-01-19 04:08:01.55	228.89	17.19	-33.7	-34.4	25.8	0.00e+00	0	41	0	1164967936	40	5995
2026-01-19 04:08:02.56	229.07	17.27	-33.8	-34.4	25.8	0.00e+00	0	41	0	1170210816	40	6031
2026-01-19 04:08:03.57	229.25	17.34	-33.5	-34.2	26.0	0.00e+00	0	41	0	1176502272	40	5856
2026-01-19 04:08:04.57	229.42	17.42	-33.5	-34.1	26.0	0.00e+00	0	41	0	1181745152	40	5822
2026-01-19 04:08:05.58	229.60	17.49	-33.3	-34.0	26.1	0.00e+00	0	41	0	1188036608	40	5713
2026-01-19 04:08:06.60	229.78	17.57	-33.5	-34.2	26.0	0.00e+00	0	41	0	1193279488	40	5851
2026-01-19 04:08:07.61	229.97	17.65	-33.6	-34.2	26.0	0.00e+00	0	41	0	1199570944	40	5881
2026-01-19 04:08:08.62	230.15	17.72	-33.6	-34.2	26.0	0.00e+00	0	41	0	1204813824	40	5867
2026-01-19 04:08:09.63	230.33	17.80	-33.6	-34.2	26.0	0.00e+00	0	41	0	1211105280	40	5887
2026-01-19 04:08:10.64	230.51	17.88	-33.6	-34.3	26.0	0.00e+00	0	41	0	1216348160	40	5929
2026-01-19 04:08:11.65	230.70	17.95	-33.6	-34.3	25.9	0.00e+00	0	41	0	1221591040	40	5905
2026-01-19 04:08:12.66	230.88	18.03	-33.7	-34.4	25.8	0.00e+00	0	41	0	1227882496	40	5979
2026-01-19 04:08:13.67	231.07	18.11	-33.6	-34.3	25.9	0.00e+00	0	41	0	1233125376	40	5948
2026-01-19 04:08:14.68	231.26	18.18	-33.5	-34.2	26.0	0.00e+00	0	41	0	1239416832	40	5871
2026-01-19 04:08:15.69	231.45	18.26	-33.3	-34.0	26.2	0.00e+00	0	41	0	1244659712	40	5722
2026-01-19 04:08:16.70	231.64	18.33	-33.4	-34.0	26.1	0.00e+00	0	41	0	1249902592	40	5753
2026-01-19 04:08:17.71	231.83	18.41	-33.4	-34.1	26.1	0.00e+00	0	41	0	1256194048	40	5768
2026-01-19 04:08:18.72	232.02	18.49	-33.4	-34.0	26.2	0.00e+00	0	41	0	1261436928	40	5731
2026-01-19 04:08:19.73	232.21	18.56	-33.3	-34.0	26.2	0.00e+00	0	41	0	1267728384	40	5711
2026-01-19 04:08:20.74	232.40	18.64	-33.3	-34.0	26.2	0.00e+00	0	41	0	1272971264	40	5701
2026-01-19 04:08:21.75	232.60	18.71	-33.3	-33.9	26.2	0.00e+00	0	41	0	1278214144	40	5690
2026-01-19 04:08:22.75	232.79	18.79	-33.3	-33.9	26.2	0.00e+00	0	41	0	1284505600	40	5690
2026-01-19 04:08:23.77	232.99	18.86	-33.3	-34.0	26.2	0.00e+00	0	41	0	1289748480	40	5701
2026-01-19 04:08:24.78	233.19	18.94	-33.4	-34.1	26.1	0.00e+00	0	41	0	1296039936	40	5764
2026-01-19 04:08:25.79	233.38	19.01	-33.5	-34.2	26.1	0.00e+00	0	41	0	1301282816	40	5862
2026-01-19 04:08:26.80	233.58	19.09	-33.4	-34.1	26.2	0.00e+00	0	41	0	1307574272	40	5776
2026-01-19 04:08:27.81	233.78	19.16	-33.5	-34.2	26.0	0.00e+00	0	41	0	1312817152	40	5833
2026-01-19 04:08:28.82	233.98	19.24	-33.3	-34.0	26.2	0.00e+00	0	41	0	1319108608	40	5735
2026-01-19 04:08:29.83	234.18	19.31	-33.3	-34.0	26.2	0.00e+00	0	41	0	1324351488	40	5719
2026-01-19 04:08:30.84	234.39	19.39	-33.1	-33.7	26.4	0.00e+00	0	41	0	1329594368	40	5558
2026-01-19 04:08:31.85	234.59	19.46	-33.1	-33.7	26.4	0.00e+00	0	41	0	1335885824	40	5549
2026-01-19 04:08:32.86	234.79	19.54	-33.0	-33.7	26.4	0.00e+00	0	41	0	1341128704	40	5527
2026-01-19 04:08:33.87	235.00	19.61	-33.1	-33.7	26.4	0.00e+00	0	41	0	1347420160	40	5547
2026-01-19 04:08:34.88	235.21	19.69	-33.1	-33.7	26.4	0.00e+00	0	41	0	1352663040	40	5540
2026-01-19 04:08:35.89	235.41	19.76	-33.1	-33.7	26.4	0.00e+00	0	41	0	1357905920	40	5547
2026-01-19 04:08:36.90	235.62	19.83	-33.1	-33.8	26.3	0.00e+00	0	41	0	1364197376	40	5579
2026-01-19 04:08:37.91	235.83	19.91	-33.0	-33.7	26.4	0.00e+00	0	41	0	1369440256	40	5504
2026-01-19 04:08:38.92	236.04	19.98	-33.2	-33.8	26.3	0.00e+00	0	41	0	1375731712	40	5615
2026-01-19 04:08:39.93	236.25	20.05	-33.2	-33.9	26.4	0.00e+00	0	41	0	1380974592	40	5632
2026-01-19 04:08:40.94	236.47	20.13	-33.2	-33.8	26.3	0.00e+00	0	41	0	1386217472	40	5624
2026-01-19 04:08:41.95	236.68	20.20	-33.2	-33.8	26.3	0.00e+00	0	41	0	1392508928	40	5615
2026-01-19 04:08:42.96	236.89	20.27	-33.2	-33.9	26.3	0.00e+00	0	41	0	1397751808	40	5635
2026-01-19 04:08:43.97	237.11	20.35	-32.9	-33.6	26.5	0.00e+00	0	41	0	1404043264	40	5451
2026-01-19 04:08:44.98	237.32	20.42	-32.9	-33.5	26.5	0.00e+00	0	41	0	1409286144	40	5431
2026-01-19 04:08:45.99	237.54	20.49	-32.9	-33.6	26.5	0.00e+00	0	41	0	1415577600	40	5451
2026-01-19 04:08:47.00	237.76	20.56	-32.9	-33.5	26.6	0.00e+00	0	41	0	1420820480	40	5414
2026-01-19 04:08:48.01	237.98	20.63	-32.8	-33.4	26.7	0.00e+00	0	41	0	1426063360	38	5988
2026-01-19 04:08:49.02	238.20	20.71	-33.0	-33.7	26.5	0.00e+00	0	41	0	1432354816	38	6183
2026-01-19 04:08:50.03	238.42	20.78	-33.2	-33.8	26.4	0.00e+00	0	41	0	1437597696	38	6279
2026-01-19 04:08:51.04	238.64	20.85	-33.0	-33.6	26.5	0.00e+00	0	41	0	1443889152	38	6134
2026-01-19 04:08:52.04	238.86	20.92	-33.0	-33.7	26.5	0.00e+00	0	41	0	1449132032	38	6191
2026-01-19 04:08:53.05	239.09	20.99	-32.8	-33.5	26.7	0.00e+00	0	41	0	1454374912	38	6038
2026-01-19 04:08:54.06	239.31	21.06	-32.8	-33.4	26.7	0.00e+00	0	41	0	1460666368	38	6012
2026-01-19 04:08:55.07	239.54	21.13	-32.9	-33.5	26.6	0.00e+00	0	41	0	1465909248	38	6075
2026-01-19 04:08:56.08	239.77	21.20	-33.0	-33.7	26.4	0.00e+00	0	41	0	1472200704	38	6176
2026-01-19 04:08:57.09	240.00	21.27	-33.0	-33.7	26.5	0.00e+00	0	41	0	1477443584	38	6200
2026-01-19 04:08:58.10	240.22	21.34	-33.0	-33.7	26.4	0.00e+00	0	41	0	1482686464	38	6212
2026-01-19 04:08:59.11	240.45	21.41	-33.1	-33.7	26.4	0.00e+00	0	41	0	1488977920	38	6213
2026-01-19 04:09:00.12	240.69	21.48	-33.2	-33.9	26.3	0.00e+00	0	41	0	1494220800	38	6337
2026-01-19 04:09:01.13	240.92	21.55	-33.3	-34.0	26.3	0.00e+00	0	41	0	1500512256	38	6422
2026-01-19 04:09:02.15	241.15	21.62	-33.1	-33.8	26.4	0.00e+00	0	41	0	1505755136	38	6250
2026-01-19 04:09:03.15	241.39	21.68	-32.9	-33.6	26.5	0.00e+00	0	41	0	1512046592	38	6131
2026-01-19 04:09:04.17	241.62	21.75	-32.8	-33.5	26.7	0.00e+00	0	41	0	1517289472	38	6056
2026-01-19 04:09:05.18	241.86	21.82	-32.6	-33.2	26.8	0.00e+00	0	41	0	1523580928	38	5889
2026-01-19 04:09:06.19	242.10	21.89	-32.5	-33.1	27.0	0.00e+00	0	41	0	1528823808	38	5800
2026-01-19 04:09:07.20	242.34	21.95	-32.5	-33.1	26.9	0.00e+00	0	41	0	1534066688	38	5795
2026-01-19 04:09:08.20	242.57	22.02	-32.6	-33.2	26.8	0.00e+00	0	41	0	1540358144	38	5894
2026-01-19 04:09:09.21	242.81	22.08	-32.8	-33.5	26.7	0.00e+00	0	41	0	1545601024	38	6055
2026-01-19 04:09:10.22	243.05	22.15	-32.9	-33.6	26.5	0.00e+00	0	41	0	1551892480	38	6139
2026-01-19 04:09:11.24	243.30	22.22	-33.0	-33.7	26.6	0.00e+00	0	41	0	1557135360	38	6176
2026-01-19 04:09:12.25	243.54	22.28	-32.7	-33.4	26.8	0.00e+00	0	41	0	1562378240	38	5984
2026-01-19 04:09:13.26	243.79	22.35	-32.5	-33.2	27.0	0.00e+00	0	41	0	1568669696	38	5843
2026-01-19 04:09:14.27	244.03	22.41	-32.3	-33.0	27.1	0.00e+00	0	41	0	1573912576	38	5716
2026-01-19 04:09:15.28	244.28	22.47	-32.2	-32.7	27.3	0.00e+00	0	41	0	1580204032	38	5559
2026-01-19 04:09:16.29	244.52	22.54	-32.2	-32.9	27.2	0.00e+00	0	41	0	1585446912	38	5655
2026-01-19 04:09:17.30	244.77	22.60	-32.3	-33.0	27.0	0.00e+00	0	41	0	1590689792	38	5701
2026-01-19 04:09:18.31	245.02	22.66	-32.4	-33.0	27.0	0.00e+00	0	41	0	1596981248	38	5753
2026-01-19 04:09:19.32	245.27	22.73	-32.6	-33.2	27.0	0.00e+00	0	41	0	1602224128	38	5848
2026-01-19 04:09:20.33	245.52	22.79	-32.7	-33.3	26.8	0.00e+00	0	41	0	1608515584	38	5959
2026-01-19 04:09:21.34	245.78	22.85	-32.6	-33.2	26.8	0.00e+00	0	41	0	1613758464	38	5891
2026-01-19 04:09:22.35	246.03	22.91	-32.6	-33.3	26.8	0.00e+00	0	41	0	1620049920	38	5910
2026-01-19 04:09:23.36	246.28	22.97	-32.4	-33.1	27.0	0.00e+00	0	41	0	1625292800	38	5767
2026-01-19 04:09:24.37	246.54	23.03	-32.4	-33.0	27.1	0.00e+00	0	41	0	1631584256	38	5723
2026-01-19 04:09:25.38	246.79	23.09	-32.3	-33.0	27.1	0.00e+00	0	41	0	1636827136	38	5726
2026-01-19 04:09:26.39	247.05	23.15	-32.4	-33.0	27.1	0.00e+00	0	41	0	1642070016	38	5721
2026-01-19 04:09:27.40	247.31	23.21	-32.5	-33.1	26.9	0.00e+00	0	41	0	1648361472	38	5817
2026-01-19 04:09:28.41	247.57	23.27	-32.4	-33.1	27.0	0.00e+00	0	41	0	1653604352	38	5771
2026-01-19 04:09:29.42	247.83	23.33	-32.4	-33.1	27.0	0.00e+00	0	41	0	1659895808	38	5769
2026-01-19 04:09:30.42	248.08	23.39	-32.3	-32.9	27.1	0.00e+00	0	41	0	1665138688	38	5689
2026-01-19 04:09:31.44	248.35	23.44	-32.4	-33.0	27.0	0.00e+00	0	41	0	1670381568	38	5748
2026-01-19 04:09:32.44	248.61	23.50	-32.4	-33.1	27.0	0.00e+00	0	41	0	1676673024	38	5777
2026-01-19 04:09:33.46	248.88	23.56	-32.3	-33.0	27.1	0.00e+00	0	41	0	1681915904	38	5698
2026-01-19 04:09:34.46	249.14	23.61	-32.3	-32.9	27.1	0.00e+00	0	41	0	1687158784	38	5668
2026-01-19 04:09:35.47	249.40	23.67	-32.1	-32.7	27.2	0.00e+00	0	41	0	1693450240	38	5535
2026-01-19 04:09:36.49	249.67	23.72	-32.1	-32.7	27.3	0.00e+00	0	41	0	1698693120	38	5524
2026-01-19 04:09:37.50	249.94	23.78	-31.9	-32.6	27.4	0.00e+00	0	41	0	1704984576	38	5442
2026-01-19 04:09:38.51	250.21	23.83	-32.2	-32.8	27.2	0.00e+00	0	41	0	1710227456	38	5627
2026-01-19 04:09:39.52	250.48	23.88	-32.3	-32.9	27.2	0.00e+00	0	41	0	1716518912	38	5692
2026-01-19 04:09:40.53	250.75	23.94	-32.3	-33.0	27.1	0.00e+00	0	41	0	1721761792	38	5724
2026-01-19 04:09:41.54	251.02	23.99	-32.5	-33.2	27.0	0.00e+00	0	41	0	1728053248	38	5832
2026-01-19 04:09:42.55	251.29	24.04	-32.3	-33.0	27.1	0.00e+00	0	41	0	1733296128	38	5716
2026-01-19 04:09:43.56	251.56	24.09	-32.3	-33.0	27.0	0.00e+00	0	41	0	1738539008	38	5708
2026-01-19 04:09:44.57	251.83	24.14	-32.2	-32.9	27.1	0.00e+00	0	41	0	1744830464	38	5631
2026-01-19 04:09:45.58	252.11	24.19	-32.5	-33.1	27.0	0.00e+00	0	41	0	1750073344	38	5803
2026-01-19 04:09:46.59	252.38	24.24	-32.2	-32.8	27.2	0.00e+00	0	41	0	1756364800	38	5626
2026-01-19 04:09:47.59	252.66	24.29	-32.0	-32.6	27.5	0.00e+00	0	41	0	1761607680	38	5488
2026-01-19 04:09:48.60	252.93	24.34	-31.9	-32.5	27.5	0.00e+00	0	41	0	1766850560	38	5427
2026-01-19 04:09:49.61	253.21	24.38	-31.9	-32.6	27.4	0.00e+00	0	41	0	1773142016	38	5460
2026-01-19 04:09:50.62	253.49	24.43	-32.1	-32.7	27.3	0.00e+00	0	41	0	1778384896	38	5532
2026-01-19 04:09:51.63	253.77	24.48	-32.0	-32.7	27.3	0.00e+00	0	41	0	1784676352	38	5528
2026-01-19 04:09:52.64	254.05	24.52	-32.1	-32.8	27.3	0.00e+00	0	41	0	1789919232	38	5568
2026-01-19 04:09:53.65	254.33	24.57	-32.0	-32.6	27.4	0.00e+00	0	41	0	1795162112	38	5473
2026-01-19 04:09:54.66	254.61	24.61	-31.9	-32.5	27.4	0.00e+00	0	41	0	1801453568	38	5434
2026-01-19 04:09:55.67	254.89	24.65	-31.9	-32.6	27.5	0.00e+00	0	41	0	1806696448	38	5461
2026-01-19 04:09:56.68	255.17	24.70	-31.9	-32.6	27.5	0.00e+00	0	41	0	1812987904	38	5454
2026-01-19 04:09:57.69	255.46	24.74	-32.0	-32.6	27.4	0.00e+00	0	41	0	1818230784	38	5456
2026-01-19 04:09:58.70	255.74	24.78	-32.0	-32.7	27.3	0.00e+00	0	41	0	1824522240	38	5540
2026-01-19 04:09:59.71	256.03	24.82	-32.1	-32.7	27.4	0.00e+00	0	41	0	1829765120	38	5525
2026-01-19 04:10:00.72	256.31	24.86	-32.1	-32.8	27.3	0.00e+00	0	41	0	1836056576	38	5592
2026-01-19 04:10:01.73	256.60	24.90	-32.1	-32.7	27.3	0.00e+00	0	41	0	1841299456	38	5525
2026-01-19 04:10:02.73	256.88	24.94	-31.8	-32.4	27.5	0.00e+00	0	41	0	1846542336	38	5377
2026-01-19 04:10:03.74	257.17	24.98	-31.9	-32.5	27.5	0.00e+00	0	41	0	1852833792	38	5412
2026-01-19 04:10:04.75	257.46	25.02	-31.9	-32.6	27.4	0.00e+00	0	41	0	1858076672	38	5458
2026-01-19 04:10:05.76	257.75	25.05	-31.8	-32.5	27.5	0.00e+00	0	41	0	1863319552	38	5379
2026-01-19 04:10:06.77	258.04	25.09	-31.9	-32.5	27.4	0.00e+00	0	41	0	1869611008	38	5434
2026-01-19 04:10:07.78	258.33	25.13	-31.8	-32.5	27.5	0.00e+00	0	41	0	1874853888	38	5387
2026-01-19 04:10:08.79	258.62	25.16	-31.8	-32.4	27.5	0.00e+00	0	41	0	1881145344	38	5367
2026-01-19 04:10:09.80	258.91	25.19	-31.8	-32.5	27.5	0.00e+00	0	41	0	1886388224	38	5381
2026-01-19 04:10:10.80	259.20	25.23	-31.8	-32.4	27.5	0.00e+00	0	41	0	1891631104	36	5987
2026-01-19 04:10:11.81	259.50	25.26	-31.9	-32.6	27.4	0.00e+00	0	41	0	1897922560	36	6121
2026-01-19 04:10:12.83	259.79	25.29	-32.0	-32.6	27.3	0.00e+00	0	41	0	1903165440	36	6172
2026-01-19 04:10:13.83	260.08	25.32	-32.0	-32.6	27.2	0.00e+00	0	41	0	1909456896	36	6159
2026-01-19 04:10:14.84	260.38	25.35	-31.9	-32.5	27.4	0.00e+00	0	41	0	1914699776	36	6086
2026-01-19 04:10:15.86	260.68	25.38	-31.9	-32.5	27.4	0.00e+00	0	41	0	1920991232	36	6095
2026-01-19 04:10:16.87	260.97	25.41	-31.8	-32.4	27.5	0.00e+00	0	41	0	1926234112	36	5976
2026-01-19 04:10:17.87	261.27	25.44	-31.9	-32.5	27.5	0.00e+00	0	41	0	1932525568	36	6102
2026-01-19 04:10:18.88	261.56	25.47	-32.0	-32.7	27.3	0.00e+00	0	41	0	1937768448	36	6192
2026-01-19 04:10:19.89	261.86	25.49	-32.0	-32.7	27.4	0.00e+00	0	41	0	1943011328	36	6188
2026-01-19 04:10:20.90	262.16	25.52	-31.9	-32.5	27.5	0.00e+00	0	41	0	1949302784	36	6091
2026-01-19 04:10:21.91	262.46	25.54	-31.6	-32.2	27.7	0.00e+00	0	41	0	1954545664	36	5894
2026-01-19 04:10:22.92	262.76	25.57	-31.6	-32.2	27.7	0.00e+00	0	41	0	1960837120	36	5888
2026-01-19 04:10:23.93	263.05	25.59	-31.7	-32.3	27.6	0.00e+00	0	41	0	1966080000	36	5938
2026-01-19 04:10:24.94	263.35	25.61	-31.8	-32.4	27.5	0.00e+00	0	41	0	1971322880	36	6001
2026-01-19 04:10:25.95	263.65	25.64	-31.7	-32.3	27.7	0.00e+00	0	41	0	1977614336	36	5901
2026-01-19 04:10:26.96	263.95	25.66	-31.7	-32.4	27.6	0.00e+00	0	41	0	1982857216	36	5969
2026-01-19 04:10:27.97	264.25	25.68	-31.8	-32.5	27.4	0.00e+00	0	41	0	1989148672	36	6051
2026-01-19 04:10:28.98	264.56	25.70	-31.7	-32.3	27.6	0.00e+00	0	41	0	1994391552	36	5940
2026-01-19 04:10:29.99	264.86	25.72	-31.7	-32.3	27.6	0.00e+00	0	41	0	1999634432	36	5931
2026-01-19 04:10:31.00	265.16	25.73	-31.9	-32.5	27.5	0.00e+00	0	41	0	2005925888	36	6075
2026-01-19 04:10:32.01	265.46	25.75	-31.9	-32.5	27.4	0.00e+00	0	41	0	2011168768	36	6093
2026-01-19 04:10:33.03	265.77	25.77	-31.8	-32.5	27.4	0.00e+00	0	41	0	2017460224	36	6042
2026-01-19 04:10:34.04	266.07	25.78	-32.0	-32.6	27.4	0.00e+00	0	41	0	2022703104	36	6134
2026-01-19 04:10:35.05	266.37	25.80	-31.8	-32.4	27.5	0.00e+00	0	41	0	2028994560	36	6028
2026-01-19 04:10:36.06	266.68	25.81	-31.8	-32.4	27.5	0.00e+00	0	41	0	2034237440	36	6018
2026-01-19 04:10:37.07	266.98	25.82	-31.7	-32.3	27.7	0.00e+00	0	41	0	2040528896	36	5912
2026-01-19 04:10:38.08	267.28	25.83	-31.8	-32.4	27.6	0.00e+00	0	41	0	2045771776	36	6003
2026-01-19 04:10:39.09	267.59	25.85	-31.9	-32.6	27.4	0.00e+00	0	41	0	2051014656	36	6109
2026-01-19 04:10:40.10	267.89	25.86	-32.0	-32.6	27.4	0.00e+00	0	41	0	2057306112	36	6156
2026-01-19 04:10:41.11	268.19	25.87	-32.0	-32.6	27.3	0.00e+00	0	41	0	2062548992	36	6172
2026-01-19 04:10:42.12	268.50	25.87	-31.9	-32.5	27.4	0.00e+00	0	41	0	2068840448	36	6060
2026-01-19 04:10:43.13	268.80	25.88	-31.9	-32.6	27.5	0.00e+00	0	41	0	2074083328	36	6127
2026-01-19 04:10:44.14	269.11	25.89	-31.9	-32.6	27.4	0.00e+00	0	41	0	2079326208	36	6136
2026-01-19 04:10:45.14	269.41	25.89	-32.0	-32.6	27.4	0.00e+00	0	41	0	2085617664	36	6158
2026-01-19 04:10:46.15	269.72	25.90	-31.9	-32.6	27.5	0.00e+00	0	41	0	2090860544	36	6109
2026-01-19 04:10:47.16	270.02	25.90	-31.8	-32.5	27.5	0.00e+00	0	41	0	2096103424	36	6036
2026-01-19 04:10:48.17	270.33	25.91	-31.8	-32.5	27.5	0.00e+00	0	41	0	2102394880	36	6045
2026-01-19 04:10:49.18	270.63	25.91	-31.9	-32.4	27.4	0.00e+00	0	40	0	2107637760	36	6027
2026-01-19 04:10:50.19	270.94	25.91	-31.9	-32.5	27.3	0.00e+00	0	41	0	2113929216	36	6069
2026-01-19 04:10:51.20	271.24	25.91	-31.8	-32.5	27.5	0.00e+00	0	41	0	2119172096	36	6050
2026-01-19 04:10:52.21	271.55	25.91	-31.7	-32.3	27.6	0.00e+00	0	41	0	2125463552	36	5919
2026-01-19 04:10:53.22	271.85	25.91	-31.7	-32.3	27.6	0.00e+00	0	41	0	2130706432	36	5946
2026-01-19 04:10:54.23	272.16	25.91	-31.6	-32.2	27.7	0.00e+00	0	41	0	2136997888	36	5883
2026-01-19 04:10:55.25	272.46	25.91	-31.7	-32.3	27.6	0.00e+00	0	41	0	2142240768	36	5928
2026-01-19 04:10:56.26	272.77	25.91	-31.7	-32.3	27.5	0.00e+00	0	41	0	2147483648	36	5944
2026-01-19 04:10:57.26	273.07	25.90	-31.8	-32.5	27.5	0.00e+00	0	41	0	2153775104	36	6037
2026-01-19 04:10:58.27	273.38	25.90	-31.7	-32.3	27.6	0.00e+00	0	41	0	2159017984	36	5925
2026-01-19 04:10:59.28	273.68	25.89	-31.7	-32.3	27.6	0.00e+00	0	41	0	2165309440	36	5935
2026-01-19 04:11:00.29	273.99	25.88	-31.8	-32.4	27.3	0.00e+00	0	41	0	2170552320	36	6001
2026-01-19 04:11:01.30	274.29	25.88	-31.8	-32.4	27.4	0.00e+00	0	41	0	2175795200	36	6003
2026-01-19 04:11:02.31	274.59	25.87	-31.9	-32.6	27.4	0.00e+00	0	41	0	2182086656	36	6105
2026-01-19 04:11:03.32	274.90	25.86	-31.7	-32.4	27.5	0.00e+00	0	41	0	2187329536	36	5968
2026-01-19 04:11:04.33	275.20	25.85	-31.8	-32.4	27.5	0.00e+00	0	41	0	2193620992	36	5965
2026-01-19 04:11:05.35	275.51	25.84	-31.7	-32.3	27.6	0.00e+00	0	41	0	2198863872	36	5950
2026-01-19 04:11:06.35	275.81	25.83	-31.7	-32.4	27.5	0.00e+00	0	41	0	2204106752	36	5967
2026-01-19 04:11:07.36	276.11	25.82	-31.7	-32.3	27.6	0.00e+00	0	41	0	2210398208	36	5958
2026-01-19 04:11:08.37	276.42	25.80	-31.6	-32.3	27.6	0.00e+00	0	41	0	2215641088	36	5900
2026-01-19 04:11:09.38	276.72	25.79	-31.7	-32.3	27.6	0.00e+00	0	41	0	2221932544	36	5947
2026-01-19 04:11:10.39	277.02	25.77	-31.6	-32.3	27.6	0.00e+00	0	41	0	2227175424	36	5911
2026-01-19 04:11:11.40	277.32	25.76	-31.7	-32.3	27.6	0.00e+00	0	41	0	2233466880	36	5941
2026-01-19 04:11:12.41	277.63	25.74	-31.8	-32.4	27.5	0.00e+00	0	41	0	2238709760	36	5995
2026-01-19 04:11:13.42	277.93	25.72	-31.8	-32.4	27.5	0.00e+00	0	41	0	2245001216	36	6007
2026-01-19 04:11:14.43	278.23	25.71	-31.8	-32.4	27.5	0.00e+00	0	41	0	2250244096	36	6033
2026-01-19 04:11:15.44	278.53	25.69	-31.9	-32.5	27.3	0.00e+00	0	41	0	2255486976	36	6093
2026-01-19 04:11:16.45	278.83	25.67	-31.8	-32.5	27.5	0.00e+00	0	41	0	2261778432	36	6082
2026-01-19 04:11:17.46	279.13	25.65	-31.8	-32.5	27.5	0.00e+00	0	41	0	2267021312	36	6052
2026-01-19 04:11:18.47	279.43	25.62	-31.8	-32.5	27.5	0.00e+00	0	41	0	2273312768	36	6047
2026-01-19 04:11:19.48	279.73	25.60	-31.8	-32.4	27.5	0.00e+00	0	41	0	2278555648	36	6030
2026-01-19 04:11:20.49	280.03	25.58	-32.0	-32.7	27.3	0.00e+00	0	41	0	2283798528	36	6220
2026-01-19 04:11:21.49	280.32	25.56	-31.9	-32.5	27.5	0.00e+00	0	41	0	2290089984	36	6099
2026-01-19 04:11:22.50	280.62	25.53	-31.9	-32.6	27.4	0.00e+00	0	41	0	2295332864	36	6156
2026-01-19 04:11:23.51	280.92	25.51	-31.8	-32.4	27.5	0.00e+00	0	41	0	2300575744	36	6016
2026-01-19 04:11:24.52	281.22	25.48	-31.9	-32.5	27.5	0.00e+00	0	41	0	2306867200	36	6094
2026-01-19 04:11:25.53	281.51	25.45	-31.7	-32.3	27.5	0.00e+00	0	41	0	2312110080	36	5939
2026-01-19 04:11:26.54	281.81	25.42	-31.8	-32.4	27.5	0.00e+00	0	41	0	2318401536	36	6003
2026-01-19 04:11:27.55	282.11	25.40	-31.7	-32.4	27.5	0.00e+00	0	41	0	2323644416	36	5992
2026-01-19 04:11:28.56	282.40	25.37	-31.8	-32.5	27.3	0.00e+00	0	41	0	2329935872	36	6069
2026-01-19 04:11:29.57	282.70	25.34	-31.8	-32.4	27.5	0.00e+00	0	41	0	2335178752	36	6016
2026-01-19 04:11:30.58	282.99	25.31	-31.6	-32.3	27.6	0.00e+00	0	41	0	2341470208	36	5903
2026-01-19 04:11:31.59	283.28	25.28	-31.7	-32.3	27.5	0.00e+00	0	41	0	2346713088	36	5931
2026-01-19 04:11:32.60	283.58	25.24	-31.8	-32.4	27.5	0.00e+00	0	41	0	2351955968	36	5997
2026-01-19 04:11:33.61	283.87	25.21	-31.8	-32.4	27.4	0.00e+00	0	41	0	2358247424	36	5981
2026-01-19 04:11:34.62	284.16	25.18	-31.8	-32.4	27.4	0.00e+00	0	41	0	2363490304	36	6015
2026-01-19 04:11:35.63	284.45	25.14	-31.9	-32.6	27.5	0.00e+00	0	41	0	2369781760	36	6117
2026-01-19 04:11:36.64	284.74	25.11	-32.0	-32.5	27.4	0.00e+00	0	41	0	2375024640	36	6097
2026-01-19 04:11:37.65	285.03	25.07	-32.1	-32.7	27.3	0.00e+00	0	41	0	2380267520	36	6230
2026-01-19 04:11:38.66	285.32	25.03	-32.1	-32.7	27.3	0.00e+00	0	41	0	2386558976	36	6228
2026-01-19 04:11:39.67	285.61	25.00	-32.2	-32.9	27.1	0.00e+00	0	41	0	2391801856	36	6390
2026-01-19 04:11:40.68	285.90	24.96	-32.3	-32.9	27.0	0.00e+00	0	41	0	2398093312	36	6388
2026-01-19 04:11:41.69	286.18	24.92	-32.3	-32.9	27.0	0.00e+00	0	41	0	2403336192	36	6373
2026-01-19 04:11:42.70	286.47	24.88	-32.2	-32.8	27.2	0.00e+00	0	41	0	2408579072	36	6274
2026-01-19 04:11:43.71	286.75	24.84	-32.1	-32.7	27.3	0.00e+00	0	41	0	2414870528	36	6222
2026-01-19 04:11:44.72	287.04	24.80	-32.1	-32.7	27.2	0.00e+00	0	41	0	2420113408	36	6213
2026-01-19 04:11:45.73	287.32	24.76	-32.2	-32.8	27.3	0.00e+00	0	41	0	2426404864	36	6313
2026-01-19 04:11:46.74	287.61	24.72	-32.1	-32.7	27.3	0.00e+00	0	41	0	2431647744	36	6176
2026-01-19 04:11:47.75	287.89	24.68	-32.1	-32.8	27.3	0.00e+00	0	41	0	2437939200	36	6256
2026-01-19 04:11:48.75	288.17	24.63	-32.1	-32.7	27.3	0.00e+00	0	41	0	2443182080	36	6190
2026-01-19 04:11:49.76	288.45	24.59	-32.1	-32.8	27.2	0.00e+00	0	41	0	2448424960	36	6262
2026-01-19 04:11:50.77	288.73	24.54	-32.0	-32.6	27.2	0.00e+00	0	41	0	2454716416	36	6150
2026-01-19 04:11:51.78	289.01	24.50	-32.1	-32.8	27.4	0.00e+00	0	41	0	2459959296	36	6252
2026-01-19 04:11:52.79	289.29	24.45	-32.1	-32.8	27.2	0.00e+00	0	41	0	2466250752	36	6260
2026-01-19 04:11:53.80	289.57	24.41	-32.1	-32.8	27.2	0.00e+00	0	41	0	2471493632	36	6253
2026-01-19 04:11:54.81	289.84	24.36	-32.1	-32.7	27.3	0.00e+00	0	41	0	2476736512	36	6198
2026-01-19 04:11:55.82	290.12	24.31	-32.2	-32.8	27.3	0.00e+00	0	41	0	2483027968	36	6246
2026-01-19 04:11:56.83	290.40	24.26	-32.1	-32.8	27.3	0.00e+00	0	41	0	2488270848	36	6263
2026-01-19 04:11:57.84	290.67	24.22	-32.0	-32.6	27.5	0.00e+00	0	41	0	2494562304	36	6122
2026-01-19 04:11:58.85	290.94	24.17	-32.0	-32.6	27.5	0.00e+00	0	41	0	2499805184	36	6124
2026-01-19 04:11:59.87	291.22	24.12	-32.0	-32.6	27.5	0.00e+00	0	41	0	2506096640	36	6130
2026-01-19 04:12:00.88	291.49	24.07	-32.1	-32.7	27.5	0.00e+00	0	41	0	2511339520	36	6238
2026-01-19 04:12:01.89	291.76	24.02	-32.2	-32.8	27.3	0.00e+00	0	41	0	2516582400	36	6269
2026-01-19 04:12:02.90	292.03	23.96	-32.1	-32.7	27.4	0.00e+00	0	41	0	2522873856	36	6239
2026-01-19 04:12:03.91	292.30	23.91	-32.4	-33.1	27.1	0.00e+00	0	41	0	2528116736	36	6483
2026-01-19 04:12:04.92	292.57	23.86	-32.4	-32.9	27.2	0.00e+00	0	41	0	2534408192	36	6381
2026-01-19 04:12:05.93	292.84	23.81	-32.5	-33.1	27.2	0.00e+00	0	41	0	2539651072	36	6483
2026-01-19 04:12:06.94	293.11	23.75	-32.5	-33.0	27.1	0.00e+00	0	41	0	2545942528	36	6451
2026-01-19 04:12:07.95	293.37	23.70	-32.6	-33.3	27.0	0.00e+00	0	41	0	2551185408	36	6665
2026-01-19 04:12:08.96	293.64	23.64	-32.3	-32.9	27.3	0.00e+00	0	41	0	2556428288	36	6347
2026-01-19 04:12:09.97	293.90	23.59	-32.3	-33.0	27.3	0.00e+00	0	41	0	2562719744	36	6412
2026-01-19 04:12:10.98	294.16	23.53	-32.3	-32.8	27.3	0.00e+00	0	41	0	2567962624	36	6317
2026-01-19 04:12:11.99	294.43	23.48	-32.4	-33.1	27.3	0.00e+00	0	41	0	2574254080	36	6475
2026-01-19 04:12:13.00	294.69	23.42	-32.4	-33.1	27.2	0.00e+00	0	41	0	2579496960	36	6500
2026-01-19 04:12:14.01	294.95	23.36	-32.6	-33.2	27.0	0.00e+00	0	41	0	2584739840	36	6577
2026-01-19 04:12:15.02	295.21	23.30	-32.5	-33.1	27.2	0.00e+00	0	41	0	2591031296	36	6518
2026-01-19 04:12:16.03	295.47	23.25	-32.6	-33.2	27.0	0.00e+00	0	41	0	2596274176	36	6612
2026-01-19 04:12:17.04	295.72	23.19	-32.6	-33.2	27.0	0.00e+00	0	41	0	2602565632	36	6579
2026-01-19 04:12:18.05	295.98	23.13	-32.6	-33.1	27.2	0.00e+00	0	41	0	2607808512	36	6523
2026-01-19 04:12:19.06	296.24	23.07	-32.5	-33.2	27.1	0.00e+00	0	41	0	2613051392	36	6563
2026-01-19 04:12:20.07	296.49	23.01	-32.6	-33.2	27.1	0.00e+00	0	41	0	2619342848	36	6595
2026-01-19 04:12:21.08	296.74	22.95	-32.5	-33.2	27.1	0.00e+00	0	41	0	2624585728	36	6599
2026-01-19 04:12:22.09	297.00	22.89	-32.6	-33.3	26.9	0.00e+00	0	41	0	2630877184	36	6640
2026-01-19 04:12:23.10	297.25	22.83	-32.6	-33.2	27.0	0.00e+00	0	41	0	2636120064	36	6609
2026-01-19 04:12:24.11	297.50	22.77	-32.8	-33.4	26.9	0.00e+00	0	41	0	2642411520	36	6751
2026-01-19 04:12:25.12	297.75	22.70	-33.0	-33.7	26.7	0.00e+00	0	41	0	2647654400	38	6182
2026-01-19 04:12:26.13	298.00	22.64	-32.9	-33.6	26.7	0.00e+00	0	41	0	2653945856	38	6165
2026-01-19 04:12:27.14	298.25	22.58	-33.2	-33.8	26.6	0.00e+00	0	41	0	2659188736	38	6273
2026-01-19 04:12:28.16	298.49	22.51	-33.0	-33.6	26.8	0.00e+00	0	41	0	2664431616	38	6136
2026-01-19 04:12:29.17	298.74	22.45	-33.2	-33.9	26.3	0.00e+00	0	41	0	2670723072	38	6390
2026-01-19 04:12:30.18	298.99	22.39	-33.6	-34.3	26.3	0.00e+00	0	41	0	2675965952	38	6627
2026-01-19 04:12:31.19	299.23	22.32	-33.5	-34.2	26.2	0.00e+00	0	41	0	2682257408	38	6581
2026-01-19 04:12:32.20	299.47	22.26	-33.4	-34.0	26.4	0.00e+00	0	41	0	2687500288	38	6447
2026-01-19 04:12:33.21	299.71	22.19	-33.0	-33.7	26.7	0.00e+00	0	41	0	2692743168	38	6231
2026-01-19 04:12:34.22	299.96	22.13	-32.9	-33.5	26.7	0.00e+00	0	41	0	2699034624	38	6072
2026-01-19 04:12:35.23	300.20	22.06	-32.6	-33.2	27.0	0.00e+00	0	41	0	2704277504	38	5870
2026-01-19 04:12:36.24	300.43	22.00	-32.5	-33.2	27.1	0.00e+00	0	41	0	2710568960	38	5857
2026-01-19 04:12:37.25	300.67	21.93	-32.4	-33.1	27.1	0.00e+00	0	41	0	2715811840	38	5803
2026-01-19 04:12:38.26	300.91	21.86	-32.4	-32.9	27.2	0.00e+00	0	41	0	2721054720	38	5686
2026-01-19 04:12:39.27	301.14	21.80	-32.5	-33.2	27.1	0.00e+00	0	41	0	2727346176	38	5886
2026-01-19 04:12:40.28	301.38	21.73	-32.8	-33.3	26.9	0.00e+00	0	41	0	2732589056	38	5953
2026-01-19 04:12:41.29	301.61	21.66	-32.8	-33.6	26.7	0.00e+00	0	41	0	2738880512	38	6108
2026-01-19 04:12:42.30	301.85	21.59	-33.0	-33.7	26.6	0.00e+00	0	41	0	2744123392	38	6225
2026-01-19 04:12:43.31	302.08	21.53	-33.0	-33.7	26.6	0.00e+00	0	41	0	2750414848	38	6208
2026-01-19 04:12:44.32	302.31	21.46	-33.0	-33.6	26.6	0.00e+00	0	41	0	2755657728	38	6156
2026-01-19 04:12:45.33	302.54	21.39	-32.9	-33.6	26.8	0.00e+00	0	41	0	2761949184	38	6143
2026-01-19 04:12:46.34	302.77	21.32	-33.0	-33.7	26.7	0.00e+00	0	41	0	2767192064	38	6212
2026-01-19 04:12:47.35	303.00	21.25	-32.9	-33.5	26.8	0.00e+00	0	41	0	2772434944	38	6097
2026-01-19 04:12:48.36	303.22	21.18	-32.9	-33.6	26.8	0.00e+00	0	41	0	2778726400	38	6143
2026-01-19 04:12:49.38	303.45	21.11	-33.2	-33.8	26.6	0.00e+00	0	41	0	2783969280	38	6258
2026-01-19 04:12:50.39	303.68	21.04	-33.1	-33.8	26.6	0.00e+00	0	41	0	2790260736	38	6259
2026-01-19 04:12:51.40	303.90	20.97	-33.0	-33.6	26.7	0.00e+00	0	41	0	2795503616	38	6159
2026-01-19 04:12:52.41	304.12	20.90	-33.0	-33.6	26.7	0.00e+00	0	41	0	2800746496	38	6130
2026-01-19 04:12:53.42	304.35	20.83	-33.0	-33.7	26.7	0.00e+00	0	41	0	2807037952	38	6232
2026-01-19 04:12:54.43	304.57	20.76	-33.1	-33.7	26.6	0.00e+00	0	41	0	2812280832	38	6233
2026-01-19 04:12:55.44	304.79	20.69	-33.2	-33.8	26.5	0.00e+00	0	41	0	2818572288	38	6314
2026-01-19 04:12:56.45	305.01	20.62	-33.1	-33.7	26.5	0.00e+00	0	41	0	2823815168	38	6234
2026-01-19 04:12:57.46	305.22	20.54	-33.2	-33.8	26.5	0.00e+00	0	41	0	2829058048	38	6247
2026-01-19 04:12:58.47	305.44	20.47	-33.2	-33.9	26.5	0.00e+00	0	41	0	2835349504	38	6332
2026-01-19 04:12:59.48	305.66	20.40	-33.1	-33.7	26.6	0.00e+00	0	41	0	2840592384	38	6186
2026-01-19 04:13:00.49	305.87	20.33	-33.0	-33.7	26.6	0.00e+00	0	41	0	2846883840	38	6233
2026-01-19 04:13:01.50	306.09	20.26	-33.1	-33.7	26.6	0.00e+00	0	41	0	2852126720	38	6196
2026-01-19 04:13:02.51	306.30	20.18	-33.1	-33.7	26.6	0.00e+00	0	41	0	2858418176	38	6244
2026-01-19 04:13:03.52	306.51	20.11	-33.1	-33.8	26.5	0.00e+00	0	41	0	2863661056	38	6298
2026-01-19 04:13:04.53	306.72	20.04	-33.3	-33.9	26.4	0.00e+00	0	41	0	2869952512	38	6329
2026-01-19 04:13:05.54	306.93	19.97	-33.4	-34.1	26.3	0.00e+00	0	41	0	2875195392	38	6526
2026-01-19 04:13:06.55	307.14	19.89	-33.6	-34.2	26.2	0.00e+00	0	41	0	2880438272	38	6607
2026-01-19 04:13:07.56	307.35	19.82	-33.5	-34.1	26.2	0.00e+00	0	41	0	2886729728	38	6495
2026-01-19 04:13:08.57	307.56	19.75	-33.4	-34.2	26.2	0.00e+00	0	41	0	2891972608	38	6559
2026-01-19 04:13:09.58	307.76	19.67	-33.5	-34.1	26.1	0.00e+00	0	41	0	2898264064	38	6508
2026-01-19 04:13:10.59	307.97	19.60	-33.4	-34.1	26.2	0.00e+00	0	41	0	2903506944	38	6522
2026-01-19 04:13:11.60	308.17	19.53	-33.6	-34.1	26.1	0.00e+00	0	41	0	2908749824	38	6538
2026-01-19 04:13:12.60	308.37	19.45	-33.6	-34.3	26.0	0.00e+00	0	41	0	2915041280	38	6671
2026-01-19 04:13:13.61	308.57	19.38	-33.5	-34.3	26.0	0.00e+00	0	41	0	2920284160	38	6634
2026-01-19 04:13:14.62	308.78	19.30	-33.7	-34.4	26.0	0.00e+00	0	41	0	2926575616	38	6759
2026-01-19 04:13:15.63	308.98	19.23	-33.8	-34.5	25.8	0.00e+00	0	41	0	2931818496	40	6090
2026-01-19 04:13:16.64	309.18	19.15	-33.9	-34.7	25.7	0.00e+00	0	41	0	2937061376	40	6186
2026-01-19 04:13:17.65	309.37	19.08	-33.9	-34.6	25.6	0.00e+00	0	41	0	2943352832	40	6165
2026-01-19 04:13:18.66	309.57	19.01	-33.8	-34.5	25.6	0.00e+00	0	41	0	2948595712	40	6096
2026-01-19 04:13:19.67	309.77	18.93	-33.7	-34.5	25.6	0.00e+00	0	41	0	2954887168	40	6057
2026-01-19 04:13:20.68	309.96	18.86	-34.0	-34.6	25.5	0.00e+00	0	41	0	2960130048	40	6158
2026-01-19 04:13:21.69	310.16	18.78	-33.8	-34.5	25.8	0.00e+00	0	41	0	2966421504	40	6041
2026-01-19 04:13:22.70	310.35	18.71	-33.8	-34.4	25.8	0.00e+00	0	41	0	2971664384	40	6032
2026-01-19 04:13:23.71	310.55	18.63	-33.8	-34.5	25.8	0.00e+00	0	41	0	2976907264	40	6083
2026-01-19 04:13:24.72	310.74	18.56	-33.8	-34.4	25.8	0.00e+00	0	41	0	2983198720	40	6020
2026-01-19 04:13:25.73	310.93	18.48	-33.8	-34.4	25.9	0.00e+00	0	41	0	2988441600	40	5979
2026-01-19 04:13:26.74	311.12	18.41	-33.8	-34.5	25.9	0.00e+00	0	41	0	2994733056	40	6075
2026-01-19 04:13:27.75	311.31	18.33	-33.7	-34.3	26.0	0.00e+00	0	41	0	2999975936	40	5918
2026-01-19 04:13:28.76	311.50	18.25	-33.6	-34.3	26.1	0.00e+00	0	41	0	3005218816	40	5911
2026-01-19 04:13:29.77	311.68	18.18	-33.6	-34.2	26.1	0.00e+00	0	41	0	3011510272	40	5843
2026-01-19 04:13:30.78	311.87	18.10	-33.6	-34.3	26.0	0.00e+00	0	41	0	3016753152	40	5947
2026-01-19 04:13:31.79	312.06	18.03	-33.8	-34.5	25.8	0.00e+00	0	41	0	3023044608	40	6043
2026-01-19 04:13:32.80	312.24	17.95	-33.9	-34.6	25.8	0.00e+00	0	41	0	3028287488	40	6105
2026-01-19 04:13:33.81	312.42	17.88	-33.9	-34.6	25.9	0.00e+00	0	41	0	3033530368	40	6153
2026-01-19 04:13:34.82	312.61	17.80	-34.1	-34.7	25.6	0.00e+00	0	41	0	3039821824	40	6225
2026-01-19 04:13:35.83	312.79	17.72	-34.3	-35.0	25.4	0.00e+00	0	41	0	3045064704	40	6428
2026-01-19 04:13:36.84	312.97	17.65	-34.4	-35.2	25.3	0.00e+00	0	41	0	3051356160	40	6590
2026-01-19 04:13:37.85	313.15	17.57	-34.4	-35.2	25.3	0.00e+00	0	41	0	3056599040	40	6543
2026-01-19 04:13:38.86	313.33	17.50	-34.3	-35.0	25.5	0.00e+00	0	41	0	3062890496	40	6450
2026-01-19 04:13:39.87	313.51	17.42	-34.2	-34.9	25.5	0.00e+00	0	41	0	3068133376	40	6323
2026-01-19 04:13:40.88	313.69	17.34	-34.0	-34.7	25.7	0.00e+00	0	41	0	3074424832	40	6239
2026-01-19 04:13:41.89	313.86	17.27	-34.0	-34.6	25.7	0.00e+00	0	41	0	3079667712	40	6128
2026-01-19 04:13:42.90	314.04	17.19	-34.0	-34.8	25.7	0.00e+00	0	41	0	3084910592	40	6247
2026-01-19 04:13:43.91	314.21	17.12	-34.1	-34.8	25.6	0.00e+00	0	41	0	3091202048	40	6249
2026-01-19 04:13:44.92	314.39	17.04	-34.3	-34.9	25.5	0.00e+00	0	41	0	3096444928	40	6333
2026-01-19 04:13:45.93	314.56	16.96	-34.3	-34.9	25.4	0.00e+00	0	41	0	3102736384	40	6387
2026-01-19 04:13:46.94	314.73	16.89	-34.3	-34.9	25.4	0.00e+00	0	41	0	3107979264	40	6342
2026-01-19 04:13:47.95	314.91	16.81	-34.3	-35.0	25.4	0.00e+00	0	41	0	3113222144	40	6395
2026-01-19 04:13:48.96	315.08	16.74	-34.2	-34.9	25.5	0.00e+00	0	41	0	3119513600	40	6332
2026-01-19 04:13:49.97	315.25	16.66	-34.3	-34.9	25.4	0.00e+00	0	41	0	3124756480	40	6353
2026-01-19 04:13:50.98	315.42	16.58	-34.3	-34.9	25.4	0.00e+00	0	41	0	3131047936	40	6379
2026-01-19 04:13:51.99	315.58	16.51	-34.3	-35.0	25.4	0.00e+00	0	41	0	3136290816	40	6434
2026-01-19 04:13:53.00	315.75	16.43	-34.4	-35.1	25.3	0.00e+00	0	41	0	3141533696	40	6529
2026-01-19 04:13:54.01	315.92	16.36	-34.4	-35.2	25.3	0.00e+00	0	41	0	3147825152	40	6569
2026-01-19 04:13:55.02	316.08	16.28	-34.4	-35.1	25.3	0.00e+00	0	41	0	3153068032	40	6502
2026-01-19 04:13:56.03	316.25	16.20	-34.5	-35.3	25.2	0.00e+00	0	41	0	3159359488	40	6616
2026-01-19 04:13:57.04	316.41	16.13	-34.4	-35.1	25.3	0.00e+00	0	41	0	3164602368	40	6479
2026-01-19 04:13:58.05	316.58	16.05	-34.4	-35.0	25.3	0.00e+00	0	41	0	3170893824	40	6428
2026-01-19 04:13:59.06	316.74	15.98	-34.4	-35.1	25.3	0.00e+00	0	41	0	3176136704	40	6530
2026-01-19 04:14:00.07	316.90	15.90	-34.3	-35.1	25.3	0.00e+00	0	41	0	3182428160	40	6496
2026-01-19 04:14:01.08	317.06	15.82	-34.3	-35.1	25.4	0.00e+00	0	41	0	3187671040	40	6477
2026-01-19 04:14:02.09	317.22	15.75	-34.4	-35.0	25.3	0.00e+00	0	41	0	3192913920	40	6417
2026-01-19 04:14:03.10	317.38	15.67	-34.6	-35.3	25.2	0.00e+00	0	41	0	3199205376	40	6690
2026-01-19 04:14:04.11	317.54	15.60	-34.5	-35.1	25.3	0.00e+00	0	41	0	3204448256	40	6534
2026-01-19 04:14:05.12	317.70	15.52	-34.5	-35.1	25.2	0.00e+00	0	41	0	3210739712	40	6515
2026-01-19 04:14:06.13	317.85	15.45	-34.4	-35.1	25.3	0.00e+00	0	41	0	3215982592	40	6508
2026-01-19 04:14:07.14	318.01	15.37	-34.5	-35.1	25.2	0.00e+00	0	41	0	3221225472	40	6529
2026-01-19 04:14:08.15	318.17	15.29	-34.5	-35.2	25.1	0.00e+00	0	41	0	3227516928	40	6575
2026-01-19 04:14:09.16	318.32	15.22	-34.4	-35.1	25.3	0.00e+00	0	41	0	3232759808	40	6481
2026-01-19 04:14:10.17	318.47	15.14	-34.3	-35.0	25.4	0.00e+00	0	41	0	3239051264	40	6452
2026-01-19 04:14:11.18	318.63	15.07	-34.3	-34.9	25.3	0.00e+00	0	41	0	3244294144	40	6379
2026-01-19 04:14:12.20	318.78	14.99	-34.3	-34.9	25.3	0.00e+00	0	41	0	3249537024	40	6370
2026-01-19 04:14:13.20	318.93	14.92	-34.4	-35.2	25.2	0.00e+00	0	41	0	3255828480	40	6578
2026-01-19 04:14:14.21	319.08	14.84	-34.5	-35.1	25.1	0.00e+00	0	41	0	3261071360	40	6525
2026-01-19 04:14:15.22	319.23	14.77	-34.6	-35.3	25.1	0.00e+00	0	41	0	3267362816	40	6680
2026-01-19 04:14:16.23	319.38	14.69	-34.6	-35.4	25.1	0.00e+00	0	41	0	3272605696	40	6716
2026-01-19 04:14:17.24	319.53	14.62	-34.8	-35.6	24.9	0.00e+00	0	41	0	3278897152	42	6133
2026-01-19 04:14:18.25	319.68	14.54	-34.9	-35.6	24.8	0.00e+00	0	41	0	3284140032	42	6117
2026-01-19 04:14:19.26	319.83	14.46	-34.8	-35.5	24.9	0.00e+00	0	41	0	3289382912	42	6095
2026-01-19 04:14:20.27	319.97	14.39	-34.8	-35.5	24.8	0.00e+00	0	41	0	3295674368	42	6071
2026-01-19 04:14:21.28	320.12	14.31	-34.9	-35.7	24.8	0.00e+00	0	41	0	3300917248	42	6193
2026-01-19 04:14:22.29	320.27	14.24	-34.7	-35.5	25.0	0.00e+00	0	41	0	3307208704	42	6045
2026-01-19 04:14:23.30	320.41	14.17	-34.9	-35.5	24.8	0.00e+00	0	41	0	3312451584	42	6058
2026-01-19 04:14:24.31	320.55	14.09	-34.7	-35.3	24.9	0.00e+00	0	41	0	3317694464	42	5931
2026-01-19 04:14:25.32	320.70	14.02	-34.8	-35.4	24.8	0.00e+00	0	41	0	3323985920	42	6003
2026-01-19 04:14:26.33	320.84	13.94	-34.9	-35.7	24.8	0.00e+00	0	41	0	3329228800	42	6199
2026-01-19 04:14:27.34	320.98	13.87	-34.8	-35.5	24.8	0.00e+00	0	41	0	3335520256	42	6055
2026-01-19 04:14:28.35	321.12	13.79	-34.9	-35.7	24.7	0.00e+00	0	41	0	3340763136	42	6223
2026-01-19 04:14:29.36	321.26	13.72	-35.0	-35.7	24.6	0.00e+00	0	41	0	3346006016	42	6239
2026-01-19 04:14:30.37	321.40	13.64	-35.1	-35.8	24.6	0.00e+00	0	41	0	3352297472	42	6288
2026-01-19 04:14:31.38	321.54	13.57	-35.1	-35.9	24.6	0.00e+00	0	41	0	3357540352	42	6331
2026-01-19 04:14:32.39	321.68	13.50	-35.1	-35.9	24.5	0.00e+00	0	41	0	3363831808	42	6344
2026-01-19 04:14:33.40	321.82	13.42	-35.3	-35.9	24.5	0.00e+00	0	41	0	3369074688	42	6372
2026-01-19 04:14:34.40	321.95	13.35	-35.2	-35.8	24.5	0.00e+00	0	41	0	3375366144	42	6283
2026-01-19 04:14:35.41	322.09	13.27	-35.2	-35.9	24.4	0.00e+00	0	41	0	3380609024	42	6341
2026-01-19 04:14:36.43	322.23	13.20	-35.2	-35.8	24.5	0.00e+00	0	41	0	3386900480	42	6288
2026-01-19 04:14:37.44	322.36	13.13	-35.3	-36.1	24.5	0.00e+00	0	41	0	3392143360	42	6482
2026-01-19 04:14:38.45	322.50	13.05	-35.1	-35.8	24.6	0.00e+00	0	41	0	3397386240	42	6265
2026-01-19 04:14:39.46	322.63	12.98	-35.3	-36.1	24.4	0.00e+00	0	41	0	3403677696	42	6499
2026-01-19 04:14:40.47	322.76	12.90	-35.2	-35.8	24.4	0.00e+00	0	41	0	3408920576	42	6300
2026-01-19 04:14:41.48	322.89	12.83	-35.3	-36.1	24.4	0.00e+00	0	41	0	3415212032	42	6466
2026-01-19 04:14:42.49	323.03	12.76	-35.2	-35.9	24.5	0.00e+00	0	41	0	3420454912	42	6319
2026-01-19 04:14:43.50	323.16	12.68	-35.2	-35.8	24.5	0.00e+00	0	41	0	3425697792	42	6309
2026-01-19 04:14:44.51	323.29	12.61	-35.3	-36.0	24.3	0.00e+00	0	41	0	3431989248	42	6430
2026-01-19 04:14:45.52	323.42	12.54	-35.3	-36.0	24.3	0.00e+00	0	41	0	3437232128	42	6395
2026-01-19 04:14:46.53	323.55	12.47	-35.2	-35.8	24.4	0.00e+00	0	41	0	3443523584	42	6315
2026-01-19 04:14:47.54	323.68	12.39	-35.4	-36.2	24.2	0.00e+00	0	41	0	3448766464	42	6556
2026-01-19 04:14:48.55	323.80	12.32	-35.5	-36.2	24.2	0.00e+00	0	41	0	3454009344	42	6608
2026-01-19 04:14:49.56	323.93	12.25	-35.4	-36.0	24.3	0.00e+00	0	41	0	3460300800	42	6421
2026-01-19 04:14:50.57	324.06	12.17	-35.5	-36.2	24.2	0.00e+00	0	41	0	3465543680	42	6612
2026-01-19 04:14:51.58	324.19	12.10	-35.6	-36.4	24.1	0.00e+00	0	41	0	3471835136	42	6708
2026-01-19 04:14:52.60	324.31	12.03	-35.7	-36.4	24.0	0.00e+00	0	41	0	3477078016	42	6693
2026-01-19 04:14:53.61	324.44	11.96	-35.6	-36.4	24.0	0.00e+00	0	41	0	3483369472	44	5974
2026-01-19 04:14:54.62	324.56	11.88	-35.6	-36.3	24.0	0.00e+00	0	41	0	3488612352	44	5906
2026-01-19 04:14:55.63	324.69	11.81	-35.4	-36.1	24.2	0.00e+00	0	41	0	3494903808	44	5792
2026-01-19 04:14:56.64	324.81	11.74	-35.5	-36.1	24.1	0.00e+00	0	41	0	3500146688	44	5814
2026-01-19 04:14:57.64	324.93	11.67	-35.6	-36.2	24.0	0.00e+00	0	41	0	3505389568	44	5863
2026-01-19 04:14:58.65	325.05	11.60	-35.6	-36.2	24.1	0.00e+00	0	41	0	3511681024	44	5870
2026-01-19 04:14:59.66	325.17	11.53	-35.6	-36.4	24.0	0.00e+00	0	41	0	3516923904	44	5965
2026-01-19 04:15:00.67	325.30	11.45	-35.5	-36.3	24.1	0.00e+00	0	41	0	3523215360	44	5937
2026-01-19 04:15:01.68	325.42	11.38	-35.4	-36.1	24.2	0.00e+00	0	41	0	3528458240	44	5820
2026-01-19 04:15:02.69	325.54	11.31	-35.5	-36.1	24.1	0.00e+00	0	41	0	3533701120	44	5809
2026-01-19 04:15:03.70	325.66	11.24	-35.4	-36.1	24.1	0.00e+00	0	41	0	3539992576	44	5779
2026-01-19 04:15:04.70	325.77	11.17	-35.5	-36.2	24.0	0.00e+00	0	41	0	3545235456	44	5835
2026-01-19 04:15:05.71	325.89	11.10	-35.5	-36.2	24.0	0.00e+00	0	41	0	3551526912	44	5885
2026-01-19 04:15:06.72	326.01	11.03	-35.6	-36.4	24.0	0.00e+00	0	41	0	3556769792	44	6027
2026-01-19 04:15:07.73	326.13	10.96	-35.6	-36.4	23.9	0.00e+00	0	41	0	3562012672	44	5995
2026-01-19 04:15:08.74	326.24	10.89	-35.6	-36.2	23.9	0.00e+00	0	41	0	3568304128	44	5891
2026-01-19 04:15:09.75	326.36	10.81	-35.5	-36.1	24.1	0.00e+00	0	41	0	3573547008	44	5820
2026-01-19 04:15:10.76	326.47	10.74	-35.6	-36.4	23.9	0.00e+00	0	41	0	3579838464	44	5983
2026-01-19 04:15:11.78	326.59	10.67	-35.5	-36.3	24.0	0.00e+00	0	41	0	3585081344	44	5932
