passes_logs/2026/01/19/R4.6S_Anadyr/R4.6S_Anadyr__20260119_202817_NOAA_20_JPSS-1_rec.log

#Pass ID: 20260119_202817_NOAA 20 (JPSS-1)
#Satellite: NOAA 20 (JPSS-1)
#Configuration: NOAA 20
#almurnet v.1.7.20251203
#Start time: 2026-01-19 20:28:19

#Version: 2.2.20231116
#Station: R4.6S_Anadyr
#Location: 177.4865 lon 64.73178 lat
#TLE: 1 43013U 17073A   26019.27717929  .00000087  00000+0  62288-4 0  9995
#TLE: 2 43013  98.7641 320.1715 0001339  33.1986 326.9274 14.19537047423343

#Time	Az	El	Level	Level2	SNR	BER	BlckErr	Temp	State	Recorded	gain1	gain2
2026-01-19 20:28:19.68	70.60	0.11	-50.5	-65.3	3.5	1.51e+00	0	39	0	0	60	66621
2026-01-19 20:28:20.69	70.53	0.16	-51.5	-66.7	3.6	1.51e+00	0	40	104	0	60	78480
2026-01-19 20:28:21.70	70.46	0.21	-51.1	-66.3	3.6	1.51e+00	0	40	104	0	60	74979
2026-01-19 20:28:22.71	70.38	0.26	-50.3	-65.5	3.6	1.51e+00	0	40	104	0	60	68292
2026-01-19 20:28:23.72	70.31	0.31	-50.1	-65.3	3.6	1.51e+00	0	40	104	0	60	66728
2026-01-19 20:28:24.73	70.24	0.36	-50.1	-65.3	3.6	1.51e+00	0	40	104	0	60	66324
2026-01-19 20:28:25.75	70.16	0.41	-50.0	-65.2	3.6	1.51e+00	0	40	104	0	60	65863
2026-01-19 20:28:26.76	70.09	0.47	-50.0	-65.1	3.6	1.51e+00	0	40	104	0	60	65207
2026-01-19 20:28:27.77	70.01	0.52	-50.0	-65.2	3.6	1.51e+00	0	40	104	0	60	65638
2026-01-19 20:28:28.78	69.94	0.57	-50.0	-65.2	3.6	1.51e+00	0	40	104	0	60	65448
2026-01-19 20:28:29.79	69.86	0.62	-49.9	-65.1	3.6	1.51e+00	0	40	104	0	60	64868
2026-01-19 20:28:30.80	69.79	0.67	-49.8	-65.1	3.6	1.51e+00	0	40	104	0	60	64673
2026-01-19 20:28:31.81	69.71	0.72	-49.9	-65.0	3.6	1.51e+00	0	40	104	0	60	64479
2026-01-19 20:28:32.82	69.64	0.77	-49.8	-65.0	3.6	1.51e+00	0	40	104	0	60	64533
2026-01-19 20:28:33.83	69.56	0.82	-49.8	-65.0	3.6	1.51e+00	0	40	104	0	60	64144
2026-01-19 20:28:34.84	69.48	0.87	-49.8	-65.0	3.6	1.51e+00	0	40	104	0	60	64205
2026-01-19 20:28:35.84	69.41	0.92	-49.8	-65.0	3.6	1.51e+00	0	40	104	0	60	64121
2026-01-19 20:28:36.85	69.33	0.97	-49.7	-64.9	3.6	1.51e+00	0	41	104	0	60	63697
2026-01-19 20:28:37.86	69.25	1.02	-49.6	-64.8	3.6	1.51e+00	0	40	104	0	60	62871
2026-01-19 20:28:38.87	69.18	1.07	-49.5	-64.8	3.6	1.51e+00	0	40	104	0	60	62696
2026-01-19 20:28:39.88	69.10	1.12	-49.4	-64.7	3.6	1.51e+00	0	41	104	0	60	62075
2026-01-19 20:28:40.89	69.02	1.18	-48.9	-64.5	3.6	1.51e+00	0	41	104	0	60	60836
2026-01-19 20:28:41.90	68.94	1.23	-49.2	-64.4	3.6	1.51e+00	0	41	104	0	60	59833
2026-01-19 20:28:42.91	68.86	1.28	-48.9	-64.1	3.6	1.51e+00	0	41	104	0	60	58018
2026-01-19 20:28:43.92	68.78	1.33	-48.6	-63.7	3.6	1.51e+00	0	41	104	0	60	55179
2026-01-19 20:28:44.93	68.70	1.38	-48.2	-63.4	3.6	1.51e+00	0	41	104	0	60	53233
2026-01-19 20:28:45.94	68.62	1.43	-48.0	-63.1	3.6	1.51e+00	0	40	104	0	60	51755
2026-01-19 20:28:46.95	68.54	1.48	-47.9	-63.1	3.6	1.51e+00	0	41	104	0	60	51573
2026-01-19 20:28:47.96	68.46	1.53	-47.9	-63.1	3.6	1.51e+00	0	41	104	0	60	51509
2026-01-19 20:28:48.97	68.38	1.59	-47.9	-63.1	3.6	1.51e+00	0	41	104	0	60	51612
2026-01-19 20:28:49.98	68.30	1.64	-47.9	-63.1	3.6	1.51e+00	0	41	104	0	60	51817
2026-01-19 20:28:50.99	68.22	1.69	-47.9	-63.1	3.6	1.51e+00	0	41	104	0	60	51803
2026-01-19 20:28:52.00	68.14	1.74	-47.9	-63.1	3.6	1.51e+00	0	41	104	0	60	51918
2026-01-19 20:28:53.01	68.06	1.79	-47.9	-63.1	3.6	1.51e+00	0	41	104	0	60	51726
2026-01-19 20:28:54.02	67.98	1.84	-47.9	-63.0	3.6	1.51e+00	0	41	104	0	60	51158
2026-01-19 20:28:55.03	67.90	1.89	-47.9	-63.1	3.6	1.51e+00	0	41	104	0	60	51648
2026-01-19 20:28:56.04	67.81	1.95	-47.9	-62.9	3.6	1.51e+00	0	41	104	0	60	50719
2026-01-19 20:28:57.05	67.73	2.00	-47.9	-62.9	3.6	1.51e+00	0	41	104	0	60	50397
2026-01-19 20:28:58.06	67.65	2.05	-47.9	-62.8	3.6	1.51e+00	0	41	104	0	60	49706
2026-01-19 20:28:59.07	67.56	2.10	-47.9	-62.8	3.6	1.51e+00	0	41	104	0	60	49716
2026-01-19 20:29:00.09	67.48	2.15	-47.9	-62.9	3.6	1.51e+00	0	41	104	0	60	50404
2026-01-19 20:29:01.09	67.40	2.20	-47.9	-63.0	3.6	1.51e+00	0	41	104	0	60	50777
2026-01-19 20:29:02.10	67.31	2.26	-47.9	-63.1	3.6	1.51e+00	0	41	104	0	60	51642
2026-01-19 20:29:03.11	67.23	2.31	-47.9	-63.2	3.6	1.51e+00	0	41	104	0	60	52119
2026-01-19 20:29:04.12	67.14	2.36	-47.9	-63.1	3.6	1.51e+00	0	41	104	0	60	51433
2026-01-19 20:29:05.13	67.06	2.41	-47.9	-63.1	3.6	1.51e+00	0	41	104	0	60	51410
2026-01-19 20:29:06.14	66.97	2.46	-47.9	-63.1	3.6	1.51e+00	0	41	104	0	60	51878
2026-01-19 20:29:07.15	66.89	2.52	-47.9	-63.1	3.6	1.51e+00	0	41	104	0	60	51674
2026-01-19 20:29:08.15	66.80	2.57	-47.9	-62.9	3.6	1.51e+00	0	41	104	0	60	50477
2026-01-19 20:29:09.16	66.71	2.62	-47.9	-62.7	3.6	1.51e+00	0	41	104	0	60	49183
2026-01-19 20:29:10.18	66.63	2.67	-47.9	-62.0	3.6	1.51e+00	0	41	104	0	60	45252
2026-01-19 20:29:11.19	66.54	2.72	-47.9	-61.9	3.6	1.51e+00	0	41	104	0	60	45202
2026-01-19 20:29:12.20	66.45	2.78	-47.9	-62.6	3.6	1.51e+00	0	41	104	0	60	48970
2026-01-19 20:29:13.21	66.36	2.83	-47.9	-62.6	3.6	1.51e+00	0	41	104	0	60	48967
2026-01-19 20:29:14.22	66.28	2.88	-47.8	-60.1	3.7	1.50e+00	0	41	104	0	60	36393
2026-01-19 20:29:15.23	66.19	2.93	-47.6	-57.8	4.7	1.22e+00	92	41	104	0	60	28057
2026-01-19 20:29:16.24	66.10	2.99	-47.5	-55.6	5.9	7.65e-01	92	41	0	1048576	60	21764
2026-01-19 20:29:17.25	66.01	3.04	-46.6	-51.8	10.2	5.47e-02	92	41	0	3145728	60	14025
2026-01-19 20:29:18.26	65.92	3.09	-48.1	-61.5	3.6	8.06e-01	0	41	104	4194304	60	42886
2026-01-19 20:29:19.27	65.83	3.14	-45.7	-49.7	12.7	1.48e+00	50	41	104	4194304	60	11000
2026-01-19 20:29:20.28	65.74	3.20	-47.9	-62.7	3.6	1.51e+00	0	41	104	4194304	60	49323
2026-01-19 20:29:21.29	65.65	3.25	-47.8	-58.5	4.2	1.51e+00	0	41	104	4194304	60	30317
2026-01-19 20:29:22.30	65.56	3.30	-45.7	-49.9	12.6	4.25e-01	91	41	104	4194304	60	11307
2026-01-19 20:29:23.31	65.47	3.35	-45.7	-49.6	12.5	2.59e-05	91	41	0	5242880	60	10966
2026-01-19 20:29:24.32	65.38	3.41	-45.4	-48.9	13.1	4.70e-04	47	41	0	7340032	60	10093
2026-01-19 20:29:25.33	65.28	3.46	-44.3	-47.0	15.8	5.49e-05	92	41	0	9437184	60	8068
2026-01-19 20:29:26.33	65.19	3.51	-43.1	-45.1	17.1	0.00e+00	5	41	0	11534336	60	6488
2026-01-19 20:29:27.34	65.10	3.56	-43.8	-46.1	16.5	0.00e+00	92	41	0	12582912	60	7276
2026-01-19 20:29:28.35	65.01	3.62	-43.0	-44.9	17.5	0.00e+00	0	41	0	14680064	60	6385
2026-01-19 20:29:29.36	64.91	3.67	-43.3	-45.4	17.0	0.00e+00	92	41	0	16777216	60	6724
2026-01-19 20:29:30.37	64.82	3.72	-44.1	-46.6	16.5	0.00e+00	92	41	0	18874368	60	7687
2026-01-19 20:29:31.38	64.73	3.77	-41.8	-43.4	18.7	0.00e+00	36	41	0	20971520	56	6737
2026-01-19 20:29:32.39	64.63	3.83	-45.8	-49.6	12.6	0.00e+00	92	41	0	22020096	60	10926
2026-01-19 20:29:33.40	64.54	3.88	-45.9	-49.9	12.3	2.51e-04	60	41	0	24117248	60	11259
2026-01-19 20:29:34.41	64.44	3.93	-46.5	-51.3	10.8	2.04e-03	92	41	0	26214400	60	13263
2026-01-19 20:29:35.42	64.35	3.99	-44.3	-46.9	15.5	5.32e-04	25	41	0	28311552	60	7984
2026-01-19 20:29:36.43	64.25	4.04	-44.5	-47.2	15.2	0.00e+00	92	41	0	30408704	60	8301
2026-01-19 20:29:37.44	64.16	4.09	-42.7	-44.5	18.2	7.00e-07	91	41	0	31457280	60	6085
2026-01-19 20:29:38.45	64.06	4.14	-43.4	-45.5	16.9	0.00e+00	92	41	0	33554432	58	7611
2026-01-19 20:29:39.46	63.96	4.20	-44.7	-47.5	14.6	0.00e+00	92	41	0	35651584	60	8548
2026-01-19 20:29:40.47	63.87	4.25	-45.1	-48.1	14.3	6.80e-06	63	42	0	37748736	60	9219
2026-01-19 20:29:41.48	63.77	4.30	-44.7	-47.5	15.3	9.10e-06	92	41	0	39845888	60	8530
2026-01-19 20:29:42.49	63.67	4.36	-43.6	-45.8	16.8	0.00e+00	8	41	0	40894464	60	7074
2026-01-19 20:29:43.50	63.57	4.41	-45.2	-48.4	14.1	0.00e+00	90	41	0	42991616	60	9471
2026-01-19 20:29:44.51	63.48	4.46	-45.0	-48.0	14.7	0.00e+00	0	41	0	45088768	60	9115
2026-01-19 20:29:45.52	63.38	4.52	-44.8	-47.6	15.1	7.00e-07	90	41	0	47185920	60	8705
2026-01-19 20:29:46.53	63.28	4.57	-44.1	-46.5	15.8	0.00e+00	92	41	0	49283072	60	7677
2026-01-19 20:29:47.54	63.18	4.62	-44.6	-47.3	15.1	0.00e+00	1	41	0	51380224	60	8350
2026-01-19 20:29:48.55	63.08	4.68	-44.6	-47.4	15.2	4.50e-06	92	41	0	52428800	60	8468
2026-01-19 20:29:49.56	62.98	4.73	-44.4	-47.1	15.2	0.00e+00	30	41	0	54525952	60	8150
2026-01-19 20:29:50.57	62.88	4.78	-45.0	-48.1	14.3	0.00e+00	92	41	0	56623104	60	9181
2026-01-19 20:29:51.58	62.78	4.84	-44.8	-47.7	14.7	2.20e-06	0	41	0	58720256	60	8775
2026-01-19 20:29:52.59	62.67	4.89	-44.3	-46.9	15.6	1.50e-06	92	41	0	60817408	60	8002
2026-01-19 20:29:53.60	62.57	4.94	-44.2	-46.7	16.0	0.00e+00	92	41	0	61865984	60	7775
2026-01-19 20:29:54.61	62.47	5.00	-43.9	-46.3	16.2	0.00e+00	32	41	0	63963136	60	7425
2026-01-19 20:29:55.61	62.37	5.05	-44.0	-46.4	16.4	0.00e+00	92	41	0	66060288	60	7551
2026-01-19 20:29:56.62	62.27	5.10	-43.8	-46.1	16.3	0.00e+00	55	42	0	68157440	60	7279
2026-01-19 20:29:57.63	62.16	5.16	-44.0	-46.3	16.2	0.00e+00	92	41	0	70254592	60	7496
2026-01-19 20:29:58.64	62.06	5.21	-43.8	-46.0	16.8	0.00e+00	55	41	0	71303168	60	7184
2026-01-19 20:29:59.65	61.95	5.26	-43.9	-46.1	16.7	0.00e+00	92	42	0	73400320	60	7333
2026-01-19 20:30:00.66	61.85	5.32	-43.9	-46.2	16.5	0.00e+00	86	41	0	75497472	60	7362
2026-01-19 20:30:01.67	61.75	5.37	-43.4	-45.4	17.1	0.00e+00	90	42	0	77594624	60	6740
2026-01-19 20:30:02.68	61.64	5.42	-43.6	-45.7	17.1	0.00e+00	92	41	0	79691776	60	6953
2026-01-19 20:30:03.69	61.53	5.48	-43.2	-45.2	17.5	0.00e+00	56	41	0	80740352	60	6582
2026-01-19 20:30:04.70	61.43	5.53	-43.6	-45.7	16.9	0.00e+00	91	41	0	82837504	60	6983
2026-01-19 20:30:05.71	61.32	5.59	-43.4	-45.4	17.6	0.00e+00	0	41	0	84934656	60	6763
2026-01-19 20:30:06.72	61.21	5.64	-42.7	-44.5	18.1	0.00e+00	92	41	0	87031808	58	6821
2026-01-19 20:30:07.73	61.11	5.69	-43.5	-45.5	17.0	0.00e+00	17	41	0	89128960	58	7645
2026-01-19 20:30:08.74	61.00	5.75	-43.0	-44.9	17.7	0.00e+00	92	41	0	90177536	58	7151
2026-01-19 20:30:09.75	60.89	5.80	-43.1	-45.1	17.6	0.00e+00	92	41	0	92274688	58	7276
2026-01-19 20:30:10.76	60.78	5.85	-42.9	-44.7	18.0	0.00e+00	1	41	0	94371840	58	6960
2026-01-19 20:30:11.77	60.67	5.91	-42.9	-44.7	17.9	0.00e+00	92	42	0	96468992	58	6953
2026-01-19 20:30:12.77	60.56	5.96	-42.8	-44.6	18.0	0.00e+00	27	41	0	98566144	58	6865
2026-01-19 20:30:13.78	60.46	6.01	-42.8	-44.5	18.2	0.00e+00	92	41	0	99614720	58	6809
2026-01-19 20:30:14.79	60.34	6.07	-41.9	-43.4	19.2	0.00e+00	0	41	0	101711872	56	6745
2026-01-19 20:30:15.80	60.23	6.12	-43.4	-45.4	17.3	0.00e+00	92	41	0	103809024	58	7526
2026-01-19 20:30:16.81	60.12	6.18	-42.9	-44.8	18.2	0.00e+00	90	41	0	105906176	58	7027
2026-01-19 20:30:17.82	60.01	6.23	-42.9	-44.7	17.8	0.00e+00	28	42	0	108003328	58	6933
2026-01-19 20:30:18.83	59.90	6.28	-42.8	-44.6	18.1	0.00e+00	92	42	0	109051904	58	6898
2026-01-19 20:30:19.84	59.79	6.34	-42.7	-44.4	18.2	0.00e+00	32	42	0	111149056	58	6735
2026-01-19 20:30:20.85	59.67	6.39	-42.7	-44.4	18.3	0.00e+00	92	42	0	113246208	58	6767
2026-01-19 20:30:21.86	59.56	6.44	-43.5	-45.5	17.2	0.00e+00	49	42	0	115343360	58	7637
2026-01-19 20:30:22.87	59.45	6.50	-42.8	-44.5	18.2	0.00e+00	90	41	0	117440512	58	6818
2026-01-19 20:30:23.88	59.33	6.55	-43.0	-44.8	17.9	0.00e+00	91	42	0	119537664	58	7066
2026-01-19 20:30:24.89	59.22	6.61	-43.0	-44.9	17.9	0.00e+00	91	42	0	120586240	58	7106
2026-01-19 20:30:25.90	59.10	6.66	-42.0	-43.5	19.1	0.00e+00	92	41	0	122683392	58	6056
2026-01-19 20:30:26.91	58.99	6.71	-43.0	-44.9	17.9	0.00e+00	0	41	0	124780544	58	7091
2026-01-19 20:30:27.91	58.87	6.77	-42.5	-44.2	18.6	0.00e+00	90	42	0	126877696	58	6571
2026-01-19 20:30:28.92	58.76	6.82	-42.9	-44.7	18.0	0.00e+00	0	42	0	128974848	58	6945
2026-01-19 20:30:29.93	58.64	6.87	-43.0	-44.8	17.8	0.00e+00	92	42	0	130023424	58	7038
2026-01-19 20:30:30.94	58.52	6.93	-42.7	-44.4	18.3	0.00e+00	0	41	0	132120576	58	6747
2026-01-19 20:30:31.95	58.41	6.98	-42.1	-43.7	18.9	0.00e+00	92	41	0	134217728	58	6201
2026-01-19 20:30:32.96	58.29	7.04	-42.6	-44.3	18.5	0.00e+00	90	42	0	136314880	58	6664
2026-01-19 20:30:33.97	58.17	7.09	-42.5	-44.1	18.6	0.00e+00	0	42	0	138412032	58	6534
2026-01-19 20:30:34.98	58.05	7.14	-42.0	-43.6	19.3	0.00e+00	92	41	0	139460608	58	6113
2026-01-19 20:30:35.99	57.93	7.20	-42.1	-43.7	19.2	0.00e+00	32	42	0	141557760	58	6183
2026-01-19 20:30:37.00	57.81	7.25	-42.3	-43.9	18.8	0.00e+00	92	41	0	143654912	58	6363
2026-01-19 20:30:38.01	57.69	7.31	-42.0	-43.5	19.3	0.00e+00	12	41	0	145752064	58	6065
2026-01-19 20:30:39.02	57.57	7.36	-42.3	-43.9	19.0	0.00e+00	91	42	0	147849216	58	6327
2026-01-19 20:30:40.03	57.45	7.41	-42.2	-43.7	19.0	0.00e+00	65	42	0	148897792	58	6227
2026-01-19 20:30:41.04	57.33	7.47	-42.0	-43.5	19.3	0.00e+00	92	42	0	150994944	58	6094
2026-01-19 20:30:42.05	57.21	7.52	-42.3	-43.9	19.0	0.00e+00	92	42	0	153092096	58	6320
2026-01-19 20:30:43.06	57.08	7.57	-42.4	-44.1	18.7	0.00e+00	7	42	0	155189248	58	6467
2026-01-19 20:30:44.07	56.96	7.63	-42.5	-44.1	18.7	0.00e+00	92	42	0	157286400	58	6499
2026-01-19 20:30:45.08	56.84	7.68	-42.1	-43.6	19.2	0.00e+00	8	42	0	158334976	58	6164
2026-01-19 20:30:46.08	56.71	7.73	-42.6	-44.3	18.5	0.00e+00	92	42	0	160432128	58	6663
2026-01-19 20:30:47.10	56.59	7.79	-42.3	-43.9	18.8	0.00e+00	90	42	0	162529280	58	6349
2026-01-19 20:30:48.10	56.46	7.84	-42.2	-43.8	19.1	0.00e+00	50	42	0	164626432	58	6288
2026-01-19 20:30:49.11	56.34	7.90	-42.0	-43.6	19.2	0.00e+00	92	42	0	166723584	58	6120
2026-01-19 20:30:50.12	56.21	7.95	-42.5	-44.2	18.9	0.00e+00	0	42	0	167772160	58	6568
2026-01-19 20:30:51.13	56.09	8.00	-42.3	-43.9	19.0	0.00e+00	90	42	0	169869312	58	6388
2026-01-19 20:30:52.14	55.96	8.06	-42.0	-43.5	19.3	0.00e+00	0	42	0	171966464	58	6090
2026-01-19 20:30:53.15	55.83	8.11	-42.1	-43.6	19.1	0.00e+00	92	42	0	174063616	58	6153
2026-01-19 20:30:54.16	55.71	8.16	-42.2	-43.8	19.2	0.00e+00	0	42	0	176160768	58	6247
2026-01-19 20:30:55.17	55.58	8.22	-42.5	-44.1	18.8	0.00e+00	92	42	0	177209344	58	6512
2026-01-19 20:30:56.18	55.45	8.27	-42.1	-43.6	19.3	0.00e+00	92	42	0	179306496	58	6132
2026-01-19 20:30:57.19	55.32	8.32	-41.9	-43.4	19.4	0.00e+00	0	42	0	181403648	58	5977
2026-01-19 20:30:58.20	55.19	8.38	-42.3	-43.9	19.0	0.00e+00	92	42	0	183500800	58	6338
2026-01-19 20:30:59.21	55.06	8.43	-42.3	-43.9	19.0	0.00e+00	0	42	0	185597952	58	6347
2026-01-19 20:31:00.21	54.93	8.48	-42.0	-43.5	19.4	0.00e+00	92	41	0	187695104	58	6067
2026-01-19 20:31:01.22	54.80	8.54	-42.0	-43.5	19.3	0.00e+00	50	42	0	188743680	58	6103
2026-01-19 20:31:02.23	54.67	8.59	-42.0	-43.5	19.3	0.00e+00	92	41	0	190840832	58	6072
2026-01-19 20:31:03.24	54.54	8.64	-42.1	-43.6	19.3	0.00e+00	75	42	0	192937984	58	6127
2026-01-19 20:31:04.25	54.40	8.70	-42.1	-43.6	19.0	0.00e+00	47	42	0	195035136	58	6151
2026-01-19 20:31:05.26	54.27	8.75	-42.2	-43.8	19.2	0.00e+00	92	42	0	197132288	58	6259
2026-01-19 20:31:06.27	54.14	8.80	-41.8	-43.3	19.5	0.00e+00	0	42	0	198180864	58	5924
2026-01-19 20:31:07.28	54.00	8.86	-42.6	-44.2	18.8	0.00e+00	91	42	0	200278016	58	6570
2026-01-19 20:31:08.29	53.87	8.91	-42.2	-43.8	19.1	0.00e+00	48	42	0	202375168	58	6250
2026-01-19 20:31:09.30	53.73	8.96	-42.1	-43.7	19.3	0.00e+00	92	42	0	204472320	58	6187
2026-01-19 20:31:10.31	53.60	9.02	-41.9	-43.4	19.5	0.00e+00	92	42	0	206569472	58	6005
2026-01-19 20:31:11.32	53.46	9.07	-42.0	-43.4	19.6	0.00e+00	0	42	0	207618048	58	6024
2026-01-19 20:31:12.33	53.32	9.12	-42.0	-43.5	19.4	0.00e+00	92	42	0	209715200	58	6050
2026-01-19 20:31:13.34	53.19	9.18	-42.2	-43.7	19.3	0.00e+00	0	42	0	211812352	58	6242
2026-01-19 20:31:14.35	53.05	9.23	-42.0	-43.5	19.4	0.00e+00	92	42	0	213909504	58	6073
2026-01-19 20:31:15.36	52.91	9.28	-42.1	-43.6	19.3	0.00e+00	0	42	0	216006656	58	6107
2026-01-19 20:31:16.36	52.77	9.33	-41.9	-43.3	19.6	0.00e+00	90	42	0	217055232	58	5935
2026-01-19 20:31:17.37	52.63	9.39	-41.9	-43.4	19.6	0.00e+00	0	41	0	219152384	58	5965
2026-01-19 20:31:18.38	52.49	9.44	-41.9	-43.3	19.6	0.00e+00	92	42	0	221249536	58	5954
2026-01-19 20:31:19.39	52.35	9.49	-41.7	-43.1	19.9	0.00e+00	92	42	0	223346688	56	6523
2026-01-19 20:31:20.40	52.21	9.54	-42.0	-43.4	19.7	0.00e+00	47	42	0	225443840	56	6768
2026-01-19 20:31:21.41	52.07	9.60	-41.9	-43.3	19.8	0.00e+00	90	42	0	226492416	56	6664
2026-01-19 20:31:22.42	51.93	9.65	-41.8	-43.2	19.9	0.00e+00	0	41	0	228589568	56	6593
2026-01-19 20:31:23.43	51.79	9.70	-41.8	-43.2	19.7	0.00e+00	92	42	0	230686720	56	6610
2026-01-19 20:31:24.44	51.65	9.75	-41.9	-43.3	19.7	0.00e+00	50	42	0	232783872	56	6668
2026-01-19 20:31:25.45	51.50	9.81	-41.8	-43.2	19.8	0.00e+00	92	42	0	234881024	56	6605
2026-01-19 20:31:26.46	51.36	9.86	-41.8	-43.2	19.9	0.00e+00	90	42	0	235929600	56	6570
2026-01-19 20:31:27.47	51.21	9.91	-42.0	-43.4	19.8	0.00e+00	48	42	0	238026752	56	6727
2026-01-19 20:31:28.48	51.07	9.96	-41.7	-43.0	20.1	0.00e+00	92	41	0	240123904	56	6435
2026-01-19 20:31:29.49	50.92	10.01	-41.8	-43.2	19.9	0.00e+00	48	42	0	242221056	56	6587
2026-01-19 20:31:30.50	50.78	10.07	-41.8	-43.2	19.9	0.00e+00	92	41	0	244318208	56	6565
2026-01-19 20:31:31.51	50.63	10.12	-41.8	-43.2	19.9	0.00e+00	5	42	0	245366784	56	6552
2026-01-19 20:31:32.52	50.48	10.17	-41.7	-43.1	20.0	0.00e+00	92	42	0	247463936	56	6504
2026-01-19 20:31:33.53	50.34	10.22	-42.1	-43.6	19.6	0.00e+00	0	42	0	249561088	56	6877
2026-01-19 20:31:34.54	50.19	10.27	-42.0	-43.4	19.8	0.00e+00	0	41	0	251658240	56	6702
2026-01-19 20:31:35.55	50.04	10.33	-41.9	-43.3	19.9	0.00e+00	92	42	0	253755392	56	6659
2026-01-19 20:31:36.56	49.89	10.38	-41.9	-43.4	19.8	0.00e+00	35	42	0	255852544	56	6696
2026-01-19 20:31:37.57	49.74	10.43	-41.8	-43.1	20.0	0.00e+00	92	41	0	256901120	56	6520
2026-01-19 20:31:38.58	49.59	10.48	-41.8	-43.2	20.1	0.00e+00	35	42	0	258998272	56	6540
2026-01-19 20:31:39.59	49.44	10.53	-41.0	-42.2	20.9	0.00e+00	92	42	0	261095424	56	5888
2026-01-19 20:31:40.60	49.29	10.58	-41.2	-42.4	20.6	0.00e+00	0	42	0	263192576	56	6023
2026-01-19 20:31:41.61	49.14	10.63	-41.8	-43.2	19.8	0.00e+00	83	42	0	265289728	56	6552
2026-01-19 20:31:42.62	48.99	10.68	-41.7	-43.1	20.2	0.00e+00	92	42	0	266338304	56	6468
2026-01-19 20:31:43.63	48.83	10.73	-41.5	-42.8	20.3	0.00e+00	54	42	0	268435456	56	6248
2026-01-19 20:31:44.64	48.68	10.79	-41.5	-42.8	20.3	0.00e+00	92	42	0	270532608	56	6309
2026-01-19 20:31:45.65	48.53	10.84	-41.3	-42.6	20.5	0.00e+00	5	42	0	272629760	56	6152
2026-01-19 20:31:46.65	48.37	10.89	-41.3	-42.5	20.7	0.00e+00	91	42	0	274726912	56	6101
2026-01-19 20:31:47.66	48.22	10.94	-41.1	-42.3	20.8	0.00e+00	0	42	0	275775488	56	5950
2026-01-19 20:31:48.67	48.06	10.99	-40.9	-42.1	21.0	0.00e+00	83	41	0	277872640	56	5807
2026-01-19 20:31:49.69	47.90	11.04	-41.0	-42.2	21.1	0.00e+00	89	42	0	279969792	56	5840
2026-01-19 20:31:50.69	47.75	11.09	-41.2	-42.4	20.6	0.00e+00	52	42	0	282066944	56	6027
2026-01-19 20:31:51.70	47.59	11.14	-41.0	-42.3	20.9	0.00e+00	91	42	0	284164096	56	5915
2026-01-19 20:31:52.72	47.43	11.19	-41.1	-42.3	20.9	0.00e+00	6	41	0	285212672	56	5931
2026-01-19 20:31:53.73	47.27	11.24	-40.7	-41.8	21.2	0.00e+00	90	42	0	287309824	56	5629
2026-01-19 20:31:54.73	47.12	11.29	-40.6	-41.8	21.2	0.00e+00	7	42	0	289406976	54	6256
2026-01-19 20:31:55.74	46.96	11.34	-40.3	-41.4	21.7	0.00e+00	85	42	0	291504128	54	6022
2026-01-19 20:31:56.75	46.80	11.39	-40.4	-41.5	21.5	0.00e+00	68	42	0	293601280	54	6061
2026-01-19 20:31:57.75	46.64	11.44	-40.4	-41.5	21.6	0.00e+00	34	42	0	294649856	54	6048
2026-01-19 20:31:58.76	46.48	11.48	-40.3	-41.4	21.7	0.00e+00	91	41	0	296747008	54	5977
2026-01-19 20:31:59.77	46.32	11.53	-40.1	-41.1	21.8	0.00e+00	0	42	0	298844160	54	5818
2026-01-19 20:32:00.78	46.15	11.58	-40.0	-41.1	21.9	0.00e+00	91	42	0	300941312	54	5808
2026-01-19 20:32:01.79	45.99	11.63	-40.2	-41.3	21.7	0.00e+00	0	42	0	303038464	54	5904
2026-01-19 20:32:02.80	45.83	11.68	-40.2	-41.3	21.9	0.00e+00	90	42	0	304087040	54	5952
2026-01-19 20:32:03.81	45.66	11.73	-40.4	-41.5	21.7	0.00e+00	25	42	0	306184192	54	6072
2026-01-19 20:32:04.82	45.50	11.78	-40.3	-41.4	21.6	0.00e+00	50	42	0	308281344	54	5997
2026-01-19 20:32:05.83	45.34	11.83	-40.3	-41.5	21.6	0.00e+00	92	42	0	310378496	54	6044
2026-01-19 20:32:06.84	45.17	11.87	-40.3	-41.4	21.6	0.00e+00	47	42	0	312475648	54	6002
2026-01-19 20:32:07.85	45.00	11.92	-40.5	-41.7	21.4	0.00e+00	92	42	0	313524224	54	6185
2026-01-19 20:32:08.86	44.84	11.97	-40.4	-41.5	21.7	0.00e+00	46	41	0	315621376	54	6099
2026-01-19 20:32:09.87	44.67	12.02	-40.2	-41.3	21.8	0.00e+00	92	42	0	317718528	54	5922
2026-01-19 20:32:10.88	44.50	12.07	-40.0	-41.1	22.0	0.00e+00	2	42	0	319815680	54	5791
2026-01-19 20:32:11.89	44.33	12.11	-39.9	-41.0	22.1	0.00e+00	44	42	0	321912832	54	5722
2026-01-19 20:32:12.90	44.17	12.16	-39.9	-41.0	22.1	0.00e+00	82	42	0	324009984	54	5728
2026-01-19 20:32:13.91	44.00	12.21	-40.1	-41.2	22.0	0.00e+00	0	42	0	325058560	54	5833
2026-01-19 20:32:14.92	43.83	12.25	-39.9	-41.0	22.1	0.00e+00	92	42	0	327155712	54	5741
2026-01-19 20:32:15.92	43.66	12.30	-39.7	-40.7	22.4	0.00e+00	2	41	0	329252864	52	6235
2026-01-19 20:32:16.94	43.49	12.35	-39.9	-41.0	22.1	0.00e+00	90	41	0	331350016	52	6428
2026-01-19 20:32:17.95	43.31	12.39	-39.5	-40.5	22.6	0.00e+00	0	42	0	332398592	52	6088
2026-01-19 20:32:18.96	43.14	12.44	-39.6	-40.7	22.5	0.00e+00	54	42	0	334495744	52	6201
2026-01-19 20:32:19.97	42.97	12.49	-39.8	-40.8	22.3	0.00e+00	46	42	0	336592896	52	6283
2026-01-19 20:32:20.98	42.80	12.53	-39.6	-40.7	22.4	0.00e+00	0	42	0	338690048	52	6176
2026-01-19 20:32:21.99	42.62	12.58	-39.4	-40.3	22.8	0.00e+00	92	42	0	340787200	52	5961
2026-01-19 20:32:23.00	42.45	12.63	-39.4	-40.4	22.5	0.00e+00	49	42	0	342884352	52	6003
2026-01-19 20:32:24.01	42.27	12.67	-39.6	-40.6	22.5	0.00e+00	92	42	0	343932928	52	6116
2026-01-19 20:32:25.02	42.10	12.72	-39.4	-40.4	22.6	0.00e+00	32	42	0	346030080	52	5969
2026-01-19 20:32:26.03	41.92	12.76	-39.4	-40.4	22.7	0.00e+00	92	42	0	348127232	52	6008
2026-01-19 20:32:27.04	41.75	12.81	-39.3	-40.2	22.8	0.00e+00	3	42	0	350224384	52	5875
2026-01-19 20:32:28.05	41.57	12.85	-39.4	-40.3	22.8	0.00e+00	50	42	0	352321536	52	5955
2026-01-19 20:32:29.06	41.39	12.90	-39.3	-40.3	23.0	0.00e+00	92	41	0	353370112	52	5962
2026-01-19 20:32:30.07	41.21	12.94	-39.4	-40.4	22.6	0.00e+00	44	41	0	355467264	52	6021
2026-01-19 20:32:31.08	41.04	12.98	-39.4	-40.4	22.7	0.00e+00	92	42	0	357564416	52	5978
2026-01-19 20:32:32.09	40.86	13.03	-39.4	-40.4	22.7	0.00e+00	0	42	0	359661568	52	5982
2026-01-19 20:32:33.10	40.68	13.07	-39.5	-40.4	22.7	0.00e+00	92	41	0	361758720	52	6032
2026-01-19 20:32:34.11	40.50	13.12	-39.6	-40.6	22.7	0.00e+00	0	42	0	362807296	52	6122
2026-01-19 20:32:35.12	40.32	13.16	-39.7	-40.8	22.4	0.00e+00	0	41	0	364904448	52	6258
2026-01-19 20:32:36.13	40.13	13.20	-39.7	-40.7	22.4	0.00e+00	92	41	0	367001600	52	6199
2026-01-19 20:32:37.14	39.95	13.25	-40.0	-41.0	22.2	0.00e+00	2	41	0	369098752	52	6453
2026-01-19 20:32:38.15	39.77	13.29	-39.8	-40.8	22.4	0.00e+00	91	42	0	371195904	52	6290
2026-01-19 20:32:39.16	39.59	13.33	-39.8	-40.8	22.3	0.00e+00	0	41	0	372244480	52	6279
2026-01-19 20:32:40.17	39.40	13.37	-39.7	-40.8	22.4	0.00e+00	92	41	0	374341632	52	6264
2026-01-19 20:32:41.17	39.22	13.41	-39.7	-40.7	22.5	0.00e+00	37	41	0	376438784	52	6194
2026-01-19 20:32:42.19	39.04	13.46	-39.9	-40.9	22.3	0.00e+00	90	41	0	378535936	52	6351
2026-01-19 20:32:43.20	38.85	13.50	-39.8	-40.8	22.3	0.00e+00	0	41	0	380633088	52	6273
2026-01-19 20:32:44.20	38.67	13.54	-39.8	-40.8	22.4	0.00e+00	45	41	0	381681664	52	6280
2026-01-19 20:32:45.21	38.48	13.58	-39.7	-40.7	22.4	0.00e+00	90	41	0	383778816	52	6207
2026-01-19 20:32:46.22	38.29	13.62	-39.7	-40.8	22.3	0.00e+00	36	41	0	385875968	52	6261
2026-01-19 20:32:47.23	38.11	13.66	-39.8	-40.8	22.4	0.00e+00	92	41	0	387973120	52	6307
2026-01-19 20:32:48.24	37.92	13.70	-39.8	-40.9	22.3	0.00e+00	44	41	0	390070272	52	6318
2026-01-19 20:32:49.25	37.73	13.74	-39.6	-40.7	22.4	0.00e+00	92	42	0	392167424	52	6185
2026-01-19 20:32:50.26	37.54	13.78	-39.7	-40.7	22.4	0.00e+00	0	41	0	393216000	52	6220
2026-01-19 20:32:51.27	37.35	13.82	-39.7	-40.8	22.4	0.00e+00	0	41	0	395313152	52	6256
2026-01-19 20:32:52.28	37.16	13.86	-39.6	-40.7	22.5	0.00e+00	90	41	0	397410304	52	6178
2026-01-19 20:32:53.29	36.97	13.90	-39.7	-40.7	22.2	0.00e+00	47	42	0	399507456	52	6191
2026-01-19 20:32:54.30	36.78	13.94	-39.5	-40.6	22.5	0.00e+00	79	41	0	401604608	52	6109
2026-01-19 20:32:55.31	36.59	13.98	-39.4	-40.4	22.7	0.00e+00	0	41	0	402653184	52	6014
2026-01-19 20:32:56.32	36.40	14.02	-39.6	-40.5	22.6	0.00e+00	0	41	0	404750336	52	6098
2026-01-19 20:32:57.33	36.21	14.06	-39.6	-40.6	22.6	0.00e+00	0	41	0	406847488	52	6105
2026-01-19 20:32:58.34	36.02	14.09	-39.4	-40.4	22.8	0.00e+00	2	41	0	408944640	52	6003
2026-01-19 20:32:59.35	35.82	14.13	-39.5	-40.5	22.6	0.00e+00	92	41	0	411041792	52	6089
2026-01-19 20:33:00.36	35.63	14.17	-39.6	-40.5	22.6	0.00e+00	34	41	0	412090368	52	6101
2026-01-19 20:33:01.37	35.43	14.21	-39.3	-40.3	22.9	0.00e+00	95	41	0	414187520	52	5898
2026-01-19 20:33:02.38	35.24	14.24	-39.5	-40.4	22.8	0.00e+00	0	41	0	416284672	52	6022
2026-01-19 20:33:03.39	35.05	14.28	-39.5	-40.5	22.7	0.00e+00	66	42	0	418381824	52	6055
2026-01-19 20:33:04.40	34.85	14.32	-39.5	-40.4	22.7	0.00e+00	34	41	0	420478976	52	6019
2026-01-19 20:33:05.41	34.65	14.35	-39.4	-40.3	22.8	0.00e+00	34	41	0	421527552	52	5943
2026-01-19 20:33:06.42	34.46	14.39	-39.3	-40.2	22.8	0.00e+00	90	41	0	423624704	52	5890
2026-01-19 20:33:07.43	34.26	14.42	-39.2	-40.2	22.1	0.00e+00	0	41	0	425721856	52	5845
2026-01-19 20:33:08.44	34.06	14.46	-39.2	-40.2	22.9	0.00e+00	90	41	0	427819008	52	5871
2026-01-19 20:33:09.45	33.86	14.50	-39.4	-40.3	22.9	0.00e+00	46	42	0	429916160	52	5949
2026-01-19 20:33:10.46	33.67	14.53	-39.4	-40.4	22.8	0.00e+00	90	41	0	430964736	52	6007
2026-01-19 20:33:11.47	33.47	14.56	-39.4	-40.4	22.8	0.00e+00	5	41	0	433061888	52	5995
2026-01-19 20:33:12.48	33.27	14.60	-39.2	-40.1	23.0	0.00e+00	5	41	0	435159040	52	5821
2026-01-19 20:33:13.49	33.07	14.63	-39.2	-40.1	23.0	0.00e+00	56	42	0	437256192	52	5813
2026-01-19 20:33:14.50	32.87	14.67	-39.1	-40.1	23.1	0.00e+00	6	41	0	439353344	52	5774
2026-01-19 20:33:15.52	32.66	14.70	-39.0	-40.0	23.2	0.00e+00	92	41	0	440401920	52	5706
2026-01-19 20:33:16.53	32.46	14.73	-39.1	-40.1	23.1	0.00e+00	7	41	0	442499072	52	5782
2026-01-19 20:33:17.53	32.26	14.76	-39.3	-40.2	23.0	0.00e+00	92	41	0	444596224	52	5886
2026-01-19 20:33:18.55	32.06	14.80	-39.4	-40.4	22.8	0.00e+00	0	41	0	446693376	52	6002
2026-01-19 20:33:19.55	31.86	14.83	-39.2	-40.1	23.1	0.00e+00	35	41	0	448790528	52	5800
2026-01-19 20:33:20.56	31.66	14.86	-39.1	-40.1	22.9	0.00e+00	0	41	0	449839104	52	5786
2026-01-19 20:33:21.57	31.45	14.89	-39.1	-40.1	23.1	0.00e+00	5	41	0	451936256	52	5794
2026-01-19 20:33:22.58	31.25	14.92	-39.3	-40.3	22.9	0.00e+00	92	41	0	454033408	52	5935
2026-01-19 20:33:23.59	31.04	14.95	-39.5	-40.5	22.7	0.00e+00	32	41	0	456130560	52	6047
2026-01-19 20:33:24.60	30.84	14.98	-39.6	-40.6	22.5	0.00e+00	92	41	0	458227712	52	6155
2026-01-19 20:33:25.61	30.63	15.01	-39.3	-40.2	23.1	0.00e+00	35	41	0	460324864	52	5888
2026-01-19 20:33:26.62	30.43	15.04	-39.1	-40.1	23.0	0.00e+00	53	41	0	461373440	52	5789
2026-01-19 20:33:27.63	30.22	15.07	-39.2	-40.2	23.0	0.00e+00	33	41	0	463470592	52	5852
2026-01-19 20:33:28.64	30.02	15.10	-39.4	-40.4	22.8	0.00e+00	35	41	0	465567744	52	6012
2026-01-19 20:33:29.65	29.81	15.13	-39.4	-40.3	22.9	0.00e+00	8	41	0	467664896	52	5950
2026-01-19 20:33:30.66	29.60	15.16	-39.4	-40.3	22.8	0.00e+00	6	41	0	469762048	52	5949
2026-01-19 20:33:31.67	29.39	15.19	-39.6	-40.6	22.6	0.00e+00	91	41	0	470810624	52	6150
2026-01-19 20:33:32.68	29.19	15.21	-39.6	-40.6	22.4	0.00e+00	52	41	0	472907776	52	6150
2026-01-19 20:33:33.69	28.98	15.24	-39.7	-40.7	22.3	0.00e+00	48	41	0	475004928	52	6228
2026-01-19 20:33:34.70	28.77	15.27	-39.8	-40.8	22.4	0.00e+00	6	41	0	477102080	52	6302
2026-01-19 20:33:35.71	28.56	15.29	-39.7	-40.7	22.5	0.00e+00	6	41	0	479199232	52	6207
2026-01-19 20:33:36.72	28.35	15.32	-39.7	-40.7	22.4	0.00e+00	2	41	0	480247808	52	6239
2026-01-19 20:33:37.73	28.14	15.35	-39.6	-40.7	22.6	0.00e+00	0	41	0	482344960	52	6177
2026-01-19 20:33:38.74	27.93	15.37	-39.8	-40.8	22.4	0.00e+00	91	41	0	484442112	52	6288
2026-01-19 20:33:39.75	27.72	15.40	-39.7	-40.7	22.6	0.00e+00	34	41	0	486539264	52	6219
2026-01-19 20:33:40.76	27.51	15.42	-39.7	-40.7	22.7	0.00e+00	91	41	0	488636416	52	6175
2026-01-19 20:33:41.77	27.30	15.44	-39.6	-40.6	22.6	0.00e+00	35	41	0	489684992	52	6112
2026-01-19 20:33:42.78	27.09	15.47	-39.8	-40.9	22.2	0.00e+00	34	41	0	491782144	52	6332
2026-01-19 20:33:43.78	26.88	15.49	-40.3	-41.3	22.0	0.00e+00	0	41	0	493879296	52	6684
2026-01-19 20:33:44.79	26.67	15.52	-40.0	-41.0	22.3	0.00e+00	0	41	0	495976448	52	6441
2026-01-19 20:33:45.80	26.45	15.54	-40.0	-41.0	22.2	0.00e+00	92	41	0	498073600	52	6461
2026-01-19 20:33:46.81	26.24	15.56	-39.8	-40.9	22.3	0.00e+00	48	41	0	499122176	52	6329
2026-01-19 20:33:47.82	26.03	15.58	-39.9	-41.0	22.3	0.00e+00	92	41	0	501219328	52	6400
2026-01-19 20:33:48.83	25.81	15.60	-40.1	-41.2	22.0	0.00e+00	36	41	0	503316480	52	6586
2026-01-19 20:33:49.84	25.60	15.63	-40.2	-41.2	22.0	0.00e+00	37	41	0	505413632	52	6614
2026-01-19 20:33:50.85	25.38	15.65	-40.2	-41.2	22.1	0.00e+00	2	41	0	507510784	52	6615
2026-01-19 20:33:51.86	25.17	15.67	-40.2	-41.3	22.0	0.00e+00	47	41	0	508559360	52	6619
2026-01-19 20:33:52.87	24.96	15.69	-40.1	-41.1	22.2	0.00e+00	16	41	0	510656512	52	6539
2026-01-19 20:33:53.88	24.74	15.71	-39.8	-40.8	22.4	0.00e+00	2	41	0	512753664	52	6312
2026-01-19 20:33:54.89	24.53	15.73	-39.8	-40.9	22.4	0.00e+00	92	41	0	514850816	52	6323
2026-01-19 20:33:55.90	24.31	15.75	-39.7	-40.7	22.6	0.00e+00	0	41	0	516947968	52	6188
2026-01-19 20:33:56.91	24.09	15.76	-39.7	-40.7	22.4	0.00e+00	91	41	0	517996544	52	6213
2026-01-19 20:33:57.92	23.88	15.78	-39.8	-40.9	22.4	0.00e+00	0	41	0	520093696	52	6328
2026-01-19 20:33:58.93	23.66	15.80	-39.8	-40.8	22.5	0.00e+00	0	41	0	522190848	52	6288
2026-01-19 20:33:59.94	23.44	15.82	-39.7	-40.7	22.6	0.00e+00	0	41	0	524288000	52	6176
2026-01-19 20:34:00.94	23.23	15.83	-39.6	-40.5	22.7	0.00e+00	0	41	0	526385152	52	6103
2026-01-19 20:34:01.95	23.01	15.85	-39.6	-40.6	22.6	0.00e+00	92	41	0	528482304	52	6148
2026-01-19 20:34:02.96	22.80	15.87	-39.7	-40.7	22.5	0.00e+00	0	41	0	529530880	52	6207
2026-01-19 20:34:03.97	22.58	15.88	-39.8	-40.8	22.4	0.00e+00	91	41	0	531628032	52	6248
2026-01-19 20:34:04.98	22.36	15.90	-39.9	-41.0	22.3	0.00e+00	35	41	0	533725184	52	6404
2026-01-19 20:34:05.99	22.14	15.91	-39.9	-40.9	22.3	0.00e+00	36	41	0	535822336	52	6380
2026-01-19 20:34:07.00	21.92	15.93	-39.8	-40.8	22.5	0.00e+00	28	41	0	537919488	52	6294
2026-01-19 20:34:08.01	21.70	15.94	-39.8	-40.8	22.4	0.00e+00	35	41	0	538968064	52	6282
2026-01-19 20:34:09.02	21.49	15.96	-39.8	-40.8	22.5	0.00e+00	91	41	0	541065216	52	6293
2026-01-19 20:34:10.03	21.27	15.97	-39.9	-40.9	22.3	0.00e+00	45	41	0	543162368	52	6386
2026-01-19 20:34:11.04	21.05	15.98	-39.9	-40.9	22.4	0.00e+00	91	41	0	545259520	52	6348
2026-01-19 20:34:12.05	20.83	15.99	-40.0	-41.1	22.2	0.00e+00	2	41	0	547356672	52	6489
2026-01-19 20:34:13.06	20.61	16.01	-40.1	-41.2	22.1	0.00e+00	2	41	0	548405248	52	6578
2026-01-19 20:34:14.07	20.39	16.02	-40.3	-41.4	21.9	0.00e+00	0	41	0	550502400	52	6704
2026-01-19 20:34:15.08	20.17	16.03	-40.1	-41.1	22.3	0.00e+00	2	41	0	552599552	52	6518
2026-01-19 20:34:16.09	19.95	16.04	-39.9	-40.9	22.3	0.00e+00	15	41	0	554696704	52	6368
2026-01-19 20:34:17.10	19.73	16.05	-39.9	-41.0	22.4	0.00e+00	2	41	0	556793856	52	6396
2026-01-19 20:34:18.10	19.51	16.06	-40.1	-41.1	22.2	0.00e+00	91	41	0	557842432	52	6509
2026-01-19 20:34:19.11	19.29	16.07	-39.9	-40.9	22.4	0.00e+00	0	41	0	559939584	52	6382
2026-01-19 20:34:20.12	19.07	16.08	-40.0	-41.0	22.2	0.00e+00	85	41	0	562036736	52	6447
2026-01-19 20:34:21.14	18.85	16.09	-40.0	-41.1	22.2	0.00e+00	0	41	0	564133888	52	6472
2026-01-19 20:34:22.15	18.63	16.10	-40.2	-41.3	22.1	0.00e+00	0	41	0	566231040	52	6617
2026-01-19 20:34:23.16	18.41	16.10	-40.1	-41.1	22.2	0.00e+00	0	41	0	567279616	52	6535
2026-01-19 20:34:24.17	18.19	16.11	-40.0	-41.0	22.3	0.00e+00	0	41	0	569376768	52	6435
2026-01-19 20:34:25.18	17.96	16.12	-40.0	-41.0	22.3	0.00e+00	92	41	0	571473920	52	6424
2026-01-19 20:34:26.19	17.74	16.12	-40.0	-41.0	22.3	0.00e+00	0	41	0	573571072	52	6411
2026-01-19 20:34:27.20	17.52	16.13	-39.9	-40.9	22.3	0.00e+00	0	41	0	575668224	52	6361
2026-01-19 20:34:28.21	17.30	16.14	-40.1	-41.1	22.2	0.00e+00	45	41	0	576716800	52	6539
2026-01-19 20:34:29.22	17.08	16.14	-39.9	-41.0	22.3	0.00e+00	35	41	0	578813952	52	6402
2026-01-19 20:34:30.23	16.86	16.15	-39.8	-40.9	22.4	0.00e+00	44	41	0	580911104	52	6324
2026-01-19 20:34:31.24	16.64	16.15	-39.8	-40.9	22.4	0.00e+00	46	41	0	583008256	52	6330
2026-01-19 20:34:32.25	16.41	16.15	-39.7	-40.7	22.4	0.00e+00	92	41	0	585105408	52	6213
2026-01-19 20:34:33.26	16.19	16.16	-39.6	-40.6	22.7	0.00e+00	46	41	0	586153984	52	6154
2026-01-19 20:34:34.27	15.97	16.16	-39.7	-40.7	22.4	0.00e+00	92	41	0	588251136	52	6235
2026-01-19 20:34:35.28	15.75	16.16	-40.0	-41.0	22.2	0.00e+00	0	41	0	590348288	52	6449
2026-01-19 20:34:36.29	15.53	16.16	-40.1	-41.2	22.1	0.00e+00	67	41	0	592445440	52	6576
2026-01-19 20:34:37.30	15.31	16.17	-40.3	-41.4	21.9	0.00e+00	0	41	0	594542592	52	6704
2026-01-19 20:34:38.31	15.08	16.17	-40.2	-41.2	22.0	0.00e+00	0	41	0	596639744	52	6597
2026-01-19 20:34:39.32	14.86	16.17	-40.4	-41.5	21.9	0.00e+00	91	41	0	597688320	52	6784
2026-01-19 20:34:40.33	14.64	16.17	-40.2	-41.2	22.2	0.00e+00	0	41	0	599785472	52	6597
2026-01-19 20:34:41.34	14.42	16.17	-39.9	-40.9	22.2	0.00e+00	92	41	0	601882624	52	6374
2026-01-19 20:34:42.35	14.20	16.17	-40.0	-41.0	22.3	0.00e+00	2	41	0	603979776	52	6450
2026-01-19 20:34:43.36	13.97	16.17	-39.9	-40.9	22.1	0.00e+00	0	41	0	606076928	52	6376
2026-01-19 20:34:44.37	13.75	16.17	-39.8	-40.8	22.4	0.00e+00	35	41	0	607125504	52	6251
2026-01-19 20:34:45.38	13.53	16.16	-40.0	-41.0	22.2	0.00e+00	0	41	0	609222656	52	6420
2026-01-19 20:34:46.39	13.31	16.16	-40.1	-41.1	22.1	0.00e+00	0	41	0	611319808	52	6507
2026-01-19 20:34:47.40	13.09	16.16	-40.0	-41.1	22.2	0.00e+00	34	41	0	613416960	52	6482
2026-01-19 20:34:48.41	12.86	16.16	-40.1	-41.1	22.2	0.00e+00	92	41	0	615514112	52	6511
2026-01-19 20:34:49.42	12.64	16.15	-39.9	-41.0	22.3	0.00e+00	48	41	0	616562688	52	6400
2026-01-19 20:34:50.43	12.42	16.15	-40.0	-41.1	22.3	0.00e+00	74	41	0	618659840	52	6481
2026-01-19 20:34:51.44	12.20	16.14	-39.9	-41.0	22.4	0.00e+00	0	41	0	620756992	52	6415
2026-01-19 20:34:52.45	11.98	16.14	-40.0	-41.0	22.3	0.00e+00	5	41	0	622854144	52	6426
2026-01-19 20:34:53.46	11.76	16.13	-39.9	-41.0	22.3	0.00e+00	0	41	0	624951296	52	6434
2026-01-19 20:34:54.47	11.54	16.13	-40.1	-41.1	22.1	0.00e+00	6	41	0	625999872	52	6538
2026-01-19 20:34:55.48	11.31	16.12	-40.2	-41.3	22.1	0.00e+00	92	41	0	628097024	52	6626
2026-01-19 20:34:56.49	11.09	16.12	-40.4	-41.4	21.9	0.00e+00	46	41	0	630194176	52	6768
2026-01-19 20:34:57.50	10.87	16.11	-40.3	-41.4	21.9	0.00e+00	90	41	0	632291328	52	6711
2026-01-19 20:34:58.51	10.65	16.10	-40.3	-41.3	21.9	0.00e+00	5	41	0	634388480	52	6684
2026-01-19 20:34:59.52	10.43	16.09	-40.1	-41.1	22.2	0.00e+00	0	41	0	635437056	52	6519
2026-01-19 20:35:00.53	10.21	16.08	-39.9	-40.9	22.5	0.00e+00	0	41	0	637534208	52	6339
2026-01-19 20:35:01.54	9.99	16.08	-39.7	-40.7	22.6	0.00e+00	7	41	0	639631360	52	6212
2026-01-19 20:35:02.55	9.77	16.07	-39.6	-40.6	22.6	0.00e+00	87	41	0	641728512	52	6111
2026-01-19 20:35:03.56	9.55	16.06	-39.7	-40.7	22.5	0.00e+00	34	41	0	643825664	52	6223
2026-01-19 20:35:04.57	9.33	16.05	-39.7	-40.7	22.5	0.00e+00	92	41	0	644874240	52	6236
2026-01-19 20:35:05.58	9.11	16.04	-39.9	-40.9	22.3	0.00e+00	0	41	0	646971392	52	6362
2026-01-19 20:35:06.59	8.89	16.03	-40.0	-41.0	22.3	0.00e+00	28	41	0	649068544	52	6461
2026-01-19 20:35:07.60	8.67	16.01	-39.9	-40.9	22.3	0.00e+00	29	41	0	651165696	52	6373
2026-01-19 20:35:08.60	8.45	16.00	-40.0	-41.0	22.3	0.00e+00	28	41	0	653262848	52	6427
2026-01-19 20:35:09.61	8.23	15.99	-39.9	-41.0	22.3	0.00e+00	0	41	0	654311424	52	6418
2026-01-19 20:35:10.62	8.01	15.98	-39.8	-40.8	22.4	0.00e+00	59	41	0	656408576	52	6316
2026-01-19 20:35:11.63	7.79	15.97	-39.5	-40.5	22.7	0.00e+00	92	41	0	658505728	52	6088
2026-01-19 20:35:12.65	7.57	15.95	-39.5	-40.5	22.8	0.00e+00	55	41	0	660602880	52	6045
2026-01-19 20:35:13.65	7.36	15.94	-39.4	-40.4	22.8	0.00e+00	92	41	0	662700032	52	6024
2026-01-19 20:35:14.66	7.14	15.92	-39.4	-40.4	22.8	0.00e+00	49	41	0	664797184	52	6008
2026-01-19 20:35:15.67	6.92	15.91	-39.6	-40.6	22.7	0.00e+00	54	41	0	665845760	52	6126
2026-01-19 20:35:16.68	6.70	15.89	-39.4	-40.4	22.7	0.00e+00	51	41	0	667942912	52	6031
2026-01-19 20:35:17.69	6.48	15.88	-39.6	-40.6	22.8	0.00e+00	6	41	0	670040064	52	6143
2026-01-19 20:35:18.70	6.27	15.86	-39.6	-40.6	22.7	0.00e+00	92	41	0	672137216	52	6106
2026-01-19 20:35:19.71	6.05	15.85	-39.6	-40.5	22.7	0.00e+00	0	41	0	674234368	52	6100
2026-01-19 20:35:20.71	5.84	15.83	-39.5	-40.5	22.8	0.00e+00	92	41	0	675282944	52	6038
2026-01-19 20:35:21.72	5.62	15.81	-39.3	-40.3	22.9	0.00e+00	0	41	0	677380096	52	5897
2026-01-19 20:35:22.73	5.40	15.80	-39.1	-40.1	23.2	0.00e+00	6	41	0	679477248	52	5780
2026-01-19 20:35:23.74	5.19	15.78	-39.1	-40.0	23.2	0.00e+00	0	41	0	681574400	52	5732
2026-01-19 20:35:24.75	4.97	15.76	-39.1	-40.0	23.1	0.00e+00	0	41	0	683671552	52	5756
2026-01-19 20:35:25.76	4.75	15.74	-39.1	-40.0	23.1	0.00e+00	49	41	0	684720128	52	5717
2026-01-19 20:35:26.77	4.54	15.72	-39.1	-40.0	23.2	0.00e+00	0	41	0	686817280	52	5731
2026-01-19 20:35:27.78	4.32	15.70	-39.3	-40.3	22.9	0.00e+00	92	41	0	688914432	52	5904
2026-01-19 20:35:28.79	4.11	15.68	-39.3	-40.3	22.8	0.00e+00	0	41	0	691011584	52	5936
2026-01-19 20:35:29.80	3.89	15.66	-39.3	-40.3	22.9	0.00e+00	46	41	0	693108736	52	5929
2026-01-19 20:35:30.82	3.68	15.64	-39.4	-40.4	22.6	0.00e+00	47	41	0	694157312	52	5991
2026-01-19 20:35:31.83	3.46	15.62	-39.6	-40.6	22.6	0.00e+00	47	41	0	696254464	52	6124
2026-01-19 20:35:32.84	3.25	15.60	-39.5	-40.5	22.7	0.00e+00	32	41	0	698351616	52	6068
2026-01-19 20:35:33.85	3.04	15.58	-39.6	-40.6	22.6	0.00e+00	34	41	0	700448768	52	6142
2026-01-19 20:35:34.85	2.83	15.56	-39.5	-40.5	22.7	0.00e+00	92	41	0	702545920	52	6040
2026-01-19 20:35:35.87	2.61	15.53	-39.5	-40.5	22.7	0.00e+00	0	41	0	703594496	52	6051
2026-01-19 20:35:36.88	2.40	15.51	-39.5	-40.5	22.6	0.00e+00	91	41	0	705691648	52	6050
2026-01-19 20:35:37.89	2.19	15.49	-39.6	-40.6	22.7	0.00e+00	52	41	0	707788800	52	6118
2026-01-19 20:35:38.90	1.98	15.46	-39.5	-40.5	22.8	0.00e+00	2	41	0	709885952	52	6056
2026-01-19 20:35:39.91	1.76	15.44	-39.5	-40.5	22.8	0.00e+00	0	41	0	711983104	52	6074
2026-01-19 20:35:40.92	1.55	15.41	-39.6	-40.5	22.8	0.00e+00	0	41	0	713031680	52	6094
2026-01-19 20:35:41.93	1.34	15.39	-39.7	-40.7	22.4	0.00e+00	90	41	0	715128832	52	6193
2026-01-19 20:35:42.94	1.13	15.36	-39.6	-40.6	22.4	0.00e+00	0	41	0	717225984	52	6155
2026-01-19 20:35:43.95	0.92	15.34	-39.8	-40.8	22.4	0.00e+00	92	41	0	719323136	52	6264
2026-01-19 20:35:44.96	0.71	15.31	-39.8	-40.8	22.4	0.00e+00	0	41	0	721420288	52	6275
2026-01-19 20:35:45.97	0.50	15.29	-39.9	-41.0	22.2	0.00e+00	35	41	0	722468864	52	6414
2026-01-19 20:35:46.98	0.30	15.26	-40.0	-41.0	22.2	0.00e+00	0	41	0	724566016	52	6443
2026-01-19 20:35:47.99	0.09	15.23	-40.1	-41.2	22.1	0.00e+00	34	41	0	726663168	52	6565
2026-01-19 20:35:49.00	359.88	15.21	-40.1	-41.2	22.1	0.00e+00	91	41	0	728760320	52	6545
2026-01-19 20:35:50.01	359.67	15.18	-40.2	-41.2	22.0	0.00e+00	34	41	0	730857472	52	6601
2026-01-19 20:35:51.02	359.46	15.15	-40.2	-41.3	22.0	0.00e+00	92	41	0	732954624	52	6627
2026-01-19 20:35:52.02	359.26	15.12	-40.2	-41.3	21.9	0.00e+00	47	41	0	734003200	52	6619
2026-01-19 20:35:53.03	359.05	15.09	-40.3	-41.4	21.9	0.00e+00	91	41	0	736100352	52	6720
2026-01-19 20:35:54.04	358.85	15.06	-39.9	-41.0	22.3	0.00e+00	49	41	0	738197504	52	6411
2026-01-19 20:35:55.05	358.64	15.04	-40.1	-41.2	22.1	0.00e+00	0	41	0	740294656	52	6581
2026-01-19 20:35:56.06	358.44	15.01	-39.9	-41.0	22.3	0.00e+00	0	41	0	742391808	52	6409
2026-01-19 20:35:57.07	358.23	14.98	-39.9	-40.9	22.2	0.00e+00	48	41	0	743440384	52	6361
2026-01-19 20:35:58.08	358.03	14.95	-39.9	-41.0	22.3	0.00e+00	92	41	0	745537536	52	6393
2026-01-19 20:35:59.09	357.82	14.91	-39.9	-41.0	22.1	0.00e+00	0	41	0	747634688	52	6421
2026-01-19 20:36:00.10	357.62	14.88	-39.8	-40.8	22.4	0.00e+00	57	41	0	749731840	52	6302
2026-01-19 20:36:01.11	357.42	14.85	-39.9	-40.9	22.2	0.00e+00	0	41	0	751828992	52	6370
2026-01-19 20:36:02.12	357.21	14.82	-39.8	-40.9	22.4	0.00e+00	0	41	0	752877568	52	6319
2026-01-19 20:36:03.13	357.01	14.79	-39.9	-40.9	22.4	0.00e+00	0	41	0	754974720	52	6347
2026-01-19 20:36:04.14	356.81	14.76	-39.8	-40.8	22.4	0.00e+00	0	41	0	757071872	52	6283
2026-01-19 20:36:05.15	356.61	14.72	-39.7	-40.7	22.4	0.00e+00	92	41	0	759169024	52	6211
2026-01-19 20:36:06.16	356.41	14.69	-39.6	-40.6	22.5	0.00e+00	30	41	0	761266176	52	6159
2026-01-19 20:36:07.17	356.21	14.66	-39.6	-40.6	22.5	0.00e+00	92	41	0	762314752	52	6168
2026-01-19 20:36:08.18	356.01	14.62	-39.6	-40.6	22.5	0.00e+00	30	41	0	764411904	52	6115
2026-01-19 20:36:09.19	355.81	14.59	-39.6	-40.6	22.5	0.00e+00	48	41	0	766509056	52	6160
2026-01-19 20:36:10.20	355.61	14.56	-39.7	-40.7	22.5	0.00e+00	0	41	0	768606208	52	6213
2026-01-19 20:36:11.21	355.41	14.52	-39.7	-40.8	22.2	0.00e+00	0	41	0	770703360	52	6249
2026-01-19 20:36:12.22	355.21	14.49	-39.6	-40.6	22.5	0.00e+00	90	41	0	771751936	52	6148
2026-01-19 20:36:13.23	355.01	14.45	-39.5	-40.5	22.5	0.00e+00	29	41	0	773849088	52	6087
2026-01-19 20:36:14.24	354.82	14.42	-39.6	-40.6	22.5	0.00e+00	90	41	0	775946240	52	6135
2026-01-19 20:36:15.25	354.62	14.38	-39.6	-40.6	22.4	0.00e+00	47	41	0	778043392	52	6140
2026-01-19 20:36:16.26	354.42	14.35	-39.7	-40.7	22.4	0.00e+00	90	41	0	780140544	52	6237
2026-01-19 20:36:17.26	354.23	14.31	-39.6	-40.6	22.5	0.00e+00	0	41	0	781189120	52	6132
2026-01-19 20:36:18.27	354.03	14.27	-39.8	-40.8	22.3	0.00e+00	0	41	0	783286272	52	6289
2026-01-19 20:36:19.21	353.85	14.24	-39.7	-40.7	22.4	0.00e+00	0	41	0	785383424	52	6217
2026-01-19 20:36:20.22	353.66	14.20	-39.7	-40.7	22.4	0.00e+00	0	41	0	787480576	52	6221
2026-01-19 20:36:21.23	353.46	14.16	-39.5	-40.5	22.6	0.00e+00	92	41	0	789577728	52	6065
2026-01-19 20:36:22.24	353.27	14.13	-39.5	-40.5	22.4	0.00e+00	0	41	0	790626304	52	6088
2026-01-19 20:36:23.25	353.08	14.09	-39.6	-40.6	22.5	0.00e+00	92	41	0	792723456	52	6121
2026-01-19 20:36:24.26	352.89	14.05	-39.7	-40.7	22.4	0.00e+00	0	41	0	794820608	52	6216
2026-01-19 20:36:25.27	352.69	14.01	-39.8	-40.9	22.1	0.00e+00	0	41	0	796917760	52	6343
2026-01-19 20:36:26.28	352.50	13.97	-40.0	-41.0	22.0	0.00e+00	0	41	0	799014912	52	6445
2026-01-19 20:36:27.29	352.31	13.94	-40.2	-41.3	22.1	0.00e+00	0	41	0	801112064	52	6675
2026-01-19 20:36:28.30	352.12	13.90	-39.8	-40.8	22.3	0.00e+00	92	41	0	802160640	52	6265
2026-01-19 20:36:29.31	351.93	13.86	-39.9	-40.9	22.2	0.00e+00	0	41	0	804257792	52	6370
2026-01-19 20:36:30.32	351.74	13.82	-39.9	-41.0	22.1	0.00e+00	92	41	0	806354944	52	6408
2026-01-19 20:36:31.33	351.55	13.78	-39.9	-41.0	22.2	0.00e+00	33	41	0	808452096	52	6403
2026-01-19 20:36:32.34	351.37	13.74	-39.7	-40.7	22.4	0.00e+00	34	41	0	810549248	52	6223
2026-01-19 20:36:33.35	351.18	13.70	-39.9	-40.9	22.2	0.00e+00	51	41	0	811597824	52	6365
2026-01-19 20:36:34.36	350.99	13.66	-39.7	-40.8	22.3	0.00e+00	2	41	0	813694976	52	6248
2026-01-19 20:36:35.37	350.80	13.62	-39.7	-40.7	22.3	0.00e+00	0	41	0	815792128	52	6201
2026-01-19 20:36:36.38	350.62	13.58	-39.8	-40.8	22.2	0.00e+00	8	41	0	817889280	52	6272
2026-01-19 20:36:37.39	350.43	13.53	-39.8	-40.8	22.2	0.00e+00	92	41	0	819986432	52	6312
2026-01-19 20:36:38.40	350.25	13.49	-39.8	-40.8	22.3	0.00e+00	6	41	0	821035008	52	6299
2026-01-19 20:36:39.41	350.06	13.45	-40.1	-41.2	22.0	0.00e+00	92	41	0	823132160	52	6566
2026-01-19 20:36:40.42	349.88	13.41	-40.3	-41.4	21.7	0.00e+00	53	41	0	825229312	52	6732
2026-01-19 20:36:41.43	349.70	13.37	-40.2	-41.3	21.9	0.00e+00	5	41	0	827326464	52	6640
2026-01-19 20:36:42.44	349.51	13.32	-40.3	-41.4	21.8	0.00e+00	5	41	0	829423616	52	6698
2026-01-19 20:36:43.45	349.33	13.28	-40.3	-41.4	21.7	0.00e+00	5	41	0	830472192	52	6737
2026-01-19 20:36:44.46	349.15	13.24	-40.4	-41.6	21.5	0.00e+00	92	41	0	832569344	52	6862
2026-01-19 20:36:45.47	348.97	13.20	-40.5	-41.6	21.5	0.00e+00	5	41	0	834666496	52	6924
2026-01-19 20:36:46.48	348.79	13.15	-40.4	-41.5	21.7	0.00e+00	92	41	0	836763648	52	6833
2026-01-19 20:36:47.49	348.61	13.11	-40.5	-41.7	21.5	0.00e+00	0	41	0	838860800	52	6942
2026-01-19 20:36:48.49	348.43	13.07	-40.5	-41.7	21.5	0.00e+00	0	41	0	839909376	52	6964
2026-01-19 20:36:49.50	348.25	13.02	-40.7	-41.9	21.3	0.00e+00	0	41	0	842006528	54	6367
2026-01-19 20:36:50.51	348.07	12.98	-40.7	-41.9	21.3	0.00e+00	0	41	0	844103680	54	6356
2026-01-19 20:36:51.52	347.89	12.93	-40.7	-41.9	21.3	0.00e+00	92	41	0	846200832	54	6321
2026-01-19 20:36:52.53	347.71	12.89	-40.8	-41.9	21.2	0.00e+00	53	41	0	848297984	54	6380
2026-01-19 20:36:53.54	347.54	12.85	-40.8	-42.0	21.2	0.00e+00	92	41	0	849346560	54	6431
2026-01-19 20:36:54.55	347.36	12.80	-40.9	-42.1	21.0	0.00e+00	33	41	0	851443712	54	6499
2026-01-19 20:36:55.56	347.18	12.76	-40.9	-42.1	21.1	0.00e+00	32	41	0	853540864	54	6471
2026-01-19 20:36:56.57	347.01	12.71	-41.0	-42.2	21.1	0.00e+00	52	41	0	855638016	54	6581
2026-01-19 20:36:57.58	346.83	12.67	-41.0	-42.2	21.1	0.00e+00	0	41	0	857735168	54	6551
2026-01-19 20:36:58.59	346.66	12.62	-41.2	-42.5	20.7	0.00e+00	89	41	0	858783744	54	6780
2026-01-19 20:36:59.61	346.48	12.57	-41.4	-42.6	20.6	0.00e+00	6	41	0	860880896	54	6924
2026-01-19 20:37:00.61	346.31	12.53	-41.5	-42.8	20.4	0.00e+00	92	41	0	862978048	54	7073
2026-01-19 20:37:01.62	346.14	12.48	-41.6	-42.9	20.3	0.00e+00	0	41	0	865075200	54	7135
2026-01-19 20:37:02.63	345.97	12.44	-41.4	-42.8	20.3	0.00e+00	90	41	0	867172352	54	7011
2026-01-19 20:37:03.64	345.80	12.39	-41.6	-43.0	20.2	0.00e+00	6	41	0	869269504	54	7201
2026-01-19 20:37:04.65	345.62	12.34	-41.7	-43.1	20.1	0.00e+00	0	41	0	870318080	56	6524
2026-01-19 20:37:05.67	345.45	12.30	-41.8	-43.1	20.1	0.00e+00	0	41	0	872415232	56	6536
2026-01-19 20:37:06.67	345.28	12.25	-41.9	-43.3	20.0	0.00e+00	0	41	0	874512384	56	6651
2026-01-19 20:37:07.68	345.11	12.20	-41.8	-43.1	20.1	0.00e+00	92	41	0	876609536	56	6533
2026-01-19 20:37:08.69	344.95	12.16	-41.7	-43.1	20.2	0.00e+00	27	41	0	878706688	56	6486
2026-01-19 20:37:09.70	344.78	12.11	-41.8	-43.2	20.1	0.00e+00	92	41	0	879755264	56	6578
2026-01-19 20:37:10.71	344.61	12.06	-41.9	-43.3	20.0	0.00e+00	0	41	0	881852416	56	6624
2026-01-19 20:37:11.72	344.44	12.01	-41.9	-43.2	20.0	0.00e+00	28	41	0	883949568	56	6613
2026-01-19 20:37:12.73	344.28	11.97	-41.9	-43.3	20.0	0.00e+00	26	41	0	886046720	56	6626
2026-01-19 20:37:13.74	344.11	11.92	-41.9	-43.3	19.9	0.00e+00	55	41	0	888143872	56	6643
2026-01-19 20:37:14.76	343.94	11.87	-42.2	-43.6	19.7	0.00e+00	84	41	0	889192448	56	6910
2026-01-19 20:37:15.77	343.78	11.82	-42.3	-43.8	19.5	0.00e+00	34	41	0	891289600	56	7037
2026-01-19 20:37:16.78	343.61	11.77	-42.4	-43.9	19.4	0.00e+00	88	41	0	893386752	56	7158
2026-01-19 20:37:17.79	343.45	11.72	-42.5	-44.0	19.4	0.00e+00	0	41	0	895483904	56	7218
2026-01-19 20:37:18.80	343.29	11.68	-42.3	-43.8	19.5	0.00e+00	49	41	0	897581056	56	7033
2026-01-19 20:37:19.81	343.12	11.63	-42.3	-43.8	19.5	0.00e+00	48	41	0	898629632	56	7045
2026-01-19 20:37:20.82	342.96	11.58	-42.5	-44.0	19.4	0.00e+00	2	41	0	900726784	56	7179
2026-01-19 20:37:21.82	342.80	11.53	-42.7	-44.2	19.2	0.00e+00	91	41	0	902823936	56	7394
2026-01-19 20:37:22.83	342.64	11.48	-42.5	-44.0	19.3	0.00e+00	0	41	0	904921088	56	7185
2026-01-19 20:37:23.84	342.48	11.43	-42.5	-44.1	19.2	0.00e+00	91	41	0	907018240	56	7264
2026-01-19 20:37:24.85	342.32	11.38	-42.7	-44.3	19.1	0.00e+00	0	41	0	908066816	58	6634
2026-01-19 20:37:25.86	342.16	11.33	-42.8	-44.4	19.0	0.00e+00	71	41	0	910163968	58	6708
2026-01-19 20:37:26.87	342.00	11.28	-42.5	-44.1	19.3	0.00e+00	0	41	0	912261120	58	6482
2026-01-19 20:37:27.88	341.84	11.23	-42.5	-44.1	19.3	0.00e+00	0	41	0	914358272	58	6483
2026-01-19 20:37:28.89	341.68	11.18	-42.5	-44.1	19.3	0.00e+00	0	41	0	916455424	58	6490
2026-01-19 20:37:29.90	341.53	11.13	-42.5	-44.0	19.3	0.00e+00	0	41	0	917504000	58	6408
2026-01-19 20:37:30.91	341.37	11.08	-42.6	-44.2	19.2	0.00e+00	92	41	0	919601152	58	6551
2026-01-19 20:37:31.92	341.21	11.03	-42.7	-44.3	19.0	0.00e+00	31	41	0	921698304	58	6688
2026-01-19 20:37:32.93	341.06	10.98	-42.7	-44.2	19.1	0.00e+00	92	41	0	923795456	58	6598
2026-01-19 20:37:33.94	340.90	10.93	-42.7	-44.3	18.9	0.00e+00	32	41	0	925892608	58	6679
2026-01-19 20:37:34.94	340.75	10.88	-42.9	-44.5	19.2	0.00e+00	32	41	0	926941184	58	6810
2026-01-19 20:37:35.95	340.60	10.83	-42.8	-44.3	18.9	0.00e+00	55	41	0	929038336	58	6673
2026-01-19 20:37:36.96	340.44	10.78	-42.8	-44.4	19.1	0.00e+00	25	41	0	931135488	58	6757
2026-01-19 20:37:37.97	340.29	10.73	-42.8	-44.4	18.8	0.00e+00	39	41	0	933232640	58	6752
2026-01-19 20:37:38.98	340.14	10.68	-42.7	-44.3	19.2	0.00e+00	0	41	0	935329792	58	6621
2026-01-19 20:37:39.99	339.98	10.63	-42.9	-44.6	18.7	0.00e+00	92	41	0	937426944	58	6870
2026-01-19 20:37:41.00	339.83	10.58	-42.8	-44.5	18.8	0.00e+00	2	41	0	938475520	58	6785
2026-01-19 20:37:42.01	339.68	10.53	-42.8	-44.4	18.9	0.00e+00	1	41	0	940572672	58	6756
2026-01-19 20:37:43.02	339.53	10.48	-42.5	-44.0	19.2	0.00e+00	2	41	0	942669824	58	6453
2026-01-19 20:37:44.03	339.38	10.42	-42.5	-44.0	19.3	0.00e+00	0	41	0	944766976	58	6431
2026-01-19 20:37:45.04	339.23	10.37	-42.4	-43.9	19.5	0.00e+00	75	41	0	946864128	58	6337
2026-01-19 20:37:46.05	339.08	10.32	-42.3	-43.8	19.5	0.00e+00	0	41	0	947912704	58	6255
2026-01-19 20:37:47.06	338.94	10.27	-42.1	-43.6	19.6	0.00e+00	92	41	0	950009856	58	6120
2026-01-19 20:37:48.07	338.79	10.22	-41.9	-43.3	19.9	0.00e+00	0	41	0	952107008	58	5961
2026-01-19 20:37:49.08	338.64	10.17	-42.0	-43.4	19.8	0.00e+00	33	41	0	954204160	58	6024
2026-01-19 20:37:50.09	338.50	10.12	-42.0	-43.4	19.8	0.00e+00	31	41	0	956301312	58	5972
2026-01-19 20:37:51.10	338.35	10.06	-41.9	-43.3	19.9	0.00e+00	25	41	0	957349888	58	5950
2026-01-19 20:37:52.11	338.20	10.01	-41.9	-43.3	19.9	0.00e+00	0	41	0	959447040	58	5949
2026-01-19 20:37:53.12	338.06	9.96	-41.8	-43.2	20.0	0.00e+00	25	41	0	961544192	56	6568
2026-01-19 20:37:54.13	337.91	9.91	-42.0	-43.4	19.8	0.00e+00	92	41	0	963641344	56	6698
2026-01-19 20:37:55.14	337.77	9.86	-41.9	-43.3	20.0	0.00e+00	0	41	0	965738496	56	6638
2026-01-19 20:37:56.15	337.63	9.80	-41.9	-43.3	19.9	0.00e+00	92	41	0	966787072	56	6661
2026-01-19 20:37:57.16	337.48	9.75	-41.9	-43.3	19.9	0.00e+00	33	41	0	968884224	56	6657
2026-01-19 20:37:58.17	337.34	9.70	-42.0	-43.4	19.9	0.00e+00	49	41	0	970981376	56	6697
2026-01-19 20:37:59.18	337.20	9.65	-41.7	-43.1	20.1	0.00e+00	0	41	0	973078528	56	6477
2026-01-19 20:38:00.19	337.06	9.59	-41.9	-43.3	19.9	0.00e+00	54	41	0	975175680	56	6622
2026-01-19 20:38:01.20	336.92	9.54	-41.9	-43.3	20.1	0.00e+00	90	41	0	976224256	56	6652
2026-01-19 20:38:02.21	336.78	9.49	-41.6	-43.0	20.2	0.00e+00	0	41	0	978321408	56	6415
2026-01-19 20:38:03.22	336.64	9.44	-41.6	-43.0	20.3	0.00e+00	92	41	0	980418560	56	6407
2026-01-19 20:38:04.23	336.50	9.38	-41.2	-42.5	20.6	0.00e+00	0	41	0	982515712	56	6052
2026-01-19 20:38:05.24	336.36	9.33	-41.3	-42.5	20.5	0.00e+00	22	41	0	984612864	56	6084
2026-01-19 20:38:06.25	336.22	9.28	-41.6	-42.9	20.4	0.00e+00	0	41	0	985661440	56	6357
2026-01-19 20:38:07.26	336.08	9.23	-41.3	-42.6	20.7	0.00e+00	0	41	0	987758592	56	6107
2026-01-19 20:38:08.27	335.95	9.17	-41.0	-42.2	20.8	0.00e+00	0	41	0	989855744	56	5856
2026-01-19 20:38:09.28	335.81	9.12	-41.0	-42.2	20.9	0.00e+00	26	41	0	991952896	56	5860
2026-01-19 20:38:10.29	335.67	9.07	-41.0	-42.2	20.8	0.00e+00	90	41	0	994050048	56	5874
2026-01-19 20:38:11.30	335.54	9.01	-41.0	-42.3	20.7	0.00e+00	0	41	0	995098624	56	5897
2026-01-19 20:38:12.31	335.40	8.96	-41.4	-42.7	20.4	0.00e+00	30	41	0	997195776	56	6180
2026-01-19 20:38:13.32	335.27	8.91	-41.1	-42.3	20.8	0.00e+00	50	41	0	999292928	56	5926
2026-01-19 20:38:14.33	335.13	8.86	-40.9	-42.1	20.9	0.00e+00	30	41	0	1001390080	56	5804
2026-01-19 20:38:15.34	335.00	8.80	-40.6	-41.8	21.2	0.00e+00	25	41	0	1003487232	54	6295
2026-01-19 20:38:16.35	334.87	8.75	-40.7	-41.9	21.0	0.00e+00	56	41	0	1005584384	54	6347
2026-01-19 20:38:17.36	334.73	8.70	-40.8	-42.0	21.0	0.00e+00	92	41	0	1006632960	54	6419
2026-01-19 20:38:18.37	334.60	8.64	-40.6	-41.8	21.2	0.00e+00	0	41	0	1008730112	54	6270
2026-01-19 20:38:19.38	334.47	8.59	-40.8	-42.0	21.0	0.00e+00	6	41	0	1010827264	54	6401
2026-01-19 20:38:20.39	334.34	8.54	-40.8	-42.0	20.9	0.00e+00	52	41	0	1012924416	54	6416
2026-01-19 20:38:21.40	334.21	8.48	-40.6	-41.8	21.1	0.00e+00	50	41	0	1015021568	54	6274
2026-01-19 20:38:22.41	334.08	8.43	-40.3	-41.5	21.3	0.00e+00	5	41	0	1016070144	54	6058
2026-01-19 20:38:23.42	333.95	8.38	-40.8	-42.0	20.8	0.00e+00	5	41	0	1018167296	54	6463
2026-01-19 20:38:24.43	333.82	8.32	-40.3	-41.4	21.5	0.00e+00	91	41	0	1020264448	54	6012
2026-01-19 20:38:25.44	333.69	8.27	-40.2	-41.3	21.3	0.00e+00	6	41	0	1022361600	54	5958
2026-01-19 20:38:26.45	333.56	8.22	-40.2	-41.3	21.5	0.00e+00	69	41	0	1024458752	54	5923
2026-01-19 20:38:27.46	333.44	8.16	-40.1	-41.2	21.6	0.00e+00	0	41	0	1025507328	52	6547
2026-01-19 20:38:28.47	333.31	8.11	-40.3	-41.4	21.4	0.00e+00	0	41	0	1027604480	52	6762
2026-01-19 20:38:29.48	333.18	8.06	-40.7	-41.9	21.1	0.00e+00	0	41	0	1029701632	54	6342
2026-01-19 20:38:30.49	333.05	8.00	-40.5	-41.7	21.3	0.00e+00	30	41	0	1031798784	54	6182
2026-01-19 20:38:31.50	332.93	7.95	-40.3	-41.4	21.5	0.00e+00	0	41	0	1033895936	54	6014
2026-01-19 20:38:32.51	332.80	7.89	-40.6	-41.8	21.2	0.00e+00	24	41	0	1034944512	54	6252
2026-01-19 20:38:33.52	332.68	7.84	-40.7	-41.9	21.1	0.00e+00	91	41	0	1037041664	54	6327
2026-01-19 20:38:34.53	332.55	7.79	-40.7	-41.8	21.0	0.00e+00	55	41	0	1039138816	54	6305
2026-01-19 20:38:35.54	332.43	7.73	-41.0	-42.2	20.7	0.00e+00	29	41	0	1041235968	54	6591
2026-01-19 20:38:36.55	332.31	7.68	-40.8	-42.0	20.8	0.00e+00	56	41	0	1043333120	54	6403
2026-01-19 20:38:37.56	332.18	7.63	-40.7	-41.9	20.9	0.00e+00	58	41	0	1044381696	54	6359
2026-01-19 20:38:38.57	332.06	7.57	-41.1	-42.4	20.6	0.00e+00	26	41	0	1046478848	54	6710
2026-01-19 20:38:39.58	331.94	7.52	-40.5	-41.7	21.0	0.00e+00	7	41	0	1048576000	54	6225
2026-01-19 20:38:40.59	331.82	7.47	-41.0	-42.2	20.6	0.00e+00	92	41	0	1050673152	54	6594
2026-01-19 20:38:41.60	331.70	7.41	-41.3	-42.6	20.2	0.00e+00	0	41	0	1052770304	54	6867
2026-01-19 20:38:42.61	331.58	7.36	-40.6	-41.8	21.1	0.00e+00	74	41	0	1053818880	54	6297
2026-01-19 20:38:43.62	331.45	7.30	-40.6	-41.8	21.1	0.00e+00	60	41	0	1055916032	54	6284
2026-01-19 20:38:44.63	331.33	7.25	-40.8	-42.0	20.9	0.00e+00	7	41	0	1058013184	54	6425
2026-01-19 20:38:45.64	331.22	7.20	-41.0	-42.3	20.6	0.00e+00	4	41	0	1060110336	54	6671
2026-01-19 20:38:46.65	331.10	7.14	-41.0	-42.2	20.7	0.00e+00	7	41	0	1062207488	54	6592
2026-01-19 20:38:47.66	330.98	7.09	-40.6	-41.9	21.0	0.00e+00	88	41	0	1063256064	54	6320
2026-01-19 20:38:48.67	330.86	7.04	-40.9	-42.1	20.8	0.00e+00	0	41	0	1065353216	54	6519
2026-01-19 20:38:49.68	330.74	6.98	-41.1	-42.4	20.4	0.00e+00	92	41	0	1067450368	54	6723
2026-01-19 20:38:50.69	330.63	6.93	-40.9	-42.2	20.5	0.00e+00	29	41	0	1069547520	54	6542
2026-01-19 20:38:51.70	330.51	6.87	-40.6	-41.9	20.8	0.00e+00	0	41	0	1071644672	54	6330
2026-01-19 20:38:52.71	330.39	6.82	-41.5	-42.8	20.0	0.00e+00	29	41	0	1073741824	54	7067
2026-01-19 20:38:53.72	330.28	6.77	-41.0	-42.2	20.5	0.00e+00	30	41	0	1074790400	54	6603
2026-01-19 20:38:54.73	330.16	6.71	-40.8	-42.1	20.7	0.00e+00	90	41	0	1076887552	54	6469
2026-01-19 20:38:55.74	330.05	6.66	-41.1	-42.4	20.4	0.00e+00	24	41	0	1078984704	54	6735
2026-01-19 20:38:56.75	329.93	6.61	-41.4	-42.8	20.1	0.00e+00	92	41	0	1081081856	54	7025
2026-01-19 20:38:57.76	329.82	6.55	-41.0	-42.2	20.5	0.00e+00	23	41	0	1083179008	54	6610
2026-01-19 20:38:58.77	329.70	6.50	-40.9	-42.2	20.7	0.00e+00	73	41	0	1084227584	54	6572
2026-01-19 20:38:59.78	329.59	6.44	-40.8	-42.0	20.8	0.00e+00	54	41	0	1086324736	54	6453
2026-01-19 20:39:00.79	329.48	6.39	-41.1	-42.4	20.4	0.00e+00	53	41	0	1088421888	54	6725
2026-01-19 20:39:01.80	329.37	6.34	-41.6	-43.0	19.8	0.00e+00	64	41	0	1090519040	54	7221
2026-01-19 20:39:02.81	329.25	6.28	-41.6	-43.0	19.9	0.00e+00	54	41	0	1092616192	54	7172
2026-01-19 20:39:03.82	329.14	6.23	-41.2	-42.5	20.4	0.00e+00	92	41	0	1093664768	56	6043
2026-01-19 20:39:04.83	329.03	6.18	-41.3	-42.7	20.2	0.00e+00	0	41	0	1095761920	56	6184
2026-01-19 20:39:05.84	328.92	6.12	-41.4	-42.7	20.2	0.00e+00	3	41	0	1097859072	56	6225
2026-01-19 20:39:06.85	328.81	6.07	-42.2	-43.6	19.4	0.00e+00	2	41	0	1099956224	56	6921
2026-01-19 20:39:07.86	328.70	6.01	-41.8	-43.2	19.7	0.00e+00	0	41	0	1102053376	56	6610
2026-01-19 20:39:08.87	328.59	5.96	-41.4	-42.7	20.3	0.00e+00	0	41	0	1103101952	56	6244
2026-01-19 20:39:09.87	328.48	5.91	-41.8	-43.2	19.5	0.00e+00	0	41	0	1105199104	56	6615
2026-01-19 20:39:10.88	328.37	5.85	-41.7	-43.1	20.0	0.00e+00	92	41	0	1107296256	56	6474
2026-01-19 20:39:11.89	328.27	5.80	-41.3	-42.6	20.2	0.00e+00	0	41	0	1109393408	56	6146
2026-01-19 20:39:12.90	328.16	5.75	-41.8	-43.2	19.6	0.00e+00	92	41	0	1111490560	56	6610
2026-01-19 20:39:13.91	328.05	5.69	-41.8	-43.2	19.8	0.00e+00	0	41	0	1112539136	56	6588
2026-01-19 20:39:14.92	327.94	5.64	-41.7	-43.1	19.7	0.00e+00	4	41	0	1114636288	56	6496
2026-01-19 20:39:15.94	327.84	5.59	-42.0	-43.4	19.5	0.00e+00	53	41	0	1116733440	56	6759
2026-01-19 20:39:16.95	327.73	5.53	-42.1	-43.6	19.3	0.00e+00	51	41	0	1118830592	56	6925
2026-01-19 20:39:17.96	327.62	5.48	-42.1	-43.5	19.4	0.00e+00	91	41	0	1120927744	56	6846
2026-01-19 20:39:18.97	327.52	5.42	-41.7	-43.2	19.7	0.00e+00	51	41	0	1121976320	56	6545
2026-01-19 20:39:19.98	327.41	5.37	-41.9	-43.4	19.4	0.00e+00	91	41	0	1124073472	56	6710
2026-01-19 20:39:20.99	327.31	5.32	-42.5	-44.0	18.8	0.00e+00	2	41	0	1126170624	56	7245
2026-01-19 20:39:21.99	327.21	5.26	-42.2	-43.8	19.0	0.00e+00	63	41	0	1128267776	56	7037
2026-01-19 20:39:23.00	327.10	5.21	-42.2	-43.6	19.4	0.00e+00	0	41	0	1130364928	56	6926
2026-01-19 20:39:24.01	327.00	5.16	-41.9	-43.4	19.5	0.00e+00	0	41	0	1131413504	56	6736
2026-01-19 20:39:25.02	326.90	5.10	-42.5	-44.1	18.7	0.00e+00	0	41	0	1133510656	56	7331
2026-01-19 20:39:26.04	326.79	5.05	-42.6	-44.2	18.9	0.00e+00	0	41	0	1135607808	58	6594
2026-01-19 20:39:27.05	326.69	5.00	-42.3	-43.9	18.9	0.00e+00	90	41	0	1137704960	58	6383
2026-01-19 20:39:28.06	326.59	4.94	-42.2	-43.8	18.8	0.00e+00	0	41	0	1139802112	58	6256
2026-01-19 20:39:29.07	326.49	4.89	-42.1	-43.6	19.1	0.00e+00	90	41	0	1141899264	58	6152
2026-01-19 20:39:30.08	326.39	4.84	-42.5	-44.2	18.5	0.00e+00	0	41	0	1142947840	58	6603
2026-01-19 20:39:31.09	326.29	4.78	-42.7	-44.4	18.1	0.00e+00	0	41	0	1145044992	58	6749
2026-01-19 20:39:32.10	326.19	4.73	-42.1	-43.7	19.0	0.00e+00	0	41	0	1147142144	58	6200
2026-01-19 20:39:33.11	326.09	4.68	-42.7	-44.4	18.2	0.00e+00	29	41	0	1149239296	58	6748
2026-01-19 20:39:34.12	325.99	4.62	-42.8	-44.6	18.0	0.00e+00	92	41	0	1151336448	58	6850
2026-01-19 20:39:35.13	325.89	4.57	-42.4	-44.0	18.8	0.00e+00	29	41	0	1152385024	58	6411
2026-01-19 20:39:36.14	325.79	4.52	-42.8	-44.6	18.0	0.00e+00	92	41	0	1154482176	58	6877
2026-01-19 20:39:37.15	325.69	4.46	-43.1	-45.0	17.7	0.00e+00	23	41	0	1156579328	58	7246
2026-01-19 20:39:38.16	325.59	4.41	-42.7	-44.4	18.1	0.00e+00	0	41	0	1158676480	58	6744
2026-01-19 20:39:39.17	325.49	4.36	-43.1	-44.9	17.8	0.00e+00	0	41	0	1160773632	58	7137
2026-01-19 20:39:40.18	325.40	4.31	-42.4	-44.0	18.6	0.00e+00	50	41	0	1161822208	58	6447
2026-01-19 20:39:41.19	325.30	4.25	-43.0	-44.8	17.6	0.00e+00	91	41	0	1163919360	58	7074
2026-01-19 20:39:42.20	325.20	4.20	-42.9	-44.7	18.0	0.00e+00	0	41	0	1166016512	58	6966
2026-01-19 20:39:43.21	325.11	4.15	-43.0	-44.9	17.7	0.00e+00	92	41	0	1168113664	58	7141
2026-01-19 20:39:44.22	325.01	4.09	-42.6	-44.3	18.4	0.00e+00	0	41	0	1170210816	58	6678
2026-01-19 20:39:45.23	324.92	4.04	-42.7	-44.5	17.9	0.00e+00	39	41	0	1171259392	58	6820
2026-01-19 20:39:46.24	324.82	3.99	-43.1	-45.0	17.3	0.00e+00	0	41	0	1173356544	58	7235
2026-01-19 20:39:47.25	324.73	3.93	-44.0	-46.3	16.4	0.00e+00	0	41	0	1175453696	58	8366
2026-01-19 20:39:48.26	324.63	3.88	-43.1	-45.0	17.6	0.00e+00	0	41	0	1177550848	60	6412
2026-01-19 20:39:49.27	324.54	3.83	-43.4	-45.5	16.9	0.00e+00	0	41	0	1179648000	60	6825
2026-01-19 20:39:50.28	324.44	3.78	-42.3	-44.1	18.3	0.00e+00	92	41	0	1181745152	58	6474
2026-01-19 20:39:51.29	324.35	3.72	-43.7	-45.9	16.6	0.00e+00	20	41	0	1182793728	58	7983
2026-01-19 20:39:52.30	324.26	3.67	-43.5	-45.6	17.0	0.00e+00	92	41	0	1184890880	60	6903
2026-01-19 20:39:53.31	324.16	3.62	-44.7	-47.5	15.0	0.00e+00	22	41	0	1186988032	60	8547
2026-01-19 20:39:54.32	324.07	3.57	-43.3	-45.3	17.4	0.00e+00	0	41	0	1189085184	60	6673
2026-01-19 20:39:55.33	323.98	3.51	-44.4	-47.0	15.6	0.00e+00	0	41	0	1191182336	60	8126
2026-01-19 20:39:56.34	323.89	3.46	-43.8	-46.1	16.1	0.00e+00	55	41	0	1192230912	60	7298
2026-01-19 20:39:57.35	323.80	3.41	-44.3	-46.9	15.7	0.00e+00	90	41	0	1194328064	60	7990
