passes_logs/2026/01/19/R4.6S_Anadyr/R4.6S_Anadyr__20260119_162444_AQUA_rec.log

#Pass ID: 20260119_162444_AQUA
#Satellite: AQUA
#Configuration: AQUA
#almurnet v.1.7.20251203
#Start time: 2026-01-19 16:24:48

#Version: 2.2.20231116
#Station: R4.6S_Anadyr
#Location: 177.4865 lon 64.73178 lat
#TLE: 1 27424U 02022A   26018.92652823  .00000914  00000+0  19290-3 0  9996
#TLE: 2 27424  98.4089 345.4199 0001997  73.4625 351.8991 14.61828815261466

#Time	Az	El	Level	Level2	SNR	BER	BlckErr	Temp	State	Recorded	gain1	gain2
2026-01-19 16:24:48.47	19.85	0.22	-50.6	-67.1	3.3	3.04e+01	0	40	0	0	60	86698
2026-01-19 16:24:49.48	19.85	0.28	-50.6	-68.4	3.5	3.04e+01	0	40	104	0	60	101658
2026-01-19 16:24:50.49	19.85	0.34	-50.4	-68.3	3.5	3.04e+01	0	41	104	0	60	99634
2026-01-19 16:24:51.50	19.86	0.40	-50.3	-68.2	3.5	3.04e+01	0	41	104	0	60	98608
2026-01-19 16:24:52.51	19.86	0.47	-50.4	-68.2	3.5	3.04e+01	0	40	104	0	60	98954
2026-01-19 16:24:53.52	19.87	0.53	-50.4	-68.2	3.5	3.04e+01	0	41	104	0	60	98786
2026-01-19 16:24:54.53	19.87	0.59	-50.4	-68.2	3.5	3.04e+01	0	41	104	0	60	99237
2026-01-19 16:24:55.54	19.87	0.66	-50.3	-68.1	3.5	3.04e+01	0	41	104	0	60	98009
2026-01-19 16:24:56.55	19.88	0.72	-50.3	-68.1	3.5	3.04e+01	0	41	104	0	60	97941
2026-01-19 16:24:57.56	19.88	0.78	-50.2	-68.1	3.5	3.04e+01	0	41	104	0	60	97424
2026-01-19 16:24:58.57	19.89	0.85	-50.1	-68.0	3.5	3.04e+01	0	41	104	0	60	96586
2026-01-19 16:24:59.58	19.89	0.91	-50.1	-67.9	3.5	3.04e+01	0	41	104	0	60	95961
2026-01-19 16:25:00.59	19.89	0.98	-50.0	-67.8	3.5	3.04e+01	0	41	104	0	60	94833
2026-01-19 16:25:01.60	19.90	1.04	-50.0	-67.8	3.5	3.04e+01	0	41	104	0	60	94121
2026-01-19 16:25:02.61	19.90	1.10	-49.8	-67.6	3.5	3.04e+01	0	41	104	0	60	92705
2026-01-19 16:25:03.62	19.91	1.17	-49.6	-67.5	3.5	3.04e+01	0	41	104	0	60	91254
2026-01-19 16:25:04.63	19.91	1.23	-49.5	-67.4	3.5	3.04e+01	0	41	104	0	60	90057
2026-01-19 16:25:05.64	19.91	1.30	-49.4	-67.3	3.5	3.04e+01	0	41	104	0	60	88725
2026-01-19 16:25:06.65	19.92	1.36	-49.1	-67.1	3.5	3.04e+01	0	41	104	0	60	87029
2026-01-19 16:25:07.66	19.92	1.43	-49.0	-66.9	3.5	3.04e+01	0	41	104	0	60	84986
2026-01-19 16:25:08.68	19.93	1.49	-48.8	-66.6	3.5	3.04e+01	0	41	104	0	60	82035
2026-01-19 16:25:09.68	19.93	1.56	-48.8	-66.5	3.5	3.04e+01	0	41	104	0	60	81802
2026-01-19 16:25:10.70	19.93	1.63	-48.8	-66.6	3.5	3.04e+01	0	41	104	0	60	81856
2026-01-19 16:25:11.70	19.94	1.69	-48.8	-66.5	3.5	3.04e+01	0	41	104	0	60	81488
2026-01-19 16:25:12.72	19.94	1.76	-48.8	-66.6	3.5	3.04e+01	0	41	104	0	60	82152
2026-01-19 16:25:13.73	19.94	1.82	-48.7	-66.6	3.5	3.04e+01	0	41	104	0	60	82420
2026-01-19 16:25:14.74	19.95	1.89	-48.7	-66.6	3.5	3.04e+01	0	41	104	0	60	82232
2026-01-19 16:25:15.75	19.95	1.96	-48.7	-66.6	3.5	3.04e+01	0	41	104	0	60	82196
2026-01-19 16:25:16.76	19.96	2.02	-48.7	-66.5	3.5	3.04e+01	0	41	104	0	60	81752
2026-01-19 16:25:17.77	19.96	2.09	-48.7	-66.6	3.5	3.04e+01	0	41	104	0	60	81898
2026-01-19 16:25:18.77	19.96	2.16	-48.7	-66.5	3.5	3.04e+01	0	41	104	0	60	81433
2026-01-19 16:25:19.78	19.97	2.22	-48.7	-66.4	3.5	3.04e+01	0	41	104	0	60	80712
2026-01-19 16:25:20.79	19.97	2.29	-48.7	-66.4	3.5	3.04e+01	0	41	104	0	60	80321
2026-01-19 16:25:21.80	19.98	2.36	-48.7	-66.2	3.5	3.04e+01	0	41	104	0	60	78159
2026-01-19 16:25:22.81	19.98	2.43	-48.6	-65.8	3.5	3.04e+01	0	41	104	0	60	75125
2026-01-19 16:25:23.82	19.98	2.49	-48.5	-65.4	3.5	3.04e+01	0	41	104	0	60	71745
2026-01-19 16:25:24.83	19.99	2.56	-48.5	-65.3	3.5	3.04e+01	0	41	104	0	60	70447
2026-01-19 16:25:25.84	19.99	2.63	-48.4	-64.9	3.5	3.04e+01	0	41	104	0	60	67402
2026-01-19 16:25:26.85	19.99	2.70	-48.4	-64.8	3.5	3.04e+01	0	41	104	0	60	67056
2026-01-19 16:25:27.86	20.00	2.77	-48.4	-64.8	3.5	3.04e+01	0	41	104	0	60	67153
2026-01-19 16:25:28.87	20.00	2.84	-48.4	-64.7	3.5	3.04e+01	0	41	104	0	60	65917
2026-01-19 16:25:29.89	20.01	2.91	-48.1	-63.5	3.5	3.04e+01	0	41	104	0	60	57745
2026-01-19 16:25:30.89	20.01	2.98	-47.6	-62.0	3.5	3.04e+01	0	41	104	0	60	48224
2026-01-19 16:25:31.91	20.01	3.05	-46.8	-60.2	3.5	3.04e+01	0	41	104	0	60	39242
2026-01-19 16:25:32.92	20.02	3.11	-45.4	-57.5	3.5	3.04e+01	0	41	104	0	60	28898
2026-01-19 16:25:33.93	20.02	3.18	-44.5	-56.2	3.5	3.04e+01	0	41	104	0	60	24857
2026-01-19 16:25:34.94	20.03	3.25	-43.6	-54.9	3.5	3.04e+01	0	41	104	0	60	21307
2026-01-19 16:25:35.95	20.03	3.32	-42.4	-53.3	3.5	3.04e+01	0	41	104	0	60	17761
2026-01-19 16:25:36.96	20.03	3.40	-42.1	-53.0	3.5	3.04e+01	0	41	104	0	60	17149
2026-01-19 16:25:37.97	20.04	3.47	-41.6	-52.4	3.5	3.04e+01	0	41	104	0	58	17988
2026-01-19 16:25:38.98	20.04	3.54	-41.4	-52.1	3.5	3.04e+01	0	41	104	0	58	17465
2026-01-19 16:25:39.99	20.04	3.61	-41.6	-52.4	3.5	3.04e+01	0	41	104	0	58	17927
2026-01-19 16:25:41.00	20.05	3.68	-42.2	-53.1	3.5	3.04e+01	0	41	104	0	58	19426
2026-01-19 16:25:42.01	20.05	3.75	-43.2	-54.3	3.5	3.04e+01	0	41	104	0	60	19958
2026-01-19 16:25:43.02	20.06	3.82	-44.7	-56.4	3.5	3.04e+01	0	41	104	0	60	25516
2026-01-19 16:25:44.03	20.06	3.89	-39.7	-50.2	3.5	3.04e+01	0	41	104	0	54	17523
2026-01-19 16:25:45.04	20.06	3.97	-44.2	-55.7	3.5	3.04e+01	0	41	104	0	60	23552
2026-01-19 16:25:46.04	20.07	4.04	-48.6	-66.3	3.5	3.04e+01	0	41	104	0	60	79043
2026-01-19 16:25:47.05	20.07	4.11	-42.6	-53.7	3.5	3.04e+01	0	41	104	0	60	18527
2026-01-19 16:25:48.06	20.07	4.18	-48.7	-66.2	3.5	3.04e+01	0	41	104	0	60	78674
2026-01-19 16:25:49.07	20.08	4.26	-43.7	-54.9	3.5	3.04e+01	0	41	104	0	60	21359
2026-01-19 16:25:50.08	20.08	4.33	-42.8	-53.8	3.5	3.04e+01	0	41	104	0	60	18808
2026-01-19 16:25:51.09	20.09	4.40	-43.3	-54.4	3.5	3.04e+01	0	41	104	0	60	20120
2026-01-19 16:25:52.10	20.09	4.48	-43.6	-54.7	3.5	3.04e+01	0	41	104	0	60	20976
2026-01-19 16:25:53.11	20.09	4.55	-39.2	-49.7	3.5	3.04e+01	0	41	104	0	54	16591
2026-01-19 16:25:54.12	20.10	4.62	-44.0	-55.4	3.5	3.04e+01	0	41	104	0	60	22575
2026-01-19 16:25:55.13	20.10	4.70	-48.8	-66.4	3.5	3.04e+01	0	41	104	0	60	80128
2026-01-19 16:25:56.14	20.10	4.77	-42.0	-52.8	3.5	3.04e+01	0	41	104	0	60	16790
2026-01-19 16:25:57.15	20.11	4.85	-49.0	-66.4	3.5	3.04e+01	0	41	104	0	60	80551
2026-01-19 16:25:58.16	20.11	4.92	-41.8	-52.6	3.5	3.04e+01	0	41	104	0	58	18416
2026-01-19 16:25:59.17	20.12	5.00	-40.9	-51.5	3.5	3.04e+01	0	41	104	0	56	18155
2026-01-19 16:26:00.18	20.12	5.07	-40.6	-51.2	3.5	3.04e+01	0	41	104	0	56	17596
2026-01-19 16:26:01.18	20.12	5.15	-39.5	-49.9	3.5	3.04e+01	0	41	104	0	54	17078
2026-01-19 16:26:02.19	20.13	5.22	-41.4	-52.1	3.5	3.04e+01	0	41	104	0	58	17351
2026-01-19 16:26:03.20	20.13	5.30	-41.5	-52.2	3.5	3.04e+01	0	41	104	0	58	17591
2026-01-19 16:26:04.21	20.13	5.38	-48.9	-66.0	3.5	3.04e+01	0	41	104	0	60	76445
2026-01-19 16:26:05.22	20.14	5.45	-40.3	-50.8	3.5	3.04e+01	0	41	104	0	58	15046
2026-01-19 16:26:06.23	20.14	5.53	-48.8	-65.5	3.5	3.04e+01	0	41	104	0	60	72343
2026-01-19 16:26:07.24	20.15	5.61	-38.9	-49.3	3.5	3.04e+01	0	41	104	0	52	17812
2026-01-19 16:26:08.25	20.15	5.68	-38.9	-49.3	3.5	3.04e+01	0	41	104	0	52	17752
2026-01-19 16:26:09.26	20.15	5.76	-38.8	-49.1	3.5	3.04e+01	0	41	104	0	52	17437
2026-01-19 16:26:10.27	20.16	5.84	-39.3	-49.7	3.5	3.04e+01	0	41	104	0	52	18617
2026-01-19 16:26:11.28	20.16	5.92	-48.6	-64.9	3.5	3.04e+01	0	41	104	0	60	67432
2026-01-19 16:26:12.29	20.16	6.00	-41.4	-52.1	3.5	3.04e+01	0	41	104	0	58	17458
2026-01-19 16:26:13.30	20.17	6.07	-48.9	-65.7	3.5	3.04e+01	0	41	104	0	60	74240
2026-01-19 16:26:14.31	20.17	6.15	-41.5	-52.2	3.5	3.04e+01	0	41	104	0	60	15640
2026-01-19 16:26:15.32	20.17	6.23	-49.1	-66.6	3.5	3.04e+01	0	41	104	0	60	82028
2026-01-19 16:26:16.33	20.18	6.31	-42.3	-53.2	3.5	3.04e+01	0	41	104	0	58	19637
2026-01-19 16:26:17.34	20.18	6.39	-42.2	-53.1	3.5	3.04e+01	0	41	104	0	58	19442
2026-01-19 16:26:18.35	20.19	6.47	-41.8	-52.6	3.5	3.04e+01	0	41	104	0	58	18323
2026-01-19 16:26:19.36	20.19	6.55	-43.5	-54.6	3.5	3.04e+01	0	41	104	0	58	23237
2026-01-19 16:26:20.36	20.19	6.63	-48.1	-62.7	3.5	3.04e+01	0	41	104	0	60	52739
2026-01-19 16:26:21.37	20.20	6.71	-41.3	-51.9	3.5	3.04e+01	0	41	104	0	56	19015
2026-01-19 16:26:22.38	20.20	6.79	-46.8	-59.5	3.5	3.04e+01	0	41	104	0	60	36269
2026-01-19 16:26:23.39	20.20	6.88	-38.7	-49.1	3.5	3.04e+01	0	41	104	0	52	17321
2026-01-19 16:26:24.40	20.21	6.96	-48.6	-64.2	3.5	3.04e+01	0	41	104	0	60	62570
2026-01-19 16:26:25.41	20.21	7.04	-40.4	-51.0	3.5	3.04e+01	0	41	104	0	56	17202
2026-01-19 16:26:26.42	20.21	7.12	-39.5	-50.0	3.5	3.04e+01	0	41	104	0	54	17189
2026-01-19 16:26:27.43	20.22	7.20	-40.0	-50.5	3.5	3.04e+01	0	41	104	0	54	18282
2026-01-19 16:26:28.44	20.22	7.29	-41.9	-52.7	3.5	3.04e+01	0	41	104	0	54	23325
2026-01-19 16:26:29.45	20.22	7.37	-47.3	-60.7	3.6	3.04e+01	0	41	104	0	60	41627
2026-01-19 16:26:30.46	20.23	7.45	-40.9	-51.5	3.5	3.04e+01	0	41	104	0	56	18229
2026-01-19 16:26:31.47	20.23	7.54	-46.1	-58.1	3.5	3.04e+01	0	41	104	0	60	31015
2026-01-19 16:26:32.48	20.24	7.62	-38.7	-49.0	3.5	3.04e+01	0	41	104	0	52	17246
2026-01-19 16:26:33.49	20.24	7.71	-46.1	-58.4	3.5	3.04e+01	0	41	104	0	60	31975
2026-01-19 16:26:34.50	20.24	7.79	-39.6	-50.0	3.5	3.04e+01	0	41	104	0	54	17249
2026-01-19 16:26:35.51	20.25	7.88	-38.7	-49.1	3.5	3.04e+01	0	41	104	0	52	17348
2026-01-19 16:26:36.52	20.25	7.96	-38.6	-48.9	3.5	3.04e+01	0	41	104	0	52	17034
2026-01-19 16:26:37.53	20.25	8.05	-40.2	-50.7	3.4	3.04e+01	0	41	104	0	52	20868
2026-01-19 16:26:38.54	20.26	8.13	-38.6	-49.0	3.5	3.04e+01	0	41	104	0	54	15258
2026-01-19 16:26:39.55	20.26	8.22	-43.8	-54.9	3.5	3.04e+01	0	41	104	0	58	23889
2026-01-19 16:26:40.56	20.26	8.31	-43.9	-55.1	3.5	3.04e+01	0	41	104	0	60	21870
2026-01-19 16:26:41.57	20.27	8.39	-43.3	-54.2	3.5	3.04e+01	0	41	104	0	54	27924
2026-01-19 16:26:42.58	20.27	8.48	-46.5	-58.8	3.6	3.04e+01	0	41	104	0	60	33446
2026-01-19 16:26:43.58	20.27	8.57	-41.4	-52.0	3.5	3.04e+01	0	41	104	0	58	17210
2026-01-19 16:26:44.60	20.28	8.66	-40.0	-50.5	3.5	3.04e+01	0	41	104	0	56	16168
2026-01-19 16:26:45.60	20.28	8.75	-39.1	-49.5	3.5	3.04e+01	0	41	104	0	54	16180
2026-01-19 16:26:46.61	20.28	8.83	-45.1	-56.7	3.5	3.04e+01	0	41	104	0	58	29419
2026-01-19 16:26:47.62	20.29	8.92	-43.7	-54.9	3.6	3.04e+01	0	41	104	0	60	21288
2026-01-19 16:26:48.63	20.29	9.01	-43.6	-54.7	3.5	3.04e+01	0	41	104	0	56	26263
2026-01-19 16:26:49.64	20.30	9.10	-41.6	-52.3	3.5	3.04e+01	0	41	104	0	58	17736
2026-01-19 16:26:50.65	20.30	9.19	-42.9	-53.6	3.5	3.04e+01	0	41	104	0	52	29307
2026-01-19 16:26:51.66	20.30	9.28	-43.1	-54.1	3.6	3.04e+01	0	41	104	0	60	19416
2026-01-19 16:26:52.67	20.31	9.37	-39.3	-49.6	3.5	3.04e+01	0	41	104	0	54	16399
2026-01-19 16:26:53.68	20.31	9.47	-38.7	-49.0	3.5	3.04e+01	0	41	104	0	52	17201
2026-01-19 16:26:54.69	20.31	9.56	-39.5	-49.9	3.5	3.04e+01	0	41	104	0	52	18963
2026-01-19 16:26:55.70	20.32	9.65	-41.8	-52.4	3.5	3.04e+01	0	41	104	0	52	25324
2026-01-19 16:26:56.71	20.32	9.74	-38.2	-48.4	3.5	3.04e+01	0	41	104	0	50	18087
2026-01-19 16:26:57.72	20.32	9.83	-48.2	-61.8	3.5	3.04e+01	0	41	104	0	60	47371
2026-01-19 16:26:58.73	20.33	9.93	-41.7	-52.4	3.5	3.04e+01	0	41	104	0	58	18034
2026-01-19 16:26:59.74	20.33	10.02	-48.0	-61.7	3.5	3.04e+01	0	41	104	0	60	46743
2026-01-19 16:27:00.75	20.33	10.12	-41.0	-51.5	3.5	3.04e+01	0	41	104	0	60	14460
2026-01-19 16:27:01.76	20.34	10.21	-38.4	-48.8	3.6	3.04e+01	0	41	104	0	52	16767
2026-01-19 16:27:02.77	20.34	10.30	-38.6	-48.9	3.6	3.04e+01	0	41	104	0	52	16997
2026-01-19 16:27:03.78	20.34	10.40	-38.7	-49.1	3.5	3.04e+01	0	41	104	0	52	17316
2026-01-19 16:27:04.79	20.35	10.50	-43.2	-54.3	3.5	3.04e+01	0	41	104	0	58	22279
2026-01-19 16:27:05.80	20.35	10.59	-38.2	-48.5	3.5	3.04e+01	0	41	104	0	50	18236
2026-01-19 16:27:06.81	20.35	10.69	-49.1	-65.2	3.5	3.04e+01	0	41	104	0	60	69641
2026-01-19 16:27:07.82	20.36	10.79	-41.7	-52.5	3.6	3.04e+01	0	41	104	0	56	20337
2026-01-19 16:27:08.83	20.36	10.88	-48.7	-63.6	3.5	3.04e+01	0	41	104	0	60	58042
2026-01-19 16:27:09.84	20.36	10.98	-40.1	-50.6	3.5	3.04e+01	0	41	104	0	56	16432
2026-01-19 16:27:10.84	20.37	11.08	-38.0	-48.3	3.5	3.04e+01	0	41	104	0	52	15808
2026-01-19 16:27:11.85	20.37	11.18	-38.1	-48.4	3.6	3.04e+01	0	41	104	0	50	18009
2026-01-19 16:27:12.86	20.37	11.28	-37.9	-48.2	3.5	3.04e+01	0	41	104	0	50	17688
2026-01-19 16:27:13.87	20.38	11.37	-44.9	-56.4	3.5	3.04e+01	0	41	104	0	60	25284
2026-01-19 16:27:14.88	20.38	11.47	-39.4	-49.8	3.6	3.04e+01	0	41	104	0	50	21167
2026-01-19 16:27:15.89	20.38	11.58	-49.5	-67.0	3.5	3.04e+01	0	41	104	0	60	85769
2026-01-19 16:27:16.90	20.39	11.68	-42.4	-53.2	3.5	3.04e+01	0	41	104	0	58	19788
2026-01-19 16:27:17.91	20.39	11.78	-49.3	-67.0	3.5	3.04e+01	0	41	104	0	60	86214
2026-01-19 16:27:18.92	20.39	11.88	-39.3	-49.6	3.5	3.04e+01	0	41	104	0	56	14646
2026-01-19 16:27:19.93	20.40	11.98	-38.1	-48.4	3.5	3.04e+01	0	41	104	0	52	15958
2026-01-19 16:27:20.94	20.40	12.08	-37.7	-48.0	3.5	3.04e+01	0	41	104	0	50	17167
2026-01-19 16:27:21.95	20.40	12.19	-37.2	-47.4	3.5	3.04e+01	0	41	104	0	50	16130
2026-01-19 16:27:22.96	20.41	12.29	-45.0	-56.4	3.5	3.04e+01	0	41	104	0	60	25545
2026-01-19 16:27:23.97	20.41	12.40	-39.3	-49.6	3.5	3.04e+01	0	41	104	0	50	20737
2026-01-19 16:27:24.98	20.41	12.50	-49.5	-66.9	3.5	3.04e+01	0	41	104	0	60	84787
2026-01-19 16:27:25.99	20.42	12.61	-42.1	-52.8	3.5	3.04e+01	0	41	104	0	58	18781
2026-01-19 16:27:27.00	20.42	12.71	-49.7	-67.1	3.5	3.04e+01	0	41	104	0	60	87394
2026-01-19 16:27:28.01	20.42	12.82	-38.5	-48.8	3.5	3.04e+01	0	41	104	0	52	16874
2026-01-19 16:27:29.02	20.43	12.92	-38.2	-48.5	3.5	3.04e+01	0	41	104	0	52	16141
2026-01-19 16:27:30.02	20.43	13.03	-37.2	-47.5	3.5	3.04e+01	0	41	104	0	50	16162
2026-01-19 16:27:31.03	20.43	13.14	-37.0	-47.3	3.5	3.04e+01	0	41	104	0	50	15773
2026-01-19 16:27:32.04	20.43	13.25	-48.7	-63.5	3.5	3.04e+01	0	41	104	0	60	57618
2026-01-19 16:27:33.05	20.44	13.36	-39.4	-49.8	3.5	3.04e+01	0	41	104	0	50	21154
2026-01-19 16:27:34.06	20.44	13.47	-49.5	-66.5	3.5	3.04e+01	0	41	104	0	60	81696
2026-01-19 16:27:35.07	20.44	13.58	-44.0	-55.2	3.5	3.04e+01	0	41	104	0	60	22067
2026-01-19 16:27:36.08	20.45	13.69	-49.7	-67.2	3.5	3.04e+01	0	41	104	0	60	88028
2026-01-19 16:27:37.09	20.45	13.80	-39.9	-50.4	3.5	3.04e+01	0	41	104	0	54	17933
2026-01-19 16:27:38.10	20.45	13.91	-39.4	-49.8	3.5	3.04e+01	0	41	104	0	54	16717
2026-01-19 16:27:39.11	20.46	14.02	-38.6	-48.9	3.6	3.04e+01	0	41	104	0	52	16922
2026-01-19 16:27:40.12	20.46	14.13	-38.1	-48.4	3.6	3.04e+01	0	41	104	0	52	16058
2026-01-19 16:27:41.13	20.46	14.25	-43.5	-54.5	3.5	3.04e+01	0	41	104	0	60	20511
2026-01-19 16:27:42.14	20.47	14.36	-38.5	-48.9	3.5	3.04e+01	0	41	104	0	52	16993
2026-01-19 16:27:43.15	20.47	14.48	-49.6	-66.9	3.5	3.04e+01	0	41	104	0	60	85473
2026-01-19 16:27:44.16	20.47	14.59	-39.7	-50.2	3.6	3.04e+01	0	41	104	0	58	13904
2026-01-19 16:27:45.17	20.48	14.71	-49.7	-67.3	3.5	3.04e+01	0	41	104	0	60	88872
2026-01-19 16:27:46.18	20.48	14.82	-38.3	-48.6	3.5	3.04e+01	0	41	104	0	52	16382
2026-01-19 16:27:47.19	20.48	14.94	-37.5	-47.7	3.5	3.04e+01	0	41	104	0	50	16693
2026-01-19 16:27:48.20	20.48	15.06	-37.0	-47.3	3.5	3.04e+01	0	41	104	0	50	15783
2026-01-19 16:27:49.20	20.49	15.18	-37.0	-47.2	3.6	3.04e+01	0	41	104	0	48	17684
2026-01-19 16:27:50.21	20.49	15.29	-44.7	-56.1	3.6	3.04e+01	0	41	104	0	60	24639
2026-01-19 16:27:51.22	20.49	15.41	-38.6	-48.9	3.5	3.04e+01	0	41	104	0	52	17019
2026-01-19 16:27:52.24	20.50	15.54	-49.8	-67.0	3.5	3.04e+01	0	41	104	0	60	85896
2026-01-19 16:27:53.24	20.50	15.65	-39.0	-49.3	3.5	3.04e+01	0	41	104	0	58	12612
2026-01-19 16:27:54.25	20.50	15.78	-49.8	-67.3	3.5	3.04e+01	0	41	104	0	60	89596
2026-01-19 16:27:55.26	20.51	15.90	-37.9	-48.2	3.5	3.04e+01	0	41	104	0	52	15609
2026-01-19 16:27:56.27	20.51	16.02	-37.2	-47.4	3.5	3.04e+01	0	41	104	0	50	16083
2026-01-19 16:27:57.28	20.51	16.15	-37.3	-47.6	3.5	3.04e+01	0	41	104	0	50	16396
2026-01-19 16:27:58.29	20.51	16.27	-36.6	-46.8	3.5	3.04e+01	0	41	104	0	48	16830
2026-01-19 16:27:59.30	20.52	16.39	-41.3	-51.9	3.5	3.04e+01	0	41	104	0	60	15153
2026-01-19 16:28:00.31	20.52	16.52	-38.2	-48.4	3.5	3.04e+01	0	41	104	0	52	16123
2026-01-19 16:28:01.32	20.52	16.65	-49.6	-66.3	3.6	3.04e+01	0	41	104	0	60	79074
2026-01-19 16:28:02.33	20.53	16.77	-38.8	-49.1	3.6	3.04e+01	0	41	104	0	56	13816
2026-01-19 16:28:03.34	20.53	16.90	-49.6	-66.3	3.5	3.04e+01	0	41	104	0	60	79303
2026-01-19 16:28:04.35	20.53	17.03	-40.1	-50.4	3.5	3.04e+01	0	41	104	0	56	16102
2026-01-19 16:28:05.36	20.53	17.16	-39.5	-49.8	3.5	3.04e+01	0	41	104	0	54	16813
2026-01-19 16:28:06.37	20.54	17.29	-39.9	-50.3	3.5	3.04e+01	0	41	104	0	54	17786
2026-01-19 16:28:07.38	20.54	17.42	-37.9	-48.1	3.5	3.04e+01	0	41	104	0	54	13795
2026-01-19 16:28:08.39	20.54	17.55	-36.6	-46.7	3.5	3.04e+01	0	41	104	0	48	16691
2026-01-19 16:28:09.40	20.55	17.69	-38.1	-48.3	3.5	3.04e+01	0	41	104	0	52	15895
2026-01-19 16:28:10.41	20.55	17.82	-48.1	-61.4	3.5	3.04e+01	0	41	104	0	60	45419
2026-01-19 16:28:11.42	20.55	17.95	-38.3	-48.6	3.5	3.04e+01	0	41	104	0	52	16501
2026-01-19 16:28:12.43	20.55	18.09	-49.4	-65.4	3.6	3.04e+01	0	41	104	0	60	71335
2026-01-19 16:28:13.44	20.56	18.22	-39.2	-49.6	3.5	3.04e+01	0	41	104	0	54	16456
2026-01-19 16:28:14.44	20.56	18.36	-39.1	-49.4	3.5	3.04e+01	0	41	104	0	52	18052
2026-01-19 16:28:15.45	20.56	18.50	-38.8	-49.1	3.5	3.04e+01	0	41	104	0	52	17421
2026-01-19 16:28:16.46	20.56	18.63	-38.2	-48.5	3.5	3.04e+01	0	41	104	0	50	18222
2026-01-19 16:28:17.47	20.57	18.77	-46.0	-57.9	3.5	3.04e+01	0	41	104	0	60	30085
2026-01-19 16:28:18.48	20.57	18.91	-38.8	-49.1	3.5	3.04e+01	0	41	104	0	52	17360
2026-01-19 16:28:19.49	20.57	19.05	-44.8	-56.3	3.6	3.04e+01	0	41	104	0	60	25054
2026-01-19 16:28:20.50	20.57	19.20	-40.0	-50.4	3.5	3.04e+01	0	41	104	0	50	22596
2026-01-19 16:28:21.51	20.58	19.34	-42.8	-53.5	3.6	3.04e+01	0	41	104	0	60	18198
2026-01-19 16:28:22.52	20.58	19.48	-37.6	-47.8	3.5	3.04e+01	0	41	104	0	50	16885
2026-01-19 16:28:23.53	20.58	19.63	-36.9	-47.1	3.5	3.04e+01	0	41	104	0	50	15546
2026-01-19 16:28:24.54	20.58	19.77	-36.7	-46.9	3.5	3.04e+01	0	41	104	0	48	16972
2026-01-19 16:28:25.55	20.59	19.92	-38.6	-48.9	3.5	3.04e+01	0	41	104	0	48	21418
2026-01-19 16:28:26.56	20.59	20.07	-40.5	-51.0	3.5	3.04e+01	0	41	104	0	58	15342
2026-01-19 16:28:27.57	20.59	20.21	-42.0	-52.6	3.5	3.04e+01	0	41	104	0	52	25906
2026-01-19 16:28:28.58	20.59	20.36	-44.7	-56.0	3.5	3.04e+01	0	41	104	0	60	24144
2026-01-19 16:28:29.59	20.60	20.51	-42.0	-52.6	3.5	3.04e+01	0	41	104	0	52	26120
2026-01-19 16:28:30.60	20.60	20.67	-45.5	-57.1	3.5	3.04e+01	0	41	104	0	60	27622
2026-01-19 16:28:31.60	20.60	20.82	-40.2	-50.6	3.5	3.04e+01	0	41	104	0	56	16405
2026-01-19 16:28:32.62	20.60	20.97	-38.9	-49.2	3.5	3.04e+01	0	41	104	0	54	15670
2026-01-19 16:28:33.62	20.61	21.12	-38.8	-49.1	3.5	3.04e+01	0	41	104	0	52	17430
2026-01-19 16:28:34.63	20.61	21.28	-42.4	-53.1	3.5	3.04e+01	0	41	104	0	52	27655
2026-01-19 16:28:35.64	20.61	21.43	-46.2	-58.1	3.5	3.04e+01	0	41	104	0	60	30859
2026-01-19 16:28:36.65	20.61	21.59	-48.7	-62.9	3.5	3.04e+01	0	41	104	0	60	53884
2026-01-19 16:28:37.66	20.62	21.75	-40.5	-50.9	3.5	3.04e+01	0	41	104	0	60	13473
2026-01-19 16:28:38.67	20.62	21.91	-43.3	-54.0	3.5	3.04e+01	0	41	104	0	52	30744
2026-01-19 16:28:39.68	20.62	22.07	-41.1	-51.6	3.5	3.04e+01	0	41	104	0	60	14563
2026-01-19 16:28:40.68	20.62	22.23	-38.3	-48.5	3.5	3.04e+01	0	41	104	0	52	16310
2026-01-19 16:28:41.70	20.63	22.40	-37.4	-47.6	3.5	3.04e+01	0	41	104	0	50	16401
2026-01-19 16:28:42.70	20.63	22.56	-37.6	-47.8	3.6	3.04e+01	0	41	104	0	50	16795
2026-01-19 16:28:43.71	20.63	22.72	-40.3	-50.7	3.5	3.04e+01	0	41	104	0	52	20923
2026-01-19 16:28:44.73	20.63	22.89	-38.8	-49.1	3.5	3.04e+01	0	41	104	0	52	17448
2026-01-19 16:28:45.74	20.63	23.06	-48.4	-61.9	3.5	3.04e+01	0	41	104	0	60	47853
2026-01-19 16:28:46.75	20.64	23.23	-41.9	-52.6	3.5	3.04e+01	0	41	104	0	58	18348
2026-01-19 16:28:47.76	20.64	23.40	-48.1	-61.6	3.5	3.04e+01	0	41	104	0	60	46026
2026-01-19 16:28:48.77	20.64	23.57	-40.0	-50.5	3.5	3.04e+01	0	41	104	0	58	14459
2026-01-19 16:28:49.78	20.64	23.74	-37.9	-48.2	3.5	3.04e+01	0	41	104	0	52	15620
2026-01-19 16:28:50.79	20.64	23.91	-37.5	-47.7	3.5	3.04e+01	0	41	104	0	50	16616
2026-01-19 16:28:51.79	20.65	24.09	-37.2	-47.5	3.5	3.04e+01	0	41	104	0	50	16149
2026-01-19 16:28:52.80	20.65	24.26	-46.0	-57.8	3.5	3.04e+01	0	41	104	0	60	29932
2026-01-19 16:28:53.81	20.65	24.44	-39.0	-49.2	3.5	3.04e+01	0	41	104	0	52	17640
2026-01-19 16:28:54.82	20.65	24.62	-48.9	-63.1	3.5	3.04e+01	0	41	104	0	60	55248
2026-01-19 16:28:55.83	20.65	24.80	-44.4	-55.6	3.5	3.04e+01	0	41	104	0	60	23252
2026-01-19 16:28:56.84	20.66	24.98	-50.0	-67.6	3.5	3.04e+01	0	41	104	0	60	91888
2026-01-19 16:28:57.85	20.66	25.17	-44.7	-55.9	3.5	3.04e+01	0	41	104	0	60	23880
2026-01-19 16:28:58.86	20.66	25.35	-44.4	-55.4	3.5	3.04e+01	0	41	104	0	60	22783
2026-01-19 16:28:59.87	20.66	25.54	-44.8	-56.0	3.5	3.04e+01	0	41	104	0	60	24408
2026-01-19 16:29:00.87	20.66	25.72	-44.1	-55.1	3.5	3.04e+01	0	41	104	0	60	21792
2026-01-19 16:29:01.89	20.67	25.91	-41.4	-51.9	3.5	3.04e+01	0	41	104	0	56	19022
2026-01-19 16:29:02.89	20.67	26.10	-49.9	-66.7	3.5	3.04e+01	0	41	104	0	60	82760
2026-01-19 16:29:03.90	20.67	26.29	-44.1	-55.2	3.5	3.04e+01	0	41	104	0	58	24963
2026-01-19 16:29:04.91	20.67	26.48	-39.4	-49.6	3.5	3.04e+01	0	41	104	0	54	16491
2026-01-19 16:29:05.92	20.67	26.68	-49.8	-66.1	3.5	3.04e+01	0	41	104	0	60	77283
2026-01-19 16:29:06.93	20.67	26.87	-39.8	-50.1	3.5	3.04e+01	0	41	104	0	56	15508
2026-01-19 16:29:07.94	20.68	27.07	-38.2	-48.5	3.5	3.04e+01	0	41	104	0	52	16208
2026-01-19 16:29:08.95	20.68	27.27	-38.3	-48.6	3.5	3.04e+01	0	41	104	0	52	16323
2026-01-19 16:29:09.96	20.68	27.47	-38.7	-48.9	3.5	3.04e+01	0	41	104	0	52	17028
2026-01-19 16:29:10.97	20.68	27.67	-41.8	-52.4	3.5	3.04e+01	0	41	104	0	58	18099
2026-01-19 16:29:11.98	20.68	27.88	-45.1	-56.6	3.5	3.04e+01	0	41	104	0	60	26034
2026-01-19 16:29:12.99	20.68	28.08	-49.8	-66.1	3.5	3.04e+01	0	41	104	0	60	77763
2026-01-19 16:29:14.00	20.68	28.29	-39.4	-49.8	3.5	3.04e+01	0	41	104	0	54	16805
2026-01-19 16:29:15.01	20.69	28.50	-50.1	-67.8	3.5	3.04e+01	0	41	104	0	60	94390
2026-01-19 16:29:16.02	20.69	28.71	-37.6	-47.8	3.5	3.04e+01	0	41	104	0	50	16868
2026-01-19 16:29:17.03	20.69	28.92	-37.6	-47.9	3.5	3.04e+01	0	41	104	0	50	16929
2026-01-19 16:29:18.03	20.69	29.13	-36.6	-46.8	3.5	3.04e+01	0	41	104	0	48	16725
2026-01-19 16:29:19.04	20.69	29.35	-36.4	-46.5	3.5	3.04e+01	0	41	104	0	48	16318
2026-01-19 16:29:20.05	20.69	29.57	-48.1	-61.5	3.6	3.04e+01	0	41	104	0	60	45744
2026-01-19 16:29:21.06	20.69	29.79	-40.4	-50.9	3.5	3.04e+01	0	41	104	0	54	19008
2026-01-19 16:29:22.07	20.69	30.01	-50.1	-68.0	3.5	3.04e+01	0	41	104	0	60	96555
2026-01-19 16:29:23.08	20.69	30.23	-44.1	-55.2	3.5	3.04e+01	0	41	104	0	60	22038
2026-01-19 16:29:24.09	20.70	30.45	-49.8	-66.2	3.5	3.04e+01	0	41	104	0	60	78974
2026-01-19 16:29:25.10	20.70	30.68	-42.7	-53.4	3.5	3.04e+01	0	41	104	0	60	18065
2026-01-19 16:29:26.11	20.70	30.91	-41.4	-51.9	3.5	3.04e+01	0	41	104	0	58	16935
2026-01-19 16:29:27.12	20.70	31.14	-41.1	-51.5	3.6	3.04e+01	0	41	104	0	56	18216
2026-01-19 16:29:28.13	20.70	31.37	-41.0	-51.5	3.5	3.04e+01	0	41	104	0	56	18227
2026-01-19 16:29:29.14	20.70	31.61	-38.4	-48.7	3.5	3.04e+01	0	41	104	0	52	16621
2026-01-19 16:29:30.15	20.70	31.84	-50.1	-67.2	3.5	3.04e+01	0	41	104	0	60	87861
2026-01-19 16:29:31.16	20.70	32.08	-42.5	-53.3	3.5	3.04e+01	0	41	104	0	60	17853
2026-01-19 16:29:32.17	20.70	32.32	-40.0	-50.4	3.6	3.04e+01	0	41	104	0	54	17946
2026-01-19 16:29:33.18	20.70	32.57	-49.9	-66.1	3.5	3.04e+01	0	41	104	0	60	77975
2026-01-19 16:29:34.19	20.70	32.81	-39.0	-49.3	3.5	3.04e+01	0	41	104	0	52	17770
2026-01-19 16:29:35.20	20.70	33.06	-38.9	-49.2	3.5	3.04e+01	0	41	104	0	52	17553
2026-01-19 16:29:36.21	20.70	33.31	-38.7	-48.9	3.5	3.04e+01	0	41	104	0	52	17059
2026-01-19 16:29:37.22	20.70	33.56	-38.3	-48.5	3.5	3.04e+01	0	41	104	0	50	18313
2026-01-19 16:29:38.23	20.70	33.81	-48.5	-62.4	3.5	3.04e+01	0	41	104	0	60	50614
2026-01-19 16:29:39.24	20.70	34.07	-41.3	-51.8	3.5	3.04e+01	0	41	104	0	60	14986
2026-01-19 16:29:40.25	20.70	34.33	-49.9	-66.4	3.5	3.04e+01	0	41	104	0	60	80582
2026-01-19 16:29:41.25	20.70	34.59	-39.2	-49.6	3.5	3.04e+01	0	41	104	0	56	14623
2026-01-19 16:29:42.27	20.70	34.85	-50.2	-68.0	3.5	3.04e+01	0	41	104	0	60	96551
2026-01-19 16:29:43.27	20.70	35.11	-40.2	-50.6	3.5	3.04e+01	0	41	104	0	56	16445
2026-01-19 16:29:44.28	20.70	35.38	-39.3	-49.6	3.5	3.04e+01	0	41	104	0	54	16381
2026-01-19 16:29:45.29	20.70	35.65	-38.8	-49.1	3.5	3.04e+01	0	41	104	0	52	17473
2026-01-19 16:29:46.30	20.70	35.92	-38.7	-49.0	3.5	3.04e+01	0	41	104	0	52	17281
2026-01-19 16:29:47.31	20.70	36.20	-40.6	-51.0	3.5	3.04e+01	0	41	104	0	56	17096
2026-01-19 16:29:48.32	20.70	36.48	-41.2	-51.8	3.5	3.04e+01	0	41	104	0	60	14907
2026-01-19 16:29:49.33	20.70	36.76	-50.2	-67.7	3.5	3.04e+01	0	41	104	0	60	92924
2026-01-19 16:29:50.34	20.70	37.04	-43.0	-53.7	3.5	3.04e+01	0	41	104	0	60	18724
2026-01-19 16:29:51.35	20.70	37.32	-50.1	-67.0	3.5	3.04e+01	0	41	104	0	60	86383
2026-01-19 16:29:52.36	20.70	37.61	-43.6	-54.4	3.5	3.04e+01	0	41	104	0	60	20201
2026-01-19 16:29:53.37	20.70	37.90	-43.3	-54.0	3.5	3.04e+01	0	41	104	0	60	19196
2026-01-19 16:29:54.38	20.70	38.20	-42.7	-53.3	3.5	3.04e+01	0	41	104	0	60	17694
2026-01-19 16:29:55.38	20.70	38.49	-42.5	-53.2	3.5	3.04e+01	0	41	104	0	60	17548
2026-01-19 16:29:56.40	20.70	38.79	-47.4	-59.8	3.5	3.04e+01	0	41	104	0	60	37603
2026-01-19 16:29:57.41	20.69	39.09	-46.5	-58.3	3.6	3.04e+01	0	41	104	0	60	31591
2026-01-19 16:29:58.42	20.69	39.40	-41.9	-52.4	3.6	3.04e+01	0	41	104	0	60	16031
2026-01-19 16:29:59.42	20.69	39.70	-39.1	-49.3	3.5	3.04e+01	0	41	104	0	54	15885
2026-01-19 16:30:00.43	20.69	40.01	-49.9	-66.5	3.5	3.04e+01	0	41	104	0	60	81717
2026-01-19 16:30:01.44	20.69	40.32	-40.0	-50.4	3.5	3.04e+01	0	41	104	0	54	17900
2026-01-19 16:30:02.46	20.69	40.64	-39.9	-50.3	3.5	3.04e+01	0	41	104	0	54	17869
2026-01-19 16:30:03.46	20.68	40.96	-39.9	-50.4	3.5	3.04e+01	0	41	104	0	54	18041
2026-01-19 16:30:04.47	20.68	41.28	-39.2	-49.5	3.5	3.04e+01	0	41	104	0	54	16174
2026-01-19 16:30:05.48	20.68	41.61	-42.3	-52.9	3.5	3.04e+01	0	41	104	0	60	17013
2026-01-19 16:30:06.49	20.68	41.93	-41.0	-51.4	3.5	3.04e+01	0	41	104	0	54	20203
2026-01-19 16:30:07.50	20.68	42.27	-45.0	-56.2	3.5	3.04e+01	0	41	104	0	60	24891
2026-01-19 16:30:08.51	20.67	42.60	-40.4	-50.9	3.5	3.04e+01	0	41	104	0	52	21307
2026-01-19 16:30:09.52	20.67	42.94	-47.0	-59.2	3.6	3.04e+01	0	41	104	0	60	34898
2026-01-19 16:30:10.53	20.67	43.28	-39.1	-49.4	3.5	3.04e+01	0	41	104	0	54	16079
2026-01-19 16:30:11.54	20.67	43.62	-38.9	-49.2	3.5	3.04e+01	0	41	104	0	52	17506
2026-01-19 16:30:12.55	20.66	43.97	-38.6	-48.8	3.5	3.04e+01	0	41	104	0	52	16843
2026-01-19 16:30:13.56	20.66	44.32	-43.2	-54.0	3.5	3.04e+01	0	41	104	0	52	30725
2026-01-19 16:30:14.57	20.66	44.67	-48.4	-61.7	3.5	3.04e+01	0	41	104	0	60	46652
2026-01-19 16:30:15.58	20.65	45.03	-41.5	-52.0	3.5	3.04e+01	0	41	104	0	52	24392
2026-01-19 16:30:16.59	20.65	45.39	-47.5	-60.1	3.6	3.04e+01	0	41	104	0	60	38970
2026-01-19 16:30:17.59	20.64	45.75	-45.1	-56.2	3.5	3.04e+01	0	41	104	0	60	24880
2026-01-19 16:30:18.60	20.64	46.12	-50.0	-66.1	3.6	3.04e+01	0	41	104	0	60	77377
2026-01-19 16:30:19.61	20.64	46.49	-47.3	-59.5	3.5	3.04e+01	0	41	104	0	60	36138
2026-01-19 16:30:20.62	20.63	46.86	-47.1	-59.0	3.5	3.04e+01	0	41	104	0	60	34322
2026-01-19 16:30:21.63	20.63	47.24	-47.2	-59.3	3.5	3.04e+01	0	41	104	0	60	35310
2026-01-19 16:30:22.64	20.62	47.62	-38.5	-48.7	3.4	3.04e+01	0	41	104	0	54	14803
2026-01-19 16:30:23.65	20.62	48.01	-48.7	-62.1	3.5	3.04e+01	0	41	104	0	60	49214
2026-01-19 16:30:24.66	20.61	48.40	-38.6	-49.0	3.5	3.04e+01	0	41	104	0	52	17165
2026-01-19 16:30:25.67	20.60	48.79	-41.0	-51.5	3.6	3.04e+01	0	41	104	0	54	20316
2026-01-19 16:30:26.68	20.60	49.19	-46.4	-58.3	3.4	3.04e+01	0	41	104	0	56	39615
2026-01-19 16:30:27.69	20.59	49.59	-39.7	-50.2	3.5	3.04e+01	0	41	104	0	58	13950
2026-01-19 16:30:28.70	20.59	49.99	-38.0	-48.3	3.5	3.04e+01	0	41	104	0	50	17738
2026-01-19 16:30:29.71	20.58	50.40	-37.0	-47.2	3.5	3.04e+01	0	41	104	0	48	17591
2026-01-19 16:30:30.72	20.57	50.81	-36.8	-47.0	3.5	3.04e+01	0	41	104	0	48	17137
2026-01-19 16:30:31.72	20.57	51.22	-42.7	-53.3	3.5	3.04e+01	0	41	104	0	56	22454
2026-01-19 16:30:32.73	20.56	51.64	-39.0	-49.2	3.5	3.04e+01	0	41	104	0	52	17649
2026-01-19 16:30:33.74	20.55	52.06	-46.9	-58.8	3.5	3.04e+01	0	41	104	0	58	37806
2026-01-19 16:30:34.75	20.54	52.49	-42.8	-53.5	3.5	3.04e+01	0	41	104	0	60	18259
2026-01-19 16:30:35.76	20.53	52.92	-47.2	-59.5	3.4	3.04e+01	0	41	104	0	60	36282
2026-01-19 16:30:36.77	20.52	53.35	-38.8	-49.1	3.5	3.04e+01	0	41	104	0	56	13843
2026-01-19 16:30:37.78	20.51	53.79	-37.6	-47.8	3.5	3.04e+01	0	41	104	0	50	16878
2026-01-19 16:30:38.79	20.50	54.24	-37.3	-47.5	3.5	3.04e+01	0	41	104	0	50	16264
2026-01-19 16:30:39.80	20.49	54.68	-36.6	-46.8	3.5	3.04e+01	0	41	104	0	48	16828
2026-01-19 16:30:40.81	20.48	55.13	-48.2	-61.4	3.5	3.04e+01	0	41	104	0	60	45234
2026-01-19 16:30:41.82	20.47	55.59	-39.6	-49.9	3.4	3.04e+01	0	41	104	0	52	19072
2026-01-19 16:30:42.83	20.46	56.05	-48.9	-62.6	3.5	3.04e+01	0	41	104	0	60	51917
2026-01-19 16:30:43.84	20.45	56.51	-48.2	-61.2	3.5	3.04e+01	0	41	104	0	60	44281
2026-01-19 16:30:44.85	20.43	56.98	-50.3	-67.4	3.5	3.04e+01	0	41	104	0	60	90238
2026-01-19 16:30:45.86	20.42	57.45	-45.8	-57.2	3.5	3.04e+01	0	41	104	0	60	27774
2026-01-19 16:30:46.87	20.41	57.92	-45.1	-56.3	3.5	3.04e+01	0	41	104	0	60	25046
2026-01-19 16:30:47.88	20.39	58.40	-45.1	-56.3	3.5	3.04e+01	0	41	104	0	60	25144
2026-01-19 16:30:48.88	20.38	58.88	-44.9	-56.0	3.5	3.04e+01	0	41	104	0	60	24403
2026-01-19 16:30:49.89	20.36	59.36	-40.7	-51.3	3.5	3.04e+01	0	41	104	0	54	19898
2026-01-19 16:30:50.90	20.34	59.86	-50.2	-67.3	3.5	3.04e+01	0	41	104	0	60	89052
2026-01-19 16:30:51.91	20.33	60.35	-44.7	-55.9	3.5	3.04e+01	0	41	104	0	58	26916
2026-01-19 16:30:52.92	20.31	60.85	-44.9	-56.0	3.5	3.04e+01	0	41	104	0	60	24412
2026-01-19 16:30:53.93	20.29	61.35	-49.8	-65.5	3.5	3.04e+01	0	41	104	0	60	72706
2026-01-19 16:30:54.94	20.27	61.86	-42.3	-52.9	3.7	3.04e+01	0	41	104	0	60	16913
2026-01-19 16:30:55.95	20.25	62.37	-41.4	-51.8	3.5	3.04e+01	0	41	104	0	56	18765
2026-01-19 16:30:56.96	20.22	62.89	-42.2	-52.9	3.5	3.04e+01	0	41	104	0	58	19048
2026-01-19 16:30:57.97	20.20	63.40	-41.8	-52.4	3.5	3.04e+01	0	41	104	0	58	18007
2026-01-19 16:30:58.98	20.17	63.93	-50.4	-68.0	3.5	3.04e+01	0	41	104	0	60	96318
2026-01-19 16:30:59.99	20.15	64.45	-48.7	-62.5	3.5	3.04e+01	0	41	104	0	60	51239
2026-01-19 16:31:01.00	20.12	64.99	-50.3	-67.4	3.5	3.04e+01	0	41	104	0	60	89807
2026-01-19 16:31:02.01	20.09	65.52	-45.1	-56.4	3.5	3.04e+01	0	41	104	0	60	25488
2026-01-19 16:31:03.02	20.06	66.06	-50.4	-67.6	3.5	3.04e+01	0	41	104	0	60	92566
2026-01-19 16:31:04.03	20.03	66.60	-42.9	-53.7	3.5	3.04e+01	0	41	104	0	60	18629
2026-01-19 16:31:05.04	19.99	67.15	-42.7	-53.3	3.5	3.04e+01	0	41	104	0	60	17786
2026-01-19 16:31:06.05	19.95	67.70	-42.6	-53.3	3.5	3.04e+01	0	41	104	0	60	17858
2026-01-19 16:31:07.06	19.92	68.25	-42.1	-52.6	3.5	3.04e+01	0	41	104	0	60	16440
2026-01-19 16:31:08.07	19.87	68.81	-48.2	-61.2	3.5	3.04e+01	0	41	104	0	60	44301
2026-01-19 16:31:09.08	19.83	69.37	-49.2	-63.4	3.5	3.04e+01	0	41	104	0	60	57082
2026-01-19 16:31:10.09	19.78	69.93	-50.4	-65.0	3.6	3.04e+01	0	41	104	0	60	68421
2026-01-19 16:31:11.10	19.73	70.50	-47.8	-52.3	15.6	3.04e+01	57	41	104	0	60	15945
2026-01-19 16:31:12.11	19.68	71.07	-50.4	-66.1	3.5	3.04e+01	0	41	104	524288	60	77796
2026-01-19 16:31:13.12	19.62	71.64	-47.7	-51.9	15.9	3.04e+01	48	41	0	524288	60	15208
2026-01-19 16:31:14.13	19.56	72.22	-47.9	-52.3	15.0	3.04e+01	56	41	0	2621440	60	15882
2026-01-19 16:31:15.14	19.49	72.80	-47.3	-50.8	17.1	3.04e+01	58	41	0	4718592	60	13415
2026-01-19 16:31:16.15	19.42	73.38	-46.5	-49.5	18.6	3.04e+01	59	41	0	6291456	60	11468
2026-01-19 16:31:17.16	19.34	73.97	-45.8	-48.4	19.8	3.04e+01	61	41	0	8388608	60	10082
2026-01-19 16:31:18.17	19.26	74.56	-44.2	-46.3	21.5	3.04e+01	48	41	0	10485760	60	7939
2026-01-19 16:31:19.17	19.17	75.15	-44.0	-46.1	21.9	3.04e+01	61	41	0	12058624	60	7743
2026-01-19 16:31:20.18	19.07	75.74	-43.5	-45.4	22.5	3.04e+01	63	41	0	14155776	60	7173
2026-01-19 16:31:21.19	18.96	76.34	-43.1	-45.0	22.8	3.04e+01	46	41	0	15728640	60	6834
2026-01-19 16:31:22.20	18.84	76.94	-42.7	-44.5	23.5	3.04e+01	60	41	0	17825792	60	6446
2026-01-19 16:31:23.21	18.71	77.54	-41.5	-43.1	24.7	3.04e+01	58	41	0	19922944	58	6148
2026-01-19 16:31:24.22	18.56	78.15	-41.6	-43.1	24.7	3.04e+01	61	41	0	21495808	56	6961
2026-01-19 16:31:25.23	18.40	78.75	-40.5	-41.9	25.6	3.04e+01	61	41	0	23592960	56	6041
2026-01-19 16:31:26.24	18.21	79.36	-40.1	-41.6	26.2	3.04e+01	60	41	0	25690112	56	5797
2026-01-19 16:31:27.25	18.01	79.97	-38.7	-40.0	27.6	3.04e+01	58	41	0	27262976	52	6132
2026-01-19 16:31:28.26	17.77	80.59	-38.6	-39.9	27.6	3.04e+01	59	41	0	29360128	52	6018
2026-01-19 16:31:29.27	17.51	81.20	-38.3	-39.5	28.1	3.04e+01	53	41	0	30932992	52	5791
2026-01-19 16:31:30.28	17.20	81.82	-38.6	-39.9	28.2	3.04e+01	59	41	0	33030144	50	6760
2026-01-19 16:31:31.29	16.84	82.44	-38.0	-39.2	28.5	3.04e+01	61	41	0	35127296	50	6246
2026-01-19 16:31:32.30	16.41	83.06	-37.9	-39.1	28.3	3.04e+01	56	41	0	36700160	50	6198
2026-01-19 16:31:33.31	15.90	83.67	-38.4	-39.7	28.3	3.04e+01	58	41	0	38797312	50	6582
2026-01-19 16:31:34.32	15.28	84.30	-38.5	-39.8	28.0	3.04e+01	52	41	0	40370176	50	6711
2026-01-19 16:31:35.32	14.51	84.91	-38.3	-39.6	28.1	3.04e+01	57	41	0	42467328	50	6532
2026-01-19 16:31:36.34	13.50	85.54	-39.1	-40.4	27.9	3.04e+01	58	41	0	44040192	52	6397
2026-01-19 16:31:37.35	12.18	86.16	-37.9	-39.1	28.5	3.04e+01	45	41	0	46137344	52	5526
2026-01-19 16:31:38.36	10.35	86.77	-38.2	-39.5	28.3	3.04e+01	60	41	0	48234496	50	6433
2026-01-19 16:31:39.36	7.69	87.38	-38.3	-39.6	28.6	3.04e+01	57	41	0	49807360	50	6517
2026-01-19 16:31:40.37	3.37	87.99	-36.3	-37.5	29.5	3.04e+01	61	41	0	51904512	48	5745
2026-01-19 16:31:41.38	355.44	88.57	-37.3	-38.5	29.1	3.04e+01	58	41	0	54001664	48	6444
2026-01-19 16:31:42.39	337.60	89.09	-37.2	-38.4	29.4	3.04e+01	51	41	0	55574528	48	6357
2026-01-19 16:31:43.40	293.69	89.37	-37.4	-38.6	29.0	3.04e+01	58	41	0	57671680	50	5828
2026-01-19 16:31:44.41	247.74	89.12	-36.7	-37.9	29.9	3.04e+01	58	41	0	59244544	48	5996
2026-01-19 16:31:45.43	228.56	88.61	-36.9	-38.1	29.7	3.04e+01	48	41	0	61341696	50	5479
2026-01-19 16:31:46.43	220.33	88.03	-37.2	-38.4	29.4	3.04e+01	58	41	0	63438848	48	6365
2026-01-19 16:31:47.44	215.84	87.43	-36.8	-37.9	29.4	3.04e+01	56	41	0	65011712	48	6064
2026-01-19 16:31:48.46	213.05	86.81	-37.6	-38.9	28.6	3.04e+01	56	41	0	67108864	50	6022
2026-01-19 16:31:49.47	211.19	86.19	-38.0	-39.2	28.4	3.04e+01	61	41	0	68681728	50	6260
2026-01-19 16:31:50.48	209.85	85.57	-38.6	-39.8	28.4	3.04e+01	50	41	0	70778880	50	6681
2026-01-19 16:31:51.48	208.84	84.95	-39.0	-40.4	27.7	3.04e+01	58	41	0	72876032	50	7137
2026-01-19 16:31:52.50	208.05	84.33	-38.6	-39.9	28.2	3.04e+01	61	41	0	74448896	52	6001
2026-01-19 16:31:53.51	207.42	83.71	-38.7	-40.0	28.1	3.04e+01	62	41	0	76546048	52	6071
2026-01-19 16:31:54.52	206.90	83.08	-39.1	-40.5	27.7	3.04e+01	58	41	0	78643200	52	6450
2026-01-19 16:31:55.52	206.48	82.47	-37.6	-38.8	28.6	3.04e+01	46	41	0	80216064	52	5334
2026-01-19 16:31:56.54	206.11	81.85	-38.0	-39.3	28.4	3.04e+01	58	41	0	82313216	50	6307
2026-01-19 16:31:57.54	205.80	81.24	-38.6	-39.9	28.3	3.04e+01	57	41	0	83886080	52	6027
2026-01-19 16:31:58.55	205.53	80.62	-37.3	-38.5	29.0	3.04e+01	47	41	0	85983232	50	5743
2026-01-19 16:31:59.56	205.30	80.01	-37.8	-39.1	28.2	3.04e+01	60	41	0	88080384	50	6145
2026-01-19 16:32:00.57	205.09	79.40	-40.2	-41.6	27.1	3.04e+01	61	41	0	89653248	52	7323
2026-01-19 16:32:01.58	204.91	78.79	-39.2	-40.5	27.9	3.04e+01	57	41	0	91750400	54	5731
2026-01-19 16:32:02.59	204.74	78.18	-39.9	-41.3	26.7	3.04e+01	59	41	0	93323264	52	7111
2026-01-19 16:32:03.60	204.59	77.57	-41.1	-42.6	25.9	3.04e+01	57	41	0	95420416	56	6544
2026-01-19 16:32:04.61	204.46	76.97	-41.4	-42.9	25.6	3.04e+01	57	41	0	97517568	56	6771
2026-01-19 16:32:05.62	204.34	76.37	-41.2	-42.6	25.7	3.04e+01	58	41	0	99090432	56	6571
2026-01-19 16:32:06.62	204.23	75.77	-41.9	-43.4	25.5	3.04e+01	45	41	0	101187584	58	6351
2026-01-19 16:32:07.63	204.13	75.18	-41.7	-43.2	25.2	3.04e+01	59	41	0	102760448	58	6277
2026-01-19 16:32:08.64	204.04	74.59	-41.4	-42.8	25.8	3.04e+01	56	41	0	104857600	56	6699
2026-01-19 16:32:09.65	203.95	74.00	-41.2	-42.6	26.0	3.04e+01	57	41	0	106954752	56	6507
2026-01-19 16:32:10.66	203.88	73.41	-40.9	-42.4	25.6	3.04e+01	58	41	0	108527616	56	6362
2026-01-19 16:32:11.67	203.80	72.82	-40.5	-41.8	26.2	3.04e+01	46	41	0	110624768	56	5987
2026-01-19 16:32:12.68	203.74	72.24	-41.2	-42.7	25.7	3.04e+01	58	41	0	112197632	56	6587
2026-01-19 16:32:13.69	203.67	71.66	-41.2	-42.7	25.4	3.04e+01	58	41	0	114294784	58	5923
2026-01-19 16:32:14.70	203.62	71.09	-41.4	-42.9	25.5	3.04e+01	46	41	0	116391936	56	6746
2026-01-19 16:32:15.71	203.56	70.52	-41.8	-43.5	24.5	3.04e+01	62	41	0	117964800	58	6432
2026-01-19 16:32:16.72	203.51	69.95	-41.7	-43.3	24.5	3.04e+01	58	41	0	120061952	58	6347
2026-01-19 16:32:17.73	203.46	69.38	-42.8	-44.5	23.7	3.04e+01	61	41	0	122159104	58	7277
2026-01-19 16:32:18.74	203.42	68.82	-42.3	-44.1	23.7	3.04e+01	61	41	0	123731968	60	6142
2026-01-19 16:32:19.74	203.38	68.27	-42.7	-44.3	24.1	3.04e+01	57	41	0	125829120	60	6314
2026-01-19 16:32:20.76	203.34	67.71	-42.2	-43.8	24.2	3.04e+01	60	41	0	127401984	60	5978
2026-01-19 16:32:21.76	203.30	67.16	-42.5	-44.1	23.9	3.04e+01	58	41	0	129499136	60	6204
2026-01-19 16:32:22.77	203.27	66.62	-42.6	-44.2	23.7	3.04e+01	57	41	0	131596288	60	6262
2026-01-19 16:32:23.78	203.23	66.07	-42.8	-44.5	24.4	3.04e+01	60	41	0	133169152	60	6431
2026-01-19 16:32:24.79	203.20	65.53	-40.9	-42.4	25.3	3.04e+01	46	41	0	135266304	58	5660
2026-01-19 16:32:25.80	203.17	65.00	-40.8	-42.2	26.1	3.04e+01	60	41	0	136839168	56	6268
2026-01-19 16:32:26.81	203.14	64.46	-40.6	-42.1	26.1	3.04e+01	60	41	0	138936320	56	6141
2026-01-19 16:32:27.82	203.12	63.94	-40.9	-42.3	26.3	3.04e+01	44	41	0	141033472	56	6327
2026-01-19 16:32:28.83	203.09	63.41	-40.0	-41.3	27.0	3.04e+01	60	41	0	142606336	56	5639
2026-01-19 16:32:29.84	203.07	62.89	-40.2	-41.5	27.4	3.04e+01	58	41	0	144703488	54	6487
2026-01-19 16:32:30.85	203.04	62.38	-39.0	-40.2	27.9	3.04e+01	59	41	0	146800640	54	5584
2026-01-19 16:32:31.86	203.02	61.86	-39.3	-40.6	27.7	3.04e+01	60	41	0	148373504	52	6531
2026-01-19 16:32:32.87	203.00	61.35	-40.2	-41.6	27.1	3.04e+01	45	41	0	150470656	52	7320
2026-01-19 16:32:33.88	202.98	60.85	-39.6	-40.9	27.0	3.04e+01	57	41	0	152043520	54	6051
2026-01-19 16:32:34.89	202.96	60.35	-38.4	-39.6	28.7	3.04e+01	58	41	0	154140672	50	6538
2026-01-19 16:32:35.90	202.95	59.85	-38.4	-39.7	28.0	3.04e+01	46	41	0	156237824	50	6624
2026-01-19 16:32:36.91	202.93	59.36	-39.3	-40.6	27.7	3.04e+01	57	41	0	157810688	54	5826
2026-01-19 16:32:37.92	202.91	58.87	-38.9	-40.2	28.0	3.04e+01	56	41	0	159907840	52	6247
2026-01-19 16:32:38.92	202.90	58.39	-38.5	-39.7	28.6	3.04e+01	57	41	0	161480704	52	5866
2026-01-19 16:32:39.93	202.88	57.91	-38.3	-39.5	28.5	3.04e+01	59	41	0	163577856	52	5769
2026-01-19 16:32:40.95	202.87	57.43	-38.3	-39.5	27.3	3.04e+01	60	41	0	165675008	48	7275
2026-01-19 16:32:41.95	202.85	56.96	-38.4	-39.6	28.6	3.04e+01	61	41	0	167247872	50	6551
2026-01-19 16:32:42.96	202.84	56.50	-38.0	-39.2	28.8	3.04e+01	60	41	0	169345024	50	6246
2026-01-19 16:32:43.97	202.83	56.03	-36.8	-37.9	29.3	3.04e+01	49	41	0	170917888	48	6058
2026-01-19 16:32:44.98	202.82	55.57	-36.6	-37.8	29.7	3.04e+01	56	41	0	173015040	48	5936
2026-01-19 16:32:45.99	202.80	55.12	-36.4	-37.6	29.7	3.04e+01	58	41	0	175112192	48	5823
2026-01-19 16:32:47.00	202.79	54.66	-36.0	-37.1	29.8	3.04e+01	61	41	0	176685056	46	6180
2026-01-19 16:32:48.01	202.78	54.22	-35.6	-36.7	30.3	3.04e+01	61	41	0	178782208	46	5887
2026-01-19 16:32:49.02	202.77	53.77	-35.8	-37.0	30.1	3.04e+01	45	41	0	180355072	46	6111
2026-01-19 16:32:50.02	202.76	53.34	-35.9	-37.1	29.9	3.04e+01	58	41	0	182452224	46	6170
2026-01-19 16:32:51.03	202.75	52.90	-36.1	-37.3	29.6	3.04e+01	51	41	0	184549376	46	6314
2026-01-19 16:32:52.04	202.74	52.47	-35.7	-36.9	29.9	3.04e+01	44	41	0	186122240	46	6029
2026-01-19 16:32:53.05	202.74	52.04	-35.8	-36.9	29.8	3.04e+01	58	41	0	188219392	46	6054
2026-01-19 16:32:54.06	202.73	51.62	-35.7	-36.9	29.8	3.04e+01	59	41	0	190316544	46	6026
2026-01-19 16:32:55.07	202.72	51.20	-36.1	-37.2	29.6	3.04e+01	61	41	0	191889408	46	6271
2026-01-19 16:32:56.08	202.71	50.78	-36.4	-37.7	29.2	3.04e+01	59	41	0	193986560	46	6582
2026-01-19 16:32:57.09	202.71	50.37	-36.4	-37.6	29.3	3.04e+01	59	41	0	195559424	46	6499
2026-01-19 16:32:58.10	202.70	49.96	-36.3	-37.4	29.4	3.04e+01	55	41	0	197656576	46	6413
2026-01-19 16:32:59.11	202.69	49.55	-36.7	-37.9	29.1	3.04e+01	59	41	0	199753728	46	6798
2026-01-19 16:33:00.12	202.69	49.15	-37.2	-38.5	28.6	3.04e+01	59	41	0	201326592	48	6425
2026-01-19 16:33:01.13	202.68	48.75	-37.3	-38.6	28.3	3.04e+01	59	41	0	203423744	48	6505
2026-01-19 16:33:02.14	202.67	48.36	-37.3	-38.6	28.2	3.04e+01	56	41	0	204996608	48	6515
2026-01-19 16:33:03.15	202.67	47.97	-36.6	-37.8	29.0	3.04e+01	61	41	0	207093760	48	5987
2026-01-19 16:33:04.15	202.66	47.59	-36.8	-38.1	28.9	3.04e+01	61	41	0	209190912	48	6142
2026-01-19 16:33:05.16	202.66	47.20	-36.7	-37.9	28.9	3.04e+01	48	41	0	210763776	48	6060
2026-01-19 16:33:06.17	202.65	46.82	-36.8	-38.1	28.8	3.04e+01	61	41	0	212860928	48	6140
2026-01-19 16:33:07.18	202.65	46.45	-36.5	-37.7	29.2	3.04e+01	56	41	0	214433792	48	5915
2026-01-19 16:33:08.19	202.64	46.08	-36.6	-37.8	29.2	3.04e+01	57	41	0	216530944	48	5981
2026-01-19 16:33:09.20	202.64	45.71	-36.8	-38.0	29.1	3.04e+01	59	41	0	218628096	48	6129
2026-01-19 16:33:10.21	202.63	45.34	-36.7	-37.9	29.3	3.04e+01	46	41	0	220200960	48	6064
2026-01-19 16:33:11.22	202.63	44.98	-36.7	-37.9	29.3	3.04e+01	60	41	0	222298112	48	6045
2026-01-19 16:33:12.23	202.63	44.62	-36.8	-38.0	29.2	3.04e+01	56	41	0	223870976	48	6105
2026-01-19 16:33:13.24	202.62	44.27	-37.2	-38.4	28.9	3.04e+01	50	41	0	225968128	48	6403
2026-01-19 16:33:14.25	202.62	43.91	-37.1	-38.4	28.7	3.04e+01	60	41	0	228065280	48	6376
2026-01-19 16:33:15.26	202.62	43.57	-36.8	-38.1	28.8	3.04e+01	58	41	0	229638144	48	6138
2026-01-19 16:33:16.26	202.61	43.22	-36.8	-38.0	29.0	3.04e+01	59	41	0	231735296	48	6075
2026-01-19 16:33:17.27	202.61	42.88	-36.5	-37.7	29.3	3.04e+01	61	41	0	233308160	48	5883
2026-01-19 16:33:18.28	202.61	42.54	-36.7	-37.9	29.2	3.04e+01	51	41	0	235405312	48	6030
2026-01-19 16:33:19.29	202.60	42.21	-36.9	-38.1	29.0	3.04e+01	57	41	0	237502464	48	6161
2026-01-19 16:33:20.30	202.60	41.88	-37.4	-38.6	28.7	3.04e+01	59	41	0	239075328	48	6535
2026-01-19 16:33:21.31	202.60	41.55	-37.9	-39.2	28.2	3.04e+01	53	41	0	241172480	48	7017
2026-01-19 16:33:22.32	202.60	41.22	-38.2	-39.5	28.0	3.04e+01	60	41	0	243269632	50	6486
2026-01-19 16:33:23.33	202.59	40.90	-38.2	-39.5	28.0	3.04e+01	57	41	0	244842496	50	6456
2026-01-19 16:33:24.34	202.59	40.58	-38.1	-39.4	28.0	3.04e+01	63	41	0	246939648	50	6379
2026-01-19 16:33:25.35	202.59	40.26	-38.1	-39.4	28.0	3.04e+01	60	41	0	248512512	50	6372
2026-01-19 16:33:26.36	202.59	39.95	-38.1	-39.4	27.9	3.04e+01	50	41	0	250609664	50	6394
2026-01-19 16:33:27.36	202.59	39.64	-38.0	-39.3	27.9	3.04e+01	58	41	0	252706816	50	6296
2026-01-19 16:33:28.37	202.58	39.33	-38.3	-39.6	27.7	3.04e+01	58	41	0	254279680	50	6520
2026-01-19 16:33:29.38	202.58	39.03	-38.4	-39.7	27.6	3.04e+01	45	41	0	256376832	50	6627
2026-01-19 16:33:30.40	202.58	38.72	-38.5	-39.9	27.4	3.04e+01	60	41	0	258473984	50	6737
2026-01-19 16:33:31.40	202.58	38.42	-38.4	-39.7	27.6	3.04e+01	61	41	0	260046848	50	6591
2026-01-19 16:33:32.41	202.58	38.13	-38.1	-39.4	27.8	3.04e+01	60	41	0	262144000	50	6389
2026-01-19 16:33:33.42	202.58	37.83	-38.0	-39.3	28.0	3.04e+01	60	41	0	263716864	50	6321
2026-01-19 16:33:34.43	202.58	37.54	-37.9	-39.2	28.0	3.04e+01	51	41	0	265814016	50	6206
2026-01-19 16:33:35.44	202.58	37.25	-37.9	-39.2	28.1	3.04e+01	59	41	0	267911168	50	6240
2026-01-19 16:33:36.45	202.57	36.97	-38.0	-39.3	27.9	3.04e+01	61	41	0	269484032	50	6294
2026-01-19 16:33:37.46	202.57	36.68	-38.1	-39.3	28.0	3.04e+01	51	41	0	271581184	50	6339
2026-01-19 16:33:38.47	202.57	36.40	-37.7	-39.0	28.1	3.04e+01	61	41	0	273154048	50	6111
2026-01-19 16:33:39.48	202.57	36.12	-37.6	-38.9	28.3	3.04e+01	46	41	0	275251200	50	6032
2026-01-19 16:33:40.49	202.57	35.85	-37.2	-38.4	28.7	3.04e+01	59	41	0	277348352	50	5678
2026-01-19 16:33:41.50	202.57	35.57	-37.0	-38.2	28.9	3.04e+01	58	41	0	278921216	50	5577
2026-01-19 16:33:42.51	202.57	35.30	-37.0	-38.2	28.8	3.04e+01	52	41	0	281018368	48	6227
2026-01-19 16:33:43.52	202.57	35.03	-36.7	-37.9	29.3	3.04e+01	58	41	0	282591232	48	5995
2026-01-19 16:33:44.53	202.57	34.77	-36.8	-38.0	29.2	3.04e+01	62	41	0	284688384	48	6132
2026-01-19 16:33:45.54	202.57	34.50	-37.0	-38.2	29.1	3.04e+01	60	41	0	286785536	48	6241
2026-01-19 16:33:46.55	202.57	34.24	-36.9	-38.1	28.9	3.04e+01	59	41	0	288358400	48	6179
2026-01-19 16:33:47.56	202.57	33.98	-36.9	-38.2	29.0	3.04e+01	45	41	0	290455552	48	6211
2026-01-19 16:33:48.57	202.57	33.73	-36.8	-38.0	29.3	3.04e+01	58	41	0	292028416	48	6070
2026-01-19 16:33:49.58	202.57	33.47	-36.5	-37.7	29.5	3.04e+01	60	41	0	294125568	48	5869
2026-01-19 16:33:50.59	202.57	33.22	-36.5	-37.7	29.3	3.04e+01	47	41	0	296222720	48	5919
2026-01-19 16:33:51.60	202.57	32.97	-36.7	-37.9	29.0	3.04e+01	58	41	0	297795584	48	6005
2026-01-19 16:33:52.60	202.57	32.72	-36.1	-37.3	29.5	3.04e+01	59	41	0	299892736	48	5650
2026-01-19 16:33:53.61	202.57	32.48	-36.0	-37.2	29.7	3.04e+01	56	41	0	301465600	48	5575
2026-01-19 16:33:54.62	202.57	32.23	-36.1	-37.3	29.6	3.04e+01	53	41	0	303562752	48	5640
2026-01-19 16:33:55.63	202.57	31.99	-36.2	-37.3	29.6	3.04e+01	58	41	0	305659904	48	5656
2026-01-19 16:33:56.64	202.57	31.75	-36.2	-37.3	29.7	3.04e+01	58	41	0	307232768	48	5658
2026-01-19 16:33:57.65	202.57	31.52	-36.2	-37.4	29.6	3.04e+01	59	41	0	309329920	48	5707
2026-01-19 16:33:58.66	202.57	31.28	-36.4	-37.6	29.6	3.04e+01	52	41	0	311427072	48	5815
2026-01-19 16:33:59.67	202.57	31.05	-35.8	-37.0	29.9	3.04e+01	60	41	0	312999936	46	6066
2026-01-19 16:34:00.68	202.57	30.82	-36.0	-37.2	29.7	3.04e+01	61	41	0	315097088	46	6246
2026-01-19 16:34:01.69	202.57	30.59	-35.8	-37.0	29.7	3.04e+01	56	41	0	316669952	46	6115
2026-01-19 16:34:02.70	202.57	30.36	-36.0	-37.2	29.6	3.04e+01	60	41	0	318767104	46	6246
2026-01-19 16:34:03.71	202.57	30.13	-35.8	-37.0	29.7	3.04e+01	46	41	0	320864256	46	6103
2026-01-19 16:34:04.72	202.57	29.91	-35.9	-37.1	29.8	3.04e+01	57	41	0	322437120	46	6160
2026-01-19 16:34:05.73	202.57	29.69	-36.1	-37.3	29.6	3.04e+01	59	41	0	324534272	46	6336
2026-01-19 16:34:06.74	202.58	29.47	-36.3	-37.5	29.5	3.04e+01	47	41	0	326631424	46	6478
2026-01-19 16:34:07.75	202.58	29.25	-36.4	-37.6	29.4	3.04e+01	60	41	0	328204288	46	6528
2026-01-19 16:34:08.76	202.58	29.03	-36.5	-37.7	29.3	3.04e+01	60	41	0	330301440	46	6632
2026-01-19 16:34:09.77	202.58	28.82	-36.4	-37.6	29.2	3.04e+01	56	41	0	331874304	46	6549
2026-01-19 16:34:10.78	202.58	28.61	-36.4	-37.6	29.2	3.04e+01	58	41	0	333971456	46	6537
2026-01-19 16:34:11.78	202.58	28.40	-36.4	-37.6	29.2	3.04e+01	54	41	0	335544320	46	6513
2026-01-19 16:34:12.80	202.58	28.18	-36.2	-37.4	29.3	3.04e+01	58	41	0	337641472	46	6403
2026-01-19 16:34:13.80	202.58	27.98	-36.2	-37.4	29.3	3.04e+01	58	41	0	339738624	46	6396
2026-01-19 16:34:14.82	202.58	27.77	-36.1	-37.3	29.4	3.04e+01	61	41	0	341311488	46	6288
2026-01-19 16:34:15.82	202.58	27.57	-36.0	-37.1	29.6	3.04e+01	58	41	0	343408640	46	6198
2026-01-19 16:34:16.83	202.58	27.37	-36.3	-37.5	29.6	3.04e+01	46	41	0	344981504	46	6429
2026-01-19 16:34:17.84	202.59	27.16	-36.3	-37.5	29.5	3.04e+01	58	41	0	347078656	46	6433
2026-01-19 16:34:18.85	202.59	26.96	-36.2	-37.4	29.5	3.04e+01	58	41	0	349175808	46	6358
2026-01-19 16:34:19.86	202.59	26.77	-36.2	-37.4	29.5	3.04e+01	47	41	0	350748672	46	6382
2026-01-19 16:34:20.87	202.59	26.57	-36.0	-37.2	29.6	3.04e+01	58	41	0	352845824	46	6249
2026-01-19 16:34:21.88	202.59	26.38	-36.1	-37.3	29.6	3.04e+01	57	41	0	354942976	46	6285
2026-01-19 16:34:22.89	202.59	26.18	-36.2	-37.4	29.4	3.04e+01	61	41	0	356515840	46	6377
2026-01-19 16:34:23.90	202.59	25.99	-36.3	-37.5	29.5	3.04e+01	60	41	0	358612992	46	6429
2026-01-19 16:34:24.91	202.59	25.80	-36.3	-37.5	29.4	3.04e+01	59	41	0	360185856	46	6460
2026-01-19 16:34:25.92	202.60	25.61	-36.4	-37.6	29.2	3.04e+01	53	41	0	362283008	46	6547
2026-01-19 16:34:26.93	202.60	25.42	-36.6	-37.8	29.1	3.04e+01	58	41	0	364380160	46	6682
2026-01-19 16:34:27.94	202.60	25.24	-36.7	-37.9	29.0	3.04e+01	50	41	0	365953024	46	6780
2026-01-19 16:34:28.95	202.60	25.05	-36.8	-38.1	28.9	3.04e+01	56	41	0	368050176	46	6894
2026-01-19 16:34:29.95	202.60	24.87	-37.1	-38.3	28.7	3.04e+01	60	41	0	369623040	48	6333
2026-01-19 16:34:30.96	202.60	24.69	-37.1	-38.3	28.7	3.04e+01	58	41	0	371720192	48	6329
2026-01-19 16:34:31.97	202.60	24.51	-37.1	-38.3	28.7	3.04e+01	60	41	0	373817344	48	6349
2026-01-19 16:34:32.98	202.61	24.33	-37.2	-38.4	28.6	3.04e+01	51	41	0	375390208	48	6393
2026-01-19 16:34:33.99	202.61	24.15	-37.1	-38.4	28.7	3.04e+01	59	41	0	377487360	48	6352
2026-01-19 16:34:35.00	202.61	23.97	-37.1	-38.4	28.7	3.04e+01	61	41	0	379584512	48	6355
2026-01-19 16:34:36.01	202.61	23.80	-37.0	-38.3	28.7	3.04e+01	48	41	0	381157376	48	6292
2026-01-19 16:34:37.02	202.61	23.62	-37.1	-38.3	28.6	3.04e+01	59	41	0	383254528	48	6335
2026-01-19 16:34:38.03	202.61	23.45	-37.0	-38.2	28.7	3.04e+01	58	41	0	384827392	48	6233
2026-01-19 16:34:39.04	202.62	23.28	-37.0	-38.2	28.7	3.04e+01	61	41	0	386924544	48	6269
2026-01-19 16:34:40.06	202.62	23.11	-37.0	-38.2	28.6	3.04e+01	58	41	0	389021696	48	6268
2026-01-19 16:34:41.07	202.62	22.94	-37.0	-38.3	28.6	3.04e+01	44	41	0	390594560	48	6282
2026-01-19 16:34:42.08	202.62	22.77	-36.9	-38.1	28.7	3.04e+01	60	41	0	392691712	48	6171
2026-01-19 16:34:43.09	202.62	22.60	-37.0	-38.2	28.7	3.04e+01	61	41	0	394264576	48	6220
2026-01-19 16:34:44.10	202.62	22.44	-36.9	-38.1	28.7	3.04e+01	59	41	0	396361728	48	6194
2026-01-19 16:34:45.10	202.63	22.27	-36.9	-38.1	28.8	3.04e+01	60	41	0	398458880	48	6172
2026-01-19 16:34:46.11	202.63	22.11	-36.8	-38.0	28.8	3.04e+01	51	41	0	400031744	48	6098
2026-01-19 16:34:47.12	202.63	21.95	-36.8	-38.1	28.8	3.04e+01	56	41	0	402128896	48	6137
2026-01-19 16:34:48.13	202.63	21.79	-36.8	-38.0	28.8	3.04e+01	61	41	0	403701760	48	6131
2026-01-19 16:34:49.14	202.63	21.63	-36.8	-38.0	28.9	3.04e+01	51	41	0	405798912	48	6111
2026-01-19 16:34:50.15	202.64	21.47	-36.9	-38.2	28.8	3.04e+01	57	41	0	407896064	48	6214
2026-01-19 16:34:51.16	202.64	21.31	-36.7	-37.9	29.0	3.04e+01	60	41	0	409468928	48	6012
2026-01-19 16:34:52.17	202.64	21.15	-36.8	-38.0	28.8	3.04e+01	62	41	0	411566080	48	6134
2026-01-19 16:34:53.18	202.64	21.00	-36.7	-37.9	29.0	3.04e+01	60	41	0	413138944	48	6014
2026-01-19 16:34:54.19	202.64	20.84	-36.7	-37.9	29.0	3.04e+01	45	41	0	415236096	48	6010
2026-01-19 16:34:55.20	202.65	20.69	-36.7	-37.9	29.0	3.04e+01	60	41	0	417333248	48	6023
2026-01-19 16:34:56.21	202.65	20.54	-36.7	-37.9	29.0	3.04e+01	59	41	0	418906112	48	6029
2026-01-19 16:34:57.23	202.65	20.38	-36.7	-37.9	28.9	3.04e+01	43	41	0	421003264	48	6036
2026-01-19 16:34:58.24	202.65	20.23	-36.8	-38.0	28.9	3.04e+01	62	41	0	423100416	48	6104
2026-01-19 16:34:59.25	202.65	20.08	-36.8	-38.1	28.9	3.04e+01	57	41	0	424673280	48	6157
2026-01-19 16:35:00.25	202.66	19.94	-36.8	-38.0	29.0	3.04e+01	56	41	0	426770432	48	6096
2026-01-19 16:35:01.27	202.66	19.79	-36.8	-38.0	28.9	3.04e+01	60	41	0	428343296	48	6132
2026-01-19 16:35:02.28	202.66	19.64	-36.7	-37.9	29.0	3.04e+01	56	41	0	430440448	48	6050
2026-01-19 16:35:03.29	202.66	19.50	-36.7	-37.9	28.9	3.04e+01	60	41	0	432537600	48	6052
2026-01-19 16:35:04.30	202.66	19.35	-36.9	-38.1	28.8	3.04e+01	60	41	0	434110464	48	6162
2026-01-19 16:35:05.31	202.67	19.21	-36.7	-37.9	28.9	3.04e+01	46	41	0	436207616	48	6055
2026-01-19 16:35:06.32	202.67	19.06	-36.8	-38.0	28.9	3.04e+01	59	41	0	437780480	48	6107
2026-01-19 16:35:07.33	202.67	18.92	-36.8	-38.0	28.8	3.04e+01	58	41	0	439877632	48	6133
2026-01-19 16:35:08.34	202.67	18.78	-36.7	-37.9	28.9	3.04e+01	59	41	0	441974784	48	6055
2026-01-19 16:35:09.35	202.67	18.64	-36.8	-38.0	28.8	3.04e+01	60	41	0	443547648	48	6129
2026-01-19 16:35:10.36	202.68	18.50	-36.8	-38.1	28.9	3.04e+01	56	41	0	445644800	48	6143
2026-01-19 16:35:11.37	202.68	18.36	-36.9	-38.2	28.7	3.04e+01	60	41	0	447741952	48	6223
2026-01-19 16:35:12.38	202.68	18.23	-36.8	-38.0	28.8	3.04e+01	58	41	0	449314816	48	6109
2026-01-19 16:35:13.39	202.68	18.09	-36.9	-38.1	28.8	3.04e+01	51	41	0	451411968	48	6187
2026-01-19 16:35:14.40	202.68	17.95	-37.1	-38.4	28.7	3.04e+01	59	41	0	452984832	48	6371
2026-01-19 16:35:15.41	202.69	17.82	-37.1	-38.3	28.6	3.04e+01	60	41	0	455081984	48	6326
2026-01-19 16:35:16.42	202.69	17.68	-37.1	-38.4	28.5	3.04e+01	60	41	0	457179136	48	6394
2026-01-19 16:35:17.43	202.69	17.55	-36.8	-38.1	28.7	3.04e+01	59	41	0	458752000	48	6140
2026-01-19 16:35:18.44	202.69	17.42	-36.9	-38.1	28.7	3.04e+01	52	41	0	460849152	48	6205
2026-01-19 16:35:19.44	202.70	17.29	-36.9	-38.1	28.7	3.04e+01	60	41	0	462422016	48	6190
2026-01-19 16:35:20.45	202.70	17.15	-37.0	-38.3	28.6	3.04e+01	61	41	0	464519168	48	6299
2026-01-19 16:35:21.46	202.70	17.02	-36.9	-38.1	28.7	3.04e+01	60	41	0	466616320	48	6187
2026-01-19 16:35:22.47	202.70	16.89	-36.8	-38.1	28.7	3.04e+01	62	41	0	468189184	48	6158
2026-01-19 16:35:23.48	202.71	16.76	-36.8	-38.0	28.8	3.04e+01	46	41	0	470286336	48	6121
2026-01-19 16:35:24.49	202.71	16.64	-37.0	-38.2	28.6	3.04e+01	58	41	0	472383488	48	6250
2026-01-19 16:35:25.50	202.71	16.51	-36.8	-38.0	28.8	3.04e+01	59	41	0	473956352	48	6115
2026-01-19 16:35:26.51	202.71	16.38	-36.7	-38.0	28.8	3.04e+01	51	41	0	476053504	48	6083
2026-01-19 16:35:27.52	202.71	16.26	-36.7	-38.0	28.8	3.04e+01	62	41	0	477626368	48	6077
2026-01-19 16:35:28.53	202.72	16.13	-36.8	-38.0	28.7	3.04e+01	59	41	0	479723520	48	6094
2026-01-19 16:35:29.54	202.72	16.01	-36.8	-38.0	28.8	3.04e+01	59	41	0	481820672	48	6106
2026-01-19 16:35:30.55	202.72	15.88	-36.7	-38.0	28.9	3.04e+01	60	41	0	483393536	48	6072
2026-01-19 16:35:31.57	202.72	15.76	-36.7	-37.9	28.9	3.04e+01	56	41	0	485490688	48	6009
2026-01-19 16:35:32.57	202.73	15.64	-36.7	-37.9	28.8	3.04e+01	59	41	0	487063552	48	6028
2026-01-19 16:35:33.58	202.73	15.52	-36.7	-37.9	28.8	3.04e+01	61	41	0	489160704	48	6035
2026-01-19 16:35:34.59	202.73	15.39	-36.6	-37.9	28.9	3.04e+01	44	41	0	491257856	48	5997
2026-01-19 16:35:35.60	202.73	15.27	-36.6	-37.8	28.8	3.04e+01	59	41	0	492830720	48	5963
2026-01-19 16:35:36.61	202.74	15.15	-36.5	-37.7	29.0	3.04e+01	60	41	0	494927872	48	5884
2026-01-19 16:35:37.62	202.74	15.03	-36.6	-37.9	28.9	3.04e+01	58	41	0	496500736	48	5998
2026-01-19 16:35:38.63	202.74	14.92	-36.5	-37.7	29.0	3.04e+01	57	41	0	498597888	48	5900
2026-01-19 16:35:39.64	202.74	14.80	-36.6	-37.8	29.0	3.04e+01	44	41	0	500695040	48	5936
2026-01-19 16:35:40.65	202.75	14.68	-36.5	-37.7	28.9	3.04e+01	57	41	0	502267904	48	5874
2026-01-19 16:35:41.66	202.75	14.56	-36.5	-37.7	28.9	3.04e+01	61	41	0	504365056	48	5876
2026-01-19 16:35:42.67	202.75	14.45	-36.4	-37.7	29.0	3.04e+01	51	41	0	505937920	48	5861
2026-01-19 16:35:43.68	202.75	14.33	-36.6	-37.8	28.8	3.04e+01	59	41	0	508035072	48	5952
2026-01-19 16:35:44.69	202.76	14.22	-36.5	-37.7	29.0	3.04e+01	56	41	0	510132224	48	5867
2026-01-19 16:35:45.70	202.76	14.10	-36.6	-37.8	28.9	3.04e+01	58	41	0	511705088	48	5980
2026-01-19 16:35:46.71	202.76	13.99	-36.3	-37.5	29.1	3.04e+01	60	41	0	513802240	48	5788
2026-01-19 16:35:47.72	202.76	13.88	-36.6	-37.8	28.8	3.04e+01	56	41	0	515899392	48	5939
2026-01-19 16:35:48.73	202.77	13.76	-36.4	-37.6	29.0	3.04e+01	60	41	0	517472256	48	5831
2026-01-19 16:35:49.74	202.77	13.65	-36.4	-37.7	29.0	3.04e+01	61	41	0	519569408	48	5863
2026-01-19 16:35:50.75	202.77	13.54	-36.5	-37.7	29.0	3.04e+01	57	41	0	521142272	48	5926
2026-01-19 16:35:51.75	202.77	13.43	-36.4	-37.6	29.1	3.04e+01	59	41	0	523239424	48	5855
2026-01-19 16:35:52.76	202.78	13.32	-36.5	-37.7	29.0	3.04e+01	55	41	0	525336576	48	5904
2026-01-19 16:35:53.77	202.78	13.21	-36.5	-37.7	29.0	3.04e+01	56	41	0	526909440	48	5898
2026-01-19 16:35:54.78	202.78	13.10	-36.6	-37.8	28.8	3.04e+01	60	41	0	529006592	48	5967
2026-01-19 16:35:55.79	202.78	12.99	-36.7	-37.9	28.8	3.04e+01	54	41	0	530579456	48	6020
2026-01-19 16:35:56.79	202.79	12.89	-36.6	-37.8	29.0	3.04e+01	59	41	0	532676608	48	5928
2026-01-19 16:35:57.80	202.79	12.78	-36.7	-37.9	28.8	3.04e+01	58	41	0	534773760	48	6024
2026-01-19 16:35:58.82	202.79	12.67	-36.5	-37.7	29.0	3.04e+01	54	41	0	536346624	48	5925
2026-01-19 16:35:59.82	202.79	12.57	-36.5	-37.7	29.0	3.04e+01	59	41	0	538443776	48	5896
2026-01-19 16:36:00.84	202.80	12.46	-36.6	-37.8	28.9	3.04e+01	56	41	0	540016640	48	5985
2026-01-19 16:36:01.84	202.80	12.35	-36.6	-37.8	28.9	3.04e+01	61	41	0	542113792	48	5955
2026-01-19 16:36:02.85	202.80	12.25	-36.6	-37.8	28.9	3.04e+01	56	41	0	544210944	48	5968
2026-01-19 16:36:03.86	202.80	12.14	-36.6	-37.8	29.0	3.04e+01	46	41	0	545783808	48	5977
2026-01-19 16:36:04.87	202.81	12.04	-36.7	-37.9	28.9	3.04e+01	62	41	0	547880960	48	6016
2026-01-19 16:36:05.88	202.81	11.94	-36.6	-37.8	28.9	3.04e+01	59	41	0	549453824	48	5985
2026-01-19 16:36:06.89	202.81	11.83	-36.5	-37.7	29.0	3.04e+01	60	41	0	551550976	48	5915
2026-01-19 16:36:07.90	202.81	11.73	-36.6	-37.8	28.9	3.04e+01	59	41	0	553648128	48	5981
2026-01-19 16:36:08.91	202.82	11.63	-36.7	-37.9	28.9	3.04e+01	60	41	0	555220992	48	6008
2026-01-19 16:36:09.92	202.82	11.53	-36.7	-37.9	28.8	3.04e+01	58	41	0	557318144	48	6034
2026-01-19 16:36:10.93	202.82	11.43	-36.6	-37.8	28.9	3.04e+01	61	41	0	558891008	48	5979
2026-01-19 16:36:11.94	202.83	11.33	-36.5	-37.7	29.0	3.04e+01	40	41	0	560988160	48	5906
2026-01-19 16:36:12.95	202.83	11.23	-36.6	-37.8	28.9	3.04e+01	59	41	0	563085312	48	5945
2026-01-19 16:36:13.96	202.83	11.13	-36.7	-37.9	28.8	3.04e+01	63	41	0	564658176	48	6033
2026-01-19 16:36:14.97	202.83	11.03	-36.6	-37.9	28.8	3.04e+01	56	41	0	566755328	48	5999
2026-01-19 16:36:15.98	202.84	10.93	-36.7	-37.9	28.8	3.04e+01	58	41	0	568852480	48	5997
2026-01-19 16:36:16.99	202.84	10.83	-36.7	-37.9	28.8	3.04e+01	46	41	0	570425344	48	6031
2026-01-19 16:36:18.00	202.84	10.73	-36.6	-37.9	28.8	3.04e+01	60	41	0	572522496	48	5995
2026-01-19 16:36:19.25	202.84	10.61	-36.8	-38.0	28.7	3.04e+01	59	41	0	574095360	48	6116
2026-01-19 16:36:19.97	202.85	10.54	-36.7	-37.9	28.8	3.04e+01	54	41	0	575668224	48	6056
2026-01-19 16:36:21.27	202.85	10.42	-36.9	-38.1	28.6	3.04e+01	58	41	0	578289664	48	6160
2026-01-19 16:36:22.00	202.85	10.35	-36.8	-38.0	28.7	3.04e+01	58	41	0	579338240	48	6116
2026-01-19 16:36:23.29	202.86	10.23	-36.8	-38.1	28.5	3.04e+01	59	41	0	581959680	48	6137
2026-01-19 16:36:24.01	202.86	10.16	-36.8	-38.0	28.6	3.04e+01	54	41	0	583008256	48	6112
2026-01-19 16:36:25.31	202.86	10.04	-36.8	-38.0	28.6	3.04e+01	56	41	0	585629696	48	6129
2026-01-19 16:36:26.03	202.86	9.97	-36.8	-38.1	28.6	3.04e+01	60	41	0	587202560	48	6148
2026-01-19 16:36:27.33	202.87	9.85	-36.8	-38.1	28.6	3.04e+01	59	41	0	589299712	48	6152
2026-01-19 16:36:28.05	202.87	9.78	-37.0	-38.2	28.4	3.04e+01	55	41	0	590872576	48	6246
2026-01-19 16:36:29.35	202.87	9.66	-37.0	-38.2	28.5	3.04e+01	59	41	0	593494016	48	6270
2026-01-19 16:36:30.07	202.87	9.59	-37.1	-38.3	28.3	3.04e+01	56	41	0	594542592	48	6314
2026-01-19 16:36:31.37	202.88	9.47	-37.0	-38.2	28.4	3.04e+01	59	41	0	597164032	48	6242
2026-01-19 16:36:32.09	202.88	9.41	-37.1	-38.3	28.3	3.04e+01	59	41	0	598212608	48	6350
2026-01-19 16:36:33.39	202.88	9.29	-37.1	-38.4	28.2	3.04e+01	51	41	0	600834048	48	6379
2026-01-19 16:36:34.11	202.88	9.23	-37.2	-38.5	28.1	3.04e+01	59	41	0	602406912	48	6461
2026-01-19 16:36:35.41	202.89	9.11	-37.1	-38.3	28.2	3.04e+01	57	41	0	604504064	48	6327
2026-01-19 16:36:36.13	202.89	9.04	-37.1	-38.4	28.3	3.04e+01	46	41	0	606076928	48	6371
2026-01-19 16:36:37.43	202.89	8.93	-37.2	-38.5	28.0	3.04e+01	59	41	0	608698368	48	6465
2026-01-19 16:36:38.15	202.90	8.86	-37.2	-38.4	28.2	3.04e+01	58	41	0	609746944	48	6421
2026-01-19 16:36:39.45	202.90	8.75	-37.2	-38.4	28.1	3.04e+01	60	41	0	612368384	48	6422
2026-01-19 16:36:40.17	202.90	8.68	-37.3	-38.6	28.0	3.04e+01	57	41	0	613416960	48	6529
2026-01-19 16:36:41.47	202.90	8.57	-37.4	-38.7	27.9	3.04e+01	46	41	0	616038400	48	6622
2026-01-19 16:36:42.19	202.91	8.51	-37.7	-39.0	27.7	3.04e+01	60	41	0	617611264	48	6817
2026-01-19 16:36:43.49	202.91	8.39	-37.8	-39.1	27.6	3.04e+01	60	41	0	619708416	48	6944
2026-01-19 16:36:44.21	202.91	8.33	-37.7	-39.0	27.6	3.04e+01	51	41	0	621281280	48	6872
2026-01-19 16:36:45.51	202.92	8.22	-37.5	-38.8	27.9	3.04e+01	57	41	0	623378432	48	6694
2026-01-19 16:36:46.23	202.92	8.16	-37.7	-39.0	27.7	3.04e+01	59	41	0	624951296	48	6811
2026-01-19 16:36:47.53	202.92	8.04	-37.6	-38.9	27.9	3.04e+01	58	41	0	627572736	48	6732
2026-01-19 16:36:48.26	202.92	7.98	-37.6	-38.9	27.8	3.04e+01	60	41	0	628621312	48	6732
