passes_logs/2026/01/19/R4.6S_Anadyr/R4.6S_Anadyr__20260119_211708_NOAA_21_JPSS-2_rec.log

#Pass ID: 20260119_211708_NOAA 21 (JPSS-2)
#Satellite: NOAA 21 (JPSS-2)
#Configuration: NOAA-21
#almurnet v.1.7.20251203
#Start time: 2026-01-19 21:17:10

#Version: 2.2.20231116
#Station: R4.6S_Anadyr
#Location: 177.4865 lon 64.73178 lat
#TLE: 1 54234U 22150A   26019.31231101  .00000073  00000+0  55355-4 0  9994
#TLE: 2 54234  98.7504 320.1599 0000604 258.3686 101.7423 14.19535697165426

#Time	Az	El	Level	Level2	SNR	BER	BlckErr	Temp	State	Recorded	gain1	gain2
2026-01-19 21:17:10.58	87.17	0.10	-50.3	-65.2	3.3	1.51e+00	0	39	0	0	60	65472
2026-01-19 21:17:11.58	87.11	0.15	-52.9	-65.7	3.5	1.52e+00	0	40	104	0	60	67943
2026-01-19 21:17:12.59	87.05	0.20	-52.6	-65.5	3.5	1.52e+00	0	40	104	0	60	65850
2026-01-19 21:17:13.60	86.98	0.26	-52.3	-65.2	3.5	1.52e+00	0	40	104	0	60	63862
2026-01-19 21:17:14.61	86.92	0.31	-51.9	-64.7	3.5	1.52e+00	0	40	104	0	60	60533
2026-01-19 21:17:15.62	86.85	0.36	-51.8	-64.7	3.5	1.52e+00	0	40	104	0	60	60460
2026-01-19 21:17:16.63	86.79	0.41	-51.5	-64.4	3.5	1.52e+00	0	40	104	0	60	58049
2026-01-19 21:17:17.65	86.72	0.47	-51.4	-64.2	3.5	1.52e+00	0	40	104	0	60	57230
2026-01-19 21:17:18.65	86.66	0.52	-52.1	-64.9	3.5	1.52e+00	0	40	104	0	60	61948
2026-01-19 21:17:19.66	86.59	0.57	-51.5	-64.3	3.5	1.52e+00	0	41	104	0	60	57749
2026-01-19 21:17:20.67	86.53	0.63	-51.3	-64.1	3.5	1.52e+00	0	40	104	0	60	56339
2026-01-19 21:17:21.68	86.46	0.68	-51.2	-64.1	3.5	1.52e+00	0	40	104	0	60	56095
2026-01-19 21:17:22.69	86.39	0.74	-51.0	-63.8	3.5	1.52e+00	0	41	104	0	60	54628
2026-01-19 21:17:23.70	86.33	0.79	-51.1	-63.9	3.5	1.52e+00	0	41	104	0	60	54984
2026-01-19 21:17:24.71	86.26	0.84	-51.1	-64.0	3.5	1.52e+00	0	40	104	0	60	55933
2026-01-19 21:17:25.72	86.19	0.90	-50.9	-63.8	3.5	1.52e+00	0	41	104	0	60	54230
2026-01-19 21:17:26.73	86.13	0.95	-51.0	-64.0	3.5	1.52e+00	0	41	104	0	60	55346
2026-01-19 21:17:27.74	86.06	1.00	-51.0	-63.9	3.5	1.51e+00	0	41	104	0	60	55109
2026-01-19 21:17:28.75	85.99	1.06	-50.9	-63.7	3.5	1.51e+00	0	41	104	0	60	53941
2026-01-19 21:17:29.76	85.92	1.11	-50.7	-63.6	3.5	1.51e+00	0	41	104	0	60	53053
2026-01-19 21:17:30.77	85.85	1.17	-50.5	-63.5	3.5	1.52e+00	0	41	104	0	60	52636
2026-01-19 21:17:31.78	85.79	1.22	-50.1	-63.3	3.5	1.52e+00	0	41	104	0	60	51511
2026-01-19 21:17:32.79	85.72	1.27	-50.3	-63.1	3.5	1.52e+00	0	41	104	0	60	50206
2026-01-19 21:17:33.80	85.65	1.33	-50.1	-62.9	3.5	1.52e+00	0	41	104	0	60	49125
2026-01-19 21:17:34.81	85.58	1.38	-48.9	-62.6	3.5	1.52e+00	0	41	104	0	60	47381
2026-01-19 21:17:35.82	85.51	1.44	-48.8	-62.1	3.5	1.51e+00	0	41	104	0	60	44730
2026-01-19 21:17:36.83	85.44	1.49	-48.9	-61.8	3.5	1.52e+00	0	41	104	0	60	43208
2026-01-19 21:17:37.84	85.37	1.55	-49.0	-61.9	3.5	1.52e+00	0	41	104	0	60	43537
2026-01-19 21:17:38.85	85.30	1.60	-48.8	-61.8	3.5	1.52e+00	0	41	104	0	60	43115
2026-01-19 21:17:39.86	85.23	1.65	-48.9	-61.9	3.5	1.52e+00	0	41	104	0	60	43602
2026-01-19 21:17:40.87	85.16	1.71	-49.0	-62.0	3.5	1.52e+00	0	41	104	0	60	43983
2026-01-19 21:17:41.88	85.09	1.76	-49.0	-61.9	3.5	1.52e+00	0	41	104	0	60	43832
2026-01-19 21:17:42.89	85.01	1.82	-48.9	-61.9	3.5	1.52e+00	0	41	104	0	60	43642
2026-01-19 21:17:43.90	84.94	1.87	-48.9	-61.9	3.5	1.52e+00	0	41	104	0	60	43629
2026-01-19 21:17:44.91	84.87	1.93	-48.9	-61.8	3.5	1.52e+00	0	41	104	0	60	43207
2026-01-19 21:17:45.92	84.80	1.98	-49.1	-61.8	3.5	1.52e+00	0	41	104	0	60	43378
2026-01-19 21:17:46.93	84.72	2.04	-49.1	-61.7	3.5	1.52e+00	0	41	104	0	60	42735
2026-01-19 21:17:47.94	84.65	2.09	-49.0	-61.4	3.5	1.52e+00	0	41	104	0	60	41436
2026-01-19 21:17:48.95	84.58	2.15	-49.1	-61.7	3.5	1.52e+00	0	41	104	0	60	42789
2026-01-19 21:17:49.96	84.50	2.20	-49.0	-61.7	3.5	1.51e+00	0	41	104	0	60	42762
2026-01-19 21:17:50.97	84.43	2.26	-49.0	-61.8	3.5	1.52e+00	0	41	104	0	60	43124
2026-01-19 21:17:51.98	84.36	2.31	-48.9	-61.9	3.5	1.52e+00	0	41	104	0	60	43839
2026-01-19 21:17:52.99	84.28	2.37	-48.9	-61.9	3.5	1.52e+00	0	41	104	0	60	43786
2026-01-19 21:17:54.00	84.21	2.43	-48.9	-61.9	3.5	1.52e+00	0	41	104	0	60	43560
2026-01-19 21:17:55.01	84.13	2.48	-48.9	-61.9	3.5	1.51e+00	0	41	104	0	60	43483
2026-01-19 21:17:56.02	84.06	2.54	-48.9	-61.9	3.5	1.52e+00	0	41	104	0	60	43628
2026-01-19 21:17:57.03	83.98	2.59	-48.9	-61.9	3.5	1.52e+00	0	41	104	0	60	43476
2026-01-19 21:17:58.04	83.91	2.65	-48.8	-61.6	3.5	1.51e+00	0	41	104	0	60	42373
2026-01-19 21:17:59.05	83.83	2.70	-48.9	-60.7	3.5	1.52e+00	0	41	104	0	60	38210
2026-01-19 21:18:00.06	83.75	2.76	-48.8	-60.4	3.5	1.51e+00	0	41	104	0	60	36749
2026-01-19 21:18:01.07	83.68	2.82	-48.8	-60.8	3.5	1.51e+00	0	41	104	0	60	38462
2026-01-19 21:18:02.08	83.60	2.87	-48.8	-60.4	3.5	1.51e+00	0	41	104	0	60	36690
2026-01-19 21:18:03.09	83.52	2.93	-48.8	-61.2	3.5	1.52e+00	0	41	104	0	60	40180
2026-01-19 21:18:04.10	83.44	2.98	-48.6	-58.8	3.6	1.51e+00	0	41	104	0	60	30687
2026-01-19 21:18:05.11	83.37	3.04	-48.0	-55.2	6.3	4.12e-01	123	41	104	0	60	20098
2026-01-19 21:18:06.12	83.29	3.10	-47.5	-52.6	7.9	1.66e-01	120	41	0	2097152	60	14973
2026-01-19 21:18:07.13	83.21	3.15	-46.3	-49.8	11.2	1.17e-02	122	41	0	5242880	60	10827
2026-01-19 21:18:08.14	83.13	3.21	-45.6	-48.5	11.8	1.28e-03	123	41	0	8388608	60	9327
2026-01-19 21:18:09.15	83.05	3.27	-46.2	-49.4	12.3	6.81e-03	123	41	0	11534336	60	10348
2026-01-19 21:18:10.16	82.97	3.32	-41.7	-43.2	17.9	0.00e+00	120	41	0	14680064	56	6415
2026-01-19 21:18:11.17	82.89	3.38	-48.4	-60.9	3.5	1.51e+00	0	41	104	15728640	60	39125
2026-01-19 21:18:12.18	82.81	3.44	-49.0	-59.0	4.6	1.48e+00	0	41	104	15728640	60	31250
2026-01-19 21:18:13.19	82.73	3.49	-43.3	-45.1	16.2	0.00e+00	122	41	0	17825792	60	6314
2026-01-19 21:18:14.20	82.65	3.55	-43.0	-44.9	16.6	0.00e+00	123	41	0	20971520	60	6136
2026-01-19 21:18:15.21	82.57	3.61	-42.6	-44.4	16.9	0.00e+00	123	41	0	24117248	58	6506
2026-01-19 21:18:16.22	82.49	3.66	-41.8	-43.3	17.6	0.00e+00	120	41	0	27262976	56	6467
2026-01-19 21:18:17.23	82.40	3.72	-41.9	-43.4	17.7	0.00e+00	123	41	0	30408704	56	6563
2026-01-19 21:18:18.24	82.32	3.78	-42.5	-44.1	17.5	0.00e+00	120	41	0	33554432	56	7046
2026-01-19 21:18:19.25	82.24	3.83	-42.4	-44.0	17.2	0.00e+00	123	41	0	36700160	56	7003
2026-01-19 21:18:20.26	82.16	3.89	-41.7	-43.2	18.0	0.00e+00	122	41	0	39845888	56	6394
2026-01-19 21:18:21.27	82.07	3.95	-41.6	-43.1	17.8	0.00e+00	123	41	0	42991616	56	6297
2026-01-19 21:18:22.28	81.99	4.00	-41.5	-42.9	18.5	0.00e+00	122	41	0	46137344	56	6184
2026-01-19 21:18:23.29	81.91	4.06	-44.1	-46.2	14.9	0.00e+00	123	41	0	49283072	60	7172
2026-01-19 21:18:24.30	81.82	4.12	-43.3	-45.1	16.5	0.00e+00	122	41	0	52428800	60	6350
2026-01-19 21:18:25.31	81.74	4.18	-42.8	-44.4	17.1	0.00e+00	122	41	0	55574528	60	5840
2026-01-19 21:18:26.32	81.65	4.23	-41.8	-43.3	17.8	0.00e+00	122	41	0	58720256	56	6431
2026-01-19 21:18:27.33	81.57	4.29	-41.6	-43.0	18.3	0.00e+00	123	41	0	61865984	56	6213
2026-01-19 21:18:28.34	81.48	4.35	-41.9	-43.3	18.2	0.00e+00	123	41	0	65011712	56	6479
2026-01-19 21:18:29.35	81.40	4.41	-41.5	-42.9	18.2	0.00e+00	123	41	0	68157440	54	6910
2026-01-19 21:18:30.36	81.31	4.47	-41.5	-42.9	18.7	0.00e+00	122	41	0	71303168	56	6148
2026-01-19 21:18:31.37	81.22	4.52	-41.3	-42.7	18.8	0.00e+00	122	41	0	74448896	54	6772
2026-01-19 21:18:32.39	81.14	4.58	-41.2	-42.6	18.8	0.00e+00	123	41	0	77594624	56	5938
2026-01-19 21:18:33.39	81.05	4.64	-41.3	-42.7	18.7	0.00e+00	124	41	0	80740352	54	6797
2026-01-19 21:18:34.41	80.96	4.70	-40.4	-41.7	19.6	0.00e+00	122	41	0	83886080	54	6037
2026-01-19 21:18:35.42	80.87	4.76	-40.5	-41.8	19.7	0.00e+00	120	41	0	87031808	54	6072
2026-01-19 21:18:36.43	80.78	4.81	-40.6	-41.8	19.8	0.00e+00	123	41	0	90177536	54	6116
2026-01-19 21:18:37.44	80.70	4.87	-40.2	-41.4	19.9	0.00e+00	122	41	0	93323264	54	5832
2026-01-19 21:18:38.45	80.61	4.93	-40.9	-42.2	19.4	0.00e+00	122	41	0	96468992	54	6379
2026-01-19 21:18:39.46	80.52	4.99	-40.6	-41.8	19.6	0.00e+00	122	41	0	99614720	54	6130
2026-01-19 21:18:40.47	80.43	5.05	-40.4	-41.7	19.8	0.00e+00	122	41	0	102760448	54	6033
2026-01-19 21:18:41.48	80.34	5.10	-40.1	-41.3	20.0	0.00e+00	122	41	0	105906176	54	5778
2026-01-19 21:18:42.49	80.25	5.16	-40.3	-41.6	19.8	0.00e+00	123	41	0	109051904	54	5936
2026-01-19 21:18:43.51	80.15	5.22	-40.9	-42.2	19.8	0.00e+00	120	41	0	112197632	54	6355
2026-01-19 21:18:44.52	80.06	5.28	-40.6	-41.8	19.8	0.00e+00	123	41	0	115343360	54	6134
2026-01-19 21:18:45.53	79.97	5.34	-40.2	-41.4	20.0	0.00e+00	120	42	0	118489088	54	5812
2026-01-19 21:18:46.54	79.88	5.40	-40.3	-41.5	19.9	0.00e+00	122	42	0	121634816	54	5890
2026-01-19 21:18:47.55	79.79	5.46	-40.0	-41.2	20.1	0.00e+00	122	42	0	124780544	54	5717
2026-01-19 21:18:48.56	79.69	5.52	-40.0	-41.2	20.0	0.00e+00	123	41	0	127926272	54	5711
2026-01-19 21:18:49.57	79.60	5.58	-40.2	-41.4	20.0	0.00e+00	123	42	0	131072000	54	5819
2026-01-19 21:18:50.58	79.51	5.63	-40.0	-41.2	20.4	0.00e+00	123	42	0	134217728	54	5678
2026-01-19 21:18:51.59	79.41	5.69	-39.6	-40.7	20.6	0.00e+00	122	42	0	137363456	52	6054
2026-01-19 21:18:52.60	79.32	5.75	-39.7	-40.9	20.5	0.00e+00	122	42	0	140509184	52	6151
2026-01-19 21:18:53.61	79.22	5.81	-39.8	-41.0	20.3	0.00e+00	123	42	0	143654912	52	6228
2026-01-19 21:18:54.62	79.13	5.87	-39.5	-40.7	20.6	0.00e+00	123	42	0	146800640	52	6003
2026-01-19 21:18:55.64	79.03	5.93	-39.7	-40.9	20.5	0.00e+00	122	42	0	149946368	52	6150
2026-01-19 21:18:56.65	78.93	5.99	-40.0	-41.1	20.3	0.00e+00	120	42	0	153092096	52	6350
2026-01-19 21:18:57.66	78.84	6.05	-39.9	-41.1	20.3	0.00e+00	123	42	0	156237824	52	6314
2026-01-19 21:18:58.67	78.74	6.11	-40.2	-41.4	20.0	0.00e+00	122	42	0	159383552	52	6528
2026-01-19 21:18:59.68	78.64	6.17	-39.9	-41.1	20.3	0.00e+00	123	42	0	162529280	52	6333
2026-01-19 21:19:00.69	78.55	6.23	-39.9	-41.1	20.5	0.00e+00	123	42	0	165675008	52	6289
2026-01-19 21:19:01.70	78.45	6.29	-40.2	-41.4	20.1	0.00e+00	123	42	0	168820736	52	6564
2026-01-19 21:19:02.71	78.35	6.35	-40.3	-41.6	19.7	0.00e+00	122	42	0	171966464	54	5938
2026-01-19 21:19:03.72	78.25	6.41	-40.0	-41.2	19.9	0.00e+00	122	42	0	175112192	54	5706
2026-01-19 21:19:04.73	78.15	6.47	-39.8	-41.0	20.4	0.00e+00	123	42	0	178257920	52	6256
2026-01-19 21:19:05.74	78.05	6.53	-40.3	-41.5	19.9	0.00e+00	123	42	0	181403648	52	6614
2026-01-19 21:19:06.75	77.95	6.59	-40.8	-42.1	19.5	0.00e+00	123	42	0	184549376	54	6278
2026-01-19 21:19:07.76	77.85	6.65	-40.4	-41.6	19.6	0.00e+00	123	42	0	187695104	54	5983
2026-01-19 21:19:08.77	77.75	6.71	-40.1	-41.3	20.1	0.00e+00	120	42	0	190840832	54	5774
2026-01-19 21:19:09.78	77.65	6.77	-40.2	-41.4	19.9	0.00e+00	122	42	0	193986560	54	5844
2026-01-19 21:19:10.79	77.55	6.83	-40.7	-42.0	19.5	0.00e+00	122	42	0	197132288	54	6242
2026-01-19 21:19:11.80	77.44	6.89	-39.9	-41.1	20.2	0.00e+00	123	42	0	200278016	54	5634
2026-01-19 21:19:12.81	77.34	6.95	-40.2	-41.4	20.0	0.00e+00	123	42	0	203423744	54	5812
2026-01-19 21:19:13.82	77.24	7.01	-40.1	-41.3	20.1	0.00e+00	123	42	0	206569472	54	5759
2026-01-19 21:19:14.83	77.13	7.07	-40.2	-41.4	20.0	0.00e+00	122	42	0	209715200	54	5841
2026-01-19 21:19:15.84	77.03	7.13	-39.7	-40.8	20.6	0.00e+00	122	42	0	212860928	52	6105
2026-01-19 21:19:16.85	76.93	7.19	-40.0	-41.3	20.1	0.00e+00	123	42	0	216006656	52	6425
2026-01-19 21:19:17.86	76.82	7.25	-40.0	-41.2	20.3	0.00e+00	123	42	0	219152384	52	6408
2026-01-19 21:19:18.87	76.71	7.31	-39.8	-41.0	20.6	0.00e+00	123	42	0	222298112	52	6227
2026-01-19 21:19:19.88	76.61	7.37	-39.7	-40.9	20.5	0.00e+00	123	42	0	225443840	52	6166
2026-01-19 21:19:20.89	76.50	7.43	-40.0	-41.2	20.2	0.00e+00	123	42	0	228589568	52	6372
2026-01-19 21:19:21.90	76.40	7.49	-40.3	-41.5	19.8	0.00e+00	122	42	0	231735296	54	5917
2026-01-19 21:19:22.91	76.29	7.55	-39.7	-40.8	20.8	0.00e+00	122	42	0	234881024	52	6118
2026-01-19 21:19:23.92	76.18	7.61	-40.1	-41.3	20.2	0.00e+00	123	42	0	238026752	52	6475
2026-01-19 21:19:24.93	76.07	7.67	-39.5	-40.7	20.9	0.00e+00	120	42	0	241172480	52	6002
2026-01-19 21:19:25.95	75.96	7.74	-39.4	-40.5	21.1	0.00e+00	123	42	0	244318208	52	5878
2026-01-19 21:19:26.96	75.85	7.80	-39.4	-40.5	21.0	0.00e+00	123	42	0	247463936	52	5913
2026-01-19 21:19:27.97	75.74	7.86	-39.1	-40.2	21.3	0.00e+00	123	42	0	250609664	52	5696
2026-01-19 21:19:28.98	75.63	7.92	-39.2	-40.3	21.0	0.00e+00	123	42	0	253755392	52	5776
2026-01-19 21:19:29.99	75.52	7.98	-39.1	-40.2	21.2	0.00e+00	123	42	0	257949696	52	5674
2026-01-19 21:19:31.00	75.41	8.04	-38.9	-40.0	21.3	0.00e+00	123	42	0	261095424	52	5582
2026-01-19 21:19:32.01	75.30	8.10	-39.2	-40.3	21.1	0.00e+00	123	42	0	264241152	52	5770
2026-01-19 21:19:33.02	75.19	8.16	-39.2	-40.3	21.1	0.00e+00	123	42	0	266338304	52	5774
2026-01-19 21:19:34.03	75.08	8.22	-38.8	-39.8	21.5	0.00e+00	122	42	0	269484032	52	5457
2026-01-19 21:19:35.04	74.96	8.28	-39.4	-40.6	20.8	0.00e+00	123	42	0	273678336	52	5946
2026-01-19 21:19:36.05	74.85	8.35	-39.5	-40.7	20.8	0.00e+00	123	42	0	276824064	52	6030
2026-01-19 21:19:37.06	74.74	8.41	-38.9	-40.0	21.4	0.00e+00	122	42	0	279969792	52	5594
2026-01-19 21:19:38.07	74.62	8.47	-39.1	-40.2	21.3	0.00e+00	122	42	0	283115520	52	5667
2026-01-19 21:19:39.08	74.51	8.53	-39.4	-40.5	20.9	0.00e+00	122	42	0	286261248	52	5918
2026-01-19 21:19:40.09	74.39	8.59	-39.7	-40.8	21.3	0.00e+00	122	42	0	289406976	52	6100
2026-01-19 21:19:41.10	74.28	8.65	-39.1	-40.2	21.5	0.00e+00	123	42	0	292552704	52	5687
2026-01-19 21:19:42.12	74.16	8.72	-39.2	-40.3	21.3	0.00e+00	122	42	0	295698432	52	5755
2026-01-19 21:19:43.13	74.04	8.78	-38.7	-39.8	21.7	0.00e+00	122	42	0	298844160	52	5409
2026-01-19 21:19:44.14	73.92	8.84	-38.7	-39.7	21.7	0.00e+00	122	42	0	301989888	50	6054
2026-01-19 21:19:45.15	73.81	8.90	-38.7	-39.8	21.6	0.00e+00	123	42	0	305135616	50	6103
2026-01-19 21:19:46.16	73.69	8.96	-38.5	-39.6	21.7	0.00e+00	123	42	0	308281344	50	5952
2026-01-19 21:19:47.17	73.57	9.02	-38.8	-39.9	21.7	0.00e+00	120	42	0	311427072	50	6138
2026-01-19 21:19:48.18	73.45	9.09	-38.8	-39.8	21.7	0.00e+00	123	42	0	314572800	50	6118
2026-01-19 21:19:49.19	73.33	9.15	-38.8	-39.9	21.7	0.00e+00	123	42	0	317718528	50	6149
2026-01-19 21:19:50.19	73.21	9.21	-38.5	-39.6	22.0	0.00e+00	123	42	0	320864256	50	5960
2026-01-19 21:19:51.20	73.09	9.27	-38.7	-39.8	21.7	0.00e+00	123	42	0	324009984	50	6099
2026-01-19 21:19:52.21	72.97	9.33	-38.5	-39.6	21.9	0.00e+00	123	42	0	327155712	50	5942
2026-01-19 21:19:53.22	72.85	9.39	-38.9	-40.0	21.6	0.00e+00	121	42	0	330301440	50	6229
2026-01-19 21:19:54.23	72.72	9.46	-38.3	-39.4	22.2	0.00e+00	120	42	0	333447168	50	5794
2026-01-19 21:19:55.24	72.60	9.52	-39.0	-40.0	21.5	0.00e+00	123	42	0	336592896	48	7036
2026-01-19 21:19:56.25	72.48	9.58	-39.3	-40.4	21.1	0.00e+00	123	42	0	339738624	50	6561
2026-01-19 21:19:57.26	72.35	9.64	-38.9	-39.9	21.4	0.00e+00	122	42	0	342884352	50	6199
2026-01-19 21:19:58.27	72.23	9.70	-37.9	-38.9	22.8	0.00e+00	122	42	0	346030080	50	5499
2026-01-19 21:19:59.28	72.10	9.77	-38.7	-39.7	21.9	0.00e+00	122	42	0	349175808	50	6034
2026-01-19 21:20:00.29	71.98	9.83	-40.3	-41.5	20.3	0.00e+00	122	42	0	352321536	54	5878
2026-01-19 21:20:01.30	71.85	9.89	-38.0	-39.0	22.5	0.00e+00	123	42	0	355467264	50	5578
2026-01-19 21:20:02.31	71.72	9.95	-38.4	-39.4	22.0	0.00e+00	123	42	0	358612992	50	5844
2026-01-19 21:20:03.32	71.60	10.01	-38.7	-39.7	22.3	0.00e+00	123	42	0	361758720	50	6050
2026-01-19 21:20:04.33	71.47	10.08	-37.9	-38.9	22.7	0.00e+00	121	42	0	364904448	50	5514
2026-01-19 21:20:05.34	71.34	10.14	-38.3	-39.3	22.1	0.00e+00	122	42	0	368050176	50	5757
2026-01-19 21:20:06.35	71.21	10.20	-38.4	-39.4	22.3	0.00e+00	120	42	0	371195904	50	5838
2026-01-19 21:20:07.36	71.08	10.26	-38.0	-39.0	22.7	0.00e+00	123	42	0	374341632	50	5548
2026-01-19 21:20:08.37	70.95	10.33	-38.5	-39.5	22.0	0.00e+00	120	42	0	377487360	50	5897
2026-01-19 21:20:09.39	70.82	10.39	-39.6	-40.7	21.3	0.00e+00	123	42	0	380633088	50	6756
2026-01-19 21:20:10.40	70.69	10.45	-38.5	-39.6	22.3	0.00e+00	120	42	0	383778816	50	5928
2026-01-19 21:20:11.41	70.55	10.51	-38.5	-39.5	22.3	0.00e+00	122	42	0	386924544	50	5876
2026-01-19 21:20:12.42	70.42	10.58	-38.3	-39.3	22.5	0.00e+00	123	42	0	390070272	50	5776
2026-01-19 21:20:13.43	70.29	10.64	-38.1	-39.1	22.5	0.00e+00	122	42	0	393216000	50	5652
2026-01-19 21:20:14.44	70.15	10.70	-37.6	-38.6	23.0	0.00e+00	122	42	0	396361728	48	5951
2026-01-19 21:20:15.45	70.02	10.76	-37.6	-38.5	22.9	0.00e+00	123	42	0	399507456	48	5912
2026-01-19 21:20:16.46	69.89	10.82	-37.6	-38.5	23.0	0.00e+00	123	42	0	402653184	48	5918
2026-01-19 21:20:17.46	69.75	10.89	-38.1	-39.1	22.7	0.00e+00	123	42	0	405798912	48	6291
2026-01-19 21:20:18.47	69.62	10.95	-38.0	-39.0	22.9	0.00e+00	122	42	0	408944640	48	6236
2026-01-19 21:20:19.49	69.48	11.01	-37.6	-38.5	23.1	0.00e+00	123	42	0	412090368	48	5892
2026-01-19 21:20:20.50	69.34	11.07	-38.1	-39.1	22.7	0.00e+00	120	42	0	415236096	48	6312
2026-01-19 21:20:21.51	69.20	11.14	-37.8	-38.7	23.0	0.00e+00	122	42	0	418381824	48	6060
2026-01-19 21:20:22.52	69.06	11.20	-38.3	-39.4	22.6	0.00e+00	123	42	0	421527552	48	6508
2026-01-19 21:20:23.53	68.93	11.26	-38.1	-39.0	22.8	0.00e+00	123	42	0	424673280	48	6267
2026-01-19 21:20:24.54	68.79	11.32	-38.3	-39.2	23.0	0.00e+00	123	42	0	427819008	48	6402
2026-01-19 21:20:25.55	68.65	11.38	-38.1	-39.1	22.9	0.00e+00	123	42	0	430964736	48	6293
2026-01-19 21:20:26.56	68.50	11.45	-38.8	-39.8	22.1	0.00e+00	123	42	0	434110464	50	6122
2026-01-19 21:20:27.57	68.36	11.51	-38.2	-39.2	23.0	0.00e+00	123	42	0	437256192	50	5664
2026-01-19 21:20:28.59	68.22	11.57	-38.1	-39.1	23.1	0.00e+00	122	42	0	440401920	50	5614
2026-01-19 21:20:29.60	68.08	11.63	-40.6	-41.8	22.8	0.00e+00	122	42	0	443547648	48	8624
2026-01-19 21:20:30.61	67.93	11.70	-38.2	-39.1	22.9	0.00e+00	120	42	0	446693376	48	6335
2026-01-19 21:20:31.62	67.79	11.76	-37.8	-38.8	23.1	0.00e+00	123	42	0	449839104	48	6101
2026-01-19 21:20:32.63	67.65	11.82	-37.9	-38.9	23.0	0.00e+00	123	42	0	452984832	48	6147
2026-01-19 21:20:33.64	67.50	11.88	-38.4	-39.3	23.0	0.00e+00	123	42	0	456130560	48	6484
2026-01-19 21:20:34.65	67.35	11.94	-37.7	-38.6	23.3	0.00e+00	123	42	0	459276288	48	5985
2026-01-19 21:20:35.66	67.21	12.01	-37.8	-38.7	23.1	0.00e+00	122	42	0	462422016	48	6048
2026-01-19 21:20:36.67	67.06	12.07	-37.7	-38.6	23.2	0.00e+00	120	42	0	465567744	48	5988
2026-01-19 21:20:37.68	66.91	12.13	-37.8	-38.8	23.1	0.00e+00	122	42	0	468713472	48	6104
2026-01-19 21:20:38.69	66.77	12.19	-37.9	-38.9	23.1	0.00e+00	120	42	0	471859200	48	6184
2026-01-19 21:20:39.70	66.62	12.25	-37.4	-38.3	23.3	0.00e+00	123	42	0	475004928	48	5782
2026-01-19 21:20:40.71	66.47	12.32	-37.6	-38.5	23.2	0.00e+00	122	42	0	478150656	48	5923
2026-01-19 21:20:41.72	66.32	12.38	-37.6	-38.5	23.1	0.00e+00	123	42	0	481296384	48	5917
2026-01-19 21:20:42.73	66.17	12.44	-37.9	-38.8	23.0	0.00e+00	123	42	0	484442112	48	6125
2026-01-19 21:20:43.74	66.01	12.50	-37.9	-38.9	22.9	0.00e+00	120	42	0	487587840	48	6149
2026-01-19 21:20:44.75	65.86	12.56	-37.9	-38.8	23.1	0.00e+00	123	42	0	490733568	48	6132
2026-01-19 21:20:45.75	65.71	12.62	-38.0	-39.0	22.9	0.00e+00	122	42	0	493879296	48	6232
2026-01-19 21:20:46.77	65.56	12.69	-37.8	-38.8	23.0	0.00e+00	122	42	0	497025024	48	6104
2026-01-19 21:20:47.78	65.40	12.75	-37.7	-38.7	23.1	0.00e+00	122	42	0	500170752	48	6039
2026-01-19 21:20:48.79	65.25	12.81	-38.3	-39.3	22.7	0.00e+00	120	42	0	503316480	48	6454
2026-01-19 21:20:49.80	65.09	12.87	-38.1	-39.1	22.8	0.00e+00	123	42	0	506462208	48	6337
2026-01-19 21:20:50.81	64.94	12.93	-37.9	-38.8	22.9	0.00e+00	122	42	0	509607936	48	6121
2026-01-19 21:20:51.82	64.78	12.99	-37.2	-38.2	23.5	0.00e+00	123	42	0	512753664	48	5687
2026-01-19 21:20:52.83	64.62	13.06	-37.5	-38.4	23.2	0.00e+00	123	42	0	515899392	48	5833
2026-01-19 21:20:53.84	64.46	13.12	-37.9	-38.9	22.9	0.00e+00	122	42	0	519045120	48	6159
2026-01-19 21:20:54.85	64.31	13.18	-38.0	-38.9	23.0	0.00e+00	122	42	0	522190848	48	6199
2026-01-19 21:20:55.86	64.15	13.24	-37.7	-38.7	23.1	0.00e+00	122	42	0	525336576	48	6012
2026-01-19 21:20:56.87	63.99	13.30	-38.0	-38.9	22.9	0.00e+00	123	42	0	528482304	48	6194
2026-01-19 21:20:57.88	63.83	13.36	-38.2	-39.2	22.7	0.00e+00	123	42	0	531628032	48	6379
2026-01-19 21:20:58.89	63.66	13.42	-37.6	-38.6	23.3	0.00e+00	123	42	0	535822336	48	5931
2026-01-19 21:20:59.90	63.50	13.48	-37.6	-38.5	23.4	0.00e+00	122	42	0	537919488	48	5906
2026-01-19 21:21:00.91	63.34	13.54	-37.5	-38.5	23.3	0.00e+00	121	42	0	541065216	48	5890
2026-01-19 21:21:01.92	63.18	13.60	-37.6	-38.5	23.3	0.00e+00	123	42	0	544210944	48	5907
2026-01-19 21:21:02.93	63.01	13.66	-37.4	-38.4	23.3	0.00e+00	123	42	0	547356672	48	5795
2026-01-19 21:21:03.94	62.85	13.72	-37.4	-38.3	23.4	0.00e+00	122	42	0	550502400	48	5780
2026-01-19 21:21:04.95	62.68	13.79	-37.4	-38.4	23.4	0.00e+00	123	42	0	554696704	48	5816
2026-01-19 21:21:05.96	62.52	13.85	-37.9	-38.9	23.0	0.00e+00	122	42	0	557842432	48	6159
2026-01-19 21:21:06.97	62.35	13.91	-37.5	-38.4	23.2	0.00e+00	120	42	0	559939584	48	5844
2026-01-19 21:21:07.98	62.18	13.97	-37.5	-38.5	23.3	0.00e+00	122	42	0	563085312	48	5873
2026-01-19 21:21:08.98	62.01	14.03	-37.5	-38.5	23.3	0.00e+00	123	42	0	566231040	48	5868
2026-01-19 21:21:09.99	61.85	14.09	-37.5	-38.4	23.2	0.00e+00	123	42	0	570425344	48	5837
2026-01-19 21:21:11.00	61.68	14.15	-37.6	-38.5	23.3	0.00e+00	123	42	0	573571072	48	5909
2026-01-19 21:21:12.01	61.51	14.20	-37.6	-38.6	23.4	0.00e+00	123	42	0	576716800	48	5929
2026-01-19 21:21:13.03	61.33	14.27	-37.8	-38.8	23.1	0.00e+00	122	42	0	579862528	48	6097
2026-01-19 21:21:14.03	61.16	14.32	-37.8	-38.8	23.2	0.00e+00	123	42	0	583008256	48	6094
2026-01-19 21:21:15.05	60.99	14.38	-38.3	-39.3	22.9	0.00e+00	122	42	0	586153984	48	6477
2026-01-19 21:21:16.06	60.82	14.44	-38.7	-39.7	22.5	0.00e+00	123	42	0	589299712	50	6023
2026-01-19 21:21:17.07	60.64	14.50	-38.6	-39.6	22.6	0.00e+00	122	42	0	592445440	50	5932
2026-01-19 21:21:18.08	60.47	14.56	-38.3	-39.3	22.9	0.00e+00	122	42	0	595591168	50	5726
2026-01-19 21:21:19.09	60.29	14.62	-38.4	-39.4	22.3	0.00e+00	122	42	0	598736896	50	5839
2026-01-19 21:21:20.10	60.12	14.68	-38.8	-39.9	22.9	0.00e+00	123	42	0	601882624	50	6152
2026-01-19 21:21:21.11	59.94	14.74	-38.2	-39.2	22.8	0.00e+00	123	42	0	605028352	50	5676
2026-01-19 21:21:22.12	59.76	14.80	-37.9	-38.8	23.0	0.00e+00	123	42	0	608174080	50	5454
2026-01-19 21:21:23.13	59.59	14.85	-37.9	-38.8	23.0	0.00e+00	123	42	0	611319808	50	5464
2026-01-19 21:21:24.14	59.41	14.91	-38.0	-38.9	23.1	0.00e+00	122	42	0	614465536	50	5520
2026-01-19 21:21:25.16	59.23	14.97	-38.1	-39.1	22.8	0.00e+00	124	42	0	617611264	50	5615
2026-01-19 21:21:26.17	59.05	15.03	-37.9	-38.9	23.1	0.00e+00	120	42	0	620756992	50	5511
2026-01-19 21:21:27.17	58.87	15.09	-38.0	-39.0	22.9	0.00e+00	123	42	0	623902720	50	5568
2026-01-19 21:21:28.18	58.69	15.14	-38.1	-39.1	22.9	0.00e+00	122	42	0	627048448	50	5610
2026-01-19 21:21:29.20	58.50	15.20	-38.2	-39.1	22.8	0.00e+00	123	42	0	630194176	50	5650
2026-01-19 21:21:30.21	58.32	15.26	-38.0	-39.0	22.9	0.00e+00	120	42	0	633339904	50	5554
2026-01-19 21:21:31.22	58.13	15.32	-38.2	-39.2	23.1	0.00e+00	123	42	0	636485632	50	5683
2026-01-19 21:21:32.23	57.95	15.37	-37.9	-38.8	23.2	0.00e+00	123	42	0	639631360	48	6112
2026-01-19 21:21:33.24	57.77	15.43	-38.0	-38.9	23.1	0.00e+00	123	42	0	642777088	48	6188
2026-01-19 21:21:34.25	57.58	15.49	-37.9	-38.8	23.1	0.00e+00	122	42	0	645922816	48	6106
2026-01-19 21:21:35.26	57.39	15.54	-37.8	-38.8	23.1	0.00e+00	120	42	0	649068544	48	6084
2026-01-19 21:21:36.27	57.21	15.60	-38.1	-39.1	22.7	0.00e+00	123	42	0	652214272	48	6280
2026-01-19 21:21:37.28	57.02	15.66	-38.5	-39.5	22.8	0.00e+00	120	42	0	655360000	50	5861
2026-01-19 21:21:38.29	56.83	15.71	-38.0	-38.9	22.9	0.00e+00	122	42	0	658505728	50	5510
2026-01-19 21:21:39.30	56.64	15.77	-38.0	-39.0	23.0	0.00e+00	122	42	0	661651456	50	5547
2026-01-19 21:21:40.31	56.45	15.82	-38.1	-39.1	22.8	0.00e+00	123	42	0	664797184	50	5624
2026-01-19 21:21:41.32	56.26	15.88	-38.1	-39.1	23.0	0.00e+00	122	42	0	667942912	50	5604
2026-01-19 21:21:42.33	56.07	15.93	-38.0	-38.9	23.1	0.00e+00	120	42	0	671088640	50	5519
2026-01-19 21:21:43.34	55.88	15.99	-38.0	-39.0	23.1	0.00e+00	122	42	0	674234368	50	5555
2026-01-19 21:21:44.35	55.68	16.04	-38.0	-38.9	23.1	0.00e+00	120	42	0	677380096	50	5517
2026-01-19 21:21:45.36	55.49	16.10	-37.9	-38.9	23.1	0.00e+00	122	42	0	680525824	50	5483
2026-01-19 21:21:46.37	55.30	16.15	-37.8	-38.7	23.2	0.00e+00	123	42	0	683671552	48	6056
2026-01-19 21:21:47.38	55.10	16.21	-37.9	-38.9	23.0	0.00e+00	122	42	0	686817280	48	6179
2026-01-19 21:21:48.39	54.90	16.26	-37.8	-38.8	22.9	0.00e+00	123	42	0	689963008	48	6101
2026-01-19 21:21:49.40	54.71	16.31	-37.7	-38.7	23.2	0.00e+00	122	42	0	693108736	48	6015
2026-01-19 21:21:50.41	54.51	16.37	-37.5	-38.5	23.3	0.00e+00	122	42	0	696254464	48	5878
2026-01-19 21:21:51.42	54.31	16.42	-37.6	-38.5	23.4	0.00e+00	122	42	0	699400192	48	5908
2026-01-19 21:21:52.43	54.11	16.47	-37.7	-38.7	23.3	0.00e+00	122	42	0	702545920	48	6001
2026-01-19 21:21:53.45	53.91	16.53	-37.8	-38.8	23.2	0.00e+00	122	42	0	705691648	48	6065
2026-01-19 21:21:54.45	53.72	16.58	-37.6	-38.6	23.3	0.00e+00	122	42	0	708837376	48	5956
2026-01-19 21:21:55.46	53.51	16.63	-37.6	-38.5	23.3	0.00e+00	123	42	0	711983104	48	5899
2026-01-19 21:21:56.47	53.31	16.68	-37.6	-38.6	23.3	0.00e+00	122	42	0	715128832	48	5955
2026-01-19 21:21:57.48	53.11	16.73	-37.3	-38.2	23.5	0.00e+00	120	42	0	718274560	48	5703
2026-01-19 21:21:58.49	52.91	16.79	-37.3	-38.2	23.5	0.00e+00	122	42	0	721420288	48	5706
2026-01-19 21:21:59.50	52.71	16.84	-37.1	-38.0	23.6	0.00e+00	122	42	0	724566016	48	5583
2026-01-19 21:22:00.51	52.50	16.89	-37.4	-38.3	23.5	0.00e+00	122	42	0	727711744	48	5757
2026-01-19 21:22:01.52	52.30	16.94	-37.4	-38.3	23.5	0.00e+00	123	42	0	730857472	48	5755
2026-01-19 21:22:02.53	52.09	16.99	-37.3	-38.2	23.5	0.00e+00	122	42	0	734003200	48	5703
2026-01-19 21:22:03.54	51.88	17.04	-37.5	-38.4	23.4	0.00e+00	122	42	0	737148928	48	5838
2026-01-19 21:22:04.55	51.68	17.09	-37.4	-38.4	23.3	0.00e+00	123	42	0	740294656	48	5806
2026-01-19 21:22:05.56	51.47	17.14	-37.3	-38.3	23.4	0.00e+00	123	42	0	743440384	48	5745
2026-01-19 21:22:06.57	51.26	17.19	-37.5	-38.5	23.3	0.00e+00	123	42	0	746586112	48	5873
2026-01-19 21:22:07.57	51.05	17.24	-37.4	-38.3	23.4	0.00e+00	122	42	0	749731840	48	5769
2026-01-19 21:22:08.58	50.84	17.29	-37.5	-38.5	23.2	0.00e+00	120	42	0	752877568	48	5873
2026-01-19 21:22:09.59	50.63	17.33	-37.4	-38.3	23.3	0.00e+00	123	42	0	756023296	48	5785
2026-01-19 21:22:10.60	50.42	17.38	-37.5	-38.5	23.3	0.00e+00	123	42	0	759169024	48	5893
2026-01-19 21:22:11.61	50.21	17.43	-37.5	-38.5	23.3	0.00e+00	120	42	0	762314752	48	5890
2026-01-19 21:22:12.62	50.00	17.48	-37.6	-38.5	23.3	0.00e+00	122	42	0	765460480	48	5913
2026-01-19 21:22:13.63	49.79	17.52	-37.6	-38.5	23.3	0.00e+00	122	42	0	768606208	48	5910
2026-01-19 21:22:14.64	49.57	17.57	-37.4	-38.3	23.5	0.00e+00	123	42	0	771751936	48	5784
2026-01-19 21:22:15.65	49.36	17.62	-37.2	-38.2	23.6	0.00e+00	123	42	0	774897664	48	5664
2026-01-19 21:22:16.66	49.14	17.66	-36.8	-37.8	23.9	0.00e+00	123	42	0	778043392	48	5420
2026-01-19 21:22:17.67	48.93	17.71	-36.9	-37.8	23.9	0.00e+00	123	42	0	781189120	48	5451
2026-01-19 21:22:18.68	48.71	17.75	-36.8	-37.7	23.9	0.00e+00	120	42	0	784334848	48	5389
2026-01-19 21:22:19.69	48.49	17.80	-36.7	-37.6	23.9	0.00e+00	123	42	0	787480576	48	5321
2026-01-19 21:22:20.69	48.28	17.84	-36.9	-37.8	23.8	0.00e+00	120	42	0	790626304	46	6125
2026-01-19 21:22:21.70	48.06	17.89	-37.2	-38.1	23.8	0.00e+00	123	42	0	793772032	46	6339
2026-01-19 21:22:22.71	47.84	17.93	-36.8	-37.7	23.9	0.00e+00	122	42	0	796917760	46	6063
2026-01-19 21:22:23.73	47.62	17.98	-36.7	-37.6	24.1	0.00e+00	123	42	0	800063488	46	5972
2026-01-19 21:22:24.73	47.40	18.02	-36.5	-37.4	24.1	0.00e+00	120	42	0	803209216	46	5811
2026-01-19 21:22:25.74	47.18	18.06	-36.5	-37.4	24.1	0.00e+00	122	42	0	806354944	46	5856
2026-01-19 21:22:26.75	46.96	18.11	-36.6	-37.5	24.0	0.00e+00	122	42	0	809500672	46	5872
2026-01-19 21:22:27.76	46.74	18.15	-36.8	-37.7	24.0	0.00e+00	122	42	0	812646400	46	6035
2026-01-19 21:22:28.77	46.51	18.19	-36.7	-37.7	23.9	0.00e+00	122	42	0	815792128	46	6004
2026-01-19 21:22:29.78	46.29	18.23	-36.7	-37.7	23.9	0.00e+00	123	42	0	818937856	46	6010
2026-01-19 21:22:30.79	46.07	18.27	-36.7	-37.7	24.0	0.00e+00	122	42	0	822083584	46	6001
2026-01-19 21:22:31.80	45.84	18.31	-36.8	-37.7	23.9	0.00e+00	120	42	0	825229312	46	6051
2026-01-19 21:22:32.81	45.62	18.35	-36.8	-37.8	23.9	0.00e+00	123	42	0	828375040	46	6073
2026-01-19 21:22:33.82	45.39	18.39	-37.0	-37.9	23.8	0.00e+00	120	42	0	831520768	46	6169
2026-01-19 21:22:34.83	45.17	18.43	-37.0	-37.9	23.7	0.00e+00	122	42	0	834666496	46	6173
2026-01-19 21:22:35.84	44.94	18.47	-37.2	-38.1	23.7	0.00e+00	122	42	0	837812224	46	6329
2026-01-19 21:22:36.85	44.71	18.51	-36.9	-37.8	23.8	0.00e+00	123	42	0	840957952	46	6126
2026-01-19 21:22:37.86	44.48	18.55	-37.2	-38.2	23.7	0.00e+00	123	42	0	844103680	46	6362
2026-01-19 21:22:38.87	44.25	18.59	-36.9	-37.8	23.9	0.00e+00	120	42	0	847249408	46	6132
2026-01-19 21:22:39.88	44.02	18.63	-36.8	-37.7	24.0	0.00e+00	123	42	0	850395136	46	6020
2026-01-19 21:22:40.89	43.79	18.66	-36.7	-37.6	24.2	0.00e+00	122	42	0	853540864	46	5994
2026-01-19 21:22:41.90	43.56	18.70	-36.6	-37.5	24.1	0.00e+00	123	42	0	856686592	46	5885
2026-01-19 21:22:42.91	43.33	18.74	-36.8	-37.7	24.1	0.00e+00	123	42	0	859832320	46	6014
2026-01-19 21:22:43.92	43.10	18.77	-36.5	-37.4	24.1	0.00e+00	122	42	0	862978048	46	5854
2026-01-19 21:22:44.93	42.87	18.81	-36.6	-37.5	24.1	0.00e+00	123	42	0	866123776	46	5914
2026-01-19 21:22:45.94	42.64	18.84	-36.7	-37.6	24.2	0.00e+00	123	42	0	870318080	46	5988
2026-01-19 21:22:46.95	42.40	18.88	-36.8	-37.7	24.1	0.00e+00	124	42	0	873463808	46	6049
2026-01-19 21:22:47.96	42.17	18.91	-36.6	-37.5	24.2	0.00e+00	120	42	0	876609536	46	5872
2026-01-19 21:22:48.97	41.94	18.94	-36.6	-37.5	24.0	0.00e+00	123	42	0	878706688	46	5912
2026-01-19 21:22:49.99	41.70	18.98	-36.9	-37.8	23.9	0.00e+00	120	42	0	881852416	46	6111
2026-01-19 21:22:50.99	41.47	19.01	-36.6	-37.5	24.0	0.00e+00	124	42	0	886046720	46	5899
2026-01-19 21:22:52.01	41.23	19.04	-36.7	-37.6	24.0	0.00e+00	122	42	0	889192448	46	5960
2026-01-19 21:22:53.02	40.99	19.07	-36.8	-37.7	23.9	0.00e+00	123	42	0	892338176	46	6049
2026-01-19 21:22:54.02	40.76	19.10	-36.7	-37.7	24.0	0.00e+00	122	42	0	895483904	46	6010
2026-01-19 21:22:55.03	40.52	19.14	-36.9	-37.8	23.7	0.00e+00	120	42	0	898629632	46	6103
2026-01-19 21:22:56.04	40.28	19.17	-37.0	-37.9	23.8	0.00e+00	122	42	0	901775360	46	6185
2026-01-19 21:22:57.05	40.05	19.20	-37.5	-38.4	23.5	0.00e+00	122	42	0	904921088	46	6567
2026-01-19 21:22:58.06	39.81	19.23	-36.8	-37.7	23.9	0.00e+00	122	42	0	908066816	46	6058
2026-01-19 21:22:59.07	39.57	19.25	-37.0	-37.9	23.7	0.00e+00	124	42	0	911212544	46	6159
2026-01-19 21:23:00.08	39.33	19.28	-37.3	-38.3	23.6	0.00e+00	123	42	0	914358272	46	6427
2026-01-19 21:23:01.09	39.09	19.31	-37.3	-38.2	23.5	0.00e+00	120	42	0	917504000	46	6412
2026-01-19 21:23:02.11	38.85	19.34	-37.2	-38.1	23.6	0.00e+00	123	42	0	920649728	46	6332
2026-01-19 21:23:03.12	38.60	19.37	-37.3	-38.2	23.6	0.00e+00	123	42	0	923795456	46	6386
2026-01-19 21:23:04.13	38.36	19.39	-37.1	-38.0	23.7	0.00e+00	123	42	0	926941184	46	6275
2026-01-19 21:23:05.14	38.12	19.42	-37.0	-38.0	23.8	0.00e+00	120	42	0	930086912	46	6208
2026-01-19 21:23:06.15	37.88	19.44	-37.3	-38.2	23.7	0.00e+00	122	42	0	933232640	46	6387
2026-01-19 21:23:07.16	37.64	19.47	-36.9	-37.8	24.1	0.00e+00	123	42	0	936378368	46	6090
2026-01-19 21:23:08.17	37.39	19.49	-36.9	-37.8	24.0	0.00e+00	123	42	0	939524096	46	6080
2026-01-19 21:23:09.18	37.15	19.52	-37.0	-38.0	23.9	0.00e+00	121	42	0	942669824	46	6235
2026-01-19 21:23:10.19	36.91	19.54	-37.1	-38.0	23.8	0.00e+00	122	42	0	945815552	46	6254
2026-01-19 21:23:11.20	36.66	19.56	-37.1	-38.0	23.7	0.00e+00	123	42	0	948961280	46	6248
2026-01-19 21:23:12.21	36.42	19.58	-37.5	-38.4	23.7	0.00e+00	120	42	0	952107008	46	6551
2026-01-19 21:23:13.22	36.17	19.61	-37.3	-38.3	23.7	0.00e+00	121	42	0	955252736	48	5737
2026-01-19 21:23:14.23	35.93	19.63	-37.2	-38.1	23.6	0.00e+00	123	42	0	958398464	48	5628
2026-01-19 21:23:15.24	35.68	19.65	-37.9	-38.9	23.0	0.00e+00	123	42	0	961544192	48	6165
2026-01-19 21:23:16.25	35.44	19.67	-37.4	-38.3	23.6	0.00e+00	122	42	0	964689920	48	5758
2026-01-19 21:23:17.26	35.19	19.69	-37.5	-38.5	23.5	0.00e+00	123	42	0	967835648	48	5879
2026-01-19 21:23:18.27	34.95	19.71	-37.6	-38.6	23.3	0.00e+00	122	42	0	970981376	48	5929
2026-01-19 21:23:19.28	34.70	19.73	-37.9	-38.9	23.2	0.00e+00	122	42	0	974127104	48	6148
2026-01-19 21:23:20.29	34.45	19.74	-38.3	-39.3	23.0	0.00e+00	123	42	0	977272832	48	6442
2026-01-19 21:23:21.30	34.21	19.76	-38.1	-39.1	23.2	0.00e+00	122	42	0	980418560	48	6284
2026-01-19 21:23:22.31	33.96	19.78	-38.1	-39.1	23.1	0.00e+00	122	42	0	983564288	48	6303
2026-01-19 21:23:23.32	33.71	19.79	-37.6	-38.5	23.4	0.00e+00	121	42	0	986710016	48	5899
2026-01-19 21:23:24.33	33.46	19.81	-37.5	-38.4	23.8	0.00e+00	121	42	0	989855744	48	5813
2026-01-19 21:23:25.34	33.21	19.83	-37.4	-38.3	23.7	0.00e+00	123	42	0	993001472	48	5768
2026-01-19 21:23:26.35	32.96	19.84	-37.6	-38.6	23.8	0.00e+00	122	42	0	996147200	48	5947
2026-01-19 21:23:27.36	32.72	19.85	-37.5	-38.4	23.7	0.00e+00	122	42	0	999292928	48	5852
2026-01-19 21:23:28.37	32.47	19.87	-37.7	-38.7	23.3	0.00e+00	122	42	0	1002438656	48	6014
2026-01-19 21:23:29.38	32.22	19.88	-37.6	-38.6	23.6	0.00e+00	122	42	0	1005584384	48	5956
2026-01-19 21:23:30.39	31.97	19.89	-37.9	-38.9	23.5	0.00e+00	123	42	0	1008730112	48	6156
2026-01-19 21:23:31.40	31.72	19.91	-37.3	-38.2	23.7	0.00e+00	123	42	0	1011875840	48	5707
2026-01-19 21:23:32.41	31.47	19.92	-37.4	-38.4	23.7	0.00e+00	122	42	0	1015021568	48	5814
2026-01-19 21:23:33.42	31.22	19.93	-37.3	-38.2	23.8	0.00e+00	122	42	0	1018167296	48	5704
2026-01-19 21:23:34.43	30.97	19.94	-37.1	-38.1	23.9	0.00e+00	123	42	0	1021313024	48	5606
2026-01-19 21:23:35.45	30.72	19.95	-37.4	-38.3	23.8	0.00e+00	123	42	0	1024458752	48	5769
2026-01-19 21:23:36.46	30.47	19.96	-37.4	-38.3	23.6	0.00e+00	122	42	0	1027604480	48	5779
2026-01-19 21:23:37.47	30.22	19.97	-37.5	-38.4	23.6	0.00e+00	122	42	0	1030750208	48	5826
2026-01-19 21:23:38.48	29.96	19.97	-37.1	-38.0	24.0	0.00e+00	123	42	0	1033895936	48	5554
2026-01-19 21:23:39.49	29.71	19.98	-37.3	-38.3	23.6	0.00e+00	123	42	0	1037041664	48	5734
2026-01-19 21:23:40.50	29.46	19.99	-37.6	-38.5	23.1	0.00e+00	122	42	0	1040187392	48	5899
2026-01-19 21:23:41.51	29.21	19.99	-37.4	-38.3	23.6	0.00e+00	123	42	0	1043333120	48	5751
2026-01-19 21:23:42.52	28.96	20.00	-37.4	-38.3	23.6	0.00e+00	123	42	0	1046478848	48	5744
2026-01-19 21:23:43.53	28.71	20.00	-37.8	-38.7	23.2	0.00e+00	122	42	0	1049624576	48	6050
2026-01-19 21:23:44.54	28.46	20.01	-37.7	-38.6	23.7	0.00e+00	123	42	0	1052770304	48	5970
2026-01-19 21:23:45.55	28.21	20.01	-37.7	-38.6	23.6	0.00e+00	123	42	0	1055916032	48	5956
2026-01-19 21:23:46.56	27.96	20.02	-37.5	-38.4	23.6	0.00e+00	122	42	0	1059061760	48	5856
2026-01-19 21:23:47.57	27.70	20.02	-37.5	-38.4	23.7	0.00e+00	123	42	0	1062207488	48	5832
2026-01-19 21:23:48.59	27.45	20.02	-37.8	-38.8	23.4	0.00e+00	123	42	0	1065353216	48	6071
2026-01-19 21:23:49.59	27.20	20.02	-37.4	-38.3	23.8	0.00e+00	123	42	0	1068498944	48	5759
2026-01-19 21:23:50.60	26.95	20.02	-37.7	-38.6	23.4	0.00e+00	123	42	0	1071644672	48	5968
2026-01-19 21:23:51.61	26.70	20.02	-37.9	-38.8	23.3	0.00e+00	123	42	0	1074790400	48	6118
2026-01-19 21:23:52.62	26.45	20.02	-37.6	-38.5	23.2	0.00e+00	121	42	0	1077936128	48	5924
2026-01-19 21:23:53.63	26.19	20.02	-37.7	-38.7	23.3	0.00e+00	123	42	0	1081081856	48	5997
2026-01-19 21:23:54.64	25.94	20.02	-37.3	-38.2	23.7	0.00e+00	122	42	0	1084227584	48	5675
2026-01-19 21:23:55.65	25.69	20.02	-37.3	-38.2	23.5	0.00e+00	123	42	0	1087373312	48	5694
2026-01-19 21:23:56.66	25.44	20.02	-37.4	-38.4	23.6	0.00e+00	123	42	0	1090519040	48	5814
2026-01-19 21:23:57.67	25.19	20.01	-37.2	-38.1	23.7	0.00e+00	122	42	0	1093664768	48	5652
2026-01-19 21:23:58.68	24.94	20.01	-37.2	-38.1	23.8	0.00e+00	123	42	0	1096810496	48	5631
2026-01-19 21:23:59.69	24.69	20.01	-37.3	-38.2	23.7	0.00e+00	122	42	0	1099956224	48	5696
2026-01-19 21:24:00.70	24.43	20.00	-37.1	-38.1	23.7	0.00e+00	122	42	0	1103101952	48	5613
2026-01-19 21:24:01.71	24.18	19.99	-37.3	-38.2	23.6	0.00e+00	122	42	0	1106247680	48	5683
2026-01-19 21:24:02.71	23.93	19.99	-36.8	-37.7	24.0	0.00e+00	123	42	0	1109393408	48	5403
2026-01-19 21:24:03.72	23.68	19.98	-36.8	-37.7	24.0	0.00e+00	120	42	0	1112539136	48	5388
2026-01-19 21:24:04.73	23.43	19.98	-37.1	-38.1	23.6	0.00e+00	122	42	0	1115684864	48	5610
2026-01-19 21:24:05.74	23.18	19.97	-36.8	-37.7	23.9	0.00e+00	122	42	0	1118830592	48	5404
2026-01-19 21:24:06.75	22.93	19.96	-36.9	-37.9	23.8	0.00e+00	122	42	0	1121976320	48	5477
2026-01-19 21:24:07.76	22.68	19.95	-36.9	-37.9	23.9	0.00e+00	122	42	0	1125122048	48	5471
2026-01-19 21:24:08.77	22.43	19.94	-36.9	-37.8	23.9	0.00e+00	122	42	0	1128267776	48	5420
2026-01-19 21:24:09.78	22.18	19.93	-36.9	-37.8	23.9	0.00e+00	123	42	0	1131413504	48	5458
2026-01-19 21:24:10.79	21.93	19.92	-37.1	-38.0	23.8	0.00e+00	123	42	0	1134559232	48	5588
2026-01-19 21:24:11.80	21.68	19.91	-36.9	-37.8	23.9	0.00e+00	120	42	0	1137704960	48	5466
2026-01-19 21:24:12.81	21.43	19.90	-37.0	-37.9	24.0	0.00e+00	123	42	0	1140850688	48	5530
2026-01-19 21:24:13.82	21.18	19.89	-37.2	-38.1	23.8	0.00e+00	123	42	0	1143996416	48	5643
2026-01-19 21:24:14.83	20.93	19.87	-37.3	-38.3	23.7	0.00e+00	123	42	0	1147142144	48	5735
2026-01-19 21:24:15.84	20.68	19.86	-37.3	-38.3	23.7	0.00e+00	123	42	0	1150287872	48	5742
2026-01-19 21:24:16.85	20.44	19.85	-37.1	-38.0	23.8	0.00e+00	123	42	0	1153433600	48	5568
2026-01-19 21:24:17.86	20.19	19.83	-37.5	-38.4	23.6	0.00e+00	118	42	0	1156579328	48	5824
2026-01-19 21:24:18.87	19.94	19.82	-37.2	-38.1	23.8	0.00e+00	123	42	0	1159725056	48	5639
2026-01-19 21:24:19.88	19.69	19.80	-37.2	-38.2	23.7	0.00e+00	122	42	0	1162870784	48	5687
2026-01-19 21:24:20.89	19.44	19.78	-37.1	-38.0	23.8	0.00e+00	123	42	0	1166016512	48	5573
2026-01-19 21:24:21.90	19.20	19.77	-36.9	-37.8	24.0	0.00e+00	123	42	0	1169162240	48	5443
2026-01-19 21:24:22.90	18.95	19.75	-36.9	-37.8	23.9	0.00e+00	122	42	0	1172307968	48	5433
2026-01-19 21:24:23.91	18.70	19.73	-37.0	-37.9	23.9	0.00e+00	123	42	0	1175453696	48	5500
2026-01-19 21:24:24.92	18.46	19.71	-37.1	-38.0	23.8	0.00e+00	123	42	0	1178599424	48	5587
2026-01-19 21:24:25.93	18.21	19.69	-37.1	-38.0	23.9	0.00e+00	123	42	0	1181745152	48	5575
2026-01-19 21:24:26.94	17.97	19.68	-37.0	-37.9	24.0	0.00e+00	122	42	0	1185939456	48	5498
2026-01-19 21:24:27.95	17.72	19.66	-37.0	-37.9	23.8	0.00e+00	123	42	0	1189085184	48	5497
2026-01-19 21:24:28.96	17.47	19.63	-36.9	-37.8	24.0	0.00e+00	120	42	0	1192230912	48	5456
2026-01-19 21:24:29.97	17.23	19.61	-37.2	-38.1	23.9	0.00e+00	122	42	0	1194328064	48	5630
2026-01-19 21:24:30.98	16.99	19.59	-37.2	-38.1	23.8	0.00e+00	120	42	0	1197473792	48	5655
2026-01-19 21:24:31.99	16.74	19.57	-37.3	-38.3	23.6	0.00e+00	123	42	0	1200619520	48	5757
2026-01-19 21:24:33.00	16.50	19.55	-37.4	-38.4	23.5	0.00e+00	122	42	0	1204813824	48	5793
2026-01-19 21:24:34.01	16.25	19.52	-37.4	-38.3	23.5	0.00e+00	123	42	0	1207959552	48	5779
2026-01-19 21:24:35.01	16.01	19.50	-37.6	-38.5	23.5	0.00e+00	123	42	0	1211105280	48	5909
2026-01-19 21:24:36.03	15.77	19.48	-37.1	-38.0	23.7	0.00e+00	123	42	0	1214251008	48	5590
2026-01-19 21:24:37.04	15.53	19.45	-36.9	-37.8	23.9	0.00e+00	123	42	0	1216348160	48	5464
2026-01-19 21:24:38.05	15.28	19.43	-37.1	-38.0	23.8	0.00e+00	122	42	0	1220542464	48	5556
2026-01-19 21:24:39.06	15.04	19.40	-37.1	-38.0	23.8	0.00e+00	122	42	0	1223688192	48	5579
2026-01-19 21:24:40.07	14.80	19.37	-37.0	-38.0	23.9	0.00e+00	120	42	0	1226833920	48	5552
2026-01-19 21:24:41.08	14.56	19.35	-37.0	-37.9	23.9	0.00e+00	123	42	0	1229979648	48	5509
2026-01-19 21:24:42.09	14.32	19.32	-37.1	-38.1	23.8	0.00e+00	122	42	0	1233125376	48	5608
2026-01-19 21:24:43.10	14.08	19.29	-37.0	-37.9	23.8	0.00e+00	123	42	0	1236271104	48	5515
2026-01-19 21:24:44.11	13.84	19.26	-37.5	-38.4	23.5	0.00e+00	122	42	0	1239416832	48	5855
2026-01-19 21:24:45.12	13.60	19.24	-37.2	-38.1	23.7	0.00e+00	123	42	0	1242562560	48	5640
2026-01-19 21:24:46.13	13.36	19.21	-37.3	-38.2	23.6	0.00e+00	123	42	0	1245708288	48	5705
2026-01-19 21:24:47.14	13.12	19.18	-37.1	-38.1	23.7	0.00e+00	123	42	0	1248854016	48	5623
2026-01-19 21:24:48.14	12.89	19.15	-37.2	-38.2	23.5	0.00e+00	120	42	0	1251999744	48	5669
2026-01-19 21:24:49.15	12.65	19.12	-37.6	-38.5	23.5	0.00e+00	122	42	0	1255145472	48	5892
2026-01-19 21:24:50.16	12.42	19.09	-37.5	-38.5	23.4	0.00e+00	122	42	0	1258291200	48	5867
2026-01-19 21:24:51.17	12.18	19.05	-37.7	-38.7	23.7	0.00e+00	120	42	0	1261436928	48	6006
2026-01-19 21:24:52.18	11.94	19.02	-37.6	-38.6	23.6	0.00e+00	123	42	0	1264582656	48	5949
2026-01-19 21:24:53.18	11.71	18.99	-38.3	-39.3	23.3	0.00e+00	120	42	0	1267728384	48	6448
2026-01-19 21:24:54.19	11.48	18.96	-37.5	-38.5	23.3	0.00e+00	122	42	0	1270874112	48	5859
2026-01-19 21:24:55.20	11.24	18.92	-37.8	-38.7	23.6	0.00e+00	122	42	0	1274019840	48	6040
2026-01-19 21:24:56.22	11.01	18.89	-37.8	-38.8	23.3	0.00e+00	122	42	0	1277165568	48	6111
2026-01-19 21:24:57.22	10.78	18.86	-37.4	-38.3	23.6	0.00e+00	120	42	0	1280311296	48	5770
2026-01-19 21:24:58.24	10.54	18.82	-37.9	-38.8	23.4	0.00e+00	122	42	0	1283457024	48	6100
2026-01-19 21:24:59.25	10.31	18.78	-37.6	-38.6	23.4	0.00e+00	120	42	0	1286602752	48	5940
2026-01-19 21:25:00.25	10.08	18.75	-37.4	-38.4	23.6	0.00e+00	121	42	0	1289748480	48	5800
2026-01-19 21:25:01.26	9.85	18.71	-37.5	-38.4	23.5	0.00e+00	123	42	0	1292894208	48	5857
2026-01-19 21:25:02.27	9.62	18.68	-37.6	-38.5	23.6	0.00e+00	120	42	0	1296039936	48	5920
2026-01-19 21:25:03.28	9.39	18.64	-37.4	-38.3	23.7	0.00e+00	123	42	0	1299185664	48	5757
2026-01-19 21:25:04.29	9.16	18.60	-37.4	-38.3	23.8	0.00e+00	122	42	0	1302331392	48	5748
2026-01-19 21:25:05.30	8.93	18.57	-37.0	-37.9	23.8	0.00e+00	122	42	0	1305477120	48	5512
2026-01-19 21:25:06.32	8.70	18.53	-37.3	-38.2	23.8	0.00e+00	123	42	0	1308622848	48	5702
2026-01-19 21:25:07.33	8.47	18.49	-37.1	-38.1	23.7	0.00e+00	123	42	0	1311768576	48	5608
2026-01-19 21:25:08.34	8.25	18.45	-37.3	-38.3	23.8	0.00e+00	123	42	0	1314914304	48	5748
2026-01-19 21:25:09.35	8.02	18.41	-38.0	-38.9	23.1	0.00e+00	122	42	0	1318060032	48	6203
2026-01-19 21:25:10.36	7.80	18.37	-37.7	-38.6	23.5	0.00e+00	123	42	0	1321205760	48	5965
2026-01-19 21:25:11.37	7.57	18.33	-37.5	-38.4	23.7	0.00e+00	122	42	0	1324351488	48	5835
2026-01-19 21:25:12.38	7.35	18.29	-37.3	-38.2	23.6	0.00e+00	122	42	0	1327497216	48	5708
2026-01-19 21:25:13.39	7.12	18.25	-37.6	-38.5	23.6	0.00e+00	120	42	0	1330642944	48	5915
2026-01-19 21:25:14.40	6.90	18.21	-37.6	-38.5	23.6	0.00e+00	122	42	0	1333788672	48	5912
2026-01-19 21:25:15.40	6.68	18.17	-38.0	-38.9	23.5	0.00e+00	123	42	0	1336934400	48	6202
2026-01-19 21:25:16.41	6.46	18.12	-37.7	-38.7	23.5	0.00e+00	122	42	0	1340080128	48	6027
2026-01-19 21:25:17.43	6.23	18.08	-37.6	-38.6	23.4	0.00e+00	123	42	0	1343225856	48	5954
2026-01-19 21:25:18.44	6.01	18.04	-37.6	-38.5	23.3	0.00e+00	122	42	0	1346371584	48	5918
2026-01-19 21:25:19.44	5.79	17.99	-37.2	-38.1	23.5	0.00e+00	122	42	0	1349517312	48	5644
2026-01-19 21:25:20.46	5.57	17.95	-37.3	-38.2	23.3	0.00e+00	122	42	0	1352663040	48	5703
2026-01-19 21:25:21.47	5.35	17.91	-37.4	-38.3	23.5	0.00e+00	122	42	0	1355808768	48	5786
2026-01-19 21:25:22.48	5.14	17.86	-37.7	-38.6	23.3	0.00e+00	122	42	0	1358954496	48	5990
2026-01-19 21:25:23.49	4.92	17.82	-37.6	-38.6	23.3	0.00e+00	122	42	0	1362100224	48	5950
2026-01-19 21:25:24.50	4.70	17.77	-37.7	-38.6	23.3	0.00e+00	123	42	0	1365245952	48	5969
2026-01-19 21:25:25.51	4.49	17.73	-37.3	-38.2	23.4	0.00e+00	122	42	0	1368391680	48	5721
2026-01-19 21:25:26.52	4.27	17.68	-37.4	-38.4	23.4	0.00e+00	123	42	0	1371537408	48	5807
2026-01-19 21:25:27.53	4.05	17.64	-37.2	-38.2	23.5	0.00e+00	123	42	0	1374683136	48	5674
2026-01-19 21:25:28.54	3.84	17.59	-37.4	-38.4	23.6	0.00e+00	122	42	0	1377828864	48	5814
2026-01-19 21:25:29.55	3.63	17.54	-37.4	-38.3	23.5	0.00e+00	122	42	0	1380974592	48	5763
2026-01-19 21:25:30.56	3.41	17.50	-37.2	-38.2	23.5	0.00e+00	123	42	0	1384120320	48	5660
2026-01-19 21:25:31.57	3.20	17.45	-37.4	-38.4	23.5	0.00e+00	127	42	0	1387266048	48	5806
2026-01-19 21:25:32.58	2.99	17.40	-37.7	-38.6	23.3	0.00e+00	122	42	0	1390411776	48	5972
2026-01-19 21:25:33.59	2.78	17.35	-38.4	-39.4	22.8	0.00e+00	122	42	0	1393557504	48	6542
2026-01-19 21:25:34.60	2.57	17.30	-37.9	-38.8	23.3	0.00e+00	123	42	0	1396703232	48	6117
2026-01-19 21:25:35.61	2.36	17.26	-37.8	-38.7	23.5	0.00e+00	123	42	0	1399848960	48	6034
2026-01-19 21:25:36.62	2.15	17.21	-37.5	-38.4	23.4	0.00e+00	123	42	0	1402994688	48	5815
2026-01-19 21:25:37.63	1.94	17.16	-37.9	-38.8	23.3	0.00e+00	122	42	0	1406140416	48	6134
2026-01-19 21:25:38.64	1.74	17.11	-37.0	-37.9	23.8	0.00e+00	123	42	0	1409286144	48	5496
2026-01-19 21:25:39.65	1.53	17.06	-37.0	-37.9	23.8	0.00e+00	123	42	0	1412431872	48	5492
2026-01-19 21:25:40.65	1.32	17.01	-37.1	-38.0	23.8	0.00e+00	120	42	0	1415577600	48	5563
2026-01-19 21:25:41.66	1.12	16.96	-37.3	-38.2	23.8	0.00e+00	123	42	0	1418723328	48	5688
2026-01-19 21:25:42.67	0.91	16.91	-37.6	-38.6	23.7	0.00e+00	123	42	0	1421869056	48	5940
2026-01-19 21:25:43.68	0.71	16.86	-37.7	-38.7	23.6	0.00e+00	122	42	0	1425014784	48	6003
2026-01-19 21:25:44.70	0.51	16.81	-37.6	-38.5	23.4	0.00e+00	123	42	0	1428160512	48	5908
2026-01-19 21:25:45.71	0.30	16.76	-37.7	-38.6	23.4	0.00e+00	123	42	0	1431306240	48	5973
2026-01-19 21:25:46.72	0.10	16.70	-37.5	-38.5	23.4	0.00e+00	123	42	0	1434451968	48	5883
2026-01-19 21:25:47.73	359.90	16.65	-37.3	-38.2	23.5	0.00e+00	123	42	0	1437597696	48	5694
2026-01-19 21:25:48.74	359.70	16.60	-37.4	-38.3	23.5	0.00e+00	122	42	0	1440743424	48	5773
2026-01-19 21:25:49.75	359.50	16.55	-37.7	-38.6	23.4	0.00e+00	123	42	0	1443889152	48	5987
2026-01-19 21:25:50.75	359.30	16.50	-37.6	-38.5	23.5	0.00e+00	122	42	0	1447034880	48	5924
2026-01-19 21:25:51.76	359.10	16.44	-37.8	-38.8	23.3	0.00e+00	123	42	0	1450180608	48	6103
2026-01-19 21:25:52.77	358.91	16.39	-37.8	-38.8	23.2	0.00e+00	120	42	0	1453326336	48	6092
2026-01-19 21:25:53.79	358.71	16.34	-37.4	-38.3	23.4	0.00e+00	123	42	0	1456472064	48	5787
2026-01-19 21:25:54.79	358.51	16.28	-37.4	-38.3	23.4	0.00e+00	122	42	0	1459617792	48	5773
2026-01-19 21:25:55.81	358.32	16.23	-37.4	-38.3	23.3	0.00e+00	123	42	0	1462763520	48	5780
2026-01-19 21:25:56.82	358.12	16.18	-37.4	-38.4	23.2	0.00e+00	121	42	0	1465909248	48	5806
2026-01-19 21:25:57.83	357.93	16.12	-37.2	-38.2	23.4	0.00e+00	122	42	0	1469054976	48	5692
2026-01-19 21:25:58.84	357.73	16.07	-37.2	-38.1	23.4	0.00e+00	120	42	0	1472200704	48	5642
2026-01-19 21:25:59.85	357.54	16.01	-37.1	-38.1	23.4	0.00e+00	122	42	0	1475346432	48	5597
2026-01-19 21:26:00.86	357.35	15.96	-37.2	-38.2	23.3	0.00e+00	123	42	0	1478492160	48	5663
2026-01-19 21:26:01.86	357.16	15.90	-37.2	-38.1	23.3	0.00e+00	122	42	0	1481637888	48	5643
2026-01-19 21:26:02.87	356.97	15.85	-37.4	-38.3	23.2	0.00e+00	120	42	0	1484783616	48	5766
2026-01-19 21:26:03.88	356.78	15.79	-37.6	-38.5	23.0	0.00e+00	123	42	0	1487929344	48	5915
2026-01-19 21:26:04.89	356.59	15.74	-38.0	-39.0	22.9	0.00e+00	123	42	0	1491075072	48	6217
2026-01-19 21:26:05.90	356.40	15.68	-38.3	-39.2	22.9	0.00e+00	120	42	0	1494220800	48	6406
2026-01-19 21:26:06.91	356.21	15.63	-38.1	-39.0	23.0	0.00e+00	123	42	0	1497366528	48	6260
2026-01-19 21:26:07.92	356.03	15.57	-37.7	-38.7	22.9	0.00e+00	123	42	0	1500512256	48	6047
2026-01-19 21:26:08.93	355.84	15.51	-38.3	-39.3	23.0	0.00e+00	123	42	0	1503657984	48	6456
2026-01-19 21:26:09.94	355.66	15.46	-38.0	-39.0	22.9	0.00e+00	122	42	0	1506803712	48	6216
2026-01-19 21:26:10.95	355.47	15.40	-37.9	-38.9	23.0	0.00e+00	123	42	0	1509949440	48	6148
2026-01-19 21:26:11.96	355.29	15.34	-37.9	-38.8	22.9	0.00e+00	123	42	0	1513095168	48	6127
2026-01-19 21:26:12.96	355.11	15.29	-38.0	-39.0	22.7	0.00e+00	123	42	0	1516240896	48	6227
2026-01-19 21:26:13.98	354.92	15.23	-37.9	-38.9	23.0	0.00e+00	123	42	0	1519386624	48	6178
2026-01-19 21:26:14.99	354.74	15.17	-37.7	-38.7	23.1	0.00e+00	123	42	0	1522532352	48	6029
2026-01-19 21:26:16.00	354.56	15.11	-38.0	-39.0	22.9	0.00e+00	124	42	0	1526726656	48	6237
2026-01-19 21:26:17.01	354.38	15.06	-38.3	-39.3	22.8	0.00e+00	123	42	0	1529872384	48	6464
2026-01-19 21:26:18.01	354.20	15.00	-38.6	-39.6	22.8	0.00e+00	122	42	0	1531969536	48	6658
2026-01-19 21:26:19.03	354.02	14.94	-38.5	-39.5	22.9	0.00e+00	123	42	0	1535115264	48	6598
2026-01-19 21:26:20.04	353.84	14.88	-38.5	-39.4	22.9	0.00e+00	122	42	0	1538260992	48	6560
2026-01-19 21:26:21.05	353.66	14.82	-38.6	-39.6	22.9	0.00e+00	123	42	0	1542455296	48	6712
2026-01-19 21:26:22.06	353.49	14.77	-38.4	-39.4	22.9	0.00e+00	122	42	0	1545601024	48	6525
2026-01-19 21:26:23.07	353.31	14.71	-38.3	-39.3	22.9	0.00e+00	120	42	0	1548746752	48	6477
2026-01-19 21:26:24.08	353.13	14.65	-38.3	-39.3	22.9	0.00e+00	122	42	0	1551892480	48	6452
2026-01-19 21:26:25.09	352.96	14.59	-38.6	-39.6	22.9	0.00e+00	123	42	0	1555038208	48	6702
2026-01-19 21:26:26.10	352.78	14.53	-38.0	-39.0	22.9	0.00e+00	123	42	0	1558183936	48	6250
2026-01-19 21:26:27.11	352.61	14.47	-38.7	-39.7	22.9	0.00e+00	120	42	0	1561329664	50	6020
2026-01-19 21:26:28.12	352.44	14.41	-38.0	-39.0	22.9	0.00e+00	123	42	0	1564475392	50	5560
2026-01-19 21:26:29.13	352.27	14.35	-38.0	-39.0	23.0	0.00e+00	123	42	0	1567621120	50	5546
2026-01-19 21:26:30.14	352.09	14.29	-37.9	-38.8	23.1	0.00e+00	123	42	0	1570766848	50	5464
2026-01-19 21:26:31.15	351.92	14.24	-37.8	-38.7	22.9	0.00e+00	122	42	0	1573912576	50	5396
2026-01-19 21:26:32.17	351.75	14.18	-37.6	-38.6	23.0	0.00e+00	122	42	0	1577058304	48	5950
2026-01-19 21:26:33.18	351.58	14.12	-37.7	-38.6	23.2	0.00e+00	123	42	0	1580204032	48	5977
2026-01-19 21:26:34.18	351.42	14.06	-37.5	-38.5	23.2	0.00e+00	122	42	0	1583349760	48	5902
2026-01-19 21:26:35.19	351.25	14.00	-37.6	-38.6	23.2	0.00e+00	123	42	0	1586495488	48	5951
2026-01-19 21:26:36.21	351.08	13.94	-38.0	-38.9	23.3	0.00e+00	122	42	0	1589641216	48	6180
2026-01-19 21:26:37.22	350.91	13.88	-38.0	-39.0	23.3	0.00e+00	123	42	0	1592786944	48	6227
2026-01-19 21:26:38.23	350.75	13.82	-38.0	-39.0	23.3	0.00e+00	122	42	0	1595932672	48	6212
2026-01-19 21:26:39.24	350.58	13.76	-38.3	-39.3	23.0	0.00e+00	121	42	0	1599078400	48	6424
2026-01-19 21:26:40.25	350.42	13.70	-38.1	-39.0	22.9	0.00e+00	122	42	0	1602224128	48	6272
2026-01-19 21:26:41.26	350.25	13.63	-38.4	-39.4	22.8	0.00e+00	120	42	0	1605369856	50	5839
2026-01-19 21:26:42.27	350.09	13.57	-38.7	-39.6	22.8	0.00e+00	123	42	0	1608515584	50	5988
2026-01-19 21:26:43.28	349.93	13.51	-38.5	-39.5	22.6	0.00e+00	120	42	0	1611661312	50	5894
2026-01-19 21:26:44.29	349.77	13.45	-38.4	-39.3	22.8	0.00e+00	120	42	0	1614807040	50	5780
2026-01-19 21:26:45.30	349.60	13.39	-38.4	-39.4	23.0	0.00e+00	123	42	0	1617952768	50	5804
2026-01-19 21:26:46.31	349.44	13.33	-38.2	-39.2	22.7	0.00e+00	123	42	0	1621098496	50	5702
2026-01-19 21:26:47.32	349.28	13.27	-38.1	-39.0	22.9	0.00e+00	122	42	0	1624244224	50	5592
2026-01-19 21:26:48.33	349.13	13.21	-38.1	-39.1	23.1	0.00e+00	122	42	0	1627389952	50	5622
2026-01-19 21:26:49.34	348.97	13.15	-38.0	-39.0	23.2	0.00e+00	123	42	0	1630535680	50	5541
2026-01-19 21:26:50.35	348.81	13.09	-38.8	-39.8	22.6	0.00e+00	122	42	0	1633681408	50	6073
2026-01-19 21:26:51.36	348.65	13.03	-38.5	-39.5	22.5	0.00e+00	122	42	0	1636827136	50	5872
2026-01-19 21:26:52.37	348.50	12.97	-38.5	-39.5	22.2	0.00e+00	123	42	0	1639972864	50	5915
2026-01-19 21:26:53.38	348.34	12.90	-38.4	-39.4	22.3	0.00e+00	121	42	0	1643118592	50	5816
2026-01-19 21:26:54.39	348.18	12.84	-38.7	-39.7	22.2	0.00e+00	122	42	0	1646264320	50	6043
2026-01-19 21:26:55.40	348.03	12.78	-38.6	-39.7	21.9	0.00e+00	123	42	0	1649410048	50	6001
2026-01-19 21:26:56.41	347.88	12.72	-39.1	-40.2	22.3	0.00e+00	123	42	0	1652555776	50	6387
2026-01-19 21:26:57.42	347.72	12.66	-39.6	-40.7	21.8	0.00e+00	120	42	0	1655701504	50	6732
2026-01-19 21:26:58.43	347.57	12.60	-39.9	-41.0	21.9	0.00e+00	123	42	0	1658847232	50	6976
2026-01-19 21:26:59.44	347.42	12.54	-38.9	-40.0	22.5	0.00e+00	123	42	0	1661992960	50	6225
2026-01-19 21:27:00.45	347.27	12.47	-38.9	-40.0	22.3	0.00e+00	123	42	0	1665138688	50	6224
2026-01-19 21:27:01.46	347.12	12.41	-38.4	-39.4	22.6	0.00e+00	122	42	0	1668284416	50	5838
2026-01-19 21:27:02.47	346.97	12.35	-38.6	-39.6	22.5	0.00e+00	123	42	0	1671430144	50	5949
2026-01-19 21:27:03.48	346.82	12.29	-38.6	-39.6	22.4	0.00e+00	122	42	0	1674575872	50	5960
2026-01-19 21:27:04.49	346.67	12.23	-38.6	-39.6	22.5	0.00e+00	123	42	0	1677721600	50	5947
2026-01-19 21:27:05.50	346.52	12.16	-38.8	-39.9	22.2	0.00e+00	123	42	0	1680867328	50	6146
2026-01-19 21:27:06.51	346.37	12.10	-38.6	-39.6	22.3	0.00e+00	121	42	0	1684013056	50	5985
2026-01-19 21:27:07.52	346.23	12.04	-39.6	-40.6	22.2	0.00e+00	123	42	0	1687158784	50	6708
2026-01-19 21:27:08.53	346.08	11.98	-38.9	-40.0	22.1	0.00e+00	123	42	0	1690304512	50	6206
2026-01-19 21:27:09.54	345.94	11.92	-39.1	-40.1	22.2	0.00e+00	123	42	0	1693450240	52	5656
2026-01-19 21:27:10.55	345.79	11.86	-39.4	-40.4	22.3	0.00e+00	122	42	0	1696595968	52	5847
2026-01-19 21:27:11.56	345.65	11.79	-39.1	-40.2	22.2	0.00e+00	122	42	0	1699741696	52	5661
2026-01-19 21:27:12.57	345.50	11.73	-39.0	-40.0	22.1	0.00e+00	122	42	0	1702887424	52	5583
2026-01-19 21:27:13.58	345.36	11.67	-38.9	-39.9	22.3	0.00e+00	123	42	0	1706033152	52	5522
2026-01-19 21:27:14.59	345.22	11.61	-39.3	-40.3	22.1	0.00e+00	123	42	0	1709178880	50	6495
2026-01-19 21:27:15.60	345.08	11.55	-39.4	-40.4	21.9	0.00e+00	123	42	0	1712324608	52	5857
2026-01-19 21:27:16.61	344.93	11.48	-39.0	-40.0	22.2	0.00e+00	123	42	0	1715470336	50	6264
2026-01-19 21:27:17.62	344.79	11.42	-39.6	-40.6	21.6	0.00e+00	123	42	0	1718616064	52	5988
2026-01-19 21:27:18.63	344.65	11.36	-39.7	-40.8	21.8	0.00e+00	123	42	0	1721761792	52	6068
2026-01-19 21:27:19.64	344.51	11.30	-39.6	-40.7	21.9	0.00e+00	123	42	0	1724907520	52	6012
2026-01-19 21:27:20.65	344.38	11.23	-39.5	-40.5	22.1	0.00e+00	122	42	0	1728053248	52	5917
2026-01-19 21:27:21.66	344.24	11.17	-39.9	-41.0	21.6	0.00e+00	121	42	0	1731198976	52	6250
2026-01-19 21:27:22.67	344.10	11.11	-38.9	-40.0	21.7	0.00e+00	123	42	0	1734344704	52	5566
2026-01-19 21:27:23.68	343.96	11.05	-39.8	-40.9	21.7	0.00e+00	122	42	0	1737490432	52	6157
2026-01-19 21:27:24.69	343.83	10.99	-39.7	-40.7	21.8	0.00e+00	122	42	0	1740636160	52	6025
2026-01-19 21:27:25.70	343.69	10.92	-39.7	-40.8	21.7	0.00e+00	122	42	0	1743781888	52	6067
2026-01-19 21:27:26.71	343.56	10.86	-40.4	-41.6	21.6	0.00e+00	123	42	0	1746927616	52	6670
2026-01-19 21:27:27.72	343.42	10.80	-39.2	-40.3	21.6	0.00e+00	123	42	0	1750073344	52	5746
2026-01-19 21:27:28.73	343.29	10.74	-39.7	-40.7	21.8	0.00e+00	123	42	0	1753219072	52	6056
2026-01-19 21:27:29.74	343.15	10.68	-40.5	-41.5	21.8	0.00e+00	123	42	0	1756364800	52	6631
2026-01-19 21:27:30.75	343.02	10.61	-40.7	-41.7	21.8	0.00e+00	123	42	0	1759510528	52	6801
2026-01-19 21:27:31.76	342.89	10.55	-40.8	-41.8	21.8	0.00e+00	123	42	0	1762656256	52	6826
2026-01-19 21:27:32.77	342.76	10.49	-39.9	-40.9	22.0	0.00e+00	122	42	0	1765801984	52	6180
2026-01-19 21:27:33.78	342.63	10.43	-40.1	-41.2	21.2	0.00e+00	120	42	0	1768947712	54	5671
2026-01-19 21:27:34.79	342.50	10.36	-39.9	-41.0	21.2	0.00e+00	123	42	0	1772093440	54	5552
2026-01-19 21:27:35.80	342.37	10.30	-39.7	-40.9	21.0	0.00e+00	121	42	0	1775239168	54	5475
2026-01-19 21:27:36.82	342.24	10.24	-39.7	-40.9	21.0	0.00e+00	123	42	0	1778384896	52	6150
2026-01-19 21:27:37.83	342.11	10.18	-39.6	-40.7	21.6	0.00e+00	123	42	0	1781530624	52	6054
2026-01-19 21:27:38.84	341.98	10.12	-40.2	-41.3	21.2	0.00e+00	122	42	0	1784676352	52	6493
2026-01-19 21:27:39.85	341.85	10.05	-40.8	-42.0	20.6	0.00e+00	122	42	0	1787822080	54	6237
2026-01-19 21:27:40.85	341.72	9.99	-40.4	-41.5	21.3	0.00e+00	123	42	0	1790967808	54	5887
2026-01-19 21:27:41.87	341.60	9.93	-40.6	-41.7	21.3	0.00e+00	123	42	0	1794113536	54	6055
2026-01-19 21:27:42.88	341.47	9.87	-41.0	-42.1	21.1	0.00e+00	123	42	0	1797259264	54	6334
2026-01-19 21:27:43.89	341.34	9.81	-40.4	-41.5	21.4	0.00e+00	120	42	0	1800404992	54	5920
2026-01-19 21:27:44.90	341.22	9.74	-40.5	-41.6	21.3	0.00e+00	122	42	0	1803550720	54	5986
2026-01-19 21:27:45.91	341.10	9.68	-39.8	-40.9	21.5	0.00e+00	122	42	0	1806696448	54	5530
2026-01-19 21:27:46.92	340.97	9.62	-40.7	-41.8	21.4	0.00e+00	122	42	0	1809842176	54	6100
2026-01-19 21:27:47.93	340.85	9.56	-41.0	-42.2	21.3	0.00e+00	123	42	0	1812987904	54	6366
2026-01-19 21:27:48.94	340.73	9.50	-41.3	-42.5	20.8	0.00e+00	123	42	0	1816133632	54	6612
2026-01-19 21:27:49.95	340.60	9.43	-40.2	-41.3	21.2	0.00e+00	123	42	0	1820327936	54	5774
2026-01-19 21:27:50.96	340.48	9.37	-41.2	-42.4	20.8	0.00e+00	121	42	0	1823473664	54	6531
2026-01-19 21:27:51.97	340.36	9.31	-41.8	-43.1	20.7	0.00e+00	123	42	0	1825570816	56	6318
2026-01-19 21:27:52.98	340.24	9.25	-42.1	-43.4	19.8	0.00e+00	122	42	0	1828716544	56	6557
2026-01-19 21:27:53.99	340.12	9.19	-41.4	-42.6	20.1	0.00e+00	120	42	0	1832910848	56	5964
2026-01-19 21:27:55.00	340.00	9.13	-41.3	-42.6	20.1	0.00e+00	120	42	0	1836056576	56	5955
2026-01-19 21:27:56.01	339.88	9.06	-41.6	-42.8	20.5	0.00e+00	123	42	0	1839202304	56	6083
2026-01-19 21:27:57.02	339.76	9.00	-41.0	-42.2	20.5	0.00e+00	123	42	0	1842348032	56	5673
2026-01-19 21:27:58.03	339.64	8.94	-41.5	-42.7	20.4	0.00e+00	123	42	0	1845493760	56	6019
2026-01-19 21:27:59.04	339.53	8.88	-41.4	-42.6	20.3	0.00e+00	122	42	0	1847590912	56	5986
2026-01-19 21:28:00.04	339.41	8.82	-41.6	-42.8	20.6	0.00e+00	122	42	0	1851785216	56	6097
2026-01-19 21:28:01.06	339.29	8.76	-41.0	-42.2	21.1	0.00e+00	123	42	0	1854930944	54	6368
2026-01-19 21:28:02.07	339.18	8.70	-40.6	-41.7	21.3	0.00e+00	122	42	0	1858076672	54	6062
2026-01-19 21:28:03.08	339.06	8.63	-40.3	-41.5	20.9	0.00e+00	123	42	0	1861222400	54	5882
2026-01-19 21:28:04.09	338.95	8.57	-39.9	-41.0	21.4	0.00e+00	123	42	0	1864368128	52	6267
2026-01-19 21:28:05.10	338.83	8.51	-39.8	-40.9	21.3	0.00e+00	120	42	0	1867513856	52	6172
2026-01-19 21:28:06.11	338.72	8.45	-40.6	-41.8	20.7	0.00e+00	122	42	0	1870659584	54	6100
2026-01-19 21:28:07.12	338.60	8.39	-41.8	-43.1	20.0	0.00e+00	122	42	0	1873805312	54	7065
2026-01-19 21:28:08.13	338.49	8.33	-41.5	-42.7	20.4	0.00e+00	123	42	0	1876951040	56	5995
2026-01-19 21:28:09.14	338.38	8.27	-40.5	-41.7	20.0	0.00e+00	123	42	0	1880096768	54	6062
2026-01-19 21:28:10.15	338.27	8.20	-40.7	-42.0	20.2	0.00e+00	122	42	0	1883242496	56	5554
2026-01-19 21:28:11.16	338.15	8.14	-41.6	-42.9	19.8	0.00e+00	120	42	0	1886388224	54	6959
2026-01-19 21:28:12.17	338.04	8.08	-41.8	-43.0	19.9	0.00e+00	122	42	0	1889533952	56	6246
2026-01-19 21:28:13.18	337.93	8.02	-42.0	-43.2	19.9	0.00e+00	123	42	0	1892679680	56	6406
2026-01-19 21:28:14.19	337.82	7.96	-41.7	-42.9	20.2	0.00e+00	123	42	0	1895825408	56	6180
2026-01-19 21:28:15.20	337.71	7.90	-42.6	-43.9	19.7	0.00e+00	122	42	0	1898971136	58	6158
2026-01-19 21:28:16.22	337.60	7.84	-42.8	-44.2	19.5	0.00e+00	122	42	0	1902116864	58	6423
2026-01-19 21:28:17.22	337.49	7.78	-41.8	-43.1	19.8	0.00e+00	122	42	0	1905262592	56	6324
2026-01-19 21:28:18.23	337.39	7.72	-42.3	-43.6	19.6	0.00e+00	120	42	0	1908408320	58	5983
2026-01-19 21:28:19.24	337.28	7.66	-41.8	-43.1	20.0	0.00e+00	120	42	0	1911554048	56	6288
2026-01-19 21:28:20.26	337.17	7.60	-41.9	-43.1	19.9	0.00e+00	123	42	0	1914699776	56	6307
2026-01-19 21:28:21.26	337.06	7.54	-41.3	-42.5	20.8	0.00e+00	123	42	0	1917845504	56	5863
2026-01-19 21:28:22.27	336.96	7.47	-39.8	-40.9	20.9	0.00e+00	123	42	0	1920991232	54	5526
2026-01-19 21:28:23.28	336.85	7.41	-40.4	-41.6	21.0	0.00e+00	120	42	0	1924136960	54	5941
2026-01-19 21:28:24.29	336.75	7.35	-40.2	-41.4	20.7	0.00e+00	122	42	0	1927282688	54	5796
2026-01-19 21:28:25.30	336.64	7.29	-40.7	-41.8	20.4	0.00e+00	120	42	0	1930428416	54	6128
2026-01-19 21:28:26.31	336.54	7.23	-40.4	-41.5	20.9	0.00e+00	122	42	0	1933574144	54	5877
2026-01-19 21:28:27.32	336.43	7.17	-40.5	-41.7	20.2	0.00e+00	123	42	0	1936719872	54	6044
2026-01-19 21:28:28.33	336.33	7.11	-41.8	-43.1	19.7	0.00e+00	122	42	0	1939865600	54	7066
2026-01-19 21:28:29.34	336.22	7.05	-42.6	-43.9	19.7	0.00e+00	122	42	0	1943011328	56	6896
2026-01-19 21:28:30.35	336.12	6.99	-41.2	-42.5	20.0	0.00e+00	122	42	0	1946157056	56	5860
2026-01-19 21:28:31.36	336.02	6.93	-40.9	-42.1	20.4	0.00e+00	120	42	0	1949302784	56	5623
2026-01-19 21:28:32.37	335.92	6.87	-41.6	-42.8	19.9	0.00e+00	123	42	0	1952448512	56	6093
2026-01-19 21:28:33.38	335.82	6.81	-43.2	-44.7	19.2	0.00e+00	123	42	0	1955594240	58	6736
2026-01-19 21:28:34.39	335.71	6.75	-41.9	-43.2	19.4	0.00e+00	122	42	0	1958739968	58	5704
2026-01-19 21:28:35.40	335.61	6.69	-41.7	-43.0	19.6	0.00e+00	122	42	0	1961885696	54	6965
