passes_logs/2026/01/19/R4.6S_Anadyr/R4.6S_Anadyr__20260119_012504_AQUA_rec.log

#Pass ID: 20260119_012504_AQUA
#Satellite: AQUA
#Configuration: AQUA
#almurnet v.1.7.20251203
#Start time: 2026-01-19 01:25:05

#Version: 2.2.20231116
#Station: R4.6S_Anadyr
#Location: 177.4865 lon 64.73178 lat
#TLE: 1 27424U 02022A   26018.67315038  .00000896  00000+0  18931-3 0  9992
#TLE: 2 27424  98.4088 345.1622 0002002  73.7601  98.9671 14.61828261261423

#Time	Az	El	Level	Level2	SNR	BER	BlckErr	Temp	State	Recorded	gain1	gain2
2026-01-19 01:25:05.20	142.43	0.04	-50.2	-62.6	3.4	1.52e+00	0	38	0	0	60	47464
2026-01-19 01:25:06.21	142.42	0.10	-50.4	-68.3	3.5	3.03e+01	0	39	104	0	60	100181
2026-01-19 01:25:07.22	142.40	0.16	-50.4	-68.4	3.5	3.03e+01	0	39	104	0	60	100833
2026-01-19 01:25:08.23	142.39	0.22	-50.5	-68.3	3.5	3.03e+01	0	39	104	0	60	100568
2026-01-19 01:25:09.24	142.37	0.29	-50.5	-68.3	3.5	3.03e+01	0	39	104	0	60	100431
2026-01-19 01:25:10.25	142.35	0.35	-50.5	-68.3	3.5	3.03e+01	0	39	104	0	60	100198
2026-01-19 01:25:11.26	142.34	0.41	-50.5	-68.4	3.5	3.03e+01	0	39	104	0	60	100810
2026-01-19 01:25:12.27	142.32	0.48	-50.5	-68.3	3.5	3.03e+01	0	39	104	0	60	100441
2026-01-19 01:25:13.28	142.30	0.54	-50.6	-68.4	3.5	3.03e+01	0	39	104	0	60	101652
2026-01-19 01:25:14.28	142.29	0.60	-50.5	-68.4	3.5	3.03e+01	0	39	104	0	60	101107
2026-01-19 01:25:15.29	142.27	0.66	-50.5	-68.4	3.5	3.03e+01	0	39	104	0	60	101322
2026-01-19 01:25:16.30	142.25	0.73	-50.4	-68.3	3.5	3.03e+01	0	39	104	0	60	100638
2026-01-19 01:25:17.31	142.24	0.79	-50.4	-68.3	3.5	3.03e+01	0	39	104	0	60	100284
2026-01-19 01:25:18.32	142.22	0.86	-50.3	-68.3	3.5	3.03e+01	0	39	104	0	60	99536
2026-01-19 01:25:19.33	142.20	0.92	-50.0	-68.2	3.5	3.03e+01	0	39	104	0	60	98888
2026-01-19 01:25:20.34	142.18	0.98	-50.2	-68.1	3.5	3.03e+01	0	39	104	0	60	97867
2026-01-19 01:25:21.35	142.17	1.05	-50.1	-68.0	3.5	3.03e+01	0	39	104	0	60	96639
2026-01-19 01:25:22.36	142.15	1.11	-49.9	-67.9	3.5	3.03e+01	0	39	104	0	60	95867
2026-01-19 01:25:23.37	142.13	1.18	-49.9	-67.8	3.5	3.03e+01	0	39	104	0	60	94254
2026-01-19 01:25:24.38	142.11	1.24	-49.5	-67.5	3.5	3.03e+01	0	39	104	0	60	91497
2026-01-19 01:25:25.39	142.10	1.31	-49.3	-67.2	3.5	3.03e+01	0	39	104	0	60	87800
2026-01-19 01:25:26.40	142.08	1.37	-48.2	-67.0	3.5	3.03e+01	0	39	104	0	60	85746
2026-01-19 01:25:27.41	142.06	1.44	-47.2	-66.3	3.5	3.03e+01	0	39	104	0	60	79939
2026-01-19 01:25:28.42	142.04	1.50	-47.2	-65.3	3.5	3.03e+01	0	39	104	0	60	70675
2026-01-19 01:25:29.43	142.02	1.57	-45.9	-65.2	3.5	3.03e+01	0	39	104	0	60	70208
2026-01-19 01:25:30.44	142.00	1.63	-45.9	-65.1	3.5	3.03e+01	0	39	104	0	60	69383
2026-01-19 01:25:31.45	141.99	1.70	-45.9	-65.3	3.5	3.03e+01	0	39	104	0	60	70671
2026-01-19 01:25:32.46	141.97	1.77	-45.9	-65.3	3.5	3.03e+01	0	39	104	0	60	70600
2026-01-19 01:25:33.47	141.95	1.83	-45.9	-65.2	3.5	3.03e+01	0	39	104	0	60	70242
2026-01-19 01:25:34.48	141.93	1.90	-45.9	-65.2	3.5	3.03e+01	0	40	104	0	60	70412
2026-01-19 01:25:35.49	141.91	1.97	-45.9	-65.2	3.5	3.03e+01	0	40	104	0	60	70113
2026-01-19 01:25:36.50	141.89	2.03	-45.9	-65.2	3.5	3.03e+01	0	40	104	0	60	69639
2026-01-19 01:25:37.51	141.87	2.10	-46.0	-65.1	3.5	3.03e+01	0	40	104	0	60	69477
2026-01-19 01:25:38.52	141.85	2.17	-45.9	-65.0	3.5	3.03e+01	0	40	104	0	60	68403
2026-01-19 01:25:39.53	141.83	2.23	-45.9	-64.8	3.5	3.03e+01	0	39	104	0	60	67239
2026-01-19 01:25:40.54	141.82	2.30	-45.9	-65.0	3.5	3.03e+01	0	39	104	0	60	68496
2026-01-19 01:25:41.55	141.80	2.37	-45.9	-65.0	3.5	3.03e+01	0	40	104	0	60	68046
2026-01-19 01:25:42.56	141.78	2.44	-45.9	-64.9	3.5	3.03e+01	0	40	104	0	60	67713
2026-01-19 01:25:43.57	141.76	2.50	-45.9	-64.8	3.5	3.03e+01	0	40	104	0	60	66921
2026-01-19 01:25:44.58	141.74	2.57	-45.8	-64.8	3.5	3.03e+01	0	40	104	0	60	66524
2026-01-19 01:25:45.58	141.72	2.64	-45.8	-64.7	3.5	3.03e+01	0	40	104	0	60	66394
2026-01-19 01:25:46.59	141.70	2.71	-45.9	-64.7	3.5	3.03e+01	0	40	104	0	60	65898
2026-01-19 01:25:47.60	141.68	2.78	-45.9	-64.7	3.5	3.03e+01	0	40	104	0	60	65915
2026-01-19 01:25:48.61	141.66	2.85	-45.4	-64.8	3.5	3.03e+01	0	40	104	0	60	66610
2026-01-19 01:25:49.62	141.64	2.92	-45.4	-64.6	3.5	3.03e+01	0	40	104	0	60	65371
2026-01-19 01:25:50.63	141.61	2.99	-45.9	-64.0	3.5	3.03e+01	0	40	104	0	60	61206
2026-01-19 01:25:51.64	141.59	3.05	-45.9	-62.8	3.8	3.03e+01	0	40	104	0	60	52930
2026-01-19 01:25:52.65	141.57	3.12	-45.8	-61.5	4.2	3.03e+01	0	39	104	0	60	45749
2026-01-19 01:25:53.66	141.55	3.19	-45.8	-61.2	4.4	3.03e+01	0	40	104	0	60	44284
2026-01-19 01:25:54.67	141.53	3.26	-45.8	-61.2	4.4	3.03e+01	0	40	104	0	60	44108
2026-01-19 01:25:55.68	141.51	3.33	-45.8	-60.9	3.7	3.03e+01	0	40	104	0	60	42608
2026-01-19 01:25:56.69	141.49	3.41	-45.8	-61.9	4.0	3.03e+01	0	40	104	0	60	47945
2026-01-19 01:25:57.70	141.47	3.48	-45.9	-62.6	3.8	3.03e+01	0	40	104	0	60	51756
2026-01-19 01:25:58.71	141.45	3.55	-45.9	-63.8	3.6	3.03e+01	0	40	104	0	60	59836
2026-01-19 01:25:59.72	141.42	3.62	-45.9	-64.7	3.5	3.03e+01	0	40	104	0	60	65806
2026-01-19 01:26:00.73	141.40	3.69	-45.9	-64.9	3.5	3.03e+01	0	40	104	0	60	67714
2026-01-19 01:26:01.74	141.38	3.76	-46.0	-65.2	3.5	3.03e+01	0	40	104	0	60	69813
2026-01-19 01:26:02.75	141.36	3.83	-46.0	-65.2	3.5	3.03e+01	0	40	104	0	60	70113
2026-01-19 01:26:03.76	141.34	3.90	-47.2	-64.7	3.5	3.03e+01	0	40	104	0	60	65783
2026-01-19 01:26:04.77	141.31	3.98	-47.0	-62.6	3.6	3.03e+01	0	40	104	0	60	51782
2026-01-19 01:26:05.78	141.29	4.05	-46.0	-64.3	3.6	3.03e+01	0	40	104	0	60	63103
2026-01-19 01:26:06.79	141.27	4.12	-47.3	-64.2	3.5	3.03e+01	0	40	104	0	60	62139
2026-01-19 01:26:07.80	141.24	4.19	-46.3	-62.3	3.9	3.03e+01	0	40	104	0	60	49954
2026-01-19 01:26:08.81	141.22	4.27	-46.6	-61.7	4.4	3.03e+01	0	40	104	0	60	46650
2026-01-19 01:26:09.82	141.20	4.34	-46.7	-61.5	4.5	3.03e+01	0	40	104	0	60	45737
2026-01-19 01:26:10.83	141.18	4.41	-46.7	-60.2	5.0	3.03e+01	0	40	104	0	60	39339
2026-01-19 01:26:11.84	141.15	4.49	-46.6	-59.3	3.9	3.03e+01	42	40	104	0	60	35646
2026-01-19 01:26:12.85	141.13	4.56	-46.6	-59.1	5.7	3.03e+01	41	40	0	0	60	34812
2026-01-19 01:26:13.87	141.10	4.63	-46.5	-57.5	6.3	3.03e+01	91	40	0	1572864	60	28954
2026-01-19 01:26:14.88	141.08	4.71	-46.4	-57.2	6.6	3.03e+01	92	40	0	3145728	60	27983
2026-01-19 01:26:15.89	141.06	4.78	-46.3	-56.5	7.5	3.03e+01	92	40	0	5242880	60	25768
2026-01-19 01:26:16.89	141.03	4.86	-46.3	-56.1	8.0	3.03e+01	92	40	0	7340032	60	24661
2026-01-19 01:26:17.90	141.01	4.93	-46.2	-55.7	8.2	3.03e+01	89	40	0	8912896	60	23496
2026-01-19 01:26:18.91	140.98	5.01	-46.3	-55.6	8.7	3.03e+01	92	40	0	11010048	60	23225
2026-01-19 01:26:19.92	140.96	5.08	-46.4	-55.1	9.2	3.03e+01	92	40	0	12582912	60	21845
2026-01-19 01:26:20.93	140.93	5.16	-46.3	-54.3	10.1	3.03e+01	91	40	0	14680064	60	20042
2026-01-19 01:26:21.94	140.91	5.23	-46.6	-54.4	9.9	3.03e+01	90	40	0	16777216	60	20221
2026-01-19 01:26:22.95	140.88	5.31	-46.5	-54.1	10.3	3.03e+01	92	40	0	18350080	60	19484
2026-01-19 01:26:23.96	140.86	5.39	-46.6	-53.9	10.7	3.03e+01	90	40	0	20447232	60	19054
2026-01-19 01:26:24.97	140.83	5.46	-46.7	-54.1	10.7	3.03e+01	90	40	0	22544384	60	19573
2026-01-19 01:26:25.98	140.81	5.54	-46.4	-53.1	11.7	3.03e+01	91	40	0	24117248	60	17464
2026-01-19 01:26:26.99	140.78	5.62	-46.2	-52.9	12.2	3.03e+01	91	40	0	26214400	60	16936
2026-01-19 01:26:28.00	140.76	5.69	-46.2	-52.5	12.6	3.03e+01	91	40	0	27787264	60	16147
2026-01-19 01:26:29.01	140.73	5.77	-46.2	-52.5	12.8	3.03e+01	91	40	0	29884416	60	16260
2026-01-19 01:26:30.02	140.70	5.85	-46.2	-52.1	13.3	3.03e+01	91	40	0	31981568	60	15552
2026-01-19 01:26:31.03	140.68	5.93	-46.1	-51.6	13.7	3.03e+01	92	40	0	33554432	60	14589
2026-01-19 01:26:32.04	140.65	6.01	-46.2	-51.8	13.9	3.03e+01	92	40	0	35651584	60	14905
2026-01-19 01:26:33.05	140.62	6.08	-46.1	-51.5	14.1	3.03e+01	92	40	0	37224448	60	14499
2026-01-19 01:26:34.06	140.60	6.16	-46.1	-51.5	14.0	3.03e+01	91	40	0	39321600	60	14448
2026-01-19 01:26:35.07	140.57	6.24	-46.2	-51.5	14.2	3.03e+01	91	40	0	41418752	60	14433
2026-01-19 01:26:36.08	140.54	6.32	-46.2	-51.5	14.2	3.03e+01	95	40	0	42991616	60	14413
2026-01-19 01:26:37.09	140.52	6.40	-46.2	-51.4	14.3	3.03e+01	95	40	0	45088768	60	14282
2026-01-19 01:26:38.10	140.49	6.48	-46.2	-51.1	14.7	3.03e+01	91	40	0	46661632	60	13887
2026-01-19 01:26:39.11	140.46	6.56	-46.4	-51.5	14.4	3.03e+01	92	40	0	48758784	60	14537
2026-01-19 01:26:40.12	140.43	6.64	-46.5	-51.6	14.5	3.03e+01	92	40	0	50855936	60	14702
2026-01-19 01:26:41.14	140.40	6.72	-46.6	-52.0	13.8	3.03e+01	92	40	0	52428800	60	15352
2026-01-19 01:26:42.15	140.38	6.80	-46.6	-52.1	14.0	3.03e+01	90	40	0	54525952	60	15474
2026-01-19 01:26:43.16	140.35	6.88	-46.3	-51.8	14.4	3.03e+01	92	40	0	56098816	60	14918
2026-01-19 01:26:44.17	140.32	6.97	-46.3	-51.7	14.3	3.03e+01	90	40	0	58195968	60	14875
2026-01-19 01:26:45.18	140.29	7.05	-46.5	-52.0	14.1	3.03e+01	92	40	0	60293120	60	15300
2026-01-19 01:26:46.19	140.26	7.13	-46.6	-52.0	14.5	3.03e+01	92	40	0	61865984	60	15269
2026-01-19 01:26:47.20	140.23	7.21	-46.7	-52.3	13.7	3.03e+01	92	40	0	63963136	60	15888
2026-01-19 01:26:48.21	140.20	7.30	-46.9	-52.6	13.9	3.03e+01	89	40	0	65536000	60	16361
2026-01-19 01:26:49.22	140.17	7.38	-46.8	-52.2	14.0	3.03e+01	92	40	0	67633152	60	15754
2026-01-19 01:26:50.23	140.14	7.46	-46.9	-52.5	13.9	3.03e+01	92	40	0	69730304	60	16138
2026-01-19 01:26:51.24	140.11	7.54	-46.7	-52.1	14.3	3.03e+01	90	40	0	71303168	60	15418
2026-01-19 01:26:52.25	140.08	7.63	-47.2	-53.2	13.4	3.03e+01	92	40	0	73400320	60	17525
2026-01-19 01:26:53.26	140.05	7.71	-47.4	-53.6	12.8	3.03e+01	92	40	0	75497472	60	18357
2026-01-19 01:26:54.26	140.02	7.80	-47.6	-53.8	12.6	3.03e+01	90	40	0	77070336	60	18842
2026-01-19 01:26:55.27	139.99	7.88	-47.9	-54.5	12.0	3.03e+01	90	40	0	79167488	60	20478
2026-01-19 01:26:56.28	139.96	7.97	-48.0	-55.2	11.2	3.03e+01	90	40	0	80740352	60	22167
2026-01-19 01:26:57.29	139.93	8.05	-47.8	-54.0	12.4	3.03e+01	92	40	0	82837504	60	19326
2026-01-19 01:26:58.30	139.89	8.14	-47.6	-53.4	12.9	3.03e+01	92	40	0	84934656	60	17906
2026-01-19 01:26:59.31	139.86	8.22	-46.2	-50.1	16.6	3.03e+01	90	40	0	86507520	60	12331
2026-01-19 01:27:00.32	139.83	8.31	-44.9	-47.9	19.0	3.03e+01	91	40	0	88604672	60	9573
2026-01-19 01:27:01.32	139.80	8.40	-43.7	-46.1	20.8	3.03e+01	90	40	0	90701824	60	7809
2026-01-19 01:27:02.34	139.76	8.48	-42.7	-44.8	22.1	3.03e+01	92	40	0	92274688	60	6651
2026-01-19 01:27:03.34	139.73	8.57	-42.4	-44.4	22.4	3.03e+01	89	40	0	94371840	60	6411
2026-01-19 01:27:04.36	139.70	8.66	-41.4	-43.2	23.7	3.03e+01	92	40	0	95944704	58	6249
2026-01-19 01:27:05.36	139.67	8.75	-40.1	-41.7	25.0	3.03e+01	89	40	0	98041856	56	5907
2026-01-19 01:27:06.38	139.63	8.83	-39.4	-40.9	25.7	3.03e+01	92	40	0	100139008	54	6026
2026-01-19 01:27:07.38	139.60	8.92	-39.0	-40.4	26.3	3.03e+01	92	40	0	101711872	52	6386
2026-01-19 01:27:08.39	139.56	9.01	-39.0	-40.4	26.2	3.03e+01	90	40	0	103809024	52	6413
2026-01-19 01:27:09.40	139.53	9.10	-38.5	-39.9	26.7	3.03e+01	92	40	0	105381888	52	6011
2026-01-19 01:27:10.41	139.50	9.19	-38.4	-39.8	26.8	3.03e+01	90	40	0	107479040	52	5927
2026-01-19 01:27:11.42	139.46	9.28	-38.3	-39.7	27.0	3.03e+01	92	40	0	109576192	52	5874
2026-01-19 01:27:12.43	139.43	9.37	-38.4	-39.7	26.9	3.03e+01	92	40	0	111149056	52	5924
2026-01-19 01:27:13.44	139.39	9.46	-38.1	-39.5	27.1	3.03e+01	92	40	0	113246208	52	5747
2026-01-19 01:27:14.45	139.36	9.55	-38.2	-39.5	27.1	3.03e+01	90	40	0	114819072	52	5762
2026-01-19 01:27:15.46	139.32	9.64	-38.0	-39.3	27.3	3.03e+01	92	40	0	116916224	52	5658
2026-01-19 01:27:16.47	139.28	9.74	-38.0	-39.4	27.3	3.03e+01	90	40	0	119013376	50	6354
2026-01-19 01:27:17.48	139.25	9.83	-38.0	-39.3	27.3	3.03e+01	92	40	0	120586240	50	6346
2026-01-19 01:27:18.49	139.21	9.92	-37.7	-39.1	27.5	3.03e+01	92	40	0	122683392	50	6136
2026-01-19 01:27:19.49	139.17	10.01	-37.8	-39.2	27.5	3.03e+01	89	40	0	124256256	50	6231
2026-01-19 01:27:20.50	139.14	10.11	-37.8	-39.1	27.6	3.03e+01	92	40	0	126353408	50	6191
2026-01-19 01:27:21.51	139.10	10.20	-37.6	-38.9	27.7	3.03e+01	92	40	0	128450560	50	6057
2026-01-19 01:27:22.53	139.06	10.29	-37.7	-39.0	27.6	3.03e+01	92	40	0	130023424	50	6112
2026-01-19 01:27:23.53	139.02	10.39	-37.6	-39.0	27.7	3.03e+01	92	40	0	132120576	50	6085
2026-01-19 01:27:24.54	138.99	10.48	-37.7	-39.0	27.6	3.03e+01	92	40	0	133693440	50	6093
2026-01-19 01:27:25.55	138.95	10.58	-37.5	-38.8	27.8	3.03e+01	89	40	0	135790592	50	5986
2026-01-19 01:27:26.56	138.91	10.67	-37.6	-38.9	27.8	3.03e+01	92	40	0	137887744	50	6016
2026-01-19 01:27:27.57	138.87	10.77	-37.3	-38.6	28.1	3.03e+01	92	40	0	139460608	50	5799
2026-01-19 01:27:28.58	138.83	10.87	-37.4	-38.7	28.0	3.03e+01	92	40	0	141557760	50	5876
2026-01-19 01:27:29.59	138.79	10.96	-37.3	-38.6	28.0	3.03e+01	90	40	0	143654912	50	5830
2026-01-19 01:27:30.60	138.75	11.06	-37.2	-38.5	28.2	3.03e+01	92	40	0	145227776	50	5763
2026-01-19 01:27:31.61	138.71	11.16	-37.0	-38.2	28.4	3.03e+01	90	40	0	147324928	50	5592
2026-01-19 01:27:32.62	138.67	11.26	-37.1	-38.3	28.3	3.03e+01	90	40	0	148897792	48	6327
2026-01-19 01:27:33.63	138.63	11.35	-37.0	-38.3	28.4	3.03e+01	92	40	0	150994944	48	6290
2026-01-19 01:27:34.64	138.59	11.45	-37.0	-38.3	28.3	3.03e+01	92	40	0	153092096	48	6310
2026-01-19 01:27:35.65	138.54	11.55	-36.8	-38.1	28.6	3.03e+01	92	40	0	154664960	48	6139
2026-01-19 01:27:36.66	138.50	11.65	-36.9	-38.1	28.6	3.03e+01	90	40	0	156762112	48	6197
2026-01-19 01:27:37.67	138.46	11.75	-37.0	-38.3	28.4	3.03e+01	92	40	0	158859264	48	6312
2026-01-19 01:27:38.68	138.42	11.85	-37.0	-38.3	28.4	3.03e+01	92	40	0	160432128	48	6296
2026-01-19 01:27:39.69	138.37	11.95	-36.9	-38.2	28.5	3.03e+01	92	40	0	162529280	48	6235
2026-01-19 01:27:40.70	138.33	12.06	-37.1	-38.3	28.4	3.03e+01	92	40	0	164102144	48	6323
2026-01-19 01:27:41.71	138.29	12.16	-36.9	-38.1	28.6	3.03e+01	91	40	0	166199296	48	6189
2026-01-19 01:27:42.72	138.24	12.26	-36.8	-38.0	28.7	3.03e+01	91	40	0	168296448	48	6128
2026-01-19 01:27:43.74	138.20	12.37	-36.6	-37.9	28.8	3.03e+01	92	40	0	169869312	48	6008
2026-01-19 01:27:44.75	138.15	12.47	-36.5	-37.7	28.9	3.03e+01	90	40	0	171966464	48	5922
2026-01-19 01:27:45.76	138.11	12.57	-36.5	-37.8	28.9	3.03e+01	91	40	0	173539328	48	5946
2026-01-19 01:27:46.77	138.06	12.68	-36.6	-37.8	28.9	3.03e+01	91	40	0	175636480	48	5970
2026-01-19 01:27:47.78	138.02	12.78	-36.7	-38.0	28.8	3.03e+01	92	40	0	177733632	48	6072
2026-01-19 01:27:48.79	137.97	12.89	-36.5	-37.8	28.9	3.03e+01	90	40	0	179306496	48	5944
2026-01-19 01:27:49.80	137.92	12.99	-36.5	-37.7	28.9	3.03e+01	92	40	0	181403648	48	5913
2026-01-19 01:27:50.81	137.88	13.10	-36.5	-37.8	29.0	3.03e+01	90	40	0	182976512	48	5949
2026-01-19 01:27:51.82	137.83	13.21	-36.6	-37.8	28.9	3.03e+01	92	40	0	185073664	48	5946
2026-01-19 01:27:52.82	137.78	13.31	-36.6	-37.8	28.9	3.03e+01	91	40	0	187170816	48	5983
2026-01-19 01:27:53.83	137.73	13.42	-36.7	-38.0	28.8	3.03e+01	83	40	0	188743680	48	6073
2026-01-19 01:27:54.84	137.69	13.53	-36.7	-37.9	28.9	3.03e+01	92	40	0	190840832	48	6033
2026-01-19 01:27:55.85	137.64	13.64	-36.7	-37.9	28.8	3.03e+01	91	40	0	192413696	48	6049
2026-01-19 01:27:56.86	137.59	13.75	-36.8	-38.0	28.8	3.03e+01	91	40	0	194510848	48	6106
2026-01-19 01:27:57.87	137.54	13.86	-36.7	-37.9	28.8	3.03e+01	92	40	0	196608000	48	6041
2026-01-19 01:27:58.88	137.49	13.97	-36.7	-37.9	28.8	3.03e+01	92	40	0	198180864	48	6036
2026-01-19 01:27:59.89	137.44	14.08	-36.6	-37.8	28.9	3.03e+01	92	40	0	200278016	48	5990
2026-01-19 01:28:00.90	137.39	14.19	-36.7	-37.9	28.8	3.03e+01	92	40	0	201850880	48	6046
2026-01-19 01:28:01.91	137.33	14.30	-36.7	-37.9	28.9	3.03e+01	91	40	0	203948032	48	6049
2026-01-19 01:28:02.92	137.28	14.41	-36.6	-37.9	28.9	3.03e+01	92	40	0	206045184	48	6000
2026-01-19 01:28:03.93	137.23	14.53	-36.5	-37.8	29.0	3.03e+01	92	40	0	207618048	48	5945
2026-01-19 01:28:04.94	137.18	14.64	-36.6	-37.8	29.0	3.03e+01	92	40	0	209715200	48	5948
2026-01-19 01:28:05.95	137.12	14.76	-36.5	-37.8	29.0	3.03e+01	92	40	0	211812352	48	5944
2026-01-19 01:28:06.96	137.07	14.87	-36.7	-37.9	28.9	3.03e+01	92	40	0	213385216	48	6016
2026-01-19 01:28:07.97	137.02	14.99	-36.7	-37.9	28.9	3.03e+01	92	40	0	215482368	48	6028
2026-01-19 01:28:08.97	136.96	15.10	-36.7	-37.9	28.9	3.03e+01	92	40	0	217055232	48	6043
2026-01-19 01:28:09.98	136.91	15.22	-36.5	-37.7	29.0	3.03e+01	92	40	0	219152384	48	5904
2026-01-19 01:28:10.99	136.85	15.34	-36.4	-37.6	29.1	3.03e+01	92	40	0	221249536	48	5856
2026-01-19 01:28:12.00	136.79	15.45	-36.5	-37.8	29.0	3.03e+01	92	40	0	222822400	48	5940
2026-01-19 01:28:13.01	136.74	15.57	-36.3	-37.5	29.3	3.03e+01	91	40	0	224919552	48	5762
2026-01-19 01:28:14.02	136.68	15.69	-36.3	-37.5	29.3	3.03e+01	90	40	0	227016704	48	5756
2026-01-19 01:28:15.03	136.62	15.81	-36.2	-37.4	29.3	3.03e+01	92	40	0	228589568	48	5694
2026-01-19 01:28:16.04	136.56	15.93	-36.3	-37.5	29.3	3.03e+01	90	40	0	230686720	48	5762
2026-01-19 01:28:17.05	136.51	16.05	-36.2	-37.4	29.4	3.03e+01	92	40	0	232259584	48	5666
2026-01-19 01:28:18.06	136.45	16.17	-36.0	-37.2	29.5	3.03e+01	90	40	0	234356736	48	5566
2026-01-19 01:28:19.07	136.39	16.30	-36.1	-37.3	29.4	3.03e+01	93	40	0	236453888	48	5622
2026-01-19 01:28:20.08	136.33	16.42	-36.0	-37.2	29.5	3.03e+01	92	40	0	238026752	48	5560
2026-01-19 01:28:21.09	136.26	16.54	-36.1	-37.3	29.5	3.03e+01	92	40	0	240123904	48	5615
2026-01-19 01:28:22.10	136.20	16.67	-36.0	-37.2	29.6	3.03e+01	91	40	0	241696768	46	6227
2026-01-19 01:28:23.11	136.14	16.79	-36.1	-37.3	29.5	3.03e+01	92	40	0	243793920	46	6298
2026-01-19 01:28:24.12	136.08	16.92	-36.1	-37.3	29.5	3.03e+01	92	40	0	245891072	46	6323
2026-01-19 01:28:25.13	136.01	17.04	-36.1	-37.3	29.5	3.03e+01	92	40	0	247463936	46	6323
2026-01-19 01:28:26.14	135.95	17.17	-36.3	-37.5	29.3	3.03e+01	91	40	0	249561088	46	6466
2026-01-19 01:28:27.15	135.89	17.30	-36.2	-37.5	29.4	3.03e+01	90	40	0	251133952	46	6433
2026-01-19 01:28:28.16	135.82	17.43	-36.4	-37.6	29.3	3.03e+01	91	40	0	253231104	46	6544
2026-01-19 01:28:29.17	135.76	17.55	-36.3	-37.5	29.3	3.03e+01	91	40	0	255328256	46	6429
2026-01-19 01:28:30.18	135.69	17.68	-36.3	-37.5	29.3	3.03e+01	91	40	0	256901120	46	6460
2026-01-19 01:28:31.19	135.62	17.81	-36.3	-37.6	29.3	3.03e+01	92	40	0	258998272	46	6511
2026-01-19 01:28:32.20	135.56	17.95	-36.4	-37.6	29.3	3.03e+01	92	40	0	260571136	46	6523
2026-01-19 01:28:33.21	135.49	18.08	-36.5	-37.7	29.1	3.03e+01	92	40	0	262668288	46	6612
2026-01-19 01:28:34.22	135.42	18.21	-36.5	-37.7	29.2	3.03e+01	92	40	0	264765440	46	6604
2026-01-19 01:28:35.22	135.35	18.34	-36.6	-37.8	29.1	3.03e+01	86	40	0	266338304	46	6677
2026-01-19 01:28:36.23	135.28	18.48	-36.6	-37.9	29.0	3.03e+01	92	40	0	268435456	46	6733
2026-01-19 01:28:37.24	135.21	18.61	-36.4	-37.6	29.3	3.03e+01	92	40	0	270008320	46	6559
2026-01-19 01:28:38.25	135.14	18.75	-36.5	-37.8	29.1	3.03e+01	92	40	0	272105472	46	6658
2026-01-19 01:28:39.26	135.06	18.88	-36.4	-37.6	29.4	3.03e+01	92	40	0	274202624	46	6515
2026-01-19 01:28:40.27	134.99	19.02	-36.5	-37.7	29.2	3.03e+01	90	40	0	275775488	46	6611
2026-01-19 01:28:41.28	134.92	19.16	-36.4	-37.6	29.4	3.03e+01	92	40	0	277872640	46	6542
2026-01-19 01:28:42.29	134.84	19.30	-36.3	-37.5	29.4	3.03e+01	90	40	0	279969792	46	6470
2026-01-19 01:28:43.30	134.77	19.44	-36.3	-37.5	29.4	3.03e+01	92	40	0	281542656	46	6452
2026-01-19 01:28:44.31	134.69	19.58	-36.4	-37.6	29.2	3.03e+01	92	40	0	283639808	46	6555
2026-01-19 01:28:45.32	134.61	19.72	-36.3	-37.5	29.4	3.03e+01	92	40	0	285212672	46	6432
2026-01-19 01:28:46.33	134.54	19.86	-36.4	-37.6	29.4	3.03e+01	90	40	0	287309824	46	6525
2026-01-19 01:28:47.34	134.46	20.00	-36.3	-37.5	29.3	3.03e+01	92	40	0	289406976	46	6487
2026-01-19 01:28:48.35	134.38	20.15	-36.3	-37.5	29.4	3.03e+01	90	40	0	290979840	46	6462
2026-01-19 01:28:49.36	134.30	20.29	-36.4	-37.6	29.3	3.03e+01	91	40	0	293076992	46	6552
2026-01-19 01:28:50.37	134.22	20.44	-36.5	-37.7	29.3	3.03e+01	89	40	0	295174144	46	6617
2026-01-19 01:28:51.38	134.14	20.58	-36.6	-37.9	29.1	3.03e+01	92	40	0	296747008	46	6745
2026-01-19 01:28:52.39	134.05	20.73	-36.6	-37.9	29.1	3.03e+01	92	40	0	298844160	46	6747
2026-01-19 01:28:53.40	133.97	20.88	-36.7	-38.0	29.0	3.03e+01	92	40	0	300417024	46	6836
2026-01-19 01:28:54.41	133.89	21.03	-36.8	-38.1	29.0	3.03e+01	85	40	0	302514176	46	6901
2026-01-19 01:28:55.42	133.80	21.18	-36.7	-38.0	29.0	3.03e+01	92	40	0	304611328	46	6848
2026-01-19 01:28:56.43	133.72	21.33	-36.8	-38.1	28.9	3.03e+01	88	40	0	306184192	46	6919
2026-01-19 01:28:57.44	133.63	21.48	-36.7	-38.0	29.0	3.03e+01	92	40	0	308281344	46	6825
2026-01-19 01:28:58.45	133.54	21.63	-36.7	-37.9	29.1	3.03e+01	92	40	0	309854208	46	6796
2026-01-19 01:28:59.46	133.45	21.78	-36.6	-37.8	29.2	3.03e+01	90	40	0	311951360	46	6715
2026-01-19 01:29:00.47	133.36	21.94	-36.5	-37.8	29.2	3.03e+01	92	40	0	314048512	46	6665
2026-01-19 01:29:01.48	133.27	22.09	-36.5	-37.8	29.2	3.03e+01	91	40	0	315621376	46	6652
2026-01-19 01:29:02.49	133.18	22.25	-36.4	-37.6	29.4	3.03e+01	91	40	0	317718528	46	6550
2026-01-19 01:29:03.50	133.09	22.41	-36.3	-37.5	29.5	3.03e+01	92	40	0	319291392	46	6447
2026-01-19 01:29:04.51	132.99	22.57	-36.4	-37.6	29.3	3.03e+01	91	40	0	321388544	46	6530
2026-01-19 01:29:05.52	132.90	22.73	-36.4	-37.6	29.4	3.03e+01	92	40	0	323485696	46	6543
2026-01-19 01:29:06.53	132.80	22.89	-36.6	-37.8	29.2	3.03e+01	92	40	0	325058560	46	6708
2026-01-19 01:29:07.54	132.71	23.05	-36.9	-38.1	29.0	3.03e+01	89	40	0	327155712	46	6916
2026-01-19 01:29:08.55	132.61	23.21	-36.7	-37.9	29.1	3.03e+01	91	40	0	328728576	46	6781
2026-01-19 01:29:09.56	132.51	23.37	-36.8	-38.1	29.0	3.03e+01	91	40	0	330825728	46	6887
2026-01-19 01:29:10.57	132.41	23.54	-36.8	-38.0	29.1	3.03e+01	92	40	0	332922880	46	6877
2026-01-19 01:29:11.58	132.31	23.70	-36.9	-38.1	29.0	3.03e+01	92	40	0	334495744	46	6902
2026-01-19 01:29:12.59	132.20	23.87	-36.7	-38.0	29.2	3.03e+01	92	40	0	336592896	46	6822
2026-01-19 01:29:13.60	132.10	24.04	-36.7	-38.0	29.1	3.03e+01	88	40	0	338165760	46	6827
2026-01-19 01:29:14.61	131.99	24.20	-36.7	-38.0	29.1	3.03e+01	92	40	0	340262912	46	6811
2026-01-19 01:29:15.62	131.89	24.37	-36.8	-38.1	29.1	3.03e+01	92	40	0	342360064	46	6884
2026-01-19 01:29:16.63	131.78	24.55	-36.7	-37.9	29.2	3.03e+01	92	40	0	343932928	46	6777
2026-01-19 01:29:17.64	131.67	24.72	-36.8	-38.1	29.0	3.03e+01	92	40	0	346030080	46	6897
2026-01-19 01:29:18.65	131.56	24.89	-36.8	-38.1	29.0	3.03e+01	90	40	0	348127232	46	6907
2026-01-19 01:29:19.66	131.45	25.06	-36.6	-37.9	29.2	3.03e+01	92	40	0	349700096	46	6756
2026-01-19 01:29:20.67	131.34	25.24	-36.8	-38.1	29.0	3.03e+01	92	40	0	351797248	46	6924
2026-01-19 01:29:21.68	131.22	25.42	-36.6	-37.8	29.2	3.03e+01	92	40	0	353370112	46	6713
2026-01-19 01:29:22.69	131.11	25.59	-36.5	-37.7	29.3	3.03e+01	90	40	0	355467264	46	6637
2026-01-19 01:29:23.70	130.99	25.77	-36.6	-37.9	29.2	3.03e+01	92	40	0	357564416	46	6750
2026-01-19 01:29:24.71	130.87	25.95	-36.7	-37.9	29.2	3.03e+01	92	40	0	359137280	46	6774
2026-01-19 01:29:25.72	130.76	26.13	-36.8	-38.0	29.1	3.03e+01	92	40	0	361234432	46	6838
2026-01-19 01:29:26.74	130.63	26.32	-36.7	-38.0	29.1	3.03e+01	92	40	0	363331584	46	6811
2026-01-19 01:29:27.75	130.51	26.50	-36.5	-37.7	29.3	3.03e+01	92	40	0	364904448	46	6640
2026-01-19 01:29:28.75	130.39	26.68	-36.4	-37.6	29.5	3.03e+01	90	40	0	367001600	46	6549
2026-01-19 01:29:29.76	130.26	26.87	-36.4	-37.6	29.4	3.03e+01	92	40	0	368574464	46	6542
2026-01-19 01:29:30.77	130.14	27.06	-36.4	-37.6	29.4	3.03e+01	92	40	0	370671616	46	6530
2026-01-19 01:29:31.78	130.01	27.24	-36.6	-37.8	29.4	3.03e+01	92	40	0	372768768	46	6677
2026-01-19 01:29:32.79	129.88	27.43	-36.4	-37.6	29.5	3.03e+01	91	40	0	374341632	46	6526
2026-01-19 01:29:33.80	129.74	27.62	-36.3	-37.5	29.5	3.03e+01	92	40	0	376438784	46	6495
2026-01-19 01:29:34.81	129.61	27.82	-36.3	-37.5	29.6	3.03e+01	91	40	0	378011648	46	6438
2026-01-19 01:29:35.82	129.47	28.01	-36.3	-37.5	29.5	3.03e+01	92	40	0	380108800	46	6443
2026-01-19 01:29:36.83	129.34	28.20	-36.1	-37.3	29.7	3.03e+01	92	40	0	382205952	46	6295
2026-01-19 01:29:37.84	129.20	28.40	-36.0	-37.2	29.8	3.03e+01	91	40	0	383778816	46	6217
2026-01-19 01:29:38.85	129.06	28.60	-35.8	-37.0	30.0	3.03e+01	91	40	0	385875968	46	6075
2026-01-19 01:29:39.86	128.92	28.80	-35.9	-37.0	29.9	3.03e+01	92	40	0	387448832	46	6117
2026-01-19 01:29:40.87	128.77	29.00	-35.9	-37.1	30.0	3.03e+01	90	40	0	389545984	46	6146
2026-01-19 01:29:41.88	128.62	29.20	-36.0	-37.2	29.8	3.03e+01	91	40	0	391643136	46	6260
2026-01-19 01:29:42.89	128.48	29.40	-36.1	-37.3	29.8	3.03e+01	92	40	0	393216000	46	6320
2026-01-19 01:29:43.90	128.33	29.60	-36.1	-37.3	29.7	3.03e+01	92	40	0	395313152	46	6297
2026-01-19 01:29:44.91	128.17	29.81	-36.3	-37.5	29.6	3.03e+01	92	40	0	396886016	46	6433
2026-01-19 01:29:45.92	128.02	30.01	-35.9	-37.1	30.0	3.03e+01	91	40	0	398983168	46	6150
2026-01-19 01:29:46.92	127.86	30.22	-35.9	-37.1	29.9	3.03e+01	92	40	0	401080320	46	6151
2026-01-19 01:29:47.93	127.71	30.43	-35.8	-37.0	30.1	3.03e+01	91	40	0	402653184	46	6077
2026-01-19 01:29:48.94	127.55	30.64	-35.8	-37.0	30.0	3.03e+01	92	40	0	404750336	46	6107
2026-01-19 01:29:49.95	127.38	30.85	-35.7	-36.9	30.1	3.03e+01	92	40	0	406323200	46	6042
2026-01-19 01:29:50.96	127.22	31.07	-35.8	-37.0	29.9	3.03e+01	91	40	0	408420352	46	6106
2026-01-19 01:29:51.97	127.05	31.28	-36.1	-37.2	29.8	3.03e+01	88	40	0	410517504	46	6277
2026-01-19 01:29:52.98	126.88	31.50	-36.2	-37.4	29.6	3.03e+01	91	40	0	412090368	46	6398
2026-01-19 01:29:53.99	126.71	31.71	-36.3	-37.5	29.6	3.03e+01	89	40	0	414187520	46	6427
2026-01-19 01:29:55.00	126.53	31.93	-36.1	-37.3	29.8	3.03e+01	91	40	0	416284672	46	6344
2026-01-19 01:29:56.01	126.36	32.15	-36.3	-37.4	29.7	3.03e+01	92	40	0	417857536	46	6423
2026-01-19 01:29:57.02	126.18	32.38	-36.0	-37.2	29.8	3.03e+01	92	40	0	419954688	46	6248
2026-01-19 01:29:58.03	125.99	32.60	-36.1	-37.3	29.8	3.03e+01	90	40	0	421527552	46	6334
2026-01-19 01:29:59.04	125.81	32.82	-36.2	-37.4	29.7	3.03e+01	92	40	0	423624704	46	6390
2026-01-19 01:30:00.05	125.62	33.05	-36.6	-37.8	29.4	3.03e+01	92	40	0	425721856	46	6665
2026-01-19 01:30:01.06	125.43	33.28	-36.6	-37.8	29.3	3.03e+01	91	40	0	427294720	46	6701
2026-01-19 01:30:02.07	125.24	33.51	-36.4	-37.6	29.7	3.03e+01	92	40	0	429391872	46	6502
2026-01-19 01:30:03.08	125.04	33.74	-36.2	-37.4	29.7	3.03e+01	92	40	0	431489024	46	6403
2026-01-19 01:30:04.08	124.84	33.97	-36.4	-37.6	29.5	3.03e+01	90	40	0	433061888	46	6512
2026-01-19 01:30:05.09	124.64	34.20	-36.6	-37.9	29.3	3.03e+01	92	40	0	435159040	46	6731
2026-01-19 01:30:06.10	124.44	34.44	-36.9	-38.1	29.1	3.03e+01	92	40	0	436731904	46	6931
2026-01-19 01:30:07.11	124.23	34.67	-37.1	-38.3	28.9	3.03e+01	90	40	0	438829056	48	6324
2026-01-19 01:30:08.12	124.02	34.91	-37.2	-38.4	28.8	3.03e+01	92	40	0	440926208	48	6376
2026-01-19 01:30:09.13	123.80	35.15	-37.3	-38.5	28.7	3.03e+01	92	40	0	442499072	48	6496
2026-01-19 01:30:10.14	123.58	35.39	-37.4	-38.6	28.6	3.03e+01	92	40	0	444596224	48	6571
2026-01-19 01:30:11.15	123.36	35.63	-37.3	-38.6	28.6	3.03e+01	90	40	0	446169088	48	6508
2026-01-19 01:30:12.16	123.14	35.88	-37.3	-38.5	28.8	3.03e+01	92	40	0	448266240	48	6476
2026-01-19 01:30:13.17	122.91	36.12	-37.7	-38.9	28.4	3.03e+01	90	40	0	450363392	48	6794
2026-01-19 01:30:14.18	122.68	36.37	-38.2	-39.5	27.8	3.03e+01	92	40	0	451936256	50	6484
2026-01-19 01:30:15.19	122.44	36.62	-38.1	-39.3	28.0	3.03e+01	88	40	0	454033408	50	6340
2026-01-19 01:30:16.20	122.20	36.87	-38.1	-39.4	28.0	3.03e+01	90	40	0	455606272	50	6386
2026-01-19 01:30:17.21	121.96	37.12	-38.1	-39.3	28.0	3.03e+01	92	40	0	457703424	50	6345
2026-01-19 01:30:18.22	121.71	37.37	-38.2	-39.5	27.9	3.03e+01	92	40	0	459800576	50	6448
2026-01-19 01:30:19.23	121.46	37.63	-38.2	-39.5	28.0	3.03e+01	92	40	0	461373440	50	6442
2026-01-19 01:30:20.24	121.21	37.88	-38.2	-39.5	27.9	3.03e+01	90	40	0	463470592	50	6457
2026-01-19 01:30:21.25	120.95	38.14	-38.0	-39.2	28.1	3.03e+01	92	40	0	465043456	50	6261
2026-01-19 01:30:22.26	120.69	38.40	-38.4	-39.7	27.6	3.03e+01	92	40	0	467140608	50	6635
2026-01-19 01:30:23.27	120.42	38.66	-39.0	-40.4	27.2	3.03e+01	90	40	0	469237760	50	7126
2026-01-19 01:30:24.29	120.14	38.92	-38.7	-40.0	27.5	3.03e+01	91	40	0	470810624	52	6083
2026-01-19 01:30:25.29	119.87	39.18	-38.6	-39.9	27.4	3.03e+01	91	40	0	472907776	52	6064
2026-01-19 01:30:26.30	119.59	39.45	-38.4	-39.7	27.7	3.03e+01	91	40	0	474480640	52	5879
2026-01-19 01:30:27.31	119.30	39.71	-38.9	-40.3	27.2	3.03e+01	91	40	0	476577792	52	6295
2026-01-19 01:30:28.33	119.01	39.98	-39.0	-40.3	27.2	3.03e+01	91	40	0	478674944	52	6315
2026-01-19 01:30:29.33	118.71	40.25	-38.7	-40.0	27.5	3.03e+01	90	40	0	480247808	52	6091
2026-01-19 01:30:30.34	118.41	40.51	-38.7	-40.0	27.4	3.03e+01	91	40	0	482344960	52	6133
2026-01-19 01:30:31.35	118.11	40.78	-38.7	-40.0	27.5	3.03e+01	90	40	0	484442112	52	6103
2026-01-19 01:30:32.36	117.79	41.06	-38.3	-39.6	27.9	3.03e+01	92	40	0	486014976	52	5810
2026-01-19 01:30:33.37	117.48	41.33	-38.3	-39.6	27.7	3.03e+01	92	40	0	488112128	52	5850
2026-01-19 01:30:34.38	117.15	41.60	-38.0	-39.3	28.2	3.03e+01	91	40	0	489684992	52	5603
2026-01-19 01:30:35.39	116.83	41.88	-37.9	-39.2	28.2	3.03e+01	90	40	0	491782144	50	6243
2026-01-19 01:30:36.40	116.49	42.15	-38.0	-39.3	28.1	3.03e+01	91	40	0	493879296	50	6304
2026-01-19 01:30:37.41	116.15	42.43	-37.9	-39.1	28.2	3.03e+01	92	40	0	495452160	50	6203
2026-01-19 01:30:38.42	115.81	42.71	-37.9	-39.1	28.2	3.03e+01	90	40	0	497549312	50	6178
2026-01-19 01:30:39.43	115.45	42.99	-37.8	-39.1	28.4	3.03e+01	92	40	0	499646464	50	6140
2026-01-19 01:30:40.44	115.10	43.27	-37.8	-39.1	28.3	3.03e+01	90	40	0	501219328	50	6136
2026-01-19 01:30:41.45	114.73	43.55	-37.6	-38.8	28.5	3.03e+01	92	40	0	503316480	50	5959
2026-01-19 01:30:42.45	114.36	43.83	-37.5	-38.8	28.6	3.03e+01	92	40	0	504889344	50	5955
2026-01-19 01:30:43.46	113.98	44.11	-37.6	-38.8	28.5	3.03e+01	91	40	0	506986496	50	5984
2026-01-19 01:30:44.47	113.60	44.39	-37.5	-38.7	28.6	3.03e+01	92	40	0	509083648	50	5902
2026-01-19 01:30:45.48	113.21	44.68	-37.5	-38.8	28.5	3.03e+01	91	40	0	510656512	50	5940
2026-01-19 01:30:46.49	112.81	44.96	-37.3	-38.6	28.7	3.03e+01	92	40	0	512753664	50	5798
2026-01-19 01:30:47.51	112.40	45.25	-37.3	-38.6	28.7	3.03e+01	92	40	0	514326528	50	5819
2026-01-19 01:30:48.51	111.99	45.53	-37.4	-38.7	28.6	3.03e+01	92	40	0	516423680	50	5875
2026-01-19 01:30:49.52	111.56	45.82	-37.5	-38.7	28.6	3.03e+01	91	40	0	518520832	50	5900
2026-01-19 01:30:50.53	111.13	46.11	-37.5	-38.7	28.6	3.03e+01	90	40	0	520093696	50	5914
2026-01-19 01:30:51.54	110.70	46.39	-37.7	-39.0	28.4	3.03e+01	92	40	0	522190848	50	6066
2026-01-19 01:30:52.55	110.25	46.68	-37.7	-38.9	28.4	3.03e+01	86	40	0	523763712	50	6038
2026-01-19 01:30:53.56	109.79	46.97	-37.8	-39.1	28.3	3.03e+01	92	40	0	525860864	50	6149
2026-01-19 01:30:54.57	109.33	47.26	-37.6	-38.8	28.5	3.03e+01	90	40	0	527958016	50	5963
2026-01-19 01:30:55.58	108.86	47.54	-37.6	-38.9	28.4	3.03e+01	91	40	0	529530880	50	6016
2026-01-19 01:30:56.59	108.38	47.83	-37.6	-38.9	28.5	3.03e+01	92	40	0	531628032	50	6000
2026-01-19 01:30:57.60	107.89	48.12	-37.6	-38.8	28.3	3.03e+01	92	40	0	533200896	50	5976
2026-01-19 01:30:58.61	107.39	48.40	-37.5	-38.8	28.5	3.03e+01	92	40	0	535298048	50	5968
2026-01-19 01:30:59.62	106.88	48.69	-37.3	-38.5	28.7	3.03e+01	90	40	0	537395200	50	5791
2026-01-19 01:31:00.62	106.37	48.97	-37.6	-38.9	28.4	3.03e+01	92	40	0	538968064	50	6023
2026-01-19 01:31:01.63	105.84	49.26	-37.4	-38.7	28.6	3.03e+01	92	40	0	541065216	50	5859
2026-01-19 01:31:02.64	105.30	49.54	-37.5	-38.8	28.5	3.03e+01	92	40	0	542638080	50	5935
2026-01-19 01:31:03.65	104.75	49.82	-37.5	-38.7	28.5	3.03e+01	92	40	0	544735232	50	5911
2026-01-19 01:31:04.66	104.19	50.11	-37.4	-38.6	28.6	3.03e+01	92	40	0	546832384	50	5841
2026-01-19 01:31:05.67	103.62	50.39	-37.4	-38.6	28.7	3.03e+01	92	40	0	548405248	50	5832
2026-01-19 01:31:06.68	103.04	50.67	-37.3	-38.5	28.7	3.03e+01	90	40	0	550502400	50	5759
2026-01-19 01:31:07.69	102.45	50.95	-37.0	-38.2	29.0	3.03e+01	92	40	0	552599552	50	5585
2026-01-19 01:31:08.70	101.85	51.22	-36.9	-38.2	29.0	3.03e+01	90	40	0	554172416	48	6229
2026-01-19 01:31:09.71	101.23	51.50	-37.1	-38.3	28.9	3.03e+01	91	40	0	556269568	48	6324
2026-01-19 01:31:10.72	100.61	51.77	-36.8	-38.0	29.2	3.03e+01	90	40	0	557842432	48	6094
2026-01-19 01:31:11.73	99.97	52.04	-36.7	-37.9	29.3	3.03e+01	86	40	0	559939584	48	6021
2026-01-19 01:31:12.73	99.33	52.31	-36.7	-37.9	29.2	3.03e+01	91	40	0	562036736	48	6043
2026-01-19 01:31:13.74	98.67	52.58	-36.7	-38.0	29.2	3.03e+01	90	40	0	563609600	48	6083
2026-01-19 01:31:14.75	97.99	52.84	-36.5	-37.7	29.4	3.03e+01	91	40	0	565706752	48	5912
2026-01-19 01:31:15.76	97.31	53.10	-36.4	-37.5	29.6	3.03e+01	90	40	0	567279616	48	5788
2026-01-19 01:31:16.77	96.61	53.36	-36.8	-38.0	29.3	3.03e+01	92	40	0	569376768	48	6096
2026-01-19 01:31:17.78	95.90	53.62	-36.8	-38.0	29.3	3.03e+01	91	40	0	571473920	48	6098
2026-01-19 01:31:18.79	95.17	53.87	-36.4	-37.6	29.5	3.03e+01	91	40	0	573046784	48	5813
2026-01-19 01:31:19.80	94.44	54.12	-36.6	-37.8	29.4	3.03e+01	90	40	0	575143936	48	5950
2026-01-19 01:31:20.81	93.69	54.37	-37.1	-38.3	29.0	3.03e+01	91	40	0	576716800	48	6312
2026-01-19 01:31:21.82	92.93	54.61	-36.6	-37.9	29.3	3.03e+01	91	40	0	578813952	48	5998
2026-01-19 01:31:22.83	92.15	54.84	-36.6	-37.8	29.4	3.03e+01	90	40	0	580911104	48	5930
2026-01-19 01:31:23.84	91.36	55.08	-36.9	-38.1	29.1	3.03e+01	91	40	0	582483968	48	6199
2026-01-19 01:31:24.85	90.56	55.31	-37.2	-38.4	28.8	3.03e+01	91	40	0	584581120	48	6412
2026-01-19 01:31:25.86	89.75	55.53	-36.8	-38.1	29.1	3.03e+01	90	40	0	586153984	48	6146
2026-01-19 01:31:26.87	88.92	55.75	-37.2	-38.4	28.8	3.03e+01	92	40	0	588251136	48	6394
2026-01-19 01:31:27.88	88.08	55.97	-37.3	-38.6	28.8	3.03e+01	92	40	0	590348288	48	6516
2026-01-19 01:31:28.89	87.22	56.18	-37.1	-38.3	28.9	3.03e+01	90	40	0	591921152	48	6291
2026-01-19 01:31:29.90	86.36	56.38	-37.0	-38.2	29.0	3.03e+01	92	40	0	594018304	48	6271
2026-01-19 01:31:30.91	85.48	56.58	-37.6	-38.8	28.5	3.03e+01	92	40	0	596115456	48	6699
2026-01-19 01:31:31.92	84.59	56.77	-37.4	-38.6	28.6	3.03e+01	91	40	0	597688320	48	6556
2026-01-19 01:31:32.93	83.68	56.96	-37.6	-38.8	28.5	3.03e+01	92	40	0	599785472	48	6707
2026-01-19 01:31:33.94	82.77	57.14	-37.8	-39.1	28.3	3.03e+01	89	40	0	601358336	48	6925
2026-01-19 01:31:34.95	81.84	57.31	-38.1	-39.4	28.0	3.03e+01	92	40	0	603455488	50	6405
2026-01-19 01:31:35.96	80.90	57.48	-38.0	-39.3	28.1	3.03e+01	92	40	0	605552640	50	6306
2026-01-19 01:31:36.97	79.94	57.64	-38.0	-39.3	28.1	3.03e+01	92	40	0	607125504	50	6312
2026-01-19 01:31:37.98	78.98	57.79	-38.3	-39.6	27.8	3.03e+01	90	40	0	609222656	50	6564
2026-01-19 01:31:38.99	78.01	57.94	-38.1	-39.4	28.0	3.03e+01	91	40	0	610795520	50	6391
2026-01-19 01:31:40.00	77.02	58.08	-38.2	-39.5	27.9	3.03e+01	91	40	0	612892672	50	6475
2026-01-19 01:31:41.01	76.03	58.21	-38.3	-39.6	27.8	3.03e+01	92	40	0	614989824	50	6516
2026-01-19 01:31:42.02	75.02	58.33	-38.1	-39.4	28.0	3.03e+01	91	40	0	616562688	50	6404
2026-01-19 01:31:43.03	74.01	58.44	-38.0	-39.3	28.0	3.03e+01	91	40	0	618659840	50	6330
2026-01-19 01:31:44.04	72.99	58.55	-38.2	-39.4	27.9	3.03e+01	92	40	0	620756992	50	6413
2026-01-19 01:31:45.05	71.96	58.65	-38.1	-39.3	28.0	3.03e+01	92	40	0	622329856	50	6340
2026-01-19 01:31:46.06	70.92	58.74	-38.1	-39.3	28.0	3.03e+01	91	40	0	624427008	50	6336
2026-01-19 01:31:47.07	69.88	58.82	-38.3	-39.6	27.9	3.03e+01	90	40	0	625999872	50	6521
2026-01-19 01:31:48.08	68.83	58.89	-38.4	-39.7	27.8	3.03e+01	92	40	0	628097024	50	6584
2026-01-19 01:31:49.09	67.78	58.95	-38.3	-39.6	27.8	3.03e+01	92	40	0	630194176	50	6545
2026-01-19 01:31:50.10	66.72	59.01	-38.7	-40.0	27.4	3.03e+01	92	40	0	631767040	50	6838
2026-01-19 01:31:51.11	65.65	59.05	-38.5	-39.8	27.6	3.03e+01	92	40	0	633864192	50	6678
2026-01-19 01:31:52.12	64.59	59.09	-38.7	-40.0	27.5	3.03e+01	92	40	0	635961344	50	6839
2026-01-19 01:31:53.13	63.52	59.12	-38.5	-39.8	27.6	3.03e+01	92	40	0	637534208	50	6709
2026-01-19 01:31:54.14	62.44	59.14	-38.5	-39.8	27.6	3.03e+01	92	40	0	639631360	50	6712
2026-01-19 01:31:55.15	61.37	59.15	-38.4	-39.7	27.7	3.03e+01	92	40	0	641204224	50	6623
2026-01-19 01:31:56.16	60.30	59.15	-38.4	-39.7	27.8	3.03e+01	92	40	0	643301376	50	6598
2026-01-19 01:31:57.17	59.23	59.14	-39.1	-40.4	27.1	3.03e+01	92	40	0	645398528	52	6392
2026-01-19 01:31:58.18	58.16	59.12	-38.1	-39.4	28.0	3.03e+01	92	40	0	646971392	52	5682
2026-01-19 01:31:59.19	57.09	59.09	-38.5	-39.9	27.6	3.03e+01	92	40	0	649068544	52	5997
2026-01-19 01:32:00.20	56.02	59.05	-38.6	-39.9	27.5	3.03e+01	92	40	0	650641408	52	6058
2026-01-19 01:32:01.21	54.96	59.01	-38.2	-39.4	28.0	3.03e+01	92	40	0	652738560	52	5701
2026-01-19 01:32:02.22	53.90	58.95	-38.8	-40.1	27.4	3.03e+01	92	40	0	654835712	52	6155
2026-01-19 01:32:03.23	52.84	58.89	-38.6	-39.9	27.6	3.03e+01	90	40	0	656408576	52	5999
2026-01-19 01:32:04.24	51.79	58.82	-38.5	-39.8	27.7	3.03e+01	92	40	0	658505728	52	5949
2026-01-19 01:32:05.25	50.75	58.74	-38.4	-39.7	27.8	3.03e+01	90	40	0	660078592	52	5899
2026-01-19 01:32:06.26	49.71	58.65	-38.8	-40.2	27.4	3.03e+01	92	40	0	662175744	52	6210
2026-01-19 01:32:07.27	48.69	58.55	-38.7	-40.0	27.5	3.03e+01	92	40	0	664272896	52	6077
2026-01-19 01:32:08.28	47.66	58.44	-39.1	-40.5	27.1	3.03e+01	92	40	0	665845760	52	6429
2026-01-19 01:32:09.29	46.65	58.33	-38.5	-39.8	27.7	3.03e+01	92	40	0	667942912	52	5976
2026-01-19 01:32:10.30	45.65	58.21	-38.3	-39.6	27.8	3.03e+01	90	40	0	669515776	52	5812
2026-01-19 01:32:11.31	44.66	58.08	-38.5	-39.8	27.6	3.03e+01	92	40	0	671612928	52	5974
2026-01-19 01:32:12.32	43.67	57.94	-38.4	-39.7	27.8	3.03e+01	92	40	0	673710080	52	5897
2026-01-19 01:32:13.33	42.70	57.79	-38.5	-39.8	27.8	3.03e+01	91	40	0	675282944	52	5945
2026-01-19 01:32:14.34	41.74	57.64	-38.4	-39.7	27.9	3.03e+01	92	40	0	677380096	52	5861
2026-01-19 01:32:15.35	40.79	57.48	-37.8	-39.1	28.3	3.03e+01	86	40	0	678952960	50	6138
2026-01-19 01:32:16.36	39.85	57.31	-37.7	-39.0	28.4	3.03e+01	92	40	0	681050112	50	6084
2026-01-19 01:32:17.37	38.92	57.14	-38.1	-39.4	28.0	3.03e+01	92	40	0	683147264	50	6377
2026-01-19 01:32:18.38	38.00	56.96	-37.9	-39.2	28.2	3.03e+01	91	40	0	684720128	50	6214
2026-01-19 01:32:19.39	37.10	56.77	-37.8	-39.1	28.3	3.03e+01	91	40	0	686817280	50	6158
2026-01-19 01:32:20.40	36.21	56.58	-38.3	-39.6	27.9	3.03e+01	92	40	0	688914432	50	6539
2026-01-19 01:32:21.41	35.33	56.38	-38.2	-39.5	27.8	3.03e+01	92	40	0	690487296	50	6429
2026-01-19 01:32:22.42	34.47	56.18	-37.2	-38.5	28.8	3.03e+01	91	40	0	692584448	50	5738
2026-01-19 01:32:23.43	33.61	55.97	-37.0	-38.3	29.0	3.03e+01	91	40	0	694157312	50	5601
2026-01-19 01:32:24.44	32.77	55.76	-37.5	-38.8	28.6	3.03e+01	92	40	0	696254464	50	5962
2026-01-19 01:32:25.45	31.95	55.54	-37.0	-38.2	29.1	3.03e+01	91	40	0	698351616	50	5572
2026-01-19 01:32:26.46	31.13	55.31	-37.1	-38.3	29.1	3.03e+01	92	40	0	699924480	50	5624
2026-01-19 01:32:27.47	30.33	55.08	-36.9	-38.1	29.1	3.03e+01	91	40	0	702021632	48	6166
2026-01-19 01:32:28.48	29.55	54.85	-36.6	-37.8	29.4	3.03e+01	92	40	0	703594496	48	5954
2026-01-19 01:32:29.49	28.77	54.61	-36.4	-37.6	29.5	3.03e+01	92	40	0	705691648	48	5855
2026-01-19 01:32:30.49	28.02	54.37	-36.4	-37.6	29.6	3.03e+01	91	40	0	707788800	48	5850
2026-01-19 01:32:31.50	27.27	54.13	-36.2	-37.4	29.8	3.03e+01	91	40	0	709361664	48	5703
2026-01-19 01:32:32.51	26.53	53.88	-36.3	-37.4	29.7	3.03e+01	91	40	0	711458816	48	5724
2026-01-19 01:32:33.52	25.81	53.63	-36.3	-37.4	29.7	3.03e+01	90	40	0	713555968	48	5718
2026-01-19 01:32:34.54	25.10	53.37	-36.2	-37.4	29.8	3.03e+01	89	40	0	715128832	48	5672
2026-01-19 01:32:35.55	24.40	53.11	-36.2	-37.4	29.7	3.03e+01	91	40	0	717225984	48	5678
2026-01-19 01:32:36.56	23.71	52.85	-36.2	-37.4	29.7	3.03e+01	59	40	0	718798848	48	5714
2026-01-19 01:32:37.56	23.05	52.59	-36.3	-37.5	29.6	3.03e+01	59	40	0	720896000	48	5771
2026-01-19 01:32:38.57	22.39	52.32	-36.2	-37.3	29.8	3.03e+01	44	40	0	722993152	48	5651
2026-01-19 01:32:39.58	21.74	52.06	-36.5	-37.7	29.4	3.03e+01	60	40	0	724566016	48	5926
2026-01-19 01:32:40.59	21.10	51.79	-36.6	-37.8	29.4	3.03e+01	58	40	0	726663168	48	5982
2026-01-19 01:32:41.60	20.48	51.51	-35.8	-36.9	30.1	3.03e+01	57	40	0	728236032	46	6055
2026-01-19 01:32:42.61	19.87	51.24	-36.5	-37.7	29.5	3.03e+01	58	40	0	730333184	46	6622
2026-01-19 01:32:43.62	19.26	50.96	-36.5	-37.7	29.5	3.03e+01	55	40	0	732430336	46	6584
2026-01-19 01:32:44.63	18.67	50.68	-36.9	-38.1	29.1	3.03e+01	59	40	0	734003200	46	6919
2026-01-19 01:32:45.64	18.09	50.41	-36.6	-37.8	29.3	3.03e+01	58	40	0	736100352	46	6707
2026-01-19 01:32:46.65	17.53	50.13	-36.4	-37.5	29.6	3.03e+01	53	40	0	737673216	46	6493
2026-01-19 01:32:47.65	16.97	49.85	-36.5	-37.7	29.5	3.03e+01	58	41	0	739770368	46	6611
2026-01-19 01:32:48.66	16.42	49.56	-37.0	-38.3	29.0	3.03e+01	59	41	0	741867520	48	6283
2026-01-19 01:32:49.67	15.89	49.28	-36.5	-37.7	29.4	3.03e+01	56	40	0	743440384	48	5901
2026-01-19 01:32:50.68	15.36	49.00	-36.6	-37.8	29.4	3.03e+01	60	40	0	745537536	48	5978
2026-01-19 01:32:51.69	14.84	48.71	-36.4	-37.6	29.6	3.03e+01	50	40	0	747110400	48	5853
2026-01-19 01:32:52.70	14.33	48.43	-36.0	-37.2	29.8	3.03e+01	57	40	0	749207552	48	5564
2026-01-19 01:32:53.71	13.84	48.14	-36.4	-37.6	29.6	3.03e+01	60	40	0	751304704	48	5800
2026-01-19 01:32:54.72	13.35	47.86	-37.0	-38.3	28.9	3.03e+01	45	40	0	752877568	48	6316
2026-01-19 01:32:55.73	12.87	47.57	-36.4	-37.6	29.4	3.03e+01	56	40	0	754974720	48	5840
2026-01-19 01:32:56.74	12.39	47.28	-36.4	-37.6	29.6	3.03e+01	61	40	0	757071872	48	5825
2026-01-19 01:32:57.75	11.93	47.00	-36.1	-37.3	29.8	3.03e+01	60	40	0	758644736	48	5617
2026-01-19 01:32:58.76	11.48	46.71	-36.4	-37.6	29.6	3.03e+01	59	40	0	760741888	48	5838
2026-01-19 01:32:59.77	11.03	46.42	-36.5	-37.7	29.5	3.03e+01	53	40	0	762314752	48	5925
2026-01-19 01:33:00.78	10.60	46.14	-36.5	-37.7	29.5	3.03e+01	59	40	0	764411904	48	5870
2026-01-19 01:33:01.79	10.17	45.85	-36.4	-37.6	29.5	3.03e+01	57	40	0	766509056	48	5849
2026-01-19 01:33:02.80	9.75	45.57	-36.4	-37.6	29.6	3.03e+01	59	41	0	768081920	48	5832
2026-01-19 01:33:03.81	9.33	45.28	-36.4	-37.6	29.6	3.03e+01	60	40	0	770179072	48	5815
2026-01-19 01:33:04.82	8.93	45.00	-36.5	-37.7	29.4	3.03e+01	46	40	0	771751936	48	5926
2026-01-19 01:33:05.83	8.53	44.71	-37.0	-38.2	29.1	3.03e+01	60	40	0	773849088	48	6238
2026-01-19 01:33:06.84	8.13	44.43	-37.2	-38.4	28.8	3.03e+01	60	40	0	775946240	48	6423
2026-01-19 01:33:07.85	7.75	44.15	-36.9	-38.1	29.1	3.03e+01	50	40	0	777519104	48	6189
2026-01-19 01:33:08.86	7.37	43.87	-36.6	-37.8	29.3	3.03e+01	58	40	0	779616256	48	5975
2026-01-19 01:33:09.86	7.01	43.59	-36.9	-38.1	29.2	3.03e+01	56	40	0	781713408	48	6180
2026-01-19 01:33:10.88	6.64	43.31	-36.9	-38.1	29.1	3.03e+01	58	40	0	783286272	48	6147
2026-01-19 01:33:11.88	6.28	43.03	-37.2	-38.4	28.9	3.03e+01	59	40	0	785383424	48	6399
2026-01-19 01:33:12.89	5.93	42.75	-37.7	-39.0	28.4	3.03e+01	50	40	0	786956288	48	6809
2026-01-19 01:33:13.90	5.59	42.48	-37.4	-38.6	28.6	3.03e+01	59	40	0	789053440	48	6560
2026-01-19 01:33:14.91	5.25	42.20	-37.0	-38.2	28.9	3.03e+01	60	40	0	790626304	48	6216
2026-01-19 01:33:15.92	4.91	41.92	-37.3	-38.5	28.9	3.03e+01	52	40	0	792723456	48	6446
2026-01-19 01:33:16.93	4.59	41.65	-37.8	-39.1	28.3	3.03e+01	60	40	0	794820608	48	6952
2026-01-19 01:33:17.94	4.26	41.38	-37.7	-39.0	28.3	3.03e+01	59	40	0	796393472	50	6075
2026-01-19 01:33:18.95	3.95	41.11	-37.7	-39.0	28.3	3.03e+01	61	40	0	798490624	50	6087
2026-01-19 01:33:19.96	3.64	40.83	-38.0	-39.3	28.1	3.03e+01	58	40	0	800063488	50	6316
2026-01-19 01:33:20.97	3.33	40.57	-38.3	-39.6	27.8	3.03e+01	46	40	0	802160640	50	6500
2026-01-19 01:33:21.98	3.03	40.30	-38.3	-39.6	27.8	3.03e+01	60	40	0	804257792	50	6558
2026-01-19 01:33:22.99	2.74	40.03	-38.2	-39.5	27.9	3.03e+01	61	40	0	805830656	50	6435
2026-01-19 01:33:24.00	2.44	39.76	-37.8	-39.0	28.4	3.03e+01	46	40	0	807927808	50	6100
2026-01-19 01:33:25.01	2.16	39.50	-38.0	-39.2	28.2	3.03e+01	56	41	0	810024960	50	6254
2026-01-19 01:33:26.02	1.88	39.24	-38.5	-39.8	27.6	3.03e+01	61	41	0	811597824	50	6691
2026-01-19 01:33:27.03	1.60	38.98	-38.8	-40.1	27.3	3.03e+01	58	40	0	813694976	50	6962
2026-01-19 01:33:28.04	1.33	38.72	-38.9	-40.3	27.2	3.03e+01	62	40	0	815267840	52	6298
2026-01-19 01:33:29.05	1.06	38.46	-38.9	-40.3	27.2	3.03e+01	46	41	0	817364992	52	6291
2026-01-19 01:33:30.06	0.80	38.20	-38.2	-39.5	27.9	3.03e+01	59	40	0	819462144	52	5743
2026-01-19 01:33:31.07	0.54	37.94	-38.2	-39.5	28.0	3.03e+01	60	40	0	821035008	52	5775
2026-01-19 01:33:32.08	0.29	37.69	-38.7	-40.0	27.5	3.03e+01	46	40	0	823132160	52	6110
2026-01-19 01:33:33.09	0.04	37.44	-38.9	-40.3	27.3	3.03e+01	59	40	0	825229312	52	6296
2026-01-19 01:33:34.10	359.79	37.18	-38.6	-39.9	27.4	3.03e+01	61	40	0	826802176	52	6042
2026-01-19 01:33:35.11	359.55	36.93	-38.5	-39.8	27.7	3.03e+01	58	40	0	828899328	52	5985
2026-01-19 01:33:36.11	359.31	36.69	-38.5	-39.8	27.7	3.03e+01	58	40	0	830472192	52	5967
2026-01-19 01:33:37.13	359.07	36.44	-38.5	-39.8	27.6	3.03e+01	53	41	0	832569344	52	5992
2026-01-19 01:33:38.13	358.85	36.19	-38.3	-39.7	27.8	3.03e+01	60	40	0	834666496	52	5875
2026-01-19 01:33:39.15	358.62	35.95	-38.2	-39.5	27.9	3.03e+01	60	40	0	836239360	52	5744
2026-01-19 01:33:40.15	358.39	35.71	-37.9	-39.1	28.3	3.03e+01	59	40	0	838336512	50	6196
2026-01-19 01:33:41.16	358.17	35.46	-37.7	-38.9	28.4	3.03e+01	58	40	0	839909376	50	6063
2026-01-19 01:33:42.17	357.96	35.22	-37.5	-38.7	28.6	3.03e+01	44	40	0	842006528	50	5891
2026-01-19 01:33:43.18	357.74	34.98	-37.6	-38.8	28.6	3.03e+01	56	40	0	844103680	50	5958
2026-01-19 01:33:44.19	357.53	34.75	-37.6	-38.9	28.5	3.03e+01	58	40	0	845676544	50	6006
2026-01-19 01:33:45.20	357.32	34.51	-37.6	-38.8	28.5	3.03e+01	46	40	0	847773696	50	5981
2026-01-19 01:33:46.21	357.12	34.28	-37.4	-38.6	28.7	3.03e+01	60	40	0	849346560	50	5840
2026-01-19 01:33:47.22	356.92	34.04	-37.4	-38.6	28.6	3.03e+01	58	40	0	851443712	50	5843
2026-01-19 01:33:48.23	356.72	33.81	-37.1	-38.3	29.0	3.03e+01	61	40	0	853540864	50	5623
2026-01-19 01:33:49.24	356.52	33.58	-37.1	-38.3	28.9	3.03e+01	57	40	0	855113728	50	5642
2026-01-19 01:33:50.25	356.33	33.35	-37.0	-38.2	29.1	3.03e+01	46	40	0	857210880	48	6244
2026-01-19 01:33:51.26	356.14	33.13	-36.6	-37.9	29.3	3.03e+01	56	40	0	858783744	48	5997
2026-01-19 01:33:52.26	355.95	32.90	-36.7	-37.9	29.3	3.03e+01	60	40	0	860880896	48	6021
2026-01-19 01:33:53.27	355.77	32.68	-36.5	-37.7	29.4	3.03e+01	52	40	0	862978048	48	5900
2026-01-19 01:33:54.28	355.59	32.46	-36.6	-37.8	29.4	3.03e+01	60	40	0	864550912	48	5941
2026-01-19 01:33:55.29	355.41	32.24	-36.6	-37.8	29.4	3.03e+01	63	40	0	866648064	48	5970
2026-01-19 01:33:56.30	355.23	32.02	-36.7	-37.9	29.3	3.03e+01	59	40	0	868220928	48	6031
2026-01-19 01:33:57.31	355.06	31.80	-36.4	-37.7	29.4	3.03e+01	59	41	0	870318080	48	5889
2026-01-19 01:33:58.32	354.89	31.58	-36.4	-37.6	29.4	3.03e+01	49	40	0	872415232	48	5856
2026-01-19 01:33:59.33	354.72	31.37	-36.3	-37.5	29.6	3.03e+01	64	40	0	873988096	48	5751
2026-01-19 01:34:00.34	354.55	31.15	-36.3	-37.5	29.5	3.03e+01	59	40	0	876085248	48	5790
2026-01-19 01:34:01.35	354.38	30.94	-36.5	-37.7	29.3	3.03e+01	47	40	0	878182400	48	5915
2026-01-19 01:34:02.36	354.22	30.73	-36.4	-37.6	29.5	3.03e+01	60	40	0	879755264	48	5797
2026-01-19 01:34:03.37	354.06	30.52	-36.4	-37.6	29.4	3.03e+01	60	40	0	881852416	48	5822
2026-01-19 01:34:04.38	353.90	30.31	-36.3	-37.5	29.5	3.03e+01	58	40	0	883425280	48	5785
2026-01-19 01:34:05.39	353.75	30.10	-36.3	-37.5	29.6	3.03e+01	58	40	0	885522432	48	5729
2026-01-19 01:34:06.40	353.59	29.90	-36.4	-37.6	29.6	3.03e+01	49	41	0	887619584	48	5848
2026-01-19 01:34:07.41	353.44	29.69	-36.2	-37.5	29.6	3.03e+01	60	40	0	889192448	48	5734
2026-01-19 01:34:08.42	353.29	29.49	-36.2	-37.4	29.6	3.03e+01	58	41	0	891289600	48	5704
2026-01-19 01:34:09.43	353.14	29.29	-36.2	-37.4	29.7	3.03e+01	57	40	0	893386752	48	5704
2026-01-19 01:34:10.44	353.00	29.09	-36.3	-37.6	29.5	3.03e+01	61	40	0	894959616	48	5793
2026-01-19 01:34:11.45	352.85	28.89	-36.4	-37.7	29.4	3.03e+01	52	41	0	897056768	48	5884
2026-01-19 01:34:12.46	352.71	28.69	-36.5	-37.8	29.3	3.03e+01	57	41	0	898629632	48	5962
2026-01-19 01:34:13.47	352.57	28.49	-36.6	-37.9	29.2	3.03e+01	55	41	0	900726784	48	6005
2026-01-19 01:34:14.48	352.43	28.30	-36.8	-38.0	29.1	3.03e+01	51	40	0	902823936	48	6117
2026-01-19 01:34:15.49	352.30	28.10	-36.7	-38.0	29.2	3.03e+01	59	41	0	904396800	48	6085
2026-01-19 01:34:16.49	352.16	27.91	-36.5	-37.8	29.2	3.03e+01	61	41	0	906493952	48	5941
2026-01-19 01:34:17.50	352.03	27.72	-36.7	-38.0	29.1	3.03e+01	56	40	0	908066816	48	6068
2026-01-19 01:34:18.51	351.90	27.53	-36.6	-37.8	29.3	3.03e+01	59	40	0	910163968	48	5959
2026-01-19 01:34:19.52	351.77	27.34	-36.6	-37.8	29.2	3.03e+01	45	40	0	912261120	48	5974
2026-01-19 01:34:20.53	351.64	27.15	-36.5	-37.7	29.4	3.03e+01	59	41	0	913833984	48	5918
2026-01-19 01:34:21.54	351.51	26.97	-36.6	-37.8	29.3	3.03e+01	59	40	0	915931136	48	5981
2026-01-19 01:34:22.55	351.39	26.78	-36.7	-37.9	29.2	3.03e+01	44	41	0	917504000	48	6034
2026-01-19 01:34:23.56	351.26	26.60	-36.8	-38.0	29.1	3.03e+01	60	40	0	919601152	48	6130
2026-01-19 01:34:24.57	351.14	26.42	-36.8	-38.0	29.1	3.03e+01	55	40	0	921698304	48	6103
2026-01-19 01:34:25.58	351.02	26.23	-36.7	-38.0	29.1	3.03e+01	57	40	0	923271168	48	6075
2026-01-19 01:34:26.59	350.90	26.05	-36.8	-38.0	29.0	3.03e+01	57	41	0	925368320	48	6103
2026-01-19 01:34:27.60	350.78	25.87	-36.9	-38.1	29.1	3.03e+01	51	40	0	926941184	48	6174
2026-01-19 01:34:28.61	350.67	25.70	-36.8	-38.1	29.0	3.03e+01	61	41	0	929038336	48	6154
2026-01-19 01:34:29.62	350.55	25.52	-37.0	-38.2	28.9	3.03e+01	61	41	0	931135488	48	6263
2026-01-19 01:34:30.63	350.44	25.34	-37.1	-38.4	28.8	3.03e+01	50	41	0	932708352	48	6378
2026-01-19 01:34:31.64	350.33	25.17	-37.2	-38.5	28.7	3.03e+01	59	41	0	934805504	48	6443
2026-01-19 01:34:32.65	350.22	24.99	-37.2	-38.5	28.7	3.03e+01	54	41	0	936378368	48	6463
2026-01-19 01:34:33.66	350.11	24.82	-37.1	-38.3	28.7	3.03e+01	57	41	0	938475520	48	6329
2026-01-19 01:34:34.67	350.00	24.65	-37.1	-38.3	28.8	3.03e+01	59	41	0	940572672	48	6343
2026-01-19 01:34:35.68	349.89	24.48	-37.1	-38.3	28.8	3.03e+01	52	41	0	942145536	48	6309
2026-01-19 01:34:36.69	349.79	24.31	-37.2	-38.4	28.7	3.03e+01	58	41	0	944242688	48	6380
2026-01-19 01:34:37.70	349.68	24.14	-37.1	-38.3	28.8	3.03e+01	60	41	0	946339840	48	6304
2026-01-19 01:34:38.71	349.58	23.98	-36.9	-38.2	28.9	3.03e+01	44	41	0	947912704	48	6224
2026-01-19 01:34:39.72	349.48	23.81	-37.0	-38.3	28.9	3.03e+01	60	41	0	950009856	48	6304
2026-01-19 01:34:40.73	349.38	23.65	-36.9	-38.2	28.9	3.03e+01	61	41	0	951582720	48	6225
2026-01-19 01:34:41.74	349.28	23.48	-37.1	-38.3	28.8	3.03e+01	56	41	0	953679872	48	6332
2026-01-19 01:34:42.75	349.18	23.32	-37.2	-38.4	28.8	3.03e+01	59	41	0	955777024	48	6418
2026-01-19 01:34:43.75	349.08	23.16	-37.1	-38.4	28.7	3.03e+01	55	41	0	957349888	48	6357
2026-01-19 01:34:44.76	348.98	23.00	-37.1	-38.3	28.7	3.03e+01	62	41	0	959447040	48	6326
2026-01-19 01:34:45.77	348.89	22.84	-37.1	-38.4	28.7	3.03e+01	60	41	0	961544192	48	6360
2026-01-19 01:34:46.78	348.79	22.68	-37.2	-38.5	28.6	3.03e+01	61	41	0	963117056	48	6432
2026-01-19 01:34:47.79	348.70	22.52	-37.1	-38.3	28.8	3.03e+01	56	41	0	965214208	48	6313
2026-01-19 01:34:48.80	348.61	22.36	-37.2	-38.4	28.6	3.03e+01	57	41	0	966787072	48	6423
2026-01-19 01:34:49.81	348.52	22.21	-37.1	-38.3	28.8	3.03e+01	59	41	0	968884224	48	6318
2026-01-19 01:34:50.82	348.43	22.05	-37.1	-38.4	28.7	3.03e+01	60	41	0	970981376	48	6371
2026-01-19 01:34:51.83	348.34	21.90	-37.2	-38.4	28.7	3.03e+01	53	41	0	972554240	48	6409
2026-01-19 01:34:52.84	348.25	21.75	-37.3	-38.5	28.6	3.03e+01	59	41	0	974651392	48	6467
2026-01-19 01:34:53.85	348.16	21.59	-37.2	-38.5	28.7	3.03e+01	60	41	0	976224256	48	6432
2026-01-19 01:34:54.86	348.08	21.44	-37.3	-38.5	28.6	3.03e+01	58	41	0	978321408	48	6485
2026-01-19 01:34:55.87	347.99	21.29	-37.3	-38.6	28.5	3.03e+01	59	40	0	980418560	48	6532
2026-01-19 01:34:56.88	347.91	21.14	-37.3	-38.5	28.6	3.03e+01	55	41	0	981991424	48	6481
2026-01-19 01:34:57.89	347.82	21.00	-37.3	-38.5	28.5	3.03e+01	59	41	0	984088576	48	6475
2026-01-19 01:34:58.90	347.74	20.85	-37.1	-38.3	28.7	3.03e+01	57	40	0	985661440	48	6350
2026-01-19 01:34:59.91	347.66	20.70	-37.2	-38.4	28.5	3.03e+01	46	41	0	987758592	48	6414
2026-01-19 01:35:00.92	347.58	20.55	-37.1	-38.4	28.7	3.03e+01	56	40	0	989855744	48	6376
2026-01-19 01:35:01.93	347.49	20.41	-36.9	-38.2	28.8	3.03e+01	60	40	0	991428608	48	6232
2026-01-19 01:35:02.94	347.42	20.27	-36.9	-38.2	28.8	3.03e+01	59	41	0	993525760	48	6246
2026-01-19 01:35:03.94	347.34	20.12	-36.9	-38.2	28.8	3.03e+01	58	41	0	995098624	48	6242
2026-01-19 01:35:04.96	347.26	19.98	-37.0	-38.3	28.8	3.03e+01	60	40	0	997195776	48	6309
2026-01-19 01:35:05.96	347.18	19.84	-37.0	-38.2	28.8	3.03e+01	58	40	0	999292928	48	6273
2026-01-19 01:35:06.97	347.11	19.70	-37.0	-38.3	28.8	3.03e+01	57	40	0	1000865792	48	6297
2026-01-19 01:35:07.98	347.03	19.56	-37.2	-38.4	28.6	3.03e+01	48	40	0	1002962944	48	6406
2026-01-19 01:35:08.99	346.96	19.42	-37.0	-38.3	28.7	3.03e+01	58	41	0	1004535808	48	6321
2026-01-19 01:35:10.00	346.88	19.28	-37.2	-38.4	28.7	3.03e+01	58	40	0	1006632960	48	6410
2026-01-19 01:35:11.01	346.81	19.14	-37.1	-38.4	28.7	3.03e+01	60	40	0	1008730112	48	6366
2026-01-19 01:35:12.02	346.74	19.01	-37.2	-38.5	28.6	3.03e+01	58	41	0	1010302976	48	6433
2026-01-19 01:35:13.03	346.66	18.87	-37.0	-38.3	28.7	3.03e+01	50	40	0	1012400128	48	6299
2026-01-19 01:35:14.04	346.59	18.74	-37.2	-38.5	28.5	3.03e+01	56	40	0	1014497280	48	6439
2026-01-19 01:35:15.05	346.52	18.60	-37.0	-38.2	28.7	3.03e+01	59	40	0	1016070144	48	6259
2026-01-19 01:35:16.06	346.45	18.47	-37.0	-38.2	28.8	3.03e+01	45	40	0	1018167296	48	6254
2026-01-19 01:35:17.07	346.38	18.33	-36.8	-38.1	28.8	3.03e+01	58	40	0	1019740160	48	6144
2026-01-19 01:35:18.08	346.32	18.20	-36.8	-38.0	29.0	3.03e+01	56	41	0	1021837312	48	6116
2026-01-19 01:35:19.09	346.25	18.07	-36.8	-38.0	29.0	3.03e+01	58	41	0	1023934464	48	6116
2026-01-19 01:35:20.10	346.18	17.94	-36.7	-38.0	29.0	3.03e+01	60	40	0	1025507328	48	6069
2026-01-19 01:35:21.11	346.11	17.81	-36.8	-38.0	28.9	3.03e+01	54	40	0	1027604480	48	6125
2026-01-19 01:35:22.12	346.05	17.68	-36.7	-38.0	29.0	3.03e+01	58	41	0	1029701632	48	6068
2026-01-19 01:35:23.13	345.98	17.55	-36.8	-38.0	29.0	3.03e+01	59	41	0	1031274496	48	6103
2026-01-19 01:35:24.14	345.92	17.42	-36.9	-38.1	28.8	3.03e+01	59	41	0	1033371648	48	6178
2026-01-19 01:35:25.15	345.85	17.30	-36.8	-38.1	28.9	3.03e+01	60	40	0	1034944512	48	6142
2026-01-19 01:35:26.16	345.79	17.17	-37.0	-38.2	28.8	3.03e+01	45	40	0	1037041664	48	6244
2026-01-19 01:35:27.17	345.73	17.04	-36.9	-38.1	28.8	3.03e+01	57	41	0	1039138816	48	6184
2026-01-19 01:35:28.18	345.67	16.92	-36.9	-38.2	28.8	3.03e+01	57	40	0	1040711680	48	6229
2026-01-19 01:35:29.19	345.60	16.79	-37.0	-38.2	28.8	3.03e+01	53	41	0	1042808832	48	6256
2026-01-19 01:35:30.19	345.54	16.67	-36.9	-38.2	28.8	3.03e+01	58	40	0	1044381696	48	6220
2026-01-19 01:35:31.20	345.48	16.55	-37.0	-38.3	28.7	3.03e+01	58	40	0	1046478848	48	6290
2026-01-19 01:35:32.22	345.42	16.42	-37.1	-38.3	28.6	3.03e+01	60	40	0	1048576000	48	6342
2026-01-19 01:35:33.22	345.36	16.30	-37.2	-38.5	28.6	3.03e+01	60	40	0	1050148864	48	6424
2026-01-19 01:35:34.23	345.31	16.18	-37.2	-38.4	28.5	3.03e+01	45	40	0	1052246016	48	6398
2026-01-19 01:35:35.24	345.25	16.06	-37.4	-38.6	28.3	3.03e+01	60	41	0	1053818880	48	6553
2026-01-19 01:35:36.25	345.19	15.94	-37.1	-38.3	28.6	3.03e+01	61	41	0	1055916032	48	6338
2026-01-19 01:35:37.26	345.13	15.82	-37.1	-38.4	28.6	3.03e+01	46	40	0	1058013184	48	6372
2026-01-19 01:35:38.27	345.08	15.70	-37.1	-38.4	28.5	3.03e+01	59	40	0	1059586048	48	6383
2026-01-19 01:35:39.28	345.02	15.59	-37.2	-38.5	28.5	3.03e+01	61	40	0	1061683200	48	6454
2026-01-19 01:35:40.29	344.96	15.47	-37.1	-38.3	28.6	3.03e+01	59	40	0	1063256064	48	6343
2026-01-19 01:35:41.30	344.91	15.35	-37.1	-38.4	28.5	3.03e+01	62	40	0	1065353216	48	6378
2026-01-19 01:35:42.31	344.85	15.23	-37.1	-38.3	28.6	3.03e+01	47	40	0	1067450368	48	6335
2026-01-19 01:35:43.33	344.80	15.12	-37.2	-38.4	28.5	3.03e+01	61	40	0	1069023232	48	6404
2026-01-19 01:35:44.33	344.75	15.00	-37.1	-38.4	28.6	3.03e+01	61	40	0	1071120384	48	6362
2026-01-19 01:35:45.34	344.69	14.89	-37.0	-38.3	28.6	3.03e+01	52	40	0	1072693248	48	6295
2026-01-19 01:35:46.35	344.64	14.77	-37.1	-38.4	28.5	3.03e+01	59	41	0	1074790400	48	6389
2026-01-19 01:35:47.36	344.59	14.66	-37.1	-38.4	28.5	3.03e+01	58	40	0	1076887552	48	6388
2026-01-19 01:35:48.37	344.54	14.55	-37.1	-38.4	28.5	3.03e+01	57	40	0	1078460416	48	6357
2026-01-19 01:35:49.38	344.48	14.44	-37.2	-38.5	28.4	3.03e+01	60	40	0	1080557568	48	6426
2026-01-19 01:35:50.39	344.43	14.32	-37.1	-38.3	28.5	3.03e+01	56	40	0	1082654720	48	6342
2026-01-19 01:35:51.40	344.38	14.21	-37.0	-38.3	28.6	3.03e+01	61	40	0	1084227584	48	6309
2026-01-19 01:35:52.41	344.33	14.10	-37.1	-38.4	28.5	3.03e+01	53	40	0	1086324736	48	6382
2026-01-19 01:35:53.42	344.28	13.99	-37.1	-38.3	28.6	3.03e+01	46	40	0	1087897600	48	6319
2026-01-19 01:35:54.43	344.23	13.88	-37.2	-38.4	28.5	3.03e+01	60	41	0	1089994752	48	6399
2026-01-19 01:35:55.44	344.18	13.77	-37.2	-38.5	28.4	3.03e+01	52	40	0	1092091904	48	6441
2026-01-19 01:35:56.45	344.14	13.66	-37.1	-38.4	28.4	3.03e+01	60	40	0	1093664768	48	6401
2026-01-19 01:35:57.46	344.09	13.56	-37.1	-38.4	28.5	3.03e+01	58	41	0	1095761920	48	6356
2026-01-19 01:35:58.47	344.04	13.45	-37.1	-38.4	28.5	3.03e+01	51	40	0	1097859072	48	6369
2026-01-19 01:35:59.48	343.99	13.34	-37.2	-38.5	28.4	3.03e+01	61	40	0	1099431936	48	6428
2026-01-19 01:36:00.49	343.95	13.23	-37.1	-38.4	28.4	3.03e+01	61	40	0	1101529088	48	6389
2026-01-19 01:36:01.50	343.90	13.13	-37.2	-38.5	28.4	3.03e+01	61	41	0	1103101952	48	6451
2026-01-19 01:36:02.51	343.85	13.02	-37.2	-38.4	28.4	3.03e+01	60	40	0	1105199104	48	6411
2026-01-19 01:36:03.52	343.81	12.92	-37.5	-38.8	28.2	3.03e+01	45	41	0	1107296256	48	6694
2026-01-19 01:36:04.53	343.76	12.81	-37.0	-38.3	28.5	3.03e+01	62	40	0	1108869120	48	6314
2026-01-19 01:36:05.54	343.72	12.71	-37.2	-38.5	28.3	3.03e+01	59	40	0	1110966272	48	6457
2026-01-19 01:36:06.55	343.67	12.60	-37.6	-47.8	3.4	3.03e+01	0	41	104	1112014848	48	18805
2026-01-19 01:36:07.56	343.63	12.50	-37.6	-47.8	3.6	3.03e+01	0	41	104	1112014848	48	18869
2026-01-19 01:36:08.57	343.59	12.40	-37.7	-47.8	3.6	3.03e+01	0	40	104	1112014848	48	18776
2026-01-19 01:36:09.57	343.54	12.30	-37.7	-47.8	3.6	3.03e+01	0	40	104	1112014848	48	18822
2026-01-19 01:36:10.58	343.50	12.20	-39.0	-49.2	3.6	3.03e+01	0	40	104	1112014848	50	19792
2026-01-19 01:36:11.59	343.46	12.09	-46.9	-59.2	3.4	3.03e+01	0	40	104	1112014848	56	44334
2026-01-19 01:36:12.60	343.41	11.99	-41.2	-51.7	3.6	3.03e+01	0	40	104	1112014848	60	14795
2026-01-19 01:36:13.61	343.37	11.89	-41.8	-52.4	3.8	3.03e+01	0	41	104	1112014848	50	28664
2026-01-19 01:36:14.61	343.33	11.79	-41.5	-52.1	3.5	3.03e+01	0	41	104	1112014848	60	15488
2026-01-19 01:36:15.62	343.29	11.69	-38.4	-48.6	3.6	3.03e+01	0	41	104	1112014848	52	16422
2026-01-19 01:36:16.62	343.25	11.60	-38.4	-48.6	3.6	3.03e+01	0	41	104	1112014848	52	16437
2026-01-19 01:36:17.63	343.21	11.50	-38.5	-48.8	3.4	3.03e+01	0	40	104	1112014848	52	16804
2026-01-19 01:36:18.64	343.17	11.40	-42.9	-53.8	3.5	3.03e+01	0	40	104	1112014848	56	23622
2026-01-19 01:36:19.65	343.13	11.30	-40.3	-50.7	3.6	3.03e+01	0	41	104	1112014848	56	16551
2026-01-19 01:36:20.65	343.09	11.20	-48.3	-62.2	3.5	3.03e+01	0	41	104	1112014848	60	49727
2026-01-19 01:36:21.67	343.05	11.11	-43.0	-53.8	3.4	3.03e+01	0	41	104	1112014848	60	18872
2026-01-19 01:36:22.67	343.01	11.01	-46.0	-58.0	3.4	3.03e+01	0	41	104	1112014848	58	34248
2026-01-19 01:36:23.68	342.97	10.91	-43.9	-55.0	4.0	3.03e+01	0	41	104	1112014848	60	21757
2026-01-19 01:36:24.69	342.93	10.82	-40.5	-51.0	4.1	3.03e+01	0	41	104	1112014848	56	17154
2026-01-19 01:36:25.70	342.89	10.72	-40.6	-50.9	3.8	3.03e+01	0	41	104	1112014848	56	16916
2026-01-19 01:36:26.71	342.86	10.63	-40.9	-51.3	3.9	3.03e+01	0	41	104	1112014848	56	17750
2026-01-19 01:36:27.72	342.82	10.53	-42.1	-52.7	3.6	3.03e+01	0	41	104	1112014848	56	21005
2026-01-19 01:36:28.73	342.78	10.44	-42.3	-52.9	3.5	3.03e+01	0	41	104	1112014848	60	17039
2026-01-19 01:36:29.74	342.74	10.34	-49.1	-65.7	3.5	3.03e+01	0	41	104	1112014848	60	74273
2026-01-19 01:36:30.75	342.71	10.25	-48.9	-64.8	3.5	3.03e+01	0	41	104	1112014848	60	67098
2026-01-19 01:36:31.76	342.67	10.16	-39.2	-49.5	3.5	3.03e+01	0	41	104	1112014848	52	18199
2026-01-19 01:36:32.77	342.63	10.07	-39.5	-49.8	3.5	3.03e+01	0	41	104	1112014848	54	16809
2026-01-19 01:36:33.78	342.60	9.97	-39.3	-49.6	3.5	3.03e+01	0	41	104	1112014848	54	16392
2026-01-19 01:36:34.79	342.56	9.88	-38.9	-49.2	3.5	3.03e+01	0	41	104	1112014848	52	17591
