passes_logs/2026/01/19/R4.6S_Anadyr/R4.6S_Anadyr__20260119_125934_NOAA_21_JPSS-2_rec.log

#Pass ID: 20260119_125934_NOAA 21 (JPSS-2)
#Satellite: NOAA 21 (JPSS-2)
#Configuration: NOAA-21
#almurnet v.1.7.20251203
#Start time: 2026-01-19 12:59:37

#Version: 2.2.20231116
#Station: R4.6S_Anadyr
#Location: 177.4865 lon 64.73178 lat
#TLE: 1 54234U 22150A   26018.88939962  .00000052  00000+0  45304-4 0  9995
#TLE: 2 54234  98.7504 319.7421 0000606 261.7569  98.3539 14.19535520165361

#Time	Az	El	Level	Level2	SNR	BER	BlckErr	Temp	State	Recorded	gain1	gain2
2026-01-19 12:59:37.61	18.83	0.17	-50.6	-62.0	3.3	1.54e+00	0	40	0	0	60	44314
2026-01-19 12:59:38.61	18.88	0.23	-50.7	-63.6	3.5	1.52e+00	0	40	104	0	60	52828
2026-01-19 12:59:39.62	18.94	0.28	-50.7	-63.6	3.5	1.52e+00	0	40	104	0	60	52901
2026-01-19 12:59:40.63	19.00	0.34	-50.6	-63.6	3.5	1.52e+00	0	40	104	0	60	53206
2026-01-19 12:59:41.65	19.06	0.39	-50.7	-63.6	3.5	1.52e+00	0	40	104	0	60	52891
2026-01-19 12:59:42.65	19.11	0.45	-50.7	-63.5	3.5	1.52e+00	0	40	104	0	60	52778
2026-01-19 12:59:43.66	19.17	0.50	-50.7	-63.6	3.5	1.52e+00	0	40	104	0	60	53004
2026-01-19 12:59:44.67	19.23	0.56	-50.7	-63.6	3.5	1.52e+00	0	40	104	0	60	53023
2026-01-19 12:59:45.68	19.29	0.61	-50.7	-63.5	3.5	1.52e+00	0	40	104	0	60	52617
2026-01-19 12:59:46.69	19.34	0.67	-50.7	-63.5	3.5	1.52e+00	0	40	104	0	60	52648
2026-01-19 12:59:47.70	19.40	0.72	-50.6	-63.5	3.5	1.52e+00	0	40	104	0	60	52458
2026-01-19 12:59:48.72	19.46	0.78	-50.6	-63.4	3.5	1.52e+00	0	40	104	0	60	52056
2026-01-19 12:59:49.73	19.52	0.83	-50.5	-63.4	3.5	1.52e+00	0	40	104	0	60	51863
2026-01-19 12:59:50.74	19.58	0.89	-50.4	-63.2	3.5	1.52e+00	0	40	104	0	60	51009
2026-01-19 12:59:51.75	19.64	0.94	-50.3	-63.2	3.5	1.52e+00	0	40	104	0	60	50493
2026-01-19 12:59:52.75	19.70	1.00	-50.2	-63.1	3.5	1.52e+00	0	40	104	0	60	50052
2026-01-19 12:59:53.77	19.76	1.06	-49.7	-63.0	3.5	1.52e+00	0	40	104	0	60	49531
2026-01-19 12:59:54.78	19.82	1.11	-50.0	-62.8	3.5	1.51e+00	0	40	104	0	60	48626
2026-01-19 12:59:55.79	19.88	1.17	-49.8	-62.7	3.5	1.52e+00	0	40	104	0	60	48011
2026-01-19 12:59:56.80	19.94	1.22	-49.7	-62.5	3.5	1.52e+00	0	40	104	0	60	46894
2026-01-19 12:59:57.81	20.00	1.28	-49.5	-62.4	3.5	1.52e+00	0	40	104	0	60	46012
2026-01-19 12:59:58.82	20.06	1.33	-49.2	-62.0	3.5	1.52e+00	0	40	104	0	60	44183
2026-01-19 12:59:59.82	20.12	1.39	-49.0	-61.9	3.5	1.52e+00	0	40	104	0	60	43663
2026-01-19 13:00:00.83	20.18	1.45	-49.0	-61.8	3.5	1.52e+00	0	40	104	0	60	43290
2026-01-19 13:00:01.84	20.24	1.50	-49.0	-61.8	3.5	1.52e+00	0	40	104	0	60	43398
2026-01-19 13:00:02.85	20.30	1.56	-49.0	-61.8	3.5	1.52e+00	0	40	104	0	60	43059
2026-01-19 13:00:03.86	20.36	1.62	-49.0	-61.8	3.5	1.52e+00	0	40	104	0	60	43149
2026-01-19 13:00:04.87	20.42	1.67	-49.0	-61.8	3.5	1.52e+00	0	40	104	0	60	42987
2026-01-19 13:00:05.88	20.49	1.73	-49.0	-61.8	3.5	1.52e+00	0	40	104	0	60	43190
2026-01-19 13:00:06.89	20.55	1.79	-49.0	-61.8	3.5	1.52e+00	0	40	104	0	60	43232
2026-01-19 13:00:07.90	20.61	1.84	-49.0	-61.8	3.5	1.52e+00	0	40	104	0	60	43372
2026-01-19 13:00:08.91	20.67	1.90	-49.0	-61.8	3.5	1.52e+00	0	40	104	0	60	43050
2026-01-19 13:00:09.92	20.74	1.96	-49.0	-61.6	3.5	1.51e+00	0	40	104	0	60	42214
2026-01-19 13:00:10.93	20.80	2.01	-48.9	-61.4	3.5	1.52e+00	0	40	104	0	60	41023
2026-01-19 13:00:11.94	20.86	2.07	-48.9	-60.8	3.5	1.51e+00	0	40	104	0	60	38275
2026-01-19 13:00:12.95	20.93	2.13	-48.8	-59.9	3.6	1.51e+00	0	40	104	0	60	34832
2026-01-19 13:00:13.96	20.99	2.19	-48.7	-59.1	3.9	1.51e+00	0	40	104	0	60	31597
2026-01-19 13:00:14.96	21.05	2.24	-48.7	-58.8	4.0	1.48e+00	0	41	104	0	60	30422
2026-01-19 13:00:15.98	21.12	2.30	-48.7	-58.9	4.0	1.45e+00	0	40	104	0	60	30908
2026-01-19 13:00:16.99	21.18	2.36	-48.8	-59.4	3.8	1.49e+00	0	40	104	0	60	32924
2026-01-19 13:00:18.00	21.25	2.42	-48.7	-59.0	3.6	1.49e+00	0	40	104	0	60	31437
2026-01-19 13:00:19.01	21.31	2.47	-48.4	-56.7	5.1	1.22e+00	120	41	104	0	60	24048
2026-01-19 13:00:20.02	21.38	2.53	-47.4	-52.0	8.5	1.47e-01	122	41	0	1048576	60	13972
2026-01-19 13:00:21.03	21.44	2.59	-45.9	-49.1	11.9	4.04e-03	123	41	0	4194304	60	9969
2026-01-19 13:00:22.04	21.51	2.65	-44.5	-46.9	14.5	1.37e-05	122	41	0	7340032	60	7731
2026-01-19 13:00:23.05	21.57	2.71	-43.0	-44.9	16.2	0.00e+00	122	40	0	10485760	60	6138
2026-01-19 13:00:24.06	21.64	2.76	-41.7	-43.2	17.9	0.00e+00	122	40	0	13631488	58	5695
2026-01-19 13:00:25.07	21.71	2.82	-41.2	-42.6	18.4	0.00e+00	120	40	0	16777216	56	5969
2026-01-19 13:00:26.08	21.77	2.88	-40.9	-42.3	18.8	0.00e+00	122	40	0	19922944	54	6440
2026-01-19 13:00:27.09	21.84	2.94	-41.0	-42.4	18.5	0.00e+00	119	40	0	23068672	54	6561
2026-01-19 13:00:28.10	21.91	3.00	-41.2	-42.7	18.1	0.00e+00	122	40	0	26214400	54	6766
2026-01-19 13:00:29.11	21.98	3.06	-42.6	-44.4	16.7	0.00e+00	122	40	0	29360128	56	7326
2026-01-19 13:00:30.12	22.04	3.12	-43.7	-45.7	15.3	0.00e+00	123	40	0	32505856	58	7604
2026-01-19 13:00:31.13	22.11	3.17	-45.4	-48.3	12.7	1.37e-05	120	40	0	35651584	60	9084
2026-01-19 13:00:32.14	22.18	3.23	-46.8	-50.7	10.2	7.36e-03	123	41	0	38797312	60	12023
2026-01-19 13:00:33.15	22.25	3.29	-40.8	-42.2	18.9	0.00e+00	123	40	0	41943040	56	5694
2026-01-19 13:00:34.16	22.32	3.35	-48.9	-61.7	3.5	1.22e+00	0	40	104	44040192	60	42782
2026-01-19 13:00:35.17	22.38	3.41	-48.9	-59.2	4.3	1.47e+00	0	40	104	44040192	60	32121
2026-01-19 13:00:36.18	22.45	3.47	-43.8	-45.8	15.5	7.00e-07	122	40	0	45088768	60	6876
2026-01-19 13:00:37.19	22.52	3.53	-48.8	-58.9	4.0	1.51e+00	0	40	104	47185920	60	30793
2026-01-19 13:00:38.20	22.59	3.59	-44.2	-46.4	15.0	0.00e+00	123	40	0	48234496	60	7328
2026-01-19 13:00:39.21	22.66	3.65	-44.3	-46.6	14.6	0.00e+00	123	40	0	51380224	60	7473
2026-01-19 13:00:40.23	22.73	3.71	-44.6	-46.9	14.5	1.50e-06	122	41	0	54525952	60	7774
2026-01-19 13:00:41.23	22.80	3.77	-44.1	-46.1	14.5	7.00e-07	123	41	0	57671680	60	7124
2026-01-19 13:00:42.24	22.87	3.83	-44.5	-46.8	15.3	0.00e+00	122	41	0	60817408	60	7693
2026-01-19 13:00:43.25	22.95	3.89	-44.6	-46.8	14.4	7.00e-07	123	41	0	63963136	60	7717
2026-01-19 13:00:44.27	23.02	3.95	-44.7	-47.1	14.6	7.00e-07	122	41	0	67108864	60	7950
2026-01-19 13:00:45.28	23.09	4.01	-44.2	-46.4	15.0	0.00e+00	122	41	0	70254592	60	7303
2026-01-19 13:00:46.28	23.16	4.07	-44.2	-46.3	15.4	0.00e+00	123	41	0	73400320	60	7217
2026-01-19 13:00:47.29	23.23	4.13	-43.2	-45.0	16.5	0.00e+00	122	41	0	76546048	60	6272
2026-01-19 13:00:48.30	23.30	4.19	-43.5	-45.3	16.7	0.00e+00	122	40	0	79691776	60	6481
2026-01-19 13:00:49.31	23.38	4.25	-42.6	-44.3	17.1	0.00e+00	123	41	0	82837504	58	6456
2026-01-19 13:00:50.32	23.45	4.31	-43.2	-45.1	16.7	0.00e+00	120	41	0	85983232	58	7056
2026-01-19 13:00:51.33	23.52	4.37	-42.2	-43.7	17.7	0.00e+00	123	41	0	89128960	58	6058
2026-01-19 13:00:52.34	23.60	4.44	-41.9	-43.5	17.5	0.00e+00	122	41	0	92274688	58	5877
2026-01-19 13:00:53.35	23.67	4.50	-42.4	-44.0	17.4	0.00e+00	123	41	0	95420416	58	6240
2026-01-19 13:00:54.36	23.74	4.56	-42.2	-43.8	18.0	0.00e+00	122	41	0	98566144	58	6090
2026-01-19 13:00:55.37	23.82	4.62	-41.8	-43.2	18.0	0.00e+00	123	41	0	101711872	56	6408
2026-01-19 13:00:56.38	23.89	4.68	-41.4	-42.8	18.7	0.00e+00	121	41	0	104857600	56	6107
2026-01-19 13:00:57.39	23.97	4.74	-40.8	-42.2	19.2	0.00e+00	122	40	0	108003328	56	5665
2026-01-19 13:00:58.40	24.04	4.80	-40.7	-42.0	19.2	0.00e+00	120	41	0	111149056	54	6261
2026-01-19 13:00:59.42	24.12	4.87	-40.7	-42.0	19.3	0.00e+00	123	41	0	114294784	54	6248
2026-01-19 13:01:00.42	24.20	4.93	-40.4	-41.7	19.6	0.00e+00	122	41	0	117440512	54	6034
2026-01-19 13:01:01.43	24.27	4.99	-40.7	-42.0	19.3	0.00e+00	121	41	0	120586240	54	6256
2026-01-19 13:01:02.45	24.35	5.05	-40.6	-41.9	19.6	0.00e+00	122	41	0	123731968	54	6172
2026-01-19 13:01:03.45	24.42	5.11	-40.5	-41.8	19.5	0.00e+00	119	41	0	126877696	54	6116
2026-01-19 13:01:04.47	24.50	5.18	-40.3	-41.6	19.8	0.00e+00	123	41	0	130023424	54	5930
2026-01-19 13:01:05.48	24.58	5.24	-40.2	-41.5	19.8	0.00e+00	122	41	0	133169152	54	5893
2026-01-19 13:01:06.49	24.66	5.30	-40.1	-41.3	20.0	0.00e+00	122	41	0	136314880	54	5791
2026-01-19 13:01:07.50	24.74	5.36	-40.2	-41.4	19.9	0.00e+00	123	41	0	139460608	54	5839
2026-01-19 13:01:08.51	24.81	5.43	-40.1	-41.3	20.0	0.00e+00	123	41	0	142606336	54	5791
2026-01-19 13:01:09.52	24.89	5.49	-40.1	-41.3	20.0	0.00e+00	119	41	0	145752064	54	5770
2026-01-19 13:01:10.53	24.97	5.55	-40.1	-41.4	20.0	0.00e+00	123	41	0	148897792	54	5794
2026-01-19 13:01:11.54	25.05	5.62	-40.0	-41.2	20.1	0.00e+00	121	41	0	152043520	54	5723
2026-01-19 13:01:12.55	25.13	5.68	-40.2	-41.4	20.0	0.00e+00	122	41	0	155189248	54	5851
2026-01-19 13:01:13.56	25.21	5.74	-40.2	-41.5	20.0	0.00e+00	123	41	0	158334976	54	5897
2026-01-19 13:01:14.57	25.29	5.81	-40.1	-41.4	20.0	0.00e+00	122	41	0	161480704	54	5809
2026-01-19 13:01:15.58	25.37	5.87	-40.2	-41.5	20.0	0.00e+00	123	41	0	164626432	54	5868
2026-01-19 13:01:16.59	25.45	5.93	-40.2	-41.4	20.0	0.00e+00	120	41	0	167772160	54	5845
2026-01-19 13:01:17.60	25.53	6.00	-40.1	-41.3	20.2	0.00e+00	122	41	0	170917888	54	5775
2026-01-19 13:01:18.61	25.61	6.06	-40.0	-41.2	20.3	0.00e+00	120	41	0	174063616	54	5675
2026-01-19 13:01:19.62	25.70	6.12	-40.0	-41.2	20.3	0.00e+00	121	41	0	177209344	54	5668
2026-01-19 13:01:20.63	25.78	6.19	-39.7	-40.9	20.5	0.00e+00	122	41	0	180355072	54	5492
2026-01-19 13:01:21.64	25.86	6.25	-39.8	-40.9	20.5	0.00e+00	123	41	0	183500800	52	6201
2026-01-19 13:01:22.65	25.94	6.32	-39.9	-41.1	20.4	0.00e+00	123	41	0	186646528	52	6314
2026-01-19 13:01:23.66	26.03	6.38	-39.7	-40.8	20.6	0.00e+00	120	41	0	189792256	52	6134
2026-01-19 13:01:24.67	26.11	6.45	-39.6	-40.8	20.7	0.00e+00	123	41	0	193986560	52	6093
2026-01-19 13:01:25.69	26.20	6.51	-39.6	-40.7	20.8	0.00e+00	123	41	0	196083712	52	6038
2026-01-19 13:01:26.70	26.28	6.58	-39.5	-40.7	20.8	0.00e+00	122	41	0	199229440	52	6004
2026-01-19 13:01:27.71	26.36	6.64	-39.4	-40.5	21.0	0.00e+00	121	41	0	202375168	52	5887
2026-01-19 13:01:28.72	26.45	6.71	-39.3	-40.4	21.1	0.00e+00	123	41	0	205520896	52	5851
2026-01-19 13:01:29.73	26.54	6.77	-39.3	-40.4	21.0	0.00e+00	121	41	0	209715200	52	5837
2026-01-19 13:01:30.74	26.62	6.84	-39.1	-40.3	21.3	0.00e+00	122	41	0	212860928	52	5729
2026-01-19 13:01:31.75	26.71	6.90	-39.1	-40.2	21.2	0.00e+00	123	41	0	216006656	52	5716
2026-01-19 13:01:32.76	26.79	6.97	-39.1	-40.2	21.2	0.00e+00	122	41	0	219152384	52	5691
2026-01-19 13:01:33.77	26.88	7.03	-39.2	-40.3	21.2	0.00e+00	122	41	0	222298112	52	5726
2026-01-19 13:01:34.78	26.97	7.10	-39.1	-40.2	21.3	0.00e+00	123	41	0	225443840	52	5705
2026-01-19 13:01:35.79	27.06	7.16	-39.2	-40.3	21.2	0.00e+00	123	41	0	228589568	52	5778
2026-01-19 13:01:36.80	27.14	7.23	-39.3	-40.4	21.1	0.00e+00	127	41	0	231735296	52	5844
2026-01-19 13:01:37.81	27.23	7.29	-39.3	-40.5	21.1	0.00e+00	120	41	0	234881024	52	5871
2026-01-19 13:01:38.82	27.32	7.36	-39.3	-40.4	21.0	0.00e+00	122	41	0	238026752	52	5857
2026-01-19 13:01:39.83	27.41	7.43	-39.5	-40.6	21.0	0.00e+00	122	41	0	241172480	52	5978
2026-01-19 13:01:40.84	27.50	7.49	-39.4	-40.5	21.0	0.00e+00	120	41	0	244318208	52	5873
2026-01-19 13:01:41.85	27.59	7.56	-39.5	-40.6	21.1	0.00e+00	122	41	0	247463936	52	5976
2026-01-19 13:01:42.86	27.68	7.63	-39.3	-40.3	21.1	0.00e+00	120	41	0	250609664	52	5790
2026-01-19 13:01:43.87	27.77	7.69	-39.2	-40.3	21.3	0.00e+00	122	41	0	253755392	52	5757
2026-01-19 13:01:44.88	27.86	7.76	-38.8	-39.9	21.7	0.00e+00	123	41	0	256901120	52	5482
2026-01-19 13:01:45.89	27.95	7.83	-39.0	-40.0	21.5	0.00e+00	122	41	0	260046848	52	5590
2026-01-19 13:01:46.90	28.04	7.89	-38.8	-39.8	21.6	0.00e+00	120	41	0	263192576	50	6119
2026-01-19 13:01:47.91	28.14	7.96	-38.7	-39.8	21.7	0.00e+00	123	41	0	266338304	50	6087
2026-01-19 13:01:48.92	28.23	8.03	-38.8	-39.9	21.7	0.00e+00	120	41	0	269484032	50	6145
2026-01-19 13:01:49.93	28.32	8.10	-38.7	-39.7	21.8	0.00e+00	123	41	0	272629760	50	6047
2026-01-19 13:01:50.94	28.41	8.16	-38.6	-39.7	21.7	0.00e+00	122	41	0	275775488	50	6019
2026-01-19 13:01:51.95	28.51	8.23	-38.6	-39.6	21.9	0.00e+00	122	41	0	278921216	50	5975
2026-01-19 13:01:52.96	28.60	8.30	-38.7	-39.8	21.8	0.00e+00	123	41	0	282066944	50	6066
2026-01-19 13:01:53.97	28.70	8.37	-38.6	-39.6	21.9	0.00e+00	122	41	0	285212672	50	5990
2026-01-19 13:01:54.98	28.79	8.43	-38.4	-39.4	22.0	0.00e+00	123	41	0	288358400	50	5818
2026-01-19 13:01:55.99	28.89	8.50	-38.4	-39.4	22.1	0.00e+00	123	41	0	291504128	50	5843
2026-01-19 13:01:57.00	28.98	8.57	-38.4	-39.4	22.0	0.00e+00	123	41	0	294649856	50	5838
2026-01-19 13:01:58.01	29.08	8.64	-38.4	-39.4	22.0	0.00e+00	123	41	0	297795584	50	5843
2026-01-19 13:01:59.02	29.18	8.71	-38.4	-39.5	22.1	0.00e+00	121	41	0	300941312	50	5875
2026-01-19 13:02:00.03	29.27	8.78	-38.5	-39.5	22.0	0.00e+00	120	41	0	304087040	50	5923
2026-01-19 13:02:01.04	29.37	8.84	-38.4	-39.4	22.1	0.00e+00	123	41	0	307232768	50	5828
2026-01-19 13:02:02.05	29.47	8.91	-38.4	-39.5	22.1	0.00e+00	123	41	0	310378496	50	5885
2026-01-19 13:02:03.06	29.57	8.98	-38.4	-39.5	22.1	0.00e+00	123	41	0	313524224	50	5887
2026-01-19 13:02:04.07	29.67	9.05	-38.4	-39.5	22.0	0.00e+00	123	41	0	316669952	50	5881
2026-01-19 13:02:05.08	29.77	9.12	-38.3	-39.4	22.1	0.00e+00	123	41	0	319815680	50	5805
2026-01-19 13:02:06.09	29.87	9.19	-38.3	-39.4	22.2	0.00e+00	123	41	0	322961408	50	5813
2026-01-19 13:02:07.10	29.97	9.26	-38.5	-39.5	22.0	0.00e+00	123	41	0	326107136	50	5888
2026-01-19 13:02:08.11	30.07	9.33	-38.3	-39.3	22.2	0.00e+00	123	41	0	329252864	50	5755
2026-01-19 13:02:09.12	30.17	9.40	-38.4	-39.4	22.1	0.00e+00	122	41	0	332398592	50	5828
2026-01-19 13:02:10.13	30.27	9.47	-38.2	-39.2	22.4	0.00e+00	123	41	0	335544320	50	5680
2026-01-19 13:02:11.14	30.37	9.54	-38.1	-39.1	22.4	0.00e+00	122	41	0	338690048	50	5620
2026-01-19 13:02:12.15	30.48	9.61	-38.2	-39.2	22.3	0.00e+00	122	41	0	341835776	50	5680
2026-01-19 13:02:13.16	30.58	9.68	-37.9	-39.0	22.5	0.00e+00	123	41	0	344981504	50	5532
2026-01-19 13:02:14.17	30.68	9.75	-38.1	-39.1	22.4	0.00e+00	123	41	0	348127232	50	5631
2026-01-19 13:02:15.19	30.79	9.82	-37.9	-38.9	22.6	0.00e+00	123	41	0	351272960	50	5497
2026-01-19 13:02:16.20	30.89	9.89	-38.0	-39.0	22.6	0.00e+00	122	41	0	354418688	50	5558
2026-01-19 13:02:17.20	31.00	9.96	-38.0	-39.0	22.6	0.00e+00	120	41	0	357564416	50	5531
2026-01-19 13:02:18.22	31.10	10.03	-38.0	-39.0	22.6	0.00e+00	122	41	0	360710144	50	5562
2026-01-19 13:02:19.23	31.21	10.10	-37.8	-38.8	22.7	0.00e+00	122	41	0	363855872	50	5461
2026-01-19 13:02:20.23	31.31	10.17	-37.9	-38.9	22.6	0.00e+00	122	41	0	367001600	50	5481
2026-01-19 13:02:21.24	31.42	10.24	-37.9	-38.9	22.6	0.00e+00	123	41	0	370147328	50	5502
2026-01-19 13:02:22.26	31.53	10.32	-37.8	-38.8	22.7	0.00e+00	123	41	0	373293056	50	5459
2026-01-19 13:02:23.27	31.64	10.39	-37.8	-38.8	22.7	0.00e+00	123	41	0	376438784	50	5442
2026-01-19 13:02:24.28	31.75	10.46	-38.0	-39.0	22.5	0.00e+00	123	41	0	379584512	50	5547
2026-01-19 13:02:25.29	31.86	10.53	-37.8	-38.8	22.8	0.00e+00	122	41	0	382730240	50	5406
2026-01-19 13:02:26.29	31.96	10.60	-37.9	-38.9	22.6	0.00e+00	120	41	0	385875968	48	6194
2026-01-19 13:02:27.31	32.07	10.67	-37.9	-38.9	22.6	0.00e+00	122	41	0	389021696	48	6143
2026-01-19 13:02:28.32	32.19	10.75	-37.7	-38.7	22.8	0.00e+00	123	41	0	392167424	48	6041
2026-01-19 13:02:29.33	32.30	10.82	-37.7	-38.7	22.8	0.00e+00	123	41	0	395313152	48	6064
2026-01-19 13:02:30.34	32.41	10.89	-37.5	-38.5	23.0	0.00e+00	123	41	0	398458880	48	5890
2026-01-19 13:02:31.35	32.52	10.96	-37.6	-38.6	22.9	0.00e+00	127	41	0	401604608	48	5974
2026-01-19 13:02:32.36	32.63	11.03	-37.5	-38.5	22.9	0.00e+00	121	41	0	404750336	48	5881
2026-01-19 13:02:33.37	32.75	11.11	-37.7	-38.7	22.9	0.00e+00	122	41	0	407896064	48	6035
2026-01-19 13:02:34.38	32.86	11.18	-37.5	-38.5	22.9	0.00e+00	122	41	0	411041792	48	5879
2026-01-19 13:02:35.39	32.97	11.25	-37.5	-38.5	23.0	0.00e+00	123	41	0	414187520	48	5889
2026-01-19 13:02:36.40	33.09	11.33	-37.6	-38.5	23.0	0.00e+00	120	41	0	417333248	48	5917
2026-01-19 13:02:37.41	33.20	11.40	-37.6	-38.6	22.9	0.00e+00	122	41	0	420478976	48	5928
2026-01-19 13:02:38.42	33.32	11.47	-37.5	-38.4	23.0	0.00e+00	122	41	0	423624704	48	5850
2026-01-19 13:02:39.43	33.44	11.54	-37.4	-38.4	23.1	0.00e+00	122	41	0	426770432	48	5842
2026-01-19 13:02:40.44	33.55	11.62	-37.5	-38.5	23.1	0.00e+00	122	41	0	429916160	48	5905
2026-01-19 13:02:41.44	33.67	11.69	-37.4	-38.4	23.1	0.00e+00	123	41	0	433061888	48	5833
2026-01-19 13:02:42.45	33.79	11.76	-37.4	-38.4	23.1	0.00e+00	122	41	0	436207616	48	5804
2026-01-19 13:02:43.46	33.91	11.84	-37.5	-38.5	23.1	0.00e+00	121	41	0	439353344	48	5866
2026-01-19 13:02:44.47	34.03	11.91	-37.6	-38.6	23.1	0.00e+00	122	41	0	442499072	48	5932
2026-01-19 13:02:45.48	34.15	11.99	-37.4	-38.4	23.2	0.00e+00	122	41	0	445644800	48	5798
2026-01-19 13:02:46.49	34.27	12.06	-37.3	-38.3	23.1	0.00e+00	120	41	0	448790528	48	5737
2026-01-19 13:02:47.50	34.39	12.13	-37.3	-38.3	23.2	0.00e+00	123	41	0	451936256	48	5735
2026-01-19 13:02:48.51	34.51	12.21	-37.3	-38.2	23.3	0.00e+00	122	41	0	455081984	48	5710
2026-01-19 13:02:49.52	34.63	12.28	-37.3	-38.2	23.3	0.00e+00	122	41	0	458227712	48	5700
2026-01-19 13:02:50.53	34.75	12.36	-37.2	-38.2	23.3	0.00e+00	122	41	0	461373440	48	5683
2026-01-19 13:02:51.54	34.88	12.43	-37.3	-38.2	23.4	0.00e+00	121	41	0	464519168	48	5703
2026-01-19 13:02:52.55	35.00	12.51	-37.4	-38.4	23.2	0.00e+00	123	41	0	467664896	48	5807
2026-01-19 13:02:53.56	35.13	12.58	-37.3	-38.2	23.3	0.00e+00	122	41	0	470810624	48	5709
2026-01-19 13:02:54.57	35.25	12.66	-37.3	-38.3	23.2	0.00e+00	120	41	0	473956352	48	5761
2026-01-19 13:02:55.58	35.38	12.73	-37.3	-38.3	23.3	0.00e+00	122	41	0	477102080	48	5759
2026-01-19 13:02:56.59	35.50	12.81	-37.3	-38.3	23.3	0.00e+00	120	41	0	480247808	48	5753
2026-01-19 13:02:57.60	35.63	12.88	-37.2	-38.1	23.4	0.00e+00	122	41	0	483393536	48	5643
2026-01-19 13:02:58.61	35.76	12.96	-37.2	-38.1	23.4	0.00e+00	122	41	0	486539264	48	5628
2026-01-19 13:02:59.62	35.89	13.03	-37.1	-38.0	23.4	0.00e+00	122	41	0	489684992	48	5579
2026-01-19 13:03:00.63	36.01	13.11	-37.1	-38.1	23.4	0.00e+00	120	41	0	492830720	48	5607
2026-01-19 13:03:01.64	36.14	13.18	-37.2	-38.1	23.4	0.00e+00	123	41	0	495976448	48	5641
2026-01-19 13:03:02.65	36.27	13.26	-37.2	-38.2	23.3	0.00e+00	122	41	0	499122176	48	5680
2026-01-19 13:03:03.66	36.41	13.34	-37.3	-38.2	23.3	0.00e+00	123	41	0	502267904	48	5710
2026-01-19 13:03:04.68	36.54	13.41	-37.3	-38.2	23.3	0.00e+00	121	41	0	506462208	48	5716
2026-01-19 13:03:05.69	36.67	13.49	-37.2	-38.2	23.4	0.00e+00	122	41	0	509607936	48	5674
2026-01-19 13:03:06.70	36.80	13.57	-37.3	-38.3	23.2	0.00e+00	120	41	0	511705088	48	5769
2026-01-19 13:03:07.71	36.94	13.64	-37.2	-38.2	23.4	0.00e+00	123	41	0	514850816	48	5684
2026-01-19 13:03:08.72	37.07	13.72	-37.2	-38.1	23.5	0.00e+00	120	41	0	517996544	48	5641
2026-01-19 13:03:09.72	37.20	13.79	-37.2	-38.2	23.4	0.00e+00	123	41	0	522190848	48	5695
2026-01-19 13:03:10.74	37.34	13.87	-37.3	-38.3	23.3	0.00e+00	123	41	0	525336576	48	5739
2026-01-19 13:03:11.75	37.48	13.95	-37.4	-38.4	23.3	0.00e+00	123	41	0	528482304	48	5804
2026-01-19 13:03:12.76	37.61	14.03	-37.3	-38.2	23.3	0.00e+00	120	41	0	531628032	48	5709
2026-01-19 13:03:13.77	37.75	14.10	-37.3	-38.3	23.4	0.00e+00	122	41	0	534773760	48	5726
2026-01-19 13:03:14.78	37.89	14.18	-37.2	-38.2	23.4	0.00e+00	123	41	0	537919488	48	5678
2026-01-19 13:03:15.79	38.03	14.26	-37.3	-38.3	23.3	0.00e+00	123	41	0	541065216	48	5742
2026-01-19 13:03:16.80	38.17	14.33	-37.3	-38.3	23.3	0.00e+00	122	41	0	544210944	48	5749
2026-01-19 13:03:17.81	38.31	14.41	-37.2	-38.2	23.4	0.00e+00	123	41	0	547356672	48	5673
2026-01-19 13:03:18.81	38.45	14.49	-37.3	-38.3	23.3	0.00e+00	123	41	0	550502400	48	5735
2026-01-19 13:03:19.83	38.59	14.57	-37.3	-38.2	23.3	0.00e+00	122	41	0	553648128	48	5716
2026-01-19 13:03:20.84	38.73	14.64	-37.3	-38.3	23.3	0.00e+00	123	41	0	556793856	48	5734
2026-01-19 13:03:21.85	38.88	14.72	-37.4	-38.4	23.3	0.00e+00	123	41	0	559939584	48	5797
2026-01-19 13:03:22.86	39.02	14.80	-37.4	-38.4	23.2	0.00e+00	123	41	0	563085312	48	5810
2026-01-19 13:03:23.87	39.17	14.88	-37.6	-38.5	23.1	0.00e+00	123	41	0	566231040	48	5912
2026-01-19 13:03:24.88	39.31	14.95	-37.5	-38.5	23.1	0.00e+00	122	41	0	569376768	48	5880
2026-01-19 13:03:25.89	39.46	15.03	-37.5	-38.4	23.2	0.00e+00	123	41	0	572522496	48	5844
2026-01-19 13:03:26.90	39.60	15.11	-37.6	-38.5	23.1	0.00e+00	123	41	0	575668224	48	5894
2026-01-19 13:03:27.91	39.75	15.19	-37.5	-38.5	23.2	0.00e+00	123	41	0	578813952	48	5875
2026-01-19 13:03:28.92	39.90	15.27	-37.6	-38.6	23.1	0.00e+00	122	41	0	581959680	48	5961
2026-01-19 13:03:29.93	40.05	15.35	-37.8	-38.7	23.0	0.00e+00	123	41	0	585105408	48	6051
2026-01-19 13:03:30.94	40.20	15.42	-37.6	-38.6	23.1	0.00e+00	123	41	0	588251136	48	5937
2026-01-19 13:03:31.95	40.35	15.50	-37.7	-38.6	23.1	0.00e+00	123	41	0	591396864	48	5991
2026-01-19 13:03:32.96	40.50	15.58	-37.7	-38.7	23.0	0.00e+00	123	41	0	594542592	48	6027
2026-01-19 13:03:33.97	40.65	15.66	-37.9	-38.8	22.9	0.00e+00	122	41	0	597688320	48	6118
2026-01-19 13:03:34.98	40.80	15.74	-37.6	-38.6	23.1	0.00e+00	123	41	0	600834048	48	5957
2026-01-19 13:03:35.98	40.96	15.82	-37.7	-38.7	23.1	0.00e+00	123	41	0	603979776	48	6038
2026-01-19 13:03:36.99	41.11	15.90	-37.6	-38.6	23.1	0.00e+00	120	41	0	607125504	48	5972
2026-01-19 13:03:38.00	41.27	15.97	-37.6	-38.6	23.1	0.00e+00	123	41	0	610271232	48	5957
2026-01-19 13:03:39.01	41.42	16.05	-37.6	-38.5	23.2	0.00e+00	122	41	0	613416960	48	5924
2026-01-19 13:03:40.02	41.58	16.13	-37.7	-38.7	23.1	0.00e+00	123	41	0	616562688	48	6002
2026-01-19 13:03:41.03	41.74	16.21	-37.7	-38.6	23.1	0.00e+00	122	41	0	619708416	48	5986
2026-01-19 13:03:42.04	41.90	16.29	-37.6	-38.5	23.2	0.00e+00	121	41	0	622854144	48	5909
2026-01-19 13:03:43.05	42.06	16.37	-37.7	-38.7	23.1	0.00e+00	123	41	0	625999872	48	5995
2026-01-19 13:03:44.06	42.22	16.45	-37.7	-38.6	23.1	0.00e+00	123	41	0	629145600	48	5993
2026-01-19 13:03:45.07	42.38	16.53	-37.6	-38.6	23.1	0.00e+00	122	41	0	632291328	48	5930
2026-01-19 13:03:46.08	42.54	16.61	-37.7	-38.6	23.1	0.00e+00	123	41	0	635437056	48	5970
2026-01-19 13:03:47.09	42.70	16.69	-37.7	-38.6	23.1	0.00e+00	121	41	0	638582784	48	5992
2026-01-19 13:03:48.10	42.86	16.77	-37.8	-38.8	23.0	0.00e+00	120	41	0	641728512	48	6072
2026-01-19 13:03:49.11	43.03	16.85	-37.9	-38.8	23.0	0.00e+00	123	41	0	644874240	48	6117
2026-01-19 13:03:50.12	43.19	16.93	-37.8	-38.8	23.0	0.00e+00	123	41	0	648019968	48	6111
2026-01-19 13:03:51.13	43.36	17.00	-37.9	-38.9	22.9	0.00e+00	123	41	0	651165696	48	6180
2026-01-19 13:03:52.14	43.53	17.08	-37.9	-38.9	23.0	0.00e+00	120	41	0	654311424	48	6141
2026-01-19 13:03:53.15	43.69	17.16	-37.9	-38.9	22.9	0.00e+00	122	41	0	657457152	48	6180
2026-01-19 13:03:54.16	43.86	17.24	-37.9	-38.9	22.9	0.00e+00	123	41	0	660602880	48	6162
2026-01-19 13:03:55.18	44.03	17.32	-38.0	-39.0	22.8	0.00e+00	123	41	0	663748608	48	6238
2026-01-19 13:03:56.19	44.20	17.40	-37.9	-38.9	22.8	0.00e+00	122	41	0	666894336	48	6166
2026-01-19 13:03:57.19	44.37	17.48	-37.9	-38.9	22.8	0.00e+00	123	41	0	670040064	48	6181
2026-01-19 13:03:58.21	44.55	17.56	-37.9	-38.9	22.9	0.00e+00	123	41	0	673185792	48	6136
2026-01-19 13:03:59.22	44.72	17.64	-37.9	-38.9	22.9	0.00e+00	123	41	0	676331520	48	6171
2026-01-19 13:04:00.22	44.89	17.72	-38.0	-39.0	22.7	0.00e+00	120	41	0	679477248	48	6234
2026-01-19 13:04:01.24	45.07	17.80	-38.1	-39.1	22.6	0.00e+00	122	41	0	682622976	48	6342
2026-01-19 13:04:02.24	45.24	17.88	-38.2	-39.2	22.6	0.00e+00	123	41	0	685768704	48	6385
2026-01-19 13:04:03.25	45.42	17.96	-38.0	-39.0	22.8	0.00e+00	123	41	0	688914432	48	6238
2026-01-19 13:04:04.26	45.60	18.04	-37.9	-38.9	22.8	0.00e+00	122	41	0	692060160	48	6193
2026-01-19 13:04:05.28	45.78	18.12	-37.9	-38.8	22.9	0.00e+00	123	41	0	695205888	48	6131
2026-01-19 13:04:06.28	45.95	18.20	-37.9	-38.9	22.9	0.00e+00	123	41	0	698351616	48	6146
2026-01-19 13:04:07.29	46.13	18.28	-37.9	-38.9	22.8	0.00e+00	123	41	0	701497344	48	6175
2026-01-19 13:04:08.30	46.31	18.36	-37.7	-38.6	23.2	0.00e+00	123	41	0	704643072	48	5980
2026-01-19 13:04:09.31	46.50	18.44	-37.6	-38.6	23.2	0.00e+00	122	41	0	707788800	48	5956
2026-01-19 13:04:10.32	46.68	18.52	-37.8	-38.7	22.9	0.00e+00	127	41	0	710934528	48	6061
2026-01-19 13:04:11.33	46.86	18.60	-37.7	-38.7	23.1	0.00e+00	122	41	0	714080256	48	6007
2026-01-19 13:04:12.34	47.05	18.68	-37.7	-38.7	23.0	0.00e+00	122	41	0	717225984	48	6037
2026-01-19 13:04:13.35	47.23	18.76	-37.8	-38.8	23.0	0.00e+00	122	41	0	720371712	48	6067
2026-01-19 13:04:14.36	47.42	18.84	-37.7	-38.7	23.1	0.00e+00	122	41	0	723517440	48	6022
2026-01-19 13:04:15.37	47.61	18.92	-37.7	-38.7	23.0	0.00e+00	120	41	0	726663168	48	6023
2026-01-19 13:04:16.38	47.80	19.00	-37.6	-38.6	23.2	0.00e+00	123	41	0	729808896	48	5965
2026-01-19 13:04:17.39	47.99	19.08	-37.6	-38.6	23.1	0.00e+00	123	41	0	732954624	48	5972
2026-01-19 13:04:18.40	48.18	19.16	-37.6	-38.6	23.2	0.00e+00	122	41	0	736100352	48	5947
2026-01-19 13:04:19.41	48.37	19.23	-37.7	-38.6	23.1	0.00e+00	123	41	0	739246080	48	5990
2026-01-19 13:04:20.42	48.56	19.31	-37.6	-38.6	23.1	0.00e+00	120	41	0	742391808	48	5956
2026-01-19 13:04:21.43	48.75	19.39	-37.6	-38.6	23.2	0.00e+00	122	41	0	745537536	48	5961
2026-01-19 13:04:22.44	48.95	19.47	-37.5	-38.4	23.2	0.00e+00	122	41	0	748683264	48	5838
2026-01-19 13:04:23.45	49.14	19.55	-37.3	-38.2	23.4	0.00e+00	122	41	0	751828992	48	5710
2026-01-19 13:04:24.46	49.34	19.63	-37.4	-38.3	23.3	0.00e+00	123	41	0	754974720	48	5773
2026-01-19 13:04:25.47	49.54	19.71	-37.2	-38.1	23.5	0.00e+00	123	41	0	758120448	48	5658
2026-01-19 13:04:26.48	49.73	19.79	-37.0	-37.9	23.6	0.00e+00	122	41	0	761266176	48	5525
2026-01-19 13:04:27.49	49.93	19.87	-37.0	-37.9	23.7	0.00e+00	120	41	0	764411904	48	5507
2026-01-19 13:04:28.50	50.13	19.95	-37.0	-37.9	23.7	0.00e+00	123	41	0	767557632	48	5528
2026-01-19 13:04:29.51	50.34	20.02	-36.8	-37.8	23.8	0.00e+00	123	41	0	770703360	48	5410
2026-01-19 13:04:30.52	50.54	20.10	-36.9	-37.8	23.8	0.00e+00	123	41	0	773849088	48	5432
2026-01-19 13:04:31.53	50.74	20.18	-36.8	-37.8	23.9	0.00e+00	122	41	0	776994816	48	5424
2026-01-19 13:04:32.54	50.95	20.26	-36.7	-37.6	24.1	0.00e+00	123	41	0	780140544	46	5950
2026-01-19 13:04:33.55	51.15	20.34	-36.7	-37.6	24.1	0.00e+00	122	41	0	783286272	46	5942
2026-01-19 13:04:34.56	51.36	20.42	-36.7	-37.7	24.0	0.00e+00	123	41	0	786432000	46	5999
2026-01-19 13:04:35.57	51.57	20.49	-36.8	-37.7	23.9	0.00e+00	123	41	0	789577728	46	6025
2026-01-19 13:04:36.59	51.78	20.57	-36.8	-37.8	23.8	0.00e+00	122	41	0	792723456	46	6083
2026-01-19 13:04:37.60	51.99	20.65	-36.8	-37.8	23.8	0.00e+00	120	41	0	795869184	46	6080
2026-01-19 13:04:38.61	52.20	20.73	-36.8	-37.7	23.9	0.00e+00	120	41	0	799014912	46	6031
2026-01-19 13:04:39.62	52.41	20.81	-36.8	-37.7	23.9	0.00e+00	123	41	0	802160640	46	6030
2026-01-19 13:04:40.63	52.62	20.88	-36.7	-37.6	24.0	0.00e+00	123	41	0	805306368	46	5978
2026-01-19 13:04:41.64	52.83	20.96	-36.7	-37.7	23.9	0.00e+00	120	41	0	808452096	46	6009
2026-01-19 13:04:42.65	53.05	21.04	-36.9	-37.9	23.8	0.00e+00	122	41	0	811597824	46	6143
2026-01-19 13:04:43.66	53.26	21.11	-36.9	-37.8	23.8	0.00e+00	120	41	0	814743552	46	6131
2026-01-19 13:04:44.67	53.48	21.19	-37.1	-38.1	23.7	0.00e+00	123	41	0	818937856	46	6278
2026-01-19 13:04:45.68	53.70	21.27	-37.0	-37.9	23.6	0.00e+00	121	41	0	822083584	46	6202
2026-01-19 13:04:46.69	53.92	21.34	-37.2	-38.1	23.5	0.00e+00	123	41	0	825229312	46	6329
2026-01-19 13:04:47.70	54.14	21.42	-36.8	-37.8	23.8	0.00e+00	122	41	0	828375040	46	6075
2026-01-19 13:04:48.71	54.36	21.49	-36.8	-37.7	23.8	0.00e+00	123	41	0	830472192	46	6040
2026-01-19 13:04:49.73	54.58	21.57	-36.9	-37.8	23.7	0.00e+00	123	41	0	834666496	46	6096
2026-01-19 13:04:50.74	54.81	21.65	-36.7	-37.6	24.0	0.00e+00	123	41	0	837812224	46	5966
2026-01-19 13:04:51.75	55.03	21.72	-36.8	-37.7	23.9	0.00e+00	120	41	0	840957952	46	6039
2026-01-19 13:04:52.75	55.25	21.80	-36.6	-37.6	23.9	0.00e+00	122	41	0	844103680	46	5944
2026-01-19 13:04:53.77	55.48	21.87	-36.3	-37.3	24.3	0.00e+00	120	41	0	847249408	46	5748
2026-01-19 13:04:54.78	55.71	21.95	-36.3	-37.2	24.3	0.00e+00	123	41	0	850395136	46	5712
2026-01-19 13:04:55.78	55.94	22.02	-36.3	-37.2	24.4	0.00e+00	122	41	0	853540864	46	5669
2026-01-19 13:04:56.79	56.17	22.09	-36.3	-37.2	24.3	0.00e+00	120	41	0	856686592	46	5717
2026-01-19 13:04:57.80	56.40	22.17	-36.3	-37.2	24.3	0.00e+00	123	41	0	859832320	46	5723
2026-01-19 13:04:58.81	56.63	22.24	-36.5	-37.4	24.1	0.00e+00	123	41	0	862978048	46	5838
2026-01-19 13:04:59.82	56.86	22.31	-36.3	-37.3	24.2	0.00e+00	122	41	0	866123776	46	5730
2026-01-19 13:05:00.83	57.10	22.39	-36.5	-37.4	24.0	0.00e+00	120	41	0	869269504	46	5836
2026-01-19 13:05:01.85	57.33	22.46	-36.6	-37.5	23.9	0.00e+00	122	41	0	872415232	46	5897
2026-01-19 13:05:02.85	57.57	22.53	-36.4	-37.3	24.1	0.00e+00	122	41	0	875560960	46	5768
2026-01-19 13:05:03.87	57.81	22.61	-36.4	-37.3	24.1	0.00e+00	120	41	0	878706688	46	5755
2026-01-19 13:05:04.88	58.04	22.68	-36.2	-37.1	24.4	0.00e+00	123	41	0	881852416	46	5655
2026-01-19 13:05:05.89	58.28	22.75	-36.2	-37.1	24.4	0.00e+00	123	41	0	884998144	46	5645
2026-01-19 13:05:06.90	58.52	22.82	-36.1	-37.0	24.5	0.00e+00	122	41	0	888143872	46	5575
2026-01-19 13:05:07.91	58.77	22.89	-36.2	-37.1	24.3	0.00e+00	122	41	0	891289600	46	5603
2026-01-19 13:05:08.92	59.01	22.96	-36.2	-37.1	24.3	0.00e+00	120	41	0	894435328	46	5635
2026-01-19 13:05:09.93	59.25	23.03	-36.2	-37.1	24.2	0.00e+00	123	41	0	897581056	46	5645
2026-01-19 13:05:10.94	59.50	23.10	-36.3	-37.2	24.3	0.00e+00	123	41	0	900726784	46	5709
2026-01-19 13:05:11.95	59.74	23.17	-36.2	-37.2	24.2	0.00e+00	122	41	0	903872512	46	5667
2026-01-19 13:05:12.96	59.99	23.24	-36.4	-37.3	24.2	0.00e+00	122	41	0	907018240	46	5749
2026-01-19 13:05:13.97	60.24	23.31	-36.4	-37.3	24.2	0.00e+00	123	41	0	910163968	46	5763
2026-01-19 13:05:14.98	60.49	23.38	-36.5	-37.4	24.2	0.00e+00	123	41	0	913309696	46	5812
2026-01-19 13:05:15.99	60.74	23.45	-36.6	-37.5	24.0	0.00e+00	122	41	0	916455424	46	5911
2026-01-19 13:05:17.00	60.99	23.52	-36.4	-37.4	24.2	0.00e+00	122	41	0	919601152	46	5796
2026-01-19 13:05:18.01	61.24	23.58	-36.4	-37.3	24.2	0.00e+00	122	41	0	922746880	46	5737
2026-01-19 13:05:19.02	61.49	23.65	-36.4	-37.3	24.2	0.00e+00	120	41	0	925892608	46	5759
2026-01-19 13:05:20.03	61.75	23.72	-36.4	-37.3	24.2	0.00e+00	123	41	0	929038336	46	5790
2026-01-19 13:05:21.04	62.00	23.78	-36.4	-37.3	24.2	0.00e+00	123	41	0	932184064	46	5780
2026-01-19 13:05:22.05	62.26	23.85	-36.4	-37.3	24.2	0.00e+00	123	41	0	935329792	46	5787
2026-01-19 13:05:23.06	62.52	23.92	-36.6	-37.5	24.1	0.00e+00	123	41	0	938475520	46	5893
2026-01-19 13:05:24.07	62.78	23.98	-36.7	-37.6	24.0	0.00e+00	123	41	0	941621248	46	5989
2026-01-19 13:05:25.08	63.03	24.05	-36.8	-37.7	24.0	0.00e+00	122	41	0	944766976	46	6021
2026-01-19 13:05:26.09	63.30	24.11	-36.8	-37.8	23.9	0.00e+00	122	41	0	947912704	46	6070
2026-01-19 13:05:27.10	63.56	24.17	-36.8	-37.8	23.9	0.00e+00	120	41	0	951058432	46	6072
2026-01-19 13:05:28.11	63.82	24.24	-36.8	-37.7	23.9	0.00e+00	123	41	0	954204160	46	6062
2026-01-19 13:05:29.12	64.08	24.30	-36.8	-37.8	23.9	0.00e+00	122	41	0	957349888	46	6080
2026-01-19 13:05:30.13	64.35	24.36	-36.8	-37.7	23.9	0.00e+00	127	41	0	960495616	46	6062
2026-01-19 13:05:31.14	64.61	24.42	-37.0	-37.9	23.7	0.00e+00	127	41	0	963641344	46	6184
2026-01-19 13:05:32.15	64.88	24.49	-37.0	-37.9	23.8	0.00e+00	122	41	0	966787072	46	6172
2026-01-19 13:05:33.16	65.15	24.55	-37.0	-37.9	23.7	0.00e+00	117	41	0	969932800	46	6185
2026-01-19 13:05:34.18	65.42	24.61	-37.0	-37.9	23.8	0.00e+00	123	41	0	973078528	46	6192
2026-01-19 13:05:35.19	65.69	24.67	-37.1	-38.1	23.7	0.00e+00	120	41	0	976224256	46	6303
2026-01-19 13:05:36.20	65.96	24.73	-37.0	-37.9	23.8	0.00e+00	121	41	0	979369984	46	6159
2026-01-19 13:05:37.21	66.23	24.79	-36.9	-37.8	23.9	0.00e+00	123	41	0	982515712	46	6075
2026-01-19 13:05:38.22	66.51	24.84	-37.0	-37.9	23.8	0.00e+00	123	41	0	985661440	46	6198
2026-01-19 13:05:39.23	66.78	24.90	-36.9	-37.9	23.8	0.00e+00	123	41	0	988807168	46	6137
2026-01-19 13:05:40.24	67.06	24.96	-37.0	-37.9	23.7	0.00e+00	120	41	0	991952896	46	6181
2026-01-19 13:05:41.25	67.33	25.02	-37.0	-37.9	23.8	0.00e+00	122	41	0	995098624	46	6197
2026-01-19 13:05:42.26	67.61	25.07	-36.9	-37.8	23.9	0.00e+00	122	41	0	998244352	46	6119
2026-01-19 13:05:43.27	67.89	25.13	-36.9	-37.8	23.9	0.00e+00	123	41	0	1001390080	46	6089
2026-01-19 13:05:44.28	68.17	25.18	-36.9	-37.8	23.9	0.00e+00	120	41	0	1004535808	46	6109
2026-01-19 13:05:45.29	68.45	25.24	-37.0	-37.9	23.8	0.00e+00	123	41	0	1007681536	46	6192
2026-01-19 13:05:46.30	68.73	25.29	-36.7	-37.6	24.1	0.00e+00	120	41	0	1010827264	46	5973
2026-01-19 13:05:47.31	69.01	25.34	-36.6	-37.5	24.1	0.00e+00	120	41	0	1013972992	46	5916
2026-01-19 13:05:48.32	69.29	25.40	-36.8	-37.7	23.9	0.00e+00	122	41	0	1017118720	46	6026
2026-01-19 13:05:49.33	69.57	25.45	-36.7	-37.7	23.9	0.00e+00	122	41	0	1020264448	46	6003
2026-01-19 13:05:50.34	69.86	25.50	-36.9	-37.8	23.9	0.00e+00	122	41	0	1023410176	46	6130
2026-01-19 13:05:51.35	70.14	25.55	-36.8	-37.8	23.9	0.00e+00	120	41	0	1026555904	46	6080
2026-01-19 13:05:52.36	70.43	25.60	-36.9	-37.8	23.9	0.00e+00	121	41	0	1029701632	46	6094
2026-01-19 13:05:53.37	70.72	25.65	-36.7	-37.6	24.0	0.00e+00	122	41	0	1032847360	46	5990
2026-01-19 13:05:54.38	71.01	25.70	-36.6	-37.5	24.1	0.00e+00	123	41	0	1035993088	46	5916
2026-01-19 13:05:55.39	71.30	25.74	-36.5	-37.4	24.1	0.00e+00	122	41	0	1039138816	46	5826
2026-01-19 13:05:56.40	71.58	25.79	-36.5	-37.5	24.1	0.00e+00	122	41	0	1042284544	46	5861
2026-01-19 13:05:57.41	71.88	25.84	-36.5	-37.4	24.1	0.00e+00	122	41	0	1045430272	46	5812
2026-01-19 13:05:58.42	72.17	25.88	-36.5	-37.5	24.0	0.00e+00	121	41	0	1048576000	46	5865
2026-01-19 13:05:59.43	72.46	25.93	-36.6	-37.6	23.9	0.00e+00	123	41	0	1051721728	46	5939
2026-01-19 13:06:00.44	72.75	25.97	-36.7	-37.6	23.9	0.00e+00	127	41	0	1054867456	46	5952
2026-01-19 13:06:01.45	73.05	26.02	-36.7	-37.6	24.0	0.00e+00	122	41	0	1058013184	46	5966
2026-01-19 13:06:02.46	73.34	26.06	-36.6	-37.5	24.1	0.00e+00	123	41	0	1061158912	46	5885
2026-01-19 13:06:03.47	73.64	26.10	-36.9	-37.8	23.8	0.00e+00	119	41	0	1064304640	46	6127
2026-01-19 13:06:04.48	73.93	26.15	-36.7	-37.7	23.9	0.00e+00	123	41	0	1067450368	46	6012
2026-01-19 13:06:05.49	74.23	26.19	-36.7	-37.6	24.0	0.00e+00	123	41	0	1070596096	46	5966
2026-01-19 13:06:06.50	74.53	26.23	-36.7	-37.6	24.0	0.00e+00	123	41	0	1073741824	46	5980
2026-01-19 13:06:07.51	74.83	26.27	-36.6	-37.5	24.1	0.00e+00	122	41	0	1076887552	46	5885
2026-01-19 13:06:08.52	75.13	26.30	-36.6	-37.5	24.1	0.00e+00	127	41	0	1080033280	46	5912
2026-01-19 13:06:09.53	75.43	26.34	-36.4	-37.3	24.2	0.00e+00	120	41	0	1083179008	46	5786
2026-01-19 13:06:10.54	75.73	26.38	-36.4	-37.3	24.2	0.00e+00	121	41	0	1086324736	46	5753
2026-01-19 13:06:11.55	76.03	26.42	-36.4	-37.3	24.1	0.00e+00	120	41	0	1089470464	46	5790
2026-01-19 13:06:12.56	76.33	26.45	-36.5	-37.4	24.2	0.00e+00	120	41	0	1092616192	46	5811
2026-01-19 13:06:13.57	76.63	26.49	-36.4	-37.4	24.2	0.00e+00	121	41	0	1095761920	46	5798
2026-01-19 13:06:14.58	76.94	26.52	-36.5	-37.4	24.2	0.00e+00	120	41	0	1098907648	46	5819
2026-01-19 13:06:15.59	77.24	26.55	-36.3	-37.2	24.3	0.00e+00	122	41	0	1102053376	46	5723
2026-01-19 13:06:16.60	77.54	26.59	-36.2	-37.1	24.4	0.00e+00	123	41	0	1105199104	46	5647
2026-01-19 13:06:17.61	77.85	26.62	-36.3	-37.2	24.3	0.00e+00	120	41	0	1108344832	46	5685
2026-01-19 13:06:18.62	78.16	26.65	-36.4	-37.3	24.3	0.00e+00	123	41	0	1111490560	46	5755
2026-01-19 13:06:19.63	78.46	26.68	-36.5	-37.4	24.2	0.00e+00	123	41	0	1115684864	46	5806
2026-01-19 13:06:20.63	78.77	26.71	-36.4	-37.3	24.3	0.00e+00	121	41	0	1118830592	46	5778
2026-01-19 13:06:21.64	79.07	26.74	-36.4	-37.3	24.3	0.00e+00	123	41	0	1121976320	46	5737
2026-01-19 13:06:22.65	79.38	26.76	-36.2	-37.1	24.4	0.00e+00	123	41	0	1124073472	46	5625
2026-01-19 13:06:23.66	79.69	26.79	-36.3	-37.2	24.3	0.00e+00	123	41	0	1127219200	46	5711
2026-01-19 13:06:24.67	80.00	26.82	-36.4	-37.3	24.2	0.00e+00	123	41	0	1131413504	46	5775
2026-01-19 13:06:25.68	80.31	26.84	-36.5	-37.3	24.2	0.00e+00	120	41	0	1134559232	46	5788
2026-01-19 13:06:26.69	80.62	26.86	-36.4	-37.3	24.3	0.00e+00	123	41	0	1137704960	46	5768
2026-01-19 13:06:27.70	80.93	26.89	-36.5	-37.4	24.3	0.00e+00	120	41	0	1140850688	46	5810
2026-01-19 13:06:28.71	81.24	26.91	-36.4	-37.3	24.3	0.00e+00	122	41	0	1143996416	46	5742
2026-01-19 13:06:29.72	81.55	26.93	-36.5	-37.4	24.2	0.00e+00	122	41	0	1147142144	46	5846
2026-01-19 13:06:30.73	81.86	26.95	-36.5	-37.4	24.2	0.00e+00	122	41	0	1150287872	46	5800
2026-01-19 13:06:31.74	82.18	26.97	-36.4	-37.3	24.2	0.00e+00	123	41	0	1153433600	46	5777
2026-01-19 13:06:32.75	82.49	26.99	-36.5	-37.4	24.2	0.00e+00	120	41	0	1156579328	46	5837
2026-01-19 13:06:33.76	82.80	27.01	-36.7	-37.6	24.2	0.00e+00	123	41	0	1159725056	46	5955
2026-01-19 13:06:34.77	83.12	27.03	-36.9	-37.8	23.9	0.00e+00	123	41	0	1162870784	46	6106
2026-01-19 13:06:35.78	83.43	27.04	-36.7	-37.7	24.1	0.00e+00	120	41	0	1166016512	46	6002
2026-01-19 13:06:36.80	83.75	27.06	-36.5	-37.4	24.3	0.00e+00	123	41	0	1169162240	46	5832
2026-01-19 13:06:37.80	84.06	27.07	-36.4	-37.3	24.2	0.00e+00	123	41	0	1172307968	46	5727
2026-01-19 13:06:38.81	84.37	27.08	-36.5	-37.4	24.1	0.00e+00	123	41	0	1175453696	46	5844
2026-01-19 13:06:39.82	84.69	27.10	-36.6	-37.5	24.1	0.00e+00	122	41	0	1178599424	46	5894
2026-01-19 13:06:40.83	85.00	27.11	-36.6	-37.5	24.1	0.00e+00	122	41	0	1181745152	46	5894
2026-01-19 13:06:41.84	85.32	27.12	-36.6	-37.6	24.2	0.00e+00	122	41	0	1184890880	46	5927
2026-01-19 13:06:42.86	85.63	27.13	-36.5	-37.5	24.1	0.00e+00	123	41	0	1188036608	46	5871
2026-01-19 13:06:43.86	85.95	27.14	-36.2	-37.1	24.3	0.00e+00	122	41	0	1191182336	46	5659
2026-01-19 13:06:44.87	86.26	27.15	-36.3	-37.2	24.3	0.00e+00	123	41	0	1194328064	46	5708
2026-01-19 13:06:45.89	86.58	27.15	-36.3	-37.2	24.3	0.00e+00	123	41	0	1197473792	46	5719
2026-01-19 13:06:46.90	86.90	27.16	-36.4	-37.3	24.3	0.00e+00	120	41	0	1200619520	46	5763
2026-01-19 13:06:47.91	87.21	27.16	-36.6	-37.5	24.1	0.00e+00	123	41	0	1203765248	46	5898
2026-01-19 13:06:48.92	87.53	27.17	-36.7	-37.6	24.0	0.00e+00	122	41	0	1206910976	46	5984
2026-01-19 13:06:49.93	87.85	27.17	-36.6	-37.5	24.0	0.00e+00	122	41	0	1210056704	46	5925
2026-01-19 13:06:50.94	88.16	27.17	-36.4	-37.3	24.2	0.00e+00	119	41	0	1213202432	46	5768
2026-01-19 13:06:51.95	88.48	27.18	-36.3	-37.2	24.3	0.00e+00	122	41	0	1216348160	46	5693
2026-01-19 13:06:52.96	88.80	27.18	-36.4	-37.3	24.3	0.00e+00	120	41	0	1219493888	46	5752
2026-01-19 13:06:53.97	89.11	27.18	-36.2	-37.1	24.4	0.00e+00	120	41	0	1222639616	46	5609
2026-01-19 13:06:54.98	89.43	27.18	-36.1	-37.0	24.5	0.00e+00	122	41	0	1225785344	46	5589
2026-01-19 13:06:55.99	89.75	27.17	-36.0	-36.9	24.5	0.00e+00	120	41	0	1228931072	46	5517
2026-01-19 13:06:57.00	90.06	27.17	-36.2	-37.1	24.4	0.00e+00	123	41	0	1232076800	46	5646
2026-01-19 13:06:58.01	90.38	27.17	-36.3	-37.2	24.4	0.00e+00	120	41	0	1235222528	46	5699
2026-01-19 13:06:59.02	90.70	27.16	-36.4	-37.4	24.2	0.00e+00	122	41	0	1238368256	46	5810
2026-01-19 13:07:00.03	91.01	27.16	-36.4	-37.3	24.3	0.00e+00	123	41	0	1241513984	46	5735
2026-01-19 13:07:01.04	91.33	27.15	-36.3	-37.2	24.4	0.00e+00	123	41	0	1244659712	46	5709
2026-01-19 13:07:02.05	91.64	27.14	-36.3	-37.2	24.3	0.00e+00	122	41	0	1247805440	46	5676
2026-01-19 13:07:03.06	91.96	27.13	-36.2	-37.1	24.4	0.00e+00	122	41	0	1250951168	46	5640
2026-01-19 13:07:04.07	92.28	27.12	-36.1	-37.0	24.5	0.00e+00	122	41	0	1254096896	46	5535
2026-01-19 13:07:05.08	92.59	27.11	-36.1	-37.0	24.4	0.00e+00	123	41	0	1257242624	46	5582
2026-01-19 13:07:06.09	92.91	27.10	-36.2	-37.2	24.4	0.00e+00	123	41	0	1260388352	46	5666
2026-01-19 13:07:07.10	93.22	27.09	-36.3	-37.2	24.3	0.00e+00	120	41	0	1263534080	46	5697
2026-01-19 13:07:08.11	93.54	27.08	-36.5	-37.4	24.2	0.00e+00	122	41	0	1266679808	46	5811
2026-01-19 13:07:09.12	93.85	27.06	-36.5	-37.4	24.3	0.00e+00	122	41	0	1269825536	46	5806
2026-01-19 13:07:10.13	94.17	27.05	-36.5	-37.4	24.2	0.00e+00	122	41	0	1272971264	46	5823
2026-01-19 13:07:11.15	94.48	27.03	-36.3	-37.2	24.3	0.00e+00	116	41	0	1276116992	46	5687
2026-01-19 13:07:12.16	94.80	27.01	-36.4	-37.3	24.2	0.00e+00	122	41	0	1279262720	46	5778
2026-01-19 13:07:13.16	95.11	27.00	-36.4	-37.3	24.2	0.00e+00	123	41	0	1282408448	46	5735
2026-01-19 13:07:14.17	95.42	26.98	-36.4	-37.3	24.3	0.00e+00	123	41	0	1285554176	46	5757
2026-01-19 13:07:15.19	95.74	26.96	-36.1	-37.0	24.5	0.00e+00	117	41	0	1288699904	46	5542
2026-01-19 13:07:16.20	96.05	26.94	-36.2	-37.1	24.4	0.00e+00	118	41	0	1291845632	46	5648
2026-01-19 13:07:17.21	96.36	26.92	-36.3	-37.2	24.3	0.00e+00	123	41	0	1294991360	46	5667
2026-01-19 13:07:18.22	96.67	26.90	-36.2	-37.1	24.4	0.00e+00	122	41	0	1298137088	46	5636
2026-01-19 13:07:19.23	96.98	26.87	-36.2	-37.1	24.4	0.00e+00	122	41	0	1301282816	46	5656
2026-01-19 13:07:20.24	97.29	26.85	-36.3	-37.2	24.3	0.00e+00	123	41	0	1304428544	46	5719
2026-01-19 13:07:21.25	97.60	26.82	-36.3	-37.2	24.3	0.00e+00	122	41	0	1307574272	46	5693
2026-01-19 13:07:22.26	97.91	26.80	-36.3	-37.2	24.3	0.00e+00	121	41	0	1310720000	46	5680
2026-01-19 13:07:23.27	98.22	26.77	-36.2	-37.1	24.4	0.00e+00	120	41	0	1313865728	46	5651
2026-01-19 13:07:24.28	98.53	26.75	-36.3	-37.2	24.3	0.00e+00	127	41	0	1317011456	46	5691
2026-01-19 13:07:25.29	98.84	26.72	-36.2	-37.2	24.3	0.00e+00	122	41	0	1320157184	46	5669
2026-01-19 13:07:26.30	99.15	26.69	-36.2	-37.1	24.4	0.00e+00	122	41	0	1323302912	46	5627
2026-01-19 13:07:27.31	99.45	26.66	-36.3	-37.2	24.3	0.00e+00	123	41	0	1326448640	46	5709
2026-01-19 13:07:28.32	99.76	26.63	-36.4	-37.3	24.2	0.00e+00	123	41	0	1329594368	46	5763
2026-01-19 13:07:29.33	100.07	26.60	-36.2	-37.2	24.4	0.00e+00	123	41	0	1332740096	46	5660
2026-01-19 13:07:30.35	100.37	26.56	-36.3	-37.2	24.3	0.00e+00	123	41	0	1335885824	46	5713
2026-01-19 13:07:31.36	100.68	26.53	-36.3	-37.2	24.3	0.00e+00	122	41	0	1339031552	46	5696
2026-01-19 13:07:32.36	100.98	26.50	-36.4	-37.3	24.2	0.00e+00	122	41	0	1342177280	46	5759
2026-01-19 13:07:33.38	101.29	26.46	-36.4	-37.3	24.2	0.00e+00	123	41	0	1345323008	46	5782
2026-01-19 13:07:34.38	101.59	26.43	-36.5	-37.4	24.2	0.00e+00	122	41	0	1348468736	46	5815
2026-01-19 13:07:35.39	101.89	26.39	-36.5	-37.4	24.2	0.00e+00	120	41	0	1351614464	46	5843
2026-01-19 13:07:36.40	102.19	26.36	-36.4	-37.4	24.2	0.00e+00	123	41	0	1354760192	46	5795
2026-01-19 13:07:37.42	102.49	26.32	-36.6	-37.5	24.1	0.00e+00	121	41	0	1357905920	46	5897
2026-01-19 13:07:38.43	102.79	26.28	-36.7	-37.6	24.0	0.00e+00	122	41	0	1361051648	46	5988
2026-01-19 13:07:39.43	103.09	26.24	-36.7	-37.7	24.0	0.00e+00	120	41	0	1364197376	46	6015
2026-01-19 13:07:40.45	103.39	26.20	-36.7	-37.7	23.9	0.00e+00	122	41	0	1367343104	46	6003
2026-01-19 13:07:41.45	103.69	26.16	-36.8	-37.8	23.9	0.00e+00	123	41	0	1370488832	46	6089
2026-01-19 13:07:42.46	103.99	26.12	-36.8	-37.8	23.8	0.00e+00	122	41	0	1373634560	46	6075
2026-01-19 13:07:43.47	104.28	26.08	-36.8	-37.7	23.8	0.00e+00	122	41	0	1376780288	46	6054
2026-01-19 13:07:44.48	104.58	26.03	-37.0	-37.9	23.8	0.00e+00	122	41	0	1379926016	46	6188
2026-01-19 13:07:45.49	104.87	25.99	-36.9	-37.9	23.8	0.00e+00	122	41	0	1383071744	46	6152
2026-01-19 13:07:46.50	105.17	25.94	-36.8	-37.8	23.7	0.00e+00	123	41	0	1386217472	46	6089
2026-01-19 13:07:47.51	105.46	25.90	-37.0	-38.0	23.6	0.00e+00	120	41	0	1389363200	46	6231
2026-01-19 13:07:48.52	105.75	25.85	-36.9	-37.9	23.8	0.00e+00	123	41	0	1392508928	46	6157
2026-01-19 13:07:49.53	106.04	25.81	-36.7	-37.8	23.9	0.00e+00	123	41	0	1395654656	46	6065
2026-01-19 13:07:50.53	106.33	25.76	-36.7	-37.7	23.9	0.00e+00	122	41	0	1398800384	46	6007
2026-01-19 13:07:51.54	106.62	25.71	-36.5	-37.5	24.0	0.00e+00	120	41	0	1401946112	46	5909
2026-01-19 13:07:52.55	106.91	25.66	-36.7	-37.7	24.1	0.00e+00	123	41	0	1405091840	46	6013
2026-01-19 13:07:53.56	107.20	25.61	-36.4	-37.3	24.2	0.00e+00	123	41	0	1408237568	46	5748
2026-01-19 13:07:54.57	107.49	25.56	-36.2	-37.1	24.3	0.00e+00	123	41	0	1412431872	46	5659
2026-01-19 13:07:55.58	107.77	25.51	-36.3	-37.2	24.2	0.00e+00	123	41	0	1414529024	46	5706
2026-01-19 13:07:56.59	108.06	25.46	-36.3	-37.2	24.2	0.00e+00	122	41	0	1417674752	46	5689
2026-01-19 13:07:57.60	108.34	25.41	-36.5	-37.5	24.0	0.00e+00	123	41	0	1420820480	46	5859
2026-01-19 13:07:58.61	108.63	25.36	-36.7	-37.6	23.9	0.00e+00	122	41	0	1423966208	46	5971
2026-01-19 13:07:59.62	108.91	25.30	-36.8	-37.7	23.9	0.00e+00	123	41	0	1428160512	46	6053
2026-01-19 13:08:00.64	109.20	25.25	-36.6	-37.5	24.1	0.00e+00	120	41	0	1431306240	46	5866
2026-01-19 13:08:01.65	109.48	25.20	-36.5	-37.4	24.1	0.00e+00	122	41	0	1434451968	46	5811
2026-01-19 13:08:02.66	109.76	25.14	-36.6	-37.6	24.1	0.00e+00	123	41	0	1437597696	46	5945
2026-01-19 13:08:03.66	110.03	25.09	-36.5	-37.4	24.1	0.00e+00	123	41	0	1439694848	46	5848
2026-01-19 13:08:04.67	110.31	25.03	-36.2	-37.1	24.3	0.00e+00	120	41	0	1443889152	46	5656
2026-01-19 13:08:05.68	110.59	24.97	-36.3	-37.2	24.2	0.00e+00	122	41	0	1447034880	46	5710
2026-01-19 13:08:06.69	110.86	24.92	-36.3	-37.3	24.2	0.00e+00	120	41	0	1450180608	46	5734
2026-01-19 13:08:07.70	111.14	24.86	-36.2	-37.1	24.2	0.00e+00	127	42	0	1453326336	46	5618
2026-01-19 13:08:08.71	111.41	24.80	-36.2	-37.1	24.2	0.00e+00	123	41	0	1456472064	46	5610
2026-01-19 13:08:09.72	111.69	24.74	-36.2	-37.1	24.2	0.00e+00	123	41	0	1459617792	46	5631
2026-01-19 13:08:10.73	111.96	24.68	-36.0	-36.9	24.3	0.00e+00	122	41	0	1462763520	46	5530
2026-01-19 13:08:11.74	112.23	24.62	-36.0	-36.9	24.4	0.00e+00	123	41	0	1465909248	46	5498
2026-01-19 13:08:12.75	112.50	24.56	-36.2	-37.0	24.4	0.00e+00	120	41	0	1469054976	46	5578
2026-01-19 13:08:13.76	112.77	24.50	-36.0	-36.9	24.5	0.00e+00	118	41	0	1472200704	46	5481
2026-01-19 13:08:14.78	113.04	24.44	-36.0	-36.9	24.5	0.00e+00	123	41	0	1475346432	46	5476
2026-01-19 13:08:15.79	113.31	24.38	-36.2	-37.1	24.4	0.00e+00	123	41	0	1478492160	46	5619
2026-01-19 13:08:16.80	113.57	24.31	-36.3	-37.2	24.2	0.00e+00	123	41	0	1481637888	46	5681
2026-01-19 13:08:17.81	113.84	24.25	-36.4	-37.3	24.2	0.00e+00	120	41	0	1484783616	46	5742
2026-01-19 13:08:18.82	114.10	24.19	-36.4	-37.3	24.1	0.00e+00	123	41	0	1487929344	46	5783
2026-01-19 13:08:19.83	114.37	24.12	-36.6	-37.5	23.9	0.00e+00	122	41	0	1491075072	46	5908
2026-01-19 13:08:20.84	114.63	24.06	-36.7	-37.6	23.8	0.00e+00	122	41	0	1494220800	46	5984
2026-01-19 13:08:21.85	114.89	23.99	-36.6	-37.6	23.9	0.00e+00	123	41	0	1497366528	46	5947
2026-01-19 13:08:22.86	115.15	23.93	-36.7	-37.6	24.0	0.00e+00	122	41	0	1500512256	46	5951
2026-01-19 13:08:23.87	115.41	23.86	-36.6	-37.6	23.9	0.00e+00	122	41	0	1503657984	46	5933
2026-01-19 13:08:24.88	115.67	23.80	-36.4	-37.3	24.2	0.00e+00	122	41	0	1506803712	46	5753
2026-01-19 13:08:25.89	115.92	23.73	-36.3	-37.2	24.3	0.00e+00	122	41	0	1509949440	46	5679
2026-01-19 13:08:26.89	116.18	23.66	-36.3	-37.2	24.2	0.00e+00	123	41	0	1513095168	46	5700
2026-01-19 13:08:27.90	116.43	23.60	-36.4	-37.3	24.2	0.00e+00	123	41	0	1516240896	46	5754
2026-01-19 13:08:28.91	116.68	23.53	-36.4	-37.4	24.2	0.00e+00	123	41	0	1519386624	46	5796
2026-01-19 13:08:29.92	116.94	23.46	-36.6	-37.6	24.0	0.00e+00	123	41	0	1522532352	46	5948
2026-01-19 13:08:30.93	117.19	23.39	-36.8	-37.7	23.8	0.00e+00	122	41	0	1525678080	46	6036
2026-01-19 13:08:31.95	117.44	23.32	-36.7	-37.6	23.9	0.00e+00	120	41	0	1528823808	46	5986
2026-01-19 13:08:32.95	117.69	23.25	-36.9	-37.8	23.7	0.00e+00	123	41	0	1531969536	46	6124
2026-01-19 13:08:33.97	117.94	23.18	-36.8	-37.7	23.9	0.00e+00	120	41	0	1535115264	46	6042
2026-01-19 13:08:34.98	118.19	23.11	-36.7	-37.7	24.0	0.00e+00	123	41	0	1538260992	46	6009
2026-01-19 13:08:35.98	118.43	23.04	-36.7	-37.6	24.0	0.00e+00	123	41	0	1541406720	46	5982
2026-01-19 13:08:37.00	118.68	22.97	-36.5	-37.4	24.1	0.00e+00	120	41	0	1544552448	46	5830
2026-01-19 13:08:38.00	118.92	22.90	-36.4	-37.3	24.2	0.00e+00	122	41	0	1547698176	46	5784
2026-01-19 13:08:39.01	119.16	22.83	-36.5	-37.4	24.0	0.00e+00	121	41	0	1550843904	46	5857
2026-01-19 13:08:40.02	119.40	22.76	-36.3	-37.3	24.2	0.00e+00	123	41	0	1553989632	46	5731
2026-01-19 13:08:41.03	119.64	22.69	-36.5	-37.4	24.2	0.00e+00	122	41	0	1557135360	46	5828
2026-01-19 13:08:42.04	119.88	22.61	-36.5	-37.4	24.1	0.00e+00	123	41	0	1560281088	46	5805
2026-01-19 13:08:43.05	120.12	22.54	-36.6	-37.5	24.0	0.00e+00	122	41	0	1563426816	46	5902
2026-01-19 13:08:44.06	120.36	22.47	-36.4	-37.3	24.2	0.00e+00	122	41	0	1566572544	46	5762
2026-01-19 13:08:45.07	120.59	22.39	-36.5	-37.5	24.0	0.00e+00	122	41	0	1569718272	46	5872
2026-01-19 13:08:46.08	120.83	22.32	-36.5	-37.4	24.0	0.00e+00	122	41	0	1572864000	46	5837
2026-01-19 13:08:47.09	121.06	22.25	-36.4	-37.3	24.2	0.00e+00	122	41	0	1576009728	46	5764
2026-01-19 13:08:48.10	121.30	22.17	-36.5	-37.4	24.1	0.00e+00	120	41	0	1579155456	46	5822
2026-01-19 13:08:49.11	121.53	22.10	-36.5	-37.4	24.1	0.00e+00	122	41	0	1582301184	46	5811
2026-01-19 13:08:50.12	121.76	22.02	-36.5	-37.4	24.1	0.00e+00	120	41	0	1585446912	46	5829
2026-01-19 13:08:51.13	121.99	21.95	-36.4	-37.3	24.2	0.00e+00	122	41	0	1588592640	46	5781
2026-01-19 13:08:52.14	122.22	21.87	-36.4	-37.3	24.1	0.00e+00	123	41	0	1591738368	46	5786
2026-01-19 13:08:53.15	122.45	21.80	-36.3	-37.3	24.2	0.00e+00	123	41	0	1594884096	46	5731
2026-01-19 13:08:54.16	122.67	21.72	-36.5	-37.4	24.1	0.00e+00	122	41	0	1598029824	46	5852
2026-01-19 13:08:55.17	122.90	21.65	-36.7	-37.6	23.9	0.00e+00	120	41	0	1601175552	46	5970
2026-01-19 13:08:56.18	123.12	21.57	-36.7	-37.6	24.0	0.00e+00	123	41	0	1604321280	46	5980
2026-01-19 13:08:57.19	123.35	21.50	-36.6	-37.5	24.0	0.00e+00	121	41	0	1607467008	46	5912
2026-01-19 13:08:58.20	123.57	21.42	-36.6	-37.6	24.0	0.00e+00	123	41	0	1610612736	46	5940
2026-01-19 13:08:59.21	123.79	21.34	-36.6	-37.6	24.0	0.00e+00	123	41	0	1613758464	46	5953
2026-01-19 13:09:00.22	124.01	21.27	-36.5	-37.5	24.0	0.00e+00	121	41	0	1616904192	46	5865
2026-01-19 13:09:01.23	124.23	21.19	-36.2	-37.2	24.3	0.00e+00	122	41	0	1620049920	46	5674
2026-01-19 13:09:02.24	124.45	21.11	-36.0	-37.0	24.4	0.00e+00	120	41	0	1623195648	46	5542
2026-01-19 13:09:03.26	124.67	21.03	-36.1	-37.0	24.4	0.00e+00	123	41	0	1626341376	46	5533
2026-01-19 13:09:04.26	124.88	20.96	-36.0	-36.9	24.4	0.00e+00	123	41	0	1629487104	46	5526
2026-01-19 13:09:05.27	125.09	20.88	-36.1	-37.0	24.4	0.00e+00	122	41	0	1632632832	46	5543
2026-01-19 13:09:06.28	125.31	20.80	-36.2	-37.1	24.3	0.00e+00	119	41	0	1635778560	46	5610
2026-01-19 13:09:07.29	125.52	20.72	-36.3	-37.2	24.2	0.00e+00	120	41	0	1638924288	46	5677
2026-01-19 13:09:08.30	125.73	20.65	-36.2	-37.1	24.3	0.00e+00	123	41	0	1642070016	46	5656
2026-01-19 13:09:09.31	125.94	20.57	-36.2	-37.1	24.2	0.00e+00	123	41	0	1645215744	46	5651
2026-01-19 13:09:10.32	126.15	20.49	-36.3	-37.2	24.2	0.00e+00	118	41	0	1648361472	46	5679
2026-01-19 13:09:11.33	126.36	20.41	-36.2	-37.2	24.3	0.00e+00	120	41	0	1651507200	46	5669
2026-01-19 13:09:12.34	126.57	20.33	-36.1	-37.0	24.3	0.00e+00	123	41	0	1654652928	46	5579
2026-01-19 13:09:13.35	126.78	20.25	-36.2	-37.2	24.2	0.00e+00	122	41	0	1657798656	46	5660
2026-01-19 13:09:14.36	126.98	20.18	-36.3	-37.2	24.1	0.00e+00	122	41	0	1660944384	46	5691
2026-01-19 13:09:15.37	127.19	20.10	-36.4	-37.3	24.0	0.00e+00	123	41	0	1664090112	46	5755
2026-01-19 13:09:16.38	127.39	20.02	-36.4	-37.3	23.9	0.00e+00	123	41	0	1667235840	46	5789
2026-01-19 13:09:17.39	127.59	19.94	-36.5	-37.4	24.0	0.00e+00	122	41	0	1670381568	46	5804
2026-01-19 13:09:18.40	127.79	19.86	-36.3	-37.3	24.0	0.00e+00	123	41	0	1673527296	46	5739
2026-01-19 13:09:19.41	127.99	19.78	-36.5	-37.4	23.9	0.00e+00	122	41	0	1676673024	46	5836
2026-01-19 13:09:20.42	128.19	19.70	-36.6	-37.5	23.9	0.00e+00	122	41	0	1679818752	46	5921
2026-01-19 13:09:21.43	128.39	19.62	-36.6	-37.5	23.9	0.00e+00	123	41	0	1682964480	46	5913
2026-01-19 13:09:22.44	128.59	19.54	-36.7	-37.6	23.9	0.00e+00	123	41	0	1686110208	46	5973
2026-01-19 13:09:23.45	128.78	19.46	-36.7	-37.6	23.8	0.00e+00	127	41	0	1689255936	46	5986
2026-01-19 13:09:24.46	128.98	19.38	-36.7	-37.6	23.8	0.00e+00	123	41	0	1692401664	46	5966
2026-01-19 13:09:25.47	129.17	19.30	-36.6	-37.6	23.9	0.00e+00	123	41	0	1695547392	46	5936
2026-01-19 13:09:26.48	129.37	19.22	-36.7	-37.6	23.9	0.00e+00	123	41	0	1698693120	46	5977
2026-01-19 13:09:27.49	129.56	19.14	-36.8	-37.8	23.7	0.00e+00	122	41	0	1701838848	46	6065
2026-01-19 13:09:28.50	129.75	19.06	-36.8	-37.7	23.8	0.00e+00	118	41	0	1704984576	46	6033
2026-01-19 13:09:29.51	129.94	18.98	-36.9	-37.8	23.6	0.00e+00	123	41	0	1708130304	46	6134
2026-01-19 13:09:30.52	130.13	18.90	-36.9	-37.8	23.8	0.00e+00	120	41	0	1711276032	46	6092
2026-01-19 13:09:31.53	130.32	18.82	-37.0	-37.9	23.6	0.00e+00	127	41	0	1714421760	46	6185
2026-01-19 13:09:32.54	130.51	18.74	-36.9	-37.8	23.8	0.00e+00	127	41	0	1717567488	46	6122
2026-01-19 13:09:33.55	130.70	18.66	-36.9	-37.9	23.6	0.00e+00	123	41	0	1720713216	46	6155
2026-01-19 13:09:34.56	130.88	18.58	-37.0	-38.0	23.6	0.00e+00	118	41	0	1723858944	46	6238
2026-01-19 13:09:35.57	131.07	18.50	-37.1	-38.0	23.5	0.00e+00	122	41	0	1727004672	46	6267
2026-01-19 13:09:36.58	131.25	18.42	-36.8	-37.8	23.7	0.00e+00	120	41	0	1730150400	46	6096
2026-01-19 13:09:37.59	131.43	18.34	-37.0	-38.0	23.6	0.00e+00	123	41	0	1733296128	46	6212
2026-01-19 13:09:38.60	131.61	18.26	-36.9	-37.9	23.6	0.00e+00	127	41	0	1736441856	46	6167
2026-01-19 13:09:39.61	131.80	18.18	-37.0	-38.0	23.5	0.00e+00	122	41	0	1739587584	46	6231
2026-01-19 13:09:40.62	131.98	18.10	-36.9	-37.9	23.7	0.00e+00	122	41	0	1742733312	46	6146
2026-01-19 13:09:41.63	132.15	18.02	-37.1	-38.1	23.5	0.00e+00	123	41	0	1746927616	46	6281
2026-01-19 13:09:42.64	132.33	17.94	-37.0	-37.9	23.5	0.00e+00	120	41	0	1750073344	46	6199
2026-01-19 13:09:43.65	132.51	17.86	-37.0	-38.0	23.5	0.00e+00	123	41	0	1753219072	46	6229
2026-01-19 13:09:44.66	132.69	17.78	-37.1	-38.0	23.5	0.00e+00	123	41	0	1755316224	46	6261
2026-01-19 13:09:45.67	132.86	17.70	-37.3	-38.2	23.4	0.00e+00	123	41	0	1758461952	46	6402
2026-01-19 13:09:46.68	133.04	17.62	-37.2	-38.2	23.3	0.00e+00	122	42	0	1762656256	46	6398
2026-01-19 13:09:47.69	133.21	17.54	-37.3	-38.3	23.3	0.00e+00	123	41	0	1765801984	46	6456
2026-01-19 13:09:48.70	133.38	17.46	-37.4	-38.3	23.3	0.00e+00	123	41	0	1768947712	46	6498
2026-01-19 13:09:49.71	133.56	17.38	-37.2	-38.2	23.4	0.00e+00	122	41	0	1772093440	46	6352
2026-01-19 13:09:50.72	133.73	17.30	-37.2	-38.2	23.4	0.00e+00	120	41	0	1775239168	46	6356
2026-01-19 13:09:51.73	133.90	17.21	-37.1	-38.1	23.4	0.00e+00	122	41	0	1778384896	46	6291
2026-01-19 13:09:52.74	134.07	17.13	-37.2	-38.1	23.4	0.00e+00	120	41	0	1781530624	46	6342
2026-01-19 13:09:53.75	134.23	17.05	-37.3	-38.2	23.3	0.00e+00	122	41	0	1784676352	46	6406
2026-01-19 13:09:54.76	134.40	16.97	-37.3	-38.2	23.3	0.00e+00	120	41	0	1787822080	46	6415
2026-01-19 13:09:55.77	134.57	16.89	-37.4	-38.3	23.3	0.00e+00	123	41	0	1790967808	46	6481
2026-01-19 13:09:56.78	134.73	16.81	-37.3	-38.3	23.2	0.00e+00	122	41	0	1794113536	46	6435
2026-01-19 13:09:57.79	134.90	16.73	-37.4	-38.4	23.1	0.00e+00	123	41	0	1797259264	46	6506
2026-01-19 13:09:58.80	135.06	16.65	-37.4	-38.4	23.1	0.00e+00	123	41	0	1800404992	46	6542
2026-01-19 13:09:59.81	135.23	16.57	-37.4	-38.4	23.1	0.00e+00	123	41	0	1803550720	46	6524
2026-01-19 13:10:00.82	135.39	16.49	-37.5	-38.5	23.0	0.00e+00	120	41	0	1806696448	46	6601
2026-01-19 13:10:01.83	135.55	16.41	-37.3	-38.2	23.2	0.00e+00	122	41	0	1809842176	46	6410
2026-01-19 13:10:02.84	135.71	16.33	-37.3	-38.2	23.2	0.00e+00	123	41	0	1812987904	46	6415
2026-01-19 13:10:03.84	135.87	16.25	-37.3	-38.3	23.2	0.00e+00	122	41	0	1816133632	46	6436
2026-01-19 13:10:04.85	136.03	16.18	-37.1	-38.0	23.5	0.00e+00	123	41	0	1819279360	46	6256
2026-01-19 13:10:05.86	136.19	16.10	-37.0	-37.9	23.5	0.00e+00	123	41	0	1822425088	46	6198
2026-01-19 13:10:06.87	136.35	16.02	-37.1	-38.0	23.4	0.00e+00	123	41	0	1825570816	46	6254
2026-01-19 13:10:07.88	136.50	15.94	-37.0	-38.0	23.5	0.00e+00	125	41	0	1828716544	46	6212
2026-01-19 13:10:08.89	136.66	15.86	-37.2	-38.1	23.4	0.00e+00	121	41	0	1831862272	46	6337
2026-01-19 13:10:09.90	136.81	15.78	-37.1	-38.0	23.4	0.00e+00	120	41	0	1835008000	46	6257
2026-01-19 13:10:10.91	136.97	15.70	-37.2	-38.1	23.4	0.00e+00	122	41	0	1838153728	46	6340
2026-01-19 13:10:11.92	137.12	15.62	-37.0	-37.9	23.5	0.00e+00	120	41	0	1841299456	46	6193
2026-01-19 13:10:12.93	137.27	15.54	-37.1	-38.0	23.4	0.00e+00	123	41	0	1844445184	46	6238
2026-01-19 13:10:13.94	137.43	15.46	-37.2	-38.1	23.4	0.00e+00	122	41	0	1847590912	46	6349
2026-01-19 13:10:14.95	137.58	15.38	-37.2	-38.1	23.4	0.00e+00	123	41	0	1850736640	46	6317
2026-01-19 13:10:15.96	137.73	15.30	-37.3	-38.2	23.3	0.00e+00	123	41	0	1853882368	46	6413
2026-01-19 13:10:16.97	137.88	15.22	-37.4	-38.4	23.1	0.00e+00	123	41	0	1857028096	46	6515
2026-01-19 13:10:17.98	138.03	15.14	-37.5	-38.4	23.1	0.00e+00	123	41	0	1860173824	46	6564
2026-01-19 13:10:19.00	138.18	15.06	-37.6	-38.5	23.0	0.00e+00	120	41	0	1863319552	46	6642
2026-01-19 13:10:20.01	138.32	14.99	-37.7	-38.6	22.9	0.00e+00	123	41	0	1866465280	48	5981
2026-01-19 13:10:21.01	138.47	14.91	-37.6	-38.6	23.0	0.00e+00	122	41	0	1869611008	48	5952
2026-01-19 13:10:22.02	138.61	14.83	-37.6	-38.6	22.9	0.00e+00	120	41	0	1872756736	48	5957
2026-01-19 13:10:23.03	138.76	14.75	-37.6	-38.6	22.9	0.00e+00	121	41	0	1875902464	48	5965
2026-01-19 13:10:24.04	138.90	14.67	-37.6	-38.6	22.9	0.00e+00	118	41	0	1879048192	48	5947
2026-01-19 13:10:25.06	139.05	14.59	-37.6	-38.6	22.9	0.00e+00	123	41	0	1882193920	48	5939
2026-01-19 13:10:26.06	139.19	14.52	-37.7	-38.7	22.9	0.00e+00	123	41	0	1885339648	48	5998
2026-01-19 13:10:27.07	139.33	14.44	-37.6	-38.6	22.8	0.00e+00	123	41	0	1888485376	48	5987
2026-01-19 13:10:28.08	139.47	14.36	-37.7	-38.7	22.8	0.00e+00	118	41	0	1891631104	48	6030
2026-01-19 13:10:29.09	139.61	14.28	-37.7	-38.7	22.8	0.00e+00	122	41	0	1894776832	48	6003
2026-01-19 13:10:30.10	139.75	14.20	-37.7	-38.7	22.8	0.00e+00	122	41	0	1897922560	48	6003
2026-01-19 13:10:31.11	139.89	14.13	-37.8	-38.8	22.6	0.00e+00	122	41	0	1901068288	48	6084
2026-01-19 13:10:32.12	140.03	14.05	-37.9	-38.9	22.5	0.00e+00	122	41	0	1904214016	48	6196
2026-01-19 13:10:33.13	140.17	13.97	-38.0	-39.1	22.4	0.00e+00	122	41	0	1907359744	48	6279
2026-01-19 13:10:34.14	140.31	13.89	-38.2	-39.2	22.3	0.00e+00	123	41	0	1910505472	48	6389
2026-01-19 13:10:35.15	140.44	13.81	-38.3	-39.4	22.2	0.00e+00	123	41	0	1913651200	48	6503
2026-01-19 13:10:36.16	140.58	13.74	-38.5	-39.5	21.9	0.00e+00	123	41	0	1916796928	48	6615
2026-01-19 13:10:37.17	140.72	13.66	-38.5	-39.6	21.9	0.00e+00	122	41	0	1919942656	48	6665
2026-01-19 13:10:38.18	140.85	13.58	-38.7	-39.8	21.7	0.00e+00	118	41	0	1923088384	48	6815
2026-01-19 13:10:39.19	140.98	13.51	-38.8	-39.8	21.5	0.00e+00	123	41	0	1926234112	50	6130
2026-01-19 13:10:40.20	141.12	13.43	-39.0	-40.1	21.3	0.00e+00	122	41	0	1929379840	50	6287
2026-01-19 13:10:41.21	141.25	13.35	-39.0	-40.1	21.3	0.00e+00	122	41	0	1932525568	50	6283
2026-01-19 13:10:42.22	141.38	13.28	-39.2	-40.3	21.0	0.00e+00	123	41	0	1935671296	50	6443
2026-01-19 13:10:43.23	141.51	13.20	-39.1	-40.2	21.0	0.00e+00	123	41	0	1938817024	50	6420
2026-01-19 13:10:44.24	141.64	13.12	-39.3	-40.4	20.8	0.00e+00	123	41	0	1941962752	50	6564
2026-01-19 13:10:45.25	141.77	13.05	-39.4	-40.6	20.7	0.00e+00	123	41	0	1945108480	50	6650
2026-01-19 13:10:46.26	141.90	12.97	-39.3	-40.5	20.8	0.00e+00	118	42	0	1948254208	50	6612
2026-01-19 13:10:47.27	142.03	12.89	-39.3	-40.4	20.9	0.00e+00	121	41	0	1951399936	50	6563
2026-01-19 13:10:48.28	142.16	12.82	-39.2	-40.4	21.0	0.00e+00	123	41	0	1954545664	50	6501
2026-01-19 13:10:49.29	142.29	12.74	-39.3	-40.5	21.0	0.00e+00	122	41	0	1957691392	50	6574
2026-01-19 13:10:50.30	142.41	12.67	-39.0	-40.2	21.2	0.00e+00	120	41	0	1960837120	50	6367
2026-01-19 13:10:51.31	142.54	12.59	-39.0	-40.1	21.3	0.00e+00	123	41	0	1963982848	50	6308
2026-01-19 13:10:52.32	142.66	12.51	-38.9	-40.0	21.4	0.00e+00	123	41	0	1967128576	50	6210
2026-01-19 13:10:53.33	142.79	12.44	-39.0	-40.1	21.2	0.00e+00	123	41	0	1970274304	50	6316
2026-01-19 13:10:54.34	142.91	12.36	-38.8	-39.9	21.5	0.00e+00	120	41	0	1973420032	50	6147
2026-01-19 13:10:55.35	143.04	12.29	-38.8	-39.9	21.5	0.00e+00	122	41	0	1976565760	50	6151
2026-01-19 13:10:56.36	143.16	12.21	-38.8	-39.9	21.5	0.00e+00	122	41	0	1979711488	50	6144
2026-01-19 13:10:57.37	143.28	12.14	-38.8	-39.8	21.5	0.00e+00	122	41	0	1982857216	50	6125
2026-01-19 13:10:58.38	143.40	12.06	-38.7	-39.8	21.5	0.00e+00	119	41	0	1986002944	50	6076
2026-01-19 13:10:59.39	143.53	11.99	-38.8	-39.9	21.5	0.00e+00	122	41	0	1989148672	50	6166
