passes_logs/2026/01/19/R4.6S_Anadyr/R4.6S_Anadyr__20260119_022209_FENGYUN_3D_rec.log

#Pass ID: 20260119_022209_FENGYUN 3D
#Satellite: FENGYUN 3D
#Configuration: FENGYUN 3D
#almurnet v.1.7.20251203
#Start time: 2026-01-19 02:22:12

#Version: 2.2.20231116
#Station: R4.6S_Anadyr
#Location: 177.4865 lon 64.73178 lat
#TLE: 1 43010U 17072A   26018.59788810  .00000129  00000+0  82801-4 0  9992
#TLE: 2 43010  98.9937 350.4692 0002400 102.4643 257.6801 14.19696801423766

#Time	Az	El	Level	Level2	SNR	BER	BlckErr	Temp	State	Recorded	gain1	gain2
2026-01-19 02:22:12.42	158.67	0.18	-50.1	-60.8	3.3	8.39e-01	0	39	0	0	60	39845
2026-01-19 02:22:13.42	158.68	0.24	-50.1	-62.3	3.6	8.45e-01	0	40	104	0	60	46875
2026-01-19 02:22:14.43	158.69	0.30	-50.1	-62.3	3.6	8.45e-01	0	40	104	0	60	47072
2026-01-19 02:22:15.44	158.69	0.36	-50.1	-62.3	3.6	8.45e-01	0	40	104	0	60	47106
2026-01-19 02:22:16.45	158.70	0.42	-50.2	-62.3	3.6	8.44e-01	0	40	104	0	60	47131
2026-01-19 02:22:17.46	158.71	0.49	-50.2	-62.3	3.6	8.45e-01	0	40	104	0	60	47267
2026-01-19 02:22:18.47	158.72	0.55	-50.2	-62.3	3.6	8.46e-01	0	40	104	0	60	47163
2026-01-19 02:22:19.48	158.72	0.61	-50.1	-62.3	3.6	8.46e-01	0	40	104	0	60	46965
2026-01-19 02:22:20.49	158.73	0.67	-50.1	-62.3	3.5	8.44e-01	0	40	104	0	60	47015
2026-01-19 02:22:21.50	158.74	0.73	-50.1	-62.3	3.6	8.45e-01	0	40	104	0	60	46968
2026-01-19 02:22:22.51	158.75	0.80	-49.9	-62.2	3.6	8.45e-01	0	40	104	0	60	46322
2026-01-19 02:22:23.52	158.75	0.86	-49.9	-62.1	3.6	8.46e-01	0	40	104	0	60	46001
2026-01-19 02:22:24.53	158.76	0.92	-49.8	-62.0	3.6	8.46e-01	0	40	104	0	60	45259
2026-01-19 02:22:25.54	158.77	0.98	-49.6	-61.8	3.6	8.45e-01	0	40	104	0	60	44651
2026-01-19 02:22:26.55	158.77	1.05	-49.6	-61.8	3.6	8.46e-01	0	40	104	0	60	44244
2026-01-19 02:22:27.56	158.78	1.11	-49.4	-61.6	3.6	8.46e-01	0	40	104	0	60	43425
2026-01-19 02:22:28.57	158.79	1.17	-48.6	-60.6	3.6	8.46e-01	0	40	104	0	60	38752
2026-01-19 02:22:29.58	158.80	1.23	-48.5	-60.6	3.6	8.45e-01	0	40	104	0	60	38677
2026-01-19 02:22:30.59	158.80	1.30	-48.6	-60.7	3.6	8.46e-01	0	40	104	0	60	38973
2026-01-19 02:22:31.60	158.81	1.36	-48.4	-60.4	3.6	8.45e-01	0	40	104	0	60	37934
2026-01-19 02:22:32.61	158.82	1.42	-48.4	-60.3	3.6	8.47e-01	0	40	104	0	60	37362
2026-01-19 02:22:33.62	158.83	1.49	-48.4	-60.4	3.6	8.45e-01	0	40	104	0	60	37899
2026-01-19 02:22:34.63	158.83	1.55	-48.4	-60.3	3.6	8.46e-01	0	40	104	0	60	37296
2026-01-19 02:22:35.64	158.84	1.62	-48.4	-60.4	3.6	8.45e-01	0	40	104	0	60	37812
2026-01-19 02:22:36.65	158.85	1.68	-48.4	-60.4	3.6	8.46e-01	0	40	104	0	60	37919
2026-01-19 02:22:37.66	158.86	1.74	-48.4	-60.5	3.6	8.44e-01	0	40	104	0	60	38267
2026-01-19 02:22:38.67	158.86	1.81	-48.4	-60.5	3.6	8.46e-01	0	40	104	0	60	38258
2026-01-19 02:22:39.68	158.87	1.87	-48.4	-60.5	3.6	8.45e-01	0	40	104	0	60	38205
2026-01-19 02:22:40.68	158.88	1.94	-48.4	-60.5	3.6	8.46e-01	0	40	104	0	60	38163
2026-01-19 02:22:41.69	158.89	2.00	-48.4	-60.4	3.6	8.44e-01	0	40	104	0	60	37980
2026-01-19 02:22:42.70	158.89	2.07	-48.4	-60.4	3.6	8.45e-01	0	40	104	0	60	37783
2026-01-19 02:22:43.71	158.90	2.13	-48.4	-60.4	3.6	8.46e-01	0	40	104	0	60	37762
2026-01-19 02:22:44.72	158.91	2.20	-48.4	-60.4	3.6	8.45e-01	0	40	104	0	60	37888
2026-01-19 02:22:45.73	158.92	2.26	-48.4	-60.3	3.6	8.46e-01	0	40	104	0	60	37445
2026-01-19 02:22:46.74	158.93	2.33	-48.3	-59.9	3.6	8.46e-01	0	40	104	0	60	35919
2026-01-19 02:22:47.75	158.93	2.39	-48.3	-59.3	3.6	8.46e-01	0	40	104	0	60	33530
2026-01-19 02:22:48.76	158.94	2.46	-48.2	-58.7	3.6	8.46e-01	0	40	104	0	60	31007
2026-01-19 02:22:49.77	158.95	2.52	-48.1	-57.7	3.8	8.43e-01	0	40	104	0	60	27666
2026-01-19 02:22:50.78	158.96	2.59	-48.0	-57.0	4.1	8.44e-01	0	40	104	0	60	25615
2026-01-19 02:22:51.79	158.96	2.66	-48.0	-57.2	3.9	8.42e-01	0	40	104	0	60	26066
2026-01-19 02:22:52.80	158.97	2.72	-48.1	-58.1	3.8	8.42e-01	0	40	104	0	60	28913
2026-01-19 02:22:53.81	158.98	2.79	-48.3	-59.3	3.6	8.45e-01	0	40	104	0	60	33235
2026-01-19 02:22:54.82	158.99	2.86	-48.3	-59.9	3.6	8.43e-01	0	40	104	0	60	35672
2026-01-19 02:22:55.83	159.00	2.92	-48.2	-58.7	3.6	8.45e-01	0	40	104	0	60	30998
2026-01-19 02:22:56.84	159.00	2.99	-47.5	-54.3	5.6	8.26e-01	0	40	104	0	60	18799
2026-01-19 02:22:57.85	159.01	3.06	-46.7	-50.7	8.3	1.25e-01	0	40	0	3145728	60	12431
2026-01-19 02:22:58.86	159.02	3.13	-45.4	-48.3	11.0	1.54e-02	0	40	0	9437184	60	9433
2026-01-19 02:22:59.87	159.03	3.19	-43.9	-46.0	13.4	3.89e-05	0	40	0	14680064	60	7199
2026-01-19 02:23:00.88	159.04	3.26	-43.1	-44.8	14.7	1.10e-06	0	40	0	20971520	60	6317
2026-01-19 02:23:01.88	159.04	3.33	-42.0	-43.5	16.0	0.00e+00	0	40	0	26214400	58	6052
2026-01-19 02:23:02.89	159.05	3.40	-41.1	-42.4	17.2	0.00e+00	0	40	0	31457280	56	5992
2026-01-19 02:23:03.90	159.06	3.46	-41.2	-42.5	17.0	0.00e+00	0	40	0	37748736	56	6055
2026-01-19 02:23:04.92	159.07	3.53	-40.5	-41.7	17.6	0.00e+00	0	40	0	42991616	54	6244
2026-01-19 02:23:05.93	159.08	3.60	-41.1	-42.3	17.1	0.00e+00	0	40	0	49283072	54	6691
2026-01-19 02:23:06.94	159.09	3.67	-41.2	-42.5	16.9	0.00e+00	0	40	0	54525952	54	6824
2026-01-19 02:23:07.95	159.09	3.74	-48.1	-57.0	3.8	8.41e-01	0	40	104	57671680	60	25714
2026-01-19 02:23:08.96	159.10	3.81	-46.6	-50.5	8.5	1.02e-01	0	40	0	58720256	60	12103
2026-01-19 02:23:09.97	159.11	3.88	-47.9	-55.9	4.0	2.15e-02	0	40	0	62914560	60	22495
2026-01-19 02:23:10.98	159.12	3.95	-38.7	-39.7	19.8	0.00e+00	0	40	0	67108864	52	5531
2026-01-19 02:23:11.99	159.13	4.02	-48.2	-56.3	3.7	2.01e-02	0	40	104	71303168	60	23707
2026-01-19 02:23:13.00	159.14	4.09	-38.6	-39.6	19.9	0.00e+00	0	40	104	71303168	50	6118
2026-01-19 02:23:14.01	159.14	4.16	-39.4	-40.5	19.2	0.00e+00	0	40	0	76546048	50	6786
2026-01-19 02:23:15.02	159.15	4.23	-38.8	-39.8	19.6	0.00e+00	0	40	0	81788928	50	6275
2026-01-19 02:23:16.03	159.16	4.30	-39.1	-40.1	20.3	0.00e+00	0	40	0	88080384	50	6480
2026-01-19 02:23:17.04	159.17	4.37	-38.7	-39.6	19.6	0.00e+00	0	40	0	93323264	50	6164
2026-01-19 02:23:18.05	159.18	4.44	-39.0	-39.9	20.3	0.00e+00	0	40	0	98566144	50	6388
2026-01-19 02:23:19.06	159.19	4.51	-38.6	-39.6	19.8	0.00e+00	0	40	0	104857600	50	6108
2026-01-19 02:23:20.07	159.19	4.58	-39.5	-40.5	18.9	0.00e+00	0	40	0	110100480	52	6091
2026-01-19 02:23:21.08	159.20	4.65	-39.2	-40.1	19.9	0.00e+00	0	40	0	116391936	50	6523
2026-01-19 02:23:22.09	159.21	4.72	-39.1	-40.0	19.4	0.00e+00	0	40	0	121634816	50	6437
2026-01-19 02:23:23.10	159.22	4.80	-39.2	-40.2	19.6	0.00e+00	0	40	0	127926272	50	6540
2026-01-19 02:23:24.11	159.23	4.87	-38.6	-39.5	20.4	0.00e+00	0	40	0	133169152	50	6100
2026-01-19 02:23:25.12	159.24	4.94	-38.3	-39.2	20.3	0.00e+00	0	40	0	138412032	50	5881
2026-01-19 02:23:26.13	159.25	5.01	-38.5	-39.4	20.8	0.00e+00	0	40	0	144703488	50	6005
2026-01-19 02:23:27.14	159.25	5.08	-38.2	-39.1	20.6	0.00e+00	0	40	0	149946368	50	5763
2026-01-19 02:23:28.15	159.26	5.16	-38.5	-39.4	20.6	0.00e+00	0	40	0	156237824	50	6023
2026-01-19 02:23:29.16	159.27	5.23	-37.7	-38.5	21.3	0.00e+00	0	40	0	161480704	50	5401
2026-01-19 02:23:30.17	159.28	5.30	-38.5	-39.4	20.4	0.00e+00	0	40	0	166723584	48	6759
2026-01-19 02:23:31.18	159.29	5.38	-38.1	-39.0	21.0	0.00e+00	0	40	0	173015040	48	6438
2026-01-19 02:23:32.19	159.30	5.45	-37.6	-38.4	20.9	0.00e+00	0	40	0	178257920	48	6023
2026-01-19 02:23:33.20	159.31	5.52	-38.2	-39.1	21.2	0.00e+00	0	40	0	184549376	48	6501
2026-01-19 02:23:34.22	159.32	5.60	-38.4	-39.3	21.1	0.00e+00	0	40	0	189792256	48	6621
2026-01-19 02:23:35.23	159.33	5.67	-37.4	-38.2	21.1	0.00e+00	0	40	0	195035136	48	5873
2026-01-19 02:23:36.24	159.33	5.75	-37.9	-38.8	21.5	0.00e+00	0	40	0	201326592	48	6291
2026-01-19 02:23:37.25	159.34	5.82	-38.2	-39.1	21.5	0.00e+00	0	40	0	206569472	48	6521
2026-01-19 02:23:38.26	159.35	5.90	-37.6	-38.5	20.8	0.00e+00	0	40	0	212860928	48	6041
2026-01-19 02:23:39.27	159.36	5.97	-38.6	-39.5	21.2	0.00e+00	0	40	0	218103808	48	6812
2026-01-19 02:23:40.27	159.37	6.05	-38.3	-39.2	21.2	0.00e+00	0	40	0	224395264	48	6582
2026-01-19 02:23:41.28	159.38	6.12	-38.0	-38.8	21.5	0.00e+00	0	40	0	229638144	48	6316
2026-01-19 02:23:42.29	159.39	6.20	-37.2	-38.0	21.7	0.00e+00	0	40	0	235929600	48	5722
2026-01-19 02:23:43.30	159.40	6.27	-38.0	-38.8	21.5	0.00e+00	0	40	0	241172480	48	6272
2026-01-19 02:23:44.31	159.41	6.35	-37.6	-38.4	21.6	0.00e+00	0	40	0	246415360	48	5996
2026-01-19 02:23:45.32	159.42	6.42	-37.8	-38.6	21.4	0.00e+00	0	40	0	252706816	48	6171
2026-01-19 02:23:46.33	159.43	6.50	-37.5	-38.3	21.6	0.00e+00	0	40	0	257949696	48	5911
2026-01-19 02:23:47.34	159.44	6.58	-37.9	-38.7	21.3	0.00e+00	0	40	0	264241152	48	6239
2026-01-19 02:23:48.35	159.44	6.65	-37.7	-38.5	21.8	0.00e+00	0	40	0	269484032	48	6093
2026-01-19 02:23:49.36	159.45	6.73	-37.5	-38.4	21.8	0.00e+00	0	41	0	274726912	48	5965
2026-01-19 02:23:50.37	159.46	6.81	-37.7	-38.6	21.6	0.00e+00	0	40	0	281018368	48	6119
2026-01-19 02:23:51.39	159.47	6.89	-36.9	-37.7	22.3	0.00e+00	0	40	0	286261248	48	5550
2026-01-19 02:23:52.40	159.48	6.97	-36.4	-37.2	22.7	0.00e+00	0	40	0	292552704	46	5866
2026-01-19 02:23:53.41	159.49	7.04	-36.6	-37.4	22.6	0.00e+00	0	40	0	297795584	46	5988
2026-01-19 02:23:54.42	159.50	7.12	-36.7	-37.5	22.7	0.00e+00	0	40	0	303038464	46	6067
2026-01-19 02:23:55.43	159.51	7.20	-37.0	-37.8	22.4	0.00e+00	0	40	0	309329920	46	6252
2026-01-19 02:23:56.44	159.52	7.28	-36.9	-37.7	22.4	0.00e+00	0	41	0	314572800	46	6216
2026-01-19 02:23:57.45	159.53	7.36	-36.7	-37.5	22.6	0.00e+00	0	40	0	320864256	46	6043
2026-01-19 02:23:58.46	159.54	7.44	-36.9	-37.6	22.5	0.00e+00	0	40	0	326107136	46	6164
2026-01-19 02:23:59.47	159.55	7.52	-36.6	-37.3	22.8	0.00e+00	0	40	0	332398592	46	5964
2026-01-19 02:24:00.48	159.56	7.60	-36.3	-37.1	22.9	0.00e+00	0	41	0	337641472	46	5804
2026-01-19 02:24:01.49	159.57	7.68	-36.2	-36.9	23.1	0.00e+00	0	40	0	343932928	46	5660
2026-01-19 02:24:02.50	159.58	7.76	-36.3	-37.1	23.0	0.00e+00	0	40	0	349175808	46	5783
2026-01-19 02:24:03.51	159.59	7.84	-36.1	-36.8	23.2	0.00e+00	0	41	0	354418688	46	5629
2026-01-19 02:24:04.52	159.60	7.92	-36.2	-37.0	23.1	0.00e+00	0	40	0	360710144	46	5704
2026-01-19 02:24:05.53	159.61	8.00	-36.3	-37.0	23.0	0.00e+00	0	40	0	365953024	46	5745
2026-01-19 02:24:06.54	159.62	8.08	-36.0	-36.8	23.3	0.00e+00	0	41	0	372244480	46	5577
2026-01-19 02:24:07.55	159.63	8.16	-36.3	-37.0	23.0	0.00e+00	0	41	0	377487360	46	5747
2026-01-19 02:24:08.56	159.64	8.25	-36.3	-37.1	23.1	0.00e+00	0	40	0	382730240	46	5788
2026-01-19 02:24:09.57	159.65	8.33	-36.3	-37.0	23.1	0.00e+00	0	41	0	389021696	46	5747
2026-01-19 02:24:10.58	159.66	8.41	-36.3	-37.1	23.0	0.00e+00	0	40	0	394264576	46	5788
2026-01-19 02:24:11.60	159.67	8.49	-36.2	-36.9	23.1	0.00e+00	0	41	0	400556032	46	5695
2026-01-19 02:24:12.61	159.68	8.58	-35.9	-36.7	23.4	0.00e+00	0	40	0	405798912	46	5513
2026-01-19 02:24:13.61	159.69	8.66	-36.1	-36.8	23.3	0.00e+00	0	40	0	411041792	46	5615
2026-01-19 02:24:14.62	159.70	8.74	-36.0	-36.7	23.3	0.00e+00	0	41	0	417333248	46	5566
2026-01-19 02:24:15.63	159.71	8.83	-35.9	-36.7	23.4	0.00e+00	0	40	0	422576128	46	5520
2026-01-19 02:24:16.64	159.72	8.91	-36.0	-36.7	23.4	0.00e+00	0	40	0	428867584	46	5558
2026-01-19 02:24:17.65	159.73	8.99	-36.0	-36.7	23.4	0.00e+00	0	40	0	434110464	46	5545
2026-01-19 02:24:18.66	159.74	9.08	-35.8	-36.5	23.6	0.00e+00	0	40	0	440401920	46	5422
2026-01-19 02:24:19.67	159.75	9.16	-35.7	-36.5	23.6	0.00e+00	0	40	0	445644800	44	6055
2026-01-19 02:24:20.68	159.76	9.25	-35.7	-36.4	23.7	0.00e+00	0	40	0	451936256	44	5970
2026-01-19 02:24:21.69	159.77	9.34	-35.7	-36.4	23.7	0.00e+00	0	41	0	457179136	44	6015
2026-01-19 02:24:22.70	159.78	9.42	-35.7	-36.5	23.6	0.00e+00	0	40	0	462422016	44	6047
2026-01-19 02:24:23.71	159.79	9.51	-35.6	-36.3	23.8	0.00e+00	0	40	0	468713472	44	5905
2026-01-19 02:24:24.72	159.81	9.59	-35.6	-36.3	23.8	0.00e+00	0	40	0	473956352	44	5950
2026-01-19 02:24:25.73	159.82	9.68	-35.5	-36.2	23.8	0.00e+00	0	40	0	479199232	44	5876
2026-01-19 02:24:26.74	159.83	9.77	-35.6	-36.4	23.7	0.00e+00	0	40	0	485490688	44	5972
2026-01-19 02:24:27.74	159.84	9.85	-35.6	-36.3	23.7	0.00e+00	0	40	0	490733568	44	5962
2026-01-19 02:24:28.76	159.85	9.94	-35.5	-36.2	23.9	0.00e+00	0	40	0	497025024	44	5861
2026-01-19 02:24:29.77	159.86	10.03	-35.7	-36.4	23.8	0.00e+00	0	40	0	502267904	44	5981
2026-01-19 02:24:30.78	159.87	10.12	-35.6	-36.3	23.8	0.00e+00	0	40	0	507510784	44	5956
2026-01-19 02:24:31.78	159.88	10.21	-35.5	-36.2	23.9	0.00e+00	0	40	0	513802240	44	5865
2026-01-19 02:24:32.79	159.89	10.30	-35.4	-36.1	23.9	0.00e+00	0	40	0	519045120	44	5815
2026-01-19 02:24:33.80	159.90	10.38	-35.4	-36.1	24.0	0.00e+00	0	40	0	525336576	44	5808
2026-01-19 02:24:34.81	159.91	10.47	-35.4	-36.1	23.9	0.00e+00	0	40	0	530579456	44	5804
2026-01-19 02:24:35.83	159.93	10.57	-35.5	-36.2	24.0	0.00e+00	0	41	0	536870912	44	5856
2026-01-19 02:24:36.84	159.94	10.66	-35.6	-36.3	23.9	0.00e+00	0	40	0	542113792	44	5952
2026-01-19 02:24:37.85	159.95	10.75	-35.6	-36.3	24.0	0.00e+00	0	40	0	548405248	44	5906
2026-01-19 02:24:38.86	159.96	10.84	-35.4	-36.1	24.1	0.00e+00	0	40	0	553648128	44	5798
2026-01-19 02:24:39.87	159.97	10.93	-35.4	-36.1	24.0	0.00e+00	0	40	0	558891008	44	5823
2026-01-19 02:24:40.88	159.98	11.02	-35.2	-35.9	24.2	0.00e+00	0	40	0	565182464	44	5663
2026-01-19 02:24:41.89	159.99	11.11	-35.2	-36.0	24.2	0.00e+00	0	40	0	570425344	44	5696
2026-01-19 02:24:42.90	160.01	11.20	-35.3	-36.0	24.0	0.00e+00	0	41	0	576716800	44	5756
2026-01-19 02:24:43.91	160.02	11.30	-35.2	-35.9	24.2	0.00e+00	0	40	0	581959680	44	5665
2026-01-19 02:24:44.92	160.03	11.39	-35.3	-36.0	24.1	0.00e+00	0	41	0	587202560	44	5721
2026-01-19 02:24:45.93	160.04	11.48	-35.2	-35.9	24.3	0.00e+00	0	40	0	593494016	44	5640
2026-01-19 02:24:46.94	160.05	11.58	-35.4	-36.1	24.2	0.00e+00	0	40	0	598736896	44	5766
2026-01-19 02:24:47.95	160.06	11.67	-35.3	-36.0	24.3	0.00e+00	0	40	0	605028352	44	5699
2026-01-19 02:24:48.96	160.08	11.76	-35.3	-36.0	24.2	0.00e+00	0	41	0	610271232	44	5735
2026-01-19 02:24:49.97	160.09	11.86	-35.4	-36.0	24.1	0.00e+00	0	40	0	615514112	44	5747
2026-01-19 02:24:50.98	160.10	11.95	-35.2	-35.9	24.3	0.00e+00	0	40	0	621805568	44	5694
2026-01-19 02:24:51.99	160.11	12.05	-35.1	-35.8	24.4	0.00e+00	0	40	0	627048448	44	5597
2026-01-19 02:24:53.00	160.12	12.15	-35.2	-35.9	24.4	0.00e+00	0	41	0	633339904	44	5652
2026-01-19 02:24:54.01	160.14	12.24	-35.1	-35.8	24.5	0.00e+00	0	40	0	638582784	44	5581
2026-01-19 02:24:55.02	160.15	12.34	-35.0	-35.7	24.5	0.00e+00	0	40	0	644874240	44	5540
2026-01-19 02:24:56.03	160.16	12.44	-34.8	-35.5	24.6	0.00e+00	0	40	0	650117120	44	5418
2026-01-19 02:24:57.04	160.17	12.53	-34.8	-35.5	24.6	0.00e+00	0	40	0	656408576	44	5428
2026-01-19 02:24:58.05	160.19	12.63	-34.7	-35.4	24.7	0.00e+00	0	40	0	661651456	42	6012
2026-01-19 02:24:59.06	160.20	12.73	-34.8	-35.4	24.9	0.00e+00	0	40	0	666894336	42	6016
2026-01-19 02:25:00.07	160.21	12.83	-34.6	-35.3	24.9	0.00e+00	0	40	0	673185792	42	5939
2026-01-19 02:25:01.08	160.22	12.93	-34.7	-35.3	24.9	0.00e+00	0	40	0	678428672	42	5939
2026-01-19 02:25:02.09	160.24	13.03	-34.6	-35.2	25.0	0.00e+00	0	40	0	684720128	42	5864
2026-01-19 02:25:03.10	160.25	13.13	-34.5	-35.2	25.1	0.00e+00	0	40	0	689963008	42	5852
2026-01-19 02:25:04.11	160.26	13.23	-34.6	-35.2	25.0	0.00e+00	0	40	0	695205888	42	5871
2026-01-19 02:25:05.12	160.27	13.33	-34.5	-35.1	25.2	0.00e+00	0	40	0	701497344	42	5804
2026-01-19 02:25:06.13	160.29	13.43	-34.5	-35.2	25.1	0.00e+00	0	40	0	706740224	42	5843
2026-01-19 02:25:07.14	160.30	13.53	-34.3	-35.0	25.2	0.00e+00	0	40	0	713031680	42	5698
2026-01-19 02:25:08.15	160.31	13.63	-34.3	-35.0	25.2	0.00e+00	0	40	0	718274560	42	5717
2026-01-19 02:25:09.16	160.33	13.73	-34.2	-34.9	25.3	0.00e+00	0	40	0	723517440	42	5666
2026-01-19 02:25:10.17	160.34	13.84	-34.1	-34.8	25.4	0.00e+00	0	40	0	729808896	42	5589
2026-01-19 02:25:11.18	160.35	13.94	-34.3	-35.0	25.3	0.00e+00	0	40	0	735051776	42	5702
2026-01-19 02:25:12.19	160.37	14.04	-34.1	-34.7	25.4	0.00e+00	0	40	0	741343232	42	5556
2026-01-19 02:25:13.20	160.38	14.15	-34.1	-34.8	25.4	0.00e+00	0	41	0	746586112	42	5571
2026-01-19 02:25:14.21	160.39	14.25	-34.1	-34.8	25.5	0.00e+00	0	40	0	752877568	42	5580
2026-01-19 02:25:15.22	160.41	14.36	-34.1	-34.7	25.4	0.00e+00	0	41	0	758120448	42	5541
2026-01-19 02:25:16.23	160.42	14.46	-34.1	-34.8	25.5	0.00e+00	0	40	0	764411904	42	5584
2026-01-19 02:25:17.24	160.43	14.57	-34.0	-34.6	25.6	0.00e+00	0	40	0	769654784	42	5493
2026-01-19 02:25:18.25	160.45	14.68	-34.0	-34.6	25.6	0.00e+00	0	40	0	774897664	42	5478
2026-01-19 02:25:19.26	160.46	14.78	-33.9	-34.6	25.6	0.00e+00	0	40	0	781189120	42	5481
2026-01-19 02:25:20.27	160.48	14.89	-33.8	-34.5	25.7	0.00e+00	0	40	0	786432000	42	5383
2026-01-19 02:25:21.28	160.49	15.00	-34.1	-34.8	25.6	0.00e+00	0	40	0	792723456	42	5568
2026-01-19 02:25:22.29	160.50	15.11	-33.7	-34.3	25.8	0.00e+00	0	40	0	797966336	40	5959
2026-01-19 02:25:23.30	160.52	15.21	-33.8	-34.4	25.7	0.00e+00	0	40	0	803209216	40	6010
2026-01-19 02:25:24.31	160.53	15.32	-33.8	-34.5	25.7	0.00e+00	0	40	0	809500672	40	6075
2026-01-19 02:25:25.32	160.55	15.43	-33.7	-34.4	25.8	0.00e+00	0	40	0	814743552	40	5982
2026-01-19 02:25:26.33	160.56	15.54	-33.8	-34.5	25.8	0.00e+00	0	40	0	819986432	40	6044
2026-01-19 02:25:27.34	160.57	15.65	-33.6	-34.2	25.9	0.00e+00	0	40	0	826277888	40	5878
2026-01-19 02:25:28.35	160.59	15.77	-33.6	-34.2	25.8	0.00e+00	0	40	0	831520768	40	5893
2026-01-19 02:25:29.36	160.60	15.88	-33.6	-34.2	26.0	0.00e+00	0	40	0	837812224	40	5861
2026-01-19 02:25:30.37	160.62	15.99	-33.5	-34.2	25.9	0.00e+00	0	40	0	843055104	40	5849
2026-01-19 02:25:31.38	160.63	16.10	-33.6	-34.2	25.9	0.00e+00	0	40	0	849346560	40	5872
2026-01-19 02:25:32.39	160.65	16.22	-33.6	-34.2	25.9	0.00e+00	0	40	0	854589440	40	5891
2026-01-19 02:25:33.39	160.66	16.33	-33.6	-34.2	25.9	0.00e+00	0	40	0	860880896	40	5881
2026-01-19 02:25:34.41	160.68	16.44	-33.5	-34.2	26.0	0.00e+00	0	40	0	866123776	40	5841
2026-01-19 02:25:35.42	160.69	16.56	-33.5	-34.1	26.1	0.00e+00	0	40	0	871366656	40	5808
2026-01-19 02:25:36.42	160.71	16.67	-33.4	-34.0	26.1	0.00e+00	0	40	0	877658112	40	5738
2026-01-19 02:25:37.43	160.72	16.79	-33.5	-34.1	26.1	0.00e+00	0	40	0	882900992	40	5810
2026-01-19 02:25:38.44	160.74	16.91	-33.5	-34.1	26.0	0.00e+00	0	40	0	889192448	40	5816
2026-01-19 02:25:39.45	160.75	17.02	-33.5	-34.1	26.0	0.00e+00	0	41	0	894435328	40	5827
2026-01-19 02:25:40.46	160.77	17.14	-33.4	-34.1	26.2	0.00e+00	0	40	0	899678208	40	5768
2026-01-19 02:25:41.47	160.79	17.26	-33.6	-34.2	26.0	0.00e+00	0	40	0	905969664	40	5882
2026-01-19 02:25:42.48	160.80	17.38	-33.4	-34.1	26.1	0.00e+00	0	40	0	911212544	40	5762
2026-01-19 02:25:43.49	160.82	17.50	-33.4	-34.1	26.1	0.00e+00	0	40	0	917504000	40	5779
2026-01-19 02:25:44.50	160.83	17.62	-33.3	-34.0	26.2	0.00e+00	0	40	0	922746880	40	5698
2026-01-19 02:25:45.51	160.85	17.74	-33.4	-34.0	26.1	0.00e+00	0	40	0	927989760	40	5742
2026-01-19 02:25:46.52	160.87	17.86	-33.3	-34.0	26.1	0.00e+00	0	40	0	934281216	40	5697
2026-01-19 02:25:47.53	160.88	17.98	-33.4	-34.0	26.2	0.00e+00	0	40	0	939524096	40	5699
2026-01-19 02:25:48.54	160.90	18.10	-33.1	-33.8	26.4	0.00e+00	0	40	0	945815552	40	5583
2026-01-19 02:25:49.55	160.92	18.22	-33.1	-33.8	26.4	0.00e+00	0	40	0	951058432	40	5583
2026-01-19 02:25:50.56	160.93	18.35	-33.0	-33.6	26.6	0.00e+00	0	40	0	957349888	40	5465
2026-01-19 02:25:51.57	160.95	18.47	-33.0	-33.6	26.5	0.00e+00	0	40	0	962592768	40	5491
2026-01-19 02:25:52.58	160.97	18.60	-33.0	-33.6	26.5	0.00e+00	0	40	0	968884224	40	5502
2026-01-19 02:25:53.59	160.98	18.72	-32.9	-33.5	26.6	0.00e+00	0	40	0	974127104	40	5435
2026-01-19 02:25:54.60	161.00	18.85	-32.9	-33.5	26.6	0.00e+00	0	40	0	979369984	40	5420
2026-01-19 02:25:55.61	161.02	18.98	-32.9	-33.6	26.6	0.00e+00	0	40	0	985661440	40	5443
2026-01-19 02:25:56.62	161.03	19.10	-32.9	-33.5	26.6	0.00e+00	0	40	0	990904320	40	5434
2026-01-19 02:25:57.63	161.05	19.23	-32.8	-33.4	26.7	0.00e+00	0	41	0	997195776	40	5355
2026-01-19 02:25:58.64	161.07	19.36	-32.7	-33.3	26.8	0.00e+00	0	41	0	1002438656	38	5922
2026-01-19 02:25:59.65	161.09	19.49	-32.7	-33.3	26.8	0.00e+00	0	40	0	1007681536	38	5946
2026-01-19 02:26:00.67	161.10	19.62	-32.7	-33.3	26.8	0.00e+00	0	40	0	1013972992	38	5942
2026-01-19 02:26:01.68	161.12	19.75	-32.7	-33.3	26.8	0.00e+00	0	41	0	1019215872	38	5930
2026-01-19 02:26:02.69	161.14	19.88	-32.6	-33.2	26.9	0.00e+00	0	40	0	1025507328	38	5880
2026-01-19 02:26:03.70	161.16	20.02	-32.7	-33.3	26.8	0.00e+00	0	40	0	1030750208	38	5924
2026-01-19 02:26:04.71	161.18	20.15	-32.6	-33.2	26.9	0.00e+00	0	41	0	1035993088	38	5885
2026-01-19 02:26:05.72	161.19	20.28	-32.8	-33.4	26.8	0.00e+00	0	40	0	1042284544	38	6024
2026-01-19 02:26:06.73	161.21	20.42	-32.8	-33.4	26.8	0.00e+00	0	41	0	1047527424	38	6010
2026-01-19 02:26:07.74	161.23	20.55	-32.7	-33.4	26.8	0.00e+00	0	40	0	1053818880	38	5980
2026-01-19 02:26:08.75	161.25	20.69	-32.8	-33.5	26.7	0.00e+00	0	41	0	1059061760	38	6044
2026-01-19 02:26:09.76	161.27	20.82	-32.6	-33.2	26.9	0.00e+00	0	40	0	1065353216	38	5869
2026-01-19 02:26:10.77	161.29	20.96	-32.6	-33.2	27.0	0.00e+00	0	41	0	1070596096	38	5843
2026-01-19 02:26:11.78	161.31	21.10	-32.6	-33.2	26.9	0.00e+00	0	41	0	1076887552	38	5896
2026-01-19 02:26:12.79	161.33	21.24	-32.5	-33.1	27.0	0.00e+00	0	40	0	1082130432	38	5804
2026-01-19 02:26:13.80	161.35	21.38	-32.5	-33.2	27.0	0.00e+00	0	41	0	1087373312	38	5833
2026-01-19 02:26:14.81	161.37	21.52	-32.5	-33.2	26.9	0.00e+00	0	41	0	1093664768	38	5849
2026-01-19 02:26:15.82	161.39	21.66	-32.6	-33.2	27.0	0.00e+00	0	40	0	1098907648	38	5851
2026-01-19 02:26:16.83	161.41	21.80	-32.4	-33.1	27.1	0.00e+00	0	41	0	1105199104	38	5772
2026-01-19 02:26:17.84	161.43	21.94	-32.4	-33.0	27.1	0.00e+00	0	40	0	1110441984	38	5749
2026-01-19 02:26:18.85	161.45	22.09	-32.4	-33.1	27.0	0.00e+00	0	40	0	1115684864	38	5765
2026-01-19 02:26:19.86	161.47	22.23	-32.4	-33.0	27.1	0.00e+00	0	41	0	1121976320	38	5747
2026-01-19 02:26:20.87	161.49	22.37	-32.4	-33.0	27.1	0.00e+00	0	41	0	1127219200	38	5752
2026-01-19 02:26:21.88	161.51	22.52	-32.4	-33.0	27.2	0.00e+00	0	40	0	1133510656	38	5725
2026-01-19 02:26:22.89	161.53	22.67	-32.2	-32.9	27.3	0.00e+00	0	40	0	1138753536	38	5636
2026-01-19 02:26:23.90	161.55	22.82	-32.1	-32.7	27.4	0.00e+00	0	40	0	1143996416	38	5559
2026-01-19 02:26:24.91	161.57	22.96	-32.1	-32.8	27.3	0.00e+00	0	41	0	1150287872	38	5570
2026-01-19 02:26:25.92	161.59	23.11	-32.1	-32.7	27.4	0.00e+00	0	40	0	1155530752	38	5514
2026-01-19 02:26:26.93	161.61	23.26	-32.2	-32.8	27.3	0.00e+00	0	40	0	1161822208	38	5591
2026-01-19 02:26:27.94	161.63	23.41	-32.1	-32.8	27.3	0.00e+00	0	40	0	1167065088	38	5569
2026-01-19 02:26:28.95	161.66	23.57	-32.1	-32.7	27.3	0.00e+00	0	40	0	1173356544	38	5547
2026-01-19 02:26:29.96	161.68	23.72	-32.2	-32.8	27.3	0.00e+00	0	41	0	1178599424	38	5576
2026-01-19 02:26:30.97	161.70	23.87	-32.2	-32.8	27.3	0.00e+00	0	40	0	1183842304	38	5613
2026-01-19 02:26:31.98	161.72	24.03	-32.1	-32.7	27.4	0.00e+00	0	41	0	1190133760	38	5530
2026-01-19 02:26:33.00	161.75	24.18	-32.1	-32.7	27.4	0.00e+00	0	40	0	1195376640	38	5558
2026-01-19 02:26:34.01	161.77	24.34	-32.0	-32.6	27.4	0.00e+00	0	40	0	1201668096	38	5495
2026-01-19 02:26:35.02	161.79	24.50	-32.1	-32.7	27.4	0.00e+00	0	40	0	1206910976	38	5529
2026-01-19 02:26:36.03	161.81	24.66	-31.9	-32.5	27.6	0.00e+00	0	40	0	1212153856	38	5426
2026-01-19 02:26:37.04	161.84	24.82	-32.0	-32.6	27.5	0.00e+00	0	40	0	1218445312	38	5452
2026-01-19 02:26:38.05	161.86	24.98	-32.0	-32.6	27.6	0.00e+00	0	40	0	1223688192	38	5461
2026-01-19 02:26:39.06	161.89	25.14	-31.9	-32.5	27.5	0.00e+00	0	41	0	1229979648	38	5432
2026-01-19 02:26:40.07	161.91	25.30	-31.9	-32.5	27.6	0.00e+00	0	40	0	1235222528	38	5401
2026-01-19 02:26:41.08	161.93	25.46	-32.0	-32.7	27.5	0.00e+00	0	40	0	1241513984	38	5504
2026-01-19 02:26:42.09	161.96	25.63	-31.9	-32.5	27.5	0.00e+00	0	40	0	1246756864	38	5425
2026-01-19 02:26:43.10	161.98	25.79	-31.8	-32.4	27.5	0.00e+00	0	40	0	1251999744	38	5359
2026-01-19 02:26:44.11	162.01	25.96	-31.8	-32.4	27.6	0.00e+00	0	40	0	1258291200	38	5372
2026-01-19 02:26:45.12	162.03	26.13	-31.8	-32.5	27.6	0.00e+00	0	40	0	1263534080	38	5380
2026-01-19 02:26:46.13	162.06	26.29	-31.9	-32.5	27.6	0.00e+00	0	40	0	1269825536	38	5420
2026-01-19 02:26:47.14	162.08	26.46	-31.7	-32.3	27.7	0.00e+00	0	40	0	1275068416	38	5310
2026-01-19 02:26:48.15	162.11	26.63	-31.7	-32.3	27.6	0.00e+00	0	41	0	1281359872	36	5951
2026-01-19 02:26:49.16	162.14	26.81	-31.7	-32.3	27.7	0.00e+00	0	41	0	1286602752	36	5937
2026-01-19 02:26:50.17	162.16	26.98	-31.7	-32.3	27.8	0.00e+00	0	40	0	1291845632	36	5933
2026-01-19 02:26:51.18	162.19	27.15	-31.5	-32.1	27.8	0.00e+00	0	40	0	1298137088	36	5823
2026-01-19 02:26:52.19	162.21	27.33	-31.5	-32.1	27.9	0.00e+00	0	40	0	1303379968	36	5788
2026-01-19 02:26:53.20	162.24	27.50	-31.5	-32.1	27.8	0.00e+00	0	40	0	1309671424	36	5816
2026-01-19 02:26:54.21	162.27	27.68	-31.5	-32.1	27.9	0.00e+00	0	40	0	1314914304	36	5798
2026-01-19 02:26:55.21	162.30	27.86	-31.5	-32.1	27.9	0.00e+00	0	40	0	1320157184	36	5816
2026-01-19 02:26:56.22	162.32	28.04	-31.7	-32.3	27.8	0.00e+00	0	40	0	1326448640	36	5905
2026-01-19 02:26:57.23	162.35	28.22	-31.7	-32.3	27.8	0.00e+00	0	40	0	1331691520	36	5911
2026-01-19 02:26:58.24	162.38	28.40	-31.8	-32.5	27.6	0.00e+00	0	40	0	1337982976	36	6034
2026-01-19 02:26:59.25	162.41	28.58	-31.9	-32.5	27.6	0.00e+00	0	40	0	1343225856	36	6048
2026-01-19 02:27:00.26	162.44	28.76	-32.0	-32.6	27.6	0.00e+00	0	40	0	1348468736	36	6130
2026-01-19 02:27:01.27	162.47	28.95	-31.8	-32.4	27.7	0.00e+00	0	40	0	1354760192	36	6016
2026-01-19 02:27:02.28	162.50	29.14	-31.8	-32.4	27.7	0.00e+00	0	40	0	1360003072	36	6026
2026-01-19 02:27:03.29	162.53	29.32	-31.8	-32.4	27.6	0.00e+00	0	40	0	1366294528	36	5980
2026-01-19 02:27:04.30	162.56	29.51	-31.7	-32.3	27.7	0.00e+00	0	40	0	1371537408	36	5959
2026-01-19 02:27:05.31	162.59	29.70	-31.7	-32.3	27.7	0.00e+00	0	40	0	1377828864	36	5946
2026-01-19 02:27:06.32	162.62	29.90	-31.8	-32.4	27.7	0.00e+00	0	40	0	1383071744	36	5965
2026-01-19 02:27:07.33	162.65	30.09	-31.7	-32.3	27.8	0.00e+00	0	40	0	1389363200	36	5927
2026-01-19 02:27:08.34	162.68	30.28	-31.8	-32.4	27.7	0.00e+00	0	40	0	1394606080	36	6001
2026-01-19 02:27:09.35	162.71	30.48	-31.8	-32.4	27.8	0.00e+00	0	40	0	1399848960	36	5972
2026-01-19 02:27:10.36	162.74	30.67	-31.6	-32.2	27.9	0.00e+00	0	40	0	1406140416	36	5859
2026-01-19 02:27:11.38	162.78	30.88	-31.5	-32.1	27.9	0.00e+00	0	40	0	1411383296	36	5792
2026-01-19 02:27:12.39	162.81	31.07	-31.4	-32.0	28.0	0.00e+00	0	41	0	1417674752	36	5730
2026-01-19 02:27:13.40	162.84	31.28	-31.5	-32.0	28.0	0.00e+00	0	41	0	1422917632	36	5760
2026-01-19 02:27:14.41	162.88	31.48	-31.3	-31.9	28.1	0.00e+00	0	41	0	1428160512	36	5654
2026-01-19 02:27:15.42	162.91	31.68	-31.3	-31.9	28.0	0.00e+00	0	41	0	1434451968	36	5689
2026-01-19 02:27:16.43	162.94	31.89	-31.2	-31.9	28.1	0.00e+00	0	40	0	1439694848	36	5633
2026-01-19 02:27:17.44	162.98	32.09	-31.2	-31.8	28.1	0.00e+00	0	40	0	1445986304	36	5588
2026-01-19 02:27:18.45	163.01	32.30	-31.2	-31.8	28.2	0.00e+00	0	40	0	1451229184	36	5597
2026-01-19 02:27:19.46	163.05	32.51	-31.3	-31.9	28.1	0.00e+00	0	41	0	1456472064	36	5658
2026-01-19 02:27:20.47	163.08	32.72	-31.3	-31.9	27.9	0.00e+00	0	41	0	1462763520	36	5677
2026-01-19 02:27:21.48	163.12	32.93	-31.5	-32.2	27.9	0.00e+00	0	40	0	1468006400	36	5834
2026-01-19 02:27:22.50	163.16	33.15	-31.6	-32.2	27.9	0.00e+00	0	40	0	1474297856	36	5864
2026-01-19 02:27:23.50	163.19	33.36	-31.7	-32.4	27.8	0.00e+00	0	41	0	1479540736	36	5968
2026-01-19 02:27:24.51	163.23	33.58	-31.7	-32.4	27.8	0.00e+00	0	40	0	1485832192	36	5966
2026-01-19 02:27:25.52	163.27	33.80	-31.5	-32.2	28.0	0.00e+00	0	40	0	1491075072	36	5852
2026-01-19 02:27:26.54	163.31	34.02	-31.5	-32.1	27.9	0.00e+00	0	40	0	1497366528	36	5815
2026-01-19 02:27:27.55	163.35	34.24	-31.5	-32.1	27.9	0.00e+00	0	40	0	1502609408	36	5811
2026-01-19 02:27:28.56	163.39	34.46	-31.5	-32.1	27.9	0.00e+00	0	40	0	1507852288	36	5808
2026-01-19 02:27:29.57	163.43	34.69	-31.5	-32.1	28.0	0.00e+00	0	40	0	1514143744	36	5765
2026-01-19 02:27:30.58	163.47	34.92	-31.4	-32.0	28.0	0.00e+00	0	40	0	1519386624	36	5718
2026-01-19 02:27:31.59	163.51	35.14	-31.4	-32.0	28.0	0.00e+00	0	40	0	1525678080	36	5729
2026-01-19 02:27:32.60	163.55	35.37	-31.3	-31.9	28.1	0.00e+00	0	40	0	1530920960	36	5690
2026-01-19 02:27:33.61	163.59	35.60	-31.3	-31.9	28.1	0.00e+00	0	41	0	1536163840	36	5669
2026-01-19 02:27:34.62	163.64	35.84	-31.2	-31.8	28.2	0.00e+00	0	41	0	1542455296	36	5595
2026-01-19 02:27:35.63	163.68	36.07	-31.0	-31.6	28.3	0.00e+00	0	40	0	1547698176	36	5460
2026-01-19 02:27:36.64	163.72	36.31	-31.2	-31.8	28.2	0.00e+00	0	40	0	1553989632	36	5597
2026-01-19 02:27:37.65	163.77	36.55	-31.1	-31.7	28.3	0.00e+00	0	40	0	1559232512	36	5537
2026-01-19 02:27:38.65	163.81	36.78	-31.0	-31.6	28.4	0.00e+00	0	40	0	1564475392	36	5494
2026-01-19 02:27:39.67	163.86	37.03	-31.0	-31.6	28.3	0.00e+00	0	41	0	1570766848	36	5471
2026-01-19 02:27:40.67	163.90	37.27	-31.1	-31.7	28.3	0.00e+00	0	41	0	1576009728	36	5528
2026-01-19 02:27:41.69	163.95	37.52	-31.2	-31.8	28.2	0.00e+00	0	41	0	1582301184	36	5591
2026-01-19 02:27:42.69	164.00	37.76	-31.3	-31.9	28.2	0.00e+00	0	40	0	1587544064	36	5665
2026-01-19 02:27:43.70	164.05	38.01	-31.2	-31.8	28.2	0.00e+00	0	40	0	1593835520	36	5574
2026-01-19 02:27:44.71	164.09	38.26	-31.1	-31.7	28.2	0.00e+00	0	41	0	1599078400	36	5555
2026-01-19 02:27:45.72	164.14	38.51	-31.0	-31.7	28.3	0.00e+00	0	41	0	1604321280	36	5505
2026-01-19 02:27:46.74	164.19	38.77	-31.1	-31.7	28.3	0.00e+00	0	40	0	1610612736	36	5548
2026-01-19 02:27:47.74	164.24	39.02	-31.2	-31.8	28.2	0.00e+00	0	41	0	1615855616	36	5571
2026-01-19 02:27:48.75	164.30	39.28	-31.0	-31.6	28.4	0.00e+00	0	41	0	1622147072	36	5453
2026-01-19 02:27:49.76	164.35	39.54	-31.1	-31.7	28.3	0.00e+00	0	40	0	1627389952	36	5518
2026-01-19 02:27:50.78	164.40	39.80	-31.3	-31.9	28.2	0.00e+00	0	41	0	1632632832	36	5655
2026-01-19 02:27:51.79	164.46	40.07	-31.5	-32.1	27.9	0.00e+00	0	40	0	1638924288	36	5820
2026-01-19 02:27:52.79	164.51	40.33	-31.6	-32.1	27.9	0.00e+00	0	41	0	1644167168	36	5823
2026-01-19 02:27:53.80	164.57	40.60	-31.7	-32.4	27.8	0.00e+00	0	41	0	1650458624	36	5976
2026-01-19 02:27:54.82	164.62	40.87	-31.8	-32.5	27.7	0.00e+00	0	41	0	1655701504	36	6053
2026-01-19 02:27:55.83	164.68	41.14	-31.9	-32.5	27.7	0.00e+00	0	41	0	1660944384	36	6091
2026-01-19 02:27:56.84	164.74	41.42	-32.0	-32.6	27.7	0.00e+00	0	41	0	1667235840	36	6117
2026-01-19 02:27:57.85	164.80	41.69	-31.7	-32.3	27.8	0.00e+00	0	40	0	1672478720	36	5936
2026-01-19 02:27:58.86	164.86	41.97	-31.3	-31.9	28.1	0.00e+00	0	41	0	1678770176	36	5695
2026-01-19 02:27:59.87	164.92	42.25	-31.4	-32.0	28.1	0.00e+00	0	41	0	1684013056	36	5713
2026-01-19 02:28:00.88	164.98	42.53	-31.4	-32.0	28.0	0.00e+00	0	40	0	1690304512	36	5743
2026-01-19 02:28:01.89	165.05	42.82	-31.5	-32.1	28.0	0.00e+00	0	41	0	1695547392	36	5791
2026-01-19 02:28:02.90	165.11	43.10	-31.3	-31.9	28.0	0.00e+00	0	41	0	1701838848	36	5659
2026-01-19 02:28:03.91	165.18	43.39	-31.5	-32.1	28.0	0.00e+00	0	40	0	1707081728	36	5768
2026-01-19 02:28:04.92	165.24	43.68	-31.5	-32.1	28.0	0.00e+00	0	40	0	1712324608	36	5762
2026-01-19 02:28:05.93	165.31	43.97	-31.6	-32.2	27.9	0.00e+00	0	40	0	1718616064	36	5873
2026-01-19 02:28:06.94	165.38	44.27	-31.7	-32.3	27.8	0.00e+00	0	41	0	1723858944	36	5914
2026-01-19 02:28:07.95	165.45	44.57	-31.8	-32.4	27.7	0.00e+00	0	40	0	1730150400	36	5996
2026-01-19 02:28:08.96	165.52	44.87	-31.7	-32.4	27.8	0.00e+00	0	41	0	1735393280	36	5984
2026-01-19 02:28:09.97	165.59	45.17	-31.7	-32.4	27.8	0.00e+00	0	41	0	1740636160	36	5977
2026-01-19 02:28:10.98	165.67	45.47	-31.6	-32.2	27.9	0.00e+00	0	41	0	1746927616	36	5870
2026-01-19 02:28:11.99	165.74	45.78	-31.7	-32.3	27.8	0.00e+00	0	40	0	1752170496	36	5948
2026-01-19 02:28:13.00	165.82	46.09	-31.7	-32.3	27.7	0.00e+00	0	40	0	1758461952	36	5963
2026-01-19 02:28:14.01	165.90	46.40	-32.0	-32.6	27.7	0.00e+00	0	40	0	1763704832	36	6126
2026-01-19 02:28:15.02	165.98	46.71	-32.0	-32.6	27.6	0.00e+00	0	40	0	1768947712	36	6171
2026-01-19 02:28:16.03	166.06	47.02	-31.9	-32.5	27.6	0.00e+00	0	40	0	1775239168	36	6058
2026-01-19 02:28:17.04	166.14	47.34	-31.9	-32.5	27.7	0.00e+00	0	41	0	1780482048	36	6073
2026-01-19 02:28:18.05	166.23	47.66	-31.8	-32.4	27.8	0.00e+00	0	40	0	1786773504	36	6008
2026-01-19 02:28:19.05	166.31	47.98	-31.7	-32.3	27.8	0.00e+00	0	40	0	1792016384	36	5960
2026-01-19 02:28:20.07	166.40	48.31	-31.6	-32.3	27.9	0.00e+00	0	40	0	1798307840	36	5898
2026-01-19 02:28:21.08	166.49	48.64	-31.4	-32.1	28.0	0.00e+00	0	41	0	1803550720	36	5768
2026-01-19 02:28:22.09	166.58	48.96	-31.3	-31.9	28.1	0.00e+00	0	41	0	1809842176	36	5654
2026-01-19 02:28:23.10	166.68	49.30	-31.2	-31.8	28.2	0.00e+00	0	40	0	1815085056	36	5584
2026-01-19 02:28:24.11	166.77	49.63	-31.8	-32.4	27.7	0.00e+00	0	40	0	1820327936	36	5984
2026-01-19 02:28:25.12	166.87	49.97	-32.1	-32.8	27.4	0.00e+00	0	40	0	1826619392	36	6246
2026-01-19 02:28:26.13	166.97	50.31	-32.2	-32.8	27.4	0.00e+00	0	40	0	1831862272	36	6305
2026-01-19 02:28:27.14	167.07	50.65	-32.0	-32.6	27.7	0.00e+00	0	40	0	1838153728	36	6118
2026-01-19 02:28:28.15	167.17	50.99	-31.9	-32.5	27.7	0.00e+00	0	40	0	1843396608	36	6084
2026-01-19 02:28:29.16	167.28	51.34	-32.1	-32.7	27.5	0.00e+00	0	40	0	1848639488	36	6205
2026-01-19 02:28:30.17	167.39	51.69	-32.6	-33.2	27.2	0.00e+00	0	41	0	1854930944	36	6567
2026-01-19 02:28:31.18	167.50	52.04	-32.7	-33.3	27.0	0.00e+00	0	40	0	1860173824	38	5939
2026-01-19 02:28:32.18	167.61	52.39	-32.6	-33.2	27.1	0.00e+00	0	40	0	1866465280	38	5872
2026-01-19 02:28:33.19	167.73	52.74	-32.7	-33.3	27.0	0.00e+00	0	40	0	1871708160	38	5902
2026-01-19 02:28:34.20	167.85	53.10	-32.6	-33.2	27.1	0.00e+00	0	41	0	1876951040	38	5876
2026-01-19 02:28:35.22	167.97	53.47	-32.8	-33.5	26.9	0.00e+00	0	40	0	1883242496	38	6035
2026-01-19 02:28:36.22	168.10	53.83	-33.1	-33.7	26.7	0.00e+00	0	40	0	1888485376	38	6220
2026-01-19 02:28:37.23	168.22	54.19	-33.2	-33.8	26.6	0.00e+00	0	40	0	1894776832	38	6303
2026-01-19 02:28:38.25	168.36	54.56	-33.3	-33.9	26.6	0.00e+00	0	40	0	1900019712	38	6382
2026-01-19 02:28:39.26	168.49	54.94	-33.3	-33.9	26.6	0.00e+00	0	40	0	1906311168	38	6379
2026-01-19 02:28:40.27	168.63	55.31	-33.1	-33.8	26.6	0.00e+00	0	40	0	1911554048	38	6258
2026-01-19 02:28:41.28	168.77	55.68	-32.8	-33.4	27.0	0.00e+00	0	40	0	1916796928	38	5976
2026-01-19 02:28:42.29	168.92	56.06	-32.7	-33.3	27.0	0.00e+00	0	40	0	1923088384	38	5916
2026-01-19 02:28:43.30	169.07	56.44	-32.7	-33.3	27.0	0.00e+00	0	41	0	1928331264	38	5934
2026-01-19 02:28:44.31	169.22	56.83	-32.7	-33.3	27.1	0.00e+00	0	41	0	1934622720	38	5927
2026-01-19 02:28:45.32	169.38	57.21	-32.7	-33.3	27.0	0.00e+00	0	40	0	1939865600	38	5950
2026-01-19 02:28:46.33	169.54	57.60	-32.4	-33.0	27.3	0.00e+00	0	41	0	1945108480	38	5734
2026-01-19 02:28:47.34	169.71	57.99	-31.9	-32.5	27.6	0.00e+00	0	40	0	1951399936	38	5427
2026-01-19 02:28:48.35	169.88	58.38	-31.9	-32.5	27.6	0.00e+00	0	41	0	1956642816	38	5430
2026-01-19 02:28:49.36	170.06	58.78	-32.1	-32.7	27.4	0.00e+00	0	40	0	1962934272	38	5543
2026-01-19 02:28:50.37	170.24	59.18	-32.1	-32.7	27.5	0.00e+00	0	40	0	1968177152	38	5563
2026-01-19 02:28:51.38	170.43	59.58	-32.1	-32.8	27.5	0.00e+00	0	40	0	1974468608	38	5576
2026-01-19 02:28:52.39	170.62	59.98	-31.9	-32.5	27.6	0.00e+00	0	40	0	1979711488	38	5435
2026-01-19 02:28:53.40	170.82	60.38	-31.9	-32.6	27.6	0.00e+00	0	40	0	1984954368	38	5447
2026-01-19 02:28:54.41	171.03	60.79	-31.3	-31.9	28.0	0.00e+00	0	40	0	1991245824	36	5667
2026-01-19 02:28:55.42	171.24	61.20	-31.2	-31.8	28.0	0.00e+00	0	40	0	1996488704	36	5588
2026-01-19 02:28:56.43	171.46	61.61	-31.3	-31.9	28.0	0.00e+00	0	40	0	2002780160	36	5679
2026-01-19 02:28:57.44	171.68	62.02	-31.8	-32.5	27.5	0.00e+00	0	40	0	2008023040	36	6035
2026-01-19 02:28:58.45	171.92	62.44	-31.5	-32.1	27.9	0.00e+00	0	40	0	2014314496	36	5779
2026-01-19 02:28:59.46	172.16	62.86	-31.1	-31.7	28.2	0.00e+00	0	40	0	2019557376	36	5530
2026-01-19 02:29:00.47	172.41	63.28	-30.9	-31.5	28.4	0.00e+00	0	40	0	2024800256	36	5399
2026-01-19 02:29:01.48	172.67	63.70	-31.3	-31.9	28.1	0.00e+00	0	40	0	2031091712	36	5649
2026-01-19 02:29:02.49	172.94	64.12	-30.9	-31.5	28.5	0.00e+00	0	41	0	2036334592	36	5389
2026-01-19 02:29:03.50	173.22	64.55	-30.8	-31.4	28.5	0.00e+00	0	40	0	2042626048	34	5984
2026-01-19 02:29:04.51	173.51	64.97	-30.6	-31.2	28.6	0.00e+00	0	40	0	2047868928	34	5871
2026-01-19 02:29:05.52	173.81	65.40	-31.0	-31.6	28.3	0.00e+00	0	40	0	2053111808	34	6143
2026-01-19 02:29:06.53	174.12	65.84	-31.1	-31.8	28.2	0.00e+00	0	40	0	2059403264	34	6263
2026-01-19 02:29:07.54	174.44	66.27	-31.0	-31.6	28.4	0.00e+00	0	41	0	2064646144	34	6138
2026-01-19 02:29:08.55	174.78	66.70	-31.0	-31.6	28.4	0.00e+00	0	40	0	2070937600	34	6116
2026-01-19 02:29:09.56	175.13	67.14	-31.0	-31.6	28.3	0.00e+00	0	40	0	2076180480	34	6132
2026-01-19 02:29:10.58	175.50	67.58	-30.8	-31.4	28.5	0.00e+00	0	40	0	2081423360	34	5985
2026-01-19 02:29:11.59	175.89	68.02	-30.3	-30.9	28.8	0.00e+00	0	40	0	2087714816	34	5682
2026-01-19 02:29:12.60	176.29	68.46	-30.6	-31.2	28.7	0.00e+00	0	40	0	2092957696	34	5842
2026-01-19 02:29:13.61	176.70	68.90	-30.8	-31.5	28.5	0.00e+00	0	40	0	2099249152	34	6043
2026-01-19 02:29:14.62	177.14	69.34	-30.8	-31.5	28.4	0.00e+00	0	40	0	2104492032	34	6035
2026-01-19 02:29:15.63	177.60	69.79	-30.8	-31.4	28.5	0.00e+00	0	41	0	2110783488	34	5988
2026-01-19 02:29:16.64	178.08	70.23	-30.9	-31.5	28.4	0.00e+00	0	41	0	2116026368	34	6051
2026-01-19 02:29:17.65	178.58	70.67	-30.5	-31.1	28.6	0.00e+00	0	40	0	2122317824	34	5803
2026-01-19 02:29:18.66	179.10	71.12	-30.7	-31.3	28.5	0.00e+00	0	41	0	2127560704	34	5955
2026-01-19 02:29:19.67	179.66	71.57	-30.6	-31.2	28.7	0.00e+00	0	41	0	2132803584	34	5830
2026-01-19 02:29:20.68	180.24	72.01	-30.5	-31.0	28.7	0.00e+00	0	41	0	2139095040	34	5754
2026-01-19 02:29:21.69	180.85	72.46	-29.9	-30.5	29.1	0.00e+00	0	41	0	2144337920	34	5397
2026-01-19 02:29:22.70	181.50	72.90	-30.1	-30.6	29.0	0.00e+00	0	41	0	2150629376	34	5499
2026-01-19 02:29:23.71	182.19	73.35	-30.1	-30.7	28.9	0.00e+00	0	41	0	2155872256	34	5517
2026-01-19 02:29:24.72	182.91	73.79	-29.9	-30.5	29.1	0.00e+00	0	41	0	2161115136	34	5384
2026-01-19 02:29:25.73	183.67	74.24	-29.8	-30.4	29.2	0.00e+00	0	41	0	2167406592	34	5366
2026-01-19 02:29:26.74	184.48	74.68	-29.7	-30.3	29.2	0.00e+00	0	41	0	2172649472	32	5962
2026-01-19 02:29:27.75	185.34	75.12	-29.8	-30.4	29.1	0.00e+00	0	40	0	2178940928	32	6027
2026-01-19 02:29:28.76	186.26	75.56	-29.7	-30.3	29.2	0.00e+00	0	40	0	2184183808	32	5905
2026-01-19 02:29:29.77	187.23	76.00	-29.7	-30.2	29.2	0.00e+00	0	40	0	2189426688	32	5877
2026-01-19 02:29:30.78	188.27	76.43	-29.6	-30.2	29.3	0.00e+00	0	41	0	2195718144	32	5858
2026-01-19 02:29:31.79	189.38	76.86	-29.3	-29.9	29.5	0.00e+00	0	41	0	2200961024	32	5652
2026-01-19 02:29:32.80	190.57	77.29	-29.5	-30.1	29.4	0.00e+00	0	40	0	2207252480	32	5812
2026-01-19 02:29:33.81	191.84	77.71	-29.4	-30.0	29.4	0.00e+00	0	41	0	2212495360	32	5730
2026-01-19 02:29:34.82	193.20	78.12	-29.0	-29.6	29.5	0.00e+00	0	40	0	2218786816	32	5475
2026-01-19 02:29:35.83	194.66	78.54	-28.7	-29.2	29.7	0.00e+00	0	40	0	2224029696	32	5246
2026-01-19 02:29:36.84	196.23	78.94	-28.9	-29.5	29.7	0.00e+00	0	41	0	2230321152	30	6073
2026-01-19 02:29:37.85	197.92	79.34	-29.1	-29.7	29.7	0.00e+00	0	40	0	2235564032	30	6206
2026-01-19 02:29:38.86	199.74	79.72	-28.6	-29.2	29.9	0.00e+00	0	40	0	2240806912	30	5843
2026-01-19 02:29:39.87	201.71	80.10	-28.5	-29.1	30.1	0.00e+00	0	40	0	2247098368	30	5796
2026-01-19 02:29:40.88	203.83	80.47	-28.7	-29.3	29.9	0.00e+00	0	41	0	2252341248	30	5908
2026-01-19 02:29:41.89	206.12	80.82	-28.8	-29.4	29.8	0.00e+00	0	40	0	2258632704	30	6023
2026-01-19 02:29:42.90	208.59	81.16	-29.0	-29.6	29.7	0.00e+00	0	40	0	2263875584	30	6158
2026-01-19 02:29:43.91	211.26	81.48	-29.0	-29.6	29.7	0.00e+00	0	40	0	2269118464	30	6129
2026-01-19 02:29:44.92	214.12	81.78	-28.9	-29.4	29.8	0.00e+00	0	40	0	2275409920	30	6033
2026-01-19 02:29:45.93	217.20	82.06	-28.7	-29.2	30.0	0.00e+00	0	41	0	2280652800	30	5851
2026-01-19 02:29:46.94	220.50	82.31	-28.8	-29.4	29.7	0.00e+00	0	40	0	2286944256	30	5982
2026-01-19 02:29:47.95	224.01	82.54	-28.7	-29.3	29.9	0.00e+00	0	40	0	2292187136	30	5940
2026-01-19 02:29:48.96	227.73	82.74	-28.7	-29.2	29.9	0.00e+00	0	40	0	2297430016	30	5886
2026-01-19 02:29:49.98	231.69	82.91	-28.9	-29.5	29.6	0.00e+00	0	40	0	2303721472	30	6051
2026-01-19 02:29:50.99	235.78	83.04	-29.0	-29.6	29.6	0.00e+00	0	41	0	2308964352	30	6110
2026-01-19 02:29:52.00	240.01	83.14	-29.1	-29.7	29.6	0.00e+00	0	40	0	2315255808	30	6192
2026-01-19 02:29:53.01	244.33	83.20	-29.2	-29.7	29.5	0.00e+00	0	41	0	2320498688	30	6242
2026-01-19 02:29:54.02	248.71	83.22	-28.8	-29.4	29.7	0.00e+00	0	40	0	2326790144	30	6013
2026-01-19 02:29:55.03	253.09	83.20	-28.7	-29.3	29.8	0.00e+00	0	40	0	2332033024	30	5925
2026-01-19 02:29:56.04	257.42	83.14	-28.7	-29.3	29.8	0.00e+00	0	40	0	2338324480	30	5930
2026-01-19 02:29:57.05	261.65	83.05	-28.8	-29.4	29.7	0.00e+00	0	40	0	2343567360	30	6018
2026-01-19 02:29:58.06	265.74	82.92	-28.6	-29.1	29.8	0.00e+00	0	40	0	2348810240	30	5828
2026-01-19 02:29:59.06	269.63	82.75	-28.6	-29.2	29.7	0.00e+00	0	40	0	2355101696	30	5842
2026-01-19 02:30:00.07	273.36	82.55	-28.8	-29.3	29.8	0.00e+00	0	40	0	2360344576	30	5936
2026-01-19 02:30:01.08	276.89	82.33	-28.7	-29.2	29.9	0.00e+00	0	40	0	2366636032	30	5879
2026-01-19 02:30:02.09	280.19	82.07	-28.6	-29.2	29.9	0.00e+00	0	40	0	2371878912	30	5836
2026-01-19 02:30:03.10	283.28	81.79	-28.6	-29.2	29.9	0.00e+00	0	40	0	2377121792	30	5864
2026-01-19 02:30:04.11	286.16	81.49	-28.7	-29.3	30.0	0.00e+00	0	40	0	2383413248	30	5901
2026-01-19 02:30:05.13	288.86	81.17	-28.8	-29.4	29.7	0.00e+00	0	40	0	2388656128	30	5987
2026-01-19 02:30:06.14	291.34	80.83	-28.8	-29.3	29.6	0.00e+00	0	40	0	2394947584	30	5959
2026-01-19 02:30:07.15	293.63	80.48	-28.6	-29.2	29.9	0.00e+00	0	41	0	2400190464	30	5857
2026-01-19 02:30:08.16	295.76	80.12	-28.9	-29.5	29.7	0.00e+00	0	40	0	2405433344	30	6042
2026-01-19 02:30:09.17	297.73	79.74	-29.0	-29.6	29.6	0.00e+00	0	40	0	2411724800	30	6131
2026-01-19 02:30:10.18	299.56	79.36	-28.8	-29.3	29.8	0.00e+00	0	40	0	2416967680	30	5910
2026-01-19 02:30:11.19	301.26	78.96	-29.2	-29.9	29.4	0.00e+00	0	40	0	2423259136	30	6340
2026-01-19 02:30:12.19	302.82	78.56	-29.5	-30.1	29.2	0.00e+00	0	40	0	2428502016	30	6524
2026-01-19 02:30:13.20	304.29	78.15	-29.4	-30.1	29.4	0.00e+00	0	40	0	2434793472	30	6496
2026-01-19 02:30:14.21	305.65	77.73	-29.5	-30.1	29.3	0.00e+00	0	40	0	2440036352	30	6492
2026-01-19 02:30:15.22	306.93	77.31	-29.5	-30.1	29.3	0.00e+00	0	41	0	2445279232	30	6495
2026-01-19 02:30:16.24	308.13	76.88	-29.4	-30.0	29.4	0.00e+00	0	40	0	2451570688	30	6419
2026-01-19 02:30:17.24	309.23	76.46	-29.6	-30.3	29.3	0.00e+00	0	40	0	2456813568	30	6617
2026-01-19 02:30:18.25	310.27	76.02	-29.8	-30.4	29.1	0.00e+00	0	40	0	2463105024	32	5966
2026-01-19 02:30:19.26	311.25	75.59	-29.8	-30.5	29.1	0.00e+00	0	40	0	2468347904	32	6058
2026-01-19 02:30:20.27	312.16	75.15	-29.8	-30.4	29.2	0.00e+00	0	40	0	2473590784	32	6005
2026-01-19 02:30:21.28	313.03	74.71	-30.2	-30.8	28.8	0.00e+00	0	40	0	2479882240	32	6315
2026-01-19 02:30:22.29	313.84	74.27	-30.2	-30.8	28.8	0.00e+00	0	40	0	2485125120	32	6259
2026-01-19 02:30:23.30	314.61	73.83	-30.1	-30.7	28.9	0.00e+00	0	40	0	2491416576	32	6217
2026-01-19 02:30:24.31	315.33	73.38	-30.3	-30.9	28.8	0.00e+00	0	40	0	2496659456	32	6368
2026-01-19 02:30:25.32	316.02	72.94	-30.5	-31.2	28.7	0.00e+00	0	40	0	2501902336	32	6557
2026-01-19 02:30:26.33	316.67	72.49	-30.1	-30.7	28.9	0.00e+00	0	40	0	2508193792	32	6184
2026-01-19 02:30:27.34	317.28	72.05	-30.2	-30.8	28.8	0.00e+00	0	40	0	2513436672	32	6271
2026-01-19 02:30:28.35	317.87	71.60	-30.3	-30.9	28.9	0.00e+00	0	40	0	2519728128	32	6332
2026-01-19 02:30:29.36	318.42	71.16	-30.1	-30.7	28.9	0.00e+00	0	40	0	2524971008	32	6200
2026-01-19 02:30:30.37	318.95	70.71	-30.1	-30.7	28.8	0.00e+00	0	40	0	2531262464	32	6205
2026-01-19 02:30:31.38	319.45	70.27	-30.4	-31.1	28.6	0.00e+00	0	40	0	2536505344	32	6504
2026-01-19 02:30:32.39	319.93	69.83	-30.5	-31.1	28.6	0.00e+00	0	40	0	2542796800	32	6500
2026-01-19 02:30:33.40	320.39	69.38	-30.5	-31.2	28.6	0.00e+00	0	40	0	2548039680	32	6545
2026-01-19 02:30:34.41	320.83	68.94	-30.8	-31.3	28.4	0.00e+00	0	40	0	2553282560	32	6677
2026-01-19 02:30:35.42	321.25	68.50	-30.9	-31.6	28.3	0.00e+00	0	40	0	2559574016	34	6139
2026-01-19 02:30:36.44	321.65	68.06	-30.6	-31.1	28.5	0.00e+00	0	40	0	2564816896	34	5807
2026-01-19 02:30:37.45	322.03	67.62	-30.6	-31.1	28.5	0.00e+00	0	40	0	2571108352	34	5814
2026-01-19 02:30:38.46	322.40	67.18	-30.7	-31.2	28.5	0.00e+00	0	40	0	2576351232	34	5880
2026-01-19 02:30:39.47	322.75	66.75	-30.7	-31.3	28.5	0.00e+00	0	40	0	2581594112	34	5953
2026-01-19 02:30:40.48	323.09	66.31	-30.5	-31.0	28.7	0.00e+00	0	40	0	2587885568	34	5723
2026-01-19 02:30:41.49	323.42	65.88	-30.3	-30.9	28.8	0.00e+00	0	40	0	2593128448	34	5632
2026-01-19 02:30:42.50	323.73	65.45	-30.5	-31.0	28.6	0.00e+00	0	40	0	2599419904	34	5750
2026-01-19 02:30:43.50	324.03	65.03	-30.9	-31.4	28.4	0.00e+00	0	40	0	2604662784	34	6013
2026-01-19 02:30:44.51	324.32	64.60	-31.0	-31.6	28.3	0.00e+00	0	40	0	2609905664	34	6121
2026-01-19 02:30:45.53	324.60	64.17	-31.1	-31.7	28.2	0.00e+00	0	40	0	2616197120	34	6189
2026-01-19 02:30:46.54	324.87	63.75	-31.2	-31.9	28.2	0.00e+00	0	40	0	2621440000	34	6327
2026-01-19 02:30:47.55	325.13	63.33	-31.3	-31.9	28.1	0.00e+00	0	40	0	2627731456	34	6389
2026-01-19 02:30:48.56	325.38	62.91	-31.5	-32.2	27.9	0.00e+00	0	40	0	2632974336	34	6544
2026-01-19 02:30:49.57	325.63	62.49	-31.5	-32.1	27.9	0.00e+00	0	41	0	2639265792	34	6475
2026-01-19 02:30:50.58	325.86	62.08	-31.4	-32.0	28.1	0.00e+00	0	40	0	2644508672	34	6441
2026-01-19 02:30:51.59	326.09	61.66	-31.1	-31.7	28.3	0.00e+00	0	40	0	2650800128	34	6212
2026-01-19 02:30:52.59	326.31	61.26	-31.2	-31.8	28.0	0.00e+00	0	40	0	2656043008	34	6248
2026-01-19 02:30:53.60	326.52	60.85	-31.4	-32.1	28.0	0.00e+00	0	40	0	2661285888	34	6507
2026-01-19 02:30:54.61	326.72	60.44	-31.3	-31.9	28.1	0.00e+00	0	40	0	2667577344	34	6357
2026-01-19 02:30:55.62	326.92	60.04	-31.1	-31.7	28.2	0.00e+00	0	40	0	2672820224	34	6226
2026-01-19 02:30:56.63	327.12	59.64	-31.2	-31.8	28.1	0.00e+00	0	40	0	2679111680	34	6250
2026-01-19 02:30:57.64	327.31	59.24	-31.5	-32.1	27.9	0.00e+00	0	40	0	2684354560	34	6467
2026-01-19 02:30:58.65	327.49	58.84	-31.8	-32.5	27.7	0.00e+00	0	40	0	2689597440	36	6088
2026-01-19 02:30:59.66	327.67	58.45	-32.1	-32.6	27.5	0.00e+00	0	40	0	2695888896	36	6156
2026-01-19 02:31:00.67	327.84	58.06	-32.3	-33.0	27.4	0.00e+00	0	40	0	2701131776	36	6400
2026-01-19 02:31:01.68	328.01	57.67	-32.1	-32.7	27.5	0.00e+00	0	40	0	2706374656	36	6214
2026-01-19 02:31:02.68	328.17	57.28	-32.1	-32.6	27.5	0.00e+00	0	40	0	2712666112	36	6139
2026-01-19 02:31:03.70	328.33	56.89	-32.0	-32.5	27.4	0.00e+00	0	40	0	2717908992	36	6093
2026-01-19 02:31:04.71	328.48	56.51	-32.4	-33.0	27.1	0.00e+00	0	40	0	2724200448	36	6394
2026-01-19 02:31:05.72	328.63	56.13	-32.7	-33.3	26.9	0.00e+00	0	40	0	2729443328	36	6659
2026-01-19 02:31:06.73	328.78	55.75	-32.8	-33.5	26.8	0.00e+00	0	40	0	2735734784	38	6060
2026-01-19 02:31:07.74	328.92	55.38	-32.6	-33.2	27.0	0.00e+00	0	40	0	2740977664	38	5847
2026-01-19 02:31:08.75	329.06	55.01	-32.4	-33.0	26.9	0.00e+00	0	40	0	2747269120	38	5708
2026-01-19 02:31:09.76	329.19	54.64	-32.3	-33.0	27.2	0.00e+00	0	40	0	2752512000	38	5712
2026-01-19 02:31:10.77	329.32	54.27	-32.4	-33.0	27.2	0.00e+00	0	41	0	2757754880	38	5730
2026-01-19 02:31:11.78	329.45	53.90	-32.5	-33.1	27.2	0.00e+00	0	40	0	2764046336	38	5805
2026-01-19 02:31:12.79	329.58	53.54	-32.6	-33.2	27.0	0.00e+00	0	41	0	2769289216	38	5830
2026-01-19 02:31:13.80	329.70	53.18	-32.6	-33.1	27.1	0.00e+00	0	40	0	2775580672	38	5815
2026-01-19 02:31:14.81	329.82	52.82	-32.7	-33.4	27.0	0.00e+00	0	41	0	2780823552	38	6023
2026-01-19 02:31:15.82	329.94	52.47	-32.8	-33.4	26.9	0.00e+00	0	41	0	2786066432	38	6009
2026-01-19 02:31:16.83	330.05	52.12	-32.7	-33.4	27.1	0.00e+00	0	40	0	2792357888	38	6010
2026-01-19 02:31:17.84	330.16	51.77	-32.5	-33.2	27.2	0.00e+00	0	40	0	2797600768	38	5852
2026-01-19 02:31:18.85	330.27	51.42	-32.4	-33.1	27.3	0.00e+00	0	40	0	2803892224	38	5767
2026-01-19 02:31:19.86	330.38	51.07	-32.0	-32.6	27.6	0.00e+00	0	41	0	2809135104	38	5447
2026-01-19 02:31:20.87	330.48	50.73	-31.7	-32.4	27.9	0.00e+00	0	40	0	2814377984	36	5984
2026-01-19 02:31:21.88	330.59	50.39	-31.8	-32.5	27.8	0.00e+00	0	41	0	2820669440	36	6051
2026-01-19 02:31:22.89	330.69	50.05	-32.0	-32.6	27.5	0.00e+00	0	41	0	2825912320	36	6105
2026-01-19 02:31:23.91	330.78	49.71	-32.0	-32.6	27.6	0.00e+00	0	40	0	2832203776	36	6147
2026-01-19 02:31:24.91	330.88	49.38	-32.0	-32.7	27.5	0.00e+00	0	40	0	2837446656	36	6241
2026-01-19 02:31:25.92	330.97	49.05	-31.9	-32.6	27.6	0.00e+00	0	40	0	2843738112	36	6136
2026-01-19 02:31:26.93	331.07	48.72	-32.0	-32.5	27.6	0.00e+00	0	40	0	2848980992	36	6096
2026-01-19 02:31:27.94	331.16	48.39	-31.7	-32.2	27.8	0.00e+00	0	40	0	2855272448	36	5890
2026-01-19 02:31:28.95	331.24	48.07	-31.6	-32.3	27.8	0.00e+00	0	41	0	2860515328	36	5936
2026-01-19 02:31:29.96	331.33	47.75	-31.6	-32.1	27.8	0.00e+00	0	40	0	2865758208	36	5807
2026-01-19 02:31:30.98	331.42	47.43	-31.5	-32.0	27.9	0.00e+00	0	40	0	2872049664	36	5750
2026-01-19 02:31:31.99	331.50	47.11	-31.5	-32.2	28.0	0.00e+00	0	41	0	2877292544	36	5838
2026-01-19 02:31:33.00	331.58	46.80	-31.6	-32.2	27.9	0.00e+00	0	40	0	2883584000	36	5854
2026-01-19 02:31:34.01	331.66	46.48	-31.6	-32.2	27.9	0.00e+00	0	40	0	2888826880	36	5843
2026-01-19 02:31:35.01	331.74	46.18	-31.5	-32.2	27.8	0.00e+00	0	40	0	2894069760	36	5865
2026-01-19 02:31:36.03	331.82	45.87	-31.5	-32.0	28.0	0.00e+00	0	41	0	2900361216	36	5730
2026-01-19 02:31:37.04	331.89	45.56	-31.4	-31.9	28.0	0.00e+00	0	40	0	2905604096	36	5672
2026-01-19 02:31:38.05	331.97	45.26	-31.4	-32.1	28.0	0.00e+00	0	40	0	2911895552	36	5777
2026-01-19 02:31:39.06	332.04	44.96	-31.3	-31.8	28.2	0.00e+00	0	41	0	2917138432	36	5599
2026-01-19 02:31:40.07	332.11	44.66	-31.2	-31.7	28.2	0.00e+00	0	40	0	2922381312	36	5529
2026-01-19 02:31:41.08	332.18	44.36	-31.2	-31.8	28.2	0.00e+00	0	40	0	2928672768	36	5571
2026-01-19 02:31:42.09	332.25	44.07	-31.3	-31.8	28.1	0.00e+00	0	41	0	2933915648	36	5613
2026-01-19 02:31:43.10	332.32	43.78	-31.2	-31.7	28.1	0.00e+00	0	40	0	2940207104	36	5564
2026-01-19 02:31:44.11	332.39	43.49	-31.2	-31.9	28.2	0.00e+00	0	40	0	2945449984	36	5684
2026-01-19 02:31:45.12	332.45	43.20	-31.3	-31.8	28.0	0.00e+00	0	41	0	2951741440	36	5624
2026-01-19 02:31:46.13	332.52	42.91	-31.3	-32.0	28.1	0.00e+00	0	41	0	2956984320	36	5698
2026-01-19 02:31:47.14	332.58	42.63	-31.4	-31.9	28.0	0.00e+00	0	40	0	2963275776	36	5690
2026-01-19 02:31:48.15	332.64	42.35	-31.4	-31.9	28.1	0.00e+00	0	40	0	2968518656	36	5675
2026-01-19 02:31:49.16	332.70	42.07	-31.5	-32.0	28.0	0.00e+00	0	41	0	2973761536	36	5754
2026-01-19 02:31:50.17	332.77	41.79	-31.4	-31.9	28.1	0.00e+00	0	40	0	2980052992	36	5662
2026-01-19 02:31:51.18	332.83	41.52	-31.4	-32.1	28.0	0.00e+00	0	41	0	2985295872	36	5784
2026-01-19 02:31:52.19	332.88	41.24	-31.3	-31.9	28.1	0.00e+00	0	40	0	2991587328	36	5695
2026-01-19 02:31:53.20	332.94	40.97	-31.3	-32.0	28.1	0.00e+00	0	40	0	2996830208	36	5702
2026-01-19 02:31:54.21	333.00	40.70	-31.2	-31.7	28.2	0.00e+00	0	40	0	3002073088	36	5539
2026-01-19 02:31:55.22	333.05	40.44	-31.2	-31.7	28.1	0.00e+00	0	40	0	3008364544	36	5535
2026-01-19 02:31:56.23	333.11	40.17	-31.1	-31.7	28.2	0.00e+00	0	40	0	3013607424	36	5516
2026-01-19 02:31:57.24	333.16	39.91	-31.3	-31.8	28.1	0.00e+00	0	40	0	3019898880	36	5596
2026-01-19 02:31:58.25	333.22	39.65	-31.3	-31.9	28.1	0.00e+00	0	40	0	3025141760	36	5666
2026-01-19 02:31:59.26	333.27	39.39	-31.1	-31.8	28.1	0.00e+00	0	40	0	3030384640	36	5609
2026-01-19 02:32:00.27	333.32	39.13	-31.0	-31.6	28.3	0.00e+00	0	40	0	3036676096	36	5451
2026-01-19 02:32:01.28	333.37	38.87	-31.1	-31.6	28.2	0.00e+00	0	40	0	3041918976	36	5488
2026-01-19 02:32:02.29	333.42	38.62	-31.0	-31.5	28.3	0.00e+00	0	40	0	3048210432	36	5413
2026-01-19 02:32:03.30	333.47	38.37	-31.1	-31.8	28.2	0.00e+00	0	40	0	3053453312	36	5599
2026-01-19 02:32:04.30	333.52	38.12	-31.0	-31.7	28.3	0.00e+00	0	40	0	3059744768	36	5508
2026-01-19 02:32:05.31	333.57	37.87	-31.0	-31.5	28.3	0.00e+00	0	40	0	3064987648	36	5421
2026-01-19 02:32:06.32	333.62	37.63	-30.9	-31.4	28.4	0.00e+00	0	40	0	3070230528	36	5375
2026-01-19 02:32:07.33	333.67	37.38	-30.6	-31.1	28.6	0.00e+00	0	40	0	3076521984	34	5809
2026-01-19 02:32:08.34	333.71	37.14	-30.8	-31.3	28.4	0.00e+00	0	40	0	3081764864	34	5921
2026-01-19 02:32:09.35	333.76	36.90	-30.7	-31.2	28.5	0.00e+00	0	40	0	3088056320	34	5872
2026-01-19 02:32:10.37	333.80	36.66	-30.8	-31.3	28.5	0.00e+00	0	40	0	3093299200	34	5924
2026-01-19 02:32:11.38	333.85	36.42	-30.9	-31.6	28.3	0.00e+00	0	40	0	3098542080	34	6155
2026-01-19 02:32:12.39	333.89	36.18	-31.0	-31.7	28.3	0.00e+00	0	40	0	3104833536	34	6187
2026-01-19 02:32:13.40	333.94	35.95	-31.2	-31.7	28.1	0.00e+00	0	40	0	3110076416	34	6236
2026-01-19 02:32:14.41	333.98	35.72	-31.3	-31.8	28.1	0.00e+00	0	40	0	3116367872	34	6302
2026-01-19 02:32:15.42	334.02	35.49	-31.4	-32.0	27.9	0.00e+00	0	40	0	3121610752	34	6433
2026-01-19 02:32:16.43	334.06	35.26	-31.5	-32.1	27.9	0.00e+00	0	41	0	3126853632	34	6504
2026-01-19 02:32:17.44	334.11	35.03	-31.4	-32.0	27.8	0.00e+00	0	40	0	3133145088	34	6402
2026-01-19 02:32:18.45	334.15	34.80	-31.5	-32.1	27.9	0.00e+00	0	40	0	3138387968	34	6493
2026-01-19 02:32:19.46	334.19	34.58	-31.5	-32.2	27.9	0.00e+00	0	40	0	3144679424	34	6569
2026-01-19 02:32:20.47	334.23	34.36	-31.3	-31.8	28.1	0.00e+00	0	40	0	3149922304	34	6306
2026-01-19 02:32:21.48	334.27	34.14	-31.2	-31.7	28.2	0.00e+00	0	40	0	3156213760	34	6203
2026-01-19 02:32:22.49	334.30	33.92	-30.9	-31.5	28.4	0.00e+00	0	41	0	3161456640	34	6042
2026-01-19 02:32:23.50	334.34	33.70	-31.1	-31.6	28.2	0.00e+00	0	41	0	3167748096	34	6170
2026-01-19 02:32:24.51	334.38	33.48	-31.0	-31.5	28.3	0.00e+00	0	40	0	3172990976	34	6044
2026-01-19 02:32:25.52	334.42	33.27	-31.0	-31.7	28.2	0.00e+00	0	40	0	3178233856	34	6205
2026-01-19 02:32:26.53	334.46	33.05	-31.0	-31.7	28.3	0.00e+00	0	41	0	3184525312	34	6180
2026-01-19 02:32:27.54	334.49	32.84	-31.1	-31.7	28.2	0.00e+00	0	41	0	3189768192	34	6190
2026-01-19 02:32:28.56	334.53	32.63	-31.3	-31.9	28.1	0.00e+00	0	40	0	3196059648	34	6331
2026-01-19 02:32:29.56	334.56	32.42	-31.4	-32.0	28.0	0.00e+00	0	40	0	3201302528	34	6447
2026-01-19 02:32:30.57	334.60	32.22	-31.4	-32.1	27.9	0.00e+00	0	40	0	3206545408	34	6500
2026-01-19 02:32:31.58	334.63	32.01	-31.4	-32.1	27.9	0.00e+00	0	40	0	3212836864	34	6509
2026-01-19 02:32:32.60	334.67	31.80	-31.4	-32.0	27.9	0.00e+00	0	40	0	3218079744	34	6404
2026-01-19 02:32:33.61	334.70	31.60	-31.5	-32.1	27.9	0.00e+00	0	41	0	3224371200	34	6491
2026-01-19 02:32:34.62	334.74	31.40	-31.5	-32.2	27.9	0.00e+00	0	40	0	3229614080	34	6568
2026-01-19 02:32:35.63	334.77	31.20	-31.6	-32.3	27.7	0.00e+00	0	40	0	3234856960	34	6658
2026-01-19 02:32:36.64	334.80	31.00	-31.7	-32.4	27.6	0.00e+00	0	40	0	3241148416	34	6749
2026-01-19 02:32:37.65	334.84	30.80	-31.8	-32.3	27.6	0.00e+00	0	40	0	3246391296	36	5948
2026-01-19 02:32:38.66	334.87	30.60	-31.8	-32.4	27.7	0.00e+00	0	40	0	3252682752	36	5969
2026-01-19 02:32:39.67	334.90	30.41	-31.7	-32.4	27.8	0.00e+00	0	40	0	3257925632	36	6001
2026-01-19 02:32:40.68	334.93	30.22	-31.8	-32.3	27.7	0.00e+00	0	40	0	3264217088	36	5937
2026-01-19 02:32:41.69	334.97	30.02	-31.6	-32.3	27.8	0.00e+00	0	40	0	3269459968	36	5907
2026-01-19 02:32:42.70	335.00	29.83	-31.6	-32.3	27.7	0.00e+00	0	40	0	3275751424	36	5934
2026-01-19 02:32:43.71	335.03	29.64	-31.6	-32.1	27.8	0.00e+00	0	40	0	3280994304	36	5815
2026-01-19 02:32:44.72	335.06	29.45	-31.6	-32.1	27.9	0.00e+00	0	40	0	3286237184	36	5814
2026-01-19 02:32:45.73	335.09	29.27	-31.7	-32.3	27.7	0.00e+00	0	40	0	3292528640	36	5920
2026-01-19 02:32:46.74	335.12	29.08	-31.6	-32.2	27.9	0.00e+00	0	41	0	3297771520	36	5835
2026-01-19 02:32:47.75	335.15	28.90	-31.6	-32.3	27.8	0.00e+00	0	41	0	3304062976	36	5917
2026-01-19 02:32:48.76	335.18	28.71	-31.6	-32.2	27.8	0.00e+00	0	40	0	3309305856	36	5889
2026-01-19 02:32:49.77	335.21	28.53	-31.6	-32.2	27.8	0.00e+00	0	41	0	3314548736	36	5894
2026-01-19 02:32:50.78	335.23	28.35	-31.7	-32.4	27.7	0.00e+00	0	40	0	3320840192	36	6006
2026-01-19 02:32:51.79	335.26	28.17	-31.5	-32.1	27.9	0.00e+00	0	40	0	3326083072	36	5784
2026-01-19 02:32:52.80	335.29	27.99	-31.6	-32.2	27.8	0.00e+00	0	40	0	3332374528	36	5857
2026-01-19 02:32:53.81	335.32	27.81	-31.7	-32.4	27.7	0.00e+00	0	41	0	3337617408	36	5978
2026-01-19 02:32:54.82	335.35	27.63	-31.5	-32.1	27.9	0.00e+00	0	41	0	3342860288	36	5767
2026-01-19 02:32:55.83	335.37	27.46	-31.4	-32.1	28.0	0.00e+00	0	40	0	3349151744	36	5791
2026-01-19 02:32:56.84	335.40	27.28	-31.4	-32.1	27.9	0.00e+00	0	40	0	3354394624	36	5785
2026-01-19 02:32:57.85	335.43	27.11	-31.4	-32.1	27.8	0.00e+00	0	40	0	3360686080	36	5779
2026-01-19 02:32:58.86	335.45	26.94	-31.6	-32.2	27.8	0.00e+00	0	40	0	3365928960	36	5889
2026-01-19 02:32:59.87	335.48	26.77	-31.4	-32.1	27.9	0.00e+00	0	40	0	3372220416	36	5796
2026-01-19 02:33:00.88	335.51	26.60	-31.4	-31.9	27.9	0.00e+00	0	40	0	3377463296	36	5666
2026-01-19 02:33:01.89	335.53	26.43	-31.4	-31.9	27.9	0.00e+00	0	40	0	3383754752	36	5686
2026-01-19 02:33:02.90	335.56	26.26	-31.5	-32.0	27.8	0.00e+00	0	41	0	3388997632	36	5754
2026-01-19 02:33:03.91	335.58	26.09	-31.5	-32.0	27.9	0.00e+00	0	41	0	3394240512	36	5717
2026-01-19 02:33:04.92	335.61	25.93	-31.5	-32.0	27.9	0.00e+00	0	41	0	3400531968	36	5715
2026-01-19 02:33:05.94	335.64	25.76	-31.7	-32.2	27.8	0.00e+00	0	40	0	3405774848	36	5851
2026-01-19 02:33:06.95	335.66	25.60	-31.7	-32.2	27.8	0.00e+00	0	40	0	3412066304	36	5843
2026-01-19 02:33:07.96	335.68	25.43	-31.8	-32.3	27.6	0.00e+00	0	40	0	3417309184	36	5959
2026-01-19 02:33:08.97	335.71	25.27	-32.0	-32.5	27.5	0.00e+00	0	40	0	3422552064	36	6074
2026-01-19 02:33:09.98	335.73	25.11	-31.8	-32.4	27.6	0.00e+00	0	41	0	3428843520	36	5996
2026-01-19 02:33:10.99	335.76	24.95	-32.0	-32.5	27.5	0.00e+00	0	40	0	3434086400	36	6090
2026-01-19 02:33:12.00	335.78	24.79	-32.0	-32.6	27.5	0.00e+00	0	40	0	3440377856	36	6111
2026-01-19 02:33:13.01	335.80	24.63	-32.1	-32.7	27.3	0.00e+00	0	41	0	3445620736	36	6197
2026-01-19 02:33:14.02	335.83	24.48	-32.2	-32.8	27.3	0.00e+00	0	40	0	3450863616	36	6257
2026-01-19 02:33:15.03	335.85	24.32	-32.2	-32.7	27.3	0.00e+00	0	40	0	3457155072	36	6237
2026-01-19 02:33:16.03	335.87	24.17	-32.2	-32.7	27.3	0.00e+00	0	40	0	3462397952	36	6243
2026-01-19 02:33:17.04	335.90	24.01	-32.4	-32.9	27.2	0.00e+00	0	40	0	3468689408	36	6375
2026-01-19 02:33:18.05	335.92	23.86	-32.4	-33.0	27.1	0.00e+00	0	40	0	3473932288	36	6413
2026-01-19 02:33:19.06	335.94	23.71	-32.4	-33.0	27.2	0.00e+00	0	40	0	3480223744	36	6417
2026-01-19 02:33:20.07	335.96	23.55	-32.4	-33.0	27.1	0.00e+00	0	40	0	3485466624	36	6418
2026-01-19 02:33:21.08	335.99	23.40	-32.3	-32.9	27.1	0.00e+00	0	40	0	3491758080	36	6357
2026-01-19 02:33:22.09	336.01	23.25	-32.6	-33.2	26.9	0.00e+00	0	40	0	3497000960	36	6552
2026-01-19 02:33:23.10	336.03	23.11	-32.5	-33.1	27.0	0.00e+00	0	40	0	3502243840	38	5803
2026-01-19 02:33:24.11	336.05	22.96	-32.4	-33.0	27.1	0.00e+00	0	41	0	3508535296	38	5723
2026-01-19 02:33:25.12	336.07	22.81	-32.6	-33.3	27.0	0.00e+00	0	41	0	3513778176	38	5919
2026-01-19 02:33:26.13	336.10	22.66	-32.5	-33.2	27.0	0.00e+00	0	41	0	3520069632	38	5885
2026-01-19 02:33:27.14	336.12	22.52	-32.5	-33.3	26.9	0.00e+00	0	41	0	3525312512	38	5903
2026-01-19 02:33:28.15	336.14	22.37	-32.7	-33.4	26.9	0.00e+00	0	41	0	3530555392	38	5982
2026-01-19 02:33:29.16	336.16	22.23	-32.6	-33.3	26.9	0.00e+00	0	41	0	3536846848	38	5926
2026-01-19 02:33:30.17	336.18	22.09	-32.5	-33.2	27.0	0.00e+00	0	41	0	3542089728	38	5856
2026-01-19 02:33:31.18	336.20	21.94	-32.5	-33.2	26.9	0.00e+00	0	41	0	3548381184	38	5891
2026-01-19 02:33:32.19	336.22	21.80	-32.7	-33.2	26.9	0.00e+00	0	40	0	3553624064	38	5875
2026-01-19 02:33:33.20	336.24	21.66	-32.6	-33.2	26.9	0.00e+00	0	40	0	3558866944	38	5860
2026-01-19 02:33:34.21	336.26	21.52	-32.6	-33.4	26.9	0.00e+00	0	40	0	3565158400	38	5966
2026-01-19 02:33:35.23	336.28	21.38	-32.8	-33.5	26.7	0.00e+00	0	40	0	3570401280	38	6069
2026-01-19 02:33:36.23	336.30	21.24	-32.6	-33.2	26.9	0.00e+00	0	40	0	3576692736	38	5829
2026-01-19 02:33:37.24	336.32	21.11	-32.6	-33.2	26.8	0.00e+00	0	41	0	3581935616	38	5871
2026-01-19 02:33:38.25	336.34	20.97	-32.8	-33.4	26.7	0.00e+00	0	40	0	3588227072	38	5972
2026-01-19 02:33:39.27	336.36	20.83	-32.7	-33.3	26.8	0.00e+00	0	40	0	3593469952	38	5932
2026-01-19 02:33:40.27	336.38	20.70	-32.7	-33.4	26.8	0.00e+00	0	40	0	3598712832	38	6030
2026-01-19 02:33:41.28	336.40	20.56	-32.7	-33.4	26.8	0.00e+00	0	40	0	3605004288	38	5988
2026-01-19 02:33:42.29	336.42	20.43	-32.8	-33.5	26.7	0.00e+00	0	40	0	3610247168	38	6055
