passes_logs/2026/01/19/R4.6S_Anadyr/R4.6S_Anadyr__20260119_030251_AQUA_rec.log

#Pass ID: 20260119_030251_AQUA
#Satellite: AQUA
#Configuration: AQUA
#almurnet v.1.7.20251203
#Start time: 2026-01-19 03:02:52

#Version: 2.2.20231116
#Station: R4.6S_Anadyr
#Location: 177.4865 lon 64.73178 lat
#TLE: 1 27424U 02022A   26018.67315038  .00000896  00000+0  18931-3 0  9992
#TLE: 2 27424  98.4088 345.1622 0002002  73.7601  98.9671 14.61828261261423

#Time	Az	El	Level	Level2	SNR	BER	BlckErr	Temp	State	Recorded	gain1	gain2
2026-01-19 03:02:52.52	185.44	0.06	-50.1	-61.8	3.5	8.45e-01	0	38	0	0	60	44351
2026-01-19 03:02:53.52	185.48	0.12	-50.4	-68.4	3.5	3.02e+01	0	39	104	0	60	101777
2026-01-19 03:02:54.54	185.52	0.18	-50.6	-68.5	3.5	3.02e+01	0	39	104	0	60	102173
2026-01-19 03:02:55.55	185.56	0.24	-50.5	-68.4	3.5	3.02e+01	0	39	104	0	60	101586
2026-01-19 03:02:56.56	185.61	0.30	-50.6	-68.5	3.5	3.02e+01	0	39	104	0	60	102051
2026-01-19 03:02:57.57	185.65	0.36	-50.5	-68.4	3.5	3.02e+01	0	39	104	0	60	101589
2026-01-19 03:02:58.58	185.69	0.42	-50.6	-68.5	3.5	3.02e+01	0	39	104	0	60	101987
2026-01-19 03:02:59.59	185.73	0.48	-50.6	-68.5	3.5	3.02e+01	0	39	104	0	60	102718
2026-01-19 03:03:00.60	185.78	0.54	-50.6	-68.5	3.5	3.02e+01	0	39	104	0	60	102811
2026-01-19 03:03:01.60	185.82	0.60	-50.6	-68.5	3.5	3.02e+01	0	39	104	0	60	101877
2026-01-19 03:03:02.61	185.86	0.66	-50.6	-68.5	3.5	3.02e+01	0	39	104	0	60	102111
2026-01-19 03:03:03.62	185.91	0.73	-50.6	-68.4	3.5	3.02e+01	0	39	104	0	60	101496
2026-01-19 03:03:04.63	185.95	0.79	-50.6	-68.5	3.5	3.02e+01	0	39	104	0	60	101934
2026-01-19 03:03:05.64	185.99	0.85	-50.6	-68.4	3.5	3.02e+01	0	39	104	0	60	101807
2026-01-19 03:03:06.65	186.04	0.91	-50.6	-68.5	3.5	3.02e+01	0	39	104	0	60	101830
2026-01-19 03:03:07.66	186.08	0.97	-50.5	-68.5	3.5	3.02e+01	0	39	104	0	60	101923
2026-01-19 03:03:08.67	186.13	1.03	-50.4	-68.3	3.5	3.02e+01	0	39	104	0	60	100422
2026-01-19 03:03:09.68	186.17	1.10	-50.3	-68.2	3.5	3.02e+01	0	39	104	0	60	99036
2026-01-19 03:03:10.69	186.22	1.16	-50.2	-68.1	3.5	3.02e+01	0	39	104	0	60	97600
2026-01-19 03:03:11.70	186.26	1.22	-50.0	-67.9	3.5	3.02e+01	0	39	104	0	60	95560
2026-01-19 03:03:12.71	186.31	1.28	-49.7	-67.7	3.5	3.02e+01	0	39	104	0	60	92928
2026-01-19 03:03:13.72	186.35	1.34	-49.4	-67.0	3.5	3.02e+01	0	39	104	0	60	86423
2026-01-19 03:03:14.72	186.40	1.41	-49.1	-66.8	3.5	3.02e+01	0	39	104	0	60	84589
2026-01-19 03:03:15.73	186.44	1.47	-49.1	-66.9	3.5	3.02e+01	0	39	104	0	60	84703
2026-01-19 03:03:16.74	186.49	1.53	-49.1	-66.8	3.5	3.02e+01	0	39	104	0	60	84526
2026-01-19 03:03:17.75	186.54	1.60	-49.1	-66.9	3.5	3.02e+01	0	40	104	0	60	85218
2026-01-19 03:03:18.76	186.58	1.66	-49.1	-66.8	3.5	3.02e+01	0	39	104	0	60	84295
2026-01-19 03:03:19.77	186.63	1.72	-49.1	-66.9	3.5	3.02e+01	0	39	104	0	60	84948
2026-01-19 03:03:20.78	186.68	1.79	-49.1	-67.0	3.5	3.02e+01	0	39	104	0	60	85705
2026-01-19 03:03:21.79	186.72	1.85	-49.1	-66.8	3.5	3.02e+01	0	39	104	0	60	84201
2026-01-19 03:03:22.80	186.77	1.91	-49.1	-66.6	3.5	3.02e+01	0	39	104	0	60	82528
2026-01-19 03:03:23.81	186.82	1.98	-49.1	-66.5	3.5	3.02e+01	0	40	104	0	60	81216
2026-01-19 03:03:24.82	186.87	2.04	-49.1	-66.5	3.5	3.02e+01	0	40	104	0	60	80931
2026-01-19 03:03:25.83	186.92	2.11	-49.1	-66.4	3.5	3.02e+01	0	40	104	0	60	80143
2026-01-19 03:03:26.84	186.96	2.17	-49.1	-66.6	3.5	3.02e+01	0	40	104	0	60	82267
2026-01-19 03:03:27.85	187.01	2.23	-49.1	-66.8	3.5	3.02e+01	0	39	104	0	60	84459
2026-01-19 03:03:28.86	187.06	2.30	-49.1	-66.8	3.5	3.02e+01	0	40	104	0	60	83832
2026-01-19 03:03:29.87	187.11	2.36	-49.1	-66.4	3.5	3.02e+01	0	40	104	0	60	80325
2026-01-19 03:03:30.88	187.16	2.43	-49.1	-65.6	3.5	3.02e+01	0	40	104	0	60	73394
2026-01-19 03:03:31.89	187.21	2.49	-49.0	-65.0	3.5	3.02e+01	0	39	104	0	60	68171
2026-01-19 03:03:32.90	187.26	2.56	-49.0	-64.9	3.5	3.02e+01	0	40	104	0	60	67313
2026-01-19 03:03:33.91	187.31	2.62	-49.0	-65.4	3.5	3.02e+01	0	39	104	0	60	71511
2026-01-19 03:03:34.92	187.36	2.69	-49.1	-65.7	3.5	3.02e+01	0	39	104	0	60	74190
2026-01-19 03:03:35.93	187.41	2.76	-49.0	-65.5	3.5	3.02e+01	0	40	104	0	60	72643
2026-01-19 03:03:36.94	187.46	2.82	-49.0	-64.9	3.7	3.02e+01	0	40	104	0	60	67759
2026-01-19 03:03:37.95	187.51	2.89	-49.0	-63.4	3.6	3.02e+01	0	40	104	0	60	57247
2026-01-19 03:03:38.96	187.56	2.95	-48.9	-62.9	4.3	3.02e+01	0	40	104	0	60	53484
2026-01-19 03:03:39.97	187.61	3.02	-48.9	-62.0	3.8	3.02e+01	0	40	104	0	60	48256
2026-01-19 03:03:40.98	187.66	3.09	-48.8	-60.4	5.7	3.02e+01	0	40	0	0	60	40278
2026-01-19 03:03:41.99	187.71	3.15	-48.5	-57.0	9.2	3.02e+01	92	40	0	1572864	60	27337
2026-01-19 03:03:43.00	187.77	3.22	-47.8	-54.2	12.6	3.02e+01	92	40	0	3670016	60	19837
2026-01-19 03:03:44.01	187.82	3.29	-46.6	-51.0	15.5	3.02e+01	92	40	0	5242880	60	13578
2026-01-19 03:03:45.01	187.87	3.35	-44.8	-47.7	19.1	3.02e+01	92	40	0	7340032	60	9325
2026-01-19 03:03:46.03	187.92	3.42	-43.6	-46.0	20.7	3.02e+01	86	40	0	8912896	60	7678
2026-01-19 03:03:47.04	187.97	3.49	-42.8	-45.0	21.5	3.02e+01	92	40	0	11010048	60	6835
2026-01-19 03:03:48.05	188.03	3.56	-42.1	-44.1	22.3	3.02e+01	92	40	0	13107200	58	6919
2026-01-19 03:03:49.06	188.08	3.63	-41.5	-43.4	23.0	3.02e+01	90	40	0	14680064	58	6355
2026-01-19 03:03:50.07	188.13	3.69	-42.6	-44.7	21.6	3.02e+01	92	40	0	16777216	58	7449
2026-01-19 03:03:51.08	188.19	3.76	-42.9	-45.0	21.4	3.02e+01	91	40	0	18874368	58	7705
2026-01-19 03:03:52.09	188.24	3.83	-45.8	-49.2	17.4	3.02e+01	90	40	0	20447232	60	11117
2026-01-19 03:03:53.10	188.30	3.90	-48.0	-55.5	8.7	3.02e+01	92	40	0	22544384	60	22884
2026-01-19 03:03:54.11	188.35	3.97	-48.7	-60.8	5.7	3.02e+01	36	40	104	22544384	60	42008
2026-01-19 03:03:55.12	188.41	4.04	-42.0	-44.1	21.1	3.02e+01	90	40	104	22544384	56	7802
2026-01-19 03:03:56.13	188.46	4.11	-40.3	-41.9	24.8	3.02e+01	92	40	0	23592960	56	5997
2026-01-19 03:03:57.14	188.52	4.17	-39.9	-41.5	25.0	3.02e+01	90	40	0	25690112	54	6431
2026-01-19 03:03:58.15	188.57	4.24	-40.6	-42.2	24.4	3.02e+01	92	40	0	27262976	54	7001
2026-01-19 03:03:59.16	188.63	4.31	-39.9	-41.5	25.1	3.02e+01	90	40	0	29360128	54	6446
2026-01-19 03:04:00.17	188.68	4.38	-40.0	-41.5	25.0	3.02e+01	92	40	0	30932992	54	6485
2026-01-19 03:04:01.18	188.74	4.45	-40.3	-41.8	25.0	3.02e+01	88	40	0	33030144	54	6709
2026-01-19 03:04:02.19	188.80	4.52	-40.7	-42.3	24.4	3.02e+01	90	40	0	35127296	54	7070
2026-01-19 03:04:03.20	188.86	4.59	-40.5	-42.1	24.6	3.02e+01	92	40	0	36700160	54	6892
2026-01-19 03:04:04.21	188.91	4.66	-40.2	-41.8	25.0	3.02e+01	92	40	0	38797312	54	6655
2026-01-19 03:04:05.22	188.97	4.74	-40.7	-42.3	24.3	3.02e+01	89	40	0	40370176	54	7086
2026-01-19 03:04:06.23	189.03	4.81	-40.4	-42.0	24.8	3.02e+01	91	40	0	42467328	54	6833
2026-01-19 03:04:07.24	189.09	4.88	-40.5	-42.1	24.9	3.02e+01	92	40	0	44564480	54	6917
2026-01-19 03:04:08.25	189.14	4.95	-40.6	-42.3	24.3	3.02e+01	92	40	0	46137344	54	7054
2026-01-19 03:04:09.26	189.20	5.02	-40.7	-42.3	24.5	3.02e+01	92	40	0	48234496	54	7075
2026-01-19 03:04:10.27	189.26	5.09	-40.8	-42.4	24.5	3.02e+01	92	40	0	49807360	56	6406
2026-01-19 03:04:11.27	189.32	5.16	-40.5	-42.1	24.6	3.02e+01	92	40	0	51904512	56	6190
2026-01-19 03:04:12.28	189.38	5.24	-40.8	-42.4	24.8	3.02e+01	92	40	0	54001664	56	6391
2026-01-19 03:04:13.29	189.44	5.31	-40.7	-42.3	24.7	3.02e+01	91	40	0	55574528	56	6296
2026-01-19 03:04:14.31	189.50	5.38	-40.1	-41.6	25.2	3.02e+01	92	40	0	57671680	56	5821
2026-01-19 03:04:15.31	189.56	5.45	-39.7	-41.2	25.6	3.02e+01	90	40	0	59244544	54	6274
2026-01-19 03:04:16.32	189.62	5.53	-39.7	-41.2	25.6	3.02e+01	91	40	0	61341696	54	6219
2026-01-19 03:04:17.34	189.68	5.60	-39.6	-41.0	25.7	3.02e+01	91	40	0	63438848	54	6128
2026-01-19 03:04:18.34	189.75	5.67	-39.5	-41.0	25.7	3.02e+01	91	40	0	65011712	54	6105
2026-01-19 03:04:19.35	189.81	5.75	-39.5	-41.0	25.8	3.02e+01	92	40	0	67108864	54	6093
2026-01-19 03:04:20.36	189.87	5.82	-39.7	-41.2	25.7	3.02e+01	91	40	0	68681728	54	6229
2026-01-19 03:04:21.37	189.93	5.89	-39.5	-41.0	25.8	3.02e+01	92	40	0	70778880	54	6070
2026-01-19 03:04:22.38	189.99	5.97	-39.5	-41.0	25.9	3.02e+01	92	40	0	72876032	54	6069
2026-01-19 03:04:23.39	190.06	6.04	-39.4	-40.8	26.0	3.02e+01	90	40	0	74448896	54	5978
2026-01-19 03:04:24.40	190.12	6.12	-39.4	-40.8	25.9	3.02e+01	89	40	0	76546048	54	5993
2026-01-19 03:04:25.41	190.19	6.19	-39.4	-40.9	25.9	3.02e+01	90	40	0	78643200	54	6030
2026-01-19 03:04:26.42	190.25	6.27	-39.5	-41.0	25.9	3.02e+01	92	40	0	80216064	54	6069
2026-01-19 03:04:27.43	190.31	6.34	-39.3	-40.8	26.1	3.02e+01	90	40	0	82313216	54	5945
2026-01-19 03:04:28.44	190.38	6.42	-39.5	-40.9	25.9	3.02e+01	92	40	0	83886080	54	6054
2026-01-19 03:04:29.45	190.44	6.49	-39.4	-40.8	26.0	3.02e+01	92	40	0	85983232	54	5955
2026-01-19 03:04:30.45	190.51	6.57	-39.3	-40.8	26.1	3.02e+01	92	40	0	88080384	54	5931
2026-01-19 03:04:31.46	190.57	6.64	-39.4	-40.8	26.0	3.02e+01	92	40	0	89653248	54	5969
2026-01-19 03:04:32.47	190.64	6.72	-39.4	-40.9	26.0	3.02e+01	90	40	0	91750400	54	6020
2026-01-19 03:04:33.48	190.71	6.80	-39.4	-40.8	26.1	3.02e+01	92	40	0	93847552	54	5971
2026-01-19 03:04:34.49	190.77	6.87	-39.2	-40.6	26.3	3.02e+01	90	40	0	95420416	54	5815
2026-01-19 03:04:35.50	190.84	6.95	-39.3	-40.7	26.2	3.02e+01	92	40	0	97517568	54	5924
2026-01-19 03:04:36.51	190.91	7.03	-39.3	-40.8	26.1	3.02e+01	90	40	0	99090432	54	5934
2026-01-19 03:04:37.53	190.98	7.10	-39.4	-40.9	26.1	3.02e+01	92	40	0	101187584	54	6004
2026-01-19 03:04:38.54	191.05	7.18	-39.3	-40.7	26.1	3.02e+01	92	40	0	103284736	54	5897
2026-01-19 03:04:39.54	191.11	7.26	-39.1	-40.6	26.4	3.02e+01	92	40	0	104857600	54	5793
2026-01-19 03:04:40.55	191.18	7.34	-39.1	-40.5	26.3	3.02e+01	90	40	0	106954752	54	5781
2026-01-19 03:04:41.56	191.25	7.42	-39.1	-40.5	26.5	3.02e+01	92	40	0	108527616	54	5739
2026-01-19 03:04:42.57	191.32	7.49	-39.1	-40.5	26.4	3.02e+01	92	40	0	110624768	54	5777
2026-01-19 03:04:43.58	191.39	7.57	-38.9	-40.3	26.7	3.02e+01	91	40	0	112197632	52	6314
2026-01-19 03:04:44.59	191.46	7.65	-38.9	-40.3	26.7	3.02e+01	92	40	0	114294784	52	6295
2026-01-19 03:04:45.60	191.54	7.73	-38.9	-40.3	26.7	3.02e+01	92	40	0	116391936	52	6323
2026-01-19 03:04:46.61	191.61	7.81	-38.9	-40.3	26.7	3.02e+01	92	40	0	117964800	52	6328
2026-01-19 03:04:47.62	191.68	7.89	-39.0	-40.4	26.6	3.02e+01	92	40	0	120061952	52	6381
2026-01-19 03:04:48.63	191.75	7.97	-38.9	-40.3	26.8	3.02e+01	91	40	0	122159104	52	6281
2026-01-19 03:04:49.64	191.82	8.05	-38.9	-40.3	26.8	3.02e+01	91	40	0	123731968	52	6295
2026-01-19 03:04:50.65	191.90	8.13	-39.1	-40.5	26.7	3.02e+01	92	40	0	125829120	52	6444
2026-01-19 03:04:51.66	191.97	8.21	-39.1	-40.5	26.6	3.02e+01	92	40	0	127401984	52	6429
2026-01-19 03:04:52.67	192.05	8.29	-38.9	-40.3	26.7	3.02e+01	91	40	0	129499136	52	6285
2026-01-19 03:04:53.68	192.12	8.37	-38.8	-40.2	26.8	3.02e+01	91	40	0	131596288	52	6238
2026-01-19 03:04:54.69	192.19	8.46	-38.9	-40.2	26.8	3.02e+01	92	40	0	133169152	52	6275
2026-01-19 03:04:55.70	192.27	8.54	-38.9	-40.3	26.7	3.02e+01	92	40	0	135266304	52	6315
2026-01-19 03:04:56.71	192.35	8.62	-38.7	-40.1	26.9	3.02e+01	90	40	0	136839168	52	6171
2026-01-19 03:04:57.72	192.42	8.70	-38.9	-40.2	26.8	3.02e+01	91	40	0	138936320	52	6257
2026-01-19 03:04:58.72	192.50	8.78	-38.6	-40.0	27.1	3.02e+01	91	40	0	141033472	52	6091
2026-01-19 03:04:59.73	192.57	8.87	-38.7	-40.1	27.0	3.02e+01	90	40	0	142606336	52	6167
2026-01-19 03:05:00.74	192.65	8.95	-38.9	-40.3	26.8	3.02e+01	92	40	0	144703488	52	6311
2026-01-19 03:05:01.75	192.73	9.03	-38.5	-39.9	27.2	3.02e+01	92	40	0	146800640	52	5995
2026-01-19 03:05:02.76	192.81	9.12	-38.6	-40.0	27.1	3.02e+01	92	40	0	148373504	52	6065
2026-01-19 03:05:03.77	192.89	9.20	-38.5	-39.9	27.2	3.02e+01	92	40	0	150470656	52	6009
2026-01-19 03:05:04.78	192.97	9.29	-38.6	-39.9	27.1	3.02e+01	92	40	0	152043520	52	6054
2026-01-19 03:05:05.79	193.05	9.37	-38.6	-39.9	27.1	3.02e+01	91	40	0	154140672	52	6047
2026-01-19 03:05:06.80	193.13	9.45	-38.5	-39.8	27.3	3.02e+01	91	40	0	156237824	52	5967
2026-01-19 03:05:07.82	193.21	9.54	-38.6	-39.9	27.1	3.02e+01	92	40	0	157810688	52	6055
2026-01-19 03:05:08.82	193.29	9.62	-38.8	-40.2	27.0	3.02e+01	91	40	0	159907840	52	6232
2026-01-19 03:05:09.83	193.37	9.71	-38.6	-40.0	27.1	3.02e+01	92	40	0	162004992	52	6084
2026-01-19 03:05:10.84	193.45	9.80	-38.4	-39.7	27.4	3.02e+01	92	40	0	163577856	52	5897
2026-01-19 03:05:11.85	193.54	9.88	-38.6	-39.9	27.2	3.02e+01	92	40	0	165675008	52	6035
2026-01-19 03:05:12.86	193.62	9.97	-38.7	-40.0	27.2	3.02e+01	92	40	0	167247872	52	6101
2026-01-19 03:05:13.87	193.70	10.06	-38.5	-39.9	27.3	3.02e+01	89	40	0	169345024	52	6015
2026-01-19 03:05:14.88	193.79	10.14	-38.6	-39.9	27.2	3.02e+01	92	40	0	171442176	52	6058
2026-01-19 03:05:15.89	193.87	10.23	-38.4	-39.7	27.4	3.02e+01	92	40	0	173015040	52	5900
2026-01-19 03:05:16.90	193.96	10.32	-38.3	-39.7	27.4	3.02e+01	92	40	0	175112192	52	5868
2026-01-19 03:05:17.91	194.04	10.41	-38.4	-39.7	27.4	3.02e+01	92	40	0	176685056	52	5925
2026-01-19 03:05:18.92	194.13	10.49	-38.5	-39.8	27.3	3.02e+01	92	40	0	178782208	52	5944
2026-01-19 03:05:19.93	194.22	10.58	-38.4	-39.7	27.4	3.02e+01	92	40	0	180879360	52	5924
2026-01-19 03:05:20.94	194.30	10.67	-38.4	-39.7	27.5	3.02e+01	92	40	0	182452224	52	5885
2026-01-19 03:05:21.95	194.39	10.76	-38.3	-39.6	27.5	3.02e+01	92	40	0	184549376	52	5808
2026-01-19 03:05:22.97	194.48	10.85	-38.3	-39.6	27.5	3.02e+01	92	40	0	186122240	52	5825
2026-01-19 03:05:23.97	194.57	10.94	-38.3	-39.6	27.5	3.02e+01	90	40	0	188219392	52	5804
2026-01-19 03:05:24.99	194.66	11.03	-38.3	-39.6	27.5	3.02e+01	90	40	0	190316544	52	5816
2026-01-19 03:05:25.99	194.75	11.12	-38.2	-39.5	27.6	3.02e+01	92	40	0	191889408	52	5779
2026-01-19 03:05:27.00	194.84	11.21	-38.3	-39.6	27.7	3.02e+01	92	40	0	193986560	52	5799
2026-01-19 03:05:28.01	194.93	11.30	-38.2	-39.5	27.6	3.02e+01	91	40	0	195559424	52	5738
2026-01-19 03:05:29.02	195.02	11.39	-38.2	-39.5	27.7	3.02e+01	92	40	0	197656576	52	5753
2026-01-19 03:05:30.03	195.12	11.48	-38.3	-39.6	27.6	3.02e+01	92	40	0	199753728	52	5831
2026-01-19 03:05:31.04	195.21	11.58	-38.3	-39.7	27.5	3.02e+01	90	40	0	201326592	52	5864
2026-01-19 03:05:32.05	195.30	11.67	-38.1	-39.4	27.8	3.02e+01	92	40	0	203423744	52	5664
2026-01-19 03:05:33.06	195.40	11.76	-38.1	-39.4	27.7	3.02e+01	91	40	0	204996608	52	5719
2026-01-19 03:05:34.07	195.49	11.85	-38.2	-39.5	27.7	3.02e+01	90	40	0	207093760	52	5738
2026-01-19 03:05:35.08	195.59	11.95	-37.9	-39.2	27.9	3.02e+01	91	40	0	209190912	50	6269
2026-01-19 03:05:36.09	195.69	12.04	-38.0	-39.3	27.8	3.02e+01	91	40	0	210763776	50	6327
2026-01-19 03:05:37.10	195.78	12.13	-38.0	-39.3	27.8	3.02e+01	92	40	0	212860928	50	6338
2026-01-19 03:05:38.11	195.88	12.23	-37.9	-39.2	27.9	3.02e+01	90	40	0	214958080	50	6256
2026-01-19 03:05:39.12	195.98	12.32	-37.8	-39.1	28.0	3.02e+01	90	40	0	216530944	50	6151
2026-01-19 03:05:40.13	196.08	12.42	-38.0	-39.3	27.8	3.02e+01	92	40	0	218628096	50	6300
2026-01-19 03:05:41.14	196.18	12.51	-37.7	-39.0	28.1	3.02e+01	90	40	0	220200960	50	6094
2026-01-19 03:05:42.15	196.28	12.61	-37.8	-39.0	28.1	3.02e+01	89	40	0	222298112	50	6129
2026-01-19 03:05:43.16	196.38	12.71	-37.6	-38.8	28.3	3.02e+01	89	40	0	224395264	50	5977
2026-01-19 03:05:44.17	196.48	12.80	-37.6	-38.9	28.2	3.02e+01	92	40	0	225968128	50	6039
2026-01-19 03:05:45.18	196.58	12.90	-37.7	-39.0	28.1	3.02e+01	89	40	0	228065280	50	6082
2026-01-19 03:05:46.19	196.69	13.00	-37.8	-39.0	28.1	3.02e+01	91	40	0	230162432	50	6117
2026-01-19 03:05:47.20	196.79	13.09	-37.7	-39.0	28.2	3.02e+01	89	40	0	231735296	50	6083
2026-01-19 03:05:48.21	196.89	13.19	-37.7	-39.0	28.2	3.02e+01	90	40	0	233832448	50	6066
2026-01-19 03:05:49.22	197.00	13.29	-37.8	-39.1	28.0	3.02e+01	90	40	0	235405312	50	6157
2026-01-19 03:05:50.23	197.10	13.39	-37.7	-39.0	28.2	3.02e+01	92	40	0	237502464	50	6083
2026-01-19 03:05:51.24	197.21	13.49	-37.8	-39.1	28.2	3.02e+01	92	40	0	239599616	50	6159
2026-01-19 03:05:52.24	197.32	13.58	-37.9	-39.2	28.0	3.02e+01	90	40	0	241172480	50	6215
2026-01-19 03:05:53.25	197.42	13.68	-38.0	-39.3	27.7	3.02e+01	92	40	0	243269632	50	6338
2026-01-19 03:05:54.26	197.53	13.78	-37.9	-39.2	28.0	3.02e+01	90	40	0	244842496	50	6240
2026-01-19 03:05:55.28	197.64	13.88	-37.7	-39.0	28.2	3.02e+01	92	40	0	246939648	50	6076
2026-01-19 03:05:56.29	197.75	13.99	-38.0	-39.3	28.1	3.02e+01	90	40	0	249036800	50	6327
2026-01-19 03:05:57.30	197.87	14.09	-37.9	-39.2	28.0	3.02e+01	92	40	0	250609664	50	6223
2026-01-19 03:05:58.30	197.98	14.19	-37.6	-38.9	28.2	3.02e+01	90	40	0	252706816	50	6014
2026-01-19 03:05:59.32	198.09	14.29	-37.6	-38.9	28.2	3.02e+01	91	40	0	254279680	50	6018
2026-01-19 03:06:00.32	198.20	14.39	-37.6	-38.8	28.3	3.02e+01	89	40	0	256376832	50	5969
2026-01-19 03:06:01.33	198.32	14.49	-37.5	-38.8	28.3	3.02e+01	92	40	0	258473984	50	5940
2026-01-19 03:06:02.34	198.43	14.60	-37.7	-38.9	28.2	3.02e+01	89	40	0	260046848	50	6051
2026-01-19 03:06:03.35	198.55	14.70	-37.5	-38.8	28.5	3.02e+01	88	40	0	262144000	50	5936
2026-01-19 03:06:04.36	198.66	14.80	-37.6	-38.8	28.3	3.02e+01	89	40	0	263716864	50	5981
2026-01-19 03:06:05.37	198.78	14.91	-37.5	-38.8	28.4	3.02e+01	92	40	0	265814016	50	5956
2026-01-19 03:06:06.38	198.90	15.01	-37.4	-38.7	28.5	3.02e+01	90	40	0	267911168	50	5880
2026-01-19 03:06:07.39	199.02	15.12	-37.4	-38.7	28.5	3.02e+01	92	40	0	269484032	50	5859
2026-01-19 03:06:08.40	199.14	15.22	-37.3	-38.6	28.5	3.02e+01	92	40	0	271581184	50	5824
2026-01-19 03:06:09.41	199.26	15.33	-37.2	-38.5	28.6	3.02e+01	92	40	0	273154048	50	5739
2026-01-19 03:06:10.42	199.38	15.43	-37.1	-38.4	28.7	3.02e+01	92	40	0	275251200	50	5672
2026-01-19 03:06:11.43	199.50	15.54	-37.3	-38.6	28.6	3.02e+01	92	40	0	277348352	50	5801
2026-01-19 03:06:12.44	199.63	15.65	-37.3	-38.5	28.6	3.02e+01	92	40	0	278921216	50	5777
2026-01-19 03:06:13.45	199.75	15.75	-37.3	-38.6	28.6	3.02e+01	92	40	0	281018368	50	5800
2026-01-19 03:06:14.47	199.88	15.86	-37.4	-38.6	28.6	3.02e+01	92	40	0	283115520	50	5844
2026-01-19 03:06:15.48	200.01	15.97	-37.3	-38.5	28.6	3.02e+01	92	40	0	284688384	50	5773
2026-01-19 03:06:16.48	200.13	16.08	-37.3	-38.5	28.6	3.02e+01	91	40	0	286785536	50	5790
2026-01-19 03:06:17.49	200.26	16.19	-37.2	-38.4	28.7	3.02e+01	92	40	0	288358400	50	5718
2026-01-19 03:06:18.50	200.39	16.29	-37.3	-38.5	28.6	3.02e+01	92	40	0	290455552	50	5756
2026-01-19 03:06:19.51	200.52	16.40	-37.3	-38.5	28.6	3.02e+01	92	40	0	292552704	50	5774
2026-01-19 03:06:20.53	200.65	16.52	-37.3	-38.5	28.6	3.02e+01	90	40	0	294125568	50	5788
2026-01-19 03:06:21.54	200.78	16.63	-37.4	-38.6	28.5	3.02e+01	92	40	0	296222720	50	5843
2026-01-19 03:06:22.55	200.92	16.74	-37.3	-38.6	28.6	3.02e+01	92	40	0	298319872	50	5824
2026-01-19 03:06:23.56	201.05	16.85	-37.4	-38.6	28.6	3.02e+01	92	40	0	299892736	50	5838
2026-01-19 03:06:24.57	201.19	16.96	-37.5	-38.7	28.5	3.02e+01	92	40	0	301989888	50	5905
2026-01-19 03:06:25.57	201.32	17.07	-37.2	-38.4	28.7	3.02e+01	92	40	0	303562752	50	5720
2026-01-19 03:06:26.59	201.46	17.18	-37.2	-38.5	28.7	3.02e+01	92	40	0	305659904	50	5734
2026-01-19 03:06:27.60	201.60	17.30	-37.2	-38.4	28.7	3.02e+01	92	40	0	307757056	50	5697
2026-01-19 03:06:28.60	201.74	17.41	-37.2	-38.5	28.7	3.02e+01	92	40	0	309329920	50	5731
2026-01-19 03:06:29.61	201.88	17.52	-37.3	-38.6	28.6	3.02e+01	92	40	0	311427072	50	5805
2026-01-19 03:06:30.62	202.02	17.64	-37.3	-38.6	28.6	3.02e+01	92	40	0	312999936	50	5809
2026-01-19 03:06:31.63	202.16	17.75	-37.4	-38.7	28.5	3.02e+01	91	40	0	315097088	50	5883
2026-01-19 03:06:32.64	202.31	17.87	-37.4	-38.6	28.5	3.02e+01	91	40	0	317194240	50	5858
2026-01-19 03:06:33.65	202.45	17.98	-37.4	-38.6	28.6	3.02e+01	92	40	0	318767104	50	5833
2026-01-19 03:06:34.66	202.60	18.10	-37.3	-38.6	28.6	3.02e+01	91	40	0	320864256	50	5823
2026-01-19 03:06:35.67	202.75	18.22	-37.2	-38.4	28.7	3.02e+01	92	40	0	322437120	50	5690
2026-01-19 03:06:36.68	202.89	18.33	-37.1	-38.3	28.8	3.02e+01	92	40	0	324534272	50	5645
2026-01-19 03:06:37.69	203.04	18.45	-37.2	-38.4	28.7	3.02e+01	90	40	0	326631424	50	5722
2026-01-19 03:06:38.70	203.19	18.57	-37.2	-38.5	28.7	3.02e+01	92	40	0	328204288	50	5737
2026-01-19 03:06:39.71	203.35	18.69	-37.3	-38.6	28.6	3.02e+01	92	40	0	330301440	50	5796
2026-01-19 03:06:40.72	203.50	18.80	-37.4	-38.6	28.6	3.02e+01	90	40	0	331874304	50	5838
2026-01-19 03:06:41.73	203.65	18.92	-37.2	-38.5	28.7	3.02e+01	88	40	0	333971456	50	5736
2026-01-19 03:06:42.74	203.81	19.04	-37.3	-38.5	28.7	3.02e+01	90	40	0	336068608	50	5775
2026-01-19 03:06:43.75	203.97	19.16	-37.3	-38.6	28.7	3.02e+01	91	40	0	337641472	50	5793
2026-01-19 03:06:44.76	204.12	19.28	-37.3	-38.6	28.6	3.02e+01	91	40	0	339738624	50	5802
2026-01-19 03:06:45.77	204.28	19.40	-37.5	-38.8	28.5	3.02e+01	91	40	0	341311488	50	5928
2026-01-19 03:06:46.78	204.45	19.52	-37.6	-38.9	28.4	3.02e+01	90	40	0	343408640	50	6015
2026-01-19 03:06:47.79	204.61	19.65	-37.5	-38.8	28.5	3.02e+01	92	40	0	345505792	50	5946
2026-01-19 03:06:48.80	204.77	19.77	-37.6	-38.8	28.4	3.02e+01	91	40	0	347078656	50	5963
2026-01-19 03:06:49.81	204.94	19.89	-37.2	-38.5	28.8	3.02e+01	89	40	0	349175808	50	5753
2026-01-19 03:06:50.82	205.10	20.01	-37.1	-38.4	28.8	3.02e+01	92	40	0	351272960	50	5674
2026-01-19 03:06:51.83	205.27	20.14	-37.3	-38.5	28.7	3.02e+01	91	40	0	352845824	50	5780
2026-01-19 03:06:52.84	205.44	20.26	-37.4	-38.7	28.5	3.02e+01	91	40	0	354942976	50	5874
2026-01-19 03:06:53.85	205.61	20.39	-37.4	-38.7	28.6	3.02e+01	89	40	0	356515840	50	5882
2026-01-19 03:06:54.86	205.78	20.51	-37.6	-38.8	28.5	3.02e+01	92	40	0	358612992	50	5986
2026-01-19 03:06:55.87	205.95	20.64	-37.4	-38.6	28.6	3.02e+01	91	40	0	360710144	50	5830
2026-01-19 03:06:56.88	206.13	20.76	-37.3	-38.6	28.7	3.02e+01	91	40	0	362283008	50	5793
2026-01-19 03:06:57.89	206.30	20.89	-37.3	-38.6	28.6	3.02e+01	90	40	0	364380160	50	5813
2026-01-19 03:06:58.90	206.48	21.01	-37.5	-38.7	28.5	3.02e+01	92	40	0	365953024	50	5914
2026-01-19 03:06:59.91	206.66	21.14	-37.6	-38.9	28.4	3.02e+01	90	40	0	368050176	50	6002
2026-01-19 03:07:00.92	206.84	21.27	-37.5	-38.8	28.5	3.02e+01	92	40	0	370147328	50	5932
2026-01-19 03:07:01.93	207.02	21.40	-37.5	-38.7	28.6	3.02e+01	90	40	0	371720192	50	5892
2026-01-19 03:07:02.94	207.21	21.52	-37.4	-38.7	28.6	3.02e+01	92	40	0	373817344	50	5860
2026-01-19 03:07:03.94	207.39	21.65	-37.4	-38.7	28.6	3.02e+01	86	40	0	375914496	50	5878
2026-01-19 03:07:04.95	207.58	21.78	-37.5	-38.8	28.6	3.02e+01	92	40	0	377487360	50	5962
2026-01-19 03:07:05.97	207.77	21.91	-37.4	-38.7	28.7	3.02e+01	90	40	0	379584512	50	5875
2026-01-19 03:07:06.98	207.96	22.04	-37.4	-38.7	28.7	3.02e+01	92	40	0	381157376	50	5885
2026-01-19 03:07:07.98	208.15	22.17	-37.4	-38.6	28.6	3.02e+01	92	40	0	383254528	50	5853
2026-01-19 03:07:09.00	208.34	22.30	-37.4	-38.6	28.6	3.02e+01	92	40	0	385351680	50	5856
2026-01-19 03:07:10.01	208.54	22.43	-37.5	-38.7	28.5	3.02e+01	92	40	0	386924544	50	5914
2026-01-19 03:07:11.02	208.73	22.56	-37.4	-38.6	28.6	3.02e+01	92	40	0	389021696	50	5856
2026-01-19 03:07:12.03	208.93	22.70	-37.4	-38.7	28.6	3.02e+01	92	40	0	390594560	50	5883
2026-01-19 03:07:13.03	209.13	22.83	-37.5	-38.7	28.5	3.02e+01	91	40	0	392691712	50	5900
2026-01-19 03:07:14.04	209.33	22.96	-37.5	-38.7	28.5	3.02e+01	92	40	0	394788864	50	5904
2026-01-19 03:07:15.05	209.54	23.09	-37.5	-38.8	28.6	3.02e+01	92	40	0	396361728	50	5945
2026-01-19 03:07:16.06	209.74	23.23	-37.5	-38.8	28.6	3.02e+01	90	40	0	398458880	50	5938
2026-01-19 03:07:17.07	209.95	23.36	-37.5	-38.8	28.6	3.02e+01	92	40	0	400031744	50	5933
2026-01-19 03:07:18.08	210.16	23.49	-37.6	-38.9	28.5	3.02e+01	92	40	0	402128896	50	6000
2026-01-19 03:07:19.09	210.37	23.63	-37.5	-38.7	28.6	3.02e+01	91	40	0	404226048	50	5922
2026-01-19 03:07:20.11	210.58	23.77	-37.6	-38.9	28.5	3.02e+01	92	40	0	405798912	50	6002
2026-01-19 03:07:21.12	210.80	23.90	-37.4	-38.6	28.7	3.02e+01	92	40	0	407896064	50	5832
2026-01-19 03:07:22.13	211.01	24.04	-37.5	-38.8	28.6	3.02e+01	92	40	0	409468928	50	5952
2026-01-19 03:07:23.13	211.23	24.17	-37.6	-38.9	28.5	3.02e+01	87	40	0	411566080	50	5995
2026-01-19 03:07:24.15	211.45	24.31	-37.5	-38.7	28.5	3.02e+01	92	40	0	413663232	50	5926
2026-01-19 03:07:25.16	211.68	24.45	-37.5	-38.8	28.5	3.02e+01	92	40	0	415236096	50	5931
2026-01-19 03:07:26.17	211.90	24.58	-37.6	-38.9	28.5	3.02e+01	91	40	0	417333248	50	6006
2026-01-19 03:07:27.17	212.12	24.72	-37.6	-38.9	28.4	3.02e+01	91	40	0	419430400	50	6010
2026-01-19 03:07:28.19	212.35	24.86	-37.7	-39.0	28.4	3.02e+01	90	40	0	421003264	50	6101
2026-01-19 03:07:29.19	212.58	25.00	-37.5	-38.8	28.5	3.02e+01	91	40	0	423100416	50	5939
2026-01-19 03:07:30.20	212.81	25.13	-37.6	-38.9	28.5	3.02e+01	90	40	0	424673280	50	6021
2026-01-19 03:07:31.21	213.05	25.27	-37.5	-38.8	28.5	3.02e+01	92	40	0	426770432	50	5931
2026-01-19 03:07:32.22	213.29	25.41	-37.6	-38.8	28.5	3.02e+01	92	40	0	428867584	50	5976
2026-01-19 03:07:33.23	213.52	25.55	-37.6	-38.9	28.5	3.02e+01	92	40	0	430440448	50	6033
2026-01-19 03:07:34.24	213.77	25.69	-37.8	-39.1	28.3	3.02e+01	92	40	0	432537600	50	6169
2026-01-19 03:07:35.25	214.01	25.83	-37.7	-38.9	28.5	3.02e+01	92	40	0	434634752	50	6052
2026-01-19 03:07:36.26	214.25	25.97	-37.7	-39.0	28.4	3.02e+01	92	40	0	436207616	50	6098
2026-01-19 03:07:37.27	214.50	26.11	-37.7	-39.0	28.4	3.02e+01	90	40	0	438304768	50	6098
2026-01-19 03:07:38.28	214.75	26.25	-37.9	-39.1	28.3	3.02e+01	91	40	0	439877632	50	6199
2026-01-19 03:07:39.29	215.00	26.39	-37.9	-39.1	28.2	3.02e+01	91	40	0	441974784	50	6193
2026-01-19 03:07:40.29	215.25	26.53	-37.5	-38.7	28.6	3.02e+01	90	40	0	444071936	50	5896
2026-01-19 03:07:41.30	215.51	26.67	-37.4	-38.7	28.7	3.02e+01	91	40	0	445644800	50	5866
2026-01-19 03:07:42.31	215.77	26.82	-37.5	-38.8	28.5	3.02e+01	84	40	0	447741952	50	5956
2026-01-19 03:07:43.32	216.03	26.96	-37.7	-39.0	28.4	3.02e+01	92	40	0	449314816	50	6071
2026-01-19 03:07:44.33	216.29	27.10	-37.8	-39.0	28.3	3.02e+01	92	40	0	451411968	50	6116
2026-01-19 03:07:45.34	216.56	27.24	-37.9	-39.2	28.2	3.02e+01	86	40	0	453509120	50	6252
2026-01-19 03:07:46.35	216.83	27.38	-37.9	-39.2	28.3	3.02e+01	89	40	0	455081984	50	6241
2026-01-19 03:07:47.36	217.10	27.53	-38.0	-39.2	28.2	3.02e+01	91	40	0	457179136	50	6271
2026-01-19 03:07:48.37	217.37	27.67	-37.8	-39.1	28.3	3.02e+01	90	40	0	458752000	50	6180
2026-01-19 03:07:49.38	217.65	27.81	-37.5	-38.8	28.6	3.02e+01	92	40	0	460849152	50	5927
2026-01-19 03:07:50.39	217.93	27.96	-37.5	-38.8	28.6	3.02e+01	90	40	0	462946304	50	5953
2026-01-19 03:07:51.40	218.21	28.10	-37.5	-38.8	28.6	3.02e+01	91	40	0	464519168	50	5961
2026-01-19 03:07:52.41	218.49	28.24	-37.7	-38.9	28.4	3.02e+01	91	40	0	466616320	50	6043
2026-01-19 03:07:53.42	218.78	28.38	-37.8	-39.1	28.4	3.02e+01	90	40	0	468189184	50	6151
2026-01-19 03:07:54.43	219.07	28.53	-37.7	-38.9	28.5	3.02e+01	92	40	0	470286336	50	6040
2026-01-19 03:07:55.44	219.36	28.67	-37.7	-39.0	28.5	3.02e+01	91	40	0	472383488	50	6065
2026-01-19 03:07:56.45	219.65	28.81	-37.7	-38.9	28.5	3.02e+01	92	40	0	473956352	50	6059
2026-01-19 03:07:57.46	219.95	28.96	-37.5	-38.8	28.7	3.02e+01	90	40	0	476053504	50	5927
2026-01-19 03:07:58.47	220.25	29.10	-37.7	-38.9	28.5	3.02e+01	91	40	0	477626368	50	6044
2026-01-19 03:07:59.48	220.55	29.24	-37.5	-38.8	28.6	3.02e+01	91	40	0	479723520	50	5954
2026-01-19 03:08:00.49	220.85	29.39	-37.6	-38.8	28.6	3.02e+01	91	40	0	481820672	50	5972
2026-01-19 03:08:01.50	221.16	29.53	-37.6	-38.9	28.5	3.02e+01	91	40	0	483393536	50	6035
2026-01-19 03:08:02.50	221.47	29.67	-37.7	-39.0	28.4	3.02e+01	91	40	0	485490688	50	6072
2026-01-19 03:08:03.51	221.78	29.81	-37.7	-39.0	28.5	3.02e+01	92	40	0	487587840	50	6081
2026-01-19 03:08:04.52	222.10	29.96	-37.6	-38.8	28.6	3.02e+01	87	40	0	489160704	50	5974
2026-01-19 03:08:05.53	222.42	30.10	-37.5	-38.8	28.6	3.02e+01	92	40	0	491257856	50	5962
2026-01-19 03:08:06.54	222.74	30.24	-37.7	-39.0	28.5	3.02e+01	92	40	0	492830720	50	6065
2026-01-19 03:08:07.55	223.06	30.38	-37.4	-38.7	28.7	3.02e+01	91	40	0	494927872	50	5884
2026-01-19 03:08:08.56	223.39	30.53	-37.6	-38.9	28.5	3.02e+01	91	40	0	497025024	50	5998
2026-01-19 03:08:09.56	223.72	30.67	-37.8	-39.0	28.4	3.02e+01	92	40	0	498597888	50	6125
2026-01-19 03:08:10.57	224.05	30.81	-37.9	-39.1	28.2	3.02e+01	90	40	0	500695040	50	6200
2026-01-19 03:08:11.58	224.39	30.95	-37.7	-39.0	28.4	3.02e+01	92	40	0	502792192	50	6099
2026-01-19 03:08:12.59	224.73	31.09	-37.6	-38.8	28.6	3.02e+01	91	40	0	504365056	50	5989
2026-01-19 03:08:13.60	225.07	31.23	-37.7	-39.0	28.5	3.02e+01	92	40	0	506462208	50	6098
2026-01-19 03:08:14.61	225.41	31.37	-37.9	-39.2	28.2	3.02e+01	91	40	0	508035072	50	6235
2026-01-19 03:08:15.62	225.76	31.51	-37.6	-38.9	28.5	3.02e+01	92	40	0	510132224	50	6012
2026-01-19 03:08:16.63	226.11	31.65	-37.7	-38.9	28.5	3.02e+01	91	40	0	511705088	50	6054
2026-01-19 03:08:17.64	226.47	31.79	-37.7	-39.0	28.4	3.02e+01	92	40	0	513802240	50	6083
2026-01-19 03:08:18.65	226.82	31.93	-37.7	-38.9	28.5	3.02e+01	92	40	0	515899392	50	6061
2026-01-19 03:08:19.66	227.18	32.06	-37.7	-38.9	28.5	3.02e+01	90	40	0	517472256	50	6059
2026-01-19 03:08:20.67	227.55	32.20	-37.7	-38.9	28.5	3.02e+01	92	40	0	519569408	50	6049
2026-01-19 03:08:21.68	227.91	32.34	-37.9	-39.2	28.2	3.02e+01	90	40	0	521142272	50	6208
2026-01-19 03:08:22.68	228.28	32.47	-37.8	-39.0	28.4	3.02e+01	91	40	0	523239424	50	6127
2026-01-19 03:08:23.69	228.65	32.61	-37.8	-39.0	28.4	3.02e+01	87	40	0	525336576	50	6132
2026-01-19 03:08:24.70	229.03	32.74	-37.8	-39.0	28.4	3.02e+01	92	40	0	526909440	50	6108
2026-01-19 03:08:25.71	229.41	32.88	-37.8	-39.1	28.4	3.02e+01	89	40	0	529006592	50	6157
2026-01-19 03:08:26.72	229.79	33.01	-37.6	-38.9	28.5	3.02e+01	92	40	0	531103744	50	6030
2026-01-19 03:08:27.73	230.18	33.14	-37.8	-39.1	28.3	3.02e+01	91	40	0	532676608	50	6152
2026-01-19 03:08:28.74	230.56	33.27	-37.8	-39.0	28.3	3.02e+01	92	40	0	534773760	50	6127
2026-01-19 03:08:29.75	230.96	33.41	-38.0	-39.2	28.3	3.02e+01	91	40	0	536346624	50	6271
2026-01-19 03:08:30.76	231.35	33.54	-37.7	-38.9	28.5	3.02e+01	92	40	0	538443776	50	6043
2026-01-19 03:08:31.77	231.75	33.66	-37.5	-38.7	28.6	3.02e+01	92	40	0	540540928	50	5918
2026-01-19 03:08:32.78	232.15	33.79	-37.6	-38.9	28.5	3.02e+01	91	40	0	542113792	50	6025
2026-01-19 03:08:33.79	232.56	33.92	-37.7	-39.0	28.4	3.02e+01	90	40	0	544210944	50	6077
2026-01-19 03:08:34.80	232.96	34.05	-37.7	-38.9	28.5	3.02e+01	91	40	0	545783808	50	6058
2026-01-19 03:08:35.81	233.38	34.17	-37.6	-38.8	28.6	3.02e+01	91	40	0	547880960	50	5982
2026-01-19 03:08:36.82	233.79	34.30	-37.6	-38.8	28.6	3.02e+01	91	40	0	549978112	50	5994
2026-01-19 03:08:37.83	234.21	34.42	-37.8	-39.0	28.4	3.02e+01	90	40	0	551550976	50	6128
2026-01-19 03:08:38.84	234.63	34.54	-37.6	-38.8	28.5	3.02e+01	92	40	0	553648128	50	5992
2026-01-19 03:08:39.85	235.05	34.66	-37.7	-38.9	28.5	3.02e+01	90	40	0	555745280	50	6035
2026-01-19 03:08:40.86	235.48	34.78	-37.8	-39.1	28.4	3.02e+01	91	40	0	557318144	50	6183
2026-01-19 03:08:41.87	235.91	34.90	-37.9	-39.2	28.2	3.02e+01	92	40	0	559415296	50	6249
2026-01-19 03:08:42.88	236.34	35.02	-37.5	-38.7	28.7	3.02e+01	86	40	0	560988160	50	5897
2026-01-19 03:08:43.89	236.78	35.13	-37.7	-39.0	28.4	3.02e+01	92	40	0	563085312	50	6090
2026-01-19 03:08:44.90	237.22	35.25	-37.7	-39.0	28.5	3.02e+01	92	40	0	565182464	50	6076
2026-01-19 03:08:45.91	237.66	35.36	-37.7	-39.0	28.4	3.02e+01	92	40	0	566755328	50	6087
2026-01-19 03:08:46.92	238.11	35.47	-37.7	-39.0	28.4	3.02e+01	92	40	0	568852480	50	6079
2026-01-19 03:08:47.93	238.56	35.58	-37.9	-39.1	28.5	3.02e+01	92	40	0	570425344	50	6198
2026-01-19 03:08:48.94	239.01	35.69	-37.6	-38.9	28.5	3.02e+01	92	40	0	572522496	50	6013
2026-01-19 03:08:49.95	239.46	35.80	-37.7	-39.0	28.5	3.02e+01	92	40	0	574619648	50	6075
2026-01-19 03:08:50.96	239.92	35.91	-37.6	-38.9	28.5	3.02e+01	92	40	0	576192512	50	6017
2026-01-19 03:08:51.97	240.38	36.01	-37.6	-38.9	28.6	3.02e+01	92	40	0	578289664	50	5997
2026-01-19 03:08:52.98	240.84	36.11	-37.6	-38.8	28.6	3.02e+01	92	40	0	580386816	50	5954
2026-01-19 03:08:53.99	241.31	36.21	-37.8	-39.0	28.4	3.02e+01	92	40	0	581959680	50	6121
2026-01-19 03:08:55.00	241.78	36.31	-37.7	-39.0	28.4	3.02e+01	92	40	0	584056832	50	6084
2026-01-19 03:08:56.01	242.25	36.41	-37.5	-38.7	28.7	3.02e+01	92	40	0	585629696	50	5908
2026-01-19 03:08:57.02	242.73	36.50	-37.6	-38.9	28.6	3.02e+01	92	40	0	587726848	50	6005
2026-01-19 03:08:58.03	243.21	36.60	-37.3	-38.5	28.9	3.02e+01	92	40	0	589824000	50	5759
2026-01-19 03:08:59.04	243.69	36.69	-37.6	-38.9	28.5	3.02e+01	92	40	0	591396864	50	6017
2026-01-19 03:09:00.05	244.17	36.78	-37.7	-38.9	28.5	3.02e+01	90	40	0	593494016	50	6036
2026-01-19 03:09:01.06	244.66	36.87	-37.6	-38.8	28.6	3.02e+01	92	40	0	595066880	50	5983
2026-01-19 03:09:02.07	245.15	36.95	-37.4	-38.6	28.8	3.02e+01	92	40	0	597164032	50	5854
2026-01-19 03:09:03.08	245.64	37.03	-37.6	-38.9	28.6	3.02e+01	92	40	0	599261184	50	6000
2026-01-19 03:09:04.09	246.13	37.12	-37.6	-38.9	28.5	3.02e+01	92	40	0	600834048	50	5996
2026-01-19 03:09:05.09	246.62	37.19	-37.5	-38.8	28.7	3.02e+01	89	40	0	602931200	50	5937
2026-01-19 03:09:06.11	247.13	37.27	-37.5	-38.8	28.7	3.02e+01	92	40	0	604504064	50	5929
2026-01-19 03:09:07.12	247.63	37.35	-37.3	-38.5	28.9	3.02e+01	92	40	0	606601216	50	5744
2026-01-19 03:09:08.12	248.13	37.42	-37.5	-38.8	28.7	3.02e+01	92	40	0	608698368	50	5932
2026-01-19 03:09:09.13	248.63	37.49	-37.5	-38.8	28.6	3.02e+01	92	40	0	610271232	50	5950
2026-01-19 03:09:10.14	249.14	37.56	-37.3	-38.5	28.8	3.02e+01	92	40	0	612368384	50	5778
2026-01-19 03:09:11.15	249.65	37.62	-37.5	-38.7	28.7	3.02e+01	92	40	0	613941248	50	5901
2026-01-19 03:09:12.16	250.16	37.69	-37.6	-38.8	28.6	3.02e+01	92	40	0	616038400	50	5983
2026-01-19 03:09:13.17	250.67	37.75	-37.6	-38.8	28.6	3.02e+01	90	40	0	618135552	50	5973
2026-01-19 03:09:14.18	251.19	37.81	-37.8	-39.0	28.4	3.02e+01	92	40	0	619708416	50	6108
2026-01-19 03:09:15.19	251.71	37.86	-37.7	-38.9	28.5	3.02e+01	92	40	0	621805568	50	6021
2026-01-19 03:09:16.20	252.23	37.92	-37.5	-38.8	28.6	3.02e+01	91	40	0	623902720	50	5939
2026-01-19 03:09:17.21	252.75	37.97	-37.5	-38.7	28.6	3.02e+01	91	40	0	625475584	50	5907
2026-01-19 03:09:18.22	253.27	38.02	-37.5	-38.7	28.7	3.02e+01	90	40	0	627572736	50	5889
2026-01-19 03:09:19.23	253.79	38.07	-37.2	-38.4	29.0	3.02e+01	91	40	0	629145600	50	5701
2026-01-19 03:09:20.24	254.32	38.11	-37.4	-38.6	28.8	3.02e+01	90	40	0	631242752	50	5818
2026-01-19 03:09:21.25	254.85	38.15	-37.3	-38.5	28.9	3.02e+01	92	40	0	633339904	50	5788
2026-01-19 03:09:22.26	255.37	38.19	-37.3	-38.5	28.9	3.02e+01	90	40	0	634912768	50	5737
2026-01-19 03:09:23.27	255.90	38.23	-37.4	-38.6	28.8	3.02e+01	92	40	0	637009920	50	5817
2026-01-19 03:09:24.28	256.43	38.26	-37.2	-38.5	29.0	3.02e+01	92	40	0	638582784	50	5740
2026-01-19 03:09:25.29	256.97	38.29	-37.3	-38.5	28.9	3.02e+01	91	40	0	640679936	50	5781
2026-01-19 03:09:26.30	257.50	38.32	-37.4	-38.6	28.8	3.02e+01	91	40	0	642777088	50	5824
2026-01-19 03:09:27.31	258.03	38.34	-37.2	-38.4	28.9	3.02e+01	92	40	0	644349952	50	5718
2026-01-19 03:09:28.32	258.57	38.37	-37.3	-38.5	28.9	3.02e+01	91	40	0	646447104	50	5778
2026-01-19 03:09:29.33	259.10	38.39	-37.3	-38.5	28.9	3.02e+01	92	40	0	648019968	50	5780
2026-01-19 03:09:30.33	259.63	38.40	-37.3	-38.6	28.8	3.02e+01	92	40	0	650117120	50	5793
2026-01-19 03:09:31.34	260.17	38.42	-37.2	-38.5	28.9	3.02e+01	92	40	0	652214272	50	5729
2026-01-19 03:09:32.36	260.71	38.43	-37.3	-38.5	28.9	3.02e+01	91	40	0	653787136	50	5757
2026-01-19 03:09:33.36	261.24	38.44	-37.4	-38.7	28.8	3.02e+01	89	40	0	655884288	50	5869
2026-01-19 03:09:34.37	261.78	38.45	-37.4	-38.6	28.7	3.02e+01	91	40	0	657457152	50	5819
2026-01-19 03:09:35.38	262.31	38.45	-37.2	-38.5	28.9	3.02e+01	92	40	0	659554304	50	5729
2026-01-19 03:09:36.39	262.85	38.45	-37.2	-38.5	28.9	3.02e+01	91	40	0	661651456	50	5732
2026-01-19 03:09:37.40	263.39	38.45	-37.2	-38.4	29.0	3.02e+01	90	40	0	663224320	50	5693
2026-01-19 03:09:38.41	263.93	38.45	-37.3	-38.5	28.9	3.02e+01	91	40	0	665321472	50	5748
2026-01-19 03:09:39.42	264.46	38.44	-37.3	-38.6	28.8	3.02e+01	91	40	0	667418624	50	5805
2026-01-19 03:09:40.43	265.00	38.43	-37.6	-38.9	28.7	3.02e+01	92	40	0	668991488	50	6001
2026-01-19 03:09:41.44	265.54	38.42	-37.4	-38.6	28.8	3.02e+01	90	40	0	671088640	50	5828
2026-01-19 03:09:42.45	266.07	38.40	-37.5	-38.7	28.6	3.02e+01	91	40	0	672661504	50	5896
2026-01-19 03:09:43.46	266.61	38.38	-37.4	-38.7	28.7	3.02e+01	90	40	0	674758656	50	5886
2026-01-19 03:09:44.47	267.14	38.36	-37.4	-38.6	28.9	3.02e+01	91	40	0	676855808	50	5824
2026-01-19 03:09:45.48	267.68	38.34	-37.2	-38.4	29.0	3.02e+01	90	40	0	678428672	50	5725
2026-01-19 03:09:46.49	268.21	38.31	-37.3	-38.5	28.9	3.02e+01	92	40	0	680525824	50	5758
2026-01-19 03:09:47.49	268.74	38.29	-37.3	-38.5	28.8	3.02e+01	90	40	0	682098688	50	5771
2026-01-19 03:09:48.51	269.27	38.25	-37.1	-38.4	29.0	3.02e+01	92	40	0	684195840	50	5670
2026-01-19 03:09:49.52	269.80	38.22	-37.2	-38.5	28.9	3.02e+01	92	40	0	686292992	50	5734
2026-01-19 03:09:50.53	270.33	38.18	-37.5	-38.8	28.6	3.02e+01	90	40	0	687865856	50	5932
2026-01-19 03:09:51.54	270.86	38.14	-37.4	-38.6	28.8	3.02e+01	92	40	0	689963008	50	5827
2026-01-19 03:09:52.55	271.38	38.10	-37.3	-38.6	28.9	3.02e+01	92	40	0	692060160	50	5794
2026-01-19 03:09:53.56	271.91	38.06	-37.3	-38.6	28.8	3.02e+01	92	40	0	693633024	50	5803
2026-01-19 03:09:54.57	272.43	38.01	-37.1	-38.4	29.0	3.02e+01	90	40	0	695730176	50	5660
2026-01-19 03:09:55.58	272.95	37.96	-37.1	-38.3	29.0	3.02e+01	92	40	0	697303040	50	5637
2026-01-19 03:09:56.59	273.47	37.91	-37.1	-38.3	29.1	3.02e+01	92	40	0	699400192	50	5625
2026-01-19 03:09:57.60	273.99	37.86	-37.3	-38.6	28.8	3.02e+01	92	40	0	701497344	50	5808
2026-01-19 03:09:58.61	274.51	37.80	-37.4	-38.6	28.8	3.02e+01	92	40	0	703070208	50	5830
2026-01-19 03:09:59.62	275.02	37.74	-37.2	-38.4	28.9	3.02e+01	92	40	0	705167360	50	5685
2026-01-19 03:10:00.63	275.54	37.68	-37.2	-38.4	29.0	3.02e+01	92	40	0	706740224	50	5702
2026-01-19 03:10:01.64	276.05	37.61	-37.3	-38.5	28.9	3.02e+01	90	40	0	708837376	50	5758
2026-01-19 03:10:02.65	276.56	37.55	-37.4	-38.6	28.8	3.02e+01	87	40	0	710934528	50	5840
2026-01-19 03:10:03.66	277.06	37.48	-37.4	-38.6	28.8	3.02e+01	92	40	0	712507392	50	5848
2026-01-19 03:10:04.67	277.57	37.41	-36.9	-38.1	29.2	3.02e+01	92	40	0	714604544	50	5507
2026-01-19 03:10:05.68	278.07	37.34	-36.9	-38.1	29.2	3.02e+01	88	40	0	716177408	48	6143
2026-01-19 03:10:06.69	278.57	37.26	-37.4	-38.7	28.7	3.02e+01	92	40	0	718274560	48	6601
2026-01-19 03:10:07.70	279.07	37.18	-37.2	-38.4	29.0	3.02e+01	92	40	0	720371712	48	6369
2026-01-19 03:10:08.71	279.56	37.10	-37.3	-38.5	28.9	3.02e+01	92	40	0	721944576	48	6449
2026-01-19 03:10:09.72	280.05	37.02	-37.1	-38.4	29.0	3.02e+01	90	40	0	724041728	48	6371
2026-01-19 03:10:10.73	280.54	36.94	-37.0	-38.2	29.1	3.02e+01	92	40	0	725614592	48	6229
2026-01-19 03:10:11.74	281.03	36.85	-36.9	-38.1	29.2	3.02e+01	92	40	0	727711744	48	6152
2026-01-19 03:10:12.75	281.51	36.77	-37.0	-38.2	29.1	3.02e+01	92	40	0	729808896	48	6250
2026-01-19 03:10:13.76	282.00	36.68	-37.1	-38.3	29.0	3.02e+01	92	40	0	731381760	48	6330
2026-01-19 03:10:14.77	282.48	36.58	-37.1	-38.4	29.0	3.02e+01	90	40	0	733478912	48	6369
2026-01-19 03:10:15.78	282.95	36.49	-36.9	-38.1	29.2	3.02e+01	92	40	0	735576064	48	6155
2026-01-19 03:10:16.79	283.43	36.40	-36.9	-38.1	29.2	3.02e+01	90	40	0	737148928	48	6161
2026-01-19 03:10:17.80	283.90	36.30	-36.7	-37.9	29.3	3.02e+01	91	40	0	739246080	48	6053
2026-01-19 03:10:18.81	284.37	36.20	-36.8	-38.0	29.3	3.02e+01	91	40	0	740818944	48	6116
2026-01-19 03:10:19.82	284.83	36.10	-36.7	-37.9	29.4	3.02e+01	92	40	0	742916096	48	6016
2026-01-19 03:10:20.83	285.29	36.00	-36.7	-37.9	29.3	3.02e+01	89	40	0	745013248	48	6062
2026-01-19 03:10:21.84	285.75	35.89	-36.5	-37.7	29.5	3.02e+01	91	40	0	746586112	48	5919
2026-01-19 03:10:22.85	286.21	35.79	-36.7	-37.9	29.4	3.02e+01	89	40	0	748683264	48	6037
2026-01-19 03:10:23.86	286.66	35.68	-36.9	-38.1	29.2	3.02e+01	91	40	0	750256128	48	6144
2026-01-19 03:10:24.87	287.11	35.57	-36.5	-37.7	29.5	3.02e+01	88	40	0	752353280	48	5874
2026-01-19 03:10:25.88	287.56	35.46	-36.6	-37.8	29.4	3.02e+01	92	40	0	754450432	48	5977
2026-01-19 03:10:26.89	288.00	35.35	-36.6	-37.8	29.4	3.02e+01	91	40	0	756023296	48	5976
2026-01-19 03:10:27.90	288.44	35.24	-36.7	-37.9	29.5	3.02e+01	92	40	0	758120448	48	6008
2026-01-19 03:10:28.91	288.88	35.12	-36.3	-37.5	29.7	3.02e+01	91	40	0	760217600	48	5769
2026-01-19 03:10:29.92	289.32	35.01	-36.6	-37.8	29.5	3.02e+01	90	40	0	761790464	48	5937
2026-01-19 03:10:30.93	289.75	34.89	-36.5	-37.7	29.5	3.02e+01	91	40	0	763887616	48	5900
2026-01-19 03:10:31.94	290.18	34.77	-36.4	-37.6	29.6	3.02e+01	91	40	0	765460480	48	5810
2026-01-19 03:10:32.94	290.60	34.66	-36.5	-37.7	29.5	3.02e+01	92	40	0	767557632	48	5888
2026-01-19 03:10:33.95	291.02	34.53	-36.4	-37.6	29.6	3.02e+01	90	40	0	769654784	48	5836
2026-01-19 03:10:34.96	291.44	34.41	-36.6	-37.8	29.6	3.02e+01	92	40	0	771227648	48	5927
2026-01-19 03:10:35.97	291.86	34.29	-36.6	-37.8	29.5	3.02e+01	92	40	0	773324800	48	5950
2026-01-19 03:10:36.98	292.27	34.17	-36.2	-37.4	29.8	3.02e+01	92	40	0	774897664	48	5673
2026-01-19 03:10:37.99	292.68	34.04	-36.2	-37.4	29.8	3.02e+01	92	40	0	776994816	48	5676
2026-01-19 03:10:39.00	293.08	33.92	-36.1	-37.3	29.9	3.02e+01	92	40	0	779091968	48	5607
2026-01-19 03:10:40.01	293.49	33.79	-36.1	-37.3	29.9	3.02e+01	92	40	0	780664832	48	5633
2026-01-19 03:10:41.02	293.89	33.66	-36.1	-37.3	29.8	3.02e+01	90	40	0	782761984	48	5638
2026-01-19 03:10:42.03	294.28	33.53	-36.0	-37.2	29.9	3.02e+01	92	40	0	784859136	48	5565
2026-01-19 03:10:43.04	294.68	33.40	-35.8	-37.0	30.2	3.02e+01	92	40	0	786432000	46	6099
2026-01-19 03:10:44.05	295.07	33.27	-35.8	-37.0	30.1	3.02e+01	92	40	0	788529152	46	6076
2026-01-19 03:10:45.06	295.45	33.14	-35.8	-37.0	30.2	3.02e+01	92	40	0	790102016	46	6082
2026-01-19 03:10:46.07	295.84	33.01	-35.8	-37.0	30.0	3.02e+01	92	40	0	792199168	46	6091
2026-01-19 03:10:47.08	296.22	32.87	-35.9	-37.1	30.1	3.02e+01	92	40	0	794296320	46	6172
2026-01-19 03:10:48.09	296.60	32.74	-36.0	-37.2	30.0	3.02e+01	92	40	0	795869184	46	6228
2026-01-19 03:10:49.10	296.97	32.61	-36.1	-37.2	29.8	3.02e+01	92	40	0	797966336	46	6264
2026-01-19 03:10:50.11	297.34	32.47	-35.9	-37.0	30.0	3.02e+01	92	40	0	799539200	46	6120
2026-01-19 03:10:51.12	297.71	32.34	-35.7	-36.9	30.3	3.02e+01	92	40	0	801636352	46	6014
2026-01-19 03:10:52.13	298.08	32.20	-35.7	-36.9	30.2	3.02e+01	92	40	0	803209216	46	6035
2026-01-19 03:10:53.13	298.43	32.07	-35.7	-36.9	30.2	3.02e+01	92	40	0	805306368	46	6030
2026-01-19 03:10:54.14	298.79	31.93	-35.8	-37.0	30.1	3.02e+01	92	40	0	807403520	46	6098
2026-01-19 03:10:55.15	299.15	31.79	-35.9	-37.1	30.0	3.02e+01	89	40	0	808976384	46	6157
2026-01-19 03:10:56.16	299.50	31.65	-35.7	-36.9	30.2	3.02e+01	92	40	0	811073536	46	6032
2026-01-19 03:10:57.17	299.85	31.51	-35.9	-37.1	30.0	3.02e+01	92	40	0	813170688	46	6193
2026-01-19 03:10:58.18	300.20	31.38	-35.7	-36.9	30.2	3.02e+01	92	40	0	814743552	46	6033
2026-01-19 03:10:59.19	300.54	31.24	-35.6	-36.8	30.2	3.02e+01	90	40	0	816840704	46	5968
2026-01-19 03:11:00.20	300.88	31.10	-35.7	-36.9	30.2	3.02e+01	92	40	0	818413568	46	6033
2026-01-19 03:11:01.21	301.22	30.96	-35.7	-36.8	30.2	3.02e+01	90	40	0	820510720	46	5970
2026-01-19 03:11:02.22	301.55	30.82	-35.8	-37.0	30.1	3.02e+01	92	40	0	822607872	46	6103
2026-01-19 03:11:03.23	301.89	30.68	-35.8	-37.0	30.1	3.02e+01	90	40	0	824180736	46	6080
2026-01-19 03:11:04.24	302.21	30.53	-35.8	-37.0	30.1	3.02e+01	92	40	0	826277888	46	6079
2026-01-19 03:11:05.26	302.54	30.39	-35.7	-36.9	30.3	3.02e+01	90	40	0	828375040	46	6004
2026-01-19 03:11:06.26	302.86	30.25	-35.7	-36.9	30.2	3.02e+01	92	40	0	829947904	46	6028
2026-01-19 03:11:07.27	303.18	30.11	-35.7	-36.9	30.1	3.02e+01	92	40	0	832045056	46	6015
2026-01-19 03:11:08.28	303.50	29.97	-35.7	-36.9	30.2	3.02e+01	92	40	0	833617920	46	6008
2026-01-19 03:11:09.29	303.82	29.83	-35.7	-36.9	30.2	3.02e+01	90	40	0	835715072	46	6021
2026-01-19 03:11:10.30	304.13	29.68	-35.9	-37.0	30.1	3.02e+01	92	40	0	837812224	46	6132
2026-01-19 03:11:11.31	304.44	29.54	-36.0	-37.2	30.0	3.02e+01	59	40	0	839385088	46	6215
2026-01-19 03:11:12.32	304.74	29.40	-35.9	-37.1	30.0	3.02e+01	60	40	0	841482240	46	6172
2026-01-19 03:11:13.33	305.05	29.26	-35.9	-37.1	30.0	3.02e+01	49	40	0	843055104	46	6155
2026-01-19 03:11:14.34	305.35	29.12	-36.0	-37.1	30.0	3.02e+01	61	40	0	845152256	46	6199
2026-01-19 03:11:15.35	305.64	28.97	-35.9	-37.0	30.1	3.02e+01	57	40	0	847249408	46	6124
2026-01-19 03:11:16.36	305.94	28.83	-35.9	-37.0	30.1	3.02e+01	49	40	0	848822272	46	6130
2026-01-19 03:11:17.37	306.23	28.69	-35.9	-37.1	30.0	3.02e+01	55	40	0	850919424	46	6191
2026-01-19 03:11:18.38	306.52	28.55	-36.1	-37.3	29.9	3.02e+01	46	40	0	853016576	46	6314
2026-01-19 03:11:19.39	306.81	28.40	-36.1	-37.3	29.9	3.02e+01	61	40	0	854589440	46	6294
2026-01-19 03:11:20.41	307.10	28.26	-36.1	-37.3	29.8	3.02e+01	57	40	0	856686592	46	6315
2026-01-19 03:11:21.42	307.38	28.12	-36.1	-37.3	29.8	3.02e+01	52	40	0	858259456	46	6336
2026-01-19 03:11:22.43	307.66	27.98	-36.1	-37.3	29.8	3.02e+01	54	40	0	860356608	46	6323
2026-01-19 03:11:23.43	307.93	27.84	-36.2	-37.4	29.8	3.02e+01	58	40	0	862453760	46	6376
2026-01-19 03:11:24.44	308.21	27.69	-36.3	-37.4	29.7	3.02e+01	62	40	0	864026624	46	6423
2026-01-19 03:11:25.45	308.48	27.55	-36.3	-37.5	29.7	3.02e+01	62	40	0	866123776	46	6430
2026-01-19 03:11:26.46	308.75	27.41	-36.4	-37.6	29.6	3.02e+01	46	40	0	867696640	46	6558
2026-01-19 03:11:27.47	309.02	27.27	-36.3	-37.5	29.7	3.02e+01	59	40	0	869793792	46	6425
2026-01-19 03:11:28.48	309.28	27.13	-36.3	-37.4	29.7	3.02e+01	60	40	0	871890944	46	6423
2026-01-19 03:11:29.49	309.54	26.99	-36.2	-37.4	29.6	3.02e+01	45	40	0	873463808	46	6403
2026-01-19 03:11:30.50	309.80	26.85	-36.4	-37.6	29.5	3.02e+01	57	40	0	875560960	46	6508
2026-01-19 03:11:31.51	310.06	26.71	-36.5	-37.7	29.5	3.02e+01	60	40	0	877133824	46	6588
2026-01-19 03:11:32.52	310.32	26.56	-36.5	-37.7	29.4	3.02e+01	58	40	0	879230976	46	6647
2026-01-19 03:11:33.53	310.57	26.42	-36.6	-37.8	29.4	3.02e+01	60	40	0	881328128	46	6683
2026-01-19 03:11:34.54	310.82	26.28	-36.4	-37.6	29.5	3.02e+01	62	40	0	882900992	46	6517
2026-01-19 03:11:35.55	311.07	26.14	-36.4	-37.6	29.6	3.02e+01	59	40	0	884998144	46	6524
2026-01-19 03:11:36.56	311.32	26.00	-36.3	-37.4	29.7	3.02e+01	58	40	0	886571008	46	6422
2026-01-19 03:11:37.57	311.56	25.87	-36.4	-37.5	29.6	3.02e+01	44	40	0	888668160	46	6495
2026-01-19 03:11:38.58	311.80	25.73	-36.4	-37.6	29.6	3.02e+01	62	40	0	890765312	46	6530
2026-01-19 03:11:39.59	312.04	25.59	-36.4	-37.6	29.6	3.02e+01	60	40	0	892338176	46	6523
2026-01-19 03:11:40.60	312.28	25.45	-36.5	-37.7	29.5	3.02e+01	59	40	0	894435328	46	6591
2026-01-19 03:11:41.61	312.52	25.31	-36.6	-37.9	29.3	3.02e+01	56	40	0	896532480	46	6734
2026-01-19 03:11:42.62	312.75	25.17	-36.7	-37.9	29.3	3.02e+01	59	40	0	898105344	46	6739
2026-01-19 03:11:43.63	312.98	25.04	-36.5	-37.8	29.4	3.02e+01	61	40	0	900202496	46	6651
2026-01-19 03:11:44.64	313.21	24.90	-36.5	-37.7	29.4	3.02e+01	59	40	0	901775360	46	6628
2026-01-19 03:11:45.65	313.44	24.76	-36.5	-37.7	29.5	3.02e+01	46	40	0	903872512	46	6645
2026-01-19 03:11:46.66	313.66	24.62	-36.7	-37.9	29.3	3.02e+01	60	40	0	905969664	46	6802
2026-01-19 03:11:47.67	313.89	24.49	-36.7	-37.9	29.2	3.02e+01	57	40	0	907542528	46	6772
2026-01-19 03:11:48.68	314.11	24.35	-36.6	-37.8	29.3	3.02e+01	60	40	0	909639680	46	6725
2026-01-19 03:11:49.69	314.33	24.22	-36.6	-37.8	29.3	3.02e+01	62	40	0	911212544	46	6707
2026-01-19 03:11:50.70	314.55	24.08	-36.6	-37.8	29.4	3.02e+01	52	40	0	913309696	46	6661
2026-01-19 03:11:51.71	314.76	23.95	-36.8	-38.0	29.2	3.02e+01	59	40	0	915406848	46	6861
2026-01-19 03:11:52.72	314.97	23.81	-36.8	-38.0	29.2	3.02e+01	60	40	0	916979712	46	6825
2026-01-19 03:11:53.73	315.19	23.68	-36.6	-37.8	29.4	3.02e+01	53	40	0	919076864	46	6655
2026-01-19 03:11:54.74	315.40	23.54	-36.7	-37.9	29.3	3.02e+01	59	40	0	921174016	46	6759
2026-01-19 03:11:55.75	315.61	23.41	-36.7	-38.0	29.3	3.02e+01	45	40	0	922746880	46	6814
2026-01-19 03:11:56.76	315.81	23.28	-36.7	-37.9	29.3	3.02e+01	59	40	0	924844032	46	6755
2026-01-19 03:11:57.76	316.01	23.15	-36.7	-37.9	29.3	3.02e+01	60	40	0	926416896	46	6732
2026-01-19 03:11:58.78	316.22	23.01	-36.6	-37.8	29.3	3.02e+01	54	40	0	928514048	46	6712
2026-01-19 03:11:59.78	316.42	22.88	-36.6	-37.8	29.4	3.02e+01	57	40	0	930611200	46	6705
2026-01-19 03:12:00.79	316.62	22.75	-36.7	-37.9	29.3	3.02e+01	51	40	0	932184064	46	6745
2026-01-19 03:12:01.80	316.82	22.62	-36.8	-38.0	29.2	3.02e+01	61	40	0	934281216	46	6868
2026-01-19 03:12:02.81	317.01	22.49	-36.7	-37.9	29.2	3.02e+01	58	40	0	935854080	46	6787
2026-01-19 03:12:03.82	317.21	22.36	-36.8	-38.0	29.2	3.02e+01	45	40	0	937951232	46	6838
2026-01-19 03:12:04.83	317.40	22.23	-36.6	-37.8	29.3	3.02e+01	58	40	0	940048384	46	6714
2026-01-19 03:12:05.84	317.59	22.10	-36.6	-37.8	29.3	3.02e+01	61	40	0	941621248	46	6722
2026-01-19 03:12:06.85	317.78	21.97	-36.5	-37.7	29.4	3.02e+01	44	40	0	943718400	46	6618
2026-01-19 03:12:07.86	317.97	21.84	-36.6	-37.8	29.3	3.02e+01	60	40	0	945291264	46	6711
2026-01-19 03:12:08.87	318.15	21.71	-36.4	-37.6	29.5	3.02e+01	58	40	0	947388416	46	6556
2026-01-19 03:12:09.88	318.34	21.59	-36.4	-37.6	29.5	3.02e+01	58	40	0	949485568	46	6559
2026-01-19 03:12:10.89	318.52	21.46	-36.5	-37.7	29.5	3.02e+01	59	40	0	951058432	46	6591
2026-01-19 03:12:11.90	318.70	21.33	-36.5	-37.7	29.4	3.02e+01	58	40	0	953155584	46	6637
2026-01-19 03:12:12.91	318.88	21.21	-36.5	-37.7	29.5	3.02e+01	54	40	0	954728448	46	6576
2026-01-19 03:12:13.92	319.06	21.08	-36.5	-37.7	29.4	3.02e+01	60	40	0	956825600	46	6589
2026-01-19 03:12:14.93	319.24	20.95	-36.5	-37.7	29.5	3.02e+01	45	40	0	958922752	46	6595
2026-01-19 03:12:15.94	319.41	20.83	-36.4	-37.6	29.5	3.02e+01	58	40	0	960495616	46	6509
2026-01-19 03:12:16.95	319.59	20.70	-36.4	-37.6	29.4	3.02e+01	61	40	0	962592768	46	6560
2026-01-19 03:12:17.96	319.76	20.58	-36.5	-37.7	29.4	3.02e+01	58	40	0	964689920	46	6602
2026-01-19 03:12:18.97	319.93	20.46	-36.5	-37.7	29.5	3.02e+01	57	40	0	966262784	46	6626
2026-01-19 03:12:19.98	320.10	20.33	-36.5	-37.7	29.4	3.02e+01	45	40	0	968359936	46	6636
2026-01-19 03:12:20.99	320.27	20.21	-36.7	-37.9	29.2	3.02e+01	57	40	0	969932800	46	6787
2026-01-19 03:12:22.00	320.44	20.09	-36.5	-37.7	29.4	3.02e+01	58	40	0	972029952	46	6627
2026-01-19 03:12:23.01	320.60	19.96	-36.7	-37.9	29.3	3.02e+01	38	40	0	974127104	46	6770
2026-01-19 03:12:24.02	320.77	19.84	-36.5	-37.7	29.4	3.02e+01	60	40	0	975699968	46	6601
2026-01-19 03:12:25.03	320.93	19.72	-36.5	-37.7	29.4	3.02e+01	55	40	0	977797120	46	6643
2026-01-19 03:12:26.04	321.09	19.60	-36.6	-37.8	29.4	3.02e+01	59	40	0	979369984	46	6695
2026-01-19 03:12:27.05	321.25	19.48	-36.4	-37.6	29.5	3.02e+01	62	40	0	981467136	46	6527
2026-01-19 03:12:28.06	321.41	19.36	-36.5	-37.7	29.4	3.02e+01	59	40	0	983564288	46	6619
2026-01-19 03:12:29.07	321.57	19.24	-36.5	-37.7	29.5	3.02e+01	57	40	0	985137152	46	6580
2026-01-19 03:12:30.08	321.73	19.12	-36.5	-37.7	29.4	3.02e+01	59	40	0	987234304	46	6602
2026-01-19 03:12:31.09	321.88	19.00	-36.5	-37.7	29.4	3.02e+01	58	40	0	989331456	46	6587
2026-01-19 03:12:32.10	322.04	18.89	-36.6	-37.8	29.4	3.02e+01	62	40	0	990904320	46	6669
2026-01-19 03:12:33.11	322.19	18.77	-36.4	-37.6	29.4	3.02e+01	53	40	0	993001472	46	6550
2026-01-19 03:12:34.12	322.34	18.65	-36.4	-37.6	29.5	3.02e+01	62	40	0	994574336	46	6537
2026-01-19 03:12:35.13	322.49	18.53	-36.5	-37.7	29.3	3.02e+01	59	40	0	996671488	46	6622
2026-01-19 03:12:36.14	322.64	18.42	-36.5	-37.7	29.3	3.02e+01	44	40	0	998768640	46	6634
2026-01-19 03:12:37.15	322.79	18.30	-36.5	-37.7	29.4	3.02e+01	59	40	0	1000341504	46	6646
2026-01-19 03:12:38.16	322.94	18.18	-36.6	-37.8	29.3	3.02e+01	59	40	0	1002438656	46	6696
2026-01-19 03:12:39.17	323.08	18.07	-36.4	-37.6	29.4	3.02e+01	62	41	0	1004011520	46	6538
2026-01-19 03:12:40.18	323.23	17.95	-36.5	-37.7	29.3	3.02e+01	59	40	0	1006108672	46	6629
2026-01-19 03:12:41.19	323.37	17.84	-36.4	-37.6	29.4	3.02e+01	56	40	0	1008205824	46	6510
2026-01-19 03:12:42.20	323.51	17.73	-36.3	-37.5	29.4	3.02e+01	58	40	0	1009778688	46	6482
2026-01-19 03:12:43.21	323.66	17.61	-36.4	-37.5	29.4	3.02e+01	60	40	0	1011875840	46	6491
2026-01-19 03:12:44.22	323.80	17.50	-36.5	-37.7	29.5	3.02e+01	48	40	0	1013448704	46	6597
2026-01-19 03:12:45.23	323.93	17.39	-36.3	-37.5	29.5	3.02e+01	60	40	0	1015545856	46	6440
2026-01-19 03:12:46.24	324.07	17.27	-36.3	-37.5	29.5	3.02e+01	60	40	0	1017643008	46	6490
2026-01-19 03:12:47.25	324.21	17.16	-36.3	-37.4	29.6	3.02e+01	60	40	0	1019215872	46	6414
2026-01-19 03:12:48.26	324.35	17.05	-36.2	-37.4	29.6	3.02e+01	62	40	0	1021313024	46	6371
2026-01-19 03:12:49.27	324.48	16.94	-36.3	-37.5	29.5	3.02e+01	52	40	0	1022885888	46	6461
2026-01-19 03:12:50.28	324.62	16.83	-36.2	-37.4	29.5	3.02e+01	59	40	0	1024983040	46	6417
2026-01-19 03:12:51.29	324.75	16.72	-36.4	-37.6	29.5	3.02e+01	63	40	0	1027080192	46	6520
2026-01-19 03:12:52.30	324.88	16.61	-36.5	-37.8	29.3	3.02e+01	45	40	0	1028653056	46	6650
2026-01-19 03:12:53.31	325.01	16.50	-36.6	-37.8	29.3	3.02e+01	62	40	0	1030750208	46	6686
2026-01-19 03:12:54.32	325.14	16.39	-36.5	-37.7	29.3	3.02e+01	60	40	0	1032847360	46	6627
2026-01-19 03:12:55.33	325.27	16.28	-36.5	-37.7	29.3	3.02e+01	57	40	0	1034420224	46	6603
2026-01-19 03:12:56.34	325.40	16.17	-36.5	-37.7	29.3	3.02e+01	57	40	0	1036517376	46	6646
2026-01-19 03:12:57.35	325.53	16.07	-36.4	-37.7	29.3	3.02e+01	49	40	0	1038090240	46	6580
2026-01-19 03:12:58.36	325.65	15.96	-36.6	-37.8	29.2	3.02e+01	59	40	0	1040187392	46	6668
2026-01-19 03:12:59.37	325.78	15.85	-36.5	-37.8	29.3	3.02e+01	58	40	0	1042284544	46	6661
2026-01-19 03:13:00.38	325.90	15.75	-36.6	-37.8	29.2	3.02e+01	45	40	0	1043857408	46	6700
2026-01-19 03:13:01.39	326.03	15.64	-36.5	-37.7	29.3	3.02e+01	56	40	0	1045954560	46	6613
2026-01-19 03:13:02.40	326.15	15.53	-36.6	-37.8	29.3	3.02e+01	46	40	0	1047527424	46	6659
2026-01-19 03:13:03.41	326.27	15.43	-36.5	-37.8	29.2	3.02e+01	57	40	0	1049624576	46	6661
2026-01-19 03:13:04.42	326.39	15.32	-36.6	-37.8	29.2	3.02e+01	48	40	0	1051721728	46	6661
2026-01-19 03:13:05.43	326.51	15.22	-36.6	-37.8	29.2	3.02e+01	52	40	0	1053294592	46	6675
2026-01-19 03:13:06.44	326.63	15.12	-36.7	-37.9	29.1	3.02e+01	58	40	0	1055391744	46	6746
2026-01-19 03:13:07.45	326.75	15.01	-36.4	-37.6	29.3	3.02e+01	58	40	0	1057488896	46	6553
2026-01-19 03:13:08.46	326.87	14.91	-36.5	-37.8	29.2	3.02e+01	58	40	0	1059061760	46	6655
2026-01-19 03:13:09.47	326.98	14.81	-36.5	-37.7	29.2	3.02e+01	60	40	0	1061158912	46	6601
2026-01-19 03:13:10.48	327.10	14.70	-36.5	-37.7	29.2	3.02e+01	46	40	0	1062731776	46	6611
2026-01-19 03:13:11.49	327.22	14.60	-36.4	-37.6	29.2	3.02e+01	56	40	0	1064828928	46	6550
2026-01-19 03:13:12.50	327.33	14.50	-36.5	-37.7	29.2	3.02e+01	59	40	0	1066926080	46	6636
2026-01-19 03:13:13.51	327.44	14.40	-36.7	-37.9	29.0	3.02e+01	46	40	0	1068498944	46	6797
2026-01-19 03:13:14.52	327.56	14.30	-36.9	-38.1	29.0	3.02e+01	57	40	0	1070596096	46	6942
2026-01-19 03:13:15.53	327.67	14.20	-36.8	-38.0	29.0	3.02e+01	60	40	0	1072168960	48	6102
2026-01-19 03:13:16.54	327.78	14.09	-36.7	-37.9	29.1	3.02e+01	56	40	0	1074266112	48	6009
2026-01-19 03:13:17.55	327.89	13.99	-36.6	-37.8	29.1	3.02e+01	57	40	0	1076363264	48	5980
2026-01-19 03:13:18.56	328.00	13.90	-36.7	-38.0	28.9	3.02e+01	63	40	0	1077936128	48	6075
2026-01-19 03:13:19.57	328.11	13.80	-36.7	-37.9	29.0	3.02e+01	60	40	0	1080033280	48	6036
2026-01-19 03:13:20.58	328.22	13.70	-36.8	-38.0	28.9	3.02e+01	59	40	0	1081606144	48	6104
2026-01-19 03:13:21.59	328.32	13.60	-36.8	-38.1	28.8	3.02e+01	44	40	0	1083703296	48	6159
2026-01-19 03:13:22.59	328.43	13.50	-36.9	-38.2	28.7	3.02e+01	58	40	0	1085800448	48	6231
2026-01-19 03:13:23.60	328.54	13.40	-36.9	-38.1	28.8	3.02e+01	53	40	0	1087373312	48	6161
2026-01-19 03:13:24.61	328.64	13.31	-36.9	-38.1	28.8	3.02e+01	60	40	0	1089470464	48	6178
2026-01-19 03:13:25.62	328.75	13.21	-36.8	-38.1	28.9	3.02e+01	60	40	0	1091043328	48	6146
2026-01-19 03:13:26.63	328.85	13.11	-36.8	-38.1	28.8	3.02e+01	55	40	0	1093140480	48	6137
2026-01-19 03:13:27.64	328.95	13.02	-36.8	-38.1	28.8	3.02e+01	60	40	0	1095237632	48	6149
2026-01-19 03:13:28.65	329.05	12.92	-36.8	-38.0	28.9	3.02e+01	55	40	0	1096810496	48	6078
2026-01-19 03:13:29.66	329.16	12.82	-36.9	-38.1	28.8	3.02e+01	44	40	0	1098907648	48	6175
2026-01-19 03:13:30.67	329.26	12.73	-36.8	-38.1	28.8	3.02e+01	62	40	0	1101004800	48	6136
2026-01-19 03:13:31.68	329.36	12.63	-36.8	-38.0	28.8	3.02e+01	59	40	0	1102577664	48	6131
2026-01-19 03:13:32.69	329.46	12.54	-36.8	-38.1	28.8	3.02e+01	61	40	0	1104674816	48	6152
2026-01-19 03:13:33.70	329.56	12.44	-37.0	-38.2	28.7	3.02e+01	59	40	0	1106247680	48	6253
2026-01-19 03:13:34.71	329.66	12.35	-36.9	-38.1	28.8	3.02e+01	54	40	0	1108344832	48	6168
2026-01-19 03:13:35.72	329.75	12.26	-37.0	-38.2	28.6	3.02e+01	59	40	0	1110441984	48	6252
2026-01-19 03:13:36.73	329.85	12.16	-37.0	-38.3	28.6	3.02e+01	59	40	0	1112014848	48	6315
2026-01-19 03:13:37.74	329.95	12.07	-36.9	-38.2	28.6	3.02e+01	58	40	0	1114112000	48	6231
2026-01-19 03:13:38.75	330.04	11.98	-37.1	-38.3	28.5	3.02e+01	59	40	0	1115684864	48	6332
2026-01-19 03:13:39.76	330.14	11.89	-37.1	-38.3	28.5	3.02e+01	55	40	0	1117782016	48	6324
2026-01-19 03:13:40.77	330.23	11.79	-37.1	-38.3	28.5	3.02e+01	56	40	0	1119879168	48	6344
2026-01-19 03:13:41.78	330.33	11.70	-37.0	-38.3	28.6	3.02e+01	57	40	0	1121452032	48	6314
2026-01-19 03:13:42.79	330.42	11.61	-37.2	-38.4	28.4	3.02e+01	47	40	0	1123549184	48	6404
2026-01-19 03:13:43.80	330.51	11.52	-36.9	-38.1	28.7	3.02e+01	61	40	0	1125646336	48	6164
2026-01-19 03:13:44.81	330.61	11.43	-37.0	-38.3	28.6	3.02e+01	63	40	0	1127219200	48	6303
2026-01-19 03:13:45.82	330.70	11.34	-37.1	-38.3	28.4	3.02e+01	60	40	0	1129316352	48	6348
2026-01-19 03:13:46.83	330.79	11.25	-37.2	-38.5	28.3	3.02e+01	61	40	0	1130889216	48	6443
2026-01-19 03:13:47.84	330.88	11.16	-37.2	-38.4	28.4	3.02e+01	47	40	0	1132986368	48	6402
2026-01-19 03:13:48.85	330.97	11.07	-37.3	-38.6	28.3	3.02e+01	60	40	0	1135083520	48	6511
2026-01-19 03:13:49.86	331.06	10.98	-37.2	-38.4	28.4	3.02e+01	59	40	0	1136656384	48	6420
2026-01-19 03:13:50.87	331.15	10.89	-37.0	-38.2	28.5	3.02e+01	46	40	0	1138753536	48	6276
2026-01-19 03:13:51.87	331.24	10.80	-37.1	-38.4	28.4	3.02e+01	60	40	0	1140326400	48	6365
2026-01-19 03:13:52.88	331.32	10.71	-37.2	-38.5	28.4	3.02e+01	57	40	0	1142423552	48	6462
2026-01-19 03:13:53.89	331.41	10.63	-37.2	-38.4	28.3	3.02e+01	58	40	0	1144520704	48	6421
2026-01-19 03:13:54.90	331.50	10.54	-37.3	-38.5	28.4	3.02e+01	57	40	0	1146093568	48	6482
2026-01-19 03:13:55.91	331.58	10.45	-37.3	-38.6	28.2	3.02e+01	57	40	0	1148190720	48	6529
2026-01-19 03:13:56.92	331.67	10.36	-37.4	-38.6	28.2	3.02e+01	59	40	0	1149763584	48	6568
2026-01-19 03:13:57.94	331.76	10.28	-37.3	-38.6	28.2	3.02e+01	60	40	0	1151860736	48	6518
2026-01-19 03:13:58.95	331.84	10.19	-37.4	-38.6	28.2	3.02e+01	46	40	0	1153957888	48	6570
2026-01-19 03:13:59.96	331.92	10.10	-37.5	-38.7	28.1	3.02e+01	57	40	0	1155530752	48	6641
2026-01-19 03:14:00.97	332.01	10.02	-37.3	-38.6	28.2	3.02e+01	60	40	0	1157627904	48	6531
2026-01-19 03:14:01.98	332.09	9.93	-37.4	-38.7	28.1	3.02e+01	58	40	0	1159200768	48	6631
2026-01-19 03:14:02.99	332.17	9.85	-37.6	-38.9	27.9	3.02e+01	57	40	0	1161297920	48	6754
2026-01-19 03:14:04.00	332.26	9.76	-37.6	-38.8	28.0	3.02e+01	58	40	0	1163395072	48	6723
2026-01-19 03:14:05.00	332.34	9.68	-37.5	-38.7	28.1	3.02e+01	61	40	0	1164967936	48	6631
2026-01-19 03:14:06.01	332.42	9.59	-37.5	-38.8	27.9	3.02e+01	59	40	0	1167065088	48	6708
2026-01-19 03:14:07.02	332.50	9.51	-37.5	-38.8	28.0	3.02e+01	46	40	0	1169162240	48	6690
2026-01-19 03:14:08.04	332.58	9.42	-38.1	-48.3	3.6	3.02e+01	0	40	104	1169686528	50	17857
2026-01-19 03:14:09.05	332.66	9.34	-38.0	-48.2	3.6	3.02e+01	0	40	104	1169686528	50	17610
2026-01-19 03:14:10.06	332.74	9.26	-38.1	-48.4	3.6	3.02e+01	0	40	104	1169686528	50	17935
2026-01-19 03:14:11.07	332.82	9.17	-38.3	-48.5	3.6	3.02e+01	0	40	104	1169686528	50	18279
2026-01-19 03:14:12.07	332.90	9.09	-40.2	-50.7	3.4	3.02e+01	0	40	104	1169686528	52	20805
2026-01-19 03:14:13.08	332.97	9.01	-49.5	-66.7	3.5	3.02e+01	0	40	104	1169686528	60	82894
2026-01-19 03:14:14.09	333.05	8.93	-49.1	-64.6	3.5	3.02e+01	0	40	104	1169686528	60	65526
2026-01-19 03:14:15.10	333.13	8.84	-40.9	-51.4	3.4	3.02e+01	0	41	104	1169686528	52	22772
2026-01-19 03:14:16.11	333.20	8.76	-39.9	-50.3	3.6	3.02e+01	0	40	104	1169686528	54	17812
2026-01-19 03:14:17.12	333.28	8.68	-39.2	-49.5	3.4	3.02e+01	0	40	104	1169686528	54	16166
2026-01-19 03:14:18.13	333.36	8.60	-38.8	-49.2	3.6	3.02e+01	0	40	104	1169686528	52	17540
2026-01-19 03:14:19.14	333.43	8.52	-38.5	-48.7	3.6	3.02e+01	0	41	104	1169686528	52	16635
