passes_logs/2026/01/19/R4.6S_Anadyr/R4.6S_Anadyr__20260119_153023_NOAA_20_JPSS-1_rec.log

#Pass ID: 20260119_153023_NOAA 20 (JPSS-1)
#Satellite: NOAA 20 (JPSS-1)
#Configuration: NOAA 20
#almurnet v.1.7.20251203
#Start time: 2026-01-19 15:30:24

#Version: 2.2.20231116
#Station: R4.6S_Anadyr
#Location: 177.4865 lon 64.73178 lat
#TLE: 1 43013U 17073A   26018.92475364  .00000071  00000+0  54435-4 0  9998
#TLE: 2 43013  98.7641 319.8227 0001354  33.6678 326.4584 14.19536868423299

#Time	Az	El	Level	Level2	SNR	BER	BlckErr	Temp	State	Recorded	gain1	gain2
2026-01-19 15:30:24.09	22.51	0.05	-50.4	-65.3	3.5	1.51e+00	0	39	0	0	60	66655
2026-01-19 15:30:25.09	22.49	0.11	-50.4	-65.6	3.6	1.51e+00	0	40	104	0	60	68822
2026-01-19 15:30:26.10	22.47	0.17	-50.8	-66.0	3.6	1.51e+00	0	40	104	0	60	71771
2026-01-19 15:30:27.11	22.46	0.23	-50.5	-65.7	3.6	1.51e+00	0	40	104	0	60	69870
2026-01-19 15:30:28.12	22.44	0.29	-50.4	-65.6	3.6	1.51e+00	0	40	104	0	60	68893
2026-01-19 15:30:29.14	22.42	0.35	-50.3	-65.5	3.6	1.51e+00	0	40	104	0	60	67815
2026-01-19 15:30:30.14	22.40	0.41	-50.3	-65.5	3.6	1.51e+00	0	40	104	0	60	67752
2026-01-19 15:30:31.16	22.39	0.47	-50.2	-65.5	3.6	1.51e+00	0	40	104	0	60	67851
2026-01-19 15:30:32.17	22.37	0.53	-50.3	-65.5	3.6	1.51e+00	0	40	104	0	60	67998
2026-01-19 15:30:33.17	22.35	0.59	-50.2	-65.4	3.6	1.51e+00	0	40	104	0	60	67196
2026-01-19 15:30:34.19	22.33	0.65	-50.2	-65.4	3.6	1.51e+00	0	40	104	0	60	67183
2026-01-19 15:30:35.19	22.32	0.72	-50.1	-65.3	3.6	1.51e+00	0	40	104	0	60	66761
2026-01-19 15:30:36.21	22.30	0.78	-50.1	-65.3	3.6	1.51e+00	0	40	104	0	60	66919
2026-01-19 15:30:37.22	22.28	0.84	-50.1	-65.3	3.6	1.51e+00	0	40	104	0	60	66712
2026-01-19 15:30:38.23	22.26	0.90	-50.1	-65.3	3.6	1.51e+00	0	40	104	0	60	66375
2026-01-19 15:30:39.24	22.24	0.96	-50.0	-65.2	3.6	1.51e+00	0	40	104	0	60	65996
2026-01-19 15:30:40.25	22.22	1.02	-49.9	-65.2	3.6	1.51e+00	0	40	104	0	60	65469
2026-01-19 15:30:41.26	22.21	1.08	-49.8	-65.1	3.6	1.51e+00	0	40	104	0	60	64662
2026-01-19 15:30:42.27	22.19	1.15	-49.7	-65.0	3.6	1.51e+00	0	40	104	0	60	63913
2026-01-19 15:30:43.28	22.17	1.21	-49.6	-64.8	3.6	1.51e+00	0	40	104	0	60	62907
2026-01-19 15:30:44.29	22.15	1.27	-49.5	-64.8	3.6	1.51e+00	0	40	104	0	60	62455
2026-01-19 15:30:45.30	22.13	1.33	-49.4	-64.6	3.6	1.51e+00	0	40	104	0	60	61517
2026-01-19 15:30:46.31	22.11	1.40	-49.2	-64.4	3.6	1.51e+00	0	40	104	0	60	60233
2026-01-19 15:30:47.32	22.09	1.46	-49.0	-64.2	3.6	1.51e+00	0	41	104	0	60	58792
2026-01-19 15:30:48.33	22.07	1.52	-48.8	-64.0	3.6	1.51e+00	0	41	104	0	60	57498
2026-01-19 15:30:49.34	22.05	1.58	-48.6	-63.5	3.6	1.51e+00	0	41	104	0	60	54232
2026-01-19 15:30:50.35	22.04	1.65	-48.6	-63.4	3.5	1.51e+00	0	40	104	0	60	53551
2026-01-19 15:30:51.35	22.02	1.71	-48.6	-63.4	3.6	1.51e+00	0	41	104	0	60	53283
2026-01-19 15:30:52.37	22.00	1.77	-48.6	-63.6	3.6	1.51e+00	0	40	104	0	60	54475
2026-01-19 15:30:53.37	21.98	1.84	-48.6	-63.6	3.5	1.51e+00	0	41	104	0	60	54878
2026-01-19 15:30:54.38	21.96	1.90	-48.6	-63.7	3.6	1.51e+00	0	41	104	0	60	55294
2026-01-19 15:30:55.39	21.94	1.96	-48.6	-63.8	3.6	1.51e+00	0	41	104	0	60	55894
2026-01-19 15:30:56.40	21.92	2.03	-48.7	-63.8	3.6	1.51e+00	0	41	104	0	60	55988
2026-01-19 15:30:57.41	21.90	2.09	-48.7	-63.7	3.6	1.51e+00	0	41	104	0	60	55588
2026-01-19 15:30:58.43	21.88	2.15	-48.7	-63.7	3.6	1.51e+00	0	41	104	0	60	55197
2026-01-19 15:30:59.44	21.86	2.22	-48.6	-63.7	3.6	1.51e+00	0	41	104	0	60	55086
2026-01-19 15:31:00.44	21.84	2.28	-48.6	-63.4	3.6	1.51e+00	0	41	104	0	60	53390
2026-01-19 15:31:01.45	21.82	2.35	-48.6	-63.3	3.6	1.51e+00	0	41	104	0	60	52595
2026-01-19 15:31:02.46	21.79	2.41	-48.6	-63.1	3.6	1.51e+00	0	41	104	0	60	51623
2026-01-19 15:31:03.48	21.77	2.48	-48.6	-62.7	3.6	1.51e+00	0	41	104	0	60	49190
2026-01-19 15:31:04.49	21.75	2.54	-48.6	-62.3	3.6	1.51e+00	0	41	104	0	60	47165
2026-01-19 15:31:05.50	21.73	2.61	-48.6	-62.1	3.6	1.51e+00	0	41	104	0	60	45903
2026-01-19 15:31:06.51	21.71	2.67	-48.6	-62.2	3.6	1.51e+00	0	41	104	0	60	46404
2026-01-19 15:31:07.52	21.69	2.74	-48.6	-62.5	3.6	1.51e+00	0	41	104	0	60	48030
2026-01-19 15:31:08.53	21.67	2.80	-48.6	-62.9	3.6	1.51e+00	0	41	104	0	60	50190
2026-01-19 15:31:09.54	21.65	2.87	-48.6	-63.4	3.6	1.51e+00	0	41	104	0	60	53714
2026-01-19 15:31:10.55	21.63	2.93	-48.6	-63.2	3.6	1.51e+00	0	41	104	0	60	52209
2026-01-19 15:31:11.56	21.60	3.00	-48.5	-61.8	3.8	1.51e+00	0	41	104	0	60	44258
2026-01-19 15:31:12.57	21.58	3.07	-48.3	-58.1	4.4	1.37e+00	58	41	0	0	60	29120
2026-01-19 15:31:13.58	21.56	3.13	-48.1	-55.8	5.9	3.73e-01	5	41	0	2097152	60	22389
2026-01-19 15:31:14.59	21.54	3.20	-47.7	-54.0	8.2	8.03e-02	78	41	0	4194304	60	18122
2026-01-19 15:31:15.60	21.52	3.26	-47.2	-52.4	9.9	1.84e-02	10	41	0	6291456	60	15057
2026-01-19 15:31:16.61	21.49	3.33	-46.7	-51.2	11.4	4.95e-03	5	41	0	7340032	60	13053
2026-01-19 15:31:17.62	21.47	3.40	-46.1	-49.7	13.1	1.14e-04	92	41	0	9437184	60	11014
2026-01-19 15:31:18.63	21.45	3.47	-45.8	-49.1	13.6	1.29e-05	7	41	0	11534336	60	10317
2026-01-19 15:31:19.64	21.43	3.53	-45.8	-49.2	13.7	6.10e-06	92	41	0	13631488	60	10391
2026-01-19 15:31:20.65	21.40	3.60	-45.9	-49.4	13.3	7.60e-06	5	41	0	15728640	60	10713
2026-01-19 15:31:21.66	21.38	3.67	-46.2	-50.0	12.5	1.06e-04	7	41	0	16777216	60	11374
2026-01-19 15:31:22.67	21.36	3.73	-48.6	-61.3	3.7	5.03e-03	0	41	104	18874368	60	41852
2026-01-19 15:31:23.68	21.33	3.80	-48.7	-61.4	3.9	1.46e+00	0	41	104	18874368	60	42664
2026-01-19 15:31:24.69	21.31	3.87	-48.0	-56.3	5.4	1.32e+00	89	41	104	18874368	60	23549
2026-01-19 15:31:25.70	21.29	3.94	-42.8	-44.4	18.7	1.19e+00	6	41	0	18874368	60	5974
2026-01-19 15:31:26.71	21.26	4.01	-48.6	-60.9	3.6	1.98e-01	1	41	104	20971520	60	40278
2026-01-19 15:31:27.72	21.24	4.07	-43.4	-45.3	6.1	1.49e+00	0	41	104	20971520	60	6690
2026-01-19 15:31:28.73	21.22	4.14	-41.9	-43.3	19.7	0.00e+00	80	41	0	20971520	56	6674
2026-01-19 15:31:29.74	21.19	4.21	-41.8	-43.2	19.9	0.00e+00	0	41	0	23068672	56	6555
2026-01-19 15:31:30.75	21.17	4.28	-41.7	-43.1	19.9	0.00e+00	0	41	0	24117248	56	6468
2026-01-19 15:31:31.76	21.14	4.35	-41.7	-43.1	19.9	0.00e+00	0	41	0	26214400	56	6477
2026-01-19 15:31:32.76	21.12	4.42	-41.6	-43.0	20.0	0.00e+00	79	41	0	28311552	56	6413
2026-01-19 15:31:33.78	21.10	4.49	-41.6	-43.0	20.0	0.00e+00	91	41	0	30408704	56	6438
2026-01-19 15:31:34.78	21.07	4.56	-41.5	-42.9	20.2	0.00e+00	80	41	0	32505856	56	6353
2026-01-19 15:31:35.79	21.05	4.63	-41.7	-43.1	20.0	0.00e+00	92	41	0	33554432	56	6493
2026-01-19 15:31:36.81	21.02	4.70	-41.5	-42.8	20.3	0.00e+00	6	41	0	35651584	56	6310
2026-01-19 15:31:37.82	21.00	4.77	-41.7	-43.0	20.2	0.00e+00	8	41	0	37748736	56	6461
2026-01-19 15:31:38.82	20.97	4.84	-41.5	-42.8	20.2	0.00e+00	0	41	0	39845888	56	6293
2026-01-19 15:31:39.83	20.95	4.91	-41.7	-43.1	20.1	0.00e+00	0	41	0	41943040	56	6511
2026-01-19 15:31:40.84	20.92	4.98	-41.4	-42.7	20.4	0.00e+00	90	41	0	42991616	56	6199
2026-01-19 15:31:41.86	20.90	5.05	-41.4	-42.7	20.4	0.00e+00	0	41	0	45088768	56	6234
2026-01-19 15:31:42.86	20.87	5.12	-41.5	-42.8	20.4	0.00e+00	92	41	0	47185920	56	6298
2026-01-19 15:31:43.87	20.84	5.19	-41.5	-42.8	20.4	0.00e+00	0	41	0	49283072	56	6264
2026-01-19 15:31:44.88	20.82	5.26	-41.4	-42.6	20.5	0.00e+00	0	41	0	51380224	56	6163
2026-01-19 15:31:45.89	20.79	5.34	-41.3	-42.6	20.6	0.00e+00	0	41	0	52428800	56	6127
2026-01-19 15:31:46.90	20.77	5.41	-41.3	-42.6	20.6	0.00e+00	2	41	0	54525952	56	6104
2026-01-19 15:31:47.91	20.74	5.48	-41.3	-42.6	20.6	0.00e+00	92	41	0	56623104	56	6133
2026-01-19 15:31:48.92	20.71	5.55	-41.2	-42.5	20.8	0.00e+00	80	41	0	58720256	56	6050
2026-01-19 15:31:49.93	20.69	5.62	-41.2	-42.5	20.6	0.00e+00	95	41	0	60817408	56	6058
2026-01-19 15:31:50.94	20.66	5.70	-41.2	-42.4	20.8	0.00e+00	0	41	0	61865984	56	6011
2026-01-19 15:31:51.95	20.63	5.77	-41.1	-42.3	20.8	0.00e+00	4	41	0	63963136	56	5913
2026-01-19 15:31:52.96	20.60	5.84	-41.2	-42.4	20.8	0.00e+00	1	41	0	66060288	56	6004
2026-01-19 15:31:53.97	20.58	5.92	-41.1	-42.3	20.9	0.00e+00	1	41	0	68157440	56	5947
2026-01-19 15:31:54.98	20.55	5.99	-41.2	-42.5	20.7	0.00e+00	0	41	0	70254592	56	6049
2026-01-19 15:31:55.99	20.52	6.06	-41.3	-42.5	20.7	0.00e+00	81	41	0	71303168	56	6072
2026-01-19 15:31:57.00	20.49	6.14	-41.2	-42.4	20.8	0.00e+00	89	41	0	73400320	56	6014
2026-01-19 15:31:58.01	20.47	6.21	-41.2	-42.5	20.9	0.00e+00	1	41	0	75497472	56	6062
2026-01-19 15:31:59.02	20.44	6.28	-41.2	-42.4	20.8	0.00e+00	92	41	0	77594624	56	6013
2026-01-19 15:32:00.03	20.41	6.36	-41.3	-42.6	20.7	0.00e+00	0	41	0	79691776	56	6132
2026-01-19 15:32:01.04	20.38	6.43	-41.4	-42.7	20.7	0.00e+00	0	41	0	80740352	56	6199
2026-01-19 15:32:02.05	20.35	6.51	-41.3	-42.5	20.6	0.00e+00	0	41	0	82837504	56	6091
2026-01-19 15:32:03.06	20.32	6.58	-41.6	-42.9	20.6	0.00e+00	0	41	0	84934656	56	6376
2026-01-19 15:32:04.07	20.29	6.66	-41.5	-42.8	20.3	0.00e+00	92	41	0	87031808	56	6252
2026-01-19 15:32:05.08	20.26	6.73	-41.6	-42.9	20.6	0.00e+00	0	41	0	89128960	56	6355
2026-01-19 15:32:06.09	20.24	6.81	-41.6	-42.9	20.5	0.00e+00	90	41	0	91226112	56	6353
2026-01-19 15:32:07.10	20.21	6.88	-41.5	-42.8	20.8	0.00e+00	77	41	0	92274688	56	6261
2026-01-19 15:32:08.11	20.18	6.96	-41.4	-42.7	20.6	0.00e+00	77	41	0	94371840	56	6197
2026-01-19 15:32:09.12	20.15	7.04	-41.3	-42.5	20.9	0.00e+00	74	41	0	96468992	56	6084
2026-01-19 15:32:10.13	20.12	7.11	-40.9	-42.1	21.3	0.00e+00	2	41	0	98566144	56	5801
2026-01-19 15:32:11.14	20.09	7.19	-40.8	-42.0	21.4	0.00e+00	80	41	0	100663296	56	5731
2026-01-19 15:32:12.15	20.06	7.27	-40.4	-41.5	21.8	0.00e+00	77	41	0	101711872	54	6093
2026-01-19 15:32:13.16	20.02	7.34	-40.4	-41.5	21.7	0.00e+00	92	41	0	103809024	54	6057
2026-01-19 15:32:14.18	19.99	7.42	-40.3	-41.3	21.9	0.00e+00	81	41	0	105906176	54	5955
2026-01-19 15:32:15.19	19.96	7.50	-40.4	-41.4	21.8	0.00e+00	92	41	0	108003328	54	6029
2026-01-19 15:32:16.20	19.93	7.58	-40.3	-41.4	21.8	0.00e+00	82	41	0	110100480	54	6027
2026-01-19 15:32:17.21	19.90	7.66	-40.4	-41.5	22.0	0.00e+00	2	41	0	111149056	54	6042
2026-01-19 15:32:18.21	19.87	7.73	-40.4	-41.5	21.7	0.00e+00	82	41	0	113246208	54	6040
2026-01-19 15:32:19.22	19.84	7.81	-40.3	-41.4	21.9	0.00e+00	0	41	0	115343360	54	6013
2026-01-19 15:32:20.23	19.81	7.89	-40.3	-41.3	22.0	0.00e+00	92	41	0	117440512	54	5947
2026-01-19 15:32:21.24	19.77	7.97	-40.2	-41.2	22.1	0.00e+00	0	41	0	119537664	54	5875
2026-01-19 15:32:22.25	19.74	8.05	-40.1	-41.2	22.2	0.00e+00	92	41	0	120586240	54	5834
2026-01-19 15:32:23.26	19.71	8.13	-40.1	-41.2	22.1	0.00e+00	2	41	0	122683392	54	5839
2026-01-19 15:32:24.27	19.68	8.21	-40.0	-41.1	22.2	0.00e+00	0	41	0	124780544	54	5782
2026-01-19 15:32:25.28	19.64	8.29	-40.1	-41.1	22.2	0.00e+00	2	41	0	126877696	54	5789
2026-01-19 15:32:26.29	19.61	8.37	-39.9	-41.0	22.3	0.00e+00	0	41	0	128974848	54	5699
2026-01-19 15:32:27.30	19.58	8.45	-39.9	-40.9	22.4	0.00e+00	92	41	0	130023424	54	5694
2026-01-19 15:32:28.31	19.54	8.53	-40.0	-41.1	22.4	0.00e+00	0	41	0	132120576	54	5775
2026-01-19 15:32:29.32	19.51	8.61	-40.0	-41.1	22.3	0.00e+00	92	41	0	134217728	54	5766
2026-01-19 15:32:30.33	19.47	8.69	-40.2	-41.3	22.2	0.00e+00	0	41	0	136314880	54	5906
2026-01-19 15:32:31.34	19.44	8.77	-40.1	-41.1	22.2	0.00e+00	0	41	0	138412032	54	5792
2026-01-19 15:32:32.35	19.41	8.85	-40.2	-41.2	22.3	0.00e+00	0	41	0	139460608	54	5892
2026-01-19 15:32:33.36	19.37	8.94	-39.8	-40.8	22.5	0.00e+00	1	41	0	141557760	54	5622
2026-01-19 15:32:34.36	19.34	9.02	-39.7	-40.7	22.7	0.00e+00	82	41	0	143654912	52	6226
2026-01-19 15:32:35.37	19.30	9.10	-39.7	-40.7	22.7	0.00e+00	0	41	0	145752064	52	6202
2026-01-19 15:32:36.38	19.27	9.18	-39.8	-40.8	22.6	0.00e+00	92	41	0	147849216	52	6254
2026-01-19 15:32:37.39	19.23	9.27	-39.7	-40.7	22.7	0.00e+00	78	41	0	148897792	52	6204
2026-01-19 15:32:38.40	19.19	9.35	-39.8	-40.8	22.6	0.00e+00	92	41	0	150994944	52	6247
2026-01-19 15:32:39.41	19.16	9.43	-39.7	-40.7	22.7	0.00e+00	7	41	0	153092096	52	6193
2026-01-19 15:32:40.42	19.12	9.52	-39.7	-40.7	22.7	0.00e+00	4	41	0	155189248	52	6238
2026-01-19 15:32:41.43	19.09	9.60	-39.6	-40.6	21.4	2.20e-03	0	41	0	157286400	52	6149
2026-01-19 15:32:42.44	19.05	9.68	-39.6	-40.7	22.2	0.00e+00	7	41	0	159383552	52	6201
2026-01-19 15:32:43.45	19.01	9.77	-39.5	-40.5	22.2	1.08e-04	92	41	0	160432128	52	6082
2026-01-19 15:32:44.46	18.98	9.85	-39.5	-40.6	21.8	1.49e-04	0	41	0	162529280	52	6104
2026-01-19 15:32:45.47	18.94	9.94	-39.6	-40.6	22.9	1.25e-03	92	41	0	164626432	52	6113
2026-01-19 15:32:46.48	18.90	10.02	-39.7	-40.6	22.7	0.00e+00	6	41	0	166723584	52	6170
2026-01-19 15:32:47.49	18.86	10.11	-39.6	-40.6	22.8	0.00e+00	0	41	0	168820736	52	6120
2026-01-19 15:32:48.50	18.82	10.20	-39.6	-40.5	22.8	0.00e+00	0	41	0	169869312	52	6093
2026-01-19 15:32:49.51	18.79	10.28	-39.9	-40.9	22.6	0.00e+00	0	41	0	171966464	52	6335
2026-01-19 15:32:50.52	18.75	10.37	-39.6	-40.6	22.9	0.00e+00	91	41	0	174063616	52	6108
2026-01-19 15:32:51.53	18.71	10.46	-39.6	-40.6	22.7	0.00e+00	79	41	0	176160768	52	6154
2026-01-19 15:32:52.54	18.67	10.54	-39.5	-40.4	23.0	0.00e+00	92	41	0	178257920	52	6012
2026-01-19 15:32:53.55	18.63	10.63	-39.3	-40.3	22.9	0.00e+00	0	41	0	179306496	52	5931
2026-01-19 15:32:54.56	18.59	10.72	-39.4	-40.4	23.1	0.00e+00	3	41	0	181403648	52	6001
2026-01-19 15:32:55.57	18.55	10.81	-39.4	-40.4	23.1	0.00e+00	81	41	0	183500800	52	6008
2026-01-19 15:32:56.58	18.51	10.89	-39.5	-40.5	23.0	0.00e+00	5	41	0	185597952	52	6071
2026-01-19 15:32:57.59	18.47	10.98	-39.5	-40.5	23.0	0.00e+00	92	41	0	187695104	52	6080
2026-01-19 15:32:58.60	18.43	11.07	-39.5	-40.4	23.0	0.00e+00	3	41	0	188743680	52	6023
2026-01-19 15:32:59.61	18.39	11.16	-39.5	-40.4	23.1	0.00e+00	92	41	0	190840832	52	6007
2026-01-19 15:33:00.62	18.35	11.25	-39.5	-40.5	23.1	0.00e+00	5	41	0	192937984	52	6052
2026-01-19 15:33:01.62	18.31	11.34	-39.6	-40.6	22.9	0.00e+00	7	41	0	195035136	52	6139
2026-01-19 15:33:02.64	18.26	11.43	-39.5	-40.5	23.1	0.00e+00	7	41	0	197132288	52	6052
2026-01-19 15:33:03.64	18.22	11.52	-39.6	-40.6	23.0	0.00e+00	4	41	0	198180864	52	6132
2026-01-19 15:33:04.65	18.18	11.61	-39.5	-40.5	23.0	0.00e+00	48	41	0	200278016	52	6050
2026-01-19 15:33:05.66	18.14	11.70	-39.5	-40.4	23.2	0.00e+00	8	41	0	202375168	52	6018
2026-01-19 15:33:06.67	18.09	11.79	-39.5	-40.4	23.1	0.00e+00	92	41	0	204472320	52	5996
2026-01-19 15:33:07.68	18.05	11.88	-39.3	-40.2	23.3	0.00e+00	0	41	0	206569472	52	5888
2026-01-19 15:33:08.69	18.01	11.98	-39.4	-40.3	23.2	0.00e+00	92	41	0	207618048	52	5918
2026-01-19 15:33:09.70	17.96	12.07	-39.4	-40.3	23.2	0.00e+00	81	41	0	209715200	52	5954
2026-01-19 15:33:10.71	17.92	12.16	-39.3	-40.2	23.4	0.00e+00	0	41	0	211812352	52	5871
2026-01-19 15:33:11.72	17.87	12.26	-39.3	-40.2	23.4	0.00e+00	0	41	0	213909504	52	5876
2026-01-19 15:33:12.73	17.83	12.35	-39.4	-40.3	23.3	0.00e+00	83	41	0	216006656	52	5931
2026-01-19 15:33:13.74	17.78	12.44	-39.5	-40.4	23.1	0.00e+00	92	41	0	217055232	52	6015
2026-01-19 15:33:14.75	17.74	12.54	-39.5	-40.5	23.0	0.00e+00	0	41	0	219152384	52	6058
2026-01-19 15:33:15.76	17.69	12.63	-39.3	-40.3	23.2	0.00e+00	92	41	0	221249536	52	5918
2026-01-19 15:33:16.77	17.65	12.73	-39.4	-40.3	23.2	0.00e+00	0	41	0	223346688	52	5948
2026-01-19 15:33:17.78	17.60	12.82	-39.6	-40.5	23.1	0.00e+00	0	41	0	225443840	52	6083
2026-01-19 15:33:18.79	17.55	12.92	-39.3	-40.2	23.3	0.00e+00	81	41	0	227540992	52	5870
2026-01-19 15:33:19.80	17.51	13.01	-39.3	-40.3	23.4	0.00e+00	0	41	0	228589568	52	5904
2026-01-19 15:33:20.81	17.46	13.11	-39.3	-40.2	23.3	0.00e+00	92	41	0	230686720	52	5882
2026-01-19 15:33:21.82	17.41	13.21	-39.3	-40.3	23.3	0.00e+00	0	41	0	232783872	52	5916
2026-01-19 15:33:22.83	17.36	13.30	-39.3	-40.3	23.3	0.00e+00	90	41	0	234881024	52	5911
2026-01-19 15:33:23.84	17.32	13.40	-39.6	-40.5	23.2	0.00e+00	0	41	0	236978176	52	6074
2026-01-19 15:33:24.85	17.27	13.50	-39.4	-40.3	23.3	0.00e+00	76	41	0	238026752	52	5934
2026-01-19 15:33:25.86	17.22	13.60	-39.5	-40.4	23.2	0.00e+00	0	41	0	240123904	52	5999
2026-01-19 15:33:26.87	17.17	13.69	-39.4	-40.3	23.3	0.00e+00	0	41	0	242221056	52	5927
2026-01-19 15:33:27.88	17.12	13.79	-39.4	-40.3	23.3	0.00e+00	0	41	0	244318208	52	5926
2026-01-19 15:33:28.89	17.07	13.89	-39.4	-40.3	23.3	0.00e+00	0	41	0	246415360	52	5925
2026-01-19 15:33:29.90	17.02	13.99	-39.5	-40.4	23.2	0.00e+00	92	41	0	247463936	52	5999
2026-01-19 15:33:30.91	16.97	14.09	-39.4	-40.4	23.2	0.00e+00	4	41	0	249561088	52	5994
2026-01-19 15:33:31.92	16.92	14.19	-39.3	-40.3	23.2	0.00e+00	92	41	0	251658240	52	5921
2026-01-19 15:33:32.93	16.86	14.29	-39.5	-40.5	23.2	0.00e+00	81	41	0	253755392	52	6044
2026-01-19 15:33:33.94	16.81	14.39	-39.4	-40.4	23.3	0.00e+00	80	41	0	255852544	52	5969
2026-01-19 15:33:34.95	16.76	14.49	-39.3	-40.3	23.3	0.00e+00	0	41	0	256901120	52	5903
2026-01-19 15:33:35.96	16.71	14.60	-39.3	-40.2	23.4	0.00e+00	0	41	0	258998272	52	5896
2026-01-19 15:33:36.97	16.65	14.70	-39.2	-40.2	23.5	0.00e+00	91	41	0	261095424	52	5830
2026-01-19 15:33:37.98	16.60	14.80	-39.2	-40.2	23.5	0.00e+00	2	41	0	263192576	52	5834
2026-01-19 15:33:38.99	16.55	14.90	-39.3	-40.3	23.4	0.00e+00	92	41	0	265289728	52	5911
2026-01-19 15:33:40.00	16.49	15.01	-39.3	-40.2	23.5	0.00e+00	0	41	0	266338304	52	5879
2026-01-19 15:33:41.01	16.44	15.11	-39.3	-40.2	23.5	0.00e+00	0	41	0	268435456	52	5857
2026-01-19 15:33:42.02	16.38	15.22	-39.2	-40.2	23.5	0.00e+00	0	41	0	270532608	52	5839
2026-01-19 15:33:43.03	16.33	15.32	-39.3	-40.2	23.5	0.00e+00	0	41	0	272629760	52	5859
2026-01-19 15:33:44.04	16.27	15.43	-39.2	-40.1	23.6	0.00e+00	50	41	0	274726912	52	5772
2026-01-19 15:33:45.05	16.21	15.53	-39.2	-40.1	23.5	0.00e+00	2	41	0	275775488	52	5772
2026-01-19 15:33:46.06	16.16	15.64	-39.2	-40.1	23.5	0.00e+00	92	41	0	277872640	52	5795
2026-01-19 15:33:47.07	16.10	15.74	-39.4	-40.4	23.3	0.00e+00	0	41	0	279969792	52	5979
2026-01-19 15:33:48.08	16.04	15.85	-39.3	-40.2	23.4	0.00e+00	0	41	0	282066944	52	5844
2026-01-19 15:33:49.09	15.98	15.96	-39.2	-40.1	23.5	0.00e+00	0	41	0	284164096	52	5786
2026-01-19 15:33:50.10	15.92	16.07	-39.1	-40.0	23.6	0.00e+00	81	41	0	286261248	52	5740
2026-01-19 15:33:51.11	15.87	16.18	-39.1	-40.1	23.6	0.00e+00	0	41	0	287309824	52	5762
2026-01-19 15:33:52.12	15.81	16.28	-39.2	-40.1	23.6	0.00e+00	0	41	0	289406976	52	5769
2026-01-19 15:33:53.13	15.75	16.39	-39.1	-40.1	23.6	0.00e+00	92	41	0	291504128	52	5770
2026-01-19 15:33:54.14	15.69	16.50	-39.1	-40.0	23.6	0.00e+00	0	41	0	293601280	52	5752
2026-01-19 15:33:55.15	15.62	16.61	-39.2	-40.2	23.5	0.00e+00	0	41	0	295698432	52	5833
2026-01-19 15:33:56.16	15.56	16.72	-39.1	-40.0	23.7	0.00e+00	0	41	0	296747008	52	5742
2026-01-19 15:33:57.17	15.50	16.83	-39.2	-40.1	23.6	0.00e+00	81	41	0	298844160	52	5800
2026-01-19 15:33:58.18	15.44	16.95	-39.1	-40.0	23.7	0.00e+00	3	41	0	300941312	52	5721
2026-01-19 15:33:59.19	15.38	17.06	-39.4	-40.3	23.4	0.00e+00	0	41	0	303038464	52	5942
2026-01-19 15:34:00.19	15.31	17.17	-39.2	-40.1	23.5	0.00e+00	92	41	0	305135616	52	5807
2026-01-19 15:34:01.20	15.25	17.28	-39.2	-40.2	23.5	0.00e+00	2	41	0	306184192	52	5834
2026-01-19 15:34:02.21	15.19	17.40	-39.1	-40.0	23.6	0.00e+00	92	41	0	308281344	52	5737
2026-01-19 15:34:03.22	15.12	17.51	-39.1	-40.0	23.7	0.00e+00	0	41	0	310378496	52	5736
2026-01-19 15:34:04.23	15.05	17.62	-39.2	-40.1	23.6	0.00e+00	0	41	0	312475648	52	5791
2026-01-19 15:34:05.24	14.99	17.74	-39.1	-40.0	23.6	0.00e+00	0	41	0	314572800	52	5753
2026-01-19 15:34:06.25	14.92	17.85	-39.2	-40.1	23.6	0.00e+00	0	41	0	315621376	52	5819
2026-01-19 15:34:07.27	14.85	17.97	-39.4	-40.3	23.5	0.00e+00	92	41	0	317718528	52	5934
2026-01-19 15:34:08.27	14.79	18.09	-39.3	-40.2	23.5	0.00e+00	0	41	0	319815680	52	5862
2026-01-19 15:34:09.28	14.72	18.20	-39.2	-40.1	23.6	0.00e+00	92	41	0	321912832	52	5823
2026-01-19 15:34:10.29	14.65	18.32	-39.3	-40.3	23.5	0.00e+00	0	41	0	324009984	52	5899
2026-01-19 15:34:11.30	14.58	18.44	-39.2	-40.1	23.6	0.00e+00	0	41	0	325058560	52	5766
2026-01-19 15:34:12.31	14.51	18.56	-39.2	-40.1	23.7	0.00e+00	0	41	0	327155712	52	5780
2026-01-19 15:34:13.32	14.44	18.68	-39.2	-40.1	23.7	0.00e+00	0	41	0	329252864	52	5781
2026-01-19 15:34:14.33	14.37	18.79	-39.2	-40.1	23.6	0.00e+00	0	41	0	331350016	52	5789
2026-01-19 15:34:15.34	14.30	18.91	-39.1	-40.0	23.8	0.00e+00	81	41	0	333447168	52	5735
2026-01-19 15:34:16.35	14.23	19.04	-39.1	-40.0	23.8	0.00e+00	92	41	0	334495744	52	5722
2026-01-19 15:34:17.36	14.15	19.16	-39.0	-39.9	23.8	0.00e+00	79	41	0	336592896	52	5678
2026-01-19 15:34:18.36	14.08	19.28	-39.1	-40.0	23.8	0.00e+00	0	41	0	338690048	52	5736
2026-01-19 15:34:19.38	14.01	19.40	-39.1	-39.9	23.8	0.00e+00	0	41	0	340787200	52	5693
2026-01-19 15:34:20.39	13.93	19.52	-39.0	-39.9	23.8	0.00e+00	0	41	0	342884352	52	5659
2026-01-19 15:34:21.40	13.86	19.65	-39.0	-39.9	23.8	0.00e+00	0	41	0	343932928	52	5656
2026-01-19 15:34:22.40	13.78	19.77	-39.1	-40.0	23.8	0.00e+00	6	41	0	346030080	52	5699
2026-01-19 15:34:23.41	13.70	19.89	-39.0	-39.9	23.9	0.00e+00	92	41	0	348127232	52	5654
2026-01-19 15:34:24.42	13.63	20.02	-38.9	-39.8	24.0	0.00e+00	0	41	0	350224384	52	5576
2026-01-19 15:34:25.43	13.55	20.14	-38.9	-39.8	23.9	0.00e+00	90	41	0	352321536	52	5586
2026-01-19 15:34:26.44	13.47	20.27	-38.9	-39.7	24.0	0.00e+00	0	41	0	353370112	52	5565
2026-01-19 15:34:27.45	13.39	20.40	-38.8	-39.7	24.1	0.00e+00	0	41	0	355467264	52	5557
2026-01-19 15:34:28.46	13.31	20.52	-38.9	-39.7	24.0	0.00e+00	0	41	0	357564416	52	5563
2026-01-19 15:34:29.47	13.23	20.65	-38.8	-39.7	24.0	0.00e+00	6	41	0	359661568	52	5525
2026-01-19 15:34:30.48	13.15	20.78	-38.9	-39.8	24.0	0.00e+00	91	41	0	361758720	52	5588
2026-01-19 15:34:31.49	13.07	20.91	-38.9	-39.8	24.0	0.00e+00	0	41	0	363855872	52	5596
2026-01-19 15:34:32.50	12.99	21.04	-38.9	-39.8	24.0	0.00e+00	91	41	0	364904448	52	5581
2026-01-19 15:34:33.51	12.90	21.17	-39.0	-39.9	23.9	0.00e+00	0	41	0	367001600	52	5654
2026-01-19 15:34:34.52	12.82	21.30	-39.2	-40.1	23.9	0.00e+00	0	41	0	369098752	52	5774
2026-01-19 15:34:35.53	12.73	21.43	-39.1	-39.9	23.7	0.00e+00	80	41	0	371195904	52	5686
2026-01-19 15:34:36.54	12.65	21.56	-38.8	-39.6	24.1	0.00e+00	0	41	0	373293056	52	5502
2026-01-19 15:34:37.55	12.56	21.70	-38.9	-39.8	24.0	0.00e+00	0	41	0	374341632	52	5579
2026-01-19 15:34:38.56	12.47	21.83	-38.8	-39.7	24.0	0.00e+00	2	41	0	376438784	52	5515
2026-01-19 15:34:39.57	12.39	21.96	-38.9	-39.8	24.0	0.00e+00	92	41	0	378535936	52	5574
2026-01-19 15:34:40.57	12.30	22.10	-39.1	-40.0	23.6	0.00e+00	86	41	0	380633088	52	5720
2026-01-19 15:34:41.59	12.21	22.23	-39.1	-40.0	23.8	0.00e+00	92	41	0	382730240	52	5711
2026-01-19 15:34:42.60	12.12	22.37	-39.1	-40.0	23.8	0.00e+00	81	41	0	383778816	52	5742
2026-01-19 15:34:43.61	12.03	22.51	-39.0	-39.9	23.9	0.00e+00	7	41	0	385875968	52	5664
2026-01-19 15:34:44.62	11.93	22.64	-39.1	-40.0	23.9	0.00e+00	0	41	0	387973120	52	5723
2026-01-19 15:34:45.63	11.84	22.78	-39.2	-40.1	23.8	0.00e+00	6	41	0	390070272	52	5795
2026-01-19 15:34:46.64	11.75	22.92	-39.2	-40.1	23.8	0.00e+00	91	41	0	392167424	52	5777
2026-01-19 15:34:47.65	11.65	23.06	-39.2	-40.1	23.7	0.00e+00	1	41	0	393216000	52	5803
2026-01-19 15:34:48.66	11.56	23.20	-39.2	-40.1	23.8	0.00e+00	91	41	0	395313152	52	5793
2026-01-19 15:34:49.67	11.46	23.34	-39.2	-40.1	23.7	0.00e+00	7	41	0	397410304	52	5795
2026-01-19 15:34:50.68	11.36	23.48	-39.3	-40.2	23.7	0.00e+00	6	41	0	399507456	52	5844
2026-01-19 15:34:51.69	11.26	23.62	-39.3	-40.2	23.7	0.00e+00	0	41	0	401604608	52	5881
2026-01-19 15:34:52.70	11.16	23.76	-39.4	-40.3	23.5	0.00e+00	0	41	0	402653184	52	5915
2026-01-19 15:34:53.71	11.06	23.91	-39.5	-40.4	23.4	0.00e+00	55	41	0	404750336	52	5990
2026-01-19 15:34:54.72	10.96	24.05	-39.6	-40.5	23.4	0.00e+00	82	41	0	406847488	52	6076
2026-01-19 15:34:55.73	10.86	24.20	-39.7	-40.6	23.3	0.00e+00	92	41	0	408944640	52	6161
2026-01-19 15:34:56.73	10.76	24.34	-39.7	-40.6	23.3	0.00e+00	81	41	0	411041792	52	6150
2026-01-19 15:34:57.74	10.65	24.49	-39.9	-40.8	23.1	0.00e+00	82	41	0	412090368	52	6317
2026-01-19 15:34:58.75	10.55	24.63	-40.0	-41.0	23.0	0.00e+00	82	41	0	414187520	52	6394
2026-01-19 15:34:59.76	10.44	24.78	-40.1	-41.1	22.9	0.00e+00	81	41	0	416284672	52	6467
2026-01-19 15:35:00.77	10.34	24.93	-40.2	-41.2	22.7	0.00e+00	0	41	0	418381824	52	6562
2026-01-19 15:35:01.78	10.23	25.08	-40.3	-41.3	22.6	0.00e+00	81	41	0	420478976	52	6681
2026-01-19 15:35:02.79	10.12	25.23	-40.4	-41.4	22.5	0.00e+00	92	41	0	421527552	52	6751
2026-01-19 15:35:03.80	10.01	25.38	-40.6	-41.6	22.5	0.00e+00	0	41	0	423624704	52	6862
2026-01-19 15:35:04.81	9.90	25.53	-40.8	-41.9	22.2	0.00e+00	92	41	0	425721856	54	6320
2026-01-19 15:35:05.82	9.78	25.68	-40.8	-41.8	22.1	0.00e+00	2	41	0	427819008	54	6316
2026-01-19 15:35:06.83	9.67	25.83	-40.6	-41.7	22.1	0.00e+00	0	41	0	429916160	54	6192
2026-01-19 15:35:07.84	9.56	25.98	-40.8	-41.8	22.0	0.00e+00	2	41	0	432013312	54	6309
2026-01-19 15:35:08.85	9.44	26.14	-40.9	-42.0	22.0	0.00e+00	0	41	0	433061888	54	6407
2026-01-19 15:35:09.86	9.32	26.29	-40.9	-42.0	22.0	0.00e+00	92	41	0	435159040	54	6394
2026-01-19 15:35:10.86	9.21	26.45	-41.0	-42.1	21.9	0.00e+00	2	41	0	437256192	54	6524
2026-01-19 15:35:11.88	9.09	26.61	-41.2	-42.4	21.7	0.00e+00	92	41	0	439353344	54	6707
2026-01-19 15:35:12.88	8.97	26.76	-41.3	-42.5	21.6	0.00e+00	0	41	0	441450496	54	6788
2026-01-19 15:35:13.89	8.84	26.92	-41.4	-42.6	21.5	0.00e+00	0	41	0	442499072	54	6867
2026-01-19 15:35:14.90	8.72	27.08	-41.4	-42.6	21.5	0.00e+00	3	41	0	444596224	54	6871
2026-01-19 15:35:15.91	8.60	27.24	-41.6	-42.7	21.4	0.00e+00	0	41	0	446693376	54	6971
2026-01-19 15:35:16.92	8.47	27.40	-41.6	-42.7	21.4	0.00e+00	23	41	0	448790528	54	6966
2026-01-19 15:35:17.93	8.34	27.56	-41.6	-42.8	21.3	0.00e+00	80	41	0	450887680	54	7040
2026-01-19 15:35:18.94	8.22	27.72	-42.0	-43.3	20.9	0.00e+00	92	41	0	451936256	56	6617
2026-01-19 15:35:19.95	8.09	27.88	-42.0	-43.3	21.0	0.00e+00	0	41	0	454033408	56	6637
2026-01-19 15:35:20.96	7.95	28.05	-42.1	-43.3	20.9	0.00e+00	1	41	0	456130560	56	6650
2026-01-19 15:35:21.97	7.82	28.21	-42.3	-43.5	20.7	0.00e+00	2	41	0	458227712	56	6821
2026-01-19 15:35:22.98	7.69	28.37	-42.3	-43.5	20.9	0.00e+00	2	41	0	460324864	56	6808
2026-01-19 15:35:23.99	7.55	28.54	-42.3	-43.6	20.6	0.00e+00	75	41	0	461373440	56	6901
2026-01-19 15:35:25.00	7.42	28.71	-42.4	-43.7	20.6	0.00e+00	0	41	0	463470592	56	6963
2026-01-19 15:35:26.01	7.28	28.87	-42.3	-43.5	20.6	0.00e+00	92	41	0	465567744	56	6813
2026-01-19 15:35:27.02	7.14	29.04	-42.3	-43.6	20.6	0.00e+00	0	41	0	467664896	56	6860
2026-01-19 15:35:28.03	7.00	29.21	-42.3	-43.6	20.6	0.00e+00	92	41	0	469762048	56	6908
2026-01-19 15:35:29.04	6.85	29.38	-42.4	-43.7	20.3	0.00e+00	0	41	0	470810624	56	6931
2026-01-19 15:35:30.05	6.71	29.55	-42.5	-43.8	20.4	0.00e+00	0	41	0	472907776	56	7076
2026-01-19 15:35:31.06	6.56	29.72	-42.2	-43.4	20.8	0.00e+00	0	41	0	475004928	56	6750
2026-01-19 15:35:32.07	6.42	29.89	-42.4	-43.6	20.6	0.00e+00	0	41	0	477102080	56	6917
2026-01-19 15:35:33.08	6.27	30.07	-42.4	-43.7	20.5	0.00e+00	92	41	0	479199232	56	6966
2026-01-19 15:35:34.09	6.12	30.24	-42.0	-43.2	21.0	0.00e+00	0	41	0	480247808	56	6595
2026-01-19 15:35:35.10	5.96	30.42	-41.9	-43.1	21.1	0.00e+00	90	41	0	482344960	56	6527
2026-01-19 15:35:36.11	5.81	30.59	-41.7	-42.9	21.2	0.00e+00	0	41	0	484442112	56	6339
2026-01-19 15:35:37.12	5.65	30.77	-41.8	-43.0	21.2	0.00e+00	82	41	0	486539264	56	6430
2026-01-19 15:35:38.13	5.50	30.95	-41.8	-43.0	21.2	0.00e+00	2	41	0	488636416	56	6454
2026-01-19 15:35:39.14	5.34	31.12	-41.7	-42.8	21.3	0.00e+00	0	41	0	489684992	56	6300
2026-01-19 15:35:40.15	5.18	31.30	-42.2	-43.4	20.8	0.00e+00	89	41	0	491782144	56	6738
2026-01-19 15:35:41.16	5.01	31.48	-41.9	-43.1	20.9	0.00e+00	82	41	0	493879296	56	6534
2026-01-19 15:35:42.16	4.85	31.66	-41.7	-42.9	21.2	0.00e+00	91	41	0	495976448	56	6344
2026-01-19 15:35:43.17	4.68	31.84	-41.6	-42.8	21.4	0.00e+00	82	41	0	498073600	56	6255
2026-01-19 15:35:44.18	4.51	32.02	-41.8	-43.0	21.2	0.00e+00	92	41	0	500170752	56	6432
2026-01-19 15:35:45.19	4.34	32.21	-41.7	-42.9	21.2	0.00e+00	81	41	0	501219328	56	6361
2026-01-19 15:35:46.20	4.17	32.39	-41.9	-43.1	20.9	0.00e+00	0	41	0	503316480	56	6536
2026-01-19 15:35:47.21	4.00	32.58	-41.5	-42.6	21.6	0.00e+00	0	41	0	505413632	56	6149
2026-01-19 15:35:48.22	3.82	32.76	-41.5	-42.6	21.5	0.00e+00	0	41	0	507510784	56	6172
2026-01-19 15:35:49.23	3.64	32.95	-41.4	-42.6	21.6	0.00e+00	90	41	0	509607936	56	6115
2026-01-19 15:35:50.24	3.46	33.13	-41.6	-42.8	21.5	0.00e+00	0	41	0	510656512	56	6250
2026-01-19 15:35:51.25	3.28	33.32	-41.5	-42.7	21.6	0.00e+00	0	41	0	512753664	56	6212
2026-01-19 15:35:52.26	3.09	33.51	-41.6	-42.8	21.4	0.00e+00	0	41	0	514850816	56	6256
2026-01-19 15:35:53.27	2.91	33.70	-41.5	-42.6	21.5	0.00e+00	2	41	0	516947968	56	6167
2026-01-19 15:35:54.28	2.72	33.89	-41.5	-42.7	21.5	0.00e+00	0	41	0	519045120	56	6199
2026-01-19 15:35:55.29	2.52	34.08	-41.7	-42.8	21.3	0.00e+00	0	41	0	520093696	56	6316
2026-01-19 15:35:56.30	2.33	34.28	-41.8	-42.9	21.1	0.00e+00	90	41	0	522190848	56	6374
2026-01-19 15:35:57.31	2.13	34.47	-42.1	-43.3	21.0	0.00e+00	0	41	0	524288000	56	6655
2026-01-19 15:35:58.32	1.93	34.66	-42.4	-43.6	20.6	0.00e+00	92	41	0	526385152	56	6921
2026-01-19 15:35:59.33	1.73	34.86	-42.7	-44.1	20.1	0.00e+00	0	41	0	528482304	56	7307
2026-01-19 15:36:00.34	1.53	35.05	-42.8	-44.2	19.6	0.00e+00	0	41	0	529530880	58	6593
2026-01-19 15:36:01.34	1.33	35.25	-42.8	-44.2	20.1	0.00e+00	82	41	0	531628032	58	6571
2026-01-19 15:36:02.35	1.12	35.44	-42.7	-44.1	20.2	0.00e+00	2	41	0	533725184	58	6467
2026-01-19 15:36:03.36	0.90	35.64	-42.5	-43.9	20.3	0.00e+00	92	41	0	535822336	58	6341
2026-01-19 15:36:04.37	0.69	35.84	-42.4	-43.7	20.5	0.00e+00	0	41	0	537919488	58	6233
2026-01-19 15:36:05.38	0.47	36.04	-42.5	-43.9	20.4	0.00e+00	92	41	0	538968064	58	6344
2026-01-19 15:36:06.39	0.25	36.24	-42.7	-44.0	20.3	0.00e+00	81	41	0	541065216	58	6454
2026-01-19 15:36:07.40	0.03	36.44	-42.8	-44.2	20.1	0.00e+00	5	41	0	543162368	58	6552
2026-01-19 15:36:08.41	359.81	36.64	-42.9	-44.3	20.0	0.00e+00	0	41	0	545259520	58	6684
2026-01-19 15:36:09.42	359.58	36.84	-43.2	-44.7	19.6	0.00e+00	0	41	0	547356672	58	6946
2026-01-19 15:36:10.43	359.35	37.05	-43.0	-44.5	19.8	0.00e+00	0	41	0	548405248	58	6782
2026-01-19 15:36:11.44	359.12	37.25	-43.1	-44.5	19.7	0.00e+00	5	41	0	550502400	58	6836
2026-01-19 15:36:12.45	358.88	37.45	-43.0	-44.4	19.9	0.00e+00	92	41	0	552599552	58	6745
2026-01-19 15:36:13.46	358.64	37.66	-42.9	-44.3	20.0	0.00e+00	5	41	0	554696704	58	6658
2026-01-19 15:36:14.47	358.40	37.86	-42.9	-44.3	20.0	0.00e+00	92	41	0	556793856	58	6623
2026-01-19 15:36:15.48	358.15	38.07	-42.7	-44.1	20.1	0.00e+00	0	41	0	557842432	58	6484
2026-01-19 15:36:16.49	357.90	38.28	-42.9	-44.4	19.9	0.00e+00	0	41	0	559939584	58	6700
2026-01-19 15:36:17.50	357.65	38.49	-42.9	-44.3	20.0	0.00e+00	6	41	0	562036736	58	6672
2026-01-19 15:36:18.49	357.40	38.69	-42.9	-44.4	19.9	0.00e+00	0	41	0	564133888	58	6712
2026-01-19 15:36:19.50	357.14	38.90	-42.9	-44.3	20.0	0.00e+00	90	41	0	566231040	58	6684
2026-01-19 15:36:20.51	356.88	39.11	-42.9	-44.3	19.9	0.00e+00	86	41	0	568328192	58	6691
2026-01-19 15:36:21.52	356.61	39.32	-43.1	-44.6	19.9	0.00e+00	92	41	0	569376768	58	6857
2026-01-19 15:36:22.53	356.34	39.53	-43.0	-44.5	19.8	0.00e+00	86	41	0	571473920	58	6777
2026-01-19 15:36:23.54	356.07	39.74	-43.3	-44.9	19.5	0.00e+00	87	41	0	573571072	58	7106
2026-01-19 15:36:24.55	355.79	39.95	-43.4	-44.9	19.5	0.00e+00	86	41	0	575668224	58	7121
2026-01-19 15:36:25.56	355.51	40.16	-43.1	-44.6	19.6	0.00e+00	0	41	0	577765376	58	6882
2026-01-19 15:36:26.57	355.23	40.38	-43.1	-44.5	19.7	0.00e+00	68	41	0	578813952	58	6827
2026-01-19 15:36:27.58	354.94	40.59	-42.9	-44.3	20.0	0.00e+00	86	41	0	580911104	58	6657
2026-01-19 15:36:28.59	354.65	40.80	-43.2	-44.6	19.6	0.00e+00	90	41	0	583008256	58	6921
2026-01-19 15:36:29.60	354.36	41.02	-43.0	-44.4	19.9	0.00e+00	0	41	0	585105408	58	6759
2026-01-19 15:36:30.61	354.06	41.23	-42.8	-44.2	20.1	0.00e+00	68	41	0	587202560	58	6583
2026-01-19 15:36:31.62	353.75	41.45	-42.7	-44.0	20.4	0.00e+00	6	41	0	588251136	58	6456
2026-01-19 15:36:32.63	353.45	41.66	-41.9	-43.1	21.1	0.00e+00	0	41	0	590348288	58	5802
2026-01-19 15:36:33.63	353.14	41.88	-41.7	-42.9	21.1	0.00e+00	0	41	0	592445440	56	6350
2026-01-19 15:36:34.64	352.82	42.09	-41.9	-43.1	21.0	0.00e+00	6	41	0	594542592	56	6507
2026-01-19 15:36:35.65	352.50	42.31	-42.0	-43.2	21.1	0.00e+00	90	41	0	596639744	56	6603
2026-01-19 15:36:36.66	352.18	42.52	-41.7	-42.9	21.3	0.00e+00	0	41	0	597688320	56	6357
2026-01-19 15:36:37.67	351.85	42.74	-41.6	-42.8	21.4	0.00e+00	92	41	0	599785472	56	6293
2026-01-19 15:36:38.68	351.51	42.96	-41.6	-42.8	21.5	0.00e+00	0	41	0	601882624	56	6249
2026-01-19 15:36:39.69	351.18	43.17	-41.6	-42.8	21.5	0.00e+00	0	41	0	603979776	56	6267
2026-01-19 15:36:40.70	350.83	43.39	-41.7	-42.9	21.4	0.00e+00	55	41	0	606076928	56	6333
2026-01-19 15:36:41.71	350.49	43.61	-41.3	-42.4	21.8	0.00e+00	80	41	0	607125504	56	6030
2026-01-19 15:36:42.72	350.13	43.82	-41.3	-42.4	21.8	0.00e+00	91	41	0	609222656	56	5980
2026-01-19 15:36:43.73	349.78	44.04	-41.6	-42.7	21.5	0.00e+00	0	41	0	611319808	56	6242
2026-01-19 15:36:44.74	349.41	44.26	-41.8	-43.0	21.1	0.00e+00	92	41	0	613416960	56	6455
2026-01-19 15:36:45.75	349.05	44.47	-42.0	-43.3	21.0	0.00e+00	0	41	0	615514112	56	6616
2026-01-19 15:36:46.76	348.68	44.69	-42.1	-43.4	20.8	0.00e+00	0	41	0	616562688	56	6724
2026-01-19 15:36:47.77	348.30	44.91	-42.2	-43.5	20.6	0.00e+00	83	41	0	618659840	56	6833
2026-01-19 15:36:48.78	347.92	45.12	-42.5	-43.8	20.5	0.00e+00	0	41	0	620756992	56	7045
2026-01-19 15:36:49.79	347.53	45.34	-42.8	-44.1	20.0	0.00e+00	67	41	0	622854144	56	7319
2026-01-19 15:36:50.79	347.14	45.55	-42.5	-43.8	20.4	0.00e+00	0	41	0	624951296	58	6317
2026-01-19 15:36:51.80	346.74	45.77	-42.2	-43.5	20.9	0.00e+00	92	41	0	625999872	58	6058
2026-01-19 15:36:52.81	346.34	45.98	-41.8	-43.0	21.3	0.00e+00	0	41	0	628097024	56	6407
2026-01-19 15:36:53.82	345.93	46.20	-41.9	-43.1	21.2	0.00e+00	90	41	0	630194176	56	6507
2026-01-19 15:36:54.83	345.51	46.41	-41.9	-43.0	21.2	0.00e+00	0	41	0	632291328	56	6449
2026-01-19 15:36:55.84	345.09	46.62	-42.0	-43.2	21.1	0.00e+00	0	41	0	634388480	56	6551
2026-01-19 15:36:56.85	344.66	46.84	-42.2	-43.4	20.9	0.00e+00	0	41	0	636485632	56	6760
2026-01-19 15:36:57.86	344.23	47.05	-42.5	-43.8	20.6	0.00e+00	0	41	0	637534208	56	7024
2026-01-19 15:36:58.87	343.79	47.26	-42.9	-44.4	20.1	0.00e+00	90	41	0	639631360	58	6693
2026-01-19 15:36:59.88	343.35	47.47	-42.9	-44.2	20.2	0.00e+00	0	41	0	641728512	58	6606
2026-01-19 15:37:00.89	342.90	47.68	-42.9	-44.3	20.1	0.00e+00	92	41	0	643825664	58	6620
2026-01-19 15:37:01.90	342.44	47.89	-42.8	-44.2	20.1	0.00e+00	0	41	0	645922816	58	6598
2026-01-19 15:37:02.91	341.98	48.09	-42.7	-44.1	20.3	0.00e+00	0	41	0	646971392	58	6497
2026-01-19 15:37:03.92	341.51	48.30	-42.9	-44.3	20.1	0.00e+00	81	41	0	649068544	58	6674
2026-01-19 15:37:04.93	341.03	48.51	-42.6	-44.0	20.4	0.00e+00	0	41	0	651165696	58	6420
2026-01-19 15:37:05.94	340.55	48.71	-42.5	-43.8	20.5	0.00e+00	92	41	0	653262848	58	6304
2026-01-19 15:37:06.95	340.06	48.91	-41.8	-43.1	21.3	0.00e+00	5	41	0	655360000	58	5777
2026-01-19 15:37:07.96	339.57	49.11	-41.7	-42.9	21.5	0.00e+00	92	41	0	656408576	56	6326
2026-01-19 15:37:08.97	339.06	49.31	-41.4	-42.5	21.8	0.00e+00	0	41	0	658505728	56	6098
2026-01-19 15:37:09.98	338.56	49.51	-41.4	-42.6	21.8	0.00e+00	0	41	0	660602880	56	6105
2026-01-19 15:37:10.99	338.04	49.71	-41.1	-42.2	22.1	0.00e+00	81	41	0	662700032	56	5867
2026-01-19 15:37:12.00	337.52	49.91	-41.1	-42.2	22.0	0.00e+00	0	41	0	664797184	56	5860
2026-01-19 15:37:13.01	336.99	50.10	-40.3	-41.4	22.5	0.00e+00	69	41	0	665845760	54	5991
2026-01-19 15:37:14.02	336.46	50.29	-40.2	-41.2	22.9	0.00e+00	0	41	0	667942912	54	5842
2026-01-19 15:37:15.03	335.91	50.48	-40.0	-41.0	23.1	0.00e+00	92	41	0	670040064	54	5728
2026-01-19 15:37:16.03	335.37	50.67	-39.7	-40.6	23.3	0.00e+00	0	41	0	672137216	54	5483
2026-01-19 15:37:17.04	334.81	50.85	-39.6	-40.5	23.4	0.00e+00	10	41	0	674234368	52	6068
2026-01-19 15:37:18.06	334.25	51.04	-39.2	-40.1	23.8	0.00e+00	2	41	0	675282944	52	5802
2026-01-19 15:37:19.06	333.68	51.22	-39.1	-39.9	23.9	0.00e+00	0	41	0	677380096	52	5694
2026-01-19 15:37:20.07	333.11	51.40	-39.2	-40.1	23.9	0.00e+00	0	41	0	679477248	52	5768
2026-01-19 15:37:21.08	332.52	51.57	-39.1	-39.9	24.0	0.00e+00	0	41	0	681574400	52	5679
2026-01-19 15:37:22.09	331.93	51.75	-39.1	-39.9	24.0	0.00e+00	92	41	0	683671552	52	5663
2026-01-19 15:37:23.10	331.33	51.92	-38.9	-39.7	24.2	0.00e+00	0	41	0	684720128	52	5556
2026-01-19 15:37:24.11	330.73	52.09	-39.0	-39.8	24.0	0.00e+00	92	41	0	686817280	52	5630
2026-01-19 15:37:25.12	330.12	52.25	-39.1	-40.0	24.0	0.00e+00	0	41	0	688914432	52	5702
2026-01-19 15:37:26.13	329.50	52.42	-38.9	-39.8	24.2	0.00e+00	0	41	0	691011584	52	5570
2026-01-19 15:37:27.14	328.88	52.58	-38.6	-39.5	24.5	0.00e+00	0	41	0	693108736	50	6050
2026-01-19 15:37:28.15	328.24	52.73	-38.8	-39.7	24.3	0.00e+00	81	41	0	694157312	50	6175
2026-01-19 15:37:29.16	327.61	52.89	-39.0	-39.9	23.9	0.00e+00	90	41	0	696254464	50	6339
2026-01-19 15:37:30.17	326.96	53.04	-39.4	-40.2	23.9	0.00e+00	0	41	0	698351616	50	6613
2026-01-19 15:37:31.18	326.31	53.19	-39.3	-40.2	23.7	0.00e+00	92	41	0	700448768	50	6561
2026-01-19 15:37:32.19	325.65	53.33	-39.6	-40.5	23.5	0.00e+00	81	41	0	702545920	50	6805
2026-01-19 15:37:33.20	324.99	53.47	-39.7	-40.6	23.3	0.00e+00	0	41	0	704643072	50	6901
2026-01-19 15:37:34.21	324.31	53.61	-40.1	-41.1	23.0	0.00e+00	0	41	0	705691648	52	6470
2026-01-19 15:37:35.22	323.64	53.74	-40.3	-41.3	22.8	0.00e+00	0	41	0	707788800	52	6670
2026-01-19 15:37:36.23	322.95	53.87	-40.1	-41.1	23.0	0.00e+00	80	41	0	709885952	52	6486
2026-01-19 15:37:37.24	322.26	54.00	-39.5	-40.5	23.5	0.00e+00	0	41	0	711983104	52	6035
2026-01-19 15:37:38.25	321.57	54.12	-39.1	-40.0	24.0	0.00e+00	92	41	0	714080256	52	5728
2026-01-19 15:37:39.26	320.86	54.23	-39.0	-39.9	24.1	0.00e+00	0	41	0	715128832	52	5689
2026-01-19 15:37:40.27	320.16	54.35	-39.1	-39.9	24.0	0.00e+00	0	41	0	717225984	52	5692
2026-01-19 15:37:41.28	319.44	54.46	-38.9	-39.8	24.2	0.00e+00	0	41	0	719323136	52	5596
2026-01-19 15:37:42.29	318.73	54.56	-38.6	-39.4	24.4	0.00e+00	0	41	0	721420288	50	6024
2026-01-19 15:37:43.29	318.01	54.66	-38.9	-39.8	24.0	0.00e+00	0	41	0	723517440	50	6262
2026-01-19 15:37:44.31	317.27	54.76	-39.2	-40.1	23.7	0.00e+00	80	41	0	724566016	50	6483
2026-01-19 15:37:45.31	316.55	54.85	-39.7	-40.6	23.8	0.00e+00	90	41	0	726663168	50	6874
2026-01-19 15:37:46.32	315.81	54.94	-39.0	-39.9	24.1	0.00e+00	0	41	0	728760320	50	6371
2026-01-19 15:37:47.33	315.06	55.02	-38.7	-39.6	24.3	0.00e+00	32	41	0	730857472	50	6140
2026-01-19 15:37:48.34	314.32	55.10	-38.5	-39.4	24.7	0.00e+00	81	41	0	732954624	50	5984
2026-01-19 15:37:49.35	313.57	55.17	-38.1	-39.0	24.9	0.00e+00	0	41	0	734003200	50	5704
2026-01-19 15:37:50.36	312.81	55.24	-38.0	-38.8	25.0	0.00e+00	0	41	0	736100352	50	5626
2026-01-19 15:37:51.37	312.05	55.30	-37.8	-38.6	25.2	0.00e+00	81	41	0	738197504	50	5452
2026-01-19 15:37:52.38	311.29	55.36	-37.8	-38.6	25.1	0.00e+00	90	41	0	740294656	48	6147
2026-01-19 15:37:53.39	310.53	55.42	-37.6	-38.4	25.4	0.00e+00	81	41	0	742391808	48	5996
2026-01-19 15:37:54.39	309.77	55.46	-37.5	-38.3	25.4	0.00e+00	92	41	0	743440384	48	5928
2026-01-19 15:37:55.40	309.00	55.51	-37.1	-37.9	25.7	0.00e+00	4	41	0	745537536	48	5637
2026-01-19 15:37:56.41	308.22	55.55	-37.1	-37.9	25.6	0.00e+00	5	41	0	747634688	48	5648
2026-01-19 15:37:57.42	307.45	55.58	-37.3	-38.1	25.7	0.00e+00	0	41	0	749731840	48	5792
2026-01-19 15:37:58.43	306.67	55.61	-37.4	-38.1	25.6	0.00e+00	0	41	0	751828992	48	5824
2026-01-19 15:37:59.44	305.90	55.63	-37.1	-37.8	25.7	0.00e+00	9	41	0	752877568	48	5602
2026-01-19 15:38:00.45	305.12	55.65	-37.2	-38.0	25.7	0.00e+00	0	41	0	754974720	48	5704
2026-01-19 15:38:01.46	304.34	55.66	-37.6	-38.4	25.5	0.00e+00	92	41	0	757071872	48	6000
2026-01-19 15:38:02.47	303.56	55.67	-37.5	-38.2	25.4	0.00e+00	7	41	0	759169024	48	5893
2026-01-19 15:38:03.48	302.78	55.67	-37.7	-38.5	25.5	0.00e+00	5	41	0	761266176	48	6055
2026-01-19 15:38:04.49	302.00	55.67	-37.8	-38.6	25.3	0.00e+00	5	41	0	762314752	48	6106
2026-01-19 15:38:05.49	301.22	55.66	-37.8	-38.6	24.5	0.00e+00	0	41	0	764411904	48	6166
2026-01-19 15:38:06.50	300.45	55.65	-38.1	-38.9	24.7	0.00e+00	0	41	0	766509056	48	6385
2026-01-19 15:38:07.51	299.67	55.63	-38.2	-39.0	24.8	0.00e+00	83	41	0	768606208	48	6444
2026-01-19 15:38:08.52	298.89	55.60	-38.7	-39.6	24.5	0.00e+00	92	41	0	770703360	48	6878
2026-01-19 15:38:09.53	298.11	55.57	-38.4	-39.3	24.7	0.00e+00	0	41	0	771751936	48	6637
2026-01-19 15:38:10.54	297.34	55.54	-38.5	-39.4	24.8	0.00e+00	92	41	0	773849088	48	6708
2026-01-19 15:38:11.55	296.57	55.50	-38.3	-39.1	24.8	0.00e+00	84	41	0	775946240	48	6478
2026-01-19 15:38:12.56	295.80	55.46	-38.1	-38.9	25.2	0.00e+00	83	41	0	778043392	48	6339
2026-01-19 15:38:13.57	295.03	55.41	-37.8	-38.6	25.3	0.00e+00	85	41	0	780140544	48	6156
2026-01-19 15:38:14.58	294.26	55.35	-38.0	-38.8	25.2	0.00e+00	0	41	0	781189120	48	6262
2026-01-19 15:38:15.59	293.50	55.29	-37.4	-38.2	25.6	0.00e+00	79	41	0	783286272	48	5859
2026-01-19 15:38:16.60	292.74	55.23	-37.1	-37.9	25.6	0.00e+00	7	41	0	785383424	48	5631
2026-01-19 15:38:17.61	291.99	55.16	-36.4	-37.1	26.4	0.00e+00	92	41	0	787480576	46	5812
2026-01-19 15:38:18.62	291.24	55.09	-36.6	-37.4	26.4	0.00e+00	6	41	0	789577728	46	5968
2026-01-19 15:38:19.63	290.49	55.01	-36.4	-37.1	26.4	0.00e+00	0	41	0	790626304	46	5808
2026-01-19 15:38:20.64	289.75	54.92	-36.9	-37.6	26.2	0.00e+00	6	41	0	792723456	46	6139
2026-01-19 15:38:21.65	289.01	54.83	-36.7	-37.4	26.2	0.00e+00	7	41	0	794820608	46	5992
2026-01-19 15:38:22.66	288.28	54.74	-36.4	-37.1	26.4	0.00e+00	0	41	0	796917760	46	5814
2026-01-19 15:38:23.67	287.55	54.64	-36.2	-36.9	26.5	0.00e+00	0	41	0	799014912	46	5694
2026-01-19 15:38:24.68	286.83	54.54	-36.1	-36.8	26.5	0.00e+00	90	41	0	801112064	46	5613
2026-01-19 15:38:25.69	286.11	54.44	-36.4	-37.1	26.5	0.00e+00	0	41	0	802160640	46	5768
2026-01-19 15:38:26.70	285.40	54.33	-36.6	-37.3	26.2	0.00e+00	80	41	0	804257792	46	5962
2026-01-19 15:38:27.71	284.69	54.21	-37.2	-37.9	25.5	0.00e+00	83	41	0	806354944	46	6351
2026-01-19 15:38:28.72	283.99	54.09	-37.2	-37.9	26.0	0.00e+00	81	41	0	808452096	46	6368
2026-01-19 15:38:29.73	283.29	53.97	-37.2	-38.0	25.8	0.00e+00	2	41	0	810549248	46	6407
2026-01-19 15:38:30.74	282.60	53.84	-37.7	-38.4	25.6	0.00e+00	0	41	0	811597824	46	6740
2026-01-19 15:38:31.75	281.92	53.71	-37.9	-38.7	25.2	0.00e+00	90	41	0	813694976	48	6204
2026-01-19 15:38:32.76	281.24	53.58	-38.3	-39.1	25.0	0.00e+00	0	41	0	815792128	48	6487
2026-01-19 15:38:33.77	280.57	53.44	-38.3	-39.2	24.8	0.00e+00	92	41	0	817889280	48	6541
2026-01-19 15:38:34.78	279.90	53.30	-38.5	-39.3	24.7	0.00e+00	81	41	0	819986432	48	6648
2026-01-19 15:38:35.79	279.25	53.16	-39.0	-39.8	24.5	0.00e+00	0	41	0	821035008	50	6292
2026-01-19 15:38:36.79	278.60	53.01	-39.0	-39.9	24.2	0.00e+00	0	41	0	823132160	50	6331
2026-01-19 15:38:37.80	277.96	52.86	-39.6	-40.5	24.0	0.00e+00	0	41	0	825229312	50	6782
2026-01-19 15:38:38.81	277.32	52.70	-39.9	-40.8	23.8	0.00e+00	91	41	0	827326464	52	6261
2026-01-19 15:38:39.82	276.69	52.54	-40.0	-40.9	23.7	0.00e+00	0	41	0	829423616	52	6351
2026-01-19 15:38:40.84	276.06	52.38	-39.9	-40.8	23.9	0.00e+00	92	41	0	830472192	52	6280
2026-01-19 15:38:41.85	275.44	52.22	-39.6	-40.5	24.0	0.00e+00	0	41	0	832569344	52	6066
2026-01-19 15:38:42.86	274.83	52.05	-39.4	-40.3	24.1	0.00e+00	0	41	0	834666496	52	5912
2026-01-19 15:38:43.87	274.22	51.88	-39.5	-40.4	24.0	0.00e+00	2	41	0	836763648	52	5989
2026-01-19 15:38:44.88	273.63	51.71	-39.5	-40.3	24.0	0.00e+00	0	41	0	838860800	52	5952
2026-01-19 15:38:45.89	273.04	51.53	-39.7	-40.5	23.8	0.00e+00	0	41	0	839909376	52	6090
2026-01-19 15:38:46.90	272.46	51.36	-39.7	-40.6	23.6	0.00e+00	82	41	0	842006528	52	6131
2026-01-19 15:38:47.91	271.88	51.18	-39.9	-40.8	23.2	0.00e+00	92	41	0	844103680	52	6307
2026-01-19 15:38:48.92	271.31	50.99	-40.1	-41.1	23.0	0.00e+00	81	41	0	846200832	52	6475
2026-01-19 15:38:49.93	270.75	50.81	-40.1	-41.0	23.2	0.00e+00	81	41	0	848297984	52	6428
2026-01-19 15:38:50.94	270.19	50.62	-40.0	-41.0	23.2	0.00e+00	4	41	0	849346560	52	6411
2026-01-19 15:38:51.95	269.64	50.44	-40.3	-41.3	22.8	0.00e+00	0	41	0	851443712	52	6617
2026-01-19 15:38:52.95	269.11	50.25	-40.7	-41.7	22.6	0.00e+00	10	41	0	853540864	52	6937
2026-01-19 15:38:53.96	268.57	50.05	-40.8	-41.8	22.5	0.00e+00	81	41	0	855638016	54	6308
2026-01-19 15:38:54.97	268.05	49.86	-40.9	-42.0	22.5	0.00e+00	92	41	0	857735168	54	6399
2026-01-19 15:38:55.98	267.52	49.66	-41.1	-42.2	22.1	0.00e+00	82	41	0	858783744	54	6555
2026-01-19 15:38:56.99	267.01	49.47	-41.5	-42.6	21.8	0.00e+00	86	41	0	860880896	54	6899
2026-01-19 15:38:58.00	266.50	49.27	-41.8	-43.0	21.5	0.00e+00	0	41	0	862978048	56	6391
2026-01-19 15:38:59.01	266.00	49.07	-42.1	-43.3	21.2	0.00e+00	0	41	0	865075200	56	6628
2026-01-19 15:39:00.02	265.51	48.86	-42.3	-43.5	20.9	0.00e+00	2	41	0	867172352	56	6825
2026-01-19 15:39:01.03	265.02	48.66	-42.6	-43.8	20.7	0.00e+00	0	41	0	869269504	56	7058
2026-01-19 15:39:02.04	264.54	48.46	-42.9	-44.3	20.3	0.00e+00	90	41	0	870318080	58	6635
2026-01-19 15:39:03.05	264.06	48.25	-43.6	-45.0	19.7	0.00e+00	0	41	0	872415232	58	7243
2026-01-19 15:39:04.06	263.59	48.04	-44.1	-45.7	18.9	0.00e+00	92	41	0	874512384	60	6949
2026-01-19 15:39:05.07	263.13	47.83	-44.3	-46.0	18.6	0.00e+00	2	41	0	876609536	60	7236
2026-01-19 15:39:06.08	262.67	47.63	-44.6	-46.4	18.2	0.00e+00	0	41	0	878706688	60	7538
2026-01-19 15:39:07.09	262.22	47.42	-44.5	-46.3	18.2	0.00e+00	0	41	0	879755264	60	7478
2026-01-19 15:39:08.10	261.78	47.20	-43.8	-45.4	19.3	0.00e+00	81	41	0	881852416	60	6701
2026-01-19 15:39:09.11	261.34	46.99	-43.5	-45.0	19.5	0.00e+00	2	41	0	883949568	60	6408
2026-01-19 15:39:10.12	260.91	46.78	-44.0	-45.6	18.9	0.00e+00	80	41	0	886046720	60	6891
2026-01-19 15:39:11.13	260.48	46.57	-44.3	-46.0	18.8	0.00e+00	92	41	0	888143872	60	7210
2026-01-19 15:39:12.14	260.06	46.35	-44.0	-45.6	19.0	0.00e+00	81	41	0	889192448	60	6874
2026-01-19 15:39:13.15	259.64	46.14	-43.7	-45.3	19.4	0.00e+00	69	41	0	891289600	60	6626
2026-01-19 15:39:14.16	259.24	45.92	-43.6	-45.2	19.4	0.00e+00	0	41	0	893386752	60	6565
2026-01-19 15:39:15.17	258.83	45.71	-43.4	-44.9	19.5	0.00e+00	0	41	0	895483904	60	6355
2026-01-19 15:39:16.17	258.44	45.49	-43.0	-44.4	20.1	0.00e+00	82	41	0	897581056	60	5983
2026-01-19 15:39:17.18	258.04	45.28	-43.0	-44.4	20.0	0.00e+00	0	41	0	898629632	60	6012
2026-01-19 15:39:18.19	257.66	45.06	-42.9	-44.3	20.1	0.00e+00	92	41	0	900726784	60	5909
2026-01-19 15:39:19.20	257.27	44.84	-42.4	-43.6	20.7	0.00e+00	0	41	0	902823936	58	6160
2026-01-19 15:39:20.21	256.90	44.63	-41.9	-43.2	21.1	0.00e+00	90	41	0	904921088	58	5829
2026-01-19 15:39:21.22	256.53	44.41	-42.0	-43.2	21.0	0.00e+00	2	41	0	907018240	58	5839
2026-01-19 15:39:22.23	256.16	44.19	-42.0	-43.3	20.9	0.00e+00	0	41	0	908066816	58	5903
2026-01-19 15:39:23.24	255.80	43.98	-42.2	-43.4	20.9	0.00e+00	0	41	0	910163968	58	6016
2026-01-19 15:39:24.25	255.44	43.76	-41.9	-43.1	21.0	0.00e+00	2	41	0	912261120	58	5812
2026-01-19 15:39:25.26	255.09	43.54	-42.2	-43.4	20.9	0.00e+00	92	41	0	914358272	58	5999
2026-01-19 15:39:26.27	254.74	43.32	-42.2	-43.4	20.8	0.00e+00	0	41	0	916455424	58	5995
2026-01-19 15:39:27.28	254.40	43.11	-42.1	-43.3	20.9	0.00e+00	92	41	0	917504000	58	5923
2026-01-19 15:39:28.29	254.06	42.89	-41.9	-43.1	21.1	0.00e+00	0	41	0	919601152	58	5789
2026-01-19 15:39:29.30	253.73	42.67	-42.1	-43.3	21.0	0.00e+00	0	41	0	921698304	58	5950
2026-01-19 15:39:30.31	253.40	42.45	-42.3	-43.5	20.7	0.00e+00	0	41	0	923795456	58	6102
2026-01-19 15:39:31.32	253.07	42.24	-42.5	-43.8	20.5	0.00e+00	0	41	0	925892608	58	6276
2026-01-19 15:39:32.33	252.75	42.02	-42.6	-43.9	20.3	0.00e+00	0	41	0	926941184	58	6368
2026-01-19 15:39:33.34	252.44	41.80	-43.0	-44.4	19.9	0.00e+00	0	41	0	929038336	58	6735
2026-01-19 15:39:34.35	252.13	41.59	-43.4	-44.9	19.4	0.00e+00	90	41	0	931135488	58	7147
2026-01-19 15:39:35.36	251.82	41.37	-43.4	-44.8	19.5	0.00e+00	82	41	0	933232640	58	7077
2026-01-19 15:39:36.37	251.52	41.16	-43.5	-45.0	19.4	0.00e+00	92	41	0	935329792	58	7180
2026-01-19 15:39:37.38	251.22	40.94	-43.8	-45.4	19.1	0.00e+00	0	41	0	937426944	58	7548
2026-01-19 15:39:38.39	250.92	40.73	-44.0	-45.6	19.0	0.00e+00	0	41	0	938475520	60	6881
2026-01-19 15:39:39.40	250.63	40.51	-43.8	-45.4	19.1	0.00e+00	0	41	0	940572672	60	6694
2026-01-19 15:39:40.41	250.34	40.30	-43.9	-45.4	19.2	0.00e+00	5	41	0	942669824	60	6763
2026-01-19 15:39:41.42	250.06	40.09	-43.5	-45.0	19.4	0.00e+00	92	41	0	944766976	60	6454
2026-01-19 15:39:42.43	249.78	39.87	-44.0	-45.6	18.8	0.00e+00	5	41	0	946864128	60	6861
2026-01-19 15:39:43.43	249.51	39.66	-43.8	-45.3	19.4	0.00e+00	92	41	0	947912704	60	6656
2026-01-19 15:39:44.44	249.23	39.45	-43.9	-45.5	19.2	0.00e+00	0	41	0	950009856	60	6803
2026-01-19 15:39:45.45	248.96	39.24	-43.9	-45.4	19.0	0.00e+00	7	41	0	952107008	60	6759
2026-01-19 15:39:46.46	248.70	39.03	-43.9	-45.5	19.0	0.00e+00	5	41	0	954204160	60	6835
2026-01-19 15:39:47.47	248.44	38.82	-43.7	-45.2	19.1	0.00e+00	5	41	0	956301312	60	6593
2026-01-19 15:39:48.48	248.18	38.61	-43.7	-45.2	19.5	0.00e+00	0	41	0	957349888	60	6595
2026-01-19 15:39:49.49	247.92	38.40	-43.0	-44.4	20.0	0.00e+00	0	41	0	959447040	60	6011
2026-01-19 15:39:50.50	247.67	38.19	-43.0	-44.3	20.2	0.00e+00	92	41	0	961544192	60	5963
2026-01-19 15:39:51.51	247.42	37.99	-42.9	-44.2	20.2	0.00e+00	0	41	0	963641344	60	5873
2026-01-19 15:39:52.52	247.18	37.78	-43.3	-44.8	19.7	0.00e+00	86	41	0	965738496	60	6247
2026-01-19 15:39:53.53	246.93	37.57	-43.5	-44.9	19.7	0.00e+00	0	41	0	966787072	60	6388
2026-01-19 15:39:54.54	246.69	37.37	-43.1	-44.4	20.1	0.00e+00	85	41	0	968884224	60	6003
2026-01-19 15:39:55.55	246.46	37.16	-42.6	-43.9	20.6	0.00e+00	51	41	0	970981376	58	6367
2026-01-19 15:39:56.56	246.22	36.96	-42.6	-43.9	20.6	0.00e+00	0	41	0	973078528	58	6353
2026-01-19 15:39:57.57	245.99	36.75	-42.7	-44.0	20.5	0.00e+00	90	41	0	975175680	58	6445
2026-01-19 15:39:58.58	245.76	36.55	-43.1	-44.5	20.2	0.00e+00	0	41	0	976224256	58	6813
2026-01-19 15:39:59.59	245.54	36.35	-42.8	-44.1	20.3	0.00e+00	90	41	0	978321408	58	6534
2026-01-19 15:40:00.59	245.32	36.15	-42.7	-44.0	20.5	0.00e+00	0	41	0	980418560	58	6407
2026-01-19 15:40:01.60	245.10	35.95	-42.3	-43.6	20.9	0.00e+00	0	41	0	982515712	58	6104
2026-01-19 15:40:02.61	244.88	35.75	-42.3	-43.6	20.9	0.00e+00	0	41	0	984612864	58	6121
2026-01-19 15:40:03.62	244.67	35.55	-42.0	-43.2	21.1	0.00e+00	7	41	0	985661440	58	5874
2026-01-19 15:40:04.63	244.46	35.35	-42.1	-43.3	21.2	0.00e+00	92	41	0	987758592	58	5912
2026-01-19 15:40:05.64	244.25	35.16	-41.9	-43.0	21.3	0.00e+00	0	41	0	989855744	58	5743
2026-01-19 15:40:06.65	244.04	34.96	-42.0	-43.2	21.2	0.00e+00	92	41	0	991952896	58	5843
2026-01-19 15:40:07.66	243.84	34.76	-42.2	-43.4	21.0	0.00e+00	6	41	0	994050048	58	6030
2026-01-19 15:40:08.67	243.64	34.57	-42.4	-43.7	20.7	0.00e+00	0	41	0	995098624	58	6187
2026-01-19 15:40:09.67	243.44	34.38	-42.6	-43.9	20.5	0.00e+00	8	41	0	997195776	58	6326
2026-01-19 15:40:10.68	243.24	34.18	-42.6	-43.9	20.4	0.00e+00	7	41	0	999292928	58	6380
2026-01-19 15:40:11.69	243.05	33.99	-42.6	-43.9	20.4	0.00e+00	0	41	0	1001390080	58	6326
2026-01-19 15:40:12.70	242.86	33.80	-42.5	-43.8	20.6	0.00e+00	0	41	0	1003487232	58	6292
2026-01-19 15:40:13.71	242.67	33.61	-42.6	-43.9	20.6	0.00e+00	92	41	0	1005584384	58	6324
2026-01-19 15:40:14.72	242.48	33.42	-42.8	-44.0	20.5	0.00e+00	0	41	0	1006632960	58	6461
2026-01-19 15:40:15.73	242.30	33.23	-42.6	-43.8	20.6	0.00e+00	82	41	0	1008730112	58	6315
2026-01-19 15:40:16.74	242.11	33.04	-42.1	-43.3	21.1	0.00e+00	0	41	0	1010827264	58	5913
2026-01-19 15:40:17.75	241.93	32.85	-42.0	-43.2	21.0	0.00e+00	83	41	0	1012924416	58	5860
2026-01-19 15:40:18.75	241.75	32.67	-42.0	-43.2	21.2	0.00e+00	81	41	0	1015021568	58	5855
2026-01-19 15:40:19.76	241.58	32.48	-42.0	-43.1	21.2	0.00e+00	0	41	0	1016070144	58	5827
2026-01-19 15:40:20.77	241.40	32.30	-42.0	-43.1	21.2	0.00e+00	92	41	0	1018167296	58	5827
2026-01-19 15:40:21.78	241.23	32.11	-42.0	-43.2	21.1	0.00e+00	0	41	0	1020264448	58	5865
2026-01-19 15:40:22.79	241.06	31.93	-42.2	-43.5	20.8	0.00e+00	92	41	0	1022361600	58	6041
2026-01-19 15:40:23.80	240.89	31.75	-42.3	-43.5	20.8	0.00e+00	2	41	0	1024458752	58	6100
2026-01-19 15:40:24.81	240.72	31.57	-42.4	-43.7	20.6	0.00e+00	0	41	0	1025507328	58	6226
2026-01-19 15:40:25.82	240.56	31.38	-42.6	-43.9	20.4	0.00e+00	0	41	0	1027604480	58	6331
2026-01-19 15:40:26.83	240.40	31.20	-42.8	-44.2	20.2	0.00e+00	0	41	0	1029701632	58	6566
2026-01-19 15:40:27.83	240.24	31.03	-42.6	-43.9	20.4	0.00e+00	76	41	0	1031798784	58	6386
2026-01-19 15:40:28.84	240.08	30.85	-42.4	-43.7	20.7	0.00e+00	0	41	0	1033895936	58	6190
2026-01-19 15:40:29.86	239.92	30.67	-42.3	-43.5	20.8	0.00e+00	91	41	0	1034944512	58	6101
2026-01-19 15:40:30.87	239.76	30.49	-42.0	-43.3	21.0	0.00e+00	2	41	0	1037041664	58	5901
2026-01-19 15:40:31.87	239.61	30.32	-42.2	-43.4	20.8	0.00e+00	0	41	0	1039138816	58	6033
2026-01-19 15:40:32.88	239.46	30.14	-42.4	-43.6	20.5	0.00e+00	0	41	0	1041235968	58	6165
2026-01-19 15:40:33.89	239.31	29.97	-42.5	-43.8	20.5	0.00e+00	0	41	0	1043333120	58	6265
2026-01-19 15:40:34.90	239.16	29.80	-42.5	-43.8	20.3	0.00e+00	86	41	0	1044381696	58	6317
2026-01-19 15:40:35.91	239.01	29.62	-41.9	-43.1	21.1	0.00e+00	81	41	0	1046478848	58	5772
2026-01-19 15:40:36.92	238.86	29.45	-41.6	-42.7	21.6	0.00e+00	92	41	0	1048576000	56	6200
2026-01-19 15:40:37.93	238.72	29.28	-41.3	-42.4	21.8	0.00e+00	81	41	0	1050673152	56	6010
2026-01-19 15:40:38.94	238.57	29.11	-41.2	-42.2	22.0	0.00e+00	92	41	0	1052770304	56	5884
2026-01-19 15:40:39.94	238.43	28.94	-41.1	-42.2	22.1	0.00e+00	82	41	0	1053818880	56	5860
2026-01-19 15:40:40.95	238.29	28.77	-41.1	-42.1	22.0	0.00e+00	80	41	0	1055916032	56	5814
2026-01-19 15:40:41.95	238.16	28.61	-41.2	-42.3	21.9	0.00e+00	77	41	0	1058013184	56	5897
2026-01-19 15:40:42.96	238.02	28.44	-41.3	-42.4	21.7	0.00e+00	4	41	0	1060110336	56	6006
2026-01-19 15:40:43.97	237.89	28.28	-41.1	-42.1	22.0	0.00e+00	91	41	0	1062207488	56	5806
2026-01-19 15:40:44.98	237.75	28.11	-41.2	-42.3	21.9	0.00e+00	82	41	0	1063256064	56	5904
2026-01-19 15:40:45.99	237.62	27.95	-41.2	-42.3	21.8	0.00e+00	92	41	0	1065353216	56	5899
2026-01-19 15:40:47.00	237.49	27.78	-41.2	-42.3	21.9	0.00e+00	0	41	0	1067450368	56	5942
2026-01-19 15:40:48.01	237.36	27.62	-41.3	-42.4	21.7	0.00e+00	0	41	0	1069547520	56	6028
2026-01-19 15:40:49.02	237.23	27.46	-41.3	-42.3	21.9	0.00e+00	0	41	0	1071644672	56	5959
2026-01-19 15:40:50.03	237.10	27.30	-41.2	-42.3	21.8	0.00e+00	0	41	0	1072693248	56	5923
2026-01-19 15:40:51.04	236.98	27.14	-41.1	-42.2	22.0	0.00e+00	50	41	0	1074790400	56	5841
2026-01-19 15:40:52.05	236.85	26.98	-41.0	-42.0	22.1	0.00e+00	0	41	0	1076887552	56	5732
2026-01-19 15:40:53.06	236.73	26.82	-41.0	-42.1	22.1	0.00e+00	91	41	0	1078984704	56	5786
2026-01-19 15:40:54.07	236.60	26.66	-40.8	-41.8	22.2	0.00e+00	0	41	0	1081081856	56	5626
2026-01-19 15:40:55.08	236.48	26.50	-41.0	-42.0	22.1	0.00e+00	90	41	0	1082130432	56	5731
2026-01-19 15:40:56.09	236.36	26.34	-40.9	-42.0	22.1	0.00e+00	0	41	0	1084227584	56	5699
2026-01-19 15:40:57.10	236.25	26.19	-41.0	-42.1	21.9	0.00e+00	0	41	0	1086324736	56	5772
2026-01-19 15:40:58.11	236.13	26.03	-41.2	-42.3	21.9	0.00e+00	86	41	0	1088421888	56	5919
2026-01-19 15:40:59.11	236.01	25.88	-41.3	-42.4	21.7	0.00e+00	0	41	0	1090519040	56	6016
2026-01-19 15:41:00.12	235.90	25.73	-41.5	-42.6	21.6	0.00e+00	90	41	0	1091567616	56	6139
2026-01-19 15:41:01.13	235.78	25.57	-41.4	-42.5	21.8	0.00e+00	0	41	0	1093664768	56	6056
2026-01-19 15:41:02.14	235.67	25.42	-41.4	-42.5	21.7	0.00e+00	92	41	0	1095761920	56	6076
2026-01-19 15:41:03.15	235.56	25.27	-41.4	-42.5	21.8	0.00e+00	0	41	0	1097859072	56	6049
2026-01-19 15:41:04.16	235.45	25.12	-41.4	-42.5	21.8	0.00e+00	81	41	0	1099956224	56	6052
2026-01-19 15:41:05.17	235.34	24.97	-41.3	-42.4	21.8	0.00e+00	73	41	0	1102053376	56	5978
2026-01-19 15:41:06.18	235.23	24.82	-40.9	-42.0	22.2	0.00e+00	0	41	0	1103101952	56	5699
2026-01-19 15:41:07.19	235.12	24.67	-40.9	-42.0	22.0	0.00e+00	92	41	0	1105199104	56	5722
2026-01-19 15:41:08.20	235.02	24.53	-40.7	-41.7	22.4	0.00e+00	0	41	0	1107296256	56	5561
2026-01-19 15:41:09.21	234.91	24.38	-40.6	-41.7	22.4	0.00e+00	92	41	0	1109393408	54	6174
2026-01-19 15:41:10.22	234.81	24.23	-40.2	-41.2	22.9	0.00e+00	1	41	0	1111490560	54	5855
2026-01-19 15:41:11.23	234.70	24.09	-40.1	-41.1	22.8	0.00e+00	0	41	0	1112539136	54	5803
2026-01-19 15:41:12.24	234.60	23.94	-40.2	-41.1	22.9	0.00e+00	0	41	0	1114636288	54	5819
2026-01-19 15:41:13.25	234.50	23.80	-40.1	-41.1	22.8	0.00e+00	0	41	0	1116733440	54	5788
2026-01-19 15:41:14.26	234.40	23.65	-40.1	-41.1	22.8	0.00e+00	92	41	0	1118830592	54	5768
2026-01-19 15:41:15.27	234.30	23.51	-40.2	-41.2	22.7	0.00e+00	0	41	0	1120927744	54	5872
2026-01-19 15:41:16.28	234.20	23.37	-40.3	-41.3	22.5	0.00e+00	92	41	0	1121976320	54	5933
2026-01-19 15:41:17.29	234.10	23.23	-40.4	-41.4	22.5	0.00e+00	0	41	0	1124073472	54	6025
2026-01-19 15:41:18.30	234.01	23.09	-40.5	-41.5	22.4	0.00e+00	81	41	0	1126170624	54	6059
2026-01-19 15:41:19.31	233.91	22.95	-40.6	-41.7	22.3	0.00e+00	81	41	0	1128267776	54	6178
2026-01-19 15:41:20.32	233.82	22.81	-40.6	-41.7	22.3	0.00e+00	81	41	0	1130364928	54	6193
2026-01-19 15:41:21.33	233.72	22.67	-40.7	-41.7	22.2	0.00e+00	0	41	0	1131413504	54	6222
2026-01-19 15:41:22.34	233.63	22.53	-40.6	-41.7	22.3	0.00e+00	2	41	0	1133510656	54	6199
2026-01-19 15:41:23.35	233.54	22.39	-40.7	-41.8	22.2	0.00e+00	91	41	0	1135607808	54	6250
2026-01-19 15:41:24.36	233.44	22.26	-40.7	-41.8	22.2	0.00e+00	0	41	0	1137704960	54	6278
2026-01-19 15:41:25.37	233.35	22.12	-40.6	-41.6	22.2	0.00e+00	90	41	0	1139802112	54	6173
2026-01-19 15:41:26.38	233.26	21.99	-40.4	-41.5	22.5	0.00e+00	81	41	0	1140850688	54	6040
2026-01-19 15:41:27.39	233.17	21.85	-40.5	-41.6	22.4	0.00e+00	0	41	0	1142947840	54	6132
2026-01-19 15:41:28.39	233.09	21.72	-40.3	-41.3	22.6	0.00e+00	0	41	0	1145044992	54	5942
2026-01-19 15:41:29.40	233.00	21.58	-40.4	-41.4	22.5	0.00e+00	1	41	0	1147142144	54	6008
2026-01-19 15:41:30.41	232.91	21.45	-40.4	-41.4	22.5	0.00e+00	92	41	0	1149239296	54	6009
2026-01-19 15:41:31.42	232.83	21.32	-40.4	-41.4	22.4	0.00e+00	6	41	0	1150287872	54	6012
2026-01-19 15:41:32.43	232.74	21.19	-40.6	-41.6	22.3	0.00e+00	90	41	0	1152385024	54	6172
2026-01-19 15:41:33.44	232.66	21.06	-40.5	-41.6	22.4	0.00e+00	5	41	0	1154482176	54	6110
2026-01-19 15:41:34.45	232.57	20.93	-40.7	-41.8	22.2	0.00e+00	0	41	0	1156579328	54	6247
2026-01-19 15:41:35.46	232.49	20.80	-40.9	-42.0	22.0	0.00e+00	0	41	0	1158676480	54	6403
2026-01-19 15:41:36.47	232.41	20.67	-40.8	-41.9	22.0	0.00e+00	0	41	0	1159725056	54	6354
2026-01-19 15:41:37.48	232.32	20.54	-41.0	-42.1	21.9	0.00e+00	92	41	0	1161822208	54	6470
2026-01-19 15:41:38.49	232.24	20.41	-41.0	-42.1	21.9	0.00e+00	78	41	0	1163919360	54	6508
2026-01-19 15:41:39.50	232.16	20.28	-41.0	-42.2	21.8	0.00e+00	92	41	0	1166016512	54	6541
2026-01-19 15:41:40.51	232.08	20.16	-40.9	-42.0	22.0	0.00e+00	0	41	0	1168113664	54	6415
2026-01-19 15:41:41.52	232.00	20.03	-41.0	-42.1	21.9	0.00e+00	67	41	0	1170210816	54	6483
2026-01-19 15:41:42.52	231.93	19.90	-40.7	-41.8	22.2	0.00e+00	77	41	0	1171259392	54	6281
2026-01-19 15:41:43.53	231.85	19.78	-40.7	-41.8	22.2	0.00e+00	0	41	0	1173356544	54	6252
2026-01-19 15:41:44.54	231.77	19.65	-40.6	-41.6	22.3	0.00e+00	48	41	0	1175453696	54	6153
2026-01-19 15:41:45.55	231.70	19.53	-40.3	-41.3	22.7	0.00e+00	5	41	0	1177550848	54	5914
2026-01-19 15:41:46.56	231.62	19.41	-40.3	-41.3	22.7	0.00e+00	92	41	0	1179648000	54	5899
2026-01-19 15:41:47.57	231.54	19.28	-40.2	-41.1	22.7	0.00e+00	80	41	0	1180696576	54	5828
2026-01-19 15:41:48.58	231.47	19.16	-40.0	-41.0	22.8	0.00e+00	91	41	0	1182793728	54	5723
2026-01-19 15:41:49.59	231.40	19.04	-40.2	-41.2	22.6	0.00e+00	1	41	0	1184890880	54	5844
2026-01-19 15:41:50.60	231.32	18.92	-40.0	-41.0	22.8	0.00e+00	4	41	0	1186988032	54	5733
2026-01-19 15:41:51.61	231.25	18.80	-40.0	-41.0	22.8	0.00e+00	3	41	0	1189085184	54	5745
2026-01-19 15:41:52.62	231.18	18.68	-40.1	-41.1	22.7	0.00e+00	4	41	0	1190133760	54	5786
2026-01-19 15:41:53.63	231.11	18.56	-40.2	-41.2	22.5	0.00e+00	92	41	0	1192230912	54	5869
2026-01-19 15:41:54.64	231.04	18.44	-40.3	-41.3	22.6	0.00e+00	3	41	0	1194328064	54	5924
2026-01-19 15:41:55.65	230.97	18.32	-40.3	-41.3	22.5	0.00e+00	90	41	0	1196425216	54	5963
2026-01-19 15:41:56.66	230.90	18.20	-40.5	-41.5	22.3	0.00e+00	0	41	0	1198522368	54	6063
2026-01-19 15:41:57.67	230.83	18.08	-40.5	-41.5	22.4	0.00e+00	0	41	0	1199570944	54	6074
2026-01-19 15:41:58.68	230.76	17.97	-40.6	-41.6	22.1	0.00e+00	0	41	0	1201668096	54	6164
2026-01-19 15:41:59.69	230.69	17.85	-40.6	-41.6	22.2	0.00e+00	8	41	0	1203765248	54	6145
