passes_logs/2026/01/19/R4.6S_Anadyr/R4.6S_Anadyr__20260119_234522_NOAA_20_JPSS-1_rec.log

#Pass ID: 20260119_234522_NOAA 20 (JPSS-1)
#Satellite: NOAA 20 (JPSS-1)
#Configuration: NOAA 20
#almurnet v.1.7.20251203
#Start time: 2026-01-19 23:45:24

#Version: 2.2.20231116
#Station: R4.6S_Anadyr
#Location: 177.4865 lon 64.73178 lat
#TLE: 1 43013U 17073A   26019.27717929  .00000087  00000+0  62288-4 0  9995
#TLE: 2 43013  98.7641 320.1715 0001339  33.1986 326.9274 14.19537047423343

#Time	Az	El	Level	Level2	SNR	BER	BlckErr	Temp	State	Recorded	gain1	gain2
2026-01-19 23:45:24.88	144.79	0.12	-51.0	-65.9	3.5	1.51e+00	0	39	0	0	60	71439
2026-01-19 23:45:25.88	144.78	0.18	-52.6	-67.7	3.6	1.51e+00	0	40	104	0	60	88126
2026-01-19 23:45:26.89	144.77	0.24	-51.8	-67.1	3.6	1.51e+00	0	40	104	0	60	81604
2026-01-19 23:45:27.90	144.76	0.30	-51.2	-66.4	3.6	1.51e+00	0	40	104	0	60	75176
2026-01-19 23:45:28.90	144.75	0.36	-51.4	-66.6	3.6	1.51e+00	0	40	104	0	60	76987
2026-01-19 23:45:29.91	144.74	0.42	-51.1	-66.3	3.6	1.51e+00	0	40	104	0	60	74729
2026-01-19 23:45:30.93	144.73	0.48	-51.1	-66.2	3.6	1.51e+00	0	40	104	0	60	74156
2026-01-19 23:45:31.94	144.72	0.55	-51.0	-66.1	3.6	1.51e+00	0	41	104	0	60	73162
2026-01-19 23:45:32.94	144.71	0.61	-50.5	-65.8	3.6	1.51e+00	0	40	104	0	60	70523
2026-01-19 23:45:33.95	144.70	0.67	-50.4	-65.6	3.6	1.51e+00	0	41	104	0	60	68983
2026-01-19 23:45:34.96	144.69	0.73	-50.6	-65.8	3.6	1.51e+00	0	41	104	0	60	70162
2026-01-19 23:45:35.97	144.68	0.79	-50.6	-65.8	3.6	1.51e+00	0	41	104	0	60	70426
2026-01-19 23:45:36.98	144.67	0.86	-50.8	-66.0	3.6	1.51e+00	0	41	104	0	60	72303
2026-01-19 23:45:37.99	144.66	0.92	-50.8	-66.1	3.6	1.51e+00	0	41	104	0	60	72551
2026-01-19 23:45:39.00	144.65	0.98	-50.8	-66.0	3.6	1.51e+00	0	41	104	0	60	72266
2026-01-19 23:45:40.01	144.64	1.04	-50.8	-66.0	3.6	1.51e+00	0	41	104	0	60	71988
2026-01-19 23:45:41.02	144.63	1.11	-50.5	-65.7	3.6	1.51e+00	0	41	104	0	60	69920
2026-01-19 23:45:42.03	144.62	1.17	-50.1	-65.5	3.6	1.51e+00	0	41	104	0	60	67832
2026-01-19 23:45:43.04	144.61	1.23	-50.0	-65.2	3.6	1.51e+00	0	41	104	0	60	65712
2026-01-19 23:45:44.05	144.60	1.29	-50.0	-65.3	3.6	1.51e+00	0	41	104	0	60	66420
2026-01-19 23:45:45.06	144.59	1.36	-49.8	-65.1	3.6	1.51e+00	0	41	104	0	60	64863
2026-01-19 23:45:46.07	144.58	1.42	-49.3	-64.5	3.6	1.51e+00	0	41	104	0	60	60936
2026-01-19 23:45:47.07	144.57	1.48	-48.9	-64.3	3.6	1.51e+00	0	41	104	0	60	59628
2026-01-19 23:45:48.08	144.56	1.55	-48.4	-63.8	3.6	1.51e+00	0	41	104	0	60	56077
2026-01-19 23:45:49.09	144.54	1.61	-48.0	-63.7	3.5	1.51e+00	0	41	104	0	60	55523
2026-01-19 23:45:50.10	144.53	1.67	-48.7	-64.1	3.6	1.51e+00	0	41	104	0	60	58156
2026-01-19 23:45:51.11	144.52	1.74	-48.3	-63.8	3.6	1.51e+00	0	41	104	0	60	55671
2026-01-19 23:45:52.12	144.51	1.80	-48.1	-63.4	3.6	1.51e+00	0	41	104	0	60	53413
2026-01-19 23:45:53.13	144.50	1.87	-48.0	-63.4	3.6	1.51e+00	0	41	104	0	60	53579
2026-01-19 23:45:54.14	144.49	1.93	-48.2	-63.6	3.6	1.51e+00	0	41	104	0	60	54712
2026-01-19 23:45:55.15	144.48	2.00	-48.4	-63.7	3.6	1.51e+00	0	41	104	0	60	55445
2026-01-19 23:45:56.16	144.47	2.06	-48.5	-63.9	3.6	1.51e+00	0	41	104	0	60	56752
2026-01-19 23:45:57.17	144.45	2.13	-48.4	-63.8	3.6	1.51e+00	0	41	104	0	60	55932
2026-01-19 23:45:58.17	144.44	2.19	-48.3	-63.9	3.6	1.51e+00	0	41	104	0	60	56400
2026-01-19 23:45:59.19	144.43	2.26	-48.4	-63.7	3.6	1.51e+00	0	41	104	0	60	55611
2026-01-19 23:46:00.20	144.42	2.32	-48.2	-63.7	3.6	1.51e+00	0	41	104	0	60	55544
2026-01-19 23:46:01.20	144.41	2.39	-48.3	-63.7	3.6	1.51e+00	0	41	104	0	60	55412
2026-01-19 23:46:02.21	144.40	2.45	-48.4	-63.9	3.6	1.51e+00	0	41	104	0	60	56528
2026-01-19 23:46:03.22	144.38	2.52	-48.5	-63.9	3.6	1.51e+00	0	41	104	0	60	56451
2026-01-19 23:46:04.23	144.37	2.58	-48.5	-64.0	3.6	1.51e+00	0	41	104	0	60	57477
2026-01-19 23:46:05.24	144.36	2.65	-48.2	-63.8	3.6	1.51e+00	0	41	104	0	60	55763
2026-01-19 23:46:06.25	144.35	2.72	-48.1	-63.6	3.6	1.51e+00	0	41	104	0	60	54768
2026-01-19 23:46:07.26	144.34	2.78	-48.0	-63.4	3.6	1.51e+00	0	41	104	0	60	53692
2026-01-19 23:46:08.27	144.32	2.85	-48.3	-63.6	3.6	1.51e+00	0	41	104	0	60	54486
2026-01-19 23:46:09.28	144.31	2.92	-48.5	-63.4	3.6	1.51e+00	0	41	104	0	60	53659
2026-01-19 23:46:10.29	144.30	2.98	-48.5	-62.9	3.6	1.51e+00	0	41	104	0	60	50444
2026-01-19 23:46:11.30	144.29	3.05	-48.3	-61.8	3.6	1.51e+00	0	41	104	0	60	44444
2026-01-19 23:46:12.31	144.27	3.12	-48.0	-60.1	4.1	1.41e+00	0	41	104	0	60	36384
2026-01-19 23:46:13.32	144.26	3.19	-48.0	-57.5	4.5	8.22e-01	92	41	0	0	60	27247
2026-01-19 23:46:14.33	144.25	3.25	-47.8	-56.1	5.5	6.11e-01	2	41	0	2097152	60	23041
2026-01-19 23:46:15.34	144.24	3.32	-47.5	-54.8	7.0	3.26e-01	92	41	0	4194304	60	19807
2026-01-19 23:46:16.35	144.22	3.39	-47.4	-54.1	7.7	9.48e-02	92	41	0	6291456	60	18221
2026-01-19 23:46:17.36	144.21	3.46	-46.7	-52.2	9.6	3.50e-02	92	41	0	8388608	60	14801
2026-01-19 23:46:18.38	144.20	3.53	-46.5	-51.8	10.5	8.46e-03	91	41	0	9437184	60	14022
2026-01-19 23:46:19.38	144.19	3.59	-46.3	-51.2	10.4	2.48e-03	7	42	0	11534336	60	13122
2026-01-19 23:46:20.39	144.17	3.66	-46.2	-51.1	10.9	1.17e-02	92	41	0	13631488	60	12923
2026-01-19 23:46:21.40	144.16	3.73	-45.9	-50.4	11.7	1.78e-03	28	41	0	15728640	60	11936
2026-01-19 23:46:22.41	144.15	3.80	-45.7	-50.0	11.9	4.17e-04	92	41	0	17825792	60	11415
2026-01-19 23:46:23.42	144.13	3.87	-45.6	-49.9	11.5	2.23e-04	92	41	0	19922944	60	11339
2026-01-19 23:46:24.43	144.12	3.94	-48.1	-62.0	3.6	1.36e+00	0	41	104	19922944	60	45759
2026-01-19 23:46:25.44	144.11	4.01	-43.3	-45.7	16.1	1.05e-01	92	42	104	19922944	60	6993
2026-01-19 23:46:26.45	144.09	4.08	-47.1	-63.3	3.6	1.42e+00	0	42	104	19922944	60	52989
2026-01-19 23:46:27.46	144.08	4.15	-46.7	-52.0	11.7	1.36e+00	92	42	104	19922944	60	14457
2026-01-19 23:46:28.47	144.07	4.22	-47.2	-54.0	7.7	2.72e-04	52	42	0	20971520	60	18138
2026-01-19 23:46:29.48	144.05	4.29	-44.1	-46.7	15.9	0.00e+00	92	42	0	22020096	60	7797
2026-01-19 23:46:30.49	144.04	4.36	-43.6	-45.9	16.5	0.00e+00	0	41	0	24117248	60	7113
2026-01-19 23:46:31.50	144.02	4.43	-43.5	-45.7	16.6	0.00e+00	92	41	0	26214400	60	7007
2026-01-19 23:46:32.51	144.01	4.50	-43.9	-46.3	16.3	0.00e+00	90	42	0	28311552	60	7451
2026-01-19 23:46:33.52	144.00	4.57	-44.1	-46.3	16.8	0.00e+00	90	42	0	30408704	60	7474
2026-01-19 23:46:34.53	143.98	4.64	-43.9	-46.1	17.1	0.00e+00	92	41	0	31457280	60	7297
2026-01-19 23:46:35.54	143.97	4.71	-43.7	-45.8	17.6	0.00e+00	3	41	0	33554432	60	7013
2026-01-19 23:46:36.55	143.95	4.78	-43.9	-46.0	17.5	0.00e+00	92	41	0	35651584	60	7201
2026-01-19 23:46:37.56	143.94	4.85	-43.6	-45.8	17.2	0.00e+00	0	41	0	37748736	60	7021
2026-01-19 23:46:38.57	143.92	4.93	-43.3	-45.5	17.3	0.00e+00	90	42	0	39845888	60	6821
2026-01-19 23:46:39.58	143.91	5.00	-43.0	-45.0	17.7	0.00e+00	90	41	0	40894464	60	6459
2026-01-19 23:46:40.59	143.90	5.07	-42.9	-44.9	17.9	0.00e+00	91	42	0	42991616	60	6340
2026-01-19 23:46:41.60	143.88	5.14	-43.1	-45.2	17.9	0.00e+00	92	42	0	45088768	60	6560
2026-01-19 23:46:42.61	143.87	5.21	-43.2	-45.3	17.7	0.00e+00	0	42	0	47185920	60	6672
2026-01-19 23:46:43.62	143.85	5.29	-42.9	-44.9	18.1	0.00e+00	91	42	0	49283072	60	6385
2026-01-19 23:46:44.63	143.84	5.36	-43.2	-45.2	17.9	0.00e+00	21	42	0	50331648	60	6601
2026-01-19 23:46:45.63	143.82	5.43	-43.4	-45.5	17.9	0.00e+00	90	42	0	52428800	60	6801
2026-01-19 23:46:46.64	143.81	5.51	-42.9	-45.1	17.7	0.00e+00	91	42	0	54525952	60	6536
2026-01-19 23:46:47.65	143.79	5.58	-43.1	-45.0	17.9	0.00e+00	91	42	0	56623104	60	6450
2026-01-19 23:46:48.66	143.77	5.65	-43.1	-45.1	17.8	0.00e+00	90	42	0	58720256	60	6466
2026-01-19 23:46:49.67	143.76	5.73	-42.6	-44.3	18.3	0.00e+00	92	42	0	59768832	58	6673
2026-01-19 23:46:50.68	143.74	5.80	-42.8	-44.7	18.2	0.00e+00	92	42	0	61865984	58	6968
2026-01-19 23:46:51.69	143.73	5.88	-42.6	-44.5	18.2	0.00e+00	6	42	0	63963136	58	6795
2026-01-19 23:46:52.70	143.71	5.95	-42.5	-44.3	18.4	0.00e+00	92	42	0	66060288	58	6683
2026-01-19 23:46:53.71	143.70	6.03	-42.6	-44.6	18.3	0.00e+00	0	42	0	68157440	58	6918
2026-01-19 23:46:54.72	143.68	6.10	-42.5	-44.5	18.3	0.00e+00	92	42	0	69206016	58	6807
2026-01-19 23:46:55.73	143.66	6.18	-42.5	-44.4	18.6	0.00e+00	92	42	0	71303168	58	6739
2026-01-19 23:46:56.74	143.65	6.25	-42.3	-44.3	18.6	0.00e+00	92	42	0	73400320	58	6622
2026-01-19 23:46:57.75	143.63	6.33	-42.3	-44.2	18.5	0.00e+00	92	42	0	75497472	58	6590
2026-01-19 23:46:58.76	143.62	6.40	-42.5	-44.3	18.6	0.00e+00	0	42	0	77594624	58	6658
2026-01-19 23:46:59.77	143.60	6.48	-42.3	-44.1	18.5	0.00e+00	92	42	0	79691776	58	6537
2026-01-19 23:47:00.78	143.58	6.56	-42.2	-44.0	18.9	0.00e+00	0	42	0	80740352	58	6402
2026-01-19 23:47:01.79	143.57	6.63	-42.2	-44.0	18.9	0.00e+00	92	42	0	82837504	58	6409
2026-01-19 23:47:02.80	143.55	6.71	-42.1	-44.0	18.8	0.00e+00	92	42	0	84934656	58	6456
2026-01-19 23:47:03.81	143.53	6.79	-42.0	-43.8	19.2	0.00e+00	91	42	0	87031808	58	6307
2026-01-19 23:47:04.82	143.52	6.86	-42.2	-44.2	18.9	0.00e+00	92	42	0	89128960	58	6565
2026-01-19 23:47:05.83	143.50	6.94	-41.8	-43.7	19.3	0.00e+00	91	42	0	90177536	58	6182
2026-01-19 23:47:06.84	143.48	7.02	-41.6	-43.3	19.5	0.00e+00	91	42	0	92274688	56	6686
2026-01-19 23:47:07.84	143.46	7.10	-41.8	-43.5	19.5	0.00e+00	1	42	0	94371840	56	6807
2026-01-19 23:47:08.85	143.45	7.17	-41.8	-43.4	19.4	0.00e+00	92	42	0	96468992	56	6757
2026-01-19 23:47:09.86	143.43	7.25	-41.7	-43.3	19.6	0.00e+00	15	42	0	98566144	56	6661
2026-01-19 23:47:10.87	143.41	7.33	-42.0	-43.6	19.5	0.00e+00	92	42	0	99614720	56	6863
2026-01-19 23:47:11.88	143.39	7.41	-41.9	-43.4	19.6	0.00e+00	92	42	0	101711872	56	6746
2026-01-19 23:47:12.89	143.38	7.49	-42.2	-43.7	19.6	0.00e+00	92	42	0	103809024	56	6943
2026-01-19 23:47:13.90	143.36	7.57	-42.0	-43.4	19.6	0.00e+00	92	42	0	105906176	56	6747
2026-01-19 23:47:14.91	143.34	7.65	-42.3	-43.7	19.8	0.00e+00	2	42	0	108003328	56	6974
2026-01-19 23:47:15.92	143.32	7.73	-42.0	-43.4	20.0	0.00e+00	92	42	0	109051904	56	6716
2026-01-19 23:47:16.92	143.30	7.81	-42.1	-43.5	20.1	0.00e+00	12	42	0	111149056	56	6779
2026-01-19 23:47:17.93	143.29	7.89	-41.9	-43.4	19.9	0.00e+00	92	42	0	113246208	56	6696
2026-01-19 23:47:18.94	143.27	7.97	-41.7	-43.1	20.1	0.00e+00	91	42	0	115343360	56	6516
2026-01-19 23:47:19.95	143.25	8.05	-41.9	-43.3	19.9	0.00e+00	92	42	0	117440512	56	6689
2026-01-19 23:47:20.96	143.23	8.13	-41.7	-43.0	20.2	0.00e+00	92	42	0	118489088	56	6452
2026-01-19 23:47:21.97	143.21	8.21	-41.8	-43.2	20.2	0.00e+00	61	42	0	120586240	56	6585
2026-01-19 23:47:22.98	143.19	8.29	-41.9	-43.2	20.2	0.00e+00	92	42	0	122683392	56	6579
2026-01-19 23:47:23.99	143.17	8.38	-41.6	-42.9	20.5	0.00e+00	6	42	0	124780544	56	6377
2026-01-19 23:47:25.00	143.15	8.46	-41.5	-42.8	20.5	0.00e+00	92	42	0	126877696	56	6275
2026-01-19 23:47:26.01	143.13	8.54	-41.4	-42.6	20.6	0.00e+00	92	42	0	127926272	56	6166
2026-01-19 23:47:27.02	143.11	8.62	-41.3	-42.6	20.6	0.00e+00	92	42	0	130023424	56	6148
2026-01-19 23:47:28.03	143.09	8.71	-41.6	-42.9	20.5	0.00e+00	92	42	0	132120576	56	6354
2026-01-19 23:47:29.04	143.07	8.79	-41.7	-43.0	20.6	0.00e+00	92	42	0	134217728	56	6429
2026-01-19 23:47:30.05	143.05	8.87	-41.5	-42.8	20.6	0.00e+00	92	42	0	136314880	56	6268
2026-01-19 23:47:31.06	143.03	8.96	-41.5	-42.8	20.8	0.00e+00	51	42	0	137363456	56	6273
2026-01-19 23:47:32.07	143.01	9.04	-41.3	-42.6	20.7	0.00e+00	90	42	0	139460608	56	6137
2026-01-19 23:47:33.08	142.99	9.12	-41.6	-42.8	20.6	0.00e+00	84	42	0	141557760	56	6307
2026-01-19 23:47:34.09	142.97	9.21	-41.5	-42.8	20.5	0.00e+00	92	42	0	143654912	56	6317
2026-01-19 23:47:35.10	142.95	9.29	-41.3	-42.6	20.7	0.00e+00	92	41	0	145752064	56	6104
2026-01-19 23:47:36.11	142.93	9.38	-41.6	-42.8	20.8	0.00e+00	92	42	0	147849216	56	6294
2026-01-19 23:47:37.12	142.91	9.46	-41.2	-42.5	20.9	0.00e+00	92	42	0	148897792	56	6070
2026-01-19 23:47:38.13	142.89	9.55	-41.2	-42.4	20.8	0.00e+00	90	42	0	150994944	56	6032
2026-01-19 23:47:39.14	142.87	9.64	-41.0	-42.3	21.0	0.00e+00	92	42	0	153092096	56	5901
2026-01-19 23:47:40.15	142.85	9.72	-41.4	-42.7	20.9	0.00e+00	7	42	0	155189248	56	6184
2026-01-19 23:47:41.16	142.83	9.81	-41.2	-42.5	20.8	0.00e+00	92	42	0	157286400	56	6036
2026-01-19 23:47:42.17	142.80	9.90	-41.5	-42.8	20.3	0.00e+00	92	42	0	158334976	56	6260
2026-01-19 23:47:43.18	142.78	9.98	-41.3	-42.5	20.8	0.00e+00	92	42	0	160432128	56	6055
2026-01-19 23:47:44.19	142.76	10.07	-41.5	-42.8	20.6	0.00e+00	91	42	0	162529280	56	6249
2026-01-19 23:47:45.20	142.74	10.16	-41.5	-42.8	20.8	0.00e+00	92	42	0	164626432	56	6258
2026-01-19 23:47:46.21	142.72	10.25	-41.3	-42.5	20.9	0.00e+00	91	42	0	166723584	56	6098
2026-01-19 23:47:47.22	142.69	10.34	-41.2	-42.4	20.9	0.00e+00	10	42	0	167772160	56	6018
2026-01-19 23:47:48.23	142.67	10.43	-40.8	-41.9	21.0	0.00e+00	92	42	0	169869312	56	5694
2026-01-19 23:47:49.24	142.65	10.51	-40.8	-42.0	21.0	0.00e+00	92	42	0	171966464	54	6435
2026-01-19 23:47:50.25	142.63	10.60	-40.9	-42.2	20.7	0.00e+00	92	42	0	174063616	54	6576
2026-01-19 23:47:51.26	142.60	10.69	-41.0	-42.3	20.6	0.00e+00	92	42	0	176160768	54	6653
2026-01-19 23:47:52.27	142.58	10.78	-41.1	-42.3	20.5	0.00e+00	92	42	0	177209344	54	6684
2026-01-19 23:47:53.28	142.56	10.87	-41.5	-42.7	20.5	0.00e+00	92	42	0	179306496	54	6997
2026-01-19 23:47:54.29	142.53	10.96	-41.3	-42.5	20.4	7.00e-07	7	42	0	181403648	54	6835
2026-01-19 23:47:55.31	142.51	11.06	-41.2	-42.4	20.6	0.00e+00	92	42	0	183500800	54	6767
2026-01-19 23:47:56.31	142.49	11.15	-41.0	-42.2	20.8	0.00e+00	92	42	0	185597952	54	6571
2026-01-19 23:47:57.33	142.46	11.24	-40.8	-42.0	20.4	0.00e+00	92	42	0	186646528	54	6402
2026-01-19 23:47:58.33	142.44	11.33	-40.7	-41.9	20.8	0.00e+00	92	42	0	188743680	54	6380
2026-01-19 23:47:59.34	142.41	11.42	-40.7	-41.9	21.1	0.00e+00	90	42	0	190840832	54	6344
2026-01-19 23:48:00.35	142.39	11.52	-40.8	-41.9	21.1	7.00e-07	92	42	0	192937984	54	6390
2026-01-19 23:48:01.37	142.36	11.61	-40.6	-41.9	21.2	0.00e+00	32	42	0	195035136	54	6325
2026-01-19 23:48:02.38	142.34	11.70	-40.6	-41.8	21.0	0.00e+00	92	42	0	196083712	54	6251
2026-01-19 23:48:03.39	142.31	11.80	-40.5	-41.6	21.2	0.00e+00	9	42	0	198180864	54	6166
2026-01-19 23:48:04.40	142.29	11.89	-40.7	-41.8	21.2	0.00e+00	92	42	0	200278016	54	6311
2026-01-19 23:48:05.41	142.26	11.99	-40.6	-41.7	21.3	0.00e+00	92	42	0	202375168	54	6211
2026-01-19 23:48:06.42	142.24	12.08	-40.9	-42.0	21.3	0.00e+00	92	42	0	204472320	54	6405
2026-01-19 23:48:07.42	142.21	12.18	-40.7	-41.8	21.1	0.00e+00	92	42	0	205520896	54	6313
2026-01-19 23:48:08.43	142.19	12.27	-40.7	-41.9	21.2	0.00e+00	92	42	0	207618048	54	6345
2026-01-19 23:48:09.44	142.16	12.37	-41.0	-42.1	21.1	0.00e+00	92	42	0	209715200	54	6530
2026-01-19 23:48:10.45	142.13	12.46	-40.9	-42.0	21.5	0.00e+00	0	42	0	211812352	54	6454
2026-01-19 23:48:11.46	142.11	12.56	-40.4	-41.6	21.7	0.00e+00	92	42	0	213909504	54	6111
2026-01-19 23:48:12.48	142.08	12.66	-40.5	-41.6	21.7	0.00e+00	92	42	0	216006656	54	6156
2026-01-19 23:48:13.48	142.05	12.76	-40.3	-41.4	21.9	0.00e+00	92	42	0	217055232	54	5976
2026-01-19 23:48:14.49	142.03	12.85	-40.2	-41.3	22.2	0.00e+00	92	42	0	219152384	54	5915
2026-01-19 23:48:15.50	142.00	12.95	-40.7	-41.7	22.2	0.00e+00	92	42	0	221249536	54	6230
2026-01-19 23:48:16.52	141.97	13.05	-40.4	-41.5	22.3	0.00e+00	92	42	0	223346688	54	6047
2026-01-19 23:48:17.53	141.94	13.15	-40.2	-41.2	22.5	0.00e+00	0	41	0	225443840	54	5881
2026-01-19 23:48:18.54	141.92	13.25	-40.0	-41.1	22.5	0.00e+00	91	42	0	226492416	54	5773
2026-01-19 23:48:19.55	141.89	13.35	-40.2	-41.2	22.5	0.00e+00	92	42	0	228589568	54	5888
2026-01-19 23:48:20.56	141.86	13.45	-40.0	-41.0	22.8	0.00e+00	91	42	0	230686720	54	5719
2026-01-19 23:48:21.57	141.83	13.55	-39.9	-40.9	22.8	0.00e+00	92	41	0	232783872	52	6332
2026-01-19 23:48:22.57	141.80	13.65	-40.1	-41.1	22.9	0.00e+00	92	41	0	234881024	52	6477
2026-01-19 23:48:23.58	141.77	13.75	-39.7	-40.7	23.1	0.00e+00	91	42	0	235929600	52	6199
2026-01-19 23:48:24.60	141.74	13.86	-39.9	-40.9	23.1	0.00e+00	60	42	0	238026752	52	6349
2026-01-19 23:48:25.60	141.72	13.96	-40.0	-41.0	23.1	0.00e+00	92	42	0	240123904	52	6424
2026-01-19 23:48:26.61	141.69	14.06	-40.0	-40.9	23.3	0.00e+00	17	42	0	242221056	52	6385
2026-01-19 23:48:27.62	141.66	14.16	-40.0	-41.0	23.2	0.00e+00	90	42	0	244318208	52	6408
2026-01-19 23:48:28.63	141.63	14.27	-39.8	-40.7	23.5	0.00e+00	92	42	0	245366784	52	6190
2026-01-19 23:48:29.64	141.60	14.37	-39.4	-40.3	23.6	0.00e+00	92	42	0	247463936	52	5928
2026-01-19 23:48:30.65	141.56	14.48	-39.4	-40.2	23.8	0.00e+00	92	42	0	249561088	52	5889
2026-01-19 23:48:31.66	141.53	14.58	-39.1	-39.9	23.9	0.00e+00	92	42	0	251658240	52	5692
2026-01-19 23:48:32.67	141.50	14.69	-39.0	-39.9	23.9	0.00e+00	92	42	0	253755392	52	5636
2026-01-19 23:48:33.68	141.47	14.79	-39.3	-40.1	24.0	0.00e+00	0	42	0	254803968	52	5820
2026-01-19 23:48:34.69	141.44	14.90	-39.1	-40.0	24.1	0.00e+00	90	42	0	256901120	52	5727
2026-01-19 23:48:35.70	141.41	15.00	-39.3	-40.2	24.1	0.00e+00	92	42	0	258998272	52	5853
2026-01-19 23:48:36.70	141.38	15.11	-38.9	-39.8	23.9	0.00e+00	92	42	0	261095424	52	5577
2026-01-19 23:48:37.71	141.34	15.22	-38.6	-39.5	24.1	0.00e+00	92	42	0	263192576	50	6057
2026-01-19 23:48:38.72	141.31	15.33	-39.0	-39.9	23.8	0.00e+00	91	42	0	264241152	50	6355
2026-01-19 23:48:39.73	141.28	15.43	-38.8	-39.7	24.0	0.00e+00	91	42	0	266338304	50	6213
2026-01-19 23:48:40.74	141.25	15.54	-38.9	-39.8	24.0	0.00e+00	19	42	0	268435456	50	6251
2026-01-19 23:48:41.75	141.21	15.65	-38.6	-39.5	24.2	0.00e+00	91	42	0	270532608	50	6046
2026-01-19 23:48:42.76	141.18	15.76	-38.5	-39.4	24.1	0.00e+00	0	41	0	272629760	50	6000
2026-01-19 23:48:43.77	141.15	15.87	-38.6	-39.4	24.2	0.00e+00	91	42	0	273678336	50	6027
2026-01-19 23:48:44.78	141.11	15.99	-38.6	-39.5	24.2	0.00e+00	92	42	0	275775488	50	6066
2026-01-19 23:48:45.79	141.08	16.10	-38.6	-39.4	24.2	0.00e+00	92	42	0	277872640	50	6019
2026-01-19 23:48:46.80	141.04	16.21	-38.7	-39.5	24.2	0.00e+00	92	42	0	279969792	50	6101
2026-01-19 23:48:47.81	141.01	16.32	-38.6	-39.4	24.3	0.00e+00	26	42	0	282066944	50	6027
2026-01-19 23:48:48.82	140.97	16.43	-38.7	-39.5	24.3	0.00e+00	92	42	0	284164096	50	6087
2026-01-19 23:48:49.83	140.94	16.55	-38.7	-39.6	24.3	0.00e+00	12	42	0	285212672	50	6124
2026-01-19 23:48:50.84	140.90	16.66	-38.3	-39.2	24.4	0.00e+00	92	41	0	287309824	50	5845
2026-01-19 23:48:51.85	140.86	16.78	-38.4	-39.3	24.3	0.00e+00	92	41	0	289406976	50	5903
2026-01-19 23:48:52.86	140.83	16.89	-38.2	-39.1	24.2	0.00e+00	92	42	0	291504128	50	5763
2026-01-19 23:48:53.87	140.79	17.01	-38.3	-39.2	24.3	0.00e+00	90	42	0	293601280	50	5829
2026-01-19 23:48:54.88	140.75	17.12	-38.3	-39.1	24.4	0.00e+00	92	41	0	294649856	50	5799
2026-01-19 23:48:55.89	140.72	17.24	-38.2	-39.1	24.2	0.00e+00	92	41	0	296747008	50	5791
2026-01-19 23:48:56.90	140.68	17.36	-38.4	-39.3	24.3	0.00e+00	0	42	0	298844160	50	5932
2026-01-19 23:48:57.91	140.64	17.48	-38.6	-39.4	24.1	0.00e+00	92	42	0	300941312	50	6028
2026-01-19 23:48:58.92	140.60	17.59	-38.3	-39.2	24.3	0.00e+00	92	42	0	303038464	50	5840
2026-01-19 23:48:59.93	140.56	17.71	-38.1	-39.0	24.4	0.00e+00	91	42	0	304087040	50	5708
2026-01-19 23:49:00.94	140.52	17.83	-38.1	-38.9	24.5	0.00e+00	91	42	0	306184192	50	5678
2026-01-19 23:49:01.95	140.49	17.95	-38.1	-39.0	24.3	0.00e+00	91	42	0	308281344	50	5714
2026-01-19 23:49:02.96	140.45	18.07	-38.0	-38.9	24.5	0.00e+00	92	42	0	310378496	50	5633
2026-01-19 23:49:03.97	140.41	18.19	-38.2	-39.0	24.4	0.00e+00	27	42	0	312475648	50	5732
2026-01-19 23:49:04.98	140.37	18.32	-38.0	-38.9	24.6	0.00e+00	92	42	0	313524224	50	5633
2026-01-19 23:49:05.99	140.32	18.44	-38.1	-38.9	24.5	0.00e+00	50	42	0	315621376	50	5681
2026-01-19 23:49:07.00	140.28	18.56	-38.1	-39.0	24.5	0.00e+00	92	41	0	317718528	50	5712
2026-01-19 23:49:08.00	140.24	18.68	-38.2	-39.0	24.5	0.00e+00	92	41	0	319815680	50	5731
2026-01-19 23:49:09.02	140.20	18.81	-38.1	-39.0	24.4	0.00e+00	92	42	0	321912832	50	5721
2026-01-19 23:49:10.03	140.16	18.93	-38.1	-38.9	24.5	0.00e+00	92	42	0	322961408	50	5656
2026-01-19 23:49:11.04	140.12	19.06	-38.1	-38.9	24.5	0.00e+00	52	42	0	325058560	50	5677
2026-01-19 23:49:12.04	140.07	19.18	-38.0	-38.9	24.5	0.00e+00	88	41	0	327155712	50	5651
2026-01-19 23:49:13.05	140.03	19.31	-38.2	-39.1	24.4	0.00e+00	31	42	0	329252864	50	5763
2026-01-19 23:49:14.05	139.99	19.44	-38.2	-39.0	24.4	0.00e+00	92	41	0	331350016	50	5755
2026-01-19 23:49:15.06	139.94	19.57	-38.1	-38.9	24.5	0.00e+00	92	42	0	332398592	50	5692
2026-01-19 23:49:16.07	139.90	19.69	-38.2	-39.0	24.5	0.00e+00	92	41	0	334495744	50	5733
2026-01-19 23:49:17.08	139.85	19.82	-38.0	-38.8	24.5	0.00e+00	92	42	0	336592896	50	5603
2026-01-19 23:49:18.09	139.81	19.95	-37.9	-38.7	24.7	0.00e+00	0	41	0	338690048	50	5523
2026-01-19 23:49:19.10	139.76	20.08	-38.0	-38.8	24.6	0.00e+00	92	41	0	340787200	50	5589
2026-01-19 23:49:20.12	139.72	20.22	-38.1	-38.9	24.7	0.00e+00	0	42	0	341835776	50	5652
2026-01-19 23:49:21.12	139.67	20.35	-38.2	-39.0	24.5	0.00e+00	91	42	0	343932928	50	5745
2026-01-19 23:49:22.13	139.62	20.48	-38.3	-39.1	24.4	0.00e+00	92	42	0	346030080	50	5820
2026-01-19 23:49:23.14	139.58	20.61	-38.2	-39.0	24.7	0.00e+00	92	42	0	348127232	50	5720
2026-01-19 23:49:24.15	139.53	20.75	-38.3	-39.1	24.5	0.00e+00	90	42	0	350224384	50	5810
2026-01-19 23:49:25.16	139.48	20.88	-38.1	-38.9	24.7	0.00e+00	91	42	0	352321536	50	5662
2026-01-19 23:49:26.17	139.43	21.02	-38.1	-38.9	24.6	0.00e+00	92	42	0	353370112	50	5648
2026-01-19 23:49:27.17	139.38	21.15	-37.9	-38.7	24.8	0.00e+00	28	42	0	355467264	50	5508
2026-01-19 23:49:28.19	139.33	21.29	-37.9	-38.7	24.7	0.00e+00	91	42	0	357564416	50	5532
2026-01-19 23:49:29.20	139.28	21.43	-38.1	-39.0	24.7	0.00e+00	91	42	0	359661568	50	5698
2026-01-19 23:49:30.21	139.23	21.56	-38.2	-39.0	24.7	0.00e+00	92	42	0	361758720	50	5725
2026-01-19 23:49:31.22	139.18	21.70	-38.2	-39.0	24.7	0.00e+00	92	42	0	362807296	50	5698
2026-01-19 23:49:32.23	139.13	21.84	-38.3	-39.1	24.5	0.00e+00	92	42	0	364904448	50	5787
2026-01-19 23:49:33.24	139.08	21.98	-38.4	-39.2	24.4	0.00e+00	92	42	0	367001600	50	5866
2026-01-19 23:49:34.24	139.02	22.12	-38.8	-39.7	24.2	0.00e+00	63	42	0	369098752	50	6183
2026-01-19 23:49:35.25	138.97	22.27	-38.3	-39.2	24.3	0.00e+00	92	41	0	371195904	50	5846
2026-01-19 23:49:36.26	138.92	22.41	-38.1	-38.9	24.6	0.00e+00	0	41	0	372244480	50	5683
2026-01-19 23:49:37.27	138.86	22.55	-38.0	-38.9	24.6	0.00e+00	92	42	0	374341632	50	5641
2026-01-19 23:49:38.28	138.81	22.70	-38.1	-38.9	24.6	0.00e+00	92	41	0	376438784	50	5679
2026-01-19 23:49:39.29	138.75	22.84	-38.0	-38.9	24.7	0.00e+00	0	41	0	378535936	50	5644
2026-01-19 23:49:40.30	138.70	22.99	-38.2	-39.0	24.6	0.00e+00	92	42	0	380633088	50	5740
2026-01-19 23:49:41.31	138.64	23.13	-38.5	-39.3	24.4	0.00e+00	80	41	0	381681664	50	5946
2026-01-19 23:49:42.32	138.58	23.28	-38.7	-39.5	24.6	0.00e+00	92	41	0	383778816	50	6098
2026-01-19 23:49:43.33	138.53	23.43	-38.4	-39.2	24.4	0.00e+00	2	41	0	385875968	50	5862
2026-01-19 23:49:44.34	138.47	23.58	-38.5	-39.3	24.4	0.00e+00	92	42	0	387973120	50	5940
2026-01-19 23:49:45.35	138.41	23.73	-38.4	-39.2	24.5	0.00e+00	90	41	0	390070272	50	5875
2026-01-19 23:49:46.35	138.35	23.88	-38.5	-39.3	24.5	0.00e+00	92	41	0	391118848	50	5945
2026-01-19 23:49:47.36	138.29	24.03	-38.8	-39.6	24.2	0.00e+00	92	42	0	393216000	50	6172
2026-01-19 23:49:48.37	138.23	24.18	-39.2	-40.1	23.9	0.00e+00	6	42	0	395313152	50	6488
2026-01-19 23:49:49.38	138.17	24.33	-39.5	-40.5	23.6	0.00e+00	92	41	0	397410304	50	6808
2026-01-19 23:49:50.39	138.11	24.49	-39.6	-40.5	23.7	0.00e+00	35	41	0	399507456	50	6831
2026-01-19 23:49:51.40	138.05	24.64	-39.3	-40.2	24.0	0.00e+00	90	41	0	400556032	50	6569
2026-01-19 23:49:52.41	137.98	24.80	-39.3	-40.2	23.8	0.00e+00	29	41	0	402653184	50	6559
2026-01-19 23:49:53.42	137.92	24.96	-39.1	-40.0	23.9	0.00e+00	92	41	0	404750336	50	6433
2026-01-19 23:49:54.43	137.86	25.11	-39.2	-40.0	23.9	0.00e+00	91	41	0	406847488	50	6459
2026-01-19 23:49:55.44	137.79	25.27	-39.3	-40.1	23.9	0.00e+00	55	41	0	408944640	50	6528
2026-01-19 23:49:56.45	137.73	25.43	-39.3	-40.2	23.7	0.00e+00	91	42	0	409993216	50	6567
2026-01-19 23:49:57.46	137.66	25.59	-39.2	-40.1	23.7	0.00e+00	7	42	0	412090368	50	6533
2026-01-19 23:49:58.47	137.59	25.75	-39.1	-40.0	23.9	0.00e+00	90	41	0	414187520	50	6391
2026-01-19 23:49:59.48	137.53	25.91	-39.4	-40.3	23.7	0.00e+00	0	41	0	416284672	50	6654
2026-01-19 23:50:00.49	137.46	26.08	-39.4	-40.4	23.7	0.00e+00	90	41	0	418381824	50	6695
2026-01-19 23:50:01.50	137.39	26.24	-39.5	-40.4	23.7	0.00e+00	91	41	0	420478976	50	6735
2026-01-19 23:50:02.50	137.32	26.41	-39.7	-40.6	23.6	0.00e+00	91	41	0	421527552	50	6905
2026-01-19 23:50:03.51	137.25	26.57	-39.8	-40.7	23.4	0.00e+00	92	42	0	423624704	52	6220
2026-01-19 23:50:04.52	137.18	26.74	-39.9	-40.8	23.2	0.00e+00	0	42	0	425721856	52	6305
2026-01-19 23:50:05.53	137.10	26.91	-39.9	-40.9	23.2	0.00e+00	92	41	0	427819008	52	6346
2026-01-19 23:50:06.54	137.03	27.08	-40.1	-41.1	23.1	0.00e+00	0	41	0	429916160	52	6495
2026-01-19 23:50:07.55	136.96	27.25	-40.3	-41.3	22.9	0.00e+00	90	42	0	430964736	52	6676
2026-01-19 23:50:08.56	136.88	27.42	-40.5	-41.5	22.7	0.00e+00	92	42	0	433061888	52	6791
2026-01-19 23:50:09.57	136.81	27.59	-40.6	-41.6	22.5	0.00e+00	91	42	0	435159040	52	6880
2026-01-19 23:50:10.58	136.73	27.76	-40.8	-41.8	22.3	0.00e+00	92	42	0	437256192	54	6286
2026-01-19 23:50:11.59	136.65	27.93	-41.2	-42.3	22.1	0.00e+00	0	42	0	439353344	54	6638
2026-01-19 23:50:12.60	136.58	28.11	-41.4	-42.5	21.9	0.00e+00	92	41	0	440401920	54	6831
2026-01-19 23:50:13.61	136.50	28.29	-41.7	-42.8	21.8	0.00e+00	35	41	0	442499072	56	6308
2026-01-19 23:50:14.62	136.42	28.46	-41.9	-43.1	21.6	0.00e+00	92	41	0	444596224	56	6478
2026-01-19 23:50:15.63	136.34	28.64	-41.8	-43.0	21.3	0.00e+00	22	41	0	446693376	56	6401
2026-01-19 23:50:16.64	136.25	28.82	-41.8	-43.0	21.4	0.00e+00	90	42	0	448790528	56	6396
2026-01-19 23:50:17.65	136.17	29.00	-42.0	-43.2	21.4	0.00e+00	92	41	0	449839104	56	6565
2026-01-19 23:50:18.66	136.09	29.18	-41.9	-43.1	21.4	0.00e+00	92	41	0	451936256	56	6475
2026-01-19 23:50:19.67	136.00	29.37	-41.9	-43.1	21.6	0.00e+00	92	42	0	454033408	56	6484
2026-01-19 23:50:20.68	135.92	29.55	-41.7	-42.8	21.7	0.00e+00	5	42	0	456130560	56	6274
2026-01-19 23:50:21.68	135.83	29.73	-41.6	-42.8	21.4	0.00e+00	92	41	0	458227712	56	6266
2026-01-19 23:50:22.69	135.74	29.92	-41.9	-43.0	21.5	0.00e+00	5	41	0	459276288	56	6455
2026-01-19 23:50:23.70	135.65	30.10	-41.6	-42.7	21.5	0.00e+00	92	42	0	461373440	56	6231
2026-01-19 23:50:24.71	135.56	30.29	-41.8	-42.9	21.3	0.00e+00	92	42	0	463470592	56	6381
2026-01-19 23:50:25.72	135.47	30.48	-42.4	-43.7	20.9	0.00e+00	92	42	0	465567744	56	6934
2026-01-19 23:50:26.73	135.38	30.67	-42.4	-43.6	20.9	0.00e+00	92	42	0	467664896	56	6888
2026-01-19 23:50:27.73	135.29	30.86	-42.4	-43.7	20.8	0.00e+00	12	41	0	468713472	56	6951
2026-01-19 23:50:28.74	135.20	31.06	-42.5	-43.7	20.8	0.00e+00	92	42	0	470810624	56	6983
2026-01-19 23:50:29.75	135.10	31.25	-42.5	-43.8	20.7	0.00e+00	5	42	0	472907776	56	7016
2026-01-19 23:50:30.76	135.00	31.44	-42.6	-43.8	20.5	0.00e+00	92	42	0	475004928	56	7083
2026-01-19 23:50:31.77	134.91	31.64	-42.6	-43.9	20.4	0.00e+00	75	41	0	477102080	56	7132
2026-01-19 23:50:32.78	134.81	31.84	-42.6	-44.0	20.3	0.00e+00	92	42	0	478150656	56	7176
2026-01-19 23:50:33.79	134.71	32.04	-42.9	-44.2	20.1	0.00e+00	90	41	0	480247808	58	6614
2026-01-19 23:50:34.80	134.60	32.24	-43.1	-44.5	19.8	0.00e+00	62	42	0	482344960	58	6826
2026-01-19 23:50:35.81	134.50	32.44	-43.0	-44.5	19.8	0.00e+00	92	41	0	484442112	58	6791
2026-01-19 23:50:36.82	134.40	32.64	-43.2	-44.7	19.6	0.00e+00	62	42	0	486539264	58	6965
2026-01-19 23:50:37.83	134.29	32.85	-43.2	-44.7	19.7	0.00e+00	91	42	0	487587840	58	6950
2026-01-19 23:50:38.84	134.18	33.05	-43.2	-44.7	19.6	0.00e+00	0	42	0	489684992	58	6928
2026-01-19 23:50:39.85	134.08	33.26	-43.2	-44.7	19.5	0.00e+00	92	42	0	491782144	58	6967
2026-01-19 23:50:40.86	133.97	33.47	-43.3	-44.8	19.5	0.00e+00	90	42	0	493879296	58	7048
2026-01-19 23:50:41.87	133.85	33.67	-43.4	-44.9	19.5	0.00e+00	91	42	0	495976448	58	7143
2026-01-19 23:50:42.87	133.74	33.88	-43.6	-45.2	19.3	0.00e+00	91	42	0	497025024	58	7350
2026-01-19 23:50:43.88	133.63	34.09	-43.5	-45.0	19.3	0.00e+00	65	41	0	499122176	58	7225
2026-01-19 23:50:44.89	133.51	34.31	-43.3	-44.7	19.7	0.00e+00	92	41	0	501219328	58	6986
2026-01-19 23:50:45.90	133.40	34.52	-43.5	-44.9	19.5	0.00e+00	6	41	0	503316480	58	7160
2026-01-19 23:50:46.91	133.28	34.74	-43.3	-44.7	19.7	0.00e+00	92	41	0	505413632	58	6965
2026-01-19 23:50:47.92	133.16	34.95	-43.0	-44.4	19.8	0.00e+00	92	41	0	506462208	58	6749
2026-01-19 23:50:48.93	133.03	35.17	-43.3	-44.7	19.7	0.00e+00	92	42	0	508559360	58	6966
2026-01-19 23:50:49.94	132.91	35.39	-43.4	-44.9	19.5	0.00e+00	92	42	0	510656512	58	7104
2026-01-19 23:50:50.95	132.78	35.61	-43.4	-44.8	19.4	0.00e+00	35	42	0	512753664	58	7076
2026-01-19 23:50:51.96	132.66	35.84	-43.6	-45.2	19.1	0.00e+00	90	41	0	514850816	60	6549
2026-01-19 23:50:52.97	132.53	36.06	-43.7	-45.2	19.2	0.00e+00	30	42	0	516947968	60	6578
2026-01-19 23:50:53.98	132.40	36.28	-43.6	-45.1	19.2	0.00e+00	92	41	0	517996544	60	6525
2026-01-19 23:50:54.98	132.26	36.51	-43.6	-45.2	19.1	0.00e+00	81	41	0	520093696	60	6559
2026-01-19 23:50:55.99	132.13	36.74	-43.8	-45.5	18.8	0.00e+00	92	41	0	522190848	60	6776
2026-01-19 23:50:57.00	131.99	36.97	-43.9	-45.6	18.8	0.00e+00	92	42	0	524288000	60	6884
2026-01-19 23:50:58.01	131.85	37.20	-43.7	-45.2	19.1	0.00e+00	91	42	0	526385152	60	6603
2026-01-19 23:50:59.02	131.71	37.43	-43.8	-45.4	19.1	0.00e+00	90	41	0	527433728	60	6709
2026-01-19 23:51:00.03	131.57	37.66	-43.4	-44.9	19.3	0.00e+00	31	41	0	529530880	60	6343
2026-01-19 23:51:01.04	131.43	37.90	-43.4	-44.9	19.4	0.00e+00	92	41	0	531628032	60	6359
2026-01-19 23:51:02.05	131.28	38.13	-43.1	-44.6	19.8	0.00e+00	32	41	0	533725184	60	6104
2026-01-19 23:51:03.06	131.13	38.37	-43.3	-44.8	19.5	0.00e+00	92	42	0	535822336	60	6285
2026-01-19 23:51:04.07	130.98	38.61	-43.1	-44.6	19.7	0.00e+00	92	42	0	536870912	60	6135
2026-01-19 23:51:05.08	130.82	38.85	-43.1	-44.6	19.7	0.00e+00	90	42	0	538968064	60	6105
2026-01-19 23:51:06.09	130.67	39.09	-43.0	-44.4	19.9	0.00e+00	92	42	0	541065216	60	6000
2026-01-19 23:51:07.10	130.51	39.34	-42.8	-44.1	20.0	0.00e+00	7	42	0	543162368	60	5825
2026-01-19 23:51:08.11	130.35	39.58	-42.3	-43.6	20.5	0.00e+00	90	41	0	545259520	58	6156
2026-01-19 23:51:09.12	130.18	39.83	-42.2	-43.4	20.7	0.00e+00	1	42	0	546308096	58	5999
2026-01-19 23:51:10.13	130.02	40.08	-42.2	-43.5	20.8	0.00e+00	91	41	0	548405248	58	6053
2026-01-19 23:51:11.14	129.85	40.33	-41.9	-43.0	21.1	0.00e+00	92	41	0	550502400	58	5759
2026-01-19 23:51:12.15	129.68	40.58	-41.7	-42.9	21.3	0.00e+00	90	41	0	552599552	56	6354
2026-01-19 23:51:13.16	129.50	40.83	-41.7	-42.9	21.3	0.00e+00	92	41	0	554696704	56	6323
2026-01-19 23:51:14.17	129.33	41.08	-41.3	-42.4	21.7	0.00e+00	51	41	0	555745280	56	6032
2026-01-19 23:51:15.18	129.15	41.34	-41.6	-42.7	21.4	0.00e+00	92	41	0	557842432	56	6242
2026-01-19 23:51:16.19	128.96	41.60	-41.1	-42.1	22.0	0.00e+00	0	41	0	559939584	56	5828
2026-01-19 23:51:17.20	128.78	41.86	-41.0	-42.1	22.1	0.00e+00	90	41	0	562036736	56	5764
2026-01-19 23:51:18.21	128.59	42.12	-40.9	-41.9	22.2	0.00e+00	54	41	0	564133888	56	5652
2026-01-19 23:51:19.21	128.40	42.37	-40.9	-41.9	22.2	0.00e+00	90	41	0	565182464	56	5683
2026-01-19 23:51:20.23	128.20	42.64	-41.0	-42.0	22.1	0.00e+00	92	42	0	567279616	56	5760
2026-01-19 23:51:21.24	128.01	42.90	-41.1	-42.2	21.9	0.00e+00	92	42	0	569376768	56	5860
2026-01-19 23:51:22.24	127.81	43.17	-41.2	-42.3	21.8	0.00e+00	92	41	0	571473920	56	5941
2026-01-19 23:51:23.25	127.60	43.43	-41.1	-42.2	22.0	0.00e+00	2	42	0	573571072	56	5856
2026-01-19 23:51:24.26	127.39	43.70	-41.0	-42.1	22.1	0.00e+00	92	42	0	574619648	56	5772
2026-01-19 23:51:25.27	127.18	43.97	-40.5	-41.5	22.5	0.00e+00	73	41	0	576716800	54	6085
2026-01-19 23:51:26.28	126.96	44.24	-40.3	-41.3	22.8	0.00e+00	90	41	0	578813952	54	5911
2026-01-19 23:51:27.29	126.75	44.52	-40.3	-41.2	22.8	0.00e+00	92	42	0	580911104	54	5880
2026-01-19 23:51:28.30	126.52	44.79	-39.8	-40.8	23.2	0.00e+00	90	41	0	583008256	54	5585
2026-01-19 23:51:29.31	126.29	45.07	-39.8	-40.8	23.3	0.00e+00	90	42	0	585105408	52	6272
2026-01-19 23:51:30.32	126.06	45.34	-39.6	-40.5	23.5	0.00e+00	0	42	0	586153984	52	6053
2026-01-19 23:51:31.33	125.83	45.62	-39.7	-40.6	23.3	0.00e+00	92	41	0	588251136	52	6147
2026-01-19 23:51:32.34	125.59	45.90	-39.7	-40.6	23.3	0.00e+00	0	42	0	590348288	52	6146
2026-01-19 23:51:33.34	125.35	46.18	-40.1	-41.1	22.9	0.00e+00	92	42	0	592445440	52	6472
2026-01-19 23:51:34.35	125.10	46.46	-40.1	-41.1	23.0	0.00e+00	90	42	0	594542592	52	6489
2026-01-19 23:51:35.36	124.84	46.75	-39.9	-40.8	23.3	0.00e+00	92	42	0	595591168	52	6281
2026-01-19 23:51:36.37	124.59	47.03	-39.9	-40.8	23.4	0.00e+00	92	42	0	597688320	52	6274
2026-01-19 23:51:37.38	124.32	47.32	-40.0	-40.9	23.3	0.00e+00	90	42	0	599785472	52	6367
2026-01-19 23:51:38.39	124.06	47.61	-40.1	-41.0	23.1	0.00e+00	92	42	0	601882624	52	6440
2026-01-19 23:51:39.40	123.78	47.90	-40.4	-41.4	22.8	0.00e+00	0	41	0	603979776	52	6752
2026-01-19 23:51:40.41	123.51	48.19	-40.6	-41.6	22.5	0.00e+00	92	42	0	605028352	52	6909
2026-01-19 23:51:41.42	123.22	48.48	-40.6	-41.6	22.5	0.00e+00	92	41	0	607125504	52	6864
2026-01-19 23:51:42.43	122.93	48.77	-40.6	-41.6	22.5	0.00e+00	91	42	0	609222656	52	6860
2026-01-19 23:51:43.43	122.64	49.06	-40.5	-41.5	22.7	0.00e+00	90	41	0	611319808	52	6784
2026-01-19 23:51:44.44	122.34	49.36	-40.1	-41.0	23.0	0.00e+00	91	41	0	613416960	52	6462
2026-01-19 23:51:45.45	122.04	49.65	-39.9	-40.9	23.2	0.00e+00	91	42	0	614465536	52	6323
2026-01-19 23:51:46.46	121.73	49.95	-39.7	-40.6	23.4	0.00e+00	0	42	0	616562688	52	6157
2026-01-19 23:51:47.47	121.41	50.25	-39.5	-40.4	23.5	0.00e+00	90	42	0	618659840	52	6020
2026-01-19 23:51:48.48	121.08	50.54	-39.0	-39.9	24.0	0.00e+00	61	41	0	620756992	52	5660
2026-01-19 23:51:49.49	120.75	50.84	-38.9	-39.8	24.1	0.00e+00	90	42	0	622854144	52	5608
2026-01-19 23:51:50.50	120.41	51.15	-38.9	-39.8	24.0	0.00e+00	91	42	0	623902720	52	5578
2026-01-19 23:51:51.50	120.07	51.44	-38.9	-39.7	24.2	0.00e+00	91	42	0	625999872	52	5547
2026-01-19 23:51:52.52	119.72	51.75	-38.5	-39.3	24.5	0.00e+00	92	42	0	628097024	50	5960
2026-01-19 23:51:53.52	119.36	52.05	-38.1	-38.9	24.8	0.00e+00	0	42	0	630194176	50	5692
2026-01-19 23:51:54.53	119.00	52.35	-38.2	-39.0	24.7	0.00e+00	90	42	0	632291328	50	5701
2026-01-19 23:51:55.54	118.62	52.66	-38.1	-38.9	24.8	0.00e+00	0	41	0	633339904	50	5682
2026-01-19 23:51:56.55	118.24	52.96	-38.1	-38.9	24.7	0.00e+00	92	41	0	635437056	50	5677
2026-01-19 23:51:57.56	117.85	53.27	-38.3	-39.1	24.6	0.00e+00	92	41	0	637534208	50	5769
2026-01-19 23:51:58.57	117.45	53.57	-38.6	-39.4	24.4	0.00e+00	92	41	0	639631360	50	6003
2026-01-19 23:51:59.58	117.05	53.88	-38.8	-39.7	24.2	0.00e+00	92	41	0	641728512	50	6194
2026-01-19 23:52:00.59	116.63	54.19	-39.0	-39.9	24.0	0.00e+00	44	42	0	642777088	50	6352
2026-01-19 23:52:01.60	116.21	54.49	-39.2	-40.1	23.8	0.00e+00	92	41	0	644874240	50	6510
2026-01-19 23:52:02.61	115.77	54.80	-40.0	-41.0	23.0	0.00e+00	0	41	0	646971392	52	6411
2026-01-19 23:52:03.62	115.33	55.11	-40.3	-41.4	22.6	0.00e+00	92	41	0	649068544	52	6695
2026-01-19 23:52:04.63	114.87	55.41	-40.7	-41.8	22.3	0.00e+00	29	41	0	651165696	52	7016
2026-01-19 23:52:05.64	114.41	55.72	-41.3	-42.4	21.6	0.00e+00	92	42	0	653262848	54	6732
2026-01-19 23:52:06.65	113.94	56.03	-42.2	-43.5	20.8	0.00e+00	92	41	0	654311424	56	6798
2026-01-19 23:52:07.66	113.45	56.34	-42.5	-43.8	20.5	0.00e+00	92	42	0	656408576	56	7088
2026-01-19 23:52:08.67	112.96	56.64	-42.4	-43.7	20.5	0.00e+00	92	42	0	658505728	56	7003
2026-01-19 23:52:09.68	112.45	56.95	-42.4	-43.7	20.6	0.00e+00	11	42	0	660602880	56	6964
2026-01-19 23:52:10.69	111.93	57.25	-42.4	-43.7	20.6	0.00e+00	92	42	0	662700032	56	6928
2026-01-19 23:52:11.70	111.40	57.56	-42.2	-43.5	20.8	0.00e+00	15	42	0	663748608	56	6795
2026-01-19 23:52:12.71	110.86	57.86	-42.1	-43.3	20.9	0.00e+00	92	42	0	665845760	56	6683
2026-01-19 23:52:13.72	110.31	58.16	-42.3	-43.6	20.6	0.00e+00	92	42	0	667942912	56	6898
2026-01-19 23:52:14.73	109.74	58.47	-42.2	-43.5	20.7	0.00e+00	92	41	0	670040064	56	6811
2026-01-19 23:52:15.74	109.16	58.77	-41.6	-42.8	21.5	0.00e+00	92	41	0	672137216	56	6270
2026-01-19 23:52:16.75	108.57	59.07	-41.3	-42.4	21.8	0.00e+00	0	41	0	673185792	56	5987
2026-01-19 23:52:17.76	107.96	59.36	-41.0	-42.1	22.1	0.00e+00	92	42	0	675282944	56	5799
2026-01-19 23:52:18.77	107.34	59.66	-40.8	-41.8	22.3	0.00e+00	0	41	0	677380096	56	5621
2026-01-19 23:52:19.78	106.71	59.96	-40.3	-41.3	22.8	0.00e+00	92	41	0	679477248	54	5916
2026-01-19 23:52:20.79	106.06	60.25	-39.5	-40.5	23.5	0.00e+00	92	42	0	681574400	52	6035
2026-01-19 23:52:21.80	105.39	60.54	-38.8	-39.7	24.1	0.00e+00	90	41	0	682622976	52	5527
2026-01-19 23:52:22.81	104.71	60.83	-38.6	-39.4	24.5	0.00e+00	92	41	0	684720128	50	6003
2026-01-19 23:52:23.82	104.01	61.11	-38.1	-38.9	24.6	0.00e+00	54	41	0	686817280	50	5681
2026-01-19 23:52:24.83	103.30	61.40	-38.1	-38.9	24.7	0.00e+00	92	42	0	688914432	50	5674
2026-01-19 23:52:25.84	102.57	61.68	-37.5	-38.3	25.3	0.00e+00	0	41	0	691011584	48	5932
2026-01-19 23:52:26.85	101.83	61.95	-37.5	-38.3	25.4	0.00e+00	92	42	0	692060160	48	5921
2026-01-19 23:52:27.86	101.07	62.23	-37.7	-38.5	25.2	0.00e+00	90	42	0	694157312	48	6059
2026-01-19 23:52:28.87	100.29	62.50	-38.1	-38.9	24.8	0.00e+00	92	42	0	696254464	48	6337
2026-01-19 23:52:29.88	99.49	62.77	-38.1	-39.0	24.8	0.00e+00	92	41	0	698351616	48	6393
2026-01-19 23:52:30.89	98.67	63.03	-37.9	-38.7	25.0	0.00e+00	92	42	0	700448768	48	6215
2026-01-19 23:52:31.90	97.84	63.29	-37.8	-38.6	25.1	0.00e+00	92	41	0	701497344	48	6115
2026-01-19 23:52:32.91	96.99	63.55	-37.9	-38.7	25.0	0.00e+00	0	41	0	703594496	48	6236
2026-01-19 23:52:33.92	96.12	63.80	-38.2	-39.0	24.9	0.00e+00	92	42	0	705691648	48	6421
2026-01-19 23:52:34.93	95.23	64.05	-38.0	-38.8	25.0	0.00e+00	0	42	0	707788800	48	6259
2026-01-19 23:52:35.94	94.32	64.29	-38.0	-38.8	24.9	0.00e+00	92	41	0	709885952	48	6305
2026-01-19 23:52:36.94	93.40	64.52	-38.4	-39.2	24.6	0.00e+00	92	42	0	710934528	48	6568
2026-01-19 23:52:37.95	92.46	64.75	-38.9	-39.7	24.3	0.00e+00	92	41	0	713031680	50	6211
2026-01-19 23:52:38.96	91.49	64.98	-39.1	-39.9	24.1	0.00e+00	92	41	0	715128832	50	6353
2026-01-19 23:52:39.97	90.51	65.20	-39.1	-40.0	24.0	0.00e+00	0	41	0	717225984	50	6408
2026-01-19 23:52:40.98	89.50	65.41	-39.2	-40.1	23.9	0.00e+00	92	41	0	719323136	50	6511
2026-01-19 23:52:41.99	88.48	65.62	-39.6	-40.5	23.7	0.00e+00	71	41	0	721420288	50	6787
2026-01-19 23:52:43.00	87.44	65.82	-40.4	-41.3	22.8	0.00e+00	90	41	0	722468864	52	6692
2026-01-19 23:52:44.01	86.37	66.01	-40.9	-41.9	22.3	0.00e+00	92	41	0	724566016	54	6365
2026-01-19 23:52:45.01	85.30	66.20	-41.1	-42.2	22.0	0.00e+00	92	41	0	726663168	54	6568
2026-01-19 23:52:46.02	84.21	66.37	-41.0	-42.1	22.2	0.00e+00	92	41	0	728760320	54	6468
2026-01-19 23:52:47.03	83.09	66.55	-41.1	-42.1	22.0	0.00e+00	56	41	0	729808896	54	6517
2026-01-19 23:52:48.04	81.95	66.71	-41.7	-42.8	21.6	0.00e+00	90	41	0	731906048	54	7087
2026-01-19 23:52:49.05	80.80	66.86	-41.5	-42.7	21.7	0.00e+00	7	41	0	734003200	54	6970
2026-01-19 23:52:50.06	79.64	67.01	-42.0	-43.2	21.3	0.00e+00	92	41	0	736100352	56	6583
2026-01-19 23:52:51.07	78.45	67.15	-41.8	-43.0	21.5	0.00e+00	32	41	0	738197504	56	6437
2026-01-19 23:52:52.07	77.26	67.28	-41.8	-43.0	21.3	0.00e+00	92	41	0	739246080	56	6438
2026-01-19 23:52:53.08	76.05	67.40	-42.0	-43.2	21.3	0.00e+00	92	42	0	741343232	56	6560
2026-01-19 23:52:54.09	74.82	67.51	-41.9	-43.1	21.6	0.00e+00	79	41	0	743440384	56	6478
2026-01-19 23:52:55.10	73.58	67.61	-41.7	-42.8	21.7	0.00e+00	92	41	0	745537536	56	6270
2026-01-19 23:52:56.11	72.33	67.70	-41.5	-42.6	22.0	0.00e+00	0	41	0	747634688	56	6129
2026-01-19 23:52:57.12	71.07	67.78	-41.2	-42.3	22.2	0.00e+00	92	41	0	749731840	56	5902
2026-01-19 23:52:58.13	69.80	67.85	-41.2	-42.3	22.2	0.00e+00	0	41	0	750780416	56	5912
2026-01-19 23:52:59.14	68.52	67.91	-41.7	-42.8	21.4	0.00e+00	92	41	0	752877568	56	6299
2026-01-19 23:53:00.15	67.23	67.97	-42.1	-43.3	21.5	0.00e+00	90	41	0	754974720	56	6643
2026-01-19 23:53:01.16	65.94	68.01	-42.1	-43.3	21.3	0.00e+00	92	41	0	757071872	56	6651
2026-01-19 23:53:02.17	64.64	68.04	-42.0	-43.2	21.3	0.00e+00	92	41	0	759169024	56	6553
2026-01-19 23:53:03.18	63.34	68.06	-42.2	-43.4	21.3	0.00e+00	0	41	0	760217600	56	6715
2026-01-19 23:53:04.19	62.04	68.07	-42.3	-43.5	21.1	0.00e+00	92	41	0	762314752	56	6782
2026-01-19 23:53:05.20	60.74	68.07	-42.5	-43.7	20.8	0.00e+00	50	41	0	764411904	56	6985
2026-01-19 23:53:06.21	59.43	68.06	-42.7	-44.0	20.7	0.00e+00	92	41	0	766509056	58	6396
2026-01-19 23:53:07.22	58.13	68.03	-42.4	-43.6	21.0	0.00e+00	92	41	0	768606208	58	6153
2026-01-19 23:53:08.23	56.84	68.00	-42.2	-43.3	21.3	0.00e+00	44	41	0	769654784	58	5961
2026-01-19 23:53:09.24	55.55	67.96	-41.5	-42.6	21.9	0.00e+00	92	41	0	771751936	56	6140
2026-01-19 23:53:10.25	54.26	67.91	-41.1	-42.1	22.4	0.00e+00	0	41	0	773849088	56	5826
2026-01-19 23:53:11.26	52.98	67.84	-41.4	-42.5	21.8	0.00e+00	92	41	0	775946240	56	6087
2026-01-19 23:53:12.27	51.71	67.77	-42.1	-43.2	21.3	0.00e+00	55	41	0	778043392	56	6601
2026-01-19 23:53:13.28	50.45	67.69	-42.2	-43.4	21.5	0.00e+00	90	41	0	779091968	56	6702
2026-01-19 23:53:14.29	49.20	67.60	-41.5	-42.6	22.1	0.00e+00	92	41	0	781189120	56	6127
2026-01-19 23:53:15.30	47.96	67.49	-41.3	-42.3	22.3	0.00e+00	50	42	0	783286272	56	5960
2026-01-19 23:53:16.31	46.74	67.38	-41.0	-42.1	22.3	0.00e+00	92	41	0	785383424	56	5774
2026-01-19 23:53:17.32	45.53	67.26	-41.3	-42.3	22.3	0.00e+00	0	41	0	787480576	56	5951
2026-01-19 23:53:18.33	44.33	67.13	-41.2	-42.2	22.3	0.00e+00	92	41	0	788529152	56	5861
2026-01-19 23:53:19.34	43.15	66.99	-41.2	-42.2	22.5	0.00e+00	32	41	0	790626304	56	5872
2026-01-19 23:53:20.35	41.99	66.84	-40.8	-41.8	22.7	0.00e+00	92	41	0	792723456	56	5603
2026-01-19 23:53:21.36	40.84	66.69	-40.7	-41.6	22.8	0.00e+00	1	41	0	794820608	56	5468
2026-01-19 23:53:22.37	39.71	66.53	-40.6	-41.5	22.9	0.00e+00	92	41	0	796917760	54	6082
2026-01-19 23:53:23.38	38.59	66.35	-40.9	-41.9	22.7	0.00e+00	92	41	0	797966336	54	6329
2026-01-19 23:53:24.39	37.50	66.17	-40.8	-41.8	22.7	0.00e+00	33	41	0	800063488	54	6280
2026-01-19 23:53:25.40	36.42	65.99	-40.5	-41.5	23.2	0.00e+00	90	41	0	802160640	54	6080
2026-01-19 23:53:26.40	35.37	65.79	-40.2	-41.1	23.2	0.00e+00	55	41	0	804257792	54	5788
2026-01-19 23:53:27.41	34.33	65.59	-39.9	-40.8	23.7	0.00e+00	92	41	0	806354944	54	5626
2026-01-19 23:53:28.42	33.31	65.39	-39.6	-40.4	24.0	0.00e+00	34	41	0	807403520	52	6029
2026-01-19 23:53:29.43	32.31	65.17	-39.0	-39.8	24.5	0.00e+00	89	41	0	809500672	52	5629
2026-01-19 23:53:30.44	31.33	64.95	-38.9	-39.7	24.6	0.00e+00	92	41	0	811597824	52	5524
2026-01-19 23:53:31.45	30.37	64.73	-38.6	-39.4	24.8	0.00e+00	0	41	0	813694976	50	6027
2026-01-19 23:53:32.46	29.43	64.50	-38.4	-39.3	24.8	0.00e+00	92	41	0	815792128	50	5898
2026-01-19 23:53:33.47	28.50	64.26	-38.8	-39.6	24.7	0.00e+00	7	41	0	817889280	50	6166
2026-01-19 23:53:34.48	27.60	64.02	-39.3	-40.2	24.2	0.00e+00	92	41	0	818937856	50	6540
2026-01-19 23:53:35.48	26.72	63.77	-39.4	-40.3	24.3	0.00e+00	2	41	0	821035008	50	6655
2026-01-19 23:53:36.49	25.85	63.52	-39.2	-40.1	24.3	0.00e+00	92	41	0	823132160	50	6489
2026-01-19 23:53:37.50	25.01	63.27	-39.6	-40.4	24.0	0.00e+00	92	41	0	825229312	50	6759
2026-01-19 23:53:38.51	24.18	63.01	-39.8	-40.7	23.9	0.00e+00	0	41	0	827326464	52	6200
2026-01-19 23:53:39.52	23.36	62.74	-40.1	-41.1	23.3	0.00e+00	92	41	0	828375040	52	6478
2026-01-19 23:53:40.53	22.57	62.47	-40.2	-41.1	23.3	0.00e+00	0	41	0	830472192	52	6536
2026-01-19 23:53:41.54	21.79	62.20	-40.2	-41.2	23.2	0.00e+00	92	41	0	832569344	52	6550
2026-01-19 23:53:42.55	21.03	61.93	-40.8	-41.8	22.8	0.00e+00	37	41	0	834666496	52	7038
2026-01-19 23:53:43.56	20.29	61.65	-41.0	-42.0	22.5	0.00e+00	90	41	0	836763648	54	6416
2026-01-19 23:53:44.57	19.57	61.37	-41.0	-42.1	22.4	0.00e+00	0	41	0	837812224	54	6475
2026-01-19 23:53:45.58	18.86	61.09	-40.8	-41.8	22.5	0.00e+00	92	41	0	839909376	54	6303
2026-01-19 23:53:46.59	18.17	60.80	-41.3	-42.4	21.9	0.00e+00	92	41	0	842006528	54	6746
2026-01-19 23:53:47.60	17.49	60.51	-41.6	-42.7	21.7	0.00e+00	0	41	0	844103680	54	7006
2026-01-19 23:53:48.61	16.83	60.22	-41.5	-42.6	21.8	0.00e+00	92	41	0	846200832	54	6916
2026-01-19 23:53:49.62	16.18	59.93	-42.0	-43.1	21.4	0.00e+00	35	41	0	847249408	56	6537
2026-01-19 23:53:50.63	15.55	59.64	-42.6	-43.8	20.8	0.00e+00	92	41	0	849346560	56	7042
2026-01-19 23:53:51.63	14.93	59.34	-42.7	-44.0	20.7	0.00e+00	25	41	0	851443712	58	6418
2026-01-19 23:53:52.64	14.33	59.05	-42.6	-43.9	20.6	0.00e+00	92	41	0	853540864	58	6322
2026-01-19 23:53:53.65	13.74	58.75	-42.6	-43.9	20.6	0.00e+00	90	41	0	855638016	58	6334
2026-01-19 23:53:54.66	13.16	58.45	-42.7	-43.9	20.6	0.00e+00	0	41	0	856686592	58	6390
2026-01-19 23:53:55.67	12.60	58.15	-42.0	-43.2	21.3	0.00e+00	90	41	0	858783744	58	5887
2026-01-19 23:53:56.69	12.04	57.84	-42.1	-43.3	21.3	0.00e+00	5	41	0	860880896	58	5904
2026-01-19 23:53:57.69	11.51	57.54	-42.5	-43.8	20.8	0.00e+00	91	41	0	862978048	58	6264
2026-01-19 23:53:58.70	10.98	57.24	-42.7	-43.9	20.8	0.00e+00	0	41	0	865075200	58	6364
2026-01-19 23:53:59.72	10.46	56.93	-42.2	-43.4	21.3	0.00e+00	91	41	0	866123776	58	5982
2026-01-19 23:54:00.71	9.96	56.63	-42.1	-43.3	21.6	0.00e+00	0	41	0	868220928	58	5931
2026-01-19 23:54:01.71	9.47	56.33	-42.4	-43.7	21.2	0.00e+00	92	41	0	870318080	58	6177
2026-01-19 23:54:02.72	8.99	56.02	-41.9	-43.0	21.9	0.00e+00	90	41	0	872415232	58	5704
2026-01-19 23:54:03.73	8.52	55.72	-41.8	-42.9	22.2	0.00e+00	0	41	0	874512384	56	6335
2026-01-19 23:54:04.74	8.06	55.41	-40.8	-41.7	23.1	0.00e+00	92	41	0	875560960	56	5554
2026-01-19 23:54:05.75	7.61	55.10	-40.1	-41.0	23.6	0.00e+00	0	41	0	877658112	54	5720
2026-01-19 23:54:06.76	7.16	54.80	-39.6	-40.4	23.8	0.00e+00	91	41	0	879755264	52	6033
2026-01-19 23:54:07.77	6.73	54.49	-39.5	-40.4	23.6	0.00e+00	0	41	0	881852416	52	5982
2026-01-19 23:54:08.78	6.31	54.19	-39.3	-40.2	24.0	0.00e+00	92	41	0	883949568	52	5844
2026-01-19 23:54:09.79	5.90	53.88	-39.1	-40.0	24.1	0.00e+00	92	41	0	886046720	52	5723
2026-01-19 23:54:10.80	5.49	53.57	-39.4	-40.3	24.0	0.00e+00	49	41	0	887095296	52	5902
2026-01-19 23:54:11.81	5.09	53.27	-39.3	-40.2	24.0	0.00e+00	92	41	0	889192448	52	5852
2026-01-19 23:54:12.82	4.70	52.96	-39.0	-39.8	24.4	0.00e+00	51	41	0	891289600	52	5629
2026-01-19 23:54:13.83	4.32	52.66	-39.1	-39.9	24.3	0.00e+00	90	41	0	893386752	52	5685
2026-01-19 23:54:14.84	3.95	52.36	-39.1	-39.9	24.3	0.00e+00	51	42	0	895483904	52	5677
2026-01-19 23:54:15.85	3.59	52.05	-38.9	-39.7	24.3	0.00e+00	90	42	0	896532480	52	5533
2026-01-19 23:54:16.86	3.23	51.75	-38.8	-39.6	24.4	0.00e+00	92	41	0	898629632	50	6132
2026-01-19 23:54:17.87	2.88	51.45	-39.2	-40.0	24.2	0.00e+00	8	41	0	900726784	50	6459
2026-01-19 23:54:18.87	2.54	51.15	-39.7	-40.6	23.7	0.00e+00	92	41	0	902823936	50	6898
2026-01-19 23:54:19.88	2.20	50.85	-40.4	-41.3	23.2	0.00e+00	6	41	0	903872512	52	6671
2026-01-19 23:54:20.89	1.87	50.56	-40.6	-41.6	22.8	0.00e+00	90	41	0	905969664	52	6856
2026-01-19 23:54:21.90	1.55	50.26	-40.4	-41.3	23.0	0.00e+00	0	41	0	908066816	54	5957
2026-01-19 23:54:22.91	1.23	49.96	-40.5	-41.4	23.0	0.00e+00	92	41	0	910163968	54	6007
2026-01-19 23:54:23.92	0.92	49.67	-40.6	-41.5	22.8	0.00e+00	2	41	0	912261120	54	6088
2026-01-19 23:54:24.93	0.62	49.37	-40.7	-41.7	22.5	0.00e+00	0	41	0	914358272	54	6209
2026-01-19 23:54:25.94	0.32	49.08	-41.0	-42.1	22.3	0.00e+00	92	41	0	915406848	54	6470
2026-01-19 23:54:26.95	0.02	48.78	-41.3	-42.4	22.0	0.00e+00	0	41	0	917504000	54	6741
2026-01-19 23:54:27.96	359.74	48.49	-41.3	-42.3	22.2	0.00e+00	92	41	0	919601152	54	6686
2026-01-19 23:54:28.97	359.45	48.20	-41.1	-42.2	22.3	0.00e+00	0	41	0	921698304	54	6552
2026-01-19 23:54:29.98	359.18	47.91	-40.7	-41.7	22.8	0.00e+00	92	41	0	923795456	54	6224
2026-01-19 23:54:30.99	358.91	47.63	-40.9	-41.9	22.4	0.00e+00	0	41	0	924844032	54	6376
2026-01-19 23:54:32.00	358.64	47.34	-41.2	-42.2	22.5	0.00e+00	45	41	0	926941184	54	6584
2026-01-19 23:54:33.01	358.38	47.05	-41.5	-42.6	21.7	0.00e+00	92	41	0	929038336	54	6913
2026-01-19 23:54:34.02	358.12	46.77	-41.9	-43.1	21.4	0.00e+00	36	41	0	931135488	56	6506
2026-01-19 23:54:35.03	357.87	46.49	-42.1	-43.3	21.0	0.00e+00	92	41	0	933232640	56	6681
2026-01-19 23:54:36.04	357.62	46.21	-42.7	-44.0	20.7	0.00e+00	0	41	0	934281216	56	7177
2026-01-19 23:54:37.04	357.38	45.93	-42.2	-43.5	21.1	0.00e+00	92	41	0	936378368	58	6059
2026-01-19 23:54:38.05	357.14	45.65	-41.6	-42.7	21.8	0.00e+00	44	41	0	938475520	56	6213
2026-01-19 23:54:39.06	356.91	45.37	-41.4	-42.5	21.9	0.00e+00	92	41	0	940572672	56	6103
2026-01-19 23:54:40.07	356.68	45.10	-41.3	-42.3	22.1	0.00e+00	2	41	0	942669824	56	5951
2026-01-19 23:54:41.08	356.45	44.82	-41.7	-42.8	21.5	0.00e+00	44	42	0	943718400	56	6275
2026-01-19 23:54:42.09	356.23	44.55	-41.3	-42.5	21.9	0.00e+00	90	41	0	945815552	56	6038
2026-01-19 23:54:43.10	356.01	44.28	-41.6	-42.7	21.9	0.00e+00	0	41	0	947912704	56	6221
2026-01-19 23:54:44.11	355.79	44.01	-41.9	-43.0	21.7	0.00e+00	92	42	0	950009856	56	6432
2026-01-19 23:54:45.12	355.58	43.74	-42.4	-43.6	21.0	0.00e+00	2	41	0	952107008	56	6925
2026-01-19 23:54:46.13	355.38	43.47	-42.5	-43.8	20.8	0.00e+00	92	41	0	953155584	56	7041
2026-01-19 23:54:47.14	355.17	43.20	-42.6	-43.9	20.8	0.00e+00	0	42	0	955252736	58	6327
2026-01-19 23:54:48.15	354.97	42.94	-42.5	-43.8	20.6	0.00e+00	36	42	0	957349888	58	6292
2026-01-19 23:54:49.16	354.77	42.67	-42.6	-43.9	20.3	0.00e+00	92	41	0	959447040	58	6370
2026-01-19 23:54:50.17	354.58	42.41	-43.0	-44.4	20.2	0.00e+00	36	41	0	961544192	58	6721
2026-01-19 23:54:51.17	354.39	42.16	-43.4	-44.8	19.7	0.00e+00	90	41	0	962592768	58	7064
2026-01-19 23:54:52.18	354.20	41.90	-43.2	-44.7	19.8	0.00e+00	36	41	0	964689920	58	6940
2026-01-19 23:54:53.19	354.02	41.64	-43.4	-44.9	19.6	0.00e+00	90	41	0	966787072	58	7108
2026-01-19 23:54:54.20	353.83	41.38	-43.5	-45.0	19.4	0.00e+00	15	41	0	968884224	58	7245
2026-01-19 23:54:55.21	353.66	41.13	-43.9	-45.5	19.4	0.00e+00	90	42	0	970981376	60	6820
2026-01-19 23:54:56.22	353.48	40.88	-43.6	-45.2	19.4	0.00e+00	92	42	0	972029952	60	6573
2026-01-19 23:54:57.24	353.30	40.62	-43.6	-45.1	19.7	0.00e+00	35	42	0	974127104	60	6480
2026-01-19 23:54:58.25	353.13	40.37	-43.0	-44.3	20.2	0.00e+00	91	41	0	976224256	60	5942
2026-01-19 23:54:59.25	352.97	40.13	-42.9	-44.2	20.5	0.00e+00	0	42	0	978321408	58	6566
2026-01-19 23:55:00.26	352.80	39.88	-42.4	-43.6	20.9	0.00e+00	92	42	0	980418560	58	6139
2026-01-19 23:55:01.27	352.64	39.63	-42.6	-43.8	20.6	0.00e+00	45	42	0	982515712	58	6312
2026-01-19 23:55:02.28	352.48	39.39	-42.6	-43.9	20.7	0.00e+00	92	41	0	983564288	58	6354
2026-01-19 23:55:03.29	352.32	39.15	-42.7	-44.0	20.4	0.00e+00	89	42	0	985661440	58	6397
2026-01-19 23:55:04.30	352.16	38.90	-42.7	-43.9	20.6	0.00e+00	0	41	0	987758592	58	6378
2026-01-19 23:55:05.30	352.01	38.67	-42.4	-43.6	20.8	0.00e+00	92	41	0	989855744	58	6161
2026-01-19 23:55:06.32	351.86	38.43	-41.9	-43.1	21.4	0.00e+00	0	42	0	991952896	58	5771
2026-01-19 23:55:07.33	351.71	38.19	-41.9	-43.1	21.3	0.00e+00	92	41	0	993001472	58	5819
2026-01-19 23:55:08.34	351.57	37.95	-41.9	-43.1	21.3	0.00e+00	0	41	0	995098624	58	5795
2026-01-19 23:55:09.35	351.42	37.72	-42.2	-43.4	21.2	0.00e+00	92	41	0	997195776	58	6019
2026-01-19 23:55:10.36	351.28	37.49	-42.3	-43.6	20.9	0.00e+00	0	41	0	999292928	58	6114
2026-01-19 23:55:11.37	351.14	37.26	-42.1	-43.3	21.3	0.00e+00	36	41	0	1001390080	58	5953
2026-01-19 23:55:12.38	351.00	37.03	-41.8	-43.0	21.5	0.00e+00	92	41	0	1002438656	58	5720
2026-01-19 23:55:13.39	350.86	36.80	-41.7	-42.8	21.7	0.00e+00	34	41	0	1004535808	56	6303
2026-01-19 23:55:14.40	350.73	36.57	-41.6	-42.7	21.8	0.00e+00	92	41	0	1006632960	56	6214
2026-01-19 23:55:15.40	350.60	36.35	-41.5	-42.7	21.6	0.00e+00	0	41	0	1008730112	56	6204
2026-01-19 23:55:16.41	350.47	36.12	-41.9	-43.0	21.4	0.00e+00	92	41	0	1010827264	56	6464
2026-01-19 23:55:17.42	350.34	35.90	-41.8	-43.0	21.4	0.00e+00	60	41	0	1011875840	56	6427
2026-01-19 23:55:18.43	350.21	35.68	-42.0	-43.2	21.4	0.00e+00	91	41	0	1013972992	56	6542
2026-01-19 23:55:19.44	350.09	35.46	-41.9	-43.1	21.6	0.00e+00	92	41	0	1016070144	56	6473
2026-01-19 23:55:20.45	349.96	35.24	-41.8	-42.9	21.5	0.00e+00	43	41	0	1018167296	56	6380
2026-01-19 23:55:21.46	349.84	35.02	-41.8	-42.9	21.6	0.00e+00	90	41	0	1020264448	56	6339
2026-01-19 23:55:22.47	349.72	34.81	-42.0	-43.1	21.3	0.00e+00	0	41	0	1021313024	56	6514
2026-01-19 23:55:23.48	349.60	34.59	-42.4	-43.6	20.9	0.00e+00	92	41	0	1023410176	56	6926
2026-01-19 23:55:24.49	349.49	34.38	-42.8	-44.1	20.5	0.00e+00	0	41	0	1025507328	58	6522
2026-01-19 23:55:25.50	349.37	34.17	-42.7	-44.0	20.6	0.00e+00	90	42	0	1027604480	58	6419
2026-01-19 23:55:26.51	349.26	33.96	-42.8	-44.1	20.6	0.00e+00	89	41	0	1029701632	58	6505
2026-01-19 23:55:27.52	349.15	33.75	-42.6	-43.9	20.7	0.00e+00	2	41	0	1030750208	58	6355
2026-01-19 23:55:28.53	349.04	33.54	-42.7	-43.9	20.7	0.00e+00	91	41	0	1032847360	58	6373
2026-01-19 23:55:29.54	348.93	33.33	-42.4	-43.7	20.7	0.00e+00	0	41	0	1034944512	58	6205
2026-01-19 23:55:30.55	348.82	33.12	-42.9	-44.2	20.3	0.00e+00	92	41	0	1037041664	58	6580
2026-01-19 23:55:31.56	348.71	32.92	-43.0	-44.4	20.0	0.00e+00	0	41	0	1039138816	58	6754
2026-01-19 23:55:32.57	348.61	32.72	-43.3	-44.7	19.7	0.00e+00	92	41	0	1040187392	58	6995
2026-01-19 23:55:33.58	348.50	32.52	-43.4	-44.9	19.5	0.00e+00	0	41	0	1042284544	58	7132
2026-01-19 23:55:34.59	348.40	32.31	-43.4	-45.0	19.6	0.00e+00	48	41	0	1044381696	58	7177
2026-01-19 23:55:35.59	348.30	32.12	-43.9	-45.6	18.9	0.00e+00	92	41	0	1046478848	60	6854
2026-01-19 23:55:36.60	348.20	31.92	-44.2	-45.9	18.6	0.00e+00	33	41	0	1048576000	60	7154
2026-01-19 23:55:37.61	348.10	31.72	-44.5	-46.4	18.1	0.00e+00	92	41	0	1050673152	60	7550
2026-01-19 23:55:38.62	348.01	31.53	-44.5	-46.3	18.1	0.00e+00	0	41	0	1051721728	60	7498
2026-01-19 23:55:39.63	347.91	31.33	-44.7	-46.6	17.9	0.00e+00	92	41	0	1053818880	60	7727
2026-01-19 23:55:40.64	347.81	31.14	-44.7	-46.6	18.0	0.00e+00	50	41	0	1055916032	60	7738
2026-01-19 23:55:41.65	347.72	30.95	-44.3	-46.1	18.4	0.00e+00	5	41	0	1058013184	60	7256
2026-01-19 23:55:42.66	347.63	30.76	-44.0	-45.6	18.8	0.00e+00	92	41	0	1060110336	60	6877
2026-01-19 23:55:43.67	347.54	30.57	-43.9	-45.6	18.8	0.00e+00	6	41	0	1061158912	60	6866
2026-01-19 23:55:44.68	347.45	30.38	-43.8	-45.3	19.2	0.00e+00	92	41	0	1063256064	60	6676
2026-01-19 23:55:45.69	347.36	30.19	-43.6	-45.1	19.4	0.00e+00	0	41	0	1065353216	60	6531
2026-01-19 23:55:46.70	347.27	30.00	-43.6	-45.2	19.4	0.00e+00	92	41	0	1067450368	60	6570
2026-01-19 23:55:47.71	347.18	29.82	-43.6	-45.1	19.5	0.00e+00	0	41	0	1069547520	60	6498
2026-01-19 23:55:48.72	347.09	29.63	-43.4	-44.9	19.6	0.00e+00	92	41	0	1070596096	60	6356
2026-01-19 23:55:49.73	347.01	29.45	-43.5	-45.0	19.5	0.00e+00	92	41	0	1072693248	60	6451
2026-01-19 23:55:50.74	346.93	29.27	-43.4	-44.8	19.7	0.00e+00	32	41	0	1074790400	60	6300
2026-01-19 23:55:51.75	346.84	29.09	-43.5	-45.0	19.4	0.00e+00	92	41	0	1076887552	60	6441
2026-01-19 23:55:52.75	346.76	28.91	-43.6	-45.2	19.4	0.00e+00	33	41	0	1078984704	60	6561
2026-01-19 23:55:53.77	346.68	28.73	-43.6	-45.1	19.5	0.00e+00	91	41	0	1080033280	60	6484
2026-01-19 23:55:54.77	346.60	28.55	-43.5	-45.0	19.5	0.00e+00	0	41	0	1082130432	60	6443
2026-01-19 23:55:55.78	346.52	28.38	-43.6	-45.1	19.3	0.00e+00	0	41	0	1084227584	60	6535
2026-01-19 23:55:56.79	346.44	28.20	-43.2	-44.6	19.7	0.00e+00	0	41	0	1086324736	60	6149
2026-01-19 23:55:57.80	346.36	28.03	-43.3	-44.8	19.7	0.00e+00	53	41	0	1088421888	60	6247
2026-01-19 23:55:58.81	346.29	27.85	-42.8	-44.1	20.3	0.00e+00	92	41	0	1089470464	60	5818
2026-01-19 23:55:59.82	346.21	27.68	-42.8	-44.1	20.4	0.00e+00	32	41	0	1091567616	58	6496
2026-01-19 23:56:00.83	346.14	27.51	-42.5	-43.7	20.6	0.00e+00	90	41	0	1093664768	58	6229
2026-01-19 23:56:01.84	346.06	27.34	-42.7	-44.0	20.4	0.00e+00	0	41	0	1095761920	58	6399
2026-01-19 23:56:02.85	345.99	27.17	-42.3	-43.5	20.7	0.00e+00	55	41	0	1097859072	58	6093
2026-01-19 23:56:03.86	345.92	27.00	-42.2	-43.4	20.8	0.00e+00	56	41	0	1098907648	58	6022
2026-01-19 23:56:04.87	345.84	26.84	-42.1	-43.3	21.0	0.00e+00	52	41	0	1101004800	58	5922
2026-01-19 23:56:05.88	345.77	26.67	-41.9	-43.1	21.3	0.00e+00	92	41	0	1103101952	58	5787
2026-01-19 23:56:06.89	345.70	26.50	-42.0	-43.2	21.4	0.00e+00	5	41	0	1105199104	58	5843
2026-01-19 23:56:07.90	345.63	26.34	-42.0	-43.2	21.5	0.00e+00	92	42	0	1107296256	58	5842
2026-01-19 23:56:08.91	345.57	26.18	-41.8	-42.9	21.6	0.00e+00	0	41	0	1108344832	58	5675
2026-01-19 23:56:09.92	345.50	26.01	-41.8	-42.9	21.6	0.00e+00	0	41	0	1110441984	56	6390
2026-01-19 23:56:10.93	345.43	25.85	-41.7	-42.8	21.7	0.00e+00	5	41	0	1112539136	56	6288
2026-01-19 23:56:11.94	345.36	25.69	-41.9	-43.0	21.5	0.00e+00	0	41	0	1114636288	56	6461
2026-01-19 23:56:12.95	345.30	25.53	-41.8	-42.9	21.5	0.00e+00	12	42	0	1116733440	56	6375
2026-01-19 23:56:13.96	345.23	25.37	-41.9	-43.1	21.5	0.00e+00	35	41	0	1118830592	56	6469
2026-01-19 23:56:14.97	345.17	25.21	-42.2	-43.4	21.3	0.00e+00	92	41	0	1119879168	56	6724
2026-01-19 23:56:15.98	345.11	25.06	-42.3	-43.5	21.4	0.00e+00	0	41	0	1121976320	56	6805
2026-01-19 23:56:16.99	345.04	24.90	-42.1	-43.3	21.6	0.00e+00	48	41	0	1124073472	56	6636
2026-01-19 23:56:18.00	344.98	24.75	-41.8	-43.0	21.4	0.00e+00	49	41	0	1126170624	56	6443
2026-01-19 23:56:19.01	344.92	24.59	-41.5	-42.6	21.8	0.00e+00	49	41	0	1128267776	56	6115
2026-01-19 23:56:20.02	344.86	24.44	-41.3	-42.4	22.0	0.00e+00	0	41	0	1129316352	56	5996
2026-01-19 23:56:21.03	344.80	24.29	-41.3	-42.4	21.9	0.00e+00	50	41	0	1131413504	56	5999
2026-01-19 23:56:22.03	344.74	24.14	-41.1	-42.2	22.2	0.00e+00	92	41	0	1133510656	56	5856
2026-01-19 23:56:23.04	344.68	23.98	-40.6	-41.6	22.5	0.00e+00	50	41	0	1135607808	54	6153
2026-01-19 23:56:24.05	344.62	23.83	-40.6	-41.7	22.4	0.00e+00	92	41	0	1137704960	54	6181
2026-01-19 23:56:25.06	344.56	23.68	-40.3	-41.3	22.8	0.00e+00	49	41	0	1138753536	54	5936
2026-01-19 23:56:26.07	344.50	23.54	-40.2	-41.2	22.9	0.00e+00	0	41	0	1140850688	54	5873
2026-01-19 23:56:27.08	344.45	23.39	-40.2	-41.2	22.8	0.00e+00	49	41	0	1142947840	54	5849
2026-01-19 23:56:28.09	344.39	23.24	-40.2	-41.2	22.7	0.00e+00	0	41	0	1145044992	54	5875
2026-01-19 23:56:29.10	344.34	23.10	-40.1	-41.1	22.9	0.00e+00	92	41	0	1147142144	54	5796
2026-01-19 23:56:30.11	344.28	22.95	-40.1	-41.0	22.9	0.00e+00	0	41	0	1148190720	54	5751
2026-01-19 23:56:31.12	344.23	22.81	-40.1	-41.0	22.9	0.00e+00	92	41	0	1150287872	54	5752
2026-01-19 23:56:32.13	344.17	22.66	-39.9	-40.9	23.0	0.00e+00	0	41	0	1152385024	54	5632
2026-01-19 23:56:33.14	344.12	22.52	-40.1	-41.0	22.9	0.00e+00	0	41	0	1154482176	54	5746
2026-01-19 23:56:34.15	344.07	22.38	-40.1	-41.0	22.9	0.00e+00	30	41	0	1156579328	54	5761
2026-01-19 23:56:35.16	344.01	22.24	-40.1	-41.1	22.8	0.00e+00	2	41	0	1157627904	54	5790
2026-01-19 23:56:36.17	343.96	22.09	-40.0	-40.9	23.0	0.00e+00	2	41	0	1159725056	54	5686
2026-01-19 23:56:37.18	343.91	21.95	-40.0	-41.0	22.9	0.00e+00	32	41	0	1161822208	54	5722
2026-01-19 23:56:38.19	343.86	21.82	-40.0	-41.0	22.9	0.00e+00	92	41	0	1163919360	54	5709
2026-01-19 23:56:39.19	343.81	21.68	-40.0	-40.9	22.8	0.00e+00	32	41	0	1166016512	54	5686
2026-01-19 23:56:40.20	343.76	21.54	-40.1	-41.0	22.9	0.00e+00	92	41	0	1167065088	54	5736
2026-01-19 23:56:41.21	343.71	21.40	-40.0	-41.0	22.9	0.00e+00	49	41	0	1169162240	54	5719
2026-01-19 23:56:42.22	343.66	21.27	-40.2	-41.2	22.8	0.00e+00	50	41	0	1171259392	54	5861
2026-01-19 23:56:43.23	343.61	21.13	-40.0	-41.0	22.9	0.00e+00	0	41	0	1173356544	54	5723
2026-01-19 23:56:44.24	343.56	21.00	-40.1	-41.1	22.8	0.00e+00	2	41	0	1175453696	54	5780
2026-01-19 23:56:45.25	343.52	20.86	-40.2	-41.2	22.7	0.00e+00	91	41	0	1176502272	54	5864
2026-01-19 23:56:46.26	343.47	20.73	-40.1	-41.1	22.8	0.00e+00	48	41	0	1178599424	54	5820
2026-01-19 23:56:47.27	343.42	20.60	-40.2	-41.2	22.6	0.00e+00	91	41	0	1180696576	54	5860
2026-01-19 23:56:48.27	343.38	20.47	-40.2	-41.2	22.6	0.00e+00	0	41	0	1182793728	54	5892
2026-01-19 23:56:49.28	343.33	20.33	-40.3	-41.4	22.5	0.00e+00	2	41	0	1184890880	54	5965
2026-01-19 23:56:50.29	343.28	20.20	-40.4	-41.4	22.5	0.00e+00	2	41	0	1186988032	54	5996
2026-01-19 23:56:51.30	343.24	20.07	-40.5	-41.6	22.3	0.00e+00	0	41	0	1188036608	54	6116
2026-01-19 23:56:52.31	343.19	19.94	-40.5	-41.5	22.3	0.00e+00	92	41	0	1190133760	54	6075
2026-01-19 23:56:53.32	343.15	19.82	-40.6	-41.6	22.3	0.00e+00	0	41	0	1192230912	54	6145
2026-01-19 23:56:54.33	343.11	19.69	-40.7	-41.7	22.3	0.00e+00	92	41	0	1194328064	54	6217
