passes_logs/2026/01/19/R4.6S_Anadyr/R4.6S_Anadyr__20260119_221112_TY-42_rec.log

#Pass ID: 20260119_221112_TY-42
#Satellite: TY-42
#Configuration: TY-42_900M
#almurnet v.1.7.20251203
#Start time: 2026-01-19 22:11:43

#Version: 2.2.20231116
#Station: R4.6S_Anadyr
#Location: 177.4865 lon 64.73178 lat
#TLE: 1 64048U 25103A   26019.64980324  .00008009  00000-0  38191-3 0 09999
#TLE: 2 64048 097.4122 094.9798 0001728 092.0823 301.7953 15.19165919 37529

#Time	Az	El	Level	Level2	SNR	BER	BlckErr	Temp	State	Recorded	gain1	gain2
2026-01-19 22:11:43.40	23.18	1.85	-52.5	-65.0	3.4	1.52e+00	0	39	0	0	60	62281
2026-01-19 22:11:44.41	23.26	1.92	-49.5	-52.0	6.1	0.00e+00	0	41	104	0	60	48544
2026-01-19 22:11:45.42	23.34	1.98	-49.1	-51.6	6.1	0.00e+00	0	41	104	0	60	46511
2026-01-19 22:11:46.43	23.42	2.04	-49.1	-51.6	6.1	0.00e+00	0	41	104	0	60	46303
2026-01-19 22:11:47.43	23.50	2.10	-48.9	-51.4	6.1	0.00e+00	0	41	104	0	60	45624
2026-01-19 22:11:48.44	23.58	2.17	-48.9	-51.3	6.1	0.00e+00	0	41	104	0	60	45184
2026-01-19 22:11:49.45	23.66	2.23	-48.9	-51.4	6.1	0.00e+00	0	41	104	0	60	45426
2026-01-19 22:11:50.46	23.75	2.29	-49.1	-51.6	6.1	0.00e+00	0	41	104	0	60	46306
2026-01-19 22:11:51.47	23.83	2.36	-49.0	-51.5	6.1	0.00e+00	0	41	104	0	60	45974
2026-01-19 22:11:52.48	23.91	2.42	-49.1	-51.6	6.1	0.00e+00	0	41	104	0	60	46808
2026-01-19 22:11:53.49	24.00	2.48	-49.6	-52.1	6.1	0.00e+00	0	41	104	0	60	49100
2026-01-19 22:11:54.50	24.08	2.55	-49.4	-51.9	6.1	0.00e+00	0	41	104	0	60	47938
2026-01-19 22:11:55.51	24.17	2.61	-49.1	-51.6	6.1	0.00e+00	0	41	104	0	60	46450
2026-01-19 22:11:56.52	24.25	2.68	-49.1	-51.6	6.1	0.00e+00	0	41	104	0	60	46745
2026-01-19 22:11:57.53	24.34	2.74	-49.2	-51.7	6.1	0.00e+00	0	41	104	0	60	47160
2026-01-19 22:11:58.54	24.43	2.81	-49.2	-51.7	6.1	0.00e+00	0	41	104	0	60	47002
2026-01-19 22:11:59.54	24.51	2.87	-49.2	-51.7	6.1	0.00e+00	0	41	104	0	60	46881
2026-01-19 22:12:00.55	24.60	2.94	-49.1	-51.5	6.1	0.00e+00	0	41	104	0	60	46204
2026-01-19 22:12:01.56	24.69	3.00	-49.0	-51.5	6.1	0.00e+00	0	41	104	0	60	45994
2026-01-19 22:12:02.57	24.78	3.07	-49.0	-51.5	6.1	0.00e+00	0	41	104	0	60	45898
2026-01-19 22:12:03.58	24.86	3.13	-49.2	-51.7	6.1	0.00e+00	0	41	104	0	60	46895
2026-01-19 22:12:04.59	24.95	3.20	-49.3	-51.8	6.1	0.00e+00	0	41	104	0	60	47388
2026-01-19 22:12:05.60	25.04	3.26	-49.2	-51.7	6.0	0.00e+00	0	41	104	0	60	47206
2026-01-19 22:12:06.61	25.13	3.33	-49.1	-51.6	6.1	0.00e+00	0	41	104	0	60	46358
2026-01-19 22:12:07.63	25.22	3.40	-49.2	-51.7	6.1	0.00e+00	0	42	104	0	60	47138
2026-01-19 22:12:08.63	25.31	3.46	-49.3	-51.8	6.1	0.00e+00	0	42	104	0	60	47768
2026-01-19 22:12:09.64	25.41	3.53	-49.4	-51.9	6.1	0.00e+00	0	42	104	0	60	48034
2026-01-19 22:12:10.65	25.50	3.59	-49.2	-51.7	6.1	0.00e+00	0	42	104	0	60	47147
2026-01-19 22:12:11.66	25.59	3.66	-49.3	-51.9	6.1	0.00e+00	0	42	104	0	60	47935
2026-01-19 22:12:12.67	25.68	3.73	-49.7	-52.1	6.1	0.00e+00	0	42	104	0	60	49336
2026-01-19 22:12:13.68	25.78	3.80	-49.2	-51.7	6.1	0.00e+00	0	42	104	0	60	47109
2026-01-19 22:12:14.69	25.87	3.86	-49.1	-51.5	6.1	0.00e+00	0	42	104	0	60	46235
2026-01-19 22:12:15.70	25.97	3.93	-49.2	-51.7	6.1	0.00e+00	0	42	104	0	60	46884
2026-01-19 22:12:16.70	26.06	4.00	-49.2	-51.7	6.1	0.00e+00	0	42	104	0	60	46971
2026-01-19 22:12:17.71	26.16	4.06	-49.2	-51.7	6.1	0.00e+00	0	42	104	0	60	46857
2026-01-19 22:12:18.72	26.25	4.13	-48.8	-51.3	6.1	0.00e+00	0	42	104	0	60	45046
2026-01-19 22:12:19.73	26.35	4.20	-49.0	-51.5	6.1	0.00e+00	0	42	104	0	60	45957
2026-01-19 22:12:20.74	26.45	4.27	-49.2	-51.7	6.1	0.00e+00	0	42	104	0	60	46836
2026-01-19 22:12:21.75	26.55	4.34	-49.1	-51.5	6.1	0.00e+00	0	42	104	0	60	46277
2026-01-19 22:12:22.76	26.64	4.41	-48.9	-51.3	6.1	0.00e+00	0	42	104	0	60	45036
2026-01-19 22:12:23.77	26.74	4.48	-49.1	-51.6	6.1	0.00e+00	0	42	104	0	60	46621
2026-01-19 22:12:24.78	26.84	4.54	-49.1	-51.6	6.1	0.00e+00	0	42	104	0	60	46630
2026-01-19 22:12:25.79	26.94	4.61	-49.2	-51.6	6.1	0.00e+00	0	42	104	0	60	46389
2026-01-19 22:12:26.80	27.04	4.68	-49.2	-51.6	6.1	0.00e+00	0	42	104	0	60	46768
2026-01-19 22:12:27.81	27.14	4.75	-49.3	-51.8	6.1	0.00e+00	0	42	104	0	60	47581
2026-01-19 22:12:28.82	27.25	4.82	-49.3	-51.7	6.1	0.00e+00	0	42	104	0	60	47289
2026-01-19 22:12:29.83	27.35	4.89	-49.2	-51.7	6.1	0.00e+00	0	42	104	0	60	47188
2026-01-19 22:12:30.84	27.45	4.96	-49.1	-51.6	6.1	0.00e+00	0	42	104	0	60	46371
2026-01-19 22:12:31.84	27.55	5.03	-49.1	-51.6	6.1	0.00e+00	0	42	104	0	60	46614
2026-01-19 22:12:32.86	27.66	5.10	-49.3	-51.8	6.1	0.00e+00	0	42	104	0	60	47476
2026-01-19 22:12:33.87	27.76	5.17	-49.3	-51.8	6.1	0.00e+00	0	42	104	0	60	47476
2026-01-19 22:12:34.88	27.87	5.24	-49.1	-51.6	6.1	0.00e+00	0	42	104	0	60	46721
2026-01-19 22:12:35.89	27.98	5.31	-49.3	-51.8	6.1	0.00e+00	0	42	104	0	60	47475
2026-01-19 22:12:36.90	28.08	5.39	-49.3	-51.8	6.1	0.00e+00	0	42	104	0	60	47858
2026-01-19 22:12:37.91	28.19	5.46	-49.4	-51.9	6.1	0.00e+00	0	42	104	0	60	48370
2026-01-19 22:12:38.91	28.30	5.53	-49.4	-51.9	6.1	0.00e+00	0	42	104	0	60	47986
2026-01-19 22:12:39.92	28.41	5.60	-49.6	-52.1	6.1	0.00e+00	0	42	104	0	60	49351
2026-01-19 22:12:40.93	28.52	5.67	-49.6	-52.0	6.1	0.00e+00	0	42	104	0	60	48870
2026-01-19 22:12:41.94	28.63	5.74	-49.2	-51.6	6.0	0.00e+00	0	42	104	0	60	46302
2026-01-19 22:12:42.95	28.74	5.82	-49.1	-51.3	6.0	0.00e+00	0	42	104	0	60	45169
2026-01-19 22:12:43.96	28.85	5.89	-47.8	-49.6	6.1	0.00e+00	0	42	104	0	60	36928
2026-01-19 22:12:44.97	28.96	5.96	-46.2	-47.4	6.6	0.00e+00	0	42	104	0	60	28815
2026-01-19 22:12:45.97	29.07	6.03	-46.4	-47.7	6.7	0.00e+00	0	42	104	0	60	29783
2026-01-19 22:12:46.99	29.18	6.11	-41.7	-42.2	8.8	0.00e+00	4951	42	104	0	60	15702
2026-01-19 22:12:48.00	29.30	6.18	-39.6	-40.0	10.2	0.00e+00	639	42	104	0	52	19344
2026-01-19 22:12:49.00	29.41	6.25	-41.8	-42.3	9.4	0.00e+00	5249	42	104	0	54	22651
2026-01-19 22:12:50.01	29.53	6.33	-40.7	-41.0	9.8	8.33e-02	5512	43	0	92274688	56	17245
2026-01-19 22:12:51.02	29.64	6.40	-44.4	-45.1	8.6	0.00e+00	0	42	104	142606336	60	22143
2026-01-19 22:12:52.03	29.76	6.47	-42.1	-42.7	8.6	0.00e+00	3492	42	104	142606336	60	16644
2026-01-19 22:12:53.04	29.88	6.55	-40.4	-40.9	9.6	0.00e+00	324	42	104	142606336	58	15169
2026-01-19 22:12:54.05	30.00	6.62	-39.6	-39.8	10.2	0.00e+00	5512	43	0	150994944	54	16917
2026-01-19 22:12:55.06	30.11	6.70	-39.3	-39.6	10.7	0.00e+00	5512	43	0	268435456	52	18435
2026-01-19 22:12:56.07	30.23	6.77	-40.9	-41.1	9.7	4.41e-01	5511	43	0	385875968	56	17522
2026-01-19 22:12:57.08	30.35	6.85	-40.7	-40.9	9.9	4.41e-01	5512	43	0	494927872	58	15313
2026-01-19 22:12:58.09	30.48	6.92	-41.8	-42.0	9.3	4.82e-01	5369	43	0	603979776	58	17270
2026-01-19 22:12:59.10	30.60	7.00	-41.9	-42.5	9.3	0.00e+00	0	43	104	679477248	60	16301
2026-01-19 22:13:00.10	30.72	7.07	-39.9	-40.3	9.7	0.00e+00	5512	43	104	679477248	56	16026
2026-01-19 22:13:01.11	30.84	7.15	-41.0	-41.2	11.3	1.78e-01	5513	43	0	754974720	56	17611
2026-01-19 22:13:02.12	30.97	7.23	-39.3	-39.5	10.7	1.78e-01	5512	43	0	872415232	56	14625
2026-01-19 22:13:03.13	31.09	7.30	-39.0	-39.2	11.0	3.44e-01	5394	43	0	981467136	50	19975
2026-01-19 22:13:04.14	31.22	7.38	-41.1	-41.3	9.7	3.44e-01	5514	43	0	1090519040	56	17940
2026-01-19 22:13:05.15	31.34	7.45	-39.1	-39.3	10.7	5.07e-01	5714	43	0	1207959552	54	16002
2026-01-19 22:13:06.16	31.47	7.53	-41.1	-41.3	9.6	5.07e-01	5511	43	0	1317011456	56	17926
2026-01-19 22:13:07.17	31.60	7.61	-40.5	-40.9	9.5	0.00e+00	0	43	104	1400897536	58	15290
2026-01-19 22:13:08.18	31.73	7.69	-38.1	-38.4	10.9	0.00e+00	5493	43	104	1400897536	54	14453
2026-01-19 22:13:09.19	31.86	7.76	-40.2	-40.5	10.3	1.36e-01	5513	43	0	1459617792	54	18326
2026-01-19 22:13:10.20	31.99	7.84	-39.2	-39.5	10.8	1.36e-01	4530	43	0	1577058304	52	18252
2026-01-19 22:13:11.21	32.12	7.92	-33.8	-34.2	14.1	3.19e-01	0	43	0	1686110208	44	15738
2026-01-19 22:13:12.22	32.25	8.00	-36.1	-36.3	12.9	3.19e-01	0	43	0	1803550720	44	20202
2026-01-19 22:13:13.23	32.39	8.08	-39.0	-39.3	12.2	3.19e-01	147	43	0	1920991232	52	17977
2026-01-19 22:13:14.23	32.52	8.15	-37.1	-37.5	12.8	1.41e-01	0	43	0	2030043136	52	14517
2026-01-19 22:13:15.24	32.65	8.23	-34.0	-34.5	12.4	1.41e-01	0	43	0	2139095040	46	14495
2026-01-19 22:13:16.25	32.79	8.31	-34.6	-35.0	14.4	1.61e-01	0	44	0	2256535552	50	12188
2026-01-19 22:13:17.26	32.92	8.39	-32.8	-33.3	15.2	1.61e-01	0	43	0	2365587456	38	20080
2026-01-19 22:13:18.27	33.06	8.47	-38.6	-39.1	10.4	2.73e-02	4901	43	0	2483027968	48	22035
2026-01-19 22:13:19.28	33.20	8.55	-35.7	-36.1	13.6	2.73e-02	0	44	0	2600468480	44	19611
2026-01-19 22:13:20.29	33.34	8.63	-34.2	-34.7	14.1	8.74e-02	0	44	0	2709520384	44	16648
2026-01-19 22:13:21.29	33.48	8.71	-32.9	-33.4	14.3	8.74e-02	0	44	0	2826960896	38	20276
2026-01-19 22:13:22.30	33.62	8.79	-36.2	-36.5	13.1	2.97e-02	0	44	0	2936012800	50	14630
2026-01-19 22:13:23.31	33.76	8.87	-33.4	-33.8	14.4	2.97e-02	0	44	0	3045064704	42	16915
2026-01-19 22:13:24.32	33.90	8.95	-33.8	-34.2	14.5	5.04e-02	0	44	0	3162505216	42	17726
2026-01-19 22:13:25.33	34.05	9.03	-33.2	-33.6	14.8	5.04e-02	0	44	0	3279945728	40	18553
2026-01-19 22:13:26.34	34.19	9.11	-31.6	-32.1	15.1	1.49e-02	0	44	0	3388997632	40	15616
2026-01-19 22:13:27.35	34.34	9.19	-36.1	-36.4	13.7	1.49e-02	0	44	0	3506438144	46	18111
2026-01-19 22:13:28.36	34.49	9.28	-32.5	-32.9	14.6	1.91e-02	0	44	0	3615490048	38	19265
2026-01-19 22:13:29.37	34.63	9.36	-34.1	-34.5	14.7	8.31e-03	0	44	0	3732930560	38	23031
2026-01-19 22:13:30.38	34.78	9.44	-33.6	-34.0	14.1	8.31e-03	0	44	0	3850371072	48	12313
2026-01-19 22:13:31.39	34.93	9.52	-34.1	-34.4	14.6	8.31e-03	0	44	0	3959422976	40	20425
2026-01-19 22:13:32.40	35.08	9.60	-35.9	-36.3	13.5	1.89e-02	0	44	0	4068474880	44	19981
2026-01-19 22:13:33.40	35.23	9.69	-32.5	-32.9	15.1	1.89e-02	0	44	0	4185915392	42	15178
2026-01-19 22:13:34.41	35.39	9.77	-32.7	-33.1	15.1	2.46e-02	0	44	0	4294967296	46	12350
2026-01-19 22:13:35.42	35.54	9.85	-33.2	-33.5	14.9	2.46e-02	0	44	0	4412407808	42	16316
2026-01-19 22:13:36.43	35.70	9.93	-33.5	-33.9	15.3	1.64e-02	0	44	0	4529848320	40	19157
2026-01-19 22:13:37.44	35.85	10.02	-31.3	-31.7	15.3	1.64e-02	0	44	0	4638900224	36	18851
2026-01-19 22:13:38.45	36.01	10.10	-31.8	-32.2	15.3	1.71e-02	0	44	0	4756340736	42	14081
2026-01-19 22:13:39.46	36.17	10.19	-31.5	-31.9	16.0	1.71e-02	0	44	0	4865392640	38	17097
2026-01-19 22:13:40.47	36.33	10.27	-34.2	-34.5	15.2	2.63e-03	0	44	0	4982833152	42	18306
2026-01-19 22:13:41.48	36.49	10.35	-33.7	-34.0	15.4	2.63e-03	0	44	0	5091885056	44	15478
2026-01-19 22:13:42.48	36.65	10.44	-31.9	-32.4	15.5	8.00e-03	0	44	0	5209325568	40	16072
2026-01-19 22:13:43.49	36.81	10.52	-33.4	-33.9	14.5	8.00e-03	0	44	0	5318377472	42	17042
2026-01-19 22:13:44.50	36.97	10.61	-33.2	-33.6	15.0	5.60e-03	0	44	0	5435817984	36	23369
2026-01-19 22:13:45.52	37.14	10.69	-34.1	-34.6	14.8	5.60e-03	0	44	0	5544869888	44	16438
2026-01-19 22:13:46.53	37.30	10.78	-35.6	-36.0	14.2	8.25e-03	0	44	0	5662310400	44	19350
2026-01-19 22:13:47.54	37.47	10.87	-33.2	-33.7	15.2	8.25e-03	0	44	0	5779750912	42	16637
2026-01-19 22:13:48.54	37.64	10.95	-33.3	-33.8	14.6	1.40e-02	0	44	0	5888802816	42	16864
2026-01-19 22:13:49.55	37.81	11.04	-31.1	-31.5	15.9	1.40e-02	0	44	0	5997854720	38	16377
2026-01-19 22:13:50.56	37.98	11.12	-30.7	-31.2	16.1	5.80e-03	0	44	0	6115295232	34	19816
2026-01-19 22:13:51.57	38.15	11.21	-30.0	-30.4	16.2	5.80e-03	0	44	0	6232735744	34	18160
2026-01-19 22:13:52.57	38.32	11.29	-32.8	-33.2	15.5	8.28e-04	0	44	0	6341787648	38	19936
2026-01-19 22:13:53.58	38.49	11.38	-29.7	-30.1	16.6	8.28e-04	0	44	0	6459228160	34	17517
2026-01-19 22:13:54.59	38.67	11.47	-29.2	-29.7	16.5	8.28e-04	0	44	0	6568280064	34	16690
2026-01-19 22:13:55.60	38.85	11.56	-30.0	-30.5	16.4	4.31e-04	0	44	0	6685720576	32	20588
2026-01-19 22:13:56.61	39.02	11.64	-30.4	-30.8	16.2	4.31e-04	0	44	0	6794772480	34	19000
2026-01-19 22:13:57.62	39.20	11.73	-29.5	-29.9	16.5	2.67e-04	0	44	0	6912212992	34	17058
2026-01-19 22:13:58.63	39.38	11.82	-29.1	-29.5	16.6	2.67e-04	0	44	0	7021264896	32	18378
2026-01-19 22:13:59.64	39.56	11.91	-28.5	-29.0	16.7	5.07e-04	0	44	0	7138705408	32	17270
2026-01-19 22:14:00.65	39.75	12.00	-28.6	-29.1	16.8	5.07e-04	0	44	0	7247757312	32	17469
2026-01-19 22:14:01.66	39.93	12.08	-28.1	-28.5	16.6	3.26e-05	0	44	0	7365197824	32	16427
2026-01-19 22:14:02.67	40.12	12.17	-28.2	-28.6	16.8	3.26e-05	0	44	0	7482638336	32	16578
2026-01-19 22:14:03.68	40.30	12.26	-28.0	-28.5	16.8	1.63e-05	0	44	0	7591690240	30	18288
2026-01-19 22:14:04.69	40.49	12.35	-27.3	-27.8	16.8	1.63e-05	0	44	0	7709130752	30	16875
2026-01-19 22:14:05.70	40.68	12.44	-27.3	-27.8	16.9	1.63e-05	0	44	0	7818182656	30	16886
2026-01-19 22:14:06.71	40.87	12.53	-28.3	-28.8	16.8	5.40e-06	0	44	0	7927234560	30	18879
2026-01-19 22:14:07.72	41.06	12.62	-28.1	-28.6	16.7	5.40e-06	0	44	0	8044675072	30	18520
2026-01-19 22:14:08.73	41.26	12.71	-28.5	-29.0	16.7	2.72e-05	0	44	0	8162115584	30	19338
2026-01-19 22:14:09.74	41.45	12.80	-27.4	-27.9	16.9	2.72e-05	0	44	0	8271167488	30	17106
2026-01-19 22:14:10.74	41.65	12.89	-27.8	-28.3	16.8	5.44e-05	0	44	0	8388608000	30	17818
2026-01-19 22:14:11.75	41.84	12.98	-27.8	-28.3	16.7	5.44e-05	0	44	0	8497659904	30	17972
2026-01-19 22:14:12.76	42.04	13.07	-28.0	-28.4	16.9	1.08e-05	0	44	0	8615100416	32	16153
2026-01-19 22:14:13.77	42.24	13.16	-28.5	-29.0	16.7	1.08e-05	0	44	0	8732540928	30	19473
2026-01-19 22:14:14.78	42.45	13.25	-27.7	-28.2	16.9	0.00e+00	0	44	0	8841592832	30	17665
2026-01-19 22:14:15.79	42.65	13.34	-27.8	-28.3	16.9	0.00e+00	0	44	0	8950644736	30	17857
2026-01-19 22:14:16.80	42.85	13.43	-27.6	-28.1	16.9	0.00e+00	0	44	0	9068085248	30	17463
2026-01-19 22:14:17.81	43.06	13.52	-27.9	-28.4	16.8	1.08e-05	0	44	0	9177137152	30	18191
2026-01-19 22:14:18.82	43.27	13.61	-27.7	-28.2	16.9	1.08e-05	0	44	0	9294577664	30	17667
2026-01-19 22:14:19.83	43.48	13.70	-27.2	-27.7	17.0	0.00e+00	0	44	0	9412018176	30	16643
2026-01-19 22:14:20.84	43.69	13.80	-27.5	-27.9	16.9	0.00e+00	0	44	0	9521070080	30	17189
2026-01-19 22:14:21.85	43.90	13.89	-26.8	-27.3	17.0	5.40e-06	0	44	0	9638510592	30	15886
2026-01-19 22:14:22.86	44.11	13.98	-27.4	-27.9	17.0	5.40e-06	0	44	0	9747562496	30	17111
2026-01-19 22:14:23.87	44.33	14.07	-27.1	-27.6	17.0	5.40e-06	0	44	0	9856614400	28	18480
2026-01-19 22:14:24.88	44.55	14.16	-27.3	-27.8	17.0	5.40e-06	0	44	0	9974054912	28	18928
2026-01-19 22:14:25.89	44.77	14.26	-26.8	-27.3	17.0	1.63e-05	0	44	0	10091495424	30	15943
2026-01-19 22:14:26.90	44.99	14.35	-26.2	-26.7	17.1	1.63e-05	0	44	0	10200547328	28	16731
2026-01-19 22:14:27.91	45.21	14.44	-25.9	-26.4	17.2	5.40e-06	0	44	0	10317987840	28	16163
2026-01-19 22:14:28.92	45.43	14.53	-26.3	-26.7	17.2	5.40e-06	0	44	0	10435428352	28	16809
2026-01-19 22:14:29.93	45.66	14.63	-26.1	-26.6	17.2	5.40e-06	0	44	0	10544480256	28	16464
2026-01-19 22:14:30.94	45.88	14.72	-26.7	-27.1	17.2	0.00e+00	0	44	0	10661920768	28	17601
2026-01-19 22:14:31.95	46.11	14.81	-26.5	-27.0	17.1	0.00e+00	0	44	0	10770972672	28	17348
2026-01-19 22:14:32.96	46.34	14.91	-26.2	-26.7	17.3	0.00e+00	0	44	0	10880024576	28	16685
2026-01-19 22:14:33.97	46.57	15.00	-25.8	-26.3	17.3	0.00e+00	0	44	0	11005853696	28	15914
2026-01-19 22:14:34.98	46.81	15.09	-26.2	-26.6	17.2	0.00e+00	0	44	0	11114905600	26	18590
2026-01-19 22:14:35.99	47.04	15.19	-26.1	-26.5	17.3	0.00e+00	0	44	0	11223957504	26	18429
2026-01-19 22:14:37.00	47.28	15.28	-25.9	-26.4	17.3	0.00e+00	0	44	0	11341398016	26	18026
2026-01-19 22:14:38.00	47.51	15.37	-25.9	-26.4	17.2	0.00e+00	0	44	0	11450449920	26	18052
2026-01-19 22:14:39.02	47.76	15.47	-25.7	-26.2	17.3	0.00e+00	0	44	0	11567890432	26	17774
2026-01-19 22:14:40.02	48.00	15.56	-25.8	-26.3	17.2	0.00e+00	0	44	0	11685330944	26	17832
2026-01-19 22:14:41.03	48.24	15.65	-25.8	-26.3	17.2	0.00e+00	0	44	0	11794382848	26	17868
2026-01-19 22:14:42.04	48.49	15.74	-26.2	-26.7	17.2	0.00e+00	0	44	0	11903434752	26	18724
2026-01-19 22:14:43.05	48.73	15.84	-25.9	-26.4	17.3	5.40e-06	0	44	0	12020875264	26	18110
2026-01-19 22:14:44.06	48.98	15.93	-25.8	-26.4	17.3	5.40e-06	0	44	0	12129927168	26	18046
2026-01-19 22:14:45.07	49.23	16.03	-25.5	-26.0	17.3	0.00e+00	0	44	0	12247367680	26	17322
2026-01-19 22:14:46.08	49.48	16.12	-25.3	-25.8	17.3	0.00e+00	0	44	0	12364808192	26	16855
2026-01-19 22:14:47.09	49.74	16.21	-25.3	-25.8	17.3	0.00e+00	0	44	0	12473860096	26	16922
2026-01-19 22:14:48.10	50.00	16.31	-25.6	-26.0	17.3	0.00e+00	0	44	0	12591300608	26	17398
2026-01-19 22:14:49.11	50.25	16.40	-25.6	-26.1	17.3	0.00e+00	0	44	0	12700352512	26	17421
2026-01-19 22:14:50.12	50.51	16.49	-25.6	-26.1	17.3	0.00e+00	0	44	0	12817793024	26	17488
2026-01-19 22:14:51.13	50.77	16.59	-25.9	-26.4	17.2	0.00e+00	0	44	0	12935233536	26	18165
2026-01-19 22:14:52.14	51.04	16.68	-26.1	-26.6	17.2	0.00e+00	0	44	0	13044285440	26	18480
2026-01-19 22:14:53.15	51.30	16.77	-26.3	-26.8	17.2	0.00e+00	0	44	0	13153337344	26	18880
2026-01-19 22:14:54.16	51.57	16.87	-25.6	-26.1	17.3	0.00e+00	0	44	0	13270777856	26	17428
2026-01-19 22:14:55.17	51.84	16.96	-25.8	-26.2	17.3	0.00e+00	0	44	0	13388218368	26	17801
2026-01-19 22:14:56.18	52.11	17.05	-25.5	-26.0	17.3	0.00e+00	0	44	0	13497270272	26	17280
2026-01-19 22:14:57.19	52.39	17.15	-25.5	-26.0	17.2	0.00e+00	0	44	0	13614710784	26	17374
2026-01-19 22:14:58.20	52.66	17.24	-25.6	-26.2	17.2	0.00e+00	0	44	0	13723762688	26	17630
2026-01-19 22:14:59.21	52.94	17.33	-25.8	-26.3	17.2	0.00e+00	0	44	0	13832814592	26	17933
2026-01-19 22:15:00.22	53.22	17.42	-25.6	-26.0	17.2	0.00e+00	0	44	0	13958643712	26	17360
2026-01-19 22:15:01.23	53.50	17.52	-24.9	-25.4	17.3	0.00e+00	0	44	0	14067695616	26	16058
2026-01-19 22:15:02.24	53.78	17.61	-25.6	-26.1	17.2	0.00e+00	0	44	0	14176747520	26	17585
2026-01-19 22:15:03.25	54.07	17.70	-25.4	-25.8	17.1	0.00e+00	0	44	0	14294188032	26	16952
2026-01-19 22:15:04.26	54.35	17.79	-25.7	-26.2	17.3	1.63e-05	0	44	0	14403239936	26	17719
2026-01-19 22:15:05.27	54.64	17.88	-25.1	-25.6	17.3	1.63e-05	0	44	0	14520680448	26	16496
2026-01-19 22:15:06.28	54.93	17.98	-25.6	-26.0	17.2	1.63e-05	0	44	0	14638120960	26	17290
2026-01-19 22:15:07.29	55.22	18.07	-24.8	-25.3	17.2	0.00e+00	0	44	0	14747172864	26	15956
2026-01-19 22:15:08.30	55.52	18.16	-24.7	-25.2	17.3	0.00e+00	0	44	0	14864613376	26	15801
2026-01-19 22:15:09.31	55.82	18.25	-24.6	-25.1	17.2	0.00e+00	0	44	0	14973665280	24	17504
2026-01-19 22:15:10.32	56.12	18.34	-24.8	-25.4	17.2	0.00e+00	0	44	0	15091105792	24	18036
2026-01-19 22:15:11.33	56.42	18.43	-24.9	-25.4	17.3	0.00e+00	0	44	0	15200157696	24	18025
2026-01-19 22:15:12.34	56.72	18.52	-24.6	-25.1	17.2	0.00e+00	0	44	0	15317598208	24	17565
2026-01-19 22:15:13.35	57.02	18.61	-24.5	-25.0	17.2	0.00e+00	0	44	0	15426650112	24	17215
2026-01-19 22:15:14.36	57.33	18.70	-24.9	-25.4	17.1	0.00e+00	0	44	0	15544090624	24	18178
2026-01-19 22:15:15.37	57.64	18.79	-24.6	-25.1	17.2	0.00e+00	0	44	0	15661531136	24	17431
2026-01-19 22:15:16.38	57.95	18.88	-24.6	-25.1	17.3	0.00e+00	0	44	0	15770583040	24	17476
2026-01-19 22:15:17.39	58.27	18.97	-24.5	-25.0	17.3	0.00e+00	0	44	0	15888023552	24	17236
2026-01-19 22:15:18.40	58.58	19.06	-24.3	-24.8	17.3	0.00e+00	0	44	0	15997075456	24	16941
2026-01-19 22:15:19.40	58.90	19.14	-24.5	-25.0	17.3	0.00e+00	0	44	0	16106127360	24	17258
2026-01-19 22:15:20.41	59.21	19.23	-24.3	-24.8	17.2	0.00e+00	0	44	0	16223567872	24	16884
2026-01-19 22:15:21.42	59.54	19.32	-24.4	-24.9	17.2	0.00e+00	0	44	0	16341008384	24	17007
2026-01-19 22:15:22.43	59.86	19.40	-23.9	-24.4	17.2	0.00e+00	0	44	0	16450060288	24	16216
2026-01-19 22:15:23.44	60.19	19.49	-23.9	-24.4	17.2	0.00e+00	0	44	0	16567500800	24	16143
2026-01-19 22:15:24.44	60.51	19.57	-23.8	-24.3	17.3	0.00e+00	0	44	0	16676552704	24	16052
2026-01-19 22:15:25.45	60.84	19.66	-23.9	-24.4	17.3	0.00e+00	0	44	0	16793993216	24	16082
2026-01-19 22:15:26.46	61.17	19.74	-23.9	-24.4	17.3	0.00e+00	0	44	0	16903045120	24	16146
2026-01-19 22:15:27.47	61.51	19.83	-23.8	-24.3	17.3	0.00e+00	0	44	0	17020485632	24	15936
2026-01-19 22:15:28.48	61.84	19.91	-23.9	-24.4	17.3	0.00e+00	0	44	0	17129537536	24	16151
2026-01-19 22:15:29.49	62.18	20.00	-23.9	-24.4	17.3	0.00e+00	0	44	0	17246978048	24	16231
2026-01-19 22:15:30.50	62.52	20.08	-24.0	-24.4	17.3	0.00e+00	0	44	0	17356029952	22	18215
2026-01-19 22:15:31.51	62.86	20.16	-24.1	-24.6	17.4	0.00e+00	0	44	0	17473470464	22	18512
2026-01-19 22:15:32.52	63.21	20.24	-23.7	-24.2	17.3	0.00e+00	0	44	0	17590910976	22	17703
2026-01-19 22:15:33.53	63.55	20.32	-23.9	-24.4	17.4	0.00e+00	0	44	0	17699962880	22	18020
2026-01-19 22:15:34.54	63.90	20.40	-24.7	-25.2	17.4	0.00e+00	0	44	0	17817403392	22	19768
2026-01-19 22:15:35.55	64.25	20.48	-23.7	-24.2	17.4	0.00e+00	0	44	0	17926455296	22	17783
2026-01-19 22:15:36.56	64.61	20.56	-23.8	-24.3	17.4	0.00e+00	0	44	0	18035507200	22	17858
2026-01-19 22:15:37.57	64.96	20.64	-23.7	-24.1	17.3	0.00e+00	0	44	0	18152947712	22	17564
2026-01-19 22:15:38.58	65.32	20.72	-23.6	-24.0	17.2	0.00e+00	0	44	0	18270388224	22	17398
2026-01-19 22:15:39.59	65.68	20.80	-24.1	-24.6	17.2	0.00e+00	0	44	0	18379440128	22	18475
2026-01-19 22:15:40.60	66.04	20.87	-23.9	-24.4	17.3	0.00e+00	0	44	0	18496880640	22	18031
2026-01-19 22:15:41.61	66.40	20.95	-23.4	-23.9	17.3	0.00e+00	0	44	0	18605932544	22	17129
2026-01-19 22:15:42.62	66.76	21.02	-23.2	-23.7	17.3	0.00e+00	0	44	0	18723373056	22	16741
2026-01-19 22:15:43.63	67.13	21.10	-23.9	-24.4	17.3	0.00e+00	0	44	0	18840813568	22	18139
2026-01-19 22:15:44.64	67.50	21.17	-23.5	-24.0	17.4	0.00e+00	0	44	0	18949865472	22	17229
2026-01-19 22:15:45.64	67.87	21.24	-23.3	-23.7	17.4	0.00e+00	0	44	0	19058917376	22	16804
2026-01-19 22:15:46.65	68.24	21.31	-23.2	-23.7	17.4	0.00e+00	0	44	0	19176357888	22	16712
2026-01-19 22:15:47.66	68.61	21.38	-23.9	-24.4	17.4	0.00e+00	0	44	0	19285409792	22	18125
2026-01-19 22:15:48.67	68.99	21.45	-23.9	-24.4	17.4	0.00e+00	0	45	0	19402850304	24	16077
2026-01-19 22:15:49.68	69.37	21.52	-24.1	-24.5	17.4	0.00e+00	0	44	0	19520290816	22	18423
2026-01-19 22:15:50.69	69.75	21.59	-23.5	-24.0	17.4	0.00e+00	0	44	0	19629342720	22	17366
2026-01-19 22:15:51.69	70.12	21.66	-23.3	-23.8	17.4	0.00e+00	0	44	0	19746783232	22	16837
2026-01-19 22:15:52.70	70.51	21.72	-23.3	-23.8	17.4	0.00e+00	0	45	0	19855835136	22	16935
2026-01-19 22:15:53.71	70.89	21.79	-23.4	-23.9	17.4	0.00e+00	0	44	0	19964887040	22	17156
2026-01-19 22:15:54.72	71.28	21.85	-23.1	-23.6	17.4	0.00e+00	0	44	0	20082327552	22	16557
2026-01-19 22:15:55.73	71.67	21.91	-23.8	-24.3	17.4	0.00e+00	0	44	0	20199768064	22	17916
2026-01-19 22:15:56.74	72.06	21.98	-24.8	-25.2	17.3	0.00e+00	0	44	0	20308819968	22	19969
2026-01-19 22:15:57.75	72.45	22.04	-24.4	-24.9	17.4	0.00e+00	0	44	0	20426260480	24	17038
2026-01-19 22:15:58.76	72.85	22.10	-24.5	-25.1	17.3	0.00e+00	0	44	0	20535312384	22	19553
2026-01-19 22:15:59.77	73.25	22.16	-23.8	-24.3	17.3	0.00e+00	0	44	0	20652752896	24	15917
2026-01-19 22:16:00.78	73.64	22.21	-24.6	-25.0	17.3	0.00e+00	0	44	0	20770193408	26	15507
2026-01-19 22:16:01.79	74.04	22.27	-23.6	-24.1	17.3	0.00e+00	0	44	0	20879245312	22	17570
2026-01-19 22:16:02.80	74.44	22.32	-24.0	-24.5	17.3	0.00e+00	0	44	0	20988297216	22	18226
2026-01-19 22:16:03.80	74.84	22.38	-23.6	-24.1	17.4	0.00e+00	0	44	0	21105737728	24	15581
2026-01-19 22:16:04.81	75.25	22.43	-23.4	-23.9	17.4	0.00e+00	0	44	0	21214789632	22	17067
2026-01-19 22:16:05.82	75.65	22.48	-24.3	-24.8	17.4	0.00e+00	0	44	0	21332230144	22	18978
2026-01-19 22:16:06.83	76.06	22.53	-24.6	-25.0	17.4	0.00e+00	0	45	0	21449670656	22	19489
2026-01-19 22:16:07.84	76.47	22.58	-23.6	-24.1	17.3	0.00e+00	0	45	0	21558722560	22	17517
2026-01-19 22:16:08.85	76.88	22.63	-23.4	-23.9	17.3	0.00e+00	0	44	0	21676163072	22	17011
2026-01-19 22:16:09.86	77.29	22.68	-23.6	-24.1	17.3	0.00e+00	0	45	0	21785214976	22	17407
2026-01-19 22:16:10.87	77.70	22.72	-24.1	-24.6	17.3	0.00e+00	0	45	0	21902655488	22	18579
2026-01-19 22:16:11.88	78.12	22.77	-23.7	-24.2	17.3	0.00e+00	0	44	0	22011707392	22	17714
2026-01-19 22:16:12.89	78.53	22.81	-23.2	-23.7	17.4	0.00e+00	0	44	0	22129147904	22	16764
2026-01-19 22:16:13.89	78.94	22.85	-23.4	-23.9	17.3	0.00e+00	0	45	0	22238199808	22	17047
2026-01-19 22:16:14.91	79.37	22.89	-23.2	-23.7	17.3	0.00e+00	0	45	0	22355640320	22	16708
2026-01-19 22:16:15.92	79.79	22.93	-23.0	-23.5	17.3	0.00e+00	0	44	0	22464692224	22	16397
2026-01-19 22:16:16.93	80.21	22.97	-23.0	-23.5	17.3	0.00e+00	0	44	0	22582132736	22	16321
2026-01-19 22:16:17.94	80.63	23.01	-23.2	-23.7	17.2	0.00e+00	0	44	0	22699573248	22	16618
2026-01-19 22:16:18.95	81.05	23.04	-23.5	-24.0	17.2	0.00e+00	0	45	0	22808625152	22	17249
2026-01-19 22:16:19.96	81.47	23.07	-23.4	-23.9	17.2	0.00e+00	0	44	0	22917677056	22	17107
2026-01-19 22:16:20.97	81.90	23.11	-23.3	-23.8	17.3	0.00e+00	0	44	0	23043506176	22	16914
2026-01-19 22:16:21.98	82.32	23.14	-23.5	-24.0	17.3	0.00e+00	0	44	0	23152558080	22	17207
2026-01-19 22:16:22.99	82.75	23.17	-23.1	-23.5	17.3	0.00e+00	0	44	0	23261609984	22	16418
2026-01-19 22:16:23.99	83.17	23.19	-23.6	-24.1	17.2	0.00e+00	0	45	0	23379050496	22	17500
2026-01-19 22:16:25.00	83.60	23.22	-23.0	-23.5	17.3	0.00e+00	0	45	0	23488102400	22	16332
2026-01-19 22:16:26.02	84.03	23.25	-23.4	-23.9	17.3	0.00e+00	0	45	0	23605542912	22	17076
2026-01-19 22:16:27.02	84.46	23.27	-22.9	-23.4	17.3	0.00e+00	0	45	0	23722983424	22	16157
2026-01-19 22:16:28.04	84.89	23.29	-23.1	-23.6	17.3	0.00e+00	0	44	0	23832035328	22	16524
2026-01-19 22:16:29.04	85.32	23.31	-22.9	-23.4	17.2	0.00e+00	0	44	0	23941087232	22	16076
2026-01-19 22:16:30.05	85.75	23.33	-23.2	-23.6	17.2	0.00e+00	0	45	0	24058527744	20	18640
2026-01-19 22:16:31.06	86.18	23.35	-22.9	-23.4	17.3	0.00e+00	0	45	0	24167579648	20	18046
2026-01-19 22:16:32.06	86.61	23.36	-23.0	-23.4	17.2	0.00e+00	0	44	0	24285020160	20	18143
2026-01-19 22:16:33.07	87.05	23.38	-22.9	-23.4	17.2	0.00e+00	0	45	0	24402460672	20	18019
2026-01-19 22:16:34.08	87.48	23.39	-23.0	-23.5	17.2	0.00e+00	0	44	0	24511512576	20	18336
2026-01-19 22:16:35.09	87.91	23.40	-22.7	-23.2	17.2	0.00e+00	0	44	0	24628953088	20	17653
2026-01-19 22:16:36.10	88.35	23.41	-23.2	-23.7	17.2	0.00e+00	0	45	0	24738004992	20	18717
2026-01-19 22:16:37.11	88.78	23.42	-23.0	-23.4	17.1	0.00e+00	0	45	0	24847056896	20	18130
2026-01-19 22:16:38.12	89.22	23.42	-22.8	-23.3	17.2	0.00e+00	0	45	0	24972886016	20	17806
2026-01-19 22:16:39.13	89.65	23.43	-22.8	-23.3	17.2	0.00e+00	0	45	0	25081937920	20	17894
2026-01-19 22:16:40.14	90.09	23.43	-22.9	-23.4	17.1	0.00e+00	0	45	0	25190989824	20	18034
2026-01-19 22:16:41.15	90.52	23.43	-23.3	-23.7	17.1	0.00e+00	0	44	0	25308430336	20	18822
2026-01-19 22:16:42.16	90.96	23.43	-23.3	-23.7	17.1	0.00e+00	0	45	0	25417482240	20	18777
2026-01-19 22:16:43.16	91.39	23.43	-23.1	-23.5	17.2	0.00e+00	0	45	0	25534922752	20	18427
2026-01-19 22:16:44.17	91.83	23.43	-23.4	-23.8	17.1	0.00e+00	0	45	0	25652363264	20	19068
2026-01-19 22:16:45.18	92.26	23.43	-23.1	-23.5	17.1	0.00e+00	0	45	0	25761415168	20	18355
2026-01-19 22:16:46.19	92.70	23.42	-22.9	-23.3	17.1	0.00e+00	0	45	0	25870467072	20	17975
2026-01-19 22:16:47.20	93.13	23.41	-23.0	-23.4	17.1	0.00e+00	0	45	0	25987907584	20	18181
2026-01-19 22:16:48.21	93.57	23.40	-22.7	-23.1	17.1	0.00e+00	0	45	0	26096959488	20	17589
2026-01-19 22:16:49.22	94.00	23.39	-22.8	-23.3	17.1	0.00e+00	0	45	0	26214400000	20	17909
2026-01-19 22:16:50.23	94.43	23.38	-23.0	-23.4	17.1	0.00e+00	0	45	0	26331840512	20	18177
2026-01-19 22:16:51.24	94.87	23.37	-23.4	-23.9	17.1	0.00e+00	0	45	0	26440892416	20	19112
2026-01-19 22:16:52.25	95.30	23.35	-23.4	-23.8	17.1	0.00e+00	0	45	0	26558332928	20	19007
2026-01-19 22:16:53.26	95.73	23.33	-23.5	-23.9	17.1	0.00e+00	0	45	0	26667384832	20	19227
2026-01-19 22:16:54.27	96.17	23.32	-23.2	-23.6	17.0	0.00e+00	0	45	0	26784825344	20	18585
2026-01-19 22:16:55.28	96.60	23.30	-23.3	-23.7	17.1	0.00e+00	0	45	0	26902265856	20	18817
2026-01-19 22:16:56.28	97.02	23.28	-23.2	-23.6	17.0	0.00e+00	0	45	0	27011317760	20	18503
2026-01-19 22:16:57.29	97.45	23.25	-23.2	-23.6	17.1	0.00e+00	0	45	0	27120369664	20	18595
2026-01-19 22:16:58.30	97.88	23.23	-22.9	-23.4	17.0	0.00e+00	0	45	0	27237810176	20	18078
2026-01-19 22:16:59.31	98.31	23.20	-23.1	-23.5	17.0	0.00e+00	0	45	0	27346862080	20	18386
2026-01-19 22:17:00.32	98.74	23.18	-23.2	-23.6	17.0	0.00e+00	0	45	0	27464302592	20	18545
2026-01-19 22:17:01.33	99.17	23.15	-23.3	-23.7	17.0	0.00e+00	0	45	0	27581743104	20	18833
2026-01-19 22:17:02.34	99.60	23.12	-23.4	-23.9	17.0	0.00e+00	0	45	0	27690795008	20	19163
2026-01-19 22:17:03.35	100.02	23.08	-23.0	-23.4	17.0	0.00e+00	0	45	0	27799846912	20	18211
2026-01-19 22:17:04.36	100.45	23.05	-23.1	-23.6	17.0	0.00e+00	0	45	0	27917287424	20	18443
2026-01-19 22:17:05.37	100.87	23.02	-23.3	-23.8	17.0	0.00e+00	0	45	0	28034727936	20	18915
2026-01-19 22:17:06.38	101.29	22.98	-23.6	-24.0	17.0	0.00e+00	0	45	0	28143779840	22	17314
2026-01-19 22:17:07.39	101.71	22.94	-23.4	-23.8	17.1	0.00e+00	0	45	0	28261220352	22	16848
2026-01-19 22:17:08.39	102.13	22.91	-23.6	-24.0	17.1	0.00e+00	0	45	0	28370272256	22	17221
2026-01-19 22:17:09.41	102.55	22.87	-23.7	-24.1	17.0	0.00e+00	0	45	0	28487712768	22	17587
2026-01-19 22:17:10.41	102.97	22.82	-23.5	-23.9	17.0	0.00e+00	0	45	0	28596764672	22	17146
2026-01-19 22:17:11.42	103.38	22.78	-23.5	-23.9	17.1	0.00e+00	0	45	0	28714205184	22	17086
2026-01-19 22:17:12.43	103.80	22.74	-23.4	-23.9	17.1	0.00e+00	0	45	0	28831645696	22	17013
2026-01-19 22:17:13.44	104.21	22.69	-23.5	-23.9	17.1	0.00e+00	0	45	0	28940697600	22	17135
2026-01-19 22:17:14.45	104.63	22.65	-23.5	-24.0	17.1	0.00e+00	0	45	0	29049749504	22	17241
2026-01-19 22:17:15.46	105.04	22.60	-23.5	-24.0	17.1	0.00e+00	0	45	0	29167190016	22	17247
2026-01-19 22:17:16.47	105.45	22.55	-23.5	-24.0	17.1	0.00e+00	0	45	0	29284630528	22	17260
2026-01-19 22:17:17.48	105.86	22.50	-23.4	-23.8	17.2	0.00e+00	0	45	0	29393682432	22	16888
2026-01-19 22:17:18.49	106.26	22.45	-23.4	-23.9	17.2	0.00e+00	0	45	0	29511122944	22	17029
2026-01-19 22:17:19.50	106.67	22.39	-24.0	-24.4	17.2	0.00e+00	0	45	0	29620174848	22	18118
2026-01-19 22:17:20.51	107.07	22.34	-23.5	-24.0	17.2	0.00e+00	0	45	0	29729226752	22	17257
2026-01-19 22:17:21.51	107.47	22.28	-23.9	-24.3	17.2	0.00e+00	0	45	0	29846667264	22	17895
2026-01-19 22:17:22.52	107.87	22.23	-23.9	-24.3	17.2	0.00e+00	0	45	0	29964107776	22	18009
2026-01-19 22:17:23.53	108.27	22.17	-23.9	-24.3	17.1	0.00e+00	0	45	0	30073159680	22	17994
2026-01-19 22:17:24.54	108.67	22.11	-24.1	-24.5	17.2	0.00e+00	0	45	0	30190600192	22	18343
2026-01-19 22:17:25.55	109.07	22.05	-23.8	-24.2	17.3	0.00e+00	0	45	0	30299652096	22	17701
2026-01-19 22:17:26.57	109.47	21.99	-23.6	-24.0	17.2	0.00e+00	0	45	0	30417092608	22	17396
2026-01-19 22:17:27.58	109.86	21.93	-23.6	-24.1	17.3	0.00e+00	0	45	0	30534533120	22	17408
2026-01-19 22:17:28.59	110.25	21.87	-23.3	-23.7	17.3	0.00e+00	0	45	0	30643585024	22	16775
2026-01-19 22:17:29.60	110.64	21.80	-23.3	-23.7	17.3	0.00e+00	0	45	0	30761025536	22	16795
2026-01-19 22:17:30.60	111.02	21.74	-23.4	-23.8	17.3	0.00e+00	0	45	0	30870077440	22	16988
2026-01-19 22:17:31.61	111.41	21.67	-23.9	-24.3	17.3	0.00e+00	0	45	0	30979129344	22	17857
2026-01-19 22:17:32.62	111.79	21.60	-23.4	-23.8	17.4	0.00e+00	0	45	0	31096569856	22	16978
2026-01-19 22:17:33.63	112.17	21.54	-23.5	-23.9	17.4	0.00e+00	0	45	0	31214010368	22	17155
2026-01-19 22:17:34.64	112.55	21.47	-24.1	-24.5	17.3	0.00e+00	0	45	0	31323062272	22	18363
2026-01-19 22:17:35.65	112.93	21.40	-24.1	-24.5	17.4	0.00e+00	0	45	0	31440502784	22	18280
2026-01-19 22:17:36.66	113.31	21.33	-24.3	-24.7	17.3	0.00e+00	0	45	0	31549554688	22	18698
2026-01-19 22:17:37.67	113.68	21.26	-24.3	-24.7	17.4	0.00e+00	0	45	0	31666995200	22	18845
2026-01-19 22:17:38.68	114.06	21.18	-24.0	-24.4	17.4	0.00e+00	0	45	0	31784435712	22	18209
2026-01-19 22:17:39.69	114.43	21.11	-23.8	-24.2	17.4	0.00e+00	0	45	0	31893487616	22	17802
2026-01-19 22:17:40.70	114.79	21.04	-23.7	-24.1	17.4	0.00e+00	0	45	0	32002539520	22	17514
2026-01-19 22:17:41.70	115.16	20.96	-23.8	-24.2	17.4	0.00e+00	0	45	0	32119980032	22	17761
2026-01-19 22:17:42.71	115.52	20.89	-23.9	-24.3	17.4	0.00e+00	0	45	0	32229031936	22	17963
2026-01-19 22:17:43.72	115.88	20.81	-23.9	-24.4	17.4	0.00e+00	0	45	0	32346472448	22	18060
2026-01-19 22:17:44.73	116.25	20.73	-24.0	-24.5	17.5	0.00e+00	0	45	0	32463912960	22	18232
2026-01-19 22:17:45.74	116.60	20.65	-23.6	-24.1	17.4	0.00e+00	0	45	0	32572964864	22	17463
2026-01-19 22:17:46.75	116.96	20.58	-23.8	-24.2	17.5	0.00e+00	0	45	0	32682016768	22	17702
2026-01-19 22:17:47.76	117.32	20.50	-23.9	-24.3	17.5	0.00e+00	0	45	0	32799457280	22	17966
2026-01-19 22:17:48.77	117.67	20.42	-24.1	-24.5	17.5	0.00e+00	0	45	0	32916897792	22	18368
2026-01-19 22:17:49.78	118.02	20.34	-24.6	-25.0	17.5	0.00e+00	0	45	0	33025949696	22	19336
2026-01-19 22:17:50.79	118.37	20.25	-24.3	-24.7	17.6	0.00e+00	0	45	0	33143390208	22	18757
2026-01-19 22:17:51.79	118.71	20.17	-24.1	-24.5	17.6	0.00e+00	0	45	0	33252442112	22	18427
2026-01-19 22:17:52.81	119.06	20.09	-24.2	-24.6	17.6	0.00e+00	0	45	0	33369882624	22	18575
2026-01-19 22:17:53.82	119.40	20.01	-24.2	-24.6	17.5	0.00e+00	0	45	0	33478934528	22	18485
2026-01-19 22:17:54.83	119.74	19.92	-24.4	-24.8	17.5	0.00e+00	0	45	0	33596375040	22	18997
2026-01-19 22:17:55.83	120.08	19.84	-24.2	-24.6	17.6	0.00e+00	0	45	0	33713815552	24	16514
2026-01-19 22:17:56.84	120.41	19.76	-24.8	-25.2	17.6	0.00e+00	0	45	0	33822867456	24	17731
2026-01-19 22:17:57.85	120.75	19.67	-24.6	-25.0	17.6	0.00e+00	0	45	0	33931919360	24	17277
2026-01-19 22:17:58.86	121.08	19.58	-24.4	-24.9	17.7	0.00e+00	0	45	0	34049359872	24	17016
2026-01-19 22:17:59.87	121.41	19.50	-24.5	-24.9	17.7	0.00e+00	0	45	0	34166800384	24	17123
2026-01-19 22:18:00.88	121.74	19.41	-24.3	-24.7	17.6	0.00e+00	0	45	0	34275852288	24	16757
2026-01-19 22:18:01.89	122.06	19.32	-24.5	-24.9	17.6	0.00e+00	0	45	0	34393292800	24	17129
2026-01-19 22:18:02.90	122.39	19.24	-24.0	-24.4	17.6	0.00e+00	0	45	0	34502344704	24	16217
2026-01-19 22:18:03.91	122.71	19.15	-24.0	-24.4	17.7	0.00e+00	0	45	0	34611396608	24	16150
2026-01-19 22:18:04.92	123.03	19.06	-24.8	-25.2	17.6	0.00e+00	0	45	0	34737225728	24	17761
2026-01-19 22:18:05.93	123.34	18.97	-24.8	-25.2	17.6	0.00e+00	0	45	0	34846277632	24	17744
2026-01-19 22:18:06.93	123.66	18.88	-24.8	-25.3	17.6	0.00e+00	0	45	0	34955329536	24	17847
2026-01-19 22:18:07.94	123.97	18.79	-25.1	-25.5	17.5	0.00e+00	0	45	0	35072770048	24	18385
2026-01-19 22:18:08.95	124.28	18.70	-24.8	-25.2	17.6	0.00e+00	0	45	0	35181821952	24	17797
2026-01-19 22:18:09.96	124.59	18.61	-24.8	-25.2	17.6	0.00e+00	0	45	0	35299262464	24	17765
2026-01-19 22:18:10.97	124.90	18.52	-25.1	-25.5	17.6	0.00e+00	0	45	0	35416702976	24	18350
2026-01-19 22:18:11.98	125.20	18.43	-24.6	-25.1	17.7	0.00e+00	0	45	0	35525754880	24	17406
2026-01-19 22:18:12.99	125.50	18.34	-24.8	-25.3	17.6	0.00e+00	0	45	0	35643195392	24	17812
2026-01-19 22:18:13.99	125.80	18.25	-24.9	-25.3	17.6	0.00e+00	0	45	0	35752247296	24	17911
2026-01-19 22:18:15.00	126.10	18.16	-25.0	-25.5	17.6	0.00e+00	0	45	0	35861299200	24	18223
2026-01-19 22:18:16.01	126.40	18.07	-25.4	-25.8	17.5	0.00e+00	0	45	0	35978739712	24	19036
2026-01-19 22:18:17.02	126.69	17.98	-24.9	-25.4	17.6	0.00e+00	0	45	0	36096180224	24	18052
2026-01-19 22:18:18.03	126.99	17.88	-25.3	-25.7	17.6	0.00e+00	0	45	0	36205232128	24	18702
2026-01-19 22:18:19.04	127.28	17.79	-25.4	-25.8	17.6	0.00e+00	0	45	0	36322672640	24	19077
2026-01-19 22:18:20.05	127.57	17.70	-25.1	-25.5	17.6	0.00e+00	0	45	0	36431724544	24	18389
2026-01-19 22:18:21.05	127.85	17.61	-24.9	-25.3	17.6	0.00e+00	0	45	0	36540776448	24	17994
2026-01-19 22:18:22.06	128.13	17.51	-24.9	-25.3	17.6	0.00e+00	0	45	0	36658216960	24	17993
2026-01-19 22:18:23.07	128.42	17.42	-25.2	-25.6	17.6	0.00e+00	0	45	0	36775657472	24	18483
2026-01-19 22:18:24.08	128.70	17.33	-24.7	-25.1	17.6	0.00e+00	0	45	0	36884709376	24	17591
2026-01-19 22:18:25.09	128.98	17.23	-24.9	-25.3	17.6	0.00e+00	0	45	0	37002149888	24	17993
2026-01-19 22:18:26.10	129.25	17.14	-24.6	-25.1	17.7	0.00e+00	0	45	0	37111201792	24	17424
2026-01-19 22:18:27.11	129.53	17.05	-24.7	-25.1	17.7	0.00e+00	0	45	0	37228642304	24	17526
2026-01-19 22:18:28.12	129.80	16.95	-25.3	-25.8	17.6	0.00e+00	0	45	0	37346082816	24	18863
2026-01-19 22:18:29.13	130.07	16.86	-25.2	-25.7	17.7	0.00e+00	0	45	0	37455134720	26	16623
2026-01-19 22:18:30.14	130.34	16.77	-25.6	-26.0	17.6	0.00e+00	0	45	0	37572575232	26	17395
2026-01-19 22:18:31.15	130.61	16.67	-26.3	-26.8	17.5	0.00e+00	0	45	0	37681627136	26	18870
2026-01-19 22:18:32.16	130.88	16.58	-26.1	-26.5	17.6	0.00e+00	0	45	0	37790679040	26	18423
2026-01-19 22:18:33.17	131.14	16.48	-25.6	-26.1	17.5	0.00e+00	0	45	0	37908119552	26	17427
2026-01-19 22:18:34.18	131.40	16.39	-26.6	-27.0	17.5	0.00e+00	0	45	0	38025560064	28	17378
2026-01-19 22:18:35.19	131.66	16.30	-25.8	-26.2	17.5	0.00e+00	0	45	0	38134611968	26	17770
2026-01-19 22:18:36.20	131.92	16.20	-25.1	-25.5	17.6	0.00e+00	0	45	0	38252052480	26	16416
2026-01-19 22:18:37.21	132.18	16.11	-25.3	-25.8	17.6	0.00e+00	0	45	0	38361104384	26	16829
2026-01-19 22:18:38.21	132.43	16.01	-25.5	-25.9	17.6	0.00e+00	0	45	0	38470156288	26	17082
2026-01-19 22:18:39.22	132.68	15.92	-27.0	-27.5	17.5	0.00e+00	0	45	0	38595985408	28	18280
2026-01-19 22:18:40.23	132.93	15.82	-24.9	-25.4	17.6	0.00e+00	0	45	0	38705037312	26	16094
2026-01-19 22:18:41.24	133.18	15.73	-25.6	-26.1	17.6	0.00e+00	0	45	0	38814089216	26	17426
2026-01-19 22:18:42.25	133.43	15.64	-25.2	-25.7	17.5	0.00e+00	0	45	0	38931529728	26	16637
2026-01-19 22:18:43.26	133.67	15.54	-25.5	-26.0	17.5	0.00e+00	0	45	0	39040581632	26	17252
2026-01-19 22:18:44.27	133.92	15.45	-25.4	-25.8	17.5	0.00e+00	0	45	0	39158022144	26	16975
2026-01-19 22:18:45.28	134.16	15.35	-25.4	-25.8	17.5	0.00e+00	0	45	0	39275462656	26	16972
2026-01-19 22:18:46.29	134.40	15.26	-25.9	-26.4	17.5	0.00e+00	0	45	0	39384514560	26	18077
2026-01-19 22:18:47.30	134.64	15.17	-25.6	-26.1	17.4	0.00e+00	0	45	0	39501955072	26	17496
2026-01-19 22:18:48.31	134.87	15.07	-25.8	-26.3	17.4	0.00e+00	0	45	0	39611006976	26	17829
2026-01-19 22:18:49.32	135.11	14.98	-26.2	-26.7	17.4	0.00e+00	0	45	0	39728447488	26	18832
2026-01-19 22:18:50.33	135.34	14.88	-25.7	-26.2	17.5	0.00e+00	0	45	0	39837499392	26	17667
2026-01-19 22:18:51.34	135.57	14.79	-26.0	-26.4	17.4	0.00e+00	0	45	0	39954939904	26	18192
2026-01-19 22:18:52.35	135.80	14.70	-26.1	-26.6	17.4	0.00e+00	0	45	0	40063991808	26	18499
2026-01-19 22:18:53.36	136.03	14.60	-26.9	-27.4	17.3	0.00e+00	0	45	0	40181432320	26	20248
2026-01-19 22:18:54.37	136.26	14.51	-26.2	-26.6	17.3	0.00e+00	0	45	0	40298872832	28	16615
2026-01-19 22:18:55.38	136.48	14.42	-25.9	-26.4	17.4	0.00e+00	0	45	0	40407924736	28	16151
2026-01-19 22:18:56.39	136.70	14.32	-26.4	-26.8	17.3	0.00e+00	0	45	0	40525365248	28	16976
2026-01-19 22:18:57.40	136.93	14.23	-26.1	-26.5	17.4	0.00e+00	0	45	0	40634417152	28	16421
2026-01-19 22:18:58.41	137.15	14.14	-26.4	-27.0	17.3	0.00e+00	0	45	0	40743469056	28	17222
2026-01-19 22:18:59.42	137.36	14.04	-25.6	-26.1	17.3	0.00e+00	0	45	0	40860909568	26	17412
2026-01-19 22:19:00.42	137.58	13.95	-25.7	-26.2	17.3	0.00e+00	0	45	0	40978350080	26	17705
2026-01-19 22:19:01.43	137.79	13.86	-25.8	-26.2	17.3	0.00e+00	0	45	0	41087401984	26	17802
2026-01-19 22:19:02.44	138.01	13.77	-25.9	-26.4	17.3	0.00e+00	0	45	0	41204842496	26	18014
2026-01-19 22:19:03.45	138.22	13.67	-25.9	-26.4	17.3	0.00e+00	0	45	0	41313894400	26	18190
2026-01-19 22:19:04.46	138.43	13.58	-26.1	-26.6	17.2	0.00e+00	0	45	0	41431334912	26	18476
2026-01-19 22:19:05.47	138.64	13.49	-25.9	-26.4	17.2	0.00e+00	0	45	0	41548775424	26	18170
2026-01-19 22:19:06.48	138.85	13.40	-26.0	-26.5	17.2	0.00e+00	0	45	0	41657827328	26	18334
2026-01-19 22:19:07.49	139.05	13.31	-26.4	-26.8	17.1	0.00e+00	0	45	0	41766879232	26	19037
2026-01-19 22:19:08.50	139.26	13.21	-26.5	-27.0	17.1	0.00e+00	0	45	0	41884319744	26	19346
2026-01-19 22:19:09.51	139.46	13.12	-26.4	-26.9	17.1	0.00e+00	0	45	0	41993371648	26	19125
2026-01-19 22:19:10.52	139.66	13.03	-26.5	-27.0	17.0	0.00e+00	0	45	0	42110812160	26	19409
2026-01-19 22:19:11.53	139.86	12.94	-27.3	-27.8	16.9	0.00e+00	0	45	0	42228252672	28	18877
2026-01-19 22:19:12.54	140.06	12.85	-27.5	-28.0	16.9	0.00e+00	0	45	0	42337304576	30	17242
2026-01-19 22:19:13.55	140.26	12.76	-27.8	-28.3	16.7	0.00e+00	0	45	0	42454745088	30	17904
2026-01-19 22:19:14.56	140.46	12.67	-27.8	-28.2	16.6	1.08e-05	0	45	0	42563796992	30	17738
2026-01-19 22:19:15.57	140.65	12.58	-28.2	-28.7	16.3	1.08e-05	0	45	0	42681237504	30	18755
2026-01-19 22:19:16.58	140.84	12.49	-29.3	-29.8	16.0	2.40e-04	0	45	0	42790289408	32	18866
2026-01-19 22:19:17.59	141.04	12.40	-29.0	-29.4	15.9	2.40e-04	0	45	0	42907729920	32	18164
2026-01-19 22:19:18.59	141.23	12.31	-29.5	-29.9	15.9	6.10e-04	0	45	0	43016781824	32	19204
2026-01-19 22:19:19.60	141.41	12.22	-29.2	-29.7	16.0	6.10e-04	0	45	0	43134222336	32	18664
2026-01-19 22:19:20.61	141.60	12.13	-29.7	-30.1	16.2	6.10e-04	0	45	0	43243274240	34	17508
2026-01-19 22:19:21.62	141.79	12.04	-29.4	-29.8	16.2	5.78e-04	0	45	0	43360714752	34	16948
2026-01-19 22:19:22.63	141.97	11.95	-29.1	-29.5	16.4	5.78e-04	0	45	0	43478155264	36	14621
2026-01-19 22:19:23.63	142.16	11.86	-28.8	-29.3	16.5	4.80e-04	0	45	0	43587207168	32	17877
2026-01-19 22:19:24.65	142.34	11.77	-29.2	-29.6	16.5	4.80e-04	0	45	0	43696259072	32	18621
2026-01-19 22:19:25.66	142.52	11.68	-29.0	-29.5	16.5	1.74e-04	0	45	0	43813699584	32	18283
2026-01-19 22:19:26.66	142.70	11.60	-28.8	-29.2	16.6	1.74e-04	0	45	0	43922751488	32	17729
2026-01-19 22:19:27.68	142.88	11.51	-28.1	-28.5	16.7	1.74e-04	0	45	0	44040192000	32	16405
2026-01-19 22:19:28.69	143.06	11.42	-27.9	-28.4	16.7	4.35e-05	0	45	0	44157632512	32	16073
2026-01-19 22:19:29.69	143.23	11.33	-27.6	-28.0	16.8	4.35e-05	0	45	0	44266684416	30	17311
2026-01-19 22:19:30.70	143.41	11.24	-27.5	-27.9	16.8	1.63e-05	0	45	0	44384124928	30	17129
2026-01-19 22:19:31.71	143.58	11.16	-28.2	-28.7	16.7	1.63e-05	0	45	0	44493176832	30	18686
2026-01-19 22:19:32.72	143.75	11.07	-27.6	-28.0	16.8	4.35e-05	0	45	0	44610617344	30	17394
2026-01-19 22:19:33.72	143.92	10.98	-27.6	-28.1	16.8	4.35e-05	0	45	0	44719669248	30	17438
2026-01-19 22:19:34.73	144.09	10.90	-28.2	-28.6	16.8	0.00e+00	0	45	0	44837109760	30	18492
2026-01-19 22:19:35.74	144.26	10.81	-27.7	-28.1	16.8	0.00e+00	0	45	0	44946161664	30	17533
2026-01-19 22:19:36.75	144.43	10.72	-27.4	-27.9	16.8	1.08e-05	0	45	0	45063602176	30	17123
2026-01-19 22:19:37.76	144.60	10.64	-27.3	-27.7	16.7	1.08e-05	0	45	0	45172654080	30	16760
2026-01-19 22:19:38.77	144.76	10.55	-27.3	-27.7	16.8	3.81e-05	0	45	0	45290094592	30	16703
2026-01-19 22:19:39.78	144.93	10.47	-27.7	-28.1	16.8	3.81e-05	0	45	0	45407535104	30	17539
2026-01-19 22:19:40.79	145.09	10.38	-28.1	-28.5	16.8	3.26e-05	0	45	0	45516587008	30	18393
2026-01-19 22:19:41.80	145.25	10.30	-27.7	-28.2	16.8	3.26e-05	0	45	0	45625638912	30	17632
2026-01-19 22:19:42.81	145.41	10.21	-27.5	-27.9	16.9	3.26e-05	0	45	0	45743079424	30	17157
2026-01-19 22:19:43.82	145.57	10.13	-27.4	-27.9	16.9	1.08e-05	0	45	0	45852131328	30	17040
2026-01-19 22:19:44.82	145.73	10.04	-27.5	-28.0	16.8	1.08e-05	0	45	0	45969571840	30	17305
2026-01-19 22:19:45.83	145.89	9.96	-26.9	-27.4	16.8	1.08e-05	0	45	0	46087012352	30	16054
2026-01-19 22:19:46.84	146.04	9.87	-27.0	-27.4	16.9	1.08e-05	0	45	0	46196064256	30	16125
2026-01-19 22:19:47.85	146.20	9.79	-26.6	-27.1	16.9	0.00e+00	0	45	0	46313504768	28	17510
2026-01-19 22:19:48.86	146.35	9.70	-26.7	-27.1	16.9	0.00e+00	0	45	0	46422556672	28	17556
2026-01-19 22:19:49.87	146.51	9.62	-27.0	-27.5	16.8	5.40e-06	0	45	0	46539997184	28	18279
2026-01-19 22:19:50.88	146.66	9.54	-27.1	-27.6	16.8	5.40e-06	0	45	0	46649049088	28	18546
2026-01-19 22:19:51.89	146.81	9.45	-26.6	-27.1	16.8	5.40e-06	0	45	0	46766489600	28	17544
2026-01-19 22:19:52.90	146.96	9.37	-26.7	-27.1	16.8	5.40e-06	0	45	0	46875541504	28	17572
2026-01-19 22:19:53.91	147.11	9.29	-26.5	-27.0	16.8	1.08e-05	0	45	0	46992982016	28	17278
2026-01-19 22:19:54.92	147.26	9.21	-26.7	-27.2	16.8	2.72e-05	0	45	0	47110422528	28	17709
2026-01-19 22:19:55.93	147.41	9.12	-26.6	-27.1	16.9	2.72e-05	0	45	0	47219474432	28	17508
2026-01-19 22:19:56.94	147.55	9.04	-26.7	-27.2	16.8	2.72e-05	0	45	0	47336914944	28	17624
2026-01-19 22:19:57.95	147.70	8.96	-26.7	-27.1	16.8	1.08e-05	0	45	0	47445966848	28	17598
2026-01-19 22:19:58.96	147.84	8.88	-26.7	-27.1	16.8	1.08e-05	0	45	0	47555018752	28	17570
2026-01-19 22:19:59.97	147.99	8.80	-26.7	-27.2	16.8	1.08e-05	0	45	0	47672459264	28	17658
2026-01-19 22:20:00.98	148.13	8.72	-26.5	-27.0	16.9	1.08e-05	0	45	0	47789899776	28	17313
2026-01-19 22:20:01.99	148.27	8.64	-26.7	-27.2	16.8	4.90e-05	0	45	0	47898951680	28	17653
2026-01-19 22:20:03.00	148.41	8.56	-27.9	-28.4	16.7	4.90e-05	0	45	0	48016392192	30	18058
2026-01-19 22:20:04.01	148.55	8.47	-27.8	-28.2	16.8	4.90e-05	0	45	0	48125444096	30	17704
2026-01-19 22:20:05.01	148.69	8.40	-27.1	-27.6	16.8	3.81e-05	0	45	0	48242884608	30	16539
2026-01-19 22:20:06.02	148.83	8.32	-27.4	-27.9	16.8	3.81e-05	0	45	0	48360325120	30	17094
2026-01-19 22:20:07.03	148.96	8.24	-27.1	-27.6	16.8	2.17e-05	0	45	0	48469377024	30	16478
2026-01-19 22:20:08.04	149.10	8.16	-27.2	-27.7	16.8	2.17e-05	0	45	0	48578428928	30	16706
2026-01-19 22:20:09.05	149.24	8.08	-27.0	-27.5	16.8	4.35e-05	0	45	0	48695869440	30	16315
2026-01-19 22:20:10.06	149.37	8.00	-27.8	-28.2	16.6	4.35e-05	0	45	0	48804921344	30	17751
2026-01-19 22:20:11.07	149.50	7.92	-28.3	-28.8	16.6	4.35e-05	0	45	0	48922361856	30	18963
2026-01-19 22:20:12.07	149.64	7.84	-28.8	-29.2	16.6	1.09e-04	0	45	0	49039802368	30	19919
2026-01-19 22:20:13.08	149.77	7.76	-28.4	-28.9	16.5	1.91e-04	0	45	0	49148854272	30	19235
2026-01-19 22:20:14.09	149.90	7.68	-28.5	-29.0	16.5	1.91e-04	0	45	0	49266294784	32	17284
2026-01-19 22:20:15.10	150.03	7.60	-28.9	-29.3	16.4	1.91e-04	0	45	0	49375346688	34	15976
2026-01-19 22:20:16.11	150.16	7.53	-29.0	-29.5	16.4	3.65e-04	0	45	0	49484398592	34	16355
2026-01-19 22:20:17.12	150.29	7.45	-28.8	-29.3	16.6	3.65e-04	0	45	0	49601839104	32	17926
2026-01-19 22:20:18.13	150.41	7.37	-28.7	-29.2	16.5	2.89e-04	0	45	0	49719279616	32	17798
2026-01-19 22:20:19.14	150.54	7.29	-29.0	-29.4	16.5	2.89e-04	0	45	0	49828331520	32	18214
2026-01-19 22:20:20.15	150.67	7.22	-28.0	-28.5	16.7	1.85e-04	0	45	0	49945772032	32	16426
2026-01-19 22:20:21.16	150.79	7.14	-28.7	-29.2	16.6	1.85e-04	0	45	0	50054823936	32	17620
2026-01-19 22:20:22.17	150.92	7.06	-28.2	-28.7	16.6	2.40e-04	0	45	0	50172264448	32	16747
2026-01-19 22:20:23.18	151.04	6.99	-28.9	-29.4	16.6	2.40e-04	0	45	0	50289704960	32	18106
2026-01-19 22:20:24.19	151.16	6.91	-28.4	-28.9	16.6	2.07e-04	0	45	0	50398756864	32	17120
2026-01-19 22:20:25.19	151.28	6.84	-28.9	-29.4	16.6	2.07e-04	0	45	0	50507808768	32	18086
2026-01-19 22:20:26.20	151.41	6.76	-29.1	-29.6	16.5	2.23e-04	0	45	0	50625249280	32	18517
2026-01-19 22:20:27.21	151.53	6.68	-28.9	-29.3	16.5	2.23e-04	0	45	0	50734301184	32	17990
2026-01-19 22:20:28.22	151.65	6.61	-28.8	-29.3	16.6	4.14e-04	0	45	0	50851741696	34	15879
2026-01-19 22:20:29.23	151.76	6.53	-28.5	-29.0	16.6	3.60e-04	0	45	0	50969182208	34	15441
2026-01-19 22:20:30.24	151.88	6.46	-29.9	-30.4	16.5	3.60e-04	0	45	0	51078234112	32	20282
2026-01-19 22:20:31.25	152.00	6.38	-29.0	-29.4	16.5	3.60e-04	0	45	0	51195674624	32	18092
2026-01-19 22:20:32.26	152.12	6.31	-29.3	-29.8	16.4	3.00e-04	0	45	0	51304726528	36	14983
2026-01-19 22:20:33.27	152.23	6.23	-29.4	-29.9	16.3	3.00e-04	0	45	0	51422167040	34	17034
2026-01-19 22:20:34.28	152.35	6.16	-29.8	-30.2	16.3	5.39e-04	0	45	0	51531218944	34	17714
2026-01-19 22:20:35.29	152.46	6.09	-29.5	-30.0	16.2	5.39e-04	0	45	0	51648659456	34	17342
2026-01-19 22:20:36.29	152.58	6.01	-29.4	-29.9	16.0	1.11e-03	0	45	0	51757711360	34	17129
2026-01-19 22:20:37.30	152.69	5.94	-30.6	-31.1	15.9	1.11e-03	0	45	0	51875151872	34	19635
2026-01-19 22:20:38.31	152.80	5.87	-30.8	-31.3	15.7	1.84e-03	0	45	0	51984203776	36	17840
2026-01-19 22:20:39.32	152.92	5.79	-30.5	-30.9	15.9	1.84e-03	0	45	0	52101644288	36	17179
2026-01-19 22:20:40.33	153.03	5.72	-30.6	-31.1	15.7	1.84e-03	0	45	0	52219084800	36	17455
2026-01-19 22:20:41.34	153.14	5.65	-31.3	-31.8	15.4	2.93e-03	0	45	0	52328136704	36	18888
2026-01-19 22:20:42.35	153.25	5.57	-31.9	-32.4	15.0	2.93e-03	0	45	0	52437188608	38	18039
2026-01-19 22:20:43.36	153.36	5.50	-32.2	-32.7	15.0	6.93e-03	0	45	0	52554629120	40	16663
2026-01-19 22:20:44.37	153.47	5.43	-32.8	-33.3	14.5	6.93e-03	0	45	0	52663681024	40	17841
2026-01-19 22:20:45.37	153.57	5.36	-33.0	-33.5	14.3	1.30e-02	0	45	0	52781121536	40	18307
2026-01-19 22:20:46.38	153.68	5.29	-33.5	-33.9	14.1	1.30e-02	0	45	0	52898562048	40	19180
2026-01-19 22:20:47.39	153.79	5.22	-35.1	-35.6	13.8	2.28e-02	0	45	0	53007613952	44	18471
2026-01-19 22:20:48.40	153.89	5.14	-34.5	-35.0	13.7	2.28e-02	0	45	0	53125054464	44	17243
2026-01-19 22:20:49.42	154.00	5.07	-35.5	-35.9	13.3	4.51e-02	0	45	0	53234106368	46	17168
2026-01-19 22:20:50.42	154.10	5.00	-35.2	-35.7	13.0	4.51e-02	0	45	0	53351546880	46	16669
2026-01-19 22:20:51.43	154.21	4.93	-35.8	-36.2	13.1	6.49e-02	0	45	0	53460598784	46	17701
2026-01-19 22:20:52.44	154.31	4.86	-35.4	-35.8	12.8	6.49e-02	0	45	0	53578039296	46	16891
2026-01-19 22:20:53.45	154.41	4.79	-37.1	-37.5	11.6	9.49e-02	1146	45	0	53687091200	48	18337
2026-01-19 22:20:54.46	154.52	4.72	-38.5	-38.9	11.1	9.49e-02	3309	45	0	53804531712	50	19102
2026-01-19 22:20:55.47	154.62	4.65	-37.3	-37.7	12.0	2.16e-01	4	45	0	53921972224	48	18743
2026-01-19 22:20:56.48	154.72	4.58	-37.8	-38.2	11.7	2.16e-01	1530	45	0	54031024128	50	17671
2026-01-19 22:20:57.49	154.82	4.51	-36.8	-37.2	12.3	2.03e-01	0	45	0	54148464640	48	17637
2026-01-19 22:20:58.50	154.92	4.44	-36.1	-36.5	12.6	2.03e-01	0	45	0	54249127936	48	16302
2026-01-19 22:20:59.51	155.02	4.37	-35.6	-36.0	12.9	1.17e-01	0	45	0	54366568448	46	17280
2026-01-19 22:21:00.52	155.12	4.30	-35.0	-35.4	13.0	1.17e-01	0	45	0	54492397568	46	16184
2026-01-19 22:21:01.53	155.22	4.23	-35.1	-35.5	13.0	1.17e-01	0	45	0	54601449472	46	16312
2026-01-19 22:21:02.54	155.32	4.16	-34.8	-35.2	13.3	8.47e-02	0	45	0	54710501376	46	15750
2026-01-19 22:21:03.55	155.41	4.09	-34.6	-35.0	13.4	6.48e-02	0	45	0	54827941888	44	17302
2026-01-19 22:21:04.55	155.51	4.03	-34.0	-34.4	13.7	6.48e-02	0	45	0	54936993792	44	16162
2026-01-19 22:21:05.56	155.60	3.96	-35.3	-35.8	13.5	5.17e-02	0	45	0	55054434304	44	18868
2026-01-19 22:21:06.57	155.70	3.89	-34.4	-34.8	13.9	5.17e-02	0	45	0	55171874816	44	16945
2026-01-19 22:21:07.58	155.80	3.82	-33.8	-34.2	14.1	5.17e-02	0	45	0	55280926720	44	15849
2026-01-19 22:21:08.59	155.89	3.75	-34.2	-34.6	14.1	3.93e-02	0	45	0	55389978624	42	18547
2026-01-19 22:21:09.60	155.98	3.68	-33.4	-33.8	14.3	3.93e-02	0	45	0	55507419136	42	16915
2026-01-19 22:21:10.60	156.08	3.62	-33.4	-33.8	14.4	2.88e-02	0	45	0	55616471040	42	16965
2026-01-19 22:21:11.61	156.17	3.55	-32.7	-33.1	14.4	2.88e-02	0	45	0	55733911552	40	17516
2026-01-19 22:21:12.62	156.26	3.48	-32.4	-32.8	14.6	2.18e-02	0	45	0	55851352064	40	16949
2026-01-19 22:21:13.63	156.35	3.42	-32.3	-32.8	14.6	2.18e-02	0	45	0	55960403968	40	16897
2026-01-19 22:21:14.64	156.45	3.35	-32.3	-32.7	14.6	1.63e-02	0	45	0	56077844480	40	16802
2026-01-19 22:21:15.65	156.54	3.28	-32.2	-32.7	14.7	1.63e-02	0	45	0	56186896384	40	16719
2026-01-19 22:21:16.66	156.63	3.22	-32.2	-32.7	14.7	1.66e-02	0	45	0	56295948288	40	16709
2026-01-19 22:21:17.67	156.72	3.15	-32.1	-32.6	14.7	1.66e-02	0	45	0	56421777408	40	16432
2026-01-19 22:21:18.68	156.81	3.08	-33.6	-34.1	14.5	1.66e-02	0	45	0	56530829312	40	19575
2026-01-19 22:21:19.69	156.90	3.02	-49.5	-52.0	6.1	1.69e-02	0	45	104	56614715392	60	48720
2026-01-19 22:21:20.69	156.98	2.95	-50.4	-52.8	6.0	1.69e-02	0	45	104	56614715392	60	53643
2026-01-19 22:21:21.70	157.07	2.89	-50.5	-53.0	6.1	1.69e-02	0	45	104	56614715392	60	54451
2026-01-19 22:21:22.71	157.16	2.82	-51.2	-53.7	6.1	6.03e-03	0	45	104	56614715392	60	59342
2026-01-19 22:21:23.72	157.25	2.76	-51.3	-53.8	6.1	6.03e-03	0	45	104	56614715392	60	59867
2026-01-19 22:21:24.73	157.33	2.69	-51.8	-54.3	6.1	6.03e-03	0	45	104	56614715392	60	63818
2026-01-19 22:21:25.74	157.42	2.62	-51.3	-53.7	6.1	6.03e-03	0	45	104	56614715392	60	59464
2026-01-19 22:21:26.75	157.50	2.56	-51.6	-54.1	6.1	6.03e-03	0	45	104	56614715392	60	62230
2026-01-19 22:21:27.76	157.59	2.49	-51.9	-54.3	6.1	6.03e-03	0	45	104	56614715392	60	63356
2026-01-19 22:21:28.77	157.67	2.43	-51.7	-54.1	6.1	6.03e-03	0	45	104	56614715392	60	62030
2026-01-19 22:21:29.78	157.76	2.37	-51.7	-54.2	6.1	6.03e-03	0	45	104	56614715392	60	62637
2026-01-19 22:21:30.79	157.84	2.30	-51.9	-54.3	6.1	6.03e-03	0	45	104	56614715392	60	63687
2026-01-19 22:21:31.80	157.93	2.24	-51.6	-54.1	6.1	6.03e-03	0	45	104	56614715392	60	61834
2026-01-19 22:21:32.80	158.01	2.17	-51.8	-54.2	6.1	6.03e-03	0	45	104	56614715392	60	63169
2026-01-19 22:21:33.82	158.09	2.11	-51.9	-54.4	6.1	6.03e-03	0	45	104	56614715392	60	63949
2026-01-19 22:21:34.83	158.17	2.05	-51.7	-54.2	6.1	6.03e-03	0	45	104	56614715392	60	63038
2026-01-19 22:21:35.84	158.25	1.98	-52.1	-54.5	6.1	6.03e-03	0	45	104	56614715392	60	65381
2026-01-19 22:21:36.85	158.34	1.92	-51.8	-54.3	6.1	6.03e-03	0	45	104	56614715392	60	63843
2026-01-19 22:21:37.86	158.42	1.85	-51.8	-54.2	6.1	0.00e+00	0	45	104	56614715392	60	62976
2026-01-19 22:21:38.87	158.50	1.79	-52.1	-54.5	6.1	0.00e+00	0	45	104	56614715392	60	65123
2026-01-19 22:21:39.88	158.58	1.73	-52.3	-54.8	6.1	0.00e+00	0	45	104	56614715392	60	67180
2026-01-19 22:21:40.89	158.66	1.67	-52.4	-54.8	6.1	0.00e+00	0	45	104	56614715392	60	67192
2026-01-19 22:21:41.90	158.74	1.60	-52.2	-54.5	6.1	0.00e+00	0	45	104	56614715392	60	65354
2026-01-19 22:21:42.91	158.81	1.54	-51.8	-54.3	6.1	0.00e+00	0	44	104	56614715392	60	63238
2026-01-19 22:21:43.92	158.89	1.48	-52.3	-54.8	6.1	0.00e+00	0	45	104	56614715392	60	67274
2026-01-19 22:21:44.93	158.97	1.42	-52.3	-54.7	6.1	0.00e+00	0	45	104	56614715392	60	66514
2026-01-19 22:21:45.94	159.05	1.35	-52.0	-54.5	6.1	0.00e+00	0	45	104	56614715392	60	64729
2026-01-19 22:21:46.95	159.13	1.29	-52.1	-54.6	6.1	0.00e+00	0	45	104	56614715392	60	65897
2026-01-19 22:21:47.96	159.20	1.23	-52.3	-54.8	6.1	0.00e+00	0	45	104	56614715392	60	67403
2026-01-19 22:21:48.97	159.28	1.17	-52.3	-54.8	6.1	0.00e+00	0	45	104	56614715392	60	67631
2026-01-19 22:21:49.98	159.36	1.11	-52.3	-54.7	6.1	0.00e+00	0	45	104	56614715392	60	66825
2026-01-19 22:21:50.99	159.43	1.04	-52.5	-55.0	6.1	0.00e+00	0	45	104	56614715392	60	68723
2026-01-19 22:21:52.00	159.51	0.98	-52.1	-54.6	6.1	0.00e+00	0	45	104	56614715392	60	65514
2026-01-19 22:21:53.01	159.58	0.92	-52.3	-54.8	6.1	0.00e+00	0	45	104	56614715392	60	67090
2026-01-19 22:21:54.02	159.66	0.86	-52.3	-54.8	6.1	0.00e+00	0	45	104	56614715392	60	67068
2026-01-19 22:21:55.03	159.73	0.80	-52.2	-54.7	6.1	0.00e+00	0	45	104	56614715392	60	66273
2026-01-19 22:21:56.04	159.80	0.74	-51.9	-54.3	6.1	0.00e+00	0	45	104	56614715392	60	63889
2026-01-19 22:21:57.05	159.88	0.68	-51.4	-53.8	6.0	0.00e+00	0	45	104	56614715392	60	60294
2026-01-19 22:21:58.06	159.95	0.62	-51.7	-54.2	6.1	0.00e+00	0	45	104	56614715392	60	62533
2026-01-19 22:21:59.07	160.02	0.56	-52.8	-55.3	6.1	0.00e+00	0	45	104	56614715392	60	71026
2026-01-19 22:22:00.08	160.10	0.50	-52.3	-54.8	6.1	0.00e+00	0	45	104	56614715392	60	67215
2026-01-19 22:22:01.08	160.17	0.44	-52.5	-55.0	6.1	0.00e+00	0	45	104	56614715392	60	68608
2026-01-19 22:22:02.09	160.24	0.38	-52.4	-54.8	6.1	0.00e+00	0	45	104	56614715392	60	67662
2026-01-19 22:22:03.10	160.31	0.32	-52.8	-55.2	6.1	0.00e+00	0	45	104	56614715392	60	70876
2026-01-19 22:22:04.11	160.38	0.26	-52.6	-55.2	6.1	0.00e+00	0	45	104	56614715392	60	70568
2026-01-19 22:22:05.12	160.45	0.20	-51.5	-54.0	6.1	0.00e+00	0	45	104	56614715392	60	61500
2026-01-19 22:22:06.13	160.52	0.14	-51.9	-54.3	6.1	0.00e+00	0	45	104	56614715392	60	63551
2026-01-19 22:22:07.14	160.59	0.08	-52.4	-54.8	6.1	0.00e+00	0	45	104	56614715392	60	67675
2026-01-19 22:22:08.15	160.66	0.02	-52.2	-54.8	6.1	0.00e+00	0	45	104	56614715392	60	67388
2026-01-19 22:22:09.16	160.73	-0.04	-52.4	-54.9	6.1	0.00e+00	0	45	104	56614715392	60	67926
2026-01-19 22:22:10.16	160.80	-0.10	-52.6	-55.0	6.1	0.00e+00	0	45	104	56614715392	60	69203

#Closed at: 2026-01-19 22:22:11
#Recorded file [56614 MB]: D:/lorett/data/35029_260120_101143.dat