passes_logs/2026/01/19/R4.6S_Anadyr/R4.6S_Anadyr__20260119_134957_NOAA_20_JPSS-1_rec.log

#Pass ID: 20260119_134957_NOAA 20 (JPSS-1)
#Satellite: NOAA 20 (JPSS-1)
#Configuration: NOAA 20
#almurnet v.1.7.20251203
#Start time: 2026-01-19 13:49:59

#Version: 2.2.20231116
#Station: R4.6S_Anadyr
#Location: 177.4865 lon 64.73178 lat
#TLE: 1 43013U 17073A   26018.92475364  .00000071  00000+0  54435-4 0  9998
#TLE: 2 43013  98.7641 319.8227 0001354  33.6678 326.4584 14.19536868423299

#Time	Az	El	Level	Level2	SNR	BER	BlckErr	Temp	State	Recorded	gain1	gain2
2026-01-19 13:49:59.52	19.19	0.12	-50.5	-65.4	3.6	1.51e+00	0	39	0	0	60	67090
2026-01-19 13:50:00.51	19.22	0.17	-50.4	-65.7	3.6	1.51e+00	0	39	104	0	60	69753
2026-01-19 13:50:01.51	19.25	0.23	-50.5	-65.8	3.6	1.51e+00	0	40	104	0	60	70116
2026-01-19 13:50:02.52	19.28	0.29	-50.5	-65.8	3.6	1.51e+00	0	40	104	0	60	70089
2026-01-19 13:50:03.53	19.31	0.35	-50.5	-65.8	3.6	1.51e+00	0	40	104	0	60	70319
2026-01-19 13:50:04.54	19.34	0.41	-50.6	-65.8	3.6	1.51e+00	0	40	104	0	60	70659
2026-01-19 13:50:05.55	19.38	0.47	-50.5	-65.8	3.6	1.51e+00	0	40	104	0	60	70443
2026-01-19 13:50:06.56	19.41	0.53	-50.6	-65.8	3.6	1.51e+00	0	40	104	0	60	70381
2026-01-19 13:50:07.57	19.44	0.59	-50.5	-65.8	3.6	1.51e+00	0	40	104	0	60	70840
2026-01-19 13:50:08.58	19.47	0.65	-50.6	-65.8	3.6	1.51e+00	0	40	104	0	60	70603
2026-01-19 13:50:09.59	19.50	0.71	-50.6	-65.8	3.6	1.51e+00	0	40	104	0	60	70325
2026-01-19 13:50:10.60	19.54	0.77	-50.6	-65.8	3.6	1.51e+00	0	40	104	0	60	70387
2026-01-19 13:50:11.61	19.57	0.83	-50.6	-65.8	3.6	1.51e+00	0	40	104	0	60	70118
2026-01-19 13:50:12.62	19.60	0.89	-50.5	-65.7	3.6	1.51e+00	0	40	104	0	60	69707
2026-01-19 13:50:13.63	19.63	0.95	-50.4	-65.6	3.6	1.51e+00	0	40	104	0	60	69097
2026-01-19 13:50:14.64	19.67	1.01	-50.4	-65.6	3.6	1.51e+00	0	40	104	0	60	68976
2026-01-19 13:50:15.65	19.70	1.07	-50.3	-65.5	3.6	1.51e+00	0	40	104	0	60	68194
2026-01-19 13:50:16.66	19.73	1.13	-50.2	-65.4	3.6	1.51e+00	0	40	104	0	60	67264
2026-01-19 13:50:17.67	19.77	1.19	-50.1	-65.3	3.6	1.51e+00	0	40	104	0	60	66439
2026-01-19 13:50:18.68	19.80	1.25	-49.7	-65.2	3.6	1.51e+00	0	40	104	0	60	65703
2026-01-19 13:50:19.69	19.83	1.31	-49.8	-65.1	3.6	1.51e+00	0	40	104	0	60	64698
2026-01-19 13:50:20.70	19.87	1.37	-49.7	-65.0	3.6	1.51e+00	0	40	104	0	60	64033
2026-01-19 13:50:21.71	19.90	1.43	-49.6	-64.7	3.6	1.51e+00	0	40	104	0	60	62176
2026-01-19 13:50:22.72	19.93	1.49	-49.4	-64.6	3.6	1.51e+00	0	40	104	0	60	61179
2026-01-19 13:50:23.73	19.97	1.55	-49.1	-64.2	3.6	1.51e+00	0	40	104	0	60	58791
2026-01-19 13:50:24.74	20.00	1.62	-49.1	-64.2	3.6	1.51e+00	0	40	104	0	60	58930
2026-01-19 13:50:25.75	20.03	1.68	-49.1	-64.3	3.6	1.51e+00	0	40	104	0	60	58978
2026-01-19 13:50:26.76	20.07	1.74	-49.1	-64.2	3.6	1.51e+00	0	40	104	0	60	58768
2026-01-19 13:50:27.76	20.10	1.80	-49.1	-64.1	3.6	1.51e+00	0	40	104	0	60	58006
2026-01-19 13:50:28.77	20.14	1.86	-49.0	-64.0	3.6	1.51e+00	0	40	104	0	60	57484
2026-01-19 13:50:29.78	20.17	1.92	-49.0	-64.0	3.6	1.51e+00	0	40	104	0	60	57332
2026-01-19 13:50:30.79	20.21	1.99	-49.0	-63.9	3.6	1.51e+00	0	40	104	0	60	56895
2026-01-19 13:50:31.80	20.24	2.05	-49.0	-63.8	3.6	1.51e+00	0	40	104	0	60	56187
2026-01-19 13:50:32.81	20.28	2.11	-49.0	-63.8	3.6	1.51e+00	0	40	104	0	60	55730
2026-01-19 13:50:33.82	20.31	2.17	-49.0	-63.5	3.6	1.51e+00	0	40	104	0	60	54352
2026-01-19 13:50:34.83	20.35	2.24	-49.0	-63.2	3.6	1.51e+00	0	40	104	0	60	52419
2026-01-19 13:50:35.84	20.38	2.30	-49.0	-62.8	3.6	1.51e+00	0	40	104	0	60	50130
2026-01-19 13:50:36.85	20.42	2.36	-49.0	-62.6	3.6	1.51e+00	0	40	104	0	60	48764
2026-01-19 13:50:37.86	20.45	2.43	-49.0	-62.7	3.6	1.51e+00	0	40	104	0	60	49108
2026-01-19 13:50:38.87	20.49	2.49	-49.0	-62.9	3.6	1.51e+00	0	40	104	0	60	50343
2026-01-19 13:50:39.88	20.52	2.55	-49.0	-63.6	3.6	1.51e+00	0	40	104	0	60	54617
2026-01-19 13:50:40.89	20.56	2.62	-49.0	-63.8	3.6	1.51e+00	0	40	104	0	60	55858
2026-01-19 13:50:41.89	20.59	2.68	-49.0	-62.2	3.6	1.51e+00	0	40	104	0	60	46761
2026-01-19 13:50:42.90	20.63	2.74	-48.7	-59.2	4.6	1.31e+00	12	40	104	0	60	33137
2026-01-19 13:50:43.91	20.67	2.81	-48.4	-55.7	6.8	3.65e-01	0	40	0	1048576	60	21924
2026-01-19 13:50:44.92	20.70	2.87	-47.8	-53.2	9.5	6.92e-02	54	40	0	3145728	60	16546
2026-01-19 13:50:45.93	20.74	2.93	-47.1	-51.5	11.5	2.24e-03	43	40	0	4194304	60	13623
2026-01-19 13:50:46.94	20.78	3.00	-46.3	-49.8	13.4	8.62e-05	55	40	0	6291456	60	11172
2026-01-19 13:50:47.95	20.81	3.06	-45.8	-48.8	14.4	2.20e-06	90	40	0	8388608	60	9957
2026-01-19 13:50:48.96	20.85	3.13	-45.2	-47.8	15.4	0.00e+00	27	40	0	10485760	60	8922
2026-01-19 13:50:49.97	20.89	3.19	-45.1	-47.7	15.6	0.00e+00	51	40	0	12582912	60	8746
2026-01-19 13:50:50.98	20.93	3.26	-45.0	-47.6	15.7	0.00e+00	0	40	0	13631488	60	8642
2026-01-19 13:50:51.99	20.96	3.32	-45.1	-47.7	15.5	0.00e+00	0	40	0	15728640	60	8767
2026-01-19 13:50:53.01	21.00	3.39	-45.4	-48.2	15.0	0.00e+00	0	40	0	17825792	60	9333
2026-01-19 13:50:54.01	21.04	3.45	-46.1	-49.4	13.7	0.00e+00	0	40	0	19922944	60	10633
2026-01-19 13:50:55.02	21.08	3.52	-46.6	-50.5	12.6	2.82e-05	92	40	0	22020096	60	12084
2026-01-19 13:50:56.03	21.11	3.59	-47.5	-52.6	10.3	2.13e-03	0	40	0	24117248	60	15392
2026-01-19 13:50:57.04	21.15	3.65	-48.1	-54.5	8.2	2.29e-02	92	40	0	25165824	60	19296
2026-01-19 13:50:58.05	21.19	3.72	-44.3	-46.4	17.2	3.70e-04	0	40	0	27262976	60	7546
2026-01-19 13:50:59.06	21.23	3.78	-48.8	-62.2	3.6	6.09e-01	0	40	104	29360128	60	46710
2026-01-19 13:51:00.07	21.27	3.85	-49.2	-63.4	3.6	6.05e-01	0	40	104	29360128	60	53553
2026-01-19 13:51:01.08	21.31	3.92	-46.5	-50.2	13.3	1.48e+00	55	40	104	29360128	60	11720
2026-01-19 13:51:02.09	21.35	3.98	-49.0	-63.5	3.6	1.50e+00	0	40	104	29360128	60	53987
2026-01-19 13:51:03.10	21.38	4.05	-46.5	-50.2	13.1	1.35e+00	0	40	104	29360128	60	11681
2026-01-19 13:51:04.11	21.42	4.12	-46.4	-49.7	13.5	3.05e-05	91	40	0	29360128	60	11103
2026-01-19 13:51:05.12	21.46	4.18	-46.5	-50.0	13.6	6.80e-06	55	40	0	31457280	60	11417
2026-01-19 13:51:06.13	21.50	4.25	-46.2	-49.5	14.0	8.30e-06	2	40	0	33554432	60	10734
2026-01-19 13:51:07.14	21.54	4.32	-45.9	-48.9	14.2	0.00e+00	0	40	0	35651584	60	10128
2026-01-19 13:51:08.15	21.58	4.39	-46.1	-49.2	14.5	0.00e+00	30	40	0	37748736	60	10411
2026-01-19 13:51:09.16	21.62	4.45	-45.9	-48.9	14.5	7.00e-07	0	40	0	38797312	60	10047
2026-01-19 13:51:10.16	21.66	4.52	-45.9	-48.8	14.5	7.00e-07	51	40	0	40894464	60	9900
2026-01-19 13:51:11.17	21.70	4.59	-46.0	-48.9	14.5	7.00e-07	92	40	0	42991616	60	10095
2026-01-19 13:51:12.18	21.74	4.66	-46.1	-49.1	14.9	7.00e-07	30	40	0	45088768	60	10342
2026-01-19 13:51:13.19	21.78	4.72	-45.8	-48.6	14.5	1.50e-06	92	40	0	47185920	60	9772
2026-01-19 13:51:14.20	21.82	4.79	-46.1	-49.2	14.4	0.00e+00	0	40	0	48234496	60	10421
2026-01-19 13:51:15.21	21.87	4.86	-46.1	-49.1	14.3	0.00e+00	0	40	0	50331648	60	10354
2026-01-19 13:51:16.22	21.91	4.93	-45.8	-48.7	14.9	0.00e+00	26	41	0	52428800	60	9793
2026-01-19 13:51:17.23	21.95	5.00	-45.8	-48.5	15.1	0.00e+00	24	40	0	54525952	60	9628
2026-01-19 13:51:18.24	21.99	5.07	-45.6	-48.3	15.3	0.00e+00	92	40	0	56623104	60	9413
2026-01-19 13:51:19.25	22.03	5.14	-45.6	-48.2	15.6	0.00e+00	0	41	0	57671680	60	9296
2026-01-19 13:51:20.26	22.07	5.21	-45.7	-48.4	15.2	0.00e+00	92	40	0	59768832	60	9472
2026-01-19 13:51:21.27	22.12	5.28	-45.4	-48.0	15.8	0.00e+00	0	41	0	61865984	60	9056
2026-01-19 13:51:22.28	22.16	5.35	-44.5	-46.5	17.2	0.00e+00	2	41	0	63963136	60	7639
2026-01-19 13:51:23.28	22.20	5.42	-44.1	-46.1	17.7	0.00e+00	0	41	0	66060288	60	7282
2026-01-19 13:51:24.29	22.24	5.49	-43.7	-45.4	18.2	0.00e+00	54	41	0	67108864	60	6768
2026-01-19 13:51:25.30	22.29	5.56	-43.4	-45.1	18.5	0.00e+00	81	40	0	69206016	60	6499
2026-01-19 13:51:26.31	22.33	5.63	-43.6	-45.3	18.5	0.00e+00	54	41	0	71303168	60	6665
2026-01-19 13:51:27.32	22.37	5.70	-43.4	-45.1	18.7	0.00e+00	91	41	0	73400320	60	6518
2026-01-19 13:51:28.33	22.41	5.77	-43.3	-45.0	18.7	0.00e+00	26	41	0	75497472	60	6410
2026-01-19 13:51:29.34	22.46	5.84	-43.4	-45.0	18.7	0.00e+00	27	41	0	77594624	60	6464
2026-01-19 13:51:30.35	22.50	5.91	-43.4	-45.0	18.9	0.00e+00	2	41	0	78643200	60	6451
2026-01-19 13:51:31.36	22.55	5.98	-43.5	-45.2	18.8	0.00e+00	0	41	0	80740352	60	6559
2026-01-19 13:51:32.37	22.59	6.06	-43.2	-44.7	19.0	0.00e+00	0	41	0	82837504	60	6240
2026-01-19 13:51:33.38	22.63	6.13	-43.3	-44.9	18.9	0.00e+00	57	40	0	84934656	60	6323
2026-01-19 13:51:34.39	22.68	6.20	-43.1	-44.6	19.2	0.00e+00	91	41	0	87031808	60	6147
2026-01-19 13:51:35.40	22.72	6.27	-43.1	-44.7	19.2	0.00e+00	32	40	0	88080384	60	6196
2026-01-19 13:51:36.41	22.77	6.34	-43.1	-44.7	19.2	0.00e+00	92	41	0	90177536	60	6190
2026-01-19 13:51:37.42	22.81	6.42	-43.3	-44.9	18.9	0.00e+00	6	41	0	92274688	60	6377
2026-01-19 13:51:38.42	22.86	6.49	-43.0	-44.6	19.3	0.00e+00	6	40	0	94371840	60	6126
2026-01-19 13:51:39.43	22.90	6.56	-42.9	-44.4	19.5	0.00e+00	0	41	0	96468992	60	5979
2026-01-19 13:51:40.44	22.95	6.63	-43.2	-44.7	19.2	0.00e+00	6	40	0	97517568	60	6227
2026-01-19 13:51:41.45	23.00	6.71	-42.8	-44.3	19.5	0.00e+00	92	40	0	99614720	60	5938
2026-01-19 13:51:42.46	23.04	6.78	-42.9	-44.4	19.5	0.00e+00	6	40	0	101711872	60	5987
2026-01-19 13:51:43.47	23.09	6.86	-42.9	-44.3	19.5	0.00e+00	92	41	0	103809024	60	5960
2026-01-19 13:51:44.48	23.13	6.93	-42.8	-44.3	19.6	0.00e+00	0	41	0	105906176	60	5925
2026-01-19 13:51:45.49	23.18	7.00	-42.8	-44.3	19.6	0.00e+00	5	41	0	106954752	58	6640
2026-01-19 13:51:46.50	23.23	7.08	-42.6	-44.1	19.7	0.00e+00	0	41	0	109051904	58	6465
2026-01-19 13:51:47.51	23.28	7.15	-42.9	-44.4	19.5	0.00e+00	54	41	0	111149056	58	6725
2026-01-19 13:51:48.52	23.32	7.23	-42.9	-44.4	19.4	0.00e+00	7	41	0	113246208	58	6768
2026-01-19 13:51:49.53	23.37	7.30	-42.9	-44.3	19.5	0.00e+00	55	41	0	115343360	58	6692
2026-01-19 13:51:50.54	23.42	7.38	-42.9	-44.4	19.5	0.00e+00	92	41	0	116391936	58	6711
2026-01-19 13:51:51.55	23.47	7.45	-43.0	-44.5	19.6	0.00e+00	50	41	0	118489088	58	6773
2026-01-19 13:51:52.56	23.51	7.53	-42.6	-44.0	19.9	0.00e+00	75	41	0	120586240	58	6462
2026-01-19 13:51:53.57	23.56	7.60	-42.5	-43.9	20.1	0.00e+00	0	41	0	122683392	58	6369
2026-01-19 13:51:54.58	23.61	7.68	-42.4	-43.8	20.1	0.00e+00	7	41	0	124780544	58	6287
2026-01-19 13:51:55.59	23.66	7.76	-42.5	-43.8	20.1	0.00e+00	84	41	0	125829120	58	6297
2026-01-19 13:51:56.60	23.71	7.83	-42.4	-43.8	20.2	0.00e+00	7	41	0	127926272	58	6271
2026-01-19 13:51:57.61	23.76	7.91	-42.3	-43.6	20.3	0.00e+00	92	41	0	130023424	58	6146
2026-01-19 13:51:58.62	23.81	7.99	-42.3	-43.6	20.3	0.00e+00	6	41	0	132120576	58	6144
2026-01-19 13:51:59.63	23.86	8.06	-42.3	-43.7	20.2	0.00e+00	92	41	0	134217728	58	6195
2026-01-19 13:52:00.63	23.91	8.14	-42.3	-43.7	20.3	0.00e+00	0	41	0	135266304	58	6195
2026-01-19 13:52:01.64	23.96	8.22	-42.3	-43.7	20.3	0.00e+00	6	41	0	137363456	58	6190
2026-01-19 13:52:02.66	24.01	8.30	-42.4	-43.7	20.3	0.00e+00	0	41	0	139460608	58	6214
2026-01-19 13:52:03.67	24.06	8.37	-42.3	-43.7	20.2	0.00e+00	0	41	0	141557760	58	6187
2026-01-19 13:52:04.68	24.11	8.45	-42.3	-43.6	20.3	0.00e+00	92	41	0	143654912	58	6136
2026-01-19 13:52:05.69	24.16	8.53	-42.1	-43.4	20.5	0.00e+00	0	41	0	145752064	58	6012
2026-01-19 13:52:06.70	24.22	8.61	-42.1	-43.4	20.6	0.00e+00	90	41	0	146800640	58	5978
2026-01-19 13:52:07.71	24.27	8.69	-42.2	-43.5	20.4	0.00e+00	52	41	0	148897792	58	6054
2026-01-19 13:52:08.72	24.32	8.77	-42.1	-43.4	20.6	0.00e+00	52	41	0	150994944	58	6010
2026-01-19 13:52:09.73	24.37	8.85	-42.0	-43.3	20.7	0.00e+00	57	41	0	153092096	58	5904
2026-01-19 13:52:10.74	24.42	8.93	-42.0	-43.2	20.8	0.00e+00	56	41	0	155189248	58	5887
2026-01-19 13:52:11.75	24.48	9.01	-41.9	-43.1	20.8	0.00e+00	92	41	0	156237824	58	5820
2026-01-19 13:52:12.76	24.53	9.09	-41.9	-43.1	20.8	0.00e+00	25	41	0	158334976	58	5826
2026-01-19 13:52:13.77	24.58	9.17	-42.0	-43.3	20.7	0.00e+00	92	41	0	160432128	58	5916
2026-01-19 13:52:14.77	24.64	9.25	-41.9	-43.1	20.9	0.00e+00	57	41	0	162529280	58	5799
2026-01-19 13:52:15.78	24.69	9.33	-41.8	-43.1	21.0	0.00e+00	84	41	0	164626432	58	5766
2026-01-19 13:52:16.79	24.75	9.41	-41.8	-43.1	20.9	0.00e+00	0	41	0	165675008	58	5783
2026-01-19 13:52:17.80	24.80	9.49	-41.7	-42.9	21.1	0.00e+00	28	41	0	167772160	56	6359
2026-01-19 13:52:18.81	24.86	9.57	-41.7	-42.9	21.2	0.00e+00	0	41	0	169869312	56	6376
2026-01-19 13:52:19.82	24.91	9.65	-41.8	-43.0	21.1	0.00e+00	23	41	0	171966464	56	6436
2026-01-19 13:52:20.83	24.97	9.73	-41.8	-43.0	21.1	0.00e+00	92	41	0	174063616	56	6400
2026-01-19 13:52:21.84	25.02	9.82	-41.6	-42.8	21.2	0.00e+00	0	41	0	175112192	56	6281
2026-01-19 13:52:22.85	25.08	9.90	-41.6	-42.8	21.3	0.00e+00	24	41	0	177209344	56	6279
2026-01-19 13:52:23.86	25.13	9.98	-41.4	-42.6	21.4	0.00e+00	0	41	0	179306496	56	6131
2026-01-19 13:52:24.86	25.19	10.06	-41.5	-42.6	21.4	0.00e+00	0	41	0	181403648	56	6171
2026-01-19 13:52:25.87	25.25	10.15	-41.5	-42.7	21.4	0.00e+00	0	41	0	183500800	56	6187
2026-01-19 13:52:26.88	25.30	10.23	-41.4	-42.5	21.6	0.00e+00	4	41	0	184549376	56	6072
2026-01-19 13:52:27.89	25.36	10.32	-41.4	-42.5	21.5	0.00e+00	92	41	0	186646528	56	6087
2026-01-19 13:52:28.90	25.42	10.40	-41.3	-42.5	21.6	0.00e+00	0	41	0	188743680	56	6051
2026-01-19 13:52:29.91	25.48	10.48	-41.3	-42.4	21.6	0.00e+00	92	41	0	190840832	56	6016
2026-01-19 13:52:30.92	25.54	10.57	-41.4	-42.5	21.5	0.00e+00	0	41	0	192937984	56	6077
2026-01-19 13:52:31.93	25.59	10.65	-41.2	-42.3	21.7	0.00e+00	0	41	0	193986560	56	5954
2026-01-19 13:52:32.94	25.65	10.74	-41.3	-42.4	21.7	0.00e+00	30	41	0	196083712	56	6023
2026-01-19 13:52:33.95	25.71	10.82	-41.2	-42.4	21.7	0.00e+00	57	41	0	198180864	56	5980
2026-01-19 13:52:34.96	25.77	10.91	-41.2	-42.3	21.8	0.00e+00	59	41	0	200278016	56	5931
2026-01-19 13:52:35.97	25.83	11.00	-41.3	-42.4	21.7	0.00e+00	24	41	0	202375168	56	5985
2026-01-19 13:52:36.98	25.89	11.08	-41.3	-42.4	21.7	0.00e+00	92	41	0	203423744	56	6008
2026-01-19 13:52:37.99	25.95	11.17	-41.2	-42.3	21.9	0.00e+00	0	41	0	205520896	56	5902
2026-01-19 13:52:39.00	26.01	11.26	-41.3	-42.4	21.8	0.00e+00	0	41	0	207618048	56	5993
2026-01-19 13:52:40.01	26.07	11.34	-41.2	-42.3	21.8	0.00e+00	29	41	0	209715200	56	5945
2026-01-19 13:52:41.01	26.14	11.43	-41.2	-42.3	21.8	0.00e+00	30	41	0	211812352	56	5915
2026-01-19 13:52:42.03	26.20	11.52	-41.3	-42.4	21.7	0.00e+00	0	41	0	212860928	56	6028
2026-01-19 13:52:43.03	26.26	11.60	-41.2	-42.3	21.8	0.00e+00	0	41	0	214958080	56	5957
2026-01-19 13:52:44.04	26.32	11.69	-41.2	-42.3	21.9	0.00e+00	91	41	0	217055232	56	5910
2026-01-19 13:52:45.05	26.39	11.78	-41.3	-42.4	21.8	0.00e+00	0	41	0	219152384	56	5990
2026-01-19 13:52:46.06	26.45	11.87	-41.2	-42.3	21.9	0.00e+00	90	41	0	221249536	56	5916
2026-01-19 13:52:47.07	26.51	11.96	-41.3	-42.4	21.8	0.00e+00	0	41	0	222298112	56	6031
2026-01-19 13:52:48.08	26.58	12.05	-41.2	-42.4	21.8	0.00e+00	0	41	0	224395264	56	5968
2026-01-19 13:52:49.09	26.64	12.14	-41.1	-42.2	22.0	0.00e+00	0	41	0	226492416	56	5846
2026-01-19 13:52:50.10	26.71	12.23	-41.2	-42.3	21.9	0.00e+00	0	41	0	228589568	56	5937
2026-01-19 13:52:51.11	26.77	12.32	-41.2	-42.2	22.0	0.00e+00	92	41	0	230686720	56	5893
2026-01-19 13:52:52.12	26.84	12.41	-41.2	-42.3	21.8	0.00e+00	0	41	0	231735296	56	5908
2026-01-19 13:52:53.13	26.90	12.50	-41.2	-42.3	21.8	0.00e+00	92	41	0	233832448	56	5950
2026-01-19 13:52:54.14	26.97	12.59	-41.0	-42.1	22.0	0.00e+00	21	41	0	235929600	56	5794
2026-01-19 13:52:55.15	27.04	12.68	-40.9	-42.0	22.2	0.00e+00	27	41	0	238026752	56	5699
2026-01-19 13:52:56.15	27.10	12.77	-40.9	-41.9	22.2	0.00e+00	54	41	0	240123904	56	5680
2026-01-19 13:52:57.17	27.17	12.87	-40.8	-41.9	22.3	0.00e+00	27	41	0	242221056	56	5652
2026-01-19 13:52:58.18	27.24	12.96	-40.8	-41.8	22.3	0.00e+00	0	41	0	243269632	54	6307
2026-01-19 13:52:59.19	27.31	13.05	-40.8	-41.8	22.3	0.00e+00	0	41	0	245366784	54	6298
2026-01-19 13:53:00.19	27.37	13.14	-40.6	-41.7	22.4	0.00e+00	92	41	0	247463936	54	6182
2026-01-19 13:53:01.21	27.44	13.24	-40.6	-41.6	22.5	0.00e+00	21	41	0	249561088	54	6137
2026-01-19 13:53:02.22	27.51	13.33	-40.6	-41.7	22.4	0.00e+00	91	41	0	251658240	54	6190
2026-01-19 13:53:03.22	27.58	13.43	-40.6	-41.7	22.4	0.00e+00	0	41	0	252706816	54	6175
2026-01-19 13:53:04.23	27.65	13.52	-40.6	-41.6	22.5	0.00e+00	27	41	0	254803968	54	6135
2026-01-19 13:53:05.24	27.72	13.62	-40.6	-41.6	22.5	0.00e+00	0	41	0	256901120	54	6137
2026-01-19 13:53:06.25	27.79	13.71	-40.6	-41.6	22.5	0.00e+00	0	41	0	258998272	54	6148
2026-01-19 13:53:07.26	27.87	13.81	-40.6	-41.6	22.4	0.00e+00	91	41	0	261095424	54	6143
2026-01-19 13:53:08.27	27.94	13.90	-40.7	-41.7	22.4	0.00e+00	0	41	0	262144000	54	6208
2026-01-19 13:53:09.28	28.01	14.00	-40.5	-41.5	22.6	0.00e+00	92	41	0	264241152	54	6089
2026-01-19 13:53:10.29	28.08	14.09	-40.6	-41.6	22.5	0.00e+00	57	41	0	266338304	54	6161
2026-01-19 13:53:11.30	28.16	14.19	-40.6	-41.6	22.5	0.00e+00	53	41	0	268435456	54	6127
2026-01-19 13:53:12.31	28.23	14.29	-40.4	-41.4	22.7	0.00e+00	0	41	0	270532608	54	5980
2026-01-19 13:53:13.31	28.30	14.39	-40.4	-41.4	22.6	0.00e+00	0	41	0	271581184	54	6021
2026-01-19 13:53:14.32	28.38	14.48	-40.5	-41.5	22.6	0.00e+00	92	41	0	273678336	54	6041
2026-01-19 13:53:15.33	28.45	14.58	-40.3	-41.3	22.8	0.00e+00	0	41	0	275775488	54	5948
2026-01-19 13:53:16.34	28.53	14.68	-40.4	-41.3	22.7	0.00e+00	92	41	0	277872640	54	5955
2026-01-19 13:53:17.34	28.60	14.78	-40.4	-41.4	22.7	0.00e+00	60	41	0	279969792	54	5979
2026-01-19 13:53:18.35	28.68	14.88	-40.3	-41.3	22.8	0.00e+00	58	41	0	281018368	54	5906
2026-01-19 13:53:19.36	28.76	14.98	-40.3	-41.3	22.7	0.00e+00	28	41	0	283115520	54	5919
2026-01-19 13:53:20.37	28.84	15.08	-40.2	-41.2	22.9	0.00e+00	27	41	0	285212672	54	5874
2026-01-19 13:53:21.38	28.91	15.18	-40.2	-41.2	22.9	0.00e+00	92	41	0	287309824	54	5881
2026-01-19 13:53:22.39	28.99	15.28	-40.2	-41.2	22.9	0.00e+00	0	41	0	289406976	54	5836
2026-01-19 13:53:23.40	29.07	15.38	-40.2	-41.2	23.0	0.00e+00	92	41	0	290455552	54	5855
2026-01-19 13:53:24.41	29.15	15.48	-40.2	-41.1	23.0	0.00e+00	22	41	0	292552704	54	5817
2026-01-19 13:53:25.42	29.23	15.58	-40.1	-41.1	23.1	0.00e+00	91	41	0	294649856	54	5767
2026-01-19 13:53:26.42	29.31	15.68	-40.2	-41.1	23.0	0.00e+00	22	41	0	296747008	54	5821
2026-01-19 13:53:27.43	29.39	15.79	-40.2	-41.2	23.0	0.00e+00	0	41	0	298844160	54	5858
2026-01-19 13:53:28.45	29.47	15.89	-40.3	-41.2	22.9	0.00e+00	0	41	0	299892736	54	5883
2026-01-19 13:53:29.46	29.56	15.99	-40.3	-41.3	23.0	0.00e+00	0	41	0	301989888	54	5907
2026-01-19 13:53:30.47	29.64	16.10	-40.2	-41.2	23.0	0.00e+00	92	41	0	304087040	54	5837
2026-01-19 13:53:31.48	29.72	16.20	-40.1	-41.1	23.1	0.00e+00	6	41	0	306184192	54	5797
2026-01-19 13:53:32.49	29.81	16.31	-40.2	-41.2	23.0	0.00e+00	92	41	0	308281344	54	5839
2026-01-19 13:53:33.50	29.89	16.41	-40.2	-41.2	22.9	0.00e+00	60	41	0	310378496	54	5869
2026-01-19 13:53:34.51	29.97	16.52	-40.3	-41.3	22.8	0.00e+00	60	41	0	311427072	54	5923
2026-01-19 13:53:35.52	30.06	16.62	-40.3	-41.2	22.9	0.00e+00	0	41	0	313524224	54	5896
2026-01-19 13:53:36.53	30.15	16.73	-40.3	-41.3	22.9	0.00e+00	0	41	0	315621376	54	5915
2026-01-19 13:53:37.53	30.23	16.83	-40.4	-41.4	22.8	0.00e+00	63	41	0	317718528	54	5974
2026-01-19 13:53:38.54	30.32	16.94	-40.4	-41.4	22.8	0.00e+00	60	41	0	319815680	54	5995
2026-01-19 13:53:39.55	30.41	17.05	-40.5	-41.5	22.7	0.00e+00	90	41	0	320864256	54	6038
2026-01-19 13:53:40.56	30.49	17.16	-40.5	-41.5	22.7	0.00e+00	60	41	0	322961408	54	6077
2026-01-19 13:53:41.57	30.58	17.27	-40.5	-41.5	22.7	0.00e+00	78	41	0	325058560	54	6052
2026-01-19 13:53:42.58	30.67	17.37	-40.6	-41.6	22.6	0.00e+00	27	41	0	327155712	54	6130
2026-01-19 13:53:43.59	30.76	17.48	-40.5	-41.4	22.7	0.00e+00	7	41	0	329252864	54	6028
2026-01-19 13:53:44.60	30.85	17.59	-40.6	-41.5	22.6	0.00e+00	34	41	0	330301440	54	6102
2026-01-19 13:53:45.61	30.95	17.70	-40.7	-41.7	22.4	0.00e+00	0	41	0	332398592	54	6193
2026-01-19 13:53:46.62	31.04	17.81	-40.5	-41.5	22.7	0.00e+00	92	41	0	334495744	54	6081
2026-01-19 13:53:47.63	31.13	17.92	-40.7	-41.7	22.6	0.00e+00	0	41	0	336592896	54	6187
2026-01-19 13:53:48.64	31.22	18.04	-40.7	-41.7	22.6	0.00e+00	92	41	0	338690048	54	6194
2026-01-19 13:53:49.65	31.32	18.15	-40.7	-41.7	22.6	0.00e+00	6	41	0	339738624	54	6210
2026-01-19 13:53:50.66	31.41	18.26	-40.7	-41.7	22.5	0.00e+00	0	41	0	341835776	54	6239
2026-01-19 13:53:51.67	31.51	18.37	-40.8	-41.8	22.5	0.00e+00	0	41	0	343932928	54	6266
2026-01-19 13:53:52.68	31.60	18.48	-40.7	-41.7	22.6	0.00e+00	55	41	0	346030080	54	6184
2026-01-19 13:53:53.69	31.70	18.60	-40.7	-41.7	22.5	0.00e+00	92	41	0	348127232	54	6208
2026-01-19 13:53:54.70	31.80	18.71	-40.8	-41.8	22.5	0.00e+00	55	41	0	349175808	54	6271
2026-01-19 13:53:55.71	31.89	18.83	-40.7	-41.7	22.6	0.00e+00	85	41	0	351272960	54	6240
2026-01-19 13:53:56.72	31.99	18.94	-40.8	-41.8	22.5	0.00e+00	0	41	0	353370112	54	6286
2026-01-19 13:53:57.73	32.09	19.06	-40.8	-41.8	22.5	0.00e+00	0	41	0	355467264	54	6261
2026-01-19 13:53:58.73	32.19	19.17	-41.0	-42.1	22.3	0.00e+00	61	41	0	357564416	54	6470
2026-01-19 13:53:59.75	32.29	19.29	-40.9	-42.0	22.4	0.00e+00	26	41	0	358612992	54	6395
2026-01-19 13:54:00.76	32.40	19.41	-40.9	-41.9	22.4	0.00e+00	90	41	0	360710144	54	6355
2026-01-19 13:54:01.76	32.50	19.52	-40.9	-41.9	22.4	0.00e+00	27	41	0	362807296	54	6357
2026-01-19 13:54:02.77	32.60	19.64	-40.9	-41.9	22.4	0.00e+00	92	41	0	364904448	54	6371
2026-01-19 13:54:03.79	32.71	19.76	-40.7	-41.7	22.7	0.00e+00	21	41	0	367001600	54	6233
2026-01-19 13:54:04.80	32.81	19.88	-40.8	-41.9	22.6	0.00e+00	35	41	0	368050176	54	6331
2026-01-19 13:54:05.81	32.92	20.00	-40.9	-42.0	22.4	0.00e+00	21	41	0	370147328	54	6391
2026-01-19 13:54:06.81	33.02	20.11	-41.0	-42.0	22.3	0.00e+00	19	41	0	372244480	54	6436
2026-01-19 13:54:07.82	33.13	20.23	-41.0	-42.1	22.3	0.00e+00	69	41	0	374341632	54	6472
2026-01-19 13:54:08.83	33.24	20.35	-41.0	-42.1	22.4	0.00e+00	0	41	0	376438784	54	6471
2026-01-19 13:54:09.84	33.34	20.48	-40.9	-41.9	22.5	0.00e+00	92	41	0	378535936	54	6371
2026-01-19 13:54:10.85	33.45	20.60	-41.0	-42.0	22.5	0.00e+00	0	41	0	379584512	54	6422
2026-01-19 13:54:11.86	33.56	20.72	-40.9	-42.0	22.4	0.00e+00	92	41	0	381681664	54	6397
2026-01-19 13:54:12.87	33.67	20.84	-40.9	-41.9	22.5	0.00e+00	0	41	0	383778816	54	6386
2026-01-19 13:54:13.88	33.79	20.96	-41.0	-42.0	22.4	0.00e+00	0	41	0	385875968	54	6435
2026-01-19 13:54:14.89	33.90	21.09	-40.9	-41.9	22.5	0.00e+00	0	41	0	387973120	54	6347
2026-01-19 13:54:15.90	34.01	21.21	-40.8	-41.8	22.5	0.00e+00	56	41	0	389021696	54	6275
2026-01-19 13:54:16.91	34.13	21.34	-40.7	-41.8	22.6	0.00e+00	92	41	0	391118848	54	6252
2026-01-19 13:54:17.92	34.24	21.46	-40.6	-41.6	22.7	0.00e+00	0	41	0	393216000	54	6144
2026-01-19 13:54:18.93	34.36	21.59	-40.5	-41.5	22.9	0.00e+00	92	41	0	395313152	54	6057
2026-01-19 13:54:19.94	34.48	21.71	-40.6	-41.6	22.6	0.00e+00	61	41	0	397410304	54	6139
2026-01-19 13:54:20.95	34.60	21.84	-40.6	-41.5	22.8	0.00e+00	20	41	0	398458880	54	6096
2026-01-19 13:54:21.96	34.71	21.97	-40.5	-41.5	22.9	0.00e+00	61	41	0	400556032	54	6056
2026-01-19 13:54:22.97	34.83	22.09	-40.4	-41.4	23.0	0.00e+00	21	41	0	402653184	54	5998
2026-01-19 13:54:23.98	34.96	22.22	-40.6	-41.5	22.9	0.00e+00	91	41	0	404750336	54	6094
2026-01-19 13:54:24.99	35.08	22.35	-40.6	-41.5	22.9	0.00e+00	0	41	0	406847488	54	6090
2026-01-19 13:54:26.00	35.20	22.48	-40.6	-41.6	22.8	0.00e+00	91	41	0	407896064	54	6131
2026-01-19 13:54:27.01	35.32	22.61	-40.5	-41.5	22.9	0.00e+00	0	41	0	409993216	54	6072
2026-01-19 13:54:28.02	35.45	22.74	-40.6	-41.6	22.9	0.00e+00	90	41	0	412090368	54	6116
2026-01-19 13:54:29.02	35.57	22.87	-40.6	-41.5	22.9	0.00e+00	2	41	0	414187520	54	6102
2026-01-19 13:54:30.03	35.70	23.00	-40.7	-41.6	22.8	0.00e+00	0	41	0	416284672	54	6171
2026-01-19 13:54:31.04	35.83	23.13	-40.7	-41.7	22.7	0.00e+00	0	41	0	417333248	54	6234
2026-01-19 13:54:32.05	35.96	23.26	-40.8	-41.8	22.6	0.00e+00	0	41	0	419430400	54	6263
2026-01-19 13:54:33.06	36.09	23.40	-40.9	-41.9	22.5	0.00e+00	92	41	0	421527552	54	6362
2026-01-19 13:54:34.07	36.22	23.53	-40.9	-41.9	22.6	0.00e+00	0	41	0	423624704	54	6348
2026-01-19 13:54:35.08	36.35	23.66	-40.8	-41.8	22.7	0.00e+00	28	41	0	425721856	54	6304
2026-01-19 13:54:36.09	36.49	23.80	-40.7	-41.7	22.7	0.00e+00	63	41	0	426770432	54	6239
2026-01-19 13:54:37.10	36.62	23.93	-40.9	-41.9	22.5	0.00e+00	0	41	0	428867584	54	6355
2026-01-19 13:54:38.11	36.76	24.07	-40.9	-41.9	22.5	0.00e+00	0	41	0	430964736	54	6375
2026-01-19 13:54:39.12	36.89	24.21	-40.7	-41.7	22.7	0.00e+00	0	41	0	433061888	54	6204
2026-01-19 13:54:40.13	37.03	24.34	-40.5	-41.4	22.9	0.00e+00	92	41	0	435159040	54	6020
2026-01-19 13:54:41.14	37.17	24.48	-40.5	-41.4	22.9	0.00e+00	21	41	0	436207616	54	6024
2026-01-19 13:54:42.15	37.31	24.62	-40.5	-41.4	23.0	0.00e+00	92	41	0	438304768	54	6009
2026-01-19 13:54:43.16	37.45	24.76	-40.5	-41.4	22.8	0.00e+00	0	41	0	440401920	54	6024
2026-01-19 13:54:44.17	37.59	24.89	-40.6	-41.5	22.5	0.00e+00	20	41	0	442499072	54	6099
2026-01-19 13:54:45.18	37.74	25.03	-40.5	-41.5	22.8	0.00e+00	63	41	0	444596224	54	6038
2026-01-19 13:54:46.19	37.88	25.17	-40.6	-41.6	22.8	0.00e+00	18	41	0	446693376	54	6148
2026-01-19 13:54:47.19	38.03	25.31	-40.7	-41.7	22.7	0.00e+00	92	41	0	447741952	54	6176
2026-01-19 13:54:48.20	38.18	25.45	-40.7	-41.7	22.7	0.00e+00	0	41	0	449839104	54	6235
2026-01-19 13:54:49.21	38.32	25.60	-40.7	-41.7	22.7	0.00e+00	92	41	0	451936256	54	6211
2026-01-19 13:54:50.22	38.47	25.74	-40.8	-41.8	22.7	0.00e+00	2	41	0	454033408	54	6278
2026-01-19 13:54:51.23	38.63	25.88	-40.9	-41.9	22.6	0.00e+00	0	41	0	456130560	54	6368
2026-01-19 13:54:52.24	38.78	26.02	-41.1	-42.1	22.5	0.00e+00	0	41	0	457179136	54	6494
2026-01-19 13:54:53.25	38.93	26.17	-40.9	-41.9	22.6	0.00e+00	0	41	0	459276288	54	6384
2026-01-19 13:54:54.26	39.09	26.31	-41.0	-42.0	22.5	0.00e+00	0	41	0	461373440	54	6464
2026-01-19 13:54:55.27	39.25	26.46	-41.1	-42.2	22.4	0.00e+00	0	41	0	463470592	54	6550
2026-01-19 13:54:56.28	39.40	26.60	-41.2	-42.3	22.3	0.00e+00	92	41	0	465567744	54	6646
2026-01-19 13:54:57.29	39.56	26.75	-41.1	-42.1	22.3	0.00e+00	0	41	0	466616320	54	6532
2026-01-19 13:54:58.30	39.72	26.90	-41.1	-42.1	22.4	0.00e+00	2	41	0	468713472	54	6530
2026-01-19 13:54:59.31	39.89	27.04	-41.1	-42.2	22.4	0.00e+00	0	41	0	470810624	54	6550
2026-01-19 13:55:00.32	40.05	27.19	-41.2	-42.3	22.3	0.00e+00	0	41	0	472907776	54	6620
2026-01-19 13:55:01.33	40.22	27.34	-41.3	-42.4	22.1	0.00e+00	60	41	0	475004928	54	6719
2026-01-19 13:55:02.34	40.38	27.49	-41.2	-42.3	22.3	0.00e+00	61	41	0	476053504	54	6628
2026-01-19 13:55:03.35	40.55	27.64	-41.4	-42.5	22.0	0.00e+00	92	41	0	478150656	54	6804
2026-01-19 13:55:04.36	40.72	27.79	-41.5	-42.6	21.8	0.00e+00	63	41	0	480247808	54	6871
2026-01-19 13:55:05.37	40.89	27.94	-41.5	-42.6	21.9	0.00e+00	92	41	0	482344960	54	6909
2026-01-19 13:55:06.38	41.07	28.09	-41.7	-42.8	21.8	0.00e+00	0	41	0	484442112	54	7020
2026-01-19 13:55:07.39	41.24	28.24	-41.9	-43.0	21.6	0.00e+00	0	41	0	485490688	56	6458
2026-01-19 13:55:08.40	41.42	28.40	-42.0	-43.2	21.5	0.00e+00	26	41	0	487587840	56	6543
2026-01-19 13:55:09.41	41.60	28.55	-42.1	-43.2	21.5	0.00e+00	6	41	0	489684992	56	6585
2026-01-19 13:55:10.42	41.78	28.70	-42.3	-43.4	21.3	0.00e+00	40	41	0	491782144	56	6760
2026-01-19 13:55:11.43	41.96	28.86	-42.1	-43.3	21.5	0.00e+00	0	41	0	493879296	56	6648
2026-01-19 13:55:12.44	42.14	29.01	-42.1	-43.2	21.5	0.00e+00	92	41	0	494927872	56	6579
2026-01-19 13:55:13.45	42.33	29.17	-42.1	-43.2	21.5	0.00e+00	6	41	0	497025024	56	6579
2026-01-19 13:55:14.46	42.51	29.32	-42.0	-43.2	21.5	0.00e+00	5	41	0	499122176	56	6568
2026-01-19 13:55:15.47	42.70	29.48	-42.2	-43.3	21.4	0.00e+00	0	41	0	501219328	56	6685
2026-01-19 13:55:16.48	42.89	29.63	-42.4	-43.6	21.2	0.00e+00	0	41	0	503316480	56	6858
2026-01-19 13:55:17.49	43.09	29.79	-42.6	-43.9	20.9	0.00e+00	62	41	0	504365056	56	7092
2026-01-19 13:55:18.50	43.28	29.95	-42.6	-43.8	20.9	0.00e+00	0	41	0	506462208	56	7072
2026-01-19 13:55:19.51	43.47	30.11	-42.8	-44.0	20.7	0.00e+00	92	41	0	508559360	58	6449
2026-01-19 13:55:20.52	43.67	30.27	-42.7	-43.9	20.8	0.00e+00	57	41	0	510656512	58	6379
2026-01-19 13:55:21.53	43.87	30.43	-42.7	-43.9	20.8	0.00e+00	90	41	0	512753664	58	6372
2026-01-19 13:55:22.54	44.07	30.59	-42.8	-44.1	20.6	0.00e+00	22	41	0	514850816	58	6483
2026-01-19 13:55:23.55	44.28	30.75	-42.8	-44.1	20.6	0.00e+00	60	41	0	515899392	58	6513
2026-01-19 13:55:24.56	44.48	30.91	-42.7	-43.9	20.8	0.00e+00	48	41	0	517996544	58	6377
2026-01-19 13:55:25.57	44.69	31.07	-42.7	-43.9	20.8	0.00e+00	24	41	0	520093696	58	6387
2026-01-19 13:55:26.58	44.90	31.23	-42.5	-43.7	21.0	0.00e+00	92	41	0	522190848	58	6239
2026-01-19 13:55:27.59	45.11	31.39	-42.5	-43.7	21.1	0.00e+00	25	41	0	524288000	58	6210
2026-01-19 13:55:28.60	45.33	31.56	-42.4	-43.6	21.2	0.00e+00	91	41	0	525336576	58	6172
2026-01-19 13:55:29.61	45.54	31.72	-42.2	-43.3	21.4	0.00e+00	8	41	0	527433728	58	5953
2026-01-19 13:55:30.62	45.76	31.88	-42.0	-43.1	21.6	0.00e+00	25	41	0	529530880	58	5812
2026-01-19 13:55:31.63	45.98	32.05	-41.7	-42.8	21.8	0.00e+00	6	41	0	531628032	56	6301
2026-01-19 13:55:32.64	46.20	32.21	-41.7	-42.8	22.0	0.00e+00	0	41	0	533725184	56	6250
2026-01-19 13:55:33.65	46.43	32.38	-41.7	-42.8	22.0	0.00e+00	90	41	0	534773760	56	6259
2026-01-19 13:55:34.66	46.65	32.54	-41.6	-42.7	22.0	0.00e+00	6	41	0	536870912	56	6224
2026-01-19 13:55:35.67	46.88	32.71	-41.7	-42.8	21.9	0.00e+00	92	41	0	538968064	56	6271
2026-01-19 13:55:36.68	47.11	32.88	-41.7	-42.8	21.8	0.00e+00	6	41	0	541065216	56	6300
2026-01-19 13:55:37.69	47.35	33.04	-41.8	-42.9	21.8	0.00e+00	58	41	0	543162368	56	6335
2026-01-19 13:55:38.70	47.58	33.21	-41.6	-42.7	21.9	0.00e+00	0	41	0	544210944	56	6205
2026-01-19 13:55:39.70	47.82	33.38	-41.5	-42.5	22.2	0.00e+00	0	41	0	546308096	56	6081
2026-01-19 13:55:40.72	48.06	33.55	-41.4	-42.4	22.3	0.00e+00	0	41	0	548405248	56	6023
2026-01-19 13:55:41.72	48.30	33.71	-41.3	-42.4	22.3	0.00e+00	58	41	0	550502400	56	5976
2026-01-19 13:55:42.73	48.55	33.88	-41.3	-42.3	22.2	0.00e+00	91	41	0	552599552	56	5960
2026-01-19 13:55:43.74	48.80	34.05	-41.4	-42.4	22.4	0.00e+00	63	41	0	553648128	56	6016
2026-01-19 13:55:44.75	49.05	34.22	-41.4	-42.4	22.2	0.00e+00	92	41	0	555745280	56	6004
2026-01-19 13:55:45.76	49.30	34.39	-41.5	-42.6	22.0	0.00e+00	19	41	0	557842432	56	6111
2026-01-19 13:55:46.77	49.56	34.56	-41.5	-42.5	22.1	0.00e+00	62	41	0	559939584	56	6102
2026-01-19 13:55:47.78	49.82	34.73	-41.5	-42.5	22.3	0.00e+00	0	41	0	562036736	56	6100
2026-01-19 13:55:48.79	50.08	34.90	-41.1	-42.1	22.5	0.00e+00	18	41	0	563085312	56	5822
2026-01-19 13:55:49.80	50.34	35.07	-41.2	-42.2	22.5	0.00e+00	92	41	0	565182464	56	5860
2026-01-19 13:55:50.81	50.61	35.25	-41.1	-42.1	22.5	0.00e+00	0	41	0	567279616	56	5764
2026-01-19 13:55:51.82	50.88	35.42	-40.9	-41.9	22.7	0.00e+00	90	41	0	569376768	56	5674
2026-01-19 13:55:52.83	51.15	35.59	-40.8	-41.8	22.8	0.00e+00	18	41	0	571473920	56	5614
2026-01-19 13:55:53.84	51.43	35.76	-40.9	-41.9	22.7	0.00e+00	0	41	0	572522496	56	5655
2026-01-19 13:55:54.85	51.71	35.93	-40.9	-41.9	22.7	0.00e+00	2	41	0	574619648	56	5685
2026-01-19 13:55:55.86	51.99	36.11	-41.0	-42.0	22.7	0.00e+00	0	41	0	576716800	56	5698
2026-01-19 13:55:56.87	52.27	36.28	-40.8	-41.8	22.8	0.00e+00	74	41	0	578813952	56	5608
2026-01-19 13:55:57.88	52.56	36.45	-40.8	-41.8	22.8	0.00e+00	64	41	0	580911104	56	5577
2026-01-19 13:55:58.89	52.85	36.62	-40.6	-41.6	23.0	0.00e+00	91	41	0	583008256	54	6105
2026-01-19 13:55:59.90	53.14	36.80	-40.5	-41.5	23.1	0.00e+00	63	41	0	584056832	54	6057
2026-01-19 13:56:00.91	53.44	36.97	-40.7	-41.7	22.9	0.00e+00	49	41	0	586153984	54	6184
2026-01-19 13:56:01.92	53.74	37.14	-40.3	-41.2	23.3	0.00e+00	63	41	0	588251136	54	5862
2026-01-19 13:56:02.93	54.04	37.32	-40.0	-40.9	23.5	0.00e+00	0	41	0	590348288	54	5695
2026-01-19 13:56:03.94	54.34	37.49	-40.0	-40.9	23.6	0.00e+00	0	41	0	592445440	54	5682
2026-01-19 13:56:04.94	54.65	37.66	-39.9	-40.8	23.7	0.00e+00	63	41	0	593494016	52	6251
2026-01-19 13:56:05.96	54.97	37.84	-39.8	-40.7	23.8	0.00e+00	92	41	0	595591168	52	6229
2026-01-19 13:56:06.97	55.28	38.01	-40.1	-41.0	23.5	0.00e+00	23	41	0	597688320	52	6450
2026-01-19 13:56:07.97	55.60	38.18	-40.5	-41.4	23.1	0.00e+00	92	41	0	599785472	52	6743
2026-01-19 13:56:08.98	55.92	38.36	-40.8	-41.8	22.7	0.00e+00	0	41	0	601882624	52	7039
2026-01-19 13:56:09.99	56.24	38.53	-40.9	-42.0	22.6	0.00e+00	0	41	0	602931200	54	6400
2026-01-19 13:56:11.00	56.57	38.70	-41.1	-42.1	22.5	0.00e+00	0	41	0	605028352	54	6495
2026-01-19 13:56:12.01	56.90	38.87	-40.8	-41.8	22.8	0.00e+00	24	41	0	607125504	54	6291
2026-01-19 13:56:13.02	57.24	39.05	-40.7	-41.7	22.8	0.00e+00	92	41	0	609222656	54	6177
2026-01-19 13:56:14.03	57.58	39.22	-40.4	-41.3	23.2	0.00e+00	0	41	0	611319808	54	5950
2026-01-19 13:56:15.04	57.92	39.39	-40.3	-41.3	23.2	0.00e+00	90	41	0	612368384	54	5916
2026-01-19 13:56:16.05	58.27	39.56	-40.4	-41.3	23.2	0.00e+00	0	41	0	614465536	54	5950
2026-01-19 13:56:17.06	58.62	39.73	-40.4	-41.3	23.3	0.00e+00	2	41	0	616562688	54	5926
2026-01-19 13:56:18.07	58.97	39.91	-40.6	-41.5	23.0	0.00e+00	2	41	0	618659840	54	6077
2026-01-19 13:56:19.08	59.33	40.08	-41.0	-42.0	22.6	0.00e+00	0	41	0	620756992	54	6420
2026-01-19 13:56:20.09	59.69	40.25	-41.3	-42.4	22.3	0.00e+00	92	41	0	621805568	54	6695
2026-01-19 13:56:21.10	60.06	40.42	-41.7	-42.8	21.8	0.00e+00	0	41	0	623902720	54	7010
2026-01-19 13:56:22.11	60.43	40.59	-41.7	-42.7	22.0	0.00e+00	92	41	0	625999872	56	6226
2026-01-19 13:56:23.12	60.80	40.76	-41.5	-42.5	22.3	0.00e+00	65	41	0	628097024	56	6095
2026-01-19 13:56:24.13	61.18	40.92	-41.3	-42.3	22.4	0.00e+00	66	41	0	630194176	56	5950
2026-01-19 13:56:25.14	61.56	41.09	-41.1	-42.2	22.6	0.00e+00	18	41	0	631242752	56	5834
2026-01-19 13:56:26.15	61.94	41.26	-41.3	-42.3	22.4	0.00e+00	0	41	0	633339904	56	5924
2026-01-19 13:56:27.16	62.33	41.43	-41.3	-42.4	21.8	0.00e+00	0	41	0	635437056	56	5985
2026-01-19 13:56:28.17	62.72	41.59	-41.0	-42.0	22.6	0.00e+00	65	41	0	637534208	56	5727
2026-01-19 13:56:29.18	63.12	41.76	-41.1	-42.1	22.6	0.00e+00	92	41	0	639631360	56	5817
2026-01-19 13:56:30.19	63.52	41.92	-41.1	-42.1	22.6	0.00e+00	16	41	0	640679936	56	5793
2026-01-19 13:56:31.20	63.92	42.09	-41.2	-42.2	22.6	0.00e+00	90	41	0	642777088	56	5845
2026-01-19 13:56:32.21	64.33	42.25	-41.0	-42.0	22.7	0.00e+00	17	41	0	644874240	56	5755
2026-01-19 13:56:33.22	64.74	42.41	-40.8	-41.7	22.8	0.00e+00	0	41	0	646971392	56	5566
2026-01-19 13:56:34.23	65.16	42.57	-41.0	-42.0	22.7	0.00e+00	0	41	0	649068544	56	5709
2026-01-19 13:56:35.23	65.57	42.73	-41.1	-42.1	22.4	0.00e+00	0	41	0	651165696	56	5807
2026-01-19 13:56:36.24	66.00	42.89	-41.4	-42.5	22.3	0.00e+00	90	41	0	652214272	56	6055
2026-01-19 13:56:37.25	66.43	43.05	-41.8	-42.9	21.8	0.00e+00	0	41	0	654311424	56	6356
2026-01-19 13:56:38.26	66.86	43.20	-42.0	-43.1	21.8	0.00e+00	91	41	0	656408576	56	6483
2026-01-19 13:56:39.27	67.30	43.36	-41.9	-43.0	21.8	0.00e+00	0	41	0	658505728	56	6452
2026-01-19 13:56:40.28	67.74	43.51	-41.8	-42.9	22.0	0.00e+00	0	41	0	660602880	56	6351
2026-01-19 13:56:41.29	68.19	43.67	-41.5	-42.5	22.1	0.00e+00	56	41	0	661651456	56	6078
2026-01-19 13:56:42.30	68.64	43.82	-41.3	-42.4	22.3	0.00e+00	0	41	0	663748608	56	5973
2026-01-19 13:56:43.31	69.09	43.97	-41.8	-42.9	21.8	0.00e+00	58	41	0	665845760	56	6336
2026-01-19 13:56:44.32	69.55	44.12	-42.4	-43.5	21.2	0.00e+00	0	41	0	667942912	56	6839
2026-01-19 13:56:45.33	70.01	44.27	-42.7	-44.0	20.8	0.00e+00	92	41	0	668991488	58	6421
2026-01-19 13:56:46.34	70.48	44.41	-42.6	-43.9	21.0	0.00e+00	57	41	0	671088640	58	6335
2026-01-19 13:56:47.35	70.95	44.56	-42.2	-43.3	21.4	0.00e+00	58	41	0	673185792	58	5954
2026-01-19 13:56:48.36	71.43	44.70	-41.6	-42.7	22.0	0.00e+00	64	41	0	675282944	56	6189
2026-01-19 13:56:49.37	71.91	44.84	-41.3	-42.3	22.4	0.00e+00	16	41	0	677380096	56	5951
2026-01-19 13:56:50.37	72.39	44.98	-41.1	-42.1	21.8	0.00e+00	2	41	0	679477248	56	5811
2026-01-19 13:56:51.38	72.87	45.12	-41.1	-42.2	22.6	0.00e+00	6	41	0	680525824	56	5829
2026-01-19 13:56:52.39	73.37	45.25	-41.6	-42.6	22.1	0.00e+00	92	41	0	682622976	56	6148
2026-01-19 13:56:53.40	73.86	45.39	-42.2	-43.4	21.4	0.00e+00	5	41	0	684720128	56	6711
2026-01-19 13:56:54.41	74.36	45.52	-42.6	-43.8	21.0	0.00e+00	92	41	0	686817280	56	7053
2026-01-19 13:56:55.42	74.87	45.65	-42.6	-43.8	21.0	0.00e+00	18	41	0	688914432	56	7060
2026-01-19 13:56:56.43	75.38	45.78	-42.4	-43.6	21.2	0.00e+00	0	41	0	689963008	56	6859
2026-01-19 13:56:57.44	75.89	45.91	-42.1	-43.2	21.5	0.00e+00	5	41	0	692060160	56	6605
2026-01-19 13:56:58.45	76.41	46.03	-42.1	-43.3	21.6	0.00e+00	0	41	0	694157312	56	6626
2026-01-19 13:56:59.46	76.93	46.15	-42.2	-43.4	21.4	0.00e+00	92	41	0	696254464	56	6697
2026-01-19 13:57:00.47	77.45	46.27	-42.4	-43.6	21.2	0.00e+00	0	41	0	698351616	56	6861
2026-01-19 13:57:01.48	77.98	46.39	-42.8	-44.1	20.8	0.00e+00	90	41	0	699400192	56	7280
2026-01-19 13:57:02.49	78.52	46.51	-42.8	-44.1	20.6	0.00e+00	64	41	0	701497344	58	6471
2026-01-19 13:57:03.49	79.05	46.62	-42.7	-43.9	20.9	0.00e+00	63	41	0	703594496	58	6366
2026-01-19 13:57:04.50	79.59	46.73	-42.8	-44.1	20.7	0.00e+00	0	41	0	705691648	58	6514
2026-01-19 13:57:05.51	80.13	46.84	-42.9	-44.2	20.7	0.00e+00	5	41	0	707788800	58	6545
2026-01-19 13:57:06.53	80.69	46.95	-43.0	-44.4	20.4	0.00e+00	5	41	0	708837376	58	6696
2026-01-19 13:57:07.53	81.23	47.05	-42.7	-44.0	20.9	0.00e+00	28	41	0	710934528	58	6435
2026-01-19 13:57:08.54	81.79	47.15	-42.4	-43.7	21.2	0.00e+00	90	41	0	713031680	58	6176
2026-01-19 13:57:09.55	82.35	47.25	-42.1	-43.2	21.5	0.00e+00	26	41	0	715128832	58	5872
2026-01-19 13:57:10.56	82.91	47.34	-42.2	-43.4	21.3	0.00e+00	90	41	0	717225984	58	5969
2026-01-19 13:57:11.57	83.48	47.44	-41.9	-43.1	21.7	0.00e+00	27	41	0	718274560	58	5766
2026-01-19 13:57:12.58	84.05	47.52	-41.8	-43.0	21.8	0.00e+00	26	41	0	720371712	58	5728
2026-01-19 13:57:13.59	84.62	47.61	-42.2	-43.4	21.4	0.00e+00	0	41	0	722468864	58	5997
2026-01-19 13:57:14.60	85.19	47.70	-42.8	-44.1	20.7	0.00e+00	7	41	0	724566016	58	6497
2026-01-19 13:57:15.61	85.77	47.78	-42.9	-44.2	20.7	0.00e+00	92	41	0	726663168	58	6561
2026-01-19 13:57:16.62	86.35	47.86	-42.7	-43.9	20.8	0.00e+00	7	41	0	727711744	58	6390
2026-01-19 13:57:17.63	86.94	47.93	-42.2	-43.4	21.5	0.00e+00	92	41	0	729808896	58	5980
2026-01-19 13:57:18.64	87.53	48.00	-41.9	-43.0	21.8	0.00e+00	0	41	0	731906048	58	5732
2026-01-19 13:57:19.65	88.12	48.07	-41.9	-43.0	21.7	0.00e+00	0	41	0	734003200	58	5736
2026-01-19 13:57:20.66	88.71	48.14	-42.1	-43.2	21.6	0.00e+00	5	41	0	736100352	58	5867
2026-01-19 13:57:21.67	89.30	48.20	-42.4	-43.7	21.3	0.00e+00	0	41	0	737148928	58	6174
2026-01-19 13:57:22.68	89.90	48.26	-42.5	-43.8	21.0	0.00e+00	92	41	0	739246080	58	6246
2026-01-19 13:57:23.69	90.50	48.32	-42.1	-43.2	21.5	0.00e+00	65	41	0	741343232	58	5886
2026-01-19 13:57:24.70	91.10	48.37	-42.1	-43.2	21.6	0.00e+00	90	41	0	743440384	58	5877
2026-01-19 13:57:25.71	91.71	48.42	-42.3	-43.5	21.2	0.00e+00	65	41	0	745537536	58	6075
2026-01-19 13:57:26.72	92.31	48.47	-42.5	-43.7	21.0	0.00e+00	54	41	0	747634688	58	6217
2026-01-19 13:57:27.73	92.92	48.51	-42.0	-43.1	21.6	0.00e+00	65	41	0	748683264	58	5784
2026-01-19 13:57:28.74	93.53	48.55	-41.6	-42.7	22.0	0.00e+00	63	41	0	750780416	58	5543
2026-01-19 13:57:29.75	94.14	48.59	-41.6	-42.7	22.1	0.00e+00	90	41	0	752877568	56	6183
2026-01-19 13:57:30.76	94.75	48.62	-41.6	-42.7	22.1	0.00e+00	64	41	0	754974720	56	6179
2026-01-19 13:57:31.77	95.36	48.65	-41.8	-42.9	21.8	0.00e+00	92	41	0	757071872	56	6335
2026-01-19 13:57:32.77	95.97	48.67	-42.0	-43.1	21.7	0.00e+00	63	41	0	758120448	56	6507
2026-01-19 13:57:33.78	96.59	48.70	-42.1	-43.2	21.5	0.00e+00	28	41	0	760217600	56	6599
2026-01-19 13:57:34.79	97.20	48.72	-41.4	-42.5	22.3	0.00e+00	18	41	0	762314752	56	6047
2026-01-19 13:57:35.80	97.82	48.73	-41.3	-42.3	22.4	0.00e+00	24	41	0	764411904	56	5937
2026-01-19 13:57:36.81	98.44	48.74	-41.3	-42.4	22.3	0.00e+00	30	41	0	766509056	56	5992
2026-01-19 13:57:37.82	99.05	48.75	-41.4	-42.5	22.4	0.00e+00	2	41	0	767557632	56	6059
2026-01-19 13:57:38.83	99.67	48.76	-41.1	-42.1	22.3	0.00e+00	92	41	0	769654784	56	5828
2026-01-19 13:57:39.84	100.29	48.76	-41.3	-42.3	22.4	0.00e+00	2	41	0	771751936	56	5951
2026-01-19 13:57:40.85	100.91	48.76	-41.6	-42.6	22.0	0.00e+00	91	41	0	773849088	56	6168
2026-01-19 13:57:41.86	101.53	48.75	-41.6	-42.7	21.6	0.00e+00	0	41	0	775946240	56	6197
2026-01-19 13:57:42.87	102.14	48.74	-41.9	-43.0	21.7	0.00e+00	2	41	0	776994816	56	6457
2026-01-19 13:57:43.88	102.76	48.73	-42.5	-43.6	21.0	0.00e+00	0	41	0	779091968	56	6925
2026-01-19 13:57:44.89	103.38	48.71	-42.2	-43.4	21.4	0.00e+00	0	41	0	781189120	56	6715
2026-01-19 13:57:45.90	104.00	48.70	-41.7	-42.8	21.9	0.00e+00	91	41	0	783286272	56	6267
2026-01-19 13:57:46.91	104.61	48.67	-41.7	-42.8	21.8	0.00e+00	0	41	0	785383424	56	6263
2026-01-19 13:57:47.92	105.22	48.65	-41.6	-42.7	22.0	0.00e+00	92	41	0	786432000	56	6200
2026-01-19 13:57:48.93	105.84	48.62	-42.1	-43.3	21.4	0.00e+00	64	41	0	788529152	56	6620
2026-01-19 13:57:49.94	106.45	48.58	-41.9	-43.0	21.8	0.00e+00	17	41	0	790626304	56	6399
2026-01-19 13:57:50.95	107.06	48.55	-41.6	-42.7	22.0	0.00e+00	17	41	0	792723456	56	6187
2026-01-19 13:57:51.96	107.67	48.51	-41.7	-42.8	21.9	0.00e+00	17	41	0	794820608	56	6292
2026-01-19 13:57:52.97	108.28	48.46	-41.9	-43.0	21.7	0.00e+00	0	41	0	795869184	56	6411
2026-01-19 13:57:53.98	108.88	48.42	-42.2	-43.4	21.2	0.00e+00	19	41	0	797966336	56	6742
2026-01-19 13:57:54.99	109.49	48.37	-42.6	-43.9	20.9	0.00e+00	90	41	0	800063488	56	7098
2026-01-19 13:57:56.00	110.09	48.31	-42.8	-44.2	20.7	0.00e+00	2	41	0	802160640	56	7354
2026-01-19 13:57:57.01	110.69	48.26	-42.2	-43.4	21.3	0.00e+00	90	41	0	804257792	58	6026
2026-01-19 13:57:58.02	111.29	48.20	-42.0	-43.2	21.6	0.00e+00	18	41	0	805306368	58	5838
2026-01-19 13:57:59.03	111.88	48.13	-42.3	-43.5	21.3	0.00e+00	23	41	0	807403520	58	6056
2026-01-19 13:58:00.03	112.47	48.07	-43.0	-44.3	20.5	0.00e+00	0	41	0	809500672	58	6616
2026-01-19 13:58:01.04	113.06	48.00	-43.3	-44.7	20.1	0.00e+00	2	41	0	811597824	58	6980
2026-01-19 13:58:02.05	113.65	47.93	-43.1	-44.4	20.3	0.00e+00	92	41	0	813694976	58	6737
2026-01-19 13:58:03.06	114.23	47.85	-43.3	-44.7	20.1	0.00e+00	0	41	0	815792128	58	6984
2026-01-19 13:58:04.07	114.82	47.77	-43.6	-45.1	19.7	0.00e+00	90	41	0	816840704	58	7283
2026-01-19 13:58:05.08	115.39	47.69	-44.7	-46.5	18.5	0.00e+00	0	41	0	818937856	60	7637
2026-01-19 13:58:06.09	115.97	47.61	-44.7	-46.4	18.5	0.00e+00	0	41	0	821035008	60	7580
2026-01-19 13:58:07.10	116.54	47.52	-44.4	-46.0	19.0	0.00e+00	0	41	0	823132160	60	7211
2026-01-19 13:58:08.11	117.11	47.43	-44.1	-45.7	19.3	0.00e+00	0	41	0	825229312	60	6937
2026-01-19 13:58:09.12	117.68	47.34	-44.9	-46.7	18.2	0.00e+00	92	41	0	826277888	60	7826
2026-01-19 13:58:10.13	118.24	47.24	-45.7	-47.8	17.3	0.00e+00	0	41	0	828375040	60	8878
2026-01-19 13:58:11.14	118.80	47.14	-45.4	-47.3	17.8	0.00e+00	59	41	0	830472192	60	8383
2026-01-19 13:58:12.15	119.36	47.04	-44.1	-45.6	19.2	0.00e+00	54	41	0	832569344	60	6900
2026-01-19 13:58:13.16	119.91	46.94	-43.5	-44.8	19.9	0.00e+00	23	41	0	834666496	60	6311
2026-01-19 13:58:14.17	120.46	46.83	-43.2	-44.5	20.4	0.00e+00	64	41	0	835715072	60	6094
2026-01-19 13:58:15.17	121.00	46.72	-43.6	-45.0	19.7	0.00e+00	17	41	0	837812224	60	6429
2026-01-19 13:58:16.18	121.54	46.61	-44.1	-45.7	19.2	0.00e+00	32	41	0	839909376	60	6985
2026-01-19 13:58:17.19	122.08	46.50	-42.9	-44.2	20.7	0.00e+00	17	41	0	842006528	60	5885
2026-01-19 13:58:18.20	122.61	46.38	-42.1	-43.3	21.4	0.00e+00	92	41	0	844103680	58	5942
2026-01-19 13:58:19.21	123.14	46.27	-42.1	-43.2	21.5	0.00e+00	0	41	0	845152256	58	5885
2026-01-19 13:58:20.22	123.67	46.14	-42.7	-43.9	20.8	0.00e+00	92	41	0	847249408	58	6372
2026-01-19 13:58:21.23	124.19	46.02	-42.8	-44.1	20.7	0.00e+00	0	41	0	849346560	58	6508
2026-01-19 13:58:22.24	124.71	45.90	-41.8	-42.9	21.8	0.00e+00	0	41	0	851443712	58	5647
2026-01-19 13:58:23.25	125.22	45.77	-41.4	-42.5	22.2	0.00e+00	2	41	0	853540864	56	6068
2026-01-19 13:58:24.26	125.73	45.64	-41.2	-42.2	22.4	0.00e+00	0	41	0	854589440	56	5885
2026-01-19 13:58:25.27	126.24	45.51	-41.5	-42.6	22.2	0.00e+00	92	41	0	856686592	56	6129
2026-01-19 13:58:26.28	126.74	45.38	-41.7	-42.8	21.8	0.00e+00	0	41	0	858783744	56	6296
2026-01-19 13:58:27.29	127.24	45.24	-41.8	-42.9	21.8	0.00e+00	0	41	0	860880896	56	6318
2026-01-19 13:58:28.30	127.73	45.11	-41.6	-42.7	21.9	0.00e+00	63	41	0	862978048	56	6232
2026-01-19 13:58:29.31	128.22	44.97	-41.6	-42.6	22.0	0.00e+00	0	41	0	864026624	56	6172
2026-01-19 13:58:30.32	128.70	44.83	-41.6	-42.7	22.0	0.00e+00	52	41	0	866123776	56	6200
2026-01-19 13:58:31.33	129.18	44.68	-41.1	-42.1	22.6	0.00e+00	63	41	0	868220928	56	5821
2026-01-19 13:58:32.34	129.66	44.54	-40.3	-41.3	23.2	0.00e+00	90	41	0	870318080	54	5930
2026-01-19 13:58:33.35	130.13	44.40	-40.1	-41.0	23.2	0.00e+00	19	41	0	872415232	54	5741
2026-01-19 13:58:34.36	130.60	44.25	-40.3	-41.3	23.2	0.00e+00	92	41	0	873463808	54	5911
2026-01-19 13:58:35.37	131.06	44.10	-40.8	-41.8	22.6	0.00e+00	2	41	0	875560960	54	6248
2026-01-19 13:58:36.38	131.52	43.95	-40.8	-41.8	22.7	0.00e+00	58	41	0	877658112	54	6297
2026-01-19 13:58:37.39	131.98	43.80	-40.7	-41.7	22.9	0.00e+00	23	41	0	879755264	54	6180
2026-01-19 13:58:38.40	132.43	43.65	-40.7	-41.7	22.6	0.00e+00	25	41	0	881852416	54	6216
2026-01-19 13:58:39.41	132.88	43.49	-41.0	-42.1	22.3	0.00e+00	51	41	0	883949568	54	6482
2026-01-19 13:58:40.42	133.32	43.34	-41.0	-42.0	22.5	0.00e+00	23	41	0	884998144	54	6436
2026-01-19 13:58:41.43	133.76	43.18	-40.8	-41.8	22.7	0.00e+00	92	41	0	887095296	54	6297
2026-01-19 13:58:42.44	134.19	43.02	-40.3	-41.3	23.2	0.00e+00	0	41	0	889192448	54	5930
2026-01-19 13:58:43.45	134.62	42.87	-40.2	-41.1	23.4	0.00e+00	0	41	0	891289600	54	5793
2026-01-19 13:58:44.46	135.04	42.71	-40.1	-41.0	23.5	0.00e+00	6	41	0	893386752	54	5715
2026-01-19 13:58:45.47	135.47	42.54	-40.5	-41.5	22.9	0.00e+00	5	41	0	894435328	54	6046
2026-01-19 13:58:46.48	135.88	42.38	-41.0	-42.0	22.5	0.00e+00	0	41	0	896532480	54	6455
2026-01-19 13:58:47.49	136.30	42.22	-41.0	-42.0	22.6	0.00e+00	62	41	0	898629632	54	6414
2026-01-19 13:58:48.50	136.70	42.06	-40.4	-41.3	23.1	0.00e+00	92	41	0	900726784	54	5964
2026-01-19 13:58:49.51	137.11	41.89	-40.1	-41.0	23.5	0.00e+00	0	41	0	902823936	54	5757
2026-01-19 13:58:50.52	137.51	41.73	-40.5	-41.5	23.0	0.00e+00	79	41	0	903872512	54	6080
2026-01-19 13:58:51.53	137.91	41.56	-41.3	-42.4	22.1	0.00e+00	61	41	0	905969664	54	6708
2026-01-19 13:58:52.54	138.30	41.39	-41.3	-42.4	22.2	0.00e+00	23	41	0	908066816	54	6752
2026-01-19 13:58:53.55	138.69	41.23	-40.7	-41.7	22.8	0.00e+00	25	41	0	910163968	54	6237
2026-01-19 13:58:54.55	139.07	41.06	-40.3	-41.3	23.2	0.00e+00	62	41	0	912261120	54	5912
2026-01-19 13:58:55.56	139.45	40.89	-40.6	-41.5	22.9	0.00e+00	76	41	0	913309696	54	6084
2026-01-19 13:58:56.57	139.83	40.72	-41.5	-42.6	21.9	0.00e+00	63	41	0	915406848	54	6853
2026-01-19 13:58:57.58	140.20	40.55	-42.5	-43.7	21.1	0.00e+00	90	41	0	917504000	56	6972
2026-01-19 13:58:58.60	140.57	40.38	-42.1	-43.3	21.4	0.00e+00	6	41	0	919601152	56	6638
2026-01-19 13:58:59.61	140.94	40.21	-41.3	-42.3	22.3	0.00e+00	24	41	0	921698304	56	5950
2026-01-19 13:59:00.62	141.30	40.04	-39.9	-40.8	23.7	0.00e+00	23	41	0	922746880	54	5571
2026-01-19 13:59:01.63	141.66	39.87	-40.0	-40.9	23.5	0.00e+00	23	41	0	924844032	52	6330
2026-01-19 13:59:02.64	142.01	39.70	-40.9	-41.9	22.6	0.00e+00	92	41	0	926941184	54	6329
2026-01-19 13:59:03.65	142.36	39.52	-42.7	-44.0	20.7	0.00e+00	0	41	0	929038336	56	7230
2026-01-19 13:59:04.66	142.71	39.35	-43.7	-45.2	19.6	0.00e+00	91	41	0	931135488	58	7355
2026-01-19 13:59:05.67	143.05	39.18	-43.1	-44.5	20.3	0.00e+00	8	41	0	932184064	58	6784
2026-01-19 13:59:06.68	143.39	39.01	-42.9	-44.2	20.6	0.00e+00	0	41	0	934281216	58	6545
2026-01-19 13:59:07.69	143.73	38.83	-42.3	-43.5	21.1	0.00e+00	0	41	0	936378368	58	6083
2026-01-19 13:59:08.69	144.06	38.66	-42.7	-43.9	20.7	0.00e+00	57	41	0	938475520	58	6380
2026-01-19 13:59:09.70	144.39	38.49	-43.8	-45.3	19.4	0.00e+00	0	41	0	940572672	60	6643
2026-01-19 13:59:10.71	144.71	38.31	-44.3	-45.9	18.9	0.00e+00	57	41	0	941621248	60	7150
2026-01-19 13:59:11.72	145.04	38.14	-44.1	-45.7	19.2	0.00e+00	92	41	0	943718400	60	6971
2026-01-19 13:59:12.73	145.36	37.96	-42.8	-44.1	20.8	0.00e+00	58	41	0	945815552	60	5791
2026-01-19 13:59:13.74	145.67	37.79	-41.8	-42.9	21.8	0.00e+00	90	41	0	947912704	58	5653
2026-01-19 13:59:14.75	145.98	37.62	-41.7	-42.8	21.8	0.00e+00	19	41	0	950009856	56	6258
2026-01-19 13:59:15.76	146.29	37.44	-41.6	-42.7	21.8	0.00e+00	19	41	0	952107008	56	6209
2026-01-19 13:59:16.77	146.60	37.27	-41.9	-43.0	21.6	0.00e+00	20	41	0	953155584	56	6435
2026-01-19 13:59:17.78	146.90	37.09	-42.9	-44.2	20.4	0.00e+00	19	41	0	955252736	58	6587
2026-01-19 13:59:18.79	147.20	36.92	-43.5	-45.0	19.8	0.00e+00	92	41	0	957349888	58	7180
2026-01-19 13:59:19.80	147.50	36.75	-43.1	-44.4	20.3	0.00e+00	19	41	0	959447040	58	6756
2026-01-19 13:59:20.81	147.79	36.57	-42.6	-43.9	20.8	0.00e+00	92	41	0	961544192	58	6339
2026-01-19 13:59:21.82	148.08	36.40	-42.0	-43.1	21.5	0.00e+00	18	41	0	962592768	58	5815
2026-01-19 13:59:22.83	148.37	36.22	-41.4	-42.4	22.3	0.00e+00	0	41	0	964689920	56	6027
2026-01-19 13:59:23.84	148.65	36.05	-41.9	-43.0	21.7	0.00e+00	0	41	0	966787072	56	6414
2026-01-19 13:59:24.85	148.93	35.88	-42.6	-43.9	20.7	0.00e+00	0	41	0	968884224	56	7098
2026-01-19 13:59:25.86	149.21	35.70	-43.7	-45.2	19.5	0.00e+00	0	41	0	970981376	58	7350
2026-01-19 13:59:26.87	149.49	35.53	-44.6	-46.4	18.5	0.00e+00	0	41	0	972029952	60	7517
2026-01-19 13:59:27.88	149.76	35.36	-44.5	-46.3	18.8	0.00e+00	92	41	0	974127104	60	7435
2026-01-19 13:59:28.89	150.03	35.19	-43.0	-44.4	20.4	0.00e+00	0	41	0	976224256	60	6004
2026-01-19 13:59:29.90	150.30	35.01	-41.6	-42.7	22.0	0.00e+00	0	41	0	978321408	56	6218
2026-01-19 13:59:30.91	150.56	34.84	-41.3	-42.3	22.2	0.00e+00	4	41	0	980418560	56	5918
2026-01-19 13:59:31.92	150.82	34.67	-41.2	-42.2	22.5	0.00e+00	61	41	0	981467136	56	5839
2026-01-19 13:59:32.93	151.08	34.50	-41.4	-42.5	22.0	0.00e+00	0	41	0	983564288	56	6068
2026-01-19 13:59:33.94	151.34	34.33	-42.6	-43.9	20.8	0.00e+00	18	41	0	985661440	56	7097
2026-01-19 13:59:34.95	151.59	34.16	-44.2	-45.9	18.9	0.00e+00	92	41	0	987758592	60	7110
2026-01-19 13:59:35.96	151.84	33.99	-44.8	-46.7	18.1	0.00e+00	58	41	0	989855744	60	7824
2026-01-19 13:59:36.97	152.09	33.82	-44.2	-45.9	19.0	0.00e+00	90	41	0	990904320	60	7103
2026-01-19 13:59:37.98	152.34	33.65	-43.2	-44.6	19.9	0.00e+00	31	41	0	993001472	60	6132
2026-01-19 13:59:38.99	152.58	33.48	-42.5	-43.7	20.8	0.00e+00	0	41	0	995098624	58	6196
2026-01-19 13:59:40.00	152.82	33.31	-42.1	-43.3	21.4	0.00e+00	26	41	0	997195776	58	5916
2026-01-19 13:59:41.01	153.06	33.14	-41.9	-43.0	21.3	0.00e+00	0	41	0	999292928	58	5755
2026-01-19 13:59:42.02	153.30	32.97	-42.2	-43.3	21.2	0.00e+00	92	41	0	1000341504	56	6658
2026-01-19 13:59:43.03	153.53	32.80	-43.2	-44.6	20.0	0.00e+00	0	41	0	1002438656	58	6870
2026-01-19 13:59:44.04	153.76	32.64	-44.1	-45.7	19.1	0.00e+00	92	41	0	1004535808	60	6933
2026-01-19 13:59:45.05	153.99	32.47	-44.0	-45.5	19.3	0.00e+00	2	41	0	1006632960	60	6838
2026-01-19 13:59:46.06	154.22	32.30	-43.0	-44.3	20.4	0.00e+00	0	41	0	1008730112	60	5949
2026-01-19 13:59:47.07	154.44	32.14	-42.4	-43.6	21.0	0.00e+00	2	41	0	1009778688	58	6136
2026-01-19 13:59:48.08	154.67	31.97	-42.0	-43.1	21.4	0.00e+00	62	41	0	1011875840	58	5805
2026-01-19 13:59:49.09	154.89	31.81	-41.3	-42.4	22.2	0.00e+00	92	41	0	1013972992	56	5981
2026-01-19 13:59:50.10	155.11	31.64	-40.9	-41.9	22.6	0.00e+00	0	41	0	1016070144	56	5676
2026-01-19 13:59:51.11	155.32	31.48	-40.9	-41.9	22.6	0.00e+00	92	41	0	1018167296	56	5685
2026-01-19 13:59:52.12	155.53	31.31	-41.6	-42.7	21.7	0.00e+00	64	41	0	1020264448	56	6201
2026-01-19 13:59:53.13	155.75	31.15	-42.6	-43.9	20.6	0.00e+00	90	41	0	1021313024	56	7139
2026-01-19 13:59:54.14	155.96	30.99	-43.4	-44.9	19.7	0.00e+00	0	41	0	1023410176	58	7139
2026-01-19 13:59:55.15	156.16	30.83	-44.0	-45.6	19.2	0.00e+00	0	41	0	1025507328	60	6856
2026-01-19 13:59:56.16	156.37	30.66	-43.8	-45.3	19.4	0.00e+00	0	41	0	1027604480	60	6649
2026-01-19 13:59:57.17	156.57	30.50	-43.2	-44.7	20.1	0.00e+00	19	41	0	1029701632	60	6180
2026-01-19 13:59:58.18	156.77	30.34	-42.9	-44.2	20.5	0.00e+00	92	41	0	1030750208	60	5864
2026-01-19 13:59:59.19	156.97	30.18	-42.4	-43.6	21.0	0.00e+00	19	41	0	1032847360	58	6145
2026-01-19 14:00:00.20	157.17	30.02	-41.8	-42.9	21.6	0.00e+00	92	41	0	1034944512	58	5683
2026-01-19 14:00:01.21	157.37	29.86	-41.9	-43.0	21.6	0.00e+00	20	41	0	1037041664	56	6411
2026-01-19 14:00:02.22	157.56	29.70	-42.1	-43.3	21.3	0.00e+00	0	41	0	1039138816	56	6626
2026-01-19 14:00:03.23	157.75	29.55	-42.2	-43.3	21.3	0.00e+00	0	41	0	1040187392	56	6684
2026-01-19 14:00:04.23	157.94	29.39	-42.6	-43.8	20.8	0.00e+00	0	41	0	1042284544	56	7069
2026-01-19 14:00:05.24	158.13	29.23	-42.8	-44.1	20.5	0.00e+00	92	41	0	1044381696	58	6513
2026-01-19 14:00:06.25	158.32	29.08	-42.7	-44.1	20.5	0.00e+00	0	41	0	1046478848	58	6468
2026-01-19 14:00:07.26	158.50	28.92	-42.6	-43.9	20.7	0.00e+00	92	41	0	1048576000	58	6390
2026-01-19 14:00:08.27	158.69	28.77	-42.5	-43.7	20.8	0.00e+00	0	41	0	1049624576	58	6238
2026-01-19 14:00:09.28	158.87	28.61	-42.2	-43.4	21.2	0.00e+00	54	41	0	1051721728	58	5995
2026-01-19 14:00:10.30	159.05	28.46	-41.6	-42.7	21.9	0.00e+00	0	41	0	1053818880	56	6211
2026-01-19 14:00:11.30	159.22	28.30	-41.3	-42.3	22.2	0.00e+00	0	41	0	1055916032	56	5960
2026-01-19 14:00:12.31	159.40	28.15	-41.2	-42.2	22.3	0.00e+00	0	41	0	1058013184	56	5864
2026-01-19 14:00:13.32	159.58	28.00	-41.1	-42.1	22.4	0.00e+00	0	41	0	1059061760	56	5781
2026-01-19 14:00:14.33	159.75	27.85	-41.1	-42.1	22.3	0.00e+00	92	41	0	1061158912	56	5828
2026-01-19 14:00:15.34	159.92	27.69	-40.9	-41.9	22.5	0.00e+00	21	41	0	1063256064	56	5657
2026-01-19 14:00:16.35	160.09	27.54	-41.2	-42.2	22.3	0.00e+00	91	41	0	1065353216	56	5858
2026-01-19 14:00:17.36	160.26	27.39	-41.2	-42.2	22.2	0.00e+00	60	41	0	1067450368	56	5892
2026-01-19 14:00:18.37	160.43	27.24	-41.2	-42.3	22.2	0.00e+00	2	41	0	1068498944	56	5909
2026-01-19 14:00:19.38	160.59	27.10	-41.5	-42.6	21.9	0.00e+00	0	41	0	1070596096	56	6111
2026-01-19 14:00:20.39	160.76	26.95	-41.6	-42.6	21.9	0.00e+00	6	41	0	1072693248	56	6168
2026-01-19 14:00:21.40	160.92	26.80	-41.5	-42.6	21.8	0.00e+00	92	41	0	1074790400	56	6161
2026-01-19 14:00:22.41	161.08	26.65	-41.6	-42.7	21.8	0.00e+00	6	41	0	1076887552	56	6198
2026-01-19 14:00:23.42	161.24	26.50	-41.5	-42.6	21.8	0.00e+00	90	41	0	1077936128	56	6109
2026-01-19 14:00:24.43	161.40	26.36	-41.4	-42.4	22.0	0.00e+00	22	41	0	1080033280	56	6031
2026-01-19 14:00:25.44	161.55	26.21	-41.4	-42.4	22.1	0.00e+00	5	41	0	1082130432	56	6013
2026-01-19 14:00:26.45	161.71	26.07	-41.0	-42.1	22.4	0.00e+00	0	41	0	1084227584	56	5762
2026-01-19 14:00:27.46	161.86	25.92	-41.1	-42.1	22.3	0.00e+00	0	41	0	1086324736	56	5804
2026-01-19 14:00:28.47	162.02	25.78	-41.2	-42.2	22.2	0.00e+00	92	41	0	1088421888	56	5855
2026-01-19 14:00:29.48	162.17	25.64	-41.2	-42.3	22.0	0.00e+00	7	41	0	1089470464	56	5928
2026-01-19 14:00:30.49	162.32	25.49	-41.6	-42.7	21.8	0.00e+00	92	41	0	1091567616	56	6187
2026-01-19 14:00:31.50	162.47	25.35	-41.7	-42.8	21.6	0.00e+00	0	41	0	1093664768	56	6308
2026-01-19 14:00:32.51	162.61	25.21	-41.9	-43.1	21.4	0.00e+00	92	41	0	1095761920	56	6489
2026-01-19 14:00:33.52	162.76	25.07	-42.0	-43.2	21.2	0.00e+00	6	41	0	1097859072	56	6612
2026-01-19 14:00:34.53	162.90	24.93	-42.2	-43.4	21.1	0.00e+00	60	41	0	1098907648	56	6733
2026-01-19 14:00:35.54	163.05	24.79	-42.2	-43.4	21.2	0.00e+00	92	41	0	1101004800	56	6746
2026-01-19 14:00:36.55	163.19	24.65	-42.0	-43.2	21.3	0.00e+00	52	41	0	1103101952	56	6585
2026-01-19 14:00:37.56	163.33	24.51	-41.9	-43.1	21.5	0.00e+00	92	41	0	1105199104	56	6478
2026-01-19 14:00:38.57	163.47	24.37	-41.3	-42.4	22.1	0.00e+00	52	41	0	1107296256	56	5982
2026-01-19 14:00:39.58	163.61	24.23	-41.2	-42.3	22.2	0.00e+00	92	41	0	1108344832	56	5905
2026-01-19 14:00:40.59	163.75	24.09	-40.8	-41.8	22.6	0.00e+00	31	41	0	1110441984	56	5596
2026-01-19 14:00:41.59	163.88	23.96	-40.4	-41.3	22.9	0.00e+00	7	41	0	1112539136	54	5953
2026-01-19 14:00:42.60	164.02	23.82	-40.4	-41.4	22.9	0.00e+00	37	41	0	1114636288	54	5973
2026-01-19 14:00:43.61	164.15	23.69	-40.3	-41.3	22.9	0.00e+00	32	41	0	1116733440	54	5921
2026-01-19 14:00:44.62	164.29	23.55	-40.5	-41.4	22.8	0.00e+00	92	41	0	1117782016	54	6018
2026-01-19 14:00:45.63	164.42	23.42	-40.4	-41.4	22.9	0.00e+00	0	41	0	1119879168	54	5978
2026-01-19 14:00:46.64	164.55	23.28	-40.5	-41.5	22.8	0.00e+00	91	41	0	1121976320	54	6053
2026-01-19 14:00:47.65	164.68	23.15	-40.7	-41.7	22.4	0.00e+00	6	41	0	1124073472	54	6228
2026-01-19 14:00:48.66	164.81	23.02	-40.6	-41.6	22.5	0.00e+00	0	41	0	1126170624	54	6152
2026-01-19 14:00:49.67	164.94	22.89	-40.7	-41.7	22.5	0.00e+00	7	41	0	1127219200	54	6234
2026-01-19 14:00:50.68	165.06	22.75	-40.9	-41.9	22.4	0.00e+00	8	41	0	1129316352	54	6365
2026-01-19 14:00:51.69	165.19	22.62	-41.1	-42.2	22.1	0.00e+00	90	41	0	1131413504	54	6545
2026-01-19 14:00:52.70	165.31	22.49	-41.2	-42.3	21.9	0.00e+00	59	41	0	1133510656	54	6651
2026-01-19 14:00:53.70	165.44	22.36	-41.2	-42.2	22.0	0.00e+00	92	41	0	1135607808	54	6598
2026-01-19 14:00:54.71	165.56	22.23	-41.1	-42.2	22.1	0.00e+00	0	41	0	1136656384	54	6546
2026-01-19 14:00:55.72	165.68	22.10	-41.3	-42.3	21.9	0.00e+00	90	41	0	1138753536	54	6691
2026-01-19 14:00:56.74	165.80	21.97	-41.2	-42.3	22.0	0.00e+00	60	41	0	1140850688	54	6642
2026-01-19 14:00:57.74	165.92	21.85	-41.2	-42.3	22.0	0.00e+00	24	41	0	1142947840	54	6635
2026-01-19 14:00:58.76	166.04	21.72	-41.0	-42.1	22.1	0.00e+00	41	41	0	1145044992	54	6506
2026-01-19 14:00:59.77	166.16	21.59	-41.1	-42.2	22.0	0.00e+00	23	41	0	1146093568	54	6567
2026-01-19 14:01:00.77	166.27	21.47	-40.9	-41.9	22.3	0.00e+00	92	41	0	1148190720	54	6360
2026-01-19 14:01:01.78	166.39	21.34	-40.5	-41.5	22.7	0.00e+00	23	41	0	1150287872	54	6053
2026-01-19 14:01:02.79	166.50	21.21	-40.5	-41.5	22.7	0.00e+00	73	41	0	1152385024	54	6075
2026-01-19 14:01:03.80	166.62	21.09	-40.6	-41.6	22.6	0.00e+00	26	41	0	1154482176	54	6108
2026-01-19 14:01:04.81	166.73	20.96	-40.5	-41.5	22.7	0.00e+00	0	41	0	1156579328	54	6075
2026-01-19 14:01:05.82	166.85	20.84	-40.7	-41.7	22.6	0.00e+00	0	41	0	1157627904	54	6191
2026-01-19 14:01:06.83	166.96	20.72	-40.9	-42.0	22.3	0.00e+00	0	41	0	1159725056	54	6408
2026-01-19 14:01:07.84	167.07	20.59	-41.1	-42.1	22.1	0.00e+00	92	41	0	1161822208	54	6524
2026-01-19 14:01:08.85	167.18	20.47	-41.5	-42.6	21.8	0.00e+00	0	41	0	1163919360	54	6872
2026-01-19 14:01:09.86	167.29	20.35	-41.5	-42.7	21.6	0.00e+00	90	41	0	1166016512	54	6954
2026-01-19 14:01:10.87	167.39	20.23	-41.7	-42.9	21.4	0.00e+00	2	41	0	1167065088	54	7133
2026-01-19 14:01:11.88	167.50	20.11	-41.9	-43.1	21.3	0.00e+00	7	41	0	1169162240	56	6475
2026-01-19 14:01:12.89	167.61	19.99	-42.0	-43.3	21.0	0.00e+00	0	41	0	1171259392	56	6625
2026-01-19 14:01:13.89	167.71	19.87	-42.1	-43.3	21.0	0.00e+00	57	41	0	1173356544	56	6661
2026-01-19 14:01:14.90	167.82	19.75	-42.1	-43.3	21.1	0.00e+00	92	41	0	1175453696	56	6655
2026-01-19 14:01:15.91	167.92	19.63	-42.0	-43.2	21.1	0.00e+00	0	41	0	1176502272	56	6556
2026-01-19 14:01:16.92	168.03	19.51	-41.8	-43.0	21.4	0.00e+00	92	41	0	1178599424	56	6426
2026-01-19 14:01:17.93	168.13	19.39	-41.6	-42.8	21.6	0.00e+00	59	41	0	1180696576	56	6296
2026-01-19 14:01:18.94	168.23	19.28	-41.5	-42.6	21.7	0.00e+00	22	41	0	1182793728	56	6160
2026-01-19 14:01:19.95	168.33	19.16	-41.2	-42.3	22.0	0.00e+00	58	41	0	1184890880	56	5930
2026-01-19 14:01:20.96	168.43	19.04	-41.0	-42.0	22.3	0.00e+00	57	41	0	1185939456	56	5728
2026-01-19 14:01:21.97	168.53	18.93	-40.8	-41.8	22.4	0.00e+00	0	41	0	1188036608	56	5613
2026-01-19 14:01:22.98	168.63	18.81	-40.5	-41.5	22.6	0.00e+00	0	41	0	1190133760	54	6095
2026-01-19 14:01:23.99	168.73	18.69	-40.3	-41.3	22.8	0.00e+00	90	41	0	1192230912	54	5944
2026-01-19 14:01:25.00	168.83	18.58	-40.3	-41.3	22.8	0.00e+00	2	41	0	1194328064	54	5898
2026-01-19 14:01:26.01	168.92	18.46	-40.3	-41.2	22.9	0.00e+00	92	41	0	1195376640	54	5875
2026-01-19 14:01:27.02	169.02	18.35	-40.0	-41.0	23.1	0.00e+00	2	41	0	1197473792	54	5711
2026-01-19 14:01:28.03	169.12	18.24	-40.0	-40.9	23.2	0.00e+00	24	41	0	1199570944	54	5656
2026-01-19 14:01:29.04	169.21	18.12	-40.0	-40.9	23.2	0.00e+00	4	41	0	1201668096	54	5677
2026-01-19 14:01:30.05	169.31	18.01	-40.1	-41.0	23.0	0.00e+00	0	41	0	1203765248	54	5751
2026-01-19 14:01:31.06	169.40	17.90	-40.1	-41.1	22.9	0.00e+00	92	41	0	1204813824	54	5771
2026-01-19 14:01:32.07	169.49	17.79	-40.1	-41.1	23.0	0.00e+00	0	41	0	1206910976	54	5804
2026-01-19 14:01:33.08	169.58	17.68	-40.2	-41.2	22.9	0.00e+00	92	41	0	1209008128	54	5863
2026-01-19 14:01:34.09	169.68	17.57	-40.4	-41.4	22.6	0.00e+00	0	41	0	1211105280	54	6025
