passes_logs/2026/01/19/R4.6S_Anadyr/R4.6S_Anadyr__20260119_132917_SUOMI_NPP_rec.log

#Pass ID: 20260119_132917_SUOMI NPP
#Satellite: SUOMI NPP
#Configuration: NPP
#almurnet v.1.7.20251203
#Start time: 2026-01-19 13:29:20

#Version: 2.2.20231116
#Station: R4.6S_Anadyr
#Location: 177.4865 lon 64.73178 lat
#TLE: 1 37849U 11061A   26018.91022273  .00000066  00000+0  52264-4 0  9997
#TLE: 2 37849  98.7816 320.9252 0002364  56.8129 303.3273 14.19526186737260

#Time	Az	El	Level	Level2	SNR	BER	BlckErr	Temp	State	Recorded	gain1	gain2
2026-01-19 13:29:20.03	18.94	0.12	-50.6	-63.2	3.4	1.52e+00	0	38	0	0	60	50697
2026-01-19 13:29:21.04	18.98	0.17	-50.5	-65.7	3.6	1.51e+00	0	39	104	0	60	69730
2026-01-19 13:29:22.05	19.03	0.23	-50.5	-65.7	3.6	1.51e+00	0	39	104	0	60	69703
2026-01-19 13:29:23.05	19.07	0.29	-50.5	-65.8	3.6	1.51e+00	0	40	104	0	60	70324
2026-01-19 13:29:24.06	19.12	0.34	-50.6	-65.8	3.6	1.51e+00	0	39	104	0	60	70329
2026-01-19 13:29:25.07	19.16	0.40	-50.6	-65.8	3.6	1.51e+00	0	40	104	0	60	70264
2026-01-19 13:29:26.09	19.21	0.46	-50.6	-65.8	3.6	1.51e+00	0	40	104	0	60	70335
2026-01-19 13:29:27.10	19.25	0.52	-50.6	-65.8	3.6	1.51e+00	0	40	104	0	60	70503
2026-01-19 13:29:28.11	19.30	0.57	-50.5	-65.8	3.5	1.51e+00	0	40	104	0	60	70645
2026-01-19 13:29:29.12	19.34	0.63	-50.6	-65.9	3.6	1.51e+00	0	40	104	0	60	71053
2026-01-19 13:29:30.13	19.39	0.69	-50.6	-65.8	3.6	1.51e+00	0	40	104	0	60	70789
2026-01-19 13:29:31.14	19.43	0.75	-50.6	-65.8	3.6	1.51e+00	0	40	104	0	60	70601
2026-01-19 13:29:32.15	19.48	0.81	-50.6	-65.8	3.6	1.51e+00	0	40	104	0	60	70327
2026-01-19 13:29:33.16	19.53	0.86	-50.5	-65.7	3.6	1.51e+00	0	40	104	0	60	69970
2026-01-19 13:29:34.17	19.57	0.92	-50.5	-65.7	3.6	1.51e+00	0	40	104	0	60	69445
2026-01-19 13:29:35.17	19.62	0.98	-50.4	-65.7	3.6	1.51e+00	0	40	104	0	60	69496
2026-01-19 13:29:36.18	19.66	1.04	-50.3	-65.6	3.6	1.51e+00	0	40	104	0	60	68653
2026-01-19 13:29:37.20	19.71	1.10	-50.3	-65.4	3.6	1.51e+00	0	40	104	0	60	67690
2026-01-19 13:29:38.21	19.76	1.16	-50.2	-65.4	3.6	1.51e+00	0	40	104	0	60	66954
2026-01-19 13:29:39.22	19.80	1.21	-50.0	-65.3	3.6	1.51e+00	0	40	104	0	60	66156
2026-01-19 13:29:40.23	19.85	1.27	-49.8	-65.1	3.6	1.51e+00	0	40	104	0	60	65169
2026-01-19 13:29:41.24	19.90	1.33	-49.8	-65.0	3.6	1.51e+00	0	40	104	0	60	64399
2026-01-19 13:29:42.24	19.94	1.39	-49.7	-64.9	3.6	1.51e+00	0	40	104	0	60	63193
2026-01-19 13:29:43.25	19.99	1.45	-49.5	-64.7	3.6	1.51e+00	0	40	104	0	60	61794
2026-01-19 13:29:44.26	20.04	1.51	-49.2	-64.4	3.6	1.51e+00	0	40	104	0	60	60295
2026-01-19 13:29:45.27	20.09	1.57	-49.0	-64.2	3.6	1.51e+00	0	40	104	0	60	58449
2026-01-19 13:29:46.28	20.14	1.63	-49.0	-64.1	3.6	1.51e+00	0	40	104	0	60	58023
2026-01-19 13:29:47.29	20.18	1.69	-49.0	-64.1	3.6	1.51e+00	0	40	104	0	60	58067
2026-01-19 13:29:48.30	20.23	1.75	-49.0	-64.2	3.6	1.51e+00	0	40	104	0	60	58614
2026-01-19 13:29:49.31	20.28	1.81	-49.0	-64.2	3.6	1.51e+00	0	40	104	0	60	58380
2026-01-19 13:29:50.32	20.33	1.87	-49.0	-64.2	3.6	1.51e+00	0	40	104	0	60	58417
2026-01-19 13:29:51.33	20.38	1.93	-49.0	-64.2	3.6	1.51e+00	0	40	104	0	60	58431
2026-01-19 13:29:52.34	20.43	1.99	-49.0	-64.1	3.6	1.51e+00	0	40	104	0	60	58062
2026-01-19 13:29:53.35	20.48	2.05	-49.0	-64.1	3.6	1.51e+00	0	40	104	0	60	58155
2026-01-19 13:29:54.37	20.53	2.11	-49.0	-63.9	3.6	1.51e+00	0	40	104	0	60	56828
2026-01-19 13:29:55.37	20.58	2.17	-49.0	-63.7	3.6	1.51e+00	0	40	104	0	60	55237
2026-01-19 13:29:56.38	20.63	2.23	-49.0	-63.3	3.6	1.51e+00	0	40	104	0	60	52930
2026-01-19 13:29:57.39	20.68	2.29	-49.0	-62.8	3.6	1.51e+00	0	40	104	0	60	50090
2026-01-19 13:29:58.41	20.73	2.35	-48.9	-62.4	3.6	1.51e+00	0	40	104	0	60	47856
2026-01-19 13:29:59.42	20.78	2.41	-48.9	-62.3	3.6	1.51e+00	0	40	104	0	60	47231
2026-01-19 13:30:00.43	20.83	2.47	-48.9	-62.5	3.6	1.50e+00	0	40	104	0	60	48017
2026-01-19 13:30:01.44	20.88	2.53	-49.0	-63.1	3.6	1.51e+00	0	40	104	0	60	51361
2026-01-19 13:30:02.45	20.93	2.59	-49.0	-63.9	3.6	1.51e+00	0	40	104	0	60	56646
2026-01-19 13:30:03.46	20.98	2.66	-49.0	-63.4	3.6	1.51e+00	0	40	104	0	60	53427
2026-01-19 13:30:04.47	21.03	2.72	-48.8	-60.7	3.8	1.51e+00	0	40	104	0	60	39301
2026-01-19 13:30:05.48	21.08	2.78	-48.4	-56.8	6.3	7.61e-01	0	40	0	0	60	24929
2026-01-19 13:30:06.49	21.13	2.84	-47.8	-53.5	9.1	2.27e-02	0	40	0	1048576	60	17126
2026-01-19 13:30:07.50	21.19	2.90	-46.9	-51.2	11.8	1.82e-03	0	40	0	3145728	60	13085
2026-01-19 13:30:08.51	21.24	2.96	-46.0	-49.3	13.9	1.40e-04	0	40	0	5242880	60	10606
2026-01-19 13:30:09.52	21.29	3.03	-45.5	-48.4	14.8	1.50e-06	82	40	0	7340032	60	9547
2026-01-19 13:30:10.53	21.34	3.09	-45.1	-47.7	15.6	0.00e+00	0	40	0	9437184	60	8788
2026-01-19 13:30:11.54	21.40	3.15	-44.7	-47.1	16.0	0.00e+00	73	40	0	11534336	60	8180
2026-01-19 13:30:12.55	21.45	3.21	-44.8	-47.3	15.8	0.00e+00	0	40	0	12582912	60	8360
2026-01-19 13:30:13.56	21.50	3.27	-44.9	-47.4	15.7	0.00e+00	0	40	0	14680064	60	8495
2026-01-19 13:30:14.57	21.56	3.34	-45.5	-48.4	14.7	0.00e+00	0	40	0	16777216	60	9552
2026-01-19 13:30:15.58	21.61	3.40	-46.3	-49.8	13.3	1.50e-06	0	40	0	18874368	60	11143
2026-01-19 13:30:16.59	21.66	3.46	-47.0	-51.5	11.4	3.56e-04	43	40	0	19922944	60	13598
2026-01-19 13:30:17.60	21.72	3.53	-47.8	-53.5	9.0	7.13e-03	0	40	0	22020096	60	17184
2026-01-19 13:30:18.61	21.77	3.59	-44.8	-47.1	16.4	6.20e-02	74	40	0	24117248	60	8198
2026-01-19 13:30:19.62	21.83	3.65	-46.9	-51.4	9.4	3.80e-06	0	40	0	26214400	60	13407
2026-01-19 13:30:20.63	21.88	3.72	-48.1	-55.1	4.8	1.47e+00	21	40	104	26214400	60	20450
2026-01-19 13:30:21.64	21.93	3.78	-48.3	-55.7	5.1	1.51e+00	0	40	104	26214400	60	22035
2026-01-19 13:30:22.65	21.99	3.84	-48.8	-59.6	3.6	2.02e-01	27	40	0	26214400	60	34507
2026-01-19 13:30:23.66	22.04	3.91	-48.6	-58.3	4.9	1.51e+00	0	40	104	26214400	60	29620
2026-01-19 13:30:24.66	22.10	3.97	-47.1	-51.5	11.0	1.66e-03	9	40	0	26214400	60	13605
2026-01-19 13:30:25.67	22.16	4.03	-47.5	-52.3	10.2	1.98e-03	73	40	0	27262976	60	14979
2026-01-19 13:30:26.68	22.21	4.10	-46.8	-50.7	12.5	7.30e-04	0	40	0	29360128	60	12364
2026-01-19 13:30:27.69	22.27	4.16	-45.9	-49.0	14.2	8.30e-06	20	40	0	31457280	60	10221
2026-01-19 13:30:28.70	22.32	4.23	-45.6	-48.5	14.8	0.00e+00	0	40	0	33554432	60	9660
2026-01-19 13:30:29.71	22.38	4.29	-45.4	-48.1	15.2	0.00e+00	0	40	0	35651584	60	9206
2026-01-19 13:30:30.72	22.44	4.36	-45.3	-48.0	15.2	0.00e+00	29	40	0	36700160	60	9029
2026-01-19 13:30:31.73	22.49	4.42	-45.4	-48.1	15.3	0.00e+00	0	40	0	38797312	60	9219
2026-01-19 13:30:32.74	22.55	4.49	-45.2	-47.7	15.2	0.00e+00	29	40	0	40894464	60	8787
2026-01-19 13:30:33.75	22.61	4.55	-44.9	-47.3	15.8	0.00e+00	0	40	0	42991616	60	8391
2026-01-19 13:30:34.76	22.67	4.62	-44.7	-47.0	16.3	0.00e+00	51	40	0	45088768	60	8106
2026-01-19 13:30:35.77	22.72	4.68	-44.9	-47.4	16.0	0.00e+00	0	40	0	46137344	60	8427
2026-01-19 13:30:36.78	22.78	4.75	-44.6	-46.8	16.7	0.00e+00	0	40	0	48234496	60	7901
2026-01-19 13:30:37.79	22.84	4.81	-44.3	-46.5	16.9	0.00e+00	0	40	0	50331648	60	7599
2026-01-19 13:30:38.80	22.90	4.88	-44.2	-46.2	17.1	0.00e+00	0	40	0	52428800	60	7399
2026-01-19 13:30:39.81	22.96	4.95	-44.0	-46.0	17.6	0.00e+00	27	40	0	54525952	60	7184
2026-01-19 13:30:40.82	23.02	5.01	-44.0	-45.9	17.5	0.00e+00	0	40	0	56623104	60	7146
2026-01-19 13:30:41.83	23.08	5.08	-43.8	-45.7	17.8	0.00e+00	92	40	0	57671680	60	6959
2026-01-19 13:30:42.84	23.14	5.14	-43.8	-45.7	17.9	0.00e+00	0	40	0	59768832	60	6946
2026-01-19 13:30:43.85	23.20	5.21	-43.6	-45.4	18.1	0.00e+00	0	40	0	61865984	60	6723
2026-01-19 13:30:44.86	23.26	5.28	-43.6	-45.4	18.0	0.00e+00	0	40	0	63963136	60	6731
2026-01-19 13:30:45.87	23.32	5.34	-43.6	-45.5	17.9	0.00e+00	0	40	0	66060288	60	6775
2026-01-19 13:30:46.88	23.38	5.41	-43.6	-45.4	18.0	0.00e+00	30	40	0	67108864	60	6766
2026-01-19 13:30:47.89	23.44	5.48	-43.5	-45.3	18.0	0.00e+00	0	40	0	69206016	60	6682
2026-01-19 13:30:48.90	23.50	5.55	-43.6	-45.4	18.1	0.00e+00	42	40	0	71303168	60	6764
2026-01-19 13:30:49.91	23.56	5.61	-43.6	-45.4	18.2	0.00e+00	0	40	0	73400320	60	6749
2026-01-19 13:30:50.92	23.62	5.68	-43.6	-45.4	18.2	0.00e+00	0	40	0	75497472	60	6709
2026-01-19 13:30:51.92	23.68	5.75	-43.5	-45.3	18.2	0.00e+00	0	40	0	76546048	60	6666
2026-01-19 13:30:52.93	23.75	5.82	-43.5	-45.3	18.2	0.00e+00	0	40	0	78643200	60	6657
2026-01-19 13:30:53.94	23.81	5.88	-43.7	-45.5	18.1	0.00e+00	45	41	0	80740352	60	6818
2026-01-19 13:30:54.95	23.87	5.95	-43.6	-45.4	18.1	0.00e+00	0	40	0	82837504	60	6757
2026-01-19 13:30:55.96	23.93	6.02	-43.5	-45.3	18.2	0.00e+00	57	40	0	84934656	60	6645
2026-01-19 13:30:56.97	24.00	6.09	-43.4	-45.1	18.4	0.00e+00	0	41	0	85983232	60	6516
2026-01-19 13:30:57.98	24.06	6.16	-43.4	-45.1	18.4	0.00e+00	0	40	0	88080384	60	6516
2026-01-19 13:30:58.99	24.13	6.23	-43.6	-45.4	18.1	0.00e+00	0	40	0	90177536	60	6763
2026-01-19 13:31:00.00	24.19	6.30	-43.3	-45.0	18.4	0.00e+00	0	40	0	92274688	60	6423
2026-01-19 13:31:01.01	24.25	6.36	-43.3	-45.0	18.3	0.00e+00	35	41	0	94371840	60	6458
2026-01-19 13:31:02.02	24.32	6.43	-43.3	-45.0	18.6	0.00e+00	0	40	0	95420416	60	6441
2026-01-19 13:31:03.03	24.38	6.50	-43.2	-44.9	18.7	0.00e+00	26	40	0	97517568	60	6325
2026-01-19 13:31:04.04	24.45	6.57	-43.3	-44.9	18.7	0.00e+00	0	40	0	99614720	60	6388
2026-01-19 13:31:05.05	24.51	6.64	-43.2	-44.9	18.7	0.00e+00	35	40	0	101711872	60	6333
2026-01-19 13:31:06.06	24.58	6.71	-43.1	-44.7	18.9	0.00e+00	0	40	0	103809024	60	6192
2026-01-19 13:31:07.06	24.65	6.78	-43.3	-45.0	18.6	0.00e+00	0	40	0	104857600	60	6416
2026-01-19 13:31:08.07	24.71	6.85	-43.2	-44.9	18.7	0.00e+00	0	40	0	106954752	60	6351
2026-01-19 13:31:09.08	24.78	6.92	-43.3	-45.0	18.7	0.00e+00	0	40	0	109051904	60	6395
2026-01-19 13:31:10.09	24.85	6.99	-43.1	-44.7	18.8	0.00e+00	74	40	0	111149056	60	6243
2026-01-19 13:31:11.10	24.91	7.06	-43.2	-44.8	19.0	0.00e+00	7	40	0	113246208	60	6291
2026-01-19 13:31:12.11	24.98	7.14	-43.0	-44.6	18.9	0.00e+00	91	40	0	114294784	60	6140
2026-01-19 13:31:13.12	25.05	7.21	-42.9	-44.5	19.1	0.00e+00	0	40	0	116391936	60	6060
2026-01-19 13:31:14.13	25.12	7.28	-43.0	-44.6	19.1	0.00e+00	0	40	0	118489088	60	6124
2026-01-19 13:31:15.14	25.19	7.35	-42.6	-44.1	19.4	0.00e+00	0	40	0	120586240	58	6489
2026-01-19 13:31:16.14	25.25	7.42	-42.4	-43.8	19.6	0.00e+00	0	40	0	122683392	58	6279
2026-01-19 13:31:17.15	25.32	7.49	-42.5	-44.0	19.5	0.00e+00	25	41	0	124780544	58	6431
2026-01-19 13:31:18.16	25.39	7.56	-42.5	-44.0	19.6	0.00e+00	0	41	0	125829120	58	6456
2026-01-19 13:31:19.17	25.46	7.64	-42.3	-43.8	19.8	0.00e+00	92	41	0	127926272	58	6254
2026-01-19 13:31:20.18	25.53	7.71	-42.4	-43.9	19.7	0.00e+00	28	40	0	130023424	58	6341
2026-01-19 13:31:21.19	25.60	7.78	-42.5	-43.9	19.6	0.00e+00	0	41	0	132120576	58	6380
2026-01-19 13:31:22.20	25.67	7.85	-42.2	-43.5	19.9	0.00e+00	0	41	0	134217728	58	6091
2026-01-19 13:31:23.21	25.75	7.93	-42.3	-43.7	19.9	0.00e+00	0	40	0	135266304	58	6201
2026-01-19 13:31:24.22	25.82	8.00	-42.2	-43.5	20.0	0.00e+00	71	41	0	137363456	58	6100
2026-01-19 13:31:25.23	25.89	8.07	-42.1	-43.4	20.1	0.00e+00	0	41	0	139460608	58	6012
2026-01-19 13:31:26.24	25.96	8.14	-42.2	-43.6	19.9	0.00e+00	92	40	0	141557760	58	6128
2026-01-19 13:31:27.25	26.03	8.22	-42.3	-43.7	19.9	0.00e+00	0	41	0	143654912	58	6207
2026-01-19 13:31:28.26	26.11	8.29	-42.2	-43.6	20.0	0.00e+00	0	40	0	144703488	58	6135
2026-01-19 13:31:29.27	26.18	8.37	-42.1	-43.5	20.2	0.00e+00	0	41	0	146800640	58	6063
2026-01-19 13:31:30.28	26.25	8.44	-42.1	-43.5	20.0	0.00e+00	0	41	0	148897792	58	6050
2026-01-19 13:31:31.29	26.33	8.51	-42.2	-43.6	20.0	0.00e+00	60	40	0	150994944	58	6114
2026-01-19 13:31:32.30	26.40	8.59	-42.1	-43.4	20.1	0.00e+00	0	41	0	153092096	58	6001
2026-01-19 13:31:33.31	26.48	8.66	-42.0	-43.3	20.3	0.00e+00	91	41	0	154140672	58	5935
2026-01-19 13:31:34.32	26.55	8.74	-42.0	-43.3	20.2	0.00e+00	0	40	0	156237824	58	5920
2026-01-19 13:31:35.33	26.63	8.81	-42.2	-43.5	20.2	0.00e+00	49	41	0	158334976	58	6094
2026-01-19 13:31:36.34	26.70	8.89	-42.1	-43.4	20.1	0.00e+00	0	41	0	160432128	58	6018
2026-01-19 13:31:37.35	26.78	8.96	-42.0	-43.4	20.2	0.00e+00	0	41	0	162529280	58	5987
2026-01-19 13:31:38.36	26.85	9.04	-42.1	-43.5	20.2	0.00e+00	0	41	0	163577856	58	6048
2026-01-19 13:31:39.37	26.93	9.11	-42.1	-43.4	20.2	0.00e+00	0	41	0	165675008	58	6016
2026-01-19 13:31:40.38	27.01	9.19	-42.0	-43.4	20.3	0.00e+00	73	41	0	167772160	56	6714
2026-01-19 13:31:41.39	27.09	9.27	-42.1	-43.4	20.3	0.00e+00	0	41	0	169869312	56	6747
2026-01-19 13:31:42.40	27.16	9.34	-41.9	-43.2	20.5	0.00e+00	16	41	0	171966464	56	6593
2026-01-19 13:31:43.41	27.24	9.42	-41.7	-43.0	20.6	0.00e+00	0	41	0	173015040	56	6424
2026-01-19 13:31:44.42	27.32	9.49	-41.8	-43.1	20.5	0.00e+00	0	41	0	175112192	56	6512
2026-01-19 13:31:45.43	27.40	9.57	-41.8	-43.1	20.5	0.00e+00	0	41	0	177209344	56	6486
2026-01-19 13:31:46.44	27.48	9.65	-41.6	-42.9	20.7	0.00e+00	0	40	0	179306496	56	6349
2026-01-19 13:31:47.45	27.56	9.73	-41.6	-42.8	20.8	0.00e+00	92	41	0	181403648	56	6310
2026-01-19 13:31:48.46	27.64	9.80	-41.8	-43.1	20.5	0.00e+00	0	41	0	182452224	56	6499
2026-01-19 13:31:49.47	27.72	9.88	-41.7	-43.0	20.8	0.00e+00	80	41	0	184549376	56	6430
2026-01-19 13:31:50.48	27.80	9.96	-41.6	-42.8	20.8	0.00e+00	0	41	0	186646528	56	6310
2026-01-19 13:31:51.49	27.88	10.04	-41.6	-42.8	20.7	0.00e+00	0	41	0	188743680	56	6285
2026-01-19 13:31:52.50	27.96	10.11	-41.5	-42.7	20.9	0.00e+00	0	41	0	190840832	56	6214
2026-01-19 13:31:53.51	28.05	10.19	-41.5	-42.8	20.9	0.00e+00	0	41	0	192937984	56	6274
2026-01-19 13:31:54.51	28.13	10.27	-41.4	-42.6	21.1	0.00e+00	92	41	0	193986560	56	6172
2026-01-19 13:31:55.52	28.21	10.35	-41.3	-42.5	21.0	0.00e+00	0	41	0	196083712	56	6055
2026-01-19 13:31:56.53	28.30	10.43	-41.5	-42.8	20.9	0.00e+00	51	41	0	198180864	56	6269
2026-01-19 13:31:57.54	28.38	10.51	-41.3	-42.4	21.2	0.00e+00	0	41	0	200278016	56	6029
2026-01-19 13:31:58.55	28.46	10.59	-41.4	-42.6	21.1	0.00e+00	0	41	0	202375168	56	6146
2026-01-19 13:31:59.56	28.55	10.67	-41.3	-42.5	21.1	0.00e+00	0	41	0	203423744	56	6082
2026-01-19 13:32:00.57	28.63	10.75	-41.2	-42.4	21.2	0.00e+00	0	41	0	205520896	56	5995
2026-01-19 13:32:01.58	28.72	10.83	-41.3	-42.5	21.1	0.00e+00	40	41	0	207618048	56	6079
2026-01-19 13:32:02.59	28.81	10.91	-41.0	-42.2	21.3	0.00e+00	0	41	0	209715200	56	5859
2026-01-19 13:32:03.60	28.89	10.99	-41.2	-42.4	21.2	0.00e+00	92	41	0	211812352	56	5999
2026-01-19 13:32:04.61	28.98	11.07	-41.1	-42.2	21.3	0.00e+00	0	41	0	212860928	56	5869
2026-01-19 13:32:05.62	29.07	11.15	-41.2	-42.4	21.1	0.00e+00	0	41	0	214958080	56	6014
2026-01-19 13:32:06.63	29.15	11.23	-41.0	-42.2	21.5	0.00e+00	0	41	0	217055232	56	5849
2026-01-19 13:32:07.64	29.24	11.31	-40.8	-42.0	21.7	0.00e+00	0	41	0	219152384	56	5705
2026-01-19 13:32:08.65	29.33	11.39	-40.8	-41.9	21.7	0.00e+00	32	41	0	221249536	56	5681
2026-01-19 13:32:09.66	29.42	11.47	-40.7	-41.8	21.7	0.00e+00	0	41	0	222298112	54	6273
2026-01-19 13:32:10.67	29.51	11.56	-40.7	-41.9	21.6	0.00e+00	83	41	0	224395264	54	6325
2026-01-19 13:32:11.68	29.60	11.64	-40.6	-41.7	21.8	0.00e+00	0	41	0	226492416	54	6180
2026-01-19 13:32:12.69	29.69	11.72	-40.4	-41.5	21.8	0.00e+00	61	41	0	228589568	54	6084
2026-01-19 13:32:13.69	29.78	11.80	-40.8	-41.9	21.7	0.00e+00	0	41	0	230686720	54	6340
2026-01-19 13:32:14.70	29.87	11.89	-40.4	-41.5	22.0	0.00e+00	0	41	0	231735296	54	6076
2026-01-19 13:32:15.71	29.97	11.97	-40.5	-41.5	22.0	0.00e+00	19	41	0	233832448	54	6085
2026-01-19 13:32:16.73	30.06	12.05	-40.5	-41.6	21.9	0.00e+00	0	41	0	235929600	54	6120
2026-01-19 13:32:17.74	30.15	12.14	-40.6	-41.7	21.8	0.00e+00	91	41	0	238026752	54	6174
2026-01-19 13:32:18.75	30.25	12.22	-40.4	-41.5	22.0	0.00e+00	0	41	0	240123904	54	6066
2026-01-19 13:32:19.75	30.34	12.30	-40.5	-41.6	21.9	0.00e+00	91	41	0	241172480	54	6144
2026-01-19 13:32:20.76	30.44	12.39	-40.4	-41.4	22.1	0.00e+00	0	41	0	243269632	54	6029
2026-01-19 13:32:21.77	30.53	12.47	-40.4	-41.4	22.0	0.00e+00	0	41	0	245366784	54	6014
2026-01-19 13:32:22.78	30.63	12.56	-40.4	-41.5	22.1	0.00e+00	0	41	0	247463936	54	6038
2026-01-19 13:32:23.79	30.72	12.64	-40.4	-41.5	22.0	0.00e+00	0	41	0	249561088	54	6043
2026-01-19 13:32:24.80	30.82	12.73	-40.4	-41.5	21.9	0.00e+00	91	41	0	250609664	54	6081
2026-01-19 13:32:25.81	30.92	12.81	-40.5	-41.5	21.9	0.00e+00	0	41	0	252706816	54	6083
2026-01-19 13:32:26.82	31.01	12.90	-40.7	-41.8	21.6	0.00e+00	89	41	0	254803968	54	6307
2026-01-19 13:32:27.83	31.11	12.98	-40.7	-41.8	21.6	0.00e+00	0	41	0	256901120	54	6304
2026-01-19 13:32:28.84	31.21	13.07	-40.6	-41.7	21.8	0.00e+00	0	41	0	258998272	54	6213
2026-01-19 13:32:29.84	31.31	13.15	-40.8	-41.9	21.7	0.00e+00	9	41	0	261095424	54	6343
2026-01-19 13:32:30.85	31.41	13.24	-40.8	-41.9	21.7	0.00e+00	0	41	0	262144000	54	6372
2026-01-19 13:32:31.86	31.51	13.33	-40.6	-41.7	21.8	0.00e+00	33	41	0	264241152	54	6244
2026-01-19 13:32:32.87	31.61	13.41	-40.7	-41.8	21.7	0.00e+00	0	41	0	266338304	54	6272
2026-01-19 13:32:33.88	31.71	13.50	-40.5	-41.6	21.9	0.00e+00	90	41	0	268435456	54	6125
2026-01-19 13:32:34.89	31.82	13.59	-40.5	-41.6	21.8	0.00e+00	0	41	0	269484032	54	6153
2026-01-19 13:32:35.90	31.92	13.68	-40.4	-41.5	21.8	0.00e+00	0	41	0	271581184	54	6068
2026-01-19 13:32:36.91	32.02	13.76	-40.4	-41.5	21.9	0.00e+00	0	41	0	273678336	54	6042
2026-01-19 13:32:37.92	32.13	13.85	-40.5	-41.6	21.9	0.00e+00	0	41	0	275775488	54	6104
2026-01-19 13:32:38.92	32.23	13.94	-40.2	-41.3	22.2	0.00e+00	32	41	0	277872640	54	5897
2026-01-19 13:32:39.93	32.34	14.03	-40.1	-41.2	22.3	0.00e+00	0	41	0	278921216	54	5832
2026-01-19 13:32:40.95	32.44	14.12	-40.0	-41.0	22.4	0.00e+00	54	41	0	281018368	54	5737
2026-01-19 13:32:41.95	32.55	14.20	-40.2	-41.2	22.4	0.00e+00	0	41	0	283115520	54	5868
2026-01-19 13:32:42.96	32.66	14.29	-40.0	-41.0	22.4	0.00e+00	29	41	0	285212672	54	5724
2026-01-19 13:32:43.97	32.76	14.38	-40.0	-41.0	22.4	0.00e+00	0	41	0	287309824	54	5752
2026-01-19 13:32:44.98	32.87	14.47	-40.1	-41.1	22.4	0.00e+00	0	41	0	289406976	54	5826
2026-01-19 13:32:45.99	32.98	14.56	-40.1	-41.1	22.3	0.00e+00	34	41	0	290455552	54	5789
2026-01-19 13:32:47.01	33.09	14.65	-40.1	-41.2	22.4	0.00e+00	0	41	0	292552704	54	5843
2026-01-19 13:32:48.02	33.20	14.74	-40.4	-41.4	22.2	0.00e+00	92	41	0	294649856	54	6025
2026-01-19 13:32:49.03	33.31	14.84	-40.2	-41.2	22.3	0.00e+00	0	41	0	296747008	54	5853
2026-01-19 13:32:50.04	33.42	14.93	-40.1	-41.2	22.4	0.00e+00	39	41	0	298844160	54	5832
2026-01-19 13:32:51.05	33.54	15.02	-40.2	-41.3	22.4	0.00e+00	0	41	0	299892736	54	5907
2026-01-19 13:32:52.05	33.65	15.11	-40.2	-41.2	22.3	0.00e+00	0	41	0	301989888	54	5882
2026-01-19 13:32:53.06	33.76	15.20	-40.3	-41.4	22.2	0.00e+00	9	41	0	304087040	54	5982
2026-01-19 13:32:54.07	33.88	15.29	-40.3	-41.4	22.2	0.00e+00	0	41	0	306184192	54	5986
2026-01-19 13:32:55.08	33.99	15.38	-40.5	-41.6	22.0	0.00e+00	5	41	0	308281344	54	6138
2026-01-19 13:32:56.09	34.11	15.48	-40.6	-41.7	22.0	0.00e+00	0	41	0	309329920	54	6186
2026-01-19 13:32:57.10	34.22	15.57	-40.6	-41.7	22.1	0.00e+00	92	41	0	311427072	54	6233
2026-01-19 13:32:58.11	34.34	15.66	-40.8	-41.9	21.8	0.00e+00	0	41	0	313524224	54	6383
2026-01-19 13:32:59.12	34.46	15.75	-41.1	-42.3	21.5	0.00e+00	0	41	0	315621376	54	6638
2026-01-19 13:33:00.13	34.58	15.85	-41.0	-42.2	21.6	0.00e+00	0	41	0	317718528	54	6540
2026-01-19 13:33:01.14	34.69	15.94	-40.8	-41.9	21.6	0.00e+00	0	41	0	318767104	54	6385
2026-01-19 13:33:02.15	34.81	16.04	-41.3	-42.5	21.5	0.00e+00	92	41	0	320864256	54	6795
2026-01-19 13:33:03.16	34.93	16.13	-41.2	-42.3	21.4	0.00e+00	0	41	0	322961408	54	6687
2026-01-19 13:33:04.17	35.06	16.22	-41.3	-42.5	21.4	0.00e+00	92	41	0	325058560	54	6797
2026-01-19 13:33:05.18	35.18	16.32	-41.2	-42.4	21.4	0.00e+00	0	41	0	327155712	54	6751
2026-01-19 13:33:06.19	35.30	16.41	-41.0	-42.1	21.6	0.00e+00	0	41	0	328204288	54	6491
2026-01-19 13:33:07.20	35.42	16.51	-40.9	-42.0	21.7	0.00e+00	0	41	0	330301440	54	6426
2026-01-19 13:33:08.21	35.55	16.60	-40.8	-41.9	21.7	0.00e+00	0	41	0	332398592	54	6390
2026-01-19 13:33:09.22	35.67	16.70	-41.0	-42.2	21.6	0.00e+00	31	41	0	334495744	54	6547
2026-01-19 13:33:10.23	35.80	16.80	-41.0	-42.1	21.6	0.00e+00	0	41	0	336592896	54	6522
2026-01-19 13:33:11.24	35.93	16.89	-40.9	-42.0	21.7	0.00e+00	92	41	0	337641472	54	6393
2026-01-19 13:33:12.24	36.05	16.99	-41.0	-42.1	21.7	0.00e+00	0	41	0	339738624	54	6483
2026-01-19 13:33:13.25	36.18	17.08	-41.1	-42.3	21.5	0.00e+00	1	41	0	341835776	54	6627
2026-01-19 13:33:14.26	36.31	17.18	-41.2	-42.3	21.5	0.00e+00	1	41	0	343932928	54	6689
2026-01-19 13:33:15.27	36.44	17.28	-41.6	-42.8	21.0	0.00e+00	0	41	0	346030080	54	7038
2026-01-19 13:33:16.28	36.57	17.38	-41.3	-42.5	21.2	0.00e+00	27	41	0	347078656	54	6836
2026-01-19 13:33:17.29	36.70	17.47	-41.4	-42.6	21.2	0.00e+00	0	41	0	349175808	54	6862
2026-01-19 13:33:18.30	36.83	17.57	-41.4	-42.6	21.1	0.00e+00	79	41	0	351272960	54	6857
2026-01-19 13:33:19.31	36.96	17.67	-41.6	-42.8	21.1	0.00e+00	0	41	0	353370112	54	7055
2026-01-19 13:33:20.32	37.10	17.77	-41.6	-42.9	21.0	0.00e+00	44	41	0	355467264	54	7123
2026-01-19 13:33:21.33	37.23	17.87	-41.3	-42.5	21.2	0.00e+00	0	41	0	357564416	54	6822
2026-01-19 13:33:22.34	37.37	17.96	-41.1	-42.2	21.5	0.00e+00	0	41	0	358612992	54	6612
2026-01-19 13:33:23.35	37.51	18.06	-41.2	-42.4	21.5	0.00e+00	34	41	0	360710144	54	6733
2026-01-19 13:33:24.36	37.64	18.16	-41.2	-42.3	21.4	0.00e+00	0	41	0	362807296	54	6691
2026-01-19 13:33:25.37	37.78	18.26	-40.8	-41.9	21.8	0.00e+00	79	41	0	364904448	54	6374
2026-01-19 13:33:26.37	37.92	18.36	-40.8	-42.0	21.8	0.00e+00	0	41	0	367001600	54	6392
2026-01-19 13:33:27.38	38.06	18.46	-40.8	-41.9	21.8	0.00e+00	47	41	0	368050176	54	6366
2026-01-19 13:33:28.39	38.20	18.56	-40.6	-41.7	22.1	0.00e+00	0	41	0	370147328	54	6187
2026-01-19 13:33:29.40	38.34	18.66	-40.8	-41.9	21.9	0.00e+00	0	41	0	372244480	54	6323
2026-01-19 13:33:30.41	38.48	18.76	-41.1	-42.3	21.6	0.00e+00	0	41	0	374341632	54	6648
2026-01-19 13:33:31.42	38.63	18.86	-41.1	-42.3	21.6	0.00e+00	0	41	0	376438784	54	6639
2026-01-19 13:33:32.43	38.77	18.97	-41.0	-42.2	21.7	0.00e+00	33	41	0	377487360	54	6548
2026-01-19 13:33:33.44	38.92	19.07	-41.0	-42.2	21.7	0.00e+00	0	41	0	379584512	54	6544
2026-01-19 13:33:34.45	39.06	19.17	-41.0	-42.1	21.7	0.00e+00	90	41	0	381681664	54	6514
2026-01-19 13:33:35.46	39.21	19.27	-41.0	-42.1	21.5	0.00e+00	0	41	0	383778816	54	6531
2026-01-19 13:33:36.46	39.36	19.37	-41.1	-42.3	21.2	0.00e+00	0	41	0	385875968	54	6639
2026-01-19 13:33:37.47	39.50	19.48	-41.0	-42.2	21.4	0.00e+00	0	41	0	386924544	54	6562
2026-01-19 13:33:38.48	39.65	19.58	-41.1	-42.2	21.5	0.00e+00	0	41	0	389021696	54	6556
2026-01-19 13:33:39.49	39.81	19.68	-41.4	-42.6	21.2	0.00e+00	92	41	0	391118848	54	6863
2026-01-19 13:33:40.50	39.96	19.78	-41.2	-42.4	21.5	0.00e+00	0	41	0	393216000	54	6711
2026-01-19 13:33:41.51	40.11	19.89	-41.4	-42.6	21.3	0.00e+00	92	41	0	395313152	54	6861
2026-01-19 13:33:42.52	40.26	19.99	-41.4	-42.6	21.3	0.00e+00	0	41	0	396361728	54	6901
2026-01-19 13:33:43.53	40.42	20.10	-41.5	-42.7	21.4	0.00e+00	0	41	0	398458880	54	6938
2026-01-19 13:33:44.54	40.58	20.20	-41.3	-42.5	21.4	0.00e+00	0	41	0	400556032	54	6799
2026-01-19 13:33:45.55	40.73	20.30	-41.4	-42.6	21.3	0.00e+00	0	41	0	402653184	54	6851
2026-01-19 13:33:46.55	40.89	20.41	-41.4	-42.5	21.4	0.00e+00	42	41	0	404750336	54	6848
2026-01-19 13:33:47.56	41.05	20.51	-41.3	-42.4	21.4	0.00e+00	0	41	0	405798912	54	6753
2026-01-19 13:33:48.57	41.21	20.62	-41.1	-42.2	21.6	0.00e+00	43	41	0	407896064	54	6578
2026-01-19 13:33:49.58	41.37	20.72	-41.0	-42.1	21.8	0.00e+00	0	41	0	409993216	54	6514
2026-01-19 13:33:50.59	41.53	20.83	-40.9	-42.0	21.9	0.00e+00	0	41	0	412090368	54	6411
2026-01-19 13:33:51.60	41.70	20.94	-40.6	-41.7	22.3	0.00e+00	0	41	0	414187520	54	6212
2026-01-19 13:33:52.61	41.86	21.04	-40.4	-41.4	22.5	0.00e+00	0	41	0	415236096	54	6029
2026-01-19 13:33:53.62	42.03	21.15	-40.1	-41.1	22.6	0.00e+00	34	41	0	417333248	54	5821
2026-01-19 13:33:54.63	42.19	21.25	-40.2	-41.2	22.5	0.00e+00	0	41	0	419430400	54	5838
2026-01-19 13:33:55.64	42.36	21.36	-40.1	-41.1	22.6	0.00e+00	90	41	0	421527552	54	5773
2026-01-19 13:33:56.65	42.53	21.47	-40.1	-41.1	22.6	0.00e+00	0	41	0	423624704	54	5789
2026-01-19 13:33:57.66	42.70	21.57	-40.2	-41.3	22.4	0.00e+00	56	41	0	425721856	54	5908
2026-01-19 13:33:58.67	42.87	21.68	-40.1	-41.1	22.6	0.00e+00	0	41	0	426770432	54	5766
2026-01-19 13:33:59.68	43.04	21.79	-39.9	-40.9	22.6	0.00e+00	0	41	0	428867584	54	5690
2026-01-19 13:34:00.69	43.22	21.90	-39.9	-40.9	22.8	0.00e+00	32	41	0	430964736	54	5632
2026-01-19 13:34:01.69	43.39	22.00	-39.6	-40.5	23.1	0.00e+00	0	41	0	433061888	52	6075
2026-01-19 13:34:02.70	43.57	22.11	-39.4	-40.3	23.3	0.00e+00	32	41	0	435159040	52	5934
2026-01-19 13:34:03.71	43.74	22.22	-39.2	-40.1	23.4	0.00e+00	0	41	0	436207616	52	5786
2026-01-19 13:34:04.72	43.92	22.33	-38.7	-39.6	23.7	0.00e+00	80	41	0	438304768	50	6156
2026-01-19 13:34:05.73	44.10	22.44	-38.7	-39.5	23.8	0.00e+00	0	41	0	440401920	50	6098
2026-01-19 13:34:06.74	44.28	22.55	-38.5	-39.4	23.9	0.00e+00	0	41	0	442499072	50	5996
2026-01-19 13:34:07.75	44.46	22.66	-38.5	-39.4	23.8	0.00e+00	0	41	0	444596224	50	5973
2026-01-19 13:34:08.76	44.65	22.76	-38.8	-39.6	23.7	0.00e+00	0	41	0	445644800	50	6162
2026-01-19 13:34:09.77	44.83	22.87	-38.8	-39.6	23.8	0.00e+00	65	41	0	447741952	50	6155
2026-01-19 13:34:10.78	45.02	22.98	-38.8	-39.7	23.7	0.00e+00	0	41	0	449839104	50	6208
2026-01-19 13:34:11.79	45.20	23.09	-38.9	-39.8	23.6	0.00e+00	92	41	0	451936256	50	6295
2026-01-19 13:34:12.80	45.39	23.20	-39.1	-40.0	23.5	0.00e+00	0	41	0	454033408	50	6410
2026-01-19 13:34:13.80	45.58	23.31	-38.9	-39.8	23.7	0.00e+00	0	41	0	455081984	50	6298
2026-01-19 13:34:14.81	45.77	23.42	-39.1	-40.0	23.3	0.00e+00	0	41	0	457179136	50	6436
2026-01-19 13:34:15.82	45.96	23.53	-38.9	-39.8	22.9	0.00e+00	0	41	0	459276288	50	6299
2026-01-19 13:34:16.83	46.16	23.64	-39.0	-39.9	23.1	0.00e+00	38	41	0	461373440	50	6319
2026-01-19 13:34:17.84	46.35	23.75	-39.3	-40.2	23.2	0.00e+00	0	41	0	463470592	50	6600
2026-01-19 13:34:18.85	46.55	23.86	-39.0	-39.9	23.5	0.00e+00	92	41	0	464519168	50	6371
2026-01-19 13:34:19.86	46.75	23.97	-39.2	-40.1	23.2	0.00e+00	0	41	0	466616320	50	6533
2026-01-19 13:34:20.87	46.95	24.09	-39.4	-40.3	23.2	0.00e+00	0	41	0	468713472	50	6684
2026-01-19 13:34:21.88	47.15	24.20	-39.2	-40.1	23.3	0.00e+00	0	41	0	470810624	50	6528
2026-01-19 13:34:22.89	47.35	24.31	-39.2	-40.1	23.4	0.00e+00	0	41	0	472907776	50	6528
2026-01-19 13:34:23.90	47.55	24.42	-39.6	-40.6	23.0	0.00e+00	21	41	0	473956352	50	6868
2026-01-19 13:34:24.91	47.76	24.53	-39.4	-40.4	23.2	0.00e+00	0	41	0	476053504	50	6698
2026-01-19 13:34:25.92	47.96	24.64	-39.2	-40.2	23.3	0.00e+00	74	41	0	478150656	50	6540
2026-01-19 13:34:26.93	48.17	24.75	-39.4	-40.3	23.3	0.00e+00	0	41	0	480247808	50	6659
2026-01-19 13:34:27.94	48.38	24.87	-39.3	-40.2	23.3	0.00e+00	35	41	0	482344960	50	6585
2026-01-19 13:34:28.94	48.59	24.98	-39.2	-40.1	23.4	0.00e+00	0	41	0	483393536	50	6503
2026-01-19 13:34:29.95	48.80	25.09	-39.1	-40.0	23.4	0.00e+00	0	41	0	485490688	50	6430
2026-01-19 13:34:30.96	49.01	25.20	-39.3	-40.2	23.4	0.00e+00	35	41	0	487587840	50	6568
2026-01-19 13:34:31.97	49.23	25.31	-39.5	-40.4	23.0	0.00e+00	0	41	0	489684992	50	6743
2026-01-19 13:34:32.98	49.44	25.43	-39.5	-40.4	23.0	0.00e+00	90	41	0	491782144	50	6764
2026-01-19 13:34:33.99	49.66	25.54	-39.6	-40.5	23.1	0.00e+00	0	41	0	493879296	50	6835
2026-01-19 13:34:35.00	49.88	25.65	-40.1	-41.1	22.6	0.00e+00	0	41	0	494927872	52	6509
2026-01-19 13:34:36.01	50.10	25.76	-39.9	-40.9	22.8	0.00e+00	0	41	0	497025024	52	6337
2026-01-19 13:34:37.03	50.32	25.88	-39.9	-40.8	22.9	0.00e+00	0	41	0	499122176	52	6311
2026-01-19 13:34:38.04	50.55	25.99	-39.8	-40.8	22.8	0.00e+00	0	41	0	501219328	52	6267
2026-01-19 13:34:39.05	50.77	26.10	-39.9	-40.9	22.7	0.00e+00	0	41	0	503316480	52	6375
2026-01-19 13:34:40.06	51.00	26.21	-39.8	-40.8	22.8	0.00e+00	28	41	0	504365056	52	6259
2026-01-19 13:34:41.07	51.23	26.32	-39.5	-40.5	23.3	0.00e+00	0	41	0	506462208	52	6056
2026-01-19 13:34:42.08	51.46	26.44	-39.6	-40.6	23.1	0.00e+00	92	41	0	508559360	52	6117
2026-01-19 13:34:43.09	51.69	26.55	-39.6	-40.5	23.1	0.00e+00	0	41	0	510656512	52	6085
2026-01-19 13:34:44.10	51.93	26.66	-39.7	-40.6	23.1	0.00e+00	0	41	0	512753664	52	6145
2026-01-19 13:34:45.11	52.16	26.77	-39.7	-40.6	23.1	0.00e+00	0	41	0	513802240	52	6136
2026-01-19 13:34:46.12	52.40	26.89	-39.6	-40.6	23.0	0.00e+00	0	41	0	515899392	52	6112
2026-01-19 13:34:47.13	52.64	27.00	-39.9	-40.9	22.9	0.00e+00	14	41	0	517996544	52	6354
2026-01-19 13:34:48.14	52.87	27.11	-39.9	-40.9	22.8	0.00e+00	0	41	0	520093696	52	6331
2026-01-19 13:34:49.15	53.12	27.22	-40.1	-41.1	22.7	0.00e+00	90	41	0	522190848	52	6536
2026-01-19 13:34:50.16	53.36	27.33	-40.0	-40.9	22.9	0.00e+00	0	41	0	523239424	52	6379
2026-01-19 13:34:51.17	53.60	27.45	-40.0	-41.0	22.8	0.00e+00	33	41	0	525336576	52	6453
2026-01-19 13:34:52.18	53.85	27.56	-39.9	-40.9	22.9	0.00e+00	0	41	0	527433728	52	6348
2026-01-19 13:34:53.19	54.10	27.67	-39.6	-40.6	23.0	0.00e+00	0	41	0	529530880	52	6107
2026-01-19 13:34:54.20	54.35	27.78	-39.6	-40.5	23.1	0.00e+00	92	41	0	531628032	52	6083
2026-01-19 13:34:55.21	54.60	27.89	-39.8	-40.8	22.9	0.00e+00	0	41	0	532676608	52	6247
2026-01-19 13:34:56.22	54.86	28.00	-39.8	-40.7	22.9	0.00e+00	92	41	0	534773760	52	6242
2026-01-19 13:34:57.23	55.11	28.12	-40.3	-41.4	22.5	0.00e+00	0	41	0	536870912	52	6695
2026-01-19 13:34:58.24	55.37	28.23	-40.6	-41.7	22.1	0.00e+00	33	41	0	538968064	52	6941
2026-01-19 13:34:59.25	55.63	28.34	-40.6	-41.7	22.0	0.00e+00	0	41	0	541065216	54	6197
2026-01-19 13:35:00.26	55.89	28.45	-40.8	-41.9	21.8	0.00e+00	0	41	0	542113792	54	6370
2026-01-19 13:35:01.27	56.15	28.56	-40.8	-41.9	22.0	0.00e+00	58	41	0	544210944	54	6340
2026-01-19 13:35:02.28	56.41	28.67	-41.3	-42.5	21.7	0.00e+00	0	41	0	546308096	54	6774
2026-01-19 13:35:03.29	56.68	28.78	-41.5	-42.6	21.4	0.00e+00	79	41	0	548405248	54	6922
2026-01-19 13:35:04.29	56.94	28.89	-41.4	-42.5	21.5	0.00e+00	0	41	0	550502400	54	6836
2026-01-19 13:35:05.31	57.22	29.00	-41.3	-42.4	21.4	0.00e+00	0	41	0	551550976	54	6749
2026-01-19 13:35:06.31	57.48	29.11	-41.6	-42.7	21.3	0.00e+00	0	41	0	553648128	54	7001
2026-01-19 13:35:07.33	57.76	29.22	-41.4	-42.6	21.4	0.00e+00	0	41	0	555745280	56	6110
2026-01-19 13:35:08.34	58.03	29.33	-42.1	-43.3	21.0	0.00e+00	19	41	0	557842432	56	6688
2026-01-19 13:35:09.35	58.31	29.44	-42.2	-43.5	20.7	0.00e+00	0	41	0	559939584	56	6786
2026-01-19 13:35:10.36	58.59	29.54	-42.9	-44.3	19.8	0.00e+00	91	41	0	562036736	58	6681
2026-01-19 13:35:11.36	58.87	29.65	-43.3	-44.9	19.6	0.00e+00	0	41	0	563085312	58	7112
2026-01-19 13:35:12.38	59.15	29.76	-43.6	-45.2	19.2	0.00e+00	92	41	0	565182464	58	7344
2026-01-19 13:35:13.39	59.44	29.87	-43.6	-45.3	19.1	0.00e+00	0	41	0	567279616	60	6638
2026-01-19 13:35:14.40	59.72	29.97	-43.6	-45.2	19.2	0.00e+00	0	41	0	569376768	60	6550
2026-01-19 13:35:15.41	60.01	30.08	-43.4	-44.9	19.4	0.00e+00	0	41	0	571473920	60	6334
2026-01-19 13:35:16.42	60.30	30.19	-43.2	-44.7	19.6	0.00e+00	0	41	0	572522496	60	6192
2026-01-19 13:35:17.43	60.59	30.29	-43.1	-44.6	19.8	0.00e+00	92	41	0	574619648	60	6134
2026-01-19 13:35:18.44	60.89	30.40	-42.8	-44.1	19.9	0.00e+00	0	41	0	576716800	58	6532
2026-01-19 13:35:19.45	61.18	30.50	-42.9	-44.3	19.8	0.00e+00	31	41	0	578813952	58	6638
2026-01-19 13:35:20.45	61.48	30.61	-42.9	-44.4	19.8	0.00e+00	0	41	0	580911104	58	6695
2026-01-19 13:35:21.46	61.77	30.71	-43.0	-44.5	19.7	0.00e+00	0	41	0	581959680	58	6772
2026-01-19 13:35:22.47	62.08	30.81	-43.4	-44.9	19.6	0.00e+00	0	41	0	584056832	58	7170
2026-01-19 13:35:23.48	62.38	30.92	-43.8	-45.5	18.9	0.00e+00	0	41	0	586153984	60	6790
2026-01-19 13:35:24.49	62.68	31.02	-43.8	-45.5	18.8	0.00e+00	92	41	0	588251136	60	6815
2026-01-19 13:35:25.51	62.99	31.12	-44.0	-45.8	18.8	0.00e+00	0	41	0	590348288	60	7014
2026-01-19 13:35:26.51	63.30	31.22	-43.8	-45.4	19.0	0.00e+00	92	41	0	591396864	60	6750
2026-01-19 13:35:27.52	63.61	31.33	-43.9	-45.6	19.2	0.00e+00	0	41	0	593494016	60	6851
2026-01-19 13:35:28.53	63.92	31.43	-43.6	-45.2	19.2	0.00e+00	0	41	0	595591168	60	6547
2026-01-19 13:35:29.54	64.24	31.53	-43.2	-44.7	19.7	0.00e+00	0	41	0	597688320	60	6198
2026-01-19 13:35:30.55	64.55	31.63	-43.1	-44.6	19.8	0.00e+00	0	41	0	599785472	60	6117
2026-01-19 13:35:31.56	64.87	31.72	-42.9	-44.3	19.8	0.00e+00	50	41	0	600834048	60	5952
2026-01-19 13:35:32.57	65.19	31.82	-43.2	-44.7	19.6	0.00e+00	0	41	0	602931200	60	6229
2026-01-19 13:35:33.58	65.51	31.92	-43.6	-45.2	19.1	0.00e+00	42	41	0	605028352	60	6568
2026-01-19 13:35:34.59	65.84	32.02	-43.5	-45.1	19.2	0.00e+00	0	41	0	607125504	60	6501
2026-01-19 13:35:35.60	66.16	32.11	-43.6	-45.2	19.5	0.00e+00	0	41	0	609222656	60	6543
2026-01-19 13:35:36.61	66.49	32.21	-43.0	-44.4	19.9	0.00e+00	0	41	0	610271232	60	5976
2026-01-19 13:35:37.62	66.82	32.30	-42.9	-44.3	20.1	0.00e+00	0	41	0	612368384	60	5928
2026-01-19 13:35:38.63	67.15	32.40	-43.1	-44.5	19.7	0.00e+00	49	41	0	614465536	60	6097
2026-01-19 13:35:39.64	67.49	32.49	-42.7	-44.0	20.2	0.00e+00	0	41	0	616562688	58	6463
2026-01-19 13:35:40.64	67.82	32.58	-42.7	-44.1	20.2	0.00e+00	92	41	0	618659840	58	6503
2026-01-19 13:35:41.65	68.15	32.67	-42.7	-44.0	20.2	0.00e+00	0	41	0	619708416	58	6459
2026-01-19 13:35:42.66	68.49	32.76	-42.4	-43.7	20.5	0.00e+00	5	41	0	621805568	58	6194
2026-01-19 13:35:43.67	68.83	32.85	-42.7	-44.1	20.2	0.00e+00	0	41	0	623902720	58	6465
2026-01-19 13:35:44.68	69.18	32.94	-43.3	-44.8	19.5	0.00e+00	0	41	0	625999872	58	7065
2026-01-19 13:35:45.69	69.52	33.03	-44.0	-45.7	18.7	0.00e+00	39	41	0	628097024	60	6954
2026-01-19 13:35:46.70	69.87	33.12	-44.5	-46.4	18.3	0.00e+00	0	41	0	630194176	60	7523
2026-01-19 13:35:47.71	70.22	33.21	-44.8	-46.7	17.9	0.00e+00	92	41	0	631242752	60	7823
2026-01-19 13:35:48.72	70.57	33.29	-44.5	-46.3	18.2	0.00e+00	0	41	0	633339904	60	7450
2026-01-19 13:35:49.73	70.92	33.38	-43.9	-45.6	18.8	0.00e+00	40	41	0	635437056	60	6909
2026-01-19 13:35:50.74	71.27	33.46	-43.3	-44.8	19.5	0.00e+00	0	41	0	637534208	60	6294
2026-01-19 13:35:51.75	71.63	33.54	-43.3	-44.8	19.5	0.00e+00	0	41	0	639631360	60	6282
2026-01-19 13:35:52.76	71.99	33.63	-43.3	-44.8	19.6	0.00e+00	0	41	0	640679936	60	6287
2026-01-19 13:35:53.77	72.35	33.71	-43.8	-45.5	19.0	0.00e+00	0	41	0	642777088	60	6771
2026-01-19 13:35:54.78	72.71	33.79	-44.7	-46.7	17.8	0.00e+00	31	41	0	644874240	60	7777
2026-01-19 13:35:55.79	73.07	33.86	-44.9	-46.9	17.8	0.00e+00	0	41	0	646971392	60	7993
2026-01-19 13:35:56.80	73.43	33.94	-44.0	-45.7	18.8	0.00e+00	60	41	0	649068544	60	6962
2026-01-19 13:35:57.80	73.80	34.02	-43.7	-45.3	18.8	0.00e+00	0	41	0	650117120	60	6644
2026-01-19 13:35:58.81	74.16	34.09	-43.6	-45.2	19.2	0.00e+00	0	41	0	652214272	60	6569
2026-01-19 13:35:59.82	74.53	34.17	-44.4	-46.2	18.3	0.00e+00	0	41	0	654311424	60	7382
2026-01-19 13:36:00.83	74.90	34.24	-44.4	-46.3	18.4	0.00e+00	0	41	0	656408576	60	7489
2026-01-19 13:36:01.84	75.28	34.31	-44.4	-46.2	18.4	0.00e+00	69	41	0	658505728	60	7359
2026-01-19 13:36:02.85	75.65	34.39	-43.7	-45.2	19.2	0.00e+00	0	41	0	659554304	60	6596
2026-01-19 13:36:03.86	76.03	34.46	-43.3	-44.8	19.5	0.00e+00	81	41	0	661651456	60	6269
2026-01-19 13:36:04.87	76.41	34.52	-43.2	-44.6	19.8	0.00e+00	0	41	0	663748608	60	6163
2026-01-19 13:36:05.89	76.79	34.59	-43.3	-44.8	19.4	0.00e+00	0	41	0	665845760	60	6306
2026-01-19 13:36:06.89	77.17	34.66	-43.7	-45.3	19.4	0.00e+00	0	41	0	667942912	60	6683
2026-01-19 13:36:07.90	77.55	34.72	-43.6	-45.3	19.3	0.00e+00	0	41	0	668991488	60	6631
2026-01-19 13:36:08.91	77.93	34.79	-42.9	-44.3	19.9	0.00e+00	39	41	0	671088640	60	5927
2026-01-19 13:36:09.92	78.32	34.85	-42.4	-43.7	20.4	0.00e+00	0	41	0	673185792	58	6205
2026-01-19 13:36:10.93	78.70	34.91	-42.5	-43.8	20.3	0.00e+00	90	41	0	675282944	58	6314
2026-01-19 13:36:11.94	79.09	34.97	-43.1	-44.6	19.6	0.00e+00	0	41	0	677380096	58	6908
2026-01-19 13:36:12.95	79.48	35.03	-43.4	-44.9	19.4	0.00e+00	0	41	0	678428672	58	7143
2026-01-19 13:36:13.96	79.87	35.08	-43.4	-45.0	19.3	0.00e+00	0	41	0	680525824	58	7182
2026-01-19 13:36:14.97	80.26	35.14	-43.2	-44.7	19.7	0.00e+00	0	41	0	682622976	58	6941
2026-01-19 13:36:15.98	80.66	35.20	-42.6	-43.9	20.3	0.00e+00	38	41	0	684720128	58	6359
2026-01-19 13:36:16.99	81.05	35.25	-42.2	-43.5	20.5	0.00e+00	0	41	0	686817280	58	6075
2026-01-19 13:36:17.93	81.42	35.30	-42.4	-43.8	20.4	0.00e+00	92	41	0	687865856	58	6290
2026-01-19 13:36:18.94	81.82	35.35	-42.4	-43.8	20.5	0.00e+00	0	41	0	689963008	58	6283
2026-01-19 13:36:19.95	82.22	35.40	-42.1	-43.5	20.9	0.00e+00	0	41	0	692060160	58	6038
2026-01-19 13:36:20.95	82.61	35.44	-41.5	-42.7	21.4	0.00e+00	0	41	0	694157312	56	6216
2026-01-19 13:36:21.97	83.02	35.49	-41.6	-42.7	21.3	0.00e+00	0	41	0	696254464	56	6233
2026-01-19 13:36:22.97	83.41	35.53	-42.6	-44.0	20.2	0.00e+00	20	41	0	698351616	56	7212
2026-01-19 13:36:23.98	83.82	35.58	-43.1	-44.6	19.6	0.00e+00	0	41	0	699400192	58	6884
2026-01-19 13:36:24.99	84.22	35.62	-43.7	-45.3	19.3	0.00e+00	60	41	0	701497344	58	7461
2026-01-19 13:36:26.00	84.63	35.66	-43.4	-44.9	19.6	0.00e+00	0	41	0	703594496	58	7091
2026-01-19 13:36:27.01	85.03	35.70	-42.8	-44.2	20.2	0.00e+00	90	41	0	705691648	58	6549
2026-01-19 13:36:28.02	85.44	35.73	-42.3	-43.6	20.7	0.00e+00	0	41	0	706740224	58	6148
2026-01-19 13:36:29.03	85.85	35.77	-41.8	-43.0	20.9	0.00e+00	0	41	0	708837376	58	5712
2026-01-19 13:36:30.04	86.26	35.80	-42.0	-43.2	20.8	0.00e+00	0	41	0	710934528	58	5890
2026-01-19 13:36:31.05	86.66	35.83	-42.3	-43.5	20.4	0.00e+00	0	41	0	713031680	58	6092
2026-01-19 13:36:32.06	87.08	35.86	-42.6	-44.0	20.1	0.00e+00	89	41	0	715128832	58	6403
2026-01-19 13:36:33.07	87.49	35.89	-42.9	-44.3	19.9	0.00e+00	0	41	0	716177408	58	6658
2026-01-19 13:36:34.08	87.90	35.92	-43.6	-45.2	19.1	0.00e+00	91	41	0	718274560	58	7368
2026-01-19 13:36:35.08	88.31	35.95	-43.9	-45.5	18.9	0.00e+00	33	41	0	720371712	60	6846
2026-01-19 13:36:36.09	88.72	35.97	-44.5	-46.3	18.3	0.00e+00	0	41	0	722468864	60	7458
2026-01-19 13:36:37.10	89.13	35.99	-44.6	-46.4	17.9	0.00e+00	0	41	0	724566016	60	7586
2026-01-19 13:36:38.12	89.55	36.01	-44.5	-46.4	18.1	0.00e+00	0	41	0	726663168	60	7522
2026-01-19 13:36:39.12	89.96	36.03	-44.4	-46.2	18.4	0.00e+00	35	41	0	727711744	60	7397
2026-01-19 13:36:40.13	90.38	36.05	-44.0	-45.7	18.8	0.00e+00	0	41	0	729808896	60	7000
2026-01-19 13:36:41.14	90.79	36.07	-43.3	-44.9	19.4	0.00e+00	92	41	0	731906048	60	6342
2026-01-19 13:36:42.15	91.21	36.08	-43.1	-44.7	19.7	0.00e+00	0	41	0	734003200	60	6237
2026-01-19 13:36:43.16	91.62	36.09	-42.8	-44.3	20.0	0.00e+00	0	41	0	736100352	58	6665
2026-01-19 13:36:44.17	92.04	36.11	-42.8	-44.3	19.6	0.00e+00	0	41	0	737148928	58	6629
2026-01-19 13:36:45.18	92.46	36.11	-43.6	-45.2	19.2	0.00e+00	0	41	0	739246080	58	7353
2026-01-19 13:36:46.18	92.87	36.12	-43.7	-45.3	18.8	0.00e+00	40	41	0	741343232	60	6618
2026-01-19 13:36:47.19	93.29	36.13	-44.1	-46.0	18.6	0.00e+00	0	41	0	743440384	60	7176
2026-01-19 13:36:48.20	93.71	36.13	-44.2	-46.0	18.5	0.00e+00	90	41	0	745537536	60	7243
2026-01-19 13:36:49.21	94.12	36.14	-43.9	-45.5	19.0	0.00e+00	0	41	0	746586112	60	6847
2026-01-19 13:36:50.22	94.54	36.14	-43.5	-45.1	19.5	0.00e+00	0	41	0	748683264	60	6508
2026-01-19 13:36:51.23	94.96	36.14	-42.9	-44.3	20.1	0.00e+00	0	41	0	750780416	60	5918
2026-01-19 13:36:52.24	95.38	36.13	-42.8	-44.2	20.1	0.00e+00	0	41	0	752877568	58	6574
2026-01-19 13:36:53.25	95.79	36.13	-42.4	-43.7	20.6	0.00e+00	21	41	0	754974720	58	6205
2026-01-19 13:36:54.26	96.21	36.12	-42.4	-43.7	20.6	0.00e+00	33	41	0	756023296	58	6189
2026-01-19 13:36:55.26	96.62	36.12	-42.4	-43.7	20.3	0.00e+00	33	41	0	758120448	58	6196
2026-01-19 13:36:56.27	97.04	36.11	-42.6	-43.9	20.3	0.00e+00	0	41	0	760217600	58	6385
2026-01-19 13:36:57.28	97.46	36.10	-43.0	-44.5	20.0	0.00e+00	68	41	0	762314752	58	6805
2026-01-19 13:36:58.29	97.87	36.09	-43.9	-45.6	18.7	0.00e+00	0	41	0	764411904	58	7759
2026-01-19 13:36:59.30	98.29	36.07	-45.0	-47.1	17.2	0.00e+00	0	41	0	765460480	60	8149
2026-01-19 13:37:00.31	98.71	36.06	-45.4	-47.7	16.9	0.00e+00	37	41	0	767557632	60	8789
2026-01-19 13:37:01.32	99.12	36.04	-44.7	-46.7	17.8	0.00e+00	0	41	0	769654784	60	7802
2026-01-19 13:37:02.33	99.54	36.02	-43.6	-45.3	19.2	0.00e+00	33	41	0	771751936	60	6628
2026-01-19 13:37:03.34	99.95	36.00	-43.4	-45.0	19.5	0.00e+00	0	41	0	773849088	60	6418
2026-01-19 13:37:04.35	100.37	35.98	-43.7	-45.4	18.9	0.00e+00	92	41	0	774897664	60	6703
2026-01-19 13:37:05.36	100.78	35.95	-43.7	-45.3	19.0	0.00e+00	0	41	0	776994816	60	6676
2026-01-19 13:37:06.37	101.19	35.93	-43.4	-45.0	19.4	0.00e+00	0	41	0	779091968	60	6406
2026-01-19 13:37:07.38	101.60	35.90	-42.9	-44.3	19.9	0.00e+00	30	41	0	781189120	60	5919
2026-01-19 13:37:08.39	102.02	35.87	-42.7	-44.1	20.1	0.00e+00	0	41	0	783286272	58	6502
2026-01-19 13:37:09.40	102.43	35.84	-43.2	-44.9	19.3	0.00e+00	19	41	0	784334848	58	7100
2026-01-19 13:37:10.41	102.84	35.81	-44.1	-46.1	18.3	0.00e+00	0	41	0	786432000	60	7318
2026-01-19 13:37:11.42	103.25	35.78	-44.9	-47.1	17.5	0.00e+00	81	41	0	788529152	60	8183
2026-01-19 13:37:12.43	103.65	35.74	-44.0	-45.7	18.8	0.00e+00	0	41	0	790626304	60	6990
2026-01-19 13:37:13.44	104.06	35.71	-43.2	-44.6	19.6	0.00e+00	0	41	0	792723456	60	6173
2026-01-19 13:37:14.45	104.47	35.67	-42.9	-44.3	20.0	0.00e+00	0	41	0	794820608	60	5950
2026-01-19 13:37:15.46	104.87	35.63	-43.3	-44.7	19.6	0.00e+00	0	41	0	795869184	58	6989
2026-01-19 13:37:16.47	105.28	35.59	-44.4	-46.2	18.2	0.00e+00	43	41	0	797966336	60	7396
2026-01-19 13:37:17.47	105.68	35.55	-44.7	-46.5	18.1	0.00e+00	0	41	0	800063488	60	7681
2026-01-19 13:37:18.49	106.09	35.50	-44.4	-46.2	18.4	0.00e+00	92	41	0	802160640	60	7414
2026-01-19 13:37:19.49	106.48	35.46	-44.3	-46.0	18.5	0.00e+00	0	41	0	804257792	60	7200
2026-01-19 13:37:20.50	106.88	35.41	-44.6	-46.4	17.9	0.00e+00	0	41	0	805306368	60	7579
2026-01-19 13:37:21.51	107.28	35.36	-45.8	-48.2	16.5	0.00e+00	0	41	0	807403520	60	9284
2026-01-19 13:37:22.52	107.68	35.31	-46.2	-48.9	15.7	0.00e+00	0	41	0	809500672	60	10125
2026-01-19 13:37:23.53	108.08	35.26	-45.6	-47.9	16.9	0.00e+00	57	41	0	811597824	60	8969
2026-01-19 13:37:24.54	108.47	35.21	-44.8	-46.8	17.5	0.00e+00	0	41	0	813694976	60	7943
2026-01-19 13:37:25.55	108.87	35.15	-44.7	-46.6	18.0	0.00e+00	92	41	0	814743552	60	7738
2026-01-19 13:37:26.56	109.26	35.10	-44.8	-46.9	17.6	0.00e+00	0	41	0	816840704	60	7964
2026-01-19 13:37:27.57	109.65	35.04	-45.4	-47.7	16.8	0.00e+00	0	41	0	818937856	60	8744
2026-01-19 13:37:28.58	110.04	34.98	-46.4	-49.2	15.3	0.00e+00	0	41	0	821035008	60	10393
2026-01-19 13:37:29.59	110.43	34.92	-46.3	-48.9	15.7	0.00e+00	0	41	0	823132160	60	10122
2026-01-19 13:37:30.60	110.82	34.86	-45.9	-48.2	16.4	0.00e+00	26	41	0	824180736	60	9307
2026-01-19 13:37:31.61	111.21	34.80	-45.0	-47.0	17.6	0.00e+00	0	41	0	826277888	60	8115
2026-01-19 13:37:32.61	111.59	34.74	-44.1	-45.8	18.6	0.00e+00	65	41	0	828375040	60	7018
2026-01-19 13:37:33.62	111.97	34.67	-43.7	-45.2	19.3	0.00e+00	0	41	0	830472192	60	6605
2026-01-19 13:37:34.63	112.35	34.61	-42.9	-44.3	20.0	0.00e+00	92	41	0	832569344	60	5914
2026-01-19 13:37:35.64	112.73	34.54	-42.5	-43.8	20.4	0.00e+00	0	41	0	833617920	58	6288
2026-01-19 13:37:36.65	113.11	34.47	-42.3	-43.6	20.6	0.00e+00	0	41	0	835715072	58	6124
2026-01-19 13:37:37.66	113.49	34.40	-42.5	-43.8	20.2	0.00e+00	0	41	0	837812224	58	6304
2026-01-19 13:37:38.67	113.86	34.33	-42.6	-43.9	20.2	0.00e+00	0	41	0	839909376	58	6361
2026-01-19 13:37:39.68	114.24	34.26	-43.0	-44.5	19.9	0.00e+00	59	41	0	842006528	58	6780
2026-01-19 13:37:40.69	114.61	34.18	-43.4	-44.9	19.7	0.00e+00	0	41	0	843055104	58	7115
2026-01-19 13:37:41.70	114.98	34.11	-44.4	-46.2	18.1	0.00e+00	90	41	0	845152256	60	7410
2026-01-19 13:37:42.71	115.35	34.03	-44.8	-46.6	18.3	0.00e+00	0	41	0	847249408	60	7751
2026-01-19 13:37:43.72	115.72	33.96	-44.0	-45.6	19.0	0.00e+00	0	41	0	849346560	60	6903
2026-01-19 13:37:44.73	116.08	33.88	-43.1	-44.5	19.8	0.00e+00	0	41	0	851443712	60	6072
2026-01-19 13:37:45.74	116.45	33.80	-43.0	-44.5	19.9	0.00e+00	0	41	0	852492288	58	6800
2026-01-19 13:37:46.75	116.81	33.72	-42.5	-43.8	20.4	0.00e+00	30	41	0	854589440	58	6297
2026-01-19 13:37:47.76	117.17	33.64	-42.5	-43.7	20.4	0.00e+00	0	41	0	856686592	58	6244
2026-01-19 13:37:48.77	117.53	33.56	-42.5	-43.8	20.5	0.00e+00	90	41	0	858783744	58	6250
2026-01-19 13:37:49.78	117.88	33.47	-42.2	-43.5	20.7	0.00e+00	0	41	0	860880896	58	6091
2026-01-19 13:37:50.79	118.24	33.39	-41.7	-42.9	21.1	0.00e+00	0	41	0	862978048	56	6386
2026-01-19 13:37:51.80	118.59	33.31	-41.6	-42.8	21.3	0.00e+00	0	41	0	864026624	56	6292
2026-01-19 13:37:52.80	118.94	33.22	-41.3	-42.4	21.7	0.00e+00	0	41	0	866123776	56	5986
2026-01-19 13:37:53.82	119.29	33.13	-41.4	-42.5	21.5	0.00e+00	22	41	0	868220928	56	6089
2026-01-19 13:37:54.82	119.64	33.05	-41.9	-43.0	21.1	0.00e+00	0	41	0	870318080	56	6460
2026-01-19 13:37:55.83	119.98	32.96	-41.9	-43.1	21.1	0.00e+00	81	41	0	872415232	56	6522
2026-01-19 13:37:56.84	120.33	32.87	-41.5	-42.7	21.4	0.00e+00	0	41	0	873463808	56	6188
2026-01-19 13:37:57.85	120.67	32.78	-41.8	-42.9	21.0	0.00e+00	0	41	0	875560960	56	6387
2026-01-19 13:37:58.86	121.01	32.69	-42.7	-44.1	20.1	0.00e+00	0	41	0	877658112	56	7281
2026-01-19 13:37:59.87	121.35	32.60	-44.5	-46.5	17.7	0.00e+00	0	41	0	879755264	60	7643
2026-01-19 13:38:00.88	121.69	32.50	-46.1	-48.9	15.6	0.00e+00	36	41	0	881852416	60	10126
2026-01-19 13:38:01.89	122.02	32.41	-45.6	-48.2	16.5	0.00e+00	0	41	0	882900992	60	9242
2026-01-19 13:38:02.90	122.35	32.32	-43.8	-45.5	18.9	0.00e+00	92	41	0	884998144	60	6805
2026-01-19 13:38:03.91	122.68	32.22	-41.3	-42.4	21.8	0.00e+00	0	41	0	887095296	56	5974
2026-01-19 13:38:04.92	123.01	32.12	-40.3	-41.3	22.6	0.00e+00	89	41	0	889192448	54	5935
2026-01-19 13:38:05.93	123.34	32.03	-40.5	-41.5	22.2	0.00e+00	0	41	0	891289600	54	6091
2026-01-19 13:38:06.94	123.67	31.93	-41.0	-42.1	21.6	0.00e+00	0	41	0	892338176	54	6511
2026-01-19 13:38:07.95	123.99	31.83	-41.4	-42.5	21.5	0.00e+00	22	41	0	894435328	54	6828
2026-01-19 13:38:08.95	124.31	31.74	-40.5	-41.5	22.3	0.00e+00	0	41	0	896532480	54	6062
2026-01-19 13:38:09.96	124.63	31.64	-39.5	-40.4	23.2	0.00e+00	92	41	0	898629632	52	5999
2026-01-19 13:38:10.97	124.94	31.54	-39.4	-40.3	23.4	0.00e+00	0	41	0	900726784	52	5929
2026-01-19 13:38:11.98	125.26	31.44	-39.4	-40.3	23.3	0.00e+00	19	41	0	901775360	52	5945
2026-01-19 13:38:12.99	125.57	31.34	-40.0	-40.9	22.9	0.00e+00	0	41	0	903872512	52	6389
2026-01-19 13:38:14.00	125.89	31.23	-40.4	-41.5	22.5	0.00e+00	0	41	0	905969664	52	6773
2026-01-19 13:38:15.01	126.20	31.13	-40.5	-41.6	22.4	0.00e+00	10	41	0	908066816	52	6892
2026-01-19 13:38:16.02	126.50	31.03	-39.6	-40.6	23.1	0.00e+00	0	41	0	910163968	52	6133
2026-01-19 13:38:17.03	126.81	30.93	-38.9	-39.8	23.7	0.00e+00	11	41	0	911212544	52	5598
2026-01-19 13:38:18.04	127.11	30.82	-38.7	-39.5	23.8	0.00e+00	0	41	0	913309696	52	5432
2026-01-19 13:38:19.05	127.42	30.72	-39.3	-40.3	23.2	0.00e+00	28	41	0	915406848	50	6625
2026-01-19 13:38:20.06	127.72	30.61	-40.8	-41.9	22.0	0.00e+00	0	41	0	917504000	52	7090
2026-01-19 13:38:21.07	128.02	30.51	-41.6	-42.8	21.2	0.00e+00	0	41	0	919601152	54	7028
2026-01-19 13:38:22.07	128.31	30.41	-41.6	-42.8	21.5	0.00e+00	33	41	0	920649728	56	6286
2026-01-19 13:38:23.08	128.60	30.30	-39.5	-40.5	23.3	0.00e+00	0	41	0	922746880	52	6060
2026-01-19 13:38:24.10	128.90	30.19	-38.7	-39.6	23.8	0.00e+00	81	41	0	924844032	52	5443
2026-01-19 13:38:25.10	129.19	30.09	-38.4	-39.2	24.1	0.00e+00	33	41	0	926941184	50	5875
2026-01-19 13:38:26.11	129.48	29.98	-39.1	-40.0	23.4	0.00e+00	91	41	0	929038336	50	6432
2026-01-19 13:38:27.12	129.76	29.87	-40.4	-41.4	22.4	0.00e+00	0	41	0	930086912	52	6760
2026-01-19 13:38:28.13	130.05	29.76	-40.4	-41.4	22.4	0.00e+00	0	41	0	932184064	52	6739
2026-01-19 13:38:29.14	130.33	29.66	-40.1	-41.1	22.7	0.00e+00	0	41	0	934281216	52	6505
2026-01-19 13:38:30.15	130.61	29.55	-39.7	-40.7	23.1	0.00e+00	0	41	0	936378368	52	6192
2026-01-19 13:38:31.16	130.89	29.44	-39.5	-40.4	23.3	0.00e+00	31	41	0	938475520	52	6010
2026-01-19 13:38:32.17	131.17	29.33	-39.6	-40.6	23.2	0.00e+00	33	41	0	939524096	52	6111
2026-01-19 13:38:33.18	131.45	29.22	-40.7	-41.8	21.3	0.00e+00	92	41	0	941621248	52	7018
2026-01-19 13:38:34.19	131.72	29.11	-41.5	-42.7	21.2	0.00e+00	0	41	0	943718400	54	6997
2026-01-19 13:38:35.19	131.99	29.00	-41.0	-42.2	21.6	0.00e+00	0	41	0	945815552	54	6564
2026-01-19 13:38:36.20	132.26	28.89	-40.8	-41.9	22.0	0.00e+00	0	41	0	947912704	54	6386
2026-01-19 13:38:37.21	132.53	28.78	-40.3	-41.3	22.5	0.00e+00	0	41	0	948961280	54	5924
2026-01-19 13:38:38.22	132.80	28.67	-40.2	-41.2	22.4	0.00e+00	35	41	0	951058432	54	5854
2026-01-19 13:38:39.23	133.06	28.56	-40.2	-41.2	22.4	0.00e+00	0	41	0	953155584	54	5885
2026-01-19 13:38:40.24	133.33	28.45	-41.0	-42.2	21.8	0.00e+00	76	41	0	955252736	54	6577
2026-01-19 13:38:41.25	133.59	28.34	-41.0	-42.2	21.7	0.00e+00	0	41	0	957349888	54	6550
2026-01-19 13:38:42.26	133.85	28.23	-40.4	-41.4	22.3	0.00e+00	81	41	0	959447040	54	6009
2026-01-19 13:38:43.27	134.11	28.11	-39.4	-40.3	23.4	0.00e+00	0	41	0	960495616	52	5926
2026-01-19 13:38:44.28	134.36	28.00	-38.3	-39.2	24.1	0.00e+00	0	41	0	962592768	50	5842
2026-01-19 13:38:45.29	134.62	27.89	-38.2	-39.0	24.1	0.00e+00	0	41	0	964689920	50	5733
2026-01-19 13:38:46.30	134.87	27.78	-39.0	-39.9	23.5	0.00e+00	0	41	0	966787072	50	6343
2026-01-19 13:38:47.31	135.12	27.67	-40.0	-41.0	22.6	0.00e+00	36	41	0	968884224	52	6449
2026-01-19 13:38:48.32	135.37	27.55	-41.2	-42.4	21.6	0.00e+00	0	41	0	969932800	54	6722
2026-01-19 13:38:49.32	135.62	27.44	-41.7	-42.9	21.2	0.00e+00	92	41	0	972029952	56	6376
2026-01-19 13:38:50.33	135.86	27.33	-40.8	-42.0	22.0	0.00e+00	0	41	0	974127104	56	5700
2026-01-19 13:38:51.34	136.11	27.22	-40.6	-41.7	22.3	0.00e+00	0	41	0	976224256	54	6233
2026-01-19 13:38:52.35	136.35	27.10	-40.2	-41.2	22.5	0.00e+00	0	41	0	978321408	54	5847
2026-01-19 13:38:53.36	136.59	26.99	-40.0	-41.0	22.6	0.00e+00	0	41	0	979369984	54	5727
2026-01-19 13:38:54.37	136.83	26.88	-40.3	-41.4	22.4	0.00e+00	26	41	0	981467136	54	5981
2026-01-19 13:38:55.38	137.07	26.77	-40.1	-41.1	22.6	0.00e+00	0	41	0	983564288	54	5813
2026-01-19 13:38:56.39	137.30	26.65	-39.8	-40.7	23.0	0.00e+00	91	41	0	985661440	52	6233
2026-01-19 13:38:57.40	137.54	26.54	-39.1	-40.0	23.5	0.00e+00	0	41	0	987758592	52	5712
2026-01-19 13:38:58.42	137.77	26.43	-38.5	-39.3	24.0	0.00e+00	0	41	0	988807168	50	5955
2026-01-19 13:38:59.42	138.00	26.31	-37.8	-38.6	24.3	0.00e+00	0	41	0	990904320	50	5464
2026-01-19 13:39:00.43	138.23	26.20	-38.0	-38.8	24.1	0.00e+00	0	41	0	993001472	48	6304
2026-01-19 13:39:01.44	138.46	26.09	-38.3	-39.2	24.1	0.00e+00	21	41	0	995098624	48	6544
2026-01-19 13:39:02.45	138.68	25.97	-38.9	-39.8	23.7	0.00e+00	0	41	0	997195776	50	6257
2026-01-19 13:39:03.46	138.91	25.86	-39.4	-40.3	23.1	0.00e+00	95	41	0	998244352	50	6673
2026-01-19 13:39:04.47	139.13	25.75	-39.9	-40.9	22.7	0.00e+00	0	41	0	1000341504	52	6385
2026-01-19 13:39:05.48	139.35	25.64	-39.9	-40.9	22.8	0.00e+00	0	41	0	1002438656	52	6328
2026-01-19 13:39:06.49	139.57	25.52	-39.8	-40.8	23.0	0.00e+00	0	41	0	1004535808	52	6257
2026-01-19 13:39:07.50	139.79	25.41	-39.2	-40.1	23.4	0.00e+00	0	41	0	1006632960	52	5817
2026-01-19 13:39:08.51	140.01	25.30	-39.1	-39.9	23.6	0.00e+00	29	41	0	1007681536	52	5695
2026-01-19 13:39:09.52	140.23	25.18	-39.1	-40.0	23.6	0.00e+00	0	41	0	1009778688	52	5705
2026-01-19 13:39:10.53	140.44	25.07	-39.2	-40.1	23.4	0.00e+00	92	41	0	1011875840	52	5815
2026-01-19 13:39:11.54	140.65	24.96	-39.6	-40.6	23.1	0.00e+00	0	41	0	1013972992	52	6117
2026-01-19 13:39:12.54	140.86	24.85	-39.8	-40.8	22.8	0.00e+00	0	41	0	1016070144	52	6305
2026-01-19 13:39:13.55	141.07	24.74	-39.7	-40.7	22.9	0.00e+00	0	41	0	1017118720	52	6219
2026-01-19 13:39:14.56	141.28	24.62	-39.5	-40.4	23.1	0.00e+00	0	41	0	1019215872	52	6026
2026-01-19 13:39:15.57	141.49	24.51	-38.8	-39.7	23.7	0.00e+00	31	41	0	1021313024	52	5527
2026-01-19 13:39:16.58	141.69	24.40	-38.5	-39.3	23.9	0.00e+00	0	41	0	1023410176	50	5947
2026-01-19 13:39:17.59	141.90	24.29	-37.9	-38.7	24.3	0.00e+00	92	41	0	1025507328	50	5536
2026-01-19 13:39:18.60	142.10	24.17	-37.7	-38.6	24.5	0.00e+00	0	41	0	1027604480	48	6108
2026-01-19 13:39:19.61	142.30	24.06	-37.7	-38.5	24.5	0.00e+00	91	41	0	1028653056	48	6055
2026-01-19 13:39:20.62	142.50	23.95	-38.1	-38.9	24.3	0.00e+00	0	41	0	1030750208	48	6370
2026-01-19 13:39:21.63	142.70	23.84	-38.4	-39.3	24.1	0.00e+00	0	41	0	1032847360	48	6660
2026-01-19 13:39:22.64	142.89	23.73	-38.6	-39.5	23.8	0.00e+00	0	41	0	1034944512	48	6834
2026-01-19 13:39:23.65	143.09	23.62	-38.9	-39.8	23.6	0.00e+00	0	41	0	1037041664	50	6296
2026-01-19 13:39:24.66	143.28	23.51	-38.8	-39.7	23.7	0.00e+00	29	41	0	1038090240	50	6193
2026-01-19 13:39:25.67	143.48	23.39	-38.7	-39.5	23.9	0.00e+00	0	41	0	1040187392	50	6091
2026-01-19 13:39:26.68	143.67	23.28	-38.4	-39.3	23.9	0.00e+00	92	41	0	1042284544	50	5900
2026-01-19 13:39:27.69	143.86	23.17	-38.1	-38.9	24.2	0.00e+00	0	41	0	1044381696	50	5692
2026-01-19 13:39:28.70	144.05	23.06	-37.8	-38.6	24.4	0.00e+00	0	41	0	1046478848	50	5495
2026-01-19 13:39:29.71	144.24	22.95	-38.1	-38.9	24.3	0.00e+00	0	41	0	1047527424	50	5661
2026-01-19 13:39:30.72	144.42	22.84	-37.9	-38.8	23.7	0.00e+00	0	41	0	1049624576	50	5569
2026-01-19 13:39:31.73	144.61	22.73	-38.2	-39.0	24.1	0.00e+00	92	41	0	1051721728	50	5752
2026-01-19 13:39:32.74	144.79	22.62	-38.5	-39.4	23.8	0.00e+00	0	41	0	1053818880	50	5978
2026-01-19 13:39:33.75	144.97	22.51	-38.6	-39.5	23.9	0.00e+00	62	41	0	1055916032	50	6057
2026-01-19 13:39:34.76	145.16	22.40	-38.6	-39.4	23.4	0.00e+00	0	41	0	1056964608	50	6032
2026-01-19 13:39:35.77	145.34	22.29	-38.9	-39.9	23.0	0.00e+00	0	41	0	1059061760	50	6322
2026-01-19 13:39:36.78	145.51	22.18	-38.7	-39.5	23.7	0.00e+00	0	41	0	1061158912	50	6095
2026-01-19 13:39:37.79	145.69	22.08	-38.5	-39.4	23.8	0.00e+00	0	41	0	1063256064	50	5968
2026-01-19 13:39:38.80	145.87	21.97	-38.4	-39.3	23.9	0.00e+00	43	41	0	1065353216	50	5941
2026-01-19 13:39:39.81	146.04	21.86	-38.3	-39.2	23.9	0.00e+00	0	41	0	1066401792	50	5834
2026-01-19 13:39:40.82	146.22	21.75	-38.2	-39.1	24.1	0.00e+00	91	41	0	1068498944	50	5772
2026-01-19 13:39:41.83	146.39	21.64	-38.1	-39.0	24.2	0.00e+00	0	41	0	1070596096	50	5719
2026-01-19 13:39:42.83	146.56	21.53	-38.1	-39.0	24.2	0.00e+00	0	41	0	1072693248	50	5712
2026-01-19 13:39:43.84	146.73	21.43	-38.4	-39.3	24.0	0.00e+00	0	41	0	1074790400	50	5916
2026-01-19 13:39:44.85	146.90	21.32	-38.5	-39.4	23.9	0.00e+00	0	41	0	1075838976	50	6017
2026-01-19 13:39:45.86	147.07	21.21	-38.4	-39.3	24.0	0.00e+00	31	41	0	1077936128	50	5933
2026-01-19 13:39:46.87	147.24	21.10	-38.5	-39.4	23.8	0.00e+00	0	41	0	1080033280	50	5978
2026-01-19 13:39:47.88	147.40	21.00	-38.8	-39.8	23.6	0.00e+00	92	41	0	1082130432	50	6247
2026-01-19 13:39:48.89	147.57	20.89	-38.5	-39.4	24.0	0.00e+00	0	41	0	1084227584	50	6009
2026-01-19 13:39:49.90	147.73	20.78	-38.7	-39.6	23.6	0.00e+00	79	41	0	1085276160	50	6135
2026-01-19 13:39:50.91	147.89	20.68	-38.6	-39.5	23.8	0.00e+00	0	41	0	1087373312	50	6060
2026-01-19 13:39:51.92	148.06	20.57	-38.6	-39.5	23.8	0.00e+00	0	41	0	1089470464	50	6071
2026-01-19 13:39:52.93	148.22	20.47	-38.7	-39.6	23.8	0.00e+00	32	41	0	1091567616	50	6148
2026-01-19 13:39:53.94	148.38	20.36	-38.6	-39.5	23.7	0.00e+00	0	41	0	1093664768	50	6083
2026-01-19 13:39:54.95	148.53	20.26	-38.8	-39.7	23.6	0.00e+00	91	41	0	1095761920	50	6239
2026-01-19 13:39:55.96	148.69	20.15	-38.7	-39.6	23.6	0.00e+00	0	41	0	1096810496	50	6104
2026-01-19 13:39:56.97	148.85	20.05	-38.6	-39.4	23.8	0.00e+00	89	41	0	1098907648	50	6023
2026-01-19 13:39:57.98	149.00	19.94	-38.8	-39.7	23.7	0.00e+00	0	41	0	1101004800	50	6201
2026-01-19 13:39:58.98	149.16	19.84	-38.7	-39.6	23.7	0.00e+00	0	41	0	1103101952	50	6159
2026-01-19 13:39:59.99	149.31	19.73	-38.9	-39.8	23.4	0.00e+00	0	41	0	1105199104	50	6304
2026-01-19 13:40:01.00	149.46	19.63	-39.1	-40.0	23.5	0.00e+00	0	41	0	1106247680	50	6456
2026-01-19 13:40:02.01	149.61	19.53	-39.3	-40.3	23.1	0.00e+00	0	41	0	1108344832	50	6643
2026-01-19 13:40:03.02	149.76	19.42	-39.7	-40.6	22.8	0.00e+00	0	41	0	1110441984	50	6924
2026-01-19 13:40:04.03	149.91	19.32	-39.7	-40.7	22.8	0.00e+00	90	41	0	1112539136	52	6231
2026-01-19 13:40:05.04	150.06	19.22	-40.0	-41.0	22.6	0.00e+00	0	41	0	1114636288	52	6429
2026-01-19 13:40:06.05	150.21	19.11	-40.2	-41.2	22.4	0.00e+00	0	41	0	1115684864	52	6567
2026-01-19 13:40:07.06	150.36	19.01	-40.0	-41.0	22.6	0.00e+00	0	41	0	1117782016	52	6433
2026-01-19 13:40:08.07	150.50	18.91	-40.1	-41.1	22.5	0.00e+00	0	41	0	1119879168	52	6532
2026-01-19 13:40:09.07	150.64	18.81	-40.1	-41.1	22.4	0.00e+00	27	41	0	1121976320	52	6517
2026-01-19 13:40:10.08	150.79	18.71	-40.3	-41.3	22.4	0.00e+00	0	41	0	1124073472	52	6670
2026-01-19 13:40:11.10	150.93	18.60	-40.7	-41.8	21.9	0.00e+00	92	41	0	1125122048	52	7043
2026-01-19 13:40:12.10	151.07	18.50	-40.7	-41.7	22.0	0.00e+00	0	41	0	1127219200	54	6239
2026-01-19 13:40:13.12	151.21	18.40	-41.0	-42.1	21.6	0.00e+00	0	41	0	1129316352	54	6539
2026-01-19 13:40:14.12	151.35	18.30	-41.3	-42.5	21.2	0.00e+00	0	41	0	1131413504	54	6801
2026-01-19 13:40:15.13	151.49	18.20	-41.5	-42.7	21.1	0.00e+00	0	41	0	1133510656	54	6939
2026-01-19 13:40:16.14	151.63	18.10	-42.2	-43.5	20.6	0.00e+00	90	41	0	1134559232	56	6836
2026-01-19 13:40:17.15	151.77	18.00	-41.9	-43.2	20.7	0.00e+00	0	41	0	1136656384	56	6575
2026-01-19 13:40:18.16	151.90	17.90	-41.6	-42.8	21.0	0.00e+00	92	41	0	1138753536	56	6315
2026-01-19 13:40:19.17	152.04	17.80	-41.3	-42.5	21.3	0.00e+00	3	41	0	1140850688	56	6098
2026-01-19 13:40:20.18	152.17	17.70	-41.1	-42.3	21.5	0.00e+00	0	41	0	1142947840	56	5964
2026-01-19 13:40:21.19	152.31	17.60	-40.6	-41.8	21.7	0.00e+00	0	41	0	1143996416	54	6266
2026-01-19 13:40:22.20	152.44	17.50	-40.2	-41.3	22.4	0.00e+00	0	41	0	1146093568	54	5933
2026-01-19 13:40:23.21	152.57	17.41	-39.7	-40.7	22.7	0.00e+00	29	41	0	1148190720	52	6192
2026-01-19 13:40:24.22	152.71	17.31	-40.0	-41.0	22.5	0.00e+00	0	41	0	1150287872	52	6423
2026-01-19 13:40:25.22	152.83	17.21	-39.6	-40.6	22.7	0.00e+00	92	41	0	1152385024	52	6132
2026-01-19 13:40:26.24	152.97	17.11	-39.8	-40.8	22.6	0.00e+00	0	41	0	1153433600	52	6282
2026-01-19 13:40:27.24	153.09	17.01	-40.0	-41.1	22.4	0.00e+00	90	41	0	1155530752	52	6488
2026-01-19 13:40:28.25	153.22	16.92	-40.6	-41.7	21.9	0.00e+00	0	41	0	1157627904	52	6945
2026-01-19 13:40:29.26	153.35	16.82	-40.8	-42.0	21.6	0.00e+00	0	41	0	1159725056	54	6415
2026-01-19 13:40:30.27	153.48	16.72	-41.2	-42.5	21.1	0.00e+00	0	41	0	1161822208	54	6770
2026-01-19 13:40:31.28	153.60	16.63	-41.6	-43.0	20.5	0.00e+00	0	41	0	1163919360	54	7173
2026-01-19 13:40:32.29	153.73	16.53	-42.0	-43.5	20.0	0.00e+00	90	41	0	1164967936	56	6819
2026-01-19 13:40:33.30	153.85	16.43	-42.2	-43.8	19.6	0.00e+00	0	41	0	1167065088	56	7078
2026-01-19 13:40:34.31	153.97	16.34	-42.5	-44.2	19.3	0.00e+00	91	41	0	1169162240	56	7344
2026-01-19 13:40:35.32	154.10	16.24	-42.8	-44.5	18.8	0.00e+00	0	41	0	1171259392	58	6832
2026-01-19 13:40:36.33	154.22	16.15	-43.0	-44.9	18.4	0.00e+00	0	41	0	1173356544	58	7097
2026-01-19 13:40:37.34	154.34	16.05	-43.1	-44.9	18.3	0.00e+00	0	41	0	1174405120	58	7133
2026-01-19 13:40:38.35	154.46	15.96	-43.3	-45.2	18.1	0.00e+00	0	41	0	1176502272	58	7368
2026-01-19 13:40:39.36	154.58	15.86	-43.7	-45.7	17.6	0.00e+00	31	41	0	1178599424	58	7822
2026-01-19 13:40:40.37	154.70	15.77	-44.0	-46.1	17.1	0.00e+00	0	41	0	1180696576	60	7319
2026-01-19 13:40:41.38	154.82	15.68	-44.2	-46.4	16.8	0.00e+00	92	41	0	1182793728	60	7514
2026-01-19 13:40:42.39	154.93	15.58	-44.0	-46.1	17.1	0.00e+00	0	41	0	1183842304	60	7329
2026-01-19 13:40:43.40	155.05	15.49	-44.1	-46.3	16.9	0.00e+00	0	41	0	1185939456	60	7477
2026-01-19 13:40:44.41	155.17	15.40	-44.0	-46.1	17.1	0.00e+00	0	41	0	1188036608	60	7289
2026-01-19 13:40:45.41	155.28	15.30	-43.7	-45.7	17.5	0.00e+00	0	41	0	1190133760	60	6975
2026-01-19 13:40:46.42	155.40	15.21	-43.8	-45.8	17.6	0.00e+00	91	41	0	1192230912	60	7027
2026-01-19 13:40:47.43	155.51	15.12	-43.5	-45.3	17.9	0.00e+00	0	41	0	1193279488	60	6657
2026-01-19 13:40:48.44	155.62	15.03	-43.1	-44.8	18.6	0.00e+00	81	41	0	1195376640	60	6282
2026-01-19 13:40:49.45	155.74	14.93	-42.8	-44.5	19.0	0.00e+00	0	41	0	1197473792	60	6076
2026-01-19 13:40:50.46	155.85	14.84	-42.5	-44.0	19.4	0.00e+00	0	41	0	1199570944	58	6455
2026-01-19 13:40:51.47	155.96	14.75	-42.2	-43.6	19.9	0.00e+00	0	41	0	1201668096	58	6168
2026-01-19 13:40:52.48	156.07	14.66	-41.8	-43.2	20.5	0.00e+00	0	41	0	1202716672	56	6549
2026-01-19 13:40:53.49	156.18	14.57	-41.6	-42.9	20.7	0.00e+00	41	41	0	1204813824	56	6360
2026-01-19 13:40:54.50	156.29	14.48	-41.1	-42.3	21.3	0.00e+00	0	41	0	1206910976	56	5952
2026-01-19 13:40:55.51	156.40	14.39	-40.8	-42.0	21.7	0.00e+00	92	41	0	1209008128	56	5711
2026-01-19 13:40:56.52	156.51	14.30	-40.6	-41.7	21.9	0.00e+00	0	41	0	1211105280	54	6185
