passes_logs/2026/01/19/R4.6S_Anadyr/R4.6S_Anadyr__20260119_144002_NOAA_21_JPSS-2_rec.log

#Pass ID: 20260119_144002_NOAA 21 (JPSS-2)
#Satellite: NOAA 21 (JPSS-2)
#Configuration: NOAA-21
#almurnet v.1.7.20251203
#Start time: 2026-01-19 14:40:03

#Version: 2.2.20231116
#Station: R4.6S_Anadyr
#Location: 177.4865 lon 64.73178 lat
#TLE: 1 54234U 22150A   26018.88939962  .00000052  00000+0  45304-4 0  9995
#TLE: 2 54234  98.7504 319.7421 0000606 261.7569  98.3539 14.19535520165361

#Time	Az	El	Level	Level2	SNR	BER	BlckErr	Temp	State	Recorded	gain1	gain2
2026-01-19 14:40:03.55	20.37	0.09	-50.6	-65.5	3.5	1.51e+00	0	38	0	0	60	67846
2026-01-19 14:40:04.55	20.38	0.15	-50.4	-63.4	3.5	1.52e+00	0	40	104	0	60	51772
2026-01-19 14:40:05.56	20.39	0.21	-50.5	-63.4	3.5	1.52e+00	0	40	104	0	60	52033
2026-01-19 14:40:06.57	20.39	0.27	-50.5	-63.4	3.5	1.52e+00	0	40	104	0	60	52168
2026-01-19 14:40:07.58	20.40	0.33	-50.5	-63.4	3.5	1.52e+00	0	40	104	0	60	51869
2026-01-19 14:40:08.59	20.40	0.39	-50.6	-63.4	3.5	1.52e+00	0	40	104	0	60	52086
2026-01-19 14:40:09.60	20.41	0.45	-50.5	-63.5	3.5	1.52e+00	0	40	104	0	60	52446
2026-01-19 14:40:10.61	20.42	0.51	-50.5	-63.5	3.5	1.51e+00	0	40	104	0	60	52461
2026-01-19 14:40:11.62	20.42	0.57	-50.6	-63.5	3.5	1.52e+00	0	40	104	0	60	52551
2026-01-19 14:40:12.63	20.43	0.63	-50.6	-63.5	3.5	1.52e+00	0	40	104	0	60	52482
2026-01-19 14:40:13.64	20.44	0.69	-50.6	-63.5	3.5	1.51e+00	0	40	104	0	60	52289
2026-01-19 14:40:14.65	20.44	0.75	-50.6	-63.5	3.5	1.52e+00	0	40	104	0	60	52335
2026-01-19 14:40:15.66	20.45	0.82	-50.6	-63.4	3.5	1.51e+00	0	40	104	0	60	51934
2026-01-19 14:40:16.67	20.45	0.88	-50.5	-63.3	3.5	1.52e+00	0	40	104	0	60	51552
2026-01-19 14:40:17.68	20.46	0.94	-50.4	-63.3	3.5	1.52e+00	0	40	104	0	60	51393
2026-01-19 14:40:18.69	20.47	1.00	-50.4	-63.3	3.5	1.52e+00	0	40	104	0	60	51070
2026-01-19 14:40:19.70	20.47	1.06	-50.3	-63.2	3.5	1.52e+00	0	40	104	0	60	50793
2026-01-19 14:40:20.71	20.48	1.13	-50.2	-63.1	3.5	1.52e+00	0	40	104	0	60	50026
2026-01-19 14:40:21.72	20.49	1.19	-50.1	-63.0	3.5	1.52e+00	0	40	104	0	60	49360
2026-01-19 14:40:22.73	20.49	1.25	-49.8	-62.8	3.5	1.52e+00	0	40	104	0	60	48302
2026-01-19 14:40:23.74	20.50	1.31	-49.9	-62.7	3.5	1.52e+00	0	40	104	0	60	48082
2026-01-19 14:40:24.75	20.50	1.38	-49.8	-62.6	3.5	1.52e+00	0	40	104	0	60	47127
2026-01-19 14:40:25.76	20.51	1.44	-49.6	-62.4	3.5	1.52e+00	0	40	104	0	60	46459
2026-01-19 14:40:26.77	20.52	1.50	-49.3	-62.2	3.5	1.52e+00	0	40	104	0	60	45070
2026-01-19 14:40:27.78	20.52	1.57	-49.1	-61.8	3.5	1.52e+00	0	40	104	0	60	43117
2026-01-19 14:40:28.80	20.53	1.63	-49.1	-61.8	3.5	1.52e+00	0	40	104	0	60	43010
2026-01-19 14:40:29.80	20.54	1.69	-49.1	-61.8	3.5	1.52e+00	0	40	104	0	60	43054
2026-01-19 14:40:30.81	20.54	1.76	-49.0	-61.7	3.5	1.51e+00	0	40	104	0	60	42484
2026-01-19 14:40:31.82	20.55	1.82	-49.0	-61.5	3.5	1.52e+00	0	40	104	0	60	41941
2026-01-19 14:40:32.84	20.56	1.89	-49.0	-61.4	3.5	1.52e+00	0	41	104	0	60	41349
2026-01-19 14:40:33.85	20.56	1.95	-49.0	-61.4	3.5	1.52e+00	0	41	104	0	60	41398
2026-01-19 14:40:34.86	20.57	2.01	-49.0	-61.4	3.5	1.51e+00	0	40	104	0	60	41409
2026-01-19 14:40:35.86	20.57	2.08	-49.0	-61.5	3.5	1.52e+00	0	40	104	0	60	41758
2026-01-19 14:40:36.88	20.58	2.14	-49.1	-61.8	3.5	1.52e+00	0	40	104	0	60	42965
2026-01-19 14:40:37.89	20.59	2.21	-49.1	-61.8	3.5	1.52e+00	0	40	104	0	60	43266
2026-01-19 14:40:38.90	20.59	2.27	-49.1	-61.8	3.5	1.52e+00	0	40	104	0	60	43064
2026-01-19 14:40:39.91	20.60	2.34	-49.0	-61.5	3.5	1.52e+00	0	40	104	0	60	41942
2026-01-19 14:40:40.91	20.61	2.40	-49.0	-61.1	3.5	1.52e+00	0	40	104	0	60	39914
2026-01-19 14:40:41.92	20.61	2.47	-49.0	-60.7	3.5	1.51e+00	0	40	104	0	60	38262
2026-01-19 14:40:42.94	20.62	2.53	-49.0	-60.5	3.5	1.51e+00	0	41	104	0	60	37247
2026-01-19 14:40:43.95	20.63	2.60	-49.0	-60.7	3.5	1.51e+00	0	41	104	0	60	37976
2026-01-19 14:40:44.96	20.63	2.67	-49.0	-60.9	3.5	1.51e+00	0	41	104	0	60	38851
2026-01-19 14:40:45.97	20.64	2.73	-49.0	-60.8	3.5	1.51e+00	0	41	104	0	60	38637
2026-01-19 14:40:46.98	20.64	2.80	-48.9	-59.8	3.6	1.51e+00	0	40	104	0	60	34426
2026-01-19 14:40:47.99	20.65	2.86	-48.7	-58.1	4.4	1.46e+00	0	41	104	0	60	28045
2026-01-19 14:40:49.00	20.66	2.93	-48.2	-55.2	5.8	4.57e-01	122	41	0	0	60	20129
2026-01-19 14:40:50.01	20.66	3.00	-47.7	-52.7	7.8	1.08e-01	123	41	0	3145728	60	15122
2026-01-19 14:40:51.02	20.67	3.06	-47.1	-51.2	9.6	1.99e-02	123	41	0	6291456	60	12790
2026-01-19 14:40:52.03	20.68	3.13	-46.4	-49.8	11.3	1.84e-03	122	41	0	9437184	60	10863
2026-01-19 14:40:53.04	20.68	3.20	-45.8	-48.8	12.3	3.61e-04	123	40	0	12582912	60	9701
2026-01-19 14:40:54.05	20.69	3.26	-45.4	-48.1	13.1	5.56e-05	120	40	0	15728640	60	8930
2026-01-19 14:40:55.05	20.70	3.33	-45.0	-47.6	13.5	1.67e-05	122	41	0	18874368	60	8409
2026-01-19 14:40:56.06	20.70	3.40	-44.8	-47.3	13.9	1.50e-06	122	41	0	22020096	60	8130
2026-01-19 14:40:57.07	20.71	3.47	-45.0	-47.6	13.5	4.50e-06	120	41	0	25165824	60	8396
2026-01-19 14:40:58.08	20.72	3.53	-45.4	-48.2	12.9	1.75e-05	123	41	0	28311552	60	8984
2026-01-19 14:40:59.09	20.72	3.60	-45.8	-48.8	12.3	1.02e-04	123	41	0	31457280	60	9650
2026-01-19 14:41:00.10	20.73	3.67	-46.3	-49.7	11.1	6.48e-04	123	41	0	34603008	60	10750
2026-01-19 14:41:01.11	20.74	3.74	-46.8	-50.6	11.0	9.12e-03	122	41	0	37748736	60	11929
2026-01-19 14:41:02.12	20.74	3.81	-42.3	-43.9	17.3	0.00e+00	123	41	0	40894464	56	6925
2026-01-19 14:41:03.13	20.75	3.88	-45.9	-48.9	13.1	7.79e-04	123	41	0	44040192	60	9738
2026-01-19 14:41:04.14	20.76	3.94	-48.9	-61.6	3.5	1.52e+00	0	41	104	45088768	60	42249
2026-01-19 14:41:05.15	20.76	4.01	-43.6	-46.0	15.4	2.24e-02	123	41	104	45088768	60	6986
2026-01-19 14:41:06.16	20.77	4.08	-48.9	-59.2	3.9	1.49e+00	0	41	104	45088768	60	31975
2026-01-19 14:41:07.17	20.78	4.15	-44.5	-46.8	14.7	9.90e-06	122	41	0	46137344	60	7653
2026-01-19 14:41:08.18	20.78	4.22	-44.6	-47.0	14.0	0.00e+00	123	41	0	49283072	60	7818
2026-01-19 14:41:09.19	20.79	4.29	-44.7	-47.1	14.4	0.00e+00	122	41	0	52428800	60	7906
2026-01-19 14:41:10.20	20.80	4.36	-44.5	-46.8	14.9	0.00e+00	122	41	0	55574528	60	7714
2026-01-19 14:41:11.21	20.80	4.43	-43.8	-45.8	15.5	0.00e+00	123	41	0	58720256	60	6811
2026-01-19 14:41:12.22	20.81	4.50	-43.7	-45.7	15.6	7.00e-07	122	41	0	61865984	60	6763
2026-01-19 14:41:13.23	20.82	4.57	-43.7	-45.6	15.6	0.00e+00	122	41	0	65011712	60	6698
2026-01-19 14:41:14.24	20.82	4.64	-43.2	-45.0	16.6	0.00e+00	123	41	0	68157440	60	6254
2026-01-19 14:41:15.25	20.83	4.71	-42.9	-44.6	17.2	0.00e+00	122	41	0	71303168	60	5973
2026-01-19 14:41:16.26	20.84	4.78	-42.2	-43.8	17.5	0.00e+00	122	41	0	74448896	58	6104
2026-01-19 14:41:17.27	20.84	4.86	-42.2	-43.8	17.6	0.00e+00	123	41	0	77594624	58	6109
2026-01-19 14:41:18.28	20.85	4.93	-41.5	-42.9	18.5	0.00e+00	122	41	0	80740352	56	6171
2026-01-19 14:41:19.30	20.86	5.00	-40.9	-42.2	19.3	0.00e+00	123	41	0	83886080	56	5679
2026-01-19 14:41:20.31	20.86	5.07	-40.5	-41.7	19.6	0.00e+00	123	41	0	87031808	54	6058
2026-01-19 14:41:21.32	20.87	5.14	-40.3	-41.6	19.8	0.00e+00	123	41	0	90177536	54	5955
2026-01-19 14:41:22.33	20.88	5.22	-40.3	-41.6	19.7	0.00e+00	123	41	0	93323264	54	5928
2026-01-19 14:41:23.34	20.88	5.29	-40.2	-41.5	19.8	0.00e+00	123	41	0	96468992	54	5881
2026-01-19 14:41:24.35	20.89	5.36	-40.1	-41.3	19.9	0.00e+00	120	41	0	99614720	54	5782
2026-01-19 14:41:25.36	20.90	5.43	-40.2	-41.5	19.8	0.00e+00	123	41	0	102760448	54	5879
2026-01-19 14:41:26.37	20.90	5.51	-40.2	-41.4	19.9	0.00e+00	122	41	0	105906176	54	5821
2026-01-19 14:41:27.38	20.91	5.58	-40.2	-41.5	19.9	0.00e+00	123	41	0	109051904	54	5869
2026-01-19 14:41:28.39	20.92	5.65	-40.1	-41.3	20.1	0.00e+00	122	41	0	112197632	54	5778
2026-01-19 14:41:29.40	20.92	5.73	-40.1	-41.3	20.1	0.00e+00	123	41	0	115343360	54	5735
2026-01-19 14:41:30.41	20.93	5.80	-40.1	-41.3	20.0	0.00e+00	123	41	0	118489088	54	5776
2026-01-19 14:41:31.42	20.94	5.87	-40.1	-41.3	20.2	0.00e+00	123	41	0	121634816	54	5745
2026-01-19 14:41:32.43	20.95	5.95	-39.9	-41.1	20.2	0.00e+00	123	41	0	124780544	54	5639
2026-01-19 14:41:33.44	20.95	6.02	-40.1	-41.3	20.1	0.00e+00	123	41	0	127926272	54	5759
2026-01-19 14:41:34.45	20.96	6.10	-39.9	-41.0	20.3	0.00e+00	123	41	0	131072000	54	5590
2026-01-19 14:41:35.46	20.97	6.17	-39.7	-40.9	20.5	0.00e+00	123	41	0	134217728	52	6189
2026-01-19 14:41:36.47	20.97	6.25	-39.8	-41.0	20.5	0.00e+00	122	41	0	137363456	52	6221
2026-01-19 14:41:37.48	20.98	6.32	-39.8	-41.0	20.4	0.00e+00	123	41	0	140509184	52	6261
2026-01-19 14:41:38.49	20.99	6.40	-39.8	-40.9	20.5	0.00e+00	123	41	0	143654912	52	6198
2026-01-19 14:41:39.50	20.99	6.47	-39.7	-40.9	20.5	0.00e+00	122	41	0	146800640	52	6180
2026-01-19 14:41:40.51	21.00	6.55	-39.7	-40.9	20.5	0.00e+00	122	41	0	149946368	52	6174
2026-01-19 14:41:41.52	21.01	6.63	-39.6	-40.8	20.7	0.00e+00	123	41	0	153092096	52	6087
2026-01-19 14:41:42.53	21.01	6.70	-39.6	-40.7	20.7	0.00e+00	122	41	0	156237824	52	6064
2026-01-19 14:41:43.54	21.02	6.78	-39.5	-40.7	20.8	0.00e+00	123	41	0	159383552	52	6011
2026-01-19 14:41:44.55	21.03	6.86	-39.7	-40.9	20.7	0.00e+00	122	41	0	162529280	52	6152
2026-01-19 14:41:45.56	21.04	6.93	-39.7	-40.9	20.7	0.00e+00	122	41	0	165675008	52	6166
2026-01-19 14:41:46.57	21.04	7.01	-39.5	-40.6	20.9	0.00e+00	123	41	0	168820736	52	5992
2026-01-19 14:41:47.57	21.05	7.09	-39.4	-40.5	20.9	0.00e+00	122	41	0	171966464	52	5919
2026-01-19 14:41:48.59	21.06	7.17	-39.4	-40.6	20.9	0.00e+00	122	41	0	175112192	52	5937
2026-01-19 14:41:49.60	21.06	7.24	-39.4	-40.5	20.9	0.00e+00	123	41	0	178257920	52	5904
2026-01-19 14:41:50.61	21.07	7.32	-39.3	-40.4	21.1	0.00e+00	122	41	0	181403648	52	5843
2026-01-19 14:41:51.61	21.08	7.40	-39.2	-40.3	21.2	0.00e+00	120	41	0	184549376	52	5758
2026-01-19 14:41:52.63	21.09	7.48	-39.2	-40.3	21.2	0.00e+00	123	41	0	187695104	52	5762
2026-01-19 14:41:53.64	21.09	7.56	-39.2	-40.4	21.2	0.00e+00	123	41	0	190840832	52	5800
2026-01-19 14:41:54.65	21.10	7.64	-39.1	-40.2	21.3	0.00e+00	122	41	0	193986560	52	5702
2026-01-19 14:41:55.66	21.11	7.72	-39.1	-40.2	21.3	0.00e+00	120	41	0	197132288	52	5684
2026-01-19 14:41:56.67	21.11	7.80	-39.1	-40.2	21.3	0.00e+00	120	41	0	200278016	52	5725
2026-01-19 14:41:57.68	21.12	7.88	-39.1	-40.2	21.4	0.00e+00	123	41	0	203423744	52	5721
2026-01-19 14:41:58.69	21.13	7.96	-39.1	-40.2	21.3	0.00e+00	121	41	0	206569472	52	5707
2026-01-19 14:41:59.70	21.14	8.04	-38.9	-40.0	21.4	0.00e+00	123	41	0	209715200	52	5582
2026-01-19 14:42:00.71	21.14	8.12	-39.0	-40.1	21.5	0.00e+00	123	41	0	212860928	52	5605
2026-01-19 14:42:01.72	21.15	8.20	-39.0	-40.1	21.4	0.00e+00	122	41	0	217055232	52	5607
2026-01-19 14:42:02.73	21.16	8.28	-38.9	-40.0	21.5	0.00e+00	123	41	0	219152384	52	5573
2026-01-19 14:42:03.74	21.17	8.36	-38.9	-40.0	21.6	0.00e+00	123	41	0	222298112	52	5535
2026-01-19 14:42:04.75	21.17	8.45	-38.9	-40.0	21.6	0.00e+00	122	41	0	225443840	52	5545
2026-01-19 14:42:05.76	21.18	8.53	-39.0	-40.0	21.5	0.00e+00	122	41	0	229638144	52	5584
2026-01-19 14:42:06.77	21.19	8.61	-39.2	-40.3	21.4	0.00e+00	122	41	0	232783872	52	5746
2026-01-19 14:42:07.78	21.20	8.69	-39.1	-40.2	21.5	0.00e+00	123	41	0	235929600	52	5673
2026-01-19 14:42:08.79	21.20	8.78	-39.0	-40.1	21.4	0.00e+00	123	41	0	239075328	52	5603
2026-01-19 14:42:09.80	21.21	8.86	-39.1	-40.1	21.4	0.00e+00	120	41	0	241172480	52	5647
2026-01-19 14:42:10.81	21.22	8.94	-38.6	-39.7	21.8	0.00e+00	122	41	0	244318208	50	6033
2026-01-19 14:42:11.82	21.23	9.03	-38.5	-39.6	21.9	0.00e+00	123	41	0	248512512	50	5939
2026-01-19 14:42:12.83	21.23	9.11	-38.5	-39.5	21.9	0.00e+00	123	41	0	251658240	50	5917
2026-01-19 14:42:13.84	21.24	9.19	-38.5	-39.5	22.0	0.00e+00	122	41	0	254803968	50	5924
2026-01-19 14:42:14.85	21.25	9.28	-38.4	-39.5	22.0	0.00e+00	122	41	0	257949696	50	5886
2026-01-19 14:42:15.87	21.26	9.36	-38.6	-39.6	21.9	0.00e+00	122	41	0	261095424	50	5970
2026-01-19 14:42:16.87	21.26	9.45	-38.4	-39.4	22.1	0.00e+00	122	41	0	264241152	50	5819
2026-01-19 14:42:17.89	21.27	9.53	-38.4	-39.5	22.0	0.00e+00	123	41	0	267386880	50	5862
2026-01-19 14:42:18.90	21.28	9.62	-38.3	-39.4	22.1	0.00e+00	120	41	0	270532608	50	5798
2026-01-19 14:42:19.91	21.29	9.71	-38.3	-39.4	22.2	0.00e+00	123	41	0	273678336	50	5796
2026-01-19 14:42:20.92	21.29	9.79	-38.3	-39.3	22.1	0.00e+00	123	41	0	276824064	50	5790
2026-01-19 14:42:21.93	21.30	9.88	-38.2	-39.2	22.2	0.00e+00	122	41	0	279969792	50	5722
2026-01-19 14:42:22.94	21.31	9.97	-38.3	-39.3	22.1	0.00e+00	123	41	0	283115520	50	5770
2026-01-19 14:42:23.95	21.32	10.05	-38.2	-39.2	22.3	0.00e+00	122	41	0	286261248	50	5713
2026-01-19 14:42:24.95	21.32	10.14	-38.3	-39.3	22.2	0.00e+00	122	41	0	289406976	50	5760
2026-01-19 14:42:25.97	21.33	10.23	-38.1	-39.1	22.3	0.00e+00	122	41	0	292552704	50	5615
2026-01-19 14:42:26.97	21.34	10.32	-38.1	-39.1	22.4	0.00e+00	122	41	0	295698432	50	5659
2026-01-19 14:42:27.99	21.35	10.41	-38.2	-39.3	22.4	0.00e+00	123	41	0	298844160	50	5729
2026-01-19 14:42:28.99	21.36	10.49	-37.9	-38.9	22.6	0.00e+00	123	41	0	301989888	50	5507
2026-01-19 14:42:30.01	21.36	10.58	-38.0	-39.0	22.4	0.00e+00	122	41	0	305135616	50	5592
2026-01-19 14:42:31.02	21.37	10.67	-38.0	-39.0	22.5	0.00e+00	123	41	0	308281344	50	5564
2026-01-19 14:42:32.03	21.38	10.76	-37.8	-38.8	22.6	0.00e+00	123	41	0	311427072	50	5431
2026-01-19 14:42:33.04	21.39	10.85	-38.0	-39.0	22.5	0.00e+00	122	41	0	314572800	50	5543
2026-01-19 14:42:34.05	21.39	10.94	-37.9	-38.9	22.6	0.00e+00	122	41	0	317718528	50	5517
2026-01-19 14:42:35.06	21.40	11.04	-37.9	-38.9	22.6	0.00e+00	123	41	0	320864256	50	5509
2026-01-19 14:42:36.06	21.41	11.13	-37.7	-38.7	22.7	0.00e+00	122	41	0	324009984	48	6047
2026-01-19 14:42:37.07	21.42	11.22	-37.6	-38.6	22.8	0.00e+00	120	41	0	327155712	48	5979
2026-01-19 14:42:38.08	21.43	11.31	-37.7	-38.7	22.8	0.00e+00	123	41	0	330301440	48	6014
2026-01-19 14:42:39.09	21.43	11.40	-37.6	-38.5	22.9	0.00e+00	122	41	0	333447168	48	5914
2026-01-19 14:42:40.10	21.44	11.49	-37.6	-38.5	22.9	0.00e+00	122	41	0	336592896	48	5918
2026-01-19 14:42:41.11	21.45	11.59	-37.6	-38.6	22.8	0.00e+00	123	41	0	339738624	48	5954
2026-01-19 14:42:42.12	21.46	11.68	-37.6	-38.6	22.8	0.00e+00	120	41	0	342884352	48	5929
2026-01-19 14:42:43.13	21.47	11.77	-37.5	-38.4	22.9	0.00e+00	123	41	0	346030080	48	5844
2026-01-19 14:42:44.14	21.47	11.87	-37.5	-38.4	23.0	0.00e+00	122	41	0	349175808	48	5846
2026-01-19 14:42:45.15	21.48	11.96	-37.4	-38.4	23.0	0.00e+00	123	41	0	352321536	48	5840
2026-01-19 14:42:46.16	21.49	12.06	-37.4	-38.4	23.0	0.00e+00	122	41	0	355467264	48	5835
2026-01-19 14:42:47.17	21.50	12.15	-37.3	-38.3	23.1	0.00e+00	123	41	0	358612992	48	5783
2026-01-19 14:42:48.18	21.51	12.25	-37.3	-38.3	23.1	0.00e+00	123	41	0	361758720	48	5752
2026-01-19 14:42:49.19	21.52	12.34	-37.4	-38.3	23.1	0.00e+00	120	41	0	364904448	48	5790
2026-01-19 14:42:50.20	21.52	12.44	-37.4	-38.4	23.1	0.00e+00	122	41	0	368050176	48	5794
2026-01-19 14:42:51.21	21.53	12.54	-37.4	-38.4	23.0	0.00e+00	123	41	0	371195904	48	5849
2026-01-19 14:42:52.22	21.54	12.63	-37.3	-38.3	23.1	0.00e+00	120	41	0	374341632	48	5746
2026-01-19 14:42:53.23	21.55	12.73	-37.3	-38.3	23.1	0.00e+00	122	41	0	377487360	48	5747
2026-01-19 14:42:54.24	21.56	12.83	-37.4	-38.4	23.1	0.00e+00	123	41	0	380633088	48	5820
2026-01-19 14:42:55.24	21.57	12.92	-37.3	-38.3	23.2	0.00e+00	123	41	0	383778816	48	5742
2026-01-19 14:42:56.25	21.57	13.02	-37.2	-38.2	23.3	0.00e+00	122	41	0	386924544	48	5665
2026-01-19 14:42:57.27	21.58	13.12	-37.3	-38.3	23.2	0.00e+00	123	41	0	390070272	48	5770
2026-01-19 14:42:58.28	21.59	13.22	-37.3	-38.3	23.2	0.00e+00	121	41	0	393216000	48	5743
2026-01-19 14:42:59.29	21.60	13.32	-37.4	-38.3	23.2	0.00e+00	122	41	0	396361728	48	5782
2026-01-19 14:43:00.30	21.61	13.42	-37.4	-38.4	23.1	0.00e+00	123	41	0	399507456	48	5814
2026-01-19 14:43:01.31	21.62	13.52	-37.3	-38.3	23.1	0.00e+00	123	41	0	402653184	48	5757
2026-01-19 14:43:02.32	21.63	13.62	-37.3	-38.3	23.2	0.00e+00	123	41	0	405798912	48	5762
2026-01-19 14:43:03.33	21.63	13.72	-37.3	-38.3	23.3	0.00e+00	123	41	0	408944640	48	5751
2026-01-19 14:43:04.34	21.64	13.83	-37.3	-38.2	23.3	0.00e+00	122	41	0	412090368	48	5704
2026-01-19 14:43:05.35	21.65	13.93	-37.3	-38.3	23.2	0.00e+00	120	41	0	415236096	48	5754
2026-01-19 14:43:06.36	21.66	14.03	-37.4	-38.4	23.2	0.00e+00	123	42	0	418381824	48	5819
2026-01-19 14:43:07.37	21.67	14.13	-37.2	-38.2	23.2	0.00e+00	122	41	0	421527552	48	5685
2026-01-19 14:43:08.38	21.68	14.24	-37.3	-38.3	23.2	0.00e+00	122	42	0	424673280	48	5745
2026-01-19 14:43:09.39	21.69	14.34	-37.4	-38.3	23.2	0.00e+00	123	41	0	427819008	48	5787
2026-01-19 14:43:10.40	21.70	14.45	-37.4	-38.3	23.2	0.00e+00	123	41	0	430964736	48	5766
2026-01-19 14:43:11.41	21.70	14.55	-37.4	-38.4	23.2	0.00e+00	122	41	0	434110464	48	5809
2026-01-19 14:43:12.42	21.71	14.66	-37.5	-38.4	23.2	0.00e+00	122	42	0	437256192	48	5839
2026-01-19 14:43:13.43	21.72	14.76	-37.4	-38.3	23.2	0.00e+00	122	41	0	440401920	48	5776
2026-01-19 14:43:14.44	21.73	14.87	-37.5	-38.5	23.1	0.00e+00	122	41	0	443547648	48	5888
2026-01-19 14:43:15.45	21.74	14.98	-37.3	-38.3	23.2	0.00e+00	123	41	0	446693376	48	5761
2026-01-19 14:43:16.46	21.75	15.08	-37.5	-38.5	23.1	0.00e+00	122	42	0	449839104	48	5884
2026-01-19 14:43:17.47	21.76	15.19	-37.5	-38.4	23.1	0.00e+00	123	42	0	452984832	48	5838
2026-01-19 14:43:18.47	21.77	15.30	-37.5	-38.5	23.1	0.00e+00	122	42	0	456130560	48	5882
2026-01-19 14:43:19.48	21.78	15.41	-37.5	-38.5	23.0	0.00e+00	122	42	0	459276288	48	5887
2026-01-19 14:43:20.49	21.79	15.52	-37.5	-38.4	23.1	0.00e+00	122	42	0	462422016	48	5846
2026-01-19 14:43:21.50	21.79	15.62	-37.6	-38.6	23.0	0.00e+00	123	41	0	465567744	48	5933
2026-01-19 14:43:22.51	21.80	15.73	-37.7	-38.6	23.0	0.00e+00	122	41	0	468713472	48	5991
2026-01-19 14:43:23.52	21.81	15.85	-37.5	-38.5	23.1	0.00e+00	123	41	0	471859200	48	5883
2026-01-19 14:43:24.53	21.82	15.96	-37.5	-38.5	23.1	0.00e+00	120	42	0	475004928	48	5865
2026-01-19 14:43:25.54	21.83	16.07	-37.6	-38.6	23.0	0.00e+00	123	42	0	478150656	48	5969
2026-01-19 14:43:26.55	21.84	16.18	-37.5	-38.5	23.1	0.00e+00	122	42	0	481296384	48	5876
2026-01-19 14:43:27.56	21.85	16.29	-37.5	-38.4	23.2	0.00e+00	120	42	0	484442112	48	5847
2026-01-19 14:43:28.57	21.86	16.41	-37.5	-38.5	23.2	0.00e+00	123	42	0	487587840	48	5908
2026-01-19 14:43:29.58	21.87	16.52	-37.6	-38.6	23.0	0.00e+00	122	42	0	490733568	48	5931
2026-01-19 14:43:30.59	21.88	16.63	-37.5	-38.5	23.1	0.00e+00	120	42	0	493879296	48	5880
2026-01-19 14:43:31.60	21.89	16.75	-37.5	-38.5	23.2	0.00e+00	123	42	0	497025024	48	5863
2026-01-19 14:43:32.61	21.90	16.86	-37.6	-38.6	23.1	0.00e+00	123	42	0	500170752	48	5940
2026-01-19 14:43:33.62	21.91	16.98	-37.4	-38.4	23.2	0.00e+00	123	42	0	503316480	48	5824
2026-01-19 14:43:34.63	21.92	17.10	-37.5	-38.5	23.1	0.00e+00	123	42	0	506462208	48	5892
2026-01-19 14:43:35.64	21.93	17.21	-37.5	-38.5	23.2	0.00e+00	123	42	0	509607936	48	5863
2026-01-19 14:43:36.65	21.94	17.33	-37.5	-38.5	23.2	0.00e+00	123	42	0	512753664	48	5862
2026-01-19 14:43:37.66	21.95	17.45	-37.5	-38.5	23.2	0.00e+00	120	42	0	515899392	48	5864
2026-01-19 14:43:38.67	21.96	17.57	-37.5	-38.4	23.1	0.00e+00	123	42	0	519045120	48	5845
2026-01-19 14:43:39.68	21.97	17.69	-37.3	-38.3	23.3	0.00e+00	123	42	0	522190848	48	5748
2026-01-19 14:43:40.69	21.98	17.81	-37.4	-38.3	23.2	0.00e+00	122	42	0	525336576	48	5791
2026-01-19 14:43:41.70	21.99	17.93	-37.4	-38.4	23.2	0.00e+00	120	42	0	528482304	48	5802
2026-01-19 14:43:42.71	22.00	18.05	-37.4	-38.3	23.3	0.00e+00	123	42	0	532676608	48	5774
2026-01-19 14:43:43.72	22.01	18.17	-37.4	-38.3	23.3	0.00e+00	122	42	0	534773760	48	5773
2026-01-19 14:43:44.73	22.02	18.29	-37.3	-38.3	23.3	0.00e+00	122	42	0	537919488	48	5737
2026-01-19 14:43:45.74	22.03	18.42	-37.4	-38.4	23.3	0.00e+00	123	42	0	541065216	48	5840
2026-01-19 14:43:46.75	22.04	18.54	-37.4	-38.3	23.3	0.00e+00	123	42	0	544210944	48	5762
2026-01-19 14:43:47.75	22.05	18.66	-37.2	-38.2	23.4	0.00e+00	123	42	0	547356672	48	5673
2026-01-19 14:43:48.77	22.06	18.79	-37.4	-38.4	23.2	0.00e+00	123	42	0	551550976	48	5822
2026-01-19 14:43:49.78	22.07	18.91	-37.2	-38.2	23.4	0.00e+00	123	42	0	554696704	48	5676
2026-01-19 14:43:50.79	22.08	19.04	-37.2	-38.2	23.4	0.00e+00	122	42	0	557842432	48	5682
2026-01-19 14:43:51.80	22.09	19.17	-37.3	-38.2	23.3	0.00e+00	122	42	0	559939584	48	5719
2026-01-19 14:43:52.81	22.10	19.29	-37.6	-38.6	23.3	0.00e+00	123	42	0	563085312	48	5954
2026-01-19 14:43:53.82	22.11	19.42	-37.4	-38.3	23.3	0.00e+00	122	42	0	567279616	48	5782
2026-01-19 14:43:54.83	22.12	19.55	-37.4	-38.4	23.3	0.00e+00	122	42	0	570425344	48	5817
2026-01-19 14:43:55.84	22.13	19.68	-37.5	-38.4	23.4	0.00e+00	123	42	0	573571072	48	5828
2026-01-19 14:43:56.84	22.14	19.81	-37.4	-38.3	23.3	0.00e+00	123	42	0	576716800	48	5761
2026-01-19 14:43:57.85	22.15	19.94	-37.1	-38.1	23.5	0.00e+00	123	42	0	579862528	48	5607
2026-01-19 14:43:58.87	22.17	20.07	-37.0	-37.9	23.7	0.00e+00	122	42	0	583008256	48	5530
2026-01-19 14:43:59.88	22.18	20.20	-37.1	-38.0	23.7	0.00e+00	122	42	0	586153984	48	5565
2026-01-19 14:44:00.89	22.19	20.34	-37.0	-38.0	23.7	0.00e+00	123	42	0	589299712	48	5555
2026-01-19 14:44:01.90	22.20	20.47	-36.9	-37.9	23.7	0.00e+00	122	42	0	592445440	48	5474
2026-01-19 14:44:02.91	22.21	20.60	-37.0	-37.9	23.7	0.00e+00	123	42	0	595591168	48	5487
2026-01-19 14:44:03.92	22.22	20.74	-36.8	-37.7	23.8	0.00e+00	122	42	0	598736896	48	5401
2026-01-19 14:44:04.93	22.23	20.87	-36.7	-37.7	23.9	0.00e+00	123	42	0	601882624	46	6007
2026-01-19 14:44:05.94	22.24	21.01	-36.7	-37.6	24.0	0.00e+00	123	42	0	605028352	46	5988
2026-01-19 14:44:06.95	22.25	21.15	-36.7	-37.7	24.0	0.00e+00	122	42	0	608174080	46	5995
2026-01-19 14:44:07.96	22.27	21.28	-36.6	-37.5	24.1	0.00e+00	122	42	0	611319808	46	5888
2026-01-19 14:44:08.97	22.28	21.42	-36.7	-37.6	24.0	0.00e+00	123	42	0	614465536	46	5992
2026-01-19 14:44:09.97	22.29	21.56	-36.6	-37.5	24.1	0.00e+00	123	42	0	617611264	46	5886
2026-01-19 14:44:10.98	22.30	21.70	-36.5	-37.4	24.1	0.00e+00	122	42	0	620756992	46	5824
2026-01-19 14:44:11.99	22.31	21.84	-36.4	-37.4	24.1	0.00e+00	122	42	0	623902720	46	5812
2026-01-19 14:44:13.00	22.32	21.98	-36.3	-37.1	24.3	0.00e+00	123	42	0	627048448	46	5659
2026-01-19 14:44:14.01	22.34	22.13	-36.2	-37.1	24.4	0.00e+00	120	42	0	630194176	46	5630
2026-01-19 14:44:15.02	22.35	22.27	-36.5	-37.4	24.1	0.00e+00	123	42	0	633339904	46	5847
2026-01-19 14:44:16.03	22.36	22.41	-36.5	-37.4	24.2	0.00e+00	120	42	0	636485632	46	5799
2026-01-19 14:44:17.04	22.37	22.56	-36.1	-37.0	24.4	0.00e+00	123	42	0	639631360	46	5553
2026-01-19 14:44:18.05	22.38	22.70	-36.3	-37.2	24.3	0.00e+00	121	42	0	642777088	46	5697
2026-01-19 14:44:19.06	22.40	22.85	-36.0	-36.8	24.6	0.00e+00	123	42	0	645922816	46	5453
2026-01-19 14:44:20.07	22.41	23.00	-35.9	-36.8	24.5	0.00e+00	120	42	0	649068544	46	5420
2026-01-19 14:44:21.08	22.42	23.15	-36.2	-37.0	24.5	0.00e+00	123	42	0	652214272	46	5588
2026-01-19 14:44:22.09	22.43	23.30	-36.0	-36.9	24.6	0.00e+00	122	42	0	655360000	46	5477
2026-01-19 14:44:23.10	22.45	23.45	-35.9	-36.8	24.6	0.00e+00	120	42	0	658505728	46	5445
2026-01-19 14:44:24.11	22.46	23.60	-35.9	-36.8	24.7	0.00e+00	122	42	0	661651456	46	5422
2026-01-19 14:44:25.12	22.47	23.75	-36.0	-36.8	24.6	0.00e+00	120	42	0	664797184	46	5450
2026-01-19 14:44:26.13	22.48	23.90	-35.9	-36.8	24.7	0.00e+00	122	42	0	667942912	46	5440
2026-01-19 14:44:27.14	22.50	24.05	-35.9	-36.7	24.7	0.00e+00	123	42	0	671088640	46	5391
2026-01-19 14:44:28.15	22.51	24.21	-35.9	-36.8	24.6	0.00e+00	120	42	0	674234368	46	5439
2026-01-19 14:44:29.16	22.52	24.36	-35.8	-36.7	24.7	0.00e+00	123	42	0	677380096	46	5377
2026-01-19 14:44:30.17	22.54	24.52	-36.0	-36.8	24.6	0.00e+00	123	42	0	680525824	46	5466
2026-01-19 14:44:31.18	22.55	24.68	-36.0	-36.9	24.6	0.00e+00	123	42	0	683671552	46	5492
2026-01-19 14:44:32.19	22.56	24.84	-36.0	-36.9	24.5	0.00e+00	123	42	0	686817280	46	5485
2026-01-19 14:44:33.21	22.58	25.00	-36.1	-37.0	24.5	0.00e+00	122	42	0	689963008	46	5548
2026-01-19 14:44:34.21	22.59	25.16	-36.1	-37.0	24.5	0.00e+00	122	42	0	693108736	46	5536
2026-01-19 14:44:35.22	22.60	25.32	-36.2	-37.1	24.4	0.00e+00	122	42	0	696254464	46	5656
2026-01-19 14:44:36.23	22.62	25.48	-36.3	-37.2	24.3	0.00e+00	122	42	0	699400192	46	5705
2026-01-19 14:44:37.24	22.63	25.64	-36.3	-37.2	24.4	0.00e+00	123	42	0	702545920	46	5699
2026-01-19 14:44:38.25	22.64	25.81	-36.4	-37.3	24.2	0.00e+00	123	42	0	705691648	46	5754
2026-01-19 14:44:39.27	22.66	25.97	-36.6	-37.5	24.2	0.00e+00	120	42	0	708837376	46	5862
2026-01-19 14:44:40.27	22.67	26.14	-36.7	-37.6	24.1	0.00e+00	123	42	0	711983104	46	5956
2026-01-19 14:44:41.28	22.69	26.30	-36.9	-37.8	24.0	0.00e+00	122	42	0	715128832	46	6085
2026-01-19 14:44:42.29	22.70	26.47	-37.0	-38.0	23.7	0.00e+00	123	42	0	718274560	46	6206
2026-01-19 14:44:43.30	22.71	26.64	-37.2	-38.1	23.6	0.00e+00	123	42	0	721420288	46	6332
2026-01-19 14:44:44.31	22.73	26.81	-37.4	-38.3	23.5	0.00e+00	122	42	0	724566016	46	6498
2026-01-19 14:44:45.32	22.74	26.98	-37.5	-38.5	23.4	0.00e+00	123	42	0	727711744	46	6601
2026-01-19 14:44:46.33	22.76	27.16	-37.4	-38.4	23.5	0.00e+00	122	42	0	730857472	46	6528
2026-01-19 14:44:47.34	22.77	27.33	-37.6	-38.6	23.3	0.00e+00	120	42	0	734003200	46	6674
2026-01-19 14:44:48.35	22.79	27.50	-37.6	-38.6	23.3	0.00e+00	121	42	0	737148928	46	6655
2026-01-19 14:44:49.36	22.80	27.68	-37.7	-38.7	23.2	0.00e+00	123	42	0	740294656	46	6770
2026-01-19 14:44:50.37	22.82	27.86	-37.7	-38.7	23.2	0.00e+00	123	42	0	743440384	46	6744
2026-01-19 14:44:51.38	22.83	28.04	-37.8	-38.7	23.2	0.00e+00	123	42	0	746586112	48	6054
2026-01-19 14:44:52.39	22.85	28.21	-37.7	-38.7	23.2	0.00e+00	122	42	0	749731840	48	6013
2026-01-19 14:44:53.40	22.87	28.40	-37.7	-38.6	23.2	0.00e+00	123	42	0	752877568	48	5965
2026-01-19 14:44:54.41	22.88	28.58	-37.8	-38.8	23.1	0.00e+00	123	42	0	756023296	48	6083
2026-01-19 14:44:55.42	22.90	28.76	-37.6	-38.6	23.2	0.00e+00	123	42	0	759169024	48	5930
2026-01-19 14:44:56.43	22.91	28.94	-37.6	-38.6	23.3	0.00e+00	122	42	0	762314752	48	5967
2026-01-19 14:44:57.44	22.93	29.13	-37.4	-38.3	23.5	0.00e+00	122	42	0	765460480	48	5787
2026-01-19 14:44:58.45	22.94	29.32	-37.3	-38.3	23.5	0.00e+00	122	42	0	768606208	48	5735
2026-01-19 14:44:59.46	22.96	29.50	-37.3	-38.2	23.7	0.00e+00	120	42	0	771751936	48	5697
2026-01-19 14:45:00.47	22.98	29.69	-37.4	-38.4	23.4	0.00e+00	123	42	0	774897664	48	5828
2026-01-19 14:45:01.48	22.99	29.88	-37.3	-38.3	23.6	0.00e+00	123	42	0	778043392	48	5727
2026-01-19 14:45:02.49	23.01	30.07	-37.1	-38.1	23.8	0.00e+00	122	42	0	781189120	48	5603
2026-01-19 14:45:03.50	23.03	30.27	-37.0	-38.0	23.8	0.00e+00	123	42	0	784334848	48	5547
2026-01-19 14:45:04.51	23.05	30.46	-37.0	-37.9	23.8	0.00e+00	122	42	0	787480576	48	5523
2026-01-19 14:45:05.52	23.06	30.66	-37.0	-37.9	23.9	0.00e+00	123	42	0	790626304	48	5516
2026-01-19 14:45:06.53	23.08	30.85	-37.0	-37.9	23.8	0.00e+00	123	42	0	793772032	48	5530
2026-01-19 14:45:07.54	23.10	31.05	-37.0	-37.9	23.9	0.00e+00	122	42	0	796917760	48	5495
2026-01-19 14:45:08.55	23.12	31.25	-36.9	-37.8	23.9	0.00e+00	123	42	0	800063488	48	5466
2026-01-19 14:45:09.56	23.13	31.45	-36.9	-37.8	23.9	0.00e+00	123	42	0	803209216	48	5438
2026-01-19 14:45:10.56	23.15	31.65	-37.1	-38.0	23.8	0.00e+00	122	42	0	806354944	48	5552
2026-01-19 14:45:11.57	23.17	31.85	-36.9	-37.9	23.9	0.00e+00	123	42	0	809500672	48	5469
2026-01-19 14:45:12.58	23.19	32.06	-36.8	-37.8	23.9	0.00e+00	122	42	0	812646400	48	5406
2026-01-19 14:45:13.59	23.21	32.27	-36.7	-37.7	24.1	0.00e+00	123	42	0	815792128	46	5999
2026-01-19 14:45:14.60	23.23	32.47	-36.7	-37.6	24.1	0.00e+00	123	42	0	818937856	46	5943
2026-01-19 14:45:15.61	23.24	32.68	-36.7	-37.6	24.1	0.00e+00	120	42	0	822083584	46	5951
2026-01-19 14:45:16.62	23.26	32.89	-36.7	-37.7	24.1	0.00e+00	122	42	0	825229312	46	6011
2026-01-19 14:45:17.63	23.28	33.11	-36.8	-37.7	24.0	0.00e+00	122	42	0	828375040	46	6053
2026-01-19 14:45:18.64	23.30	33.32	-36.9	-37.8	23.9	0.00e+00	122	42	0	831520768	46	6078
2026-01-19 14:45:19.64	23.32	33.53	-37.0	-37.9	23.9	0.00e+00	122	42	0	834666496	46	6196
2026-01-19 14:45:20.65	23.34	33.75	-37.2	-38.1	23.7	0.00e+00	122	42	0	837812224	46	6328
2026-01-19 14:45:21.66	23.36	33.97	-37.5	-38.4	23.5	0.00e+00	123	42	0	840957952	46	6546
2026-01-19 14:45:22.67	23.38	34.19	-37.6	-38.6	23.4	0.00e+00	123	42	0	844103680	46	6655
2026-01-19 14:45:23.68	23.40	34.41	-37.7	-38.6	23.3	0.00e+00	123	42	0	847249408	46	6714
2026-01-19 14:45:24.69	23.42	34.63	-37.9	-38.9	23.1	0.00e+00	122	42	0	850395136	48	6137
2026-01-19 14:45:25.70	23.45	34.86	-38.1	-39.1	22.9	0.00e+00	123	42	0	853540864	48	6281
2026-01-19 14:45:26.71	23.47	35.08	-38.0	-39.0	22.9	0.00e+00	123	42	0	856686592	48	6256
2026-01-19 14:45:27.72	23.49	35.31	-38.1	-39.1	22.9	0.00e+00	123	42	0	859832320	48	6326
2026-01-19 14:45:28.73	23.51	35.54	-38.2	-39.2	22.9	0.00e+00	122	42	0	862978048	48	6368
2026-01-19 14:45:29.75	23.53	35.78	-38.1	-39.1	22.9	0.00e+00	122	42	0	866123776	48	6318
2026-01-19 14:45:30.76	23.56	36.01	-38.2	-39.2	22.9	0.00e+00	122	42	0	869269504	48	6364
2026-01-19 14:45:31.77	23.58	36.24	-38.2	-39.2	22.8	0.00e+00	123	42	0	873463808	48	6387
2026-01-19 14:45:32.77	23.60	36.48	-38.4	-39.4	22.7	0.00e+00	122	42	0	875560960	48	6520
2026-01-19 14:45:33.78	23.62	36.72	-38.6	-39.6	22.6	0.00e+00	123	42	0	878706688	48	6670
2026-01-19 14:45:34.79	23.65	36.96	-38.7	-39.7	22.4	0.00e+00	123	42	0	881852416	48	6766
2026-01-19 14:45:35.81	23.67	37.20	-39.1	-40.2	22.2	0.00e+00	122	42	0	884998144	50	6360
2026-01-19 14:45:36.82	23.70	37.44	-39.3	-40.4	21.9	0.00e+00	123	42	0	889192448	50	6534
2026-01-19 14:45:37.83	23.72	37.69	-39.3	-40.4	21.9	0.00e+00	120	42	0	892338176	50	6535
2026-01-19 14:45:38.84	23.74	37.93	-39.2	-40.3	22.1	0.00e+00	122	42	0	895483904	50	6438
2026-01-19 14:45:39.85	23.77	38.18	-38.9	-40.0	22.3	0.00e+00	122	42	0	898629632	50	6227
2026-01-19 14:45:40.85	23.79	38.43	-39.0	-40.1	22.2	0.00e+00	123	42	0	900726784	50	6303
2026-01-19 14:45:41.86	23.82	38.68	-38.6	-39.6	22.6	0.00e+00	123	42	0	904921088	50	5949
2026-01-19 14:45:42.87	23.85	38.94	-38.6	-39.6	22.5	0.00e+00	123	42	0	908066816	50	5949
2026-01-19 14:45:43.88	23.87	39.20	-38.3	-39.3	22.8	0.00e+00	123	42	0	911212544	50	5748
2026-01-19 14:45:44.90	23.90	39.46	-38.4	-39.3	22.8	0.00e+00	120	42	0	914358272	50	5789
2026-01-19 14:45:45.90	23.93	39.71	-38.3	-39.3	22.8	0.00e+00	123	42	0	917504000	50	5741
2026-01-19 14:45:46.92	23.95	39.98	-38.4	-39.4	22.6	0.00e+00	120	42	0	920649728	50	5836
2026-01-19 14:45:47.93	23.98	40.24	-38.5	-39.5	22.6	0.00e+00	123	42	0	923795456	50	5864
2026-01-19 14:45:48.94	24.01	40.51	-38.6	-39.6	22.4	0.00e+00	122	42	0	926941184	50	5971
2026-01-19 14:45:49.95	24.04	40.78	-38.6	-39.6	22.3	0.00e+00	123	42	0	930086912	50	5986
2026-01-19 14:45:50.96	24.07	41.05	-38.6	-39.6	22.5	0.00e+00	120	42	0	933232640	50	5928
2026-01-19 14:45:51.96	24.10	41.32	-38.7	-39.7	22.2	0.00e+00	123	42	0	936378368	50	6027
2026-01-19 14:45:52.97	24.13	41.59	-38.8	-39.8	22.2	0.00e+00	120	42	0	939524096	50	6110
2026-01-19 14:45:53.98	24.16	41.87	-38.9	-39.9	22.1	0.00e+00	122	42	0	942669824	50	6182
2026-01-19 14:45:54.99	24.19	42.15	-39.2	-40.2	21.9	0.00e+00	123	42	0	945815552	50	6419
2026-01-19 14:45:56.00	24.22	42.43	-39.4	-40.5	21.7	0.00e+00	120	42	0	948961280	50	6584
2026-01-19 14:45:57.01	24.25	42.71	-39.8	-40.9	21.4	0.00e+00	123	42	0	952107008	52	6168
2026-01-19 14:45:58.02	24.28	42.99	-40.0	-41.1	21.4	0.00e+00	122	42	0	955252736	52	6320
2026-01-19 14:45:59.03	24.31	43.28	-40.1	-41.2	21.2	0.00e+00	122	42	0	958398464	52	6389
2026-01-19 14:46:00.04	24.35	43.57	-40.0	-41.1	21.3	0.00e+00	120	42	0	961544192	52	6349
2026-01-19 14:46:01.05	24.38	43.86	-40.0	-41.1	21.3	0.00e+00	123	42	0	964689920	52	6316
2026-01-19 14:46:02.06	24.42	44.15	-40.0	-41.1	21.4	0.00e+00	122	42	0	967835648	52	6296
2026-01-19 14:46:03.07	24.45	44.45	-40.0	-41.1	21.4	0.00e+00	122	42	0	970981376	52	6345
2026-01-19 14:46:04.08	24.49	44.75	-39.9	-41.0	21.4	0.00e+00	123	42	0	974127104	52	6224
2026-01-19 14:46:05.10	24.52	45.05	-40.0	-41.2	21.2	0.00e+00	123	42	0	977272832	52	6352
2026-01-19 14:46:06.11	24.56	45.35	-40.2	-41.3	21.0	0.00e+00	120	42	0	980418560	52	6477
2026-01-19 14:46:07.12	24.60	45.66	-40.4	-41.6	20.8	0.00e+00	123	42	0	983564288	52	6668
2026-01-19 14:46:08.13	24.63	45.97	-40.6	-41.8	20.6	0.00e+00	123	42	0	986710016	52	6814
2026-01-19 14:46:09.14	24.67	46.28	-40.4	-41.6	20.7	0.00e+00	122	42	0	989855744	52	6678
2026-01-19 14:46:10.15	24.71	46.59	-40.3	-41.5	20.9	0.00e+00	122	42	0	993001472	52	6639
2026-01-19 14:46:11.16	24.75	46.90	-40.2	-41.4	21.0	0.00e+00	123	42	0	996147200	52	6548
2026-01-19 14:46:12.17	24.79	47.22	-40.2	-41.4	21.1	0.00e+00	122	42	0	999292928	52	6527
2026-01-19 14:46:13.18	24.83	47.54	-39.9	-41.0	21.4	0.00e+00	123	42	0	1002438656	52	6271
2026-01-19 14:46:14.19	24.88	47.86	-39.9	-41.0	21.3	0.00e+00	123	42	0	1005584384	52	6259
2026-01-19 14:46:15.20	24.92	48.18	-39.7	-40.8	21.6	0.00e+00	122	42	0	1008730112	52	6116
2026-01-19 14:46:16.21	24.96	48.51	-39.6	-40.7	21.6	0.00e+00	123	42	0	1011875840	52	6002
2026-01-19 14:46:17.22	25.01	48.84	-39.3	-40.4	21.9	0.00e+00	122	42	0	1015021568	52	5846
2026-01-19 14:46:18.23	25.05	49.17	-39.1	-40.1	21.9	0.00e+00	122	42	0	1018167296	52	5634
2026-01-19 14:46:19.24	25.10	49.50	-39.0	-40.1	22.1	0.00e+00	123	42	0	1021313024	52	5604
2026-01-19 14:46:20.25	25.15	49.84	-39.1	-40.2	22.0	0.00e+00	123	42	0	1024458752	52	5677
2026-01-19 14:46:21.26	25.20	50.18	-38.9	-40.0	22.1	0.00e+00	123	42	0	1027604480	52	5548
2026-01-19 14:46:22.27	25.25	50.52	-38.9	-39.9	22.3	0.00e+00	122	42	0	1030750208	52	5506
2026-01-19 14:46:23.28	25.30	50.86	-38.9	-39.9	22.3	0.00e+00	123	42	0	1033895936	50	6189
2026-01-19 14:46:24.29	25.35	51.21	-38.8	-39.8	22.4	0.00e+00	122	42	0	1037041664	50	6096
2026-01-19 14:46:25.30	25.40	51.56	-38.6	-39.7	22.4	0.00e+00	120	42	0	1040187392	50	6001
2026-01-19 14:46:26.32	25.46	51.91	-38.7	-39.7	22.3	0.00e+00	122	42	0	1043333120	50	6046
2026-01-19 14:46:27.33	25.51	52.27	-38.4	-39.4	22.7	0.00e+00	122	42	0	1046478848	50	5826
2026-01-19 14:46:28.34	25.57	52.62	-38.2	-39.2	22.8	0.00e+00	123	42	0	1049624576	50	5667
2026-01-19 14:46:29.35	25.62	52.98	-37.9	-38.9	23.1	0.00e+00	123	42	0	1052770304	50	5494
2026-01-19 14:46:30.35	25.68	53.34	-37.9	-38.8	23.1	0.00e+00	122	42	0	1055916032	50	5467
2026-01-19 14:46:31.37	25.74	53.71	-37.7	-38.6	23.3	0.00e+00	123	42	0	1059061760	48	5977
2026-01-19 14:46:32.38	25.81	54.07	-37.5	-38.5	23.5	0.00e+00	123	42	0	1062207488	48	5883
2026-01-19 14:46:33.39	25.87	54.44	-37.4	-38.4	23.6	0.00e+00	122	42	0	1065353216	48	5815
2026-01-19 14:46:34.40	25.93	54.81	-37.4	-38.4	23.7	0.00e+00	122	42	0	1068498944	48	5793
2026-01-19 14:46:35.41	26.00	55.19	-37.2	-38.1	23.7	0.00e+00	122	42	0	1071644672	48	5649
2026-01-19 14:46:36.42	26.07	55.57	-37.1	-38.0	23.9	0.00e+00	123	42	0	1074790400	48	5570
2026-01-19 14:46:37.43	26.14	55.95	-37.1	-38.0	23.8	0.00e+00	123	42	0	1077936128	48	5548
2026-01-19 14:46:38.44	26.21	56.33	-37.0	-37.9	23.9	0.00e+00	121	42	0	1081081856	48	5488
2026-01-19 14:46:39.45	26.28	56.71	-36.9	-37.9	23.8	0.00e+00	123	42	0	1084227584	48	5471
2026-01-19 14:46:40.46	26.36	57.10	-37.1	-38.0	23.8	0.00e+00	120	42	0	1087373312	48	5575
2026-01-19 14:46:41.47	26.44	57.49	-37.1	-38.0	23.8	0.00e+00	122	42	0	1090519040	48	5561
2026-01-19 14:46:42.48	26.52	57.89	-36.9	-37.8	24.0	0.00e+00	123	42	0	1093664768	48	5449
2026-01-19 14:46:43.49	26.60	58.28	-36.8	-37.7	24.0	0.00e+00	123	42	0	1096810496	48	5378
2026-01-19 14:46:44.50	26.68	58.68	-36.4	-37.3	24.2	0.00e+00	123	42	0	1099956224	46	5763
2026-01-19 14:46:45.51	26.77	59.08	-36.4	-37.3	24.2	0.00e+00	123	42	0	1103101952	46	5785
2026-01-19 14:46:46.52	26.86	59.48	-36.4	-37.3	24.3	0.00e+00	123	42	0	1106247680	46	5732
2026-01-19 14:46:47.53	26.95	59.89	-36.5	-37.5	24.2	0.00e+00	122	42	0	1109393408	46	5876
2026-01-19 14:46:48.54	27.05	60.30	-36.4	-37.3	24.4	0.00e+00	122	42	0	1112539136	46	5773
2026-01-19 14:46:49.55	27.14	60.71	-36.3	-37.2	24.5	0.00e+00	123	42	0	1115684864	46	5694
2026-01-19 14:46:50.56	27.25	61.13	-36.3	-37.2	24.4	0.00e+00	123	42	0	1118830592	46	5679
2026-01-19 14:46:51.57	27.35	61.54	-35.5	-36.4	24.9	0.00e+00	123	42	0	1121976320	44	5842
2026-01-19 14:46:52.58	27.46	61.96	-35.6	-36.5	24.9	0.00e+00	123	42	0	1125122048	44	5861
2026-01-19 14:46:53.59	27.57	62.38	-35.8	-36.7	24.8	0.00e+00	123	42	0	1128267776	44	6004
2026-01-19 14:46:54.60	27.68	62.81	-35.7	-36.6	24.9	0.00e+00	123	42	0	1131413504	44	5973
2026-01-19 14:46:55.61	27.80	63.23	-35.7	-36.6	24.8	0.00e+00	120	42	0	1134559232	44	5932
2026-01-19 14:46:56.62	27.93	63.66	-35.2	-36.1	25.1	0.00e+00	122	42	0	1137704960	44	5646
2026-01-19 14:46:57.63	28.06	64.09	-35.3	-36.2	25.1	0.00e+00	122	42	0	1140850688	44	5675
2026-01-19 14:46:58.65	28.19	64.53	-35.4	-36.3	25.1	0.00e+00	123	42	0	1143996416	44	5730
2026-01-19 14:46:59.65	28.33	64.96	-35.5	-36.3	25.0	0.00e+00	120	42	0	1147142144	44	5776
2026-01-19 14:47:00.67	28.47	65.41	-35.1	-35.9	25.1	0.00e+00	123	42	0	1150287872	44	5524
2026-01-19 14:47:01.67	28.62	65.85	-35.1	-36.0	25.1	0.00e+00	122	42	0	1153433600	44	5563
2026-01-19 14:47:02.68	28.77	66.29	-35.4	-36.3	24.9	0.00e+00	121	42	0	1156579328	44	5775
2026-01-19 14:47:03.69	28.93	66.73	-35.7	-36.5	24.9	0.00e+00	120	42	0	1159725056	44	5920
2026-01-19 14:47:04.70	29.10	67.18	-35.6	-36.5	25.0	0.00e+00	123	42	0	1162870784	44	5904
2026-01-19 14:47:05.71	29.28	67.63	-35.6	-36.5	24.8	0.00e+00	123	42	0	1167065088	44	5921
2026-01-19 14:47:06.72	29.46	68.09	-35.7	-36.6	24.7	0.00e+00	123	42	0	1169162240	44	5971
2026-01-19 14:47:07.73	29.65	68.54	-35.7	-36.6	24.7	0.00e+00	123	42	0	1172307968	44	5980
2026-01-19 14:47:08.74	29.85	69.00	-35.7	-36.6	24.6	0.00e+00	123	42	0	1175453696	44	5983
2026-01-19 14:47:09.76	30.06	69.46	-35.5	-36.4	24.7	0.00e+00	122	42	0	1178599424	44	5836
2026-01-19 14:47:10.76	30.28	69.92	-35.5	-36.4	24.7	0.00e+00	123	42	0	1182793728	44	5797
2026-01-19 14:47:11.77	30.51	70.38	-35.4	-36.3	24.7	0.00e+00	123	42	0	1185939456	44	5730
2026-01-19 14:47:12.78	30.75	70.85	-35.2	-36.1	25.0	0.00e+00	122	42	0	1189085184	44	5625
2026-01-19 14:47:13.80	31.01	71.32	-34.9	-35.7	25.4	0.00e+00	123	42	0	1192230912	44	5401
2026-01-19 14:47:14.81	31.28	71.79	-34.8	-35.6	25.4	0.00e+00	120	42	0	1194328064	42	5990
2026-01-19 14:47:15.82	31.56	72.26	-34.8	-35.6	25.5	0.00e+00	123	42	0	1198522368	42	5962
2026-01-19 14:47:16.83	31.86	72.73	-35.0	-35.8	25.1	0.00e+00	123	42	0	1201668096	42	6112
2026-01-19 14:47:17.83	32.17	73.20	-35.0	-35.8	25.2	0.00e+00	122	42	0	1204813824	42	6128
2026-01-19 14:47:18.85	32.51	73.67	-35.0	-35.8	25.3	0.00e+00	123	42	0	1207959552	42	6112
2026-01-19 14:47:19.86	32.87	74.15	-35.0	-35.9	25.3	0.00e+00	123	42	0	1211105280	42	6162
2026-01-19 14:47:20.87	33.25	74.63	-34.9	-35.7	25.5	0.00e+00	123	42	0	1214251008	42	6040
2026-01-19 14:47:21.88	33.65	75.11	-34.9	-35.7	25.1	0.00e+00	123	42	0	1217396736	42	6022
2026-01-19 14:47:22.89	34.08	75.59	-34.9	-35.8	24.7	0.00e+00	123	42	0	1220542464	42	6099
2026-01-19 14:47:23.90	34.55	76.07	-35.3	-36.2	24.8	0.00e+00	123	42	0	1223688192	42	6397
2026-01-19 14:47:24.91	35.04	76.55	-35.5	-36.3	25.0	0.00e+00	123	42	0	1226833920	42	6478
2026-01-19 14:47:25.92	35.58	77.03	-35.3	-36.1	25.0	0.00e+00	120	42	0	1229979648	42	6340
2026-01-19 14:47:26.93	36.16	77.51	-35.5	-36.3	24.6	0.00e+00	122	42	0	1233125376	42	6491
2026-01-19 14:47:27.94	36.78	77.99	-35.8	-36.7	24.3	0.00e+00	120	42	0	1236271104	44	6018
2026-01-19 14:47:28.95	37.46	78.48	-36.0	-36.9	24.5	0.00e+00	123	42	0	1239416832	44	6188
2026-01-19 14:47:29.96	38.19	78.96	-36.0	-36.9	24.6	0.00e+00	123	42	0	1242562560	44	6155
2026-01-19 14:47:30.97	39.00	79.44	-35.8	-36.7	24.4	0.00e+00	120	42	0	1245708288	44	6024
2026-01-19 14:47:31.97	39.88	79.91	-35.8	-36.7	24.1	0.00e+00	123	42	0	1248854016	44	6042
2026-01-19 14:47:32.99	40.86	80.40	-35.9	-36.8	24.3	0.00e+00	120	42	0	1251999744	44	6093
2026-01-19 14:47:33.99	41.93	80.87	-35.9	-36.9	24.4	0.00e+00	122	42	0	1255145472	44	6136
2026-01-19 14:47:35.00	43.12	81.35	-36.4	-37.4	24.1	0.00e+00	123	42	0	1258291200	44	6517
2026-01-19 14:47:36.01	44.46	81.82	-36.7	-37.7	23.9	0.00e+00	121	42	0	1261436928	46	6002
2026-01-19 14:47:37.02	45.96	82.28	-36.4	-37.4	23.9	0.00e+00	123	42	0	1264582656	46	5817
2026-01-19 14:47:38.03	47.65	82.75	-36.3	-37.2	24.2	0.00e+00	120	42	0	1267728384	46	5684
2026-01-19 14:47:39.04	49.57	83.20	-36.0	-37.0	24.2	0.00e+00	123	42	0	1270874112	46	5549
2026-01-19 14:47:40.05	51.77	83.65	-36.3	-37.2	24.1	0.00e+00	123	42	0	1274019840	46	5680
2026-01-19 14:47:41.06	54.31	84.09	-36.2	-37.1	24.2	0.00e+00	123	42	0	1277165568	46	5609
2026-01-19 14:47:42.07	57.24	84.51	-36.1	-37.0	24.3	0.00e+00	120	42	0	1280311296	46	5543
2026-01-19 14:47:43.08	60.66	84.92	-36.2	-37.1	24.2	0.00e+00	123	42	0	1283457024	46	5648
2026-01-19 14:47:44.09	64.66	85.31	-36.7	-37.6	24.0	0.00e+00	120	42	0	1286602752	46	5982
2026-01-19 14:47:45.10	69.36	85.67	-36.6	-37.5	24.1	0.00e+00	123	42	0	1289748480	46	5923
2026-01-19 14:47:46.11	74.88	86.00	-36.6	-37.5	24.2	0.00e+00	123	42	0	1292894208	46	5901
2026-01-19 14:47:47.12	81.32	86.29	-36.4	-37.3	24.2	0.00e+00	122	42	0	1296039936	46	5771
2026-01-19 14:47:48.13	88.72	86.52	-36.6	-37.5	24.1	0.00e+00	123	42	0	1299185664	46	5914
2026-01-19 14:47:49.14	97.01	86.69	-36.4	-37.3	24.2	0.00e+00	122	42	0	1302331392	46	5757
2026-01-19 14:47:50.15	105.98	86.78	-35.9	-36.8	24.6	0.00e+00	123	42	0	1305477120	46	5448
2026-01-19 14:47:51.16	115.22	86.79	-35.7	-36.6	24.5	0.00e+00	122	42	0	1308622848	44	5963
2026-01-19 14:47:52.17	124.28	86.71	-36.0	-36.9	24.4	0.00e+00	123	42	0	1311768576	44	6181
2026-01-19 14:47:53.18	132.73	86.56	-36.0	-36.9	24.6	0.00e+00	120	42	0	1314914304	44	6161
2026-01-19 14:47:54.19	140.33	86.34	-35.9	-36.7	24.7	0.00e+00	122	42	0	1318060032	44	6044
2026-01-19 14:47:55.20	146.97	86.07	-36.1	-37.0	24.6	0.00e+00	123	42	0	1321205760	44	6270
2026-01-19 14:47:56.21	152.67	85.75	-35.9	-36.8	24.6	0.00e+00	122	42	0	1324351488	44	6067
2026-01-19 14:47:57.22	157.53	85.39	-35.9	-36.8	24.6	0.00e+00	122	42	0	1327497216	44	6088
2026-01-19 14:47:58.23	161.67	85.01	-35.8	-36.7	24.7	0.00e+00	122	42	0	1330642944	44	6020
2026-01-19 14:47:59.24	165.20	84.60	-35.8	-36.7	24.8	0.00e+00	122	42	0	1333788672	44	6000
2026-01-19 14:48:00.25	168.23	84.18	-35.3	-36.2	24.7	0.00e+00	123	42	0	1336934400	44	5668
2026-01-19 14:48:01.25	170.82	83.75	-35.4	-36.3	24.6	0.00e+00	121	41	0	1340080128	44	5734
2026-01-19 14:48:02.27	173.10	83.29	-35.5	-36.4	25.0	0.00e+00	122	42	0	1343225856	44	5797
2026-01-19 14:48:03.27	175.06	82.84	-35.9	-36.8	24.6	0.00e+00	122	42	0	1346371584	44	6129
2026-01-19 14:48:04.28	176.80	82.38	-36.2	-37.1	24.3	0.00e+00	122	42	0	1349517312	44	6302
2026-01-19 14:48:05.29	178.34	81.92	-36.0	-36.9	24.3	0.00e+00	122	42	0	1352663040	44	6185
2026-01-19 14:48:06.30	179.71	81.44	-35.6	-36.5	24.7	0.00e+00	123	42	0	1355808768	44	5860
2026-01-19 14:48:07.31	180.94	80.97	-35.4	-36.3	25.0	0.00e+00	123	42	0	1358954496	44	5779
2026-01-19 14:48:08.32	182.04	80.49	-35.5	-36.4	24.9	0.00e+00	120	42	0	1362100224	44	5840
2026-01-19 14:48:09.33	183.03	80.01	-35.7	-36.6	24.7	0.00e+00	121	42	0	1365245952	44	5950
2026-01-19 14:48:10.34	183.93	79.53	-35.9	-36.8	24.5	0.00e+00	121	42	0	1368391680	44	6089
2026-01-19 14:48:11.35	184.75	79.05	-35.8	-36.7	24.5	0.00e+00	120	42	0	1371537408	44	6001
2026-01-19 14:48:12.36	185.51	78.57	-35.5	-36.4	24.9	0.00e+00	123	42	0	1374683136	44	5800
2026-01-19 14:48:13.37	186.20	78.09	-35.3	-36.2	25.1	0.00e+00	123	41	0	1377828864	44	5663
2026-01-19 14:48:14.38	186.83	77.60	-35.3	-36.2	25.1	0.00e+00	123	42	0	1380974592	44	5696
2026-01-19 14:48:15.39	187.42	77.12	-35.3	-36.2	25.1	0.00e+00	120	41	0	1384120320	44	5704
2026-01-19 14:48:16.40	187.96	76.64	-35.1	-36.0	25.1	0.00e+00	123	42	0	1387266048	44	5561
2026-01-19 14:48:17.41	188.46	76.16	-35.4	-36.3	25.0	0.00e+00	122	42	0	1390411776	44	5754
2026-01-19 14:48:18.42	188.93	75.68	-35.3	-36.1	25.1	0.00e+00	122	41	0	1393557504	44	5647
2026-01-19 14:48:19.43	189.37	75.20	-35.1	-36.0	25.0	0.00e+00	121	42	0	1396703232	44	5560
2026-01-19 14:48:20.44	189.78	74.72	-35.5	-36.3	25.0	0.00e+00	123	42	0	1399848960	44	5762
2026-01-19 14:48:21.45	190.17	74.24	-35.8	-36.7	24.5	0.00e+00	122	42	0	1402994688	44	6054
2026-01-19 14:48:22.46	190.53	73.76	-36.2	-37.1	24.4	0.00e+00	122	42	0	1406140416	44	6328
2026-01-19 14:48:23.47	190.87	73.29	-36.0	-36.9	24.5	0.00e+00	120	42	0	1409286144	44	6146
2026-01-19 14:48:24.48	191.19	72.81	-35.8	-36.8	24.4	0.00e+00	123	42	0	1412431872	44	6079
2026-01-19 14:48:25.49	191.49	72.34	-35.5	-36.4	24.7	0.00e+00	123	42	0	1415577600	44	5801
2026-01-19 14:48:26.50	191.78	71.87	-35.5	-36.4	24.9	0.00e+00	123	42	0	1418723328	44	5810
2026-01-19 14:48:27.51	192.05	71.40	-34.9	-35.8	25.3	0.00e+00	122	42	0	1421869056	44	5436
2026-01-19 14:48:28.52	192.31	70.93	-35.2	-36.1	25.0	0.00e+00	120	42	0	1425014784	44	5639
2026-01-19 14:48:29.53	192.55	70.46	-35.8	-36.7	24.6	0.00e+00	123	42	0	1428160512	44	6040
2026-01-19 14:48:30.54	192.78	70.00	-35.8	-36.7	24.6	0.00e+00	120	42	0	1431306240	44	6017
2026-01-19 14:48:31.55	193.01	69.54	-35.7	-36.6	24.5	0.00e+00	123	42	0	1434451968	44	5965
2026-01-19 14:48:32.56	193.22	69.08	-35.4	-36.3	24.7	0.00e+00	123	42	0	1437597696	44	5779
2026-01-19 14:48:33.57	193.42	68.62	-35.5	-36.4	24.7	0.00e+00	123	42	0	1440743424	44	5844
2026-01-19 14:48:34.58	193.61	68.16	-35.6	-36.5	24.7	0.00e+00	121	42	0	1443889152	44	5918
2026-01-19 14:48:35.59	193.80	67.71	-35.5	-36.4	24.9	0.00e+00	123	42	0	1447034880	44	5838
2026-01-19 14:48:36.60	193.97	67.26	-36.2	-37.1	24.4	0.00e+00	123	42	0	1450180608	44	6332
2026-01-19 14:48:37.61	194.14	66.81	-36.4	-37.3	24.3	0.00e+00	123	42	0	1453326336	44	6466
2026-01-19 14:48:38.62	194.30	66.36	-35.6	-36.5	24.8	0.00e+00	120	42	0	1456472064	44	5902
2026-01-19 14:48:39.63	194.46	65.91	-35.5	-36.4	24.6	0.00e+00	122	42	0	1459617792	44	5820
2026-01-19 14:48:40.64	194.61	65.47	-35.2	-36.1	25.0	0.00e+00	122	42	0	1462763520	44	5626
2026-01-19 14:48:41.65	194.75	65.03	-34.5	-35.3	25.7	0.00e+00	123	41	0	1465909248	42	5745
2026-01-19 14:48:42.66	194.89	64.59	-34.7	-35.6	25.5	0.00e+00	120	41	0	1469054976	42	5944
2026-01-19 14:48:43.67	195.03	64.16	-35.4	-36.2	25.1	0.00e+00	122	41	0	1472200704	42	6415
2026-01-19 14:48:44.68	195.15	63.72	-35.9	-36.8	24.6	0.00e+00	122	41	0	1475346432	44	6071
2026-01-19 14:48:45.69	195.28	63.29	-36.1	-37.1	24.2	0.00e+00	123	42	0	1478492160	44	6300
2026-01-19 14:48:46.70	195.40	62.86	-36.4	-37.3	23.5	0.00e+00	123	41	0	1481637888	44	6483
2026-01-19 14:48:47.71	195.51	62.44	-36.4	-37.4	23.1	0.00e+00	123	41	0	1484783616	44	6503
2026-01-19 14:48:48.71	195.63	62.02	-36.0	-36.9	23.9	0.00e+00	122	42	0	1487929344	44	6173
2026-01-19 14:48:49.72	195.73	61.60	-35.9	-36.8	24.5	0.00e+00	123	42	0	1491075072	44	6077
2026-01-19 14:48:50.73	195.84	61.18	-36.0	-36.9	24.2	0.00e+00	123	42	0	1494220800	44	6190
2026-01-19 14:48:51.74	195.94	60.76	-36.1	-37.0	24.0	0.00e+00	120	42	0	1497366528	44	6277
2026-01-19 14:48:52.75	196.04	60.35	-36.4	-37.4	24.0	0.00e+00	123	42	0	1500512256	44	6505
2026-01-19 14:48:53.76	196.14	59.94	-36.3	-37.2	24.2	0.00e+00	122	41	0	1503657984	44	6422
2026-01-19 14:48:54.77	196.23	59.53	-36.4	-37.3	24.1	0.00e+00	122	42	0	1507852288	44	6433
2026-01-19 14:48:55.78	196.32	59.13	-36.9	-37.8	23.6	0.00e+00	123	42	0	1509949440	46	6131
2026-01-19 14:48:56.79	196.41	58.73	-36.4	-37.4	24.1	0.00e+00	123	42	0	1513095168	46	5814
2026-01-19 14:48:57.80	196.49	58.33	-35.3	-36.2	24.8	0.00e+00	122	41	0	1516240896	44	5699
2026-01-19 14:48:58.81	196.57	57.93	-35.1	-36.0	24.8	0.00e+00	122	42	0	1519386624	44	5568
2026-01-19 14:48:59.82	196.65	57.53	-35.3	-36.2	24.9	0.00e+00	123	42	0	1523580928	44	5662
2026-01-19 14:49:00.83	196.73	57.14	-35.9	-36.8	24.5	0.00e+00	121	41	0	1526726656	44	6080
2026-01-19 14:49:01.84	196.81	56.75	-36.9	-37.8	23.8	0.00e+00	122	41	0	1529872384	44	6864
2026-01-19 14:49:02.85	196.88	56.36	-38.0	-39.0	22.8	0.00e+00	120	41	0	1531969536	48	6225
2026-01-19 14:49:03.86	196.95	55.98	-38.7	-39.8	22.3	0.00e+00	122	42	0	1535115264	48	6834
2026-01-19 14:49:04.87	197.02	55.60	-38.5	-39.5	22.4	0.00e+00	123	41	0	1539309568	48	6626
2026-01-19 14:49:05.88	197.09	55.22	-37.9	-38.9	22.6	0.00e+00	122	42	0	1542455296	48	6185
2026-01-19 14:49:06.89	197.16	54.84	-37.9	-38.9	22.6	0.00e+00	123	42	0	1545601024	48	6167
2026-01-19 14:49:07.90	197.22	54.47	-37.4	-38.3	23.1	0.00e+00	121	41	0	1548746752	48	5786
2026-01-19 14:49:08.91	197.29	54.10	-37.3	-38.2	23.1	0.00e+00	123	42	0	1551892480	48	5719
2026-01-19 14:49:09.92	197.35	53.73	-36.8	-37.8	23.5	0.00e+00	120	42	0	1555038208	48	5418
2026-01-19 14:49:10.93	197.41	53.36	-36.9	-37.9	23.8	0.00e+00	123	41	0	1558183936	48	5479
2026-01-19 14:49:11.94	197.47	53.00	-37.0	-37.9	23.8	0.00e+00	122	41	0	1561329664	48	5516
2026-01-19 14:49:12.95	197.53	52.64	-37.7	-38.7	23.2	0.00e+00	122	41	0	1564475392	48	6033
2026-01-19 14:49:13.96	197.58	52.28	-38.6	-39.6	22.3	0.00e+00	123	42	0	1567621120	48	6708
2026-01-19 14:49:14.97	197.64	51.93	-39.0	-40.0	21.9	0.00e+00	122	41	0	1570766848	50	6254
2026-01-19 14:49:15.98	197.69	51.57	-39.0	-40.0	21.9	0.00e+00	120	42	0	1573912576	50	6259
2026-01-19 14:49:16.99	197.74	51.22	-38.8	-39.8	22.0	0.00e+00	122	42	0	1577058304	50	6123
2026-01-19 14:49:18.00	197.80	50.88	-38.6	-39.6	22.1	0.00e+00	123	42	0	1580204032	50	5966
2026-01-19 14:49:19.01	197.85	50.53	-38.9	-39.9	21.7	0.00e+00	122	41	0	1583349760	50	6189
2026-01-19 14:49:20.02	197.90	50.19	-39.3	-40.4	21.5	0.00e+00	120	42	0	1586495488	50	6566
2026-01-19 14:49:21.03	197.94	49.85	-39.6	-40.7	21.4	0.00e+00	122	42	0	1589641216	50	6799
2026-01-19 14:49:22.04	197.99	49.51	-39.5	-40.6	21.5	0.00e+00	123	42	0	1592786944	50	6712
2026-01-19 14:49:23.05	198.04	49.17	-39.4	-40.5	21.6	0.00e+00	123	42	0	1595932672	50	6602
2026-01-19 14:49:24.06	198.08	48.84	-38.6	-39.7	22.3	0.00e+00	122	41	0	1599078400	50	6008
2026-01-19 14:49:25.07	198.13	48.51	-38.7	-39.7	22.3	0.00e+00	123	42	0	1602224128	50	6028
2026-01-19 14:49:26.08	198.17	48.18	-38.9	-40.0	22.0	0.00e+00	120	42	0	1605369856	50	6220
2026-01-19 14:49:27.09	198.21	47.86	-39.5	-40.6	21.4	0.00e+00	122	42	0	1608515584	50	6707
2026-01-19 14:49:28.10	198.26	47.54	-40.0	-41.2	21.0	0.00e+00	123	42	0	1611661312	52	6377
2026-01-19 14:49:29.11	198.30	47.22	-39.9	-41.0	21.1	0.00e+00	123	41	0	1614807040	52	6264
2026-01-19 14:49:30.12	198.34	46.90	-39.7	-40.9	21.2	0.00e+00	123	41	0	1617952768	52	6143
2026-01-19 14:49:31.13	198.38	46.58	-39.6	-40.7	21.4	0.00e+00	120	41	0	1621098496	52	6039
2026-01-19 14:49:32.15	198.42	46.27	-39.5	-40.6	21.7	0.00e+00	122	42	0	1624244224	52	5937
2026-01-19 14:49:33.16	198.46	45.95	-38.9	-40.0	22.1	0.00e+00	123	41	0	1627389952	52	5532
2026-01-19 14:49:34.17	198.50	45.65	-39.2	-40.2	21.9	0.00e+00	123	41	0	1630535680	52	5717
2026-01-19 14:49:35.18	198.53	45.34	-39.7	-40.7	21.5	0.00e+00	123	41	0	1633681408	52	6053
2026-01-19 14:49:36.19	198.57	45.04	-40.3	-41.5	20.7	0.00e+00	123	42	0	1636827136	52	6633
2026-01-19 14:49:37.20	198.60	44.73	-41.0	-42.3	20.0	0.00e+00	123	42	0	1639972864	54	6429
2026-01-19 14:49:38.21	198.64	44.43	-41.2	-42.5	19.8	0.00e+00	123	41	0	1643118592	54	6630
2026-01-19 14:49:39.22	198.67	44.14	-41.0	-42.2	20.1	0.00e+00	123	42	0	1646264320	54	6407
2026-01-19 14:49:40.23	198.71	43.84	-40.5	-41.6	20.6	0.00e+00	123	42	0	1649410048	54	5994
2026-01-19 14:49:41.24	198.74	43.55	-40.1	-41.2	21.1	0.00e+00	122	42	0	1652555776	54	5681
2026-01-19 14:49:42.25	198.78	43.26	-38.9	-39.9	22.2	0.00e+00	123	41	0	1655701504	52	5499
2026-01-19 14:49:43.26	198.81	42.97	-38.6	-39.6	22.5	0.00e+00	122	42	0	1658847232	50	5936
2026-01-19 14:49:44.27	198.84	42.68	-38.5	-39.5	22.4	0.00e+00	123	42	0	1661992960	50	5889
2026-01-19 14:49:45.28	198.87	42.40	-38.9	-40.0	22.0	0.00e+00	123	41	0	1665138688	50	6220
2026-01-19 14:49:46.29	198.90	42.12	-39.6	-40.7	21.3	0.00e+00	123	42	0	1668284416	50	6781
2026-01-19 14:49:47.30	198.93	41.84	-40.2	-41.5	20.6	0.00e+00	123	42	0	1671430144	52	6581
2026-01-19 14:49:48.31	198.96	41.56	-40.8	-42.1	20.2	0.00e+00	123	42	0	1674575872	52	7081
2026-01-19 14:49:49.32	198.99	41.29	-40.7	-42.0	20.3	0.00e+00	123	42	0	1677721600	54	6238
2026-01-19 14:49:50.33	199.02	41.01	-40.1	-41.4	20.9	0.00e+00	123	41	0	1680867328	54	5792
2026-01-19 14:49:51.34	199.05	40.74	-39.8	-40.9	21.3	0.00e+00	123	42	0	1684013056	54	5496
2026-01-19 14:49:52.35	199.08	40.47	-39.4	-40.5	21.6	0.00e+00	122	42	0	1687158784	52	5874
2026-01-19 14:49:53.36	199.11	40.20	-39.2	-40.3	21.8	0.00e+00	123	42	0	1690304512	52	5740
2026-01-19 14:49:54.37	199.14	39.94	-39.1	-40.1	21.9	0.00e+00	123	42	0	1693450240	52	5656
2026-01-19 14:49:55.38	199.16	39.67	-38.9	-39.9	22.1	0.00e+00	123	42	0	1696595968	52	5478
2026-01-19 14:49:56.39	199.19	39.41	-38.9	-39.9	22.1	0.00e+00	123	42	0	1699741696	52	5513
2026-01-19 14:49:57.40	199.22	39.15	-39.0	-40.1	21.9	0.00e+00	122	42	0	1702887424	52	5597
2026-01-19 14:49:58.41	199.24	38.90	-39.0	-40.0	22.0	0.00e+00	123	41	0	1706033152	52	5569
2026-01-19 14:49:59.42	199.27	38.64	-39.1	-40.1	21.9	0.00e+00	122	42	0	1709178880	52	5650
2026-01-19 14:50:00.43	199.29	38.39	-39.0	-40.0	22.2	0.00e+00	122	42	0	1712324608	52	5556
2026-01-19 14:50:01.44	199.32	38.13	-38.3	-39.3	22.7	0.00e+00	122	42	0	1715470336	50	5756
2026-01-19 14:50:02.45	199.34	37.88	-37.9	-38.8	22.9	0.00e+00	123	42	0	1718616064	50	5464
2026-01-19 14:50:03.46	199.37	37.64	-37.8	-38.8	22.9	0.00e+00	122	42	0	1721761792	50	5449
2026-01-19 14:50:04.47	199.39	37.39	-37.8	-38.7	23.0	0.00e+00	120	42	0	1724907520	50	5387
2026-01-19 14:50:05.48	199.42	37.15	-37.8	-38.7	23.0	0.00e+00	123	42	0	1728053248	48	6041
2026-01-19 14:50:06.49	199.44	36.90	-38.0	-39.0	22.8	0.00e+00	122	41	0	1731198976	48	6219
2026-01-19 14:50:07.50	199.46	36.66	-38.1	-39.1	22.7	0.00e+00	123	42	0	1734344704	48	6343
2026-01-19 14:50:08.51	199.48	36.42	-38.3	-39.3	22.5	0.00e+00	123	41	0	1737490432	48	6461
2026-01-19 14:50:09.52	199.51	36.18	-38.5	-39.5	22.2	0.00e+00	122	42	0	1740636160	48	6638
2026-01-19 14:50:10.53	199.53	35.95	-38.7	-39.8	21.8	0.00e+00	120	41	0	1743781888	48	6805
2026-01-19 14:50:11.54	199.55	35.71	-38.8	-40.0	21.7	0.00e+00	123	41	0	1746927616	50	6214
2026-01-19 14:50:12.54	199.57	35.48	-39.0	-40.1	21.7	0.00e+00	123	41	0	1750073344	50	6293
2026-01-19 14:50:13.56	199.60	35.25	-38.9	-40.0	21.8	0.00e+00	123	41	0	1753219072	50	6250
2026-01-19 14:50:14.57	199.62	35.02	-39.0	-40.1	21.7	0.00e+00	120	42	0	1756364800	50	6288
2026-01-19 14:50:15.58	199.64	34.80	-38.9	-40.0	21.7	0.00e+00	122	42	0	1759510528	50	6208
2026-01-19 14:50:16.59	199.66	34.57	-39.0	-40.1	21.7	0.00e+00	123	41	0	1762656256	50	6300
2026-01-19 14:50:17.60	199.68	34.35	-39.0	-40.1	21.6	0.00e+00	122	42	0	1765801984	50	6327
2026-01-19 14:50:18.60	199.70	34.13	-38.9	-39.9	22.0	0.00e+00	122	41	0	1768947712	50	6194
2026-01-19 14:50:19.61	199.72	33.90	-38.6	-39.6	22.3	0.00e+00	123	41	0	1772093440	50	5993
2026-01-19 14:50:20.62	199.74	33.68	-38.2	-39.2	22.6	0.00e+00	123	42	0	1775239168	50	5715
2026-01-19 14:50:21.63	199.76	33.47	-37.9	-38.9	23.0	0.00e+00	123	41	0	1778384896	50	5483
2026-01-19 14:50:22.64	199.78	33.25	-37.5	-38.4	23.3	0.00e+00	122	41	0	1781530624	48	5849
2026-01-19 14:50:23.65	199.80	33.04	-37.7	-38.6	23.2	0.00e+00	123	42	0	1784676352	48	5983
2026-01-19 14:50:24.66	199.82	32.82	-37.5	-38.4	23.5	0.00e+00	122	42	0	1787822080	48	5830
2026-01-19 14:50:25.67	199.84	32.61	-37.4	-38.4	23.3	0.00e+00	122	41	0	1790967808	48	5805
2026-01-19 14:50:26.69	199.85	32.40	-37.5	-38.5	23.3	0.00e+00	123	42	0	1794113536	48	5873
2026-01-19 14:50:27.69	199.87	32.19	-37.1	-38.1	23.5	0.00e+00	122	42	0	1797259264	48	5622
2026-01-19 14:50:28.70	199.89	31.98	-37.1	-38.0	23.6	0.00e+00	122	42	0	1800404992	48	5566
2026-01-19 14:50:29.71	199.91	31.78	-37.1	-38.0	23.6	0.00e+00	122	42	0	1803550720	48	5558
2026-01-19 14:50:30.72	199.93	31.57	-37.1	-38.0	23.7	0.00e+00	120	42	0	1806696448	48	5560
2026-01-19 14:50:31.73	199.95	31.37	-37.2	-38.2	23.5	0.00e+00	123	42	0	1809842176	48	5680
2026-01-19 14:50:32.74	199.96	31.17	-37.4	-38.4	23.3	0.00e+00	120	42	0	1812987904	48	5831
2026-01-19 14:50:33.75	199.98	30.97	-37.6	-38.6	23.1	0.00e+00	123	42	0	1816133632	48	5955
2026-01-19 14:50:34.76	200.00	30.77	-37.7	-38.7	23.1	0.00e+00	122	41	0	1820327936	48	6027
2026-01-19 14:50:35.77	200.01	30.57	-37.8	-38.8	23.0	0.00e+00	123	41	0	1823473664	48	6129
2026-01-19 14:50:36.78	200.03	30.38	-37.7	-38.7	23.0	0.00e+00	121	41	0	1825570816	48	6048
2026-01-19 14:50:37.79	200.05	30.18	-37.7	-38.7	23.0	0.00e+00	121	42	0	1828716544	48	6032
2026-01-19 14:50:38.81	200.07	29.99	-37.7	-38.7	23.0	0.00e+00	123	42	0	1831862272	48	6021
2026-01-19 14:50:39.81	200.08	29.79	-37.5	-38.5	23.2	0.00e+00	120	41	0	1836056576	48	5902
2026-01-19 14:50:40.83	200.10	29.60	-37.4	-38.4	23.2	0.00e+00	120	42	0	1839202304	48	5805
2026-01-19 14:50:41.84	200.11	29.41	-37.4	-38.4	23.1	0.00e+00	121	42	0	1842348032	48	5843
2026-01-19 14:50:42.84	200.13	29.23	-37.4	-38.4	23.1	0.00e+00	120	42	0	1845493760	48	5812
2026-01-19 14:50:43.85	200.15	29.04	-37.4	-38.4	23.2	0.00e+00	123	42	0	1847590912	48	5809
2026-01-19 14:50:44.86	200.16	28.85	-37.1	-38.1	23.4	0.00e+00	123	42	0	1851785216	48	5612
2026-01-19 14:50:45.87	200.18	28.67	-37.1	-38.1	23.4	0.00e+00	123	41	0	1854930944	48	5602
2026-01-19 14:50:46.88	200.19	28.48	-37.3	-38.2	23.3	0.00e+00	122	42	0	1858076672	48	5719
2026-01-19 14:50:47.88	200.21	28.30	-36.9	-37.8	23.6	0.00e+00	123	42	0	1861222400	48	5431
2026-01-19 14:50:48.90	200.22	28.12	-36.6	-37.5	23.8	0.00e+00	122	42	0	1864368128	46	5886
2026-01-19 14:50:49.91	200.24	27.94	-36.7	-37.6	23.8	0.00e+00	120	42	0	1867513856	46	5953
2026-01-19 14:50:50.92	200.25	27.76	-36.6	-37.5	23.9	0.00e+00	123	42	0	1870659584	46	5882
2026-01-19 14:50:51.92	200.27	27.59	-36.5	-37.4	23.9	0.00e+00	122	42	0	1873805312	46	5839
2026-01-19 14:50:52.93	200.28	27.41	-36.4	-37.3	24.0	0.00e+00	123	42	0	1876951040	46	5774
2026-01-19 14:50:53.94	200.30	27.23	-36.4	-37.3	24.0	0.00e+00	122	42	0	1880096768	46	5766
2026-01-19 14:50:54.95	200.31	27.06	-36.3	-37.2	24.0	0.00e+00	123	42	0	1883242496	46	5695
2026-01-19 14:50:55.96	200.33	26.89	-36.2	-37.1	24.1	0.00e+00	122	42	0	1886388224	46	5618
2026-01-19 14:50:56.97	200.34	26.71	-36.1	-37.0	24.2	0.00e+00	122	42	0	1889533952	46	5575
2026-01-19 14:50:57.98	200.35	26.54	-36.2	-37.1	24.2	0.00e+00	122	42	0	1892679680	46	5626
2026-01-19 14:50:58.99	200.37	26.37	-36.0	-36.9	24.4	0.00e+00	120	42	0	1895825408	46	5471
2026-01-19 14:51:00.00	200.38	26.20	-35.8	-36.7	24.5	0.00e+00	123	42	0	1898971136	46	5381
2026-01-19 14:51:00.98	200.40	26.04	-35.8	-36.7	24.6	0.00e+00	120	42	0	1902116864	46	5367
2026-01-19 14:51:01.99	200.41	25.87	-35.9	-36.7	24.5	0.00e+00	123	42	0	1905262592	46	5404
2026-01-19 14:51:03.01	200.42	25.71	-35.8	-36.7	24.5	0.00e+00	122	42	0	1908408320	46	5386
2026-01-19 14:51:04.02	200.44	25.54	-35.9	-36.8	24.3	0.00e+00	123	42	0	1911554048	46	5433
2026-01-19 14:51:05.03	200.45	25.38	-35.9	-36.8	24.4	0.00e+00	122	42	0	1914699776	46	5433
2026-01-19 14:51:06.04	200.46	25.22	-36.0	-36.9	24.4	0.00e+00	122	42	0	1917845504	46	5477
2026-01-19 14:51:07.05	200.48	25.05	-35.9	-36.8	24.5	0.00e+00	120	42	0	1920991232	46	5450
2026-01-19 14:51:08.06	200.49	24.89	-35.9	-36.8	24.5	0.00e+00	123	42	0	1924136960	46	5419
2026-01-19 14:51:09.07	200.50	24.73	-35.9	-36.8	24.5	0.00e+00	120	41	0	1927282688	46	5427
2026-01-19 14:51:10.08	200.51	24.57	-36.0	-36.8	24.5	0.00e+00	123	41	0	1930428416	46	5464
2026-01-19 14:51:11.09	200.53	24.42	-35.8	-36.7	24.6	0.00e+00	122	41	0	1933574144	46	5358
2026-01-19 14:51:12.10	200.54	24.26	-36.0	-36.8	24.5	0.00e+00	122	42	0	1936719872	46	5464
2026-01-19 14:51:13.11	200.55	24.10	-36.1	-37.0	24.3	0.00e+00	123	42	0	1939865600	46	5534
2026-01-19 14:51:14.12	200.56	23.95	-36.2	-37.1	24.3	0.00e+00	122	42	0	1943011328	46	5637
2026-01-19 14:51:15.12	200.58	23.80	-36.3	-37.2	24.3	0.00e+00	123	42	0	1946157056	46	5685
2026-01-19 14:51:16.13	200.59	23.64	-36.4	-37.3	24.2	0.00e+00	123	42	0	1949302784	46	5777
2026-01-19 14:51:17.14	200.60	23.49	-36.4	-37.3	24.1	0.00e+00	122	42	0	1952448512	46	5742
2026-01-19 14:51:18.15	200.61	23.34	-36.4	-37.2	24.2	0.00e+00	122	42	0	1955594240	46	5718
2026-01-19 14:51:19.16	200.63	23.19	-36.4	-37.3	24.2	0.00e+00	122	41	0	1958739968	46	5744
2026-01-19 14:51:20.17	200.64	23.04	-36.4	-37.3	24.1	0.00e+00	122	42	0	1961885696	46	5766
2026-01-19 14:51:21.18	200.65	22.89	-36.5	-37.4	24.0	0.00e+00	123	42	0	1965031424	46	5849
2026-01-19 14:51:22.19	200.66	22.74	-36.6	-37.5	24.0	0.00e+00	123	41	0	1968177152	46	5921
2026-01-19 14:51:23.20	200.67	22.59	-36.7	-37.6	23.9	0.00e+00	123	42	0	1971322880	46	5985
2026-01-19 14:51:24.21	200.68	22.45	-36.6	-37.6	23.9	0.00e+00	120	42	0	1974468608	46	5931
2026-01-19 14:51:25.22	200.70	22.30	-36.6	-37.5	23.8	0.00e+00	123	41	0	1977614336	46	5923
