passes_logs/2026/01/19/R4.6S_Anadyr/R4.6S_Anadyr__20260119_225533_NOAA_21_JPSS-2_rec.log

#Pass ID: 20260119_225533_NOAA 21 (JPSS-2)
#Satellite: NOAA 21 (JPSS-2)
#Configuration: NOAA-21
#almurnet v.1.7.20251203
#Start time: 2026-01-19 22:55:37

#Version: 2.2.20231116
#Station: R4.6S_Anadyr
#Location: 177.4865 lon 64.73178 lat
#TLE: 1 54234U 22150A   26019.31231101  .00000073  00000+0  55355-4 0  9994
#TLE: 2 54234  98.7504 320.1599 0000604 258.3686 101.7423 14.19535697165426

#Time	Az	El	Level	Level2	SNR	BER	BlckErr	Temp	State	Recorded	gain1	gain2
2026-01-19 22:55:37.04	124.64	0.23	-53.3	-54.9	5.7	0.00e+00	0	39	0	0	60	67931
2026-01-19 22:55:38.01	124.61	0.29	-53.9	-66.7	3.5	1.52e+00	0	41	104	0	60	76279
2026-01-19 22:55:38.99	124.58	0.35	-52.7	-65.5	3.5	1.52e+00	0	41	104	0	60	66451
2026-01-19 22:55:39.97	124.55	0.41	-51.3	-64.1	3.5	1.52e+00	0	41	104	0	60	56269
2026-01-19 22:55:40.94	124.52	0.46	-51.2	-64.0	3.5	1.52e+00	0	41	104	0	60	55683
2026-01-19 22:55:41.92	124.49	0.52	-51.2	-64.1	3.5	1.52e+00	0	41	104	0	60	56287
2026-01-19 22:55:42.90	124.45	0.58	-52.4	-65.2	3.5	1.52e+00	0	41	104	0	60	64030
2026-01-19 22:55:43.88	124.42	0.64	-51.6	-64.4	3.5	1.52e+00	0	41	104	0	60	58433
2026-01-19 22:55:44.85	124.39	0.69	-51.3	-64.1	3.5	1.52e+00	0	41	104	0	60	56255
2026-01-19 22:55:45.83	124.36	0.75	-50.8	-63.6	3.5	1.52e+00	0	41	104	0	60	52907
2026-01-19 22:55:46.81	124.33	0.81	-50.8	-63.6	3.5	1.52e+00	0	41	104	0	60	53168
2026-01-19 22:55:47.79	124.29	0.87	-51.5	-64.3	3.5	1.52e+00	0	41	104	0	60	57813
2026-01-19 22:55:48.77	124.26	0.93	-51.2	-64.0	3.5	1.52e+00	0	41	104	0	60	55841
2026-01-19 22:55:49.75	124.23	0.99	-51.3	-64.2	3.5	1.52e+00	0	41	104	0	60	56908
2026-01-19 22:55:50.72	124.20	1.05	-51.0	-64.0	3.5	1.52e+00	0	41	104	0	60	55506
2026-01-19 22:55:51.70	124.17	1.10	-50.5	-63.7	3.5	1.52e+00	0	41	104	0	60	53950
2026-01-19 22:55:52.68	124.13	1.16	-51.1	-63.9	3.5	1.52e+00	0	41	104	0	60	54990
2026-01-19 22:55:53.65	124.10	1.22	-50.1	-63.2	3.5	1.52e+00	0	41	104	0	60	50858
2026-01-19 22:55:54.63	124.07	1.28	-50.4	-63.2	3.5	1.52e+00	0	41	104	0	60	50610
2026-01-19 22:55:55.61	124.03	1.34	-50.5	-63.2	3.5	1.52e+00	0	41	104	0	60	50897
2026-01-19 22:55:56.59	124.00	1.40	-50.1	-62.9	3.5	1.52e+00	0	41	104	0	60	49140
2026-01-19 22:55:57.56	123.97	1.46	-50.1	-63.0	3.5	1.52e+00	0	41	104	0	60	49856
2026-01-19 22:55:58.54	123.93	1.52	-49.7	-62.7	3.5	1.52e+00	0	41	104	0	60	47701
2026-01-19 22:55:59.52	123.90	1.58	-50.0	-63.0	3.5	1.52e+00	0	41	104	0	60	49728
2026-01-19 22:56:00.50	123.86	1.64	-49.6	-62.7	3.5	1.52e+00	0	41	104	0	60	48074
2026-01-19 22:56:01.48	123.83	1.70	-49.0	-62.1	3.5	1.51e+00	0	41	104	0	60	44759
2026-01-19 22:56:02.45	123.80	1.76	-48.8	-61.9	3.5	1.51e+00	0	41	104	0	60	43908
2026-01-19 22:56:03.43	123.76	1.82	-48.9	-62.0	3.5	1.52e+00	0	41	104	0	60	44221
2026-01-19 22:56:04.41	123.73	1.88	-48.7	-61.9	3.5	1.52e+00	0	41	104	0	60	43442
2026-01-19 22:56:05.39	123.69	1.94	-48.8	-61.8	3.5	1.52e+00	0	41	104	0	60	43196
2026-01-19 22:56:06.37	123.66	2.00	-49.0	-61.9	3.5	1.52e+00	0	41	104	0	60	43870
2026-01-19 22:56:07.35	123.62	2.06	-49.4	-62.4	3.5	1.52e+00	0	41	104	0	60	46498
2026-01-19 22:56:08.33	123.59	2.12	-49.0	-61.8	3.5	1.52e+00	0	41	104	0	60	43240
2026-01-19 22:56:09.30	123.55	2.18	-48.7	-61.7	3.5	1.52e+00	0	41	104	0	60	42907
2026-01-19 22:56:10.28	123.52	2.24	-48.8	-62.0	3.5	1.51e+00	0	41	104	0	60	43936
2026-01-19 22:56:11.27	123.48	2.31	-48.8	-62.0	3.5	1.52e+00	0	41	104	0	60	44163
2026-01-19 22:56:12.24	123.44	2.37	-48.9	-62.1	3.5	1.52e+00	0	41	104	0	60	44952
2026-01-19 22:56:13.22	123.41	2.43	-49.4	-62.6	3.5	1.52e+00	0	42	104	0	60	47185
2026-01-19 22:56:14.20	123.37	2.49	-49.6	-62.7	3.5	1.52e+00	0	41	104	0	60	47818
2026-01-19 22:56:15.18	123.34	2.55	-49.0	-62.0	3.5	1.52e+00	0	41	104	0	60	43946
2026-01-19 22:56:16.16	123.30	2.61	-49.4	-62.3	3.5	1.51e+00	0	41	104	0	60	45489
2026-01-19 22:56:17.13	123.26	2.67	-49.3	-61.9	3.5	1.52e+00	0	41	104	0	60	43505
2026-01-19 22:56:18.11	123.23	2.74	-49.1	-61.5	3.5	1.52e+00	0	42	104	0	60	41668
2026-01-19 22:56:19.09	123.19	2.80	-49.1	-61.5	3.5	1.51e+00	0	41	104	0	60	41652
2026-01-19 22:56:20.06	123.15	2.86	-49.2	-61.5	3.5	1.52e+00	0	41	104	0	60	41746
2026-01-19 22:56:21.04	123.12	2.92	-48.9	-61.0	3.5	1.52e+00	0	42	104	0	60	39174
2026-01-19 22:56:22.02	123.08	2.99	-50.2	-62.7	3.5	1.52e+00	0	42	104	0	60	47698
2026-01-19 22:56:23.00	123.04	3.05	-48.8	-60.8	3.5	1.52e+00	0	41	104	0	60	38380
2026-01-19 22:56:23.97	123.00	3.11	-50.1	-61.9	4.4	1.50e+00	0	42	104	0	60	43660
2026-01-19 22:56:24.96	122.96	3.17	-49.3	-58.4	3.5	6.98e-01	2	42	104	0	60	29106
2026-01-19 22:56:25.94	122.93	3.24	-48.5	-53.9	6.4	2.26e-02	0	42	104	0	60	17403
2026-01-19 22:56:26.91	122.89	3.30	-47.9	-53.2	8.0	3.20e-01	0	41	104	0	60	16078
2026-01-19 22:56:27.89	122.85	3.36	-47.5	-52.0	9.6	3.11e-03	0	42	0	2097152	60	13929
2026-01-19 22:56:28.87	122.81	3.43	-46.8	-50.0	13.8	1.27e-03	0	42	0	5242880	60	11040
2026-01-19 22:56:29.84	122.77	3.49	-48.2	-53.0	9.1	8.30e-06	0	42	0	7340032	60	15635
2026-01-19 22:56:30.82	122.73	3.55	-46.3	-49.0	11.5	8.77e-05	0	42	0	10485760	60	9866
2026-01-19 22:56:31.80	122.69	3.62	-47.0	-50.6	11.3	2.03e-04	0	42	0	13631488	60	11829
2026-01-19 22:56:32.78	122.65	3.68	-49.0	-57.6	3.8	4.39e-01	1	42	104	16777216	60	26656
2026-01-19 22:56:33.75	122.61	3.75	-46.9	-51.9	8.0	1.19e-04	0	42	0	16777216	60	13814
2026-01-19 22:56:34.73	122.57	3.81	-41.4	-43.0	18.5	3.96e-05	0	42	104	16777216	56	6275
2026-01-19 22:56:35.71	122.53	3.88	-49.7	-60.3	3.5	8.73e-02	0	42	104	18874368	60	36464
2026-01-19 22:56:36.68	122.49	3.94	-44.1	-46.6	5.1	1.46e+00	0	42	104	18874368	60	7537
2026-01-19 22:56:37.67	122.45	4.00	-41.8	-43.3	18.1	0.00e+00	0	42	0	18874368	56	6443
2026-01-19 22:56:38.64	122.41	4.07	-43.2	-44.8	18.3	0.00e+00	0	42	0	22020096	60	6066
2026-01-19 22:56:39.63	122.37	4.13	-42.1	-43.5	18.5	0.00e+00	0	42	0	25165824	58	5913
2026-01-19 22:56:40.61	122.33	4.20	-42.7	-44.2	17.8	0.00e+00	0	42	0	28311552	58	6413
2026-01-19 22:56:41.59	122.29	4.27	-40.9	-42.2	18.4	0.00e+00	0	42	0	31457280	56	5694
2026-01-19 22:56:42.56	122.25	4.33	-42.6	-44.1	18.6	0.00e+00	0	42	0	33554432	56	7078
2026-01-19 22:56:43.54	122.21	4.40	-42.0	-43.5	18.6	0.00e+00	0	42	0	36700160	56	6589
2026-01-19 22:56:44.52	122.17	4.46	-41.2	-42.5	19.4	0.00e+00	0	42	0	39845888	54	6601
2026-01-19 22:56:45.49	122.12	4.53	-42.3	-43.7	18.7	0.00e+00	0	42	0	42991616	56	6773
2026-01-19 22:56:46.47	122.08	4.59	-41.9	-43.3	19.7	0.00e+00	0	42	0	46137344	58	5762
2026-01-19 22:56:47.44	122.04	4.66	-41.8	-43.2	18.5	0.00e+00	0	42	0	49283072	56	6359
2026-01-19 22:56:48.42	122.00	4.73	-41.9	-43.2	19.1	0.00e+00	0	42	0	52428800	56	6412
2026-01-19 22:56:49.40	121.95	4.79	-42.2	-43.7	19.0	0.00e+00	0	42	0	55574528	56	6729
2026-01-19 22:56:50.38	121.91	4.86	-42.1	-43.6	17.9	0.00e+00	0	42	0	58720256	58	5927
2026-01-19 22:56:51.35	121.87	4.92	-43.6	-45.2	16.4	0.00e+00	0	42	0	61865984	60	6420
2026-01-19 22:56:52.33	121.83	4.99	-41.5	-42.8	18.8	0.00e+00	0	42	0	65011712	56	6091
2026-01-19 22:56:53.31	121.78	5.06	-42.1	-43.5	19.4	0.00e+00	0	42	0	68157440	56	6618
2026-01-19 22:56:54.29	121.74	5.13	-41.9	-43.3	19.0	0.00e+00	0	42	0	70254592	56	6466
2026-01-19 22:56:55.26	121.69	5.19	-41.8	-43.1	19.3	0.00e+00	0	42	0	73400320	56	6346
2026-01-19 22:56:56.24	121.65	5.26	-41.2	-42.4	20.0	0.00e+00	0	42	0	76546048	56	5856
2026-01-19 22:56:57.22	121.61	5.33	-41.4	-42.7	19.6	0.00e+00	0	42	0	79691776	56	6001
2026-01-19 22:56:58.20	121.56	5.40	-40.7	-42.0	20.3	0.00e+00	0	42	0	82837504	54	6235
2026-01-19 22:56:59.17	121.52	5.46	-40.9	-42.3	20.1	0.00e+00	0	42	0	85983232	54	6453
2026-01-19 22:57:00.15	121.47	5.53	-44.7	-46.8	16.5	0.00e+00	0	42	0	89128960	58	8632
2026-01-19 22:57:01.13	121.43	5.60	-46.2	-48.7	17.2	7.00e-07	0	42	0	92274688	60	9507
2026-01-19 22:57:02.11	121.38	5.67	-43.1	-44.9	14.9	0.00e+00	0	42	0	95420416	60	6183
2026-01-19 22:57:03.08	121.33	5.74	-42.8	-44.4	19.2	0.00e+00	0	42	0	98566144	58	6539
2026-01-19 22:57:04.06	121.29	5.81	-41.8	-43.3	19.4	0.00e+00	0	42	0	101711872	58	5756
2026-01-19 22:57:05.04	121.24	5.87	-45.0	-47.0	17.4	0.00e+00	0	42	0	103809024	60	7846
2026-01-19 22:57:06.01	121.20	5.94	-42.0	-43.4	19.4	0.00e+00	0	42	0	106954752	56	6562
2026-01-19 22:57:06.99	121.15	6.01	-42.6	-44.1	18.3	0.00e+00	0	42	0	110100480	56	7082
2026-01-19 22:57:07.97	121.10	6.08	-42.0	-43.3	18.9	0.00e+00	0	42	0	113246208	56	6485
2026-01-19 22:57:08.94	121.05	6.15	-42.0	-43.4	19.5	0.00e+00	0	42	0	116391936	56	6525
2026-01-19 22:57:09.92	121.01	6.22	-46.3	-48.6	15.0	0.00e+00	0	42	0	119537664	60	9395
2026-01-19 22:57:10.90	120.96	6.29	-41.7	-43.0	19.3	0.00e+00	0	42	0	122683392	58	5552
2026-01-19 22:57:11.88	120.91	6.36	-40.9	-42.2	19.7	0.00e+00	0	42	0	125829120	56	5683
2026-01-19 22:57:12.86	120.86	6.43	-44.0	-45.6	17.7	0.00e+00	0	42	0	128974848	60	6724
2026-01-19 22:57:13.83	120.82	6.50	-42.5	-43.8	18.0	0.00e+00	0	42	0	132120576	60	5428
2026-01-19 22:57:14.80	120.77	6.57	-41.3	-42.6	19.7	0.00e+00	0	42	0	135266304	56	5932
2026-01-19 22:57:15.78	120.72	6.64	-43.1	-44.6	18.5	0.00e+00	0	42	0	137363456	56	7500
2026-01-19 22:57:16.76	120.67	6.71	-42.0	-43.2	19.6	0.00e+00	0	42	0	140509184	58	5696
2026-01-19 22:57:17.73	120.62	6.78	-41.3	-42.5	19.6	0.00e+00	0	42	0	143654912	56	5915
2026-01-19 22:57:18.72	120.57	6.86	-41.1	-42.4	19.7	0.00e+00	0	42	0	146800640	56	5796
2026-01-19 22:57:19.69	120.52	6.93	-41.1	-42.4	19.5	0.00e+00	0	42	0	149946368	54	6508
2026-01-19 22:57:20.67	120.47	7.00	-41.0	-42.3	19.6	0.00e+00	0	42	0	153092096	54	6429
2026-01-19 22:57:21.65	120.42	7.07	-40.6	-41.8	20.2	0.00e+00	0	42	0	156237824	54	6083
2026-01-19 22:57:22.63	120.37	7.14	-40.3	-41.5	20.3	0.00e+00	0	42	0	159383552	54	5879
2026-01-19 22:57:23.60	120.32	7.21	-39.8	-40.9	20.6	0.00e+00	0	42	0	162529280	54	5506
2026-01-19 22:57:24.58	120.27	7.29	-39.9	-41.1	20.8	0.00e+00	0	42	0	165675008	52	6290
2026-01-19 22:57:25.55	120.22	7.36	-40.1	-41.2	20.8	0.00e+00	0	42	0	168820736	52	6374
2026-01-19 22:57:26.53	120.16	7.43	-40.2	-41.4	20.8	0.00e+00	0	42	0	170917888	52	6527
2026-01-19 22:57:27.51	120.11	7.50	-40.7	-41.8	20.8	0.00e+00	0	42	0	174063616	52	6872
2026-01-19 22:57:28.49	120.06	7.58	-40.1	-41.2	20.8	0.00e+00	0	42	0	177209344	52	6420
2026-01-19 22:57:29.47	120.01	7.65	-40.0	-41.1	20.9	0.00e+00	0	42	0	180355072	52	6331
2026-01-19 22:57:30.44	119.95	7.72	-40.4	-41.6	20.3	0.00e+00	0	42	0	183500800	54	5944
2026-01-19 22:57:31.42	119.90	7.80	-39.8	-40.8	21.3	0.00e+00	0	42	0	186646528	52	6126
2026-01-19 22:57:32.40	119.85	7.87	-39.5	-40.6	21.7	0.00e+00	0	42	0	189792256	52	5937
2026-01-19 22:57:33.38	119.79	7.95	-40.4	-41.5	21.1	0.00e+00	0	42	0	192937984	54	5871
2026-01-19 22:57:34.36	119.74	8.02	-39.9	-40.9	21.6	0.00e+00	0	42	0	196083712	52	6195
2026-01-19 22:57:35.34	119.68	8.09	-39.8	-40.9	21.6	0.00e+00	0	42	0	199229440	52	6159
2026-01-19 22:57:36.31	119.63	8.17	-40.2	-41.2	21.6	0.00e+00	0	42	0	202375168	52	6377
2026-01-19 22:57:37.29	119.58	8.24	-39.6	-40.6	21.9	0.00e+00	0	42	0	205520896	52	5983
2026-01-19 22:57:38.27	119.52	8.32	-39.7	-40.8	21.8	0.00e+00	0	42	0	207618048	52	6067
2026-01-19 22:57:39.25	119.46	8.39	-40.5	-41.6	21.2	0.00e+00	0	42	0	210763776	54	5989
2026-01-19 22:57:40.23	119.41	8.47	-39.5	-40.6	21.5	0.00e+00	0	42	0	213909504	52	5963
2026-01-19 22:57:41.21	119.35	8.55	-40.4	-41.4	21.5	0.00e+00	0	42	0	217055232	52	6550
2026-01-19 22:57:42.19	119.30	8.62	-39.7	-40.8	21.9	0.00e+00	0	42	0	220200960	52	6065
2026-01-19 22:57:43.17	119.24	8.70	-39.2	-40.2	22.0	0.00e+00	0	42	0	223346688	52	5719
2026-01-19 22:57:44.15	119.18	8.77	-39.6	-40.6	21.8	0.00e+00	0	42	0	226492416	52	5965
2026-01-19 22:57:45.13	119.12	8.85	-39.0	-40.0	22.1	0.00e+00	0	42	0	229638144	52	5551
2026-01-19 22:57:46.11	119.07	8.93	-39.3	-40.3	22.1	0.00e+00	0	42	0	232783872	52	5751
2026-01-19 22:57:47.08	119.01	9.00	-39.3	-40.4	21.9	0.00e+00	0	42	0	235929600	52	5818
2026-01-19 22:57:48.06	118.95	9.08	-39.4	-40.4	21.8	0.00e+00	0	42	0	239075328	52	5839
2026-01-19 22:57:49.04	118.89	9.16	-39.4	-40.5	22.1	0.00e+00	0	42	0	242221056	52	5882
2026-01-19 22:57:50.01	118.83	9.23	-38.9	-39.9	22.1	0.00e+00	0	42	0	245366784	52	5510
2026-01-19 22:57:50.99	118.77	9.31	-39.5	-40.5	22.1	0.00e+00	0	42	0	247463936	52	5924
2026-01-19 22:57:51.96	118.71	9.39	-39.5	-40.5	22.0	0.00e+00	0	42	0	250609664	52	5907
2026-01-19 22:57:52.94	118.65	9.47	-39.4	-40.5	22.3	0.00e+00	0	42	0	253755392	52	5860
2026-01-19 22:57:53.92	118.59	9.55	-39.4	-40.5	21.9	0.00e+00	0	42	0	256901120	52	5873
2026-01-19 22:57:54.90	118.53	9.62	-39.1	-40.2	22.2	0.00e+00	0	42	0	260046848	52	5684
2026-01-19 22:57:55.87	118.47	9.70	-39.0	-40.1	22.1	0.00e+00	0	42	0	263192576	50	6283
2026-01-19 22:57:56.85	118.41	9.78	-39.3	-40.4	22.2	0.00e+00	0	42	0	266338304	50	6517
2026-01-19 22:57:57.83	118.35	9.86	-39.3	-40.3	22.4	0.00e+00	0	42	0	269484032	50	6488
2026-01-19 22:57:58.81	118.29	9.94	-40.2	-41.2	21.8	0.00e+00	0	42	0	272629760	52	6412
2026-01-19 22:57:59.79	118.23	10.02	-39.1	-40.1	22.5	0.00e+00	0	42	0	275775488	52	5653
2026-01-19 22:58:00.77	118.16	10.10	-38.9	-39.9	22.3	0.00e+00	0	42	0	278921216	50	6148
2026-01-19 22:58:01.75	118.10	10.18	-39.5	-40.5	22.6	0.00e+00	0	42	0	281018368	50	6644
2026-01-19 22:58:02.72	118.04	10.26	-39.1	-40.0	22.6	0.00e+00	0	42	0	284164096	52	5587
2026-01-19 22:58:03.70	117.97	10.34	-39.3	-40.3	22.4	0.00e+00	0	42	0	287309824	52	5771
2026-01-19 22:58:04.68	117.91	10.42	-39.2	-40.2	22.3	0.00e+00	0	42	0	290455552	52	5684
2026-01-19 22:58:05.66	117.84	10.50	-38.6	-39.6	22.8	0.00e+00	0	42	0	293601280	50	5945
2026-01-19 22:58:06.64	117.78	10.58	-38.8	-39.8	22.3	0.00e+00	0	42	0	296747008	50	6089
2026-01-19 22:58:07.62	117.71	10.67	-38.1	-39.1	22.9	0.00e+00	0	42	0	299892736	50	5624
2026-01-19 22:58:08.60	117.65	10.75	-38.5	-39.5	23.0	0.00e+00	0	42	0	303038464	50	5899
2026-01-19 22:58:09.57	117.58	10.83	-39.2	-40.1	23.0	0.00e+00	0	42	0	306184192	50	6344
2026-01-19 22:58:10.55	117.52	10.91	-38.6	-39.5	23.0	0.00e+00	0	42	0	309329920	50	5912
2026-01-19 22:58:11.53	117.45	10.99	-39.5	-40.5	22.0	0.00e+00	0	42	0	312475648	50	6646
2026-01-19 22:58:12.51	117.38	11.08	-38.4	-39.4	22.7	0.00e+00	0	42	0	315621376	50	5836
2026-01-19 22:58:13.49	117.31	11.16	-39.2	-40.2	22.7	0.00e+00	0	42	0	317718528	50	6355
2026-01-19 22:58:14.47	117.25	11.24	-39.5	-40.5	22.9	0.00e+00	0	42	0	320864256	50	6595
2026-01-19 22:58:15.45	117.18	11.33	-39.0	-40.0	22.7	0.00e+00	0	42	0	324009984	50	6262
2026-01-19 22:58:16.42	117.11	11.41	-39.2	-40.2	22.8	0.00e+00	0	42	0	327155712	50	6359
2026-01-19 22:58:17.40	117.04	11.49	-38.1	-39.1	22.8	0.00e+00	0	42	0	330301440	50	5638
2026-01-19 22:58:18.38	116.97	11.58	-38.7	-39.7	23.0	0.00e+00	0	42	0	333447168	50	6037
2026-01-19 22:58:19.36	116.90	11.66	-38.5	-39.5	23.1	0.00e+00	0	42	0	336592896	50	5870
2026-01-19 22:58:20.34	116.83	11.75	-38.4	-39.4	23.1	0.00e+00	0	42	0	339738624	50	5829
2026-01-19 22:58:21.31	116.76	11.83	-38.5	-39.4	22.8	0.00e+00	0	43	0	342884352	50	5851
2026-01-19 22:58:22.29	116.69	11.91	-38.7	-39.7	22.9	0.00e+00	0	42	0	346030080	50	6019
2026-01-19 22:58:23.27	116.61	12.00	-38.5	-39.5	23.1	0.00e+00	0	42	0	349175808	50	5867
2026-01-19 22:58:24.25	116.54	12.09	-38.5	-39.5	23.2	0.00e+00	0	42	0	351272960	50	5868
2026-01-19 22:58:25.22	116.47	12.17	-38.9	-39.9	23.3	0.00e+00	0	42	0	354418688	50	6144
2026-01-19 22:58:26.20	116.40	12.26	-38.5	-39.5	23.1	0.00e+00	0	43	0	357564416	50	5898
2026-01-19 22:58:27.18	116.32	12.34	-38.5	-39.5	23.5	0.00e+00	0	42	0	360710144	50	5882
2026-01-19 22:58:28.15	116.25	12.43	-38.7	-39.7	23.4	0.00e+00	0	42	0	363855872	50	6035
2026-01-19 22:58:29.13	116.18	12.52	-38.3	-39.3	23.4	0.00e+00	0	42	0	367001600	50	5758
2026-01-19 22:58:30.10	116.10	12.60	-38.3	-39.3	23.4	0.00e+00	0	42	0	370147328	50	5728
2026-01-19 22:58:31.08	116.03	12.69	-38.9	-39.8	23.4	0.00e+00	0	42	0	373293056	50	6124
2026-01-19 22:58:32.07	115.95	12.78	-38.6	-39.6	23.6	0.00e+00	0	42	0	376438784	50	5941
2026-01-19 22:58:33.05	115.87	12.87	-38.2	-39.2	23.4	0.00e+00	0	42	0	379584512	50	5668
2026-01-19 22:58:34.03	115.80	12.96	-38.5	-39.5	23.5	0.00e+00	0	42	0	382730240	50	5875
2026-01-19 22:58:35.00	115.72	13.04	-38.5	-39.4	23.6	0.00e+00	0	42	0	385875968	50	5852
2026-01-19 22:58:35.98	115.64	13.13	-39.1	-40.1	23.0	0.00e+00	0	42	0	387973120	50	6306
2026-01-19 22:58:36.96	115.56	13.22	-39.0	-40.0	23.1	0.00e+00	0	42	0	391118848	50	6232
2026-01-19 22:58:37.94	115.48	13.31	-38.2	-39.2	23.6	0.00e+00	0	42	0	394264576	50	5675
2026-01-19 22:58:38.92	115.41	13.40	-38.9	-39.9	23.5	0.00e+00	0	42	0	397410304	50	6166
2026-01-19 22:58:39.89	115.33	13.49	-38.8	-39.8	23.2	0.00e+00	0	42	0	400556032	50	6122
2026-01-19 22:58:40.87	115.25	13.58	-39.0	-40.0	23.2	0.00e+00	0	42	0	403701760	50	6229
2026-01-19 22:58:41.85	115.17	13.67	-38.8	-39.9	22.8	0.00e+00	0	42	0	406847488	50	6161
2026-01-19 22:58:42.83	115.08	13.76	-38.4	-39.4	23.1	0.00e+00	0	43	0	409993216	50	5832
2026-01-19 22:58:43.81	115.00	13.85	-39.2	-40.2	23.3	0.00e+00	0	43	0	413138944	50	6419
2026-01-19 22:58:44.79	114.92	13.94	-39.2	-40.2	23.1	0.00e+00	0	42	0	416284672	50	6406
2026-01-19 22:58:45.77	114.84	14.03	-38.4	-39.4	23.1	0.00e+00	0	42	0	419430400	50	5838
2026-01-19 22:58:46.75	114.75	14.13	-38.2	-39.2	23.5	0.00e+00	0	43	0	421527552	50	5708
2026-01-19 22:58:47.73	114.67	14.22	-38.0	-39.1	23.1	0.00e+00	0	43	0	424673280	50	5600
2026-01-19 22:58:48.70	114.59	14.31	-37.7	-38.6	23.5	0.00e+00	0	42	0	427819008	50	5328
2026-01-19 22:58:49.68	114.50	14.40	-37.4	-38.3	23.4	0.00e+00	0	43	0	430964736	48	5785
2026-01-19 22:58:50.66	114.42	14.49	-37.4	-38.4	23.4	0.00e+00	0	42	0	434110464	48	5821
2026-01-19 22:58:51.64	114.33	14.59	-37.6	-38.6	23.6	0.00e+00	0	42	0	437256192	48	5956
2026-01-19 22:58:52.62	114.24	14.68	-37.5	-38.5	23.3	0.00e+00	0	42	0	440401920	48	5881
2026-01-19 22:58:53.59	114.16	14.77	-37.4	-38.3	23.3	0.00e+00	0	42	0	443547648	48	5771
2026-01-19 22:58:54.57	114.07	14.87	-37.3	-38.2	23.4	0.00e+00	0	42	0	446693376	48	5722
2026-01-19 22:58:55.54	113.98	14.96	-37.1	-38.0	23.5	0.00e+00	0	42	0	449839104	48	5593
2026-01-19 22:58:56.52	113.89	15.06	-37.2	-38.1	23.5	0.00e+00	0	42	0	452984832	48	5657
2026-01-19 22:58:57.49	113.80	15.15	-37.5	-38.4	23.6	0.00e+00	0	42	0	456130560	48	5837
2026-01-19 22:58:58.48	113.71	15.25	-38.0	-39.0	23.3	0.00e+00	0	42	0	459276288	48	6206
2026-01-19 22:58:59.46	113.62	15.34	-38.8	-39.7	23.5	0.00e+00	0	42	0	461373440	48	6790
2026-01-19 22:59:00.43	113.53	15.44	-38.1	-39.1	23.6	0.00e+00	0	42	0	464519168	50	5631
2026-01-19 22:59:01.42	113.44	15.53	-38.5	-39.4	23.5	0.00e+00	0	42	0	467664896	50	5825
2026-01-19 22:59:02.40	113.35	15.63	-38.0	-38.9	23.5	0.00e+00	0	42	0	470810624	50	5524
2026-01-19 22:59:03.37	113.25	15.73	-37.7	-38.7	23.6	0.00e+00	0	42	0	473956352	48	6024
2026-01-19 22:59:04.35	113.16	15.82	-38.1	-39.1	23.4	0.00e+00	0	42	0	477102080	50	5606
2026-01-19 22:59:05.33	113.07	15.92	-38.6	-39.6	23.1	0.00e+00	0	42	0	480247808	50	5956
2026-01-19 22:59:06.31	112.97	16.02	-39.1	-40.1	23.5	0.00e+00	0	42	0	483393536	50	6287
2026-01-19 22:59:07.28	112.88	16.12	-39.2	-40.2	23.4	0.00e+00	0	42	0	486539264	50	6383
2026-01-19 22:59:08.26	112.78	16.22	-39.5	-40.5	21.0	0.00e+00	0	42	0	489684992	52	5873
2026-01-19 22:59:09.24	112.68	16.31	-39.3	-40.3	22.6	0.00e+00	0	42	0	492830720	52	5742
2026-01-19 22:59:10.22	112.58	16.41	-39.5	-40.5	22.5	0.00e+00	0	42	0	495976448	52	5924
2026-01-19 22:59:11.20	112.49	16.51	-41.2	-42.3	21.7	0.00e+00	0	43	0	498073600	54	6470
2026-01-19 22:59:12.18	112.39	16.61	-38.6	-39.5	22.6	0.00e+00	0	42	0	501219328	52	5256
2026-01-19 22:59:13.16	112.29	16.71	-41.2	-42.4	21.7	0.00e+00	0	42	0	504365056	54	6526
2026-01-19 22:59:14.13	112.19	16.81	-39.2	-40.2	22.8	0.00e+00	0	42	0	507510784	52	5673
2026-01-19 22:59:15.11	112.09	16.91	-40.4	-41.5	22.2	0.00e+00	0	43	0	510656512	52	6602
2026-01-19 22:59:16.09	111.99	17.01	-39.5	-40.5	22.4	0.00e+00	0	42	0	513802240	52	5913
2026-01-19 22:59:17.07	111.88	17.11	-40.6	-41.8	20.2	0.00e+00	0	42	0	516947968	52	6808
2026-01-19 22:59:18.05	111.78	17.22	-40.1	-41.1	20.7	0.00e+00	0	42	0	520093696	60	4002
2026-01-19 22:59:19.02	111.68	17.32	-41.0	-42.2	20.8	0.00e+00	0	42	0	523239424	52	7192
2026-01-19 22:59:20.00	111.57	17.42	-39.7	-40.7	21.8	0.00e+00	0	42	0	526385152	52	6057
2026-01-19 22:59:20.98	111.47	17.52	-38.8	-39.8	23.1	0.00e+00	0	42	0	529530880	50	6069
2026-01-19 22:59:21.96	111.36	17.62	-39.6	-40.6	22.8	0.00e+00	0	42	0	532676608	52	5943
2026-01-19 22:59:22.93	111.26	17.73	-38.9	-39.9	23.3	0.00e+00	0	42	0	534773760	50	6185
2026-01-19 22:59:23.91	111.15	17.83	-39.9	-41.1	21.1	0.00e+00	0	42	0	537919488	52	6311
2026-01-19 22:59:24.89	111.04	17.93	-39.5	-40.5	22.7	0.00e+00	0	42	0	541065216	52	5915
2026-01-19 22:59:25.86	110.93	18.04	-39.7	-40.7	22.3	0.00e+00	0	42	0	544210944	52	6041
2026-01-19 22:59:26.84	110.82	18.14	-39.5	-40.6	22.9	0.00e+00	0	42	0	547356672	52	5927
2026-01-19 22:59:27.83	110.71	18.25	-39.4	-40.4	23.4	0.00e+00	0	42	0	550502400	52	5831
2026-01-19 22:59:28.80	110.60	18.35	-39.4	-40.4	23.2	0.00e+00	0	42	0	553648128	52	5843
2026-01-19 22:59:29.78	110.49	18.46	-39.7	-40.8	22.3	0.00e+00	0	42	0	556793856	52	6066
2026-01-19 22:59:30.75	110.38	18.56	-39.3	-40.4	23.2	0.00e+00	0	42	0	559939584	52	5808
2026-01-19 22:59:31.73	110.26	18.67	-39.4	-40.5	22.8	0.00e+00	0	42	0	563085312	52	5921
2026-01-19 22:59:32.71	110.15	18.77	-39.2	-40.3	22.9	0.00e+00	0	42	0	566231040	52	5745
2026-01-19 22:59:33.69	110.03	18.88	-39.5	-40.6	22.5	0.00e+00	0	43	0	568328192	52	5971
2026-01-19 22:59:34.66	109.92	18.99	-39.0	-40.0	22.9	0.00e+00	0	42	0	571473920	50	6226
2026-01-19 22:59:35.64	109.80	19.09	-38.0	-38.9	22.8	0.00e+00	0	42	0	574619648	50	5520
2026-01-19 22:59:36.62	109.68	19.20	-38.0	-38.9	23.2	0.00e+00	0	42	0	577765376	50	5521
2026-01-19 22:59:37.60	109.57	19.31	-37.6	-38.6	23.7	0.00e+00	0	42	0	580911104	48	5949
2026-01-19 22:59:38.58	109.45	19.42	-37.3	-38.2	23.8	0.00e+00	0	42	0	584056832	48	5716
2026-01-19 22:59:39.55	109.33	19.53	-37.9	-38.9	23.5	0.00e+00	0	42	0	587202560	48	6153
2026-01-19 22:59:40.53	109.21	19.64	-37.2	-38.1	24.0	0.00e+00	0	42	0	590348288	48	5606
2026-01-19 22:59:41.51	109.08	19.74	-37.7	-38.6	24.1	0.00e+00	0	42	0	593494016	48	5987
2026-01-19 22:59:42.49	108.96	19.85	-38.0	-38.9	24.1	0.00e+00	0	42	0	596639744	48	6145
2026-01-19 22:59:43.47	108.84	19.96	-37.8	-38.7	24.0	0.00e+00	0	42	0	599785472	48	6025
2026-01-19 22:59:44.44	108.71	20.07	-37.4	-38.3	24.1	0.00e+00	0	42	0	601882624	48	5759
2026-01-19 22:59:45.41	108.59	20.18	-37.3	-38.2	24.2	0.00e+00	0	42	0	605028352	48	5720
2026-01-19 22:59:46.40	108.46	20.30	-38.0	-38.9	24.2	0.00e+00	0	42	0	608174080	48	6166
2026-01-19 22:59:47.37	108.33	20.41	-37.9	-38.8	24.1	0.00e+00	0	42	0	611319808	48	6130
2026-01-19 22:59:48.35	108.20	20.52	-37.6	-38.4	24.1	0.00e+00	0	42	0	614465536	48	5857
2026-01-19 22:59:49.33	108.08	20.63	-37.5	-38.4	24.1	0.00e+00	0	42	0	617611264	48	5822
2026-01-19 22:59:50.30	107.95	20.74	-37.3	-38.2	24.1	0.00e+00	0	42	0	620756992	48	5671
2026-01-19 22:59:51.28	107.81	20.86	-37.7	-38.6	23.7	0.00e+00	0	42	0	623902720	48	5955
2026-01-19 22:59:52.26	107.68	20.97	-37.1	-38.0	24.3	0.00e+00	0	43	0	627048448	48	5575
2026-01-19 22:59:53.24	107.55	21.08	-37.4	-38.3	24.3	0.00e+00	0	42	0	630194176	48	5770
2026-01-19 22:59:54.21	107.42	21.20	-37.4	-38.3	24.1	0.00e+00	0	43	0	633339904	48	5765
2026-01-19 22:59:55.19	107.28	21.31	-37.0	-37.9	24.4	0.00e+00	0	42	0	635437056	48	5483
2026-01-19 22:59:56.17	107.14	21.42	-37.5	-38.4	24.5	0.00e+00	0	42	0	638582784	48	5841
2026-01-19 22:59:57.14	107.01	21.54	-37.4	-38.3	24.5	0.00e+00	0	42	0	641728512	48	5744
2026-01-19 22:59:58.12	106.87	21.65	-37.0	-37.8	24.4	0.00e+00	0	42	0	644874240	48	5460
2026-01-19 22:59:59.10	106.73	21.77	-37.1	-38.0	24.6	0.00e+00	0	42	0	648019968	48	5537
2026-01-19 23:00:00.07	106.59	21.88	-37.0	-37.8	24.6	0.00e+00	0	42	0	651165696	48	5463
2026-01-19 23:00:01.05	106.45	22.00	-36.7	-37.6	24.6	0.00e+00	0	42	0	654311424	48	5316
2026-01-19 23:00:02.03	106.31	22.12	-37.0	-37.9	24.3	0.00e+00	0	42	0	657457152	46	6193
2026-01-19 23:00:03.00	106.16	22.23	-36.8	-37.7	24.5	0.00e+00	0	42	0	660602880	46	6006
2026-01-19 23:00:03.98	106.02	22.35	-36.9	-37.8	24.5	0.00e+00	0	42	0	663748608	46	6110
2026-01-19 23:00:04.96	105.87	22.47	-37.0	-37.9	24.4	0.00e+00	0	42	0	666894336	46	6176
2026-01-19 23:00:05.94	105.72	22.59	-37.3	-38.2	24.6	0.00e+00	0	42	0	670040064	46	6382
2026-01-19 23:00:06.93	105.57	22.71	-37.2	-38.1	24.5	0.00e+00	0	42	0	673185792	46	6330
2026-01-19 23:00:07.90	105.43	22.82	-37.3	-38.2	24.6	0.00e+00	0	42	0	675282944	46	6381
2026-01-19 23:00:08.88	105.28	22.94	-37.1	-37.9	24.6	0.00e+00	0	42	0	678428672	48	5520
2026-01-19 23:00:09.86	105.12	23.06	-37.1	-38.0	24.3	0.00e+00	0	42	0	681574400	48	5575
2026-01-19 23:00:10.84	104.97	23.18	-36.9	-37.8	24.5	0.00e+00	0	42	0	684720128	48	5422
2026-01-19 23:00:11.81	104.82	23.30	-36.7	-37.6	24.4	0.00e+00	0	42	0	687865856	46	5974
2026-01-19 23:00:12.79	104.66	23.42	-36.4	-37.3	24.6	0.00e+00	0	42	0	691011584	46	5726
2026-01-19 23:00:13.77	104.51	23.54	-36.3	-37.2	24.7	0.00e+00	0	42	0	694157312	46	5671
2026-01-19 23:00:14.74	104.35	23.66	-36.5	-37.4	24.4	0.00e+00	0	42	0	697303040	46	5796
2026-01-19 23:00:15.72	104.19	23.78	-36.2	-37.1	24.7	0.00e+00	0	42	0	700448768	46	5627
2026-01-19 23:00:16.70	104.03	23.90	-36.6	-37.5	24.5	0.00e+00	0	42	0	703594496	46	5896
2026-01-19 23:00:17.68	103.87	24.03	-36.5	-37.4	24.6	0.00e+00	0	42	0	706740224	46	5820
2026-01-19 23:00:18.66	103.70	24.15	-37.1	-38.0	24.4	0.00e+00	0	42	0	709885952	46	6238
2026-01-19 23:00:19.64	103.54	24.27	-37.4	-38.3	24.1	0.00e+00	0	43	0	711983104	46	6469
2026-01-19 23:00:20.61	103.38	24.39	-37.4	-38.3	24.3	0.00e+00	0	42	0	715128832	48	5784
2026-01-19 23:00:21.60	103.21	24.52	-37.5	-38.4	24.1	0.00e+00	0	43	0	718274560	48	5827
2026-01-19 23:00:22.57	103.04	24.64	-38.0	-38.9	24.2	0.00e+00	0	42	0	721420288	48	6167
2026-01-19 23:00:23.55	102.87	24.76	-37.5	-38.4	24.3	0.00e+00	0	42	0	724566016	48	5848
2026-01-19 23:00:24.53	102.70	24.89	-37.9	-38.9	23.6	0.00e+00	0	42	0	727711744	48	6140
2026-01-19 23:00:25.51	102.53	25.01	-37.1	-38.0	24.3	0.00e+00	0	42	0	730857472	48	5562
2026-01-19 23:00:26.49	102.35	25.14	-37.5	-38.4	23.9	0.00e+00	0	42	0	734003200	48	5803
2026-01-19 23:00:27.47	102.18	25.26	-37.7	-38.6	24.2	0.00e+00	0	42	0	737148928	48	5938
2026-01-19 23:00:28.45	102.00	25.39	-37.2	-38.1	24.0	0.00e+00	0	42	0	740294656	48	5645
2026-01-19 23:00:29.43	101.83	25.51	-37.5	-38.4	23.8	0.00e+00	0	42	0	743440384	48	5837
2026-01-19 23:00:30.41	101.65	25.64	-39.6	-40.6	23.5	0.00e+00	0	42	0	746586112	50	6655
2026-01-19 23:00:31.39	101.47	25.77	-39.0	-39.9	23.7	0.00e+00	0	42	0	748683264	50	6166
2026-01-19 23:00:32.36	101.29	25.89	-39.5	-40.4	23.6	0.00e+00	0	42	0	751828992	52	5849
2026-01-19 23:00:33.34	101.10	26.02	-39.6	-40.6	22.7	0.00e+00	0	43	0	754974720	52	5963
2026-01-19 23:00:34.32	100.92	26.14	-38.9	-39.9	23.2	0.00e+00	0	42	0	758120448	52	5498
2026-01-19 23:00:35.29	100.73	26.27	-39.3	-40.3	22.5	0.00e+00	0	42	0	761266176	50	6447
2026-01-19 23:00:36.27	100.54	26.40	-41.6	-42.7	22.9	0.00e+00	0	42	0	764411904	52	7616
2026-01-19 23:00:37.25	100.35	26.53	-41.2	-42.3	22.7	0.00e+00	0	42	0	767557632	52	7255
2026-01-19 23:00:38.23	100.16	26.65	-40.4	-41.4	23.5	0.00e+00	0	42	0	770703360	54	5829
2026-01-19 23:00:39.21	99.97	26.78	-39.8	-40.7	22.4	0.00e+00	0	42	0	773849088	52	6064
2026-01-19 23:00:40.18	99.78	26.91	-39.3	-40.3	22.9	0.00e+00	0	42	0	776994816	52	5775
2026-01-19 23:00:41.16	99.58	27.04	-39.9	-40.9	22.3	0.00e+00	0	42	0	780140544	52	6159
2026-01-19 23:00:42.14	99.38	27.17	-39.7	-40.6	22.9	0.00e+00	0	42	0	782237696	56	4723
2026-01-19 23:00:43.11	99.19	27.30	-38.7	-39.6	23.1	0.00e+00	0	42	0	785383424	54	4723
2026-01-19 23:00:44.09	98.98	27.43	-38.2	-39.1	23.7	0.00e+00	0	42	0	788529152	50	5608
2026-01-19 23:00:45.07	98.78	27.55	-38.6	-39.5	23.8	0.00e+00	0	42	0	791674880	50	5888
2026-01-19 23:00:46.05	98.58	27.68	-38.1	-39.0	23.7	0.00e+00	0	42	0	794820608	50	5590
2026-01-19 23:00:47.02	98.37	27.81	-38.7	-39.6	23.4	0.00e+00	0	42	0	797966336	50	5977
2026-01-19 23:00:48.00	98.17	27.94	-38.3	-39.2	23.3	0.00e+00	0	42	0	801112064	50	5667
2026-01-19 23:00:48.98	97.96	28.07	-39.2	-40.2	23.3	0.00e+00	0	42	0	804257792	50	6368
2026-01-19 23:00:49.96	97.75	28.20	-39.0	-40.0	23.5	0.00e+00	0	42	0	807403520	50	6206
2026-01-19 23:00:50.94	97.53	28.34	-38.8	-39.7	23.7	0.00e+00	0	42	0	810549248	50	6029
2026-01-19 23:00:51.91	97.32	28.47	-38.8	-39.8	23.7	0.00e+00	0	42	0	813694976	50	6068
2026-01-19 23:00:52.89	97.11	28.60	-38.5	-39.4	23.7	0.00e+00	0	42	0	815792128	50	5832
2026-01-19 23:00:53.87	96.89	28.73	-38.8	-39.7	23.7	0.00e+00	0	42	0	818937856	50	6059
2026-01-19 23:00:54.84	96.67	28.86	-38.7	-39.6	23.7	0.00e+00	0	42	0	822083584	50	5949
2026-01-19 23:00:55.82	96.45	28.99	-39.1	-40.0	23.7	0.00e+00	0	42	0	825229312	52	5553
2026-01-19 23:00:56.80	96.22	29.12	-38.4	-39.3	23.6	0.00e+00	0	42	0	828375040	50	5774
2026-01-19 23:00:57.77	96.00	29.25	-38.2	-39.1	23.7	0.00e+00	0	42	0	831520768	50	5657
2026-01-19 23:00:58.75	95.77	29.38	-38.7	-39.6	23.8	0.00e+00	0	42	0	834666496	50	5944
2026-01-19 23:00:59.73	95.54	29.52	-38.1	-39.0	23.8	0.00e+00	0	42	0	837812224	50	5591
2026-01-19 23:01:00.71	95.31	29.65	-37.8	-38.7	23.7	0.00e+00	0	42	0	840957952	48	6014
2026-01-19 23:01:01.69	95.08	29.78	-37.3	-38.2	24.1	0.00e+00	0	42	0	844103680	48	5703
2026-01-19 23:01:02.66	94.85	29.91	-38.7	-39.6	24.0	0.00e+00	0	42	0	847249408	50	5960
2026-01-19 23:01:03.64	94.61	30.04	-38.7	-39.7	24.1	0.00e+00	0	42	0	849346560	50	6004
2026-01-19 23:01:04.61	94.38	30.17	-39.2	-40.2	23.5	0.00e+00	0	42	0	852492288	50	6383
2026-01-19 23:01:05.59	94.13	30.31	-38.0	-38.9	23.9	0.00e+00	0	42	0	855638016	50	5526
2026-01-19 23:01:06.57	93.89	30.44	-38.0	-38.9	24.2	0.00e+00	0	42	0	858783744	48	6193
2026-01-19 23:01:07.54	93.65	30.57	-38.9	-39.8	23.6	0.00e+00	0	42	0	861929472	48	6861
2026-01-19 23:01:08.52	93.40	30.70	-38.6	-39.5	23.7	0.00e+00	0	42	0	865075200	50	5914
2026-01-19 23:01:09.50	93.15	30.84	-38.5	-39.4	23.8	0.00e+00	0	42	0	868220928	52	5202
2026-01-19 23:01:10.47	92.91	30.97	-38.2	-39.1	23.7	0.00e+00	0	42	0	871366656	50	5652
2026-01-19 23:01:11.45	92.65	31.10	-38.3	-39.3	23.6	0.00e+00	0	42	0	874512384	50	5738
2026-01-19 23:01:12.43	92.40	31.23	-38.3	-39.2	23.7	0.00e+00	0	42	0	877658112	50	5690
2026-01-19 23:01:13.40	92.14	31.36	-38.3	-39.2	23.5	0.00e+00	0	42	0	880803840	50	5721
2026-01-19 23:01:14.38	91.88	31.50	-37.8	-38.7	23.5	0.00e+00	0	42	0	883949568	50	5384
2026-01-19 23:01:15.36	91.62	31.63	-38.0	-38.9	23.3	0.00e+00	0	42	0	887095296	48	6191
2026-01-19 23:01:16.33	91.36	31.76	-38.3	-39.3	21.6	0.00e+00	0	42	0	889192448	48	6436
2026-01-19 23:01:17.31	91.10	31.89	-39.0	-40.0	23.0	0.00e+00	0	42	0	892338176	52	5569
2026-01-19 23:01:18.29	90.83	32.02	-38.8	-39.8	23.6	0.00e+00	0	42	0	895483904	52	5411
2026-01-19 23:01:19.26	90.56	32.15	-39.0	-40.0	23.2	0.00e+00	0	42	0	898629632	52	5542
2026-01-19 23:01:20.25	90.29	32.29	-38.7	-39.6	23.4	0.00e+00	0	42	0	901775360	50	5984
2026-01-19 23:01:21.23	90.01	32.42	-39.5	-40.4	23.2	0.00e+00	0	42	0	904921088	50	6563
2026-01-19 23:01:22.20	89.74	32.55	-39.1	-40.0	23.5	0.00e+00	0	42	0	908066816	50	6259
2026-01-19 23:01:23.18	89.46	32.68	-39.0	-39.9	23.0	0.00e+00	0	42	0	911212544	52	5528
2026-01-19 23:01:24.15	89.18	32.81	-38.5	-39.5	23.1	0.00e+00	0	42	0	914358272	50	5859
2026-01-19 23:01:25.13	88.90	32.94	-38.9	-39.9	23.2	0.00e+00	0	42	0	917504000	50	6180
2026-01-19 23:01:26.11	88.61	33.07	-38.6	-39.6	23.3	0.00e+00	0	42	0	920649728	50	5934
2026-01-19 23:01:27.09	88.32	33.20	-39.0	-40.0	22.4	0.00e+00	0	42	0	922746880	50	6207
2026-01-19 23:01:28.07	88.03	33.33	-39.8	-40.8	22.9	0.00e+00	0	42	0	925892608	52	6102
2026-01-19 23:01:29.05	87.74	33.46	-39.7	-40.6	23.1	0.00e+00	0	42	0	929038336	52	5992
2026-01-19 23:01:30.02	87.45	33.59	-39.0	-40.0	23.2	0.00e+00	0	42	0	932184064	52	5575
2026-01-19 23:01:31.00	87.15	33.72	-38.8	-39.7	23.2	0.00e+00	0	42	0	935329792	52	5397
2026-01-19 23:01:31.98	86.85	33.84	-38.5	-39.5	23.2	0.00e+00	0	42	0	938475520	50	5861
2026-01-19 23:01:32.96	86.55	33.97	-38.6	-39.6	23.3	0.00e+00	0	42	0	941621248	50	5956
2026-01-19 23:01:33.94	86.24	34.10	-38.7	-39.6	23.4	0.00e+00	0	42	0	944766976	50	5978
2026-01-19 23:01:34.91	85.94	34.23	-38.4	-39.4	23.4	0.00e+00	0	42	0	947912704	50	5799
2026-01-19 23:01:35.89	85.63	34.35	-38.4	-39.3	23.5	0.00e+00	0	42	0	951058432	50	5765
2026-01-19 23:01:36.87	85.32	34.48	-38.4	-39.3	23.2	0.00e+00	0	42	0	954204160	50	5779
2026-01-19 23:01:37.84	85.01	34.60	-38.7	-39.7	23.0	0.00e+00	0	42	0	956301312	50	6001
2026-01-19 23:01:38.82	84.69	34.73	-39.2	-40.2	23.0	0.00e+00	0	42	0	959447040	50	6372
2026-01-19 23:01:39.80	84.37	34.86	-39.3	-40.2	23.2	0.00e+00	0	42	0	962592768	52	5699
2026-01-19 23:01:40.77	84.05	34.98	-38.9	-39.9	23.1	0.00e+00	0	42	0	965738496	50	6170
2026-01-19 23:01:41.75	83.73	35.10	-38.6	-39.6	23.1	0.00e+00	0	42	0	968884224	50	5992
2026-01-19 23:01:42.73	83.40	35.23	-40.6	-41.6	22.4	0.00e+00	0	42	0	972029952	54	5967
2026-01-19 23:01:43.71	83.07	35.35	-39.6	-40.6	22.8	0.00e+00	0	42	0	975175680	52	5935
2026-01-19 23:01:44.69	82.74	35.47	-39.9	-40.9	22.7	0.00e+00	0	42	0	978321408	56	4918
2026-01-19 23:01:45.66	82.41	35.59	-39.7	-40.7	22.7	0.00e+00	0	42	0	981467136	52	6045
2026-01-19 23:01:46.64	82.08	35.71	-39.1	-40.1	22.8	0.00e+00	0	42	0	984612864	52	5604
2026-01-19 23:01:47.62	81.74	35.83	-38.9	-39.9	22.7	0.00e+00	0	42	0	987758592	52	5478
2026-01-19 23:01:48.60	81.39	35.95	-38.8	-39.9	22.6	0.00e+00	0	42	0	989855744	52	5469
2026-01-19 23:01:49.57	81.05	36.07	-38.8	-39.8	22.6	0.00e+00	0	42	0	993001472	52	5442
2026-01-19 23:01:50.55	80.71	36.19	-38.7	-39.7	22.5	0.00e+00	0	42	0	996147200	50	6057
2026-01-19 23:01:51.53	80.36	36.31	-38.8	-39.8	22.6	0.00e+00	0	42	0	999292928	50	6102
2026-01-19 23:01:52.50	80.01	36.42	-39.0	-40.0	22.3	0.00e+00	0	42	0	1002438656	50	6258
2026-01-19 23:01:53.48	79.66	36.54	-38.6	-39.7	22.8	0.00e+00	0	42	0	1005584384	50	5997
2026-01-19 23:01:54.47	79.30	36.65	-38.5	-39.5	23.0	0.00e+00	0	42	0	1008730112	50	5867
2026-01-19 23:01:55.45	78.94	36.77	-38.2	-39.1	23.2	0.00e+00	0	42	0	1011875840	50	5647
2026-01-19 23:01:56.42	78.58	36.88	-38.5	-39.5	23.0	0.00e+00	0	42	0	1015021568	50	5898
2026-01-19 23:01:57.40	78.22	36.99	-38.7	-39.7	22.8	0.00e+00	0	42	0	1018167296	50	6050
2026-01-19 23:01:58.38	77.85	37.10	-39.1	-40.1	23.0	0.00e+00	0	42	0	1021313024	50	6305
2026-01-19 23:01:59.36	77.48	37.21	-38.7	-39.7	22.8	0.00e+00	0	42	0	1024458752	50	6030
2026-01-19 23:02:00.33	77.11	37.32	-38.3	-39.3	23.0	0.00e+00	0	42	0	1026555904	50	5762
2026-01-19 23:02:01.31	76.74	37.43	-38.4	-39.4	22.9	0.00e+00	0	42	0	1029701632	50	5806
2026-01-19 23:02:02.29	76.36	37.54	-38.5	-39.5	23.0	0.00e+00	0	42	0	1032847360	50	5863
2026-01-19 23:02:03.27	75.98	37.64	-38.7	-39.7	22.6	0.00e+00	0	42	0	1035993088	50	6027
2026-01-19 23:02:04.24	75.60	37.75	-38.8	-39.8	22.3	0.00e+00	0	42	0	1039138816	50	6080
2026-01-19 23:02:05.22	75.22	37.85	-39.7	-40.7	22.1	0.00e+00	0	42	0	1042284544	52	6044
2026-01-19 23:02:06.20	74.83	37.95	-39.8	-40.9	21.8	0.00e+00	0	42	0	1045430272	52	6170
2026-01-19 23:02:07.18	74.45	38.05	-39.5	-40.5	22.1	0.00e+00	0	42	0	1048576000	52	5898
2026-01-19 23:02:08.16	74.05	38.15	-39.2	-40.2	22.3	0.00e+00	0	42	0	1051721728	52	5705
2026-01-19 23:02:09.14	73.66	38.25	-39.1	-40.2	22.3	0.00e+00	0	42	0	1054867456	52	5677
2026-01-19 23:02:10.12	73.26	38.35	-38.8	-39.8	22.5	0.00e+00	0	42	0	1058013184	52	5447
2026-01-19 23:02:11.09	72.87	38.45	-38.9	-40.0	22.4	0.00e+00	0	42	0	1061158912	50	6208
2026-01-19 23:02:12.07	72.47	38.54	-39.0	-40.0	22.5	0.00e+00	0	42	0	1063256064	50	6232
2026-01-19 23:02:13.05	72.07	38.63	-39.0	-40.0	22.3	0.00e+00	0	42	0	1066401792	50	6213
2026-01-19 23:02:14.02	71.66	38.73	-38.6	-39.6	22.6	0.00e+00	0	42	0	1069547520	50	5957
2026-01-19 23:02:15.00	71.26	38.82	-38.7	-39.7	22.6	0.00e+00	0	42	0	1072693248	50	6020
2026-01-19 23:02:15.98	70.85	38.91	-38.5	-39.5	22.8	0.00e+00	0	42	0	1075838976	50	5862
2026-01-19 23:02:16.96	70.43	38.99	-38.5	-39.5	22.7	0.00e+00	0	42	0	1078984704	50	5864
2026-01-19 23:02:17.94	70.02	39.08	-39.0	-40.0	22.5	0.00e+00	0	42	0	1082130432	50	6245
2026-01-19 23:02:18.92	69.60	39.17	-38.8	-39.8	22.7	0.00e+00	0	42	0	1085276160	50	6089
2026-01-19 23:02:19.89	69.19	39.25	-38.8	-39.8	22.7	0.00e+00	0	42	0	1088421888	50	6074
2026-01-19 23:02:20.87	68.77	39.33	-38.8	-39.8	22.5	0.00e+00	0	42	0	1091567616	50	6097
2026-01-19 23:02:21.86	68.34	39.41	-39.1	-40.2	22.3	0.00e+00	0	42	0	1094713344	50	6357
2026-01-19 23:02:22.83	67.92	39.49	-39.3	-40.3	22.1	0.00e+00	0	42	0	1097859072	52	5780
2026-01-19 23:02:23.81	67.49	39.57	-39.7	-40.8	21.9	0.00e+00	0	42	0	1101004800	52	6089
2026-01-19 23:02:24.79	67.06	39.64	-39.2	-40.2	22.2	0.00e+00	0	42	0	1103101952	52	5719
2026-01-19 23:02:25.76	66.64	39.72	-39.3	-40.3	22.1	0.00e+00	0	42	0	1106247680	52	5744
2026-01-19 23:02:26.73	66.21	39.79	-39.2	-40.2	22.1	0.00e+00	0	42	0	1109393408	52	5719
2026-01-19 23:02:27.72	65.77	39.86	-39.0	-40.1	22.3	0.00e+00	0	42	0	1112539136	52	5601
2026-01-19 23:02:28.69	65.34	39.93	-38.6	-39.6	22.6	0.00e+00	0	42	0	1115684864	50	5945
2026-01-19 23:02:29.67	64.90	39.99	-38.9	-39.9	22.7	0.00e+00	0	42	0	1118830592	50	6156
2026-01-19 23:02:30.65	64.46	40.06	-39.4	-40.4	22.8	0.00e+00	0	42	0	1121976320	50	6500
2026-01-19 23:02:31.63	64.02	40.12	-39.0	-39.9	22.7	0.00e+00	0	42	0	1125122048	50	6193
2026-01-19 23:02:32.60	63.58	40.18	-39.6	-40.6	22.5	0.00e+00	0	42	0	1128267776	50	6711
2026-01-19 23:02:33.58	63.13	40.24	-39.5	-40.5	22.5	0.00e+00	0	42	0	1131413504	50	6634
2026-01-19 23:02:34.56	62.68	40.30	-39.2	-40.2	22.5	0.00e+00	0	42	0	1134559232	50	6370
2026-01-19 23:02:35.54	62.23	40.36	-39.3	-40.3	22.4	0.00e+00	0	42	0	1136656384	50	6450
2026-01-19 23:02:36.51	61.79	40.41	-38.8	-39.8	22.7	0.00e+00	0	42	0	1139802112	50	6122
2026-01-19 23:02:37.49	61.34	40.46	-39.8	-40.8	22.7	0.00e+00	0	42	0	1142947840	52	6123
2026-01-19 23:02:38.47	60.88	40.51	-38.9	-39.9	22.6	0.00e+00	0	42	0	1146093568	52	5493
2026-01-19 23:02:39.45	60.43	40.56	-39.3	-40.3	22.3	0.00e+00	0	42	0	1149239296	52	5756
2026-01-19 23:02:40.43	59.97	40.61	-40.3	-41.3	22.1	0.00e+00	0	42	0	1152385024	52	6468
2026-01-19 23:02:41.41	59.52	40.65	-41.4	-42.5	21.3	0.00e+00	0	42	0	1155530752	54	6647
2026-01-19 23:02:42.38	59.06	40.69	-40.3	-41.4	22.0	0.00e+00	0	42	0	1158676480	54	5806
2026-01-19 23:02:43.36	58.60	40.73	-40.6	-41.6	21.8	0.00e+00	0	42	0	1161822208	54	5976
2026-01-19 23:02:44.33	58.15	40.77	-40.3	-41.4	21.6	0.00e+00	0	42	0	1164967936	54	5798
2026-01-19 23:02:45.32	57.68	40.81	-41.0	-42.1	21.6	0.00e+00	0	42	0	1168113664	54	6335
2026-01-19 23:02:46.30	57.22	40.84	-40.4	-41.5	21.9	0.00e+00	0	42	0	1171259392	54	5861
2026-01-19 23:02:47.28	56.75	40.87	-39.9	-40.9	22.1	0.00e+00	0	42	0	1173356544	54	5501
2026-01-19 23:02:48.26	56.29	40.90	-39.9	-40.9	22.3	0.00e+00	0	42	0	1176502272	54	5496
2026-01-19 23:02:49.24	55.83	40.93	-40.0	-41.1	21.9	0.00e+00	0	42	0	1179648000	52	6285
2026-01-19 23:02:50.22	55.36	40.95	-40.6	-41.7	21.6	0.00e+00	0	42	0	1182793728	52	6755
2026-01-19 23:02:51.19	54.90	40.98	-40.7	-41.8	20.9	0.00e+00	0	42	0	1185939456	54	6120
2026-01-19 23:02:52.17	54.43	41.00	-41.1	-42.2	21.1	0.00e+00	0	42	0	1189085184	54	6377
2026-01-19 23:02:53.15	53.96	41.02	-41.4	-42.6	20.9	0.00e+00	0	42	0	1192230912	56	5942
2026-01-19 23:02:54.12	53.50	41.03	-40.6	-41.7	21.4	0.00e+00	0	42	0	1195376640	54	6051
2026-01-19 23:02:55.10	53.03	41.05	-40.8	-41.9	21.4	0.00e+00	0	42	0	1198522368	54	6189
2026-01-19 23:02:56.08	52.56	41.06	-41.5	-42.7	20.9	0.00e+00	0	42	0	1201668096	54	6757
2026-01-19 23:02:57.05	52.10	41.07	-41.1	-42.3	21.3	0.00e+00	0	42	0	1204813824	54	6442
2026-01-19 23:02:58.03	51.63	41.08	-41.4	-42.5	21.4	0.00e+00	0	42	0	1206910976	56	5865
2026-01-19 23:02:59.01	51.16	41.09	-41.2	-42.3	21.5	0.00e+00	0	42	0	1210056704	54	6474
2026-01-19 23:02:59.99	50.69	41.09	-41.1	-42.2	21.1	0.00e+00	0	42	0	1213202432	54	6403
2026-01-19 23:03:00.97	50.22	41.09	-40.7	-41.8	21.4	0.00e+00	0	42	0	1216348160	54	6099
2026-01-19 23:03:01.95	49.75	41.09	-40.6	-41.6	21.7	0.00e+00	0	42	0	1219493888	54	5984
2026-01-19 23:03:02.93	49.28	41.09	-40.3	-41.3	21.9	0.00e+00	0	42	0	1222639616	54	5788
2026-01-19 23:03:03.90	48.81	41.08	-39.8	-40.9	21.8	0.00e+00	0	42	0	1225785344	54	5495
2026-01-19 23:03:04.88	48.34	41.08	-40.5	-41.6	21.6	0.00e+00	0	42	0	1228931072	54	5929
2026-01-19 23:03:05.86	47.87	41.07	-40.5	-41.6	21.1	0.00e+00	0	42	0	1232076800	54	5989
2026-01-19 23:03:06.84	47.40	41.06	-41.0	-42.2	20.9	0.00e+00	0	42	0	1235222528	54	6381
2026-01-19 23:03:07.82	46.93	41.04	-41.2	-42.4	20.6	0.00e+00	0	42	0	1238368256	54	6516
2026-01-19 23:03:08.80	46.46	41.03	-40.2	-41.3	21.4	0.00e+00	0	42	0	1241513984	54	5782
2026-01-19 23:03:09.79	45.99	41.01	-40.2	-41.3	22.0	0.00e+00	0	42	0	1243611136	54	5728
2026-01-19 23:03:10.76	45.53	40.99	-39.7	-40.7	22.1	0.00e+00	0	42	0	1246756864	52	6028
2026-01-19 23:03:11.74	45.06	40.97	-39.8	-40.9	22.4	0.00e+00	0	42	0	1249902592	52	6135
2026-01-19 23:03:12.72	44.60	40.94	-39.6	-40.6	22.3	0.00e+00	0	42	0	1253048320	52	5992
2026-01-19 23:03:13.69	44.13	40.92	-39.7	-40.7	22.1	0.00e+00	0	42	0	1256194048	52	6039
2026-01-19 23:03:14.67	43.67	40.89	-39.9	-40.9	21.7	0.00e+00	0	42	0	1259339776	52	6189
2026-01-19 23:03:15.65	43.21	40.86	-40.3	-41.4	21.5	0.00e+00	0	42	0	1262485504	52	6507
2026-01-19 23:03:16.63	42.74	40.82	-40.3	-41.4	21.6	0.00e+00	0	42	0	1265631232	52	6558
2026-01-19 23:03:17.61	42.28	40.79	-40.1	-41.2	21.7	0.00e+00	0	42	0	1268776960	52	6373
2026-01-19 23:03:18.59	41.82	40.75	-40.2	-41.3	22.0	0.00e+00	0	42	0	1271922688	52	6439
2026-01-19 23:03:19.56	41.37	40.71	-40.9	-42.0	21.0	0.00e+00	0	42	0	1275068416	54	6249
2026-01-19 23:03:20.54	40.91	40.67	-40.7	-41.8	21.6	0.00e+00	0	42	0	1277165568	54	6120
2026-01-19 23:03:21.52	40.45	40.63	-41.5	-42.6	21.4	0.00e+00	0	42	0	1280311296	54	6684
2026-01-19 23:03:22.49	40.00	40.58	-41.8	-43.0	20.4	0.00e+00	0	42	0	1283457024	56	6266
2026-01-19 23:03:23.47	39.54	40.54	-41.8	-43.0	20.4	0.00e+00	0	42	0	1286602752	56	6261
2026-01-19 23:03:24.45	39.09	40.49	-41.1	-42.3	21.2	0.00e+00	0	42	0	1289748480	56	5737
2026-01-19 23:03:25.43	38.64	40.44	-40.3	-41.3	21.6	0.00e+00	0	42	0	1292894208	54	5778
2026-01-19 23:03:26.41	38.19	40.38	-39.2	-40.2	22.6	0.00e+00	0	42	0	1296039936	52	5678
2026-01-19 23:03:27.39	37.74	40.33	-39.0	-40.0	22.9	0.00e+00	0	42	0	1299185664	50	6266
2026-01-19 23:03:28.37	37.29	40.27	-39.0	-40.0	22.8	0.00e+00	0	42	0	1302331392	50	6218
2026-01-19 23:03:29.35	36.85	40.21	-39.1	-40.1	22.4	0.00e+00	0	42	0	1305477120	50	6344
2026-01-19 23:03:30.33	36.40	40.15	-40.3	-41.4	21.7	0.00e+00	0	42	0	1308622848	52	6563
2026-01-19 23:03:31.30	35.96	40.09	-40.3	-41.4	21.2	0.00e+00	0	42	0	1311768576	52	6527
2026-01-19 23:03:32.28	35.52	40.03	-40.4	-41.6	21.1	0.00e+00	0	42	0	1314914304	54	5930
2026-01-19 23:03:33.26	35.08	39.96	-41.1	-42.3	20.9	0.00e+00	0	42	0	1317011456	54	6434
2026-01-19 23:03:34.24	34.65	39.89	-40.6	-41.8	20.9	0.00e+00	0	42	0	1320157184	54	6097
2026-01-19 23:03:35.22	34.21	39.82	-40.8	-42.1	20.6	0.00e+00	0	42	0	1323302912	54	6280
2026-01-19 23:03:36.19	33.78	39.75	-40.3	-41.5	21.2	0.00e+00	0	42	0	1326448640	54	5866
2026-01-19 23:03:37.18	33.35	39.68	-40.2	-41.3	21.5	0.00e+00	0	42	0	1329594368	54	5742
2026-01-19 23:03:38.15	32.92	39.61	-40.5	-41.6	21.2	0.00e+00	0	42	0	1332740096	54	5968
2026-01-19 23:03:39.13	32.49	39.53	-40.0	-41.2	21.3	0.00e+00	0	42	0	1335885824	54	5676
2026-01-19 23:03:40.11	32.07	39.45	-40.0	-41.2	21.3	0.00e+00	0	42	0	1339031552	54	5682
2026-01-19 23:03:41.09	31.64	39.37	-39.9	-41.0	21.6	0.00e+00	0	42	0	1342177280	54	5555
2026-01-19 23:03:42.06	31.23	39.29	-40.0	-41.1	21.4	0.00e+00	0	42	0	1345323008	54	5630
2026-01-19 23:03:43.04	30.81	39.21	-40.1	-41.2	21.3	0.00e+00	0	42	0	1348468736	54	5660
2026-01-19 23:03:44.01	30.40	39.13	-40.6	-41.8	20.7	0.00e+00	0	42	0	1351614464	54	6068
2026-01-19 23:03:44.99	29.98	39.04	-40.8	-42.0	20.7	0.00e+00	0	42	0	1353711616	54	6216
2026-01-19 23:03:45.97	29.57	38.95	-40.6	-41.7	21.0	0.00e+00	0	42	0	1356857344	54	6036
2026-01-19 23:03:46.94	29.16	38.86	-40.0	-41.1	21.4	0.00e+00	0	42	0	1360003072	54	5606
2026-01-19 23:03:47.92	28.75	38.77	-39.6	-40.7	21.7	0.00e+00	0	42	0	1363148800	52	6041
2026-01-19 23:03:48.90	28.35	38.68	-39.1	-40.1	22.4	0.00e+00	0	42	0	1366294528	52	5606
2026-01-19 23:03:49.88	27.94	38.59	-39.2	-40.2	22.6	0.00e+00	0	42	0	1369440256	52	5663
2026-01-19 23:03:50.86	27.54	38.50	-38.7	-39.7	22.9	0.00e+00	0	42	0	1372585984	50	6028
2026-01-19 23:03:51.84	27.14	38.40	-39.5	-40.5	22.5	0.00e+00	0	42	0	1375731712	50	6604
2026-01-19 23:03:52.82	26.75	38.30	-40.2	-41.3	21.2	0.00e+00	0	42	0	1378877440	52	6464
2026-01-19 23:03:53.80	26.35	38.21	-39.9	-41.0	21.5	0.00e+00	0	42	0	1382023168	54	5538
2026-01-19 23:03:54.77	25.97	38.11	-39.8	-40.8	21.2	0.00e+00	0	42	0	1385168896	54	5447
2026-01-19 23:03:55.75	25.58	38.01	-39.0	-40.0	22.4	0.00e+00	0	42	0	1387266048	52	5557
2026-01-19 23:03:56.73	25.19	37.90	-38.3	-39.3	22.8	0.00e+00	0	42	0	1390411776	50	5775
2026-01-19 23:03:57.71	24.81	37.80	-38.7	-39.7	22.8	0.00e+00	0	42	0	1393557504	50	6020
2026-01-19 23:03:58.68	24.43	37.70	-39.0	-40.0	22.3	0.00e+00	0	42	0	1396703232	50	6249
2026-01-19 23:03:59.66	24.05	37.59	-39.7	-40.8	21.8	0.00e+00	0	42	0	1399848960	52	6078
2026-01-19 23:04:00.64	23.67	37.49	-40.2	-41.3	21.5	0.00e+00	0	42	0	1402994688	52	6473
2026-01-19 23:04:01.61	23.30	37.38	-40.3	-41.4	21.5	0.00e+00	0	42	0	1406140416	54	5822
2026-01-19 23:04:02.59	22.93	37.27	-40.3	-41.4	21.3	0.00e+00	0	42	0	1409286144	54	5844
2026-01-19 23:04:03.56	22.56	37.16	-40.0	-41.1	21.8	0.00e+00	0	42	0	1412431872	52	6307
2026-01-19 23:04:04.54	22.19	37.05	-38.9	-40.0	22.5	0.00e+00	0	42	0	1415577600	52	5537
2026-01-19 23:04:05.52	21.83	36.94	-38.6	-39.7	22.7	0.00e+00	0	42	0	1418723328	50	5995
2026-01-19 23:04:06.50	21.47	36.83	-39.2	-40.2	22.3	0.00e+00	0	42	0	1421869056	50	6397
2026-01-19 23:04:07.49	21.11	36.72	-39.8	-40.8	21.8	0.00e+00	0	42	0	1423966208	52	6125
2026-01-19 23:04:08.46	20.75	36.60	-39.8	-40.9	21.8	0.00e+00	0	42	0	1427111936	52	6164
2026-01-19 23:04:09.44	20.40	36.49	-39.5	-40.6	22.0	0.00e+00	0	42	0	1430257664	52	5963
2026-01-19 23:04:10.42	20.05	36.37	-38.5	-39.5	22.9	0.00e+00	0	42	0	1433403392	52	5251
2026-01-19 23:04:11.40	19.70	36.26	-38.0	-39.0	23.6	0.00e+00	0	42	0	1436549120	50	5543
2026-01-19 23:04:12.38	19.35	36.14	-37.8	-38.7	22.7	0.00e+00	0	42	0	1439694848	50	5362
2026-01-19 23:04:13.36	19.00	36.02	-37.8	-38.7	23.5	0.00e+00	0	42	0	1442840576	48	6048
2026-01-19 23:04:14.33	18.67	35.90	-37.8	-38.7	23.8	0.00e+00	0	42	0	1445986304	50	5353
2026-01-19 23:04:15.32	18.32	35.78	-39.0	-40.0	23.1	0.00e+00	0	42	0	1449132032	50	6228
2026-01-19 23:04:16.30	17.99	35.66	-40.3	-41.4	22.2	0.00e+00	0	42	0	1452277760	54	5834
2026-01-19 23:04:17.28	17.65	35.54	-40.3	-41.4	22.4	0.00e+00	0	42	0	1455423488	54	5852
2026-01-19 23:04:18.26	17.32	35.42	-40.2	-41.3	21.2	0.00e+00	0	42	0	1458569216	54	5738
2026-01-19 23:04:19.23	16.99	35.30	-38.2	-39.2	23.0	0.00e+00	0	42	0	1460666368	50	5710
2026-01-19 23:04:20.21	16.67	35.18	-38.2	-39.1	23.3	0.00e+00	0	42	0	1463812096	50	5653
2026-01-19 23:04:21.19	16.34	35.05	-37.9	-38.8	24.1	0.00e+00	0	42	0	1466957824	48	6115
2026-01-19 23:04:22.17	16.02	34.93	-37.4	-38.3	24.0	0.00e+00	0	42	0	1470103552	48	5789
2026-01-19 23:04:23.14	15.70	34.80	-38.3	-39.3	23.3	0.00e+00	0	42	0	1473249280	48	6452
2026-01-19 23:04:24.12	15.39	34.68	-39.4	-40.4	22.9	0.00e+00	0	42	0	1476395008	50	6572
2026-01-19 23:04:25.10	15.07	34.55	-40.6	-41.8	21.7	0.00e+00	0	42	0	1479540736	54	6076
2026-01-19 23:04:26.08	14.76	34.43	-39.9	-40.9	22.3	0.00e+00	0	42	0	1482686464	54	5513
2026-01-19 23:04:27.06	14.45	34.30	-40.0	-41.1	22.7	0.00e+00	0	42	0	1485832192	54	5624
2026-01-19 23:04:28.03	14.15	34.18	-39.2	-40.2	23.1	0.00e+00	0	42	0	1488977920	52	5698
2026-01-19 23:04:29.01	13.84	34.05	-38.7	-39.7	23.4	0.00e+00	0	42	0	1492123648	50	6016
2026-01-19 23:04:29.98	13.54	33.92	-38.1	-39.0	23.4	0.00e+00	0	42	0	1494220800	48	6232
2026-01-19 23:04:30.96	13.24	33.79	-38.0	-38.9	23.9	0.00e+00	0	42	0	1497366528	48	6137
2026-01-19 23:04:31.94	12.94	33.67	-37.7	-38.7	24.0	0.00e+00	0	42	0	1500512256	48	5996
2026-01-19 23:04:32.92	12.65	33.54	-38.4	-39.3	23.6	0.00e+00	0	42	0	1503657984	48	6479
2026-01-19 23:04:33.89	12.36	33.41	-38.6	-39.6	23.1	0.00e+00	0	42	0	1506803712	48	6718
2026-01-19 23:04:34.88	12.06	33.28	-38.9	-39.9	22.3	0.00e+00	0	42	0	1509949440	50	6204
2026-01-19 23:04:35.85	11.78	33.15	-38.9	-39.9	22.6	0.00e+00	0	42	0	1513095168	50	6182
2026-01-19 23:04:36.83	11.49	33.02	-38.6	-39.6	23.0	0.00e+00	0	42	0	1516240896	50	5948
2026-01-19 23:04:37.81	11.21	32.89	-38.1	-39.0	23.3	0.00e+00	0	42	0	1519386624	50	5581
2026-01-19 23:04:38.79	10.93	32.76	-37.5	-38.4	23.7	0.00e+00	0	42	0	1522532352	48	5825
2026-01-19 23:04:39.76	10.65	32.63	-37.2	-38.1	24.2	0.00e+00	0	42	0	1525678080	48	5632
2026-01-19 23:04:40.74	10.37	32.50	-37.9	-38.8	24.2	0.00e+00	0	42	0	1528823808	48	6084
2026-01-19 23:04:41.72	10.10	32.37	-37.8	-38.8	23.6	0.00e+00	0	42	0	1530920960	48	6076
2026-01-19 23:04:42.69	9.83	32.24	-38.1	-39.0	23.5	0.00e+00	0	42	0	1534066688	48	6255
2026-01-19 23:04:43.67	9.56	32.11	-38.1	-39.0	23.5	0.00e+00	0	42	0	1537212416	48	6266
2026-01-19 23:04:44.65	9.29	31.98	-37.8	-38.8	23.7	0.00e+00	0	42	0	1540358144	48	6080
2026-01-19 23:04:45.63	9.03	31.85	-37.2	-38.2	23.8	0.00e+00	0	42	0	1543503872	48	5667
2026-01-19 23:04:46.60	8.76	31.72	-37.4	-38.4	23.9	0.00e+00	0	42	0	1546649600	48	5796
2026-01-19 23:04:47.58	8.50	31.58	-37.7	-38.6	23.8	0.00e+00	0	42	0	1549795328	48	5962
2026-01-19 23:04:48.56	8.24	31.45	-37.5	-38.4	23.8	0.00e+00	0	42	0	1552941056	48	5824
2026-01-19 23:04:49.54	7.99	31.32	-37.7	-38.6	23.7	0.00e+00	0	42	0	1556086784	48	5951
2026-01-19 23:04:50.52	7.73	31.19	-37.7	-38.6	23.6	0.00e+00	0	42	0	1559232512	48	5963
2026-01-19 23:04:51.50	7.48	31.06	-37.9	-38.9	23.2	0.00e+00	0	42	0	1562378240	48	6151
2026-01-19 23:04:52.47	7.23	30.93	-38.4	-39.4	22.9	0.00e+00	0	42	0	1565523968	48	6556
2026-01-19 23:04:53.45	6.98	30.79	-38.3	-39.3	22.6	0.00e+00	0	42	0	1568669696	50	5763
2026-01-19 23:04:54.43	6.73	30.66	-39.0	-40.0	22.6	0.00e+00	0	42	0	1570766848	50	6214
2026-01-19 23:04:55.41	6.49	30.53	-38.0	-38.9	23.3	0.00e+00	0	42	0	1573912576	50	5519
2026-01-19 23:04:56.39	6.25	30.40	-37.6	-38.6	23.5	0.00e+00	0	42	0	1577058304	48	5946
2026-01-19 23:04:57.36	6.01	30.27	-36.8	-37.7	24.2	0.00e+00	0	42	0	1580204032	46	6038
2026-01-19 23:04:58.34	5.77	30.13	-36.6	-37.5	24.3	0.00e+00	0	42	0	1583349760	46	5901
2026-01-19 23:04:59.32	5.53	30.00	-36.4	-37.3	24.5	0.00e+00	0	42	0	1586495488	46	5745
2026-01-19 23:05:00.30	5.30	29.87	-36.8	-37.7	24.5	0.00e+00	0	42	0	1589641216	46	6008
2026-01-19 23:05:01.27	5.07	29.74	-37.0	-38.0	24.3	0.00e+00	0	42	0	1592786944	46	6208
2026-01-19 23:05:02.25	4.83	29.61	-37.3	-38.2	24.1	0.00e+00	0	42	0	1595932672	46	6385
2026-01-19 23:05:03.23	4.61	29.48	-37.5	-38.4	23.8	0.00e+00	0	42	0	1599078400	48	5831
2026-01-19 23:05:04.21	4.38	29.35	-37.8	-38.7	23.6	0.00e+00	0	42	0	1602224128	48	6063
2026-01-19 23:05:05.18	4.15	29.22	-37.3	-38.2	23.3	0.00e+00	0	42	0	1604321280	48	5712
2026-01-19 23:05:06.16	3.93	29.08	-37.1	-38.0	23.3	0.00e+00	0	42	0	1607467008	48	5575
2026-01-19 23:05:07.15	3.71	28.95	-37.2	-38.1	23.6	0.00e+00	0	42	0	1610612736	48	5623
2026-01-19 23:05:08.13	3.49	28.82	-36.8	-37.7	23.7	0.00e+00	0	42	0	1613758464	46	6011
2026-01-19 23:05:09.11	3.27	28.69	-36.3	-37.3	24.2	0.00e+00	0	42	0	1616904192	46	5729
2026-01-19 23:05:10.09	3.05	28.56	-36.3	-37.2	24.3	0.00e+00	0	42	0	1620049920	46	5702
2026-01-19 23:05:11.06	2.84	28.43	-36.4	-37.2	24.4	0.00e+00	0	42	0	1623195648	46	5723
2026-01-19 23:05:12.04	2.63	28.30	-36.9	-37.9	24.2	0.00e+00	0	42	0	1626341376	46	6140
2026-01-19 23:05:13.02	2.42	28.17	-37.3	-38.2	24.0	0.00e+00	0	42	0	1629487104	48	5684
2026-01-19 23:05:14.00	2.21	28.04	-38.1	-39.0	23.9	0.00e+00	0	42	0	1632632832	48	6234
2026-01-19 23:05:14.98	2.00	27.91	-38.1	-39.0	23.9	0.00e+00	0	42	0	1635778560	48	6274
2026-01-19 23:05:15.95	1.80	27.78	-37.8	-38.7	24.0	0.00e+00	0	42	0	1637875712	48	6035
2026-01-19 23:05:16.93	1.59	27.65	-37.7	-38.6	24.0	0.00e+00	0	42	0	1641021440	48	5947
2026-01-19 23:05:17.91	1.39	27.52	-37.8	-38.8	23.9	0.00e+00	0	42	0	1644167168	48	6071
2026-01-19 23:05:18.89	1.19	27.39	-37.7	-38.6	23.8	0.00e+00	0	42	0	1647312896	48	5985
2026-01-19 23:05:19.87	0.99	27.26	-38.0	-38.9	23.8	0.00e+00	0	42	0	1650458624	48	6205
2026-01-19 23:05:20.85	0.79	27.13	-38.3	-39.2	24.0	0.00e+00	0	42	0	1653604352	48	6379
2026-01-19 23:05:21.83	0.60	27.01	-37.6	-38.5	23.9	0.00e+00	0	42	0	1656750080	48	5910
2026-01-19 23:05:22.81	0.40	26.88	-37.5	-38.4	23.8	0.00e+00	0	42	0	1659895808	48	5858
2026-01-19 23:05:23.78	0.21	26.75	-38.7	-39.7	24.0	0.00e+00	0	42	0	1663041536	48	6749
2026-01-19 23:05:24.76	0.02	26.62	-37.7	-38.6	23.8	0.00e+00	0	42	0	1666187264	48	5941
2026-01-19 23:05:25.74	359.83	26.50	-38.0	-38.8	23.7	0.00e+00	0	42	0	1669332992	50	5458
2026-01-19 23:05:26.71	359.64	26.37	-38.7	-39.6	24.1	0.00e+00	0	42	0	1672478720	48	6702
2026-01-19 23:05:27.69	359.46	26.24	-37.5	-38.4	24.1	0.00e+00	0	42	0	1674575872	48	5819
2026-01-19 23:05:28.67	359.27	26.12	-37.2	-38.1	24.0	0.00e+00	0	42	0	1677721600	48	5602
2026-01-19 23:05:29.65	359.09	25.99	-37.4	-38.3	23.9	0.00e+00	0	42	0	1680867328	48	5762
2026-01-19 23:05:30.62	358.91	25.87	-37.5	-38.4	23.9	0.00e+00	0	42	0	1684013056	48	5815
2026-01-19 23:05:31.60	358.73	25.74	-37.8	-38.6	24.2	0.00e+00	0	42	0	1687158784	48	5982
2026-01-19 23:05:32.58	358.55	25.61	-37.4	-38.3	24.3	0.00e+00	0	42	0	1690304512	48	5775
2026-01-19 23:05:33.55	358.37	25.49	-38.0	-38.9	24.0	0.00e+00	0	42	0	1693450240	48	6165
2026-01-19 23:05:34.53	358.19	25.36	-37.8	-38.7	24.0	0.00e+00	0	42	0	1696595968	48	6064
2026-01-19 23:05:35.51	358.02	25.24	-37.4	-38.4	23.9	0.00e+00	0	42	0	1699741696	48	5803
2026-01-19 23:05:36.48	357.85	25.12	-37.2	-38.1	24.3	0.00e+00	0	42	0	1702887424	48	5641
2026-01-19 23:05:37.46	357.67	24.99	-37.3	-38.2	24.1	0.00e+00	0	42	0	1706033152	48	5715
2026-01-19 23:05:38.44	357.50	24.87	-37.5	-38.4	23.9	0.00e+00	0	42	0	1708130304	48	5853
2026-01-19 23:05:39.42	357.33	24.75	-37.6	-38.5	23.9	0.00e+00	0	42	0	1711276032	48	5912
2026-01-19 23:05:40.40	357.17	24.62	-38.1	-39.0	23.7	0.00e+00	0	42	0	1714421760	48	6268
2026-01-19 23:05:41.37	357.00	24.50	-39.5	-40.5	23.5	0.00e+00	0	42	0	1717567488	50	6581
2026-01-19 23:05:42.35	356.84	24.38	-38.9	-39.8	23.7	0.00e+00	0	42	0	1720713216	50	6115
2026-01-19 23:05:43.33	356.67	24.26	-38.6	-39.5	23.5	0.00e+00	0	42	0	1723858944	50	5914
2026-01-19 23:05:44.30	356.51	24.13	-37.6	-38.5	23.7	0.00e+00	0	42	0	1727004672	48	5894
2026-01-19 23:05:45.28	356.35	24.01	-38.2	-39.2	23.3	0.00e+00	0	42	0	1730150400	48	6368
2026-01-19 23:05:46.26	356.19	23.89	-37.9	-38.8	23.9	0.00e+00	0	42	0	1733296128	48	6110
2026-01-19 23:05:47.24	356.03	23.77	-37.9	-38.8	23.9	0.00e+00	0	42	0	1736441856	48	6104
2026-01-19 23:05:48.22	355.87	23.65	-37.5	-38.4	24.0	0.00e+00	0	42	0	1739587584	48	5843
2026-01-19 23:05:49.20	355.71	23.53	-36.9	-37.8	24.0	0.00e+00	0	42	0	1742733312	48	5459
2026-01-19 23:05:50.18	355.56	23.41	-37.2	-38.2	24.0	0.00e+00	0	42	0	1744830464	48	5664
2026-01-19 23:05:51.15	355.41	23.29	-37.2	-38.1	24.0	0.00e+00	0	42	0	1747976192	48	5656
2026-01-19 23:05:52.13	355.25	23.17	-36.9	-37.8	24.1	0.00e+00	0	42	0	1751121920	48	5457
2026-01-19 23:05:53.11	355.10	23.05	-37.5	-38.5	24.1	0.00e+00	0	42	0	1754267648	48	5859
2026-01-19 23:05:54.09	354.95	22.93	-37.3	-38.2	24.2	0.00e+00	0	42	0	1757413376	48	5679
2026-01-19 23:05:55.07	354.80	22.81	-37.1	-38.0	24.1	0.00e+00	0	42	0	1760559104	48	5578
2026-01-19 23:05:56.05	354.65	22.70	-37.0	-37.9	24.0	0.00e+00	0	42	0	1763704832	48	5484
2026-01-19 23:05:57.03	354.51	22.58	-36.9	-37.8	24.0	0.00e+00	0	42	0	1766850560	48	5461
2026-01-19 23:05:58.01	354.36	22.46	-37.4	-38.4	23.9	0.00e+00	0	42	0	1769996288	48	5792
2026-01-19 23:05:58.98	354.22	22.34	-37.6	-38.6	23.9	0.00e+00	0	42	0	1773142016	48	5933
2026-01-19 23:05:59.96	354.07	22.23	-37.8	-38.7	24.1	0.00e+00	0	42	0	1776287744	48	6037
2026-01-19 23:06:00.94	353.93	22.11	-38.2	-39.1	24.0	0.00e+00	0	42	0	1779433472	48	6323
2026-01-19 23:06:01.91	353.79	22.00	-38.4	-39.3	23.5	0.00e+00	0	42	0	1781530624	48	6469
2026-01-19 23:06:02.89	353.65	21.88	-38.4	-39.4	23.6	0.00e+00	0	42	0	1784676352	50	5827
2026-01-19 23:06:03.86	353.51	21.77	-38.3	-39.4	23.6	0.00e+00	0	42	0	1787822080	48	6518
2026-01-19 23:06:04.84	353.37	21.65	-38.5	-39.4	23.6	0.00e+00	0	42	0	1790967808	50	5849
2026-01-19 23:06:05.82	353.24	21.54	-38.3	-39.2	23.7	0.00e+00	0	42	0	1794113536	50	5720
2026-01-19 23:06:06.80	353.10	21.42	-38.4	-39.3	23.6	0.00e+00	0	42	0	1797259264	50	5780
2026-01-19 23:06:07.78	352.96	21.31	-38.6	-39.5	23.7	0.00e+00	0	42	0	1800404992	50	5891
2026-01-19 23:06:08.76	352.83	21.19	-37.8	-38.7	23.8	0.00e+00	0	42	0	1803550720	50	5392
2026-01-19 23:06:09.74	352.70	21.08	-37.8	-38.7	24.0	0.00e+00	0	42	0	1806696448	48	6060
2026-01-19 23:06:10.72	352.56	20.97	-38.7	-39.6	24.0	0.00e+00	0	42	0	1809842176	48	6722
2026-01-19 23:06:11.70	352.43	20.86	-38.2	-39.1	23.9	0.00e+00	0	42	0	1812987904	48	6312
2026-01-19 23:06:12.67	352.30	20.74	-38.2	-39.1	24.1	0.00e+00	0	42	0	1816133632	48	6331
2026-01-19 23:06:13.65	352.17	20.63	-38.1	-39.0	24.1	0.00e+00	0	42	0	1818230784	48	6265
2026-01-19 23:06:14.62	352.05	20.52	-37.5	-38.4	24.4	0.00e+00	0	42	0	1821376512	48	5841
2026-01-19 23:06:15.60	351.92	20.41	-37.7	-38.6	24.4	0.00e+00	0	42	0	1824522240	48	5987
2026-01-19 23:06:16.58	351.79	20.30	-37.0	-37.9	24.6	0.00e+00	0	42	0	1827667968	48	5468
2026-01-19 23:06:17.56	351.67	20.19	-37.5	-38.4	24.5	0.00e+00	0	42	0	1830813696	46	6572
2026-01-19 23:06:18.54	351.54	20.08	-37.5	-38.4	24.4	0.00e+00	0	42	0	1833959424	46	6545
2026-01-19 23:06:19.52	351.42	19.97	-36.8	-37.7	24.3	0.00e+00	0	42	0	1837105152	48	5401
2026-01-19 23:06:20.49	351.30	19.86	-36.7	-37.6	24.4	0.00e+00	0	42	0	1840250880	46	5944
2026-01-19 23:06:21.47	351.18	19.75	-37.5	-38.4	24.2	0.00e+00	0	42	0	1843396608	46	6512
2026-01-19 23:06:22.45	351.05	19.64	-37.5	-38.4	24.1	0.00e+00	0	42	0	1846542336	48	5848
2026-01-19 23:06:23.43	350.93	19.53	-37.5	-38.4	23.9	0.00e+00	0	42	0	1849688064	48	5841
2026-01-19 23:06:24.41	350.81	19.42	-38.0	-38.9	24.0	0.00e+00	0	42	0	1852833792	48	6158
2026-01-19 23:06:25.38	350.70	19.32	-37.7	-38.6	24.1	0.00e+00	0	42	0	1854930944	48	5969
2026-01-19 23:06:26.36	350.58	19.21	-37.5	-38.4	24.3	0.00e+00	0	42	0	1858076672	48	5799
2026-01-19 23:06:27.33	350.46	19.10	-37.6	-38.4	24.3	0.00e+00	0	42	0	1861222400	48	5857
2026-01-19 23:06:28.31	350.35	19.00	-37.3	-38.2	24.2	0.00e+00	0	42	0	1864368128	48	5709
2026-01-19 23:06:29.29	350.23	18.89	-37.1	-38.0	24.2	0.00e+00	0	42	0	1867513856	48	5579
2026-01-19 23:06:30.27	350.12	18.78	-37.6	-38.5	24.0	0.00e+00	0	42	0	1870659584	48	5919
2026-01-19 23:06:31.24	350.01	18.68	-37.8	-38.8	23.6	0.00e+00	0	42	0	1873805312	48	6071
2026-01-19 23:06:32.22	349.89	18.57	-37.9	-38.9	23.9	0.00e+00	0	42	0	1876951040	48	6142
2026-01-19 23:06:33.20	349.78	18.47	-37.7	-38.6	23.9	0.00e+00	0	42	0	1880096768	50	5312
2026-01-19 23:06:34.18	349.67	18.36	-37.3	-38.2	23.9	0.00e+00	0	42	0	1883242496	48	5675
2026-01-19 23:06:35.15	349.56	18.26	-37.6	-38.5	23.7	0.00e+00	0	42	0	1886388224	48	5905
2026-01-19 23:06:36.13	349.45	18.15	-37.5	-38.4	23.9	0.00e+00	0	42	0	1888485376	48	5852
2026-01-19 23:06:37.11	349.34	18.05	-37.7	-38.6	23.7	0.00e+00	0	42	0	1891631104	48	5970
2026-01-19 23:06:38.09	349.24	17.95	-37.5	-38.4	23.8	0.00e+00	0	42	0	1894776832	48	5830
2026-01-19 23:06:39.06	349.13	17.85	-37.6	-38.5	23.9	0.00e+00	0	42	0	1897922560	48	5889
2026-01-19 23:06:40.04	349.02	17.74	-37.1	-38.0	24.1	0.00e+00	0	42	0	1901068288	48	5592
2026-01-19 23:06:41.02	348.92	17.64	-37.1	-38.0	23.9	0.00e+00	0	42	0	1904214016	48	5575
2026-01-19 23:06:42.00	348.81	17.54	-38.0	-39.0	24.0	0.00e+00	0	42	0	1907359744	48	6210
2026-01-19 23:06:42.98	348.71	17.44	-37.9	-38.8	23.9	0.00e+00	0	42	0	1910505472	48	6072
2026-01-19 23:06:43.96	348.61	17.33	-37.6	-38.5	23.8	0.00e+00	0	42	0	1913651200	48	5895
2026-01-19 23:06:44.93	348.50	17.23	-37.4	-38.3	23.7	0.00e+00	0	42	0	1916796928	48	5791
2026-01-19 23:06:45.91	348.40	17.13	-38.0	-38.9	23.6	0.00e+00	0	42	0	1919942656	48	6146
2026-01-19 23:06:46.89	348.30	17.03	-38.1	-39.1	23.5	0.00e+00	0	42	0	1922039808	48	6301
2026-01-19 23:06:47.87	348.20	16.93	-38.6	-39.5	23.4	0.00e+00	0	42	0	1925185536	50	5925
2026-01-19 23:06:48.85	348.10	16.83	-38.3	-39.3	23.6	0.00e+00	0	42	0	1928331264	50	5740
2026-01-19 23:06:49.83	348.00	16.73	-38.2	-39.2	23.4	0.00e+00	0	42	0	1931476992	50	5664
2026-01-19 23:06:50.80	347.90	16.63	-38.7	-39.7	23.4	0.00e+00	0	42	0	1934622720	50	6015
