passes_logs/2026/01/19/R4.6S_Anadyr/R4.6S_Anadyr__20260119_014517_NOAA_20_JPSS-1_rec.log

#Pass ID: 20260119_014517_NOAA 20 (JPSS-1)
#Satellite: NOAA 20 (JPSS-1)
#Configuration: NOAA 20
#almurnet v.1.7.20251203
#Start time: 2026-01-19 01:45:18

#Version: 2.2.20231116
#Station: R4.6S_Anadyr
#Location: 177.4865 lon 64.73178 lat
#TLE: 1 43013U 17073A   26018.57232797  .00000065  00000+0  51758-4 0  9998
#TLE: 2 43013  98.7640 319.4740 0001368  34.2083 325.9181 14.19536753423241

#Time	Az	El	Level	Level2	SNR	BER	BlckErr	Temp	State	Recorded	gain1	gain2
2026-01-19 01:45:18.41	195.62	0.05	-50.3	-68.3	3.5	3.03e+01	0	38	0	0	60	99694
2026-01-19 01:45:19.42	195.67	0.11	-50.0	-65.3	3.6	1.51e+00	0	39	104	0	60	66410
2026-01-19 01:45:20.42	195.72	0.16	-50.0	-65.2	3.6	1.51e+00	0	40	104	0	60	65705
2026-01-19 01:45:21.43	195.77	0.22	-49.9	-65.2	3.6	1.51e+00	0	40	104	0	60	65461
2026-01-19 01:45:22.44	195.82	0.28	-49.9	-65.1	3.6	1.51e+00	0	40	104	0	60	64984
2026-01-19 01:45:23.45	195.87	0.33	-49.8	-65.0	3.6	1.51e+00	0	40	104	0	60	64246
2026-01-19 01:45:24.46	195.92	0.39	-50.0	-65.2	3.6	1.51e+00	0	40	104	0	60	65710
2026-01-19 01:45:25.47	195.97	0.45	-49.9	-65.1	3.6	1.51e+00	0	40	104	0	60	64866
2026-01-19 01:45:26.48	196.02	0.50	-50.1	-65.3	3.6	1.51e+00	0	40	104	0	60	66270
2026-01-19 01:45:27.49	196.07	0.56	-49.9	-65.1	3.6	1.51e+00	0	40	104	0	60	64750
2026-01-19 01:45:28.50	196.13	0.62	-49.9	-65.2	3.6	1.51e+00	0	40	104	0	60	65735
2026-01-19 01:45:29.51	196.18	0.67	-49.9	-65.0	3.6	1.51e+00	0	40	104	0	60	64603
2026-01-19 01:45:30.52	196.23	0.73	-49.8	-65.1	3.6	1.51e+00	0	40	104	0	60	64969
2026-01-19 01:45:31.53	196.28	0.79	-49.9	-65.0	3.6	1.51e+00	0	40	104	0	60	64426
2026-01-19 01:45:32.54	196.33	0.85	-49.8	-65.0	3.6	1.51e+00	0	40	104	0	60	64233
2026-01-19 01:45:33.55	196.39	0.90	-49.7	-64.8	3.6	1.51e+00	0	40	104	0	60	62786
2026-01-19 01:45:34.56	196.44	0.96	-49.7	-64.8	3.6	1.51e+00	0	40	104	0	60	63034
2026-01-19 01:45:35.57	196.49	1.02	-49.5	-64.6	3.6	1.51e+00	0	40	104	0	60	61449
2026-01-19 01:45:36.57	196.54	1.08	-49.5	-64.8	3.6	1.51e+00	0	40	104	0	60	62564
2026-01-19 01:45:37.59	196.60	1.13	-49.5	-64.6	3.6	1.51e+00	0	40	104	0	60	61374
2026-01-19 01:45:38.60	196.65	1.19	-49.1	-64.5	3.6	1.51e+00	0	40	104	0	60	60438
2026-01-19 01:45:39.61	196.70	1.25	-49.1	-64.3	3.6	1.51e+00	0	40	104	0	60	59288
2026-01-19 01:45:40.62	196.76	1.31	-48.8	-64.0	3.6	1.51e+00	0	40	104	0	60	57120
2026-01-19 01:45:41.63	196.81	1.37	-47.8	-63.0	3.6	1.51e+00	0	40	104	0	60	50934
2026-01-19 01:45:42.64	196.87	1.43	-47.9	-63.1	3.6	1.51e+00	0	40	104	0	60	51603
2026-01-19 01:45:43.65	196.92	1.48	-47.9	-63.1	3.6	1.51e+00	0	40	104	0	60	51472
2026-01-19 01:45:44.66	196.97	1.54	-47.9	-63.0	3.6	1.51e+00	0	40	104	0	60	51315
2026-01-19 01:45:45.67	197.03	1.60	-47.9	-63.1	3.6	1.51e+00	0	40	104	0	60	51636
2026-01-19 01:45:46.68	197.08	1.66	-47.9	-63.0	3.6	1.51e+00	0	40	104	0	60	51219
2026-01-19 01:45:47.69	197.14	1.72	-47.9	-63.0	3.6	1.51e+00	0	40	104	0	60	51102
2026-01-19 01:45:48.70	197.19	1.78	-47.9	-63.0	3.6	1.51e+00	0	40	104	0	60	51142
2026-01-19 01:45:49.71	197.25	1.84	-47.9	-63.0	3.6	1.51e+00	0	40	104	0	60	51269
2026-01-19 01:45:50.72	197.31	1.90	-47.9	-63.1	3.6	1.51e+00	0	40	104	0	60	51480
2026-01-19 01:45:51.73	197.36	1.96	-47.9	-63.1	3.6	1.51e+00	0	40	104	0	60	51726
2026-01-19 01:45:52.74	197.42	2.01	-47.9	-63.1	3.6	1.51e+00	0	40	104	0	60	51728
2026-01-19 01:45:53.75	197.47	2.07	-47.9	-63.1	3.6	1.51e+00	0	40	104	0	60	51629
2026-01-19 01:45:54.76	197.53	2.13	-47.9	-63.0	3.6	1.51e+00	0	40	104	0	60	51180
2026-01-19 01:45:55.77	197.59	2.19	-48.0	-62.9	3.6	1.51e+00	0	40	104	0	60	50396
2026-01-19 01:45:56.78	197.64	2.25	-47.9	-62.9	3.6	1.51e+00	0	40	104	0	60	50224
2026-01-19 01:45:57.79	197.70	2.31	-48.0	-62.9	3.6	1.51e+00	0	40	104	0	60	50428
2026-01-19 01:45:58.80	197.76	2.37	-48.0	-63.0	3.6	1.51e+00	0	40	104	0	60	51056
2026-01-19 01:45:59.81	197.82	2.43	-48.0	-63.0	3.6	1.51e+00	0	40	104	0	60	51146
2026-01-19 01:46:00.82	197.87	2.49	-48.0	-62.8	3.6	1.51e+00	0	40	104	0	60	50077
2026-01-19 01:46:01.83	197.93	2.55	-47.9	-62.4	3.6	1.51e+00	0	40	104	0	60	47651
2026-01-19 01:46:02.83	197.99	2.61	-47.9	-62.0	3.6	1.51e+00	0	40	104	0	60	45672
2026-01-19 01:46:03.85	198.05	2.67	-47.9	-61.6	3.6	1.51e+00	0	40	104	0	60	43617
2026-01-19 01:46:04.86	198.11	2.74	-48.0	-61.9	3.6	1.51e+00	0	41	104	0	60	44738
2026-01-19 01:46:05.86	198.17	2.80	-48.0	-62.3	3.6	1.51e+00	0	40	104	0	60	47193
2026-01-19 01:46:06.87	198.23	2.86	-48.0	-62.0	3.6	1.51e+00	0	40	104	0	60	45450
2026-01-19 01:46:07.88	198.29	2.92	-47.9	-60.2	3.7	1.50e+00	0	40	104	0	60	36915
2026-01-19 01:46:08.89	198.34	2.98	-47.5	-56.4	5.9	1.07e+00	92	40	104	0	60	23760
2026-01-19 01:46:09.90	198.40	3.04	-47.1	-53.6	7.9	2.42e-01	92	40	0	1048576	60	17263
2026-01-19 01:46:10.91	198.46	3.10	-46.6	-51.9	10.0	2.15e-02	0	41	0	3145728	60	14245
2026-01-19 01:46:11.92	198.53	3.16	-46.0	-50.3	11.6	1.31e-03	90	40	0	5242880	60	11845
2026-01-19 01:46:12.93	198.59	3.22	-45.5	-49.2	12.8	2.54e-04	0	40	0	6291456	60	10466
2026-01-19 01:46:13.94	198.65	3.29	-45.4	-48.9	13.2	4.42e-05	90	41	0	8388608	60	10109
2026-01-19 01:46:14.95	198.71	3.35	-45.5	-49.1	12.9	2.36e-05	92	40	0	9437184	60	10307
2026-01-19 01:46:15.96	198.77	3.41	-45.5	-49.2	12.6	9.46e-05	91	40	0	11534336	60	10448
2026-01-19 01:46:16.97	198.83	3.47	-46.9	-53.3	7.5	1.83e-02	92	41	0	13631488	60	16697
2026-01-19 01:46:17.98	198.89	3.53	-43.9	-51.1	6.7	1.03e-01	72	41	0	15728640	60	12968
2026-01-19 01:46:18.99	198.95	3.60	-48.2	-62.4	3.6	1.98e-02	0	41	104	16777216	60	47665
2026-01-19 01:46:20.00	199.02	3.66	-47.0	-60.8	3.6	1.51e+00	0	40	104	16777216	60	39451
2026-01-19 01:46:21.01	199.08	3.72	-45.2	-48.3	14.1	1.36e+00	92	40	104	16777216	60	9431
2026-01-19 01:46:22.02	199.14	3.78	-44.3	-46.7	15.9	0.00e+00	92	40	0	16777216	60	7861
2026-01-19 01:46:23.03	199.21	3.85	-44.6	-47.1	15.7	0.00e+00	90	40	0	18874368	60	8177
2026-01-19 01:46:24.04	199.27	3.91	-44.1	-46.3	16.4	0.00e+00	92	41	0	20971520	60	7503
2026-01-19 01:46:25.05	199.33	3.97	-44.0	-46.3	16.2	0.00e+00	90	40	0	23068672	60	7444
2026-01-19 01:46:26.06	199.40	4.03	-43.5	-45.6	17.0	0.00e+00	92	40	0	24117248	60	6852
2026-01-19 01:46:27.07	199.46	4.10	-44.0	-46.4	16.1	0.00e+00	7	40	0	26214400	60	7517
2026-01-19 01:46:28.08	199.53	4.16	-43.9	-46.3	16.0	0.00e+00	92	40	0	28311552	60	7477
2026-01-19 01:46:29.09	199.59	4.22	-43.5	-45.9	15.9	0.00e+00	90	40	0	30408704	60	7141
2026-01-19 01:46:30.10	199.65	4.29	-43.2	-45.5	16.0	0.00e+00	92	40	0	32505856	60	6839
2026-01-19 01:46:31.10	199.72	4.35	-43.0	-45.5	15.8	0.00e+00	92	40	0	33554432	60	6835
2026-01-19 01:46:32.11	199.78	4.41	-43.0	-45.5	15.8	0.00e+00	92	40	0	35651584	58	7599
2026-01-19 01:46:33.12	199.85	4.48	-43.1	-45.6	15.7	0.00e+00	90	40	0	37748736	58	7725
2026-01-19 01:46:34.13	199.92	4.54	-43.1	-45.6	15.6	0.00e+00	0	40	0	39845888	58	7726
2026-01-19 01:46:35.14	199.98	4.61	-43.4	-46.0	15.5	0.00e+00	92	41	0	41943040	58	8058
2026-01-19 01:46:36.15	200.05	4.67	-43.7	-46.0	16.0	0.00e+00	0	40	0	42991616	58	8117
2026-01-19 01:46:37.16	200.12	4.73	-43.8	-46.1	16.4	0.00e+00	92	40	0	45088768	60	7286
2026-01-19 01:46:38.17	200.18	4.80	-44.0	-46.1	16.8	0.00e+00	92	40	0	47185920	60	7321
2026-01-19 01:46:39.18	200.25	4.86	-43.6	-45.5	17.5	0.00e+00	92	41	0	49283072	60	6845
2026-01-19 01:46:40.18	200.32	4.93	-43.5	-45.4	17.5	0.00e+00	92	41	0	51380224	60	6746
2026-01-19 01:46:41.19	200.39	4.99	-43.5	-45.5	17.5	0.00e+00	92	41	0	53477376	60	6785
2026-01-19 01:46:42.20	200.45	5.06	-43.5	-45.4	17.7	0.00e+00	92	41	0	54525952	60	6752
2026-01-19 01:46:43.21	200.52	5.12	-43.0	-44.8	18.2	0.00e+00	0	40	0	56623104	60	6271
2026-01-19 01:46:44.22	200.59	5.19	-43.6	-45.5	17.5	0.00e+00	92	40	0	58720256	60	6843
2026-01-19 01:46:45.23	200.66	5.25	-43.1	-45.0	18.1	0.00e+00	90	41	0	60817408	60	6392
2026-01-19 01:46:46.24	200.73	5.32	-43.2	-45.1	17.8	0.00e+00	91	40	0	62914560	60	6499
2026-01-19 01:46:47.25	200.80	5.38	-43.2	-45.1	17.8	0.00e+00	91	40	0	63963136	60	6518
2026-01-19 01:46:48.26	200.87	5.45	-43.3	-45.2	17.9	0.00e+00	91	40	0	66060288	60	6547
2026-01-19 01:46:49.27	200.94	5.52	-43.4	-45.3	17.9	0.00e+00	91	40	0	68157440	60	6636
2026-01-19 01:46:50.28	201.01	5.58	-43.1	-44.9	18.2	0.00e+00	0	41	0	70254592	60	6353
2026-01-19 01:46:51.29	201.08	5.65	-43.1	-44.9	18.3	0.00e+00	92	41	0	72351744	60	6327
2026-01-19 01:46:52.30	201.15	5.72	-43.1	-44.8	18.4	0.00e+00	16	41	0	73400320	60	6283
2026-01-19 01:46:53.31	201.22	5.78	-43.2	-44.9	18.3	0.00e+00	90	40	0	75497472	60	6351
2026-01-19 01:46:54.32	201.30	5.85	-42.9	-44.6	18.6	0.00e+00	92	41	0	77594624	60	6150
2026-01-19 01:46:55.33	201.37	5.91	-43.0	-44.7	18.6	0.00e+00	90	41	0	79691776	60	6194
2026-01-19 01:46:56.34	201.44	5.98	-42.6	-44.2	18.9	0.00e+00	92	41	0	81788928	58	6604
2026-01-19 01:46:57.35	201.51	6.05	-42.8	-44.5	18.7	0.00e+00	92	41	0	82837504	58	6776
2026-01-19 01:46:58.36	201.59	6.12	-42.9	-44.5	18.7	0.00e+00	90	40	0	84934656	58	6827
2026-01-19 01:46:59.37	201.66	6.18	-42.6	-44.1	19.1	0.00e+00	0	41	0	87031808	58	6524
2026-01-19 01:47:00.36	201.73	6.25	-42.7	-44.2	19.0	0.00e+00	90	40	0	89128960	58	6599
2026-01-19 01:47:01.36	201.81	6.32	-42.6	-44.1	19.1	0.00e+00	92	41	0	91226112	58	6530
2026-01-19 01:47:02.37	201.88	6.38	-42.7	-44.3	19.0	0.00e+00	90	40	0	92274688	58	6616
2026-01-19 01:47:03.38	201.95	6.45	-42.7	-44.3	19.1	0.00e+00	92	41	0	94371840	58	6640
2026-01-19 01:47:04.39	202.03	6.52	-42.7	-44.2	19.0	0.00e+00	92	41	0	96468992	58	6609
2026-01-19 01:47:05.40	202.10	6.59	-42.6	-44.2	19.0	0.00e+00	92	41	0	98566144	58	6582
2026-01-19 01:47:06.41	202.18	6.66	-42.5	-44.1	19.0	0.00e+00	0	40	0	100663296	58	6473
2026-01-19 01:47:07.42	202.26	6.72	-42.3	-43.8	19.3	0.00e+00	92	41	0	101711872	58	6303
2026-01-19 01:47:08.42	202.33	6.79	-42.3	-43.8	19.3	0.00e+00	90	40	0	103809024	58	6311
2026-01-19 01:47:09.44	202.41	6.86	-42.2	-43.7	19.5	0.00e+00	92	41	0	105906176	58	6216
2026-01-19 01:47:10.45	202.49	6.93	-42.1	-43.6	19.6	0.00e+00	92	40	0	108003328	58	6125
2026-01-19 01:47:11.45	202.56	7.00	-42.2	-43.7	19.4	0.00e+00	92	40	0	110100480	58	6208
2026-01-19 01:47:12.46	202.64	7.07	-42.2	-43.7	19.4	0.00e+00	92	40	0	111149056	58	6184
2026-01-19 01:47:13.47	202.72	7.14	-42.3	-43.8	19.4	0.00e+00	49	41	0	113246208	58	6247
2026-01-19 01:47:14.48	202.80	7.21	-42.2	-43.7	19.3	0.00e+00	92	40	0	115343360	58	6210
2026-01-19 01:47:15.49	202.88	7.28	-42.0	-43.5	19.5	0.00e+00	0	40	0	117440512	58	6039
2026-01-19 01:47:16.50	202.96	7.34	-41.9	-43.4	19.6	0.00e+00	92	41	0	119537664	58	5997
2026-01-19 01:47:17.51	203.03	7.41	-42.2	-43.7	19.3	0.00e+00	92	41	0	120586240	58	6209
2026-01-19 01:47:18.52	203.11	7.48	-42.1	-43.6	19.4	0.00e+00	92	41	0	122683392	58	6137
2026-01-19 01:47:19.53	203.20	7.55	-42.0	-43.5	19.6	0.00e+00	92	41	0	124780544	58	6061
2026-01-19 01:47:20.54	203.28	7.62	-41.9	-43.4	19.7	0.00e+00	92	40	0	126877696	58	5974
2026-01-19 01:47:21.55	203.36	7.70	-41.8	-43.3	19.8	0.00e+00	90	41	0	128974848	56	6626
2026-01-19 01:47:22.56	203.44	7.77	-41.9	-43.3	19.8	0.00e+00	37	40	0	130023424	56	6658
2026-01-19 01:47:23.57	203.52	7.84	-42.1	-43.5	19.6	0.00e+00	90	41	0	132120576	56	6824
2026-01-19 01:47:24.58	203.60	7.91	-42.2	-43.6	19.6	0.00e+00	92	41	0	134217728	56	6912
2026-01-19 01:47:25.59	203.68	7.98	-42.1	-43.5	19.8	0.00e+00	90	41	0	136314880	56	6787
2026-01-19 01:47:26.60	203.77	8.05	-42.0	-43.3	20.0	0.00e+00	92	40	0	138412032	56	6692
2026-01-19 01:47:27.61	203.85	8.12	-41.8	-43.2	20.2	0.00e+00	90	41	0	139460608	56	6560
2026-01-19 01:47:28.62	203.93	8.19	-41.8	-43.2	20.2	0.00e+00	92	40	0	141557760	56	6560
2026-01-19 01:47:29.63	204.02	8.26	-41.8	-43.1	20.4	0.00e+00	0	40	0	143654912	56	6485
2026-01-19 01:47:30.64	204.10	8.34	-41.9	-43.3	20.2	0.00e+00	92	40	0	145752064	56	6638
2026-01-19 01:47:31.65	204.19	8.41	-41.9	-43.2	20.2	0.00e+00	92	41	0	147849216	56	6611
2026-01-19 01:47:32.66	204.27	8.48	-41.9	-43.3	20.1	0.00e+00	92	40	0	149946368	56	6648
2026-01-19 01:47:33.67	204.36	8.55	-42.0	-43.3	20.1	0.00e+00	92	40	0	150994944	56	6677
2026-01-19 01:47:34.68	204.44	8.62	-41.6	-42.9	20.6	0.00e+00	92	40	0	153092096	56	6333
2026-01-19 01:47:35.69	204.53	8.70	-41.6	-42.9	20.7	0.00e+00	92	40	0	155189248	56	6329
2026-01-19 01:47:36.70	204.62	8.77	-41.6	-42.9	20.5	0.00e+00	31	40	0	157286400	56	6321
2026-01-19 01:47:37.71	204.71	8.84	-41.7	-42.9	20.7	0.00e+00	91	41	0	159383552	56	6382
2026-01-19 01:47:38.72	204.79	8.91	-41.3	-42.5	20.9	0.00e+00	16	41	0	160432128	56	6077
2026-01-19 01:47:39.73	204.88	8.99	-41.4	-42.6	20.8	0.00e+00	92	40	0	162529280	56	6151
2026-01-19 01:47:40.74	204.97	9.06	-41.3	-42.5	21.0	0.00e+00	91	41	0	164626432	56	6059
2026-01-19 01:47:41.75	205.06	9.13	-41.3	-42.5	21.1	0.00e+00	92	41	0	166723584	56	6040
2026-01-19 01:47:42.76	205.15	9.21	-41.3	-42.5	21.0	0.00e+00	92	41	0	168820736	56	6050
2026-01-19 01:47:43.77	205.24	9.28	-41.1	-42.3	21.2	0.00e+00	91	41	0	169869312	56	5952
2026-01-19 01:47:44.78	205.33	9.36	-41.0	-42.2	21.2	0.00e+00	92	40	0	171966464	56	5871
2026-01-19 01:47:45.79	205.42	9.43	-41.1	-42.3	21.2	0.00e+00	70	41	0	174063616	56	5954
2026-01-19 01:47:46.79	205.51	9.50	-40.8	-41.9	21.5	0.00e+00	92	40	0	176160768	56	5670
2026-01-19 01:47:47.80	205.60	9.58	-40.5	-41.6	21.7	0.00e+00	92	40	0	178257920	54	6170
2026-01-19 01:47:48.81	205.69	9.65	-40.5	-41.6	21.8	0.00e+00	92	40	0	179306496	54	6109
2026-01-19 01:47:49.82	205.79	9.73	-40.3	-41.4	21.9	0.00e+00	90	40	0	181403648	54	6007
2026-01-19 01:47:50.83	205.88	9.80	-40.3	-41.4	22.0	0.00e+00	92	41	0	183500800	54	5971
2026-01-19 01:47:51.84	205.97	9.88	-40.3	-41.4	22.0	0.00e+00	92	40	0	185597952	54	6011
2026-01-19 01:47:52.85	206.07	9.95	-40.3	-41.4	22.0	0.00e+00	0	40	0	187695104	54	5989
2026-01-19 01:47:53.86	206.16	10.03	-40.4	-41.5	21.9	0.00e+00	92	40	0	188743680	54	6072
2026-01-19 01:47:54.87	206.25	10.10	-40.3	-41.4	22.1	0.00e+00	92	40	0	190840832	54	5991
2026-01-19 01:47:55.88	206.35	10.18	-40.3	-41.4	22.1	0.00e+00	92	40	0	192937984	54	6000
2026-01-19 01:47:56.89	206.45	10.25	-40.3	-41.4	22.0	0.00e+00	92	41	0	195035136	54	5974
2026-01-19 01:47:57.90	206.54	10.33	-40.1	-41.2	22.2	0.00e+00	92	41	0	197132288	54	5863
2026-01-19 01:47:58.90	206.64	10.41	-40.2	-41.2	22.1	0.00e+00	92	41	0	198180864	54	5892
2026-01-19 01:47:59.91	206.73	10.48	-40.3	-41.3	22.1	0.00e+00	92	40	0	200278016	54	5964
2026-01-19 01:48:00.92	206.83	10.56	-40.2	-41.3	22.2	0.00e+00	92	41	0	202375168	54	5903
2026-01-19 01:48:01.93	206.93	10.64	-40.4	-41.4	22.0	0.00e+00	92	40	0	204472320	54	6031
2026-01-19 01:48:02.94	207.03	10.71	-40.4	-41.5	22.0	0.00e+00	92	40	0	206569472	54	6034
2026-01-19 01:48:03.95	207.13	10.79	-40.3	-41.4	22.0	0.00e+00	92	40	0	207618048	54	6012
2026-01-19 01:48:04.96	207.23	10.87	-40.1	-41.2	22.3	0.00e+00	92	40	0	209715200	54	5840
2026-01-19 01:48:05.97	207.33	10.94	-40.0	-41.0	22.4	0.00e+00	92	40	0	211812352	54	5755
2026-01-19 01:48:06.98	207.43	11.02	-40.1	-41.2	22.3	0.00e+00	92	40	0	213909504	54	5832
2026-01-19 01:48:07.99	207.53	11.10	-40.0	-41.1	22.3	0.00e+00	92	41	0	216006656	54	5781
2026-01-19 01:48:09.00	207.63	11.18	-40.1	-41.1	22.4	0.00e+00	0	41	0	218103808	54	5810
2026-01-19 01:48:10.01	207.73	11.25	-40.0	-41.0	22.4	0.00e+00	90	41	0	219152384	54	5758
2026-01-19 01:48:11.02	207.84	11.33	-40.0	-41.1	22.3	0.00e+00	92	40	0	221249536	54	5766
2026-01-19 01:48:12.03	207.94	11.41	-40.1	-41.1	22.4	0.00e+00	92	41	0	223346688	54	5794
2026-01-19 01:48:13.03	208.04	11.49	-39.9	-40.9	22.5	0.00e+00	92	41	0	225443840	54	5679
2026-01-19 01:48:14.04	208.15	11.57	-40.0	-41.0	22.4	0.00e+00	92	41	0	227540992	54	5733
2026-01-19 01:48:15.05	208.25	11.65	-40.0	-41.0	22.5	0.00e+00	90	41	0	228589568	54	5743
2026-01-19 01:48:16.06	208.36	11.73	-39.9	-40.9	22.6	0.00e+00	8	41	0	230686720	54	5639
2026-01-19 01:48:17.07	208.46	11.81	-39.9	-40.9	22.5	0.00e+00	90	41	0	232783872	54	5695
2026-01-19 01:48:18.08	208.57	11.88	-40.0	-41.0	22.5	0.00e+00	92	41	0	234881024	54	5715
2026-01-19 01:48:19.09	208.68	11.96	-39.8	-40.8	22.6	0.00e+00	92	40	0	236978176	52	6259
2026-01-19 01:48:20.10	208.78	12.04	-39.8	-40.8	22.7	0.00e+00	92	40	0	238026752	52	6278
2026-01-19 01:48:21.11	208.89	12.12	-39.8	-40.8	22.7	0.00e+00	92	41	0	240123904	52	6289
2026-01-19 01:48:22.12	209.00	12.20	-39.9	-40.8	22.6	0.00e+00	93	41	0	242221056	52	6315
2026-01-19 01:48:23.13	209.11	12.28	-39.9	-41.0	22.6	0.00e+00	47	41	0	244318208	52	6391
2026-01-19 01:48:24.14	209.22	12.36	-39.7	-40.7	22.8	0.00e+00	91	41	0	246415360	52	6198
2026-01-19 01:48:25.15	209.33	12.44	-39.8	-40.7	22.7	0.00e+00	25	41	0	247463936	52	6238
2026-01-19 01:48:26.16	209.44	12.53	-39.8	-40.7	22.7	0.00e+00	91	41	0	249561088	52	6240
2026-01-19 01:48:27.17	209.55	12.61	-39.7	-40.6	22.8	0.00e+00	92	41	0	251658240	52	6168
2026-01-19 01:48:28.18	209.67	12.69	-39.9	-40.8	22.8	0.00e+00	92	41	0	253755392	52	6315
2026-01-19 01:48:29.19	209.78	12.77	-39.6	-40.5	22.9	0.00e+00	92	41	0	255852544	52	6096
2026-01-19 01:48:30.20	209.89	12.85	-39.5	-40.5	22.9	0.00e+00	31	41	0	256901120	52	6068
2026-01-19 01:48:31.21	210.01	12.93	-39.5	-40.4	23.0	0.00e+00	91	41	0	258998272	52	6010
2026-01-19 01:48:32.21	210.12	13.01	-39.5	-40.5	23.0	0.00e+00	34	41	0	261095424	52	6069
2026-01-19 01:48:33.22	210.23	13.10	-39.4	-40.3	23.0	0.00e+00	91	41	0	263192576	52	5964
2026-01-19 01:48:34.23	210.35	13.18	-39.4	-40.4	23.0	0.00e+00	92	41	0	265289728	52	5973
2026-01-19 01:48:35.24	210.47	13.26	-39.5	-40.4	22.9	0.00e+00	92	41	0	266338304	52	6028
2026-01-19 01:48:36.25	210.58	13.34	-39.5	-40.4	23.0	0.00e+00	92	41	0	268435456	52	6024
2026-01-19 01:48:37.26	210.70	13.42	-39.5	-40.5	22.9	0.00e+00	92	41	0	270532608	52	6070
2026-01-19 01:48:38.27	210.82	13.51	-39.7	-40.6	22.8	0.00e+00	92	40	0	272629760	52	6163
2026-01-19 01:48:39.28	210.94	13.59	-39.5	-40.4	23.0	0.00e+00	0	40	0	274726912	52	6002
2026-01-19 01:48:40.29	211.06	13.67	-39.6	-40.6	22.8	0.00e+00	92	41	0	275775488	52	6150
2026-01-19 01:48:41.30	211.18	13.76	-39.6	-40.6	22.9	0.00e+00	92	41	0	277872640	52	6119
2026-01-19 01:48:42.30	211.30	13.84	-39.7	-40.7	22.7	0.00e+00	92	40	0	279969792	52	6200
2026-01-19 01:48:43.31	211.42	13.92	-39.7	-40.7	22.7	0.00e+00	92	40	0	282066944	52	6220
2026-01-19 01:48:44.32	211.54	14.01	-39.8	-40.8	22.8	0.00e+00	72	41	0	284164096	52	6257
2026-01-19 01:48:45.33	211.66	14.09	-39.9	-40.9	22.6	0.00e+00	92	40	0	286261248	52	6354
2026-01-19 01:48:46.34	211.79	14.18	-39.9	-40.9	22.6	0.00e+00	46	40	0	287309824	52	6334
2026-01-19 01:48:47.35	211.91	14.26	-40.1	-41.1	22.4	0.00e+00	90	40	0	289406976	52	6490
2026-01-19 01:48:48.36	212.04	14.34	-39.9	-40.9	22.5	0.00e+00	37	41	0	291504128	52	6372
2026-01-19 01:48:49.37	212.16	14.43	-40.1	-41.2	22.3	0.00e+00	91	41	0	293601280	52	6551
2026-01-19 01:48:50.38	212.29	14.51	-40.1	-41.1	22.3	0.00e+00	92	41	0	295698432	52	6530
2026-01-19 01:48:51.39	212.42	14.60	-40.1	-41.2	22.3	0.00e+00	13	41	0	296747008	52	6555
2026-01-19 01:48:52.40	212.54	14.68	-40.2	-41.2	22.2	0.00e+00	91	40	0	298844160	52	6588
2026-01-19 01:48:53.41	212.67	14.77	-40.3	-41.3	22.2	0.00e+00	91	40	0	300941312	52	6671
2026-01-19 01:48:54.42	212.80	14.86	-40.2	-41.3	22.1	0.00e+00	91	41	0	303038464	52	6642
2026-01-19 01:48:55.43	212.93	14.94	-40.3	-41.4	22.1	0.00e+00	5	41	0	305135616	52	6723
2026-01-19 01:48:56.44	213.06	15.03	-40.4	-41.4	22.1	0.00e+00	91	41	0	306184192	52	6746
2026-01-19 01:48:57.45	213.19	15.11	-40.4	-41.5	22.0	0.00e+00	91	41	0	308281344	52	6780
2026-01-19 01:48:58.46	213.33	15.20	-40.2	-41.2	22.3	0.00e+00	91	41	0	310378496	52	6587
2026-01-19 01:48:59.46	213.46	15.29	-40.2	-41.3	22.2	0.00e+00	92	40	0	312475648	52	6637
2026-01-19 01:49:00.47	213.59	15.37	-40.2	-41.3	22.2	0.00e+00	41	41	0	314572800	52	6639
2026-01-19 01:49:01.48	213.73	15.46	-40.2	-41.2	22.2	0.00e+00	92	40	0	315621376	52	6608
2026-01-19 01:49:02.49	213.86	15.55	-40.2	-41.2	22.3	0.00e+00	0	40	0	317718528	52	6592
2026-01-19 01:49:03.50	214.00	15.63	-40.1	-41.2	22.3	0.00e+00	92	41	0	319815680	52	6543
2026-01-19 01:49:04.51	214.13	15.72	-40.2	-41.2	22.3	0.00e+00	87	41	0	321912832	52	6570
2026-01-19 01:49:05.52	214.27	15.81	-40.2	-41.2	22.3	0.00e+00	92	40	0	324009984	52	6599
2026-01-19 01:49:06.53	214.41	15.89	-40.2	-41.3	22.2	0.00e+00	92	41	0	325058560	52	6631
2026-01-19 01:49:07.54	214.55	15.98	-40.3	-41.4	22.0	0.00e+00	49	41	0	327155712	52	6724
2026-01-19 01:49:08.55	214.69	16.07	-40.3	-41.4	22.1	0.00e+00	92	41	0	329252864	52	6711
2026-01-19 01:49:09.56	214.83	16.16	-40.4	-41.5	22.0	0.00e+00	45	41	0	331350016	52	6783
2026-01-19 01:49:10.57	214.97	16.25	-40.4	-41.5	22.0	0.00e+00	90	40	0	333447168	52	6781
2026-01-19 01:49:11.58	215.11	16.33	-40.4	-41.5	21.9	0.00e+00	92	40	0	334495744	52	6822
2026-01-19 01:49:12.59	215.25	16.42	-40.4	-41.5	21.9	0.00e+00	90	41	0	336592896	52	6835
2026-01-19 01:49:13.60	215.40	16.51	-40.3	-41.4	22.0	0.00e+00	92	41	0	338690048	52	6732
2026-01-19 01:49:14.61	215.54	16.60	-40.5	-41.5	21.9	0.00e+00	92	41	0	340787200	52	6847
2026-01-19 01:49:15.62	215.69	16.69	-40.5	-41.5	21.9	0.00e+00	90	41	0	342884352	52	6843
2026-01-19 01:49:16.63	215.83	16.78	-40.4	-41.4	22.1	0.00e+00	0	41	0	343932928	52	6748
2026-01-19 01:49:17.64	215.98	16.87	-40.4	-41.5	22.0	0.00e+00	90	41	0	346030080	52	6783
2026-01-19 01:49:18.65	216.13	16.96	-40.4	-41.5	22.0	0.00e+00	10	40	0	348127232	52	6771
2026-01-19 01:49:19.66	216.28	17.05	-40.4	-41.5	21.9	0.00e+00	92	41	0	350224384	52	6799
2026-01-19 01:49:20.67	216.43	17.14	-40.5	-41.6	21.8	0.00e+00	92	40	0	352321536	52	6875
2026-01-19 01:49:21.68	216.58	17.23	-40.4	-41.5	21.9	0.00e+00	92	41	0	354418688	52	6798
2026-01-19 01:49:22.69	216.73	17.32	-40.5	-41.6	21.8	0.00e+00	92	41	0	355467264	52	6859
2026-01-19 01:49:23.70	216.88	17.41	-40.3	-41.4	22.0	0.00e+00	0	41	0	357564416	52	6704
2026-01-19 01:49:24.71	217.03	17.50	-40.4	-41.5	21.9	0.00e+00	92	41	0	359661568	52	6791
2026-01-19 01:49:25.72	217.19	17.59	-40.2	-41.3	22.1	0.00e+00	43	41	0	361758720	52	6617
2026-01-19 01:49:26.73	217.34	17.68	-40.2	-41.2	22.1	0.00e+00	90	41	0	363855872	52	6600
2026-01-19 01:49:27.74	217.50	17.77	-40.2	-41.2	22.0	0.00e+00	90	40	0	364904448	52	6589
2026-01-19 01:49:28.75	217.65	17.86	-39.9	-40.9	22.3	0.00e+00	92	40	0	367001600	52	6385
2026-01-19 01:49:29.76	217.81	17.95	-39.9	-40.9	22.2	0.00e+00	92	41	0	369098752	52	6368
2026-01-19 01:49:30.77	217.97	18.04	-39.9	-40.9	21.6	0.00e+00	91	41	0	371195904	52	6381
2026-01-19 01:49:31.78	218.13	18.13	-39.9	-40.9	22.2	0.00e+00	92	41	0	373293056	52	6374
2026-01-19 01:49:32.79	218.29	18.22	-39.9	-40.9	22.2	0.00e+00	31	40	0	374341632	52	6362
2026-01-19 01:49:33.80	218.45	18.32	-39.9	-41.0	22.1	0.00e+00	91	41	0	376438784	52	6413
2026-01-19 01:49:34.81	218.61	18.41	-39.9	-41.0	22.0	0.00e+00	44	41	0	378535936	52	6399
2026-01-19 01:49:35.82	218.78	18.50	-39.9	-41.0	21.9	0.00e+00	90	40	0	380633088	52	6426
2026-01-19 01:49:36.83	218.94	18.59	-40.0	-41.1	21.8	0.00e+00	91	40	0	382730240	52	6495
2026-01-19 01:49:37.83	219.11	18.68	-40.0	-41.1	21.9	0.00e+00	90	40	0	383778816	52	6482
2026-01-19 01:49:38.84	219.27	18.77	-39.9	-41.0	21.8	0.00e+00	92	41	0	385875968	52	6433
2026-01-19 01:49:39.85	219.44	18.87	-39.9	-41.0	22.0	0.00e+00	0	40	0	387973120	52	6396
2026-01-19 01:49:40.87	219.61	18.96	-40.0	-41.1	21.9	0.00e+00	91	41	0	390070272	52	6484
2026-01-19 01:49:41.88	219.78	19.05	-40.1	-41.1	21.9	0.00e+00	0	40	0	392167424	52	6525
2026-01-19 01:49:42.89	219.95	19.14	-39.9	-41.0	21.9	0.00e+00	92	41	0	393216000	52	6415
2026-01-19 01:49:43.90	220.12	19.24	-39.9	-40.9	21.9	0.00e+00	92	41	0	395313152	52	6349
2026-01-19 01:49:44.91	220.29	19.33	-39.8	-40.9	22.0	0.00e+00	92	40	0	397410304	52	6320
2026-01-19 01:49:45.92	220.46	19.42	-39.8	-40.9	22.0	0.00e+00	92	41	0	399507456	52	6352
2026-01-19 01:49:46.93	220.64	19.51	-39.8	-40.9	21.9	0.00e+00	0	41	0	401604608	52	6345
2026-01-19 01:49:47.93	220.81	19.61	-39.7	-40.8	22.1	0.00e+00	92	41	0	402653184	52	6271
2026-01-19 01:49:48.94	220.99	19.70	-39.7	-40.7	22.2	0.00e+00	45	41	0	404750336	52	6200
2026-01-19 01:49:49.95	221.16	19.79	-39.8	-40.8	22.0	0.00e+00	92	41	0	406847488	52	6311
2026-01-19 01:49:50.97	221.34	19.89	-39.8	-40.8	22.0	0.00e+00	92	40	0	408944640	52	6308
2026-01-19 01:49:51.97	221.52	19.98	-39.5	-40.5	22.3	0.00e+00	92	41	0	411041792	52	6086
2026-01-19 01:49:52.99	221.70	20.07	-39.2	-40.2	22.5	0.00e+00	90	41	0	412090368	52	5881
2026-01-19 01:49:53.99	221.88	20.17	-39.1	-40.1	22.7	0.00e+00	92	41	0	414187520	52	5796
2026-01-19 01:49:55.01	222.07	20.26	-39.2	-40.2	22.7	0.00e+00	92	40	0	416284672	52	5838
2026-01-19 01:49:56.02	222.25	20.35	-39.1	-40.0	22.8	0.00e+00	8	41	0	418381824	52	5751
2026-01-19 01:49:57.02	222.43	20.45	-39.1	-40.0	23.0	0.00e+00	92	41	0	420478976	52	5748
2026-01-19 01:49:58.03	222.62	20.54	-39.0	-40.0	23.0	0.00e+00	0	40	0	422576128	52	5705
2026-01-19 01:49:59.05	222.81	20.63	-39.1	-40.1	23.0	0.00e+00	92	40	0	423624704	52	5762
2026-01-19 01:50:00.06	223.00	20.73	-38.9	-39.9	23.1	0.00e+00	92	40	0	425721856	52	5654
2026-01-19 01:50:01.07	223.19	20.82	-39.1	-40.0	23.0	0.00e+00	92	40	0	427819008	52	5751
2026-01-19 01:50:02.08	223.38	20.92	-38.9	-39.8	23.2	0.00e+00	92	40	0	429916160	52	5629
2026-01-19 01:50:03.08	223.57	21.01	-39.0	-40.0	23.1	0.00e+00	0	40	0	432013312	52	5709
2026-01-19 01:50:04.09	223.76	21.10	-39.0	-39.9	23.3	0.00e+00	92	41	0	433061888	52	5677
2026-01-19 01:50:05.10	223.95	21.20	-38.9	-39.9	23.4	0.00e+00	0	40	0	435159040	52	5652
2026-01-19 01:50:06.11	224.15	21.29	-38.8	-39.8	23.5	0.00e+00	92	40	0	437256192	52	5567
2026-01-19 01:50:07.12	224.34	21.38	-38.8	-39.7	23.5	0.00e+00	92	40	0	439353344	52	5560
2026-01-19 01:50:08.13	224.54	21.48	-38.9	-39.8	23.4	0.00e+00	92	40	0	441450496	52	5587
2026-01-19 01:50:09.14	224.74	21.57	-38.5	-39.4	23.8	0.00e+00	92	40	0	442499072	50	6022
2026-01-19 01:50:10.15	224.94	21.67	-38.6	-39.5	23.8	0.00e+00	92	41	0	444596224	50	6079
2026-01-19 01:50:11.16	225.14	21.76	-38.5	-39.3	24.1	0.00e+00	92	40	0	446693376	50	5962
2026-01-19 01:50:12.17	225.34	21.85	-38.3	-39.2	24.1	0.00e+00	33	40	0	448790528	50	5844
2026-01-19 01:50:13.18	225.54	21.95	-38.4	-39.2	24.0	0.00e+00	92	40	0	450887680	50	5884
2026-01-19 01:50:14.19	225.75	22.04	-38.3	-39.1	24.2	0.00e+00	92	40	0	451936256	50	5820
2026-01-19 01:50:15.20	225.95	22.14	-38.3	-39.1	24.2	0.00e+00	92	40	0	454033408	50	5811
2026-01-19 01:50:16.21	226.16	22.23	-38.2	-39.1	24.3	0.00e+00	92	41	0	456130560	50	5784
2026-01-19 01:50:17.22	226.37	22.32	-38.5	-39.4	24.1	0.00e+00	90	40	0	458227712	50	5973
2026-01-19 01:50:18.22	226.57	22.42	-38.4	-39.3	24.1	0.00e+00	92	40	0	460324864	50	5941
2026-01-19 01:50:19.23	226.78	22.51	-38.6	-39.4	24.0	0.00e+00	7	40	0	461373440	50	6023
2026-01-19 01:50:20.24	226.99	22.60	-38.4	-39.3	24.2	0.00e+00	92	40	0	463470592	50	5905
2026-01-19 01:50:21.25	227.21	22.70	-38.3	-39.1	24.3	0.00e+00	0	40	0	465567744	50	5823
2026-01-19 01:50:22.26	227.42	22.79	-38.3	-39.1	24.3	0.00e+00	92	40	0	467664896	50	5818
2026-01-19 01:50:23.27	227.64	22.89	-38.2	-39.1	24.4	0.00e+00	92	40	0	469762048	50	5775
2026-01-19 01:50:24.28	227.85	22.98	-38.3	-39.1	24.3	0.00e+00	91	40	0	470810624	50	5821
2026-01-19 01:50:25.29	228.07	23.07	-38.3	-39.2	24.2	0.00e+00	92	41	0	472907776	50	5843
2026-01-19 01:50:26.30	228.29	23.17	-38.6	-39.5	24.1	0.00e+00	0	40	0	475004928	50	6046
2026-01-19 01:50:27.31	228.51	23.26	-38.6	-39.4	24.1	0.00e+00	92	40	0	477102080	50	6026
2026-01-19 01:50:28.32	228.73	23.35	-38.4	-39.3	24.3	0.00e+00	0	40	0	479199232	50	5927
2026-01-19 01:50:29.33	228.95	23.44	-38.4	-39.2	24.3	0.00e+00	92	41	0	480247808	50	5868
2026-01-19 01:50:30.33	229.18	23.54	-38.2	-39.1	24.4	0.00e+00	92	40	0	482344960	50	5772
2026-01-19 01:50:31.34	229.40	23.63	-38.3	-39.2	24.3	0.00e+00	92	40	0	484442112	50	5832
2026-01-19 01:50:32.35	229.63	23.72	-38.4	-39.2	24.2	0.00e+00	92	40	0	486539264	50	5889
2026-01-19 01:50:33.36	229.86	23.82	-38.5	-39.3	24.2	0.00e+00	92	40	0	488636416	50	5940
2026-01-19 01:50:34.37	230.09	23.91	-38.6	-39.5	24.1	0.00e+00	92	41	0	489684992	50	6045
2026-01-19 01:50:35.38	230.32	24.00	-38.8	-39.7	23.8	0.00e+00	0	41	0	491782144	50	6188
2026-01-19 01:50:36.39	230.55	24.09	-38.7	-39.6	24.0	0.00e+00	92	40	0	493879296	50	6142
2026-01-19 01:50:37.40	230.78	24.18	-38.8	-39.7	24.0	0.00e+00	92	40	0	495976448	50	6203
2026-01-19 01:50:38.41	231.02	24.28	-38.7	-39.6	24.0	0.00e+00	92	41	0	498073600	50	6105
2026-01-19 01:50:39.42	231.25	24.37	-38.7	-39.5	24.0	0.00e+00	90	40	0	499122176	50	6093
2026-01-19 01:50:40.43	231.49	24.46	-38.5	-39.3	24.2	0.00e+00	92	40	0	501219328	50	5943
2026-01-19 01:50:41.44	231.73	24.55	-38.4	-39.3	24.3	0.00e+00	92	40	0	503316480	50	5919
2026-01-19 01:50:42.45	231.97	24.64	-38.4	-39.3	24.4	0.00e+00	6	40	0	505413632	50	5899
2026-01-19 01:50:43.46	232.21	24.73	-38.5	-39.4	24.2	0.00e+00	92	40	0	507510784	50	5967
2026-01-19 01:50:44.47	232.45	24.82	-38.5	-39.4	24.2	0.00e+00	25	40	0	508559360	50	5972
2026-01-19 01:50:45.48	232.70	24.91	-38.6	-39.4	24.2	0.00e+00	92	40	0	510656512	50	6019
2026-01-19 01:50:46.48	232.94	25.00	-38.7	-39.6	24.1	0.00e+00	92	40	0	512753664	50	6119
2026-01-19 01:50:47.49	233.19	25.09	-38.9	-39.8	23.9	0.00e+00	93	40	0	514850816	50	6272
2026-01-19 01:50:48.50	233.44	25.18	-39.0	-39.9	23.8	0.00e+00	92	40	0	516947968	50	6359
2026-01-19 01:50:49.51	233.69	25.27	-39.0	-39.9	23.7	0.00e+00	66	40	0	519045120	50	6341
2026-01-19 01:50:50.52	233.94	25.36	-39.1	-40.0	23.6	0.00e+00	92	40	0	520093696	50	6431
2026-01-19 01:50:51.53	234.19	25.45	-39.0	-39.9	23.8	0.00e+00	16	40	0	522190848	50	6371
2026-01-19 01:50:52.54	234.44	25.54	-39.2	-40.1	23.5	0.00e+00	92	40	0	524288000	50	6527
2026-01-19 01:50:53.55	234.70	25.63	-39.3	-40.2	23.5	0.00e+00	90	40	0	526385152	50	6547
2026-01-19 01:50:54.56	234.95	25.71	-39.4	-40.3	23.4	0.00e+00	92	41	0	528482304	50	6628
2026-01-19 01:50:55.57	235.21	25.80	-39.4	-40.3	23.4	0.00e+00	90	40	0	529530880	50	6663
2026-01-19 01:50:56.58	235.47	25.89	-39.4	-40.3	23.4	0.00e+00	92	40	0	531628032	50	6661
2026-01-19 01:50:57.58	235.73	25.98	-39.5	-40.4	23.3	0.00e+00	92	40	0	533725184	50	6722
2026-01-19 01:50:58.59	235.99	26.06	-39.5	-40.4	23.3	0.00e+00	11	40	0	535822336	50	6736
2026-01-19 01:50:59.60	236.26	26.15	-39.6	-40.5	23.2	0.00e+00	92	40	0	537919488	50	6831
2026-01-19 01:51:00.61	236.52	26.24	-39.6	-40.5	23.2	0.00e+00	91	40	0	538968064	50	6827
2026-01-19 01:51:01.63	236.79	26.32	-39.8	-40.7	23.1	0.00e+00	92	40	0	541065216	52	6206
2026-01-19 01:51:02.64	237.06	26.41	-39.8	-40.8	23.1	0.00e+00	92	40	0	543162368	52	6279
2026-01-19 01:51:03.64	237.32	26.49	-39.9	-40.9	22.9	0.00e+00	92	40	0	545259520	52	6321
2026-01-19 01:51:04.65	237.59	26.58	-39.7	-40.6	23.2	0.00e+00	92	41	0	547356672	52	6142
2026-01-19 01:51:05.66	237.87	26.66	-39.7	-40.6	23.2	0.00e+00	0	40	0	548405248	52	6168
2026-01-19 01:51:06.67	238.14	26.74	-39.7	-40.6	23.2	0.00e+00	92	40	0	550502400	52	6155
2026-01-19 01:51:07.68	238.41	26.83	-39.8	-40.7	23.0	0.00e+00	52	40	0	552599552	52	6239
2026-01-19 01:51:08.69	238.69	26.91	-40.0	-41.0	22.7	0.00e+00	92	40	0	554696704	52	6435
2026-01-19 01:51:09.70	238.97	26.99	-40.3	-41.4	22.5	0.00e+00	92	40	0	556793856	52	6704
2026-01-19 01:51:10.71	239.25	27.07	-40.6	-41.6	22.2	0.00e+00	90	40	0	557842432	52	6905
2026-01-19 01:51:11.71	239.53	27.15	-40.8	-41.8	22.0	0.00e+00	90	40	0	559939584	52	7059
2026-01-19 01:51:12.72	239.81	27.24	-40.8	-41.9	22.0	0.00e+00	92	40	0	562036736	54	6374
2026-01-19 01:51:13.74	240.09	27.32	-41.1	-42.2	21.7	0.00e+00	92	40	0	564133888	54	6544
2026-01-19 01:51:14.74	240.37	27.40	-41.0	-42.1	21.8	0.00e+00	42	40	0	566231040	54	6537
2026-01-19 01:51:15.75	240.66	27.48	-41.2	-42.4	21.5	0.00e+00	90	40	0	567279616	54	6707
2026-01-19 01:51:16.76	240.95	27.55	-41.2	-42.3	21.7	0.00e+00	92	41	0	569376768	54	6622
2026-01-19 01:51:17.78	241.24	27.63	-41.3	-42.4	21.6	0.00e+00	92	40	0	571473920	54	6704
2026-01-19 01:51:18.78	241.53	27.71	-41.2	-42.3	21.6	0.00e+00	92	40	0	573571072	54	6685
2026-01-19 01:51:19.79	241.82	27.79	-41.1	-42.2	21.8	0.00e+00	92	40	0	575668224	54	6555
2026-01-19 01:51:20.80	242.11	27.86	-41.2	-42.3	21.7	0.00e+00	92	40	0	576716800	54	6649
2026-01-19 01:51:21.81	242.41	27.94	-41.0	-42.1	21.7	0.00e+00	42	40	0	578813952	54	6487
2026-01-19 01:51:22.82	242.70	28.02	-40.9	-42.0	21.9	0.00e+00	92	40	0	580911104	54	6403
2026-01-19 01:51:23.84	243.00	28.09	-41.1	-42.1	21.8	0.00e+00	75	40	0	583008256	54	6539
2026-01-19 01:51:24.84	243.30	28.16	-41.1	-42.2	21.6	0.00e+00	92	40	0	585105408	54	6596
2026-01-19 01:51:25.85	243.60	28.24	-41.2	-42.3	21.6	0.00e+00	92	40	0	587202560	54	6630
2026-01-19 01:51:26.86	243.90	28.31	-41.3	-42.4	21.5	0.00e+00	92	40	0	588251136	54	6768
2026-01-19 01:51:27.87	244.20	28.38	-41.4	-42.6	21.3	0.00e+00	93	40	0	590348288	54	6889
2026-01-19 01:51:28.88	244.50	28.46	-41.3	-42.5	21.4	0.00e+00	0	40	0	592445440	54	6779
2026-01-19 01:51:29.89	244.81	28.53	-41.3	-42.4	21.6	0.00e+00	92	40	0	594542592	54	6751
2026-01-19 01:51:30.90	245.11	28.60	-40.8	-41.9	22.1	0.00e+00	0	40	0	596639744	54	6326
2026-01-19 01:51:31.91	245.42	28.67	-40.9	-41.9	22.0	0.00e+00	92	40	0	597688320	54	6370
2026-01-19 01:51:32.92	245.73	28.74	-40.5	-41.5	22.4	0.00e+00	91	41	0	599785472	54	6094
2026-01-19 01:51:33.93	246.04	28.80	-40.7	-41.7	22.2	0.00e+00	90	40	0	601882624	54	6241
2026-01-19 01:51:34.94	246.35	28.87	-40.6	-41.7	22.2	0.00e+00	92	40	0	603979776	54	6175
2026-01-19 01:51:35.95	246.66	28.94	-40.8	-41.9	22.0	0.00e+00	91	40	0	606076928	54	6344
2026-01-19 01:51:36.96	246.98	29.00	-40.9	-42.0	21.9	0.00e+00	92	40	0	607125504	54	6449
2026-01-19 01:51:37.97	247.29	29.07	-41.1	-42.2	21.7	0.00e+00	33	40	0	609222656	54	6592
2026-01-19 01:51:38.98	247.61	29.13	-41.1	-42.2	21.8	0.00e+00	92	40	0	611319808	54	6565
2026-01-19 01:51:39.99	247.93	29.20	-41.0	-42.1	21.8	0.00e+00	92	40	0	613416960	54	6537
2026-01-19 01:51:41.00	248.25	29.26	-41.0	-42.1	21.9	0.00e+00	90	40	0	615514112	54	6481
2026-01-19 01:51:42.01	248.57	29.32	-41.0	-42.1	21.9	0.00e+00	92	40	0	616562688	54	6532
2026-01-19 01:51:43.02	248.89	29.38	-41.0	-42.0	21.8	0.00e+00	92	40	0	618659840	54	6459
2026-01-19 01:51:44.03	249.21	29.44	-41.1	-42.2	21.7	0.00e+00	91	40	0	620756992	54	6563
2026-01-19 01:51:45.04	249.54	29.50	-41.2	-42.3	21.7	0.00e+00	2	40	0	622854144	54	6687
2026-01-19 01:51:46.05	249.86	29.56	-41.4	-42.6	21.4	0.00e+00	91	40	0	624951296	54	6870
2026-01-19 01:51:47.06	250.19	29.62	-41.7	-42.9	21.1	0.00e+00	53	40	0	625999872	54	7148
2026-01-19 01:51:48.07	250.51	29.68	-42.1	-43.4	20.7	0.00e+00	91	40	0	628097024	56	6725
2026-01-19 01:51:49.08	250.84	29.73	-42.5	-43.8	20.3	0.00e+00	91	40	0	630194176	56	7044
2026-01-19 01:51:50.09	251.17	29.79	-42.7	-44.1	20.1	0.00e+00	90	40	0	632291328	56	7275
2026-01-19 01:51:51.10	251.50	29.84	-43.0	-44.5	19.7	0.00e+00	91	40	0	634388480	58	6789
2026-01-19 01:51:52.11	251.83	29.89	-43.3	-44.8	19.4	0.00e+00	8	40	0	635437056	58	7019
2026-01-19 01:51:53.12	252.17	29.95	-43.5	-45.0	19.1	0.00e+00	90	40	0	637534208	58	7253
2026-01-19 01:51:54.13	252.50	30.00	-43.6	-45.1	19.1	0.00e+00	30	40	0	639631360	58	7327
2026-01-19 01:51:55.14	252.83	30.05	-43.4	-45.0	19.1	0.00e+00	91	40	0	641728512	58	7200
2026-01-19 01:51:56.15	253.17	30.10	-43.4	-44.9	19.3	0.00e+00	91	40	0	643825664	58	7112
2026-01-19 01:51:57.15	253.50	30.14	-43.4	-44.9	19.2	0.00e+00	91	40	0	644874240	58	7130
2026-01-19 01:51:58.16	253.84	30.19	-43.4	-44.9	19.2	0.00e+00	92	40	0	646971392	58	7165
2026-01-19 01:51:59.17	254.18	30.24	-43.5	-45.0	19.1	0.00e+00	75	40	0	649068544	58	7241
2026-01-19 01:52:00.18	254.52	30.28	-43.5	-45.0	19.1	0.00e+00	90	40	0	651165696	58	7240
2026-01-19 01:52:01.19	254.86	30.33	-43.5	-45.1	19.0	0.00e+00	0	40	0	653262848	58	7299
2026-01-19 01:52:02.20	255.20	30.37	-43.3	-44.8	19.2	0.00e+00	92	40	0	655360000	58	7084
2026-01-19 01:52:03.21	255.54	30.41	-43.3	-44.8	19.3	0.00e+00	91	40	0	656408576	58	7051
2026-01-19 01:52:04.22	255.89	30.46	-43.1	-44.5	19.7	0.00e+00	91	40	0	658505728	58	6819
2026-01-19 01:52:05.23	256.23	30.50	-42.9	-44.3	19.8	0.00e+00	92	40	0	660602880	58	6692
2026-01-19 01:52:06.24	256.57	30.54	-42.7	-44.1	20.0	0.00e+00	48	40	0	662700032	58	6498
2026-01-19 01:52:07.25	256.92	30.57	-42.8	-44.2	19.9	0.00e+00	92	40	0	664797184	58	6571
2026-01-19 01:52:08.26	257.27	30.61	-42.8	-44.2	19.8	0.00e+00	7	40	0	665845760	58	6602
2026-01-19 01:52:09.27	257.61	30.65	-43.0	-44.5	19.6	0.00e+00	92	40	0	667942912	58	6805
2026-01-19 01:52:10.28	257.96	30.68	-43.2	-44.6	19.4	0.00e+00	47	40	0	670040064	58	6907
2026-01-19 01:52:11.29	258.31	30.72	-43.2	-44.7	19.5	0.00e+00	90	40	0	672137216	58	6929
2026-01-19 01:52:12.30	258.66	30.75	-42.9	-44.3	19.9	0.00e+00	90	40	0	674234368	58	6618
2026-01-19 01:52:13.31	259.01	30.78	-42.6	-43.9	20.2	0.00e+00	91	40	0	675282944	58	6361
2026-01-19 01:52:14.32	259.36	30.81	-42.5	-43.9	20.3	0.00e+00	90	40	0	677380096	58	6328
2026-01-19 01:52:15.33	259.71	30.84	-42.1	-43.3	20.9	0.00e+00	36	40	0	679477248	58	5961
2026-01-19 01:52:16.34	260.06	30.87	-41.8	-43.0	21.2	0.00e+00	90	40	0	681574400	56	6398
2026-01-19 01:52:17.35	260.42	30.89	-41.8	-43.0	21.1	0.00e+00	0	40	0	683671552	56	6399
2026-01-19 01:52:18.36	260.77	30.92	-41.8	-43.0	21.1	0.00e+00	91	40	0	684720128	56	6435
2026-01-19 01:52:19.37	261.12	30.95	-41.9	-43.1	21.0	0.00e+00	92	40	0	686817280	56	6519
2026-01-19 01:52:20.38	261.48	30.97	-42.3	-43.5	20.6	0.00e+00	91	40	0	688914432	56	6827
2026-01-19 01:52:21.39	261.83	30.99	-42.2	-43.5	20.6	0.00e+00	91	41	0	691011584	56	6790
2026-01-19 01:52:22.40	262.19	31.01	-42.3	-43.6	20.6	0.00e+00	92	40	0	693108736	56	6881
2026-01-19 01:52:23.41	262.54	31.03	-42.2	-43.4	20.7	0.00e+00	91	40	0	694157312	56	6754
2026-01-19 01:52:24.42	262.90	31.05	-42.2	-43.4	21.0	0.00e+00	5	41	0	696254464	56	6739
2026-01-19 01:52:25.42	263.25	31.07	-41.8	-43.0	21.1	0.00e+00	91	40	0	698351616	56	6418
2026-01-19 01:52:26.44	263.61	31.09	-41.6	-42.8	21.3	0.00e+00	90	40	0	700448768	56	6276
2026-01-19 01:52:27.44	263.96	31.10	-41.7	-42.9	21.2	0.00e+00	79	40	0	702545920	56	6376
2026-01-19 01:52:28.45	264.32	31.11	-42.1	-43.4	20.8	0.00e+00	90	40	0	703594496	56	6695
2026-01-19 01:52:29.46	264.68	31.13	-42.6	-44.0	20.3	0.00e+00	92	40	0	705691648	56	7197
2026-01-19 01:52:30.47	265.04	31.14	-43.1	-44.5	19.7	0.00e+00	90	41	0	707788800	58	6835
2026-01-19 01:52:31.48	265.39	31.15	-43.2	-44.7	19.4	0.00e+00	47	41	0	709885952	58	6945
2026-01-19 01:52:32.48	265.75	31.16	-42.9	-44.3	19.8	0.00e+00	92	40	0	711983104	58	6660
2026-01-19 01:52:33.49	266.11	31.17	-42.6	-44.0	20.3	0.00e+00	56	40	0	713031680	58	6402
2026-01-19 01:52:34.50	266.47	31.17	-42.3	-43.6	20.5	0.00e+00	92	40	0	715128832	58	6112
2026-01-19 01:52:35.51	266.82	31.18	-42.0	-43.3	20.9	0.00e+00	90	40	0	717225984	58	5905
2026-01-19 01:52:36.52	267.18	31.18	-41.9	-43.2	20.9	0.00e+00	92	40	0	719323136	58	5830
2026-01-19 01:52:37.53	267.54	31.19	-41.8	-43.0	21.1	0.00e+00	91	40	0	721420288	56	6417
2026-01-19 01:52:38.54	267.90	31.19	-41.9	-43.0	21.2	0.00e+00	42	40	0	723517440	56	6455
2026-01-19 01:52:39.55	268.26	31.19	-41.5	-42.6	21.5	0.00e+00	91	40	0	724566016	56	6158
2026-01-19 01:52:40.56	268.62	31.19	-41.2	-42.3	21.8	0.00e+00	0	40	0	726663168	56	5947
2026-01-19 01:52:41.57	268.98	31.19	-41.0	-42.0	22.0	0.00e+00	91	40	0	728760320	56	5740
2026-01-19 01:52:42.58	269.34	31.19	-40.9	-41.9	22.1	0.00e+00	91	40	0	730857472	56	5668
2026-01-19 01:52:43.59	269.70	31.18	-40.4	-41.4	22.3	0.00e+00	47	40	0	732954624	54	5972
2026-01-19 01:52:44.60	270.05	31.18	-40.3	-41.3	22.6	0.00e+00	91	40	0	734003200	54	5939
2026-01-19 01:52:45.61	270.41	31.17	-40.6	-41.6	22.3	0.00e+00	47	40	0	736100352	54	6126
2026-01-19 01:52:46.61	270.77	31.16	-40.7	-41.8	22.2	0.00e+00	91	40	0	738197504	54	6268
2026-01-19 01:52:47.63	271.13	31.15	-40.9	-42.0	22.0	0.00e+00	6	41	0	740294656	54	6437
2026-01-19 01:52:48.63	271.48	31.14	-41.1	-42.2	21.8	0.00e+00	91	40	0	742391808	54	6563
2026-01-19 01:52:49.64	271.84	31.13	-41.4	-42.5	21.5	0.00e+00	91	40	0	743440384	54	6840
2026-01-19 01:52:50.65	272.20	31.12	-41.6	-42.8	21.3	0.00e+00	92	40	0	745537536	54	7042
2026-01-19 01:52:51.66	272.56	31.11	-42.0	-43.2	21.0	0.00e+00	91	40	0	747634688	56	6600
2026-01-19 01:52:52.67	272.91	31.09	-42.1	-43.4	20.9	0.00e+00	92	40	0	749731840	56	6715
2026-01-19 01:52:53.68	273.27	31.08	-42.3	-43.5	20.7	0.00e+00	92	40	0	751828992	56	6837
2026-01-19 01:52:54.69	273.63	31.06	-42.4	-43.6	20.6	0.00e+00	0	40	0	752877568	56	6922
2026-01-19 01:52:55.70	273.98	31.04	-42.4	-43.7	20.5	0.00e+00	92	40	0	754974720	56	6965
2026-01-19 01:52:56.71	274.34	31.02	-42.5	-43.8	20.3	0.00e+00	53	40	0	757071872	56	7058
2026-01-19 01:52:57.72	274.69	31.00	-42.4	-43.7	20.6	0.00e+00	92	40	0	759169024	56	6933
2026-01-19 01:52:58.73	275.05	30.98	-41.9	-43.1	21.1	0.00e+00	92	40	0	761266176	56	6535
2026-01-19 01:52:59.74	275.40	30.96	-41.9	-43.1	21.1	0.00e+00	51	40	0	762314752	56	6538
2026-01-19 01:53:00.75	275.75	30.93	-42.1	-43.4	20.8	0.00e+00	91	41	0	764411904	56	6697
2026-01-19 01:53:01.76	276.11	30.91	-42.3	-43.6	20.6	0.00e+00	52	40	0	766509056	56	6892
2026-01-19 01:53:02.77	276.46	30.88	-42.3	-43.6	20.7	0.00e+00	92	40	0	768606208	56	6921
2026-01-19 01:53:03.78	276.81	30.85	-42.1	-43.4	20.9	0.00e+00	0	40	0	770703360	56	6694
2026-01-19 01:53:04.79	277.16	30.82	-42.0	-43.2	21.0	0.00e+00	92	40	0	771751936	56	6576
2026-01-19 01:53:05.80	277.51	30.79	-41.9	-43.1	21.1	0.00e+00	92	40	0	773849088	56	6495
2026-01-19 01:53:06.80	277.86	30.76	-42.0	-43.2	20.9	0.00e+00	92	40	0	775946240	56	6599
2026-01-19 01:53:07.81	278.21	30.73	-42.1	-43.3	20.8	0.00e+00	92	40	0	778043392	56	6656
2026-01-19 01:53:08.82	278.56	30.70	-42.3	-43.6	20.5	0.00e+00	0	40	0	780140544	56	6868
2026-01-19 01:53:09.83	278.90	30.66	-42.5	-43.8	20.4	0.00e+00	90	40	0	781189120	56	7013
2026-01-19 01:53:10.84	279.25	30.63	-42.7	-44.0	20.2	0.00e+00	0	40	0	783286272	56	7218
2026-01-19 01:53:11.85	279.60	30.59	-42.8	-44.2	20.0	0.00e+00	90	40	0	785383424	56	7379
2026-01-19 01:53:12.86	279.94	30.55	-42.9	-44.3	19.9	0.00e+00	90	40	0	787480576	58	6634
2026-01-19 01:53:13.87	280.29	30.51	-42.8	-44.2	20.0	0.00e+00	92	41	0	789577728	58	6567
2026-01-19 01:53:14.88	280.63	30.47	-42.9	-44.3	19.9	0.00e+00	90	40	0	791674880	58	6675
2026-01-19 01:53:15.89	280.97	30.43	-42.8	-44.2	20.1	0.00e+00	0	40	0	792723456	58	6578
2026-01-19 01:53:16.90	281.32	30.39	-42.6	-44.0	20.3	0.00e+00	92	40	0	794820608	58	6394
2026-01-19 01:53:17.90	281.65	30.35	-42.5	-43.8	20.4	0.00e+00	0	40	0	796917760	58	6273
2026-01-19 01:53:18.91	281.99	30.31	-42.0	-43.2	21.0	0.00e+00	92	41	0	799014912	58	5865
2026-01-19 01:53:19.92	282.33	30.26	-42.0	-43.3	20.9	0.00e+00	0	40	0	800063488	58	5901
2026-01-19 01:53:20.93	282.67	30.22	-42.3	-43.6	20.6	0.00e+00	90	40	0	802160640	58	6116
2026-01-19 01:53:21.94	283.01	30.17	-42.8	-44.2	19.9	0.00e+00	90	40	0	804257792	58	6583
2026-01-19 01:53:22.95	283.34	30.12	-43.1	-44.5	19.7	0.00e+00	0	40	0	806354944	58	6818
2026-01-19 01:53:23.96	283.68	30.07	-43.1	-44.6	19.7	0.00e+00	92	40	0	808452096	58	6881
2026-01-19 01:53:24.97	284.01	30.02	-42.8	-44.1	20.1	0.00e+00	51	40	0	809500672	58	6537
2026-01-19 01:53:25.98	284.35	29.97	-42.5	-43.8	20.4	0.00e+00	92	40	0	811597824	58	6256
2026-01-19 01:53:26.99	284.68	29.92	-42.4	-43.7	20.5	0.00e+00	0	40	0	813694976	58	6214
2026-01-19 01:53:28.00	285.01	29.87	-42.1	-43.3	21.0	0.00e+00	92	40	0	815792128	58	5946
2026-01-19 01:53:29.01	285.34	29.81	-41.8	-43.0	21.1	0.00e+00	92	40	0	817889280	56	6431
2026-01-19 01:53:30.02	285.67	29.76	-41.7	-42.8	21.3	0.00e+00	92	40	0	819986432	56	6302
2026-01-19 01:53:31.03	286.00	29.70	-41.6	-42.7	21.4	0.00e+00	92	40	0	821035008	56	6226
2026-01-19 01:53:32.04	286.33	29.65	-41.6	-42.8	21.5	0.00e+00	2	40	0	823132160	56	6280
2026-01-19 01:53:33.05	286.65	29.59	-41.4	-42.5	21.7	0.00e+00	92	40	0	825229312	56	6090
2026-01-19 01:53:34.06	286.98	29.53	-41.5	-42.6	21.6	0.00e+00	0	40	0	827326464	56	6141
2026-01-19 01:53:35.07	287.30	29.47	-41.0	-42.0	22.1	0.00e+00	90	40	0	829423616	56	5750
2026-01-19 01:53:36.08	287.62	29.41	-41.0	-42.1	22.1	0.00e+00	92	41	0	830472192	56	5789
2026-01-19 01:53:37.09	287.94	29.35	-41.3	-42.4	21.7	0.00e+00	92	41	0	832569344	56	5989
2026-01-19 01:53:38.10	288.26	29.29	-41.4	-42.6	21.6	0.00e+00	92	40	0	834666496	56	6105
2026-01-19 01:53:39.11	288.58	29.23	-41.7	-42.9	21.2	0.00e+00	3	40	0	836763648	56	6337
2026-01-19 01:53:40.11	288.90	29.17	-41.9	-43.1	21.1	0.00e+00	90	40	0	838860800	56	6505
2026-01-19 01:53:41.12	289.21	29.10	-41.9	-43.1	21.1	0.00e+00	46	40	0	839909376	56	6465
2026-01-19 01:53:42.14	289.53	29.04	-41.3	-42.5	21.7	0.00e+00	92	40	0	842006528	56	6051
2026-01-19 01:53:43.14	289.84	28.97	-41.1	-42.2	21.8	0.00e+00	31	40	0	844103680	56	5871
2026-01-19 01:53:44.15	290.15	28.91	-40.6	-41.7	22.3	0.00e+00	92	40	0	846200832	54	6190
2026-01-19 01:53:45.16	290.46	28.84	-40.3	-41.3	22.6	0.00e+00	92	40	0	848297984	54	5929
2026-01-19 01:53:46.17	290.77	28.77	-40.3	-41.3	22.6	0.00e+00	0	40	0	849346560	54	5946
2026-01-19 01:53:47.18	291.08	28.71	-40.3	-41.3	22.6	0.00e+00	92	40	0	851443712	54	5951
2026-01-19 01:53:48.19	291.39	28.64	-40.5	-41.6	22.5	0.00e+00	7	40	0	853540864	54	6108
2026-01-19 01:53:49.20	291.70	28.57	-40.6	-41.6	22.3	0.00e+00	92	41	0	855638016	54	6168
2026-01-19 01:53:50.21	292.00	28.50	-40.8	-41.8	22.1	0.00e+00	30	40	0	857735168	54	6293
2026-01-19 01:53:51.23	292.31	28.42	-41.3	-42.4	21.7	0.00e+00	92	40	0	859832320	54	6714
2026-01-19 01:53:52.24	292.61	28.35	-41.5	-42.7	21.4	0.00e+00	92	41	0	860880896	54	6966
2026-01-19 01:53:53.25	292.91	28.28	-41.9	-43.1	21.0	0.00e+00	62	41	0	862978048	56	6498
2026-01-19 01:53:54.26	293.21	28.21	-41.8	-43.0	21.1	0.00e+00	92	40	0	865075200	56	6453
2026-01-19 01:53:55.27	293.51	28.13	-41.7	-42.9	21.3	0.00e+00	0	40	0	867172352	56	6358
2026-01-19 01:53:56.28	293.80	28.06	-41.7	-42.8	21.3	0.00e+00	92	41	0	869269504	56	6312
2026-01-19 01:53:57.29	294.10	27.99	-41.4	-42.5	21.6	0.00e+00	0	40	0	870318080	56	6058
2026-01-19 01:53:58.30	294.39	27.91	-41.5	-42.6	21.6	0.00e+00	92	40	0	872415232	56	6138
2026-01-19 01:53:59.31	294.69	27.83	-41.2	-42.3	21.8	0.00e+00	91	40	0	874512384	56	5947
2026-01-19 01:54:00.32	294.98	27.76	-41.2	-42.3	21.8	0.00e+00	71	40	0	876609536	56	5911
2026-01-19 01:54:01.33	295.27	27.68	-41.2	-42.3	21.9	0.00e+00	90	40	0	878706688	56	5917
2026-01-19 01:54:02.34	295.55	27.60	-41.2	-42.3	21.9	0.00e+00	0	40	0	879755264	56	5928
2026-01-19 01:54:03.35	295.84	27.52	-41.1	-42.2	21.8	0.00e+00	92	40	0	881852416	56	5872
2026-01-19 01:54:04.36	296.13	27.45	-41.2	-42.3	21.8	0.00e+00	48	40	0	883949568	56	5958
2026-01-19 01:54:05.37	296.41	27.37	-41.6	-42.7	21.3	0.00e+00	92	40	0	886046720	56	6222
2026-01-19 01:54:06.38	296.69	27.29	-41.7	-42.9	21.3	0.00e+00	90	40	0	888143872	56	6326
2026-01-19 01:54:07.39	296.98	27.21	-41.9	-43.1	21.1	0.00e+00	90	40	0	889192448	56	6484
2026-01-19 01:54:08.40	297.26	27.13	-42.0	-43.3	20.9	0.00e+00	91	40	0	891289600	56	6616
2026-01-19 01:54:09.41	297.53	27.04	-42.1	-43.3	20.9	0.00e+00	32	40	0	893386752	56	6659
2026-01-19 01:54:10.42	297.81	26.96	-41.9	-43.1	21.0	0.00e+00	91	40	0	895483904	56	6524
2026-01-19 01:54:11.43	298.09	26.88	-41.8	-43.0	21.2	0.00e+00	5	40	0	897581056	56	6418
2026-01-19 01:54:12.44	298.36	26.80	-41.9	-43.1	21.1	0.00e+00	90	40	0	898629632	56	6488
2026-01-19 01:54:13.45	298.64	26.72	-41.8	-43.0	21.1	0.00e+00	0	40	0	900726784	56	6432
2026-01-19 01:54:14.46	298.91	26.63	-41.6	-42.7	21.5	0.00e+00	90	40	0	902823936	56	6230
2026-01-19 01:54:15.47	299.18	26.55	-41.3	-42.4	21.6	0.00e+00	92	40	0	904921088	56	6029
2026-01-19 01:54:16.48	299.45	26.46	-41.4	-42.5	21.7	0.00e+00	0	40	0	907018240	56	6080
2026-01-19 01:54:17.49	299.71	26.38	-41.1	-42.2	21.8	0.00e+00	90	40	0	908066816	56	5881
2026-01-19 01:54:18.50	299.98	26.29	-41.0	-42.1	22.0	0.00e+00	43	40	0	910163968	56	5802
2026-01-19 01:54:19.51	300.24	26.21	-40.8	-41.9	22.1	0.00e+00	92	40	0	912261120	56	5653
2026-01-19 01:54:20.52	300.51	26.12	-40.4	-41.5	22.6	0.00e+00	53	40	0	914358272	54	6043
2026-01-19 01:54:21.53	300.77	26.04	-40.4	-41.4	22.4	0.00e+00	90	40	0	916455424	54	6027
2026-01-19 01:54:22.54	301.03	25.95	-40.5	-41.5	22.5	0.00e+00	87	40	0	917504000	54	6051
2026-01-19 01:54:23.55	301.29	25.86	-40.2	-41.2	22.7	0.00e+00	48	40	0	919601152	54	5875
2026-01-19 01:54:24.56	301.55	25.78	-40.1	-41.1	22.8	0.00e+00	90	40	0	921698304	54	5777
2026-01-19 01:54:25.57	301.80	25.69	-40.2	-41.1	22.8	0.00e+00	0	40	0	923795456	54	5822
2026-01-19 01:54:26.58	302.06	25.60	-40.4	-41.4	22.5	0.00e+00	92	40	0	925892608	54	6006
2026-01-19 01:54:27.59	302.31	25.51	-40.6	-41.7	22.1	0.00e+00	6	40	0	927989760	54	6198
2026-01-19 01:54:28.60	302.56	25.43	-40.6	-41.6	22.3	0.00e+00	92	40	0	929038336	54	6143
2026-01-19 01:54:29.61	302.81	25.34	-40.4	-41.4	22.5	0.00e+00	22	40	0	931135488	54	6005
2026-01-19 01:54:30.62	303.06	25.25	-40.5	-41.5	22.4	0.00e+00	90	40	0	933232640	54	6064
2026-01-19 01:54:31.63	303.31	25.16	-40.3	-41.3	22.6	0.00e+00	92	40	0	935329792	54	5942
2026-01-19 01:54:32.64	303.56	25.07	-40.4	-41.4	22.5	0.00e+00	6	40	0	937426944	54	6015
2026-01-19 01:54:33.65	303.80	24.98	-40.5	-41.5	22.4	0.00e+00	92	40	0	938475520	54	6089
2026-01-19 01:54:34.66	304.05	24.89	-40.4	-41.4	22.6	0.00e+00	6	40	0	940572672	54	6003
2026-01-19 01:54:35.67	304.29	24.80	-40.2	-41.2	22.8	0.00e+00	92	40	0	942669824	54	5860
2026-01-19 01:54:36.68	304.53	24.71	-40.1	-41.0	22.9	0.00e+00	7	40	0	944766976	54	5740
2026-01-19 01:54:37.68	304.77	24.62	-39.7	-40.6	23.2	0.00e+00	40	40	0	946864128	52	6158
2026-01-19 01:54:38.70	305.01	24.53	-39.8	-40.7	23.2	0.00e+00	92	40	0	947912704	52	6223
2026-01-19 01:54:39.70	305.24	24.44	-40.1	-41.0	22.9	0.00e+00	49	40	0	950009856	52	6444
2026-01-19 01:54:40.71	305.48	24.35	-40.5	-41.5	22.4	0.00e+00	92	40	0	952107008	52	6828
2026-01-19 01:54:41.72	305.71	24.26	-40.6	-41.7	22.3	0.00e+00	33	40	0	954204160	54	6184
2026-01-19 01:54:42.73	305.95	24.17	-40.5	-41.5	22.5	0.00e+00	92	40	0	956301312	54	6078
2026-01-19 01:54:43.74	306.18	24.08	-40.5	-41.5	22.4	0.00e+00	40	40	0	957349888	54	6096
2026-01-19 01:54:44.75	306.41	23.98	-40.3	-41.3	22.7	0.00e+00	92	40	0	959447040	54	5913
2026-01-19 01:54:45.76	306.64	23.89	-40.1	-41.1	22.8	0.00e+00	91	40	0	961544192	54	5763
2026-01-19 01:54:46.77	306.87	23.80	-40.2	-41.2	22.7	0.00e+00	49	40	0	963641344	54	5875
2026-01-19 01:54:47.78	307.09	23.71	-40.7	-41.7	22.3	0.00e+00	92	40	0	965738496	54	6238
2026-01-19 01:54:48.79	307.32	23.62	-41.5	-42.6	21.4	0.00e+00	0	40	0	966787072	54	6914
2026-01-19 01:54:49.80	307.54	23.52	-42.0	-43.3	20.8	0.00e+00	92	40	0	968884224	56	6625
2026-01-19 01:54:50.81	307.77	23.43	-41.9	-43.2	21.1	0.00e+00	32	40	0	970981376	56	6574
2026-01-19 01:54:51.81	307.98	23.34	-41.7	-42.9	21.2	0.00e+00	92	40	0	973078528	56	6381
2026-01-19 01:54:52.82	308.20	23.25	-41.2	-42.4	21.7	0.00e+00	74	40	0	975175680	56	5970
2026-01-19 01:54:53.83	308.42	23.15	-41.3	-42.4	21.6	0.00e+00	0	40	0	976224256	56	5987
2026-01-19 01:54:54.84	308.64	23.06	-40.6	-41.7	22.3	0.00e+00	91	40	0	978321408	54	6176
2026-01-19 01:54:55.85	308.86	22.97	-40.8	-41.9	22.0	0.00e+00	2	40	0	980418560	54	6351
2026-01-19 01:54:56.86	309.07	22.88	-41.2	-42.3	21.6	0.00e+00	92	40	0	982515712	54	6680
2026-01-19 01:54:57.87	309.29	22.78	-41.5	-42.7	21.3	0.00e+00	0	40	0	984612864	54	6942
2026-01-19 01:54:58.88	309.50	22.69	-41.5	-42.7	21.4	0.00e+00	90	40	0	985661440	54	6953
2026-01-19 01:54:59.89	309.71	22.60	-40.9	-42.0	21.9	0.00e+00	0	40	0	987758592	54	6457
2026-01-19 01:55:00.90	309.92	22.50	-40.3	-41.4	22.6	0.00e+00	54	40	0	989855744	54	5966
2026-01-19 01:55:01.91	310.13	22.41	-39.9	-40.8	23.0	0.00e+00	92	40	0	991952896	54	5619
2026-01-19 01:55:02.92	310.34	22.32	-39.7	-40.6	23.3	0.00e+00	0	40	0	994050048	52	6131
2026-01-19 01:55:03.93	310.54	22.22	-39.8	-40.7	23.1	0.00e+00	92	40	0	996147200	52	6221
2026-01-19 01:55:04.94	310.75	22.13	-40.1	-41.1	22.8	0.00e+00	48	40	0	997195776	52	6470
2026-01-19 01:55:05.95	310.95	22.04	-40.7	-41.8	22.2	0.00e+00	92	40	0	999292928	52	7011
2026-01-19 01:55:06.96	311.16	21.95	-41.1	-42.2	21.8	0.00e+00	5	40	0	1001390080	54	6601
2026-01-19 01:55:07.97	311.36	21.85	-41.2	-42.4	21.6	0.00e+00	48	40	0	1003487232	54	6699
2026-01-19 01:55:08.98	311.56	21.76	-41.1	-42.2	21.8	0.00e+00	92	40	0	1005584384	54	6592
2026-01-19 01:55:09.99	311.76	21.67	-40.7	-41.8	22.2	0.00e+00	33	40	0	1006632960	54	6276
2026-01-19 01:55:11.00	311.96	21.57	-40.7	-41.7	22.2	0.00e+00	89	40	0	1008730112	54	6232
2026-01-19 01:55:12.01	312.15	21.48	-40.7	-41.7	22.2	0.00e+00	34	40	0	1010827264	54	6217
2026-01-19 01:55:13.02	312.35	21.39	-40.7	-41.8	22.2	0.00e+00	92	40	0	1012924416	54	6256
2026-01-19 01:55:14.03	312.54	21.29	-40.9	-42.0	22.0	0.00e+00	0	40	0	1015021568	54	6427
2026-01-19 01:55:15.04	312.74	21.20	-41.3	-42.4	21.6	0.00e+00	0	40	0	1016070144	54	6751
2026-01-19 01:55:16.05	312.93	21.11	-41.4	-42.6	21.4	0.00e+00	0	40	0	1018167296	54	6864
2026-01-19 01:55:17.06	313.12	21.01	-41.3	-42.5	21.6	0.00e+00	0	40	0	1020264448	54	6797
2026-01-19 01:55:18.07	313.31	20.92	-41.0	-42.1	21.8	0.00e+00	92	40	0	1022361600	54	6516
2026-01-19 01:55:19.08	313.50	20.83	-40.5	-41.5	22.4	0.00e+00	0	40	0	1024458752	54	6101
2026-01-19 01:55:20.09	313.69	20.73	-40.1	-41.1	22.7	0.00e+00	92	40	0	1025507328	54	5792
2026-01-19 01:55:21.10	313.87	20.64	-39.8	-40.8	23.1	0.00e+00	0	40	0	1027604480	54	5567
2026-01-19 01:55:22.11	314.06	20.55	-39.8	-40.7	23.1	0.00e+00	92	40	0	1029701632	52	6238
2026-01-19 01:55:23.12	314.24	20.45	-39.9	-40.9	22.8	0.00e+00	12	40	0	1031798784	52	6357
2026-01-19 01:55:24.13	314.43	20.36	-40.2	-41.2	22.6	0.00e+00	50	40	0	1033895936	52	6543
2026-01-19 01:55:25.14	314.61	20.27	-40.3	-41.3	22.5	0.00e+00	91	40	0	1034944512	52	6639
2026-01-19 01:55:26.15	314.79	20.18	-40.5	-41.5	22.0	0.00e+00	49	40	0	1037041664	52	6807
2026-01-19 01:55:27.16	314.97	20.08	-40.4	-41.4	22.4	0.00e+00	91	40	0	1039138816	52	6750
2026-01-19 01:55:28.17	315.15	19.99	-40.2	-41.2	22.6	0.00e+00	32	40	0	1041235968	52	6569
2026-01-19 01:55:29.18	315.33	19.90	-40.0	-41.0	22.8	0.00e+00	90	40	0	1043333120	52	6407
2026-01-19 01:55:30.20	315.51	19.81	-39.9	-40.9	22.9	0.00e+00	0	40	0	1044381696	52	6323
2026-01-19 01:55:31.21	315.68	19.71	-39.9	-40.8	22.9	0.00e+00	0	40	0	1046478848	52	6303
2026-01-19 01:55:32.22	315.86	19.62	-40.0	-41.0	22.8	0.00e+00	92	40	0	1048576000	52	6443
2026-01-19 01:55:33.23	316.03	19.53	-40.1	-41.1	22.8	0.00e+00	0	40	0	1050673152	52	6491
2026-01-19 01:55:34.23	316.21	19.44	-40.3	-41.3	22.6	0.00e+00	93	40	0	1052770304	52	6678
2026-01-19 01:55:35.24	316.38	19.35	-40.2	-41.2	22.6	0.00e+00	0	40	0	1053818880	52	6599
2026-01-19 01:55:36.25	316.55	19.25	-40.4	-41.5	22.4	0.00e+00	92	40	0	1055916032	52	6781
2026-01-19 01:55:37.26	316.72	19.16	-40.2	-41.2	22.7	0.00e+00	0	40	0	1058013184	52	6567
2026-01-19 01:55:38.27	316.89	19.07	-40.1	-41.1	22.7	0.00e+00	0	40	0	1060110336	52	6521
2026-01-19 01:55:39.28	317.06	18.98	-40.1	-41.1	22.7	0.00e+00	5	40	0	1062207488	52	6497
2026-01-19 01:55:40.29	317.22	18.89	-39.7	-40.7	23.1	0.00e+00	47	40	0	1064304640	52	6203
2026-01-19 01:55:41.30	317.39	18.80	-39.6	-40.5	23.1	0.00e+00	92	40	0	1065353216	52	6088
2026-01-19 01:55:42.31	317.55	18.70	-39.6	-40.5	23.2	0.00e+00	45	40	0	1067450368	52	6094
2026-01-19 01:55:43.32	317.72	18.61	-39.6	-40.5	23.1	0.00e+00	92	40	0	1069547520	52	6100
2026-01-19 01:55:44.33	317.88	18.52	-39.4	-40.4	23.3	0.00e+00	35	40	0	1071644672	52	5981
2026-01-19 01:55:45.34	318.04	18.43	-39.5	-40.4	23.3	0.00e+00	92	40	0	1073741824	52	6021
2026-01-19 01:55:46.35	318.21	18.34	-39.5	-40.5	23.3	0.00e+00	2	40	0	1074790400	52	6052
2026-01-19 01:55:47.36	318.37	18.25	-39.3	-40.2	23.5	0.00e+00	2	40	0	1076887552	52	5864
2026-01-19 01:55:48.37	318.53	18.16	-39.2	-40.1	23.5	0.00e+00	92	40	0	1078984704	52	5765
2026-01-19 01:55:49.38	318.68	18.07	-39.1	-40.0	23.8	0.00e+00	5	40	0	1081081856	52	5750
2026-01-19 01:55:50.39	318.84	17.98	-39.0	-39.9	23.7	0.00e+00	92	40	0	1083179008	52	5651
2026-01-19 01:55:51.40	319.00	17.89	-39.0	-39.9	23.7	0.00e+00	5	40	0	1084227584	52	5663
2026-01-19 01:55:52.41	319.15	17.80	-39.2	-40.1	23.5	0.00e+00	92	40	0	1086324736	52	5765
2026-01-19 01:55:53.42	319.31	17.71	-39.2	-40.1	23.6	0.00e+00	5	40	0	1088421888	52	5774
2026-01-19 01:55:54.43	319.46	17.62	-39.1	-40.0	23.6	0.00e+00	0	40	0	1090519040	52	5759
2026-01-19 01:55:55.44	319.62	17.53	-39.3	-40.2	23.4	0.00e+00	92	40	0	1092616192	52	5841
2026-01-19 01:55:56.45	319.77	17.44	-39.4	-40.3	23.4	0.00e+00	0	40	0	1093664768	52	5927
2026-01-19 01:55:57.45	319.92	17.35	-39.5	-40.5	23.2	0.00e+00	92	40	0	1095761920	52	6035
2026-01-19 01:55:58.46	320.07	17.26	-39.6	-40.6	23.1	0.00e+00	7	40	0	1097859072	52	6118
2026-01-19 01:55:59.47	320.22	17.17	-39.7	-40.7	23.0	0.00e+00	92	40	0	1099956224	52	6184
2026-01-19 01:56:00.48	320.37	17.08	-39.8	-40.7	23.0	0.00e+00	48	40	0	1102053376	52	6220
2026-01-19 01:56:01.49	320.52	16.99	-39.7	-40.7	22.9	0.00e+00	92	40	0	1103101952	52	6208
2026-01-19 01:56:02.50	320.66	16.91	-39.9	-40.9	22.8	0.00e+00	0	40	0	1105199104	52	6343
2026-01-19 01:56:03.51	320.81	16.82	-39.8	-40.8	22.8	0.00e+00	45	40	0	1107296256	52	6271
2026-01-19 01:56:04.52	320.96	16.73	-39.9	-40.9	22.7	0.00e+00	92	40	0	1109393408	52	6359
2026-01-19 01:56:05.53	321.10	16.64	-40.1	-41.1	22.7	0.00e+00	37	40	0	1111490560	52	6503
2026-01-19 01:56:06.54	321.24	16.55	-40.1	-41.1	22.7	0.00e+00	92	40	0	1112539136	52	6539
2026-01-19 01:56:07.55	321.39	16.46	-40.0	-41.0	22.8	0.00e+00	40	40	0	1114636288	52	6423
2026-01-19 01:56:08.56	321.53	16.38	-39.5	-40.5	23.2	0.00e+00	92	40	0	1116733440	52	6037
2026-01-19 01:56:09.57	321.67	16.29	-39.5	-40.5	23.2	0.00e+00	0	40	0	1118830592	52	6048
2026-01-19 01:56:10.58	321.81	16.20	-39.5	-40.4	23.3	0.00e+00	40	40	0	1120927744	52	6028
2026-01-19 01:56:11.58	321.95	16.12	-39.5	-40.4	23.2	0.00e+00	92	40	0	1121976320	52	6017
2026-01-19 01:56:12.59	322.09	16.03	-39.5	-40.5	23.2	0.00e+00	6	40	0	1124073472	52	6035
2026-01-19 01:56:13.60	322.23	15.94	-39.5	-40.5	23.1	0.00e+00	91	40	0	1126170624	52	6065
2026-01-19 01:56:14.62	322.37	15.85	-39.7	-40.7	23.0	0.00e+00	42	40	0	1128267776	52	6183
2026-01-19 01:56:15.63	322.50	15.77	-39.7	-40.6	23.0	0.00e+00	90	40	0	1130364928	52	6172
2026-01-19 01:56:16.64	322.64	15.68	-39.8	-40.8	22.8	0.00e+00	0	40	0	1132462080	52	6299
2026-01-19 01:56:17.64	322.77	15.60	-39.7	-40.7	23.0	0.00e+00	7	40	0	1133510656	52	6204
2026-01-19 01:56:18.65	322.91	15.51	-39.7	-40.7	22.9	0.00e+00	92	40	0	1135607808	52	6188
2026-01-19 01:56:19.66	323.04	15.42	-39.8	-40.8	22.9	0.00e+00	0	40	0	1137704960	52	6275
2026-01-19 01:56:20.67	323.17	15.34	-39.7	-40.7	23.0	0.00e+00	92	40	0	1139802112	52	6182
2026-01-19 01:56:21.68	323.31	15.25	-39.9	-40.8	22.9	0.00e+00	0	40	0	1141899264	52	6303
2026-01-19 01:56:22.69	323.44	15.17	-39.9	-40.8	22.8	0.00e+00	0	40	0	1142947840	52	6312
2026-01-19 01:56:23.70	323.57	15.08	-40.0	-41.0	22.6	0.00e+00	45	40	0	1145044992	52	6402
2026-01-19 01:56:24.71	323.70	15.00	-40.1	-41.1	22.5	0.00e+00	46	40	0	1147142144	52	6524
2026-01-19 01:56:25.72	323.83	14.91	-40.3	-41.3	22.3	0.00e+00	44	40	0	1149239296	52	6644
2026-01-19 01:56:26.73	323.96	14.83	-40.3	-41.4	22.3	0.00e+00	45	40	0	1151336448	52	6712
2026-01-19 01:56:27.74	324.09	14.74	-40.5	-41.6	22.1	0.00e+00	92	40	0	1152385024	52	6877
2026-01-19 01:56:28.75	324.21	14.66	-40.5	-41.6	22.0	0.00e+00	35	40	0	1154482176	52	6871
2026-01-19 01:56:29.76	324.34	14.57	-40.7	-41.8	21.9	0.00e+00	92	40	0	1156579328	54	6277
2026-01-19 01:56:30.77	324.47	14.49	-40.7	-41.8	21.9	0.00e+00	46	40	0	1158676480	54	6263
2026-01-19 01:56:31.78	324.59	14.40	-40.6	-41.6	22.0	0.00e+00	2	40	0	1160773632	54	6167
2026-01-19 01:56:32.78	324.71	14.32	-40.6	-41.7	22.0	0.00e+00	0	40	0	1161822208	54	6190
2026-01-19 01:56:33.79	324.84	14.24	-40.7	-41.8	21.8	0.00e+00	36	40	0	1163919360	54	6301
2026-01-19 01:56:34.80	324.96	14.15	-40.7	-41.8	21.9	0.00e+00	92	40	0	1166016512	54	6259
2026-01-19 01:56:35.81	325.08	14.07	-40.7	-41.8	21.8	0.00e+00	2	40	0	1168113664	54	6266
2026-01-19 01:56:36.82	325.21	13.99	-40.7	-41.7	21.9	0.00e+00	92	40	0	1170210816	54	6242
2026-01-19 01:56:37.83	325.33	13.90	-40.6	-41.7	21.9	0.00e+00	0	40	0	1171259392	54	6203
2026-01-19 01:56:38.84	325.45	13.82	-40.7	-41.8	21.8	0.00e+00	0	40	0	1173356544	54	6289
2026-01-19 01:56:39.85	325.57	13.74	-40.9	-42.0	21.7	0.00e+00	0	40	0	1175453696	54	6407
2026-01-19 01:56:40.86	325.69	13.66	-40.9	-42.0	21.6	0.00e+00	0	40	0	1177550848	54	6442
2026-01-19 01:56:41.87	325.81	13.57	-40.7	-41.8	21.8	0.00e+00	92	40	0	1179648000	54	6306
2026-01-19 01:56:42.88	325.92	13.49	-40.9	-42.0	21.7	0.00e+00	4	40	0	1180696576	54	6430
2026-01-19 01:56:43.89	326.04	13.41	-40.9	-42.1	21.6	0.00e+00	91	40	0	1182793728	54	6467
2026-01-19 01:56:44.90	326.16	13.33	-41.0	-42.2	21.4	0.00e+00	0	40	0	1184890880	54	6576
2026-01-19 01:56:45.91	326.27	13.25	-41.1	-42.3	21.4	0.00e+00	49	40	0	1186988032	54	6633
2026-01-19 01:56:46.92	326.39	13.16	-41.2	-42.4	21.2	0.00e+00	44	40	0	1189085184	54	6709
