passes_logs/2026/01/19/R4.6S_Anadyr/R4.6S_Anadyr__20260119_160757_FENGYUN_3D_rec.log

#Pass ID: 20260119_160757_FENGYUN 3D
#Satellite: FENGYUN 3D
#Configuration: FENGYUN 3D
#almurnet v.1.7.20251203
#Start time: 2026-01-19 16:08:01

#Version: 2.2.20231116
#Station: R4.6S_Anadyr
#Location: 177.4865 lon 64.73178 lat
#TLE: 1 43010U 17072A   26018.95027258  .00000058  00000+0  49274-4 0  9992
#TLE: 2 43010  98.9939 350.8271 0002416 102.0826 258.0620 14.19696908423819

#Time	Az	El	Level	Level2	SNR	BER	BlckErr	Temp	State	Recorded	gain1	gain2
2026-01-19 16:08:01.09	19.99	0.20	-50.6	-61.3	3.3	8.41e-01	0	40	0	0	60	41804
2026-01-19 16:08:02.10	20.02	0.26	-50.8	-62.9	3.6	8.44e-01	0	40	104	0	60	50443
2026-01-19 16:08:03.11	20.04	0.32	-50.3	-62.4	3.6	8.45e-01	0	40	104	0	60	47656
2026-01-19 16:08:04.12	20.07	0.38	-50.0	-62.1	3.5	8.46e-01	0	40	104	0	60	46283
2026-01-19 16:08:05.13	20.09	0.44	-50.0	-62.2	3.6	8.45e-01	0	40	104	0	60	46516
2026-01-19 16:08:06.14	20.12	0.50	-49.9	-62.1	3.6	8.44e-01	0	40	104	0	60	45805
2026-01-19 16:08:07.15	20.15	0.56	-50.1	-62.3	3.6	8.46e-01	0	40	104	0	60	46897
2026-01-19 16:08:08.16	20.17	0.62	-50.1	-62.3	3.6	8.45e-01	0	40	104	0	60	46986
2026-01-19 16:08:09.17	20.20	0.68	-49.8	-62.1	3.6	8.45e-01	0	40	104	0	60	45974
2026-01-19 16:08:10.18	20.22	0.74	-49.9	-62.0	3.6	8.46e-01	0	40	104	0	60	45649
2026-01-19 16:08:11.19	20.25	0.80	-49.8	-62.0	3.6	8.45e-01	0	40	104	0	60	45488
2026-01-19 16:08:12.20	20.28	0.86	-49.8	-62.0	3.6	8.45e-01	0	40	104	0	60	45508
2026-01-19 16:08:13.22	20.30	0.93	-49.7	-61.9	3.6	8.46e-01	0	40	104	0	60	44846
2026-01-19 16:08:14.23	20.33	0.99	-49.7	-61.8	3.6	8.44e-01	0	40	104	0	60	44660
2026-01-19 16:08:15.23	20.36	1.05	-49.5	-61.7	3.6	8.44e-01	0	40	104	0	60	44028
2026-01-19 16:08:16.24	20.38	1.11	-49.4	-61.6	3.6	8.45e-01	0	40	104	0	60	43326
2026-01-19 16:08:17.25	20.41	1.17	-49.3	-61.5	3.6	8.45e-01	0	40	104	0	60	42779
2026-01-19 16:08:18.26	20.44	1.23	-49.1	-61.3	3.6	8.46e-01	0	40	104	0	60	42051
2026-01-19 16:08:19.27	20.46	1.29	-49.0	-61.2	3.6	8.45e-01	0	40	104	0	60	41600
2026-01-19 16:08:20.28	20.49	1.35	-49.0	-61.0	3.6	8.45e-01	0	40	104	0	60	40418
2026-01-19 16:08:21.29	20.52	1.42	-48.8	-60.8	3.6	8.44e-01	0	40	104	0	60	39678
2026-01-19 16:08:22.30	20.54	1.48	-48.5	-60.4	3.6	8.46e-01	0	40	104	0	60	37997
2026-01-19 16:08:23.31	20.57	1.54	-48.3	-60.4	3.6	8.45e-01	0	40	104	0	60	37893
2026-01-19 16:08:24.32	20.60	1.60	-48.3	-60.4	3.6	8.45e-01	0	40	104	0	60	37650
2026-01-19 16:08:25.33	20.62	1.66	-48.3	-60.3	3.6	8.44e-01	0	40	104	0	60	37589
2026-01-19 16:08:26.34	20.65	1.73	-48.3	-60.3	3.6	8.44e-01	0	40	104	0	60	37383
2026-01-19 16:08:27.35	20.68	1.79	-48.3	-60.2	3.6	8.45e-01	0	40	104	0	60	37175
2026-01-19 16:08:28.36	20.71	1.85	-48.3	-60.3	3.6	8.45e-01	0	40	104	0	60	37278
2026-01-19 16:08:29.37	20.73	1.91	-48.3	-60.4	3.6	8.45e-01	0	40	104	0	60	37963
2026-01-19 16:08:30.37	20.76	1.98	-48.3	-60.4	3.6	8.45e-01	0	40	104	0	60	37654
2026-01-19 16:08:31.38	20.79	2.04	-48.3	-60.1	3.6	8.45e-01	0	40	104	0	60	36551
2026-01-19 16:08:32.39	20.82	2.10	-48.3	-59.6	3.6	8.45e-01	0	40	104	0	60	34372
2026-01-19 16:08:33.41	20.85	2.17	-48.2	-58.7	3.6	8.44e-01	0	40	104	0	60	31093
2026-01-19 16:08:34.42	20.88	2.23	-48.0	-57.2	3.9	8.43e-01	0	40	104	0	60	26292
2026-01-19 16:08:35.43	20.90	2.29	-47.9	-56.7	3.7	8.41e-01	0	41	104	0	60	24818
2026-01-19 16:08:36.44	20.93	2.36	-47.9	-55.4	4.0	8.30e-01	0	40	0	0	60	21172
2026-01-19 16:08:37.45	20.96	2.42	-47.9	-54.9	4.0	8.25e-01	0	41	0	0	60	20113
2026-01-19 16:08:38.46	20.99	2.49	-48.0	-55.5	3.8	8.32e-01	0	40	0	0	60	21603
2026-01-19 16:08:39.47	21.02	2.55	-48.1	-57.5	3.8	8.40e-01	0	40	104	0	60	27103
2026-01-19 16:08:40.48	21.05	2.62	-47.8	-54.4	4.3	8.28e-01	0	41	0	0	60	18955
2026-01-19 16:08:41.49	21.08	2.68	-47.2	-52.1	6.3	3.47e-01	0	41	0	2097152	60	14601
2026-01-19 16:08:42.50	21.10	2.74	-45.7	-48.9	10.0	3.05e-02	0	41	0	7340032	60	10066
2026-01-19 16:08:43.51	21.13	2.81	-44.8	-47.3	12.4	8.41e-04	0	41	0	13631488	60	8421
2026-01-19 16:08:44.52	21.16	2.87	-42.8	-44.5	15.2	1.10e-06	0	40	0	18874368	60	6103
2026-01-19 16:08:45.53	21.19	2.94	-41.7	-43.1	16.5	0.00e+00	0	40	0	25165824	56	6529
2026-01-19 16:08:46.54	21.22	3.00	-40.4	-41.5	18.0	0.00e+00	0	40	0	30408704	54	6099
2026-01-19 16:08:47.55	21.25	3.07	-39.1	-40.1	19.3	0.00e+00	0	40	0	35651584	52	5806
2026-01-19 16:08:48.56	21.28	3.14	-38.6	-39.5	19.8	0.00e+00	0	40	0	41943040	50	6081
2026-01-19 16:08:49.57	21.31	3.20	-38.2	-39.1	20.5	0.00e+00	0	40	0	47185920	50	5806
2026-01-19 16:08:50.58	21.34	3.27	-37.9	-38.8	20.5	0.00e+00	0	40	0	53477376	50	5604
2026-01-19 16:08:51.59	21.37	3.33	-37.9	-38.8	20.5	0.00e+00	0	40	0	58720256	50	5611
2026-01-19 16:08:52.60	21.40	3.40	-38.3	-39.2	20.3	0.00e+00	0	40	0	63963136	50	5875
2026-01-19 16:08:53.61	21.43	3.47	-39.4	-40.4	19.0	0.00e+00	0	41	0	70254592	50	6742
2026-01-19 16:08:54.62	21.46	3.53	-40.7	-41.9	17.5	0.00e+00	0	41	0	75497472	52	7141
2026-01-19 16:08:55.63	21.49	3.60	-41.9	-43.4	15.9	0.00e+00	0	40	0	81788928	54	7577
2026-01-19 16:08:56.65	21.52	3.67	-37.9	-38.8	20.6	0.00e+00	0	41	0	87031808	48	6262
2026-01-19 16:08:57.66	21.55	3.73	-43.1	-45.1	13.9	0.00e+00	0	41	0	93323264	54	9164
2026-01-19 16:08:58.67	21.58	3.80	-43.5	-45.5	12.6	0.00e+00	0	40	0	98566144	58	7659
2026-01-19 16:08:59.68	21.62	3.87	-43.7	-45.6	14.2	3.09e-03	0	41	0	103809024	60	6908
2026-01-19 16:09:00.69	21.65	3.93	-48.3	-58.3	3.6	0.00e+00	0	41	104	109051904	60	29751
2026-01-19 16:09:01.70	21.68	4.00	-46.5	-50.7	10.1	8.16e-01	0	41	104	109051904	60	12427
2026-01-19 16:09:02.71	21.71	4.07	-44.2	-46.4	12.7	2.63e-05	0	41	0	114294784	60	7568
2026-01-19 16:09:03.72	21.74	4.14	-43.4	-45.4	14.2	2.20e-06	0	40	0	119537664	60	6706
2026-01-19 16:09:04.73	21.77	4.21	-43.2	-45.0	15.3	2.20e-06	0	41	0	125829120	60	6415
2026-01-19 16:09:05.74	21.80	4.27	-42.8	-44.6	14.9	0.00e+00	0	41	0	131072000	58	6851
2026-01-19 16:09:06.75	21.84	4.34	-42.6	-44.2	15.1	0.00e+00	0	40	0	136314880	58	6612
2026-01-19 16:09:07.76	21.87	4.41	-43.5	-45.4	14.1	1.10e-06	0	41	0	142606336	58	7587
2026-01-19 16:09:08.77	21.90	4.48	-44.0	-46.2	13.2	3.40e-06	0	40	0	147849216	60	7385
2026-01-19 16:09:09.78	21.93	4.55	-43.1	-44.9	14.7	4.50e-06	0	41	0	154140672	60	6340
2026-01-19 16:09:10.79	21.96	4.62	-42.8	-44.5	15.4	0.00e+00	0	41	0	159383552	58	6772
2026-01-19 16:09:11.80	22.00	4.69	-42.5	-44.1	15.6	0.00e+00	0	41	0	165675008	58	6468
2026-01-19 16:09:12.81	22.03	4.76	-42.5	-44.1	15.6	0.00e+00	0	41	0	170917888	58	6497
2026-01-19 16:09:13.82	22.06	4.83	-43.1	-44.8	14.9	0.00e+00	0	41	0	177209344	58	7057
2026-01-19 16:09:14.83	22.10	4.90	-43.0	-44.7	15.3	1.10e-06	0	40	0	182452224	58	6941
2026-01-19 16:09:15.84	22.13	4.97	-41.9	-43.3	16.3	0.00e+00	0	41	0	187695104	58	5943
2026-01-19 16:09:16.85	22.16	5.04	-41.7	-43.1	16.5	0.00e+00	0	41	0	193986560	56	6518
2026-01-19 16:09:17.86	22.20	5.11	-41.6	-43.0	16.6	0.00e+00	0	41	0	199229440	56	6429
2026-01-19 16:09:18.88	22.23	5.18	-42.5	-44.0	16.2	0.00e+00	0	41	0	205520896	56	7224
2026-01-19 16:09:19.89	22.26	5.25	-41.3	-42.6	17.9	0.00e+00	0	41	0	210763776	54	6875
2026-01-19 16:09:20.90	22.30	5.32	-41.0	-42.2	17.4	0.00e+00	0	41	0	216006656	56	5872
2026-01-19 16:09:21.91	22.33	5.39	-42.2	-43.6	16.5	0.00e+00	0	41	0	222298112	56	6919
2026-01-19 16:09:22.92	22.36	5.46	-40.7	-41.9	18.0	0.00e+00	0	41	0	227540992	56	5647
2026-01-19 16:09:23.93	22.40	5.53	-40.5	-41.7	18.1	0.00e+00	0	41	0	233832448	54	6213
2026-01-19 16:09:24.94	22.43	5.60	-40.7	-41.9	18.0	0.00e+00	0	41	0	239075328	54	6340
2026-01-19 16:09:25.95	22.47	5.68	-40.9	-42.1	18.0	0.00e+00	0	41	0	244318208	54	6484
2026-01-19 16:09:26.96	22.50	5.75	-39.6	-40.7	19.1	0.00e+00	0	41	0	250609664	52	6175
2026-01-19 16:09:27.96	22.54	5.82	-40.9	-42.1	18.3	0.00e+00	0	41	0	255852544	52	7291
2026-01-19 16:09:28.98	22.57	5.89	-40.4	-41.6	18.4	0.00e+00	0	41	0	262144000	54	6126
2026-01-19 16:09:29.99	22.61	5.97	-40.0	-41.1	18.8	0.00e+00	0	41	0	267386880	52	6530
2026-01-19 16:09:30.99	22.64	6.04	-38.4	-39.3	20.6	0.00e+00	0	41	0	273678336	50	5927
2026-01-19 16:09:32.00	22.68	6.11	-37.5	-38.4	21.5	0.00e+00	0	41	0	278921216	48	5981
2026-01-19 16:09:33.01	22.71	6.18	-37.1	-38.0	21.9	0.00e+00	0	41	0	285212672	48	5700
2026-01-19 16:09:34.02	22.75	6.26	-36.8	-37.6	22.3	0.00e+00	0	41	0	290455552	46	6130
2026-01-19 16:09:35.03	22.78	6.33	-37.0	-37.8	22.1	0.00e+00	0	41	0	295698432	46	6283
2026-01-19 16:09:36.04	22.82	6.40	-36.9	-37.7	22.1	0.00e+00	0	41	0	301989888	46	6239
2026-01-19 16:09:37.05	22.86	6.48	-37.1	-37.9	22.1	0.00e+00	0	41	0	307232768	46	6362
2026-01-19 16:09:38.06	22.89	6.55	-36.8	-37.6	22.3	0.00e+00	0	41	0	313524224	46	6172
2026-01-19 16:09:39.08	22.93	6.63	-36.3	-37.0	22.8	0.00e+00	0	41	0	318767104	46	5741
2026-01-19 16:09:40.09	22.97	6.70	-36.3	-37.1	22.8	0.00e+00	0	41	0	324009984	46	5770
2026-01-19 16:09:41.10	23.00	6.78	-36.3	-37.1	22.8	0.00e+00	0	41	0	330301440	46	5793
2026-01-19 16:09:42.11	23.04	6.85	-36.4	-37.2	22.9	0.00e+00	0	41	0	335544320	46	5837
2026-01-19 16:09:43.12	23.08	6.93	-36.5	-37.2	22.5	0.00e+00	0	41	0	341835776	46	5875
2026-01-19 16:09:44.13	23.11	7.00	-36.1	-36.9	23.0	0.00e+00	0	41	0	347078656	46	5659
2026-01-19 16:09:45.14	23.15	7.08	-36.1	-36.9	22.9	0.00e+00	0	41	0	352321536	46	5665
2026-01-19 16:09:46.15	23.19	7.15	-36.0	-36.8	23.1	0.00e+00	0	41	0	358612992	46	5587
2026-01-19 16:09:47.16	23.23	7.23	-36.1	-36.9	23.0	0.00e+00	0	41	0	363855872	46	5656
2026-01-19 16:09:48.17	23.26	7.31	-36.1	-36.8	22.9	0.00e+00	0	41	0	370147328	46	5614
2026-01-19 16:09:49.18	23.30	7.38	-36.1	-36.9	23.0	0.00e+00	0	41	0	375390208	46	5636
2026-01-19 16:09:50.18	23.34	7.46	-36.0	-36.8	23.0	0.00e+00	0	41	0	381681664	46	5574
2026-01-19 16:09:51.20	23.38	7.54	-36.1	-36.8	23.0	0.00e+00	0	41	0	386924544	46	5627
2026-01-19 16:09:52.21	23.42	7.61	-36.1	-36.8	23.0	0.00e+00	0	41	0	392167424	46	5606
2026-01-19 16:09:53.22	23.46	7.69	-36.2	-36.9	23.0	0.00e+00	0	41	0	398458880	46	5683
2026-01-19 16:09:54.23	23.50	7.77	-35.8	-36.6	23.4	0.00e+00	0	41	0	403701760	46	5453
2026-01-19 16:09:55.24	23.53	7.85	-35.8	-36.6	23.3	0.00e+00	0	41	0	409993216	44	6145
2026-01-19 16:09:56.25	23.57	7.93	-35.6	-36.3	23.5	0.00e+00	0	41	0	415236096	44	5959
2026-01-19 16:09:57.26	23.61	8.00	-35.8	-36.6	23.3	0.00e+00	0	41	0	420478976	44	6128
2026-01-19 16:09:58.27	23.65	8.08	-35.7	-36.4	23.4	0.00e+00	0	41	0	426770432	44	6033
2026-01-19 16:09:59.28	23.69	8.16	-35.6	-36.3	23.5	0.00e+00	0	41	0	432013312	44	5930
2026-01-19 16:10:00.29	23.73	8.24	-35.6	-36.3	23.5	0.00e+00	0	41	0	438304768	44	5927
2026-01-19 16:10:01.30	23.77	8.32	-35.7	-36.4	23.6	0.00e+00	0	41	0	443547648	44	6018
2026-01-19 16:10:02.31	23.81	8.40	-35.6	-36.3	23.7	0.00e+00	0	41	0	449839104	44	5955
2026-01-19 16:10:03.32	23.86	8.48	-35.4	-36.1	23.8	0.00e+00	0	41	0	455081984	44	5828
2026-01-19 16:10:04.33	23.90	8.56	-35.3	-36.0	24.0	0.00e+00	0	41	0	460324864	44	5712
2026-01-19 16:10:05.34	23.94	8.64	-35.3	-36.0	24.0	0.00e+00	0	41	0	466616320	44	5722
2026-01-19 16:10:06.35	23.98	8.72	-35.4	-36.1	23.9	0.00e+00	0	41	0	471859200	44	5808
2026-01-19 16:10:07.37	24.02	8.80	-35.4	-36.2	23.9	0.00e+00	0	41	0	478150656	44	5846
2026-01-19 16:10:08.38	24.06	8.88	-35.3	-36.1	23.9	0.00e+00	0	41	0	483393536	44	5765
2026-01-19 16:10:09.38	24.10	8.96	-35.3	-36.1	24.0	0.00e+00	0	41	0	489684992	44	5762
2026-01-19 16:10:10.40	24.15	9.04	-35.3	-36.0	24.1	0.00e+00	0	41	0	494927872	44	5703
2026-01-19 16:10:11.41	24.19	9.13	-35.2	-35.9	24.0	0.00e+00	0	41	0	500170752	44	5695
2026-01-19 16:10:12.42	24.23	9.21	-35.3	-36.0	24.0	0.00e+00	0	41	0	506462208	44	5750
2026-01-19 16:10:13.43	24.27	9.29	-35.0	-35.7	24.2	0.00e+00	0	41	0	511705088	44	5549
2026-01-19 16:10:14.44	24.32	9.37	-35.2	-35.9	24.1	0.00e+00	0	41	0	517996544	44	5653
2026-01-19 16:10:15.45	24.36	9.46	-34.9	-35.6	24.3	0.00e+00	0	41	0	523239424	44	5495
2026-01-19 16:10:16.45	24.40	9.54	-35.1	-35.8	24.1	0.00e+00	0	41	0	528482304	44	5577
2026-01-19 16:10:17.46	24.45	9.62	-35.1	-35.8	24.2	0.00e+00	0	41	0	534773760	44	5588
2026-01-19 16:10:18.47	24.49	9.71	-35.2	-35.9	24.2	0.00e+00	0	41	0	540016640	44	5631
2026-01-19 16:10:19.48	24.54	9.79	-35.2	-35.9	24.2	0.00e+00	0	41	0	546308096	44	5650
2026-01-19 16:10:20.49	24.58	9.87	-35.1	-35.8	24.2	0.00e+00	0	41	0	551550976	44	5591
2026-01-19 16:10:21.50	24.62	9.96	-35.2	-35.9	24.2	0.00e+00	0	41	0	556793856	44	5652
2026-01-19 16:10:22.51	24.67	10.04	-35.0	-35.7	24.2	0.00e+00	0	41	0	563085312	44	5557
2026-01-19 16:10:23.52	24.71	10.13	-35.1	-35.8	24.3	0.00e+00	0	41	0	568328192	44	5612
2026-01-19 16:10:24.53	24.76	10.21	-35.2	-36.0	24.1	0.00e+00	0	41	0	574619648	44	5705
2026-01-19 16:10:25.54	24.81	10.30	-35.0	-35.7	24.3	0.00e+00	0	41	0	579862528	44	5550
2026-01-19 16:10:26.55	24.85	10.38	-35.1	-35.8	24.2	0.00e+00	0	41	0	586153984	44	5616
2026-01-19 16:10:27.56	24.90	10.47	-35.2	-35.9	24.2	0.00e+00	0	41	0	591396864	44	5647
2026-01-19 16:10:28.57	24.94	10.56	-35.1	-35.8	24.2	0.00e+00	0	41	0	597688320	44	5624
2026-01-19 16:10:29.59	24.99	10.64	-35.1	-35.8	24.2	0.00e+00	0	41	0	602931200	44	5583
2026-01-19 16:10:30.60	25.04	10.73	-35.1	-35.8	24.2	0.00e+00	0	41	0	608174080	44	5623
2026-01-19 16:10:31.61	25.08	10.82	-35.0	-35.8	24.3	0.00e+00	0	41	0	614465536	44	5589
2026-01-19 16:10:32.62	25.13	10.91	-35.2	-35.9	24.3	0.00e+00	0	41	0	619708416	44	5648
2026-01-19 16:10:33.63	25.18	10.99	-34.9	-35.6	24.4	0.00e+00	0	41	0	625999872	44	5491
2026-01-19 16:10:34.64	25.23	11.08	-35.0	-35.7	24.4	0.00e+00	0	41	0	631242752	44	5512
2026-01-19 16:10:35.65	25.27	11.17	-35.0	-35.7	24.3	0.00e+00	0	41	0	636485632	44	5530
2026-01-19 16:10:36.66	25.32	11.26	-34.9	-35.7	24.3	0.00e+00	0	41	0	642777088	44	5517
2026-01-19 16:10:37.67	25.37	11.35	-34.9	-35.6	24.4	0.00e+00	0	41	0	648019968	44	5465
2026-01-19 16:10:38.68	25.42	11.44	-35.0	-35.7	24.4	0.00e+00	0	41	0	654311424	44	5526
2026-01-19 16:10:39.69	25.47	11.53	-34.9	-35.6	24.5	0.00e+00	0	41	0	659554304	44	5456
2026-01-19 16:10:40.70	25.52	11.62	-35.0	-35.7	24.5	0.00e+00	0	41	0	664797184	44	5548
2026-01-19 16:10:41.71	25.57	11.71	-34.8	-35.5	24.6	0.00e+00	0	41	0	671088640	44	5400
2026-01-19 16:10:42.72	25.62	11.80	-34.9	-35.6	24.6	0.00e+00	0	41	0	676331520	44	5446
2026-01-19 16:10:43.72	25.67	11.89	-35.0	-35.7	24.5	0.00e+00	0	41	0	682622976	44	5509
2026-01-19 16:10:44.73	25.72	11.98	-34.8	-35.5	24.7	0.00e+00	0	41	0	687865856	44	5419
2026-01-19 16:10:45.74	25.77	12.07	-34.9	-35.6	24.5	0.00e+00	0	41	0	694157312	44	5485
2026-01-19 16:10:46.75	25.82	12.16	-34.7	-35.4	24.7	0.00e+00	0	41	0	699400192	42	6021
2026-01-19 16:10:47.76	25.87	12.26	-34.7	-35.4	24.8	0.00e+00	0	41	0	705691648	42	5997
2026-01-19 16:10:48.77	25.92	12.35	-34.8	-35.5	24.7	0.00e+00	0	41	0	710934528	42	6077
2026-01-19 16:10:49.78	25.98	12.44	-34.9	-35.6	24.6	0.00e+00	0	41	0	716177408	42	6164
2026-01-19 16:10:50.79	26.03	12.54	-34.8	-35.6	24.5	0.00e+00	0	41	0	722468864	42	6107
2026-01-19 16:10:51.80	26.08	12.63	-34.8	-35.5	24.7	0.00e+00	0	41	0	727711744	42	6092
2026-01-19 16:10:52.81	26.13	12.72	-34.9	-35.5	24.6	0.00e+00	0	41	0	734003200	42	6102
2026-01-19 16:10:53.82	26.19	12.82	-34.7	-35.4	24.7	0.00e+00	0	41	0	739246080	42	5986
2026-01-19 16:10:54.83	26.24	12.91	-34.7	-35.4	24.8	0.00e+00	0	41	0	744488960	42	5994
2026-01-19 16:10:55.84	26.29	13.01	-34.6	-35.2	24.9	0.00e+00	0	41	0	750780416	42	5879
2026-01-19 16:10:56.85	26.35	13.10	-34.6	-35.2	24.9	0.00e+00	0	41	0	756023296	42	5875
2026-01-19 16:10:57.86	26.40	13.20	-34.6	-35.3	24.8	0.00e+00	0	41	0	762314752	42	5923
2026-01-19 16:10:58.87	26.46	13.30	-34.5	-35.2	25.0	0.00e+00	0	41	0	767557632	42	5849
2026-01-19 16:10:59.88	26.51	13.39	-34.6	-35.2	24.9	0.00e+00	0	41	0	772800512	42	5887
2026-01-19 16:11:00.89	26.57	13.49	-34.5	-35.2	25.0	0.00e+00	0	41	0	779091968	42	5860
2026-01-19 16:11:01.90	26.62	13.59	-34.5	-35.3	24.9	0.00e+00	0	41	0	784334848	42	5898
2026-01-19 16:11:02.91	26.68	13.68	-34.5	-35.3	25.0	0.00e+00	0	41	0	790626304	42	5897
2026-01-19 16:11:03.92	26.74	13.78	-34.4	-35.1	25.1	0.00e+00	0	41	0	795869184	42	5809
2026-01-19 16:11:04.93	26.79	13.88	-34.5	-35.2	25.0	0.00e+00	0	41	0	802160640	42	5858
2026-01-19 16:11:05.95	26.85	13.98	-34.3	-35.0	25.1	0.00e+00	0	41	0	807403520	42	5715
2026-01-19 16:11:06.96	26.91	14.08	-34.3	-35.0	25.1	0.00e+00	0	41	0	813694976	42	5742
2026-01-19 16:11:07.97	26.97	14.18	-34.3	-35.0	25.2	0.00e+00	0	41	0	818937856	42	5737
2026-01-19 16:11:08.97	27.02	14.28	-34.2	-34.9	25.3	0.00e+00	0	41	0	824180736	42	5643
2026-01-19 16:11:09.99	27.08	14.38	-34.2	-34.9	25.2	0.00e+00	0	41	0	830472192	42	5633
2026-01-19 16:11:11.00	27.14	14.48	-34.2	-34.8	25.3	0.00e+00	0	41	0	835715072	42	5611
2026-01-19 16:11:12.01	27.20	14.58	-34.2	-34.9	25.2	0.00e+00	0	41	0	840957952	42	5639
2026-01-19 16:11:13.02	27.26	14.68	-34.3	-35.0	25.2	0.00e+00	0	41	0	847249408	42	5696
2026-01-19 16:11:14.03	27.32	14.78	-34.4	-35.0	25.2	0.00e+00	0	41	0	852492288	42	5746
2026-01-19 16:11:15.04	27.38	14.89	-34.2	-34.9	25.4	0.00e+00	0	41	0	858783744	42	5635
2026-01-19 16:11:16.04	27.44	14.99	-34.2	-34.9	25.4	0.00e+00	0	41	0	864026624	42	5648
2026-01-19 16:11:17.05	27.50	15.09	-34.4	-35.0	25.2	0.00e+00	0	41	0	869269504	42	5761
2026-01-19 16:11:18.07	27.56	15.20	-34.0	-34.7	25.6	0.00e+00	0	41	0	875560960	42	5521
2026-01-19 16:11:19.08	27.63	15.30	-34.0	-34.6	25.5	0.00e+00	0	41	0	880803840	42	5494
2026-01-19 16:11:20.09	27.69	15.40	-33.9	-34.5	25.6	0.00e+00	0	41	0	887095296	42	5418
2026-01-19 16:11:21.10	27.75	15.51	-33.9	-34.6	25.6	0.00e+00	0	41	0	892338176	42	5478
2026-01-19 16:11:22.11	27.82	15.61	-34.0	-34.6	25.6	0.00e+00	0	41	0	898629632	42	5495
2026-01-19 16:11:23.12	27.88	15.72	-33.8	-34.5	25.6	0.00e+00	0	41	0	903872512	40	6048
2026-01-19 16:11:24.13	27.94	15.82	-33.8	-34.5	25.7	0.00e+00	0	41	0	910163968	40	6067
2026-01-19 16:11:25.13	28.01	15.93	-33.9	-34.6	25.5	0.00e+00	0	41	0	915406848	40	6143
2026-01-19 16:11:26.14	28.07	16.04	-33.7	-34.3	25.8	0.00e+00	0	41	0	920649728	40	5935
2026-01-19 16:11:27.15	28.14	16.14	-33.7	-34.4	25.8	0.00e+00	0	41	0	926941184	40	5984
2026-01-19 16:11:28.16	28.20	16.25	-33.7	-34.3	25.8	0.00e+00	0	41	0	932184064	40	5954
2026-01-19 16:11:29.17	28.27	16.36	-33.6	-34.2	25.9	0.00e+00	0	41	0	938475520	40	5883
2026-01-19 16:11:30.19	28.34	16.47	-33.6	-34.2	25.9	0.00e+00	0	41	0	943718400	40	5879
2026-01-19 16:11:31.20	28.40	16.58	-33.5	-34.1	25.9	0.00e+00	0	41	0	948961280	40	5822
2026-01-19 16:11:32.21	28.47	16.69	-33.4	-34.1	26.0	0.00e+00	0	41	0	955252736	40	5775
2026-01-19 16:11:33.21	28.54	16.80	-33.5	-34.2	26.0	0.00e+00	0	41	0	960495616	40	5845
2026-01-19 16:11:34.23	28.61	16.91	-33.5	-34.2	26.0	0.00e+00	0	41	0	966787072	40	5852
2026-01-19 16:11:35.23	28.68	17.02	-33.4	-34.1	26.1	0.00e+00	0	41	0	972029952	40	5771
2026-01-19 16:11:36.25	28.75	17.13	-33.4	-34.1	26.1	0.00e+00	0	41	0	977272832	40	5800
2026-01-19 16:11:37.26	28.82	17.24	-33.6	-34.3	25.9	0.00e+00	0	41	0	983564288	40	5909
2026-01-19 16:11:38.27	28.89	17.36	-33.4	-34.0	26.2	0.00e+00	0	41	0	988807168	40	5737
2026-01-19 16:11:39.28	28.96	17.47	-33.4	-34.0	26.1	0.00e+00	0	41	0	995098624	40	5753
2026-01-19 16:11:40.29	29.03	17.58	-33.5	-34.1	26.1	0.00e+00	0	41	0	1000341504	40	5827
2026-01-19 16:11:41.30	29.10	17.70	-33.4	-34.1	26.1	0.00e+00	0	41	0	1006632960	40	5770
2026-01-19 16:11:42.31	29.17	17.81	-33.3	-34.0	26.1	0.00e+00	0	41	0	1011875840	40	5736
2026-01-19 16:11:43.31	29.25	17.92	-33.3	-33.9	26.2	0.00e+00	0	41	0	1018167296	40	5687
2026-01-19 16:11:44.33	29.32	18.04	-33.3	-33.9	26.2	0.00e+00	0	41	0	1023410176	40	5690
2026-01-19 16:11:45.34	29.39	18.16	-33.1	-33.8	26.3	0.00e+00	0	41	0	1028653056	40	5576
2026-01-19 16:11:46.35	29.47	18.27	-33.1	-33.8	26.3	0.00e+00	0	41	0	1034944512	40	5591
2026-01-19 16:11:47.36	29.54	18.39	-33.0	-33.6	26.5	0.00e+00	0	41	0	1040187392	40	5499
2026-01-19 16:11:48.37	29.62	18.51	-33.0	-33.7	26.4	0.00e+00	0	41	0	1046478848	40	5506
2026-01-19 16:11:49.38	29.70	18.63	-32.8	-33.4	26.6	0.00e+00	0	41	0	1051721728	40	5374
2026-01-19 16:11:50.39	29.77	18.74	-32.9	-33.5	26.5	0.00e+00	0	41	0	1056964608	40	5431
2026-01-19 16:11:51.40	29.85	18.86	-32.9	-33.5	26.6	0.00e+00	0	41	0	1063256064	40	5399
2026-01-19 16:11:52.41	29.93	18.98	-32.8	-33.5	26.5	0.00e+00	0	41	0	1068498944	40	5384
2026-01-19 16:11:53.42	30.01	19.10	-32.7	-33.4	26.6	0.00e+00	0	41	0	1074790400	38	5999
2026-01-19 16:11:54.43	30.08	19.22	-32.9	-33.5	26.5	0.00e+00	0	41	0	1080033280	38	6078
2026-01-19 16:11:55.44	30.16	19.34	-32.9	-33.5	26.6	0.00e+00	0	41	0	1085276160	38	6066
2026-01-19 16:11:56.45	30.24	19.47	-32.9	-33.6	26.6	0.00e+00	0	41	0	1091567616	38	6108
2026-01-19 16:11:57.46	30.33	19.59	-32.8	-33.5	26.5	0.00e+00	0	41	0	1096810496	38	6061
2026-01-19 16:11:58.47	30.41	19.71	-32.9	-33.6	26.6	0.00e+00	0	41	0	1103101952	38	6112
2026-01-19 16:11:59.48	30.49	19.83	-32.9	-33.5	26.5	0.00e+00	0	41	0	1108344832	38	6078
2026-01-19 16:12:00.49	30.57	19.96	-32.8	-33.5	26.6	0.00e+00	0	41	0	1114636288	38	6051
2026-01-19 16:12:01.50	30.66	20.08	-32.9	-33.6	26.4	0.00e+00	0	41	0	1119879168	38	6105
2026-01-19 16:12:02.51	30.74	20.21	-32.9	-33.6	26.5	0.00e+00	0	41	0	1126170624	38	6133
2026-01-19 16:12:03.52	30.82	20.33	-32.8	-33.4	26.7	0.00e+00	0	41	0	1131413504	38	6012
2026-01-19 16:12:04.53	30.91	20.46	-32.8	-33.4	26.7	0.00e+00	0	41	0	1136656384	38	5976
2026-01-19 16:12:05.54	30.99	20.59	-32.7	-33.3	26.7	0.00e+00	0	41	0	1142947840	38	5938
2026-01-19 16:12:06.55	31.08	20.71	-32.6	-33.3	26.8	0.00e+00	0	41	0	1148190720	38	5919
2026-01-19 16:12:07.56	31.17	20.84	-32.8	-33.4	26.8	0.00e+00	0	41	0	1154482176	38	6012
2026-01-19 16:12:08.57	31.26	20.97	-32.5	-33.1	26.9	0.00e+00	0	41	0	1159725056	38	5825
2026-01-19 16:12:09.58	31.35	21.10	-32.5	-33.1	26.9	0.00e+00	0	41	0	1164967936	38	5800
2026-01-19 16:12:10.59	31.43	21.23	-32.4	-33.0	27.0	0.00e+00	0	41	0	1171259392	38	5738
2026-01-19 16:12:11.60	31.53	21.36	-32.3	-32.9	27.1	0.00e+00	0	41	0	1176502272	38	5636
2026-01-19 16:12:12.61	31.62	21.49	-32.3	-32.9	27.0	0.00e+00	0	41	0	1182793728	38	5673
2026-01-19 16:12:13.62	31.71	21.62	-32.2	-32.8	27.1	0.00e+00	0	41	0	1188036608	38	5621
2026-01-19 16:12:14.63	31.80	21.75	-32.2	-32.9	27.2	0.00e+00	0	41	0	1193279488	38	5648
2026-01-19 16:12:15.64	31.89	21.89	-32.1	-32.7	27.2	0.00e+00	0	41	0	1199570944	38	5544
2026-01-19 16:12:16.65	31.99	22.02	-32.1	-32.7	27.3	0.00e+00	0	41	0	1204813824	38	5550
2026-01-19 16:12:17.66	32.08	22.15	-32.0	-32.7	27.3	0.00e+00	0	41	0	1211105280	38	5515
2026-01-19 16:12:18.67	32.18	22.29	-32.2	-32.8	27.2	0.00e+00	0	41	0	1216348160	38	5576
2026-01-19 16:12:19.68	32.27	22.42	-32.4	-33.0	27.0	0.00e+00	0	41	0	1222639616	38	5754
2026-01-19 16:12:20.69	32.37	22.56	-32.4	-33.0	27.1	0.00e+00	0	41	0	1227882496	38	5748
2026-01-19 16:12:21.70	32.47	22.70	-32.4	-33.0	27.1	0.00e+00	0	41	0	1233125376	38	5758
2026-01-19 16:12:22.71	32.57	22.83	-32.4	-33.1	27.0	0.00e+00	0	41	0	1239416832	38	5764
2026-01-19 16:12:23.72	32.67	22.97	-32.3	-32.9	27.1	0.00e+00	0	41	0	1244659712	38	5676
2026-01-19 16:12:24.73	32.77	23.11	-32.2	-32.8	27.1	0.00e+00	0	41	0	1250951168	38	5600
2026-01-19 16:12:25.74	32.87	23.25	-32.2	-32.8	27.2	0.00e+00	0	41	0	1256194048	38	5612
2026-01-19 16:12:26.75	32.97	23.39	-32.2	-32.8	27.2	0.00e+00	0	41	0	1261436928	38	5614
2026-01-19 16:12:27.76	33.07	23.53	-32.3	-33.0	27.1	0.00e+00	0	41	0	1267728384	38	5710
2026-01-19 16:12:28.77	33.18	23.67	-32.3	-32.9	27.1	0.00e+00	0	41	0	1272971264	38	5677
2026-01-19 16:12:29.78	33.28	23.81	-32.2	-32.8	27.2	0.00e+00	0	41	0	1279262720	38	5610
2026-01-19 16:12:30.79	33.39	23.96	-32.3	-32.9	27.2	0.00e+00	0	41	0	1284505600	38	5663
2026-01-19 16:12:31.80	33.49	24.10	-32.1	-32.7	27.2	0.00e+00	0	41	0	1289748480	38	5553
2026-01-19 16:12:32.81	33.60	24.24	-32.0	-32.6	27.3	0.00e+00	0	41	0	1296039936	38	5501
2026-01-19 16:12:33.82	33.71	24.39	-31.8	-32.4	27.5	0.00e+00	0	41	0	1301282816	38	5377
2026-01-19 16:12:34.83	33.82	24.53	-31.9	-32.5	27.4	0.00e+00	0	41	0	1307574272	38	5389
2026-01-19 16:12:35.84	33.93	24.68	-31.9	-32.5	27.3	0.00e+00	0	41	0	1312817152	38	5420
2026-01-19 16:12:36.85	34.04	24.83	-32.0	-32.7	27.3	0.00e+00	0	41	0	1319108608	38	5515
2026-01-19 16:12:37.87	34.15	24.98	-32.2	-32.8	27.2	0.00e+00	0	41	0	1324351488	38	5574
2026-01-19 16:12:38.88	34.27	25.12	-32.3	-32.9	27.2	0.00e+00	0	41	0	1330642944	38	5667
2026-01-19 16:12:39.88	34.38	25.27	-31.9	-32.5	27.4	0.00e+00	0	41	0	1335885824	38	5436
2026-01-19 16:12:40.89	34.50	25.42	-32.0	-32.6	27.4	0.00e+00	0	41	0	1341128704	38	5466
2026-01-19 16:12:41.90	34.61	25.57	-31.7	-32.3	27.6	0.00e+00	0	41	0	1347420160	36	5911
2026-01-19 16:12:42.92	34.73	25.73	-31.7	-32.2	27.7	0.00e+00	0	41	0	1352663040	36	5896
2026-01-19 16:12:43.92	34.85	25.88	-31.7	-32.3	27.6	0.00e+00	0	41	0	1358954496	36	5916
2026-01-19 16:12:44.93	34.97	26.03	-31.5	-32.1	27.8	0.00e+00	0	41	0	1364197376	36	5824
2026-01-19 16:12:45.94	35.09	26.18	-31.6	-32.2	27.7	0.00e+00	0	41	0	1369440256	36	5853
2026-01-19 16:12:46.95	35.21	26.34	-31.5	-32.2	27.7	0.00e+00	0	41	0	1375731712	36	5832
2026-01-19 16:12:47.96	35.34	26.49	-31.6	-32.2	27.7	0.00e+00	0	41	0	1380974592	36	5863
2026-01-19 16:12:48.97	35.46	26.65	-31.5	-32.1	27.8	0.00e+00	0	41	0	1387266048	36	5804
2026-01-19 16:12:49.99	35.59	26.81	-31.5	-32.2	27.7	0.00e+00	0	41	0	1392508928	36	5830
2026-01-19 16:12:50.99	35.71	26.96	-31.5	-32.1	27.7	0.00e+00	0	41	0	1397751808	36	5808
2026-01-19 16:12:52.01	35.84	27.12	-31.6	-32.2	27.7	0.00e+00	0	41	0	1404043264	36	5880
2026-01-19 16:12:53.01	35.97	27.28	-31.7	-32.3	27.6	0.00e+00	0	41	0	1409286144	36	5951
2026-01-19 16:12:54.02	36.10	27.44	-31.7	-32.3	27.6	0.00e+00	0	41	0	1415577600	36	5954
2026-01-19 16:12:55.04	36.23	27.60	-31.6	-32.3	27.6	0.00e+00	0	41	0	1420820480	36	5904
2026-01-19 16:12:56.04	36.36	27.76	-31.6	-32.3	27.7	0.00e+00	0	41	0	1427111936	36	5899
2026-01-19 16:12:57.06	36.50	27.92	-31.5	-32.1	27.7	0.00e+00	0	41	0	1432354816	36	5815
2026-01-19 16:12:58.07	36.64	28.09	-31.4	-32.0	27.9	0.00e+00	0	41	0	1438646272	36	5731
2026-01-19 16:12:59.08	36.77	28.25	-31.5	-32.1	27.8	0.00e+00	0	41	0	1443889152	36	5799
2026-01-19 16:13:00.09	36.91	28.42	-31.4	-32.0	27.9	0.00e+00	0	41	0	1449132032	36	5748
2026-01-19 16:13:01.10	37.05	28.58	-31.5	-32.1	27.8	0.00e+00	0	41	0	1455423488	36	5789
2026-01-19 16:13:02.11	37.19	28.75	-31.6	-32.2	27.8	0.00e+00	0	41	0	1460666368	36	5872
2026-01-19 16:13:03.12	37.33	28.91	-31.4	-32.0	27.9	0.00e+00	0	41	0	1466957824	36	5730
2026-01-19 16:13:04.13	37.48	29.08	-31.6	-32.3	27.7	0.00e+00	0	41	0	1472200704	36	5902
2026-01-19 16:13:05.14	37.62	29.25	-31.7	-32.3	27.7	0.00e+00	0	41	0	1477443584	36	5927
2026-01-19 16:13:06.15	37.77	29.42	-31.5	-32.1	27.8	0.00e+00	0	41	0	1483735040	36	5826
2026-01-19 16:13:07.16	37.92	29.59	-31.5	-32.1	27.7	0.00e+00	0	41	0	1488977920	36	5787
2026-01-19 16:13:08.17	38.07	29.76	-31.5	-32.1	27.7	0.00e+00	0	41	0	1495269376	36	5796
2026-01-19 16:13:09.18	38.22	29.93	-31.6	-32.2	27.7	0.00e+00	0	41	0	1500512256	36	5861
2026-01-19 16:13:10.19	38.37	30.11	-31.8	-32.4	27.6	0.00e+00	0	41	0	1505755136	36	5979
2026-01-19 16:13:11.20	38.53	30.28	-31.4	-32.0	27.9	0.00e+00	0	41	0	1512046592	36	5758
2026-01-19 16:13:12.21	38.69	30.45	-31.3	-31.9	28.0	0.00e+00	0	41	0	1517289472	36	5691
2026-01-19 16:13:13.22	38.84	30.63	-31.1	-31.7	28.2	0.00e+00	0	41	0	1523580928	36	5520
2026-01-19 16:13:14.23	39.00	30.80	-30.9	-31.4	28.3	0.00e+00	0	41	0	1528823808	36	5355
2026-01-19 16:13:15.24	39.16	30.98	-31.0	-31.6	28.2	0.00e+00	0	41	0	1535115264	36	5457
2026-01-19 16:13:16.25	39.33	31.16	-31.2	-31.7	28.0	0.00e+00	0	41	0	1540358144	36	5563
2026-01-19 16:13:17.26	39.49	31.34	-31.2	-31.8	28.1	0.00e+00	0	41	0	1546649600	36	5586
2026-01-19 16:13:18.27	39.66	31.52	-31.3	-31.9	28.0	0.00e+00	0	41	0	1551892480	36	5663
2026-01-19 16:13:19.28	39.83	31.70	-31.5	-32.1	27.9	0.00e+00	0	41	0	1557135360	36	5813
2026-01-19 16:13:20.29	40.00	31.88	-31.3	-31.9	27.9	0.00e+00	0	41	0	1563426816	36	5652
2026-01-19 16:13:21.30	40.17	32.06	-31.4	-32.0	27.9	0.00e+00	0	41	0	1568669696	36	5713
2026-01-19 16:13:22.31	40.34	32.24	-31.4	-32.1	27.9	0.00e+00	0	41	0	1574961152	36	5764
2026-01-19 16:13:23.32	40.52	32.43	-31.7	-32.3	27.7	0.00e+00	0	41	0	1580204032	36	5916
2026-01-19 16:13:24.33	40.70	32.61	-31.7	-32.3	27.7	0.00e+00	0	41	0	1585446912	36	5950
2026-01-19 16:13:25.34	40.88	32.80	-31.6	-32.2	27.7	0.00e+00	0	41	0	1591738368	36	5845
2026-01-19 16:13:26.35	41.06	32.98	-31.6	-32.2	27.7	0.00e+00	0	41	0	1596981248	36	5879
2026-01-19 16:13:27.36	41.24	33.17	-31.6	-32.2	27.9	0.00e+00	0	41	0	1603272704	36	5850
2026-01-19 16:13:28.37	41.43	33.36	-31.4	-32.0	27.9	0.00e+00	0	41	0	1608515584	36	5723
2026-01-19 16:13:29.38	41.62	33.55	-31.1	-31.7	28.1	0.00e+00	0	41	0	1613758464	36	5561
2026-01-19 16:13:30.39	41.81	33.74	-31.2	-31.8	28.1	0.00e+00	0	41	0	1620049920	36	5606
2026-01-19 16:13:31.41	42.00	33.93	-31.1	-31.7	28.2	0.00e+00	0	41	0	1625292800	36	5550
2026-01-19 16:13:32.42	42.20	34.12	-31.1	-31.7	28.1	0.00e+00	0	41	0	1631584256	36	5560
2026-01-19 16:13:33.43	42.40	34.31	-31.2	-31.8	28.1	0.00e+00	0	41	0	1636827136	36	5585
2026-01-19 16:13:34.44	42.59	34.51	-31.2	-31.8	28.0	0.00e+00	0	41	0	1643118592	36	5604
2026-01-19 16:13:35.45	42.80	34.70	-31.0	-31.6	28.2	0.00e+00	0	41	0	1648361472	36	5448
2026-01-19 16:13:36.46	43.00	34.89	-31.0	-31.6	28.2	0.00e+00	0	41	0	1654652928	36	5482
2026-01-19 16:13:37.47	43.21	35.09	-31.1	-31.7	28.2	0.00e+00	0	41	0	1659895808	36	5561
2026-01-19 16:13:38.48	43.42	35.29	-31.1	-31.7	28.2	0.00e+00	0	41	0	1665138688	36	5528
2026-01-19 16:13:39.49	43.63	35.48	-31.0	-31.6	28.2	0.00e+00	0	41	0	1671430144	36	5492
2026-01-19 16:13:40.50	43.84	35.68	-31.1	-31.7	28.1	0.00e+00	0	41	0	1676673024	36	5563
2026-01-19 16:13:41.51	44.06	35.88	-31.0	-31.5	28.2	0.00e+00	0	41	0	1682964480	36	5423
2026-01-19 16:13:42.52	44.28	36.08	-30.7	-31.3	28.4	0.00e+00	0	41	0	1688207360	34	5931
2026-01-19 16:13:43.53	44.50	36.28	-30.8	-31.4	28.3	0.00e+00	0	41	0	1693450240	34	6020
2026-01-19 16:13:44.54	44.72	36.48	-30.8	-31.4	28.4	0.00e+00	0	41	0	1699741696	34	6022
2026-01-19 16:13:45.55	44.95	36.68	-30.9	-31.4	28.2	0.00e+00	0	41	0	1704984576	34	6028
2026-01-19 16:13:46.56	45.18	36.89	-30.9	-31.5	28.3	0.00e+00	0	41	0	1711276032	34	6091
2026-01-19 16:13:47.57	45.41	37.09	-31.1	-31.7	28.2	0.00e+00	0	41	0	1716518912	34	6208
2026-01-19 16:13:48.58	45.65	37.29	-31.2	-31.8	28.1	0.00e+00	0	41	0	1721761792	34	6299
2026-01-19 16:13:49.59	45.89	37.50	-31.2	-31.8	28.2	0.00e+00	0	41	0	1728053248	34	6305
2026-01-19 16:13:50.60	46.13	37.70	-31.0	-31.7	28.3	0.00e+00	0	41	0	1733296128	34	6181
2026-01-19 16:13:51.61	46.37	37.91	-31.0	-31.7	28.2	0.00e+00	0	41	0	1739587584	34	6181
2026-01-19 16:13:52.62	46.62	38.12	-31.1	-31.7	28.1	0.00e+00	0	41	0	1744830464	34	6226
2026-01-19 16:13:53.63	46.87	38.32	-31.0	-31.7	28.2	0.00e+00	0	41	0	1751121920	34	6174
2026-01-19 16:13:54.64	47.13	38.53	-31.0	-31.7	28.2	0.00e+00	0	41	0	1756364800	34	6174
2026-01-19 16:13:55.65	47.38	38.74	-31.1	-31.7	28.2	0.00e+00	0	41	0	1761607680	34	6221
2026-01-19 16:13:56.66	47.64	38.95	-31.0	-31.6	28.3	0.00e+00	0	41	0	1767899136	34	6158
2026-01-19 16:13:57.67	47.91	39.16	-31.0	-31.6	28.2	0.00e+00	0	41	0	1773142016	34	6123
2026-01-19 16:13:58.68	48.17	39.37	-30.8	-31.4	28.4	0.00e+00	0	41	0	1779433472	34	6013
2026-01-19 16:13:59.69	48.44	39.58	-30.8	-31.4	28.4	0.00e+00	0	41	0	1784676352	34	5972
2026-01-19 16:14:00.70	48.72	39.80	-30.8	-31.4	28.4	0.00e+00	0	41	0	1789919232	34	5990
2026-01-19 16:14:01.71	49.00	40.01	-31.0	-31.6	28.4	0.00e+00	0	41	0	1796210688	34	6118
2026-01-19 16:14:02.72	49.28	40.22	-31.0	-31.6	28.4	0.00e+00	0	41	0	1801453568	34	6112
2026-01-19 16:14:03.73	49.56	40.44	-30.9	-31.5	28.3	0.00e+00	0	41	0	1807745024	34	6077
2026-01-19 16:14:04.74	49.85	40.65	-30.8	-31.4	28.3	0.00e+00	0	41	0	1812987904	34	6032
2026-01-19 16:14:05.75	50.14	40.87	-30.9	-31.5	28.4	0.00e+00	0	41	0	1818230784	34	6053
2026-01-19 16:14:06.76	50.44	41.08	-30.8	-31.4	28.3	0.00e+00	0	41	0	1824522240	34	6015
2026-01-19 16:14:07.77	50.74	41.30	-31.0	-31.6	28.3	0.00e+00	0	41	0	1829765120	34	6138
2026-01-19 16:14:08.78	51.04	41.51	-30.8	-31.4	28.5	0.00e+00	0	41	0	1836056576	34	5968
2026-01-19 16:14:09.78	51.35	41.73	-31.0	-31.5	28.3	0.00e+00	0	41	0	1841299456	34	6087
2026-01-19 16:14:10.79	51.66	41.94	-31.2	-31.8	28.1	0.00e+00	0	41	0	1847590912	34	6286
2026-01-19 16:14:11.80	51.98	42.16	-31.3	-31.9	28.0	0.00e+00	0	41	0	1852833792	34	6352
2026-01-19 16:14:12.81	52.30	42.38	-31.4	-31.9	28.1	0.00e+00	0	41	0	1859125248	34	6390
2026-01-19 16:14:13.82	52.62	42.60	-31.3	-31.9	28.1	0.00e+00	0	41	0	1864368128	34	6347
2026-01-19 16:14:14.84	52.95	42.82	-31.3	-32.0	28.0	0.00e+00	0	41	0	1869611008	34	6407
2026-01-19 16:14:15.85	53.29	43.04	-31.3	-31.9	28.0	0.00e+00	0	41	0	1875902464	34	6338
2026-01-19 16:14:16.86	53.63	43.25	-31.3	-31.9	28.1	0.00e+00	0	41	0	1881145344	34	6332
2026-01-19 16:14:17.87	53.97	43.47	-31.0	-31.6	28.3	0.00e+00	0	41	0	1887436800	34	6167
2026-01-19 16:14:18.88	54.32	43.69	-31.1	-31.7	28.2	0.00e+00	0	41	0	1892679680	34	6206
2026-01-19 16:14:19.89	54.67	43.91	-31.5	-32.2	27.9	0.00e+00	0	41	0	1897922560	34	6546
2026-01-19 16:14:20.90	55.03	44.13	-31.7	-32.3	27.7	0.00e+00	0	41	0	1904214016	34	6655
2026-01-19 16:14:21.91	55.39	44.35	-31.6	-32.1	27.9	0.00e+00	0	41	0	1909456896	36	5828
2026-01-19 16:14:22.92	55.76	44.57	-31.5	-32.1	28.0	0.00e+00	0	41	0	1915748352	36	5767
2026-01-19 16:14:23.93	56.13	44.79	-31.4	-32.0	27.9	0.00e+00	0	41	0	1920991232	36	5721
2026-01-19 16:14:24.94	56.50	45.01	-31.5	-32.0	28.0	0.00e+00	0	41	0	1926234112	36	5746
2026-01-19 16:14:25.95	56.89	45.23	-31.4	-32.0	27.9	0.00e+00	0	41	0	1932525568	36	5711
2026-01-19 16:14:26.96	57.27	45.44	-31.9	-32.5	27.6	0.00e+00	0	41	0	1937768448	36	6067
2026-01-19 16:14:27.97	57.67	45.66	-31.7	-32.3	27.8	0.00e+00	0	41	0	1944059904	36	5927
2026-01-19 16:14:28.98	58.07	45.88	-31.6	-32.2	27.9	0.00e+00	0	41	0	1949302784	36	5852
2026-01-19 16:14:30.00	58.47	46.10	-31.6	-32.3	27.8	0.00e+00	0	41	0	1955594240	36	5902
2026-01-19 16:14:31.01	58.88	46.32	-31.7	-32.3	27.8	0.00e+00	0	41	0	1960837120	36	5945
2026-01-19 16:14:32.01	59.29	46.53	-31.7	-32.3	27.6	0.00e+00	0	41	0	1967128576	36	5904
2026-01-19 16:14:33.02	59.71	46.75	-31.8	-32.4	27.8	0.00e+00	0	41	0	1972371456	36	5982
2026-01-19 16:14:34.04	60.15	46.97	-31.9	-32.5	27.6	0.00e+00	0	41	0	1977614336	36	6089
2026-01-19 16:14:35.05	60.58	47.18	-31.8	-32.4	27.6	0.00e+00	0	41	0	1983905792	36	6011
2026-01-19 16:14:36.06	61.02	47.40	-31.8	-32.4	27.7	0.00e+00	0	41	0	1989148672	36	6017
2026-01-19 16:14:37.07	61.46	47.61	-31.8	-32.4	27.7	0.00e+00	0	41	0	1995440128	36	6003
2026-01-19 16:14:38.08	61.91	47.83	-31.7	-32.3	27.7	0.00e+00	0	41	0	2000683008	36	5933
2026-01-19 16:14:39.09	62.37	48.04	-31.8	-32.5	27.6	0.00e+00	0	41	0	2005925888	36	6063
2026-01-19 16:14:40.10	62.83	48.25	-32.0	-32.7	27.7	0.00e+00	0	41	0	2012217344	36	6183
2026-01-19 16:14:41.11	63.30	48.46	-31.7	-32.3	27.9	0.00e+00	0	41	0	2017460224	36	5915
2026-01-19 16:14:42.12	63.77	48.67	-31.6	-32.2	27.9	0.00e+00	0	41	0	2023751680	36	5857
2026-01-19 16:14:43.13	64.26	48.88	-31.6	-32.3	27.9	0.00e+00	0	41	0	2028994560	36	5912
2026-01-19 16:14:44.14	64.74	49.09	-31.7	-32.3	27.8	0.00e+00	0	41	0	2034237440	36	5947
2026-01-19 16:14:45.15	65.24	49.29	-31.4	-32.0	28.0	0.00e+00	0	41	0	2040528896	36	5727
2026-01-19 16:14:46.16	65.74	49.50	-31.4	-32.0	28.0	0.00e+00	0	41	0	2045771776	36	5743
2026-01-19 16:14:47.17	66.25	49.70	-31.6	-32.2	27.9	0.00e+00	0	41	0	2052063232	36	5857
2026-01-19 16:14:48.18	66.77	49.90	-31.8	-32.4	27.8	0.00e+00	0	41	0	2057306112	36	6016
2026-01-19 16:14:49.19	67.29	50.10	-31.7	-32.3	27.8	0.00e+00	0	41	0	2063597568	36	5959
2026-01-19 16:14:50.20	67.82	50.30	-31.8	-32.4	27.8	0.00e+00	0	41	0	2068840448	36	5979
2026-01-19 16:14:51.21	68.35	50.50	-31.8	-32.3	27.8	0.00e+00	0	41	0	2075131904	36	5960
2026-01-19 16:14:52.22	68.89	50.69	-31.9	-32.5	27.6	0.00e+00	0	41	0	2080374784	36	6103
2026-01-19 16:14:53.23	69.44	50.89	-31.6	-32.2	27.9	0.00e+00	0	41	0	2085617664	36	5855
2026-01-19 16:14:54.24	70.00	51.08	-31.5	-32.1	27.9	0.00e+00	0	41	0	2091909120	36	5768
2026-01-19 16:14:55.25	70.56	51.27	-31.7	-32.3	27.7	0.00e+00	0	41	0	2097152000	36	5927
2026-01-19 16:14:56.26	71.13	51.45	-31.8	-32.4	27.7	0.00e+00	0	41	0	2103443456	36	5997
2026-01-19 16:14:57.27	71.71	51.64	-31.9	-32.5	27.6	0.00e+00	0	41	0	2108686336	36	6079
2026-01-19 16:14:58.28	72.30	51.82	-31.8	-32.4	27.7	0.00e+00	0	41	0	2113929216	36	6016
2026-01-19 16:14:59.29	72.89	52.00	-32.2	-32.8	27.4	0.00e+00	0	41	0	2120220672	36	6268
2026-01-19 16:15:00.30	73.49	52.18	-32.2	-32.8	27.5	0.00e+00	0	41	0	2125463552	36	6303
2026-01-19 16:15:01.31	74.10	52.36	-32.1	-32.8	27.6	0.00e+00	0	41	0	2131755008	36	6248
2026-01-19 16:15:02.32	74.71	52.53	-32.0	-32.7	27.6	0.00e+00	0	41	0	2136997888	36	6179
2026-01-19 16:15:03.33	75.33	52.70	-32.5	-33.2	27.1	0.00e+00	0	41	0	2142240768	36	6569
2026-01-19 16:15:04.34	75.96	52.86	-33.3	-34.0	26.6	0.00e+00	0	41	0	2148532224	36	7192
2026-01-19 16:15:05.35	76.59	53.03	-32.2	-32.8	27.4	0.00e+00	0	41	0	2153775104	38	5567
2026-01-19 16:15:06.36	77.24	53.19	-32.1	-32.8	27.4	0.00e+00	0	41	0	2160066560	38	5567
2026-01-19 16:15:07.37	77.88	53.35	-32.3	-32.9	27.4	0.00e+00	0	41	0	2165309440	38	5678
2026-01-19 16:15:08.38	78.54	53.50	-32.4	-33.0	27.4	0.00e+00	0	41	0	2171600896	38	5738
2026-01-19 16:15:09.39	79.20	53.65	-32.4	-33.0	27.3	0.00e+00	0	41	0	2176843776	38	5749
2026-01-19 16:15:10.40	79.87	53.80	-32.6	-33.2	27.1	0.00e+00	0	41	0	2182086656	38	5847
2026-01-19 16:15:11.41	80.55	53.95	-32.6	-33.2	27.2	0.00e+00	0	41	0	2188378112	38	5895
2026-01-19 16:15:12.42	81.23	54.09	-32.9	-33.5	27.0	0.00e+00	0	41	0	2193620992	38	6061
2026-01-19 16:15:13.43	81.92	54.22	-32.9	-33.6	26.9	0.00e+00	0	41	0	2199912448	38	6118
2026-01-19 16:15:14.44	82.62	54.36	-33.0	-33.6	26.8	0.00e+00	0	41	0	2205155328	38	6126
2026-01-19 16:15:15.45	83.32	54.49	-33.0	-33.6	27.0	0.00e+00	0	41	0	2210398208	38	6119
2026-01-19 16:15:16.46	84.03	54.61	-32.6	-33.3	27.0	0.00e+00	0	41	0	2216689664	38	5898
2026-01-19 16:15:17.47	84.75	54.74	-32.6	-33.2	27.1	0.00e+00	0	41	0	2221932544	38	5895
2026-01-19 16:15:18.48	85.47	54.85	-32.9	-33.5	27.0	0.00e+00	0	41	0	2228224000	38	6046
2026-01-19 16:15:19.49	86.19	54.97	-33.3	-34.0	26.8	0.00e+00	0	41	0	2233466880	38	6405
2026-01-19 16:15:20.50	86.93	55.07	-33.1	-33.7	26.9	0.00e+00	0	41	0	2238709760	38	6207
2026-01-19 16:15:21.51	87.67	55.18	-32.7	-33.4	27.0	0.00e+00	0	41	0	2245001216	38	5979
2026-01-19 16:15:22.52	88.41	55.28	-32.2	-32.8	27.3	0.00e+00	0	41	0	2250244096	38	5609
2026-01-19 16:15:23.53	89.16	55.37	-32.2	-32.9	27.3	0.00e+00	0	41	0	2256535552	38	5652
2026-01-19 16:15:24.54	89.91	55.47	-32.2	-32.8	27.4	0.00e+00	0	41	0	2261778432	38	5627
2026-01-19 16:15:25.55	90.67	55.55	-32.4	-32.9	27.3	0.00e+00	0	41	0	2268069888	38	5690
2026-01-19 16:15:26.56	91.43	55.63	-32.5	-33.1	27.2	0.00e+00	0	41	0	2273312768	38	5784
2026-01-19 16:15:27.57	92.20	55.71	-32.5	-33.2	27.3	0.00e+00	0	41	0	2279604224	38	5842
2026-01-19 16:15:28.58	92.97	55.78	-32.5	-33.1	27.2	0.00e+00	0	41	0	2284847104	38	5804
2026-01-19 16:15:29.58	93.74	55.85	-32.8	-33.4	27.0	0.00e+00	0	41	0	2290089984	38	5996
2026-01-19 16:15:30.59	94.52	55.91	-32.4	-33.1	27.2	0.00e+00	0	41	0	2296381440	38	5779
2026-01-19 16:15:31.60	95.30	55.97	-32.2	-32.8	27.4	0.00e+00	0	41	0	2301624320	38	5618
2026-01-19 16:15:32.61	96.09	56.02	-32.4	-33.0	27.3	0.00e+00	0	41	0	2307915776	38	5743
2026-01-19 16:15:33.62	96.87	56.07	-32.6	-33.3	27.1	0.00e+00	0	41	0	2313158656	38	5903
2026-01-19 16:15:34.62	97.66	56.11	-32.9	-33.5	26.8	0.00e+00	0	41	0	2318401536	38	6086
2026-01-19 16:15:35.64	98.46	56.14	-32.9	-33.6	26.8	0.00e+00	0	41	0	2324692992	38	6123
2026-01-19 16:15:36.65	99.25	56.17	-32.9	-33.5	26.7	0.00e+00	0	41	0	2329935872	38	6094
2026-01-19 16:15:37.66	100.05	56.20	-33.6	-34.2	26.5	0.00e+00	0	41	0	2336227328	38	6596
2026-01-19 16:15:38.67	100.85	56.22	-32.6	-33.2	27.0	0.00e+00	0	41	0	2341470208	38	5892
2026-01-19 16:15:39.68	101.64	56.24	-32.1	-32.7	27.6	0.00e+00	0	41	0	2346713088	38	5552
2026-01-19 16:15:40.69	102.44	56.25	-32.2	-32.8	27.3	0.00e+00	0	41	0	2353004544	38	5627
2026-01-19 16:15:41.70	103.24	56.25	-32.7	-33.3	27.0	0.00e+00	0	41	0	2358247424	38	5955
2026-01-19 16:15:42.71	104.04	56.25	-32.4	-33.0	27.2	0.00e+00	0	41	0	2364538880	38	5738
2026-01-19 16:15:43.72	104.84	56.24	-32.3	-32.9	27.2	0.00e+00	0	41	0	2369781760	38	5671
2026-01-19 16:15:44.73	105.64	56.23	-32.3	-32.9	27.1	0.00e+00	0	41	0	2376073216	38	5682
2026-01-19 16:15:45.74	106.44	56.21	-32.4	-33.0	27.0	0.00e+00	0	41	0	2381316096	38	5757
2026-01-19 16:15:46.75	107.24	56.19	-32.4	-33.0	27.1	0.00e+00	0	41	0	2386558976	38	5733
2026-01-19 16:15:47.76	108.03	56.16	-32.5	-33.2	27.0	0.00e+00	0	41	0	2392850432	38	5838
2026-01-19 16:15:48.77	108.83	56.13	-32.6	-33.2	26.8	0.00e+00	0	41	0	2398093312	38	5888
2026-01-19 16:15:49.78	109.62	56.09	-32.5	-33.0	27.0	0.00e+00	0	41	0	2404384768	38	5742
2026-01-19 16:15:50.79	110.41	56.05	-32.6	-33.2	27.0	0.00e+00	0	41	0	2409627648	38	5875
2026-01-19 16:15:51.80	111.20	56.00	-32.4	-33.0	27.0	0.00e+00	0	41	0	2414870528	38	5737
2026-01-19 16:15:52.81	111.98	55.95	-33.1	-33.8	26.8	0.00e+00	0	41	0	2421161984	38	6294
2026-01-19 16:15:53.82	112.76	55.89	-33.0	-33.6	26.8	0.00e+00	0	41	0	2426404864	38	6169
2026-01-19 16:15:54.83	113.54	55.83	-33.0	-33.7	26.8	0.00e+00	0	41	0	2432696320	38	6205
2026-01-19 16:15:55.84	114.32	55.76	-32.5	-33.2	27.2	0.00e+00	0	41	0	2437939200	38	5835
2026-01-19 16:15:56.85	115.09	55.69	-32.5	-33.1	27.3	0.00e+00	0	41	0	2443182080	38	5810
2026-01-19 16:15:57.86	115.85	55.61	-32.4	-33.0	27.2	0.00e+00	0	41	0	2449473536	38	5739
2026-01-19 16:15:58.87	116.62	55.52	-32.3	-33.0	27.2	0.00e+00	0	41	0	2454716416	38	5728
2026-01-19 16:15:59.88	117.37	55.44	-32.2	-32.9	27.3	0.00e+00	0	41	0	2461007872	38	5647
2026-01-19 16:16:00.89	118.13	55.34	-32.2	-32.8	27.3	0.00e+00	0	41	0	2466250752	38	5621
2026-01-19 16:16:01.90	118.87	55.25	-32.4	-33.0	27.1	0.00e+00	0	41	0	2472542208	38	5755
2026-01-19 16:16:02.91	119.62	55.14	-32.9	-33.5	26.8	0.00e+00	0	41	0	2477785088	38	6067
2026-01-19 16:16:03.92	120.35	55.04	-33.0	-33.7	26.8	0.00e+00	0	41	0	2484076544	38	6185
2026-01-19 16:16:04.93	121.08	54.93	-32.8	-33.5	26.9	0.00e+00	0	41	0	2489319424	38	6043
2026-01-19 16:16:05.94	121.81	54.81	-32.6	-33.2	27.1	0.00e+00	0	41	0	2494562304	38	5864
2026-01-19 16:16:06.95	122.53	54.69	-32.7	-33.4	27.1	0.00e+00	0	41	0	2500853760	38	5976
2026-01-19 16:16:07.96	123.25	54.57	-32.6	-33.3	27.0	0.00e+00	0	41	0	2506096640	38	5948
2026-01-19 16:16:08.97	123.95	54.44	-32.6	-33.1	27.2	0.00e+00	0	41	0	2512388096	38	5817
2026-01-19 16:16:09.98	124.65	54.31	-32.6	-33.2	27.1	0.00e+00	0	41	0	2517630976	38	5879
2026-01-19 16:16:10.99	125.35	54.18	-32.5	-33.2	27.3	0.00e+00	0	41	0	2522873856	38	5856
2026-01-19 16:16:12.00	126.04	54.04	-32.3	-32.9	27.3	0.00e+00	0	41	0	2529165312	38	5672
2026-01-19 16:16:13.01	126.72	53.90	-32.2	-32.9	27.4	0.00e+00	0	41	0	2534408192	38	5646
2026-01-19 16:16:14.02	127.40	53.75	-32.5	-33.2	27.2	0.00e+00	0	41	0	2540699648	38	5864
2026-01-19 16:16:15.03	128.06	53.60	-32.6	-33.2	27.2	0.00e+00	0	41	0	2545942528	38	5834
2026-01-19 16:16:16.04	128.73	53.45	-32.5	-33.1	27.3	0.00e+00	0	41	0	2551185408	38	5821
2026-01-19 16:16:17.05	129.38	53.29	-32.4	-32.9	27.4	0.00e+00	0	41	0	2557476864	38	5681
2026-01-19 16:16:18.06	130.03	53.13	-33.1	-33.8	26.9	0.00e+00	0	41	0	2562719744	38	6312
2026-01-19 16:16:19.07	130.67	52.97	-33.2	-34.0	26.8	0.00e+00	0	41	0	2569011200	38	6407
2026-01-19 16:16:20.08	131.30	52.80	-32.9	-33.5	27.1	0.00e+00	0	41	0	2574254080	38	6063
2026-01-19 16:16:21.09	131.93	52.64	-32.3	-32.9	27.5	0.00e+00	0	41	0	2580545536	38	5637
2026-01-19 16:16:22.10	132.55	52.46	-32.2	-32.7	27.5	0.00e+00	0	41	0	2585788416	38	5557
2026-01-19 16:16:23.11	133.16	52.29	-32.4	-33.0	27.6	0.00e+00	0	41	0	2592079872	38	5706
2026-01-19 16:16:24.12	133.77	52.11	-32.1	-32.8	27.5	0.00e+00	0	41	0	2597322752	38	5615
2026-01-19 16:16:25.13	134.36	51.93	-32.1	-32.7	27.6	0.00e+00	0	41	0	2602565632	38	5549
2026-01-19 16:16:26.14	134.95	51.75	-32.2	-32.8	27.4	0.00e+00	0	41	0	2608857088	38	5621
2026-01-19 16:16:27.15	135.54	51.57	-32.0	-32.6	27.6	0.00e+00	0	41	0	2614099968	38	5443
2026-01-19 16:16:28.16	136.11	51.38	-32.0	-32.6	27.6	0.00e+00	0	41	0	2620391424	38	5452
2026-01-19 16:16:29.17	136.68	51.19	-32.1	-32.8	27.5	0.00e+00	0	41	0	2625634304	38	5572
2026-01-19 16:16:30.18	137.25	51.00	-32.0	-32.7	27.7	0.00e+00	0	41	0	2630877184	38	5540
2026-01-19 16:16:31.19	137.80	50.81	-32.2	-32.8	27.7	0.00e+00	0	41	0	2637168640	38	5579
2026-01-19 16:16:32.20	138.35	50.62	-32.2	-32.7	27.7	0.00e+00	0	41	0	2642411520	38	5553
2026-01-19 16:16:33.21	138.89	50.42	-32.1	-32.6	27.8	0.00e+00	0	41	0	2648702976	38	5473
2026-01-19 16:16:34.22	139.42	50.22	-31.9	-32.4	27.8	0.00e+00	0	41	0	2653945856	38	5373
2026-01-19 16:16:35.23	139.95	50.02	-32.0	-32.5	27.8	0.00e+00	0	41	0	2659188736	38	5425
2026-01-19 16:16:36.24	140.47	49.82	-31.8	-32.3	27.8	0.00e+00	0	41	0	2665480192	36	5952
2026-01-19 16:16:37.25	140.99	49.62	-31.6	-32.2	27.9	0.00e+00	0	41	0	2670723072	36	5839
2026-01-19 16:16:38.26	141.49	49.41	-31.7	-32.3	27.8	0.00e+00	0	41	0	2677014528	36	5897
2026-01-19 16:16:39.27	141.99	49.21	-31.9	-32.6	27.7	0.00e+00	0	41	0	2682257408	36	6117
2026-01-19 16:16:40.28	142.49	49.00	-31.9	-32.5	27.7	0.00e+00	0	41	0	2688548864	36	6077
2026-01-19 16:16:41.29	142.97	48.79	-31.8	-32.4	27.9	0.00e+00	0	41	0	2693791744	36	6015
2026-01-19 16:16:42.30	143.46	48.58	-31.8	-32.3	27.9	0.00e+00	0	41	0	2699034624	36	5922
2026-01-19 16:16:43.31	143.93	48.37	-31.8	-32.5	27.8	0.00e+00	0	41	0	2705326080	36	6090
2026-01-19 16:16:44.32	144.40	48.16	-31.8	-32.4	27.8	0.00e+00	0	41	0	2710568960	36	5989
2026-01-19 16:16:45.33	144.86	47.95	-32.2	-32.9	27.7	0.00e+00	0	41	0	2716860416	36	6324
2026-01-19 16:16:46.34	145.31	47.73	-32.3	-33.0	27.7	0.00e+00	0	41	0	2722103296	36	6399
2026-01-19 16:16:47.35	145.76	47.52	-31.7	-32.4	27.7	0.00e+00	0	41	0	2727346176	36	5976
2026-01-19 16:16:48.36	146.21	47.30	-31.9	-32.5	27.9	0.00e+00	0	41	0	2733637632	36	6066
2026-01-19 16:16:49.38	146.65	47.09	-32.1	-32.8	27.8	0.00e+00	0	41	0	2738880512	36	6267
2026-01-19 16:16:50.38	147.07	46.87	-32.0	-32.5	27.9	0.00e+00	0	41	0	2745171968	36	6057
2026-01-19 16:16:51.39	147.50	46.65	-32.0	-32.7	27.9	0.00e+00	0	41	0	2750414848	36	6183
2026-01-19 16:16:52.40	147.92	46.44	-31.9	-32.5	27.8	0.00e+00	0	41	0	2755657728	36	6055
2026-01-19 16:16:53.41	148.33	46.22	-31.9	-32.5	27.8	0.00e+00	0	41	0	2761949184	36	6049
2026-01-19 16:16:54.42	148.74	46.00	-31.9	-32.5	27.7	0.00e+00	0	41	0	2767192064	36	6042
2026-01-19 16:16:55.43	149.14	45.78	-31.6	-32.2	28.0	0.00e+00	0	41	0	2773483520	36	5837
2026-01-19 16:16:56.44	149.54	45.56	-31.5	-32.2	28.1	0.00e+00	0	41	0	2778726400	36	5842
2026-01-19 16:16:57.45	149.93	45.34	-31.6	-32.1	28.1	0.00e+00	0	41	0	2785017856	36	5823
2026-01-19 16:16:58.46	150.32	45.12	-32.0	-32.7	28.1	0.00e+00	0	41	0	2790260736	36	6194
2026-01-19 16:16:59.47	150.70	44.90	-32.1	-32.8	27.9	0.00e+00	0	41	0	2796552192	36	6266
2026-01-19 16:17:00.48	151.08	44.68	-31.9	-32.5	27.9	0.00e+00	0	41	0	2801795072	36	6062
2026-01-19 16:17:01.49	151.45	44.46	-32.0	-32.6	28.0	0.00e+00	0	41	0	2807037952	36	6121
2026-01-19 16:17:02.50	151.81	44.24	-31.8	-32.3	27.9	0.00e+00	0	41	0	2813329408	36	5961
2026-01-19 16:17:03.51	152.17	44.02	-32.1	-32.6	27.9	0.00e+00	0	41	0	2818572288	36	6119
2026-01-19 16:17:04.52	152.53	43.80	-31.5	-32.2	28.0	0.00e+00	0	41	0	2824863744	36	5841
2026-01-19 16:17:05.53	152.88	43.58	-31.7	-32.2	27.9	0.00e+00	0	41	0	2830106624	36	5879
2026-01-19 16:17:06.54	153.23	43.36	-31.7	-32.3	27.8	0.00e+00	0	41	0	2835349504	36	5905
2026-01-19 16:17:07.55	153.57	43.14	-31.9	-32.5	27.7	0.00e+00	0	41	0	2841640960	36	6038
2026-01-19 16:17:08.56	153.91	42.92	-32.3	-33.0	27.7	0.00e+00	0	41	0	2846883840	36	6419
2026-01-19 16:17:09.57	154.24	42.71	-31.9	-32.4	27.6	0.00e+00	0	41	0	2853175296	36	6018
2026-01-19 16:17:10.58	154.57	42.49	-31.6	-32.1	27.8	0.00e+00	0	41	0	2858418176	36	5818
2026-01-19 16:17:11.59	154.89	42.27	-31.5	-32.2	28.2	0.00e+00	0	41	0	2863661056	36	5850
2026-01-19 16:17:12.60	155.21	42.05	-31.4	-32.0	28.1	0.00e+00	0	41	0	2869952512	36	5746
2026-01-19 16:17:13.61	155.53	41.83	-31.3	-31.8	28.0	0.00e+00	0	41	0	2875195392	36	5618
2026-01-19 16:17:14.62	155.84	41.61	-32.0	-32.7	28.1	0.00e+00	0	41	0	2881486848	36	6204
2026-01-19 16:17:15.64	156.15	41.39	-32.3	-32.8	28.0	0.00e+00	0	41	0	2886729728	36	6291
2026-01-19 16:17:16.65	156.45	41.18	-32.1	-32.7	27.9	0.00e+00	0	41	0	2893021184	36	6178
2026-01-19 16:17:17.66	156.75	40.96	-32.2	-32.8	28.0	0.00e+00	0	41	0	2898264064	36	6251
2026-01-19 16:17:18.67	157.05	40.74	-32.0	-32.7	28.0	0.00e+00	0	41	0	2904555520	36	6222
2026-01-19 16:17:19.68	157.34	40.53	-31.8	-32.3	28.0	0.00e+00	0	41	0	2909798400	36	5936
2026-01-19 16:17:20.69	157.63	40.31	-31.4	-31.9	28.2	0.00e+00	0	41	0	2915041280	36	5663
2026-01-19 16:17:21.70	157.91	40.10	-31.5	-32.2	28.1	0.00e+00	0	41	0	2921332736	36	5846
2026-01-19 16:17:22.71	158.19	39.88	-31.3	-32.0	28.2	0.00e+00	0	41	0	2926575616	36	5697
2026-01-19 16:17:23.72	158.47	39.67	-31.1	-31.6	28.2	0.00e+00	0	41	0	2932867072	36	5475
2026-01-19 16:17:24.73	158.74	39.46	-31.2	-31.7	28.2	0.00e+00	0	41	0	2938109952	36	5564
2026-01-19 16:17:25.74	159.01	39.25	-31.6	-32.2	28.0	0.00e+00	0	41	0	2943352832	36	5895
2026-01-19 16:17:26.75	159.28	39.03	-31.5	-32.1	28.2	0.00e+00	0	41	0	2949644288	36	5775
2026-01-19 16:17:27.76	159.54	38.82	-32.2	-32.8	28.0	0.00e+00	0	41	0	2954887168	36	6294
2026-01-19 16:17:28.77	159.80	38.61	-32.2	-32.7	28.2	0.00e+00	0	41	0	2961178624	36	6234
2026-01-19 16:17:29.78	160.05	38.40	-32.0	-32.5	27.7	0.00e+00	0	41	0	2966421504	36	6075
2026-01-19 16:17:30.79	160.31	38.19	-32.0	-32.5	27.4	0.00e+00	0	41	0	2971664384	36	6087
2026-01-19 16:17:31.80	160.56	37.99	-31.7	-32.2	28.0	0.00e+00	0	41	0	2977955840	36	5883
2026-01-19 16:17:32.81	160.80	37.78	-31.6	-32.1	28.0	0.00e+00	0	41	0	2983198720	36	5795
2026-01-19 16:17:33.82	161.05	37.57	-31.4	-32.1	28.0	0.00e+00	0	41	0	2989490176	36	5793
2026-01-19 16:17:34.83	161.29	37.36	-31.3	-32.0	28.1	0.00e+00	0	41	0	2994733056	36	5757
2026-01-19 16:17:35.84	161.53	37.16	-31.0	-31.7	28.2	0.00e+00	0	41	0	3001024512	36	5535
2026-01-19 16:17:36.85	161.76	36.95	-30.8	-31.5	28.4	0.00e+00	0	41	0	3006267392	36	5421
2026-01-19 16:17:37.86	161.99	36.75	-31.1	-31.7	28.3	0.00e+00	0	41	0	3012558848	36	5552
2026-01-19 16:17:38.87	162.22	36.55	-30.8	-31.5	28.5	0.00e+00	0	41	0	3017801728	34	6057
2026-01-19 16:17:39.88	162.45	36.34	-31.1	-31.7	28.5	0.00e+00	0	41	0	3023044608	34	6174
2026-01-19 16:17:40.89	162.67	36.14	-31.2	-31.8	28.4	0.00e+00	0	41	0	3029336064	34	6311
2026-01-19 16:17:41.90	162.89	35.94	-31.1	-31.7	28.4	0.00e+00	0	41	0	3034578944	34	6243
2026-01-19 16:17:42.91	163.11	35.74	-31.3	-32.0	28.3	0.00e+00	0	41	0	3040870400	34	6403
2026-01-19 16:17:43.92	163.33	35.54	-31.1	-31.8	28.3	0.00e+00	0	41	0	3046113280	34	6264
2026-01-19 16:17:44.93	163.54	35.34	-31.6	-32.3	28.1	0.00e+00	0	41	0	3051356160	34	6637
2026-01-19 16:17:45.94	163.75	35.15	-31.3	-31.8	28.2	0.00e+00	0	41	0	3057647616	34	6283
2026-01-19 16:17:46.95	163.96	34.95	-31.6	-32.3	28.1	0.00e+00	0	41	0	3062890496	34	6634
2026-01-19 16:17:47.96	164.16	34.75	-31.3	-31.9	28.3	0.00e+00	0	41	0	3069181952	34	6380
2026-01-19 16:17:48.97	164.37	34.56	-31.1	-31.7	28.4	0.00e+00	0	41	0	3074424832	34	6175
2026-01-19 16:17:49.98	164.57	34.36	-30.9	-31.6	28.3	0.00e+00	0	41	0	3079667712	34	6136
2026-01-19 16:17:50.99	164.77	34.17	-31.0	-31.7	28.4	0.00e+00	0	41	0	3085959168	34	6177
2026-01-19 16:17:52.00	164.96	33.98	-31.3	-31.8	28.5	0.00e+00	0	41	0	3091202048	34	6303
2026-01-19 16:17:53.01	165.16	33.79	-31.2	-31.8	28.2	0.00e+00	0	41	0	3097493504	34	6292
2026-01-19 16:17:54.02	165.35	33.59	-31.3	-32.0	28.2	0.00e+00	0	41	0	3102736384	34	6393
2026-01-19 16:17:55.03	165.54	33.40	-31.5	-32.1	28.1	0.00e+00	0	41	0	3109027840	34	6531
2026-01-19 16:17:56.04	165.73	33.21	-31.8	-32.3	28.0	0.00e+00	0	41	0	3114270720	36	5945
2026-01-19 16:17:57.05	165.91	33.03	-32.1	-32.6	27.7	0.00e+00	0	41	0	3119513600	36	6147
2026-01-19 16:17:58.06	166.09	32.84	-32.1	-32.7	27.6	0.00e+00	0	41	0	3125805056	36	6193
2026-01-19 16:17:59.07	166.28	32.65	-31.3	-31.8	28.2	0.00e+00	0	41	0	3131047936	36	5613
2026-01-19 16:18:00.08	166.46	32.47	-31.1	-31.6	28.3	0.00e+00	0	41	0	3137339392	36	5488
2026-01-19 16:18:01.09	166.63	32.28	-31.0	-31.5	28.3	0.00e+00	0	41	0	3142582272	36	5439
2026-01-19 16:18:02.10	166.81	32.10	-31.1	-31.7	28.4	0.00e+00	0	41	0	3147825152	36	5521
2026-01-19 16:18:03.11	166.98	31.91	-31.1	-31.7	28.3	0.00e+00	0	41	0	3154116608	36	5507
2026-01-19 16:18:04.12	167.15	31.73	-30.9	-31.4	28.4	0.00e+00	0	41	0	3159359488	36	5347
2026-01-19 16:18:05.13	167.32	31.55	-30.8	-31.3	28.4	0.00e+00	0	41	0	3165650944	36	5304
2026-01-19 16:18:06.14	167.49	31.37	-30.9	-31.4	28.4	0.00e+00	0	41	0	3170893824	36	5352
2026-01-19 16:18:07.15	167.66	31.19	-31.2	-31.8	28.3	0.00e+00	0	41	0	3176136704	36	5570
2026-01-19 16:18:08.17	167.82	31.01	-31.2	-31.7	28.2	0.00e+00	0	41	0	3182428160	36	5535
2026-01-19 16:18:09.18	167.98	30.83	-31.5	-32.1	28.1	0.00e+00	0	41	0	3187671040	36	5823
2026-01-19 16:18:10.19	168.15	30.65	-31.6	-32.3	28.0	0.00e+00	0	41	0	3193962496	36	5901
2026-01-19 16:18:11.20	168.30	30.47	-31.7	-32.4	28.0	0.00e+00	0	41	0	3199205376	36	5976
2026-01-19 16:18:12.21	168.46	30.30	-31.8	-32.4	27.9	0.00e+00	0	41	0	3205496832	36	6031
2026-01-19 16:18:13.22	168.62	30.12	-31.9	-32.4	27.7	0.00e+00	0	41	0	3210739712	36	6016
2026-01-19 16:18:14.23	168.77	29.95	-31.6	-32.2	28.0	0.00e+00	0	41	0	3217031168	36	5886
2026-01-19 16:18:15.24	168.92	29.78	-31.8	-32.3	27.9	0.00e+00	0	41	0	3222274048	36	5961
2026-01-19 16:18:16.25	169.08	29.60	-31.9	-32.4	28.0	0.00e+00	0	41	0	3227516928	36	6027
2026-01-19 16:18:17.26	169.22	29.43	-31.6	-32.1	27.9	0.00e+00	0	41	0	3233808384	36	5807
2026-01-19 16:18:18.27	169.37	29.26	-31.5	-32.0	28.0	0.00e+00	0	41	0	3239051264	36	5747
2026-01-19 16:18:19.28	169.52	29.09	-31.3	-31.8	28.0	0.00e+00	0	41	0	3245342720	36	5610
2026-01-19 16:18:20.29	169.66	28.92	-31.3	-31.8	28.1	0.00e+00	0	41	0	3250585600	36	5624
2026-01-19 16:18:21.30	169.81	28.76	-31.3	-31.9	28.0	0.00e+00	0	41	0	3255828480	36	5636
2026-01-19 16:18:22.31	169.95	28.59	-31.3	-32.0	28.1	0.00e+00	0	41	0	3262119936	36	5716
2026-01-19 16:18:23.32	170.09	28.42	-31.3	-31.8	28.0	0.00e+00	0	41	0	3267362816	36	5608
2026-01-19 16:18:24.34	170.23	28.25	-31.1	-31.8	28.1	0.00e+00	0	41	0	3273654272	36	5593
2026-01-19 16:18:25.35	170.37	28.09	-31.2	-31.8	28.1	0.00e+00	0	41	0	3278897152	36	5573
2026-01-19 16:18:26.36	170.50	27.93	-31.2	-31.7	28.1	0.00e+00	0	41	0	3285188608	36	5554
2026-01-19 16:18:27.37	170.64	27.76	-31.3	-31.8	27.9	0.00e+00	0	41	0	3290431488	36	5629
2026-01-19 16:18:28.38	170.77	27.60	-31.1	-31.6	28.2	0.00e+00	0	41	0	3295674368	36	5459
2026-01-19 16:18:29.39	170.91	27.44	-31.2	-31.7	28.1	0.00e+00	0	41	0	3301965824	36	5525
2026-01-19 16:18:30.40	171.04	27.28	-31.1	-31.7	28.0	0.00e+00	0	41	0	3307208704	36	5512
2026-01-19 16:18:31.41	171.17	27.12	-31.2	-31.7	28.1	0.00e+00	0	41	0	3313500160	36	5535
2026-01-19 16:18:32.42	171.29	26.96	-31.3	-31.8	28.1	0.00e+00	0	41	0	3318743040	36	5605
2026-01-19 16:18:33.43	171.42	26.80	-31.7	-32.2	28.0	0.00e+00	0	41	0	3325034496	36	5851
2026-01-19 16:18:34.44	171.55	26.64	-31.7	-32.2	28.0	0.00e+00	0	41	0	3330277376	36	5891
2026-01-19 16:18:35.45	171.67	26.48	-31.6	-32.2	27.9	0.00e+00	0	41	0	3335520256	36	5850
2026-01-19 16:18:36.46	171.80	26.33	-31.7	-32.3	27.9	0.00e+00	0	41	0	3341811712	36	5907
2026-01-19 16:18:37.47	171.92	26.17	-31.7	-32.3	27.8	0.00e+00	0	41	0	3347054592	36	5909
2026-01-19 16:18:38.48	172.04	26.02	-31.8	-32.5	27.8	0.00e+00	0	41	0	3353346048	36	6046
2026-01-19 16:18:39.49	172.16	25.86	-31.6	-32.3	27.8	0.00e+00	0	41	0	3358588928	36	5902
2026-01-19 16:18:40.50	172.28	25.71	-31.6	-32.3	27.8	0.00e+00	0	41	0	3363831808	36	5941
2026-01-19 16:18:41.51	172.40	25.56	-31.8	-32.5	27.8	0.00e+00	0	41	0	3370123264	36	6064
2026-01-19 16:18:42.52	172.52	25.41	-31.6	-32.1	27.9	0.00e+00	0	41	0	3375366144	36	5810
2026-01-19 16:18:43.53	172.63	25.26	-31.7	-32.2	27.8	0.00e+00	0	41	0	3381657600	36	5850
2026-01-19 16:18:44.54	172.75	25.11	-31.9	-32.4	27.9	0.00e+00	0	41	0	3386900480	36	6013
2026-01-19 16:18:45.55	172.86	24.96	-31.8	-32.4	27.9	0.00e+00	0	41	0	3392143360	36	5975
2026-01-19 16:18:46.56	172.97	24.81	-31.9	-32.4	27.8	0.00e+00	0	41	0	3398434816	36	6006
2026-01-19 16:18:47.57	173.08	24.66	-31.9	-32.4	27.7	0.00e+00	0	41	0	3403677696	36	6013
2026-01-19 16:18:48.58	173.19	24.51	-31.8	-32.4	27.7	0.00e+00	0	41	0	3409969152	36	5995
2026-01-19 16:18:49.59	173.30	24.37	-32.0	-32.6	27.6	0.00e+00	0	41	0	3415212032	36	6111
2026-01-19 16:18:50.60	173.41	24.22	-31.9	-32.4	27.6	0.00e+00	0	41	0	3421503488	36	6015
2026-01-19 16:18:51.61	173.52	24.07	-31.9	-32.5	27.5	0.00e+00	0	41	0	3426746368	36	6051
2026-01-19 16:18:52.62	173.63	23.93	-31.9	-32.5	27.6	0.00e+00	0	41	0	3433037824	36	6045
2026-01-19 16:18:53.63	173.73	23.79	-31.9	-32.5	27.5	0.00e+00	0	41	0	3438280704	36	6034
2026-01-19 16:18:54.63	173.84	23.64	-32.0	-32.5	27.6	0.00e+00	0	41	0	3443523584	36	6096
2026-01-19 16:18:55.64	173.94	23.50	-31.9	-32.4	27.6	0.00e+00	0	41	0	3449815040	36	6028
2026-01-19 16:18:56.65	174.05	23.36	-32.3	-32.9	27.5	0.00e+00	0	41	0	3455057920	36	6326
2026-01-19 16:18:57.66	174.15	23.22	-32.1	-32.6	27.5	0.00e+00	0	41	0	3461349376	36	6147
2026-01-19 16:18:58.68	174.25	23.08	-31.9	-32.5	27.6	0.00e+00	0	41	0	3466592256	36	6039
2026-01-19 16:18:59.69	174.35	22.94	-32.2	-32.7	27.5	0.00e+00	0	41	0	3471835136	36	6212
2026-01-19 16:19:00.69	174.45	22.80	-32.1	-32.6	27.5	0.00e+00	0	41	0	3478126592	36	6146
2026-01-19 16:19:01.71	174.55	22.66	-31.8	-32.4	27.5	0.00e+00	0	41	0	3483369472	36	5979
2026-01-19 16:19:02.71	174.65	22.52	-31.9	-32.4	27.6	0.00e+00	0	41	0	3489660928	36	6011
2026-01-19 16:19:03.72	174.74	22.39	-31.9	-32.4	27.5	0.00e+00	0	41	0	3494903808	36	6008
2026-01-19 16:19:04.73	174.84	22.25	-31.9	-32.5	27.4	0.00e+00	0	41	0	3500146688	36	6047
2026-01-19 16:19:05.75	174.94	22.11	-31.9	-32.5	27.4	0.00e+00	0	41	0	3506438144	36	6071
2026-01-19 16:19:06.75	175.03	21.98	-32.2	-32.9	27.2	0.00e+00	0	41	0	3511681024	36	6333
2026-01-19 16:19:07.76	175.12	21.85	-32.3	-33.0	27.1	0.00e+00	0	41	0	3517972480	36	6416
2026-01-19 16:19:08.77	175.22	21.71	-32.1	-32.7	27.3	0.00e+00	0	41	0	3523215360	36	6214
2026-01-19 16:19:09.79	175.31	21.58	-32.2	-32.8	27.2	0.00e+00	0	41	0	3529506816	36	6268
2026-01-19 16:19:10.80	175.40	21.45	-32.3	-32.9	27.2	0.00e+00	0	41	0	3534749696	36	6340
2026-01-19 16:19:11.81	175.49	21.31	-32.5	-33.2	27.1	0.00e+00	0	41	0	3539992576	36	6604
2026-01-19 16:19:12.82	175.58	21.18	-32.5	-33.1	27.2	0.00e+00	0	41	0	3546284032	36	6496
2026-01-19 16:19:13.83	175.67	21.05	-32.4	-33.1	27.2	0.00e+00	0	41	0	3551526912	36	6500
2026-01-19 16:19:14.84	175.76	20.92	-32.6	-33.2	27.1	0.00e+00	0	41	0	3557818368	36	6614
2026-01-19 16:19:15.85	175.85	20.79	-32.4	-33.1	27.1	0.00e+00	0	41	0	3563061248	36	6491
2026-01-19 16:19:16.86	175.94	20.66	-32.3	-33.0	27.1	0.00e+00	0	41	0	3569352704	36	6433
2026-01-19 16:19:17.87	176.02	20.54	-32.3	-32.9	27.0	0.00e+00	0	41	0	3574595584	36	6353
2026-01-19 16:19:18.88	176.11	20.41	-32.4	-32.9	27.1	0.00e+00	0	41	0	3579838464	36	6370
2026-01-19 16:19:19.89	176.20	20.28	-32.3	-32.9	27.1	0.00e+00	0	41	0	3586129920	36	6331
2026-01-19 16:19:20.90	176.28	20.15	-32.5	-33.0	27.0	0.00e+00	0	41	0	3591372800	36	6450
2026-01-19 16:19:21.91	176.36	20.03	-32.5	-33.0	27.0	0.00e+00	0	41	0	3596615680	36	6458
2026-01-19 16:19:22.92	176.45	19.90	-32.5	-33.1	26.9	0.00e+00	0	41	0	3602907136	36	6470
2026-01-19 16:19:23.92	176.53	19.78	-32.5	-33.0	26.8	0.00e+00	0	41	0	3608150016	36	6452
2026-01-19 16:19:24.94	176.61	19.65	-32.5	-33.1	26.9	0.00e+00	0	41	0	3614441472	36	6476
2026-01-19 16:19:25.95	176.69	19.53	-32.6	-33.2	26.7	0.00e+00	0	41	0	3619684352	36	6577
2026-01-19 16:19:26.95	176.77	19.41	-32.5	-33.1	26.8	0.00e+00	0	41	0	3625975808	36	6509
2026-01-19 16:19:27.96	176.85	19.29	-32.6	-33.2	26.6	0.00e+00	0	41	0	3631218688	36	6590
2026-01-19 16:19:28.97	176.93	19.16	-32.7	-33.2	26.6	0.00e+00	0	41	0	3637510144	36	6596
2026-01-19 16:19:29.98	177.01	19.04	-32.8	-33.4	26.6	0.00e+00	0	41	0	3642753024	38	5966
2026-01-19 16:19:30.99	177.09	18.92	-32.7	-33.5	26.5	0.00e+00	0	41	0	3647995904	38	6038
2026-01-19 16:19:32.00	177.17	18.80	-32.8	-33.5	26.4	0.00e+00	0	41	0	3654287360	38	6093
2026-01-19 16:19:33.01	177.25	18.68	-32.8	-33.5	26.4	0.00e+00	0	41	0	3659530240	38	6068
2026-01-19 16:19:34.02	177.32	18.56	-32.9	-33.6	26.4	0.00e+00	0	41	0	3665821696	38	6158
2026-01-19 16:19:35.03	177.40	18.44	-33.0	-33.7	26.4	0.00e+00	0	41	0	3671064576	38	6190
