passes_logs/2026/01/12/R3.2S_Murmansk/R3.2S_Murmansk__20260112_002729_SUOMI_NPP_rec.log

#Pass ID: 20260112_002729_SUOMI NPP
#Satellite: SUOMI NPP
#Configuration: NPP
#almurnet v.1.7.20251203
#Start time: 2026-01-12 00:27:31

#Version: 2.2.20231116
#Station: R3.2S_Murmansk
#Location: 33.079688 lon 68.888172 lat
#TLE: 1 37849U 11061A   26011.57971124  .00000103  00000+0  69927-4 0  9996
#TLE: 2 37849  98.7807 313.6578 0002518  69.5076 290.6370 14.19524515736228

#Time	Az	El	Level	Level2	SNR	BER	BlckErr	Temp	State	Recorded	gain1	gain2
2026-01-12 00:27:31.44	23.49	2.13	-57.1	-73.0	3.8	1.49e+00	0	21	0	0	80	22440
2026-01-12 00:27:32.44	23.50	2.19	-57.1	-73.0	3.8	1.49e+00	0	21	104	0	79	23818
2026-01-12 00:27:33.45	23.51	2.25	-57.1	-73.0	3.8	1.49e+00	0	21	104	0	79	23831
2026-01-12 00:27:34.47	23.53	2.32	-57.1	-73.0	3.8	1.49e+00	0	21	104	0	79	23776
2026-01-12 00:27:35.47	23.54	2.38	-57.1	-73.0	3.8	1.49e+00	0	21	104	0	79	23850
2026-01-12 00:27:36.48	23.55	2.45	-57.1	-73.0	3.8	1.49e+00	0	21	104	0	79	23837
2026-01-12 00:27:37.49	23.56	2.51	-57.1	-73.0	3.8	1.49e+00	0	21	104	0	79	23797
2026-01-12 00:27:38.49	23.58	2.58	-57.1	-73.0	3.8	1.49e+00	0	21	104	0	79	23702
2026-01-12 00:27:39.50	23.59	2.64	-57.1	-72.9	3.8	1.49e+00	0	21	104	0	79	23572
2026-01-12 00:27:40.51	23.60	2.71	-57.1	-72.8	3.8	1.49e+00	0	21	104	0	79	23217
2026-01-12 00:27:41.52	23.61	2.78	-57.1	-72.7	3.8	1.49e+00	0	21	104	0	79	22819
2026-01-12 00:27:42.53	23.62	2.84	-57.1	-72.3	3.8	1.49e+00	0	21	104	0	79	22006
2026-01-12 00:27:43.54	23.64	2.91	-57.1	-72.2	3.8	1.49e+00	0	21	104	0	79	21587
2026-01-12 00:27:44.55	23.65	2.98	-57.0	-71.8	3.8	1.49e+00	0	21	104	0	79	20675
2026-01-12 00:27:45.56	23.66	3.04	-57.0	-71.5	3.8	1.49e+00	0	21	104	0	79	20024
2026-01-12 00:27:46.57	23.68	3.11	-57.0	-71.4	3.8	1.49e+00	0	21	104	0	79	19826
2026-01-12 00:27:47.58	23.69	3.18	-57.0	-71.3	3.8	1.49e+00	0	21	104	0	79	19405
2026-01-12 00:27:48.59	23.70	3.24	-57.0	-71.0	3.8	1.49e+00	0	21	104	0	79	18925
2026-01-12 00:27:49.60	23.71	3.31	-57.0	-71.1	3.8	1.49e+00	0	21	104	0	79	19142
2026-01-12 00:27:50.60	23.73	3.38	-57.0	-70.8	3.9	1.49e+00	0	21	104	0	79	18321
2026-01-12 00:27:51.61	23.74	3.44	-57.0	-70.8	3.8	1.48e+00	0	21	104	0	79	18382
2026-01-12 00:27:52.62	23.75	3.51	-57.0	-70.5	3.9	1.49e+00	0	21	104	0	79	17698
2026-01-12 00:27:53.63	23.76	3.58	-57.0	-69.9	4.1	1.47e+00	0	21	104	0	79	16597
2026-01-12 00:27:54.64	23.78	3.65	-56.9	-69.1	4.3	1.40e+00	15	21	0	0	79	15109
2026-01-12 00:27:55.64	23.79	3.71	-56.8	-68.1	4.7	9.90e-01	0	21	0	1048576	79	13426
2026-01-12 00:27:56.65	23.80	3.78	-56.7	-66.7	5.4	5.98e-01	0	22	0	3145728	79	11474
2026-01-12 00:27:57.66	23.82	3.85	-56.6	-65.8	6.0	3.80e-01	0	21	0	5242880	79	10343
2026-01-12 00:27:58.67	23.83	3.92	-56.4	-64.6	6.9	1.75e-01	0	21	0	7340032	79	8996
2026-01-12 00:27:59.68	23.84	3.99	-56.1	-62.9	8.4	5.04e-02	0	22	0	9437184	78	7843
2026-01-12 00:28:00.69	23.86	4.06	-56.0	-62.6	8.6	2.18e-02	0	21	0	10485760	78	7572
2026-01-12 00:28:01.70	23.87	4.13	-55.9	-62.1	9.0	1.85e-02	0	21	0	12582912	78	7192
2026-01-12 00:28:02.71	23.88	4.20	-55.6	-61.1	9.9	5.97e-03	0	21	0	14680064	77	6733
2026-01-12 00:28:03.72	23.90	4.27	-55.6	-61.1	10.0	3.33e-03	0	22	0	16777216	77	6728
2026-01-12 00:28:04.73	23.91	4.34	-55.3	-60.4	10.6	1.73e-03	0	22	0	18874368	77	6219
2026-01-12 00:28:05.74	23.92	4.41	-55.3	-60.2	10.7	5.23e-04	0	21	0	19922944	77	6124
2026-01-12 00:28:06.75	23.94	4.48	-55.3	-60.4	10.6	8.56e-04	0	22	0	22020096	77	6239
2026-01-12 00:28:07.76	23.95	4.55	-55.3	-60.3	10.7	7.80e-04	0	22	0	24117248	77	6180
2026-01-12 00:28:08.76	23.96	4.62	-55.3	-60.3	10.5	8.32e-04	0	22	0	26214400	76	6569
2026-01-12 00:28:09.77	23.98	4.69	-55.3	-60.5	10.4	1.01e-03	0	22	0	28311552	76	6701
2026-01-12 00:28:10.78	23.99	4.76	-55.5	-61.0	10.0	1.76e-03	0	22	0	29360128	76	7110
2026-01-12 00:28:11.79	24.00	4.83	-55.6	-61.3	9.6	5.33e-03	0	22	0	31457280	76	7356
2026-01-12 00:28:12.80	24.02	4.90	-55.7	-61.8	9.2	5.96e-03	0	22	0	33554432	76	7794
2026-01-12 00:28:13.81	24.03	4.97	-56.1	-63.0	8.1	2.03e-02	0	22	0	35651584	77	8457
2026-01-12 00:28:14.82	24.05	5.04	-56.1	-63.4	7.9	3.75e-02	0	22	0	37748736	77	8812
2026-01-12 00:28:15.83	24.06	5.11	-54.4	-58.0	12.4	3.69e-03	0	22	0	38797312	75	5338
2026-01-12 00:28:16.83	24.07	5.19	-55.7	-61.6	9.6	2.20e-06	0	22	0	40894464	76	7580
2026-01-12 00:28:17.84	24.09	5.26	-56.8	-66.7	5.5	2.57e-02	0	22	0	42991616	78	12111
2026-01-12 00:28:18.85	24.10	5.33	-54.5	-58.3	12.2	5.92e-02	0	22	0	45088768	75	5522
2026-01-12 00:28:19.86	24.11	5.40	-56.7	-67.8	4.8	2.75e-02	0	22	0	47185920	78	13787
2026-01-12 00:28:20.86	24.13	5.48	-54.3	-58.0	12.4	4.70e-01	0	22	0	48234496	75	5325
2026-01-12 00:28:21.87	24.14	5.55	-54.0	-57.4	12.8	2.20e-06	0	22	0	50331648	74	5257
2026-01-12 00:28:22.88	24.16	5.62	-53.7	-56.8	13.3	0.00e+00	0	22	0	52428800	74	4895
2026-01-12 00:28:23.89	24.17	5.69	-53.5	-56.6	13.3	0.00e+00	0	22	0	54525952	73	5051
2026-01-12 00:28:24.90	24.19	5.77	-53.6	-56.7	13.3	0.00e+00	0	22	0	56623104	73	5121
2026-01-12 00:28:25.90	24.20	5.84	-53.4	-56.4	13.4	0.00e+00	0	22	0	58720256	73	4976
2026-01-12 00:28:26.91	24.21	5.92	-53.4	-56.4	13.5	0.00e+00	0	22	0	59768832	73	4934
2026-01-12 00:28:27.92	24.23	5.99	-53.3	-56.1	13.7	0.00e+00	0	22	0	61865984	73	4809
2026-01-12 00:28:28.93	24.24	6.06	-53.3	-56.1	13.7	0.00e+00	0	22	0	63963136	73	4791
2026-01-12 00:28:29.93	24.26	6.14	-53.3	-56.1	13.7	0.00e+00	0	22	0	66060288	73	4779
2026-01-12 00:28:30.94	24.27	6.21	-53.4	-56.4	13.5	0.00e+00	0	22	0	67108864	73	4937
2026-01-12 00:28:31.95	24.29	6.29	-53.2	-56.0	13.8	0.00e+00	0	22	0	69206016	73	4730
2026-01-12 00:28:32.96	24.30	6.36	-53.3	-56.2	13.6	0.00e+00	0	22	0	71303168	73	4846
2026-01-12 00:28:33.97	24.32	6.44	-53.1	-55.8	13.8	0.00e+00	0	22	0	73400320	72	4889
2026-01-12 00:28:34.97	24.33	6.51	-53.0	-55.7	13.9	0.00e+00	0	22	0	75497472	72	4823
2026-01-12 00:28:35.98	24.34	6.59	-53.3	-56.1	13.6	0.00e+00	0	22	0	76546048	72	5047
2026-01-12 00:28:36.99	24.36	6.67	-53.0	-55.7	13.9	0.00e+00	0	22	0	78643200	72	4830
2026-01-12 00:28:37.99	24.37	6.74	-53.1	-55.8	13.8	0.00e+00	0	22	0	80740352	72	4887
2026-01-12 00:28:39.00	24.39	6.82	-53.0	-55.7	13.9	0.00e+00	0	22	0	82837504	72	4820
2026-01-12 00:28:40.01	24.40	6.90	-52.9	-55.5	14.1	0.00e+00	0	22	0	84934656	72	4730
2026-01-12 00:28:41.02	24.42	6.97	-52.9	-55.5	14.0	0.00e+00	0	22	0	87031808	72	4743
2026-01-12 00:28:42.03	24.43	7.05	-53.0	-55.6	14.0	0.00e+00	0	22	0	88080384	72	4768
2026-01-12 00:28:43.04	24.45	7.13	-52.7	-55.2	14.1	0.00e+00	0	22	0	90177536	71	4821
2026-01-12 00:28:44.04	24.47	7.20	-52.9	-55.4	13.9	0.00e+00	0	22	0	92274688	71	4979
2026-01-12 00:28:45.05	24.48	7.28	-52.7	-55.3	14.1	0.00e+00	0	22	0	94371840	71	4874
2026-01-12 00:28:46.06	24.50	7.36	-52.8	-55.3	14.0	0.00e+00	0	22	0	96468992	71	4908
2026-01-12 00:28:47.07	24.51	7.44	-52.8	-55.4	14.0	0.00e+00	0	22	0	97517568	71	4966
2026-01-12 00:28:48.08	24.53	7.52	-52.9	-55.4	14.0	0.00e+00	0	22	0	99614720	71	4969
2026-01-12 00:28:49.08	24.54	7.60	-52.8	-55.4	14.0	0.00e+00	0	22	0	101711872	71	4961
2026-01-12 00:28:50.09	24.56	7.67	-53.0	-55.6	13.9	0.00e+00	0	22	0	103809024	71	5056
2026-01-12 00:28:51.09	24.57	7.75	-52.7	-55.2	14.1	0.00e+00	0	22	0	104857600	71	4857
2026-01-12 00:28:52.10	24.59	7.83	-52.8	-55.4	14.0	0.00e+00	0	22	0	106954752	71	4935
2026-01-12 00:28:53.11	24.60	7.91	-52.7	-55.2	14.1	0.00e+00	0	22	0	109051904	71	4857
2026-01-12 00:28:54.11	24.62	7.99	-52.6	-55.0	14.3	0.00e+00	0	22	0	111149056	71	4712
2026-01-12 00:28:55.12	24.64	8.07	-52.5	-54.9	14.3	0.00e+00	0	22	0	113246208	71	4686
2026-01-12 00:28:56.13	24.65	8.15	-52.5	-54.8	14.4	0.00e+00	0	22	0	115343360	71	4645
2026-01-12 00:28:57.14	24.67	8.23	-52.5	-54.8	14.4	0.00e+00	0	22	0	116391936	71	4620
2026-01-12 00:28:58.15	24.68	8.32	-52.4	-54.7	14.4	0.00e+00	0	22	0	118489088	71	4590
2026-01-12 00:28:59.15	24.70	8.40	-52.5	-54.9	14.3	0.00e+00	0	22	0	120586240	71	4657
2026-01-12 00:29:00.16	24.72	8.48	-52.4	-54.6	14.5	0.00e+00	0	22	0	122683392	71	4545
2026-01-12 00:29:01.17	24.73	8.56	-52.4	-54.6	14.5	0.00e+00	0	22	0	124780544	71	4534
2026-01-12 00:29:02.18	24.75	8.64	-52.4	-54.6	14.5	0.00e+00	0	22	0	125829120	71	4539
2026-01-12 00:29:03.19	24.77	8.73	-52.4	-54.6	14.5	0.00e+00	0	22	0	127926272	71	4522
2026-01-12 00:29:04.20	24.78	8.81	-52.3	-54.5	14.6	0.00e+00	0	22	0	130023424	71	4477
2026-01-12 00:29:05.21	24.80	8.89	-52.4	-54.7	14.5	0.00e+00	0	22	0	132120576	71	4570
2026-01-12 00:29:06.22	24.82	8.97	-52.4	-54.6	14.5	0.00e+00	0	22	0	134217728	71	4537
2026-01-12 00:29:07.22	24.83	9.06	-52.5	-54.8	14.4	0.00e+00	0	22	0	135266304	71	4606
2026-01-12 00:29:08.23	24.85	9.14	-52.4	-54.6	14.5	0.00e+00	0	22	0	137363456	71	4536
2026-01-12 00:29:09.24	24.87	9.23	-52.2	-54.4	14.7	0.00e+00	0	22	0	139460608	71	4399
2026-01-12 00:29:10.25	24.88	9.31	-52.1	-54.3	14.6	0.00e+00	0	22	0	141557760	70	4599
2026-01-12 00:29:11.25	24.90	9.39	-52.2	-54.4	14.5	0.00e+00	0	22	0	143654912	70	4677
2026-01-12 00:29:12.26	24.92	9.48	-52.2	-54.4	14.5	0.00e+00	0	22	0	144703488	70	4662
2026-01-12 00:29:13.27	24.93	9.56	-52.2	-54.5	14.5	0.00e+00	0	22	0	146800640	70	4711
2026-01-12 00:29:14.28	24.95	9.65	-52.1	-54.3	14.5	0.00e+00	0	22	0	148897792	70	4624
2026-01-12 00:29:15.29	24.97	9.74	-52.0	-54.1	14.7	0.00e+00	0	22	0	150994944	70	4542
2026-01-12 00:29:16.29	24.99	9.82	-52.0	-54.1	14.7	0.00e+00	0	22	0	153092096	70	4536
2026-01-12 00:29:17.30	25.00	9.91	-52.0	-54.1	14.7	0.00e+00	0	22	0	154140672	70	4542
2026-01-12 00:29:18.31	25.02	10.00	-52.1	-54.2	14.6	0.00e+00	0	22	0	156237824	70	4577
2026-01-12 00:29:19.32	25.04	10.08	-52.0	-54.1	14.7	0.00e+00	0	22	0	158334976	70	4503
2026-01-12 00:29:20.33	25.06	10.17	-52.0	-54.1	14.7	0.00e+00	0	22	0	160432128	70	4529
2026-01-12 00:29:21.33	25.07	10.26	-51.9	-54.0	14.8	0.00e+00	0	22	0	162529280	70	4464
2026-01-12 00:29:22.34	25.09	10.35	-51.9	-54.0	14.7	0.00e+00	0	22	0	163577856	70	4484
2026-01-12 00:29:23.35	25.11	10.43	-51.9	-54.0	14.8	0.00e+00	0	22	0	165675008	70	4462
2026-01-12 00:29:24.36	25.13	10.52	-51.8	-53.9	14.8	0.00e+00	0	22	0	167772160	70	4401
2026-01-12 00:29:25.37	25.14	10.61	-51.9	-54.0	14.8	0.00e+00	0	22	0	169869312	70	4455
2026-01-12 00:29:26.37	25.16	10.70	-51.7	-53.7	14.9	0.00e+00	0	22	0	171966464	70	4331
2026-01-12 00:29:27.38	25.18	10.79	-51.8	-53.8	14.9	0.00e+00	0	23	0	173015040	70	4365
2026-01-12 00:29:28.39	25.20	10.88	-51.6	-53.6	14.8	0.00e+00	0	22	0	175112192	69	4512
2026-01-12 00:29:29.40	25.22	10.97	-51.6	-53.5	14.9	0.00e+00	0	22	0	177209344	69	4493
2026-01-12 00:29:30.41	25.24	11.06	-51.6	-53.6	14.8	0.00e+00	0	22	0	179306496	69	4523
2026-01-12 00:29:31.42	25.25	11.15	-51.5	-53.4	14.9	0.00e+00	0	22	0	181403648	69	4438
2026-01-12 00:29:32.43	25.27	11.24	-51.5	-53.4	15.0	0.00e+00	0	22	0	182452224	69	4415
2026-01-12 00:29:33.44	25.29	11.33	-51.6	-53.6	14.8	0.00e+00	0	22	0	184549376	69	4512
2026-01-12 00:29:34.44	25.31	11.43	-51.5	-53.4	15.0	0.00e+00	0	22	0	186646528	69	4401
2026-01-12 00:29:35.45	25.33	11.52	-51.3	-53.1	15.1	0.00e+00	0	22	0	188743680	69	4271
2026-01-12 00:29:36.45	25.35	11.61	-51.3	-53.2	15.1	0.00e+00	0	22	0	190840832	69	4317
2026-01-12 00:29:37.46	25.37	11.70	-51.3	-53.1	15.1	0.00e+00	0	22	0	191889408	69	4286
2026-01-12 00:29:38.46	25.39	11.80	-51.1	-53.0	15.0	0.00e+00	0	22	0	193986560	68	4459
2026-01-12 00:29:39.47	25.41	11.89	-51.1	-53.0	15.0	0.00e+00	0	22	0	196083712	68	4457
2026-01-12 00:29:40.48	25.43	11.98	-51.1	-52.9	15.0	0.00e+00	0	23	0	198180864	68	4411
2026-01-12 00:29:41.49	25.44	12.08	-51.2	-53.1	15.0	0.00e+00	0	22	0	200278016	68	4513
2026-01-12 00:29:42.49	25.46	12.17	-51.1	-52.9	15.1	0.00e+00	0	23	0	201326592	68	4411
2026-01-12 00:29:43.50	25.48	12.27	-50.9	-52.7	15.2	0.00e+00	0	22	0	203423744	68	4315
2026-01-12 00:29:44.51	25.50	12.36	-51.0	-52.8	15.2	0.00e+00	0	22	0	205520896	68	4342
2026-01-12 00:29:45.52	25.52	12.46	-51.0	-52.7	15.2	0.00e+00	0	22	0	207618048	68	4326
2026-01-12 00:29:46.53	25.54	12.56	-51.0	-52.8	15.2	0.00e+00	0	22	0	209715200	68	4356
2026-01-12 00:29:47.54	25.56	12.65	-50.8	-52.5	15.3	0.00e+00	0	22	0	210763776	68	4223
2026-01-12 00:29:48.55	25.58	12.75	-50.9	-52.7	15.2	0.00e+00	0	22	0	212860928	68	4307
2026-01-12 00:29:49.55	25.60	12.85	-50.9	-52.6	15.2	0.00e+00	0	23	0	214958080	68	4282
2026-01-12 00:29:50.55	25.62	12.94	-50.8	-52.5	15.3	0.00e+00	0	23	0	217055232	68	4212
2026-01-12 00:29:51.56	25.64	13.04	-50.8	-52.6	15.3	0.00e+00	0	23	0	219152384	68	4251
2026-01-12 00:29:52.57	25.67	13.14	-50.8	-52.5	15.3	0.00e+00	0	22	0	220200960	68	4225
2026-01-12 00:29:53.58	25.69	13.24	-50.8	-52.5	15.3	0.00e+00	0	22	0	222298112	68	4203
2026-01-12 00:29:54.59	25.71	13.34	-50.9	-52.6	15.2	0.00e+00	0	22	0	224395264	68	4274
2026-01-12 00:29:55.60	25.73	13.44	-50.7	-52.4	15.4	0.00e+00	0	23	0	226492416	68	4176
2026-01-12 00:29:56.61	25.75	13.54	-50.5	-52.1	15.3	0.00e+00	0	23	0	228589568	67	4289
2026-01-12 00:29:57.61	25.77	13.64	-50.6	-52.3	15.2	0.00e+00	0	22	0	229638144	67	4355
2026-01-12 00:29:58.62	25.79	13.74	-50.6	-52.3	15.2	0.00e+00	0	22	0	231735296	67	4347
2026-01-12 00:29:59.63	25.81	13.84	-50.6	-52.3	15.2	0.00e+00	0	23	0	233832448	67	4391
2026-01-12 00:30:00.64	25.83	13.94	-50.4	-52.1	15.3	0.00e+00	0	23	0	235929600	67	4274
2026-01-12 00:30:01.65	25.86	14.05	-50.5	-52.2	15.2	0.00e+00	0	22	0	238026752	67	4323
2026-01-12 00:30:02.66	25.88	14.15	-50.5	-52.2	15.2	0.00e+00	0	23	0	240123904	67	4328
2026-01-12 00:30:03.66	25.90	14.25	-50.5	-52.1	15.3	0.00e+00	0	22	0	241172480	67	4279
2026-01-12 00:30:04.67	25.92	14.35	-50.4	-52.1	15.3	0.00e+00	0	23	0	243269632	67	4276
2026-01-12 00:30:05.68	25.94	14.46	-50.5	-52.2	15.3	0.00e+00	0	23	0	245366784	67	4300
2026-01-12 00:30:06.68	25.97	14.56	-50.4	-52.0	15.3	0.00e+00	0	23	0	247463936	67	4233
2026-01-12 00:30:07.70	25.99	14.67	-50.4	-52.1	15.3	0.00e+00	0	23	0	249561088	67	4255
2026-01-12 00:30:08.71	26.01	14.77	-50.4	-52.0	15.3	0.00e+00	0	22	0	250609664	67	4228
2026-01-12 00:30:09.72	26.03	14.88	-50.4	-52.1	15.3	0.00e+00	0	23	0	252706816	67	4267
2026-01-12 00:30:10.73	26.06	14.99	-50.5	-52.2	15.3	0.00e+00	0	23	0	254803968	67	4310
2026-01-12 00:30:11.74	26.08	15.09	-50.5	-52.2	15.3	0.00e+00	0	23	0	256901120	67	4305
2026-01-12 00:30:12.74	26.10	15.20	-50.6	-52.2	15.2	0.00e+00	0	22	0	257949696	67	4336
2026-01-12 00:30:13.75	26.12	15.31	-50.4	-52.0	15.3	0.00e+00	0	22	0	260046848	67	4241
2026-01-12 00:30:14.76	26.15	15.42	-50.6	-52.3	15.2	0.00e+00	0	23	0	262144000	67	4341
2026-01-12 00:30:15.77	26.17	15.52	-50.5	-52.2	15.3	0.00e+00	0	22	0	264241152	67	4294
2026-01-12 00:30:16.78	26.19	15.63	-50.5	-52.2	15.2	0.00e+00	0	23	0	266338304	67	4326
2026-01-12 00:30:17.78	26.22	15.74	-50.5	-52.2	15.2	0.00e+00	0	23	0	268435456	67	4317
2026-01-12 00:30:18.79	26.24	15.85	-50.5	-52.2	15.2	0.00e+00	0	22	0	269484032	67	4323
2026-01-12 00:30:19.80	26.27	15.96	-50.4	-52.0	15.4	0.00e+00	0	23	0	271581184	67	4221
2026-01-12 00:30:20.81	26.29	16.07	-50.5	-52.1	15.3	0.00e+00	0	23	0	273678336	67	4283
2026-01-12 00:30:21.82	26.31	16.19	-50.6	-52.4	15.2	0.00e+00	0	22	0	275775488	67	4393
2026-01-12 00:30:22.83	26.34	16.30	-50.5	-52.2	15.2	0.00e+00	0	23	0	277872640	67	4307
2026-01-12 00:30:23.84	26.36	16.41	-50.7	-52.4	15.1	0.00e+00	0	23	0	278921216	67	4401
2026-01-12 00:30:24.85	26.39	16.53	-50.7	-52.4	15.2	0.00e+00	0	22	0	281018368	67	4414
2026-01-12 00:30:25.86	26.41	16.64	-50.7	-52.5	15.1	0.00e+00	0	22	0	283115520	67	4456
2026-01-12 00:30:26.86	26.44	16.75	-50.8	-52.5	15.1	0.00e+00	0	22	0	285212672	67	4456
2026-01-12 00:30:27.87	26.46	16.87	-51.0	-52.8	15.0	0.00e+00	0	23	0	287309824	67	4621
2026-01-12 00:30:28.88	26.49	16.98	-51.0	-52.8	14.9	0.00e+00	0	23	0	288358400	67	4645
2026-01-12 00:30:29.89	26.51	17.10	-50.9	-52.7	15.0	0.00e+00	0	23	0	290455552	67	4571
2026-01-12 00:30:30.90	26.54	17.22	-50.9	-52.7	15.0	0.00e+00	0	23	0	292552704	67	4560
2026-01-12 00:30:31.90	26.57	17.33	-51.0	-52.8	15.0	0.00e+00	0	22	0	294649856	67	4615
2026-01-12 00:30:32.91	26.59	17.45	-51.0	-52.8	14.9	0.00e+00	0	22	0	296747008	67	4643
2026-01-12 00:30:33.92	26.62	17.57	-51.1	-52.9	14.9	0.00e+00	0	23	0	297795584	67	4682
2026-01-12 00:30:34.93	26.64	17.69	-51.1	-53.0	14.9	0.00e+00	0	23	0	299892736	67	4719
2026-01-12 00:30:35.94	26.67	17.81	-51.1	-53.0	14.9	0.00e+00	0	22	0	301989888	67	4722
2026-01-12 00:30:36.95	26.70	17.93	-51.2	-53.0	14.8	0.00e+00	0	22	0	304087040	67	4737
2026-01-12 00:30:37.96	26.72	18.05	-51.2	-53.0	14.8	0.00e+00	0	23	0	306184192	67	4733
2026-01-12 00:30:38.97	26.75	18.17	-51.2	-53.0	14.8	0.00e+00	0	23	0	307232768	67	4758
2026-01-12 00:30:39.97	26.78	18.29	-51.1	-53.0	14.9	0.00e+00	0	22	0	309329920	67	4706
2026-01-12 00:30:40.98	26.81	18.41	-51.3	-53.2	14.7	0.00e+00	0	23	0	311427072	67	4844
2026-01-12 00:30:41.99	26.83	18.53	-51.3	-53.2	14.7	0.00e+00	0	23	0	313524224	67	4848
2026-01-12 00:30:43.00	26.86	18.66	-51.5	-53.4	14.9	0.00e+00	0	23	0	315621376	68	4662
2026-01-12 00:30:44.01	26.89	18.78	-51.6	-53.5	14.8	0.00e+00	0	23	0	316669952	68	4741
2026-01-12 00:30:45.01	26.92	18.90	-51.7	-53.6	14.7	0.00e+00	0	23	0	318767104	68	4781
2026-01-12 00:30:46.02	26.95	19.03	-51.8	-53.8	14.6	0.00e+00	0	23	0	320864256	68	4892
2026-01-12 00:30:47.03	26.97	19.16	-51.9	-53.8	14.8	0.00e+00	0	23	0	322961408	69	4630
2026-01-12 00:30:48.04	27.00	19.28	-52.0	-54.0	14.7	0.00e+00	0	23	0	325058560	69	4709
2026-01-12 00:30:49.05	27.03	19.41	-52.1	-54.1	14.6	0.00e+00	0	23	0	326107136	69	4775
2026-01-12 00:30:50.05	27.06	19.54	-52.2	-54.3	14.5	0.00e+00	0	23	0	328204288	69	4917
2026-01-12 00:30:51.07	27.09	19.67	-52.3	-54.3	14.5	0.00e+00	0	23	0	330301440	69	4926
2026-01-12 00:30:52.07	27.12	19.79	-52.3	-54.4	14.4	0.00e+00	0	23	0	332398592	69	4976
2026-01-12 00:30:53.08	27.15	19.92	-52.2	-54.3	14.5	0.00e+00	0	23	0	334495744	69	4877
2026-01-12 00:30:54.09	27.18	20.05	-52.4	-54.6	14.5	0.00e+00	0	23	0	335544320	70	4778
2026-01-12 00:30:55.09	27.21	20.18	-52.4	-54.5	14.5	0.00e+00	0	23	0	337641472	70	4742
2026-01-12 00:30:56.10	27.24	20.32	-52.6	-54.8	14.3	0.00e+00	0	23	0	339738624	70	4921
2026-01-12 00:30:57.11	27.27	20.45	-52.4	-54.5	14.5	0.00e+00	0	23	0	341835776	70	4749
2026-01-12 00:30:58.12	27.30	20.58	-52.4	-54.4	14.5	0.00e+00	0	23	0	343932928	70	4700
2026-01-12 00:30:59.13	27.33	20.72	-52.3	-54.3	14.7	0.00e+00	0	23	0	344981504	70	4625
2026-01-12 00:31:00.14	27.36	20.85	-52.4	-54.5	14.5	0.00e+00	0	23	0	347078656	70	4745
2026-01-12 00:31:01.15	27.40	20.99	-52.3	-54.3	14.7	0.00e+00	0	23	0	349175808	70	4638
2026-01-12 00:31:02.15	27.43	21.12	-52.5	-54.6	14.5	0.00e+00	0	23	0	351272960	70	4800
2026-01-12 00:31:03.15	27.46	21.26	-52.6	-54.8	14.4	0.00e+00	0	23	0	353370112	70	4874
2026-01-12 00:31:04.15	27.49	21.39	-52.5	-54.7	14.4	0.00e+00	0	23	0	354418688	70	4833
2026-01-12 00:31:05.16	27.52	21.53	-52.5	-54.7	14.5	0.00e+00	0	22	0	356515840	70	4830
2026-01-12 00:31:06.17	27.56	21.67	-52.3	-54.3	14.6	0.00e+00	0	23	0	358612992	70	4640
2026-01-12 00:31:07.17	27.59	21.81	-52.3	-54.4	14.6	0.00e+00	0	23	0	360710144	70	4685
2026-01-12 00:31:08.18	27.62	21.95	-52.5	-54.6	14.5	0.00e+00	0	23	0	362807296	70	4777
2026-01-12 00:31:09.19	27.66	22.09	-52.3	-54.4	14.6	0.00e+00	0	23	0	364904448	70	4677
2026-01-12 00:31:10.20	27.69	22.24	-52.3	-54.3	14.6	0.00e+00	0	23	0	365953024	70	4648
2026-01-12 00:31:11.21	27.72	22.38	-52.4	-54.4	14.6	0.00e+00	0	22	0	368050176	70	4697
2026-01-12 00:31:12.22	27.76	22.52	-52.4	-54.4	14.6	0.00e+00	0	23	0	370147328	70	4692
2026-01-12 00:31:13.23	27.79	22.67	-52.2	-54.2	14.7	0.00e+00	0	23	0	372244480	70	4577
2026-01-12 00:31:14.23	27.83	22.81	-52.0	-54.0	14.8	0.00e+00	0	23	0	373293056	70	4464
2026-01-12 00:31:15.24	27.86	22.96	-52.0	-54.0	14.9	0.00e+00	0	23	0	375390208	70	4457
2026-01-12 00:31:16.25	27.90	23.11	-51.8	-53.7	15.0	0.00e+00	0	23	0	377487360	70	4304
2026-01-12 00:31:17.26	27.94	23.25	-51.9	-53.9	14.9	0.00e+00	0	23	0	379584512	70	4406
2026-01-12 00:31:18.27	27.97	23.40	-51.8	-53.7	15.0	0.00e+00	0	23	0	381681664	70	4304
2026-01-12 00:31:19.28	28.01	23.55	-51.8	-53.6	15.1	0.00e+00	0	23	0	382730240	70	4283
2026-01-12 00:31:20.29	28.04	23.70	-51.9	-53.8	14.8	0.00e+00	0	23	0	384827392	69	4634
2026-01-12 00:31:21.30	28.08	23.85	-51.8	-53.7	14.8	0.00e+00	0	23	0	386924544	69	4590
2026-01-12 00:31:22.30	28.12	24.01	-51.7	-53.6	14.9	0.00e+00	0	23	0	389021696	69	4509
2026-01-12 00:31:23.31	28.16	24.16	-51.7	-53.5	14.9	0.00e+00	0	23	0	391118848	69	4486
2026-01-12 00:31:24.32	28.19	24.31	-51.7	-53.5	14.9	0.00e+00	0	23	0	393216000	69	4486
2026-01-12 00:31:25.32	28.23	24.47	-51.8	-53.7	14.9	0.00e+00	0	23	0	394264576	69	4573
2026-01-12 00:31:26.32	28.27	24.62	-51.5	-53.4	15.0	0.00e+00	0	23	0	396361728	69	4395
2026-01-12 00:31:27.33	28.31	24.78	-51.5	-53.3	15.1	0.00e+00	0	23	0	398458880	69	4391
2026-01-12 00:31:28.34	28.35	24.94	-51.5	-53.4	15.0	0.00e+00	0	23	0	400556032	69	4401
2026-01-12 00:31:29.35	28.39	25.09	-51.4	-53.2	15.1	0.00e+00	0	23	0	402653184	69	4323
2026-01-12 00:31:30.35	28.43	25.25	-51.4	-53.3	15.1	0.00e+00	0	23	0	403701760	69	4341
2026-01-12 00:31:31.36	28.47	25.41	-51.3	-53.1	15.2	0.00e+00	0	23	0	405798912	69	4261
2026-01-12 00:31:32.37	28.51	25.57	-51.3	-53.0	15.2	0.00e+00	0	23	0	407896064	69	4231
2026-01-12 00:31:33.38	28.55	25.74	-51.4	-53.3	15.1	0.00e+00	0	23	0	409993216	69	4341
2026-01-12 00:31:34.39	28.59	25.90	-51.4	-53.2	15.1	0.00e+00	0	23	0	411041792	69	4331
2026-01-12 00:31:35.40	28.64	26.07	-51.6	-53.5	15.0	0.00e+00	0	23	0	413138944	69	4447
2026-01-12 00:31:36.41	28.68	26.23	-51.6	-53.5	15.0	0.00e+00	0	23	0	415236096	69	4474
2026-01-12 00:31:37.41	28.72	26.40	-51.8	-53.7	14.9	0.00e+00	0	23	0	417333248	69	4561
2026-01-12 00:31:38.42	28.76	26.56	-51.6	-53.5	15.0	0.00e+00	0	23	0	419430400	69	4459
2026-01-12 00:31:39.43	28.81	26.73	-51.6	-53.5	15.0	0.00e+00	0	23	0	421527552	69	4458
2026-01-12 00:31:40.44	28.85	26.90	-51.8	-53.7	14.8	0.00e+00	0	23	0	422576128	69	4594
2026-01-12 00:31:41.44	28.90	27.07	-51.6	-53.5	15.0	0.00e+00	0	23	0	424673280	69	4455
2026-01-12 00:31:42.45	28.94	27.24	-51.6	-53.5	15.0	0.00e+00	0	23	0	426770432	69	4461
2026-01-12 00:31:43.46	28.99	27.42	-51.5	-53.3	15.1	0.00e+00	0	23	0	428867584	69	4351
2026-01-12 00:31:44.47	29.03	27.59	-51.6	-53.4	15.0	0.00e+00	0	23	0	430964736	69	4403
2026-01-12 00:31:45.47	29.08	27.76	-51.6	-53.5	15.0	0.00e+00	0	23	0	432013312	69	4447
2026-01-12 00:31:46.48	29.12	27.94	-51.5	-53.3	15.1	0.00e+00	0	23	0	434110464	69	4354
2026-01-12 00:31:47.49	29.17	28.12	-51.8	-53.7	14.8	0.00e+00	0	23	0	436207616	69	4576
2026-01-12 00:31:48.50	29.22	28.29	-51.9	-53.8	14.8	0.00e+00	0	23	0	438304768	69	4612
2026-01-12 00:31:49.50	29.27	28.47	-51.9	-53.8	14.8	0.00e+00	0	23	0	440401920	69	4624
2026-01-12 00:31:50.51	29.32	28.65	-52.1	-54.1	14.7	0.00e+00	0	23	0	441450496	69	4766
2026-01-12 00:31:51.52	29.36	28.84	-52.0	-54.0	14.7	0.00e+00	0	23	0	443547648	69	4707
2026-01-12 00:31:52.53	29.41	29.02	-52.1	-54.1	14.6	0.00e+00	0	22	0	445644800	69	4768
2026-01-12 00:31:53.53	29.46	29.20	-52.1	-54.1	14.7	0.00e+00	0	23	0	447741952	69	4793
2026-01-12 00:31:54.54	29.51	29.39	-52.1	-54.0	14.7	0.00e+00	0	23	0	449839104	69	4751
2026-01-12 00:31:55.55	29.57	29.57	-52.1	-54.1	14.6	0.00e+00	0	23	0	450887680	69	4777
2026-01-12 00:31:56.56	29.62	29.76	-52.0	-54.0	14.7	0.00e+00	0	23	0	452984832	69	4728
2026-01-12 00:31:57.57	29.67	29.95	-52.1	-54.1	14.6	0.00e+00	0	23	0	455081984	69	4803
2026-01-12 00:31:58.58	29.72	30.14	-51.9	-53.7	14.8	0.00e+00	0	23	0	457179136	69	4587
2026-01-12 00:31:59.58	29.78	30.33	-52.3	-54.3	14.5	0.00e+00	0	23	0	459276288	69	4879
2026-01-12 00:32:00.59	29.83	30.52	-52.1	-54.1	14.9	0.00e+00	0	23	0	460324864	70	4498
2026-01-12 00:32:01.59	29.88	30.71	-52.6	-54.6	14.5	0.00e+00	0	23	0	462422016	70	4803
2026-01-12 00:32:02.60	29.94	30.91	-53.2	-55.5	14.2	0.00e+00	0	22	0	464519168	71	5011
2026-01-12 00:32:03.60	30.00	31.10	-52.9	-55.0	14.5	0.00e+00	0	23	0	466616320	71	4734
2026-01-12 00:32:04.61	30.05	31.30	-52.8	-54.9	14.6	0.00e+00	0	23	0	468713472	71	4676
2026-01-12 00:32:05.62	30.11	31.50	-52.9	-55.1	14.4	0.00e+00	0	22	0	469762048	71	4776
2026-01-12 00:32:06.63	30.17	31.70	-52.9	-55.1	14.4	0.00e+00	0	22	0	471859200	71	4771
2026-01-12 00:32:07.64	30.23	31.90	-53.1	-55.3	14.3	0.00e+00	0	23	0	473956352	71	4907
2026-01-12 00:32:08.65	30.28	32.11	-53.0	-55.2	14.4	0.00e+00	0	23	0	476053504	71	4817
2026-01-12 00:32:09.65	30.34	32.31	-53.2	-55.6	14.1	0.00e+00	0	23	0	478150656	71	5060
2026-01-12 00:32:10.66	30.40	32.52	-53.1	-55.4	14.2	0.00e+00	0	23	0	479199232	71	4970
2026-01-12 00:32:11.67	30.47	32.72	-53.4	-55.7	14.0	0.00e+00	0	23	0	481296384	71	5145
2026-01-12 00:32:12.68	30.53	32.93	-53.3	-55.5	14.3	0.00e+00	0	23	0	483393536	72	4753
2026-01-12 00:32:13.69	30.59	33.14	-53.3	-55.6	14.3	0.00e+00	0	23	0	485490688	72	4810
2026-01-12 00:32:14.70	30.65	33.35	-53.4	-55.8	14.1	0.00e+00	0	23	0	487587840	72	4915
2026-01-12 00:32:15.71	30.72	33.57	-52.9	-55.0	14.6	0.00e+00	0	23	0	488636416	72	4492
2026-01-12 00:32:16.71	30.78	33.78	-53.0	-55.2	14.5	0.00e+00	0	23	0	490733568	72	4569
2026-01-12 00:32:17.72	30.85	34.00	-53.1	-55.3	14.4	0.00e+00	0	22	0	492830720	72	4643
2026-01-12 00:32:18.73	30.92	34.21	-52.7	-54.8	14.6	0.00e+00	0	23	0	494927872	71	4620
2026-01-12 00:32:19.74	30.98	34.43	-53.3	-55.8	14.1	0.00e+00	0	23	0	497025024	71	5164
2026-01-12 00:32:20.75	31.05	34.65	-53.5	-55.9	14.0	0.00e+00	0	23	0	498073600	72	4970
2026-01-12 00:32:21.75	31.12	34.87	-53.2	-55.5	14.3	0.00e+00	0	23	0	500170752	72	4750
2026-01-12 00:32:22.76	31.19	35.10	-53.2	-55.6	14.2	0.00e+00	0	23	0	502267904	72	4773
2026-01-12 00:32:23.77	31.26	35.32	-53.0	-55.2	14.6	0.00e+00	0	23	0	504365056	72	4559
2026-01-12 00:32:24.78	31.33	35.55	-53.0	-55.2	14.5	0.00e+00	0	23	0	506462208	72	4579
2026-01-12 00:32:25.79	31.41	35.78	-52.9	-55.2	14.6	0.00e+00	0	23	0	507510784	72	4552
2026-01-12 00:32:26.80	31.48	36.01	-53.1	-55.3	14.5	0.00e+00	0	23	0	509607936	72	4642
2026-01-12 00:32:27.81	31.56	36.24	-53.2	-55.5	14.3	0.00e+00	0	23	0	511705088	72	4747
2026-01-12 00:32:28.81	31.63	36.47	-53.5	-56.0	14.0	0.00e+00	0	23	0	513802240	72	4998
2026-01-12 00:32:29.82	31.71	36.70	-53.4	-55.8	14.2	0.00e+00	0	23	0	515899392	72	4907
2026-01-12 00:32:30.83	31.79	36.94	-53.5	-56.0	14.0	0.00e+00	0	23	0	516947968	72	5035
2026-01-12 00:32:31.84	31.87	37.18	-53.7	-56.4	13.8	0.00e+00	0	23	0	519045120	72	5243
2026-01-12 00:32:32.85	31.95	37.42	-53.4	-55.9	14.3	0.00e+00	0	23	0	521142272	73	4682
2026-01-12 00:32:33.86	32.03	37.66	-53.3	-55.7	14.4	0.00e+00	0	23	0	523239424	73	4554
2026-01-12 00:32:34.87	32.11	37.90	-53.6	-56.2	14.1	0.00e+00	0	23	0	525336576	73	4819
2026-01-12 00:32:35.88	32.19	38.15	-52.9	-55.1	14.6	0.00e+00	0	23	0	526385152	72	4513
2026-01-12 00:32:36.88	32.28	38.39	-53.1	-55.4	14.5	0.00e+00	0	23	0	528482304	72	4654
2026-01-12 00:32:37.88	32.36	38.64	-53.0	-55.2	14.5	0.00e+00	0	23	0	530579456	72	4595
2026-01-12 00:32:38.89	32.45	38.89	-53.0	-55.2	14.4	0.00e+00	0	23	0	532676608	71	4859
2026-01-12 00:32:39.90	32.54	39.14	-52.8	-55.0	14.5	0.00e+00	0	23	0	534773760	71	4711
2026-01-12 00:32:40.91	32.63	39.40	-52.6	-54.7	14.7	0.00e+00	0	23	0	535822336	71	4580
2026-01-12 00:32:41.92	32.72	39.65	-52.5	-54.5	14.7	0.00e+00	0	23	0	537919488	71	4491
2026-01-12 00:32:42.93	32.81	39.91	-52.5	-54.6	14.8	0.00e+00	0	23	0	540016640	71	4508
2026-01-12 00:32:43.94	32.91	40.17	-52.7	-54.8	14.6	0.00e+00	0	23	0	542113792	71	4605
2026-01-12 00:32:44.94	33.00	40.43	-52.9	-55.1	14.5	0.00e+00	0	23	0	544210944	71	4764
2026-01-12 00:32:45.95	33.10	40.69	-53.2	-55.5	14.2	0.00e+00	0	23	0	546308096	71	4988
2026-01-12 00:32:46.96	33.20	40.95	-53.2	-55.5	14.2	0.00e+00	0	23	0	547356672	71	5037
2026-01-12 00:32:47.97	33.30	41.22	-53.3	-55.7	14.3	0.00e+00	0	23	0	549453824	72	4819
2026-01-12 00:32:48.98	33.40	41.49	-53.4	-55.8	14.2	0.00e+00	0	23	0	551550976	72	4884
2026-01-12 00:32:49.99	33.50	41.76	-53.5	-55.9	14.1	0.00e+00	0	23	0	553648128	72	4981
2026-01-12 00:32:50.99	33.61	42.03	-53.7	-56.3	13.9	0.00e+00	0	23	0	554696704	72	5185
2026-01-12 00:32:51.99	33.71	42.30	-53.5	-56.0	14.0	0.00e+00	0	23	0	556793856	72	5004
2026-01-12 00:32:52.99	33.82	42.57	-53.2	-55.5	14.4	0.00e+00	0	23	0	558891008	72	4740
2026-01-12 00:32:54.00	33.93	42.85	-53.1	-55.4	14.4	0.00e+00	0	23	0	560988160	72	4675
2026-01-12 00:32:55.01	34.04	43.13	-53.1	-55.3	14.5	0.00e+00	0	23	0	563085312	72	4608
2026-01-12 00:32:56.02	34.16	43.41	-52.6	-54.7	14.7	0.00e+00	0	23	0	564133888	71	4552
2026-01-12 00:32:57.03	34.27	43.70	-52.6	-54.6	14.8	0.00e+00	0	23	0	566231040	71	4502
2026-01-12 00:32:58.04	34.39	43.98	-52.4	-54.3	14.9	0.00e+00	0	23	0	568328192	71	4366
2026-01-12 00:32:59.05	34.51	44.27	-52.5	-54.4	14.8	0.00e+00	0	23	0	570425344	71	4435
2026-01-12 00:33:00.06	34.63	44.56	-52.9	-55.0	14.5	0.00e+00	0	23	0	572522496	71	4738
2026-01-12 00:33:01.07	34.76	44.85	-53.5	-55.8	14.1	0.00e+00	0	23	0	574619648	72	4919
2026-01-12 00:33:02.08	34.89	45.15	-53.4	-55.7	14.2	0.00e+00	0	23	0	575668224	72	4862
2026-01-12 00:33:03.08	35.01	45.44	-53.4	-55.7	14.2	0.00e+00	0	23	0	577765376	72	4867
2026-01-12 00:33:04.09	35.14	45.74	-53.6	-56.0	14.1	0.00e+00	0	23	0	579862528	72	5012
2026-01-12 00:33:05.10	35.28	46.04	-54.0	-56.6	13.9	0.00e+00	0	23	0	581959680	73	5053
2026-01-12 00:33:06.11	35.41	46.34	-53.6	-55.9	14.1	0.00e+00	0	23	0	584056832	73	4685
2026-01-12 00:33:07.12	35.55	46.65	-53.8	-56.4	14.0	0.00e+00	0	23	0	585105408	73	4945
2026-01-12 00:33:08.12	35.69	46.95	-53.5	-55.9	14.3	0.00e+00	0	23	0	587202560	73	4677
2026-01-12 00:33:09.13	35.84	47.26	-53.6	-56.0	14.3	0.00e+00	0	23	0	589299712	73	4706
2026-01-12 00:33:10.14	35.98	47.57	-53.5	-55.9	14.3	0.00e+00	0	23	0	591396864	73	4688
2026-01-12 00:33:11.15	36.13	47.88	-53.4	-55.8	14.4	0.00e+00	0	23	0	593494016	73	4624
2026-01-12 00:33:12.16	36.29	48.20	-53.4	-55.8	14.2	0.00e+00	0	23	0	594542592	72	4899
2026-01-12 00:33:13.17	36.44	48.51	-52.7	-54.7	14.8	0.00e+00	0	23	0	596639744	72	4311
2026-01-12 00:33:14.18	36.60	48.83	-52.2	-54.2	15.0	0.00e+00	0	23	0	598736896	71	4292
2026-01-12 00:33:15.19	36.76	49.15	-52.1	-54.0	14.9	0.00e+00	0	23	0	600834048	70	4474
2026-01-12 00:33:16.20	36.93	49.48	-51.5	-53.2	15.2	0.00e+00	0	23	0	602931200	69	4307
2026-01-12 00:33:17.20	37.10	49.80	-51.0	-52.7	15.3	0.00e+00	0	23	0	603979776	68	4298
2026-01-12 00:33:18.21	37.27	50.12	-50.7	-52.3	15.3	0.00e+00	0	23	0	606076928	67	4373
2026-01-12 00:33:19.22	37.45	50.45	-50.6	-52.1	15.4	0.00e+00	0	23	0	608174080	67	4286
2026-01-12 00:33:20.23	37.63	50.79	-50.3	-51.9	15.3	0.00e+00	0	23	0	610271232	66	4417
2026-01-12 00:33:21.24	37.81	51.12	-49.7	-51.1	15.7	0.00e+00	0	23	0	612368384	66	4018
2026-01-12 00:33:22.25	38.00	51.45	-49.4	-50.8	15.6	0.00e+00	0	23	0	613416960	65	4128
2026-01-12 00:33:23.26	38.19	51.79	-49.4	-50.8	15.6	0.00e+00	0	23	0	615514112	65	4108
2026-01-12 00:33:24.27	38.39	52.13	-49.3	-50.7	15.7	0.00e+00	0	23	0	617611264	65	4087
2026-01-12 00:33:25.28	38.59	52.47	-49.7	-51.1	15.5	0.00e+00	0	23	0	619708416	65	4279
2026-01-12 00:33:26.29	38.80	52.82	-49.4	-50.8	15.6	0.00e+00	0	23	0	621805568	65	4110
2026-01-12 00:33:27.29	39.00	53.16	-49.6	-51.1	15.5	0.00e+00	0	23	0	622854144	65	4246
2026-01-12 00:33:28.30	39.22	53.51	-49.5	-51.0	15.6	0.00e+00	0	23	0	624951296	65	4209
2026-01-12 00:33:29.31	39.44	53.86	-49.7	-51.2	15.4	0.00e+00	0	23	0	627048448	65	4302
2026-01-12 00:33:30.32	39.67	54.21	-49.4	-50.8	15.7	0.00e+00	0	23	0	629145600	65	4144
2026-01-12 00:33:31.33	39.90	54.56	-49.1	-50.4	15.6	0.00e+00	0	23	0	631242752	64	4189
2026-01-12 00:33:32.34	40.14	54.92	-48.8	-50.1	15.7	0.00e+00	0	23	0	632291328	64	4020
2026-01-12 00:33:33.35	40.38	55.28	-48.5	-49.8	15.8	0.00e+00	0	23	0	634388480	63	4127
2026-01-12 00:33:34.36	40.63	55.64	-48.1	-49.3	15.7	0.00e+00	0	23	0	636485632	62	4144
2026-01-12 00:33:35.36	40.88	56.00	-48.2	-49.4	15.7	0.00e+00	0	23	0	638582784	62	4180
2026-01-12 00:33:36.37	41.14	56.36	-48.4	-49.7	15.6	0.00e+00	0	23	0	640679936	62	4309
2026-01-12 00:33:37.38	41.41	56.73	-48.7	-50.1	15.5	0.00e+00	0	23	0	641728512	62	4514
2026-01-12 00:33:38.39	41.69	57.09	-49.0	-50.4	15.5	0.00e+00	0	23	0	643825664	63	4405
2026-01-12 00:33:39.39	41.97	57.46	-49.2	-50.6	15.4	0.00e+00	0	23	0	645922816	63	4540
2026-01-12 00:33:40.39	42.26	57.83	-49.3	-50.8	15.5	0.00e+00	0	23	0	648019968	64	4359
2026-01-12 00:33:41.40	42.56	58.20	-49.2	-50.6	15.5	0.00e+00	0	23	0	650117120	64	4264
2026-01-12 00:33:42.41	42.87	58.57	-49.2	-50.7	15.5	0.00e+00	0	23	0	651165696	64	4305
2026-01-12 00:33:43.42	43.18	58.95	-49.1	-50.4	15.6	0.00e+00	0	23	0	653262848	64	4190
2026-01-12 00:33:44.43	43.51	59.32	-49.0	-50.4	15.7	0.00e+00	0	23	0	655360000	64	4153
2026-01-12 00:33:45.44	43.84	59.70	-49.0	-50.3	15.7	0.00e+00	0	23	0	657457152	64	4134
2026-01-12 00:33:46.45	44.19	60.08	-48.9	-50.2	15.7	0.00e+00	0	23	0	659554304	64	4096
2026-01-12 00:33:47.46	44.54	60.46	-48.5	-49.8	15.7	0.00e+00	0	23	0	660602880	63	4134
2026-01-12 00:33:48.46	44.90	60.84	-48.5	-49.8	15.7	0.00e+00	0	23	0	662700032	63	4108
2026-01-12 00:33:49.47	45.28	61.23	-48.1	-49.3	15.8	0.00e+00	0	23	0	664797184	62	4136
2026-01-12 00:33:50.48	45.67	61.61	-48.1	-49.4	15.7	0.00e+00	0	23	0	666894336	62	4157
2026-01-12 00:33:51.49	46.07	62.00	-47.7	-48.9	15.7	0.00e+00	0	23	0	668991488	61	4178
2026-01-12 00:33:52.49	46.48	62.38	-47.3	-48.5	15.9	0.00e+00	0	23	0	671088640	61	3972
2026-01-12 00:33:53.50	46.91	62.77	-47.7	-49.0	15.7	0.00e+00	0	23	0	672137216	61	4203
2026-01-12 00:33:54.51	47.35	63.16	-48.3	-49.7	15.5	0.00e+00	0	23	0	674234368	61	4562
2026-01-12 00:33:55.52	47.80	63.55	-48.8	-50.2	15.5	0.00e+00	0	23	0	676331520	62	4566
2026-01-12 00:33:56.53	48.27	63.94	-48.8	-50.2	15.6	0.00e+00	0	23	0	678428672	63	4311
2026-01-12 00:33:57.53	48.75	64.33	-48.7	-50.1	15.6	0.00e+00	0	23	0	679477248	63	4246
2026-01-12 00:33:58.54	49.25	64.72	-48.8	-50.1	15.6	0.00e+00	0	23	0	681574400	63	4286
2026-01-12 00:33:59.55	49.77	65.11	-48.8	-50.1	15.6	0.00e+00	0	23	0	683671552	63	4272
2026-01-12 00:34:00.55	50.31	65.50	-48.8	-50.1	15.6	0.00e+00	0	23	0	685768704	63	4254
2026-01-12 00:34:01.56	50.86	65.89	-48.9	-50.3	15.6	0.00e+00	0	23	0	687865856	63	4355
2026-01-12 00:34:02.57	51.44	66.28	-49.5	-51.0	15.4	0.00e+00	0	23	0	688914432	64	4458
2026-01-12 00:34:03.58	52.04	66.67	-50.0	-51.5	15.3	0.00e+00	0	23	0	691011584	65	4492
2026-01-12 00:34:04.58	52.66	67.06	-50.6	-52.2	15.2	0.00e+00	0	23	0	693108736	66	4569
2026-01-12 00:34:05.59	53.30	67.45	-50.9	-52.5	15.2	0.00e+00	0	23	0	695205888	67	4478
2026-01-12 00:34:06.60	53.97	67.84	-51.6	-53.4	14.9	0.00e+00	0	23	0	697303040	68	4679
2026-01-12 00:34:07.61	54.66	68.22	-52.7	-54.7	14.6	0.00e+00	0	23	0	699400192	70	4859
2026-01-12 00:34:08.62	55.39	68.61	-53.8	-56.2	14.0	0.00e+00	0	23	0	700448768	72	5130
2026-01-12 00:34:09.62	56.13	68.99	-53.9	-56.3	14.1	0.00e+00	0	23	0	702545920	73	4886
2026-01-12 00:34:10.63	56.91	69.37	-53.6	-55.9	14.4	0.00e+00	0	23	0	704643072	73	4682
2026-01-12 00:34:11.64	57.72	69.76	-53.0	-55.1	14.7	0.00e+00	0	23	0	706740224	72	4528
2026-01-12 00:34:12.65	58.57	70.13	-53.5	-55.7	14.3	0.00e+00	0	23	0	708837376	72	4865
2026-01-12 00:34:13.65	59.44	70.51	-53.6	-56.0	14.2	0.00e+00	0	23	0	709885952	72	4996
2026-01-12 00:34:14.66	60.35	70.88	-54.5	-57.3	13.6	0.00e+00	0	23	0	711983104	74	5168
2026-01-12 00:34:15.68	61.32	71.25	-54.5	-57.3	13.7	0.00e+00	0	23	0	714080256	74	5187
2026-01-12 00:34:16.68	62.30	71.62	-54.2	-56.8	14.0	0.00e+00	0	23	0	716177408	74	4884
2026-01-12 00:34:17.69	63.34	71.98	-55.3	-58.6	12.8	0.00e+00	0	23	0	717225984	75	5673
2026-01-12 00:34:18.70	64.42	72.33	-55.7	-59.2	12.6	1.50e-06	0	23	0	719323136	77	5422
2026-01-12 00:34:19.71	65.55	72.69	-53.8	-56.1	14.3	0.00e+00	0	23	0	721420288	74	4540
2026-01-12 00:34:20.71	66.71	73.03	-52.7	-54.7	14.9	0.00e+00	0	23	0	723517440	72	4306
2026-01-12 00:34:21.72	67.94	73.37	-53.2	-55.3	14.5	0.00e+00	0	23	0	725614592	72	4633
2026-01-12 00:34:22.73	69.22	73.71	-52.3	-54.1	15.0	0.00e+00	0	23	0	727711744	71	4282
2026-01-12 00:34:23.74	70.56	74.03	-51.3	-52.9	15.4	0.00e+00	0	23	0	728760320	69	4164
2026-01-12 00:34:24.74	71.94	74.35	-51.0	-52.6	15.3	0.00e+00	0	23	0	730857472	68	4279
2026-01-12 00:34:25.75	73.39	74.66	-51.8	-53.6	14.9	0.00e+00	0	23	0	732954624	68	4770
2026-01-12 00:34:26.76	74.91	74.96	-52.1	-53.9	14.8	0.00e+00	0	23	0	735051776	69	4694
2026-01-12 00:34:27.77	76.48	75.25	-52.8	-54.9	14.5	0.00e+00	0	23	0	737148928	70	4932
2026-01-12 00:34:28.78	78.13	75.53	-54.1	-56.6	13.8	0.00e+00	0	23	0	738197504	73	5098
2026-01-12 00:34:29.79	79.84	75.80	-54.1	-56.7	14.0	0.00e+00	0	23	0	740294656	74	4819
2026-01-12 00:34:30.80	81.61	76.06	-53.9	-56.3	14.2	0.00e+00	0	23	0	742391808	74	4619
2026-01-12 00:34:31.80	83.44	76.31	-53.1	-55.2	14.7	0.00e+00	0	23	0	744488960	72	4552
2026-01-12 00:34:32.81	85.35	76.54	-53.3	-55.5	14.4	0.00e+00	0	23	0	746586112	72	4744
2026-01-12 00:34:33.82	87.32	76.75	-53.1	-55.2	14.6	0.00e+00	0	23	0	747634688	72	4570
2026-01-12 00:34:34.83	89.36	76.96	-52.8	-54.8	14.7	0.00e+00	0	23	0	749731840	71	4644
2026-01-12 00:34:35.84	91.47	77.14	-53.4	-55.7	14.2	0.00e+00	0	23	0	751828992	72	4816
2026-01-12 00:34:36.85	93.63	77.31	-55.1	-58.2	13.4	0.00e+00	0	23	0	753926144	75	5440
2026-01-12 00:34:37.85	95.83	77.46	-55.7	-59.2	12.6	7.00e-07	0	23	0	756023296	77	5425
2026-01-12 00:34:38.86	98.10	77.59	-55.2	-58.3	13.1	0.00e+00	0	23	0	757071872	76	5200
2026-01-12 00:34:39.87	100.42	77.70	-55.1	-58.0	13.5	0.00e+00	0	23	0	759169024	76	5019
2026-01-12 00:34:40.87	102.76	77.80	-54.3	-56.9	14.1	0.00e+00	0	23	0	761266176	75	4655
2026-01-12 00:34:41.89	105.18	77.87	-55.3	-58.5	12.7	0.00e+00	0	23	0	763363328	75	5641
2026-01-12 00:34:42.90	107.59	77.92	-56.1	-59.9	12.1	3.00e-06	0	23	0	765460480	77	5902
2026-01-12 00:34:43.91	110.03	77.95	-55.7	-59.0	12.8	1.50e-06	0	23	0	766509056	77	5335
2026-01-12 00:34:44.91	112.45	77.96	-55.5	-58.8	12.9	0.00e+00	0	23	0	768606208	76	5466
2026-01-12 00:34:45.92	114.89	77.95	-54.4	-57.1	14.0	0.00e+00	0	23	0	770703360	75	4782
2026-01-12 00:34:46.93	117.32	77.92	-53.5	-55.7	14.5	0.00e+00	0	23	0	772800512	73	4584
2026-01-12 00:34:47.94	119.74	77.86	-53.0	-55.0	14.7	0.00e+00	0	23	0	774897664	72	4490
2026-01-12 00:34:48.95	122.13	77.79	-53.8	-56.1	14.1	0.00e+00	0	23	0	775946240	72	5084
2026-01-12 00:34:49.96	124.48	77.69	-56.3	-60.4	11.7	0.00e+00	0	23	0	778043392	77	6264
2026-01-12 00:34:50.97	126.80	77.58	-56.5	-60.8	11.6	1.49e-04	0	23	0	780140544	79	5801
2026-01-12 00:34:51.98	129.07	77.44	-54.9	-57.6	13.6	2.05e-05	0	23	0	782237696	76	4802
2026-01-12 00:34:52.99	131.28	77.29	-54.8	-57.7	13.4	0.00e+00	0	23	0	784334848	75	5129
2026-01-12 00:34:53.99	133.42	77.12	-54.9	-57.7	13.4	0.00e+00	0	23	0	785383424	75	5159
2026-01-12 00:34:55.00	135.52	76.94	-54.8	-57.7	13.4	0.00e+00	0	23	0	787480576	75	5119
2026-01-12 00:34:56.01	137.55	76.73	-55.1	-58.2	13.1	0.00e+00	0	23	0	789577728	75	5458
2026-01-12 00:34:57.02	139.52	76.51	-55.7	-59.2	12.6	0.00e+00	0	23	0	791674880	76	5769
2026-01-12 00:34:58.03	141.43	76.28	-55.0	-58.0	13.5	1.50e-06	0	23	0	793772032	76	5015
2026-01-12 00:34:59.04	143.26	76.03	-54.3	-56.9	14.0	0.00e+00	0	23	0	794820608	75	4678
2026-01-12 00:35:00.04	145.02	75.78	-53.7	-56.0	14.3	0.00e+00	0	23	0	796917760	73	4720
2026-01-12 00:35:01.06	146.73	75.50	-54.3	-56.9	13.9	0.00e+00	0	23	0	799014912	74	4948
2026-01-12 00:35:02.06	148.35	75.22	-54.0	-56.4	14.3	0.00e+00	0	23	0	801112064	74	4678
2026-01-12 00:35:03.07	149.93	74.93	-53.8	-56.2	14.2	0.00e+00	0	23	0	803209216	74	4551
2026-01-12 00:35:04.07	151.42	74.63	-52.8	-54.8	14.8	0.00e+00	0	23	0	804257792	72	4384
2026-01-12 00:35:05.07	152.85	74.32	-52.0	-53.8	15.0	0.00e+00	0	23	0	806354944	70	4387
2026-01-12 00:35:06.08	154.24	74.00	-52.4	-54.4	14.7	0.00e+00	0	23	0	808452096	70	4688
2026-01-12 00:35:07.09	155.57	73.67	-51.8	-53.5	15.2	0.00e+00	0	23	0	810549248	70	4214
2026-01-12 00:35:08.10	156.85	73.34	-51.8	-53.5	15.1	0.00e+00	0	23	0	812646400	69	4464
2026-01-12 00:35:09.11	158.07	72.99	-53.0	-55.0	14.6	0.00e+00	0	23	0	813694976	71	4744
2026-01-12 00:35:10.11	159.24	72.65	-52.8	-54.8	14.7	0.00e+00	0	23	0	815792128	71	4634
2026-01-12 00:35:11.12	160.36	72.30	-52.6	-54.6	14.7	0.00e+00	0	23	0	817889280	71	4498
2026-01-12 00:35:12.12	161.43	71.94	-54.3	-57.1	13.6	0.00e+00	0	23	0	819986432	73	5389
2026-01-12 00:35:13.12	162.45	71.58	-55.7	-59.4	12.3	7.00e-07	0	23	0	822083584	76	5887
2026-01-12 00:35:14.13	163.44	71.22	-56.1	-60.1	12.1	0.00e+00	0	23	0	823132160	77	6040
2026-01-12 00:35:15.14	164.40	70.85	-56.4	-60.7	11.7	5.34e-05	0	23	0	825229312	78	6065
2026-01-12 00:35:16.14	165.30	70.48	-55.9	-59.5	12.6	4.04e-05	0	23	0	827326464	78	5281
2026-01-12 00:35:17.15	166.18	70.10	-53.4	-55.6	14.5	0.00e+00	0	23	0	829423616	73	4523
2026-01-12 00:35:18.16	167.02	69.72	-52.9	-54.9	14.8	0.00e+00	0	23	0	831520768	72	4411
2026-01-12 00:35:19.17	167.83	69.34	-53.3	-55.5	14.5	0.00e+00	0	23	0	832569344	72	4737
2026-01-12 00:35:20.18	168.61	68.95	-52.9	-54.9	14.8	0.00e+00	0	23	0	834666496	72	4422
2026-01-12 00:35:21.19	169.36	68.57	-52.2	-54.0	15.0	0.00e+00	0	23	0	836763648	70	4474
2026-01-12 00:35:22.19	170.07	68.18	-52.4	-54.3	14.8	0.00e+00	0	23	0	838860800	70	4640
2026-01-12 00:35:23.20	170.76	67.80	-51.9	-53.7	15.1	0.00e+00	0	23	0	840957952	70	4296
2026-01-12 00:35:24.21	171.43	67.41	-51.1	-52.7	15.3	0.00e+00	0	23	0	842006528	68	4308
2026-01-12 00:35:25.21	172.07	67.02	-51.5	-53.3	15.0	0.00e+00	0	23	0	844103680	68	4603
2026-01-12 00:35:26.22	172.69	66.63	-50.9	-52.5	15.4	0.00e+00	0	23	0	846200832	68	4204
2026-01-12 00:35:27.23	173.28	66.24	-48.7	-50.0	15.9	0.00e+00	0	23	0	848297984	64	3982
2026-01-12 00:35:28.24	173.86	65.84	-48.7	-50.0	15.7	0.00e+00	0	23	0	850395136	63	4221
2026-01-12 00:35:29.24	174.41	65.46	-49.4	-50.8	15.5	0.00e+00	0	23	0	852492288	64	4384
2026-01-12 00:35:30.25	174.95	65.06	-48.7	-50.0	15.8	0.00e+00	0	23	0	853540864	64	3984
2026-01-12 00:35:31.26	175.47	64.67	-48.5	-49.8	15.7	0.00e+00	0	23	0	855638016	63	4107
2026-01-12 00:35:32.26	175.96	64.28	-48.0	-49.2	15.8	0.00e+00	0	23	0	857735168	62	4080
2026-01-12 00:35:33.27	176.45	63.89	-48.2	-49.5	15.7	0.00e+00	0	23	0	859832320	62	4199
2026-01-12 00:35:34.28	176.92	63.50	-48.8	-50.2	15.5	0.00e+00	0	23	0	860880896	62	4560
2026-01-12 00:35:35.29	177.37	63.11	-49.6	-51.0	15.4	0.00e+00	0	23	0	862978048	64	4468
2026-01-12 00:35:36.30	177.81	62.72	-50.0	-51.5	15.3	0.00e+00	0	23	0	865075200	65	4463
2026-01-12 00:35:37.30	178.23	62.34	-49.6	-51.0	15.6	0.00e+00	0	23	0	867172352	65	4204
2026-01-12 00:35:38.31	178.64	61.95	-49.4	-50.8	15.7	0.00e+00	0	23	0	869269504	65	4106
2026-01-12 00:35:39.32	179.04	61.56	-49.3	-50.6	15.5	0.00e+00	0	23	0	870318080	64	4289
2026-01-12 00:35:40.32	179.43	61.18	-50.2	-51.7	15.2	0.00e+00	0	23	0	872415232	65	4593
2026-01-12 00:35:41.33	179.80	60.79	-51.1	-52.8	15.1	0.00e+00	0	23	0	874512384	67	4625
2026-01-12 00:35:42.34	180.17	60.41	-51.8	-53.6	14.9	0.00e+00	0	23	0	876609536	68	4770
2026-01-12 00:35:43.35	180.52	60.03	-51.1	-52.7	15.3	0.00e+00	0	23	0	878706688	68	4311
2026-01-12 00:35:44.36	180.87	59.65	-50.4	-51.9	15.5	0.00e+00	0	23	0	880803840	67	4177
2026-01-12 00:35:45.36	181.20	59.27	-50.7	-52.3	15.3	0.00e+00	0	23	0	881852416	67	4376
2026-01-12 00:35:46.37	181.52	58.89	-50.6	-52.1	15.4	0.00e+00	0	23	0	883949568	67	4279
2026-01-12 00:35:47.37	181.83	58.52	-51.7	-53.4	14.9	0.00e+00	0	23	0	886046720	68	4686
2026-01-12 00:35:48.38	182.14	58.15	-52.8	-54.9	14.4	0.00e+00	0	23	0	888143872	70	4965
2026-01-12 00:35:49.39	182.44	57.77	-52.1	-53.9	15.0	0.00e+00	0	23	0	889192448	70	4424
2026-01-12 00:35:50.39	182.73	57.41	-50.9	-52.5	15.4	0.00e+00	0	23	0	891289600	68	4205
2026-01-12 00:35:51.40	183.01	57.04	-49.8	-51.2	15.6	0.00e+00	0	23	0	893386752	66	4065
2026-01-12 00:35:52.41	183.29	56.67	-49.5	-50.9	15.6	0.00e+00	0	23	0	895483904	65	4156
2026-01-12 00:35:53.41	183.55	56.31	-49.1	-50.5	15.6	0.00e+00	0	23	0	897581056	64	4207
2026-01-12 00:35:54.42	183.82	55.94	-49.6	-51.0	15.4	0.00e+00	0	23	0	898629632	64	4489
2026-01-12 00:35:55.43	184.07	55.58	-50.8	-52.5	15.0	0.00e+00	0	23	0	900726784	66	4726
2026-01-12 00:35:56.44	184.32	55.22	-51.4	-53.2	14.9	0.00e+00	0	23	0	902823936	67	4842
2026-01-12 00:35:57.45	184.56	54.86	-50.6	-52.2	15.3	0.00e+00	0	23	0	904921088	67	4327
2026-01-12 00:35:58.46	184.80	54.50	-50.0	-51.5	15.5	0.00e+00	0	23	0	907018240	66	4197
2026-01-12 00:35:59.47	185.03	54.15	-50.7	-52.3	15.2	0.00e+00	0	23	0	909115392	66	4619
2026-01-12 00:36:00.47	185.25	53.80	-51.2	-52.9	15.0	0.00e+00	0	23	0	910163968	67	4700
2026-01-12 00:36:01.48	185.47	53.45	-51.2	-52.9	15.2	0.00e+00	0	23	0	912261120	68	4426
2026-01-12 00:36:02.49	185.69	53.10	-49.9	-51.4	15.5	0.00e+00	0	23	0	914358272	66	4151
2026-01-12 00:36:03.50	185.90	52.75	-50.0	-51.5	15.3	0.00e+00	0	23	0	916455424	65	4445
2026-01-12 00:36:04.51	186.10	52.41	-51.0	-52.7	15.1	0.00e+00	0	23	0	918552576	67	4559
2026-01-12 00:36:05.52	186.31	52.07	-52.4	-54.4	14.6	0.00e+00	0	23	0	919601152	69	4968
2026-01-12 00:36:06.53	186.50	51.73	-52.9	-55.1	14.5	0.00e+00	0	23	0	921698304	71	4764
2026-01-12 00:36:07.54	186.69	51.39	-53.0	-55.2	14.4	0.00e+00	0	23	0	923795456	71	4830
2026-01-12 00:36:08.54	186.88	51.06	-53.1	-55.2	14.4	0.00e+00	0	23	0	925892608	71	4854
2026-01-12 00:36:09.55	187.06	50.72	-52.8	-54.8	14.7	0.00e+00	0	23	0	927989760	71	4633
2026-01-12 00:36:10.55	187.24	50.39	-52.6	-54.5	14.8	0.00e+00	0	23	0	929038336	71	4491
2026-01-12 00:36:11.56	187.42	50.06	-52.3	-54.2	15.0	0.00e+00	0	23	0	931135488	71	4311
2026-01-12 00:36:12.57	187.59	49.73	-52.5	-54.4	14.9	0.00e+00	0	23	0	933232640	71	4439
2026-01-12 00:36:13.58	187.76	49.41	-52.9	-55.0	14.6	0.00e+00	0	23	0	935329792	71	4750
2026-01-12 00:36:14.58	187.92	49.09	-53.6	-56.0	14.1	0.00e+00	0	23	0	937426944	72	5009
2026-01-12 00:36:15.59	188.09	48.77	-53.7	-56.1	14.0	0.00e+00	0	23	0	938475520	72	5064
2026-01-12 00:36:16.60	188.24	48.45	-54.1	-56.6	13.9	0.00e+00	0	23	0	940572672	73	5062
2026-01-12 00:36:17.61	188.40	48.13	-53.5	-55.8	14.4	0.00e+00	0	23	0	942669824	73	4608
2026-01-12 00:36:18.62	188.55	47.81	-52.4	-54.3	15.0	0.00e+00	0	23	0	944766976	71	4370
2026-01-12 00:36:19.62	188.70	47.50	-51.6	-53.3	15.2	0.00e+00	0	23	0	946864128	69	4370
2026-01-12 00:36:20.63	188.85	47.19	-52.5	-54.5	14.7	0.00e+00	0	23	0	947912704	70	4715
2026-01-12 00:36:21.64	188.99	46.88	-55.1	-58.3	13.1	0.00e+00	0	23	0	950009856	75	5508
2026-01-12 00:36:22.65	189.13	46.58	-56.2	-60.4	11.7	4.50e-06	0	23	0	952107008	77	6208
2026-01-12 00:36:23.66	189.27	46.27	-56.5	-61.0	11.2	7.70e-05	0	23	0	954204160	78	6339
2026-01-12 00:36:24.67	189.41	45.97	-55.9	-59.6	12.4	3.12e-05	0	23	0	956301312	78	5382
2026-01-12 00:36:25.68	189.54	45.67	-54.5	-57.2	13.8	0.00e+00	0	23	0	957349888	75	4832
2026-01-12 00:36:26.69	189.67	45.37	-52.9	-55.0	14.7	0.00e+00	0	23	0	959447040	72	4466
2026-01-12 00:36:27.69	189.80	45.07	-52.4	-54.3	15.0	0.00e+00	0	23	0	961544192	71	4348
2026-01-12 00:36:28.70	189.93	44.78	-51.8	-53.6	15.2	0.00e+00	0	23	0	963641344	70	4256
2026-01-12 00:36:29.71	190.05	44.49	-51.6	-53.3	15.1	0.00e+00	0	23	0	965738496	69	4386
2026-01-12 00:36:30.72	190.17	44.20	-51.3	-53.0	15.3	0.00e+00	0	23	0	966787072	69	4210
2026-01-12 00:36:31.73	190.29	43.91	-52.1	-54.0	14.8	0.00e+00	0	23	0	968884224	69	4759
2026-01-12 00:36:32.73	190.41	43.62	-52.8	-55.0	14.4	0.00e+00	0	23	0	970981376	70	4991
2026-01-12 00:36:33.74	190.52	43.34	-53.6	-56.1	14.0	0.00e+00	0	23	0	973078528	72	5095
2026-01-12 00:36:34.75	190.64	43.06	-54.5	-57.5	13.5	0.00e+00	0	23	0	975175680	74	5301
2026-01-12 00:36:35.75	190.75	42.78	-53.6	-56.1	14.2	0.00e+00	0	23	0	976224256	73	4783
2026-01-12 00:36:36.76	190.86	42.50	-52.0	-53.9	15.1	0.00e+00	0	23	0	978321408	70	4407
2026-01-12 00:36:37.77	190.97	42.22	-50.9	-52.5	15.4	0.00e+00	0	23	0	980418560	68	4203
2026-01-12 00:36:38.78	191.07	41.95	-49.8	-51.3	15.6	0.00e+00	0	23	0	982515712	66	4105
2026-01-12 00:36:39.79	191.18	41.68	-49.3	-50.7	15.6	0.00e+00	0	23	0	984612864	65	4074
2026-01-12 00:36:40.80	191.28	41.41	-49.8	-51.2	15.4	0.00e+00	0	23	0	985661440	65	4332
2026-01-12 00:36:41.80	191.38	41.14	-50.6	-52.2	15.1	0.00e+00	0	23	0	987758592	66	4565
2026-01-12 00:36:42.81	191.48	40.87	-50.7	-52.3	15.2	0.00e+00	0	23	0	989855744	67	4360
2026-01-12 00:36:43.82	191.58	40.61	-51.1	-52.9	15.0	0.00e+00	0	23	0	991952896	67	4653
2026-01-12 00:36:44.83	191.68	40.34	-51.3	-53.1	14.9	0.00e+00	0	23	0	994050048	67	4807
2026-01-12 00:36:45.84	191.77	40.08	-51.1	-52.8	15.0	0.00e+00	0	23	0	995098624	67	4631
2026-01-12 00:36:46.85	191.87	39.82	-50.7	-52.3	15.3	0.00e+00	0	23	0	997195776	67	4378
2026-01-12 00:36:47.85	191.96	39.57	-50.6	-52.1	15.3	0.00e+00	0	23	0	999292928	67	4287
2026-01-12 00:36:48.86	192.05	39.31	-50.5	-52.1	15.4	0.00e+00	0	23	0	1001390080	67	4246
2026-01-12 00:36:49.87	192.14	39.06	-51.0	-52.6	15.1	0.00e+00	0	23	0	1003487232	67	4531
2026-01-12 00:36:50.88	192.23	38.80	-52.2	-54.2	14.6	0.00e+00	0	23	0	1004535808	69	4817
2026-01-12 00:36:51.89	192.31	38.55	-52.8	-54.9	14.4	0.00e+00	0	23	0	1006632960	70	4966
2026-01-12 00:36:52.89	192.40	38.31	-53.0	-55.2	14.4	0.00e+00	0	23	0	1008730112	71	4819
2026-01-12 00:36:53.90	192.48	38.06	-52.9	-55.1	14.5	0.00e+00	0	23	0	1010827264	71	4761
2026-01-12 00:36:54.91	192.57	37.81	-53.1	-55.3	14.3	0.00e+00	0	23	0	1012924416	71	4901
2026-01-12 00:36:55.91	192.65	37.57	-52.6	-54.6	14.8	0.00e+00	0	23	0	1013972992	71	4535
2026-01-12 00:36:56.92	192.73	37.33	-52.9	-55.0	14.5	0.00e+00	0	23	0	1016070144	71	4759
2026-01-12 00:36:57.93	192.81	37.09	-53.7	-56.1	14.0	0.00e+00	0	23	0	1018167296	72	5098
2026-01-12 00:36:58.94	192.89	36.85	-52.8	-54.9	14.7	0.00e+00	0	23	0	1020264448	72	4435
2026-01-12 00:36:59.95	192.97	36.61	-53.4	-55.7	14.3	0.00e+00	0	23	0	1022361600	72	4862
2026-01-12 00:37:00.95	193.04	36.38	-53.0	-55.2	14.5	0.00e+00	0	23	0	1023410176	72	4569
2026-01-12 00:37:01.96	193.12	36.15	-53.4	-55.7	14.3	0.00e+00	0	23	0	1025507328	72	4856
2026-01-12 00:37:02.97	193.19	35.92	-53.2	-55.4	14.4	0.00e+00	0	23	0	1027604480	72	4674
2026-01-12 00:37:03.98	193.27	35.68	-52.9	-55.0	14.6	0.00e+00	0	23	0	1029701632	72	4492
2026-01-12 00:37:04.99	193.34	35.46	-52.0	-53.8	15.0	0.00e+00	0	23	0	1031798784	70	4345
2026-01-12 00:37:06.00	193.41	35.23	-51.2	-52.8	15.4	0.00e+00	0	23	0	1033895936	69	4119
2026-01-12 00:37:07.01	193.48	35.00	-50.5	-52.0	15.5	0.00e+00	0	23	0	1034944512	67	4232
2026-01-12 00:37:08.02	193.55	34.78	-50.3	-51.8	15.5	0.00e+00	0	23	0	1037041664	67	4106
2026-01-12 00:37:09.03	193.62	34.56	-51.1	-52.8	15.0	0.00e+00	0	23	0	1039138816	67	4604
2026-01-12 00:37:10.03	193.69	34.34	-51.7	-53.5	14.9	0.00e+00	0	23	0	1041235968	68	4711
2026-01-12 00:37:11.04	193.76	34.12	-52.5	-54.5	14.6	0.00e+00	0	23	0	1042284544	70	4759
2026-01-12 00:37:12.05	193.82	33.90	-53.6	-56.0	14.1	0.00e+00	0	23	0	1044381696	72	5018
2026-01-12 00:37:13.06	193.89	33.68	-54.5	-57.4	13.5	0.00e+00	0	23	0	1046478848	74	5233
2026-01-12 00:37:14.07	193.95	33.47	-55.1	-58.4	12.9	0.00e+00	0	23	0	1048576000	75	5540
2026-01-12 00:37:15.07	194.02	33.26	-55.1	-58.4	12.8	0.00e+00	0	23	0	1050673152	75	5539
2026-01-12 00:37:16.08	194.08	33.04	-55.1	-58.4	12.9	0.00e+00	0	23	0	1051721728	75	5543
2026-01-12 00:37:17.09	194.14	32.83	-54.7	-57.6	13.4	0.00e+00	0	23	0	1053818880	75	5091
2026-01-12 00:37:18.10	194.20	32.62	-54.7	-57.7	13.3	0.00e+00	0	23	0	1055916032	75	5154
2026-01-12 00:37:19.11	194.26	32.42	-54.2	-56.8	13.8	0.00e+00	0	23	0	1058013184	75	4645
2026-01-12 00:37:20.13	194.33	32.21	-54.1	-56.6	13.9	0.00e+00	0	23	0	1060110336	74	4803
2026-01-12 00:37:21.13	194.38	32.01	-53.7	-56.1	14.3	0.00e+00	0	23	0	1062207488	74	4534
2026-01-12 00:37:22.14	194.44	31.80	-53.4	-55.7	14.4	0.00e+00	0	23	0	1063256064	73	4566
2026-01-12 00:37:23.15	194.50	31.60	-53.0	-55.2	14.5	0.00e+00	0	23	0	1065353216	72	4554
2026-01-12 00:37:24.16	194.56	31.40	-52.5	-54.4	14.8	0.00e+00	0	23	0	1067450368	71	4425
2026-01-12 00:37:25.17	194.62	31.20	-52.5	-54.4	14.7	0.00e+00	0	23	0	1069547520	70	4695
2026-01-12 00:37:26.18	194.67	31.00	-52.0	-53.8	15.0	0.00e+00	0	23	0	1071644672	70	4363
2026-01-12 00:37:27.18	194.73	30.81	-51.7	-53.5	15.2	0.00e+00	0	23	0	1072693248	70	4196
2026-01-12 00:37:28.19	194.78	30.61	-51.6	-53.4	15.1	0.00e+00	0	23	0	1074790400	69	4425
2026-01-12 00:37:29.20	194.84	30.42	-51.5	-53.3	15.1	0.00e+00	0	23	0	1076887552	69	4355
2026-01-12 00:37:30.21	194.89	30.22	-51.3	-53.0	15.2	0.00e+00	0	23	0	1078984704	69	4241
2026-01-12 00:37:31.22	194.94	30.03	-51.3	-53.0	15.3	0.00e+00	0	23	0	1081081856	69	4228
2026-01-12 00:37:32.23	195.00	29.84	-51.2	-52.8	15.2	0.00e+00	0	23	0	1082130432	68	4391
2026-01-12 00:37:33.23	195.05	29.65	-51.4	-53.1	15.0	0.00e+00	0	23	0	1084227584	68	4530
2026-01-12 00:37:34.24	195.10	29.46	-51.4	-53.1	15.0	0.00e+00	0	23	0	1086324736	68	4528
2026-01-12 00:37:35.24	195.15	29.28	-51.9	-53.8	14.7	0.00e+00	0	23	0	1088421888	68	4874
2026-01-12 00:37:36.25	195.20	29.09	-52.5	-54.6	14.6	0.00e+00	0	23	0	1090519040	70	4792
2026-01-12 00:37:37.25	195.25	28.91	-53.1	-55.5	14.2	0.00e+00	0	23	0	1091567616	71	4990
2026-01-12 00:37:38.26	195.30	28.73	-53.5	-55.9	14.0	0.00e+00	0	23	0	1093664768	72	4976
2026-01-12 00:37:39.27	195.35	28.54	-53.8	-56.4	13.9	0.00e+00	0	23	0	1095761920	73	4975
2026-01-12 00:37:40.28	195.40	28.36	-54.3	-57.3	13.3	0.00e+00	0	23	0	1097859072	73	5475
2026-01-12 00:37:41.29	195.44	28.18	-54.4	-57.4	13.4	0.00e+00	0	23	0	1099956224	74	5222
2026-01-12 00:37:42.30	195.49	28.01	-54.1	-56.8	13.7	0.00e+00	0	23	0	1101004800	74	4901
2026-01-12 00:37:43.31	195.54	27.83	-54.1	-56.9	13.6	0.00e+00	0	23	0	1103101952	74	4927
2026-01-12 00:37:44.32	195.58	27.65	-53.9	-56.5	13.9	0.00e+00	0	23	0	1105199104	74	4746
2026-01-12 00:37:45.32	195.63	27.48	-53.3	-55.7	14.4	0.00e+00	0	23	0	1107296256	73	4568
2026-01-12 00:37:46.33	195.67	27.30	-52.8	-54.9	14.7	0.00e+00	0	23	0	1109393408	72	4406
2026-01-12 00:37:47.34	195.72	27.13	-52.4	-54.4	14.8	0.00e+00	0	23	0	1110441984	71	4411
2026-01-12 00:37:48.35	195.76	26.96	-52.0	-53.9	14.9	0.00e+00	0	23	0	1112539136	70	4433
2026-01-12 00:37:49.36	195.81	26.79	-51.7	-53.5	15.0	0.00e+00	0	23	0	1114636288	69	4455
2026-01-12 00:37:50.36	195.85	26.62	-51.6	-53.4	14.9	0.00e+00	0	23	0	1116733440	69	4429
2026-01-12 00:37:51.37	195.90	26.45	-51.5	-53.3	15.1	0.00e+00	0	23	0	1118830592	69	4341
2026-01-12 00:37:52.38	195.94	26.28	-51.3	-53.1	15.1	0.00e+00	0	23	0	1119879168	68	4508
2026-01-12 00:37:53.38	195.98	26.12	-51.1	-52.8	15.2	0.00e+00	0	23	0	1121976320	68	4374
2026-01-12 00:37:54.39	196.02	25.95	-51.1	-52.8	15.2	0.00e+00	0	23	0	1124073472	68	4343
2026-01-12 00:37:55.40	196.06	25.79	-50.8	-52.5	15.3	0.00e+00	0	23	0	1126170624	68	4205
2026-01-12 00:37:56.40	196.10	25.62	-50.8	-52.4	15.3	0.00e+00	0	23	0	1128267776	68	4185
2026-01-12 00:37:57.41	196.15	25.46	-50.8	-52.4	15.4	0.00e+00	0	23	0	1129316352	68	4186
2026-01-12 00:37:58.42	196.19	25.30	-50.8	-52.4	15.3	0.00e+00	0	23	0	1131413504	68	4192
2026-01-12 00:37:59.43	196.23	25.14	-50.8	-52.5	15.4	0.00e+00	0	23	0	1133510656	68	4208
2026-01-12 00:38:00.44	196.27	24.98	-50.4	-52.0	15.4	0.00e+00	0	23	0	1135607808	67	4229
2026-01-12 00:38:01.44	196.30	24.82	-50.5	-52.1	15.3	0.00e+00	0	23	0	1137704960	67	4253
2026-01-12 00:38:02.45	196.34	24.66	-50.5	-52.1	15.3	0.00e+00	0	23	0	1138753536	67	4285
2026-01-12 00:38:03.46	196.38	24.50	-50.0	-51.5	15.4	0.00e+00	0	23	0	1140850688	66	4228
2026-01-12 00:38:04.47	196.42	24.35	-50.1	-51.7	15.3	0.00e+00	0	23	0	1142947840	66	4314
2026-01-12 00:38:05.48	196.46	24.19	-49.8	-51.3	15.6	0.00e+00	0	23	0	1145044992	66	4121
2026-01-12 00:38:06.49	196.50	24.04	-49.7	-51.1	15.4	0.00e+00	0	23	0	1147142144	65	4290
2026-01-12 00:38:07.50	196.53	23.89	-49.6	-51.1	15.5	0.00e+00	0	23	0	1148190720	65	4262
2026-01-12 00:38:08.51	196.57	23.73	-49.6	-51.0	15.5	0.00e+00	0	23	0	1150287872	65	4241
2026-01-12 00:38:09.52	196.61	23.58	-49.6	-51.1	15.4	0.00e+00	0	23	0	1152385024	65	4288
2026-01-12 00:38:10.53	196.64	23.43	-49.4	-50.8	15.5	0.00e+00	0	23	0	1154482176	65	4145
2026-01-12 00:38:11.53	196.68	23.28	-49.6	-51.1	15.5	0.00e+00	0	23	0	1156579328	65	4272
2026-01-12 00:38:12.54	196.72	23.13	-49.7	-51.2	15.4	0.00e+00	0	23	0	1157627904	65	4334
2026-01-12 00:38:13.55	196.75	22.98	-50.0	-51.5	15.2	0.00e+00	0	23	0	1159725056	65	4474
2026-01-12 00:38:14.55	196.79	22.84	-50.2	-51.8	15.1	0.00e+00	0	23	0	1161822208	65	4623
2026-01-12 00:38:15.56	196.82	22.69	-50.5	-52.1	15.1	0.00e+00	0	23	0	1163919360	66	4541
2026-01-12 00:38:16.57	196.86	22.55	-50.8	-52.5	14.9	0.00e+00	0	23	0	1166016512	66	4738
2026-01-12 00:38:17.58	196.89	22.40	-51.1	-52.9	14.9	0.00e+00	0	23	0	1167065088	67	4691
2026-01-12 00:38:18.59	196.92	22.26	-50.8	-52.5	15.1	0.00e+00	0	23	0	1169162240	67	4491
2026-01-12 00:38:19.60	196.96	22.11	-51.0	-52.7	15.0	0.00e+00	0	23	0	1171259392	67	4585
2026-01-12 00:38:20.61	196.99	21.97	-50.9	-52.7	15.0	0.00e+00	0	23	0	1173356544	67	4566
2026-01-12 00:38:21.61	197.02	21.83	-50.9	-52.7	15.0	0.00e+00	0	23	0	1175453696	67	4549
2026-01-12 00:38:22.62	197.06	21.69	-50.8	-52.5	15.1	0.00e+00	0	23	0	1176502272	67	4452
2026-01-12 00:38:23.63	197.09	21.55	-50.8	-52.5	15.1	0.00e+00	0	23	0	1178599424	67	4490
2026-01-12 00:38:24.64	197.12	21.41	-50.7	-52.5	15.1	0.00e+00	0	23	0	1180696576	67	4447
2026-01-12 00:38:25.65	197.15	21.27	-50.6	-52.2	15.2	0.00e+00	0	23	0	1182793728	67	4327
2026-01-12 00:38:26.65	197.19	21.13	-50.6	-52.3	15.2	0.00e+00	0	23	0	1184890880	67	4356
2026-01-12 00:38:27.66	197.22	21.00	-50.5	-52.2	15.3	0.00e+00	0	23	0	1186988032	67	4320
2026-01-12 00:38:28.67	197.25	20.86	-50.7	-52.4	15.2	0.00e+00	0	23	0	1188036608	67	4399
2026-01-12 00:38:29.68	197.28	20.72	-50.8	-52.5	15.1	0.00e+00	0	23	0	1190133760	67	4463
2026-01-12 00:38:30.69	197.31	20.59	-50.7	-52.5	15.1	0.00e+00	0	23	0	1192230912	67	4445
2026-01-12 00:38:31.70	197.34	20.46	-50.7	-52.4	15.1	0.00e+00	0	23	0	1194328064	67	4413
2026-01-12 00:38:32.71	197.37	20.32	-50.8	-52.5	15.1	0.00e+00	0	23	0	1196425216	67	4480
2026-01-12 00:38:33.71	197.40	20.19	-50.7	-52.5	15.1	0.00e+00	0	23	0	1197473792	67	4449
2026-01-12 00:38:34.72	197.43	20.06	-50.8	-52.6	15.1	0.00e+00	0	23	0	1199570944	67	4520
2026-01-12 00:38:35.73	197.46	19.93	-50.9	-52.6	15.0	0.00e+00	0	23	0	1201668096	67	4541
2026-01-12 00:38:36.73	197.49	19.80	-50.8	-52.5	15.1	0.00e+00	0	23	0	1203765248	67	4478
2026-01-12 00:38:37.74	197.52	19.67	-51.0	-52.9	14.9	0.00e+00	0	23	0	1204813824	67	4652
2026-01-12 00:38:38.75	197.55	19.54	-50.9	-52.7	15.0	0.00e+00	0	23	0	1206910976	67	4554
2026-01-12 00:38:39.76	197.58	19.41	-50.9	-52.7	15.0	0.00e+00	0	23	0	1209008128	67	4555
2026-01-12 00:38:40.77	197.61	19.28	-50.8	-52.6	15.1	0.00e+00	0	23	0	1211105280	67	4495
2026-01-12 00:38:41.78	197.64	19.15	-50.8	-52.6	15.1	0.00e+00	0	23	0	1213202432	67	4515
2026-01-12 00:38:42.79	197.66	19.03	-50.7	-52.4	15.1	0.00e+00	0	23	0	1215299584	67	4429
2026-01-12 00:38:43.79	197.69	18.90	-50.6	-52.3	15.2	0.00e+00	0	23	0	1216348160	67	4351
2026-01-12 00:38:44.80	197.72	18.77	-50.7	-52.4	15.2	0.00e+00	0	23	0	1218445312	67	4407
2026-01-12 00:38:45.81	197.75	18.65	-50.5	-52.1	15.3	0.00e+00	0	23	0	1220542464	67	4281
2026-01-12 00:38:46.82	197.78	18.53	-50.4	-52.1	15.3	0.00e+00	0	23	0	1222639616	67	4263
2026-01-12 00:38:47.83	197.80	18.40	-50.4	-52.0	15.3	0.00e+00	0	23	0	1224736768	67	4231
2026-01-12 00:38:48.84	197.83	18.28	-50.5	-52.2	15.3	0.00e+00	0	23	0	1225785344	67	4309
2026-01-12 00:38:49.85	197.86	18.16	-50.4	-52.1	15.3	0.00e+00	0	23	0	1227882496	67	4263
2026-01-12 00:38:50.86	197.88	18.03	-50.4	-52.1	15.3	0.00e+00	0	23	0	1229979648	67	4258
2026-01-12 00:38:51.86	197.91	17.91	-50.6	-52.3	15.2	0.00e+00	0	23	0	1232076800	67	4351
2026-01-12 00:38:52.87	197.94	17.79	-50.4	-52.1	15.3	0.00e+00	0	23	0	1234173952	67	4258
2026-01-12 00:38:53.88	197.96	17.67	-50.5	-52.2	15.3	0.00e+00	0	23	0	1235222528	67	4303
2026-01-12 00:38:54.89	197.99	17.55	-50.6	-52.3	15.2	0.00e+00	0	23	0	1237319680	67	4366
2026-01-12 00:38:55.90	198.01	17.43	-50.5	-52.1	15.3	0.00e+00	0	23	0	1239416832	67	4286
2026-01-12 00:38:56.90	198.04	17.32	-50.6	-52.3	15.2	0.00e+00	0	23	0	1241513984	67	4351
2026-01-12 00:38:57.91	198.06	17.20	-50.8	-52.5	15.1	0.00e+00	0	23	0	1243611136	67	4469
2026-01-12 00:38:58.91	198.09	17.08	-50.9	-52.7	15.0	0.00e+00	0	23	0	1244659712	67	4551
2026-01-12 00:38:59.92	198.12	16.97	-50.9	-52.7	15.0	0.00e+00	0	23	0	1246756864	67	4546
2026-01-12 00:39:00.93	198.14	16.85	-50.8	-52.5	15.0	0.00e+00	0	23	0	1248854016	67	4475
2026-01-12 00:39:01.93	198.16	16.74	-50.9	-52.7	15.0	0.00e+00	0	23	0	1250951168	67	4560
2026-01-12 00:39:02.94	198.19	16.62	-50.8	-52.6	15.1	0.00e+00	0	23	0	1253048320	67	4496
2026-01-12 00:39:03.95	198.21	16.51	-50.9	-52.6	15.0	0.00e+00	0	23	0	1254096896	67	4529
2026-01-12 00:39:04.96	198.24	16.39	-50.9	-52.7	15.0	0.00e+00	0	23	0	1256194048	67	4567
2026-01-12 00:39:05.96	198.26	16.28	-51.0	-52.8	14.9	0.00e+00	0	23	0	1258291200	67	4622
2026-01-12 00:39:06.97	198.29	16.17	-51.0	-52.7	14.9	0.00e+00	0	23	0	1260388352	67	4591
