passes_logs/2026/01/12/R3.2S_Murmansk/R3.2S_Murmansk__20260112_144828_FENGYUN_3D_rec.log

#Pass ID: 20260112_144828_FENGYUN 3D
#Satellite: FENGYUN 3D
#Configuration: FENGYUN 3D
#almurnet v.1.7.20251203
#Start time: 2026-01-12 14:48:30

#Version: 2.2.20231116
#Station: R3.2S_Murmansk
#Location: 33.079688 lon 68.888172 lat
#TLE: 1 43010U 17072A   26011.62066612  .00000104  00000+0  70810-4 0  9998
#TLE: 2 43010  98.9935 343.3846 0002223 114.2890 245.8518 14.19694405422776

#Time	Az	El	Level	Level2	SNR	BER	BlckErr	Temp	State	Recorded	gain1	gain2
2026-01-12 14:48:30.84	236.23	2.10	-57.4	-70.4	3.8	8.46e-01	0	21	0	0	81	15633
2026-01-12 14:48:31.85	236.32	2.15	-57.3	-70.3	3.8	8.46e-01	0	21	104	0	79	17431
2026-01-12 14:48:32.85	236.42	2.19	-57.3	-70.3	3.8	8.46e-01	0	21	104	0	79	17375
2026-01-12 14:48:33.85	236.51	2.24	-57.3	-70.3	3.8	8.47e-01	0	21	104	0	79	17380
2026-01-12 14:48:34.85	236.61	2.29	-57.3	-70.3	3.8	8.45e-01	0	21	104	0	79	17347
2026-01-12 14:48:35.85	236.70	2.33	-57.3	-70.3	3.8	8.44e-01	0	21	104	0	79	17428
2026-01-12 14:48:36.85	236.80	2.38	-57.3	-70.3	3.8	8.46e-01	0	21	104	0	79	17449
2026-01-12 14:48:37.85	236.89	2.43	-57.3	-70.3	3.8	8.46e-01	0	21	104	0	79	17452
2026-01-12 14:48:38.85	236.99	2.47	-57.3	-70.4	3.8	8.44e-01	0	21	104	0	79	17509
2026-01-12 14:48:39.86	237.09	2.52	-57.3	-70.3	3.8	8.45e-01	0	21	104	0	79	17458
2026-01-12 14:48:40.86	237.18	2.57	-57.4	-70.4	3.8	8.45e-01	0	21	104	0	79	17525
2026-01-12 14:48:41.86	237.28	2.62	-57.4	-70.4	3.8	8.46e-01	0	21	104	0	79	17542
2026-01-12 14:48:42.87	237.38	2.66	-57.4	-70.4	3.8	8.46e-01	0	21	104	0	79	17545
2026-01-12 14:48:43.87	237.48	2.71	-57.4	-70.4	3.8	8.46e-01	0	21	104	0	79	17566
2026-01-12 14:48:44.88	237.58	2.76	-57.3	-70.3	3.8	8.46e-01	0	21	104	0	79	17475
2026-01-12 14:48:45.88	237.68	2.81	-57.3	-70.4	3.8	8.45e-01	0	22	104	0	79	17501
2026-01-12 14:48:46.89	237.78	2.85	-57.3	-70.3	3.8	8.45e-01	0	22	104	0	79	17427
2026-01-12 14:48:47.89	237.88	2.90	-57.3	-70.3	3.8	8.45e-01	0	22	104	0	79	17370
2026-01-12 14:48:48.89	237.97	2.95	-57.3	-70.3	3.8	8.46e-01	0	22	104	0	79	17340
2026-01-12 14:48:49.89	238.07	2.99	-57.3	-70.2	3.8	8.45e-01	0	22	104	0	79	17244
2026-01-12 14:48:50.90	238.18	3.04	-57.3	-70.2	3.8	8.46e-01	0	22	104	0	79	17211
2026-01-12 14:48:51.91	238.28	3.09	-57.3	-70.2	3.8	8.45e-01	0	22	104	0	79	17104
2026-01-12 14:48:52.91	238.38	3.14	-57.3	-70.2	3.8	8.46e-01	0	21	104	0	79	17272
2026-01-12 14:48:53.91	238.48	3.18	-57.3	-70.2	3.8	8.45e-01	0	22	104	0	79	17252
2026-01-12 14:48:54.91	238.58	3.23	-57.3	-70.2	3.8	8.46e-01	0	22	104	0	79	17242
2026-01-12 14:48:55.91	238.68	3.28	-57.3	-70.3	3.8	8.46e-01	0	22	104	0	79	17356
2026-01-12 14:48:56.91	238.78	3.33	-57.3	-70.3	3.8	8.46e-01	0	22	104	0	79	17481
2026-01-12 14:48:57.91	238.89	3.37	-57.3	-70.4	3.8	8.45e-01	0	22	104	0	79	17510
2026-01-12 14:48:58.91	238.99	3.42	-57.4	-70.4	3.8	8.46e-01	0	22	104	0	79	17533
2026-01-12 14:48:59.92	239.09	3.47	-57.3	-70.3	3.8	8.46e-01	0	22	104	0	79	17293
2026-01-12 14:49:00.92	239.20	3.52	-57.3	-70.1	3.8	8.46e-01	0	22	104	0	79	16994
2026-01-12 14:49:01.92	239.30	3.56	-57.3	-70.1	3.8	8.46e-01	0	22	104	0	79	16912
2026-01-12 14:49:02.92	239.40	3.61	-57.3	-70.0	3.8	8.46e-01	0	22	104	0	79	16809
2026-01-12 14:49:03.92	239.51	3.66	-57.3	-70.2	3.8	8.46e-01	0	22	104	0	79	17090
2026-01-12 14:49:04.93	239.61	3.71	-57.3	-70.2	3.8	8.46e-01	0	22	104	0	79	17258
2026-01-12 14:49:05.93	239.72	3.75	-57.3	-70.3	3.8	8.46e-01	0	22	104	0	79	17398
2026-01-12 14:49:06.93	239.82	3.80	-57.3	-70.4	3.8	8.45e-01	0	22	104	0	79	17544
2026-01-12 14:49:07.92	239.93	3.85	-57.3	-70.4	3.8	8.44e-01	0	22	104	0	79	17529
2026-01-12 14:49:08.92	240.03	3.89	-57.3	-70.3	3.8	8.46e-01	0	22	104	0	79	17429
2026-01-12 14:49:09.92	240.14	3.94	-57.3	-70.3	3.8	8.46e-01	0	22	104	0	79	17384
2026-01-12 14:49:10.92	240.25	3.99	-57.3	-70.1	3.8	8.46e-01	0	22	104	0	79	16995
2026-01-12 14:49:11.92	240.35	4.04	-57.3	-70.0	3.8	8.45e-01	0	22	104	0	79	16783
2026-01-12 14:49:12.93	240.46	4.08	-57.3	-69.7	3.8	8.45e-01	0	22	104	0	79	16201
2026-01-12 14:49:13.92	240.57	4.13	-57.3	-69.7	3.8	8.45e-01	0	22	104	0	79	16274
2026-01-12 14:49:14.92	240.67	4.18	-57.3	-69.7	3.8	8.45e-01	0	22	104	0	79	16200
2026-01-12 14:49:15.91	240.78	4.22	-57.3	-69.8	3.8	8.45e-01	0	22	104	0	79	16329
2026-01-12 14:49:16.91	240.89	4.27	-57.3	-69.5	3.8	8.45e-01	0	22	104	0	79	15914
2026-01-12 14:49:17.91	241.00	4.32	-57.3	-69.3	3.8	8.46e-01	0	22	104	0	79	15474
2026-01-12 14:49:18.91	241.11	4.37	-57.3	-69.3	3.8	8.46e-01	0	22	104	0	79	15498
2026-01-12 14:49:19.92	241.22	4.41	-57.3	-69.4	3.8	8.45e-01	0	22	104	0	79	15643
2026-01-12 14:49:20.92	241.33	4.46	-57.3	-70.0	3.8	8.45e-01	0	22	104	0	79	16843
2026-01-12 14:49:21.92	241.44	4.51	-57.4	-70.4	3.8	8.45e-01	0	22	104	0	79	17505
2026-01-12 14:49:22.92	241.55	4.56	-57.3	-69.8	3.8	8.45e-01	0	22	104	0	79	16490
2026-01-12 14:49:23.92	241.66	4.60	-57.2	-68.5	3.8	8.44e-01	0	22	104	0	79	14196
2026-01-12 14:49:24.92	241.77	4.65	-57.0	-66.5	4.3	8.38e-01	0	22	0	0	79	11233
2026-01-12 14:49:25.92	241.88	4.70	-56.8	-64.9	4.9	8.01e-01	0	22	0	0	79	9359
2026-01-12 14:49:26.91	241.99	4.75	-56.7	-64.1	5.3	7.31e-01	0	22	0	0	79	8558
2026-01-12 14:49:27.91	242.11	4.79	-56.5	-63.3	5.9	4.68e-01	0	22	0	3145728	79	7764
2026-01-12 14:49:28.90	242.22	4.84	-56.4	-62.7	6.3	2.86e-01	0	22	0	8388608	79	7279
2026-01-12 14:49:29.90	242.33	4.89	-55.7	-60.7	8.0	1.24e-01	0	22	0	13631488	78	6097
2026-01-12 14:49:30.90	242.44	4.93	-54.5	-58.1	10.2	3.97e-03	0	22	0	19922944	75	5359
2026-01-12 14:49:31.91	242.56	4.98	-53.2	-55.8	12.1	1.25e-04	0	22	0	25165824	73	4617
2026-01-12 14:49:32.91	242.67	5.03	-51.9	-54.1	13.1	0.00e+00	0	22	0	31457280	70	4515
2026-01-12 14:49:33.90	242.78	5.08	-52.1	-54.3	12.8	0.00e+00	0	23	0	36700160	69	4883
2026-01-12 14:49:34.89	242.90	5.12	-56.8	-65.9	4.5	3.52e-02	0	22	0	41943040	78	11060
2026-01-12 14:49:35.89	243.01	5.17	-51.8	-53.8	13.1	0.00e+00	0	22	0	46137344	68	4910
2026-01-12 14:49:36.88	243.13	5.22	-54.6	-58.4	10.0	1.91e-04	0	22	0	51380224	74	5858
2026-01-12 14:49:37.88	243.24	5.26	-48.8	-50.2	14.9	1.10e-06	0	22	0	56623104	64	4094
2026-01-12 14:49:38.88	243.36	5.31	-48.7	-50.2	14.9	0.00e+00	0	22	0	61865984	64	4062
2026-01-12 14:49:39.88	243.48	5.36	-48.9	-50.4	14.6	0.00e+00	0	22	0	68157440	63	4415
2026-01-12 14:49:40.88	243.59	5.41	-48.8	-50.3	14.7	0.00e+00	0	22	0	73400320	63	4342
2026-01-12 14:49:41.88	243.71	5.45	-48.8	-50.3	14.7	0.00e+00	0	22	0	78643200	63	4342
2026-01-12 14:49:42.87	243.83	5.50	-48.6	-50.0	14.8	0.00e+00	0	22	0	84934656	63	4232
2026-01-12 14:49:43.87	243.94	5.55	-48.8	-50.2	14.7	0.00e+00	0	22	0	90177536	63	4336
2026-01-12 14:49:44.86	244.06	5.59	-48.8	-50.3	14.7	0.00e+00	0	22	0	96468992	63	4352
2026-01-12 14:49:45.86	244.18	5.64	-48.8	-50.3	14.7	0.00e+00	0	23	0	101711872	63	4349
2026-01-12 14:49:46.86	244.30	5.69	-48.9	-50.3	14.7	0.00e+00	0	22	0	106954752	63	4375
2026-01-12 14:49:47.85	244.42	5.73	-48.7	-50.1	14.8	0.00e+00	0	22	0	113246208	63	4289
2026-01-12 14:49:48.86	244.54	5.78	-48.8	-50.3	14.7	0.00e+00	0	22	0	118489088	63	4341
2026-01-12 14:49:49.86	244.66	5.83	-48.8	-50.3	14.7	0.00e+00	0	23	0	123731968	63	4367
2026-01-12 14:49:50.85	244.78	5.88	-48.8	-50.3	14.7	0.00e+00	0	22	0	130023424	63	4347
2026-01-12 14:49:51.85	244.90	5.92	-48.8	-50.3	14.7	0.00e+00	0	23	0	135266304	63	4365
2026-01-12 14:49:52.84	245.02	5.97	-48.8	-50.3	14.7	0.00e+00	0	23	0	140509184	63	4373
2026-01-12 14:49:53.83	245.14	6.02	-48.7	-50.1	14.8	0.00e+00	0	23	0	146800640	63	4264
2026-01-12 14:49:54.83	245.26	6.06	-48.8	-50.3	14.7	0.00e+00	0	22	0	152043520	63	4345
2026-01-12 14:49:55.83	245.38	6.11	-48.6	-50.1	14.8	0.00e+00	0	22	0	157286400	63	4253
2026-01-12 14:49:56.82	245.50	6.16	-48.7	-50.1	14.8	0.00e+00	0	23	0	163577856	63	4269
2026-01-12 14:49:57.82	245.63	6.20	-48.7	-50.1	14.8	0.00e+00	0	23	0	168820736	63	4252
2026-01-12 14:49:58.82	245.75	6.25	-48.5	-49.9	15.0	0.00e+00	0	23	0	174063616	63	4172
2026-01-12 14:49:59.81	245.87	6.30	-48.3	-49.7	15.1	0.00e+00	0	23	0	180355072	63	4056
2026-01-12 14:50:00.81	246.00	6.34	-48.3	-49.7	15.1	0.00e+00	0	23	0	185597952	63	4057
2026-01-12 14:50:01.81	246.12	6.39	-48.5	-49.8	15.0	0.00e+00	0	22	0	191889408	63	4142
2026-01-12 14:50:02.81	246.25	6.44	-48.5	-50.0	14.9	0.00e+00	0	23	0	197132288	63	4194
2026-01-12 14:50:03.81	246.37	6.48	-48.6	-50.0	14.9	0.00e+00	0	23	0	202375168	63	4230
2026-01-12 14:50:04.81	246.50	6.53	-48.6	-50.0	14.9	0.00e+00	0	23	0	208666624	63	4222
2026-01-12 14:50:05.81	246.62	6.58	-48.5	-49.9	15.0	0.00e+00	0	23	0	213909504	63	4181
2026-01-12 14:50:06.81	246.75	6.62	-48.6	-50.0	14.9	0.00e+00	0	23	0	219152384	63	4205
2026-01-12 14:50:07.81	246.88	6.67	-48.5	-49.9	15.0	0.00e+00	0	23	0	225443840	63	4158
2026-01-12 14:50:08.81	247.00	6.72	-48.5	-49.9	15.0	0.00e+00	0	23	0	230686720	63	4161
2026-01-12 14:50:09.81	247.13	6.76	-48.6	-50.1	14.9	0.00e+00	0	23	0	235929600	63	4243
2026-01-12 14:50:10.81	247.26	6.81	-48.4	-49.8	15.0	0.00e+00	0	22	0	242221056	63	4124
2026-01-12 14:50:11.81	247.39	6.86	-48.6	-50.0	14.9	0.00e+00	0	22	0	247463936	63	4205
2026-01-12 14:50:12.81	247.52	6.90	-48.3	-49.6	15.1	0.00e+00	0	23	0	253755392	63	4044
2026-01-12 14:50:13.80	247.65	6.95	-48.5	-49.9	15.0	0.00e+00	0	23	0	258998272	63	4168
2026-01-12 14:50:14.81	247.78	7.00	-48.6	-50.0	14.9	0.00e+00	0	23	0	264241152	63	4215
2026-01-12 14:50:15.80	247.91	7.04	-48.3	-49.7	15.1	0.00e+00	0	23	0	270532608	63	4068
2026-01-12 14:50:16.80	248.04	7.09	-48.5	-49.9	15.0	0.00e+00	0	23	0	275775488	63	4157
2026-01-12 14:50:17.80	248.17	7.13	-48.4	-49.8	15.0	0.00e+00	0	23	0	281018368	63	4131
2026-01-12 14:50:18.80	248.30	7.18	-48.4	-49.8	15.0	0.00e+00	0	23	0	287309824	63	4131
2026-01-12 14:50:19.79	248.43	7.23	-48.3	-49.7	15.1	0.00e+00	0	23	0	292552704	63	4076
2026-01-12 14:50:20.79	248.56	7.27	-48.3	-49.6	15.2	0.00e+00	0	23	0	297795584	63	4027
2026-01-12 14:50:21.79	248.69	7.32	-48.2	-49.5	15.2	0.00e+00	0	23	0	304087040	63	3993
2026-01-12 14:50:22.79	248.83	7.36	-48.0	-49.3	15.2	0.00e+00	0	23	0	309329920	62	4117
2026-01-12 14:50:23.79	248.96	7.41	-48.1	-49.4	15.1	0.00e+00	0	23	0	314572800	62	4177
2026-01-12 14:50:24.79	249.09	7.46	-48.0	-49.3	15.2	0.00e+00	0	23	0	320864256	62	4125
2026-01-12 14:50:25.79	249.23	7.50	-47.9	-49.2	15.2	0.00e+00	0	23	0	326107136	62	4092
2026-01-12 14:50:26.78	249.36	7.55	-47.8	-49.1	15.3	0.00e+00	0	23	0	331350016	62	4028
2026-01-12 14:50:27.78	249.49	7.59	-47.9	-49.2	15.2	0.00e+00	0	23	0	337641472	62	4093
2026-01-12 14:50:28.78	249.63	7.64	-48.0	-49.3	15.1	0.00e+00	0	23	0	342884352	62	4144
2026-01-12 14:50:29.77	249.76	7.68	-48.1	-49.4	15.1	0.00e+00	0	23	0	348127232	62	4185
2026-01-12 14:50:30.77	249.90	7.73	-48.1	-49.4	15.1	0.00e+00	0	23	0	354418688	62	4185
2026-01-12 14:50:31.77	250.04	7.77	-48.1	-49.5	15.1	0.00e+00	0	23	0	359661568	62	4203
2026-01-12 14:50:32.76	250.17	7.82	-48.2	-49.5	15.1	0.00e+00	0	23	0	365953024	62	4216
2026-01-12 14:50:33.76	250.31	7.87	-48.1	-49.4	15.1	0.00e+00	0	23	0	371195904	62	4185
2026-01-12 14:50:34.77	250.45	7.91	-48.2	-49.5	15.0	0.00e+00	0	23	0	376438784	62	4235
2026-01-12 14:50:35.76	250.59	7.96	-48.1	-49.4	15.1	0.00e+00	0	23	0	382730240	62	4177
2026-01-12 14:50:36.76	250.72	8.00	-47.9	-49.3	15.2	0.00e+00	0	23	0	387973120	62	4100
2026-01-12 14:50:37.76	250.86	8.05	-48.0	-49.3	15.2	0.00e+00	0	23	0	393216000	62	4123
2026-01-12 14:50:38.76	251.00	8.09	-47.9	-49.2	15.3	0.00e+00	0	23	0	399507456	62	4060
2026-01-12 14:50:39.75	251.14	8.14	-48.0	-49.3	15.2	0.00e+00	0	23	0	404750336	62	4120
2026-01-12 14:50:40.75	251.28	8.18	-48.0	-49.4	15.2	0.00e+00	0	23	0	409993216	62	4160
2026-01-12 14:50:41.75	251.42	8.23	-48.0	-49.3	15.2	0.00e+00	0	23	0	416284672	62	4132
2026-01-12 14:50:42.76	251.56	8.27	-48.0	-49.4	15.1	0.00e+00	0	23	0	421527552	62	4156
2026-01-12 14:50:43.75	251.70	8.32	-48.0	-49.4	15.1	0.00e+00	0	23	0	427819008	62	4163
2026-01-12 14:50:44.75	251.85	8.36	-48.0	-49.3	15.2	0.00e+00	0	23	0	433061888	62	4139
2026-01-12 14:50:45.74	251.99	8.40	-48.0	-49.3	15.2	0.00e+00	0	23	0	438304768	62	4144
2026-01-12 14:50:46.74	252.13	8.45	-48.0	-49.3	15.2	0.00e+00	0	23	0	443547648	62	4100
2026-01-12 14:50:47.74	252.27	8.49	-48.0	-49.3	15.2	0.00e+00	0	23	0	449839104	62	4125
2026-01-12 14:50:48.74	252.42	8.54	-48.1	-49.4	15.1	0.00e+00	0	23	0	455081984	62	4187
2026-01-12 14:50:49.75	252.56	8.58	-47.9	-49.3	15.2	0.00e+00	0	23	0	461373440	62	4102
2026-01-12 14:50:50.74	252.71	8.63	-47.9	-49.2	15.3	0.00e+00	0	23	0	466616320	62	4073
2026-01-12 14:50:51.74	252.85	8.67	-48.0	-49.3	15.2	0.00e+00	0	23	0	471859200	62	4109
2026-01-12 14:50:52.74	253.00	8.72	-47.9	-49.3	15.2	0.00e+00	0	23	0	478150656	62	4101
2026-01-12 14:50:53.74	253.14	8.76	-47.9	-49.2	15.3	0.00e+00	0	23	0	483393536	62	4082
2026-01-12 14:50:54.74	253.29	8.80	-47.8	-49.1	15.3	0.00e+00	0	23	0	488636416	62	4006
2026-01-12 14:50:55.74	253.43	8.85	-47.9	-49.2	15.3	0.00e+00	0	23	0	494927872	62	4064
2026-01-12 14:50:56.73	253.58	8.89	-47.7	-49.0	15.3	0.00e+00	0	23	0	500170752	62	3992
2026-01-12 14:50:57.74	253.73	8.94	-47.7	-49.0	15.4	0.00e+00	0	23	0	505413632	62	3986
2026-01-12 14:50:58.73	253.87	8.98	-47.8	-49.1	15.3	0.00e+00	0	23	0	511705088	62	4026
2026-01-12 14:50:59.73	254.02	9.02	-47.8	-49.0	15.4	0.00e+00	0	23	0	516947968	62	4003
2026-01-12 14:51:00.73	254.17	9.07	-47.6	-48.9	15.3	0.00e+00	0	23	0	522190848	61	4146
2026-01-12 14:51:01.73	254.32	9.11	-47.5	-48.8	15.3	0.00e+00	0	23	0	528482304	61	4124
2026-01-12 14:51:02.74	254.47	9.15	-47.5	-48.7	15.3	0.00e+00	0	23	0	533725184	61	4097
2026-01-12 14:51:03.73	254.62	9.20	-47.6	-48.8	15.3	0.00e+00	0	23	0	540016640	61	4139
2026-01-12 14:51:04.72	254.77	9.24	-47.5	-48.8	15.3	0.00e+00	0	23	0	545259520	61	4126
2026-01-12 14:51:05.71	254.92	9.28	-47.6	-48.9	15.2	0.00e+00	0	23	0	550502400	61	4168
2026-01-12 14:51:06.71	255.07	9.32	-47.6	-48.8	15.3	0.00e+00	0	23	0	556793856	61	4131
2026-01-12 14:51:07.72	255.22	9.37	-47.4	-48.7	15.3	0.00e+00	0	23	0	562036736	61	4074
2026-01-12 14:51:08.70	255.37	9.41	-47.5	-48.7	15.4	0.00e+00	0	23	0	567279616	61	4079
2026-01-12 14:51:09.70	255.52	9.45	-47.6	-48.8	15.3	0.00e+00	0	23	0	573571072	61	4139
2026-01-12 14:51:10.70	255.68	9.49	-47.6	-48.8	15.3	0.00e+00	0	23	0	578813952	61	4137
2026-01-12 14:51:11.70	255.83	9.54	-47.4	-48.7	15.4	0.00e+00	0	23	0	584056832	61	4067
2026-01-12 14:51:12.71	255.99	9.58	-47.5	-48.7	15.3	0.00e+00	0	23	0	590348288	61	4092
2026-01-12 14:51:13.70	256.14	9.62	-47.4	-48.6	15.4	0.00e+00	0	23	0	595591168	61	4028
2026-01-12 14:51:14.70	256.29	9.66	-47.4	-48.6	15.4	0.00e+00	0	23	0	601882624	61	4049
2026-01-12 14:51:15.71	256.45	9.70	-47.5	-48.8	15.3	0.00e+00	0	23	0	607125504	61	4118
2026-01-12 14:51:16.71	256.60	9.75	-47.4	-48.7	15.4	0.00e+00	0	23	0	612368384	61	4055
2026-01-12 14:51:17.71	256.76	9.79	-47.5	-48.7	15.4	0.00e+00	0	23	0	618659840	61	4078
2026-01-12 14:51:18.71	256.92	9.83	-47.3	-48.6	15.4	0.00e+00	0	23	0	623902720	61	4022
2026-01-12 14:51:19.71	257.07	9.87	-47.4	-48.7	15.4	0.00e+00	0	23	0	629145600	61	4068
2026-01-12 14:51:20.70	257.23	9.91	-47.4	-48.6	15.4	0.00e+00	0	23	0	635437056	61	4035
2026-01-12 14:51:21.70	257.39	9.95	-47.4	-48.6	15.4	0.00e+00	0	23	0	640679936	61	4030
2026-01-12 14:51:22.70	257.55	9.99	-47.4	-48.6	15.4	0.00e+00	0	23	0	645922816	61	4040
2026-01-12 14:51:23.69	257.70	10.04	-47.3	-48.5	15.5	0.00e+00	0	23	0	652214272	61	3990
2026-01-12 14:51:24.69	257.86	10.08	-47.3	-48.5	15.5	0.00e+00	0	23	0	657457152	61	3974
2026-01-12 14:51:25.68	258.02	10.12	-47.2	-48.5	15.5	0.00e+00	0	23	0	662700032	61	3968
2026-01-12 14:51:26.68	258.18	10.16	-47.2	-48.4	15.5	0.00e+00	0	23	0	668991488	61	3933
2026-01-12 14:51:27.68	258.34	10.20	-47.2	-48.4	15.3	0.00e+00	0	23	0	674234368	60	4189
2026-01-12 14:51:28.67	258.50	10.24	-47.2	-48.5	15.3	0.00e+00	0	23	0	679477248	60	4219
2026-01-12 14:51:29.67	258.66	10.28	-47.3	-48.5	15.3	0.00e+00	0	23	0	685768704	60	4214
2026-01-12 14:51:30.67	258.82	10.32	-47.3	-48.5	15.3	0.00e+00	0	23	0	691011584	60	4230
2026-01-12 14:51:31.67	258.98	10.36	-47.2	-48.4	15.3	0.00e+00	0	23	0	696254464	60	4186
2026-01-12 14:51:32.67	259.14	10.40	-47.2	-48.4	15.3	0.00e+00	0	23	0	702545920	60	4176
2026-01-12 14:51:33.66	259.31	10.44	-47.1	-48.4	15.4	0.00e+00	0	23	0	707788800	60	4157
2026-01-12 14:51:34.64	259.47	10.48	-47.2	-48.4	15.3	0.00e+00	0	23	0	714080256	60	4166
2026-01-12 14:51:35.64	259.63	10.52	-47.1	-48.3	15.4	0.00e+00	0	23	0	719323136	60	4127
2026-01-12 14:51:36.64	259.79	10.56	-47.2	-48.4	15.3	0.00e+00	0	23	0	724566016	60	4168
2026-01-12 14:51:37.63	259.96	10.59	-47.2	-48.4	15.3	0.00e+00	0	23	0	729808896	60	4184
2026-01-12 14:51:38.64	260.12	10.63	-47.1	-48.4	15.4	0.00e+00	0	23	0	736100352	60	4153
2026-01-12 14:51:39.64	260.29	10.67	-47.0	-48.2	15.4	0.00e+00	0	23	0	741343232	60	4073
2026-01-12 14:51:40.64	260.45	10.71	-46.9	-48.1	15.5	0.00e+00	0	23	0	747634688	60	4026
2026-01-12 14:51:41.63	260.62	10.75	-46.9	-48.1	15.5	0.00e+00	0	23	0	752877568	60	4027
2026-01-12 14:51:42.63	260.78	10.79	-46.9	-48.1	15.5	0.00e+00	0	23	0	758120448	60	4042
2026-01-12 14:51:43.62	260.95	10.83	-47.1	-48.3	15.4	0.00e+00	0	23	0	764411904	60	4114
2026-01-12 14:51:44.62	261.12	10.86	-47.0	-48.2	15.5	0.00e+00	0	23	0	769654784	60	4079
2026-01-12 14:51:45.63	261.29	10.90	-47.0	-48.2	15.5	0.00e+00	0	23	0	774897664	60	4052
2026-01-12 14:51:46.63	261.46	10.94	-46.9	-48.1	15.5	0.00e+00	0	23	0	781189120	60	4009
2026-01-12 14:51:47.64	261.63	10.98	-47.0	-48.2	15.4	0.00e+00	0	23	0	786432000	60	4075
2026-01-12 14:51:48.64	261.79	11.01	-47.1	-48.3	15.4	0.00e+00	0	23	0	791674880	60	4129
2026-01-12 14:51:49.64	261.96	11.05	-47.1	-48.3	15.4	0.00e+00	0	23	0	797966336	60	4118
2026-01-12 14:51:50.65	262.14	11.09	-47.1	-48.3	15.4	0.00e+00	0	23	0	803209216	60	4110
2026-01-12 14:51:51.65	262.31	11.13	-47.1	-48.3	15.4	0.00e+00	0	23	0	809500672	60	4112
2026-01-12 14:51:52.66	262.48	11.16	-47.1	-48.4	15.4	0.00e+00	0	23	0	814743552	60	4146
2026-01-12 14:51:53.65	262.65	11.20	-47.1	-48.3	15.4	0.00e+00	0	23	0	821035008	60	4137
2026-01-12 14:51:54.65	262.82	11.24	-47.1	-48.3	15.4	0.00e+00	0	23	0	826277888	60	4130
2026-01-12 14:51:55.65	262.99	11.27	-47.1	-48.3	15.4	0.00e+00	0	23	0	831520768	60	4117
2026-01-12 14:51:56.64	263.16	11.31	-47.1	-48.3	15.4	0.00e+00	0	23	0	837812224	60	4141
2026-01-12 14:51:57.65	263.34	11.34	-47.2	-48.4	15.4	0.00e+00	0	23	0	843055104	60	4171
2026-01-12 14:51:58.65	263.51	11.38	-47.2	-48.5	15.3	0.00e+00	0	23	0	848297984	60	4203
2026-01-12 14:51:59.65	263.68	11.42	-47.0	-48.2	15.4	0.00e+00	0	23	0	854589440	60	4092
2026-01-12 14:52:00.65	263.86	11.45	-47.0	-48.2	15.5	0.00e+00	0	23	0	859832320	60	4060
2026-01-12 14:52:01.64	264.03	11.49	-47.0	-48.2	15.4	0.00e+00	0	23	0	865075200	60	4096
2026-01-12 14:52:02.65	264.21	11.52	-47.0	-48.2	15.5	0.00e+00	0	23	0	871366656	60	4059
2026-01-12 14:52:03.65	264.38	11.56	-46.9	-48.1	15.5	0.00e+00	0	23	0	876609536	60	4037
2026-01-12 14:52:04.65	264.56	11.59	-46.9	-48.1	15.5	0.00e+00	0	23	0	882900992	60	4036
2026-01-12 14:52:05.66	264.74	11.63	-46.9	-48.1	15.5	0.00e+00	0	23	0	888143872	60	4017
2026-01-12 14:52:06.67	264.91	11.66	-46.9	-48.1	15.5	0.00e+00	0	23	0	893386752	60	4050
2026-01-12 14:52:07.67	265.09	11.69	-47.0	-48.2	15.4	0.00e+00	0	23	0	899678208	60	4090
2026-01-12 14:52:08.67	265.27	11.73	-47.0	-48.2	15.5	0.00e+00	0	23	0	904921088	60	4074
2026-01-12 14:52:09.67	265.45	11.76	-47.0	-48.2	15.5	0.00e+00	0	23	0	910163968	60	4073
2026-01-12 14:52:10.67	265.62	11.80	-47.0	-48.2	15.4	0.00e+00	0	23	0	916455424	60	4083
2026-01-12 14:52:11.67	265.80	11.83	-47.0	-48.3	15.4	0.00e+00	0	23	0	921698304	60	4101
2026-01-12 14:52:12.67	265.98	11.86	-46.9	-48.1	15.5	0.00e+00	0	23	0	926941184	60	4030
2026-01-12 14:52:13.67	266.16	11.89	-46.9	-48.1	15.5	0.00e+00	0	23	0	933232640	60	4037
2026-01-12 14:52:14.68	266.34	11.93	-46.7	-47.9	15.6	0.00e+00	0	23	0	938475520	60	3937
2026-01-12 14:52:15.68	266.52	11.96	-46.8	-48.0	15.6	0.00e+00	0	23	0	944766976	60	3963
2026-01-12 14:52:16.69	266.70	11.99	-47.0	-48.2	15.4	0.00e+00	0	23	0	950009856	59	4310
2026-01-12 14:52:17.69	266.88	12.02	-46.9	-48.1	15.4	0.00e+00	0	23	0	955252736	59	4276
2026-01-12 14:52:18.69	267.06	12.06	-47.1	-48.3	15.3	0.00e+00	0	23	0	961544192	59	4358
2026-01-12 14:52:19.70	267.25	12.09	-47.0	-48.3	15.3	0.00e+00	0	23	0	966787072	59	4348
2026-01-12 14:52:20.69	267.43	12.12	-47.1	-48.3	15.3	0.00e+00	0	23	0	973078528	59	4380
2026-01-12 14:52:21.69	267.61	12.15	-47.2	-48.5	15.2	0.00e+00	0	23	0	978321408	59	4463
2026-01-12 14:52:22.68	267.79	12.18	-47.3	-48.5	15.2	0.00e+00	0	23	0	983564288	59	4484
2026-01-12 14:52:23.68	267.97	12.21	-47.3	-48.5	15.2	0.00e+00	0	23	0	988807168	59	4491
2026-01-12 14:52:24.68	268.16	12.24	-47.3	-48.5	15.2	0.00e+00	0	23	0	995098624	59	4486
2026-01-12 14:52:25.68	268.34	12.27	-47.2	-48.5	15.3	0.00e+00	0	23	0	1000341504	59	4458
2026-01-12 14:52:26.67	268.52	12.30	-47.2	-48.5	15.3	0.00e+00	0	23	0	1006632960	59	4462
2026-01-12 14:52:27.67	268.71	12.33	-47.1	-48.4	15.3	0.00e+00	0	23	0	1011875840	59	4407
2026-01-12 14:52:28.67	268.89	12.36	-47.2	-48.4	15.3	0.00e+00	0	23	0	1017118720	59	4430
2026-01-12 14:52:29.67	269.08	12.39	-47.0	-48.2	15.3	0.00e+00	0	23	0	1023410176	59	4322
2026-01-12 14:52:30.67	269.26	12.42	-47.0	-48.2	15.3	0.00e+00	0	23	0	1028653056	59	4336
2026-01-12 14:52:31.66	269.45	12.45	-47.0	-48.2	15.4	0.00e+00	0	23	0	1033895936	59	4317
2026-01-12 14:52:32.66	269.63	12.48	-47.0	-48.2	15.4	0.00e+00	0	23	0	1040187392	59	4325
2026-01-12 14:52:33.66	269.82	12.51	-47.0	-48.2	15.4	0.00e+00	0	23	0	1045430272	59	4318
2026-01-12 14:52:34.66	270.01	12.53	-47.1	-48.4	15.3	0.00e+00	0	23	0	1050673152	59	4403
2026-01-12 14:52:35.67	270.20	12.56	-47.2	-48.5	15.2	0.00e+00	0	23	0	1056964608	59	4460
2026-01-12 14:52:36.67	270.38	12.59	-47.1	-48.4	15.3	0.00e+00	0	23	0	1062207488	59	4405
2026-01-12 14:52:37.67	270.57	12.62	-47.1	-48.4	15.3	0.00e+00	0	23	0	1068498944	59	4406
2026-01-12 14:52:38.67	270.76	12.64	-47.1	-48.4	15.3	0.00e+00	0	23	0	1073741824	59	4399
2026-01-12 14:52:39.66	270.95	12.67	-47.2	-48.4	15.3	0.00e+00	0	23	0	1078984704	59	4426
2026-01-12 14:52:40.65	271.13	12.70	-47.2	-48.4	15.3	0.00e+00	0	23	0	1085276160	59	4422
2026-01-12 14:52:41.65	271.32	12.72	-47.1	-48.4	15.3	0.00e+00	0	23	0	1090519040	59	4408
2026-01-12 14:52:42.65	271.51	12.75	-47.2	-48.4	15.2	0.00e+00	0	23	0	1095761920	59	4437
2026-01-12 14:52:43.65	271.70	12.78	-47.2	-48.5	15.2	0.00e+00	0	23	0	1102053376	59	4459
2026-01-12 14:52:44.65	271.89	12.80	-47.3	-48.6	15.2	0.00e+00	0	23	0	1107296256	59	4512
2026-01-12 14:52:45.65	272.08	12.83	-47.3	-48.6	15.2	0.00e+00	0	23	0	1112539136	59	4515
2026-01-12 14:52:46.65	272.27	12.85	-47.1	-48.3	15.3	0.00e+00	0	23	0	1118830592	59	4385
2026-01-12 14:52:47.65	272.46	12.88	-47.0	-48.3	15.3	0.00e+00	0	23	0	1124073472	59	4351
2026-01-12 14:52:48.65	272.66	12.90	-47.0	-48.3	15.3	0.00e+00	0	23	0	1130364928	59	4360
2026-01-12 14:52:49.65	272.85	12.93	-47.0	-48.3	15.3	0.00e+00	0	23	0	1135607808	59	4353
2026-01-12 14:52:50.64	273.04	12.95	-47.0	-48.3	15.3	0.00e+00	0	23	0	1140850688	59	4352
2026-01-12 14:52:51.65	273.23	12.97	-47.0	-48.2	15.3	0.00e+00	0	23	0	1147142144	59	4340
2026-01-12 14:52:52.65	273.42	13.00	-47.0	-48.2	15.4	0.00e+00	0	23	0	1152385024	59	4326
2026-01-12 14:52:53.66	273.62	13.02	-47.1	-48.3	15.3	0.00e+00	0	23	0	1157627904	59	4370
2026-01-12 14:52:54.67	273.81	13.04	-47.1	-48.3	15.3	0.00e+00	0	23	0	1163919360	59	4371
2026-01-12 14:52:55.66	274.01	13.07	-47.0	-48.2	15.4	0.00e+00	0	23	0	1169162240	59	4322
2026-01-12 14:52:56.67	274.20	13.09	-46.9	-48.1	15.4	0.00e+00	0	23	0	1174405120	59	4250
2026-01-12 14:52:57.67	274.40	13.11	-46.7	-47.9	15.5	0.00e+00	0	23	0	1180696576	59	4191
2026-01-12 14:52:58.67	274.59	13.13	-46.7	-47.9	15.5	0.00e+00	0	23	0	1185939456	59	4170
2026-01-12 14:52:59.67	274.78	13.15	-46.7	-47.9	15.5	0.00e+00	0	23	0	1192230912	59	4156
2026-01-12 14:53:00.67	274.98	13.18	-46.8	-48.0	15.5	0.00e+00	0	23	0	1197473792	59	4197
2026-01-12 14:53:01.67	275.17	13.20	-46.8	-48.0	15.5	0.00e+00	0	23	0	1202716672	59	4218
2026-01-12 14:53:02.68	275.37	13.22	-46.8	-48.0	15.4	0.00e+00	0	23	0	1209008128	59	4234
2026-01-12 14:53:03.67	275.57	13.24	-46.8	-48.0	15.5	0.00e+00	0	23	0	1214251008	59	4208
2026-01-12 14:53:04.67	275.76	13.26	-46.7	-47.9	15.5	0.00e+00	0	23	0	1219493888	59	4178
2026-01-12 14:53:05.66	275.96	13.28	-46.8	-48.0	15.4	0.00e+00	0	23	0	1225785344	59	4229
2026-01-12 14:53:06.66	276.15	13.30	-46.7	-47.9	15.5	0.00e+00	0	23	0	1231028224	59	4162
2026-01-12 14:53:07.67	276.35	13.32	-46.8	-48.0	15.5	0.00e+00	0	23	0	1236271104	59	4204
2026-01-12 14:53:08.67	276.55	13.34	-46.9	-48.1	15.4	0.00e+00	0	23	0	1242562560	59	4265
2026-01-12 14:53:09.68	276.75	13.35	-46.7	-47.9	15.5	0.00e+00	0	23	0	1247805440	59	4177
2026-01-12 14:53:10.67	276.94	13.37	-46.6	-47.8	15.5	0.00e+00	0	23	0	1254096896	59	4129
2026-01-12 14:53:11.68	277.14	13.39	-46.6	-47.8	15.5	0.00e+00	0	23	0	1259339776	59	4137
2026-01-12 14:53:12.68	277.34	13.41	-46.7	-47.9	15.5	0.00e+00	0	23	0	1264582656	59	4156
2026-01-12 14:53:13.67	277.54	13.43	-46.8	-48.0	15.5	0.00e+00	0	23	0	1270874112	59	4208
2026-01-12 14:53:14.67	277.73	13.44	-46.8	-48.0	15.4	0.00e+00	0	23	0	1276116992	59	4240
2026-01-12 14:53:15.67	277.93	13.46	-46.9	-48.1	15.4	0.00e+00	0	23	0	1281359872	59	4271
2026-01-12 14:53:16.66	278.13	13.48	-46.9	-48.2	15.4	0.00e+00	0	23	0	1287651328	59	4295
2026-01-12 14:53:17.65	278.33	13.49	-47.0	-48.2	15.4	0.00e+00	0	23	0	1292894208	59	4318
2026-01-12 14:53:18.65	278.53	13.51	-47.1	-48.4	15.3	0.00e+00	0	23	0	1298137088	59	4397
2026-01-12 14:53:19.65	278.73	13.52	-47.2	-48.4	15.3	0.00e+00	0	23	0	1304428544	59	4422
2026-01-12 14:53:20.65	278.92	13.54	-47.3	-48.5	15.2	0.00e+00	0	23	0	1309671424	59	4489
2026-01-12 14:53:21.65	279.12	13.55	-47.3	-48.5	15.2	0.00e+00	0	23	0	1315962880	59	4479
2026-01-12 14:53:22.66	279.33	13.57	-47.3	-48.5	15.2	0.00e+00	0	23	0	1321205760	59	4475
2026-01-12 14:53:23.65	279.52	13.58	-47.2	-48.5	15.3	0.00e+00	0	23	0	1326448640	59	4459
2026-01-12 14:53:24.64	279.72	13.60	-47.2	-48.4	15.3	0.00e+00	0	23	0	1332740096	59	4423
2026-01-12 14:53:25.63	279.92	13.61	-47.2	-48.4	15.3	0.00e+00	0	23	0	1337982976	59	4415
2026-01-12 14:53:26.63	280.12	13.63	-47.2	-48.4	15.3	0.00e+00	0	23	0	1343225856	59	4424
2026-01-12 14:53:27.63	280.32	13.64	-47.1	-48.4	15.3	0.00e+00	0	23	0	1349517312	59	4406
2026-01-12 14:53:28.62	280.52	13.65	-47.0	-48.2	15.4	0.00e+00	0	23	0	1354760192	59	4326
2026-01-12 14:53:29.62	280.72	13.66	-47.0	-48.2	15.4	0.00e+00	0	23	0	1360003072	59	4319
2026-01-12 14:53:30.61	280.92	13.68	-47.1	-48.3	15.3	0.00e+00	0	23	0	1366294528	59	4366
2026-01-12 14:53:31.61	281.12	13.69	-47.1	-48.4	15.3	0.00e+00	0	23	0	1371537408	59	4393
2026-01-12 14:53:32.60	281.32	13.70	-47.2	-48.4	15.3	0.00e+00	0	23	0	1376780288	59	4425
2026-01-12 14:53:33.60	281.53	13.71	-47.2	-48.4	15.3	0.00e+00	0	23	0	1383071744	59	4435
2026-01-12 14:53:34.59	281.73	13.72	-47.3	-48.5	15.3	0.00e+00	0	23	0	1388314624	59	4468
2026-01-12 14:53:35.58	281.93	13.73	-47.2	-48.4	15.3	0.00e+00	0	23	0	1393557504	59	4438
2026-01-12 14:53:36.57	282.13	13.74	-47.1	-48.3	15.3	0.00e+00	0	23	0	1399848960	59	4373
2026-01-12 14:53:37.57	282.33	13.75	-47.1	-48.3	15.3	0.00e+00	0	23	0	1405091840	59	4389
2026-01-12 14:53:38.56	282.53	13.76	-47.2	-48.4	15.3	0.00e+00	0	23	0	1410334720	59	4414
2026-01-12 14:53:39.56	282.73	13.77	-47.1	-48.3	15.3	0.00e+00	0	23	0	1416626176	59	4379
2026-01-12 14:53:40.56	282.93	13.78	-47.1	-48.3	15.4	0.00e+00	0	23	0	1421869056	59	4370
2026-01-12 14:53:41.56	283.14	13.79	-47.1	-48.4	15.3	0.00e+00	0	23	0	1427111936	59	4399
2026-01-12 14:53:42.56	283.34	13.80	-47.2	-48.4	15.3	0.00e+00	0	23	0	1433403392	59	4422
2026-01-12 14:53:43.56	283.54	13.81	-47.1	-48.4	15.3	0.00e+00	0	23	0	1438646272	59	4402
2026-01-12 14:53:44.55	283.74	13.81	-47.1	-48.4	15.3	0.00e+00	0	23	0	1443889152	59	4395
2026-01-12 14:53:45.55	283.95	13.82	-46.9	-48.1	15.4	0.00e+00	0	23	0	1450180608	59	4250
2026-01-12 14:53:46.55	284.15	13.83	-46.9	-48.1	15.4	0.00e+00	0	23	0	1455423488	59	4282
2026-01-12 14:53:47.55	284.35	13.84	-47.0	-48.2	15.3	0.00e+00	0	23	0	1461714944	59	4336
2026-01-12 14:53:48.56	284.56	13.84	-47.0	-48.2	15.4	0.00e+00	0	23	0	1466957824	59	4313
2026-01-12 14:53:49.56	284.76	13.85	-47.0	-48.2	15.4	0.00e+00	0	23	0	1472200704	59	4327
2026-01-12 14:53:50.55	284.97	13.85	-47.1	-48.3	15.3	0.00e+00	0	23	0	1478492160	59	4377
2026-01-12 14:53:51.55	285.17	13.86	-47.1	-48.3	15.3	0.00e+00	0	23	0	1483735040	59	4364
2026-01-12 14:53:52.55	285.37	13.86	-47.1	-48.3	15.4	0.00e+00	0	23	0	1488977920	59	4357
2026-01-12 14:53:53.54	285.57	13.87	-47.1	-48.3	15.3	0.00e+00	0	23	0	1495269376	59	4390
2026-01-12 14:53:54.55	285.78	13.87	-47.0	-48.2	15.4	0.00e+00	0	23	0	1500512256	59	4326
2026-01-12 14:53:55.55	285.99	13.88	-47.0	-48.3	15.4	0.00e+00	0	23	0	1505755136	59	4354
2026-01-12 14:53:56.55	286.19	13.88	-47.1	-48.3	15.4	0.00e+00	0	23	0	1512046592	59	4363
2026-01-12 14:53:57.55	286.39	13.88	-47.1	-48.3	15.4	0.00e+00	0	23	0	1517289472	59	4368
2026-01-12 14:53:58.55	286.60	13.89	-47.1	-48.4	15.3	0.00e+00	0	23	0	1523580928	59	4410
2026-01-12 14:53:59.55	286.80	13.89	-47.1	-48.4	15.3	0.00e+00	0	23	0	1528823808	59	4411
2026-01-12 14:54:00.54	287.00	13.89	-47.2	-48.4	15.3	0.00e+00	0	23	0	1534066688	59	4416
2026-01-12 14:54:01.54	287.21	13.90	-47.2	-48.4	15.3	0.00e+00	0	23	0	1539309568	59	4439
2026-01-12 14:54:02.54	287.41	13.90	-47.2	-48.4	15.3	0.00e+00	0	23	0	1545601024	59	4439
2026-01-12 14:54:03.54	287.62	13.90	-47.2	-48.5	15.3	0.00e+00	0	23	0	1550843904	59	4447
2026-01-12 14:54:04.55	287.82	13.90	-47.2	-48.5	15.3	0.00e+00	0	23	0	1557135360	59	4445
2026-01-12 14:54:05.55	288.03	13.90	-47.3	-48.6	15.2	0.00e+00	0	23	0	1562378240	59	4495
2026-01-12 14:54:06.55	288.23	13.90	-47.4	-48.6	15.2	0.00e+00	0	23	0	1567621120	59	4539
2026-01-12 14:54:07.55	288.44	13.90	-46.9	-48.1	15.5	0.00e+00	0	23	0	1573912576	60	4047
2026-01-12 14:54:08.55	288.64	13.90	-46.8	-48.0	15.6	0.00e+00	0	23	0	1579155456	60	3995
2026-01-12 14:54:09.55	288.84	13.90	-46.8	-47.9	15.6	0.00e+00	0	23	0	1585446912	60	3954
2026-01-12 14:54:10.55	289.05	13.90	-46.8	-48.0	15.6	0.00e+00	0	23	0	1590689792	60	3991
2026-01-12 14:54:11.55	289.25	13.90	-46.9	-48.1	15.6	0.00e+00	0	23	0	1595932672	60	4014
2026-01-12 14:54:12.54	289.46	13.90	-46.8	-47.9	15.6	0.00e+00	0	23	0	1602224128	60	3948
2026-01-12 14:54:13.54	289.66	13.90	-46.8	-48.0	15.6	0.00e+00	0	23	0	1607467008	60	3962
2026-01-12 14:54:14.55	289.87	13.89	-46.8	-48.0	15.6	0.00e+00	0	23	0	1612709888	60	3988
2026-01-12 14:54:15.55	290.07	13.89	-46.9	-48.0	15.6	0.00e+00	0	23	0	1619001344	60	4000
2026-01-12 14:54:16.55	290.27	13.89	-46.9	-48.1	15.5	0.00e+00	0	23	0	1624244224	60	4039
2026-01-12 14:54:17.55	290.48	13.88	-47.0	-48.2	15.5	0.00e+00	0	23	0	1629487104	60	4053
2026-01-12 14:54:18.55	290.68	13.88	-46.9	-48.0	15.6	0.00e+00	0	23	0	1635778560	60	4003
2026-01-12 14:54:19.55	290.89	13.88	-46.8	-48.0	15.6	0.00e+00	0	23	0	1641021440	60	3980
2026-01-12 14:54:20.54	291.09	13.87	-46.9	-48.1	15.5	0.00e+00	0	23	0	1646264320	60	4025
2026-01-12 14:54:21.54	291.29	13.87	-46.9	-48.1	15.5	0.00e+00	0	23	0	1652555776	60	4041
2026-01-12 14:54:22.53	291.49	13.86	-46.9	-48.1	15.6	0.00e+00	0	23	0	1657798656	60	4012
2026-01-12 14:54:23.53	291.70	13.86	-46.9	-48.1	15.5	0.00e+00	0	23	0	1663041536	60	4030
2026-01-12 14:54:24.52	291.90	13.85	-46.9	-48.1	15.5	0.00e+00	0	23	0	1669332992	60	4039
2026-01-12 14:54:25.52	292.10	13.85	-46.9	-48.0	15.6	0.00e+00	0	23	0	1674575872	60	3995
2026-01-12 14:54:26.51	292.30	13.84	-47.0	-48.2	15.5	0.00e+00	0	23	0	1679818752	60	4069
2026-01-12 14:54:27.51	292.51	13.83	-47.0	-48.3	15.5	0.00e+00	0	23	0	1686110208	60	4099
2026-01-12 14:54:28.51	292.71	13.83	-47.0	-48.2	15.5	0.00e+00	0	23	0	1691353088	60	4086
2026-01-12 14:54:29.51	292.91	13.82	-47.0	-48.3	15.5	0.00e+00	0	23	0	1697644544	60	4110
2026-01-12 14:54:30.51	293.12	13.81	-47.2	-48.4	15.4	0.00e+00	0	23	0	1702887424	60	4165
2026-01-12 14:54:31.51	293.32	13.81	-47.0	-48.1	15.5	0.00e+00	0	23	0	1708130304	60	4050
2026-01-12 14:54:32.51	293.52	13.80	-46.9	-48.1	15.5	0.00e+00	0	23	0	1714421760	60	4041
2026-01-12 14:54:33.51	293.73	13.79	-46.8	-48.0	15.6	0.00e+00	0	23	0	1719664640	60	3990
2026-01-12 14:54:34.50	293.93	13.78	-46.9	-48.1	15.5	0.00e+00	0	23	0	1724907520	60	4020
2026-01-12 14:54:35.48	294.13	13.77	-47.0	-48.2	15.5	0.00e+00	0	23	0	1730150400	60	4067
2026-01-12 14:54:36.47	294.33	13.76	-47.2	-48.4	15.4	0.00e+00	0	23	0	1736441856	60	4150
2026-01-12 14:54:37.46	294.53	13.75	-47.2	-48.4	15.4	0.00e+00	0	23	0	1741684736	60	4178
2026-01-12 14:54:38.45	294.73	13.74	-47.3	-48.5	15.4	0.00e+00	0	23	0	1747976192	60	4202
2026-01-12 14:54:39.45	294.93	13.73	-47.1	-48.3	15.4	0.00e+00	0	23	0	1753219072	60	4135
2026-01-12 14:54:40.44	295.13	13.72	-47.1	-48.3	15.4	0.00e+00	0	23	0	1758461952	60	4124
2026-01-12 14:54:41.44	295.33	13.71	-47.1	-48.3	15.5	0.00e+00	0	23	0	1764753408	60	4116
2026-01-12 14:54:42.45	295.53	13.70	-47.2	-48.4	15.4	0.00e+00	0	23	0	1769996288	60	4171
2026-01-12 14:54:43.45	295.74	13.69	-47.1	-48.3	15.4	0.00e+00	0	23	0	1775239168	60	4123
2026-01-12 14:54:44.45	295.94	13.67	-47.2	-48.4	15.4	0.00e+00	0	23	0	1781530624	60	4175
2026-01-12 14:54:45.45	296.14	13.66	-47.1	-48.4	15.4	0.00e+00	0	23	0	1786773504	60	4151
2026-01-12 14:54:46.46	296.34	13.65	-47.3	-48.5	15.3	0.00e+00	0	23	0	1792016384	60	4217
2026-01-12 14:54:47.45	296.54	13.64	-47.2	-48.4	15.4	0.00e+00	0	23	0	1798307840	60	4173
2026-01-12 14:54:48.44	296.74	13.62	-47.2	-48.4	15.4	0.00e+00	0	23	0	1803550720	60	4171
2026-01-12 14:54:49.45	296.94	13.61	-47.1	-48.3	15.4	0.00e+00	0	23	0	1809842176	60	4127
2026-01-12 14:54:50.44	297.14	13.60	-47.1	-48.4	15.4	0.00e+00	0	23	0	1815085056	60	4150
2026-01-12 14:54:51.44	297.34	13.58	-47.1	-48.3	15.4	0.00e+00	0	23	0	1820327936	60	4126
2026-01-12 14:54:52.44	297.54	13.57	-47.1	-48.3	15.4	0.00e+00	0	23	0	1826619392	60	4135
2026-01-12 14:54:53.45	297.74	13.55	-47.2	-48.4	15.4	0.00e+00	0	23	0	1831862272	60	4153
2026-01-12 14:54:54.46	297.94	13.54	-47.1	-48.3	15.5	0.00e+00	0	23	0	1837105152	60	4107
2026-01-12 14:54:55.46	298.14	13.52	-47.0	-48.2	15.5	0.00e+00	0	23	0	1843396608	60	4068
2026-01-12 14:54:56.46	298.34	13.51	-47.1	-48.2	15.5	0.00e+00	0	23	0	1848639488	60	4093
2026-01-12 14:54:57.46	298.54	13.49	-47.1	-48.3	15.4	0.00e+00	0	23	0	1853882368	60	4125
2026-01-12 14:54:58.46	298.74	13.47	-47.1	-48.3	15.4	0.00e+00	0	23	0	1860173824	60	4123
2026-01-12 14:54:59.46	298.94	13.46	-47.2	-48.4	15.4	0.00e+00	0	23	0	1865416704	60	4191
2026-01-12 14:55:00.45	299.13	13.44	-47.2	-48.4	15.4	0.00e+00	0	23	0	1871708160	60	4170
2026-01-12 14:55:01.45	299.33	13.42	-47.0	-48.2	15.5	0.00e+00	0	23	0	1876951040	60	4082
2026-01-12 14:55:02.45	299.53	13.41	-47.0	-48.2	15.5	0.00e+00	0	23	0	1882193920	60	4063
2026-01-12 14:55:03.44	299.72	13.39	-46.9	-48.1	15.5	0.00e+00	0	23	0	1888485376	60	4013
2026-01-12 14:55:04.45	299.92	13.37	-47.0	-48.1	15.5	0.00e+00	0	23	0	1893728256	60	4041
2026-01-12 14:55:05.45	300.12	13.35	-46.9	-48.1	15.5	0.00e+00	0	23	0	1898971136	60	4024
2026-01-12 14:55:06.44	300.32	13.33	-47.0	-48.2	15.5	0.00e+00	0	23	0	1905262592	60	4072
2026-01-12 14:55:07.44	300.51	13.31	-47.0	-48.2	15.5	0.00e+00	0	23	0	1910505472	60	4097
2026-01-12 14:55:08.44	300.71	13.30	-47.0	-48.2	15.5	0.00e+00	0	23	0	1915748352	60	4079
2026-01-12 14:55:09.44	300.90	13.28	-47.1	-48.3	15.5	0.00e+00	0	23	0	1922039808	60	4113
2026-01-12 14:55:10.43	301.10	13.26	-47.1	-48.3	15.4	0.00e+00	0	23	0	1927282688	60	4124
2026-01-12 14:55:11.43	301.29	13.24	-47.1	-48.3	15.4	0.00e+00	0	23	0	1932525568	60	4141
2026-01-12 14:55:12.44	301.49	13.22	-47.1	-48.4	15.4	0.00e+00	0	23	0	1938817024	60	4150
2026-01-12 14:55:13.43	301.68	13.19	-47.2	-48.4	15.4	0.00e+00	0	23	0	1944059904	60	4183
2026-01-12 14:55:14.44	301.88	13.17	-47.2	-48.5	15.4	0.00e+00	0	23	0	1949302784	60	4204
2026-01-12 14:55:15.44	302.07	13.15	-47.2	-48.5	15.4	0.00e+00	0	23	0	1955594240	60	4200
2026-01-12 14:55:16.44	302.27	13.13	-47.3	-48.5	15.3	0.00e+00	0	23	0	1960837120	60	4226
2026-01-12 14:55:17.44	302.46	13.11	-47.2	-48.5	15.4	0.00e+00	0	23	0	1967128576	60	4194
2026-01-12 14:55:18.45	302.66	13.09	-47.3	-48.5	15.4	0.00e+00	0	23	0	1972371456	60	4211
2026-01-12 14:55:19.44	302.85	13.06	-47.3	-48.6	15.3	0.00e+00	0	23	0	1978662912	60	4261
2026-01-12 14:55:20.44	303.04	13.04	-47.4	-48.6	15.3	0.00e+00	0	23	0	1983905792	60	4273
2026-01-12 14:55:21.45	303.24	13.02	-47.3	-48.6	15.3	0.00e+00	0	23	0	1989148672	60	4247
2026-01-12 14:55:22.44	303.43	13.00	-47.3	-48.5	15.3	0.00e+00	0	23	0	1995440128	60	4224
2026-01-12 14:55:23.44	303.62	12.97	-47.3	-48.5	15.3	0.00e+00	0	23	0	2000683008	60	4224
2026-01-12 14:55:24.43	303.81	12.95	-47.3	-48.5	15.3	0.00e+00	0	23	0	2005925888	60	4237
2026-01-12 14:55:25.43	304.00	12.92	-47.2	-48.4	15.4	0.00e+00	0	23	0	2011168768	60	4175
2026-01-12 14:55:26.42	304.19	12.90	-47.1	-48.3	15.4	0.00e+00	0	23	0	2017460224	60	4143
2026-01-12 14:55:27.42	304.38	12.88	-47.2	-48.4	15.4	0.00e+00	0	23	0	2022703104	60	4190
2026-01-12 14:55:28.41	304.57	12.85	-47.4	-48.6	15.3	0.00e+00	0	23	0	2028994560	60	4266
2026-01-12 14:55:29.41	304.76	12.83	-47.3	-48.5	15.3	0.00e+00	0	23	0	2034237440	60	4235
2026-01-12 14:55:30.41	304.95	12.80	-47.3	-48.5	15.3	0.00e+00	0	23	0	2039480320	60	4231
2026-01-12 14:55:31.40	305.14	12.78	-47.3	-48.5	15.3	0.00e+00	0	23	0	2045771776	60	4236
2026-01-12 14:55:32.40	305.33	12.75	-47.3	-48.6	15.3	0.00e+00	0	23	0	2051014656	60	4246
2026-01-12 14:55:33.40	305.52	12.72	-47.4	-48.6	15.3	0.00e+00	0	23	0	2056257536	60	4277
2026-01-12 14:55:34.40	305.71	12.70	-47.2	-48.5	15.4	0.00e+00	0	23	0	2062548992	60	4202
2026-01-12 14:55:35.40	305.89	12.67	-47.3	-48.5	15.3	0.00e+00	0	23	0	2067791872	60	4206
2026-01-12 14:55:36.39	306.08	12.64	-47.3	-48.6	15.3	0.00e+00	0	23	0	2073034752	60	4249
2026-01-12 14:55:37.39	306.27	12.62	-47.3	-48.5	15.3	0.00e+00	0	23	0	2079326208	60	4236
2026-01-12 14:55:38.39	306.46	12.59	-47.3	-48.5	15.3	0.00e+00	0	23	0	2084569088	60	4231
2026-01-12 14:55:39.39	306.64	12.56	-47.3	-48.5	15.4	0.00e+00	0	23	0	2089811968	60	4217
2026-01-12 14:55:40.38	306.83	12.54	-47.3	-48.5	15.3	0.00e+00	0	23	0	2096103424	60	4218
2026-01-12 14:55:41.37	307.01	12.51	-47.3	-48.5	15.3	0.00e+00	0	23	0	2101346304	60	4227
2026-01-12 14:55:42.36	307.20	12.48	-47.3	-48.5	15.3	0.00e+00	0	23	0	2106589184	60	4239
2026-01-12 14:55:43.36	307.38	12.45	-47.2	-48.4	15.4	0.00e+00	0	23	0	2112880640	60	4175
2026-01-12 14:55:44.35	307.57	12.42	-47.2	-48.5	15.4	0.00e+00	0	23	0	2118123520	60	4197
2026-01-12 14:55:45.34	307.75	12.39	-47.3	-48.6	15.3	0.00e+00	0	23	0	2123366400	60	4254
2026-01-12 14:55:46.34	307.93	12.36	-47.4	-48.6	15.3	0.00e+00	0	23	0	2129657856	60	4267
2026-01-12 14:55:47.34	308.12	12.34	-47.4	-48.6	15.3	0.00e+00	0	23	0	2134900736	60	4276
2026-01-12 14:55:48.34	308.30	12.31	-47.5	-48.7	15.3	0.00e+00	0	23	0	2140143616	60	4336
2026-01-12 14:55:49.34	308.49	12.28	-47.4	-48.7	15.3	0.00e+00	0	23	0	2146435072	60	4315
2026-01-12 14:55:50.34	308.67	12.25	-47.5	-48.8	15.2	0.00e+00	0	23	0	2151677952	60	4348
2026-01-12 14:55:51.34	308.85	12.22	-47.4	-48.6	15.3	0.00e+00	0	23	0	2156920832	60	4290
2026-01-12 14:55:52.35	309.04	12.18	-47.3	-48.6	15.3	0.00e+00	0	23	0	2163212288	60	4250
2026-01-12 14:55:53.34	309.22	12.15	-47.3	-48.5	15.3	0.00e+00	0	23	0	2168455168	60	4242
2026-01-12 14:55:54.34	309.40	12.12	-47.3	-48.6	15.3	0.00e+00	0	23	0	2174746624	60	4257
2026-01-12 14:55:55.35	309.58	12.09	-47.4	-48.7	15.3	0.00e+00	0	23	0	2179989504	60	4297
2026-01-12 14:55:56.35	309.76	12.06	-47.5	-48.7	15.2	0.00e+00	0	23	0	2185232384	60	4327
2026-01-12 14:55:57.34	309.94	12.03	-47.4	-48.7	15.3	0.00e+00	0	23	0	2191523840	60	4301
2026-01-12 14:55:58.35	310.12	12.00	-47.4	-48.6	15.3	0.00e+00	0	23	0	2196766720	60	4291
2026-01-12 14:55:59.35	310.30	11.96	-47.3	-48.5	15.3	0.00e+00	0	23	0	2203058176	60	4241
2026-01-12 14:56:00.35	310.48	11.93	-47.4	-48.7	15.2	0.00e+00	0	23	0	2208301056	60	4307
2026-01-12 14:56:01.34	310.66	11.90	-47.3	-48.5	15.3	0.00e+00	0	23	0	2213543936	60	4207
2026-01-12 14:56:02.34	310.84	11.87	-47.2	-48.5	15.4	0.00e+00	0	23	0	2219835392	60	4197
2026-01-12 14:56:03.35	311.02	11.83	-47.3	-48.6	15.3	0.00e+00	0	23	0	2225078272	60	4256
2026-01-12 14:56:04.34	311.19	11.80	-47.3	-48.6	15.3	0.00e+00	0	23	0	2230321152	60	4254
2026-01-12 14:56:05.34	311.37	11.77	-47.4	-48.6	15.3	0.00e+00	0	23	0	2236612608	60	4265
2026-01-12 14:56:06.35	311.55	11.73	-47.4	-48.7	15.3	0.00e+00	0	23	0	2241855488	60	4299
2026-01-12 14:56:07.36	311.73	11.70	-47.4	-48.7	15.3	0.00e+00	0	23	0	2247098368	60	4315
2026-01-12 14:56:08.35	311.90	11.67	-47.4	-48.7	15.2	0.00e+00	0	23	0	2253389824	60	4298
2026-01-12 14:56:09.35	312.08	11.63	-47.4	-48.7	15.2	0.00e+00	0	23	0	2258632704	60	4328
2026-01-12 14:56:10.34	312.25	11.60	-47.4	-48.7	15.2	0.00e+00	0	23	0	2264924160	60	4314
2026-01-12 14:56:11.34	312.43	11.56	-47.5	-48.8	15.2	0.00e+00	0	23	0	2270167040	60	4349
2026-01-12 14:56:12.34	312.60	11.53	-47.3	-48.6	15.3	0.00e+00	0	23	0	2275409920	60	4259
2026-01-12 14:56:13.34	312.78	11.49	-47.4	-48.7	15.3	0.00e+00	0	23	0	2281701376	60	4303
2026-01-12 14:56:14.35	312.95	11.46	-47.5	-48.7	15.2	0.00e+00	0	23	0	2286944256	60	4335
2026-01-12 14:56:15.35	313.13	11.42	-47.5	-48.8	15.2	0.00e+00	0	23	0	2292187136	60	4345
2026-01-12 14:56:16.36	313.30	11.39	-47.6	-48.9	15.2	0.00e+00	0	23	0	2298478592	60	4398
2026-01-12 14:56:17.36	313.47	11.35	-47.5	-48.8	15.2	0.00e+00	0	23	0	2303721472	60	4377
2026-01-12 14:56:18.37	313.65	11.32	-47.5	-48.8	15.2	0.00e+00	0	23	0	2308964352	60	4377
2026-01-12 14:56:19.35	313.82	11.28	-47.5	-48.8	15.2	0.00e+00	0	23	0	2315255808	60	4357
2026-01-12 14:56:20.35	313.99	11.25	-47.4	-48.7	15.2	0.00e+00	0	23	0	2320498688	60	4314
2026-01-12 14:56:21.35	314.16	11.21	-47.5	-48.8	15.2	0.00e+00	0	23	0	2326790144	60	4369
2026-01-12 14:56:22.34	314.33	11.17	-47.5	-48.7	15.2	0.00e+00	0	23	0	2332033024	60	4326
2026-01-12 14:56:23.34	314.50	11.14	-47.5	-48.7	15.2	0.00e+00	0	23	0	2337275904	60	4321
2026-01-12 14:56:24.32	314.66	11.10	-47.5	-48.7	15.2	0.00e+00	0	23	0	2342518784	60	4325
2026-01-12 14:56:25.32	314.83	11.06	-47.5	-48.8	15.2	0.00e+00	0	23	0	2348810240	60	4368
2026-01-12 14:56:26.31	315.00	11.03	-47.6	-48.9	15.1	0.00e+00	0	23	0	2354053120	60	4396
2026-01-12 14:56:27.31	315.17	10.99	-47.7	-48.9	15.1	0.00e+00	0	23	0	2359296000	60	4439
2026-01-12 14:56:28.31	315.34	10.95	-47.6	-48.8	15.2	0.00e+00	0	23	0	2365587456	60	4388
2026-01-12 14:56:29.30	315.50	10.92	-47.6	-48.9	15.1	0.00e+00	0	23	0	2370830336	60	4437
2026-01-12 14:56:30.30	315.67	10.88	-47.6	-48.9	15.1	0.00e+00	0	23	0	2377121792	60	4408
2026-01-12 14:56:31.29	315.84	10.84	-47.5	-48.7	15.2	0.00e+00	0	23	0	2382364672	60	4329
2026-01-12 14:56:32.29	316.00	10.80	-47.5	-48.8	15.2	0.00e+00	0	23	0	2387607552	60	4357
2026-01-12 14:56:33.29	316.17	10.76	-47.6	-48.9	15.1	0.00e+00	0	23	0	2392850432	60	4427
2026-01-12 14:56:34.28	316.33	10.73	-47.7	-49.0	15.1	0.00e+00	0	23	0	2399141888	60	4486
2026-01-12 14:56:35.28	316.50	10.69	-47.7	-49.0	15.1	0.00e+00	0	23	0	2404384768	60	4468
2026-01-12 14:56:36.28	316.66	10.65	-47.7	-49.0	15.1	0.00e+00	0	23	0	2409627648	60	4442
2026-01-12 14:56:37.27	316.83	10.61	-47.6	-48.8	15.2	0.00e+00	0	23	0	2415919104	60	4375
2026-01-12 14:56:38.26	316.99	10.57	-47.6	-48.9	15.1	0.00e+00	0	23	0	2421161984	60	4424
2026-01-12 14:56:39.25	317.15	10.53	-47.7	-49.0	15.1	0.00e+00	0	23	0	2427453440	60	4445
2026-01-12 14:56:40.25	317.31	10.49	-47.6	-48.9	15.1	0.00e+00	0	23	0	2432696320	60	4434
2026-01-12 14:56:41.25	317.48	10.45	-47.7	-49.0	15.1	0.00e+00	0	23	0	2437939200	60	4466
2026-01-12 14:56:42.23	317.63	10.42	-47.7	-49.0	15.1	0.00e+00	0	23	0	2443182080	60	4480
2026-01-12 14:56:43.23	317.80	10.38	-47.7	-49.0	15.1	0.00e+00	0	23	0	2449473536	60	4468
2026-01-12 14:56:44.23	317.96	10.34	-47.6	-48.9	15.1	0.00e+00	0	23	0	2454716416	60	4424
2026-01-12 14:56:45.23	318.12	10.30	-47.7	-49.0	15.1	0.00e+00	0	23	0	2459959296	60	4453
2026-01-12 14:56:46.22	318.28	10.26	-47.6	-48.9	15.1	0.00e+00	0	23	0	2466250752	60	4405
2026-01-12 14:56:47.23	318.44	10.22	-47.7	-48.9	15.1	0.00e+00	0	23	0	2471493632	60	4438
2026-01-12 14:56:48.22	318.60	10.18	-47.6	-48.9	15.1	0.00e+00	0	23	0	2477785088	60	4392
2026-01-12 14:56:49.22	318.76	10.14	-47.7	-49.0	15.1	0.00e+00	0	23	0	2483027968	60	4460
2026-01-12 14:56:50.22	318.92	10.10	-47.6	-48.8	15.1	0.00e+00	0	23	0	2488270848	60	4383
2026-01-12 14:56:51.22	319.07	10.06	-47.5	-48.8	15.2	0.00e+00	0	23	0	2494562304	60	4356
2026-01-12 14:56:52.22	319.23	10.01	-47.6	-48.9	15.1	0.00e+00	0	23	0	2499805184	60	4397
2026-01-12 14:56:53.22	319.39	9.97	-47.6	-48.9	15.1	0.00e+00	0	23	0	2505048064	60	4417
2026-01-12 14:56:54.22	319.55	9.93	-47.6	-48.8	15.1	0.00e+00	0	23	0	2511339520	60	4384
2026-01-12 14:56:55.22	319.70	9.89	-47.6	-48.9	15.1	0.00e+00	0	23	0	2516582400	60	4424
2026-01-12 14:56:56.23	319.86	9.85	-47.8	-49.1	15.0	0.00e+00	0	23	0	2522873856	60	4526
2026-01-12 14:56:57.22	320.02	9.81	-47.9	-49.2	15.0	0.00e+00	0	23	0	2528116736	60	4564
2026-01-12 14:56:58.22	320.17	9.77	-47.9	-49.3	15.1	0.00e+00	0	23	0	2533359616	61	4353
2026-01-12 14:56:59.22	320.33	9.73	-48.2	-49.5	14.9	0.00e+00	0	23	0	2539651072	61	4479
2026-01-12 14:57:00.21	320.48	9.69	-48.1	-49.4	15.0	0.00e+00	0	23	0	2544893952	61	4436
2026-01-12 14:57:01.20	320.63	9.64	-48.2	-49.5	14.9	0.00e+00	0	23	0	2550136832	61	4481
2026-01-12 14:57:02.20	320.79	9.60	-48.2	-49.6	14.9	0.00e+00	0	23	0	2556428288	61	4503
2026-01-12 14:57:03.20	320.94	9.56	-48.1	-49.4	15.0	0.00e+00	0	23	0	2561671168	61	4438
2026-01-12 14:57:04.19	321.09	9.52	-48.1	-49.5	15.0	0.00e+00	0	23	0	2566914048	61	4446
2026-01-12 14:57:05.19	321.24	9.48	-48.1	-49.4	15.0	0.00e+00	0	23	0	2573205504	61	4420
2026-01-12 14:57:06.18	321.39	9.43	-48.1	-49.4	15.0	0.00e+00	0	23	0	2578448384	61	4419
2026-01-12 14:57:07.17	321.54	9.39	-47.9	-49.2	15.1	0.00e+00	0	23	0	2583691264	61	4340
2026-01-12 14:57:08.17	321.70	9.35	-47.9	-49.2	15.1	0.00e+00	0	23	0	2589982720	61	4300
2026-01-12 14:57:09.17	321.85	9.31	-48.1	-49.4	15.0	0.00e+00	0	23	0	2595225600	61	4404
2026-01-12 14:57:10.17	322.00	9.26	-48.0	-49.3	15.0	0.00e+00	0	23	0	2600468480	61	4378
2026-01-12 14:57:11.17	322.15	9.22	-48.0	-49.3	15.0	0.00e+00	0	23	0	2606759936	61	4358
2026-01-12 14:57:12.17	322.30	9.18	-48.0	-49.3	15.0	0.00e+00	0	23	0	2612002816	61	4365
2026-01-12 14:57:13.17	322.45	9.14	-47.9	-49.3	15.0	0.00e+00	0	23	0	2617245696	61	4347
2026-01-12 14:57:14.17	322.59	9.09	-48.0	-49.4	15.0	0.00e+00	0	23	0	2623537152	61	4399
2026-01-12 14:57:15.17	322.74	9.05	-48.1	-49.5	14.9	0.00e+00	0	23	0	2628780032	61	4462
2026-01-12 14:57:16.17	322.89	9.01	-48.1	-49.4	14.9	0.00e+00	0	23	0	2635071488	61	4428
2026-01-12 14:57:17.18	323.04	8.96	-48.1	-49.5	14.9	0.00e+00	0	23	0	2640314368	61	4447
2026-01-12 14:57:18.18	323.19	8.92	-48.2	-49.5	14.9	0.00e+00	0	23	0	2645557248	61	4481
2026-01-12 14:57:19.18	323.33	8.88	-48.2	-49.5	14.9	0.00e+00	0	23	0	2651848704	61	4483
2026-01-12 14:57:20.18	323.48	8.83	-48.1	-49.5	14.9	0.00e+00	0	23	0	2657091584	61	4461
2026-01-12 14:57:21.18	323.62	8.79	-48.1	-49.5	14.9	0.00e+00	0	23	0	2662334464	61	4460
2026-01-12 14:57:22.18	323.77	8.74	-48.1	-49.4	15.0	0.00e+00	0	23	0	2668625920	61	4421
2026-01-12 14:57:23.18	323.92	8.70	-48.0	-49.3	15.0	0.00e+00	0	23	0	2673868800	61	4383
2026-01-12 14:57:24.18	324.06	8.66	-47.8	-49.1	15.1	0.00e+00	0	23	0	2679111680	61	4271
2026-01-12 14:57:25.18	324.20	8.61	-47.9	-49.2	15.0	0.00e+00	0	23	0	2685403136	61	4339
2026-01-12 14:57:26.18	324.35	8.57	-48.0	-49.3	15.0	0.00e+00	0	23	0	2690646016	61	4373
2026-01-12 14:57:27.18	324.49	8.52	-47.9	-49.2	15.1	0.00e+00	0	23	0	2696937472	61	4308
2026-01-12 14:57:28.18	324.63	8.48	-47.9	-49.3	15.0	0.00e+00	0	23	0	2702180352	61	4348
2026-01-12 14:57:29.17	324.77	8.44	-47.9	-49.2	15.0	0.00e+00	0	23	0	2707423232	61	4322
2026-01-12 14:57:30.17	324.92	8.39	-48.1	-49.5	14.9	0.00e+00	0	23	0	2713714688	61	4445
2026-01-12 14:57:31.16	325.06	8.35	-47.9	-49.2	15.0	0.00e+00	0	23	0	2718957568	61	4333
2026-01-12 14:57:32.16	325.20	8.30	-47.9	-49.2	15.0	0.00e+00	0	23	0	2724200448	61	4340
2026-01-12 14:57:33.16	325.34	8.26	-47.9	-49.3	15.0	0.00e+00	0	23	0	2730491904	61	4351
2026-01-12 14:57:34.15	325.48	8.22	-48.0	-49.4	14.9	0.00e+00	0	23	0	2735734784	61	4402
2026-01-12 14:57:35.14	325.62	8.17	-48.1	-49.5	14.9	0.00e+00	0	23	0	2740977664	61	4458
2026-01-12 14:57:36.14	325.76	8.13	-48.3	-49.7	14.8	0.00e+00	0	23	0	2747269120	61	4547
2026-01-12 14:57:37.13	325.89	8.08	-48.3	-49.7	14.8	0.00e+00	0	23	0	2752512000	61	4546
2026-01-12 14:57:38.13	326.03	8.04	-48.3	-49.7	14.8	0.00e+00	0	23	0	2757754880	61	4559
2026-01-12 14:57:39.13	326.17	7.99	-48.4	-49.8	14.9	0.00e+00	0	23	0	2764046336	62	4374
2026-01-12 14:57:40.14	326.31	7.95	-48.4	-49.8	14.9	0.00e+00	0	23	0	2769289216	62	4344
2026-01-12 14:57:41.14	326.45	7.90	-48.1	-49.4	15.1	0.00e+00	0	23	0	2774532096	62	4177
2026-01-12 14:57:42.14	326.58	7.86	-48.5	-49.9	14.8	0.00e+00	0	23	0	2780823552	62	4398
2026-01-12 14:57:43.14	326.72	7.81	-48.5	-49.9	14.8	0.00e+00	0	23	0	2786066432	62	4433
2026-01-12 14:57:44.13	326.85	7.77	-48.4	-49.7	14.9	0.00e+00	0	23	0	2791309312	62	4339
2026-01-12 14:57:45.13	326.99	7.72	-48.4	-49.8	14.9	0.00e+00	0	23	0	2797600768	62	4361
2026-01-12 14:57:46.13	327.13	7.68	-48.4	-49.8	14.9	0.00e+00	0	23	0	2802843648	62	4345
2026-01-12 14:57:47.13	327.26	7.63	-48.4	-49.8	14.9	0.00e+00	0	23	0	2809135104	62	4378
2026-01-12 14:57:48.14	327.40	7.58	-48.5	-49.9	14.8	0.00e+00	0	23	0	2814377984	62	4405
2026-01-12 14:57:49.13	327.53	7.54	-48.4	-49.8	14.9	0.00e+00	0	23	0	2819620864	62	4367
2026-01-12 14:57:50.13	327.66	7.49	-48.5	-49.9	14.8	0.00e+00	0	23	0	2825912320	62	4425
2026-01-12 14:57:51.13	327.80	7.45	-48.5	-49.9	14.8	0.00e+00	0	23	0	2831155200	62	4406
2026-01-12 14:57:52.13	327.93	7.40	-48.5	-49.9	14.8	0.00e+00	0	23	0	2836398080	62	4426
2026-01-12 14:57:53.13	328.06	7.36	-48.6	-50.0	14.8	0.00e+00	0	23	0	2842689536	62	4453
2026-01-12 14:57:54.13	328.19	7.31	-48.6	-50.0	14.7	0.00e+00	0	23	0	2847932416	62	4488
2026-01-12 14:57:55.13	328.33	7.27	-48.6	-50.0	14.7	0.00e+00	0	23	0	2853175296	62	4472
2026-01-12 14:57:56.13	328.46	7.22	-48.6	-50.1	14.7	0.00e+00	0	23	0	2859466752	62	4506
2026-01-12 14:57:57.13	328.59	7.17	-48.8	-50.3	14.6	0.00e+00	0	23	0	2864709632	62	4604
2026-01-12 14:57:58.13	328.72	7.13	-48.5	-49.9	14.8	0.00e+00	0	23	0	2871001088	62	4423
2026-01-12 14:57:59.14	328.85	7.08	-48.5	-49.9	14.8	0.00e+00	0	23	0	2876243968	62	4415
2026-01-12 14:58:00.14	328.98	7.04	-48.7	-50.1	14.7	0.00e+00	0	23	0	2881486848	62	4522
2026-01-12 14:58:01.13	329.11	6.99	-48.6	-50.0	14.7	0.00e+00	0	23	0	2887778304	62	4487
2026-01-12 14:58:02.13	329.24	6.94	-48.7	-50.1	14.7	0.00e+00	0	23	0	2893021184	62	4536
2026-01-12 14:58:03.13	329.37	6.90	-48.8	-50.3	14.6	0.00e+00	0	23	0	2898264064	62	4608
2026-01-12 14:58:04.13	329.49	6.85	-48.5	-50.0	14.7	0.00e+00	0	23	0	2904555520	62	4444
2026-01-12 14:58:05.13	329.62	6.81	-48.5	-50.0	14.8	0.00e+00	0	23	0	2909798400	62	4442
2026-01-12 14:58:06.13	329.75	6.76	-49.0	-50.5	14.6	0.00e+00	0	23	0	2915041280	63	4446
2026-01-12 14:58:07.13	329.88	6.71	-48.6	-50.1	14.9	0.00e+00	0	23	0	2921332736	63	4245
2026-01-12 14:58:08.13	330.00	6.67	-48.7	-50.1	14.8	0.00e+00	0	23	0	2926575616	63	4278
2026-01-12 14:58:09.13	330.13	6.62	-48.7	-50.1	14.8	0.00e+00	0	23	0	2932867072	63	4289
2026-01-12 14:58:10.13	330.26	6.58	-48.7	-50.2	14.8	0.00e+00	0	23	0	2938109952	63	4303
2026-01-12 14:58:11.13	330.38	6.53	-48.6	-50.0	14.9	0.00e+00	0	23	0	2943352832	63	4208
2026-01-12 14:58:12.12	330.51	6.48	-48.7	-50.2	14.8	0.00e+00	0	23	0	2949644288	63	4293
2026-01-12 14:58:13.11	330.63	6.44	-48.7	-50.1	14.8	0.00e+00	0	23	0	2954887168	63	4268
2026-01-12 14:58:14.11	330.75	6.39	-48.8	-50.2	14.7	0.00e+00	0	23	0	2960130048	63	4330
2026-01-12 14:58:15.11	330.88	6.34	-48.8	-50.2	14.7	0.00e+00	0	23	0	2966421504	63	4321
2026-01-12 14:58:16.11	331.00	6.30	-48.7	-50.2	14.8	0.00e+00	0	23	0	2971664384	63	4309
2026-01-12 14:58:17.12	331.13	6.25	-48.9	-50.4	14.6	0.00e+00	0	23	0	2976907264	63	4411
2026-01-12 14:58:18.12	331.25	6.20	-48.9	-50.4	14.6	0.00e+00	0	23	0	2983198720	63	4431
2026-01-12 14:58:19.11	331.37	6.16	-49.0	-50.5	14.6	0.00e+00	0	23	0	2988441600	63	4471
2026-01-12 14:58:20.12	331.49	6.11	-49.1	-50.6	14.5	0.00e+00	0	23	0	2994733056	63	4545
2026-01-12 14:58:21.12	331.61	6.06	-49.0	-50.5	14.7	0.00e+00	0	23	0	2999975936	64	4233
2026-01-12 14:58:22.11	331.73	6.02	-48.7	-50.2	14.8	0.00e+00	0	23	0	3005218816	63	4297
2026-01-12 14:58:23.11	331.86	5.97	-49.2	-50.7	14.4	0.00e+00	0	23	0	3011510272	63	4579
2026-01-12 14:58:24.11	331.98	5.92	-49.5	-51.1	14.3	0.00e+00	0	23	0	3016753152	64	4513
2026-01-12 14:58:25.11	332.10	5.88	-49.3	-50.9	14.4	0.00e+00	0	23	0	3021996032	64	4426
2026-01-12 14:58:26.11	332.22	5.83	-48.9	-50.5	14.8	0.00e+00	0	23	0	3028287488	64	4194
2026-01-12 14:58:27.11	332.34	5.78	-49.1	-50.6	14.6	0.00e+00	0	23	0	3033530368	64	4269
2026-01-12 14:58:28.11	332.46	5.74	-48.9	-50.4	14.8	0.00e+00	0	23	0	3038773248	64	4168
2026-01-12 14:58:29.12	332.58	5.69	-49.1	-50.6	14.6	0.00e+00	0	23	0	3045064704	64	4265
2026-01-12 14:58:30.11	332.69	5.64	-49.2	-50.7	14.6	0.00e+00	0	23	0	3050307584	64	4326
2026-01-12 14:58:31.10	332.81	5.60	-49.3	-50.8	14.5	0.00e+00	0	23	0	3056599040	64	4384
2026-01-12 14:58:32.10	332.93	5.55	-49.0	-50.5	14.7	0.00e+00	0	23	0	3061841920	64	4202
2026-01-12 14:58:33.10	333.04	5.50	-49.0	-50.6	14.6	0.00e+00	0	23	0	3067084800	64	4245
2026-01-12 14:58:34.10	333.16	5.46	-48.9	-50.4	14.7	0.00e+00	0	23	0	3073376256	64	4155
2026-01-12 14:58:35.10	333.28	5.41	-49.0	-50.5	14.7	0.00e+00	0	23	0	3078619136	64	4230
2026-01-12 14:58:36.09	333.39	5.36	-48.9	-50.4	14.7	0.00e+00	0	23	0	3083862016	64	4177
2026-01-12 14:58:37.09	333.51	5.32	-49.1	-50.6	14.6	0.00e+00	0	23	0	3090153472	64	4275
2026-01-12 14:58:38.09	333.63	5.27	-49.1	-50.7	14.6	0.00e+00	0	23	0	3095396352	64	4302
2026-01-12 14:58:39.09	333.74	5.22	-49.2	-50.8	14.5	0.00e+00	0	23	0	3100639232	64	4369
2026-01-12 14:58:40.08	333.85	5.18	-49.2	-50.7	14.5	0.00e+00	0	23	0	3106930688	64	4329
2026-01-12 14:58:41.08	333.97	5.13	-50.0	-51.7	13.9	0.00e+00	0	23	0	3112173568	65	4561
2026-01-12 14:58:42.09	334.08	5.08	-48.5	-50.0	14.7	0.00e+00	0	23	0	3117416448	63	4211
2026-01-12 14:58:43.08	334.20	5.04	-49.6	-51.4	13.8	0.00e+00	0	23	0	3123707904	64	4661
2026-01-12 14:58:44.08	334.31	4.99	-57.4	-68.5	3.9	4.05e-01	0	23	0	3127902208	79	14183
2026-01-12 14:58:45.07	334.42	4.94	-58.0	-71.1	3.8	8.45e-01	0	23	104	3127902208	81	16900
2026-01-12 14:58:46.07	334.53	4.90	-58.4	-71.4	3.8	8.45e-01	0	23	104	3127902208	81	17546
2026-01-12 14:58:47.07	334.65	4.85	-58.6	-71.6	3.8	8.46e-01	0	23	104	3127902208	82	17064
2026-01-12 14:58:48.08	334.76	4.80	-58.7	-71.8	3.8	8.45e-01	0	23	104	3127902208	82	17306
2026-01-12 14:58:49.08	334.87	4.76	-58.9	-71.9	3.8	8.45e-01	0	23	104	3127902208	82	17584
2026-01-12 14:58:50.08	334.98	4.71	-59.0	-72.1	3.8	8.45e-01	0	23	104	3127902208	83	16916
2026-01-12 14:58:51.07	335.09	4.66	-59.1	-72.1	3.8	8.45e-01	0	23	104	3127902208	83	17082
2026-01-12 14:58:52.06	335.20	4.62	-59.2	-72.2	3.8	8.46e-01	0	23	104	3127902208	83	17261
2026-01-12 14:58:53.06	335.31	4.57	-59.2	-72.3	3.8	8.46e-01	0	23	104	3127902208	83	17349
2026-01-12 14:58:54.06	335.42	4.52	-59.3	-72.3	3.8	8.45e-01	0	23	104	3127902208	83	17414
2026-01-12 14:58:55.06	335.53	4.47	-59.3	-72.3	3.8	8.46e-01	0	23	104	3127902208	83	17479
2026-01-12 14:58:56.06	335.64	4.43	-59.3	-72.4	3.8	8.45e-01	0	23	104	3127902208	83	17561
2026-01-12 14:58:57.06	335.75	4.38	-59.4	-72.4	3.8	8.46e-01	0	23	104	3127902208	83	17677
2026-01-12 14:58:58.05	335.86	4.33	-59.4	-72.4	3.8	8.45e-01	0	23	104	3127902208	83	17649
2026-01-12 14:58:59.05	335.97	4.29	-59.4	-72.4	3.8	8.46e-01	0	23	104	3127902208	83	17682
2026-01-12 14:59:00.05	336.08	4.24	-59.4	-72.4	3.8	8.46e-01	0	23	104	3127902208	83	17655
2026-01-12 14:59:01.05	336.18	4.19	-59.4	-72.5	3.8	8.46e-01	0	23	104	3127902208	83	17705
2026-01-12 14:59:02.06	336.29	4.15	-59.4	-72.5	3.8	8.46e-01	0	23	104	3127902208	83	17721
2026-01-12 14:59:03.07	336.40	4.10	-59.4	-72.5	3.8	8.46e-01	0	23	104	3127902208	83	17750
2026-01-12 14:59:04.06	336.51	4.05	-59.4	-72.5	3.8	8.47e-01	0	23	104	3127902208	83	17776
2026-01-12 14:59:05.06	336.61	4.01	-59.6	-72.7	3.8	8.46e-01	0	23	104	3127902208	84	17163
2026-01-12 14:59:06.06	336.72	3.96	-59.6	-72.7	3.8	8.46e-01	0	23	104	3127902208	84	17114
2026-01-12 14:59:07.05	336.82	3.91	-59.5	-72.6	3.8	8.45e-01	0	23	104	3127902208	84	17016
2026-01-12 14:59:08.05	336.93	3.86	-59.5	-72.6	3.8	8.46e-01	0	23	104	3127902208	84	16959
2026-01-12 14:59:09.04	337.03	3.82	-59.5	-72.6	3.8	8.45e-01	0	23	104	3127902208	84	16936
2026-01-12 14:59:10.05	337.14	3.77	-59.5	-72.5	3.8	8.45e-01	0	23	104	3127902208	84	16885
2026-01-12 14:59:11.05	337.24	3.72	-59.5	-72.6	3.8	8.46e-01	0	23	104	3127902208	84	16940
2026-01-12 14:59:12.05	337.35	3.68	-59.5	-72.6	3.8	8.47e-01	0	23	104	3127902208	84	16958
2026-01-12 14:59:13.05	337.45	3.63	-59.5	-72.5	3.8	8.46e-01	0	23	104	3127902208	84	16877
2026-01-12 14:59:14.05	337.55	3.58	-59.5	-72.5	3.8	8.45e-01	0	23	104	3127902208	84	16865
2026-01-12 14:59:15.06	337.66	3.54	-59.5	-72.5	3.8	8.47e-01	0	23	104	3127902208	84	16830
2026-01-12 14:59:16.05	337.76	3.49	-59.5	-72.5	3.8	8.46e-01	0	23	104	3127902208	84	16866
2026-01-12 14:59:17.05	337.86	3.44	-59.5	-72.6	3.8	8.45e-01	0	23	104	3127902208	84	16890
2026-01-12 14:59:18.04	337.97	3.40	-59.5	-72.5	3.8	8.45e-01	0	23	104	3127902208	84	16797
2026-01-12 14:59:19.04	338.07	3.35	-59.5	-72.5	3.8	8.46e-01	0	23	104	3127902208	84	16807
2026-01-12 14:59:20.04	338.17	3.30	-59.5	-72.5	3.8	8.46e-01	0	23	104	3127902208	84	16811
2026-01-12 14:59:21.04	338.27	3.26	-59.4	-72.5	3.8	8.46e-01	0	23	104	3127902208	84	16780
2026-01-12 14:59:22.04	338.37	3.21	-59.5	-72.5	3.8	8.45e-01	0	23	104	3127902208	84	16823
2026-01-12 14:59:23.04	338.47	3.16	-59.4	-72.5	3.8	8.46e-01	0	23	104	3127902208	84	16795
2026-01-12 14:59:24.04	338.57	3.12	-59.4	-72.5	3.8	8.45e-01	0	23	104	3127902208	84	16781
2026-01-12 14:59:25.03	338.67	3.07	-59.4	-72.5	3.8	8.46e-01	0	23	104	3127902208	84	16794
2026-01-12 14:59:26.04	338.77	3.02	-59.4	-72.5	3.8	8.45e-01	0	23	104	3127902208	84	16700
2026-01-12 14:59:27.03	338.87	2.98	-59.4	-72.4	3.8	8.46e-01	0	23	104	3127902208	84	16662
2026-01-12 14:59:28.02	338.97	2.93	-59.4	-72.5	3.8	8.45e-01	0	23	104	3127902208	84	16733
2026-01-12 14:59:29.03	339.07	2.88	-59.4	-72.5	3.8	8.44e-01	0	23	104	3127902208	84	16712
2026-01-12 14:59:30.03	339.17	2.84	-59.4	-72.4	3.8	8.47e-01	0	23	104	3127902208	84	16666
2026-01-12 14:59:31.03	339.27	2.79	-59.4	-72.4	3.8	8.47e-01	0	23	104	3127902208	84	16658
2026-01-12 14:59:32.02	339.36	2.74	-59.4	-72.5	3.8	8.47e-01	0	23	104	3127902208	84	16700
2026-01-12 14:59:33.02	339.46	2.70	-59.4	-72.5	3.8	8.46e-01	0	23	104	3127902208	84	16749
2026-01-12 14:59:34.03	339.56	2.65	-59.4	-72.5	3.8	8.46e-01	0	23	104	3127902208	84	16718
2026-01-12 14:59:35.03	339.66	2.60	-59.4	-72.4	3.8	8.46e-01	0	23	104	3127902208	84	16688
2026-01-12 14:59:36.03	339.75	2.55	-59.4	-72.4	3.8	8.47e-01	0	23	104	3127902208	84	16589
2026-01-12 14:59:37.02	339.85	2.51	-59.4	-72.4	3.8	8.46e-01	0	23	104	3127902208	84	16615
2026-01-12 14:59:38.01	339.94	2.46	-59.4	-72.4	3.8	8.46e-01	0	23	104	3127902208	84	16667
2026-01-12 14:59:39.00	340.04	2.42	-59.4	-72.4	3.8	8.46e-01	0	23	104	3127902208	84	16630
2026-01-12 14:59:40.00	340.14	2.37	-59.4	-72.4	3.8	8.45e-01	0	23	104	3127902208	84	16633
2026-01-12 14:59:40.99	340.23	2.32	-59.4	-72.4	3.8	8.46e-01	0	23	104	3127902208	84	16580
2026-01-12 14:59:41.99	340.33	2.28	-59.4	-72.4	3.8	8.46e-01	0	23	104	3127902208	84	16616
2026-01-12 14:59:42.98	340.42	2.23	-59.4	-72.4	3.8	8.46e-01	0	23	104	3127902208	84	16619
2026-01-12 14:59:43.98	340.51	2.18	-59.4	-72.4	3.8	8.45e-01	0	23	104	3127902208	84	16587
2026-01-12 14:59:44.97	340.61	2.14	-59.4	-72.4	3.8	8.46e-01	0	23	104	3127902208	84	16603
2026-01-12 14:59:45.97	340.70	2.09	-59.3	-72.4	3.8	8.46e-01	0	23	104	3127902208	84	16581
2026-01-12 14:59:46.96	340.79	2.05	-59.4	-72.4	3.8	8.44e-01	0	23	104	3127902208	84	16601
2026-01-12 14:59:47.95	340.89	2.00	-59.4	-72.4	3.8	8.46e-01	0	23	104	3127902208	84	16583
2026-01-12 14:59:48.94	340.98	1.95	-59.3	-72.4	3.8	8.46e-01	0	23	104	3127902208	84	16573
2026-01-12 14:59:49.94	341.07	1.91	-59.3	-72.4	3.8	8.46e-01	0	23	104	3127902208	84	16522

#Closed at: 2026-01-12 14:59:50
#Recorded file [3127 MB]: D:/lorett/data/31004_260112_174830.dat