passes_logs/2026/01/12/R3.2S_Murmansk/R3.2S_Murmansk__20260112_044735_FENGYUN_3D_rec.log

#Pass ID: 20260112_044735_FENGYUN 3D
#Satellite: FENGYUN 3D
#Configuration: FENGYUN 3D
#almurnet v.1.7.20251203
#Start time: 2026-01-12 04:47:36

#Version: 2.2.20231116
#Station: R3.2S_Murmansk
#Location: 33.079688 lon 68.888172 lat
#TLE: 1 43010U 17072A   26011.62066612  .00000104  00000+0  70810-4 0  9998
#TLE: 2 43010  98.9935 343.3846 0002223 114.2890 245.8518 14.19694405422776

#Time	Az	El	Level	Level2	SNR	BER	BlckErr	Temp	State	Recorded	gain1	gain2
2026-01-12 04:47:36.46	36.12	2.07	-53.8	-67.0	3.8	8.45e-01	0	21	0	0	72	17761
2026-01-12 04:47:37.47	36.08	2.13	-53.7	-67.0	3.8	8.46e-01	0	21	104	0	72	17809
2026-01-12 04:47:38.49	36.03	2.19	-53.8	-67.0	3.8	8.46e-01	0	21	104	0	72	17796
2026-01-12 04:47:39.50	35.99	2.25	-53.8	-67.0	3.8	8.46e-01	0	21	104	0	72	17801
2026-01-12 04:47:40.51	35.95	2.31	-53.8	-67.0	3.8	8.45e-01	0	21	104	0	72	17806
2026-01-12 04:47:41.51	35.91	2.37	-53.8	-67.0	3.8	8.46e-01	0	21	104	0	72	17723
2026-01-12 04:47:42.52	35.86	2.44	-53.8	-67.0	3.8	8.46e-01	0	21	104	0	72	17761
2026-01-12 04:47:43.53	35.82	2.50	-53.8	-67.0	3.8	8.46e-01	0	21	104	0	72	17846
2026-01-12 04:47:44.54	35.78	2.56	-53.8	-67.0	3.8	8.46e-01	0	21	104	0	72	17850
2026-01-12 04:47:45.54	35.73	2.62	-53.8	-67.1	3.8	8.46e-01	0	21	104	0	72	17896
2026-01-12 04:47:46.55	35.69	2.69	-53.9	-67.0	3.8	8.44e-01	0	21	104	0	72	17855
2026-01-12 04:47:47.56	35.65	2.75	-53.9	-67.1	3.8	8.46e-01	0	21	104	0	72	17937
2026-01-12 04:47:48.57	35.60	2.81	-53.8	-67.1	3.8	8.47e-01	0	21	104	0	72	17892
2026-01-12 04:47:49.58	35.56	2.88	-53.8	-67.0	3.8	8.46e-01	0	21	104	0	72	17880
2026-01-12 04:47:50.58	35.51	2.94	-53.8	-67.1	3.8	8.45e-01	0	21	104	0	72	17932
2026-01-12 04:47:51.59	35.47	3.00	-53.8	-67.0	3.8	8.45e-01	0	21	104	0	72	17878
2026-01-12 04:47:52.60	35.43	3.07	-53.8	-67.1	3.8	8.45e-01	0	21	104	0	72	17910
2026-01-12 04:47:53.61	35.38	3.13	-53.8	-67.0	3.8	8.45e-01	0	21	104	0	72	17855
2026-01-12 04:47:54.62	35.33	3.19	-53.8	-67.1	3.8	8.46e-01	0	21	104	0	72	17903
2026-01-12 04:47:55.63	35.29	3.26	-53.8	-67.0	3.8	8.47e-01	0	21	104	0	72	17886
2026-01-12 04:47:56.64	35.24	3.32	-53.8	-67.0	3.8	8.45e-01	0	21	104	0	72	17884
2026-01-12 04:47:57.65	35.20	3.38	-53.8	-67.1	3.8	8.46e-01	0	21	104	0	72	17923
2026-01-12 04:47:58.66	35.15	3.45	-53.8	-67.0	3.8	8.45e-01	0	21	104	0	72	17881
2026-01-12 04:47:59.67	35.11	3.51	-53.8	-67.1	3.8	8.45e-01	0	21	104	0	72	17912
2026-01-12 04:48:00.67	35.06	3.58	-53.8	-67.1	3.8	8.46e-01	0	22	104	0	72	17925
2026-01-12 04:48:01.68	35.01	3.64	-53.8	-67.1	3.8	8.46e-01	0	21	104	0	72	17892
2026-01-12 04:48:02.69	34.97	3.71	-53.7	-67.1	3.8	8.46e-01	0	21	104	0	72	17972
2026-01-12 04:48:03.70	34.92	3.77	-53.8	-67.1	3.8	8.46e-01	0	21	104	0	72	17970
2026-01-12 04:48:04.71	34.87	3.84	-53.8	-67.1	3.8	8.45e-01	0	21	104	0	72	17923
2026-01-12 04:48:05.72	34.82	3.90	-53.8	-67.1	3.8	8.46e-01	0	21	104	0	72	17961
2026-01-12 04:48:06.72	34.78	3.97	-53.8	-67.1	3.8	8.45e-01	0	22	104	0	72	18000
2026-01-12 04:48:07.74	34.73	4.03	-53.8	-67.1	3.8	8.45e-01	0	21	104	0	72	17903
2026-01-12 04:48:08.75	34.68	4.10	-53.8	-67.1	3.8	8.45e-01	0	22	104	0	72	17933
2026-01-12 04:48:09.75	34.63	4.16	-53.8	-67.1	3.8	8.44e-01	0	22	104	0	72	17981
2026-01-12 04:48:10.77	34.58	4.23	-53.9	-67.1	3.8	8.45e-01	0	22	104	0	72	18015
2026-01-12 04:48:11.78	34.53	4.30	-53.9	-67.1	3.8	8.45e-01	0	22	104	0	72	17964
2026-01-12 04:48:12.78	34.48	4.36	-53.9	-67.1	3.8	8.46e-01	0	22	104	0	72	17927
2026-01-12 04:48:13.79	34.43	4.43	-53.9	-67.1	3.8	8.45e-01	0	22	104	0	72	17987
2026-01-12 04:48:14.80	34.38	4.49	-53.8	-67.1	3.8	8.45e-01	0	22	104	0	72	17907
2026-01-12 04:48:15.81	34.33	4.56	-53.8	-67.1	3.8	8.46e-01	0	22	104	0	72	18014
2026-01-12 04:48:16.82	34.28	4.63	-53.8	-67.1	3.8	8.46e-01	0	22	104	0	72	17920
2026-01-12 04:48:17.83	34.23	4.70	-53.9	-67.1	3.8	8.45e-01	0	22	104	0	72	17968
2026-01-12 04:48:18.84	34.18	4.76	-53.8	-67.0	3.8	8.46e-01	0	22	104	0	72	17888
2026-01-12 04:48:19.85	34.13	4.83	-53.8	-67.1	3.8	8.47e-01	0	22	104	0	72	17955
2026-01-12 04:48:20.85	34.08	4.90	-53.8	-67.1	3.8	8.46e-01	0	22	104	0	72	17900
2026-01-12 04:48:21.86	34.03	4.96	-53.8	-67.1	3.8	8.47e-01	0	22	104	0	72	17951
2026-01-12 04:48:22.87	33.98	5.03	-53.8	-67.1	3.8	8.46e-01	0	22	104	0	72	17965
2026-01-12 04:48:23.88	33.92	5.10	-53.8	-67.1	3.8	8.45e-01	0	22	104	0	72	17931
2026-01-12 04:48:24.89	33.87	5.17	-53.8	-67.1	3.8	8.47e-01	0	22	104	0	72	17985
2026-01-12 04:48:25.90	33.82	5.23	-53.8	-67.1	3.8	8.46e-01	0	22	104	0	72	17957
2026-01-12 04:48:26.91	33.77	5.30	-53.8	-67.1	3.8	8.46e-01	0	22	104	0	72	17963
2026-01-12 04:48:27.92	33.71	5.37	-53.8	-67.1	3.8	8.45e-01	0	22	104	0	72	17945
2026-01-12 04:48:28.93	33.66	5.44	-53.9	-67.1	3.8	8.45e-01	0	22	104	0	72	17949
2026-01-12 04:48:29.94	33.60	5.51	-53.8	-67.1	3.8	8.46e-01	0	22	104	0	72	17959
2026-01-12 04:48:30.95	33.55	5.58	-53.8	-67.1	3.8	8.46e-01	0	22	104	0	72	18027
2026-01-12 04:48:31.95	33.50	5.65	-53.8	-67.1	3.8	8.46e-01	0	22	104	0	72	17954
2026-01-12 04:48:32.97	33.44	5.72	-53.8	-67.1	3.8	8.45e-01	0	22	104	0	72	17955
2026-01-12 04:48:33.97	33.39	5.78	-53.8	-67.1	3.8	8.45e-01	0	22	104	0	72	17948
2026-01-12 04:48:34.98	33.33	5.85	-53.8	-67.1	3.8	8.45e-01	0	22	104	0	72	18026
2026-01-12 04:48:35.98	33.28	5.92	-53.8	-67.1	3.8	8.45e-01	0	22	104	0	72	17982
2026-01-12 04:48:36.99	33.22	5.99	-53.9	-67.1	3.8	8.45e-01	0	22	104	0	72	17982
2026-01-12 04:48:38.00	33.17	6.06	-53.9	-67.1	3.8	8.45e-01	0	22	104	0	72	17979
2026-01-12 04:48:39.01	33.11	6.13	-53.8	-67.1	3.8	8.45e-01	0	22	104	0	72	17948
2026-01-12 04:48:40.02	33.05	6.20	-53.8	-67.1	3.8	8.45e-01	0	22	104	0	72	17965
2026-01-12 04:48:41.03	33.00	6.27	-53.9	-67.1	3.8	8.46e-01	0	22	104	0	72	17967
2026-01-12 04:48:42.04	32.94	6.34	-53.9	-67.1	3.8	8.45e-01	0	22	104	0	72	17961
2026-01-12 04:48:43.05	32.88	6.41	-53.9	-67.1	3.8	8.45e-01	0	22	104	0	72	18043
2026-01-12 04:48:44.06	32.82	6.49	-53.9	-67.1	3.8	8.45e-01	0	22	104	0	72	18060
2026-01-12 04:48:45.07	32.77	6.56	-53.9	-67.1	3.8	8.46e-01	0	22	104	0	72	18017
2026-01-12 04:48:46.08	32.71	6.63	-53.8	-67.1	3.8	8.46e-01	0	22	104	0	72	17983
2026-01-12 04:48:47.09	32.65	6.70	-53.9	-67.1	3.8	8.46e-01	0	22	104	0	72	18004
2026-01-12 04:48:48.10	32.59	6.77	-53.9	-67.1	3.8	8.46e-01	0	22	104	0	72	18007
2026-01-12 04:48:49.11	32.53	6.84	-53.9	-67.1	3.8	8.45e-01	0	22	104	0	72	18041
2026-01-12 04:48:50.12	32.47	6.91	-53.8	-67.1	3.8	8.46e-01	0	22	104	0	72	17988
2026-01-12 04:48:51.12	32.41	6.99	-53.8	-67.1	3.8	8.46e-01	0	22	104	0	72	18005
2026-01-12 04:48:52.13	32.35	7.06	-53.8	-67.1	3.8	8.46e-01	0	22	104	0	72	18018
2026-01-12 04:48:53.13	32.29	7.13	-53.9	-67.1	3.8	8.45e-01	0	22	104	0	72	18013
2026-01-12 04:48:54.14	32.23	7.20	-53.8	-67.1	3.8	8.47e-01	0	22	104	0	72	18056
2026-01-12 04:48:55.15	32.17	7.28	-53.9	-67.2	3.8	8.46e-01	0	22	104	0	72	18130
2026-01-12 04:48:56.16	32.11	7.35	-53.9	-67.1	3.8	8.46e-01	0	22	104	0	72	18023
2026-01-12 04:48:57.17	32.05	7.42	-53.8	-67.1	3.8	8.45e-01	0	22	104	0	72	17983
2026-01-12 04:48:58.18	31.98	7.49	-53.8	-67.1	3.8	8.45e-01	0	22	104	0	72	18004
2026-01-12 04:48:59.19	31.92	7.57	-53.8	-67.1	3.8	8.47e-01	0	22	104	0	72	18057
2026-01-12 04:49:00.20	31.86	7.64	-53.8	-67.1	3.8	8.45e-01	0	22	104	0	72	18029
2026-01-12 04:49:01.20	31.80	7.71	-53.8	-67.1	3.8	8.46e-01	0	22	104	0	72	17972
2026-01-12 04:49:02.21	31.73	7.79	-53.9	-67.1	3.8	8.46e-01	0	22	104	0	72	17969
2026-01-12 04:49:03.22	31.67	7.86	-53.9	-67.1	3.8	8.45e-01	0	22	104	0	72	18003
2026-01-12 04:49:04.23	31.60	7.94	-53.9	-67.1	3.8	8.46e-01	0	22	104	0	72	17989
2026-01-12 04:49:05.24	31.54	8.01	-53.9	-67.1	3.8	8.46e-01	0	22	104	0	72	18051
2026-01-12 04:49:06.25	31.47	8.09	-53.9	-67.1	3.8	8.45e-01	0	22	104	0	72	18010
2026-01-12 04:49:07.26	31.41	8.16	-53.9	-67.1	3.8	8.46e-01	0	22	104	0	72	17998
2026-01-12 04:49:08.27	31.34	8.24	-53.9	-67.1	3.8	8.45e-01	0	22	104	0	72	18014
2026-01-12 04:49:09.27	31.28	8.31	-53.9	-67.1	3.8	8.46e-01	0	22	104	0	72	18044
2026-01-12 04:49:10.28	31.21	8.39	-53.9	-67.2	3.8	8.46e-01	0	22	104	0	73	17107
2026-01-12 04:49:11.29	31.15	8.46	-53.9	-67.1	3.8	8.46e-01	0	22	104	0	73	17056
2026-01-12 04:49:12.30	31.08	8.54	-53.9	-67.2	3.8	8.47e-01	0	22	104	0	73	17115
2026-01-12 04:49:13.31	31.01	8.61	-53.9	-67.2	3.8	8.46e-01	0	23	104	0	73	17096
2026-01-12 04:49:14.32	30.94	8.69	-53.9	-67.1	3.8	8.46e-01	0	22	104	0	73	17082
2026-01-12 04:49:15.33	30.88	8.77	-53.9	-67.2	3.8	8.45e-01	0	22	104	0	73	17107
2026-01-12 04:49:16.34	30.81	8.84	-53.9	-67.2	3.8	8.46e-01	0	22	104	0	73	17126
2026-01-12 04:49:17.35	30.74	8.92	-53.9	-67.1	3.8	8.46e-01	0	22	104	0	73	17046
2026-01-12 04:49:18.36	30.67	9.00	-53.9	-67.2	3.8	8.44e-01	0	22	104	0	73	17099
2026-01-12 04:49:19.37	30.60	9.07	-53.9	-67.2	3.8	8.45e-01	0	22	104	0	73	17127
2026-01-12 04:49:20.38	30.53	9.15	-53.9	-67.1	3.8	8.46e-01	0	22	104	0	73	17068
2026-01-12 04:49:21.38	30.46	9.23	-53.9	-67.2	3.8	8.46e-01	0	23	104	0	73	17095
2026-01-12 04:49:22.39	30.39	9.31	-53.9	-67.2	3.8	8.47e-01	0	22	104	0	73	17084
2026-01-12 04:49:23.40	30.32	9.38	-53.9	-67.2	3.8	8.46e-01	0	22	104	0	73	17118
2026-01-12 04:49:24.41	30.24	9.46	-53.9	-67.1	3.8	8.46e-01	0	22	104	0	73	17074
2026-01-12 04:49:25.42	30.17	9.54	-53.9	-67.2	3.8	8.47e-01	0	23	104	0	73	17088
2026-01-12 04:49:26.43	30.10	9.62	-53.9	-67.2	3.8	8.46e-01	0	22	104	0	73	17087
2026-01-12 04:49:27.43	30.03	9.70	-53.9	-67.2	3.8	8.46e-01	0	22	104	0	73	17160
2026-01-12 04:49:28.44	29.95	9.78	-53.9	-67.2	3.8	8.45e-01	0	23	104	0	73	17104
2026-01-12 04:49:29.46	29.88	9.86	-54.0	-67.2	3.8	8.47e-01	0	23	104	0	73	17108
2026-01-12 04:49:30.47	29.81	9.94	-54.0	-67.2	3.8	8.45e-01	0	22	104	0	73	17113
2026-01-12 04:49:31.47	29.73	10.02	-54.0	-67.2	3.8	8.46e-01	0	23	104	0	73	17110
2026-01-12 04:49:32.48	29.66	10.10	-54.0	-67.2	3.8	8.46e-01	0	22	104	0	73	17138
2026-01-12 04:49:33.49	29.58	10.18	-54.0	-67.2	3.8	8.47e-01	0	23	104	0	73	17119
2026-01-12 04:49:34.50	29.51	10.26	-53.9	-67.2	3.8	8.45e-01	0	22	104	0	73	17170
2026-01-12 04:49:35.51	29.43	10.34	-53.9	-67.2	3.8	8.46e-01	0	22	104	0	73	17115
2026-01-12 04:49:36.52	29.35	10.42	-53.9	-67.2	3.8	8.46e-01	0	22	104	0	73	17132
2026-01-12 04:49:37.53	29.28	10.50	-53.9	-67.2	3.8	8.46e-01	0	23	104	0	73	17112
2026-01-12 04:49:38.53	29.20	10.58	-54.0	-67.1	3.8	8.46e-01	0	22	104	0	73	17075
2026-01-12 04:49:39.54	29.12	10.66	-53.9	-67.2	3.8	8.45e-01	0	22	104	0	73	17106
2026-01-12 04:49:40.55	29.04	10.74	-53.9	-67.2	3.8	8.45e-01	0	22	104	0	73	17085
2026-01-12 04:49:41.56	28.96	10.82	-54.0	-67.2	3.8	8.46e-01	0	22	104	0	73	17105
2026-01-12 04:49:42.57	28.88	10.90	-54.0	-67.2	3.8	8.46e-01	0	22	104	0	73	17129
2026-01-12 04:49:43.58	28.80	10.99	-53.9	-67.2	3.8	8.45e-01	0	22	104	0	73	17143
2026-01-12 04:49:44.59	28.72	11.07	-54.0	-67.2	3.8	8.45e-01	0	22	104	0	73	17204
2026-01-12 04:49:45.59	28.64	11.15	-54.0	-67.2	3.8	8.46e-01	0	22	104	0	73	17125
2026-01-12 04:49:46.60	28.56	11.23	-54.0	-67.2	3.8	8.45e-01	0	23	104	0	73	17096
2026-01-12 04:49:47.61	28.48	11.32	-54.0	-67.2	3.8	8.46e-01	0	23	104	0	73	17107
2026-01-12 04:49:48.62	28.40	11.40	-54.0	-67.2	3.8	8.46e-01	0	23	104	0	73	17130
2026-01-12 04:49:49.62	28.32	11.48	-53.9	-67.2	3.8	8.45e-01	0	23	104	0	73	17118
2026-01-12 04:49:50.63	28.23	11.57	-53.9	-67.2	3.8	8.46e-01	0	23	104	0	73	17149
2026-01-12 04:49:51.64	28.15	11.65	-54.0	-67.2	3.8	8.45e-01	0	23	104	0	73	17109
2026-01-12 04:49:52.65	28.06	11.73	-53.9	-67.2	3.8	8.45e-01	0	23	104	0	73	17180
2026-01-12 04:49:53.66	27.98	11.82	-54.0	-67.2	3.8	8.45e-01	0	22	104	0	73	17163
2026-01-12 04:49:54.67	27.89	11.90	-54.0	-67.2	3.8	8.46e-01	0	23	104	0	73	17182
2026-01-12 04:49:55.67	27.81	11.99	-54.0	-67.2	3.8	8.46e-01	0	23	104	0	73	17116
2026-01-12 04:49:56.68	27.72	12.07	-54.0	-67.2	3.8	8.46e-01	0	23	104	0	73	17151
2026-01-12 04:49:57.69	27.63	12.16	-53.9	-67.2	3.8	8.46e-01	0	23	104	0	73	17238
2026-01-12 04:49:58.71	27.55	12.24	-53.9	-67.2	3.8	8.46e-01	0	22	104	0	73	17112
2026-01-12 04:49:59.72	27.46	12.33	-53.9	-67.2	3.8	8.46e-01	0	22	104	0	73	17191
2026-01-12 04:50:00.73	27.37	12.42	-54.0	-67.2	3.8	8.45e-01	0	23	104	0	73	17139
2026-01-12 04:50:01.73	27.28	12.50	-54.0	-67.2	3.8	8.46e-01	0	23	104	0	73	17105
2026-01-12 04:50:02.74	27.19	12.59	-54.0	-67.2	3.8	8.46e-01	0	23	104	0	73	17166
2026-01-12 04:50:03.75	27.10	12.67	-54.0	-67.2	3.8	8.45e-01	0	23	104	0	73	17085
2026-01-12 04:50:04.76	27.01	12.76	-54.0	-67.2	3.8	8.45e-01	0	23	104	0	73	17140
2026-01-12 04:50:05.77	26.92	12.85	-54.0	-67.2	3.8	8.46e-01	0	23	104	0	73	17148
2026-01-12 04:50:06.77	26.83	12.94	-53.9	-67.2	3.8	8.46e-01	0	23	104	0	73	17170
2026-01-12 04:50:07.78	26.74	13.02	-53.9	-67.2	3.8	8.46e-01	0	23	104	0	73	17147
2026-01-12 04:50:08.79	26.64	13.11	-53.9	-67.2	3.8	8.46e-01	0	23	104	0	73	17121
2026-01-12 04:50:09.80	26.55	13.20	-54.0	-67.2	3.8	8.45e-01	0	23	104	0	73	17106
2026-01-12 04:50:10.80	26.46	13.29	-53.9	-67.2	3.8	8.45e-01	0	23	104	0	73	17168
2026-01-12 04:50:11.81	26.36	13.37	-54.0	-67.2	3.8	8.47e-01	0	23	104	0	73	17118
2026-01-12 04:50:12.82	26.27	13.46	-54.0	-67.2	3.8	8.46e-01	0	23	104	0	73	17147
2026-01-12 04:50:13.83	26.17	13.55	-54.0	-67.2	3.8	8.46e-01	0	23	104	0	73	17119
2026-01-12 04:50:14.84	26.07	13.64	-54.0	-67.2	3.8	8.46e-01	0	23	104	0	73	17133
2026-01-12 04:50:15.85	25.98	13.73	-54.0	-67.2	3.8	8.45e-01	0	23	104	0	73	17118
2026-01-12 04:50:16.86	25.88	13.82	-54.0	-67.2	3.8	8.45e-01	0	23	104	0	73	17183
2026-01-12 04:50:17.86	25.78	13.91	-54.0	-67.2	3.8	8.46e-01	0	23	104	0	73	17121
2026-01-12 04:50:18.87	25.68	14.00	-54.0	-67.2	3.8	8.47e-01	0	23	104	0	73	17122
2026-01-12 04:50:19.88	25.58	14.09	-54.0	-67.2	3.8	8.46e-01	0	23	104	0	73	17202
2026-01-12 04:50:20.89	25.48	14.18	-54.0	-67.2	3.8	8.44e-01	0	23	104	0	73	17166
2026-01-12 04:50:21.90	25.38	14.27	-53.9	-67.2	3.8	8.46e-01	0	23	104	0	73	17153
2026-01-12 04:50:22.91	25.28	14.36	-54.0	-67.2	3.8	8.46e-01	0	23	104	0	73	17124
2026-01-12 04:50:23.92	25.18	14.46	-53.9	-67.2	3.8	8.45e-01	0	23	104	0	73	17156
2026-01-12 04:50:24.93	25.08	14.55	-54.0	-67.2	3.8	8.44e-01	0	23	104	0	73	17148
2026-01-12 04:50:25.94	24.97	14.64	-53.9	-67.2	3.8	8.46e-01	0	23	104	0	73	17171
2026-01-12 04:50:26.95	24.87	14.73	-54.0	-67.2	3.8	8.45e-01	0	23	104	0	73	17212
2026-01-12 04:50:27.96	24.76	14.83	-54.0	-67.2	3.8	8.45e-01	0	23	104	0	73	17135
2026-01-12 04:50:28.97	24.66	14.92	-54.0	-67.2	3.8	8.45e-01	0	23	104	0	73	17163
2026-01-12 04:50:29.98	24.55	15.01	-54.0	-67.2	3.8	8.46e-01	0	23	104	0	73	17175
2026-01-12 04:50:30.99	24.45	15.10	-53.9	-67.2	3.8	8.45e-01	0	23	104	0	73	17125
2026-01-12 04:50:31.99	24.34	15.20	-54.0	-67.2	3.8	8.46e-01	0	23	104	0	73	17162
2026-01-12 04:50:33.00	24.23	15.29	-53.9	-67.2	3.8	8.45e-01	0	23	104	0	73	17141
2026-01-12 04:50:34.01	24.12	15.38	-54.0	-67.2	3.8	8.47e-01	0	23	104	0	73	17122
2026-01-12 04:50:35.02	24.01	15.48	-54.0	-67.2	3.8	8.45e-01	0	23	104	0	73	17102
2026-01-12 04:50:36.03	23.90	15.57	-54.0	-67.2	3.8	8.46e-01	0	23	104	0	73	17177
2026-01-12 04:50:37.04	23.79	15.67	-54.0	-67.2	3.8	8.45e-01	0	23	104	0	73	17134
2026-01-12 04:50:38.05	23.68	15.76	-54.0	-67.2	3.8	8.45e-01	0	23	104	0	73	17179
2026-01-12 04:50:39.06	23.57	15.86	-53.9	-67.2	3.8	8.46e-01	0	23	104	0	73	17085
2026-01-12 04:50:40.07	23.45	15.95	-54.0	-67.1	3.8	8.45e-01	0	23	104	0	73	17064
2026-01-12 04:50:41.08	23.34	16.05	-54.0	-67.2	3.8	8.46e-01	0	23	104	0	73	17144
2026-01-12 04:50:42.09	23.22	16.15	-54.0	-67.2	3.8	8.44e-01	0	23	104	0	73	17121
2026-01-12 04:50:43.09	23.11	16.24	-54.0	-67.2	3.8	8.46e-01	0	23	104	0	73	17124
2026-01-12 04:50:44.10	22.99	16.34	-54.0	-67.2	3.8	8.45e-01	0	23	104	0	73	17114
2026-01-12 04:50:45.11	22.88	16.44	-54.0	-67.2	3.8	8.46e-01	0	23	104	0	73	17105
2026-01-12 04:50:46.12	22.76	16.53	-53.9	-67.2	3.8	8.45e-01	0	23	104	0	73	17101
2026-01-12 04:50:47.12	22.64	16.63	-54.0	-67.2	3.8	8.46e-01	0	23	104	0	73	17120
2026-01-12 04:50:48.14	22.52	16.73	-54.0	-67.2	3.8	8.45e-01	0	23	104	0	73	17123
2026-01-12 04:50:49.15	22.40	16.83	-54.0	-67.2	3.8	8.46e-01	0	23	104	0	73	17115
2026-01-12 04:50:50.15	22.28	16.92	-54.0	-67.2	3.8	8.46e-01	0	23	104	0	73	17133
2026-01-12 04:50:51.16	22.16	17.02	-54.0	-67.2	3.8	8.46e-01	0	23	104	0	73	17152
2026-01-12 04:50:52.17	22.04	17.12	-54.0	-67.2	3.8	8.46e-01	0	23	104	0	73	17153
2026-01-12 04:50:53.18	21.91	17.22	-54.0	-67.2	3.8	8.46e-01	0	23	104	0	73	17093
2026-01-12 04:50:54.19	21.79	17.32	-54.0	-67.2	3.8	8.46e-01	0	23	104	0	73	17103
2026-01-12 04:50:55.19	21.66	17.42	-54.0	-67.2	3.8	8.45e-01	0	23	104	0	73	17166
2026-01-12 04:50:56.20	21.54	17.52	-54.0	-67.2	3.8	8.46e-01	0	23	104	0	73	17159
2026-01-12 04:50:57.21	21.41	17.62	-54.0	-67.2	3.8	8.46e-01	0	23	104	0	73	17150
2026-01-12 04:50:58.23	21.28	17.72	-54.0	-67.1	3.8	8.46e-01	0	23	104	0	73	17080
2026-01-12 04:50:59.24	21.15	17.82	-54.0	-67.2	3.8	8.46e-01	0	23	104	0	73	17124
2026-01-12 04:51:00.24	21.02	17.92	-54.0	-67.2	3.8	8.46e-01	0	23	104	0	73	17097
2026-01-12 04:51:01.25	20.89	18.02	-54.0	-67.2	3.8	8.46e-01	0	23	104	0	73	17115
2026-01-12 04:51:02.27	20.76	18.12	-53.9	-67.2	3.8	8.46e-01	0	23	104	0	73	17119
2026-01-12 04:51:03.28	20.63	18.22	-53.9	-67.2	3.8	8.45e-01	0	23	104	0	73	17168
2026-01-12 04:51:04.28	20.50	18.33	-54.0	-67.2	3.8	8.46e-01	0	23	104	0	73	17189
2026-01-12 04:51:05.29	20.36	18.43	-54.0	-67.2	3.8	8.45e-01	0	23	104	0	73	17110
2026-01-12 04:51:06.30	20.23	18.53	-54.0	-67.2	3.8	8.45e-01	0	23	104	0	73	17165
2026-01-12 04:51:07.31	20.09	18.63	-53.9	-67.2	3.8	8.46e-01	0	23	104	0	73	17123
2026-01-12 04:51:08.31	19.96	18.73	-54.0	-67.2	3.8	8.45e-01	0	23	104	0	73	17194
2026-01-12 04:51:09.32	19.82	18.84	-54.0	-67.2	3.8	8.45e-01	0	23	104	0	73	17146
2026-01-12 04:51:10.33	19.68	18.94	-54.0	-67.2	3.8	8.45e-01	0	23	104	0	73	17153
2026-01-12 04:51:11.33	19.54	19.04	-54.0	-67.2	3.8	8.45e-01	0	23	104	0	73	17163
2026-01-12 04:51:12.34	19.40	19.15	-54.0	-67.2	3.8	8.46e-01	0	23	104	0	73	17132
2026-01-12 04:51:13.35	19.26	19.25	-53.9	-67.1	3.8	8.45e-01	0	23	104	0	73	17045
2026-01-12 04:51:14.36	19.12	19.36	-54.0	-67.2	3.8	8.46e-01	0	23	104	0	73	17127
2026-01-12 04:51:15.37	18.97	19.46	-53.9	-67.2	3.8	8.45e-01	0	23	104	0	73	17155
2026-01-12 04:51:16.38	18.83	19.57	-53.9	-67.2	3.8	8.45e-01	0	23	104	0	73	17157
2026-01-12 04:51:17.39	18.68	19.67	-53.9	-67.2	3.8	8.44e-01	0	23	104	0	73	17128
2026-01-12 04:51:18.40	18.54	19.78	-53.9	-67.2	3.8	8.46e-01	0	23	104	0	73	17185
2026-01-12 04:51:19.41	18.39	19.88	-54.0	-67.2	3.8	8.45e-01	0	23	104	0	73	17120
2026-01-12 04:51:20.42	18.24	19.99	-53.9	-67.2	3.8	8.46e-01	0	23	104	0	73	17121
2026-01-12 04:51:21.42	18.09	20.09	-54.0	-67.2	3.8	8.45e-01	0	23	104	0	73	17167
2026-01-12 04:51:22.43	17.94	20.20	-54.0	-67.2	3.8	8.46e-01	0	23	104	0	73	17142
2026-01-12 04:51:23.44	17.79	20.31	-54.0	-67.2	3.8	8.45e-01	0	23	104	0	73	17160
2026-01-12 04:51:24.45	17.63	20.41	-54.0	-67.2	3.8	8.45e-01	0	23	104	0	73	17179
2026-01-12 04:51:25.45	17.48	20.52	-54.0	-67.2	3.8	8.46e-01	0	23	104	0	73	17178
2026-01-12 04:51:26.46	17.33	20.63	-54.0	-67.2	3.8	8.44e-01	0	23	104	0	73	17139
2026-01-12 04:51:27.47	17.17	20.73	-54.0	-67.2	3.8	8.45e-01	0	23	104	0	73	17122
2026-01-12 04:51:28.48	17.01	20.84	-53.9	-67.2	3.8	8.46e-01	0	23	104	0	73	17112
2026-01-12 04:51:29.49	16.85	20.95	-54.0	-67.2	3.8	8.45e-01	0	23	104	0	73	17151
2026-01-12 04:51:30.49	16.70	21.06	-54.0	-67.2	3.8	8.44e-01	0	23	104	0	73	17216
2026-01-12 04:51:31.50	16.53	21.16	-54.0	-67.2	3.8	8.45e-01	0	23	104	0	73	17127
2026-01-12 04:51:32.51	16.37	21.27	-53.9	-67.2	3.8	8.45e-01	0	23	104	0	73	17161
2026-01-12 04:51:33.52	16.21	21.38	-54.0	-67.2	3.8	8.48e-01	0	23	104	0	73	17170
2026-01-12 04:51:34.53	16.04	21.49	-54.0	-67.2	3.8	8.46e-01	0	23	104	0	73	17181
2026-01-12 04:51:35.54	15.88	21.60	-54.0	-67.2	3.8	8.45e-01	0	23	104	0	73	17147
2026-01-12 04:51:36.55	15.71	21.71	-54.0	-67.2	3.8	8.45e-01	0	23	104	0	73	17175
2026-01-12 04:51:37.55	15.55	21.82	-54.0	-67.2	3.8	8.46e-01	0	23	104	0	73	17146
2026-01-12 04:51:38.56	15.38	21.93	-54.0	-67.2	3.8	8.46e-01	0	23	104	0	73	17151
2026-01-12 04:51:39.57	15.21	22.04	-54.0	-67.2	3.8	8.45e-01	0	23	104	0	73	17192
2026-01-12 04:51:40.58	15.03	22.15	-54.0	-67.2	3.8	8.46e-01	0	23	104	0	73	17154
2026-01-12 04:51:41.58	14.86	22.26	-54.0	-67.2	3.8	8.46e-01	0	23	104	0	73	17176
2026-01-12 04:51:42.59	14.69	22.37	-54.0	-67.2	3.8	8.45e-01	0	23	104	0	73	17175
2026-01-12 04:51:43.60	14.51	22.48	-54.0	-67.2	3.8	8.45e-01	0	23	104	0	73	17148
2026-01-12 04:51:44.61	14.34	22.59	-54.0	-67.2	3.8	8.45e-01	0	23	104	0	73	17172
2026-01-12 04:51:45.61	14.16	22.70	-53.9	-67.2	3.8	8.45e-01	0	23	104	0	73	17193
2026-01-12 04:51:46.62	13.98	22.81	-54.0	-67.2	3.8	8.45e-01	0	23	104	0	73	17148
2026-01-12 04:51:47.63	13.80	22.93	-54.0	-67.2	3.8	8.45e-01	0	23	104	0	73	17196
2026-01-12 04:51:48.64	13.62	23.04	-54.0	-67.2	3.8	8.45e-01	0	23	104	0	73	17163
2026-01-12 04:51:49.65	13.44	23.15	-53.9	-67.2	3.8	8.47e-01	0	23	104	0	73	17193
2026-01-12 04:51:50.66	13.25	23.26	-53.9	-67.2	3.8	8.46e-01	0	23	104	0	73	17198
2026-01-12 04:51:51.66	13.07	23.37	-53.9	-67.2	3.8	8.45e-01	0	23	104	0	73	17160
2026-01-12 04:51:52.67	12.88	23.48	-53.9	-67.2	3.8	8.45e-01	0	23	104	0	73	17167
2026-01-12 04:51:53.68	12.69	23.60	-53.9	-67.2	3.8	8.46e-01	0	23	104	0	73	17165
2026-01-12 04:51:54.68	12.50	23.71	-53.9	-67.2	3.8	8.45e-01	0	23	104	0	73	17182
2026-01-12 04:51:55.69	12.31	23.82	-53.9	-67.2	3.8	8.45e-01	0	23	104	0	73	17200
2026-01-12 04:51:56.70	12.12	23.94	-53.9	-67.2	3.8	8.45e-01	0	23	104	0	73	17111
2026-01-12 04:51:57.71	11.92	24.05	-54.0	-67.2	3.8	8.45e-01	0	23	104	0	73	17088
2026-01-12 04:51:58.72	11.73	24.16	-53.9	-67.2	3.8	8.45e-01	0	23	104	0	73	17118
2026-01-12 04:51:59.73	11.53	24.28	-53.9	-67.2	3.8	8.45e-01	0	23	104	0	73	17145
2026-01-12 04:52:00.74	11.33	24.39	-53.9	-67.2	3.8	8.45e-01	0	23	104	0	73	17114
2026-01-12 04:52:01.75	11.13	24.50	-53.9	-67.2	3.8	8.47e-01	0	23	104	0	73	17194
2026-01-12 04:52:02.76	10.93	24.62	-53.9	-67.2	3.8	8.46e-01	0	23	104	0	73	17142
2026-01-12 04:52:03.77	10.73	24.73	-53.9	-67.2	3.8	8.45e-01	0	23	104	0	73	17131
2026-01-12 04:52:04.78	10.52	24.84	-53.9	-67.2	3.8	8.45e-01	0	23	104	0	73	17152
2026-01-12 04:52:05.79	10.32	24.96	-53.9	-67.2	3.8	8.46e-01	0	23	104	0	73	17188
2026-01-12 04:52:06.80	10.11	25.07	-53.9	-67.2	3.8	8.47e-01	0	23	104	0	73	17174
2026-01-12 04:52:07.81	9.90	25.19	-53.9	-67.2	3.8	8.45e-01	0	23	104	0	73	17231
2026-01-12 04:52:08.82	9.69	25.30	-53.9	-67.2	3.8	8.45e-01	0	23	104	0	73	17158
2026-01-12 04:52:09.83	9.48	25.42	-53.9	-67.2	3.8	8.45e-01	0	23	104	0	73	17172
2026-01-12 04:52:10.84	9.26	25.53	-53.9	-67.2	3.8	8.44e-01	0	23	104	0	73	17175
2026-01-12 04:52:11.85	9.05	25.64	-53.9	-67.2	3.8	8.46e-01	0	23	104	0	73	17156
2026-01-12 04:52:12.85	8.83	25.76	-53.9	-67.2	3.8	8.46e-01	0	23	104	0	73	17173
2026-01-12 04:52:13.86	8.61	25.87	-53.9	-67.2	3.8	8.47e-01	0	23	104	0	73	17186
2026-01-12 04:52:14.87	8.39	25.99	-53.9	-67.2	3.8	8.47e-01	0	23	104	0	73	17172
2026-01-12 04:52:15.88	8.17	26.10	-53.9	-67.2	3.8	8.45e-01	0	23	104	0	73	17089
2026-01-12 04:52:16.88	7.95	26.21	-53.9	-67.2	3.8	8.46e-01	0	23	104	0	73	17169
2026-01-12 04:52:17.89	7.72	26.33	-53.9	-67.2	3.8	8.46e-01	0	23	104	0	73	17135
2026-01-12 04:52:18.90	7.50	26.44	-53.9	-67.2	3.8	8.45e-01	0	23	104	0	73	17138
2026-01-12 04:52:19.91	7.27	26.56	-54.0	-67.2	3.8	8.46e-01	0	23	104	0	73	17153
2026-01-12 04:52:20.92	7.04	26.67	-54.0	-67.2	3.8	8.44e-01	0	23	104	0	73	17150
2026-01-12 04:52:21.93	6.81	26.79	-54.0	-67.2	3.8	8.47e-01	0	23	104	0	73	17148
2026-01-12 04:52:22.94	6.57	26.90	-54.0	-67.2	3.8	8.46e-01	0	23	104	0	73	17129
2026-01-12 04:52:23.95	6.34	27.02	-54.0	-67.2	3.8	8.45e-01	0	23	104	0	73	17153
2026-01-12 04:52:24.96	6.10	27.13	-54.0	-67.2	3.8	8.46e-01	0	23	104	0	73	17147
2026-01-12 04:52:25.97	5.86	27.25	-53.9	-67.2	3.8	8.46e-01	0	23	104	0	73	17178
2026-01-12 04:52:26.98	5.62	27.36	-54.0	-67.2	3.8	8.46e-01	0	23	104	0	73	17153
2026-01-12 04:52:27.99	5.38	27.47	-53.9	-67.2	3.8	8.45e-01	0	23	104	0	73	17137
2026-01-12 04:52:29.00	5.14	27.59	-54.0	-67.2	3.8	8.45e-01	0	23	104	0	73	17176
2026-01-12 04:52:30.01	4.89	27.70	-54.0	-67.2	3.8	8.46e-01	0	23	104	0	73	17107
2026-01-12 04:52:31.01	4.65	27.81	-54.0	-67.2	3.8	8.45e-01	0	23	104	0	73	17175
2026-01-12 04:52:32.02	4.40	27.93	-54.0	-67.2	3.8	8.46e-01	0	23	104	0	73	17146
2026-01-12 04:52:33.03	4.15	28.04	-54.0	-67.2	3.8	8.46e-01	0	23	104	0	73	17126
2026-01-12 04:52:34.04	3.89	28.15	-54.0	-67.2	3.8	8.46e-01	0	23	104	0	73	17123
2026-01-12 04:52:35.05	3.64	28.27	-54.0	-67.2	3.8	8.45e-01	0	23	104	0	73	17133
2026-01-12 04:52:36.05	3.39	28.38	-54.0	-67.2	3.8	8.46e-01	0	23	104	0	73	17125
2026-01-12 04:52:37.06	3.13	28.49	-54.0	-67.2	3.8	8.46e-01	0	23	104	0	73	17190
2026-01-12 04:52:38.07	2.87	28.61	-54.0	-67.2	3.8	8.45e-01	0	23	104	0	73	17180
2026-01-12 04:52:39.08	2.61	28.72	-54.0	-67.2	3.8	8.46e-01	0	23	104	0	73	17127
2026-01-12 04:52:40.08	2.34	28.83	-54.0	-67.2	3.8	8.47e-01	0	23	104	0	73	17133
2026-01-12 04:52:41.09	2.08	28.94	-54.0	-67.2	3.8	8.46e-01	0	23	104	0	73	17216
2026-01-12 04:52:42.10	1.81	29.05	-54.0	-67.2	3.8	8.46e-01	0	23	104	0	73	17167
2026-01-12 04:52:43.11	1.54	29.16	-54.0	-67.2	3.8	8.45e-01	0	23	104	0	73	17155
2026-01-12 04:52:44.11	1.27	29.27	-54.0	-67.2	3.8	8.46e-01	0	23	104	0	73	17201
2026-01-12 04:52:45.12	1.00	29.38	-54.0	-67.1	3.8	8.44e-01	0	23	104	0	73	17076
2026-01-12 04:52:46.13	0.73	29.50	-54.0	-67.2	3.8	8.45e-01	0	23	104	0	73	17195
2026-01-12 04:52:47.14	0.45	29.61	-54.0	-67.2	3.8	8.46e-01	0	23	104	0	73	17150
2026-01-12 04:52:48.15	0.17	29.72	-54.0	-67.2	3.8	8.45e-01	0	23	104	0	73	17189
2026-01-12 04:52:49.16	359.89	29.83	-54.0	-67.2	3.8	8.46e-01	0	23	104	0	73	17098
2026-01-12 04:52:50.17	359.61	29.93	-54.0	-67.2	3.8	8.47e-01	0	23	104	0	73	17139
2026-01-12 04:52:51.18	359.32	30.04	-54.0	-67.2	3.8	8.45e-01	0	23	104	0	73	17211
2026-01-12 04:52:52.19	359.03	30.15	-54.0	-67.2	3.8	8.46e-01	0	23	104	0	73	17105
2026-01-12 04:52:53.20	358.75	30.26	-54.0	-67.2	3.8	8.45e-01	0	23	104	0	73	17113
2026-01-12 04:52:54.20	358.46	30.37	-54.0	-67.2	3.8	8.45e-01	0	23	104	0	73	17114
2026-01-12 04:52:55.21	358.17	30.47	-54.0	-67.2	3.8	8.47e-01	0	23	104	0	73	17161
2026-01-12 04:52:56.22	357.87	30.58	-54.0	-67.2	3.8	8.45e-01	0	23	104	0	73	17189
2026-01-12 04:52:57.23	357.57	30.69	-53.9	-67.2	3.8	8.45e-01	0	23	104	0	73	17184
2026-01-12 04:52:58.24	357.28	30.79	-54.0	-67.2	3.8	8.46e-01	0	23	104	0	73	17210
2026-01-12 04:52:59.25	356.98	30.90	-54.0	-67.2	3.8	8.46e-01	0	23	104	0	73	17187
2026-01-12 04:53:00.26	356.67	31.00	-54.0	-67.2	3.8	8.46e-01	0	23	104	0	73	17177
2026-01-12 04:53:01.27	356.37	31.11	-54.0	-67.2	3.8	8.45e-01	0	23	104	0	73	17192
2026-01-12 04:53:02.28	356.06	31.21	-54.0	-67.2	3.8	8.46e-01	0	23	104	0	73	17194
2026-01-12 04:53:03.29	355.75	31.31	-54.0	-67.2	3.8	8.47e-01	0	23	104	0	73	17148
2026-01-12 04:53:04.30	355.44	31.42	-54.0	-67.2	3.8	8.46e-01	0	23	104	0	73	17211
2026-01-12 04:53:05.30	355.13	31.52	-54.0	-67.2	3.8	8.45e-01	0	23	104	0	73	17182
2026-01-12 04:53:06.31	354.82	31.62	-54.0	-67.2	3.8	8.45e-01	0	23	104	0	73	17148
2026-01-12 04:53:07.32	354.50	31.72	-53.9	-67.2	3.8	8.46e-01	0	23	104	0	73	17175
2026-01-12 04:53:08.33	354.19	31.82	-53.9	-67.2	3.8	8.47e-01	0	23	104	0	73	17158
2026-01-12 04:53:09.33	353.87	31.92	-54.0	-67.2	3.8	8.44e-01	0	23	104	0	73	17178
2026-01-12 04:53:10.34	353.55	32.02	-54.0	-67.2	3.8	8.47e-01	0	23	104	0	73	17159
2026-01-12 04:53:11.35	353.22	32.11	-54.0	-67.2	3.8	8.46e-01	0	23	104	0	73	17152
2026-01-12 04:53:12.36	352.90	32.21	-54.0	-67.2	3.8	8.45e-01	0	23	104	0	73	17134
2026-01-12 04:53:13.36	352.57	32.31	-54.0	-67.1	3.8	8.46e-01	0	23	104	0	73	17083
2026-01-12 04:53:14.38	352.24	32.40	-54.0	-67.2	3.8	8.45e-01	0	23	104	0	73	17176
2026-01-12 04:53:15.38	351.91	32.50	-54.0	-67.2	3.8	8.45e-01	0	23	104	0	73	17170
2026-01-12 04:53:16.39	351.58	32.59	-54.0	-67.2	3.8	8.46e-01	0	23	104	0	73	17127
2026-01-12 04:53:17.40	351.24	32.68	-54.0	-67.2	3.8	8.45e-01	0	23	104	0	73	17149
2026-01-12 04:53:18.40	350.91	32.78	-54.0	-67.2	3.8	8.44e-01	0	23	104	0	73	17161
2026-01-12 04:53:19.41	350.57	32.87	-54.0	-67.2	3.8	8.46e-01	0	23	104	0	73	17179
2026-01-12 04:53:20.42	350.22	32.96	-54.0	-67.2	3.8	8.45e-01	0	23	104	0	73	17175
2026-01-12 04:53:21.43	349.88	33.05	-54.0	-67.2	3.8	8.46e-01	0	23	104	0	73	17105
2026-01-12 04:53:22.44	349.54	33.14	-54.0	-67.2	3.8	8.46e-01	0	23	104	0	73	17210
2026-01-12 04:53:23.44	349.19	33.22	-54.0	-67.2	3.8	8.46e-01	0	23	104	0	73	17114
2026-01-12 04:53:24.45	348.84	33.31	-54.0	-67.2	3.8	8.46e-01	0	23	104	0	73	17139
2026-01-12 04:53:25.46	348.49	33.40	-54.0	-67.2	3.8	8.46e-01	0	23	104	0	73	17125
2026-01-12 04:53:26.47	348.14	33.48	-54.0	-67.2	3.8	8.44e-01	0	23	104	0	73	17201
2026-01-12 04:53:27.48	347.78	33.57	-53.9	-67.2	3.8	8.46e-01	0	23	104	0	73	17179
2026-01-12 04:53:28.48	347.43	33.65	-54.0	-67.2	3.8	8.46e-01	0	23	104	0	73	17236
2026-01-12 04:53:29.50	347.07	33.73	-54.0	-67.2	3.8	8.45e-01	0	23	104	0	73	17174
2026-01-12 04:53:30.50	346.71	33.81	-54.0	-67.2	3.8	8.47e-01	0	23	104	0	73	17177
2026-01-12 04:53:31.52	346.34	33.89	-54.0	-67.2	3.8	8.46e-01	0	23	104	0	73	17166
2026-01-12 04:53:32.53	345.98	33.97	-53.9	-67.2	3.8	8.46e-01	0	23	104	0	73	17178
2026-01-12 04:53:33.54	345.61	34.05	-53.9	-67.2	3.8	8.45e-01	0	23	104	0	73	17143
2026-01-12 04:53:34.55	345.25	34.13	-54.0	-67.2	3.8	8.46e-01	0	23	104	0	73	17131
2026-01-12 04:53:35.56	344.88	34.20	-54.0	-67.2	3.8	8.45e-01	0	23	104	0	73	17151
2026-01-12 04:53:36.56	344.51	34.27	-54.0	-67.2	3.8	8.45e-01	0	23	104	0	73	17153
2026-01-12 04:53:37.57	344.14	34.35	-54.0	-67.2	3.8	8.45e-01	0	23	104	0	73	17159
2026-01-12 04:53:38.57	343.77	34.42	-54.0	-67.2	3.8	8.46e-01	0	23	104	0	73	17165
2026-01-12 04:53:39.59	343.39	34.49	-54.0	-67.2	3.8	8.46e-01	0	23	104	0	73	17167
2026-01-12 04:53:40.59	343.01	34.56	-54.0	-67.2	3.8	8.45e-01	0	23	104	0	73	17142
2026-01-12 04:53:41.60	342.63	34.63	-54.0	-67.2	3.8	8.46e-01	0	23	104	0	73	17175
2026-01-12 04:53:42.61	342.25	34.69	-54.0	-67.2	3.8	8.46e-01	0	23	104	0	73	17172
2026-01-12 04:53:43.62	341.87	34.76	-54.0	-67.2	3.8	8.45e-01	0	23	104	0	73	17141
2026-01-12 04:53:44.63	341.49	34.82	-54.0	-67.2	3.8	8.46e-01	0	23	104	0	73	17182
2026-01-12 04:53:45.64	341.10	34.89	-54.0	-67.2	3.8	8.46e-01	0	23	104	0	73	17109
2026-01-12 04:53:46.65	340.72	34.95	-54.0	-67.2	3.8	8.45e-01	0	23	104	0	73	17148
2026-01-12 04:53:47.65	340.33	35.01	-54.0	-67.2	3.8	8.47e-01	0	23	104	0	73	17142
2026-01-12 04:53:48.66	339.94	35.06	-53.9	-67.2	3.8	8.48e-01	0	23	104	0	73	17122
2026-01-12 04:53:49.67	339.55	35.12	-54.0	-67.2	3.8	8.46e-01	0	23	104	0	73	17202
2026-01-12 04:53:50.69	339.15	35.18	-53.9	-67.2	3.8	8.46e-01	0	23	104	0	73	17179
2026-01-12 04:53:51.69	338.76	35.23	-54.0	-67.2	3.8	8.46e-01	0	23	104	0	73	17145
2026-01-12 04:53:52.70	338.37	35.28	-54.0	-67.2	3.8	8.44e-01	0	23	104	0	73	17095
2026-01-12 04:53:53.71	337.97	35.34	-54.0	-67.2	3.8	8.46e-01	0	23	104	0	73	17160
2026-01-12 04:53:54.72	337.57	35.39	-53.9	-67.2	3.8	8.46e-01	0	23	104	0	73	17116
2026-01-12 04:53:55.73	337.18	35.43	-54.0	-67.2	3.8	8.45e-01	0	23	104	0	73	17139
2026-01-12 04:53:56.74	336.78	35.48	-53.9	-67.2	3.8	8.45e-01	0	23	104	0	73	17096
2026-01-12 04:53:57.75	336.37	35.53	-54.0	-67.2	3.8	8.45e-01	0	23	104	0	73	17093
2026-01-12 04:53:58.75	335.98	35.57	-53.9	-67.2	3.8	8.45e-01	0	23	104	0	73	17133
2026-01-12 04:53:59.76	335.57	35.61	-54.0	-67.2	3.8	8.45e-01	0	23	104	0	73	17149
2026-01-12 04:54:00.77	335.17	35.65	-54.0	-67.2	3.8	8.46e-01	0	23	104	0	73	17171
2026-01-12 04:54:01.78	334.76	35.69	-54.0	-67.2	3.8	8.46e-01	0	23	104	0	73	17101
2026-01-12 04:54:02.79	334.36	35.73	-54.0	-67.2	3.8	8.47e-01	0	23	104	0	73	17125
2026-01-12 04:54:03.80	333.95	35.77	-54.0	-67.2	3.8	8.46e-01	0	23	104	0	73	17121
2026-01-12 04:54:04.80	333.54	35.80	-54.0	-67.2	3.8	8.45e-01	0	23	104	0	73	17149
2026-01-12 04:54:05.81	333.14	35.83	-54.0	-67.2	3.8	8.46e-01	0	23	104	0	73	17165
2026-01-12 04:54:06.82	332.73	35.86	-54.0	-67.2	3.8	8.46e-01	0	23	104	0	73	17123
2026-01-12 04:54:07.83	332.32	35.89	-54.0	-67.2	3.8	8.46e-01	0	23	104	0	73	17179
2026-01-12 04:54:08.84	331.90	35.92	-54.0	-67.2	3.8	8.45e-01	0	23	104	0	73	17172
2026-01-12 04:54:09.84	331.50	35.95	-54.0	-67.2	3.8	8.45e-01	0	23	104	0	73	17175
2026-01-12 04:54:10.86	331.08	35.97	-54.0	-67.2	3.8	8.47e-01	0	23	104	0	73	17212
2026-01-12 04:54:11.86	330.67	35.99	-54.0	-67.2	3.8	8.46e-01	0	23	104	0	73	17221
2026-01-12 04:54:12.87	330.26	36.01	-54.0	-67.2	3.8	8.45e-01	0	23	104	0	73	17121
2026-01-12 04:54:13.88	329.84	36.03	-54.0	-67.2	3.8	8.45e-01	0	23	104	0	73	17133
2026-01-12 04:54:14.89	329.43	36.05	-54.0	-67.2	3.8	8.45e-01	0	23	104	0	73	17120
2026-01-12 04:54:15.90	329.01	36.07	-54.0	-67.2	3.8	8.45e-01	0	23	104	0	73	17132
2026-01-12 04:54:16.91	328.60	36.08	-54.0	-67.2	3.8	8.46e-01	0	23	104	0	73	17161
2026-01-12 04:54:17.92	328.18	36.09	-54.0	-67.2	3.8	8.45e-01	0	23	104	0	73	17132
2026-01-12 04:54:18.93	327.76	36.10	-54.0	-67.2	3.8	8.45e-01	0	23	104	0	73	17209
2026-01-12 04:54:19.94	327.35	36.11	-54.0	-67.2	3.8	8.45e-01	0	23	104	0	73	17147
2026-01-12 04:54:20.95	326.93	36.12	-54.0	-67.2	3.8	8.46e-01	0	23	104	0	73	17126
2026-01-12 04:54:21.96	326.51	36.13	-54.0	-67.2	3.8	8.44e-01	0	23	104	0	73	17145
2026-01-12 04:54:22.97	326.10	36.13	-54.0	-67.2	3.8	8.45e-01	0	23	104	0	73	17087
2026-01-12 04:54:23.98	325.68	36.13	-54.0	-67.2	3.8	8.45e-01	0	23	104	0	73	17106
2026-01-12 04:54:24.99	325.26	36.13	-54.0	-67.2	3.8	8.45e-01	0	23	104	0	73	17173
2026-01-12 04:54:25.99	324.85	36.13	-54.0	-67.2	3.8	8.46e-01	0	23	104	0	73	17156
2026-01-12 04:54:27.00	324.43	36.13	-54.0	-67.2	3.8	8.45e-01	0	23	104	0	73	17194
2026-01-12 04:54:28.01	324.01	36.12	-54.0	-67.2	3.8	8.45e-01	0	23	104	0	73	17166
2026-01-12 04:54:29.02	323.60	36.12	-54.0	-67.2	3.8	8.45e-01	0	23	104	0	73	17162
2026-01-12 04:54:30.03	323.18	36.11	-54.0	-67.2	3.8	8.46e-01	0	23	104	0	73	17185
2026-01-12 04:54:31.04	322.76	36.10	-54.0	-67.2	3.8	8.46e-01	0	23	104	0	73	17217
2026-01-12 04:54:32.06	322.34	36.09	-54.0	-67.2	3.8	8.46e-01	0	23	104	0	73	17198
2026-01-12 04:54:33.06	321.93	36.07	-54.0	-67.2	3.8	8.46e-01	0	23	104	0	73	17175
2026-01-12 04:54:34.07	321.52	36.06	-54.0	-67.2	3.8	8.46e-01	0	23	104	0	73	17171
2026-01-12 04:54:35.08	321.10	36.04	-54.0	-67.2	3.8	8.45e-01	0	23	104	0	73	17267
2026-01-12 04:54:36.09	320.69	36.02	-54.0	-67.2	3.8	8.45e-01	0	23	104	0	73	17238
2026-01-12 04:54:37.10	320.27	36.00	-54.0	-67.2	3.8	8.46e-01	0	23	104	0	73	17197
2026-01-12 04:54:38.11	319.86	35.98	-54.0	-67.2	3.8	8.45e-01	0	23	104	0	73	17187
2026-01-12 04:54:39.11	319.45	35.96	-54.0	-67.2	3.8	8.46e-01	0	23	104	0	73	17149
2026-01-12 04:54:40.12	319.04	35.93	-54.0	-67.2	3.8	8.46e-01	0	23	104	0	73	17149
2026-01-12 04:54:41.13	318.62	35.91	-53.9	-67.2	3.8	8.46e-01	0	23	104	0	73	17154
2026-01-12 04:54:42.14	318.21	35.88	-54.0	-67.2	3.8	8.46e-01	0	23	104	0	73	17168
2026-01-12 04:54:43.14	317.81	35.85	-53.9	-67.2	3.8	8.46e-01	0	23	104	0	73	17126
2026-01-12 04:54:44.15	317.40	35.81	-54.0	-67.2	3.8	8.45e-01	0	23	104	0	73	17175
2026-01-12 04:54:45.16	316.99	35.78	-53.9	-67.2	3.8	8.45e-01	0	23	104	0	73	17134
2026-01-12 04:54:46.17	316.58	35.75	-53.9	-67.2	3.8	8.46e-01	0	23	104	0	73	17166
2026-01-12 04:54:47.18	316.17	35.71	-53.9	-67.2	3.8	8.46e-01	0	23	104	0	73	17180
2026-01-12 04:54:48.19	315.77	35.67	-54.0	-67.2	3.8	8.46e-01	0	23	104	0	73	17131
2026-01-12 04:54:49.20	315.36	35.63	-54.0	-67.2	3.8	8.46e-01	0	23	104	0	73	17127
2026-01-12 04:54:50.21	314.96	35.59	-54.0	-67.2	3.8	8.44e-01	0	23	104	0	73	17141
2026-01-12 04:54:51.22	314.56	35.55	-53.9	-67.2	3.8	8.46e-01	0	23	104	0	73	17201
2026-01-12 04:54:52.23	314.15	35.50	-53.9	-67.2	3.8	8.45e-01	0	23	104	0	73	17124
2026-01-12 04:54:53.24	313.75	35.46	-53.9	-67.2	3.8	8.45e-01	0	23	104	0	73	17182
2026-01-12 04:54:54.25	313.35	35.41	-54.0	-67.2	3.8	8.45e-01	0	23	104	0	73	17198
2026-01-12 04:54:55.26	312.95	35.36	-54.0	-67.2	3.8	8.44e-01	0	23	104	0	73	17123
2026-01-12 04:54:56.27	312.56	35.31	-54.0	-67.2	3.8	8.45e-01	0	23	104	0	73	17150
2026-01-12 04:54:57.27	312.16	35.26	-53.9	-67.2	3.8	8.45e-01	0	23	104	0	73	17181
2026-01-12 04:54:58.28	311.77	35.20	-54.0	-67.2	3.8	8.45e-01	0	23	104	0	73	17202
2026-01-12 04:54:59.30	311.37	35.15	-54.0	-67.2	3.8	8.45e-01	0	23	104	0	73	17235
2026-01-12 04:55:00.30	310.98	35.09	-54.0	-67.2	3.8	8.45e-01	0	23	104	0	73	17157
2026-01-12 04:55:01.32	310.59	35.03	-54.0	-67.2	3.8	8.46e-01	0	23	104	0	73	17178
2026-01-12 04:55:02.33	310.20	34.97	-54.0	-67.2	3.8	8.46e-01	0	23	104	0	73	17204
2026-01-12 04:55:03.33	309.82	34.91	-54.0	-67.2	3.8	8.45e-01	0	23	104	0	73	17191
2026-01-12 04:55:04.34	309.43	34.85	-54.0	-67.2	3.8	8.46e-01	0	23	104	0	73	17174
2026-01-12 04:55:05.35	309.04	34.79	-54.0	-67.2	3.8	8.46e-01	0	23	104	0	73	17094
2026-01-12 04:55:06.36	308.66	34.72	-54.0	-67.2	3.8	8.45e-01	0	23	104	0	73	17173
2026-01-12 04:55:07.37	308.28	34.66	-54.0	-67.2	3.8	8.45e-01	0	23	104	0	73	17215
2026-01-12 04:55:08.38	307.90	34.59	-54.0	-67.2	3.8	8.46e-01	0	23	104	0	73	17125
2026-01-12 04:55:09.39	307.52	34.52	-54.0	-67.2	3.8	8.45e-01	0	23	104	0	73	17153
2026-01-12 04:55:10.40	307.14	34.45	-54.0	-67.2	3.8	8.46e-01	0	23	104	0	73	17201
2026-01-12 04:55:11.40	306.77	34.38	-54.0	-67.2	3.8	8.45e-01	0	23	104	0	73	17208
2026-01-12 04:55:12.40	306.40	34.31	-54.0	-67.2	3.8	8.45e-01	0	23	104	0	73	17196
2026-01-12 04:55:13.41	306.03	34.23	-54.0	-67.2	3.8	8.46e-01	0	23	104	0	73	17146
2026-01-12 04:55:14.42	305.66	34.16	-54.0	-67.2	3.8	8.46e-01	0	23	104	0	73	17203
2026-01-12 04:55:15.43	305.29	34.08	-54.0	-67.2	3.8	8.45e-01	0	23	104	0	73	17140
2026-01-12 04:55:16.44	304.92	34.00	-54.0	-67.2	3.8	8.46e-01	0	23	104	0	73	17143
2026-01-12 04:55:17.45	304.56	33.93	-54.0	-67.2	3.8	8.46e-01	0	23	104	0	73	17130
2026-01-12 04:55:18.46	304.19	33.85	-54.0	-67.2	3.8	8.45e-01	0	23	104	0	73	17226
2026-01-12 04:55:19.47	303.83	33.77	-54.0	-67.2	3.8	8.47e-01	0	23	104	0	73	17209
2026-01-12 04:55:20.48	303.47	33.68	-54.0	-67.2	3.8	8.46e-01	0	23	104	0	73	17192
2026-01-12 04:55:21.48	303.12	33.60	-54.0	-67.2	3.8	8.46e-01	0	23	104	0	73	17161
2026-01-12 04:55:22.49	302.76	33.52	-54.0	-67.2	3.8	8.46e-01	0	23	104	0	73	17165
2026-01-12 04:55:23.50	302.41	33.43	-54.0	-67.2	3.8	8.44e-01	0	23	104	0	73	17162
2026-01-12 04:55:24.51	302.05	33.35	-54.0	-67.2	3.8	8.45e-01	0	23	104	0	73	17130
2026-01-12 04:55:25.52	301.70	33.26	-54.0	-67.2	3.8	8.44e-01	0	23	104	0	73	17111
2026-01-12 04:55:26.53	301.36	33.17	-54.0	-67.2	3.8	8.45e-01	0	23	104	0	73	17173
2026-01-12 04:55:27.54	301.01	33.08	-54.0	-67.2	3.8	8.46e-01	0	23	104	0	73	17193
2026-01-12 04:55:28.55	300.66	33.00	-54.0	-67.2	3.8	8.45e-01	0	23	104	0	73	17187
2026-01-12 04:55:29.56	300.32	32.90	-54.0	-67.2	3.8	8.46e-01	0	23	104	0	73	17240
2026-01-12 04:55:30.57	299.98	32.81	-54.0	-67.2	3.8	8.45e-01	0	23	104	0	73	17156
2026-01-12 04:55:31.58	299.64	32.72	-54.0	-67.2	3.8	8.46e-01	0	23	104	0	73	17203
2026-01-12 04:55:32.59	299.30	32.63	-54.0	-67.2	3.8	8.45e-01	0	23	104	0	73	17198
2026-01-12 04:55:33.60	298.97	32.53	-54.0	-67.2	3.8	8.46e-01	0	23	104	0	73	17191
2026-01-12 04:55:34.60	298.64	32.44	-54.0	-67.2	3.8	8.45e-01	0	23	104	0	73	17209
2026-01-12 04:55:35.61	298.31	32.34	-54.0	-67.2	3.8	8.46e-01	0	23	104	0	73	17193
2026-01-12 04:55:36.62	297.98	32.25	-54.0	-67.2	3.8	8.45e-01	0	23	104	0	73	17195
2026-01-12 04:55:37.63	297.65	32.15	-54.0	-67.2	3.8	8.47e-01	0	23	104	0	73	17170
2026-01-12 04:55:38.64	297.32	32.05	-54.0	-67.2	3.8	8.46e-01	0	23	104	0	73	17144
2026-01-12 04:55:39.65	297.00	31.95	-54.0	-67.2	3.8	8.46e-01	0	23	104	0	73	17150
2026-01-12 04:55:40.66	296.68	31.86	-54.0	-67.2	3.8	8.45e-01	0	23	104	0	73	17155
2026-01-12 04:55:41.67	296.36	31.76	-54.0	-67.2	3.8	8.46e-01	0	23	104	0	73	17164
2026-01-12 04:55:42.67	296.04	31.66	-54.0	-67.2	3.8	8.45e-01	0	23	104	0	73	17209
2026-01-12 04:55:43.68	295.73	31.55	-54.0	-67.2	3.8	8.46e-01	0	23	104	0	73	17164
2026-01-12 04:55:44.69	295.41	31.45	-54.0	-67.2	3.8	8.46e-01	0	23	104	0	73	17181
2026-01-12 04:55:45.70	295.10	31.35	-54.0	-67.2	3.8	8.46e-01	0	23	104	0	73	17153
2026-01-12 04:55:46.71	294.79	31.25	-53.9	-67.2	3.8	8.44e-01	0	23	104	0	73	17186
2026-01-12 04:55:47.72	294.49	31.14	-53.9	-67.2	3.8	8.45e-01	0	23	104	0	73	17164
2026-01-12 04:55:48.73	294.18	31.04	-53.9	-67.2	3.8	8.45e-01	0	23	104	0	73	17190
2026-01-12 04:55:49.74	293.88	30.93	-54.0	-67.2	3.8	8.46e-01	0	23	104	0	73	17198
2026-01-12 04:55:50.75	293.57	30.83	-53.9	-67.2	3.8	8.46e-01	0	23	104	0	73	17161
2026-01-12 04:55:51.76	293.27	30.72	-54.0	-67.2	3.8	8.45e-01	0	23	104	0	73	17183
2026-01-12 04:55:52.77	292.98	30.62	-54.0	-67.2	3.8	8.46e-01	0	23	104	0	73	17267
2026-01-12 04:55:53.78	292.68	30.51	-54.0	-67.2	3.8	8.45e-01	0	23	104	0	73	17243
2026-01-12 04:55:54.79	292.39	30.40	-54.0	-67.2	3.8	8.45e-01	0	23	104	0	73	17266
2026-01-12 04:55:55.80	292.09	30.29	-54.0	-67.2	3.8	8.46e-01	0	23	104	0	73	17216
2026-01-12 04:55:56.81	291.80	30.19	-54.0	-67.2	3.8	8.46e-01	0	23	104	0	73	17198
2026-01-12 04:55:57.81	291.52	30.08	-54.0	-67.2	3.8	8.46e-01	0	23	104	0	73	17194
2026-01-12 04:55:58.82	291.23	29.97	-54.0	-67.2	3.8	8.45e-01	0	23	104	0	73	17222
2026-01-12 04:55:59.83	290.95	29.86	-54.0	-67.2	3.8	8.46e-01	0	23	104	0	73	17191
2026-01-12 04:56:00.84	290.67	29.75	-54.0	-67.2	3.8	8.45e-01	0	23	104	0	73	17164
2026-01-12 04:56:01.85	290.39	29.64	-54.0	-67.2	3.8	8.45e-01	0	23	104	0	73	17164
2026-01-12 04:56:02.86	290.11	29.53	-54.0	-67.2	3.8	8.46e-01	0	23	104	0	73	17190
2026-01-12 04:56:03.87	289.83	29.42	-54.0	-67.2	3.8	8.47e-01	0	23	104	0	73	17219
2026-01-12 04:56:04.87	289.56	29.31	-54.0	-67.2	3.8	8.46e-01	0	23	104	0	73	17223
2026-01-12 04:56:05.88	289.29	29.20	-54.0	-67.2	3.8	8.46e-01	0	23	104	0	73	17184
2026-01-12 04:56:06.89	289.02	29.09	-54.0	-67.2	3.8	8.45e-01	0	23	104	0	73	17196
2026-01-12 04:56:07.90	288.75	28.98	-54.0	-67.2	3.8	8.47e-01	0	23	104	0	73	17154
2026-01-12 04:56:08.91	288.48	28.86	-54.0	-67.2	3.8	8.45e-01	0	23	104	0	73	17217
2026-01-12 04:56:09.92	288.22	28.75	-54.0	-67.2	3.8	8.46e-01	0	23	104	0	73	17234
2026-01-12 04:56:10.92	287.96	28.64	-54.0	-67.2	3.8	8.46e-01	0	23	104	0	73	17193
2026-01-12 04:56:11.93	287.69	28.53	-54.0	-67.2	3.8	8.46e-01	0	23	104	0	73	17208
2026-01-12 04:56:12.94	287.43	28.41	-54.0	-67.2	3.8	8.47e-01	0	23	104	0	73	17217
2026-01-12 04:56:13.95	287.18	28.30	-54.0	-67.2	3.8	8.45e-01	0	23	104	0	73	17207
2026-01-12 04:56:14.96	286.92	28.19	-54.0	-67.2	3.8	8.46e-01	0	23	104	0	73	17272
2026-01-12 04:56:15.97	286.67	28.07	-54.0	-67.2	3.8	8.46e-01	0	23	104	0	73	17253
2026-01-12 04:56:16.98	286.41	27.96	-54.0	-67.2	3.8	8.46e-01	0	23	104	0	73	17183
2026-01-12 04:56:17.99	286.16	27.85	-54.0	-67.2	3.8	8.46e-01	0	23	104	0	73	17259
2026-01-12 04:56:19.00	285.92	27.73	-54.0	-67.2	3.8	8.45e-01	0	23	104	0	73	17225
2026-01-12 04:56:20.01	285.67	27.62	-54.0	-67.2	3.8	8.46e-01	0	23	104	0	73	17186
2026-01-12 04:56:21.02	285.42	27.50	-54.0	-67.2	3.8	8.46e-01	0	23	104	0	73	17197
2026-01-12 04:56:22.03	285.18	27.39	-54.0	-67.2	3.8	8.45e-01	0	23	104	0	73	17163
2026-01-12 04:56:23.03	284.94	27.28	-54.0	-67.2	3.8	8.46e-01	0	23	104	0	73	17202
2026-01-12 04:56:24.04	284.70	27.16	-54.0	-67.2	3.8	8.45e-01	0	23	104	0	73	17177
2026-01-12 04:56:25.05	284.46	27.05	-54.0	-67.2	3.8	8.44e-01	0	23	104	0	73	17180
2026-01-12 04:56:26.05	284.23	26.93	-54.0	-67.2	3.8	8.45e-01	0	23	104	0	73	17180
2026-01-12 04:56:27.07	283.99	26.82	-54.0	-67.2	3.8	8.46e-01	0	23	104	0	73	17230
2026-01-12 04:56:28.07	283.76	26.70	-54.0	-67.2	3.8	8.45e-01	0	23	104	0	73	17219
2026-01-12 04:56:29.08	283.53	26.59	-54.0	-67.2	3.8	8.45e-01	0	23	104	0	73	17260
2026-01-12 04:56:30.09	283.30	26.47	-54.0	-67.2	3.8	8.46e-01	0	23	104	0	73	17221
2026-01-12 04:56:31.10	283.07	26.36	-54.0	-67.2	3.8	8.46e-01	0	23	104	0	73	17168
2026-01-12 04:56:32.11	282.85	26.24	-54.0	-67.2	3.8	8.46e-01	0	23	104	0	73	17220
2026-01-12 04:56:33.13	282.62	26.13	-54.0	-67.2	3.8	8.46e-01	0	23	104	0	73	17222
2026-01-12 04:56:34.13	282.40	26.01	-54.0	-67.2	3.8	8.45e-01	0	23	104	0	73	17205
2026-01-12 04:56:35.14	282.18	25.90	-54.0	-67.2	3.8	8.46e-01	0	23	104	0	73	17172
2026-01-12 04:56:36.15	281.96	25.78	-54.0	-67.2	3.8	8.46e-01	0	23	104	0	73	17183
2026-01-12 04:56:37.16	281.74	25.67	-54.0	-67.2	3.8	8.46e-01	0	23	104	0	73	17162
2026-01-12 04:56:38.16	281.52	25.56	-54.0	-67.2	3.8	8.46e-01	0	23	104	0	73	17189
2026-01-12 04:56:39.17	281.31	25.44	-54.1	-67.2	3.8	8.46e-01	0	23	104	0	73	17215
2026-01-12 04:56:40.18	281.10	25.33	-54.0	-67.2	3.8	8.45e-01	0	23	104	0	73	17235
2026-01-12 04:56:41.19	280.88	25.21	-54.0	-67.2	3.8	8.45e-01	0	23	104	0	73	17143
2026-01-12 04:56:42.19	280.68	25.10	-54.0	-67.2	3.8	8.45e-01	0	23	104	0	73	17187
2026-01-12 04:56:43.21	280.46	24.98	-54.0	-67.2	3.8	8.46e-01	0	23	104	0	73	17200
2026-01-12 04:56:44.21	280.26	24.87	-54.0	-67.2	3.8	8.47e-01	0	23	104	0	73	17218
2026-01-12 04:56:45.22	280.05	24.76	-54.0	-67.2	3.8	8.46e-01	0	23	104	0	73	17254
2026-01-12 04:56:46.23	279.85	24.64	-54.0	-67.2	3.8	8.45e-01	0	23	104	0	73	17255
2026-01-12 04:56:47.24	279.65	24.53	-54.0	-67.2	3.8	8.46e-01	0	23	104	0	73	17215
2026-01-12 04:56:48.24	279.45	24.41	-54.0	-67.2	3.8	8.46e-01	0	23	104	0	73	17272
2026-01-12 04:56:49.25	279.25	24.30	-54.0	-67.2	3.8	8.46e-01	0	23	104	0	73	17270
2026-01-12 04:56:50.26	279.05	24.19	-54.0	-67.2	3.8	8.45e-01	0	23	104	0	73	17165
2026-01-12 04:56:51.27	278.85	24.07	-54.0	-67.2	3.8	8.45e-01	0	23	104	0	73	17221
2026-01-12 04:56:52.28	278.66	23.96	-54.0	-67.2	3.8	8.45e-01	0	23	104	0	73	17198
2026-01-12 04:56:53.29	278.46	23.85	-54.0	-67.2	3.8	8.46e-01	0	23	104	0	73	17224
2026-01-12 04:56:54.30	278.27	23.73	-54.0	-67.2	3.8	8.44e-01	0	23	104	0	73	17202
2026-01-12 04:56:55.31	278.08	23.62	-54.0	-67.2	3.8	8.44e-01	0	23	104	0	73	17159
2026-01-12 04:56:56.31	277.89	23.51	-54.0	-67.2	3.8	8.46e-01	0	23	104	0	73	17224
2026-01-12 04:56:57.32	277.70	23.39	-54.0	-67.2	3.8	8.45e-01	0	23	104	0	73	17169
2026-01-12 04:56:58.33	277.52	23.28	-54.1	-67.2	3.8	8.45e-01	0	23	104	0	73	17232
2026-01-12 04:56:59.34	277.33	23.17	-54.0	-67.2	3.8	8.45e-01	0	23	104	0	73	17212
2026-01-12 04:57:00.35	277.14	23.06	-54.0	-67.2	3.8	8.45e-01	0	23	104	0	73	17263
2026-01-12 04:57:01.35	276.96	22.95	-54.0	-67.2	3.8	8.45e-01	0	23	104	0	73	17180
2026-01-12 04:57:02.36	276.78	22.83	-54.0	-67.2	3.8	8.45e-01	0	23	104	0	73	17252
2026-01-12 04:57:03.37	276.60	22.72	-54.0	-67.2	3.8	8.46e-01	0	23	104	0	73	17187
2026-01-12 04:57:04.38	276.42	22.61	-54.0	-67.2	3.8	8.47e-01	0	23	104	0	73	17193
2026-01-12 04:57:05.39	276.24	22.50	-54.0	-67.2	3.8	8.46e-01	0	23	104	0	73	17192
2026-01-12 04:57:06.40	276.07	22.39	-54.0	-67.2	3.8	8.47e-01	0	23	104	0	73	17184
2026-01-12 04:57:07.41	275.89	22.28	-54.0	-67.2	3.8	8.45e-01	0	23	104	0	73	17218
2026-01-12 04:57:08.42	275.72	22.17	-54.0	-67.2	3.8	8.45e-01	0	23	104	0	73	17222
2026-01-12 04:57:09.43	275.55	22.05	-54.0	-67.2	3.8	8.46e-01	0	23	104	0	73	17198
2026-01-12 04:57:10.44	275.37	21.94	-54.0	-67.2	3.8	8.45e-01	0	23	104	0	73	17230
2026-01-12 04:57:11.44	275.21	21.84	-54.0	-67.2	3.8	8.45e-01	0	23	104	0	73	17208
2026-01-12 04:57:12.45	275.04	21.72	-54.0	-67.2	3.8	8.46e-01	0	23	104	0	73	17209
2026-01-12 04:57:13.47	274.87	21.61	-54.0	-67.2	3.8	8.46e-01	0	23	104	0	73	17206
2026-01-12 04:57:14.48	274.70	21.50	-54.0	-67.2	3.8	8.47e-01	0	23	104	0	73	17247
2026-01-12 04:57:15.48	274.54	21.40	-54.0	-67.2	3.8	8.46e-01	0	23	104	0	73	17242
2026-01-12 04:57:16.49	274.37	21.29	-54.0	-67.2	3.8	8.45e-01	0	23	104	0	73	17254
2026-01-12 04:57:17.50	274.21	21.18	-54.0	-67.2	3.8	8.46e-01	0	23	104	0	73	17244
2026-01-12 04:57:18.51	274.05	21.07	-54.0	-67.2	3.8	8.46e-01	0	23	104	0	73	17229
2026-01-12 04:57:19.51	273.89	20.96	-54.0	-67.2	3.8	8.45e-01	0	23	104	0	73	17210
2026-01-12 04:57:20.52	273.73	20.85	-54.1	-67.2	3.8	8.45e-01	0	23	104	0	73	17201
2026-01-12 04:57:21.53	273.57	20.74	-54.1	-67.2	3.8	8.45e-01	0	23	104	0	73	17270
2026-01-12 04:57:22.54	273.41	20.64	-54.1	-67.2	3.8	8.45e-01	0	23	104	0	73	17239
2026-01-12 04:57:23.55	273.26	20.53	-54.0	-67.2	3.8	8.45e-01	0	23	104	0	73	17174
2026-01-12 04:57:24.55	273.10	20.42	-54.1	-67.3	3.8	8.46e-01	0	23	104	0	73	17286
2026-01-12 04:57:25.56	272.95	20.32	-54.1	-67.3	3.8	8.46e-01	0	23	104	0	73	17310
2026-01-12 04:57:26.56	272.80	20.21	-54.1	-67.2	3.8	8.45e-01	0	23	104	0	73	17181
2026-01-12 04:57:27.57	272.65	20.10	-54.1	-67.2	3.8	8.46e-01	0	23	104	0	73	17220
2026-01-12 04:57:28.58	272.49	20.00	-54.1	-67.2	3.8	8.45e-01	0	23	104	0	73	17253
2026-01-12 04:57:29.59	272.34	19.89	-54.0	-67.2	3.8	8.43e-01	0	23	104	0	73	17276
2026-01-12 04:57:30.60	272.20	19.78	-54.0	-67.3	3.8	8.47e-01	0	23	104	0	73	17287
2026-01-12 04:57:31.61	272.05	19.68	-54.0	-67.2	3.8	8.46e-01	0	23	104	0	73	17246
2026-01-12 04:57:32.62	271.90	19.57	-54.0	-67.2	3.8	8.45e-01	0	23	104	0	73	17241
2026-01-12 04:57:33.63	271.76	19.47	-54.0	-67.2	3.8	8.45e-01	0	23	104	0	73	17274
2026-01-12 04:57:34.64	271.61	19.36	-54.0	-67.2	3.8	8.45e-01	0	23	104	0	73	17262
2026-01-12 04:57:35.64	271.47	19.26	-54.0	-67.3	3.8	8.46e-01	0	23	104	0	73	17293
2026-01-12 04:57:36.65	271.33	19.15	-54.0	-67.3	3.8	8.47e-01	0	23	104	0	73	17290
2026-01-12 04:57:37.66	271.19	19.05	-54.0	-67.3	3.8	8.46e-01	0	23	104	0	73	17299
2026-01-12 04:57:38.67	271.04	18.95	-54.1	-67.2	3.8	8.46e-01	0	23	104	0	73	17280
2026-01-12 04:57:39.67	270.91	18.84	-54.1	-67.2	3.8	8.44e-01	0	23	104	0	73	17280
2026-01-12 04:57:40.68	270.77	18.74	-54.1	-67.2	3.8	8.45e-01	0	23	104	0	73	17221
2026-01-12 04:57:41.69	270.63	18.64	-54.0	-67.2	3.8	8.46e-01	0	23	104	0	73	17257
2026-01-12 04:57:42.70	270.49	18.53	-54.1	-67.2	3.8	8.46e-01	0	23	104	0	73	17240
2026-01-12 04:57:43.71	270.36	18.43	-54.0	-67.2	3.8	8.45e-01	0	23	104	0	73	17204
2026-01-12 04:57:44.72	270.22	18.33	-54.0	-67.2	3.8	8.46e-01	0	23	104	0	73	17201
2026-01-12 04:57:45.73	270.09	18.23	-54.1	-67.2	3.8	8.46e-01	0	23	104	0	73	17274
2026-01-12 04:57:46.74	269.96	18.12	-54.1	-67.2	3.8	8.45e-01	0	23	104	0	73	17244
2026-01-12 04:57:47.75	269.82	18.02	-54.0	-67.2	3.8	8.46e-01	0	23	104	0	73	17226
2026-01-12 04:57:48.76	269.69	17.92	-54.0	-67.2	3.8	8.46e-01	0	23	104	0	73	17219
2026-01-12 04:57:49.77	269.56	17.82	-54.0	-67.2	3.8	8.45e-01	0	23	104	0	73	17178
2026-01-12 04:57:50.77	269.43	17.72	-54.0	-67.2	3.8	8.46e-01	0	23	104	0	73	17260
2026-01-12 04:57:51.78	269.30	17.62	-54.0	-67.2	3.8	8.46e-01	0	23	104	0	73	17217
2026-01-12 04:57:52.79	269.18	17.52	-54.0	-67.2	3.8	8.44e-01	0	23	104	0	73	17227
2026-01-12 04:57:53.80	269.05	17.42	-54.0	-67.2	3.8	8.46e-01	0	23	104	0	73	17250
2026-01-12 04:57:54.81	268.92	17.32	-54.0	-67.2	3.8	8.46e-01	0	23	104	0	73	17222
2026-01-12 04:57:55.82	268.80	17.22	-54.0	-67.3	3.8	8.46e-01	0	23	104	0	73	17283
2026-01-12 04:57:56.82	268.68	17.12	-54.0	-67.2	3.8	8.45e-01	0	23	104	0	73	17217
2026-01-12 04:57:57.83	268.55	17.02	-54.0	-67.2	3.8	8.45e-01	0	24	104	0	73	17222
2026-01-12 04:57:58.85	268.43	16.92	-54.0	-67.2	3.8	8.47e-01	0	23	104	0	73	17214
2026-01-12 04:57:59.86	268.31	16.82	-54.0	-67.2	3.8	8.45e-01	0	23	104	0	73	17199
2026-01-12 04:58:00.86	268.19	16.73	-54.1	-67.2	3.8	8.45e-01	0	23	104	0	73	17232
2026-01-12 04:58:01.88	268.07	16.63	-54.0	-67.2	3.8	8.45e-01	0	23	104	0	73	17173
2026-01-12 04:58:02.88	267.95	16.53	-54.0	-67.2	3.8	8.45e-01	0	23	104	0	73	17210
2026-01-12 04:58:03.89	267.83	16.43	-54.1	-67.2	3.8	8.45e-01	0	23	104	0	73	17251
2026-01-12 04:58:04.90	267.71	16.34	-54.1	-67.3	3.8	8.46e-01	0	23	104	0	73	17293
2026-01-12 04:58:05.91	267.59	16.24	-54.0	-67.2	3.8	8.45e-01	0	23	104	0	73	17249
2026-01-12 04:58:06.92	267.48	16.14	-54.0	-67.2	3.8	8.45e-01	0	23	104	0	73	17259
2026-01-12 04:58:07.93	267.36	16.05	-54.1	-67.2	3.8	8.46e-01	0	23	104	0	73	17256
2026-01-12 04:58:08.94	267.25	15.95	-54.1	-67.3	3.8	8.46e-01	0	23	104	0	73	17289
2026-01-12 04:58:09.96	267.13	15.85	-54.0	-67.2	3.8	8.46e-01	0	23	104	0	73	17248
2026-01-12 04:58:10.96	267.02	15.76	-54.0	-67.2	3.8	8.45e-01	0	23	104	0	73	17244
2026-01-12 04:58:11.97	266.91	15.66	-54.0	-67.2	3.8	8.46e-01	0	23	104	0	73	17196
2026-01-12 04:58:12.98	266.79	15.57	-54.1	-67.2	3.8	8.47e-01	0	23	104	0	73	17206
2026-01-12 04:58:13.99	266.68	15.47	-54.1	-67.2	3.8	8.47e-01	0	23	104	0	73	17158
2026-01-12 04:58:15.00	266.57	15.38	-54.1	-67.2	3.8	8.47e-01	0	23	104	0	73	17175
2026-01-12 04:58:16.00	266.46	15.28	-54.0	-67.2	3.8	8.46e-01	0	23	104	0	73	17235
2026-01-12 04:58:17.01	266.36	15.19	-54.0	-67.3	3.8	8.46e-01	0	23	104	0	73	17282
2026-01-12 04:58:18.02	266.25	15.10	-54.0	-67.2	3.8	8.45e-01	0	23	104	0	73	17210
2026-01-12 04:58:19.03	266.14	15.00	-54.1	-67.3	3.8	8.46e-01	0	23	104	0	73	17301
2026-01-12 04:58:20.04	266.03	14.91	-54.1	-67.2	3.8	8.46e-01	0	23	104	0	73	17248
2026-01-12 04:58:21.05	265.93	14.82	-54.1	-67.2	3.8	8.46e-01	0	23	104	0	73	17257
2026-01-12 04:58:22.06	265.82	14.72	-54.1	-67.2	3.8	8.46e-01	0	23	104	0	73	17249
2026-01-12 04:58:23.07	265.72	14.63	-54.1	-67.2	3.8	8.45e-01	0	23	104	0	73	17233
2026-01-12 04:58:24.08	265.61	14.54	-54.0	-67.3	3.8	8.47e-01	0	23	104	0	73	17291
2026-01-12 04:58:25.09	265.51	14.45	-54.0	-67.2	3.8	8.46e-01	0	23	104	0	73	17213
2026-01-12 04:58:26.10	265.41	14.35	-54.0	-67.2	3.8	8.46e-01	0	23	104	0	73	17236
2026-01-12 04:58:27.10	265.30	14.26	-54.1	-67.3	3.8	8.45e-01	0	23	104	0	73	17295
2026-01-12 04:58:28.10	265.20	14.17	-54.1	-67.2	3.8	8.45e-01	0	23	104	0	73	17216
2026-01-12 04:58:29.11	265.10	14.08	-54.1	-67.2	3.8	8.46e-01	0	23	104	0	73	17240
2026-01-12 04:58:30.12	265.00	13.99	-54.1	-67.2	3.8	8.45e-01	0	23	104	0	73	17247
2026-01-12 04:58:31.13	264.90	13.90	-54.1	-67.2	3.8	8.44e-01	0	23	104	0	73	17223
2026-01-12 04:58:32.14	264.80	13.81	-54.1	-67.2	3.8	8.46e-01	0	23	104	0	73	17233
2026-01-12 04:58:33.15	264.71	13.72	-54.1	-67.2	3.8	8.45e-01	0	23	104	0	73	17229
2026-01-12 04:58:34.16	264.61	13.63	-54.0	-67.2	3.8	8.45e-01	0	23	104	0	73	17245
2026-01-12 04:58:35.17	264.51	13.54	-54.0	-67.2	3.8	8.45e-01	0	23	104	0	73	17221
2026-01-12 04:58:36.18	264.41	13.45	-54.0	-67.2	3.8	8.47e-01	0	23	104	0	73	17258
2026-01-12 04:58:37.19	264.32	13.36	-54.0	-67.2	3.8	8.46e-01	0	23	104	0	73	17270
2026-01-12 04:58:38.20	264.22	13.27	-54.1	-67.2	3.8	8.46e-01	0	23	104	0	73	17254
2026-01-12 04:58:39.20	264.13	13.18	-54.1	-67.2	3.8	8.47e-01	0	23	104	0	73	17257
2026-01-12 04:58:40.21	264.03	13.10	-54.0	-67.2	3.8	8.46e-01	0	23	104	0	73	17233
2026-01-12 04:58:41.22	263.94	13.01	-54.0	-67.2	3.8	8.44e-01	0	23	104	0	73	17228
2026-01-12 04:58:42.23	263.85	12.92	-54.0	-67.2	3.8	8.45e-01	0	23	104	0	73	17180
2026-01-12 04:58:43.24	263.76	12.83	-54.0	-67.2	3.8	8.46e-01	0	23	104	0	73	17242
2026-01-12 04:58:44.25	263.66	12.74	-54.0	-67.2	3.8	8.45e-01	0	23	104	0	73	17247
2026-01-12 04:58:45.26	263.57	12.66	-54.0	-67.2	3.8	8.47e-01	0	23	104	0	73	17221
2026-01-12 04:58:46.27	263.48	12.57	-54.1	-67.2	3.8	8.45e-01	0	23	104	0	73	17252
2026-01-12 04:58:47.28	263.39	12.48	-54.0	-67.2	3.8	8.45e-01	0	23	104	0	73	17274
2026-01-12 04:58:48.29	263.30	12.40	-54.0	-67.2	3.8	8.46e-01	0	23	104	0	73	17244
2026-01-12 04:58:49.30	263.21	12.31	-54.0	-67.2	3.8	8.47e-01	0	23	104	0	73	17235
2026-01-12 04:58:50.31	263.12	12.23	-54.0	-67.2	3.8	8.46e-01	0	23	104	0	73	17248
2026-01-12 04:58:51.32	263.04	12.14	-54.1	-67.2	3.8	8.45e-01	0	23	104	0	73	17247
2026-01-12 04:58:52.33	262.95	12.05	-54.1	-67.2	3.8	8.46e-01	0	23	104	0	73	17212
2026-01-12 04:58:53.34	262.86	11.97	-54.1	-67.2	3.8	8.46e-01	0	23	104	0	73	17258
2026-01-12 04:58:54.35	262.77	11.88	-54.1	-67.2	3.8	8.46e-01	0	23	104	0	73	17222
2026-01-12 04:58:55.36	262.69	11.80	-54.1	-67.2	3.8	8.45e-01	0	23	104	0	73	17241
2026-01-12 04:58:56.36	262.60	11.71	-54.1	-67.2	3.8	8.47e-01	0	23	104	0	73	17276
2026-01-12 04:58:57.37	262.52	11.63	-54.1	-67.2	3.8	8.45e-01	0	23	104	0	73	17241
2026-01-12 04:58:58.38	262.43	11.55	-54.1	-67.3	3.8	8.45e-01	0	23	104	0	73	17288
2026-01-12 04:58:59.39	262.35	11.46	-54.0	-67.3	3.8	8.46e-01	0	23	104	0	73	17295
2026-01-12 04:59:00.40	262.27	11.38	-54.1	-67.2	3.8	8.45e-01	0	23	104	0	73	17211
2026-01-12 04:59:01.41	262.18	11.29	-54.1	-67.2	3.8	8.45e-01	0	23	104	0	73	17218
2026-01-12 04:59:02.42	262.10	11.21	-54.1	-67.2	3.8	8.45e-01	0	23	104	0	73	17245
2026-01-12 04:59:03.42	262.02	11.13	-54.1	-67.2	3.8	8.46e-01	0	23	104	0	73	17247
2026-01-12 04:59:04.43	261.94	11.05	-54.1	-67.2	3.8	8.45e-01	0	23	104	0	73	17229
2026-01-12 04:59:05.44	261.86	10.96	-54.1	-67.2	3.8	8.45e-01	0	23	104	0	73	17248
2026-01-12 04:59:06.44	261.78	10.88	-54.0	-67.2	3.8	8.46e-01	0	23	104	0	73	17204
2026-01-12 04:59:07.45	261.70	10.80	-54.1	-67.2	3.8	8.46e-01	0	23	104	0	73	17227
2026-01-12 04:59:08.46	261.62	10.72	-54.0	-67.2	3.8	8.45e-01	0	23	104	0	73	17209
2026-01-12 04:59:09.47	261.54	10.64	-54.1	-67.2	3.8	8.46e-01	0	23	104	0	73	17202
2026-01-12 04:59:10.47	261.46	10.56	-54.0	-67.2	3.8	8.46e-01	0	23	104	0	73	17240
2026-01-12 04:59:11.48	261.38	10.47	-54.1	-67.2	3.8	8.46e-01	0	23	104	0	73	17243
2026-01-12 04:59:12.49	261.30	10.39	-54.1	-67.2	3.8	8.45e-01	0	23	104	0	73	17253
2026-01-12 04:59:13.49	261.23	10.31	-54.1	-67.2	3.8	8.45e-01	0	23	104	0	73	17254
2026-01-12 04:59:14.50	261.15	10.23	-54.1	-67.2	3.8	8.45e-01	0	23	104	0	73	17268
2026-01-12 04:59:15.51	261.07	10.15	-54.1	-67.3	3.8	8.45e-01	0	23	104	0	73	17284
2026-01-12 04:59:16.51	261.00	10.07	-54.1	-67.2	3.8	8.46e-01	0	23	104	0	73	17186
2026-01-12 04:59:17.52	260.92	9.99	-54.0	-67.2	3.8	8.47e-01	0	23	104	0	73	17183
2026-01-12 04:59:18.53	260.85	9.91	-54.0	-67.2	3.8	8.45e-01	0	23	104	0	73	17252
2026-01-12 04:59:19.54	260.77	9.83	-54.0	-67.2	3.8	8.45e-01	0	23	104	0	73	17255
2026-01-12 04:59:20.55	260.70	9.75	-54.1	-67.2	3.8	8.46e-01	0	23	104	0	73	17254
2026-01-12 04:59:21.55	260.63	9.67	-54.0	-67.2	3.8	8.46e-01	0	23	104	0	73	17220
2026-01-12 04:59:22.56	260.55	9.60	-54.1	-67.2	3.8	8.46e-01	0	23	104	0	73	17214
2026-01-12 04:59:23.57	260.48	9.52	-54.1	-67.2	3.8	8.46e-01	0	23	104	0	73	17198
2026-01-12 04:59:24.58	260.41	9.44	-54.1	-67.2	3.8	8.45e-01	0	23	104	0	73	17252
2026-01-12 04:59:25.59	260.33	9.36	-54.1	-67.2	3.8	8.46e-01	0	23	104	0	73	17267
2026-01-12 04:59:26.60	260.26	9.28	-54.1	-67.2	3.8	8.47e-01	0	23	104	0	73	17278
2026-01-12 04:59:27.61	260.19	9.20	-54.1	-67.2	3.8	8.45e-01	0	23	104	0	73	17246
2026-01-12 04:59:28.62	260.12	9.13	-54.1	-67.2	3.8	8.46e-01	0	23	104	0	73	17273
2026-01-12 04:59:29.63	260.05	9.05	-54.1	-67.2	3.8	8.45e-01	0	23	104	0	73	17275
2026-01-12 04:59:30.63	259.98	8.97	-54.1	-67.3	3.8	8.47e-01	0	23	104	0	73	17328
2026-01-12 04:59:31.64	259.91	8.89	-54.1	-67.2	3.8	8.46e-01	0	23	104	0	73	17277
2026-01-12 04:59:32.65	259.84	8.82	-54.1	-67.3	3.8	8.46e-01	0	24	104	0	73	17362
2026-01-12 04:59:33.66	259.77	8.74	-54.1	-67.2	3.8	8.46e-01	0	23	104	0	73	17261
2026-01-12 04:59:34.67	259.70	8.66	-54.1	-67.3	3.8	8.46e-01	0	23	104	0	73	17332
2026-01-12 04:59:35.68	259.63	8.59	-54.1	-67.3	3.8	8.46e-01	0	23	104	0	73	17310
2026-01-12 04:59:36.69	259.56	8.51	-54.1	-67.3	3.8	8.45e-01	0	23	104	0	73	17291
2026-01-12 04:59:37.70	259.50	8.44	-54.1	-67.3	3.8	8.44e-01	0	23	104	0	73	17309
2026-01-12 04:59:38.71	259.43	8.36	-54.1	-67.3	3.8	8.47e-01	0	23	104	0	73	17322
2026-01-12 04:59:39.72	259.36	8.28	-54.1	-67.2	3.8	8.46e-01	0	23	104	0	73	17278
2026-01-12 04:59:40.73	259.30	8.21	-54.1	-67.2	3.8	8.45e-01	0	23	104	0	73	17239
2026-01-12 04:59:41.74	259.23	8.13	-54.1	-67.2	3.8	8.46e-01	0	23	104	0	73	17223
2026-01-12 04:59:42.74	259.16	8.06	-54.1	-67.3	3.8	8.46e-01	0	23	104	0	73	17301
2026-01-12 04:59:43.75	259.10	7.98	-54.0	-67.2	3.8	8.45e-01	0	23	104	0	73	17259
2026-01-12 04:59:44.76	259.03	7.91	-54.1	-67.3	3.8	8.46e-01	0	23	104	0	73	17291
2026-01-12 04:59:45.77	258.97	7.83	-54.1	-67.2	3.8	8.45e-01	0	23	104	0	73	17257
2026-01-12 04:59:46.78	258.90	7.76	-54.1	-67.2	3.8	8.45e-01	0	23	104	0	73	17238
2026-01-12 04:59:47.79	258.84	7.69	-54.1	-67.3	3.8	8.46e-01	0	23	104	0	73	17295
2026-01-12 04:59:48.80	258.78	7.61	-54.0	-67.2	3.8	8.45e-01	0	23	104	0	73	17255
2026-01-12 04:59:49.81	258.71	7.54	-54.1	-67.3	3.8	8.46e-01	0	23	104	0	73	17321
2026-01-12 04:59:50.82	258.65	7.46	-54.1	-67.3	3.8	8.45e-01	0	23	104	0	73	17297
2026-01-12 04:59:51.83	258.59	7.39	-54.1	-67.2	3.8	8.46e-01	0	23	104	0	73	17263
2026-01-12 04:59:52.84	258.53	7.32	-54.1	-67.3	3.8	8.46e-01	0	23	104	0	73	17300
2026-01-12 04:59:53.85	258.46	7.24	-54.1	-67.2	3.8	8.46e-01	0	23	104	0	73	17228
2026-01-12 04:59:54.86	258.40	7.17	-54.0	-67.2	3.8	8.44e-01	0	23	104	0	73	17245
2026-01-12 04:59:55.87	258.34	7.10	-54.1	-67.3	3.8	8.45e-01	0	23	104	0	73	17308
2026-01-12 04:59:56.88	258.28	7.03	-54.1	-67.3	3.8	8.45e-01	0	23	104	0	73	17283
2026-01-12 04:59:57.89	258.22	6.95	-54.0	-67.3	3.8	8.46e-01	0	24	104	0	73	17324
2026-01-12 04:59:58.90	258.16	6.88	-54.1	-67.3	3.8	8.47e-01	0	23	104	0	73	17282
2026-01-12 04:59:59.91	258.10	6.81	-54.0	-67.2	3.8	8.44e-01	0	23	104	0	73	17254
2026-01-12 05:00:00.92	258.04	6.74	-54.1	-67.3	3.8	8.48e-01	0	23	104	0	73	17309
2026-01-12 05:00:01.92	257.98	6.67	-54.1	-67.2	3.8	8.44e-01	0	23	104	0	73	17241
2026-01-12 05:00:02.93	257.92	6.59	-54.1	-67.3	3.8	8.45e-01	0	23	104	0	73	17303
