passes_logs/2026/01/12/R3.2S_Murmansk/R3.2S_Murmansk__20260112_030726_FENGYUN_3D_rec.log

#Pass ID: 20260112_030726_FENGYUN 3D
#Satellite: FENGYUN 3D
#Configuration: FENGYUN 3D
#almurnet v.1.7.20251203
#Start time: 2026-01-12 03:07:27

#Version: 2.2.20231116
#Station: R3.2S_Murmansk
#Location: 33.079688 lon 68.888172 lat
#TLE: 1 43010U 17072A   26011.62066612  .00000104  00000+0  70810-4 0  9998
#TLE: 2 43010  98.9935 343.3846 0002223 114.2890 245.8518 14.19694405422776

#Time	Az	El	Level	Level2	SNR	BER	BlckErr	Temp	State	Recorded	gain1	gain2
2026-01-12 03:07:27.81	26.57	2.08	-53.7	-67.0	3.8	8.45e-01	0	20	0	0	72	17747
2026-01-12 03:07:28.81	26.57	2.15	-53.7	-67.0	3.8	8.46e-01	0	21	104	0	72	17781
2026-01-12 03:07:29.82	26.56	2.21	-53.7	-67.0	3.8	8.45e-01	0	21	104	0	72	17791
2026-01-12 03:07:30.83	26.56	2.28	-53.7	-67.0	3.8	8.45e-01	0	21	104	0	72	17772
2026-01-12 03:07:31.84	26.55	2.34	-53.7	-67.0	3.8	8.45e-01	0	21	104	0	72	17723
2026-01-12 03:07:32.85	26.55	2.41	-53.8	-67.0	3.8	8.44e-01	0	21	104	0	72	17772
2026-01-12 03:07:33.86	26.54	2.47	-53.8	-67.0	3.8	8.45e-01	0	21	104	0	72	17731
2026-01-12 03:07:34.87	26.54	2.54	-53.8	-67.0	3.8	8.46e-01	0	21	104	0	72	17742
2026-01-12 03:07:35.87	26.53	2.60	-53.8	-67.0	3.8	8.46e-01	0	21	104	0	72	17735
2026-01-12 03:07:36.88	26.52	2.67	-53.8	-67.0	3.8	8.45e-01	0	21	104	0	72	17736
2026-01-12 03:07:37.88	26.52	2.74	-53.8	-67.0	3.8	8.46e-01	0	21	104	0	72	17764
2026-01-12 03:07:38.89	26.51	2.80	-53.8	-67.0	3.8	8.45e-01	0	21	104	0	72	17730
2026-01-12 03:07:39.90	26.51	2.87	-53.8	-67.0	3.8	8.46e-01	0	21	104	0	72	17770
2026-01-12 03:07:40.91	26.50	2.93	-53.8	-67.0	3.8	8.46e-01	0	21	104	0	72	17809
2026-01-12 03:07:41.91	26.50	3.00	-53.8	-67.0	3.8	8.46e-01	0	21	104	0	72	17816
2026-01-12 03:07:42.92	26.49	3.07	-53.8	-67.0	3.8	8.45e-01	0	21	104	0	72	17803
2026-01-12 03:07:43.94	26.48	3.14	-53.8	-67.0	3.8	8.45e-01	0	21	104	0	72	17826
2026-01-12 03:07:44.94	26.48	3.20	-53.8	-67.0	3.8	8.46e-01	0	21	104	0	72	17773
2026-01-12 03:07:45.95	26.47	3.27	-53.8	-67.0	3.8	8.45e-01	0	21	104	0	72	17797
2026-01-12 03:07:46.96	26.47	3.34	-53.8	-67.0	3.8	8.46e-01	0	21	104	0	72	17842
2026-01-12 03:07:47.97	26.46	3.40	-53.8	-67.0	3.8	8.45e-01	0	21	104	0	72	17884
2026-01-12 03:07:48.98	26.45	3.47	-53.8	-67.0	3.8	8.46e-01	0	21	104	0	72	17805
2026-01-12 03:07:49.98	26.45	3.54	-53.8	-67.0	3.8	8.45e-01	0	21	104	0	72	17815
2026-01-12 03:07:50.99	26.44	3.61	-53.8	-67.0	3.8	8.47e-01	0	21	104	0	72	17832
2026-01-12 03:07:52.00	26.44	3.68	-53.8	-67.0	3.8	8.46e-01	0	21	104	0	72	17843
2026-01-12 03:07:53.01	26.43	3.74	-53.8	-67.0	3.8	8.44e-01	0	21	104	0	72	17845
2026-01-12 03:07:54.02	26.42	3.81	-53.8	-67.0	3.8	8.44e-01	0	21	104	0	72	17837
2026-01-12 03:07:55.03	26.42	3.88	-53.8	-67.0	3.8	8.45e-01	0	21	104	0	72	17850
2026-01-12 03:07:56.04	26.41	3.95	-53.8	-67.1	3.8	8.45e-01	0	21	104	0	72	17905
2026-01-12 03:07:57.05	26.40	4.02	-53.8	-67.1	3.8	8.45e-01	0	21	104	0	72	17900
2026-01-12 03:07:58.05	26.40	4.09	-53.8	-67.0	3.8	8.46e-01	0	21	104	0	72	17849
2026-01-12 03:07:59.06	26.39	4.16	-53.8	-67.0	3.8	8.45e-01	0	21	104	0	72	17867
2026-01-12 03:08:00.08	26.38	4.23	-53.8	-67.0	3.8	8.44e-01	0	21	104	0	72	17860
2026-01-12 03:08:01.08	26.38	4.30	-53.8	-67.0	3.8	8.46e-01	0	21	104	0	72	17870
2026-01-12 03:08:02.10	26.37	4.37	-53.8	-67.0	3.8	8.46e-01	0	21	104	0	72	17855
2026-01-12 03:08:03.10	26.36	4.44	-53.8	-67.0	3.8	8.45e-01	0	22	104	0	72	17877
2026-01-12 03:08:04.12	26.36	4.51	-53.8	-67.1	3.8	8.45e-01	0	21	104	0	72	17943
2026-01-12 03:08:05.12	26.35	4.58	-53.8	-67.0	3.8	8.46e-01	0	21	104	0	72	17875
2026-01-12 03:08:06.13	26.34	4.65	-53.8	-67.1	3.9	8.46e-01	0	21	104	0	72	17893
2026-01-12 03:08:07.14	26.34	4.72	-53.8	-67.0	3.8	8.46e-01	0	22	104	0	72	17852
2026-01-12 03:08:08.15	26.33	4.79	-53.8	-67.0	3.8	8.45e-01	0	22	104	0	72	17834
2026-01-12 03:08:09.16	26.32	4.86	-53.8	-67.0	3.8	8.45e-01	0	22	104	0	72	17856
2026-01-12 03:08:10.17	26.31	4.93	-53.8	-67.0	3.8	8.46e-01	0	22	104	0	72	17864
2026-01-12 03:08:11.18	26.31	5.01	-53.8	-67.0	3.8	8.46e-01	0	22	104	0	72	17882
2026-01-12 03:08:12.19	26.30	5.08	-53.8	-67.0	3.8	8.46e-01	0	22	104	0	72	17887
2026-01-12 03:08:13.20	26.29	5.15	-53.8	-67.1	3.8	8.45e-01	0	22	104	0	72	17895
2026-01-12 03:08:14.20	26.29	5.22	-53.8	-67.0	3.8	8.45e-01	0	22	104	0	72	17881
2026-01-12 03:08:15.21	26.28	5.29	-53.8	-67.1	3.8	8.48e-01	0	22	104	0	72	17899
2026-01-12 03:08:16.22	26.27	5.37	-53.8	-67.0	3.8	8.46e-01	0	22	104	0	72	17881
2026-01-12 03:08:17.23	26.26	5.44	-53.8	-67.0	3.8	8.46e-01	0	22	104	0	72	17863
2026-01-12 03:08:18.24	26.25	5.51	-53.8	-67.0	3.8	8.45e-01	0	22	104	0	72	17861
2026-01-12 03:08:19.25	26.25	5.59	-53.8	-67.1	3.8	8.45e-01	0	22	104	0	72	17934
2026-01-12 03:08:20.26	26.24	5.66	-53.8	-67.0	3.8	8.45e-01	0	22	104	0	72	17856
2026-01-12 03:08:21.26	26.23	5.73	-53.8	-67.1	3.8	8.46e-01	0	22	104	0	72	17945
2026-01-12 03:08:22.27	26.22	5.81	-53.8	-67.1	3.8	8.45e-01	0	22	104	0	72	17930
2026-01-12 03:08:23.28	26.22	5.88	-53.8	-67.1	3.8	8.46e-01	0	22	104	0	72	17890
2026-01-12 03:08:24.29	26.21	5.96	-53.9	-67.1	3.8	8.45e-01	0	22	104	0	72	17937
2026-01-12 03:08:25.30	26.20	6.03	-53.8	-67.1	3.8	8.46e-01	0	22	104	0	72	17954
2026-01-12 03:08:26.30	26.19	6.10	-53.8	-67.0	3.8	8.45e-01	0	22	104	0	72	17868
2026-01-12 03:08:27.31	26.18	6.18	-53.8	-67.1	3.8	8.46e-01	0	22	104	0	72	17909
2026-01-12 03:08:28.32	26.17	6.25	-53.8	-67.0	3.8	8.46e-01	0	22	104	0	72	17858
2026-01-12 03:08:29.33	26.17	6.33	-53.9	-67.1	3.8	8.46e-01	0	22	104	0	72	17908
2026-01-12 03:08:30.34	26.16	6.41	-53.9	-67.1	3.8	8.46e-01	0	22	104	0	72	17930
2026-01-12 03:08:31.35	26.15	6.48	-53.8	-67.1	3.8	8.45e-01	0	22	104	0	72	17922
2026-01-12 03:08:32.36	26.14	6.56	-53.9	-67.0	3.8	8.46e-01	0	22	104	0	72	17879
2026-01-12 03:08:33.37	26.13	6.63	-53.9	-67.1	3.8	8.46e-01	0	22	104	0	72	17933
2026-01-12 03:08:34.38	26.12	6.71	-53.9	-67.0	3.8	8.46e-01	0	22	104	0	72	17875
2026-01-12 03:08:35.39	26.11	6.79	-53.8	-67.1	3.8	8.46e-01	0	22	104	0	72	17910
2026-01-12 03:08:36.39	26.11	6.86	-53.8	-67.1	3.8	8.44e-01	0	22	104	0	72	17915
2026-01-12 03:08:37.40	26.10	6.94	-53.8	-67.0	3.8	8.46e-01	0	22	104	0	72	17886
2026-01-12 03:08:38.41	26.09	7.02	-53.9	-67.1	3.8	8.45e-01	0	22	104	0	72	17892
2026-01-12 03:08:39.42	26.08	7.10	-53.8	-67.1	3.8	8.46e-01	0	22	104	0	72	17912
2026-01-12 03:08:40.43	26.07	7.17	-53.9	-67.1	3.8	8.46e-01	0	22	104	0	72	17953
2026-01-12 03:08:41.44	26.06	7.25	-53.9	-67.1	3.8	8.46e-01	0	22	104	0	72	17906
2026-01-12 03:08:42.45	26.05	7.33	-53.9	-67.1	3.8	8.45e-01	0	22	104	0	72	17942
2026-01-12 03:08:43.46	26.04	7.41	-53.9	-67.1	3.8	8.45e-01	0	22	104	0	72	17944
2026-01-12 03:08:44.47	26.03	7.49	-53.9	-67.1	3.8	8.46e-01	0	22	104	0	72	17965
2026-01-12 03:08:45.47	26.02	7.57	-53.9	-67.1	3.8	8.45e-01	0	22	104	0	72	17908
2026-01-12 03:08:46.48	26.01	7.65	-53.9	-67.1	3.8	8.46e-01	0	22	104	0	72	17935
2026-01-12 03:08:47.49	26.00	7.72	-53.9	-67.1	3.8	8.45e-01	0	22	104	0	72	17931
2026-01-12 03:08:48.50	25.99	7.80	-54.0	-67.1	3.8	8.46e-01	0	22	104	0	73	17012
2026-01-12 03:08:49.51	25.98	7.88	-53.9	-67.1	3.8	8.46e-01	0	22	104	0	73	17072
2026-01-12 03:08:50.52	25.97	7.97	-53.9	-67.1	3.8	8.46e-01	0	22	104	0	73	17010
2026-01-12 03:08:51.53	25.96	8.05	-53.9	-67.1	3.8	8.45e-01	0	22	104	0	73	17020
2026-01-12 03:08:52.54	25.95	8.13	-53.9	-67.1	3.8	8.46e-01	0	22	104	0	73	16981
2026-01-12 03:08:53.55	25.94	8.21	-53.9	-67.1	3.8	8.46e-01	0	22	104	0	73	16964
2026-01-12 03:08:54.56	25.93	8.29	-53.9	-67.1	3.8	8.46e-01	0	22	104	0	73	17023
2026-01-12 03:08:55.56	25.92	8.37	-53.9	-67.1	3.8	8.45e-01	0	22	104	0	73	16987
2026-01-12 03:08:56.57	25.91	8.45	-53.9	-67.1	3.8	8.45e-01	0	22	104	0	73	16983
2026-01-12 03:08:57.58	25.90	8.53	-53.9	-67.1	3.8	8.45e-01	0	22	104	0	73	17001
2026-01-12 03:08:58.59	25.89	8.62	-54.0	-67.1	3.8	8.46e-01	0	22	104	0	73	17016
2026-01-12 03:08:59.60	25.88	8.70	-53.9	-67.1	3.8	8.46e-01	0	22	104	0	73	16973
2026-01-12 03:09:00.61	25.87	8.78	-53.9	-67.1	3.8	8.45e-01	0	22	104	0	73	16998
2026-01-12 03:09:01.62	25.86	8.87	-54.0	-67.1	3.8	8.46e-01	0	22	104	0	73	17009
2026-01-12 03:09:02.63	25.85	8.95	-53.9	-67.1	3.8	8.45e-01	0	22	104	0	73	16965
2026-01-12 03:09:03.63	25.84	9.03	-53.9	-67.1	3.8	8.44e-01	0	22	104	0	73	16968
2026-01-12 03:09:04.64	25.83	9.12	-53.9	-67.1	3.8	8.44e-01	0	22	104	0	73	16990
2026-01-12 03:09:05.65	25.82	9.20	-53.9	-67.1	3.8	8.44e-01	0	22	104	0	73	16964
2026-01-12 03:09:06.66	25.81	9.29	-53.9	-67.1	3.8	8.45e-01	0	22	104	0	73	16998
2026-01-12 03:09:07.67	25.79	9.37	-53.9	-67.1	3.8	8.46e-01	0	22	104	0	73	17050
2026-01-12 03:09:08.68	25.78	9.46	-54.0	-67.1	3.8	8.45e-01	0	22	104	0	73	17058
2026-01-12 03:09:09.69	25.77	9.54	-53.9	-67.1	3.8	8.46e-01	0	22	104	0	73	17062
2026-01-12 03:09:10.70	25.76	9.63	-54.0	-67.1	3.8	8.45e-01	0	22	104	0	73	16971
2026-01-12 03:09:11.71	25.75	9.71	-53.9	-67.1	3.8	8.45e-01	0	22	104	0	73	17023
2026-01-12 03:09:12.72	25.74	9.80	-53.9	-67.1	3.8	8.45e-01	0	22	104	0	73	17050
2026-01-12 03:09:13.73	25.72	9.89	-53.9	-67.1	3.8	8.45e-01	0	22	104	0	73	17034
2026-01-12 03:09:14.74	25.71	9.97	-53.9	-67.1	3.8	8.46e-01	0	22	104	0	73	17055
2026-01-12 03:09:15.75	25.70	10.06	-53.9	-67.1	3.8	8.46e-01	0	22	104	0	73	17034
2026-01-12 03:09:16.75	25.69	10.15	-53.9	-67.2	3.8	8.46e-01	0	22	104	0	73	17113
2026-01-12 03:09:17.76	25.68	10.24	-53.9	-67.1	3.8	8.46e-01	0	22	104	0	73	17024
2026-01-12 03:09:18.77	25.66	10.32	-53.9	-67.1	3.8	8.47e-01	0	22	104	0	73	17058
2026-01-12 03:09:19.78	25.65	10.41	-53.9	-67.1	3.8	8.45e-01	0	22	104	0	73	17026
2026-01-12 03:09:20.79	25.64	10.50	-53.9	-67.1	3.8	8.46e-01	0	22	104	0	73	17036
2026-01-12 03:09:21.79	25.63	10.59	-53.9	-67.1	3.8	8.45e-01	0	22	104	0	73	17079
2026-01-12 03:09:22.80	25.61	10.68	-53.9	-67.2	3.8	8.45e-01	0	23	104	0	73	17115
2026-01-12 03:09:23.81	25.60	10.77	-53.9	-67.2	3.8	8.46e-01	0	22	104	0	73	17101
2026-01-12 03:09:24.82	25.59	10.86	-53.9	-67.1	3.8	8.45e-01	0	22	104	0	73	17040
2026-01-12 03:09:25.83	25.57	10.95	-53.9	-67.1	3.8	8.45e-01	0	22	104	0	73	17072
2026-01-12 03:09:26.84	25.56	11.04	-53.9	-67.1	3.8	8.46e-01	0	22	104	0	73	17062
2026-01-12 03:09:27.85	25.55	11.13	-53.9	-67.1	3.8	8.46e-01	0	22	104	0	73	17029
2026-01-12 03:09:28.86	25.53	11.22	-53.9	-67.2	3.8	8.45e-01	0	22	104	0	73	17112
2026-01-12 03:09:29.87	25.52	11.32	-53.9	-67.1	3.8	8.45e-01	0	22	104	0	73	17004
2026-01-12 03:09:30.87	25.51	11.41	-53.9	-67.1	3.8	8.46e-01	0	22	104	0	73	17019
2026-01-12 03:09:31.88	25.49	11.50	-53.8	-67.2	3.8	8.47e-01	0	22	104	0	73	17099
2026-01-12 03:09:32.89	25.48	11.59	-53.9	-67.1	3.8	8.46e-01	0	22	104	0	73	17045
2026-01-12 03:09:33.90	25.47	11.69	-53.9	-67.1	3.8	8.45e-01	0	22	104	0	73	17060
2026-01-12 03:09:34.91	25.45	11.78	-53.9	-67.2	3.8	8.45e-01	0	23	104	0	73	17087
2026-01-12 03:09:35.92	25.44	11.87	-53.9	-67.1	3.8	8.45e-01	0	23	104	0	73	17054
2026-01-12 03:09:36.92	25.42	11.97	-53.9	-67.2	3.8	8.46e-01	0	22	104	0	73	17084
2026-01-12 03:09:37.93	25.41	12.06	-53.9	-67.1	3.8	8.45e-01	0	23	104	0	73	17049
2026-01-12 03:09:38.94	25.39	12.16	-53.9	-67.1	3.8	8.45e-01	0	23	104	0	73	17041
2026-01-12 03:09:39.95	25.38	12.25	-54.0	-67.1	3.8	8.46e-01	0	23	104	0	73	17009
2026-01-12 03:09:40.96	25.36	12.35	-53.9	-67.1	3.8	8.45e-01	0	22	104	0	73	17017
2026-01-12 03:09:41.97	25.35	12.44	-53.9	-67.1	3.8	8.46e-01	0	22	104	0	73	16996
2026-01-12 03:09:42.98	25.33	12.54	-53.9	-67.1	3.8	8.45e-01	0	22	104	0	73	17083
2026-01-12 03:09:43.99	25.32	12.64	-53.9	-67.1	3.8	8.46e-01	0	22	104	0	73	17069
2026-01-12 03:09:44.99	25.30	12.73	-53.9	-67.1	3.8	8.46e-01	0	22	104	0	73	17066
2026-01-12 03:09:46.00	25.29	12.83	-53.9	-67.2	3.8	8.46e-01	0	23	104	0	73	17086
2026-01-12 03:09:47.01	25.27	12.93	-54.0	-67.1	3.8	8.45e-01	0	23	104	0	73	17030
2026-01-12 03:09:48.02	25.26	13.03	-54.0	-67.1	3.8	8.46e-01	0	23	104	0	73	17059
2026-01-12 03:09:49.03	25.24	13.13	-54.0	-67.2	3.8	8.46e-01	0	22	104	0	73	17106
2026-01-12 03:09:50.04	25.23	13.23	-54.0	-67.1	3.8	8.46e-01	0	23	104	0	73	17040
2026-01-12 03:09:51.05	25.21	13.33	-54.0	-67.1	3.8	8.45e-01	0	22	104	0	73	17060
2026-01-12 03:09:52.05	25.19	13.42	-53.9	-67.1	3.8	8.45e-01	0	22	104	0	73	17027
2026-01-12 03:09:53.06	25.18	13.53	-54.0	-67.2	3.8	8.45e-01	0	22	104	0	73	17085
2026-01-12 03:09:54.08	25.16	13.63	-54.0	-67.1	3.8	8.46e-01	0	22	104	0	73	17053
2026-01-12 03:09:55.08	25.14	13.73	-54.0	-67.1	3.8	8.45e-01	0	22	104	0	73	17007
2026-01-12 03:09:56.10	25.13	13.83	-54.0	-67.1	3.8	8.46e-01	0	22	104	0	73	17047
2026-01-12 03:09:57.11	25.11	13.93	-53.9	-67.1	3.8	8.46e-01	0	22	104	0	73	17040
2026-01-12 03:09:58.11	25.09	14.03	-53.9	-67.1	3.8	8.45e-01	0	22	104	0	73	17055
2026-01-12 03:09:59.12	25.08	14.14	-53.9	-67.2	3.8	8.47e-01	0	22	104	0	73	17088
2026-01-12 03:10:00.13	25.06	14.24	-53.9	-67.2	3.8	8.46e-01	0	23	104	0	73	17112
2026-01-12 03:10:01.14	25.04	14.34	-53.9	-67.2	3.8	8.45e-01	0	23	104	0	73	17117
2026-01-12 03:10:02.14	25.02	14.45	-53.9	-67.2	3.8	8.46e-01	0	22	104	0	73	17119
2026-01-12 03:10:03.15	25.01	14.55	-53.9	-67.1	3.8	8.47e-01	0	22	104	0	73	17056
2026-01-12 03:10:04.16	24.99	14.66	-53.9	-67.2	3.8	8.46e-01	0	22	104	0	73	17094
2026-01-12 03:10:05.17	24.97	14.76	-53.9	-67.2	3.8	8.46e-01	0	22	104	0	73	17089
2026-01-12 03:10:06.18	24.95	14.87	-53.9	-67.1	3.8	8.45e-01	0	22	104	0	73	17062
2026-01-12 03:10:07.19	24.93	14.98	-53.9	-67.2	3.8	8.45e-01	0	23	104	0	73	17099
2026-01-12 03:10:08.19	24.91	15.08	-53.9	-67.1	3.8	8.44e-01	0	22	104	0	73	17043
2026-01-12 03:10:09.21	24.89	15.19	-53.9	-67.1	3.8	8.44e-01	0	23	104	0	73	17056
2026-01-12 03:10:10.22	24.88	15.30	-53.9	-67.2	3.8	8.46e-01	0	23	104	0	73	17101
2026-01-12 03:10:11.23	24.86	15.41	-53.9	-67.1	3.8	8.46e-01	0	23	104	0	73	17080
2026-01-12 03:10:12.23	24.84	15.52	-53.9	-67.2	3.8	8.46e-01	0	23	104	0	73	17088
2026-01-12 03:10:13.24	24.82	15.63	-54.0	-67.2	3.8	8.47e-01	0	23	104	0	73	17085
2026-01-12 03:10:14.25	24.80	15.74	-54.0	-67.1	3.8	8.45e-01	0	23	104	0	73	17082
2026-01-12 03:10:15.26	24.78	15.85	-53.9	-67.1	3.8	8.45e-01	0	23	104	0	73	17062
2026-01-12 03:10:16.27	24.76	15.96	-53.9	-67.1	3.8	8.45e-01	0	23	104	0	73	17072
2026-01-12 03:10:17.09	24.74	16.05	-54.0	-67.2	3.8	8.45e-01	0	23	104	0	73	17089
2026-01-12 03:10:18.24	24.72	16.17	-53.9	-67.1	3.8	8.45e-01	0	23	104	0	73	17066
2026-01-12 03:10:19.10	24.70	16.27	-53.9	-67.2	3.8	8.45e-01	0	22	104	0	73	17116
2026-01-12 03:10:20.26	24.68	16.40	-53.9	-67.2	3.8	8.45e-01	0	23	104	0	73	17121
2026-01-12 03:10:21.12	24.66	16.50	-53.9	-67.2	3.8	8.47e-01	0	23	104	0	73	17106
2026-01-12 03:10:22.28	24.64	16.63	-53.9	-67.2	3.8	8.46e-01	0	23	104	0	73	17105
2026-01-12 03:10:23.14	24.62	16.73	-53.9	-67.2	3.8	8.45e-01	0	23	104	0	73	17144
2026-01-12 03:10:24.30	24.59	16.86	-53.9	-67.1	3.8	8.47e-01	0	23	104	0	73	17077
2026-01-12 03:10:25.16	24.57	16.96	-53.9	-67.2	3.8	8.45e-01	0	23	104	0	73	17091
2026-01-12 03:10:26.31	24.55	17.09	-54.0	-67.2	3.8	8.45e-01	0	23	104	0	73	17205
2026-01-12 03:10:27.18	24.53	17.19	-54.0	-67.2	3.8	8.46e-01	0	23	104	0	73	17120
2026-01-12 03:10:28.33	24.50	17.32	-54.0	-67.2	3.8	8.46e-01	0	23	104	0	73	17180
2026-01-12 03:10:29.20	24.49	17.42	-54.0	-67.2	3.8	8.46e-01	0	23	104	0	73	17136
2026-01-12 03:10:30.35	24.46	17.56	-54.0	-67.2	3.8	8.45e-01	0	23	104	0	73	17100
2026-01-12 03:10:31.21	24.44	17.66	-54.0	-67.1	3.8	8.45e-01	0	23	104	0	73	17071
2026-01-12 03:10:32.37	24.41	17.80	-54.0	-67.1	3.8	8.46e-01	0	23	104	0	73	17056
2026-01-12 03:10:33.23	24.39	17.90	-54.0	-67.1	3.8	8.45e-01	0	23	104	0	73	17075
2026-01-12 03:10:34.39	24.37	18.04	-54.0	-67.2	3.8	8.45e-01	0	23	104	0	73	17157
2026-01-12 03:10:35.25	24.35	18.14	-54.0	-67.2	3.8	8.46e-01	0	23	104	0	73	17123
2026-01-12 03:10:36.40	24.32	18.28	-54.0	-67.2	3.8	8.45e-01	0	23	104	0	73	17117
2026-01-12 03:10:37.26	24.30	18.38	-54.0	-67.2	3.8	8.44e-01	0	23	104	0	73	17145
2026-01-12 03:10:38.41	24.27	18.52	-53.9	-67.2	3.8	8.46e-01	0	23	104	0	73	17116
2026-01-12 03:10:39.28	24.25	18.63	-54.0	-67.2	3.8	8.46e-01	0	22	104	0	73	17112
2026-01-12 03:10:40.43	24.22	18.77	-54.0	-67.2	3.8	8.44e-01	0	23	104	0	73	17181
2026-01-12 03:10:41.29	24.20	18.88	-54.0	-67.2	3.8	8.46e-01	0	23	104	0	73	17157
2026-01-12 03:10:42.45	24.17	19.02	-54.0	-67.2	3.8	8.45e-01	0	23	104	0	73	17095
2026-01-12 03:10:43.31	24.15	19.13	-54.0	-67.2	3.8	8.45e-01	0	23	104	0	73	17093
2026-01-12 03:10:44.46	24.12	19.27	-54.0	-67.2	3.8	8.45e-01	0	23	104	0	73	17107
2026-01-12 03:10:45.33	24.10	19.38	-54.0	-67.2	3.8	8.44e-01	0	23	104	0	73	17137
2026-01-12 03:10:46.48	24.07	19.53	-54.0	-67.1	3.8	8.46e-01	0	23	104	0	73	17073
2026-01-12 03:10:47.35	24.04	19.64	-54.0	-67.2	3.8	8.46e-01	0	23	104	0	73	17103
2026-01-12 03:10:48.50	24.01	19.79	-54.0	-67.2	3.8	8.46e-01	0	23	104	0	73	17097
2026-01-12 03:10:49.36	23.99	19.90	-54.0	-67.1	3.8	8.45e-01	0	23	104	0	73	17005
2026-01-12 03:10:50.51	23.96	20.05	-54.0	-67.1	3.8	8.45e-01	0	23	104	0	73	17042
2026-01-12 03:10:51.38	23.93	20.16	-54.0	-67.1	3.8	8.46e-01	0	23	104	0	73	17062
2026-01-12 03:10:52.53	23.90	20.31	-54.0	-67.2	3.8	8.46e-01	0	23	104	0	73	17103
2026-01-12 03:10:53.40	23.88	20.43	-54.0	-67.2	3.8	8.46e-01	0	23	104	0	73	17128
2026-01-12 03:10:54.55	23.84	20.58	-54.0	-67.2	3.8	8.46e-01	0	23	104	0	73	17092
2026-01-12 03:10:55.41	23.82	20.69	-54.0	-67.2	3.8	8.45e-01	0	23	104	0	73	17102
2026-01-12 03:10:56.57	23.79	20.85	-54.0	-67.2	3.8	8.45e-01	0	23	104	0	73	17140
2026-01-12 03:10:57.43	23.76	20.96	-54.0	-67.2	3.8	8.45e-01	0	23	104	0	73	17095
2026-01-12 03:10:58.58	23.73	21.12	-54.0	-67.2	3.8	8.46e-01	0	23	104	0	73	17158
2026-01-12 03:10:59.45	23.70	21.24	-54.0	-67.1	3.8	8.46e-01	0	23	104	0	73	17058
2026-01-12 03:11:00.60	23.67	21.39	-54.0	-67.2	3.8	8.45e-01	0	23	104	0	73	17088
2026-01-12 03:11:01.46	23.64	21.51	-54.0	-67.2	3.8	8.45e-01	0	23	104	0	73	17088
2026-01-12 03:11:02.62	23.60	21.67	-54.0	-67.2	3.8	8.46e-01	0	23	104	0	73	17107
2026-01-12 03:11:03.48	23.58	21.79	-54.0	-67.2	3.8	8.46e-01	0	23	104	0	73	17106
2026-01-12 03:11:04.64	23.54	21.95	-54.0	-67.2	3.8	8.46e-01	0	23	104	0	73	17099
2026-01-12 03:11:05.50	23.51	22.07	-54.0	-67.2	3.8	8.46e-01	0	22	104	0	73	17131
2026-01-12 03:11:06.65	23.48	22.24	-54.0	-67.1	3.8	8.45e-01	0	23	104	0	73	17073
2026-01-12 03:11:07.52	23.45	22.36	-54.0	-67.2	3.8	8.46e-01	0	23	104	0	73	17153
2026-01-12 03:11:08.67	23.41	22.52	-54.0	-67.2	3.8	8.46e-01	0	23	104	0	73	17084
2026-01-12 03:11:09.53	23.38	22.65	-54.0	-67.2	3.8	8.45e-01	0	23	104	0	73	17154
2026-01-12 03:11:10.69	23.34	22.81	-54.0	-67.2	3.8	8.46e-01	0	23	104	0	73	17145
2026-01-12 03:11:11.55	23.32	22.94	-54.0	-67.2	3.8	8.45e-01	0	23	104	0	73	17133
2026-01-12 03:11:12.70	23.28	23.11	-54.0	-67.2	3.8	8.45e-01	0	23	104	0	73	17153
2026-01-12 03:11:13.57	23.25	23.23	-54.0	-67.2	3.8	8.46e-01	0	23	104	0	73	17089
2026-01-12 03:11:14.72	23.21	23.40	-54.0	-67.2	3.8	8.45e-01	0	23	104	0	73	17135
2026-01-12 03:11:15.59	23.18	23.53	-54.0	-67.2	3.8	8.46e-01	0	23	104	0	73	17124
2026-01-12 03:11:16.74	23.14	23.71	-54.0	-67.2	3.8	8.45e-01	0	23	104	0	73	17103
2026-01-12 03:11:17.61	23.10	23.84	-54.0	-67.2	3.8	8.46e-01	0	23	104	0	73	17118
2026-01-12 03:11:18.76	23.06	24.01	-54.0	-67.2	3.8	8.46e-01	0	23	104	0	73	17167
2026-01-12 03:11:19.63	23.03	24.14	-54.0	-67.2	3.8	8.46e-01	0	23	104	0	73	17171
2026-01-12 03:11:20.78	22.99	24.32	-54.0	-67.2	3.8	8.45e-01	0	23	104	0	73	17157
2026-01-12 03:11:21.65	22.96	24.45	-54.0	-67.2	3.8	8.45e-01	0	23	104	0	73	17131
2026-01-12 03:11:22.80	22.91	24.63	-54.0	-67.2	3.8	8.47e-01	0	23	104	0	73	17104
2026-01-12 03:11:23.66	22.88	24.76	-54.0	-67.2	3.8	8.46e-01	0	23	104	0	73	17131
2026-01-12 03:11:24.81	22.83	24.94	-54.0	-67.2	3.8	8.45e-01	0	23	104	0	73	17104
2026-01-12 03:11:25.68	22.80	25.08	-54.0	-67.1	3.8	8.47e-01	0	23	104	0	73	17046
2026-01-12 03:11:26.83	22.75	25.26	-54.0	-67.2	3.8	8.46e-01	0	23	104	0	73	17143
2026-01-12 03:11:27.69	22.72	25.40	-54.0	-67.2	3.8	8.46e-01	0	23	104	0	73	17086
2026-01-12 03:11:28.85	22.67	25.58	-54.0	-67.2	3.8	8.47e-01	0	23	104	0	73	17107
2026-01-12 03:11:29.71	22.64	25.72	-54.0	-67.2	3.8	8.45e-01	0	23	104	0	73	17115
2026-01-12 03:11:30.86	22.59	25.91	-54.0	-67.2	3.8	8.45e-01	0	23	104	0	73	17086
2026-01-12 03:11:31.73	22.55	26.05	-54.0	-67.2	3.8	8.46e-01	0	23	104	0	73	17110
2026-01-12 03:11:32.88	22.50	26.24	-54.0	-67.2	3.8	8.47e-01	0	23	104	0	73	17146
2026-01-12 03:11:33.74	22.47	26.38	-54.0	-67.2	3.8	8.46e-01	0	23	104	0	73	17153
2026-01-12 03:11:34.90	22.42	26.57	-54.0	-67.2	3.8	8.44e-01	0	23	104	0	73	17102
2026-01-12 03:11:35.76	22.38	26.72	-54.0	-67.2	3.8	8.46e-01	0	23	104	0	73	17118
2026-01-12 03:11:36.92	22.33	26.91	-54.0	-67.2	3.8	8.45e-01	0	23	104	0	73	17124
2026-01-12 03:11:37.78	22.29	27.06	-54.0	-67.2	3.8	8.45e-01	0	23	104	0	73	17208
2026-01-12 03:11:38.93	22.24	27.25	-54.0	-67.2	3.8	8.45e-01	0	23	104	0	73	17150
2026-01-12 03:11:39.79	22.20	27.40	-54.0	-67.2	3.8	8.45e-01	0	23	104	0	73	17110
2026-01-12 03:11:40.95	22.14	27.60	-54.0	-67.2	3.8	8.46e-01	0	23	104	0	73	17125
2026-01-12 03:11:41.81	22.10	27.75	-54.0	-67.1	3.8	8.45e-01	0	23	104	0	73	17081
2026-01-12 03:11:42.96	22.05	27.95	-54.0	-67.2	3.8	8.46e-01	0	23	104	0	73	17103
2026-01-12 03:11:43.82	22.01	28.10	-54.0	-67.1	3.8	8.46e-01	0	23	104	0	73	17074
2026-01-12 03:11:44.98	21.95	28.31	-54.0	-67.2	3.8	8.46e-01	0	23	104	0	73	17096
2026-01-12 03:11:45.84	21.91	28.46	-54.0	-67.2	3.8	8.45e-01	0	23	104	0	73	17085
2026-01-12 03:11:46.99	21.85	28.66	-54.0	-67.2	3.8	8.46e-01	0	23	104	0	73	17135
2026-01-12 03:11:47.85	21.81	28.82	-54.0	-67.2	3.8	8.47e-01	0	23	104	0	73	17092
2026-01-12 03:11:49.01	21.75	29.03	-54.0	-67.2	3.8	8.46e-01	0	23	104	0	73	17085
2026-01-12 03:11:49.87	21.70	29.19	-54.0	-67.1	3.8	8.46e-01	0	23	104	0	73	17065
2026-01-12 03:11:51.02	21.64	29.40	-54.0	-67.2	3.8	8.46e-01	0	23	104	0	73	17138
2026-01-12 03:11:51.89	21.60	29.56	-54.0	-67.2	3.8	8.46e-01	0	23	104	0	73	17180
2026-01-12 03:11:53.04	21.54	29.77	-54.0	-67.2	3.8	8.46e-01	0	23	104	0	73	17107
2026-01-12 03:11:53.90	21.49	29.93	-54.0	-67.2	3.8	8.44e-01	0	23	104	0	73	17118
2026-01-12 03:11:55.06	21.42	30.15	-54.0	-67.1	3.8	8.46e-01	0	23	104	0	73	17066
2026-01-12 03:11:55.92	21.38	30.31	-54.0	-67.2	3.8	8.46e-01	0	23	104	0	73	17123
2026-01-12 03:11:57.07	21.31	30.53	-54.0	-67.1	3.8	8.46e-01	0	23	104	0	73	17069
2026-01-12 03:11:57.94	21.26	30.70	-54.0	-67.2	3.8	8.45e-01	0	23	104	0	73	17110
2026-01-12 03:11:59.09	21.19	30.92	-54.0	-67.2	3.8	8.45e-01	0	23	104	0	73	17127
2026-01-12 03:11:59.96	21.14	31.09	-54.0	-67.2	3.8	8.46e-01	0	23	104	0	73	17101
2026-01-12 03:12:01.12	21.07	31.32	-54.0	-67.2	3.8	8.44e-01	0	23	104	0	73	17088
2026-01-12 03:12:01.98	21.02	31.49	-54.0	-67.1	3.8	8.46e-01	0	23	104	0	73	17060
2026-01-12 03:12:03.13	20.95	31.72	-54.0	-67.1	3.8	8.46e-01	0	23	104	0	73	17083
2026-01-12 03:12:04.00	20.90	31.89	-54.0	-67.2	3.8	8.46e-01	0	23	104	0	73	17091
2026-01-12 03:12:05.15	20.83	32.12	-54.0	-67.2	3.8	8.45e-01	0	23	104	0	73	17103
2026-01-12 03:12:06.02	20.77	32.30	-54.0	-67.2	3.8	8.44e-01	0	23	104	0	73	17109
2026-01-12 03:12:07.17	20.70	32.53	-54.0	-67.2	3.8	8.45e-01	0	23	104	0	73	17093
2026-01-12 03:12:08.03	20.64	32.71	-54.0	-67.2	3.8	8.46e-01	0	23	104	0	73	17133
2026-01-12 03:12:09.18	20.56	32.94	-54.0	-67.2	3.8	8.46e-01	0	23	104	0	73	17120
2026-01-12 03:12:10.05	20.51	33.13	-54.0	-67.2	3.8	8.45e-01	0	23	104	0	73	17093
2026-01-12 03:12:11.21	20.43	33.37	-54.0	-67.2	3.8	8.45e-01	0	23	104	0	73	17104
2026-01-12 03:12:12.07	20.37	33.55	-54.0	-67.2	3.8	8.46e-01	0	23	104	0	73	17105
2026-01-12 03:12:13.23	20.29	33.80	-54.0	-67.2	3.8	8.46e-01	0	23	104	0	73	17117
2026-01-12 03:12:14.09	20.23	33.98	-53.9	-67.2	3.8	8.46e-01	0	23	104	0	73	17104
2026-01-12 03:12:15.24	20.14	34.23	-54.0	-67.2	3.8	8.46e-01	0	23	104	0	73	17103
2026-01-12 03:12:16.11	20.08	34.41	-54.0	-67.2	3.8	8.46e-01	0	23	104	0	73	17110
2026-01-12 03:12:17.27	19.99	34.67	-54.0	-67.2	3.8	8.46e-01	0	23	104	0	73	17102
2026-01-12 03:12:18.13	19.93	34.86	-54.0	-67.2	3.8	8.45e-01	0	23	104	0	73	17142
2026-01-12 03:12:19.28	19.84	35.11	-54.0	-67.2	3.8	8.46e-01	0	23	104	0	73	17093
2026-01-12 03:12:20.14	19.77	35.30	-54.0	-67.2	3.8	8.45e-01	0	23	104	0	73	17115
2026-01-12 03:12:21.30	19.68	35.56	-54.0	-67.2	3.8	8.47e-01	0	23	104	0	73	17153
2026-01-12 03:12:22.16	19.62	35.75	-53.9	-67.2	3.8	8.45e-01	0	23	104	0	73	17197
2026-01-12 03:12:23.31	19.52	36.02	-54.0	-67.2	3.8	8.47e-01	0	23	104	0	73	17095
2026-01-12 03:12:24.18	19.45	36.21	-53.9	-67.2	3.8	8.46e-01	0	23	104	0	73	17209
2026-01-12 03:12:25.33	19.36	36.48	-54.0	-67.2	3.8	8.45e-01	0	23	104	0	73	17160
2026-01-12 03:12:26.20	19.28	36.68	-54.0	-67.1	3.8	8.45e-01	0	23	104	0	73	17075
2026-01-12 03:12:27.35	19.18	36.95	-54.0	-67.2	3.8	8.46e-01	0	23	104	0	73	17096
2026-01-12 03:12:28.22	19.11	37.15	-54.0	-67.1	3.8	8.45e-01	0	23	104	0	73	17039
2026-01-12 03:12:29.37	19.01	37.43	-54.0	-67.2	3.8	8.46e-01	0	23	104	0	73	17144
2026-01-12 03:12:30.23	18.93	37.63	-54.0	-67.2	3.8	8.46e-01	0	23	104	0	73	17110
2026-01-12 03:12:31.39	18.82	37.91	-54.0	-67.1	3.8	8.46e-01	0	23	104	0	73	17065
2026-01-12 03:12:32.25	18.74	38.12	-53.9	-67.2	3.8	8.46e-01	0	23	104	0	73	17185
2026-01-12 03:12:33.41	18.64	38.40	-54.0	-67.2	3.8	8.47e-01	0	23	104	0	73	17112
2026-01-12 03:12:34.27	18.55	38.61	-54.0	-67.2	3.8	8.45e-01	0	23	104	0	73	17161
2026-01-12 03:12:35.42	18.44	38.89	-53.9	-67.2	3.8	8.46e-01	0	23	104	0	73	17109
2026-01-12 03:12:36.29	18.36	39.11	-54.0	-67.2	3.8	8.45e-01	0	23	104	0	73	17115
2026-01-12 03:12:37.44	18.24	39.40	-54.0	-67.2	3.8	8.46e-01	0	23	104	0	73	17123
2026-01-12 03:12:38.30	18.15	39.61	-54.0	-67.2	3.8	8.45e-01	0	23	104	0	73	17154
2026-01-12 03:12:39.45	18.03	39.90	-54.0	-67.2	3.8	8.45e-01	0	23	104	0	73	17124
2026-01-12 03:12:40.32	17.94	40.13	-54.0	-67.2	3.8	8.45e-01	0	23	104	0	73	17160
2026-01-12 03:12:41.47	17.82	40.42	-54.0	-67.2	3.8	8.47e-01	0	23	104	0	73	17099
2026-01-12 03:12:42.34	17.73	40.65	-54.0	-67.2	3.8	8.46e-01	0	23	104	0	73	17170
2026-01-12 03:12:43.49	17.60	40.95	-54.0	-67.2	3.8	8.46e-01	0	23	104	0	73	17183
2026-01-12 03:12:44.36	17.50	41.17	-54.0	-67.2	3.8	8.45e-01	0	23	104	0	73	17188
2026-01-12 03:12:45.51	17.37	41.48	-54.0	-67.2	3.8	8.45e-01	0	23	104	0	73	17111
2026-01-12 03:12:46.38	17.27	41.71	-54.0	-67.2	3.8	8.45e-01	0	23	104	0	73	17121
2026-01-12 03:12:47.53	17.13	42.02	-54.0	-67.2	3.8	8.46e-01	0	23	104	0	73	17145
2026-01-12 03:12:48.39	17.03	42.25	-54.0	-67.2	3.8	8.45e-01	0	23	104	0	73	17135
2026-01-12 03:12:49.55	16.89	42.56	-54.0	-67.2	3.8	8.47e-01	0	23	104	0	73	17152
2026-01-12 03:12:50.41	16.78	42.80	-54.0	-67.2	3.8	8.45e-01	0	23	104	0	73	17120
2026-01-12 03:12:51.57	16.63	43.12	-54.0	-67.2	3.8	8.46e-01	0	23	104	0	73	17108
2026-01-12 03:12:52.43	16.52	43.36	-53.9	-67.2	3.8	8.45e-01	0	23	104	0	73	17105
2026-01-12 03:12:53.58	16.37	43.68	-53.9	-67.2	3.8	8.44e-01	0	23	104	0	73	17087
2026-01-12 03:12:54.45	16.25	43.92	-54.0	-67.1	3.8	8.46e-01	0	23	104	0	73	17066
2026-01-12 03:12:55.60	16.10	44.25	-54.0	-67.2	3.8	8.46e-01	0	23	104	0	73	17092
2026-01-12 03:12:56.46	15.98	44.49	-54.0	-67.2	3.8	8.46e-01	0	23	104	0	73	17103
2026-01-12 03:12:57.61	15.81	44.82	-54.0	-67.2	3.8	8.46e-01	0	23	104	0	73	17096
2026-01-12 03:12:58.48	15.69	45.07	-53.9	-67.2	3.8	8.46e-01	0	23	104	0	73	17180
2026-01-12 03:12:59.63	15.52	45.40	-54.0	-67.2	3.8	8.45e-01	0	23	104	0	73	17131
2026-01-12 03:13:00.49	15.39	45.66	-54.0	-67.2	3.8	8.46e-01	0	23	104	0	73	17087
2026-01-12 03:13:01.64	15.21	45.99	-53.9	-67.2	3.8	8.45e-01	0	23	104	0	73	17133
2026-01-12 03:13:02.51	15.08	46.25	-54.0	-67.2	3.8	8.44e-01	0	23	104	0	73	17110
2026-01-12 03:13:03.66	14.90	46.59	-53.9	-67.2	3.8	8.46e-01	0	23	104	0	73	17119
2026-01-12 03:13:04.53	14.76	46.86	-54.0	-67.2	3.8	8.46e-01	0	23	104	0	73	17150
2026-01-12 03:13:05.68	14.57	47.20	-54.0	-67.2	3.8	8.46e-01	0	23	104	0	73	17108
2026-01-12 03:13:06.55	14.42	47.47	-54.0	-67.2	3.8	8.44e-01	0	23	104	0	73	17089
2026-01-12 03:13:07.70	14.22	47.82	-54.0	-67.2	3.8	8.45e-01	0	23	104	0	73	17095
2026-01-12 03:13:08.57	14.07	48.09	-54.0	-67.2	3.8	8.46e-01	0	23	104	0	73	17092
2026-01-12 03:13:09.72	13.86	48.44	-54.0	-67.2	3.8	8.45e-01	0	23	104	0	73	17168
2026-01-12 03:13:10.59	13.70	48.71	-54.0	-67.2	3.8	8.46e-01	0	23	104	0	73	17117
2026-01-12 03:13:11.74	13.49	49.07	-54.0	-67.2	3.8	8.45e-01	0	23	104	0	73	17135
2026-01-12 03:13:12.60	13.33	49.34	-54.0	-67.2	3.8	8.44e-01	0	23	104	0	73	17182
2026-01-12 03:13:13.76	13.10	49.71	-54.0	-67.2	3.8	8.46e-01	0	23	104	0	73	17168
2026-01-12 03:13:14.62	12.93	49.99	-54.0	-67.2	3.8	8.45e-01	0	23	104	0	73	17175
2026-01-12 03:13:15.77	12.69	50.35	-54.0	-67.2	3.8	8.46e-01	0	23	104	0	73	17181
2026-01-12 03:13:16.64	12.51	50.63	-54.0	-67.2	3.8	8.45e-01	0	23	104	0	73	17119
2026-01-12 03:13:17.79	12.27	51.01	-54.0	-67.2	3.8	8.45e-01	0	23	104	0	73	17160
2026-01-12 03:13:18.66	12.08	51.29	-54.0	-67.2	3.8	8.46e-01	0	23	104	0	73	17110
2026-01-12 03:13:19.81	11.82	51.67	-54.0	-67.2	3.8	8.45e-01	0	23	104	0	73	17138
2026-01-12 03:13:20.67	11.63	51.95	-54.0	-67.2	3.8	8.46e-01	0	23	104	0	73	17150
2026-01-12 03:13:21.83	11.36	52.34	-54.0	-67.2	3.8	8.45e-01	0	23	104	0	73	17138
2026-01-12 03:13:22.69	11.15	52.63	-54.0	-67.2	3.8	8.46e-01	0	23	104	0	73	17120
2026-01-12 03:13:23.84	10.87	53.01	-54.0	-67.2	3.8	8.45e-01	0	23	104	0	73	17139
2026-01-12 03:13:24.71	10.66	53.30	-54.0	-67.2	3.8	8.47e-01	0	23	104	0	73	17169
2026-01-12 03:13:25.86	10.36	53.69	-54.0	-67.2	3.8	8.47e-01	0	23	104	0	73	17162
2026-01-12 03:13:26.73	10.14	53.99	-54.0	-67.2	3.8	8.44e-01	0	23	104	0	73	17150
2026-01-12 03:13:27.88	9.83	54.38	-54.0	-67.2	3.8	8.45e-01	0	23	104	0	73	17149
2026-01-12 03:13:28.74	9.59	54.68	-54.0	-67.2	3.8	8.46e-01	0	23	104	0	73	17095
2026-01-12 03:13:29.90	9.27	55.08	-54.0	-67.2	3.8	8.45e-01	0	23	104	0	73	17097
2026-01-12 03:13:30.77	9.01	55.38	-54.0	-67.2	3.8	8.47e-01	0	23	104	0	73	17151
2026-01-12 03:13:31.92	8.67	55.78	-54.0	-67.2	3.8	8.45e-01	0	23	104	0	73	17131
2026-01-12 03:13:32.78	8.41	56.08	-54.0	-67.2	3.8	8.44e-01	0	23	104	0	73	17129
2026-01-12 03:13:33.94	8.05	56.49	-54.0	-67.2	3.8	8.45e-01	0	23	104	0	73	17206
2026-01-12 03:13:34.80	7.78	56.79	-54.0	-67.2	3.8	8.46e-01	0	23	104	0	73	17155
2026-01-12 03:13:35.95	7.40	57.20	-54.0	-67.2	3.8	8.46e-01	0	23	104	0	73	17184
2026-01-12 03:13:36.82	7.10	57.51	-54.0	-67.2	3.8	8.46e-01	0	23	104	0	73	17107
2026-01-12 03:13:37.97	6.71	57.92	-54.0	-67.2	3.8	8.46e-01	0	23	104	0	73	17155
2026-01-12 03:13:38.84	6.40	58.23	-54.0	-67.2	3.8	8.46e-01	0	23	104	0	73	17183
2026-01-12 03:13:39.99	5.98	58.65	-54.0	-67.2	3.8	8.45e-01	0	23	104	0	73	17174
2026-01-12 03:13:40.85	5.65	58.96	-54.0	-67.2	3.8	8.44e-01	0	23	104	0	73	17126
2026-01-12 03:13:42.00	5.21	59.37	-54.0	-67.2	3.8	8.46e-01	0	23	104	0	73	17109
2026-01-12 03:13:42.87	4.86	59.69	-54.0	-67.2	3.8	8.45e-01	0	23	104	0	73	17197
2026-01-12 03:13:44.02	4.39	60.10	-54.0	-67.2	3.8	8.46e-01	0	23	104	0	73	17164
2026-01-12 03:13:44.89	4.03	60.42	-54.0	-67.2	3.8	8.45e-01	0	23	104	0	73	17127
2026-01-12 03:13:46.04	3.53	60.84	-54.0	-67.2	3.8	8.45e-01	0	23	104	0	73	17095
2026-01-12 03:13:46.91	3.14	61.15	-54.0	-67.2	3.8	8.45e-01	0	23	104	0	73	17106
2026-01-12 03:13:48.06	2.61	61.57	-54.0	-67.2	3.8	8.47e-01	0	23	104	0	73	17105
2026-01-12 03:13:48.93	2.20	61.89	-54.0	-67.2	3.8	8.46e-01	0	23	104	0	73	17155
2026-01-12 03:13:50.08	1.64	62.31	-54.0	-67.2	3.8	8.45e-01	0	23	104	0	73	17143
2026-01-12 03:13:50.94	1.20	62.63	-54.0	-67.2	3.8	8.46e-01	0	23	104	0	73	17155
2026-01-12 03:13:52.10	0.60	63.05	-54.0	-67.2	3.8	8.46e-01	0	23	104	0	73	17132
2026-01-12 03:13:52.97	0.13	63.37	-54.0	-67.2	3.8	8.45e-01	0	23	104	0	73	17115
2026-01-12 03:13:54.12	359.50	63.79	-54.0	-67.2	3.8	8.46e-01	0	23	104	0	73	17126
2026-01-12 03:13:54.98	359.01	64.10	-54.0	-67.2	3.8	8.47e-01	0	23	104	0	73	17114
2026-01-12 03:13:56.14	358.32	64.53	-54.0	-67.2	3.8	8.45e-01	0	23	104	0	73	17155
2026-01-12 03:13:57.00	357.80	64.84	-54.0	-67.2	3.8	8.45e-01	0	23	104	0	73	17177
2026-01-12 03:13:58.16	357.07	65.26	-54.0	-67.2	3.8	8.46e-01	0	23	104	0	73	17195
2026-01-12 03:13:59.02	356.51	65.57	-54.0	-67.2	3.8	8.46e-01	0	23	104	0	73	17109
2026-01-12 03:14:00.18	355.73	65.99	-54.0	-67.2	3.8	8.47e-01	0	23	104	0	73	17196
2026-01-12 03:14:01.04	355.13	66.30	-54.0	-67.2	3.8	8.47e-01	0	23	104	0	73	17136
2026-01-12 03:14:02.19	354.30	66.71	-54.0	-67.2	3.8	8.47e-01	0	23	104	0	73	17157
2026-01-12 03:14:03.06	353.65	67.02	-54.0	-67.2	3.8	8.45e-01	0	23	104	0	73	17149
2026-01-12 03:14:04.21	352.77	67.42	-54.0	-67.2	3.8	8.46e-01	0	23	104	0	73	17198
2026-01-12 03:14:05.08	352.08	67.73	-54.0	-67.2	3.8	8.46e-01	0	23	104	0	73	17121
2026-01-12 03:14:06.23	351.13	68.13	-54.0	-67.2	3.8	8.44e-01	0	23	104	0	73	17127
2026-01-12 03:14:07.10	350.38	68.43	-54.0	-67.2	3.8	8.46e-01	0	23	104	0	73	17213
2026-01-12 03:14:08.25	349.37	68.82	-54.0	-67.2	3.8	8.46e-01	0	23	104	0	73	17137
2026-01-12 03:14:09.12	348.57	69.11	-54.0	-67.2	3.8	8.47e-01	0	23	104	0	73	17132
2026-01-12 03:14:10.27	347.48	69.50	-54.0	-67.2	3.8	8.45e-01	0	23	104	0	73	17139
2026-01-12 03:14:11.13	346.63	69.78	-54.0	-67.2	3.8	8.45e-01	0	23	104	0	73	17091
2026-01-12 03:14:12.29	345.45	70.16	-54.0	-67.2	3.8	8.46e-01	0	23	104	0	73	17085
2026-01-12 03:14:13.15	344.54	70.43	-54.0	-67.2	3.8	8.46e-01	0	23	104	0	73	17109
2026-01-12 03:14:14.31	343.28	70.80	-54.0	-67.2	3.8	8.46e-01	0	23	104	0	73	17096
2026-01-12 03:14:15.17	342.30	71.06	-54.0	-67.2	3.8	8.45e-01	0	23	104	0	73	17143
2026-01-12 03:14:16.33	340.94	71.41	-54.0	-67.2	3.8	8.46e-01	0	23	104	0	73	17167
2026-01-12 03:14:17.19	339.90	71.67	-54.0	-67.2	3.8	8.46e-01	0	23	104	0	73	17161
2026-01-12 03:14:18.35	338.45	72.00	-54.0	-67.2	3.8	8.45e-01	0	23	104	0	73	17099
2026-01-12 03:14:19.21	337.33	72.24	-54.0	-67.2	3.8	8.45e-01	0	23	104	0	73	17157
2026-01-12 03:14:20.36	335.79	72.55	-54.0	-67.2	3.8	8.46e-01	0	23	104	0	73	17154
2026-01-12 03:14:21.22	334.60	72.78	-54.0	-67.2	3.8	8.46e-01	0	23	104	0	73	17169
2026-01-12 03:14:22.38	332.94	73.07	-54.0	-67.2	3.8	8.46e-01	0	23	104	0	73	17138
2026-01-12 03:14:23.24	331.67	73.28	-54.0	-67.2	3.8	8.45e-01	0	23	104	0	73	17135
2026-01-12 03:14:24.39	329.92	73.55	-54.0	-67.2	3.8	8.45e-01	0	23	104	0	73	17187
2026-01-12 03:14:25.26	328.56	73.74	-54.0	-67.2	3.8	8.45e-01	0	23	104	0	73	17125
2026-01-12 03:14:26.40	326.72	73.98	-54.0	-67.2	3.8	8.46e-01	0	23	104	0	73	17165
2026-01-12 03:14:27.27	325.28	74.15	-54.0	-67.2	3.8	8.45e-01	0	23	104	0	73	17164
2026-01-12 03:14:28.42	323.33	74.37	-54.0	-67.2	3.8	8.46e-01	0	23	104	0	73	17212
2026-01-12 03:14:29.29	321.82	74.52	-54.0	-67.2	3.8	8.45e-01	0	23	104	0	73	17136
2026-01-12 03:14:30.44	319.78	74.70	-54.0	-67.2	3.8	8.45e-01	0	23	104	0	73	17136
2026-01-12 03:14:31.31	318.20	74.82	-54.0	-67.2	3.8	8.47e-01	0	23	104	0	73	17092
2026-01-12 03:14:32.45	316.09	74.97	-54.0	-67.2	3.8	8.44e-01	0	23	104	0	73	17188
2026-01-12 03:14:33.32	314.46	75.07	-54.0	-67.2	3.8	8.46e-01	0	23	104	0	73	17132
2026-01-12 03:14:34.47	312.26	75.18	-54.0	-67.2	3.8	8.46e-01	0	23	104	0	73	17161
2026-01-12 03:14:35.34	310.58	75.25	-54.0	-67.2	3.8	8.46e-01	0	23	104	0	73	17167
2026-01-12 03:14:36.49	308.33	75.32	-54.0	-67.2	3.8	8.45e-01	0	23	104	0	73	17155
2026-01-12 03:14:37.35	306.64	75.36	-54.0	-67.2	3.8	8.45e-01	0	23	104	0	73	17171
2026-01-12 03:14:38.51	304.35	75.40	-54.0	-67.2	3.8	8.45e-01	0	23	104	0	73	17156
2026-01-12 03:14:39.37	302.64	75.41	-54.0	-67.2	3.8	8.45e-01	0	23	104	0	73	17153
2026-01-12 03:14:40.52	300.35	75.40	-54.0	-67.2	3.8	8.45e-01	0	23	104	0	73	17136
2026-01-12 03:14:41.38	298.65	75.39	-54.0	-67.2	3.8	8.45e-01	0	23	104	0	73	17187
2026-01-12 03:14:42.54	296.36	75.34	-54.0	-67.2	3.8	8.45e-01	0	23	104	0	73	17183
2026-01-12 03:14:43.40	294.67	75.30	-54.0	-67.2	3.8	8.46e-01	0	23	104	0	73	17152
2026-01-12 03:14:44.55	292.43	75.21	-54.0	-67.2	3.8	8.45e-01	0	23	104	0	73	17152
2026-01-12 03:14:45.42	290.76	75.14	-54.0	-67.2	3.8	8.44e-01	0	23	104	0	73	17117
2026-01-12 03:14:46.57	288.58	75.02	-54.0	-67.2	3.8	8.45e-01	0	23	104	0	73	17138
2026-01-12 03:14:47.43	286.97	74.92	-54.0	-67.2	3.8	8.46e-01	0	23	104	0	73	17147
2026-01-12 03:14:48.59	284.84	74.76	-54.0	-67.2	3.8	8.46e-01	0	23	104	0	73	17124
2026-01-12 03:14:49.45	283.29	74.63	-54.0	-67.2	3.8	8.45e-01	0	23	104	0	73	17151
2026-01-12 03:14:50.60	281.27	74.44	-54.0	-67.2	3.8	8.46e-01	0	23	104	0	73	17111
2026-01-12 03:14:51.47	279.77	74.29	-54.0	-67.2	3.8	8.47e-01	0	23	104	0	73	17124
2026-01-12 03:14:52.62	277.84	74.07	-54.0	-67.2	3.8	8.45e-01	0	23	104	0	73	17165
2026-01-12 03:14:53.49	276.41	73.89	-54.0	-67.2	3.8	8.46e-01	0	23	104	0	73	17140
2026-01-12 03:14:54.64	274.58	73.65	-54.0	-67.2	3.8	8.45e-01	0	23	104	0	73	17146
2026-01-12 03:14:55.51	273.24	73.45	-54.0	-67.2	3.8	8.45e-01	0	23	104	0	73	17135
2026-01-12 03:14:56.65	271.52	73.18	-54.0	-67.2	3.8	8.45e-01	0	23	104	0	73	17147
2026-01-12 03:14:57.52	270.26	72.96	-54.0	-67.2	3.8	8.46e-01	0	23	104	0	73	17096
2026-01-12 03:14:58.67	268.63	72.67	-54.0	-67.2	3.8	8.46e-01	0	23	104	0	73	17164
2026-01-12 03:14:59.54	267.44	72.44	-54.0	-67.2	3.8	8.46e-01	0	23	104	0	73	17137
2026-01-12 03:15:00.69	265.92	72.12	-54.0	-67.2	3.8	8.45e-01	0	23	104	0	73	17162
2026-01-12 03:15:01.55	264.82	71.87	-54.0	-67.2	3.8	8.45e-01	0	23	104	0	73	17176
2026-01-12 03:15:02.71	263.38	71.54	-54.0	-67.2	3.8	8.47e-01	0	23	104	0	73	17167
2026-01-12 03:15:03.57	262.36	71.28	-54.0	-67.2	3.8	8.46e-01	0	23	104	0	73	17189
2026-01-12 03:15:04.72	261.03	70.93	-54.0	-67.2	3.8	8.45e-01	0	23	104	0	73	17192
2026-01-12 03:15:05.59	260.06	70.66	-54.0	-67.2	3.8	8.45e-01	0	23	104	0	73	17188
2026-01-12 03:15:06.74	258.82	70.29	-54.0	-67.2	3.8	8.45e-01	0	23	104	0	73	17188
2026-01-12 03:15:07.61	257.91	70.01	-54.0	-67.2	3.8	8.46e-01	0	23	104	0	73	17116
2026-01-12 03:15:08.76	256.76	69.64	-54.0	-67.2	3.8	8.46e-01	0	23	104	0	73	17155
2026-01-12 03:15:09.63	255.92	69.35	-54.0	-67.2	3.8	8.45e-01	0	23	104	0	73	17138
2026-01-12 03:15:10.78	254.84	68.96	-54.0	-67.2	3.8	8.46e-01	0	23	104	0	73	17247
2026-01-12 03:15:11.65	254.05	68.67	-54.0	-67.2	3.8	8.46e-01	0	23	104	0	73	17193
2026-01-12 03:15:12.80	253.05	68.27	-54.0	-67.2	3.8	8.47e-01	0	23	104	0	73	17163
2026-01-12 03:15:13.66	252.33	67.97	-54.0	-67.2	3.8	8.44e-01	0	23	104	0	73	17170
2026-01-12 03:15:14.82	251.38	67.57	-54.0	-67.2	3.8	8.46e-01	0	23	104	0	73	17195
2026-01-12 03:15:15.68	250.71	67.27	-54.0	-67.2	3.8	8.46e-01	0	23	104	0	73	17190
2026-01-12 03:15:16.83	249.83	66.86	-54.0	-67.2	3.8	8.45e-01	0	23	104	0	73	17165
2026-01-12 03:15:17.70	249.19	66.55	-54.0	-67.2	3.8	8.45e-01	0	23	104	0	73	17204
2026-01-12 03:15:18.85	248.38	66.14	-54.0	-67.2	3.8	8.45e-01	0	23	104	0	73	17163
2026-01-12 03:15:19.72	247.78	65.82	-54.0	-67.2	3.8	8.44e-01	0	23	104	0	73	17220
2026-01-12 03:15:20.87	247.02	65.41	-54.0	-67.2	3.8	8.45e-01	0	23	104	0	73	17164
2026-01-12 03:15:21.73	246.47	65.10	-54.0	-67.2	3.8	8.46e-01	0	23	104	0	73	17164
2026-01-12 03:15:22.89	245.74	64.67	-54.0	-67.2	3.8	8.45e-01	0	23	104	0	73	17164
2026-01-12 03:15:23.75	245.23	64.36	-54.0	-67.2	3.8	8.46e-01	0	23	104	0	73	17161
2026-01-12 03:15:24.90	244.56	63.94	-54.0	-67.2	3.8	8.45e-01	0	23	104	0	73	17174
2026-01-12 03:15:25.76	244.07	63.63	-54.0	-67.2	3.8	8.45e-01	0	23	104	0	73	17150
2026-01-12 03:15:26.91	243.44	63.20	-54.0	-67.2	3.8	8.45e-01	0	23	104	0	73	17183
2026-01-12 03:15:27.78	242.98	62.89	-54.0	-67.2	3.8	8.45e-01	0	23	104	0	73	17150
2026-01-12 03:15:28.93	242.39	62.46	-54.0	-67.2	3.8	8.46e-01	0	23	104	0	73	17183
2026-01-12 03:15:29.80	241.96	62.14	-54.0	-67.2	3.8	8.45e-01	0	23	104	0	73	17150
2026-01-12 03:15:30.95	241.40	61.72	-54.0	-67.2	3.8	8.46e-01	0	23	104	0	73	17195
2026-01-12 03:15:31.81	241.00	61.41	-54.0	-67.2	3.8	8.46e-01	0	23	104	0	73	17198
2026-01-12 03:15:32.97	240.47	60.98	-54.0	-67.2	3.8	8.45e-01	0	23	104	0	73	17237
2026-01-12 03:15:33.84	240.09	60.67	-54.0	-67.2	3.8	8.46e-01	0	23	104	0	73	17212
2026-01-12 03:15:34.99	239.60	60.25	-54.0	-67.2	3.8	8.45e-01	0	23	104	0	73	17204
2026-01-12 03:15:35.85	239.24	59.93	-54.0	-67.2	3.8	8.46e-01	0	23	104	0	73	17170
2026-01-12 03:15:37.01	238.77	59.51	-54.0	-67.2	3.8	8.46e-01	0	23	104	0	73	17233
2026-01-12 03:15:37.86	238.43	59.20	-54.0	-67.2	3.8	8.46e-01	0	23	104	0	73	17189
2026-01-12 03:15:39.02	237.99	58.79	-54.0	-67.2	3.8	8.46e-01	0	23	104	0	73	17219
2026-01-12 03:15:39.88	237.67	58.48	-54.0	-67.2	3.8	8.46e-01	0	23	104	0	73	17165
2026-01-12 03:15:41.04	237.25	58.06	-54.0	-67.2	3.8	8.45e-01	0	23	104	0	73	17165
2026-01-12 03:15:41.90	236.95	57.75	-54.0	-67.2	3.8	8.46e-01	0	23	104	0	73	17115
2026-01-12 03:15:43.05	236.55	57.34	-54.0	-67.2	3.8	8.46e-01	0	23	104	0	73	17165
2026-01-12 03:15:43.92	236.26	57.03	-54.0	-67.2	3.8	8.45e-01	0	23	104	0	73	17133
2026-01-12 03:15:45.07	235.89	56.62	-54.0	-67.2	3.8	8.46e-01	0	23	104	0	73	17168
2026-01-12 03:15:45.94	235.61	56.32	-54.0	-67.2	3.8	8.45e-01	0	23	104	0	73	17152
2026-01-12 03:15:47.08	235.26	55.91	-54.0	-67.2	3.8	8.46e-01	0	23	104	0	73	17149
2026-01-12 03:15:47.95	235.00	55.61	-54.0	-67.2	3.8	8.47e-01	0	23	104	0	73	17163
2026-01-12 03:15:49.10	234.66	55.21	-54.0	-67.2	3.8	8.45e-01	0	23	104	0	73	17142
2026-01-12 03:15:49.97	234.41	54.91	-54.0	-67.2	3.8	8.46e-01	0	23	104	0	73	17127
2026-01-12 03:15:51.12	234.09	54.51	-54.0	-67.2	3.8	8.46e-01	0	23	104	0	73	17174
2026-01-12 03:15:51.98	233.86	54.21	-54.0	-67.2	3.8	8.46e-01	0	23	104	0	73	17141
2026-01-12 03:15:53.14	233.55	53.82	-54.0	-67.2	3.8	8.46e-01	0	23	104	0	73	17120
2026-01-12 03:15:54.00	233.33	53.52	-54.0	-67.2	3.8	8.46e-01	0	23	104	0	73	17176
2026-01-12 03:15:55.16	233.03	53.13	-54.0	-67.2	3.8	8.45e-01	0	23	104	0	73	17191
2026-01-12 03:15:56.02	232.82	52.84	-54.0	-67.2	3.8	8.45e-01	0	23	104	0	73	17233
2026-01-12 03:15:57.17	232.54	52.45	-54.0	-67.2	3.8	8.45e-01	0	23	104	0	73	17182
2026-01-12 03:15:58.04	232.34	52.16	-54.0	-67.2	3.8	8.45e-01	0	23	104	0	73	17137
2026-01-12 03:15:59.19	232.07	51.78	-54.0	-67.2	3.8	8.45e-01	0	23	104	0	73	17195
2026-01-12 03:16:00.06	231.87	51.50	-54.0	-67.1	3.8	8.45e-01	0	23	104	0	73	17077
2026-01-12 03:16:01.21	231.62	51.12	-54.0	-67.2	3.8	8.46e-01	0	23	104	0	73	17187
2026-01-12 03:16:02.07	231.44	50.84	-54.0	-67.2	3.8	8.45e-01	0	23	104	0	73	17168
2026-01-12 03:16:03.23	231.19	50.46	-54.0	-67.2	3.8	8.46e-01	0	23	104	0	73	17237
2026-01-12 03:16:04.09	231.01	50.18	-54.0	-67.2	3.8	8.46e-01	0	23	104	0	73	17153
2026-01-12 03:16:05.25	230.78	49.81	-54.0	-67.2	3.8	8.46e-01	0	23	104	0	73	17160
2026-01-12 03:16:06.11	230.61	49.54	-54.0	-67.2	3.8	8.45e-01	0	23	104	0	73	17235
2026-01-12 03:16:07.26	230.39	49.17	-54.0	-67.2	3.8	8.45e-01	0	23	104	0	73	17147
2026-01-12 03:16:08.13	230.22	48.90	-54.0	-67.2	3.8	8.46e-01	0	23	104	0	73	17190
2026-01-12 03:16:09.28	230.01	48.54	-54.0	-67.2	3.8	8.45e-01	0	23	104	0	73	17180
2026-01-12 03:16:10.14	229.85	48.27	-54.0	-67.2	3.8	8.45e-01	0	23	104	0	73	17140
2026-01-12 03:16:11.30	229.65	47.91	-54.0	-67.2	3.8	8.45e-01	0	23	104	0	73	17177
2026-01-12 03:16:12.16	229.50	47.65	-54.0	-67.2	3.8	8.46e-01	0	23	104	0	73	17157
2026-01-12 03:16:13.31	229.30	47.29	-54.0	-67.2	3.8	8.46e-01	0	23	104	0	73	17169
2026-01-12 03:16:14.18	229.15	47.03	-54.0	-67.2	3.8	8.46e-01	0	23	104	0	73	17178
2026-01-12 03:16:15.33	228.97	46.68	-54.0	-67.2	3.8	8.46e-01	0	23	104	0	73	17134
2026-01-12 03:16:16.20	228.83	46.42	-54.0	-67.2	3.8	8.44e-01	0	23	104	0	73	17179
2026-01-12 03:16:17.35	228.64	46.08	-54.0	-67.2	3.8	8.46e-01	0	23	104	0	73	17189
2026-01-12 03:16:18.21	228.51	45.83	-54.0	-67.2	3.8	8.46e-01	0	23	104	0	73	17200
2026-01-12 03:16:19.37	228.34	45.48	-54.0	-67.2	3.8	8.45e-01	0	23	104	0	73	17114
2026-01-12 03:16:20.24	228.21	45.23	-54.0	-67.2	3.8	8.46e-01	0	23	104	0	73	17159
2026-01-12 03:16:21.39	228.04	44.90	-54.0	-67.2	3.8	8.45e-01	0	23	104	0	73	17141
2026-01-12 03:16:22.25	227.91	44.65	-54.0	-67.1	3.8	8.45e-01	0	23	104	0	73	17083
2026-01-12 03:16:23.40	227.75	44.32	-54.0	-67.2	3.8	8.46e-01	0	23	104	0	73	17157
2026-01-12 03:16:24.27	227.63	44.07	-54.0	-67.2	3.8	8.46e-01	0	23	104	0	73	17170
2026-01-12 03:16:25.42	227.48	43.75	-54.0	-67.2	3.8	8.46e-01	0	23	104	0	73	17171
2026-01-12 03:16:26.27	227.36	43.51	-54.0	-67.2	3.8	8.46e-01	0	23	104	0	73	17175
2026-01-12 03:16:27.43	227.21	43.18	-54.0	-67.2	3.8	8.45e-01	0	23	104	0	73	17147
2026-01-12 03:16:28.29	227.10	42.95	-54.0	-67.2	3.8	8.45e-01	0	23	104	0	73	17161
2026-01-12 03:16:29.44	226.96	42.63	-54.0	-67.2	3.8	8.46e-01	0	23	104	0	73	17124
2026-01-12 03:16:30.31	226.85	42.39	-54.0	-67.2	3.8	8.45e-01	0	23	104	0	73	17157
2026-01-12 03:16:31.46	226.71	42.08	-54.0	-67.2	3.8	8.46e-01	0	23	104	0	73	17211
2026-01-12 03:16:32.32	226.60	41.85	-54.0	-67.2	3.8	8.46e-01	0	23	104	0	73	17198
2026-01-12 03:16:33.48	226.47	41.54	-54.0	-67.2	3.8	8.46e-01	0	23	104	0	73	17175
2026-01-12 03:16:34.34	226.37	41.31	-54.0	-67.2	3.8	8.46e-01	0	23	104	0	73	17199
2026-01-12 03:16:35.50	226.24	41.00	-54.0	-67.2	3.8	8.46e-01	0	23	104	0	73	17156
2026-01-12 03:16:36.36	226.14	40.78	-54.0	-67.2	3.8	8.45e-01	0	23	104	0	73	17159
2026-01-12 03:16:37.51	226.01	40.48	-54.0	-67.2	3.8	8.46e-01	0	23	104	0	73	17136
2026-01-12 03:16:38.38	225.92	40.25	-54.0	-67.2	3.8	8.47e-01	0	23	104	0	73	17181
2026-01-12 03:16:39.54	225.80	39.95	-54.0	-67.2	3.8	8.46e-01	0	23	104	0	73	17165
2026-01-12 03:16:40.40	225.71	39.74	-54.0	-67.2	3.8	8.46e-01	0	23	104	0	73	17187
2026-01-12 03:16:41.55	225.59	39.44	-54.0	-67.2	3.8	8.46e-01	0	23	104	0	73	17179
2026-01-12 03:16:42.41	225.50	39.23	-54.0	-67.2	3.8	8.46e-01	0	23	104	0	73	17183
2026-01-12 03:16:43.56	225.39	38.94	-54.0	-67.2	3.8	8.46e-01	0	23	104	0	73	17176
2026-01-12 03:16:44.42	225.30	38.73	-54.0	-67.2	3.8	8.46e-01	0	23	104	0	73	17165
2026-01-12 03:16:45.58	225.19	38.44	-54.0	-67.2	3.8	8.46e-01	0	23	104	0	73	17192
2026-01-12 03:16:46.44	225.11	38.23	-54.0	-67.2	3.8	8.45e-01	0	23	104	0	73	17194
2026-01-12 03:16:47.60	225.00	37.95	-54.0	-67.2	3.8	8.46e-01	0	23	104	0	73	17161
2026-01-12 03:16:48.46	224.92	37.74	-54.0	-67.2	3.8	8.46e-01	0	23	104	0	73	17109
2026-01-12 03:16:49.61	224.81	37.46	-54.0	-67.2	3.8	8.44e-01	0	23	104	0	73	17140
2026-01-12 03:16:50.47	224.74	37.26	-54.0	-67.2	3.8	8.46e-01	0	23	104	0	73	17158
2026-01-12 03:16:51.63	224.64	36.99	-54.0	-67.2	3.8	8.46e-01	0	23	104	0	73	17192
2026-01-12 03:16:52.49	224.56	36.78	-54.0	-67.2	3.8	8.46e-01	0	23	104	0	73	17229
2026-01-12 03:16:53.65	224.46	36.51	-54.0	-67.2	3.8	8.46e-01	0	23	104	0	73	17154
2026-01-12 03:16:54.51	224.39	36.31	-54.0	-67.2	3.8	8.45e-01	0	23	104	0	73	17181
2026-01-12 03:16:55.67	224.29	36.05	-54.0	-67.2	3.8	8.46e-01	0	23	104	0	73	17143
2026-01-12 03:16:56.53	224.22	35.85	-54.0	-67.2	3.8	8.46e-01	0	23	104	0	73	17148
2026-01-12 03:16:57.68	224.13	35.59	-54.0	-67.2	3.8	8.45e-01	0	23	104	0	73	17196
2026-01-12 03:16:58.55	224.06	35.39	-54.0	-67.2	3.8	8.45e-01	0	23	104	0	73	17213
2026-01-12 03:16:59.70	223.97	35.14	-54.0	-67.2	3.8	8.44e-01	0	23	104	0	73	17113
2026-01-12 03:17:00.57	223.90	34.94	-54.0	-67.2	3.8	8.46e-01	0	23	104	0	73	17205
2026-01-12 03:17:01.72	223.82	34.69	-54.0	-67.2	3.8	8.44e-01	0	23	104	0	73	17154
2026-01-12 03:17:02.58	223.75	34.50	-54.0	-67.2	3.8	8.45e-01	0	23	104	0	73	17147
2026-01-12 03:17:03.74	223.67	34.25	-53.9	-67.2	3.8	8.47e-01	0	23	104	0	73	17161
2026-01-12 03:17:04.60	223.60	34.06	-53.9	-67.2	3.8	8.46e-01	0	23	104	0	73	17151
2026-01-12 03:17:05.76	223.52	33.81	-53.9	-67.2	3.8	8.46e-01	0	23	104	0	73	17159
2026-01-12 03:17:06.62	223.46	33.63	-53.9	-67.2	3.8	8.46e-01	0	23	104	0	73	17114
2026-01-12 03:17:07.77	223.38	33.38	-53.9	-67.2	3.8	8.47e-01	0	23	104	0	73	17144
2026-01-12 03:17:08.64	223.32	33.20	-54.0	-67.2	3.8	8.45e-01	0	23	104	0	73	17162
2026-01-12 03:17:09.79	223.24	32.96	-54.0	-67.2	3.8	8.46e-01	0	23	104	0	73	17149
2026-01-12 03:17:10.65	223.18	32.78	-53.9	-67.2	3.8	8.46e-01	0	23	104	0	73	17095
2026-01-12 03:17:11.81	223.11	32.54	-54.0	-67.2	3.8	8.45e-01	0	23	104	0	73	17222
2026-01-12 03:17:12.67	223.05	32.36	-54.0	-67.2	3.8	8.47e-01	0	23	104	0	73	17168
2026-01-12 03:17:13.83	222.98	32.13	-53.9	-67.2	3.8	8.45e-01	0	23	104	0	73	17190
2026-01-12 03:17:14.70	222.92	31.95	-53.9	-67.2	3.8	8.45e-01	0	23	104	0	73	17175
2026-01-12 03:17:15.85	222.85	31.72	-53.9	-67.2	3.8	8.46e-01	0	23	104	0	73	17098
2026-01-12 03:17:16.71	222.80	31.55	-53.9	-67.2	3.8	8.46e-01	0	23	104	0	73	17171
2026-01-12 03:17:17.86	222.72	31.32	-54.0	-67.2	3.8	8.47e-01	0	23	104	0	73	17147
2026-01-12 03:17:18.73	222.67	31.15	-53.9	-67.2	3.8	8.45e-01	0	23	104	0	73	17170
2026-01-12 03:17:19.88	222.60	30.93	-53.9	-67.2	3.8	8.46e-01	0	23	104	0	73	17200
2026-01-12 03:17:20.75	222.55	30.76	-53.9	-67.2	3.8	8.46e-01	0	23	104	0	73	17183
2026-01-12 03:17:21.90	222.49	30.53	-53.9	-67.2	3.8	8.46e-01	0	23	104	0	73	17193
2026-01-12 03:17:22.76	222.44	30.37	-53.9	-67.2	3.8	8.46e-01	0	23	104	0	73	17171
2026-01-12 03:17:23.92	222.37	30.15	-54.0	-67.2	3.8	8.47e-01	0	23	104	0	73	17114
2026-01-12 03:17:24.79	222.32	29.98	-53.9	-67.2	3.8	8.45e-01	0	23	104	0	73	17099
2026-01-12 03:17:25.94	222.26	29.77	-54.0	-67.2	3.8	8.45e-01	0	23	104	0	73	17159
2026-01-12 03:17:26.80	222.21	29.61	-54.0	-67.2	3.8	8.45e-01	0	23	104	0	73	17163
2026-01-12 03:17:27.96	222.15	29.39	-54.0	-67.2	3.8	8.46e-01	0	23	104	0	73	17117
2026-01-12 03:17:28.82	222.10	29.23	-54.0	-67.2	3.8	8.45e-01	0	23	104	0	73	17157
2026-01-12 03:17:29.98	222.04	29.02	-54.0	-67.2	3.8	8.45e-01	0	23	104	0	73	17151
2026-01-12 03:17:30.84	222.00	28.86	-54.0	-67.2	3.8	8.46e-01	0	23	104	0	73	17206
2026-01-12 03:17:32.00	221.94	28.65	-54.0	-67.2	3.8	8.45e-01	0	23	104	0	73	17121
2026-01-12 03:17:32.86	221.90	28.50	-54.0	-67.2	3.8	8.45e-01	0	23	104	0	73	17166
2026-01-12 03:17:34.02	221.84	28.29	-54.0	-67.2	3.8	8.44e-01	0	23	104	0	73	17176
2026-01-12 03:17:34.88	221.79	28.14	-53.9	-67.2	3.8	8.47e-01	0	23	104	0	73	17120
2026-01-12 03:17:36.03	221.74	27.93	-54.0	-67.2	3.8	8.46e-01	0	23	104	0	73	17188
2026-01-12 03:17:36.89	221.70	27.78	-53.9	-67.2	3.8	8.46e-01	0	23	104	0	73	17171
2026-01-12 03:17:38.05	221.64	27.58	-54.0	-67.2	3.8	8.45e-01	0	23	104	0	73	17154
2026-01-12 03:17:38.91	221.60	27.43	-54.0	-67.2	3.8	8.46e-01	0	23	104	0	73	17172
2026-01-12 03:17:40.06	221.55	27.23	-54.0	-67.2	3.8	8.46e-01	0	23	104	0	73	17138
2026-01-12 03:17:40.93	221.51	27.08	-54.0	-67.2	3.8	8.46e-01	0	23	104	0	73	17167
2026-01-12 03:17:42.08	221.45	26.89	-54.0	-67.2	3.8	8.44e-01	0	23	104	0	73	17144
2026-01-12 03:17:42.94	221.42	26.74	-54.0	-67.2	3.8	8.46e-01	0	23	104	0	73	17157
2026-01-12 03:17:44.10	221.36	26.55	-54.0	-67.2	3.8	8.47e-01	0	23	104	0	73	17147
2026-01-12 03:17:44.97	221.33	26.40	-54.0	-67.2	3.8	8.44e-01	0	23	104	0	73	17140
2026-01-12 03:17:46.12	221.28	26.21	-54.0	-67.2	3.8	8.46e-01	0	23	104	0	73	17174
2026-01-12 03:17:46.98	221.24	26.07	-53.9	-67.2	3.8	8.46e-01	0	23	104	0	73	17134
2026-01-12 03:17:48.13	221.19	25.88	-53.9	-67.2	3.8	8.45e-01	0	23	104	0	73	17225
2026-01-12 03:17:49.00	221.15	25.74	-54.0	-67.2	3.8	8.45e-01	0	23	104	0	73	17202
2026-01-12 03:17:50.15	221.11	25.55	-54.0	-67.2	3.8	8.46e-01	0	23	104	0	73	17188
2026-01-12 03:17:51.02	221.07	25.41	-54.0	-67.2	3.8	8.45e-01	0	23	104	0	73	17199
2026-01-12 03:17:52.17	221.02	25.23	-54.0	-67.2	3.8	8.45e-01	0	23	104	0	73	17146
2026-01-12 03:17:53.04	220.99	25.09	-54.0	-67.2	3.8	8.45e-01	0	23	104	0	73	17143
2026-01-12 03:17:54.19	220.94	24.91	-54.0	-67.2	3.8	8.46e-01	0	23	104	0	73	17147
2026-01-12 03:17:55.06	220.91	24.77	-54.0	-67.2	3.8	8.45e-01	0	23	104	0	73	17153
2026-01-12 03:17:56.21	220.86	24.59	-54.0	-67.2	3.8	8.46e-01	0	23	104	0	73	17182
2026-01-12 03:17:57.07	220.83	24.46	-54.0	-67.2	3.8	8.45e-01	0	23	104	0	73	17177
2026-01-12 03:17:58.22	220.79	24.28	-53.9	-67.2	3.8	8.46e-01	0	23	104	0	73	17169
2026-01-12 03:17:59.09	220.75	24.15	-54.0	-67.2	3.8	8.45e-01	0	23	104	0	73	17123
2026-01-12 03:18:00.24	220.71	23.97	-54.0	-67.2	3.8	8.45e-01	0	23	104	0	73	17130
2026-01-12 03:18:01.11	220.68	23.84	-54.0	-67.2	3.8	8.45e-01	0	23	104	0	73	17102
2026-01-12 03:18:02.26	220.64	23.67	-54.0	-67.2	3.8	8.46e-01	0	23	104	0	73	17172
2026-01-12 03:18:03.13	220.61	23.54	-54.0	-67.2	3.8	8.45e-01	0	23	104	0	73	17174
2026-01-12 03:18:04.28	220.56	23.36	-54.0	-67.2	3.8	8.46e-01	0	23	104	0	73	17167
2026-01-12 03:18:05.15	220.53	23.24	-54.0	-67.2	3.8	8.46e-01	0	23	104	0	73	17118
2026-01-12 03:18:06.30	220.49	23.07	-54.0	-67.2	3.8	8.46e-01	0	23	104	0	73	17161
2026-01-12 03:18:07.16	220.46	22.94	-54.0	-67.2	3.8	8.46e-01	0	23	104	0	73	17178
2026-01-12 03:18:08.32	220.42	22.77	-54.0	-67.2	3.8	8.46e-01	0	23	104	0	73	17179
2026-01-12 03:18:09.18	220.39	22.65	-54.0	-67.2	3.8	8.45e-01	0	23	104	0	73	17168
2026-01-12 03:18:10.33	220.36	22.48	-53.9	-67.2	3.8	8.46e-01	0	23	104	0	73	17169
2026-01-12 03:18:11.20	220.33	22.35	-54.0	-67.2	3.8	8.46e-01	0	23	104	0	73	17154
2026-01-12 03:18:12.35	220.29	22.19	-54.0	-67.2	3.8	8.45e-01	0	23	104	0	73	17107
2026-01-12 03:18:13.22	220.26	22.07	-54.0	-67.2	3.8	8.46e-01	0	23	104	0	73	17155
2026-01-12 03:18:14.37	220.22	21.91	-54.0	-67.2	3.8	8.46e-01	0	23	104	0	73	17126
2026-01-12 03:18:15.24	220.20	21.78	-54.0	-67.2	3.8	8.46e-01	0	23	104	0	73	17098
2026-01-12 03:18:16.39	220.16	21.62	-54.0	-67.2	3.8	8.46e-01	0	23	104	0	73	17181
2026-01-12 03:18:17.25	220.13	21.50	-54.0	-67.2	3.8	8.47e-01	0	23	104	0	73	17151
2026-01-12 03:18:18.41	220.10	21.34	-54.0	-67.2	3.8	8.45e-01	0	23	104	0	73	17163
2026-01-12 03:18:19.28	220.07	21.22	-54.0	-67.2	3.8	8.44e-01	0	23	104	0	73	17178
2026-01-12 03:18:20.43	220.04	21.07	-54.0	-67.2	3.8	8.46e-01	0	23	104	0	73	17130
2026-01-12 03:18:21.29	220.01	20.95	-54.0	-67.1	3.8	8.46e-01	0	23	104	0	73	17069
2026-01-12 03:18:22.44	219.97	20.79	-54.0	-67.2	3.8	8.44e-01	0	23	104	0	73	17129
2026-01-12 03:18:23.30	219.95	20.68	-54.0	-67.2	3.8	8.44e-01	0	23	104	0	73	17208
2026-01-12 03:18:24.46	219.92	20.52	-54.0	-67.2	3.8	8.45e-01	0	23	104	0	73	17181
2026-01-12 03:18:25.33	219.89	20.41	-54.0	-67.2	3.8	8.45e-01	0	23	104	0	73	17121
2026-01-12 03:18:26.48	219.86	20.26	-54.0	-67.2	3.8	8.46e-01	0	23	104	0	73	17159
2026-01-12 03:18:27.34	219.83	20.14	-54.0	-67.2	3.8	8.46e-01	0	23	104	0	73	17160
2026-01-12 03:18:28.49	219.80	19.99	-54.0	-67.2	3.8	8.45e-01	0	23	104	0	73	17177
2026-01-12 03:18:29.36	219.78	19.88	-53.9	-67.2	3.8	8.45e-01	0	23	104	0	73	17116
2026-01-12 03:18:30.51	219.75	19.73	-53.9	-67.2	3.8	8.46e-01	0	23	104	0	73	17152
2026-01-12 03:18:31.38	219.72	19.62	-53.9	-67.2	3.8	8.47e-01	0	23	104	0	73	17151
2026-01-12 03:18:32.54	219.69	19.47	-53.9	-67.2	3.8	8.44e-01	0	23	104	0	73	17193
2026-01-12 03:18:33.40	219.67	19.36	-53.9	-67.2	3.8	8.45e-01	0	23	104	0	73	17164
2026-01-12 03:18:34.55	219.64	19.21	-53.9	-67.2	3.8	8.45e-01	0	23	104	0	73	17180
2026-01-12 03:18:35.42	219.61	19.10	-54.0	-67.2	3.8	8.45e-01	0	23	104	0	73	17176
2026-01-12 03:18:36.57	219.58	18.96	-53.9	-67.2	3.8	8.46e-01	0	23	104	0	73	17155
2026-01-12 03:18:37.43	219.56	18.85	-54.0	-67.2	3.8	8.45e-01	0	23	104	0	73	17230
2026-01-12 03:18:38.59	219.53	18.71	-53.9	-67.2	3.8	8.47e-01	0	23	104	0	73	17202
2026-01-12 03:18:39.45	219.51	18.60	-53.9	-67.2	3.8	8.45e-01	0	23	104	0	73	17153
2026-01-12 03:18:40.61	219.48	18.46	-53.9	-67.2	3.8	8.45e-01	0	23	104	0	73	17102
2026-01-12 03:18:41.47	219.46	18.35	-53.9	-67.2	3.8	8.45e-01	0	23	104	0	73	17104
2026-01-12 03:18:42.61	219.43	18.22	-54.0	-67.2	3.8	8.47e-01	0	23	104	0	73	17098
2026-01-12 03:18:43.48	219.41	18.11	-54.0	-67.2	3.8	8.45e-01	0	23	104	0	73	17191
2026-01-12 03:18:44.64	219.38	17.97	-54.0	-67.2	3.8	8.45e-01	0	23	104	0	73	17177
2026-01-12 03:18:45.50	219.36	17.87	-54.0	-67.2	3.8	8.46e-01	0	23	104	0	73	17149
2026-01-12 03:18:46.65	219.33	17.73	-54.0	-67.2	3.8	8.44e-01	0	23	104	0	73	17193
2026-01-12 03:18:47.52	219.31	17.63	-54.0	-67.2	3.8	8.46e-01	0	23	104	0	73	17126
2026-01-12 03:18:48.67	219.29	17.49	-53.9	-67.2	3.8	8.45e-01	0	23	104	0	73	17161
2026-01-12 03:18:49.54	219.27	17.39	-54.0	-67.2	3.8	8.46e-01	0	23	104	0	73	17137
2026-01-12 03:18:50.69	219.24	17.25	-53.9	-67.2	3.8	8.45e-01	0	23	104	0	73	17168
2026-01-12 03:18:51.56	219.22	17.15	-53.9	-67.2	3.8	8.45e-01	0	23	104	0	73	17168
2026-01-12 03:18:52.71	219.20	17.02	-53.9	-67.2	3.8	8.45e-01	0	23	104	0	73	17165
2026-01-12 03:18:53.57	219.18	16.92	-53.9	-67.2	3.8	8.46e-01	0	23	104	0	73	17164
2026-01-12 03:18:54.73	219.15	16.78	-53.9	-67.2	3.8	8.45e-01	0	23	104	0	73	17199
2026-01-12 03:18:55.59	219.13	16.69	-53.9	-67.2	3.8	8.46e-01	0	23	104	0	73	17148
2026-01-12 03:18:56.74	219.11	16.56	-53.9	-67.2	3.8	8.45e-01	0	23	104	0	73	17165
2026-01-12 03:18:57.60	219.09	16.46	-53.9	-67.2	3.8	8.46e-01	0	23	104	0	73	17125
2026-01-12 03:18:58.76	219.06	16.33	-53.9	-67.2	3.8	8.45e-01	0	23	104	0	73	17128
2026-01-12 03:18:59.63	219.05	16.23	-54.0	-67.2	3.8	8.46e-01	0	23	104	0	73	17136
2026-01-12 03:19:00.78	219.02	16.10	-54.0	-67.2	3.8	8.46e-01	0	23	104	0	73	17119
2026-01-12 03:19:01.64	219.00	16.00	-54.0	-67.2	3.8	8.46e-01	0	23	104	0	73	17168
2026-01-12 03:19:02.79	218.98	15.88	-53.9	-67.2	3.8	8.45e-01	0	23	104	0	73	17156
2026-01-12 03:19:03.66	218.96	15.78	-54.0	-67.2	3.8	8.45e-01	0	23	104	0	73	17177
2026-01-12 03:19:04.81	218.94	15.66	-53.9	-67.2	3.8	8.47e-01	0	23	104	0	73	17151
2026-01-12 03:19:05.68	218.92	15.56	-54.0	-67.2	3.8	8.47e-01	0	23	104	0	73	17150
2026-01-12 03:19:06.83	218.90	15.43	-53.9	-67.2	3.8	8.46e-01	0	23	104	0	73	17157
2026-01-12 03:19:07.70	218.88	15.34	-53.9	-67.2	3.8	8.47e-01	0	23	104	0	73	17170
2026-01-12 03:19:08.84	218.86	15.22	-53.9	-67.2	3.8	8.45e-01	0	23	104	0	73	17141
2026-01-12 03:19:09.71	218.84	15.12	-53.9	-67.2	3.8	8.45e-01	0	23	104	0	73	17153
2026-01-12 03:19:10.86	218.82	15.00	-53.9	-67.2	3.8	8.45e-01	0	23	104	0	73	17158
2026-01-12 03:19:11.72	218.80	14.91	-53.9	-67.2	3.8	8.46e-01	0	23	104	0	73	17147
2026-01-12 03:19:12.87	218.78	14.79	-53.9	-67.2	3.8	8.45e-01	0	23	104	0	73	17138
2026-01-12 03:19:13.74	218.77	14.70	-53.9	-67.2	3.8	8.46e-01	0	23	104	0	73	17114
2026-01-12 03:19:14.89	218.74	14.58	-54.0	-67.2	3.8	8.45e-01	0	23	104	0	73	17117
2026-01-12 03:19:15.76	218.73	14.48	-53.9	-67.2	3.8	8.46e-01	0	23	104	0	73	17110
2026-01-12 03:19:16.91	218.71	14.36	-53.9	-67.2	3.8	8.46e-01	0	23	104	0	73	17104
2026-01-12 03:19:17.78	218.69	14.27	-53.9	-67.2	3.8	8.46e-01	0	23	104	0	73	17106
2026-01-12 03:19:18.93	218.67	14.16	-54.0	-67.2	3.8	8.46e-01	0	23	104	0	73	17119
2026-01-12 03:19:19.79	218.66	14.07	-54.0	-67.2	3.8	8.46e-01	0	23	104	0	73	17098
2026-01-12 03:19:20.95	218.63	13.95	-54.0	-67.2	3.8	8.46e-01	0	23	104	0	73	17193
2026-01-12 03:19:21.81	218.62	13.86	-54.0	-67.2	3.8	8.47e-01	0	23	104	0	73	17111
2026-01-12 03:19:22.96	218.60	13.74	-54.0	-67.2	3.8	8.46e-01	0	23	104	0	73	17124
2026-01-12 03:19:23.83	218.58	13.66	-54.0	-67.2	3.8	8.46e-01	0	23	104	0	73	17144
2026-01-12 03:19:24.97	218.57	13.54	-54.0	-67.2	3.8	8.46e-01	0	23	104	0	73	17141
2026-01-12 03:19:25.84	218.55	13.45	-54.0	-67.2	3.8	8.46e-01	0	23	104	0	73	17120
2026-01-12 03:19:26.99	218.53	13.34	-53.9	-67.2	3.8	8.45e-01	0	23	104	0	73	17136
2026-01-12 03:19:27.85	218.52	13.25	-53.9	-67.2	3.8	8.47e-01	0	23	104	0	73	17160
2026-01-12 03:19:29.01	218.50	13.14	-54.0	-67.2	3.8	8.46e-01	0	23	104	0	73	17136
2026-01-12 03:19:29.87	218.48	13.05	-54.0	-67.1	3.8	8.46e-01	0	23	104	0	73	17081
2026-01-12 03:19:31.02	218.46	12.94	-54.0	-67.2	3.8	8.46e-01	0	23	104	0	73	17169
2026-01-12 03:19:31.89	218.45	12.85	-54.0	-67.2	3.8	8.45e-01	0	23	104	0	73	17122
2026-01-12 03:19:33.04	218.43	12.74	-54.0	-67.2	3.8	8.45e-01	0	23	104	0	73	17169
2026-01-12 03:19:33.91	218.42	12.66	-54.0	-67.1	3.8	8.45e-01	0	23	104	0	73	17071
2026-01-12 03:19:35.06	218.40	12.55	-54.0	-67.2	3.8	8.46e-01	0	23	104	0	73	17156
2026-01-12 03:19:35.93	218.39	12.46	-54.0	-67.2	3.8	8.46e-01	0	23	104	0	73	17167
2026-01-12 03:19:37.08	218.37	12.35	-53.9	-67.2	3.8	8.45e-01	0	23	104	0	73	17122
2026-01-12 03:19:37.94	218.36	12.27	-54.0	-67.2	3.8	8.46e-01	0	23	104	0	73	17144
2026-01-12 03:19:39.10	218.34	12.16	-54.0	-67.2	3.8	8.46e-01	0	23	104	0	73	17128
2026-01-12 03:19:39.96	218.32	12.08	-54.0	-67.2	3.8	8.47e-01	0	23	104	0	73	17165
2026-01-12 03:19:41.12	218.31	11.97	-53.9	-67.2	3.8	8.46e-01	0	23	104	0	73	17201
2026-01-12 03:19:41.98	218.29	11.89	-53.9	-67.2	3.8	8.46e-01	0	23	104	0	73	17198
2026-01-12 03:19:43.13	218.28	11.78	-53.9	-67.2	3.8	8.44e-01	0	23	104	0	73	17139
2026-01-12 03:19:44.00	218.26	11.70	-53.9	-67.2	3.8	8.45e-01	0	23	104	0	73	17174
2026-01-12 03:19:45.15	218.25	11.59	-54.0	-67.2	3.8	8.46e-01	0	23	104	0	73	17176
2026-01-12 03:19:46.02	218.24	11.51	-54.0	-67.2	3.8	8.46e-01	0	23	104	0	73	17173
2026-01-12 03:19:47.17	218.22	11.41	-53.9	-67.2	3.8	8.46e-01	0	23	104	0	73	17219
2026-01-12 03:19:48.04	218.21	11.33	-54.0	-67.2	3.8	8.46e-01	0	23	104	0	73	17157
2026-01-12 03:19:49.19	218.19	11.22	-53.9	-67.2	3.8	8.45e-01	0	23	104	0	73	17233
2026-01-12 03:19:50.06	218.18	11.14	-54.0	-67.2	3.8	8.45e-01	0	23	104	0	73	17187
2026-01-12 03:19:51.21	218.16	11.04	-54.0	-67.2	3.8	8.46e-01	0	23	104	0	73	17151
2026-01-12 03:19:52.08	218.15	10.96	-54.0	-67.2	3.8	8.46e-01	0	23	104	0	73	17157
2026-01-12 03:19:53.23	218.13	10.85	-54.0	-67.2	3.8	8.46e-01	0	23	104	0	73	17173
2026-01-12 03:19:54.09	218.12	10.78	-53.9	-67.2	3.8	8.46e-01	0	23	104	0	73	17171
