passes_logs/2026/01/12/R3.2S_Murmansk/R3.2S_Murmansk__20260112_233858_NOAA_21_JPSS-2_rec.log

#Pass ID: 20260112_233858_NOAA 21 (JPSS-2)
#Satellite: NOAA 21 (JPSS-2)
#Configuration: NOAA-21
#almurnet v.1.7.20251203
#Start time: 2026-01-12 23:38:58

#Version: 2.2.20231116
#Station: R3.2S_Murmansk
#Location: 33.079688 lon 68.888172 lat
#TLE: 1 54234U 22150A   26012.26378519  .00000063  00000+0  50547-4 0  9993
#TLE: 2 54234  98.7495 313.1967 0000726 309.1075  51.0036 14.19534275164425

#Time	Az	El	Level	Level2	SNR	BER	BlckErr	Temp	State	Recorded	gain1	gain2
2026-01-12 23:38:58.70	21.20	2.00	-57.1	-70.4	3.8	1.49e+00	0	20	0	0	80	16674
2026-01-12 23:38:59.70	21.23	2.06	-57.0	-69.7	3.8	1.49e+00	0	20	104	0	79	16250
2026-01-12 23:39:00.70	21.26	2.12	-57.0	-69.5	3.8	1.49e+00	0	20	104	0	79	15862
2026-01-12 23:39:01.70	21.30	2.18	-57.0	-69.7	3.8	1.49e+00	0	20	104	0	79	16192
2026-01-12 23:39:02.70	21.33	2.25	-57.0	-69.7	3.8	1.49e+00	0	20	104	0	79	16267
2026-01-12 23:39:03.70	21.36	2.31	-57.0	-69.5	3.8	1.49e+00	0	20	104	0	79	15782
2026-01-12 23:39:04.70	21.39	2.37	-57.0	-69.6	3.8	1.49e+00	0	20	104	0	79	16105
2026-01-12 23:39:05.71	21.43	2.44	-57.0	-69.7	3.8	1.49e+00	0	20	104	0	79	16157
2026-01-12 23:39:06.71	21.46	2.50	-57.0	-68.8	3.9	1.49e+00	0	20	104	0	79	14675
2026-01-12 23:39:07.71	21.49	2.56	-56.9	-68.8	3.9	1.49e+00	0	20	104	0	79	14560
2026-01-12 23:39:08.71	21.53	2.62	-56.9	-68.6	3.9	1.49e+00	0	20	104	0	79	14293
2026-01-12 23:39:09.72	21.56	2.69	-56.8	-67.1	4.3	1.48e+00	0	20	104	0	79	12024
2026-01-12 23:39:10.72	21.59	2.75	-56.8	-67.2	4.0	1.47e+00	0	20	104	0	79	12125
2026-01-12 23:39:11.72	21.63	2.82	-56.7	-66.1	4.6	1.44e+00	0	20	104	0	79	10658
2026-01-12 23:39:12.72	21.66	2.88	-56.7	-66.1	4.2	1.32e+00	0	20	104	0	79	10657
2026-01-12 23:39:13.72	21.70	2.94	-56.6	-65.0	5.1	6.66e-01	0	21	0	1048576	79	9449
2026-01-12 23:39:14.72	21.73	3.01	-56.6	-65.0	5.1	5.83e-01	0	21	0	3145728	79	9423
2026-01-12 23:39:15.71	21.76	3.07	-56.6	-65.0	5.1	6.15e-01	0	21	0	6291456	79	9432
2026-01-12 23:39:16.71	21.80	3.14	-56.3	-63.4	6.2	3.26e-01	0	20	0	9437184	79	7830
2026-01-12 23:39:17.71	21.83	3.20	-56.6	-64.8	5.2	5.51e-01	0	21	0	12582912	79	9275
2026-01-12 23:39:18.70	21.87	3.26	-56.3	-63.4	6.2	2.26e-01	0	21	0	15728640	79	7833
2026-01-12 23:39:19.70	21.90	3.33	-56.5	-64.4	5.5	3.67e-01	0	21	0	18874368	79	8799
2026-01-12 23:39:20.69	21.94	3.39	-55.9	-61.8	7.5	7.18e-02	0	21	0	22020096	78	6937
2026-01-12 23:39:21.70	21.97	3.46	-55.9	-61.8	7.5	7.83e-02	0	21	0	25165824	78	6953
2026-01-12 23:39:22.70	22.01	3.52	-55.7	-61.0	8.2	4.80e-02	0	21	0	28311552	78	6300
2026-01-12 23:39:23.70	22.04	3.59	-55.4	-60.2	8.8	2.13e-02	0	21	0	31457280	77	6104
2026-01-12 23:39:24.70	22.08	3.65	-54.5	-58.4	10.3	2.43e-03	0	21	0	34603008	75	5588
2026-01-12 23:39:25.70	22.11	3.72	-54.1	-57.6	11.0	4.45e-04	0	21	0	37748736	74	5380
2026-01-12 23:39:26.69	22.15	3.79	-53.5	-56.5	11.9	4.11e-05	0	21	0	40894464	73	5025
2026-01-12 23:39:27.68	22.18	3.85	-53.0	-55.7	12.4	8.30e-06	0	21	0	44040192	72	4838
2026-01-12 23:39:28.67	22.22	3.92	-52.8	-55.3	12.8	7.00e-07	0	21	0	47185920	72	4623
2026-01-12 23:39:29.68	22.26	3.98	-52.4	-54.8	13.0	2.20e-06	0	21	0	50331648	71	4638
2026-01-12 23:39:30.68	22.29	4.05	-51.8	-54.0	13.6	0.00e+00	0	21	0	53477376	70	4457
2026-01-12 23:39:31.69	22.33	4.12	-51.5	-53.6	13.7	0.00e+00	0	21	0	56623104	69	4522
2026-01-12 23:39:32.69	22.37	4.18	-51.3	-53.3	13.9	0.00e+00	0	21	0	59768832	69	4354
2026-01-12 23:39:33.69	22.40	4.25	-51.2	-53.2	14.0	0.00e+00	0	21	0	62914560	69	4316
2026-01-12 23:39:34.69	22.44	4.32	-51.6	-53.7	13.6	0.00e+00	0	21	0	66060288	69	4567
2026-01-12 23:39:35.69	22.48	4.38	-51.7	-53.8	13.5	0.00e+00	0	21	0	69206016	69	4646
2026-01-12 23:39:36.68	22.51	4.45	-51.7	-53.8	13.5	0.00e+00	0	21	0	72351744	69	4620
2026-01-12 23:39:37.68	22.55	4.52	-52.3	-54.8	12.8	0.00e+00	0	21	0	75497472	69	5177
2026-01-12 23:39:38.67	22.59	4.58	-52.7	-55.3	12.5	7.00e-07	0	21	0	78643200	70	5171
2026-01-12 23:39:39.67	22.63	4.65	-53.1	-55.9	12.1	6.10e-06	0	21	0	81788928	71	5278
2026-01-12 23:39:40.67	22.66	4.72	-53.6	-56.7	11.6	7.09e-05	0	21	0	84934656	72	5403
2026-01-12 23:39:41.67	22.70	4.79	-54.1	-57.7	10.8	5.84e-04	0	21	0	88080384	73	5733
2026-01-12 23:39:42.68	22.74	4.86	-54.4	-58.3	10.2	7.13e-04	0	21	0	91226112	73	6202
2026-01-12 23:39:43.68	22.78	4.93	-55.0	-59.5	9.4	7.51e-03	0	21	0	94371840	75	6304
2026-01-12 23:39:44.69	22.82	5.00	-55.3	-60.3	8.6	1.93e-02	0	21	0	97517568	75	6942
2026-01-12 23:39:45.68	22.85	5.06	-52.7	-55.2	12.9	1.16e-02	0	21	0	100663296	72	4574
2026-01-12 23:39:46.68	22.89	5.13	-52.1	-54.4	13.3	7.00e-07	0	21	0	103809024	70	4653
2026-01-12 23:39:47.68	22.93	5.20	-56.1	-62.6	6.8	5.07e-03	0	21	0	106954752	77	8075
2026-01-12 23:39:48.67	22.97	5.27	-55.3	-59.9	9.1	1.73e-01	0	21	0	106954752	77	5911
2026-01-12 23:39:49.67	23.01	5.34	-53.2	-56.0	12.3	0.00e+00	0	21	0	110100480	71	5296
2026-01-12 23:39:50.67	23.05	5.41	-52.7	-55.1	13.0	2.34e-03	0	21	0	113246208	72	4506
2026-01-12 23:39:51.67	23.09	5.48	-52.3	-54.7	13.2	0.00e+00	0	21	0	116391936	71	4546
2026-01-12 23:39:52.67	23.13	5.55	-51.7	-53.8	13.8	0.00e+00	0	21	0	119537664	70	4352
2026-01-12 23:39:53.67	23.17	5.62	-51.5	-53.4	13.9	0.00e+00	0	21	0	122683392	69	4425
2026-01-12 23:39:54.67	23.21	5.69	-51.4	-53.3	14.0	0.00e+00	0	21	0	125829120	69	4383
2026-01-12 23:39:55.67	23.25	5.76	-51.1	-53.0	14.1	0.00e+00	0	21	0	128974848	68	4463
2026-01-12 23:39:56.66	23.29	5.83	-51.1	-52.9	14.1	0.00e+00	0	21	0	132120576	68	4437
2026-01-12 23:39:57.66	23.33	5.90	-50.9	-52.7	14.3	0.00e+00	0	21	0	135266304	68	4312
2026-01-12 23:39:58.66	23.37	5.97	-50.8	-52.6	14.4	0.00e+00	0	21	0	138412032	68	4263
2026-01-12 23:39:59.66	23.41	6.04	-50.8	-52.6	14.4	0.00e+00	0	21	0	141557760	68	4261
2026-01-12 23:40:00.66	23.45	6.12	-50.9	-52.6	14.3	0.00e+00	0	21	0	144703488	68	4289
2026-01-12 23:40:01.66	23.49	6.19	-50.4	-52.1	14.5	0.00e+00	0	21	0	147849216	67	4288
2026-01-12 23:40:02.66	23.53	6.26	-50.6	-52.4	14.3	0.00e+00	0	21	0	150994944	67	4396
2026-01-12 23:40:03.66	23.58	6.33	-50.5	-52.2	14.4	0.00e+00	0	21	0	154140672	67	4323
2026-01-12 23:40:04.65	23.62	6.40	-50.6	-52.3	14.4	0.00e+00	0	21	0	157286400	67	4358
2026-01-12 23:40:05.66	23.66	6.48	-50.5	-52.3	14.4	0.00e+00	0	21	0	160432128	67	4347
2026-01-12 23:40:06.66	23.70	6.55	-50.6	-52.4	14.3	0.00e+00	0	22	0	163577856	67	4423
2026-01-12 23:40:07.65	23.74	6.62	-50.5	-52.3	14.4	0.00e+00	0	21	0	166723584	67	4347
2026-01-12 23:40:08.65	23.79	6.69	-50.6	-52.3	14.4	0.00e+00	0	21	0	169869312	67	4374
2026-01-12 23:40:09.66	23.83	6.77	-50.5	-52.2	14.5	0.00e+00	0	22	0	173015040	67	4314
2026-01-12 23:40:10.66	23.87	6.84	-50.4	-52.1	14.5	0.00e+00	0	21	0	175112192	67	4280
2026-01-12 23:40:11.67	23.92	6.91	-50.3	-52.0	14.6	0.00e+00	0	22	0	178257920	67	4218
2026-01-12 23:40:12.68	23.96	6.99	-50.4	-52.1	14.5	0.00e+00	0	21	0	181403648	67	4251
2026-01-12 23:40:13.66	24.00	7.06	-50.5	-52.2	14.5	0.00e+00	0	21	0	184549376	67	4309
2026-01-12 23:40:14.66	24.05	7.14	-50.4	-52.0	14.6	0.00e+00	0	21	0	187695104	67	4233
2026-01-12 23:40:15.66	24.09	7.21	-50.2	-51.9	14.7	0.00e+00	0	21	0	190840832	67	4151
2026-01-12 23:40:16.66	24.13	7.28	-50.2	-51.8	14.7	0.00e+00	0	21	0	193986560	67	4132
2026-01-12 23:40:17.66	24.18	7.36	-50.2	-51.8	14.5	0.00e+00	0	21	0	197132288	66	4384
2026-01-12 23:40:18.65	24.22	7.43	-50.1	-51.7	14.6	0.00e+00	0	21	0	200278016	66	4340
2026-01-12 23:40:19.66	24.27	7.51	-50.1	-51.7	14.6	0.00e+00	0	21	0	203423744	66	4324
2026-01-12 23:40:20.66	24.31	7.59	-50.0	-51.6	14.7	0.00e+00	0	22	0	206569472	66	4252
2026-01-12 23:40:21.65	24.36	7.66	-50.1	-51.6	14.7	0.00e+00	0	22	0	209715200	66	4289
2026-01-12 23:40:22.65	24.40	7.74	-50.0	-51.6	14.7	0.00e+00	0	22	0	212860928	66	4257
2026-01-12 23:40:23.65	24.45	7.81	-50.0	-51.6	14.7	0.00e+00	0	22	0	216006656	66	4269
2026-01-12 23:40:24.65	24.49	7.89	-50.1	-51.6	14.7	0.00e+00	0	22	0	219152384	66	4288
2026-01-12 23:40:25.65	24.54	7.96	-50.0	-51.6	14.7	0.00e+00	0	22	0	222298112	66	4262
2026-01-12 23:40:26.65	24.59	8.04	-49.9	-51.5	14.8	0.00e+00	0	22	0	225443840	66	4206
2026-01-12 23:40:27.65	24.63	8.12	-49.9	-51.5	14.8	0.00e+00	0	22	0	228589568	66	4194
2026-01-12 23:40:28.64	24.68	8.19	-50.0	-51.5	14.8	0.00e+00	0	22	0	231735296	66	4223
2026-01-12 23:40:29.64	24.73	8.27	-50.0	-51.5	14.8	0.00e+00	0	22	0	234881024	66	4234
2026-01-12 23:40:30.64	24.77	8.35	-50.0	-51.6	14.8	0.00e+00	0	22	0	238026752	66	4247
2026-01-12 23:40:31.64	24.82	8.43	-50.0	-51.6	14.7	0.00e+00	0	22	0	241172480	66	4275
2026-01-12 23:40:32.64	24.87	8.51	-49.9	-51.5	14.8	0.00e+00	0	22	0	244318208	66	4212
2026-01-12 23:40:33.63	24.91	8.58	-50.0	-51.5	14.8	0.00e+00	0	22	0	247463936	66	4227
2026-01-12 23:40:34.63	24.96	8.66	-50.0	-51.6	14.7	0.00e+00	0	22	0	250609664	66	4265
2026-01-12 23:40:35.63	25.01	8.74	-49.9	-51.4	14.8	0.00e+00	0	22	0	253755392	66	4170
2026-01-12 23:40:36.63	25.06	8.82	-49.9	-51.5	14.8	0.00e+00	0	22	0	256901120	66	4226
2026-01-12 23:40:37.63	25.11	8.90	-49.8	-51.3	14.9	0.00e+00	0	22	0	260046848	66	4119
2026-01-12 23:40:38.62	25.16	8.98	-49.8	-51.4	14.9	0.00e+00	0	22	0	263192576	66	4157
2026-01-12 23:40:39.63	25.21	9.06	-49.8	-51.4	14.9	0.00e+00	0	22	0	266338304	66	4159
2026-01-12 23:40:40.63	25.26	9.14	-49.7	-51.3	15.0	0.00e+00	0	22	0	269484032	66	4100
2026-01-12 23:40:41.62	25.30	9.22	-49.7	-51.2	15.0	0.00e+00	0	22	0	272629760	66	4068
2026-01-12 23:40:42.63	25.36	9.30	-49.6	-51.2	14.8	0.00e+00	0	22	0	275775488	65	4293
2026-01-12 23:40:43.63	25.41	9.38	-49.6	-51.1	14.9	0.00e+00	0	22	0	278921216	65	4247
2026-01-12 23:40:44.62	25.46	9.46	-49.6	-51.0	14.9	0.00e+00	0	22	0	282066944	65	4242
2026-01-12 23:40:45.62	25.51	9.54	-49.4	-50.8	15.0	0.00e+00	0	22	0	285212672	65	4142
2026-01-12 23:40:46.62	25.56	9.62	-49.5	-51.0	15.0	0.00e+00	0	22	0	288358400	65	4200
2026-01-12 23:40:47.62	25.61	9.70	-49.4	-50.9	15.0	0.00e+00	0	22	0	291504128	65	4157
2026-01-12 23:40:48.62	25.66	9.78	-49.4	-50.9	15.0	0.00e+00	0	22	0	294649856	65	4162
2026-01-12 23:40:49.62	25.71	9.87	-49.3	-50.8	15.1	0.00e+00	0	22	0	297795584	65	4101
2026-01-12 23:40:50.61	25.76	9.95	-49.4	-50.9	15.0	0.00e+00	0	22	0	300941312	65	4166
2026-01-12 23:40:51.60	25.81	10.03	-49.4	-50.9	15.0	0.00e+00	0	22	0	304087040	65	4146
2026-01-12 23:40:52.60	25.87	10.11	-49.4	-50.9	15.0	0.00e+00	0	22	0	307232768	65	4163
2026-01-12 23:40:53.60	25.92	10.20	-49.4	-50.8	15.1	0.00e+00	0	22	0	309329920	65	4133
2026-01-12 23:40:54.61	25.97	10.28	-49.4	-50.9	15.0	0.00e+00	0	22	0	312475648	65	4156
2026-01-12 23:40:55.61	26.03	10.36	-49.4	-50.9	15.1	0.00e+00	0	22	0	315621376	65	4153
2026-01-12 23:40:56.61	26.08	10.45	-49.4	-50.8	15.1	0.00e+00	0	22	0	318767104	65	4120
2026-01-12 23:40:57.61	26.13	10.53	-49.3	-50.8	15.1	0.00e+00	0	22	0	321912832	65	4112
2026-01-12 23:40:58.61	26.19	10.62	-49.4	-50.9	15.0	0.00e+00	0	22	0	325058560	65	4148
2026-01-12 23:40:59.61	26.24	10.70	-49.4	-50.8	15.1	0.00e+00	0	22	0	328204288	65	4132
2026-01-12 23:41:00.61	26.30	10.79	-49.4	-50.8	15.1	0.00e+00	0	22	0	331350016	65	4129
2026-01-12 23:41:01.61	26.35	10.87	-49.3	-50.7	15.1	0.00e+00	0	22	0	334495744	65	4083
2026-01-12 23:41:02.60	26.41	10.96	-49.4	-50.8	15.1	0.00e+00	0	22	0	337641472	65	4135
2026-01-12 23:41:03.60	26.46	11.04	-49.2	-50.7	15.2	0.00e+00	0	22	0	340787200	65	4052
2026-01-12 23:41:04.59	26.52	11.13	-49.2	-50.6	15.2	0.00e+00	0	22	0	343932928	65	4023
2026-01-12 23:41:05.59	26.57	11.21	-49.0	-50.4	15.1	0.00e+00	0	22	0	347078656	64	4183
2026-01-12 23:41:06.59	26.63	11.30	-49.0	-50.4	15.1	0.00e+00	0	22	0	350224384	64	4176
2026-01-12 23:41:07.59	26.69	11.39	-49.1	-50.5	15.1	0.00e+00	0	22	0	353370112	64	4228
2026-01-12 23:41:08.59	26.74	11.48	-49.0	-50.4	15.2	0.00e+00	0	22	0	356515840	64	4170
2026-01-12 23:41:09.59	26.80	11.56	-49.0	-50.3	15.2	0.00e+00	0	22	0	359661568	64	4143
2026-01-12 23:41:10.59	26.86	11.65	-49.1	-50.5	15.1	0.00e+00	0	22	0	362807296	64	4201
2026-01-12 23:41:11.59	26.92	11.74	-48.9	-50.3	15.2	0.00e+00	0	22	0	365953024	64	4121
2026-01-12 23:41:12.59	26.98	11.83	-49.0	-50.4	15.2	0.00e+00	0	22	0	369098752	64	4155
2026-01-12 23:41:13.59	27.04	11.92	-49.0	-50.4	15.2	0.00e+00	0	22	0	372244480	64	4165
2026-01-12 23:41:14.60	27.10	12.01	-49.0	-50.4	15.1	0.00e+00	0	22	0	375390208	64	4186
2026-01-12 23:41:15.60	27.15	12.10	-49.0	-50.4	15.2	0.00e+00	0	22	0	378535936	64	4148
2026-01-12 23:41:16.60	27.21	12.18	-48.9	-50.3	15.2	0.00e+00	0	22	0	381681664	64	4111
2026-01-12 23:41:17.61	27.27	12.28	-48.8	-50.2	15.3	0.00e+00	0	22	0	384827392	64	4076
2026-01-12 23:41:18.60	27.33	12.37	-48.9	-50.2	15.2	0.00e+00	0	22	0	387973120	64	4098
2026-01-12 23:41:19.60	27.40	12.46	-48.8	-50.1	15.3	0.00e+00	0	22	0	391118848	64	4046
2026-01-12 23:41:20.60	27.46	12.55	-48.9	-50.2	15.2	0.00e+00	0	22	0	394264576	64	4086
2026-01-12 23:41:21.60	27.52	12.64	-48.8	-50.2	15.3	0.00e+00	0	22	0	397410304	64	4065
2026-01-12 23:41:22.60	27.58	12.73	-48.8	-50.2	15.3	0.00e+00	0	22	0	400556032	64	4071
2026-01-12 23:41:23.60	27.64	12.82	-48.8	-50.1	15.3	0.00e+00	0	22	0	403701760	64	4047
2026-01-12 23:41:24.59	27.70	12.91	-48.7	-50.0	15.4	0.00e+00	0	22	0	406847488	64	3997
2026-01-12 23:41:25.60	27.77	13.01	-48.8	-50.1	15.4	0.00e+00	0	22	0	409993216	64	4027
2026-01-12 23:41:26.60	27.83	13.10	-48.6	-50.0	15.3	0.00e+00	0	22	0	413138944	63	4199
2026-01-12 23:41:27.59	27.89	13.19	-48.7	-50.0	15.3	0.00e+00	0	22	0	416284672	63	4210
2026-01-12 23:41:28.58	27.96	13.28	-48.7	-50.1	15.2	0.00e+00	0	22	0	419430400	63	4244
2026-01-12 23:41:29.57	28.02	13.38	-48.7	-50.1	15.2	0.00e+00	0	22	0	422576128	63	4246
2026-01-12 23:41:30.55	28.08	13.47	-48.7	-50.0	15.2	0.00e+00	0	22	0	425721856	63	4241
2026-01-12 23:41:31.55	28.15	13.56	-48.8	-50.1	15.2	0.00e+00	0	22	0	428867584	63	4277
2026-01-12 23:41:32.55	28.21	13.66	-48.8	-50.1	15.2	0.00e+00	0	22	0	432013312	63	4281
2026-01-12 23:41:33.55	28.28	13.75	-48.9	-50.3	15.1	0.00e+00	0	22	0	435159040	63	4348
2026-01-12 23:41:34.55	28.35	13.85	-48.8	-50.1	15.2	0.00e+00	0	22	0	438304768	63	4267
2026-01-12 23:41:35.55	28.41	13.94	-48.9	-50.2	15.1	0.00e+00	0	22	0	441450496	63	4326
2026-01-12 23:41:36.54	28.48	14.04	-48.9	-50.3	15.1	0.00e+00	0	22	0	443547648	63	4354
2026-01-12 23:41:37.54	28.55	14.14	-48.8	-50.2	15.1	0.00e+00	0	22	0	446693376	63	4316
2026-01-12 23:41:38.53	28.61	14.23	-48.9	-50.3	15.1	0.00e+00	0	22	0	449839104	63	4355
2026-01-12 23:41:39.53	28.68	14.33	-48.9	-50.3	15.1	0.00e+00	0	22	0	452984832	63	4367
2026-01-12 23:41:40.52	28.75	14.43	-48.9	-50.3	15.1	0.00e+00	0	22	0	456130560	63	4342
2026-01-12 23:41:41.52	28.82	14.52	-48.9	-50.2	15.1	0.00e+00	0	22	0	459276288	63	4337
2026-01-12 23:41:42.52	28.89	14.62	-48.9	-50.2	15.1	0.00e+00	0	22	0	462422016	63	4332
2026-01-12 23:41:43.52	28.96	14.72	-48.9	-50.3	15.1	0.00e+00	0	22	0	465567744	63	4356
2026-01-12 23:41:44.53	29.03	14.82	-48.9	-50.2	15.1	0.00e+00	0	22	0	468713472	63	4334
2026-01-12 23:41:45.52	29.10	14.92	-48.9	-50.2	15.2	0.00e+00	0	22	0	471859200	63	4315
2026-01-12 23:41:46.52	29.17	15.02	-48.9	-50.3	15.1	0.00e+00	0	22	0	475004928	63	4370
2026-01-12 23:41:47.53	29.24	15.12	-49.0	-50.4	15.1	0.00e+00	0	22	0	478150656	63	4404
2026-01-12 23:41:48.53	29.32	15.22	-49.0	-50.4	15.0	0.00e+00	0	22	0	481296384	63	4420
2026-01-12 23:41:49.53	29.39	15.32	-49.0	-50.4	15.1	0.00e+00	0	22	0	484442112	63	4412
2026-01-12 23:41:50.52	29.46	15.42	-49.0	-50.3	15.1	0.00e+00	0	22	0	487587840	63	4391
2026-01-12 23:41:51.53	29.54	15.52	-49.0	-50.4	15.0	0.00e+00	0	22	0	490733568	63	4423
2026-01-12 23:41:52.53	29.61	15.63	-48.9	-50.3	15.1	0.00e+00	0	22	0	493879296	63	4366
2026-01-12 23:41:53.53	29.69	15.73	-49.0	-50.4	15.1	0.00e+00	0	22	0	497025024	63	4395
2026-01-12 23:41:54.53	29.76	15.83	-49.1	-50.5	15.0	0.00e+00	0	22	0	500170752	63	4461
2026-01-12 23:41:55.53	29.84	15.93	-48.9	-50.3	15.1	0.00e+00	0	22	0	503316480	63	4354
2026-01-12 23:41:56.53	29.91	16.04	-48.9	-50.3	15.1	0.00e+00	0	22	0	506462208	63	4346
2026-01-12 23:41:57.53	29.99	16.14	-48.9	-50.3	15.1	0.00e+00	0	22	0	509607936	63	4358
2026-01-12 23:41:58.53	30.07	16.25	-48.9	-50.3	15.1	0.00e+00	0	22	0	512753664	63	4359
2026-01-12 23:41:59.53	30.14	16.35	-49.0	-50.4	15.1	0.00e+00	0	22	0	515899392	63	4400
2026-01-12 23:42:00.53	30.22	16.46	-48.8	-50.2	15.2	0.00e+00	0	22	0	519045120	63	4302
2026-01-12 23:42:01.53	30.30	16.56	-49.0	-50.4	15.1	0.00e+00	0	22	0	522190848	63	4392
2026-01-12 23:42:02.54	30.38	16.67	-48.9	-50.3	15.1	0.00e+00	0	22	0	525336576	63	4355
2026-01-12 23:42:03.54	30.46	16.77	-48.9	-50.2	15.1	0.00e+00	0	22	0	528482304	63	4335
2026-01-12 23:42:04.53	30.54	16.88	-49.0	-50.4	15.1	0.00e+00	0	22	0	531628032	63	4394
2026-01-12 23:42:05.52	30.62	16.99	-49.1	-50.4	15.1	0.00e+00	0	22	0	534773760	63	4415
2026-01-12 23:42:06.52	30.70	17.09	-49.0	-50.4	15.1	0.00e+00	0	22	0	537919488	63	4405
2026-01-12 23:42:07.52	30.78	17.20	-49.1	-50.5	15.0	0.00e+00	0	22	0	541065216	63	4468
2026-01-12 23:42:08.52	30.86	17.31	-48.9	-50.3	15.1	0.00e+00	0	22	0	544210944	63	4360
2026-01-12 23:42:09.52	30.95	17.42	-49.0	-50.4	15.0	0.00e+00	0	22	0	547356672	63	4412
2026-01-12 23:42:10.53	31.03	17.53	-49.0	-50.3	15.1	0.00e+00	0	22	0	550502400	63	4389
2026-01-12 23:42:11.53	31.11	17.64	-48.9	-50.3	15.1	0.00e+00	0	22	0	553648128	63	4341
2026-01-12 23:42:12.54	31.20	17.75	-48.8	-50.1	15.2	0.00e+00	0	22	0	556793856	63	4287
2026-01-12 23:42:13.54	31.28	17.86	-48.9	-50.2	15.2	0.00e+00	0	22	0	559939584	63	4308
2026-01-12 23:42:14.55	31.37	17.97	-48.9	-50.2	15.2	0.00e+00	0	22	0	563085312	63	4310
2026-01-12 23:42:15.55	31.46	18.09	-48.9	-50.3	15.2	0.00e+00	0	22	0	566231040	63	4350
2026-01-12 23:42:16.56	31.55	18.20	-48.8	-50.1	15.2	0.00e+00	0	22	0	569376768	63	4281
2026-01-12 23:42:17.56	31.63	18.31	-48.7	-50.0	15.3	0.00e+00	0	22	0	572522496	63	4226
2026-01-12 23:42:18.55	31.72	18.42	-48.8	-50.1	15.2	0.00e+00	0	22	0	575668224	63	4263
2026-01-12 23:42:19.56	31.81	18.54	-48.8	-50.2	15.2	0.00e+00	0	22	0	578813952	63	4292
2026-01-12 23:42:20.56	31.90	18.65	-48.7	-50.0	15.2	0.00e+00	0	22	0	581959680	63	4234
2026-01-12 23:42:21.55	31.99	18.77	-48.7	-50.0	15.3	0.00e+00	0	22	0	585105408	63	4227
2026-01-12 23:42:22.55	32.08	18.88	-48.8	-50.1	15.2	0.00e+00	0	22	0	588251136	63	4274
2026-01-12 23:42:23.54	32.17	18.99	-48.7	-50.1	15.2	0.00e+00	0	22	0	590348288	63	4244
2026-01-12 23:42:24.54	32.26	19.11	-48.8	-50.1	15.2	0.00e+00	0	22	0	593494016	63	4268
2026-01-12 23:42:25.54	32.35	19.23	-48.7	-50.0	15.3	0.00e+00	0	22	0	596639744	63	4209
2026-01-12 23:42:26.54	32.45	19.34	-48.7	-50.0	15.3	0.00e+00	0	22	0	599785472	63	4220
2026-01-12 23:42:27.54	32.54	19.46	-48.8	-50.1	15.2	0.00e+00	0	22	0	602931200	63	4252
2026-01-12 23:42:28.54	32.64	19.58	-48.6	-49.9	15.3	0.00e+00	0	22	0	606076928	63	4159
2026-01-12 23:42:29.55	32.73	19.70	-48.5	-49.8	15.4	0.00e+00	0	22	0	609222656	63	4130
2026-01-12 23:42:30.55	32.83	19.82	-48.6	-49.9	15.3	0.00e+00	0	22	0	612368384	63	4174
2026-01-12 23:42:31.55	32.93	19.93	-48.6	-49.9	15.3	0.00e+00	0	22	0	615514112	63	4182
2026-01-12 23:42:32.54	33.02	20.05	-48.5	-49.7	15.4	0.00e+00	0	22	0	618659840	63	4085
2026-01-12 23:42:33.54	33.12	20.17	-48.3	-49.5	15.5	0.00e+00	0	22	0	621805568	63	4000
2026-01-12 23:42:34.54	33.22	20.29	-48.1	-49.3	15.5	0.00e+00	0	22	0	624951296	62	4126
2026-01-12 23:42:35.54	33.32	20.42	-48.0	-49.2	15.5	0.00e+00	0	22	0	628097024	62	4096
2026-01-12 23:42:36.54	33.42	20.54	-48.0	-49.2	15.5	0.00e+00	0	22	0	631242752	62	4062
2026-01-12 23:42:37.54	33.52	20.66	-47.8	-49.1	15.6	0.00e+00	0	22	0	634388480	62	4010
2026-01-12 23:42:38.55	33.63	20.78	-47.8	-49.0	15.6	0.00e+00	0	22	0	637534208	62	3982
2026-01-12 23:42:39.56	33.73	20.91	-47.8	-49.0	15.6	0.00e+00	0	22	0	640679936	62	3973
2026-01-12 23:42:40.56	33.83	21.03	-47.8	-49.0	15.6	0.00e+00	0	22	0	643825664	62	3979
2026-01-12 23:42:41.56	33.94	21.16	-47.8	-49.0	15.6	0.00e+00	0	22	0	646971392	62	3998
2026-01-12 23:42:42.57	34.04	21.28	-47.7	-48.9	15.7	0.00e+00	0	22	0	650117120	62	3936
2026-01-12 23:42:43.57	34.15	21.41	-47.8	-49.0	15.6	0.00e+00	0	22	0	653262848	62	3963
2026-01-12 23:42:44.57	34.26	21.53	-47.8	-48.9	15.6	0.00e+00	0	22	0	656408576	62	3957
2026-01-12 23:42:45.57	34.36	21.66	-47.6	-48.8	15.6	0.00e+00	0	22	0	659554304	61	4122
2026-01-12 23:42:46.57	34.47	21.79	-47.6	-48.8	15.6	0.00e+00	0	22	0	662700032	61	4110
2026-01-12 23:42:47.57	34.58	21.91	-47.6	-48.8	15.6	0.00e+00	0	22	0	665845760	61	4102
2026-01-12 23:42:48.57	34.69	22.04	-47.5	-48.7	15.6	0.00e+00	0	22	0	668991488	61	4079
2026-01-12 23:42:49.57	34.80	22.17	-47.6	-48.8	15.5	0.00e+00	0	22	0	672137216	61	4125
2026-01-12 23:42:50.57	34.92	22.30	-47.6	-48.8	15.6	0.00e+00	0	22	0	675282944	61	4102
2026-01-12 23:42:51.57	35.03	22.43	-47.5	-48.7	15.6	0.00e+00	0	22	0	678428672	61	4084
2026-01-12 23:42:52.57	35.14	22.56	-47.5	-48.7	15.6	0.00e+00	0	22	0	681574400	61	4067
2026-01-12 23:42:53.56	35.26	22.69	-47.4	-48.6	15.6	0.00e+00	0	22	0	684720128	61	4026
2026-01-12 23:42:54.57	35.37	22.82	-47.4	-48.6	15.7	0.00e+00	0	22	0	687865856	61	4006
2026-01-12 23:42:55.57	35.49	22.95	-47.3	-48.4	15.7	0.00e+00	0	22	0	691011584	61	3955
2026-01-12 23:42:56.57	35.61	23.08	-47.3	-48.5	15.7	0.00e+00	0	22	0	694157312	61	3975
2026-01-12 23:42:57.57	35.73	23.22	-47.4	-48.6	15.6	0.00e+00	0	22	0	697303040	61	4034
2026-01-12 23:42:58.57	35.85	23.35	-47.5	-48.6	15.6	0.00e+00	0	22	0	700448768	61	4041
2026-01-12 23:42:59.58	35.97	23.49	-47.6	-48.8	15.6	0.00e+00	0	22	0	703594496	61	4116
2026-01-12 23:43:00.57	36.09	23.62	-47.6	-48.8	15.6	0.00e+00	0	22	0	706740224	61	4114
2026-01-12 23:43:01.57	36.21	23.76	-47.6	-48.8	15.5	0.00e+00	0	22	0	709885952	61	4142
2026-01-12 23:43:02.56	36.33	23.89	-47.6	-48.8	15.6	0.00e+00	0	22	0	713031680	61	4120
2026-01-12 23:43:03.57	36.46	24.03	-47.7	-48.9	15.5	0.00e+00	0	22	0	716177408	61	4157
2026-01-12 23:43:04.56	36.58	24.16	-47.8	-49.0	15.5	0.00e+00	0	22	0	719323136	61	4223
2026-01-12 23:43:05.56	36.71	24.30	-47.8	-49.0	15.4	0.00e+00	0	22	0	722468864	61	4218
2026-01-12 23:43:06.55	36.84	24.44	-47.8	-49.0	15.4	0.00e+00	0	22	0	725614592	61	4229
2026-01-12 23:43:07.55	36.97	24.58	-47.7	-48.9	15.5	0.00e+00	0	22	0	728760320	61	4170
2026-01-12 23:43:08.55	37.10	24.72	-47.8	-49.0	15.5	0.00e+00	0	22	0	731906048	61	4200
2026-01-12 23:43:09.55	37.23	24.86	-47.8	-49.0	15.5	0.00e+00	0	22	0	735051776	61	4227
2026-01-12 23:43:10.55	37.36	25.00	-47.9	-49.1	15.4	0.00e+00	0	22	0	738197504	61	4258
2026-01-12 23:43:11.55	37.49	25.14	-47.9	-49.2	15.4	0.00e+00	0	22	0	741343232	61	4302
2026-01-12 23:43:12.55	37.63	25.28	-48.1	-49.3	15.3	0.00e+00	0	22	0	744488960	61	4369
2026-01-12 23:43:13.55	37.76	25.42	-48.1	-49.4	15.3	0.00e+00	0	22	0	747634688	61	4396
2026-01-12 23:43:14.55	37.90	25.57	-48.3	-49.6	15.2	0.00e+00	0	22	0	750780416	61	4512
2026-01-12 23:43:15.55	38.04	25.71	-48.3	-49.5	15.3	0.00e+00	0	22	0	752877568	61	4472
2026-01-12 23:43:16.55	38.18	25.85	-48.3	-49.5	15.3	0.00e+00	0	22	0	757071872	61	4486
2026-01-12 23:43:17.55	38.32	26.00	-48.3	-49.6	15.2	0.00e+00	0	22	0	759169024	61	4508
2026-01-12 23:43:18.55	38.46	26.14	-48.3	-49.6	15.2	0.00e+00	0	22	0	762314752	61	4498
2026-01-12 23:43:19.55	38.60	26.29	-48.3	-49.5	15.2	0.00e+00	0	22	0	765460480	61	4493
2026-01-12 23:43:20.54	38.74	26.43	-48.3	-49.6	15.2	0.00e+00	0	22	0	768606208	61	4516
2026-01-12 23:43:21.53	38.89	26.58	-48.3	-49.6	15.3	0.00e+00	0	22	0	771751936	61	4501
2026-01-12 23:43:22.53	39.04	26.73	-48.4	-49.7	15.2	0.00e+00	0	22	0	774897664	61	4559
2026-01-12 23:43:23.53	39.18	26.88	-48.5	-49.7	15.3	0.00e+00	0	22	0	778043392	62	4339
2026-01-12 23:43:24.53	39.33	27.03	-48.5	-49.8	15.2	0.00e+00	0	22	0	781189120	62	4378
2026-01-12 23:43:25.53	39.48	27.18	-48.6	-49.9	15.2	0.00e+00	0	22	0	784334848	62	4422
2026-01-12 23:43:26.53	39.64	27.33	-48.7	-50.0	15.2	0.00e+00	0	22	0	787480576	62	4462
2026-01-12 23:43:27.53	39.79	27.48	-48.8	-50.1	15.1	0.00e+00	0	22	0	790626304	62	4528
2026-01-12 23:43:28.53	39.95	27.63	-48.7	-50.0	15.1	0.00e+00	0	22	0	793772032	62	4487
2026-01-12 23:43:29.53	40.10	27.78	-48.7	-50.0	15.2	0.00e+00	0	22	0	796917760	62	4458
2026-01-12 23:43:30.53	40.26	27.93	-48.6	-49.9	15.2	0.00e+00	0	22	0	800063488	62	4412
2026-01-12 23:43:31.52	40.42	28.09	-48.5	-49.7	15.3	0.00e+00	0	22	0	803209216	62	4321
2026-01-12 23:43:32.52	40.58	28.24	-48.4	-49.7	15.3	0.00e+00	0	22	0	806354944	62	4297
2026-01-12 23:43:33.52	40.74	28.39	-48.4	-49.6	15.3	0.00e+00	0	22	0	809500672	62	4287
2026-01-12 23:43:34.51	40.90	28.55	-48.5	-49.7	15.3	0.00e+00	0	22	0	812646400	62	4331
2026-01-12 23:43:35.51	41.07	28.70	-48.4	-49.7	15.3	0.00e+00	0	22	0	815792128	62	4306
2026-01-12 23:43:36.50	41.23	28.86	-48.5	-49.7	15.3	0.00e+00	0	22	0	818937856	62	4329
2026-01-12 23:43:37.49	41.40	29.01	-48.6	-49.9	15.2	0.00e+00	0	22	0	822083584	62	4403
2026-01-12 23:43:38.49	41.57	29.17	-48.7	-49.9	15.2	0.00e+00	0	22	0	825229312	62	4434
2026-01-12 23:43:39.50	41.75	29.33	-48.7	-49.9	15.2	0.00e+00	0	22	0	828375040	62	4436
2026-01-12 23:43:40.49	41.92	29.49	-48.5	-49.7	15.3	0.00e+00	0	22	0	831520768	62	4326
2026-01-12 23:43:41.48	42.09	29.65	-48.6	-49.8	15.3	0.00e+00	0	22	0	834666496	62	4381
2026-01-12 23:43:42.48	42.27	29.81	-48.5	-49.8	15.3	0.00e+00	0	22	0	837812224	62	4346
2026-01-12 23:43:43.48	42.45	29.97	-48.6	-49.9	15.2	0.00e+00	0	22	0	840957952	62	4393
2026-01-12 23:43:44.47	42.63	30.13	-48.5	-49.7	15.3	0.00e+00	0	22	0	844103680	62	4338
2026-01-12 23:43:45.47	42.81	30.29	-48.7	-50.0	15.2	0.00e+00	0	22	0	847249408	62	4454
2026-01-12 23:43:46.47	42.99	30.45	-48.7	-50.0	15.2	0.00e+00	0	22	0	850395136	62	4449
2026-01-12 23:43:47.47	43.18	30.62	-48.8	-50.1	15.2	0.00e+00	0	22	0	853540864	62	4494
2026-01-12 23:43:48.46	43.36	30.78	-48.9	-50.2	15.1	0.00e+00	0	22	0	856686592	62	4556
2026-01-12 23:43:49.46	43.55	30.94	-48.9	-50.3	15.2	0.00e+00	0	22	0	859832320	63	4345
2026-01-12 23:43:50.46	43.74	31.11	-48.9	-50.2	15.2	0.00e+00	0	22	0	862978048	63	4309
2026-01-12 23:43:51.46	43.94	31.28	-48.7	-50.0	15.3	0.00e+00	0	22	0	866123776	63	4213
2026-01-12 23:43:52.47	44.13	31.44	-48.5	-49.8	15.4	0.00e+00	0	22	0	869269504	63	4115
2026-01-12 23:43:53.47	44.33	31.61	-48.4	-49.7	15.4	0.00e+00	0	22	0	871366656	63	4072
2026-01-12 23:43:54.47	44.53	31.78	-48.5	-49.7	15.4	0.00e+00	0	22	0	874512384	63	4092
2026-01-12 23:43:55.47	44.73	31.95	-48.4	-49.6	15.5	0.00e+00	0	22	0	877658112	63	4032
2026-01-12 23:43:56.46	44.93	32.11	-48.5	-49.8	15.4	0.00e+00	0	22	0	880803840	63	4122
2026-01-12 23:43:57.46	45.14	32.28	-48.6	-49.9	15.4	0.00e+00	0	22	0	883949568	63	4158
2026-01-12 23:43:58.47	45.35	32.45	-48.7	-50.0	15.3	0.00e+00	0	22	0	887095296	63	4224
2026-01-12 23:43:59.46	45.56	32.62	-48.9	-50.2	15.2	0.00e+00	0	22	0	890241024	63	4322
2026-01-12 23:44:00.46	45.77	32.79	-48.9	-50.2	15.2	0.00e+00	0	22	0	893386752	63	4321
2026-01-12 23:44:01.46	45.98	32.97	-48.9	-50.2	15.2	0.00e+00	0	22	0	896532480	63	4323
2026-01-12 23:44:02.46	46.20	33.14	-48.9	-50.2	15.2	0.00e+00	0	22	0	899678208	63	4336
2026-01-12 23:44:03.46	46.42	33.31	-48.8	-50.1	15.3	0.00e+00	0	22	0	902823936	63	4243
2026-01-12 23:44:04.47	46.64	33.49	-48.6	-49.9	15.4	0.00e+00	0	22	0	905969664	63	4167
2026-01-12 23:44:05.46	46.86	33.66	-48.5	-49.8	15.4	0.00e+00	0	22	0	909115392	63	4099
2026-01-12 23:44:06.46	47.09	33.83	-48.4	-49.7	15.5	0.00e+00	0	22	0	912261120	63	4059
2026-01-12 23:44:07.46	47.31	34.01	-48.6	-49.9	15.4	0.00e+00	0	22	0	915406848	63	4166
2026-01-12 23:44:08.45	47.54	34.18	-48.9	-50.1	15.2	0.00e+00	0	22	0	918552576	63	4289
2026-01-12 23:44:09.45	47.77	34.36	-49.0	-50.3	15.1	0.00e+00	0	22	0	921698304	63	4388
2026-01-12 23:44:10.45	48.01	34.53	-49.3	-50.6	15.0	0.00e+00	0	22	0	924844032	63	4536
2026-01-12 23:44:11.45	48.25	34.71	-49.4	-50.7	15.0	0.00e+00	0	22	0	927989760	63	4588
2026-01-12 23:44:12.45	48.49	34.89	-49.2	-50.5	15.1	0.00e+00	0	22	0	931135488	63	4477
2026-01-12 23:44:13.44	48.73	35.06	-49.1	-50.4	15.1	0.00e+00	0	22	0	934281216	63	4431
2026-01-12 23:44:14.44	48.97	35.24	-49.2	-50.5	15.1	0.00e+00	0	22	0	937426944	63	4456
2026-01-12 23:44:15.44	49.22	35.42	-49.2	-50.5	15.1	0.00e+00	0	22	0	940572672	63	4474
2026-01-12 23:44:16.44	49.47	35.60	-49.3	-50.7	15.0	0.00e+00	0	22	0	943718400	63	4546
2026-01-12 23:44:17.44	49.72	35.78	-49.5	-50.8	15.1	0.00e+00	0	22	0	946864128	64	4369
2026-01-12 23:44:18.44	49.98	35.96	-49.5	-50.9	15.0	0.00e+00	0	22	0	950009856	64	4428
2026-01-12 23:44:19.44	50.24	36.14	-49.7	-51.1	14.9	0.00e+00	0	22	0	953155584	64	4528
2026-01-12 23:44:20.43	50.50	36.32	-49.7	-51.1	14.9	0.00e+00	0	22	0	956301312	64	4523
2026-01-12 23:44:21.44	50.77	36.50	-49.8	-51.2	14.8	0.00e+00	0	22	0	959447040	64	4596
2026-01-12 23:44:22.45	51.04	36.68	-49.9	-51.4	14.9	0.00e+00	0	22	0	962592768	65	4414
2026-01-12 23:44:23.44	51.30	36.86	-50.1	-51.6	14.8	0.00e+00	0	22	0	965738496	65	4497
2026-01-12 23:44:24.44	51.58	37.04	-50.2	-51.7	14.7	0.00e+00	0	22	0	968884224	65	4597
2026-01-12 23:44:25.44	51.85	37.22	-50.3	-51.7	14.7	0.00e+00	0	22	0	972029952	65	4597
2026-01-12 23:44:26.43	52.13	37.41	-50.2	-51.7	14.7	0.00e+00	0	22	0	975175680	65	4563
2026-01-12 23:44:27.43	52.41	37.59	-50.2	-51.7	14.7	0.00e+00	0	22	0	978321408	65	4573
2026-01-12 23:44:28.42	52.70	37.77	-50.4	-51.9	14.6	0.00e+00	0	22	0	981467136	65	4685
2026-01-12 23:44:29.42	52.98	37.95	-50.5	-52.0	14.7	0.00e+00	0	22	0	984612864	66	4449
2026-01-12 23:44:30.41	53.27	38.13	-50.5	-52.0	14.7	0.00e+00	0	22	0	987758592	66	4465
2026-01-12 23:44:31.41	53.57	38.32	-50.5	-52.0	14.7	0.00e+00	0	22	0	990904320	66	4456
2026-01-12 23:44:32.42	53.87	38.50	-50.4	-51.9	14.8	0.00e+00	0	22	0	994050048	66	4424
2026-01-12 23:44:33.41	54.17	38.68	-50.5	-52.0	14.7	0.00e+00	0	22	0	997195776	66	4452
2026-01-12 23:44:34.41	54.47	38.87	-50.4	-51.9	14.7	0.00e+00	0	22	0	1000341504	66	4437
2026-01-12 23:44:35.41	54.78	39.05	-50.4	-51.9	14.8	0.00e+00	0	22	0	1003487232	66	4412
2026-01-12 23:44:36.40	55.09	39.23	-50.6	-52.1	14.6	0.00e+00	0	22	0	1005584384	66	4513
2026-01-12 23:44:37.40	55.41	39.42	-50.5	-52.0	14.7	0.00e+00	0	22	0	1008730112	66	4491
2026-01-12 23:44:38.40	55.73	39.60	-50.5	-52.0	14.7	0.00e+00	0	22	0	1011875840	66	4493
2026-01-12 23:44:39.40	56.05	39.79	-50.5	-52.0	14.7	0.00e+00	0	22	0	1015021568	66	4447
2026-01-12 23:44:40.41	56.38	39.97	-50.5	-52.0	14.7	0.00e+00	0	22	0	1018167296	66	4488
2026-01-12 23:44:41.42	56.71	40.16	-50.5	-52.0	14.7	0.00e+00	0	22	0	1021313024	66	4471
2026-01-12 23:44:42.41	57.04	40.34	-50.6	-52.1	14.7	0.00e+00	0	22	0	1024458752	66	4522
2026-01-12 23:44:43.41	57.38	40.52	-50.6	-52.2	14.6	0.00e+00	0	22	0	1027604480	66	4549
2026-01-12 23:44:44.42	57.72	40.71	-50.6	-52.1	14.7	0.00e+00	0	22	0	1030750208	66	4504
2026-01-12 23:44:45.41	58.07	40.89	-50.6	-52.2	14.6	0.00e+00	0	22	0	1033895936	66	4547
2026-01-12 23:44:46.42	58.42	41.08	-50.6	-52.2	14.6	0.00e+00	0	22	0	1037041664	66	4551
2026-01-12 23:44:47.43	58.78	41.26	-50.8	-52.4	14.5	0.00e+00	0	22	0	1040187392	66	4665
2026-01-12 23:44:48.43	59.13	41.44	-51.0	-52.6	14.6	0.00e+00	0	22	0	1043333120	67	4497
2026-01-12 23:44:49.43	59.49	41.63	-51.0	-52.6	14.5	0.00e+00	0	22	0	1046478848	67	4523
2026-01-12 23:44:50.42	59.86	41.81	-51.2	-52.8	14.4	0.00e+00	0	22	0	1049624576	67	4623
2026-01-12 23:44:51.43	60.23	41.99	-51.1	-52.7	14.4	0.00e+00	0	22	0	1052770304	67	4593
2026-01-12 23:44:52.42	60.60	42.17	-51.3	-53.0	14.3	0.00e+00	0	22	0	1055916032	67	4708
2026-01-12 23:44:53.42	60.97	42.35	-51.2	-52.9	14.3	0.00e+00	0	22	0	1059061760	67	4665
2026-01-12 23:44:54.41	61.35	42.53	-51.6	-53.3	14.3	0.00e+00	0	22	0	1062207488	68	4601
2026-01-12 23:44:55.41	61.74	42.71	-51.7	-53.4	14.2	0.00e+00	0	22	0	1065353216	68	4704
2026-01-12 23:44:56.41	62.13	42.89	-51.5	-53.2	14.3	0.00e+00	0	22	0	1068498944	68	4572
2026-01-12 23:44:57.42	62.53	43.07	-51.3	-53.0	14.4	0.00e+00	0	22	0	1071644672	68	4453
2026-01-12 23:44:58.42	62.93	43.25	-51.5	-53.1	14.4	0.00e+00	0	22	0	1074790400	68	4535
2026-01-12 23:44:59.42	63.33	43.42	-51.2	-52.9	14.5	0.00e+00	0	22	0	1077936128	68	4399
2026-01-12 23:45:00.42	63.74	43.60	-50.9	-52.4	14.8	0.00e+00	0	22	0	1081081856	68	4179
2026-01-12 23:45:01.42	64.15	43.78	-50.9	-52.4	14.8	0.00e+00	0	22	0	1084227584	68	4191
2026-01-12 23:45:02.42	64.57	43.95	-51.0	-52.5	14.8	0.00e+00	0	22	0	1087373312	68	4219
2026-01-12 23:45:03.42	64.99	44.13	-51.2	-52.8	14.6	0.00e+00	0	22	0	1090519040	68	4353
2026-01-12 23:45:04.43	65.42	44.30	-51.5	-53.2	14.4	0.00e+00	0	22	0	1093664768	68	4573
2026-01-12 23:45:05.42	65.84	44.47	-51.6	-53.4	14.3	0.00e+00	0	22	0	1096810496	68	4655
2026-01-12 23:45:06.43	66.28	44.65	-51.4	-53.0	14.4	0.00e+00	0	22	0	1099956224	68	4488
2026-01-12 23:45:07.42	66.72	44.81	-51.3	-52.9	14.5	0.00e+00	0	22	0	1103101952	68	4425
2026-01-12 23:45:08.42	67.16	44.98	-51.2	-52.8	14.6	0.00e+00	0	22	0	1106247680	68	4379
2026-01-12 23:45:09.42	67.61	45.15	-51.4	-53.0	14.5	0.00e+00	0	22	0	1109393408	68	4482
2026-01-12 23:45:10.41	68.06	45.32	-51.5	-53.2	14.4	0.00e+00	0	22	0	1112539136	68	4559
2026-01-12 23:45:11.42	68.52	45.48	-51.4	-53.1	14.4	0.00e+00	0	22	0	1115684864	68	4520
2026-01-12 23:45:12.42	68.99	45.65	-51.4	-53.1	14.4	0.00e+00	0	22	0	1118830592	68	4517
2026-01-12 23:45:13.41	69.45	45.81	-51.4	-53.0	14.5	0.00e+00	0	22	0	1121976320	68	4483
2026-01-12 23:45:14.41	69.92	45.97	-51.2	-52.8	14.6	0.00e+00	0	22	0	1125122048	68	4368
2026-01-12 23:45:15.41	70.40	46.13	-51.0	-52.6	14.7	0.00e+00	0	22	0	1128267776	68	4248
2026-01-12 23:45:16.41	70.88	46.29	-51.0	-52.5	14.8	0.00e+00	0	22	0	1131413504	68	4215
2026-01-12 23:45:17.42	71.37	46.45	-51.0	-52.6	14.7	0.00e+00	0	22	0	1134559232	68	4243
2026-01-12 23:45:18.42	71.86	46.60	-51.2	-52.8	14.6	0.00e+00	0	22	0	1137704960	68	4346
2026-01-12 23:45:19.42	72.36	46.76	-51.1	-52.7	14.7	0.00e+00	0	22	0	1140850688	68	4313
2026-01-12 23:45:20.41	72.86	46.91	-51.3	-53.0	14.5	0.00e+00	0	22	0	1143996416	68	4448
2026-01-12 23:45:21.42	73.37	47.06	-51.3	-53.0	14.5	0.00e+00	0	22	0	1147142144	68	4454
2026-01-12 23:45:22.43	73.89	47.21	-51.1	-52.7	14.7	0.00e+00	0	22	0	1150287872	68	4313
2026-01-12 23:45:23.42	74.40	47.35	-50.9	-52.5	14.8	0.00e+00	0	22	0	1153433600	68	4199
2026-01-12 23:45:24.42	74.92	47.49	-50.7	-52.2	15.0	0.00e+00	0	22	0	1156579328	68	4052
2026-01-12 23:45:25.42	75.44	47.64	-50.4	-51.8	15.0	0.00e+00	0	22	0	1159725056	67	4127
2026-01-12 23:45:26.42	75.97	47.78	-50.1	-51.5	15.1	0.00e+00	0	22	0	1162870784	67	3996
2026-01-12 23:45:27.42	76.51	47.91	-50.1	-51.5	15.0	0.00e+00	0	22	0	1164967936	66	4204
2026-01-12 23:45:28.42	77.05	48.05	-50.3	-51.7	14.9	0.00e+00	0	22	0	1168113664	66	4313
2026-01-12 23:45:29.42	77.59	48.18	-50.5	-52.0	14.7	0.00e+00	0	22	0	1171259392	66	4453
2026-01-12 23:45:30.41	78.14	48.31	-50.6	-52.1	14.7	0.00e+00	0	22	0	1174405120	66	4494
2026-01-12 23:45:31.40	78.68	48.44	-50.4	-51.9	14.8	0.00e+00	0	22	0	1177550848	66	4392
2026-01-12 23:45:32.40	79.24	48.57	-50.0	-51.4	15.0	0.00e+00	0	22	0	1180696576	66	4186
2026-01-12 23:45:33.39	79.80	48.69	-50.0	-51.4	15.0	0.00e+00	0	22	0	1183842304	66	4173
2026-01-12 23:45:34.40	80.37	48.81	-50.1	-51.5	14.9	0.00e+00	0	22	0	1186988032	66	4231
2026-01-12 23:45:35.39	80.94	48.93	-50.3	-51.7	14.9	0.00e+00	0	22	0	1190133760	66	4330
2026-01-12 23:45:36.39	81.51	49.04	-50.2	-51.7	14.9	0.00e+00	0	22	0	1193279488	66	4295
2026-01-12 23:45:37.39	82.09	49.16	-50.3	-51.8	14.9	0.00e+00	0	22	0	1196425216	66	4342
2026-01-12 23:45:38.38	82.67	49.26	-50.5	-52.0	14.7	0.00e+00	0	22	0	1199570944	66	4478
2026-01-12 23:45:39.37	83.25	49.37	-50.7	-52.2	14.6	0.00e+00	0	22	0	1202716672	66	4574
2026-01-12 23:45:40.37	83.85	49.48	-50.6	-52.2	14.6	0.00e+00	0	22	0	1205862400	66	4573
2026-01-12 23:45:41.38	84.45	49.58	-50.4	-51.9	14.8	0.00e+00	0	22	0	1209008128	66	4392
2026-01-12 23:45:42.37	85.04	49.67	-50.3	-51.8	14.9	0.00e+00	0	22	0	1212153856	66	4353
2026-01-12 23:45:43.37	85.65	49.77	-50.3	-51.8	14.8	0.00e+00	0	22	0	1215299584	66	4353
2026-01-12 23:45:44.37	86.26	49.86	-50.7	-52.2	14.6	0.00e+00	0	22	0	1218445312	66	4578
2026-01-12 23:45:45.37	86.87	49.95	-50.4	-51.8	14.8	0.00e+00	0	22	0	1221591040	66	4387
2026-01-12 23:45:46.37	87.48	50.04	-50.2	-51.6	15.0	0.00e+00	0	22	0	1224736768	66	4275
2026-01-12 23:45:47.37	88.10	50.12	-50.2	-51.6	15.0	0.00e+00	0	22	0	1227882496	66	4265
2026-01-12 23:45:48.37	88.72	50.20	-50.4	-51.8	14.8	0.00e+00	0	22	0	1231028224	66	4383
2026-01-12 23:45:49.36	89.34	50.27	-50.5	-52.0	14.7	0.00e+00	0	22	0	1234173952	66	4487
2026-01-12 23:45:50.37	89.97	50.34	-50.5	-52.0	14.7	0.00e+00	0	22	0	1237319680	66	4468
2026-01-12 23:45:51.36	90.60	50.41	-50.5	-52.0	14.7	0.00e+00	0	22	0	1240465408	66	4476
2026-01-12 23:45:52.36	91.23	50.48	-50.3	-51.7	14.9	0.00e+00	0	22	0	1243611136	66	4317
2026-01-12 23:45:53.35	91.86	50.54	-50.1	-51.6	15.0	0.00e+00	0	22	0	1246756864	66	4249
2026-01-12 23:45:54.36	92.51	50.60	-50.3	-51.8	14.9	0.00e+00	0	22	0	1249902592	66	4341
2026-01-12 23:45:55.35	93.14	50.65	-50.0	-51.4	15.0	0.00e+00	0	22	0	1253048320	66	4162
2026-01-12 23:45:56.35	93.78	50.70	-50.1	-51.6	15.0	0.00e+00	0	22	0	1256194048	66	4250
2026-01-12 23:45:57.35	94.43	50.75	-50.3	-51.8	14.9	0.00e+00	0	22	0	1259339776	66	4355
2026-01-12 23:45:58.34	95.07	50.79	-50.4	-51.9	14.8	0.00e+00	0	22	0	1262485504	66	4414
2026-01-12 23:45:59.34	95.72	50.83	-50.2	-51.6	14.9	0.00e+00	0	22	0	1265631232	66	4260
2026-01-12 23:46:00.34	96.37	50.87	-49.8	-51.1	15.2	0.00e+00	0	22	0	1268776960	66	4043
2026-01-12 23:46:01.34	97.02	50.90	-49.4	-50.8	15.3	0.00e+00	0	22	0	1271922688	65	4100
2026-01-12 23:46:02.34	97.68	50.93	-49.6	-50.9	15.2	0.00e+00	0	22	0	1274019840	65	4165
2026-01-12 23:46:03.34	98.33	50.95	-49.9	-51.3	14.9	0.00e+00	0	22	0	1277165568	65	4359
2026-01-12 23:46:04.34	98.99	50.97	-49.9	-51.4	14.9	0.00e+00	0	22	0	1280311296	65	4394
2026-01-12 23:46:05.34	99.64	50.99	-49.8	-51.2	15.0	0.00e+00	0	22	0	1283457024	65	4304
2026-01-12 23:46:06.34	100.30	51.00	-49.4	-50.7	15.3	0.00e+00	0	22	0	1286602752	65	4059
2026-01-12 23:46:07.35	100.96	51.01	-49.2	-50.5	15.2	0.00e+00	0	22	0	1289748480	64	4228
2026-01-12 23:46:08.34	101.61	51.02	-49.3	-50.6	15.1	0.00e+00	0	22	0	1292894208	64	4252
2026-01-12 23:46:09.33	102.27	51.02	-49.7	-51.0	15.0	0.00e+00	0	22	0	1296039936	64	4488
2026-01-12 23:46:10.33	102.92	51.02	-50.2	-51.6	14.8	0.00e+00	0	22	0	1299185664	65	4519
2026-01-12 23:46:11.34	103.59	51.01	-50.2	-51.7	14.7	0.00e+00	0	22	0	1302331392	65	4557
2026-01-12 23:46:12.34	104.24	51.00	-50.2	-51.7	14.7	0.00e+00	0	22	0	1305477120	65	4571
2026-01-12 23:46:13.34	104.90	50.98	-50.2	-51.7	14.8	0.00e+00	0	22	0	1308622848	65	4579
2026-01-12 23:46:14.33	105.55	50.97	-50.1	-51.6	14.8	0.00e+00	0	22	0	1311768576	65	4532
2026-01-12 23:46:15.33	106.21	50.94	-50.0	-51.5	14.9	0.00e+00	0	22	0	1314914304	65	4465
2026-01-12 23:46:16.34	106.87	50.92	-50.2	-51.7	14.7	0.00e+00	0	22	0	1318060032	65	4587
2026-01-12 23:46:17.33	107.51	50.89	-50.5	-52.0	14.8	0.00e+00	0	22	0	1321205760	66	4466
2026-01-12 23:46:18.34	108.17	50.86	-50.4	-51.8	14.8	0.00e+00	0	22	0	1324351488	66	4391
2026-01-12 23:46:19.34	108.82	50.82	-50.1	-51.5	15.1	0.00e+00	0	22	0	1327497216	66	4203
2026-01-12 23:46:20.35	109.48	50.78	-49.7	-51.1	15.3	0.00e+00	0	22	0	1330642944	66	4012
2026-01-12 23:46:21.35	110.12	50.73	-49.7	-51.1	15.3	0.00e+00	0	22	0	1333788672	66	4017
2026-01-12 23:46:22.35	110.77	50.68	-49.7	-51.0	15.1	0.00e+00	0	22	0	1336934400	65	4235
2026-01-12 23:46:23.35	111.41	50.63	-49.6	-51.0	15.1	0.00e+00	0	22	0	1340080128	65	4217
2026-01-12 23:46:24.35	112.05	50.57	-49.7	-51.1	15.1	0.00e+00	0	22	0	1343225856	65	4253
2026-01-12 23:46:25.35	112.69	50.52	-49.8	-51.2	15.0	0.00e+00	0	22	0	1346371584	65	4293
2026-01-12 23:46:26.35	113.33	50.45	-49.9	-51.2	15.0	0.00e+00	0	22	0	1349517312	65	4340
2026-01-12 23:46:27.35	113.96	50.39	-49.5	-50.8	15.3	0.00e+00	0	22	0	1352663040	65	4115
2026-01-12 23:46:28.35	114.59	50.32	-49.4	-50.7	15.3	0.00e+00	0	22	0	1355808768	65	4056
2026-01-12 23:46:29.35	115.22	50.24	-49.7	-51.1	15.1	0.00e+00	0	22	0	1358954496	65	4260
2026-01-12 23:46:30.35	115.84	50.16	-50.3	-51.8	14.7	0.00e+00	0	22	0	1362100224	65	4616
2026-01-12 23:46:31.35	116.46	50.08	-50.3	-51.8	14.7	0.00e+00	0	22	0	1365245952	65	4613
2026-01-12 23:46:32.35	117.08	50.00	-50.6	-52.1	14.6	0.00e+00	0	22	0	1368391680	66	4535
2026-01-12 23:46:33.35	117.69	49.91	-50.7	-52.3	14.5	0.00e+00	0	22	0	1371537408	66	4624
2026-01-12 23:46:34.36	118.31	49.82	-50.8	-52.4	14.4	0.00e+00	0	22	0	1374683136	66	4693
2026-01-12 23:46:35.36	118.92	49.73	-51.0	-52.7	14.5	0.00e+00	0	22	0	1377828864	67	4547
2026-01-12 23:46:36.36	119.52	49.63	-50.9	-52.5	14.6	0.00e+00	0	22	0	1380974592	67	4470
2026-01-12 23:46:37.36	120.12	49.53	-51.1	-52.7	14.4	0.00e+00	0	22	0	1384120320	67	4596
2026-01-12 23:46:38.36	120.71	49.43	-51.2	-52.8	14.3	0.00e+00	0	22	0	1387266048	67	4636
2026-01-12 23:46:39.36	121.31	49.32	-51.2	-52.9	14.3	0.00e+00	0	22	0	1390411776	67	4666
2026-01-12 23:46:40.36	121.89	49.22	-50.8	-52.4	14.6	0.00e+00	0	22	0	1393557504	67	4423
2026-01-12 23:46:41.37	122.48	49.10	-50.5	-52.0	14.9	0.00e+00	0	22	0	1396703232	67	4226
2026-01-12 23:46:42.37	123.06	48.99	-50.2	-51.7	15.1	0.00e+00	0	22	0	1399848960	67	4065
2026-01-12 23:46:43.37	123.63	48.87	-50.3	-51.8	14.9	0.00e+00	0	22	0	1402994688	66	4341
2026-01-12 23:46:44.37	124.21	48.75	-50.5	-52.0	14.7	0.00e+00	0	22	0	1406140416	66	4478
2026-01-12 23:46:45.37	124.77	48.63	-50.8	-52.4	14.5	0.00e+00	0	22	0	1409286144	66	4681
2026-01-12 23:46:46.37	125.33	48.50	-51.1	-52.7	14.4	0.00e+00	0	22	0	1412431872	67	4588
2026-01-12 23:46:47.36	125.88	48.38	-51.0	-52.6	14.5	0.00e+00	0	22	0	1415577600	67	4529
2026-01-12 23:46:48.36	126.44	48.25	-51.0	-52.7	14.5	0.00e+00	0	22	0	1418723328	67	4558
2026-01-12 23:46:49.37	126.99	48.11	-50.7	-52.2	14.7	0.00e+00	0	22	0	1421869056	67	4305
2026-01-12 23:46:50.37	127.53	47.98	-50.7	-52.3	14.7	0.00e+00	0	22	0	1425014784	67	4343
2026-01-12 23:46:51.37	128.07	47.84	-50.9	-52.5	14.6	0.00e+00	0	22	0	1428160512	67	4452
2026-01-12 23:46:52.36	128.60	47.71	-51.2	-52.8	14.3	0.00e+00	0	22	0	1431306240	67	4629
2026-01-12 23:46:53.37	129.13	47.56	-51.6	-53.3	14.3	0.00e+00	0	22	0	1434451968	68	4613
2026-01-12 23:46:54.37	129.66	47.42	-51.5	-53.2	14.3	0.00e+00	0	22	0	1437597696	68	4569
2026-01-12 23:46:55.38	130.18	47.27	-51.5	-53.2	14.3	0.00e+00	0	22	0	1440743424	68	4548
2026-01-12 23:46:56.38	130.70	47.13	-51.4	-53.0	14.4	0.00e+00	0	22	0	1443889152	68	4485
2026-01-12 23:46:57.38	131.21	46.98	-51.2	-52.8	14.6	0.00e+00	0	22	0	1447034880	68	4383
2026-01-12 23:46:58.39	131.72	46.82	-51.2	-52.8	14.6	0.00e+00	0	22	0	1450180608	68	4351
2026-01-12 23:46:59.40	132.22	46.67	-51.3	-52.9	14.5	0.00e+00	0	22	0	1453326336	68	4416
2026-01-12 23:47:00.40	132.72	46.51	-51.3	-52.9	14.5	0.00e+00	0	22	0	1455423488	68	4403
2026-01-12 23:47:01.41	133.21	46.36	-51.1	-52.7	14.7	0.00e+00	0	22	0	1459617792	68	4313
2026-01-12 23:47:02.41	133.70	46.20	-51.3	-52.9	14.6	0.00e+00	0	22	0	1462763520	68	4414
2026-01-12 23:47:03.42	134.18	46.04	-51.3	-52.9	14.6	0.00e+00	0	22	0	1465909248	68	4418
2026-01-12 23:47:04.41	134.65	45.88	-51.0	-52.5	14.8	0.00e+00	0	22	0	1469054976	68	4238
2026-01-12 23:47:05.41	135.12	45.71	-50.8	-52.2	14.9	0.00e+00	0	22	0	1472200704	68	4097
2026-01-12 23:47:06.42	135.60	45.55	-50.5	-51.9	14.9	0.00e+00	0	22	0	1475346432	67	4186
2026-01-12 23:47:07.41	136.05	45.38	-50.1	-51.5	15.0	0.00e+00	0	22	0	1478492160	66	4207
2026-01-12 23:47:08.42	136.51	45.22	-50.2	-51.7	14.9	0.00e+00	0	22	0	1480589312	66	4293
2026-01-12 23:47:09.43	136.97	45.05	-50.4	-51.8	14.8	0.00e+00	0	22	0	1483735040	66	4368
2026-01-12 23:47:10.43	137.42	44.88	-50.5	-52.0	14.7	0.00e+00	0	22	0	1486880768	66	4464
2026-01-12 23:47:11.43	137.86	44.71	-50.8	-52.4	14.4	0.00e+00	0	22	0	1490026496	66	4704
2026-01-12 23:47:12.42	138.29	44.54	-51.0	-52.6	14.5	0.00e+00	0	22	0	1493172224	67	4529
2026-01-12 23:47:13.43	138.73	44.36	-50.9	-52.5	14.6	0.00e+00	0	22	0	1496317952	67	4452
2026-01-12 23:47:14.43	139.16	44.19	-50.7	-52.3	14.7	0.00e+00	0	22	0	1499463680	67	4343
2026-01-12 23:47:15.42	139.58	44.02	-50.8	-52.4	14.6	0.00e+00	0	22	0	1502609408	67	4414
2026-01-12 23:47:16.43	140.00	43.84	-51.1	-52.7	14.4	0.00e+00	0	22	0	1505755136	67	4587
2026-01-12 23:47:17.43	140.42	43.66	-51.6	-53.3	14.3	0.00e+00	0	22	0	1508900864	68	4633
2026-01-12 23:47:18.43	140.83	43.49	-52.0	-53.7	14.2	0.00e+00	0	22	0	1512046592	69	4594
2026-01-12 23:47:19.43	141.23	43.31	-52.1	-53.9	14.0	0.00e+00	0	22	0	1515192320	69	4664
2026-01-12 23:47:20.44	141.64	43.13	-51.8	-53.6	14.3	0.00e+00	0	22	0	1518338048	69	4503
2026-01-12 23:47:21.43	142.03	42.95	-51.4	-53.0	14.6	0.00e+00	0	22	0	1521483776	69	4227
2026-01-12 23:47:22.43	142.42	42.77	-51.1	-52.7	14.7	0.00e+00	0	22	0	1524629504	68	4294
2026-01-12 23:47:23.43	142.81	42.59	-50.9	-52.4	14.8	0.00e+00	0	22	0	1527775232	68	4188
2026-01-12 23:47:24.43	143.20	42.41	-50.8	-52.3	14.9	0.00e+00	0	22	0	1530920960	68	4138
2026-01-12 23:47:25.43	143.58	42.23	-50.9	-52.5	14.8	0.00e+00	0	22	0	1534066688	68	4201
2026-01-12 23:47:26.43	143.95	42.05	-51.0	-52.6	14.7	0.00e+00	0	22	0	1537212416	68	4267
2026-01-12 23:47:27.43	144.33	41.87	-50.9	-52.5	14.8	0.00e+00	0	22	0	1540358144	68	4213
2026-01-12 23:47:28.44	144.70	41.68	-50.7	-52.2	15.0	0.00e+00	0	22	0	1543503872	68	4080
2026-01-12 23:47:29.44	145.06	41.50	-50.1	-51.5	15.0	0.00e+00	0	22	0	1546649600	66	4239
2026-01-12 23:47:30.43	145.42	41.32	-49.9	-51.3	15.1	0.00e+00	0	22	0	1549795328	66	4134
2026-01-12 23:47:31.44	145.77	41.13	-50.1	-51.5	15.0	0.00e+00	0	22	0	1552941056	66	4210
2026-01-12 23:47:32.43	146.12	40.95	-50.3	-51.7	14.8	0.00e+00	0	22	0	1556086784	66	4334
2026-01-12 23:47:33.44	146.47	40.76	-50.4	-51.9	14.7	0.00e+00	0	22	0	1559232512	66	4437
2026-01-12 23:47:34.43	146.81	40.58	-50.9	-52.5	14.4	0.00e+00	0	22	0	1562378240	66	4732
2026-01-12 23:47:35.43	147.15	40.40	-51.4	-53.1	14.2	0.00e+00	0	22	0	1565523968	67	4789
2026-01-12 23:47:36.44	147.49	40.21	-51.6	-53.4	14.3	0.00e+00	0	22	0	1568669696	68	4658
2026-01-12 23:47:37.42	147.82	40.03	-51.5	-53.2	14.3	0.00e+00	0	22	0	1571815424	68	4586
2026-01-12 23:47:38.42	148.15	39.84	-51.3	-53.0	14.4	0.00e+00	0	22	0	1574961152	68	4445
2026-01-12 23:47:39.41	148.47	39.66	-51.3	-52.9	14.5	0.00e+00	0	22	0	1578106880	68	4419
2026-01-12 23:47:40.41	148.79	39.48	-51.0	-52.6	14.7	0.00e+00	0	22	0	1581252608	68	4252
2026-01-12 23:47:41.40	149.10	39.29	-50.9	-52.4	14.8	0.00e+00	0	22	0	1584398336	68	4189
2026-01-12 23:47:42.40	149.42	39.11	-51.1	-52.6	14.7	0.00e+00	0	22	0	1587544064	68	4283
2026-01-12 23:47:43.41	149.73	38.92	-51.1	-52.7	14.6	0.00e+00	0	22	0	1590689792	68	4334
2026-01-12 23:47:44.41	150.04	38.74	-51.0	-52.6	14.7	0.00e+00	0	22	0	1593835520	68	4257
2026-01-12 23:47:45.41	150.34	38.55	-50.9	-52.4	14.9	0.00e+00	0	22	0	1596981248	68	4172
2026-01-12 23:47:46.41	150.65	38.37	-50.7	-52.2	14.9	0.00e+00	0	22	0	1600126976	68	4096
2026-01-12 23:47:47.41	150.94	38.18	-50.8	-52.3	14.9	0.00e+00	0	22	0	1603272704	68	4143
2026-01-12 23:47:48.41	151.24	38.00	-51.1	-52.8	14.6	0.00e+00	0	22	0	1606418432	68	4349
2026-01-12 23:47:49.41	151.53	37.81	-51.0	-52.6	14.7	0.00e+00	0	22	0	1609564160	68	4270
2026-01-12 23:47:50.41	151.81	37.63	-50.4	-51.9	14.9	0.00e+00	0	22	0	1612709888	67	4170
2026-01-12 23:47:51.42	152.10	37.45	-50.1	-51.5	15.0	0.00e+00	0	22	0	1615855616	66	4201
2026-01-12 23:47:52.42	152.38	37.26	-49.7	-51.1	15.3	0.00e+00	0	22	0	1619001344	66	4012
2026-01-12 23:47:53.43	152.66	37.08	-49.5	-50.8	15.2	0.00e+00	0	22	0	1622147072	65	4133
2026-01-12 23:47:54.43	152.94	36.89	-49.4	-50.8	15.2	0.00e+00	0	22	0	1625292800	65	4110
2026-01-12 23:47:55.43	153.21	36.71	-49.6	-51.0	15.1	0.00e+00	0	22	0	1628438528	65	4194
2026-01-12 23:47:56.43	153.48	36.53	-49.7	-51.0	15.1	0.00e+00	0	22	0	1631584256	65	4239
2026-01-12 23:47:57.43	153.75	36.35	-49.8	-51.3	14.9	0.00e+00	0	22	0	1634729984	65	4351
2026-01-12 23:47:58.43	154.01	36.17	-49.9	-51.3	15.0	0.00e+00	0	22	0	1636827136	65	4362
2026-01-12 23:47:59.43	154.27	35.99	-49.8	-51.2	15.0	0.00e+00	0	22	0	1639972864	65	4318
2026-01-12 23:48:00.43	154.53	35.81	-49.6	-51.0	15.1	0.00e+00	0	22	0	1643118592	65	4195
2026-01-12 23:48:01.43	154.78	35.62	-49.6	-51.0	15.1	0.00e+00	0	22	0	1646264320	65	4216
2026-01-12 23:48:02.43	155.03	35.44	-49.7	-51.0	15.0	0.00e+00	0	22	0	1649410048	65	4242
2026-01-12 23:48:03.44	155.29	35.26	-49.8	-51.2	15.0	0.00e+00	0	22	0	1652555776	65	4323
2026-01-12 23:48:04.44	155.53	35.08	-49.7	-51.1	15.0	0.00e+00	0	22	0	1655701504	65	4271
2026-01-12 23:48:05.44	155.78	34.91	-49.9	-51.3	14.9	0.00e+00	0	22	0	1658847232	65	4385
2026-01-12 23:48:06.43	156.02	34.73	-50.1	-51.6	14.8	0.00e+00	0	22	0	1661992960	65	4518
2026-01-12 23:48:07.43	156.26	34.55	-49.9	-51.4	14.9	0.00e+00	0	22	0	1665138688	65	4408
2026-01-12 23:48:08.43	156.49	34.37	-49.7	-51.1	15.0	0.00e+00	0	22	0	1668284416	65	4275
2026-01-12 23:48:09.43	156.73	34.20	-49.5	-50.8	15.2	0.00e+00	0	22	0	1671430144	65	4122
2026-01-12 23:48:10.43	156.96	34.02	-49.3	-50.6	15.3	0.00e+00	0	22	0	1674575872	65	4031
2026-01-12 23:48:11.44	157.19	33.84	-49.3	-50.6	15.3	0.00e+00	0	22	0	1677721600	65	4036
2026-01-12 23:48:12.44	157.42	33.67	-49.2	-50.5	15.2	0.00e+00	0	22	0	1680867328	64	4241
2026-01-12 23:48:13.44	157.64	33.49	-49.4	-50.7	15.1	0.00e+00	0	22	0	1684013056	64	4329
2026-01-12 23:48:14.44	157.86	33.32	-49.4	-50.8	15.0	0.00e+00	0	22	0	1687158784	64	4370
2026-01-12 23:48:15.44	158.08	33.15	-49.4	-50.8	15.1	0.00e+00	0	22	0	1690304512	64	4352
2026-01-12 23:48:16.45	158.30	32.97	-49.1	-50.4	15.3	0.00e+00	0	22	0	1693450240	64	4176
2026-01-12 23:48:17.44	158.51	32.80	-48.8	-50.1	15.4	0.00e+00	0	22	0	1696595968	64	4024
2026-01-12 23:48:18.44	158.73	32.63	-48.8	-50.0	15.4	0.00e+00	0	22	0	1699741696	64	4000
2026-01-12 23:48:19.43	158.93	32.46	-48.9	-50.2	15.4	0.00e+00	0	22	0	1702887424	64	4052
2026-01-12 23:48:20.44	159.15	32.29	-48.9	-50.2	15.3	0.00e+00	0	22	0	1706033152	64	4078
2026-01-12 23:48:21.44	159.35	32.12	-48.8	-50.2	15.4	0.00e+00	0	22	0	1709178880	64	4053
2026-01-12 23:48:22.45	159.56	31.95	-48.7	-50.0	15.4	0.00e+00	0	22	0	1712324608	64	3997
2026-01-12 23:48:23.45	159.76	31.78	-48.8	-50.1	15.4	0.00e+00	0	22	0	1715470336	64	4009
2026-01-12 23:48:24.45	159.96	31.61	-48.7	-49.9	15.3	0.00e+00	0	22	0	1718616064	63	4191
2026-01-12 23:48:25.45	160.16	31.44	-48.4	-49.6	15.5	0.00e+00	0	22	0	1721761792	63	4036
2026-01-12 23:48:26.44	160.35	31.27	-48.0	-49.1	15.5	0.00e+00	0	22	0	1724907520	62	4043
2026-01-12 23:48:27.44	160.55	31.11	-47.9	-49.1	15.6	0.00e+00	0	22	0	1728053248	62	4020
2026-01-12 23:48:28.44	160.74	30.94	-47.7	-48.9	15.7	0.00e+00	0	22	0	1731198976	62	3933
2026-01-12 23:48:29.44	160.93	30.78	-47.8	-49.0	15.7	0.00e+00	0	22	0	1734344704	62	3961
2026-01-12 23:48:30.44	161.12	30.61	-48.0	-49.2	15.5	0.00e+00	0	22	0	1737490432	62	4073
2026-01-12 23:48:31.44	161.30	30.45	-48.1	-49.4	15.5	0.00e+00	0	22	0	1740636160	62	4153
2026-01-12 23:48:32.45	161.49	30.28	-48.2	-49.5	15.4	0.00e+00	0	22	0	1743781888	62	4201
2026-01-12 23:48:33.44	161.67	30.12	-48.4	-49.7	15.3	0.00e+00	0	22	0	1746927616	62	4308
2026-01-12 23:48:34.45	161.86	29.95	-48.5	-49.8	15.2	0.00e+00	0	22	0	1750073344	62	4362
2026-01-12 23:48:35.44	162.03	29.79	-48.7	-50.0	15.2	0.00e+00	0	22	0	1753219072	62	4476
2026-01-12 23:48:36.44	162.21	29.63	-48.7	-50.0	15.2	0.00e+00	0	22	0	1756364800	62	4460
2026-01-12 23:48:37.44	162.39	29.47	-48.7	-50.0	15.2	0.00e+00	0	22	0	1759510528	62	4492
2026-01-12 23:48:38.44	162.56	29.31	-48.7	-50.1	15.1	0.00e+00	0	22	0	1762656256	62	4499
2026-01-12 23:48:39.44	162.73	29.15	-48.6	-49.8	15.2	0.00e+00	0	22	0	1765801984	62	4386
2026-01-12 23:48:40.43	162.90	29.00	-48.5	-49.8	15.3	0.00e+00	0	22	0	1768947712	62	4351
2026-01-12 23:48:41.43	163.07	28.84	-48.5	-49.8	15.3	0.00e+00	0	22	0	1772093440	62	4370
2026-01-12 23:48:42.43	163.24	28.68	-48.4	-49.6	15.3	0.00e+00	0	22	0	1775239168	62	4266
2026-01-12 23:48:43.43	163.41	28.52	-48.2	-49.4	15.4	0.00e+00	0	22	0	1778384896	62	4183
2026-01-12 23:48:44.44	163.57	28.37	-48.3	-49.5	15.4	0.00e+00	0	22	0	1781530624	62	4239
2026-01-12 23:48:45.44	163.73	28.21	-48.3	-49.6	15.3	0.00e+00	0	22	0	1784676352	62	4262
2026-01-12 23:48:46.45	163.90	28.05	-48.4	-49.6	15.3	0.00e+00	0	22	0	1787822080	62	4286
2026-01-12 23:48:47.44	164.06	27.90	-48.4	-49.6	15.3	0.00e+00	0	22	0	1790967808	62	4280
2026-01-12 23:48:48.45	164.22	27.75	-48.3	-49.6	15.3	0.00e+00	0	22	0	1794113536	62	4259
2026-01-12 23:48:49.45	164.37	27.59	-48.2	-49.4	15.4	0.00e+00	0	22	0	1796210688	62	4182
2026-01-12 23:48:50.44	164.53	27.44	-48.2	-49.5	15.4	0.00e+00	0	22	0	1799356416	62	4198
2026-01-12 23:48:51.44	164.68	27.29	-48.2	-49.4	15.4	0.00e+00	0	22	0	1802502144	62	4157
2026-01-12 23:48:52.45	164.84	27.14	-48.3	-49.6	15.4	0.00e+00	0	22	0	1805647872	62	4244
2026-01-12 23:48:53.46	164.99	26.99	-48.4	-49.6	15.3	0.00e+00	0	22	0	1809842176	62	4278
2026-01-12 23:48:54.45	165.14	26.84	-48.3	-49.6	15.3	0.00e+00	0	22	0	1811939328	62	4256
2026-01-12 23:48:55.44	165.28	26.69	-48.3	-49.5	15.4	0.00e+00	0	22	0	1815085056	62	4242
2026-01-12 23:48:56.44	165.43	26.54	-48.5	-49.7	15.3	0.00e+00	0	22	0	1818230784	62	4328
2026-01-12 23:48:57.45	165.58	26.39	-48.4	-49.7	15.3	0.00e+00	0	22	0	1821376512	62	4321
2026-01-12 23:48:58.45	165.72	26.24	-48.3	-49.6	15.4	0.00e+00	0	22	0	1824522240	62	4248
2026-01-12 23:48:59.45	165.87	26.10	-48.3	-49.6	15.3	0.00e+00	0	22	0	1827667968	62	4273
2026-01-12 23:49:00.45	166.01	25.95	-48.3	-49.6	15.3	0.00e+00	0	22	0	1830813696	62	4245
2026-01-12 23:49:01.45	166.15	25.80	-48.3	-49.6	15.3	0.00e+00	0	22	0	1833959424	62	4252
2026-01-12 23:49:02.45	166.29	25.66	-48.3	-49.6	15.3	0.00e+00	0	22	0	1837105152	62	4248
2026-01-12 23:49:03.45	166.43	25.51	-48.2	-49.4	15.4	0.00e+00	0	22	0	1840250880	62	4182
2026-01-12 23:49:04.45	166.56	25.37	-48.2	-49.4	15.4	0.00e+00	0	22	0	1843396608	62	4168
2026-01-12 23:49:05.45	166.70	25.23	-48.1	-49.3	15.4	0.00e+00	0	22	0	1846542336	62	4142
2026-01-12 23:49:06.45	166.84	25.09	-48.2	-49.4	15.4	0.00e+00	0	22	0	1849688064	62	4184
2026-01-12 23:49:07.45	166.97	24.94	-48.1	-49.4	15.4	0.00e+00	0	22	0	1852833792	62	4150
2026-01-12 23:49:08.45	167.10	24.80	-48.0	-49.2	15.5	0.00e+00	0	22	0	1855979520	62	4096
2026-01-12 23:49:09.45	167.23	24.66	-48.0	-49.2	15.5	0.00e+00	0	22	0	1859125248	62	4096
2026-01-12 23:49:10.44	167.36	24.52	-48.0	-49.3	15.5	0.00e+00	0	22	0	1862270976	62	4106
2026-01-12 23:49:11.45	167.49	24.38	-48.1	-49.3	15.4	0.00e+00	0	22	0	1865416704	62	4138
2026-01-12 23:49:12.44	167.62	24.24	-48.0	-49.2	15.5	0.00e+00	0	22	0	1868562432	62	4082
2026-01-12 23:49:13.45	167.75	24.10	-47.9	-49.1	15.5	0.00e+00	0	22	0	1871708160	62	4040
2026-01-12 23:49:14.45	167.87	23.97	-48.0	-49.2	15.5	0.00e+00	0	22	0	1874853888	62	4060
2026-01-12 23:49:15.44	168.00	23.83	-47.9	-49.2	15.5	0.00e+00	0	22	0	1877999616	62	4052
2026-01-12 23:49:16.45	168.12	23.69	-47.9	-49.1	15.6	0.00e+00	0	22	0	1881145344	62	4011
2026-01-12 23:49:17.45	168.24	23.56	-47.9	-49.1	15.6	0.00e+00	0	22	0	1884291072	62	4010
2026-01-12 23:49:18.45	168.37	23.42	-47.9	-49.1	15.5	0.00e+00	0	22	0	1887436800	62	4050
2026-01-12 23:49:19.45	168.49	23.29	-47.9	-49.1	15.5	0.00e+00	0	22	0	1890582528	62	4039
2026-01-12 23:49:20.46	168.61	23.15	-47.9	-49.1	15.5	0.00e+00	0	22	0	1893728256	62	4025
2026-01-12 23:49:21.45	168.72	23.02	-47.9	-49.1	15.5	0.00e+00	0	22	0	1896873984	62	4041
2026-01-12 23:49:22.45	168.84	22.89	-48.0	-49.2	15.5	0.00e+00	0	22	0	1900019712	62	4077
2026-01-12 23:49:23.46	168.96	22.75	-48.0	-49.3	15.5	0.00e+00	0	22	0	1903165440	62	4103
2026-01-12 23:49:24.46	169.08	22.62	-48.0	-49.2	15.5	0.00e+00	0	22	0	1906311168	62	4095
2026-01-12 23:49:25.45	169.19	22.49	-48.0	-49.3	15.5	0.00e+00	0	22	0	1909456896	62	4101
2026-01-12 23:49:26.46	169.30	22.36	-48.2	-49.4	15.4	0.00e+00	0	22	0	1912602624	62	4172
2026-01-12 23:49:27.46	169.42	22.23	-48.3	-49.5	15.4	0.00e+00	0	22	0	1915748352	62	4225
2026-01-12 23:49:28.46	169.53	22.10	-48.3	-49.6	15.3	0.00e+00	0	22	0	1918894080	62	4271
2026-01-12 23:49:29.47	169.64	21.97	-48.4	-49.7	15.3	0.00e+00	0	22	0	1922039808	62	4293
2026-01-12 23:49:30.46	169.75	21.84	-48.4	-49.7	15.3	0.00e+00	0	22	0	1925185536	62	4335
2026-01-12 23:49:31.46	169.86	21.71	-48.5	-49.8	15.2	0.00e+00	0	22	0	1928331264	62	4375
2026-01-12 23:49:32.46	169.97	21.58	-48.6	-49.9	15.2	0.00e+00	0	22	0	1931476992	62	4416
2026-01-12 23:49:33.45	170.08	21.46	-48.6	-49.9	15.2	0.00e+00	0	22	0	1934622720	62	4426
2026-01-12 23:49:34.44	170.18	21.33	-48.5	-49.8	15.2	0.00e+00	0	22	0	1937768448	62	4385
2026-01-12 23:49:35.44	170.29	21.21	-48.5	-49.8	15.2	0.00e+00	0	22	0	1940914176	62	4384
2026-01-12 23:49:36.44	170.39	21.08	-48.5	-49.8	15.2	0.00e+00	0	22	0	1944059904	62	4389
2026-01-12 23:49:37.44	170.50	20.96	-48.5	-49.7	15.2	0.00e+00	0	22	0	1947205632	62	4339
2026-01-12 23:49:38.43	170.60	20.83	-48.5	-49.8	15.2	0.00e+00	0	22	0	1950351360	62	4358
2026-01-12 23:49:39.42	170.70	20.71	-48.4	-49.7	15.3	0.00e+00	0	22	0	1952448512	62	4332
2026-01-12 23:49:40.42	170.80	20.59	-48.5	-49.8	15.3	0.00e+00	0	22	0	1955594240	62	4346
2026-01-12 23:49:41.41	170.90	20.47	-48.2	-49.5	15.4	0.00e+00	0	22	0	1958739968	62	4210
2026-01-12 23:49:42.41	171.00	20.34	-48.3	-49.5	15.3	0.00e+00	0	22	0	1961885696	62	4232
2026-01-12 23:49:43.41	171.10	20.22	-48.1	-49.3	15.4	0.00e+00	0	22	0	1965031424	62	4140
2026-01-12 23:49:44.40	171.20	20.10	-48.1	-49.4	15.4	0.00e+00	0	22	0	1968177152	62	4146
2026-01-12 23:49:45.41	171.30	19.98	-48.1	-49.3	15.4	0.00e+00	0	22	0	1971322880	62	4116
2026-01-12 23:49:46.41	171.40	19.86	-48.0	-49.2	15.5	0.00e+00	0	22	0	1974468608	62	4089
2026-01-12 23:49:47.41	171.50	19.74	-47.9	-49.1	15.5	0.00e+00	0	22	0	1977614336	62	4029
2026-01-12 23:49:48.42	171.59	19.62	-47.9	-49.1	15.5	0.00e+00	0	22	0	1980760064	62	4038
2026-01-12 23:49:49.41	171.69	19.50	-47.9	-49.2	15.5	0.00e+00	0	22	0	1983905792	62	4054
2026-01-12 23:49:50.41	171.78	19.38	-48.0	-49.2	15.5	0.00e+00	0	22	0	1987051520	62	4084
2026-01-12 23:49:51.40	171.88	19.27	-48.1	-49.3	15.5	0.00e+00	0	22	0	1990197248	62	4123
2026-01-12 23:49:52.40	171.97	19.15	-48.0	-49.3	15.5	0.00e+00	0	22	0	1993342976	62	4101
2026-01-12 23:49:53.38	172.06	19.04	-48.0	-49.3	15.5	0.00e+00	0	22	0	1996488704	62	4114
2026-01-12 23:49:54.38	172.15	18.92	-48.1	-49.4	15.4	0.00e+00	0	22	0	1999634432	62	4147
2026-01-12 23:49:55.39	172.24	18.80	-48.1	-49.3	15.4	0.00e+00	0	22	0	2002780160	62	4135
2026-01-12 23:49:56.39	172.33	18.69	-48.1	-49.4	15.4	0.00e+00	0	22	0	2005925888	62	4164
2026-01-12 23:49:57.39	172.42	18.57	-48.1	-49.3	15.4	0.00e+00	0	22	0	2009071616	62	4121
2026-01-12 23:49:58.39	172.51	18.46	-48.1	-49.4	15.4	0.00e+00	0	22	0	2012217344	62	4149
2026-01-12 23:49:59.40	172.60	18.34	-48.2	-49.5	15.3	0.00e+00	0	22	0	2015363072	62	4204
2026-01-12 23:50:00.39	172.69	18.23	-48.2	-49.4	15.4	0.00e+00	0	22	0	2018508800	62	4178
2026-01-12 23:50:01.39	172.78	18.12	-48.3	-49.6	15.3	0.00e+00	0	22	0	2021654528	62	4249
2026-01-12 23:50:02.39	172.86	18.00	-48.2	-49.4	15.3	0.00e+00	0	22	0	2024800256	62	4192
2026-01-12 23:50:03.38	172.95	17.89	-48.2	-49.4	15.4	0.00e+00	0	22	0	2027945984	62	4191
2026-01-12 23:50:04.39	173.04	17.78	-48.2	-49.5	15.3	0.00e+00	0	22	0	2031091712	62	4209
2026-01-12 23:50:05.38	173.12	17.67	-48.3	-49.5	15.3	0.00e+00	0	22	0	2034237440	62	4228
2026-01-12 23:50:06.39	173.21	17.56	-48.4	-49.7	15.2	0.00e+00	0	22	0	2037383168	62	4321
2026-01-12 23:50:07.39	173.29	17.45	-48.5	-49.8	15.2	0.00e+00	0	22	0	2040528896	62	4352
2026-01-12 23:50:08.38	173.37	17.34	-48.6	-49.9	15.1	0.00e+00	0	22	0	2043674624	62	4424
2026-01-12 23:50:09.39	173.46	17.23	-48.7	-50.0	15.1	0.00e+00	0	22	0	2046820352	62	4460
2026-01-12 23:50:10.39	173.54	17.12	-48.7	-50.0	15.1	0.00e+00	0	22	0	2049966080	62	4490
2026-01-12 23:50:11.38	173.62	17.01	-48.7	-50.0	15.1	0.00e+00	0	22	0	2053111808	62	4478
2026-01-12 23:50:12.38	173.70	16.90	-48.8	-50.1	15.0	0.00e+00	0	22	0	2056257536	62	4523
2026-01-12 23:50:13.38	173.78	16.79	-48.8	-50.2	15.0	0.00e+00	0	22	0	2059403264	62	4568
2026-01-12 23:50:14.39	173.86	16.69	-48.8	-50.1	15.0	0.00e+00	0	22	0	2062548992	62	4526
2026-01-12 23:50:15.38	173.94	16.58	-48.9	-50.3	15.0	0.00e+00	0	22	0	2065694720	62	4610
2026-01-12 23:50:16.39	174.02	16.47	-49.0	-50.3	15.1	0.00e+00	0	22	0	2068840448	63	4383
2026-01-12 23:50:17.39	174.10	16.37	-49.1	-50.4	15.0	0.00e+00	0	22	0	2071986176	63	4438
2026-01-12 23:50:18.38	174.17	16.26	-49.0	-50.4	15.0	0.00e+00	0	22	0	2075131904	63	4430
2026-01-12 23:50:19.38	174.25	16.16	-49.1	-50.4	15.0	0.00e+00	0	22	0	2078277632	63	4428
2026-01-12 23:50:20.38	174.33	16.05	-49.0	-50.3	15.1	0.00e+00	0	22	0	2081423360	63	4371
2026-01-12 23:50:21.39	174.41	15.95	-48.9	-50.2	15.1	0.00e+00	0	22	0	2084569088	63	4328
2026-01-12 23:50:22.38	174.48	15.84	-48.9	-50.3	15.1	0.00e+00	0	22	0	2086666240	63	4367
2026-01-12 23:50:23.39	174.56	15.74	-49.0	-50.4	15.0	0.00e+00	0	22	0	2089811968	63	4419
2026-01-12 23:50:24.39	174.63	15.64	-49.1	-50.5	15.0	0.00e+00	0	22	0	2092957696	63	4467
2026-01-12 23:50:25.39	174.71	15.53	-49.1	-50.4	15.0	0.00e+00	0	22	0	2096103424	63	4433
