passes_logs/2026/01/12/R3.2S_Murmansk/R3.2S_Murmansk__20260112_205048_TY-42_rec.log

#Pass ID: 20260112_205048_TY-42
#Satellite: TY-42
#Configuration: TY-42_900M
#almurnet v.1.7.20251203
#Start time: 2026-01-12 20:50:49

#Version: 2.2.20231116
#Station: R3.2S_Murmansk
#Location: 33.079688 lon 68.888172 lat
#TLE: 1 64048U 25103A   26012.66797454  .00008010  00000-0  38191-3 0 09996
#TLE: 2 64048 097.4120 088.1293 0001877 092.3162 302.2280 15.19166642 36461

#Time	Az	El	Level	Level2	SNR	BER	BlckErr	Temp	State	Recorded	gain1	gain2
2026-01-12 20:50:49.70	216.31	2.08	-57.1	-60.3	6.1	0.00e+00	0	27	0	0	81	20254
2026-01-12 20:50:50.71	216.42	2.14	-57.1	-60.3	6.2	0.00e+00	0	27	104	0	81	20240
2026-01-12 20:50:51.71	216.52	2.20	-57.1	-60.3	6.2	0.00e+00	0	27	104	0	81	20282
2026-01-12 20:50:52.70	216.62	2.26	-57.1	-60.3	6.2	0.00e+00	0	27	104	0	81	20260
2026-01-12 20:50:53.70	216.72	2.32	-57.1	-60.3	6.2	0.00e+00	0	27	104	0	81	20253
2026-01-12 20:50:54.69	216.83	2.38	-57.1	-60.3	6.2	0.00e+00	0	28	104	0	81	20372
2026-01-12 20:50:55.69	216.93	2.44	-57.1	-60.3	6.2	0.00e+00	0	28	104	0	81	20254
2026-01-12 20:50:56.69	217.04	2.49	-57.1	-60.3	6.2	0.00e+00	0	28	104	0	81	20310
2026-01-12 20:50:57.68	217.14	2.55	-57.1	-60.3	6.2	0.00e+00	0	28	104	0	81	20326
2026-01-12 20:50:58.68	217.25	2.61	-57.1	-60.3	6.2	0.00e+00	0	28	104	0	81	20255
2026-01-12 20:50:59.67	217.36	2.67	-57.1	-60.3	6.2	0.00e+00	0	28	104	0	81	20318
2026-01-12 20:51:00.67	217.46	2.73	-57.1	-60.3	6.2	0.00e+00	0	28	104	0	81	20289
2026-01-12 20:51:01.66	217.57	2.79	-57.1	-60.3	6.2	0.00e+00	0	28	104	0	81	20361
2026-01-12 20:51:02.66	217.68	2.85	-57.1	-60.3	6.2	0.00e+00	0	28	104	0	81	20320
2026-01-12 20:51:03.66	217.79	2.91	-57.1	-60.4	6.2	0.00e+00	0	28	104	0	81	20431
2026-01-12 20:51:04.66	217.90	2.97	-57.1	-60.3	6.2	0.00e+00	0	28	104	0	81	20368
2026-01-12 20:51:05.66	218.01	3.03	-57.1	-60.3	6.2	0.00e+00	0	28	104	0	81	20390
2026-01-12 20:51:06.65	218.12	3.09	-57.1	-60.3	6.2	0.00e+00	0	28	104	0	81	20379
2026-01-12 20:51:07.66	218.23	3.15	-57.1	-60.3	6.2	0.00e+00	0	28	104	0	81	20372
2026-01-12 20:51:08.65	218.34	3.21	-57.1	-60.4	6.2	0.00e+00	0	28	104	0	81	20398
2026-01-12 20:51:09.64	218.45	3.27	-57.2	-60.3	6.2	0.00e+00	0	28	104	0	81	20388
2026-01-12 20:51:10.64	218.56	3.33	-57.2	-60.3	6.2	0.00e+00	0	28	104	0	81	20354
2026-01-12 20:51:11.64	218.68	3.39	-57.2	-60.4	6.2	0.00e+00	0	28	104	0	81	20414
2026-01-12 20:51:12.64	218.79	3.45	-57.2	-60.4	6.2	0.00e+00	0	28	104	0	81	20418
2026-01-12 20:51:13.63	218.91	3.51	-57.2	-60.4	6.2	0.00e+00	0	28	104	0	81	20443
2026-01-12 20:51:14.63	219.02	3.57	-57.1	-60.3	6.2	0.00e+00	0	29	104	0	81	20387
2026-01-12 20:51:15.62	219.14	3.63	-57.2	-60.4	6.2	0.00e+00	0	29	104	0	81	20484
2026-01-12 20:51:16.61	219.25	3.69	-57.2	-60.4	6.2	0.00e+00	0	29	104	0	81	20430
2026-01-12 20:51:17.61	219.37	3.75	-57.2	-60.4	6.2	0.00e+00	0	29	104	0	81	20405
2026-01-12 20:51:18.60	219.48	3.81	-57.2	-60.4	6.2	0.00e+00	0	29	104	0	81	20439
2026-01-12 20:51:19.61	219.60	3.88	-57.2	-60.4	6.2	0.00e+00	0	29	104	0	81	20436
2026-01-12 20:51:20.60	219.72	3.94	-57.2	-60.4	6.2	0.00e+00	0	29	104	0	81	20504
2026-01-12 20:51:21.60	219.84	4.00	-57.2	-60.4	6.2	0.00e+00	0	29	104	0	81	20512
2026-01-12 20:51:22.59	219.96	4.06	-57.2	-60.4	6.2	0.00e+00	0	29	104	0	81	20500
2026-01-12 20:51:23.59	220.08	4.12	-57.2	-60.4	6.2	0.00e+00	0	29	104	0	81	20480
2026-01-12 20:51:24.59	220.20	4.18	-57.2	-60.4	6.2	0.00e+00	0	29	104	0	81	20502
2026-01-12 20:51:25.58	220.32	4.25	-57.2	-60.4	6.2	0.00e+00	0	29	104	0	81	20459
2026-01-12 20:51:26.57	220.44	4.31	-57.2	-60.4	6.2	0.00e+00	0	29	104	0	81	20486
2026-01-12 20:51:27.57	220.57	4.37	-57.2	-60.4	6.2	0.00e+00	0	29	104	0	81	20447
2026-01-12 20:51:28.57	220.69	4.43	-57.2	-60.4	6.2	0.00e+00	0	29	104	0	81	20486
2026-01-12 20:51:29.56	220.81	4.49	-57.2	-60.4	6.2	0.00e+00	0	29	104	0	81	20435
2026-01-12 20:51:30.56	220.94	4.56	-57.2	-60.4	6.2	0.00e+00	0	29	104	0	81	20564
2026-01-12 20:51:31.56	221.07	4.62	-57.2	-60.4	6.2	0.00e+00	0	29	104	0	81	20544
2026-01-12 20:51:32.55	221.19	4.68	-57.2	-60.4	6.2	0.00e+00	0	29	104	0	81	20570
2026-01-12 20:51:33.55	221.32	4.74	-57.2	-60.4	6.2	0.00e+00	0	29	104	0	81	20456
2026-01-12 20:51:34.55	221.44	4.81	-57.2	-60.4	6.2	0.00e+00	0	29	104	0	81	20585
2026-01-12 20:51:35.55	221.57	4.87	-57.2	-60.4	6.2	0.00e+00	0	29	104	0	81	20558
2026-01-12 20:51:36.54	221.70	4.93	-57.2	-60.4	6.2	0.00e+00	0	29	104	0	81	20532
2026-01-12 20:51:37.54	221.83	4.99	-57.2	-60.4	6.2	0.00e+00	0	30	104	0	81	20617
2026-01-12 20:51:38.54	221.96	5.06	-57.3	-60.5	6.2	0.00e+00	0	29	104	0	81	20757
2026-01-12 20:51:39.54	222.09	5.12	-57.3	-60.5	6.2	0.00e+00	0	30	104	0	81	20728
2026-01-12 20:51:40.54	222.22	5.18	-57.2	-60.4	6.2	0.00e+00	0	29	104	0	81	20568
2026-01-12 20:51:41.54	222.36	5.25	-57.2	-60.4	6.2	0.00e+00	0	29	104	0	81	20433
2026-01-12 20:51:42.54	222.49	5.31	-57.2	-60.4	6.2	0.00e+00	0	30	104	0	81	20617
2026-01-12 20:51:43.54	222.62	5.37	-57.3	-60.5	6.2	0.00e+00	0	30	104	0	81	20869
2026-01-12 20:51:44.53	222.76	5.44	-45.9	-46.2	10.9	0.00e+00	0	30	104	0	73	6345
2026-01-12 20:51:45.53	222.89	5.50	-46.1	-46.5	10.7	0.00e+00	0	31	0	58720256	57	16572
2026-01-12 20:51:46.53	223.03	5.57	-42.3	-42.6	12.2	2.23e-01	0	31	0	176160768	52	14106
2026-01-12 20:51:47.52	223.16	5.63	-43.0	-43.3	12.0	2.23e-01	0	31	0	285212672	53	14394
2026-01-12 20:51:48.52	223.30	5.69	-42.1	-42.4	12.2	2.23e-01	0	31	0	402653184	51	14555
2026-01-12 20:51:49.51	223.44	5.76	-42.2	-42.6	12.2	4.02e-02	0	31	0	511705088	51	14788
2026-01-12 20:51:50.51	223.58	5.82	-42.4	-42.8	12.1	4.02e-02	0	31	0	620756992	51	15152
2026-01-12 20:51:51.51	223.72	5.89	-42.6	-43.0	12.0	2.10e-02	0	31	0	738197504	51	15517
2026-01-12 20:51:52.50	223.86	5.95	-42.4	-42.7	12.1	2.10e-02	0	31	0	847249408	51	14998
2026-01-12 20:51:53.49	224.00	6.01	-42.5	-42.8	12.1	2.10e-02	0	31	0	956301312	51	15187
2026-01-12 20:51:54.49	224.14	6.08	-42.3	-42.6	12.1	2.05e-02	0	31	0	1065353216	51	14843
2026-01-12 20:51:55.49	224.28	6.14	-41.9	-42.2	12.4	2.05e-02	0	31	0	1182793728	51	14189
2026-01-12 20:51:56.48	224.42	6.21	-41.8	-42.1	12.3	2.05e-02	0	31	0	1291845632	50	14888
2026-01-12 20:51:57.47	224.56	6.27	-41.6	-41.9	12.4	1.67e-02	0	31	0	1409286144	50	14576
2026-01-12 20:51:58.47	224.71	6.34	-42.1	-42.5	12.1	1.67e-02	0	31	0	1518338048	50	15531
2026-01-12 20:51:59.47	224.86	6.40	-41.9	-42.2	12.2	1.67e-02	0	31	0	1635778560	50	15007
2026-01-12 20:52:00.47	225.00	6.47	-41.7	-42.0	12.3	1.58e-02	0	31	0	1744830464	50	14746
2026-01-12 20:52:01.46	225.15	6.53	-42.0	-42.3	12.2	1.58e-02	0	32	0	1853882368	50	15241
2026-01-12 20:52:02.46	225.30	6.60	-41.9	-42.2	12.2	1.58e-02	0	32	0	1971322880	50	15096
2026-01-12 20:52:03.46	225.45	6.66	-41.8	-42.2	12.3	1.45e-02	0	31	0	2080374784	50	14964
2026-01-12 20:52:04.46	225.60	6.73	-41.9	-42.2	12.3	1.45e-02	0	32	0	2197815296	50	15080
2026-01-12 20:52:05.45	225.74	6.79	-41.7	-42.1	12.3	1.45e-02	0	32	0	2306867200	50	14785
2026-01-12 20:52:06.45	225.90	6.86	-41.9	-42.2	12.2	1.40e-02	0	32	0	2415919104	50	15120
2026-01-12 20:52:07.45	226.05	6.92	-41.5	-41.8	12.4	1.40e-02	0	32	0	2524971008	50	14435
2026-01-12 20:52:08.44	226.20	6.99	-41.8	-42.1	12.3	1.40e-02	0	32	0	2642411520	50	14923
2026-01-12 20:52:09.43	226.35	7.05	-41.3	-41.6	12.4	1.26e-02	0	32	0	2751463424	49	14871
2026-01-12 20:52:10.42	226.50	7.12	-41.6	-41.9	12.3	1.26e-02	0	32	0	2860515328	49	15413
2026-01-12 20:52:11.42	226.66	7.19	-41.7	-42.0	12.2	1.26e-02	0	32	0	2977955840	49	15554
2026-01-12 20:52:12.42	226.82	7.25	-41.6	-41.9	12.3	1.42e-02	0	32	0	3087007744	49	15431
2026-01-12 20:52:13.41	226.97	7.32	-41.5	-41.8	12.3	1.42e-02	0	32	0	3204448256	49	15290
2026-01-12 20:52:14.40	227.13	7.38	-41.5	-41.8	12.3	1.42e-02	0	32	0	3313500160	49	15266
2026-01-12 20:52:15.40	227.29	7.45	-41.4	-41.7	12.4	1.06e-02	0	32	0	3422552064	49	15074
2026-01-12 20:52:16.40	227.45	7.52	-41.3	-41.6	12.4	1.06e-02	0	32	0	3539992576	49	14826
2026-01-12 20:52:17.40	227.61	7.58	-41.3	-41.6	12.4	7.82e-03	0	32	0	3649044480	49	14933
2026-01-12 20:52:18.40	227.77	7.65	-41.4	-41.7	12.4	7.82e-03	0	32	0	3758096384	49	15072
2026-01-12 20:52:19.39	227.93	7.72	-41.4	-41.7	12.4	7.82e-03	0	32	0	3867148288	49	14988
2026-01-12 20:52:20.38	228.09	7.78	-41.4	-41.8	12.3	8.02e-03	0	32	0	3984588800	49	15168
2026-01-12 20:52:21.37	228.26	7.85	-41.1	-41.4	12.5	8.02e-03	0	32	0	4093640704	49	14471
2026-01-12 20:52:22.36	228.42	7.91	-41.2	-41.5	12.5	7.02e-03	0	32	0	4211081216	49	14646
2026-01-12 20:52:23.35	228.58	7.98	-41.1	-41.4	12.5	7.02e-03	0	32	0	4320133120	49	14534
2026-01-12 20:52:24.34	228.75	8.05	-41.1	-41.4	12.5	7.02e-03	0	32	0	4429185024	49	14555
2026-01-12 20:52:25.35	228.92	8.11	-41.1	-41.4	12.4	6.38e-03	0	32	0	4538236928	48	15431
2026-01-12 20:52:26.34	229.09	8.18	-41.1	-41.5	12.4	6.38e-03	0	33	0	4655677440	48	15506
2026-01-12 20:52:27.33	229.25	8.25	-41.0	-41.3	12.5	6.14e-03	0	32	0	4764729344	48	15172
2026-01-12 20:52:28.32	229.42	8.31	-40.9	-41.2	12.5	6.14e-03	0	33	0	4873781248	48	14981
2026-01-12 20:52:29.32	229.59	8.38	-40.8	-41.1	12.5	6.14e-03	0	33	0	4991221760	48	14928
2026-01-12 20:52:30.32	229.77	8.45	-40.8	-41.2	12.5	5.68e-03	0	33	0	5100273664	48	14977
2026-01-12 20:52:31.32	229.94	8.52	-40.7	-41.0	12.5	5.68e-03	0	33	0	5217714176	48	14744
2026-01-12 20:52:32.31	230.11	8.58	-40.7	-41.1	12.5	4.88e-03	0	33	0	5326766080	48	14786
2026-01-12 20:52:33.31	230.29	8.65	-40.8	-41.1	12.5	4.88e-03	0	33	0	5435817984	48	14787
2026-01-12 20:52:34.31	230.47	8.72	-40.8	-41.2	12.5	4.88e-03	0	33	0	5553258496	48	14949
2026-01-12 20:52:35.31	230.64	8.78	-40.7	-41.0	12.6	4.24e-03	0	33	0	5662310400	48	14716
2026-01-12 20:52:36.31	230.82	8.85	-40.7	-41.0	12.6	4.24e-03	0	33	0	5779750912	48	14719
2026-01-12 20:52:37.31	231.00	8.92	-40.7	-41.0	12.6	4.24e-03	0	33	0	5888802816	48	14702
2026-01-12 20:52:38.31	231.18	8.99	-40.7	-41.0	12.6	4.40e-03	0	33	0	6006243328	48	14653
2026-01-12 20:52:39.31	231.36	9.05	-40.6	-40.9	12.6	4.40e-03	0	33	0	6115295232	48	14449
2026-01-12 20:52:40.30	231.54	9.12	-40.5	-40.8	12.7	4.40e-03	0	33	0	6224347136	48	14298
2026-01-12 20:52:41.30	231.73	9.19	-40.5	-40.8	12.7	4.00e-03	0	33	0	6341787648	48	14320
2026-01-12 20:52:42.30	231.91	9.26	-40.5	-40.8	12.7	4.00e-03	0	33	0	6450839552	48	14344
2026-01-12 20:52:43.30	232.10	9.32	-40.5	-40.8	12.7	3.16e-03	0	33	0	6568280064	48	14282
2026-01-12 20:52:44.30	232.28	9.39	-40.4	-40.7	12.7	3.16e-03	0	33	0	6677331968	48	14218
2026-01-12 20:52:45.31	232.47	9.46	-40.4	-40.7	12.7	3.16e-03	0	33	0	6786383872	48	14233
2026-01-12 20:52:46.30	232.66	9.53	-40.4	-40.7	12.7	3.18e-03	0	33	0	6903824384	48	14238
2026-01-12 20:52:47.30	232.85	9.59	-40.5	-40.8	12.7	3.18e-03	0	33	0	7012876288	48	14280
2026-01-12 20:52:48.30	233.04	9.66	-40.5	-40.8	12.7	3.47e-03	0	33	0	7121928192	48	14362
2026-01-12 20:52:49.30	233.23	9.73	-40.4	-40.7	12.7	3.47e-03	0	33	0	7230980096	48	14164
2026-01-12 20:52:50.29	233.42	9.80	-39.5	-39.8	12.6	3.38e-03	0	33	0	7348420608	46	14431
2026-01-12 20:52:51.30	233.62	9.87	-39.5	-39.8	12.6	3.38e-03	0	33	0	7457472512	46	14355
2026-01-12 20:52:52.29	233.81	9.93	-39.4	-39.7	12.6	3.38e-03	0	33	0	7574913024	46	14222
2026-01-12 20:52:53.29	234.01	10.00	-39.4	-39.7	12.5	4.68e-03	0	33	0	7683964928	45	15086
2026-01-12 20:52:54.29	234.20	10.07	-39.4	-39.7	12.5	4.68e-03	0	33	0	7793016832	45	15061
2026-01-12 20:52:55.29	234.40	10.14	-39.3	-39.6	12.6	4.68e-03	0	33	0	7910457344	45	14844
2026-01-12 20:52:56.29	234.60	10.20	-39.3	-39.6	12.6	4.52e-03	0	33	0	8019509248	45	14923
2026-01-12 20:52:57.29	234.80	10.27	-39.2	-39.5	12.6	4.52e-03	0	33	0	8136949760	45	14732
2026-01-12 20:52:58.29	235.00	10.34	-39.3	-39.6	12.5	4.52e-03	0	33	0	8246001664	45	14931
2026-01-12 20:52:59.28	235.20	10.41	-39.2	-39.5	12.6	4.14e-03	0	33	0	8355053568	45	14747
2026-01-12 20:53:00.27	235.41	10.47	-39.2	-39.5	12.6	4.14e-03	0	33	0	8472494080	45	14745
2026-01-12 20:53:01.27	235.61	10.54	-39.2	-39.5	12.6	4.14e-03	0	33	0	8581545984	45	14715
2026-01-12 20:53:02.26	235.81	10.61	-39.2	-39.5	12.6	3.97e-03	0	33	0	8698986496	45	14639
2026-01-12 20:53:03.26	236.02	10.67	-39.2	-39.5	12.6	3.97e-03	0	33	0	8808038400	45	14644
2026-01-12 20:53:04.26	236.23	10.74	-39.2	-39.5	12.6	3.97e-03	0	34	0	8925478912	45	14669
2026-01-12 20:53:05.25	236.44	10.81	-39.2	-39.5	12.6	3.52e-03	0	34	0	9034530816	45	14671
2026-01-12 20:53:06.25	236.65	10.88	-39.1	-39.4	12.6	3.52e-03	0	33	0	9143582720	45	14592
2026-01-12 20:53:07.25	236.86	10.94	-39.1	-39.4	12.7	3.52e-03	0	34	0	9252634624	45	14465
2026-01-12 20:53:08.25	237.07	11.01	-39.0	-39.3	12.7	3.87e-03	0	33	0	9370075136	45	14387
2026-01-12 20:53:09.25	237.28	11.08	-39.0	-39.3	12.7	3.87e-03	0	33	0	9479127040	45	14357
2026-01-12 20:53:10.25	237.50	11.14	-39.0	-39.3	12.7	3.87e-03	0	33	0	9596567552	45	14381
2026-01-12 20:53:11.25	237.72	11.21	-39.0	-39.4	12.7	3.30e-03	0	34	0	9705619456	45	14455
2026-01-12 20:53:12.26	237.93	11.28	-39.0	-39.3	12.7	3.30e-03	0	34	0	9823059968	45	14400
2026-01-12 20:53:13.24	238.15	11.34	-39.0	-39.3	12.7	3.30e-03	0	34	0	9932111872	45	14404
2026-01-12 20:53:14.24	238.37	11.41	-39.0	-39.3	12.7	3.39e-03	0	34	0	10041163776	45	14329
2026-01-12 20:53:15.24	238.59	11.48	-38.9	-39.3	12.7	3.39e-03	0	34	0	10150215680	45	14285
2026-01-12 20:53:16.24	238.81	11.54	-38.8	-39.1	12.6	3.39e-03	0	34	0	10267656192	44	14884
2026-01-12 20:53:17.24	239.03	11.61	-38.9	-39.2	12.6	3.08e-03	0	34	0	10376708096	44	15018
2026-01-12 20:53:18.24	239.26	11.68	-38.9	-39.2	12.6	3.08e-03	0	34	0	10494148608	44	15120
2026-01-12 20:53:19.24	239.48	11.74	-38.8	-39.1	12.6	3.08e-03	0	34	0	10603200512	44	14903
2026-01-12 20:53:20.24	239.71	11.81	-38.9	-39.2	12.6	3.16e-03	0	34	0	10712252416	44	14986
2026-01-12 20:53:21.24	239.94	11.88	-38.8	-39.1	12.7	3.16e-03	0	34	0	10829692928	44	14832
2026-01-12 20:53:22.24	240.17	11.94	-38.8	-39.1	12.7	2.93e-03	0	34	0	10938744832	44	14893
2026-01-12 20:53:23.24	240.40	12.01	-39.0	-39.3	12.6	2.93e-03	0	34	0	11056185344	44	15175
2026-01-12 20:53:24.24	240.63	12.07	-38.9	-39.2	12.6	2.93e-03	0	34	0	11165237248	44	15081
2026-01-12 20:53:25.24	240.86	12.14	-38.9	-39.2	12.6	3.37e-03	0	34	0	11282677760	44	14978
2026-01-12 20:53:26.23	241.09	12.20	-38.8	-39.1	12.7	3.37e-03	0	34	0	11391729664	44	14834
2026-01-12 20:53:27.23	241.33	12.27	-38.8	-39.1	12.6	3.37e-03	0	34	0	11500781568	44	14933
2026-01-12 20:53:28.23	241.57	12.33	-38.7	-39.1	12.7	3.35e-03	0	34	0	11618222080	44	14780
2026-01-12 20:53:29.23	241.80	12.40	-38.7	-39.1	12.7	3.35e-03	0	34	0	11727273984	44	14778
2026-01-12 20:53:30.22	242.04	12.46	-38.8	-39.1	12.6	3.06e-03	0	34	0	11844714496	44	14833
2026-01-12 20:53:31.21	242.28	12.53	-38.8	-39.1	12.6	3.06e-03	0	34	0	11953766400	44	14924
2026-01-12 20:53:32.22	242.52	12.59	-38.7	-39.0	12.7	3.06e-03	0	34	0	12062818304	44	14731
2026-01-12 20:53:33.22	242.76	12.66	-38.7	-39.0	12.7	3.06e-03	0	34	0	12180258816	44	14646
2026-01-12 20:53:34.22	243.01	12.72	-38.7	-39.0	12.7	2.88e-03	0	34	0	12289310720	44	14621
2026-01-12 20:53:35.22	243.25	12.78	-38.7	-38.9	12.7	2.88e-03	0	34	0	12406751232	44	14593
2026-01-12 20:53:36.22	243.50	12.85	-38.7	-39.0	12.7	2.88e-03	0	34	0	12515803136	44	14732
2026-01-12 20:53:37.23	243.75	12.91	-38.7	-39.0	12.7	2.58e-03	0	34	0	12624855040	44	14654
2026-01-12 20:53:38.22	243.99	12.97	-38.7	-39.0	12.7	2.58e-03	0	34	0	12742295552	44	14662
2026-01-12 20:53:39.22	244.24	13.04	-38.7	-39.0	12.7	2.58e-03	0	34	0	12851347456	44	14689
2026-01-12 20:53:40.21	244.49	13.10	-38.6	-38.9	12.7	2.75e-03	0	34	0	12968787968	44	14568
2026-01-12 20:53:41.21	244.75	13.16	-38.6	-38.9	12.7	2.75e-03	0	34	0	13077839872	44	14537
2026-01-12 20:53:42.20	245.00	13.22	-38.6	-38.9	12.7	2.72e-03	0	34	0	13186891776	44	14507
2026-01-12 20:53:43.21	245.25	13.28	-38.6	-38.9	12.7	2.72e-03	0	34	0	13304332288	44	14531
2026-01-12 20:53:44.20	245.51	13.35	-38.6	-38.9	12.7	2.72e-03	0	34	0	13413384192	44	14496
2026-01-12 20:53:45.20	245.77	13.41	-38.6	-38.9	12.7	2.79e-03	0	34	0	13530824704	44	14535
2026-01-12 20:53:46.20	246.02	13.47	-38.5	-38.8	12.7	2.79e-03	0	34	0	13631488000	44	14351
2026-01-12 20:53:47.20	246.28	13.53	-38.4	-38.8	12.8	2.79e-03	0	34	0	13757317120	44	14288
2026-01-12 20:53:48.21	246.55	13.59	-38.5	-38.8	12.7	2.22e-03	0	34	0	13866369024	44	14342
2026-01-12 20:53:49.21	246.81	13.65	-38.5	-38.8	12.7	2.22e-03	0	34	0	13975420928	44	14373
2026-01-12 20:53:50.22	247.08	13.71	-38.4	-38.7	12.8	2.22e-03	0	34	0	14092861440	44	14184
2026-01-12 20:53:51.21	247.34	13.77	-38.4	-38.7	12.7	2.11e-03	0	34	0	14201913344	44	14265
2026-01-12 20:53:52.21	247.60	13.83	-38.4	-38.7	12.7	2.11e-03	0	34	0	14319353856	44	14265
2026-01-12 20:53:53.21	247.87	13.89	-38.5	-38.8	12.7	2.11e-03	0	34	0	14428405760	44	14427
2026-01-12 20:53:54.21	248.14	13.95	-38.3	-38.6	12.7	2.16e-03	0	34	0	14537457664	43	14938
2026-01-12 20:53:55.20	248.41	14.01	-38.1	-38.4	12.7	2.16e-03	0	34	0	14654898176	43	14542
2026-01-12 20:53:56.21	248.68	14.06	-38.2	-38.5	12.7	2.16e-03	0	34	0	14763950080	43	14719
2026-01-12 20:53:57.20	248.95	14.12	-38.2	-38.5	12.7	2.16e-03	0	34	0	14881390592	43	14741
2026-01-12 20:53:58.21	249.23	14.18	-38.2	-38.5	12.8	2.02e-03	0	34	0	14990442496	43	14658
2026-01-12 20:53:59.21	249.50	14.24	-38.1	-38.4	12.8	2.02e-03	0	34	0	15099494400	43	14552
2026-01-12 20:54:00.20	249.78	14.29	-38.0	-38.3	12.8	2.02e-03	0	34	0	15216934912	43	14365
2026-01-12 20:54:01.20	250.05	14.35	-38.0	-38.3	12.8	1.69e-03	0	34	0	15325986816	43	14370
2026-01-12 20:54:02.19	250.33	14.40	-38.0	-38.3	12.8	1.69e-03	0	34	0	15435038720	43	14394
2026-01-12 20:54:03.19	250.61	14.46	-37.9	-38.2	12.8	1.69e-03	0	34	0	15544090624	43	14157
2026-01-12 20:54:04.18	250.89	14.51	-37.7	-38.0	12.8	1.36e-03	0	34	0	15661531136	42	14681
2026-01-12 20:54:05.18	251.17	14.57	-37.7	-38.0	12.8	1.36e-03	0	34	0	15770583040	42	14709
2026-01-12 20:54:06.18	251.45	14.62	-37.7	-38.0	12.8	1.36e-03	0	34	0	15888023552	42	14695
2026-01-12 20:54:07.17	251.73	14.68	-37.7	-38.0	12.8	1.36e-03	0	34	0	15997075456	42	14727
2026-01-12 20:54:08.18	252.02	14.73	-37.7	-38.0	12.8	1.13e-03	0	34	0	16114515968	42	14713
2026-01-12 20:54:09.18	252.31	14.78	-37.7	-38.0	12.8	1.13e-03	0	34	0	16223567872	42	14739
2026-01-12 20:54:10.18	252.59	14.84	-37.7	-38.0	12.8	1.29e-03	0	34	0	16332619776	42	14643
2026-01-12 20:54:11.18	252.88	14.89	-37.6	-37.9	12.8	1.29e-03	0	34	0	16450060288	42	14562
2026-01-12 20:54:12.17	253.17	14.94	-37.6	-37.9	12.9	1.29e-03	0	34	0	16559112192	42	14541
2026-01-12 20:54:13.17	253.46	14.99	-37.7	-38.0	12.8	1.29e-03	0	34	0	16676552704	42	14674
2026-01-12 20:54:14.17	253.75	15.04	-37.6	-37.8	12.9	1.29e-03	0	34	0	16785604608	42	14440
2026-01-12 20:54:15.16	254.05	15.09	-37.6	-37.9	12.8	1.22e-03	0	34	0	16894656512	42	14593
2026-01-12 20:54:16.15	254.34	15.14	-37.7	-38.0	12.8	1.22e-03	0	34	0	17003708416	42	14635
2026-01-12 20:54:17.15	254.63	15.19	-37.6	-37.8	12.9	1.22e-03	0	34	0	17121148928	42	14428
2026-01-12 20:54:18.14	254.93	15.24	-37.6	-37.9	12.8	1.23e-03	0	34	0	17230200832	42	14575
2026-01-12 20:54:19.14	255.22	15.29	-37.6	-37.9	12.9	1.23e-03	0	34	0	17339252736	42	14528
2026-01-12 20:54:20.14	255.52	15.33	-37.5	-37.8	12.9	1.23e-03	0	34	0	17456693248	42	14390
2026-01-12 20:54:21.14	255.82	15.38	-37.6	-37.9	12.9	1.07e-03	0	34	0	17565745152	42	14457
2026-01-12 20:54:22.13	256.12	15.43	-37.6	-37.9	12.9	1.07e-03	0	34	0	17683185664	42	14503
2026-01-12 20:54:23.12	256.42	15.47	-37.6	-37.8	12.9	9.49e-04	0	34	0	17792237568	42	14428
2026-01-12 20:54:24.12	256.73	15.52	-37.5	-37.8	12.9	9.49e-04	0	34	0	17901289472	42	14336
2026-01-12 20:54:25.12	257.03	15.56	-37.5	-37.8	12.9	9.49e-04	0	34	0	18018729984	42	14308
2026-01-12 20:54:26.12	257.34	15.61	-37.4	-37.7	12.9	1.03e-03	0	35	0	18127781888	42	14220
2026-01-12 20:54:27.11	257.64	15.65	-37.4	-37.7	12.9	1.03e-03	0	34	0	18245222400	42	14272
2026-01-12 20:54:28.11	257.95	15.69	-37.6	-37.9	12.9	1.03e-03	0	35	0	18354274304	42	14447
2026-01-12 20:54:29.11	258.25	15.74	-37.4	-37.7	12.9	9.15e-04	0	34	0	18463326208	42	14227
2026-01-12 20:54:30.11	258.56	15.78	-37.4	-37.7	12.9	9.15e-04	0	34	0	18580766720	42	14145
2026-01-12 20:54:31.10	258.87	15.82	-37.5	-37.7	12.9	9.15e-04	0	35	0	18689818624	42	14271
2026-01-12 20:54:32.10	259.18	15.86	-37.3	-37.6	12.9	8.77e-04	0	34	0	18798870528	41	14892
2026-01-12 20:54:33.09	259.49	15.90	-37.3	-37.6	12.8	8.77e-04	0	35	0	18907922432	41	14946
2026-01-12 20:54:34.08	259.80	15.94	-37.5	-37.8	12.8	8.77e-04	0	34	0	19025362944	41	15154
2026-01-12 20:54:35.08	260.12	15.98	-37.6	-37.9	12.8	1.01e-03	0	35	0	19134414848	41	15320
2026-01-12 20:54:36.08	260.43	16.02	-37.4	-37.8	12.8	1.01e-03	0	34	0	19251855360	41	15128
2026-01-12 20:54:37.08	260.75	16.05	-37.3	-37.7	12.8	1.01e-03	0	35	0	19360907264	41	14965
2026-01-12 20:54:38.08	261.07	16.09	-37.4	-37.7	12.8	1.01e-03	0	35	0	19469959168	41	14973
2026-01-12 20:54:39.09	261.39	16.13	-37.4	-37.7	12.8	1.01e-03	0	35	0	19587399680	41	15060
2026-01-12 20:54:40.08	261.70	16.16	-37.4	-37.7	12.8	1.01e-03	0	35	0	19696451584	41	15079
2026-01-12 20:54:41.08	262.02	16.20	-37.4	-37.7	12.8	1.02e-03	0	35	0	19813892096	41	14965
2026-01-12 20:54:42.08	262.34	16.23	-37.4	-37.6	12.8	1.02e-03	0	35	0	19922944000	41	14944
2026-01-12 20:54:43.08	262.66	16.27	-37.4	-37.7	12.8	1.02e-03	0	35	0	20040384512	41	15088
2026-01-12 20:54:44.08	262.99	16.30	-37.4	-37.7	12.8	1.04e-03	0	35	0	20149436416	41	15049
2026-01-12 20:54:45.08	263.31	16.33	-37.4	-37.7	12.8	1.04e-03	0	34	0	20258488320	41	15087
2026-01-12 20:54:46.07	263.63	16.36	-37.4	-37.7	12.8	1.04e-03	0	34	0	20375928832	41	15075
2026-01-12 20:54:47.06	263.95	16.39	-37.5	-37.7	12.8	1.04e-03	0	34	0	20484980736	41	15115
2026-01-12 20:54:48.06	264.28	16.42	-37.4	-37.7	12.8	1.02e-03	0	35	0	20602421248	41	14991
2026-01-12 20:54:49.05	264.60	16.45	-37.5	-37.8	12.8	1.02e-03	0	35	0	20703084544	41	15140
2026-01-12 20:54:50.05	264.93	16.48	-37.4	-37.7	12.8	1.02e-03	0	34	0	20820525056	41	15039
2026-01-12 20:54:51.04	265.25	16.51	-37.5	-37.8	12.8	1.22e-03	0	34	0	20929576960	41	15191
2026-01-12 20:54:52.04	265.58	16.53	-37.4	-37.7	12.8	1.22e-03	0	34	0	21047017472	41	15028
2026-01-12 20:54:53.03	265.90	16.56	-37.5	-37.8	12.8	1.22e-03	0	34	0	21156069376	41	15128
2026-01-12 20:54:54.03	266.23	16.59	-37.5	-37.7	12.8	2.43e-03	0	34	0	21265121280	41	15111
2026-01-12 20:54:55.03	266.56	16.61	-37.6	-37.9	12.8	2.43e-03	0	35	0	21382561792	41	15372
2026-01-12 20:54:56.02	266.89	16.63	-37.5	-37.8	12.8	2.00e-03	0	35	0	21491613696	41	15223
2026-01-12 20:54:57.01	267.22	16.66	-37.5	-37.8	12.8	2.00e-03	0	35	0	21609054208	41	15285
2026-01-12 20:54:58.00	267.54	16.68	-37.5	-37.8	12.8	2.00e-03	0	35	0	21718106112	41	15283
2026-01-12 20:54:58.99	267.87	16.70	-37.4	-37.7	12.8	1.22e-03	0	35	0	21827158016	41	15055
2026-01-12 20:54:59.99	268.21	16.72	-37.5	-37.8	12.8	1.22e-03	0	35	0	21936209920	41	15232
2026-01-12 20:55:00.98	268.54	16.74	-37.4	-37.7	12.8	1.22e-03	0	35	0	22053650432	41	15111
2026-01-12 20:55:01.99	268.87	16.76	-37.4	-37.7	12.8	1.28e-03	0	35	0	22162702336	41	14976
2026-01-12 20:55:02.99	269.21	16.78	-37.4	-37.7	12.8	1.28e-03	0	34	0	22271754240	41	15017
2026-01-12 20:55:03.98	269.54	16.79	-37.5	-37.7	12.8	1.28e-03	0	35	0	22389194752	41	15101
2026-01-12 20:55:04.98	269.87	16.81	-37.4	-37.7	12.8	1.28e-03	0	35	0	22498246656	41	14961
2026-01-12 20:55:05.97	270.21	16.83	-37.5	-37.8	12.7	1.43e-03	0	35	0	22615687168	41	15237
2026-01-12 20:55:06.97	270.54	16.84	-37.5	-37.8	12.7	1.43e-03	0	34	0	22724739072	41	15271
2026-01-12 20:55:07.97	270.88	16.86	-37.6	-37.9	12.7	1.43e-03	0	35	0	22833790976	41	15357
2026-01-12 20:55:08.96	271.21	16.87	-37.6	-37.9	12.7	1.84e-03	0	35	0	22951231488	41	15309
2026-01-12 20:55:09.96	271.55	16.88	-37.5	-37.8	12.7	1.84e-03	0	35	0	23060283392	41	15261
2026-01-12 20:55:10.97	271.89	16.89	-37.6	-37.8	12.7	1.84e-03	0	35	0	23177723904	41	15288
2026-01-12 20:55:11.97	272.22	16.90	-37.7	-38.0	12.7	1.97e-03	0	35	0	23286775808	41	15492
2026-01-12 20:55:12.97	272.56	16.91	-37.5	-37.8	12.7	1.97e-03	0	35	0	23404216320	41	15269
2026-01-12 20:55:13.97	272.90	16.92	-37.5	-37.7	12.7	1.97e-03	0	35	0	23513268224	41	15113
2026-01-12 20:55:14.96	273.23	16.93	-37.5	-37.8	12.7	1.68e-03	0	35	0	23622320128	41	15172
2026-01-12 20:55:15.96	273.57	16.94	-37.6	-37.9	12.7	1.68e-03	0	35	0	23739760640	41	15330
2026-01-12 20:55:16.95	273.91	16.95	-37.7	-38.0	12.7	1.68e-03	0	35	0	23848812544	41	15533
2026-01-12 20:55:17.95	274.25	16.95	-37.5	-37.8	12.7	1.65e-03	0	35	0	23966253056	41	15230
2026-01-12 20:55:18.94	274.58	16.96	-37.6	-37.9	12.7	1.65e-03	0	35	0	24066916352	41	15342
2026-01-12 20:55:19.93	274.92	16.96	-37.6	-37.9	12.7	1.39e-03	0	35	0	24184356864	41	15378
2026-01-12 20:55:20.92	275.25	16.96	-37.6	-37.9	12.7	1.39e-03	0	35	0	24293408768	41	15316
2026-01-12 20:55:21.92	275.59	16.97	-37.5	-37.8	12.7	1.48e-03	0	35	0	24410849280	41	15252
2026-01-12 20:55:22.92	275.93	16.97	-37.5	-37.8	12.7	1.48e-03	0	35	0	24519901184	41	15200
2026-01-12 20:55:23.91	276.27	16.97	-37.5	-37.8	12.7	1.48e-03	0	35	0	24628953088	41	15269
2026-01-12 20:55:24.90	276.60	16.97	-37.5	-37.8	12.7	1.41e-03	0	35	0	24738004992	41	15236
2026-01-12 20:55:25.90	276.94	16.97	-37.6	-37.9	12.7	1.41e-03	0	35	0	24855445504	41	15347
2026-01-12 20:55:26.89	277.28	16.96	-37.6	-37.9	12.7	1.52e-03	0	35	0	24964497408	41	15341
2026-01-12 20:55:27.90	277.62	16.96	-37.7	-38.0	12.7	1.52e-03	0	35	0	25073549312	41	15502
2026-01-12 20:55:28.90	277.96	16.96	-37.6	-37.9	12.7	1.52e-03	0	35	0	25190989824	41	15399
2026-01-12 20:55:29.89	278.29	16.95	-37.7	-38.0	12.7	1.38e-03	0	35	0	25300041728	41	15508
2026-01-12 20:55:30.88	278.63	16.95	-37.7	-38.0	12.7	1.38e-03	0	35	0	25417482240	41	15528
2026-01-12 20:55:31.88	278.97	16.94	-37.7	-38.0	12.7	1.38e-03	0	35	0	25526534144	41	15572
2026-01-12 20:55:32.88	279.30	16.93	-37.7	-38.0	12.7	1.60e-03	0	35	0	25635586048	41	15597
2026-01-12 20:55:33.86	279.63	16.93	-37.8	-38.1	12.7	1.60e-03	0	35	0	25753026560	41	15696
2026-01-12 20:55:34.86	279.97	16.92	-37.8	-38.1	12.7	1.84e-03	0	35	0	25862078464	41	15779
2026-01-12 20:55:35.85	280.31	16.91	-37.8	-38.1	12.7	1.84e-03	0	35	0	25979518976	41	15661
2026-01-12 20:55:36.86	280.65	16.90	-37.8	-38.1	12.7	1.84e-03	0	35	0	26088570880	41	15657
2026-01-12 20:55:37.85	280.98	16.89	-37.8	-38.1	12.7	1.84e-03	0	35	0	26197622784	41	15780
2026-01-12 20:55:38.85	281.32	16.87	-37.8	-38.1	12.7	1.84e-03	0	35	0	26306674688	41	15682
2026-01-12 20:55:39.84	281.65	16.86	-37.8	-38.1	12.7	2.08e-03	0	35	0	26424115200	41	15748
2026-01-12 20:55:40.83	281.98	16.85	-37.9	-38.2	12.6	2.08e-03	0	35	0	26533167104	41	15913
2026-01-12 20:55:41.83	282.32	16.83	-37.8	-38.1	12.6	2.08e-03	0	35	0	26642219008	41	15804
2026-01-12 20:55:42.84	282.66	16.82	-37.9	-38.2	12.6	2.08e-03	0	35	0	26759659520	41	15959
2026-01-12 20:55:43.83	282.99	16.80	-38.0	-38.3	12.6	2.11e-03	0	35	0	26868711424	41	16128
2026-01-12 20:55:44.83	283.32	16.79	-38.0	-38.3	12.6	2.11e-03	0	35	0	26986151936	42	15161
2026-01-12 20:55:45.82	283.65	16.77	-38.0	-38.3	12.6	2.33e-03	0	35	0	27095203840	42	15244
2026-01-12 20:55:46.83	283.99	16.75	-38.0	-38.2	12.6	2.33e-03	0	35	0	27204255744	42	15112
2026-01-12 20:55:47.82	284.32	16.73	-38.0	-38.3	12.6	2.33e-03	0	35	0	27321696256	42	15244
2026-01-12 20:55:48.82	284.65	16.71	-38.1	-38.4	12.6	2.54e-03	0	35	0	27430748160	42	15314
2026-01-12 20:55:49.82	284.98	16.69	-38.0	-38.3	12.6	2.54e-03	0	35	0	27548188672	42	15149
2026-01-12 20:55:50.82	285.31	16.67	-37.9	-38.2	12.7	2.54e-03	0	35	0	27657240576	42	15082
2026-01-12 20:55:51.81	285.64	16.64	-38.1	-38.3	12.6	2.16e-03	0	35	0	27774681088	42	15271
2026-01-12 20:55:52.81	285.97	16.62	-38.0	-38.3	12.7	2.16e-03	0	35	0	27883732992	42	15135
2026-01-12 20:55:53.80	286.30	16.60	-38.0	-38.3	12.7	1.74e-03	0	35	0	27992784896	42	15121
2026-01-12 20:55:54.80	286.63	16.57	-37.9	-38.2	12.7	1.74e-03	0	35	0	28101836800	42	14962
2026-01-12 20:55:55.80	286.96	16.55	-38.0	-38.2	12.7	1.74e-03	0	35	0	28219277312	42	15102
2026-01-12 20:55:56.80	287.28	16.52	-38.1	-38.4	12.6	1.64e-03	0	35	0	28328329216	42	15327
2026-01-12 20:55:57.80	287.61	16.49	-37.9	-38.2	12.7	1.64e-03	0	35	0	28437381120	42	14985
2026-01-12 20:55:58.80	287.94	16.46	-38.0	-38.3	12.7	1.64e-03	0	35	0	28554821632	42	15201
2026-01-12 20:55:59.79	288.26	16.44	-38.1	-38.3	12.6	1.66e-03	0	35	0	28663873536	42	15276
2026-01-12 20:56:00.79	288.58	16.41	-37.9	-38.2	12.7	1.66e-03	0	35	0	28781314048	42	14977
2026-01-12 20:56:01.80	288.91	16.38	-38.1	-38.4	12.7	1.44e-03	0	35	0	28890365952	42	15343
2026-01-12 20:56:02.79	289.23	16.34	-37.9	-38.2	12.7	1.44e-03	0	35	0	28999417856	42	15111
2026-01-12 20:56:03.79	289.55	16.31	-38.1	-38.4	12.7	1.44e-03	0	35	0	29116858368	42	15305
2026-01-12 20:56:04.78	289.87	16.28	-38.0	-38.3	12.7	1.74e-03	0	35	0	29225910272	42	15225
2026-01-12 20:56:05.78	290.19	16.25	-38.0	-38.3	12.7	1.74e-03	0	35	0	29343350784	42	15216
2026-01-12 20:56:06.77	290.51	16.21	-38.0	-38.3	12.7	1.48e-03	0	35	0	29452402688	42	15247
2026-01-12 20:56:07.78	290.83	16.18	-38.1	-38.4	12.7	1.48e-03	0	35	0	29561454592	42	15404
2026-01-12 20:56:08.78	291.15	16.14	-38.0	-38.3	12.7	1.48e-03	0	35	0	29678895104	42	15285
2026-01-12 20:56:09.78	291.47	16.11	-38.1	-38.4	12.7	1.49e-03	0	35	0	29787947008	42	15375
2026-01-12 20:56:10.78	291.78	16.07	-38.1	-38.4	12.7	1.49e-03	0	35	0	29905387520	42	15428
2026-01-12 20:56:11.78	292.10	16.03	-38.0	-38.3	12.7	1.49e-03	0	35	0	30014439424	42	15229
2026-01-12 20:56:12.77	292.41	16.00	-38.0	-38.3	12.7	1.67e-03	0	35	0	30131879936	42	15204
2026-01-12 20:56:13.78	292.73	15.96	-38.2	-38.5	12.7	1.67e-03	0	35	0	30240931840	42	15483
2026-01-12 20:56:14.77	293.04	15.92	-38.3	-38.6	12.7	1.67e-03	0	35	0	30349983744	42	15689
2026-01-12 20:56:15.77	293.35	15.88	-38.2	-38.5	12.7	1.54e-03	0	35	0	30467424256	42	15486
2026-01-12 20:56:16.76	293.66	15.84	-38.2	-38.5	12.7	1.54e-03	0	35	0	30576476160	42	15552
2026-01-12 20:56:17.76	293.97	15.80	-38.1	-38.4	12.7	1.54e-03	0	35	0	30693916672	42	15404
2026-01-12 20:56:18.76	294.28	15.76	-38.2	-38.5	12.7	1.63e-03	0	35	0	30802968576	42	15560
2026-01-12 20:56:19.76	294.58	15.72	-38.1	-38.4	12.7	1.63e-03	0	35	0	30912020480	42	15463
2026-01-12 20:56:20.76	294.89	15.67	-38.2	-38.5	12.7	1.47e-03	0	35	0	31029460992	42	15610
2026-01-12 20:56:21.75	295.19	15.63	-38.2	-38.5	12.7	1.47e-03	0	35	0	31138512896	42	15502
2026-01-12 20:56:22.75	295.50	15.59	-38.2	-38.5	12.7	1.61e-03	0	35	0	31247564800	42	15644
2026-01-12 20:56:23.74	295.80	15.54	-38.3	-38.6	12.7	1.61e-03	0	35	0	31356616704	42	15816
2026-01-12 20:56:24.74	296.10	15.50	-38.3	-38.5	12.7	1.61e-03	0	35	0	31474057216	42	15652
2026-01-12 20:56:25.74	296.40	15.45	-38.3	-38.6	12.7	1.55e-03	0	35	0	31583109120	42	15779
2026-01-12 20:56:26.73	296.70	15.40	-38.4	-38.7	12.7	1.55e-03	0	35	0	31700549632	42	15975
2026-01-12 20:56:27.72	297.00	15.36	-38.5	-38.8	12.7	1.55e-03	0	35	0	31809601536	42	16068
2026-01-12 20:56:28.71	297.29	15.31	-38.4	-38.7	12.7	1.77e-03	0	35	0	31918653440	43	15107
2026-01-12 20:56:29.70	297.59	15.26	-38.4	-38.7	12.7	1.77e-03	0	35	0	32036093952	43	14999
2026-01-12 20:56:30.69	297.88	15.22	-38.4	-38.6	12.7	1.62e-03	0	35	0	32145145856	43	14930
2026-01-12 20:56:31.69	298.18	15.17	-38.4	-38.7	12.8	1.62e-03	0	35	0	32254197760	43	14961
2026-01-12 20:56:32.68	298.47	15.12	-38.4	-38.7	12.8	1.62e-03	0	35	0	32363249664	43	14957
2026-01-12 20:56:33.67	298.76	15.07	-38.4	-38.7	12.7	1.20e-03	0	35	0	32480690176	43	15032
2026-01-12 20:56:34.67	299.05	15.02	-38.5	-38.8	12.7	1.20e-03	0	35	0	32589742080	43	15128
2026-01-12 20:56:35.66	299.34	14.97	-38.5	-38.8	12.7	1.20e-03	0	35	0	32707182592	43	15219
2026-01-12 20:56:36.66	299.63	14.92	-38.7	-38.9	12.7	1.44e-03	0	35	0	32816234496	43	15443
2026-01-12 20:56:37.65	299.91	14.87	-38.7	-39.0	12.7	1.44e-03	0	35	0	32925286400	43	15548
2026-01-12 20:56:38.65	300.20	14.81	-38.6	-38.9	12.7	1.64e-03	0	35	0	33042726912	43	15327
2026-01-12 20:56:39.65	300.49	14.76	-38.6	-38.9	12.7	1.64e-03	0	35	0	33151778816	43	15319
2026-01-12 20:56:40.65	300.77	14.71	-38.7	-39.0	12.7	1.64e-03	0	35	0	33260830720	43	15619
2026-01-12 20:56:41.64	301.05	14.66	-38.7	-39.0	12.7	1.61e-03	0	35	0	33369882624	43	15516
2026-01-12 20:56:42.64	301.34	14.60	-38.7	-39.0	12.7	1.61e-03	0	35	0	33487323136	43	15599
2026-01-12 20:56:43.64	301.62	14.55	-38.7	-39.0	12.7	1.61e-03	0	35	0	33596375040	43	15498
2026-01-12 20:56:44.63	301.89	14.49	-38.6	-38.9	12.7	1.66e-03	0	35	0	33713815552	43	15306
2026-01-12 20:56:45.63	302.17	14.44	-38.6	-38.9	12.7	1.66e-03	0	35	0	33822867456	43	15436
2026-01-12 20:56:46.62	302.45	14.38	-38.6	-38.9	12.7	1.71e-03	0	35	0	33931919360	43	15420
2026-01-12 20:56:47.62	302.72	14.33	-38.5	-38.8	12.8	1.71e-03	0	35	0	34049359872	43	15126
2026-01-12 20:56:48.62	303.00	14.27	-38.5	-38.8	12.7	1.54e-03	0	35	0	34158411776	43	15267
2026-01-12 20:56:49.61	303.27	14.22	-38.6	-38.9	12.7	1.54e-03	0	35	0	34275852288	43	15371
2026-01-12 20:56:50.61	303.54	14.16	-38.6	-38.9	12.8	1.48e-03	0	35	0	34384904192	43	15352
2026-01-12 20:56:51.61	303.82	14.10	-38.6	-38.9	12.8	1.48e-03	0	35	0	34502344704	43	15388
2026-01-12 20:56:52.61	304.09	14.04	-38.6	-38.9	12.7	1.48e-03	0	35	0	34611396608	43	15338
2026-01-12 20:56:53.61	304.35	13.99	-38.6	-38.9	12.8	1.55e-03	0	35	0	34720448512	43	15330
2026-01-12 20:56:54.61	304.62	13.93	-38.7	-39.0	12.7	1.55e-03	0	35	0	34837889024	43	15542
2026-01-12 20:56:55.61	304.89	13.87	-38.8	-39.0	12.7	1.55e-03	0	35	0	34946940928	43	15627
2026-01-12 20:56:56.61	305.16	13.81	-38.9	-39.2	12.7	1.67e-03	0	35	0	35064381440	43	15896
2026-01-12 20:56:57.60	305.42	13.75	-38.8	-39.1	12.7	1.67e-03	0	35	0	35165044736	43	15686
2026-01-12 20:56:58.59	305.68	13.69	-38.8	-39.1	12.7	1.67e-03	0	35	0	35282485248	43	15790
2026-01-12 20:56:59.60	305.94	13.63	-38.7	-39.0	12.7	1.81e-03	0	35	0	35391537152	43	15603
2026-01-12 20:57:00.60	306.20	13.57	-38.9	-39.2	12.7	1.81e-03	0	35	0	35508977664	43	15846
2026-01-12 20:57:01.61	306.46	13.51	-38.8	-39.1	12.7	2.17e-03	0	35	0	35626418176	43	15711
2026-01-12 20:57:02.61	306.72	13.45	-38.9	-39.2	12.7	2.17e-03	0	35	0	35735470080	43	15871
2026-01-12 20:57:03.60	306.98	13.39	-39.0	-39.3	12.7	2.17e-03	0	35	0	35844521984	43	16036
2026-01-12 20:57:04.61	307.23	13.33	-38.8	-39.1	12.7	1.96e-03	0	35	0	35961962496	43	15789
2026-01-12 20:57:05.61	307.49	13.27	-38.9	-39.2	12.7	1.96e-03	0	35	0	36071014400	43	15884
2026-01-12 20:57:06.60	307.74	13.21	-38.9	-39.2	12.7	1.96e-03	0	35	0	36188454912	43	15982
2026-01-12 20:57:07.60	307.99	13.14	-38.9	-39.2	12.7	1.85e-03	0	35	0	36297506816	43	15991
2026-01-12 20:57:08.59	308.24	13.08	-39.0	-39.2	12.7	1.85e-03	0	35	0	36406558720	43	16004
2026-01-12 20:57:09.59	308.49	13.02	-39.0	-39.3	12.7	1.85e-03	0	35	0	36515610624	43	16080
2026-01-12 20:57:10.59	308.74	12.96	-39.0	-39.3	12.7	2.01e-03	0	35	0	36633051136	43	16092
2026-01-12 20:57:11.60	308.99	12.89	-39.0	-39.3	12.7	2.01e-03	0	35	0	36742103040	43	16123
2026-01-12 20:57:12.60	309.23	12.83	-39.0	-39.3	12.6	2.18e-03	0	35	0	36851154944	43	16150
2026-01-12 20:57:13.59	309.47	12.77	-39.2	-39.5	12.6	2.18e-03	0	35	0	36968595456	44	15615
2026-01-12 20:57:14.59	309.72	12.71	-39.1	-39.4	12.7	2.18e-03	0	35	0	37077647360	44	15360
2026-01-12 20:57:15.58	309.96	12.64	-39.1	-39.4	12.7	2.18e-03	0	35	0	37195087872	44	15322
2026-01-12 20:57:16.57	310.20	12.58	-39.2	-39.5	12.6	1.96e-03	0	35	0	37304139776	44	15500
2026-01-12 20:57:17.57	310.44	12.52	-39.1	-39.4	12.7	1.96e-03	0	35	0	37421580288	44	15450
2026-01-12 20:57:18.58	310.68	12.45	-39.1	-39.4	12.7	2.23e-03	0	35	0	37530632192	44	15407
2026-01-12 20:57:19.57	310.91	12.39	-39.2	-39.5	12.6	2.23e-03	0	35	0	37639684096	44	15628
2026-01-12 20:57:20.57	311.15	12.32	-39.2	-39.4	12.7	2.23e-03	0	35	0	37757124608	44	15445
2026-01-12 20:57:21.57	311.38	12.26	-39.2	-39.5	12.6	2.26e-03	0	35	0	37866176512	44	15632
2026-01-12 20:57:22.57	311.61	12.19	-39.2	-39.5	12.6	2.26e-03	0	35	0	37983617024	44	15582
2026-01-12 20:57:23.55	311.84	12.13	-39.2	-39.5	12.7	2.26e-03	0	35	0	38092668928	44	15519
2026-01-12 20:57:24.55	312.07	12.06	-39.2	-39.5	12.6	2.40e-03	0	35	0	38201720832	44	15595
2026-01-12 20:57:25.55	312.30	12.00	-39.2	-39.5	12.6	2.40e-03	0	35	0	38310772736	44	15634
2026-01-12 20:57:26.54	312.53	11.93	-39.4	-39.7	12.6	2.40e-03	0	35	0	38428213248	44	15994
2026-01-12 20:57:27.53	312.75	11.87	-39.4	-39.7	12.6	2.40e-03	0	35	0	38537265152	44	15885
2026-01-12 20:57:28.53	312.98	11.80	-39.3	-39.6	12.6	2.63e-03	0	35	0	38646317056	44	15672
2026-01-12 20:57:29.52	313.20	11.74	-39.5	-39.8	12.6	2.63e-03	0	35	0	38763757568	44	16118
2026-01-12 20:57:30.52	313.43	11.67	-39.6	-39.9	12.6	3.08e-03	0	35	0	38872809472	45	15377
2026-01-12 20:57:31.51	313.65	11.61	-39.4	-39.7	12.6	3.08e-03	0	35	0	38990249984	45	15040
2026-01-12 20:57:32.50	313.87	11.54	-39.5	-39.8	12.6	3.08e-03	0	35	0	39099301888	45	15136
2026-01-12 20:57:33.49	314.09	11.48	-39.5	-39.8	12.6	3.77e-03	0	35	0	39208353792	45	15212
2026-01-12 20:57:34.49	314.31	11.41	-39.7	-40.0	12.5	3.77e-03	0	35	0	39317405696	45	15534
2026-01-12 20:57:35.48	314.52	11.35	-39.8	-40.1	12.5	3.77e-03	0	35	0	39434846208	45	15736
2026-01-12 20:57:36.48	314.74	11.28	-39.7	-40.0	12.5	3.77e-03	0	35	0	39543898112	45	15609
2026-01-12 20:57:37.48	314.95	11.21	-39.5	-39.8	12.6	5.62e-03	0	35	0	39652950016	45	15202
2026-01-12 20:57:38.48	315.17	11.15	-39.5	-39.8	12.6	5.62e-03	0	35	0	39770390528	45	15272
2026-01-12 20:57:39.49	315.38	11.08	-39.5	-39.8	12.6	5.62e-03	0	35	0	39879442432	45	15128
2026-01-12 20:57:40.48	315.59	11.01	-39.5	-39.8	12.6	3.23e-03	0	35	0	39996882944	45	15209
2026-01-12 20:57:41.48	315.81	10.95	-39.6	-39.9	12.6	3.23e-03	0	35	0	40105934848	45	15392
2026-01-12 20:57:42.47	316.01	10.88	-39.6	-39.9	12.5	3.23e-03	0	35	0	40214986752	45	15392
2026-01-12 20:57:43.47	316.22	10.81	-39.5	-39.7	12.6	2.99e-03	0	35	0	40332427264	45	15119
2026-01-12 20:57:44.47	316.43	10.75	-39.6	-39.9	12.6	2.99e-03	0	35	0	40441479168	45	15376
2026-01-12 20:57:45.46	316.63	10.68	-39.6	-39.9	12.6	2.63e-03	0	35	0	40558919680	45	15341
2026-01-12 20:57:46.46	316.84	10.61	-39.6	-39.9	12.5	2.63e-03	0	35	0	40667971584	45	15385
2026-01-12 20:57:47.45	317.04	10.55	-39.6	-39.9	12.6	2.79e-03	0	35	0	40777023488	45	15334
2026-01-12 20:57:48.44	317.24	10.48	-39.4	-39.7	12.6	2.79e-03	0	35	0	40886075392	45	15047
2026-01-12 20:57:49.44	317.45	10.41	-39.5	-39.8	12.6	2.79e-03	0	35	0	41003515904	45	15236
2026-01-12 20:57:50.44	317.65	10.35	-39.5	-39.7	12.6	2.89e-03	0	35	0	41112567808	45	15114
2026-01-12 20:57:51.44	317.85	10.28	-39.5	-39.8	12.6	2.89e-03	0	35	0	41221619712	45	15237
2026-01-12 20:57:52.44	318.05	10.21	-39.5	-39.8	12.5	2.89e-03	0	35	0	41339060224	45	15274
2026-01-12 20:57:53.42	318.24	10.15	-39.6	-39.9	12.6	2.85e-03	0	35	0	41448112128	45	15381
2026-01-12 20:57:54.42	318.44	10.08	-39.5	-39.8	12.6	2.85e-03	0	35	0	41565552640	45	15212
2026-01-12 20:57:55.42	318.63	10.01	-39.6	-39.9	12.5	2.85e-03	0	35	0	41674604544	45	15471
2026-01-12 20:57:56.41	318.83	9.94	-39.5	-39.8	12.6	3.29e-03	0	35	0	41792045056	45	15269
2026-01-12 20:57:57.42	319.02	9.88	-39.8	-40.1	12.5	3.29e-03	0	35	0	41901096960	45	15691
2026-01-12 20:57:58.42	319.21	9.81	-39.6	-39.9	12.5	3.29e-03	0	35	0	42010148864	45	15375
2026-01-12 20:57:59.40	319.40	9.74	-39.6	-40.0	12.5	3.26e-03	0	35	0	42127589376	45	15488
2026-01-12 20:58:00.39	319.59	9.68	-39.7	-40.0	12.5	3.26e-03	0	35	0	42236641280	45	15554
2026-01-12 20:58:01.38	319.78	9.61	-39.7	-40.0	12.5	3.26e-03	0	35	0	42345693184	45	15490
2026-01-12 20:58:02.38	319.97	9.54	-39.8	-40.1	12.5	3.31e-03	0	35	0	42454745088	45	15726
2026-01-12 20:58:03.38	320.15	9.48	-39.7	-40.1	12.5	3.31e-03	0	35	0	42572185600	45	15670
2026-01-12 20:58:04.38	320.34	9.41	-39.9	-40.2	12.4	3.65e-03	0	35	0	42681237504	45	15948
2026-01-12 20:58:05.37	320.52	9.34	-39.9	-40.3	12.4	3.65e-03	0	35	0	42790289408	45	16050
2026-01-12 20:58:06.37	320.71	9.28	-40.1	-40.4	12.4	3.65e-03	0	35	0	42907729920	45	16256
2026-01-12 20:58:07.36	320.89	9.21	-39.8	-40.2	12.4	3.65e-03	0	35	0	43016781824	45	15841
2026-01-12 20:58:08.36	321.07	9.14	-40.0	-40.3	12.4	4.70e-03	0	35	0	43134222336	45	16083
2026-01-12 20:58:09.35	321.25	9.08	-39.9	-40.2	12.4	4.70e-03	0	35	0	43243274240	45	15909
2026-01-12 20:58:10.35	321.43	9.01	-39.9	-40.2	12.4	4.33e-03	0	35	0	43360714752	45	15967
2026-01-12 20:58:11.35	321.61	8.94	-40.0	-40.3	12.4	4.33e-03	0	35	0	43469766656	45	16090
2026-01-12 20:58:12.36	321.79	8.87	-40.1	-40.4	12.4	5.00e-03	0	35	0	43578818560	46	15319
2026-01-12 20:58:13.36	321.97	8.81	-39.9	-40.2	12.4	5.00e-03	0	35	0	43696259072	46	15080
2026-01-12 20:58:14.36	322.14	8.74	-40.0	-40.3	12.4	5.00e-03	0	35	0	43805310976	46	15169
2026-01-12 20:58:15.35	322.32	8.67	-40.0	-40.4	12.4	5.00e-03	0	35	0	43922751488	46	15326
2026-01-12 20:58:16.35	322.49	8.61	-40.2	-40.5	12.3	4.73e-03	0	35	0	44031803392	46	15548
2026-01-12 20:58:17.35	322.67	8.54	-40.1	-40.4	12.4	4.73e-03	0	35	0	44140855296	46	15368
2026-01-12 20:58:18.35	322.84	8.47	-40.1	-40.5	12.3	4.73e-03	0	35	0	44249907200	46	15479
2026-01-12 20:58:19.34	323.01	8.41	-40.1	-40.4	12.4	5.32e-03	0	35	0	44367347712	46	15391
2026-01-12 20:58:20.34	323.18	8.34	-40.2	-40.5	12.3	5.32e-03	0	35	0	44476399616	46	15566
2026-01-12 20:58:21.34	323.35	8.27	-40.2	-40.6	12.3	6.43e-03	0	35	0	44585451520	46	15661
2026-01-12 20:58:22.34	323.52	8.21	-40.4	-40.7	12.2	6.43e-03	0	35	0	44702892032	46	15901
2026-01-12 20:58:23.33	323.68	8.14	-40.2	-40.5	12.3	6.43e-03	0	35	0	44811943936	46	15543
2026-01-12 20:58:24.33	323.85	8.08	-40.2	-40.5	12.3	6.33e-03	0	35	0	44929384448	46	15560
2026-01-12 20:58:25.32	324.01	8.01	-40.5	-40.8	12.2	6.33e-03	0	35	0	45038436352	46	16130
2026-01-12 20:58:26.31	324.18	7.94	-40.3	-40.6	12.3	7.50e-03	0	35	0	45155876864	46	15740
2026-01-12 20:58:27.31	324.34	7.88	-40.4	-40.7	12.2	7.50e-03	0	35	0	45264928768	46	15943
2026-01-12 20:58:28.30	324.50	7.81	-40.4	-40.7	12.2	7.50e-03	0	35	0	45373980672	46	15996
2026-01-12 20:58:29.30	324.67	7.75	-40.4	-40.7	12.2	6.72e-03	0	35	0	45483032576	46	15958
2026-01-12 20:58:30.30	324.83	7.68	-40.4	-40.7	12.2	6.72e-03	0	35	0	45592084480	46	16000
2026-01-12 20:58:31.28	324.99	7.61	-40.5	-40.8	12.2	6.72e-03	0	35	0	45709524992	47	15217
2026-01-12 20:58:32.27	325.14	7.55	-40.7	-41.0	12.2	6.72e-03	0	35	0	45818576896	47	15592
2026-01-12 20:58:33.27	325.30	7.48	-40.7	-41.0	12.2	7.69e-03	0	35	0	45936017408	47	15500
2026-01-12 20:58:34.25	325.46	7.42	-40.6	-40.9	12.2	7.69e-03	0	35	0	46036680704	47	15359
2026-01-12 20:58:35.25	325.62	7.35	-40.9	-41.2	12.1	8.65e-03	0	35	0	46154121216	47	15891
2026-01-12 20:58:36.23	325.77	7.29	-40.7	-41.0	12.1	8.65e-03	0	35	0	46263173120	47	15630
2026-01-12 20:58:37.23	325.92	7.22	-42.0	-42.3	12.2	8.65e-03	0	35	0	46380613632	49	16186
2026-01-12 20:58:38.22	326.08	7.16	-41.5	-41.8	12.3	1.05e-02	0	35	0	46489665536	49	15288
2026-01-12 20:58:39.22	326.23	7.09	-41.5	-41.8	12.3	1.05e-02	0	35	0	46607106048	49	15255
2026-01-12 20:58:40.21	326.38	7.03	-41.3	-41.6	12.4	7.70e-03	0	35	0	46716157952	49	14942
2026-01-12 20:58:41.22	326.54	6.96	-41.3	-41.6	12.4	7.70e-03	0	35	0	46825209856	49	14891
2026-01-12 20:58:42.22	326.69	6.90	-41.7	-42.0	12.3	7.70e-03	0	35	0	46942650368	49	15514
2026-01-12 20:58:43.22	326.84	6.83	-41.4	-41.7	12.4	6.77e-03	0	35	0	47051702272	49	15073
2026-01-12 20:58:44.21	326.99	6.77	-41.5	-41.9	12.3	6.77e-03	0	35	0	47169142784	49	15310
2026-01-12 20:58:45.21	327.14	6.70	-41.5	-41.8	12.3	6.77e-03	0	35	0	47278194688	49	15169
2026-01-12 20:58:46.20	327.28	6.64	-58.0	-58.5	4.6	7.06e-03	0	35	0	47387246592	57	65535
2026-01-12 20:58:47.20	327.43	6.57	-57.7	-60.9	6.2	7.06e-03	0	34	104	47387246592	81	21788
2026-01-12 20:58:48.20	327.58	6.51	-57.7	-60.9	6.2	7.06e-03	0	35	104	47387246592	81	21806
2026-01-12 20:58:49.20	327.72	6.44	-57.7	-60.9	6.2	7.06e-03	0	34	104	47387246592	81	21722
2026-01-12 20:58:50.20	327.87	6.38	-57.7	-60.9	6.2	7.06e-03	0	34	104	47387246592	81	21680
2026-01-12 20:58:51.21	328.01	6.31	-57.5	-60.7	6.2	7.06e-03	0	34	104	47387246592	81	21350
2026-01-12 20:58:52.20	328.16	6.25	-57.6	-60.8	6.2	7.06e-03	0	34	104	47387246592	81	21488
2026-01-12 20:58:53.20	328.30	6.19	-57.6	-60.8	6.1	7.06e-03	0	34	104	47387246592	81	21578
2026-01-12 20:58:54.19	328.44	6.12	-57.5	-60.7	6.2	4.77e-04	0	34	104	47387246592	81	21348
2026-01-12 20:58:55.18	328.58	6.06	-57.7	-60.9	6.2	4.77e-04	0	34	104	47387246592	81	21643
2026-01-12 20:58:56.18	328.72	5.99	-57.5	-60.8	6.2	4.77e-04	0	34	104	47387246592	81	21369
2026-01-12 20:58:57.18	328.86	5.93	-57.5	-60.8	6.2	4.77e-04	0	34	104	47387246592	81	21383
2026-01-12 20:58:58.18	329.00	5.87	-57.4	-60.7	6.2	4.77e-04	0	34	104	47387246592	81	21191
2026-01-12 20:58:59.18	329.14	5.80	-57.6	-60.8	6.2	4.77e-04	0	34	104	47387246592	81	21492
2026-01-12 20:59:00.17	329.27	5.74	-57.5	-60.7	6.2	4.77e-04	0	34	104	47387246592	81	21205
2026-01-12 20:59:01.17	329.41	5.68	-57.5	-60.7	6.2	4.77e-04	0	34	104	47387246592	81	21242
2026-01-12 20:59:02.16	329.54	5.61	-57.4	-60.6	6.2	4.77e-04	0	34	104	47387246592	81	21015
2026-01-12 20:59:03.16	329.68	5.55	-57.5	-60.7	6.2	4.77e-04	0	34	104	47387246592	81	21330
2026-01-12 20:59:04.16	329.81	5.49	-57.4	-60.6	6.2	4.77e-04	0	34	104	47387246592	81	20994
2026-01-12 20:59:05.15	329.95	5.42	-57.4	-60.6	6.2	0.00e+00	0	34	104	47387246592	81	21011
2026-01-12 20:59:06.15	330.08	5.36	-57.3	-60.5	6.2	0.00e+00	0	34	104	47387246592	81	20821
2026-01-12 20:59:07.15	330.21	5.30	-57.5	-60.7	6.2	0.00e+00	0	34	104	47387246592	81	21187
2026-01-12 20:59:08.16	330.35	5.23	-57.3	-60.6	6.2	0.00e+00	0	33	104	47387246592	81	20926
2026-01-12 20:59:09.14	330.48	5.17	-57.4	-60.6	6.2	0.00e+00	0	33	104	47387246592	81	20900
2026-01-12 20:59:10.14	330.61	5.11	-57.2	-60.4	6.2	0.00e+00	0	34	104	47387246592	81	20608
2026-01-12 20:59:11.13	330.73	5.05	-57.4	-60.6	6.2	0.00e+00	0	33	104	47387246592	81	21098
2026-01-12 20:59:12.14	330.86	4.98	-57.7	-60.9	6.2	0.00e+00	0	33	104	47387246592	81	21768
2026-01-12 20:59:13.13	330.99	4.92	-58.2	-61.4	6.2	0.00e+00	0	33	104	47387246592	82	21696
2026-01-12 20:59:14.13	331.12	4.86	-58.5	-61.7	6.2	0.00e+00	0	33	104	47387246592	82	22432
2026-01-12 20:59:15.12	331.25	4.80	-58.7	-61.9	6.2	0.00e+00	0	33	104	47387246592	83	21787
2026-01-12 20:59:16.13	331.37	4.73	-58.8	-62.0	6.1	0.00e+00	0	33	104	47387246592	83	22013
2026-01-12 20:59:17.12	331.50	4.67	-58.9	-62.2	6.1	0.00e+00	0	33	104	47387246592	83	22395
2026-01-12 20:59:18.13	331.63	4.61	-59.0	-62.3	6.2	0.00e+00	0	33	104	47387246592	83	22673
2026-01-12 20:59:19.13	331.75	4.55	-59.3	-62.5	6.2	0.00e+00	0	33	104	47387246592	84	22077
2026-01-12 20:59:20.12	331.87	4.49	-59.4	-62.6	6.2	0.00e+00	0	33	104	47387246592	84	22286
2026-01-12 20:59:21.12	332.00	4.43	-59.4	-62.6	6.2	0.00e+00	0	33	104	47387246592	84	22348
2026-01-12 20:59:22.12	332.12	4.36	-59.5	-62.7	6.1	0.00e+00	0	33	104	47387246592	84	22535
2026-01-12 20:59:23.12	332.24	4.30	-59.5	-62.7	6.2	0.00e+00	0	33	104	47387246592	84	22485
2026-01-12 20:59:24.13	332.36	4.24	-59.5	-62.8	6.2	0.00e+00	0	33	104	47387246592	84	22660
2026-01-12 20:59:25.13	332.48	4.18	-59.5	-62.7	6.2	0.00e+00	0	33	104	47387246592	84	22589
2026-01-12 20:59:26.12	332.60	4.12	-59.6	-62.8	6.2	0.00e+00	0	33	104	47387246592	84	22723
2026-01-12 20:59:27.11	332.72	4.06	-59.6	-62.8	6.1	0.00e+00	0	33	104	47387246592	84	22794
2026-01-12 20:59:28.10	332.84	4.00	-59.6	-62.8	6.2	0.00e+00	0	33	104	47387246592	84	22855
2026-01-12 20:59:29.10	332.96	3.94	-59.6	-62.8	6.2	0.00e+00	0	33	104	47387246592	84	22773
2026-01-12 20:59:30.09	333.07	3.88	-59.6	-62.8	6.2	0.00e+00	0	33	104	47387246592	84	22836
2026-01-12 20:59:31.09	333.19	3.81	-59.6	-62.9	6.2	0.00e+00	0	33	104	47387246592	85	21636
2026-01-12 20:59:32.08	333.31	3.75	-59.6	-62.8	6.2	0.00e+00	0	33	104	47387246592	85	21522
2026-01-12 20:59:33.08	333.42	3.69	-59.6	-62.9	6.2	0.00e+00	0	33	104	47387246592	85	21616
2026-01-12 20:59:34.07	333.54	3.63	-59.6	-62.8	6.2	0.00e+00	0	33	104	47387246592	85	21534
2026-01-12 20:59:35.07	333.65	3.57	-59.6	-62.8	6.2	0.00e+00	0	33	104	47387246592	85	21457
2026-01-12 20:59:36.06	333.77	3.51	-59.5	-62.8	6.2	0.00e+00	0	33	104	47387246592	85	21360
2026-01-12 20:59:37.06	333.88	3.45	-59.5	-62.7	6.2	0.00e+00	0	33	104	47387246592	85	21314
2026-01-12 20:59:38.06	333.99	3.39	-59.5	-62.7	6.2	0.00e+00	0	33	104	47387246592	85	21325
2026-01-12 20:59:39.06	334.11	3.33	-59.5	-62.8	6.2	0.00e+00	0	33	104	47387246592	85	21370
2026-01-12 20:59:40.07	334.22	3.27	-59.5	-62.7	6.1	0.00e+00	0	33	104	47387246592	85	21322
2026-01-12 20:59:41.07	334.33	3.21	-59.5	-62.7	6.2	0.00e+00	0	33	104	47387246592	85	21316
2026-01-12 20:59:42.07	334.44	3.15	-59.5	-62.7	6.2	0.00e+00	0	33	104	47387246592	85	21275
2026-01-12 20:59:43.07	334.55	3.09	-59.5	-62.7	6.2	0.00e+00	0	33	104	47387246592	85	21214
2026-01-12 20:59:44.07	334.66	3.03	-59.5	-62.7	6.2	0.00e+00	0	33	104	47387246592	85	21186
2026-01-12 20:59:45.07	334.77	2.97	-59.5	-62.6	6.2	0.00e+00	0	33	104	47387246592	85	21107
2026-01-12 20:59:46.07	334.88	2.92	-59.5	-62.7	6.2	0.00e+00	0	33	104	47387246592	85	21209
2026-01-12 20:59:47.08	334.99	2.86	-59.5	-62.7	6.2	0.00e+00	0	33	104	47387246592	85	21187
2026-01-12 20:59:48.07	335.10	2.80	-59.5	-62.7	6.2	0.00e+00	0	33	104	47387246592	85	21169
2026-01-12 20:59:49.07	335.20	2.74	-59.4	-62.7	6.2	0.00e+00	0	33	104	47387246592	85	21169
2026-01-12 20:59:50.07	335.31	2.68	-59.4	-62.7	6.2	0.00e+00	0	33	104	47387246592	85	21135
2026-01-12 20:59:51.07	335.42	2.62	-59.4	-62.7	6.1	0.00e+00	0	33	104	47387246592	85	21204
2026-01-12 20:59:52.07	335.52	2.56	-59.5	-62.7	6.2	0.00e+00	0	33	104	47387246592	85	21129
2026-01-12 20:59:53.06	335.63	2.50	-59.4	-62.7	6.2	0.00e+00	0	32	104	47387246592	85	21142
2026-01-12 20:59:54.06	335.73	2.44	-59.4	-62.6	6.2	0.00e+00	0	33	104	47387246592	85	21084
2026-01-12 20:59:55.06	335.84	2.39	-59.4	-62.6	6.2	0.00e+00	0	33	104	47387246592	85	21047
2026-01-12 20:59:56.06	335.94	2.33	-59.4	-62.7	6.1	0.00e+00	0	33	104	47387246592	85	21116
2026-01-12 20:59:57.05	336.04	2.27	-59.4	-62.6	6.2	0.00e+00	0	33	104	47387246592	85	21043
2026-01-12 20:59:58.05	336.14	2.21	-59.4	-62.6	6.2	0.00e+00	0	33	104	47387246592	85	20991
2026-01-12 20:59:59.05	336.25	2.15	-59.4	-62.6	6.2	0.00e+00	0	32	104	47387246592	85	21070
2026-01-12 21:00:00.05	336.35	2.10	-59.4	-62.6	6.2	0.00e+00	0	33	104	47387246592	85	21013
2026-01-12 21:00:01.05	336.45	2.04	-59.4	-62.6	6.2	0.00e+00	0	33	104	47387246592	85	21023

#Closed at: 2026-01-12 21:00:01
#Recorded file [47387 MB]: D:/lorett/data/31004_260112_235049.dat