passes_logs/2026/01/12/R3.2S_Murmansk/R3.2S_Murmansk__20260112_122842_NOAA_20_JPSS-1_rec.log

#Pass ID: 20260112_122842_NOAA 20 (JPSS-1)
#Satellite: NOAA 20 (JPSS-1)
#Configuration: NOAA 20
#almurnet v.1.7.20251203
#Start time: 2026-01-12 12:28:43

#Version: 2.2.20231116
#Station: R3.2S_Murmansk
#Location: 33.079688 lon 68.888172 lat
#TLE: 1 43013U 17073A   26011.59429536  .00000082  00000+0  59704-4 0  9990
#TLE: 2 43013  98.7632 312.5697 0001637  44.2118 315.9188 14.19535307422256

#Time	Az	El	Level	Level2	SNR	BER	BlckErr	Temp	State	Recorded	gain1	gain2
2026-01-12 12:28:43.69	227.76	2.05	-57.4	-73.3	3.8	1.49e+00	0	20	0	0	81	21975
2026-01-12 12:28:44.68	227.84	2.10	-57.3	-73.3	3.8	1.49e+00	0	20	104	0	79	24491
2026-01-12 12:28:45.69	227.93	2.15	-57.3	-73.2	3.8	1.49e+00	0	20	104	0	79	24376
2026-01-12 12:28:46.69	228.01	2.20	-57.3	-73.2	3.8	1.49e+00	0	20	104	0	79	24406
2026-01-12 12:28:47.70	228.10	2.25	-57.3	-73.2	3.8	1.49e+00	0	20	104	0	79	24377
2026-01-12 12:28:48.71	228.19	2.30	-57.3	-73.3	3.8	1.49e+00	0	20	104	0	79	24460
2026-01-12 12:28:49.71	228.28	2.35	-57.3	-73.3	3.8	1.49e+00	0	21	104	0	79	24450
2026-01-12 12:28:50.72	228.37	2.40	-57.3	-73.3	3.8	1.49e+00	0	20	104	0	79	24449
2026-01-12 12:28:51.72	228.45	2.46	-57.2	-73.2	3.8	1.49e+00	0	20	104	0	79	24322
2026-01-12 12:28:52.72	228.54	2.51	-57.3	-73.2	3.8	1.49e+00	0	21	104	0	79	24342
2026-01-12 12:28:53.73	228.63	2.56	-57.3	-73.2	3.8	1.49e+00	0	21	104	0	79	24364
2026-01-12 12:28:54.73	228.72	2.61	-57.3	-73.2	3.8	1.49e+00	0	21	104	0	79	24376
2026-01-12 12:28:55.74	228.81	2.66	-57.3	-73.2	3.8	1.49e+00	0	21	104	0	79	24355
2026-01-12 12:28:56.74	228.90	2.71	-57.3	-73.3	3.8	1.49e+00	0	21	104	0	79	24459
2026-01-12 12:28:57.74	228.99	2.76	-57.3	-73.2	3.8	1.49e+00	0	21	104	0	79	24379
2026-01-12 12:28:58.75	229.08	2.81	-57.3	-73.2	3.8	1.49e+00	0	21	104	0	79	24380
2026-01-12 12:28:59.76	229.17	2.86	-57.3	-73.2	3.8	1.49e+00	0	21	104	0	79	24346
2026-01-12 12:29:00.77	229.26	2.91	-57.3	-73.2	3.8	1.49e+00	0	21	104	0	79	24354
2026-01-12 12:29:01.76	229.35	2.96	-57.3	-73.2	3.8	1.49e+00	0	21	104	0	79	24382
2026-01-12 12:29:02.77	229.44	3.02	-57.3	-73.3	3.8	1.49e+00	0	21	104	0	79	24424
2026-01-12 12:29:03.77	229.54	3.07	-57.3	-73.3	3.8	1.49e+00	0	21	104	0	79	24439
2026-01-12 12:29:04.78	229.63	3.12	-57.3	-73.3	3.8	1.49e+00	0	21	104	0	79	24544
2026-01-12 12:29:05.78	229.72	3.17	-57.3	-73.3	3.8	1.49e+00	0	21	104	0	79	24485
2026-01-12 12:29:06.78	229.81	3.22	-57.3	-73.3	3.8	1.49e+00	0	21	104	0	79	24433
2026-01-12 12:29:07.79	229.91	3.27	-57.3	-73.2	3.8	1.49e+00	0	21	104	0	79	24312
2026-01-12 12:29:08.79	230.00	3.32	-57.3	-73.2	3.8	1.49e+00	0	21	104	0	79	24196
2026-01-12 12:29:09.80	230.09	3.38	-57.3	-73.2	3.8	1.49e+00	0	21	104	0	79	24257
2026-01-12 12:29:10.81	230.19	3.43	-57.3	-73.2	3.8	1.49e+00	0	21	104	0	79	24219
2026-01-12 12:29:11.82	230.28	3.48	-57.3	-73.2	3.8	1.49e+00	0	21	104	0	79	24356
2026-01-12 12:29:12.82	230.38	3.53	-57.3	-73.2	3.8	1.49e+00	0	21	104	0	79	24352
2026-01-12 12:29:13.83	230.47	3.58	-57.3	-73.3	3.8	1.49e+00	0	21	104	0	79	24425
2026-01-12 12:29:14.84	230.57	3.63	-57.3	-73.3	3.8	1.49e+00	0	21	104	0	79	24535
2026-01-12 12:29:15.85	230.67	3.69	-57.3	-73.3	3.8	1.49e+00	0	21	104	0	79	24529
2026-01-12 12:29:16.85	230.76	3.74	-57.3	-73.3	3.8	1.49e+00	0	21	104	0	79	24437
2026-01-12 12:29:17.86	230.86	3.79	-57.3	-73.3	3.8	1.49e+00	0	21	104	0	79	24423
2026-01-12 12:29:18.87	230.96	3.84	-57.3	-73.2	3.8	1.49e+00	0	21	104	0	79	24282
2026-01-12 12:29:19.87	231.05	3.89	-57.3	-73.1	3.8	1.49e+00	0	21	104	0	79	24057
2026-01-12 12:29:20.88	231.15	3.94	-57.3	-73.0	3.8	1.49e+00	0	21	104	0	79	23842
2026-01-12 12:29:21.89	231.25	4.00	-57.3	-73.0	3.8	1.49e+00	0	21	104	0	79	23703
2026-01-12 12:29:22.89	231.35	4.05	-57.3	-73.0	3.8	1.49e+00	0	21	104	0	79	23671
2026-01-12 12:29:23.89	231.44	4.10	-57.2	-72.9	3.8	1.49e+00	0	21	104	0	79	23428
2026-01-12 12:29:24.90	231.54	4.15	-57.3	-72.9	3.8	1.49e+00	0	21	104	0	79	23523
2026-01-12 12:29:25.90	231.64	4.20	-57.3	-72.8	3.8	1.49e+00	0	21	104	0	79	23289
2026-01-12 12:29:26.91	231.74	4.26	-57.3	-72.8	3.8	1.49e+00	0	21	104	0	79	23229
2026-01-12 12:29:27.91	231.84	4.31	-57.3	-72.9	3.8	1.49e+00	0	21	104	0	79	23385
2026-01-12 12:29:28.92	231.94	4.36	-57.3	-73.1	3.8	1.49e+00	0	21	104	0	79	24091
2026-01-12 12:29:29.93	232.04	4.41	-57.3	-73.3	3.8	1.49e+00	0	21	104	0	79	24462
2026-01-12 12:29:30.93	232.14	4.47	-57.3	-73.2	3.8	1.49e+00	0	21	104	0	79	24210
2026-01-12 12:29:31.94	232.24	4.52	-57.3	-72.6	3.8	1.49e+00	0	21	104	0	79	22717
2026-01-12 12:29:32.95	232.34	4.57	-57.2	-71.5	3.8	1.49e+00	0	21	104	0	79	19895
2026-01-12 12:29:33.96	232.45	4.62	-57.2	-70.5	4.0	1.49e+00	0	21	104	0	79	17748
2026-01-12 12:29:34.97	232.55	4.68	-57.1	-69.9	4.1	1.42e+00	0	21	0	0	79	16634
2026-01-12 12:29:35.97	232.65	4.73	-57.1	-69.0	4.4	1.32e+00	71	21	0	0	79	14981
2026-01-12 12:29:36.98	232.75	4.78	-57.0	-68.4	4.6	1.02e+00	0	21	0	2097152	79	13913
2026-01-12 12:29:37.99	232.86	4.83	-56.9	-67.2	5.2	7.35e-01	0	22	0	4194304	79	12173
2026-01-12 12:29:39.00	232.96	4.88	-56.8	-65.8	6.1	3.65e-01	0	22	0	6291456	79	10294
2026-01-12 12:29:40.00	233.07	4.94	-56.4	-63.5	8.1	1.12e-01	0	21	0	7340032	79	7916
2026-01-12 12:29:41.01	233.17	4.99	-56.0	-62.1	9.4	2.22e-02	0	21	0	9437184	78	7138
2026-01-12 12:29:42.00	233.27	5.04	-55.4	-60.3	10.9	1.43e-03	0	22	0	11534336	77	6176
2026-01-12 12:29:43.00	233.38	5.09	-55.5	-60.5	10.8	4.30e-04	0	21	0	13631488	77	6278
2026-01-12 12:29:44.01	233.48	5.15	-57.1	-70.5	4.0	1.69e-01	0	22	0	14680064	79	17794
2026-01-12 12:29:45.01	233.59	5.20	-55.6	-60.6	10.7	1.96e-04	0	22	0	16777216	76	6783
2026-01-12 12:29:46.01	233.69	5.25	-56.7	-64.6	7.1	3.61e-02	0	22	0	18874368	78	9577
2026-01-12 12:29:47.01	233.80	5.30	-53.7	-56.8	13.5	8.06e-04	0	22	0	19922944	74	4911
2026-01-12 12:29:48.02	233.91	5.36	-53.7	-56.9	13.3	0.00e+00	0	22	0	22020096	73	5258
2026-01-12 12:29:49.02	234.01	5.41	-53.9	-57.2	13.0	0.00e+00	0	22	0	24117248	73	5421
2026-01-12 12:29:50.03	234.12	5.46	-53.6	-56.7	13.4	0.00e+00	0	22	0	26214400	73	5144
2026-01-12 12:29:51.03	234.23	5.51	-53.7	-56.8	13.3	0.00e+00	0	22	0	28311552	73	5205
2026-01-12 12:29:52.03	234.34	5.57	-53.8	-56.9	13.2	0.00e+00	0	22	0	29360128	73	5272
2026-01-12 12:29:53.04	234.45	5.62	-53.7	-56.9	13.3	0.00e+00	0	22	0	31457280	73	5226
2026-01-12 12:29:54.04	234.55	5.67	-53.9	-57.1	13.1	7.00e-07	0	22	0	33554432	73	5378
2026-01-12 12:29:55.05	234.66	5.73	-53.6	-56.7	13.5	0.00e+00	0	22	0	35651584	73	5108
2026-01-12 12:29:56.04	234.77	5.78	-53.7	-56.8	13.4	0.00e+00	0	22	0	36700160	73	5199
2026-01-12 12:29:57.05	234.88	5.83	-53.9	-57.1	13.2	0.00e+00	0	22	0	38797312	73	5359
2026-01-12 12:29:58.05	234.99	5.88	-53.6	-56.6	13.5	0.00e+00	0	22	0	40894464	73	5084
2026-01-12 12:29:59.06	235.10	5.94	-53.4	-56.3	13.8	0.00e+00	0	22	0	42991616	73	4905
2026-01-12 12:30:00.06	235.21	5.99	-53.5	-56.5	13.6	0.00e+00	0	22	0	45088768	73	4987
2026-01-12 12:30:01.07	235.33	6.04	-53.4	-56.2	13.8	0.00e+00	0	22	0	46137344	73	4863
2026-01-12 12:30:02.07	235.44	6.09	-53.6	-56.5	13.6	0.00e+00	0	22	0	48234496	73	5017
2026-01-12 12:30:03.08	235.55	6.15	-53.6	-56.6	13.6	0.00e+00	0	22	0	50331648	73	5079
2026-01-12 12:30:04.08	235.66	6.20	-53.6	-56.5	13.6	0.00e+00	0	22	0	52428800	73	4999
2026-01-12 12:30:05.09	235.78	6.25	-53.5	-56.4	13.7	0.00e+00	0	22	0	54525952	73	4954
2026-01-12 12:30:06.09	235.89	6.31	-53.4	-56.3	13.8	0.00e+00	0	22	0	56623104	73	4888
2026-01-12 12:30:07.09	236.00	6.36	-53.4	-56.3	13.8	0.00e+00	0	22	0	57671680	73	4875
2026-01-12 12:30:08.09	236.12	6.41	-53.3	-56.1	13.9	0.00e+00	0	22	0	59768832	73	4796
2026-01-12 12:30:09.09	236.23	6.46	-53.2	-55.9	14.1	0.00e+00	0	22	0	61865984	73	4675
2026-01-12 12:30:10.10	236.35	6.52	-53.2	-55.8	14.0	0.00e+00	0	22	0	63963136	72	4926
2026-01-12 12:30:11.10	236.46	6.57	-53.0	-55.6	14.1	0.00e+00	0	22	0	65011712	72	4807
2026-01-12 12:30:12.11	236.58	6.62	-53.1	-55.7	14.1	0.00e+00	0	22	0	67108864	72	4866
2026-01-12 12:30:13.10	236.69	6.68	-53.0	-55.6	14.1	0.00e+00	0	22	0	69206016	72	4802
2026-01-12 12:30:14.10	236.81	6.73	-53.0	-55.5	14.2	0.00e+00	0	22	0	71303168	72	4736
2026-01-12 12:30:15.11	236.93	6.78	-52.9	-55.5	14.3	0.00e+00	0	22	0	73400320	72	4706
2026-01-12 12:30:16.11	237.04	6.83	-52.9	-55.4	14.3	0.00e+00	0	22	0	74448896	72	4696
2026-01-12 12:30:17.12	237.16	6.89	-52.9	-55.4	14.3	0.00e+00	0	22	0	76546048	72	4699
2026-01-12 12:30:18.12	237.28	6.94	-52.8	-55.3	14.4	0.00e+00	0	22	0	78643200	72	4624
2026-01-12 12:30:19.11	237.40	6.99	-52.7	-55.2	14.5	0.00e+00	0	22	0	80740352	72	4559
2026-01-12 12:30:20.11	237.52	7.05	-52.8	-55.2	14.4	0.00e+00	0	22	0	82837504	72	4597
2026-01-12 12:30:21.11	237.64	7.10	-52.9	-55.3	14.4	0.00e+00	0	22	0	83886080	72	4641
2026-01-12 12:30:22.12	237.76	7.15	-52.9	-55.3	14.4	0.00e+00	0	22	0	85983232	72	4649
2026-01-12 12:30:23.12	237.88	7.21	-52.9	-55.4	14.3	0.00e+00	0	22	0	88080384	72	4694
2026-01-12 12:30:24.12	238.00	7.26	-53.0	-55.6	14.2	0.00e+00	0	22	0	90177536	72	4765
2026-01-12 12:30:25.12	238.12	7.31	-52.9	-55.3	14.4	0.00e+00	0	22	0	91226112	72	4649
2026-01-12 12:30:26.12	238.24	7.36	-52.8	-55.3	14.4	0.00e+00	0	22	0	93323264	72	4621
2026-01-12 12:30:27.12	238.36	7.42	-53.0	-55.5	14.2	0.00e+00	0	22	0	95420416	72	4757
2026-01-12 12:30:28.13	238.48	7.47	-52.8	-55.3	14.4	0.00e+00	0	22	0	97517568	72	4621
2026-01-12 12:30:29.13	238.61	7.52	-52.7	-55.1	14.5	0.00e+00	0	22	0	99614720	72	4512
2026-01-12 12:30:30.12	238.73	7.58	-52.8	-55.3	14.4	0.00e+00	0	22	0	100663296	72	4617
2026-01-12 12:30:31.13	238.85	7.63	-52.8	-55.2	14.5	0.00e+00	0	22	0	102760448	72	4571
2026-01-12 12:30:32.13	238.98	7.68	-52.9	-55.3	14.4	0.00e+00	0	22	0	104857600	72	4629
2026-01-12 12:30:33.13	239.10	7.73	-52.8	-55.3	14.4	0.00e+00	0	22	0	106954752	72	4612
2026-01-12 12:30:34.13	239.22	7.79	-52.8	-55.2	14.5	0.00e+00	0	22	0	109051904	72	4560
2026-01-12 12:30:35.14	239.35	7.84	-52.8	-55.3	14.4	0.00e+00	0	22	0	110100480	72	4616
2026-01-12 12:30:36.15	239.48	7.89	-52.9	-55.3	14.4	0.00e+00	0	22	0	112197632	72	4651
2026-01-12 12:30:37.15	239.60	7.95	-52.8	-55.3	14.5	0.00e+00	0	22	0	114294784	72	4603
2026-01-12 12:30:38.15	239.73	8.00	-52.9	-55.3	14.4	0.00e+00	0	22	0	116391936	72	4651
2026-01-12 12:30:39.16	239.86	8.05	-52.9	-55.3	14.4	0.00e+00	0	22	0	118489088	72	4634
2026-01-12 12:30:40.16	239.98	8.11	-52.8	-55.2	14.5	0.00e+00	0	22	0	119537664	72	4593
2026-01-12 12:30:41.16	240.11	8.16	-52.7	-55.1	14.6	0.00e+00	0	22	0	121634816	72	4506
2026-01-12 12:30:42.17	240.24	8.21	-52.8	-55.2	14.5	0.00e+00	0	22	0	123731968	72	4573
2026-01-12 12:30:43.17	240.37	8.27	-52.6	-54.9	14.5	0.00e+00	0	22	0	125829120	71	4683
2026-01-12 12:30:44.18	240.50	8.32	-52.6	-54.9	14.5	0.00e+00	0	22	0	127926272	71	4700
2026-01-12 12:30:45.19	240.63	8.37	-52.6	-54.9	14.5	0.00e+00	0	22	0	128974848	71	4687
2026-01-12 12:30:46.18	240.76	8.42	-52.6	-55.0	14.5	0.00e+00	0	22	0	131072000	71	4723
2026-01-12 12:30:47.18	240.89	8.48	-52.6	-54.9	14.5	0.00e+00	0	22	0	133169152	71	4694
2026-01-12 12:30:48.19	241.02	8.53	-52.5	-54.8	14.6	0.00e+00	0	22	0	135266304	71	4642
2026-01-12 12:30:49.19	241.15	8.58	-52.6	-54.9	14.5	0.00e+00	0	22	0	137363456	71	4677
2026-01-12 12:30:50.20	241.29	8.64	-52.6	-54.9	14.6	0.00e+00	0	22	0	138412032	71	4686
2026-01-12 12:30:51.20	241.42	8.69	-52.5	-54.8	14.6	0.00e+00	0	22	0	140509184	71	4617
2026-01-12 12:30:52.19	241.55	8.74	-52.6	-55.0	14.5	0.00e+00	0	22	0	142606336	71	4721
2026-01-12 12:30:53.20	241.69	8.79	-52.6	-54.9	14.6	0.00e+00	0	22	0	144703488	71	4652
2026-01-12 12:30:54.20	241.82	8.85	-52.6	-54.9	14.5	0.00e+00	0	22	0	146800640	71	4677
2026-01-12 12:30:55.20	241.95	8.90	-52.5	-54.8	14.6	0.00e+00	0	22	0	147849216	71	4626
2026-01-12 12:30:56.19	242.09	8.95	-52.6	-54.9	14.5	0.00e+00	0	22	0	149946368	71	4673
2026-01-12 12:30:57.18	242.22	9.00	-52.5	-54.7	14.7	0.00e+00	0	22	0	152043520	71	4591
2026-01-12 12:30:58.18	242.36	9.06	-52.5	-54.8	14.6	0.00e+00	0	22	0	154140672	71	4624
2026-01-12 12:30:59.18	242.49	9.11	-52.5	-54.7	14.6	0.00e+00	0	22	0	155189248	71	4593
2026-01-12 12:31:00.19	242.63	9.16	-52.5	-54.7	14.6	0.00e+00	0	22	0	157286400	71	4598
2026-01-12 12:31:01.19	242.77	9.21	-52.5	-54.8	14.6	0.00e+00	0	22	0	159383552	71	4611
2026-01-12 12:31:02.19	242.90	9.27	-52.6	-54.8	14.6	0.00e+00	0	22	0	161480704	71	4643
2026-01-12 12:31:03.19	243.04	9.32	-52.5	-54.8	14.6	0.00e+00	0	22	0	163577856	71	4631
2026-01-12 12:31:04.18	243.18	9.37	-52.7	-55.0	14.5	0.00e+00	0	22	0	164626432	71	4730
2026-01-12 12:31:05.19	243.32	9.42	-52.7	-55.0	14.5	0.00e+00	0	22	0	166723584	71	4728
2026-01-12 12:31:06.19	243.46	9.48	-52.6	-54.9	14.6	0.00e+00	0	22	0	168820736	71	4667
2026-01-12 12:31:07.20	243.60	9.53	-52.6	-54.9	14.6	0.00e+00	0	22	0	170917888	71	4667
2026-01-12 12:31:08.20	243.74	9.58	-52.6	-54.9	14.6	0.00e+00	0	22	0	173015040	71	4668
2026-01-12 12:31:09.21	243.88	9.63	-52.6	-54.9	14.6	0.00e+00	0	22	0	174063616	71	4682
2026-01-12 12:31:10.20	244.02	9.69	-52.5	-54.8	14.6	0.00e+00	0	22	0	176160768	71	4636
2026-01-12 12:31:11.21	244.16	9.74	-52.5	-54.8	14.6	0.00e+00	0	22	0	178257920	71	4620
2026-01-12 12:31:12.21	244.31	9.79	-52.6	-54.8	14.6	0.00e+00	0	22	0	180355072	71	4649
2026-01-12 12:31:13.21	244.45	9.84	-52.5	-54.7	14.7	0.00e+00	0	22	0	181403648	71	4591
2026-01-12 12:31:14.20	244.59	9.89	-52.4	-54.6	14.8	0.00e+00	0	22	0	183500800	71	4509
2026-01-12 12:31:15.21	244.74	9.95	-52.4	-54.6	14.8	0.00e+00	0	22	0	185597952	71	4497
2026-01-12 12:31:16.21	244.88	10.00	-52.4	-54.5	14.8	0.00e+00	0	22	0	187695104	71	4492
2026-01-12 12:31:17.21	245.02	10.05	-52.3	-54.5	14.9	0.00e+00	0	22	0	189792256	71	4449
2026-01-12 12:31:18.22	245.17	10.10	-52.3	-54.5	14.8	0.00e+00	0	22	0	190840832	71	4466
2026-01-12 12:31:19.22	245.32	10.15	-52.4	-54.5	14.8	0.00e+00	0	22	0	192937984	71	4488
2026-01-12 12:31:20.22	245.46	10.21	-52.4	-54.6	14.8	0.00e+00	0	22	0	195035136	71	4504
2026-01-12 12:31:21.22	245.61	10.26	-52.3	-54.4	14.9	0.00e+00	0	22	0	197132288	71	4410
2026-01-12 12:31:22.21	245.75	10.31	-52.2	-54.4	14.9	0.00e+00	0	22	0	199229440	71	4399
2026-01-12 12:31:23.21	245.90	10.36	-52.2	-54.3	15.0	0.00e+00	0	22	0	200278016	71	4351
2026-01-12 12:31:24.21	246.05	10.41	-52.0	-54.1	14.9	0.00e+00	0	22	0	202375168	70	4520
2026-01-12 12:31:25.21	246.20	10.46	-51.9	-54.0	15.0	0.00e+00	0	22	0	204472320	70	4460
2026-01-12 12:31:26.21	246.35	10.51	-51.9	-53.9	15.1	0.00e+00	0	22	0	206569472	70	4420
2026-01-12 12:31:27.20	246.50	10.56	-51.9	-53.9	15.1	0.00e+00	0	22	0	208666624	70	4393
2026-01-12 12:31:28.21	246.65	10.62	-51.8	-53.8	15.1	0.00e+00	0	22	0	209715200	70	4372
2026-01-12 12:31:29.20	246.80	10.67	-51.8	-53.8	15.1	0.00e+00	0	22	0	211812352	70	4352
2026-01-12 12:31:30.21	246.95	10.72	-51.8	-53.8	15.1	0.00e+00	0	22	0	213909504	70	4367
2026-01-12 12:31:31.21	247.10	10.77	-51.8	-53.7	15.1	0.00e+00	0	22	0	216006656	70	4335
2026-01-12 12:31:32.22	247.25	10.82	-51.7	-53.7	15.2	0.00e+00	0	22	0	217055232	70	4299
2026-01-12 12:31:33.22	247.41	10.87	-51.8	-53.7	15.2	0.00e+00	0	22	0	219152384	70	4326
2026-01-12 12:31:34.22	247.56	10.92	-51.5	-53.4	15.2	0.00e+00	0	22	0	221249536	69	4426
2026-01-12 12:31:35.22	247.71	10.97	-51.5	-53.3	15.2	0.00e+00	0	22	0	223346688	69	4389
2026-01-12 12:31:36.23	247.87	11.02	-51.5	-53.4	15.2	0.00e+00	0	22	0	225443840	69	4399
2026-01-12 12:31:37.23	248.02	11.07	-51.5	-53.3	15.2	0.00e+00	0	22	0	226492416	69	4379
2026-01-12 12:31:38.23	248.18	11.12	-51.4	-53.2	15.3	0.00e+00	0	22	0	228589568	69	4333
2026-01-12 12:31:39.24	248.34	11.18	-51.4	-53.3	15.3	0.00e+00	0	22	0	230686720	69	4351
2026-01-12 12:31:40.24	248.49	11.23	-51.4	-53.3	15.2	0.00e+00	0	22	0	232783872	69	4377
2026-01-12 12:31:41.24	248.65	11.28	-51.4	-53.3	15.2	0.00e+00	0	22	0	234881024	69	4349
2026-01-12 12:31:42.24	248.81	11.33	-51.4	-53.3	15.2	0.00e+00	0	22	0	235929600	69	4353
2026-01-12 12:31:43.25	248.97	11.38	-51.5	-53.4	15.2	0.00e+00	0	22	0	238026752	69	4393
2026-01-12 12:31:44.25	249.12	11.43	-51.5	-53.4	15.2	0.00e+00	0	22	0	240123904	69	4398
2026-01-12 12:31:45.26	249.29	11.48	-51.5	-53.4	15.2	0.00e+00	0	22	0	242221056	69	4404
2026-01-12 12:31:46.26	249.44	11.53	-51.5	-53.4	15.2	0.00e+00	0	22	0	244318208	69	4409
2026-01-12 12:31:47.26	249.60	11.58	-51.5	-53.4	15.2	0.00e+00	0	22	0	245366784	69	4419
2026-01-12 12:31:48.26	249.77	11.63	-51.6	-53.5	15.1	0.00e+00	0	22	0	247463936	69	4445
2026-01-12 12:31:49.25	249.92	11.67	-51.5	-53.4	15.2	0.00e+00	0	22	0	249561088	69	4399
2026-01-12 12:31:50.26	250.09	11.72	-51.6	-53.5	15.1	0.00e+00	0	22	0	251658240	69	4446
2026-01-12 12:31:51.26	250.25	11.77	-51.5	-53.4	15.2	0.00e+00	0	22	0	253755392	69	4406
2026-01-12 12:31:52.26	250.41	11.82	-51.5	-53.4	15.2	0.00e+00	0	22	0	254803968	69	4392
2026-01-12 12:31:53.26	250.57	11.87	-51.3	-53.1	15.3	0.00e+00	0	22	0	256901120	69	4288
2026-01-12 12:31:54.26	250.74	11.92	-51.4	-53.2	15.3	0.00e+00	0	22	0	258998272	69	4335
2026-01-12 12:31:55.26	250.90	11.97	-51.5	-53.3	15.2	0.00e+00	0	22	0	261095424	69	4369
2026-01-12 12:31:56.27	251.07	12.02	-51.3	-53.2	15.3	0.00e+00	0	22	0	262144000	69	4302
2026-01-12 12:31:57.27	251.23	12.07	-51.4	-53.3	15.3	0.00e+00	0	22	0	264241152	69	4360
2026-01-12 12:31:58.27	251.40	12.12	-51.5	-53.3	15.2	0.00e+00	0	22	0	266338304	69	4383
2026-01-12 12:31:59.28	251.57	12.16	-51.6	-53.5	15.1	0.00e+00	0	22	0	268435456	69	4456
2026-01-12 12:32:00.28	251.73	12.21	-51.6	-53.5	15.1	0.00e+00	0	22	0	270532608	69	4464
2026-01-12 12:32:01.28	251.90	12.26	-51.6	-53.5	15.1	0.00e+00	0	22	0	271581184	69	4491
2026-01-12 12:32:02.28	252.07	12.31	-51.5	-53.4	15.2	0.00e+00	0	22	0	273678336	69	4398
2026-01-12 12:32:03.28	252.24	12.36	-51.5	-53.4	15.2	0.00e+00	0	22	0	275775488	69	4422
2026-01-12 12:32:04.29	252.41	12.40	-51.5	-53.4	15.2	0.00e+00	0	22	0	277872640	69	4415
2026-01-12 12:32:05.29	252.58	12.45	-51.4	-53.3	15.3	0.00e+00	0	22	0	279969792	69	4342
2026-01-12 12:32:06.28	252.75	12.50	-51.4	-53.2	15.3	0.00e+00	0	22	0	281018368	69	4315
2026-01-12 12:32:07.29	252.92	12.55	-51.4	-53.3	15.2	0.00e+00	0	22	0	283115520	69	4358
2026-01-12 12:32:08.28	253.09	12.59	-51.5	-53.4	15.2	0.00e+00	0	22	0	285212672	69	4413
2026-01-12 12:32:09.27	253.26	12.64	-51.5	-53.4	15.2	0.00e+00	0	22	0	287309824	69	4405
2026-01-12 12:32:10.27	253.43	12.69	-51.5	-53.4	15.2	0.00e+00	0	22	0	289406976	69	4398
2026-01-12 12:32:11.27	253.60	12.73	-51.6	-53.5	15.1	0.00e+00	0	22	0	290455552	69	4452
2026-01-12 12:32:12.27	253.77	12.78	-51.6	-53.5	15.1	0.00e+00	0	22	0	292552704	69	4447
2026-01-12 12:32:13.26	253.95	12.83	-51.6	-53.5	15.2	0.00e+00	0	22	0	294649856	69	4447
2026-01-12 12:32:14.26	254.12	12.87	-51.7	-53.6	15.1	0.00e+00	0	22	0	296747008	69	4510
2026-01-12 12:32:15.26	254.29	12.92	-51.6	-53.5	15.1	0.00e+00	0	22	0	297795584	69	4487
2026-01-12 12:32:16.25	254.47	12.96	-51.6	-53.5	15.1	0.00e+00	0	22	0	299892736	69	4464
2026-01-12 12:32:17.25	254.64	13.01	-51.7	-53.6	15.0	0.00e+00	0	22	0	301989888	69	4518
2026-01-12 12:32:18.24	254.82	13.06	-51.7	-53.6	15.0	0.00e+00	0	22	0	304087040	69	4536
2026-01-12 12:32:19.24	255.00	13.10	-51.7	-53.6	15.0	0.00e+00	0	22	0	306184192	69	4545
2026-01-12 12:32:20.23	255.17	13.15	-51.8	-53.8	15.0	0.00e+00	0	22	0	307232768	69	4601
2026-01-12 12:32:21.23	255.35	13.19	-51.9	-53.9	14.9	0.00e+00	0	22	0	309329920	69	4653
2026-01-12 12:32:22.22	255.52	13.24	-51.9	-53.9	14.9	0.00e+00	0	22	0	311427072	69	4690
2026-01-12 12:32:23.22	255.70	13.28	-51.9	-53.9	14.9	0.00e+00	0	22	0	313524224	69	4688
2026-01-12 12:32:24.22	255.88	13.33	-52.0	-54.1	14.8	0.00e+00	0	22	0	314572800	69	4761
2026-01-12 12:32:25.21	256.06	13.37	-52.0	-54.1	14.8	0.00e+00	0	22	0	316669952	69	4787
2026-01-12 12:32:26.21	256.24	13.41	-52.1	-54.2	14.7	0.00e+00	0	22	0	318767104	69	4846
2026-01-12 12:32:27.20	256.42	13.46	-52.2	-54.2	14.7	0.00e+00	0	22	0	320864256	69	4864
2026-01-12 12:32:28.20	256.60	13.50	-52.2	-54.3	14.6	0.00e+00	0	22	0	322961408	69	4894
2026-01-12 12:32:29.19	256.78	13.54	-52.3	-54.4	14.6	0.00e+00	0	23	0	324009984	69	4969
2026-01-12 12:32:30.19	256.96	13.59	-52.3	-54.4	14.6	0.00e+00	0	22	0	326107136	69	4964
2026-01-12 12:32:31.19	257.15	13.63	-52.4	-54.6	14.5	0.00e+00	0	22	0	328204288	69	5042
2026-01-12 12:32:32.19	257.33	13.68	-52.5	-54.7	14.6	0.00e+00	0	22	0	330301440	70	4860
2026-01-12 12:32:33.20	257.52	13.72	-52.6	-54.8	14.5	0.00e+00	0	22	0	332398592	70	4888
2026-01-12 12:32:34.20	257.70	13.76	-52.6	-54.9	14.4	0.00e+00	0	23	0	333447168	70	4959
2026-01-12 12:32:35.20	257.89	13.80	-52.6	-54.9	14.4	0.00e+00	0	22	0	335544320	70	4957
2026-01-12 12:32:36.20	258.07	13.85	-52.7	-55.0	14.4	0.00e+00	0	22	0	337641472	70	5032
2026-01-12 12:32:37.21	258.26	13.89	-52.8	-55.1	14.3	0.00e+00	0	22	0	339738624	70	5057
2026-01-12 12:32:38.20	258.44	13.93	-52.8	-55.2	14.3	0.00e+00	0	22	0	340787200	70	5113
2026-01-12 12:32:39.20	258.63	13.97	-52.9	-55.3	14.2	0.00e+00	0	22	0	342884352	70	5174
2026-01-12 12:32:40.20	258.82	14.01	-52.9	-55.2	14.4	0.00e+00	0	22	0	344981504	71	4858
2026-01-12 12:32:41.21	259.01	14.06	-52.9	-55.3	14.4	0.00e+00	0	22	0	347078656	71	4878
2026-01-12 12:32:42.21	259.20	14.10	-52.9	-55.3	14.4	0.00e+00	0	22	0	349175808	71	4881
2026-01-12 12:32:43.21	259.39	14.14	-53.0	-55.4	14.3	0.00e+00	0	22	0	350224384	71	4928
2026-01-12 12:32:44.21	259.58	14.18	-53.0	-55.4	14.3	0.00e+00	0	23	0	352321536	71	4941
2026-01-12 12:32:45.21	259.77	14.22	-53.0	-55.4	14.3	0.00e+00	0	22	0	354418688	71	4933
2026-01-12 12:32:46.22	259.96	14.26	-53.1	-55.5	14.2	0.00e+00	0	23	0	356515840	71	5005
2026-01-12 12:32:47.22	260.15	14.30	-53.1	-55.5	14.2	0.00e+00	0	22	0	358612992	71	5035
2026-01-12 12:32:48.22	260.34	14.34	-53.2	-55.7	14.1	0.00e+00	0	22	0	359661568	71	5110
2026-01-12 12:32:49.23	260.54	14.38	-53.2	-55.7	14.1	0.00e+00	0	22	0	361758720	71	5151
2026-01-12 12:32:50.22	260.73	14.42	-53.3	-55.9	14.0	0.00e+00	0	22	0	363855872	71	5232
2026-01-12 12:32:51.23	260.92	14.46	-53.3	-55.8	14.0	0.00e+00	0	22	0	365953024	71	5200
2026-01-12 12:32:52.24	261.12	14.50	-53.3	-55.8	14.0	0.00e+00	0	22	0	368050176	71	5204
2026-01-12 12:32:53.23	261.31	14.54	-53.3	-55.8	14.0	0.00e+00	0	23	0	369098752	71	5211
2026-01-12 12:32:54.23	261.50	14.57	-53.2	-55.7	14.1	0.00e+00	0	22	0	371195904	71	5156
2026-01-12 12:32:55.24	261.70	14.61	-53.2	-55.7	14.1	0.00e+00	0	22	0	373293056	71	5135
2026-01-12 12:32:56.24	261.90	14.65	-53.3	-55.8	14.0	0.00e+00	0	22	0	375390208	71	5195
2026-01-12 12:32:57.25	262.09	14.69	-53.4	-55.9	14.0	0.00e+00	0	22	0	377487360	71	5274
2026-01-12 12:32:58.26	262.29	14.73	-53.5	-56.1	14.0	0.00e+00	0	22	0	378535936	72	5061
2026-01-12 12:32:59.26	262.49	14.76	-53.6	-56.3	13.9	0.00e+00	0	22	0	380633088	72	5162
2026-01-12 12:33:00.27	262.69	14.80	-53.6	-56.2	13.9	0.00e+00	0	22	0	382730240	72	5117
2026-01-12 12:33:01.27	262.89	14.84	-53.5	-56.2	13.9	0.00e+00	0	22	0	384827392	72	5106
2026-01-12 12:33:02.27	263.09	14.87	-53.5	-56.1	14.0	0.00e+00	0	22	0	385875968	72	5049
2026-01-12 12:33:03.28	263.29	14.91	-53.4	-56.0	14.1	0.00e+00	0	23	0	387973120	72	5015
2026-01-12 12:33:04.28	263.49	14.95	-53.4	-56.0	14.1	0.00e+00	0	22	0	390070272	72	4987
2026-01-12 12:33:05.29	263.69	14.98	-53.5	-56.1	13.9	0.00e+00	0	22	0	392167424	72	5092
2026-01-12 12:33:06.28	263.89	15.02	-53.2	-55.7	14.2	0.00e+00	0	22	0	394264576	72	4842
2026-01-12 12:33:07.28	264.09	15.05	-53.2	-55.6	14.4	0.00e+00	0	22	0	395313152	72	4772
2026-01-12 12:33:08.28	264.29	15.09	-53.0	-55.3	14.5	0.00e+00	0	22	0	397410304	72	4644
2026-01-12 12:33:09.28	264.49	15.12	-52.9	-55.1	14.7	0.00e+00	0	22	0	399507456	72	4525
2026-01-12 12:33:10.28	264.69	15.16	-52.9	-55.1	14.7	0.00e+00	0	22	0	401604608	72	4529
2026-01-12 12:33:11.28	264.89	15.19	-52.7	-54.9	14.8	0.00e+00	0	22	0	403701760	72	4429
2026-01-12 12:33:12.29	265.10	15.22	-52.7	-54.9	14.8	0.00e+00	0	22	0	404750336	72	4428
2026-01-12 12:33:13.28	265.30	15.26	-52.7	-54.9	14.8	0.00e+00	0	22	0	406847488	72	4441
2026-01-12 12:33:14.28	265.50	15.29	-52.7	-54.9	14.8	0.00e+00	0	22	0	408944640	72	4431
2026-01-12 12:33:15.29	265.71	15.32	-52.8	-55.1	14.7	0.00e+00	0	22	0	411041792	72	4495
2026-01-12 12:33:16.29	265.92	15.36	-52.7	-54.9	14.8	0.00e+00	0	22	0	413138944	72	4403
2026-01-12 12:33:17.30	266.12	15.39	-52.6	-54.8	14.7	0.00e+00	0	23	0	414187520	71	4618
2026-01-12 12:33:18.29	266.33	15.42	-52.5	-54.7	14.8	0.00e+00	0	22	0	416284672	71	4559
2026-01-12 12:33:19.30	266.53	15.45	-52.4	-54.5	14.9	0.00e+00	0	22	0	418381824	71	4473
2026-01-12 12:33:20.30	266.74	15.48	-52.3	-54.4	15.0	0.00e+00	0	22	0	420478976	71	4417
2026-01-12 12:33:21.30	266.95	15.51	-52.2	-54.3	15.0	0.00e+00	0	22	0	422576128	71	4364
2026-01-12 12:33:22.30	267.15	15.54	-52.0	-53.9	15.0	0.00e+00	0	22	0	423624704	70	4440
2026-01-12 12:33:23.30	267.36	15.57	-51.8	-53.7	15.2	0.00e+00	0	22	0	425721856	70	4330
2026-01-12 12:33:24.30	267.57	15.60	-51.7	-53.6	15.3	0.00e+00	0	23	0	427819008	70	4258
2026-01-12 12:33:25.31	267.78	15.63	-51.6	-53.5	15.1	0.00e+00	0	22	0	429916160	69	4471
2026-01-12 12:33:26.31	267.99	15.66	-51.6	-53.4	15.2	0.00e+00	0	22	0	430964736	69	4427
2026-01-12 12:33:27.32	268.20	15.69	-51.6	-53.4	15.2	0.00e+00	0	22	0	433061888	69	4421
2026-01-12 12:33:28.33	268.41	15.72	-51.6	-53.5	15.2	0.00e+00	0	23	0	435159040	69	4449
2026-01-12 12:33:29.33	268.62	15.75	-51.7	-53.6	15.1	0.00e+00	0	22	0	437256192	69	4525
2026-01-12 12:33:30.33	268.83	15.78	-51.7	-53.6	15.1	0.00e+00	0	22	0	439353344	69	4504
2026-01-12 12:33:31.33	269.04	15.81	-51.8	-53.7	15.0	0.00e+00	0	23	0	440401920	69	4581
2026-01-12 12:33:32.33	269.26	15.83	-51.8	-53.7	15.0	0.00e+00	0	22	0	442499072	69	4593
2026-01-12 12:33:33.33	269.47	15.86	-51.9	-53.8	15.0	0.00e+00	0	23	0	444596224	69	4624
2026-01-12 12:33:34.34	269.68	15.89	-51.9	-53.8	14.9	0.00e+00	0	22	0	446693376	69	4625
2026-01-12 12:33:35.34	269.89	15.91	-51.8	-53.8	15.0	0.00e+00	0	22	0	448790528	69	4606
2026-01-12 12:33:36.35	270.11	15.94	-51.9	-53.9	14.9	0.00e+00	0	22	0	449839104	69	4653
2026-01-12 12:33:37.34	270.32	15.97	-52.0	-54.0	14.8	0.00e+00	0	22	0	451936256	69	4707
2026-01-12 12:33:38.35	270.53	15.99	-52.0	-53.9	14.9	0.00e+00	0	22	0	454033408	69	4695
2026-01-12 12:33:39.35	270.75	16.02	-52.0	-54.0	14.9	0.00e+00	0	22	0	456130560	69	4710
2026-01-12 12:33:40.35	270.96	16.04	-52.0	-54.0	14.9	0.00e+00	0	22	0	458227712	69	4706
2026-01-12 12:33:41.36	271.18	16.07	-51.9	-53.9	14.9	0.00e+00	0	22	0	459276288	69	4670
2026-01-12 12:33:42.37	271.40	16.09	-51.9	-53.9	14.9	0.00e+00	0	22	0	461373440	69	4676
2026-01-12 12:33:43.36	271.61	16.11	-52.0	-54.0	14.8	0.00e+00	0	23	0	463470592	69	4747
2026-01-12 12:33:44.36	271.82	16.14	-52.1	-54.1	14.8	0.00e+00	0	23	0	465567744	69	4767
2026-01-12 12:33:45.36	272.04	16.16	-52.1	-54.2	14.7	0.00e+00	0	22	0	467664896	69	4825
2026-01-12 12:33:46.36	272.25	16.18	-52.2	-54.3	14.7	0.00e+00	0	22	0	468713472	69	4881
2026-01-12 12:33:47.37	272.47	16.20	-52.3	-54.3	14.6	0.00e+00	0	22	0	470810624	69	4918
2026-01-12 12:33:48.36	272.69	16.22	-52.3	-54.4	14.6	0.00e+00	0	22	0	472907776	69	4956
2026-01-12 12:33:49.35	272.90	16.25	-52.3	-54.4	14.6	0.00e+00	0	23	0	475004928	69	4964
2026-01-12 12:33:50.34	273.12	16.27	-52.4	-54.5	14.6	0.00e+00	0	23	0	477102080	69	5000
2026-01-12 12:33:51.34	273.33	16.29	-52.4	-54.5	14.6	0.00e+00	0	22	0	478150656	69	4991
2026-01-12 12:33:52.34	273.55	16.31	-52.4	-54.5	14.5	0.00e+00	0	22	0	480247808	69	5009
2026-01-12 12:33:53.34	273.77	16.33	-52.4	-54.5	14.7	0.00e+00	0	22	0	482344960	70	4726
2026-01-12 12:33:54.34	273.99	16.35	-52.5	-54.6	14.6	0.00e+00	0	22	0	484442112	70	4791
2026-01-12 12:33:55.34	274.21	16.37	-52.5	-54.7	14.6	0.00e+00	0	23	0	485490688	70	4833
2026-01-12 12:33:56.34	274.43	16.39	-52.4	-54.5	14.7	0.00e+00	0	22	0	487587840	70	4756
2026-01-12 12:33:57.33	274.64	16.40	-52.5	-54.6	14.6	0.00e+00	0	22	0	489684992	70	4806
2026-01-12 12:33:58.33	274.86	16.42	-52.5	-54.6	14.7	0.00e+00	0	23	0	491782144	70	4777
2026-01-12 12:33:59.32	275.08	16.44	-52.5	-54.6	14.7	0.00e+00	0	23	0	493879296	70	4768
2026-01-12 12:34:00.32	275.30	16.46	-52.4	-54.5	14.8	0.00e+00	0	23	0	494927872	70	4708
2026-01-12 12:34:01.30	275.52	16.47	-52.4	-54.5	14.7	0.00e+00	0	23	0	497025024	70	4727
2026-01-12 12:34:02.29	275.73	16.49	-52.4	-54.5	14.7	0.00e+00	0	23	0	499122176	70	4743
2026-01-12 12:34:03.29	275.95	16.50	-52.4	-54.5	14.7	0.00e+00	0	23	0	501219328	70	4723
2026-01-12 12:34:04.29	276.17	16.52	-52.5	-54.6	14.7	0.00e+00	0	23	0	502267904	70	4769
2026-01-12 12:34:05.28	276.39	16.54	-52.5	-54.7	14.6	0.00e+00	0	23	0	504365056	70	4817
2026-01-12 12:34:06.29	276.62	16.55	-52.5	-54.6	14.7	0.00e+00	0	23	0	506462208	70	4761
2026-01-12 12:34:07.29	276.84	16.57	-52.6	-54.7	14.6	0.00e+00	0	23	0	508559360	70	4846
2026-01-12 12:34:08.28	277.06	16.58	-52.5	-54.6	14.6	0.00e+00	0	23	0	510656512	70	4803
2026-01-12 12:34:09.28	277.28	16.59	-52.5	-54.6	14.7	0.00e+00	0	23	0	511705088	70	4794
2026-01-12 12:34:10.28	277.50	16.61	-52.5	-54.7	14.6	0.00e+00	0	23	0	513802240	70	4818
2026-01-12 12:34:11.28	277.72	16.62	-52.4	-54.5	14.7	0.00e+00	0	23	0	515899392	70	4729
2026-01-12 12:34:12.28	277.95	16.63	-52.4	-54.4	14.7	0.00e+00	0	23	0	517996544	70	4704
2026-01-12 12:34:13.27	278.17	16.64	-52.3	-54.3	14.8	0.00e+00	0	22	0	519045120	70	4629
2026-01-12 12:34:14.26	278.39	16.66	-52.3	-54.3	14.8	0.00e+00	0	23	0	521142272	70	4610
2026-01-12 12:34:15.26	278.61	16.67	-52.2	-54.2	14.9	0.00e+00	0	23	0	523239424	70	4564
2026-01-12 12:34:16.26	278.83	16.68	-52.1	-54.0	15.0	0.00e+00	0	23	0	525336576	70	4490
2026-01-12 12:34:17.25	279.05	16.69	-52.2	-54.2	14.9	0.00e+00	0	22	0	527433728	70	4553
2026-01-12 12:34:18.25	279.28	16.70	-52.2	-54.2	14.9	0.00e+00	0	23	0	528482304	70	4591
2026-01-12 12:34:19.25	279.50	16.71	-52.4	-54.4	14.7	0.00e+00	0	23	0	530579456	70	4689
2026-01-12 12:34:20.23	279.72	16.72	-52.4	-54.4	14.8	0.00e+00	0	23	0	532676608	70	4681
2026-01-12 12:34:21.23	279.94	16.73	-52.5	-54.6	14.6	0.00e+00	0	23	0	534773760	70	4804
2026-01-12 12:34:22.23	280.17	16.73	-52.5	-54.6	14.7	0.00e+00	0	23	0	535822336	70	4772
2026-01-12 12:34:23.23	280.39	16.74	-52.6	-54.7	14.6	0.00e+00	0	23	0	537919488	70	4861
2026-01-12 12:34:24.22	280.61	16.75	-52.7	-54.8	14.5	0.00e+00	0	23	0	540016640	70	4912
2026-01-12 12:34:25.22	280.84	16.76	-52.7	-54.9	14.5	0.00e+00	0	23	0	542113792	70	4932
2026-01-12 12:34:26.22	281.06	16.76	-52.8	-55.0	14.4	0.00e+00	0	23	0	544210944	70	4988
2026-01-12 12:34:27.22	281.28	16.77	-52.7	-54.9	14.4	0.00e+00	0	23	0	545259520	70	4974
2026-01-12 12:34:28.21	281.51	16.78	-52.6	-54.8	14.5	0.00e+00	0	23	0	547356672	70	4895
2026-01-12 12:34:29.21	281.73	16.78	-52.5	-54.7	14.6	0.00e+00	0	23	0	549453824	70	4824
2026-01-12 12:34:30.20	281.95	16.79	-52.5	-54.5	14.7	0.00e+00	0	23	0	551550976	70	4755
2026-01-12 12:34:31.20	282.18	16.79	-52.4	-54.5	14.7	0.00e+00	0	23	0	553648128	70	4745
2026-01-12 12:34:32.19	282.40	16.80	-52.4	-54.5	14.7	0.00e+00	0	23	0	554696704	70	4717
2026-01-12 12:34:33.18	282.62	16.80	-52.5	-54.5	14.7	0.00e+00	0	23	0	556793856	70	4750
2026-01-12 12:34:34.19	282.85	16.80	-52.3	-54.4	14.8	0.00e+00	0	23	0	558891008	70	4669
2026-01-12 12:34:35.19	283.07	16.81	-52.4	-54.4	14.8	0.00e+00	0	23	0	560988160	70	4684
2026-01-12 12:34:36.19	283.30	16.81	-52.4	-54.5	14.7	0.00e+00	0	23	0	562036736	70	4707
2026-01-12 12:34:37.19	283.52	16.81	-52.4	-54.5	14.7	0.00e+00	0	23	0	564133888	70	4713
2026-01-12 12:34:38.18	283.75	16.81	-52.5	-54.6	14.7	0.00e+00	0	23	0	566231040	70	4761
2026-01-12 12:34:39.18	283.97	16.81	-52.5	-54.7	14.6	0.00e+00	0	23	0	568328192	70	4820
2026-01-12 12:34:40.18	284.20	16.81	-52.6	-54.8	14.5	0.00e+00	0	23	0	570425344	70	4894
2026-01-12 12:34:41.19	284.42	16.82	-52.7	-54.8	14.5	0.00e+00	0	23	0	571473920	70	4898
2026-01-12 12:34:42.18	284.65	16.82	-52.6	-54.7	14.6	0.00e+00	0	23	0	573571072	70	4827
2026-01-12 12:34:43.18	284.87	16.82	-52.6	-54.7	14.6	0.00e+00	0	22	0	575668224	70	4844
2026-01-12 12:34:44.18	285.10	16.81	-52.5	-54.6	14.6	0.00e+00	0	23	0	577765376	70	4799
2026-01-12 12:34:45.18	285.32	16.81	-52.5	-54.5	14.7	0.00e+00	0	23	0	578813952	70	4741
2026-01-12 12:34:46.18	285.55	16.81	-52.4	-54.4	14.7	0.00e+00	0	23	0	580911104	70	4683
2026-01-12 12:34:47.19	285.77	16.81	-52.3	-54.3	14.8	0.00e+00	0	23	0	583008256	70	4636
2026-01-12 12:34:48.19	286.00	16.81	-52.3	-54.2	14.8	0.00e+00	0	23	0	585105408	70	4596
2026-01-12 12:34:49.20	286.23	16.80	-52.2	-54.1	14.9	0.00e+00	0	23	0	587202560	70	4537
2026-01-12 12:34:50.19	286.45	16.80	-52.2	-54.1	14.9	0.00e+00	0	23	0	589299712	70	4541
2026-01-12 12:34:51.19	286.67	16.80	-52.2	-54.1	14.9	0.00e+00	0	23	0	590348288	70	4541
2026-01-12 12:34:52.20	286.90	16.79	-52.3	-54.3	14.8	0.00e+00	0	23	0	592445440	70	4601
2026-01-12 12:34:53.19	287.12	16.79	-52.3	-54.2	14.8	0.00e+00	0	23	0	594542592	70	4592
2026-01-12 12:34:54.19	287.35	16.78	-52.3	-54.3	14.8	0.00e+00	0	23	0	596639744	70	4646
2026-01-12 12:34:55.19	287.57	16.78	-52.3	-54.3	14.8	0.00e+00	0	23	0	597688320	70	4622
2026-01-12 12:34:56.19	287.80	16.77	-52.3	-54.3	14.8	0.00e+00	0	23	0	599785472	70	4640
2026-01-12 12:34:57.19	288.02	16.77	-52.3	-54.3	14.8	0.00e+00	0	23	0	601882624	70	4643
2026-01-12 12:34:58.19	288.24	16.76	-52.3	-54.3	14.8	0.00e+00	0	23	0	603979776	70	4612
2026-01-12 12:34:59.19	288.47	16.75	-52.2	-54.2	14.9	0.00e+00	0	23	0	606076928	70	4562
2026-01-12 12:35:00.19	288.69	16.75	-52.2	-54.1	14.9	0.00e+00	0	23	0	607125504	70	4543
2026-01-12 12:35:01.19	288.92	16.74	-52.2	-54.1	14.9	0.00e+00	0	23	0	609222656	70	4539
2026-01-12 12:35:02.19	289.14	16.73	-52.2	-54.1	14.9	0.00e+00	0	23	0	611319808	70	4522
2026-01-12 12:35:03.19	289.36	16.72	-52.2	-54.1	14.9	0.00e+00	0	23	0	613416960	70	4530
2026-01-12 12:35:04.19	289.59	16.71	-52.2	-54.2	14.9	0.00e+00	0	23	0	614465536	70	4558
2026-01-12 12:35:05.19	289.81	16.70	-52.1	-54.1	15.0	0.00e+00	0	23	0	616562688	70	4512
2026-01-12 12:35:06.20	290.03	16.69	-52.1	-54.1	15.0	0.00e+00	0	23	0	618659840	70	4499
2026-01-12 12:35:07.20	290.26	16.68	-52.1	-54.0	15.0	0.00e+00	0	23	0	620756992	70	4457
2026-01-12 12:35:08.19	290.48	16.67	-52.1	-54.0	15.0	0.00e+00	0	23	0	622854144	70	4480
2026-01-12 12:35:09.20	290.70	16.66	-52.2	-54.1	14.9	0.00e+00	0	23	0	623902720	70	4545
2026-01-12 12:35:10.19	290.92	16.65	-52.2	-54.2	14.9	0.00e+00	0	23	0	625999872	70	4551
2026-01-12 12:35:11.19	291.15	16.64	-52.2	-54.2	14.9	0.00e+00	0	23	0	628097024	70	4576
2026-01-12 12:35:12.20	291.37	16.63	-52.3	-54.3	14.8	0.00e+00	0	23	0	630194176	70	4611
2026-01-12 12:35:13.19	291.59	16.61	-52.3	-54.3	14.8	0.00e+00	0	23	0	632291328	70	4636
2026-01-12 12:35:14.20	291.81	16.60	-52.3	-54.3	14.8	0.00e+00	0	23	0	633339904	70	4636
2026-01-12 12:35:15.20	292.04	16.59	-52.3	-54.3	14.8	0.00e+00	0	23	0	635437056	70	4636
2026-01-12 12:35:16.21	292.26	16.57	-52.3	-54.3	14.8	0.00e+00	0	23	0	637534208	70	4635
2026-01-12 12:35:17.21	292.48	16.56	-52.2	-54.2	14.9	0.00e+00	0	23	0	639631360	70	4571
2026-01-12 12:35:18.20	292.70	16.54	-51.9	-53.8	15.1	0.00e+00	0	23	0	641728512	70	4363
2026-01-12 12:35:19.21	292.92	16.53	-51.8	-53.6	15.3	0.00e+00	0	23	0	642777088	70	4264
2026-01-12 12:35:20.20	293.14	16.51	-51.8	-53.6	15.2	0.00e+00	0	23	0	644874240	70	4283
2026-01-12 12:35:21.20	293.36	16.50	-51.7	-53.5	15.3	0.00e+00	0	23	0	646971392	70	4231
2026-01-12 12:35:22.20	293.58	16.48	-51.8	-53.6	15.3	0.00e+00	0	23	0	649068544	70	4248
2026-01-12 12:35:23.20	293.80	16.46	-51.8	-53.6	15.2	0.00e+00	0	23	0	651165696	70	4271
2026-01-12 12:35:24.20	294.02	16.45	-51.9	-53.7	15.2	0.00e+00	0	23	0	652214272	70	4332
2026-01-12 12:35:25.21	294.24	16.43	-51.9	-53.8	15.1	0.00e+00	0	23	0	654311424	70	4370
2026-01-12 12:35:26.21	294.46	16.41	-52.0	-53.9	15.0	0.00e+00	0	23	0	656408576	70	4417
2026-01-12 12:35:27.21	294.68	16.39	-51.9	-53.7	15.2	0.00e+00	0	23	0	658505728	70	4325
2026-01-12 12:35:28.21	294.90	16.38	-51.8	-53.6	15.2	0.00e+00	0	23	0	659554304	70	4277
2026-01-12 12:35:29.21	295.12	16.36	-51.8	-53.6	15.2	0.00e+00	0	23	0	661651456	70	4251
2026-01-12 12:35:30.20	295.33	16.34	-51.8	-53.6	15.2	0.00e+00	0	23	0	663748608	70	4269
2026-01-12 12:35:31.20	295.55	16.32	-51.8	-53.6	15.2	0.00e+00	0	23	0	665845760	70	4282
2026-01-12 12:35:32.20	295.77	16.30	-51.7	-53.5	15.3	0.00e+00	0	23	0	667942912	70	4217
2026-01-12 12:35:33.19	295.98	16.28	-51.7	-53.5	15.3	0.00e+00	0	23	0	668991488	70	4222
2026-01-12 12:35:34.19	296.20	16.26	-51.7	-53.5	15.3	0.00e+00	0	23	0	671088640	70	4203
2026-01-12 12:35:35.19	296.42	16.24	-51.6	-53.4	15.1	0.00e+00	0	23	0	673185792	69	4428
2026-01-12 12:35:36.20	296.63	16.21	-51.7	-53.5	15.1	0.00e+00	0	23	0	675282944	69	4467
2026-01-12 12:35:37.20	296.85	16.19	-51.6	-53.4	15.2	0.00e+00	0	23	0	677380096	69	4421
2026-01-12 12:35:38.20	297.07	16.17	-51.6	-53.4	15.2	0.00e+00	0	23	0	678428672	69	4410
2026-01-12 12:35:39.21	297.28	16.15	-51.6	-53.4	15.2	0.00e+00	0	23	0	680525824	69	4432
2026-01-12 12:35:40.20	297.50	16.12	-51.5	-53.3	15.2	0.00e+00	0	23	0	682622976	69	4375
2026-01-12 12:35:41.20	297.71	16.10	-51.6	-53.4	15.2	0.00e+00	0	23	0	684720128	69	4408
2026-01-12 12:35:42.20	297.92	16.08	-51.5	-53.3	15.2	0.00e+00	0	23	0	686817280	69	4349
2026-01-12 12:35:43.20	298.14	16.05	-51.5	-53.2	15.3	0.00e+00	0	23	0	687865856	69	4327
2026-01-12 12:35:44.20	298.35	16.03	-51.5	-53.2	15.3	0.00e+00	0	23	0	689963008	69	4331
2026-01-12 12:35:45.19	298.56	16.00	-51.4	-53.1	15.3	0.00e+00	0	23	0	692060160	69	4270
2026-01-12 12:35:46.19	298.78	15.98	-51.3	-53.0	15.4	0.00e+00	0	23	0	694157312	69	4229
2026-01-12 12:35:47.19	298.99	15.95	-51.2	-52.9	15.4	0.00e+00	0	23	0	695205888	69	4189
2026-01-12 12:35:48.19	299.20	15.93	-51.4	-53.1	15.3	0.00e+00	0	23	0	697303040	69	4286
2026-01-12 12:35:49.19	299.41	15.90	-51.4	-53.2	15.3	0.00e+00	0	23	0	699400192	69	4301
2026-01-12 12:35:50.19	299.63	15.88	-51.6	-53.4	15.2	0.00e+00	0	23	0	701497344	69	4404
2026-01-12 12:35:51.19	299.84	15.85	-51.7	-53.5	15.1	0.00e+00	0	23	0	703594496	69	4488
2026-01-12 12:35:52.20	300.05	15.82	-51.8	-53.6	15.0	0.00e+00	0	23	0	704643072	69	4545
2026-01-12 12:35:53.20	300.26	15.79	-51.7	-53.5	15.1	0.00e+00	0	23	0	706740224	69	4475
2026-01-12 12:35:54.20	300.47	15.77	-51.6	-53.4	15.1	0.00e+00	0	23	0	708837376	69	4413
2026-01-12 12:35:55.20	300.68	15.74	-51.6	-53.4	15.1	0.00e+00	0	23	0	710934528	69	4416
2026-01-12 12:35:56.19	300.89	15.71	-51.6	-53.4	15.1	0.00e+00	0	23	0	711983104	69	4427
2026-01-12 12:35:57.18	301.09	15.68	-51.6	-53.4	15.1	0.00e+00	0	23	0	714080256	69	4441
2026-01-12 12:35:58.18	301.30	15.65	-51.4	-53.1	15.3	0.00e+00	0	23	0	716177408	69	4281
2026-01-12 12:35:59.17	301.51	15.62	-51.1	-52.8	15.3	0.00e+00	0	23	0	718274560	68	4372
2026-01-12 12:36:00.16	301.71	15.59	-51.1	-52.8	15.3	0.00e+00	0	23	0	720371712	68	4344
2026-01-12 12:36:01.15	301.92	15.56	-51.0	-52.7	15.4	0.00e+00	0	23	0	721420288	68	4301
2026-01-12 12:36:02.15	302.13	15.53	-50.9	-52.6	15.4	0.00e+00	0	23	0	723517440	68	4262
2026-01-12 12:36:03.15	302.33	15.50	-50.9	-52.5	15.4	0.00e+00	0	23	0	725614592	68	4225
2026-01-12 12:36:04.15	302.54	15.47	-50.8	-52.5	15.5	0.00e+00	0	23	0	727711744	68	4194
2026-01-12 12:36:05.15	302.74	15.44	-50.9	-52.5	15.5	0.00e+00	0	23	0	729808896	68	4215
2026-01-12 12:36:06.15	302.95	15.41	-50.9	-52.5	15.4	0.00e+00	0	23	0	730857472	68	4227
2026-01-12 12:36:07.13	303.15	15.38	-50.9	-52.6	15.4	0.00e+00	0	23	0	732954624	68	4269
2026-01-12 12:36:08.13	303.35	15.35	-51.0	-52.7	15.4	0.00e+00	0	23	0	735051776	68	4309
2026-01-12 12:36:09.12	303.56	15.31	-51.0	-52.7	15.3	0.00e+00	0	23	0	737148928	68	4325
2026-01-12 12:36:10.12	303.76	15.28	-51.0	-52.7	15.3	0.00e+00	0	23	0	738197504	68	4334
2026-01-12 12:36:11.11	303.96	15.25	-51.1	-52.8	15.3	0.00e+00	0	23	0	740294656	68	4367
2026-01-12 12:36:12.10	304.16	15.22	-51.2	-52.9	15.2	0.00e+00	0	23	0	742391808	68	4441
2026-01-12 12:36:13.09	304.36	15.18	-51.3	-53.1	15.1	0.00e+00	0	23	0	744488960	68	4511
2026-01-12 12:36:14.09	304.56	15.15	-51.3	-53.0	15.2	0.00e+00	0	23	0	745537536	68	4473
2026-01-12 12:36:15.08	304.76	15.12	-51.1	-52.9	15.2	0.00e+00	0	23	0	747634688	68	4405
2026-01-12 12:36:16.07	304.96	15.08	-51.0	-52.7	15.3	0.00e+00	0	23	0	749731840	68	4310
2026-01-12 12:36:17.08	305.16	15.05	-50.9	-52.6	15.4	0.00e+00	0	23	0	751828992	68	4279
2026-01-12 12:36:18.07	305.36	15.01	-50.9	-52.5	15.4	0.00e+00	0	23	0	753926144	68	4236
2026-01-12 12:36:19.06	305.56	14.98	-50.8	-52.4	15.5	0.00e+00	0	23	0	754974720	68	4188
2026-01-12 12:36:20.06	305.76	14.94	-50.7	-52.4	15.5	0.00e+00	0	23	0	757071872	68	4159
2026-01-12 12:36:21.06	305.96	14.91	-50.8	-52.4	15.5	0.00e+00	0	23	0	759169024	68	4157
2026-01-12 12:36:22.06	306.15	14.87	-50.4	-52.0	15.5	0.00e+00	0	23	0	761266176	67	4238
2026-01-12 12:36:23.06	306.35	14.83	-50.4	-52.0	15.5	0.00e+00	0	23	0	763363328	67	4215
2026-01-12 12:36:24.06	306.55	14.80	-50.5	-52.1	15.5	0.00e+00	0	23	0	764411904	67	4265
2026-01-12 12:36:25.05	306.74	14.76	-50.6	-52.2	15.4	0.00e+00	0	23	0	766509056	67	4338
2026-01-12 12:36:26.05	306.94	14.72	-50.9	-52.6	15.2	0.00e+00	0	23	0	768606208	67	4500
2026-01-12 12:36:27.05	307.14	14.69	-51.0	-52.7	15.1	0.00e+00	0	23	0	770703360	67	4566
2026-01-12 12:36:28.05	307.33	14.65	-51.1	-52.8	15.1	0.00e+00	0	23	0	771751936	67	4630
2026-01-12 12:36:29.06	307.53	14.61	-51.2	-53.0	15.0	0.00e+00	0	23	0	773849088	67	4722
2026-01-12 12:36:30.06	307.72	14.57	-51.2	-53.0	14.9	0.00e+00	0	23	0	775946240	67	4754
2026-01-12 12:36:31.07	307.92	14.53	-51.2	-53.0	14.9	0.00e+00	0	23	0	778043392	67	4745
2026-01-12 12:36:32.06	308.11	14.50	-51.2	-53.0	15.0	0.00e+00	0	23	0	780140544	67	4725
2026-01-12 12:36:33.07	308.30	14.46	-51.2	-53.0	15.0	0.00e+00	0	23	0	781189120	67	4732
2026-01-12 12:36:34.07	308.50	14.42	-51.2	-52.9	15.0	0.00e+00	0	23	0	783286272	67	4704
2026-01-12 12:36:35.07	308.69	14.38	-51.3	-53.1	14.9	0.00e+00	0	23	0	785383424	67	4799
2026-01-12 12:36:36.06	308.88	14.34	-51.3	-53.1	14.8	0.00e+00	0	23	0	787480576	67	4795
2026-01-12 12:36:37.07	309.07	14.30	-51.6	-53.4	14.9	0.00e+00	0	23	0	789577728	68	4689
2026-01-12 12:36:38.07	309.26	14.26	-51.6	-53.5	14.9	0.00e+00	0	23	0	790626304	68	4722
2026-01-12 12:36:39.06	309.45	14.22	-51.6	-53.4	15.0	0.00e+00	0	23	0	792723456	68	4676
2026-01-12 12:36:40.06	309.64	14.18	-51.4	-53.2	15.0	0.00e+00	0	23	0	794820608	68	4586
2026-01-12 12:36:41.06	309.83	14.14	-51.4	-53.2	15.1	0.00e+00	0	23	0	796917760	68	4573
2026-01-12 12:36:42.06	310.01	14.10	-51.4	-53.2	15.0	0.00e+00	0	23	0	799014912	68	4586
2026-01-12 12:36:43.06	310.20	14.06	-51.4	-53.1	15.1	0.00e+00	0	23	0	800063488	68	4545
2026-01-12 12:36:44.05	310.39	14.02	-51.5	-53.3	15.0	0.00e+00	0	23	0	802160640	68	4603
2026-01-12 12:36:45.06	310.58	13.97	-51.6	-53.4	14.9	0.00e+00	0	23	0	804257792	68	4699
2026-01-12 12:36:46.06	310.76	13.93	-51.9	-53.8	14.7	0.00e+00	0	23	0	806354944	68	4903
2026-01-12 12:36:47.06	310.95	13.89	-52.0	-54.0	14.8	0.00e+00	0	23	0	807403520	69	4737
2026-01-12 12:36:48.06	311.13	13.85	-52.3	-54.4	14.5	0.00e+00	0	23	0	809500672	69	4961
2026-01-12 12:36:49.05	311.32	13.81	-52.7	-54.9	14.4	0.00e+00	0	23	0	811597824	70	4943
2026-01-12 12:36:50.05	311.50	13.76	-52.8	-55.1	14.3	0.00e+00	0	23	0	813694976	70	5046
2026-01-12 12:36:51.05	311.69	13.72	-53.0	-55.3	14.3	0.00e+00	0	23	0	815792128	71	4913
2026-01-12 12:36:52.05	311.87	13.68	-53.1	-55.5	14.2	0.00e+00	0	23	0	816840704	71	5018
2026-01-12 12:36:53.05	312.05	13.64	-53.2	-55.6	14.1	0.00e+00	0	23	0	818937856	71	5079
2026-01-12 12:36:54.05	312.23	13.59	-53.2	-55.6	14.1	0.00e+00	0	23	0	821035008	71	5091
2026-01-12 12:36:55.05	312.41	13.55	-53.2	-55.7	14.1	0.00e+00	0	23	0	823132160	71	5121
2026-01-12 12:36:56.05	312.60	13.51	-53.3	-55.8	14.0	0.00e+00	0	23	0	825229312	71	5194
2026-01-12 12:36:57.05	312.78	13.46	-53.4	-55.9	14.0	0.00e+00	0	23	0	826277888	71	5249
2026-01-12 12:36:58.06	312.96	13.42	-53.4	-55.9	13.9	0.00e+00	0	23	0	828375040	71	5257
2026-01-12 12:36:59.06	313.14	13.37	-53.4	-56.0	14.0	0.00e+00	0	23	0	830472192	72	4989
2026-01-12 12:37:00.06	313.32	13.33	-53.4	-55.8	14.1	0.00e+00	0	23	0	832569344	72	4924
2026-01-12 12:37:01.05	313.49	13.29	-53.3	-55.7	14.2	0.00e+00	0	23	0	833617920	72	4860
2026-01-12 12:37:02.05	313.67	13.24	-53.2	-55.7	14.2	0.00e+00	0	23	0	835715072	72	4819
2026-01-12 12:37:03.05	313.85	13.20	-53.1	-55.5	14.3	0.00e+00	0	23	0	837812224	72	4710
2026-01-12 12:37:04.04	314.02	13.15	-52.9	-55.2	14.5	0.00e+00	0	23	0	839909376	72	4581
2026-01-12 12:37:05.04	314.20	13.11	-53.0	-55.3	14.5	0.00e+00	0	23	0	842006528	72	4604
2026-01-12 12:37:06.05	314.38	13.06	-52.7	-54.9	14.7	0.00e+00	0	23	0	843055104	72	4423
2026-01-12 12:37:07.05	314.55	13.02	-52.7	-54.9	14.7	0.00e+00	0	23	0	845152256	72	4411
2026-01-12 12:37:08.04	314.73	12.97	-52.8	-55.0	14.6	0.00e+00	0	23	0	847249408	72	4456
2026-01-12 12:37:09.04	314.90	12.92	-52.7	-54.9	14.7	0.00e+00	0	23	0	849346560	72	4425
2026-01-12 12:37:10.04	315.08	12.88	-52.9	-55.2	14.5	0.00e+00	0	23	0	851443712	72	4592
2026-01-12 12:37:11.03	315.25	12.83	-53.0	-55.3	14.5	0.00e+00	0	23	0	852492288	72	4632
2026-01-12 12:37:12.03	315.42	12.79	-53.1	-55.5	14.3	0.00e+00	0	23	0	854589440	72	4708
2026-01-12 12:37:13.02	315.59	12.74	-53.2	-55.6	14.2	0.00e+00	0	23	0	856686592	72	4807
2026-01-12 12:37:14.02	315.76	12.69	-53.4	-55.8	14.1	0.00e+00	0	23	0	858783744	72	4919
2026-01-12 12:37:15.02	315.93	12.65	-53.5	-56.0	14.0	0.00e+00	0	23	0	859832320	72	5020
2026-01-12 12:37:16.02	316.10	12.60	-53.6	-56.3	13.8	0.00e+00	0	23	0	861929472	72	5185
2026-01-12 12:37:17.02	316.27	12.55	-53.6	-56.2	13.9	0.00e+00	0	23	0	864026624	72	5111
2026-01-12 12:37:18.02	316.44	12.51	-53.5	-56.1	13.9	0.00e+00	0	23	0	866123776	72	5088
2026-01-12 12:37:19.02	316.61	12.46	-53.5	-56.1	13.9	0.00e+00	0	23	0	868220928	72	5067
2026-01-12 12:37:20.02	316.78	12.41	-53.4	-55.9	14.1	0.00e+00	0	23	0	869269504	72	4945
2026-01-12 12:37:21.02	316.95	12.37	-53.2	-55.7	14.2	0.00e+00	0	23	0	871366656	72	4834
2026-01-12 12:37:22.01	317.12	12.32	-53.2	-55.7	14.2	0.00e+00	0	23	0	873463808	72	4841
2026-01-12 12:37:23.01	317.28	12.27	-53.2	-55.6	14.2	0.00e+00	0	23	0	875560960	72	4792
2026-01-12 12:37:24.01	317.45	12.22	-53.0	-55.4	14.4	0.00e+00	0	23	0	877658112	72	4668
2026-01-12 12:37:25.00	317.61	12.18	-53.0	-55.4	14.3	0.00e+00	0	23	0	878706688	72	4676
2026-01-12 12:37:25.99	317.78	12.13	-53.1	-55.4	14.3	0.00e+00	0	23	0	880803840	72	4678
2026-01-12 12:37:26.98	317.94	12.08	-53.1	-55.5	14.3	0.00e+00	0	23	0	882900992	72	4752
2026-01-12 12:37:27.99	318.11	12.03	-53.1	-55.5	14.3	0.00e+00	0	23	0	884998144	72	4750
2026-01-12 12:37:28.99	318.27	11.98	-53.1	-55.5	14.3	0.00e+00	0	23	0	886046720	72	4748
2026-01-12 12:37:29.99	318.43	11.94	-52.9	-55.2	14.5	0.00e+00	0	23	0	888143872	72	4558
2026-01-12 12:37:30.99	318.60	11.89	-52.9	-55.1	14.5	0.00e+00	0	23	0	890241024	72	4530
2026-01-12 12:37:31.99	318.76	11.84	-52.5	-54.6	14.7	0.00e+00	0	23	0	892338176	71	4532
2026-01-12 12:37:32.99	318.92	11.79	-52.4	-54.5	14.7	0.00e+00	0	23	0	894435328	71	4477
2026-01-12 12:37:33.99	319.08	11.74	-52.3	-54.4	14.8	0.00e+00	0	23	0	895483904	71	4424
2026-01-12 12:37:34.99	319.24	11.69	-52.2	-54.2	15.0	0.00e+00	0	23	0	897581056	71	4321
2026-01-12 12:37:35.99	319.40	11.64	-52.2	-54.2	15.0	0.00e+00	0	23	0	899678208	71	4310
2026-01-12 12:37:37.00	319.56	11.59	-52.2	-54.3	14.9	0.00e+00	0	23	0	901775360	71	4362
2026-01-12 12:37:38.00	319.72	11.54	-52.3	-54.4	14.8	0.00e+00	0	23	0	903872512	71	4441
2026-01-12 12:37:39.00	319.88	11.49	-52.4	-54.5	14.7	0.00e+00	0	23	0	904921088	71	4470
2026-01-12 12:37:40.00	320.04	11.44	-52.5	-54.7	14.7	0.00e+00	0	23	0	907018240	71	4551
2026-01-12 12:37:40.99	320.20	11.40	-52.6	-54.8	14.6	0.00e+00	0	23	0	909115392	71	4607
2026-01-12 12:37:42.00	320.35	11.35	-52.6	-54.8	14.6	0.00e+00	0	23	0	911212544	71	4620
2026-01-12 12:37:42.99	320.51	11.30	-52.6	-54.9	14.5	0.00e+00	0	23	0	913309696	71	4663
2026-01-12 12:37:44.00	320.67	11.25	-52.7	-55.0	14.4	0.00e+00	0	23	0	914358272	71	4719
2026-01-12 12:37:45.00	320.82	11.20	-52.7	-54.9	14.5	0.00e+00	0	23	0	916455424	71	4705
2026-01-12 12:37:45.99	320.98	11.15	-52.8	-55.1	14.4	0.00e+00	0	23	0	918552576	71	4780
2026-01-12 12:37:46.99	321.13	11.10	-52.8	-55.1	14.4	0.00e+00	0	23	0	920649728	71	4796
2026-01-12 12:37:48.00	321.29	11.05	-52.8	-55.1	14.4	0.00e+00	0	23	0	921698304	71	4794
2026-01-12 12:37:49.00	321.44	11.00	-52.8	-55.1	14.4	0.00e+00	0	23	0	923795456	71	4769
2026-01-12 12:37:50.00	321.59	10.95	-52.8	-55.1	14.4	0.00e+00	0	23	0	925892608	71	4788
2026-01-12 12:37:51.00	321.75	10.89	-52.7	-55.0	14.5	0.00e+00	0	23	0	927989760	71	4713
2026-01-12 12:37:52.01	321.90	10.84	-52.5	-54.6	14.7	0.00e+00	0	23	0	930086912	71	4538
2026-01-12 12:37:53.00	322.05	10.79	-52.4	-54.6	14.7	0.00e+00	0	23	0	931135488	71	4525
2026-01-12 12:37:54.00	322.20	10.74	-52.2	-54.3	14.9	0.00e+00	0	23	0	933232640	71	4346
2026-01-12 12:37:54.99	322.35	10.69	-52.0	-54.1	14.8	0.00e+00	0	23	0	935329792	70	4505
2026-01-12 12:37:55.99	322.50	10.64	-52.0	-54.0	14.9	0.00e+00	0	23	0	937426944	70	4455
2026-01-12 12:37:56.99	322.65	10.59	-51.8	-53.7	15.0	0.00e+00	0	23	0	938475520	70	4336
2026-01-12 12:37:57.99	322.80	10.54	-51.9	-53.9	14.9	0.00e+00	0	23	0	940572672	70	4433
2026-01-12 12:37:59.00	322.95	10.49	-51.9	-53.8	15.0	0.00e+00	0	23	0	942669824	70	4374
2026-01-12 12:37:59.99	323.09	10.44	-51.8	-53.8	15.0	0.00e+00	0	23	0	944766976	70	4362
2026-01-12 12:38:01.00	323.24	10.39	-52.0	-54.1	14.8	0.00e+00	0	23	0	946864128	70	4496
2026-01-12 12:38:02.00	323.39	10.34	-52.0	-54.1	14.8	0.00e+00	0	23	0	947912704	70	4512
2026-01-12 12:38:03.00	323.54	10.29	-52.1	-54.2	14.7	0.00e+00	0	23	0	950009856	70	4585
2026-01-12 12:38:04.01	323.68	10.23	-52.2	-54.3	14.7	0.00e+00	0	23	0	952107008	70	4645
2026-01-12 12:38:05.01	323.83	10.18	-52.1	-54.2	14.8	0.00e+00	0	23	0	954204160	70	4563
2026-01-12 12:38:06.01	323.97	10.13	-52.1	-54.1	14.8	0.00e+00	0	23	0	956301312	70	4521
2026-01-12 12:38:07.01	324.12	10.08	-52.1	-54.1	14.7	0.00e+00	0	23	0	957349888	70	4543
2026-01-12 12:38:08.00	324.26	10.03	-52.1	-54.1	14.8	0.00e+00	0	23	0	959447040	70	4544
2026-01-12 12:38:09.00	324.41	9.98	-52.1	-54.2	14.7	0.00e+00	0	23	0	961544192	70	4569
2026-01-12 12:38:10.00	324.55	9.93	-52.1	-54.2	14.7	0.00e+00	0	23	0	963641344	70	4553
2026-01-12 12:38:11.00	324.69	9.87	-52.2	-54.3	14.7	0.00e+00	0	23	0	965738496	70	4610
2026-01-12 12:38:12.00	324.83	9.82	-52.1	-54.2	14.7	0.00e+00	0	23	0	966787072	70	4588
2026-01-12 12:38:12.99	324.97	9.77	-52.3	-54.4	14.6	0.00e+00	0	23	0	968884224	70	4693
2026-01-12 12:38:13.99	325.11	9.72	-52.3	-54.4	14.6	0.00e+00	0	23	0	970981376	70	4695
2026-01-12 12:38:15.00	325.26	9.67	-52.3	-54.5	14.5	0.00e+00	0	23	0	973078528	70	4721
2026-01-12 12:38:16.00	325.40	9.62	-52.4	-54.6	14.5	0.00e+00	0	23	0	975175680	70	4782
2026-01-12 12:38:16.99	325.54	9.56	-52.2	-54.3	14.7	0.00e+00	0	23	0	976224256	70	4634
2026-01-12 12:38:17.99	325.67	9.51	-52.0	-54.1	14.8	0.00e+00	0	23	0	978321408	70	4531
2026-01-12 12:38:18.98	325.81	9.46	-52.0	-54.1	14.8	0.00e+00	0	23	0	980418560	70	4498
2026-01-12 12:38:19.98	325.95	9.41	-52.0	-54.0	14.8	0.00e+00	0	23	0	982515712	70	4479
2026-01-12 12:38:20.98	326.09	9.36	-52.0	-54.1	14.8	0.00e+00	0	23	0	983564288	70	4494
2026-01-12 12:38:21.97	326.22	9.31	-52.0	-54.0	14.8	0.00e+00	0	23	0	985661440	70	4489
2026-01-12 12:38:22.97	326.36	9.25	-52.1	-54.1	14.8	0.00e+00	0	23	0	987758592	70	4542
2026-01-12 12:38:23.96	326.50	9.20	-52.2	-54.3	14.6	0.00e+00	0	23	0	989855744	70	4640
2026-01-12 12:38:24.96	326.63	9.15	-52.2	-54.3	14.6	0.00e+00	0	23	0	991952896	70	4645
2026-01-12 12:38:25.96	326.77	9.10	-52.4	-54.6	14.5	0.00e+00	0	23	0	993001472	70	4775
2026-01-12 12:38:26.96	326.90	9.05	-52.3	-54.6	14.5	0.00e+00	0	23	0	995098624	70	4763
2026-01-12 12:38:27.95	327.04	8.99	-52.5	-54.7	14.3	0.00e+00	0	23	0	997195776	70	4870
2026-01-12 12:38:28.95	327.17	8.94	-52.4	-54.7	14.4	0.00e+00	0	23	0	999292928	70	4824
2026-01-12 12:38:29.95	327.30	8.89	-52.3	-54.5	14.5	0.00e+00	0	23	0	1000341504	70	4734
2026-01-12 12:38:30.96	327.44	8.84	-52.3	-54.5	14.5	0.00e+00	0	23	0	1002438656	70	4740
2026-01-12 12:38:31.96	327.57	8.79	-52.2	-54.3	14.6	0.00e+00	0	23	0	1004535808	70	4623
2026-01-12 12:38:32.94	327.70	8.73	-52.0	-54.1	14.7	0.00e+00	0	23	0	1006632960	70	4526
2026-01-12 12:38:33.94	327.83	8.68	-52.0	-54.1	14.7	0.00e+00	0	23	0	1008730112	70	4524
2026-01-12 12:38:34.94	327.96	8.63	-52.0	-54.1	14.7	0.00e+00	0	23	0	1009778688	70	4539
2026-01-12 12:38:35.94	328.09	8.58	-52.1	-54.2	14.7	0.00e+00	0	23	0	1011875840	70	4585
2026-01-12 12:38:36.94	328.22	8.53	-52.1	-54.3	14.6	0.00e+00	0	23	0	1013972992	70	4617
2026-01-12 12:38:37.93	328.35	8.47	-52.2	-54.4	14.6	0.00e+00	0	23	0	1016070144	70	4693
2026-01-12 12:38:38.94	328.48	8.42	-52.3	-54.5	14.5	0.00e+00	0	23	0	1017118720	70	4743
2026-01-12 12:38:39.94	328.61	8.37	-52.5	-54.7	14.4	0.00e+00	0	23	0	1019215872	70	4859
2026-01-12 12:38:40.94	328.74	8.32	-52.5	-54.8	14.3	0.00e+00	0	23	0	1021313024	70	4890
2026-01-12 12:38:41.94	328.87	8.26	-52.5	-54.8	14.3	0.00e+00	0	23	0	1023410176	70	4922
2026-01-12 12:38:42.94	329.00	8.21	-52.5	-54.8	14.3	0.00e+00	0	23	0	1025507328	70	4920
2026-01-12 12:38:43.94	329.12	8.16	-52.5	-54.9	14.3	0.00e+00	0	23	0	1026555904	70	4945
2026-01-12 12:38:44.94	329.25	8.11	-52.5	-54.7	14.3	0.00e+00	0	23	0	1028653056	70	4869
2026-01-12 12:38:45.94	329.38	8.05	-52.4	-54.7	14.4	0.00e+00	0	23	0	1030750208	70	4826
2026-01-12 12:38:46.94	329.50	8.00	-52.3	-54.6	14.4	0.00e+00	0	23	0	1032847360	70	4778
2026-01-12 12:38:47.93	329.63	7.95	-52.4	-54.6	14.4	0.00e+00	0	23	0	1034944512	70	4812
2026-01-12 12:38:48.93	329.75	7.90	-52.2	-54.4	14.5	0.00e+00	0	23	0	1035993088	70	4692
2026-01-12 12:38:49.93	329.88	7.84	-52.2	-54.4	14.5	0.00e+00	0	23	0	1038090240	70	4670
2026-01-12 12:38:50.93	330.00	7.79	-52.3	-54.5	14.4	0.00e+00	0	23	0	1040187392	70	4741
2026-01-12 12:38:51.93	330.13	7.74	-52.4	-54.7	14.4	0.00e+00	0	23	0	1042284544	70	4821
2026-01-12 12:38:52.93	330.25	7.69	-52.5	-54.8	14.3	0.00e+00	0	23	0	1043333120	70	4921
2026-01-12 12:38:53.93	330.37	7.64	-52.5	-54.8	14.3	0.00e+00	0	23	0	1045430272	70	4907
2026-01-12 12:38:54.93	330.50	7.58	-52.5	-54.8	14.3	0.00e+00	0	23	0	1047527424	70	4912
2026-01-12 12:38:55.93	330.62	7.53	-52.6	-55.0	14.2	0.00e+00	0	23	0	1049624576	70	5008
2026-01-12 12:38:56.94	330.74	7.48	-52.7	-55.2	14.0	0.00e+00	0	23	0	1051721728	70	5134
2026-01-12 12:38:57.94	330.86	7.42	-52.8	-55.3	13.9	0.00e+00	0	23	0	1052770304	70	5208
2026-01-12 12:38:58.94	330.98	7.37	-52.7	-55.2	14.0	0.00e+00	0	23	0	1054867456	70	5143
2026-01-12 12:38:59.94	331.10	7.32	-52.8	-55.3	14.0	0.00e+00	0	23	0	1056964608	70	5181
2026-01-12 12:39:00.94	331.22	7.27	-52.8	-55.3	13.9	0.00e+00	0	23	0	1059061760	70	5205
2026-01-12 12:39:01.93	331.34	7.22	-52.9	-55.4	13.9	0.00e+00	0	23	0	1061158912	70	5252
2026-01-12 12:39:02.94	331.46	7.16	-52.9	-55.5	13.8	0.00e+00	0	23	0	1062207488	70	5303
2026-01-12 12:39:03.93	331.58	7.11	-52.8	-55.3	14.0	0.00e+00	0	23	0	1064304640	70	5164
2026-01-12 12:39:04.93	331.70	7.06	-52.9	-55.4	13.9	0.00e+00	0	23	0	1066401792	70	5254
2026-01-12 12:39:05.93	331.82	7.01	-52.9	-55.5	14.0	0.00e+00	0	23	0	1068498944	71	5018
2026-01-12 12:39:06.93	331.93	6.95	-52.8	-55.3	14.1	0.00e+00	0	23	0	1070596096	71	4899
2026-01-12 12:39:07.93	332.05	6.90	-53.0	-55.6	13.9	0.00e+00	0	23	0	1071644672	71	5074
2026-01-12 12:39:08.93	332.17	6.85	-53.0	-55.7	13.9	0.00e+00	0	23	0	1073741824	71	5106
2026-01-12 12:39:09.93	332.28	6.80	-53.0	-55.7	13.9	0.00e+00	0	23	0	1075838976	71	5107
2026-01-12 12:39:10.93	332.40	6.74	-53.1	-55.8	13.7	7.00e-07	0	23	0	1077936128	71	5214
2026-01-12 12:39:11.93	332.52	6.69	-53.2	-55.9	13.7	0.00e+00	0	23	0	1078984704	71	5258
2026-01-12 12:39:12.92	332.63	6.64	-53.2	-56.0	13.6	0.00e+00	0	23	0	1081081856	71	5284
2026-01-12 12:39:13.92	332.75	6.59	-53.2	-56.0	13.6	0.00e+00	0	23	0	1083179008	71	5296
2026-01-12 12:39:14.91	332.86	6.54	-53.1	-55.7	13.8	0.00e+00	0	23	0	1085276160	71	5159
2026-01-12 12:39:15.90	332.97	6.48	-53.1	-55.9	13.7	0.00e+00	0	23	0	1087373312	71	5223
2026-01-12 12:39:16.89	333.08	6.43	-53.1	-55.8	13.7	0.00e+00	0	23	0	1088421888	71	5197
2026-01-12 12:39:17.90	333.20	6.38	-53.2	-55.9	13.7	0.00e+00	0	23	0	1090519040	71	5251
2026-01-12 12:39:18.90	333.31	6.33	-53.1	-55.8	13.7	0.00e+00	0	23	0	1092616192	71	5209
2026-01-12 12:39:19.90	333.42	6.27	-53.1	-55.8	13.7	0.00e+00	0	23	0	1094713344	71	5203
2026-01-12 12:39:20.90	333.54	6.22	-53.1	-55.9	13.7	0.00e+00	0	23	0	1096810496	71	5231
2026-01-12 12:39:21.90	333.65	6.17	-53.2	-56.0	13.6	0.00e+00	0	23	0	1097859072	71	5296
2026-01-12 12:39:22.89	333.76	6.12	-53.3	-56.2	13.5	0.00e+00	0	23	0	1099956224	71	5420
2026-01-12 12:39:23.89	333.87	6.07	-53.3	-56.2	13.4	0.00e+00	0	23	0	1102053376	71	5403
2026-01-12 12:39:24.89	333.98	6.01	-53.4	-56.3	13.5	0.00e+00	0	23	0	1104150528	72	5193
2026-01-12 12:39:25.88	334.09	5.96	-53.4	-56.3	13.5	0.00e+00	0	23	0	1105199104	72	5195
2026-01-12 12:39:26.88	334.20	5.91	-53.5	-56.5	13.4	0.00e+00	0	23	0	1107296256	72	5296
2026-01-12 12:39:27.88	334.31	5.86	-53.5	-56.5	13.3	0.00e+00	0	23	0	1109393408	72	5295
2026-01-12 12:39:28.87	334.42	5.81	-53.5	-56.5	13.3	0.00e+00	0	23	0	1111490560	72	5301
2026-01-12 12:39:29.86	334.52	5.76	-53.5	-56.5	13.3	0.00e+00	0	23	0	1113587712	72	5281
2026-01-12 12:39:30.87	334.63	5.70	-53.6	-56.6	13.2	0.00e+00	0	23	0	1114636288	72	5394
2026-01-12 12:39:31.86	334.74	5.65	-53.4	-56.3	13.4	0.00e+00	0	23	0	1116733440	72	5218
2026-01-12 12:39:32.86	334.85	5.60	-53.3	-56.3	13.4	0.00e+00	0	23	0	1118830592	72	5181
2026-01-12 12:39:33.86	334.95	5.55	-53.4	-56.4	13.4	0.00e+00	0	23	0	1120927744	72	5234
2026-01-12 12:39:34.85	335.06	5.50	-53.4	-56.5	13.3	0.00e+00	0	23	0	1123024896	72	5283
2026-01-12 12:39:35.86	335.17	5.44	-53.3	-56.3	13.4	0.00e+00	0	23	0	1124073472	72	5211
2026-01-12 12:39:36.85	335.27	5.39	-53.3	-56.2	13.5	0.00e+00	0	23	0	1126170624	72	5127
2026-01-12 12:39:37.86	335.38	5.34	-53.2	-56.0	13.6	0.00e+00	0	23	0	1128267776	72	5028
2026-01-12 12:39:38.85	335.48	5.29	-53.1	-55.9	13.7	0.00e+00	0	23	0	1130364928	72	4976
2026-01-12 12:39:39.84	335.59	5.24	-53.3	-56.3	13.4	0.00e+00	0	23	0	1131413504	72	5194
2026-01-12 12:39:40.84	335.69	5.19	-53.4	-56.4	13.3	0.00e+00	0	23	0	1133510656	72	5241
2026-01-12 12:39:41.83	335.80	5.13	-53.5	-56.5	13.3	0.00e+00	0	23	0	1135607808	72	5328
2026-01-12 12:39:42.83	335.90	5.08	-53.5	-56.6	13.2	0.00e+00	0	23	0	1137704960	72	5373
2026-01-12 12:39:43.83	336.00	5.03	-53.5	-56.7	13.1	0.00e+00	0	23	0	1139802112	72	5429
2026-01-12 12:39:44.83	336.11	4.98	-57.1	-66.7	5.8	0.00e+00	0	23	0	1140850688	79	11509
2026-01-12 12:39:45.83	336.21	4.93	-58.0	-74.0	3.8	1.49e+00	0	23	104	1141899264	81	23698
2026-01-12 12:39:46.83	336.31	4.88	-58.3	-74.4	3.8	1.49e+00	0	23	104	1141899264	81	24750
2026-01-12 12:39:47.82	336.42	4.82	-58.6	-74.6	3.8	1.49e+00	0	23	104	1141899264	82	24084
2026-01-12 12:39:48.82	336.52	4.77	-58.8	-74.8	3.8	1.49e+00	0	23	104	1141899264	82	24540
2026-01-12 12:39:49.81	336.62	4.72	-58.9	-75.0	3.8	1.49e+00	0	23	104	1141899264	82	24984
2026-01-12 12:39:50.80	336.72	4.67	-59.0	-75.1	3.8	1.49e+00	0	23	104	1141899264	83	23935
2026-01-12 12:39:51.80	336.82	4.62	-59.1	-75.2	3.8	1.49e+00	0	23	104	1141899264	83	24260
2026-01-12 12:39:52.80	336.92	4.57	-59.2	-75.3	3.8	1.49e+00	0	23	104	1141899264	83	24466
2026-01-12 12:39:53.80	337.02	4.52	-59.3	-75.3	3.8	1.49e+00	0	23	104	1141899264	83	24620
2026-01-12 12:39:54.79	337.12	4.47	-59.3	-75.4	3.8	1.49e+00	0	23	104	1141899264	83	24712
2026-01-12 12:39:55.79	337.22	4.41	-59.3	-75.4	3.8	1.49e+00	0	23	104	1141899264	83	24805
2026-01-12 12:39:56.78	337.32	4.36	-59.4	-75.4	3.8	1.49e+00	0	23	104	1141899264	83	24830
2026-01-12 12:39:57.79	337.42	4.31	-59.4	-75.5	3.8	1.49e+00	0	23	104	1141899264	83	25043
2026-01-12 12:39:58.79	337.52	4.26	-59.6	-75.7	3.8	1.49e+00	0	23	104	1141899264	84	24162
2026-01-12 12:39:59.79	337.61	4.21	-59.7	-75.7	3.8	1.49e+00	0	23	104	1141899264	84	24272
2026-01-12 12:40:00.79	337.71	4.16	-59.7	-75.7	3.8	1.49e+00	0	23	104	1141899264	84	24264
2026-01-12 12:40:01.79	337.81	4.11	-59.7	-75.7	3.8	1.49e+00	0	23	104	1141899264	84	24350
2026-01-12 12:40:02.79	337.91	4.06	-59.7	-75.7	3.8	1.49e+00	0	23	104	1141899264	84	24326
2026-01-12 12:40:03.79	338.00	4.00	-59.7	-75.7	3.8	1.49e+00	0	23	104	1141899264	84	24381
2026-01-12 12:40:04.79	338.10	3.95	-59.7	-75.7	3.8	1.49e+00	0	23	104	1141899264	84	24356
2026-01-12 12:40:05.79	338.20	3.90	-59.7	-75.8	3.8	1.49e+00	0	23	104	1141899264	84	24453
2026-01-12 12:40:06.79	338.29	3.85	-59.7	-75.7	3.8	1.49e+00	0	23	104	1141899264	84	24383
2026-01-12 12:40:07.78	338.39	3.80	-59.7	-75.7	3.8	1.49e+00	0	23	104	1141899264	84	24318
2026-01-12 12:40:08.78	338.48	3.75	-59.7	-75.7	3.8	1.49e+00	0	23	104	1141899264	84	24244
2026-01-12 12:40:09.78	338.58	3.70	-59.6	-75.7	3.8	1.49e+00	0	23	104	1141899264	84	24230
2026-01-12 12:40:10.79	338.67	3.65	-59.6	-75.7	3.8	1.49e+00	0	23	104	1141899264	84	24148
2026-01-12 12:40:11.78	338.77	3.60	-59.6	-75.6	3.8	1.49e+00	0	23	104	1141899264	84	24115
2026-01-12 12:40:12.77	338.86	3.55	-59.6	-75.7	3.8	1.49e+00	0	23	104	1141899264	84	24152
