passes_logs/2026/01/12/R3.2S_Murmansk/R3.2S_Murmansk__20260112_054713_NOAA_20_JPSS-1_rec.log

#Pass ID: 20260112_054713_NOAA 20 (JPSS-1)
#Satellite: NOAA 20 (JPSS-1)
#Configuration: NOAA 20
#almurnet v.1.7.20251203
#Start time: 2026-01-12 05:47:13

#Version: 2.2.20231116
#Station: R3.2S_Murmansk
#Location: 33.079688 lon 68.888172 lat
#TLE: 1 43013U 17073A   26011.59429536  .00000082  00000+0  59704-4 0  9990
#TLE: 2 43013  98.7632 312.5697 0001637  44.2118 315.9188 14.19535307422256

#Time	Az	El	Level	Level2	SNR	BER	BlckErr	Temp	State	Recorded	gain1	gain2
2026-01-12 05:47:13.62	72.10	2.03	-56.9	-72.9	3.8	1.49e+00	0	21	0	0	80	22092
2026-01-12 05:47:14.62	72.04	2.08	-56.8	-72.8	3.8	1.49e+00	0	21	104	0	78	24556
2026-01-12 05:47:15.62	71.98	2.14	-56.8	-72.8	3.8	1.49e+00	0	21	104	0	78	24608
2026-01-12 05:47:16.62	71.91	2.20	-56.8	-72.8	3.8	1.49e+00	0	21	104	0	78	24663
2026-01-12 05:47:17.62	71.85	2.26	-56.8	-72.8	3.8	1.49e+00	0	21	104	0	78	24591
2026-01-12 05:47:18.62	71.79	2.31	-56.8	-72.8	3.8	1.49e+00	0	21	104	0	78	24637
2026-01-12 05:47:19.62	71.72	2.37	-56.8	-72.8	3.8	1.49e+00	0	21	104	0	78	24597
2026-01-12 05:47:20.62	71.66	2.43	-56.8	-72.8	3.8	1.49e+00	0	21	104	0	78	24587
2026-01-12 05:47:21.62	71.59	2.49	-56.8	-72.8	3.8	1.49e+00	0	21	104	0	78	24605
2026-01-12 05:47:22.62	71.53	2.54	-56.8	-72.8	3.8	1.49e+00	0	21	104	0	78	24572
2026-01-12 05:47:23.62	71.46	2.60	-56.8	-72.8	3.8	1.49e+00	0	21	104	0	78	24574
2026-01-12 05:47:24.62	71.40	2.66	-56.8	-72.8	3.8	1.49e+00	0	21	104	0	78	24533
2026-01-12 05:47:25.62	71.33	2.72	-56.8	-72.8	3.8	1.49e+00	0	21	104	0	78	24486
2026-01-12 05:47:26.62	71.27	2.78	-56.8	-72.8	3.8	1.49e+00	0	21	104	0	78	24611
2026-01-12 05:47:27.62	71.20	2.83	-56.8	-72.8	3.8	1.49e+00	0	21	104	0	78	24554
2026-01-12 05:47:28.62	71.14	2.89	-56.8	-72.8	3.8	1.49e+00	0	21	104	0	78	24528
2026-01-12 05:47:29.63	71.07	2.95	-56.8	-72.8	3.8	1.49e+00	0	21	104	0	78	24646
2026-01-12 05:47:30.62	71.00	3.01	-56.8	-72.8	3.8	1.49e+00	0	21	104	0	78	24657
2026-01-12 05:47:31.62	70.94	3.07	-56.8	-72.8	3.8	1.49e+00	0	21	104	0	78	24550
2026-01-12 05:47:32.62	70.87	3.13	-56.8	-72.8	3.8	1.49e+00	0	21	104	0	78	24626
2026-01-12 05:47:33.61	70.80	3.18	-56.8	-72.9	3.8	1.49e+00	0	21	104	0	78	24696
2026-01-12 05:47:34.62	70.73	3.24	-56.8	-72.9	3.8	1.49e+00	0	21	104	0	78	24701
2026-01-12 05:47:35.61	70.67	3.30	-56.8	-72.8	3.8	1.49e+00	0	21	104	0	78	24586
2026-01-12 05:47:36.61	70.60	3.36	-56.8	-72.8	3.8	1.49e+00	0	22	104	0	78	24525
2026-01-12 05:47:37.61	70.53	3.42	-56.8	-72.8	3.8	1.49e+00	0	22	104	0	78	24487
2026-01-12 05:47:38.60	70.46	3.48	-56.8	-72.8	3.8	1.49e+00	0	22	104	0	78	24488
2026-01-12 05:47:39.60	70.39	3.54	-56.8	-72.8	3.8	1.49e+00	0	22	104	0	78	24488
2026-01-12 05:47:40.59	70.32	3.60	-56.8	-72.8	3.8	1.49e+00	0	22	104	0	78	24601
2026-01-12 05:47:41.59	70.25	3.65	-56.8	-72.8	3.8	1.49e+00	0	22	104	0	78	24591
2026-01-12 05:47:42.59	70.18	3.71	-56.8	-72.8	3.8	1.49e+00	0	22	104	0	78	24691
2026-01-12 05:47:43.58	70.11	3.77	-56.8	-72.8	3.8	1.49e+00	0	22	104	0	78	24564
2026-01-12 05:47:44.59	70.04	3.83	-56.9	-72.8	3.8	1.49e+00	0	22	104	0	78	24523
2026-01-12 05:47:45.59	69.97	3.89	-56.9	-72.7	3.8	1.49e+00	0	22	104	0	78	24384
2026-01-12 05:47:46.59	69.90	3.95	-56.9	-72.7	3.8	1.49e+00	0	22	104	0	78	24268
2026-01-12 05:47:47.59	69.83	4.01	-56.9	-72.7	3.8	1.49e+00	0	22	104	0	78	24198
2026-01-12 05:47:48.60	69.76	4.07	-56.9	-72.7	3.8	1.49e+00	0	22	104	0	78	24299
2026-01-12 05:47:49.60	69.68	4.13	-56.9	-72.8	3.8	1.49e+00	0	22	104	0	78	24432
2026-01-12 05:47:50.60	69.61	4.19	-56.9	-72.8	3.8	1.49e+00	0	22	104	0	78	24624
2026-01-12 05:47:51.60	69.54	4.25	-56.9	-72.9	3.8	1.49e+00	0	22	104	0	78	24737
2026-01-12 05:47:52.60	69.46	4.31	-56.9	-72.7	3.8	1.49e+00	0	22	104	0	78	24350
2026-01-12 05:47:53.60	69.39	4.37	-56.8	-72.4	3.8	1.49e+00	0	22	104	0	78	23447
2026-01-12 05:47:54.60	69.32	4.44	-56.8	-71.8	3.8	1.49e+00	0	22	104	0	78	21847
2026-01-12 05:47:55.60	69.24	4.50	-56.8	-71.2	3.8	1.49e+00	0	22	104	0	78	20471
2026-01-12 05:47:56.60	69.17	4.56	-56.8	-70.4	4.0	1.48e+00	0	22	104	0	78	18529
2026-01-12 05:47:57.60	69.09	4.62	-56.7	-69.5	4.2	1.44e+00	0	22	0	0	78	16729
2026-01-12 05:47:58.60	69.02	4.68	-56.7	-68.7	4.3	1.37e+00	79	22	0	0	78	15352
2026-01-12 05:47:59.60	68.94	4.74	-56.6	-67.9	4.7	1.06e+00	0	22	0	1048576	78	13950
2026-01-12 05:48:00.59	68.87	4.80	-56.6	-67.6	4.8	7.96e-01	0	22	0	3145728	78	13427
2026-01-12 05:48:01.59	68.79	4.86	-56.5	-66.8	5.2	6.80e-01	0	22	0	5242880	78	12342
2026-01-12 05:48:02.59	68.72	4.92	-56.5	-66.5	5.4	5.44e-01	0	22	0	7340032	78	11901
2026-01-12 05:48:03.59	68.64	4.98	-56.5	-66.3	5.5	4.37e-01	0	22	0	9437184	78	11596
2026-01-12 05:48:04.58	68.56	5.04	-56.5	-66.8	5.2	4.67e-01	0	22	0	10485760	78	12362
2026-01-12 05:48:05.57	68.49	5.11	-56.7	-67.4	4.9	5.46e-01	0	22	0	12582912	78	13257
2026-01-12 05:48:06.57	68.41	5.17	-56.5	-66.5	5.5	9.47e-01	0	22	0	14680064	78	11842
2026-01-12 05:48:07.58	68.33	5.23	-55.9	-62.6	8.4	4.57e-01	0	22	0	16777216	78	7558
2026-01-12 05:48:08.58	68.25	5.29	-56.6	-67.7	5.0	7.89e-03	0	22	0	18874368	78	13584
2026-01-12 05:48:09.57	68.17	5.35	-56.4	-64.9	6.4	1.49e+00	0	22	104	18874368	78	9869
2026-01-12 05:48:10.57	68.09	5.41	-55.6	-61.1	10.1	1.39e-02	0	22	0	19922944	77	6759
2026-01-12 05:48:11.56	68.01	5.48	-55.4	-60.5	10.5	1.69e-03	0	22	0	22020096	77	6341
2026-01-12 05:48:12.56	67.93	5.54	-55.0	-59.4	11.4	3.43e-04	0	22	0	23068672	76	5919
2026-01-12 05:48:13.56	67.85	5.60	-54.9	-59.3	11.6	7.78e-05	0	22	0	25165824	76	5796
2026-01-12 05:48:14.57	67.77	5.66	-54.8	-59.0	11.9	6.10e-05	0	22	0	27262976	76	5602
2026-01-12 05:48:15.56	67.69	5.73	-54.4	-58.1	12.4	1.06e-05	0	22	0	29360128	75	5399
2026-01-12 05:48:16.55	67.61	5.79	-54.4	-58.3	12.3	3.00e-06	0	22	0	31457280	75	5494
2026-01-12 05:48:17.54	67.53	5.85	-54.3	-58.1	12.4	3.80e-06	0	22	0	32505856	75	5388
2026-01-12 05:48:18.54	67.45	5.91	-54.4	-58.2	12.4	1.22e-05	0	22	0	34603008	75	5436
2026-01-12 05:48:19.54	67.37	5.97	-54.4	-58.2	12.3	3.80e-06	0	22	0	36700160	75	5427
2026-01-12 05:48:20.53	67.29	6.04	-54.3	-58.1	12.4	1.50e-06	0	22	0	38797312	75	5379
2026-01-12 05:48:21.54	67.20	6.10	-54.3	-58.0	12.4	3.00e-06	0	22	0	40894464	74	5620
2026-01-12 05:48:22.54	67.12	6.16	-54.2	-57.8	12.5	7.00e-07	0	22	0	41943040	74	5516
2026-01-12 05:48:23.54	67.03	6.23	-53.9	-57.2	13.0	0.00e+00	0	22	0	44040192	74	5120
2026-01-12 05:48:24.54	66.95	6.29	-54.1	-57.5	12.8	0.00e+00	0	22	0	46137344	74	5332
2026-01-12 05:48:25.54	66.87	6.35	-53.9	-57.1	13.1	0.00e+00	0	22	0	48234496	74	5099
2026-01-12 05:48:26.54	66.78	6.42	-53.8	-56.9	13.3	0.00e+00	0	22	0	50331648	74	4971
2026-01-12 05:48:27.54	66.69	6.48	-53.7	-56.9	13.2	0.00e+00	0	22	0	51380224	73	5232
2026-01-12 05:48:28.54	66.61	6.54	-53.4	-56.3	13.6	0.00e+00	0	22	0	53477376	73	4917
2026-01-12 05:48:29.54	66.52	6.61	-53.6	-56.7	13.4	0.00e+00	0	22	0	55574528	73	5104
2026-01-12 05:48:30.53	66.44	6.67	-53.5	-56.6	13.4	0.00e+00	0	22	0	57671680	73	5075
2026-01-12 05:48:31.53	66.35	6.74	-53.6	-56.6	13.4	0.00e+00	0	22	0	58720256	73	5089
2026-01-12 05:48:32.53	66.26	6.80	-53.6	-56.7	13.3	0.00e+00	0	22	0	60817408	73	5144
2026-01-12 05:48:33.53	66.17	6.86	-53.7	-56.8	13.3	0.00e+00	0	23	0	62914560	73	5187
2026-01-12 05:48:34.52	66.09	6.93	-53.5	-56.5	13.5	0.00e+00	0	22	0	65011712	73	5025
2026-01-12 05:48:35.52	66.00	6.99	-53.7	-56.8	13.3	0.00e+00	0	22	0	67108864	73	5170
2026-01-12 05:48:36.51	65.91	7.06	-53.6	-56.7	13.3	0.00e+00	0	22	0	68157440	73	5139
2026-01-12 05:48:37.50	65.82	7.12	-53.6	-56.7	13.4	0.00e+00	0	22	0	70254592	73	5129
2026-01-12 05:48:38.51	65.73	7.18	-53.7	-56.8	13.3	0.00e+00	0	22	0	72351744	73	5182
2026-01-12 05:48:39.50	65.64	7.25	-53.5	-56.6	13.5	0.00e+00	0	22	0	74448896	73	5061
2026-01-12 05:48:40.49	65.55	7.31	-53.6	-56.6	13.4	0.00e+00	0	23	0	75497472	73	5073
2026-01-12 05:48:41.50	65.46	7.38	-53.6	-56.7	13.4	0.00e+00	0	23	0	77594624	73	5108
2026-01-12 05:48:42.49	65.37	7.44	-53.6	-56.7	13.4	0.00e+00	0	23	0	79691776	73	5139
2026-01-12 05:48:43.49	65.28	7.51	-53.6	-56.7	13.4	0.00e+00	0	23	0	81788928	73	5140
2026-01-12 05:48:44.48	65.19	7.57	-53.6	-56.7	13.4	0.00e+00	0	23	0	83886080	73	5114
2026-01-12 05:48:45.48	65.09	7.64	-53.5	-56.4	13.6	0.00e+00	0	22	0	84934656	73	4962
2026-01-12 05:48:46.47	65.00	7.70	-53.6	-56.6	13.5	0.00e+00	0	23	0	87031808	73	5063
2026-01-12 05:48:47.47	64.91	7.77	-53.6	-56.6	13.5	0.00e+00	0	23	0	89128960	73	5088
2026-01-12 05:48:48.47	64.81	7.83	-53.6	-56.6	13.5	0.00e+00	0	22	0	91226112	73	5068
2026-01-12 05:48:49.47	64.72	7.90	-53.5	-56.4	13.6	0.00e+00	0	22	0	92274688	73	4977
2026-01-12 05:48:50.46	64.63	7.96	-53.6	-56.5	13.5	0.00e+00	0	23	0	94371840	73	5028
2026-01-12 05:48:51.47	64.53	8.03	-53.6	-56.5	13.5	0.00e+00	0	23	0	96468992	73	5040
2026-01-12 05:48:52.45	64.44	8.10	-53.5	-56.3	13.6	0.00e+00	0	22	0	98566144	73	4925
2026-01-12 05:48:53.45	64.34	8.16	-53.5	-56.5	13.6	0.00e+00	0	23	0	100663296	73	4986
2026-01-12 05:48:54.44	64.24	8.23	-53.5	-56.3	13.7	0.00e+00	0	23	0	101711872	73	4921
2026-01-12 05:48:55.44	64.15	8.29	-53.3	-56.1	13.8	0.00e+00	0	23	0	103809024	73	4808
2026-01-12 05:48:56.43	64.05	8.36	-53.4	-56.1	13.8	0.00e+00	0	22	0	105906176	73	4812
2026-01-12 05:48:57.43	63.95	8.43	-53.4	-56.2	13.8	0.00e+00	0	23	0	108003328	73	4843
2026-01-12 05:48:58.43	63.85	8.49	-53.3	-56.1	13.8	0.00e+00	0	23	0	110100480	73	4809
2026-01-12 05:48:59.43	63.75	8.56	-53.3	-56.0	13.9	0.00e+00	0	23	0	111149056	73	4724
2026-01-12 05:49:00.43	63.65	8.63	-53.3	-56.0	13.9	0.00e+00	0	23	0	113246208	73	4740
2026-01-12 05:49:01.43	63.56	8.69	-53.2	-55.9	13.8	0.00e+00	0	22	0	115343360	72	4961
2026-01-12 05:49:02.42	63.46	8.76	-53.2	-55.9	13.8	0.00e+00	0	23	0	117440512	72	4963
2026-01-12 05:49:03.43	63.35	8.83	-53.1	-55.7	13.9	0.00e+00	0	23	0	119537664	72	4859
2026-01-12 05:49:04.43	63.25	8.89	-53.2	-55.9	13.9	0.00e+00	0	23	0	120586240	72	4931
2026-01-12 05:49:05.41	63.15	8.96	-53.1	-55.7	14.0	0.00e+00	0	23	0	122683392	72	4828
2026-01-12 05:49:06.40	63.05	9.03	-53.1	-55.7	14.0	0.00e+00	0	23	0	124780544	72	4836
2026-01-12 05:49:07.40	62.95	9.09	-53.1	-55.8	13.9	0.00e+00	0	23	0	126877696	72	4872
2026-01-12 05:49:08.40	62.85	9.16	-53.1	-55.7	14.0	0.00e+00	0	23	0	127926272	72	4831
2026-01-12 05:49:09.40	62.74	9.23	-53.0	-55.5	14.1	0.00e+00	0	23	0	130023424	72	4737
2026-01-12 05:49:10.39	62.64	9.29	-53.0	-55.6	14.1	0.00e+00	0	23	0	132120576	72	4767
2026-01-12 05:49:11.39	62.53	9.36	-53.1	-55.8	13.9	0.00e+00	0	23	0	134217728	72	4876
2026-01-12 05:49:12.38	62.43	9.43	-53.1	-55.7	14.0	0.00e+00	0	23	0	136314880	72	4855
2026-01-12 05:49:13.37	62.32	9.50	-53.1	-55.6	14.0	0.00e+00	0	23	0	137363456	72	4814
2026-01-12 05:49:14.36	62.22	9.56	-53.0	-55.5	14.1	0.00e+00	0	23	0	139460608	72	4740
2026-01-12 05:49:15.36	62.11	9.63	-53.1	-55.7	14.0	0.00e+00	0	23	0	141557760	72	4832
2026-01-12 05:49:16.35	62.01	9.70	-53.1	-55.7	14.0	0.00e+00	0	23	0	143654912	72	4828
2026-01-12 05:49:17.35	61.90	9.77	-53.0	-55.6	14.1	0.00e+00	0	23	0	144703488	72	4786
2026-01-12 05:49:18.35	61.79	9.84	-53.1	-55.7	14.0	0.00e+00	0	23	0	146800640	72	4862
2026-01-12 05:49:19.36	61.68	9.90	-53.2	-55.8	13.9	0.00e+00	0	23	0	148897792	72	4897
2026-01-12 05:49:20.34	61.57	9.97	-53.1	-55.8	14.0	0.00e+00	0	23	0	150994944	72	4876
2026-01-12 05:49:21.34	61.46	10.04	-53.2	-55.9	13.9	0.00e+00	0	23	0	153092096	72	4933
2026-01-12 05:49:22.33	61.35	10.11	-53.2	-55.9	13.9	0.00e+00	0	23	0	154140672	72	4935
2026-01-12 05:49:23.32	61.24	10.18	-53.2	-55.8	13.9	0.00e+00	0	23	0	156237824	72	4899
2026-01-12 05:49:24.32	61.13	10.25	-53.2	-55.9	13.9	0.00e+00	0	23	0	158334976	72	4928
2026-01-12 05:49:25.32	61.02	10.31	-53.2	-55.8	14.0	0.00e+00	0	23	0	160432128	72	4889
2026-01-12 05:49:26.32	60.91	10.38	-53.2	-55.9	13.9	0.00e+00	0	22	0	161480704	72	4958
2026-01-12 05:49:27.32	60.80	10.45	-53.3	-56.0	13.9	0.00e+00	0	23	0	163577856	72	4987
2026-01-12 05:49:28.32	60.68	10.52	-53.3	-56.0	13.8	0.00e+00	0	23	0	165675008	72	5005
2026-01-12 05:49:29.31	60.57	10.59	-53.4	-56.1	13.8	0.00e+00	0	23	0	167772160	72	5059
2026-01-12 05:49:30.31	60.45	10.66	-53.2	-55.9	13.9	0.00e+00	0	23	0	169869312	72	4941
2026-01-12 05:49:31.30	60.34	10.73	-53.2	-55.8	14.0	0.00e+00	0	23	0	170917888	72	4877
2026-01-12 05:49:32.30	60.22	10.80	-53.1	-55.6	14.1	0.00e+00	0	23	0	173015040	72	4812
2026-01-12 05:49:33.29	60.11	10.87	-53.1	-55.7	14.1	0.00e+00	0	23	0	175112192	72	4819
2026-01-12 05:49:34.29	59.99	10.94	-53.1	-55.6	14.1	0.00e+00	0	23	0	177209344	72	4800
2026-01-12 05:49:35.29	59.87	11.01	-53.1	-55.6	14.1	0.00e+00	0	23	0	178257920	72	4777
2026-01-12 05:49:36.29	59.76	11.08	-53.1	-55.6	14.1	0.00e+00	0	23	0	180355072	72	4785
2026-01-12 05:49:37.28	59.64	11.14	-53.1	-55.6	14.1	0.00e+00	0	23	0	182452224	72	4804
2026-01-12 05:49:38.28	59.52	11.21	-53.0	-55.5	14.2	0.00e+00	0	23	0	184549376	72	4752
2026-01-12 05:49:39.28	59.40	11.28	-53.0	-55.4	14.2	0.00e+00	0	23	0	186646528	72	4702
2026-01-12 05:49:40.27	59.28	11.35	-52.9	-55.4	14.3	0.00e+00	0	23	0	187695104	72	4669
2026-01-12 05:49:41.27	59.16	11.42	-52.9	-55.4	14.3	0.00e+00	0	23	0	189792256	72	4662
2026-01-12 05:49:42.27	59.04	11.49	-52.9	-55.3	14.3	0.00e+00	0	23	0	191889408	72	4650
2026-01-12 05:49:43.27	58.91	11.56	-52.9	-55.3	14.3	0.00e+00	0	23	0	193986560	72	4639
2026-01-12 05:49:44.27	58.79	11.64	-52.9	-55.4	14.3	0.00e+00	0	23	0	195035136	72	4666
2026-01-12 05:49:45.26	58.67	11.70	-52.8	-55.2	14.4	0.00e+00	0	23	0	197132288	72	4593
2026-01-12 05:49:46.27	58.54	11.78	-52.8	-55.2	14.4	0.00e+00	0	23	0	199229440	72	4586
2026-01-12 05:49:47.25	58.42	11.85	-52.9	-55.3	14.4	0.00e+00	0	23	0	201326592	72	4609
2026-01-12 05:49:48.25	58.30	11.92	-52.8	-55.2	14.4	0.00e+00	0	23	0	203423744	72	4558
2026-01-12 05:49:49.25	58.17	11.99	-52.7	-55.0	14.5	0.00e+00	0	23	0	204472320	72	4471
2026-01-12 05:49:50.25	58.04	12.06	-52.7	-55.0	14.4	0.00e+00	0	23	0	206569472	71	4729
2026-01-12 05:49:51.25	57.92	12.13	-52.6	-54.9	14.5	0.00e+00	0	23	0	208666624	71	4672
2026-01-12 05:49:52.25	57.79	12.20	-52.7	-55.0	14.4	0.00e+00	0	23	0	210763776	71	4724
2026-01-12 05:49:53.25	57.66	12.27	-52.6	-54.8	14.5	0.00e+00	0	23	0	212860928	71	4651
2026-01-12 05:49:54.25	57.53	12.34	-52.6	-54.9	14.4	0.00e+00	0	23	0	213909504	71	4705
2026-01-12 05:49:55.25	57.40	12.41	-52.6	-54.8	14.5	0.00e+00	0	23	0	216006656	71	4639
2026-01-12 05:49:56.25	57.27	12.48	-52.6	-54.9	14.5	0.00e+00	0	23	0	218103808	71	4677
2026-01-12 05:49:57.24	57.14	12.55	-52.6	-54.9	14.5	0.00e+00	0	23	0	220200960	71	4679
2026-01-12 05:49:58.24	57.01	12.63	-52.6	-54.9	14.4	0.00e+00	0	23	0	222298112	71	4696
2026-01-12 05:49:59.24	56.88	12.70	-52.6	-55.0	14.4	0.00e+00	0	23	0	223346688	71	4707
2026-01-12 05:50:00.24	56.75	12.77	-52.6	-55.0	14.4	0.00e+00	0	23	0	225443840	71	4716
2026-01-12 05:50:01.24	56.61	12.84	-52.7	-55.0	14.4	0.00e+00	0	23	0	227540992	71	4712
2026-01-12 05:50:02.24	56.48	12.91	-52.6	-55.0	14.4	0.00e+00	0	23	0	229638144	71	4716
2026-01-12 05:50:03.24	56.34	12.98	-52.6	-54.9	14.4	0.00e+00	0	23	0	230686720	71	4686
2026-01-12 05:50:04.23	56.21	13.05	-52.5	-54.8	14.5	0.00e+00	0	23	0	232783872	71	4632
2026-01-12 05:50:05.23	56.07	13.13	-52.6	-54.9	14.5	0.00e+00	0	23	0	234881024	71	4655
2026-01-12 05:50:06.23	55.94	13.20	-52.4	-54.6	14.6	0.00e+00	0	23	0	236978176	71	4540
2026-01-12 05:50:07.22	55.80	13.27	-52.4	-54.6	14.7	0.00e+00	0	23	0	239075328	71	4523
2026-01-12 05:50:08.21	55.66	13.34	-52.4	-54.6	14.7	0.00e+00	0	23	0	240123904	71	4498
2026-01-12 05:50:09.21	55.52	13.41	-52.3	-54.5	14.8	0.00e+00	0	23	0	242221056	71	4454
2026-01-12 05:50:10.20	55.39	13.48	-52.2	-54.3	14.8	0.00e+00	0	23	0	244318208	71	4370
2026-01-12 05:50:11.20	55.25	13.55	-52.2	-54.4	14.8	0.00e+00	0	23	0	246415360	71	4396
2026-01-12 05:50:12.20	55.10	13.63	-52.2	-54.3	14.9	0.00e+00	0	23	0	247463936	71	4363
2026-01-12 05:50:13.19	54.96	13.70	-52.2	-54.3	14.8	0.00e+00	0	23	0	249561088	71	4376
2026-01-12 05:50:14.19	54.82	13.77	-52.1	-54.3	14.7	0.00e+00	0	23	0	251658240	70	4603
2026-01-12 05:50:15.19	54.68	13.84	-52.0	-54.1	14.8	0.00e+00	0	23	0	253755392	70	4518
2026-01-12 05:50:16.19	54.53	13.91	-52.0	-54.1	14.8	0.00e+00	0	23	0	255852544	70	4516
2026-01-12 05:50:17.19	54.39	13.99	-52.1	-54.2	14.8	0.00e+00	0	23	0	256901120	70	4558
2026-01-12 05:50:18.20	54.24	14.06	-52.0	-54.1	14.8	0.00e+00	0	23	0	258998272	70	4527
2026-01-12 05:50:19.19	54.10	14.13	-52.1	-54.2	14.7	0.00e+00	0	23	0	261095424	70	4573
2026-01-12 05:50:20.19	53.95	14.20	-52.1	-54.1	14.8	0.00e+00	0	23	0	263192576	70	4523
2026-01-12 05:50:21.18	53.81	14.27	-52.2	-54.3	14.7	0.00e+00	0	23	0	265289728	70	4613
2026-01-12 05:50:22.18	53.66	14.35	-52.1	-54.2	14.7	0.00e+00	0	23	0	266338304	70	4565
2026-01-12 05:50:23.17	53.51	14.42	-52.2	-54.3	14.7	0.00e+00	0	23	0	268435456	70	4649
2026-01-12 05:50:24.18	53.36	14.49	-52.1	-54.2	14.7	0.00e+00	0	23	0	270532608	70	4587
2026-01-12 05:50:25.17	53.21	14.56	-52.2	-54.4	14.6	0.00e+00	0	23	0	272629760	70	4672
2026-01-12 05:50:26.16	53.06	14.63	-52.3	-54.5	14.6	0.00e+00	0	23	0	273678336	70	4718
2026-01-12 05:50:27.15	52.91	14.71	-52.4	-54.6	14.5	0.00e+00	0	23	0	275775488	70	4771
2026-01-12 05:50:28.15	52.76	14.78	-52.3	-54.5	14.5	0.00e+00	0	23	0	277872640	70	4743
2026-01-12 05:50:29.16	52.60	14.85	-52.3	-54.5	14.6	0.00e+00	0	23	0	279969792	70	4715
2026-01-12 05:50:30.15	52.45	14.92	-52.3	-54.4	14.6	0.00e+00	0	23	0	282066944	70	4696
2026-01-12 05:50:31.15	52.30	15.00	-52.3	-54.4	14.6	0.00e+00	0	23	0	283115520	70	4690
2026-01-12 05:50:32.14	52.14	15.07	-52.3	-54.4	14.6	0.00e+00	0	23	0	285212672	70	4687
2026-01-12 05:50:33.14	51.99	15.14	-52.3	-54.5	14.6	0.00e+00	0	23	0	287309824	70	4743
2026-01-12 05:50:34.13	51.83	15.21	-52.4	-54.6	14.5	0.00e+00	0	23	0	289406976	70	4772
2026-01-12 05:50:35.13	51.67	15.28	-52.4	-54.6	14.5	0.00e+00	0	23	0	290455552	70	4804
2026-01-12 05:50:36.12	51.51	15.35	-52.5	-54.8	14.4	0.00e+00	0	23	0	292552704	70	4892
2026-01-12 05:50:37.12	51.35	15.43	-52.4	-54.6	14.5	0.00e+00	0	23	0	294649856	70	4777
2026-01-12 05:50:38.12	51.19	15.50	-52.5	-54.7	14.5	0.00e+00	0	23	0	296747008	70	4845
2026-01-12 05:50:39.12	51.03	15.57	-52.6	-54.8	14.4	0.00e+00	0	23	0	298844160	70	4922
2026-01-12 05:50:40.12	50.87	15.64	-52.6	-55.0	14.3	0.00e+00	0	23	0	299892736	70	4985
2026-01-12 05:50:41.12	50.71	15.72	-52.6	-54.9	14.3	0.00e+00	0	23	0	301989888	70	4964
2026-01-12 05:50:42.12	50.55	15.79	-52.6	-55.0	14.3	0.00e+00	0	23	0	304087040	70	4987
2026-01-12 05:50:43.11	50.38	15.86	-52.6	-54.9	14.4	0.00e+00	0	23	0	306184192	70	4929
2026-01-12 05:50:44.10	50.22	15.93	-52.5	-54.8	14.4	0.00e+00	0	23	0	307232768	70	4883
2026-01-12 05:50:45.10	50.05	16.00	-52.5	-54.7	14.4	0.00e+00	0	23	0	309329920	70	4859
2026-01-12 05:50:46.10	49.89	16.08	-52.5	-54.8	14.4	0.00e+00	0	23	0	311427072	70	4890
2026-01-12 05:50:47.10	49.72	16.15	-52.5	-54.8	14.4	0.00e+00	0	23	0	313524224	70	4897
2026-01-12 05:50:48.10	49.55	16.22	-52.6	-54.9	14.4	0.00e+00	0	23	0	315621376	70	4934
2026-01-12 05:50:49.11	49.38	16.29	-52.6	-54.8	14.4	0.00e+00	0	23	0	316669952	70	4906
2026-01-12 05:50:50.10	49.21	16.36	-52.6	-54.9	14.3	0.00e+00	0	23	0	318767104	70	4962
2026-01-12 05:50:51.11	49.04	16.44	-52.7	-55.0	14.3	0.00e+00	0	23	0	320864256	70	4989
2026-01-12 05:50:52.11	48.87	16.51	-52.7	-55.1	14.2	0.00e+00	0	23	0	322961408	70	5048
2026-01-12 05:50:53.10	48.70	16.58	-52.8	-55.1	14.2	0.00e+00	0	23	0	325058560	70	5078
2026-01-12 05:50:54.09	48.53	16.65	-52.6	-54.9	14.3	0.00e+00	0	23	0	326107136	70	4957
2026-01-12 05:50:55.09	48.35	16.72	-52.7	-54.9	14.3	0.00e+00	0	23	0	328204288	70	4975
2026-01-12 05:50:56.09	48.18	16.79	-52.7	-55.0	14.3	0.00e+00	0	23	0	330301440	70	5035
2026-01-12 05:50:57.09	48.00	16.87	-52.7	-55.1	14.2	0.00e+00	0	23	0	332398592	70	5054
2026-01-12 05:50:58.09	47.82	16.94	-52.7	-55.0	14.3	0.00e+00	0	23	0	334495744	70	4997
2026-01-12 05:50:59.09	47.65	17.01	-52.7	-55.0	14.3	0.00e+00	0	23	0	335544320	70	4999
2026-01-12 05:51:00.09	47.47	17.08	-52.7	-55.0	14.3	0.00e+00	0	23	0	337641472	70	5025
2026-01-12 05:51:01.09	47.29	17.15	-52.7	-55.0	14.3	0.00e+00	0	23	0	339738624	70	5004
2026-01-12 05:51:02.09	47.11	17.22	-52.8	-55.1	14.2	0.00e+00	0	23	0	341835776	70	5085
2026-01-12 05:51:03.09	46.93	17.29	-52.7	-54.9	14.3	0.00e+00	0	23	0	342884352	70	4983
2026-01-12 05:51:04.09	46.75	17.36	-52.7	-54.9	14.4	0.00e+00	0	23	0	344981504	70	4966
2026-01-12 05:51:05.08	46.56	17.43	-52.6	-54.8	14.4	0.00e+00	0	23	0	347078656	70	4899
2026-01-12 05:51:06.08	46.38	17.51	-52.6	-54.9	14.4	0.00e+00	0	23	0	349175808	70	4939
2026-01-12 05:51:07.08	46.20	17.58	-52.5	-54.6	14.5	0.00e+00	0	23	0	351272960	70	4814
2026-01-12 05:51:08.07	46.01	17.65	-52.5	-54.8	14.4	0.00e+00	0	23	0	352321536	70	4881
2026-01-12 05:51:09.06	45.83	17.72	-52.6	-54.7	14.4	0.00e+00	0	23	0	354418688	70	4870
2026-01-12 05:51:10.07	45.64	17.79	-52.6	-54.8	14.4	0.00e+00	0	23	0	356515840	70	4885
2026-01-12 05:51:11.06	45.45	17.86	-52.6	-54.9	14.4	0.00e+00	0	23	0	358612992	70	4950
2026-01-12 05:51:12.06	45.26	17.93	-52.5	-54.7	14.5	0.00e+00	0	23	0	359661568	70	4831
2026-01-12 05:51:13.06	45.08	18.00	-52.3	-54.4	14.6	0.00e+00	0	23	0	361758720	70	4698
2026-01-12 05:51:14.05	44.89	18.07	-52.3	-54.5	14.6	0.00e+00	0	23	0	363855872	70	4712
2026-01-12 05:51:15.04	44.70	18.13	-52.4	-54.5	14.6	0.00e+00	0	23	0	365953024	70	4737
2026-01-12 05:51:16.04	44.50	18.20	-52.1	-54.1	14.8	0.00e+00	0	23	0	368050176	70	4545
2026-01-12 05:51:17.04	44.31	18.27	-52.1	-54.2	14.8	0.00e+00	0	23	0	369098752	70	4548
2026-01-12 05:51:18.04	44.12	18.34	-52.1	-54.2	14.8	0.00e+00	0	23	0	371195904	70	4567
2026-01-12 05:51:19.04	43.92	18.41	-52.0	-54.0	14.9	0.00e+00	0	23	0	373293056	70	4490
2026-01-12 05:51:20.03	43.73	18.48	-51.9	-53.9	15.0	0.00e+00	0	23	0	375390208	70	4416
2026-01-12 05:51:21.03	43.53	18.55	-51.9	-53.9	15.0	0.00e+00	0	23	0	377487360	70	4413
2026-01-12 05:51:22.03	43.33	18.62	-51.7	-53.6	15.2	0.00e+00	0	23	0	378535936	70	4244
2026-01-12 05:51:23.03	43.13	18.69	-51.6	-53.5	15.0	0.00e+00	0	23	0	380633088	69	4487
2026-01-12 05:51:24.02	42.94	18.75	-51.4	-53.2	15.2	0.00e+00	0	23	0	382730240	69	4324
2026-01-12 05:51:25.02	42.74	18.82	-51.2	-53.0	15.3	0.00e+00	0	23	0	384827392	69	4217
2026-01-12 05:51:26.02	42.54	18.89	-51.1	-52.9	15.2	0.00e+00	0	23	0	385875968	68	4397
2026-01-12 05:51:27.01	42.34	18.96	-51.0	-52.8	15.2	0.00e+00	0	23	0	387973120	68	4370
2026-01-12 05:51:28.00	42.13	19.02	-51.1	-52.8	15.2	0.00e+00	0	23	0	390070272	68	4367
2026-01-12 05:51:29.00	41.93	19.09	-50.9	-52.7	15.3	0.00e+00	0	23	0	392167424	68	4294
2026-01-12 05:51:29.99	41.73	19.16	-51.0	-52.7	15.3	0.00e+00	0	23	0	394264576	68	4302
2026-01-12 05:51:30.99	41.52	19.23	-50.9	-52.6	15.4	0.00e+00	0	23	0	395313152	68	4273
2026-01-12 05:51:32.00	41.31	19.29	-50.9	-52.6	15.4	0.00e+00	0	23	0	397410304	68	4254
2026-01-12 05:51:33.00	41.10	19.36	-50.8	-52.5	15.4	0.00e+00	0	23	0	399507456	68	4196
2026-01-12 05:51:34.00	40.90	19.43	-50.8	-52.5	15.4	0.00e+00	0	23	0	401604608	68	4214
2026-01-12 05:51:35.01	40.68	19.49	-50.8	-52.4	15.4	0.00e+00	0	23	0	403701760	68	4186
2026-01-12 05:51:36.01	40.47	19.56	-50.7	-52.3	15.5	0.00e+00	0	23	0	404750336	68	4141
2026-01-12 05:51:37.01	40.26	19.62	-50.5	-52.1	15.4	0.00e+00	0	23	0	406847488	67	4273
2026-01-12 05:51:38.01	40.05	19.69	-50.5	-52.1	15.4	0.00e+00	0	23	0	408944640	67	4284
2026-01-12 05:51:39.00	39.84	19.75	-50.5	-52.2	15.4	0.00e+00	0	23	0	411041792	67	4299
2026-01-12 05:51:40.00	39.62	19.82	-50.4	-52.1	15.4	0.00e+00	0	23	0	412090368	67	4249
2026-01-12 05:51:40.99	39.41	19.88	-50.4	-52.1	15.4	0.00e+00	0	23	0	414187520	67	4249
2026-01-12 05:51:41.99	39.20	19.95	-50.5	-52.1	15.4	0.00e+00	0	23	0	416284672	67	4286
2026-01-12 05:51:42.99	38.98	20.01	-50.4	-52.1	15.4	0.00e+00	0	23	0	418381824	67	4246
2026-01-12 05:51:43.99	38.76	20.08	-50.3	-51.9	15.5	0.00e+00	0	23	0	420478976	67	4168
2026-01-12 05:51:44.98	38.54	20.14	-50.2	-51.8	15.5	0.00e+00	0	23	0	421527552	67	4139
2026-01-12 05:51:45.97	38.33	20.20	-50.2	-51.8	15.6	0.00e+00	0	23	0	423624704	67	4143
2026-01-12 05:51:46.97	38.11	20.26	-50.1	-51.7	15.4	0.00e+00	0	23	0	425721856	66	4307
2026-01-12 05:51:47.97	37.88	20.33	-50.1	-51.7	15.5	0.00e+00	0	23	0	427819008	66	4302
2026-01-12 05:51:48.97	37.66	20.39	-50.1	-51.6	15.5	0.00e+00	0	23	0	428867584	66	4284
2026-01-12 05:51:49.96	37.44	20.45	-50.1	-51.7	15.4	0.00e+00	0	23	0	430964736	66	4334
2026-01-12 05:51:50.96	37.22	20.51	-50.1	-51.7	15.4	0.00e+00	0	23	0	433061888	66	4305
2026-01-12 05:51:51.96	36.99	20.57	-50.2	-51.7	15.4	0.00e+00	0	23	0	435159040	66	4335
2026-01-12 05:51:52.95	36.77	20.64	-50.2	-51.8	15.4	0.00e+00	0	23	0	437256192	66	4345
2026-01-12 05:51:53.96	36.54	20.70	-50.1	-51.7	15.5	0.00e+00	0	23	0	438304768	66	4313
2026-01-12 05:51:54.96	36.31	20.76	-50.2	-51.7	15.4	0.00e+00	0	23	0	440401920	66	4338
2026-01-12 05:51:55.96	36.08	20.82	-50.2	-51.8	15.4	0.00e+00	0	23	0	442499072	66	4357
2026-01-12 05:51:56.95	35.86	20.88	-50.3	-51.9	15.4	0.00e+00	0	23	0	444596224	66	4392
2026-01-12 05:51:57.95	35.62	20.94	-50.3	-52.0	15.3	0.00e+00	0	23	0	446693376	66	4446
2026-01-12 05:51:58.95	35.39	21.00	-50.4	-52.1	15.3	0.00e+00	0	23	0	447741952	66	4495
2026-01-12 05:51:59.95	35.16	21.05	-50.4	-52.1	15.2	0.00e+00	0	23	0	449839104	66	4512
2026-01-12 05:52:00.96	34.93	21.11	-50.4	-52.1	15.3	0.00e+00	0	23	0	451936256	66	4503
2026-01-12 05:52:01.96	34.69	21.17	-50.3	-51.9	15.3	0.00e+00	0	23	0	454033408	66	4419
2026-01-12 05:52:02.96	34.46	21.23	-50.4	-52.0	15.3	0.00e+00	0	23	0	455081984	66	4476
2026-01-12 05:52:03.95	34.22	21.29	-50.2	-51.8	15.4	0.00e+00	0	23	0	457179136	66	4389
2026-01-12 05:52:04.95	33.99	21.34	-50.4	-52.0	15.3	0.00e+00	0	23	0	459276288	66	4472
2026-01-12 05:52:05.94	33.75	21.40	-50.5	-52.1	15.2	0.00e+00	0	23	0	461373440	66	4539
2026-01-12 05:52:06.94	33.51	21.46	-50.4	-52.0	15.3	0.00e+00	0	23	0	463470592	66	4482
2026-01-12 05:52:07.95	33.27	21.51	-50.4	-52.1	15.2	0.00e+00	0	23	0	464519168	66	4508
2026-01-12 05:52:08.94	33.03	21.57	-50.4	-52.0	15.3	0.00e+00	0	23	0	466616320	66	4482
2026-01-12 05:52:09.94	32.79	21.62	-50.3	-51.9	15.3	0.00e+00	0	23	0	468713472	66	4404
2026-01-12 05:52:10.93	32.55	21.67	-50.3	-51.9	15.3	0.00e+00	0	23	0	470810624	66	4433
2026-01-12 05:52:11.93	32.31	21.73	-50.1	-51.7	15.4	0.00e+00	0	23	0	472907776	66	4301
2026-01-12 05:52:12.93	32.07	21.78	-50.0	-51.6	15.5	0.00e+00	0	23	0	473956352	66	4245
2026-01-12 05:52:13.93	31.82	21.84	-49.9	-51.5	15.5	0.00e+00	0	23	0	476053504	66	4206
2026-01-12 05:52:14.92	31.58	21.89	-50.0	-51.6	15.5	0.00e+00	0	23	0	478150656	66	4250
2026-01-12 05:52:15.92	31.33	21.94	-50.0	-51.5	15.5	0.00e+00	0	23	0	480247808	66	4221
2026-01-12 05:52:16.91	31.09	21.99	-50.0	-51.5	15.5	0.00e+00	0	23	0	481296384	66	4229
2026-01-12 05:52:17.91	30.84	22.04	-50.0	-51.5	15.5	0.00e+00	0	23	0	483393536	66	4226
2026-01-12 05:52:18.91	30.59	22.09	-50.0	-51.6	15.5	0.00e+00	0	23	0	485490688	66	4256
2026-01-12 05:52:19.91	30.34	22.14	-50.0	-51.6	15.5	0.00e+00	0	23	0	487587840	66	4274
2026-01-12 05:52:20.90	30.09	22.19	-50.1	-51.7	15.5	0.00e+00	0	23	0	489684992	66	4299
2026-01-12 05:52:21.90	29.84	22.24	-50.0	-51.6	15.5	0.00e+00	0	23	0	490733568	66	4265
2026-01-12 05:52:22.90	29.59	22.29	-50.0	-51.5	15.6	0.00e+00	0	23	0	492830720	66	4232
2026-01-12 05:52:23.90	29.34	22.34	-49.9	-51.4	15.6	0.00e+00	0	23	0	494927872	66	4187
2026-01-12 05:52:24.89	29.09	22.39	-49.8	-51.3	15.7	0.00e+00	0	23	0	497025024	66	4103
2026-01-12 05:52:25.90	28.83	22.44	-49.7	-51.2	15.7	0.00e+00	0	23	0	499122176	66	4097
2026-01-12 05:52:26.90	28.58	22.48	-49.7	-51.2	15.7	0.00e+00	0	23	0	500170752	66	4094
2026-01-12 05:52:27.90	28.32	22.53	-49.8	-51.3	15.7	0.00e+00	0	23	0	502267904	66	4109
2026-01-12 05:52:28.90	28.06	22.57	-49.9	-51.4	15.6	0.00e+00	0	23	0	504365056	66	4176
2026-01-12 05:52:29.90	27.81	22.62	-49.8	-51.4	15.6	0.00e+00	0	23	0	506462208	66	4151
2026-01-12 05:52:30.90	27.55	22.66	-49.7	-51.2	15.7	0.00e+00	0	23	0	507510784	66	4091
2026-01-12 05:52:31.89	27.29	22.71	-49.8	-51.3	15.7	0.00e+00	0	23	0	509607936	66	4112
2026-01-12 05:52:32.90	27.03	22.75	-49.9	-51.4	15.6	0.00e+00	0	23	0	511705088	66	4180
2026-01-12 05:52:33.90	26.77	22.80	-49.9	-51.5	15.6	0.00e+00	0	23	0	513802240	66	4198
2026-01-12 05:52:34.89	26.51	22.84	-50.1	-51.6	15.5	0.00e+00	0	23	0	515899392	66	4275
2026-01-12 05:52:35.89	26.25	22.88	-50.2	-51.8	15.4	0.00e+00	0	23	0	516947968	66	4387
2026-01-12 05:52:36.88	25.99	22.92	-50.2	-51.8	15.4	0.00e+00	0	23	0	519045120	66	4343
2026-01-12 05:52:37.88	25.73	22.96	-50.2	-51.7	15.4	0.00e+00	0	23	0	521142272	66	4335
2026-01-12 05:52:38.89	25.46	23.00	-50.1	-51.7	15.5	0.00e+00	0	23	0	523239424	66	4294
2026-01-12 05:52:39.89	25.20	23.04	-50.1	-51.7	15.5	0.00e+00	0	23	0	525336576	66	4292
2026-01-12 05:52:40.89	24.93	23.08	-50.0	-51.6	15.5	0.00e+00	0	23	0	526385152	66	4264
2026-01-12 05:52:41.88	24.67	23.12	-50.0	-51.6	15.5	0.00e+00	0	23	0	528482304	66	4243
2026-01-12 05:52:42.88	24.40	23.16	-50.1	-51.6	15.4	0.00e+00	0	23	0	530579456	66	4291
2026-01-12 05:52:43.88	24.13	23.19	-50.1	-51.7	15.5	0.00e+00	0	23	0	532676608	66	4311
2026-01-12 05:52:44.88	23.87	23.23	-50.3	-51.9	15.4	0.00e+00	0	23	0	533725184	66	4419
2026-01-12 05:52:45.87	23.60	23.26	-50.5	-52.1	15.2	0.00e+00	0	23	0	535822336	66	4518
2026-01-12 05:52:46.87	23.33	23.30	-50.5	-52.2	15.2	0.00e+00	0	23	0	537919488	66	4566
2026-01-12 05:52:47.87	23.06	23.33	-50.7	-52.4	15.1	0.00e+00	0	23	0	540016640	66	4669
2026-01-12 05:52:48.88	22.79	23.37	-50.8	-52.6	15.0	0.00e+00	0	23	0	542113792	66	4769
2026-01-12 05:52:49.88	22.52	23.40	-51.0	-52.8	15.1	0.00e+00	0	23	0	543162368	67	4610
2026-01-12 05:52:50.88	22.25	23.43	-51.1	-52.9	15.0	0.00e+00	0	23	0	545259520	67	4661
2026-01-12 05:52:51.88	21.98	23.47	-51.1	-52.9	15.0	0.00e+00	0	23	0	547356672	67	4688
2026-01-12 05:52:52.88	21.70	23.50	-51.2	-53.0	14.9	0.00e+00	0	23	0	549453824	67	4747
2026-01-12 05:52:53.88	21.43	23.53	-51.2	-53.0	15.0	0.00e+00	0	23	0	551550976	67	4733
2026-01-12 05:52:54.88	21.16	23.56	-51.3	-53.2	14.8	0.00e+00	0	23	0	552599552	67	4833
2026-01-12 05:52:55.88	20.88	23.59	-51.3	-53.2	14.8	0.00e+00	0	23	0	554696704	67	4831
2026-01-12 05:52:56.88	20.61	23.62	-51.7	-53.5	14.9	0.00e+00	0	23	0	556793856	68	4749
2026-01-12 05:52:57.87	20.34	23.64	-51.8	-53.7	14.8	0.00e+00	0	23	0	558891008	68	4818
2026-01-12 05:52:58.87	20.06	23.67	-51.7	-53.6	14.8	0.00e+00	0	23	0	560988160	68	4766
2026-01-12 05:52:59.88	19.78	23.70	-51.6	-53.4	14.9	0.00e+00	0	23	0	562036736	68	4685
2026-01-12 05:53:00.87	19.51	23.72	-51.6	-53.4	14.9	0.00e+00	0	23	0	564133888	68	4681
2026-01-12 05:53:01.87	19.23	23.75	-51.7	-53.6	14.9	0.00e+00	0	23	0	566231040	68	4760
2026-01-12 05:53:02.86	18.96	23.77	-51.8	-53.7	14.8	0.00e+00	0	23	0	568328192	68	4835
2026-01-12 05:53:03.87	18.68	23.80	-51.9	-53.8	14.7	0.00e+00	0	23	0	569376768	68	4904
2026-01-12 05:53:04.86	18.40	23.82	-51.9	-53.8	14.7	0.00e+00	0	23	0	571473920	68	4914
2026-01-12 05:53:05.86	18.12	23.84	-51.9	-53.8	14.7	0.00e+00	0	23	0	573571072	68	4909
2026-01-12 05:53:06.86	17.84	23.87	-52.0	-53.9	14.8	0.00e+00	0	23	0	575668224	69	4697
2026-01-12 05:53:07.85	17.57	23.89	-52.0	-54.0	14.8	0.00e+00	0	23	0	577765376	69	4729
2026-01-12 05:53:08.84	17.29	23.91	-52.1	-54.2	14.7	0.00e+00	0	23	0	578813952	69	4815
2026-01-12 05:53:09.84	17.01	23.93	-52.3	-54.4	14.5	0.00e+00	0	23	0	580911104	69	4982
2026-01-12 05:53:10.82	16.73	23.94	-52.3	-54.4	14.6	0.00e+00	0	23	0	583008256	69	4965
2026-01-12 05:53:11.81	16.46	23.96	-52.3	-54.4	14.6	0.00e+00	0	23	0	585105408	69	4943
2026-01-12 05:53:12.80	16.18	23.98	-52.2	-54.2	14.7	0.00e+00	0	23	0	586153984	69	4831
2026-01-12 05:53:13.80	15.90	24.00	-52.0	-54.0	14.8	0.00e+00	0	23	0	588251136	69	4715
2026-01-12 05:53:14.80	15.61	24.01	-52.0	-53.9	14.8	0.00e+00	0	23	0	590348288	69	4698
2026-01-12 05:53:15.80	15.33	24.03	-51.9	-53.8	14.9	0.00e+00	0	23	0	592445440	69	4628
2026-01-12 05:53:16.80	15.05	24.04	-51.8	-53.7	14.9	0.00e+00	0	23	0	594542592	69	4581
2026-01-12 05:53:17.80	14.77	24.05	-51.8	-53.7	14.9	0.00e+00	0	23	0	595591168	69	4577
2026-01-12 05:53:18.80	14.49	24.07	-51.8	-53.7	14.9	0.00e+00	0	23	0	597688320	69	4572
2026-01-12 05:53:19.79	14.21	24.08	-51.8	-53.7	14.9	0.00e+00	0	23	0	599785472	69	4575
2026-01-12 05:53:20.79	13.92	24.09	-51.8	-53.7	14.9	0.00e+00	0	23	0	601882624	69	4583
2026-01-12 05:53:21.79	13.64	24.10	-51.9	-53.9	14.8	0.00e+00	0	23	0	602931200	69	4673
2026-01-12 05:53:22.79	13.36	24.11	-52.1	-54.1	14.7	0.00e+00	0	23	0	605028352	69	4791
2026-01-12 05:53:23.79	13.07	24.12	-52.0	-53.9	14.8	0.00e+00	0	23	0	607125504	69	4705
2026-01-12 05:53:24.79	12.79	24.13	-52.1	-54.1	14.7	0.00e+00	0	23	0	609222656	69	4766
2026-01-12 05:53:25.79	12.50	24.14	-51.9	-53.9	14.9	0.00e+00	0	23	0	611319808	69	4653
2026-01-12 05:53:26.78	12.22	24.14	-51.9	-53.8	14.9	0.00e+00	0	23	0	612368384	69	4609
2026-01-12 05:53:27.79	11.94	24.15	-51.8	-53.7	14.9	0.00e+00	0	23	0	614465536	69	4569
2026-01-12 05:53:28.78	11.65	24.15	-51.8	-53.7	15.0	0.00e+00	0	23	0	616562688	69	4576
2026-01-12 05:53:29.77	11.37	24.16	-51.8	-53.7	14.9	0.00e+00	0	23	0	618659840	69	4575
2026-01-12 05:53:30.77	11.09	24.16	-51.8	-53.6	15.0	0.00e+00	0	23	0	619708416	69	4532
2026-01-12 05:53:31.77	10.80	24.17	-51.7	-53.6	15.1	0.00e+00	0	23	0	621805568	69	4501
2026-01-12 05:53:32.77	10.52	24.17	-51.7	-53.6	15.0	0.00e+00	0	23	0	623902720	69	4528
2026-01-12 05:53:33.76	10.24	24.17	-51.6	-53.5	15.1	0.00e+00	0	23	0	625999872	69	4459
2026-01-12 05:53:34.76	9.95	24.17	-51.6	-53.4	15.1	0.00e+00	0	23	0	628097024	69	4429
2026-01-12 05:53:35.76	9.67	24.17	-51.6	-53.4	15.1	0.00e+00	0	23	0	629145600	69	4410
2026-01-12 05:53:36.76	9.38	24.17	-51.5	-53.2	15.2	0.00e+00	0	23	0	631242752	69	4339
2026-01-12 05:53:37.75	9.10	24.17	-51.5	-53.3	15.2	0.00e+00	0	23	0	633339904	69	4348
2026-01-12 05:53:38.76	8.81	24.17	-51.3	-53.0	15.3	0.00e+00	0	23	0	635437056	69	4233
2026-01-12 05:53:39.75	8.53	24.16	-51.3	-53.0	15.3	0.00e+00	0	23	0	637534208	69	4230
2026-01-12 05:53:40.76	8.24	24.16	-51.3	-53.1	15.3	0.00e+00	0	23	0	638582784	69	4257
2026-01-12 05:53:41.77	7.96	24.15	-51.3	-53.1	15.3	0.00e+00	0	23	0	640679936	69	4254
2026-01-12 05:53:42.77	7.67	24.15	-51.2	-53.0	15.4	0.00e+00	0	23	0	642777088	69	4212
2026-01-12 05:53:43.77	7.39	24.14	-51.2	-52.9	15.4	0.00e+00	0	23	0	644874240	69	4191
2026-01-12 05:53:44.78	7.10	24.13	-51.0	-52.7	15.3	0.00e+00	0	23	0	646971392	68	4339
2026-01-12 05:53:45.78	6.82	24.13	-51.1	-52.8	15.3	0.00e+00	0	23	0	648019968	68	4351
2026-01-12 05:53:46.78	6.53	24.12	-50.9	-52.5	15.4	0.00e+00	0	23	0	650117120	68	4233
2026-01-12 05:53:47.77	6.25	24.11	-50.7	-52.3	15.5	0.00e+00	0	23	0	652214272	68	4144
2026-01-12 05:53:48.76	5.97	24.10	-50.5	-52.1	15.4	0.00e+00	0	23	0	654311424	67	4270
2026-01-12 05:53:49.76	5.69	24.09	-50.5	-52.2	15.4	0.00e+00	0	23	0	655360000	67	4294
2026-01-12 05:53:50.77	5.40	24.08	-50.4	-52.0	15.5	0.00e+00	0	23	0	657457152	67	4225
2026-01-12 05:53:51.77	5.12	24.06	-50.2	-51.8	15.6	0.00e+00	0	23	0	659554304	67	4101
2026-01-12 05:53:52.78	4.84	24.05	-50.1	-51.7	15.5	0.00e+00	0	23	0	661651456	66	4305
2026-01-12 05:53:53.78	4.55	24.04	-49.9	-51.4	15.6	0.00e+00	0	23	0	663748608	66	4167
2026-01-12 05:53:54.78	4.27	24.02	-50.0	-51.5	15.6	0.00e+00	0	23	0	664797184	66	4208
2026-01-12 05:53:55.78	3.99	24.01	-49.9	-51.4	15.6	0.00e+00	0	23	0	666894336	66	4155
2026-01-12 05:53:56.77	3.71	23.99	-49.9	-51.4	15.6	0.00e+00	0	23	0	668991488	66	4182
2026-01-12 05:53:57.77	3.43	23.98	-50.0	-51.5	15.5	0.00e+00	0	23	0	671088640	66	4211
2026-01-12 05:53:58.77	3.15	23.96	-49.9	-51.4	15.6	0.00e+00	0	23	0	673185792	66	4181
2026-01-12 05:53:59.77	2.87	23.94	-49.5	-51.0	15.6	0.00e+00	0	23	0	674234368	65	4215
2026-01-12 05:54:00.77	2.59	23.92	-49.6	-51.1	15.5	0.00e+00	0	23	0	676331520	65	4246
2026-01-12 05:54:01.77	2.31	23.90	-49.5	-50.9	15.6	0.00e+00	0	23	0	678428672	65	4184
2026-01-12 05:54:02.77	2.03	23.88	-49.5	-51.0	15.6	0.00e+00	0	23	0	680525824	65	4222
2026-01-12 05:54:03.77	1.75	23.86	-49.5	-51.0	15.6	0.00e+00	0	23	0	682622976	65	4207
2026-01-12 05:54:04.77	1.47	23.84	-49.5	-51.0	15.6	0.00e+00	0	23	0	683671552	65	4202
2026-01-12 05:54:05.77	1.19	23.82	-49.4	-50.8	15.7	0.00e+00	0	23	0	685768704	65	4130
2026-01-12 05:54:06.77	0.91	23.79	-49.3	-50.8	15.8	0.00e+00	0	23	0	687865856	65	4101
2026-01-12 05:54:07.77	0.64	23.77	-49.4	-50.8	15.7	0.00e+00	0	23	0	689963008	65	4140
2026-01-12 05:54:08.76	0.36	23.74	-49.4	-50.9	15.7	0.00e+00	0	23	0	691011584	65	4165
2026-01-12 05:54:09.77	0.08	23.72	-49.4	-50.9	15.7	0.00e+00	0	23	0	693108736	65	4148
2026-01-12 05:54:10.77	359.81	23.69	-49.5	-51.0	15.6	0.00e+00	0	23	0	695205888	65	4220
2026-01-12 05:54:11.76	359.53	23.67	-49.6	-51.1	15.6	0.00e+00	0	23	0	697303040	65	4246
2026-01-12 05:54:12.76	359.26	23.64	-49.8	-51.3	15.5	0.00e+00	0	23	0	699400192	65	4362
2026-01-12 05:54:13.76	358.98	23.61	-49.8	-51.3	15.5	0.00e+00	0	23	0	700448768	65	4362
2026-01-12 05:54:14.76	358.71	23.58	-49.9	-51.4	15.4	0.00e+00	0	23	0	702545920	65	4431
2026-01-12 05:54:15.75	358.44	23.55	-50.0	-51.5	15.4	0.00e+00	0	23	0	704643072	65	4472
2026-01-12 05:54:16.75	358.16	23.52	-49.9	-51.4	15.4	0.00e+00	0	23	0	706740224	65	4411
2026-01-12 05:54:17.75	357.89	23.49	-49.9	-51.4	15.4	0.00e+00	0	23	0	708837376	65	4436
2026-01-12 05:54:18.75	357.62	23.46	-49.9	-51.4	15.4	0.00e+00	0	23	0	709885952	65	4417
2026-01-12 05:54:19.75	357.35	23.43	-49.9	-51.4	15.4	0.00e+00	0	23	0	711983104	65	4419
2026-01-12 05:54:20.75	357.08	23.39	-49.9	-51.5	15.4	0.00e+00	0	23	0	714080256	65	4456
2026-01-12 05:54:21.74	356.81	23.36	-50.0	-51.6	15.3	0.00e+00	0	23	0	716177408	65	4506
2026-01-12 05:54:22.74	356.54	23.33	-50.2	-51.8	15.3	0.00e+00	0	23	0	717225984	65	4619
2026-01-12 05:54:23.74	356.27	23.29	-50.2	-51.8	15.2	0.00e+00	0	23	0	719323136	65	4645
2026-01-12 05:54:24.73	356.00	23.26	-50.4	-52.0	15.1	0.00e+00	0	23	0	721420288	65	4740
2026-01-12 05:54:25.72	355.74	23.22	-50.5	-52.1	15.2	0.00e+00	0	23	0	723517440	66	4535
2026-01-12 05:54:26.72	355.47	23.18	-50.6	-52.3	15.2	0.00e+00	0	23	0	725614592	66	4612
2026-01-12 05:54:27.72	355.20	23.15	-50.5	-52.2	15.2	0.00e+00	0	23	0	726663168	66	4563
2026-01-12 05:54:28.71	354.94	23.11	-50.6	-52.2	15.2	0.00e+00	0	23	0	728760320	66	4592
2026-01-12 05:54:29.71	354.67	23.07	-50.7	-52.3	15.1	0.00e+00	0	23	0	730857472	66	4644
2026-01-12 05:54:30.71	354.41	23.03	-50.6	-52.3	15.2	0.00e+00	0	23	0	732954624	66	4609
2026-01-12 05:54:31.71	354.15	22.99	-50.5	-52.1	15.2	0.00e+00	0	23	0	734003200	66	4540
2026-01-12 05:54:32.71	353.88	22.95	-50.6	-52.2	15.2	0.00e+00	0	23	0	736100352	66	4584
2026-01-12 05:54:33.71	353.62	22.91	-50.7	-52.3	15.2	0.00e+00	0	23	0	738197504	66	4639
2026-01-12 05:54:34.71	353.36	22.87	-50.8	-52.5	15.1	0.00e+00	0	23	0	740294656	66	4722
2026-01-12 05:54:35.72	353.09	22.83	-50.9	-52.6	15.0	0.00e+00	0	23	0	742391808	66	4776
2026-01-12 05:54:36.71	352.84	22.79	-51.1	-52.8	15.1	0.00e+00	0	23	0	743440384	67	4628
2026-01-12 05:54:37.70	352.58	22.74	-51.1	-52.9	15.0	0.00e+00	0	23	0	745537536	67	4683
2026-01-12 05:54:38.70	352.32	22.70	-51.2	-53.0	14.9	0.00e+00	0	23	0	747634688	67	4719
2026-01-12 05:54:39.70	352.06	22.65	-51.2	-53.1	14.9	0.00e+00	0	23	0	749731840	67	4763
2026-01-12 05:54:40.70	351.80	22.61	-51.2	-53.0	15.0	0.00e+00	0	23	0	751828992	67	4732
2026-01-12 05:54:41.70	351.55	22.56	-51.3	-53.1	14.9	0.00e+00	0	23	0	752877568	67	4770
2026-01-12 05:54:42.69	351.29	22.52	-51.2	-52.9	15.0	0.00e+00	0	23	0	754974720	67	4700
2026-01-12 05:54:43.69	351.04	22.47	-51.1	-52.9	15.0	0.00e+00	0	23	0	757071872	67	4684
2026-01-12 05:54:44.70	350.78	22.43	-51.2	-53.0	14.9	0.00e+00	0	23	0	759169024	67	4747
2026-01-12 05:54:45.69	350.53	22.38	-51.2	-53.0	14.9	0.00e+00	0	23	0	761266176	67	4748
2026-01-12 05:54:46.69	350.27	22.33	-51.3	-53.1	14.9	0.00e+00	0	23	0	762314752	67	4789
2026-01-12 05:54:47.68	350.03	22.28	-51.4	-53.2	14.8	0.00e+00	0	23	0	764411904	67	4851
2026-01-12 05:54:48.69	349.77	22.23	-51.7	-53.5	14.8	0.00e+00	0	23	0	766509056	68	4751
2026-01-12 05:54:49.68	349.52	22.18	-51.7	-53.6	14.8	0.00e+00	0	23	0	768606208	68	4807
2026-01-12 05:54:50.69	349.27	22.13	-51.8	-53.7	14.7	0.00e+00	0	23	0	769654784	68	4853
2026-01-12 05:54:51.69	349.02	22.08	-51.9	-53.8	14.7	0.00e+00	0	23	0	771751936	68	4887
2026-01-12 05:54:52.69	348.77	22.03	-51.9	-53.8	14.7	0.00e+00	0	23	0	773849088	68	4906
2026-01-12 05:54:53.69	348.53	21.98	-52.0	-53.9	14.8	0.00e+00	0	23	0	775946240	69	4677
2026-01-12 05:54:54.69	348.28	21.93	-51.9	-53.9	14.9	0.00e+00	0	23	0	778043392	69	4658
2026-01-12 05:54:55.69	348.03	21.88	-51.7	-53.6	15.0	0.00e+00	0	23	0	779091968	69	4537
2026-01-12 05:54:56.69	347.79	21.82	-51.6	-53.4	15.1	0.00e+00	0	23	0	781189120	69	4436
2026-01-12 05:54:57.69	347.54	21.77	-51.6	-53.4	15.1	0.00e+00	0	23	0	783286272	69	4439
2026-01-12 05:54:58.69	347.30	21.72	-51.6	-53.4	15.1	0.00e+00	0	23	0	785383424	69	4441
2026-01-12 05:54:59.70	347.06	21.66	-51.8	-53.7	14.9	0.00e+00	0	23	0	787480576	69	4580
2026-01-12 05:55:00.70	346.81	21.61	-51.9	-53.9	14.8	0.00e+00	0	23	0	788529152	69	4658
2026-01-12 05:55:01.70	346.57	21.55	-51.9	-53.8	14.8	0.00e+00	0	23	0	790626304	69	4637
2026-01-12 05:55:02.70	346.33	21.50	-51.9	-53.8	14.9	0.00e+00	0	23	0	792723456	69	4636
2026-01-12 05:55:03.70	346.10	21.44	-51.7	-53.6	15.0	0.00e+00	0	23	0	794820608	69	4532
2026-01-12 05:55:04.70	345.86	21.39	-51.6	-53.5	15.0	0.00e+00	0	23	0	795869184	69	4470
2026-01-12 05:55:05.69	345.62	21.33	-51.6	-53.5	15.1	0.00e+00	0	23	0	797966336	69	4460
2026-01-12 05:55:06.68	345.39	21.27	-51.6	-53.5	15.1	0.00e+00	0	23	0	800063488	69	4443
2026-01-12 05:55:07.67	345.16	21.22	-51.7	-53.5	15.1	0.00e+00	0	23	0	802160640	69	4470
2026-01-12 05:55:08.67	344.92	21.16	-51.7	-53.6	15.0	0.00e+00	0	23	0	804257792	69	4501
2026-01-12 05:55:09.66	344.69	21.10	-51.8	-53.7	15.0	0.00e+00	0	23	0	805306368	69	4554
2026-01-12 05:55:10.66	344.46	21.04	-51.7	-53.6	15.0	0.00e+00	0	23	0	807403520	69	4500
2026-01-12 05:55:11.66	344.22	20.98	-51.7	-53.5	15.0	0.00e+00	0	23	0	809500672	69	4493
2026-01-12 05:55:12.66	343.99	20.92	-51.6	-53.4	15.1	0.00e+00	0	23	0	811597824	69	4440
2026-01-12 05:55:13.65	343.77	20.87	-51.6	-53.4	15.1	0.00e+00	0	23	0	812646400	69	4425
2026-01-12 05:55:14.66	343.53	20.80	-51.6	-53.4	15.1	0.00e+00	0	23	0	814743552	69	4427
2026-01-12 05:55:15.66	343.31	20.74	-51.6	-53.5	15.1	0.00e+00	0	23	0	816840704	69	4444
2026-01-12 05:55:16.65	343.08	20.68	-51.4	-53.2	15.2	0.00e+00	0	23	0	818937856	69	4311
2026-01-12 05:55:17.66	342.85	20.62	-51.4	-53.2	15.2	0.00e+00	0	23	0	821035008	69	4339
2026-01-12 05:55:18.65	342.63	20.56	-51.3	-53.0	15.3	0.00e+00	0	23	0	822083584	69	4232
2026-01-12 05:55:19.64	342.41	20.50	-51.2	-53.0	15.3	0.00e+00	0	23	0	824180736	69	4211
2026-01-12 05:55:20.64	342.18	20.44	-51.3	-53.1	15.3	0.00e+00	0	23	0	826277888	69	4243
2026-01-12 05:55:21.64	341.96	20.38	-51.3	-53.1	15.3	0.00e+00	0	23	0	828375040	69	4261
2026-01-12 05:55:22.64	341.74	20.32	-51.2	-53.0	15.4	0.00e+00	0	23	0	830472192	69	4219
2026-01-12 05:55:23.62	341.52	20.25	-51.3	-53.0	15.3	0.00e+00	0	23	0	831520768	69	4229
2026-01-12 05:55:24.61	341.30	20.19	-51.1	-52.9	15.2	0.00e+00	0	23	0	833617920	68	4405
2026-01-12 05:55:25.62	341.08	20.13	-51.3	-53.0	15.0	0.00e+00	0	23	0	835715072	68	4486
2026-01-12 05:55:26.62	340.86	20.06	-51.2	-52.9	15.2	0.00e+00	0	23	0	837812224	68	4423
2026-01-12 05:55:27.62	340.65	20.00	-51.3	-53.0	15.1	0.00e+00	0	23	0	839909376	68	4493
2026-01-12 05:55:28.62	340.43	19.94	-51.4	-53.2	15.0	0.00e+00	0	23	0	840957952	68	4585
2026-01-12 05:55:29.61	340.22	19.87	-51.4	-53.2	15.1	0.00e+00	0	23	0	843055104	68	4574
2026-01-12 05:55:30.61	340.00	19.81	-51.4	-53.2	15.0	0.00e+00	0	23	0	845152256	68	4573
2026-01-12 05:55:31.61	339.79	19.74	-51.3	-53.1	15.1	0.00e+00	0	23	0	847249408	68	4522
2026-01-12 05:55:32.61	339.58	19.68	-51.3	-53.1	15.1	0.00e+00	0	23	0	848297984	68	4528
2026-01-12 05:55:33.61	339.36	19.61	-51.3	-53.1	15.1	0.00e+00	0	23	0	850395136	68	4511
2026-01-12 05:55:34.61	339.15	19.55	-51.3	-53.1	15.1	0.00e+00	0	23	0	852492288	68	4508
2026-01-12 05:55:35.61	338.94	19.48	-51.2	-53.0	15.2	0.00e+00	0	23	0	854589440	68	4460
2026-01-12 05:55:36.61	338.73	19.41	-51.3	-53.0	15.1	0.00e+00	0	23	0	856686592	68	4484
2026-01-12 05:55:37.60	338.53	19.35	-51.2	-53.0	15.2	0.00e+00	0	23	0	857735168	68	4458
2026-01-12 05:55:38.60	338.32	19.28	-51.3	-53.1	15.1	0.00e+00	0	23	0	859832320	68	4509
2026-01-12 05:55:39.59	338.12	19.22	-51.3	-53.1	15.1	0.00e+00	0	23	0	861929472	68	4517
2026-01-12 05:55:40.59	337.91	19.15	-51.3	-53.1	15.1	0.00e+00	0	23	0	864026624	68	4495
2026-01-12 05:55:41.59	337.71	19.08	-51.3	-53.1	15.1	0.00e+00	0	23	0	865075200	68	4519
2026-01-12 05:55:42.59	337.50	19.01	-51.3	-53.1	15.1	0.00e+00	0	23	0	867172352	68	4504
2026-01-12 05:55:43.59	337.30	18.95	-51.3	-53.1	15.1	0.00e+00	0	23	0	869269504	68	4533
2026-01-12 05:55:44.59	337.10	18.88	-51.3	-53.1	15.1	0.00e+00	0	23	0	871366656	68	4532
2026-01-12 05:55:45.58	336.90	18.81	-51.4	-53.2	15.1	0.00e+00	0	23	0	873463808	68	4555
2026-01-12 05:55:46.59	336.70	18.74	-51.5	-53.3	15.0	0.00e+00	0	23	0	874512384	68	4638
2026-01-12 05:55:47.58	336.50	18.67	-51.4	-53.2	15.0	0.00e+00	0	23	0	876609536	68	4590
2026-01-12 05:55:48.58	336.30	18.61	-51.4	-53.2	15.0	0.00e+00	0	23	0	878706688	68	4552
2026-01-12 05:55:49.58	336.10	18.54	-51.3	-53.2	15.0	0.00e+00	0	23	0	880803840	68	4546
2026-01-12 05:55:50.58	335.91	18.47	-51.3	-53.1	15.1	0.00e+00	0	23	0	882900992	68	4502
2026-01-12 05:55:51.58	335.71	18.40	-51.3	-53.1	15.1	0.00e+00	0	23	0	883949568	68	4505
2026-01-12 05:55:52.58	335.52	18.33	-51.3	-53.1	15.0	0.00e+00	0	23	0	886046720	68	4539
2026-01-12 05:55:53.59	335.32	18.26	-51.3	-53.1	15.1	0.00e+00	0	23	0	888143872	68	4507
2026-01-12 05:55:54.59	335.13	18.19	-51.3	-53.1	15.1	0.00e+00	0	23	0	890241024	68	4518
2026-01-12 05:55:55.58	334.94	18.12	-51.1	-52.9	15.2	0.00e+00	0	23	0	891289600	68	4403
2026-01-12 05:55:56.58	334.75	18.05	-51.2	-52.9	15.2	0.00e+00	0	23	0	893386752	68	4423
2026-01-12 05:55:57.57	334.56	17.98	-51.2	-53.0	15.2	0.00e+00	0	23	0	895483904	68	4453
2026-01-12 05:55:58.56	334.37	17.91	-51.1	-52.9	15.2	0.00e+00	0	23	0	897581056	68	4410
2026-01-12 05:55:59.57	334.18	17.84	-51.2	-52.9	15.2	0.00e+00	0	23	0	899678208	68	4439
2026-01-12 05:56:00.57	333.99	17.77	-51.2	-53.0	15.1	0.00e+00	0	23	0	900726784	68	4459
2026-01-12 05:56:01.57	333.81	17.70	-51.0	-52.7	15.3	0.00e+00	0	23	0	902823936	68	4340
2026-01-12 05:56:02.58	333.62	17.63	-51.1	-52.9	15.2	0.00e+00	0	23	0	904921088	68	4394
2026-01-12 05:56:03.58	333.44	17.56	-51.1	-52.8	15.2	0.00e+00	0	23	0	907018240	68	4372
2026-01-12 05:56:04.58	333.25	17.49	-51.0	-52.7	15.2	0.00e+00	0	23	0	909115392	68	4334
2026-01-12 05:56:05.58	333.07	17.42	-50.9	-52.5	15.4	0.00e+00	0	23	0	910163968	68	4238
2026-01-12 05:56:06.58	332.89	17.35	-50.9	-52.5	15.4	0.00e+00	0	23	0	912261120	68	4238
2026-01-12 05:56:07.58	332.70	17.28	-50.7	-52.4	15.5	0.00e+00	0	23	0	914358272	68	4171
2026-01-12 05:56:08.58	332.52	17.21	-50.5	-52.1	15.4	0.00e+00	0	23	0	916455424	67	4273
2026-01-12 05:56:09.57	332.35	17.14	-50.4	-52.0	15.5	0.00e+00	0	23	0	918552576	67	4228
2026-01-12 05:56:10.58	332.17	17.06	-50.4	-52.1	15.4	0.00e+00	0	23	0	919601152	67	4250
2026-01-12 05:56:11.58	331.99	16.99	-50.5	-52.1	15.4	0.00e+00	0	23	0	921698304	67	4281
2026-01-12 05:56:12.57	331.81	16.92	-50.5	-52.2	15.4	0.00e+00	0	23	0	923795456	67	4305
2026-01-12 05:56:13.57	331.64	16.85	-50.6	-52.3	15.4	0.00e+00	0	23	0	925892608	67	4351
2026-01-12 05:56:14.56	331.46	16.78	-50.6	-52.3	15.3	0.00e+00	0	23	0	926941184	67	4365
2026-01-12 05:56:15.55	331.29	16.71	-50.6	-52.4	15.3	0.00e+00	0	23	0	929038336	67	4399
2026-01-12 05:56:16.56	331.11	16.64	-50.6	-52.3	15.3	0.00e+00	0	23	0	931135488	67	4361
2026-01-12 05:56:17.54	330.95	16.57	-50.7	-52.4	15.2	0.00e+00	0	23	0	933232640	67	4411
2026-01-12 05:56:18.54	330.77	16.50	-50.5	-52.2	15.4	0.00e+00	0	23	0	935329792	67	4312
2026-01-12 05:56:19.53	330.60	16.42	-50.4	-52.1	15.4	0.00e+00	0	23	0	936378368	67	4243
2026-01-12 05:56:20.53	330.43	16.35	-50.3	-52.0	15.5	0.00e+00	0	23	0	938475520	67	4202
2026-01-12 05:56:21.53	330.26	16.28	-50.3	-51.9	15.5	0.00e+00	0	23	0	940572672	67	4190
2026-01-12 05:56:22.53	330.09	16.21	-50.3	-51.9	15.5	0.00e+00	0	23	0	942669824	67	4146
2026-01-12 05:56:23.53	329.93	16.14	-50.2	-51.8	15.5	0.00e+00	0	23	0	943718400	67	4132
2026-01-12 05:56:24.53	329.76	16.06	-50.3	-51.9	15.5	0.00e+00	0	23	0	945815552	67	4159
2026-01-12 05:56:25.53	329.59	15.99	-50.2	-51.8	15.6	0.00e+00	0	23	0	947912704	67	4105
2026-01-12 05:56:26.53	329.43	15.92	-50.3	-51.9	15.5	0.00e+00	0	23	0	950009856	67	4162
2026-01-12 05:56:27.53	329.26	15.85	-50.4	-52.0	15.5	0.00e+00	0	23	0	952107008	67	4209
2026-01-12 05:56:28.53	329.10	15.78	-50.5	-52.1	15.4	0.00e+00	0	23	0	953155584	67	4290
2026-01-12 05:56:29.53	328.94	15.70	-50.5	-52.1	15.4	0.00e+00	0	23	0	955252736	67	4270
2026-01-12 05:56:30.54	328.77	15.63	-50.4	-52.1	15.4	0.00e+00	0	23	0	957349888	67	4256
2026-01-12 05:56:31.54	328.61	15.56	-50.4	-52.1	15.4	0.00e+00	0	23	0	959447040	67	4253
2026-01-12 05:56:32.53	328.45	15.49	-50.4	-52.1	15.4	0.00e+00	0	23	0	961544192	67	4253
2026-01-12 05:56:33.53	328.29	15.42	-50.5	-52.1	15.4	0.00e+00	0	23	0	962592768	67	4287
2026-01-12 05:56:34.53	328.13	15.34	-50.4	-52.1	15.4	0.00e+00	0	23	0	964689920	67	4257
2026-01-12 05:56:35.53	327.98	15.27	-50.3	-51.9	15.5	0.00e+00	0	23	0	966787072	67	4187
2026-01-12 05:56:36.53	327.82	15.20	-50.4	-52.0	15.4	0.00e+00	0	23	0	968884224	67	4221
2026-01-12 05:56:37.53	327.66	15.13	-50.4	-52.1	15.4	0.00e+00	0	23	0	970981376	67	4261
2026-01-12 05:56:38.52	327.51	15.05	-50.4	-52.0	15.4	0.00e+00	0	23	0	972029952	67	4235
2026-01-12 05:56:39.53	327.35	14.98	-50.3	-52.0	15.5	0.00e+00	0	23	0	974127104	67	4210
2026-01-12 05:56:40.52	327.20	14.91	-50.4	-52.0	15.4	0.00e+00	0	23	0	976224256	67	4224
2026-01-12 05:56:41.52	327.04	14.84	-50.4	-52.1	15.4	0.00e+00	0	23	0	978321408	67	4261
2026-01-12 05:56:42.52	326.89	14.77	-50.5	-52.1	15.4	0.00e+00	0	23	0	979369984	67	4280
2026-01-12 05:56:43.53	326.74	14.69	-50.4	-52.1	15.4	0.00e+00	0	23	0	981467136	67	4251
2026-01-12 05:56:44.52	326.59	14.62	-50.5	-52.2	15.3	0.00e+00	0	23	0	983564288	67	4314
2026-01-12 05:56:45.51	326.44	14.55	-50.6	-52.3	15.3	0.00e+00	0	23	0	985661440	67	4356
2026-01-12 05:56:46.51	326.29	14.48	-50.7	-52.4	15.2	0.00e+00	0	23	0	987758592	67	4411
2026-01-12 05:56:47.51	326.14	14.40	-50.7	-52.4	15.2	0.00e+00	0	23	0	988807168	67	4435
2026-01-12 05:56:48.51	325.99	14.33	-50.8	-52.6	15.1	0.00e+00	0	23	0	990904320	67	4495
2026-01-12 05:56:49.50	325.84	14.26	-50.9	-52.6	15.1	0.00e+00	0	23	0	993001472	67	4541
2026-01-12 05:56:50.50	325.70	14.19	-50.9	-52.6	15.1	0.00e+00	0	23	0	995098624	67	4539
2026-01-12 05:56:51.50	325.55	14.12	-51.0	-52.9	15.0	0.00e+00	0	23	0	996147200	67	4660
2026-01-12 05:56:52.49	325.41	14.05	-50.9	-52.7	15.0	0.00e+00	0	23	0	998244352	67	4587
2026-01-12 05:56:53.48	325.26	13.97	-51.1	-52.9	14.9	0.00e+00	0	23	0	1000341504	67	4673
2026-01-12 05:56:54.48	325.12	13.90	-51.1	-52.9	14.9	0.00e+00	0	23	0	1002438656	67	4682
2026-01-12 05:56:55.49	324.97	13.83	-51.1	-52.9	14.9	0.00e+00	0	23	0	1004535808	67	4696
2026-01-12 05:56:56.49	324.83	13.76	-51.1	-52.9	14.9	0.00e+00	0	23	0	1005584384	67	4670
2026-01-12 05:56:57.48	324.69	13.69	-51.0	-52.9	14.9	0.00e+00	0	23	0	1007681536	67	4658
2026-01-12 05:56:58.48	324.55	13.61	-51.0	-52.8	15.0	0.00e+00	0	23	0	1009778688	67	4648
2026-01-12 05:56:59.48	324.41	13.54	-50.9	-52.7	15.0	0.00e+00	0	23	0	1011875840	67	4597
2026-01-12 05:57:00.47	324.27	13.47	-50.9	-52.7	15.0	0.00e+00	0	23	0	1013972992	67	4592
2026-01-12 05:57:01.48	324.13	13.40	-51.0	-52.8	15.0	0.00e+00	0	23	0	1015021568	67	4648
2026-01-12 05:57:02.48	323.99	13.33	-51.0	-52.8	15.0	0.00e+00	0	23	0	1017118720	67	4607
2026-01-12 05:57:03.48	323.85	13.26	-51.0	-52.8	15.0	0.00e+00	0	23	0	1019215872	67	4650
2026-01-12 05:57:04.48	323.72	13.18	-51.0	-52.9	14.9	0.00e+00	0	23	0	1021313024	67	4667
2026-01-12 05:57:05.48	323.58	13.11	-51.1	-52.9	14.9	0.00e+00	0	23	0	1022361600	67	4702
2026-01-12 05:57:06.49	323.44	13.04	-51.3	-53.2	14.8	0.00e+00	0	23	0	1024458752	67	4821
2026-01-12 05:57:07.49	323.31	12.97	-51.3	-53.2	14.7	0.00e+00	0	23	0	1026555904	67	4859
2026-01-12 05:57:08.49	323.17	12.90	-51.3	-53.2	14.7	0.00e+00	0	23	0	1028653056	67	4863
2026-01-12 05:57:09.48	323.04	12.83	-51.3	-53.2	14.7	0.00e+00	0	23	0	1030750208	67	4854
2026-01-12 05:57:10.48	322.91	12.75	-51.2	-53.1	14.8	0.00e+00	0	23	0	1031798784	67	4814
2026-01-12 05:57:11.47	322.78	12.68	-51.4	-53.4	14.7	0.00e+00	0	23	0	1033895936	67	4930
2026-01-12 05:57:12.48	322.64	12.61	-51.3	-53.2	14.8	0.00e+00	0	23	0	1035993088	67	4852
2026-01-12 05:57:13.47	322.51	12.54	-51.3	-53.2	14.7	0.00e+00	0	23	0	1038090240	67	4864
2026-01-12 05:57:14.47	322.38	12.47	-51.3	-53.3	14.7	0.00e+00	0	23	0	1039138816	67	4871
2026-01-12 05:57:15.47	322.25	12.40	-51.3	-53.2	14.8	0.00e+00	0	23	0	1041235968	67	4826
2026-01-12 05:57:16.47	322.12	12.33	-51.3	-53.3	14.7	0.00e+00	0	23	0	1043333120	67	4884
2026-01-12 05:57:17.46	322.00	12.26	-51.6	-53.6	14.8	0.00e+00	0	23	0	1045430272	68	4786
2026-01-12 05:57:18.46	321.87	12.19	-51.6	-53.6	14.7	0.00e+00	0	23	0	1047527424	68	4765
2026-01-12 05:57:19.46	321.74	12.12	-51.7	-53.6	14.7	0.00e+00	0	23	0	1048576000	68	4809
2026-01-12 05:57:20.46	321.61	12.05	-51.7	-53.7	14.6	0.00e+00	0	23	0	1050673152	68	4848
2026-01-12 05:57:21.46	321.49	11.97	-51.6	-53.6	14.7	0.00e+00	0	23	0	1052770304	68	4792
2026-01-12 05:57:22.45	321.36	11.90	-51.5	-53.5	14.8	0.00e+00	0	23	0	1054867456	68	4728
2026-01-12 05:57:23.45	321.24	11.83	-51.7	-53.6	14.7	0.00e+00	0	23	0	1056964608	68	4806
2026-01-12 05:57:24.45	321.11	11.76	-51.6	-53.6	14.7	0.00e+00	0	23	0	1058013184	68	4783
2026-01-12 05:57:25.45	320.99	11.69	-51.6	-53.6	14.7	0.00e+00	0	23	0	1060110336	68	4777
2026-01-12 05:57:26.45	320.87	11.62	-51.6	-53.6	14.7	0.00e+00	0	23	0	1062207488	68	4794
2026-01-12 05:57:27.45	320.75	11.55	-51.7	-53.8	14.6	0.00e+00	0	23	0	1064304640	68	4882
2026-01-12 05:57:28.44	320.62	11.48	-51.8	-53.9	14.6	0.00e+00	0	23	0	1066401792	68	4933
2026-01-12 05:57:29.44	320.50	11.41	-51.8	-53.8	14.6	0.00e+00	0	23	0	1067450368	68	4923
2026-01-12 05:57:30.44	320.38	11.34	-51.9	-54.0	14.5	0.00e+00	0	23	0	1069547520	68	5002
2026-01-12 05:57:31.44	320.26	11.27	-51.9	-54.0	14.6	0.00e+00	0	23	0	1071644672	69	4739
2026-01-12 05:57:32.44	320.14	11.20	-52.0	-54.1	14.6	0.00e+00	0	23	0	1073741824	69	4762
2026-01-12 05:57:33.45	320.02	11.13	-52.0	-54.2	14.5	0.00e+00	0	23	0	1074790400	69	4821
2026-01-12 05:57:34.45	319.91	11.06	-52.0	-54.1	14.6	0.00e+00	0	23	0	1076887552	69	4812
2026-01-12 05:57:35.45	319.79	10.99	-52.0	-54.1	14.6	0.00e+00	0	23	0	1078984704	69	4810
2026-01-12 05:57:36.45	319.67	10.92	-52.0	-54.1	14.6	0.00e+00	0	23	0	1081081856	69	4791
2026-01-12 05:57:37.45	319.55	10.85	-52.0	-54.1	14.6	0.00e+00	0	23	0	1083179008	69	4800
2026-01-12 05:57:38.45	319.44	10.78	-52.0	-54.1	14.6	0.00e+00	0	23	0	1084227584	69	4789
2026-01-12 05:57:39.45	319.32	10.72	-52.0	-54.2	14.5	0.00e+00	0	23	0	1086324736	69	4815
2026-01-12 05:57:40.45	319.21	10.65	-52.0	-54.1	14.6	0.00e+00	0	23	0	1088421888	69	4788
2026-01-12 05:57:41.46	319.09	10.58	-52.0	-54.1	14.5	0.00e+00	0	23	0	1090519040	69	4814
2026-01-12 05:57:42.46	318.98	10.51	-52.0	-54.2	14.5	0.00e+00	0	23	0	1092616192	69	4821
2026-01-12 05:57:43.45	318.87	10.44	-52.0	-54.2	14.5	0.00e+00	0	23	0	1093664768	69	4821
2026-01-12 05:57:44.45	318.75	10.37	-52.1	-54.2	14.5	0.00e+00	0	23	0	1095761920	69	4861
2026-01-12 05:57:45.44	318.64	10.30	-52.1	-54.3	14.5	0.00e+00	0	23	0	1097859072	69	4887
2026-01-12 05:57:46.45	318.53	10.23	-52.0	-54.2	14.5	0.00e+00	0	23	0	1099956224	69	4817
2026-01-12 05:57:47.44	318.42	10.16	-52.1	-54.3	14.4	0.00e+00	0	23	0	1101004800	69	4905
2026-01-12 05:57:48.44	318.31	10.10	-52.1	-54.3	14.4	0.00e+00	0	23	0	1103101952	69	4913
2026-01-12 05:57:49.44	318.20	10.03	-52.3	-54.5	14.3	0.00e+00	0	23	0	1105199104	69	5035
2026-01-12 05:57:50.44	318.09	9.96	-52.4	-54.7	14.2	0.00e+00	0	23	0	1107296256	69	5101
2026-01-12 05:57:51.44	317.98	9.89	-52.5	-54.8	14.3	0.00e+00	0	23	0	1109393408	70	4908
2026-01-12 05:57:52.44	317.87	9.82	-52.5	-54.8	14.3	0.00e+00	0	23	0	1110441984	70	4893
2026-01-12 05:57:53.43	317.77	9.75	-52.6	-54.9	14.2	0.00e+00	0	23	0	1112539136	70	4965
2026-01-12 05:57:54.43	317.66	9.69	-52.6	-55.0	14.1	0.00e+00	0	23	0	1114636288	70	5025
2026-01-12 05:57:55.43	317.55	9.62	-52.6	-55.0	14.2	0.00e+00	0	23	0	1116733440	70	5020
2026-01-12 05:57:56.43	317.44	9.55	-52.6	-55.0	14.1	0.00e+00	0	23	0	1118830592	70	5037
2026-01-12 05:57:57.43	317.34	9.48	-52.6	-55.0	14.1	0.00e+00	0	23	0	1119879168	70	5026
2026-01-12 05:57:58.43	317.23	9.41	-52.6	-54.9	14.2	0.00e+00	0	23	0	1121976320	70	4977
2026-01-12 05:57:59.43	317.13	9.35	-52.6	-55.0	14.1	0.00e+00	0	23	0	1124073472	70	4988
2026-01-12 05:58:00.42	317.03	9.28	-52.7	-55.1	14.1	0.00e+00	0	23	0	1126170624	70	5097
2026-01-12 05:58:01.42	316.92	9.21	-52.7	-55.1	14.1	0.00e+00	0	23	0	1128267776	70	5050
2026-01-12 05:58:02.43	316.82	9.14	-52.8	-55.3	13.9	0.00e+00	0	23	0	1129316352	70	5190
2026-01-12 05:58:03.43	316.71	9.08	-52.9	-55.4	13.9	0.00e+00	0	23	0	1131413504	70	5265
2026-01-12 05:58:04.43	316.61	9.01	-52.9	-55.4	13.9	0.00e+00	0	23	0	1133510656	70	5251
2026-01-12 05:58:05.43	316.51	8.94	-52.9	-55.4	13.9	0.00e+00	0	23	0	1135607808	70	5263
2026-01-12 05:58:06.42	316.41	8.88	-53.0	-55.5	13.9	0.00e+00	0	23	0	1136656384	71	5019
2026-01-12 05:58:07.42	316.31	8.81	-53.1	-55.7	13.8	0.00e+00	0	23	0	1138753536	71	5124
2026-01-12 05:58:08.41	316.21	8.74	-53.1	-55.7	13.8	0.00e+00	0	23	0	1140850688	71	5114
2026-01-12 05:58:09.41	316.11	8.68	-53.1	-55.8	13.8	0.00e+00	0	23	0	1142947840	71	5172
2026-01-12 05:58:10.41	316.01	8.61	-53.1	-55.8	13.8	0.00e+00	0	23	0	1145044992	71	5161
2026-01-12 05:58:11.41	315.91	8.54	-53.0	-55.6	13.9	0.00e+00	0	23	0	1146093568	71	5046
2026-01-12 05:58:12.41	315.81	8.48	-53.1	-55.7	13.8	0.00e+00	0	23	0	1148190720	71	5106
2026-01-12 05:58:13.41	315.71	8.41	-53.0	-55.6	13.9	0.00e+00	0	23	0	1150287872	71	5067
2026-01-12 05:58:14.42	315.62	8.34	-53.0	-55.6	13.9	0.00e+00	0	23	0	1152385024	71	5079
2026-01-12 05:58:15.41	315.52	8.28	-53.0	-55.5	13.9	0.00e+00	0	23	0	1153433600	71	5030
2026-01-12 05:58:16.41	315.42	8.21	-52.9	-55.5	13.9	0.00e+00	0	23	0	1155530752	71	5008
2026-01-12 05:58:17.40	315.33	8.15	-53.0	-55.5	13.9	0.00e+00	0	23	0	1157627904	71	5027
2026-01-12 05:58:18.40	315.23	8.08	-52.8	-55.3	14.1	0.00e+00	0	23	0	1159725056	71	4908
2026-01-12 05:58:19.39	315.14	8.01	-52.9	-55.5	13.9	0.00e+00	0	23	0	1161822208	71	5014
2026-01-12 05:58:20.39	315.04	7.95	-52.8	-55.3	14.0	0.00e+00	0	23	0	1162870784	71	4918
2026-01-12 05:58:21.39	314.95	7.88	-52.8	-55.3	14.0	0.00e+00	0	23	0	1164967936	71	4926
2026-01-12 05:58:22.39	314.85	7.82	-52.9	-55.5	13.9	0.00e+00	0	23	0	1167065088	71	4997
2026-01-12 05:58:23.38	314.76	7.75	-52.9	-55.4	14.0	0.00e+00	0	23	0	1169162240	71	4974
2026-01-12 05:58:24.37	314.67	7.69	-53.0	-55.7	13.8	0.00e+00	0	23	0	1171259392	71	5119
2026-01-12 05:58:25.37	314.58	7.62	-53.0	-55.6	13.8	0.00e+00	0	23	0	1172307968	71	5096
2026-01-12 05:58:26.36	314.48	7.56	-53.1	-55.8	13.7	0.00e+00	0	23	0	1174405120	71	5186
2026-01-12 05:58:27.35	314.39	7.49	-53.0	-55.6	13.8	0.00e+00	0	23	0	1176502272	71	5091
2026-01-12 05:58:28.35	314.30	7.43	-53.2	-55.9	13.7	0.00e+00	0	23	0	1178599424	71	5231
2026-01-12 05:58:29.34	314.21	7.36	-53.2	-55.9	13.6	0.00e+00	0	23	0	1179648000	71	5267
2026-01-12 05:58:30.34	314.12	7.30	-53.2	-55.9	13.6	0.00e+00	0	23	0	1181745152	71	5244
2026-01-12 05:58:31.34	314.03	7.24	-53.2	-56.0	13.6	0.00e+00	0	23	0	1183842304	71	5297
2026-01-12 05:58:32.35	313.94	7.17	-53.2	-56.0	13.6	0.00e+00	0	23	0	1185939456	71	5319
2026-01-12 05:58:33.34	313.85	7.11	-53.3	-56.1	13.5	0.00e+00	0	23	0	1188036608	71	5366
2026-01-12 05:58:34.33	313.76	7.04	-53.3	-56.1	13.5	0.00e+00	0	23	0	1189085184	71	5367
2026-01-12 05:58:35.33	313.67	6.98	-53.3	-56.2	13.4	0.00e+00	0	23	0	1191182336	71	5437
2026-01-12 05:58:36.33	313.59	6.91	-53.2	-56.0	13.5	0.00e+00	0	23	0	1193279488	71	5315
2026-01-12 05:58:37.33	313.50	6.85	-53.3	-56.2	13.4	0.00e+00	0	23	0	1195376640	71	5453
2026-01-12 05:58:38.32	313.41	6.79	-53.3	-56.2	13.4	0.00e+00	0	23	0	1197473792	71	5424
2026-01-12 05:58:39.33	313.32	6.72	-53.3	-56.1	13.5	0.00e+00	0	23	0	1198522368	71	5369
2026-01-12 05:58:40.33	313.24	6.66	-53.3	-56.1	13.5	0.00e+00	0	23	0	1200619520	71	5365
2026-01-12 05:58:41.33	313.15	6.59	-53.4	-56.4	13.2	0.00e+00	0	23	0	1202716672	71	5551
2026-01-12 05:58:42.34	313.06	6.53	-53.4	-56.3	13.3	0.00e+00	0	23	0	1204813824	71	5523
2026-01-12 05:58:43.34	312.98	6.47	-53.4	-56.4	13.4	0.00e+00	0	23	0	1205862400	72	5235
2026-01-12 05:58:44.34	312.89	6.40	-53.5	-56.5	13.3	0.00e+00	0	23	0	1207959552	72	5295
2026-01-12 05:58:45.34	312.81	6.34	-53.6	-56.6	13.2	0.00e+00	0	23	0	1210056704	72	5391
