passes_logs/2026/01/12/R3.2S_Murmansk/R3.2S_Murmansk__20260112_013813_NOAA_21_JPSS-2_rec.log

#Pass ID: 20260112_013813_NOAA 21 (JPSS-2)
#Satellite: NOAA 21 (JPSS-2)
#Configuration: NOAA-21
#almurnet v.1.7.20251203
#Start time: 2026-01-12 01:38:14

#Version: 2.2.20231116
#Station: R3.2S_Murmansk
#Location: 33.079688 lon 68.888172 lat
#TLE: 1 54234U 22150A   26011.55893233  .00000075  00000+0  56634-4 0  9995
#TLE: 2 54234  98.7494 312.5004 0000755 313.1908  46.9205 14.19534095164321

#Time	Az	El	Level	Level2	SNR	BER	BlckErr	Temp	State	Recorded	gain1	gain2
2026-01-12 01:38:14.80	28.71	2.08	-53.9	-67.7	3.8	1.49e+00	0	21	0	0	72	19335
2026-01-12 01:38:15.81	28.69	2.14	-53.9	-67.8	3.8	1.49e+00	0	20	104	0	72	19447
2026-01-12 01:38:16.82	28.67	2.21	-53.8	-67.8	3.8	1.49e+00	0	20	104	0	72	19491
2026-01-12 01:38:17.83	28.65	2.27	-53.8	-67.8	3.8	1.49e+00	0	20	104	0	72	19459
2026-01-12 01:38:18.84	28.63	2.34	-53.8	-67.8	3.8	1.49e+00	0	21	104	0	72	19476
2026-01-12 01:38:19.85	28.60	2.40	-53.9	-67.8	3.8	1.49e+00	0	21	104	0	72	19461
2026-01-12 01:38:20.86	28.58	2.47	-53.9	-67.8	3.8	1.49e+00	0	21	104	0	72	19512
2026-01-12 01:38:21.87	28.56	2.53	-53.8	-67.8	3.8	1.49e+00	0	21	104	0	72	19421
2026-01-12 01:38:22.88	28.54	2.60	-53.8	-67.8	3.8	1.49e+00	0	21	104	0	72	19447
2026-01-12 01:38:23.89	28.52	2.66	-53.9	-67.8	3.8	1.49e+00	0	21	104	0	72	19494
2026-01-12 01:38:24.90	28.50	2.73	-53.9	-67.8	3.8	1.49e+00	0	21	104	0	72	19548
2026-01-12 01:38:25.90	28.48	2.79	-53.9	-67.8	3.8	1.49e+00	0	21	104	0	72	19520
2026-01-12 01:38:26.91	28.46	2.86	-53.9	-67.8	3.8	1.49e+00	0	21	104	0	72	19466
2026-01-12 01:38:27.91	28.43	2.92	-53.9	-67.8	3.8	1.49e+00	0	21	104	0	72	19524
2026-01-12 01:38:28.92	28.41	2.99	-53.8	-67.8	3.8	1.49e+00	0	21	104	0	72	19516
2026-01-12 01:38:29.93	28.39	3.05	-53.9	-67.8	3.8	1.49e+00	0	21	104	0	72	19501
2026-01-12 01:38:30.94	28.37	3.12	-53.9	-67.8	3.8	1.49e+00	0	21	104	0	72	19563
2026-01-12 01:38:31.95	28.35	3.19	-53.9	-67.8	3.8	1.49e+00	0	21	104	0	72	19530
2026-01-12 01:38:32.96	28.32	3.25	-53.9	-67.8	3.8	1.49e+00	0	21	104	0	72	19529
2026-01-12 01:38:33.97	28.30	3.32	-53.9	-67.8	3.8	1.49e+00	0	21	104	0	72	19555
2026-01-12 01:38:34.97	28.28	3.38	-53.9	-67.8	3.8	1.49e+00	0	21	104	0	72	19540
2026-01-12 01:38:35.98	28.26	3.45	-53.9	-67.8	3.8	1.49e+00	0	21	104	0	72	19557
2026-01-12 01:38:36.99	28.23	3.52	-53.9	-67.8	3.8	1.49e+00	0	21	104	0	72	19555
2026-01-12 01:38:38.00	28.21	3.59	-53.9	-67.8	3.8	1.49e+00	0	21	104	0	72	19577
2026-01-12 01:38:39.01	28.19	3.65	-53.9	-67.9	3.8	1.49e+00	0	21	104	0	72	19642
2026-01-12 01:38:40.02	28.16	3.72	-53.9	-67.8	3.8	1.49e+00	0	21	104	0	72	19575
2026-01-12 01:38:41.02	28.14	3.79	-53.9	-67.8	3.8	1.49e+00	0	21	104	0	72	19576
2026-01-12 01:38:42.03	28.12	3.86	-53.9	-67.8	3.8	1.49e+00	0	21	104	0	72	19614
2026-01-12 01:38:43.04	28.09	3.92	-53.9	-67.8	3.8	1.49e+00	0	21	104	0	72	19554
2026-01-12 01:38:44.05	28.07	3.99	-53.9	-67.9	3.8	1.49e+00	0	21	104	0	72	19616
2026-01-12 01:38:45.06	28.05	4.06	-54.0	-67.9	3.8	1.49e+00	0	21	104	0	73	18598
2026-01-12 01:38:46.07	28.02	4.13	-54.0	-67.9	3.8	1.49e+00	0	21	104	0	73	18549
2026-01-12 01:38:47.08	28.00	4.20	-54.0	-67.9	3.8	1.49e+00	0	21	104	0	73	18589
2026-01-12 01:38:48.08	27.97	4.27	-54.0	-67.9	3.8	1.49e+00	0	21	104	0	73	18608
2026-01-12 01:38:49.09	27.95	4.33	-54.0	-67.9	3.8	1.49e+00	0	21	104	0	73	18634
2026-01-12 01:38:50.11	27.92	4.40	-54.0	-67.9	3.8	1.49e+00	0	21	104	0	73	18602
2026-01-12 01:38:51.12	27.90	4.47	-54.0	-67.9	3.8	1.49e+00	0	21	104	0	73	18638
2026-01-12 01:38:52.13	27.87	4.54	-54.0	-67.9	3.8	1.49e+00	0	21	104	0	73	18568
2026-01-12 01:38:53.13	27.85	4.61	-54.0	-67.9	3.8	1.49e+00	0	21	104	0	73	18623
2026-01-12 01:38:54.14	27.83	4.68	-54.0	-67.9	3.8	1.49e+00	0	21	104	0	73	18618
2026-01-12 01:38:55.15	27.80	4.75	-54.0	-67.9	3.8	1.49e+00	0	21	104	0	73	18559
2026-01-12 01:38:56.16	27.77	4.82	-54.0	-67.9	3.8	1.49e+00	0	21	104	0	73	18664
2026-01-12 01:38:57.17	27.75	4.89	-54.0	-67.9	3.8	1.49e+00	0	21	104	0	73	18658
2026-01-12 01:38:58.18	27.72	4.96	-54.0	-67.9	3.8	1.49e+00	0	21	104	0	73	18652
2026-01-12 01:38:59.19	27.70	5.03	-54.0	-67.9	3.8	1.49e+00	0	22	104	0	73	18609
2026-01-12 01:39:00.20	27.67	5.11	-54.0	-67.9	3.8	1.49e+00	0	21	104	0	73	18592
2026-01-12 01:39:01.21	27.65	5.18	-54.0	-67.9	3.8	1.49e+00	0	21	104	0	73	18596
2026-01-12 01:39:02.22	27.62	5.25	-54.0	-67.9	3.8	1.49e+00	0	21	104	0	73	18639
2026-01-12 01:39:03.23	27.59	5.32	-54.0	-67.9	3.8	1.49e+00	0	21	104	0	73	18640
2026-01-12 01:39:04.24	27.57	5.39	-54.0	-67.9	3.8	1.49e+00	0	21	104	0	73	18630
2026-01-12 01:39:05.24	27.54	5.46	-54.0	-67.9	3.8	1.49e+00	0	21	104	0	73	18632
2026-01-12 01:39:06.26	27.51	5.54	-54.0	-67.9	3.8	1.49e+00	0	22	104	0	73	18690
2026-01-12 01:39:07.26	27.49	5.61	-54.0	-67.9	3.8	1.49e+00	0	21	104	0	73	18636
2026-01-12 01:39:08.27	27.46	5.68	-53.9	-67.9	3.8	1.49e+00	0	22	104	0	73	18623
2026-01-12 01:39:09.28	27.43	5.75	-54.0	-67.9	3.8	1.49e+00	0	22	104	0	73	18618
2026-01-12 01:39:10.29	27.40	5.82	-54.0	-67.9	3.8	1.49e+00	0	22	104	0	73	18622
2026-01-12 01:39:11.29	27.38	5.90	-54.0	-67.9	3.8	1.49e+00	0	22	104	0	73	18607
2026-01-12 01:39:12.30	27.35	5.97	-54.0	-67.9	3.8	1.49e+00	0	22	104	0	73	18625
2026-01-12 01:39:13.31	27.32	6.04	-54.0	-67.9	3.8	1.49e+00	0	22	104	0	73	18673
2026-01-12 01:39:14.32	27.29	6.12	-54.0	-67.9	3.8	1.49e+00	0	22	104	0	73	18682
2026-01-12 01:39:15.33	27.26	6.19	-54.0	-67.9	3.8	1.49e+00	0	22	104	0	73	18657
2026-01-12 01:39:16.34	27.24	6.27	-54.0	-67.9	3.8	1.49e+00	0	22	104	0	73	18624
2026-01-12 01:39:17.35	27.21	6.34	-54.0	-67.9	3.8	1.49e+00	0	22	104	0	73	18667
2026-01-12 01:39:18.36	27.18	6.41	-54.0	-67.9	3.8	1.49e+00	0	22	104	0	73	18588
2026-01-12 01:39:19.37	27.15	6.49	-54.0	-67.9	3.8	1.49e+00	0	21	104	0	73	18675
2026-01-12 01:39:20.38	27.12	6.56	-54.1	-67.9	3.8	1.49e+00	0	22	104	0	73	18675
2026-01-12 01:39:21.39	27.09	6.64	-54.0	-67.9	3.8	1.49e+00	0	22	104	0	73	18621
2026-01-12 01:39:22.40	27.06	6.71	-54.0	-67.9	3.8	1.49e+00	0	22	104	0	73	18689
2026-01-12 01:39:23.41	27.03	6.79	-54.0	-67.9	3.8	1.49e+00	0	22	104	0	73	18658
2026-01-12 01:39:24.42	27.00	6.87	-54.0	-67.9	3.8	1.49e+00	0	22	104	0	73	18681
2026-01-12 01:39:25.43	26.97	6.94	-54.0	-67.9	3.8	1.49e+00	0	22	104	0	73	18633
2026-01-12 01:39:26.43	26.94	7.02	-54.0	-67.9	3.8	1.49e+00	0	22	104	0	73	18659
2026-01-12 01:39:27.44	26.91	7.09	-54.0	-67.9	3.8	1.49e+00	0	22	104	0	73	18603
2026-01-12 01:39:28.44	26.88	7.17	-54.0	-67.9	3.8	1.49e+00	0	22	104	0	73	18670
2026-01-12 01:39:29.45	26.85	7.25	-53.9	-67.9	3.8	1.49e+00	0	22	104	0	73	18669
2026-01-12 01:39:30.46	26.82	7.32	-54.0	-67.9	3.8	1.49e+00	0	22	104	0	73	18654
2026-01-12 01:39:31.46	26.79	7.40	-54.0	-67.9	3.8	1.49e+00	0	22	104	0	73	18692
2026-01-12 01:39:32.46	26.76	7.48	-54.0	-67.9	3.8	1.49e+00	0	22	104	0	73	18658
2026-01-12 01:39:33.48	26.73	7.55	-54.0	-67.9	3.8	1.49e+00	0	22	104	0	73	18664
2026-01-12 01:39:34.49	26.70	7.63	-54.0	-67.9	3.8	1.49e+00	0	22	104	0	73	18673
2026-01-12 01:39:35.50	26.66	7.71	-54.0	-67.9	3.8	1.49e+00	0	22	104	0	73	18594
2026-01-12 01:39:36.51	26.63	7.79	-54.0	-67.9	3.8	1.49e+00	0	22	104	0	73	18616
2026-01-12 01:39:37.52	26.60	7.87	-54.0	-67.9	3.8	1.49e+00	0	22	104	0	73	18657
2026-01-12 01:39:38.53	26.57	7.95	-54.0	-67.9	3.8	1.49e+00	0	22	104	0	73	18717
2026-01-12 01:39:39.53	26.53	8.02	-54.0	-67.9	3.8	1.49e+00	0	22	104	0	73	18665
2026-01-12 01:39:40.27	26.51	8.08	-54.0	-67.9	3.8	1.49e+00	0	22	104	0	73	18672
2026-01-12 01:39:41.57	26.47	8.19	-54.0	-67.9	3.8	1.49e+00	0	22	104	0	73	18685
2026-01-12 01:39:42.29	26.44	8.24	-54.0	-67.9	3.8	1.49e+00	0	22	104	0	73	18661
2026-01-12 01:39:43.59	26.40	8.35	-54.0	-68.0	3.8	1.49e+00	0	22	104	0	73	18738
2026-01-12 01:39:44.31	26.38	8.40	-53.9	-67.9	3.8	1.49e+00	0	22	104	0	73	18704
2026-01-12 01:39:45.61	26.33	8.51	-54.0	-67.9	3.8	1.49e+00	0	22	104	0	73	18657
2026-01-12 01:39:46.32	26.31	8.56	-53.9	-67.9	3.8	1.49e+00	0	22	104	0	73	18670
2026-01-12 01:39:47.62	26.27	8.67	-54.0	-67.9	3.8	1.49e+00	0	22	104	0	73	18670
2026-01-12 01:39:48.34	26.24	8.72	-54.0	-68.0	3.8	1.49e+00	0	22	104	0	73	18733
2026-01-12 01:39:49.64	26.20	8.83	-54.0	-67.9	3.8	1.49e+00	0	22	104	0	73	18729
2026-01-12 01:39:50.36	26.17	8.89	-53.9	-67.9	3.8	1.49e+00	0	22	104	0	73	18719
2026-01-12 01:39:51.66	26.13	8.99	-53.9	-67.9	3.8	1.49e+00	0	22	104	0	73	18716
2026-01-12 01:39:52.38	26.10	9.05	-53.9	-67.9	3.8	1.49e+00	0	22	104	0	73	18729
2026-01-12 01:39:53.68	26.06	9.16	-54.0	-67.9	3.8	1.49e+00	0	22	104	0	73	18670
2026-01-12 01:39:54.40	26.03	9.22	-54.0	-67.9	3.8	1.49e+00	0	22	104	0	73	18667
2026-01-12 01:39:55.70	25.98	9.32	-54.0	-67.9	3.8	1.49e+00	0	22	104	0	73	18730
2026-01-12 01:39:56.42	25.96	9.38	-54.0	-67.9	3.8	1.49e+00	0	22	104	0	73	18640
2026-01-12 01:39:57.71	25.91	9.49	-53.9	-67.9	3.8	1.49e+00	0	22	104	0	73	18651
2026-01-12 01:39:58.43	25.89	9.55	-54.0	-67.9	3.8	1.49e+00	0	22	104	0	73	18684
2026-01-12 01:39:59.73	25.84	9.66	-54.0	-67.9	3.8	1.49e+00	0	22	104	0	73	18695
2026-01-12 01:40:00.45	25.81	9.72	-54.0	-67.9	3.8	1.49e+00	0	22	104	0	73	18663
2026-01-12 01:40:01.74	25.76	9.83	-54.0	-67.9	3.8	1.49e+00	0	22	104	0	73	18731
2026-01-12 01:40:02.46	25.74	9.89	-54.0	-67.9	3.8	1.49e+00	0	22	104	0	73	18696
2026-01-12 01:40:03.76	25.69	10.00	-54.0	-67.9	3.8	1.49e+00	0	22	104	0	73	18716
2026-01-12 01:40:04.48	25.66	10.06	-54.0	-67.9	3.8	1.49e+00	0	22	104	0	73	18726
2026-01-12 01:40:05.78	25.61	10.17	-54.0	-67.9	3.8	1.49e+00	0	22	104	0	73	18663
2026-01-12 01:40:06.50	25.58	10.23	-54.0	-67.9	3.8	1.49e+00	0	22	104	0	73	18675
2026-01-12 01:40:07.80	25.53	10.34	-54.0	-67.9	3.8	1.49e+00	0	22	104	0	73	18644
2026-01-12 01:40:08.52	25.51	10.40	-54.0	-68.0	3.8	1.49e+00	0	22	104	0	73	18735
2026-01-12 01:40:09.82	25.45	10.51	-54.0	-67.9	3.8	1.49e+00	0	22	104	0	73	18706
2026-01-12 01:40:10.53	25.43	10.58	-54.0	-67.9	3.8	1.49e+00	0	22	104	0	73	18729
2026-01-12 01:40:11.83	25.38	10.69	-54.0	-67.9	3.8	1.49e+00	0	22	104	0	73	18703
2026-01-12 01:40:12.55	25.35	10.75	-54.0	-67.9	3.8	1.49e+00	0	22	104	0	73	18705
2026-01-12 01:40:13.85	25.30	10.86	-54.0	-67.9	3.8	1.49e+00	0	22	104	0	73	18683
2026-01-12 01:40:14.57	25.27	10.93	-54.0	-67.9	3.8	1.49e+00	0	22	104	0	73	18672
2026-01-12 01:40:15.87	25.21	11.04	-54.0	-67.9	3.8	1.49e+00	0	22	104	0	73	18696
2026-01-12 01:40:16.59	25.18	11.11	-54.0	-67.9	3.8	1.49e+00	0	22	104	0	73	18699
2026-01-12 01:40:17.88	25.13	11.22	-54.0	-67.9	3.8	1.49e+00	0	22	104	0	73	18725
2026-01-12 01:40:18.61	25.10	11.28	-54.0	-67.9	3.8	1.49e+00	0	22	104	0	73	18698
2026-01-12 01:40:19.90	25.05	11.40	-54.0	-68.0	3.8	1.49e+00	0	22	104	0	73	18747
2026-01-12 01:40:20.62	25.02	11.46	-54.0	-67.9	3.8	1.49e+00	0	22	104	0	73	18681
2026-01-12 01:40:21.92	24.96	11.58	-54.0	-68.0	3.8	1.49e+00	0	22	104	0	73	18752
2026-01-12 01:40:22.64	24.93	11.64	-54.0	-67.9	3.8	1.49e+00	0	22	104	0	73	18730
2026-01-12 01:40:23.94	24.88	11.76	-54.0	-68.0	3.8	1.49e+00	0	22	104	0	73	18735
2026-01-12 01:40:24.66	24.84	11.83	-54.0	-68.0	3.8	1.49e+00	0	22	104	0	73	18778
2026-01-12 01:40:25.96	24.79	11.95	-54.0	-67.9	3.8	1.49e+00	0	22	104	0	73	18674
2026-01-12 01:40:26.67	24.76	12.01	-54.0	-67.9	3.8	1.49e+00	0	22	104	0	73	18724
2026-01-12 01:40:27.97	24.70	12.13	-54.1	-68.0	3.8	1.49e+00	0	22	104	0	73	18768
2026-01-12 01:40:28.69	24.67	12.20	-54.0	-67.9	3.8	1.49e+00	0	22	104	0	73	18715
2026-01-12 01:40:29.99	24.61	12.32	-54.1	-67.9	3.8	1.49e+00	0	22	104	0	73	18718
2026-01-12 01:40:30.71	24.58	12.38	-54.1	-68.0	3.8	1.49e+00	0	22	104	0	73	18762
2026-01-12 01:40:32.00	24.52	12.50	-54.0	-67.9	3.8	1.49e+00	0	22	104	0	73	18699
2026-01-12 01:40:32.72	24.49	12.57	-54.1	-67.9	3.8	1.49e+00	0	22	104	0	73	18731
2026-01-12 01:40:34.02	24.43	12.69	-54.0	-67.9	3.8	1.49e+00	0	22	104	0	73	18694
2026-01-12 01:40:34.74	24.39	12.76	-54.0	-67.9	3.8	1.49e+00	0	22	104	0	73	18674
2026-01-12 01:40:36.03	24.33	12.88	-54.0	-67.9	3.8	1.49e+00	0	22	104	0	73	18695
2026-01-12 01:40:36.75	24.30	12.95	-54.0	-67.9	3.8	1.49e+00	0	22	104	0	73	18723
2026-01-12 01:40:38.05	24.24	13.07	-54.0	-67.9	3.8	1.49e+00	0	22	104	0	73	18709
2026-01-12 01:40:38.77	24.20	13.14	-54.0	-67.9	3.8	1.49e+00	0	22	104	0	73	18695
2026-01-12 01:40:40.06	24.14	13.26	-54.0	-67.9	3.8	1.49e+00	0	22	104	0	73	18723
2026-01-12 01:40:40.78	24.11	13.33	-54.1	-67.9	3.8	1.49e+00	0	22	104	0	73	18701
2026-01-12 01:40:42.08	24.04	13.46	-54.1	-68.0	3.8	1.49e+00	0	22	104	0	73	18745
2026-01-12 01:40:42.80	24.01	13.53	-54.0	-68.0	3.8	1.49e+00	0	22	104	0	73	18780
2026-01-12 01:40:44.09	23.95	13.65	-54.0	-68.0	3.8	1.49e+00	0	22	104	0	73	18747
2026-01-12 01:40:44.82	23.91	13.72	-54.0	-68.0	3.8	1.49e+00	0	22	104	0	73	18797
2026-01-12 01:40:46.11	23.85	13.85	-54.0	-68.0	3.8	1.49e+00	0	22	104	0	73	18736
2026-01-12 01:40:46.83	23.81	13.92	-54.1	-68.0	3.8	1.49e+00	0	22	104	0	73	18797
2026-01-12 01:40:48.12	23.74	14.05	-54.1	-67.9	3.8	1.49e+00	0	22	104	0	73	18703
2026-01-12 01:40:48.84	23.71	14.12	-54.1	-67.9	3.8	1.49e+00	0	22	104	0	73	18730
2026-01-12 01:40:50.14	23.64	14.25	-54.1	-67.9	3.8	1.49e+00	0	22	104	0	73	18726
2026-01-12 01:40:50.86	23.60	14.32	-54.1	-67.9	3.8	1.49e+00	0	22	104	0	73	18723
2026-01-12 01:40:52.16	23.54	14.45	-54.1	-67.9	3.8	1.49e+00	0	23	104	0	73	18715
2026-01-12 01:40:52.88	23.50	14.52	-54.1	-67.9	3.8	1.49e+00	0	22	104	0	73	18677
2026-01-12 01:40:54.18	23.43	14.66	-54.0	-67.9	3.8	1.49e+00	0	22	104	0	73	18725
2026-01-12 01:40:54.90	23.39	14.73	-54.1	-68.0	3.8	1.49e+00	0	22	104	0	73	18752
2026-01-12 01:40:56.20	23.32	14.86	-54.1	-68.0	3.8	1.49e+00	0	22	104	0	73	18751
2026-01-12 01:40:56.91	23.28	14.93	-54.1	-67.9	3.8	1.49e+00	0	22	104	0	73	18659
2026-01-12 01:40:58.21	23.21	15.07	-54.0	-67.9	3.8	1.49e+00	0	22	104	0	73	18683
2026-01-12 01:40:58.93	23.17	15.14	-54.0	-67.9	3.8	1.49e+00	0	22	104	0	73	18690
2026-01-12 01:41:00.23	23.10	15.27	-54.0	-68.0	3.8	1.49e+00	0	22	104	0	73	18732
2026-01-12 01:41:00.95	23.06	15.35	-54.0	-68.0	3.8	1.49e+00	0	22	104	0	73	18753
2026-01-12 01:41:02.25	22.99	15.49	-54.0	-67.9	3.8	1.49e+00	0	22	104	0	73	18708
2026-01-12 01:41:02.97	22.95	15.56	-54.0	-67.9	3.8	1.49e+00	0	22	104	0	73	18722
2026-01-12 01:41:04.27	22.87	15.70	-54.0	-68.0	3.8	1.49e+00	0	22	104	0	73	18779
2026-01-12 01:41:04.99	22.83	15.77	-54.1	-67.9	3.8	1.49e+00	0	22	104	0	73	18719
2026-01-12 01:41:06.28	22.76	15.91	-54.1	-67.9	3.8	1.49e+00	0	22	104	0	73	18714
2026-01-12 01:41:07.00	22.71	15.99	-54.0	-68.0	3.8	1.49e+00	0	22	104	0	73	18749
2026-01-12 01:41:08.30	22.64	16.13	-54.0	-67.9	3.8	1.49e+00	0	22	104	0	73	18712
2026-01-12 01:41:09.02	22.60	16.20	-54.0	-67.9	3.8	1.49e+00	0	22	104	0	73	18725
2026-01-12 01:41:10.32	22.52	16.34	-54.0	-68.0	3.8	1.49e+00	0	22	104	0	73	18803
2026-01-12 01:41:11.04	22.47	16.42	-54.0	-68.0	3.8	1.49e+00	0	22	104	0	73	18780
2026-01-12 01:41:12.33	22.40	16.56	-54.0	-68.0	3.8	1.49e+00	0	22	104	0	73	18769
2026-01-12 01:41:13.05	22.35	16.64	-54.0	-68.0	3.8	1.49e+00	0	22	104	0	73	18813
2026-01-12 01:41:14.35	22.27	16.78	-54.1	-68.0	3.8	1.49e+00	0	22	104	0	73	18745
2026-01-12 01:41:15.07	22.23	16.86	-54.0	-68.0	3.8	1.49e+00	0	22	104	0	73	18732
2026-01-12 01:41:16.37	22.15	17.00	-54.0	-68.0	3.8	1.49e+00	0	22	104	0	73	18747
2026-01-12 01:41:17.09	22.10	17.08	-54.0	-68.0	3.8	1.49e+00	0	23	104	0	73	18800
2026-01-12 01:41:18.38	22.02	17.23	-54.1	-68.0	3.8	1.49e+00	0	22	104	0	73	18781
2026-01-12 01:41:19.10	21.97	17.31	-54.1	-68.0	3.8	1.49e+00	0	22	104	0	73	18791
2026-01-12 01:41:20.39	21.89	17.45	-54.0	-67.9	3.8	1.49e+00	0	23	104	0	73	18709
2026-01-12 01:41:21.11	21.84	17.53	-54.0	-67.9	3.8	1.49e+00	0	23	104	0	73	18714
2026-01-12 01:41:22.41	21.76	17.68	-54.1	-68.0	3.8	1.49e+00	0	23	104	0	73	18757
2026-01-12 01:41:23.13	21.71	17.76	-54.0	-67.9	3.8	1.49e+00	0	22	104	0	73	18724
2026-01-12 01:41:24.43	21.62	17.91	-54.0	-68.0	3.8	1.49e+00	0	22	104	0	73	18782
2026-01-12 01:41:25.15	21.58	17.99	-54.0	-67.9	3.8	1.49e+00	0	22	104	0	73	18730
2026-01-12 01:41:26.44	21.49	18.14	-54.0	-68.0	3.8	1.49e+00	0	23	104	0	73	18773
2026-01-12 01:41:27.16	21.44	18.23	-54.1	-68.0	3.8	1.49e+00	0	23	104	0	73	18767
2026-01-12 01:41:28.46	21.35	18.38	-54.0	-68.0	3.8	1.49e+00	0	23	104	0	73	18808
2026-01-12 01:41:29.18	21.30	18.46	-54.1	-68.0	3.8	1.49e+00	0	22	104	0	73	18764
2026-01-12 01:41:30.48	21.21	18.61	-54.0	-68.0	3.8	1.49e+00	0	23	104	0	73	18798
2026-01-12 01:41:31.20	21.16	18.70	-54.0	-68.0	3.8	1.49e+00	0	22	104	0	73	18748
2026-01-12 01:41:32.50	21.07	18.85	-54.1	-68.0	3.8	1.49e+00	0	23	104	0	73	18744
2026-01-12 01:41:33.22	21.01	18.94	-54.0	-68.0	3.8	1.49e+00	0	22	104	0	73	18808
2026-01-12 01:41:34.51	20.92	19.09	-54.0	-68.0	3.8	1.49e+00	0	23	104	0	73	18824
2026-01-12 01:41:35.23	20.87	19.18	-54.1	-68.0	3.8	1.49e+00	0	23	104	0	73	18770
2026-01-12 01:41:36.54	20.77	19.34	-54.1	-68.0	3.8	1.49e+00	0	22	104	0	73	18809
2026-01-12 01:41:37.26	20.72	19.42	-54.0	-68.0	3.8	1.49e+00	0	22	104	0	73	18737
2026-01-12 01:41:38.55	20.62	19.58	-54.0	-68.0	3.8	1.49e+00	0	22	104	0	73	18735
2026-01-12 01:41:39.27	20.57	19.67	-54.1	-68.0	3.8	1.49e+00	0	22	104	0	73	18749
2026-01-12 01:41:40.57	20.47	19.83	-54.1	-68.0	3.8	1.49e+00	0	22	104	0	73	18766
2026-01-12 01:41:41.29	20.41	19.91	-54.0	-68.0	3.8	1.49e+00	0	22	104	0	73	18732
2026-01-12 01:41:42.59	20.31	20.08	-54.1	-68.0	3.8	1.49e+00	0	22	104	0	73	18741
2026-01-12 01:41:43.31	20.26	20.16	-54.0	-68.0	3.8	1.49e+00	0	23	104	0	73	18759
2026-01-12 01:41:44.60	20.16	20.33	-54.0	-68.0	3.8	1.49e+00	0	23	104	0	73	18794
2026-01-12 01:41:45.32	20.10	20.42	-54.0	-68.0	3.8	1.49e+00	0	23	104	0	73	18784
2026-01-12 01:41:46.62	19.99	20.58	-54.0	-68.0	3.8	1.49e+00	0	22	104	0	73	18744
2026-01-12 01:41:47.34	19.94	20.67	-54.0	-68.0	3.8	1.49e+00	0	23	104	0	73	18817
2026-01-12 01:41:48.64	19.83	20.84	-54.0	-68.0	3.8	1.49e+00	0	23	104	0	73	18813
2026-01-12 01:41:49.36	19.77	20.93	-54.0	-68.0	3.8	1.49e+00	0	22	104	0	73	18798
2026-01-12 01:41:50.66	19.66	21.09	-54.0	-68.0	3.8	1.49e+00	0	23	104	0	73	18844
2026-01-12 01:41:51.38	19.60	21.19	-54.1	-68.0	3.8	1.49e+00	0	22	104	0	73	18758
2026-01-12 01:41:52.67	19.50	21.35	-54.0	-68.0	3.8	1.49e+00	0	22	104	0	73	18876
2026-01-12 01:41:53.39	19.43	21.45	-54.1	-68.0	3.8	1.49e+00	0	23	104	0	73	18820
2026-01-12 01:41:54.69	19.32	21.62	-54.0	-68.0	3.8	1.49e+00	0	22	104	0	73	18789
2026-01-12 01:41:55.41	19.26	21.71	-54.1	-68.0	3.8	1.49e+00	0	22	104	0	73	18782
2026-01-12 01:41:56.71	19.15	21.88	-54.1	-68.0	3.8	1.49e+00	0	23	104	0	73	18768
2026-01-12 01:41:57.43	19.08	21.98	-54.1	-68.0	3.8	1.49e+00	0	23	104	0	73	18805
2026-01-12 01:41:58.72	18.97	22.15	-54.0	-67.9	3.8	1.49e+00	0	22	104	0	73	18706
2026-01-12 01:41:59.44	18.90	22.25	-54.0	-68.0	3.8	1.49e+00	0	22	104	0	73	18778
2026-01-12 01:42:00.74	18.79	22.42	-54.1	-68.0	3.8	1.49e+00	0	22	104	0	73	18747
2026-01-12 01:42:01.46	18.72	22.52	-54.1	-67.9	3.8	1.49e+00	0	22	104	0	73	18707
2026-01-12 01:42:02.75	18.60	22.69	-54.0	-67.9	3.8	1.49e+00	0	22	104	0	73	18696
2026-01-12 01:42:03.47	18.53	22.79	-54.0	-68.0	3.8	1.49e+00	0	22	104	0	73	18750
2026-01-12 01:42:04.77	18.41	22.97	-54.0	-67.9	3.8	1.49e+00	0	23	104	0	73	18728
2026-01-12 01:42:05.49	18.34	23.07	-54.0	-67.9	3.8	1.49e+00	0	22	104	0	73	18722
2026-01-12 01:42:06.78	18.22	23.25	-54.0	-68.0	3.8	1.49e+00	0	23	104	0	73	18740
2026-01-12 01:42:07.51	18.15	23.35	-54.0	-67.9	3.8	1.49e+00	0	23	104	0	73	18705
2026-01-12 01:42:08.80	18.02	23.53	-54.1	-68.0	3.8	1.49e+00	0	22	104	0	73	18767
2026-01-12 01:42:09.52	17.95	23.63	-54.1	-68.0	3.8	1.49e+00	0	23	104	0	73	18827
2026-01-12 01:42:10.82	17.82	23.81	-54.1	-68.0	3.8	1.49e+00	0	23	104	0	73	18794
2026-01-12 01:42:11.54	17.75	23.92	-54.1	-68.0	3.8	1.49e+00	0	23	104	0	73	18761
2026-01-12 01:42:12.84	17.62	24.10	-54.0	-68.0	3.8	1.49e+00	0	23	104	0	73	18825
2026-01-12 01:42:13.56	17.55	24.20	-54.1	-68.0	3.8	1.49e+00	0	23	104	0	73	18783
2026-01-12 01:42:14.86	17.41	24.39	-54.1	-68.0	3.8	1.49e+00	0	23	104	0	73	18819
2026-01-12 01:42:15.58	17.34	24.49	-54.1	-68.0	3.8	1.49e+00	0	23	104	0	73	18770
2026-01-12 01:42:16.87	17.20	24.68	-54.1	-68.0	3.8	1.49e+00	0	23	104	0	73	18808
2026-01-12 01:42:17.60	17.13	24.79	-54.0	-68.0	3.8	1.49e+00	0	23	104	0	73	18749
2026-01-12 01:42:18.89	16.99	24.98	-54.1	-68.0	3.8	1.49e+00	0	23	104	0	73	18796
2026-01-12 01:42:19.61	16.91	25.08	-54.1	-68.0	3.8	1.49e+00	0	23	104	0	73	18767
2026-01-12 01:42:20.91	16.77	25.28	-54.1	-68.0	3.8	1.49e+00	0	23	104	0	73	18823
2026-01-12 01:42:21.63	16.69	25.38	-54.1	-68.0	3.8	1.49e+00	0	23	104	0	73	18751
2026-01-12 01:42:22.93	16.54	25.58	-54.1	-67.9	3.8	1.49e+00	0	23	104	0	73	18724
2026-01-12 01:42:23.65	16.46	25.68	-54.1	-68.0	3.8	1.49e+00	0	23	104	0	73	18788
2026-01-12 01:42:24.95	16.31	25.88	-54.1	-68.0	3.8	1.49e+00	0	23	104	0	73	18789
2026-01-12 01:42:25.67	16.23	25.99	-54.1	-68.0	3.8	1.49e+00	0	23	104	0	73	18748
2026-01-12 01:42:26.96	16.08	26.19	-54.0	-68.0	3.8	1.49e+00	0	23	104	0	73	18763
2026-01-12 01:42:27.68	16.00	26.30	-54.1	-68.0	3.8	1.49e+00	0	23	104	0	73	18779
2026-01-12 01:42:28.98	15.84	26.50	-54.1	-68.0	3.8	1.49e+00	0	23	104	0	73	18787
2026-01-12 01:42:29.70	15.76	26.61	-54.1	-68.0	3.8	1.49e+00	0	23	104	0	73	18812
2026-01-12 01:42:30.99	15.60	26.81	-54.1	-68.0	3.8	1.49e+00	0	22	104	0	73	18823
2026-01-12 01:42:31.71	15.51	26.92	-54.1	-68.0	3.8	1.49e+00	0	23	104	0	73	18794
2026-01-12 01:42:33.01	15.35	27.12	-54.1	-68.0	3.8	1.49e+00	0	22	104	0	73	18798
2026-01-12 01:42:33.73	15.26	27.24	-54.1	-68.0	3.8	1.49e+00	0	23	104	0	73	18753
2026-01-12 01:42:35.02	15.10	27.44	-54.0	-67.9	3.8	1.49e+00	0	23	104	0	73	18717
2026-01-12 01:42:35.74	15.01	27.55	-54.1	-68.0	3.8	1.49e+00	0	23	104	0	73	18747
2026-01-12 01:42:37.04	14.84	27.76	-54.1	-68.0	3.8	1.49e+00	0	23	104	0	73	18749
2026-01-12 01:42:37.76	14.75	27.88	-54.1	-68.0	3.8	1.49e+00	0	23	104	0	73	18761
2026-01-12 01:42:39.06	14.58	28.09	-54.1	-68.0	3.8	1.49e+00	0	23	104	0	73	18775
2026-01-12 01:42:39.78	14.48	28.20	-54.1	-68.0	3.8	1.49e+00	0	23	104	0	73	18781
2026-01-12 01:42:41.07	14.31	28.41	-54.1	-68.0	3.8	1.49e+00	0	23	104	0	73	18748
2026-01-12 01:42:41.79	14.21	28.53	-54.1	-68.0	3.8	1.49e+00	0	23	104	0	73	18778
2026-01-12 01:42:43.09	14.04	28.75	-54.1	-68.0	3.8	1.49e+00	0	23	104	0	73	18783
2026-01-12 01:42:43.81	13.94	28.87	-54.1	-68.0	3.8	1.49e+00	0	23	104	0	73	18801
2026-01-12 01:42:45.11	13.76	29.08	-54.1	-68.0	3.8	1.49e+00	0	23	104	0	73	18762
2026-01-12 01:42:45.83	13.65	29.20	-54.1	-67.9	3.8	1.49e+00	0	23	104	0	73	18717
2026-01-12 01:42:47.13	13.47	29.42	-54.1	-67.9	3.8	1.49e+00	0	23	104	0	73	18697
2026-01-12 01:42:47.85	13.37	29.54	-54.1	-68.0	3.8	1.49e+00	0	23	104	0	73	18779
2026-01-12 01:42:49.15	13.18	29.76	-54.1	-67.9	3.8	1.49e+00	0	23	104	0	73	18703
2026-01-12 01:42:49.88	13.07	29.88	-54.1	-68.0	3.8	1.49e+00	0	23	104	0	73	18763
2026-01-12 01:42:51.17	12.88	30.10	-54.1	-68.0	3.8	1.49e+00	0	23	104	0	73	18773
2026-01-12 01:42:51.89	12.77	30.23	-54.1	-68.0	3.8	1.49e+00	0	23	104	0	73	18780
2026-01-12 01:42:53.19	12.57	30.45	-54.1	-68.0	3.8	1.49e+00	0	23	104	0	73	18741
2026-01-12 01:42:53.91	12.46	30.58	-54.1	-68.0	3.8	1.49e+00	0	23	104	0	73	18807
2026-01-12 01:42:55.21	12.26	30.80	-54.1	-68.0	3.8	1.49e+00	0	23	104	0	73	18825
2026-01-12 01:42:55.93	12.14	30.93	-54.1	-68.0	3.8	1.49e+00	0	23	104	0	73	18769
2026-01-12 01:42:57.23	11.94	31.16	-54.1	-67.9	3.8	1.49e+00	0	23	104	0	73	18696
2026-01-12 01:42:57.95	11.82	31.28	-54.1	-67.9	3.8	1.49e+00	0	23	104	0	73	18728
2026-01-12 01:42:59.25	11.61	31.52	-54.1	-68.0	3.8	1.49e+00	0	23	104	0	73	18775
2026-01-12 01:42:59.97	11.49	31.64	-54.1	-68.0	3.8	1.49e+00	0	23	104	0	73	18788
2026-01-12 01:43:01.27	11.27	31.88	-54.1	-68.0	3.8	1.49e+00	0	23	104	0	73	18782
2026-01-12 01:43:01.99	11.15	32.01	-54.0	-68.0	3.8	1.49e+00	0	23	104	0	73	18824
2026-01-12 01:43:03.29	10.93	32.24	-54.1	-68.0	3.8	1.49e+00	0	23	104	0	73	18812
2026-01-12 01:43:04.01	10.81	32.37	-54.1	-68.0	3.8	1.49e+00	0	23	104	0	73	18838
2026-01-12 01:43:05.31	10.58	32.61	-54.1	-68.0	3.8	1.49e+00	0	23	104	0	73	18770
2026-01-12 01:43:06.03	10.45	32.74	-54.1	-68.0	3.8	1.49e+00	0	23	104	0	73	18783
2026-01-12 01:43:07.33	10.22	32.98	-54.1	-68.0	3.8	1.49e+00	0	23	104	0	73	18803
2026-01-12 01:43:08.04	10.09	33.11	-54.1	-68.0	3.8	1.49e+00	0	23	104	0	73	18752
2026-01-12 01:43:09.34	9.86	33.35	-54.1	-68.0	3.8	1.49e+00	0	23	104	0	73	18793
2026-01-12 01:43:10.06	9.72	33.48	-54.1	-68.0	3.8	1.49e+00	0	23	104	0	73	18805
2026-01-12 01:43:11.35	9.48	33.73	-54.0	-68.0	3.8	1.49e+00	0	22	104	0	73	18805
2026-01-12 01:43:12.08	9.34	33.86	-54.1	-68.0	3.8	1.49e+00	0	23	104	0	73	18811
2026-01-12 01:43:13.37	9.10	34.11	-54.0	-68.0	3.8	1.49e+00	0	23	104	0	73	18868
2026-01-12 01:43:14.09	8.96	34.24	-54.1	-68.0	3.8	1.49e+00	0	23	104	0	73	18829
2026-01-12 01:43:15.39	8.70	34.49	-54.1	-68.0	3.8	1.49e+00	0	23	104	0	73	18787
2026-01-12 01:43:16.11	8.56	34.63	-54.1	-68.0	3.8	1.49e+00	0	23	104	0	73	18783
2026-01-12 01:43:17.41	8.30	34.88	-54.0	-68.0	3.8	1.49e+00	0	23	104	0	73	18769
2026-01-12 01:43:18.13	8.15	35.01	-54.1	-68.0	3.8	1.49e+00	0	23	104	0	73	18818
2026-01-12 01:43:19.43	7.88	35.27	-54.1	-68.0	3.8	1.49e+00	0	23	104	0	73	18784
2026-01-12 01:43:20.15	7.73	35.41	-54.1	-68.0	3.8	1.49e+00	0	23	104	0	73	18841
2026-01-12 01:43:21.45	7.46	35.66	-54.1	-68.0	3.8	1.49e+00	0	23	104	0	73	18788
2026-01-12 01:43:22.17	7.31	35.80	-54.1	-68.0	3.8	1.49e+00	0	23	104	0	73	18771
2026-01-12 01:43:23.46	7.03	36.05	-54.1	-68.0	3.8	1.49e+00	0	23	104	0	73	18769
2026-01-12 01:43:24.18	6.87	36.19	-54.1	-68.0	3.8	1.49e+00	0	23	104	0	73	18791
2026-01-12 01:43:25.48	6.58	36.45	-54.1	-68.0	3.8	1.49e+00	0	23	104	0	73	18773
2026-01-12 01:43:26.21	6.42	36.60	-54.1	-68.0	3.8	1.49e+00	0	23	104	0	73	18820
2026-01-12 01:43:27.50	6.12	36.85	-54.1	-68.0	3.8	1.49e+00	0	23	104	0	73	18747
2026-01-12 01:43:28.22	5.96	37.00	-54.1	-68.0	3.8	1.49e+00	0	23	104	0	73	18745
2026-01-12 01:43:29.52	5.66	37.26	-54.1	-68.0	3.8	1.49e+00	0	23	104	0	73	18825
2026-01-12 01:43:30.23	5.49	37.40	-54.1	-68.0	3.8	1.49e+00	0	23	104	0	73	18773
2026-01-12 01:43:31.53	5.18	37.66	-54.1	-68.0	3.8	1.49e+00	0	23	104	0	73	18811
2026-01-12 01:43:32.25	5.00	37.81	-54.1	-68.0	3.8	1.49e+00	0	23	104	0	73	18850
2026-01-12 01:43:33.55	4.69	38.07	-54.1	-68.0	3.8	1.49e+00	0	23	104	0	73	18827
2026-01-12 01:43:34.27	4.51	38.22	-54.1	-68.0	3.8	1.49e+00	0	23	104	0	73	18857
2026-01-12 01:43:35.57	4.18	38.48	-54.1	-68.0	3.8	1.49e+00	0	23	104	0	73	18812
2026-01-12 01:43:36.29	4.00	38.63	-54.1	-68.0	3.8	1.49e+00	0	23	104	0	73	18823
2026-01-12 01:43:37.58	3.66	38.90	-54.1	-68.0	3.8	1.49e+00	0	23	104	0	73	18817
2026-01-12 01:43:38.31	3.47	39.05	-54.1	-68.0	3.8	1.49e+00	0	23	104	0	73	18809
2026-01-12 01:43:39.61	3.13	39.32	-54.1	-68.0	3.8	1.49e+00	0	23	104	0	73	18790
2026-01-12 01:43:40.33	2.94	39.46	-54.1	-68.0	3.8	1.49e+00	0	23	104	0	73	18750
2026-01-12 01:43:41.62	2.59	39.73	-54.1	-68.0	3.8	1.49e+00	0	23	104	0	73	18788
2026-01-12 01:43:42.35	2.38	39.88	-54.1	-68.0	3.8	1.49e+00	0	23	104	0	73	18787
2026-01-12 01:43:43.64	2.03	40.15	-54.1	-68.0	3.8	1.49e+00	0	23	104	0	73	18796
2026-01-12 01:43:44.36	1.82	40.30	-54.1	-67.9	3.8	1.49e+00	0	23	104	0	73	18713
2026-01-12 01:43:45.66	1.45	40.58	-54.1	-68.0	3.8	1.49e+00	0	23	104	0	73	18854
2026-01-12 01:43:46.38	1.24	40.73	-54.1	-68.0	3.8	1.49e+00	0	23	104	0	73	18772
2026-01-12 01:43:47.68	0.86	41.00	-54.1	-68.0	3.8	1.49e+00	0	23	104	0	73	18793
2026-01-12 01:43:48.40	0.64	41.15	-54.1	-68.0	3.8	1.49e+00	0	23	104	0	73	18828
2026-01-12 01:43:49.70	0.25	41.43	-54.1	-68.0	3.8	1.49e+00	0	23	104	0	73	18782
2026-01-12 01:43:50.41	0.03	41.58	-54.1	-68.0	3.8	1.49e+00	0	23	104	0	73	18767
2026-01-12 01:43:51.71	359.63	41.85	-54.1	-68.0	3.8	1.49e+00	0	23	104	0	73	18760
2026-01-12 01:43:52.43	359.41	42.00	-54.1	-68.0	3.8	1.49e+00	0	23	104	0	73	18750
2026-01-12 01:43:53.73	358.99	42.28	-54.1	-68.0	3.8	1.49e+00	0	23	104	0	73	18798
2026-01-12 01:43:54.45	358.76	42.43	-54.1	-68.0	3.8	1.49e+00	0	23	104	0	73	18873
2026-01-12 01:43:55.75	358.33	42.71	-54.1	-68.0	3.8	1.49e+00	0	23	104	0	73	18821
2026-01-12 01:43:56.47	358.09	42.86	-54.1	-68.0	3.8	1.49e+00	0	23	104	0	73	18802
2026-01-12 01:43:57.77	357.66	43.14	-54.1	-68.0	3.8	1.49e+00	0	23	104	0	73	18830
2026-01-12 01:43:58.49	357.41	43.29	-54.1	-68.0	3.8	1.49e+00	0	23	104	0	73	18837
2026-01-12 01:43:59.78	356.97	43.57	-54.1	-68.0	3.8	1.49e+00	0	23	104	0	73	18828
2026-01-12 01:44:00.51	356.71	43.72	-54.1	-68.0	3.8	1.49e+00	0	23	104	0	73	18834
2026-01-12 01:44:01.81	356.25	44.00	-54.1	-68.0	3.8	1.49e+00	0	23	104	0	73	18810
2026-01-12 01:44:02.53	355.99	44.15	-54.1	-68.0	3.8	1.49e+00	0	23	104	0	73	18784
2026-01-12 01:44:03.82	355.52	44.42	-54.1	-68.0	3.8	1.49e+00	0	23	104	0	73	18795
2026-01-12 01:44:04.54	355.26	44.58	-54.1	-68.0	3.8	1.49e+00	0	23	104	0	73	18805
2026-01-12 01:44:05.84	354.77	44.85	-54.1	-68.0	3.8	1.49e+00	0	23	104	0	73	18759
2026-01-12 01:44:06.56	354.49	45.01	-54.1	-68.0	3.8	1.49e+00	0	23	104	0	73	18785
2026-01-12 01:44:07.86	353.99	45.28	-54.1	-68.0	3.8	1.49e+00	0	23	104	0	73	18843
2026-01-12 01:44:08.58	353.71	45.43	-54.1	-68.0	3.8	1.49e+00	0	23	104	0	73	18881
2026-01-12 01:44:09.88	353.20	45.71	-54.1	-68.0	3.8	1.49e+00	0	23	104	0	73	18795
2026-01-12 01:44:10.60	352.91	45.86	-54.1	-68.0	3.8	1.49e+00	0	23	104	0	73	18778
2026-01-12 01:44:11.90	352.38	46.13	-54.1	-68.0	3.8	1.49e+00	0	23	104	0	73	18844
2026-01-12 01:44:12.62	352.09	46.28	-54.1	-68.0	3.8	1.49e+00	0	23	104	0	73	18794
2026-01-12 01:44:13.91	351.55	46.55	-54.1	-68.0	3.8	1.49e+00	0	23	104	0	73	18821
2026-01-12 01:44:14.64	351.24	46.70	-54.1	-68.0	3.8	1.49e+00	0	23	104	0	73	18854
2026-01-12 01:44:15.94	350.68	46.97	-54.1	-68.0	3.8	1.49e+00	0	23	104	0	73	18838
2026-01-12 01:44:16.66	350.37	47.12	-54.2	-68.0	3.8	1.49e+00	0	23	104	0	73	18784
2026-01-12 01:44:17.96	349.80	47.39	-54.1	-68.0	3.8	1.49e+00	0	23	104	0	73	18797
2026-01-12 01:44:18.68	349.47	47.54	-54.1	-68.0	3.8	1.49e+00	0	23	104	0	73	18820
2026-01-12 01:44:19.97	348.89	47.80	-54.1	-68.0	3.8	1.49e+00	0	23	104	0	73	18801
2026-01-12 01:44:20.69	348.56	47.94	-54.1	-68.0	3.8	1.49e+00	0	23	104	0	73	18784
2026-01-12 01:44:21.99	347.96	48.21	-54.1	-68.0	3.8	1.49e+00	0	23	104	0	73	18813
2026-01-12 01:44:22.71	347.62	48.35	-54.1	-68.0	3.8	1.49e+00	0	23	104	0	73	18821
2026-01-12 01:44:24.00	347.00	48.61	-54.1	-68.0	3.8	1.49e+00	0	23	104	0	73	18850
2026-01-12 01:44:24.72	346.65	48.75	-54.1	-68.0	3.8	1.49e+00	0	23	104	0	73	18855
2026-01-12 01:44:26.02	346.02	49.01	-54.1	-68.0	3.8	1.49e+00	0	23	104	0	73	18857
2026-01-12 01:44:26.74	345.66	49.15	-54.1	-68.0	3.8	1.49e+00	0	23	104	0	73	18794
2026-01-12 01:44:28.04	345.01	49.40	-54.1	-68.0	3.8	1.49e+00	0	23	104	0	73	18856
2026-01-12 01:44:28.75	344.64	49.53	-54.1	-68.0	3.8	1.49e+00	0	23	104	0	73	18869
2026-01-12 01:44:30.05	343.97	49.78	-54.1	-68.0	3.8	1.49e+00	0	23	104	0	73	18780
2026-01-12 01:44:30.76	343.60	49.92	-54.1	-68.0	3.8	1.49e+00	0	23	104	0	73	18795
2026-01-12 01:44:32.06	342.92	50.16	-54.1	-68.0	3.8	1.49e+00	0	23	104	0	73	18855
2026-01-12 01:44:32.78	342.53	50.29	-54.1	-68.0	3.8	1.49e+00	0	23	104	0	73	18838
2026-01-12 01:44:34.07	341.83	50.53	-54.1	-68.0	3.8	1.49e+00	0	23	104	0	73	18750
2026-01-12 01:44:34.80	341.43	50.66	-54.1	-68.0	3.8	1.49e+00	0	23	104	0	73	18800
2026-01-12 01:44:36.10	340.71	50.89	-54.1	-68.0	3.8	1.49e+00	0	23	104	0	73	18850
2026-01-12 01:44:36.82	340.30	51.02	-54.1	-68.0	3.8	1.49e+00	0	23	104	0	73	18840
2026-01-12 01:44:38.11	339.57	51.24	-54.1	-68.0	3.8	1.49e+00	0	23	104	0	73	18768
2026-01-12 01:44:38.83	339.16	51.37	-54.1	-68.0	3.8	1.49e+00	0	23	104	0	73	18764
2026-01-12 01:44:40.12	338.41	51.59	-54.1	-68.0	3.8	1.49e+00	0	23	104	0	73	18784
2026-01-12 01:44:40.85	337.98	51.71	-54.1	-68.0	3.8	1.49e+00	0	23	104	0	73	18774
2026-01-12 01:44:42.14	337.21	51.92	-54.1	-68.0	3.8	1.49e+00	0	23	104	0	73	18856
2026-01-12 01:44:42.86	336.77	52.04	-54.1	-68.0	3.8	1.49e+00	0	23	104	0	73	18821
2026-01-12 01:44:44.16	335.98	52.24	-54.0	-68.0	3.8	1.49e+00	0	23	104	0	73	18787
2026-01-12 01:44:44.88	335.54	52.36	-54.0	-68.0	3.8	1.49e+00	0	23	104	0	73	18828
2026-01-12 01:44:46.18	334.73	52.55	-54.0	-68.0	3.8	1.49e+00	0	23	104	0	73	18876
2026-01-12 01:44:46.90	334.28	52.66	-54.1	-68.0	3.8	1.49e+00	0	23	104	0	73	18830
2026-01-12 01:44:48.20	333.45	52.85	-54.1	-68.0	3.8	1.49e+00	0	23	104	0	73	18823
2026-01-12 01:44:48.92	332.99	52.96	-54.1	-68.0	3.8	1.49e+00	0	23	104	0	73	18789
2026-01-12 01:44:50.21	332.16	53.14	-54.0	-68.0	3.8	1.49e+00	0	23	104	0	73	18861
2026-01-12 01:44:50.93	331.68	53.23	-54.0	-68.0	3.8	1.49e+00	0	23	104	0	73	18757
2026-01-12 01:44:52.23	330.83	53.41	-54.1	-68.0	3.8	1.49e+00	0	23	104	0	73	18821
2026-01-12 01:44:52.95	330.35	53.50	-54.1	-68.0	3.8	1.49e+00	0	23	104	0	73	18838
2026-01-12 01:44:54.25	329.47	53.66	-54.1	-68.0	3.8	1.49e+00	0	23	104	0	73	18800
2026-01-12 01:44:54.98	328.98	53.75	-54.1	-68.0	3.8	1.49e+00	0	23	104	0	73	18820
2026-01-12 01:44:56.27	328.10	53.90	-54.1	-68.0	3.8	1.49e+00	0	23	104	0	73	18832
2026-01-12 01:44:56.99	327.60	53.99	-54.1	-68.0	3.8	1.49e+00	0	23	104	0	73	18851
2026-01-12 01:44:58.29	326.70	54.13	-54.1	-68.0	3.8	1.49e+00	0	23	104	0	73	18788
2026-01-12 01:44:59.01	326.19	54.21	-54.1	-68.0	3.8	1.49e+00	0	23	104	0	73	18832
2026-01-12 01:45:00.30	325.28	54.34	-54.1	-68.0	3.8	1.49e+00	0	23	104	0	73	18840
2026-01-12 01:45:01.02	324.77	54.41	-54.1	-68.0	3.8	1.49e+00	0	23	104	0	73	18789
2026-01-12 01:45:02.32	323.84	54.53	-54.1	-68.0	3.8	1.49e+00	0	23	104	0	73	18839
2026-01-12 01:45:03.04	323.32	54.59	-54.1	-68.0	3.8	1.49e+00	0	23	104	0	73	18799
2026-01-12 01:45:04.34	322.38	54.70	-54.1	-68.0	3.8	1.49e+00	0	23	104	0	73	18823
2026-01-12 01:45:05.06	321.86	54.76	-54.1	-68.0	3.8	1.49e+00	0	23	104	0	73	18854
2026-01-12 01:45:06.35	320.91	54.86	-54.1	-68.0	3.8	1.49e+00	0	23	104	0	73	18833
2026-01-12 01:45:07.07	320.38	54.91	-54.1	-68.0	3.8	1.49e+00	0	23	104	0	73	18812
2026-01-12 01:45:08.37	319.42	54.99	-54.1	-68.0	3.8	1.49e+00	0	23	104	0	73	18838
2026-01-12 01:45:09.09	318.89	55.04	-54.1	-68.0	3.8	1.49e+00	0	23	104	0	73	18867
2026-01-12 01:45:10.39	317.92	55.11	-54.1	-68.0	3.8	1.49e+00	0	23	104	0	73	18813
2026-01-12 01:45:11.11	317.38	55.15	-54.1	-68.0	3.8	1.49e+00	0	23	104	0	73	18838
2026-01-12 01:45:12.41	316.40	55.21	-54.1	-68.0	3.8	1.49e+00	0	23	104	0	73	18781
2026-01-12 01:45:13.12	315.86	55.24	-54.1	-68.0	3.8	1.49e+00	0	23	104	0	73	18858
2026-01-12 01:45:14.42	314.88	55.28	-54.1	-68.0	3.8	1.49e+00	0	23	104	0	73	18851
2026-01-12 01:45:15.13	314.34	55.31	-54.1	-68.0	3.8	1.49e+00	0	23	104	0	73	18829
2026-01-12 01:45:16.43	313.35	55.34	-54.1	-68.0	3.8	1.49e+00	0	23	104	0	73	18805
2026-01-12 01:45:17.15	312.81	55.36	-54.1	-68.0	3.8	1.49e+00	0	23	104	0	73	18768
2026-01-12 01:45:18.45	311.82	55.38	-54.1	-68.0	3.8	1.49e+00	0	23	104	0	73	18842
2026-01-12 01:45:19.17	311.27	55.39	-54.1	-68.0	3.8	1.49e+00	0	23	104	0	73	18833
2026-01-12 01:45:20.47	310.27	55.40	-54.1	-68.0	3.8	1.49e+00	0	23	104	0	73	18809
2026-01-12 01:45:21.18	309.73	55.40	-54.1	-68.0	3.8	1.49e+00	0	23	104	0	73	18854
2026-01-12 01:45:22.48	308.74	55.39	-54.1	-68.0	3.8	1.49e+00	0	23	104	0	73	18911
2026-01-12 01:45:23.20	308.19	55.39	-54.1	-68.0	3.8	1.49e+00	0	23	104	0	73	18825
2026-01-12 01:45:24.50	307.20	55.37	-54.1	-68.0	3.8	1.49e+00	0	23	104	0	73	18841
2026-01-12 01:45:25.22	306.65	55.36	-54.1	-68.0	3.8	1.49e+00	0	23	104	0	73	18814
2026-01-12 01:45:26.52	305.66	55.32	-54.1	-68.0	3.8	1.49e+00	0	23	104	0	73	18811
2026-01-12 01:45:27.24	305.11	55.30	-54.1	-68.0	3.8	1.49e+00	0	23	104	0	73	18818
2026-01-12 01:45:28.54	304.13	55.26	-54.1	-68.0	3.8	1.49e+00	0	23	104	0	73	18813
2026-01-12 01:45:29.26	303.58	55.23	-54.1	-68.0	3.8	1.49e+00	0	23	104	0	73	18810
2026-01-12 01:45:30.56	302.60	55.17	-54.1	-68.0	3.8	1.49e+00	0	23	104	0	73	18842
2026-01-12 01:45:31.27	302.07	55.14	-54.1	-68.0	3.8	1.49e+00	0	23	104	0	73	18828
2026-01-12 01:45:32.57	301.10	55.07	-54.1	-68.0	3.8	1.49e+00	0	23	104	0	73	18800
2026-01-12 01:45:33.29	300.56	55.03	-54.1	-68.0	3.8	1.49e+00	0	23	104	0	73	18790
2026-01-12 01:45:34.59	299.60	54.95	-54.1	-68.0	3.8	1.49e+00	0	23	104	0	73	18847
2026-01-12 01:45:35.31	299.07	54.90	-54.1	-68.0	3.8	1.49e+00	0	23	104	0	73	18820
2026-01-12 01:45:36.61	298.11	54.80	-54.1	-68.0	3.8	1.49e+00	0	23	104	0	73	18862
2026-01-12 01:45:37.33	297.58	54.75	-54.1	-68.0	3.8	1.49e+00	0	23	104	0	73	18865
2026-01-12 01:45:38.63	296.64	54.64	-54.1	-68.0	3.8	1.49e+00	0	23	104	0	73	18804
2026-01-12 01:45:39.35	296.12	54.58	-54.1	-68.0	3.8	1.49e+00	0	23	104	0	73	18827
2026-01-12 01:45:40.65	295.18	54.46	-54.1	-68.0	3.8	1.49e+00	0	23	104	0	73	18876
2026-01-12 01:45:41.37	294.67	54.39	-54.1	-68.0	3.8	1.49e+00	0	23	104	0	73	18832
2026-01-12 01:45:42.66	293.76	54.26	-54.1	-68.0	3.8	1.49e+00	0	23	104	0	73	18824
2026-01-12 01:45:43.38	293.25	54.19	-54.1	-68.0	3.8	1.49e+00	0	23	104	0	73	18769
2026-01-12 01:45:44.68	292.34	54.05	-54.1	-68.0	3.8	1.49e+00	0	23	104	0	73	18840
2026-01-12 01:45:45.40	291.84	53.97	-54.1	-68.0	3.8	1.49e+00	0	23	104	0	73	18810
2026-01-12 01:45:46.70	290.95	53.82	-54.1	-68.0	3.8	1.49e+00	0	23	104	0	73	18812
2026-01-12 01:45:47.42	290.46	53.73	-54.1	-68.0	3.8	1.49e+00	0	23	104	0	73	18813
2026-01-12 01:45:48.72	289.58	53.57	-54.1	-68.0	3.8	1.49e+00	0	23	104	0	73	18845
2026-01-12 01:45:49.44	289.10	53.48	-54.1	-68.0	3.8	1.49e+00	0	23	104	0	73	18840
2026-01-12 01:45:50.74	288.23	53.31	-54.1	-68.0	3.8	1.49e+00	0	23	104	0	73	18815
2026-01-12 01:45:51.46	287.76	53.21	-54.1	-68.0	3.8	1.49e+00	0	23	104	0	73	18852
2026-01-12 01:45:52.75	286.92	53.03	-54.1	-68.0	3.8	1.49e+00	0	23	104	0	73	18825
2026-01-12 01:45:53.47	286.46	52.93	-54.1	-68.0	3.8	1.49e+00	0	23	104	0	73	18859
2026-01-12 01:45:54.77	285.62	52.74	-54.1	-68.0	3.8	1.49e+00	0	23	104	0	73	18852
2026-01-12 01:45:55.50	285.16	52.64	-54.1	-68.0	3.8	1.49e+00	0	23	104	0	73	18822
2026-01-12 01:45:56.79	284.35	52.44	-54.1	-68.0	3.8	1.49e+00	0	23	104	0	73	18875
2026-01-12 01:45:57.52	283.90	52.33	-54.1	-68.0	3.8	1.49e+00	0	23	104	0	73	18845
2026-01-12 01:45:58.81	283.11	52.12	-54.1	-68.0	3.8	1.49e+00	0	23	104	0	73	18804
2026-01-12 01:45:59.53	282.67	52.01	-54.1	-68.0	3.8	1.49e+00	0	23	104	0	73	18804
2026-01-12 01:46:00.83	281.89	51.80	-54.1	-68.0	3.8	1.49e+00	0	23	104	0	73	18781
2026-01-12 01:46:01.55	281.47	51.68	-54.1	-68.0	3.8	1.49e+00	0	23	104	0	73	18818
2026-01-12 01:46:02.85	280.70	51.46	-54.1	-68.0	3.8	1.49e+00	0	23	104	0	73	18751
2026-01-12 01:46:03.57	280.29	51.34	-54.1	-68.0	3.8	1.49e+00	0	23	104	0	73	18776
2026-01-12 01:46:04.86	279.55	51.11	-54.1	-68.0	3.8	1.49e+00	0	23	104	0	73	18787
2026-01-12 01:46:05.58	279.14	50.99	-54.1	-68.0	3.8	1.49e+00	0	23	104	0	73	18831
2026-01-12 01:46:06.88	278.41	50.76	-54.1	-68.0	3.8	1.49e+00	0	23	104	0	73	18892
2026-01-12 01:46:07.60	278.01	50.63	-54.1	-68.0	3.8	1.49e+00	0	23	104	0	73	18864
2026-01-12 01:46:08.89	277.31	50.39	-54.1	-68.0	3.8	1.49e+00	0	23	104	0	73	18827
2026-01-12 01:46:09.61	276.92	50.26	-54.1	-68.0	3.8	1.49e+00	0	23	104	0	73	18835
2026-01-12 01:46:10.91	276.23	50.02	-54.1	-68.0	3.8	1.49e+00	0	23	104	0	73	18841
2026-01-12 01:46:11.63	275.85	49.88	-54.1	-68.0	3.8	1.49e+00	0	23	104	0	73	18842
2026-01-12 01:46:12.92	275.18	49.64	-54.1	-68.0	3.8	1.49e+00	0	23	104	0	73	18802
2026-01-12 01:46:13.65	274.80	49.50	-54.1	-68.0	3.8	1.49e+00	0	23	104	0	73	18856
2026-01-12 01:46:14.94	274.15	49.25	-54.1	-68.0	3.8	1.49e+00	0	23	104	0	73	18838
2026-01-12 01:46:15.66	273.79	49.11	-54.1	-68.0	3.8	1.49e+00	0	23	104	0	73	18843
2026-01-12 01:46:16.96	273.15	48.85	-54.0	-68.0	3.8	1.49e+00	0	23	104	0	73	18815
2026-01-12 01:46:17.68	272.80	48.71	-54.0	-68.0	3.8	1.49e+00	0	23	104	0	73	18801
2026-01-12 01:46:18.98	272.17	48.45	-54.1	-68.0	3.8	1.49e+00	0	23	104	0	73	18906
2026-01-12 01:46:19.70	271.83	48.31	-54.0	-68.0	3.8	1.49e+00	0	23	104	0	73	18876
2026-01-12 01:46:20.99	271.22	48.05	-54.1	-68.0	3.8	1.49e+00	0	23	104	0	73	18855
2026-01-12 01:46:21.71	270.89	47.90	-54.1	-68.0	3.8	1.49e+00	0	23	104	0	73	18901
2026-01-12 01:46:23.01	270.30	47.63	-54.1	-68.0	3.8	1.49e+00	0	23	104	0	73	18829
2026-01-12 01:46:23.73	269.97	47.49	-54.1	-68.0	3.8	1.49e+00	0	23	104	0	73	18830
2026-01-12 01:46:25.03	269.39	47.22	-54.1	-68.0	3.8	1.49e+00	0	23	104	0	73	18831
2026-01-12 01:46:25.75	269.08	47.07	-54.1	-68.0	3.8	1.49e+00	0	23	104	0	73	18816
2026-01-12 01:46:27.05	268.52	46.80	-54.1	-68.0	3.8	1.49e+00	0	23	104	0	73	18841
2026-01-12 01:46:27.77	268.21	46.65	-54.1	-68.0	3.8	1.49e+00	0	23	104	0	73	18877
2026-01-12 01:46:29.07	267.66	46.38	-54.0	-68.0	3.8	1.49e+00	0	23	104	0	73	18879
2026-01-12 01:46:29.79	267.36	46.23	-54.1	-68.0	3.8	1.49e+00	0	23	104	0	73	18796
2026-01-12 01:46:31.08	266.83	45.96	-54.1	-68.0	3.8	1.49e+00	0	23	104	0	73	18884
2026-01-12 01:46:31.80	266.54	45.81	-54.1	-68.0	3.8	1.49e+00	0	23	104	0	73	18839
2026-01-12 01:46:33.10	266.02	45.53	-54.1	-68.0	3.8	1.49e+00	0	23	104	0	73	18879
2026-01-12 01:46:33.82	265.74	45.38	-54.1	-68.0	3.8	1.49e+00	0	23	104	0	73	18820
2026-01-12 01:46:35.11	265.24	45.11	-54.1	-68.0	3.8	1.49e+00	0	23	104	0	73	18861
2026-01-12 01:46:35.83	264.96	44.96	-54.1	-68.0	3.8	1.49e+00	0	23	104	0	73	18809
2026-01-12 01:46:37.13	264.47	44.68	-54.1	-68.0	3.8	1.49e+00	0	23	104	0	73	18825
2026-01-12 01:46:37.84	264.21	44.53	-54.0	-68.0	3.8	1.49e+00	0	23	104	0	73	18811
2026-01-12 01:46:39.14	263.73	44.25	-54.0	-68.0	3.8	1.49e+00	0	23	104	0	73	18870
2026-01-12 01:46:39.86	263.47	44.10	-54.1	-68.0	3.8	1.49e+00	0	23	104	0	73	18870
2026-01-12 01:46:41.16	263.00	43.82	-54.1	-68.0	3.8	1.49e+00	0	23	104	0	73	18919
2026-01-12 01:46:41.87	262.75	43.67	-54.1	-68.0	3.8	1.49e+00	0	23	104	0	73	18887
2026-01-12 01:46:43.17	262.30	43.39	-54.1	-68.0	3.8	1.49e+00	0	23	104	0	73	18863
2026-01-12 01:46:43.89	262.05	43.24	-54.1	-68.0	3.8	1.49e+00	0	23	104	0	73	18820
2026-01-12 01:46:45.19	261.61	42.96	-54.1	-68.0	3.8	1.49e+00	0	23	104	0	73	18850
2026-01-12 01:46:45.91	261.37	42.81	-54.1	-68.0	3.8	1.49e+00	0	23	104	0	73	18869
2026-01-12 01:46:47.21	260.94	42.53	-54.1	-68.0	3.8	1.49e+00	0	23	104	0	73	18858
2026-01-12 01:46:47.93	260.70	42.38	-54.1	-68.0	3.8	1.49e+00	0	23	104	0	73	18826
2026-01-12 01:46:49.23	260.29	42.10	-54.0	-68.0	3.8	1.49e+00	0	23	104	0	73	18837
2026-01-12 01:46:49.95	260.06	41.95	-54.1	-68.0	3.8	1.49e+00	0	23	104	0	73	18893
2026-01-12 01:46:51.24	259.65	41.67	-54.1	-68.0	3.8	1.49e+00	0	23	104	0	73	18893
2026-01-12 01:46:51.96	259.43	41.52	-54.1	-68.0	3.8	1.49e+00	0	23	104	0	73	18812
2026-01-12 01:46:53.26	259.03	41.25	-54.1	-68.0	3.8	1.49e+00	0	23	104	0	73	18826
2026-01-12 01:46:53.98	258.82	41.09	-54.1	-68.0	3.8	1.49e+00	0	23	104	0	73	18827
2026-01-12 01:46:55.28	258.43	40.82	-54.1	-68.0	3.8	1.49e+00	0	23	104	0	73	18812
2026-01-12 01:46:56.00	258.22	40.67	-54.1	-68.0	3.8	1.49e+00	0	23	104	0	73	18778
2026-01-12 01:46:57.30	257.85	40.39	-54.1	-68.0	3.8	1.49e+00	0	23	104	0	73	18797
2026-01-12 01:46:58.02	257.64	40.24	-54.1	-68.0	3.8	1.49e+00	0	23	104	0	73	18805
2026-01-12 01:46:59.31	257.28	39.97	-54.1	-68.0	3.8	1.49e+00	0	23	104	0	73	18857
2026-01-12 01:47:00.04	257.07	39.82	-54.1	-68.0	3.8	1.49e+00	0	23	104	0	73	18845
2026-01-12 01:47:01.33	256.72	39.55	-54.1	-68.0	3.8	1.49e+00	0	23	104	0	73	18794
2026-01-12 01:47:02.05	256.53	39.40	-54.1	-68.0	3.8	1.49e+00	0	23	104	0	73	18836
2026-01-12 01:47:03.35	256.18	39.13	-54.1	-68.0	3.8	1.49e+00	0	23	104	0	73	18886
2026-01-12 01:47:04.07	255.99	38.98	-54.1	-68.0	3.8	1.49e+00	0	23	104	0	73	18865
2026-01-12 01:47:05.37	255.65	38.72	-54.1	-68.0	3.8	1.49e+00	0	23	104	0	73	18809
2026-01-12 01:47:06.09	255.47	38.57	-54.1	-68.0	3.8	1.49e+00	0	23	104	0	73	18840
2026-01-12 01:47:07.38	255.14	38.30	-54.1	-68.0	3.8	1.49e+00	0	23	104	0	73	18824
2026-01-12 01:47:08.11	254.96	38.15	-54.1	-68.0	3.8	1.49e+00	0	23	104	0	73	18856
2026-01-12 01:47:09.40	254.64	37.89	-54.1	-68.0	3.8	1.49e+00	0	23	104	0	73	18871
2026-01-12 01:47:10.13	254.46	37.74	-54.1	-68.0	3.8	1.49e+00	0	23	104	0	73	18836
2026-01-12 01:47:11.42	254.15	37.48	-54.1	-68.0	3.8	1.49e+00	0	23	104	0	73	18848
2026-01-12 01:47:12.14	253.98	37.33	-54.1	-68.0	3.8	1.49e+00	0	23	104	0	73	18862
2026-01-12 01:47:13.44	253.67	37.07	-54.1	-68.0	3.8	1.49e+00	0	23	104	0	73	18875
2026-01-12 01:47:14.16	253.50	36.93	-54.1	-68.0	3.8	1.49e+00	0	23	104	0	73	18836
2026-01-12 01:47:15.46	253.21	36.67	-54.1	-68.0	3.8	1.49e+00	0	23	104	0	73	18873
2026-01-12 01:47:16.18	253.04	36.52	-54.1	-68.0	3.8	1.49e+00	0	23	104	0	73	18864
2026-01-12 01:47:17.48	252.75	36.27	-54.1	-68.0	3.8	1.49e+00	0	23	104	0	73	18866
2026-01-12 01:47:18.20	252.59	36.12	-54.1	-68.0	3.8	1.49e+00	0	23	104	0	73	18872
2026-01-12 01:47:19.50	252.31	35.87	-54.1	-68.0	3.8	1.49e+00	0	23	104	0	73	18897
2026-01-12 01:47:20.22	252.15	35.73	-54.1	-68.0	3.8	1.49e+00	0	23	104	0	73	18814
2026-01-12 01:47:21.51	251.88	35.47	-54.0	-68.0	3.8	1.49e+00	0	23	104	0	73	18813
2026-01-12 01:47:22.23	251.73	35.33	-54.0	-68.0	3.8	1.49e+00	0	23	104	0	73	18814
2026-01-12 01:47:23.53	251.46	35.08	-54.1	-68.0	3.8	1.49e+00	0	23	104	0	73	18832
2026-01-12 01:47:24.25	251.31	34.94	-54.1	-68.0	3.8	1.49e+00	0	23	104	0	73	18820
2026-01-12 01:47:25.55	251.05	34.69	-54.1	-68.0	3.8	1.49e+00	0	23	104	0	73	18839
2026-01-12 01:47:26.27	250.90	34.55	-54.1	-68.0	3.8	1.49e+00	0	23	104	0	73	18883
2026-01-12 01:47:27.57	250.65	34.31	-54.0	-68.0	3.8	1.49e+00	0	23	104	0	73	18858
2026-01-12 01:47:28.29	250.50	34.17	-54.1	-68.0	3.8	1.49e+00	0	23	104	0	73	18796
2026-01-12 01:47:29.59	250.25	33.92	-54.1	-68.0	3.8	1.49e+00	0	23	104	0	73	18791
2026-01-12 01:47:30.31	250.12	33.79	-54.1	-68.0	3.8	1.49e+00	0	23	104	0	73	18804
2026-01-12 01:47:31.60	249.87	33.54	-54.1	-68.0	3.8	1.49e+00	0	23	104	0	73	18826
2026-01-12 01:47:32.32	249.74	33.41	-54.1	-68.0	3.8	1.49e+00	0	23	104	0	73	18864
2026-01-12 01:47:33.62	249.50	33.17	-54.1	-68.0	3.8	1.49e+00	0	23	104	0	73	18808
2026-01-12 01:47:34.34	249.37	33.03	-54.1	-68.0	3.8	1.49e+00	0	23	104	0	73	18859
2026-01-12 01:47:35.64	249.13	32.79	-54.1	-68.0	3.8	1.49e+00	0	23	104	0	73	18848
2026-01-12 01:47:36.36	249.01	32.66	-54.1	-68.0	3.8	1.49e+00	0	23	104	0	73	18820
2026-01-12 01:47:37.65	248.78	32.42	-54.1	-68.0	3.8	1.49e+00	0	23	104	0	73	18826
2026-01-12 01:47:38.37	248.65	32.29	-54.1	-68.0	3.8	1.49e+00	0	23	104	0	73	18785
2026-01-12 01:47:39.67	248.43	32.06	-54.1	-68.0	3.8	1.49e+00	0	23	104	0	73	18825
2026-01-12 01:47:40.38	248.31	31.93	-54.1	-68.0	3.8	1.49e+00	0	23	104	0	73	18855
2026-01-12 01:47:41.68	248.09	31.69	-54.1	-68.0	3.8	1.49e+00	0	23	104	0	73	18827
2026-01-12 01:47:42.40	247.97	31.57	-54.1	-68.0	3.8	1.49e+00	0	23	104	0	73	18842
2026-01-12 01:47:43.70	247.76	31.33	-54.1	-68.0	3.8	1.49e+00	0	23	104	0	73	18798
2026-01-12 01:47:44.42	247.64	31.21	-54.1	-68.0	3.8	1.49e+00	0	23	104	0	73	18856
2026-01-12 01:47:45.72	247.43	30.98	-54.1	-68.0	3.8	1.49e+00	0	23	104	0	73	18899
2026-01-12 01:47:46.44	247.32	30.85	-54.1	-68.0	3.8	1.49e+00	0	23	104	0	73	18894
2026-01-12 01:47:47.74	247.11	30.62	-54.1	-68.0	3.8	1.49e+00	0	23	104	0	73	18816
2026-01-12 01:47:48.46	247.00	30.50	-54.1	-68.0	3.8	1.49e+00	0	23	104	0	73	18839
2026-01-12 01:47:49.76	246.80	30.27	-54.1	-68.0	3.8	1.49e+00	0	23	104	0	73	18833
2026-01-12 01:47:50.49	246.69	30.15	-54.1	-68.0	3.8	1.49e+00	0	23	104	0	73	18800
2026-01-12 01:47:51.78	246.50	29.92	-54.1	-68.0	3.8	1.49e+00	0	23	104	0	73	18893
2026-01-12 01:47:52.49	246.39	29.80	-54.1	-68.0	3.8	1.49e+00	0	23	104	0	73	18819
2026-01-12 01:47:53.79	246.20	29.58	-54.1	-68.0	3.8	1.49e+00	0	23	104	0	73	18822
2026-01-12 01:47:54.52	246.09	29.46	-54.1	-68.0	3.8	1.49e+00	0	23	104	0	73	18854
2026-01-12 01:47:55.82	245.91	29.24	-54.1	-68.0	3.8	1.49e+00	0	23	104	0	73	18745
2026-01-12 01:47:56.54	245.80	29.12	-54.1	-68.0	3.8	1.49e+00	0	23	104	0	73	18812
2026-01-12 01:47:57.84	245.62	28.90	-54.1	-68.0	3.8	1.49e+00	0	23	104	0	73	18805
2026-01-12 01:47:58.56	245.52	28.78	-54.1	-68.0	3.8	1.49e+00	0	23	104	0	73	18897
2026-01-12 01:47:59.85	245.34	28.57	-54.1	-68.0	3.8	1.49e+00	0	23	104	0	73	18862
2026-01-12 01:48:00.57	245.24	28.45	-54.1	-68.0	3.8	1.49e+00	0	23	104	0	73	18814
2026-01-12 01:48:01.87	245.07	28.24	-54.1	-68.0	3.8	1.49e+00	0	23	104	0	73	18843
2026-01-12 01:48:02.59	244.97	28.12	-54.1	-68.0	3.8	1.49e+00	0	23	104	0	73	18853
2026-01-12 01:48:03.88	244.80	27.91	-54.1	-68.0	3.8	1.49e+00	0	23	104	0	73	18858
2026-01-12 01:48:04.60	244.71	27.79	-54.1	-68.0	3.8	1.49e+00	0	23	104	0	73	18859
2026-01-12 01:48:05.90	244.54	27.59	-54.1	-68.0	3.8	1.49e+00	0	23	104	0	73	18870
2026-01-12 01:48:06.62	244.45	27.47	-54.1	-68.0	3.8	1.49e+00	0	23	104	0	73	18875
2026-01-12 01:48:07.92	244.28	27.26	-54.1	-68.0	3.8	1.49e+00	0	23	104	0	73	18841
2026-01-12 01:48:08.64	244.19	27.15	-54.1	-68.0	3.8	1.49e+00	0	23	104	0	73	18902
2026-01-12 01:48:09.93	244.03	26.95	-54.1	-68.0	3.8	1.49e+00	0	23	104	0	73	18770
2026-01-12 01:48:10.65	243.94	26.83	-54.1	-68.0	3.8	1.49e+00	0	23	104	0	73	18824
2026-01-12 01:48:11.95	243.78	26.63	-54.1	-68.0	3.8	1.49e+00	0	23	104	0	73	18830
2026-01-12 01:48:12.67	243.70	26.52	-54.1	-68.0	3.8	1.49e+00	0	23	104	0	73	18830
2026-01-12 01:48:13.97	243.54	26.32	-54.1	-68.0	3.8	1.49e+00	0	23	104	0	73	18855
2026-01-12 01:48:14.69	243.46	26.21	-54.1	-68.0	3.8	1.49e+00	0	23	104	0	73	18862
2026-01-12 01:48:15.99	243.31	26.01	-54.1	-68.0	3.8	1.49e+00	0	23	104	0	73	18842
2026-01-12 01:48:16.71	243.22	25.90	-54.1	-68.0	3.8	1.49e+00	0	23	104	0	73	18755
2026-01-12 01:48:18.01	243.07	25.70	-54.1	-68.0	3.8	1.49e+00	0	23	104	0	73	18813
2026-01-12 01:48:18.73	242.99	25.59	-54.1	-68.0	3.8	1.49e+00	0	23	104	0	73	18857
2026-01-12 01:48:20.03	242.84	25.40	-54.1	-68.0	3.8	1.49e+00	0	23	104	0	73	18831
2026-01-12 01:48:20.75	242.76	25.29	-54.1	-68.0	3.8	1.49e+00	0	23	104	0	73	18808
2026-01-12 01:48:22.04	242.62	25.10	-54.1	-68.0	3.8	1.49e+00	0	23	104	0	73	18793
2026-01-12 01:48:22.76	242.54	24.99	-54.1	-68.0	3.8	1.49e+00	0	23	104	0	73	18842
2026-01-12 01:48:24.06	242.40	24.80	-54.1	-68.0	3.8	1.49e+00	0	23	104	0	73	18832
2026-01-12 01:48:24.78	242.33	24.70	-54.1	-68.0	3.8	1.49e+00	0	23	104	0	73	18830
2026-01-12 01:48:26.07	242.19	24.51	-54.1	-68.0	3.8	1.49e+00	0	23	104	0	73	18874
2026-01-12 01:48:26.79	242.11	24.40	-54.1	-68.0	3.8	1.49e+00	0	23	104	0	73	18817
2026-01-12 01:48:28.09	241.98	24.22	-54.1	-68.0	3.8	1.49e+00	0	23	104	0	73	18824
2026-01-12 01:48:28.81	241.90	24.11	-54.1	-68.0	3.8	1.49e+00	0	23	104	0	73	18884
2026-01-12 01:48:30.10	241.77	23.93	-54.1	-68.0	3.8	1.49e+00	0	23	104	0	73	18858
2026-01-12 01:48:30.83	241.70	23.82	-54.1	-68.0	3.8	1.49e+00	0	23	104	0	73	18818
2026-01-12 01:48:32.12	241.57	23.64	-54.1	-68.0	3.8	1.49e+00	0	23	104	0	73	18933
2026-01-12 01:48:32.84	241.50	23.54	-54.1	-68.0	3.8	1.49e+00	0	23	104	0	73	18850
2026-01-12 01:48:34.14	241.37	23.36	-54.1	-68.0	3.8	1.49e+00	0	23	104	0	73	18874
2026-01-12 01:48:34.86	241.30	23.26	-54.1	-68.0	3.8	1.49e+00	0	23	104	0	73	18871
2026-01-12 01:48:36.16	241.17	23.08	-54.1	-68.0	3.8	1.49e+00	0	23	104	0	73	18918
2026-01-12 01:48:36.88	241.10	22.98	-54.1	-68.0	3.8	1.49e+00	0	23	104	0	73	18898
2026-01-12 01:48:38.18	240.98	22.80	-54.1	-68.0	3.8	1.49e+00	0	23	104	0	73	18852
2026-01-12 01:48:38.90	240.91	22.70	-54.1	-68.0	3.8	1.49e+00	0	23	104	0	73	18838
2026-01-12 01:48:40.20	240.79	22.52	-54.1	-68.0	3.8	1.49e+00	0	23	104	0	73	18850
2026-01-12 01:48:40.92	240.73	22.42	-54.1	-68.0	3.8	1.49e+00	0	23	104	0	73	18909
2026-01-12 01:48:42.22	240.61	22.25	-54.1	-68.0	3.8	1.49e+00	0	23	104	0	73	18835
2026-01-12 01:48:42.94	240.54	22.15	-54.1	-68.0	3.9	1.49e+00	0	23	104	0	73	18852
2026-01-12 01:48:44.24	240.43	21.98	-54.1	-68.0	3.8	1.49e+00	0	23	104	0	73	18910
2026-01-12 01:48:44.96	240.36	21.88	-54.1	-68.0	3.8	1.49e+00	0	23	104	0	73	18844
2026-01-12 01:48:46.26	240.25	21.71	-54.1	-68.0	3.8	1.49e+00	0	23	104	0	73	18882
2026-01-12 01:48:46.98	240.18	21.61	-54.1	-68.0	3.8	1.49e+00	0	23	104	0	73	18902
2026-01-12 01:48:48.28	240.07	21.44	-54.1	-68.0	3.8	1.49e+00	0	23	104	0	73	18828
2026-01-12 01:48:49.00	240.01	21.35	-54.1	-68.0	3.8	1.49e+00	0	23	104	0	73	18851
2026-01-12 01:48:50.30	239.90	21.18	-54.1	-68.0	3.8	1.49e+00	0	23	104	0	73	18880
2026-01-12 01:48:51.02	239.84	21.09	-54.1	-68.0	3.8	1.49e+00	0	23	104	0	73	18886
2026-01-12 01:48:52.31	239.73	20.92	-54.1	-68.0	3.8	1.49e+00	0	23	104	0	73	18827
2026-01-12 01:48:53.03	239.67	20.83	-54.1	-68.0	3.8	1.49e+00	0	23	104	0	73	18902
2026-01-12 01:48:54.33	239.56	20.66	-54.1	-68.0	3.8	1.49e+00	0	23	104	0	73	18800
2026-01-12 01:48:55.05	239.50	20.57	-54.1	-68.0	3.8	1.49e+00	0	23	104	0	73	18829
2026-01-12 01:48:56.35	239.40	20.41	-54.1	-68.0	3.8	1.49e+00	0	23	104	0	73	18920
2026-01-12 01:48:57.07	239.34	20.32	-54.1	-68.0	3.8	1.49e+00	0	23	104	0	73	18863
2026-01-12 01:48:58.36	239.24	20.15	-54.0	-68.0	3.8	1.49e+00	0	23	104	0	73	18825
2026-01-12 01:48:59.08	239.18	20.06	-54.1	-68.0	3.8	1.49e+00	0	23	104	0	73	18849
2026-01-12 01:49:00.38	239.08	19.90	-54.1	-68.0	3.8	1.49e+00	0	23	104	0	73	18865
2026-01-12 01:49:01.11	239.02	19.81	-54.1	-68.0	3.8	1.49e+00	0	23	104	0	73	18925
2026-01-12 01:49:02.40	238.93	19.65	-54.1	-68.0	3.8	1.49e+00	0	23	104	0	73	18858
2026-01-12 01:49:03.12	238.87	19.57	-54.1	-68.0	3.8	1.49e+00	0	23	104	0	73	18887
2026-01-12 01:49:04.42	238.77	19.41	-54.1	-68.0	3.8	1.49e+00	0	23	104	0	73	18808
2026-01-12 01:49:05.14	238.72	19.32	-54.1	-68.0	3.8	1.49e+00	0	23	104	0	73	18832
2026-01-12 01:49:06.44	238.62	19.16	-54.1	-68.0	3.8	1.49e+00	0	23	104	0	73	18773
2026-01-12 01:49:07.16	238.57	19.08	-54.1	-68.0	3.8	1.49e+00	0	23	104	0	73	18849
2026-01-12 01:49:08.46	238.47	18.92	-54.1	-68.0	3.8	1.49e+00	0	23	104	0	73	18827
2026-01-12 01:49:09.18	238.42	18.83	-54.1	-68.0	3.8	1.49e+00	0	23	104	0	73	18887
2026-01-12 01:49:10.48	238.33	18.68	-54.1	-68.0	3.8	1.49e+00	0	23	104	0	73	18890
2026-01-12 01:49:11.20	238.28	18.59	-54.1	-68.0	3.8	1.49e+00	0	23	104	0	73	18788
2026-01-12 01:49:12.50	238.19	18.44	-54.1	-68.0	3.8	1.49e+00	0	23	104	0	73	18806
2026-01-12 01:49:13.22	238.14	18.36	-54.1	-68.0	3.8	1.49e+00	0	23	104	0	73	18850
2026-01-12 01:49:14.52	238.05	18.20	-54.1	-68.0	3.8	1.49e+00	0	23	104	0	73	18752
2026-01-12 01:49:15.23	238.00	18.12	-54.1	-68.0	3.8	1.49e+00	0	23	104	0	73	18821
2026-01-12 01:49:16.53	237.91	17.97	-54.1	-68.0	3.8	1.49e+00	0	23	104	0	73	18821
2026-01-12 01:49:17.25	237.86	17.89	-54.1	-68.0	3.8	1.49e+00	0	23	104	0	73	18860
2026-01-12 01:49:18.55	237.77	17.74	-54.1	-68.0	3.8	1.49e+00	0	23	104	0	73	18849
2026-01-12 01:49:19.27	237.72	17.66	-54.1	-68.0	3.8	1.49e+00	0	23	104	0	73	18847
2026-01-12 01:49:20.57	237.64	17.51	-54.1	-68.0	3.8	1.49e+00	0	23	104	0	73	18849
2026-01-12 01:49:21.29	237.59	17.43	-54.1	-68.0	3.8	1.49e+00	0	23	104	0	73	18925
2026-01-12 01:49:22.58	237.51	17.28	-54.1	-68.0	3.8	1.49e+00	0	23	104	0	73	18820
2026-01-12 01:49:23.31	237.46	17.20	-54.1	-68.0	3.8	1.49e+00	0	23	104	0	73	18810
2026-01-12 01:49:24.61	237.37	17.06	-54.1	-68.0	3.8	1.49e+00	0	23	104	0	73	18844
2026-01-12 01:49:25.32	237.33	16.98	-54.1	-68.0	3.8	1.49e+00	0	23	104	0	73	18805
2026-01-12 01:49:26.62	237.25	16.83	-54.0	-68.0	3.8	1.49e+00	0	23	104	0	73	18853
2026-01-12 01:49:27.34	237.20	16.75	-54.0	-68.0	3.8	1.49e+00	0	23	104	0	73	18837
2026-01-12 01:49:28.64	237.12	16.61	-54.1	-68.0	3.8	1.49e+00	0	23	104	0	73	18873
2026-01-12 01:49:29.36	237.08	16.53	-54.0	-68.0	3.8	1.49e+00	0	23	104	0	73	18877
2026-01-12 01:49:30.66	237.00	16.39	-54.1	-68.0	3.8	1.49e+00	0	23	104	0	73	18885
2026-01-12 01:49:31.38	236.95	16.31	-54.1	-68.0	3.8	1.49e+00	0	23	104	0	73	18855
2026-01-12 01:49:32.68	236.87	16.17	-54.1	-68.0	3.8	1.49e+00	0	23	104	0	73	18865
2026-01-12 01:49:33.40	236.83	16.09	-54.1	-68.0	3.8	1.49e+00	0	23	104	0	73	18850
2026-01-12 01:49:34.70	236.75	15.95	-54.1	-68.0	3.8	1.49e+00	0	23	104	0	73	18836
2026-01-12 01:49:35.42	236.71	15.88	-54.1	-68.0	3.8	1.49e+00	0	23	104	0	73	18834
2026-01-12 01:49:36.71	236.64	15.74	-54.1	-68.0	3.8	1.49e+00	0	23	104	0	73	18854
2026-01-12 01:49:37.43	236.59	15.66	-54.1	-68.0	3.8	1.49e+00	0	23	104	0	73	18826
2026-01-12 01:49:38.72	236.52	15.53	-54.1	-68.0	3.8	1.49e+00	0	23	104	0	73	18792
2026-01-12 01:49:39.44	236.48	15.45	-54.1	-68.0	3.8	1.49e+00	0	23	104	0	73	18868
2026-01-12 01:49:40.74	236.40	15.32	-54.1	-68.0	3.8	1.49e+00	0	23	104	0	73	18874
2026-01-12 01:49:41.46	236.36	15.24	-54.1	-68.0	3.8	1.49e+00	0	23	104	0	73	18877
2026-01-12 01:49:42.76	236.29	15.11	-54.1	-68.0	3.8	1.49e+00	0	23	104	0	73	18809
2026-01-12 01:49:43.48	236.25	15.03	-54.1	-68.0	3.8	1.49e+00	0	23	104	0	73	18811
2026-01-12 01:49:44.78	236.18	14.90	-54.1	-68.0	3.8	1.49e+00	0	23	104	0	73	18838
2026-01-12 01:49:45.50	236.14	14.82	-54.1	-68.0	3.8	1.49e+00	0	23	104	0	73	18835
2026-01-12 01:49:46.80	236.07	14.69	-54.1	-68.0	3.8	1.49e+00	0	23	104	0	73	18851
2026-01-12 01:49:47.52	236.03	14.62	-54.1	-68.0	3.8	1.49e+00	0	23	104	0	73	18821
2026-01-12 01:49:48.82	235.96	14.49	-54.1	-68.0	3.8	1.49e+00	0	23	104	0	73	18781
2026-01-12 01:49:49.54	235.92	14.41	-54.1	-68.0	3.8	1.49e+00	0	23	104	0	73	18852
2026-01-12 01:49:50.83	235.85	14.28	-54.1	-68.0	3.8	1.49e+00	0	23	104	0	73	18860
2026-01-12 01:49:51.56	235.82	14.21	-54.1	-68.0	3.8	1.49e+00	0	23	104	0	73	18811
2026-01-12 01:49:52.85	235.75	14.08	-54.1	-68.0	3.8	1.49e+00	0	23	104	0	73	18874
2026-01-12 01:49:53.57	235.71	14.01	-54.1	-68.0	3.8	1.49e+00	0	23	104	0	73	18886
2026-01-12 01:49:54.87	235.65	13.88	-54.1	-68.0	3.8	1.49e+00	0	23	104	0	73	18769
2026-01-12 01:49:55.59	235.61	13.81	-54.1	-68.0	3.8	1.49e+00	0	23	104	0	73	18807
2026-01-12 01:49:56.89	235.54	13.68	-54.1	-68.0	3.8	1.49e+00	0	23	104	0	73	18856
2026-01-12 01:49:57.61	235.51	13.61	-54.1	-68.0	3.8	1.49e+00	0	23	104	0	73	18851
2026-01-12 01:49:58.91	235.44	13.49	-54.1	-68.0	3.8	1.49e+00	0	23	104	0	73	18824
2026-01-12 01:49:59.62	235.41	13.42	-54.1	-68.0	3.8	1.49e+00	0	23	104	0	73	18842
2026-01-12 01:50:00.92	235.34	13.29	-54.1	-68.0	3.8	1.49e+00	0	23	104	0	73	18840
2026-01-12 01:50:01.64	235.31	13.22	-54.1	-68.0	3.8	1.49e+00	0	23	104	0	73	18793
2026-01-12 01:50:02.94	235.24	13.10	-54.1	-68.0	3.8	1.49e+00	0	23	104	0	73	18747
2026-01-12 01:50:03.66	235.21	13.03	-54.1	-68.0	3.8	1.49e+00	0	23	104	0	73	18784
2026-01-12 01:50:04.96	235.15	12.90	-54.1	-68.0	3.8	1.49e+00	0	23	104	0	73	18870
2026-01-12 01:50:05.68	235.11	12.83	-54.1	-68.0	3.8	1.49e+00	0	23	104	0	73	18788
2026-01-12 01:50:06.97	235.05	12.71	-54.1	-68.0	3.8	1.49e+00	0	23	104	0	73	18843
2026-01-12 01:50:07.69	235.02	12.64	-54.1	-68.0	3.8	1.49e+00	0	23	104	0	73	18821
2026-01-12 01:50:08.98	234.96	12.52	-54.1	-68.0	3.8	1.49e+00	0	23	104	0	73	18848
2026-01-12 01:50:09.70	234.93	12.46	-54.1	-68.0	3.8	1.49e+00	0	23	104	0	73	18838
2026-01-12 01:50:11.00	234.87	12.33	-54.1	-68.0	3.8	1.49e+00	0	23	104	0	73	18825
2026-01-12 01:50:11.72	234.83	12.27	-54.1	-68.0	3.8	1.49e+00	0	23	104	0	73	18865
2026-01-12 01:50:13.02	234.77	12.15	-54.1	-68.0	3.8	1.49e+00	0	23	104	0	73	18845
2026-01-12 01:50:13.74	234.74	12.08	-54.1	-68.0	3.8	1.49e+00	0	23	104	0	73	18833
2026-01-12 01:50:15.03	234.68	11.96	-54.1	-68.0	3.8	1.49e+00	0	23	104	0	73	18823
2026-01-12 01:50:15.75	234.65	11.90	-54.1	-68.0	3.8	1.49e+00	0	23	104	0	73	18839
2026-01-12 01:50:17.05	234.60	11.78	-54.1	-68.0	3.8	1.49e+00	0	23	104	0	73	18796
2026-01-12 01:50:17.77	234.56	11.71	-54.1	-68.0	3.8	1.49e+00	0	23	104	0	73	18838
2026-01-12 01:50:19.07	234.51	11.59	-54.1	-68.0	3.8	1.49e+00	0	23	104	0	73	18862
2026-01-12 01:50:19.79	234.48	11.53	-54.1	-68.0	3.8	1.49e+00	0	23	104	0	73	18855
2026-01-12 01:50:21.08	234.42	11.41	-54.1	-68.0	3.8	1.49e+00	0	23	104	0	73	18920
2026-01-12 01:50:21.80	234.39	11.35	-54.1	-68.0	3.8	1.49e+00	0	23	104	0	73	18884
2026-01-12 01:50:23.10	234.33	11.23	-54.1	-68.0	3.8	1.49e+00	0	23	104	0	73	18925
2026-01-12 01:50:23.82	234.30	11.17	-54.1	-68.0	3.8	1.49e+00	0	23	104	0	73	18886
2026-01-12 01:50:25.12	234.25	11.05	-54.1	-68.0	3.8	1.49e+00	0	23	104	0	73	18790
2026-01-12 01:50:25.84	234.22	10.99	-54.1	-68.0	3.8	1.49e+00	0	23	104	0	73	18842
2026-01-12 01:50:27.14	234.17	10.88	-54.1	-68.0	3.8	1.49e+00	0	23	104	0	73	18822
2026-01-12 01:50:27.86	234.14	10.81	-54.1	-68.0	3.8	1.49e+00	0	23	104	0	73	18838
2026-01-12 01:50:29.15	234.08	10.70	-54.1	-68.0	3.8	1.49e+00	0	23	104	0	73	18814
2026-01-12 01:50:29.87	234.06	10.64	-54.1	-68.0	3.8	1.49e+00	0	23	104	0	73	18782
2026-01-12 01:50:31.17	234.00	10.52	-54.1	-68.0	3.8	1.49e+00	0	23	104	0	73	18788
2026-01-12 01:50:31.89	233.97	10.46	-54.1	-68.0	3.8	1.49e+00	0	23	104	0	73	18851
2026-01-12 01:50:33.18	233.92	10.35	-54.1	-68.0	3.8	1.49e+00	0	23	104	0	73	18809
2026-01-12 01:50:33.91	233.89	10.29	-54.1	-68.0	3.8	1.49e+00	0	23	104	0	73	18815
2026-01-12 01:50:35.21	233.84	10.18	-54.1	-68.0	3.8	1.49e+00	0	23	104	0	73	18838
2026-01-12 01:50:35.93	233.82	10.11	-54.1	-68.0	3.8	1.49e+00	0	23	104	0	73	18821
2026-01-12 01:50:37.23	233.77	10.00	-54.1	-68.0	3.8	1.49e+00	0	23	104	0	73	18811
2026-01-12 01:50:37.95	233.74	9.94	-54.1	-68.0	3.8	1.49e+00	0	23	104	0	73	18800
2026-01-12 01:50:39.25	233.69	9.83	-54.1	-68.0	3.8	1.49e+00	0	23	104	0	73	18849
2026-01-12 01:50:39.97	233.66	9.77	-54.1	-68.0	3.8	1.49e+00	0	23	104	0	73	18872
2026-01-12 01:50:41.27	233.61	9.66	-54.1	-68.0	3.8	1.49e+00	0	23	104	0	73	18864
