passes_logs/2026/01/12/R3.2S_Murmansk/R3.2S_Murmansk__20260112_020326_AQUA_rec.log

#Pass ID: 20260112_020326_AQUA
#Satellite: AQUA
#Configuration: AQUA
#almurnet v.1.7.20251203
#Start time: 2026-01-12 02:03:27

#Version: 2.2.20231116
#Station: R3.2S_Murmansk
#Location: 33.079688 lon 68.888172 lat
#TLE: 1 27424U 02022A   26011.60158398  .00001056  00000+0  22133-3 0  9990
#TLE: 2 27424  98.4078 337.9720 0002034  82.3051 337.8743 14.61815760260390

#Time	Az	El	Level	Level2	SNR	BER	BlckErr	Temp	State	Recorded	gain1	gain2
2026-01-12 02:03:27.91	22.95	2.09	-53.5	-72.8	3.8	7.50e-01	0	21	0	0	74	36009
2026-01-12 02:03:28.92	22.97	2.16	-53.5	-72.8	3.8	7.48e-01	0	21	104	0	74	35876
2026-01-12 02:03:29.92	22.98	2.22	-53.5	-72.8	3.8	7.46e-01	0	21	104	0	74	35850
2026-01-12 02:03:30.94	22.99	2.29	-53.5	-72.8	3.8	7.45e-01	0	21	104	0	74	35800
2026-01-12 02:03:31.94	23.00	2.36	-53.5	-72.8	3.8	7.46e-01	0	21	104	0	74	36032
2026-01-12 02:03:32.95	23.02	2.43	-53.5	-72.9	3.8	7.48e-01	0	21	104	0	74	36130
2026-01-12 02:03:33.96	23.03	2.49	-53.5	-72.8	3.8	7.47e-01	0	21	104	0	74	36077
2026-01-12 02:03:34.97	23.04	2.56	-53.5	-72.8	3.8	7.44e-01	0	21	104	0	74	35799
2026-01-12 02:03:35.98	23.06	2.63	-53.5	-72.8	3.9	7.43e-01	0	21	104	0	74	36022
2026-01-12 02:03:36.99	23.07	2.70	-53.5	-72.8	3.8	7.48e-01	0	21	104	0	74	36092
2026-01-12 02:03:38.00	23.08	2.77	-53.5	-72.9	3.8	7.44e-01	0	21	104	0	74	36160
2026-01-12 02:03:39.01	23.10	2.84	-53.5	-72.8	3.8	7.45e-01	0	21	104	0	74	35974
2026-01-12 02:03:40.02	23.11	2.91	-53.6	-72.9	3.8	7.47e-01	0	21	104	0	74	36126
2026-01-12 02:03:41.03	23.12	2.97	-53.6	-72.9	3.8	7.49e-01	0	21	104	0	74	36231
2026-01-12 02:03:42.04	23.13	3.04	-53.5	-72.8	3.8	7.46e-01	0	21	104	0	74	36071
2026-01-12 02:03:43.05	23.15	3.11	-53.6	-72.8	3.8	7.47e-01	0	21	104	0	74	36076
2026-01-12 02:03:44.06	23.16	3.18	-53.6	-72.8	3.8	7.48e-01	0	21	104	0	74	36024
2026-01-12 02:03:45.06	23.17	3.25	-53.6	-72.9	3.8	7.46e-01	0	21	104	0	74	36160
2026-01-12 02:03:46.07	23.19	3.32	-53.6	-72.8	3.8	7.47e-01	0	21	104	0	74	35955
2026-01-12 02:03:47.08	23.20	3.39	-53.6	-72.9	3.8	7.49e-01	0	21	104	0	74	36112
2026-01-12 02:03:48.09	23.21	3.46	-53.6	-72.9	3.8	7.42e-01	0	21	104	0	74	36308
2026-01-12 02:03:49.10	23.23	3.53	-53.6	-72.9	3.8	7.45e-01	0	21	104	0	74	36168
2026-01-12 02:03:50.11	23.24	3.60	-53.6	-72.9	3.8	7.49e-01	0	21	104	0	74	36112
2026-01-12 02:03:51.12	23.25	3.67	-53.6	-72.9	3.8	7.45e-01	0	21	104	0	74	36130
2026-01-12 02:03:52.13	23.27	3.75	-53.5	-72.9	3.8	7.48e-01	0	21	104	0	74	36182
2026-01-12 02:03:53.14	23.28	3.82	-53.6	-72.9	3.8	7.45e-01	0	21	104	0	74	36148
2026-01-12 02:03:54.15	23.30	3.89	-53.6	-72.8	3.8	7.43e-01	0	21	104	0	74	36055
2026-01-12 02:03:55.16	23.31	3.96	-53.6	-72.8	3.8	7.46e-01	0	21	104	0	74	36099
2026-01-12 02:03:56.17	23.32	4.03	-53.6	-72.8	3.8	7.46e-01	0	21	104	0	74	36064
2026-01-12 02:03:57.17	23.34	4.10	-53.6	-72.7	3.8	7.42e-01	0	21	104	0	74	35691
2026-01-12 02:03:58.18	23.35	4.18	-53.6	-72.7	3.8	7.45e-01	0	21	104	0	74	35638
2026-01-12 02:03:59.19	23.37	4.25	-53.6	-72.8	3.8	7.48e-01	0	21	104	0	74	35992
2026-01-12 02:04:00.20	23.38	4.32	-53.6	-72.8	3.8	7.46e-01	0	21	104	0	74	36037
2026-01-12 02:04:01.21	23.39	4.40	-53.6	-72.8	3.8	7.48e-01	0	21	104	0	74	35843
2026-01-12 02:04:02.22	23.41	4.47	-53.6	-72.8	3.8	7.46e-01	0	21	104	0	74	35831
2026-01-12 02:04:03.23	23.42	4.54	-53.6	-72.7	3.8	7.43e-01	0	21	104	0	74	35467
2026-01-12 02:04:04.23	23.44	4.62	-53.6	-72.8	3.8	7.47e-01	0	22	104	0	74	35947
2026-01-12 02:04:05.24	23.45	4.69	-53.6	-72.8	3.8	7.48e-01	0	21	104	0	74	35756
2026-01-12 02:04:06.25	23.46	4.76	-53.6	-72.7	3.8	7.47e-01	0	22	104	0	74	35649
2026-01-12 02:04:07.26	23.48	4.84	-53.6	-72.8	3.8	7.47e-01	0	22	104	0	74	35961
2026-01-12 02:04:08.27	23.49	4.91	-53.6	-72.7	3.8	7.43e-01	0	22	104	0	74	35621
2026-01-12 02:04:09.28	23.51	4.99	-53.6	-72.8	3.8	7.45e-01	0	22	104	0	74	36012
2026-01-12 02:04:10.29	23.52	5.06	-53.6	-72.7	3.8	7.46e-01	0	21	104	0	74	35594
2026-01-12 02:04:11.30	23.54	5.14	-53.6	-72.8	3.8	7.47e-01	0	22	104	0	74	36007
2026-01-12 02:04:12.31	23.55	5.21	-53.6	-72.8	3.8	7.46e-01	0	22	104	0	74	35852
2026-01-12 02:04:13.32	23.57	5.29	-53.6	-72.7	3.8	7.44e-01	0	22	104	0	74	35600
2026-01-12 02:04:14.33	23.58	5.37	-53.6	-72.8	3.8	7.47e-01	0	22	104	0	74	35959
2026-01-12 02:04:15.33	23.60	5.44	-53.6	-72.8	3.8	7.45e-01	0	22	104	0	74	35961
2026-01-12 02:04:16.34	23.61	5.52	-53.6	-72.8	3.8	7.47e-01	0	22	104	0	74	35801
2026-01-12 02:04:17.36	23.63	5.60	-53.6	-72.8	3.8	7.49e-01	0	22	104	0	74	36029
2026-01-12 02:04:18.36	23.64	5.67	-53.6	-72.8	3.8	7.45e-01	0	22	104	0	74	35901
2026-01-12 02:04:19.38	23.66	5.75	-53.6	-72.9	3.8	7.47e-01	0	22	104	0	74	36149
2026-01-12 02:04:20.39	23.67	5.83	-53.6	-72.8	3.8	7.46e-01	0	22	104	0	74	36091
2026-01-12 02:04:21.39	23.69	5.90	-53.6	-72.9	3.8	7.47e-01	0	22	104	0	74	36151
2026-01-12 02:04:22.41	23.70	5.98	-53.6	-72.9	3.8	7.46e-01	0	22	104	0	74	36227
2026-01-12 02:04:23.41	23.72	6.06	-53.6	-72.9	3.8	7.47e-01	0	22	104	0	74	36199
2026-01-12 02:04:24.42	23.73	6.14	-53.6	-72.9	3.8	7.44e-01	0	22	104	0	74	36295
2026-01-12 02:04:25.42	23.75	6.22	-53.6	-72.8	3.8	7.43e-01	0	22	104	0	74	35983
2026-01-12 02:04:26.43	23.76	6.30	-53.6	-72.9	3.8	7.44e-01	0	22	104	0	74	36382
2026-01-12 02:04:27.44	23.78	6.38	-53.6	-72.9	3.8	7.47e-01	0	22	104	0	74	36204
2026-01-12 02:04:28.45	23.79	6.46	-53.6	-72.9	3.8	7.47e-01	0	22	104	0	74	36304
2026-01-12 02:04:29.46	23.81	6.54	-53.6	-72.9	3.8	7.49e-01	0	22	104	0	74	36194
2026-01-12 02:04:30.46	23.83	6.62	-53.6	-72.9	3.8	7.46e-01	0	22	104	0	74	36330
2026-01-12 02:04:31.47	23.84	6.70	-53.6	-72.9	3.8	7.48e-01	0	22	104	0	74	36302
2026-01-12 02:04:32.48	23.86	6.78	-53.6	-72.9	3.8	7.46e-01	0	22	104	0	74	36229
2026-01-12 02:04:33.49	23.87	6.86	-53.6	-72.9	3.8	7.46e-01	0	22	104	0	74	36274
2026-01-12 02:04:34.50	23.89	6.94	-53.6	-72.9	3.8	7.46e-01	0	22	104	0	74	36280
2026-01-12 02:04:35.50	23.91	7.02	-53.6	-72.9	3.8	7.47e-01	0	22	104	0	74	36321
2026-01-12 02:04:36.52	23.92	7.10	-53.6	-72.9	3.8	7.48e-01	0	22	104	0	74	36357
2026-01-12 02:04:37.52	23.94	7.19	-53.6	-72.9	3.8	7.48e-01	0	22	104	0	74	36216
2026-01-12 02:04:38.53	23.96	7.27	-53.6	-72.9	3.8	7.50e-01	0	22	104	0	74	36343
2026-01-12 02:04:39.54	23.97	7.35	-53.6	-72.9	3.8	7.44e-01	0	22	104	0	74	36265
2026-01-12 02:04:40.55	23.99	7.43	-53.6	-72.9	3.8	7.47e-01	0	22	104	0	74	36358
2026-01-12 02:04:41.55	24.00	7.52	-53.6	-72.9	3.8	7.45e-01	0	22	104	0	74	36492
2026-01-12 02:04:42.57	24.02	7.60	-53.6	-72.9	3.8	7.47e-01	0	22	104	0	74	36506
2026-01-12 02:04:43.58	24.04	7.69	-53.6	-72.9	3.8	7.48e-01	0	22	104	0	74	36456
2026-01-12 02:04:44.59	24.05	7.77	-53.6	-72.9	3.8	7.46e-01	0	22	104	0	74	36305
2026-01-12 02:04:45.59	24.07	7.85	-53.6	-72.9	3.8	7.50e-01	0	22	104	0	74	36408
2026-01-12 02:04:46.60	24.09	7.94	-53.6	-72.9	3.8	7.45e-01	0	22	104	0	74	36456
2026-01-12 02:04:47.61	24.11	8.02	-53.6	-73.0	3.8	7.50e-01	0	22	104	0	74	36529
2026-01-12 02:04:48.62	24.12	8.11	-53.6	-72.9	3.8	7.45e-01	0	22	104	0	75	34472
2026-01-12 02:04:49.62	24.14	8.19	-53.7	-73.0	3.8	7.47e-01	0	22	104	0	75	34594
2026-01-12 02:04:50.63	24.16	8.28	-53.7	-73.0	3.8	7.44e-01	0	22	104	0	75	34583
2026-01-12 02:04:51.64	24.17	8.37	-53.7	-73.0	3.8	7.47e-01	0	22	104	0	75	34599
2026-01-12 02:04:52.65	24.19	8.45	-53.7	-73.0	3.8	7.45e-01	0	22	104	0	75	34613
2026-01-12 02:04:53.66	24.21	8.54	-53.7	-73.0	3.8	7.46e-01	0	22	104	0	75	34502
2026-01-12 02:04:54.67	24.23	8.63	-53.7	-73.0	3.8	7.46e-01	0	22	104	0	75	34520
2026-01-12 02:04:55.68	24.25	8.72	-53.7	-72.9	3.8	7.47e-01	0	22	104	0	75	34359
2026-01-12 02:04:56.69	24.26	8.81	-53.7	-73.0	3.8	7.46e-01	0	22	104	0	75	34523
2026-01-12 02:04:57.70	24.28	8.89	-53.7	-72.9	3.8	7.47e-01	0	22	104	0	75	34464
2026-01-12 02:04:58.71	24.30	8.98	-53.7	-73.0	3.8	7.44e-01	0	22	104	0	75	34533
2026-01-12 02:04:59.72	24.32	9.07	-53.7	-73.0	3.8	7.46e-01	0	22	104	0	75	34560
2026-01-12 02:05:00.73	24.34	9.16	-53.7	-73.0	3.8	7.45e-01	0	22	104	0	75	34533
2026-01-12 02:05:01.74	24.35	9.25	-53.7	-73.0	3.8	7.48e-01	0	22	104	0	75	34578
2026-01-12 02:05:02.74	24.37	9.34	-53.7	-73.0	3.8	7.50e-01	0	22	104	0	75	34657
2026-01-12 02:05:03.76	24.39	9.43	-53.7	-73.0	3.8	7.47e-01	0	22	104	0	75	34611
2026-01-12 02:05:04.76	24.41	9.52	-53.7	-73.0	3.8	7.43e-01	0	22	104	0	75	34604
2026-01-12 02:05:05.77	24.43	9.62	-53.7	-73.0	3.8	7.49e-01	0	22	104	0	75	34648
2026-01-12 02:05:06.78	24.45	9.71	-53.7	-73.0	3.8	7.49e-01	0	22	104	0	75	34615
2026-01-12 02:05:07.79	24.46	9.80	-53.7	-73.0	3.8	7.44e-01	0	22	104	0	75	34561
2026-01-12 02:05:08.80	24.48	9.89	-53.7	-73.0	3.8	7.45e-01	0	22	104	0	75	34644
2026-01-12 02:05:09.81	24.50	9.99	-53.7	-73.0	3.8	7.44e-01	0	22	104	0	75	34684
2026-01-12 02:05:10.82	24.52	10.08	-53.7	-73.0	3.8	7.42e-01	0	22	104	0	75	34667
2026-01-12 02:05:11.83	24.54	10.17	-53.7	-73.0	3.8	7.44e-01	0	22	104	0	75	34554
2026-01-12 02:05:12.84	24.56	10.27	-53.7	-73.0	3.8	7.46e-01	0	22	104	0	75	34616
2026-01-12 02:05:13.85	24.58	10.36	-53.7	-73.0	3.8	7.44e-01	0	22	104	0	75	34643
2026-01-12 02:05:14.86	24.60	10.46	-53.7	-73.0	3.8	7.45e-01	0	22	104	0	75	34684
2026-01-12 02:05:15.86	24.62	10.55	-53.7	-73.0	3.8	7.48e-01	0	22	104	0	75	34631
2026-01-12 02:05:16.87	24.64	10.65	-53.7	-73.0	3.8	7.49e-01	0	22	104	0	75	34643
2026-01-12 02:05:17.88	24.66	10.74	-53.7	-73.0	3.8	7.44e-01	0	22	104	0	75	34641
2026-01-12 02:05:18.89	24.68	10.84	-53.7	-73.0	3.8	7.47e-01	0	22	104	0	75	34636
2026-01-12 02:05:19.90	24.70	10.94	-53.7	-73.0	3.8	7.44e-01	0	22	104	0	75	34564
2026-01-12 02:05:20.91	24.72	11.04	-53.7	-73.0	3.8	7.45e-01	0	22	104	0	75	34594
2026-01-12 02:05:21.92	24.74	11.13	-53.7	-73.0	3.8	7.45e-01	0	22	104	0	75	34614
2026-01-12 02:05:22.92	24.76	11.23	-53.7	-73.0	3.8	7.48e-01	0	22	104	0	75	34681
2026-01-12 02:05:23.93	24.78	11.33	-53.7	-73.0	3.8	7.49e-01	0	22	104	0	75	34691
2026-01-12 02:05:24.94	24.80	11.43	-53.7	-73.0	3.8	7.45e-01	0	22	104	0	75	34613
2026-01-12 02:05:25.95	24.82	11.53	-53.7	-73.0	3.8	7.47e-01	0	22	104	0	75	34729
2026-01-12 02:05:26.96	24.84	11.63	-53.7	-73.0	3.8	7.47e-01	0	22	104	0	75	34637
2026-01-12 02:05:27.97	24.86	11.73	-53.7	-73.0	3.8	7.47e-01	0	22	104	0	75	34712
2026-01-12 02:05:28.97	24.88	11.83	-53.7	-73.0	3.8	7.46e-01	0	22	104	0	75	34701
2026-01-12 02:05:29.98	24.91	11.93	-53.7	-73.0	3.8	7.49e-01	0	22	104	0	75	34708
2026-01-12 02:05:30.99	24.93	12.03	-53.7	-73.0	3.8	7.45e-01	0	22	104	0	75	34646
2026-01-12 02:05:32.00	24.95	12.14	-53.7	-73.0	3.8	7.47e-01	0	22	104	0	75	34654
2026-01-12 02:05:33.00	24.97	12.24	-53.7	-73.0	3.8	7.41e-01	0	22	104	0	75	34700
2026-01-12 02:05:34.02	24.99	12.34	-53.7	-73.0	3.8	7.46e-01	0	22	104	0	75	34684
2026-01-12 02:05:35.02	25.01	12.45	-53.7	-73.0	3.8	7.46e-01	0	22	104	0	75	34725
2026-01-12 02:05:36.03	25.04	12.55	-53.7	-73.0	3.8	7.49e-01	0	22	104	0	75	34724
2026-01-12 02:05:37.04	25.06	12.66	-53.7	-73.0	3.8	7.49e-01	0	22	104	0	75	34644
2026-01-12 02:05:38.05	25.08	12.76	-53.7	-73.0	3.8	7.49e-01	0	23	104	0	75	34758
2026-01-12 02:05:39.06	25.10	12.87	-53.7	-73.0	3.8	7.41e-01	0	22	104	0	75	34625
2026-01-12 02:05:40.07	25.13	12.97	-53.7	-73.0	3.8	7.45e-01	0	22	104	0	75	34794
2026-01-12 02:05:41.08	25.15	13.08	-53.7	-73.0	3.8	7.44e-01	0	22	104	0	75	34689
2026-01-12 02:05:42.08	25.17	13.19	-53.7	-73.0	3.8	7.44e-01	0	22	104	0	75	34778
2026-01-12 02:05:43.09	25.19	13.30	-53.7	-73.0	3.8	7.45e-01	0	22	104	0	75	34774
2026-01-12 02:05:44.10	25.22	13.40	-53.7	-73.0	3.8	7.46e-01	0	23	104	0	75	34729
2026-01-12 02:05:45.11	25.24	13.51	-53.7	-73.0	3.8	7.46e-01	0	22	104	0	75	34696
2026-01-12 02:05:46.12	25.26	13.62	-53.7	-73.0	3.8	7.47e-01	0	23	104	0	75	34770
2026-01-12 02:05:47.13	25.29	13.73	-53.7	-73.0	3.8	7.44e-01	0	22	104	0	75	34693
2026-01-12 02:05:48.14	25.31	13.84	-53.7	-73.0	3.8	7.49e-01	0	23	104	0	75	34759
2026-01-12 02:05:49.14	25.34	13.95	-53.7	-73.0	3.8	7.46e-01	0	22	104	0	75	34738
2026-01-12 02:05:50.15	25.36	14.07	-53.7	-73.0	3.8	7.48e-01	0	22	104	0	75	34809
2026-01-12 02:05:51.15	25.38	14.18	-53.7	-73.0	3.8	7.46e-01	0	22	104	0	75	34708
2026-01-12 02:05:52.16	25.41	14.29	-53.7	-73.0	3.8	7.46e-01	0	23	104	0	75	34839
2026-01-12 02:05:53.17	25.43	14.41	-53.7	-73.0	3.8	7.44e-01	0	22	104	0	75	34721
2026-01-12 02:05:54.18	25.46	14.52	-53.7	-73.0	3.8	7.44e-01	0	22	104	0	75	34741
2026-01-12 02:05:55.19	25.48	14.63	-53.7	-73.0	3.8	7.45e-01	0	22	104	0	75	34678
2026-01-12 02:05:56.20	25.51	14.75	-53.7	-73.0	3.8	7.47e-01	0	22	104	0	75	34747
2026-01-12 02:05:57.20	25.53	14.86	-53.7	-73.0	3.8	7.47e-01	0	22	104	0	75	34682
2026-01-12 02:05:58.21	25.56	14.98	-53.7	-73.0	3.8	7.46e-01	0	23	104	0	75	34829
2026-01-12 02:05:59.22	25.58	15.10	-53.7	-73.0	3.8	7.44e-01	0	23	104	0	75	34767
2026-01-12 02:06:00.23	25.61	15.22	-53.7	-73.0	3.8	7.44e-01	0	23	104	0	75	34731
2026-01-12 02:06:01.24	25.63	15.34	-53.7	-73.0	3.8	7.47e-01	0	23	104	0	75	34737
2026-01-12 02:06:02.24	25.66	15.45	-53.7	-73.0	3.8	7.50e-01	0	22	104	0	75	34786
2026-01-12 02:06:03.26	25.69	15.57	-53.7	-73.0	3.8	7.46e-01	0	23	104	0	75	34745
2026-01-12 02:06:04.26	25.71	15.69	-53.7	-73.0	3.8	7.43e-01	0	22	104	0	75	34698
2026-01-12 02:06:05.27	25.74	15.81	-53.7	-73.0	3.8	7.43e-01	0	22	104	0	75	34728
2026-01-12 02:06:06.28	25.77	15.94	-53.7	-73.0	3.8	7.47e-01	0	22	104	0	75	34821
2026-01-12 02:06:07.28	25.79	16.06	-53.7	-73.0	3.8	7.47e-01	0	22	104	0	75	34816
2026-01-12 02:06:08.29	25.82	16.18	-53.7	-73.0	3.8	7.48e-01	0	23	104	0	75	34661
2026-01-12 02:06:09.30	25.85	16.30	-53.7	-73.0	3.8	7.48e-01	0	23	104	0	75	34673
2026-01-12 02:06:10.31	25.88	16.43	-53.7	-73.0	3.8	7.46e-01	0	23	104	0	75	34670
2026-01-12 02:06:11.32	25.90	16.55	-53.7	-73.0	3.8	7.44e-01	0	22	104	0	75	34715
2026-01-12 02:06:12.33	25.93	16.68	-53.7	-73.0	3.8	7.49e-01	0	22	104	0	75	34716
2026-01-12 02:06:13.34	25.96	16.81	-53.7	-73.0	3.8	7.47e-01	0	22	104	0	75	34670
2026-01-12 02:06:14.35	25.99	16.93	-53.7	-73.0	3.8	7.50e-01	0	22	104	0	75	34658
2026-01-12 02:06:15.35	26.02	17.06	-53.7	-73.0	3.8	7.46e-01	0	22	104	0	75	34750
2026-01-12 02:06:16.36	26.05	17.19	-53.7	-73.0	3.8	7.46e-01	0	22	104	0	75	34664
2026-01-12 02:06:17.36	26.08	17.32	-53.7	-73.0	3.8	7.46e-01	0	22	104	0	75	34623
2026-01-12 02:06:18.37	26.11	17.45	-53.7	-73.0	3.8	7.48e-01	0	22	104	0	75	34698
2026-01-12 02:06:19.37	26.14	17.58	-53.7	-73.0	3.8	7.47e-01	0	23	104	0	75	34710
2026-01-12 02:06:20.38	26.16	17.71	-53.7	-73.0	3.8	7.45e-01	0	22	104	0	75	34739
2026-01-12 02:06:21.39	26.20	17.84	-53.7	-73.0	3.8	7.43e-01	0	23	104	0	75	34711
2026-01-12 02:06:22.40	26.23	17.98	-53.7	-73.0	3.8	7.50e-01	0	23	104	0	75	34692
2026-01-12 02:06:23.40	26.26	18.11	-53.7	-73.0	3.8	7.51e-01	0	22	104	0	75	34702
2026-01-12 02:06:24.41	26.29	18.24	-53.7	-73.0	3.8	7.46e-01	0	23	104	0	75	34785
2026-01-12 02:06:25.42	26.32	18.38	-53.7	-73.0	3.8	7.46e-01	0	23	104	0	75	34721
2026-01-12 02:06:26.43	26.35	18.52	-53.7	-73.0	3.8	7.44e-01	0	23	104	0	75	34751
2026-01-12 02:06:27.43	26.38	18.65	-53.7	-73.0	3.8	7.46e-01	0	23	104	0	75	34653
2026-01-12 02:06:28.44	26.41	18.79	-53.7	-73.0	3.8	7.48e-01	0	22	104	0	75	34746
2026-01-12 02:06:29.45	26.44	18.93	-53.7	-73.0	3.8	7.47e-01	0	23	104	0	75	34698
2026-01-12 02:06:30.46	26.48	19.07	-53.7	-73.0	3.8	7.45e-01	0	23	104	0	75	34663
2026-01-12 02:06:31.47	26.51	19.21	-53.7	-73.0	3.8	7.42e-01	0	23	104	0	75	34819
2026-01-12 02:06:32.48	26.54	19.35	-53.7	-73.0	3.8	7.44e-01	0	22	104	0	75	34754
2026-01-12 02:06:33.49	26.58	19.50	-53.7	-73.0	3.8	7.48e-01	0	23	104	0	75	34695
2026-01-12 02:06:34.50	26.61	19.64	-53.7	-73.0	3.8	7.45e-01	0	22	104	0	75	34698
2026-01-12 02:06:35.51	26.64	19.78	-53.7	-73.0	3.8	7.41e-01	0	23	104	0	75	34764
2026-01-12 02:06:36.52	26.68	19.93	-53.7	-73.0	3.8	7.46e-01	0	22	104	0	75	34661
2026-01-12 02:06:37.53	26.71	20.08	-53.7	-73.0	3.8	7.46e-01	0	23	104	0	75	34690
2026-01-12 02:06:38.53	26.75	20.22	-53.7	-73.0	3.8	7.46e-01	0	23	104	0	75	34819
2026-01-12 02:06:39.54	26.78	20.37	-53.7	-73.0	3.8	7.44e-01	0	23	104	0	75	34746
2026-01-12 02:06:40.55	26.82	20.52	-53.7	-73.0	3.8	7.43e-01	0	23	104	0	75	34736
2026-01-12 02:06:41.55	26.85	20.67	-53.7	-73.0	3.8	7.44e-01	0	23	104	0	75	34740
2026-01-12 02:06:42.56	26.89	20.82	-53.7	-73.0	3.8	7.45e-01	0	23	104	0	75	34741
2026-01-12 02:06:43.57	26.92	20.97	-53.7	-73.0	3.8	7.45e-01	0	23	104	0	75	34715
2026-01-12 02:06:44.57	26.96	21.12	-53.7	-73.0	3.8	7.44e-01	0	23	104	0	75	34826
2026-01-12 02:06:45.58	27.00	21.28	-53.7	-73.0	3.8	7.46e-01	0	23	104	0	75	34791
2026-01-12 02:06:46.59	27.04	21.43	-53.7	-73.0	3.8	7.47e-01	0	23	104	0	75	34765
2026-01-12 02:06:47.60	27.07	21.59	-53.7	-73.0	3.8	7.47e-01	0	23	104	0	75	34714
2026-01-12 02:06:48.61	27.11	21.75	-53.7	-73.0	3.8	7.47e-01	0	23	104	0	75	34799
2026-01-12 02:06:49.62	27.15	21.90	-53.7	-73.0	3.8	7.43e-01	0	23	104	0	75	34766
2026-01-12 02:06:50.63	27.19	22.06	-53.7	-73.0	3.8	7.50e-01	0	23	104	0	75	34817
2026-01-12 02:06:51.64	27.23	22.22	-53.7	-73.0	3.8	7.45e-01	0	22	104	0	75	34754
2026-01-12 02:06:52.65	27.27	22.39	-53.7	-73.0	3.8	7.46e-01	0	23	104	0	75	34714
2026-01-12 02:06:53.66	27.31	22.55	-53.7	-73.0	3.8	7.47e-01	0	23	104	0	75	34790
2026-01-12 02:06:54.67	27.35	22.71	-53.7	-73.0	3.8	7.44e-01	0	22	104	0	75	34813
2026-01-12 02:06:55.67	27.39	22.88	-53.7	-73.0	3.8	7.48e-01	0	23	104	0	75	34746
2026-01-12 02:06:56.68	27.43	23.04	-53.7	-73.0	3.8	7.44e-01	0	23	104	0	75	34821
2026-01-12 02:06:57.69	27.47	23.21	-53.7	-73.0	3.8	7.46e-01	0	23	104	0	75	34821
2026-01-12 02:06:58.70	27.51	23.38	-53.7	-73.0	3.8	7.45e-01	0	23	104	0	75	34854
2026-01-12 02:06:59.70	27.55	23.54	-53.7	-73.0	3.8	7.43e-01	0	23	104	0	75	34832
2026-01-12 02:07:00.72	27.60	23.72	-53.7	-73.0	3.8	7.45e-01	0	22	104	0	75	34847
2026-01-12 02:07:01.72	27.64	23.89	-53.7	-73.0	3.8	7.46e-01	0	23	104	0	75	34735
2026-01-12 02:07:02.73	27.68	24.06	-53.7	-73.0	3.8	7.47e-01	0	23	104	0	75	34764
2026-01-12 02:07:03.74	27.73	24.24	-53.7	-73.0	3.8	7.42e-01	0	23	104	0	75	34706
2026-01-12 02:07:04.74	27.77	24.41	-53.7	-73.0	3.8	7.47e-01	0	23	104	0	75	34804
2026-01-12 02:07:05.75	27.82	24.59	-53.7	-73.0	3.8	7.46e-01	0	23	104	0	75	34844
2026-01-12 02:07:06.76	27.86	24.76	-53.7	-73.0	3.8	7.45e-01	0	23	104	0	75	34713
2026-01-12 02:07:07.77	27.91	24.94	-53.7	-73.0	3.8	7.47e-01	0	23	104	0	75	34866
2026-01-12 02:07:08.78	27.96	25.13	-53.7	-73.0	3.8	7.46e-01	0	23	104	0	75	34836
2026-01-12 02:07:09.79	28.00	25.31	-53.7	-73.0	3.8	7.44e-01	0	23	104	0	75	34779
2026-01-12 02:07:10.80	28.05	25.49	-53.7	-73.0	3.8	7.48e-01	0	23	104	0	75	34802
2026-01-12 02:07:11.80	28.10	25.67	-53.7	-73.0	3.8	7.44e-01	0	23	104	0	75	34816
2026-01-12 02:07:12.81	28.15	25.86	-53.7	-73.0	3.8	7.47e-01	0	23	104	0	75	34806
2026-01-12 02:07:13.82	28.20	26.05	-53.7	-73.0	3.8	7.47e-01	0	22	104	0	75	34788
2026-01-12 02:07:14.83	28.25	26.24	-53.7	-73.0	3.8	7.45e-01	0	23	104	0	75	34816
2026-01-12 02:07:15.84	28.30	26.43	-53.7	-73.0	3.8	7.48e-01	0	23	104	0	75	34847
2026-01-12 02:07:16.85	28.35	26.62	-53.7	-73.0	3.8	7.47e-01	0	23	104	0	75	34834
2026-01-12 02:07:17.85	28.40	26.81	-53.7	-73.0	3.8	7.44e-01	0	23	104	0	75	34856
2026-01-12 02:07:18.86	28.45	27.01	-53.7	-73.0	3.8	7.45e-01	0	23	104	0	75	34765
2026-01-12 02:07:19.86	28.50	27.20	-53.7	-73.0	3.8	7.47e-01	0	23	104	0	75	34832
2026-01-12 02:07:20.87	28.56	27.40	-53.7	-73.0	3.8	7.44e-01	0	23	104	0	75	34780
2026-01-12 02:07:21.88	28.61	27.60	-53.7	-73.0	3.8	7.44e-01	0	23	104	0	75	34802
2026-01-12 02:07:22.89	28.67	27.80	-53.7	-73.0	3.8	7.47e-01	0	23	104	0	75	34860
2026-01-12 02:07:23.90	28.72	28.00	-53.7	-73.1	3.8	7.41e-01	0	23	104	0	75	34883
2026-01-12 02:07:24.91	28.78	28.21	-53.7	-73.0	3.8	7.47e-01	0	23	104	0	75	34827
2026-01-12 02:07:25.92	28.83	28.41	-53.7	-73.0	3.8	7.48e-01	0	23	104	0	75	34815
2026-01-12 02:07:26.92	28.89	28.62	-53.7	-73.0	3.8	7.45e-01	0	23	104	0	75	34852
2026-01-12 02:07:27.93	28.95	28.83	-53.7	-73.0	3.8	7.45e-01	0	23	104	0	75	34819
2026-01-12 02:07:28.94	29.01	29.04	-53.7	-73.0	3.8	7.42e-01	0	23	104	0	75	34753
2026-01-12 02:07:29.95	29.07	29.25	-53.7	-73.0	3.8	7.45e-01	0	23	104	0	75	34866
2026-01-12 02:07:30.96	29.13	29.47	-53.7	-73.1	3.8	7.50e-01	0	23	104	0	75	34883
2026-01-12 02:07:31.97	29.19	29.68	-53.7	-73.1	3.8	7.45e-01	0	23	104	0	75	34940
2026-01-12 02:07:32.98	29.25	29.90	-53.7	-73.1	3.8	7.45e-01	0	23	104	0	75	34898
2026-01-12 02:07:33.99	29.31	30.12	-53.7	-73.0	3.8	7.46e-01	0	23	104	0	75	34874
2026-01-12 02:07:35.00	29.38	30.34	-53.7	-73.0	3.8	7.47e-01	0	23	104	0	75	34862
2026-01-12 02:07:36.00	29.44	30.56	-53.7	-73.1	3.8	7.47e-01	0	23	104	0	75	34907
2026-01-12 02:07:37.01	29.51	30.78	-53.7	-73.0	3.8	7.47e-01	0	23	104	0	75	34872
2026-01-12 02:07:38.02	29.57	31.01	-53.7	-73.1	3.8	7.46e-01	0	23	104	0	75	34893
2026-01-12 02:07:39.03	29.64	31.24	-53.7	-73.0	3.8	7.47e-01	0	23	104	0	75	34857
2026-01-12 02:07:40.04	29.71	31.47	-53.7	-73.1	3.8	7.46e-01	0	23	104	0	75	34931
2026-01-12 02:07:41.05	29.78	31.70	-53.7	-73.0	3.8	7.45e-01	0	23	104	0	75	34876
2026-01-12 02:07:42.06	29.85	31.94	-53.7	-73.0	3.8	7.46e-01	0	23	104	0	75	34859
2026-01-12 02:07:43.07	29.92	32.17	-53.7	-73.0	3.8	7.44e-01	0	23	104	0	75	34849
2026-01-12 02:07:44.08	29.99	32.41	-53.7	-73.0	3.8	7.45e-01	0	23	104	0	75	34753
2026-01-12 02:07:45.08	30.06	32.65	-53.7	-73.0	3.8	7.46e-01	0	23	104	0	75	34778
2026-01-12 02:07:46.09	30.13	32.89	-53.7	-73.1	3.8	7.48e-01	0	23	104	0	75	34885
2026-01-12 02:07:47.10	30.21	33.14	-53.7	-73.0	3.8	7.47e-01	0	23	104	0	75	34839
2026-01-12 02:07:48.11	30.29	33.38	-53.7	-73.0	3.8	7.46e-01	0	23	104	0	75	34795
2026-01-12 02:07:49.11	30.36	33.63	-53.7	-73.0	3.8	7.44e-01	0	23	104	0	75	34829
2026-01-12 02:07:50.12	30.44	33.88	-53.7	-73.0	3.8	7.46e-01	0	23	104	0	75	34838
2026-01-12 02:07:51.14	30.52	34.13	-53.7	-73.1	3.8	7.43e-01	0	23	104	0	75	34885
2026-01-12 02:07:52.15	30.60	34.39	-53.7	-73.1	3.8	7.45e-01	0	23	104	0	75	34894
2026-01-12 02:07:53.15	30.68	34.64	-53.7	-73.0	3.8	7.44e-01	0	23	104	0	75	34836
2026-01-12 02:07:54.16	30.77	34.90	-53.7	-73.0	3.8	7.48e-01	0	23	104	0	75	34862
2026-01-12 02:07:55.17	30.85	35.16	-53.7	-73.0	3.8	7.47e-01	0	23	104	0	75	34795
2026-01-12 02:07:56.18	30.94	35.43	-53.7	-73.0	3.8	7.47e-01	0	23	104	0	75	34850
2026-01-12 02:07:57.19	31.02	35.69	-53.7	-73.0	3.8	7.48e-01	0	23	104	0	75	34715
2026-01-12 02:07:58.20	31.11	35.96	-53.7	-73.0	3.8	7.45e-01	0	23	104	0	75	34812
2026-01-12 02:07:59.21	31.20	36.23	-53.7	-73.1	3.8	7.46e-01	0	23	104	0	75	34893
2026-01-12 02:08:00.22	31.30	36.51	-53.7	-73.0	3.8	7.44e-01	0	23	104	0	75	34871
2026-01-12 02:08:01.23	31.39	36.78	-53.7	-73.0	3.8	7.46e-01	0	23	104	0	75	34857
2026-01-12 02:08:02.24	31.48	37.06	-53.7	-73.0	3.8	7.45e-01	0	23	104	0	75	34878
2026-01-12 02:08:03.25	31.58	37.34	-53.7	-73.1	3.8	7.46e-01	0	23	104	0	75	34935
2026-01-12 02:08:04.26	31.68	37.62	-53.7	-73.0	3.8	7.44e-01	0	23	104	0	75	34851
2026-01-12 02:08:05.26	31.78	37.91	-53.7	-73.0	3.8	7.44e-01	0	23	104	0	75	34781
2026-01-12 02:08:06.27	31.88	38.19	-53.7	-73.1	3.8	7.49e-01	0	23	104	0	75	34894
2026-01-12 02:08:07.28	31.98	38.48	-53.7	-73.1	3.8	7.49e-01	0	23	104	0	75	34914
2026-01-12 02:08:08.29	32.09	38.78	-53.7	-73.1	3.8	7.48e-01	0	23	104	0	75	34908
2026-01-12 02:08:09.30	32.19	39.07	-53.7	-73.1	3.8	7.47e-01	0	23	104	0	75	34915
2026-01-12 02:08:10.31	32.30	39.37	-53.7	-73.0	3.8	7.49e-01	0	23	104	0	75	34869
2026-01-12 02:08:11.32	32.41	39.67	-53.7	-73.0	3.8	7.44e-01	0	23	104	0	75	34871
2026-01-12 02:08:12.33	32.53	39.97	-53.7	-73.0	3.8	7.43e-01	0	23	104	0	75	34813
2026-01-12 02:08:13.34	32.64	40.28	-53.7	-73.1	3.8	7.44e-01	0	23	104	0	75	34950
2026-01-12 02:08:14.35	32.76	40.59	-53.7	-73.0	3.8	7.44e-01	0	23	104	0	75	34834
2026-01-12 02:08:15.35	32.88	40.90	-53.7	-73.1	3.8	7.47e-01	0	23	104	0	75	34907
2026-01-12 02:08:16.36	33.00	41.21	-53.7	-73.1	3.8	7.45e-01	0	23	104	0	75	34972
2026-01-12 02:08:17.37	33.12	41.53	-53.7	-73.1	3.8	7.44e-01	0	23	104	0	75	34907
2026-01-12 02:08:18.38	33.25	41.85	-53.7	-73.1	3.8	7.47e-01	0	23	104	0	75	34937
2026-01-12 02:08:19.39	33.38	42.17	-53.7	-73.1	3.8	7.40e-01	0	23	104	0	75	34903
2026-01-12 02:08:20.39	33.51	42.49	-53.7	-73.0	3.8	7.47e-01	0	23	104	0	75	34838
2026-01-12 02:08:21.41	33.64	42.82	-53.7	-73.1	3.8	7.44e-01	0	23	104	0	75	34943
2026-01-12 02:08:22.42	33.78	43.15	-53.7	-73.1	3.8	7.43e-01	0	23	104	0	75	34893
2026-01-12 02:08:23.42	33.92	43.48	-53.7	-73.0	3.8	7.46e-01	0	23	104	0	75	34836
2026-01-12 02:08:24.43	34.06	43.82	-53.7	-73.1	3.8	7.45e-01	0	23	104	0	75	34910
2026-01-12 02:08:25.44	34.20	44.16	-53.7	-73.1	3.8	7.48e-01	0	23	104	0	75	34983
2026-01-12 02:08:26.45	34.35	44.50	-53.7	-73.1	3.8	7.48e-01	0	23	104	0	75	34889
2026-01-12 02:08:27.46	34.51	44.85	-53.7	-73.1	3.8	7.47e-01	0	23	104	0	75	34970
2026-01-12 02:08:28.47	34.66	45.20	-53.7	-73.1	3.8	7.48e-01	0	23	104	0	75	34975
2026-01-12 02:08:29.47	34.82	45.54	-53.7	-73.1	3.8	7.46e-01	0	23	104	0	75	34950
2026-01-12 02:08:30.48	34.98	45.90	-53.7	-73.1	3.8	7.45e-01	0	23	104	0	75	34992
2026-01-12 02:08:31.49	35.14	46.26	-53.7	-73.1	3.8	7.48e-01	0	23	104	0	75	34906
2026-01-12 02:08:32.50	35.31	46.62	-53.7	-73.1	3.8	7.47e-01	0	23	104	0	75	34921
2026-01-12 02:08:33.50	35.49	46.98	-53.7	-73.0	3.8	7.49e-01	0	23	104	0	75	34855
2026-01-12 02:08:34.51	35.66	47.34	-53.7	-73.1	3.8	7.47e-01	0	23	104	0	75	34880
2026-01-12 02:08:35.52	35.84	47.71	-53.7	-73.1	3.8	7.47e-01	0	23	104	0	75	34932
2026-01-12 02:08:36.53	36.03	48.09	-53.7	-73.0	3.8	7.45e-01	0	23	104	0	75	34874
2026-01-12 02:08:37.54	36.22	48.46	-53.7	-73.1	3.8	7.47e-01	0	23	104	0	75	34931
2026-01-12 02:08:38.55	36.42	48.84	-53.7	-73.1	3.8	7.45e-01	0	23	104	0	75	34945
2026-01-12 02:08:39.55	36.61	49.22	-53.7	-73.1	3.8	7.48e-01	0	23	104	0	75	34881
2026-01-12 02:08:40.56	36.82	49.61	-53.7	-73.1	3.8	7.42e-01	0	22	104	0	75	34896
2026-01-12 02:08:41.57	37.03	49.99	-53.7	-73.1	3.8	7.44e-01	0	23	104	0	75	34951
2026-01-12 02:08:42.58	37.24	50.39	-53.7	-73.0	3.8	7.49e-01	0	23	104	0	75	34845
2026-01-12 02:08:43.58	37.46	50.78	-53.7	-73.0	3.8	7.46e-01	0	23	104	0	75	34778
2026-01-12 02:08:44.59	37.69	51.17	-53.7	-73.0	3.8	7.43e-01	0	23	104	0	75	34864
2026-01-12 02:08:45.60	37.92	51.57	-53.7	-73.0	3.8	7.46e-01	0	23	104	0	75	34832
2026-01-12 02:08:46.61	38.16	51.98	-53.7	-73.0	3.8	7.48e-01	0	23	104	0	75	34851
2026-01-12 02:08:47.62	38.41	52.39	-53.7	-73.1	3.8	7.45e-01	0	23	104	0	75	34956
2026-01-12 02:08:48.63	38.66	52.79	-53.7	-73.1	3.8	7.48e-01	0	23	104	0	75	34903
2026-01-12 02:08:49.64	38.92	53.21	-53.7	-73.1	3.8	7.45e-01	0	23	104	0	75	34925
2026-01-12 02:08:50.64	39.19	53.62	-53.7	-73.1	3.8	7.46e-01	0	23	104	0	75	34930
2026-01-12 02:08:51.65	39.46	54.04	-53.7	-73.1	3.8	7.48e-01	0	23	104	0	75	34899
2026-01-12 02:08:52.66	39.74	54.46	-53.7	-73.1	3.8	7.47e-01	0	23	104	0	75	34954
2026-01-12 02:08:53.67	40.03	54.88	-53.7	-73.1	3.8	7.45e-01	0	23	104	0	75	34916
2026-01-12 02:08:54.68	40.34	55.31	-53.7	-73.1	3.8	7.46e-01	0	23	104	0	75	34900
2026-01-12 02:08:55.69	40.64	55.74	-53.7	-73.1	3.8	7.47e-01	0	23	104	0	75	34888
2026-01-12 02:08:56.70	40.96	56.17	-53.7	-73.1	3.8	7.44e-01	0	23	104	0	75	34886
2026-01-12 02:08:57.70	41.29	56.61	-53.7	-73.1	3.8	7.47e-01	0	23	104	0	75	34949
2026-01-12 02:08:58.71	41.63	57.04	-53.7	-73.0	3.8	7.47e-01	0	23	104	0	75	34829
2026-01-12 02:08:59.72	41.98	57.49	-53.7	-73.0	3.8	7.46e-01	0	23	104	0	75	34856
2026-01-12 02:09:00.73	42.34	57.93	-53.7	-73.1	3.8	7.48e-01	0	23	104	0	75	34887
2026-01-12 02:09:01.75	42.72	58.38	-53.7	-73.1	3.8	7.51e-01	0	23	104	0	75	34880
2026-01-12 02:09:02.75	43.10	58.82	-53.7	-73.0	3.8	7.44e-01	0	23	104	0	75	34845
2026-01-12 02:09:03.76	43.50	59.27	-53.7	-73.1	3.8	7.46e-01	0	23	104	0	75	34910
2026-01-12 02:09:04.76	43.91	59.72	-53.7	-73.1	3.8	7.48e-01	0	23	104	0	75	34883
2026-01-12 02:09:05.77	44.34	60.18	-53.7	-73.0	3.8	7.42e-01	0	23	104	0	75	34871
2026-01-12 02:09:06.79	44.79	60.64	-53.7	-73.0	3.8	7.47e-01	0	23	104	0	75	34828
2026-01-12 02:09:07.79	45.25	61.09	-53.7	-73.1	3.8	7.44e-01	0	23	104	0	75	34958
2026-01-12 02:09:08.80	45.73	61.55	-53.7	-73.1	3.8	7.48e-01	0	23	104	0	75	34899
2026-01-12 02:09:09.81	46.22	62.01	-53.7	-73.1	3.8	7.45e-01	0	23	104	0	75	34939
2026-01-12 02:09:10.81	46.73	62.47	-53.7	-73.1	3.8	7.49e-01	0	23	104	0	75	34945
2026-01-12 02:09:11.83	47.27	62.94	-53.7	-73.1	3.8	7.46e-01	0	23	104	0	75	35073
2026-01-12 02:09:12.83	47.82	63.40	-53.7	-73.1	3.8	7.46e-01	0	23	104	0	75	34989
2026-01-12 02:09:13.84	48.40	63.87	-53.7	-73.1	3.8	7.43e-01	0	23	104	0	75	34883
2026-01-12 02:09:14.85	49.00	64.34	-53.7	-73.1	3.8	7.47e-01	0	23	104	0	75	34932
2026-01-12 02:09:15.86	49.63	64.80	-53.7	-73.1	3.8	7.47e-01	0	23	104	0	75	34897
2026-01-12 02:09:16.87	50.28	65.27	-53.7	-73.0	3.8	7.48e-01	0	23	104	0	75	34795
2026-01-12 02:09:17.88	50.96	65.74	-53.7	-73.0	3.8	7.43e-01	0	23	104	0	75	34808
2026-01-12 02:09:18.88	51.67	66.20	-53.7	-73.0	3.8	7.49e-01	0	23	104	0	75	34867
2026-01-12 02:09:19.89	52.41	66.67	-53.7	-73.0	3.8	7.43e-01	0	23	104	0	75	34858
2026-01-12 02:09:20.90	53.18	67.14	-53.7	-73.0	3.8	7.48e-01	0	23	104	0	75	34781
2026-01-12 02:09:21.91	53.99	67.60	-53.7	-73.0	3.8	7.49e-01	0	23	104	0	75	34875
2026-01-12 02:09:22.92	54.84	68.06	-53.7	-73.0	3.8	7.48e-01	0	23	104	0	75	34831
2026-01-12 02:09:23.93	55.73	68.53	-53.7	-73.1	3.8	7.47e-01	0	23	104	0	75	34914
2026-01-12 02:09:24.94	56.66	68.98	-53.7	-73.1	3.8	7.45e-01	0	23	104	0	75	34953
2026-01-12 02:09:25.95	57.63	69.44	-53.7	-73.0	3.8	7.48e-01	0	23	104	0	75	34874
2026-01-12 02:09:26.96	58.65	69.89	-53.7	-73.0	3.8	7.42e-01	0	23	104	0	75	34833
2026-01-12 02:09:27.96	59.71	70.34	-53.7	-73.1	3.8	7.43e-01	0	23	104	0	75	34999
2026-01-12 02:09:28.97	60.84	70.78	-53.7	-73.1	3.8	7.47e-01	0	23	104	0	75	34983
2026-01-12 02:09:29.98	62.02	71.22	-53.7	-73.1	3.8	7.45e-01	0	23	104	0	75	34889
2026-01-12 02:09:30.99	63.25	71.65	-53.7	-73.1	3.8	7.46e-01	0	23	104	0	75	34880
2026-01-12 02:09:32.01	64.57	72.08	-53.7	-73.1	3.8	7.47e-01	0	23	104	0	75	34914
2026-01-12 02:09:33.01	65.93	72.50	-53.7	-73.0	3.8	7.45e-01	0	23	104	0	75	34851
2026-01-12 02:09:34.02	67.36	72.91	-53.7	-73.1	3.8	7.44e-01	0	23	104	0	75	34892
2026-01-12 02:09:35.02	68.86	73.30	-53.7	-73.0	3.8	7.47e-01	0	23	104	0	75	34869
2026-01-12 02:09:36.03	70.45	73.69	-53.7	-73.0	3.8	7.45e-01	0	23	104	0	75	34786
2026-01-12 02:09:37.04	72.12	74.07	-53.7	-73.0	3.8	7.45e-01	0	23	104	0	75	34856
2026-01-12 02:09:38.05	73.87	74.44	-53.7	-73.0	3.8	7.42e-01	0	23	104	0	75	34879
2026-01-12 02:09:39.06	75.71	74.80	-53.7	-73.1	3.8	7.49e-01	0	23	104	0	75	34974
2026-01-12 02:09:40.07	77.64	75.14	-53.7	-73.1	3.8	7.44e-01	0	23	104	0	75	35014
2026-01-12 02:09:41.07	79.64	75.46	-53.7	-73.1	3.8	7.43e-01	0	23	104	0	75	34990
2026-01-12 02:09:42.08	81.75	75.76	-53.7	-73.1	3.8	7.45e-01	0	23	104	0	75	34918
2026-01-12 02:09:43.09	83.95	76.05	-53.7	-73.1	3.8	7.47e-01	0	23	104	0	75	34888
2026-01-12 02:09:44.10	86.25	76.32	-53.7	-73.1	3.8	7.48e-01	0	23	104	0	75	34886
2026-01-12 02:09:45.10	88.61	76.56	-53.7	-73.1	3.8	7.47e-01	0	23	104	0	75	34897
2026-01-12 02:09:46.11	91.09	76.78	-53.7	-73.0	3.8	7.46e-01	0	23	104	0	75	34850
2026-01-12 02:09:47.12	93.64	76.98	-53.7	-73.1	3.8	7.45e-01	0	23	104	0	75	34891
2026-01-12 02:09:48.13	96.28	77.15	-53.7	-73.1	3.8	7.48e-01	0	23	104	0	75	34912
2026-01-12 02:09:49.13	98.95	77.30	-53.7	-73.1	3.8	7.46e-01	0	23	104	0	75	34938
2026-01-12 02:09:50.14	101.71	77.42	-53.7	-73.0	3.8	7.46e-01	0	23	104	0	75	34875
2026-01-12 02:09:51.15	104.51	77.51	-53.7	-73.1	3.8	7.47e-01	0	23	104	0	75	34945
2026-01-12 02:09:52.16	107.35	77.57	-53.7	-73.1	3.8	7.47e-01	0	23	104	0	75	34975
2026-01-12 02:09:53.17	110.22	77.60	-53.7	-73.1	3.8	7.45e-01	0	23	104	0	75	34988
2026-01-12 02:09:54.17	113.06	77.60	-53.7	-73.1	3.8	7.48e-01	0	23	104	0	75	34890
2026-01-12 02:09:55.19	115.95	77.57	-53.7	-73.1	3.8	7.43e-01	0	23	104	0	75	34968
2026-01-12 02:09:56.19	118.76	77.51	-53.7	-73.1	3.8	7.45e-01	0	23	104	0	75	34952
2026-01-12 02:09:57.20	121.57	77.42	-53.7	-73.1	3.8	7.47e-01	0	23	104	0	75	34919
2026-01-12 02:09:58.21	124.33	77.30	-53.7	-73.1	3.8	7.46e-01	0	23	104	0	75	34884
2026-01-12 02:09:59.21	127.01	77.16	-53.7	-73.1	3.8	7.47e-01	0	23	104	0	75	34932
2026-01-12 02:10:00.22	129.64	76.99	-53.7	-73.0	3.8	7.44e-01	0	23	104	0	75	34866
2026-01-12 02:10:01.23	132.20	76.79	-53.7	-73.1	3.8	7.46e-01	0	23	104	0	75	34970
2026-01-12 02:10:02.24	134.68	76.57	-53.7	-73.1	3.8	7.44e-01	0	23	104	0	75	34982
2026-01-12 02:10:03.24	137.05	76.32	-53.7	-73.1	3.8	7.44e-01	0	23	104	0	75	34890
2026-01-12 02:10:04.25	139.35	76.06	-53.7	-73.1	3.8	7.43e-01	0	23	104	0	75	34977
2026-01-12 02:10:05.26	141.56	75.77	-53.7	-73.0	3.8	7.45e-01	0	23	104	0	75	34848
2026-01-12 02:10:06.27	143.67	75.46	-53.7	-73.0	3.8	7.45e-01	0	23	104	0	75	34813
2026-01-12 02:10:07.28	145.70	75.14	-53.7	-73.0	3.8	7.45e-01	0	23	104	0	75	34868
2026-01-12 02:10:08.29	147.63	74.80	-53.7	-73.1	3.8	7.47e-01	0	23	104	0	75	34936
2026-01-12 02:10:09.27	149.42	74.46	-53.7	-73.1	3.8	7.47e-01	0	23	104	0	75	34925
2026-01-12 02:10:10.27	151.16	74.10	-53.7	-73.1	3.8	7.49e-01	0	23	104	0	75	34966
2026-01-12 02:10:11.28	152.83	73.72	-53.7	-73.1	3.8	7.47e-01	0	23	104	0	75	34962
2026-01-12 02:10:12.29	154.43	73.33	-53.7	-73.1	3.8	7.45e-01	0	23	104	0	75	34974
2026-01-12 02:10:13.30	155.94	72.92	-53.7	-73.1	3.8	7.45e-01	0	23	104	0	75	34886
2026-01-12 02:10:14.31	157.39	72.51	-53.7	-73.1	3.8	7.48e-01	0	23	104	0	75	34904
2026-01-12 02:10:15.32	158.76	72.10	-53.7	-73.1	3.8	7.46e-01	0	23	104	0	75	34913
2026-01-12 02:10:16.33	160.07	71.67	-53.7	-73.0	3.8	7.44e-01	0	23	104	0	75	34820
2026-01-12 02:10:17.34	161.31	71.24	-53.7	-73.1	3.8	7.44e-01	0	23	104	0	75	34975
2026-01-12 02:10:18.34	162.48	70.80	-53.7	-73.1	3.8	7.43e-01	0	23	104	0	75	34908
2026-01-12 02:10:19.35	163.61	70.36	-53.7	-73.1	3.8	7.46e-01	0	23	104	0	75	34895
2026-01-12 02:10:20.36	164.68	69.91	-53.7	-73.1	3.8	7.50e-01	0	23	104	0	75	35107
2026-01-12 02:10:21.37	165.71	69.46	-53.7	-73.1	3.8	7.44e-01	0	23	104	0	75	34981
2026-01-12 02:10:22.38	166.68	69.00	-53.7	-73.1	3.8	7.44e-01	0	23	104	0	75	34997
2026-01-12 02:10:23.39	167.62	68.54	-53.7	-73.1	3.8	7.46e-01	0	23	104	0	75	35008
2026-01-12 02:10:24.40	168.51	68.08	-53.7	-73.1	3.8	7.47e-01	0	23	104	0	75	34970
2026-01-12 02:10:25.41	169.36	67.62	-53.7	-73.1	3.8	7.47e-01	0	23	104	0	75	34988
2026-01-12 02:10:26.42	170.17	67.15	-53.7	-73.1	3.8	7.48e-01	0	23	104	0	75	34905
2026-01-12 02:10:27.43	170.95	66.68	-53.7	-73.1	3.8	7.47e-01	0	23	104	0	75	34959
2026-01-12 02:10:28.44	171.69	66.21	-53.7	-73.1	3.8	7.46e-01	0	23	104	0	75	34936
2026-01-12 02:10:29.44	172.40	65.75	-53.7	-73.1	3.8	7.47e-01	0	23	104	0	75	34905
2026-01-12 02:10:30.45	173.08	65.28	-53.7	-73.1	3.8	7.47e-01	0	23	104	0	75	34894
2026-01-12 02:10:31.46	173.73	64.81	-53.7	-73.0	3.8	7.44e-01	0	23	104	0	75	34824
2026-01-12 02:10:32.47	174.36	64.34	-53.7	-73.1	3.8	7.46e-01	0	23	104	0	75	34893
2026-01-12 02:10:33.48	174.97	63.88	-53.7	-73.1	3.8	7.47e-01	0	23	104	0	75	34980
2026-01-12 02:10:34.49	175.54	63.41	-53.7	-73.1	3.8	7.48e-01	0	23	104	0	75	35004
2026-01-12 02:10:35.50	176.10	62.94	-53.7	-73.1	3.8	7.46e-01	0	23	104	0	75	34905
2026-01-12 02:10:36.51	176.64	62.48	-53.7	-73.1	3.8	7.44e-01	0	23	104	0	75	34944
2026-01-12 02:10:37.52	177.15	62.01	-53.7	-73.1	3.8	7.50e-01	0	23	104	0	75	34897
2026-01-12 02:10:38.52	177.65	61.55	-53.7	-73.1	3.8	7.45e-01	0	23	104	0	75	34912
2026-01-12 02:10:39.53	178.12	61.09	-53.7	-73.0	3.8	7.46e-01	0	23	104	0	75	34869
2026-01-12 02:10:40.54	178.59	60.63	-53.7	-73.0	3.8	7.46e-01	0	23	104	0	75	34869
2026-01-12 02:10:41.55	179.03	60.18	-53.7	-73.0	3.8	7.44e-01	0	23	104	0	75	34863
2026-01-12 02:10:42.56	179.46	59.72	-53.7	-73.1	3.8	7.47e-01	0	23	104	0	75	34892
2026-01-12 02:10:43.57	179.88	59.27	-53.7	-73.0	3.8	7.48e-01	0	23	104	0	75	34847
2026-01-12 02:10:44.58	180.28	58.81	-53.7	-73.1	3.8	7.47e-01	0	23	104	0	75	34883
2026-01-12 02:10:45.58	180.66	58.37	-53.7	-73.1	3.8	7.46e-01	0	23	104	0	75	34939
2026-01-12 02:10:46.60	181.04	57.92	-53.7	-73.1	3.8	7.48e-01	0	23	104	0	75	34933
2026-01-12 02:10:47.61	181.40	57.47	-53.7	-73.1	3.8	7.48e-01	0	23	104	0	75	34944
2026-01-12 02:10:48.61	181.75	57.03	-53.7	-73.1	3.8	7.45e-01	0	23	104	0	75	34956
2026-01-12 02:10:49.62	182.09	56.60	-53.7	-73.1	3.8	7.44e-01	0	23	104	0	75	34901
2026-01-12 02:10:50.63	182.42	56.16	-53.7	-73.1	3.8	7.47e-01	0	23	104	0	75	34909
2026-01-12 02:10:51.64	182.74	55.72	-53.7	-73.0	3.8	7.48e-01	0	23	104	0	75	34861
2026-01-12 02:10:52.65	183.05	55.29	-53.7	-73.1	3.8	7.43e-01	0	23	104	0	75	34888
2026-01-12 02:10:53.66	183.35	54.86	-53.7	-73.1	3.8	7.47e-01	0	23	104	0	75	34941
2026-01-12 02:10:54.67	183.64	54.44	-53.7	-73.1	3.8	7.50e-01	0	23	104	0	75	34910
2026-01-12 02:10:55.68	183.93	54.02	-53.7	-73.1	3.8	7.50e-01	0	23	104	0	75	34905
2026-01-12 02:10:56.69	184.20	53.60	-53.7	-73.1	3.8	7.48e-01	0	23	104	0	75	35009
2026-01-12 02:10:57.70	184.47	53.18	-53.7	-73.1	3.8	7.47e-01	0	23	104	0	75	34990
2026-01-12 02:10:58.70	184.73	52.77	-53.7	-73.1	3.8	7.46e-01	0	23	104	0	75	34917
2026-01-12 02:10:59.71	184.98	52.36	-53.7	-73.1	3.8	7.45e-01	0	23	104	0	75	34893
2026-01-12 02:11:00.72	185.22	51.95	-53.7	-73.1	3.8	7.44e-01	0	23	104	0	75	34893
2026-01-12 02:11:01.73	185.46	51.55	-53.7	-73.1	3.8	7.45e-01	0	23	104	0	75	34892
2026-01-12 02:11:02.74	185.70	51.14	-53.7	-73.1	3.8	7.45e-01	0	23	104	0	75	34925
2026-01-12 02:11:03.75	185.92	50.75	-53.7	-73.1	3.8	7.49e-01	0	23	104	0	75	35053
2026-01-12 02:11:04.75	186.14	50.35	-53.7	-73.1	3.8	7.49e-01	0	23	104	0	75	35050
2026-01-12 02:11:05.76	186.36	49.96	-53.7	-73.1	3.8	7.43e-01	0	23	104	0	75	34980
2026-01-12 02:11:06.77	186.57	49.57	-53.7	-73.1	3.8	7.47e-01	0	23	104	0	75	34908
2026-01-12 02:11:07.78	186.77	49.18	-53.7	-73.0	3.8	7.45e-01	0	23	104	0	75	34865
2026-01-12 02:11:08.79	186.97	48.80	-53.7	-73.1	3.8	7.46e-01	0	23	104	0	75	34941
2026-01-12 02:11:09.80	187.17	48.42	-53.7	-73.1	3.8	7.47e-01	0	23	104	0	75	34923
2026-01-12 02:11:10.80	187.36	48.05	-53.7	-73.1	3.8	7.49e-01	0	23	104	0	75	35071
2026-01-12 02:11:11.81	187.54	47.67	-53.7	-73.1	3.8	7.48e-01	0	23	104	0	75	34949
2026-01-12 02:11:12.82	187.73	47.30	-53.7	-73.1	3.8	7.48e-01	0	23	104	0	75	35021
2026-01-12 02:11:13.83	187.90	46.94	-53.7	-73.1	3.8	7.47e-01	0	23	104	0	75	34930
2026-01-12 02:11:14.84	188.08	46.57	-53.8	-73.1	3.8	7.48e-01	0	23	104	0	75	34984
2026-01-12 02:11:15.85	188.25	46.21	-53.7	-73.1	3.8	7.44e-01	0	23	104	0	75	34973
2026-01-12 02:11:16.86	188.41	45.85	-53.7	-73.1	3.8	7.47e-01	0	23	104	0	75	34987
2026-01-12 02:11:17.87	188.57	45.49	-53.7	-73.1	3.8	7.47e-01	0	23	104	0	75	34958
2026-01-12 02:11:18.87	188.73	45.15	-53.7	-73.1	3.8	7.47e-01	0	23	104	0	75	34953
2026-01-12 02:11:19.88	188.89	44.80	-53.7	-73.1	3.8	7.44e-01	0	23	104	0	75	35009
2026-01-12 02:11:20.89	189.04	44.45	-53.7	-73.1	3.8	7.47e-01	0	23	104	0	75	34909
2026-01-12 02:11:21.90	189.19	44.11	-53.7	-73.1	3.8	7.46e-01	0	23	104	0	75	34943
2026-01-12 02:11:22.91	189.33	43.77	-53.7	-73.1	3.8	7.45e-01	0	23	104	0	75	34893
2026-01-12 02:11:23.92	189.47	43.43	-53.7	-73.1	3.8	7.48e-01	0	23	104	0	75	34998
2026-01-12 02:11:24.93	189.61	43.09	-53.7	-73.1	3.8	7.42e-01	0	23	104	0	75	34935
2026-01-12 02:11:25.94	189.75	42.76	-53.8	-73.0	3.8	7.45e-01	0	23	104	0	75	34833
2026-01-12 02:11:26.95	189.88	42.43	-53.8	-73.1	3.8	7.44e-01	0	23	104	0	75	35015
2026-01-12 02:11:27.96	190.02	42.11	-53.8	-73.1	3.8	7.47e-01	0	23	104	0	75	34902
2026-01-12 02:11:28.96	190.14	41.79	-53.7	-73.1	3.8	7.44e-01	0	23	104	0	75	34927
2026-01-12 02:11:29.97	190.27	41.46	-53.7	-73.1	3.8	7.44e-01	0	23	104	0	75	34895
2026-01-12 02:11:30.98	190.39	41.15	-53.7	-73.0	3.8	7.46e-01	0	23	104	0	75	34874
2026-01-12 02:11:31.99	190.51	40.83	-53.8	-73.1	3.8	7.47e-01	0	23	104	0	75	34903
2026-01-12 02:11:33.01	190.63	40.52	-53.7	-73.1	3.8	7.46e-01	0	23	104	0	75	34904
2026-01-12 02:11:34.01	190.75	40.21	-53.7	-73.1	3.8	7.48e-01	0	23	104	0	75	34935
2026-01-12 02:11:35.02	190.87	39.90	-53.7	-73.0	3.8	7.48e-01	0	23	104	0	75	34841
2026-01-12 02:11:36.03	190.98	39.60	-53.7	-73.1	3.8	7.45e-01	0	23	104	0	75	35021
2026-01-12 02:11:37.04	191.09	39.30	-53.7	-73.1	3.8	7.46e-01	0	23	104	0	75	34884
2026-01-12 02:11:38.05	191.20	39.00	-53.7	-73.1	3.8	7.45e-01	0	23	104	0	75	34951
2026-01-12 02:11:39.06	191.30	38.70	-53.8	-73.1	3.8	7.45e-01	0	23	104	0	75	34939
2026-01-12 02:11:40.07	191.41	38.41	-53.7	-73.1	3.8	7.46e-01	0	23	104	0	75	34894
2026-01-12 02:11:41.07	191.51	38.12	-53.7	-73.0	3.8	7.48e-01	0	23	104	0	75	34836
2026-01-12 02:11:42.08	191.61	37.83	-53.7	-73.0	3.8	7.45e-01	0	23	104	0	75	34836
2026-01-12 02:11:43.09	191.71	37.55	-53.7	-73.0	3.8	7.45e-01	0	23	104	0	75	34783
2026-01-12 02:11:44.10	191.81	37.26	-53.7	-73.0	3.8	7.42e-01	0	23	104	0	75	34776
2026-01-12 02:11:45.10	191.90	36.99	-53.7	-73.0	3.8	7.46e-01	0	23	104	0	75	34797
2026-01-12 02:11:46.11	192.00	36.71	-53.7	-73.0	3.8	7.46e-01	0	23	104	0	75	34850
2026-01-12 02:11:47.11	192.09	36.43	-53.7	-73.0	3.8	7.44e-01	0	23	104	0	75	34828
2026-01-12 02:11:48.12	192.18	36.16	-53.7	-73.0	3.8	7.45e-01	0	23	104	0	75	34782
2026-01-12 02:11:49.13	192.27	35.89	-53.7	-73.0	3.8	7.46e-01	0	23	104	0	75	34831
2026-01-12 02:11:50.14	192.36	35.62	-53.7	-73.0	3.8	7.46e-01	0	23	104	0	75	34808
2026-01-12 02:11:51.15	192.45	35.35	-53.7	-73.1	3.8	7.46e-01	0	23	104	0	75	34884
2026-01-12 02:11:52.16	192.53	35.09	-53.8	-73.0	3.8	7.46e-01	0	23	104	0	75	34845
2026-01-12 02:11:53.17	192.62	34.83	-53.7	-73.0	3.8	7.49e-01	0	23	104	0	75	34857
2026-01-12 02:11:54.18	192.70	34.57	-53.8	-73.1	3.8	7.50e-01	0	23	104	0	75	34935
2026-01-12 02:11:55.19	192.78	34.31	-53.7	-73.0	3.8	7.48e-01	0	23	104	0	75	34805
2026-01-12 02:11:56.20	192.86	34.05	-53.8	-73.0	3.8	7.47e-01	0	23	104	0	75	34719
2026-01-12 02:11:57.20	192.94	33.80	-53.7	-73.0	3.8	7.46e-01	0	23	104	0	75	34750
2026-01-12 02:11:58.21	193.02	33.55	-53.7	-73.0	3.8	7.50e-01	0	23	104	0	75	34815
2026-01-12 02:11:59.22	193.10	33.30	-53.7	-73.0	3.8	7.49e-01	0	23	104	0	75	34798
2026-01-12 02:12:00.23	193.17	33.05	-53.8	-73.0	3.8	7.46e-01	0	23	104	0	75	34753
2026-01-12 02:12:01.24	193.25	32.81	-53.8	-73.0	3.8	7.45e-01	0	23	104	0	75	34815
2026-01-12 02:12:02.25	193.32	32.57	-53.7	-73.0	3.8	7.45e-01	0	23	104	0	75	34814
2026-01-12 02:12:03.26	193.40	32.32	-53.7	-73.0	3.8	7.45e-01	0	23	104	0	75	34816
2026-01-12 02:12:04.27	193.47	32.09	-53.8	-73.0	3.8	7.44e-01	0	23	104	0	75	34652
2026-01-12 02:12:05.27	193.54	31.85	-53.7	-73.0	3.8	7.48e-01	0	23	104	0	75	34782
2026-01-12 02:12:06.29	193.61	31.61	-53.7	-73.0	3.8	7.50e-01	0	23	104	0	75	34749
2026-01-12 02:12:07.30	193.68	31.38	-53.7	-73.0	3.8	7.45e-01	0	23	104	0	75	34657
2026-01-12 02:12:08.30	193.74	31.15	-53.7	-73.0	3.8	7.47e-01	0	23	104	0	75	34858
2026-01-12 02:12:09.31	193.81	30.92	-53.7	-73.0	3.8	7.45e-01	0	23	104	0	75	34871
2026-01-12 02:12:10.32	193.88	30.70	-53.7	-73.0	3.8	7.49e-01	0	23	104	0	75	34868
2026-01-12 02:12:11.33	193.94	30.47	-53.7	-73.1	3.8	7.46e-01	0	23	104	0	75	34965
2026-01-12 02:12:12.34	194.01	30.25	-53.7	-73.0	3.8	7.48e-01	0	23	104	0	75	34793
2026-01-12 02:12:13.35	194.07	30.02	-53.7	-73.1	3.8	7.48e-01	0	23	104	0	75	34894
2026-01-12 02:12:14.35	194.13	29.81	-53.7	-73.1	3.8	7.44e-01	0	23	104	0	75	34880
2026-01-12 02:12:15.36	194.19	29.59	-53.7	-73.0	3.8	7.46e-01	0	23	104	0	75	34779
2026-01-12 02:12:16.37	194.25	29.37	-53.7	-73.0	3.8	7.48e-01	0	23	104	0	75	34783
2026-01-12 02:12:17.38	194.31	29.16	-53.7	-73.0	3.8	7.45e-01	0	23	104	0	75	34816
2026-01-12 02:12:18.39	194.37	28.94	-53.7	-73.0	3.8	7.44e-01	0	23	104	0	75	34822
2026-01-12 02:12:19.39	194.43	28.73	-53.7	-73.0	3.8	7.51e-01	0	23	104	0	75	34792
2026-01-12 02:12:20.40	194.49	28.53	-53.7	-73.0	3.8	7.48e-01	0	23	104	0	75	34819
2026-01-12 02:12:21.41	194.55	28.32	-53.7	-73.0	3.8	7.48e-01	0	23	104	0	75	34863
2026-01-12 02:12:22.42	194.60	28.11	-53.7	-73.0	3.8	7.44e-01	0	23	104	0	75	34738
2026-01-12 02:12:23.43	194.66	27.91	-53.7	-73.0	3.8	7.44e-01	0	23	104	0	75	34810
2026-01-12 02:12:24.44	194.71	27.70	-53.7	-73.0	3.8	7.45e-01	0	23	104	0	75	34711
2026-01-12 02:12:25.45	194.77	27.50	-53.7	-73.0	3.8	7.42e-01	0	23	104	0	75	34764
2026-01-12 02:12:26.46	194.82	27.30	-53.7	-73.0	3.8	7.44e-01	0	23	104	0	75	34826
2026-01-12 02:12:27.47	194.87	27.10	-53.7	-73.0	3.8	7.47e-01	0	23	104	0	75	34860
2026-01-12 02:12:28.48	194.93	26.91	-53.7	-73.0	3.8	7.47e-01	0	23	104	0	75	34787
2026-01-12 02:12:29.49	194.98	26.71	-53.7	-73.0	3.8	7.44e-01	0	23	104	0	75	34752
2026-01-12 02:12:30.49	195.03	26.52	-53.7	-73.0	3.8	7.43e-01	0	23	104	0	75	34669
2026-01-12 02:12:31.50	195.08	26.33	-53.7	-73.1	3.8	7.47e-01	0	23	104	0	75	34900
2026-01-12 02:12:32.51	195.13	26.13	-53.7	-73.0	3.8	7.43e-01	0	23	104	0	75	34748
2026-01-12 02:12:33.52	195.18	25.94	-53.7	-73.0	3.8	7.44e-01	0	23	104	0	75	34773
2026-01-12 02:12:34.52	195.23	25.76	-53.7	-73.0	3.8	7.48e-01	0	23	104	0	75	34759
2026-01-12 02:12:35.53	195.28	25.57	-53.7	-73.0	3.8	7.44e-01	0	23	104	0	75	34852
2026-01-12 02:12:36.54	195.32	25.39	-53.7	-73.0	3.8	7.43e-01	0	23	104	0	75	34675
2026-01-12 02:12:37.55	195.37	25.20	-53.7	-73.0	3.8	7.43e-01	0	23	104	0	75	34757
2026-01-12 02:12:38.56	195.42	25.02	-53.7	-73.0	3.8	7.50e-01	0	23	104	0	75	34845
2026-01-12 02:12:39.57	195.47	24.84	-53.7	-73.0	3.8	7.44e-01	0	23	104	0	75	34804
2026-01-12 02:12:40.58	195.51	24.66	-53.7	-73.1	3.8	7.46e-01	0	23	104	0	75	34881
2026-01-12 02:12:41.59	195.56	24.48	-53.7	-73.0	3.8	7.46e-01	0	23	104	0	75	34767
2026-01-12 02:12:42.60	195.60	24.30	-53.7	-73.0	3.8	7.45e-01	0	23	104	0	75	34764
2026-01-12 02:12:43.61	195.65	24.13	-53.7	-73.0	3.8	7.45e-01	0	23	104	0	75	34875
2026-01-12 02:12:44.62	195.69	23.95	-53.7	-73.1	3.8	7.45e-01	0	23	104	0	75	34923
2026-01-12 02:12:45.62	195.73	23.78	-53.7	-73.0	3.8	7.50e-01	0	23	104	0	75	34832
2026-01-12 02:12:46.63	195.78	23.61	-53.7	-73.1	3.8	7.48e-01	0	23	104	0	75	34958
2026-01-12 02:12:47.64	195.82	23.43	-53.7	-73.1	3.8	7.48e-01	0	23	104	0	75	34885
2026-01-12 02:12:48.65	195.86	23.26	-53.7	-73.1	3.8	7.45e-01	0	23	104	0	75	34934
2026-01-12 02:12:49.66	195.90	23.10	-53.7	-73.0	3.8	7.45e-01	0	23	104	0	75	34864
2026-01-12 02:12:50.67	195.94	22.93	-53.7	-73.0	3.8	7.47e-01	0	23	104	0	75	34756
2026-01-12 02:12:51.68	195.98	22.76	-53.7	-73.0	3.8	7.48e-01	0	23	104	0	75	34871
2026-01-12 02:12:52.69	196.02	22.60	-53.7	-73.1	3.8	7.50e-01	0	23	104	0	75	34931
2026-01-12 02:12:53.70	196.06	22.43	-53.7	-73.1	3.8	7.45e-01	0	23	104	0	75	34965
2026-01-12 02:12:54.71	196.10	22.27	-53.7	-73.0	3.8	7.44e-01	0	23	104	0	75	34805
2026-01-12 02:12:55.72	196.14	22.11	-53.7	-73.0	3.8	7.44e-01	0	23	104	0	75	34745
2026-01-12 02:12:56.72	196.18	21.95	-53.7	-73.0	3.8	7.46e-01	0	23	104	0	75	34616
2026-01-12 02:12:57.73	196.22	21.79	-53.7	-73.1	3.8	7.44e-01	0	23	104	0	75	34886
2026-01-12 02:12:58.74	196.26	21.63	-53.7	-73.0	3.8	7.47e-01	0	23	104	0	75	34795
2026-01-12 02:12:59.75	196.30	21.47	-53.7	-73.0	3.8	7.45e-01	0	23	104	0	75	34810
2026-01-12 02:13:00.76	196.33	21.32	-53.8	-73.1	3.8	7.45e-01	0	23	104	0	75	34934
2026-01-12 02:13:01.77	196.37	21.16	-53.8	-73.0	3.8	7.47e-01	0	23	104	0	75	34851
2026-01-12 02:13:02.78	196.41	21.01	-53.7	-73.0	3.8	7.45e-01	0	23	104	0	75	34814
2026-01-12 02:13:03.79	196.44	20.85	-53.7	-73.1	3.8	7.50e-01	0	23	104	0	75	34894
2026-01-12 02:13:04.79	196.48	20.70	-53.7	-73.1	3.8	7.43e-01	0	23	104	0	75	34918
2026-01-12 02:13:05.80	196.51	20.55	-53.7	-73.0	3.8	7.44e-01	0	23	104	0	75	34804
2026-01-12 02:13:06.81	196.55	20.40	-53.8	-73.1	3.8	7.44e-01	0	23	104	0	75	34985
2026-01-12 02:13:07.81	196.58	20.25	-53.7	-73.1	3.8	7.47e-01	0	23	104	0	75	34910
2026-01-12 02:13:08.82	196.62	20.10	-53.7	-73.1	3.8	7.48e-01	0	23	104	0	75	34916
2026-01-12 02:13:09.83	196.65	19.96	-53.8	-73.1	3.8	7.45e-01	0	23	104	0	75	34924
2026-01-12 02:13:10.84	196.69	19.81	-53.7	-73.0	3.8	7.45e-01	0	23	104	0	75	34848
2026-01-12 02:13:11.85	196.72	19.66	-53.7	-73.0	3.8	7.44e-01	0	23	104	0	75	34773
2026-01-12 02:13:12.85	196.75	19.52	-53.7	-73.0	3.8	7.44e-01	0	23	104	0	75	34690
2026-01-12 02:13:13.86	196.79	19.38	-53.7	-73.1	3.8	7.44e-01	0	23	104	0	75	34921
2026-01-12 02:13:14.87	196.82	19.23	-53.7	-73.0	3.8	7.47e-01	0	23	104	0	75	34823
2026-01-12 02:13:15.88	196.85	19.09	-53.7	-73.0	3.8	7.48e-01	0	23	104	0	75	34760
2026-01-12 02:13:16.88	196.89	18.95	-53.7	-73.0	3.8	7.46e-01	0	23	104	0	75	34737
2026-01-12 02:13:17.89	196.92	18.81	-53.7	-73.0	3.8	7.46e-01	0	23	104	0	75	34828
2026-01-12 02:13:18.90	196.95	18.67	-53.7	-73.0	3.8	7.45e-01	0	23	104	0	75	34807
2026-01-12 02:13:19.90	196.98	18.53	-53.7	-73.0	3.8	7.46e-01	0	23	104	0	75	34585
2026-01-12 02:13:20.91	197.01	18.40	-53.7	-73.0	3.8	7.46e-01	0	23	104	0	75	34733
2026-01-12 02:13:21.92	197.04	18.26	-53.7	-73.0	3.8	7.46e-01	0	23	104	0	75	34801
2026-01-12 02:13:22.94	197.07	18.12	-53.7	-73.0	3.8	7.49e-01	0	23	104	0	75	34757
2026-01-12 02:13:23.95	197.10	17.99	-53.8	-73.0	3.8	7.45e-01	0	23	104	0	75	34811
2026-01-12 02:13:24.95	197.13	17.85	-53.7	-73.1	3.8	7.45e-01	0	23	104	0	75	34908
2026-01-12 02:13:25.96	197.16	17.72	-53.8	-73.1	3.8	7.49e-01	0	23	104	0	75	34907
2026-01-12 02:13:26.97	197.19	17.59	-53.8	-73.1	3.8	7.46e-01	0	23	104	0	75	34953
2026-01-12 02:13:27.99	197.22	17.45	-53.8	-73.1	3.8	7.45e-01	0	23	104	0	75	34905
2026-01-12 02:13:28.99	197.25	17.32	-53.8	-73.0	3.8	7.45e-01	0	23	104	0	75	34741
2026-01-12 02:13:30.00	197.28	17.19	-53.7	-73.0	3.8	7.45e-01	0	23	104	0	75	34753
2026-01-12 02:13:31.01	197.31	17.06	-53.7	-73.0	3.8	7.46e-01	0	23	104	0	75	34877
2026-01-12 02:13:32.02	197.34	16.93	-53.7	-73.0	3.8	7.45e-01	0	23	104	0	75	34750
2026-01-12 02:13:33.03	197.37	16.80	-53.7	-73.0	3.8	7.46e-01	0	23	104	0	75	34695
2026-01-12 02:13:34.04	197.40	16.68	-53.7	-73.1	3.8	7.48e-01	0	23	104	0	75	34943
2026-01-12 02:13:35.04	197.42	16.55	-53.7	-73.0	3.8	7.47e-01	0	23	104	0	75	34878
2026-01-12 02:13:36.05	197.45	16.43	-53.7	-73.1	3.8	7.46e-01	0	23	104	0	75	34947
2026-01-12 02:13:37.06	197.48	16.30	-53.7	-73.0	3.8	7.44e-01	0	23	104	0	75	34757
2026-01-12 02:13:38.07	197.51	16.18	-53.7	-73.0	3.8	7.49e-01	0	23	104	0	75	34809
2026-01-12 02:13:39.07	197.53	16.05	-53.7	-73.1	3.8	7.50e-01	0	23	104	0	75	34892
2026-01-12 02:13:40.08	197.56	15.93	-53.7	-73.0	3.8	7.47e-01	0	23	104	0	75	34847
2026-01-12 02:13:41.09	197.59	15.81	-53.7	-73.0	3.8	7.46e-01	0	23	104	0	75	34838
2026-01-12 02:13:42.10	197.61	15.68	-53.7	-73.0	3.8	7.44e-01	0	23	104	0	75	34623
2026-01-12 02:13:43.11	197.64	15.56	-53.8	-73.0	3.8	7.50e-01	0	23	104	0	75	34748
2026-01-12 02:13:44.12	197.66	15.44	-53.7	-73.0	3.8	7.47e-01	0	23	104	0	75	34629
2026-01-12 02:13:45.13	197.69	15.32	-53.7	-73.0	3.8	7.47e-01	0	23	104	0	75	34574
2026-01-12 02:13:46.14	197.72	15.20	-53.7	-73.0	3.8	7.43e-01	0	23	104	0	75	34690
2026-01-12 02:13:47.15	197.74	15.08	-53.8	-73.1	3.8	7.45e-01	0	23	104	0	75	34910
2026-01-12 02:13:48.16	197.77	14.97	-53.8	-73.0	3.8	7.48e-01	0	23	104	0	75	34838
2026-01-12 02:13:49.17	197.79	14.85	-53.8	-73.0	3.8	7.44e-01	0	23	104	0	75	34746
2026-01-12 02:13:50.17	197.82	14.73	-53.8	-72.9	3.8	7.45e-01	0	23	104	0	75	34446
2026-01-12 02:13:51.18	197.84	14.62	-53.8	-73.0	3.8	7.44e-01	0	23	104	0	75	34573
2026-01-12 02:13:52.19	197.87	14.50	-53.7	-73.0	3.8	7.49e-01	0	23	104	0	75	34798
2026-01-12 02:13:53.20	197.89	14.39	-53.7	-73.0	3.8	7.45e-01	0	23	104	0	75	34802
2026-01-12 02:13:54.21	197.91	14.27	-53.8	-73.0	3.8	7.44e-01	0	23	104	0	75	34616
2026-01-12 02:13:55.22	197.94	14.16	-53.7	-73.0	3.8	7.43e-01	0	23	104	0	75	34698
2026-01-12 02:13:56.23	197.96	14.04	-53.8	-73.0	3.8	7.46e-01	0	23	104	0	75	34853
2026-01-12 02:13:57.24	197.99	13.93	-53.8	-73.0	3.8	7.45e-01	0	23	104	0	75	34876
2026-01-12 02:13:58.25	198.01	13.82	-53.7	-73.0	3.8	7.45e-01	0	23	104	0	75	34768
2026-01-12 02:13:59.26	198.03	13.71	-53.8	-73.0	3.8	7.47e-01	0	23	104	0	75	34802
2026-01-12 02:14:00.26	198.06	13.60	-53.7	-73.0	3.8	7.46e-01	0	23	104	0	75	34819
2026-01-12 02:14:01.27	198.08	13.49	-53.8	-73.0	3.8	7.46e-01	0	23	104	0	75	34530
2026-01-12 02:14:02.28	198.10	13.38	-53.7	-73.0	3.8	7.48e-01	0	23	104	0	75	34808
2026-01-12 02:14:03.29	198.13	13.27	-53.7	-72.9	3.8	7.47e-01	0	23	104	0	75	34233
2026-01-12 02:14:04.30	198.15	13.16	-53.7	-72.9	3.8	7.44e-01	0	23	104	0	75	34238
2026-01-12 02:14:05.31	198.17	13.05	-53.7	-73.0	3.8	7.47e-01	0	23	104	0	75	34744
2026-01-12 02:14:06.31	198.19	12.94	-53.7	-73.0	3.8	7.45e-01	0	23	104	0	75	34756
2026-01-12 02:14:07.32	198.22	12.84	-53.7	-73.0	3.8	7.46e-01	0	23	104	0	75	34707
2026-01-12 02:14:08.33	198.24	12.73	-53.7	-73.0	3.8	7.48e-01	0	23	104	0	75	34824
2026-01-12 02:14:09.35	198.26	12.62	-53.7	-73.0	3.8	7.43e-01	0	23	104	0	75	34846
2026-01-12 02:14:10.35	198.28	12.52	-53.7	-73.1	3.8	7.46e-01	0	23	104	0	75	34947
2026-01-12 02:14:11.36	198.30	12.41	-53.7	-73.0	3.8	7.47e-01	0	23	104	0	75	34793
2026-01-12 02:14:12.37	198.32	12.31	-53.7	-73.0	3.8	7.45e-01	0	23	104	0	75	34856
2026-01-12 02:14:13.38	198.35	12.20	-53.8	-73.0	3.9	7.46e-01	0	23	104	0	75	34843
2026-01-12 02:14:14.39	198.37	12.10	-53.8	-72.9	3.8	7.46e-01	0	23	104	0	75	34478
2026-01-12 02:14:15.40	198.39	12.00	-53.7	-73.0	3.8	7.44e-01	0	23	104	0	75	34496
2026-01-12 02:14:16.41	198.41	11.89	-53.7	-72.9	3.8	7.42e-01	0	23	104	0	75	34453
2026-01-12 02:14:17.42	198.43	11.79	-53.7	-72.9	3.8	7.43e-01	0	23	104	0	75	34349
2026-01-12 02:14:18.43	198.45	11.69	-53.7	-73.0	3.8	7.44e-01	0	23	104	0	75	34513
2026-01-12 02:14:19.44	198.47	11.59	-53.7	-73.0	3.8	7.45e-01	0	23	104	0	75	34522
2026-01-12 02:14:20.44	198.49	11.49	-53.7	-73.0	3.8	7.45e-01	0	23	104	0	75	34851
2026-01-12 02:14:21.45	198.51	11.39	-53.7	-73.0	3.8	7.46e-01	0	23	104	0	75	34862
2026-01-12 02:14:22.46	198.53	11.29	-53.7	-73.0	3.8	7.47e-01	0	23	104	0	75	34849
2026-01-12 02:14:23.48	198.55	11.19	-53.7	-73.0	3.8	7.43e-01	0	23	104	0	75	34691
2026-01-12 02:14:24.48	198.57	11.09	-53.7	-73.0	3.8	7.43e-01	0	23	104	0	75	34601
2026-01-12 02:14:25.49	198.59	10.99	-53.7	-72.9	3.8	7.44e-01	0	23	104	0	75	34140
2026-01-12 02:14:26.50	198.61	10.89	-53.7	-72.9	3.8	7.45e-01	0	23	104	0	75	34454
2026-01-12 02:14:27.51	198.63	10.80	-53.7	-73.0	3.9	7.46e-01	0	23	104	0	75	34625
2026-01-12 02:14:28.52	198.65	10.70	-53.7	-72.9	3.8	7.47e-01	0	23	104	0	75	34445
2026-01-12 02:14:29.53	198.67	10.60	-53.7	-72.8	3.9	7.47e-01	0	23	104	0	75	33932
2026-01-12 02:14:30.54	198.69	10.50	-53.7	-72.6	3.8	7.46e-01	0	23	104	0	75	33277
2026-01-12 02:14:31.55	198.71	10.41	-53.7	-73.0	3.9	7.45e-01	0	23	104	0	75	34529
2026-01-12 02:14:32.55	198.73	10.31	-53.7	-73.0	3.8	7.45e-01	0	23	104	0	75	34721
2026-01-12 02:14:33.56	198.75	10.22	-53.7	-73.1	3.8	7.45e-01	0	23	104	0	75	34936
2026-01-12 02:14:34.57	198.77	10.12	-53.7	-72.9	3.8	7.45e-01	0	23	104	0	75	34449
2026-01-12 02:14:35.57	198.78	10.03	-53.7	-73.0	3.8	7.48e-01	0	23	104	0	75	34554
2026-01-12 02:14:36.58	198.80	9.94	-53.7	-72.9	3.8	7.46e-01	0	23	104	0	75	34352
2026-01-12 02:14:37.59	198.82	9.84	-53.7	-73.0	3.8	7.48e-01	0	23	104	0	75	34729
2026-01-12 02:14:38.60	198.84	9.75	-53.7	-73.0	3.8	7.47e-01	0	23	104	0	75	34563
2026-01-12 02:14:39.61	198.86	9.66	-53.7	-72.9	3.9	7.46e-01	0	23	104	0	75	34361
2026-01-12 02:14:40.62	198.88	9.56	-53.7	-73.0	3.8	7.49e-01	0	23	104	0	75	34644
2026-01-12 02:14:41.63	198.90	9.47	-53.7	-73.0	3.8	7.47e-01	0	23	104	0	75	34737
2026-01-12 02:14:42.64	198.91	9.38	-53.7	-72.9	3.8	7.46e-01	0	23	104	0	75	34119
2026-01-12 02:14:43.65	198.93	9.29	-53.7	-73.0	3.8	7.46e-01	0	23	104	0	75	34486
2026-01-12 02:14:44.66	198.95	9.20	-53.7	-72.9	3.8	7.43e-01	0	23	104	0	75	34109
2026-01-12 02:14:45.67	198.97	9.11	-53.7	-72.9	3.8	7.44e-01	0	23	104	0	75	34349
2026-01-12 02:14:46.67	198.98	9.02	-53.7	-72.8	3.8	7.47e-01	0	23	104	0	75	33767
2026-01-12 02:14:47.68	199.00	8.93	-53.7	-72.9	3.8	7.46e-01	0	23	104	0	75	34364
2026-01-12 02:14:48.69	199.02	8.84	-53.7	-72.8	3.8	7.45e-01	0	23	104	0	75	34046
2026-01-12 02:14:49.70	199.04	8.75	-53.7	-73.0	3.8	7.46e-01	0	23	104	0	75	34640
2026-01-12 02:14:50.71	199.05	8.66	-53.7	-72.9	3.8	7.48e-01	0	23	104	0	75	34215
2026-01-12 02:14:51.72	199.07	8.57	-53.7	-72.8	3.8	7.42e-01	0	23	104	0	75	33885
2026-01-12 02:14:52.72	199.09	8.49	-53.7	-73.1	3.8	7.47e-01	0	23	104	0	75	34901
2026-01-12 02:14:53.73	199.11	8.40	-53.7	-72.8	3.8	7.47e-01	0	23	104	0	75	34073
2026-01-12 02:14:54.74	199.12	8.31	-53.7	-72.8	3.9	7.47e-01	0	23	104	0	75	33958
2026-01-12 02:14:55.75	199.14	8.22	-53.7	-72.9	3.8	7.45e-01	0	23	104	0	75	34376
2026-01-12 02:14:56.76	199.16	8.14	-53.7	-72.8	3.8	7.46e-01	0	23	104	0	75	34056
2026-01-12 02:14:57.77	199.17	8.05	-53.7	-73.0	3.8	7.47e-01	0	23	104	0	75	34651
2026-01-12 02:14:58.78	199.19	7.96	-53.7	-72.8	3.8	7.50e-01	0	23	104	0	75	33981
2026-01-12 02:14:59.78	199.21	7.88	-53.7	-72.9	3.8	7.46e-01	0	23	104	0	75	34137
2026-01-12 02:15:00.79	199.22	7.79	-53.8	-72.9	3.8	7.47e-01	0	23	104	0	75	34362
2026-01-12 02:15:01.80	199.24	7.71	-53.7	-73.0	3.8	7.47e-01	0	23	104	0	75	34696
2026-01-12 02:15:02.81	199.25	7.62	-53.7	-73.0	3.8	7.47e-01	0	23	104	0	75	34685
2026-01-12 02:15:03.82	199.27	7.54	-53.7	-73.0	3.8	7.47e-01	0	23	104	0	75	34845
2026-01-12 02:15:04.83	199.29	7.45	-53.7	-72.9	3.9	7.48e-01	0	23	104	0	75	34299
2026-01-12 02:15:05.84	199.30	7.37	-53.7	-72.9	3.8	7.48e-01	0	23	104	0	75	34165
2026-01-12 02:15:06.84	199.32	7.29	-53.7	-72.9	3.8	7.45e-01	0	23	104	0	75	34178
2026-01-12 02:15:07.85	199.33	7.20	-53.7	-72.7	3.8	7.42e-01	0	23	104	0	75	33533
2026-01-12 02:15:08.87	199.35	7.12	-53.7	-72.9	3.9	7.47e-01	0	23	104	0	75	34324
2026-01-12 02:15:09.87	199.37	7.04	-53.7	-72.9	3.8	7.46e-01	0	23	104	0	75	34296
2026-01-12 02:15:10.88	199.38	6.96	-53.7	-73.0	3.8	7.45e-01	0	23	104	0	75	34797
2026-01-12 02:15:11.89	199.40	6.87	-53.8	-73.0	3.8	7.46e-01	0	23	104	0	75	34581
2026-01-12 02:15:12.90	199.41	6.79	-53.7	-73.0	3.8	7.49e-01	0	23	104	0	75	34872
2026-01-12 02:15:13.91	199.43	6.71	-53.7	-73.0	3.8	7.48e-01	0	23	104	0	75	34655
2026-01-12 02:15:14.92	199.44	6.63	-53.7	-73.1	3.8	7.44e-01	0	23	104	0	75	34972
2026-01-12 02:15:15.93	199.46	6.55	-53.7	-73.0	3.8	7.45e-01	0	23	104	0	75	34736
2026-01-12 02:15:16.94	199.47	6.47	-53.7	-73.0	3.8	7.49e-01	0	23	104	0	75	34861
2026-01-12 02:15:17.95	199.49	6.39	-53.7	-73.1	3.8	7.47e-01	0	23	104	0	75	34958
2026-01-12 02:15:18.96	199.50	6.31	-53.7	-73.0	3.8	7.47e-01	0	23	104	0	75	34855
2026-01-12 02:15:19.97	199.52	6.23	-53.7	-73.0	3.8	7.46e-01	0	23	104	0	75	34589
2026-01-12 02:15:20.98	199.53	6.15	-53.7	-73.0	3.8	7.46e-01	0	23	104	0	75	34827
2026-01-12 02:15:21.98	199.55	6.07	-53.7	-73.0	3.8	7.47e-01	0	23	104	0	75	34788
2026-01-12 02:15:22.99	199.56	5.99	-53.7	-73.1	3.8	7.47e-01	0	23	104	0	75	34946
2026-01-12 02:15:24.00	199.58	5.91	-53.7	-73.0	3.8	7.47e-01	0	23	104	0	75	34831
2026-01-12 02:15:25.01	199.59	5.83	-53.7	-73.0	3.8	7.49e-01	0	23	104	0	75	34512
2026-01-12 02:15:26.02	199.61	5.75	-53.7	-72.9	3.8	7.46e-01	0	23	104	0	75	34158
2026-01-12 02:15:27.03	199.62	5.68	-53.8	-73.0	3.8	7.49e-01	0	23	104	0	75	34546
2026-01-12 02:15:28.04	199.64	5.60	-53.8	-72.9	3.8	7.45e-01	0	23	104	0	75	34474
2026-01-12 02:15:29.05	199.65	5.52	-53.7	-73.0	3.8	7.48e-01	0	23	104	0	75	34670
2026-01-12 02:15:30.06	199.67	5.44	-53.7	-72.9	3.8	7.49e-01	0	23	104	0	75	34364
2026-01-12 02:15:31.07	199.68	5.37	-53.7	-72.8	3.8	7.48e-01	0	23	104	0	75	34062
2026-01-12 02:15:32.08	199.69	5.29	-53.7	-72.9	3.8	7.47e-01	0	23	104	0	75	34479
2026-01-12 02:15:33.09	199.71	5.21	-53.7	-72.9	3.8	7.48e-01	0	23	104	0	75	34397
2026-01-12 02:15:34.10	199.72	5.14	-53.7	-72.9	3.8	7.44e-01	0	23	104	0	75	34153
2026-01-12 02:15:35.10	199.74	5.06	-53.7	-72.8	3.8	7.45e-01	0	23	104	0	75	33981
2026-01-12 02:15:36.11	199.75	4.99	-53.7	-72.3	3.9	7.43e-01	0	23	104	0	75	32157
2026-01-12 02:15:37.12	199.76	4.91	-53.7	-72.8	3.8	7.47e-01	0	23	104	0	75	33832
2026-01-12 02:15:38.13	199.78	4.84	-53.7	-72.8	3.8	7.44e-01	0	23	104	0	75	34011
2026-01-12 02:15:39.14	199.79	4.76	-53.8	-72.8	3.8	7.45e-01	0	23	104	0	75	33876
2026-01-12 02:15:40.15	199.81	4.69	-53.7	-72.6	3.8	7.45e-01	0	23	104	0	75	32967
2026-01-12 02:15:41.16	199.82	4.61	-53.8	-72.8	3.8	7.47e-01	0	23	104	0	75	33812
2026-01-12 02:15:42.17	199.83	4.54	-53.7	-72.6	3.8	7.46e-01	0	23	104	0	75	33092
2026-01-12 02:15:43.18	199.85	4.46	-53.7	-72.7	3.8	7.46e-01	0	23	104	0	75	33607
2026-01-12 02:15:44.19	199.86	4.39	-53.7	-72.8	3.8	7.49e-01	0	23	104	0	75	33826
2026-01-12 02:15:45.20	199.87	4.32	-53.7	-72.8	3.8	7.46e-01	0	23	104	0	75	33935
2026-01-12 02:15:46.21	199.89	4.24	-53.7	-71.4	3.8	7.45e-01	0	23	104	0	75	28756
2026-01-12 02:15:47.22	199.90	4.17	-53.7	-72.8	3.8	7.45e-01	0	23	104	0	75	33710
2026-01-12 02:15:48.22	199.91	4.10	-53.7	-71.5	3.8	7.46e-01	0	23	104	0	75	29120
2026-01-12 02:15:49.23	199.93	4.02	-53.7	-72.7	3.8	7.44e-01	0	23	104	0	75	33411
2026-01-12 02:15:50.24	199.94	3.95	-53.7	-71.8	3.8	7.45e-01	0	23	104	0	75	30103
2026-01-12 02:15:51.25	199.95	3.88	-53.7	-72.2	3.9	7.42e-01	0	23	104	0	75	31758
2026-01-12 02:15:52.26	199.97	3.81	-53.7	-72.8	3.8	7.46e-01	0	23	104	0	75	33702
2026-01-12 02:15:53.27	199.98	3.73	-53.7	-72.6	3.8	7.48e-01	0	23	104	0	75	33284
2026-01-12 02:15:54.28	199.99	3.66	-53.7	-73.1	3.8	7.47e-01	0	23	104	0	75	34937
2026-01-12 02:15:55.29	200.01	3.59	-53.7	-72.8	3.8	7.43e-01	0	23	104	0	75	33808
