passes_logs/2026/01/12/R3.2S_Murmansk/R3.2S_Murmansk__20260112_130523_FENGYUN_3D_rec.log

#Pass ID: 20260112_130523_FENGYUN 3D
#Satellite: FENGYUN 3D
#Configuration: FENGYUN 3D
#almurnet v.1.7.20251203
#Start time: 2026-01-12 13:05:24

#Version: 2.2.20231116
#Station: R3.2S_Murmansk
#Location: 33.079688 lon 68.888172 lat
#TLE: 1 43010U 17072A   26011.62066612  .00000104  00000+0  70810-4 0  9998
#TLE: 2 43010  98.9935 343.3846 0002223 114.2890 245.8518 14.19694405422776

#Time	Az	El	Level	Level2	SNR	BER	BlckErr	Temp	State	Recorded	gain1	gain2
2026-01-12 13:05:24.99	189.53	2.08	-57.2	-70.0	3.8	8.45e-01	0	20	0	0	80	15783
2026-01-12 13:05:25.99	189.58	2.14	-57.1	-70.1	3.8	8.46e-01	0	20	104	0	79	17005
2026-01-12 13:05:26.99	189.62	2.20	-57.1	-70.1	3.8	8.45e-01	0	20	104	0	79	16984
2026-01-12 13:05:28.00	189.67	2.26	-57.1	-70.1	3.8	8.46e-01	0	21	104	0	79	16939
2026-01-12 13:05:28.99	189.72	2.32	-57.1	-70.1	3.8	8.46e-01	0	21	104	0	79	16938
2026-01-12 13:05:29.99	189.77	2.39	-57.1	-70.0	3.8	8.46e-01	0	21	104	0	79	16811
2026-01-12 13:05:30.99	189.82	2.45	-57.1	-70.0	3.8	8.46e-01	0	21	104	0	79	16869
2026-01-12 13:05:31.98	189.86	2.51	-57.1	-70.0	3.8	8.45e-01	0	21	104	0	79	16877
2026-01-12 13:05:32.99	189.91	2.57	-57.1	-70.0	3.8	8.46e-01	0	21	104	0	79	16803
2026-01-12 13:05:33.99	189.96	2.63	-57.1	-70.0	3.8	8.47e-01	0	21	104	0	79	16844
2026-01-12 13:05:34.99	190.01	2.69	-57.1	-70.0	3.8	8.45e-01	0	21	104	0	79	16698
2026-01-12 13:05:35.99	190.06	2.75	-57.1	-69.9	3.8	8.46e-01	0	21	104	0	79	16644
2026-01-12 13:05:36.99	190.11	2.82	-57.1	-69.8	3.8	8.45e-01	0	21	104	0	79	16338
2026-01-12 13:05:37.98	190.15	2.88	-57.1	-69.9	3.8	8.47e-01	0	21	104	0	79	16571
2026-01-12 13:05:38.98	190.20	2.94	-57.2	-69.9	3.8	8.46e-01	0	21	104	0	79	16659
2026-01-12 13:05:39.99	190.25	3.00	-57.1	-69.9	3.8	8.47e-01	0	21	104	0	79	16566
2026-01-12 13:05:40.98	190.30	3.07	-57.1	-69.9	3.8	8.45e-01	0	21	104	0	79	16686
2026-01-12 13:05:41.99	190.35	3.13	-57.2	-70.0	3.8	8.45e-01	0	21	104	0	79	16803
2026-01-12 13:05:42.99	190.40	3.19	-57.1	-70.0	3.8	8.46e-01	0	21	104	0	79	16767
2026-01-12 13:05:43.98	190.45	3.25	-57.1	-69.8	3.8	8.46e-01	0	21	104	0	79	16462
2026-01-12 13:05:44.98	190.50	3.32	-57.1	-69.9	3.8	8.46e-01	0	21	104	0	79	16613
2026-01-12 13:05:45.98	190.55	3.38	-57.1	-69.6	3.8	8.45e-01	0	21	104	0	79	16082
2026-01-12 13:05:46.96	190.60	3.44	-57.1	-69.5	3.8	8.46e-01	0	21	104	0	79	15796
2026-01-12 13:05:47.97	190.66	3.51	-57.1	-69.6	3.8	8.46e-01	0	21	104	0	79	16091
2026-01-12 13:05:48.97	190.71	3.57	-57.1	-69.7	3.8	8.45e-01	0	21	104	0	79	16187
2026-01-12 13:05:49.96	190.76	3.63	-57.1	-70.0	3.8	8.46e-01	0	21	104	0	79	16836
2026-01-12 13:05:50.95	190.81	3.69	-57.2	-70.1	3.8	8.45e-01	0	21	104	0	79	17059
2026-01-12 13:05:51.95	190.86	3.76	-57.1	-70.1	3.8	8.46e-01	0	21	104	0	79	16956
2026-01-12 13:05:52.95	190.91	3.82	-57.1	-69.4	3.8	8.46e-01	0	21	104	0	79	15598
2026-01-12 13:05:53.95	190.97	3.89	-57.0	-68.1	3.9	8.44e-01	0	21	104	0	79	13512
2026-01-12 13:05:54.94	191.02	3.95	-56.9	-66.6	4.2	8.42e-01	0	21	0	0	79	11291
2026-01-12 13:05:55.94	191.07	4.01	-56.7	-65.5	4.5	8.28e-01	0	21	0	0	79	9978
2026-01-12 13:05:56.93	191.12	4.08	-56.5	-64.1	5.2	7.67e-01	0	21	0	0	79	8515
2026-01-12 13:05:57.93	191.18	4.14	-56.3	-63.3	5.8	5.62e-01	0	21	0	2097152	79	7725
2026-01-12 13:05:58.93	191.23	4.21	-56.1	-62.4	6.3	2.91e-01	0	21	0	7340032	78	7375
2026-01-12 13:05:59.92	191.28	4.27	-56.0	-62.2	6.5	2.90e-01	0	22	0	12582912	78	7218
2026-01-12 13:06:00.93	191.34	4.34	-55.8	-61.5	7.0	9.41e-02	0	22	0	18874368	77	7118
2026-01-12 13:06:01.92	191.39	4.40	-55.7	-61.3	7.3	8.29e-02	0	22	0	24117248	77	6904
2026-01-12 13:06:02.91	191.45	4.47	-55.4	-60.3	8.1	6.95e-02	0	21	0	29360128	77	6176
2026-01-12 13:06:03.91	191.50	4.53	-54.9	-59.2	9.1	1.26e-02	0	21	0	35651584	76	5756
2026-01-12 13:06:04.90	191.55	4.60	-54.3	-58.0	10.1	1.17e-02	0	21	0	40894464	75	5334
2026-01-12 13:06:05.90	191.61	4.66	-54.0	-57.5	10.6	2.19e-03	0	21	0	47185920	74	5282
2026-01-12 13:06:06.90	191.66	4.73	-53.0	-55.9	11.7	3.02e-04	0	21	0	52428800	72	4951
2026-01-12 13:06:07.89	191.72	4.80	-52.5	-55.1	12.3	1.48e-05	0	22	0	57671680	71	4805
2026-01-12 13:06:08.89	191.78	4.86	-52.0	-54.3	12.9	4.50e-06	0	22	0	62914560	70	4636
2026-01-12 13:06:09.88	191.83	4.93	-52.4	-55.0	12.3	2.20e-06	0	22	0	69206016	70	5013
2026-01-12 13:06:10.88	191.89	4.99	-51.8	-54.1	13.0	5.70e-06	0	22	0	74448896	70	4520
2026-01-12 13:06:11.88	191.94	5.06	-51.9	-54.2	12.8	1.10e-06	0	21	0	79691776	69	4860
2026-01-12 13:06:12.88	192.00	5.13	-56.8	-66.6	4.2	4.31e-01	0	22	0	84934656	78	12009
2026-01-12 13:06:13.88	192.06	5.19	-49.1	-50.8	14.6	5.49e-05	0	22	0	85983232	64	4343
2026-01-12 13:06:14.88	192.11	5.26	-53.0	-55.8	11.8	6.80e-06	0	22	0	91226112	71	5192
2026-01-12 13:06:15.87	192.17	5.33	-49.2	-50.9	14.5	0.00e+00	0	22	0	97517568	64	4404
2026-01-12 13:06:16.87	192.23	5.39	-48.6	-50.2	14.8	0.00e+00	0	21	0	102760448	63	4301
2026-01-12 13:06:17.87	192.29	5.46	-48.9	-50.5	14.6	0.00e+00	0	22	0	108003328	63	4476
2026-01-12 13:06:18.86	192.34	5.53	-48.7	-50.3	14.8	0.00e+00	0	22	0	114294784	63	4345
2026-01-12 13:06:19.86	192.40	5.60	-48.6	-50.2	14.8	0.00e+00	0	22	0	119537664	63	4329
2026-01-12 13:06:20.85	192.46	5.66	-48.6	-50.1	14.8	0.00e+00	0	22	0	124780544	63	4291
2026-01-12 13:06:21.85	192.52	5.73	-48.6	-50.1	14.8	0.00e+00	0	22	0	131072000	63	4286
2026-01-12 13:06:22.84	192.58	5.80	-48.8	-50.4	14.7	0.00e+00	0	22	0	136314880	63	4405
2026-01-12 13:06:23.83	192.64	5.87	-48.5	-50.1	14.9	0.00e+00	0	22	0	141557760	63	4251
2026-01-12 13:06:24.84	192.70	5.94	-48.4	-49.9	15.0	0.00e+00	0	22	0	147849216	63	4164
2026-01-12 13:06:25.84	192.76	6.01	-48.5	-50.0	15.0	0.00e+00	0	22	0	153092096	63	4218
2026-01-12 13:06:26.82	192.82	6.07	-48.5	-50.0	14.9	0.00e+00	0	22	0	158334976	63	4212
2026-01-12 13:06:27.82	192.88	6.14	-48.3	-49.8	15.1	0.00e+00	0	22	0	164626432	63	4131
2026-01-12 13:06:28.81	192.94	6.21	-48.0	-49.5	15.0	0.00e+00	0	22	0	169869312	62	4232
2026-01-12 13:06:29.82	193.00	6.28	-48.4	-50.0	14.8	0.00e+00	0	22	0	175112192	62	4442
2026-01-12 13:06:30.81	193.06	6.35	-48.1	-49.5	15.1	0.00e+00	0	22	0	181403648	62	4238
2026-01-12 13:06:31.81	193.12	6.42	-48.1	-49.6	15.0	0.00e+00	0	22	0	186646528	62	4257
2026-01-12 13:06:32.79	193.18	6.49	-48.1	-49.6	15.0	0.00e+00	0	22	0	191889408	62	4250
2026-01-12 13:06:33.80	193.24	6.56	-48.2	-49.7	15.0	0.00e+00	0	22	0	198180864	62	4302
2026-01-12 13:06:34.80	193.31	6.63	-48.0	-49.5	15.1	0.00e+00	0	22	0	203423744	62	4209
2026-01-12 13:06:35.80	193.37	6.70	-47.8	-49.2	15.3	0.00e+00	0	22	0	209715200	62	4090
2026-01-12 13:06:36.80	193.43	6.77	-48.1	-49.6	15.0	0.00e+00	0	22	0	214958080	62	4274
2026-01-12 13:06:37.80	193.50	6.84	-48.0	-49.4	15.2	0.00e+00	0	22	0	220200960	62	4174
2026-01-12 13:06:38.80	193.56	6.91	-47.9	-49.4	15.2	0.00e+00	0	22	0	226492416	62	4159
2026-01-12 13:06:39.80	193.62	6.98	-47.9	-49.3	15.2	0.00e+00	0	22	0	231735296	62	4129
2026-01-12 13:06:40.81	193.69	7.05	-47.9	-49.3	15.2	0.00e+00	0	22	0	236978176	62	4145
2026-01-12 13:06:41.80	193.75	7.13	-47.9	-49.4	15.2	0.00e+00	0	22	0	243269632	62	4171
2026-01-12 13:06:42.80	193.82	7.20	-47.9	-49.3	15.2	0.00e+00	0	22	0	248512512	62	4124
2026-01-12 13:06:43.80	193.88	7.27	-47.8	-49.3	15.3	0.00e+00	0	22	0	253755392	62	4112
2026-01-12 13:06:44.79	193.95	7.34	-48.1	-49.6	15.0	0.00e+00	0	22	0	260046848	62	4268
2026-01-12 13:06:45.80	194.01	7.41	-47.9	-49.4	15.2	0.00e+00	0	22	0	265289728	62	4147
2026-01-12 13:06:46.79	194.08	7.48	-47.9	-49.4	15.2	0.00e+00	0	22	0	270532608	62	4155
2026-01-12 13:06:47.78	194.14	7.56	-47.7	-49.1	15.4	0.00e+00	0	22	0	276824064	62	4037
2026-01-12 13:06:48.78	194.21	7.63	-47.8	-49.3	15.3	0.00e+00	0	22	0	282066944	62	4100
2026-01-12 13:06:49.78	194.28	7.70	-47.9	-49.4	15.2	0.00e+00	0	22	0	287309824	62	4163
2026-01-12 13:06:50.79	194.34	7.77	-47.9	-49.3	15.3	0.00e+00	0	22	0	293601280	62	4131
2026-01-12 13:06:51.78	194.41	7.85	-48.0	-49.4	15.2	0.00e+00	0	22	0	298844160	62	4175
2026-01-12 13:06:52.77	194.48	7.92	-48.1	-49.5	15.1	0.00e+00	0	22	0	304087040	62	4228
2026-01-12 13:06:53.76	194.55	7.99	-47.7	-49.1	15.2	0.00e+00	0	22	0	310378496	61	4272
2026-01-12 13:06:54.76	194.61	8.07	-47.7	-49.2	15.1	0.00e+00	0	22	0	315621376	61	4296
2026-01-12 13:06:55.76	194.68	8.14	-47.8	-49.2	15.1	0.00e+00	0	22	0	321912832	61	4321
2026-01-12 13:06:56.76	194.75	8.21	-48.0	-49.4	15.0	0.00e+00	0	22	0	327155712	61	4438
2026-01-12 13:06:57.75	194.82	8.29	-47.9	-49.4	15.0	0.00e+00	0	22	0	332398592	61	4418
2026-01-12 13:06:58.75	194.89	8.36	-47.8	-49.2	15.1	0.00e+00	0	22	0	338690048	61	4334
2026-01-12 13:06:59.75	194.96	8.44	-47.7	-49.1	15.1	0.00e+00	0	22	0	343932928	61	4272
2026-01-12 13:07:00.75	195.03	8.51	-47.7	-49.1	15.2	0.00e+00	0	22	0	349175808	61	4255
2026-01-12 13:07:01.75	195.10	8.59	-47.8	-49.3	15.1	0.00e+00	0	22	0	355467264	61	4350
2026-01-12 13:07:02.76	195.17	8.66	-47.7	-49.1	15.2	0.00e+00	0	22	0	360710144	61	4261
2026-01-12 13:07:03.76	195.25	8.74	-47.8	-49.2	15.1	0.00e+00	0	22	0	365953024	61	4334
2026-01-12 13:07:04.76	195.32	8.81	-47.6	-49.0	15.2	0.00e+00	0	22	0	372244480	61	4225
2026-01-12 13:07:05.76	195.39	8.89	-47.6	-49.1	15.2	0.00e+00	0	22	0	377487360	61	4246
2026-01-12 13:07:06.76	195.46	8.96	-47.5	-48.8	15.3	0.00e+00	0	22	0	383778816	61	4137
2026-01-12 13:07:07.77	195.54	9.04	-47.5	-48.9	15.3	0.00e+00	0	22	0	389021696	61	4178
2026-01-12 13:07:08.77	195.61	9.12	-47.6	-49.0	15.3	0.00e+00	0	22	0	394264576	61	4206
2026-01-12 13:07:09.77	195.68	9.19	-47.4	-48.8	15.4	0.00e+00	0	22	0	400556032	61	4138
2026-01-12 13:07:10.77	195.76	9.27	-47.5	-48.9	15.3	0.00e+00	0	22	0	405798912	61	4166
2026-01-12 13:07:11.77	195.83	9.35	-47.5	-48.9	15.3	0.00e+00	0	22	0	411041792	61	4157
2026-01-12 13:07:12.77	195.91	9.42	-47.5	-48.9	15.3	0.00e+00	0	22	0	417333248	61	4161
2026-01-12 13:07:13.78	195.98	9.50	-47.5	-48.9	15.3	0.00e+00	0	22	0	422576128	61	4159
2026-01-12 13:07:14.78	196.06	9.58	-47.6	-49.0	15.3	0.00e+00	0	22	0	427819008	61	4206
2026-01-12 13:07:15.79	196.13	9.66	-47.5	-48.9	15.3	0.00e+00	0	22	0	434110464	61	4190
2026-01-12 13:07:16.79	196.21	9.74	-47.5	-48.9	15.4	0.00e+00	0	22	0	439353344	61	4156
2026-01-12 13:07:17.79	196.29	9.81	-47.6	-49.0	15.3	0.00e+00	0	22	0	445644800	61	4203
2026-01-12 13:07:18.80	196.36	9.89	-47.4	-48.8	15.4	0.00e+00	0	22	0	450887680	61	4136
2026-01-12 13:07:19.80	196.44	9.97	-47.4	-48.8	15.4	0.00e+00	0	22	0	457179136	61	4137
2026-01-12 13:07:20.80	196.52	10.05	-47.5	-48.9	15.3	0.00e+00	0	22	0	462422016	61	4182
2026-01-12 13:07:21.80	196.60	10.13	-47.4	-48.8	15.4	0.00e+00	0	22	0	467664896	61	4142
2026-01-12 13:07:22.80	196.68	10.21	-47.5	-48.9	15.4	0.00e+00	0	22	0	473956352	61	4162
2026-01-12 13:07:23.80	196.76	10.29	-47.5	-48.9	15.4	0.00e+00	0	22	0	479199232	61	4159
2026-01-12 13:07:24.81	196.84	10.37	-47.5	-48.9	15.3	0.00e+00	0	22	0	484442112	61	4185
2026-01-12 13:07:25.81	196.92	10.45	-47.6	-49.0	15.3	0.00e+00	0	22	0	490733568	61	4219
2026-01-12 13:07:26.81	197.00	10.53	-47.5	-48.9	15.3	0.00e+00	0	22	0	495976448	61	4171
2026-01-12 13:07:27.81	197.08	10.61	-47.5	-48.9	15.3	0.00e+00	0	22	0	501219328	61	4178
2026-01-12 13:07:28.81	197.16	10.69	-47.6	-49.0	15.3	0.00e+00	0	22	0	507510784	61	4239
2026-01-12 13:07:29.81	197.24	10.77	-47.3	-48.7	15.5	0.00e+00	0	22	0	512753664	61	4076
2026-01-12 13:07:30.81	197.32	10.85	-47.4	-48.8	15.4	0.00e+00	0	22	0	519045120	61	4137
2026-01-12 13:07:31.82	197.40	10.93	-47.4	-48.8	15.4	0.00e+00	0	22	0	524288000	61	4114
2026-01-12 13:07:32.82	197.49	11.01	-47.3	-48.7	15.5	0.00e+00	0	22	0	529530880	61	4055
2026-01-12 13:07:33.83	197.57	11.10	-47.2	-48.6	15.6	0.00e+00	0	22	0	535822336	61	4010
2026-01-12 13:07:34.83	197.66	11.18	-47.0	-48.4	15.4	0.00e+00	0	22	0	541065216	60	4172
2026-01-12 13:07:35.83	197.74	11.26	-47.1	-48.5	15.4	0.00e+00	0	22	0	546308096	60	4195
2026-01-12 13:07:36.83	197.82	11.34	-47.0	-48.3	15.5	0.00e+00	0	22	0	552599552	60	4131
2026-01-12 13:07:37.84	197.91	11.42	-47.1	-48.5	15.4	0.00e+00	0	22	0	557842432	60	4195
2026-01-12 13:07:38.84	198.00	11.51	-47.0	-48.4	15.5	0.00e+00	0	22	0	564133888	60	4155
2026-01-12 13:07:39.84	198.08	11.59	-46.9	-48.2	15.5	0.00e+00	0	22	0	569376768	60	4087
2026-01-12 13:07:40.85	198.17	11.67	-46.8	-48.1	15.6	0.00e+00	0	22	0	575668224	60	4046
2026-01-12 13:07:41.85	198.26	11.76	-46.8	-48.1	15.6	0.00e+00	0	22	0	580911104	60	4026
2026-01-12 13:07:42.85	198.34	11.84	-46.7	-48.0	15.7	0.00e+00	0	22	0	586153984	60	3997
2026-01-12 13:07:43.85	198.43	11.92	-46.7	-48.0	15.7	0.00e+00	0	22	0	592445440	60	3997
2026-01-12 13:07:44.85	198.52	12.01	-46.7	-48.0	15.7	0.00e+00	0	22	0	597688320	60	3992
2026-01-12 13:07:45.85	198.61	12.09	-46.7	-48.0	15.7	0.00e+00	0	22	0	602931200	60	4000
2026-01-12 13:07:46.85	198.70	12.18	-47.0	-48.4	15.3	0.00e+00	0	22	0	609222656	59	4414
2026-01-12 13:07:47.85	198.79	12.26	-47.1	-48.5	15.3	0.00e+00	0	22	0	614465536	59	4450
2026-01-12 13:07:48.86	198.88	12.35	-47.1	-48.5	15.3	0.00e+00	0	22	0	619708416	59	4445
2026-01-12 13:07:49.85	198.97	12.43	-47.1	-48.5	15.3	0.00e+00	0	22	0	625999872	59	4452
2026-01-12 13:07:50.85	199.06	12.52	-47.0	-48.4	15.4	0.00e+00	0	22	0	631242752	59	4401
2026-01-12 13:07:51.85	199.15	12.60	-47.1	-48.5	15.3	0.00e+00	0	22	0	637534208	59	4485
2026-01-12 13:07:52.84	199.24	12.69	-47.1	-48.5	15.3	0.00e+00	0	22	0	642777088	59	4458
2026-01-12 13:07:53.84	199.34	12.77	-47.1	-48.4	15.3	0.00e+00	0	22	0	648019968	59	4434
2026-01-12 13:07:54.85	199.43	12.86	-47.0	-48.4	15.3	0.00e+00	0	22	0	654311424	59	4412
2026-01-12 13:07:55.84	199.52	12.95	-47.1	-48.4	15.3	0.00e+00	0	22	0	659554304	59	4440
2026-01-12 13:07:56.84	199.62	13.03	-47.0	-48.4	15.4	0.00e+00	0	22	0	664797184	59	4395
2026-01-12 13:07:57.84	199.71	13.12	-46.9	-48.3	15.4	0.00e+00	0	22	0	670040064	59	4359
2026-01-12 13:07:58.83	199.81	13.21	-47.0	-48.3	15.4	0.00e+00	0	22	0	676331520	59	4384
2026-01-12 13:07:59.83	199.90	13.29	-47.0	-48.4	15.4	0.00e+00	0	22	0	681574400	59	4393
2026-01-12 13:08:00.83	200.00	13.38	-46.8	-48.2	15.5	0.00e+00	0	22	0	687865856	59	4313
2026-01-12 13:08:01.82	200.10	13.47	-46.9	-48.2	15.4	0.00e+00	0	22	0	693108736	59	4313
2026-01-12 13:08:02.82	200.19	13.56	-46.8	-48.1	15.5	0.00e+00	0	22	0	698351616	59	4276
2026-01-12 13:08:03.82	200.29	13.65	-46.8	-48.1	15.5	0.00e+00	0	22	0	704643072	59	4280
2026-01-12 13:08:04.82	200.39	13.73	-46.7	-48.1	15.5	0.00e+00	0	22	0	709885952	59	4262
2026-01-12 13:08:05.82	200.49	13.82	-48.8	-50.2	15.1	0.00e+00	0	22	0	715128832	64	4095
2026-01-12 13:08:06.83	200.59	13.91	-49.1	-50.7	14.8	0.00e+00	0	22	0	721420288	64	4300
2026-01-12 13:08:07.82	200.69	14.00	-48.6	-50.1	15.0	0.00e+00	0	22	0	726663168	63	4281
2026-01-12 13:08:08.82	200.79	14.09	-47.9	-49.3	15.3	0.00e+00	0	22	0	731906048	62	4133
2026-01-12 13:08:09.83	200.89	14.18	-47.8	-49.2	15.4	0.00e+00	0	22	0	738197504	62	4074
2026-01-12 13:08:10.82	201.00	14.27	-47.7	-49.1	15.2	0.00e+00	0	22	0	743440384	61	4269
2026-01-12 13:08:11.82	201.10	14.36	-47.6	-49.0	15.2	0.00e+00	0	22	0	749731840	61	4241
2026-01-12 13:08:12.81	201.20	14.45	-47.3	-48.7	15.5	0.00e+00	0	22	0	754974720	61	4060
2026-01-12 13:08:13.81	201.31	14.54	-46.7	-48.0	15.7	0.00e+00	0	22	0	760217600	60	3974
2026-01-12 13:08:14.80	201.41	14.63	-47.0	-48.3	15.4	0.00e+00	0	22	0	766509056	59	4358
2026-01-12 13:08:15.79	201.51	14.72	-47.0	-48.2	15.5	0.00e+00	0	22	0	771751936	59	4330
2026-01-12 13:08:16.78	201.62	14.82	-46.7	-47.9	15.6	0.00e+00	0	22	0	776994816	59	4192
2026-01-12 13:08:17.78	201.72	14.91	-46.6	-47.8	15.7	0.00e+00	0	22	0	782237696	59	4113
2026-01-12 13:08:18.78	201.83	15.00	-46.7	-47.9	15.6	0.00e+00	0	22	0	788529152	59	4168
2026-01-12 13:08:19.78	201.94	15.09	-46.5	-47.6	15.8	0.00e+00	0	22	0	793772032	59	4042
2026-01-12 13:08:20.78	202.05	15.19	-46.6	-47.8	15.7	0.00e+00	0	22	0	800063488	59	4099
2026-01-12 13:08:21.78	202.16	15.28	-46.5	-47.7	15.7	0.00e+00	0	22	0	805306368	59	4078
2026-01-12 13:08:22.78	202.27	15.37	-46.5	-47.6	15.8	0.00e+00	0	22	0	810549248	59	4051
2026-01-12 13:08:23.77	202.38	15.46	-46.4	-47.6	15.8	0.00e+00	0	22	0	816840704	59	4030
2026-01-12 13:08:24.77	202.49	15.56	-46.4	-47.6	15.8	0.00e+00	0	22	0	822083584	59	4016
2026-01-12 13:08:25.78	202.60	15.65	-46.5	-47.7	15.7	0.00e+00	0	22	0	827326464	59	4080
2026-01-12 13:08:26.78	202.71	15.75	-46.5	-47.7	15.8	0.00e+00	0	22	0	833617920	59	4055
2026-01-12 13:08:27.78	202.83	15.84	-46.4	-47.5	15.8	0.00e+00	0	22	0	838860800	59	3994
2026-01-12 13:08:28.78	202.94	15.94	-46.3	-47.5	15.8	0.00e+00	0	22	0	844103680	59	3960
2026-01-12 13:08:29.77	203.05	16.03	-46.2	-47.4	15.9	0.00e+00	0	22	0	850395136	59	3928
2026-01-12 13:08:30.77	203.17	16.13	-46.3	-47.5	15.9	0.00e+00	0	22	0	855638016	59	3965
2026-01-12 13:08:31.77	203.28	16.22	-46.3	-47.5	15.8	0.00e+00	0	22	0	861929472	59	3961
2026-01-12 13:08:32.77	203.40	16.32	-46.1	-47.2	15.8	0.00e+00	0	22	0	867172352	58	4083
2026-01-12 13:08:33.77	203.52	16.41	-46.0	-47.2	15.8	0.00e+00	0	22	0	872415232	58	4071
2026-01-12 13:08:34.77	203.64	16.51	-46.1	-47.2	15.8	0.00e+00	0	22	0	878706688	58	4077
2026-01-12 13:08:35.76	203.75	16.61	-46.0	-47.1	15.8	0.00e+00	0	22	0	883949568	58	4050
2026-01-12 13:08:36.75	203.87	16.70	-46.0	-47.2	15.8	0.00e+00	0	22	0	889192448	58	4053
2026-01-12 13:08:37.74	203.99	16.80	-46.0	-47.2	15.8	0.00e+00	0	22	0	894435328	58	4054
2026-01-12 13:08:38.74	204.11	16.90	-46.1	-47.3	15.8	0.00e+00	0	22	0	900726784	58	4108
2026-01-12 13:08:39.74	204.23	17.00	-46.1	-47.2	15.8	0.00e+00	0	22	0	905969664	58	4095
2026-01-12 13:08:40.73	204.36	17.09	-46.2	-47.3	15.7	0.00e+00	0	22	0	912261120	58	4139
2026-01-12 13:08:41.73	204.48	17.19	-46.2	-47.4	15.7	0.00e+00	0	22	0	917504000	58	4155
2026-01-12 13:08:42.73	204.60	17.29	-46.2	-47.4	15.7	0.00e+00	0	22	0	922746880	58	4163
2026-01-12 13:08:43.73	204.73	17.39	-46.2	-47.4	15.8	0.00e+00	0	22	0	929038336	58	4146
2026-01-12 13:08:44.73	204.85	17.49	-46.1	-47.2	15.8	0.00e+00	0	22	0	934281216	58	4092
2026-01-12 13:08:45.73	204.98	17.59	-46.1	-47.2	15.8	0.00e+00	0	22	0	939524096	58	4086
2026-01-12 13:08:46.72	205.11	17.69	-46.0	-47.2	15.8	0.00e+00	0	22	0	945815552	58	4054
2026-01-12 13:08:47.71	205.23	17.79	-46.0	-47.1	15.8	0.00e+00	0	22	0	951058432	58	4047
2026-01-12 13:08:48.71	205.36	17.89	-46.0	-47.1	15.8	0.00e+00	0	22	0	956301312	58	4039
2026-01-12 13:08:49.70	205.49	17.99	-45.9	-47.0	15.9	0.00e+00	0	22	0	962592768	58	3995
2026-01-12 13:08:50.69	205.62	18.08	-45.8	-47.0	15.9	0.00e+00	0	22	0	967835648	58	3971
2026-01-12 13:08:51.69	205.75	18.19	-46.0	-47.1	15.9	0.00e+00	0	22	0	973078528	58	4032
2026-01-12 13:08:52.69	205.88	18.29	-45.9	-47.0	15.9	0.00e+00	0	22	0	979369984	58	3991
2026-01-12 13:08:53.68	206.01	18.39	-45.8	-46.9	16.0	0.00e+00	0	22	0	984612864	58	3935
2026-01-12 13:08:54.66	206.15	18.49	-45.9	-47.0	15.9	0.00e+00	0	22	0	989855744	58	3978
2026-01-12 13:08:55.66	206.28	18.59	-45.8	-46.9	16.0	0.00e+00	0	22	0	996147200	58	3930
2026-01-12 13:08:56.65	206.41	18.69	-45.7	-46.8	16.0	0.00e+00	0	22	0	1001390080	58	3893
2026-01-12 13:08:57.65	206.55	18.79	-45.6	-46.7	15.9	0.00e+00	0	22	0	1006632960	57	4080
2026-01-12 13:08:58.64	206.69	18.90	-45.6	-46.7	15.9	0.00e+00	0	22	0	1012924416	57	4081
2026-01-12 13:08:59.64	206.83	19.00	-45.6	-46.7	15.9	0.00e+00	0	22	0	1018167296	57	4070
2026-01-12 13:09:00.63	206.96	19.10	-45.6	-46.7	15.8	0.00e+00	0	22	0	1023410176	57	4098
2026-01-12 13:09:01.62	207.10	19.21	-45.6	-46.7	15.9	0.00e+00	0	22	0	1029701632	57	4063
2026-01-12 13:09:02.62	207.24	19.31	-45.6	-46.8	15.8	0.00e+00	0	22	0	1034944512	57	4113
2026-01-12 13:09:03.61	207.38	19.41	-45.5	-46.6	15.9	0.00e+00	0	22	0	1040187392	57	4014
2026-01-12 13:09:04.61	207.53	19.52	-45.5	-46.6	15.9	0.00e+00	0	22	0	1046478848	57	4035
2026-01-12 13:09:05.61	207.67	19.62	-45.4	-46.5	15.9	0.00e+00	0	22	0	1051721728	57	4002
2026-01-12 13:09:06.61	207.82	19.73	-45.3	-46.4	16.0	0.00e+00	0	22	0	1058013184	57	3935
2026-01-12 13:09:07.60	207.96	19.83	-45.3	-46.4	16.0	0.00e+00	0	22	0	1063256064	57	3947
2026-01-12 13:09:08.60	208.11	19.94	-45.3	-46.4	16.0	0.00e+00	0	22	0	1068498944	57	3952
2026-01-12 13:09:09.60	208.25	20.04	-45.3	-46.5	16.0	0.00e+00	0	22	0	1074790400	57	3959
2026-01-12 13:09:10.60	208.40	20.15	-45.3	-46.4	16.0	0.00e+00	0	22	0	1080033280	57	3945
2026-01-12 13:09:11.60	208.55	20.26	-45.3	-46.4	16.0	0.00e+00	0	22	0	1085276160	57	3952
2026-01-12 13:09:12.60	208.70	20.36	-45.2	-46.3	16.0	0.00e+00	0	22	0	1091567616	57	3909
2026-01-12 13:09:13.61	208.86	20.47	-45.2	-46.3	16.0	0.00e+00	0	22	0	1096810496	57	3912
2026-01-12 13:09:14.60	209.01	20.58	-45.2	-46.3	16.1	0.00e+00	0	22	0	1102053376	57	3905
2026-01-12 13:09:15.60	209.16	20.69	-45.2	-46.3	16.0	0.00e+00	0	22	0	1108344832	57	3903
2026-01-12 13:09:16.60	209.32	20.79	-45.3	-46.4	16.0	0.00e+00	0	22	0	1113587712	57	3955
2026-01-12 13:09:17.60	209.47	20.90	-45.2	-46.3	16.1	0.00e+00	0	22	0	1119879168	57	3886
2026-01-12 13:09:18.60	209.63	21.01	-45.2	-46.3	16.1	0.00e+00	0	22	0	1125122048	57	3882
2026-01-12 13:09:19.60	209.79	21.12	-45.1	-46.2	15.9	0.00e+00	0	22	0	1130364928	56	4076
2026-01-12 13:09:20.60	209.95	21.23	-45.1	-46.2	15.9	0.00e+00	0	22	0	1136656384	56	4094
2026-01-12 13:09:21.60	210.11	21.34	-45.2	-46.3	15.9	0.00e+00	0	22	0	1141899264	56	4108
2026-01-12 13:09:22.60	210.27	21.45	-45.2	-46.3	15.9	0.00e+00	0	22	0	1147142144	56	4141
2026-01-12 13:09:23.60	210.43	21.56	-45.2	-46.3	15.9	0.00e+00	0	23	0	1153433600	56	4122
2026-01-12 13:09:24.60	210.59	21.67	-45.3	-46.4	15.9	0.00e+00	0	22	0	1158676480	56	4162
2026-01-12 13:09:25.60	210.76	21.78	-45.2	-46.3	15.9	0.00e+00	0	23	0	1163919360	56	4121
2026-01-12 13:09:26.61	210.93	21.89	-45.2	-46.3	15.9	0.00e+00	0	22	0	1170210816	56	4140
2026-01-12 13:09:27.61	211.09	22.00	-45.2	-46.3	15.9	0.00e+00	0	22	0	1175453696	56	4128
2026-01-12 13:09:28.61	211.26	22.11	-45.2	-46.3	15.9	0.00e+00	0	23	0	1181745152	56	4109
2026-01-12 13:09:29.60	211.43	22.22	-45.1	-46.2	15.9	0.00e+00	0	22	0	1186988032	56	4076
2026-01-12 13:09:30.60	211.60	22.33	-45.2	-46.3	15.9	0.00e+00	0	22	0	1192230912	56	4127
2026-01-12 13:09:31.60	211.77	22.44	-45.2	-46.3	15.9	0.00e+00	0	22	0	1198522368	56	4113
2026-01-12 13:09:32.60	211.94	22.55	-44.9	-46.0	16.0	0.00e+00	0	22	0	1203765248	56	3972
2026-01-12 13:09:33.60	212.12	22.66	-44.8	-45.9	16.1	0.00e+00	0	22	0	1209008128	56	3932
2026-01-12 13:09:34.61	212.30	22.78	-44.8	-45.9	16.1	0.00e+00	0	22	0	1215299584	56	3934
2026-01-12 13:09:35.61	212.47	22.89	-44.8	-45.9	16.0	0.00e+00	0	22	0	1220542464	56	3941
2026-01-12 13:09:36.61	212.65	23.00	-44.7	-45.7	16.1	0.00e+00	0	22	0	1225785344	56	3868
2026-01-12 13:09:37.60	212.83	23.12	-44.5	-45.6	16.0	0.00e+00	0	22	0	1232076800	55	4006
2026-01-12 13:09:38.59	213.01	23.23	-44.5	-45.5	16.0	0.00e+00	0	22	0	1237319680	55	3990
2026-01-12 13:09:39.60	213.19	23.34	-44.4	-45.5	16.1	0.00e+00	0	22	0	1243611136	55	3961
2026-01-12 13:09:40.60	213.37	23.46	-44.4	-45.5	16.0	0.00e+00	0	22	0	1248854016	55	3978
2026-01-12 13:09:41.60	213.56	23.57	-44.5	-45.6	16.0	0.00e+00	0	23	0	1254096896	55	4031
2026-01-12 13:09:42.60	213.74	23.68	-44.4	-45.5	16.0	0.00e+00	0	22	0	1260388352	55	3966
2026-01-12 13:09:43.60	213.93	23.80	-44.4	-45.4	16.0	0.00e+00	0	22	0	1265631232	55	3955
2026-01-12 13:09:44.59	214.11	23.91	-44.5	-45.5	16.0	0.00e+00	0	22	0	1270874112	55	3995
2026-01-12 13:09:45.59	214.30	24.02	-44.6	-45.7	16.0	0.00e+00	0	22	0	1276116992	55	4052
2026-01-12 13:09:46.59	214.50	24.14	-44.5	-45.6	16.0	0.00e+00	0	22	0	1282408448	55	4037
2026-01-12 13:09:47.59	214.69	24.25	-44.6	-45.6	16.0	0.00e+00	0	22	0	1287651328	55	4045
2026-01-12 13:09:48.58	214.88	24.37	-44.6	-45.7	16.0	0.00e+00	0	22	0	1293942784	55	4055
2026-01-12 13:09:49.59	215.08	24.48	-44.4	-45.5	16.0	0.00e+00	0	22	0	1299185664	55	3966
2026-01-12 13:09:50.58	215.27	24.60	-44.4	-45.4	16.1	0.00e+00	0	22	0	1304428544	55	3951
2026-01-12 13:09:51.58	215.47	24.71	-44.4	-45.5	16.1	0.00e+00	0	23	0	1310720000	55	3968
2026-01-12 13:09:52.58	215.67	24.83	-44.5	-45.5	16.0	0.00e+00	0	22	0	1315962880	55	3998
2026-01-12 13:09:53.57	215.87	24.94	-44.6	-45.6	16.0	0.00e+00	0	22	0	1321205760	55	4038
2026-01-12 13:09:54.57	216.07	25.06	-44.4	-45.5	16.0	0.00e+00	0	22	0	1327497216	55	3974
2026-01-12 13:09:55.57	216.27	25.18	-44.5	-45.5	16.0	0.00e+00	0	22	0	1332740096	55	4003
2026-01-12 13:09:56.57	216.48	25.29	-44.4	-45.5	16.0	0.00e+00	0	23	0	1337982976	55	3969
2026-01-12 13:09:57.56	216.68	25.41	-44.5	-45.5	16.0	0.00e+00	0	23	0	1344274432	55	3999
2026-01-12 13:09:58.56	216.89	25.52	-44.5	-45.6	16.0	0.00e+00	0	22	0	1349517312	55	4037
2026-01-12 13:09:59.55	217.10	25.64	-44.4	-45.5	16.0	0.00e+00	0	22	0	1355808768	55	3977
2026-01-12 13:10:00.55	217.31	25.76	-44.5	-45.5	16.0	0.00e+00	0	22	0	1361051648	55	4004
2026-01-12 13:10:01.55	217.52	25.87	-44.3	-45.4	16.1	0.00e+00	0	22	0	1366294528	55	3943
2026-01-12 13:10:02.54	217.73	25.99	-44.3	-45.4	16.1	0.00e+00	0	22	0	1371537408	55	3929
2026-01-12 13:10:03.54	217.95	26.11	-44.2	-45.2	16.2	0.00e+00	0	22	0	1377828864	55	3860
2026-01-12 13:10:04.53	218.16	26.22	-44.2	-45.2	16.0	0.00e+00	0	22	0	1383071744	54	4085
2026-01-12 13:10:05.53	218.38	26.34	-44.1	-45.2	16.0	0.00e+00	0	23	0	1388314624	54	4076
2026-01-12 13:10:06.53	218.60	26.46	-44.2	-45.2	16.0	0.00e+00	0	22	0	1394606080	54	4098
2026-01-12 13:10:07.53	218.82	26.57	-44.2	-45.2	16.0	0.00e+00	0	22	0	1399848960	54	4096
2026-01-12 13:10:08.52	219.04	26.69	-44.3	-45.4	16.0	0.00e+00	0	22	0	1406140416	54	4161
2026-01-12 13:10:09.52	219.27	26.81	-44.2	-45.3	16.0	0.00e+00	0	22	0	1411383296	54	4112
2026-01-12 13:10:10.52	219.49	26.93	-44.3	-45.4	16.0	0.00e+00	0	22	0	1416626176	54	4147
2026-01-12 13:10:11.52	219.72	27.04	-44.2	-45.3	16.0	0.00e+00	0	22	0	1422917632	54	4118
2026-01-12 13:10:12.52	219.95	27.16	-44.2	-45.2	16.0	0.00e+00	0	22	0	1428160512	54	4080
2026-01-12 13:10:13.52	220.18	27.28	-44.1	-45.1	16.0	0.00e+00	0	22	0	1433403392	54	4024
2026-01-12 13:10:14.52	220.42	27.40	-44.0	-45.0	16.0	0.00e+00	0	23	0	1439694848	54	4004
2026-01-12 13:10:15.52	220.65	27.51	-44.0	-45.0	16.1	0.00e+00	0	22	0	1444937728	54	3982
2026-01-12 13:10:16.51	220.88	27.63	-44.0	-45.0	16.1	0.00e+00	0	22	0	1450180608	54	3994
2026-01-12 13:10:17.51	221.12	27.75	-43.9	-45.0	16.1	0.00e+00	0	22	0	1456472064	54	3977
2026-01-12 13:10:18.51	221.36	27.86	-44.0	-45.0	16.1	0.00e+00	0	23	0	1461714944	54	3993
2026-01-12 13:10:19.52	221.61	27.98	-44.0	-45.0	16.1	0.00e+00	0	22	0	1468006400	54	3980
2026-01-12 13:10:20.51	221.85	28.10	-43.9	-45.0	16.1	0.00e+00	0	22	0	1473249280	54	3978
2026-01-12 13:10:21.51	222.09	28.22	-43.9	-44.9	16.1	0.00e+00	0	23	0	1478492160	54	3934
2026-01-12 13:10:22.51	222.34	28.33	-43.9	-44.9	16.1	0.00e+00	0	23	0	1484783616	54	3941
2026-01-12 13:10:23.50	222.59	28.45	-44.0	-45.1	16.1	0.00e+00	0	22	0	1490026496	54	4009
2026-01-12 13:10:24.51	222.84	28.57	-43.9	-45.0	16.1	0.00e+00	0	23	0	1495269376	54	3976
2026-01-12 13:10:25.51	223.09	28.69	-44.0	-45.0	16.1	0.00e+00	0	22	0	1501560832	54	3982
2026-01-12 13:10:26.50	223.34	28.80	-44.0	-45.0	16.1	0.00e+00	0	23	0	1506803712	54	3985
2026-01-12 13:10:27.50	223.60	28.92	-43.8	-44.9	16.1	0.00e+00	0	22	0	1512046592	54	3917
2026-01-12 13:10:28.50	223.86	29.04	-43.8	-44.8	16.1	0.00e+00	0	22	0	1518338048	54	3897
2026-01-12 13:10:29.49	224.11	29.15	-43.9	-44.9	16.1	0.00e+00	0	22	0	1523580928	54	3941
2026-01-12 13:10:30.49	224.37	29.27	-43.9	-45.0	16.1	0.00e+00	0	22	0	1528823808	54	3972
2026-01-12 13:10:31.50	224.64	29.39	-44.0	-45.1	16.1	0.00e+00	0	22	0	1535115264	54	4019
2026-01-12 13:10:32.49	224.90	29.50	-44.0	-45.1	16.1	0.00e+00	0	22	0	1540358144	54	4024
2026-01-12 13:10:33.50	225.17	29.62	-43.9	-44.9	16.1	0.00e+00	0	23	0	1546649600	54	3934
2026-01-12 13:10:34.49	225.44	29.73	-43.8	-44.8	16.1	0.00e+00	0	23	0	1551892480	54	3908
2026-01-12 13:10:35.49	225.71	29.85	-43.8	-44.8	16.2	0.00e+00	0	22	0	1557135360	54	3892
2026-01-12 13:10:36.49	225.98	29.96	-43.7	-44.8	16.2	0.00e+00	0	22	0	1563426816	54	3876
2026-01-12 13:10:37.49	226.26	30.08	-43.7	-44.7	16.2	0.00e+00	0	22	0	1568669696	54	3836
2026-01-12 13:10:38.49	226.53	30.19	-43.5	-44.5	16.1	0.00e+00	0	22	0	1573912576	53	3983
2026-01-12 13:10:39.49	226.81	30.31	-43.6	-44.6	16.1	0.00e+00	0	22	0	1580204032	53	4035
2026-01-12 13:10:40.50	227.09	30.42	-43.7	-44.8	16.0	0.00e+00	0	22	0	1585446912	53	4118
2026-01-12 13:10:41.49	227.37	30.54	-43.8	-44.8	16.0	0.00e+00	0	22	0	1590689792	53	4138
2026-01-12 13:10:42.50	227.66	30.65	-43.7	-44.7	16.0	0.00e+00	0	23	0	1596981248	53	4096
2026-01-12 13:10:43.49	227.94	30.76	-43.7	-44.7	16.0	0.00e+00	0	23	0	1602224128	53	4087
2026-01-12 13:10:44.49	228.23	30.88	-43.7	-44.7	16.0	0.00e+00	0	22	0	1607467008	53	4090
2026-01-12 13:10:45.50	228.53	30.99	-43.7	-44.8	16.0	0.00e+00	0	22	0	1613758464	53	4101
2026-01-12 13:10:46.50	228.82	31.10	-43.9	-44.9	16.0	0.00e+00	0	22	0	1619001344	53	4176
2026-01-12 13:10:47.49	229.11	31.21	-43.9	-44.9	16.0	0.00e+00	0	23	0	1625292800	53	4168
2026-01-12 13:10:48.48	229.40	31.32	-43.9	-44.9	16.0	0.00e+00	0	22	0	1630535680	53	4176
2026-01-12 13:10:49.47	229.70	31.44	-43.8	-44.9	16.0	0.00e+00	0	22	0	1635778560	53	4151
2026-01-12 13:10:50.47	230.00	31.55	-43.9	-44.9	16.0	0.00e+00	0	22	0	1642070016	53	4189
2026-01-12 13:10:51.46	230.30	31.66	-43.6	-44.6	16.1	0.00e+00	0	22	0	1647312896	53	4044
2026-01-12 13:10:52.46	230.60	31.77	-43.6	-44.6	16.1	0.00e+00	0	23	0	1652555776	53	4046
2026-01-12 13:10:53.45	230.90	31.87	-43.6	-44.7	16.0	0.00e+00	0	22	0	1658847232	53	4061
2026-01-12 13:10:54.44	231.21	31.98	-43.8	-44.9	16.0	0.00e+00	0	22	0	1664090112	53	4146
2026-01-12 13:10:55.43	231.52	32.09	-43.8	-44.9	16.0	0.00e+00	0	22	0	1669332992	53	4147
2026-01-12 13:10:56.43	231.83	32.20	-43.8	-44.9	16.0	0.00e+00	0	23	0	1675624448	53	4161
2026-01-12 13:10:57.43	232.14	32.30	-43.8	-44.9	16.0	0.00e+00	0	22	0	1680867328	53	4167
2026-01-12 13:10:58.43	232.46	32.41	-43.9	-44.9	16.0	0.00e+00	0	23	0	1686110208	53	4171
2026-01-12 13:10:59.43	232.78	32.52	-43.8	-44.8	16.0	0.00e+00	0	23	0	1692401664	53	4128
2026-01-12 13:11:00.43	233.10	32.62	-43.8	-44.8	16.0	0.00e+00	0	23	0	1697644544	53	4145
2026-01-12 13:11:01.43	233.42	32.73	-43.8	-44.8	16.0	0.00e+00	0	22	0	1702887424	53	4140
2026-01-12 13:11:02.43	233.74	32.83	-43.7	-44.7	16.0	0.00e+00	0	22	0	1709178880	53	4094
2026-01-12 13:11:03.43	234.07	32.94	-43.6	-44.6	16.1	0.00e+00	0	22	0	1714421760	53	4049
2026-01-12 13:11:04.43	234.40	33.04	-43.8	-44.9	16.0	0.00e+00	0	22	0	1719664640	53	4157
2026-01-12 13:11:05.43	234.73	33.14	-43.8	-44.8	16.0	0.00e+00	0	22	0	1725956096	53	4127
2026-01-12 13:11:06.43	235.06	33.24	-43.9	-44.9	16.0	0.00e+00	0	23	0	1731198976	53	4180
2026-01-12 13:11:07.43	235.40	33.35	-43.9	-44.9	16.0	0.00e+00	0	23	0	1737490432	53	4187
2026-01-12 13:11:08.43	235.73	33.45	-44.0	-45.1	16.0	0.00e+00	0	22	0	1742733312	53	4255
2026-01-12 13:11:09.42	236.07	33.54	-44.0	-45.0	16.0	0.00e+00	0	22	0	1747976192	53	4227
2026-01-12 13:11:10.42	236.41	33.64	-43.8	-44.8	16.0	0.00e+00	0	23	0	1754267648	53	4129
2026-01-12 13:11:11.42	236.75	33.74	-43.8	-44.8	16.0	0.00e+00	0	23	0	1759510528	53	4135
2026-01-12 13:11:12.42	237.10	33.84	-43.6	-44.6	16.1	0.00e+00	0	23	0	1764753408	53	4021
2026-01-12 13:11:13.42	237.45	33.94	-43.4	-44.4	16.1	0.00e+00	0	22	0	1771044864	53	3934
2026-01-12 13:11:14.41	237.79	34.03	-43.6	-44.7	16.1	0.00e+00	0	22	0	1776287744	53	4061
2026-01-12 13:11:15.42	238.15	34.13	-43.9	-44.9	16.0	0.00e+00	0	22	0	1781530624	53	4171
2026-01-12 13:11:16.42	238.50	34.22	-44.0	-45.0	16.0	0.00e+00	0	22	0	1787822080	53	4231
2026-01-12 13:11:17.42	238.85	34.31	-43.9	-44.9	16.0	0.00e+00	0	23	0	1793064960	53	4185
2026-01-12 13:11:18.42	239.21	34.40	-43.9	-45.0	16.0	0.00e+00	0	22	0	1799356416	53	4195
2026-01-12 13:11:19.41	239.56	34.49	-43.4	-44.5	16.1	0.00e+00	0	22	0	1804599296	53	3960
2026-01-12 13:11:20.41	239.93	34.58	-43.3	-44.2	16.2	0.00e+00	0	23	0	1809842176	53	3866
2026-01-12 13:11:21.42	240.29	34.67	-43.4	-44.4	16.1	0.00e+00	0	22	0	1816133632	53	3944
2026-01-12 13:11:22.42	240.66	34.76	-43.6	-44.6	16.1	0.00e+00	0	22	0	1821376512	53	4016
2026-01-12 13:11:23.48	241.05	34.85	-43.7	-44.8	16.0	0.00e+00	0	22	0	1826619392	53	4118
2026-01-12 13:11:24.36	241.37	34.93	-43.8	-44.9	16.0	0.00e+00	0	22	0	1831862272	53	4168
2026-01-12 13:11:25.50	241.79	35.03	-43.9	-44.9	16.0	0.00e+00	0	22	0	1838153728	53	4180
2026-01-12 13:11:26.35	242.11	35.10	-43.8	-44.8	16.0	0.00e+00	0	23	0	1843396608	53	4137
2026-01-12 13:11:27.50	242.54	35.19	-43.6	-44.6	16.1	0.00e+00	0	22	0	1849688064	53	4049
2026-01-12 13:11:28.36	242.86	35.26	-43.6	-44.6	16.1	0.00e+00	0	23	0	1854930944	53	4022
2026-01-12 13:11:29.50	243.29	35.35	-43.6	-44.6	16.1	0.00e+00	0	22	0	1861222400	53	4018
2026-01-12 13:11:30.35	243.62	35.42	-43.6	-44.6	16.1	0.00e+00	0	23	0	1865416704	53	4011
2026-01-12 13:11:31.50	244.05	35.51	-43.7	-44.7	16.0	0.00e+00	0	23	0	1871708160	53	4076
2026-01-12 13:11:32.34	244.38	35.58	-43.8	-44.8	16.0	0.00e+00	0	22	0	1876951040	53	4125
2026-01-12 13:11:33.50	244.82	35.66	-43.9	-44.9	16.0	0.00e+00	0	23	0	1883242496	53	4190
2026-01-12 13:11:34.35	245.15	35.73	-43.7	-44.7	16.0	0.00e+00	0	23	0	1888485376	53	4080
2026-01-12 13:11:35.49	245.59	35.81	-43.5	-44.5	16.1	0.00e+00	0	23	0	1894776832	53	3965
2026-01-12 13:11:36.35	245.93	35.87	-43.4	-44.4	16.1	0.00e+00	0	22	0	1900019712	53	3952
2026-01-12 13:11:37.49	246.38	35.95	-43.4	-44.4	16.1	0.00e+00	0	22	0	1905262592	53	3956
2026-01-12 13:11:38.34	246.71	36.01	-43.5	-44.6	16.1	0.00e+00	0	22	0	1910505472	53	4018
2026-01-12 13:11:39.50	247.17	36.09	-43.5	-44.6	16.1	0.00e+00	0	22	0	1916796928	53	4022
2026-01-12 13:11:40.36	247.51	36.15	-43.5	-44.5	16.1	0.00e+00	0	23	0	1922039808	53	3995
2026-01-12 13:11:41.51	247.97	36.22	-43.4	-44.4	16.1	0.00e+00	0	23	0	1928331264	53	3930
2026-01-12 13:11:42.36	248.31	36.28	-43.3	-44.4	16.1	0.00e+00	0	23	0	1933574144	53	3917
2026-01-12 13:11:43.50	248.77	36.35	-43.3	-44.3	16.2	0.00e+00	0	22	0	1939865600	53	3889
2026-01-12 13:11:44.35	249.11	36.40	-43.5	-44.5	16.1	0.00e+00	0	22	0	1944059904	53	3977
2026-01-12 13:11:45.50	249.57	36.47	-43.6	-44.6	16.1	0.00e+00	0	23	0	1951399936	53	4051
2026-01-12 13:11:46.35	249.92	36.52	-43.7	-44.8	16.0	0.00e+00	0	22	0	1955594240	53	4108
2026-01-12 13:11:47.50	250.39	36.58	-43.8	-44.8	16.0	0.00e+00	0	23	0	1961885696	53	4121
2026-01-12 13:11:48.36	250.74	36.63	-43.5	-44.6	16.1	0.00e+00	0	22	0	1967128576	53	4011
2026-01-12 13:11:49.50	251.21	36.69	-43.5	-44.5	16.1	0.00e+00	0	23	0	1973420032	53	3991
2026-01-12 13:11:50.36	251.56	36.73	-43.4	-44.5	16.1	0.00e+00	0	22	0	1978662912	53	3965
2026-01-12 13:11:51.50	252.03	36.79	-43.5	-44.5	16.1	0.00e+00	0	22	0	1984954368	53	3992
2026-01-12 13:11:52.35	252.38	36.83	-43.5	-44.5	16.1	0.00e+00	0	23	0	1989148672	53	3985
2026-01-12 13:11:53.49	252.85	36.89	-43.6	-44.6	16.1	0.00e+00	0	22	0	1995440128	53	4030
2026-01-12 13:11:54.34	253.21	36.92	-43.6	-44.7	16.1	0.00e+00	0	22	0	2000683008	53	4060
2026-01-12 13:11:55.49	253.69	36.97	-43.6	-44.7	16.1	0.00e+00	0	23	0	2006974464	53	4062
2026-01-12 13:11:56.35	254.05	37.01	-43.4	-44.5	16.1	0.00e+00	0	22	0	2012217344	53	3966
2026-01-12 13:11:57.50	254.53	37.06	-43.4	-44.4	16.1	0.00e+00	0	22	0	2018508800	53	3934
2026-01-12 13:11:58.35	254.89	37.09	-43.3	-44.4	16.2	0.00e+00	0	22	0	2023751680	53	3923
2026-01-12 13:11:59.47	255.36	37.13	-43.3	-44.3	16.2	0.00e+00	0	23	0	2028994560	53	3892
2026-01-12 13:12:00.33	255.72	37.16	-43.2	-44.2	16.2	0.00e+00	0	22	0	2034237440	53	3864
2026-01-12 13:12:01.46	256.20	37.20	-43.5	-44.5	16.1	0.00e+00	0	22	0	2040528896	53	3996
2026-01-12 13:12:02.31	256.56	37.23	-43.7	-44.8	16.1	0.00e+00	0	22	0	2045771776	53	4106
2026-01-12 13:12:03.45	257.04	37.26	-43.6	-44.6	16.1	0.00e+00	0	23	0	2052063232	53	4037
2026-01-12 13:12:04.31	257.41	37.29	-43.5	-44.6	16.1	0.00e+00	0	22	0	2057306112	53	4013
2026-01-12 13:12:05.45	257.89	37.32	-43.4	-44.4	16.1	0.00e+00	0	22	0	2063597568	53	3934
2026-01-12 13:12:06.30	258.26	37.34	-43.4	-44.5	16.1	0.00e+00	0	22	0	2067791872	53	3966
2026-01-12 13:12:07.45	258.75	37.37	-43.6	-44.6	16.1	0.00e+00	0	23	0	2074083328	53	4032
2026-01-12 13:12:08.30	259.11	37.39	-43.6	-44.6	16.1	0.00e+00	0	22	0	2079326208	53	4027
2026-01-12 13:12:09.43	259.60	37.41	-43.5	-44.5	16.1	0.00e+00	0	23	0	2085617664	53	3985
2026-01-12 13:12:10.28	259.96	37.43	-43.6	-44.6	16.1	0.00e+00	0	22	0	2089811968	53	4017
2026-01-12 13:12:11.43	260.45	37.45	-43.5	-44.5	16.1	0.00e+00	0	22	0	2097152000	53	3975
2026-01-12 13:12:12.28	260.82	37.46	-43.5	-44.6	16.1	0.00e+00	0	23	0	2101346304	53	4007
2026-01-12 13:12:13.43	261.31	37.48	-43.6	-44.6	16.1	0.00e+00	0	22	0	2107637760	53	4031
2026-01-12 13:12:14.28	261.68	37.48	-43.6	-44.6	16.1	0.00e+00	0	22	0	2112880640	53	4020
2026-01-12 13:12:15.42	262.17	37.50	-43.6	-44.6	16.1	0.00e+00	0	22	0	2119172096	53	4043
2026-01-12 13:12:16.28	262.54	37.50	-43.6	-44.6	16.1	0.00e+00	0	23	0	2124414976	53	4035
2026-01-12 13:12:17.42	263.03	37.51	-43.5	-44.5	16.1	0.00e+00	0	22	0	2130706432	53	3994
2026-01-12 13:12:18.28	263.40	37.51	-43.4	-44.5	16.1	0.00e+00	0	22	0	2134900736	53	3966
2026-01-12 13:12:19.43	263.90	37.52	-43.3	-44.4	16.1	0.00e+00	0	23	0	2142240768	53	3916
2026-01-12 13:12:20.28	264.27	37.52	-43.3	-44.3	16.2	0.00e+00	0	22	0	2146435072	53	3897
2026-01-12 13:12:21.42	264.76	37.52	-43.3	-44.4	16.2	0.00e+00	0	23	0	2152726528	53	3920
2026-01-12 13:12:22.28	265.13	37.51	-43.5	-44.5	16.1	0.00e+00	0	22	0	2157969408	53	3975
2026-01-12 13:12:23.42	265.62	37.51	-43.6	-44.6	16.1	0.00e+00	0	22	0	2164260864	53	4044
2026-01-12 13:12:24.28	265.99	37.50	-43.5	-44.6	16.1	0.00e+00	0	23	0	2169503744	53	4005
2026-01-12 13:12:25.42	266.48	37.49	-43.5	-44.5	16.1	0.00e+00	0	22	0	2175795200	53	4000
2026-01-12 13:12:26.27	266.85	37.49	-43.6	-44.7	16.1	0.00e+00	0	23	0	2179989504	53	4069
2026-01-12 13:12:27.42	267.35	37.47	-43.8	-44.9	16.0	0.00e+00	0	23	0	2186280960	53	4166
2026-01-12 13:12:28.27	267.71	37.46	-43.9	-44.9	16.0	0.00e+00	0	22	0	2191523840	53	4182
2026-01-12 13:12:29.42	268.21	37.44	-43.8	-44.8	16.0	0.00e+00	0	22	0	2197815296	53	4130
2026-01-12 13:12:30.27	268.57	37.43	-43.8	-44.8	16.0	0.00e+00	0	22	0	2203058176	53	4134
2026-01-12 13:12:31.41	269.06	37.41	-43.7	-44.7	16.0	0.00e+00	0	23	0	2209349632	53	4084
2026-01-12 13:12:32.27	269.43	37.39	-43.6	-44.6	16.1	0.00e+00	0	23	0	2213543936	53	4036
2026-01-12 13:12:33.42	269.92	37.37	-43.4	-44.4	16.1	0.00e+00	0	22	0	2220883968	53	3956
2026-01-12 13:12:34.27	270.28	37.35	-43.4	-44.4	16.1	0.00e+00	0	23	0	2225078272	53	3923
2026-01-12 13:12:35.42	270.77	37.32	-43.3	-44.3	16.1	0.00e+00	0	22	0	2231369728	53	3901
2026-01-12 13:12:36.28	271.14	37.29	-43.3	-44.3	16.1	0.00e+00	0	23	0	2236612608	53	3895
2026-01-12 13:12:37.42	271.62	37.26	-43.4	-44.4	16.1	0.00e+00	0	23	0	2242904064	53	3940
2026-01-12 13:12:38.27	271.98	37.23	-43.6	-44.6	16.1	0.00e+00	0	22	0	2248146944	53	4035
2026-01-12 13:12:39.42	272.47	37.20	-43.7	-44.8	16.0	0.00e+00	0	23	0	2254438400	53	4116
2026-01-12 13:12:40.27	272.83	37.17	-43.7	-44.7	16.0	0.00e+00	0	22	0	2258632704	53	4091
2026-01-12 13:12:41.41	273.31	37.13	-43.6	-44.7	16.1	0.00e+00	0	23	0	2265972736	53	4072
2026-01-12 13:12:42.26	273.67	37.09	-43.7	-44.7	16.1	0.00e+00	0	22	0	2270167040	53	4088
2026-01-12 13:12:43.41	274.15	37.05	-43.7	-44.7	16.0	0.00e+00	0	23	0	2276458496	53	4081
2026-01-12 13:12:44.28	274.52	37.01	-43.6	-44.6	16.1	0.00e+00	0	23	0	2281701376	53	4046
2026-01-12 13:12:45.41	274.99	36.97	-43.5	-44.6	16.1	0.00e+00	0	22	0	2287992832	53	4018
2026-01-12 13:12:46.27	275.35	36.93	-43.4	-44.4	16.1	0.00e+00	0	22	0	2293235712	53	3958
2026-01-12 13:12:47.41	275.82	36.88	-43.4	-44.4	16.1	0.00e+00	0	22	0	2299527168	53	3949
2026-01-12 13:12:48.26	276.17	36.84	-43.4	-44.4	16.1	0.00e+00	0	22	0	2303721472	53	3958
2026-01-12 13:12:49.41	276.65	36.78	-43.6	-44.7	16.1	0.00e+00	0	22	0	2310012928	53	4055
2026-01-12 13:12:50.27	277.00	36.74	-43.7	-44.8	16.0	0.00e+00	0	22	0	2315255808	53	4104
2026-01-12 13:12:51.40	277.47	36.68	-43.7	-44.7	16.1	0.00e+00	0	23	0	2321547264	53	4070
2026-01-12 13:12:52.25	277.81	36.63	-43.6	-44.6	16.1	0.00e+00	0	23	0	2326790144	53	4016
2026-01-12 13:12:53.39	278.28	36.57	-43.6	-44.6	16.1	0.00e+00	0	22	0	2333081600	53	4042
2026-01-12 13:12:54.25	278.63	36.52	-43.6	-44.6	16.0	0.00e+00	0	22	0	2337275904	53	4037
2026-01-12 13:12:55.39	279.09	36.46	-43.7	-44.7	16.1	0.00e+00	0	23	0	2343567360	53	4090
2026-01-12 13:12:56.25	279.44	36.41	-44.0	-45.0	16.0	0.00e+00	0	22	0	2348810240	53	4221
2026-01-12 13:12:57.39	279.90	36.34	-43.9	-44.9	16.0	0.00e+00	0	22	0	2355101696	53	4180
2026-01-12 13:12:58.25	280.24	36.28	-43.9	-44.9	16.0	0.00e+00	0	22	0	2360344576	53	4188
2026-01-12 13:12:59.39	280.69	36.21	-43.8	-44.9	16.0	0.00e+00	0	23	0	2366636032	53	4149
2026-01-12 13:13:00.24	281.03	36.16	-43.7	-44.8	16.0	0.00e+00	0	22	0	2370830336	53	4103
2026-01-12 13:13:01.38	281.48	36.08	-43.6	-44.6	16.0	0.00e+00	0	22	0	2378170368	53	4051
2026-01-12 13:13:02.23	281.82	36.02	-43.6	-44.6	16.1	0.00e+00	0	23	0	2382364672	53	4035
2026-01-12 13:13:03.37	282.27	35.94	-43.6	-44.7	16.0	0.00e+00	0	23	0	2388656128	53	4066
2026-01-12 13:13:04.23	282.60	35.88	-43.8	-44.8	16.0	0.00e+00	0	22	0	2393899008	53	4123
2026-01-12 13:13:05.37	283.05	35.80	-44.0	-45.0	16.0	0.00e+00	0	22	0	2400190464	53	4237
2026-01-12 13:13:06.22	283.38	35.74	-44.0	-45.1	16.0	0.00e+00	0	22	0	2405433344	53	4263
2026-01-12 13:13:07.36	283.82	35.66	-44.0	-45.1	16.0	0.00e+00	0	22	0	2411724800	53	4260
2026-01-12 13:13:08.22	284.15	35.59	-44.0	-45.1	16.0	0.00e+00	0	22	0	2415919104	53	4261
2026-01-12 13:13:09.36	284.58	35.50	-44.0	-45.0	16.0	0.00e+00	0	23	0	2422210560	53	4234
2026-01-12 13:13:10.22	284.91	35.44	-44.0	-45.0	16.0	0.00e+00	0	22	0	2427453440	53	4217
2026-01-12 13:13:11.36	285.34	35.35	-43.8	-44.8	16.0	0.00e+00	0	22	0	2433744896	53	4127
2026-01-12 13:13:12.21	285.66	35.28	-43.7	-44.7	16.0	0.00e+00	0	22	0	2438987776	53	4078
2026-01-12 13:13:13.36	286.10	35.18	-43.6	-44.6	16.1	0.00e+00	0	23	0	2445279232	53	4022
2026-01-12 13:13:14.21	286.41	35.11	-43.6	-44.7	16.1	0.00e+00	0	22	0	2449473536	53	4056
2026-01-12 13:13:15.35	286.84	35.02	-43.9	-44.9	16.0	0.00e+00	0	23	0	2455764992	53	4181
2026-01-12 13:13:16.20	287.15	34.95	-44.1	-45.1	16.0	0.00e+00	0	22	0	2461007872	53	4289
2026-01-12 13:13:17.35	287.57	34.85	-44.1	-45.2	16.0	0.00e+00	0	22	0	2467299328	53	4296
2026-01-12 13:13:18.21	287.89	34.77	-44.2	-45.2	16.0	0.00e+00	0	22	0	2472542208	53	4335
2026-01-12 13:13:19.36	288.31	34.67	-43.9	-45.0	16.0	0.00e+00	0	22	0	2478833664	53	4197
2026-01-12 13:13:20.21	288.62	34.60	-43.9	-44.9	16.0	0.00e+00	0	22	0	2484076544	53	4188
2026-01-12 13:13:21.35	289.03	34.50	-44.0	-45.1	16.0	0.00e+00	0	23	0	2490368000	53	4265
2026-01-12 13:13:22.21	289.33	34.42	-44.2	-45.2	15.9	0.00e+00	0	22	0	2494562304	53	4334
2026-01-12 13:13:23.35	289.74	34.31	-44.2	-45.3	15.9	0.00e+00	0	22	0	2501902336	53	4354
2026-01-12 13:13:24.21	290.05	34.23	-44.3	-45.4	15.9	0.00e+00	0	22	0	2506096640	53	4404
2026-01-12 13:13:25.36	290.45	34.13	-44.2	-45.2	15.9	0.00e+00	0	22	0	2512388096	53	4333
2026-01-12 13:13:26.21	290.75	34.05	-44.1	-45.2	15.9	0.00e+00	0	22	0	2517630976	53	4292
2026-01-12 13:13:27.36	291.15	33.94	-44.0	-45.1	16.0	0.00e+00	0	22	0	2523922432	53	4249
2026-01-12 13:13:28.22	291.45	33.85	-44.1	-45.1	15.9	0.00e+00	0	22	0	2529165312	53	4289
2026-01-12 13:13:29.36	291.84	33.74	-44.0	-45.0	16.0	0.00e+00	0	23	0	2535456768	53	4238
2026-01-12 13:13:30.21	292.13	33.66	-44.1	-45.1	16.0	0.00e+00	0	23	0	2539651072	53	4266
2026-01-12 13:13:31.35	292.52	33.55	-44.2	-45.3	15.9	0.00e+00	0	22	0	2545942528	53	4354
2026-01-12 13:13:32.21	292.81	33.46	-44.3	-45.4	15.9	0.00e+00	0	22	0	2551185408	53	4395
2026-01-12 13:13:33.36	293.19	33.35	-44.4	-45.5	16.0	0.00e+00	0	23	0	2557476864	54	4199
2026-01-12 13:13:34.21	293.48	33.26	-44.5	-45.6	15.9	0.00e+00	0	23	0	2562719744	54	4266
2026-01-12 13:13:35.36	293.86	33.15	-44.4	-45.5	16.0	0.00e+00	0	22	0	2569011200	54	4198
2026-01-12 13:13:36.21	294.14	33.06	-44.2	-45.3	16.0	0.00e+00	0	23	0	2573205504	54	4108
2026-01-12 13:13:37.36	294.52	32.94	-44.2	-45.2	16.0	0.00e+00	0	22	0	2580545536	54	4097
2026-01-12 13:13:38.22	294.80	32.85	-44.3	-45.3	16.0	0.00e+00	0	22	0	2584739840	54	4145
2026-01-12 13:13:39.36	295.17	32.73	-44.4	-45.5	16.0	0.00e+00	0	23	0	2591031296	54	4204
2026-01-12 13:13:40.23	295.45	32.64	-44.5	-45.6	15.9	0.00e+00	0	22	0	2596274176	54	4248
2026-01-12 13:13:41.37	295.81	32.52	-44.5	-45.5	15.9	0.00e+00	0	22	0	2602565632	54	4242
2026-01-12 13:13:42.22	296.08	32.43	-44.5	-45.5	15.9	0.00e+00	0	23	0	2607808512	54	4234
2026-01-12 13:13:43.36	296.44	32.31	-44.4	-45.4	16.0	0.00e+00	0	23	0	2614099968	54	4192
2026-01-12 13:13:44.22	296.71	32.22	-44.4	-45.5	16.0	0.00e+00	0	22	0	2618294272	54	4209
2026-01-12 13:13:45.37	297.07	32.09	-44.3	-45.3	16.0	0.00e+00	0	23	0	2625634304	54	4120
2026-01-12 13:13:46.23	297.33	32.00	-44.2	-45.2	16.0	0.00e+00	0	23	0	2629828608	54	4097
2026-01-12 13:13:47.37	297.68	31.88	-44.2	-45.2	16.0	0.00e+00	0	23	0	2636120064	54	4073
2026-01-12 13:13:48.23	297.95	31.78	-44.3	-45.3	16.0	0.00e+00	0	22	0	2641362944	54	4138
2026-01-12 13:13:49.38	298.30	31.66	-44.5	-45.5	15.9	0.00e+00	0	23	0	2647654400	54	4242
2026-01-12 13:13:50.24	298.55	31.56	-44.6	-45.6	15.9	0.00e+00	0	22	0	2652897280	54	4281
2026-01-12 13:13:51.39	298.90	31.44	-44.4	-45.5	15.9	0.00e+00	0	22	0	2659188736	54	4218
2026-01-12 13:13:52.25	299.15	31.34	-44.5	-45.5	15.9	0.00e+00	0	23	0	2664431616	54	4233
2026-01-12 13:13:53.39	299.49	31.21	-44.4	-45.4	16.0	0.00e+00	0	23	0	2669674496	54	4165
2026-01-12 13:13:54.25	299.74	31.12	-44.4	-45.5	16.0	0.00e+00	0	23	0	2674917376	54	4194
2026-01-12 13:13:55.39	300.08	30.99	-44.5	-45.6	16.0	0.00e+00	0	23	0	2681208832	54	4275
2026-01-12 13:13:56.24	300.32	30.90	-44.6	-45.7	15.9	0.00e+00	0	23	0	2686451712	54	4307
2026-01-12 13:13:57.39	300.65	30.77	-44.6	-45.7	15.9	0.00e+00	0	22	0	2692743168	54	4329
2026-01-12 13:13:58.25	300.90	30.67	-44.6	-45.7	15.9	0.00e+00	0	22	0	2697986048	54	4334
2026-01-12 13:13:59.38	301.22	30.54	-44.5	-45.5	15.9	0.00e+00	0	22	0	2704277504	54	4239
2026-01-12 13:14:00.23	301.46	30.44	-44.4	-45.5	15.9	0.00e+00	0	22	0	2708471808	54	4218
2026-01-12 13:14:01.37	301.78	30.31	-44.3	-45.4	16.0	0.00e+00	0	23	0	2714763264	54	4153
2026-01-12 13:14:02.23	302.01	30.22	-44.5	-45.5	15.9	0.00e+00	0	23	0	2720006144	54	4220
2026-01-12 13:14:03.38	302.33	30.08	-44.4	-45.4	16.0	0.00e+00	0	22	0	2726297600	54	4184
2026-01-12 13:14:04.23	302.56	29.99	-44.3	-45.4	16.0	0.00e+00	0	23	0	2731540480	54	4169
2026-01-12 13:14:05.38	302.88	29.85	-44.4	-45.5	16.0	0.00e+00	0	23	0	2737831936	54	4196
2026-01-12 13:14:06.23	303.11	29.76	-44.5	-45.5	15.9	0.00e+00	0	23	0	2742026240	54	4233
2026-01-12 13:14:07.38	303.41	29.62	-44.6	-45.6	15.9	0.00e+00	0	23	0	2749366272	54	4287
2026-01-12 13:14:08.24	303.64	29.53	-44.6	-45.6	15.9	0.00e+00	0	22	0	2753560576	54	4286
2026-01-12 13:14:09.38	303.95	29.39	-44.6	-45.7	15.9	0.00e+00	0	23	0	2759852032	54	4314
2026-01-12 13:14:10.24	304.17	29.29	-44.7	-45.7	15.9	0.00e+00	0	23	0	2765094912	54	4337
2026-01-12 13:14:11.39	304.47	29.16	-44.8	-45.9	15.8	0.00e+00	0	23	0	2771386368	54	4413
2026-01-12 13:14:12.25	304.69	29.06	-44.7	-45.8	15.9	0.00e+00	0	23	0	2776629248	54	4365
2026-01-12 13:14:13.39	304.99	28.93	-44.6	-45.7	15.9	0.00e+00	0	22	0	2782920704	54	4332
2026-01-12 13:14:14.25	305.21	28.83	-44.7	-45.8	15.9	0.00e+00	0	22	0	2788163584	54	4346
2026-01-12 13:14:15.39	305.49	28.69	-44.6	-45.6	15.9	0.00e+00	0	23	0	2794455040	54	4277
2026-01-12 13:14:16.24	305.71	28.60	-44.5	-45.5	15.9	0.00e+00	0	23	0	2798649344	54	4228
2026-01-12 13:14:17.39	306.00	28.46	-44.5	-45.6	15.9	0.00e+00	0	22	0	2804940800	54	4258
2026-01-12 13:14:18.25	306.21	28.36	-44.6	-45.6	15.9	0.00e+00	0	22	0	2810183680	54	4289
2026-01-12 13:14:19.39	306.49	28.23	-44.7	-45.8	15.9	0.00e+00	0	23	0	2816475136	54	4354
2026-01-12 13:14:20.25	306.70	28.13	-44.8	-45.8	15.9	0.00e+00	0	23	0	2821718016	54	4388
2026-01-12 13:14:21.40	306.98	27.99	-44.8	-45.9	15.9	0.00e+00	0	23	0	2828009472	54	4396
2026-01-12 13:14:22.26	307.19	27.89	-44.8	-45.9	15.8	0.00e+00	0	23	0	2833252352	54	4402
2026-01-12 13:14:23.40	307.46	27.76	-44.8	-45.9	15.8	0.00e+00	0	22	0	2838495232	54	4428
2026-01-12 13:14:24.26	307.66	27.66	-44.7	-45.8	15.9	0.00e+00	0	23	0	2843738112	54	4371
2026-01-12 13:14:25.41	307.93	27.52	-44.8	-45.8	15.8	0.00e+00	0	22	0	2850029568	54	4378
2026-01-12 13:14:26.26	308.13	27.42	-44.7	-45.8	15.9	0.00e+00	0	23	0	2855272448	54	4370
2026-01-12 13:14:27.41	308.40	27.29	-44.7	-45.8	15.9	0.00e+00	0	22	0	2861563904	54	4360
2026-01-12 13:14:28.27	308.60	27.19	-44.8	-45.9	15.8	0.00e+00	0	23	0	2866806784	54	4395
2026-01-12 13:14:29.42	308.86	27.05	-44.8	-45.9	15.8	0.00e+00	0	23	0	2873098240	54	4424
2026-01-12 13:14:30.27	309.06	26.96	-44.9	-45.9	15.8	0.00e+00	0	23	0	2877292544	54	4441
2026-01-12 13:14:31.40	309.31	26.82	-44.8	-45.9	15.9	0.00e+00	0	23	0	2884632576	54	4393
2026-01-12 13:14:32.26	309.50	26.72	-44.9	-46.0	15.8	0.00e+00	0	22	0	2888826880	54	4445
2026-01-12 13:14:33.41	309.76	26.59	-44.6	-45.7	15.9	0.00e+00	0	23	0	2895118336	54	4303
2026-01-12 13:14:34.28	309.95	26.49	-44.5	-45.6	15.9	0.00e+00	0	22	0	2900361216	54	4255
2026-01-12 13:14:35.43	310.20	26.35	-44.3	-45.4	16.0	0.00e+00	0	23	0	2906652672	54	4167
2026-01-12 13:14:36.28	310.39	26.25	-44.4	-45.4	15.9	0.00e+00	0	23	0	2911895552	54	4183
2026-01-12 13:14:37.43	310.64	26.12	-44.3	-45.3	16.0	0.00e+00	0	23	0	2918187008	54	4145
2026-01-12 13:14:38.29	310.82	26.02	-44.3	-45.3	16.0	0.00e+00	0	22	0	2922381312	54	4138
2026-01-12 13:14:39.43	311.07	25.89	-44.4	-45.5	15.9	0.00e+00	0	22	0	2929721344	54	4219
2026-01-12 13:14:40.28	311.25	25.79	-44.5	-45.6	15.9	0.00e+00	0	23	0	2933915648	54	4252
2026-01-12 13:14:41.42	311.49	25.66	-44.7	-45.7	15.9	0.00e+00	0	22	0	2940207104	54	4335
2026-01-12 13:14:42.29	311.67	25.55	-44.7	-45.8	15.9	0.00e+00	0	22	0	2945449984	54	4384
2026-01-12 13:14:43.43	311.90	25.42	-44.8	-45.9	15.9	0.00e+00	0	22	0	2951741440	54	4393
2026-01-12 13:14:44.29	312.08	25.32	-44.7	-45.8	15.9	0.00e+00	0	23	0	2955935744	54	4382
2026-01-12 13:14:45.44	312.31	25.19	-44.8	-45.9	15.8	0.00e+00	0	23	0	2963275776	54	4421
2026-01-12 13:14:46.30	312.49	25.09	-44.8	-45.9	15.8	0.00e+00	0	23	0	2968518656	54	4426
2026-01-12 13:14:47.45	312.72	24.96	-44.7	-45.7	15.9	0.00e+00	0	22	0	2973761536	54	4324
2026-01-12 13:14:48.30	312.89	24.86	-44.6	-45.6	15.9	0.00e+00	0	22	0	2979004416	54	4282
2026-01-12 13:14:49.45	313.12	24.73	-44.5	-45.6	15.9	0.00e+00	0	22	0	2985295872	54	4264
2026-01-12 13:14:50.31	313.29	24.63	-44.6	-45.7	15.9	0.00e+00	0	22	0	2990538752	54	4296
2026-01-12 13:14:51.46	313.51	24.50	-44.7	-45.7	15.9	0.00e+00	0	22	0	2996830208	54	4331
2026-01-12 13:14:52.32	313.68	24.40	-44.8	-45.8	15.8	0.00e+00	0	23	0	3002073088	54	4386
2026-01-12 13:14:53.47	313.90	24.27	-44.9	-45.9	15.8	0.00e+00	0	23	0	3008364544	54	4440
2026-01-12 13:14:54.33	314.07	24.17	-44.9	-46.0	15.9	0.00e+00	0	22	0	3012558848	55	4230
2026-01-12 13:14:55.47	314.28	24.04	-45.0	-46.1	15.8	0.00e+00	0	22	0	3019898880	55	4264
2026-01-12 13:14:56.34	314.45	23.94	-45.0	-46.1	15.8	0.00e+00	0	23	0	3024093184	55	4275
2026-01-12 13:14:57.49	314.66	23.81	-45.0	-46.1	15.9	0.00e+00	0	22	0	3030384640	55	4286
2026-01-12 13:14:58.35	314.82	23.71	-45.1	-46.2	15.8	0.00e+00	0	22	0	3035627520	55	4336
2026-01-12 13:14:59.50	315.04	23.58	-45.1	-46.2	15.8	0.00e+00	0	22	0	3041918976	55	4306
2026-01-12 13:15:00.35	315.19	23.48	-45.1	-46.2	15.8	0.00e+00	0	22	0	3047161856	55	4310
2026-01-12 13:15:01.49	315.40	23.36	-45.0	-46.1	15.8	0.00e+00	0	23	0	3053453312	55	4253
2026-01-12 13:15:02.34	315.55	23.26	-45.1	-46.2	15.8	0.00e+00	0	22	0	3057647616	55	4295
2026-01-12 13:15:03.49	315.76	23.13	-45.1	-46.2	15.8	0.00e+00	0	22	0	3064987648	55	4307
2026-01-12 13:15:04.34	315.91	23.04	-45.0	-46.1	15.8	0.00e+00	0	22	0	3069181952	55	4278
2026-01-12 13:15:05.48	316.11	22.91	-45.0	-46.1	15.8	0.00e+00	0	23	0	3075473408	55	4284
2026-01-12 13:15:06.34	316.27	22.81	-45.0	-46.1	15.8	0.00e+00	0	22	0	3080716288	55	4276
2026-01-12 13:15:07.48	316.47	22.68	-45.1	-46.2	15.8	0.00e+00	0	22	0	3087007744	55	4317
2026-01-12 13:15:08.35	316.62	22.59	-45.1	-46.2	15.8	0.00e+00	0	23	0	3092250624	55	4327
2026-01-12 13:15:09.50	316.81	22.46	-45.2	-46.3	15.8	0.00e+00	0	22	0	3098542080	55	4351
2026-01-12 13:15:10.36	316.96	22.36	-45.3	-46.4	15.8	0.00e+00	0	22	0	3103784960	55	4404
2026-01-12 13:15:11.49	317.15	22.24	-45.3	-46.4	15.8	0.00e+00	0	22	0	3109027840	55	4403
2026-01-12 13:15:12.35	317.30	22.14	-45.3	-46.4	15.8	0.00e+00	0	23	0	3114270720	55	4401
2026-01-12 13:15:13.50	317.49	22.02	-45.3	-46.5	15.7	0.00e+00	0	22	0	3120562176	55	4448
2026-01-12 13:15:14.36	317.63	21.92	-45.5	-46.6	15.8	0.00e+00	0	23	0	3125805056	56	4282
2026-01-12 13:15:15.51	317.83	21.80	-45.4	-46.5	15.8	0.00e+00	0	22	0	3132096512	56	4205
2026-01-12 13:15:16.37	317.97	21.70	-45.5	-46.6	15.8	0.00e+00	0	23	0	3137339392	56	4252
2026-01-12 13:15:17.51	318.15	21.58	-45.4	-46.5	15.8	0.00e+00	0	22	0	3143630848	56	4225
2026-01-12 13:15:18.38	318.29	21.48	-45.4	-46.5	15.8	0.00e+00	0	22	0	3147825152	56	4233
2026-01-12 13:15:19.53	318.48	21.36	-45.5	-46.6	15.8	0.00e+00	0	23	0	3155165184	56	4245
2026-01-12 13:15:20.38	318.61	21.27	-45.4	-46.5	15.8	0.00e+00	0	22	0	3159359488	56	4227
2026-01-12 13:15:21.53	318.80	21.14	-45.5	-46.6	15.8	0.00e+00	0	23	0	3165650944	56	4286
2026-01-12 13:15:22.39	318.93	21.05	-45.6	-46.7	15.8	0.00e+00	0	23	0	3170893824	56	4303
2026-01-12 13:15:23.54	319.11	20.93	-45.7	-46.8	15.7	0.00e+00	0	23	0	3177185280	56	4366
2026-01-12 13:15:24.39	319.24	20.83	-45.7	-46.8	15.7	0.00e+00	0	22	0	3182428160	56	4380
2026-01-12 13:15:25.54	319.42	20.71	-45.7	-46.8	15.7	0.00e+00	0	22	0	3188719616	56	4389
2026-01-12 13:15:26.39	319.55	20.62	-45.7	-46.8	15.7	0.00e+00	0	23	0	3192913920	56	4373
2026-01-12 13:15:27.55	319.73	20.50	-45.8	-46.9	15.7	0.00e+00	0	22	0	3200253952	56	4413
2026-01-12 13:15:28.40	319.86	20.41	-45.8	-46.9	15.7	0.00e+00	0	22	0	3204448256	56	4438
2026-01-12 13:15:29.55	320.03	20.28	-46.0	-47.1	15.7	0.00e+00	0	23	0	3211788288	57	4253
2026-01-12 13:15:30.41	320.16	20.19	-45.9	-47.0	15.8	0.00e+00	0	23	0	3215982592	57	4231
2026-01-12 13:15:31.56	320.33	20.07	-45.9	-47.0	15.8	0.00e+00	0	22	0	3222274048	57	4222
2026-01-12 13:15:32.42	320.46	19.98	-45.9	-47.0	15.8	0.00e+00	0	22	0	3227516928	57	4241
2026-01-12 13:15:33.57	320.62	19.86	-46.0	-47.2	15.7	0.00e+00	0	22	0	3233808384	57	4308
2026-01-12 13:15:34.44	320.75	19.77	-46.1	-47.3	15.7	0.00e+00	0	23	0	3239051264	57	4343
2026-01-12 13:15:35.58	320.92	19.65	-46.3	-47.4	15.6	0.00e+00	0	23	0	3245342720	57	4432
2026-01-12 13:15:36.44	321.04	19.56	-46.3	-47.5	15.6	0.00e+00	0	22	0	3249537024	57	4455
2026-01-12 13:15:37.58	321.20	19.44	-46.3	-47.5	15.6	0.00e+00	0	23	0	3255828480	57	4471
2026-01-12 13:15:38.45	321.32	19.35	-46.4	-47.6	15.6	0.00e+00	0	22	0	3261071360	57	4507
2026-01-12 13:15:39.59	321.49	19.23	-46.4	-47.6	15.6	0.00e+00	0	23	0	3267362816	57	4496
2026-01-12 13:15:40.45	321.61	19.14	-46.3	-47.4	15.6	0.00e+00	0	23	0	3272605696	57	4435
2026-01-12 13:15:41.59	321.76	19.03	-46.3	-47.4	15.6	0.00e+00	0	22	0	3278897152	57	4422
2026-01-12 13:15:42.45	321.88	18.94	-46.3	-47.4	15.6	0.00e+00	0	22	0	3284140032	57	4441
2026-01-12 13:15:43.59	322.04	18.82	-46.4	-47.6	15.6	0.00e+00	0	22	0	3290431488	57	4505
2026-01-12 13:15:44.45	322.16	18.73	-46.2	-47.4	15.6	0.00e+00	0	22	0	3294625792	57	4415
2026-01-12 13:15:45.59	322.31	18.62	-46.3	-47.5	15.6	0.00e+00	0	23	0	3300917248	57	4459
2026-01-12 13:15:46.45	322.43	18.53	-46.3	-47.4	15.6	0.00e+00	0	23	0	3306160128	57	4419
2026-01-12 13:15:47.57	322.58	18.42	-46.3	-47.4	15.6	0.00e+00	0	23	0	3312451584	57	4427
2026-01-12 13:15:48.44	322.69	18.33	-46.4	-47.5	15.6	0.00e+00	0	22	0	3317694464	57	4483
2026-01-12 13:15:49.59	322.84	18.21	-46.4	-47.6	15.6	0.00e+00	0	22	0	3323985920	57	4497
2026-01-12 13:15:50.45	322.95	18.13	-46.4	-47.6	15.5	0.00e+00	0	22	0	3329228800	57	4507
2026-01-12 13:15:51.60	323.10	18.01	-46.5	-47.6	15.6	0.00e+00	0	23	0	3335520256	58	4285
2026-01-12 13:15:52.47	323.22	17.92	-46.5	-47.7	15.6	0.00e+00	0	22	0	3339714560	58	4325
2026-01-12 13:15:53.61	323.36	17.81	-46.5	-47.7	15.6	0.00e+00	0	23	0	3347054592	58	4333
2026-01-12 13:15:54.46	323.47	17.73	-46.5	-47.7	15.6	0.00e+00	0	23	0	3351248896	58	4303
2026-01-12 13:15:55.60	323.62	17.61	-46.6	-47.8	15.5	0.00e+00	0	23	0	3357540352	58	4386
2026-01-12 13:15:56.46	323.73	17.53	-46.6	-47.8	15.6	0.00e+00	0	23	0	3362783232	58	4363
2026-01-12 13:15:57.61	323.87	17.41	-46.6	-47.8	15.6	0.00e+00	0	23	0	3369074688	58	4366
2026-01-12 13:15:58.47	323.98	17.33	-46.6	-47.8	15.6	0.00e+00	0	23	0	3374317568	58	4343
2026-01-12 13:15:59.62	324.12	17.22	-46.6	-47.7	15.6	0.00e+00	0	22	0	3380609024	58	4326
2026-01-12 13:16:00.47	324.22	17.13	-46.5	-47.7	15.6	0.00e+00	0	22	0	3384803328	58	4313
2026-01-12 13:16:01.62	324.36	17.02	-46.5	-47.6	15.6	0.00e+00	0	22	0	3391094784	58	4284
2026-01-12 13:16:02.47	324.47	16.94	-46.5	-47.6	15.6	0.00e+00	0	23	0	3396337664	58	4289
2026-01-12 13:16:03.61	324.61	16.83	-46.5	-47.7	15.6	0.00e+00	0	23	0	3402629120	58	4304
2026-01-12 13:16:04.47	324.71	16.74	-46.5	-47.7	15.6	0.00e+00	0	22	0	3407872000	58	4304
2026-01-12 13:16:05.61	324.84	16.63	-46.6	-47.8	15.5	0.00e+00	0	22	0	3414163456	58	4378
2026-01-12 13:16:06.47	324.95	16.55	-46.6	-47.8	15.6	0.00e+00	0	22	0	3418357760	58	4354
2026-01-12 13:16:07.61	325.08	16.44	-46.6	-47.8	15.6	0.00e+00	0	22	0	3425697792	58	4356
2026-01-12 13:16:08.47	325.18	16.36	-46.6	-47.9	15.5	0.00e+00	0	22	0	3429892096	58	4398
2026-01-12 13:16:09.61	325.31	16.25	-46.6	-47.8	15.6	0.00e+00	0	22	0	3436183552	58	4344
2026-01-12 13:16:10.47	325.41	16.17	-46.7	-47.9	15.5	0.00e+00	0	23	0	3441426432	58	4399
2026-01-12 13:16:11.62	325.55	16.06	-46.8	-48.0	15.5	0.00e+00	0	22	0	3447717888	58	4452
2026-01-12 13:16:12.47	325.64	15.98	-46.8	-48.0	15.5	0.00e+00	0	23	0	3452960768	58	4449
2026-01-12 13:16:13.61	325.77	15.87	-46.8	-48.0	15.5	0.00e+00	0	22	0	3459252224	58	4466
2026-01-12 13:16:14.46	325.87	15.79	-46.9	-48.1	15.5	0.00e+00	0	22	0	3463446528	58	4503
2026-01-12 13:16:15.61	326.00	15.69	-46.7	-47.9	15.5	0.00e+00	0	22	0	3470786560	58	4404
2026-01-12 13:16:16.47	326.09	15.60	-46.7	-47.9	15.5	0.00e+00	0	23	0	3474980864	58	4431
2026-01-12 13:16:17.61	326.22	15.50	-46.8	-48.0	15.5	0.00e+00	0	22	0	3481272320	58	4488
2026-01-12 13:16:18.47	326.31	15.42	-46.7	-47.9	15.5	0.00e+00	0	22	0	3486515200	58	4428
2026-01-12 13:16:19.61	326.44	15.31	-46.7	-47.9	15.5	0.00e+00	0	22	0	3492806656	58	4414
2026-01-12 13:16:20.47	326.53	15.23	-46.9	-48.1	15.5	0.00e+00	0	23	0	3498049536	58	4494
2026-01-12 13:16:21.62	326.66	15.13	-46.8	-48.0	15.4	0.00e+00	0	23	0	3504340992	58	4492
2026-01-12 13:16:22.47	326.75	15.05	-46.8	-48.0	15.5	0.00e+00	0	22	0	3508535296	58	4470
2026-01-12 13:16:23.61	326.87	14.94	-46.9	-48.2	15.5	0.00e+00	0	22	0	3514826752	59	4296
2026-01-12 13:16:24.47	326.96	14.87	-47.0	-48.2	15.5	0.00e+00	0	23	0	3520069632	59	4304
2026-01-12 13:16:25.61	327.08	14.76	-47.1	-48.3	15.5	0.00e+00	0	23	0	3526361088	59	4358
2026-01-12 13:16:26.47	327.17	14.68	-47.1	-48.3	15.5	0.00e+00	0	23	0	3531603968	59	4365
2026-01-12 13:16:27.61	327.29	14.58	-47.2	-48.5	15.4	0.00e+00	0	23	0	3537895424	59	4451
2026-01-12 13:16:28.46	327.38	14.50	-47.1	-48.4	15.4	0.00e+00	0	23	0	3542089728	59	4395
2026-01-12 13:16:29.61	327.50	14.40	-47.2	-48.4	15.4	0.00e+00	0	22	0	3549429760	59	4438
2026-01-12 13:16:30.47	327.59	14.32	-47.2	-48.5	15.4	0.00e+00	0	23	0	3553624064	59	4469
2026-01-12 13:16:31.61	327.70	14.22	-47.3	-48.6	15.4	0.00e+00	0	23	0	3559915520	59	4498
2026-01-12 13:16:32.46	327.79	14.14	-47.2	-48.4	15.4	0.00e+00	0	22	0	3565158400	59	4434
2026-01-12 13:16:33.61	327.91	14.04	-47.2	-48.5	15.4	0.00e+00	0	22	0	3571449856	59	4453
2026-01-12 13:16:34.47	327.99	13.97	-47.2	-48.4	15.4	0.00e+00	0	22	0	3576692736	59	4434
2026-01-12 13:16:35.61	328.11	13.86	-47.2	-48.5	15.4	0.00e+00	0	23	0	3582984192	59	4450
2026-01-12 13:16:36.47	328.19	13.79	-47.3	-48.5	15.3	0.00e+00	0	23	0	3587178496	59	4487
2026-01-12 13:16:37.61	328.31	13.69	-47.1	-48.3	15.5	0.00e+00	0	22	0	3594518528	60	4114
2026-01-12 13:16:38.46	328.39	13.61	-47.0	-48.3	15.6	0.00e+00	0	22	0	3598712832	60	4102
2026-01-12 13:16:39.60	328.50	13.51	-47.0	-48.2	15.6	0.00e+00	0	22	0	3605004288	60	4084
2026-01-12 13:16:40.46	328.58	13.44	-47.0	-48.2	15.6	0.00e+00	0	23	0	3610247168	60	4075
2026-01-12 13:16:41.60	328.69	13.34	-47.0	-48.2	15.6	0.00e+00	0	23	0	3616538624	60	4085
2026-01-12 13:16:42.45	328.78	13.26	-47.0	-48.2	15.6	0.00e+00	0	23	0	3621781504	60	4056
2026-01-12 13:16:43.59	328.88	13.17	-47.1	-48.3	15.5	0.00e+00	0	23	0	3627024384	60	4130
2026-01-12 13:16:44.44	328.96	13.09	-47.1	-48.3	15.5	0.00e+00	0	23	0	3632267264	60	4128
2026-01-12 13:16:45.59	329.07	12.99	-47.1	-48.3	15.5	0.00e+00	0	22	0	3638558720	60	4144
2026-01-12 13:16:46.44	329.15	12.92	-47.1	-48.4	15.5	0.00e+00	0	23	0	3643801600	60	4164
