passes_logs/2026/01/12/R3.2S_Murmansk/R3.2S_Murmansk__20260112_194546_KANOPUS-V_5_rec.log

#Pass ID: 20260112_194546_KANOPUS-V 5
#Satellite: KANOPUS-V 5
#Configuration: KANOPUS-V_8320
#almurnet v.1.7.20251203
#Start time: 2026-01-12 19:45:46

#Version: 2.2.20231116
#Station: R3.2S_Murmansk
#Location: 33.079688 lon 68.888172 lat
#TLE: 1 43876U 18111A   26012.28056898  .00003514  00000+0  15053-3 0  9996
#TLE: 2 43876  97.3682 280.8443 0001794  87.9048 272.2394 15.23425790391056

#Time	Az	El	Level	Level2	SNR	BER	BlckErr	Temp	State	Recorded	gain1	gain2
2026-01-12 19:45:46.25	26.15	2.00	-58.0	-67.7	3.8	7.45e-01	0	21	0	0	80	10817
2026-01-12 19:45:47.25	26.28	2.05	-58.0	-67.7	3.8	7.45e-01	0	21	104	0	80	10844
2026-01-12 19:45:48.25	26.41	2.10	-58.0	-67.7	3.8	7.45e-01	0	21	104	0	80	10843
2026-01-12 19:45:49.24	26.54	2.15	-58.0	-67.7	3.8	7.47e-01	0	21	104	0	80	10822
2026-01-12 19:45:50.23	26.66	2.20	-58.0	-67.7	3.8	7.45e-01	0	21	104	0	80	10860
2026-01-12 19:45:51.24	26.79	2.26	-58.0	-67.7	3.8	7.46e-01	0	21	104	0	80	10837
2026-01-12 19:45:52.24	26.92	2.31	-58.0	-67.7	3.8	7.45e-01	0	21	104	0	80	10835
2026-01-12 19:45:53.23	27.05	2.36	-58.0	-67.7	3.8	7.45e-01	0	21	104	0	80	10871
2026-01-12 19:45:54.23	27.18	2.41	-58.0	-67.7	3.8	7.45e-01	0	21	104	0	80	10871
2026-01-12 19:45:55.23	27.32	2.46	-58.0	-67.7	3.8	7.45e-01	0	21	104	0	80	10846
2026-01-12 19:45:56.23	27.45	2.51	-58.0	-67.7	3.8	7.46e-01	0	21	104	0	80	10855
2026-01-12 19:45:57.23	27.58	2.56	-58.0	-67.7	3.8	7.45e-01	0	21	104	0	80	10900
2026-01-12 19:45:58.23	27.71	2.61	-58.0	-67.7	3.8	7.45e-01	0	21	104	0	80	10849
2026-01-12 19:45:59.24	27.85	2.66	-58.0	-67.7	3.8	7.45e-01	0	21	104	0	80	10883
2026-01-12 19:46:00.24	27.98	2.71	-58.0	-67.7	3.8	7.44e-01	0	21	104	0	80	10845
2026-01-12 19:46:01.24	28.12	2.76	-58.0	-67.7	3.8	7.45e-01	0	21	104	0	80	10892
2026-01-12 19:46:02.24	28.25	2.81	-58.0	-67.8	3.8	7.47e-01	0	21	104	0	80	10930
2026-01-12 19:46:03.24	28.39	2.87	-58.0	-67.7	3.8	7.45e-01	0	21	104	0	80	10850
2026-01-12 19:46:04.24	28.53	2.92	-58.0	-67.7	3.8	7.45e-01	0	21	104	0	80	10826
2026-01-12 19:46:05.23	28.66	2.97	-58.0	-67.7	3.8	7.45e-01	0	21	104	0	80	10858
2026-01-12 19:46:06.22	28.80	3.02	-58.0	-67.7	3.8	7.46e-01	0	21	104	0	80	10888
2026-01-12 19:46:07.23	28.94	3.07	-58.0	-67.7	3.8	7.46e-01	0	21	104	0	80	10866
2026-01-12 19:46:08.23	29.08	3.12	-58.0	-67.7	3.8	7.46e-01	0	21	104	0	80	10894
2026-01-12 19:46:09.22	29.21	3.17	-58.0	-67.8	3.8	7.45e-01	0	22	104	0	80	10918
2026-01-12 19:46:10.22	29.35	3.22	-58.0	-67.7	3.8	7.44e-01	0	22	104	0	80	10856
2026-01-12 19:46:11.22	29.50	3.27	-58.1	-67.7	3.8	7.45e-01	0	22	104	0	80	10893
2026-01-12 19:46:12.22	29.64	3.32	-58.0	-67.7	3.8	7.45e-01	0	21	104	0	80	10894
2026-01-12 19:46:13.22	29.78	3.38	-58.1	-67.7	3.8	7.46e-01	0	21	104	0	80	10884
2026-01-12 19:46:14.22	29.92	3.43	-58.0	-67.7	3.8	7.46e-01	0	21	104	0	80	10868
2026-01-12 19:46:15.22	30.06	3.48	-58.0	-67.8	3.8	7.44e-01	0	21	104	0	80	10924
2026-01-12 19:46:16.22	30.21	3.53	-58.0	-67.7	3.8	7.45e-01	0	22	104	0	80	10888
2026-01-12 19:46:17.22	30.35	3.58	-58.0	-67.7	3.8	7.46e-01	0	22	104	0	80	10862
2026-01-12 19:46:18.22	30.50	3.63	-58.1	-67.7	3.8	7.44e-01	0	22	104	0	80	10861
2026-01-12 19:46:19.21	30.64	3.68	-58.1	-67.8	3.8	7.45e-01	0	21	104	0	80	10928
2026-01-12 19:46:20.20	30.79	3.73	-58.1	-67.8	3.8	7.46e-01	0	22	104	0	80	10947
2026-01-12 19:46:21.20	30.93	3.78	-58.1	-67.8	3.8	7.46e-01	0	22	104	0	80	10924
2026-01-12 19:46:22.20	31.08	3.83	-58.1	-67.8	3.8	7.44e-01	0	22	104	0	80	10926
2026-01-12 19:46:23.21	31.23	3.89	-58.1	-67.8	3.8	7.43e-01	0	22	104	0	80	10927
2026-01-12 19:46:24.21	31.38	3.94	-58.1	-67.8	3.8	7.46e-01	0	22	104	0	80	10958
2026-01-12 19:46:25.21	31.53	3.99	-58.1	-67.8	3.8	7.44e-01	0	22	104	0	80	10912
2026-01-12 19:46:26.21	31.68	4.04	-58.1	-67.8	3.8	7.45e-01	0	22	104	0	80	10924
2026-01-12 19:46:27.21	31.83	4.09	-58.1	-67.8	3.8	7.45e-01	0	22	104	0	80	10927
2026-01-12 19:46:28.21	31.98	4.14	-58.1	-67.8	3.8	7.46e-01	0	22	104	0	80	10945
2026-01-12 19:46:29.21	32.13	4.19	-58.1	-67.8	3.8	7.45e-01	0	22	104	0	80	10910
2026-01-12 19:46:30.21	32.29	4.24	-58.1	-67.8	3.8	7.44e-01	0	22	104	0	80	10935
2026-01-12 19:46:31.21	32.44	4.30	-58.1	-67.7	3.8	7.46e-01	0	22	104	0	80	10903
2026-01-12 19:46:32.22	32.60	4.35	-58.1	-67.7	3.8	7.45e-01	0	22	104	0	80	10887
2026-01-12 19:46:33.22	32.75	4.40	-58.1	-67.7	3.8	7.46e-01	0	22	104	0	80	10864
2026-01-12 19:46:34.22	32.91	4.45	-58.1	-67.7	3.8	7.45e-01	0	22	104	0	80	10896
2026-01-12 19:46:35.22	33.06	4.50	-58.1	-67.8	3.8	7.46e-01	0	22	104	0	80	10981
2026-01-12 19:46:36.22	33.22	4.55	-58.1	-67.8	3.8	7.47e-01	0	22	104	0	80	10911
2026-01-12 19:46:37.21	33.38	4.60	-58.1	-67.8	3.8	7.46e-01	0	22	104	0	80	10911
2026-01-12 19:46:38.21	33.53	4.65	-58.1	-67.8	3.8	7.47e-01	0	22	104	0	80	10938
2026-01-12 19:46:39.21	33.69	4.70	-58.1	-67.8	3.8	7.46e-01	0	22	104	0	80	10911
2026-01-12 19:46:40.19	33.85	4.75	-58.1	-67.8	3.8	7.46e-01	0	22	104	0	80	10955
2026-01-12 19:46:41.20	34.01	4.80	-58.1	-67.8	3.8	7.45e-01	0	22	104	0	80	10961
2026-01-12 19:46:42.19	34.17	4.86	-58.1	-67.7	3.8	7.46e-01	0	22	104	0	80	10902
2026-01-12 19:46:43.19	34.33	4.91	-58.1	-67.8	3.8	7.46e-01	0	22	104	0	80	10940
2026-01-12 19:46:44.19	34.49	4.96	-58.1	-67.8	3.8	7.45e-01	0	22	104	0	80	10963
2026-01-12 19:46:45.20	34.66	5.01	-58.1	-67.7	3.8	7.44e-01	0	22	104	0	80	10879
2026-01-12 19:46:46.19	34.82	5.06	-58.1	-67.8	3.8	7.47e-01	0	22	104	0	80	10973
2026-01-12 19:46:47.19	34.99	5.11	-58.1	-67.8	3.8	7.46e-01	0	22	104	0	80	10979
2026-01-12 19:46:48.18	35.15	5.16	-57.8	-67.5	3.8	7.45e-01	0	22	104	0	80	10620
2026-01-12 19:46:49.18	35.32	5.21	-58.3	-68.0	3.8	7.46e-01	0	22	104	0	80	11262
2026-01-12 19:46:50.18	35.48	5.26	-58.0	-67.7	3.8	7.47e-01	0	22	104	0	80	10872
2026-01-12 19:46:51.18	35.65	5.31	-57.9	-67.6	3.8	7.46e-01	0	22	104	0	80	10699
2026-01-12 19:46:52.19	35.82	5.36	-58.0	-67.7	3.8	7.44e-01	0	22	104	0	80	10804
2026-01-12 19:46:53.19	35.99	5.41	-58.0	-67.7	3.8	7.44e-01	0	22	104	0	80	10845
2026-01-12 19:46:54.18	36.16	5.46	-58.0	-67.7	3.8	7.47e-01	0	22	104	0	80	10783
2026-01-12 19:46:55.17	36.32	5.51	-58.0	-67.7	3.8	7.45e-01	0	22	104	0	80	10781
2026-01-12 19:46:56.17	36.49	5.56	-58.1	-67.8	3.8	7.46e-01	0	22	104	0	80	10970
2026-01-12 19:46:57.17	36.67	5.61	-58.4	-68.1	3.8	7.44e-01	0	22	104	0	80	11356
2026-01-12 19:46:58.17	36.84	5.66	-58.3	-68.0	3.8	7.46e-01	0	22	104	0	80	11260
2026-01-12 19:46:59.17	37.01	5.71	-58.2	-67.9	3.8	7.45e-01	0	22	104	0	80	11135
2026-01-12 19:47:00.17	37.19	5.76	-58.2	-67.9	3.8	7.45e-01	0	22	104	0	80	11055
2026-01-12 19:47:01.17	37.36	5.81	-58.4	-68.1	3.8	7.46e-01	0	22	104	0	80	11402
2026-01-12 19:47:02.16	37.53	5.86	-58.4	-68.1	3.8	7.47e-01	0	22	104	0	80	11317
2026-01-12 19:47:03.16	37.71	5.91	-58.3	-68.0	3.8	7.46e-01	0	22	104	0	80	11216
2026-01-12 19:47:04.16	37.89	5.96	-58.2	-67.9	3.8	7.44e-01	0	22	104	0	80	11113
2026-01-12 19:47:05.15	38.06	6.01	-58.5	-68.2	3.8	7.45e-01	0	22	104	0	80	11425
2026-01-12 19:47:06.14	38.24	6.06	-58.4	-68.1	3.8	7.46e-01	0	22	104	0	80	11317
2026-01-12 19:47:07.14	38.42	6.11	-58.3	-68.0	3.8	7.46e-01	0	22	104	0	80	11229
2026-01-12 19:47:08.13	38.60	6.16	-58.3	-67.9	3.8	7.45e-01	0	22	104	0	80	11146
2026-01-12 19:47:09.13	38.78	6.21	-58.5	-68.2	3.8	7.47e-01	0	22	104	0	80	11457
2026-01-12 19:47:10.12	38.96	6.26	-58.4	-68.1	3.8	7.45e-01	0	22	104	0	80	11406
2026-01-12 19:47:11.12	39.14	6.31	-58.4	-68.1	3.8	7.45e-01	0	22	104	0	80	11297
2026-01-12 19:47:12.12	39.32	6.36	-58.3	-68.0	3.8	7.46e-01	0	22	104	0	80	11249
2026-01-12 19:47:13.12	39.50	6.41	-58.5	-68.2	3.8	7.46e-01	0	22	104	0	80	11520
2026-01-12 19:47:14.12	39.69	6.46	-58.5	-68.2	3.8	7.47e-01	0	22	104	0	80	11463
2026-01-12 19:47:15.12	39.87	6.51	-58.4	-68.1	3.8	7.46e-01	0	22	104	0	80	11360
2026-01-12 19:47:16.11	40.06	6.55	-58.3	-68.0	3.8	7.46e-01	0	22	104	0	80	11223
2026-01-12 19:47:17.11	40.24	6.60	-58.6	-68.2	3.8	7.44e-01	0	22	104	0	80	11519
2026-01-12 19:47:18.10	40.43	6.65	-58.5	-68.2	3.8	7.45e-01	0	22	104	0	80	11421
2026-01-12 19:47:19.10	40.62	6.70	-58.4	-68.1	3.8	7.44e-01	0	22	104	0	80	11409
2026-01-12 19:47:20.10	40.81	6.75	-58.4	-68.1	3.8	7.44e-01	0	22	104	0	80	11324
2026-01-12 19:47:21.11	41.00	6.80	-58.6	-68.3	3.8	7.46e-01	0	23	104	0	80	11618
2026-01-12 19:47:22.10	41.19	6.85	-58.5	-68.2	3.8	7.46e-01	0	22	104	0	80	11513
2026-01-12 19:47:23.10	41.38	6.89	-58.5	-68.2	3.8	7.44e-01	0	22	104	0	80	11463
2026-01-12 19:47:24.09	41.57	6.94	-58.4	-68.1	3.8	7.45e-01	0	23	104	0	80	11366
2026-01-12 19:47:25.09	41.76	6.99	-58.6	-68.3	3.8	7.48e-01	0	22	104	0	80	11639
2026-01-12 19:47:26.09	41.96	7.04	-58.5	-68.3	3.8	7.46e-01	0	23	104	0	80	11615
2026-01-12 19:47:27.08	42.15	7.09	-58.5	-68.2	3.8	7.45e-01	0	23	104	0	80	11506
2026-01-12 19:47:28.08	42.34	7.13	-58.4	-68.1	3.8	7.46e-01	0	22	104	0	80	11399
2026-01-12 19:47:29.08	42.54	7.18	-58.6	-68.3	3.8	7.46e-01	0	22	104	0	80	11653
2026-01-12 19:47:30.08	42.74	7.23	-58.5	-68.3	3.8	7.46e-01	0	23	104	0	80	11582
2026-01-12 19:47:31.08	42.93	7.28	-58.5	-68.3	3.8	7.45e-01	0	23	104	0	80	11564
2026-01-12 19:47:32.08	43.13	7.32	-58.5	-68.1	3.8	7.45e-01	0	23	104	0	80	11417
2026-01-12 19:47:33.08	43.33	7.37	-58.6	-68.4	3.8	7.45e-01	0	23	104	0	80	11688
2026-01-12 19:47:34.07	43.53	7.42	-58.6	-68.3	3.8	7.45e-01	0	23	104	0	80	11577
2026-01-12 19:47:35.07	43.73	7.46	-58.5	-68.3	3.8	7.45e-01	0	23	104	0	80	11558
2026-01-12 19:47:36.07	43.93	7.51	-58.5	-68.2	3.8	7.44e-01	0	22	104	0	80	11467
2026-01-12 19:47:37.07	44.13	7.56	-58.7	-68.4	3.8	7.47e-01	0	23	104	0	80	11739
2026-01-12 19:47:38.06	44.33	7.60	-58.6	-68.3	3.8	7.43e-01	0	22	104	0	80	11623
2026-01-12 19:47:39.06	44.54	7.65	-58.6	-68.3	3.8	7.45e-01	0	22	104	0	80	11596
2026-01-12 19:47:40.06	44.74	7.70	-58.5	-68.2	3.8	7.46e-01	0	23	104	0	80	11513
2026-01-12 19:47:41.06	44.95	7.74	-58.7	-68.4	3.8	7.45e-01	0	23	104	0	80	11751
2026-01-12 19:47:42.06	45.15	7.79	-58.6	-68.3	3.8	7.45e-01	0	23	104	0	80	11646
2026-01-12 19:47:43.06	45.36	7.83	-58.6	-68.3	3.8	7.45e-01	0	22	104	0	80	11619
2026-01-12 19:47:44.06	45.57	7.88	-58.5	-68.3	3.8	7.46e-01	0	23	104	0	80	11559
2026-01-12 19:47:45.05	45.78	7.92	-58.7	-68.4	3.8	7.46e-01	0	22	104	0	80	11740
2026-01-12 19:47:46.05	45.99	7.97	-58.6	-68.3	3.8	7.46e-01	0	23	104	0	80	11659
2026-01-12 19:47:47.05	46.20	8.01	-58.6	-68.3	3.8	7.47e-01	0	23	104	0	80	11605
2026-01-12 19:47:48.05	46.41	8.06	-58.6	-68.2	3.8	7.46e-01	0	23	104	0	80	11526
2026-01-12 19:47:49.05	46.62	8.10	-58.7	-68.4	3.8	7.46e-01	0	23	104	0	80	11740
2026-01-12 19:47:50.04	46.83	8.15	-58.6	-68.4	3.8	7.45e-01	0	23	104	0	80	11690
2026-01-12 19:47:51.03	47.04	8.19	-58.6	-68.3	3.8	7.45e-01	0	23	104	0	80	11663
2026-01-12 19:47:52.03	47.25	8.24	-58.6	-68.3	3.8	7.45e-01	0	23	104	0	80	11589
2026-01-12 19:47:53.02	47.47	8.28	-58.7	-68.4	3.8	7.46e-01	0	23	104	0	80	11810
2026-01-12 19:47:54.02	47.68	8.32	-58.6	-68.3	3.8	7.46e-01	0	23	104	0	80	11665
2026-01-12 19:47:55.00	47.90	8.36	-58.6	-68.4	3.8	7.45e-01	0	23	104	0	80	11685
2026-01-12 19:47:56.01	48.11	8.41	-58.6	-68.3	3.8	7.46e-01	0	23	104	0	80	11575
2026-01-12 19:47:57.00	48.33	8.45	-58.7	-68.5	3.8	7.44e-01	0	23	104	0	80	11838
2026-01-12 19:47:58.00	48.55	8.49	-58.7	-68.4	3.8	7.45e-01	0	23	104	0	80	11715
2026-01-12 19:47:59.00	48.77	8.54	-58.6	-68.3	3.8	7.45e-01	0	23	104	0	80	11665
2026-01-12 19:47:59.99	48.99	8.58	-58.6	-68.3	3.8	7.46e-01	0	23	104	0	80	11639
2026-01-12 19:48:00.99	49.21	8.62	-58.7	-68.4	3.8	7.45e-01	0	23	104	0	80	11794
2026-01-12 19:48:01.98	49.43	8.66	-58.7	-68.4	3.8	7.46e-01	0	23	104	0	80	11727
2026-01-12 19:48:02.98	49.65	8.70	-58.7	-68.4	3.8	7.44e-01	0	23	104	0	80	11728
2026-01-12 19:48:03.98	49.88	8.75	-58.6	-68.3	3.8	7.46e-01	0	23	104	0	80	11655
2026-01-12 19:48:04.97	50.10	8.79	-58.8	-68.5	3.8	7.45e-01	0	23	104	0	80	11819
2026-01-12 19:48:05.98	50.32	8.83	-58.7	-68.4	3.8	7.45e-01	0	23	104	0	80	11772
2026-01-12 19:48:06.98	50.55	8.87	-58.7	-68.4	3.8	7.46e-01	0	23	104	0	80	11765
2026-01-12 19:48:07.98	50.78	8.91	-58.6	-68.3	3.8	7.46e-01	0	23	104	0	80	11665
2026-01-12 19:48:08.97	51.00	8.95	-58.8	-68.5	3.8	7.46e-01	0	23	104	0	80	11842
2026-01-12 19:48:09.97	51.23	8.99	-58.7	-68.4	3.8	7.44e-01	0	23	104	0	80	11807
2026-01-12 19:48:10.96	51.46	9.03	-58.7	-68.4	3.8	7.47e-01	0	23	104	0	80	11755
2026-01-12 19:48:11.96	51.69	9.07	-58.7	-68.4	3.8	7.44e-01	0	23	104	0	80	11697
2026-01-12 19:48:12.96	51.92	9.11	-58.8	-68.5	3.8	7.46e-01	0	23	104	0	80	11870
2026-01-12 19:48:13.96	52.15	9.15	-58.7	-68.4	3.8	7.48e-01	0	23	104	0	80	11769
2026-01-12 19:48:14.96	52.38	9.19	-58.7	-68.4	3.8	7.46e-01	0	23	104	0	80	11776
2026-01-12 19:48:15.96	52.61	9.23	-58.7	-68.4	3.8	7.45e-01	0	23	104	0	80	11716
2026-01-12 19:48:16.95	52.85	9.26	-58.8	-68.5	3.8	7.44e-01	0	23	104	0	80	11873
2026-01-12 19:48:17.96	53.08	9.30	-58.7	-68.4	3.8	7.45e-01	0	23	104	0	80	11774
2026-01-12 19:48:18.95	53.31	9.34	-58.7	-68.4	3.8	7.45e-01	0	23	104	0	80	11786
2026-01-12 19:48:19.95	53.55	9.38	-58.7	-68.4	3.8	7.45e-01	0	23	104	0	80	11708
2026-01-12 19:48:20.95	53.79	9.41	-58.8	-68.5	3.8	7.45e-01	0	23	104	0	80	11896
2026-01-12 19:48:21.95	54.02	9.45	-58.7	-68.5	3.8	7.47e-01	0	23	104	0	80	11828
2026-01-12 19:48:22.95	54.26	9.49	-58.7	-68.4	3.8	7.46e-01	0	23	104	0	80	11789
2026-01-12 19:48:23.94	54.50	9.52	-58.7	-68.4	3.8	7.46e-01	0	23	104	0	80	11739
2026-01-12 19:48:24.95	54.74	9.56	-58.8	-68.5	3.8	7.46e-01	0	23	104	0	80	11889
2026-01-12 19:48:25.95	54.98	9.60	-58.8	-68.4	3.8	7.45e-01	0	23	104	0	80	11817
2026-01-12 19:48:26.94	55.22	9.63	-58.7	-68.4	3.8	7.45e-01	0	23	104	0	80	11812
2026-01-12 19:48:27.94	55.46	9.67	-58.7	-68.4	3.8	7.46e-01	0	23	104	0	80	11732
2026-01-12 19:48:28.95	55.71	9.70	-58.8	-68.5	3.8	7.44e-01	0	23	104	0	80	11940
2026-01-12 19:48:29.95	55.95	9.74	-58.8	-68.4	3.8	7.46e-01	0	23	104	0	80	11792
2026-01-12 19:48:30.94	56.19	9.77	-58.8	-68.5	3.8	7.46e-01	0	23	104	0	80	11823
2026-01-12 19:48:31.94	56.43	9.80	-58.7	-68.4	3.8	7.45e-01	0	23	104	0	80	11774
2026-01-12 19:48:32.94	56.68	9.84	-58.8	-68.5	3.8	7.45e-01	0	23	104	0	80	11949
2026-01-12 19:48:33.94	56.92	9.87	-58.8	-68.5	3.8	7.45e-01	0	23	104	0	80	11833
2026-01-12 19:48:34.94	57.17	9.90	-58.8	-68.5	3.8	7.46e-01	0	23	104	0	80	11847
2026-01-12 19:48:35.93	57.42	9.93	-58.7	-68.5	3.8	7.45e-01	0	23	104	0	80	11847
2026-01-12 19:48:36.92	57.66	9.97	-58.8	-68.6	3.8	7.46e-01	0	23	104	0	80	11966
2026-01-12 19:48:37.92	57.91	10.00	-58.8	-68.5	3.8	7.45e-01	0	23	104	0	80	11938
2026-01-12 19:48:38.91	58.16	10.03	-58.8	-68.5	3.8	7.46e-01	0	23	104	0	80	11894
2026-01-12 19:48:39.91	58.41	10.06	-58.7	-68.4	3.8	7.45e-01	0	23	104	0	80	11806
2026-01-12 19:48:40.91	58.66	10.09	-58.9	-68.6	3.8	7.44e-01	0	23	104	0	80	11966
2026-01-12 19:48:41.90	58.90	10.12	-58.8	-68.5	3.8	7.46e-01	0	23	104	0	80	11909
2026-01-12 19:48:42.90	59.16	10.15	-58.8	-68.5	3.8	7.46e-01	0	23	104	0	80	11879
2026-01-12 19:48:43.90	59.41	10.18	-58.7	-68.5	3.8	7.44e-01	0	23	104	0	80	11821
2026-01-12 19:48:44.89	59.66	10.21	-58.9	-68.6	3.8	7.46e-01	0	23	104	0	80	11984
2026-01-12 19:48:45.88	59.91	10.24	-58.8	-68.5	3.8	7.46e-01	0	23	104	0	80	11924
2026-01-12 19:48:46.88	60.16	10.27	-58.8	-68.5	3.8	7.45e-01	0	23	104	0	80	11890
2026-01-12 19:48:47.88	60.42	10.29	-58.8	-68.5	3.8	7.46e-01	0	23	104	0	80	11831
2026-01-12 19:48:48.88	60.67	10.32	-58.9	-68.6	3.8	7.46e-01	0	23	104	0	80	12013
2026-01-12 19:48:49.87	60.93	10.35	-58.8	-68.5	3.8	7.44e-01	0	23	104	0	80	11915
2026-01-12 19:48:50.87	61.18	10.38	-58.8	-68.5	3.8	7.46e-01	0	23	104	0	80	11918
2026-01-12 19:48:51.87	61.44	10.40	-58.8	-68.5	3.8	7.44e-01	0	23	104	0	80	11832
2026-01-12 19:48:52.86	61.69	10.43	-58.9	-68.6	3.8	7.46e-01	0	23	104	0	80	11980
2026-01-12 19:48:53.86	61.95	10.45	-58.8	-68.5	3.8	7.46e-01	0	23	104	0	80	11905
2026-01-12 19:48:54.85	62.21	10.48	-58.8	-68.5	3.8	7.43e-01	0	23	104	0	80	11917
2026-01-12 19:48:55.85	62.47	10.50	-58.8	-68.5	3.8	7.44e-01	0	23	104	0	80	11879
2026-01-12 19:48:56.85	62.73	10.53	-58.9	-68.6	3.8	7.47e-01	0	23	104	0	80	12003
2026-01-12 19:48:57.85	62.99	10.55	-58.8	-68.5	3.8	7.45e-01	0	23	104	0	80	11945
2026-01-12 19:48:58.84	63.25	10.57	-58.8	-68.5	3.8	7.45e-01	0	23	104	0	80	11950
2026-01-12 19:48:59.83	63.50	10.60	-58.8	-68.5	3.8	7.45e-01	0	23	104	0	80	11863
2026-01-12 19:49:00.82	63.76	10.62	-58.9	-68.6	3.8	7.46e-01	0	23	104	0	80	12038
2026-01-12 19:49:01.81	64.02	10.64	-58.9	-68.6	3.8	7.45e-01	0	23	104	0	80	11989
2026-01-12 19:49:02.81	64.29	10.66	-58.8	-68.5	3.8	7.46e-01	0	23	104	0	80	11937
2026-01-12 19:49:03.81	64.55	10.69	-58.8	-68.5	3.8	7.45e-01	0	23	104	0	80	11876
2026-01-12 19:49:04.81	64.81	10.71	-58.9	-68.6	3.8	7.46e-01	0	23	104	0	80	12018
2026-01-12 19:49:05.81	65.08	10.73	-58.9	-68.5	3.8	7.45e-01	0	23	104	0	80	11945
2026-01-12 19:49:06.81	65.34	10.75	-58.8	-68.5	3.8	7.45e-01	0	23	104	0	80	11938
2026-01-12 19:49:07.80	65.60	10.77	-58.8	-68.5	3.8	7.45e-01	0	23	104	0	80	11866
2026-01-12 19:49:08.80	65.87	10.79	-58.9	-68.6	3.8	7.45e-01	0	23	104	0	80	12072
2026-01-12 19:49:09.80	66.13	10.81	-58.9	-68.6	3.8	7.44e-01	0	23	104	0	80	11995
2026-01-12 19:49:10.80	66.40	10.82	-58.8	-68.5	3.8	7.44e-01	0	23	104	0	80	11949
2026-01-12 19:49:11.80	66.67	10.84	-58.8	-68.5	3.8	7.46e-01	0	23	104	0	80	11953
2026-01-12 19:49:12.79	66.93	10.86	-58.9	-68.6	3.8	7.47e-01	0	23	104	0	80	12040
2026-01-12 19:49:13.79	67.20	10.88	-58.9	-68.6	3.8	7.47e-01	0	23	104	0	81	11364
2026-01-12 19:49:14.79	67.47	10.89	-58.9	-68.6	3.8	7.46e-01	0	23	104	0	81	11347
2026-01-12 19:49:15.79	67.73	10.91	-58.9	-68.6	3.8	7.45e-01	0	23	104	0	81	11321
2026-01-12 19:49:16.79	68.00	10.92	-59.0	-68.7	3.8	7.45e-01	0	23	104	0	81	11453
2026-01-12 19:49:17.78	68.27	10.94	-58.9	-68.6	3.8	7.45e-01	0	23	104	0	81	11343
2026-01-12 19:49:18.78	68.54	10.95	-58.9	-68.6	3.8	7.46e-01	0	23	104	0	81	11374
2026-01-12 19:49:19.78	68.81	10.97	-58.9	-68.6	3.8	7.45e-01	0	23	104	0	81	11347
2026-01-12 19:49:20.78	69.08	10.98	-59.0	-68.7	3.8	7.45e-01	0	23	104	0	81	11495
2026-01-12 19:49:21.79	69.35	10.99	-58.9	-68.7	3.8	7.45e-01	0	23	104	0	81	11423
2026-01-12 19:49:22.78	69.62	11.01	-58.9	-68.6	3.8	7.46e-01	0	23	104	0	81	11353
2026-01-12 19:49:23.79	69.89	11.02	-58.9	-68.6	3.8	7.45e-01	0	23	104	0	81	11329
2026-01-12 19:49:24.80	70.17	11.03	-59.0	-68.6	3.8	7.46e-01	0	23	104	0	81	11396
2026-01-12 19:49:25.79	70.43	11.04	-58.9	-68.7	3.8	7.46e-01	0	23	104	0	81	11432
2026-01-12 19:49:26.80	70.71	11.05	-58.9	-68.6	3.8	7.46e-01	0	23	104	0	81	11322
2026-01-12 19:49:27.79	70.98	11.06	-58.9	-68.5	3.8	7.46e-01	0	23	104	0	81	11284
2026-01-12 19:49:28.79	71.25	11.07	-59.0	-68.7	3.8	7.46e-01	0	23	104	0	81	11422
2026-01-12 19:49:29.79	71.52	11.08	-58.9	-68.6	3.8	7.46e-01	0	23	104	0	81	11396
2026-01-12 19:49:30.79	71.79	11.09	-58.9	-68.6	3.8	7.43e-01	0	23	104	0	81	11363
2026-01-12 19:49:31.79	72.07	11.10	-58.9	-68.6	3.8	7.44e-01	0	23	104	0	81	11355
2026-01-12 19:49:32.78	72.34	11.11	-59.0	-68.7	3.8	7.46e-01	0	23	104	0	81	11469
2026-01-12 19:49:33.78	72.61	11.11	-58.9	-68.7	3.8	7.45e-01	0	23	104	0	81	11418
2026-01-12 19:49:34.78	72.88	11.12	-58.9	-68.6	3.8	7.46e-01	0	23	104	0	81	11375
2026-01-12 19:49:35.78	73.16	11.13	-58.9	-68.6	3.8	7.46e-01	0	23	104	0	81	11338
2026-01-12 19:49:36.78	73.43	11.13	-59.0	-68.7	3.8	7.45e-01	0	23	104	0	81	11442
2026-01-12 19:49:37.78	73.70	11.14	-58.9	-68.6	3.8	7.45e-01	0	23	104	0	81	11413
2026-01-12 19:49:38.77	73.97	11.14	-58.9	-68.6	3.8	7.45e-01	0	23	104	0	81	11375
2026-01-12 19:49:39.76	74.24	11.15	-58.9	-68.6	3.8	7.45e-01	0	23	104	0	81	11324
2026-01-12 19:49:40.75	74.52	11.15	-59.0	-68.7	3.8	7.47e-01	0	23	104	0	81	11443
2026-01-12 19:49:41.75	74.79	11.15	-58.9	-68.7	3.8	7.47e-01	0	23	104	0	81	11419
2026-01-12 19:49:42.76	75.07	11.16	-58.9	-68.6	3.8	7.45e-01	0	23	104	0	81	11370
2026-01-12 19:49:43.75	75.34	11.16	-58.9	-68.6	3.8	7.45e-01	0	23	104	0	81	11316
2026-01-12 19:49:44.75	75.61	11.16	-59.0	-68.7	3.8	7.45e-01	0	23	104	0	81	11445
2026-01-12 19:49:45.74	75.88	11.16	-58.9	-68.7	3.8	7.47e-01	0	23	104	0	81	11436
2026-01-12 19:49:46.74	76.16	11.16	-58.9	-68.6	3.8	7.44e-01	0	23	104	0	81	11384
2026-01-12 19:49:47.73	76.43	11.16	-58.9	-68.6	3.8	7.46e-01	0	23	104	0	81	11309
2026-01-12 19:49:48.73	76.70	11.16	-59.0	-68.7	3.8	7.46e-01	0	23	104	0	81	11459
2026-01-12 19:49:49.73	76.98	11.16	-58.9	-68.7	3.8	7.45e-01	0	23	104	0	81	11421
2026-01-12 19:49:50.73	77.25	11.16	-58.9	-68.6	3.8	7.47e-01	0	23	104	0	81	11347
2026-01-12 19:49:51.73	77.53	11.16	-58.9	-68.6	3.8	7.46e-01	0	23	104	0	81	11376
2026-01-12 19:49:52.73	77.80	11.16	-59.0	-68.7	3.8	7.46e-01	0	23	104	0	81	11452
2026-01-12 19:49:53.72	78.07	11.15	-58.9	-68.7	3.8	7.45e-01	0	23	104	0	81	11428
2026-01-12 19:49:54.72	78.34	11.15	-58.9	-68.6	3.8	7.45e-01	0	23	104	0	81	11371
2026-01-12 19:49:55.71	78.62	11.15	-58.9	-68.6	3.8	7.45e-01	0	23	104	0	81	11374
2026-01-12 19:49:56.70	78.89	11.14	-59.0	-68.7	3.8	7.45e-01	0	23	104	0	81	11478
2026-01-12 19:49:57.70	79.16	11.14	-59.0	-68.7	3.8	7.45e-01	0	23	104	0	81	11425
2026-01-12 19:49:58.70	79.43	11.13	-58.9	-68.6	3.8	7.46e-01	0	23	104	0	81	11399
2026-01-12 19:49:59.69	79.71	11.13	-58.9	-68.6	3.8	7.45e-01	0	23	104	0	81	11331
2026-01-12 19:50:00.68	79.98	11.12	-59.0	-68.7	3.8	7.46e-01	0	23	104	0	81	11463
2026-01-12 19:50:01.69	80.25	11.11	-59.0	-68.7	3.8	7.47e-01	0	23	104	0	81	11418
2026-01-12 19:50:02.68	80.52	11.11	-58.9	-68.7	3.8	7.47e-01	0	23	104	0	81	11431
2026-01-12 19:50:03.68	80.80	11.10	-58.9	-68.6	3.8	7.44e-01	0	23	104	0	81	11399
2026-01-12 19:50:04.67	81.07	11.09	-59.0	-68.7	3.8	7.45e-01	0	23	104	0	81	11509
2026-01-12 19:50:05.67	81.34	11.08	-59.0	-68.6	3.8	7.47e-01	0	23	104	0	81	11417
2026-01-12 19:50:06.66	81.61	11.07	-58.9	-68.6	3.8	7.45e-01	0	23	104	0	81	11362
2026-01-12 19:50:07.66	81.88	11.06	-58.9	-68.6	3.8	7.46e-01	0	23	104	0	81	11366
2026-01-12 19:50:08.66	82.15	11.05	-59.0	-68.7	3.8	7.46e-01	0	23	104	0	81	11468
2026-01-12 19:50:09.66	82.42	11.04	-59.0	-68.7	3.8	7.46e-01	0	23	104	0	81	11453
2026-01-12 19:50:10.65	82.69	11.03	-59.0	-68.6	3.8	7.45e-01	0	23	104	0	81	11394
2026-01-12 19:50:11.66	82.97	11.02	-58.9	-68.6	3.8	7.46e-01	0	23	104	0	81	11373
2026-01-12 19:50:12.66	83.24	11.01	-59.0	-68.7	3.8	7.46e-01	0	23	104	0	81	11493
2026-01-12 19:50:13.66	83.51	10.99	-59.0	-68.7	3.8	7.45e-01	0	23	104	0	81	11469
2026-01-12 19:50:14.65	83.78	10.98	-59.0	-68.7	3.8	7.45e-01	0	23	104	0	81	11434
2026-01-12 19:50:15.64	84.04	10.97	-58.9	-68.6	3.8	7.45e-01	0	23	104	0	81	11371
2026-01-12 19:50:16.64	84.31	10.95	-59.0	-68.7	3.8	7.44e-01	0	23	104	0	81	11463
2026-01-12 19:50:17.64	84.58	10.94	-59.0	-68.7	3.8	7.45e-01	0	23	104	0	81	11472
2026-01-12 19:50:18.65	84.86	10.92	-59.0	-68.7	3.8	7.45e-01	0	23	104	0	81	11442
2026-01-12 19:50:19.65	85.12	10.91	-58.9	-68.6	3.8	7.47e-01	0	23	104	0	81	11364
2026-01-12 19:50:20.66	85.40	10.89	-59.0	-68.7	3.8	7.45e-01	0	23	104	0	81	11480
2026-01-12 19:50:21.66	85.66	10.88	-59.0	-68.7	3.8	7.46e-01	0	23	104	0	81	11451
2026-01-12 19:50:22.65	85.93	10.86	-57.6	-68.7	3.8	7.44e-01	0	23	104	0	79	12912
2026-01-12 19:50:23.65	86.20	10.84	-58.5	-68.6	3.8	7.47e-01	0	23	104	0	80	12051
2026-01-12 19:50:24.65	86.46	10.82	-53.1	-56.6	5.3	7.20e-01	0	23	104	0	70	5344
2026-01-12 19:50:25.65	86.73	10.80	-49.9	-52.9	12.4	6.10e-01	0	23	0	8388608	64	4952
2026-01-12 19:50:26.65	87.00	10.79	-55.2	-59.3	7.6	6.47e-01	0	23	0	23068672	73	6192
2026-01-12 19:50:27.64	87.26	10.77	-51.2	-54.3	11.6	6.13e-01	0	23	0	37748736	67	4883
2026-01-12 19:50:28.64	87.53	10.75	-49.3	-52.2	12.8	6.10e-01	0	23	0	52428800	63	4846
2026-01-12 19:50:29.64	87.79	10.73	-49.3	-52.2	12.8	6.10e-01	0	23	0	69206016	63	4829
2026-01-12 19:50:30.64	88.06	10.71	-49.1	-51.9	12.8	6.09e-01	0	23	0	83886080	62	4977
2026-01-12 19:50:31.64	88.32	10.68	-49.1	-51.9	12.9	6.10e-01	0	23	0	98566144	62	4973
2026-01-12 19:50:32.63	88.58	10.66	-49.1	-51.9	12.8	6.10e-01	0	23	0	115343360	62	4948
2026-01-12 19:50:33.64	88.85	10.64	-49.1	-51.8	12.9	6.10e-01	0	23	0	130023424	62	4919
2026-01-12 19:50:34.64	89.11	10.62	-49.2	-51.9	12.9	6.09e-01	0	23	0	144703488	62	4948
2026-01-12 19:50:35.63	89.37	10.60	-49.1	-51.9	12.9	6.10e-01	0	23	0	161480704	62	4935
2026-01-12 19:50:36.63	89.63	10.57	-49.3	-52.1	12.7	6.10e-01	0	23	0	176160768	62	5066
2026-01-12 19:50:37.63	89.89	10.55	-49.2	-52.1	12.7	6.09e-01	0	23	0	190840832	62	5076
2026-01-12 19:50:38.63	90.15	10.53	-49.3	-52.2	12.7	6.10e-01	0	23	0	207618048	62	5132
2026-01-12 19:50:39.62	90.41	10.50	-49.3	-52.2	12.6	6.10e-01	0	23	0	222298112	62	5148
2026-01-12 19:50:40.62	90.67	10.48	-49.2	-52.2	12.7	6.10e-01	0	23	0	236978176	62	5142
2026-01-12 19:50:41.61	90.93	10.45	-49.3	-52.2	12.7	6.10e-01	0	23	0	253755392	62	5116
2026-01-12 19:50:42.61	91.19	10.43	-49.4	-52.3	12.5	6.09e-01	0	23	0	268435456	62	5164
2026-01-12 19:50:43.61	91.45	10.40	-49.3	-52.1	12.7	6.10e-01	0	23	0	283115520	62	5066
2026-01-12 19:50:44.61	91.70	10.37	-49.4	-52.1	12.6	6.10e-01	0	23	0	299892736	62	5097
2026-01-12 19:50:45.60	91.96	10.35	-49.3	-52.2	12.7	5.83e-01	0	23	0	314572800	62	5118
2026-01-12 19:50:46.59	92.21	10.32	-49.3	-52.2	12.7	5.84e-01	0	23	0	329252864	62	5123
2026-01-12 19:50:47.59	92.47	10.29	-49.4	-52.3	12.6	5.84e-01	0	23	0	343932928	62	5201
2026-01-12 19:50:48.59	92.72	10.26	-49.4	-52.5	12.5	5.85e-01	0	23	0	360710144	62	5280
2026-01-12 19:50:49.58	92.98	10.23	-49.3	-52.4	12.6	5.84e-01	0	23	0	375390208	62	5232
2026-01-12 19:50:50.58	93.23	10.21	-49.3	-52.4	12.6	5.84e-01	0	23	0	390070272	62	5228
2026-01-12 19:50:51.58	93.48	10.18	-49.3	-52.5	12.5	5.85e-01	0	23	0	406847488	62	5286
2026-01-12 19:50:52.58	93.74	10.15	-49.4	-52.6	12.5	5.85e-01	0	23	0	421527552	62	5346
2026-01-12 19:50:53.57	93.99	10.12	-49.4	-52.7	12.4	5.85e-01	0	23	0	436207616	62	5410
2026-01-12 19:50:54.56	94.24	10.09	-49.6	-52.8	12.3	5.85e-01	0	23	0	452984832	62	5497
2026-01-12 19:50:55.56	94.49	10.06	-49.7	-52.9	12.2	5.84e-01	0	23	0	467664896	62	5564
2026-01-12 19:50:56.55	94.73	10.02	-49.7	-52.9	12.2	5.85e-01	0	23	0	482344960	62	5554
2026-01-12 19:50:57.55	94.98	9.99	-49.6	-52.8	12.3	5.84e-01	0	23	0	497025024	62	5487
2026-01-12 19:50:58.55	95.23	9.96	-49.6	-52.8	12.2	5.85e-01	0	23	0	513802240	62	5522
2026-01-12 19:50:59.56	95.48	9.93	-49.6	-52.8	12.2	5.83e-01	0	23	0	528482304	62	5502
2026-01-12 19:51:00.56	95.73	9.90	-49.8	-52.9	12.2	5.85e-01	0	23	0	543162368	62	5559
2026-01-12 19:51:01.56	95.98	9.86	-49.8	-52.9	12.1	5.85e-01	0	23	0	559939584	62	5542
2026-01-12 19:51:02.56	96.23	9.83	-49.6	-52.7	12.3	5.84e-01	0	23	0	574619648	62	5416
2026-01-12 19:51:03.56	96.47	9.80	-49.6	-52.6	12.4	5.84e-01	0	23	0	589299712	62	5359
2026-01-12 19:51:04.56	96.72	9.76	-49.6	-52.6	12.3	5.84e-01	0	23	0	606076928	62	5367
2026-01-12 19:51:05.56	96.96	9.73	-49.6	-52.6	12.3	5.84e-01	0	23	0	620756992	62	5367
2026-01-12 19:51:06.56	97.21	9.69	-49.6	-52.6	12.3	5.85e-01	0	23	0	635437056	62	5384
2026-01-12 19:51:07.57	97.45	9.66	-49.7	-52.8	12.2	5.84e-01	0	23	0	652214272	62	5494
2026-01-12 19:51:08.57	97.69	9.62	-49.7	-52.8	12.2	5.85e-01	0	23	0	666894336	62	5502
2026-01-12 19:51:09.57	97.94	9.59	-49.7	-52.8	12.2	5.85e-01	0	23	0	681574400	62	5515
2026-01-12 19:51:10.56	98.17	9.55	-49.6	-52.7	12.3	5.85e-01	0	23	0	698351616	62	5449
2026-01-12 19:51:11.56	98.41	9.52	-49.7	-52.8	12.2	5.84e-01	0	23	0	713031680	62	5482
2026-01-12 19:51:12.56	98.65	9.48	-49.8	-52.9	12.1	5.85e-01	0	23	0	727711744	62	5565
2026-01-12 19:51:13.56	98.89	9.44	-49.7	-52.8	12.2	6.01e-01	0	23	0	744488960	62	5473
2026-01-12 19:51:14.56	99.13	9.40	-49.8	-52.8	12.1	5.99e-01	0	23	0	759169024	62	5514
2026-01-12 19:51:15.56	99.37	9.37	-49.7	-52.7	12.2	6.04e-01	0	23	0	773849088	62	5446
2026-01-12 19:51:16.56	99.61	9.33	-49.7	-52.7	12.2	6.03e-01	0	23	0	790626304	62	5447
2026-01-12 19:51:17.56	99.84	9.29	-49.7	-52.7	12.2	6.02e-01	0	23	0	805306368	62	5416
2026-01-12 19:51:18.55	100.07	9.25	-49.8	-52.7	12.2	6.00e-01	0	23	0	819986432	62	5433
2026-01-12 19:51:19.56	100.31	9.21	-49.6	-52.5	12.3	6.02e-01	0	23	0	836763648	62	5319
2026-01-12 19:51:20.55	100.54	9.18	-49.7	-52.6	12.3	6.03e-01	0	23	0	851443712	62	5341
2026-01-12 19:51:21.55	100.78	9.14	-49.6	-52.5	12.3	6.04e-01	0	23	0	866123776	62	5321
2026-01-12 19:51:22.55	101.01	9.10	-49.7	-52.6	12.3	6.02e-01	0	23	0	882900992	62	5356
2026-01-12 19:51:23.54	101.24	9.06	-49.8	-52.7	12.2	6.00e-01	0	23	0	897581056	62	5427
2026-01-12 19:51:24.54	101.47	9.02	-49.8	-52.7	12.2	6.04e-01	0	23	0	912261120	62	5403
2026-01-12 19:51:25.54	101.70	8.98	-49.8	-52.8	12.1	6.04e-01	0	23	0	926941184	62	5478
2026-01-12 19:51:26.54	101.93	8.94	-49.9	-52.8	12.1	6.06e-01	0	23	0	943718400	62	5484
2026-01-12 19:51:27.55	102.16	8.90	-50.0	-53.0	12.1	6.03e-01	0	23	0	958398464	63	5292
2026-01-12 19:51:28.56	102.39	8.86	-50.1	-53.1	12.0	6.07e-01	0	23	0	975175680	63	5357
2026-01-12 19:51:29.55	102.61	8.81	-50.2	-53.2	11.9	6.06e-01	0	23	0	989855744	63	5408
2026-01-12 19:51:30.55	102.84	8.77	-50.3	-53.3	11.9	6.06e-01	0	23	0	1004535808	63	5471
2026-01-12 19:51:31.55	103.06	8.73	-50.4	-53.4	11.7	6.05e-01	0	23	0	1019215872	63	5556
2026-01-12 19:51:32.55	103.29	8.69	-50.3	-53.3	11.9	6.03e-01	0	23	0	1035993088	64	5190
2026-01-12 19:51:33.54	103.51	8.65	-50.3	-53.4	11.9	6.05e-01	0	23	0	1050673152	64	5220
2026-01-12 19:51:34.53	103.73	8.61	-50.2	-53.2	12.0	6.04e-01	0	23	0	1065353216	64	5147
2026-01-12 19:51:35.53	103.95	8.56	-50.2	-53.2	12.0	6.02e-01	0	23	0	1080033280	64	5138
2026-01-12 19:51:36.53	104.17	8.52	-50.3	-53.3	11.9	6.03e-01	0	23	0	1096810496	64	5194
2026-01-12 19:51:37.53	104.39	8.48	-50.3	-53.3	11.9	6.03e-01	0	23	0	1111490560	64	5190
2026-01-12 19:51:38.53	104.61	8.43	-50.3	-53.4	11.9	6.04e-01	0	23	0	1126170624	64	5221
2026-01-12 19:51:39.54	104.84	8.39	-50.3	-53.4	11.9	6.02e-01	0	23	0	1142947840	64	5254
2026-01-12 19:51:40.54	105.05	8.35	-50.3	-53.4	11.8	6.05e-01	0	23	0	1157627904	64	5269
2026-01-12 19:51:41.53	105.27	8.30	-50.4	-53.5	11.8	6.02e-01	0	23	0	1172307968	64	5319
2026-01-12 19:51:42.53	105.49	8.26	-50.3	-53.4	11.8	6.08e-01	0	23	0	1189085184	64	5272
2026-01-12 19:51:43.52	105.70	8.22	-50.4	-53.5	11.8	6.02e-01	0	23	0	1203765248	64	5313
2026-01-12 19:51:44.52	105.92	8.17	-50.4	-53.5	11.8	5.99e-01	0	23	0	1218445312	64	5311
2026-01-12 19:51:45.52	106.13	8.13	-50.5	-53.6	11.6	6.03e-01	0	23	0	1235222528	64	5391
2026-01-12 19:51:46.51	106.34	8.08	-50.5	-53.5	11.8	6.01e-01	0	23	0	1249902592	64	5313
2026-01-12 19:51:47.51	106.55	8.04	-50.4	-53.5	11.8	6.01e-01	0	23	0	1264582656	64	5296
2026-01-12 19:51:48.50	106.76	7.99	-50.4	-53.5	11.8	6.03e-01	0	23	0	1281359872	64	5319
2026-01-12 19:51:49.50	106.97	7.95	-50.6	-53.7	11.6	6.05e-01	0	23	0	1296039936	64	5430
2026-01-12 19:51:50.49	107.18	7.90	-50.6	-53.7	11.6	6.04e-01	0	23	0	1310720000	64	5421
2026-01-12 19:51:51.49	107.39	7.86	-50.6	-53.7	11.6	6.04e-01	0	23	0	1325400064	64	5431
2026-01-12 19:51:52.49	107.60	7.81	-50.6	-53.7	11.6	6.03e-01	0	23	0	1342177280	64	5431
2026-01-12 19:51:53.49	107.81	7.76	-50.7	-53.7	11.6	6.06e-01	0	23	0	1356857344	64	5414
2026-01-12 19:51:54.49	108.02	7.72	-50.6	-53.6	11.7	6.06e-01	0	23	0	1371537408	64	5354
2026-01-12 19:51:55.48	108.22	7.67	-50.6	-53.5	11.7	6.07e-01	0	23	0	1388314624	64	5340
2026-01-12 19:51:56.48	108.43	7.63	-50.6	-53.5	11.7	6.03e-01	0	23	0	1402994688	64	5322
2026-01-12 19:51:57.47	108.63	7.58	-50.7	-53.7	11.6	6.02e-01	0	23	0	1417674752	64	5417
2026-01-12 19:51:58.47	108.83	7.53	-50.7	-53.6	11.6	6.00e-01	0	23	0	1434451968	64	5396
2026-01-12 19:51:59.47	109.04	7.49	-50.9	-53.8	11.5	6.04e-01	0	23	0	1449132032	64	5492
2026-01-12 19:52:00.47	109.24	7.44	-50.8	-53.6	11.6	5.97e-01	0	23	0	1463812096	64	5396
2026-01-12 19:52:01.47	109.44	7.39	-50.9	-53.8	11.6	5.99e-01	0	23	0	1478492160	65	5183
2026-01-12 19:52:02.47	109.64	7.34	-51.0	-53.9	11.5	6.02e-01	0	23	0	1495269376	65	5275
2026-01-12 19:52:03.47	109.84	7.30	-50.9	-53.8	11.6	6.03e-01	0	23	0	1509949440	65	5178
2026-01-12 19:52:04.46	110.04	7.25	-50.9	-53.9	11.5	6.01e-01	0	23	0	1524629504	65	5230
2026-01-12 19:52:05.46	110.24	7.20	-50.8	-53.8	11.6	6.04e-01	0	23	0	1541406720	65	5161
2026-01-12 19:52:06.46	110.43	7.15	-50.9	-53.9	11.4	6.07e-01	0	23	0	1556086784	65	5268
2026-01-12 19:52:07.46	110.63	7.11	-51.1	-54.2	11.3	6.06e-01	0	23	0	1570766848	65	5413
2026-01-12 19:52:08.46	110.83	7.06	-51.0	-54.2	11.3	6.04e-01	0	23	0	1587544064	65	5404
2026-01-12 19:52:09.45	111.02	7.01	-51.1	-54.3	11.2	6.04e-01	0	23	0	1602224128	65	5476
2026-01-12 19:52:10.45	111.21	6.96	-51.0	-54.1	11.4	6.06e-01	0	23	0	1616904192	65	5355
2026-01-12 19:52:11.45	111.41	6.91	-51.2	-54.3	11.1	6.09e-01	0	23	0	1633681408	65	5495
2026-01-12 19:52:12.46	111.60	6.86	-51.0	-54.1	11.3	6.11e-01	0	23	0	1648361472	65	5386
2026-01-12 19:52:13.45	111.79	6.82	-51.1	-54.2	11.2	6.08e-01	0	23	0	1663041536	65	5424
2026-01-12 19:52:14.45	111.98	6.77	-51.2	-54.3	11.1	6.10e-01	0	23	0	1679818752	65	5514
2026-01-12 19:52:15.44	112.17	6.72	-51.3	-54.3	11.1	6.09e-01	0	23	0	1694498816	65	5505
2026-01-12 19:52:16.44	112.36	6.67	-51.3	-54.4	11.0	6.09e-01	0	23	0	1709178880	65	5555
2026-01-12 19:52:17.44	112.55	6.62	-51.3	-54.3	11.0	6.10e-01	0	23	0	1723858944	65	5524
2026-01-12 19:52:18.44	112.74	6.57	-51.2	-54.3	11.1	6.10e-01	0	23	0	1740636160	65	5521
2026-01-12 19:52:19.43	112.93	6.52	-51.3	-54.5	10.9	6.11e-01	0	23	0	1755316224	65	5624
2026-01-12 19:52:20.43	113.11	6.47	-51.3	-54.5	10.9	6.11e-01	0	23	0	1769996288	65	5593
2026-01-12 19:52:21.43	113.30	6.42	-51.2	-54.4	11.0	6.07e-01	0	23	0	1786773504	65	5561
2026-01-12 19:52:22.43	113.48	6.37	-51.2	-54.4	11.0	6.11e-01	0	23	0	1801453568	65	5546
2026-01-12 19:52:23.43	113.67	6.32	-51.2	-54.4	11.0	6.11e-01	0	23	0	1816133632	65	5530
2026-01-12 19:52:24.43	113.85	6.27	-51.2	-54.3	11.1	6.11e-01	0	23	0	1832910848	65	5465
2026-01-12 19:52:25.43	114.03	6.22	-51.3	-54.5	10.9	6.13e-01	0	23	0	1847590912	65	5602
2026-01-12 19:52:26.43	114.22	6.17	-51.3	-54.4	10.9	6.09e-01	0	23	0	1862270976	65	5579
2026-01-12 19:52:27.43	114.40	6.12	-51.1	-54.2	11.1	6.11e-01	0	23	0	1879048192	65	5422
2026-01-12 19:52:28.42	114.58	6.08	-51.1	-54.1	11.1	6.10e-01	0	23	0	1893728256	65	5373
2026-01-12 19:52:29.40	114.75	6.03	-50.9	-53.9	11.3	5.99e-01	0	23	0	1908408320	65	5259
2026-01-12 19:52:30.40	114.93	5.98	-51.2	-54.1	11.1	6.03e-01	0	23	0	1925185536	65	5394
2026-01-12 19:52:31.40	115.11	5.93	-51.5	-54.6	10.8	6.12e-01	0	23	0	1939865600	66	5345
2026-01-12 19:52:32.39	115.29	5.88	-51.3	-54.2	11.1	6.09e-01	0	23	0	1954545664	66	5150
2026-01-12 19:52:33.40	115.46	5.83	-51.2	-54.0	11.3	6.09e-01	0	23	0	1969225728	66	5008
2026-01-12 19:52:34.39	115.64	5.78	-51.2	-54.0	11.2	5.99e-01	0	23	0	1983905792	66	5030
2026-01-12 19:52:35.40	115.82	5.72	-51.3	-54.2	11.1	6.06e-01	0	23	0	2000683008	66	5125
2026-01-12 19:52:36.39	115.99	5.67	-51.2	-54.1	11.2	6.03e-01	0	23	0	2015363072	66	5049
2026-01-12 19:52:37.39	116.16	5.62	-51.4	-54.2	11.0	6.02e-01	0	23	0	2032140288	66	5133
2026-01-12 19:52:38.40	116.34	5.57	-51.3	-54.2	11.1	6.06e-01	0	23	0	2046820352	66	5109
2026-01-12 19:52:39.40	116.51	5.52	-51.3	-54.2	11.0	6.06e-01	0	23	0	2061500416	66	5126
2026-01-12 19:52:40.40	116.68	5.47	-51.4	-54.4	10.9	6.03e-01	0	23	0	2078277632	66	5237
2026-01-12 19:52:41.39	116.85	5.42	-51.6	-54.7	10.6	6.07e-01	0	23	0	2092957696	66	5413
2026-01-12 19:52:42.39	117.02	5.37	-51.6	-54.7	10.6	6.10e-01	0	23	0	2107637760	66	5428
2026-01-12 19:52:43.38	117.19	5.32	-51.6	-54.8	10.5	6.00e-01	0	23	0	2122317824	66	5509
2026-01-12 19:52:44.37	117.36	5.27	-51.7	-54.9	10.3	6.08e-01	0	23	0	2139095040	66	5572
2026-01-12 19:52:45.37	117.52	5.22	-51.6	-54.7	10.5	6.10e-01	0	23	0	2153775104	66	5438
2026-01-12 19:52:46.37	117.69	5.17	-51.4	-54.5	10.7	6.07e-01	0	23	0	2168455168	66	5336
2026-01-12 19:52:47.36	117.86	5.12	-51.8	-55.0	10.2	6.15e-01	0	23	0	2185232384	66	5620
2026-01-12 19:52:48.35	118.02	5.07	-51.7	-55.0	10.3	6.05e-01	0	23	0	2199912448	66	5607
2026-01-12 19:52:49.35	118.18	5.01	-51.6	-54.9	10.4	6.08e-01	0	23	0	2214592512	66	5549
2026-01-12 19:52:50.35	118.35	4.96	-58.5	-68.0	3.8	7.46e-01	0	23	104	2225078272	80	11255
2026-01-12 19:52:51.34	118.51	4.91	-58.8	-68.4	3.8	7.45e-01	0	23	104	2225078272	80	11758
2026-01-12 19:52:52.34	118.67	4.86	-59.1	-68.7	3.8	7.46e-01	0	23	104	2225078272	81	11547
2026-01-12 19:52:53.34	118.84	4.81	-59.3	-69.0	3.8	7.44e-01	0	23	104	2225078272	81	11872
2026-01-12 19:52:54.34	119.00	4.76	-59.4	-69.1	3.8	7.46e-01	0	23	104	2225078272	81	12010
2026-01-12 19:52:55.34	119.16	4.71	-59.6	-69.3	3.8	7.44e-01	0	23	104	2225078272	82	11583
2026-01-12 19:52:56.34	119.32	4.66	-59.7	-69.4	3.8	7.47e-01	0	23	104	2225078272	82	11730
2026-01-12 19:52:57.33	119.48	4.61	-59.8	-69.5	3.8	7.45e-01	0	23	104	2225078272	82	11892
2026-01-12 19:52:58.33	119.64	4.55	-59.9	-69.6	3.8	7.44e-01	0	23	104	2225078272	82	11992
2026-01-12 19:52:59.33	119.79	4.50	-60.0	-69.7	3.8	7.45e-01	0	23	104	2225078272	83	11442
2026-01-12 19:53:00.34	119.95	4.45	-60.0	-69.7	3.8	7.45e-01	0	23	104	2225078272	83	11526
2026-01-12 19:53:01.33	120.11	4.40	-60.0	-69.8	3.8	7.43e-01	0	23	104	2225078272	83	11575
2026-01-12 19:53:02.33	120.26	4.35	-60.1	-69.8	3.8	7.46e-01	0	23	104	2225078272	83	11636
2026-01-12 19:53:03.33	120.42	4.30	-60.1	-69.8	3.8	7.45e-01	0	23	104	2225078272	83	11659
2026-01-12 19:53:04.33	120.57	4.24	-60.2	-69.8	3.8	7.47e-01	0	23	104	2225078272	83	11676
2026-01-12 19:53:05.34	120.73	4.19	-60.1	-69.8	3.8	7.46e-01	0	23	104	2225078272	83	11676
2026-01-12 19:53:06.33	120.88	4.14	-60.2	-69.9	3.8	7.48e-01	0	23	104	2225078272	83	11741
2026-01-12 19:53:07.33	121.03	4.09	-60.2	-69.9	3.8	7.46e-01	0	23	104	2225078272	83	11752
2026-01-12 19:53:08.33	121.19	4.04	-60.2	-69.9	3.8	7.46e-01	0	23	104	2225078272	83	11809
2026-01-12 19:53:09.32	121.34	3.99	-60.2	-69.9	3.8	7.45e-01	0	23	104	2225078272	83	11784
2026-01-12 19:53:10.32	121.49	3.94	-60.2	-70.0	3.8	7.45e-01	0	23	104	2225078272	83	11840
2026-01-12 19:53:11.31	121.64	3.89	-60.3	-70.0	3.8	7.45e-01	0	23	104	2225078272	83	11834
2026-01-12 19:53:12.30	121.78	3.83	-60.3	-70.0	3.8	7.47e-01	0	23	104	2225078272	83	11894
2026-01-12 19:53:13.30	121.93	3.78	-60.3	-70.0	3.8	7.46e-01	0	23	104	2225078272	83	11896
2026-01-12 19:53:14.30	122.08	3.73	-60.3	-70.0	3.8	7.45e-01	0	23	104	2225078272	83	11951
2026-01-12 19:53:15.30	122.23	3.68	-60.3	-70.0	3.8	7.45e-01	0	23	104	2225078272	83	11929
2026-01-12 19:53:16.30	122.37	3.63	-60.4	-70.1	3.8	7.47e-01	0	23	104	2225078272	83	11980
2026-01-12 19:53:17.30	122.52	3.58	-60.4	-70.1	3.8	7.45e-01	0	23	104	2225078272	83	12077
2026-01-12 19:53:18.30	122.67	3.52	-60.4	-70.1	3.8	7.46e-01	0	23	104	2225078272	83	11995
2026-01-12 19:53:19.30	122.81	3.47	-60.3	-70.1	3.8	7.48e-01	0	23	104	2225078272	83	11986
2026-01-12 19:53:20.30	122.96	3.42	-60.3	-70.0	3.8	7.45e-01	0	23	104	2225078272	83	11952
2026-01-12 19:53:21.30	123.10	3.37	-60.3	-70.1	3.8	7.46e-01	0	23	104	2225078272	83	11990
2026-01-12 19:53:22.31	123.24	3.32	-60.3	-70.1	3.8	7.45e-01	0	23	104	2225078272	83	11966
2026-01-12 19:53:23.31	123.39	3.27	-60.3	-70.0	3.8	7.44e-01	0	23	104	2225078272	83	11924
2026-01-12 19:53:24.30	123.53	3.22	-60.3	-70.0	3.8	7.45e-01	0	23	104	2225078272	83	11935
2026-01-12 19:53:25.30	123.67	3.16	-60.3	-70.1	3.8	7.46e-01	0	23	104	2225078272	83	11975
2026-01-12 19:53:26.29	123.81	3.11	-60.3	-70.0	3.8	7.47e-01	0	23	104	2225078272	83	11953
2026-01-12 19:53:27.29	123.95	3.06	-60.3	-70.0	3.8	7.45e-01	0	23	104	2225078272	83	11891
2026-01-12 19:53:28.29	124.09	3.01	-60.3	-70.0	3.8	7.45e-01	0	23	104	2225078272	83	11946
2026-01-12 19:53:29.30	124.23	2.96	-60.3	-70.0	3.8	7.45e-01	0	23	104	2225078272	83	11920
2026-01-12 19:53:30.30	124.37	2.91	-60.3	-70.0	3.8	7.45e-01	0	23	104	2225078272	83	11912
2026-01-12 19:53:31.31	124.50	2.85	-60.3	-70.0	3.8	7.46e-01	0	23	104	2225078272	83	11895
2026-01-12 19:53:32.31	124.64	2.80	-60.3	-70.0	3.8	7.45e-01	0	23	104	2225078272	83	11889
2026-01-12 19:53:33.32	124.78	2.75	-60.3	-70.0	3.8	7.46e-01	0	23	104	2225078272	83	11938
2026-01-12 19:53:34.32	124.91	2.70	-60.3	-70.0	3.8	7.46e-01	0	23	104	2225078272	83	11909
2026-01-12 19:53:35.32	125.05	2.65	-60.3	-70.0	3.8	7.45e-01	0	23	104	2225078272	83	11910
2026-01-12 19:53:36.32	125.18	2.60	-60.3	-70.0	3.8	7.46e-01	0	23	104	2225078272	83	11870
2026-01-12 19:53:37.32	125.32	2.55	-60.3	-70.0	3.8	7.46e-01	0	23	104	2225078272	83	11891
2026-01-12 19:53:38.31	125.45	2.50	-60.3	-70.0	3.8	7.47e-01	0	23	104	2225078272	83	11853
2026-01-12 19:53:39.31	125.58	2.44	-60.3	-70.0	3.8	7.46e-01	0	23	104	2225078272	83	11878
2026-01-12 19:53:40.30	125.71	2.39	-60.3	-70.0	3.8	7.46e-01	0	23	104	2225078272	83	11870
2026-01-12 19:53:41.30	125.85	2.34	-60.3	-70.0	3.8	7.44e-01	0	23	104	2225078272	83	11862
2026-01-12 19:53:42.31	125.98	2.29	-60.3	-70.0	3.8	7.45e-01	0	23	104	2225078272	83	11892
2026-01-12 19:53:43.30	126.11	2.24	-60.2	-70.0	3.8	7.45e-01	0	23	104	2225078272	83	11838
2026-01-12 19:53:44.30	126.24	2.19	-60.2	-70.0	3.8	7.46e-01	0	23	104	2225078272	83	11821
2026-01-12 19:53:45.30	126.37	2.14	-60.2	-69.9	3.8	7.46e-01	0	23	104	2225078272	83	11805
2026-01-12 19:53:46.29	126.50	2.09	-60.2	-70.0	3.8	7.46e-01	0	23	104	2225078272	83	11842
2026-01-12 19:53:47.30	126.63	2.03	-60.2	-70.0	3.8	7.46e-01	0	23	104	2225078272	83	11834
2026-01-12 19:53:48.30	126.75	1.98	-60.3	-70.0	3.8	7.44e-01	0	23	104	2225078272	83	11857
2026-01-12 19:53:49.29	126.88	1.93	-60.2	-70.0	3.8	7.45e-01	0	23	104	2225078272	83	11848
2026-01-12 19:53:50.29	127.01	1.88	-60.2	-69.9	3.8	7.44e-01	0	23	104	2225078272	83	11807

#Closed at: 2026-01-12 19:53:50
#Recorded file [2225 MB]: D:/lorett/data/31004_260112_224546.dat