passes_logs/2026/01/12/R3.2S_Murmansk/R3.2S_Murmansk__20260112_090518_NOAA_20_JPSS-1_rec.log

#Pass ID: 20260112_090518_NOAA 20 (JPSS-1)
#Satellite: NOAA 20 (JPSS-1)
#Configuration: NOAA 20
#almurnet v.1.7.20251203
#Start time: 2026-01-12 09:05:18

#Version: 2.2.20231116
#Station: R3.2S_Murmansk
#Location: 33.079688 lon 68.888172 lat
#TLE: 1 43013U 17073A   26011.59429536  .00000082  00000+0  59704-4 0  9990
#TLE: 2 43013  98.7632 312.5697 0001637  44.2118 315.9188 14.19535307422256

#Time	Az	El	Level	Level2	SNR	BER	BlckErr	Temp	State	Recorded	gain1	gain2
2026-01-12 09:05:18.36	141.32	1.98	-57.0	-73.0	3.8	1.49e+00	0	21	0	0	80	22304
2026-01-12 09:05:19.34	141.31	2.05	-57.0	-72.9	3.8	1.49e+00	0	21	104	0	79	23578
2026-01-12 09:05:20.34	141.30	2.11	-57.0	-72.9	3.8	1.49e+00	0	21	104	0	79	23540
2026-01-12 09:05:21.33	141.29	2.18	-57.0	-72.9	3.8	1.49e+00	0	21	104	0	79	23545
2026-01-12 09:05:22.32	141.29	2.24	-57.0	-72.9	3.8	1.49e+00	0	21	104	0	79	23448
2026-01-12 09:05:23.32	141.28	2.30	-57.0	-73.0	3.8	1.49e+00	0	21	104	0	79	23600
2026-01-12 09:05:24.32	141.27	2.37	-57.0	-72.9	3.8	1.49e+00	0	21	104	0	79	23564
2026-01-12 09:05:25.30	141.26	2.43	-57.0	-73.0	3.8	1.49e+00	0	21	104	0	79	23615
2026-01-12 09:05:26.29	141.25	2.50	-57.0	-73.0	3.8	1.49e+00	0	21	104	0	79	23589
2026-01-12 09:05:27.29	141.24	2.56	-57.0	-72.9	3.8	1.49e+00	0	21	104	0	79	23557
2026-01-12 09:05:28.28	141.23	2.63	-57.0	-72.9	3.8	1.49e+00	0	21	104	0	79	23571
2026-01-12 09:05:29.27	141.22	2.69	-57.0	-72.9	3.8	1.49e+00	0	21	104	0	79	23496
2026-01-12 09:05:30.27	141.22	2.76	-57.0	-72.9	3.8	1.49e+00	0	21	104	0	79	23467
2026-01-12 09:05:31.27	141.21	2.82	-57.0	-72.9	3.8	1.49e+00	0	21	104	0	79	23388
2026-01-12 09:05:32.26	141.20	2.89	-57.0	-72.9	3.8	1.49e+00	0	21	104	0	79	23366
2026-01-12 09:05:33.25	141.19	2.95	-57.0	-72.9	3.8	1.49e+00	0	21	104	0	79	23396
2026-01-12 09:05:34.24	141.18	3.02	-57.0	-72.8	3.8	1.49e+00	0	21	104	0	79	23307
2026-01-12 09:05:35.23	141.17	3.09	-57.0	-72.8	3.8	1.49e+00	0	21	104	0	79	23235
2026-01-12 09:05:36.23	141.16	3.15	-57.0	-72.8	3.8	1.49e+00	0	21	104	0	79	23253
2026-01-12 09:05:37.21	141.15	3.22	-57.0	-72.8	3.8	1.49e+00	0	21	104	0	79	23085
2026-01-12 09:05:38.21	141.14	3.29	-57.0	-72.6	3.8	1.49e+00	0	21	104	0	79	22729
2026-01-12 09:05:39.21	141.13	3.35	-57.0	-72.4	3.8	1.49e+00	0	21	104	0	79	22114
2026-01-12 09:05:40.21	141.12	3.42	-57.0	-72.2	3.8	1.49e+00	0	21	104	0	79	21525
2026-01-12 09:05:41.21	141.11	3.49	-56.9	-71.7	3.8	1.49e+00	0	21	104	0	79	20531
2026-01-12 09:05:42.20	141.10	3.55	-56.9	-71.0	3.8	1.49e+00	0	21	104	0	79	18928
2026-01-12 09:05:43.19	141.09	3.62	-56.9	-70.6	3.8	1.49e+00	0	21	104	0	79	18064
2026-01-12 09:05:44.19	141.08	3.69	-56.9	-69.9	4.1	1.45e+00	0	22	0	0	79	16519
2026-01-12 09:05:45.20	141.07	3.76	-56.8	-68.8	4.4	1.37e+00	88	22	0	0	79	14649
2026-01-12 09:05:46.20	141.06	3.83	-56.8	-68.4	4.5	1.19e+00	0	21	0	1048576	79	13934
2026-01-12 09:05:47.20	141.05	3.90	-56.7	-67.3	5.0	7.84e-01	0	21	0	3145728	79	12256
2026-01-12 09:05:48.19	141.04	3.96	-56.6	-66.1	5.7	5.81e-01	0	22	0	5242880	79	10703
2026-01-12 09:05:49.17	141.03	4.03	-56.4	-64.9	6.6	2.61e-01	0	22	0	7340032	79	9298
2026-01-12 09:05:50.17	141.02	4.10	-56.2	-63.7	7.6	1.28e-01	0	21	0	8388608	79	8145
2026-01-12 09:05:51.17	141.01	4.17	-56.0	-62.7	8.5	5.98e-02	0	22	0	10485760	78	7659
2026-01-12 09:05:52.17	141.00	4.24	-55.7	-61.9	9.2	1.10e-02	0	22	0	12582912	78	6961
2026-01-12 09:05:53.15	140.99	4.31	-55.5	-61.0	10.0	3.38e-03	0	22	0	14680064	77	6710
2026-01-12 09:05:54.15	140.98	4.38	-55.3	-60.4	10.6	1.32e-03	0	22	0	15728640	77	6220
2026-01-12 09:05:55.14	140.97	4.45	-55.1	-60.0	10.8	8.00e-04	0	22	0	17825792	76	6289
2026-01-12 09:05:56.14	140.96	4.52	-55.0	-59.7	11.0	3.46e-04	0	22	0	19922944	76	6116
2026-01-12 09:05:57.15	140.95	4.59	-54.9	-59.4	11.3	1.65e-04	0	22	0	22020096	76	5907
2026-01-12 09:05:58.14	140.94	4.66	-54.7	-59.1	11.6	9.15e-05	0	22	0	24117248	76	5702
2026-01-12 09:05:59.14	140.93	4.73	-54.4	-58.5	12.0	6.94e-05	0	22	0	25165824	75	5612
2026-01-12 09:06:00.14	140.92	4.80	-54.5	-58.8	11.7	3.05e-05	0	22	0	27262976	75	5790
2026-01-12 09:06:01.13	140.91	4.87	-54.6	-58.9	11.7	4.80e-05	0	22	0	29360128	75	5868
2026-01-12 09:06:02.12	140.90	4.94	-54.7	-59.1	11.4	8.77e-05	0	22	0	31457280	75	6010
2026-01-12 09:06:03.11	140.89	5.01	-54.8	-59.5	11.1	2.01e-04	0	22	0	33554432	75	6305
2026-01-12 09:06:04.11	140.87	5.08	-55.7	-61.2	9.9	1.79e-03	0	22	0	34603008	76	7230
2026-01-12 09:06:05.11	140.86	5.15	-56.7	-67.2	5.0	7.80e-02	0	22	0	36700160	78	12898
2026-01-12 09:06:06.11	140.85	5.22	-53.8	-57.1	13.0	3.01e-02	0	22	0	38797312	74	5082
2026-01-12 09:06:07.11	140.84	5.30	-54.0	-57.6	12.5	1.50e-06	0	22	0	40894464	73	5660
2026-01-12 09:06:08.10	140.83	5.37	-56.3	-66.5	5.2	4.28e-02	0	22	0	41943040	77	12569
2026-01-12 09:06:09.09	140.82	5.44	-53.3	-56.3	13.6	3.77e-03	0	22	0	44040192	73	4884
2026-01-12 09:06:10.08	140.81	5.51	-53.3	-56.3	13.6	0.00e+00	0	22	0	46137344	73	4893
2026-01-12 09:06:11.07	140.79	5.58	-53.3	-56.3	13.6	0.00e+00	0	22	0	48234496	73	4890
2026-01-12 09:06:12.07	140.78	5.66	-53.1	-56.0	13.6	0.00e+00	0	22	0	50331648	72	5010
2026-01-12 09:06:13.06	140.77	5.73	-53.1	-56.0	13.6	0.00e+00	0	22	0	51380224	72	5003
2026-01-12 09:06:14.06	140.76	5.80	-53.1	-56.0	13.6	0.00e+00	0	22	0	53477376	72	5022
2026-01-12 09:06:15.06	140.75	5.88	-53.2	-56.1	13.6	0.00e+00	0	22	0	55574528	72	5047
2026-01-12 09:06:16.05	140.74	5.95	-53.1	-55.9	13.7	0.00e+00	0	22	0	57671680	72	4947
2026-01-12 09:06:17.04	140.72	6.02	-52.9	-55.6	14.0	0.00e+00	0	22	0	58720256	72	4780
2026-01-12 09:06:18.03	140.71	6.10	-53.0	-55.8	13.8	0.00e+00	0	22	0	60817408	72	4888
2026-01-12 09:06:19.02	140.70	6.17	-52.9	-55.6	13.9	0.00e+00	0	22	0	62914560	72	4793
2026-01-12 09:06:20.00	140.69	6.24	-52.9	-55.5	14.0	0.00e+00	0	22	0	65011712	72	4758
2026-01-12 09:06:20.99	140.67	6.32	-52.8	-55.5	14.1	0.00e+00	0	22	0	66060288	72	4718
2026-01-12 09:06:21.97	140.66	6.39	-52.8	-55.5	14.1	0.00e+00	0	22	0	68157440	72	4709
2026-01-12 09:06:22.96	140.65	6.47	-52.9	-55.6	14.0	0.00e+00	0	22	0	70254592	72	4792
2026-01-12 09:06:23.95	140.64	6.54	-52.9	-55.6	14.0	0.00e+00	0	22	0	72351744	72	4793
2026-01-12 09:06:24.93	140.62	6.62	-52.9	-55.5	14.0	0.00e+00	0	22	0	73400320	72	4737
2026-01-12 09:06:25.91	140.61	6.69	-52.9	-55.5	14.1	0.00e+00	0	22	0	75497472	72	4728
2026-01-12 09:06:26.91	140.60	6.77	-52.9	-55.6	14.0	0.00e+00	0	22	0	77594624	72	4795
2026-01-12 09:06:27.89	140.59	6.84	-52.9	-55.5	14.0	0.00e+00	0	22	0	79691776	72	4742
2026-01-12 09:06:28.86	140.57	6.92	-52.9	-55.6	14.0	0.00e+00	0	22	0	81788928	72	4780
2026-01-12 09:06:29.86	140.56	6.99	-52.9	-55.6	14.0	0.00e+00	0	22	0	82837504	72	4778
2026-01-12 09:06:30.85	140.55	7.07	-52.8	-55.4	14.1	0.00e+00	0	22	0	84934656	72	4677
2026-01-12 09:06:31.83	140.53	7.15	-52.8	-55.4	14.2	0.00e+00	0	22	0	87031808	72	4664
2026-01-12 09:06:32.82	140.52	7.22	-52.9	-55.5	14.1	0.00e+00	0	22	0	89128960	72	4737
2026-01-12 09:06:33.82	140.51	7.30	-52.9	-55.6	14.1	0.00e+00	0	22	0	90177536	72	4769
2026-01-12 09:06:34.81	140.49	7.38	-52.8	-55.4	14.2	0.00e+00	0	22	0	92274688	72	4653
2026-01-12 09:06:35.81	140.48	7.46	-52.8	-55.4	14.2	0.00e+00	0	22	0	94371840	72	4667
2026-01-12 09:06:36.80	140.47	7.53	-52.8	-55.4	14.2	0.00e+00	0	22	0	96468992	72	4662
2026-01-12 09:06:37.79	140.45	7.61	-52.9	-55.5	14.1	0.00e+00	0	22	0	97517568	72	4715
2026-01-12 09:06:38.78	140.44	7.69	-52.7	-55.2	14.3	0.00e+00	0	22	0	99614720	72	4593
2026-01-12 09:06:39.77	140.43	7.77	-52.7	-55.2	14.4	0.00e+00	0	22	0	101711872	72	4550
2026-01-12 09:06:40.76	140.41	7.85	-52.8	-55.4	14.2	0.00e+00	0	22	0	103809024	72	4657
2026-01-12 09:06:41.75	140.40	7.93	-52.7	-55.2	14.3	0.00e+00	0	22	0	105906176	72	4565
2026-01-12 09:06:42.75	140.38	8.01	-52.6	-55.0	14.3	0.00e+00	0	22	0	106954752	71	4741
2026-01-12 09:06:43.74	140.37	8.09	-52.7	-55.1	14.2	0.00e+00	0	22	0	109051904	71	4803
2026-01-12 09:06:44.73	140.35	8.17	-52.6	-55.0	14.3	0.00e+00	0	22	0	111149056	71	4731
2026-01-12 09:06:45.72	140.34	8.25	-52.5	-54.8	14.4	0.00e+00	0	22	0	113246208	71	4650
2026-01-12 09:06:46.71	140.33	8.33	-52.5	-54.9	14.4	0.00e+00	0	22	0	114294784	71	4678
2026-01-12 09:06:47.69	140.31	8.41	-52.6	-55.0	14.4	0.00e+00	0	22	0	116391936	71	4740
2026-01-12 09:06:48.68	140.30	8.49	-52.5	-54.8	14.5	0.00e+00	0	22	0	118489088	71	4628
2026-01-12 09:06:49.67	140.28	8.57	-52.5	-54.8	14.5	0.00e+00	0	22	0	120586240	71	4651
2026-01-12 09:06:50.65	140.27	8.65	-52.6	-54.9	14.4	0.00e+00	0	22	0	122683392	71	4695
2026-01-12 09:06:51.64	140.25	8.73	-52.5	-54.8	14.5	0.00e+00	0	22	0	123731968	71	4616
2026-01-12 09:06:52.64	140.24	8.81	-52.5	-54.8	14.4	0.00e+00	0	22	0	125829120	71	4651
2026-01-12 09:06:53.64	140.22	8.90	-52.5	-54.8	14.5	0.00e+00	0	22	0	127926272	71	4609
2026-01-12 09:06:54.65	140.20	8.98	-52.3	-54.6	14.7	0.00e+00	0	22	0	130023424	71	4497
2026-01-12 09:06:55.65	140.19	9.06	-52.3	-54.6	14.6	0.00e+00	0	22	0	131072000	71	4499
2026-01-12 09:06:56.65	140.17	9.15	-52.4	-54.7	14.5	0.00e+00	0	22	0	133169152	71	4576
2026-01-12 09:06:57.65	140.16	9.23	-52.3	-54.5	14.7	0.00e+00	0	22	0	135266304	71	4484
2026-01-12 09:06:58.66	140.14	9.32	-52.2	-54.4	14.8	0.00e+00	0	22	0	137363456	71	4414
2026-01-12 09:06:59.65	140.12	9.40	-52.3	-54.5	14.7	0.00e+00	0	22	0	139460608	71	4467
2026-01-12 09:07:00.65	140.11	9.49	-52.3	-54.5	14.7	0.00e+00	0	22	0	140509184	71	4468
2026-01-12 09:07:01.65	140.09	9.57	-52.2	-54.4	14.8	0.00e+00	0	22	0	142606336	71	4429
2026-01-12 09:07:02.65	140.08	9.66	-52.2	-54.5	14.7	0.00e+00	0	22	0	144703488	71	4450
2026-01-12 09:07:03.66	140.06	9.74	-52.1	-54.3	14.7	0.00e+00	0	22	0	146800640	70	4606
2026-01-12 09:07:04.66	140.04	9.83	-52.1	-54.3	14.7	0.00e+00	0	22	0	148897792	70	4630
2026-01-12 09:07:05.65	140.03	9.91	-52.1	-54.2	14.7	0.00e+00	0	22	0	149946368	70	4594
2026-01-12 09:07:06.65	140.01	10.00	-52.1	-54.2	14.7	0.00e+00	0	22	0	152043520	70	4598
2026-01-12 09:07:07.65	139.99	10.09	-52.1	-54.3	14.7	0.00e+00	0	22	0	154140672	70	4622
2026-01-12 09:07:08.66	139.97	10.18	-52.0	-54.1	14.8	0.00e+00	0	22	0	156237824	70	4499
2026-01-12 09:07:09.66	139.96	10.26	-52.0	-54.1	14.8	0.00e+00	0	22	0	158334976	70	4510
2026-01-12 09:07:10.66	139.94	10.35	-52.0	-54.2	14.8	0.00e+00	0	22	0	159383552	70	4555
2026-01-12 09:07:11.66	139.92	10.44	-52.0	-54.1	14.8	0.00e+00	0	22	0	161480704	70	4545
2026-01-12 09:07:12.66	139.90	10.53	-51.9	-53.9	14.9	0.00e+00	0	22	0	163577856	70	4439
2026-01-12 09:07:13.66	139.89	10.62	-51.8	-53.9	14.9	0.00e+00	0	22	0	165675008	70	4415
2026-01-12 09:07:14.66	139.87	10.71	-51.9	-54.0	14.9	0.00e+00	0	22	0	166723584	70	4446
2026-01-12 09:07:15.67	139.85	10.80	-51.9	-54.0	14.9	0.00e+00	0	22	0	168820736	70	4451
2026-01-12 09:07:16.68	139.83	10.89	-51.8	-53.8	15.0	0.00e+00	0	22	0	170917888	70	4378
2026-01-12 09:07:17.69	139.81	10.98	-51.8	-53.8	15.0	0.00e+00	0	22	0	173015040	70	4354
2026-01-12 09:07:18.70	139.79	11.07	-51.7	-53.7	15.1	0.00e+00	0	22	0	175112192	70	4312
2026-01-12 09:07:19.71	139.78	11.16	-51.8	-53.8	15.0	0.00e+00	0	22	0	176160768	70	4359
2026-01-12 09:07:20.71	139.76	11.25	-51.7	-53.6	15.1	0.00e+00	0	22	0	178257920	70	4288
2026-01-12 09:07:21.72	139.74	11.34	-51.7	-53.7	14.9	0.00e+00	0	22	0	180355072	69	4557
2026-01-12 09:07:22.73	139.72	11.44	-51.6	-53.6	14.9	0.00e+00	0	22	0	182452224	69	4512
2026-01-12 09:07:23.73	139.70	11.53	-51.6	-53.6	14.9	0.00e+00	0	22	0	184549376	69	4513
2026-01-12 09:07:24.74	139.68	11.62	-51.7	-53.7	14.9	0.00e+00	0	22	0	185597952	69	4555
2026-01-12 09:07:25.75	139.66	11.72	-51.6	-53.5	14.9	0.00e+00	0	22	0	187695104	69	4489
2026-01-12 09:07:26.76	139.64	11.81	-51.6	-53.6	15.0	0.00e+00	0	22	0	189792256	69	4494
2026-01-12 09:07:27.77	139.62	11.91	-51.6	-53.5	15.0	0.00e+00	0	22	0	191889408	69	4485
2026-01-12 09:07:28.77	139.60	12.00	-51.5	-53.4	15.1	0.00e+00	0	22	0	193986560	69	4429
2026-01-12 09:07:29.78	139.58	12.09	-51.4	-53.4	15.1	7.00e-07	0	22	0	195035136	69	4393
2026-01-12 09:07:30.79	139.56	12.19	-51.4	-53.3	15.1	0.00e+00	0	22	0	197132288	69	4380
2026-01-12 09:07:31.79	139.54	12.28	-51.4	-53.3	15.1	0.00e+00	0	22	0	199229440	69	4374
2026-01-12 09:07:32.80	139.52	12.38	-51.4	-53.3	15.2	0.00e+00	0	22	0	201326592	69	4349
2026-01-12 09:07:33.81	139.50	12.48	-51.4	-53.3	15.2	0.00e+00	0	22	0	203423744	69	4354
2026-01-12 09:07:34.81	139.48	12.57	-51.4	-53.3	15.1	0.00e+00	0	22	0	204472320	69	4368
2026-01-12 09:07:35.82	139.46	12.67	-51.2	-53.1	15.3	0.00e+00	0	22	0	206569472	69	4263
2026-01-12 09:07:36.82	139.44	12.77	-51.3	-53.2	15.2	0.00e+00	0	22	0	208666624	69	4299
2026-01-12 09:07:37.83	139.41	12.87	-51.3	-53.2	15.2	0.00e+00	0	22	0	210763776	69	4310
2026-01-12 09:07:38.84	139.39	12.96	-51.3	-53.2	15.2	0.00e+00	0	22	0	212860928	69	4325
2026-01-12 09:07:39.85	139.37	13.06	-51.4	-53.3	15.2	0.00e+00	0	22	0	213909504	69	4345
2026-01-12 09:07:40.86	139.35	13.16	-51.2	-53.1	15.3	0.00e+00	0	22	0	216006656	69	4246
2026-01-12 09:07:41.87	139.33	13.26	-51.2	-53.0	15.3	0.00e+00	0	22	0	218103808	69	4220
2026-01-12 09:07:42.87	139.30	13.36	-51.2	-53.0	15.3	0.00e+00	0	22	0	220200960	69	4233
2026-01-12 09:07:43.88	139.28	13.46	-51.1	-52.9	15.2	0.00e+00	0	22	0	222298112	68	4433
2026-01-12 09:07:44.89	139.26	13.56	-51.1	-52.9	15.2	0.00e+00	0	22	0	223346688	68	4399
2026-01-12 09:07:45.89	139.24	13.66	-51.1	-52.9	15.2	0.00e+00	0	22	0	225443840	68	4396
2026-01-12 09:07:46.90	139.21	13.77	-51.2	-53.0	15.2	0.00e+00	0	22	0	227540992	68	4461
2026-01-12 09:07:47.91	139.19	13.87	-51.0	-52.7	15.3	0.00e+00	0	22	0	229638144	68	4336
2026-01-12 09:07:48.92	139.17	13.97	-51.0	-52.7	15.3	0.00e+00	0	23	0	231735296	68	4332
2026-01-12 09:07:49.93	139.14	14.07	-51.0	-52.8	15.3	0.00e+00	0	22	0	232783872	68	4385
2026-01-12 09:07:50.93	139.12	14.18	-51.0	-52.8	15.3	0.00e+00	0	22	0	234881024	68	4354
2026-01-12 09:07:51.93	139.10	14.28	-51.0	-52.8	15.3	0.00e+00	0	22	0	236978176	68	4369
2026-01-12 09:07:52.94	139.07	14.38	-51.0	-52.8	15.3	0.00e+00	0	22	0	239075328	68	4342
2026-01-12 09:07:53.95	139.05	14.49	-51.0	-52.8	15.3	0.00e+00	0	22	0	241172480	68	4381
2026-01-12 09:07:54.96	139.02	14.59	-51.0	-52.7	15.3	0.00e+00	0	22	0	243269632	68	4333
2026-01-12 09:07:55.96	139.00	14.70	-50.8	-52.6	15.4	0.00e+00	0	22	0	244318208	68	4255
2026-01-12 09:07:56.97	138.97	14.81	-50.9	-52.7	15.3	0.00e+00	0	22	0	246415360	68	4314
2026-01-12 09:07:57.97	138.95	14.91	-50.9	-52.7	15.3	0.00e+00	0	22	0	248512512	68	4308
2026-01-12 09:07:58.97	138.92	15.02	-50.9	-52.7	15.3	0.00e+00	0	22	0	250609664	68	4314
2026-01-12 09:07:59.97	138.90	15.12	-50.9	-52.6	15.4	0.00e+00	0	22	0	251658240	68	4274
2026-01-12 09:08:00.98	138.87	15.23	-50.8	-52.6	15.4	0.00e+00	0	22	0	253755392	68	4246
2026-01-12 09:08:01.99	138.85	15.34	-50.9	-52.6	15.4	0.00e+00	0	22	0	255852544	68	4272
2026-01-12 09:08:02.99	138.82	15.45	-50.9	-52.6	15.4	0.00e+00	0	23	0	257949696	68	4265
2026-01-12 09:08:04.00	138.79	15.56	-50.8	-52.5	15.5	0.00e+00	0	23	0	260046848	68	4194
2026-01-12 09:08:05.01	138.77	15.67	-50.7	-52.4	15.5	0.00e+00	0	23	0	261095424	68	4180
2026-01-12 09:08:06.02	138.74	15.78	-50.7	-52.4	15.5	0.00e+00	0	22	0	263192576	68	4193
2026-01-12 09:08:07.03	138.71	15.89	-50.7	-52.4	15.5	0.00e+00	0	23	0	265289728	68	4176
2026-01-12 09:08:08.04	138.68	16.00	-50.7	-52.5	15.5	0.00e+00	0	22	0	267386880	68	4198
2026-01-12 09:08:09.04	138.66	16.11	-50.8	-52.5	15.4	0.00e+00	0	22	0	269484032	68	4225
2026-01-12 09:08:10.05	138.63	16.22	-50.8	-52.5	15.5	0.00e+00	0	23	0	271581184	68	4199
2026-01-12 09:08:11.06	138.60	16.34	-50.4	-52.1	15.5	0.00e+00	0	23	0	272629760	67	4272
2026-01-12 09:08:12.07	138.57	16.45	-50.4	-52.1	15.5	0.00e+00	0	22	0	274726912	67	4245
2026-01-12 09:08:13.07	138.55	16.56	-50.4	-52.1	15.5	0.00e+00	0	22	0	276824064	67	4245
2026-01-12 09:08:14.08	138.52	16.68	-50.4	-52.0	15.5	0.00e+00	0	22	0	278921216	67	4229
2026-01-12 09:08:15.08	138.49	16.79	-50.3	-52.0	15.5	0.00e+00	0	22	0	279969792	67	4208
2026-01-12 09:08:16.09	138.46	16.91	-50.4	-52.1	15.5	0.00e+00	0	23	0	282066944	67	4267
2026-01-12 09:08:17.10	138.43	17.02	-50.4	-52.0	15.5	0.00e+00	0	22	0	284164096	67	4237
2026-01-12 09:08:18.11	138.40	17.14	-50.2	-51.9	15.6	0.00e+00	0	22	0	286261248	67	4154
2026-01-12 09:08:19.11	138.37	17.26	-50.3	-51.9	15.5	0.00e+00	0	23	0	288358400	67	4188
2026-01-12 09:08:20.12	138.34	17.37	-50.3	-51.9	15.6	0.00e+00	0	22	0	289406976	67	4179
2026-01-12 09:08:21.13	138.31	17.49	-50.3	-51.9	15.5	0.00e+00	0	22	0	291504128	67	4189
2026-01-12 09:08:22.14	138.28	17.61	-50.2	-51.9	15.6	0.00e+00	0	23	0	293601280	67	4151
2026-01-12 09:08:23.15	138.25	17.73	-50.0	-51.6	15.5	0.00e+00	0	23	0	295698432	66	4286
2026-01-12 09:08:24.15	138.22	17.85	-50.1	-51.7	15.5	0.00e+00	0	22	0	297795584	66	4327
2026-01-12 09:08:25.16	138.18	17.97	-50.1	-51.7	15.5	0.00e+00	0	22	0	299892736	66	4308
2026-01-12 09:08:26.17	138.15	18.09	-50.1	-51.7	15.5	0.00e+00	0	23	0	300941312	66	4311
2026-01-12 09:08:27.18	138.12	18.21	-50.1	-51.7	15.5	0.00e+00	0	22	0	303038464	66	4321
2026-01-12 09:08:28.18	138.09	18.34	-50.1	-51.7	15.5	0.00e+00	0	22	0	305135616	66	4295
2026-01-12 09:08:29.19	138.06	18.46	-50.0	-51.5	15.6	0.00e+00	0	22	0	307232768	66	4225
2026-01-12 09:08:30.20	138.02	18.58	-50.0	-51.5	15.6	0.00e+00	0	23	0	308281344	66	4228
2026-01-12 09:08:31.20	137.99	18.71	-49.9	-51.5	15.6	0.00e+00	0	22	0	310378496	66	4194
2026-01-12 09:08:32.21	137.96	18.83	-49.9	-51.4	15.6	0.00e+00	0	23	0	312475648	66	4189
2026-01-12 09:08:33.22	137.92	18.96	-49.9	-51.4	15.6	0.00e+00	0	23	0	314572800	66	4164
2026-01-12 09:08:34.23	137.89	19.08	-49.9	-51.4	15.6	0.00e+00	0	23	0	316669952	66	4166
2026-01-12 09:08:35.23	137.85	19.21	-49.9	-51.5	15.6	0.00e+00	0	22	0	317718528	66	4196
2026-01-12 09:08:36.24	137.82	19.33	-49.9	-51.4	15.7	0.00e+00	0	23	0	319815680	66	4159
2026-01-12 09:08:37.24	137.78	19.46	-49.9	-51.4	15.7	0.00e+00	0	23	0	321912832	66	4175
2026-01-12 09:08:38.24	137.75	19.59	-49.8	-51.3	15.7	0.00e+00	0	22	0	324009984	66	4130
2026-01-12 09:08:39.25	137.71	19.72	-49.8	-51.4	15.7	0.00e+00	0	23	0	326107136	66	4147
2026-01-12 09:08:40.25	137.68	19.85	-49.8	-51.3	15.7	0.00e+00	0	22	0	328204288	66	4113
2026-01-12 09:08:41.26	137.64	19.98	-49.5	-51.0	15.6	0.00e+00	0	22	0	329252864	65	4237
2026-01-12 09:08:42.27	137.60	20.11	-49.6	-51.1	15.6	0.00e+00	0	23	0	331350016	65	4260
2026-01-12 09:08:43.27	137.57	20.24	-49.6	-51.1	15.6	0.00e+00	0	23	0	333447168	65	4273
2026-01-12 09:08:44.28	137.53	20.37	-49.5	-51.0	15.7	0.00e+00	0	22	0	335544320	65	4226
2026-01-12 09:08:45.28	137.49	20.50	-49.5	-51.0	15.7	0.00e+00	0	22	0	336592896	65	4221
2026-01-12 09:08:46.29	137.45	20.64	-49.6	-51.1	15.6	0.00e+00	0	23	0	338690048	65	4247
2026-01-12 09:08:47.30	137.41	20.77	-49.5	-51.0	15.7	0.00e+00	0	22	0	340787200	65	4223
2026-01-12 09:08:48.31	137.38	20.91	-49.6	-51.1	15.6	0.00e+00	0	22	0	342884352	65	4269
2026-01-12 09:08:49.31	137.34	21.04	-49.6	-51.1	15.6	0.00e+00	0	23	0	344981504	65	4282
2026-01-12 09:08:50.32	137.30	21.18	-49.7	-51.2	15.6	0.00e+00	0	23	0	346030080	65	4294
2026-01-12 09:08:51.33	137.26	21.32	-49.6	-51.1	15.6	0.00e+00	0	22	0	348127232	65	4253
2026-01-12 09:08:52.34	137.22	21.46	-49.7	-51.2	15.6	0.00e+00	0	23	0	350224384	65	4328
2026-01-12 09:08:53.35	137.18	21.59	-49.8	-51.3	15.5	0.00e+00	0	22	0	352321536	65	4354
2026-01-12 09:08:54.35	137.13	21.73	-49.6	-51.1	15.6	0.00e+00	0	22	0	354418688	65	4285
2026-01-12 09:08:55.36	137.09	21.87	-49.6	-51.1	15.6	0.00e+00	0	23	0	356515840	65	4287
2026-01-12 09:08:56.37	137.05	22.02	-49.7	-51.2	15.5	0.00e+00	0	23	0	357564416	65	4330
2026-01-12 09:08:57.38	137.01	22.16	-49.7	-51.3	15.5	0.00e+00	0	22	0	359661568	65	4351
2026-01-12 09:08:58.39	136.97	22.30	-49.7	-51.3	15.5	0.00e+00	0	22	0	361758720	65	4347
2026-01-12 09:08:59.40	136.92	22.44	-49.7	-51.2	15.6	0.00e+00	0	23	0	363855872	65	4302
2026-01-12 09:09:00.41	136.88	22.59	-49.7	-51.2	15.6	0.00e+00	0	22	0	365953024	65	4307
2026-01-12 09:09:01.41	136.83	22.73	-49.8	-51.3	15.6	0.00e+00	0	22	0	367001600	65	4358
2026-01-12 09:09:02.42	136.79	22.88	-49.7	-51.2	15.6	0.00e+00	0	22	0	369098752	65	4333
2026-01-12 09:09:03.43	136.74	23.03	-49.7	-51.2	15.6	0.00e+00	0	22	0	371195904	65	4325
2026-01-12 09:09:04.43	136.70	23.17	-49.7	-51.2	15.6	0.00e+00	0	23	0	373293056	65	4304
2026-01-12 09:09:05.44	136.65	23.32	-49.7	-51.2	15.6	0.00e+00	0	23	0	374341632	65	4298
2026-01-12 09:09:06.45	136.61	23.47	-49.8	-51.3	15.6	0.00e+00	0	23	0	376438784	65	4365
2026-01-12 09:09:07.46	136.56	23.62	-49.7	-51.3	15.6	0.00e+00	0	23	0	378535936	65	4348
2026-01-12 09:09:08.47	136.51	23.77	-49.8	-51.4	15.5	0.00e+00	0	23	0	380633088	65	4396
2026-01-12 09:09:09.48	136.46	23.92	-49.8	-51.4	15.5	0.00e+00	0	22	0	382730240	65	4397
2026-01-12 09:09:10.48	136.42	24.07	-49.9	-51.4	15.5	0.00e+00	0	23	0	384827392	65	4412
2026-01-12 09:09:11.49	136.37	24.23	-50.0	-51.5	15.4	0.00e+00	0	22	0	385875968	65	4474
2026-01-12 09:09:12.49	136.32	24.38	-50.0	-51.5	15.4	0.00e+00	0	23	0	387973120	65	4484
2026-01-12 09:09:13.49	136.27	24.53	-50.1	-51.7	15.4	0.00e+00	0	22	0	390070272	65	4554
2026-01-12 09:09:14.50	136.22	24.69	-50.2	-51.8	15.3	0.00e+00	0	23	0	392167424	65	4622
2026-01-12 09:09:15.50	136.17	24.85	-50.2	-51.8	15.3	0.00e+00	0	22	0	394264576	65	4635
2026-01-12 09:09:16.51	136.12	25.00	-50.3	-51.9	15.3	0.00e+00	0	23	0	395313152	65	4672
2026-01-12 09:09:17.52	136.06	25.16	-50.4	-52.0	15.2	0.00e+00	0	22	0	397410304	65	4741
2026-01-12 09:09:18.53	136.01	25.32	-50.5	-52.1	15.3	0.00e+00	0	22	0	399507456	66	4545
2026-01-12 09:09:19.54	135.96	25.48	-50.6	-52.3	15.2	0.00e+00	0	22	0	401604608	66	4606
2026-01-12 09:09:20.55	135.90	25.65	-50.7	-52.4	15.2	0.00e+00	0	22	0	402653184	66	4657
2026-01-12 09:09:21.56	135.85	25.81	-50.9	-52.6	15.1	0.00e+00	0	22	0	404750336	66	4779
2026-01-12 09:09:22.56	135.79	25.97	-50.9	-52.6	15.2	0.00e+00	0	23	0	406847488	67	4507
2026-01-12 09:09:23.56	135.74	26.13	-50.9	-52.6	15.2	0.00e+00	0	23	0	408944640	67	4535
2026-01-12 09:09:24.58	135.68	26.30	-51.0	-52.7	15.2	0.00e+00	0	23	0	411041792	67	4594
2026-01-12 09:09:25.58	135.63	26.47	-51.1	-52.8	15.1	0.00e+00	0	22	0	413138944	67	4625
2026-01-12 09:09:26.59	135.57	26.63	-51.1	-52.8	15.1	0.00e+00	0	23	0	414187520	67	4640
2026-01-12 09:09:27.60	135.51	26.80	-51.2	-53.0	15.0	0.00e+00	0	22	0	416284672	67	4747
2026-01-12 09:09:28.61	135.45	26.97	-51.2	-52.9	15.0	0.00e+00	0	23	0	418381824	67	4697
2026-01-12 09:09:29.62	135.39	27.14	-51.3	-53.1	15.0	0.00e+00	0	22	0	420478976	67	4786
2026-01-12 09:09:30.63	135.33	27.32	-51.6	-53.5	14.9	0.00e+00	0	23	0	422576128	68	4732
2026-01-12 09:09:31.64	135.27	27.49	-51.8	-53.7	14.8	0.00e+00	0	23	0	423624704	68	4858
2026-01-12 09:09:32.65	135.21	27.66	-52.0	-53.9	14.9	0.00e+00	0	22	0	425721856	69	4678
2026-01-12 09:09:33.66	135.15	27.84	-52.0	-53.9	14.9	0.00e+00	0	23	0	427819008	69	4683
2026-01-12 09:09:34.67	135.08	28.01	-52.0	-54.0	14.9	0.00e+00	0	23	0	429916160	69	4723
2026-01-12 09:09:35.68	135.02	28.19	-52.1	-54.1	14.8	0.00e+00	0	23	0	432013312	69	4799
2026-01-12 09:09:36.68	134.96	28.37	-52.2	-54.2	14.7	0.00e+00	0	22	0	433061888	69	4851
2026-01-12 09:09:37.69	134.89	28.55	-52.4	-54.5	14.6	0.00e+00	0	23	0	435159040	69	4985
2026-01-12 09:09:38.70	134.82	28.73	-52.6	-54.8	14.6	0.00e+00	0	23	0	437256192	70	4876
2026-01-12 09:09:39.71	134.76	28.91	-52.8	-54.9	14.5	0.00e+00	0	23	0	439353344	70	4976
2026-01-12 09:09:40.72	134.69	29.09	-52.8	-55.0	14.4	0.00e+00	0	22	0	441450496	70	5007
2026-01-12 09:09:41.73	134.62	29.28	-52.9	-55.2	14.5	0.00e+00	0	22	0	442499072	71	4835
2026-01-12 09:09:42.73	134.55	29.46	-53.1	-55.4	14.4	0.00e+00	0	23	0	444596224	71	4946
2026-01-12 09:09:43.74	134.48	29.64	-53.2	-55.5	14.3	0.00e+00	0	23	0	446693376	71	5007
2026-01-12 09:09:44.75	134.41	29.83	-53.2	-55.5	14.3	0.00e+00	0	23	0	448790528	71	5029
2026-01-12 09:09:45.75	134.34	30.02	-53.2	-55.6	14.2	0.00e+00	0	23	0	450887680	71	5063
2026-01-12 09:09:46.76	134.27	30.21	-53.3	-55.7	14.2	0.00e+00	0	23	0	451936256	71	5138
2026-01-12 09:09:47.77	134.19	30.40	-53.4	-55.9	14.2	0.00e+00	0	22	0	454033408	72	4936
2026-01-12 09:09:48.77	134.12	30.59	-53.4	-55.8	14.3	0.00e+00	0	23	0	456130560	72	4873
2026-01-12 09:09:49.78	134.05	30.78	-53.4	-55.8	14.2	0.00e+00	0	23	0	458227712	72	4913
2026-01-12 09:09:50.79	133.97	30.98	-53.5	-55.9	14.2	0.00e+00	0	23	0	460324864	72	4979
2026-01-12 09:09:51.81	133.89	31.18	-53.6	-56.0	14.1	0.00e+00	0	23	0	461373440	72	5027
2026-01-12 09:09:52.81	133.81	31.37	-53.6	-56.1	14.0	0.00e+00	0	23	0	463470592	72	5083
2026-01-12 09:09:53.82	133.73	31.57	-53.8	-56.4	13.9	0.00e+00	0	22	0	465567744	72	5223
2026-01-12 09:09:54.83	133.65	31.77	-53.8	-56.3	13.9	0.00e+00	0	23	0	467664896	72	5216
2026-01-12 09:09:55.84	133.57	31.97	-53.9	-56.6	13.8	0.00e+00	0	23	0	469762048	72	5344
2026-01-12 09:09:56.84	133.49	32.17	-54.0	-56.7	13.8	0.00e+00	0	23	0	470810624	73	5155
2026-01-12 09:09:57.86	133.41	32.38	-54.1	-56.8	13.8	0.00e+00	0	23	0	472907776	73	5192
2026-01-12 09:09:58.86	133.32	32.58	-54.2	-57.0	13.6	0.00e+00	0	22	0	475004928	73	5335
2026-01-12 09:09:59.87	133.24	32.78	-54.1	-56.8	13.7	0.00e+00	0	22	0	477102080	73	5188
2026-01-12 09:10:00.88	133.15	32.99	-54.1	-56.9	13.7	0.00e+00	0	22	0	479199232	73	5243
2026-01-12 09:10:01.89	133.06	33.20	-54.1	-56.9	13.6	0.00e+00	0	23	0	480247808	73	5257
2026-01-12 09:10:02.89	132.97	33.41	-54.2	-57.1	13.5	0.00e+00	0	23	0	482344960	73	5371
2026-01-12 09:10:03.90	132.88	33.62	-54.3	-57.1	13.6	0.00e+00	0	23	0	484442112	73	5366
2026-01-12 09:10:04.91	132.79	33.83	-54.3	-57.1	13.5	0.00e+00	0	23	0	486539264	73	5387
2026-01-12 09:10:05.92	132.70	34.05	-54.3	-57.1	13.7	0.00e+00	0	22	0	488636416	74	5075
2026-01-12 09:10:06.93	132.60	34.26	-54.4	-57.3	13.6	0.00e+00	0	23	0	489684992	74	5190
2026-01-12 09:10:07.94	132.51	34.48	-54.3	-57.2	13.6	0.00e+00	0	23	0	491782144	74	5120
2026-01-12 09:10:08.94	132.41	34.70	-54.2	-56.9	13.8	0.00e+00	0	23	0	493879296	74	4959
2026-01-12 09:10:09.95	132.31	34.92	-54.2	-56.9	13.9	0.00e+00	0	23	0	495976448	74	4953
2026-01-12 09:10:10.96	132.21	35.14	-54.2	-56.9	13.8	0.00e+00	0	23	0	498073600	74	4967
2026-01-12 09:10:11.97	132.11	35.36	-54.1	-56.7	14.0	0.00e+00	0	23	0	499122176	74	4839
2026-01-12 09:10:12.97	132.01	35.58	-54.0	-56.6	14.0	0.00e+00	0	23	0	501219328	74	4780
2026-01-12 09:10:13.98	131.91	35.81	-53.8	-56.3	14.3	0.00e+00	0	22	0	503316480	74	4639
2026-01-12 09:10:14.99	131.80	36.04	-53.9	-56.4	14.2	0.00e+00	0	22	0	505413632	74	4704
2026-01-12 09:10:16.00	131.70	36.27	-53.8	-56.3	14.3	0.00e+00	0	22	0	507510784	74	4651
2026-01-12 09:10:17.00	131.59	36.49	-53.8	-56.3	14.3	0.00e+00	0	23	0	509607936	74	4624
2026-01-12 09:10:18.01	131.48	36.73	-53.8	-56.3	14.3	0.00e+00	0	22	0	510656512	74	4618
2026-01-12 09:10:19.02	131.37	36.96	-53.7	-56.2	14.2	0.00e+00	0	23	0	512753664	73	4852
2026-01-12 09:10:20.03	131.25	37.19	-53.8	-56.4	14.0	0.00e+00	0	23	0	514850816	73	4964
2026-01-12 09:10:21.03	131.14	37.43	-54.0	-56.6	13.9	0.00e+00	0	23	0	516947968	73	5071
2026-01-12 09:10:22.04	131.02	37.67	-54.1	-56.8	13.8	0.00e+00	0	23	0	517996544	73	5175
2026-01-12 09:10:23.05	130.90	37.90	-54.1	-56.9	13.7	0.00e+00	0	23	0	520093696	73	5230
2026-01-12 09:10:24.05	130.79	38.14	-54.1	-56.8	13.7	0.00e+00	0	22	0	522190848	73	5198
2026-01-12 09:10:25.05	130.66	38.38	-54.2	-56.9	13.7	0.00e+00	0	22	0	524288000	73	5269
2026-01-12 09:10:26.06	130.54	38.63	-54.1	-56.8	13.8	0.00e+00	0	23	0	526385152	73	5184
2026-01-12 09:10:27.07	130.41	38.87	-54.0	-56.7	13.9	0.00e+00	0	23	0	528482304	73	5131
2026-01-12 09:10:28.08	130.29	39.12	-54.1	-56.9	13.7	0.00e+00	0	23	0	529530880	73	5245
2026-01-12 09:10:29.08	130.16	39.37	-54.1	-56.8	13.8	0.00e+00	0	23	0	531628032	73	5185
2026-01-12 09:10:30.09	130.03	39.62	-54.1	-56.9	13.7	0.00e+00	0	23	0	533725184	73	5254
2026-01-12 09:10:31.10	129.89	39.87	-54.0	-56.7	13.8	0.00e+00	0	23	0	535822336	73	5142
2026-01-12 09:10:32.11	129.76	40.12	-54.0	-56.7	13.8	0.00e+00	0	22	0	537919488	73	5107
2026-01-12 09:10:33.12	129.62	40.38	-54.0	-56.6	13.9	0.00e+00	0	22	0	538968064	73	5061
2026-01-12 09:10:34.12	129.48	40.63	-54.0	-56.7	13.8	0.00e+00	0	23	0	541065216	73	5120
2026-01-12 09:10:35.13	129.33	40.89	-54.0	-56.7	13.8	0.00e+00	0	23	0	543162368	73	5132
2026-01-12 09:10:36.14	129.19	41.15	-53.9	-56.5	13.9	0.00e+00	0	23	0	545259520	73	5028
2026-01-12 09:10:37.15	129.04	41.42	-53.9	-56.5	14.0	0.00e+00	0	23	0	546308096	73	5009
2026-01-12 09:10:38.16	128.89	41.68	-54.1	-56.8	13.8	0.00e+00	0	23	0	548405248	73	5167
2026-01-12 09:10:39.16	128.74	41.94	-53.9	-56.4	14.0	0.00e+00	0	22	0	550502400	73	4965
2026-01-12 09:10:40.17	128.58	42.21	-53.8	-56.2	14.1	0.00e+00	0	23	0	552599552	73	4870
2026-01-12 09:10:41.18	128.43	42.48	-53.7	-56.2	14.2	0.00e+00	0	23	0	554696704	73	4848
2026-01-12 09:10:42.19	128.27	42.75	-53.8	-56.3	14.2	0.00e+00	0	22	0	556793856	73	4875
2026-01-12 09:10:43.19	128.10	43.02	-53.7	-56.2	14.2	0.00e+00	0	23	0	557842432	73	4860
2026-01-12 09:10:44.17	127.94	43.29	-53.7	-56.2	14.2	0.00e+00	0	23	0	559939584	73	4835
2026-01-12 09:10:45.19	127.77	43.56	-53.6	-56.0	14.3	0.00e+00	0	23	0	562036736	73	4713
2026-01-12 09:10:46.19	127.60	43.84	-53.3	-55.5	14.7	0.00e+00	0	23	0	564133888	73	4488
2026-01-12 09:10:47.20	127.43	44.12	-53.0	-55.1	14.7	0.00e+00	0	23	0	566231040	72	4521
2026-01-12 09:10:48.21	127.25	44.40	-52.8	-54.9	14.8	0.00e+00	0	23	0	567279616	72	4432
2026-01-12 09:10:49.22	127.07	44.68	-52.6	-54.7	14.8	0.00e+00	0	23	0	569376768	71	4581
2026-01-12 09:10:50.23	126.88	44.96	-52.7	-54.8	14.8	0.00e+00	0	23	0	571473920	71	4603
2026-01-12 09:10:51.24	126.69	45.25	-52.6	-54.6	14.9	0.00e+00	0	23	0	573571072	71	4543
2026-01-12 09:10:52.24	126.50	45.53	-52.7	-54.8	14.8	0.00e+00	0	23	0	575668224	71	4629
2026-01-12 09:10:53.25	126.31	45.82	-52.6	-54.6	14.9	0.00e+00	0	22	0	576716800	71	4542
2026-01-12 09:10:54.26	126.11	46.11	-52.7	-54.8	14.8	0.00e+00	0	23	0	578813952	71	4636
2026-01-12 09:10:55.27	125.91	46.41	-52.5	-54.6	14.9	0.00e+00	0	22	0	580911104	71	4496
2026-01-12 09:10:56.28	125.70	46.70	-52.5	-54.6	14.9	0.00e+00	0	23	0	583008256	71	4496
2026-01-12 09:10:57.29	125.49	47.00	-52.5	-54.5	15.0	0.00e+00	0	23	0	585105408	71	4446
2026-01-12 09:10:58.29	125.28	47.29	-52.2	-54.1	15.2	0.00e+00	0	23	0	586153984	71	4265
2026-01-12 09:10:59.30	125.06	47.59	-52.2	-54.1	15.0	0.00e+00	0	22	0	588251136	70	4504
2026-01-12 09:11:00.31	124.83	47.89	-52.2	-54.1	15.0	0.00e+00	0	23	0	590348288	70	4505
2026-01-12 09:11:01.31	124.61	48.19	-52.2	-54.1	15.0	0.00e+00	0	23	0	592445440	70	4521
2026-01-12 09:11:02.32	124.38	48.49	-52.2	-54.0	15.0	0.00e+00	0	23	0	594542592	70	4493
2026-01-12 09:11:03.33	124.14	48.80	-52.2	-54.1	15.0	0.00e+00	0	23	0	595591168	70	4541
2026-01-12 09:11:04.33	123.90	49.10	-52.1	-54.0	15.1	0.00e+00	0	22	0	597688320	70	4480
2026-01-12 09:11:05.34	123.65	49.41	-52.1	-54.0	15.1	0.00e+00	0	22	0	599785472	70	4468
2026-01-12 09:11:06.35	123.40	49.72	-52.0	-53.8	15.2	0.00e+00	0	23	0	601882624	70	4378
2026-01-12 09:11:07.36	123.14	50.03	-51.9	-53.7	15.2	0.00e+00	0	23	0	603979776	70	4324
2026-01-12 09:11:08.37	122.88	50.35	-52.0	-53.8	15.2	0.00e+00	0	23	0	605028352	70	4385
2026-01-12 09:11:09.37	122.62	50.66	-51.7	-53.5	15.4	0.00e+00	0	23	0	607125504	70	4203
2026-01-12 09:11:10.38	122.34	50.97	-51.3	-53.0	15.5	0.00e+00	0	23	0	609222656	69	4231
2026-01-12 09:11:11.39	122.06	51.29	-51.0	-52.6	15.5	0.00e+00	0	23	0	611319808	68	4267
2026-01-12 09:11:12.40	121.78	51.61	-51.0	-52.6	15.5	0.00e+00	0	23	0	613416960	68	4276
2026-01-12 09:11:13.40	121.49	51.93	-51.0	-52.6	15.5	0.00e+00	0	23	0	614465536	68	4259
2026-01-12 09:11:14.41	121.19	52.25	-50.9	-52.6	15.5	0.00e+00	0	23	0	616562688	68	4255
2026-01-12 09:11:15.42	120.88	52.57	-51.0	-52.7	15.5	0.00e+00	0	23	0	618659840	68	4299
2026-01-12 09:11:16.43	120.57	52.90	-50.9	-52.5	15.5	0.00e+00	0	23	0	620756992	68	4214
2026-01-12 09:11:17.44	120.25	53.22	-50.7	-52.3	15.6	0.00e+00	0	23	0	622854144	68	4123
2026-01-12 09:11:18.45	119.93	53.55	-50.4	-52.0	15.6	0.00e+00	0	23	0	623902720	67	4206
2026-01-12 09:11:19.46	119.59	53.88	-50.6	-52.2	15.5	0.00e+00	0	23	0	625999872	67	4319
2026-01-12 09:11:20.47	119.25	54.20	-50.9	-52.5	15.3	0.00e+00	0	23	0	628097024	67	4472
2026-01-12 09:11:21.48	118.90	54.53	-51.1	-52.8	15.2	0.00e+00	0	23	0	630194176	67	4633
2026-01-12 09:11:22.48	118.55	54.86	-51.2	-52.9	15.2	0.00e+00	0	23	0	632291328	67	4671
2026-01-12 09:11:23.49	118.18	55.19	-51.2	-52.9	15.1	0.00e+00	0	23	0	633339904	67	4688
2026-01-12 09:11:24.50	117.81	55.52	-51.7	-53.5	15.0	0.00e+00	0	23	0	635437056	68	4732
2026-01-12 09:11:25.51	117.42	55.86	-52.2	-54.1	14.8	0.00e+00	0	23	0	637534208	69	4800
2026-01-12 09:11:26.51	117.03	56.19	-52.7	-54.8	14.7	0.00e+00	0	22	0	639631360	70	4872
2026-01-12 09:11:27.52	116.63	56.52	-52.9	-55.0	14.5	0.00e+00	0	22	0	641728512	70	5008
2026-01-12 09:11:28.53	116.22	56.86	-53.3	-55.6	14.3	0.00e+00	0	23	0	642777088	71	5057
2026-01-12 09:11:29.53	115.80	57.19	-54.0	-56.5	14.0	0.00e+00	0	23	0	644874240	73	5041
2026-01-12 09:11:30.54	115.37	57.53	-54.3	-57.1	13.6	0.00e+00	0	23	0	646971392	73	5390
2026-01-12 09:11:31.55	114.92	57.86	-54.5	-57.3	13.6	0.00e+00	0	23	0	649068544	74	5185
2026-01-12 09:11:32.56	114.47	58.20	-54.4	-57.2	13.7	0.00e+00	0	23	0	651165696	74	5130
2026-01-12 09:11:33.57	114.00	58.54	-54.5	-57.4	13.5	0.00e+00	0	23	0	652214272	74	5230
2026-01-12 09:11:34.57	113.52	58.87	-54.2	-56.9	13.9	0.00e+00	0	23	0	654311424	74	4946
2026-01-12 09:11:35.59	113.03	59.21	-53.6	-55.9	14.4	0.00e+00	0	23	0	656408576	73	4703
2026-01-12 09:11:36.59	112.53	59.54	-53.4	-55.6	14.6	0.00e+00	0	23	0	658505728	73	4531
2026-01-12 09:11:37.60	112.01	59.88	-52.9	-55.0	14.9	0.00e+00	0	23	0	660602880	72	4464
2026-01-12 09:11:38.61	111.48	60.22	-52.5	-54.5	15.0	0.00e+00	0	23	0	661651456	71	4459
2026-01-12 09:11:39.62	110.93	60.55	-52.2	-54.1	15.2	0.00e+00	0	23	0	663748608	71	4259
2026-01-12 09:11:40.63	110.37	60.89	-52.0	-53.9	15.1	0.00e+00	0	23	0	665845760	70	4400
2026-01-12 09:11:41.63	109.80	61.22	-51.9	-53.7	15.3	0.00e+00	0	23	0	667942912	70	4325
2026-01-12 09:11:42.64	109.21	61.55	-51.8	-53.6	15.3	0.00e+00	0	23	0	670040064	70	4247
2026-01-12 09:11:43.65	108.60	61.88	-51.5	-53.2	15.3	0.00e+00	0	23	0	671088640	69	4333
2026-01-12 09:11:44.66	107.98	62.22	-51.0	-52.6	15.5	0.00e+00	0	23	0	673185792	68	4275
2026-01-12 09:11:45.67	107.33	62.54	-50.3	-51.8	15.7	0.00e+00	0	22	0	675282944	67	4129
2026-01-12 09:11:46.67	106.68	62.87	-49.9	-51.4	15.7	0.00e+00	0	22	0	677380096	66	4148
2026-01-12 09:11:47.68	106.00	63.20	-50.2	-51.7	15.6	0.00e+00	0	23	0	679477248	66	4298
2026-01-12 09:11:48.69	105.31	63.52	-50.5	-52.1	15.4	0.00e+00	0	23	0	681574400	66	4505
2026-01-12 09:11:49.70	104.59	63.84	-50.6	-52.2	15.3	0.00e+00	0	23	0	682622976	66	4580
2026-01-12 09:11:50.70	103.86	64.16	-51.0	-52.6	15.3	0.00e+00	0	23	0	684720128	67	4519
2026-01-12 09:11:51.71	103.11	64.48	-51.1	-52.7	15.2	0.00e+00	0	23	0	686817280	67	4593
2026-01-12 09:11:52.72	102.33	64.79	-51.2	-52.9	15.1	0.00e+00	0	23	0	688914432	67	4687
2026-01-12 09:11:53.73	101.53	65.10	-51.1	-52.8	15.2	0.00e+00	0	23	0	689963008	67	4619
2026-01-12 09:11:54.73	100.71	65.41	-51.8	-53.6	15.0	0.00e+00	0	23	0	692060160	68	4764
2026-01-12 09:11:55.73	99.88	65.71	-52.3	-54.2	14.8	0.00e+00	0	23	0	694157312	69	4843
2026-01-12 09:11:56.74	99.01	66.01	-52.8	-54.9	14.6	0.00e+00	0	23	0	696254464	70	4939
2026-01-12 09:11:57.75	98.12	66.31	-53.2	-55.4	14.5	0.00e+00	0	23	0	698351616	71	4955
2026-01-12 09:11:58.76	97.20	66.60	-53.7	-56.2	14.1	0.00e+00	0	23	0	699400192	72	5130
2026-01-12 09:11:59.76	96.27	66.88	-54.3	-57.0	13.7	0.00e+00	0	22	0	701497344	73	5319
2026-01-12 09:12:00.77	95.30	67.17	-54.2	-56.9	13.8	0.00e+00	0	23	0	703594496	73	5219
2026-01-12 09:12:01.78	94.30	67.44	-53.9	-56.5	14.0	0.00e+00	0	23	0	705691648	73	4990
2026-01-12 09:12:02.79	93.28	67.72	-54.2	-56.8	13.9	0.00e+00	0	23	0	707788800	73	5206
2026-01-12 09:12:03.80	92.23	67.98	-53.7	-56.1	14.3	0.00e+00	0	23	0	709885952	73	4792
2026-01-12 09:12:04.80	91.16	68.24	-53.5	-55.8	14.5	0.00e+00	0	23	0	710934528	73	4621
2026-01-12 09:12:05.81	90.06	68.49	-53.8	-56.3	14.2	0.00e+00	0	23	0	713031680	73	4899
2026-01-12 09:12:06.82	88.93	68.74	-53.4	-55.7	14.6	0.00e+00	0	23	0	715128832	73	4579
2026-01-12 09:12:07.83	87.77	68.98	-52.8	-54.8	15.0	0.00e+00	0	23	0	717225984	72	4344
2026-01-12 09:12:08.84	86.58	69.21	-52.9	-55.0	14.9	0.00e+00	0	23	0	719323136	72	4450
2026-01-12 09:12:09.85	85.36	69.43	-53.0	-55.0	14.8	0.00e+00	0	23	0	720371712	72	4486
2026-01-12 09:12:10.86	84.11	69.65	-52.5	-54.4	15.1	0.00e+00	0	23	0	722468864	71	4431
2026-01-12 09:12:11.87	82.84	69.86	-52.1	-53.9	15.2	0.00e+00	0	23	0	724566016	70	4406
2026-01-12 09:12:12.87	81.55	70.05	-52.0	-53.9	15.2	0.00e+00	0	23	0	726663168	70	4393
2026-01-12 09:12:13.88	80.22	70.24	-52.3	-54.3	15.0	0.00e+00	0	23	0	728760320	70	4608
2026-01-12 09:12:14.89	78.86	70.42	-52.4	-54.4	14.9	0.00e+00	0	23	0	729808896	70	4657
2026-01-12 09:12:15.90	77.48	70.58	-52.5	-54.4	14.9	0.00e+00	0	23	0	731906048	70	4682
2026-01-12 09:12:16.91	76.08	70.74	-51.9	-53.7	15.3	0.00e+00	0	22	0	734003200	70	4314
2026-01-12 09:12:17.91	74.66	70.89	-51.6	-53.3	15.3	0.00e+00	0	23	0	736100352	69	4347
2026-01-12 09:12:18.92	73.21	71.02	-51.9	-53.7	15.1	0.00e+00	0	23	0	738197504	69	4586
2026-01-12 09:12:19.92	71.75	71.14	-52.3	-54.2	14.8	0.00e+00	0	23	0	739246080	69	4863
2026-01-12 09:12:20.93	70.26	71.26	-52.4	-54.4	14.9	0.00e+00	0	23	0	741343232	70	4661
2026-01-12 09:12:21.94	68.74	71.36	-52.6	-54.5	14.8	0.00e+00	0	22	0	743440384	70	4759
2026-01-12 09:12:22.95	67.22	71.44	-52.7	-54.7	14.7	0.00e+00	0	23	0	745537536	70	4834
2026-01-12 09:12:23.96	65.68	71.52	-52.8	-54.8	14.7	0.00e+00	0	23	0	747634688	70	4886
2026-01-12 09:12:24.97	64.12	71.58	-53.1	-55.2	14.6	0.00e+00	0	22	0	748683264	71	4839
2026-01-12 09:12:25.98	62.56	71.63	-52.9	-55.0	14.7	0.00e+00	0	23	0	750780416	71	4742
2026-01-12 09:12:26.98	61.00	71.67	-52.9	-54.9	14.8	0.00e+00	0	23	0	752877568	71	4702
2026-01-12 09:12:27.99	59.43	71.69	-52.7	-54.7	14.9	0.00e+00	0	23	0	754974720	71	4588
2026-01-12 09:12:29.00	57.85	71.70	-52.7	-54.7	14.9	0.00e+00	0	23	0	757071872	71	4556
2026-01-12 09:12:30.01	56.26	71.70	-52.9	-55.0	14.7	0.00e+00	0	23	0	758120448	71	4731
2026-01-12 09:12:31.01	54.70	71.68	-52.8	-54.9	14.8	0.00e+00	0	23	0	760217600	71	4669
2026-01-12 09:12:32.02	53.13	71.65	-52.4	-54.3	15.1	0.00e+00	0	23	0	762314752	71	4362
2026-01-12 09:12:33.03	51.56	71.61	-52.0	-53.8	15.3	0.00e+00	0	23	0	764411904	70	4342
2026-01-12 09:12:34.03	50.02	71.55	-52.1	-54.0	15.2	0.00e+00	0	23	0	766509056	70	4458
2026-01-12 09:12:35.04	48.47	71.49	-51.9	-53.7	15.3	0.00e+00	0	23	0	767557632	70	4315
2026-01-12 09:12:36.05	46.93	71.41	-51.6	-53.3	15.4	0.00e+00	0	23	0	769654784	69	4385
2026-01-12 09:12:37.06	45.41	71.31	-51.6	-53.3	15.3	0.00e+00	0	23	0	771751936	69	4370
2026-01-12 09:12:38.06	43.92	71.21	-51.4	-53.1	15.5	0.00e+00	0	23	0	773849088	69	4257
2026-01-12 09:12:39.07	42.44	71.09	-51.6	-53.3	15.3	0.00e+00	0	23	0	775946240	69	4370
2026-01-12 09:12:40.08	40.98	70.96	-51.4	-53.1	15.5	0.00e+00	0	23	0	776994816	69	4257
2026-01-12 09:12:41.09	39.53	70.82	-51.5	-53.1	15.4	0.00e+00	0	23	0	779091968	69	4287
2026-01-12 09:12:42.10	38.12	70.67	-51.9	-53.7	15.1	0.00e+00	0	23	0	781189120	69	4589
2026-01-12 09:12:43.11	36.72	70.51	-52.3	-54.3	14.7	0.00e+00	0	23	0	783286272	69	4875
2026-01-12 09:12:44.11	35.37	70.34	-52.9	-55.0	14.6	0.00e+00	0	23	0	785383424	70	4988
2026-01-12 09:12:45.12	34.02	70.16	-53.1	-55.2	14.6	0.00e+00	0	23	0	786432000	71	4843
2026-01-12 09:12:46.13	32.71	69.96	-53.1	-55.3	14.6	0.00e+00	0	23	0	788529152	71	4879
2026-01-12 09:12:47.14	31.42	69.76	-53.5	-55.7	14.5	0.00e+00	0	23	0	790626304	72	4860
2026-01-12 09:12:48.14	30.17	69.55	-54.0	-56.5	14.1	0.00e+00	0	23	0	792723456	73	4989
2026-01-12 09:12:49.15	28.94	69.34	-53.9	-56.3	14.2	0.00e+00	0	23	0	794820608	73	4907
2026-01-12 09:12:50.16	27.73	69.11	-53.9	-56.3	14.3	0.00e+00	0	23	0	795869184	73	4884
2026-01-12 09:12:51.17	26.56	68.87	-54.0	-56.5	14.1	0.00e+00	0	23	0	797966336	73	5024
2026-01-12 09:12:52.18	25.41	68.63	-53.9	-56.3	14.2	0.00e+00	0	23	0	800063488	73	4903
2026-01-12 09:12:53.19	24.29	68.38	-54.3	-56.9	13.9	0.00e+00	0	23	0	802160640	73	5228
2026-01-12 09:12:54.19	23.21	68.13	-54.8	-57.7	13.5	0.00e+00	0	23	0	804257792	74	5457
2026-01-12 09:12:55.20	22.15	67.87	-55.0	-58.1	13.3	0.00e+00	0	23	0	805306368	75	5349
2026-01-12 09:12:56.21	21.11	67.60	-54.9	-57.8	13.6	0.00e+00	0	23	0	807403520	75	5166
2026-01-12 09:12:57.22	20.10	67.32	-54.5	-57.1	14.0	0.00e+00	0	23	0	809500672	75	4800
2026-01-12 09:12:58.22	19.13	67.05	-53.8	-56.1	14.5	0.00e+00	0	23	0	811597824	74	4538
2026-01-12 09:12:59.23	18.17	66.76	-53.8	-56.1	14.6	0.00e+00	0	23	0	813694976	74	4522
2026-01-12 09:13:00.24	17.24	66.47	-53.5	-55.7	14.6	0.00e+00	0	23	0	814743552	73	4582
2026-01-12 09:13:01.25	16.34	66.18	-53.4	-55.5	14.8	0.00e+00	0	23	0	816840704	73	4480
2026-01-12 09:13:02.25	15.46	65.88	-53.1	-55.1	14.8	0.00e+00	0	23	0	818937856	72	4535
2026-01-12 09:13:03.26	14.61	65.58	-52.5	-54.4	15.1	0.00e+00	0	23	0	821035008	71	4426
2026-01-12 09:13:04.27	13.77	65.28	-52.2	-54.0	15.3	0.00e+00	0	23	0	823132160	71	4228
2026-01-12 09:13:05.28	12.96	64.97	-51.9	-53.7	15.3	0.00e+00	0	23	0	824180736	70	4296
2026-01-12 09:13:06.28	12.18	64.66	-51.2	-52.8	15.6	0.00e+00	0	23	0	826277888	69	4129
2026-01-12 09:13:07.29	11.41	64.34	-51.0	-52.6	15.5	0.00e+00	0	23	0	828375040	68	4288
2026-01-12 09:13:08.31	10.66	64.02	-50.5	-52.0	15.6	0.00e+00	0	23	0	830472192	67	4235
2026-01-12 09:13:09.31	9.94	63.71	-50.5	-52.0	15.6	0.00e+00	0	23	0	832569344	67	4216
2026-01-12 09:13:10.32	9.23	63.38	-50.5	-52.1	15.6	0.00e+00	0	23	0	833617920	67	4258
2026-01-12 09:13:11.33	8.55	63.06	-50.4	-51.9	15.7	0.00e+00	0	23	0	835715072	67	4173
2026-01-12 09:13:12.34	7.88	62.73	-50.3	-51.8	15.7	0.00e+00	0	23	0	837812224	67	4142
2026-01-12 09:13:13.34	7.23	62.41	-50.4	-51.9	15.7	0.00e+00	0	23	0	839909376	67	4169
2026-01-12 09:13:14.35	6.60	62.08	-50.6	-52.2	15.6	0.00e+00	0	23	0	842006528	67	4302
2026-01-12 09:13:15.36	5.98	61.75	-50.6	-52.2	15.5	0.00e+00	0	23	0	843055104	67	4297
2026-01-12 09:13:16.37	5.38	61.41	-50.8	-52.4	15.4	0.00e+00	0	23	0	845152256	67	4428
2026-01-12 09:13:17.37	4.81	61.09	-51.2	-52.8	15.2	0.00e+00	0	22	0	847249408	67	4638
2026-01-12 09:13:18.38	4.24	60.75	-51.7	-53.5	15.1	0.00e+00	0	23	0	849346560	68	4711
2026-01-12 09:13:19.38	3.69	60.42	-51.7	-53.5	15.0	0.00e+00	0	23	0	851443712	68	4738
2026-01-12 09:13:20.39	3.15	60.08	-52.0	-53.8	15.1	0.00e+00	0	23	0	852492288	69	4616
2026-01-12 09:13:21.39	2.63	59.75	-52.7	-54.8	14.7	0.00e+00	0	23	0	854589440	70	4876
2026-01-12 09:13:22.40	2.12	59.42	-53.5	-55.8	14.4	0.00e+00	0	23	0	856686592	72	4900
2026-01-12 09:13:23.41	1.62	59.08	-53.6	-56.0	14.3	0.00e+00	0	22	0	858783744	72	4995
2026-01-12 09:13:24.42	1.13	58.74	-53.1	-55.2	14.8	0.00e+00	0	23	0	860880896	72	4596
2026-01-12 09:13:25.42	0.66	58.41	-53.3	-55.4	14.6	0.00e+00	0	23	0	861929472	72	4686
2026-01-12 09:13:26.43	0.20	58.08	-53.8	-56.1	14.2	0.00e+00	0	23	0	864026624	72	5077
2026-01-12 09:13:27.44	359.75	57.74	-54.0	-56.5	14.1	0.00e+00	0	23	0	866123776	73	5017
2026-01-12 09:13:28.45	359.31	57.40	-53.9	-56.4	14.2	0.00e+00	0	23	0	868220928	73	4927
2026-01-12 09:13:29.45	358.89	57.07	-54.0	-56.5	14.1	0.00e+00	0	23	0	870318080	73	4995
2026-01-12 09:13:30.46	358.47	56.74	-53.6	-55.9	14.5	0.00e+00	0	22	0	871366656	73	4656
2026-01-12 09:13:31.47	358.06	56.40	-53.0	-55.0	14.9	0.00e+00	0	23	0	873463808	72	4486
2026-01-12 09:13:32.48	357.67	56.07	-52.0	-53.8	15.3	0.00e+00	0	23	0	875560960	70	4345
2026-01-12 09:13:33.49	357.28	55.74	-51.6	-53.3	15.4	0.00e+00	0	23	0	877658112	69	4356
2026-01-12 09:13:34.50	356.90	55.40	-51.4	-53.0	15.5	0.00e+00	0	23	0	879755264	69	4213
2026-01-12 09:13:35.50	356.53	55.08	-51.1	-52.7	15.5	0.00e+00	0	23	0	880803840	68	4320
2026-01-12 09:13:36.51	356.17	54.75	-51.0	-52.5	15.6	0.00e+00	0	22	0	882900992	68	4242
2026-01-12 09:13:37.52	355.81	54.42	-50.9	-52.4	15.6	0.00e+00	0	23	0	884998144	68	4181
2026-01-12 09:13:38.53	355.47	54.09	-50.9	-52.5	15.6	0.00e+00	0	23	0	887095296	68	4207
2026-01-12 09:13:39.54	355.13	53.76	-50.9	-52.5	15.6	0.00e+00	0	22	0	889192448	68	4211
2026-01-12 09:13:40.55	354.80	53.44	-50.8	-52.3	15.7	0.00e+00	0	23	0	891289600	68	4116
2026-01-12 09:13:41.56	354.48	53.11	-50.3	-51.7	15.7	0.00e+00	0	23	0	892338176	67	4097
2026-01-12 09:13:42.57	354.16	52.79	-50.4	-51.8	15.7	0.00e+00	0	23	0	894435328	67	4137
2026-01-12 09:13:43.58	353.86	52.46	-50.6	-52.1	15.6	0.00e+00	0	23	0	896532480	67	4276
2026-01-12 09:13:44.59	353.55	52.14	-50.6	-52.2	15.5	0.00e+00	0	23	0	898629632	67	4307
2026-01-12 09:13:45.59	353.26	51.83	-50.9	-52.5	15.4	0.00e+00	0	23	0	900726784	67	4449
2026-01-12 09:13:46.60	352.97	51.51	-51.3	-53.0	15.1	0.00e+00	0	23	0	901775360	67	4747
2026-01-12 09:13:47.61	352.69	51.19	-52.0	-53.8	15.0	0.00e+00	0	23	0	903872512	69	4620
2026-01-12 09:13:48.61	352.42	50.88	-52.1	-54.0	15.0	0.00e+00	0	23	0	905969664	69	4734
2026-01-12 09:13:49.62	352.15	50.56	-52.5	-54.4	14.9	0.00e+00	0	23	0	908066816	70	4689
2026-01-12 09:13:50.63	351.88	50.25	-52.7	-54.7	14.7	0.00e+00	0	23	0	910163968	70	4827
2026-01-12 09:13:51.64	351.62	49.94	-52.9	-55.0	14.6	0.00e+00	0	23	0	911212544	70	4994
2026-01-12 09:13:52.65	351.37	49.63	-53.0	-55.2	14.7	0.00e+00	0	23	0	913309696	71	4828
2026-01-12 09:13:53.66	351.12	49.32	-53.1	-55.3	14.5	0.00e+00	0	23	0	915406848	71	4890
2026-01-12 09:13:54.67	350.87	49.01	-53.2	-55.3	14.5	0.00e+00	0	23	0	917504000	71	4917
2026-01-12 09:13:55.68	350.63	48.71	-53.2	-55.4	14.5	0.00e+00	0	23	0	919601152	71	4964
2026-01-12 09:13:56.69	350.40	48.40	-53.4	-55.7	14.3	0.00e+00	0	22	0	920649728	71	5114
2026-01-12 09:13:57.70	350.17	48.10	-53.6	-55.9	14.3	0.00e+00	0	23	0	922746880	72	4954
2026-01-12 09:13:58.70	349.95	47.80	-53.6	-56.0	14.3	0.00e+00	0	23	0	924844032	72	5004
2026-01-12 09:13:59.71	349.72	47.50	-53.6	-55.9	14.3	0.00e+00	0	23	0	926941184	72	4957
2026-01-12 09:14:00.72	349.51	47.20	-53.3	-55.5	14.6	0.00e+00	0	23	0	929038336	72	4711
2026-01-12 09:14:01.72	349.30	46.91	-53.1	-55.3	14.7	0.00e+00	0	23	0	930086912	72	4612
2026-01-12 09:14:02.73	349.09	46.62	-53.1	-55.2	14.8	0.00e+00	0	23	0	932184064	72	4561
2026-01-12 09:14:03.73	348.89	46.33	-53.1	-55.2	14.8	0.00e+00	0	22	0	934281216	72	4583
2026-01-12 09:14:04.74	348.68	46.04	-52.8	-54.8	15.0	0.00e+00	0	23	0	936378368	72	4366
2026-01-12 09:14:05.74	348.49	45.75	-52.7	-54.7	14.9	0.00e+00	0	23	0	938475520	71	4561
2026-01-12 09:14:06.75	348.30	45.46	-52.7	-54.7	14.9	0.00e+00	0	23	0	939524096	71	4590
2026-01-12 09:14:07.76	348.11	45.18	-52.8	-54.8	14.8	0.00e+00	0	23	0	941621248	71	4630
2026-01-12 09:14:08.76	347.92	44.90	-52.9	-55.0	14.7	0.00e+00	0	23	0	943718400	71	4720
2026-01-12 09:14:09.77	347.74	44.61	-53.2	-55.4	14.5	0.00e+00	0	23	0	945815552	71	4932
2026-01-12 09:14:10.78	347.56	44.33	-53.3	-55.5	14.4	0.00e+00	0	23	0	947912704	71	5010
2026-01-12 09:14:11.79	347.38	44.05	-53.3	-55.5	14.4	0.00e+00	0	23	0	948961280	71	5025
2026-01-12 09:14:12.79	347.21	43.78	-53.2	-55.5	14.4	0.00e+00	0	23	0	951058432	71	4984
2026-01-12 09:14:13.80	347.04	43.50	-53.3	-55.6	14.4	0.00e+00	0	23	0	953155584	71	5060
2026-01-12 09:14:14.81	346.87	43.23	-53.6	-55.9	14.3	0.00e+00	0	22	0	955252736	72	4963
2026-01-12 09:14:15.82	346.71	42.96	-53.8	-56.3	14.0	0.00e+00	0	22	0	957349888	72	5182
2026-01-12 09:14:16.82	346.55	42.69	-54.2	-56.9	13.8	7.00e-07	0	23	0	958398464	73	5236
2026-01-12 09:14:17.83	346.39	42.42	-54.3	-57.1	13.6	0.00e+00	0	23	0	960495616	73	5356
2026-01-12 09:14:18.84	346.23	42.15	-54.5	-57.2	13.7	0.00e+00	0	23	0	962592768	74	5154
2026-01-12 09:14:19.84	346.08	41.89	-54.1	-56.7	14.0	0.00e+00	0	23	0	964689920	74	4861
2026-01-12 09:14:20.85	345.93	41.62	-54.1	-56.6	14.1	0.00e+00	0	23	0	966787072	74	4793
2026-01-12 09:14:21.86	345.78	41.36	-54.1	-56.6	14.1	0.00e+00	0	22	0	967835648	74	4800
2026-01-12 09:14:22.87	345.63	41.10	-54.0	-56.6	14.0	0.00e+00	0	23	0	969932800	74	4804
2026-01-12 09:14:23.88	345.49	40.84	-53.9	-56.4	14.1	7.00e-07	0	23	0	972029952	74	4692
2026-01-12 09:14:24.89	345.35	40.59	-54.0	-56.6	14.1	7.78e-05	0	23	0	974127104	74	4765
2026-01-12 09:14:25.89	345.21	40.33	-53.7	-56.3	14.2	2.59e-05	0	23	0	976224256	74	4600
2026-01-12 09:14:26.90	345.07	40.08	-53.6	-56.1	14.2	6.02e-05	0	23	0	977272832	73	4786
2026-01-12 09:14:27.91	344.94	39.83	-53.6	-56.3	14.0	1.52e-04	0	23	0	979369984	73	4878
2026-01-12 09:14:28.91	344.80	39.58	-53.7	-56.5	13.8	1.13e-03	0	23	0	981467136	73	4995
2026-01-12 09:14:29.92	344.67	39.33	-53.6	-56.5	13.4	1.75e-02	0	23	0	983564288	73	4998
2026-01-12 09:14:30.93	344.54	39.08	-53.4	-56.2	13.7	1.17e-02	0	22	0	985661440	73	4848
2026-01-12 09:14:31.94	344.42	38.83	-53.3	-56.0	13.8	6.92e-03	0	22	0	986710016	73	4726
2026-01-12 09:14:32.95	344.29	38.59	-53.1	-55.6	14.1	1.43e-03	0	23	0	988807168	72	4813
2026-01-12 09:14:33.95	344.17	38.35	-52.8	-55.2	14.4	2.58e-04	0	23	0	990904320	72	4568
2026-01-12 09:14:34.96	344.05	38.11	-52.7	-55.1	14.3	1.27e-03	0	23	0	993001472	71	4764
2026-01-12 09:14:35.97	343.93	37.87	-52.7	-55.0	14.4	1.78e-04	0	23	0	995098624	71	4734
2026-01-12 09:14:36.97	343.82	37.63	-52.9	-55.2	14.2	1.36e-04	0	23	0	996147200	71	4816
2026-01-12 09:14:37.97	343.70	37.40	-53.0	-55.3	14.2	2.97e-05	0	22	0	998244352	71	4923
2026-01-12 09:14:38.98	343.59	37.16	-53.1	-55.4	14.4	1.54e-04	0	23	0	1000341504	71	4928
2026-01-12 09:14:39.98	343.48	36.93	-53.1	-55.3	14.4	0.00e+00	0	23	0	1002438656	71	4923
2026-01-12 09:14:40.99	343.36	36.70	-53.1	-55.4	14.4	0.00e+00	0	23	0	1004535808	71	4945
2026-01-12 09:14:42.00	343.26	36.47	-53.3	-55.6	14.2	0.00e+00	0	23	0	1005584384	71	5096
2026-01-12 09:14:43.01	343.15	36.24	-53.4	-55.8	14.2	0.00e+00	0	23	0	1007681536	72	4892
2026-01-12 09:14:44.02	343.04	36.01	-53.6	-56.1	13.9	1.33e-04	0	23	0	1009778688	72	5083
2026-01-12 09:14:45.03	342.94	35.79	-53.6	-56.2	13.7	4.42e-04	0	23	0	1011875840	72	5110
2026-01-12 09:14:46.04	342.84	35.56	-53.7	-56.3	13.5	2.39e-03	0	23	0	1013972992	72	5186
2026-01-12 09:14:47.04	342.73	35.34	-53.6	-56.2	13.9	1.62e-04	0	23	0	1015021568	72	5126
2026-01-12 09:14:48.05	342.63	35.12	-53.6	-56.1	13.8	6.25e-05	0	23	0	1017118720	72	5094
2026-01-12 09:14:49.06	342.54	34.90	-53.4	-55.9	14.2	2.20e-06	0	23	0	1019215872	72	4933
2026-01-12 09:14:50.07	342.44	34.68	-53.4	-55.8	14.2	4.27e-05	0	23	0	1021313024	72	4916
2026-01-12 09:14:51.07	342.34	34.47	-53.3	-55.8	14.2	4.04e-05	0	23	0	1023410176	72	4878
2026-01-12 09:14:52.08	342.25	34.25	-53.4	-56.0	14.0	1.45e-04	0	23	0	1024458752	72	4990
2026-01-12 09:14:53.09	342.16	34.04	-53.4	-55.9	13.9	4.95e-04	0	23	0	1026555904	72	4962
2026-01-12 09:14:54.10	342.06	33.82	-53.6	-56.1	14.0	9.15e-05	0	23	0	1028653056	72	5067
2026-01-12 09:14:55.10	341.97	33.61	-53.7	-56.2	14.0	5.30e-06	0	23	0	1030750208	72	5121
2026-01-12 09:14:56.11	341.88	33.40	-53.9	-56.4	13.9	0.00e+00	0	23	0	1032847360	72	5260
2026-01-12 09:14:57.12	341.80	33.19	-54.1	-56.8	13.8	0.00e+00	0	23	0	1033895936	73	5202
2026-01-12 09:14:58.13	341.71	32.99	-54.2	-57.0	13.6	0.00e+00	0	23	0	1035993088	73	5308
2026-01-12 09:14:59.14	341.62	32.78	-54.3	-57.1	13.2	1.51e-04	0	23	0	1038090240	73	5385
2026-01-12 09:15:00.15	341.54	32.57	-54.2	-57.2	12.9	9.21e-03	0	23	0	1040187392	73	5417
2026-01-12 09:15:01.16	341.45	32.37	-54.1	-57.2	12.8	3.13e-02	0	23	0	1042284544	73	5423
2026-01-12 09:15:02.16	341.37	32.17	-54.1	-57.1	12.8	3.01e-02	0	23	0	1043333120	73	5396
2026-01-12 09:15:03.17	341.29	31.97	-54.0	-57.1	13.0	2.68e-02	0	23	0	1045430272	73	5344
2026-01-12 09:15:04.17	341.21	31.77	-53.8	-57.1	13.0	2.20e-02	0	23	0	1047527424	73	5380
2026-01-12 09:15:05.18	341.13	31.57	-53.5	-57.1	12.9	2.92e-02	0	23	0	1049624576	73	5345
2026-01-12 09:15:06.19	341.05	31.38	-53.6	-57.1	12.9	3.24e-02	0	23	0	1051721728	73	5384
2026-01-12 09:15:07.20	340.97	31.18	-53.4	-57.2	12.8	3.29e-02	0	23	0	1052770304	73	5407
2026-01-12 09:15:08.21	340.90	30.98	-53.5	-57.1	12.7	3.34e-02	0	23	0	1054867456	73	5388
2026-01-12 09:15:09.22	340.82	30.79	-53.4	-57.1	12.9	3.36e-02	0	23	0	1056964608	73	5351
2026-01-12 09:15:10.23	340.75	30.60	-53.6	-57.2	12.9	3.29e-02	0	23	0	1059061760	73	5406
2026-01-12 09:15:11.24	340.67	30.41	-54.4	-57.2	13.7	2.04e-03	0	23	0	1061158912	74	5148
2026-01-12 09:15:12.25	340.60	30.22	-54.4	-57.2	13.7	0.00e+00	0	23	0	1062207488	74	5159
2026-01-12 09:15:13.26	340.53	30.03	-54.4	-57.2	13.7	0.00e+00	0	23	0	1064304640	74	5117
2026-01-12 09:15:14.26	340.46	29.84	-54.5	-57.3	13.6	0.00e+00	0	23	0	1066401792	74	5189
2026-01-12 09:15:15.27	340.39	29.66	-54.4	-57.2	13.7	0.00e+00	0	23	0	1068498944	74	5102
2026-01-12 09:15:16.28	340.32	29.47	-54.3	-57.1	13.8	0.00e+00	0	23	0	1070596096	74	5055
2026-01-12 09:15:17.28	340.25	29.29	-54.3	-57.0	13.8	0.00e+00	0	23	0	1072693248	74	5023
2026-01-12 09:15:18.29	340.18	29.11	-54.2	-56.9	13.9	0.00e+00	0	23	0	1073741824	74	4955
2026-01-12 09:15:19.30	340.12	28.93	-54.2	-56.9	13.9	0.00e+00	0	23	0	1075838976	74	4978
2026-01-12 09:15:20.31	340.05	28.74	-54.2	-57.0	13.8	0.00e+00	0	23	0	1077936128	74	4992
2026-01-12 09:15:21.32	339.98	28.56	-54.1	-56.7	14.0	0.00e+00	0	23	0	1080033280	74	4868
2026-01-12 09:15:22.33	339.92	28.39	-54.1	-56.7	14.0	0.00e+00	0	23	0	1081081856	74	4852
2026-01-12 09:15:23.33	339.86	28.21	-54.1	-56.8	13.9	0.00e+00	0	23	0	1083179008	74	4893
2026-01-12 09:15:24.34	339.79	28.03	-54.0	-56.6	14.0	0.00e+00	0	23	0	1085276160	74	4809
2026-01-12 09:15:25.35	339.73	27.86	-53.9	-56.5	14.2	0.00e+00	0	23	0	1087373312	74	4723
2026-01-12 09:15:26.35	339.67	27.69	-53.9	-56.3	14.2	0.00e+00	0	23	0	1089470464	74	4650
2026-01-12 09:15:27.36	339.61	27.51	-53.6	-56.0	14.3	0.00e+00	0	23	0	1090519040	73	4710
2026-01-12 09:15:28.37	339.55	27.34	-53.6	-56.0	14.3	0.00e+00	0	23	0	1092616192	73	4733
2026-01-12 09:15:29.37	339.49	27.17	-53.4	-55.7	14.5	0.00e+00	0	23	0	1094713344	73	4584
2026-01-12 09:15:30.38	339.43	27.00	-53.3	-55.5	14.6	0.00e+00	0	23	0	1096810496	73	4473
2026-01-12 09:15:31.39	339.37	26.83	-53.1	-55.2	14.6	0.00e+00	0	23	0	1098907648	72	4595
2026-01-12 09:15:32.40	339.31	26.67	-53.2	-55.5	14.5	0.00e+00	0	23	0	1099956224	72	4710
2026-01-12 09:15:33.41	339.26	26.50	-53.1	-55.4	14.6	0.00e+00	0	23	0	1102053376	72	4670
2026-01-12 09:15:34.41	339.20	26.33	-53.1	-55.4	14.5	0.00e+00	0	23	0	1104150528	72	4671
2026-01-12 09:15:35.42	339.15	26.17	-53.2	-55.5	14.5	0.00e+00	0	23	0	1106247680	72	4741
2026-01-12 09:15:36.43	339.09	26.01	-53.2	-55.5	14.4	0.00e+00	0	23	0	1108344832	72	4746
2026-01-12 09:15:37.43	339.04	25.84	-53.2	-55.6	14.4	0.00e+00	0	23	0	1110441984	72	4762
2026-01-12 09:15:38.44	338.98	25.68	-53.1	-55.4	14.6	0.00e+00	0	23	0	1111490560	72	4674
2026-01-12 09:15:39.45	338.93	25.52	-53.1	-55.3	14.6	0.00e+00	0	23	0	1113587712	72	4641
2026-01-12 09:15:40.46	338.88	25.36	-52.9	-55.1	14.7	0.00e+00	0	23	0	1115684864	72	4532
2026-01-12 09:15:41.47	338.83	25.20	-52.9	-55.0	14.8	0.00e+00	0	23	0	1117782016	72	4473
2026-01-12 09:15:42.47	338.77	25.05	-52.8	-54.9	14.8	0.00e+00	0	23	0	1118830592	72	4438
2026-01-12 09:15:43.49	338.72	24.89	-52.7	-54.8	14.9	0.00e+00	0	23	0	1120927744	72	4349
2026-01-12 09:15:44.49	338.67	24.73	-52.6	-54.7	14.8	0.00e+00	0	23	0	1123024896	71	4548
2026-01-12 09:15:45.50	338.62	24.58	-52.5	-54.5	14.9	0.00e+00	0	23	0	1125122048	71	4468
2026-01-12 09:15:46.51	338.57	24.42	-52.6	-54.6	14.9	0.00e+00	0	23	0	1127219200	71	4521
2026-01-12 09:15:47.52	338.52	24.27	-52.3	-54.2	15.1	0.00e+00	0	23	0	1129316352	71	4326
2026-01-12 09:15:48.53	338.48	24.11	-52.1	-54.0	15.1	0.00e+00	0	23	0	1130364928	70	4457
2026-01-12 09:15:49.53	338.43	23.96	-51.9	-53.8	15.1	0.00e+00	0	23	0	1132462080	70	4369
2026-01-12 09:15:50.55	338.38	23.81	-51.9	-53.8	15.2	0.00e+00	0	23	0	1134559232	70	4378
2026-01-12 09:15:51.56	338.33	23.66	-51.9	-53.8	15.2	0.00e+00	0	23	0	1136656384	70	4366
2026-01-12 09:15:52.56	338.29	23.51	-51.8	-53.6	15.3	0.00e+00	0	23	0	1138753536	70	4282
2026-01-12 09:15:53.57	338.24	23.36	-51.8	-53.7	15.2	0.00e+00	0	23	0	1139802112	70	4294
2026-01-12 09:15:54.58	338.20	23.22	-51.9	-53.8	15.2	0.00e+00	0	23	0	1141899264	70	4351
2026-01-12 09:15:55.59	338.15	23.07	-51.8	-53.6	15.2	0.00e+00	0	23	0	1143996416	70	4283
2026-01-12 09:15:56.60	338.11	22.92	-51.8	-53.7	15.2	0.00e+00	0	23	0	1146093568	70	4316
2026-01-12 09:15:57.60	338.06	22.78	-51.9	-53.8	15.2	0.00e+00	0	23	0	1148190720	70	4345
2026-01-12 09:15:58.61	338.02	22.63	-51.9	-53.8	15.2	0.00e+00	0	23	0	1149239296	70	4377
2026-01-12 09:15:59.62	337.98	22.49	-52.0	-54.0	15.1	0.00e+00	0	23	0	1151336448	70	4443
2026-01-12 09:16:00.62	337.93	22.35	-52.0	-53.9	15.1	0.00e+00	0	23	0	1153433600	70	4402
2026-01-12 09:16:01.63	337.89	22.21	-52.0	-54.0	15.1	0.00e+00	0	23	0	1155530752	70	4442
2026-01-12 09:16:02.64	337.85	22.07	-52.1	-54.0	15.0	0.00e+00	0	23	0	1157627904	70	4476
2026-01-12 09:16:03.65	337.81	21.93	-52.1	-54.0	15.0	0.00e+00	0	22	0	1158676480	70	4492
2026-01-12 09:16:04.65	337.77	21.79	-52.1	-54.0	15.0	0.00e+00	0	23	0	1160773632	70	4465
2026-01-12 09:16:05.66	337.73	21.65	-52.2	-54.2	14.9	0.00e+00	0	23	0	1162870784	70	4562
2026-01-12 09:16:06.66	337.69	21.51	-52.2	-54.2	14.9	0.00e+00	0	23	0	1164967936	70	4571
2026-01-12 09:16:07.67	337.65	21.37	-52.2	-54.2	14.9	0.00e+00	0	23	0	1167065088	70	4589
2026-01-12 09:16:08.68	337.61	21.24	-52.3	-54.4	14.8	0.00e+00	0	23	0	1168113664	70	4658
2026-01-12 09:16:09.69	337.57	21.10	-52.4	-54.5	14.6	0.00e+00	0	23	0	1170210816	70	4714
2026-01-12 09:16:10.69	337.53	20.96	-52.4	-54.5	14.7	0.00e+00	0	23	0	1172307968	70	4749
2026-01-12 09:16:11.70	337.49	20.83	-52.6	-54.7	14.6	7.00e-07	0	22	0	1174405120	70	4839
2026-01-12 09:16:12.71	337.45	20.70	-52.6	-54.7	14.6	0.00e+00	0	23	0	1176502272	70	4842
2026-01-12 09:16:13.71	337.42	20.56	-52.6	-54.8	14.5	0.00e+00	0	23	0	1177550848	70	4884
2026-01-12 09:16:14.72	337.38	20.43	-52.7	-54.9	14.5	0.00e+00	0	23	0	1179648000	70	4951
2026-01-12 09:16:15.73	337.34	20.30	-52.8	-55.0	14.4	0.00e+00	0	23	0	1181745152	70	5002
2026-01-12 09:16:16.74	337.30	20.17	-52.7	-54.9	14.5	0.00e+00	0	23	0	1183842304	70	4962
2026-01-12 09:16:17.75	337.27	20.04	-52.8	-55.0	14.4	0.00e+00	0	23	0	1185939456	70	4990
2026-01-12 09:16:18.75	337.23	19.91	-52.8	-55.1	14.4	0.00e+00	0	23	0	1186988032	70	5050
2026-01-12 09:16:19.76	337.20	19.78	-52.7	-54.9	14.5	0.00e+00	0	23	0	1189085184	70	4953
2026-01-12 09:16:20.77	337.16	19.65	-52.7	-55.0	14.4	0.00e+00	0	23	0	1191182336	70	4988
2026-01-12 09:16:21.77	337.13	19.52	-52.7	-54.9	14.5	0.00e+00	0	23	0	1193279488	70	4957
2026-01-12 09:16:22.78	337.09	19.40	-52.8	-55.0	14.4	0.00e+00	0	23	0	1195376640	70	5025
2026-01-12 09:16:23.79	337.06	19.27	-52.8	-55.0	14.4	0.00e+00	0	23	0	1196425216	70	5014
2026-01-12 09:16:24.80	337.02	19.14	-52.7	-55.0	14.4	0.00e+00	0	23	0	1198522368	70	4999
2026-01-12 09:16:25.81	336.99	19.02	-52.8	-55.0	14.4	0.00e+00	0	22	0	1200619520	70	4999
2026-01-12 09:16:26.81	336.96	18.89	-52.8	-55.1	14.4	0.00e+00	0	23	0	1202716672	70	5052
2026-01-12 09:16:27.82	336.92	18.77	-52.8	-55.1	14.4	0.00e+00	0	23	0	1204813824	70	5043
2026-01-12 09:16:28.83	336.89	18.65	-52.8	-55.1	14.3	0.00e+00	0	23	0	1205862400	70	5078
2026-01-12 09:16:29.84	336.86	18.52	-52.8	-55.0	14.4	0.00e+00	0	23	0	1207959552	70	5041
2026-01-12 09:16:30.84	336.83	18.40	-52.8	-55.0	14.4	0.00e+00	0	23	0	1210056704	70	5005
2026-01-12 09:16:31.85	336.80	18.28	-52.8	-55.1	14.3	0.00e+00	0	22	0	1212153856	70	5072
2026-01-12 09:16:32.86	336.76	18.16	-52.9	-55.2	14.4	0.00e+00	0	23	0	1214251008	71	4822
2026-01-12 09:16:33.87	336.73	18.04	-52.9	-55.1	14.5	0.00e+00	0	23	0	1215299584	71	4799
2026-01-12 09:16:34.88	336.70	17.92	-53.0	-55.3	14.4	0.00e+00	0	23	0	1217396736	71	4887
2026-01-12 09:16:35.88	336.67	17.80	-52.9	-55.2	14.4	0.00e+00	0	23	0	1219493888	71	4821
2026-01-12 09:16:36.89	336.64	17.68	-53.0	-55.3	14.3	0.00e+00	0	23	0	1221591040	71	4888
2026-01-12 09:16:37.89	336.61	17.56	-53.0	-55.3	14.4	0.00e+00	0	23	0	1223688192	71	4872
2026-01-12 09:16:38.90	336.58	17.44	-52.9	-55.1	14.4	0.00e+00	0	23	0	1224736768	71	4807
2026-01-12 09:16:39.91	336.55	17.33	-52.9	-55.1	14.5	0.00e+00	0	23	0	1226833920	71	4792
2026-01-12 09:16:40.92	336.52	17.21	-52.9	-55.2	14.4	0.00e+00	0	23	0	1228931072	71	4835
2026-01-12 09:16:41.91	336.49	17.10	-52.9	-55.1	14.5	0.00e+00	0	23	0	1231028224	71	4801
2026-01-12 09:16:42.92	336.46	16.98	-52.9	-55.2	14.5	0.00e+00	0	23	0	1233125376	71	4818
2026-01-12 09:16:43.93	336.44	16.87	-52.9	-55.2	14.4	0.00e+00	0	23	0	1234173952	71	4860
2026-01-12 09:16:44.93	336.41	16.75	-53.0	-55.3	14.3	0.00e+00	0	23	0	1236271104	71	4879
2026-01-12 09:16:45.94	336.38	16.64	-53.0	-55.4	14.3	0.00e+00	0	23	0	1238368256	71	4932
2026-01-12 09:16:46.94	336.35	16.53	-53.1	-55.5	14.2	0.00e+00	0	23	0	1240465408	71	5008
2026-01-12 09:16:47.94	336.32	16.41	-53.1	-55.5	14.2	0.00e+00	0	23	0	1242562560	71	4994
2026-01-12 09:16:48.95	336.30	16.30	-53.1	-55.5	14.2	0.00e+00	0	23	0	1243611136	71	5029
