passes_logs/2026/01/12/R3.2S_Murmansk/R3.2S_Murmansk__20260112_040810_NOAA_20_JPSS-1_rec.log

#Pass ID: 20260112_040810_NOAA 20 (JPSS-1)
#Satellite: NOAA 20 (JPSS-1)
#Configuration: NOAA 20
#almurnet v.1.7.20251203
#Start time: 2026-01-12 04:08:12

#Version: 2.2.20231116
#Station: R3.2S_Murmansk
#Location: 33.079688 lon 68.888172 lat
#TLE: 1 43013U 17073A   26011.59429536  .00000082  00000+0  59704-4 0  9990
#TLE: 2 43013  98.7632 312.5697 0001637  44.2118 315.9188 14.19535307422256

#Time	Az	El	Level	Level2	SNR	BER	BlckErr	Temp	State	Recorded	gain1	gain2
2026-01-12 04:08:12.18	48.55	2.08	-53.8	-70.0	3.8	1.49e+00	0	20	0	0	72	25131
2026-01-12 04:08:13.19	48.49	2.14	-53.8	-70.0	3.8	1.49e+00	0	20	104	0	72	25135
2026-01-12 04:08:14.20	48.43	2.19	-53.7	-70.0	3.8	1.49e+00	0	21	104	0	72	25100
2026-01-12 04:08:15.21	48.37	2.25	-53.7	-70.0	3.8	1.49e+00	0	21	104	0	72	25161
2026-01-12 04:08:16.22	48.31	2.31	-53.7	-70.0	3.8	1.49e+00	0	21	104	0	72	25126
2026-01-12 04:08:17.23	48.25	2.37	-53.8	-70.0	3.8	1.49e+00	0	21	104	0	72	25122
2026-01-12 04:08:18.24	48.18	2.43	-53.7	-70.0	3.8	1.49e+00	0	21	104	0	72	25124
2026-01-12 04:08:19.25	48.12	2.49	-53.7	-70.0	3.8	1.49e+00	0	21	104	0	72	25139
2026-01-12 04:08:20.26	48.06	2.55	-53.8	-70.0	3.8	1.49e+00	0	21	104	0	72	25086
2026-01-12 04:08:21.26	48.00	2.60	-53.8	-70.0	3.8	1.49e+00	0	21	104	0	72	25124
2026-01-12 04:08:22.27	47.93	2.66	-53.7	-70.0	3.8	1.49e+00	0	21	104	0	72	25163
2026-01-12 04:08:23.28	47.87	2.72	-53.7	-70.0	3.8	1.49e+00	0	21	104	0	72	25159
2026-01-12 04:08:24.29	47.81	2.78	-53.7	-70.0	3.8	1.49e+00	0	21	104	0	72	25204
2026-01-12 04:08:25.30	47.74	2.84	-53.7	-70.0	3.8	1.49e+00	0	21	104	0	72	25145
2026-01-12 04:08:26.30	47.68	2.90	-53.8	-70.0	3.8	1.49e+00	0	21	104	0	72	25226
2026-01-12 04:08:27.31	47.61	2.96	-53.8	-70.0	3.8	1.49e+00	0	21	104	0	72	25240
2026-01-12 04:08:28.32	47.55	3.02	-53.8	-70.0	3.8	1.49e+00	0	21	104	0	72	25195
2026-01-12 04:08:29.33	47.48	3.08	-53.8	-70.0	3.8	1.49e+00	0	21	104	0	72	25171
2026-01-12 04:08:30.34	47.42	3.14	-53.8	-70.0	3.8	1.49e+00	0	21	104	0	72	25225
2026-01-12 04:08:31.35	47.35	3.20	-53.9	-70.0	3.8	1.49e+00	0	21	104	0	72	25157
2026-01-12 04:08:32.36	47.29	3.26	-53.8	-70.0	3.8	1.49e+00	0	21	104	0	72	25121
2026-01-12 04:08:33.37	47.22	3.32	-53.8	-70.0	3.8	1.49e+00	0	21	104	0	72	25249
2026-01-12 04:08:34.38	47.15	3.38	-53.8	-70.0	3.8	1.49e+00	0	21	104	0	72	25233
2026-01-12 04:08:35.38	47.09	3.44	-53.8	-70.0	3.8	1.49e+00	0	21	104	0	72	25174
2026-01-12 04:08:36.39	47.02	3.50	-53.8	-70.0	3.8	1.49e+00	0	21	104	0	72	25195
2026-01-12 04:08:37.40	46.95	3.56	-53.8	-70.0	3.8	1.49e+00	0	21	104	0	72	25173
2026-01-12 04:08:38.41	46.88	3.62	-53.8	-70.0	3.8	1.49e+00	0	21	104	0	72	25202
2026-01-12 04:08:39.42	46.82	3.68	-53.8	-70.1	3.8	1.49e+00	0	21	104	0	72	25307
2026-01-12 04:08:40.43	46.75	3.74	-53.8	-70.1	3.8	1.49e+00	0	21	104	0	72	25307
2026-01-12 04:08:41.43	46.68	3.80	-53.8	-70.0	3.8	1.49e+00	0	21	104	0	72	25250
2026-01-12 04:08:42.44	46.61	3.86	-53.8	-70.0	3.8	1.49e+00	0	21	104	0	72	25244
2026-01-12 04:08:43.45	46.54	3.92	-53.8	-70.0	3.8	1.49e+00	0	21	104	0	72	25192
2026-01-12 04:08:44.46	46.47	3.98	-53.8	-70.1	3.8	1.49e+00	0	21	104	0	72	25295
2026-01-12 04:08:45.47	46.40	4.04	-53.8	-70.1	3.8	1.49e+00	0	21	104	0	72	25270
2026-01-12 04:08:46.47	46.33	4.10	-53.8	-70.0	3.8	1.49e+00	0	21	104	0	72	25257
2026-01-12 04:08:47.48	46.26	4.16	-53.8	-70.0	3.8	1.49e+00	0	21	104	0	72	25242
2026-01-12 04:08:48.49	46.19	4.23	-53.8	-70.0	3.8	1.49e+00	0	21	104	0	72	25264
2026-01-12 04:08:49.50	46.12	4.29	-53.9	-70.0	3.8	1.49e+00	0	21	104	0	72	25267
2026-01-12 04:08:50.51	46.05	4.35	-53.8	-70.1	3.8	1.49e+00	0	22	104	0	72	25282
2026-01-12 04:08:51.52	45.98	4.41	-53.8	-70.1	3.8	1.49e+00	0	21	104	0	72	25281
2026-01-12 04:08:52.53	45.90	4.47	-53.8	-70.0	3.8	1.49e+00	0	21	104	0	72	25237
2026-01-12 04:08:53.54	45.83	4.53	-53.8	-70.0	3.8	1.49e+00	0	21	104	0	72	25259
2026-01-12 04:08:54.55	45.76	4.60	-53.8	-70.0	3.8	1.49e+00	0	21	104	0	72	25205
2026-01-12 04:08:55.55	45.69	4.66	-53.8	-70.1	3.8	1.49e+00	0	21	104	0	72	25317
2026-01-12 04:08:56.56	45.61	4.72	-53.8	-70.1	3.8	1.49e+00	0	22	104	0	72	25269
2026-01-12 04:08:57.58	45.54	4.78	-53.9	-70.1	3.8	1.49e+00	0	22	104	0	72	25375
2026-01-12 04:08:58.58	45.47	4.84	-53.8	-70.1	3.8	1.49e+00	0	22	104	0	72	25322
2026-01-12 04:08:59.59	45.39	4.91	-53.8	-70.1	3.8	1.49e+00	0	22	104	0	72	25322
2026-01-12 04:09:00.60	45.32	4.97	-53.8	-70.1	3.8	1.49e+00	0	22	104	0	72	25307
2026-01-12 04:09:01.61	45.24	5.03	-53.9	-70.1	3.8	1.49e+00	0	21	104	0	72	25324
2026-01-12 04:09:02.62	45.17	5.10	-53.9	-70.1	3.8	1.49e+00	0	21	104	0	72	25344
2026-01-12 04:09:03.63	45.09	5.16	-53.8	-70.1	3.8	1.49e+00	0	22	104	0	72	25303
2026-01-12 04:09:04.64	45.01	5.22	-53.9	-70.1	3.8	1.49e+00	0	22	104	0	72	25299
2026-01-12 04:09:05.65	44.94	5.28	-53.8	-70.1	3.8	1.49e+00	0	22	104	0	72	25327
2026-01-12 04:09:06.66	44.86	5.35	-53.8	-70.1	3.8	1.49e+00	0	22	104	0	72	25370
2026-01-12 04:09:07.67	44.78	5.41	-53.8	-70.1	3.8	1.49e+00	0	22	104	0	72	25348
2026-01-12 04:09:08.67	44.71	5.47	-53.9	-70.1	3.8	1.49e+00	0	22	104	0	72	25337
2026-01-12 04:09:09.68	44.63	5.54	-53.8	-70.1	3.8	1.49e+00	0	22	104	0	72	25330
2026-01-12 04:09:10.69	44.55	5.60	-53.9	-70.1	3.8	1.49e+00	0	22	104	0	72	25316
2026-01-12 04:09:11.69	44.47	5.66	-53.9	-70.1	3.8	1.49e+00	0	22	104	0	72	25393
2026-01-12 04:09:12.70	44.40	5.73	-53.9	-70.1	3.8	1.49e+00	0	22	104	0	72	25356
2026-01-12 04:09:13.71	44.32	5.79	-53.9	-70.1	3.8	1.49e+00	0	22	104	0	72	25315
2026-01-12 04:09:14.72	44.24	5.85	-53.9	-70.1	3.8	1.49e+00	0	22	104	0	72	25271
2026-01-12 04:09:15.73	44.16	5.92	-53.9	-70.1	3.8	1.49e+00	0	22	104	0	72	25312
2026-01-12 04:09:16.74	44.08	5.98	-53.8	-70.1	3.8	1.49e+00	0	22	104	0	72	25341
2026-01-12 04:09:17.75	44.00	6.05	-53.9	-70.1	3.8	1.49e+00	0	22	104	0	72	25336
2026-01-12 04:09:18.76	43.91	6.11	-53.8	-70.1	3.8	1.49e+00	0	22	104	0	72	25322
2026-01-12 04:09:19.77	43.83	6.18	-53.8	-70.1	3.8	1.49e+00	0	22	104	0	72	25361
2026-01-12 04:09:20.78	43.75	6.24	-53.8	-70.1	3.8	1.49e+00	0	22	104	0	72	25358
2026-01-12 04:09:21.78	43.67	6.30	-53.8	-70.1	3.8	1.49e+00	0	22	104	0	72	25372
2026-01-12 04:09:22.80	43.59	6.37	-53.7	-70.1	3.8	1.49e+00	0	22	104	0	72	25376
2026-01-12 04:09:23.80	43.50	6.43	-53.8	-70.1	3.8	1.49e+00	0	22	104	0	72	25343
2026-01-12 04:09:24.81	43.42	6.50	-53.7	-70.1	3.8	1.49e+00	0	22	104	0	72	25378
2026-01-12 04:09:25.82	43.34	6.56	-53.8	-70.1	3.8	1.49e+00	0	22	104	0	72	25396
2026-01-12 04:09:26.83	43.25	6.63	-53.7	-70.1	3.8	1.49e+00	0	22	104	0	72	25399
2026-01-12 04:09:27.84	43.17	6.70	-53.7	-70.1	3.8	1.49e+00	0	22	104	0	72	25461
2026-01-12 04:09:28.85	43.08	6.76	-53.7	-70.1	3.8	1.49e+00	0	22	104	0	72	25395
2026-01-12 04:09:29.86	43.00	6.83	-53.8	-70.1	3.8	1.49e+00	0	22	104	0	72	25322
2026-01-12 04:09:30.86	42.91	6.89	-53.8	-70.1	3.8	1.49e+00	0	22	104	0	72	25376
2026-01-12 04:09:31.87	42.83	6.96	-53.8	-70.1	3.8	1.49e+00	0	22	104	0	72	25393
2026-01-12 04:09:32.88	42.74	7.02	-53.9	-70.1	3.8	1.49e+00	0	22	104	0	72	25390
2026-01-12 04:09:33.89	42.65	7.09	-53.8	-70.1	3.8	1.49e+00	0	22	104	0	72	25366
2026-01-12 04:09:34.90	42.57	7.15	-53.8	-70.1	3.8	1.49e+00	0	22	104	0	72	25463
2026-01-12 04:09:35.91	42.48	7.22	-53.9	-70.1	3.8	1.49e+00	0	22	104	0	72	25420
2026-01-12 04:09:36.92	42.39	7.29	-53.9	-70.1	3.8	1.49e+00	0	22	104	0	72	25417
2026-01-12 04:09:37.93	42.30	7.35	-53.8	-70.1	3.8	1.49e+00	0	22	104	0	72	25459
2026-01-12 04:09:38.93	42.21	7.42	-53.9	-70.1	3.8	1.49e+00	0	22	104	0	72	25397
2026-01-12 04:09:39.94	42.12	7.49	-53.8	-70.1	3.8	1.49e+00	0	22	104	0	72	25386
2026-01-12 04:09:40.95	42.03	7.55	-53.8	-70.1	3.8	1.49e+00	0	22	104	0	72	25473
2026-01-12 04:09:41.96	41.94	7.62	-53.8	-70.1	3.8	1.49e+00	0	22	104	0	72	25441
2026-01-12 04:09:42.97	41.85	7.69	-53.9	-70.1	3.8	1.49e+00	0	22	104	0	72	25442
2026-01-12 04:09:43.98	41.76	7.75	-53.9	-70.1	3.8	1.49e+00	0	22	104	0	73	24053
2026-01-12 04:09:44.99	41.67	7.82	-53.9	-70.1	3.8	1.49e+00	0	22	104	0	73	24103
2026-01-12 04:09:45.99	41.58	7.89	-53.9	-70.1	3.8	1.49e+00	0	22	104	0	73	24062
2026-01-12 04:09:47.00	41.49	7.95	-53.9	-70.2	3.8	1.49e+00	0	22	104	0	73	24142
2026-01-12 04:09:48.02	41.39	8.02	-53.9	-70.2	3.8	1.49e+00	0	22	104	0	73	24145
2026-01-12 04:09:49.02	41.30	8.09	-53.9	-70.1	3.8	1.49e+00	0	22	104	0	73	24120
2026-01-12 04:09:50.03	41.21	8.16	-53.9	-70.1	3.8	1.49e+00	0	22	104	0	73	24058
2026-01-12 04:09:51.04	41.11	8.22	-53.9	-70.1	3.8	1.49e+00	0	22	104	0	73	24089
2026-01-12 04:09:52.05	41.02	8.29	-53.9	-70.1	3.8	1.49e+00	0	22	104	0	73	24115
2026-01-12 04:09:53.06	40.92	8.36	-53.9	-70.1	3.8	1.49e+00	0	22	104	0	73	24088
2026-01-12 04:09:54.07	40.83	8.43	-53.9	-70.1	3.8	1.49e+00	0	22	104	0	73	24069
2026-01-12 04:09:55.08	40.73	8.50	-53.9	-70.1	3.8	1.49e+00	0	22	104	0	73	24085
2026-01-12 04:09:56.09	40.63	8.56	-53.9	-70.1	3.8	1.49e+00	0	22	104	0	73	24104
2026-01-12 04:09:57.09	40.54	8.63	-53.9	-70.1	3.8	1.49e+00	0	22	104	0	73	24125
2026-01-12 04:09:58.10	40.44	8.70	-54.0	-70.1	3.8	1.49e+00	0	22	104	0	73	24026
2026-01-12 04:09:59.11	40.34	8.77	-53.9	-70.1	3.8	1.49e+00	0	22	104	0	73	24108
2026-01-12 04:10:00.11	40.25	8.84	-54.0	-70.1	3.8	1.49e+00	0	22	104	0	73	24091
2026-01-12 04:10:01.12	40.15	8.91	-54.0	-70.1	3.8	1.49e+00	0	22	104	0	73	24067
2026-01-12 04:10:02.13	40.05	8.98	-54.0	-70.1	3.8	1.49e+00	0	22	104	0	73	24074
2026-01-12 04:10:03.14	39.95	9.04	-54.0	-70.1	3.8	1.49e+00	0	22	104	0	73	24081
2026-01-12 04:10:04.15	39.85	9.11	-54.0	-70.1	3.8	1.49e+00	0	22	104	0	73	24109
2026-01-12 04:10:05.16	39.75	9.18	-54.0	-70.1	3.8	1.49e+00	0	22	104	0	73	24095
2026-01-12 04:10:06.17	39.64	9.25	-54.0	-70.1	3.8	1.49e+00	0	22	104	0	73	24047
2026-01-12 04:10:07.17	39.54	9.32	-54.0	-70.1	3.8	1.49e+00	0	22	104	0	73	24086
2026-01-12 04:10:08.18	39.44	9.39	-53.9	-70.1	3.8	1.49e+00	0	22	104	0	73	24126
2026-01-12 04:10:09.19	39.34	9.46	-54.0	-70.1	3.8	1.49e+00	0	22	104	0	73	24084
2026-01-12 04:10:10.21	39.23	9.53	-54.0	-70.1	3.8	1.49e+00	0	22	104	0	73	24112
2026-01-12 04:10:11.22	39.13	9.60	-53.9	-70.1	3.8	1.49e+00	0	22	104	0	73	24115
2026-01-12 04:10:12.22	39.03	9.67	-53.9	-70.2	3.8	1.49e+00	0	22	104	0	73	24143
2026-01-12 04:10:13.23	38.92	9.74	-53.9	-70.2	3.8	1.49e+00	0	22	104	0	73	24131
2026-01-12 04:10:14.24	38.82	9.81	-53.9	-70.2	3.8	1.49e+00	0	22	104	0	73	24143
2026-01-12 04:10:15.25	38.71	9.88	-53.9	-70.2	3.8	1.49e+00	0	22	104	0	73	24137
2026-01-12 04:10:16.26	38.60	9.95	-53.8	-70.2	3.8	1.49e+00	0	22	104	0	73	24180
2026-01-12 04:10:17.27	38.50	10.02	-53.9	-70.2	3.8	1.49e+00	0	22	104	0	73	24200
2026-01-12 04:10:18.27	38.39	10.09	-53.9	-70.2	3.8	1.49e+00	0	22	104	0	73	24148
2026-01-12 04:10:19.29	38.28	10.16	-53.9	-70.1	3.8	1.49e+00	0	22	104	0	73	24124
2026-01-12 04:10:20.30	38.17	10.23	-53.9	-70.1	3.8	1.49e+00	0	22	104	0	73	24103
2026-01-12 04:10:21.30	38.06	10.30	-53.9	-70.2	3.8	1.49e+00	0	22	104	0	73	24142
2026-01-12 04:10:22.31	37.95	10.37	-53.9	-70.2	3.8	1.49e+00	0	22	104	0	73	24177
2026-01-12 04:10:23.32	37.84	10.44	-53.9	-70.2	3.8	1.49e+00	0	22	104	0	73	24153
2026-01-12 04:10:24.33	37.73	10.52	-53.9	-70.1	3.8	1.49e+00	0	22	104	0	73	24124
2026-01-12 04:10:25.34	37.62	10.59	-53.9	-70.2	3.8	1.49e+00	0	22	104	0	73	24168
2026-01-12 04:10:26.35	37.51	10.66	-53.9	-70.1	3.8	1.49e+00	0	22	104	0	73	24128
2026-01-12 04:10:27.35	37.40	10.73	-54.0	-70.1	3.8	1.49e+00	0	22	104	0	73	24059
2026-01-12 04:10:28.36	37.29	10.80	-53.9	-70.1	3.8	1.49e+00	0	22	104	0	73	24072
2026-01-12 04:10:29.37	37.17	10.87	-54.0	-70.1	3.8	1.49e+00	0	22	104	0	73	24123
2026-01-12 04:10:30.36	37.06	10.94	-54.0	-70.2	3.8	1.49e+00	0	22	104	0	73	24181
2026-01-12 04:10:31.37	36.95	11.01	-54.0	-70.2	3.8	1.49e+00	0	23	104	0	73	24172
2026-01-12 04:10:32.38	36.83	11.09	-53.9	-70.1	3.8	1.49e+00	0	22	104	0	73	24090
2026-01-12 04:10:33.39	36.71	11.16	-54.0	-70.1	3.8	1.49e+00	0	22	104	0	73	24081
2026-01-12 04:10:34.40	36.60	11.23	-53.9	-70.1	3.8	1.49e+00	0	22	104	0	73	24069
2026-01-12 04:10:35.41	36.48	11.30	-54.0	-70.1	3.8	1.49e+00	0	22	104	0	73	24128
2026-01-12 04:10:36.42	36.36	11.38	-53.9	-70.2	3.8	1.49e+00	0	22	104	0	73	24211
2026-01-12 04:10:37.42	36.25	11.45	-53.9	-70.2	3.8	1.49e+00	0	22	104	0	73	24183
2026-01-12 04:10:38.43	36.13	11.52	-53.9	-70.2	3.8	1.49e+00	0	23	104	0	73	24154
2026-01-12 04:10:39.44	36.01	11.59	-53.9	-70.2	3.8	1.49e+00	0	22	104	0	73	24195
2026-01-12 04:10:40.45	35.89	11.66	-53.9	-70.2	3.8	1.49e+00	0	23	104	0	73	24198
2026-01-12 04:10:41.46	35.77	11.74	-54.0	-70.2	3.8	1.49e+00	0	23	104	0	73	24143
2026-01-12 04:10:42.46	35.65	11.81	-53.9	-70.1	3.8	1.49e+00	0	22	104	0	73	24125
2026-01-12 04:10:43.47	35.52	11.88	-54.0	-70.2	3.8	1.49e+00	0	23	104	0	73	24147
2026-01-12 04:10:44.48	35.40	11.96	-53.9	-70.2	3.8	1.49e+00	0	22	104	0	73	24184
2026-01-12 04:10:45.49	35.28	12.03	-53.9	-70.1	3.8	1.49e+00	0	22	104	0	73	24110
2026-01-12 04:10:46.50	35.15	12.10	-53.9	-70.2	3.8	1.49e+00	0	23	104	0	73	24159
2026-01-12 04:10:47.51	35.03	12.17	-53.9	-70.2	3.8	1.49e+00	0	23	104	0	73	24141
2026-01-12 04:10:48.52	34.90	12.25	-53.9	-70.1	3.8	1.49e+00	0	22	104	0	73	24092
2026-01-12 04:10:49.53	34.78	12.32	-53.9	-70.2	3.8	1.49e+00	0	22	104	0	73	24152
2026-01-12 04:10:50.54	34.65	12.40	-53.9	-70.2	3.8	1.49e+00	0	22	104	0	73	24177
2026-01-12 04:10:51.55	34.53	12.47	-53.9	-70.1	3.8	1.49e+00	0	22	104	0	73	24116
2026-01-12 04:10:52.56	34.40	12.54	-53.9	-70.2	3.8	1.49e+00	0	22	104	0	73	24148
2026-01-12 04:10:53.56	34.27	12.62	-53.9	-70.2	3.8	1.49e+00	0	23	104	0	73	24163
2026-01-12 04:10:54.57	34.14	12.69	-53.9	-70.2	3.8	1.49e+00	0	23	104	0	73	24163
2026-01-12 04:10:55.58	34.01	12.76	-53.9	-70.1	3.8	1.49e+00	0	22	104	0	73	24126
2026-01-12 04:10:56.59	33.88	12.84	-53.9	-70.2	3.8	1.49e+00	0	22	104	0	73	24175
2026-01-12 04:10:57.59	33.75	12.91	-53.9	-70.2	3.8	1.49e+00	0	23	104	0	73	24204
2026-01-12 04:10:58.60	33.62	12.98	-53.9	-70.2	3.8	1.49e+00	0	22	104	0	73	24211
2026-01-12 04:10:59.61	33.49	13.06	-53.9	-70.2	3.8	1.49e+00	0	23	104	0	73	24131
2026-01-12 04:11:00.62	33.35	13.13	-53.9	-70.2	3.8	1.49e+00	0	22	104	0	73	24157
2026-01-12 04:11:01.63	33.22	13.21	-53.9	-70.1	3.8	1.49e+00	0	23	104	0	73	24129
2026-01-12 04:11:02.64	33.09	13.28	-53.9	-70.2	3.8	1.49e+00	0	22	104	0	73	24171
2026-01-12 04:11:03.65	32.95	13.36	-54.0	-70.1	3.8	1.49e+00	0	23	104	0	73	24103
2026-01-12 04:11:04.66	32.82	13.43	-54.0	-70.2	3.8	1.49e+00	0	22	104	0	73	24197
2026-01-12 04:11:05.67	32.68	13.51	-54.0	-70.1	3.8	1.49e+00	0	23	104	0	73	24116
2026-01-12 04:11:06.68	32.54	13.58	-53.9	-70.1	3.8	1.49e+00	0	23	104	0	73	24107
2026-01-12 04:11:07.69	32.40	13.66	-53.9	-70.1	3.8	1.49e+00	0	23	104	0	73	24085
2026-01-12 04:11:08.70	32.27	13.73	-53.9	-70.2	3.8	1.49e+00	0	22	104	0	73	24138
2026-01-12 04:11:09.71	32.13	13.80	-53.9	-70.1	3.8	1.49e+00	0	23	104	0	73	24107
2026-01-12 04:11:10.71	31.99	13.88	-53.9	-70.1	3.8	1.49e+00	0	23	104	0	73	24093
2026-01-12 04:11:11.73	31.84	13.95	-53.9	-70.2	3.8	1.49e+00	0	22	104	0	73	24178
2026-01-12 04:11:12.73	31.70	14.03	-53.9	-70.1	3.8	1.49e+00	0	23	104	0	73	24094
2026-01-12 04:11:13.74	31.56	14.10	-53.9	-70.2	3.8	1.49e+00	0	23	104	0	73	24158
2026-01-12 04:11:14.75	31.42	14.18	-53.9	-70.1	3.8	1.49e+00	0	22	104	0	73	24128
2026-01-12 04:11:15.76	31.28	14.25	-53.9	-70.2	3.8	1.49e+00	0	22	104	0	73	24150
2026-01-12 04:11:16.77	31.13	14.33	-53.9	-70.1	3.8	1.49e+00	0	23	104	0	73	24088
2026-01-12 04:11:17.78	30.99	14.40	-53.9	-70.1	3.8	1.49e+00	0	22	104	0	73	24126
2026-01-12 04:11:18.78	30.84	14.48	-53.9	-70.2	3.8	1.49e+00	0	23	104	0	73	24151
2026-01-12 04:11:19.79	30.69	14.55	-53.9	-70.2	3.8	1.49e+00	0	22	104	0	73	24237
2026-01-12 04:11:20.81	30.55	14.63	-53.9	-70.1	3.8	1.49e+00	0	23	104	0	73	24109
2026-01-12 04:11:21.82	30.40	14.71	-53.9	-70.2	3.8	1.49e+00	0	22	104	0	73	24161
2026-01-12 04:11:22.82	30.25	14.78	-54.0	-70.1	3.8	1.49e+00	0	22	104	0	73	24089
2026-01-12 04:11:23.84	30.10	14.86	-53.9	-70.1	3.8	1.49e+00	0	23	104	0	73	24083
2026-01-12 04:11:24.85	29.95	14.93	-53.9	-70.2	3.8	1.49e+00	0	22	104	0	73	24181
2026-01-12 04:11:25.86	29.80	15.01	-54.0	-70.2	3.8	1.49e+00	0	22	104	0	73	24165
2026-01-12 04:11:26.86	29.65	15.08	-53.9	-70.1	3.8	1.49e+00	0	23	104	0	73	24128
2026-01-12 04:11:27.87	29.49	15.16	-54.0	-70.2	3.8	1.49e+00	0	23	104	0	73	24133
2026-01-12 04:11:28.88	29.34	15.23	-54.0	-70.2	3.8	1.49e+00	0	23	104	0	73	24146
2026-01-12 04:11:29.89	29.18	15.31	-54.0	-70.2	3.8	1.49e+00	0	23	104	0	73	24149
2026-01-12 04:11:30.90	29.03	15.39	-54.0	-70.2	3.8	1.49e+00	0	22	104	0	73	24186
2026-01-12 04:11:31.91	28.87	15.46	-53.9	-70.1	3.8	1.49e+00	0	23	104	0	73	24110
2026-01-12 04:11:32.92	28.72	15.54	-54.0	-70.2	3.8	1.49e+00	0	23	104	0	73	24139
2026-01-12 04:11:33.93	28.56	15.61	-53.9	-70.2	3.8	1.49e+00	0	23	104	0	73	24209
2026-01-12 04:11:34.94	28.40	15.69	-53.9	-70.1	3.8	1.49e+00	0	22	104	0	73	24105
2026-01-12 04:11:35.95	28.24	15.77	-53.9	-70.2	3.8	1.49e+00	0	23	104	0	73	24160
2026-01-12 04:11:36.96	28.08	15.84	-54.0	-70.2	3.8	1.49e+00	0	22	104	0	73	24162
2026-01-12 04:11:37.96	27.92	15.92	-54.0	-70.2	3.8	1.49e+00	0	23	104	0	73	24182
2026-01-12 04:11:38.97	27.76	15.99	-53.9	-70.2	3.8	1.49e+00	0	23	104	0	73	24131
2026-01-12 04:11:39.97	27.60	16.07	-54.0	-70.2	3.8	1.49e+00	0	23	104	0	73	24139
2026-01-12 04:11:40.98	27.43	16.14	-54.0	-70.2	3.8	1.49e+00	0	23	104	0	73	24241
2026-01-12 04:11:41.99	27.27	16.22	-53.9	-70.2	3.8	1.49e+00	0	23	104	0	73	24198
2026-01-12 04:11:42.99	27.11	16.29	-53.9	-70.2	3.8	1.49e+00	0	22	104	0	73	24147
2026-01-12 04:11:43.99	26.94	16.37	-54.0	-70.2	3.8	1.49e+00	0	23	104	0	73	24154
2026-01-12 04:11:45.00	26.77	16.44	-54.0	-70.2	3.8	1.49e+00	0	23	104	0	73	24162
2026-01-12 04:11:46.01	26.61	16.52	-54.0	-70.2	3.8	1.49e+00	0	22	104	0	73	24164
2026-01-12 04:11:47.01	26.44	16.60	-54.0	-70.2	3.8	1.49e+00	0	23	104	0	73	24137
2026-01-12 04:11:48.02	26.27	16.67	-54.0	-70.2	3.8	1.49e+00	0	23	104	0	73	24174
2026-01-12 04:11:49.03	26.10	16.75	-54.0	-70.2	3.8	1.49e+00	0	23	104	0	73	24170
2026-01-12 04:11:50.04	25.93	16.82	-54.0	-70.1	3.8	1.49e+00	0	23	104	0	73	24117
2026-01-12 04:11:51.06	25.75	16.90	-53.9	-70.2	3.8	1.49e+00	0	23	104	0	73	24137
2026-01-12 04:11:52.06	25.58	16.97	-54.0	-70.1	3.8	1.49e+00	0	23	104	0	73	24095
2026-01-12 04:11:53.06	25.41	17.05	-54.0	-70.2	3.8	1.49e+00	0	23	104	0	73	24154
2026-01-12 04:11:54.07	25.24	17.12	-54.0	-70.2	3.8	1.49e+00	0	23	104	0	73	24192
2026-01-12 04:11:55.08	25.06	17.20	-54.0	-70.2	3.8	1.49e+00	0	23	104	0	73	24177
2026-01-12 04:11:56.08	24.89	17.27	-54.0	-70.2	3.8	1.49e+00	0	23	104	0	73	24166
2026-01-12 04:11:57.09	24.71	17.35	-53.9	-70.1	3.8	1.49e+00	0	22	104	0	73	24053
2026-01-12 04:11:58.09	24.53	17.42	-54.0	-70.1	3.8	1.49e+00	0	23	104	0	73	24110
2026-01-12 04:11:59.10	24.35	17.50	-53.9	-70.1	3.8	1.49e+00	0	23	104	0	73	24113
2026-01-12 04:12:00.11	24.17	17.57	-53.9	-70.1	3.8	1.49e+00	0	22	104	0	73	24112
2026-01-12 04:12:01.12	23.99	17.65	-54.0	-70.2	3.8	1.49e+00	0	23	104	0	73	24161
2026-01-12 04:12:02.13	23.81	17.72	-53.9	-70.1	3.8	1.49e+00	0	23	104	0	73	24130
2026-01-12 04:12:03.14	23.63	17.80	-53.9	-70.2	3.8	1.49e+00	0	23	104	0	73	24140
2026-01-12 04:12:04.15	23.44	17.87	-54.0	-70.2	3.8	1.49e+00	0	23	104	0	73	24157
2026-01-12 04:12:05.16	23.26	17.95	-53.9	-70.2	3.8	1.49e+00	0	23	104	0	73	24141
2026-01-12 04:12:06.17	23.07	18.02	-53.9	-70.2	3.8	1.49e+00	0	22	104	0	73	24160
2026-01-12 04:12:07.18	22.89	18.10	-53.9	-70.2	3.8	1.49e+00	0	22	104	0	73	24143
2026-01-12 04:12:08.19	22.70	18.17	-54.0	-70.2	3.8	1.49e+00	0	23	104	0	73	24158
2026-01-12 04:12:09.19	22.51	18.25	-54.0	-70.1	3.8	1.49e+00	0	23	104	0	73	24127
2026-01-12 04:12:10.20	22.32	18.32	-53.9	-70.2	3.8	1.49e+00	0	23	104	0	73	24176
2026-01-12 04:12:11.22	22.13	18.40	-53.9	-70.2	3.8	1.49e+00	0	23	104	0	73	24185
2026-01-12 04:12:12.22	21.94	18.47	-53.9	-70.2	3.8	1.49e+00	0	23	104	0	73	24247
2026-01-12 04:12:13.23	21.75	18.54	-53.9	-70.2	3.8	1.49e+00	0	23	104	0	73	24194
2026-01-12 04:12:14.23	21.56	18.62	-54.0	-70.2	3.8	1.49e+00	0	23	104	0	73	24235
2026-01-12 04:12:15.24	21.36	18.69	-53.9	-70.2	3.8	1.49e+00	0	23	104	0	73	24215
2026-01-12 04:12:16.25	21.17	18.76	-54.0	-70.2	3.8	1.49e+00	0	23	104	0	73	24144
2026-01-12 04:12:17.26	20.97	18.84	-54.0	-70.1	3.8	1.49e+00	0	23	104	0	73	24128
2026-01-12 04:12:18.27	20.77	18.91	-54.0	-70.2	3.8	1.49e+00	0	23	104	0	73	24143
2026-01-12 04:12:19.28	20.58	18.98	-54.0	-70.2	3.8	1.49e+00	0	23	104	0	73	24132
2026-01-12 04:12:20.29	20.38	19.06	-53.9	-70.2	3.8	1.49e+00	0	23	104	0	73	24180
2026-01-12 04:12:21.30	20.18	19.13	-53.9	-70.2	3.8	1.49e+00	0	23	104	0	73	24228
2026-01-12 04:12:22.31	19.98	19.20	-54.0	-70.2	3.8	1.49e+00	0	23	104	0	73	24169
2026-01-12 04:12:23.31	19.78	19.28	-54.0	-70.2	3.8	1.49e+00	0	23	104	0	73	24169
2026-01-12 04:12:24.32	19.57	19.35	-54.0	-70.2	3.8	1.49e+00	0	23	104	0	73	24132
2026-01-12 04:12:25.33	19.37	19.42	-54.0	-70.1	3.8	1.49e+00	0	22	104	0	73	24111
2026-01-12 04:12:26.34	19.16	19.49	-54.0	-70.2	3.8	1.49e+00	0	23	104	0	73	24158
2026-01-12 04:12:27.35	18.96	19.56	-54.0	-70.2	3.8	1.49e+00	0	22	104	0	73	24154
2026-01-12 04:12:28.36	18.75	19.64	-53.9	-70.2	3.8	1.49e+00	0	23	104	0	73	24196
2026-01-12 04:12:29.37	18.54	19.71	-54.0	-70.2	3.8	1.49e+00	0	23	104	0	73	24181
2026-01-12 04:12:30.38	18.34	19.78	-54.0	-70.2	3.8	1.49e+00	0	23	104	0	73	24222
2026-01-12 04:12:31.39	18.13	19.85	-53.9	-70.2	3.8	1.49e+00	0	23	104	0	73	24196
2026-01-12 04:12:32.40	17.92	19.92	-53.9	-70.2	3.8	1.49e+00	0	23	104	0	73	24190
2026-01-12 04:12:33.41	17.70	19.99	-53.9	-70.2	3.8	1.49e+00	0	23	104	0	73	24163
2026-01-12 04:12:34.42	17.49	20.06	-53.9	-70.2	3.8	1.49e+00	0	23	104	0	73	24134
2026-01-12 04:12:35.43	17.28	20.13	-54.0	-70.1	3.8	1.49e+00	0	23	104	0	73	24114
2026-01-12 04:12:36.43	17.06	20.20	-54.0	-70.2	3.8	1.49e+00	0	23	104	0	73	24180
2026-01-12 04:12:37.44	16.85	20.27	-54.0	-70.2	3.8	1.49e+00	0	22	104	0	73	24142
2026-01-12 04:12:38.45	16.63	20.34	-54.0	-70.2	3.8	1.49e+00	0	22	104	0	73	24201
2026-01-12 04:12:39.46	16.41	20.41	-54.0	-70.2	3.8	1.49e+00	0	23	104	0	73	24187
2026-01-12 04:12:40.47	16.20	20.48	-54.0	-70.2	3.8	1.49e+00	0	22	104	0	73	24174
2026-01-12 04:12:41.48	15.98	20.55	-54.0	-70.2	3.8	1.49e+00	0	23	104	0	73	24184
2026-01-12 04:12:42.49	15.76	20.62	-54.0	-70.2	3.8	1.49e+00	0	23	104	0	73	24139
2026-01-12 04:12:43.49	15.54	20.69	-54.0	-70.2	3.8	1.49e+00	0	23	104	0	73	24250
2026-01-12 04:12:44.50	15.31	20.75	-54.0	-70.2	3.8	1.49e+00	0	23	104	0	73	24187
2026-01-12 04:12:45.51	15.09	20.82	-53.9	-70.2	3.8	1.49e+00	0	23	104	0	73	24177
2026-01-12 04:12:46.52	14.87	20.89	-54.0	-70.2	3.8	1.49e+00	0	23	104	0	73	24276
2026-01-12 04:12:47.53	14.64	20.96	-54.0	-70.2	3.8	1.49e+00	0	23	104	0	73	24203
2026-01-12 04:12:48.54	14.41	21.02	-54.0	-70.2	3.8	1.49e+00	0	23	104	0	73	24245
2026-01-12 04:12:49.55	14.19	21.09	-54.0	-70.2	3.8	1.49e+00	0	23	104	0	73	24225
2026-01-12 04:12:50.56	13.96	21.16	-54.0	-70.2	3.8	1.49e+00	0	23	104	0	73	24215
2026-01-12 04:12:51.56	13.73	21.22	-54.0	-70.2	3.8	1.49e+00	0	23	104	0	73	24198
2026-01-12 04:12:52.57	13.50	21.29	-54.0	-70.2	3.8	1.49e+00	0	23	104	0	73	24281
2026-01-12 04:12:53.58	13.27	21.35	-53.9	-70.2	3.8	1.49e+00	0	23	104	0	73	24192
2026-01-12 04:12:54.59	13.04	21.42	-53.9	-70.2	3.8	1.49e+00	0	23	104	0	73	24227
2026-01-12 04:12:55.60	12.80	21.48	-53.9	-70.2	3.8	1.49e+00	0	23	104	0	73	24216
2026-01-12 04:12:56.61	12.57	21.55	-54.0	-70.2	3.8	1.49e+00	0	23	104	0	73	24195
2026-01-12 04:12:57.62	12.33	21.61	-54.0	-70.2	3.8	1.49e+00	0	23	104	0	73	24240
2026-01-12 04:12:58.62	12.10	21.67	-54.0	-70.2	3.8	1.49e+00	0	23	104	0	73	24214
2026-01-12 04:12:59.63	11.86	21.74	-54.0	-70.2	3.8	1.49e+00	0	23	104	0	73	24183
2026-01-12 04:13:00.64	11.62	21.80	-54.0	-70.2	3.8	1.49e+00	0	23	104	0	73	24147
2026-01-12 04:13:01.65	11.38	21.86	-54.0	-70.2	3.8	1.49e+00	0	23	104	0	73	24231
2026-01-12 04:13:02.66	11.14	21.92	-54.0	-70.2	3.8	1.49e+00	0	23	104	0	73	24221
2026-01-12 04:13:03.67	10.90	21.99	-54.0	-70.2	3.8	1.49e+00	0	23	104	0	73	24181
2026-01-12 04:13:04.68	10.66	22.05	-54.0	-70.2	3.8	1.49e+00	0	23	104	0	73	24167
2026-01-12 04:13:05.69	10.41	22.11	-54.0	-70.2	3.8	1.49e+00	0	23	104	0	73	24164
2026-01-12 04:13:06.70	10.17	22.17	-54.0	-70.2	3.8	1.49e+00	0	23	104	0	73	24248
2026-01-12 04:13:07.71	9.93	22.23	-54.0	-70.2	3.8	1.49e+00	0	23	104	0	73	24136
2026-01-12 04:13:08.72	9.68	22.29	-54.0	-70.2	3.8	1.49e+00	0	23	104	0	73	24248
2026-01-12 04:13:09.73	9.43	22.35	-54.0	-70.2	3.8	1.49e+00	0	23	104	0	73	24149
2026-01-12 04:13:10.74	9.18	22.41	-54.0	-70.2	3.8	1.49e+00	0	23	104	0	73	24167
2026-01-12 04:13:11.74	8.94	22.47	-54.0	-70.2	3.8	1.49e+00	0	23	104	0	73	24173
2026-01-12 04:13:12.75	8.69	22.52	-54.0	-70.2	3.8	1.49e+00	0	23	104	0	73	24214
2026-01-12 04:13:13.76	8.44	22.58	-54.0	-70.2	3.8	1.49e+00	0	23	104	0	73	24201
2026-01-12 04:13:14.77	8.18	22.64	-54.0	-70.2	3.8	1.49e+00	0	23	104	0	73	24244
2026-01-12 04:13:15.78	7.93	22.69	-54.0	-70.2	3.8	1.49e+00	0	23	104	0	73	24135
2026-01-12 04:13:16.79	7.68	22.75	-54.0	-70.2	3.8	1.49e+00	0	23	104	0	73	24262
2026-01-12 04:13:17.80	7.42	22.81	-54.0	-70.2	3.8	1.49e+00	0	23	104	0	73	24185
2026-01-12 04:13:18.81	7.17	22.86	-54.0	-70.2	3.8	1.49e+00	0	23	104	0	73	24237
2026-01-12 04:13:19.82	6.91	22.92	-54.0	-70.2	3.8	1.49e+00	0	23	104	0	73	24210
2026-01-12 04:13:20.83	6.65	22.97	-53.9	-70.2	3.8	1.49e+00	0	23	104	0	73	24183
2026-01-12 04:13:21.84	6.40	23.02	-53.9	-70.2	3.8	1.49e+00	0	23	104	0	73	24226
2026-01-12 04:13:22.85	6.14	23.08	-53.9	-70.2	3.8	1.49e+00	0	23	104	0	73	24247
2026-01-12 04:13:23.85	5.88	23.13	-54.0	-70.2	3.8	1.49e+00	0	23	104	0	73	24254
2026-01-12 04:13:24.86	5.62	23.18	-53.9	-70.2	3.8	1.49e+00	0	23	104	0	73	24223
2026-01-12 04:13:25.87	5.36	23.23	-54.0	-70.2	3.8	1.49e+00	0	23	104	0	73	24175
2026-01-12 04:13:26.88	5.09	23.28	-54.0	-70.2	3.8	1.49e+00	0	23	104	0	73	24214
2026-01-12 04:13:27.89	4.83	23.33	-54.0	-70.2	3.8	1.49e+00	0	23	104	0	73	24227
2026-01-12 04:13:28.89	4.57	23.38	-54.0	-70.2	3.8	1.49e+00	0	23	104	0	73	24175
2026-01-12 04:13:29.90	4.30	23.43	-53.9	-70.2	3.8	1.49e+00	0	23	104	0	73	24266
2026-01-12 04:13:30.91	4.04	23.48	-53.9	-70.2	3.8	1.49e+00	0	23	104	0	73	24210
2026-01-12 04:13:31.92	3.77	23.53	-54.0	-70.2	3.8	1.49e+00	0	23	104	0	73	24174
2026-01-12 04:13:32.92	3.51	23.58	-53.9	-70.2	3.8	1.49e+00	0	23	104	0	73	24237
2026-01-12 04:13:33.93	3.24	23.62	-53.9	-70.2	3.8	1.49e+00	0	23	104	0	73	24224
2026-01-12 04:13:34.95	2.97	23.67	-53.9	-70.2	3.8	1.49e+00	0	23	104	0	73	24204
2026-01-12 04:13:35.96	2.70	23.71	-53.9	-70.2	3.8	1.49e+00	0	23	104	0	73	24216
2026-01-12 04:13:36.97	2.42	23.76	-53.9	-70.2	3.8	1.49e+00	0	23	104	0	73	24221
2026-01-12 04:13:37.97	2.16	23.80	-53.9	-70.2	3.8	1.49e+00	0	23	104	0	73	24196
2026-01-12 04:13:38.98	1.88	23.85	-54.0	-70.2	3.8	1.49e+00	0	23	104	0	73	24191
2026-01-12 04:13:39.99	1.61	23.89	-54.0	-70.2	3.8	1.49e+00	0	23	104	0	73	24188
2026-01-12 04:13:41.00	1.34	23.93	-53.9	-70.2	3.8	1.49e+00	0	23	104	0	73	24170
2026-01-12 04:13:42.01	1.06	23.98	-54.0	-70.2	3.8	1.49e+00	0	23	104	0	73	24233
2026-01-12 04:13:43.02	0.79	24.02	-54.0	-70.2	3.8	1.49e+00	0	23	104	0	73	24165
2026-01-12 04:13:44.02	0.51	24.06	-53.9	-70.2	3.8	1.49e+00	0	23	104	0	73	24245
2026-01-12 04:13:45.04	0.23	24.10	-54.0	-70.2	3.8	1.49e+00	0	23	104	0	73	24216
2026-01-12 04:13:46.05	359.95	24.14	-54.0	-70.2	3.8	1.49e+00	0	23	104	0	73	24225
2026-01-12 04:13:47.05	359.68	24.17	-53.9	-70.2	3.8	1.49e+00	0	23	104	0	73	24260
2026-01-12 04:13:48.06	359.40	24.21	-53.9	-70.2	3.8	1.49e+00	0	23	104	0	73	24141
2026-01-12 04:13:49.07	359.12	24.25	-53.9	-70.2	3.8	1.49e+00	0	23	104	0	73	24175
2026-01-12 04:13:50.08	358.84	24.29	-53.9	-70.2	3.8	1.49e+00	0	23	104	0	73	24153
2026-01-12 04:13:51.09	358.56	24.32	-54.0	-70.2	3.8	1.49e+00	0	23	104	0	73	24171
2026-01-12 04:13:52.10	358.28	24.36	-54.0	-70.2	3.8	1.49e+00	0	23	104	0	73	24216
2026-01-12 04:13:53.10	358.00	24.39	-54.0	-70.2	3.8	1.49e+00	0	23	104	0	73	24307
2026-01-12 04:13:54.11	357.72	24.43	-54.0	-70.2	3.8	1.49e+00	0	23	104	0	73	24194
2026-01-12 04:13:55.11	357.43	24.46	-54.0	-70.2	3.8	1.49e+00	0	23	104	0	73	24288
2026-01-12 04:13:56.12	357.15	24.49	-54.0	-70.2	3.8	1.49e+00	0	23	104	0	73	24238
2026-01-12 04:13:57.13	356.87	24.52	-54.0	-70.2	3.8	1.49e+00	0	23	104	0	73	24208
2026-01-12 04:13:58.14	356.58	24.55	-54.0	-70.2	3.8	1.49e+00	0	23	104	0	73	24242
2026-01-12 04:13:59.15	356.30	24.58	-54.0	-70.2	3.8	1.49e+00	0	23	104	0	73	24235
2026-01-12 04:14:00.15	356.01	24.61	-54.0	-70.2	3.8	1.49e+00	0	23	104	0	73	24202
2026-01-12 04:14:01.16	355.72	24.64	-54.0	-70.2	3.8	1.49e+00	0	23	104	0	73	24186
2026-01-12 04:14:02.17	355.44	24.67	-54.0	-70.2	3.8	1.49e+00	0	23	104	0	73	24246
2026-01-12 04:14:03.18	355.15	24.70	-54.0	-70.2	3.8	1.49e+00	0	23	104	0	73	24260
2026-01-12 04:14:04.19	354.86	24.72	-54.0	-70.2	3.8	1.49e+00	0	23	104	0	73	24277
2026-01-12 04:14:05.19	354.58	24.75	-54.0	-70.2	3.8	1.49e+00	0	23	104	0	73	24245
2026-01-12 04:14:06.20	354.29	24.77	-54.0	-70.2	3.8	1.49e+00	0	23	104	0	73	24220
2026-01-12 04:14:07.21	354.00	24.80	-54.0	-70.2	3.8	1.49e+00	0	23	104	0	73	24200
2026-01-12 04:14:08.22	353.71	24.82	-54.0	-70.2	3.8	1.49e+00	0	23	104	0	73	24216
2026-01-12 04:14:09.23	353.42	24.84	-54.0	-70.2	3.8	1.49e+00	0	23	104	0	73	24236
2026-01-12 04:14:10.24	353.12	24.86	-54.0	-70.2	3.8	1.49e+00	0	23	104	0	73	24248
2026-01-12 04:14:11.25	352.83	24.88	-54.0	-70.2	3.8	1.49e+00	0	23	104	0	73	24206
2026-01-12 04:14:12.26	352.54	24.90	-54.0	-70.2	3.8	1.49e+00	0	23	104	0	73	24217
2026-01-12 04:14:13.27	352.25	24.92	-54.0	-70.2	3.8	1.49e+00	0	23	104	0	73	24227
2026-01-12 04:14:14.27	351.96	24.94	-54.0	-70.2	3.8	1.49e+00	0	23	104	0	73	24214
2026-01-12 04:14:15.28	351.67	24.96	-53.9	-70.2	3.8	1.49e+00	0	23	104	0	73	24249
2026-01-12 04:14:16.29	351.37	24.98	-54.0	-70.2	3.8	1.49e+00	0	23	104	0	73	24263
2026-01-12 04:14:17.30	351.08	24.99	-54.0	-70.2	3.8	1.49e+00	0	23	104	0	73	24220
2026-01-12 04:14:18.31	350.79	25.01	-53.9	-70.2	3.8	1.49e+00	0	23	104	0	73	24259
2026-01-12 04:14:19.32	350.49	25.02	-54.0	-70.2	3.8	1.49e+00	0	23	104	0	73	24231
2026-01-12 04:14:20.33	350.20	25.04	-53.9	-70.2	3.8	1.49e+00	0	23	104	0	73	24281
2026-01-12 04:14:21.34	349.90	25.05	-54.0	-70.2	3.8	1.49e+00	0	23	104	0	73	24270
2026-01-12 04:14:22.35	349.61	25.06	-53.9	-70.2	3.8	1.49e+00	0	23	104	0	73	24230
2026-01-12 04:14:23.36	349.31	25.07	-54.0	-70.2	3.8	1.49e+00	0	23	104	0	73	24192
2026-01-12 04:14:24.37	349.02	25.08	-53.9	-70.2	3.8	1.49e+00	0	23	104	0	73	24247
2026-01-12 04:14:25.38	348.72	25.09	-54.0	-70.2	3.8	1.49e+00	0	23	104	0	73	24191
2026-01-12 04:14:26.39	348.43	25.10	-54.0	-70.2	3.8	1.49e+00	0	23	104	0	73	24187
2026-01-12 04:14:27.39	348.13	25.11	-54.0	-70.2	3.8	1.49e+00	0	23	104	0	73	24249
2026-01-12 04:14:28.40	347.84	25.11	-54.0	-70.2	3.8	1.49e+00	0	23	104	0	73	24229
2026-01-12 04:14:29.41	347.54	25.12	-53.9	-70.2	3.8	1.49e+00	0	23	104	0	73	24236
2026-01-12 04:14:30.42	347.25	25.13	-54.0	-70.2	3.8	1.49e+00	0	23	104	0	73	24221
2026-01-12 04:14:31.43	346.95	25.13	-54.0	-70.2	3.8	1.49e+00	0	23	104	0	73	24204
2026-01-12 04:14:32.44	346.65	25.13	-54.0	-70.2	3.8	1.49e+00	0	23	104	0	73	24190
2026-01-12 04:14:33.45	346.36	25.14	-54.0	-70.2	3.8	1.49e+00	0	23	104	0	73	24221
2026-01-12 04:14:34.46	346.06	25.14	-54.0	-70.2	3.8	1.49e+00	0	23	104	0	73	24249
2026-01-12 04:14:35.47	345.77	25.14	-54.0	-70.2	3.8	1.49e+00	0	23	104	0	73	24264
2026-01-12 04:14:36.47	345.47	25.14	-54.0	-70.2	3.8	1.49e+00	0	23	104	0	73	24223
2026-01-12 04:14:37.48	345.18	25.14	-54.0	-70.2	3.8	1.49e+00	0	23	104	0	73	24209
2026-01-12 04:14:38.49	344.88	25.14	-53.9	-70.2	3.8	1.49e+00	0	23	104	0	73	24221
2026-01-12 04:14:39.49	344.59	25.14	-53.9	-70.2	3.8	1.49e+00	0	23	104	0	73	24292
2026-01-12 04:14:40.50	344.29	25.13	-54.0	-70.2	3.8	1.49e+00	0	23	104	0	73	24291
2026-01-12 04:14:41.51	343.99	25.13	-53.9	-70.2	3.8	1.49e+00	0	23	104	0	73	24248
2026-01-12 04:14:42.52	343.70	25.12	-54.0	-70.2	3.8	1.49e+00	0	23	104	0	73	24212
2026-01-12 04:14:43.53	343.40	25.12	-54.0	-70.2	3.8	1.49e+00	0	23	104	0	73	24231
2026-01-12 04:14:44.53	343.11	25.11	-54.0	-70.2	3.8	1.49e+00	0	23	104	0	73	24260
2026-01-12 04:14:45.54	342.81	25.11	-53.9	-70.2	3.8	1.49e+00	0	23	104	0	73	24264
2026-01-12 04:14:46.55	342.52	25.10	-53.9	-70.2	3.8	1.49e+00	0	23	104	0	73	24248
2026-01-12 04:14:47.56	342.22	25.09	-54.0	-70.2	3.8	1.49e+00	0	23	104	0	73	24188
2026-01-12 04:14:48.57	341.93	25.08	-54.0	-70.2	3.8	1.49e+00	0	23	104	0	73	24214
2026-01-12 04:14:49.58	341.63	25.07	-54.0	-70.2	3.8	1.49e+00	0	23	104	0	73	24319
2026-01-12 04:14:50.59	341.33	25.06	-54.0	-70.2	3.8	1.49e+00	0	23	104	0	73	24193
2026-01-12 04:14:51.60	341.04	25.04	-53.9	-70.2	3.8	1.49e+00	0	23	104	0	73	24292
2026-01-12 04:14:52.61	340.75	25.03	-53.9	-70.2	3.8	1.49e+00	0	23	104	0	73	24269
2026-01-12 04:14:53.62	340.45	25.02	-53.9	-70.2	3.8	1.49e+00	0	23	104	0	73	24216
2026-01-12 04:14:54.62	340.16	25.00	-53.9	-70.2	3.8	1.49e+00	0	23	104	0	73	24269
2026-01-12 04:14:55.63	339.87	24.99	-54.0	-70.2	3.8	1.49e+00	0	23	104	0	73	24216
2026-01-12 04:14:56.64	339.57	24.97	-54.0	-70.2	3.8	1.49e+00	0	23	104	0	73	24206
2026-01-12 04:14:57.65	339.28	24.95	-54.0	-70.2	3.8	1.49e+00	0	23	104	0	73	24218
2026-01-12 04:14:58.66	338.99	24.94	-53.9	-70.2	3.8	1.49e+00	0	23	104	0	73	24274
2026-01-12 04:14:59.67	338.69	24.92	-54.0	-70.2	3.8	1.49e+00	0	23	104	0	73	24240
2026-01-12 04:15:00.67	338.41	24.90	-54.0	-70.2	3.8	1.49e+00	0	23	104	0	73	24175
2026-01-12 04:15:01.68	338.11	24.88	-54.0	-70.2	3.8	1.49e+00	0	23	104	0	73	24221
2026-01-12 04:15:02.69	337.82	24.86	-54.0	-70.2	3.8	1.49e+00	0	23	104	0	73	24229
2026-01-12 04:15:03.70	337.53	24.84	-53.9	-70.2	3.8	1.49e+00	0	23	104	0	73	24207
2026-01-12 04:15:04.71	337.24	24.81	-53.9	-70.2	3.8	1.49e+00	0	23	104	0	73	24269
2026-01-12 04:15:05.73	336.95	24.79	-53.9	-70.2	3.8	1.49e+00	0	23	104	0	73	24281
2026-01-12 04:15:06.73	336.66	24.76	-53.9	-70.2	3.8	1.49e+00	0	23	104	0	73	24250
2026-01-12 04:15:07.74	336.37	24.74	-53.8	-70.2	3.8	1.49e+00	0	23	104	0	73	24231
2026-01-12 04:15:08.75	336.08	24.71	-53.9	-70.2	3.8	1.49e+00	0	23	104	0	73	24216
2026-01-12 04:15:09.76	335.79	24.69	-53.9	-70.2	3.8	1.49e+00	0	23	104	0	73	24216
2026-01-12 04:15:10.77	335.51	24.66	-53.9	-70.2	3.8	1.49e+00	0	23	104	0	73	24202
2026-01-12 04:15:11.78	335.22	24.63	-54.0	-70.2	3.8	1.49e+00	0	23	104	0	73	24191
2026-01-12 04:15:12.79	334.93	24.60	-53.9	-70.2	3.8	1.49e+00	0	23	104	0	73	24274
2026-01-12 04:15:13.79	334.65	24.57	-54.0	-70.2	3.8	1.49e+00	0	23	104	0	73	24219
2026-01-12 04:15:14.80	334.36	24.54	-53.8	-70.2	3.8	1.49e+00	0	23	104	0	73	24183
2026-01-12 04:15:15.81	334.08	24.51	-53.9	-70.2	3.8	1.49e+00	0	23	104	0	73	24213
2026-01-12 04:15:16.81	333.80	24.48	-53.9	-70.2	3.8	1.49e+00	0	23	104	0	73	24301
2026-01-12 04:15:17.82	333.51	24.45	-53.9	-70.2	3.8	1.49e+00	0	23	104	0	73	24265
2026-01-12 04:15:18.83	333.23	24.42	-54.0	-70.2	3.8	1.49e+00	0	23	104	0	73	24193
2026-01-12 04:15:19.84	332.95	24.38	-53.9	-70.2	3.8	1.49e+00	0	23	104	0	73	24234
2026-01-12 04:15:20.85	332.67	24.35	-54.0	-70.2	3.8	1.49e+00	0	23	104	0	73	24276
2026-01-12 04:15:21.86	332.38	24.31	-53.9	-70.2	3.8	1.49e+00	0	23	104	0	73	24268
2026-01-12 04:15:22.87	332.10	24.28	-54.0	-70.2	3.8	1.49e+00	0	23	104	0	73	24253
2026-01-12 04:15:23.88	331.82	24.24	-54.0	-70.2	3.8	1.49e+00	0	23	104	0	73	24238
2026-01-12 04:15:24.89	331.54	24.20	-54.1	-70.2	3.8	1.49e+00	0	23	104	0	73	24253
2026-01-12 04:15:25.90	331.26	24.16	-54.0	-70.2	3.8	1.49e+00	0	23	104	0	73	24257
2026-01-12 04:15:26.90	330.99	24.12	-54.0	-70.2	3.8	1.49e+00	0	23	104	0	73	24218
2026-01-12 04:15:27.91	330.71	24.09	-54.0	-70.2	3.8	1.49e+00	0	23	104	0	73	24251
2026-01-12 04:15:28.92	330.43	24.05	-54.0	-70.2	3.8	1.49e+00	0	23	104	0	73	24250
2026-01-12 04:15:29.93	330.16	24.00	-53.9	-70.2	3.8	1.49e+00	0	23	104	0	73	24208
2026-01-12 04:15:30.94	329.88	23.96	-54.0	-70.2	3.8	1.49e+00	0	23	104	0	73	24259
2026-01-12 04:15:31.95	329.61	23.92	-54.0	-70.2	3.8	1.49e+00	0	23	104	0	73	24279
2026-01-12 04:15:32.96	329.33	23.88	-54.0	-70.2	3.8	1.49e+00	0	23	104	0	73	24206
2026-01-12 04:15:33.97	329.06	23.83	-54.0	-70.2	3.8	1.49e+00	0	23	104	0	73	24279
2026-01-12 04:15:34.97	328.79	23.79	-54.0	-70.2	3.8	1.49e+00	0	23	104	0	73	24224
2026-01-12 04:15:35.98	328.52	23.75	-54.0	-70.2	3.8	1.49e+00	0	23	104	0	73	24287
2026-01-12 04:15:36.99	328.25	23.70	-54.0	-70.2	3.8	1.49e+00	0	23	104	0	73	24214
2026-01-12 04:15:37.99	327.98	23.66	-54.0	-70.2	3.8	1.49e+00	0	23	104	0	73	24212
2026-01-12 04:15:39.00	327.71	23.61	-54.0	-70.2	3.8	1.49e+00	0	23	104	0	73	24220
2026-01-12 04:15:40.01	327.44	23.56	-54.0	-70.2	3.8	1.49e+00	0	23	104	0	73	24216
2026-01-12 04:15:41.02	327.18	23.51	-54.0	-70.2	3.8	1.49e+00	0	23	104	0	73	24241
2026-01-12 04:15:42.03	326.91	23.47	-54.0	-70.2	3.8	1.49e+00	0	23	104	0	73	24225
2026-01-12 04:15:43.04	326.64	23.42	-54.0	-70.2	3.8	1.49e+00	0	23	104	0	73	24252
2026-01-12 04:15:44.05	326.38	23.37	-54.0	-70.2	3.8	1.49e+00	0	23	104	0	73	24261
2026-01-12 04:15:45.05	326.12	23.32	-54.0	-70.2	3.8	1.49e+00	0	23	104	0	73	24204
2026-01-12 04:15:46.06	325.85	23.27	-54.0	-70.2	3.8	1.49e+00	0	23	104	0	73	24280
2026-01-12 04:15:47.07	325.59	23.22	-54.0	-70.2	3.8	1.49e+00	0	23	104	0	73	24320
2026-01-12 04:15:48.08	325.33	23.17	-54.0	-70.2	3.8	1.49e+00	0	23	104	0	73	24269
2026-01-12 04:15:49.09	325.07	23.11	-54.0	-70.2	3.8	1.49e+00	0	23	104	0	73	24213
2026-01-12 04:15:50.10	324.81	23.06	-54.0	-70.2	3.8	1.49e+00	0	23	104	0	73	24224
2026-01-12 04:15:51.11	324.55	23.01	-54.0	-70.2	3.8	1.49e+00	0	23	104	0	73	24254
2026-01-12 04:15:52.12	324.29	22.95	-54.0	-70.2	3.8	1.49e+00	0	23	104	0	73	24190
2026-01-12 04:15:53.13	324.04	22.90	-54.0	-70.2	3.8	1.49e+00	0	23	104	0	73	24194
2026-01-12 04:15:54.14	323.78	22.84	-54.0	-70.2	3.8	1.49e+00	0	23	104	0	73	24170
2026-01-12 04:15:55.14	323.53	22.79	-53.9	-70.2	3.8	1.49e+00	0	23	104	0	73	24234
2026-01-12 04:15:56.15	323.27	22.73	-54.0	-70.2	3.8	1.49e+00	0	23	104	0	73	24222
2026-01-12 04:15:57.16	323.02	22.68	-53.9	-70.2	3.8	1.49e+00	0	23	104	0	73	24183
2026-01-12 04:15:58.17	322.77	22.62	-54.0	-70.2	3.8	1.49e+00	0	23	104	0	73	24182
2026-01-12 04:15:59.18	322.51	22.56	-54.0	-70.2	3.8	1.49e+00	0	23	104	0	73	24352
2026-01-12 04:16:00.19	322.26	22.51	-54.0	-70.2	3.8	1.49e+00	0	23	104	0	73	24183
2026-01-12 04:16:01.20	322.01	22.45	-54.0	-70.2	3.8	1.49e+00	0	23	104	0	73	24302
2026-01-12 04:16:02.21	321.76	22.39	-54.0	-70.2	3.8	1.49e+00	0	23	104	0	73	24174
2026-01-12 04:16:03.22	321.52	22.33	-54.0	-70.2	3.8	1.49e+00	0	23	104	0	73	24215
2026-01-12 04:16:04.23	321.27	22.27	-54.0	-70.2	3.8	1.49e+00	0	23	104	0	73	24240
2026-01-12 04:16:05.24	321.02	22.21	-54.0	-70.2	3.8	1.49e+00	0	23	104	0	73	24192
2026-01-12 04:16:06.25	320.78	22.15	-54.0	-70.2	3.8	1.49e+00	0	23	104	0	73	24203
2026-01-12 04:16:07.26	320.53	22.09	-54.0	-70.2	3.8	1.49e+00	0	23	104	0	73	24268
2026-01-12 04:16:08.27	320.29	22.03	-54.0	-70.2	3.8	1.49e+00	0	23	104	0	73	24221
2026-01-12 04:16:09.27	320.05	21.97	-54.0	-70.2	3.8	1.49e+00	0	23	104	0	73	24223
2026-01-12 04:16:10.28	319.81	21.91	-54.0	-70.2	3.8	1.49e+00	0	23	104	0	73	24264
2026-01-12 04:16:11.29	319.57	21.84	-53.9	-70.2	3.8	1.49e+00	0	23	104	0	73	24217
2026-01-12 04:16:12.30	319.33	21.78	-54.0	-70.2	3.8	1.49e+00	0	23	104	0	73	24245
2026-01-12 04:16:13.31	319.09	21.72	-54.0	-70.2	3.8	1.49e+00	0	23	104	0	73	24204
2026-01-12 04:16:14.31	318.86	21.66	-53.9	-70.2	3.8	1.49e+00	0	23	104	0	73	24164
2026-01-12 04:16:15.32	318.62	21.59	-54.0	-70.2	3.8	1.49e+00	0	23	104	0	73	24213
2026-01-12 04:16:16.32	318.39	21.53	-54.0	-70.2	3.8	1.49e+00	0	23	104	0	73	24257
2026-01-12 04:16:17.33	318.15	21.46	-54.0	-70.2	3.8	1.49e+00	0	23	104	0	73	24202
2026-01-12 04:16:18.34	317.92	21.40	-54.0	-70.2	3.8	1.49e+00	0	23	104	0	73	24290
2026-01-12 04:16:19.35	317.69	21.33	-54.0	-70.2	3.8	1.49e+00	0	23	104	0	73	24306
2026-01-12 04:16:20.36	317.46	21.27	-54.0	-70.2	3.8	1.49e+00	0	23	104	0	73	24222
2026-01-12 04:16:21.37	317.23	21.20	-53.9	-70.2	3.8	1.49e+00	0	23	104	0	73	24274
2026-01-12 04:16:22.38	317.00	21.14	-53.9	-70.2	3.8	1.49e+00	0	23	104	0	73	24235
2026-01-12 04:16:23.39	316.77	21.07	-54.0	-70.2	3.8	1.49e+00	0	23	104	0	73	24200
2026-01-12 04:16:24.39	316.54	21.00	-54.0	-70.2	3.8	1.49e+00	0	23	104	0	73	24183
2026-01-12 04:16:25.40	316.32	20.94	-54.0	-70.2	3.8	1.49e+00	0	23	104	0	73	24279
2026-01-12 04:16:26.41	316.09	20.87	-54.0	-70.2	3.8	1.49e+00	0	23	104	0	73	24327
2026-01-12 04:16:27.42	315.87	20.80	-54.0	-70.2	3.8	1.49e+00	0	23	104	0	73	24204
2026-01-12 04:16:28.43	315.64	20.73	-54.0	-70.2	3.8	1.49e+00	0	23	104	0	73	24203
2026-01-12 04:16:29.44	315.42	20.67	-54.0	-70.2	3.8	1.49e+00	0	23	104	0	73	24170
2026-01-12 04:16:30.45	315.20	20.60	-54.0	-70.2	3.8	1.49e+00	0	23	104	0	73	24179
2026-01-12 04:16:31.45	314.98	20.53	-54.0	-70.2	3.8	1.49e+00	0	23	104	0	73	24167
2026-01-12 04:16:32.46	314.76	20.46	-54.0	-70.2	3.8	1.49e+00	0	23	104	0	73	24197
2026-01-12 04:16:33.47	314.54	20.39	-54.0	-70.2	3.8	1.49e+00	0	23	104	0	73	24197
2026-01-12 04:16:34.48	314.32	20.32	-54.0	-70.2	3.8	1.49e+00	0	23	104	0	73	24318
2026-01-12 04:16:35.49	314.11	20.25	-54.0	-70.2	3.8	1.49e+00	0	23	104	0	73	24232
2026-01-12 04:16:36.50	313.89	20.18	-54.0	-70.2	3.8	1.49e+00	0	23	104	0	73	24256
2026-01-12 04:16:37.50	313.68	20.11	-54.0	-70.2	3.8	1.49e+00	0	23	104	0	73	24252
2026-01-12 04:16:38.51	313.47	20.04	-53.9	-70.2	3.8	1.49e+00	0	23	104	0	73	24266
2026-01-12 04:16:39.52	313.25	19.97	-53.9	-70.2	3.8	1.49e+00	0	23	104	0	73	24231
2026-01-12 04:16:40.53	313.04	19.90	-54.0	-70.2	3.8	1.49e+00	0	23	104	0	73	24239
2026-01-12 04:16:41.54	312.83	19.83	-54.0	-70.2	3.8	1.49e+00	0	23	104	0	73	24255
2026-01-12 04:16:42.55	312.62	19.76	-54.0	-70.2	3.8	1.49e+00	0	23	104	0	73	24193
2026-01-12 04:16:43.55	312.42	19.69	-54.0	-70.2	3.8	1.49e+00	0	23	104	0	73	24183
2026-01-12 04:16:44.56	312.21	19.61	-54.0	-70.2	3.8	1.49e+00	0	23	104	0	73	24214
2026-01-12 04:16:45.57	312.00	19.54	-53.9	-70.2	3.8	1.49e+00	0	23	104	0	73	24235
2026-01-12 04:16:46.58	311.80	19.47	-54.0	-70.2	3.8	1.49e+00	0	23	104	0	73	24224
2026-01-12 04:16:47.58	311.59	19.40	-53.9	-70.2	3.8	1.49e+00	0	23	104	0	73	24255
2026-01-12 04:16:48.59	311.39	19.33	-54.0	-70.2	3.8	1.49e+00	0	23	104	0	73	24227
2026-01-12 04:16:49.60	311.19	19.25	-54.0	-70.2	3.8	1.49e+00	0	23	104	0	73	24278
2026-01-12 04:16:50.61	310.98	19.18	-54.0	-70.2	3.8	1.49e+00	0	23	104	0	73	24232
2026-01-12 04:16:51.62	310.78	19.11	-54.0	-70.2	3.8	1.49e+00	0	23	104	0	73	24172
2026-01-12 04:16:52.62	310.59	19.04	-54.0	-70.2	3.8	1.49e+00	0	23	104	0	73	24225
2026-01-12 04:16:53.63	310.39	18.96	-54.0	-70.2	3.8	1.49e+00	0	23	104	0	73	24252
2026-01-12 04:16:54.64	310.19	18.89	-54.0	-70.2	3.8	1.49e+00	0	23	104	0	73	24223
2026-01-12 04:16:55.65	309.99	18.82	-53.9	-70.2	3.8	1.49e+00	0	23	104	0	73	24285
2026-01-12 04:16:56.65	309.80	18.74	-54.0	-70.2	3.8	1.49e+00	0	23	104	0	73	24204
2026-01-12 04:16:57.67	309.60	18.67	-54.0	-70.2	3.8	1.49e+00	0	23	104	0	73	24187
2026-01-12 04:16:58.67	309.41	18.60	-54.0	-70.2	3.8	1.49e+00	0	23	104	0	73	24161
2026-01-12 04:16:59.68	309.22	18.52	-54.0	-70.2	3.8	1.49e+00	0	23	104	0	73	24235
2026-01-12 04:17:00.69	309.02	18.45	-54.0	-70.2	3.8	1.49e+00	0	23	104	0	73	24189
2026-01-12 04:17:01.70	308.83	18.37	-54.0	-70.2	3.8	1.49e+00	0	23	104	0	73	24174
2026-01-12 04:17:02.71	308.64	18.30	-54.0	-70.2	3.8	1.49e+00	0	23	104	0	73	24259
2026-01-12 04:17:03.72	308.45	18.22	-54.0	-70.2	3.8	1.49e+00	0	23	104	0	73	24256
2026-01-12 04:17:04.73	308.26	18.15	-53.9	-70.2	3.8	1.49e+00	0	23	104	0	73	24292
2026-01-12 04:17:05.74	308.08	18.08	-53.9	-70.2	3.8	1.49e+00	0	23	104	0	73	24227
2026-01-12 04:17:06.75	307.89	18.00	-54.0	-70.2	3.8	1.49e+00	0	23	104	0	73	24222
2026-01-12 04:17:07.76	307.70	17.93	-53.9	-70.2	3.8	1.49e+00	0	23	104	0	73	24262
2026-01-12 04:17:08.76	307.52	17.85	-53.9	-70.2	3.8	1.49e+00	0	23	104	0	73	24212
2026-01-12 04:17:09.77	307.34	17.78	-54.0	-70.2	3.8	1.49e+00	0	23	104	0	73	24146
2026-01-12 04:17:10.78	307.15	17.70	-54.0	-70.2	3.8	1.49e+00	0	23	104	0	73	24168
2026-01-12 04:17:11.79	306.97	17.63	-54.0	-70.2	3.8	1.49e+00	0	23	104	0	73	24263
2026-01-12 04:17:12.80	306.79	17.55	-54.0	-70.2	3.8	1.49e+00	0	23	104	0	73	24150
2026-01-12 04:17:13.81	306.61	17.48	-53.9	-70.2	3.8	1.49e+00	0	23	104	0	73	24202
2026-01-12 04:17:14.82	306.43	17.40	-54.0	-70.2	3.8	1.49e+00	0	23	104	0	73	24137
2026-01-12 04:17:15.83	306.25	17.33	-54.0	-70.2	3.8	1.49e+00	0	23	104	0	73	24174
2026-01-12 04:17:16.84	306.08	17.25	-54.0	-70.2	3.8	1.49e+00	0	23	104	0	73	24215
2026-01-12 04:17:17.85	305.90	17.18	-53.9	-70.2	3.8	1.49e+00	0	23	104	0	73	24210
2026-01-12 04:17:18.86	305.72	17.10	-53.9	-70.2	3.8	1.49e+00	0	23	104	0	73	24313
2026-01-12 04:17:19.87	305.55	17.02	-53.9	-70.2	3.8	1.49e+00	0	23	104	0	73	24294
2026-01-12 04:17:20.88	305.38	16.95	-53.9	-70.2	3.8	1.49e+00	0	23	104	0	73	24273
2026-01-12 04:17:21.88	305.21	16.87	-54.0	-70.2	3.8	1.49e+00	0	23	104	0	73	24233
2026-01-12 04:17:22.89	305.03	16.80	-53.9	-70.2	3.8	1.49e+00	0	23	104	0	73	24213
2026-01-12 04:17:23.90	304.86	16.72	-53.9	-70.2	3.8	1.49e+00	0	23	104	0	73	24241
2026-01-12 04:17:24.91	304.69	16.65	-53.9	-70.2	3.8	1.49e+00	0	23	104	0	73	24246
2026-01-12 04:17:25.92	304.52	16.57	-53.9	-70.2	3.8	1.49e+00	0	23	104	0	73	24263
2026-01-12 04:17:26.92	304.36	16.50	-53.9	-70.2	3.8	1.49e+00	0	23	104	0	73	24249
2026-01-12 04:17:27.93	304.19	16.42	-54.0	-70.2	3.8	1.49e+00	0	23	104	0	73	24213
2026-01-12 04:17:28.94	304.02	16.34	-54.0	-70.2	3.8	1.49e+00	0	23	104	0	73	24270
2026-01-12 04:17:29.95	303.85	16.27	-54.0	-70.2	3.8	1.49e+00	0	23	104	0	73	24224
2026-01-12 04:17:30.96	303.69	16.19	-53.9	-70.2	3.8	1.49e+00	0	23	104	0	73	24308
2026-01-12 04:17:31.96	303.53	16.12	-53.9	-70.2	3.8	1.49e+00	0	23	104	0	73	24230
2026-01-12 04:17:32.97	303.36	16.04	-53.9	-70.2	3.8	1.49e+00	0	23	104	0	73	24191
2026-01-12 04:17:33.98	303.20	15.97	-54.0	-70.2	3.8	1.49e+00	0	23	104	0	73	24244
2026-01-12 04:17:34.99	303.04	15.89	-53.9	-70.2	3.8	1.49e+00	0	23	104	0	73	24250
2026-01-12 04:17:36.00	302.88	15.81	-53.9	-70.2	3.8	1.49e+00	0	23	104	0	73	24206
2026-01-12 04:17:37.01	302.72	15.74	-53.9	-70.2	3.8	1.49e+00	0	23	104	0	73	24213
2026-01-12 04:17:38.01	302.56	15.66	-54.0	-70.2	3.8	1.49e+00	0	23	104	0	73	24210
2026-01-12 04:17:39.02	302.40	15.59	-53.9	-70.2	3.8	1.49e+00	0	23	104	0	73	24281
2026-01-12 04:17:40.03	302.24	15.51	-54.0	-70.2	3.8	1.49e+00	0	23	104	0	73	24222
2026-01-12 04:17:41.04	302.09	15.44	-54.0	-70.2	3.8	1.49e+00	0	23	104	0	73	24171
2026-01-12 04:17:42.05	301.93	15.36	-54.0	-70.2	3.8	1.49e+00	0	23	104	0	73	24254
2026-01-12 04:17:43.06	301.78	15.28	-54.0	-70.2	3.8	1.49e+00	0	23	104	0	73	24264
2026-01-12 04:17:44.06	301.62	15.21	-54.0	-70.2	3.8	1.49e+00	0	23	104	0	73	24180
2026-01-12 04:17:45.07	301.47	15.13	-53.9	-70.2	3.8	1.49e+00	0	23	104	0	73	24221
2026-01-12 04:17:46.08	301.32	15.06	-53.9	-70.2	3.8	1.49e+00	0	23	104	0	73	24211
2026-01-12 04:17:47.08	301.16	14.98	-54.0	-70.2	3.8	1.49e+00	0	23	104	0	73	24177
2026-01-12 04:17:48.09	301.01	14.91	-54.0	-70.2	3.8	1.49e+00	0	23	104	0	73	24170
2026-01-12 04:17:49.10	300.86	14.83	-53.9	-70.2	3.8	1.49e+00	0	23	104	0	73	24233
2026-01-12 04:17:50.11	300.71	14.76	-53.9	-70.2	3.8	1.49e+00	0	23	104	0	73	24198
2026-01-12 04:17:51.11	300.57	14.68	-54.0	-70.2	3.8	1.49e+00	0	23	104	0	73	24205
2026-01-12 04:17:52.12	300.42	14.61	-54.0	-70.2	3.8	1.49e+00	0	23	104	0	73	24189
2026-01-12 04:17:53.13	300.27	14.53	-54.0	-70.2	3.8	1.49e+00	0	23	104	0	73	24263
2026-01-12 04:17:54.14	300.12	14.45	-54.0	-70.2	3.8	1.49e+00	0	23	104	0	73	24239
2026-01-12 04:17:55.15	299.98	14.38	-54.0	-70.2	3.8	1.49e+00	0	23	104	0	73	24169
2026-01-12 04:17:56.16	299.83	14.30	-54.0	-70.2	3.8	1.49e+00	0	23	104	0	73	24190
2026-01-12 04:17:57.17	299.69	14.23	-54.0	-70.2	3.8	1.49e+00	0	23	104	0	73	24169
2026-01-12 04:17:58.18	299.54	14.15	-54.0	-70.2	3.8	1.49e+00	0	23	104	0	73	24239
2026-01-12 04:17:59.19	299.40	14.08	-54.0	-70.2	3.8	1.49e+00	0	23	104	0	73	24217
2026-01-12 04:18:00.20	299.26	14.00	-54.0	-70.2	3.8	1.49e+00	0	23	104	0	73	24179
2026-01-12 04:18:01.20	299.12	13.93	-54.0	-70.2	3.8	1.49e+00	0	23	104	0	73	24156
2026-01-12 04:18:02.21	298.98	13.85	-54.0	-70.1	3.8	1.49e+00	0	23	104	0	73	24088
2026-01-12 04:18:03.22	298.84	13.78	-53.9	-70.2	3.8	1.49e+00	0	23	104	0	73	24138
2026-01-12 04:18:04.23	298.70	13.70	-53.9	-70.2	3.8	1.49e+00	0	23	104	0	73	24224
2026-01-12 04:18:05.24	298.56	13.63	-54.0	-70.1	3.8	1.49e+00	0	23	104	0	73	24078
2026-01-12 04:18:06.25	298.42	13.55	-54.0	-70.2	3.8	1.49e+00	0	23	104	0	73	24232
2026-01-12 04:18:07.26	298.28	13.48	-54.0	-70.2	3.8	1.49e+00	0	23	104	0	73	24221
2026-01-12 04:18:08.27	298.15	13.41	-54.0	-70.2	3.8	1.49e+00	0	23	104	0	73	24197
2026-01-12 04:18:09.28	298.01	13.33	-54.0	-70.2	3.8	1.49e+00	0	23	104	0	73	24162
2026-01-12 04:18:10.29	297.88	13.26	-54.0	-70.2	3.8	1.49e+00	0	23	104	0	73	24144
2026-01-12 04:18:11.29	297.74	13.18	-54.0	-70.2	3.8	1.49e+00	0	23	104	0	73	24217
2026-01-12 04:18:12.30	297.61	13.11	-53.9	-70.2	3.8	1.49e+00	0	23	104	0	73	24219
2026-01-12 04:18:13.31	297.48	13.03	-54.0	-70.2	3.8	1.49e+00	0	23	104	0	73	24184
2026-01-12 04:18:14.32	297.34	12.96	-53.9	-70.2	3.8	1.49e+00	0	23	104	0	73	24220
2026-01-12 04:18:15.33	297.21	12.89	-54.0	-70.2	3.8	1.49e+00	0	23	104	0	73	24259
2026-01-12 04:18:16.33	297.08	12.81	-53.9	-70.2	3.8	1.49e+00	0	23	104	0	73	24257
2026-01-12 04:18:17.34	296.95	12.74	-54.0	-70.2	3.8	1.49e+00	0	23	104	0	73	24203
2026-01-12 04:18:18.35	296.82	12.66	-53.9	-70.2	3.8	1.49e+00	0	23	104	0	73	24189
2026-01-12 04:18:19.36	296.69	12.59	-53.9	-70.2	3.8	1.49e+00	0	23	104	0	73	24263
2026-01-12 04:18:20.37	296.57	12.52	-53.9	-70.2	3.8	1.49e+00	0	23	104	0	73	24285
2026-01-12 04:18:21.38	296.44	12.44	-54.0	-70.2	3.8	1.49e+00	0	23	104	0	73	24226
2026-01-12 04:18:22.39	296.31	12.37	-54.0	-70.2	3.8	1.49e+00	0	23	104	0	73	24237
2026-01-12 04:18:23.39	296.19	12.30	-54.0	-70.2	3.8	1.49e+00	0	23	104	0	73	24240
2026-01-12 04:18:24.40	296.06	12.22	-54.1	-70.2	3.8	1.49e+00	0	23	104	0	73	24290
2026-01-12 04:18:25.42	295.93	12.15	-54.0	-70.2	3.8	1.49e+00	0	23	104	0	73	24243
2026-01-12 04:18:26.42	295.81	12.08	-54.0	-70.2	3.8	1.49e+00	0	23	104	0	73	24319
2026-01-12 04:18:27.44	295.69	12.00	-54.0	-70.2	3.8	1.49e+00	0	23	104	0	73	24220
2026-01-12 04:18:28.44	295.56	11.93	-54.0	-70.2	3.8	1.49e+00	0	23	104	0	73	24279
2026-01-12 04:18:29.46	295.44	11.86	-54.0	-70.2	3.8	1.49e+00	0	23	104	0	73	24273
2026-01-12 04:18:30.46	295.32	11.78	-54.0	-70.2	3.8	1.49e+00	0	23	104	0	73	24296
2026-01-12 04:18:31.47	295.20	11.71	-54.0	-70.2	3.8	1.49e+00	0	23	104	0	73	24290
2026-01-12 04:18:32.48	295.08	11.64	-54.0	-70.2	3.8	1.49e+00	0	23	104	0	73	24276
2026-01-12 04:18:33.49	294.96	11.57	-54.0	-70.2	3.8	1.49e+00	0	23	104	0	73	24254
2026-01-12 04:18:34.50	294.84	11.49	-54.0	-70.2	3.8	1.49e+00	0	23	104	0	73	24201
2026-01-12 04:18:35.51	294.72	11.42	-53.9	-70.2	3.8	1.49e+00	0	23	104	0	73	24245
2026-01-12 04:18:36.52	294.60	11.35	-54.0	-70.2	3.8	1.49e+00	0	23	104	0	73	24320
2026-01-12 04:18:37.52	294.48	11.28	-54.0	-70.2	3.8	1.49e+00	0	23	104	0	73	24272
2026-01-12 04:18:38.53	294.37	11.20	-54.0	-70.2	3.8	1.49e+00	0	23	104	0	73	24220
2026-01-12 04:18:39.54	294.25	11.13	-53.9	-70.2	3.8	1.49e+00	0	23	104	0	73	24272
2026-01-12 04:18:40.55	294.13	11.06	-54.0	-70.2	3.8	1.49e+00	0	23	104	0	73	24245
2026-01-12 04:18:41.56	294.02	10.99	-54.0	-70.2	3.8	1.49e+00	0	23	104	0	73	24276
2026-01-12 04:18:42.57	293.90	10.92	-54.0	-70.2	3.8	1.49e+00	0	23	104	0	73	24296
2026-01-12 04:18:43.59	293.79	10.84	-54.0	-70.2	3.8	1.49e+00	0	23	104	0	73	24274
2026-01-12 04:18:44.60	293.67	10.77	-53.9	-70.2	3.8	1.49e+00	0	23	104	0	73	24249
2026-01-12 04:18:45.61	293.56	10.70	-54.0	-70.2	3.8	1.49e+00	0	23	104	0	73	24282
2026-01-12 04:18:46.61	293.45	10.63	-54.0	-70.2	3.8	1.49e+00	0	23	104	0	73	24227
2026-01-12 04:18:47.62	293.34	10.56	-54.0	-70.2	3.8	1.49e+00	0	23	104	0	73	24286
2026-01-12 04:18:48.63	293.23	10.49	-54.0	-70.2	3.8	1.49e+00	0	23	104	0	73	24289
2026-01-12 04:18:49.63	293.12	10.42	-54.0	-70.2	3.8	1.49e+00	0	23	104	0	73	24249
2026-01-12 04:18:50.65	293.01	10.35	-54.0	-70.2	3.8	1.49e+00	0	23	104	0	73	24275
2026-01-12 04:18:51.66	292.90	10.27	-54.0	-70.2	3.8	1.49e+00	0	23	104	0	73	24338
2026-01-12 04:18:52.66	292.79	10.20	-54.0	-70.2	3.8	1.49e+00	0	23	104	0	73	24271
2026-01-12 04:18:53.67	292.68	10.13	-54.0	-70.2	3.8	1.49e+00	0	23	104	0	73	24236
2026-01-12 04:18:54.68	292.57	10.06	-54.0	-70.2	3.8	1.49e+00	0	23	104	0	73	24234
2026-01-12 04:18:55.69	292.46	9.99	-54.1	-70.2	3.8	1.49e+00	0	23	104	0	73	24211
2026-01-12 04:18:56.69	292.36	9.92	-54.0	-70.2	3.8	1.49e+00	0	23	104	0	73	24167
2026-01-12 04:18:57.70	292.25	9.85	-54.0	-70.2	3.8	1.49e+00	0	23	104	0	73	24224
2026-01-12 04:18:58.71	292.14	9.78	-54.0	-70.2	3.8	1.49e+00	0	23	104	0	73	24307
2026-01-12 04:18:59.72	292.04	9.71	-54.0	-70.2	3.8	1.49e+00	0	23	104	0	73	24243
2026-01-12 04:19:00.73	291.93	9.64	-54.0	-70.2	3.8	1.49e+00	0	23	104	0	73	24371
2026-01-12 04:19:01.74	291.83	9.57	-54.0	-70.2	3.8	1.49e+00	0	23	104	0	73	24287
2026-01-12 04:19:02.74	291.73	9.50	-54.0	-70.2	3.8	1.49e+00	0	23	104	0	73	24318
2026-01-12 04:19:03.75	291.62	9.43	-54.0	-70.2	3.8	1.49e+00	0	23	104	0	73	24255
2026-01-12 04:19:04.77	291.52	9.36	-54.0	-70.2	3.8	1.49e+00	0	23	104	0	73	24297
2026-01-12 04:19:05.78	291.42	9.29	-54.0	-70.2	3.8	1.49e+00	0	23	104	0	73	24251
2026-01-12 04:19:06.79	291.31	9.22	-54.0	-70.2	3.8	1.49e+00	0	23	104	0	73	24309
2026-01-12 04:19:07.80	291.21	9.15	-54.0	-70.2	3.8	1.49e+00	0	23	104	0	73	24245
2026-01-12 04:19:08.80	291.11	9.09	-54.0	-70.2	3.8	1.49e+00	0	23	104	0	73	24318
2026-01-12 04:19:09.81	291.01	9.02	-54.0	-70.2	3.8	1.49e+00	0	23	104	0	73	24276
2026-01-12 04:19:10.82	290.91	8.95	-54.0	-70.2	3.8	1.49e+00	0	23	104	0	73	24274
2026-01-12 04:19:11.83	290.81	8.88	-54.0	-70.2	3.8	1.49e+00	0	23	104	0	73	24241
2026-01-12 04:19:12.84	290.71	8.81	-54.0	-70.2	3.8	1.49e+00	0	23	104	0	73	24264
2026-01-12 04:19:13.85	290.62	8.74	-54.0	-70.2	3.8	1.49e+00	0	23	104	0	73	24295
2026-01-12 04:19:14.86	290.52	8.67	-54.0	-70.2	3.8	1.49e+00	0	23	104	0	73	24267
2026-01-12 04:19:15.87	290.42	8.60	-54.0	-70.2	3.8	1.49e+00	0	23	104	0	73	24260
2026-01-12 04:19:16.88	290.32	8.54	-54.0	-70.2	3.8	1.49e+00	0	23	104	0	73	24223
2026-01-12 04:19:17.88	290.23	8.47	-54.0	-70.2	3.8	1.49e+00	0	23	104	0	73	24265
2026-01-12 04:19:18.89	290.13	8.40	-54.0	-70.2	3.8	1.49e+00	0	23	104	0	73	24278
2026-01-12 04:19:19.90	290.04	8.33	-54.0	-70.2	3.8	1.49e+00	0	23	104	0	73	24278
2026-01-12 04:19:20.91	289.94	8.26	-54.0	-70.2	3.8	1.49e+00	0	23	104	0	73	24264
2026-01-12 04:19:21.92	289.85	8.20	-54.0	-70.2	3.8	1.49e+00	0	23	104	0	73	24284
2026-01-12 04:19:22.93	289.75	8.13	-53.9	-70.2	3.8	1.49e+00	0	23	104	0	73	24352
2026-01-12 04:19:23.94	289.66	8.06	-54.0	-70.2	3.8	1.49e+00	0	23	104	0	73	24190
2026-01-12 04:19:24.95	289.56	7.99	-53.9	-70.2	3.8	1.49e+00	0	23	104	0	73	24266
2026-01-12 04:19:25.96	289.47	7.93	-54.0	-70.2	3.8	1.49e+00	0	23	104	0	73	24214
2026-01-12 04:19:26.96	289.38	7.86	-54.0	-70.2	3.8	1.49e+00	0	23	104	0	73	24205
2026-01-12 04:19:27.97	289.29	7.79	-54.0	-70.2	3.8	1.49e+00	0	23	104	0	73	24240
2026-01-12 04:19:28.98	289.20	7.72	-54.0	-70.2	3.8	1.49e+00	0	23	104	0	73	24242
2026-01-12 04:19:29.99	289.10	7.66	-54.0	-70.2	3.8	1.49e+00	0	23	104	0	73	24274
2026-01-12 04:19:31.00	289.01	7.59	-54.0	-70.2	3.8	1.49e+00	0	23	104	0	73	24306
2026-01-12 04:19:32.01	288.92	7.52	-54.0	-70.2	3.8	1.49e+00	0	23	104	0	73	24253
2026-01-12 04:19:33.02	288.83	7.46	-54.0	-70.2	3.8	1.49e+00	0	23	104	0	73	24203
2026-01-12 04:19:34.03	288.74	7.39	-54.0	-70.2	3.8	1.49e+00	0	23	104	0	73	24204
2026-01-12 04:19:35.04	288.66	7.32	-54.0	-70.2	3.8	1.49e+00	0	23	104	0	73	24243
2026-01-12 04:19:36.05	288.57	7.26	-54.0	-70.2	3.8	1.49e+00	0	23	104	0	73	24279
2026-01-12 04:19:37.05	288.48	7.19	-54.0	-70.2	3.8	1.49e+00	0	23	104	0	73	24200
2026-01-12 04:19:38.06	288.39	7.13	-54.0	-70.2	3.8	1.49e+00	0	23	104	0	73	24219
2026-01-12 04:19:39.07	288.30	7.06	-54.0	-70.2	3.8	1.49e+00	0	23	104	0	73	24251
2026-01-12 04:19:40.08	288.22	6.99	-54.0	-70.2	3.8	1.49e+00	0	23	104	0	73	24176
2026-01-12 04:19:41.09	288.13	6.93	-53.9	-70.2	3.8	1.49e+00	0	23	104	0	73	24324
2026-01-12 04:19:42.10	288.04	6.86	-54.0	-70.2	3.8	1.49e+00	0	23	104	0	73	24289
2026-01-12 04:19:43.11	287.96	6.80	-54.0	-70.2	3.8	1.49e+00	0	23	104	0	73	24277
2026-01-12 04:19:44.12	287.87	6.73	-54.0	-70.2	3.8	1.49e+00	0	23	104	0	73	24241
2026-01-12 04:19:45.13	287.79	6.67	-54.0	-70.2	3.8	1.49e+00	0	23	104	0	73	24249
2026-01-12 04:19:46.14	287.70	6.60	-54.0	-70.2	3.8	1.49e+00	0	23	104	0	73	24238
2026-01-12 04:19:47.15	287.62	6.54	-54.0	-70.2	3.8	1.49e+00	0	23	104	0	73	24317
2026-01-12 04:19:48.15	287.54	6.47	-54.0	-70.2	3.8	1.49e+00	0	23	104	0	73	24255
2026-01-12 04:19:49.17	287.45	6.41	-54.0	-70.2	3.8	1.49e+00	0	23	104	0	73	24314
2026-01-12 04:19:50.18	287.37	6.34	-54.0	-70.2	3.8	1.49e+00	0	23	104	0	73	24312
2026-01-12 04:19:51.18	287.29	6.28	-54.0	-70.2	3.8	1.49e+00	0	23	104	0	73	24307
2026-01-12 04:19:52.20	287.20	6.21	-54.0	-70.2	3.8	1.49e+00	0	23	104	0	73	24315
2026-01-12 04:19:53.20	287.12	6.15	-54.0	-70.2	3.8	1.49e+00	0	23	104	0	73	24320
2026-01-12 04:19:54.21	287.04	6.08	-54.0	-70.2	3.8	1.49e+00	0	23	104	0	73	24306
2026-01-12 04:19:55.22	286.96	6.02	-54.0	-70.2	3.8	1.49e+00	0	23	104	0	73	24313
2026-01-12 04:19:56.23	286.88	5.95	-54.0	-70.2	3.8	1.49e+00	0	23	104	0	73	24307
2026-01-12 04:19:57.24	286.80	5.89	-54.0	-70.2	3.8	1.49e+00	0	23	104	0	73	24289
2026-01-12 04:19:58.24	286.72	5.83	-54.0	-70.2	3.8	1.49e+00	0	23	104	0	73	24306
2026-01-12 04:19:59.25	286.64	5.76	-54.0	-70.2	3.8	1.49e+00	0	23	104	0	73	24290
2026-01-12 04:20:00.26	286.56	5.70	-54.0	-70.2	3.8	1.49e+00	0	23	104	0	73	24260
2026-01-12 04:20:01.28	286.48	5.63	-54.0	-70.2	3.8	1.49e+00	0	23	104	0	73	24253
2026-01-12 04:20:02.29	286.40	5.57	-54.0	-70.2	3.8	1.49e+00	0	23	104	0	73	24206
2026-01-12 04:20:03.29	286.32	5.51	-54.0	-70.2	3.8	1.49e+00	0	23	104	0	73	24303
2026-01-12 04:20:04.31	286.25	5.44	-54.1	-70.2	3.8	1.49e+00	0	23	104	0	73	24313
2026-01-12 04:20:05.32	286.17	5.38	-54.0	-70.2	3.8	1.49e+00	0	23	104	0	73	24342
2026-01-12 04:20:06.33	286.09	5.32	-54.1	-70.2	3.8	1.49e+00	0	23	104	0	73	24335
2026-01-12 04:20:07.34	286.01	5.25	-54.0	-70.2	3.8	1.49e+00	0	23	104	0	73	24257
2026-01-12 04:20:08.35	285.94	5.19	-54.1	-70.2	3.8	1.49e+00	0	23	104	0	73	24239
2026-01-12 04:20:09.35	285.86	5.13	-54.1	-70.2	3.8	1.49e+00	0	23	104	0	73	24266
2026-01-12 04:20:10.37	285.79	5.07	-54.0	-70.2	3.8	1.49e+00	0	23	104	0	73	24310
2026-01-12 04:20:11.37	285.71	5.00	-54.1	-70.2	3.8	1.49e+00	0	23	104	0	73	24317
2026-01-12 04:20:12.38	285.64	4.94	-54.0	-70.2	3.8	1.49e+00	0	23	104	0	73	24234
2026-01-12 04:20:13.39	285.56	4.88	-54.0	-70.2	3.8	1.49e+00	0	23	104	0	73	24351
2026-01-12 04:20:14.40	285.49	4.82	-54.0	-70.2	3.8	1.49e+00	0	23	104	0	73	24299
2026-01-12 04:20:15.41	285.41	4.75	-54.0	-70.2	3.8	1.49e+00	0	23	104	0	73	24307
2026-01-12 04:20:16.42	285.34	4.69	-54.0	-70.2	3.8	1.49e+00	0	23	104	0	73	24322
2026-01-12 04:20:17.42	285.27	4.63	-54.0	-70.2	3.8	1.49e+00	0	23	104	0	73	24285
2026-01-12 04:20:18.43	285.19	4.57	-54.0	-70.2	3.8	1.49e+00	0	23	104	0	73	24231
2026-01-12 04:20:19.44	285.12	4.51	-54.0	-70.2	3.8	1.49e+00	0	23	104	0	73	24356
2026-01-12 04:20:20.45	285.05	4.44	-54.1	-70.2	3.8	1.49e+00	0	23	104	0	73	24296
2026-01-12 04:20:21.46	284.98	4.38	-54.1	-70.2	3.8	1.49e+00	0	23	104	0	73	24250
2026-01-12 04:20:22.47	284.90	4.32	-54.0	-70.2	3.8	1.49e+00	0	23	104	0	73	24273
2026-01-12 04:20:23.48	284.83	4.26	-54.1	-70.2	3.8	1.49e+00	0	23	104	0	73	24315
2026-01-12 04:20:24.49	284.76	4.20	-54.0	-70.2	3.8	1.49e+00	0	23	104	0	73	24261
2026-01-12 04:20:25.50	284.69	4.14	-54.0	-70.2	3.8	1.49e+00	0	23	104	0	73	24308
2026-01-12 04:20:26.51	284.62	4.07	-54.0	-70.2	3.8	1.49e+00	0	23	104	0	73	24256
2026-01-12 04:20:27.52	284.55	4.01	-54.0	-70.2	3.8	1.49e+00	0	23	104	0	73	24296
2026-01-12 04:20:28.53	284.48	3.95	-54.0	-70.2	3.8	1.49e+00	0	23	104	0	73	24276
2026-01-12 04:20:29.53	284.41	3.89	-54.0	-70.2	3.8	1.49e+00	0	23	104	0	73	24281
2026-01-12 04:20:30.54	284.34	3.83	-54.0	-70.2	3.8	1.49e+00	0	23	104	0	73	24303
2026-01-12 04:20:31.55	284.27	3.77	-54.0	-70.2	3.8	1.49e+00	0	23	104	0	73	24307
2026-01-12 04:20:32.56	284.20	3.71	-54.0	-70.2	3.8	1.49e+00	0	23	104	0	73	24309
2026-01-12 04:20:33.57	284.13	3.65	-54.0	-70.2	3.8	1.49e+00	0	23	104	0	73	24266
2026-01-12 04:20:34.58	284.07	3.59	-54.0	-70.2	3.8	1.49e+00	0	23	104	0	73	24235
2026-01-12 04:20:35.59	284.00	3.53	-54.0	-70.2	3.8	1.49e+00	0	23	104	0	73	24316
2026-01-12 04:20:36.60	283.93	3.47	-54.0	-70.2	3.8	1.49e+00	0	23	104	0	73	24322
2026-01-12 04:20:37.60	283.86	3.41	-54.0	-70.2	3.8	1.49e+00	0	23	104	0	73	24318
2026-01-12 04:20:38.61	283.80	3.35	-54.0	-70.2	3.8	1.49e+00	0	23	104	0	73	24319
2026-01-12 04:20:39.62	283.73	3.29	-54.0	-70.2	3.8	1.49e+00	0	23	104	0	73	24305
