passes_logs/2026/01/12/R3.2S_Murmansk/R3.2S_Murmansk__20260112_120712_SUOMI_NPP_rec.log

#Pass ID: 20260112_120712_SUOMI NPP
#Satellite: SUOMI NPP
#Configuration: NPP
#almurnet v.1.7.20251203
#Start time: 2026-01-12 12:07:13

#Version: 2.2.20231116
#Station: R3.2S_Murmansk
#Location: 33.079688 lon 68.888172 lat
#TLE: 1 37849U 11061A   26011.57971124  .00000103  00000+0  69927-4 0  9996
#TLE: 2 37849  98.7807 313.6578 0002518  69.5076 290.6370 14.19524515736228

#Time	Az	El	Level	Level2	SNR	BER	BlckErr	Temp	State	Recorded	gain1	gain2
2026-01-12 12:07:13.90	215.89	2.09	-57.3	-73.2	3.8	1.49e+00	0	20	0	0	81	21655
2026-01-12 12:07:14.89	215.96	2.14	-57.2	-73.1	3.8	1.49e+00	0	21	104	0	79	24122
2026-01-12 12:07:15.89	216.04	2.20	-57.2	-73.1	3.8	1.49e+00	0	20	104	0	79	24109
2026-01-12 12:07:16.88	216.11	2.25	-57.2	-73.1	3.8	1.49e+00	0	20	104	0	79	24116
2026-01-12 12:07:17.87	216.18	2.30	-57.2	-73.1	3.8	1.49e+00	0	20	104	0	79	23963
2026-01-12 12:07:18.86	216.26	2.36	-57.2	-73.1	3.8	1.49e+00	0	20	104	0	79	24070
2026-01-12 12:07:19.86	216.34	2.41	-57.2	-73.1	3.8	1.49e+00	0	21	104	0	79	23935
2026-01-12 12:07:20.84	216.41	2.47	-57.2	-73.1	3.8	1.49e+00	0	21	104	0	79	23934
2026-01-12 12:07:21.83	216.49	2.52	-57.2	-73.1	3.8	1.49e+00	0	21	104	0	79	24003
2026-01-12 12:07:22.82	216.56	2.58	-57.2	-73.1	3.8	1.49e+00	0	21	104	0	79	24057
2026-01-12 12:07:23.81	216.64	2.63	-57.2	-73.1	3.8	1.49e+00	0	21	104	0	79	24017
2026-01-12 12:07:24.81	216.72	2.68	-57.2	-73.1	3.8	1.49e+00	0	21	104	0	79	24119
2026-01-12 12:07:25.80	216.79	2.74	-57.2	-73.1	3.8	1.49e+00	0	21	104	0	79	24028
2026-01-12 12:07:26.79	216.87	2.79	-57.2	-73.1	3.8	1.49e+00	0	21	104	0	79	24077
2026-01-12 12:07:27.78	216.95	2.85	-57.2	-73.1	3.8	1.49e+00	0	21	104	0	79	24085
2026-01-12 12:07:28.77	217.02	2.90	-57.2	-73.1	3.8	1.49e+00	0	21	104	0	79	24033
2026-01-12 12:07:29.76	217.10	2.96	-57.2	-73.1	3.8	1.49e+00	0	21	104	0	79	24115
2026-01-12 12:07:30.75	217.18	3.01	-57.2	-73.1	3.8	1.49e+00	0	21	104	0	79	24078
2026-01-12 12:07:31.74	217.26	3.07	-57.2	-73.1	3.8	1.49e+00	0	21	104	0	79	24125
2026-01-12 12:07:32.73	217.34	3.12	-57.2	-73.2	3.8	1.49e+00	0	21	104	0	79	24172
2026-01-12 12:07:33.72	217.42	3.18	-57.2	-73.1	3.8	1.49e+00	0	21	104	0	79	24129
2026-01-12 12:07:34.72	217.50	3.23	-57.2	-73.1	3.8	1.49e+00	0	21	104	0	79	24116
2026-01-12 12:07:35.72	217.58	3.29	-57.2	-73.1	3.8	1.49e+00	0	21	104	0	79	24083
2026-01-12 12:07:36.71	217.66	3.34	-57.2	-73.2	3.8	1.49e+00	0	21	104	0	79	24132
2026-01-12 12:07:37.70	217.74	3.40	-57.2	-73.1	3.8	1.49e+00	0	21	104	0	79	24084
2026-01-12 12:07:38.69	217.82	3.45	-57.2	-73.1	3.8	1.49e+00	0	21	104	0	79	23959
2026-01-12 12:07:39.69	217.90	3.51	-57.2	-73.1	3.8	1.49e+00	0	21	104	0	79	23885
2026-01-12 12:07:40.68	217.98	3.56	-57.2	-73.0	3.8	1.49e+00	0	21	104	0	79	23715
2026-01-12 12:07:41.68	218.06	3.62	-57.2	-72.9	3.8	1.49e+00	0	21	104	0	79	23548
2026-01-12 12:07:42.67	218.14	3.68	-57.2	-72.9	3.8	1.49e+00	0	21	104	0	79	23467
2026-01-12 12:07:43.67	218.23	3.73	-57.2	-72.8	3.8	1.49e+00	0	21	104	0	79	23227
2026-01-12 12:07:44.66	218.31	3.79	-57.2	-72.8	3.8	1.49e+00	0	21	104	0	79	23265
2026-01-12 12:07:45.66	218.39	3.84	-57.2	-72.8	3.8	1.49e+00	0	21	104	0	79	23070
2026-01-12 12:07:46.66	218.48	3.90	-57.2	-72.7	3.8	1.49e+00	0	21	104	0	79	22932
2026-01-12 12:07:47.65	218.56	3.96	-57.1	-72.4	3.8	1.49e+00	0	21	104	0	79	22222
2026-01-12 12:07:48.64	218.64	4.01	-57.1	-72.5	3.8	1.49e+00	0	21	104	0	79	22293
2026-01-12 12:07:49.63	218.73	4.07	-57.2	-72.5	3.8	1.49e+00	0	21	104	0	79	22520
2026-01-12 12:07:50.63	218.81	4.13	-57.2	-72.8	3.8	1.49e+00	0	21	104	0	79	23173
2026-01-12 12:07:51.62	218.90	4.18	-57.2	-73.1	3.8	1.49e+00	0	21	104	0	79	23918
2026-01-12 12:07:52.62	218.98	4.24	-57.2	-73.1	3.8	1.49e+00	0	21	104	0	79	23977
2026-01-12 12:07:53.61	219.07	4.29	-57.2	-72.8	3.8	1.49e+00	0	21	104	0	79	23268
2026-01-12 12:07:54.61	219.15	4.35	-57.1	-71.4	3.8	1.49e+00	0	21	104	0	79	19618
2026-01-12 12:07:55.61	219.24	4.41	-57.0	-70.1	4.1	1.46e+00	0	21	0	0	79	17079
2026-01-12 12:07:56.60	219.32	4.47	-57.0	-69.2	4.3	1.37e+00	7	21	0	0	79	15395
2026-01-12 12:07:57.59	219.41	4.52	-56.9	-67.9	4.8	9.95e-01	0	21	0	1048576	79	13217
2026-01-12 12:07:58.59	219.50	4.58	-56.9	-68.0	4.8	7.90e-01	0	21	0	3145728	79	13330
2026-01-12 12:07:59.59	219.59	4.64	-56.8	-67.1	5.2	6.78e-01	0	21	0	5242880	79	12037
2026-01-12 12:08:00.58	219.67	4.69	-56.7	-66.2	5.8	4.38e-01	0	22	0	6291456	79	10889
2026-01-12 12:08:01.57	219.76	4.75	-56.6	-65.1	6.6	3.26e-01	0	22	0	8388608	79	9509
2026-01-12 12:08:02.57	219.85	4.81	-56.3	-63.6	7.9	7.58e-02	0	21	0	10485760	79	8056
2026-01-12 12:08:03.55	219.94	4.86	-55.9	-62.0	9.3	1.33e-02	0	21	0	12582912	78	7080
2026-01-12 12:08:04.54	220.02	4.92	-55.4	-60.4	10.7	3.67e-03	0	21	0	14680064	77	6207
2026-01-12 12:08:05.54	220.11	4.98	-54.9	-59.2	11.6	1.71e-04	0	21	0	15728640	76	5742
2026-01-12 12:08:06.53	220.20	5.04	-54.6	-58.6	12.1	1.06e-05	0	22	0	17825792	75	5682
2026-01-12 12:08:07.52	220.29	5.09	-55.8	-61.6	9.8	6.17e-05	0	22	0	19922944	76	7585
2026-01-12 12:08:08.52	220.38	5.15	-54.5	-58.4	12.2	1.02e-01	0	21	0	22020096	75	5537
2026-01-12 12:08:09.51	220.47	5.21	-56.0	-62.8	8.7	1.50e-06	0	21	0	23068672	77	8209
2026-01-12 12:08:10.50	220.56	5.27	-53.9	-57.3	12.6	6.94e-01	0	21	0	25165824	74	5213
2026-01-12 12:08:11.50	220.66	5.32	-52.9	-55.7	13.8	0.00e+00	0	22	0	27262976	71	5104
2026-01-12 12:08:12.49	220.75	5.38	-52.8	-55.5	13.9	0.00e+00	0	22	0	28311552	71	5023
2026-01-12 12:08:13.48	220.84	5.44	-52.8	-55.5	13.9	0.00e+00	0	22	0	30408704	71	4998
2026-01-12 12:08:14.48	220.93	5.50	-52.7	-55.3	14.0	0.00e+00	0	22	0	32505856	71	4904
2026-01-12 12:08:15.47	221.02	5.55	-53.1	-56.0	13.5	0.00e+00	0	21	0	34603008	71	5308
2026-01-12 12:08:16.46	221.12	5.61	-53.0	-55.7	13.8	0.00e+00	0	21	0	36700160	71	5156
2026-01-12 12:08:17.46	221.21	5.67	-52.9	-55.7	13.8	0.00e+00	0	21	0	37748736	71	5102
2026-01-12 12:08:18.45	221.30	5.73	-53.2	-56.0	13.5	0.00e+00	0	22	0	39845888	71	5326
2026-01-12 12:08:19.44	221.40	5.79	-53.0	-55.7	13.8	0.00e+00	0	22	0	41943040	71	5131
2026-01-12 12:08:20.44	221.49	5.85	-52.9	-55.6	13.8	0.00e+00	0	21	0	44040192	71	5081
2026-01-12 12:08:21.44	221.59	5.90	-53.1	-55.9	13.7	0.00e+00	0	22	0	45088768	71	5227
2026-01-12 12:08:22.44	221.68	5.96	-53.2	-56.0	13.6	0.00e+00	0	22	0	47185920	71	5302
2026-01-12 12:08:23.44	221.78	6.02	-53.2	-56.0	13.6	0.00e+00	0	22	0	49283072	71	5330
2026-01-12 12:08:24.43	221.87	6.08	-53.2	-56.0	13.6	0.00e+00	0	22	0	51380224	71	5321
2026-01-12 12:08:25.42	221.97	6.14	-53.3	-56.2	13.5	0.00e+00	0	22	0	53477376	71	5452
2026-01-12 12:08:26.41	222.07	6.20	-53.2	-56.0	13.6	0.00e+00	0	22	0	54525952	71	5317
2026-01-12 12:08:27.40	222.16	6.26	-53.5	-56.5	13.4	0.00e+00	0	22	0	56623104	72	5332
2026-01-12 12:08:28.40	222.26	6.32	-53.1	-55.8	13.9	0.00e+00	0	22	0	58720256	72	4921
2026-01-12 12:08:29.40	222.36	6.38	-53.1	-55.9	13.8	0.00e+00	0	22	0	60817408	72	4959
2026-01-12 12:08:30.39	222.46	6.43	-53.5	-56.6	13.3	0.00e+00	0	22	0	61865984	72	5349
2026-01-12 12:08:31.38	222.55	6.49	-53.3	-56.1	13.7	0.00e+00	0	22	0	63963136	72	5062
2026-01-12 12:08:32.38	222.65	6.55	-53.0	-55.7	14.0	0.00e+00	0	22	0	66060288	72	4817
2026-01-12 12:08:33.37	222.75	6.61	-53.0	-55.7	14.0	0.00e+00	0	22	0	68157440	72	4823
2026-01-12 12:08:34.36	222.85	6.67	-52.9	-55.5	14.1	0.00e+00	0	22	0	70254592	72	4732
2026-01-12 12:08:35.35	222.95	6.73	-52.8	-55.4	14.2	0.00e+00	0	22	0	71303168	72	4663
2026-01-12 12:08:36.35	223.05	6.79	-52.8	-55.3	14.3	0.00e+00	0	22	0	73400320	72	4605
2026-01-12 12:08:37.35	223.15	6.85	-52.7	-55.2	14.3	0.00e+00	0	22	0	75497472	72	4586
2026-01-12 12:08:38.35	223.25	6.91	-52.8	-55.3	14.3	0.00e+00	0	22	0	77594624	72	4603
2026-01-12 12:08:39.34	223.36	6.97	-52.6	-55.1	14.2	0.00e+00	0	22	0	78643200	71	4763
2026-01-12 12:08:40.34	223.46	7.03	-52.7	-55.2	14.2	0.00e+00	0	22	0	80740352	71	4821
2026-01-12 12:08:41.33	223.56	7.09	-52.6	-55.1	14.3	0.00e+00	0	22	0	82837504	71	4764
2026-01-12 12:08:42.32	223.66	7.15	-52.6	-55.1	14.2	0.00e+00	0	22	0	84934656	71	4786
2026-01-12 12:08:43.31	223.76	7.21	-52.6	-55.1	14.3	0.00e+00	0	22	0	87031808	71	4765
2026-01-12 12:08:44.31	223.87	7.27	-52.6	-55.0	14.3	0.00e+00	0	22	0	88080384	71	4738
2026-01-12 12:08:45.30	223.97	7.33	-52.8	-55.3	14.1	0.00e+00	0	22	0	90177536	71	4889
2026-01-12 12:08:46.29	224.08	7.39	-52.7	-55.2	14.2	0.00e+00	0	22	0	92274688	71	4862
2026-01-12 12:08:47.28	224.18	7.45	-52.8	-55.3	14.1	0.00e+00	0	22	0	94371840	71	4888
2026-01-12 12:08:48.28	224.29	7.51	-52.8	-55.3	14.1	0.00e+00	0	22	0	95420416	71	4889
2026-01-12 12:08:49.27	224.39	7.57	-52.9	-55.4	14.0	0.00e+00	0	22	0	97517568	71	4981
2026-01-12 12:08:50.27	224.50	7.63	-52.8	-55.4	14.1	0.00e+00	0	22	0	99614720	71	4951
2026-01-12 12:08:51.26	224.60	7.69	-52.9	-55.5	14.0	0.00e+00	0	22	0	101711872	71	5000
2026-01-12 12:08:52.26	224.71	7.75	-53.0	-55.6	13.9	0.00e+00	0	22	0	103809024	71	5071
2026-01-12 12:08:53.25	224.82	7.81	-52.8	-55.2	14.2	0.00e+00	0	22	0	104857600	71	4867
2026-01-12 12:08:54.24	224.93	7.87	-52.9	-55.5	14.0	0.00e+00	0	22	0	106954752	71	5014
2026-01-12 12:08:55.24	225.04	7.93	-53.0	-55.6	13.9	0.00e+00	0	22	0	109051904	71	5072
2026-01-12 12:08:56.24	225.14	7.99	-53.0	-55.6	13.9	0.00e+00	0	22	0	111149056	71	5054
2026-01-12 12:08:57.23	225.25	8.05	-53.1	-55.8	13.8	0.00e+00	0	22	0	112197632	71	5218
2026-01-12 12:08:58.23	225.36	8.11	-53.1	-55.8	13.8	0.00e+00	0	22	0	114294784	71	5183
2026-01-12 12:08:59.22	225.47	8.17	-53.0	-55.6	14.0	0.00e+00	0	22	0	116391936	71	5046
2026-01-12 12:09:00.21	225.58	8.23	-53.2	-55.9	13.8	0.00e+00	0	22	0	118489088	71	5236
2026-01-12 12:09:01.20	225.69	8.29	-53.0	-55.7	13.9	0.00e+00	0	22	0	120586240	71	5107
2026-01-12 12:09:02.20	225.80	8.36	-52.7	-55.1	14.3	0.00e+00	0	22	0	121634816	71	4813
2026-01-12 12:09:03.20	225.92	8.42	-52.8	-55.3	14.2	0.00e+00	0	22	0	123731968	71	4877
2026-01-12 12:09:04.19	226.03	8.48	-52.9	-55.4	14.1	0.00e+00	0	22	0	125829120	71	4936
2026-01-12 12:09:05.18	226.14	8.54	-52.7	-55.2	14.2	0.00e+00	0	22	0	127926272	71	4821
2026-01-12 12:09:06.17	226.25	8.60	-52.7	-55.1	14.3	0.00e+00	0	22	0	128974848	71	4792
2026-01-12 12:09:07.17	226.37	8.66	-52.9	-55.4	14.1	0.00e+00	0	22	0	131072000	71	4935
2026-01-12 12:09:08.15	226.48	8.72	-52.8	-55.3	14.1	0.00e+00	0	22	0	133169152	71	4899
2026-01-12 12:09:09.14	226.59	8.78	-52.8	-55.2	14.2	0.00e+00	0	22	0	135266304	71	4865
2026-01-12 12:09:10.13	226.71	8.85	-52.9	-55.4	14.1	0.00e+00	0	22	0	137363456	71	4930
2026-01-12 12:09:11.11	226.82	8.91	-52.8	-55.3	14.2	0.00e+00	0	22	0	138412032	71	4915
2026-01-12 12:09:12.11	226.94	8.97	-52.7	-55.2	14.3	0.00e+00	0	22	0	140509184	71	4835
2026-01-12 12:09:13.10	227.05	9.03	-52.8	-55.2	14.2	0.00e+00	0	22	0	142606336	71	4841
2026-01-12 12:09:14.09	227.17	9.09	-52.8	-55.3	14.1	0.00e+00	0	22	0	144703488	71	4912
2026-01-12 12:09:15.08	227.29	9.15	-52.7	-55.1	14.3	0.00e+00	0	22	0	145752064	71	4814
2026-01-12 12:09:16.08	227.41	9.21	-52.7	-55.1	14.3	0.00e+00	0	22	0	147849216	71	4779
2026-01-12 12:09:17.08	227.52	9.28	-52.6	-55.0	14.4	0.00e+00	0	22	0	149946368	71	4728
2026-01-12 12:09:18.07	227.64	9.34	-52.5	-54.9	14.5	0.00e+00	0	22	0	152043520	71	4657
2026-01-12 12:09:19.06	227.76	9.40	-52.4	-54.6	14.6	0.00e+00	0	22	0	154140672	71	4538
2026-01-12 12:09:20.05	227.88	9.46	-52.3	-54.5	14.8	0.00e+00	0	22	0	155189248	71	4452
2026-01-12 12:09:21.04	228.00	9.52	-52.2	-54.4	14.8	0.00e+00	0	22	0	157286400	71	4398
2026-01-12 12:09:22.04	228.12	9.59	-52.2	-54.4	14.8	0.00e+00	0	22	0	159383552	71	4428
2026-01-12 12:09:23.02	228.24	9.65	-52.1	-54.3	14.7	0.00e+00	0	22	0	161480704	70	4609
2026-01-12 12:09:24.02	228.36	9.71	-51.9	-54.0	14.8	0.00e+00	0	22	0	162529280	70	4483
2026-01-12 12:09:25.02	228.49	9.77	-52.0	-54.1	14.8	0.00e+00	0	22	0	164626432	70	4502
2026-01-12 12:09:26.00	228.61	9.83	-52.0	-54.2	14.7	0.00e+00	0	22	0	166723584	70	4558
2026-01-12 12:09:27.00	228.73	9.90	-52.0	-54.1	14.8	0.00e+00	0	22	0	168820736	70	4503
2026-01-12 12:09:28.00	228.85	9.96	-52.0	-54.0	14.8	0.00e+00	0	22	0	169869312	70	4489
2026-01-12 12:09:29.00	228.98	10.02	-52.0	-54.1	14.8	0.00e+00	0	22	0	171966464	70	4494
2026-01-12 12:09:29.99	229.10	10.08	-51.9	-54.0	14.9	0.00e+00	0	22	0	174063616	70	4454
2026-01-12 12:09:30.98	229.23	10.15	-51.8	-53.9	14.9	0.00e+00	0	22	0	176160768	70	4414
2026-01-12 12:09:31.98	229.35	10.21	-51.9	-53.9	14.9	0.00e+00	0	22	0	178257920	70	4435
2026-01-12 12:09:32.97	229.48	10.27	-51.8	-53.9	15.0	0.00e+00	0	22	0	179306496	70	4409
2026-01-12 12:09:33.96	229.61	10.33	-51.9	-53.9	14.9	0.00e+00	0	22	0	181403648	70	4439
2026-01-12 12:09:34.97	229.74	10.40	-51.8	-53.8	15.0	0.00e+00	0	22	0	183500800	70	4376
2026-01-12 12:09:35.97	229.86	10.46	-51.8	-53.9	15.0	0.00e+00	0	22	0	185597952	70	4395
2026-01-12 12:09:36.96	229.99	10.52	-51.9	-53.9	14.9	0.00e+00	0	22	0	187695104	70	4431
2026-01-12 12:09:37.95	230.12	10.58	-52.0	-54.0	14.8	0.00e+00	0	22	0	188743680	70	4491
2026-01-12 12:09:38.95	230.25	10.65	-52.0	-54.1	14.8	0.00e+00	0	22	0	190840832	70	4528
2026-01-12 12:09:39.94	230.38	10.71	-51.8	-53.9	14.9	0.00e+00	0	22	0	192937984	70	4405
2026-01-12 12:09:40.93	230.51	10.77	-52.0	-54.1	14.8	0.00e+00	0	22	0	195035136	70	4533
2026-01-12 12:09:41.92	230.64	10.84	-51.9	-54.0	14.9	0.00e+00	0	22	0	196083712	70	4470
2026-01-12 12:09:42.92	230.77	10.90	-51.9	-54.0	14.9	0.00e+00	0	22	0	198180864	70	4474
2026-01-12 12:09:43.91	230.90	10.96	-51.9	-54.0	14.9	0.00e+00	0	22	0	200278016	70	4454
2026-01-12 12:09:44.90	231.04	11.02	-51.8	-53.9	15.0	0.00e+00	0	22	0	202375168	70	4409
2026-01-12 12:09:45.90	231.17	11.09	-51.9	-53.9	14.9	0.00e+00	0	22	0	204472320	70	4435
2026-01-12 12:09:46.90	231.30	11.15	-51.9	-54.0	14.9	0.00e+00	0	22	0	205520896	70	4454
2026-01-12 12:09:47.89	231.44	11.21	-51.9	-54.0	14.9	0.00e+00	0	22	0	207618048	70	4476
2026-01-12 12:09:48.88	231.57	11.28	-52.1	-54.2	14.8	0.00e+00	0	22	0	209715200	70	4565
2026-01-12 12:09:49.88	231.71	11.34	-52.0	-54.1	14.8	0.00e+00	0	22	0	211812352	70	4532
2026-01-12 12:09:50.87	231.84	11.40	-52.1	-54.2	14.8	0.00e+00	0	22	0	212860928	70	4556
2026-01-12 12:09:51.86	231.98	11.47	-52.0	-54.1	14.8	0.00e+00	0	22	0	214958080	70	4500
2026-01-12 12:09:52.86	232.12	11.53	-52.0	-54.1	14.8	0.00e+00	0	22	0	217055232	70	4507
2026-01-12 12:09:53.85	232.25	11.59	-52.0	-54.1	14.8	0.00e+00	0	22	0	219152384	70	4507
2026-01-12 12:09:54.85	232.39	11.65	-52.0	-54.1	14.8	0.00e+00	0	22	0	220200960	70	4524
2026-01-12 12:09:55.84	232.53	11.72	-51.9	-53.9	15.0	0.00e+00	0	22	0	222298112	70	4421
2026-01-12 12:09:56.83	232.67	11.78	-51.8	-53.8	15.0	0.00e+00	0	22	0	224395264	70	4391
2026-01-12 12:09:57.82	232.81	11.84	-51.5	-53.4	15.1	0.00e+00	0	22	0	226492416	69	4431
2026-01-12 12:09:58.81	232.95	11.91	-51.5	-53.5	15.0	0.00e+00	0	22	0	228589568	69	4461
2026-01-12 12:09:59.80	233.09	11.97	-51.6	-53.6	15.0	0.00e+00	0	22	0	229638144	69	4517
2026-01-12 12:10:00.80	233.23	12.03	-51.5	-53.4	15.1	0.00e+00	0	22	0	231735296	69	4420
2026-01-12 12:10:01.80	233.37	12.10	-51.5	-53.4	15.1	0.00e+00	0	22	0	233832448	69	4409
2026-01-12 12:10:02.78	233.52	12.16	-51.4	-53.3	15.1	0.00e+00	0	22	0	235929600	69	4378
2026-01-12 12:10:03.78	233.66	12.22	-51.5	-53.4	15.1	0.00e+00	0	22	0	236978176	69	4414
2026-01-12 12:10:04.77	233.80	12.29	-51.3	-53.2	15.2	0.00e+00	0	22	0	239075328	69	4310
2026-01-12 12:10:05.76	233.95	12.35	-51.4	-53.3	15.2	0.00e+00	0	22	0	241172480	69	4355
2026-01-12 12:10:06.76	234.09	12.41	-51.3	-53.2	15.2	0.00e+00	0	22	0	243269632	69	4317
2026-01-12 12:10:07.76	234.24	12.48	-51.3	-53.2	15.2	0.00e+00	0	22	0	245366784	69	4320
2026-01-12 12:10:08.75	234.39	12.54	-51.5	-53.5	15.0	0.00e+00	0	22	0	246415360	69	4457
2026-01-12 12:10:09.74	234.53	12.60	-51.5	-53.5	15.1	0.00e+00	0	22	0	248512512	69	4453
2026-01-12 12:10:10.73	234.68	12.66	-51.6	-53.5	15.0	0.00e+00	0	22	0	250609664	69	4471
2026-01-12 12:10:11.73	234.83	12.73	-51.6	-53.6	15.0	0.00e+00	0	22	0	252706816	69	4529
2026-01-12 12:10:12.73	234.98	12.79	-51.7	-53.7	14.9	0.00e+00	0	22	0	253755392	69	4584
2026-01-12 12:10:13.72	235.13	12.85	-51.6	-53.5	15.0	0.00e+00	0	22	0	255852544	69	4472
2026-01-12 12:10:14.72	235.28	12.92	-51.6	-53.6	15.0	0.00e+00	0	22	0	257949696	69	4501
2026-01-12 12:10:15.71	235.43	12.98	-51.7	-53.6	14.9	0.00e+00	0	22	0	260046848	69	4534
2026-01-12 12:10:16.70	235.58	13.04	-51.6	-53.5	15.0	0.00e+00	0	22	0	262144000	69	4477
2026-01-12 12:10:17.70	235.73	13.11	-51.6	-53.6	15.0	0.00e+00	0	22	0	263192576	69	4518
2026-01-12 12:10:18.69	235.88	13.17	-51.7	-53.7	14.9	0.00e+00	0	22	0	265289728	69	4568
2026-01-12 12:10:19.68	236.04	13.23	-51.6	-53.6	14.9	0.00e+00	0	22	0	267386880	69	4512
2026-01-12 12:10:20.67	236.19	13.30	-51.7	-53.7	14.9	0.00e+00	0	22	0	269484032	69	4585
2026-01-12 12:10:21.68	236.35	13.36	-51.7	-53.7	14.9	0.00e+00	0	22	0	270532608	69	4598
2026-01-12 12:10:22.67	236.50	13.42	-51.7	-53.7	14.9	0.00e+00	0	22	0	272629760	69	4591
2026-01-12 12:10:23.65	236.65	13.49	-51.7	-53.7	14.9	0.00e+00	0	22	0	274726912	69	4586
2026-01-12 12:10:24.65	236.81	13.55	-51.6	-53.6	15.0	0.00e+00	0	22	0	276824064	69	4505
2026-01-12 12:10:25.64	236.97	13.61	-51.5	-53.4	15.1	0.00e+00	0	22	0	278921216	69	4427
2026-01-12 12:10:26.63	237.12	13.67	-51.5	-53.5	15.0	0.00e+00	0	22	0	279969792	69	4447
2026-01-12 12:10:27.62	237.28	13.74	-51.4	-53.3	15.2	0.00e+00	0	22	0	282066944	69	4352
2026-01-12 12:10:28.61	237.44	13.80	-51.3	-53.1	15.3	0.00e+00	0	22	0	284164096	69	4263
2026-01-12 12:10:29.60	237.60	13.86	-51.2	-53.0	15.3	0.00e+00	0	22	0	286261248	69	4208
2026-01-12 12:10:30.60	237.76	13.92	-51.1	-52.9	15.2	0.00e+00	0	22	0	287309824	68	4400
2026-01-12 12:10:31.59	237.92	13.99	-51.1	-52.9	15.2	0.00e+00	0	22	0	289406976	68	4435
2026-01-12 12:10:32.58	238.08	14.05	-51.0	-52.8	15.3	0.00e+00	0	22	0	291504128	68	4385
2026-01-12 12:10:33.58	238.25	14.11	-51.1	-52.9	15.2	0.00e+00	0	22	0	293601280	68	4407
2026-01-12 12:10:34.57	238.41	14.17	-51.1	-52.9	15.2	0.00e+00	0	22	0	295698432	68	4393
2026-01-12 12:10:35.58	238.57	14.24	-51.1	-52.9	15.2	0.00e+00	0	22	0	296747008	68	4432
2026-01-12 12:10:36.57	238.74	14.30	-51.0	-52.8	15.3	0.00e+00	0	22	0	298844160	68	4360
2026-01-12 12:10:37.57	238.90	14.36	-51.0	-52.8	15.3	0.00e+00	0	22	0	300941312	68	4344
2026-01-12 12:10:38.56	239.07	14.43	-51.1	-52.8	15.3	0.00e+00	0	22	0	303038464	68	4389
2026-01-12 12:10:39.56	239.24	14.49	-51.0	-52.8	15.3	0.00e+00	0	22	0	304087040	68	4344
2026-01-12 12:10:40.55	239.40	14.55	-51.2	-53.0	15.2	0.00e+00	0	22	0	306184192	68	4468
2026-01-12 12:10:41.54	239.57	14.61	-51.2	-53.0	15.1	0.00e+00	0	22	0	308281344	68	4453
2026-01-12 12:10:42.53	239.74	14.67	-51.3	-53.1	15.1	0.00e+00	0	22	0	310378496	68	4514
2026-01-12 12:10:43.52	239.90	14.74	-51.3	-53.1	15.1	0.00e+00	0	22	0	312475648	68	4524
2026-01-12 12:10:44.51	240.07	14.80	-51.2	-53.0	15.1	0.00e+00	0	22	0	313524224	68	4482
2026-01-12 12:10:45.51	240.25	14.86	-51.2	-53.0	15.1	0.00e+00	0	22	0	315621376	68	4491
2026-01-12 12:10:46.52	240.42	14.92	-51.2	-53.1	15.1	0.00e+00	0	22	0	317718528	68	4496
2026-01-12 12:10:47.51	240.59	14.98	-51.2	-53.1	15.1	0.00e+00	0	22	0	319815680	68	4499
2026-01-12 12:10:48.50	240.76	15.05	-51.3	-53.2	15.1	0.00e+00	0	22	0	320864256	68	4552
2026-01-12 12:10:49.49	240.93	15.11	-51.5	-53.4	14.9	0.00e+00	0	22	0	322961408	68	4700
2026-01-12 12:10:50.49	241.11	15.17	-51.6	-53.5	14.9	0.00e+00	0	22	0	325058560	68	4741
2026-01-12 12:10:51.49	241.28	15.23	-51.6	-53.6	14.8	0.00e+00	0	22	0	327155712	68	4805
2026-01-12 12:10:52.48	241.46	15.29	-51.6	-53.6	14.8	0.00e+00	0	22	0	329252864	68	4790
2026-01-12 12:10:53.47	241.63	15.35	-51.7	-53.7	14.7	0.00e+00	0	22	0	330301440	68	4857
2026-01-12 12:10:54.47	241.81	15.41	-51.5	-53.5	14.9	0.00e+00	0	22	0	332398592	68	4710
2026-01-12 12:10:55.46	241.99	15.47	-51.4	-53.3	15.0	0.00e+00	0	22	0	334495744	68	4637
2026-01-12 12:10:56.44	242.16	15.53	-51.4	-53.3	15.0	0.00e+00	0	22	0	336592896	68	4605
2026-01-12 12:10:57.39	242.33	15.59	-51.3	-53.1	15.1	0.00e+00	0	22	0	337641472	68	4515
2026-01-12 12:10:58.37	242.51	15.65	-51.2	-53.1	15.1	0.00e+00	0	22	0	339738624	68	4505
2026-01-12 12:10:59.35	242.69	15.71	-51.2	-53.0	15.2	0.00e+00	0	22	0	341835776	68	4449
2026-01-12 12:11:00.35	242.87	15.77	-51.3	-53.2	15.1	0.00e+00	0	22	0	343932928	68	4565
2026-01-12 12:11:01.35	243.05	15.83	-51.6	-53.5	14.9	0.00e+00	0	22	0	346030080	68	4731
2026-01-12 12:11:02.35	243.24	15.89	-51.7	-53.6	14.8	0.00e+00	0	22	0	347078656	68	4806
2026-01-12 12:11:03.34	243.42	15.95	-51.5	-53.5	14.9	0.00e+00	0	22	0	349175808	68	4717
2026-01-12 12:11:04.34	243.60	16.01	-51.5	-53.4	14.9	0.00e+00	0	22	0	351272960	68	4692
2026-01-12 12:11:05.33	243.79	16.07	-51.4	-53.3	15.0	0.00e+00	0	22	0	353370112	68	4603
2026-01-12 12:11:06.32	243.97	16.13	-51.2	-53.0	15.1	0.00e+00	0	22	0	354418688	68	4487
2026-01-12 12:11:07.32	244.16	16.19	-51.3	-53.1	15.1	0.00e+00	0	22	0	356515840	68	4514
2026-01-12 12:11:08.31	244.34	16.25	-51.1	-52.9	15.2	0.00e+00	0	22	0	358612992	68	4440
2026-01-12 12:11:09.30	244.53	16.31	-51.1	-52.9	15.2	0.00e+00	0	22	0	360710144	68	4397
2026-01-12 12:11:10.30	244.72	16.37	-51.1	-52.8	15.2	0.00e+00	0	22	0	362807296	68	4388
2026-01-12 12:11:11.30	244.91	16.43	-51.0	-52.7	15.3	0.00e+00	0	22	0	363855872	68	4338
2026-01-12 12:11:12.29	245.10	16.49	-50.9	-52.6	15.4	0.00e+00	0	22	0	365953024	68	4277
2026-01-12 12:11:13.29	245.29	16.55	-51.0	-52.8	15.3	0.00e+00	0	22	0	368050176	68	4372
2026-01-12 12:11:14.28	245.48	16.61	-50.9	-52.6	15.4	0.00e+00	0	22	0	370147328	68	4291
2026-01-12 12:11:15.27	245.67	16.66	-50.9	-52.7	15.3	0.00e+00	0	22	0	371195904	68	4304
2026-01-12 12:11:16.26	245.86	16.72	-51.0	-52.8	15.3	0.00e+00	0	22	0	373293056	68	4362
2026-01-12 12:11:17.24	246.05	16.78	-51.0	-52.7	15.3	0.00e+00	0	22	0	375390208	68	4339
2026-01-12 12:11:18.23	246.24	16.84	-51.0	-52.7	15.3	0.00e+00	0	22	0	377487360	68	4327
2026-01-12 12:11:19.22	246.44	16.89	-51.0	-52.8	15.2	0.00e+00	0	22	0	378535936	68	4350
2026-01-12 12:11:20.21	246.63	16.95	-51.1	-52.9	15.2	0.00e+00	0	22	0	380633088	68	4423
2026-01-12 12:11:21.21	246.83	17.01	-51.2	-53.0	15.2	0.00e+00	0	22	0	382730240	68	4455
2026-01-12 12:11:22.20	247.02	17.07	-51.2	-53.1	15.1	0.00e+00	0	22	0	384827392	68	4501
2026-01-12 12:11:23.19	247.22	17.12	-51.2	-53.0	15.2	0.00e+00	0	22	0	386924544	68	4461
2026-01-12 12:11:24.18	247.42	17.18	-51.1	-52.9	15.2	0.00e+00	0	22	0	387973120	68	4436
2026-01-12 12:11:25.18	247.62	17.24	-51.1	-52.8	15.2	0.00e+00	0	22	0	390070272	68	4388
2026-01-12 12:11:26.17	247.82	17.29	-51.0	-52.7	15.3	0.00e+00	0	22	0	392167424	68	4311
2026-01-12 12:11:27.17	248.02	17.35	-51.1	-52.9	15.2	0.00e+00	0	22	0	394264576	68	4405
2026-01-12 12:11:28.17	248.22	17.41	-51.0	-52.7	15.3	0.00e+00	0	22	0	395313152	68	4313
2026-01-12 12:11:29.16	248.42	17.46	-51.0	-52.8	15.3	0.00e+00	0	22	0	397410304	68	4362
2026-01-12 12:11:30.15	248.62	17.52	-51.0	-52.8	15.3	0.00e+00	0	22	0	399507456	68	4375
2026-01-12 12:11:31.13	248.82	17.57	-51.2	-53.1	15.1	0.00e+00	0	22	0	401604608	68	4503
2026-01-12 12:11:32.12	249.02	17.63	-51.3	-53.1	15.1	0.00e+00	0	22	0	403701760	68	4520
2026-01-12 12:11:33.11	249.23	17.68	-51.4	-53.3	15.0	0.00e+00	0	22	0	404750336	68	4638
2026-01-12 12:11:34.11	249.43	17.73	-51.3	-53.2	15.1	0.00e+00	0	22	0	406847488	68	4548
2026-01-12 12:11:35.10	249.64	17.79	-51.2	-53.0	15.2	0.00e+00	0	22	0	408944640	68	4481
2026-01-12 12:11:36.08	249.84	17.84	-51.1	-52.9	15.2	0.00e+00	0	22	0	411041792	68	4431
2026-01-12 12:11:37.07	250.05	17.90	-51.1	-52.8	15.2	0.00e+00	0	22	0	412090368	68	4388
2026-01-12 12:11:38.06	250.26	17.95	-51.3	-53.1	15.1	0.00e+00	0	22	0	414187520	68	4511
2026-01-12 12:11:39.06	250.47	18.00	-51.3	-53.2	15.1	0.00e+00	0	22	0	416284672	68	4554
2026-01-12 12:11:40.05	250.67	18.06	-51.6	-53.5	14.9	0.00e+00	0	22	0	418381824	68	4746
2026-01-12 12:11:41.04	250.88	18.11	-51.9	-53.9	14.7	0.00e+00	0	22	0	419430400	68	4947
2026-01-12 12:11:42.03	251.09	18.16	-51.8	-53.8	14.7	0.00e+00	0	22	0	421527552	68	4915
2026-01-12 12:11:43.02	251.30	18.21	-51.8	-53.8	14.7	0.00e+00	0	22	0	423624704	68	4912
2026-01-12 12:11:44.01	251.52	18.27	-51.8	-53.8	14.9	0.00e+00	0	22	0	425721856	69	4619
2026-01-12 12:11:45.00	251.73	18.32	-51.9	-53.8	14.9	0.00e+00	0	22	0	426770432	69	4636
2026-01-12 12:11:45.99	251.94	18.37	-51.7	-53.7	15.0	0.00e+00	0	22	0	428867584	69	4549
2026-01-12 12:11:46.99	252.16	18.42	-51.9	-53.9	14.8	0.00e+00	0	22	0	430964736	69	4687
2026-01-12 12:11:47.99	252.37	18.47	-52.0	-54.0	14.8	0.00e+00	0	22	0	433061888	69	4742
2026-01-12 12:11:49.00	252.59	18.52	-52.2	-54.3	14.6	0.00e+00	0	22	0	435159040	69	4889
2026-01-12 12:11:50.00	252.81	18.57	-52.3	-54.5	14.5	0.00e+00	0	22	0	436207616	69	4994
2026-01-12 12:11:50.99	253.03	18.62	-52.3	-54.4	14.7	0.00e+00	0	22	0	438304768	70	4694
2026-01-12 12:11:51.98	253.24	18.67	-52.4	-54.6	14.6	0.00e+00	0	22	0	440401920	70	4780
2026-01-12 12:11:52.98	253.46	18.72	-52.7	-54.9	14.4	0.00e+00	0	22	0	442499072	70	4959
2026-01-12 12:11:53.97	253.68	18.77	-52.7	-54.9	14.4	0.00e+00	0	22	0	444596224	70	4968
2026-01-12 12:11:54.97	253.90	18.82	-52.8	-55.2	14.3	0.00e+00	0	22	0	445644800	70	5103
2026-01-12 12:11:55.96	254.12	18.87	-52.9	-55.2	14.3	0.00e+00	0	22	0	447741952	71	4857
2026-01-12 12:11:56.95	254.34	18.92	-53.1	-55.5	14.2	0.00e+00	0	22	0	449839104	71	4986
2026-01-12 12:11:57.94	254.56	18.97	-53.1	-55.6	14.1	0.00e+00	0	22	0	451936256	71	5050
2026-01-12 12:11:58.93	254.79	19.01	-52.8	-55.1	14.4	0.00e+00	0	22	0	452984832	71	4799
2026-01-12 12:11:59.92	255.01	19.06	-52.8	-55.0	14.5	0.00e+00	0	22	0	455081984	71	4748
2026-01-12 12:12:00.91	255.23	19.11	-52.9	-55.2	14.4	0.00e+00	0	22	0	457179136	71	4830
2026-01-12 12:12:01.91	255.46	19.16	-52.9	-55.2	14.4	0.00e+00	0	22	0	459276288	71	4856
2026-01-12 12:12:02.90	255.68	19.20	-53.0	-55.4	14.3	0.00e+00	0	22	0	461373440	71	4927
2026-01-12 12:12:03.90	255.91	19.25	-53.0	-55.3	14.3	0.00e+00	0	22	0	462422016	71	4922
2026-01-12 12:12:04.90	256.14	19.29	-52.9	-55.3	14.3	0.00e+00	0	22	0	464519168	71	4873
2026-01-12 12:12:05.90	256.37	19.34	-52.9	-55.2	14.4	0.00e+00	0	22	0	466616320	71	4816
2026-01-12 12:12:06.89	256.59	19.38	-52.7	-55.0	14.5	0.00e+00	0	22	0	468713472	71	4723
2026-01-12 12:12:07.89	256.82	19.43	-52.6	-54.7	14.6	0.00e+00	0	22	0	469762048	71	4598
2026-01-12 12:12:08.88	257.05	19.47	-52.5	-54.7	14.7	0.00e+00	0	22	0	471859200	71	4553
2026-01-12 12:12:09.89	257.28	19.52	-52.5	-54.7	14.7	0.00e+00	0	22	0	473956352	71	4553
2026-01-12 12:12:10.88	257.51	19.56	-52.7	-54.9	14.6	0.00e+00	0	22	0	476053504	71	4688
2026-01-12 12:12:11.87	257.74	19.60	-52.4	-54.6	14.8	0.00e+00	0	22	0	478150656	71	4501
2026-01-12 12:12:12.88	257.98	19.65	-52.6	-54.8	14.7	0.00e+00	0	22	0	479199232	71	4603
2026-01-12 12:12:13.87	258.21	19.69	-52.3	-54.4	14.9	0.00e+00	0	22	0	481296384	71	4403
2026-01-12 12:12:14.86	258.44	19.73	-52.2	-54.3	15.0	0.00e+00	0	22	0	483393536	71	4341
2026-01-12 12:12:15.85	258.68	19.77	-51.8	-53.8	15.1	0.00e+00	0	22	0	485490688	70	4345
2026-01-12 12:12:16.86	258.91	19.81	-51.6	-53.5	15.1	0.00e+00	0	22	0	487587840	69	4471
2026-01-12 12:12:17.85	259.15	19.85	-51.7	-53.7	15.0	0.00e+00	0	22	0	488636416	69	4565
2026-01-12 12:12:18.85	259.38	19.89	-51.6	-53.5	15.1	0.00e+00	0	22	0	490733568	69	4461
2026-01-12 12:12:19.84	259.62	19.93	-51.8	-53.8	14.9	0.00e+00	0	22	0	492830720	69	4635
2026-01-12 12:12:20.84	259.86	19.97	-52.0	-54.0	14.8	0.00e+00	0	22	0	494927872	69	4751
2026-01-12 12:12:21.83	260.09	20.01	-52.1	-54.2	14.7	0.00e+00	0	22	0	495976448	69	4826
2026-01-12 12:12:22.82	260.33	20.05	-51.9	-53.9	14.8	0.00e+00	0	22	0	498073600	69	4689
2026-01-12 12:12:23.82	260.57	20.09	-51.6	-53.5	15.1	0.00e+00	0	22	0	500170752	69	4447
2026-01-12 12:12:24.81	260.81	20.13	-51.3	-53.1	15.3	0.00e+00	0	22	0	502267904	69	4281
2026-01-12 12:12:25.81	261.05	20.16	-51.5	-53.4	15.2	0.00e+00	0	22	0	504365056	69	4392
2026-01-12 12:12:26.80	261.29	20.20	-51.5	-53.4	15.1	0.00e+00	0	22	0	505413632	69	4406
2026-01-12 12:12:27.79	261.53	20.24	-51.9	-53.8	14.9	0.00e+00	0	22	0	507510784	69	4633
2026-01-12 12:12:28.78	261.77	20.27	-51.8	-53.8	15.0	0.00e+00	0	22	0	509607936	69	4608
2026-01-12 12:12:29.78	262.01	20.31	-51.8	-53.8	14.9	0.00e+00	0	22	0	511705088	69	4603
2026-01-12 12:12:30.78	262.26	20.34	-51.6	-53.5	15.1	0.00e+00	0	22	0	512753664	69	4478
2026-01-12 12:12:31.78	262.50	20.38	-51.1	-52.8	15.4	0.00e+00	0	22	0	514850816	68	4387
2026-01-12 12:12:32.78	262.75	20.41	-50.9	-52.6	15.4	0.00e+00	0	22	0	516947968	68	4288
2026-01-12 12:12:33.78	262.99	20.45	-50.9	-52.7	15.4	0.00e+00	0	22	0	519045120	68	4295
2026-01-12 12:12:34.78	263.24	20.48	-51.1	-52.8	15.3	0.00e+00	0	22	0	521142272	68	4364
2026-01-12 12:12:35.77	263.48	20.51	-51.2	-53.0	15.2	0.00e+00	0	22	0	522190848	68	4443
2026-01-12 12:12:36.76	263.72	20.55	-51.1	-52.9	15.2	0.00e+00	0	22	0	524288000	68	4426
2026-01-12 12:12:37.75	263.97	20.58	-50.9	-52.6	15.4	0.00e+00	0	22	0	526385152	68	4282
2026-01-12 12:12:38.76	264.22	20.61	-51.1	-52.9	15.2	0.00e+00	0	22	0	528482304	68	4424
2026-01-12 12:12:39.75	264.47	20.64	-51.2	-53.0	15.2	0.00e+00	0	22	0	529530880	68	4465
2026-01-12 12:12:40.74	264.71	20.67	-51.2	-53.0	15.2	0.00e+00	0	22	0	531628032	68	4487
2026-01-12 12:12:41.73	264.96	20.70	-51.5	-53.4	14.9	0.00e+00	0	22	0	533725184	68	4687
2026-01-12 12:12:42.73	265.21	20.73	-51.6	-53.5	14.9	0.00e+00	0	22	0	535822336	68	4736
2026-01-12 12:12:43.72	265.46	20.76	-51.7	-53.6	14.9	0.00e+00	0	22	0	537919488	68	4777
2026-01-12 12:12:44.71	265.71	20.79	-51.5	-53.4	14.9	0.00e+00	0	22	0	538968064	68	4705
2026-01-12 12:12:45.70	265.95	20.81	-51.3	-53.1	15.1	0.00e+00	0	23	0	541065216	68	4512
2026-01-12 12:12:46.69	266.20	20.84	-51.1	-52.9	15.2	0.00e+00	0	22	0	543162368	68	4426
2026-01-12 12:12:47.68	266.45	20.87	-51.0	-52.7	15.3	0.00e+00	0	22	0	545259520	68	4336
2026-01-12 12:12:48.67	266.70	20.89	-51.1	-52.9	15.3	0.00e+00	0	22	0	546308096	68	4407
2026-01-12 12:12:49.67	266.95	20.92	-51.1	-52.9	15.2	0.00e+00	0	22	0	548405248	68	4431
2026-01-12 12:12:50.66	267.21	20.94	-51.1	-52.9	15.3	0.00e+00	0	22	0	550502400	68	4404
2026-01-12 12:12:51.67	267.46	20.97	-51.0	-52.7	15.3	0.00e+00	0	22	0	552599552	68	4318
2026-01-12 12:12:52.66	267.71	20.99	-51.0	-52.8	15.3	0.00e+00	0	22	0	554696704	68	4341
2026-01-12 12:12:53.65	267.97	21.02	-51.1	-52.9	15.3	0.00e+00	0	22	0	555745280	68	4426
2026-01-12 12:12:54.64	268.22	21.04	-51.1	-52.9	15.2	0.00e+00	0	22	0	557842432	68	4407
2026-01-12 12:12:55.64	268.47	21.06	-51.4	-53.2	15.1	0.00e+00	0	22	0	559939584	68	4557
2026-01-12 12:12:56.63	268.73	21.08	-51.5	-53.3	15.0	0.00e+00	0	22	0	562036736	68	4635
2026-01-12 12:12:57.63	268.98	21.11	-51.5	-53.3	15.0	0.00e+00	0	22	0	563085312	68	4635
2026-01-12 12:12:58.62	269.23	21.13	-51.3	-53.0	15.1	0.00e+00	0	22	0	565182464	68	4487
2026-01-12 12:12:59.60	269.49	21.15	-51.1	-52.9	15.3	0.00e+00	0	22	0	567279616	68	4406
2026-01-12 12:13:00.60	269.74	21.17	-51.3	-53.1	15.1	0.00e+00	0	23	0	569376768	68	4495
2026-01-12 12:13:01.60	270.00	21.19	-51.3	-53.1	15.1	0.00e+00	0	22	0	571473920	68	4534
2026-01-12 12:13:02.60	270.26	21.20	-51.5	-53.4	15.0	0.00e+00	0	22	0	572522496	68	4672
2026-01-12 12:13:03.61	270.52	21.22	-51.7	-53.7	14.8	0.00e+00	0	22	0	574619648	68	4823
2026-01-12 12:13:04.61	270.78	21.24	-52.0	-54.0	14.7	0.00e+00	0	22	0	576716800	69	4717
2026-01-12 12:13:05.61	271.03	21.26	-51.7	-53.6	15.0	0.00e+00	0	22	0	578813952	69	4505
2026-01-12 12:13:06.60	271.29	21.27	-51.5	-53.4	15.2	0.00e+00	0	22	0	579862528	69	4412
2026-01-12 12:13:07.59	271.55	21.29	-51.5	-53.3	15.2	0.00e+00	0	22	0	581959680	69	4391
2026-01-12 12:13:08.58	271.80	21.31	-51.4	-53.3	15.2	0.00e+00	0	22	0	584056832	69	4346
2026-01-12 12:13:09.57	272.06	21.32	-51.6	-53.5	15.1	0.00e+00	0	22	0	586153984	69	4471
2026-01-12 12:13:10.57	272.32	21.33	-52.0	-54.1	14.8	0.00e+00	0	22	0	588251136	69	4765
2026-01-12 12:13:11.57	272.58	21.35	-52.1	-54.1	14.8	0.00e+00	0	22	0	589299712	69	4780
2026-01-12 12:13:12.56	272.84	21.36	-52.0	-54.0	14.8	0.00e+00	0	22	0	591396864	69	4728
2026-01-12 12:13:13.56	273.10	21.37	-51.7	-53.6	15.1	0.00e+00	0	22	0	593494016	69	4502
2026-01-12 12:13:14.55	273.35	21.39	-51.6	-53.5	15.1	0.00e+00	0	22	0	595591168	69	4467
2026-01-12 12:13:15.54	273.61	21.40	-51.5	-53.3	15.1	0.00e+00	0	22	0	596639744	69	4386
2026-01-12 12:13:16.55	273.88	21.41	-51.4	-53.3	15.2	0.00e+00	0	22	0	598736896	69	4346
2026-01-12 12:13:17.54	274.13	21.42	-51.6	-53.5	15.1	0.00e+00	0	22	0	600834048	69	4480
2026-01-12 12:13:18.53	274.39	21.43	-51.7	-53.5	15.1	0.00e+00	0	22	0	602931200	69	4489
2026-01-12 12:13:19.52	274.65	21.44	-51.7	-53.6	15.1	0.00e+00	0	22	0	605028352	69	4503
2026-01-12 12:13:20.52	274.91	21.44	-51.4	-53.2	15.2	0.00e+00	0	22	0	606076928	69	4333
2026-01-12 12:13:21.51	275.17	21.45	-51.3	-53.0	15.3	0.00e+00	0	22	0	608174080	69	4241
2026-01-12 12:13:22.50	275.43	21.46	-51.2	-52.9	15.2	0.00e+00	0	22	0	610271232	68	4439
2026-01-12 12:13:23.49	275.69	21.47	-51.3	-53.0	15.2	0.00e+00	0	22	0	612368384	68	4489
2026-01-12 12:13:24.48	275.95	21.47	-51.6	-53.5	14.9	0.00e+00	0	23	0	613416960	68	4714
2026-01-12 12:13:25.47	276.21	21.48	-51.9	-53.8	14.7	0.00e+00	0	22	0	615514112	68	4909
2026-01-12 12:13:26.47	276.47	21.48	-51.7	-53.6	14.8	0.00e+00	0	22	0	617611264	68	4807
2026-01-12 12:13:27.46	276.73	21.49	-51.6	-53.5	14.9	0.00e+00	0	22	0	619708416	68	4732
2026-01-12 12:13:28.44	276.99	21.49	-51.5	-53.4	15.0	0.00e+00	0	22	0	620756992	68	4668
2026-01-12 12:13:29.44	277.25	21.49	-51.5	-53.3	15.0	0.00e+00	0	22	0	622854144	68	4646
2026-01-12 12:13:30.43	277.51	21.50	-51.5	-53.3	14.9	0.00e+00	0	22	0	624951296	68	4644
2026-01-12 12:13:31.43	277.77	21.50	-51.9	-53.9	14.7	0.00e+00	0	22	0	627048448	68	4931
2026-01-12 12:13:32.42	278.03	21.50	-52.2	-54.3	14.7	0.00e+00	0	22	0	629145600	69	4889
2026-01-12 12:13:33.40	278.29	21.50	-52.4	-54.5	14.7	0.00e+00	0	22	0	630194176	70	4709
2026-01-12 12:13:34.40	278.55	21.50	-52.5	-54.6	14.6	0.00e+00	0	22	0	632291328	70	4800
2026-01-12 12:13:35.39	278.81	21.50	-52.4	-54.4	14.7	0.00e+00	0	22	0	634388480	70	4702
2026-01-12 12:13:36.38	279.07	21.50	-52.3	-54.3	14.8	0.00e+00	0	22	0	636485632	70	4640
2026-01-12 12:13:37.37	279.33	21.50	-52.2	-54.2	14.9	0.00e+00	0	22	0	637534208	70	4564
2026-01-12 12:13:38.36	279.59	21.49	-52.3	-54.3	14.8	0.00e+00	0	22	0	639631360	70	4650
2026-01-12 12:13:39.36	279.85	21.49	-52.3	-54.4	14.7	0.00e+00	0	22	0	641728512	70	4679
2026-01-12 12:13:40.35	280.11	21.49	-52.1	-54.1	14.9	0.00e+00	0	22	0	643825664	70	4527
2026-01-12 12:13:41.35	280.37	21.48	-51.8	-53.6	15.2	0.00e+00	0	22	0	645922816	70	4285
2026-01-12 12:13:42.34	280.63	21.48	-51.7	-53.5	15.3	0.00e+00	0	22	0	646971392	70	4240
2026-01-12 12:13:43.33	280.89	21.47	-51.6	-53.5	15.1	0.00e+00	0	22	0	649068544	69	4469
2026-01-12 12:13:44.32	281.15	21.47	-51.9	-53.8	14.9	0.00e+00	0	22	0	651165696	69	4631
2026-01-12 12:13:45.31	281.41	21.46	-52.0	-54.0	14.8	0.00e+00	0	22	0	653262848	69	4735
2026-01-12 12:13:46.31	281.67	21.46	-52.2	-54.3	14.7	0.00e+00	0	22	0	654311424	69	4879
2026-01-12 12:13:47.31	281.93	21.45	-52.2	-54.2	14.7	0.00e+00	0	22	0	656408576	69	4841
2026-01-12 12:13:48.30	282.19	21.44	-52.1	-54.1	14.8	0.00e+00	0	22	0	658505728	69	4785
2026-01-12 12:13:49.30	282.45	21.43	-52.0	-53.9	14.9	0.00e+00	0	22	0	660602880	69	4699
2026-01-12 12:13:50.30	282.71	21.42	-51.9	-53.8	14.9	0.00e+00	0	22	0	662700032	69	4613
2026-01-12 12:13:51.30	282.97	21.41	-51.9	-53.8	15.0	0.00e+00	0	22	0	663748608	69	4615
2026-01-12 12:13:52.29	283.23	21.40	-51.8	-53.7	15.0	0.00e+00	0	22	0	665845760	69	4547
2026-01-12 12:13:53.29	283.49	21.39	-51.9	-53.8	15.0	0.00e+00	0	22	0	667942912	69	4610
2026-01-12 12:13:54.28	283.75	21.38	-51.8	-53.7	15.0	0.00e+00	0	22	0	670040064	69	4575
2026-01-12 12:13:55.27	284.01	21.37	-51.6	-53.4	15.1	0.00e+00	0	22	0	671088640	69	4408
2026-01-12 12:13:56.27	284.27	21.35	-51.5	-53.3	15.2	0.00e+00	0	22	0	673185792	69	4350
2026-01-12 12:13:57.26	284.52	21.34	-51.3	-53.0	15.4	0.00e+00	0	22	0	675282944	69	4226
2026-01-12 12:13:58.25	284.78	21.33	-51.4	-53.2	15.3	0.00e+00	0	22	0	677380096	69	4324
2026-01-12 12:13:59.24	285.04	21.31	-51.2	-53.0	15.4	0.00e+00	0	22	0	679477248	69	4198
2026-01-12 12:14:00.24	285.30	21.30	-51.3	-53.1	15.4	0.00e+00	0	22	0	680525824	69	4245
2026-01-12 12:14:01.23	285.55	21.28	-51.4	-53.2	15.3	0.00e+00	0	23	0	682622976	69	4305
2026-01-12 12:14:02.23	285.81	21.26	-51.5	-53.4	15.2	0.00e+00	0	22	0	684720128	69	4403
2026-01-12 12:14:03.23	286.07	21.25	-51.5	-53.3	15.2	0.00e+00	0	22	0	686817280	69	4383
2026-01-12 12:14:04.22	286.32	21.23	-51.5	-53.4	15.2	0.00e+00	0	22	0	687865856	69	4392
2026-01-12 12:14:05.21	286.58	21.21	-51.5	-53.3	15.2	0.00e+00	0	22	0	689963008	69	4381
2026-01-12 12:14:06.21	286.84	21.19	-51.4	-53.2	15.3	0.00e+00	0	22	0	692060160	69	4320
2026-01-12 12:14:07.21	287.09	21.18	-51.4	-53.2	15.3	0.00e+00	0	22	0	694157312	69	4332
2026-01-12 12:14:08.19	287.34	21.16	-51.5	-53.3	15.2	0.00e+00	0	22	0	696254464	69	4380
2026-01-12 12:14:09.19	287.60	21.14	-51.6	-53.5	15.1	0.00e+00	0	22	0	697303040	69	4452
2026-01-12 12:14:10.19	287.86	21.12	-51.6	-53.4	15.1	0.00e+00	0	22	0	699400192	69	4406
2026-01-12 12:14:11.19	288.11	21.09	-51.6	-53.5	15.1	0.00e+00	0	22	0	701497344	69	4452
2026-01-12 12:14:12.17	288.36	21.07	-51.6	-53.5	15.1	0.00e+00	0	22	0	703594496	69	4449
2026-01-12 12:14:13.16	288.61	21.05	-51.5	-53.2	15.2	0.00e+00	0	22	0	704643072	69	4330
2026-01-12 12:14:14.16	288.87	21.03	-51.4	-53.1	15.3	0.00e+00	0	22	0	706740224	69	4282
2026-01-12 12:14:15.15	289.12	21.00	-51.3	-53.1	15.4	0.00e+00	0	22	0	708837376	69	4255
2026-01-12 12:14:16.15	289.37	20.98	-51.3	-53.1	15.3	0.00e+00	0	22	0	710934528	69	4277
2026-01-12 12:14:17.14	289.62	20.96	-51.3	-53.1	15.4	0.00e+00	0	22	0	713031680	69	4257
2026-01-12 12:14:18.12	289.87	20.93	-51.5	-53.3	15.2	0.00e+00	0	22	0	714080256	69	4379
2026-01-12 12:14:19.12	290.13	20.91	-51.6	-53.5	15.1	0.00e+00	0	22	0	716177408	69	4451
2026-01-12 12:14:20.11	290.38	20.88	-51.5	-53.3	15.2	0.00e+00	0	22	0	718274560	69	4360
2026-01-12 12:14:21.10	290.62	20.85	-51.6	-53.4	15.2	0.00e+00	0	22	0	720371712	69	4440
2026-01-12 12:14:22.09	290.87	20.83	-51.8	-53.7	15.0	0.00e+00	0	22	0	721420288	69	4548
2026-01-12 12:14:23.08	291.12	20.80	-51.7	-53.6	15.1	0.00e+00	0	22	0	723517440	69	4531
2026-01-12 12:14:24.07	291.37	20.77	-51.5	-53.3	15.2	0.00e+00	0	22	0	725614592	69	4391
2026-01-12 12:14:25.07	291.62	20.74	-51.7	-53.5	15.1	0.00e+00	0	22	0	727711744	69	4470
2026-01-12 12:14:26.06	291.87	20.71	-51.9	-53.8	14.9	0.00e+00	0	23	0	729808896	69	4618
2026-01-12 12:14:27.05	292.11	20.68	-52.0	-53.9	14.9	0.00e+00	0	22	0	730857472	69	4680
2026-01-12 12:14:28.03	292.36	20.65	-51.9	-53.8	14.9	0.00e+00	0	22	0	732954624	69	4622
2026-01-12 12:14:29.02	292.60	20.62	-51.9	-53.8	14.9	0.00e+00	0	22	0	735051776	69	4636
2026-01-12 12:14:30.01	292.85	20.59	-51.7	-53.6	15.1	0.00e+00	0	22	0	737148928	69	4511
2026-01-12 12:14:31.00	293.09	20.56	-51.8	-53.7	15.1	0.00e+00	0	22	0	738197504	69	4550
2026-01-12 12:14:32.00	293.34	20.53	-51.7	-53.6	15.1	0.00e+00	0	22	0	740294656	69	4504
2026-01-12 12:14:33.00	293.58	20.50	-51.6	-53.4	15.2	0.00e+00	0	22	0	742391808	69	4427
2026-01-12 12:14:33.98	293.83	20.47	-51.4	-53.2	15.3	0.00e+00	0	22	0	744488960	69	4321
2026-01-12 12:14:34.97	294.07	20.43	-51.4	-53.2	15.3	0.00e+00	0	22	0	745537536	69	4310
2026-01-12 12:14:35.96	294.31	20.40	-51.5	-53.2	15.3	0.00e+00	0	22	0	747634688	69	4338
2026-01-12 12:14:36.95	294.55	20.36	-51.3	-53.1	15.3	0.00e+00	0	22	0	749731840	69	4264
2026-01-12 12:14:37.94	294.79	20.33	-51.3	-53.1	15.4	0.00e+00	0	22	0	751828992	69	4249
2026-01-12 12:14:38.93	295.03	20.29	-51.1	-52.9	15.3	0.00e+00	0	22	0	753926144	68	4415
2026-01-12 12:14:39.93	295.28	20.26	-51.1	-52.8	15.3	0.00e+00	0	22	0	754974720	68	4359
2026-01-12 12:14:40.93	295.52	20.22	-50.9	-52.6	15.4	0.00e+00	0	22	0	757071872	68	4281
2026-01-12 12:14:41.93	295.76	20.19	-50.9	-52.5	15.5	0.00e+00	0	22	0	759169024	68	4241
2026-01-12 12:14:42.92	296.00	20.15	-51.0	-52.7	15.4	0.00e+00	0	22	0	761266176	68	4316
2026-01-12 12:14:43.91	296.23	20.11	-51.0	-52.6	15.4	0.00e+00	0	22	0	762314752	68	4287
2026-01-12 12:14:44.90	296.47	20.07	-51.2	-52.9	15.3	0.00e+00	0	22	0	764411904	68	4418
2026-01-12 12:14:45.89	296.71	20.04	-51.4	-53.2	15.1	0.00e+00	0	22	0	766509056	68	4547
2026-01-12 12:14:46.88	296.94	20.00	-51.5	-53.3	15.0	0.00e+00	0	22	0	768606208	68	4614
2026-01-12 12:14:47.87	297.18	19.96	-51.3	-53.1	15.1	0.00e+00	0	22	0	770703360	68	4533
2026-01-12 12:14:48.87	297.42	19.92	-51.3	-53.1	15.2	0.00e+00	0	22	0	771751936	68	4523
2026-01-12 12:14:49.87	297.65	19.88	-51.4	-53.2	15.1	0.00e+00	0	22	0	773849088	68	4553
2026-01-12 12:14:50.86	297.89	19.84	-51.2	-53.0	15.2	0.00e+00	0	22	0	775946240	68	4480
2026-01-12 12:14:51.85	298.12	19.80	-51.2	-52.9	15.2	0.00e+00	0	22	0	778043392	68	4439
2026-01-12 12:14:52.84	298.35	19.76	-51.2	-52.9	15.3	0.00e+00	0	22	0	779091968	68	4427
2026-01-12 12:14:53.84	298.59	19.72	-51.1	-52.9	15.3	0.00e+00	0	22	0	781189120	68	4407
2026-01-12 12:14:54.84	298.82	19.67	-51.0	-52.7	15.3	0.00e+00	0	22	0	783286272	68	4337
2026-01-12 12:14:55.83	299.05	19.63	-51.1	-52.8	15.3	0.00e+00	0	22	0	785383424	68	4354
2026-01-12 12:14:56.82	299.28	19.59	-51.0	-52.7	15.3	0.00e+00	0	22	0	787480576	68	4330
2026-01-12 12:14:57.82	299.51	19.55	-51.1	-52.8	15.3	0.00e+00	0	22	0	788529152	68	4387
2026-01-12 12:14:58.81	299.74	19.50	-51.2	-53.0	15.2	0.00e+00	0	22	0	790626304	68	4469
2026-01-12 12:14:59.81	299.97	19.46	-51.2	-52.9	15.2	0.00e+00	0	22	0	792723456	68	4439
2026-01-12 12:15:00.80	300.20	19.41	-51.1	-52.8	15.3	0.00e+00	0	22	0	794820608	68	4350
2026-01-12 12:15:01.79	300.43	19.37	-51.1	-52.8	15.3	0.00e+00	0	22	0	795869184	68	4359
2026-01-12 12:15:02.79	300.65	19.33	-51.1	-52.8	15.3	0.00e+00	0	22	0	797966336	68	4368
2026-01-12 12:15:03.78	300.88	19.28	-51.0	-52.8	15.3	0.00e+00	0	22	0	800063488	68	4343
2026-01-12 12:15:04.77	301.10	19.24	-51.1	-52.9	15.3	0.00e+00	0	22	0	802160640	68	4411
2026-01-12 12:15:05.77	301.33	19.19	-51.2	-52.9	15.3	0.00e+00	0	22	0	804257792	68	4435
2026-01-12 12:15:06.76	301.55	19.14	-51.2	-53.0	15.2	0.00e+00	0	22	0	805306368	68	4461
2026-01-12 12:15:07.75	301.78	19.10	-51.4	-53.2	15.1	0.00e+00	0	22	0	807403520	68	4582
2026-01-12 12:15:08.75	302.00	19.05	-51.6	-53.4	15.0	0.00e+00	0	22	0	809500672	68	4702
2026-01-12 12:15:09.75	302.22	19.00	-51.6	-53.5	15.0	0.00e+00	0	22	0	811597824	68	4708
2026-01-12 12:15:10.74	302.45	18.95	-51.4	-53.2	15.1	0.00e+00	0	22	0	812646400	68	4576
2026-01-12 12:15:11.73	302.67	18.91	-51.5	-53.3	15.0	0.00e+00	0	22	0	814743552	68	4645
2026-01-12 12:15:12.72	302.89	18.86	-51.2	-53.0	15.2	0.00e+00	0	22	0	816840704	68	4459
2026-01-12 12:15:13.70	303.10	18.81	-51.2	-53.0	15.2	0.00e+00	0	22	0	818937856	68	4478
2026-01-12 12:15:14.69	303.32	18.76	-51.0	-52.8	15.3	0.00e+00	0	22	0	819986432	68	4349
2026-01-12 12:15:15.68	303.54	18.71	-51.1	-52.8	15.3	0.00e+00	0	22	0	822083584	68	4365
2026-01-12 12:15:16.68	303.76	18.66	-51.1	-52.8	15.3	0.00e+00	0	22	0	824180736	68	4386
2026-01-12 12:15:17.67	303.97	18.61	-51.3	-53.0	15.2	0.00e+00	0	22	0	826277888	68	4484
2026-01-12 12:15:18.66	304.19	18.56	-51.5	-53.3	15.0	0.00e+00	0	22	0	828375040	68	4617
2026-01-12 12:15:19.66	304.40	18.51	-51.7	-53.6	14.9	0.00e+00	0	22	0	829423616	68	4784
2026-01-12 12:15:20.66	304.62	18.46	-51.6	-53.5	14.9	0.00e+00	0	22	0	831520768	68	4725
2026-01-12 12:15:21.66	304.84	18.41	-51.7	-53.6	14.9	0.00e+00	0	22	0	833617920	68	4786
2026-01-12 12:15:22.65	305.05	18.36	-51.8	-53.7	14.8	0.00e+00	0	22	0	835715072	68	4863
2026-01-12 12:15:23.64	305.26	18.31	-51.9	-53.9	14.8	0.00e+00	0	22	0	836763648	69	4680
2026-01-12 12:15:24.63	305.47	18.26	-52.2	-54.3	14.6	0.00e+00	0	22	0	838860800	69	4913
2026-01-12 12:15:25.62	305.68	18.21	-52.5	-54.7	14.5	0.00e+00	0	22	0	840957952	70	4855
2026-01-12 12:15:26.61	305.89	18.15	-52.5	-54.7	14.6	0.00e+00	0	22	0	843055104	70	4815
2026-01-12 12:15:27.60	306.10	18.10	-52.5	-54.7	14.6	0.00e+00	0	22	0	845152256	70	4822
2026-01-12 12:15:28.60	306.31	18.05	-52.5	-54.6	14.6	0.00e+00	0	22	0	846200832	70	4808
2026-01-12 12:15:29.60	306.52	18.00	-52.3	-54.4	14.7	0.00e+00	0	22	0	848297984	70	4669
2026-01-12 12:15:30.59	306.73	17.94	-52.1	-54.1	14.9	0.00e+00	0	22	0	850395136	70	4533
2026-01-12 12:15:31.58	306.93	17.89	-52.1	-54.1	14.9	0.00e+00	0	22	0	852492288	70	4508
2026-01-12 12:15:32.58	307.14	17.84	-52.2	-54.2	14.8	0.00e+00	0	22	0	853540864	70	4575
2026-01-12 12:15:33.57	307.35	17.78	-52.3	-54.4	14.8	0.00e+00	0	22	0	855638016	70	4660
2026-01-12 12:15:34.57	307.55	17.73	-52.5	-54.7	14.6	0.00e+00	0	22	0	857735168	70	4838
2026-01-12 12:15:35.57	307.76	17.67	-52.4	-54.5	14.7	0.00e+00	0	22	0	859832320	70	4730
2026-01-12 12:15:36.57	307.96	17.62	-52.4	-54.5	14.7	0.00e+00	0	22	0	861929472	70	4754
2026-01-12 12:15:37.55	308.16	17.56	-52.3	-54.3	14.8	0.00e+00	0	22	0	862978048	70	4648
2026-01-12 12:15:38.55	308.36	17.51	-52.3	-54.4	14.7	0.00e+00	0	22	0	865075200	70	4666
2026-01-12 12:15:39.55	308.57	17.45	-52.4	-54.5	14.7	0.00e+00	0	22	0	867172352	70	4726
2026-01-12 12:15:40.54	308.77	17.40	-52.3	-54.3	14.8	0.00e+00	0	22	0	869269504	70	4633
2026-01-12 12:15:41.53	308.97	17.34	-52.4	-54.5	14.7	0.00e+00	0	22	0	870318080	70	4738
2026-01-12 12:15:42.52	309.16	17.29	-52.3	-54.5	14.7	0.00e+00	0	22	0	872415232	70	4711
2026-01-12 12:15:43.52	309.36	17.23	-52.5	-54.7	14.5	0.00e+00	0	22	0	874512384	70	4846
2026-01-12 12:15:44.51	309.56	17.17	-52.7	-54.9	14.5	0.00e+00	0	22	0	876609536	70	4952
2026-01-12 12:15:45.51	309.76	17.12	-52.8	-55.1	14.3	0.00e+00	0	22	0	878706688	70	5098
2026-01-12 12:15:46.50	309.95	17.06	-52.8	-55.0	14.4	0.00e+00	0	22	0	879755264	70	5027
2026-01-12 12:15:47.49	310.15	17.00	-52.7	-54.9	14.4	0.00e+00	0	22	0	881852416	70	4982
2026-01-12 12:15:48.49	310.34	16.95	-52.8	-55.0	14.3	0.00e+00	0	22	0	883949568	70	5028
2026-01-12 12:15:49.48	310.54	16.89	-52.6	-54.8	14.5	0.00e+00	0	22	0	886046720	70	4881
2026-01-12 12:15:50.48	310.73	16.83	-52.5	-54.7	14.6	0.00e+00	0	22	0	887095296	70	4838
2026-01-12 12:15:51.48	310.93	16.77	-52.6	-54.8	14.5	0.00e+00	0	22	0	889192448	70	4880
2026-01-12 12:15:52.48	311.12	16.72	-52.6	-54.8	14.5	0.00e+00	0	22	0	891289600	70	4909
2026-01-12 12:15:53.48	311.31	16.66	-52.8	-55.1	14.3	0.00e+00	0	22	0	893386752	70	5055
2026-01-12 12:15:54.48	311.50	16.60	-52.9	-55.3	14.3	0.00e+00	0	22	0	895483904	71	4875
2026-01-12 12:15:55.47	311.69	16.54	-53.0	-55.4	14.3	0.00e+00	0	22	0	896532480	71	4944
2026-01-12 12:15:56.46	311.88	16.48	-53.1	-55.5	14.2	0.00e+00	0	22	0	898629632	71	4984
2026-01-12 12:15:57.46	312.07	16.42	-53.0	-55.4	14.3	0.00e+00	0	22	0	900726784	71	4941
2026-01-12 12:15:58.45	312.26	16.37	-52.8	-55.1	14.4	0.00e+00	0	22	0	902823936	71	4796
2026-01-12 12:15:59.45	312.44	16.31	-52.8	-55.1	14.4	0.00e+00	0	22	0	904921088	71	4784
2026-01-12 12:16:00.45	312.63	16.25	-52.9	-55.2	14.4	0.00e+00	0	22	0	905969664	71	4833
2026-01-12 12:16:01.44	312.82	16.19	-52.8	-55.1	14.5	0.00e+00	0	22	0	908066816	71	4790
2026-01-12 12:16:02.43	313.00	16.13	-52.8	-55.1	14.5	0.00e+00	0	22	0	910163968	71	4781
2026-01-12 12:16:03.43	313.19	16.07	-53.0	-55.3	14.3	0.00e+00	0	22	0	912261120	71	4900
2026-01-12 12:16:04.41	313.37	16.01	-52.7	-54.9	14.6	0.00e+00	0	22	0	913309696	71	4664
2026-01-12 12:16:05.41	313.55	15.95	-52.6	-54.8	14.7	0.00e+00	0	22	0	915406848	71	4602
2026-01-12 12:16:06.41	313.73	15.89	-52.3	-54.4	14.9	0.00e+00	0	22	0	917504000	71	4414
2026-01-12 12:16:07.40	313.91	15.83	-52.3	-54.3	14.9	0.00e+00	0	22	0	919601152	71	4377
2026-01-12 12:16:08.39	314.09	15.77	-52.1	-54.1	14.9	0.00e+00	0	22	0	920649728	70	4509
2026-01-12 12:16:09.39	314.27	15.71	-52.1	-54.1	14.9	0.00e+00	0	22	0	922746880	70	4496
2026-01-12 12:16:10.38	314.45	15.65	-51.9	-53.8	15.0	0.00e+00	0	22	0	924844032	70	4388
2026-01-12 12:16:11.37	314.63	15.59	-52.0	-54.0	14.9	0.00e+00	0	22	0	926941184	70	4472
2026-01-12 12:16:12.37	314.81	15.53	-52.2	-54.3	14.7	0.00e+00	0	23	0	929038336	70	4639
2026-01-12 12:16:13.36	314.98	15.47	-52.3	-54.3	14.8	0.00e+00	0	22	0	930086912	70	4638
2026-01-12 12:16:14.36	315.16	15.41	-52.2	-54.3	14.8	0.00e+00	0	22	0	932184064	70	4620
2026-01-12 12:16:15.36	315.34	15.35	-52.3	-54.4	14.7	0.00e+00	0	22	0	934281216	70	4672
2026-01-12 12:16:16.36	315.51	15.29	-52.3	-54.4	14.7	0.00e+00	0	22	0	936378368	70	4691
2026-01-12 12:16:17.35	315.69	15.23	-52.3	-54.4	14.7	0.00e+00	0	22	0	938475520	70	4680
2026-01-12 12:16:18.35	315.86	15.16	-52.2	-54.3	14.8	0.00e+00	0	22	0	939524096	70	4620
2026-01-12 12:16:19.35	316.04	15.10	-52.4	-54.5	14.7	0.00e+00	0	22	0	941621248	70	4724
2026-01-12 12:16:20.34	316.21	15.04	-52.6	-54.8	14.4	0.00e+00	0	22	0	943718400	70	4893
2026-01-12 12:16:21.33	316.38	14.98	-52.6	-54.8	14.4	0.00e+00	0	22	0	945815552	70	4921
2026-01-12 12:16:22.33	316.55	14.92	-52.6	-54.9	14.4	0.00e+00	0	22	0	946864128	70	4960
2026-01-12 12:16:23.31	316.72	14.86	-52.5	-54.7	14.5	0.00e+00	0	22	0	948961280	70	4847
2026-01-12 12:16:24.31	316.89	14.80	-52.5	-54.7	14.5	0.00e+00	0	22	0	951058432	70	4858
2026-01-12 12:16:25.30	317.06	14.74	-52.4	-54.6	14.6	0.00e+00	0	23	0	953155584	70	4784
2026-01-12 12:16:26.29	317.22	14.67	-52.1	-54.1	14.8	0.00e+00	0	22	0	954204160	70	4541
2026-01-12 12:16:27.28	317.39	14.61	-52.0	-54.1	14.9	0.00e+00	0	22	0	956301312	70	4509
2026-01-12 12:16:28.27	317.56	14.55	-52.1	-54.1	14.9	0.00e+00	0	22	0	958398464	70	4515
2026-01-12 12:16:29.28	317.73	14.49	-52.1	-54.1	14.8	0.00e+00	0	22	0	960495616	70	4544
2026-01-12 12:16:30.27	317.89	14.43	-52.2	-54.3	14.7	0.00e+00	0	22	0	962592768	70	4642
2026-01-12 12:16:31.27	318.06	14.36	-52.3	-54.5	14.7	0.00e+00	0	22	0	963641344	70	4710
2026-01-12 12:16:32.25	318.22	14.30	-52.4	-54.6	14.6	0.00e+00	0	22	0	965738496	70	4798
2026-01-12 12:16:33.25	318.38	14.24	-52.4	-54.6	14.5	0.00e+00	0	22	0	967835648	70	4807
2026-01-12 12:16:34.24	318.54	14.18	-52.6	-54.8	14.4	0.00e+00	0	22	0	969932800	70	4913
2026-01-12 12:16:35.23	318.71	14.12	-52.3	-54.4	14.7	0.00e+00	0	22	0	970981376	70	4668
2026-01-12 12:16:36.22	318.87	14.06	-52.0	-54.1	14.9	0.00e+00	0	22	0	973078528	70	4503
2026-01-12 12:16:37.21	319.03	13.99	-52.0	-54.0	14.9	0.00e+00	0	22	0	975175680	70	4456
2026-01-12 12:16:38.20	319.19	13.93	-51.7	-53.7	15.1	0.00e+00	0	22	0	977272832	70	4304
2026-01-12 12:16:39.19	319.34	13.87	-51.4	-53.2	15.2	0.00e+00	0	22	0	979369984	69	4320
2026-01-12 12:16:40.19	319.50	13.81	-51.4	-53.3	15.1	0.00e+00	0	22	0	980418560	69	4361
2026-01-12 12:16:41.18	319.66	13.74	-51.4	-53.3	15.2	0.00e+00	0	22	0	982515712	69	4345
2026-01-12 12:16:42.18	319.82	13.68	-51.4	-53.3	15.1	0.00e+00	0	22	0	984612864	69	4375
2026-01-12 12:16:43.17	319.98	13.62	-51.7	-53.7	14.9	0.00e+00	0	22	0	986710016	69	4577
2026-01-12 12:16:44.15	320.13	13.56	-51.9	-53.9	14.8	0.00e+00	0	22	0	988807168	69	4667
2026-01-12 12:16:45.14	320.29	13.50	-52.1	-54.2	14.6	0.00e+00	0	22	0	989855744	69	4860
2026-01-12 12:16:46.14	320.44	13.43	-52.3	-54.6	14.4	0.00e+00	0	22	0	991952896	69	5047
2026-01-12 12:16:47.13	320.59	13.37	-52.3	-54.5	14.4	0.00e+00	0	22	0	994050048	69	5033
2026-01-12 12:16:48.12	320.75	13.31	-52.4	-54.7	14.5	0.00e+00	0	22	0	996147200	70	4825
2026-01-12 12:16:49.13	320.90	13.24	-52.3	-54.4	14.6	0.00e+00	0	22	0	997195776	70	4700
2026-01-12 12:16:50.13	321.06	13.18	-52.1	-54.2	14.8	0.00e+00	0	22	0	999292928	70	4586
2026-01-12 12:16:51.12	321.21	13.12	-51.8	-53.8	15.0	0.00e+00	0	22	0	1001390080	70	4367
2026-01-12 12:16:52.12	321.36	13.06	-51.6	-53.5	15.0	0.00e+00	0	22	0	1003487232	69	4491
2026-01-12 12:16:53.11	321.51	12.99	-51.6	-53.5	15.0	0.00e+00	0	22	0	1005584384	69	4487
2026-01-12 12:16:54.10	321.66	12.93	-51.5	-53.4	15.1	0.00e+00	0	22	0	1006632960	69	4393
2026-01-12 12:16:55.10	321.81	12.87	-51.3	-53.1	15.3	0.00e+00	0	22	0	1008730112	69	4261
2026-01-12 12:16:56.09	321.96	12.81	-51.4	-53.2	15.2	0.00e+00	0	22	0	1010827264	69	4334
2026-01-12 12:16:57.07	322.10	12.74	-51.4	-53.2	15.2	0.00e+00	0	22	0	1012924416	69	4340
2026-01-12 12:16:58.07	322.25	12.68	-51.3	-53.1	15.2	0.00e+00	0	22	0	1013972992	69	4288
2026-01-12 12:16:59.07	322.40	12.62	-51.4	-53.2	15.1	0.00e+00	0	22	0	1016070144	69	4339
2026-01-12 12:17:00.06	322.55	12.56	-51.1	-52.9	15.2	0.00e+00	0	22	0	1018167296	68	4415
2026-01-12 12:17:01.05	322.69	12.49	-51.1	-52.9	15.2	0.00e+00	0	22	0	1020264448	68	4429
2026-01-12 12:17:02.04	322.84	12.43	-51.1	-53.0	15.1	0.00e+00	0	22	0	1021313024	68	4444
2026-01-12 12:17:03.03	322.98	12.37	-51.0	-52.8	15.2	0.00e+00	0	22	0	1023410176	68	4363
2026-01-12 12:17:04.03	323.12	12.30	-51.1	-52.9	15.2	0.00e+00	0	22	0	1025507328	68	4416
2026-01-12 12:17:05.02	323.27	12.24	-51.2	-53.0	15.1	0.00e+00	0	22	0	1027604480	68	4469
2026-01-12 12:17:06.01	323.41	12.18	-51.4	-53.3	14.9	0.00e+00	0	22	0	1029701632	68	4639
2026-01-12 12:17:07.01	323.55	12.12	-51.6	-53.6	14.8	0.00e+00	0	22	0	1030750208	68	4783
2026-01-12 12:17:08.00	323.69	12.05	-51.8	-53.8	14.6	0.00e+00	0	22	0	1032847360	68	4923
2026-01-12 12:17:08.99	323.83	11.99	-52.1	-54.2	14.6	0.00e+00	0	22	0	1034944512	69	4836
2026-01-12 12:17:09.99	323.97	11.93	-52.2	-54.4	14.5	0.00e+00	0	22	0	1037041664	69	4965
2026-01-12 12:17:10.99	324.12	11.87	-52.3	-54.6	14.3	0.00e+00	0	22	0	1038090240	69	5060
2026-01-12 12:17:11.98	324.25	11.80	-52.4	-54.7	14.4	0.00e+00	0	22	0	1040187392	70	4845
2026-01-12 12:17:12.97	324.39	11.74	-52.4	-54.7	14.4	0.00e+00	0	22	0	1042284544	70	4841
2026-01-12 12:17:13.97	324.53	11.68	-52.6	-54.9	14.3	0.00e+00	0	22	0	1044381696	70	4937
2026-01-12 12:17:14.96	324.67	11.62	-52.4	-54.6	14.5	0.00e+00	0	22	0	1046478848	70	4773
2026-01-12 12:17:15.96	324.81	11.55	-52.2	-54.3	14.7	0.00e+00	0	22	0	1047527424	70	4647
2026-01-12 12:17:16.95	324.94	11.49	-52.2	-54.3	14.7	0.00e+00	0	22	0	1049624576	70	4647
2026-01-12 12:17:17.94	325.08	11.43	-52.3	-54.6	14.5	0.00e+00	0	22	0	1051721728	70	4766
2026-01-12 12:17:18.94	325.21	11.36	-52.1	-54.3	14.7	0.00e+00	0	22	0	1053818880	70	4605
2026-01-12 12:17:19.93	325.35	11.30	-52.1	-54.3	14.7	0.00e+00	0	22	0	1054867456	70	4616
2026-01-12 12:17:20.92	325.48	11.24	-52.2	-54.3	14.7	0.00e+00	0	22	0	1056964608	70	4637
2026-01-12 12:17:21.94	325.62	11.18	-52.3	-54.5	14.6	0.00e+00	0	22	0	1059061760	70	4709
2026-01-12 12:17:22.93	325.75	11.11	-52.3	-54.6	14.5	0.00e+00	0	22	0	1061158912	70	4771
2026-01-12 12:17:23.93	325.88	11.05	-52.1	-54.2	14.8	0.00e+00	0	22	0	1063256064	70	4572
2026-01-12 12:17:24.93	326.02	10.99	-52.0	-54.1	14.8	0.00e+00	0	22	0	1064304640	70	4503
2026-01-12 12:17:25.92	326.15	10.93	-51.9	-54.0	14.9	0.00e+00	0	22	0	1066401792	70	4465
2026-01-12 12:17:26.91	326.28	10.86	-51.6	-53.6	14.9	0.00e+00	0	22	0	1068498944	69	4543
2026-01-12 12:17:27.91	326.41	10.80	-51.5	-53.4	15.0	0.00e+00	0	22	0	1070596096	69	4413
2026-01-12 12:17:28.91	326.54	10.74	-51.4	-53.3	15.1	0.00e+00	0	22	0	1072693248	69	4347
2026-01-12 12:17:29.90	326.67	10.68	-51.4	-53.3	15.1	0.00e+00	0	22	0	1073741824	69	4389
2026-01-12 12:17:30.89	326.80	10.61	-51.4	-53.3	15.1	0.00e+00	0	22	0	1075838976	69	4346
2026-01-12 12:17:31.88	326.92	10.55	-51.5	-53.5	15.0	0.00e+00	0	22	0	1077936128	69	4471
2026-01-12 12:17:32.86	327.05	10.49	-51.7	-53.7	14.8	0.00e+00	0	22	0	1080033280	69	4566
2026-01-12 12:17:33.87	327.18	10.43	-51.7	-53.8	14.8	0.00e+00	0	22	0	1081081856	69	4616
2026-01-12 12:17:34.86	327.31	10.37	-51.8	-53.9	14.7	0.00e+00	0	22	0	1083179008	69	4679
2026-01-12 12:17:35.85	327.43	10.30	-51.8	-53.9	14.7	0.00e+00	0	22	0	1085276160	69	4678
2026-01-12 12:17:36.84	327.56	10.24	-51.9	-54.0	14.7	0.00e+00	0	22	0	1087373312	69	4708
2026-01-12 12:17:37.83	327.68	10.18	-51.9	-54.1	14.6	0.00e+00	0	22	0	1088421888	69	4769
2026-01-12 12:17:38.82	327.81	10.12	-51.8	-53.9	14.7	0.00e+00	0	22	0	1090519040	69	4699
2026-01-12 12:17:39.81	327.93	10.06	-51.8	-53.9	14.7	0.00e+00	0	22	0	1092616192	69	4689
2026-01-12 12:17:40.81	328.05	10.00	-51.9	-54.0	14.7	0.00e+00	0	22	0	1094713344	69	4710
2026-01-12 12:17:41.81	328.18	9.93	-51.8	-53.9	14.7	0.00e+00	0	22	0	1096810496	69	4671
2026-01-12 12:17:42.80	328.30	9.87	-51.7	-53.7	14.8	0.00e+00	0	22	0	1097859072	69	4581
2026-01-12 12:17:43.79	328.42	9.81	-51.8	-53.8	14.8	0.00e+00	0	22	0	1099956224	69	4633
2026-01-12 12:17:44.79	328.54	9.75	-51.8	-53.9	14.7	0.00e+00	0	22	0	1102053376	69	4678
2026-01-12 12:17:45.79	328.67	9.69	-52.0	-54.1	14.6	0.00e+00	0	22	0	1104150528	69	4784
2026-01-12 12:17:46.79	328.79	9.62	-52.2	-54.5	14.4	0.00e+00	0	22	0	1105199104	69	4990
2026-01-12 12:17:47.79	328.91	9.56	-52.3	-54.5	14.3	0.00e+00	0	22	0	1107296256	69	5030
2026-01-12 12:17:48.78	329.03	9.50	-52.5	-54.8	14.3	0.00e+00	0	22	0	1109393408	70	4913
2026-01-12 12:17:49.77	329.15	9.44	-52.5	-54.8	14.3	0.00e+00	0	22	0	1111490560	70	4910
2026-01-12 12:17:50.76	329.26	9.38	-52.6	-55.0	14.2	0.00e+00	0	22	0	1113587712	70	5004
2026-01-12 12:17:51.75	329.38	9.32	-52.5	-54.8	14.3	0.00e+00	0	22	0	1114636288	70	4897
2026-01-12 12:17:52.74	329.50	9.26	-52.4	-54.7	14.4	0.00e+00	0	23	0	1116733440	70	4832
2026-01-12 12:17:53.73	329.62	9.20	-52.2	-54.4	14.5	0.00e+00	0	22	0	1118830592	70	4686
2026-01-12 12:17:54.72	329.73	9.13	-52.1	-54.3	14.7	0.00e+00	0	22	0	1120927744	70	4606
2026-01-12 12:17:55.72	329.85	9.07	-51.9	-54.0	14.8	0.00e+00	0	22	0	1121976320	70	4487
2026-01-12 12:17:56.71	329.97	9.01	-51.8	-53.8	14.9	0.00e+00	0	22	0	1124073472	70	4391
2026-01-12 12:17:57.70	330.08	8.95	-51.6	-53.6	14.9	0.00e+00	0	22	0	1126170624	69	4511
2026-01-12 12:17:58.69	330.19	8.89	-51.6	-53.6	14.9	0.00e+00	0	22	0	1128267776	69	4518
2026-01-12 12:17:59.68	330.31	8.83	-51.5	-53.5	15.0	0.00e+00	0	22	0	1130364928	69	4464
2026-01-12 12:18:00.67	330.42	8.77	-51.6	-53.6	14.9	0.00e+00	0	22	0	1131413504	69	4515
2026-01-12 12:18:01.67	330.54	8.71	-51.7	-53.7	14.8	0.00e+00	0	22	0	1133510656	69	4570
2026-01-12 12:18:02.65	330.65	8.65	-51.8	-53.9	14.7	0.00e+00	0	23	0	1135607808	69	4661
2026-01-12 12:18:03.65	330.76	8.59	-51.9	-54.0	14.6	0.00e+00	0	22	0	1137704960	69	4741
2026-01-12 12:18:04.65	330.87	8.53	-52.0	-54.2	14.5	0.00e+00	0	22	0	1138753536	69	4845
2026-01-12 12:18:05.63	330.98	8.47	-52.2	-54.4	14.3	0.00e+00	0	22	0	1140850688	69	4971
2026-01-12 12:18:06.63	331.10	8.40	-52.3	-54.6	14.2	0.00e+00	0	22	0	1142947840	69	5093
2026-01-12 12:18:07.62	331.21	8.34	-52.5	-54.9	14.1	0.00e+00	0	22	0	1145044992	70	4935
2026-01-12 12:18:08.62	331.32	8.28	-52.6	-55.0	14.1	0.00e+00	0	22	0	1147142144	70	5035
2026-01-12 12:18:09.61	331.43	8.22	-52.6	-55.0	14.1	0.00e+00	0	22	0	1148190720	70	5034
2026-01-12 12:18:10.61	331.54	8.16	-52.8	-55.3	13.9	0.00e+00	0	22	0	1150287872	70	5190
2026-01-12 12:18:11.61	331.65	8.10	-52.8	-55.4	13.9	0.00e+00	0	22	0	1152385024	70	5235
2026-01-12 12:18:12.60	331.76	8.04	-52.8	-55.3	13.9	0.00e+00	0	22	0	1154482176	70	5190
2026-01-12 12:18:13.60	331.87	7.98	-53.1	-55.8	13.8	0.00e+00	0	22	0	1155530752	71	5169
2026-01-12 12:18:14.60	331.97	7.92	-53.1	-55.9	13.7	0.00e+00	0	22	0	1157627904	71	5222
2026-01-12 12:18:15.59	332.08	7.86	-53.2	-55.9	13.7	0.00e+00	0	22	0	1159725056	71	5260
2026-01-12 12:18:16.59	332.19	7.80	-53.4	-56.3	13.4	0.00e+00	0	22	0	1161822208	71	5499
2026-01-12 12:18:17.57	332.29	7.74	-53.4	-56.3	13.5	0.00e+00	0	22	0	1163919360	72	5209
2026-01-12 12:18:18.57	332.40	7.68	-53.5	-56.5	13.4	0.00e+00	0	22	0	1164967936	72	5297
2026-01-12 12:18:19.56	332.51	7.62	-53.8	-56.9	13.1	0.00e+00	0	22	0	1167065088	72	5553
2026-01-12 12:18:20.56	332.61	7.56	-53.8	-57.0	13.1	0.00e+00	0	22	0	1169162240	72	5602
2026-01-12 12:18:21.57	332.72	7.50	-53.8	-56.9	13.1	0.00e+00	0	22	0	1171259392	72	5566
2026-01-12 12:18:22.56	332.82	7.44	-53.7	-56.7	13.2	0.00e+00	0	22	0	1172307968	72	5463
2026-01-12 12:18:23.56	332.93	7.38	-53.6	-56.7	13.2	0.00e+00	0	22	0	1174405120	72	5409
2026-01-12 12:18:24.55	333.03	7.32	-53.6	-56.7	13.2	7.00e-07	0	22	0	1176502272	72	5427
2026-01-12 12:18:25.54	333.13	7.26	-53.5	-56.5	13.4	0.00e+00	0	22	0	1178599424	72	5286
2026-01-12 12:18:26.54	333.24	7.20	-53.4	-56.3	13.5	0.00e+00	0	22	0	1180696576	72	5217
2026-01-12 12:18:27.54	333.34	7.14	-53.4	-56.3	13.5	0.00e+00	0	22	0	1181745152	72	5177
2026-01-12 12:18:28.53	333.44	7.09	-53.2	-55.9	13.8	0.00e+00	0	22	0	1183842304	72	4980
2026-01-12 12:18:29.53	333.55	7.03	-53.1	-55.9	13.8	0.00e+00	0	22	0	1185939456	72	4940
2026-01-12 12:18:30.52	333.65	6.97	-53.1	-55.9	13.8	0.00e+00	0	22	0	1188036608	72	4937
2026-01-12 12:18:31.52	333.75	6.91	-53.0	-55.7	14.0	0.00e+00	0	22	0	1189085184	72	4820
2026-01-12 12:18:32.51	333.85	6.85	-53.1	-55.8	13.9	0.00e+00	0	22	0	1191182336	72	4889
2026-01-12 12:18:33.50	333.95	6.79	-53.1	-55.8	13.9	0.00e+00	0	22	0	1193279488	72	4880
2026-01-12 12:18:34.50	334.05	6.73	-53.0	-55.7	13.9	0.00e+00	0	22	0	1195376640	72	4870
2026-01-12 12:18:35.49	334.15	6.67	-53.1	-55.9	13.8	0.00e+00	0	22	0	1197473792	72	4949
2026-01-12 12:18:36.49	334.25	6.61	-53.2	-55.9	13.8	0.00e+00	0	22	0	1198522368	72	4978
2026-01-12 12:18:37.48	334.35	6.55	-53.4	-56.3	13.5	0.00e+00	0	22	0	1200619520	72	5189
