passes_logs/2026/01/12/R3.2S_Murmansk/R3.2S_Murmansk__20260112_004813_NOAA_20_JPSS-1_rec.log

#Pass ID: 20260112_004813_NOAA 20 (JPSS-1)
#Satellite: NOAA 20 (JPSS-1)
#Configuration: NOAA 20
#almurnet v.1.7.20251203
#Start time: 2026-01-12 00:48:14

#Version: 2.2.20231116
#Station: R3.2S_Murmansk
#Location: 33.079688 lon 68.888172 lat
#TLE: 1 43013U 17073A   26011.59429536  .00000082  00000+0  59704-4 0  9990
#TLE: 2 43013  98.7632 312.5697 0001637  44.2118 315.9188 14.19535307422256

#Time	Az	El	Level	Level2	SNR	BER	BlckErr	Temp	State	Recorded	gain1	gain2
2026-01-12 00:48:14.52	24.96	2.07	-54.0	-70.2	3.8	1.49e+00	0	21	0	0	73	24280
2026-01-12 00:48:15.53	24.96	2.13	-54.0	-70.2	3.8	1.49e+00	0	21	104	0	73	24244
2026-01-12 00:48:16.53	24.96	2.20	-54.0	-70.2	3.8	1.49e+00	0	21	104	0	73	24248
2026-01-12 00:48:17.54	24.96	2.26	-54.0	-70.2	3.8	1.49e+00	0	21	104	0	73	24214
2026-01-12 00:48:18.54	24.96	2.33	-54.0	-70.2	3.8	1.49e+00	0	21	104	0	73	24293
2026-01-12 00:48:19.56	24.96	2.39	-54.0	-70.2	3.8	1.49e+00	0	21	104	0	73	24284
2026-01-12 00:48:20.56	24.96	2.46	-54.0	-70.2	3.8	1.49e+00	0	21	104	0	73	24269
2026-01-12 00:48:21.57	24.97	2.52	-54.0	-70.2	3.8	1.49e+00	0	21	104	0	73	24300
2026-01-12 00:48:22.58	24.97	2.59	-54.0	-70.2	3.8	1.49e+00	0	21	104	0	73	24263
2026-01-12 00:48:23.59	24.97	2.65	-54.0	-70.2	3.8	1.49e+00	0	21	104	0	73	24360
2026-01-12 00:48:24.61	24.97	2.72	-54.0	-70.2	3.8	1.49e+00	0	21	104	0	73	24300
2026-01-12 00:48:25.61	24.97	2.79	-54.0	-70.2	3.8	1.49e+00	0	21	104	0	73	24244
2026-01-12 00:48:26.62	24.97	2.85	-54.0	-70.2	3.8	1.49e+00	0	21	104	0	73	24273
2026-01-12 00:48:27.63	24.97	2.92	-54.1	-70.2	3.8	1.49e+00	0	21	104	0	73	24399
2026-01-12 00:48:28.64	24.97	2.99	-54.0	-70.2	3.8	1.49e+00	0	21	104	0	73	24372
2026-01-12 00:48:29.65	24.97	3.05	-54.0	-70.2	3.8	1.49e+00	0	21	104	0	73	24243
2026-01-12 00:48:30.66	24.97	3.12	-54.1	-70.2	3.8	1.49e+00	0	21	104	0	73	24344
2026-01-12 00:48:31.67	24.97	3.19	-54.0	-70.2	3.8	1.49e+00	0	21	104	0	73	24334
2026-01-12 00:48:32.67	24.97	3.25	-54.0	-70.2	3.8	1.49e+00	0	22	104	0	73	24307
2026-01-12 00:48:33.68	24.97	3.32	-54.0	-70.2	3.8	1.49e+00	0	21	104	0	73	24374
2026-01-12 00:48:34.69	24.97	3.39	-54.0	-70.2	3.8	1.49e+00	0	21	104	0	73	24299
2026-01-12 00:48:35.70	24.97	3.46	-54.0	-70.3	3.8	1.49e+00	0	21	104	0	73	24418
2026-01-12 00:48:36.71	24.97	3.52	-54.0	-70.2	3.8	1.49e+00	0	21	104	0	73	24375
2026-01-12 00:48:37.72	24.97	3.59	-54.0	-70.2	3.8	1.49e+00	0	22	104	0	73	24344
2026-01-12 00:48:38.72	24.97	3.66	-54.0	-70.2	3.8	1.49e+00	0	21	104	0	73	24349
2026-01-12 00:48:39.73	24.97	3.73	-54.0	-70.2	3.8	1.49e+00	0	22	104	0	73	24371
2026-01-12 00:48:40.74	24.97	3.80	-54.0	-70.2	3.8	1.49e+00	0	22	104	0	73	24296
2026-01-12 00:48:41.75	24.97	3.87	-54.0	-70.2	3.8	1.49e+00	0	22	104	0	73	24340
2026-01-12 00:48:42.76	24.97	3.94	-54.0	-70.2	3.8	1.49e+00	0	22	104	0	73	24303
2026-01-12 00:48:43.77	24.97	4.00	-54.1	-70.2	3.8	1.49e+00	0	22	104	0	73	24328
2026-01-12 00:48:44.77	24.97	4.07	-54.1	-70.2	3.8	1.49e+00	0	22	104	0	73	24330
2026-01-12 00:48:45.78	24.97	4.14	-54.1	-70.2	3.8	1.49e+00	0	22	104	0	73	24333
2026-01-12 00:48:46.79	24.97	4.21	-54.1	-70.2	3.8	1.49e+00	0	22	104	0	73	24328
2026-01-12 00:48:47.79	24.97	4.28	-54.1	-70.2	3.8	1.49e+00	0	22	104	0	73	24355
2026-01-12 00:48:48.80	24.97	4.35	-54.1	-70.2	3.8	1.49e+00	0	22	104	0	73	24347
2026-01-12 00:48:49.81	24.97	4.42	-54.1	-70.2	3.8	1.49e+00	0	22	104	0	73	24355
2026-01-12 00:48:50.82	24.97	4.49	-54.0	-70.2	3.8	1.49e+00	0	22	104	0	73	24354
2026-01-12 00:48:51.83	24.97	4.56	-54.0	-70.2	3.8	1.49e+00	0	22	104	0	73	24382
2026-01-12 00:48:52.84	24.97	4.63	-54.1	-70.2	3.8	1.49e+00	0	22	104	0	73	24299
2026-01-12 00:48:53.85	24.97	4.70	-54.1	-70.2	3.8	1.49e+00	0	22	104	0	73	24362
2026-01-12 00:48:54.86	24.97	4.78	-54.1	-70.2	3.8	1.49e+00	0	22	104	0	73	24359
2026-01-12 00:48:55.87	24.97	4.85	-54.1	-70.2	3.8	1.49e+00	0	22	104	0	73	24375
2026-01-12 00:48:56.88	24.97	4.92	-54.1	-70.2	3.8	1.49e+00	0	22	104	0	73	24378
2026-01-12 00:48:57.88	24.97	4.99	-54.1	-70.3	3.8	1.49e+00	0	22	104	0	73	24470
2026-01-12 00:48:58.89	24.97	5.06	-54.1	-70.3	3.8	1.49e+00	0	22	104	0	73	24434
2026-01-12 00:48:59.90	24.97	5.13	-54.1	-70.3	3.8	1.49e+00	0	22	104	0	73	24470
2026-01-12 00:49:00.91	24.97	5.21	-54.1	-70.2	3.8	1.49e+00	0	22	104	0	73	24393
2026-01-12 00:49:01.92	24.97	5.28	-54.1	-70.2	3.8	1.49e+00	0	22	104	0	73	24375
2026-01-12 00:49:02.92	24.97	5.35	-54.1	-70.2	3.8	1.49e+00	0	22	104	0	73	24378
2026-01-12 00:49:03.93	24.97	5.42	-54.1	-70.2	3.8	1.49e+00	0	22	104	0	73	24354
2026-01-12 00:49:04.94	24.97	5.50	-54.1	-70.2	3.8	1.49e+00	0	22	104	0	73	24404
2026-01-12 00:49:05.95	24.97	5.57	-54.1	-70.2	3.8	1.49e+00	0	22	104	0	73	24331
2026-01-12 00:49:06.96	24.97	5.64	-54.1	-70.2	3.8	1.49e+00	0	22	104	0	73	24402
2026-01-12 00:49:07.97	24.97	5.72	-54.1	-70.2	3.8	1.49e+00	0	22	104	0	73	24377
2026-01-12 00:49:08.99	24.97	5.79	-54.1	-70.2	3.8	1.49e+00	0	22	104	0	73	24358
2026-01-12 00:49:09.99	24.97	5.87	-54.1	-70.2	3.8	1.49e+00	0	22	104	0	73	24345
2026-01-12 00:49:11.00	24.97	5.94	-54.1	-70.2	3.8	1.49e+00	0	22	104	0	73	24350
2026-01-12 00:49:12.01	24.97	6.01	-54.1	-70.3	3.8	1.49e+00	0	22	104	0	73	24411
2026-01-12 00:49:13.02	24.96	6.09	-54.1	-70.2	3.8	1.49e+00	0	22	104	0	73	24387
2026-01-12 00:49:14.03	24.96	6.16	-54.1	-70.2	3.8	1.49e+00	0	22	104	0	73	24317
2026-01-12 00:49:15.04	24.96	6.24	-54.1	-70.2	3.8	1.49e+00	0	22	104	0	73	24401
2026-01-12 00:49:16.04	24.96	6.31	-54.1	-70.2	3.8	1.49e+00	0	22	104	0	73	24399
2026-01-12 00:49:17.05	24.96	6.39	-54.1	-70.2	3.8	1.49e+00	0	22	104	0	73	24406
2026-01-12 00:49:18.06	24.96	6.47	-54.0	-70.2	3.8	1.49e+00	0	22	104	0	73	24371
2026-01-12 00:49:19.07	24.96	6.54	-54.0	-70.2	3.8	1.49e+00	0	22	104	0	73	24385
2026-01-12 00:49:20.08	24.96	6.62	-54.0	-70.3	3.8	1.49e+00	0	22	104	0	73	24419
2026-01-12 00:49:21.09	24.96	6.69	-54.1	-70.2	3.8	1.49e+00	0	22	104	0	73	24409
2026-01-12 00:49:22.10	24.96	6.77	-54.1	-70.3	3.8	1.49e+00	0	22	104	0	73	24419
2026-01-12 00:49:23.11	24.96	6.85	-54.1	-70.3	3.8	1.49e+00	0	22	104	0	73	24445
2026-01-12 00:49:24.11	24.96	6.93	-54.1	-70.2	3.8	1.49e+00	0	22	104	0	73	24393
2026-01-12 00:49:25.13	24.96	7.00	-54.1	-70.3	3.8	1.49e+00	0	22	104	0	73	24442
2026-01-12 00:49:26.13	24.95	7.08	-54.1	-70.3	3.8	1.49e+00	0	22	104	0	73	24427
2026-01-12 00:49:27.14	24.95	7.16	-54.1	-70.2	3.8	1.49e+00	0	22	104	0	73	24389
2026-01-12 00:49:28.15	24.95	7.24	-54.1	-70.3	3.8	1.49e+00	0	22	104	0	73	24437
2026-01-12 00:49:29.16	24.95	7.32	-54.1	-70.3	3.8	1.49e+00	0	22	104	0	73	24425
2026-01-12 00:49:30.17	24.95	7.39	-54.1	-70.3	3.8	1.49e+00	0	22	104	0	73	24424
2026-01-12 00:49:31.18	24.95	7.47	-54.1	-70.2	3.8	1.49e+00	0	22	104	0	73	24350
2026-01-12 00:49:32.19	24.95	7.55	-54.1	-70.2	3.8	1.49e+00	0	22	104	0	73	24397
2026-01-12 00:49:33.19	24.95	7.63	-54.1	-70.2	3.8	1.49e+00	0	22	104	0	73	24397
2026-01-12 00:49:34.20	24.95	7.71	-54.1	-70.2	3.8	1.49e+00	0	22	104	0	73	24402
2026-01-12 00:49:35.21	24.95	7.79	-54.1	-70.3	3.8	1.49e+00	0	22	104	0	73	24453
2026-01-12 00:49:36.22	24.94	7.87	-54.1	-70.2	3.8	1.49e+00	0	22	104	0	73	24402
2026-01-12 00:49:37.23	24.94	7.95	-54.1	-70.3	3.8	1.49e+00	0	22	104	0	73	24425
2026-01-12 00:49:38.24	24.94	8.03	-54.1	-70.3	3.8	1.49e+00	0	22	104	0	73	24429
2026-01-12 00:49:39.25	24.94	8.11	-54.1	-70.3	3.8	1.49e+00	0	22	104	0	73	24448
2026-01-12 00:49:40.26	24.94	8.19	-54.1	-70.3	3.8	1.49e+00	0	22	104	0	73	24507
2026-01-12 00:49:41.27	24.94	8.27	-54.1	-70.3	3.8	1.49e+00	0	22	104	0	73	24430
2026-01-12 00:49:42.28	24.94	8.36	-54.1	-70.3	3.8	1.49e+00	0	22	104	0	73	24465
2026-01-12 00:49:43.29	24.93	8.44	-54.1	-70.2	3.8	1.49e+00	0	22	104	0	73	24346
2026-01-12 00:49:44.30	24.93	8.52	-54.1	-70.3	3.8	1.49e+00	0	22	104	0	73	24498
2026-01-12 00:49:45.31	24.93	8.60	-54.1	-70.2	3.8	1.49e+00	0	22	104	0	73	24381
2026-01-12 00:49:46.31	24.93	8.69	-54.1	-70.2	3.8	1.49e+00	0	22	104	0	73	24382
2026-01-12 00:49:47.32	24.93	8.77	-54.1	-70.2	3.8	1.49e+00	0	22	104	0	73	24407
2026-01-12 00:49:48.33	24.93	8.85	-54.1	-70.3	3.8	1.49e+00	0	23	104	0	73	24462
2026-01-12 00:49:49.33	24.93	8.93	-54.1	-70.3	3.8	1.49e+00	0	23	104	0	73	24425
2026-01-12 00:49:50.34	24.92	9.02	-54.1	-70.3	3.8	1.49e+00	0	22	104	0	73	24491
2026-01-12 00:49:51.34	24.92	9.10	-54.1	-70.3	3.8	1.49e+00	0	23	104	0	73	24510
2026-01-12 00:49:52.35	24.92	9.19	-54.1	-70.3	3.8	1.49e+00	0	23	104	0	73	24430
2026-01-12 00:49:53.36	24.92	9.27	-54.1	-70.2	3.8	1.49e+00	0	22	104	0	73	24378
2026-01-12 00:49:54.37	24.92	9.36	-54.1	-70.3	3.8	1.49e+00	0	22	104	0	73	24473
2026-01-12 00:49:55.38	24.91	9.44	-54.1	-70.3	3.8	1.49e+00	0	23	104	0	73	24484
2026-01-12 00:49:56.39	24.91	9.53	-54.1	-70.3	3.8	1.49e+00	0	22	104	0	73	24459
2026-01-12 00:49:57.40	24.91	9.61	-54.1	-70.3	3.8	1.49e+00	0	22	104	0	73	24543
2026-01-12 00:49:58.41	24.91	9.70	-54.1	-70.3	3.8	1.49e+00	0	23	104	0	73	24442
2026-01-12 00:49:59.42	24.91	9.79	-54.1	-70.3	3.8	1.49e+00	0	23	104	0	73	24517
2026-01-12 00:50:00.42	24.90	9.87	-54.1	-70.3	3.8	1.49e+00	0	22	104	0	73	24434
2026-01-12 00:50:01.43	24.90	9.96	-54.1	-70.3	3.8	1.49e+00	0	22	104	0	73	24463
2026-01-12 00:50:02.44	24.90	10.05	-54.1	-70.3	3.8	1.49e+00	0	22	104	0	73	24491
2026-01-12 00:50:03.44	24.90	10.13	-54.1	-70.3	3.8	1.49e+00	0	23	104	0	73	24484
2026-01-12 00:50:04.45	24.90	10.22	-54.1	-70.3	3.8	1.49e+00	0	23	104	0	73	24507
2026-01-12 00:50:05.46	24.89	10.31	-54.1	-70.3	3.8	1.49e+00	0	23	104	0	73	24522
2026-01-12 00:50:06.46	24.89	10.40	-54.1	-70.3	3.8	1.49e+00	0	23	104	0	73	24502
2026-01-12 00:50:07.47	24.89	10.49	-54.1	-70.3	3.8	1.49e+00	0	22	104	0	73	24476
2026-01-12 00:50:08.48	24.89	10.58	-54.1	-70.3	3.8	1.49e+00	0	23	104	0	73	24502
2026-01-12 00:50:09.49	24.88	10.67	-54.1	-70.3	3.8	1.49e+00	0	23	104	0	73	24478
2026-01-12 00:50:10.50	24.88	10.76	-54.1	-70.3	3.8	1.49e+00	0	23	104	0	73	24494
2026-01-12 00:50:11.51	24.88	10.85	-54.1	-70.3	3.8	1.49e+00	0	23	104	0	73	24488
2026-01-12 00:50:12.52	24.88	10.94	-54.1	-70.3	3.8	1.49e+00	0	23	104	0	73	24502
2026-01-12 00:50:13.52	24.87	11.03	-54.1	-70.3	3.8	1.49e+00	0	23	104	0	73	24509
2026-01-12 00:50:14.53	24.87	11.12	-54.1	-70.3	3.8	1.49e+00	0	23	104	0	73	24555
2026-01-12 00:50:15.54	24.87	11.21	-54.1	-70.3	3.8	1.49e+00	0	23	104	0	73	24456
2026-01-12 00:50:16.55	24.87	11.30	-54.1	-70.3	3.8	1.49e+00	0	23	104	0	73	24536
2026-01-12 00:50:17.56	24.86	11.39	-54.1	-70.3	3.8	1.49e+00	0	23	104	0	73	24516
2026-01-12 00:50:18.57	24.86	11.49	-54.1	-70.3	3.8	1.49e+00	0	23	104	0	73	24564
2026-01-12 00:50:19.58	24.86	11.58	-54.1	-70.3	3.8	1.49e+00	0	23	104	0	73	24464
2026-01-12 00:50:20.59	24.86	11.67	-54.1	-70.3	3.8	1.49e+00	0	23	104	0	73	24557
2026-01-12 00:50:21.60	24.85	11.77	-54.1	-70.3	3.8	1.49e+00	0	23	104	0	73	24484
2026-01-12 00:50:22.61	24.85	11.86	-54.1	-70.3	3.8	1.49e+00	0	23	104	0	73	24487
2026-01-12 00:50:23.62	24.85	11.95	-54.1	-70.3	3.8	1.49e+00	0	23	104	0	73	24493
2026-01-12 00:50:24.63	24.84	12.05	-54.1	-70.3	3.8	1.49e+00	0	23	104	0	73	24439
2026-01-12 00:50:25.63	24.84	12.14	-54.1	-70.3	3.8	1.49e+00	0	23	104	0	73	24477
2026-01-12 00:50:26.64	24.84	12.24	-54.1	-70.3	3.8	1.49e+00	0	22	104	0	73	24467
2026-01-12 00:50:27.65	24.83	12.34	-54.1	-70.3	3.8	1.49e+00	0	23	104	0	73	24495
2026-01-12 00:50:28.66	24.83	12.43	-54.1	-70.3	3.8	1.49e+00	0	23	104	0	73	24528
2026-01-12 00:50:29.67	24.83	12.53	-54.1	-70.3	3.8	1.49e+00	0	23	104	0	73	24572
2026-01-12 00:50:30.68	24.82	12.63	-54.1	-70.3	3.8	1.49e+00	0	23	104	0	73	24502
2026-01-12 00:50:31.69	24.82	12.72	-54.1	-70.3	3.8	1.49e+00	0	23	104	0	73	24481
2026-01-12 00:50:32.70	24.82	12.82	-54.1	-70.3	3.8	1.49e+00	0	23	104	0	73	24518
2026-01-12 00:50:33.70	24.81	12.92	-54.1	-70.3	3.8	1.49e+00	0	23	104	0	73	24556
2026-01-12 00:50:34.71	24.81	13.02	-54.1	-70.3	3.8	1.49e+00	0	23	104	0	73	24505
2026-01-12 00:50:35.72	24.81	13.12	-54.1	-70.3	3.8	1.49e+00	0	23	104	0	73	24486
2026-01-12 00:50:36.73	24.80	13.22	-54.1	-70.3	3.8	1.49e+00	0	23	104	0	73	24525
2026-01-12 00:50:37.74	24.80	13.32	-54.1	-70.3	3.8	1.49e+00	0	23	104	0	73	24547
2026-01-12 00:50:38.75	24.79	13.42	-54.1	-70.3	3.8	1.49e+00	0	23	104	0	73	24508
2026-01-12 00:50:39.76	24.79	13.52	-54.1	-70.3	3.8	1.49e+00	0	23	104	0	73	24496
2026-01-12 00:50:40.77	24.79	13.62	-54.1	-70.3	3.8	1.49e+00	0	23	104	0	73	24504
2026-01-12 00:50:41.77	24.78	13.72	-54.1	-70.3	3.8	1.49e+00	0	23	104	0	73	24479
2026-01-12 00:50:42.78	24.78	13.82	-54.1	-70.3	3.8	1.49e+00	0	23	104	0	73	24464
2026-01-12 00:50:43.79	24.78	13.92	-54.1	-70.3	3.8	1.49e+00	0	23	104	0	73	24505
2026-01-12 00:50:44.80	24.77	14.03	-54.1	-70.3	3.8	1.49e+00	0	23	104	0	73	24473
2026-01-12 00:50:45.81	24.77	14.13	-54.1	-70.3	3.8	1.49e+00	0	23	104	0	73	24490
2026-01-12 00:50:46.82	24.76	14.23	-54.1	-70.3	3.8	1.49e+00	0	23	104	0	73	24513
2026-01-12 00:50:47.83	24.76	14.34	-54.1	-70.3	3.8	1.49e+00	0	23	104	0	73	24509
2026-01-12 00:50:48.83	24.75	14.44	-54.1	-70.3	3.8	1.49e+00	0	23	104	0	73	24585
2026-01-12 00:50:49.85	24.75	14.55	-54.1	-70.3	3.8	1.49e+00	0	23	104	0	73	24550
2026-01-12 00:50:50.86	24.75	14.65	-54.1	-70.3	3.8	1.49e+00	0	23	104	0	73	24580
2026-01-12 00:50:51.87	24.74	14.76	-54.1	-70.3	3.8	1.49e+00	0	23	104	0	73	24543
2026-01-12 00:50:52.88	24.74	14.86	-54.1	-70.3	3.8	1.49e+00	0	23	104	0	73	24584
2026-01-12 00:50:53.89	24.73	14.97	-54.1	-70.3	3.8	1.49e+00	0	23	104	0	73	24573
2026-01-12 00:50:54.90	24.73	15.08	-54.1	-70.3	3.8	1.49e+00	0	23	104	0	73	24501
2026-01-12 00:50:55.91	24.72	15.19	-54.1	-70.3	3.8	1.49e+00	0	23	104	0	73	24482
2026-01-12 00:50:56.91	24.72	15.29	-54.1	-70.3	3.8	1.49e+00	0	23	104	0	73	24500
2026-01-12 00:50:57.92	24.71	15.40	-54.1	-70.3	3.8	1.49e+00	0	23	104	0	73	24502
2026-01-12 00:50:58.93	24.71	15.51	-54.1	-70.3	3.8	1.49e+00	0	23	104	0	73	24548
2026-01-12 00:50:59.94	24.70	15.62	-54.1	-70.3	3.8	1.49e+00	0	23	104	0	73	24499
2026-01-12 00:51:00.94	24.70	15.73	-54.1	-70.3	3.8	1.49e+00	0	23	104	0	73	24584
2026-01-12 00:51:01.96	24.69	15.84	-54.1	-70.3	3.8	1.49e+00	0	23	104	0	73	24547
2026-01-12 00:51:02.96	24.69	15.95	-54.1	-70.3	3.8	1.49e+00	0	23	104	0	73	24537
2026-01-12 00:51:03.97	24.68	16.06	-54.1	-70.3	3.8	1.49e+00	0	23	104	0	73	24503
2026-01-12 00:51:04.98	24.68	16.18	-54.1	-70.3	3.8	1.49e+00	0	23	104	0	73	24521
2026-01-12 00:51:05.99	24.67	16.29	-54.2	-70.3	3.8	1.49e+00	0	23	104	0	73	24559
2026-01-12 00:51:07.00	24.66	16.40	-54.1	-70.3	3.8	1.49e+00	0	23	104	0	73	24601
2026-01-12 00:51:08.01	24.66	16.52	-54.1	-70.3	3.8	1.49e+00	0	23	104	0	73	24524
2026-01-12 00:51:09.02	24.65	16.63	-54.1	-70.3	3.8	1.49e+00	0	23	104	0	73	24543
2026-01-12 00:51:10.04	24.65	16.75	-54.2	-70.3	3.8	1.49e+00	0	23	104	0	73	24540
2026-01-12 00:51:11.04	24.64	16.86	-54.1	-70.3	3.8	1.49e+00	0	23	104	0	73	24476
2026-01-12 00:51:12.05	24.64	16.98	-54.2	-70.3	3.8	1.49e+00	0	23	104	0	73	24508
2026-01-12 00:51:13.07	24.63	17.10	-54.2	-70.3	3.8	1.49e+00	0	23	104	0	73	24585
2026-01-12 00:51:14.07	24.62	17.21	-54.2	-70.3	3.8	1.49e+00	0	23	104	0	73	24644
2026-01-12 00:51:15.08	24.62	17.33	-54.2	-70.3	3.8	1.49e+00	0	23	104	0	73	24498
2026-01-12 00:51:16.09	24.61	17.45	-54.1	-70.3	3.8	1.49e+00	0	23	104	0	73	24554
2026-01-12 00:51:17.09	24.60	17.57	-54.2	-70.3	3.8	1.49e+00	0	23	104	0	73	24542
2026-01-12 00:51:18.10	24.60	17.69	-54.2	-70.3	3.8	1.49e+00	0	23	104	0	73	24573
2026-01-12 00:51:19.11	24.59	17.81	-54.1	-70.3	3.8	1.49e+00	0	23	104	0	73	24542
2026-01-12 00:51:20.12	24.58	17.93	-54.1	-70.3	3.8	1.49e+00	0	23	104	0	73	24613
2026-01-12 00:51:21.13	24.58	18.05	-54.1	-70.3	3.8	1.49e+00	0	23	104	0	73	24556
2026-01-12 00:51:22.13	24.57	18.17	-54.1	-70.3	3.8	1.49e+00	0	23	104	0	73	24583
2026-01-12 00:51:23.14	24.56	18.29	-54.1	-70.3	3.8	1.49e+00	0	23	104	0	73	24589
2026-01-12 00:51:24.15	24.56	18.41	-54.1	-70.3	3.8	1.49e+00	0	23	104	0	73	24618
2026-01-12 00:51:25.16	24.55	18.54	-54.1	-70.3	3.8	1.49e+00	0	23	104	0	73	24485
2026-01-12 00:51:26.17	24.54	18.66	-54.1	-70.3	3.8	1.49e+00	0	23	104	0	73	24508
2026-01-12 00:51:27.18	24.54	18.79	-54.1	-70.3	3.8	1.49e+00	0	23	104	0	73	24601
2026-01-12 00:51:28.19	24.53	18.91	-54.1	-70.3	3.8	1.49e+00	0	23	104	0	73	24602
2026-01-12 00:51:29.19	24.52	19.04	-54.1	-70.3	3.8	1.49e+00	0	23	104	0	73	24587
2026-01-12 00:51:30.21	24.51	19.16	-54.1	-70.3	3.8	1.49e+00	0	23	104	0	73	24596
2026-01-12 00:51:31.22	24.51	19.29	-54.2	-70.3	3.8	1.49e+00	0	23	104	0	73	24599
2026-01-12 00:51:32.23	24.50	19.42	-54.2	-70.3	3.8	1.49e+00	0	23	104	0	73	24558
2026-01-12 00:51:33.24	24.49	19.55	-54.1	-70.3	3.8	1.49e+00	0	23	104	0	73	24496
2026-01-12 00:51:34.24	24.48	19.68	-54.2	-70.3	3.8	1.49e+00	0	23	104	0	73	24599
2026-01-12 00:51:35.25	24.47	19.81	-54.1	-70.3	3.8	1.49e+00	0	23	104	0	73	24549
2026-01-12 00:51:36.26	24.47	19.94	-54.1	-70.3	3.8	1.49e+00	0	23	104	0	73	24554
2026-01-12 00:51:37.27	24.46	20.07	-54.2	-70.3	3.8	1.49e+00	0	23	104	0	73	24555
2026-01-12 00:51:38.28	24.45	20.20	-54.2	-70.3	3.8	1.49e+00	0	23	104	0	73	24500
2026-01-12 00:51:39.29	24.44	20.33	-54.2	-70.3	3.8	1.49e+00	0	23	104	0	73	24540
2026-01-12 00:51:40.29	24.43	20.47	-54.2	-70.3	3.8	1.49e+00	0	23	104	0	73	24622
2026-01-12 00:51:41.30	24.42	20.60	-54.2	-70.3	3.8	1.49e+00	0	23	104	0	73	24506
2026-01-12 00:51:42.31	24.42	20.74	-54.2	-70.3	3.8	1.49e+00	0	23	104	0	73	24565
2026-01-12 00:51:43.32	24.41	20.87	-54.2	-70.3	3.8	1.49e+00	0	23	104	0	73	24620
2026-01-12 00:51:44.32	24.40	21.01	-54.1	-70.3	3.8	1.49e+00	0	23	104	0	73	24550
2026-01-12 00:51:45.33	24.39	21.14	-54.1	-70.3	3.8	1.49e+00	0	23	104	0	73	24593
2026-01-12 00:51:46.34	24.38	21.28	-54.2	-70.3	3.8	1.49e+00	0	23	104	0	73	24638
2026-01-12 00:51:47.35	24.37	21.42	-54.1	-70.3	3.8	1.49e+00	0	23	104	0	73	24607
2026-01-12 00:51:48.36	24.36	21.56	-54.2	-70.3	3.8	1.49e+00	0	23	104	0	73	24616
2026-01-12 00:51:49.36	24.35	21.70	-54.1	-70.3	3.8	1.49e+00	0	23	104	0	73	24583
2026-01-12 00:51:50.37	24.34	21.84	-54.1	-70.3	3.8	1.49e+00	0	23	104	0	73	24561
2026-01-12 00:51:51.38	24.33	21.98	-54.1	-70.3	3.8	1.49e+00	0	23	104	0	73	24541
2026-01-12 00:51:52.39	24.32	22.13	-54.1	-70.3	3.8	1.49e+00	0	23	104	0	73	24589
2026-01-12 00:51:53.40	24.31	22.27	-54.1	-70.3	3.8	1.49e+00	0	23	104	0	73	24641
2026-01-12 00:51:54.41	24.30	22.41	-54.1	-70.3	3.8	1.49e+00	0	23	104	0	73	24606
2026-01-12 00:51:55.42	24.29	22.56	-54.2	-70.3	3.8	1.49e+00	0	23	104	0	73	24575
2026-01-12 00:51:56.43	24.28	22.70	-54.1	-70.3	3.8	1.49e+00	0	23	104	0	73	24543
2026-01-12 00:51:57.43	24.27	22.85	-54.2	-70.3	3.8	1.49e+00	0	23	104	0	73	24575
2026-01-12 00:51:58.44	24.26	23.00	-54.2	-70.3	3.8	1.49e+00	0	23	104	0	73	24617
2026-01-12 00:51:59.45	24.25	23.15	-54.2	-70.3	3.8	1.49e+00	0	23	104	0	73	24570
2026-01-12 00:52:00.46	24.24	23.30	-54.2	-70.3	3.8	1.49e+00	0	23	104	0	73	24531
2026-01-12 00:52:01.47	24.22	23.45	-54.2	-70.3	3.8	1.49e+00	0	23	104	0	73	24579
2026-01-12 00:52:02.48	24.21	23.60	-54.2	-70.3	3.8	1.49e+00	0	23	104	0	73	24629
2026-01-12 00:52:03.49	24.20	23.75	-54.2	-70.3	3.8	1.49e+00	0	23	104	0	73	24582
2026-01-12 00:52:04.49	24.19	23.90	-54.2	-70.3	3.8	1.49e+00	0	23	104	0	73	24570
2026-01-12 00:52:05.50	24.18	24.05	-54.1	-70.3	3.8	1.49e+00	0	23	104	0	73	24524
2026-01-12 00:52:06.51	24.17	24.21	-54.1	-70.3	3.8	1.49e+00	0	23	104	0	73	24577
2026-01-12 00:52:07.52	24.15	24.36	-54.1	-70.3	3.8	1.49e+00	0	23	104	0	73	24537
2026-01-12 00:52:08.53	24.14	24.52	-54.1	-70.3	3.8	1.49e+00	0	23	104	0	73	24571
2026-01-12 00:52:09.54	24.13	24.68	-54.2	-70.3	3.8	1.49e+00	0	23	104	0	73	24574
2026-01-12 00:52:10.55	24.12	24.84	-54.2	-70.3	3.8	1.49e+00	0	23	104	0	73	24588
2026-01-12 00:52:11.56	24.10	25.00	-54.2	-70.3	3.8	1.49e+00	0	23	104	0	73	24589
2026-01-12 00:52:12.57	24.09	25.16	-54.2	-70.3	3.8	1.49e+00	0	23	104	0	73	24634
2026-01-12 00:52:13.58	24.08	25.32	-54.2	-70.3	3.8	1.49e+00	0	23	104	0	73	24572
2026-01-12 00:52:14.58	24.06	25.48	-54.2	-70.3	3.8	1.49e+00	0	23	104	0	73	24562
2026-01-12 00:52:15.59	24.05	25.64	-54.2	-70.3	3.8	1.49e+00	0	23	104	0	73	24607
2026-01-12 00:52:16.60	24.04	25.81	-54.2	-70.3	3.8	1.49e+00	0	23	104	0	73	24555
2026-01-12 00:52:17.61	24.02	25.97	-54.2	-70.3	3.8	1.49e+00	0	23	104	0	73	24580
2026-01-12 00:52:18.62	24.01	26.14	-54.2	-70.3	3.8	1.49e+00	0	23	104	0	73	24629
2026-01-12 00:52:19.62	23.99	26.30	-54.2	-70.3	3.8	1.49e+00	0	23	104	0	73	24613
2026-01-12 00:52:20.63	23.98	26.47	-54.2	-70.3	3.8	1.49e+00	0	23	104	0	73	24634
2026-01-12 00:52:21.64	23.97	26.64	-54.2	-70.3	3.8	1.49e+00	0	23	104	0	73	24552
2026-01-12 00:52:22.65	23.95	26.81	-54.2	-70.3	3.8	1.49e+00	0	23	104	0	73	24558
2026-01-12 00:52:23.66	23.94	26.98	-54.2	-70.3	3.8	1.49e+00	0	23	104	0	73	24670
2026-01-12 00:52:24.66	23.92	27.15	-54.2	-70.3	3.8	1.49e+00	0	23	104	0	73	24560
2026-01-12 00:52:25.67	23.90	27.33	-54.2	-70.3	3.8	1.49e+00	0	23	104	0	73	24620
2026-01-12 00:52:26.68	23.89	27.50	-54.2	-70.3	3.8	1.49e+00	0	23	104	0	73	24652
2026-01-12 00:52:27.69	23.87	27.68	-54.2	-70.3	3.8	1.49e+00	0	23	104	0	73	24614
2026-01-12 00:52:28.70	23.86	27.86	-54.2	-70.3	3.8	1.49e+00	0	23	104	0	73	24618
2026-01-12 00:52:29.71	23.84	28.03	-54.2	-70.3	3.8	1.49e+00	0	23	104	0	73	24570
2026-01-12 00:52:30.72	23.82	28.21	-54.2	-70.3	3.8	1.49e+00	0	23	104	0	73	24589
2026-01-12 00:52:31.73	23.81	28.39	-54.1	-70.3	3.8	1.49e+00	0	23	104	0	73	24631
2026-01-12 00:52:32.74	23.79	28.58	-54.2	-70.3	3.8	1.49e+00	0	23	104	0	73	24610
2026-01-12 00:52:33.75	23.77	28.76	-54.1	-70.3	3.8	1.49e+00	0	23	104	0	73	24605
2026-01-12 00:52:34.75	23.76	28.94	-54.2	-70.3	3.8	1.49e+00	0	23	104	0	73	24581
2026-01-12 00:52:35.77	23.74	29.13	-54.2	-70.3	3.8	1.49e+00	0	23	104	0	73	24611
2026-01-12 00:52:36.77	23.72	29.31	-54.2	-70.3	3.8	1.49e+00	0	23	104	0	73	24606
2026-01-12 00:52:37.78	23.70	29.50	-54.2	-70.3	3.8	1.49e+00	0	23	104	0	73	24566
2026-01-12 00:52:38.79	23.68	29.69	-54.2	-70.3	3.8	1.49e+00	0	23	104	0	73	24649
2026-01-12 00:52:39.80	23.66	29.88	-54.2	-70.3	3.8	1.49e+00	0	23	104	0	73	24597
2026-01-12 00:52:40.81	23.64	30.07	-54.1	-70.3	3.8	1.49e+00	0	23	104	0	73	24631
2026-01-12 00:52:41.82	23.62	30.26	-54.2	-70.3	3.8	1.49e+00	0	23	104	0	73	24619
2026-01-12 00:52:42.83	23.60	30.46	-54.1	-70.3	3.8	1.49e+00	0	23	104	0	73	24693
2026-01-12 00:52:43.84	23.58	30.65	-54.1	-70.3	3.8	1.49e+00	0	23	104	0	73	24588
2026-01-12 00:52:44.85	23.56	30.85	-54.1	-70.3	3.8	1.49e+00	0	23	104	0	73	24643
2026-01-12 00:52:45.86	23.54	31.05	-54.1	-70.3	3.8	1.49e+00	0	23	104	0	73	24567
2026-01-12 00:52:46.87	23.52	31.25	-54.1	-70.3	3.8	1.49e+00	0	23	104	0	73	24614
2026-01-12 00:52:47.88	23.50	31.45	-54.1	-70.3	3.8	1.49e+00	0	23	104	0	73	24632
2026-01-12 00:52:48.88	23.48	31.65	-54.1	-70.3	3.8	1.49e+00	0	23	104	0	73	24638
2026-01-12 00:52:49.89	23.46	31.85	-54.1	-70.3	3.8	1.49e+00	0	23	104	0	73	24606
2026-01-12 00:52:50.90	23.44	32.06	-54.1	-70.3	3.8	1.49e+00	0	23	104	0	73	24560
2026-01-12 00:52:51.91	23.41	32.27	-54.2	-70.3	3.8	1.49e+00	0	23	104	0	73	24627
2026-01-12 00:52:52.92	23.39	32.47	-54.2	-70.3	3.8	1.49e+00	0	23	104	0	73	24651
2026-01-12 00:52:53.93	23.37	32.68	-54.2	-70.3	3.8	1.49e+00	0	23	104	0	73	24652
2026-01-12 00:52:54.94	23.34	32.89	-54.1	-70.3	3.8	1.49e+00	0	23	104	0	73	24580
2026-01-12 00:52:55.95	23.32	33.11	-54.1	-70.3	3.8	1.49e+00	0	23	104	0	73	24591
2026-01-12 00:52:56.96	23.30	33.32	-54.1	-70.3	3.8	1.49e+00	0	23	104	0	73	24557
2026-01-12 00:52:57.97	23.27	33.54	-54.1	-70.3	3.8	1.49e+00	0	23	104	0	73	24530
2026-01-12 00:52:58.98	23.25	33.75	-54.1	-70.3	3.8	1.49e+00	0	23	104	0	73	24652
2026-01-12 00:52:59.99	23.22	33.97	-54.1	-70.3	3.8	1.49e+00	0	23	104	0	73	24547
2026-01-12 00:53:00.99	23.19	34.19	-54.1	-70.3	3.8	1.49e+00	0	23	104	0	73	24521
2026-01-12 00:53:02.00	23.17	34.41	-54.1	-70.3	3.8	1.49e+00	0	23	104	0	73	24588
2026-01-12 00:53:03.01	23.14	34.63	-54.1	-70.3	3.8	1.49e+00	0	23	104	0	73	24579
2026-01-12 00:53:04.02	23.11	34.86	-54.2	-70.3	3.8	1.49e+00	0	23	104	0	73	24615
2026-01-12 00:53:05.02	23.09	35.08	-54.1	-70.3	3.8	1.49e+00	0	23	104	0	73	24615
2026-01-12 00:53:06.03	23.06	35.31	-54.1	-70.3	3.8	1.49e+00	0	23	104	0	73	24634
2026-01-12 00:53:07.04	23.03	35.54	-54.1	-70.3	3.8	1.49e+00	0	23	104	0	73	24635
2026-01-12 00:53:08.05	23.00	35.77	-54.1	-70.3	3.8	1.49e+00	0	23	104	0	73	24555
2026-01-12 00:53:09.05	22.97	36.00	-54.1	-70.3	3.8	1.49e+00	0	23	104	0	73	24587
2026-01-12 00:53:10.07	22.94	36.24	-54.2	-70.3	3.8	1.49e+00	0	23	104	0	73	24566
2026-01-12 00:53:11.08	22.91	36.47	-54.2	-70.3	3.8	1.49e+00	0	23	104	0	73	24612
2026-01-12 00:53:12.08	22.88	36.71	-54.2	-70.3	3.8	1.49e+00	0	23	104	0	73	24623
2026-01-12 00:53:13.09	22.85	36.95	-54.2	-70.3	3.8	1.49e+00	0	23	104	0	73	24573
2026-01-12 00:53:14.10	22.82	37.19	-54.2	-70.3	3.8	1.49e+00	0	23	104	0	73	24597
2026-01-12 00:53:15.11	22.79	37.43	-54.2	-70.3	3.8	1.49e+00	0	23	104	0	73	24613
2026-01-12 00:53:16.12	22.75	37.68	-54.1	-70.3	3.8	1.49e+00	0	23	104	0	73	24565
2026-01-12 00:53:17.12	22.72	37.92	-54.1	-70.3	3.8	1.49e+00	0	23	104	0	73	24527
2026-01-12 00:53:18.13	22.69	38.17	-54.1	-70.3	3.8	1.49e+00	0	23	104	0	73	24598
2026-01-12 00:53:19.14	22.65	38.42	-54.1	-70.3	3.8	1.49e+00	0	23	104	0	73	24565
2026-01-12 00:53:20.15	22.62	38.68	-54.1	-70.3	3.8	1.49e+00	0	23	104	0	73	24526
2026-01-12 00:53:21.15	22.58	38.93	-54.1	-70.3	3.8	1.49e+00	0	23	104	0	73	24624
2026-01-12 00:53:22.16	22.54	39.18	-54.1	-70.3	3.8	1.49e+00	0	23	104	0	73	24548
2026-01-12 00:53:23.17	22.51	39.44	-54.1	-70.3	3.8	1.49e+00	0	23	104	0	73	24645
2026-01-12 00:53:24.18	22.47	39.70	-54.1	-70.3	3.8	1.49e+00	0	23	104	0	73	24594
2026-01-12 00:53:25.19	22.43	39.96	-54.1	-70.3	3.8	1.49e+00	0	23	104	0	73	24663
2026-01-12 00:53:26.20	22.39	40.23	-54.1	-70.3	3.8	1.49e+00	0	23	104	0	73	24597
2026-01-12 00:53:27.21	22.35	40.49	-54.1	-70.3	3.8	1.49e+00	0	23	104	0	73	24593
2026-01-12 00:53:28.21	22.31	40.76	-54.1	-70.4	3.8	1.49e+00	0	23	104	0	73	24699
2026-01-12 00:53:29.22	22.27	41.03	-54.1	-70.3	3.8	1.49e+00	0	23	104	0	73	24640
2026-01-12 00:53:30.23	22.23	41.30	-54.1	-70.3	3.8	1.49e+00	0	23	104	0	73	24624
2026-01-12 00:53:31.24	22.18	41.57	-54.1	-70.3	3.8	1.49e+00	0	23	104	0	73	24620
2026-01-12 00:53:32.25	22.14	41.85	-54.2	-70.3	3.8	1.49e+00	0	23	104	0	73	24583
2026-01-12 00:53:33.26	22.10	42.13	-54.1	-70.3	3.8	1.49e+00	0	23	104	0	73	24601
2026-01-12 00:53:34.27	22.05	42.41	-54.2	-70.3	3.8	1.49e+00	0	23	104	0	73	24600
2026-01-12 00:53:35.27	22.00	42.69	-54.1	-70.3	3.8	1.49e+00	0	23	104	0	73	24643
2026-01-12 00:53:36.28	21.96	42.97	-54.1	-70.3	3.8	1.49e+00	0	23	104	0	73	24622
2026-01-12 00:53:37.29	21.91	43.26	-54.2	-70.3	3.8	1.49e+00	0	23	104	0	73	24618
2026-01-12 00:53:38.29	21.86	43.54	-54.2	-70.3	3.8	1.49e+00	0	23	104	0	73	24606
2026-01-12 00:53:39.30	21.81	43.83	-54.2	-70.3	3.8	1.49e+00	0	23	104	0	73	24684
2026-01-12 00:53:40.30	21.76	44.12	-54.1	-70.3	3.8	1.49e+00	0	23	104	0	73	24626
2026-01-12 00:53:41.31	21.71	44.42	-54.2	-70.3	3.8	1.49e+00	0	23	104	0	73	24607
2026-01-12 00:53:42.32	21.66	44.71	-54.2	-70.3	3.8	1.49e+00	0	23	104	0	73	24609
2026-01-12 00:53:43.33	21.60	45.01	-54.2	-70.3	3.8	1.49e+00	0	23	104	0	73	24609
2026-01-12 00:53:44.34	21.55	45.32	-54.2	-70.3	3.8	1.49e+00	0	23	104	0	73	24614
2026-01-12 00:53:45.35	21.49	45.62	-54.2	-70.3	3.8	1.49e+00	0	23	104	0	73	24690
2026-01-12 00:53:46.36	21.43	45.93	-54.2	-70.3	3.8	1.49e+00	0	23	104	0	73	24615
2026-01-12 00:53:47.36	21.37	46.23	-54.1	-70.3	3.8	1.49e+00	0	23	104	0	73	24632
2026-01-12 00:53:48.37	21.31	46.54	-54.1	-70.3	3.8	1.49e+00	0	23	104	0	73	24541
2026-01-12 00:53:49.38	21.25	46.85	-54.2	-70.3	3.8	1.49e+00	0	23	104	0	73	24622
2026-01-12 00:53:50.39	21.19	47.17	-54.2	-70.3	3.8	1.49e+00	0	23	104	0	73	24688
2026-01-12 00:53:51.39	21.13	47.48	-54.2	-70.3	3.8	1.49e+00	0	23	104	0	73	24640
2026-01-12 00:53:52.40	21.06	47.80	-54.2	-70.3	3.8	1.49e+00	0	23	104	0	73	24609
2026-01-12 00:53:53.41	20.99	48.13	-54.2	-70.3	3.8	1.49e+00	0	23	104	0	73	24600
2026-01-12 00:53:54.42	20.93	48.45	-54.2	-70.3	3.8	1.49e+00	0	23	104	0	73	24614
2026-01-12 00:53:55.43	20.86	48.78	-54.2	-70.3	3.8	1.49e+00	0	23	104	0	73	24642
2026-01-12 00:53:56.44	20.78	49.11	-54.2	-70.3	3.8	1.49e+00	0	23	104	0	73	24681
2026-01-12 00:53:57.45	20.71	49.44	-54.1	-70.3	3.8	1.49e+00	0	23	104	0	73	24577
2026-01-12 00:53:58.46	20.64	49.77	-54.2	-70.3	3.8	1.49e+00	0	23	104	0	73	24613
2026-01-12 00:53:59.47	20.56	50.11	-54.2	-70.3	3.8	1.49e+00	0	23	104	0	73	24613
2026-01-12 00:54:00.48	20.48	50.45	-54.2	-70.3	3.8	1.49e+00	0	23	104	0	73	24640
2026-01-12 00:54:01.49	20.40	50.79	-54.2	-70.3	3.8	1.49e+00	0	23	104	0	73	24631
2026-01-12 00:54:02.50	20.32	51.14	-54.1	-70.3	3.8	1.49e+00	0	23	104	0	73	24555
2026-01-12 00:54:03.50	20.24	51.48	-54.1	-70.3	3.8	1.49e+00	0	23	104	0	73	24593
2026-01-12 00:54:04.51	20.15	51.83	-54.1	-70.3	3.8	1.49e+00	0	23	104	0	73	24574
2026-01-12 00:54:05.52	20.06	52.18	-54.1	-70.3	3.8	1.49e+00	0	23	104	0	73	24673
2026-01-12 00:54:06.53	19.97	52.54	-54.2	-70.3	3.8	1.49e+00	0	23	104	0	73	24644
2026-01-12 00:54:07.54	19.88	52.89	-54.1	-70.3	3.8	1.49e+00	0	23	104	0	73	24647
2026-01-12 00:54:08.55	19.78	53.25	-54.1	-70.3	3.8	1.49e+00	0	23	104	0	73	24644
2026-01-12 00:54:09.56	19.68	53.61	-54.1	-70.3	3.8	1.49e+00	0	23	104	0	73	24648
2026-01-12 00:54:10.57	19.58	53.98	-54.1	-70.3	3.8	1.49e+00	0	23	104	0	73	24681
2026-01-12 00:54:11.58	19.48	54.34	-54.1	-70.3	3.8	1.49e+00	0	23	104	0	73	24659
2026-01-12 00:54:12.58	19.38	54.71	-54.1	-70.3	3.8	1.49e+00	0	23	104	0	73	24654
2026-01-12 00:54:13.59	19.27	55.08	-54.1	-70.3	3.8	1.49e+00	0	23	104	0	73	24667
2026-01-12 00:54:14.60	19.16	55.45	-54.1	-70.3	3.8	1.49e+00	0	23	104	0	73	24610
2026-01-12 00:54:15.61	19.04	55.83	-54.1	-70.3	3.8	1.49e+00	0	23	104	0	73	24632
2026-01-12 00:54:16.62	18.92	56.21	-54.1	-70.3	3.8	1.49e+00	0	23	104	0	73	24549
2026-01-12 00:54:17.63	18.80	56.59	-54.1	-70.3	3.8	1.49e+00	0	23	104	0	73	24629
2026-01-12 00:54:18.64	18.68	56.98	-54.1	-70.3	3.8	1.49e+00	0	23	104	0	73	24691
2026-01-12 00:54:19.65	18.55	57.36	-54.1	-70.3	3.8	1.49e+00	0	23	104	0	73	24637
2026-01-12 00:54:20.66	18.41	57.75	-54.1	-70.3	3.8	1.49e+00	0	23	104	0	73	24582
2026-01-12 00:54:21.67	18.28	58.14	-54.1	-70.3	3.8	1.49e+00	0	23	104	0	73	24618
2026-01-12 00:54:22.67	18.14	58.53	-54.1	-70.3	3.8	1.49e+00	0	23	104	0	73	24577
2026-01-12 00:54:23.68	17.99	58.93	-54.1	-70.3	3.8	1.49e+00	0	23	104	0	73	24642
2026-01-12 00:54:24.69	17.84	59.33	-54.2	-70.3	3.8	1.49e+00	0	23	104	0	73	24668
2026-01-12 00:54:25.70	17.69	59.73	-54.2	-70.3	3.8	1.49e+00	0	23	104	0	73	24590
2026-01-12 00:54:26.71	17.53	60.14	-54.1	-70.3	3.8	1.49e+00	0	23	104	0	73	24657
2026-01-12 00:54:27.72	17.36	60.54	-54.2	-70.3	3.8	1.49e+00	0	23	104	0	73	24650
2026-01-12 00:54:28.73	17.19	60.95	-54.2	-70.4	3.8	1.49e+00	0	23	104	0	73	24694
2026-01-12 00:54:29.74	17.02	61.36	-54.1	-70.4	3.8	1.49e+00	0	23	104	0	73	24696
2026-01-12 00:54:30.74	16.84	61.77	-54.2	-70.3	3.8	1.49e+00	0	23	104	0	73	24692
2026-01-12 00:54:31.75	16.65	62.19	-54.1	-70.4	3.8	1.49e+00	0	23	104	0	73	24727
2026-01-12 00:54:32.77	16.45	62.61	-54.2	-70.4	3.8	1.49e+00	0	23	104	0	73	24725
2026-01-12 00:54:33.77	16.25	63.02	-54.1	-70.4	3.8	1.49e+00	0	23	104	0	73	24724
2026-01-12 00:54:34.78	16.04	63.45	-54.2	-70.4	3.8	1.49e+00	0	23	104	0	73	24714
2026-01-12 00:54:35.79	15.83	63.87	-54.1	-70.4	3.8	1.49e+00	0	23	104	0	73	24706
2026-01-12 00:54:36.80	15.60	64.30	-54.1	-70.3	3.8	1.49e+00	0	23	104	0	73	24647
2026-01-12 00:54:37.81	15.37	64.73	-54.1	-70.3	3.8	1.49e+00	0	23	104	0	73	24606
2026-01-12 00:54:38.81	15.13	65.15	-54.1	-70.3	3.8	1.49e+00	0	23	104	0	73	24683
2026-01-12 00:54:39.83	14.87	65.59	-54.1	-70.3	3.8	1.49e+00	0	23	104	0	73	24619
2026-01-12 00:54:40.83	14.61	66.02	-54.1	-70.3	3.8	1.49e+00	0	23	104	0	73	24647
2026-01-12 00:54:41.84	14.34	66.46	-54.1	-70.3	3.8	1.49e+00	0	23	104	0	73	24594
2026-01-12 00:54:42.85	14.05	66.89	-54.2	-70.3	3.8	1.49e+00	0	23	104	0	73	24635
2026-01-12 00:54:43.85	13.75	67.33	-54.2	-70.3	3.8	1.49e+00	0	23	104	0	73	24639
2026-01-12 00:54:44.86	13.44	67.77	-54.2	-70.4	3.8	1.49e+00	0	23	104	0	73	24709
2026-01-12 00:54:45.87	13.12	68.22	-54.2	-70.3	3.8	1.49e+00	0	23	104	0	73	24655
2026-01-12 00:54:46.87	12.78	68.66	-54.1	-70.3	3.8	1.49e+00	0	23	104	0	73	24555
2026-01-12 00:54:47.88	12.43	69.10	-54.2	-70.3	3.8	1.49e+00	0	23	104	0	73	24630
2026-01-12 00:54:48.89	12.05	69.55	-54.1	-70.3	3.8	1.49e+00	0	23	104	0	73	24691
2026-01-12 00:54:49.90	11.66	70.00	-54.1	-70.3	3.8	1.49e+00	0	23	104	0	73	24578
2026-01-12 00:54:50.91	11.25	70.45	-54.1	-70.3	3.8	1.49e+00	0	23	104	0	73	24556
2026-01-12 00:54:51.91	10.82	70.90	-54.1	-70.3	3.8	1.49e+00	0	23	104	0	73	24588
2026-01-12 00:54:52.92	10.37	71.35	-54.1	-70.3	3.8	1.49e+00	0	23	104	0	73	24623
2026-01-12 00:54:53.94	9.89	71.81	-54.1	-70.4	3.8	1.49e+00	0	23	104	0	73	24698
2026-01-12 00:54:54.94	9.39	72.26	-54.1	-70.3	3.8	1.49e+00	0	23	104	0	73	24653
2026-01-12 00:54:55.95	8.86	72.71	-54.2	-70.3	3.8	1.49e+00	0	23	104	0	73	24583
2026-01-12 00:54:56.96	8.30	73.16	-54.1	-70.3	3.8	1.49e+00	0	23	104	0	73	24667
2026-01-12 00:54:57.97	7.70	73.62	-54.1	-70.3	3.8	1.49e+00	0	23	104	0	73	24630
2026-01-12 00:54:58.98	7.07	74.07	-54.1	-70.3	3.8	1.49e+00	0	23	104	0	73	24692
2026-01-12 00:54:59.99	6.40	74.53	-54.1	-70.3	3.8	1.49e+00	0	23	104	0	73	24622
2026-01-12 00:55:00.99	5.69	74.98	-54.2	-70.3	3.8	1.49e+00	0	23	104	0	73	24661
2026-01-12 00:55:02.00	4.93	75.43	-54.1	-70.3	3.8	1.49e+00	0	23	104	0	73	24663
2026-01-12 00:55:03.01	4.12	75.88	-54.1	-70.3	3.8	1.49e+00	0	23	104	0	73	24605
2026-01-12 00:55:04.02	3.26	76.33	-54.1	-70.3	3.8	1.49e+00	0	23	104	0	73	24640
2026-01-12 00:55:05.03	2.33	76.78	-54.1	-70.3	3.8	1.49e+00	0	23	104	0	73	24603
2026-01-12 00:55:06.04	1.34	77.23	-54.2	-70.3	3.8	1.49e+00	0	23	104	0	73	24655
2026-01-12 00:55:07.05	0.27	77.67	-54.1	-70.3	3.8	1.49e+00	0	23	104	0	73	24635
2026-01-12 00:55:08.06	359.12	78.11	-54.1	-70.3	3.8	1.49e+00	0	23	104	0	73	24634
2026-01-12 00:55:09.07	357.88	78.55	-54.1	-70.3	3.8	1.49e+00	0	23	104	0	73	24632
2026-01-12 00:55:10.08	356.54	78.98	-54.1	-70.4	3.8	1.49e+00	0	23	104	0	73	24713
2026-01-12 00:55:11.08	355.11	79.40	-54.1	-70.3	3.8	1.49e+00	0	23	104	0	73	24639
2026-01-12 00:55:12.09	353.53	79.82	-54.1	-70.3	3.8	1.49e+00	0	23	104	0	73	24646
2026-01-12 00:55:13.10	351.82	80.24	-54.1	-70.4	3.8	1.49e+00	0	23	104	0	73	24720
2026-01-12 00:55:14.11	349.96	80.64	-54.1	-70.3	3.8	1.49e+00	0	23	104	0	73	24636
2026-01-12 00:55:15.12	347.93	81.03	-54.1	-70.3	3.8	1.49e+00	0	23	104	0	73	24689
2026-01-12 00:55:16.12	345.73	81.41	-54.2	-70.3	3.8	1.49e+00	0	23	104	0	73	24673
2026-01-12 00:55:17.13	343.30	81.78	-54.1	-70.3	3.8	1.49e+00	0	23	104	0	73	24687
2026-01-12 00:55:18.15	340.63	82.14	-54.1	-70.3	3.8	1.49e+00	0	23	104	0	73	24679
2026-01-12 00:55:19.15	337.76	82.47	-54.1	-70.3	3.8	1.49e+00	0	23	104	0	73	24655
2026-01-12 00:55:20.16	334.59	82.79	-54.1	-70.3	3.8	1.49e+00	0	23	104	0	73	24636
2026-01-12 00:55:21.17	331.15	83.08	-54.1	-70.3	3.8	1.49e+00	0	23	104	0	73	24630
2026-01-12 00:55:22.18	327.41	83.35	-54.1	-70.3	3.8	1.49e+00	0	23	104	0	73	24646
2026-01-12 00:55:23.18	323.42	83.58	-54.1	-70.3	3.8	1.49e+00	0	23	104	0	73	24595
2026-01-12 00:55:24.19	319.11	83.78	-54.1	-70.3	3.8	1.49e+00	0	23	104	0	73	24624
2026-01-12 00:55:25.20	314.53	83.95	-54.1	-70.3	3.8	1.49e+00	0	23	104	0	73	24636
2026-01-12 00:55:26.21	309.72	84.07	-54.1	-70.3	3.8	1.49e+00	0	23	104	0	73	24668
2026-01-12 00:55:27.22	304.74	84.16	-54.1	-70.4	3.8	1.49e+00	0	23	104	0	73	24702
2026-01-12 00:55:28.23	299.66	84.19	-54.1	-70.4	3.8	1.49e+00	0	23	104	0	73	24771
2026-01-12 00:55:29.24	294.55	84.18	-54.2	-70.3	3.8	1.49e+00	0	23	104	0	73	24684
2026-01-12 00:55:30.25	289.51	84.13	-54.1	-70.3	3.8	1.49e+00	0	23	104	0	73	24685
2026-01-12 00:55:31.25	284.64	84.03	-54.2	-70.4	3.8	1.49e+00	0	23	104	0	73	24726
2026-01-12 00:55:32.26	279.91	83.89	-54.1	-70.4	3.8	1.49e+00	0	23	104	0	73	24739
2026-01-12 00:55:33.27	275.43	83.71	-54.1	-70.3	3.8	1.49e+00	0	23	104	0	73	24681
2026-01-12 00:55:34.28	271.23	83.49	-54.1	-70.3	3.8	1.49e+00	0	23	104	0	73	24661
2026-01-12 00:55:35.29	267.31	83.24	-54.1	-70.4	3.8	1.49e+00	0	23	104	0	73	24694
2026-01-12 00:55:36.30	263.69	82.97	-54.1	-70.3	3.8	1.49e+00	0	23	104	0	73	24622
2026-01-12 00:55:37.31	260.36	82.66	-54.2	-70.4	3.8	1.49e+00	0	23	104	0	73	24707
2026-01-12 00:55:38.31	257.34	82.34	-54.1	-70.4	3.8	1.49e+00	0	23	104	0	73	24704
2026-01-12 00:55:39.32	254.54	82.00	-54.1	-70.4	3.8	1.49e+00	0	23	104	0	73	24694
2026-01-12 00:55:40.33	251.98	81.64	-54.1	-70.4	3.8	1.49e+00	0	23	104	0	73	24742
2026-01-12 00:55:41.34	249.64	81.26	-54.1	-70.4	3.8	1.49e+00	0	23	104	0	73	24811
2026-01-12 00:55:42.35	247.50	80.88	-54.2	-70.4	3.8	1.49e+00	0	23	104	0	73	24762
2026-01-12 00:55:43.36	245.54	80.48	-54.1	-70.4	3.8	1.49e+00	0	23	104	0	73	24728
2026-01-12 00:55:44.37	243.74	80.07	-54.1	-70.3	3.8	1.49e+00	0	23	104	0	73	24691
2026-01-12 00:55:45.38	242.08	79.65	-54.1	-70.3	3.8	1.49e+00	0	23	104	0	73	24641
2026-01-12 00:55:46.39	240.56	79.23	-54.1	-70.3	3.8	1.49e+00	0	23	104	0	73	24621
2026-01-12 00:55:47.39	239.17	78.80	-54.1	-70.3	3.8	1.49e+00	0	23	104	0	73	24603
2026-01-12 00:55:48.40	237.87	78.37	-54.1	-70.4	3.8	1.49e+00	0	23	104	0	73	24709
2026-01-12 00:55:49.41	236.67	77.93	-54.1	-70.4	3.8	1.49e+00	0	23	104	0	73	24717
2026-01-12 00:55:50.42	235.55	77.49	-54.1	-70.3	3.8	1.49e+00	0	23	104	0	73	24641
2026-01-12 00:55:51.43	234.51	77.04	-54.1	-70.3	3.8	1.49e+00	0	23	104	0	73	24658
2026-01-12 00:55:52.44	233.55	76.60	-54.1	-70.3	3.8	1.49e+00	0	23	104	0	73	24606
2026-01-12 00:55:53.45	232.65	76.15	-54.1	-70.3	3.8	1.49e+00	0	23	104	0	73	24651
2026-01-12 00:55:54.46	231.81	75.69	-54.1	-70.3	3.8	1.49e+00	0	23	104	0	73	24673
2026-01-12 00:55:55.47	231.02	75.24	-54.1	-70.3	3.8	1.49e+00	0	23	104	0	73	24684
2026-01-12 00:55:56.48	230.28	74.79	-54.1	-70.3	3.8	1.49e+00	0	23	104	0	73	24691
2026-01-12 00:55:57.49	229.58	74.33	-54.1	-70.3	3.8	1.49e+00	0	23	104	0	73	24682
2026-01-12 00:55:58.49	228.93	73.88	-54.1	-70.3	3.8	1.49e+00	0	23	104	0	73	24653
2026-01-12 00:55:59.50	228.32	73.43	-54.1	-70.4	3.8	1.49e+00	0	23	104	0	73	24708
2026-01-12 00:56:00.51	227.74	72.97	-54.1	-70.4	3.8	1.49e+00	0	23	104	0	73	24719
2026-01-12 00:56:01.51	227.19	72.52	-54.1	-70.3	3.8	1.49e+00	0	23	104	0	73	24665
2026-01-12 00:56:02.52	226.67	72.07	-54.1	-70.3	3.8	1.49e+00	0	23	104	0	73	24633
2026-01-12 00:56:03.52	226.18	71.62	-54.1	-70.3	3.8	1.49e+00	0	23	104	0	73	24638
2026-01-12 00:56:04.54	225.71	71.16	-54.1	-70.4	3.8	1.49e+00	0	23	104	0	73	24747
2026-01-12 00:56:05.55	225.26	70.71	-54.1	-70.4	3.8	1.49e+00	0	23	104	0	73	24726
2026-01-12 00:56:06.55	224.85	70.26	-54.1	-70.4	3.8	1.49e+00	0	23	104	0	73	24729
2026-01-12 00:56:07.56	224.44	69.81	-54.1	-70.3	3.8	1.49e+00	0	23	104	0	73	24692
2026-01-12 00:56:08.57	224.06	69.36	-54.1	-70.4	3.8	1.49e+00	0	23	104	0	73	24737
2026-01-12 00:56:09.58	223.69	68.91	-54.1	-70.3	3.8	1.49e+00	0	23	104	0	73	24671
2026-01-12 00:56:10.59	223.34	68.47	-54.1	-70.4	3.8	1.49e+00	0	23	104	0	73	24733
2026-01-12 00:56:11.60	223.01	68.02	-54.1	-70.3	3.8	1.49e+00	0	23	104	0	73	24671
2026-01-12 00:56:12.60	222.69	67.58	-54.1	-70.4	3.8	1.49e+00	0	23	104	0	73	24703
2026-01-12 00:56:13.61	222.39	67.14	-54.1	-70.3	3.8	1.49e+00	0	23	104	0	73	24680
2026-01-12 00:56:14.61	222.10	66.70	-54.1	-70.3	3.8	1.49e+00	0	23	104	0	73	24688
2026-01-12 00:56:15.62	221.82	66.27	-54.1	-70.4	3.8	1.49e+00	0	23	104	0	73	24752
2026-01-12 00:56:16.64	221.54	65.83	-54.1	-70.4	3.8	1.49e+00	0	23	104	0	73	24730
2026-01-12 00:56:17.65	221.28	65.39	-54.1	-70.3	3.8	1.49e+00	0	23	104	0	73	24665
2026-01-12 00:56:18.65	221.04	64.96	-54.1	-70.4	3.8	1.49e+00	0	23	104	0	73	24698
2026-01-12 00:56:19.66	220.80	64.53	-54.1	-70.4	3.8	1.49e+00	0	23	104	0	73	24726
2026-01-12 00:56:20.67	220.57	64.10	-54.1	-70.4	3.8	1.49e+00	0	23	104	0	73	24696
2026-01-12 00:56:21.68	220.34	63.68	-54.1	-70.4	3.8	1.49e+00	0	23	104	0	73	24706
2026-01-12 00:56:22.68	220.13	63.26	-54.1	-70.4	3.8	1.49e+00	0	23	104	0	73	24723
2026-01-12 00:56:23.70	219.92	62.83	-54.1	-70.3	3.8	1.49e+00	0	23	104	0	73	24684
2026-01-12 00:56:24.71	219.72	62.41	-54.1	-70.3	3.8	1.49e+00	0	23	104	0	73	24665
2026-01-12 00:56:25.72	219.53	61.99	-54.1	-70.3	3.8	1.49e+00	0	23	104	0	73	24645
2026-01-12 00:56:26.73	219.35	61.58	-54.1	-70.4	3.8	1.49e+00	0	23	104	0	73	24727
2026-01-12 00:56:27.74	219.17	61.16	-54.1	-70.4	3.8	1.49e+00	0	23	104	0	73	24779
2026-01-12 00:56:28.75	218.99	60.75	-54.1	-70.4	3.8	1.49e+00	0	23	104	0	73	24738
2026-01-12 00:56:29.76	218.83	60.34	-54.1	-70.3	3.8	1.49e+00	0	23	104	0	73	24672
2026-01-12 00:56:30.76	218.66	59.94	-54.1	-70.4	3.8	1.49e+00	0	23	104	0	73	24714
2026-01-12 00:56:31.77	218.51	59.54	-54.1	-70.4	3.8	1.49e+00	0	23	104	0	73	24697
2026-01-12 00:56:32.78	218.35	59.14	-54.1	-70.4	3.8	1.49e+00	0	23	104	0	73	24751
2026-01-12 00:56:33.79	218.21	58.74	-54.1	-70.3	3.8	1.49e+00	0	23	104	0	73	24656
2026-01-12 00:56:34.80	218.06	58.34	-54.1	-70.3	3.8	1.49e+00	0	23	104	0	73	24686
2026-01-12 00:56:35.80	217.92	57.95	-54.1	-70.4	3.8	1.49e+00	0	23	104	0	73	24723
2026-01-12 00:56:36.81	217.79	57.56	-54.1	-70.4	3.8	1.49e+00	0	23	104	0	73	24704
2026-01-12 00:56:37.82	217.66	57.17	-54.1	-70.4	3.8	1.49e+00	0	23	104	0	73	24736
2026-01-12 00:56:38.83	217.53	56.79	-54.1	-70.4	3.8	1.49e+00	0	23	104	0	73	24731
2026-01-12 00:56:39.84	217.41	56.40	-54.1	-70.4	3.8	1.49e+00	0	23	104	0	73	24735
2026-01-12 00:56:40.85	217.29	56.02	-54.1	-70.3	3.8	1.49e+00	0	23	104	0	73	24682
2026-01-12 00:56:41.85	217.17	55.65	-54.1	-70.3	3.8	1.49e+00	0	23	104	0	73	24633
2026-01-12 00:56:42.86	217.06	55.27	-54.1	-70.3	3.8	1.49e+00	0	23	104	0	73	24616
2026-01-12 00:56:43.87	216.95	54.90	-54.1	-70.3	3.8	1.49e+00	0	23	104	0	73	24620
2026-01-12 00:56:44.88	216.84	54.52	-54.1	-70.3	3.8	1.49e+00	0	23	104	0	73	24640
2026-01-12 00:56:45.89	216.73	54.15	-54.1	-70.3	3.8	1.49e+00	0	23	104	0	73	24656
2026-01-12 00:56:46.90	216.63	53.79	-54.1	-70.3	3.8	1.49e+00	0	23	104	0	73	24673
2026-01-12 00:56:47.90	216.53	53.43	-54.1	-70.4	3.8	1.49e+00	0	23	104	0	73	24726
2026-01-12 00:56:48.91	216.44	53.07	-54.1	-70.4	3.8	1.49e+00	0	23	104	0	73	24705
2026-01-12 00:56:49.92	216.34	52.71	-54.1	-70.3	3.8	1.49e+00	0	23	104	0	73	24670
2026-01-12 00:56:50.93	216.25	52.35	-54.1	-70.3	3.8	1.49e+00	0	23	104	0	73	24667
2026-01-12 00:56:51.93	216.16	52.00	-54.1	-70.4	3.8	1.49e+00	0	23	104	0	73	24709
2026-01-12 00:56:52.94	216.07	51.65	-54.1	-70.3	3.8	1.49e+00	0	23	104	0	73	24661
2026-01-12 00:56:53.94	215.99	51.30	-54.1	-70.3	3.8	1.49e+00	0	23	104	0	73	24669
2026-01-12 00:56:54.96	215.90	50.95	-54.1	-70.4	3.8	1.49e+00	0	23	104	0	73	24697
2026-01-12 00:56:55.97	215.82	50.61	-54.1	-70.4	3.8	1.49e+00	0	23	104	0	73	24694
2026-01-12 00:56:56.97	215.74	50.27	-54.1	-70.3	3.8	1.49e+00	0	23	104	0	73	24641
2026-01-12 00:56:57.98	215.67	49.93	-54.1	-70.3	3.8	1.49e+00	0	23	104	0	73	24626
2026-01-12 00:56:58.99	215.59	49.60	-54.1	-70.4	3.8	1.49e+00	0	23	104	0	73	24717
2026-01-12 00:56:59.99	215.52	49.27	-54.1	-70.3	3.8	1.49e+00	0	23	104	0	73	24686
2026-01-12 00:57:01.00	215.44	48.93	-54.1	-70.3	3.8	1.49e+00	0	23	104	0	73	24693
2026-01-12 00:57:02.01	215.37	48.60	-54.1	-70.3	3.8	1.49e+00	0	23	104	0	73	24625
2026-01-12 00:57:03.02	215.30	48.28	-54.1	-70.3	3.8	1.49e+00	0	23	104	0	73	24616
2026-01-12 00:57:04.03	215.23	47.95	-54.1	-70.3	3.8	1.49e+00	0	23	104	0	73	24679
2026-01-12 00:57:05.04	215.17	47.63	-54.1	-70.3	3.8	1.49e+00	0	23	104	0	73	24668
2026-01-12 00:57:06.05	215.10	47.31	-54.1	-70.3	3.8	1.49e+00	0	23	104	0	73	24678
2026-01-12 00:57:07.05	215.04	47.00	-54.1	-70.3	3.8	1.49e+00	0	23	104	0	73	24656
2026-01-12 00:57:08.06	214.98	46.68	-54.1	-70.3	3.8	1.49e+00	0	23	104	0	73	24635
2026-01-12 00:57:09.07	214.92	46.37	-54.1	-70.3	3.8	1.49e+00	0	23	104	0	73	24687
2026-01-12 00:57:10.09	214.86	46.05	-54.1	-70.3	3.8	1.49e+00	0	23	104	0	73	24595
2026-01-12 00:57:11.10	214.80	45.75	-54.1	-70.3	3.8	1.49e+00	0	23	104	0	73	24686
2026-01-12 00:57:12.11	214.74	45.44	-54.1	-70.3	3.8	1.49e+00	0	23	104	0	73	24646
2026-01-12 00:57:13.11	214.68	45.14	-54.1	-70.3	3.8	1.49e+00	0	23	104	0	73	24668
2026-01-12 00:57:14.12	214.63	44.84	-54.1	-70.3	3.8	1.49e+00	0	23	104	0	73	24690
2026-01-12 00:57:15.13	214.58	44.54	-54.1	-70.3	3.8	1.49e+00	0	23	104	0	73	24619
2026-01-12 00:57:16.14	214.52	44.24	-54.1	-70.3	3.8	1.49e+00	0	23	104	0	73	24678
2026-01-12 00:57:17.15	214.47	43.95	-54.1	-70.3	3.8	1.49e+00	0	23	104	0	73	24670
2026-01-12 00:57:18.16	214.42	43.66	-54.0	-70.3	3.8	1.49e+00	0	23	104	0	73	24668
2026-01-12 00:57:19.16	214.37	43.37	-54.1	-70.3	3.8	1.49e+00	0	23	104	0	73	24602
2026-01-12 00:57:20.17	214.32	43.08	-54.1	-70.3	3.8	1.49e+00	0	23	104	0	73	24665
2026-01-12 00:57:21.18	214.27	42.79	-54.1	-70.3	3.8	1.49e+00	0	23	104	0	73	24674
2026-01-12 00:57:22.18	214.23	42.51	-54.1	-70.4	3.8	1.49e+00	0	23	104	0	73	24721
2026-01-12 00:57:23.19	214.18	42.23	-54.1	-70.3	3.8	1.49e+00	0	23	104	0	73	24684
2026-01-12 00:57:24.20	214.14	41.95	-54.1	-70.3	3.8	1.49e+00	0	23	104	0	73	24651
2026-01-12 00:57:25.20	214.09	41.68	-54.1	-70.3	3.8	1.49e+00	0	23	104	0	73	24674
2026-01-12 00:57:26.21	214.05	41.40	-54.1	-70.3	3.8	1.49e+00	0	23	104	0	73	24626
2026-01-12 00:57:27.22	214.01	41.13	-54.1	-70.3	3.8	1.49e+00	0	23	104	0	73	24686
2026-01-12 00:57:28.23	213.96	40.85	-54.1	-70.3	3.8	1.49e+00	0	23	104	0	73	24625
2026-01-12 00:57:29.24	213.92	40.59	-54.1	-70.3	3.8	1.49e+00	0	23	104	0	73	24585
2026-01-12 00:57:30.25	213.88	40.32	-54.1	-70.3	3.8	1.49e+00	0	23	104	0	73	24576
2026-01-12 00:57:31.26	213.84	40.05	-54.1	-70.3	3.8	1.49e+00	0	23	104	0	73	24606
2026-01-12 00:57:32.27	213.80	39.79	-54.1	-70.3	3.8	1.49e+00	0	23	104	0	73	24645
2026-01-12 00:57:33.28	213.76	39.53	-54.1	-70.3	3.8	1.49e+00	0	23	104	0	73	24622
2026-01-12 00:57:34.29	213.73	39.27	-54.1	-70.3	3.8	1.49e+00	0	23	104	0	73	24681
2026-01-12 00:57:35.29	213.69	39.01	-54.1	-70.3	3.8	1.49e+00	0	23	104	0	73	24643
2026-01-12 00:57:36.30	213.65	38.76	-54.1	-70.3	3.8	1.49e+00	0	23	104	0	73	24613
2026-01-12 00:57:37.31	213.62	38.50	-54.1	-70.3	3.8	1.49e+00	0	23	104	0	73	24653
2026-01-12 00:57:38.32	213.58	38.25	-54.1	-70.3	3.8	1.49e+00	0	23	104	0	73	24676
2026-01-12 00:57:39.32	213.55	38.00	-54.1	-70.3	3.8	1.49e+00	0	23	104	0	73	24635
2026-01-12 00:57:40.33	213.51	37.75	-54.1	-70.3	3.8	1.49e+00	0	23	104	0	73	24627
2026-01-12 00:57:41.34	213.48	37.51	-54.1	-70.3	3.8	1.49e+00	0	23	104	0	73	24607
2026-01-12 00:57:42.35	213.45	37.26	-54.1	-70.3	3.8	1.49e+00	0	23	104	0	73	24630
2026-01-12 00:57:43.35	213.41	37.02	-54.1	-70.3	3.8	1.49e+00	0	23	104	0	73	24621
2026-01-12 00:57:44.37	213.38	36.78	-54.1	-70.3	3.8	1.49e+00	0	23	104	0	73	24667
2026-01-12 00:57:45.38	213.35	36.54	-54.1	-70.3	3.8	1.49e+00	0	23	104	0	73	24666
2026-01-12 00:57:46.38	213.32	36.30	-54.1	-70.3	3.8	1.49e+00	0	23	104	0	73	24615
2026-01-12 00:57:47.39	213.29	36.07	-54.1	-70.3	3.8	1.49e+00	0	23	104	0	73	24674
2026-01-12 00:57:48.40	213.26	35.83	-54.1	-70.3	3.8	1.49e+00	0	23	104	0	73	24619
2026-01-12 00:57:49.41	213.23	35.60	-54.1	-70.3	3.8	1.49e+00	0	23	104	0	73	24584
2026-01-12 00:57:50.42	213.20	35.37	-54.1	-70.3	3.8	1.49e+00	0	23	104	0	73	24645
2026-01-12 00:57:51.43	213.17	35.14	-54.1	-70.3	3.8	1.49e+00	0	23	104	0	73	24668
2026-01-12 00:57:52.44	213.14	34.91	-54.1	-70.3	3.8	1.49e+00	0	23	104	0	73	24658
2026-01-12 00:57:53.45	213.12	34.69	-54.1	-70.3	3.8	1.49e+00	0	23	104	0	73	24642
2026-01-12 00:57:54.46	213.09	34.46	-54.1	-70.3	3.8	1.49e+00	0	23	104	0	73	24683
2026-01-12 00:57:55.47	213.06	34.24	-54.1	-70.3	3.8	1.49e+00	0	23	104	0	73	24659
2026-01-12 00:57:56.48	213.04	34.02	-54.1	-70.4	3.8	1.49e+00	0	23	104	0	73	24725
2026-01-12 00:57:57.49	213.01	33.80	-54.1	-70.3	3.8	1.49e+00	0	23	104	0	73	24608
2026-01-12 00:57:58.49	212.99	33.58	-54.1	-70.3	3.8	1.49e+00	0	23	104	0	73	24651
2026-01-12 00:57:59.50	212.96	33.36	-54.1	-70.4	3.8	1.49e+00	0	23	104	0	73	24697
2026-01-12 00:58:00.51	212.94	33.15	-54.1	-70.3	3.8	1.49e+00	0	23	104	0	73	24684
2026-01-12 00:58:01.52	212.91	32.94	-54.1	-70.3	3.8	1.49e+00	0	23	104	0	73	24679
2026-01-12 00:58:02.53	212.89	32.72	-54.1	-70.3	3.8	1.49e+00	0	23	104	0	73	24661
2026-01-12 00:58:03.54	212.86	32.51	-54.1	-70.3	3.8	1.49e+00	0	23	104	0	73	24686
2026-01-12 00:58:04.55	212.84	32.30	-54.1	-70.3	3.8	1.49e+00	0	23	104	0	73	24662
2026-01-12 00:58:05.56	212.82	32.10	-54.1	-70.3	3.8	1.49e+00	0	23	104	0	73	24648
2026-01-12 00:58:06.57	212.79	31.89	-54.1	-70.3	3.8	1.49e+00	0	23	104	0	73	24667
2026-01-12 00:58:07.57	212.77	31.69	-54.1	-70.3	3.8	1.49e+00	0	23	104	0	73	24652
2026-01-12 00:58:08.58	212.75	31.48	-54.1	-70.3	3.8	1.49e+00	0	23	104	0	73	24630
2026-01-12 00:58:09.59	212.73	31.28	-54.1	-70.4	3.8	1.49e+00	0	23	104	0	73	24712
2026-01-12 00:58:10.60	212.71	31.08	-54.1	-70.3	3.8	1.49e+00	0	23	104	0	73	24665
2026-01-12 00:58:11.61	212.69	30.88	-54.1	-70.3	3.8	1.49e+00	0	23	104	0	73	24686
2026-01-12 00:58:12.62	212.66	30.68	-54.1	-70.3	3.8	1.49e+00	0	23	104	0	73	24580
2026-01-12 00:58:13.63	212.64	30.49	-54.1	-70.3	3.8	1.49e+00	0	23	104	0	73	24598
2026-01-12 00:58:14.64	212.62	30.29	-54.1	-70.3	3.8	1.49e+00	0	23	104	0	73	24603
2026-01-12 00:58:15.65	212.60	30.10	-54.1	-70.3	3.8	1.49e+00	0	23	104	0	73	24649
2026-01-12 00:58:16.66	212.58	29.90	-54.1	-70.3	3.8	1.49e+00	0	23	104	0	73	24618
2026-01-12 00:58:17.67	212.56	29.71	-54.1	-70.3	3.8	1.49e+00	0	23	104	0	73	24660
2026-01-12 00:58:18.68	212.55	29.52	-54.1	-70.3	3.8	1.49e+00	0	23	104	0	73	24584
2026-01-12 00:58:19.68	212.53	29.33	-54.1	-70.3	3.8	1.49e+00	0	23	104	0	73	24584
2026-01-12 00:58:20.69	212.51	29.15	-54.1	-70.3	3.8	1.49e+00	0	23	104	0	73	24632
2026-01-12 00:58:21.70	212.49	28.96	-54.1	-70.3	3.8	1.49e+00	0	23	104	0	73	24665
2026-01-12 00:58:22.71	212.47	28.77	-54.1	-70.3	3.8	1.49e+00	0	23	104	0	73	24597
2026-01-12 00:58:23.72	212.45	28.59	-54.1	-70.3	3.8	1.49e+00	0	23	104	0	73	24624
2026-01-12 00:58:24.72	212.44	28.41	-54.1	-70.3	3.8	1.49e+00	0	23	104	0	73	24609
2026-01-12 00:58:25.73	212.42	28.23	-54.1	-70.3	3.8	1.49e+00	0	23	104	0	73	24593
2026-01-12 00:58:26.74	212.40	28.05	-54.1	-70.3	3.8	1.49e+00	0	23	104	0	73	24555
2026-01-12 00:58:27.74	212.39	27.87	-54.1	-70.3	3.8	1.49e+00	0	23	104	0	73	24576
2026-01-12 00:58:28.76	212.37	27.69	-54.1	-70.3	3.8	1.49e+00	0	23	104	0	73	24567
2026-01-12 00:58:29.76	212.35	27.51	-54.1	-70.3	3.8	1.49e+00	0	23	104	0	73	24535
2026-01-12 00:58:30.77	212.34	27.34	-54.1	-70.3	3.8	1.49e+00	0	23	104	0	73	24487
2026-01-12 00:58:31.78	212.32	27.16	-54.1	-70.3	3.8	1.49e+00	0	23	104	0	73	24625
2026-01-12 00:58:32.79	212.30	26.99	-54.1	-70.3	3.8	1.49e+00	0	23	104	0	73	24553
2026-01-12 00:58:33.80	212.29	26.82	-54.1	-70.3	3.8	1.49e+00	0	23	104	0	73	24611
2026-01-12 00:58:34.81	212.27	26.65	-54.1	-70.3	3.8	1.49e+00	0	23	104	0	73	24647
2026-01-12 00:58:35.82	212.26	26.48	-54.1	-70.3	3.8	1.49e+00	0	23	104	0	73	24548
2026-01-12 00:58:36.83	212.24	26.31	-54.1	-70.3	3.8	1.49e+00	0	23	104	0	73	24554
2026-01-12 00:58:37.83	212.23	26.14	-54.1	-70.3	3.8	1.49e+00	0	23	104	0	73	24533
2026-01-12 00:58:38.84	212.21	25.97	-54.0	-70.3	3.8	1.49e+00	0	23	104	0	73	24505
2026-01-12 00:58:39.85	212.20	25.81	-54.0	-70.3	3.8	1.49e+00	0	23	104	0	73	24593
2026-01-12 00:58:40.86	212.19	25.64	-54.0	-70.3	3.8	1.49e+00	0	23	104	0	73	24589
2026-01-12 00:58:41.87	212.17	25.48	-54.0	-70.3	3.8	1.49e+00	0	23	104	0	73	24521
2026-01-12 00:58:42.88	212.16	25.31	-54.0	-70.3	3.8	1.49e+00	0	23	104	0	73	24571
2026-01-12 00:58:43.89	212.14	25.15	-54.1	-70.3	3.8	1.49e+00	0	23	104	0	73	24571
2026-01-12 00:58:44.90	212.13	24.99	-54.1	-70.3	3.8	1.49e+00	0	23	104	0	73	24599
2026-01-12 00:58:45.91	212.12	24.83	-54.1	-70.3	3.8	1.49e+00	0	23	104	0	73	24551
2026-01-12 00:58:46.92	212.10	24.67	-54.1	-70.3	3.8	1.49e+00	0	23	104	0	73	24541
2026-01-12 00:58:47.93	212.09	24.51	-54.1	-70.3	3.8	1.49e+00	0	23	104	0	73	24485
2026-01-12 00:58:48.94	212.08	24.36	-54.1	-70.3	3.8	1.49e+00	0	23	104	0	73	24568
2026-01-12 00:58:49.95	212.07	24.20	-54.1	-70.3	3.8	1.49e+00	0	23	104	0	73	24571
2026-01-12 00:58:50.95	212.05	24.05	-54.1	-70.3	3.8	1.49e+00	0	23	104	0	73	24663
2026-01-12 00:58:51.96	212.04	23.89	-54.1	-70.3	3.8	1.49e+00	0	23	104	0	73	24665
2026-01-12 00:58:52.97	212.03	23.74	-54.1	-70.3	3.8	1.49e+00	0	23	104	0	73	24680
2026-01-12 00:58:53.98	212.02	23.58	-54.1	-70.3	3.8	1.49e+00	0	23	104	0	73	24589
2026-01-12 00:58:54.99	212.00	23.43	-54.1	-70.3	3.8	1.49e+00	0	23	104	0	73	24616
2026-01-12 00:58:56.00	211.99	23.28	-54.1	-70.3	3.8	1.49e+00	0	23	104	0	73	24588
2026-01-12 00:58:57.01	211.98	23.13	-54.1	-70.3	3.8	1.49e+00	0	23	104	0	73	24587
2026-01-12 00:58:58.02	211.97	22.98	-54.1	-70.3	3.8	1.49e+00	0	23	104	0	73	24603
2026-01-12 00:58:59.03	211.96	22.83	-54.1	-70.3	3.8	1.49e+00	0	23	104	0	73	24565
2026-01-12 00:59:00.04	211.95	22.69	-54.1	-70.3	3.8	1.49e+00	0	23	104	0	73	24544
2026-01-12 00:59:01.05	211.94	22.54	-54.1	-70.3	3.8	1.49e+00	0	23	104	0	73	24556
2026-01-12 00:59:02.06	211.93	22.39	-54.1	-70.3	3.8	1.49e+00	0	23	104	0	73	24613
2026-01-12 00:59:03.07	211.91	22.25	-54.1	-70.3	3.8	1.49e+00	0	23	104	0	73	24583
2026-01-12 00:59:04.07	211.90	22.11	-54.1	-70.3	3.8	1.49e+00	0	23	104	0	73	24612
2026-01-12 00:59:05.07	211.89	21.96	-54.1	-70.3	3.8	1.49e+00	0	23	104	0	73	24591
2026-01-12 00:59:06.08	211.88	21.82	-54.1	-70.3	3.8	1.49e+00	0	23	104	0	73	24662
2026-01-12 00:59:07.09	211.87	21.68	-54.1	-70.3	3.8	1.49e+00	0	23	104	0	73	24562
2026-01-12 00:59:08.10	211.86	21.54	-54.1	-70.3	3.8	1.49e+00	0	23	104	0	73	24548
2026-01-12 00:59:09.11	211.85	21.40	-54.1	-70.3	3.8	1.49e+00	0	23	104	0	73	24620
2026-01-12 00:59:10.12	211.84	21.26	-54.1	-70.3	3.8	1.49e+00	0	23	104	0	73	24633
2026-01-12 00:59:11.13	211.83	21.12	-54.1	-70.3	3.8	1.49e+00	0	23	104	0	73	24649
2026-01-12 00:59:12.13	211.82	20.98	-54.1	-70.3	3.8	1.49e+00	0	23	104	0	73	24560
2026-01-12 00:59:13.14	211.81	20.85	-54.1	-70.3	3.8	1.49e+00	0	23	104	0	73	24592
2026-01-12 00:59:14.15	211.81	20.71	-54.1	-70.3	3.8	1.49e+00	0	23	104	0	73	24588
2026-01-12 00:59:15.15	211.80	20.58	-54.1	-70.3	3.8	1.49e+00	0	23	104	0	73	24577
2026-01-12 00:59:16.16	211.79	20.44	-54.1	-70.3	3.8	1.49e+00	0	23	104	0	73	24617
2026-01-12 00:59:17.17	211.78	20.31	-54.1	-70.3	3.8	1.49e+00	0	23	104	0	73	24586
2026-01-12 00:59:18.18	211.77	20.17	-54.1	-70.3	3.8	1.49e+00	0	23	104	0	73	24562
2026-01-12 00:59:19.19	211.76	20.04	-54.1	-70.3	3.8	1.49e+00	0	23	104	0	73	24537
2026-01-12 00:59:20.20	211.75	19.91	-54.1	-70.3	3.8	1.49e+00	0	23	104	0	73	24561
2026-01-12 00:59:21.21	211.74	19.78	-54.1	-70.3	3.8	1.49e+00	0	23	104	0	73	24604
2026-01-12 00:59:22.22	211.73	19.65	-54.1	-70.3	3.8	1.49e+00	0	23	104	0	73	24590
2026-01-12 00:59:23.22	211.73	19.52	-54.1	-70.3	3.8	1.49e+00	0	23	104	0	73	24554
2026-01-12 00:59:24.23	211.72	19.39	-54.1	-70.3	3.8	1.49e+00	0	23	104	0	73	24629
2026-01-12 00:59:25.24	211.71	19.26	-54.1	-70.3	3.8	1.49e+00	0	23	104	0	73	24510
2026-01-12 00:59:26.25	211.70	19.13	-54.1	-70.3	3.8	1.49e+00	0	23	104	0	73	24611
2026-01-12 00:59:27.26	211.69	19.00	-54.1	-70.3	3.8	1.49e+00	0	23	104	0	73	24537
2026-01-12 00:59:28.27	211.68	18.88	-54.1	-70.3	3.8	1.49e+00	0	23	104	0	73	24595
2026-01-12 00:59:29.28	211.68	18.75	-54.1	-70.3	3.8	1.49e+00	0	23	104	0	73	24535
2026-01-12 00:59:30.29	211.67	18.62	-54.1	-70.3	3.8	1.49e+00	0	23	104	0	73	24603
2026-01-12 00:59:31.30	211.66	18.50	-54.1	-70.3	3.8	1.49e+00	0	23	104	0	73	24586
2026-01-12 00:59:32.31	211.65	18.38	-54.1	-70.3	3.8	1.49e+00	0	23	104	0	73	24584
2026-01-12 00:59:33.31	211.65	18.25	-54.1	-70.3	3.8	1.49e+00	0	23	104	0	73	24627
2026-01-12 00:59:34.32	211.64	18.13	-54.1	-70.3	3.8	1.49e+00	0	23	104	0	73	24608
2026-01-12 00:59:35.33	211.63	18.01	-54.1	-70.3	3.8	1.49e+00	0	23	104	0	73	24608
2026-01-12 00:59:36.34	211.62	17.89	-54.1	-70.3	3.8	1.49e+00	0	23	104	0	73	24590
2026-01-12 00:59:37.35	211.62	17.76	-54.1	-70.3	3.8	1.49e+00	0	23	104	0	73	24599
2026-01-12 00:59:38.35	211.61	17.64	-54.1	-70.3	3.8	1.49e+00	0	23	104	0	73	24567
2026-01-12 00:59:39.36	211.60	17.52	-54.1	-70.3	3.8	1.49e+00	0	23	104	0	73	24548
2026-01-12 00:59:40.37	211.60	17.41	-54.1	-70.3	3.8	1.49e+00	0	23	104	0	73	24600
2026-01-12 00:59:41.38	211.59	17.29	-54.1	-70.3	3.8	1.49e+00	0	23	104	0	73	24637
2026-01-12 00:59:42.39	211.58	17.17	-54.1	-70.3	3.8	1.49e+00	0	23	104	0	73	24583
2026-01-12 00:59:43.40	211.58	17.05	-54.1	-70.3	3.8	1.49e+00	0	23	104	0	73	24637
2026-01-12 00:59:44.40	211.57	16.93	-54.1	-70.3	3.8	1.49e+00	0	23	104	0	73	24633
2026-01-12 00:59:45.41	211.56	16.82	-54.1	-70.3	3.8	1.49e+00	0	23	104	0	73	24622
2026-01-12 00:59:46.42	211.56	16.70	-54.1	-70.3	3.8	1.49e+00	0	23	104	0	73	24563
2026-01-12 00:59:47.43	211.55	16.59	-54.1	-70.3	3.8	1.49e+00	0	23	104	0	73	24636
2026-01-12 00:59:48.43	211.54	16.47	-54.1	-70.3	3.8	1.49e+00	0	23	104	0	73	24566
2026-01-12 00:59:49.44	211.54	16.36	-54.1	-70.3	3.8	1.49e+00	0	23	104	0	73	24560
2026-01-12 00:59:50.46	211.53	16.24	-54.1	-70.3	3.8	1.49e+00	0	23	104	0	73	24559
2026-01-12 00:59:51.47	211.53	16.13	-54.1	-70.3	3.8	1.49e+00	0	23	104	0	73	24610
2026-01-12 00:59:52.48	211.52	16.02	-54.1	-70.3	3.8	1.49e+00	0	23	104	0	73	24677
2026-01-12 00:59:53.48	211.51	15.91	-54.1	-70.3	3.8	1.49e+00	0	23	104	0	73	24652
2026-01-12 00:59:54.49	211.51	15.79	-54.1	-70.3	3.8	1.49e+00	0	23	104	0	73	24572
2026-01-12 00:59:55.51	211.50	15.68	-54.1	-70.3	3.8	1.49e+00	0	23	104	0	73	24502
2026-01-12 00:59:56.52	211.50	15.57	-54.1	-70.3	3.8	1.49e+00	0	23	104	0	73	24586
2026-01-12 00:59:57.52	211.49	15.46	-54.1	-70.3	3.8	1.49e+00	0	23	104	0	73	24545
2026-01-12 00:59:58.53	211.49	15.35	-54.1	-70.3	3.8	1.49e+00	0	23	104	0	73	24569
2026-01-12 00:59:59.54	211.48	15.24	-54.1	-70.3	3.8	1.49e+00	0	23	104	0	73	24573
2026-01-12 01:00:00.55	211.48	15.13	-54.1	-70.3	3.8	1.49e+00	0	23	104	0	73	24590
2026-01-12 01:00:01.56	211.47	15.03	-54.1	-70.3	3.8	1.49e+00	0	23	104	0	73	24574
2026-01-12 01:00:02.57	211.46	14.92	-54.1	-70.3	3.8	1.49e+00	0	23	104	0	73	24637
2026-01-12 01:00:03.58	211.46	14.81	-54.1	-70.3	3.8	1.49e+00	0	23	104	0	73	24589
2026-01-12 01:00:04.58	211.45	14.70	-54.1	-70.3	3.8	1.49e+00	0	23	104	0	73	24549
2026-01-12 01:00:05.59	211.45	14.60	-54.1	-70.3	3.8	1.49e+00	0	23	104	0	73	24637
2026-01-12 01:00:06.60	211.44	14.49	-54.1	-70.3	3.8	1.49e+00	0	23	104	0	73	24562
2026-01-12 01:00:07.60	211.44	14.39	-54.1	-70.3	3.8	1.49e+00	0	23	104	0	73	24597
2026-01-12 01:00:08.61	211.43	14.28	-54.1	-70.3	3.8	1.49e+00	0	23	104	0	73	24633
2026-01-12 01:00:09.62	211.43	14.18	-54.1	-70.3	3.8	1.49e+00	0	23	104	0	73	24536
2026-01-12 01:00:10.63	211.42	14.07	-54.1	-70.3	3.8	1.49e+00	0	23	104	0	73	24572
2026-01-12 01:00:11.64	211.42	13.97	-54.1	-70.3	3.8	1.49e+00	0	23	104	0	73	24595
2026-01-12 01:00:12.65	211.41	13.87	-54.1	-70.3	3.8	1.49e+00	0	23	104	0	73	24527
2026-01-12 01:00:13.66	211.41	13.76	-54.1	-70.3	3.8	1.49e+00	0	23	104	0	73	24596
2026-01-12 01:00:14.67	211.41	13.66	-54.1	-70.3	3.8	1.49e+00	0	23	104	0	73	24624
2026-01-12 01:00:15.68	211.40	13.56	-54.1	-70.3	3.8	1.49e+00	0	23	104	0	73	24563
2026-01-12 01:00:16.69	211.40	13.46	-54.1	-70.3	3.8	1.49e+00	0	23	104	0	73	24554
2026-01-12 01:00:17.70	211.39	13.36	-54.1	-70.3	3.8	1.49e+00	0	23	104	0	73	24440
2026-01-12 01:00:18.71	211.39	13.26	-54.1	-70.3	3.8	1.49e+00	0	23	104	0	73	24518
2026-01-12 01:00:19.72	211.38	13.16	-54.1	-70.3	3.8	1.49e+00	0	23	104	0	73	24477
2026-01-12 01:00:20.73	211.38	13.06	-54.1	-70.3	3.8	1.49e+00	0	23	104	0	73	24562
2026-01-12 01:00:21.74	211.38	12.96	-54.1	-70.3	3.8	1.49e+00	0	23	104	0	73	24602
2026-01-12 01:00:22.75	211.37	12.86	-54.1	-70.3	3.8	1.49e+00	0	23	104	0	73	24615
2026-01-12 01:00:23.76	211.37	12.76	-54.1	-70.3	3.8	1.49e+00	0	23	104	0	73	24605
2026-01-12 01:00:24.77	211.36	12.66	-54.1	-70.3	3.8	1.49e+00	0	23	104	0	73	24613
2026-01-12 01:00:25.78	211.36	12.56	-54.1	-70.3	3.8	1.49e+00	0	23	104	0	73	24625
2026-01-12 01:00:26.79	211.35	12.47	-54.1	-70.3	3.8	1.49e+00	0	23	104	0	73	24557
2026-01-12 01:00:27.79	211.35	12.37	-54.1	-70.3	3.8	1.49e+00	0	23	104	0	73	24556
2026-01-12 01:00:28.80	211.35	12.27	-54.1	-70.3	3.8	1.49e+00	0	23	104	0	73	24584
2026-01-12 01:00:29.81	211.34	12.18	-54.1	-70.3	3.8	1.49e+00	0	23	104	0	73	24573
2026-01-12 01:00:30.82	211.34	12.08	-54.1	-70.3	3.8	1.49e+00	0	23	104	0	73	24576
2026-01-12 01:00:31.83	211.34	11.98	-54.1	-70.3	3.8	1.49e+00	0	23	104	0	73	24575
2026-01-12 01:00:32.84	211.33	11.89	-54.1	-70.3	3.8	1.49e+00	0	23	104	0	73	24619
2026-01-12 01:00:33.85	211.33	11.79	-54.1	-70.3	3.8	1.49e+00	0	23	104	0	73	24558
2026-01-12 01:00:34.86	211.32	11.70	-54.1	-70.3	3.8	1.49e+00	0	23	104	0	73	24576
2026-01-12 01:00:35.87	211.32	11.61	-54.1	-70.3	3.8	1.49e+00	0	23	104	0	73	24524
2026-01-12 01:00:36.88	211.32	11.51	-54.1	-70.3	3.8	1.49e+00	0	23	104	0	73	24638
2026-01-12 01:00:37.88	211.31	11.42	-54.1	-70.3	3.8	1.49e+00	0	23	104	0	73	24567
2026-01-12 01:00:38.89	211.31	11.33	-54.1	-70.3	3.8	1.49e+00	0	23	104	0	73	24602
2026-01-12 01:00:39.90	211.31	11.23	-54.1	-70.3	3.8	1.49e+00	0	23	104	0	73	24544
2026-01-12 01:00:40.91	211.30	11.14	-54.1	-70.3	3.8	1.49e+00	0	23	104	0	73	24568
