passes_logs/2026/01/12/R3.2S_Murmansk/R3.2S_Murmansk__20260112_072558_NOAA_20_JPSS-1_rec.log

#Pass ID: 20260112_072558_NOAA 20 (JPSS-1)
#Satellite: NOAA 20 (JPSS-1)
#Configuration: NOAA 20
#almurnet v.1.7.20251203
#Start time: 2026-01-12 07:25:58

#Version: 2.2.20231116
#Station: R3.2S_Murmansk
#Location: 33.079688 lon 68.888172 lat
#TLE: 1 43013U 17073A   26011.59429536  .00000082  00000+0  59704-4 0  9990
#TLE: 2 43013  98.7632 312.5697 0001637  44.2118 315.9188 14.19535307422256

#Time	Az	El	Level	Level2	SNR	BER	BlckErr	Temp	State	Recorded	gain1	gain2
2026-01-12 07:25:58.86	103.98	2.02	-57.1	-73.0	3.8	1.49e+00	0	21	0	0	80	22390
2026-01-12 07:25:59.86	103.93	2.08	-57.0	-72.9	3.8	1.49e+00	0	21	104	0	79	23554
2026-01-12 07:26:00.86	103.89	2.14	-57.0	-72.9	3.8	1.49e+00	0	21	104	0	79	23461
2026-01-12 07:26:01.86	103.84	2.20	-57.0	-72.9	3.8	1.49e+00	0	21	104	0	79	23554
2026-01-12 07:26:02.86	103.80	2.26	-57.0	-73.0	3.8	1.49e+00	0	21	104	0	79	23653
2026-01-12 07:26:03.86	103.76	2.32	-57.0	-73.0	3.8	1.49e+00	0	21	104	0	79	23711
2026-01-12 07:26:04.86	103.71	2.39	-57.0	-73.0	3.8	1.49e+00	0	21	104	0	79	23738
2026-01-12 07:26:05.86	103.66	2.45	-57.0	-73.0	3.8	1.49e+00	0	21	104	0	79	23765
2026-01-12 07:26:06.86	103.62	2.51	-57.0	-73.0	3.8	1.49e+00	0	21	104	0	79	23724
2026-01-12 07:26:07.87	103.57	2.57	-57.0	-73.0	3.8	1.49e+00	0	21	104	0	79	23717
2026-01-12 07:26:08.87	103.53	2.63	-57.0	-73.0	3.8	1.49e+00	0	21	104	0	79	23749
2026-01-12 07:26:09.87	103.48	2.69	-57.0	-73.0	3.8	1.49e+00	0	21	104	0	79	23727
2026-01-12 07:26:10.88	103.43	2.76	-57.0	-73.0	3.8	1.49e+00	0	21	104	0	79	23732
2026-01-12 07:26:11.88	103.39	2.82	-57.0	-73.0	3.8	1.49e+00	0	21	104	0	79	23646
2026-01-12 07:26:12.88	103.34	2.88	-57.0	-73.0	3.8	1.49e+00	0	21	104	0	79	23709
2026-01-12 07:26:13.88	103.29	2.94	-57.0	-73.0	3.8	1.49e+00	0	21	104	0	79	23619
2026-01-12 07:26:14.88	103.25	3.01	-57.0	-73.0	3.8	1.49e+00	0	21	104	0	79	23654
2026-01-12 07:26:15.88	103.20	3.07	-57.0	-72.9	3.8	1.49e+00	0	21	104	0	79	23576
2026-01-12 07:26:16.88	103.15	3.13	-57.0	-72.9	3.8	1.49e+00	0	21	104	0	79	23561
2026-01-12 07:26:17.88	103.10	3.20	-57.0	-73.0	3.8	1.49e+00	0	21	104	0	79	23670
2026-01-12 07:26:18.88	103.06	3.26	-57.0	-73.0	3.8	1.49e+00	0	21	104	0	79	23676
2026-01-12 07:26:19.88	103.01	3.32	-57.0	-73.0	3.8	1.49e+00	0	21	104	0	79	23735
2026-01-12 07:26:20.88	102.96	3.39	-57.1	-73.0	3.8	1.49e+00	0	21	104	0	79	23724
2026-01-12 07:26:21.89	102.91	3.45	-56.9	-72.9	3.8	1.49e+00	0	21	104	0	79	23380
2026-01-12 07:26:22.89	102.86	3.51	-57.0	-72.8	3.8	1.49e+00	0	21	104	0	79	23171
2026-01-12 07:26:23.89	102.81	3.58	-56.9	-72.7	3.8	1.49e+00	0	21	104	0	79	23005
2026-01-12 07:26:24.89	102.76	3.64	-56.9	-72.7	3.8	1.49e+00	0	21	104	0	79	22855
2026-01-12 07:26:25.90	102.71	3.71	-56.9	-72.6	3.8	1.49e+00	0	21	104	0	79	22714
2026-01-12 07:26:26.90	102.66	3.77	-56.9	-72.6	3.8	1.49e+00	0	21	104	0	79	22743
2026-01-12 07:26:27.91	102.61	3.83	-56.9	-72.7	3.8	1.49e+00	0	22	104	0	79	22824
2026-01-12 07:26:28.91	102.56	3.90	-56.9	-72.8	3.8	1.49e+00	0	22	104	0	79	23255
2026-01-12 07:26:29.91	102.51	3.96	-56.9	-72.9	3.8	1.49e+00	0	21	104	0	79	23440
2026-01-12 07:26:30.92	102.46	4.03	-56.9	-72.9	3.8	1.49e+00	0	21	104	0	79	23496
2026-01-12 07:26:31.92	102.41	4.09	-56.9	-72.8	3.8	1.49e+00	0	22	104	0	79	23241
2026-01-12 07:26:32.92	102.36	4.16	-56.9	-72.5	3.8	1.49e+00	0	21	104	0	79	22365
2026-01-12 07:26:33.92	102.31	4.22	-56.9	-71.9	3.8	1.49e+00	0	22	104	0	79	20895
2026-01-12 07:26:34.92	102.25	4.29	-56.9	-71.2	3.8	1.49e+00	0	21	104	0	79	19361
2026-01-12 07:26:35.92	102.20	4.35	-56.8	-70.3	3.9	1.48e+00	0	22	104	0	79	17458
2026-01-12 07:26:36.91	102.15	4.42	-56.8	-69.3	4.2	1.44e+00	0	22	0	0	79	15524
2026-01-12 07:26:37.92	102.10	4.48	-56.7	-68.5	4.5	1.17e+00	13	22	0	1048576	79	14165
2026-01-12 07:26:38.92	102.04	4.55	-56.7	-67.9	4.7	8.75e-01	0	22	0	2097152	79	13174
2026-01-12 07:26:39.91	101.99	4.62	-56.6	-67.0	5.2	6.66e-01	0	22	0	4194304	79	11880
2026-01-12 07:26:40.91	101.94	4.68	-56.5	-66.3	5.6	5.24e-01	0	22	0	6291456	79	11009
2026-01-12 07:26:41.90	101.89	4.75	-56.6	-65.9	5.9	3.19e-01	0	22	0	8388608	79	10417
2026-01-12 07:26:42.90	101.83	4.81	-56.5	-65.2	6.4	2.47e-01	0	22	0	9437184	79	9610
2026-01-12 07:26:43.90	101.78	4.88	-56.5	-64.9	6.6	1.90e-01	0	22	0	11534336	79	9318
2026-01-12 07:26:44.90	101.72	4.95	-56.4	-64.5	7.0	1.37e-01	0	22	0	13631488	79	8951
2026-01-12 07:26:45.91	101.67	5.01	-56.4	-64.4	7.1	1.26e-01	0	22	0	15728640	79	8793
2026-01-12 07:26:46.91	101.61	5.08	-56.4	-64.6	6.9	1.24e-01	0	22	0	17825792	79	9010
2026-01-12 07:26:47.91	101.56	5.15	-56.8	-66.4	5.7	3.04e-01	0	22	0	18874368	79	11100
2026-01-12 07:26:48.90	101.50	5.21	-56.7	-66.3	5.7	1.35e-01	0	22	0	20971520	79	11028
2026-01-12 07:26:49.89	101.45	5.28	-54.9	-59.1	11.8	5.62e-02	0	22	0	23068672	76	5696
2026-01-12 07:26:50.89	101.39	5.35	-57.0	-69.5	4.3	1.77e-02	87	22	0	25165824	79	15801
2026-01-12 07:26:51.89	101.34	5.41	-55.2	-59.6	11.5	4.93e-02	0	22	0	25165824	77	5671
2026-01-12 07:26:52.89	101.28	5.48	-54.9	-58.9	12.0	3.58e-05	0	22	0	27262976	76	5568
2026-01-12 07:26:53.89	101.22	5.55	-54.7	-58.7	12.1	1.83e-05	0	22	0	29360128	76	5444
2026-01-12 07:26:54.90	101.17	5.62	-54.7	-58.7	12.0	2.28e-05	0	22	0	30408704	75	5776
2026-01-12 07:26:55.89	101.11	5.69	-54.4	-58.1	12.5	6.80e-06	0	22	0	32505856	75	5363
2026-01-12 07:26:56.89	101.05	5.75	-54.5	-58.4	12.2	2.20e-06	0	22	0	34603008	75	5588
2026-01-12 07:26:57.89	100.99	5.82	-54.5	-58.5	12.2	2.20e-06	0	22	0	36700160	75	5597
2026-01-12 07:26:58.89	100.94	5.89	-54.3	-58.1	12.5	5.30e-06	0	22	0	38797312	75	5362
2026-01-12 07:26:59.90	100.88	5.96	-54.2	-57.8	12.8	3.00e-06	0	22	0	39845888	75	5182
2026-01-12 07:27:00.88	100.82	6.03	-54.0	-57.4	12.9	7.00e-07	0	22	0	41943040	74	5272
2026-01-12 07:27:01.88	100.76	6.10	-53.7	-56.8	13.4	7.00e-07	0	22	0	44040192	74	4903
2026-01-12 07:27:02.88	100.70	6.17	-53.6	-56.8	13.3	0.00e+00	0	22	0	46137344	73	5160
2026-01-12 07:27:03.89	100.64	6.24	-53.5	-56.6	13.4	0.00e+00	0	22	0	48234496	73	5076
2026-01-12 07:27:04.88	100.58	6.31	-53.4	-56.3	13.6	0.00e+00	0	22	0	49283072	73	4910
2026-01-12 07:27:05.88	100.52	6.38	-53.4	-56.4	13.6	0.00e+00	0	22	0	51380224	73	4959
2026-01-12 07:27:06.88	100.46	6.45	-53.3	-56.2	13.7	0.00e+00	0	22	0	53477376	73	4864
2026-01-12 07:27:07.89	100.40	6.52	-53.3	-56.2	13.7	0.00e+00	0	22	0	55574528	73	4820
2026-01-12 07:27:08.89	100.34	6.59	-53.2	-56.0	13.9	0.00e+00	0	22	0	57671680	73	4719
2026-01-12 07:27:09.89	100.28	6.66	-53.1	-55.8	13.8	0.00e+00	0	22	0	58720256	72	4924
2026-01-12 07:27:10.89	100.21	6.73	-53.2	-56.0	13.7	0.00e+00	0	22	0	60817408	72	5020
2026-01-12 07:27:11.90	100.15	6.80	-53.2	-56.1	13.7	0.00e+00	0	22	0	62914560	72	5054
2026-01-12 07:27:12.89	100.09	6.87	-53.2	-56.0	13.8	0.00e+00	0	22	0	65011712	72	4985
2026-01-12 07:27:13.89	100.03	6.94	-53.3	-56.1	13.6	0.00e+00	0	22	0	66060288	72	5098
2026-01-12 07:27:14.89	99.96	7.01	-53.2	-56.0	13.7	0.00e+00	0	22	0	68157440	72	4986
2026-01-12 07:27:15.89	99.90	7.08	-53.1	-55.8	13.9	0.00e+00	0	22	0	70254592	72	4907
2026-01-12 07:27:16.88	99.84	7.15	-53.1	-55.8	13.9	0.00e+00	0	22	0	72351744	72	4888
2026-01-12 07:27:17.89	99.77	7.22	-52.9	-55.5	14.1	0.00e+00	0	22	0	74448896	72	4720
2026-01-12 07:27:18.89	99.71	7.30	-53.0	-55.6	14.0	0.00e+00	0	22	0	75497472	72	4803
2026-01-12 07:27:19.89	99.64	7.37	-53.0	-55.7	14.0	0.00e+00	0	22	0	77594624	72	4816
2026-01-12 07:27:20.88	99.58	7.44	-53.0	-55.7	14.0	0.00e+00	0	22	0	79691776	72	4834
2026-01-12 07:27:21.89	99.51	7.51	-53.0	-55.7	13.9	0.00e+00	0	22	0	81788928	72	4864
2026-01-12 07:27:22.89	99.45	7.58	-53.0	-55.8	13.9	0.00e+00	0	22	0	83886080	72	4880
2026-01-12 07:27:23.88	99.38	7.66	-53.0	-55.6	14.0	0.00e+00	0	22	0	84934656	72	4812
2026-01-12 07:27:24.88	99.32	7.73	-53.1	-55.8	13.9	0.00e+00	0	22	0	87031808	72	4898
2026-01-12 07:27:25.89	99.25	7.80	-53.0	-55.7	14.0	0.00e+00	0	22	0	89128960	72	4844
2026-01-12 07:27:26.89	99.18	7.88	-53.1	-55.8	13.9	0.00e+00	0	22	0	91226112	72	4878
2026-01-12 07:27:27.89	99.12	7.95	-53.1	-55.8	13.9	0.00e+00	0	22	0	92274688	72	4903
2026-01-12 07:27:28.89	99.05	8.02	-53.1	-55.9	13.8	0.00e+00	0	22	0	94371840	72	4944
2026-01-12 07:27:29.90	98.98	8.10	-53.0	-55.7	14.0	0.00e+00	0	22	0	96468992	72	4845
2026-01-12 07:27:30.90	98.91	8.17	-53.1	-55.8	13.9	0.00e+00	0	22	0	98566144	72	4884
2026-01-12 07:27:31.91	98.84	8.25	-53.1	-55.7	13.9	0.00e+00	0	22	0	100663296	72	4864
2026-01-12 07:27:32.91	98.77	8.32	-53.0	-55.7	13.9	0.00e+00	0	22	0	102760448	72	4864
2026-01-12 07:27:33.92	98.70	8.39	-52.9	-55.6	14.1	0.00e+00	0	22	0	103809024	72	4764
2026-01-12 07:27:34.92	98.63	8.47	-53.1	-55.8	13.9	0.00e+00	0	22	0	105906176	72	4890
2026-01-12 07:27:35.92	98.56	8.54	-53.0	-55.6	14.0	0.00e+00	0	22	0	108003328	72	4810
2026-01-12 07:27:36.92	98.49	8.62	-53.0	-55.7	14.0	0.00e+00	0	22	0	110100480	72	4825
2026-01-12 07:27:37.92	98.42	8.69	-53.0	-55.7	14.0	0.00e+00	0	22	0	111149056	72	4817
2026-01-12 07:27:38.92	98.35	8.77	-53.0	-55.6	14.1	0.00e+00	0	22	0	113246208	72	4773
2026-01-12 07:27:39.93	98.27	8.84	-53.0	-55.6	14.1	0.00e+00	0	22	0	115343360	72	4775
2026-01-12 07:27:40.93	98.20	8.92	-53.0	-55.6	14.1	0.00e+00	0	22	0	117440512	72	4771
2026-01-12 07:27:41.93	98.13	9.00	-52.9	-55.5	14.1	0.00e+00	0	22	0	119537664	72	4756
2026-01-12 07:27:42.94	98.06	9.07	-53.0	-55.6	14.1	0.00e+00	0	22	0	120586240	72	4780
2026-01-12 07:27:43.94	97.98	9.15	-53.0	-55.6	14.1	0.00e+00	0	22	0	122683392	72	4770
2026-01-12 07:27:44.94	97.91	9.23	-52.9	-55.5	14.1	0.00e+00	0	22	0	124780544	72	4729
2026-01-12 07:27:45.94	97.83	9.30	-52.9	-55.5	14.1	0.00e+00	0	22	0	126877696	72	4724
2026-01-12 07:27:46.94	97.76	9.38	-53.0	-55.6	14.1	0.00e+00	0	22	0	128974848	72	4766
2026-01-12 07:27:47.95	97.68	9.46	-52.9	-55.5	14.1	0.00e+00	0	22	0	130023424	72	4737
2026-01-12 07:27:48.95	97.61	9.53	-53.0	-55.6	14.1	0.00e+00	0	22	0	132120576	72	4779
2026-01-12 07:27:49.95	97.53	9.61	-52.9	-55.5	14.2	0.00e+00	0	22	0	134217728	72	4714
2026-01-12 07:27:50.95	97.46	9.69	-52.9	-55.4	14.2	0.00e+00	0	22	0	136314880	72	4672
2026-01-12 07:27:51.95	97.38	9.77	-52.9	-55.4	14.2	0.00e+00	0	22	0	137363456	72	4688
2026-01-12 07:27:52.95	97.30	9.84	-53.0	-55.6	14.1	0.00e+00	0	22	0	139460608	72	4782
2026-01-12 07:27:53.95	97.22	9.92	-52.8	-55.3	14.2	0.00e+00	0	22	0	141557760	72	4648
2026-01-12 07:27:54.95	97.15	10.00	-52.9	-55.4	14.3	0.00e+00	0	23	0	143654912	72	4658
2026-01-12 07:27:55.95	97.07	10.08	-52.8	-55.2	14.4	0.00e+00	0	22	0	145752064	72	4587
2026-01-12 07:27:56.95	96.99	10.16	-52.8	-55.3	14.3	0.00e+00	0	22	0	147849216	72	4618
2026-01-12 07:27:57.96	96.91	10.24	-52.7	-55.2	14.4	0.00e+00	0	22	0	148897792	72	4553
2026-01-12 07:27:58.96	96.83	10.32	-52.7	-55.2	14.4	0.00e+00	0	22	0	150994944	72	4547
2026-01-12 07:27:59.96	96.75	10.39	-52.8	-55.2	14.4	0.00e+00	0	22	0	153092096	72	4575
2026-01-12 07:28:00.96	96.67	10.47	-52.8	-55.2	14.3	0.00e+00	0	22	0	155189248	72	4588
2026-01-12 07:28:01.96	96.59	10.55	-52.6	-55.0	14.3	0.00e+00	0	22	0	156237824	71	4746
2026-01-12 07:28:02.97	96.50	10.63	-52.5	-54.9	14.4	0.00e+00	0	22	0	158334976	71	4675
2026-01-12 07:28:03.97	96.42	10.71	-52.6	-55.0	14.4	0.00e+00	0	22	0	160432128	71	4717
2026-01-12 07:28:04.98	96.34	10.79	-52.5	-54.9	14.4	0.00e+00	0	22	0	162529280	71	4670
2026-01-12 07:28:05.98	96.26	10.88	-52.5	-54.9	14.4	0.00e+00	0	22	0	164626432	71	4691
2026-01-12 07:28:06.98	96.17	10.96	-52.5	-54.8	14.5	0.00e+00	0	22	0	165675008	71	4635
2026-01-12 07:28:07.98	96.09	11.04	-52.4	-54.8	14.5	0.00e+00	0	22	0	167772160	71	4599
2026-01-12 07:28:08.99	96.00	11.12	-52.4	-54.7	14.6	0.00e+00	0	22	0	169869312	71	4556
2026-01-12 07:28:09.99	95.92	11.20	-52.4	-54.8	14.5	0.00e+00	0	22	0	171966464	71	4600
2026-01-12 07:28:11.00	95.83	11.28	-52.4	-54.6	14.6	0.00e+00	0	22	0	174063616	71	4539
2026-01-12 07:28:12.01	95.75	11.36	-52.3	-54.5	14.7	0.00e+00	0	22	0	175112192	71	4466
2026-01-12 07:28:13.01	95.66	11.45	-52.3	-54.5	14.7	0.00e+00	0	22	0	177209344	71	4489
2026-01-12 07:28:14.01	95.57	11.53	-52.2	-54.5	14.7	0.00e+00	0	22	0	179306496	71	4449
2026-01-12 07:28:15.02	95.48	11.61	-52.2	-54.5	14.7	0.00e+00	0	22	0	181403648	71	4443
2026-01-12 07:28:16.01	95.40	11.69	-52.1	-54.3	14.6	0.00e+00	0	22	0	183500800	70	4629
2026-01-12 07:28:17.02	95.31	11.78	-52.2	-54.4	14.6	0.00e+00	0	22	0	184549376	70	4681
2026-01-12 07:28:18.02	95.22	11.86	-52.1	-54.3	14.6	0.00e+00	0	22	0	186646528	70	4646
2026-01-12 07:28:19.02	95.13	11.94	-52.2	-54.4	14.6	0.00e+00	0	22	0	188743680	70	4672
2026-01-12 07:28:20.02	95.04	12.03	-52.2	-54.5	14.6	0.00e+00	0	22	0	190840832	70	4710
2026-01-12 07:28:21.02	94.95	12.11	-52.1	-54.3	14.7	0.00e+00	0	23	0	192937984	70	4614
2026-01-12 07:28:22.02	94.86	12.19	-52.1	-54.3	14.7	0.00e+00	0	22	0	193986560	70	4636
2026-01-12 07:28:23.03	94.76	12.28	-52.2	-54.4	14.6	0.00e+00	0	23	0	196083712	70	4685
2026-01-12 07:28:24.03	94.67	12.36	-52.1	-54.2	14.7	0.00e+00	0	22	0	198180864	70	4572
2026-01-12 07:28:25.03	94.58	12.45	-52.0	-54.2	14.7	0.00e+00	0	23	0	200278016	70	4555
2026-01-12 07:28:26.04	94.49	12.53	-52.1	-54.2	14.7	0.00e+00	0	22	0	201326592	70	4590
2026-01-12 07:28:27.04	94.39	12.62	-52.2	-54.4	14.7	0.00e+00	0	23	0	203423744	70	4660
2026-01-12 07:28:28.05	94.30	12.70	-52.1	-54.2	14.7	0.00e+00	0	22	0	205520896	70	4592
2026-01-12 07:28:29.05	94.20	12.79	-52.1	-54.3	14.6	0.00e+00	0	22	0	207618048	70	4643
2026-01-12 07:28:30.06	94.10	12.87	-52.1	-54.3	14.6	0.00e+00	0	22	0	209715200	70	4638
2026-01-12 07:28:31.06	94.01	12.96	-52.1	-54.3	14.6	0.00e+00	0	22	0	210763776	70	4637
2026-01-12 07:28:32.07	93.91	13.05	-52.1	-54.3	14.6	0.00e+00	0	22	0	212860928	70	4637
2026-01-12 07:28:33.07	93.81	13.13	-52.1	-54.3	14.7	0.00e+00	0	22	0	214958080	70	4599
2026-01-12 07:28:34.07	93.72	13.22	-52.2	-54.3	14.6	0.00e+00	0	23	0	217055232	70	4639
2026-01-12 07:28:35.06	93.62	13.30	-52.1	-54.2	14.7	0.00e+00	0	22	0	219152384	70	4588
2026-01-12 07:28:36.07	93.52	13.39	-52.1	-54.2	14.7	0.00e+00	0	23	0	220200960	70	4577
2026-01-12 07:28:37.06	93.42	13.48	-52.0	-54.2	14.8	0.00e+00	0	22	0	222298112	70	4548
2026-01-12 07:28:38.07	93.32	13.57	-52.1	-54.2	14.7	0.00e+00	0	22	0	224395264	70	4579
2026-01-12 07:28:39.06	93.22	13.65	-52.1	-54.2	14.7	0.00e+00	0	23	0	226492416	70	4595
2026-01-12 07:28:40.07	93.12	13.74	-52.0	-54.1	14.8	0.00e+00	0	22	0	228589568	70	4526
2026-01-12 07:28:41.07	93.01	13.83	-51.9	-54.0	14.9	0.00e+00	0	22	0	229638144	70	4444
2026-01-12 07:28:42.07	92.91	13.92	-52.0	-54.1	14.8	0.00e+00	0	22	0	231735296	70	4503
2026-01-12 07:28:43.08	92.81	14.01	-52.0	-54.1	14.8	0.00e+00	0	22	0	233832448	70	4499
2026-01-12 07:28:44.09	92.70	14.10	-51.9	-54.0	14.9	0.00e+00	0	22	0	235929600	70	4466
2026-01-12 07:28:45.08	92.60	14.18	-51.9	-53.9	14.9	0.00e+00	0	22	0	238026752	70	4429
2026-01-12 07:28:46.09	92.49	14.27	-51.9	-53.9	14.9	0.00e+00	0	22	0	239075328	70	4431
2026-01-12 07:28:47.09	92.39	14.36	-51.8	-53.9	15.0	0.00e+00	0	22	0	241172480	70	4404
2026-01-12 07:28:48.10	92.28	14.45	-51.8	-53.8	15.0	0.00e+00	0	22	0	243269632	70	4389
2026-01-12 07:28:49.10	92.17	14.54	-51.9	-53.9	15.0	0.00e+00	0	22	0	245366784	70	4416
2026-01-12 07:28:50.10	92.06	14.63	-51.9	-54.0	14.9	0.00e+00	0	23	0	246415360	70	4457
2026-01-12 07:28:51.10	91.95	14.72	-51.9	-54.0	14.9	0.00e+00	0	22	0	248512512	70	4475
2026-01-12 07:28:52.10	91.85	14.81	-51.8	-53.9	15.0	0.00e+00	0	22	0	250609664	70	4407
2026-01-12 07:28:53.11	91.73	14.91	-52.0	-54.0	14.9	0.00e+00	0	23	0	252706816	70	4487
2026-01-12 07:28:54.11	91.62	15.00	-51.9	-54.0	14.9	0.00e+00	0	23	0	254803968	70	4463
2026-01-12 07:28:55.11	91.51	15.09	-51.9	-54.0	14.9	0.00e+00	0	22	0	256901120	70	4443
2026-01-12 07:28:56.12	91.40	15.18	-52.0	-54.1	14.8	0.00e+00	0	23	0	257949696	70	4506
2026-01-12 07:28:57.12	91.29	15.27	-52.0	-54.0	14.9	0.00e+00	0	23	0	260046848	70	4473
2026-01-12 07:28:58.12	91.17	15.36	-52.1	-54.2	14.8	0.00e+00	0	23	0	262144000	70	4547
2026-01-12 07:28:59.12	91.06	15.46	-52.1	-54.2	14.8	0.00e+00	0	23	0	264241152	70	4570
2026-01-12 07:29:00.12	90.94	15.55	-52.0	-54.1	14.8	0.00e+00	0	22	0	265289728	70	4525
2026-01-12 07:29:01.12	90.83	15.64	-52.0	-54.1	14.8	0.00e+00	0	22	0	267386880	70	4538
2026-01-12 07:29:02.12	90.71	15.73	-52.1	-54.3	14.7	0.00e+00	0	22	0	269484032	70	4601
2026-01-12 07:29:03.12	90.59	15.83	-52.1	-54.2	14.8	0.00e+00	0	23	0	271581184	70	4595
2026-01-12 07:29:04.13	90.48	15.92	-52.2	-54.3	14.7	0.00e+00	0	23	0	273678336	70	4649
2026-01-12 07:29:05.13	90.36	16.01	-52.2	-54.4	14.6	0.00e+00	0	23	0	274726912	70	4663
2026-01-12 07:29:06.13	90.24	16.11	-52.3	-54.5	14.6	0.00e+00	0	23	0	276824064	70	4712
2026-01-12 07:29:07.14	90.12	16.20	-52.2	-54.4	14.7	0.00e+00	0	22	0	278921216	70	4656
2026-01-12 07:29:08.14	90.00	16.30	-52.2	-54.3	14.7	0.00e+00	0	23	0	281018368	70	4626
2026-01-12 07:29:09.14	89.87	16.39	-52.2	-54.3	14.7	0.00e+00	0	23	0	283115520	70	4622
2026-01-12 07:29:10.14	89.75	16.48	-52.1	-54.2	14.8	0.00e+00	0	23	0	284164096	70	4593
2026-01-12 07:29:11.14	89.63	16.58	-52.2	-54.3	14.7	0.00e+00	0	22	0	286261248	70	4650
2026-01-12 07:29:12.15	89.50	16.68	-52.1	-54.2	14.8	0.00e+00	0	23	0	288358400	70	4569
2026-01-12 07:29:13.15	89.38	16.77	-52.1	-54.2	14.8	0.00e+00	0	22	0	290455552	70	4551
2026-01-12 07:29:14.16	89.25	16.87	-52.1	-54.2	14.8	0.00e+00	0	22	0	292552704	70	4576
2026-01-12 07:29:15.16	89.12	16.96	-52.2	-54.4	14.7	0.00e+00	0	22	0	293601280	70	4659
2026-01-12 07:29:16.16	89.00	17.06	-52.2	-54.3	14.7	0.00e+00	0	23	0	295698432	70	4648
2026-01-12 07:29:17.17	88.87	17.16	-52.3	-54.4	14.6	0.00e+00	0	22	0	297795584	70	4694
2026-01-12 07:29:18.18	88.74	17.25	-52.2	-54.4	14.7	0.00e+00	0	23	0	299892736	70	4665
2026-01-12 07:29:19.18	88.61	17.35	-52.1	-54.2	14.8	0.00e+00	0	23	0	301989888	70	4586
2026-01-12 07:29:20.18	88.48	17.45	-52.1	-54.2	14.8	0.00e+00	0	23	0	303038464	70	4597
2026-01-12 07:29:21.18	88.34	17.54	-52.2	-54.3	14.7	0.00e+00	0	22	0	305135616	70	4634
2026-01-12 07:29:22.18	88.21	17.64	-52.3	-54.5	14.6	0.00e+00	0	22	0	307232768	70	4725
2026-01-12 07:29:23.19	88.08	17.74	-52.4	-54.6	14.5	0.00e+00	0	23	0	309329920	70	4805
2026-01-12 07:29:24.19	87.94	17.84	-52.4	-54.6	14.5	0.00e+00	0	22	0	310378496	70	4801
2026-01-12 07:29:25.20	87.81	17.94	-52.6	-54.8	14.4	0.00e+00	0	23	0	312475648	70	4909
2026-01-12 07:29:26.20	87.67	18.03	-52.5	-54.8	14.4	0.00e+00	0	22	0	314572800	70	4873
2026-01-12 07:29:27.19	87.54	18.13	-52.4	-54.5	14.6	0.00e+00	0	22	0	316669952	70	4759
2026-01-12 07:29:28.20	87.40	18.23	-52.4	-54.6	14.5	0.00e+00	0	23	0	318767104	70	4762
2026-01-12 07:29:29.20	87.26	18.33	-52.3	-54.4	14.6	0.00e+00	0	22	0	319815680	70	4700
2026-01-12 07:29:30.20	87.12	18.43	-52.3	-54.4	14.6	0.00e+00	0	23	0	321912832	70	4691
2026-01-12 07:29:31.20	86.98	18.53	-52.4	-54.5	14.6	0.00e+00	0	23	0	324009984	70	4751
2026-01-12 07:29:32.20	86.84	18.63	-52.3	-54.4	14.7	0.00e+00	0	23	0	326107136	70	4668
2026-01-12 07:29:33.21	86.69	18.73	-52.3	-54.4	14.7	0.00e+00	0	22	0	328204288	70	4679
2026-01-12 07:29:34.21	86.55	18.83	-52.2	-54.3	14.7	0.00e+00	0	22	0	329252864	70	4624
2026-01-12 07:29:35.22	86.40	18.93	-52.1	-54.1	14.8	0.00e+00	0	23	0	331350016	70	4541
2026-01-12 07:29:36.22	86.26	19.03	-52.1	-54.2	14.8	0.00e+00	0	23	0	333447168	70	4548
2026-01-12 07:29:37.22	86.11	19.13	-52.1	-54.2	14.8	0.00e+00	0	23	0	335544320	70	4549
2026-01-12 07:29:38.22	85.96	19.23	-52.1	-54.2	14.8	0.00e+00	0	23	0	337641472	70	4579
2026-01-12 07:29:39.23	85.81	19.33	-52.2	-54.3	14.8	0.00e+00	0	23	0	338690048	70	4606
2026-01-12 07:29:40.23	85.66	19.43	-52.1	-54.2	14.8	0.00e+00	0	23	0	340787200	70	4556
2026-01-12 07:29:41.23	85.51	19.54	-52.1	-54.1	14.9	0.00e+00	0	23	0	342884352	70	4521
2026-01-12 07:29:42.23	85.36	19.64	-52.1	-54.1	14.8	0.00e+00	0	22	0	344981504	70	4531
2026-01-12 07:29:43.23	85.21	19.74	-52.1	-54.1	14.8	0.00e+00	0	23	0	347078656	70	4544
2026-01-12 07:29:44.23	85.06	19.84	-52.2	-54.2	14.8	0.00e+00	0	22	0	348127232	70	4578
2026-01-12 07:29:45.23	84.90	19.94	-52.0	-54.0	14.9	0.00e+00	0	23	0	350224384	70	4493
2026-01-12 07:29:46.24	84.74	20.05	-52.1	-54.1	14.9	0.00e+00	0	23	0	352321536	70	4516
2026-01-12 07:29:47.24	84.59	20.15	-52.1	-54.2	14.8	0.00e+00	0	23	0	354418688	70	4567
2026-01-12 07:29:48.25	84.43	20.25	-52.0	-54.0	14.9	0.00e+00	0	23	0	355467264	70	4470
2026-01-12 07:29:49.26	84.27	20.36	-52.0	-54.0	14.9	0.00e+00	0	23	0	357564416	70	4465
2026-01-12 07:29:50.26	84.11	20.46	-52.1	-54.1	14.9	0.00e+00	0	22	0	359661568	70	4502
2026-01-12 07:29:51.26	83.95	20.56	-52.1	-54.1	14.9	0.00e+00	0	22	0	361758720	70	4509
2026-01-12 07:29:52.27	83.78	20.67	-52.0	-54.0	14.9	0.00e+00	0	23	0	363855872	70	4464
2026-01-12 07:29:53.27	83.62	20.77	-51.9	-53.9	15.0	0.00e+00	0	23	0	364904448	70	4410
2026-01-12 07:29:54.27	83.46	20.88	-51.9	-53.9	15.0	0.00e+00	0	23	0	367001600	70	4415
2026-01-12 07:29:55.27	83.29	20.98	-51.9	-53.9	15.0	0.00e+00	0	23	0	369098752	70	4413
2026-01-12 07:29:56.27	83.12	21.08	-51.9	-53.8	15.0	0.00e+00	0	22	0	371195904	70	4363
2026-01-12 07:29:57.27	82.96	21.19	-51.8	-53.7	15.1	0.00e+00	0	23	0	373293056	70	4296
2026-01-12 07:29:58.27	82.79	21.29	-51.7	-53.6	15.2	0.00e+00	0	22	0	374341632	70	4277
2026-01-12 07:29:59.27	82.62	21.40	-51.7	-53.5	15.2	0.00e+00	0	23	0	376438784	70	4241
2026-01-12 07:30:00.27	82.45	21.50	-51.7	-53.6	15.2	0.00e+00	0	23	0	378535936	70	4249
2026-01-12 07:30:01.28	82.27	21.61	-51.7	-53.6	15.2	0.00e+00	0	23	0	380633088	70	4258
2026-01-12 07:30:02.29	82.10	21.72	-51.7	-53.6	15.2	0.00e+00	0	23	0	382730240	70	4285
2026-01-12 07:30:03.29	81.92	21.82	-51.8	-53.7	15.1	0.00e+00	0	23	0	383778816	70	4310
2026-01-12 07:30:04.28	81.75	21.93	-51.8	-53.7	15.1	0.00e+00	0	23	0	385875968	70	4332
2026-01-12 07:30:05.28	81.57	22.03	-51.8	-53.7	15.1	0.00e+00	0	23	0	387973120	70	4339
2026-01-12 07:30:06.29	81.39	22.14	-51.9	-53.8	15.1	0.00e+00	0	23	0	390070272	70	4377
2026-01-12 07:30:07.28	81.21	22.24	-51.9	-53.8	15.0	0.00e+00	0	23	0	392167424	70	4384
2026-01-12 07:30:08.29	81.03	22.35	-52.0	-53.9	15.0	0.00e+00	0	23	0	393216000	70	4434
2026-01-12 07:30:09.29	80.85	22.46	-51.9	-53.9	15.0	0.00e+00	0	23	0	395313152	70	4412
2026-01-12 07:30:10.29	80.66	22.56	-52.0	-54.0	15.0	0.00e+00	0	23	0	397410304	70	4469
2026-01-12 07:30:11.29	80.48	22.67	-52.2	-54.3	14.8	0.00e+00	0	23	0	399507456	70	4602
2026-01-12 07:30:12.29	80.29	22.77	-52.2	-54.2	14.8	0.00e+00	0	23	0	400556032	70	4584
2026-01-12 07:30:13.30	80.10	22.88	-52.2	-54.2	14.8	0.00e+00	0	23	0	402653184	70	4584
2026-01-12 07:30:14.30	79.92	22.99	-52.2	-54.3	14.8	0.00e+00	0	23	0	404750336	70	4625
2026-01-12 07:30:15.30	79.73	23.10	-52.4	-54.5	14.7	0.00e+00	0	23	0	406847488	70	4716
2026-01-12 07:30:16.30	79.53	23.20	-52.4	-54.4	14.7	0.00e+00	0	23	0	408944640	70	4705
2026-01-12 07:30:17.31	79.34	23.31	-52.4	-54.6	14.6	0.00e+00	0	23	0	409993216	70	4769
2026-01-12 07:30:18.32	79.14	23.42	-52.3	-54.4	14.7	0.00e+00	0	23	0	412090368	70	4700
2026-01-12 07:30:19.32	78.95	23.53	-52.4	-54.5	14.6	0.00e+00	0	23	0	414187520	70	4747
2026-01-12 07:30:20.32	78.75	23.63	-52.4	-54.5	14.6	0.00e+00	0	23	0	416284672	70	4758
2026-01-12 07:30:21.33	78.55	23.74	-52.5	-54.6	14.6	0.00e+00	0	23	0	418381824	70	4804
2026-01-12 07:30:22.33	78.35	23.85	-52.5	-54.7	14.6	0.00e+00	0	23	0	419430400	70	4829
2026-01-12 07:30:23.33	78.15	23.96	-52.4	-54.5	14.7	0.00e+00	0	23	0	421527552	70	4717
2026-01-12 07:30:24.34	77.95	24.07	-52.4	-54.5	14.6	0.00e+00	0	23	0	423624704	70	4737
2026-01-12 07:30:25.34	77.74	24.17	-52.4	-54.5	14.7	0.00e+00	0	23	0	425721856	70	4729
2026-01-12 07:30:26.34	77.54	24.28	-52.5	-54.6	14.6	0.00e+00	0	23	0	427819008	70	4805
2026-01-12 07:30:27.34	77.33	24.39	-52.5	-54.6	14.6	0.00e+00	0	23	0	428867584	70	4793
2026-01-12 07:30:28.33	77.13	24.50	-52.4	-54.5	14.6	0.00e+00	0	23	0	430964736	70	4756
2026-01-12 07:30:29.34	76.92	24.60	-52.4	-54.5	14.6	0.00e+00	0	23	0	433061888	70	4747
2026-01-12 07:30:30.34	76.70	24.71	-52.3	-54.4	14.7	0.00e+00	0	23	0	435159040	70	4680
2026-01-12 07:30:31.35	76.49	24.82	-52.3	-54.4	14.7	0.00e+00	0	23	0	437256192	70	4664
2026-01-12 07:30:32.35	76.28	24.93	-52.4	-54.5	14.7	0.00e+00	0	23	0	438304768	70	4719
2026-01-12 07:30:33.36	76.06	25.04	-52.2	-54.3	14.8	0.00e+00	0	23	0	440401920	70	4620
2026-01-12 07:30:34.36	75.84	25.15	-52.2	-54.2	14.8	0.00e+00	0	23	0	442499072	70	4570
2026-01-12 07:30:35.37	75.62	25.25	-52.2	-54.2	14.8	0.00e+00	0	22	0	444596224	70	4554
2026-01-12 07:30:36.37	75.40	25.36	-52.2	-54.2	14.8	0.00e+00	0	23	0	446693376	70	4593
2026-01-12 07:30:37.37	75.18	25.47	-52.2	-54.3	14.8	0.00e+00	0	23	0	447741952	70	4608
2026-01-12 07:30:38.37	74.96	25.58	-52.2	-54.2	14.8	0.00e+00	0	23	0	449839104	70	4593
2026-01-12 07:30:39.38	74.73	25.69	-52.1	-54.1	14.9	0.00e+00	0	23	0	451936256	70	4497
2026-01-12 07:30:40.38	74.51	25.79	-52.2	-54.2	14.8	0.00e+00	0	22	0	454033408	70	4569
2026-01-12 07:30:41.38	74.28	25.90	-51.9	-53.9	15.0	0.00e+00	0	23	0	455081984	70	4399
2026-01-12 07:30:42.38	74.05	26.01	-51.9	-53.8	15.1	0.00e+00	0	23	0	457179136	70	4380
2026-01-12 07:30:43.38	73.82	26.12	-51.9	-53.9	15.0	0.00e+00	0	22	0	459276288	70	4405
2026-01-12 07:30:44.38	73.59	26.22	-51.9	-53.8	15.1	0.00e+00	0	23	0	461373440	70	4373
2026-01-12 07:30:45.38	73.35	26.33	-51.9	-53.8	15.1	0.00e+00	0	23	0	463470592	70	4368
2026-01-12 07:30:46.38	73.12	26.44	-52.0	-54.0	15.0	0.00e+00	0	23	0	464519168	70	4468
2026-01-12 07:30:47.38	72.88	26.54	-52.0	-54.0	15.0	0.00e+00	0	23	0	466616320	70	4451
2026-01-12 07:30:48.38	72.64	26.65	-52.0	-54.0	15.0	0.00e+00	0	22	0	468713472	70	4455
2026-01-12 07:30:49.38	72.40	26.76	-52.0	-54.0	15.0	0.00e+00	0	23	0	470810624	70	4452
2026-01-12 07:30:50.39	72.16	26.87	-51.9	-53.8	15.1	0.00e+00	0	23	0	472907776	70	4385
2026-01-12 07:30:51.39	71.91	26.97	-51.9	-53.8	15.1	0.00e+00	0	22	0	473956352	70	4368
2026-01-12 07:30:52.39	71.67	27.08	-51.8	-53.7	15.1	0.00e+00	0	23	0	476053504	70	4323
2026-01-12 07:30:53.40	71.42	27.19	-51.9	-53.7	15.1	0.00e+00	0	22	0	478150656	70	4338
2026-01-12 07:30:54.40	71.17	27.29	-51.8	-53.6	15.2	0.00e+00	0	23	0	480247808	70	4284
2026-01-12 07:30:55.41	70.92	27.40	-51.9	-53.8	15.1	0.00e+00	0	22	0	482344960	70	4383
2026-01-12 07:30:56.41	70.67	27.50	-52.0	-53.9	15.0	0.00e+00	0	23	0	483393536	70	4408
2026-01-12 07:30:57.41	70.41	27.61	-52.0	-54.0	15.0	0.00e+00	0	23	0	485490688	70	4449
2026-01-12 07:30:58.42	70.16	27.71	-52.1	-54.0	14.9	0.00e+00	0	23	0	487587840	70	4476
2026-01-12 07:30:59.41	69.90	27.82	-52.0	-54.0	15.0	0.00e+00	0	23	0	489684992	70	4460
2026-01-12 07:31:00.41	69.64	27.92	-52.1	-54.0	15.0	0.00e+00	0	23	0	491782144	70	4475
2026-01-12 07:31:01.41	69.38	28.03	-52.1	-54.0	15.0	0.00e+00	0	23	0	492830720	70	4472
2026-01-12 07:31:02.41	69.12	28.13	-52.2	-54.2	14.8	0.00e+00	0	23	0	494927872	70	4564
2026-01-12 07:31:03.42	68.85	28.24	-52.2	-54.2	14.9	0.00e+00	0	22	0	497025024	70	4557
2026-01-12 07:31:04.41	68.59	28.34	-52.4	-54.4	14.7	0.00e+00	0	23	0	499122176	70	4683
2026-01-12 07:31:05.42	68.32	28.44	-52.6	-54.7	14.6	0.00e+00	0	23	0	501219328	70	4854
2026-01-12 07:31:06.42	68.05	28.54	-52.6	-54.8	14.5	0.00e+00	0	23	0	502267904	70	4884
2026-01-12 07:31:07.42	67.78	28.65	-52.8	-55.0	14.4	0.00e+00	0	23	0	504365056	70	5004
2026-01-12 07:31:08.43	67.51	28.75	-53.0	-55.3	14.3	0.00e+00	0	23	0	506462208	71	4918
2026-01-12 07:31:09.44	67.23	28.85	-53.2	-55.6	14.2	0.00e+00	0	23	0	508559360	71	5048
2026-01-12 07:31:10.44	66.96	28.95	-53.5	-55.9	14.1	0.00e+00	0	23	0	509607936	72	4983
2026-01-12 07:31:11.45	66.67	29.06	-53.7	-56.3	13.9	0.00e+00	0	23	0	511705088	72	5171
2026-01-12 07:31:12.45	66.40	29.16	-53.8	-56.5	13.7	0.00e+00	0	23	0	513802240	72	5307
2026-01-12 07:31:13.45	66.11	29.26	-53.8	-56.5	13.8	0.00e+00	0	23	0	515899392	72	5296
2026-01-12 07:31:14.45	65.83	29.36	-54.0	-56.8	13.7	0.00e+00	0	23	0	517996544	73	5193
2026-01-12 07:31:15.46	65.54	29.46	-54.0	-56.8	13.7	0.00e+00	0	23	0	519045120	73	5164
2026-01-12 07:31:16.46	65.26	29.56	-54.1	-56.9	13.6	0.00e+00	0	23	0	521142272	73	5248
2026-01-12 07:31:17.46	64.97	29.65	-54.1	-56.9	13.6	0.00e+00	0	23	0	523239424	73	5275
2026-01-12 07:31:18.47	64.68	29.75	-54.1	-56.9	13.6	0.00e+00	0	23	0	525336576	73	5231
2026-01-12 07:31:19.47	64.38	29.85	-54.1	-57.0	13.6	0.00e+00	0	23	0	527433728	73	5280
2026-01-12 07:31:20.48	64.09	29.95	-54.1	-56.8	13.6	0.00e+00	0	23	0	528482304	73	5215
2026-01-12 07:31:21.48	63.79	30.04	-54.1	-56.9	13.6	0.00e+00	0	23	0	530579456	73	5263
2026-01-12 07:31:22.48	63.50	30.14	-54.1	-56.9	13.6	0.00e+00	0	23	0	532676608	73	5275
2026-01-12 07:31:23.48	63.20	30.24	-54.5	-57.5	13.4	0.00e+00	0	23	0	534773760	74	5328
2026-01-12 07:31:24.49	62.89	30.33	-54.6	-57.7	13.2	0.00e+00	0	23	0	536870912	74	5438
2026-01-12 07:31:25.49	62.59	30.42	-54.8	-58.0	13.0	0.00e+00	0	23	0	537919488	74	5621
2026-01-12 07:31:26.50	62.28	30.52	-54.9	-58.3	12.8	0.00e+00	0	23	0	540016640	74	5789
2026-01-12 07:31:27.50	61.98	30.61	-55.1	-58.6	12.7	0.00e+00	0	23	0	542113792	75	5697
2026-01-12 07:31:28.51	61.67	30.70	-55.2	-58.8	12.5	7.00e-07	0	23	0	544210944	75	5820
2026-01-12 07:31:29.51	61.36	30.80	-55.2	-58.7	12.6	0.00e+00	0	23	0	546308096	75	5731
2026-01-12 07:31:30.51	61.05	30.89	-55.0	-58.5	12.8	7.00e-07	0	23	0	547356672	75	5603
2026-01-12 07:31:31.52	60.73	30.98	-54.8	-58.0	13.1	0.00e+00	0	23	0	549453824	75	5292
2026-01-12 07:31:32.52	60.41	31.07	-54.6	-57.6	13.4	0.00e+00	0	23	0	551550976	75	5062
2026-01-12 07:31:33.52	60.10	31.16	-54.4	-57.3	13.7	0.00e+00	0	23	0	553648128	75	4904
2026-01-12 07:31:34.52	59.78	31.24	-54.3	-57.1	13.8	0.00e+00	0	23	0	555745280	75	4794
2026-01-12 07:31:35.52	59.46	31.33	-54.2	-56.9	13.9	0.00e+00	0	23	0	556793856	75	4695
2026-01-12 07:31:36.53	59.13	31.42	-54.1	-56.8	13.9	0.00e+00	0	23	0	558891008	74	4897
2026-01-12 07:31:37.53	58.81	31.50	-54.2	-57.0	13.8	0.00e+00	0	23	0	560988160	74	4998
2026-01-12 07:31:38.53	58.49	31.59	-54.2	-57.0	13.7	0.00e+00	0	23	0	563085312	74	5038
2026-01-12 07:31:39.53	58.16	31.67	-54.2	-57.0	13.7	0.00e+00	0	23	0	564133888	74	5027
2026-01-12 07:31:40.53	57.83	31.76	-54.1	-56.8	13.9	0.00e+00	0	23	0	566231040	74	4885
2026-01-12 07:31:41.53	57.50	31.84	-54.1	-56.8	13.9	0.00e+00	0	23	0	568328192	74	4875
2026-01-12 07:31:42.53	57.17	31.92	-54.1	-56.9	13.8	0.00e+00	0	23	0	570425344	74	4941
2026-01-12 07:31:43.52	56.84	32.00	-54.2	-57.0	13.7	0.00e+00	0	23	0	572522496	74	5005
2026-01-12 07:31:44.52	56.50	32.08	-54.0	-56.7	13.9	0.00e+00	0	23	0	573571072	74	4857
2026-01-12 07:31:45.53	56.16	32.16	-53.9	-56.4	14.1	0.00e+00	0	23	0	575668224	74	4703
2026-01-12 07:31:46.53	55.82	32.24	-53.8	-56.4	14.2	0.00e+00	0	23	0	577765376	74	4653
2026-01-12 07:31:47.54	55.48	32.32	-53.8	-56.3	14.0	0.00e+00	0	23	0	579862528	73	4926
2026-01-12 07:31:48.54	55.14	32.39	-53.8	-56.4	14.0	0.00e+00	0	23	0	581959680	73	4954
2026-01-12 07:31:49.54	54.79	32.47	-53.8	-56.5	14.0	0.00e+00	0	23	0	583008256	73	4988
2026-01-12 07:31:50.54	54.45	32.54	-53.6	-56.1	14.2	0.00e+00	0	23	0	585105408	73	4785
2026-01-12 07:31:51.55	54.10	32.62	-53.3	-55.7	14.5	0.00e+00	0	23	0	587202560	73	4557
2026-01-12 07:31:52.55	53.75	32.69	-53.3	-55.6	14.6	0.00e+00	0	23	0	589299712	73	4506
2026-01-12 07:31:53.55	53.40	32.76	-53.2	-55.4	14.6	0.00e+00	0	23	0	591396864	73	4435
2026-01-12 07:31:54.55	53.05	32.83	-53.2	-55.5	14.6	0.00e+00	0	23	0	592445440	73	4445
2026-01-12 07:31:55.55	52.70	32.90	-53.2	-55.5	14.4	0.00e+00	0	22	0	594542592	72	4721
2026-01-12 07:31:56.55	52.34	32.97	-53.1	-55.4	14.5	0.00e+00	0	22	0	596639744	72	4665
2026-01-12 07:31:57.55	51.99	33.03	-53.1	-55.3	14.5	0.00e+00	0	23	0	598736896	72	4618
2026-01-12 07:31:58.55	51.63	33.10	-53.0	-55.2	14.6	0.00e+00	0	23	0	599785472	72	4596
2026-01-12 07:31:59.55	51.27	33.16	-53.0	-55.2	14.6	0.00e+00	0	23	0	601882624	72	4592
2026-01-12 07:32:00.55	50.91	33.23	-53.0	-55.1	14.7	0.00e+00	0	23	0	603979776	72	4545
2026-01-12 07:32:01.55	50.55	33.29	-52.9	-55.0	14.7	0.00e+00	0	22	0	606076928	72	4469
2026-01-12 07:32:02.56	50.18	33.35	-53.0	-55.2	14.6	0.00e+00	0	23	0	608174080	72	4553
2026-01-12 07:32:03.57	49.81	33.41	-52.6	-54.7	14.8	0.00e+00	0	23	0	609222656	71	4584
2026-01-12 07:32:04.57	49.45	33.47	-52.6	-54.6	14.8	0.00e+00	0	23	0	611319808	71	4540
2026-01-12 07:32:05.56	49.09	33.53	-52.6	-54.7	14.7	0.00e+00	0	23	0	613416960	71	4584
2026-01-12 07:32:06.57	48.71	33.58	-52.8	-54.9	14.6	0.00e+00	0	23	0	615514112	71	4680
2026-01-12 07:32:07.56	48.35	33.64	-52.9	-55.0	14.5	0.00e+00	0	23	0	617611264	71	4747
2026-01-12 07:32:08.57	47.97	33.69	-52.9	-55.1	14.5	0.00e+00	0	23	0	618659840	71	4810
2026-01-12 07:32:09.57	47.60	33.74	-52.9	-55.1	14.5	0.00e+00	0	23	0	620756992	71	4784
2026-01-12 07:32:10.58	47.23	33.79	-52.7	-54.9	14.6	0.00e+00	0	23	0	622854144	71	4657
2026-01-12 07:32:11.58	46.85	33.84	-52.6	-54.6	14.8	0.00e+00	0	23	0	624951296	71	4532
2026-01-12 07:32:12.59	46.47	33.89	-52.6	-54.6	14.8	0.00e+00	0	22	0	627048448	71	4530
2026-01-12 07:32:13.59	46.10	33.94	-52.3	-54.3	15.0	0.00e+00	0	23	0	628097024	71	4355
2026-01-12 07:32:14.59	45.72	33.99	-52.1	-54.0	15.0	0.00e+00	0	23	0	630194176	70	4488
2026-01-12 07:32:15.58	45.34	34.03	-51.8	-53.6	15.2	0.00e+00	0	23	0	632291328	70	4273
2026-01-12 07:32:16.58	44.96	34.07	-51.9	-53.8	15.2	0.00e+00	0	23	0	634388480	70	4351
2026-01-12 07:32:17.58	44.58	34.11	-51.7	-53.5	15.3	0.00e+00	0	23	0	636485632	70	4225
2026-01-12 07:32:18.58	44.20	34.15	-51.7	-53.5	15.3	0.00e+00	0	23	0	637534208	70	4209
2026-01-12 07:32:19.59	43.82	34.19	-51.5	-53.3	15.2	0.00e+00	0	23	0	639631360	69	4376
2026-01-12 07:32:20.59	43.43	34.23	-51.6	-53.3	15.2	0.00e+00	0	23	0	641728512	69	4383
2026-01-12 07:32:21.59	43.05	34.27	-51.8	-53.7	15.0	0.00e+00	0	23	0	643825664	69	4575
2026-01-12 07:32:22.60	42.66	34.30	-52.2	-54.2	14.8	0.00e+00	0	23	0	644874240	69	4816
2026-01-12 07:32:23.61	42.27	34.33	-52.0	-53.9	14.9	0.00e+00	0	23	0	646971392	69	4677
2026-01-12 07:32:24.61	41.88	34.37	-51.9	-53.8	15.0	0.00e+00	0	23	0	649068544	69	4616
2026-01-12 07:32:25.62	41.49	34.40	-51.8	-53.6	15.1	0.00e+00	0	23	0	651165696	69	4539
2026-01-12 07:32:26.62	41.10	34.43	-51.9	-53.8	15.0	0.00e+00	0	23	0	653262848	69	4618
2026-01-12 07:32:27.62	40.71	34.45	-52.1	-54.0	14.8	0.00e+00	0	23	0	654311424	69	4725
2026-01-12 07:32:28.63	40.32	34.48	-52.1	-54.1	14.8	0.00e+00	0	23	0	656408576	69	4763
2026-01-12 07:32:29.63	39.93	34.50	-52.0	-54.0	14.9	0.00e+00	0	23	0	658505728	69	4715
2026-01-12 07:32:30.64	39.54	34.53	-51.9	-53.8	14.9	0.00e+00	0	23	0	660602880	69	4645
2026-01-12 07:32:31.64	39.15	34.55	-52.0	-53.9	14.9	0.00e+00	0	23	0	662700032	69	4678
2026-01-12 07:32:32.65	38.75	34.57	-52.2	-54.1	14.8	0.00e+00	0	23	0	663748608	69	4804
2026-01-12 07:32:33.65	38.36	34.59	-52.4	-54.4	14.6	0.00e+00	0	23	0	665845760	69	4958
2026-01-12 07:32:34.65	37.97	34.60	-52.4	-54.4	14.7	0.00e+00	0	23	0	667942912	70	4703
2026-01-12 07:32:35.65	37.57	34.62	-52.4	-54.4	14.8	0.00e+00	0	23	0	670040064	70	4687
2026-01-12 07:32:36.65	37.18	34.63	-52.3	-54.3	14.8	0.00e+00	0	23	0	672137216	70	4617
2026-01-12 07:32:37.65	36.79	34.64	-52.2	-54.1	14.9	0.00e+00	0	23	0	673185792	70	4524
2026-01-12 07:32:38.66	36.39	34.65	-52.2	-54.1	14.9	0.00e+00	0	23	0	675282944	70	4511
2026-01-12 07:32:39.66	35.99	34.66	-52.2	-54.2	14.9	0.00e+00	0	23	0	677380096	70	4566
2026-01-12 07:32:40.66	35.60	34.67	-52.2	-54.1	14.9	0.00e+00	0	23	0	679477248	70	4529
2026-01-12 07:32:41.66	35.21	34.68	-52.2	-54.2	14.9	0.00e+00	0	23	0	681574400	70	4568
2026-01-12 07:32:42.66	34.81	34.68	-52.3	-54.3	14.9	0.00e+00	0	23	0	682622976	70	4625
2026-01-12 07:32:43.67	34.41	34.68	-52.3	-54.3	14.8	0.00e+00	0	23	0	684720128	70	4641
2026-01-12 07:32:44.67	34.02	34.68	-52.3	-54.3	14.9	0.00e+00	0	23	0	686817280	70	4641
2026-01-12 07:32:45.67	33.62	34.68	-52.2	-54.2	14.9	0.00e+00	0	23	0	688914432	70	4552
2026-01-12 07:32:46.67	33.23	34.68	-52.1	-54.0	15.0	0.00e+00	0	23	0	691011584	70	4443
2026-01-12 07:32:47.67	32.84	34.68	-52.1	-54.1	15.0	0.00e+00	0	23	0	692060160	70	4498
2026-01-12 07:32:48.67	32.44	34.67	-52.2	-54.1	14.9	0.00e+00	0	23	0	694157312	70	4521
2026-01-12 07:32:49.68	32.04	34.67	-52.3	-54.3	14.9	0.00e+00	0	23	0	696254464	70	4616
2026-01-12 07:32:50.67	31.65	34.66	-52.4	-54.4	14.8	0.00e+00	0	23	0	698351616	70	4701
2026-01-12 07:32:51.67	31.26	34.65	-52.6	-54.7	14.6	0.00e+00	0	23	0	699400192	70	4868
2026-01-12 07:32:52.67	30.87	34.64	-52.8	-55.0	14.4	0.00e+00	0	23	0	701497344	70	5024
2026-01-12 07:32:53.67	30.47	34.63	-53.0	-55.2	14.5	0.00e+00	0	23	0	703594496	71	4839
2026-01-12 07:32:54.67	30.08	34.61	-52.9	-55.1	14.5	0.00e+00	0	23	0	705691648	71	4786
2026-01-12 07:32:55.67	29.69	34.60	-52.9	-55.1	14.5	0.00e+00	0	23	0	707788800	71	4799
2026-01-12 07:32:56.67	29.30	34.58	-52.8	-55.0	14.6	0.00e+00	0	23	0	708837376	71	4724
2026-01-12 07:32:57.68	28.90	34.56	-53.0	-55.2	14.5	0.00e+00	0	23	0	710934528	71	4853
2026-01-12 07:32:58.68	28.51	34.54	-53.2	-55.5	14.3	0.00e+00	0	23	0	713031680	71	5005
2026-01-12 07:32:59.69	28.11	34.52	-53.3	-55.7	14.2	0.00e+00	0	23	0	715128832	71	5128
2026-01-12 07:33:00.69	27.72	34.49	-53.4	-55.7	14.3	0.00e+00	0	23	0	717225984	72	4859
2026-01-12 07:33:01.70	27.33	34.47	-53.3	-55.6	14.3	0.00e+00	0	23	0	718274560	72	4806
2026-01-12 07:33:02.70	26.94	34.44	-53.4	-55.7	14.3	0.00e+00	0	23	0	720371712	72	4868
2026-01-12 07:33:03.70	26.55	34.41	-53.4	-55.7	14.3	0.00e+00	0	23	0	722468864	72	4870
2026-01-12 07:33:04.71	26.16	34.38	-53.5	-55.9	14.1	0.00e+00	0	23	0	724566016	72	4982
2026-01-12 07:33:05.71	25.77	34.35	-53.6	-56.1	14.0	0.00e+00	0	23	0	726663168	72	5069
2026-01-12 07:33:06.72	25.38	34.32	-53.6	-56.1	14.1	0.00e+00	0	23	0	727711744	72	5043
2026-01-12 07:33:07.72	25.00	34.29	-53.5	-55.9	14.2	0.00e+00	0	23	0	729808896	72	4972
2026-01-12 07:33:08.72	24.61	34.25	-53.3	-55.6	14.3	0.00e+00	0	23	0	731906048	72	4805
2026-01-12 07:33:09.72	24.23	34.22	-53.4	-55.8	14.2	0.00e+00	0	23	0	734003200	72	4885
2026-01-12 07:33:10.72	23.85	34.18	-53.7	-56.2	14.0	0.00e+00	0	23	0	736100352	72	5119
2026-01-12 07:33:11.72	23.47	34.14	-53.8	-56.3	13.9	0.00e+00	0	23	0	737148928	72	5202
2026-01-12 07:33:12.72	23.09	34.10	-53.9	-56.5	13.9	0.00e+00	0	23	0	739246080	73	5037
2026-01-12 07:33:13.71	22.71	34.06	-53.9	-56.4	14.0	0.00e+00	0	23	0	741343232	73	4962
2026-01-12 07:33:14.72	22.33	34.01	-53.8	-56.4	14.0	0.00e+00	0	23	0	743440384	73	4933
2026-01-12 07:33:15.72	21.95	33.97	-53.6	-56.1	14.2	0.00e+00	0	23	0	744488960	73	4771
2026-01-12 07:33:16.73	21.57	33.92	-53.7	-56.1	14.2	0.00e+00	0	23	0	746586112	73	4808
2026-01-12 07:33:17.73	21.19	33.87	-53.7	-56.2	14.1	0.00e+00	0	23	0	748683264	73	4839
2026-01-12 07:33:18.73	20.82	33.82	-53.8	-56.4	14.0	0.00e+00	0	23	0	750780416	73	4957
2026-01-12 07:33:19.73	20.45	33.77	-53.6	-56.0	14.3	0.00e+00	0	23	0	752877568	73	4736
2026-01-12 07:33:20.74	20.07	33.72	-53.5	-55.9	14.3	0.00e+00	0	23	0	753926144	73	4669
2026-01-12 07:33:21.74	19.70	33.67	-53.4	-55.8	14.4	0.00e+00	0	23	0	756023296	73	4608
2026-01-12 07:33:22.75	19.32	33.61	-53.6	-55.9	14.3	0.00e+00	0	23	0	758120448	73	4701
2026-01-12 07:33:23.75	18.96	33.56	-53.6	-56.0	14.3	0.00e+00	0	22	0	760217600	73	4741
2026-01-12 07:33:24.76	18.59	33.50	-53.6	-55.9	14.3	0.00e+00	0	23	0	762314752	73	4705
2026-01-12 07:33:25.77	18.22	33.44	-53.5	-55.8	14.4	0.00e+00	0	23	0	763363328	73	4624
2026-01-12 07:33:26.78	17.85	33.38	-53.5	-55.8	14.4	0.00e+00	0	23	0	765460480	73	4642
2026-01-12 07:33:27.78	17.48	33.32	-53.3	-55.5	14.6	0.00e+00	0	23	0	767557632	73	4484
2026-01-12 07:33:28.78	17.12	33.26	-53.2	-55.4	14.7	0.00e+00	0	23	0	769654784	73	4403
2026-01-12 07:33:29.79	16.76	33.20	-53.1	-55.3	14.6	0.00e+00	0	23	0	771751936	72	4612
2026-01-12 07:33:30.79	16.40	33.14	-53.0	-55.2	14.6	0.00e+00	0	23	0	772800512	72	4563
2026-01-12 07:33:31.79	16.04	33.07	-53.1	-55.3	14.6	0.00e+00	0	23	0	774897664	72	4601
2026-01-12 07:33:32.79	15.69	33.00	-53.1	-55.3	14.6	0.00e+00	0	23	0	776994816	72	4632
2026-01-12 07:33:33.79	15.33	32.94	-52.9	-55.1	14.7	0.00e+00	0	23	0	779091968	72	4496
2026-01-12 07:33:34.79	14.98	32.87	-52.9	-55.0	14.8	0.00e+00	0	23	0	781189120	72	4464
2026-01-12 07:33:35.79	14.63	32.80	-52.9	-55.1	14.7	0.00e+00	0	23	0	782237696	72	4509
2026-01-12 07:33:36.79	14.28	32.73	-53.0	-55.2	14.6	0.00e+00	0	23	0	784334848	72	4579
2026-01-12 07:33:37.80	13.92	32.66	-53.3	-55.6	14.4	0.00e+00	0	23	0	786432000	72	4769
2026-01-12 07:33:38.80	13.58	32.59	-53.5	-55.9	14.2	0.00e+00	0	23	0	788529152	72	4938
2026-01-12 07:33:39.80	13.23	32.51	-53.7	-56.2	14.0	0.00e+00	0	23	0	790626304	72	5127
2026-01-12 07:33:40.80	12.89	32.44	-53.8	-56.4	13.8	0.00e+00	0	23	0	791674880	72	5276
2026-01-12 07:33:41.80	12.55	32.36	-53.9	-56.5	13.8	0.00e+00	0	23	0	793772032	72	5339
2026-01-12 07:33:42.81	12.20	32.29	-53.9	-56.4	14.0	0.00e+00	0	23	0	795869184	73	4982
2026-01-12 07:33:43.81	11.86	32.21	-53.9	-56.5	14.0	0.00e+00	0	23	0	797966336	73	4988
2026-01-12 07:33:44.82	11.52	32.13	-53.7	-56.2	14.1	0.00e+00	0	23	0	800063488	73	4860
2026-01-12 07:33:45.82	11.19	32.05	-53.8	-56.4	14.0	0.00e+00	0	23	0	801112064	73	4929
2026-01-12 07:33:46.82	10.85	31.97	-53.9	-56.4	14.0	0.00e+00	0	23	0	803209216	73	4966
2026-01-12 07:33:47.82	10.52	31.89	-54.0	-56.6	13.9	0.00e+00	0	23	0	805306368	73	5074
2026-01-12 07:33:48.82	10.19	31.81	-54.1	-56.7	13.8	0.00e+00	0	23	0	807403520	73	5158
2026-01-12 07:33:49.82	9.86	31.72	-54.1	-56.7	13.8	0.00e+00	0	23	0	808452096	73	5148
2026-01-12 07:33:50.82	9.53	31.64	-54.0	-56.6	13.9	0.00e+00	0	23	0	810549248	73	5056
2026-01-12 07:33:51.82	9.21	31.56	-54.0	-56.6	13.8	0.00e+00	0	23	0	812646400	73	5098
2026-01-12 07:33:52.83	8.88	31.47	-53.8	-56.4	14.0	0.00e+00	0	23	0	814743552	73	4927
2026-01-12 07:33:53.83	8.56	31.38	-53.9	-56.5	13.9	0.00e+00	0	23	0	816840704	73	5022
2026-01-12 07:33:54.84	8.23	31.30	-53.9	-56.5	13.9	0.00e+00	0	23	0	817889280	73	5026
2026-01-12 07:33:55.84	7.91	31.21	-53.9	-56.5	14.0	0.00e+00	0	23	0	819986432	73	5014
2026-01-12 07:33:56.84	7.60	31.12	-53.9	-56.5	13.9	0.00e+00	0	23	0	822083584	73	5021
2026-01-12 07:33:57.84	7.28	31.03	-54.1	-56.8	13.8	0.00e+00	0	23	0	824180736	73	5201
2026-01-12 07:33:58.84	6.97	30.94	-54.0	-56.7	13.8	0.00e+00	0	23	0	826277888	73	5144
2026-01-12 07:33:59.85	6.65	30.85	-54.0	-56.6	13.9	0.00e+00	0	23	0	827326464	73	5057
2026-01-12 07:34:00.84	6.35	30.76	-53.9	-56.4	14.0	0.00e+00	0	23	0	829423616	73	4980
2026-01-12 07:34:01.85	6.04	30.67	-53.7	-56.2	14.1	0.00e+00	0	23	0	831520768	73	4826
2026-01-12 07:34:02.85	5.73	30.58	-53.6	-56.0	14.2	0.00e+00	0	23	0	833617920	73	4736
2026-01-12 07:34:03.85	5.42	30.48	-53.6	-56.1	14.2	0.00e+00	0	23	0	835715072	73	4760
2026-01-12 07:34:04.85	5.12	30.39	-53.6	-56.0	14.3	0.00e+00	0	23	0	836763648	73	4710
2026-01-12 07:34:05.85	4.82	30.30	-53.7	-56.1	14.2	0.00e+00	0	23	0	838860800	73	4803
2026-01-12 07:34:06.85	4.52	30.20	-53.7	-56.2	14.2	0.00e+00	0	23	0	840957952	73	4825
2026-01-12 07:34:07.85	4.22	30.11	-53.8	-56.3	14.1	0.00e+00	0	23	0	843055104	73	4878
2026-01-12 07:34:08.85	3.93	30.01	-53.6	-56.0	14.2	0.00e+00	0	23	0	845152256	73	4735
2026-01-12 07:34:09.86	3.63	29.91	-53.6	-56.0	14.2	0.00e+00	0	23	0	846200832	73	4748
2026-01-12 07:34:10.86	3.34	29.82	-53.6	-56.0	14.3	0.00e+00	0	23	0	848297984	73	4737
2026-01-12 07:34:11.86	3.05	29.72	-53.5	-55.9	14.3	0.00e+00	0	23	0	850395136	73	4694
2026-01-12 07:34:12.86	2.76	29.62	-53.6	-56.0	14.3	0.00e+00	0	23	0	852492288	73	4713
2026-01-12 07:34:13.86	2.47	29.52	-53.5	-55.9	14.4	0.00e+00	0	23	0	853540864	73	4667
2026-01-12 07:34:14.87	2.18	29.42	-53.5	-55.9	14.3	0.00e+00	0	23	0	855638016	73	4665
2026-01-12 07:34:15.88	1.90	29.32	-53.6	-56.0	14.3	0.00e+00	0	23	0	857735168	73	4738
2026-01-12 07:34:16.88	1.62	29.22	-53.6	-56.0	14.3	0.00e+00	0	23	0	859832320	73	4722
2026-01-12 07:34:17.89	1.33	29.12	-53.5	-56.0	14.3	0.00e+00	0	23	0	861929472	73	4706
2026-01-12 07:34:18.89	1.06	29.02	-53.6	-56.0	14.3	0.00e+00	0	23	0	862978048	73	4754
2026-01-12 07:34:19.89	0.78	28.92	-53.4	-55.7	14.5	0.00e+00	0	23	0	865075200	73	4578
2026-01-12 07:34:20.89	0.51	28.82	-53.3	-55.6	14.6	0.00e+00	0	23	0	867172352	73	4513
2026-01-12 07:34:21.89	0.23	28.72	-53.3	-55.6	14.6	0.00e+00	0	23	0	869269504	73	4518
2026-01-12 07:34:22.90	359.96	28.62	-53.2	-55.5	14.6	0.00e+00	0	23	0	871366656	73	4456
2026-01-12 07:34:23.90	359.69	28.51	-53.2	-55.4	14.5	0.00e+00	0	23	0	872415232	72	4683
2026-01-12 07:34:24.91	359.42	28.41	-53.1	-55.4	14.5	0.00e+00	0	23	0	874512384	72	4668
2026-01-12 07:34:25.91	359.15	28.31	-52.9	-55.1	14.7	0.00e+00	0	23	0	876609536	72	4494
2026-01-12 07:34:26.91	358.89	28.20	-52.8	-54.9	14.8	0.00e+00	0	23	0	878706688	72	4417
2026-01-12 07:34:27.91	358.63	28.10	-52.8	-54.9	14.9	0.00e+00	0	23	0	880803840	72	4393
2026-01-12 07:34:28.91	358.37	28.00	-52.7	-54.8	14.9	0.00e+00	0	23	0	881852416	72	4375
2026-01-12 07:34:29.92	358.11	27.89	-52.7	-54.8	14.7	0.00e+00	0	23	0	883949568	71	4622
2026-01-12 07:34:30.92	357.85	27.79	-52.4	-54.4	14.9	0.00e+00	0	23	0	886046720	71	4432
2026-01-12 07:34:31.93	357.59	27.68	-52.3	-54.3	15.0	0.00e+00	0	23	0	888143872	71	4350
2026-01-12 07:34:32.93	357.34	27.58	-52.4	-54.5	14.9	0.00e+00	0	23	0	890241024	71	4443
2026-01-12 07:34:33.94	357.08	27.47	-52.2	-54.1	15.1	0.00e+00	0	23	0	891289600	71	4275
2026-01-12 07:34:34.94	356.83	27.36	-52.0	-53.9	15.0	0.00e+00	0	23	0	893386752	70	4440
2026-01-12 07:34:35.94	356.58	27.26	-52.2	-54.1	14.9	0.00e+00	0	23	0	895483904	70	4534
2026-01-12 07:34:36.94	356.34	27.15	-52.1	-54.0	15.0	0.00e+00	0	23	0	897581056	70	4457
2026-01-12 07:34:37.95	356.09	27.05	-51.8	-53.6	15.2	0.00e+00	0	23	0	898629632	70	4256
2026-01-12 07:34:38.95	355.84	26.94	-51.5	-53.3	15.2	0.00e+00	0	23	0	900726784	69	4344
2026-01-12 07:34:39.96	355.60	26.83	-51.5	-53.3	15.2	0.00e+00	0	23	0	902823936	69	4367
2026-01-12 07:34:40.96	355.36	26.73	-51.2	-52.9	15.4	0.00e+00	0	23	0	904921088	69	4159
2026-01-12 07:34:41.96	355.12	26.62	-51.0	-52.7	15.4	0.00e+00	0	23	0	907018240	68	4299
2026-01-12 07:34:42.97	354.88	26.51	-51.1	-52.8	15.3	0.00e+00	0	23	0	909115392	68	4377
2026-01-12 07:34:43.97	354.64	26.41	-51.1	-52.8	15.3	0.00e+00	0	23	0	910163968	68	4344
2026-01-12 07:34:44.97	354.41	26.30	-51.0	-52.6	15.4	0.00e+00	0	23	0	912261120	68	4271
2026-01-12 07:34:45.98	354.18	26.19	-50.9	-52.6	15.4	0.00e+00	0	23	0	914358272	68	4245
2026-01-12 07:34:46.98	353.94	26.08	-50.8	-52.4	15.5	0.00e+00	0	23	0	916455424	68	4153
2026-01-12 07:34:47.98	353.72	25.98	-50.7	-52.3	15.6	0.00e+00	0	23	0	917504000	68	4107
2026-01-12 07:34:48.99	353.49	25.87	-50.4	-51.9	15.5	0.00e+00	0	23	0	919601152	67	4188
2026-01-12 07:34:49.99	353.26	25.76	-50.3	-51.9	15.6	0.00e+00	0	23	0	921698304	67	4164
2026-01-12 07:34:50.99	353.03	25.65	-50.4	-52.0	15.5	0.00e+00	0	23	0	923795456	67	4196
2026-01-12 07:34:52.00	352.81	25.55	-50.5	-52.1	15.5	0.00e+00	0	23	0	925892608	67	4245
2026-01-12 07:34:53.00	352.59	25.44	-50.4	-51.9	15.6	0.00e+00	0	23	0	926941184	67	4185
2026-01-12 07:34:54.00	352.37	25.33	-50.3	-51.8	15.6	0.00e+00	0	23	0	929038336	67	4144
2026-01-12 07:34:55.00	352.15	25.22	-50.4	-51.9	15.6	0.00e+00	0	23	0	931135488	67	4184
2026-01-12 07:34:56.01	351.93	25.12	-50.3	-51.9	15.6	0.00e+00	0	23	0	933232640	67	4149
2026-01-12 07:34:57.00	351.72	25.01	-50.2	-51.7	15.7	0.00e+00	0	23	0	935329792	67	4077
2026-01-12 07:34:58.01	351.50	24.90	-50.0	-51.5	15.6	0.00e+00	0	23	0	936378368	66	4218
2026-01-12 07:34:59.01	351.29	24.79	-50.0	-51.5	15.6	0.00e+00	0	23	0	938475520	66	4240
2026-01-12 07:35:00.01	351.08	24.69	-50.0	-51.5	15.6	0.00e+00	0	23	0	940572672	66	4215
2026-01-12 07:35:01.02	350.87	24.58	-50.0	-51.5	15.6	0.00e+00	0	23	0	942669824	66	4213
2026-01-12 07:35:02.03	350.66	24.47	-50.0	-51.5	15.6	0.00e+00	0	23	0	944766976	66	4210
2026-01-12 07:35:03.02	350.45	24.36	-50.1	-51.7	15.5	0.00e+00	0	23	0	945815552	66	4312
2026-01-12 07:35:04.02	350.25	24.25	-50.3	-51.8	15.4	0.00e+00	0	23	0	947912704	66	4378
2026-01-12 07:35:05.02	350.04	24.15	-50.3	-51.9	15.4	0.00e+00	0	23	0	950009856	66	4402
2026-01-12 07:35:06.02	349.84	24.04	-50.3	-51.9	15.4	0.00e+00	0	23	0	952107008	66	4413
2026-01-12 07:35:07.03	349.64	23.93	-50.4	-52.0	15.4	0.00e+00	0	23	0	954204160	66	4460
2026-01-12 07:35:08.03	349.44	23.82	-50.4	-52.0	15.3	0.00e+00	0	23	0	955252736	66	4493
2026-01-12 07:35:09.03	349.24	23.72	-50.5	-52.2	15.2	0.00e+00	0	23	0	957349888	66	4556
2026-01-12 07:35:10.04	349.04	23.61	-50.6	-52.2	15.2	0.00e+00	0	23	0	959447040	66	4566
2026-01-12 07:35:11.04	348.84	23.50	-50.6	-52.3	15.2	0.00e+00	0	23	0	961544192	66	4616
2026-01-12 07:35:12.05	348.65	23.39	-50.7	-52.3	15.2	0.00e+00	0	23	0	962592768	66	4640
2026-01-12 07:35:13.05	348.45	23.29	-50.6	-52.2	15.2	0.00e+00	0	23	0	964689920	66	4592
2026-01-12 07:35:14.05	348.26	23.18	-50.6	-52.3	15.2	0.00e+00	0	23	0	966787072	66	4610
2026-01-12 07:35:15.05	348.07	23.07	-50.7	-52.3	15.2	0.00e+00	0	23	0	968884224	66	4637
2026-01-12 07:35:16.05	347.88	22.97	-50.7	-52.4	15.1	0.00e+00	0	23	0	970981376	66	4680
2026-01-12 07:35:17.05	347.70	22.86	-50.7	-52.3	15.2	0.00e+00	0	23	0	972029952	66	4650
2026-01-12 07:35:18.06	347.51	22.75	-50.7	-52.4	15.1	0.00e+00	0	23	0	974127104	66	4659
2026-01-12 07:35:19.06	347.32	22.65	-50.8	-52.5	15.1	0.00e+00	0	23	0	976224256	66	4718
2026-01-12 07:35:20.05	347.14	22.54	-50.7	-52.3	15.2	0.00e+00	0	23	0	978321408	66	4629
2026-01-12 07:35:21.05	346.96	22.44	-50.7	-52.4	15.1	0.00e+00	0	23	0	980418560	66	4679
2026-01-12 07:35:22.06	346.78	22.33	-50.8	-52.5	15.1	0.00e+00	0	23	0	981467136	66	4757
2026-01-12 07:35:23.06	346.60	22.22	-50.8	-52.5	15.1	0.00e+00	0	23	0	983564288	66	4743
2026-01-12 07:35:24.06	346.42	22.12	-50.8	-52.5	15.1	0.00e+00	0	23	0	985661440	66	4744
2026-01-12 07:35:25.06	346.24	22.01	-51.0	-52.7	15.1	0.00e+00	0	23	0	987758592	67	4584
2026-01-12 07:35:26.06	346.06	21.91	-50.9	-52.7	15.2	0.00e+00	0	23	0	989855744	67	4557
2026-01-12 07:35:27.07	345.89	21.80	-50.9	-52.6	15.2	0.00e+00	0	23	0	990904320	67	4535
2026-01-12 07:35:28.07	345.71	21.70	-50.9	-52.7	15.1	0.00e+00	0	23	0	993001472	67	4549
2026-01-12 07:35:29.07	345.54	21.59	-51.0	-52.7	15.1	0.00e+00	0	23	0	995098624	67	4596
2026-01-12 07:35:30.07	345.37	21.49	-50.9	-52.6	15.2	0.00e+00	0	23	0	997195776	67	4528
2026-01-12 07:35:31.08	345.20	21.38	-50.9	-52.7	15.1	0.00e+00	0	23	0	999292928	67	4551
2026-01-12 07:35:32.08	345.03	21.28	-51.1	-52.8	15.1	0.00e+00	0	23	0	1000341504	67	4633
2026-01-12 07:35:33.08	344.86	21.17	-51.1	-52.9	15.0	0.00e+00	0	23	0	1002438656	67	4681
2026-01-12 07:35:34.08	344.69	21.07	-51.3	-53.1	14.9	0.00e+00	0	23	0	1004535808	67	4784
2026-01-12 07:35:35.08	344.53	20.97	-51.2	-53.0	15.0	0.00e+00	0	23	0	1006632960	67	4729
2026-01-12 07:35:36.08	344.36	20.86	-51.2	-53.0	15.0	0.00e+00	0	23	0	1007681536	67	4736
2026-01-12 07:35:37.09	344.20	20.76	-51.2	-53.0	15.0	0.00e+00	0	23	0	1009778688	67	4737
2026-01-12 07:35:38.08	344.04	20.65	-51.3	-53.1	14.9	0.00e+00	0	23	0	1011875840	67	4777
2026-01-12 07:35:39.09	343.88	20.55	-51.2	-52.9	15.0	0.00e+00	0	23	0	1013972992	67	4694
2026-01-12 07:35:40.08	343.72	20.45	-51.3	-53.1	14.9	0.00e+00	0	23	0	1016070144	67	4803
2026-01-12 07:35:41.08	343.56	20.35	-51.3	-53.2	14.9	0.00e+00	0	23	0	1017118720	67	4832
2026-01-12 07:35:42.08	343.40	20.24	-51.3	-53.1	14.9	0.00e+00	0	23	0	1019215872	67	4803
2026-01-12 07:35:43.08	343.24	20.14	-51.6	-53.5	14.9	0.00e+00	0	23	0	1021313024	68	4710
2026-01-12 07:35:44.08	343.09	20.04	-51.6	-53.4	14.9	0.00e+00	0	23	0	1023410176	68	4690
2026-01-12 07:35:45.08	342.93	19.94	-51.6	-53.5	14.9	0.00e+00	0	23	0	1025507328	68	4727
2026-01-12 07:35:46.08	342.78	19.83	-51.6	-53.5	14.9	0.00e+00	0	23	0	1026555904	68	4736
2026-01-12 07:35:47.08	342.63	19.73	-51.8	-53.7	14.8	0.00e+00	0	23	0	1028653056	68	4838
2026-01-12 07:35:48.08	342.48	19.63	-51.8	-53.7	14.8	0.00e+00	0	23	0	1030750208	68	4844
2026-01-12 07:35:49.07	342.33	19.53	-52.0	-53.9	14.8	0.00e+00	0	23	0	1032847360	69	4689
2026-01-12 07:35:50.08	342.18	19.43	-52.0	-53.9	14.8	0.00e+00	0	23	0	1033895936	69	4687
2026-01-12 07:35:51.08	342.03	19.33	-52.0	-53.9	14.8	0.00e+00	0	23	0	1035993088	69	4685
2026-01-12 07:35:52.08	341.88	19.23	-52.0	-54.0	14.8	0.00e+00	0	23	0	1038090240	69	4714
2026-01-12 07:35:53.08	341.73	19.13	-52.0	-54.0	14.7	0.00e+00	0	23	0	1040187392	69	4710
2026-01-12 07:35:54.08	341.59	19.03	-51.9	-53.9	14.9	0.00e+00	0	23	0	1042284544	69	4654
2026-01-12 07:35:55.08	341.44	18.93	-51.9	-53.8	14.9	0.00e+00	0	23	0	1043333120	69	4612
2026-01-12 07:35:56.08	341.30	18.83	-51.9	-53.8	14.8	0.00e+00	0	23	0	1045430272	69	4648
2026-01-12 07:35:57.08	341.16	18.73	-51.9	-53.9	14.8	0.00e+00	0	23	0	1047527424	69	4666
2026-01-12 07:35:58.09	341.01	18.63	-51.9	-53.9	14.8	0.00e+00	0	23	0	1049624576	69	4665
2026-01-12 07:35:59.09	340.87	18.53	-52.0	-53.9	14.8	0.00e+00	0	23	0	1051721728	69	4692
2026-01-12 07:36:00.09	340.73	18.43	-52.1	-54.1	14.7	0.00e+00	0	23	0	1052770304	69	4794
2026-01-12 07:36:01.08	340.60	18.33	-52.0	-54.0	14.8	0.00e+00	0	23	0	1054867456	69	4731
2026-01-12 07:36:02.09	340.46	18.23	-52.1	-54.1	14.7	0.00e+00	0	23	0	1056964608	69	4780
2026-01-12 07:36:03.07	340.32	18.14	-52.2	-54.2	14.7	0.00e+00	0	23	0	1059061760	69	4833
2026-01-12 07:36:04.08	340.19	18.04	-52.2	-54.2	14.6	0.00e+00	0	23	0	1061158912	69	4856
2026-01-12 07:36:05.08	340.05	17.94	-52.2	-54.2	14.6	0.00e+00	0	23	0	1062207488	69	4870
2026-01-12 07:36:06.08	339.92	17.84	-52.2	-54.2	14.6	0.00e+00	0	23	0	1064304640	69	4857
2026-01-12 07:36:07.08	339.78	17.74	-52.3	-54.4	14.5	0.00e+00	0	23	0	1066401792	69	4945
2026-01-12 07:36:08.08	339.65	17.65	-52.4	-54.5	14.5	0.00e+00	0	23	0	1068498944	69	4989
2026-01-12 07:36:09.08	339.52	17.55	-52.3	-54.4	14.5	0.00e+00	0	23	0	1069547520	69	4973
2026-01-12 07:36:10.08	339.39	17.45	-52.5	-54.6	14.6	1.50e-06	0	23	0	1071644672	70	4802
2026-01-12 07:36:11.09	339.26	17.36	-52.5	-54.6	14.5	0.00e+00	0	23	0	1073741824	70	4786
2026-01-12 07:36:12.09	339.13	17.26	-52.5	-54.6	14.6	0.00e+00	0	23	0	1075838976	70	4806
2026-01-12 07:36:13.09	339.00	17.16	-52.5	-54.7	14.5	0.00e+00	0	23	0	1077936128	70	4815
2026-01-12 07:36:14.10	338.87	17.07	-52.5	-54.6	14.6	0.00e+00	0	23	0	1078984704	70	4800
2026-01-12 07:36:15.10	338.74	16.97	-52.4	-54.5	14.6	0.00e+00	0	23	0	1081081856	70	4751
2026-01-12 07:36:16.10	338.62	16.88	-52.4	-54.5	14.6	0.00e+00	0	23	0	1083179008	70	4733
2026-01-12 07:36:17.10	338.49	16.78	-52.4	-54.5	14.6	0.00e+00	0	23	0	1085276160	70	4718
2026-01-12 07:36:18.10	338.37	16.69	-52.3	-54.4	14.7	0.00e+00	0	23	0	1087373312	70	4695
2026-01-12 07:36:19.09	338.25	16.59	-52.3	-54.3	14.8	0.00e+00	0	23	0	1088421888	70	4623
2026-01-12 07:36:20.09	338.12	16.50	-52.3	-54.4	14.7	0.00e+00	0	23	0	1090519040	70	4689
2026-01-12 07:36:21.09	338.00	16.40	-52.4	-54.5	14.6	0.00e+00	0	23	0	1092616192	70	4731
2026-01-12 07:36:22.09	337.88	16.31	-52.3	-54.3	14.7	0.00e+00	0	23	0	1094713344	70	4649
2026-01-12 07:36:23.09	337.76	16.21	-52.4	-54.4	14.6	0.00e+00	0	23	0	1096810496	70	4704
2026-01-12 07:36:24.09	337.64	16.12	-52.3	-54.4	14.7	0.00e+00	0	23	0	1097859072	70	4652
2026-01-12 07:36:25.08	337.52	16.03	-52.4	-54.4	14.6	0.00e+00	0	23	0	1099956224	70	4704
2026-01-12 07:36:26.08	337.41	15.94	-52.4	-54.5	14.6	0.00e+00	0	23	0	1102053376	70	4708
2026-01-12 07:36:27.08	337.29	15.84	-52.2	-54.3	14.7	0.00e+00	0	23	0	1104150528	70	4610
2026-01-12 07:36:28.08	337.17	15.75	-52.3	-54.4	14.7	0.00e+00	0	23	0	1105199104	70	4672
2026-01-12 07:36:29.08	337.06	15.66	-52.3	-54.4	14.7	0.00e+00	0	23	0	1107296256	70	4691
2026-01-12 07:36:30.08	336.94	15.57	-52.4	-54.5	14.6	0.00e+00	0	23	0	1109393408	70	4747
2026-01-12 07:36:31.08	336.83	15.47	-52.4	-54.5	14.6	0.00e+00	0	23	0	1111490560	70	4733
2026-01-12 07:36:32.08	336.71	15.38	-52.4	-54.5	14.6	0.00e+00	0	23	0	1113587712	70	4714
2026-01-12 07:36:33.08	336.60	15.29	-52.4	-54.5	14.6	0.00e+00	0	23	0	1114636288	70	4714
2026-01-12 07:36:34.07	336.49	15.20	-52.4	-54.5	14.6	0.00e+00	0	23	0	1116733440	70	4713
2026-01-12 07:36:35.07	336.38	15.11	-52.4	-54.4	14.6	0.00e+00	0	23	0	1118830592	70	4705
2026-01-12 07:36:36.06	336.27	15.02	-52.4	-54.5	14.6	0.00e+00	0	23	0	1120927744	70	4719
2026-01-12 07:36:37.07	336.16	14.93	-52.4	-54.6	14.6	0.00e+00	0	23	0	1123024896	70	4764
2026-01-12 07:36:38.06	336.05	14.84	-52.4	-54.5	14.6	0.00e+00	0	23	0	1124073472	70	4758
2026-01-12 07:36:39.06	335.94	14.75	-52.4	-54.5	14.6	0.00e+00	0	23	0	1126170624	70	4745
2026-01-12 07:36:40.06	335.83	14.66	-52.5	-54.6	14.5	0.00e+00	0	23	0	1128267776	70	4797
2026-01-12 07:36:41.05	335.73	14.57	-52.5	-54.7	14.5	0.00e+00	0	23	0	1130364928	70	4838
2026-01-12 07:36:42.05	335.62	14.48	-52.4	-54.6	14.5	0.00e+00	0	23	0	1131413504	70	4786
2026-01-12 07:36:43.05	335.51	14.39	-52.5	-54.7	14.5	0.00e+00	0	23	0	1133510656	70	4846
2026-01-12 07:36:44.05	335.41	14.30	-52.5	-54.7	14.5	0.00e+00	0	23	0	1135607808	70	4821
2026-01-12 07:36:45.05	335.30	14.21	-52.5	-54.6	14.5	0.00e+00	0	23	0	1137704960	70	4806
2026-01-12 07:36:46.04	335.20	14.13	-52.4	-54.6	14.5	0.00e+00	0	23	0	1139802112	70	4782
2026-01-12 07:36:47.03	335.10	14.04	-52.5	-54.6	14.4	0.00e+00	0	23	0	1140850688	70	4801
2026-01-12 07:36:48.03	335.00	13.95	-52.5	-54.6	14.5	0.00e+00	0	23	0	1142947840	70	4809
2026-01-12 07:36:49.03	334.89	13.86	-52.4	-54.5	14.6	2.20e-06	0	23	0	1145044992	70	4729
2026-01-12 07:36:50.03	334.79	13.77	-52.3	-54.4	14.6	0.00e+00	0	23	0	1147142144	70	4687
2026-01-12 07:36:51.02	334.69	13.69	-52.3	-54.4	14.6	0.00e+00	0	23	0	1148190720	70	4678
2026-01-12 07:36:52.03	334.59	13.60	-52.3	-54.4	14.6	0.00e+00	0	23	0	1150287872	70	4703
2026-01-12 07:36:53.03	334.49	13.51	-52.3	-54.4	14.6	0.00e+00	0	23	0	1152385024	70	4684
2026-01-12 07:36:54.03	334.39	13.43	-52.3	-54.4	14.6	0.00e+00	0	23	0	1154482176	70	4685
2026-01-12 07:36:55.02	334.30	13.34	-52.4	-54.5	14.6	0.00e+00	0	23	0	1156579328	70	4741
2026-01-12 07:36:56.02	334.20	13.25	-52.4	-54.6	14.6	0.00e+00	0	23	0	1157627904	70	4769
2026-01-12 07:36:57.01	334.10	13.17	-52.4	-54.5	14.6	0.00e+00	0	23	0	1159725056	70	4755
2026-01-12 07:36:58.01	334.00	13.08	-52.5	-54.8	14.4	0.00e+00	0	23	0	1161822208	70	4877
2026-01-12 07:36:59.01	333.91	13.00	-52.6	-54.8	14.4	0.00e+00	0	23	0	1163919360	70	4926
2026-01-12 07:37:00.01	333.81	12.91	-52.7	-55.0	14.3	0.00e+00	0	23	0	1166016512	70	4999
2026-01-12 07:37:01.00	333.72	12.83	-52.7	-55.0	14.2	0.00e+00	0	23	0	1167065088	70	5029
2026-01-12 07:37:02.01	333.62	12.74	-52.9	-55.2	14.1	0.00e+00	0	23	0	1169162240	70	5141
2026-01-12 07:37:03.01	333.53	12.66	-52.9	-55.2	14.1	0.00e+00	0	23	0	1171259392	70	5156
2026-01-12 07:37:04.00	333.44	12.57	-52.8	-55.2	14.1	0.00e+00	0	23	0	1173356544	70	5146
2026-01-12 07:37:05.00	333.34	12.49	-52.9	-55.3	14.1	0.00e+00	0	23	0	1174405120	70	5192
2026-01-12 07:37:06.00	333.25	12.40	-52.9	-55.3	14.1	0.00e+00	0	23	0	1176502272	70	5179
2026-01-12 07:37:06.99	333.16	12.32	-53.0	-55.5	14.1	0.00e+00	0	23	0	1178599424	71	4999
2026-01-12 07:37:07.99	333.07	12.24	-53.1	-55.5	14.1	0.00e+00	0	23	0	1180696576	71	5022
2026-01-12 07:37:08.99	332.98	12.15	-53.1	-55.5	14.1	0.00e+00	0	23	0	1182793728	71	5013
2026-01-12 07:37:09.98	332.89	12.07	-53.0	-55.5	14.1	0.00e+00	0	23	0	1183842304	71	5012
2026-01-12 07:37:10.98	332.80	11.99	-53.0	-55.4	14.2	0.00e+00	0	23	0	1185939456	71	4955
2026-01-12 07:37:11.98	332.71	11.91	-53.0	-55.4	14.1	0.00e+00	0	23	0	1188036608	71	4974
2026-01-12 07:37:12.98	332.62	11.82	-53.0	-55.4	14.2	0.00e+00	0	23	0	1190133760	71	4957
2026-01-12 07:37:13.98	332.54	11.74	-53.0	-55.5	14.1	0.00e+00	0	23	0	1192230912	71	5009
2026-01-12 07:37:14.97	332.45	11.66	-53.1	-55.5	14.1	0.00e+00	0	23	0	1193279488	71	5024
2026-01-12 07:37:15.96	332.36	11.58	-53.1	-55.5	14.1	0.00e+00	0	23	0	1195376640	71	5027
2026-01-12 07:37:16.97	332.28	11.49	-53.2	-55.7	14.0	0.00e+00	0	23	0	1197473792	71	5120
2026-01-12 07:37:17.97	332.19	11.41	-53.1	-55.6	14.0	0.00e+00	0	23	0	1199570944	71	5074
2026-01-12 07:37:18.98	332.10	11.33	-53.1	-55.6	14.0	0.00e+00	0	23	0	1200619520	71	5091
2026-01-12 07:37:19.98	332.02	11.25	-53.3	-55.9	13.8	0.00e+00	0	23	0	1202716672	71	5221
2026-01-12 07:37:20.99	331.93	11.17	-53.1	-55.7	14.0	0.00e+00	0	23	0	1204813824	71	5125
2026-01-12 07:37:21.99	331.85	11.09	-53.1	-55.7	14.0	0.00e+00	0	23	0	1206910976	71	5101
2026-01-12 07:37:22.99	331.77	11.01	-53.1	-55.7	14.0	0.00e+00	0	23	0	1209008128	71	5116
2026-01-12 07:37:23.99	331.68	10.93	-53.2	-55.7	13.9	0.00e+00	0	23	0	1210056704	71	5138
2026-01-12 07:37:24.98	331.60	10.85	-53.2	-55.8	13.9	0.00e+00	0	23	0	1212153856	71	5170
2026-01-12 07:37:25.98	331.52	10.77	-53.2	-55.8	13.8	0.00e+00	0	23	0	1214251008	71	5216
2026-01-12 07:37:26.98	331.44	10.69	-53.3	-56.0	13.8	0.00e+00	0	23	0	1216348160	71	5288
2026-01-12 07:37:27.97	331.36	10.61	-53.3	-55.9	13.8	0.00e+00	0	23	0	1218445312	71	5243
2026-01-12 07:37:28.97	331.28	10.53	-53.3	-55.9	13.8	0.00e+00	0	23	0	1219493888	71	5254
2026-01-12 07:37:29.98	331.20	10.45	-53.2	-55.8	13.8	0.00e+00	0	23	0	1221591040	71	5199
2026-01-12 07:37:30.98	331.12	10.37	-53.3	-55.9	13.8	0.00e+00	0	23	0	1223688192	71	5253
