passes_logs/2026/01/12/R3.2S_Murmansk/R3.2S_Murmansk__20260112_081520_NOAA_21_JPSS-2_rec.log

#Pass ID: 20260112_081520_NOAA 21 (JPSS-2)
#Satellite: NOAA 21 (JPSS-2)
#Configuration: NOAA-21
#almurnet v.1.7.20251203
#Start time: 2026-01-12 08:15:21

#Version: 2.2.20231116
#Station: R3.2S_Murmansk
#Location: 33.079688 lon 68.888172 lat
#TLE: 1 54234U 22150A   26011.55893233  .00000075  00000+0  56634-4 0  9995
#TLE: 2 54234  98.7494 312.5004 0000755 313.1908  46.9205 14.19534095164321

#Time	Az	El	Level	Level2	SNR	BER	BlckErr	Temp	State	Recorded	gain1	gain2
2026-01-12 08:15:21.55	122.09	2.06	-57.0	-70.7	3.8	1.49e+00	0	21	0	0	80	17153
2026-01-12 08:15:22.55	122.07	2.12	-56.9	-70.6	3.8	1.49e+00	0	21	104	0	78	19062
2026-01-12 08:15:23.55	122.04	2.19	-56.9	-70.6	3.8	1.49e+00	0	21	104	0	78	19095
2026-01-12 08:15:24.55	122.01	2.25	-56.9	-70.6	3.8	1.49e+00	0	21	104	0	78	19147
2026-01-12 08:15:25.55	121.98	2.31	-56.9	-70.6	3.8	1.49e+00	0	21	104	0	78	19107
2026-01-12 08:15:26.53	121.95	2.38	-56.9	-70.6	3.8	1.49e+00	0	21	104	0	78	19148
2026-01-12 08:15:27.53	121.92	2.44	-56.9	-70.6	3.8	1.49e+00	0	21	104	0	78	19123
2026-01-12 08:15:28.53	121.89	2.50	-56.9	-70.6	3.8	1.49e+00	0	21	104	0	78	19114
2026-01-12 08:15:29.53	121.86	2.57	-56.9	-70.7	3.8	1.49e+00	0	21	104	0	78	19188
2026-01-12 08:15:30.52	121.84	2.63	-56.9	-70.6	3.8	1.49e+00	0	21	104	0	78	19142
2026-01-12 08:15:31.51	121.81	2.69	-56.9	-70.6	3.8	1.49e+00	0	21	104	0	78	19130
2026-01-12 08:15:32.51	121.78	2.76	-56.9	-70.6	3.8	1.49e+00	0	21	104	0	78	19107
2026-01-12 08:15:33.50	121.75	2.82	-56.9	-70.6	3.8	1.49e+00	0	21	104	0	78	19137
2026-01-12 08:15:34.49	121.72	2.89	-56.9	-70.6	3.8	1.49e+00	0	21	104	0	78	19165
2026-01-12 08:15:35.49	121.69	2.95	-56.9	-70.6	3.8	1.49e+00	0	21	104	0	78	19090
2026-01-12 08:15:36.48	121.66	3.02	-56.9	-70.6	3.8	1.49e+00	0	21	104	0	78	19066
2026-01-12 08:15:37.47	121.63	3.08	-56.9	-70.6	3.8	1.49e+00	0	21	104	0	78	19001
2026-01-12 08:15:38.47	121.60	3.15	-56.9	-70.6	3.8	1.49e+00	0	21	104	0	78	18996
2026-01-12 08:15:39.47	121.57	3.21	-56.9	-70.5	3.8	1.49e+00	0	21	104	0	78	18894
2026-01-12 08:15:40.46	121.54	3.28	-56.9	-70.5	3.8	1.49e+00	0	21	104	0	78	18842
2026-01-12 08:15:41.46	121.51	3.34	-56.9	-70.4	3.8	1.49e+00	0	21	104	0	78	18703
2026-01-12 08:15:42.46	121.47	3.41	-56.9	-70.3	3.8	1.49e+00	0	21	104	0	78	18437
2026-01-12 08:15:43.45	121.44	3.47	-56.9	-70.2	3.8	1.49e+00	0	21	104	0	78	18204
2026-01-12 08:15:44.45	121.41	3.54	-56.8	-69.9	3.8	1.49e+00	0	21	104	0	78	17631
2026-01-12 08:15:45.43	121.38	3.60	-56.8	-69.7	3.8	1.49e+00	0	21	104	0	78	17093
2026-01-12 08:15:46.43	121.35	3.67	-56.8	-69.2	3.8	1.49e+00	0	21	104	0	78	16257
2026-01-12 08:15:47.42	121.32	3.74	-56.7	-68.7	3.9	1.49e+00	0	21	104	0	78	15347
2026-01-12 08:15:48.42	121.29	3.80	-56.7	-67.7	4.0	1.48e+00	0	21	104	0	78	13672
2026-01-12 08:15:49.41	121.25	3.87	-56.6	-66.8	4.3	1.45e+00	0	21	104	0	78	12257
2026-01-12 08:15:50.39	121.22	3.93	-56.6	-66.2	4.0	1.38e+00	0	22	104	0	78	11463
2026-01-12 08:15:51.39	121.19	4.00	-56.4	-65.0	5.0	7.46e-01	0	22	0	1048576	78	9997
2026-01-12 08:15:52.39	121.16	4.07	-56.2	-63.8	5.7	4.57e-01	0	21	0	3145728	78	8722
2026-01-12 08:15:53.38	121.12	4.14	-56.0	-62.7	6.5	2.20e-01	0	21	0	6291456	78	7638
2026-01-12 08:15:54.38	121.09	4.20	-55.7	-61.7	7.4	1.45e-01	0	22	0	9437184	78	6807
2026-01-12 08:15:55.38	121.06	4.27	-55.3	-60.3	8.6	4.49e-02	0	22	0	12582912	77	6165
2026-01-12 08:15:56.37	121.02	4.34	-55.0	-59.5	9.3	1.26e-02	0	22	0	15728640	76	5965
2026-01-12 08:15:57.37	120.99	4.41	-54.3	-58.2	10.4	2.10e-03	0	22	0	18874368	75	5411
2026-01-12 08:15:58.35	120.96	4.47	-53.9	-57.3	11.1	3.70e-04	0	22	0	22020096	74	5174
2026-01-12 08:15:59.35	120.92	4.54	-53.7	-56.9	11.5	1.52e-04	0	22	0	25165824	74	4953
2026-01-12 08:16:00.34	120.89	4.61	-53.0	-55.9	12.1	2.05e-05	0	22	0	28311552	72	4956
2026-01-12 08:16:01.34	120.86	4.68	-52.5	-55.0	12.7	4.50e-06	0	22	0	31457280	71	4742
2026-01-12 08:16:02.33	120.82	4.75	-52.3	-54.8	12.9	7.00e-07	0	22	0	34603008	71	4609
2026-01-12 08:16:03.32	120.79	4.82	-52.0	-54.2	13.2	0.00e+00	0	22	0	37748736	70	4593
2026-01-12 08:16:04.31	120.75	4.88	-51.9	-54.2	13.3	0.00e+00	0	22	0	40894464	70	4548
2026-01-12 08:16:05.30	120.72	4.95	-51.9	-54.2	13.2	0.00e+00	0	22	0	44040192	70	4570
2026-01-12 08:16:06.29	120.68	5.02	-51.9	-54.1	13.4	0.00e+00	0	22	0	47185920	70	4506
2026-01-12 08:16:07.29	120.65	5.09	-54.9	-59.3	9.5	9.32e-03	0	22	0	50331648	75	6168
2026-01-12 08:16:08.28	120.61	5.16	-52.6	-55.1	12.8	1.76e-04	0	22	0	53477376	71	4768
2026-01-12 08:16:09.28	120.58	5.23	-54.7	-59.0	9.6	1.26e-02	0	22	0	56623104	75	5934
2026-01-12 08:16:10.28	120.54	5.30	-54.2	-57.8	10.7	1.73e-02	0	22	0	59768832	75	5171
2026-01-12 08:16:11.28	120.51	5.37	-51.3	-53.3	13.6	0.00e+00	0	22	0	62914560	68	4622
2026-01-12 08:16:12.28	120.47	5.44	-50.8	-52.7	14.1	0.00e+00	0	22	0	66060288	68	4300
2026-01-12 08:16:13.27	120.43	5.51	-50.9	-52.8	13.9	0.00e+00	0	22	0	69206016	68	4380
2026-01-12 08:16:14.28	120.40	5.58	-50.7	-52.6	14.2	0.00e+00	0	22	0	72351744	68	4246
2026-01-12 08:16:15.27	120.36	5.65	-50.7	-52.5	14.2	0.00e+00	0	22	0	75497472	68	4203
2026-01-12 08:16:16.27	120.32	5.73	-50.4	-52.2	14.2	0.00e+00	0	22	0	78643200	67	4296
2026-01-12 08:16:17.27	120.29	5.80	-50.4	-52.2	14.2	0.00e+00	0	22	0	81788928	67	4321
2026-01-12 08:16:18.26	120.25	5.87	-50.5	-52.2	14.2	0.00e+00	0	22	0	84934656	67	4338
2026-01-12 08:16:19.26	120.21	5.94	-50.5	-52.3	14.2	0.00e+00	0	22	0	88080384	67	4344
2026-01-12 08:16:20.26	120.17	6.01	-50.4	-52.2	14.2	0.00e+00	0	22	0	91226112	67	4326
2026-01-12 08:16:21.26	120.14	6.08	-50.4	-52.1	14.3	0.00e+00	0	22	0	94371840	67	4275
2026-01-12 08:16:22.27	120.10	6.16	-50.5	-52.2	14.2	0.00e+00	0	22	0	97517568	67	4339
2026-01-12 08:16:23.26	120.06	6.23	-50.3	-52.1	14.4	0.00e+00	0	22	0	100663296	67	4243
2026-01-12 08:16:24.26	120.02	6.30	-50.2	-51.9	14.5	0.00e+00	0	22	0	103809024	67	4170
2026-01-12 08:16:25.25	119.98	6.37	-50.3	-52.0	14.4	0.00e+00	0	22	0	105906176	67	4201
2026-01-12 08:16:26.24	119.94	6.45	-50.3	-52.1	14.3	0.00e+00	0	22	0	109051904	67	4256
2026-01-12 08:16:27.25	119.90	6.52	-50.3	-52.0	14.4	0.00e+00	0	22	0	113246208	67	4228
2026-01-12 08:16:28.25	119.87	6.59	-50.4	-52.1	14.3	0.00e+00	0	22	0	115343360	67	4256
2026-01-12 08:16:29.24	119.83	6.67	-50.3	-52.0	14.4	0.00e+00	0	22	0	118489088	67	4197
2026-01-12 08:16:30.24	119.79	6.74	-50.1	-51.8	14.4	0.00e+00	0	22	0	121634816	66	4354
2026-01-12 08:16:31.23	119.75	6.81	-50.2	-51.9	14.3	0.00e+00	0	22	0	124780544	66	4430
2026-01-12 08:16:32.23	119.71	6.89	-50.2	-51.9	14.3	0.00e+00	0	22	0	127926272	66	4394
2026-01-12 08:16:33.22	119.67	6.96	-50.1	-51.8	14.4	0.00e+00	0	22	0	131072000	66	4358
2026-01-12 08:16:34.22	119.63	7.04	-50.2	-51.9	14.3	0.00e+00	0	22	0	134217728	66	4398
2026-01-12 08:16:35.22	119.58	7.11	-50.1	-51.8	14.4	0.00e+00	0	22	0	137363456	66	4355
2026-01-12 08:16:36.21	119.54	7.19	-50.1	-51.8	14.4	0.00e+00	0	22	0	140509184	66	4353
2026-01-12 08:16:37.21	119.50	7.26	-50.1	-51.7	14.5	0.00e+00	0	22	0	143654912	66	4305
2026-01-12 08:16:38.20	119.46	7.34	-50.0	-51.6	14.5	0.00e+00	0	22	0	146800640	66	4290
2026-01-12 08:16:39.20	119.42	7.41	-49.9	-51.5	14.6	0.00e+00	0	22	0	149946368	66	4238
2026-01-12 08:16:40.20	119.38	7.49	-49.9	-51.5	14.6	0.00e+00	0	22	0	153092096	66	4198
2026-01-12 08:16:41.19	119.33	7.56	-50.0	-51.6	14.5	0.00e+00	0	22	0	156237824	66	4268
2026-01-12 08:16:42.19	119.29	7.64	-49.9	-51.5	14.6	0.00e+00	0	22	0	159383552	66	4217
2026-01-12 08:16:43.19	119.25	7.72	-49.9	-51.4	14.6	0.00e+00	0	22	0	162529280	66	4189
2026-01-12 08:16:44.19	119.21	7.79	-49.8	-51.4	14.7	0.00e+00	0	22	0	165675008	66	4156
2026-01-12 08:16:45.19	119.16	7.87	-49.9	-51.5	14.6	0.00e+00	0	22	0	168820736	66	4207
2026-01-12 08:16:46.18	119.12	7.95	-49.8	-51.4	14.7	0.00e+00	0	22	0	171966464	66	4162
2026-01-12 08:16:47.17	119.08	8.03	-49.8	-51.4	14.7	0.00e+00	0	22	0	175112192	66	4173
2026-01-12 08:16:48.17	119.03	8.10	-49.8	-51.3	14.7	0.00e+00	0	22	0	178257920	66	4139
2026-01-12 08:16:49.16	118.99	8.18	-49.8	-51.4	14.7	0.00e+00	0	22	0	181403648	66	4146
2026-01-12 08:16:50.16	118.94	8.26	-49.9	-51.5	14.6	0.00e+00	0	22	0	184549376	66	4209
2026-01-12 08:16:51.15	118.90	8.34	-49.9	-51.4	14.7	0.00e+00	0	22	0	187695104	66	4180
2026-01-12 08:16:52.14	118.85	8.41	-49.7	-51.3	14.8	0.00e+00	0	22	0	190840832	66	4102
2026-01-12 08:16:53.14	118.81	8.49	-49.5	-51.0	14.8	0.00e+00	0	22	0	193986560	65	4211
2026-01-12 08:16:54.14	118.76	8.57	-49.6	-51.0	14.7	0.00e+00	0	22	0	197132288	65	4242
2026-01-12 08:16:55.14	118.72	8.65	-49.5	-51.0	14.8	0.00e+00	0	22	0	200278016	65	4204
2026-01-12 08:16:56.13	118.67	8.73	-49.7	-51.2	14.6	0.00e+00	0	22	0	202375168	65	4318
2026-01-12 08:16:57.13	118.63	8.81	-49.5	-50.9	14.8	0.00e+00	0	22	0	205520896	65	4182
2026-01-12 08:16:58.12	118.58	8.89	-49.5	-51.0	14.8	0.00e+00	0	22	0	208666624	65	4225
2026-01-12 08:16:59.12	118.53	8.97	-49.5	-51.0	14.8	0.00e+00	0	22	0	211812352	65	4220
2026-01-12 08:17:00.12	118.49	9.05	-49.6	-51.1	14.7	0.00e+00	0	22	0	214958080	65	4257
2026-01-12 08:17:01.12	118.44	9.13	-49.6	-51.1	14.7	0.00e+00	0	22	0	218103808	65	4271
2026-01-12 08:17:02.12	118.39	9.21	-49.6	-51.1	14.7	0.00e+00	0	22	0	221249536	65	4272
2026-01-12 08:17:03.12	118.34	9.29	-49.4	-50.9	14.8	0.00e+00	0	22	0	224395264	65	4152
2026-01-12 08:17:04.12	118.29	9.37	-49.5	-50.9	14.8	0.00e+00	0	22	0	227540992	65	4190
2026-01-12 08:17:05.12	118.24	9.46	-49.5	-51.0	14.8	0.00e+00	0	22	0	230686720	65	4201
2026-01-12 08:17:06.12	118.20	9.54	-49.5	-50.9	14.8	0.00e+00	0	23	0	233832448	65	4185
2026-01-12 08:17:07.12	118.15	9.62	-49.3	-50.7	15.0	0.00e+00	0	22	0	236978176	65	4068
2026-01-12 08:17:08.12	118.10	9.70	-49.4	-50.8	14.9	0.00e+00	0	22	0	240123904	65	4144
2026-01-12 08:17:09.13	118.05	9.79	-49.3	-50.7	14.9	0.00e+00	0	22	0	243269632	65	4098
2026-01-12 08:17:10.12	118.00	9.87	-49.2	-50.7	15.0	0.00e+00	0	22	0	246415360	65	4070
2026-01-12 08:17:11.10	117.95	9.95	-49.3	-50.7	15.0	0.00e+00	0	22	0	249561088	65	4075
2026-01-12 08:17:12.10	117.90	10.03	-49.3	-50.7	15.0	0.00e+00	0	22	0	252706816	65	4070
2026-01-12 08:17:13.09	117.85	10.12	-49.2	-50.6	15.0	0.00e+00	0	22	0	255852544	65	4051
2026-01-12 08:17:14.09	117.80	10.20	-49.2	-50.7	15.0	0.00e+00	0	22	0	258998272	65	4052
2026-01-12 08:17:15.09	117.74	10.28	-49.3	-50.8	14.9	0.00e+00	0	22	0	262144000	65	4113
2026-01-12 08:17:16.08	117.69	10.37	-49.2	-50.7	15.0	0.00e+00	0	23	0	265289728	65	4062
2026-01-12 08:17:17.08	117.64	10.45	-49.2	-50.6	15.0	0.00e+00	0	23	0	268435456	65	4033
2026-01-12 08:17:18.07	117.59	10.54	-49.2	-50.6	15.0	0.00e+00	0	22	0	271581184	65	4045
2026-01-12 08:17:19.07	117.53	10.62	-49.0	-50.4	15.0	0.00e+00	0	22	0	274726912	64	4188
2026-01-12 08:17:20.07	117.48	10.71	-48.9	-50.3	15.0	0.00e+00	0	23	0	277872640	64	4138
2026-01-12 08:17:21.07	117.43	10.79	-49.0	-50.4	15.0	0.00e+00	0	22	0	281018368	64	4161
2026-01-12 08:17:22.07	117.37	10.88	-49.0	-50.4	15.0	0.00e+00	0	22	0	284164096	64	4177
2026-01-12 08:17:23.08	117.32	10.97	-49.0	-50.4	15.0	0.00e+00	0	22	0	287309824	64	4169
2026-01-12 08:17:24.07	117.26	11.05	-48.8	-50.2	15.1	0.00e+00	0	22	0	290455552	64	4069
2026-01-12 08:17:25.07	117.21	11.14	-48.9	-50.2	15.1	0.00e+00	0	22	0	293601280	64	4088
2026-01-12 08:17:26.07	117.15	11.23	-48.8	-50.2	15.1	0.00e+00	0	22	0	296747008	64	4060
2026-01-12 08:17:27.06	117.10	11.31	-48.8	-50.2	15.1	0.00e+00	0	23	0	299892736	64	4052
2026-01-12 08:17:28.06	117.04	11.40	-48.8	-50.1	15.2	0.00e+00	0	23	0	303038464	64	4044
2026-01-12 08:17:29.05	116.99	11.49	-48.9	-50.2	15.1	0.00e+00	0	23	0	306184192	64	4085
2026-01-12 08:17:30.04	116.93	11.58	-48.8	-50.2	15.1	0.00e+00	0	23	0	309329920	64	4069
2026-01-12 08:17:31.03	116.88	11.66	-48.8	-50.2	15.1	0.00e+00	0	23	0	312475648	64	4058
2026-01-12 08:17:32.02	116.82	11.75	-48.8	-50.2	15.1	0.00e+00	0	23	0	314572800	64	4054
2026-01-12 08:17:33.01	116.76	11.84	-48.8	-50.2	15.1	0.00e+00	0	23	0	317718528	64	4056
2026-01-12 08:17:34.01	116.70	11.93	-48.9	-50.2	15.1	0.00e+00	0	23	0	320864256	64	4086
2026-01-12 08:17:35.01	116.64	12.02	-48.9	-50.2	15.1	0.00e+00	0	23	0	324009984	64	4089
2026-01-12 08:17:36.00	116.59	12.11	-48.8	-50.2	15.1	0.00e+00	0	23	0	327155712	64	4072
2026-01-12 08:17:37.00	116.53	12.20	-48.9	-50.2	15.1	0.00e+00	0	23	0	330301440	64	4081
2026-01-12 08:17:37.99	116.47	12.29	-48.8	-50.1	15.2	0.00e+00	0	23	0	333447168	64	4032
2026-01-12 08:17:38.97	116.41	12.38	-48.7	-50.0	15.2	0.00e+00	0	23	0	336592896	64	3993
2026-01-12 08:17:39.96	116.35	12.47	-48.7	-50.1	15.0	0.00e+00	0	23	0	339738624	63	4247
2026-01-12 08:17:40.96	116.29	12.56	-48.7	-50.1	15.0	0.00e+00	0	23	0	342884352	63	4243
2026-01-12 08:17:41.95	116.23	12.65	-48.7	-50.0	15.1	0.00e+00	0	23	0	346030080	63	4219
2026-01-12 08:17:42.95	116.17	12.74	-48.8	-50.1	15.0	0.00e+00	0	23	0	349175808	63	4269
2026-01-12 08:17:43.94	116.10	12.84	-48.7	-50.1	15.0	0.00e+00	0	23	0	352321536	63	4265
2026-01-12 08:17:44.93	116.04	12.93	-48.7	-50.1	15.0	0.00e+00	0	23	0	355467264	63	4243
2026-01-12 08:17:45.92	115.98	13.02	-48.7	-50.0	15.0	0.00e+00	0	23	0	358612992	63	4240
2026-01-12 08:17:46.92	115.92	13.11	-48.7	-50.0	15.1	0.00e+00	0	23	0	361758720	63	4226
2026-01-12 08:17:47.91	115.85	13.21	-48.7	-50.1	15.0	0.00e+00	0	23	0	364904448	63	4254
2026-01-12 08:17:48.90	115.79	13.30	-48.8	-50.1	15.0	0.00e+00	0	23	0	368050176	63	4288
2026-01-12 08:17:49.88	115.73	13.39	-48.7	-50.0	15.1	0.00e+00	0	23	0	371195904	63	4224
2026-01-12 08:17:50.88	115.66	13.49	-48.7	-50.1	15.0	0.00e+00	0	23	0	374341632	63	4256
2026-01-12 08:17:51.88	115.60	13.58	-48.8	-50.1	15.0	0.00e+00	0	23	0	377487360	63	4266
2026-01-12 08:17:52.87	115.53	13.68	-48.8	-50.1	15.0	0.00e+00	0	23	0	380633088	63	4277
2026-01-12 08:17:53.86	115.47	13.77	-48.7	-50.1	15.1	0.00e+00	0	23	0	383778816	63	4254
2026-01-12 08:17:54.87	115.40	13.87	-48.8	-50.1	15.0	0.00e+00	0	23	0	386924544	63	4267
2026-01-12 08:17:55.87	115.33	13.96	-48.6	-49.9	15.1	0.00e+00	0	23	0	390070272	63	4159
2026-01-12 08:17:56.87	115.26	14.06	-48.6	-50.0	15.1	0.00e+00	0	23	0	393216000	63	4194
2026-01-12 08:17:57.86	115.20	14.16	-48.6	-49.9	15.1	0.00e+00	0	23	0	396361728	63	4161
2026-01-12 08:17:58.85	115.13	14.25	-48.5	-49.8	15.2	0.00e+00	0	23	0	399507456	63	4135
2026-01-12 08:17:59.86	115.06	14.35	-48.5	-49.8	15.2	0.00e+00	0	23	0	401604608	63	4136
2026-01-12 08:18:00.85	114.99	14.45	-48.6	-49.9	15.1	0.00e+00	0	23	0	404750336	63	4155
2026-01-12 08:18:01.84	114.92	14.55	-48.6	-49.9	15.1	0.00e+00	0	23	0	407896064	63	4164
2026-01-12 08:18:02.83	114.85	14.65	-48.5	-49.8	15.2	0.00e+00	0	23	0	411041792	63	4127
2026-01-12 08:18:03.83	114.78	14.75	-48.6	-49.9	15.2	0.00e+00	0	23	0	414187520	63	4153
2026-01-12 08:18:04.82	114.71	14.84	-48.5	-49.8	15.2	0.00e+00	0	23	0	417333248	63	4138
2026-01-12 08:18:05.81	114.64	14.94	-48.5	-49.8	15.2	0.00e+00	0	23	0	420478976	63	4145
2026-01-12 08:18:06.80	114.57	15.04	-48.6	-49.9	15.2	0.00e+00	0	23	0	423624704	63	4177
2026-01-12 08:18:07.79	114.49	15.14	-48.7	-50.0	15.1	0.00e+00	0	23	0	426770432	63	4226
2026-01-12 08:18:08.79	114.42	15.24	-48.8	-50.1	15.1	0.00e+00	0	23	0	429916160	63	4261
2026-01-12 08:18:09.79	114.35	15.34	-48.6	-49.9	15.1	0.00e+00	0	23	0	433061888	63	4185
2026-01-12 08:18:10.78	114.27	15.45	-48.7	-50.1	15.1	0.00e+00	0	23	0	436207616	63	4243
2026-01-12 08:18:11.78	114.20	15.55	-48.8	-50.1	15.0	0.00e+00	0	23	0	439353344	63	4272
2026-01-12 08:18:12.78	114.12	15.65	-48.8	-50.2	15.0	0.00e+00	0	23	0	442499072	63	4301
2026-01-12 08:18:13.77	114.05	15.75	-48.9	-50.2	15.0	0.00e+00	0	23	0	445644800	63	4316
2026-01-12 08:18:14.77	113.97	15.86	-48.9	-50.2	15.0	0.00e+00	0	23	0	448790528	63	4338
2026-01-12 08:18:15.76	113.89	15.96	-48.9	-50.3	15.0	0.00e+00	0	23	0	451936256	63	4365
2026-01-12 08:18:16.74	113.82	16.06	-48.9	-50.3	15.0	0.00e+00	0	23	0	455081984	63	4353
2026-01-12 08:18:17.74	113.74	16.16	-48.9	-50.2	15.0	0.00e+00	0	23	0	458227712	63	4317
2026-01-12 08:18:18.74	113.66	16.27	-48.9	-50.2	15.0	0.00e+00	0	23	0	461373440	63	4331
2026-01-12 08:18:19.74	113.58	16.37	-48.8	-50.1	15.0	0.00e+00	0	23	0	464519168	63	4289
2026-01-12 08:18:20.74	113.50	16.48	-48.9	-50.3	15.0	0.00e+00	0	23	0	467664896	63	4359
2026-01-12 08:18:21.73	113.42	16.59	-48.9	-50.3	15.0	0.00e+00	0	23	0	470810624	63	4351
2026-01-12 08:18:22.73	113.34	16.69	-48.8	-50.2	15.0	0.00e+00	0	23	0	473956352	63	4295
2026-01-12 08:18:23.72	113.26	16.80	-48.8	-50.2	15.0	0.00e+00	0	23	0	477102080	63	4306
2026-01-12 08:18:24.71	113.18	16.90	-48.8	-50.2	15.0	0.00e+00	0	23	0	480247808	63	4306
2026-01-12 08:18:25.70	113.09	17.01	-48.8	-50.1	15.1	0.00e+00	0	23	0	483393536	63	4282
2026-01-12 08:18:26.70	113.01	17.12	-48.9	-50.2	15.0	0.00e+00	0	23	0	486539264	63	4313
2026-01-12 08:18:27.69	112.93	17.23	-48.8	-50.1	15.0	0.00e+00	0	23	0	488636416	63	4286
2026-01-12 08:18:28.69	112.84	17.33	-48.8	-50.2	15.1	0.00e+00	0	23	0	491782144	63	4292
2026-01-12 08:18:29.69	112.76	17.44	-48.7	-50.0	15.1	0.00e+00	0	23	0	494927872	63	4217
2026-01-12 08:18:30.69	112.67	17.55	-48.8	-50.1	15.1	0.00e+00	0	23	0	498073600	63	4255
2026-01-12 08:18:31.68	112.59	17.66	-48.8	-50.1	15.1	0.00e+00	0	23	0	501219328	63	4255
2026-01-12 08:18:32.67	112.50	17.77	-48.7	-50.0	15.1	0.00e+00	0	23	0	504365056	63	4225
2026-01-12 08:18:33.66	112.41	17.88	-48.7	-50.0	15.1	0.00e+00	0	23	0	507510784	63	4238
2026-01-12 08:18:34.66	112.32	17.99	-48.8	-50.1	15.1	0.00e+00	0	23	0	510656512	63	4253
2026-01-12 08:18:35.65	112.23	18.10	-48.8	-50.1	15.1	0.00e+00	0	23	0	513802240	63	4265
2026-01-12 08:18:36.65	112.14	18.22	-48.8	-50.1	15.1	0.00e+00	0	23	0	516947968	63	4272
2026-01-12 08:18:37.64	112.05	18.33	-48.8	-50.1	15.0	0.00e+00	0	23	0	520093696	63	4285
2026-01-12 08:18:38.64	111.96	18.44	-48.8	-50.2	15.0	0.00e+00	0	23	0	523239424	63	4297
2026-01-12 08:18:39.63	111.87	18.55	-48.9	-50.3	15.0	0.00e+00	0	23	0	526385152	63	4347
2026-01-12 08:18:40.63	111.78	18.67	-48.9	-50.3	15.0	0.00e+00	0	23	0	529530880	63	4341
2026-01-12 08:18:41.62	111.69	18.78	-48.9	-50.2	15.0	0.00e+00	0	23	0	532676608	63	4337
2026-01-12 08:18:42.62	111.59	18.90	-48.9	-50.2	15.0	0.00e+00	0	23	0	535822336	63	4331
2026-01-12 08:18:43.60	111.50	19.01	-49.0	-50.3	15.0	0.00e+00	0	23	0	538968064	63	4366
2026-01-12 08:18:44.60	111.40	19.12	-49.0	-50.4	14.9	0.00e+00	0	23	0	542113792	63	4405
2026-01-12 08:18:45.60	111.31	19.24	-48.9	-50.3	15.0	0.00e+00	0	23	0	545259520	63	4350
2026-01-12 08:18:46.60	111.21	19.36	-49.0	-50.4	14.9	0.00e+00	0	23	0	548405248	63	4401
2026-01-12 08:18:47.59	111.11	19.47	-48.9	-50.3	15.0	0.00e+00	0	23	0	551550976	63	4344
2026-01-12 08:18:48.58	111.01	19.59	-48.8	-50.1	15.0	0.00e+00	0	23	0	554696704	63	4281
2026-01-12 08:18:49.58	110.91	19.71	-48.8	-50.1	15.1	0.00e+00	0	23	0	557842432	63	4263
2026-01-12 08:18:50.58	110.81	19.83	-48.8	-50.1	15.1	0.00e+00	0	23	0	560988160	63	4255
2026-01-12 08:18:51.57	110.71	19.94	-48.7	-50.0	15.1	0.00e+00	0	23	0	564133888	63	4216
2026-01-12 08:18:52.57	110.61	20.06	-48.7	-50.0	15.1	0.00e+00	0	23	0	567279616	63	4220
2026-01-12 08:18:53.56	110.51	20.18	-48.7	-50.0	15.1	0.00e+00	0	23	0	570425344	63	4231
2026-01-12 08:18:54.56	110.40	20.30	-48.6	-49.8	15.2	0.00e+00	0	23	0	573571072	63	4143
2026-01-12 08:18:55.56	110.30	20.42	-48.4	-49.7	15.3	0.00e+00	0	23	0	575668224	63	4062
2026-01-12 08:18:56.55	110.20	20.54	-48.4	-49.7	15.3	0.00e+00	0	23	0	578813952	63	4076
2026-01-12 08:18:57.54	110.09	20.67	-48.3	-49.6	15.4	0.00e+00	0	23	0	581959680	63	4023
2026-01-12 08:18:58.52	109.99	20.78	-48.3	-49.5	15.4	0.00e+00	0	23	0	585105408	63	3997
2026-01-12 08:18:59.52	109.88	20.91	-48.2	-49.5	15.4	0.00e+00	0	23	0	588251136	63	3968
2026-01-12 08:19:00.51	109.77	21.03	-48.2	-49.5	15.4	0.00e+00	0	23	0	591396864	63	3964
2026-01-12 08:19:01.51	109.66	21.15	-48.1	-49.3	15.3	0.00e+00	0	23	0	594542592	62	4126
2026-01-12 08:19:02.51	109.55	21.28	-48.1	-49.3	15.3	0.00e+00	0	23	0	597688320	62	4129
2026-01-12 08:19:03.50	109.44	21.40	-48.1	-49.3	15.3	0.00e+00	0	23	0	600834048	62	4120
2026-01-12 08:19:04.49	109.33	21.53	-48.1	-49.3	15.3	0.00e+00	0	23	0	603979776	62	4118
2026-01-12 08:19:05.49	109.21	21.65	-47.9	-49.1	15.4	0.00e+00	0	23	0	607125504	62	4047
2026-01-12 08:19:06.49	109.10	21.78	-48.0	-49.2	15.3	0.00e+00	0	23	0	610271232	62	4089
2026-01-12 08:19:07.50	108.98	21.91	-47.8	-49.1	15.4	0.00e+00	0	23	0	613416960	62	4012
2026-01-12 08:19:08.50	108.87	22.03	-47.8	-49.0	15.4	0.00e+00	0	23	0	616562688	62	4004
2026-01-12 08:19:09.49	108.75	22.16	-47.8	-49.0	15.4	0.00e+00	0	23	0	619708416	62	4000
2026-01-12 08:19:10.49	108.63	22.29	-47.8	-49.0	15.4	0.00e+00	0	23	0	622854144	62	3984
2026-01-12 08:19:11.48	108.51	22.42	-47.7	-49.0	15.5	0.00e+00	0	23	0	625999872	62	3959
2026-01-12 08:19:12.48	108.39	22.54	-47.6	-48.8	15.4	0.00e+00	0	23	0	629145600	61	4110
2026-01-12 08:19:13.46	108.28	22.67	-47.5	-48.7	15.4	0.00e+00	0	23	0	632291328	61	4081
2026-01-12 08:19:14.46	108.15	22.80	-47.4	-48.6	15.5	0.00e+00	0	23	0	635437056	61	4027
2026-01-12 08:19:15.45	108.03	22.93	-47.4	-48.6	15.5	0.00e+00	0	23	0	638582784	61	4008
2026-01-12 08:19:16.45	107.91	23.06	-47.4	-48.5	15.5	0.00e+00	0	23	0	641728512	61	3999
2026-01-12 08:19:17.45	107.78	23.20	-47.4	-48.6	15.5	0.00e+00	0	23	0	644874240	61	4025
2026-01-12 08:19:18.44	107.66	23.33	-47.4	-48.6	15.5	0.00e+00	0	23	0	648019968	61	4032
2026-01-12 08:19:19.45	107.53	23.46	-47.3	-48.5	15.5	0.00e+00	0	23	0	651165696	61	3993
2026-01-12 08:19:20.45	107.40	23.59	-47.4	-48.5	15.5	0.00e+00	0	23	0	654311424	61	3996
2026-01-12 08:19:21.44	107.27	23.73	-47.4	-48.6	15.5	0.00e+00	0	23	0	657457152	61	4013
2026-01-12 08:19:22.44	107.14	23.86	-47.4	-48.6	15.5	0.00e+00	0	23	0	660602880	61	4041
2026-01-12 08:19:23.45	107.00	24.00	-47.5	-48.7	15.4	0.00e+00	0	23	0	662700032	61	4077
2026-01-12 08:19:24.44	106.87	24.13	-47.4	-48.6	15.5	0.00e+00	0	23	0	665845760	61	4033
2026-01-12 08:19:25.44	106.74	24.27	-47.5	-48.7	15.5	0.00e+00	0	23	0	668991488	61	4063
2026-01-12 08:19:26.43	106.60	24.40	-47.6	-48.8	15.4	0.00e+00	0	23	0	672137216	61	4103
2026-01-12 08:19:27.42	106.47	24.54	-47.5	-48.6	15.5	0.00e+00	0	23	0	675282944	61	4045
2026-01-12 08:19:28.42	106.33	24.68	-47.6	-48.8	15.4	0.00e+00	0	23	0	678428672	61	4101
2026-01-12 08:19:29.41	106.19	24.81	-47.7	-48.9	15.4	0.00e+00	0	23	0	681574400	61	4167
2026-01-12 08:19:30.41	106.05	24.95	-47.6	-48.8	15.4	0.00e+00	0	23	0	684720128	61	4126
2026-01-12 08:19:31.40	105.91	25.09	-47.7	-48.9	15.3	0.00e+00	0	23	0	687865856	61	4184
2026-01-12 08:19:32.40	105.77	25.23	-47.7	-49.0	15.3	0.00e+00	0	23	0	691011584	61	4208
2026-01-12 08:19:33.38	105.63	25.37	-47.8	-49.0	15.3	0.00e+00	0	23	0	694157312	61	4230
2026-01-12 08:19:34.38	105.48	25.51	-47.9	-49.2	15.3	0.00e+00	0	23	0	697303040	61	4298
2026-01-12 08:19:35.37	105.33	25.65	-47.8	-49.0	15.3	0.00e+00	0	23	0	700448768	61	4218
2026-01-12 08:19:36.37	105.19	25.79	-47.8	-49.0	15.3	0.00e+00	0	23	0	703594496	61	4242
2026-01-12 08:19:37.36	105.04	25.93	-47.8	-49.0	15.3	0.00e+00	0	23	0	706740224	61	4237
2026-01-12 08:19:38.35	104.89	26.07	-47.8	-49.0	15.3	0.00e+00	0	23	0	709885952	61	4203
2026-01-12 08:19:39.34	104.74	26.22	-47.9	-49.1	15.3	0.00e+00	0	23	0	713031680	61	4286
2026-01-12 08:19:40.34	104.58	26.36	-48.1	-49.4	15.2	0.00e+00	0	23	0	716177408	61	4400
2026-01-12 08:19:41.33	104.43	26.50	-48.0	-49.3	15.2	0.00e+00	0	23	0	719323136	61	4356
2026-01-12 08:19:42.33	104.27	26.65	-48.1	-49.4	15.2	0.00e+00	0	23	0	722468864	61	4396
2026-01-12 08:19:43.33	104.11	26.79	-48.1	-49.3	15.2	0.00e+00	0	23	0	725614592	61	4385
2026-01-12 08:19:44.32	103.95	26.94	-48.0	-49.2	15.2	0.00e+00	0	23	0	728760320	61	4326
2026-01-12 08:19:45.32	103.79	27.09	-48.1	-49.3	15.2	0.00e+00	0	23	0	731906048	61	4363
2026-01-12 08:19:46.31	103.63	27.23	-48.0	-49.2	15.2	0.00e+00	0	23	0	735051776	61	4325
2026-01-12 08:19:47.31	103.47	27.38	-48.2	-49.5	15.1	0.00e+00	0	23	0	738197504	61	4442
2026-01-12 08:19:48.30	103.30	27.53	-48.3	-49.6	15.1	0.00e+00	0	23	0	741343232	61	4516
2026-01-12 08:19:49.30	103.14	27.67	-48.4	-49.7	15.1	0.00e+00	0	23	0	744488960	61	4567
2026-01-12 08:19:50.29	102.97	27.82	-48.6	-49.9	15.1	0.00e+00	0	23	0	747634688	62	4416
2026-01-12 08:19:51.29	102.80	27.97	-48.6	-50.0	15.1	0.00e+00	0	23	0	749731840	62	4454
2026-01-12 08:19:52.28	102.63	28.12	-48.5	-49.8	15.1	0.00e+00	0	23	0	752877568	62	4385
2026-01-12 08:19:53.28	102.45	28.27	-48.4	-49.7	15.2	0.00e+00	0	23	0	756023296	62	4300
2026-01-12 08:19:54.26	102.28	28.42	-48.5	-49.7	15.1	0.00e+00	0	23	0	759169024	62	4333
2026-01-12 08:19:55.26	102.10	28.57	-48.5	-49.8	15.1	0.00e+00	0	23	0	762314752	62	4362
2026-01-12 08:19:56.25	101.93	28.72	-48.3	-49.5	15.2	0.00e+00	0	23	0	765460480	62	4217
2026-01-12 08:19:57.25	101.75	28.88	-48.4	-49.6	15.2	0.00e+00	0	23	0	768606208	62	4275
2026-01-12 08:19:58.25	101.56	29.03	-48.5	-49.7	15.1	0.00e+00	0	23	0	771751936	62	4340
2026-01-12 08:19:59.25	101.38	29.18	-48.5	-49.8	15.1	0.00e+00	0	23	0	774897664	62	4355
2026-01-12 08:20:00.24	101.20	29.34	-48.6	-49.9	15.1	0.00e+00	0	23	0	778043392	62	4439
2026-01-12 08:20:01.23	101.01	29.49	-48.7	-50.0	15.0	0.00e+00	0	23	0	781189120	62	4454
2026-01-12 08:20:02.22	100.82	29.65	-48.9	-50.2	14.9	0.00e+00	0	23	0	784334848	62	4578
2026-01-12 08:20:03.21	100.63	29.80	-48.8	-50.2	15.0	0.00e+00	0	23	0	787480576	62	4549
2026-01-12 08:20:04.21	100.44	29.96	-48.6	-49.9	15.1	0.00e+00	0	23	0	790626304	62	4424
2026-01-12 08:20:05.20	100.25	30.11	-48.6	-49.9	15.1	0.00e+00	0	23	0	793772032	62	4428
2026-01-12 08:20:06.20	100.05	30.27	-48.5	-49.8	15.1	0.00e+00	0	23	0	796917760	62	4371
2026-01-12 08:20:07.19	99.85	30.43	-48.4	-49.7	15.2	0.00e+00	0	23	0	800063488	62	4309
2026-01-12 08:20:08.18	99.65	30.58	-48.4	-49.7	15.2	0.00e+00	0	23	0	803209216	62	4295
2026-01-12 08:20:09.18	99.45	30.74	-48.4	-49.6	15.2	0.00e+00	0	23	0	806354944	62	4269
2026-01-12 08:20:10.18	99.25	30.90	-48.4	-49.7	15.2	0.00e+00	0	23	0	809500672	62	4300
2026-01-12 08:20:11.19	99.04	31.06	-48.4	-49.6	15.2	0.00e+00	0	23	0	812646400	62	4277
2026-01-12 08:20:12.19	98.83	31.22	-48.5	-49.8	15.1	0.00e+00	0	23	0	815792128	62	4347
2026-01-12 08:20:13.18	98.62	31.38	-48.6	-49.8	15.1	0.00e+00	0	23	0	818937856	62	4388
2026-01-12 08:20:14.17	98.41	31.54	-48.7	-50.0	15.0	0.00e+00	0	23	0	822083584	62	4470
2026-01-12 08:20:15.16	98.19	31.70	-48.6	-50.0	15.0	0.00e+00	0	23	0	825229312	62	4443
2026-01-12 08:20:16.15	97.98	31.86	-48.7	-50.0	15.0	0.00e+00	0	23	0	828375040	62	4477
2026-01-12 08:20:17.15	97.76	32.02	-48.7	-50.0	15.1	0.00e+00	0	23	0	831520768	62	4447
2026-01-12 08:20:18.15	97.54	32.19	-48.7	-50.1	15.0	0.00e+00	0	23	0	834666496	62	4499
2026-01-12 08:20:19.15	97.31	32.35	-48.5	-49.8	15.1	0.00e+00	0	23	0	836763648	62	4361
2026-01-12 08:20:20.14	97.09	32.51	-48.6	-49.9	15.1	0.00e+00	0	23	0	839909376	62	4397
2026-01-12 08:20:21.13	96.86	32.67	-48.6	-49.8	15.1	0.00e+00	0	23	0	843055104	62	4384
2026-01-12 08:20:22.13	96.63	32.84	-48.6	-49.9	15.1	0.00e+00	0	23	0	846200832	62	4398
2026-01-12 08:20:23.12	96.40	33.00	-48.6	-49.9	15.1	0.00e+00	0	23	0	849346560	62	4423
2026-01-12 08:20:24.11	96.16	33.16	-48.7	-50.0	15.0	0.00e+00	0	23	0	852492288	62	4473
2026-01-12 08:20:25.11	95.92	33.33	-48.7	-50.0	15.1	0.00e+00	0	23	0	855638016	62	4458
2026-01-12 08:20:26.10	95.69	33.49	-48.8	-50.1	15.0	0.00e+00	0	23	0	858783744	62	4543
2026-01-12 08:20:27.10	95.44	33.66	-48.9	-50.2	15.1	0.00e+00	0	23	0	861929472	63	4317
2026-01-12 08:20:28.09	95.20	33.82	-49.0	-50.3	15.0	0.00e+00	0	23	0	865075200	63	4357
2026-01-12 08:20:29.09	94.95	33.99	-49.0	-50.4	15.0	0.00e+00	0	23	0	868220928	63	4404
2026-01-12 08:20:30.08	94.70	34.15	-49.1	-50.5	15.0	0.00e+00	0	23	0	871366656	63	4442
2026-01-12 08:20:31.07	94.45	34.32	-49.2	-50.6	14.9	0.00e+00	0	23	0	874512384	63	4505
2026-01-12 08:20:32.07	94.19	34.49	-49.3	-50.6	14.9	0.00e+00	0	23	0	877658112	63	4539
2026-01-12 08:20:33.07	93.94	34.65	-49.3	-50.6	14.9	0.00e+00	0	23	0	880803840	63	4531
2026-01-12 08:20:34.06	93.68	34.82	-49.5	-50.9	14.9	0.00e+00	0	23	0	883949568	64	4402
2026-01-12 08:20:35.06	93.41	34.99	-49.6	-51.0	14.8	0.00e+00	0	23	0	887095296	64	4483
2026-01-12 08:20:36.05	93.15	35.15	-49.8	-51.2	14.7	0.00e+00	0	23	0	890241024	64	4589
2026-01-12 08:20:37.05	92.88	35.32	-49.9	-51.4	14.6	0.00e+00	0	23	0	893386752	64	4671
2026-01-12 08:20:38.04	92.61	35.49	-50.1	-51.5	14.7	0.00e+00	0	23	0	896532480	65	4493
2026-01-12 08:20:39.04	92.33	35.66	-50.1	-51.6	14.6	0.00e+00	0	23	0	899678208	65	4542
2026-01-12 08:20:40.04	92.05	35.83	-50.0	-51.5	14.7	0.00e+00	0	23	0	902823936	65	4442
2026-01-12 08:20:41.03	91.78	35.99	-49.9	-51.4	14.8	0.00e+00	0	23	0	905969664	65	4396
2026-01-12 08:20:42.02	91.49	36.16	-49.7	-51.1	14.9	0.00e+00	0	23	0	909115392	65	4263
2026-01-12 08:20:43.03	91.20	36.33	-49.6	-51.0	15.0	0.00e+00	0	23	0	912261120	65	4215
2026-01-12 08:20:44.02	90.92	36.50	-49.6	-50.9	15.0	0.00e+00	0	23	0	915406848	65	4189
2026-01-12 08:20:45.01	90.63	36.66	-49.7	-51.1	14.9	0.00e+00	0	23	0	918552576	65	4275
2026-01-12 08:20:46.00	90.33	36.83	-49.8	-51.2	14.9	0.00e+00	0	23	0	921698304	65	4314
2026-01-12 08:20:46.99	90.04	37.00	-49.8	-51.2	14.9	0.00e+00	0	23	0	923795456	65	4317
2026-01-12 08:20:47.99	89.73	37.17	-49.7	-51.1	14.9	0.00e+00	0	23	0	926941184	65	4282
2026-01-12 08:20:48.99	89.43	37.34	-49.8	-51.2	14.8	0.00e+00	0	23	0	930086912	65	4333
2026-01-12 08:20:49.98	89.12	37.50	-49.7	-51.1	14.9	0.00e+00	0	23	0	933232640	65	4248
2026-01-12 08:20:50.98	88.81	37.67	-49.8	-51.2	14.9	0.00e+00	0	23	0	936378368	65	4307
2026-01-12 08:20:51.97	88.50	37.84	-49.7	-51.1	14.9	0.00e+00	0	23	0	939524096	65	4282
2026-01-12 08:20:52.97	88.18	38.01	-49.7	-51.2	14.9	0.00e+00	0	23	0	942669824	65	4298
2026-01-12 08:20:53.96	87.86	38.17	-49.8	-51.2	14.8	0.00e+00	0	23	0	945815552	65	4335
2026-01-12 08:20:54.95	87.54	38.34	-49.8	-51.3	14.8	0.00e+00	0	23	0	948961280	65	4353
2026-01-12 08:20:55.95	87.21	38.51	-49.8	-51.2	14.8	0.00e+00	0	23	0	952107008	65	4330
2026-01-12 08:20:56.95	86.88	38.67	-50.0	-51.4	14.8	0.00e+00	0	23	0	955252736	65	4429
2026-01-12 08:20:57.94	86.55	38.84	-50.1	-51.6	14.7	0.00e+00	0	23	0	958398464	65	4503
2026-01-12 08:20:58.93	86.21	39.01	-50.2	-51.7	14.6	0.00e+00	0	23	0	961544192	65	4557
2026-01-12 08:20:59.92	85.87	39.17	-50.2	-51.7	14.6	0.00e+00	0	23	0	964689920	65	4578
2026-01-12 08:21:00.91	85.53	39.33	-50.2	-51.7	14.6	0.00e+00	0	23	0	967835648	65	4579
2026-01-12 08:21:01.91	85.18	39.50	-50.2	-51.7	14.6	0.00e+00	0	23	0	970981376	65	4587
2026-01-12 08:21:02.89	84.84	39.66	-50.2	-51.7	14.6	0.00e+00	0	23	0	974127104	65	4568
2026-01-12 08:21:03.89	84.48	39.83	-50.0	-51.5	14.7	0.00e+00	0	23	0	977272832	65	4465
2026-01-12 08:21:04.89	84.12	39.99	-50.1	-51.5	14.7	0.00e+00	0	23	0	980418560	65	4488
2026-01-12 08:21:05.88	83.76	40.15	-50.3	-51.8	14.6	0.00e+00	0	23	0	983564288	65	4607
2026-01-12 08:21:06.88	83.39	40.32	-50.5	-52.1	14.6	0.00e+00	0	23	0	986710016	66	4519
2026-01-12 08:21:07.88	83.02	40.48	-50.6	-52.2	14.5	0.00e+00	0	23	0	989855744	66	4550
2026-01-12 08:21:08.87	82.65	40.64	-50.7	-52.3	14.4	0.00e+00	0	23	0	993001472	66	4633
2026-01-12 08:21:09.87	82.27	40.80	-50.9	-52.5	14.3	0.00e+00	0	23	0	996147200	66	4714
2026-01-12 08:21:10.87	81.89	40.96	-50.7	-52.3	14.4	0.00e+00	0	23	0	999292928	66	4625
2026-01-12 08:21:11.86	81.51	41.12	-50.7	-52.3	14.4	0.00e+00	0	23	0	1002438656	66	4619
2026-01-12 08:21:12.85	81.12	41.27	-50.4	-51.9	14.6	0.00e+00	0	23	0	1005584384	66	4412
2026-01-12 08:21:13.84	80.73	41.43	-50.4	-51.9	14.7	7.00e-07	0	23	0	1008730112	66	4393
2026-01-12 08:21:14.83	80.34	41.59	-50.3	-51.8	14.7	0.00e+00	0	23	0	1010827264	66	4359
2026-01-12 08:21:15.82	79.94	41.74	-50.1	-51.5	14.9	0.00e+00	0	23	0	1013972992	66	4227
2026-01-12 08:21:16.81	79.54	41.90	-50.3	-51.7	14.8	0.00e+00	0	23	0	1017118720	66	4316
2026-01-12 08:21:17.81	79.13	42.05	-50.5	-52.0	14.6	0.00e+00	0	23	0	1020264448	66	4444
2026-01-12 08:21:18.80	78.72	42.20	-50.7	-52.2	14.5	0.00e+00	0	23	0	1023410176	66	4579
2026-01-12 08:21:19.79	78.30	42.35	-50.7	-52.2	14.4	0.00e+00	0	23	0	1026555904	66	4591
2026-01-12 08:21:20.79	77.88	42.50	-50.7	-52.3	14.4	0.00e+00	0	23	0	1029701632	66	4616
2026-01-12 08:21:21.79	77.46	42.65	-50.8	-52.4	14.3	0.00e+00	0	23	0	1032847360	66	4702
2026-01-12 08:21:22.78	77.03	42.80	-50.7	-52.3	14.4	0.00e+00	0	23	0	1035993088	66	4631
2026-01-12 08:21:23.78	76.60	42.95	-50.7	-52.3	14.5	0.00e+00	0	23	0	1039138816	66	4629
2026-01-12 08:21:24.77	76.17	43.09	-50.8	-52.4	14.4	0.00e+00	0	23	0	1042284544	66	4670
2026-01-12 08:21:25.77	75.73	43.24	-50.8	-52.3	14.4	0.00e+00	0	23	0	1045430272	66	4641
2026-01-12 08:21:26.77	75.28	43.38	-51.0	-52.6	14.4	0.00e+00	0	23	0	1048576000	67	4501
2026-01-12 08:21:27.77	74.83	43.52	-51.1	-52.7	14.3	0.00e+00	0	23	0	1051721728	67	4581
2026-01-12 08:21:28.77	74.38	43.66	-50.9	-52.5	14.4	0.00e+00	0	23	0	1054867456	67	4485
2026-01-12 08:21:29.77	73.92	43.80	-50.9	-52.5	14.5	0.00e+00	0	23	0	1058013184	67	4474
2026-01-12 08:21:30.76	73.47	43.94	-50.9	-52.5	14.5	0.00e+00	0	23	0	1061158912	67	4447
2026-01-12 08:21:31.76	73.00	44.07	-50.8	-52.4	14.5	0.00e+00	0	23	0	1064304640	67	4412
2026-01-12 08:21:32.75	72.54	44.21	-50.6	-52.2	14.6	0.00e+00	0	23	0	1067450368	67	4306
2026-01-12 08:21:33.74	72.07	44.34	-50.6	-52.1	14.6	0.00e+00	0	23	0	1070596096	67	4255
2026-01-12 08:21:34.74	71.59	44.47	-50.6	-52.1	14.6	0.00e+00	0	23	0	1073741824	67	4260
2026-01-12 08:21:35.73	71.12	44.60	-50.5	-52.0	14.7	0.00e+00	0	23	0	1076887552	67	4224
2026-01-12 08:21:36.73	70.63	44.72	-50.5	-52.0	14.7	0.00e+00	0	23	0	1080033280	67	4238
2026-01-12 08:21:37.71	70.15	44.85	-50.7	-52.3	14.5	0.00e+00	0	23	0	1083179008	67	4369
2026-01-12 08:21:38.71	69.66	44.97	-50.9	-52.5	14.5	0.00e+00	0	23	0	1086324736	67	4444
2026-01-12 08:21:39.70	69.17	45.09	-51.0	-52.6	14.4	0.00e+00	0	23	0	1089470464	67	4529
2026-01-12 08:21:40.70	68.67	45.21	-51.2	-52.9	14.2	0.00e+00	0	23	0	1092616192	67	4673
2026-01-12 08:21:41.69	68.17	45.33	-51.3	-53.0	14.2	0.00e+00	0	23	0	1095761920	67	4758
2026-01-12 08:21:42.69	67.66	45.44	-51.3	-53.1	14.1	0.00e+00	0	23	0	1097859072	67	4765
2026-01-12 08:21:43.69	67.15	45.55	-51.6	-53.3	14.2	0.00e+00	0	23	0	1101004800	68	4643
2026-01-12 08:21:44.68	66.64	45.66	-51.3	-52.9	14.4	0.00e+00	0	23	0	1104150528	68	4432
2026-01-12 08:21:45.68	66.13	45.77	-51.2	-52.8	14.5	0.00e+00	0	23	0	1107296256	68	4391
2026-01-12 08:21:46.68	65.61	45.88	-51.1	-52.7	14.6	0.00e+00	0	23	0	1110441984	68	4308
2026-01-12 08:21:47.66	65.09	45.98	-50.7	-52.2	14.9	0.00e+00	0	23	0	1113587712	68	4077
2026-01-12 08:21:48.65	64.57	46.08	-50.3	-51.7	14.9	0.00e+00	0	23	0	1116733440	67	4094
2026-01-12 08:21:49.64	64.04	46.18	-50.4	-51.9	14.8	0.00e+00	0	23	0	1119879168	67	4176
2026-01-12 08:21:50.63	63.51	46.27	-50.3	-51.7	14.9	0.00e+00	0	23	0	1123024896	67	4098
2026-01-12 08:21:51.62	62.98	46.36	-50.4	-51.8	14.9	0.00e+00	0	23	0	1126170624	67	4126
2026-01-12 08:21:52.62	62.44	46.46	-50.4	-51.9	14.8	0.00e+00	0	23	0	1129316352	67	4158
2026-01-12 08:21:53.61	61.90	46.54	-50.5	-52.0	14.7	0.00e+00	0	23	0	1132462080	67	4207
2026-01-12 08:21:54.60	61.36	46.63	-50.9	-52.4	14.4	0.00e+00	0	23	0	1135607808	67	4437
2026-01-12 08:21:55.59	60.81	46.71	-51.1	-52.7	14.3	0.00e+00	0	23	0	1138753536	67	4591
2026-01-12 08:21:56.58	60.26	46.79	-50.9	-52.4	14.5	0.00e+00	0	23	0	1141899264	67	4427
2026-01-12 08:21:57.58	59.71	46.87	-50.6	-52.1	14.7	0.00e+00	0	23	0	1145044992	67	4276
2026-01-12 08:21:58.58	59.15	46.94	-50.6	-52.1	14.7	0.00e+00	0	23	0	1148190720	67	4283
2026-01-12 08:21:59.57	58.59	47.01	-50.7	-52.2	14.6	0.00e+00	0	23	0	1151336448	67	4330
2026-01-12 08:22:00.55	58.04	47.08	-50.6	-52.2	14.7	0.00e+00	0	23	0	1154482176	67	4304
2026-01-12 08:22:01.55	57.47	47.15	-50.6	-52.1	14.7	0.00e+00	0	23	0	1157627904	67	4259
2026-01-12 08:22:02.55	56.91	47.21	-50.5	-52.0	14.8	0.00e+00	0	23	0	1160773632	67	4195
2026-01-12 08:22:03.54	56.34	47.27	-50.3	-51.8	14.9	0.00e+00	0	23	0	1163919360	67	4120
2026-01-12 08:22:04.53	55.77	47.33	-50.4	-51.9	14.8	0.00e+00	0	23	0	1167065088	67	4157
2026-01-12 08:22:05.52	55.20	47.38	-50.4	-51.9	14.9	0.00e+00	0	23	0	1170210816	67	4163
2026-01-12 08:22:06.52	54.63	47.43	-50.4	-51.9	14.9	0.00e+00	0	23	0	1173356544	67	4178
2026-01-12 08:22:07.51	54.05	47.48	-50.6	-52.1	14.7	0.00e+00	0	23	0	1176502272	67	4264
2026-01-12 08:22:08.50	53.48	47.52	-50.6	-52.1	14.8	0.00e+00	0	23	0	1179648000	67	4257
2026-01-12 08:22:09.50	52.90	47.57	-50.7	-52.2	14.7	0.00e+00	0	23	0	1182793728	67	4310
2026-01-12 08:22:10.49	52.32	47.60	-50.5	-52.0	14.8	0.00e+00	0	23	0	1184890880	67	4241
2026-01-12 08:22:11.48	51.74	47.64	-50.6	-52.2	14.7	0.00e+00	0	23	0	1188036608	67	4300
2026-01-12 08:22:12.48	51.15	47.67	-50.7	-52.2	14.6	0.00e+00	0	23	0	1191182336	67	4339
2026-01-12 08:22:13.47	50.57	47.70	-50.7	-52.2	14.7	0.00e+00	0	23	0	1194328064	67	4336
2026-01-12 08:22:14.47	49.98	47.73	-50.6	-52.1	14.7	0.00e+00	0	23	0	1197473792	67	4289
2026-01-12 08:22:15.45	49.41	47.75	-50.7	-52.3	14.6	0.00e+00	0	23	0	1200619520	67	4360
2026-01-12 08:22:16.44	48.82	47.77	-50.8	-52.4	14.6	0.00e+00	0	23	0	1203765248	67	4410
2026-01-12 08:22:17.44	48.23	47.78	-51.1	-52.7	14.4	0.00e+00	0	23	0	1206910976	67	4591
2026-01-12 08:22:18.44	47.64	47.79	-51.0	-52.6	14.4	0.00e+00	0	23	0	1210056704	67	4543
2026-01-12 08:22:19.44	47.05	47.80	-51.0	-52.6	14.4	0.00e+00	0	23	0	1213202432	67	4508
2026-01-12 08:22:20.42	46.47	47.81	-51.0	-52.7	14.4	0.00e+00	0	23	0	1216348160	67	4561
2026-01-12 08:22:21.42	45.88	47.81	-51.2	-52.8	14.3	0.00e+00	0	23	0	1219493888	67	4638
2026-01-12 08:22:22.42	45.29	47.81	-51.2	-52.8	14.3	0.00e+00	0	23	0	1222639616	67	4643
2026-01-12 08:22:23.41	44.70	47.81	-51.3	-53.1	14.1	0.00e+00	0	23	0	1225785344	67	4775
2026-01-12 08:22:24.41	44.11	47.80	-51.4	-53.1	14.1	0.00e+00	0	23	0	1228931072	67	4793
2026-01-12 08:22:25.41	43.52	47.79	-51.2	-52.9	14.3	0.00e+00	0	23	0	1232076800	67	4662
2026-01-12 08:22:26.40	42.93	47.77	-50.6	-52.1	14.7	0.00e+00	0	23	0	1235222528	67	4256
2026-01-12 08:22:27.40	42.34	47.76	-50.4	-51.9	14.9	0.00e+00	0	23	0	1238368256	67	4147
2026-01-12 08:22:28.39	41.76	47.74	-50.4	-51.9	14.8	0.00e+00	0	23	0	1241513984	67	4188
2026-01-12 08:22:29.38	41.17	47.71	-50.5	-52.0	14.8	0.00e+00	0	23	0	1244659712	67	4242
2026-01-12 08:22:30.37	40.59	47.69	-50.6	-52.1	14.7	0.00e+00	0	23	0	1247805440	67	4279
2026-01-12 08:22:31.38	40.00	47.65	-50.8	-52.4	14.6	0.00e+00	0	23	0	1250951168	67	4413
2026-01-12 08:22:32.37	39.42	47.62	-50.7	-52.3	14.6	0.00e+00	0	23	0	1254096896	67	4349
2026-01-12 08:22:33.36	38.84	47.58	-50.6	-52.1	14.7	0.00e+00	0	23	0	1257242624	67	4289
2026-01-12 08:22:34.36	38.26	47.54	-50.3	-51.8	14.9	0.00e+00	0	23	0	1260388352	67	4129
2026-01-12 08:22:35.36	37.68	47.50	-50.1	-51.6	14.9	0.00e+00	0	23	0	1263534080	66	4246
2026-01-12 08:22:36.35	37.11	47.46	-50.3	-51.8	14.8	0.00e+00	0	23	0	1266679808	66	4355
2026-01-12 08:22:37.35	36.53	47.41	-50.5	-52.0	14.6	0.00e+00	0	23	0	1268776960	66	4461
2026-01-12 08:22:38.34	35.96	47.35	-50.5	-52.1	14.6	0.00e+00	0	23	0	1271922688	66	4505
2026-01-12 08:22:39.33	35.39	47.30	-50.6	-52.1	14.5	0.00e+00	0	23	0	1275068416	66	4526
2026-01-12 08:22:40.32	34.82	47.24	-50.5	-52.1	14.6	0.00e+00	0	23	0	1278214144	66	4503
2026-01-12 08:22:41.31	34.26	47.18	-50.5	-52.0	14.6	0.00e+00	0	23	0	1281359872	66	4450
2026-01-12 08:22:42.31	33.69	47.11	-50.6	-52.1	14.6	0.00e+00	0	23	0	1284505600	66	4529
2026-01-12 08:22:43.30	33.13	47.05	-51.0	-52.6	14.4	0.00e+00	0	23	0	1287651328	67	4511
2026-01-12 08:22:44.30	32.57	46.98	-51.7	-53.4	14.2	0.00e+00	0	23	0	1290797056	68	4698
2026-01-12 08:22:45.30	32.01	46.90	-51.9	-53.7	14.1	0.00e+00	0	23	0	1293942784	69	4598
2026-01-12 08:22:46.28	31.47	46.83	-51.6	-53.3	14.3	0.00e+00	0	23	0	1297088512	69	4386
2026-01-12 08:22:47.27	30.92	46.75	-51.6	-53.2	14.4	0.00e+00	0	23	0	1300234240	69	4334
2026-01-12 08:22:48.27	30.37	46.67	-51.4	-53.0	14.6	0.00e+00	0	23	0	1303379968	69	4213
2026-01-12 08:22:49.26	29.82	46.59	-51.0	-52.6	14.7	0.00e+00	0	23	0	1306525696	68	4246
2026-01-12 08:22:50.26	29.28	46.50	-50.8	-52.3	14.8	0.00e+00	0	23	0	1309671424	68	4125
2026-01-12 08:22:51.24	28.75	46.41	-50.8	-52.3	14.9	0.00e+00	0	23	0	1312817152	68	4132
2026-01-12 08:22:52.23	28.21	46.32	-50.8	-52.3	14.9	0.00e+00	0	23	0	1315962880	68	4104
2026-01-12 08:22:53.22	27.68	46.22	-50.5	-52.0	14.8	0.00e+00	0	23	0	1319108608	67	4194
2026-01-12 08:22:54.22	27.15	46.13	-50.5	-52.0	14.8	0.00e+00	0	23	0	1322254336	67	4207
2026-01-12 08:22:55.22	26.62	46.03	-50.5	-52.0	14.8	0.00e+00	0	23	0	1325400064	67	4215
2026-01-12 08:22:56.21	26.10	45.93	-50.3	-51.8	14.9	0.00e+00	0	23	0	1328545792	67	4124
2026-01-12 08:22:57.20	25.58	45.82	-50.1	-51.5	14.9	0.00e+00	0	23	0	1331691520	66	4215
2026-01-12 08:22:58.20	25.06	45.72	-49.7	-51.1	15.1	0.00e+00	0	23	0	1334837248	66	4024
2026-01-12 08:22:59.19	24.55	45.61	-49.4	-50.8	15.1	0.00e+00	0	23	0	1336934400	65	4102
2026-01-12 08:23:00.18	24.05	45.50	-49.7	-51.1	14.9	0.00e+00	0	23	0	1340080128	65	4260
2026-01-12 08:23:01.18	23.54	45.38	-50.4	-51.9	14.5	0.00e+00	0	23	0	1343225856	65	4673
2026-01-12 08:23:02.18	23.03	45.27	-50.9	-52.5	14.3	0.00e+00	0	23	0	1346371584	66	4741
2026-01-12 08:23:03.17	22.54	45.15	-51.1	-52.8	14.3	0.00e+00	0	23	0	1349517312	67	4618
2026-01-12 08:23:04.17	22.04	45.03	-51.2	-52.8	14.3	0.00e+00	0	23	0	1352663040	67	4630
2026-01-12 08:23:05.17	21.55	44.91	-51.1	-52.7	14.3	0.00e+00	0	23	0	1355808768	67	4592
2026-01-12 08:23:06.17	21.06	44.78	-50.9	-52.4	14.5	0.00e+00	0	23	0	1358954496	67	4426
2026-01-12 08:23:07.16	20.58	44.66	-49.9	-51.3	15.0	0.00e+00	0	23	0	1362100224	66	4108
2026-01-12 08:23:08.16	20.10	44.53	-49.4	-50.7	15.1	0.00e+00	0	23	0	1365245952	65	4080
2026-01-12 08:23:09.15	19.62	44.40	-49.4	-50.7	15.1	0.00e+00	0	23	0	1368391680	65	4083
2026-01-12 08:23:10.16	19.15	44.27	-50.1	-51.5	14.7	0.00e+00	0	23	0	1371537408	65	4467
2026-01-12 08:23:11.15	18.68	44.14	-50.7	-52.2	14.5	0.00e+00	0	23	0	1374683136	66	4546
2026-01-12 08:23:12.14	18.22	44.00	-51.0	-52.6	14.5	0.00e+00	0	23	0	1377828864	67	4495
2026-01-12 08:23:13.14	17.76	43.87	-50.4	-51.8	14.9	0.00e+00	0	23	0	1380974592	67	4129
2026-01-12 08:23:14.14	17.30	43.73	-49.5	-50.8	15.1	0.00e+00	0	23	0	1384120320	65	4131
2026-01-12 08:23:15.13	16.85	43.59	-49.4	-50.7	15.2	0.00e+00	0	23	0	1387266048	65	4065
2026-01-12 08:23:16.13	16.40	43.45	-49.6	-50.9	15.0	0.00e+00	0	23	0	1390411776	65	4193
2026-01-12 08:23:17.12	15.96	43.31	-50.3	-51.7	14.6	0.00e+00	0	23	0	1393557504	65	4581
2026-01-12 08:23:18.12	15.51	43.17	-51.3	-53.0	14.2	0.00e+00	0	23	0	1396703232	67	4716
2026-01-12 08:23:19.11	15.08	43.02	-51.9	-53.7	14.0	0.00e+00	0	23	0	1399848960	68	4822
2026-01-12 08:23:20.11	14.65	42.88	-51.6	-53.3	14.1	0.00e+00	0	23	0	1402994688	68	4640
2026-01-12 08:23:21.10	14.22	42.73	-51.3	-52.9	14.4	0.00e+00	0	23	0	1406140416	68	4417
2026-01-12 08:23:22.10	13.79	42.58	-51.1	-52.6	14.6	0.00e+00	0	23	0	1409286144	68	4275
2026-01-12 08:23:23.09	13.38	42.43	-50.2	-51.6	14.9	0.00e+00	0	23	0	1412431872	67	4032
2026-01-12 08:23:24.09	12.96	42.28	-50.0	-51.4	14.8	0.00e+00	0	23	0	1415577600	66	4151
2026-01-12 08:23:25.08	12.55	42.13	-50.6	-52.1	14.4	0.00e+00	0	23	0	1418723328	66	4520
2026-01-12 08:23:26.07	12.14	41.98	-51.2	-52.9	14.2	0.00e+00	0	23	0	1421869056	67	4678
2026-01-12 08:23:27.07	11.74	41.82	-51.0	-52.6	14.3	0.00e+00	0	23	0	1425014784	67	4520
2026-01-12 08:23:28.06	11.34	41.67	-50.0	-51.4	14.6	0.00e+00	0	23	0	1428160512	66	4171
2026-01-12 08:23:29.06	10.94	41.51	-49.3	-50.6	15.0	0.00e+00	0	23	0	1431306240	65	4012
2026-01-12 08:23:30.06	10.54	41.36	-49.2	-50.5	15.2	0.00e+00	0	23	0	1434451968	65	3965
2026-01-12 08:23:31.05	10.16	41.20	-49.2	-50.5	15.0	0.00e+00	0	23	0	1437597696	64	4212
2026-01-12 08:23:32.04	9.77	41.04	-49.9	-51.3	14.7	0.00e+00	0	23	0	1439694848	64	4602
2026-01-12 08:23:33.04	9.39	40.88	-50.8	-52.4	14.3	0.00e+00	0	23	0	1442840576	66	4669
2026-01-12 08:23:34.04	9.01	40.72	-52.2	-54.1	13.8	0.00e+00	0	23	0	1445986304	69	4796
2026-01-12 08:23:35.04	8.63	40.56	-53.0	-55.2	13.4	0.00e+00	0	23	0	1449132032	71	4860
2026-01-12 08:23:36.04	8.26	40.40	-52.9	-55.0	13.5	0.00e+00	0	23	0	1452277760	71	4736
2026-01-12 08:23:37.04	7.89	40.24	-51.9	-53.7	14.1	0.00e+00	0	23	0	1455423488	70	4300
2026-01-12 08:23:38.03	7.53	40.07	-51.0	-52.6	14.5	0.00e+00	0	23	0	1458569216	68	4274
2026-01-12 08:23:39.03	7.17	39.91	-50.9	-52.4	14.7	0.00e+00	0	23	0	1461714944	68	4151
2026-01-12 08:23:40.03	6.81	39.75	-50.2	-51.6	15.0	0.00e+00	0	23	0	1464860672	67	4029
2026-01-12 08:23:41.02	6.46	39.58	-50.1	-51.5	14.9	0.00e+00	0	23	0	1468006400	66	4212
2026-01-12 08:23:42.02	6.11	39.42	-50.6	-52.1	14.6	0.00e+00	0	23	0	1471152128	66	4497
2026-01-12 08:23:43.01	5.77	39.26	-51.0	-52.6	14.4	0.00e+00	0	23	0	1474297856	67	4524
2026-01-12 08:23:44.01	5.43	39.09	-50.7	-52.2	14.7	0.00e+00	0	23	0	1477443584	67	4319
2026-01-12 08:23:45.01	5.09	38.92	-50.3	-51.7	14.9	0.00e+00	0	23	0	1480589312	67	4091
2026-01-12 08:23:46.00	4.75	38.76	-50.3	-51.7	14.9	0.00e+00	0	23	0	1483735040	67	4084
2026-01-12 08:23:47.00	4.42	38.59	-50.2	-51.6	14.9	0.00e+00	0	23	0	1486880768	67	4039
2026-01-12 08:23:47.99	4.10	38.43	-49.8	-51.2	15.1	0.00e+00	0	23	0	1490026496	66	4064
2026-01-12 08:23:48.99	3.77	38.26	-49.5	-50.9	15.1	0.00e+00	0	23	0	1493172224	65	4162
2026-01-12 08:23:49.98	3.45	38.09	-49.8	-51.2	14.9	0.00e+00	0	23	0	1496317952	65	4304
2026-01-12 08:23:50.98	3.13	37.93	-50.4	-51.9	14.5	0.00e+00	0	23	0	1499463680	65	4705
2026-01-12 08:23:51.97	2.82	37.76	-51.2	-52.9	14.3	0.00e+00	0	23	0	1502609408	67	4693
2026-01-12 08:23:52.96	2.51	37.59	-51.7	-53.4	14.2	0.00e+00	0	23	0	1505755136	68	4687
2026-01-12 08:23:53.95	2.20	37.43	-51.4	-53.1	14.3	0.00e+00	0	23	0	1508900864	68	4537
2026-01-12 08:23:54.95	1.90	37.26	-51.1	-52.6	14.5	0.00e+00	0	23	0	1512046592	68	4287
2026-01-12 08:23:55.95	1.59	37.09	-50.9	-52.5	14.6	0.00e+00	0	23	0	1515192320	68	4195
2026-01-12 08:23:56.94	1.30	36.92	-50.7	-52.2	14.9	0.00e+00	0	23	0	1518338048	68	4057
2026-01-12 08:23:57.94	1.00	36.76	-50.0	-51.4	14.9	0.00e+00	0	23	0	1521483776	66	4184
2026-01-12 08:23:58.94	0.71	36.59	-49.8	-51.2	15.0	0.00e+00	0	23	0	1524629504	66	4067
2026-01-12 08:23:59.93	0.42	36.42	-49.6	-51.0	15.0	0.00e+00	0	23	0	1527775232	65	4204
2026-01-12 08:24:00.92	0.13	36.25	-49.6	-50.9	15.0	0.00e+00	0	23	0	1529872384	65	4193
2026-01-12 08:24:01.92	359.85	36.09	-49.5	-50.9	15.1	0.00e+00	0	23	0	1533018112	65	4153
2026-01-12 08:24:02.91	359.57	35.92	-49.6	-51.0	15.0	0.00e+00	0	23	0	1536163840	65	4218
2026-01-12 08:24:03.91	359.29	35.75	-49.5	-50.9	15.1	0.00e+00	0	23	0	1539309568	65	4154
2026-01-12 08:24:04.90	359.02	35.58	-49.6	-50.9	15.0	0.00e+00	0	23	0	1542455296	65	4178
2026-01-12 08:24:05.90	358.74	35.42	-49.3	-50.6	15.2	0.00e+00	0	23	0	1545601024	65	4037
2026-01-12 08:24:06.89	358.48	35.25	-48.6	-49.9	15.2	0.00e+00	0	23	0	1548746752	63	4149
2026-01-12 08:24:07.88	358.21	35.08	-48.3	-49.5	15.4	0.00e+00	0	23	0	1551892480	63	3981
2026-01-12 08:24:08.88	357.95	34.92	-48.2	-49.4	15.3	0.00e+00	0	23	0	1555038208	62	4165
2026-01-12 08:24:09.88	357.68	34.75	-48.1	-49.3	15.3	0.00e+00	0	23	0	1558183936	62	4135
2026-01-12 08:24:10.88	357.42	34.58	-48.6	-49.8	15.2	0.00e+00	0	23	0	1561329664	62	4372
2026-01-12 08:24:11.88	357.17	34.42	-49.1	-50.5	15.0	0.00e+00	0	23	0	1564475392	63	4449
2026-01-12 08:24:12.86	356.92	34.25	-49.6	-51.1	14.8	0.00e+00	0	23	0	1567621120	64	4496
2026-01-12 08:24:13.86	356.67	34.09	-49.9	-51.3	14.7	0.00e+00	0	23	0	1570766848	64	4636
2026-01-12 08:24:14.85	356.42	33.92	-49.8	-51.3	14.7	0.00e+00	0	23	0	1573912576	64	4618
2026-01-12 08:24:15.84	356.18	33.76	-49.7	-51.2	14.8	0.00e+00	0	23	0	1577058304	64	4553
2026-01-12 08:24:16.83	355.94	33.59	-49.6	-51.0	14.9	0.00e+00	0	23	0	1580204032	64	4445
2026-01-12 08:24:17.83	355.69	33.43	-49.5	-50.9	14.9	0.00e+00	0	23	0	1583349760	64	4404
2026-01-12 08:24:18.82	355.46	33.27	-49.5	-50.9	14.9	0.00e+00	0	23	0	1586495488	64	4394
2026-01-12 08:24:19.82	355.22	33.10	-49.3	-50.6	15.1	0.00e+00	0	23	0	1589641216	64	4270
2026-01-12 08:24:20.82	354.99	32.94	-49.2	-50.5	15.1	0.00e+00	0	23	0	1592786944	64	4213
2026-01-12 08:24:21.81	354.76	32.77	-49.2	-50.6	15.1	0.00e+00	0	23	0	1595932672	64	4250
2026-01-12 08:24:22.80	354.53	32.61	-48.7	-49.9	15.2	0.00e+00	0	23	0	1599078400	63	4172
2026-01-12 08:24:23.80	354.30	32.45	-48.5	-49.7	15.3	0.00e+00	0	23	0	1602224128	63	4098
2026-01-12 08:24:24.79	354.08	32.29	-48.5	-49.8	15.3	0.00e+00	0	23	0	1605369856	63	4113
2026-01-12 08:24:25.79	353.86	32.13	-48.4	-49.7	15.4	0.00e+00	0	23	0	1608515584	63	4057
2026-01-12 08:24:26.79	353.64	31.96	-48.6	-49.9	15.2	0.00e+00	0	23	0	1611661312	63	4178
2026-01-12 08:24:27.78	353.42	31.80	-48.7	-50.0	15.2	0.00e+00	0	23	0	1614807040	63	4225
2026-01-12 08:24:28.78	353.21	31.64	-48.6	-49.8	15.3	0.00e+00	0	23	0	1616904192	63	4133
2026-01-12 08:24:29.77	352.99	31.48	-48.5	-49.8	15.3	0.00e+00	0	23	0	1620049920	63	4100
2026-01-12 08:24:30.77	352.78	31.32	-48.3	-49.6	15.4	0.00e+00	0	23	0	1623195648	63	4017
2026-01-12 08:24:31.76	352.58	31.17	-48.4	-49.6	15.4	0.00e+00	0	23	0	1626341376	63	4044
2026-01-12 08:24:32.75	352.37	31.01	-48.3	-49.5	15.4	0.00e+00	0	23	0	1629487104	63	3968
2026-01-12 08:24:33.74	352.17	30.85	-48.1	-49.4	15.3	0.00e+00	0	23	0	1632632832	62	4148
2026-01-12 08:24:34.74	351.96	30.69	-48.0	-49.2	15.4	0.00e+00	0	23	0	1635778560	62	4090
2026-01-12 08:24:35.74	351.76	30.53	-48.1	-49.3	15.3	0.00e+00	0	23	0	1638924288	62	4123
2026-01-12 08:24:36.74	351.56	30.38	-48.1	-49.4	15.3	0.00e+00	0	23	0	1642070016	62	4149
2026-01-12 08:24:37.74	351.36	30.22	-48.1	-49.3	15.3	0.00e+00	0	23	0	1645215744	62	4125
2026-01-12 08:24:38.73	351.17	30.06	-48.1	-49.3	15.3	0.00e+00	0	23	0	1648361472	62	4130
2026-01-12 08:24:39.72	350.98	29.91	-48.1	-49.3	15.4	0.00e+00	0	23	0	1651507200	62	4136
2026-01-12 08:24:40.72	350.79	29.75	-48.1	-49.3	15.4	0.00e+00	0	23	0	1654652928	62	4106
2026-01-12 08:24:41.72	350.60	29.60	-48.2	-49.4	15.3	0.00e+00	0	23	0	1657798656	62	4172
2026-01-12 08:24:42.71	350.41	29.44	-48.3	-49.5	15.3	0.00e+00	0	23	0	1660944384	62	4224
2026-01-12 08:24:43.70	350.23	29.29	-48.5	-49.7	15.2	0.00e+00	0	23	0	1664090112	62	4315
2026-01-12 08:24:44.69	350.05	29.14	-48.6	-49.9	15.1	0.00e+00	0	23	0	1667235840	62	4415
2026-01-12 08:24:45.69	349.86	28.99	-48.6	-49.9	15.1	0.00e+00	0	23	0	1670381568	62	4414
2026-01-12 08:24:46.68	349.68	28.83	-48.7	-50.0	15.1	0.00e+00	0	23	0	1673527296	62	4447
2026-01-12 08:24:47.68	349.50	28.68	-48.6	-49.9	15.1	0.00e+00	0	23	0	1676673024	62	4421
2026-01-12 08:24:48.67	349.33	28.53	-48.6	-49.9	15.1	0.00e+00	0	23	0	1679818752	62	4418
2026-01-12 08:24:49.67	349.15	28.38	-48.6	-49.9	15.1	0.00e+00	0	23	0	1682964480	62	4406
2026-01-12 08:24:50.65	348.98	28.23	-48.6	-49.9	15.1	0.00e+00	0	23	0	1686110208	62	4399
2026-01-12 08:24:51.65	348.81	28.08	-48.5	-49.8	15.1	0.00e+00	0	23	0	1689255936	62	4361
2026-01-12 08:24:52.63	348.64	27.94	-48.5	-49.8	15.1	0.00e+00	0	23	0	1692401664	62	4373
2026-01-12 08:24:53.63	348.47	27.79	-48.3	-49.5	15.3	0.00e+00	0	23	0	1695547392	62	4207
2026-01-12 08:24:54.63	348.31	27.64	-48.2	-49.5	15.3	0.00e+00	0	23	0	1698693120	62	4198
2026-01-12 08:24:55.63	348.14	27.49	-48.0	-49.3	15.4	0.00e+00	0	23	0	1701838848	62	4103
2026-01-12 08:24:56.63	347.98	27.34	-48.0	-49.2	15.4	0.00e+00	0	23	0	1703936000	62	4063
2026-01-12 08:24:57.63	347.81	27.20	-47.9	-49.1	15.4	0.00e+00	0	23	0	1707081728	62	4043
2026-01-12 08:24:58.63	347.65	27.05	-47.8	-49.0	15.5	0.00e+00	0	23	0	1710227456	62	3994
2026-01-12 08:24:59.62	347.49	26.90	-47.7	-48.9	15.5	0.00e+00	0	23	0	1713373184	62	3929
2026-01-12 08:25:00.59	347.34	26.76	-47.6	-48.8	15.4	0.00e+00	0	23	0	1716518912	61	4122
2026-01-12 08:25:01.58	347.18	26.62	-47.7	-48.8	15.4	0.00e+00	0	23	0	1719664640	61	4140
2026-01-12 08:25:02.57	347.03	26.48	-47.7	-48.9	15.4	0.00e+00	0	23	0	1722810368	61	4153
2026-01-12 08:25:03.56	346.88	26.33	-47.7	-48.9	15.4	0.00e+00	0	23	0	1725956096	61	4180
2026-01-12 08:25:04.56	346.72	26.19	-47.9	-49.1	15.3	0.00e+00	0	23	0	1729101824	61	4256
2026-01-12 08:25:05.56	346.57	26.05	-47.9	-49.1	15.3	0.00e+00	0	23	0	1732247552	61	4254
2026-01-12 08:25:06.55	346.42	25.91	-48.1	-49.3	15.2	0.00e+00	0	23	0	1735393280	61	4375
2026-01-12 08:25:07.55	346.28	25.77	-48.2	-49.4	15.2	0.00e+00	0	23	0	1738539008	61	4423
2026-01-12 08:25:08.53	346.13	25.63	-48.4	-49.6	15.1	0.00e+00	0	23	0	1741684736	61	4528
2026-01-12 08:25:09.53	345.99	25.49	-48.5	-49.8	15.1	0.00e+00	0	23	0	1744830464	62	4365
2026-01-12 08:25:10.52	345.84	25.35	-48.7	-50.0	15.1	0.00e+00	0	23	0	1747976192	62	4451
2026-01-12 08:25:11.52	345.70	25.21	-48.7	-50.0	15.1	0.00e+00	0	23	0	1751121920	62	4482
2026-01-12 08:25:12.51	345.56	25.07	-48.6	-50.0	15.1	0.00e+00	0	23	0	1754267648	62	4453
2026-01-12 08:25:13.50	345.42	24.93	-48.6	-49.9	15.1	0.00e+00	0	23	0	1757413376	62	4434
2026-01-12 08:25:14.50	345.28	24.79	-48.6	-49.9	15.1	0.00e+00	0	23	0	1760559104	62	4423
2026-01-12 08:25:15.49	345.14	24.66	-48.6	-49.9	15.1	0.00e+00	0	23	0	1763704832	62	4425
2026-01-12 08:25:16.49	345.01	24.52	-48.6	-49.9	15.1	0.00e+00	0	23	0	1766850560	62	4397
2026-01-12 08:25:17.48	344.87	24.39	-48.6	-49.9	15.1	0.00e+00	0	23	0	1769996288	62	4393
2026-01-12 08:25:18.48	344.74	24.25	-48.5	-49.7	15.2	0.00e+00	0	23	0	1773142016	62	4340
2026-01-12 08:25:19.47	344.60	24.12	-48.3	-49.5	15.3	0.00e+00	0	23	0	1776287744	62	4239
2026-01-12 08:25:20.47	344.47	23.98	-48.2	-49.5	15.3	0.00e+00	0	23	0	1779433472	62	4229
2026-01-12 08:25:21.46	344.34	23.85	-48.3	-49.5	15.3	0.00e+00	0	23	0	1782579200	62	4233
2026-01-12 08:25:22.45	344.21	23.72	-48.2	-49.5	15.3	0.00e+00	0	23	0	1785724928	62	4233
2026-01-12 08:25:23.45	344.08	23.58	-48.2	-49.5	15.3	0.00e+00	0	23	0	1787822080	62	4199
2026-01-12 08:25:24.44	343.96	23.45	-48.3	-49.6	15.2	0.00e+00	0	23	0	1790967808	62	4249
2026-01-12 08:25:25.44	343.83	23.32	-48.2	-49.5	15.3	0.00e+00	0	23	0	1794113536	62	4226
2026-01-12 08:25:26.44	343.71	23.19	-48.1	-49.4	15.3	0.00e+00	0	23	0	1797259264	62	4167
2026-01-12 08:25:27.44	343.58	23.06	-48.1	-49.3	15.3	0.00e+00	0	23	0	1800404992	62	4127
2026-01-12 08:25:28.43	343.46	22.93	-48.0	-49.2	15.4	0.00e+00	0	23	0	1803550720	62	4079
2026-01-12 08:25:29.43	343.34	22.80	-47.9	-49.1	15.4	0.00e+00	0	23	0	1806696448	62	4042
2026-01-12 08:25:30.43	343.22	22.67	-48.0	-49.2	15.4	0.00e+00	0	23	0	1809842176	62	4080
2026-01-12 08:25:31.43	343.09	22.54	-48.0	-49.2	15.4	0.00e+00	0	23	0	1812987904	62	4073
2026-01-12 08:25:32.42	342.98	22.41	-48.1	-49.3	15.3	0.00e+00	0	23	0	1816133632	62	4123
2026-01-12 08:25:33.41	342.86	22.28	-48.1	-49.3	15.3	0.00e+00	0	23	0	1819279360	62	4137
2026-01-12 08:25:34.40	342.74	22.16	-48.2	-49.4	15.3	0.00e+00	0	23	0	1822425088	62	4161
2026-01-12 08:25:35.39	342.63	22.03	-48.2	-49.5	15.3	0.00e+00	0	23	0	1825570816	62	4195
2026-01-12 08:25:36.39	342.51	21.90	-48.3	-49.5	15.2	0.00e+00	0	23	0	1828716544	62	4238
2026-01-12 08:25:37.39	342.40	21.78	-48.3	-49.5	15.2	0.00e+00	0	23	0	1831862272	62	4218
2026-01-12 08:25:38.38	342.29	21.65	-48.3	-49.5	15.2	0.00e+00	0	23	0	1835008000	62	4219
2026-01-12 08:25:39.38	342.17	21.53	-48.2	-49.5	15.2	0.00e+00	0	23	0	1838153728	62	4212
2026-01-12 08:25:40.38	342.06	21.40	-48.1	-49.3	15.3	0.00e+00	0	23	0	1841299456	62	4137
2026-01-12 08:25:41.37	341.95	21.28	-48.1	-49.4	15.2	0.00e+00	0	23	0	1844445184	62	4165
2026-01-12 08:25:42.37	341.84	21.16	-48.2	-49.4	15.2	0.00e+00	0	23	0	1847590912	62	4165
2026-01-12 08:25:43.36	341.74	21.03	-48.2	-49.4	15.2	0.00e+00	0	23	0	1850736640	62	4187
2026-01-12 08:25:44.35	341.63	20.91	-48.0	-49.2	15.3	0.00e+00	0	23	0	1853882368	62	4073
2026-01-12 08:25:45.34	341.52	20.79	-47.9	-49.1	15.4	0.00e+00	0	23	0	1857028096	62	4043
2026-01-12 08:25:46.34	341.42	20.67	-47.8	-49.0	15.4	0.00e+00	0	23	0	1860173824	62	3981
2026-01-12 08:25:47.33	341.31	20.55	-47.7	-48.9	15.5	0.00e+00	0	23	0	1863319552	62	3941
2026-01-12 08:25:48.32	341.21	20.43	-47.7	-48.9	15.5	0.00e+00	0	23	0	1866465280	62	3936
2026-01-12 08:25:49.32	341.10	20.31	-47.6	-48.7	15.4	0.00e+00	0	23	0	1869611008	61	4087
2026-01-12 08:25:50.32	341.00	20.19	-47.5	-48.7	15.4	0.00e+00	0	23	0	1872756736	61	4081
2026-01-12 08:25:51.32	340.90	20.07	-47.7	-48.8	15.4	0.00e+00	0	23	0	1875902464	61	4140
2026-01-12 08:25:52.32	340.80	19.95	-47.6	-48.8	15.4	0.00e+00	0	23	0	1877999616	61	4134
2026-01-12 08:25:53.30	340.70	19.84	-47.7	-48.9	15.4	0.00e+00	0	23	0	1881145344	61	4155
2026-01-12 08:25:54.30	340.60	19.72	-47.8	-48.9	15.3	0.00e+00	0	23	0	1884291072	61	4193
2026-01-12 08:25:55.29	340.50	19.60	-47.9	-49.1	15.3	0.00e+00	0	23	0	1887436800	61	4249
2026-01-12 08:25:56.28	340.41	19.49	-48.0	-49.2	15.2	0.00e+00	0	23	0	1890582528	61	4300
2026-01-12 08:25:57.28	340.31	19.37	-48.1	-49.4	15.2	0.00e+00	0	23	0	1893728256	61	4402
2026-01-12 08:25:58.27	340.21	19.25	-48.1	-49.4	15.2	0.00e+00	0	23	0	1896873984	61	4400
2026-01-12 08:25:59.27	340.12	19.14	-48.2	-49.4	15.1	0.00e+00	0	23	0	1900019712	61	4435
2026-01-12 08:26:00.26	340.02	19.02	-48.3	-49.6	15.1	0.00e+00	0	23	0	1903165440	61	4496
2026-01-12 08:26:01.24	339.93	18.91	-48.3	-49.6	15.1	0.00e+00	0	23	0	1906311168	61	4494
2026-01-12 08:26:02.23	339.84	18.80	-48.5	-49.7	15.1	0.00e+00	0	23	0	1909456896	62	4331
2026-01-12 08:26:03.22	339.75	18.69	-48.4	-49.7	15.1	0.00e+00	0	23	0	1912602624	62	4298
2026-01-12 08:26:04.22	339.65	18.57	-48.4	-49.7	15.1	0.00e+00	0	23	0	1915748352	62	4319
2026-01-12 08:26:05.21	339.56	18.46	-48.5	-49.7	15.1	0.00e+00	0	23	0	1918894080	62	4340
2026-01-12 08:26:06.19	339.47	18.35	-48.4	-49.7	15.1	0.00e+00	0	23	0	1922039808	62	4301
2026-01-12 08:26:07.18	339.39	18.24	-48.5	-49.7	15.1	0.00e+00	0	23	0	1925185536	62	4327
2026-01-12 08:26:08.18	339.30	18.13	-48.5	-49.7	15.1	0.00e+00	0	23	0	1928331264	62	4333
2026-01-12 08:26:09.18	339.21	18.02	-48.5	-49.7	15.1	0.00e+00	0	23	0	1931476992	62	4335
2026-01-12 08:26:10.17	339.12	17.91	-48.5	-49.7	15.1	0.00e+00	0	23	0	1934622720	62	4325
2026-01-12 08:26:11.16	339.03	17.80	-48.4	-49.7	15.1	0.00e+00	0	23	0	1937768448	62	4325
2026-01-12 08:26:12.15	338.95	17.69	-48.5	-49.8	15.1	0.00e+00	0	23	0	1940914176	62	4350
2026-01-12 08:26:13.15	338.86	17.58	-48.5	-49.8	15.1	0.00e+00	0	23	0	1943011328	62	4346
2026-01-12 08:26:14.14	338.78	17.47	-48.5	-49.8	15.1	0.00e+00	0	23	0	1946157056	62	4361
2026-01-12 08:26:15.13	338.69	17.36	-48.5	-49.8	15.1	0.00e+00	0	23	0	1949302784	62	4362
2026-01-12 08:26:16.13	338.61	17.25	-48.5	-49.8	15.1	0.00e+00	0	23	0	1952448512	62	4370
2026-01-12 08:26:17.12	338.53	17.15	-48.5	-49.8	15.1	0.00e+00	0	23	0	1955594240	62	4359
2026-01-12 08:26:18.12	338.44	17.04	-48.6	-49.9	15.0	0.00e+00	0	23	0	1958739968	62	4406
2026-01-12 08:26:19.12	338.36	16.93	-48.5	-49.7	15.1	0.00e+00	0	23	0	1961885696	62	4330
2026-01-12 08:26:20.11	338.28	16.83	-48.5	-49.8	15.1	0.00e+00	0	23	0	1965031424	62	4346
2026-01-12 08:26:21.10	338.20	16.72	-48.4	-49.7	15.1	0.00e+00	0	23	0	1968177152	62	4292
2026-01-12 08:26:22.10	338.12	16.61	-48.3	-49.6	15.2	0.00e+00	0	23	0	1971322880	62	4250
2026-01-12 08:26:23.10	338.04	16.51	-48.4	-49.6	15.1	0.00e+00	0	23	0	1974468608	62	4290
2026-01-12 08:26:24.10	337.96	16.40	-48.4	-49.6	15.1	0.00e+00	0	23	0	1977614336	62	4280
2026-01-12 08:26:25.09	337.88	16.30	-48.4	-49.7	15.1	0.00e+00	0	23	0	1980760064	62	4297
2026-01-12 08:26:26.08	337.81	16.20	-48.4	-49.6	15.1	0.00e+00	0	23	0	1983905792	62	4279
2026-01-12 08:26:27.08	337.73	16.09	-48.4	-49.7	15.1	0.00e+00	0	23	0	1987051520	62	4310
2026-01-12 08:26:28.07	337.65	15.99	-48.5	-49.7	15.1	0.00e+00	0	23	0	1990197248	62	4327
2026-01-12 08:26:29.07	337.57	15.89	-48.5	-49.7	15.1	0.00e+00	0	23	0	1993342976	62	4329
2026-01-12 08:26:30.06	337.50	15.78	-48.5	-49.7	15.1	0.00e+00	0	23	0	1996488704	62	4328
2026-01-12 08:26:31.06	337.42	15.68	-48.5	-49.8	15.1	0.00e+00	0	23	0	1999634432	62	4343
2026-01-12 08:26:32.05	337.35	15.58	-48.6	-49.9	15.0	0.00e+00	0	23	0	2002780160	62	4417
2026-01-12 08:26:33.04	337.28	15.48	-48.7	-50.0	15.0	0.00e+00	0	23	0	2005925888	62	4447
2026-01-12 08:26:34.04	337.20	15.38	-48.8	-50.1	14.9	0.00e+00	0	23	0	2009071616	62	4508
2026-01-12 08:26:35.04	337.13	15.28	-48.7	-50.0	15.0	0.00e+00	0	23	0	2012217344	62	4489
2026-01-12 08:26:36.03	337.06	15.18	-48.8	-50.1	14.9	0.00e+00	0	23	0	2015363072	62	4517
2026-01-12 08:26:37.01	336.99	15.08	-48.9	-50.2	14.9	0.00e+00	0	23	0	2018508800	62	4570
2026-01-12 08:26:38.01	336.91	14.98	-48.9	-50.2	14.9	0.00e+00	0	23	0	2021654528	62	4598
2026-01-12 08:26:39.00	336.84	14.88	-48.9	-50.3	15.0	0.00e+00	0	23	0	2024800256	63	4349
2026-01-12 08:26:40.00	336.77	14.78	-49.0	-50.4	14.9	0.00e+00	0	23	0	2027945984	63	4417
2026-01-12 08:26:40.99	336.70	14.68	-49.1	-50.5	14.9	0.00e+00	0	23	0	2030043136	63	4447
2026-01-12 08:26:41.99	336.63	14.58	-49.1	-50.5	14.9	0.00e+00	0	23	0	2033188864	63	4453
2026-01-12 08:26:42.98	336.57	14.49	-49.2	-50.6	14.8	0.00e+00	0	23	0	2036334592	63	4542
2026-01-12 08:26:43.97	336.50	14.39	-49.2	-50.6	14.8	0.00e+00	0	23	0	2039480320	63	4534
