passes_logs/2026/01/12/R3.2S_Murmansk/R3.2S_Murmansk__20260112_083031_AQUA_rec.log

#Pass ID: 20260112_083031_AQUA
#Satellite: AQUA
#Configuration: AQUA
#almurnet v.1.7.20251203
#Start time: 2026-01-12 08:30:32

#Version: 2.2.20231116
#Station: R3.2S_Murmansk
#Location: 33.079688 lon 68.888172 lat
#TLE: 1 27424U 02022A   26011.60158398  .00001056  00000+0  22133-3 0  9990
#TLE: 2 27424  98.4078 337.9720 0002034  82.3051 337.8743 14.61815760260390

#Time	Az	El	Level	Level2	SNR	BER	BlckErr	Temp	State	Recorded	gain1	gain2
2026-01-12 08:30:32.15	87.75	2.01	-56.8	-76.1	3.8	7.46e-01	0	23	0	0	82	33017
2026-01-12 08:30:33.13	87.68	2.07	-56.7	-76.0	3.8	7.47e-01	0	23	104	0	81	34626
2026-01-12 08:30:34.12	87.62	2.13	-56.7	-76.0	3.8	7.47e-01	0	23	104	0	81	34698
2026-01-12 08:30:35.10	87.55	2.19	-56.7	-76.0	3.8	7.47e-01	0	23	104	0	81	34582
2026-01-12 08:30:36.09	87.48	2.25	-56.7	-76.0	3.8	7.43e-01	0	23	104	0	81	34588
2026-01-12 08:30:37.08	87.41	2.31	-56.7	-76.0	3.8	7.48e-01	0	23	104	0	81	34544
2026-01-12 08:30:38.06	87.34	2.36	-56.7	-76.0	3.8	7.46e-01	0	23	104	0	81	34605
2026-01-12 08:30:39.05	87.27	2.42	-56.7	-76.0	3.8	7.45e-01	0	23	104	0	81	34695
2026-01-12 08:30:40.03	87.21	2.48	-56.7	-76.0	3.8	7.46e-01	0	23	104	0	81	34651
2026-01-12 08:30:41.02	87.14	2.54	-56.7	-76.0	3.8	7.48e-01	0	23	104	0	81	34643
2026-01-12 08:30:42.00	87.07	2.60	-56.7	-75.9	3.8	7.43e-01	0	23	104	0	81	34357
2026-01-12 08:30:42.99	87.00	2.66	-56.7	-75.8	3.8	7.46e-01	0	23	104	0	81	34012
2026-01-12 08:30:43.98	86.92	2.72	-56.7	-75.8	3.8	7.46e-01	0	23	104	0	81	33708
2026-01-12 08:30:44.96	86.85	2.78	-56.7	-75.7	3.8	7.44e-01	0	23	104	0	81	33319
2026-01-12 08:30:45.95	86.78	2.84	-56.7	-75.6	3.8	7.45e-01	0	23	104	0	81	32990
2026-01-12 08:30:46.94	86.71	2.90	-56.7	-75.5	3.8	7.47e-01	0	23	104	0	81	32845
2026-01-12 08:30:47.92	86.64	2.96	-56.7	-75.6	3.8	7.46e-01	0	23	104	0	81	33080
2026-01-12 08:30:48.90	86.57	3.02	-56.7	-75.6	3.8	7.50e-01	0	23	104	0	81	33235
2026-01-12 08:30:49.89	86.49	3.08	-56.7	-75.7	3.8	7.43e-01	0	23	104	0	81	33379
2026-01-12 08:30:50.87	86.42	3.14	-56.7	-75.7	3.8	7.48e-01	0	23	104	0	81	33411
2026-01-12 08:30:51.86	86.35	3.20	-56.7	-75.7	3.8	7.48e-01	0	23	104	0	81	33678
2026-01-12 08:30:52.84	86.27	3.27	-56.7	-75.9	3.8	7.42e-01	0	23	104	0	81	34278
2026-01-12 08:30:53.83	86.20	3.33	-56.7	-75.9	3.8	7.45e-01	0	23	104	0	81	34460
2026-01-12 08:30:54.81	86.13	3.39	-56.7	-75.9	3.8	7.47e-01	0	23	104	0	81	34458
2026-01-12 08:30:55.80	86.05	3.45	-56.7	-75.9	3.8	7.46e-01	0	23	104	0	81	34379
2026-01-12 08:30:56.80	85.97	3.51	-56.7	-75.9	3.8	7.44e-01	0	23	104	0	81	34100
2026-01-12 08:30:57.79	85.90	3.57	-56.7	-75.8	3.8	7.45e-01	0	23	104	0	81	33747
2026-01-12 08:30:58.78	85.82	3.63	-56.7	-75.7	3.8	7.46e-01	0	23	104	0	81	33547
2026-01-12 08:30:59.77	85.75	3.70	-56.7	-75.7	3.8	7.48e-01	0	23	104	0	81	33314
2026-01-12 08:31:00.76	85.67	3.76	-56.7	-75.7	3.8	7.49e-01	0	23	104	0	81	33533
2026-01-12 08:31:01.75	85.59	3.82	-56.7	-75.8	3.8	7.48e-01	0	23	104	0	81	33729
2026-01-12 08:31:02.74	85.51	3.88	-56.7	-75.6	3.8	7.48e-01	0	23	104	0	81	33087
2026-01-12 08:31:03.73	85.44	3.94	-56.7	-75.4	3.8	7.46e-01	0	23	104	0	81	32270
2026-01-12 08:31:04.71	85.36	4.01	-56.7	-75.0	3.8	7.49e-01	0	23	104	0	81	30810
2026-01-12 08:31:05.70	85.28	4.07	-56.6	-74.7	3.8	7.44e-01	0	23	104	0	81	29858
2026-01-12 08:31:06.69	85.20	4.13	-56.6	-74.4	3.8	7.48e-01	0	23	104	0	81	28727
2026-01-12 08:31:07.68	85.12	4.19	-56.6	-74.5	3.9	7.45e-01	0	23	104	0	81	29251
2026-01-12 08:31:08.66	85.04	4.26	-56.6	-75.0	3.8	7.45e-01	0	23	104	0	81	30757
2026-01-12 08:31:09.66	84.96	4.32	-56.7	-75.5	3.8	7.45e-01	0	23	104	0	81	32727
2026-01-12 08:31:10.65	84.88	4.38	-56.7	-75.9	3.8	7.47e-01	0	23	104	0	81	34389
2026-01-12 08:31:11.65	84.80	4.45	-56.7	-75.3	3.8	7.47e-01	0	23	104	0	81	31926
2026-01-12 08:31:12.63	84.72	4.51	-56.6	-73.1	3.9	7.38e-01	0	23	104	0	81	24973
2026-01-12 08:31:13.63	84.63	4.57	-56.5	-70.0	5.1	7.06e-01	0	23	104	0	81	17351
2026-01-12 08:31:14.61	84.55	4.64	-56.4	-67.8	6.6	6.68e-01	92	23	0	1048576	81	13451
2026-01-12 08:31:15.61	84.47	4.70	-56.2	-65.9	8.3	6.38e-01	1	23	0	2621440	81	10786
2026-01-12 08:31:16.60	84.39	4.76	-56.0	-64.7	9.4	6.29e-01	0	23	0	4718592	81	9458
2026-01-12 08:31:17.58	84.30	4.83	-55.8	-63.3	10.5	6.19e-01	0	23	0	6291456	80	8530
2026-01-12 08:31:18.56	84.22	4.89	-55.5	-62.0	11.6	6.10e-01	0	23	0	8388608	80	7366
2026-01-12 08:31:19.55	84.14	4.95	-55.2	-61.3	12.1	6.12e-01	0	23	0	9961472	79	7168
2026-01-12 08:31:20.53	84.05	5.02	-55.1	-60.9	12.5	6.09e-01	0	23	0	12058624	79	6831
2026-01-12 08:31:21.51	83.97	5.08	-55.0	-60.3	12.9	6.09e-01	0	23	0	13631488	79	6354
2026-01-12 08:31:22.51	83.88	5.15	-55.5	-62.1	11.7	6.12e-01	0	23	0	15728640	79	7890
2026-01-12 08:31:23.49	83.80	5.21	-55.1	-60.8	12.3	6.08e-01	0	23	0	17825792	79	6743
2026-01-12 08:31:24.48	83.71	5.27	-54.2	-58.4	13.8	6.06e-01	0	23	0	19398656	77	5783
2026-01-12 08:31:25.47	83.62	5.34	-54.6	-59.5	13.6	6.07e-01	0	23	0	21495808	76	6942
2026-01-12 08:31:26.45	83.54	5.40	-55.5	-62.0	11.0	6.12e-01	0	23	104	22020096	80	7328
2026-01-12 08:31:27.43	83.45	5.47	-52.1	-54.9	15.3	6.07e-01	0	23	0	23592960	73	4850
2026-01-12 08:31:28.43	83.36	5.53	-51.9	-54.6	15.5	6.07e-01	0	23	0	25165824	73	4683
2026-01-12 08:31:29.41	83.27	5.60	-51.5	-53.9	15.6	6.07e-01	0	23	0	27262976	72	4593
2026-01-12 08:31:30.39	83.18	5.66	-51.0	-53.3	15.7	6.04e-01	0	23	0	28835840	71	4540
2026-01-12 08:31:31.38	83.10	5.73	-51.2	-53.5	15.7	6.06e-01	0	23	0	30932992	71	4618
2026-01-12 08:31:32.36	83.01	5.79	-51.0	-53.3	15.8	6.04e-01	0	23	0	32505856	71	4506
2026-01-12 08:31:33.35	82.92	5.86	-50.9	-53.2	15.8	6.05e-01	0	23	0	34603008	71	4475
2026-01-12 08:31:34.34	82.82	5.92	-50.8	-53.0	15.7	6.04e-01	0	23	0	36700160	70	4642
2026-01-12 08:31:35.32	82.73	5.99	-50.9	-53.1	15.6	6.07e-01	0	23	0	38273024	70	4692
2026-01-12 08:31:36.30	82.64	6.06	-50.8	-53.0	15.7	6.07e-01	0	23	0	40370176	70	4650
2026-01-12 08:31:37.28	82.55	6.12	-50.6	-52.8	15.8	6.05e-01	0	23	0	41943040	70	4512
2026-01-12 08:31:38.26	82.46	6.19	-50.7	-52.8	15.8	6.06e-01	0	23	0	43515904	70	4533
2026-01-12 08:31:39.25	82.37	6.25	-50.5	-52.6	15.9	6.05e-01	0	23	0	45613056	70	4396
2026-01-12 08:31:40.23	82.27	6.32	-50.3	-52.4	15.8	6.07e-01	0	23	0	47185920	69	4553
2026-01-12 08:31:41.22	82.18	6.39	-50.3	-52.3	15.8	6.06e-01	0	23	0	49283072	69	4529
2026-01-12 08:31:42.21	82.08	6.45	-50.3	-52.4	15.8	6.07e-01	0	23	0	51380224	69	4571
2026-01-12 08:31:43.19	81.99	6.52	-50.3	-52.4	15.8	6.06e-01	0	23	0	52953088	69	4571
2026-01-12 08:31:44.19	81.89	6.59	-50.4	-52.5	15.8	6.07e-01	0	23	0	55050240	69	4602
2026-01-12 08:31:45.17	81.80	6.65	-50.2	-52.2	15.9	6.05e-01	0	23	0	56623104	69	4481
2026-01-12 08:31:46.16	81.70	6.72	-50.1	-52.1	15.9	6.07e-01	0	23	0	58720256	69	4432
2026-01-12 08:31:47.15	81.60	6.79	-50.1	-52.1	15.9	6.07e-01	0	23	0	60293120	69	4423
2026-01-12 08:31:48.14	81.51	6.85	-50.1	-52.1	15.9	6.09e-01	0	23	0	62390272	69	4429
2026-01-12 08:31:49.12	81.41	6.92	-50.1	-52.2	15.9	6.08e-01	0	23	0	63963136	69	4451
2026-01-12 08:31:50.11	81.31	6.99	-50.1	-52.1	15.9	6.02e-01	0	23	0	66060288	69	4422
2026-01-12 08:31:51.10	81.21	7.06	-50.1	-52.1	15.9	6.06e-01	0	23	0	67633152	69	4427
2026-01-12 08:31:52.08	81.11	7.12	-50.0	-52.0	16.0	6.06e-01	0	23	0	69730304	69	4351
2026-01-12 08:31:53.06	81.01	7.19	-50.1	-52.0	16.0	6.06e-01	0	23	0	71303168	69	4383
2026-01-12 08:31:54.04	80.91	7.26	-50.1	-52.1	15.9	6.04e-01	0	23	0	73400320	69	4411
2026-01-12 08:31:55.03	80.81	7.33	-50.0	-51.9	16.0	6.05e-01	0	23	0	74973184	69	4337
2026-01-12 08:31:56.03	80.71	7.40	-49.9	-51.9	16.1	6.05e-01	0	23	0	77070336	69	4294
2026-01-12 08:31:57.02	80.61	7.47	-49.8	-51.8	15.9	6.07e-01	0	23	0	79167488	68	4499
2026-01-12 08:31:58.02	80.50	7.54	-49.7	-51.7	15.9	6.06e-01	0	23	0	80740352	68	4451
2026-01-12 08:31:59.02	80.40	7.60	-49.9	-51.9	15.8	6.06e-01	0	23	0	82837504	68	4581
2026-01-12 08:32:00.01	80.29	7.67	-49.7	-51.6	16.0	6.08e-01	0	23	0	84410368	68	4401
2026-01-12 08:32:01.00	80.19	7.74	-49.7	-51.6	15.9	6.06e-01	0	23	0	86507520	68	4433
2026-01-12 08:32:01.99	80.09	7.81	-49.7	-51.6	16.0	6.07e-01	0	23	0	88080384	68	4406
2026-01-12 08:32:02.99	79.98	7.88	-49.7	-51.6	16.0	6.06e-01	0	23	0	90177536	68	4409
2026-01-12 08:32:03.98	79.87	7.95	-49.7	-51.6	16.0	6.06e-01	0	23	0	91750400	68	4426
2026-01-12 08:32:04.97	79.77	8.02	-49.7	-51.5	16.0	6.07e-01	0	23	0	93847552	68	4387
2026-01-12 08:32:05.97	79.66	8.09	-49.6	-51.5	16.0	6.07e-01	0	23	0	95944704	68	4372
2026-01-12 08:32:06.96	79.55	8.16	-49.7	-51.6	16.0	6.07e-01	0	23	0	97517568	68	4417
2026-01-12 08:32:07.96	79.44	8.23	-49.6	-51.5	16.0	6.06e-01	0	23	0	99614720	68	4343
2026-01-12 08:32:08.96	79.33	8.30	-49.7	-51.6	16.0	6.07e-01	0	23	0	101187584	68	4402
2026-01-12 08:32:09.95	79.22	8.37	-49.6	-51.5	16.0	6.07e-01	0	23	0	103284736	68	4378
2026-01-12 08:32:10.94	79.11	8.44	-49.6	-51.5	16.0	6.05e-01	0	23	0	104857600	68	4353
2026-01-12 08:32:11.93	79.00	8.51	-49.6	-51.5	16.0	6.07e-01	0	23	0	106954752	68	4365
2026-01-12 08:32:12.92	78.89	8.58	-49.6	-51.5	16.0	6.05e-01	0	23	0	108527616	68	4373
2026-01-12 08:32:13.92	78.77	8.66	-49.6	-51.4	16.1	6.06e-01	0	23	0	110624768	68	4339
2026-01-12 08:32:14.91	78.66	8.73	-49.7	-51.5	16.0	6.06e-01	0	23	0	112721920	68	4381
2026-01-12 08:32:15.90	78.55	8.80	-49.7	-51.6	16.0	6.06e-01	0	23	0	114294784	68	4401
2026-01-12 08:32:16.90	78.43	8.87	-49.6	-51.5	16.0	6.08e-01	0	23	0	116391936	68	4382
2026-01-12 08:32:17.89	78.32	8.94	-49.6	-51.4	16.0	6.07e-01	0	23	0	117964800	68	4325
2026-01-12 08:32:18.89	78.20	9.01	-49.6	-51.5	16.0	6.06e-01	0	23	0	120061952	68	4373
2026-01-12 08:32:19.89	78.08	9.08	-49.6	-51.5	16.0	6.06e-01	0	23	0	121634816	68	4372
2026-01-12 08:32:20.88	77.97	9.16	-49.8	-51.7	15.9	6.07e-01	0	23	0	123731968	68	4453
2026-01-12 08:32:21.89	77.85	9.23	-49.6	-51.5	16.0	6.07e-01	0	23	0	125304832	68	4357
2026-01-12 08:32:22.88	77.73	9.30	-49.6	-51.4	16.1	6.07e-01	0	23	0	127401984	68	4323
2026-01-12 08:32:23.88	77.61	9.37	-49.5	-51.4	16.1	6.07e-01	0	23	0	129499136	68	4318
2026-01-12 08:32:24.88	77.49	9.45	-49.6	-51.4	16.1	6.05e-01	0	23	0	131072000	68	4316
2026-01-12 08:32:25.87	77.37	9.52	-49.5	-51.3	16.1	6.09e-01	0	23	0	133169152	68	4284
2026-01-12 08:32:26.87	77.25	9.59	-49.5	-51.3	16.1	6.07e-01	0	23	0	134742016	68	4291
2026-01-12 08:32:27.87	77.13	9.66	-49.4	-51.3	16.1	6.06e-01	0	23	0	136839168	68	4249
2026-01-12 08:32:28.86	77.00	9.74	-49.3	-51.1	16.0	6.07e-01	0	23	0	138412032	67	4418
2026-01-12 08:32:29.84	76.88	9.81	-49.4	-51.2	15.9	6.06e-01	0	23	0	140509184	67	4484
2026-01-12 08:32:30.84	76.76	9.88	-49.1	-50.9	16.1	6.05e-01	0	23	0	142606336	67	4329
2026-01-12 08:32:31.83	76.63	9.96	-49.2	-51.0	16.1	6.05e-01	0	23	0	144179200	67	4361
2026-01-12 08:32:32.82	76.51	10.03	-49.2	-51.0	16.1	6.04e-01	0	23	0	146276352	67	4348
2026-01-12 08:32:33.82	76.38	10.10	-49.1	-50.9	16.1	6.07e-01	0	23	0	147849216	67	4305
2026-01-12 08:32:34.82	76.26	10.18	-49.2	-50.9	16.1	6.07e-01	0	23	0	149946368	67	4337
2026-01-12 08:32:35.81	76.13	10.25	-49.1	-50.9	16.1	6.05e-01	0	23	0	151519232	67	4305
2026-01-12 08:32:36.81	76.00	10.32	-49.2	-51.0	16.1	6.06e-01	0	23	0	153616384	67	4344
2026-01-12 08:32:37.80	75.87	10.40	-49.1	-50.8	16.1	6.06e-01	0	23	0	155189248	67	4274
2026-01-12 08:32:38.80	75.74	10.47	-49.0	-50.7	16.2	6.07e-01	0	23	0	157286400	67	4234
2026-01-12 08:32:39.79	75.61	10.55	-49.0	-50.7	16.2	6.07e-01	0	23	0	159383552	67	4228
2026-01-12 08:32:40.78	75.48	10.62	-49.0	-50.7	16.2	5.98e-01	0	23	0	160956416	67	4211
2026-01-12 08:32:41.77	75.35	10.69	-48.8	-50.6	16.0	6.02e-01	0	23	0	163053568	66	4401
2026-01-12 08:32:42.77	75.22	10.77	-48.8	-50.5	16.0	6.01e-01	0	23	0	164626432	66	4387
2026-01-12 08:32:43.76	75.09	10.84	-48.9	-50.6	16.0	6.02e-01	0	23	0	166723584	66	4415
2026-01-12 08:32:44.76	74.95	10.92	-48.9	-50.6	16.0	6.00e-01	0	23	0	168296448	66	4414
2026-01-12 08:32:45.75	74.82	10.99	-48.9	-50.7	16.0	6.01e-01	0	23	0	170393600	66	4455
2026-01-12 08:32:46.74	74.68	11.07	-49.0	-50.7	16.0	6.01e-01	0	23	0	171966464	66	4481
2026-01-12 08:32:47.74	74.55	11.14	-48.8	-50.5	16.0	6.00e-01	0	23	0	174063616	66	4381
2026-01-12 08:32:48.74	74.41	11.22	-48.8	-50.5	16.0	6.00e-01	0	23	0	175636480	66	4390
2026-01-12 08:32:49.73	74.27	11.29	-48.9	-50.6	16.0	6.00e-01	0	23	0	177733632	66	4409
2026-01-12 08:32:50.72	74.14	11.37	-48.9	-50.7	16.0	6.02e-01	0	23	0	179830784	66	4442
2026-01-12 08:32:51.72	74.00	11.44	-48.9	-50.6	16.0	6.02e-01	0	23	0	181403648	66	4413
2026-01-12 08:32:52.72	73.86	11.52	-48.9	-50.7	16.0	6.02e-01	0	23	0	183500800	66	4443
2026-01-12 08:32:53.71	73.72	11.59	-49.0	-50.7	16.0	6.00e-01	0	23	0	185073664	66	4473
2026-01-12 08:32:54.70	73.57	11.67	-49.0	-50.8	15.9	6.00e-01	0	23	0	187170816	66	4514
2026-01-12 08:32:55.70	73.43	11.75	-49.0	-50.8	15.9	6.02e-01	0	23	0	188743680	66	4512
2026-01-12 08:32:56.69	73.29	11.82	-49.0	-50.8	15.9	6.02e-01	0	23	0	190840832	66	4500
2026-01-12 08:32:57.68	73.15	11.90	-48.9	-50.7	15.9	6.01e-01	0	23	0	192413696	66	4460
2026-01-12 08:32:58.68	73.00	11.97	-48.8	-50.5	16.0	6.01e-01	0	23	0	194510848	66	4367
2026-01-12 08:32:59.67	72.86	12.05	-48.9	-50.6	16.0	5.99e-01	0	23	0	196608000	66	4409
2026-01-12 08:33:00.66	72.71	12.12	-48.8	-50.6	16.0	6.02e-01	0	23	0	198180864	66	4395
2026-01-12 08:33:01.66	72.56	12.20	-48.7	-50.4	16.1	6.01e-01	0	23	0	200278016	66	4294
2026-01-12 08:33:02.64	72.42	12.28	-48.8	-50.4	16.0	5.98e-01	0	23	0	201850880	66	4339
2026-01-12 08:33:03.64	72.27	12.35	-48.8	-50.5	16.0	6.01e-01	0	23	0	203948032	66	4389
2026-01-12 08:33:04.63	72.12	12.43	-49.0	-50.7	16.0	6.02e-01	0	23	0	205520896	66	4460
2026-01-12 08:33:05.62	71.97	12.51	-48.9	-50.6	16.0	6.02e-01	0	23	0	207618048	66	4407
2026-01-12 08:33:06.62	71.82	12.58	-48.8	-50.5	16.0	5.99e-01	0	23	0	209190912	66	4366
2026-01-12 08:33:07.62	71.66	12.66	-48.7	-50.4	16.1	6.01e-01	0	23	0	211288064	66	4306
2026-01-12 08:33:08.61	71.51	12.74	-48.8	-50.5	16.1	6.01e-01	0	23	0	213385216	66	4343
2026-01-12 08:33:09.60	71.36	12.81	-48.8	-50.5	16.1	6.03e-01	0	23	0	214958080	66	4355
2026-01-12 08:33:10.60	71.20	12.89	-48.7	-50.4	16.1	6.01e-01	0	23	0	217055232	66	4312
2026-01-12 08:33:11.59	71.05	12.97	-48.7	-50.4	16.1	6.02e-01	0	23	0	218628096	66	4320
2026-01-12 08:33:12.59	70.89	13.05	-48.7	-50.4	16.1	6.03e-01	0	23	0	220725248	66	4303
2026-01-12 08:33:13.58	70.73	13.12	-48.7	-50.3	16.1	5.99e-01	0	23	0	222298112	66	4284
2026-01-12 08:33:14.57	70.57	13.20	-48.6	-50.3	16.1	6.02e-01	0	23	0	224395264	66	4250
2026-01-12 08:33:15.57	70.41	13.28	-48.6	-50.3	16.1	6.00e-01	0	23	0	225968128	66	4269
2026-01-12 08:33:16.56	70.25	13.35	-48.7	-50.3	16.1	6.00e-01	0	23	0	228065280	66	4288
2026-01-12 08:33:17.56	70.09	13.43	-48.7	-50.4	16.1	5.99e-01	0	23	0	230162432	66	4328
2026-01-12 08:33:18.55	69.93	13.51	-48.7	-50.4	16.1	5.98e-01	0	23	0	231735296	66	4305
2026-01-12 08:33:19.54	69.77	13.59	-48.6	-50.3	16.2	6.00e-01	0	23	0	233832448	66	4243
2026-01-12 08:33:20.54	69.60	13.66	-48.6	-50.2	16.1	6.00e-01	0	23	0	235405312	66	4240
2026-01-12 08:33:21.54	69.44	13.74	-48.6	-50.2	16.2	6.02e-01	0	23	0	237502464	66	4234
2026-01-12 08:33:22.53	69.27	13.82	-48.5	-50.2	16.2	6.03e-01	0	23	0	239075328	66	4208
2026-01-12 08:33:23.54	69.10	13.90	-48.6	-50.3	16.1	6.01e-01	0	23	0	241172480	66	4270
2026-01-12 08:33:24.54	68.93	13.98	-48.7	-50.4	16.1	6.01e-01	0	23	0	242745344	66	4307
2026-01-12 08:33:25.53	68.77	14.06	-48.6	-50.3	16.2	6.02e-01	0	23	0	244842496	66	4266
2026-01-12 08:33:26.53	68.60	14.13	-48.7	-50.4	16.1	6.01e-01	0	23	0	246939648	66	4296
2026-01-12 08:33:27.52	68.43	14.21	-48.7	-50.4	16.1	6.02e-01	0	23	0	248512512	66	4311
2026-01-12 08:33:28.52	68.25	14.29	-48.7	-50.4	16.1	6.00e-01	0	23	0	250609664	66	4299
2026-01-12 08:33:29.51	68.08	14.37	-48.7	-50.3	16.1	6.01e-01	0	23	0	252182528	66	4285
2026-01-12 08:33:30.51	67.91	14.45	-48.7	-50.4	16.1	6.01e-01	0	23	0	254279680	66	4296
2026-01-12 08:33:31.50	67.73	14.52	-48.7	-50.3	16.1	6.00e-01	0	23	0	256376832	66	4282
2026-01-12 08:33:32.49	67.56	14.60	-48.6	-50.3	16.2	6.00e-01	0	23	0	257949696	66	4251
2026-01-12 08:33:33.48	67.38	14.68	-48.6	-50.2	16.2	6.03e-01	0	23	0	259522560	66	4238
2026-01-12 08:33:34.48	67.20	14.76	-48.5	-50.2	16.2	6.02e-01	0	23	0	261619712	66	4219
2026-01-12 08:33:35.47	67.03	14.84	-48.5	-50.1	16.2	6.01e-01	0	23	0	263716864	66	4184
2026-01-12 08:33:36.46	66.85	14.91	-48.5	-50.2	16.2	6.03e-01	0	23	0	265289728	66	4199
2026-01-12 08:33:37.44	66.67	14.99	-48.5	-50.1	16.2	6.02e-01	0	23	0	267386880	66	4171
2026-01-12 08:33:38.44	66.49	15.07	-48.4	-50.0	16.3	6.00e-01	0	23	0	268959744	66	4144
2026-01-12 08:33:39.43	66.31	15.15	-48.2	-49.9	16.1	6.02e-01	0	23	0	271056896	65	4294
2026-01-12 08:33:40.43	66.12	15.23	-48.3	-49.9	16.1	6.02e-01	0	23	0	272629760	65	4331
2026-01-12 08:33:41.43	65.93	15.30	-48.4	-50.0	16.1	6.00e-01	0	23	0	274726912	65	4360
2026-01-12 08:33:42.42	65.75	15.38	-48.4	-50.1	16.0	5.99e-01	0	23	0	276299776	65	4397
2026-01-12 08:33:43.41	65.56	15.46	-48.5	-50.2	16.0	6.01e-01	0	23	0	278396928	65	4468
2026-01-12 08:33:44.40	65.38	15.54	-48.6	-50.3	16.0	6.04e-01	0	23	0	280494080	65	4503
2026-01-12 08:33:45.40	65.19	15.62	-48.5	-50.1	16.0	6.02e-01	0	23	0	282066944	65	4421
2026-01-12 08:33:46.40	65.00	15.69	-48.5	-50.1	16.0	6.02e-01	0	23	0	284164096	65	4429
2026-01-12 08:33:47.38	64.81	15.77	-48.6	-50.2	16.0	6.02e-01	0	23	0	285736960	65	4481
2026-01-12 08:33:48.38	64.61	15.85	-48.5	-50.1	16.0	6.01e-01	0	23	0	287834112	65	4422
2026-01-12 08:33:49.38	64.42	15.93	-48.5	-50.1	16.0	6.01e-01	0	23	0	289406976	65	4429
2026-01-12 08:33:50.38	64.22	16.01	-48.5	-50.1	16.0	6.01e-01	0	23	0	291504128	65	4420
2026-01-12 08:33:51.38	64.03	16.08	-48.5	-50.2	16.0	6.01e-01	0	23	0	293076992	65	4461
2026-01-12 08:33:52.38	63.83	16.16	-48.6	-50.2	15.9	6.00e-01	0	23	0	295174144	65	4488
2026-01-12 08:33:53.37	63.63	16.24	-48.5	-50.2	16.0	5.98e-01	0	23	0	297271296	65	4473
2026-01-12 08:33:54.36	63.44	16.32	-48.5	-50.1	16.0	6.03e-01	0	23	0	298844160	65	4421
2026-01-12 08:33:55.35	63.24	16.40	-48.4	-50.1	16.0	6.01e-01	0	23	0	300941312	65	4415
2026-01-12 08:33:56.35	63.03	16.47	-48.4	-50.1	16.0	6.01e-01	0	23	0	302514176	65	4403
2026-01-12 08:33:57.35	62.83	16.55	-48.4	-50.0	16.0	6.03e-01	0	23	0	304611328	65	4384
2026-01-12 08:33:58.35	62.63	16.63	-48.5	-50.1	16.0	5.99e-01	0	23	0	306708480	65	4439
2026-01-12 08:33:59.34	62.42	16.71	-48.4	-50.0	16.1	6.01e-01	0	23	0	308281344	65	4360
2026-01-12 08:34:00.34	62.22	16.78	-48.3	-50.0	16.1	5.99e-01	0	23	0	310378496	65	4356
2026-01-12 08:34:01.34	62.01	16.86	-48.4	-50.0	16.0	6.01e-01	0	23	0	311951360	65	4389
2026-01-12 08:34:02.34	61.80	16.94	-48.4	-50.0	16.0	6.02e-01	0	23	0	314048512	65	4357
2026-01-12 08:34:03.34	61.59	17.02	-48.4	-50.1	16.0	6.01e-01	0	23	0	315621376	65	4412
2026-01-12 08:34:04.32	61.38	17.09	-48.5	-50.1	16.0	6.00e-01	0	23	0	317718528	65	4441
2026-01-12 08:34:05.32	61.17	17.17	-48.6	-50.2	16.0	6.01e-01	0	23	0	319291392	65	4486
2026-01-12 08:34:06.32	60.96	17.25	-48.6	-50.2	16.0	6.01e-01	0	23	0	321388544	65	4486
2026-01-12 08:34:07.31	60.74	17.32	-48.5	-50.1	16.0	6.01e-01	0	23	0	323485696	65	4441
2026-01-12 08:34:08.31	60.53	17.40	-48.6	-50.2	16.0	6.01e-01	0	23	0	325058560	65	4485
2026-01-12 08:34:09.30	60.31	17.47	-48.6	-50.2	16.0	6.01e-01	0	23	0	327155712	65	4476
2026-01-12 08:34:10.30	60.10	17.55	-48.4	-50.1	16.0	6.03e-01	0	23	0	328728576	65	4402
2026-01-12 08:34:11.30	59.88	17.63	-48.5	-50.2	16.0	5.99e-01	0	23	0	330825728	65	4447
2026-01-12 08:34:12.29	59.66	17.70	-48.4	-50.0	16.0	6.00e-01	0	23	0	332398592	65	4378
2026-01-12 08:34:13.28	59.44	17.78	-48.4	-50.0	16.0	6.00e-01	0	23	0	334495744	65	4391
2026-01-12 08:34:14.28	59.21	17.85	-48.5	-50.1	16.0	6.02e-01	0	23	0	336068608	65	4416
2026-01-12 08:34:15.28	58.99	17.93	-48.5	-50.2	16.0	6.04e-01	0	23	0	338165760	65	4454
2026-01-12 08:34:16.27	58.77	18.00	-48.6	-50.2	15.9	6.00e-01	0	23	0	340262912	65	4491
2026-01-12 08:34:17.27	58.54	18.08	-48.5	-50.1	16.0	5.99e-01	0	23	0	341835776	65	4433
2026-01-12 08:34:18.26	58.32	18.15	-48.5	-50.2	16.0	6.03e-01	0	23	0	343932928	65	4447
2026-01-12 08:34:19.25	58.09	18.23	-48.5	-50.2	16.0	6.01e-01	0	23	0	345505792	65	4465
2026-01-12 08:34:20.25	57.86	18.30	-48.5	-50.1	16.0	6.01e-01	0	23	0	347602944	65	4417
2026-01-12 08:34:21.25	57.63	18.38	-48.5	-50.1	16.0	6.03e-01	0	23	0	349175808	65	4429
2026-01-12 08:34:22.24	57.40	18.45	-48.5	-50.2	16.0	6.01e-01	0	23	0	351272960	65	4456
2026-01-12 08:34:23.23	57.17	18.52	-48.5	-50.1	16.0	6.02e-01	0	23	0	352845824	65	4433
2026-01-12 08:34:24.23	56.93	18.60	-48.5	-50.1	16.0	6.01e-01	0	23	0	354942976	65	4413
2026-01-12 08:34:25.23	56.69	18.67	-48.5	-50.2	16.0	5.98e-01	0	23	0	357040128	65	4456
2026-01-12 08:34:26.21	56.46	18.74	-48.6	-50.2	16.0	6.02e-01	0	23	0	358612992	65	4478
2026-01-12 08:34:27.21	56.22	18.82	-48.6	-50.3	15.9	6.04e-01	0	23	0	360710144	65	4513
2026-01-12 08:34:28.20	55.99	18.89	-48.5	-50.2	16.0	6.00e-01	0	23	0	362283008	65	4444
2026-01-12 08:34:29.20	55.75	18.96	-48.5	-50.1	16.0	5.99e-01	0	23	0	364380160	65	4441
2026-01-12 08:34:30.20	55.50	19.03	-48.6	-50.2	16.0	6.01e-01	0	23	0	365953024	65	4476
2026-01-12 08:34:31.19	55.26	19.10	-48.5	-50.2	16.0	6.00e-01	0	23	0	368050176	65	4463
2026-01-12 08:34:32.18	55.02	19.18	-48.6	-50.3	16.0	6.02e-01	0	23	0	369623040	65	4498
2026-01-12 08:34:33.17	54.78	19.25	-48.5	-50.1	16.0	5.99e-01	0	23	0	371720192	65	4425
2026-01-12 08:34:34.17	54.53	19.32	-48.6	-50.2	16.0	6.06e-01	0	23	0	373817344	65	4467
2026-01-12 08:34:35.16	54.28	19.39	-48.6	-50.3	16.0	5.99e-01	0	23	0	375390208	65	4497
2026-01-12 08:34:36.15	54.04	19.46	-48.6	-50.3	15.9	6.02e-01	0	23	0	377487360	65	4527
2026-01-12 08:34:37.14	53.79	19.53	-48.6	-50.3	15.9	6.01e-01	0	23	0	379060224	65	4511
2026-01-12 08:34:38.14	53.54	19.60	-48.7	-50.4	15.9	6.00e-01	0	23	0	381157376	65	4573
2026-01-12 08:34:39.14	53.28	19.67	-48.7	-50.3	15.9	5.99e-01	0	23	0	382730240	65	4536
2026-01-12 08:34:40.13	53.03	19.73	-48.7	-50.3	15.9	6.01e-01	0	23	0	384827392	65	4540
2026-01-12 08:34:41.12	52.78	19.80	-48.7	-50.3	15.9	6.00e-01	0	23	0	386400256	65	4531
2026-01-12 08:34:42.11	52.52	19.87	-48.7	-50.3	15.9	6.02e-01	0	23	0	388497408	65	4536
2026-01-12 08:34:43.11	52.27	19.94	-48.7	-50.3	15.9	5.97e-01	0	23	0	390594560	65	4544
2026-01-12 08:34:44.10	52.01	20.00	-48.6	-50.3	15.9	6.01e-01	0	23	0	392167424	65	4512
2026-01-12 08:34:45.10	51.75	20.07	-48.7	-50.4	15.9	5.99e-01	0	23	0	394264576	65	4569
2026-01-12 08:34:46.09	51.49	20.14	-48.7	-50.3	15.9	6.01e-01	0	23	0	395837440	65	4536
2026-01-12 08:34:47.09	51.23	20.20	-48.8	-50.4	15.9	6.02e-01	0	23	0	397934592	65	4586
2026-01-12 08:34:48.08	50.97	20.27	-48.8	-50.5	15.9	5.99e-01	0	23	0	399507456	65	4613
2026-01-12 08:34:49.06	50.71	20.33	-48.7	-50.4	15.9	6.02e-01	0	23	0	401604608	65	4550
2026-01-12 08:34:50.06	50.44	20.40	-48.8	-50.5	15.9	6.02e-01	0	23	0	403177472	65	4609
2026-01-12 08:34:51.06	50.17	20.46	-48.8	-50.5	15.9	6.02e-01	0	23	0	405274624	65	4604
2026-01-12 08:34:52.06	49.90	20.53	-48.7	-50.4	15.9	5.97e-01	0	23	0	407371776	65	4561
2026-01-12 08:34:53.05	49.64	20.59	-48.7	-50.4	15.9	6.01e-01	0	23	0	408944640	65	4566
2026-01-12 08:34:54.05	49.36	20.65	-48.7	-50.4	15.9	6.01e-01	0	23	0	411041792	65	4571
2026-01-12 08:34:55.04	49.09	20.72	-48.8	-50.4	15.9	6.00e-01	0	23	0	412614656	65	4591
2026-01-12 08:34:56.04	48.82	20.78	-48.7	-50.3	15.9	6.02e-01	0	23	0	414711808	65	4536
2026-01-12 08:34:57.04	48.55	20.84	-48.6	-50.3	15.9	6.01e-01	0	23	0	416284672	65	4503
2026-01-12 08:34:58.04	48.27	20.90	-48.6	-50.2	16.0	6.02e-01	0	23	0	418381824	65	4484
2026-01-12 08:34:59.03	48.00	20.96	-48.7	-50.4	15.9	6.00e-01	0	23	0	419954688	65	4573
2026-01-12 08:35:00.02	47.72	21.02	-48.8	-50.5	15.9	5.99e-01	0	23	0	422051840	65	4608
2026-01-12 08:35:01.02	47.44	21.08	-48.8	-50.5	15.9	6.01e-01	0	23	0	424148992	65	4611
2026-01-12 08:35:02.01	47.16	21.14	-48.7	-50.3	16.0	6.02e-01	0	23	0	425721856	65	4535
2026-01-12 08:35:03.01	46.88	21.20	-48.7	-50.4	15.9	6.00e-01	0	23	0	427819008	65	4548
2026-01-12 08:35:04.01	46.60	21.26	-48.6	-50.3	16.0	6.00e-01	0	23	0	429391872	65	4504
2026-01-12 08:35:05.01	46.32	21.31	-48.8	-50.5	15.9	6.02e-01	0	23	0	431489024	65	4620
2026-01-12 08:35:06.01	46.03	21.37	-48.8	-50.5	15.9	6.02e-01	0	23	0	433061888	65	4633
2026-01-12 08:35:07.00	45.75	21.43	-48.8	-50.5	15.9	6.02e-01	0	23	0	435159040	65	4630
2026-01-12 08:35:07.99	45.46	21.48	-48.8	-50.4	15.9	5.99e-01	0	23	0	437256192	65	4591
2026-01-12 08:35:08.99	45.18	21.54	-48.8	-50.5	15.9	6.03e-01	0	23	0	438829056	65	4619
2026-01-12 08:35:09.99	44.89	21.59	-48.9	-50.5	15.9	5.99e-01	0	23	0	440926208	65	4644
2026-01-12 08:35:10.98	44.60	21.65	-49.0	-50.7	15.8	6.00e-01	0	23	0	442499072	65	4735
2026-01-12 08:35:11.97	44.31	21.70	-48.8	-50.5	15.9	6.04e-01	0	23	0	444596224	65	4636
2026-01-12 08:35:12.98	44.02	21.75	-48.9	-50.6	15.9	5.98e-01	0	23	0	446169088	65	4683
2026-01-12 08:35:13.97	43.72	21.80	-48.9	-50.6	15.8	6.01e-01	0	23	0	448266240	65	4689
2026-01-12 08:35:14.96	43.43	21.85	-49.0	-50.7	15.8	6.02e-01	0	23	0	449839104	65	4737
2026-01-12 08:35:15.97	43.13	21.91	-49.0	-50.7	15.8	6.00e-01	0	23	0	451936256	65	4734
2026-01-12 08:35:16.96	42.84	21.96	-48.9	-50.6	15.8	6.03e-01	0	23	0	454033408	65	4700
2026-01-12 08:35:17.95	42.55	22.00	-48.9	-50.6	15.9	6.03e-01	0	23	0	455606272	65	4667
2026-01-12 08:35:18.94	42.25	22.05	-48.8	-50.5	15.9	6.01e-01	0	23	0	457703424	65	4604
2026-01-12 08:35:19.93	41.95	22.10	-48.8	-50.5	15.9	6.02e-01	0	23	0	459276288	65	4620
2026-01-12 08:35:20.93	41.65	22.15	-48.9	-50.6	15.9	6.02e-01	0	23	0	461373440	65	4658
2026-01-12 08:35:21.92	41.36	22.19	-49.0	-50.7	15.8	6.03e-01	0	23	0	462946304	65	4737
2026-01-12 08:35:22.92	41.05	22.24	-48.8	-50.5	15.9	6.04e-01	0	23	0	465043456	65	4626
2026-01-12 08:35:23.92	40.75	22.28	-48.8	-50.5	15.9	6.02e-01	0	23	0	466616320	65	4632
2026-01-12 08:35:24.91	40.45	22.33	-48.9	-50.6	15.8	6.03e-01	0	23	0	468713472	65	4691
2026-01-12 08:35:25.91	40.14	22.37	-48.9	-50.6	15.9	6.00e-01	0	23	0	470810624	65	4652
2026-01-12 08:35:26.89	39.84	22.41	-48.9	-50.6	15.9	5.99e-01	0	23	0	472383488	65	4703
2026-01-12 08:35:27.88	39.54	22.46	-49.2	-50.9	15.9	6.04e-01	0	23	0	474480640	66	4580
2026-01-12 08:35:28.88	39.23	22.50	-49.0	-50.7	16.0	6.02e-01	0	23	0	476053504	66	4479
2026-01-12 08:35:29.87	38.93	22.54	-48.9	-50.6	16.0	6.03e-01	0	23	0	478150656	66	4433
2026-01-12 08:35:30.85	38.62	22.58	-48.9	-50.6	16.0	6.03e-01	0	23	0	479723520	66	4407
2026-01-12 08:35:31.85	38.31	22.61	-49.0	-50.7	16.0	6.02e-01	0	23	0	481820672	66	4475
2026-01-12 08:35:32.84	38.01	22.65	-49.0	-50.7	16.0	6.01e-01	0	23	0	483393536	66	4478
2026-01-12 08:35:33.84	37.69	22.69	-49.0	-50.7	16.0	6.01e-01	0	23	0	485490688	66	4463
2026-01-12 08:35:34.83	37.39	22.73	-49.0	-50.7	16.0	6.03e-01	0	23	0	487063552	66	4444
2026-01-12 08:35:35.83	37.07	22.76	-49.1	-50.8	16.0	6.00e-01	0	23	0	489160704	66	4500
2026-01-12 08:35:36.82	36.76	22.80	-49.2	-50.9	15.9	5.99e-01	0	23	0	491257856	66	4574
2026-01-12 08:35:37.82	36.45	22.83	-49.0	-50.6	16.0	6.02e-01	0	23	0	492830720	66	4433
2026-01-12 08:35:38.81	36.13	22.86	-49.0	-50.7	16.0	6.01e-01	0	23	0	494927872	66	4487
2026-01-12 08:35:39.80	35.82	22.90	-49.2	-50.9	15.9	6.00e-01	0	23	0	496500736	66	4560
2026-01-12 08:35:40.80	35.50	22.93	-49.1	-50.8	16.0	6.02e-01	0	23	0	498597888	66	4502
2026-01-12 08:35:41.80	35.19	22.96	-49.1	-50.8	16.0	6.01e-01	0	23	0	500170752	66	4503
2026-01-12 08:35:42.79	34.87	22.99	-49.1	-50.8	16.0	6.02e-01	0	23	0	502267904	66	4516
2026-01-12 08:35:43.79	34.55	23.02	-49.2	-51.0	15.9	5.98e-01	0	23	0	504365056	66	4608
2026-01-12 08:35:44.79	34.23	23.04	-49.1	-50.8	16.0	6.00e-01	0	23	0	505937920	66	4522
2026-01-12 08:35:45.80	33.91	23.07	-49.2	-50.9	15.9	6.02e-01	0	23	0	508035072	66	4571
2026-01-12 08:35:46.80	33.59	23.10	-49.1	-50.8	15.9	6.01e-01	0	23	0	509607936	66	4508
2026-01-12 08:35:47.79	33.27	23.12	-49.1	-50.8	15.9	6.00e-01	0	23	0	511705088	66	4508
2026-01-12 08:35:48.79	32.95	23.15	-49.1	-50.8	15.9	6.00e-01	0	23	0	513277952	66	4508
2026-01-12 08:35:49.79	32.63	23.17	-49.2	-50.9	15.9	6.02e-01	0	23	0	515375104	66	4562
2026-01-12 08:35:50.78	32.31	23.19	-49.2	-50.9	15.9	5.99e-01	0	23	0	517472256	66	4588
2026-01-12 08:35:51.78	31.99	23.21	-49.1	-50.8	16.0	6.04e-01	0	23	0	519045120	66	4516
2026-01-12 08:35:52.78	31.66	23.24	-49.0	-50.7	16.0	5.99e-01	0	23	0	521142272	66	4456
2026-01-12 08:35:53.77	31.34	23.25	-49.1	-50.8	15.9	6.03e-01	0	23	0	522715136	66	4539
2026-01-12 08:35:54.77	31.02	23.27	-49.0	-50.7	16.0	6.01e-01	0	23	0	524812288	66	4480
2026-01-12 08:35:55.76	30.70	23.29	-49.1	-50.8	16.0	6.02e-01	0	23	0	526385152	66	4510
2026-01-12 08:35:56.75	30.37	23.31	-49.1	-50.8	15.9	6.02e-01	0	23	0	528482304	66	4533
2026-01-12 08:35:57.74	30.05	23.32	-49.2	-50.9	15.9	6.02e-01	0	23	0	530579456	66	4549
2026-01-12 08:35:58.74	29.73	23.34	-49.0	-50.7	16.0	6.01e-01	0	23	0	532152320	66	4472
2026-01-12 08:35:59.73	29.40	23.35	-49.1	-50.8	15.9	6.00e-01	0	23	0	534249472	66	4523
2026-01-12 08:36:00.73	29.08	23.37	-49.1	-50.8	15.9	6.01e-01	0	23	0	535822336	66	4536
2026-01-12 08:36:01.72	28.75	23.38	-49.2	-50.9	15.9	6.02e-01	0	23	0	537919488	66	4561
2026-01-12 08:36:02.71	28.43	23.39	-49.2	-51.0	15.9	6.01e-01	0	23	0	539492352	66	4606
2026-01-12 08:36:03.71	28.10	23.40	-49.2	-50.9	15.9	6.00e-01	0	23	0	541589504	66	4591
2026-01-12 08:36:04.71	27.77	23.41	-49.1	-50.8	15.9	6.03e-01	0	23	0	543162368	66	4522
2026-01-12 08:36:05.70	27.45	23.42	-49.1	-50.8	15.9	6.02e-01	0	23	0	545259520	66	4518
2026-01-12 08:36:06.69	27.12	23.43	-49.2	-50.9	15.9	6.02e-01	0	23	0	546832384	66	4583
2026-01-12 08:36:07.68	26.80	23.43	-49.3	-51.0	15.9	6.02e-01	0	23	0	548929536	66	4627
2026-01-12 08:36:08.68	26.47	23.44	-49.2	-50.9	15.9	6.02e-01	0	23	0	551026688	66	4580
2026-01-12 08:36:09.67	26.15	23.44	-49.2	-50.9	15.9	5.99e-01	0	23	0	552599552	66	4565
2026-01-12 08:36:10.67	25.82	23.45	-49.2	-50.9	15.9	6.02e-01	0	23	0	554696704	66	4593
2026-01-12 08:36:11.67	25.49	23.45	-49.2	-50.9	15.9	6.00e-01	0	23	0	556269568	66	4555
2026-01-12 08:36:12.66	25.17	23.45	-49.2	-51.0	15.9	5.99e-01	0	23	0	558366720	66	4599
2026-01-12 08:36:13.64	24.84	23.45	-49.1	-50.8	16.0	6.01e-01	0	23	0	559939584	66	4518
2026-01-12 08:36:14.63	24.52	23.45	-49.2	-50.9	15.9	5.99e-01	0	23	0	562036736	66	4563
2026-01-12 08:36:15.63	24.19	23.45	-49.3	-51.0	15.9	6.01e-01	0	23	0	563609600	66	4615
2026-01-12 08:36:16.62	23.86	23.45	-49.2	-51.0	15.9	6.02e-01	0	23	0	565706752	66	4606
2026-01-12 08:36:17.62	23.54	23.44	-49.2	-51.0	15.9	6.03e-01	0	23	0	567803904	66	4612
2026-01-12 08:36:18.61	23.21	23.44	-49.2	-50.9	15.9	6.03e-01	0	23	0	569376768	66	4585
2026-01-12 08:36:19.60	22.89	23.43	-49.2	-50.9	15.9	6.02e-01	0	23	0	571473920	66	4555
2026-01-12 08:36:20.60	22.56	23.43	-49.2	-50.9	15.9	6.00e-01	0	23	0	573046784	66	4591
2026-01-12 08:36:21.59	22.23	23.42	-49.3	-51.0	15.9	6.00e-01	0	23	0	575143936	66	4630
2026-01-12 08:36:22.58	21.91	23.41	-49.3	-51.0	15.9	5.99e-01	0	23	0	576716800	66	4649
2026-01-12 08:36:23.58	21.58	23.40	-49.4	-51.1	15.8	6.01e-01	0	23	0	578813952	66	4705
2026-01-12 08:36:24.57	21.26	23.39	-49.4	-51.1	15.8	6.02e-01	0	23	0	580386816	66	4688
2026-01-12 08:36:25.57	20.93	23.38	-49.3	-51.0	15.9	6.01e-01	0	23	0	582483968	66	4639
2026-01-12 08:36:26.56	20.61	23.37	-49.1	-50.8	16.0	6.04e-01	0	23	0	584581120	66	4544
2026-01-12 08:36:27.56	20.28	23.36	-49.2	-50.9	15.9	6.03e-01	0	23	0	586153984	66	4591
2026-01-12 08:36:28.55	19.96	23.34	-49.4	-51.1	15.9	6.01e-01	0	23	0	588251136	66	4678
2026-01-12 08:36:29.55	19.63	23.33	-49.2	-50.9	15.9	6.01e-01	0	23	0	589824000	66	4598
2026-01-12 08:36:30.54	19.31	23.31	-49.1	-50.8	16.0	6.00e-01	0	23	0	591921152	66	4499
2026-01-12 08:36:31.54	18.98	23.30	-49.2	-50.9	15.9	6.01e-01	0	23	0	593494016	66	4583
2026-01-12 08:36:32.53	18.66	23.28	-49.3	-51.1	15.8	6.01e-01	0	23	0	595591168	66	4652
2026-01-12 08:36:33.53	18.34	23.26	-49.2	-50.9	15.9	6.01e-01	0	23	0	597164032	66	4598
2026-01-12 08:36:34.53	18.01	23.24	-49.3	-51.1	15.9	6.00e-01	0	23	0	599261184	66	4660
2026-01-12 08:36:35.52	17.69	23.22	-49.3	-51.0	15.9	6.00e-01	0	23	0	601358336	66	4621
2026-01-12 08:36:36.52	17.37	23.20	-49.3	-51.0	15.9	6.01e-01	0	23	0	602931200	66	4632
2026-01-12 08:36:37.52	17.05	23.18	-49.2	-51.0	15.9	6.00e-01	0	23	0	605028352	66	4599
2026-01-12 08:36:38.50	16.73	23.16	-49.2	-50.9	15.9	6.01e-01	0	23	0	606601216	66	4554
2026-01-12 08:36:39.50	16.41	23.13	-49.2	-50.9	15.9	6.02e-01	0	23	0	608698368	66	4588
2026-01-12 08:36:40.49	16.09	23.11	-49.3	-51.1	15.8	6.01e-01	0	23	0	610271232	66	4672
2026-01-12 08:36:41.48	15.78	23.08	-49.2	-51.0	15.9	6.02e-01	0	23	0	612368384	66	4603
2026-01-12 08:36:42.47	15.46	23.05	-49.3	-51.0	15.9	6.03e-01	0	23	0	613941248	66	4637
2026-01-12 08:36:43.46	15.14	23.03	-49.2	-51.0	15.9	6.00e-01	0	23	0	616038400	66	4603
2026-01-12 08:36:44.46	14.82	23.00	-49.2	-50.9	15.9	6.02e-01	0	23	0	618135552	66	4567
2026-01-12 08:36:45.46	14.51	22.97	-49.2	-50.9	15.9	6.03e-01	0	23	0	619708416	66	4569
2026-01-12 08:36:46.45	14.19	22.94	-49.2	-51.0	15.9	6.01e-01	0	23	0	621805568	66	4613
2026-01-12 08:36:47.45	13.87	22.91	-49.3	-51.0	15.9	6.03e-01	0	23	0	623378432	66	4627
2026-01-12 08:36:48.45	13.56	22.88	-49.3	-51.0	15.9	6.02e-01	0	23	0	625475584	66	4633
2026-01-12 08:36:49.44	13.25	22.84	-49.3	-51.1	15.9	6.00e-01	0	23	0	627048448	66	4665
2026-01-12 08:36:50.43	12.93	22.81	-49.2	-50.9	15.9	6.00e-01	0	23	0	629145600	66	4565
2026-01-12 08:36:51.43	12.62	22.78	-49.2	-50.9	15.9	6.01e-01	0	23	0	630718464	66	4575
2026-01-12 08:36:52.42	12.31	22.74	-49.2	-50.9	15.9	6.02e-01	0	23	0	632815616	66	4546
2026-01-12 08:36:53.41	12.00	22.71	-49.3	-51.0	15.9	6.01e-01	0	23	0	634912768	66	4650
2026-01-12 08:36:54.41	11.69	22.67	-49.4	-51.2	15.8	6.01e-01	0	23	0	636485632	66	4722
2026-01-12 08:36:55.40	11.38	22.63	-49.4	-51.2	15.8	6.02e-01	0	23	0	638582784	66	4719
2026-01-12 08:36:56.39	11.07	22.59	-49.2	-50.9	15.9	6.02e-01	0	23	0	640155648	66	4546
2026-01-12 08:36:57.38	10.77	22.55	-49.2	-50.9	15.9	5.99e-01	0	23	0	642252800	66	4589
2026-01-12 08:36:58.37	10.46	22.51	-49.2	-51.0	15.9	6.02e-01	0	23	0	643825664	66	4599
2026-01-12 08:36:59.36	10.16	22.47	-49.3	-51.0	15.9	6.02e-01	0	23	0	645922816	66	4638
2026-01-12 08:37:00.36	9.85	22.43	-49.3	-51.0	15.8	6.02e-01	0	23	0	647495680	66	4640
2026-01-12 08:37:01.36	9.54	22.39	-49.4	-51.2	15.8	6.01e-01	0	23	0	649592832	66	4710
2026-01-12 08:37:02.35	9.24	22.35	-49.3	-51.1	15.8	5.99e-01	0	23	0	651689984	66	4657
2026-01-12 08:37:03.34	8.94	22.30	-49.3	-51.0	15.8	6.01e-01	0	23	0	653262848	66	4633
2026-01-12 08:37:04.34	8.64	22.26	-49.2	-50.9	15.9	6.02e-01	0	23	0	655360000	66	4560
2026-01-12 08:37:05.34	8.34	22.21	-49.3	-51.0	15.9	6.00e-01	0	23	0	656932864	66	4625
2026-01-12 08:37:06.32	8.04	22.17	-49.4	-51.1	15.8	6.02e-01	0	23	0	659030016	66	4687
2026-01-12 08:37:07.32	7.74	22.12	-49.2	-51.0	15.9	6.01e-01	0	23	0	660602880	66	4606
2026-01-12 08:37:08.31	7.44	22.07	-49.3	-51.0	15.9	6.01e-01	0	23	0	662700032	66	4650
2026-01-12 08:37:09.30	7.15	22.03	-49.2	-51.0	15.9	6.00e-01	0	23	0	664272896	66	4599
2026-01-12 08:37:10.30	6.85	21.98	-49.3	-51.0	15.8	6.00e-01	0	23	0	666370048	66	4629
2026-01-12 08:37:11.29	6.56	21.93	-49.3	-51.0	15.8	6.03e-01	0	23	0	668467200	66	4639
2026-01-12 08:37:12.28	6.26	21.88	-49.3	-51.0	15.8	6.02e-01	0	23	0	670040064	66	4621
2026-01-12 08:37:13.27	5.97	21.83	-49.3	-51.0	15.9	6.02e-01	0	23	0	672137216	66	4612
2026-01-12 08:37:14.26	5.68	21.78	-49.3	-51.0	15.8	6.03e-01	0	23	0	673710080	66	4635
2026-01-12 08:37:15.26	5.39	21.72	-49.3	-51.0	15.9	6.02e-01	0	23	0	675807232	66	4613
2026-01-12 08:37:16.25	5.10	21.67	-49.1	-50.8	15.9	6.02e-01	0	23	0	677380096	66	4524
2026-01-12 08:37:17.24	4.81	21.62	-49.1	-50.8	15.9	6.01e-01	0	23	0	679477248	66	4523
2026-01-12 08:37:18.24	4.52	21.56	-49.3	-51.0	15.8	6.01e-01	0	23	0	681050112	66	4642
2026-01-12 08:37:19.23	4.24	21.51	-49.5	-51.3	15.7	6.01e-01	0	23	0	683147264	66	4763
2026-01-12 08:37:20.22	3.95	21.45	-49.3	-51.0	15.8	6.01e-01	0	23	0	684720128	66	4646
2026-01-12 08:37:21.22	3.67	21.40	-49.4	-51.1	15.8	6.00e-01	0	23	0	686817280	66	4674
2026-01-12 08:37:22.22	3.38	21.34	-49.2	-51.0	15.9	6.01e-01	0	23	0	688914432	66	4601
2026-01-12 08:37:23.22	3.10	21.28	-49.1	-50.8	15.9	5.99e-01	0	23	0	690487296	66	4539
2026-01-12 08:37:24.20	2.82	21.23	-49.2	-50.9	15.9	6.01e-01	0	23	0	692584448	66	4569
2026-01-12 08:37:25.20	2.54	21.17	-49.1	-50.8	15.9	6.04e-01	0	23	0	694157312	66	4534
2026-01-12 08:37:26.19	2.26	21.11	-49.2	-50.9	15.9	5.99e-01	0	23	0	696254464	66	4571
2026-01-12 08:37:27.18	1.99	21.05	-49.3	-51.1	15.8	6.02e-01	0	23	0	697827328	66	4677
2026-01-12 08:37:28.17	1.71	20.99	-49.3	-51.1	15.8	6.00e-01	0	23	0	699924480	66	4659
2026-01-12 08:37:29.17	1.43	20.93	-49.3	-51.0	15.8	6.00e-01	0	23	0	701497344	66	4614
2026-01-12 08:37:30.15	1.16	20.87	-49.3	-51.0	15.8	6.02e-01	0	23	0	703594496	66	4621
2026-01-12 08:37:31.15	0.89	20.81	-49.3	-51.1	15.8	6.01e-01	0	23	0	705691648	66	4658
2026-01-12 08:37:32.14	0.62	20.75	-49.3	-51.1	15.8	6.00e-01	0	23	0	707264512	66	4662
2026-01-12 08:37:33.14	0.35	20.69	-49.2	-50.9	15.9	6.05e-01	0	23	0	709361664	66	4585
2026-01-12 08:37:34.13	0.08	20.62	-49.2	-50.9	15.9	6.01e-01	0	23	0	710934528	66	4555
2026-01-12 08:37:35.13	359.81	20.56	-49.2	-50.9	15.9	5.98e-01	0	23	0	713031680	66	4576
2026-01-12 08:37:36.12	359.54	20.50	-49.2	-50.9	15.9	6.00e-01	0	23	0	714604544	66	4585
2026-01-12 08:37:37.12	359.27	20.43	-49.1	-50.8	15.9	6.01e-01	0	23	0	716701696	66	4532
2026-01-12 08:37:38.12	359.01	20.37	-49.0	-50.7	15.9	6.00e-01	0	23	0	718274560	66	4471
2026-01-12 08:37:39.10	358.75	20.30	-49.0	-50.7	15.9	6.00e-01	0	23	0	720371712	66	4465
2026-01-12 08:37:40.09	358.48	20.24	-49.2	-51.0	15.9	6.02e-01	0	23	0	722468864	66	4610
2026-01-12 08:37:41.08	358.22	20.17	-49.2	-51.0	15.9	6.00e-01	0	23	0	724041728	66	4611
2026-01-12 08:37:42.08	357.96	20.11	-49.3	-51.0	15.9	5.99e-01	0	23	0	726138880	66	4626
2026-01-12 08:37:43.07	357.70	20.04	-49.2	-50.9	15.9	6.01e-01	0	23	0	727711744	66	4561
2026-01-12 08:37:44.06	357.45	19.97	-49.0	-50.7	16.0	6.03e-01	0	23	0	729808896	66	4478
2026-01-12 08:37:45.05	357.19	19.91	-49.1	-50.9	15.9	5.99e-01	0	23	0	731381760	66	4549
2026-01-12 08:37:46.05	356.93	19.84	-48.9	-50.6	16.0	6.01e-01	0	23	0	733478912	66	4412
2026-01-12 08:37:47.05	356.68	19.77	-49.0	-50.6	16.0	5.99e-01	0	23	0	735051776	66	4433
2026-01-12 08:37:48.04	356.43	19.70	-49.0	-50.7	15.9	6.03e-01	0	23	0	737148928	66	4492
2026-01-12 08:37:49.04	356.17	19.63	-49.1	-50.8	15.9	6.02e-01	0	23	0	739246080	66	4532
2026-01-12 08:37:50.03	355.92	19.57	-48.9	-50.6	16.0	6.00e-01	0	23	0	740818944	66	4418
2026-01-12 08:37:51.03	355.67	19.50	-48.9	-50.6	16.0	6.02e-01	0	23	0	742916096	66	4427
2026-01-12 08:37:52.02	355.43	19.43	-49.2	-50.9	15.9	6.01e-01	0	23	0	744488960	66	4563
2026-01-12 08:37:53.01	355.18	19.36	-49.0	-50.7	16.0	6.01e-01	0	23	0	746586112	66	4459
2026-01-12 08:37:54.01	354.93	19.29	-48.9	-50.6	16.0	6.00e-01	0	23	0	748158976	66	4419
2026-01-12 08:37:55.00	354.69	19.22	-49.2	-50.9	15.9	6.01e-01	0	23	0	750256128	66	4566
2026-01-12 08:37:55.99	354.45	19.14	-49.1	-50.8	15.9	6.00e-01	0	23	0	751828992	66	4540
2026-01-12 08:37:56.98	354.21	19.07	-49.1	-50.8	15.9	6.03e-01	0	23	0	753926144	66	4524
2026-01-12 08:37:57.98	353.96	19.00	-49.3	-51.1	15.8	6.03e-01	0	23	0	755499008	66	4689
2026-01-12 08:37:58.97	353.72	18.93	-49.4	-51.2	15.8	6.02e-01	0	23	0	757596160	66	4724
2026-01-12 08:37:59.96	353.49	18.86	-49.2	-50.9	15.9	6.00e-01	0	23	0	759693312	66	4571
2026-01-12 08:38:00.96	353.25	18.79	-48.8	-50.5	16.0	6.01e-01	0	23	0	761266176	66	4362
2026-01-12 08:38:01.95	353.01	18.71	-49.0	-50.7	16.0	6.02e-01	0	23	0	763363328	66	4445
2026-01-12 08:38:02.94	352.78	18.64	-49.1	-50.8	15.9	6.02e-01	0	23	0	764936192	66	4526
2026-01-12 08:38:03.93	352.55	18.57	-49.0	-50.6	16.0	6.01e-01	0	23	0	767033344	66	4435
2026-01-12 08:38:04.92	352.31	18.49	-49.0	-50.7	16.0	6.03e-01	0	23	0	768606208	66	4466
2026-01-12 08:38:05.90	352.09	18.42	-49.1	-50.8	15.9	6.00e-01	0	23	0	770703360	66	4532
2026-01-12 08:38:06.89	351.86	18.35	-49.0	-50.6	16.0	6.01e-01	0	23	0	772276224	66	4439
2026-01-12 08:38:07.89	351.63	18.27	-49.3	-51.1	15.8	6.03e-01	0	23	0	774373376	66	4658
2026-01-12 08:38:08.88	351.40	18.20	-49.3	-51.0	15.8	6.01e-01	0	23	0	775946240	66	4628
2026-01-12 08:38:09.87	351.17	18.13	-49.0	-50.7	15.9	6.02e-01	0	23	0	778043392	66	4466
2026-01-12 08:38:10.86	350.95	18.05	-48.9	-50.6	15.9	6.03e-01	0	23	0	780140544	66	4408
2026-01-12 08:38:11.85	350.73	17.98	-49.4	-51.2	15.8	6.00e-01	0	23	0	781713408	66	4708
2026-01-12 08:38:12.84	350.50	17.90	-48.9	-50.6	16.0	6.02e-01	0	23	0	783810560	66	4400
2026-01-12 08:38:13.83	350.28	17.83	-49.2	-50.9	15.9	6.02e-01	0	23	0	785383424	66	4583
2026-01-12 08:38:14.83	350.06	17.75	-48.9	-50.6	16.0	5.99e-01	0	23	0	787480576	66	4396
2026-01-12 08:38:15.82	349.84	17.68	-48.9	-50.6	16.0	6.02e-01	0	23	0	789053440	66	4401
2026-01-12 08:38:16.81	349.63	17.60	-49.5	-51.3	15.8	5.99e-01	0	23	0	791150592	66	4768
2026-01-12 08:38:17.80	349.41	17.53	-49.0	-50.6	16.0	6.02e-01	0	23	0	792723456	66	4434
2026-01-12 08:38:18.80	349.19	17.45	-49.1	-50.8	15.9	6.03e-01	0	23	0	794820608	66	4519
2026-01-12 08:38:19.79	348.98	17.37	-48.9	-50.5	16.0	6.00e-01	0	23	0	796393472	66	4384
2026-01-12 08:38:20.78	348.77	17.30	-48.9	-50.6	16.0	6.00e-01	0	23	0	798490624	66	4398
2026-01-12 08:38:21.77	348.55	17.22	-48.9	-50.6	16.0	6.01e-01	0	23	0	800587776	66	4434
2026-01-12 08:38:22.76	348.34	17.15	-48.9	-50.6	16.0	6.03e-01	0	23	0	802160640	66	4397
2026-01-12 08:38:23.75	348.13	17.07	-49.3	-51.0	15.8	6.01e-01	0	23	0	804257792	66	4644
2026-01-12 08:38:24.74	347.93	16.99	-48.7	-50.4	16.1	6.01e-01	0	23	0	805830656	66	4307
2026-01-12 08:38:25.73	347.72	16.92	-49.0	-50.7	15.9	6.03e-01	0	23	0	807927808	66	4456
2026-01-12 08:38:26.73	347.51	16.84	-48.9	-50.6	16.0	6.01e-01	0	23	0	809500672	66	4406
2026-01-12 08:38:27.73	347.30	16.76	-48.8	-50.4	16.0	6.00e-01	0	23	0	811597824	66	4330
2026-01-12 08:38:28.73	347.10	16.68	-49.3	-51.1	15.8	6.02e-01	0	23	0	813170688	66	4704
2026-01-12 08:38:29.71	346.90	16.61	-48.8	-50.4	16.0	6.01e-01	0	23	0	815267840	66	4328
2026-01-12 08:38:30.71	346.69	16.53	-48.9	-50.6	16.0	6.00e-01	0	23	0	817364992	66	4420
2026-01-12 08:38:31.70	346.49	16.45	-48.9	-50.6	16.0	6.04e-01	0	23	0	818937856	66	4409
2026-01-12 08:38:32.69	346.30	16.38	-48.9	-50.6	16.0	6.01e-01	0	23	0	821035008	66	4402
2026-01-12 08:38:33.69	346.10	16.30	-49.0	-50.7	16.0	6.02e-01	0	23	0	822607872	66	4475
2026-01-12 08:38:34.68	345.90	16.22	-49.0	-50.7	15.9	6.01e-01	0	23	0	824705024	66	4471
2026-01-12 08:38:35.68	345.70	16.14	-49.1	-50.8	15.9	5.99e-01	0	23	0	826277888	66	4532
2026-01-12 08:38:36.67	345.51	16.07	-49.1	-50.8	15.9	6.01e-01	0	23	0	828375040	66	4530
2026-01-12 08:38:37.67	345.31	15.99	-49.3	-51.1	15.8	6.02e-01	0	23	0	829947904	66	4674
2026-01-12 08:38:38.66	345.12	15.91	-48.9	-50.5	16.0	5.99e-01	0	23	0	832045056	66	4378
2026-01-12 08:38:39.65	344.93	15.83	-49.3	-51.1	15.8	6.01e-01	0	23	0	834142208	66	4700
2026-01-12 08:38:40.65	344.73	15.75	-48.8	-50.4	16.0	6.00e-01	0	23	0	835715072	66	4336
2026-01-12 08:38:41.64	344.54	15.68	-49.3	-51.1	15.8	6.00e-01	0	23	0	837812224	66	4659
2026-01-12 08:38:42.64	344.35	15.60	-48.4	-50.0	16.2	6.01e-01	0	23	0	839385088	66	4119
2026-01-12 08:38:43.63	344.17	15.52	-49.3	-51.1	15.8	6.00e-01	0	23	0	841482240	66	4682
2026-01-12 08:38:44.63	343.98	15.44	-48.8	-50.4	16.0	6.03e-01	0	23	0	843055104	66	4317
2026-01-12 08:38:45.63	343.79	15.36	-49.7	-51.6	15.8	6.00e-01	0	23	0	845152256	67	4683
2026-01-12 08:38:46.62	343.61	15.29	-48.8	-50.4	16.0	6.01e-01	0	23	0	846725120	66	4312
2026-01-12 08:38:47.61	343.42	15.21	-49.3	-51.1	15.8	6.01e-01	0	23	0	848822272	66	4699
2026-01-12 08:38:48.60	343.24	15.13	-48.8	-50.4	16.0	6.00e-01	0	23	0	850919424	66	4320
2026-01-12 08:38:49.60	343.06	15.05	-49.2	-51.0	15.9	6.03e-01	0	23	0	852492288	66	4622
2026-01-12 08:38:50.59	342.88	14.98	-48.8	-50.4	16.0	6.01e-01	0	23	0	854589440	66	4332
2026-01-12 08:38:51.58	342.70	14.90	-49.2	-51.0	15.9	5.98e-01	0	23	0	856162304	66	4616
2026-01-12 08:38:52.57	342.52	14.82	-49.0	-50.7	15.9	6.01e-01	0	23	0	858259456	66	4452
2026-01-12 08:38:53.56	342.35	14.74	-49.4	-51.2	15.8	6.02e-01	0	23	0	859832320	66	4754
2026-01-12 08:38:54.55	342.17	14.66	-49.0	-50.7	15.9	6.00e-01	0	23	0	861929472	66	4476
2026-01-12 08:38:55.55	341.99	14.59	-49.1	-50.9	15.9	6.02e-01	0	23	0	863502336	66	4559
2026-01-12 08:38:56.54	341.82	14.51	-49.0	-50.7	15.9	6.02e-01	0	23	0	865599488	66	4473
2026-01-12 08:38:57.53	341.65	14.43	-49.0	-50.8	15.9	6.01e-01	0	23	0	867172352	66	4498
2026-01-12 08:38:58.52	341.47	14.35	-48.9	-50.6	16.0	6.00e-01	0	23	0	869269504	66	4436
2026-01-12 08:38:59.51	341.30	14.28	-49.0	-50.7	16.0	6.00e-01	0	23	0	871366656	66	4450
2026-01-12 08:39:00.50	341.13	14.20	-49.1	-50.8	15.9	6.00e-01	0	23	0	872939520	66	4520
2026-01-12 08:39:01.49	340.96	14.12	-49.1	-50.9	15.9	6.01e-01	0	23	0	875036672	66	4554
2026-01-12 08:39:02.49	340.79	14.04	-49.6	-51.5	15.8	6.01e-01	0	23	0	876609536	67	4599
2026-01-12 08:39:03.47	340.63	13.97	-49.0	-50.7	16.1	6.01e-01	0	23	0	878706688	67	4211
2026-01-12 08:39:04.47	340.46	13.89	-49.8	-51.7	15.8	6.00e-01	0	23	0	880279552	67	4734
2026-01-12 08:39:05.46	340.29	13.81	-49.1	-50.8	16.1	6.03e-01	0	23	0	882376704	67	4250
2026-01-12 08:39:06.46	340.13	13.73	-49.7	-51.5	15.8	6.01e-01	0	23	0	883949568	67	4641
2026-01-12 08:39:07.45	339.97	13.66	-49.7	-51.5	15.9	6.01e-01	0	23	0	886046720	68	4390
2026-01-12 08:39:08.45	339.80	13.58	-49.0	-50.6	16.1	5.98e-01	0	23	0	888143872	67	4177
2026-01-12 08:39:09.43	339.64	13.50	-50.2	-52.3	15.7	6.02e-01	0	23	0	889716736	68	4773
2026-01-12 08:39:10.42	339.48	13.42	-48.9	-50.6	16.1	6.02e-01	0	23	0	891289600	67	4147
2026-01-12 08:39:11.41	339.32	13.35	-49.8	-51.6	15.7	6.04e-01	0	23	0	893386752	67	4704
2026-01-12 08:39:12.41	339.16	13.27	-49.7	-51.6	15.9	6.02e-01	0	23	0	895483904	68	4394
2026-01-12 08:39:13.40	339.00	13.19	-48.8	-50.4	16.1	6.02e-01	0	23	0	897056768	66	4303
2026-01-12 08:39:14.39	338.85	13.12	-50.0	-52.0	15.6	6.04e-01	0	23	0	899153920	67	4871
2026-01-12 08:39:15.39	338.69	13.04	-48.9	-50.6	16.1	6.01e-01	0	23	0	900726784	67	4177
2026-01-12 08:39:16.39	338.53	12.96	-49.2	-51.0	15.8	6.00e-01	0	23	0	902823936	66	4616
2026-01-12 08:39:17.38	338.38	12.88	-49.7	-51.6	15.7	6.00e-01	0	23	0	904396800	67	4698
2026-01-12 08:39:18.36	338.22	12.81	-49.0	-50.7	16.2	6.03e-01	0	23	0	906493952	67	4195
2026-01-12 08:39:19.35	338.07	12.73	-49.8	-51.8	15.7	6.02e-01	0	23	0	908591104	67	4768
2026-01-12 08:39:20.34	337.92	12.66	-49.3	-51.1	15.9	6.00e-01	0	23	0	910163968	67	4430
2026-01-12 08:39:21.34	337.77	12.58	-49.0	-50.6	16.1	6.00e-01	0	23	0	912261120	67	4193
2026-01-12 08:39:22.33	337.62	12.50	-49.7	-51.6	15.8	6.02e-01	0	23	0	913833984	67	4664
2026-01-12 08:39:23.33	337.47	12.43	-49.3	-51.0	15.9	6.00e-01	0	23	0	915931136	67	4380
2026-01-12 08:39:24.31	337.32	12.35	-49.4	-51.1	15.9	6.02e-01	0	23	0	917504000	67	4436
2026-01-12 08:39:25.31	337.17	12.27	-49.9	-51.8	15.7	6.02e-01	0	23	0	919601152	67	4805
2026-01-12 08:39:26.32	337.02	12.20	-49.5	-51.3	15.9	6.00e-01	0	23	0	921174016	67	4518
2026-01-12 08:39:27.31	336.88	12.12	-49.8	-51.7	15.7	6.02e-01	0	23	0	923271168	67	4736
2026-01-12 08:39:28.31	336.73	12.04	-50.2	-52.1	15.7	6.01e-01	0	23	0	925368320	68	4704
2026-01-12 08:39:29.29	336.59	11.97	-49.5	-51.3	16.1	6.00e-01	0	23	0	926941184	68	4247
2026-01-12 08:39:30.30	336.44	11.89	-49.6	-51.4	16.1	6.01e-01	0	23	0	929038336	68	4313
2026-01-12 08:39:31.30	336.30	11.82	-50.0	-51.9	15.8	6.00e-01	0	23	0	930611200	68	4598
2026-01-12 08:39:32.28	336.16	11.74	-49.7	-51.5	16.0	6.00e-01	0	23	0	932708352	68	4371
2026-01-12 08:39:33.28	336.01	11.67	-49.8	-51.7	15.9	6.03e-01	0	23	0	934281216	68	4462
2026-01-12 08:39:34.27	335.87	11.59	-50.0	-52.0	15.8	6.01e-01	0	23	0	936378368	68	4606
2026-01-12 08:39:35.27	335.73	11.51	-49.7	-51.5	16.0	6.02e-01	0	23	0	937951232	68	4357
2026-01-12 08:39:36.26	335.59	11.44	-49.8	-51.6	16.0	6.02e-01	0	23	0	940048384	68	4412
2026-01-12 08:39:37.24	335.46	11.37	-49.8	-51.7	15.9	6.00e-01	0	23	0	942145536	68	4459
2026-01-12 08:39:38.24	335.32	11.29	-49.4	-51.2	16.1	6.03e-01	0	23	0	943718400	68	4199
2026-01-12 08:39:39.24	335.18	11.21	-49.3	-51.1	16.0	6.03e-01	0	23	0	945291264	67	4407
2026-01-12 08:39:40.22	335.05	11.14	-49.5	-51.3	15.9	6.00e-01	0	23	0	947388416	67	4513
2026-01-12 08:39:41.22	334.91	11.07	-49.5	-51.4	15.9	6.00e-01	0	23	0	949485568	67	4549
2026-01-12 08:39:42.21	334.78	10.99	-49.5	-51.3	15.9	6.00e-01	0	23	0	951058432	67	4517
2026-01-12 08:39:43.20	334.64	10.92	-49.7	-51.5	15.8	6.03e-01	0	23	0	953155584	67	4645
2026-01-12 08:39:44.19	334.51	10.84	-49.9	-51.8	15.7	6.03e-01	0	23	0	954728448	67	4784
2026-01-12 08:39:45.19	334.38	10.77	-49.8	-51.7	15.7	5.99e-01	0	23	0	956825600	67	4750
2026-01-12 08:39:46.18	334.25	10.69	-49.8	-51.7	15.7	6.02e-01	0	23	0	958398464	67	4748
2026-01-12 08:39:47.18	334.12	10.62	-49.8	-51.8	15.7	6.00e-01	0	23	0	960495616	67	4777
2026-01-12 08:39:48.17	333.99	10.55	-49.6	-51.5	15.8	6.03e-01	0	23	0	962068480	67	4619
2026-01-12 08:39:49.16	333.86	10.47	-49.7	-51.6	15.7	6.02e-01	0	23	0	964165632	67	4677
2026-01-12 08:39:50.16	333.73	10.40	-49.7	-51.6	15.8	6.01e-01	0	23	0	966262784	67	4672
2026-01-12 08:39:51.15	333.60	10.32	-49.4	-51.3	15.9	6.00e-01	0	23	0	967835648	67	4498
2026-01-12 08:39:52.15	333.47	10.25	-49.5	-51.3	15.9	6.00e-01	0	23	0	969932800	67	4506
2026-01-12 08:39:53.14	333.35	10.18	-49.7	-51.6	15.8	6.02e-01	0	23	0	971505664	67	4656
2026-01-12 08:39:54.14	333.22	10.10	-49.7	-51.6	15.7	6.01e-01	0	23	0	973602816	67	4696
2026-01-12 08:39:55.14	333.10	10.03	-49.7	-51.5	15.8	6.00e-01	0	23	0	975175680	67	4639
2026-01-12 08:39:56.14	332.97	9.96	-49.7	-51.5	15.8	6.00e-01	0	23	0	977272832	67	4645
2026-01-12 08:39:57.13	332.85	9.88	-49.8	-51.7	15.7	6.02e-01	0	23	0	979369984	67	4715
2026-01-12 08:39:58.13	332.72	9.81	-49.7	-51.6	15.8	6.00e-01	0	23	0	980942848	67	4674
2026-01-12 08:39:59.13	332.60	9.74	-49.7	-51.6	15.8	6.00e-01	0	23	0	983040000	67	4665
2026-01-12 08:40:00.12	332.48	9.67	-49.7	-51.6	15.8	6.02e-01	0	23	0	984612864	67	4692
2026-01-12 08:40:01.11	332.36	9.59	-49.8	-51.7	15.7	5.99e-01	0	23	0	986710016	67	4742
2026-01-12 08:40:02.09	332.24	9.52	-49.9	-51.8	15.6	6.01e-01	0	23	0	988282880	67	4805
2026-01-12 08:40:03.09	332.12	9.45	-49.7	-51.6	15.8	6.01e-01	0	23	0	990380032	67	4672
2026-01-12 08:40:04.09	332.00	9.38	-49.8	-51.7	15.7	5.99e-01	0	23	0	991952896	67	4734
2026-01-12 08:40:05.08	331.88	9.30	-49.8	-51.8	15.7	6.01e-01	0	23	0	994050048	67	4776
2026-01-12 08:40:06.08	331.76	9.23	-49.8	-51.7	15.7	6.02e-01	0	23	0	996147200	67	4744
2026-01-12 08:40:07.07	331.65	9.16	-49.8	-51.7	15.7	5.99e-01	0	23	0	997720064	67	4717
2026-01-12 08:40:08.05	331.53	9.09	-49.9	-51.8	15.7	6.01e-01	0	23	0	999817216	67	4779
2026-01-12 08:40:09.04	331.42	9.02	-49.9	-51.9	15.7	5.99e-01	0	23	0	1001390080	67	4828
2026-01-12 08:40:10.03	331.30	8.95	-50.0	-52.0	15.6	6.04e-01	0	23	0	1003487232	67	4905
2026-01-12 08:40:11.02	331.19	8.88	-50.0	-52.0	15.6	6.01e-01	0	23	0	1005060096	67	4892
2026-01-12 08:40:12.01	331.08	8.81	-50.0	-52.0	15.6	6.02e-01	0	23	0	1007157248	67	4912
2026-01-12 08:40:13.00	330.96	8.73	-50.1	-52.1	15.5	6.00e-01	0	23	0	1008730112	67	4951
2026-01-12 08:40:13.99	330.85	8.66	-50.1	-52.1	15.7	6.03e-01	0	23	0	1010827264	68	4694
2026-01-12 08:40:14.98	330.74	8.59	-50.0	-52.0	15.8	6.04e-01	0	23	0	1012400128	68	4629
2026-01-12 08:40:15.98	330.63	8.52	-50.1	-52.1	15.7	6.00e-01	0	23	0	1014497280	68	4684
2026-01-12 08:40:16.96	330.52	8.45	-50.0	-52.0	15.8	5.99e-01	0	23	0	1016070144	68	4603
2026-01-12 08:40:17.96	330.41	8.38	-50.0	-51.9	15.8	6.01e-01	0	23	0	1018167296	68	4594
2026-01-12 08:40:18.96	330.30	8.31	-50.0	-52.0	15.8	6.01e-01	0	23	0	1020264448	68	4612
2026-01-12 08:40:19.96	330.19	8.24	-49.9	-51.8	15.8	5.99e-01	0	23	0	1021837312	68	4545
2026-01-12 08:40:20.95	330.08	8.17	-50.0	-52.0	15.8	6.03e-01	0	23	0	1023934464	68	4634
2026-01-12 08:40:21.94	329.97	8.10	-50.2	-52.2	15.7	6.01e-01	0	23	0	1025507328	68	4739
2026-01-12 08:40:22.94	329.86	8.03	-50.2	-52.2	15.7	6.00e-01	0	23	0	1027604480	68	4738
2026-01-12 08:40:23.94	329.76	7.96	-50.2	-52.3	15.7	6.01e-01	0	23	0	1029177344	68	4781
2026-01-12 08:40:24.93	329.65	7.89	-50.2	-52.3	15.7	6.02e-01	0	23	0	1031274496	68	4769
2026-01-12 08:40:25.91	329.55	7.82	-50.1	-52.1	15.7	6.01e-01	0	23	0	1032847360	68	4697
2026-01-12 08:40:26.91	329.44	7.75	-50.1	-52.2	15.7	6.03e-01	0	23	0	1034944512	68	4708
2026-01-12 08:40:27.90	329.34	7.68	-50.2	-52.3	15.6	6.02e-01	0	23	0	1037041664	68	4775
2026-01-12 08:40:28.89	329.23	7.62	-50.3	-52.3	15.6	6.01e-01	0	23	0	1038614528	68	4793
2026-01-12 08:40:29.88	329.13	7.55	-50.2	-52.3	15.7	6.02e-01	0	23	0	1040711680	68	4786
2026-01-12 08:40:30.87	329.03	7.48	-50.1	-52.2	15.7	6.01e-01	0	23	0	1042284544	68	4713
2026-01-12 08:40:31.86	328.92	7.41	-50.3	-52.4	15.6	6.01e-01	0	23	0	1044381696	68	4867
2026-01-12 08:40:32.85	328.82	7.34	-50.4	-52.5	15.6	6.02e-01	0	23	0	1045954560	68	4875
2026-01-12 08:40:33.85	328.72	7.27	-50.3	-52.4	15.6	6.01e-01	0	23	0	1048051712	68	4825
2026-01-12 08:40:34.84	328.62	7.20	-50.3	-52.3	15.6	6.03e-01	0	23	0	1049624576	68	4799
2026-01-12 08:40:35.83	328.52	7.14	-50.3	-52.4	15.6	6.00e-01	0	23	0	1051721728	68	4853
2026-01-12 08:40:36.82	328.42	7.07	-50.4	-52.6	15.5	6.00e-01	0	23	0	1053294592	68	4930
2026-01-12 08:40:37.82	328.32	7.00	-50.4	-52.5	15.5	5.99e-01	0	23	0	1055391744	68	4916
2026-01-12 08:40:38.81	328.22	6.93	-50.3	-52.3	15.6	6.02e-01	0	23	0	1057488896	68	4792
2026-01-12 08:40:39.80	328.13	6.86	-50.4	-52.5	15.6	6.04e-01	0	23	0	1059061760	68	4901
2026-01-12 08:40:40.79	328.03	6.80	-50.4	-52.5	15.5	5.98e-01	0	23	0	1061158912	68	4904
2026-01-12 08:40:41.78	327.93	6.73	-50.5	-52.6	15.5	5.99e-01	0	23	0	1062731776	68	4973
2026-01-12 08:40:42.77	327.84	6.66	-50.3	-52.4	15.6	6.02e-01	0	23	0	1064828928	68	4824
2026-01-12 08:40:43.83	327.73	6.59	-50.3	-52.4	15.6	6.02e-01	0	23	0	1066401792	68	4851
2026-01-12 08:40:44.73	327.65	6.53	-50.5	-52.6	15.5	6.03e-01	0	23	0	1068498944	68	4975
2026-01-12 08:40:45.80	327.55	6.46	-50.4	-52.5	15.6	6.01e-01	0	23	0	1070071808	68	4894
2026-01-12 08:40:46.67	327.46	6.40	-50.8	-53.0	15.5	5.98e-01	0	23	0	1072168960	69	4907
2026-01-12 08:40:47.82	327.35	6.32	-50.6	-52.8	15.6	6.01e-01	0	23	0	1074266112	69	4762
2026-01-12 08:40:48.67	327.27	6.27	-50.4	-52.5	15.7	6.00e-01	0	23	0	1075838976	69	4640
2026-01-12 08:40:49.81	327.17	6.19	-50.9	-53.1	15.5	6.04e-01	0	23	0	1077936128	69	4981
2026-01-12 08:40:50.66	327.09	6.13	-51.3	-53.7	15.4	6.02e-01	0	23	0	1079508992	70	5006
2026-01-12 08:40:51.80	326.98	6.06	-51.0	-53.3	15.5	6.01e-01	0	23	0	1081606144	70	4795
2026-01-12 08:40:52.64	326.90	6.00	-50.6	-52.7	15.8	6.02e-01	0	23	0	1083179008	70	4490
2026-01-12 08:40:53.78	326.80	5.92	-50.7	-52.9	15.8	6.00e-01	0	23	0	1085276160	70	4553
2026-01-12 08:40:54.64	326.72	5.87	-50.3	-52.4	15.7	6.00e-01	0	23	0	1086849024	69	4577
2026-01-12 08:40:55.77	326.62	5.79	-50.6	-52.8	15.6	6.02e-01	0	23	0	1088946176	69	4770
2026-01-12 08:40:56.63	326.54	5.74	-50.4	-52.5	15.7	6.00e-01	0	23	0	1090519040	69	4637
2026-01-12 08:40:57.78	326.44	5.66	-50.6	-52.8	15.6	6.01e-01	0	23	0	1092616192	69	4807
2026-01-12 08:40:58.63	326.36	5.60	-50.6	-52.9	15.6	6.00e-01	0	23	0	1094189056	69	4816
2026-01-12 08:40:59.77	326.26	5.53	-50.5	-52.7	15.6	6.01e-01	0	23	0	1096286208	69	4729
2026-01-12 08:41:00.61	326.19	5.47	-50.9	-53.2	15.5	6.03e-01	0	23	0	1097859072	69	4986
2026-01-12 08:41:01.74	326.09	5.40	-50.7	-52.9	15.6	6.02e-01	0	23	0	1099956224	69	4837
2026-01-12 08:41:02.59	326.01	5.34	-51.4	-53.9	15.3	5.99e-01	0	23	0	1101529088	70	5128
2026-01-12 08:41:03.74	325.91	5.27	-50.9	-53.2	15.6	5.98e-01	0	23	0	1103626240	70	4722
2026-01-12 08:41:04.59	325.84	5.21	-50.9	-53.2	15.6	6.02e-01	0	23	0	1105723392	70	4710
2026-01-12 08:41:05.73	325.74	5.14	-51.1	-53.5	15.5	6.00e-01	0	23	0	1107820544	70	4894
2026-01-12 08:41:06.58	325.67	5.08	-51.1	-53.4	15.5	6.02e-01	0	23	0	1109393408	70	4858
2026-01-12 08:41:07.72	325.57	5.01	-55.7	-61.2	13.2	6.02e-01	0	23	0	1111490560	78	7516
2026-01-12 08:41:08.59	325.50	4.95	-57.3	-76.6	3.7	7.50e-01	0	23	104	1112014848	82	35259
2026-01-12 08:41:09.73	325.40	4.88	-57.7	-76.9	3.8	7.49e-01	0	23	104	1112014848	83	34474
2026-01-12 08:41:10.59	325.33	4.83	-57.9	-77.2	3.8	7.49e-01	0	23	104	1112014848	83	35554
2026-01-12 08:41:11.73	325.23	4.75	-58.3	-77.7	3.9	7.43e-01	0	23	104	1112014848	84	35418
2026-01-12 08:41:12.59	325.16	4.70	-58.5	-77.8	3.8	7.45e-01	0	23	104	1112014848	84	35812
2026-01-12 08:41:13.74	325.06	4.62	-58.7	-78.0	3.9	7.46e-01	0	23	104	1112014848	85	34626
2026-01-12 08:41:14.61	324.99	4.57	-58.8	-78.1	3.8	7.44e-01	0	23	104	1112014848	85	34991
2026-01-12 08:41:15.75	324.90	4.50	-58.8	-78.2	3.8	7.46e-01	0	23	104	1112014848	85	35409
2026-01-12 08:41:16.61	324.83	4.44	-58.9	-78.3	3.8	7.44e-01	0	23	104	1112014848	85	35732
2026-01-12 08:41:17.76	324.73	4.37	-59.0	-78.3	3.8	7.47e-01	0	23	104	1112014848	85	36021
2026-01-12 08:41:18.63	324.66	4.31	-59.0	-78.4	3.8	7.46e-01	0	23	104	1112014848	85	36149
2026-01-12 08:41:19.78	324.57	4.24	-59.1	-78.4	3.8	7.47e-01	0	23	104	1112014848	85	36390
2026-01-12 08:41:20.64	324.50	4.18	-59.1	-78.5	3.8	7.44e-01	0	23	104	1112014848	85	36578
2026-01-12 08:41:21.78	324.41	4.11	-59.2	-78.5	3.8	7.47e-01	0	23	104	1112014848	86	34839
2026-01-12 08:41:22.64	324.34	4.06	-59.2	-78.6	3.8	7.43e-01	0	23	104	1112014848	86	34936
2026-01-12 08:41:23.79	324.25	3.99	-59.2	-78.6	3.8	7.47e-01	0	23	104	1112014848	86	35022
2026-01-12 08:41:24.66	324.19	3.93	-59.3	-78.6	3.8	7.47e-01	0	23	104	1112014848	86	35195
2026-01-12 08:41:25.80	324.10	3.86	-59.3	-78.6	3.8	7.47e-01	0	23	104	1112014848	86	35201
2026-01-12 08:41:26.67	324.03	3.81	-59.3	-78.6	3.8	7.46e-01	0	23	104	1112014848	86	35222
2026-01-12 08:41:27.81	323.94	3.73	-59.3	-78.7	3.8	7.47e-01	0	23	104	1112014848	86	35333
2026-01-12 08:41:28.68	323.87	3.68	-59.3	-78.6	3.8	7.43e-01	0	23	104	1112014848	86	35274
2026-01-12 08:41:29.82	323.79	3.61	-59.2	-78.6	3.8	7.48e-01	0	23	104	1112014848	86	35067
2026-01-12 08:41:30.67	323.72	3.56	-59.2	-78.6	3.8	7.44e-01	0	23	104	1112014848	86	35011
2026-01-12 08:41:31.80	323.64	3.49	-59.2	-78.6	3.8	7.47e-01	0	23	104	1112014848	86	34979
2026-01-12 08:41:32.65	323.57	3.43	-59.2	-78.6	3.8	7.48e-01	0	23	104	1112014848	86	34930
2026-01-12 08:41:33.79	323.49	3.36	-59.2	-78.6	3.8	7.48e-01	0	23	104	1112014848	86	34887
2026-01-12 08:41:34.65	323.42	3.31	-59.2	-78.5	3.8	7.42e-01	0	23	104	1112014848	86	34857
2026-01-12 08:41:35.80	323.34	3.24	-59.2	-78.5	3.8	7.46e-01	0	23	104	1112014848	86	34813
2026-01-12 08:41:36.64	323.27	3.19	-59.2	-78.5	3.8	7.46e-01	0	23	104	1112014848	86	34762
2026-01-12 08:41:37.78	323.19	3.12	-59.2	-78.5	3.8	7.48e-01	0	23	104	1112014848	86	34707
2026-01-12 08:41:38.63	323.13	3.07	-59.2	-78.5	3.8	7.47e-01	0	23	104	1112014848	86	34734
2026-01-12 08:41:39.76	323.05	3.00	-59.2	-78.5	3.8	7.49e-01	0	23	104	1112014848	86	34765
2026-01-12 08:41:40.62	322.98	2.94	-59.1	-78.5	3.8	7.44e-01	0	23	104	1112014848	86	34693
2026-01-12 08:41:41.77	322.90	2.87	-59.1	-78.5	3.8	7.44e-01	0	23	104	1112014848	86	34628
2026-01-12 08:41:42.62	322.84	2.82	-59.2	-78.5	3.8	7.47e-01	0	23	104	1112014848	86	34584
2026-01-12 08:41:43.76	322.76	2.75	-59.1	-78.5	3.8	7.45e-01	0	23	104	1112014848	86	34597
2026-01-12 08:41:44.61	322.70	2.70	-59.1	-78.5	3.8	7.48e-01	0	23	104	1112014848	86	34583
2026-01-12 08:41:45.74	322.62	2.63	-59.1	-78.5	3.8	7.49e-01	0	23	104	1112014848	86	34584
2026-01-12 08:41:46.59	322.56	2.58	-59.1	-78.4	3.8	7.46e-01	0	23	104	1112014848	86	34472
2026-01-12 08:41:47.73	322.48	2.51	-59.1	-78.5	3.8	7.49e-01	0	23	104	1112014848	86	34526
2026-01-12 08:41:48.57	322.42	2.46	-59.1	-78.5	3.8	7.47e-01	0	23	104	1112014848	86	34591
2026-01-12 08:41:49.71	322.34	2.39	-59.1	-78.5	3.8	7.43e-01	0	23	104	1112014848	86	34575
2026-01-12 08:41:50.56	322.28	2.34	-59.1	-78.5	3.8	7.48e-01	0	23	104	1112014848	86	34495
2026-01-12 08:41:51.70	322.20	2.27	-59.1	-78.5	3.8	7.47e-01	0	23	104	1112014848	86	34529
2026-01-12 08:41:52.55	322.14	2.22	-59.1	-78.5	3.8	7.45e-01	0	23	104	1112014848	86	34530
2026-01-12 08:41:53.68	322.06	2.16	-59.1	-78.4	3.8	7.46e-01	0	23	104	1112014848	86	34392
2026-01-12 08:41:54.54	322.01	2.10	-59.1	-78.4	3.8	7.49e-01	0	23	104	1112014848	86	34354
2026-01-12 08:41:55.67	321.93	2.04	-59.1	-78.4	3.8	7.44e-01	0	23	104	1112014848	86	34410
2026-01-12 08:41:56.53	321.87	1.99	-59.1	-78.4	3.8	7.46e-01	0	23	104	1112014848	86	34437
2026-01-12 08:41:57.66	321.80	1.92	-59.1	-78.4	3.8	7.47e-01	0	23	104	1112014848	86	34416

#Closed at: 2026-01-12 08:41:58
#Recorded file [1112 MB]: D:/lorett/data/31004_260112_113031.dat