passes_logs/2026/01/12/R3.2S_Murmansk/R3.2S_Murmansk__20260112_211919_KANOPUS-V_5_rec.log

#Pass ID: 20260112_211919_KANOPUS-V 5
#Satellite: KANOPUS-V 5
#Configuration: KANOPUS-V_8320
#almurnet v.1.7.20251203
#Start time: 2026-01-12 21:19:20

#Version: 2.2.20231116
#Station: R3.2S_Murmansk
#Location: 33.079688 lon 68.888172 lat
#TLE: 1 43876U 18111A   26012.28056898  .00003514  00000+0  15053-3 0  9996
#TLE: 2 43876  97.3682 280.8443 0001794  87.9048 272.2394 15.23425790391056

#Time	Az	El	Level	Level2	SNR	BER	BlckErr	Temp	State	Recorded	gain1	gain2
2026-01-12 21:19:20.40	21.30	2.04	-58.2	-67.8	3.8	7.46e-01	0	21	0	0	80	11029
2026-01-12 21:19:21.36	21.35	2.10	-58.2	-67.8	3.8	7.46e-01	0	21	104	0	80	11027
2026-01-12 21:19:22.33	21.40	2.17	-58.2	-67.9	3.8	7.44e-01	0	21	104	0	80	11066
2026-01-12 21:19:23.29	21.45	2.23	-58.2	-67.9	3.8	7.46e-01	0	21	104	0	80	11048
2026-01-12 21:19:24.26	21.50	2.30	-58.2	-67.9	3.8	7.46e-01	0	21	104	0	80	11042
2026-01-12 21:19:25.23	21.55	2.36	-58.2	-67.9	3.8	7.45e-01	0	21	104	0	80	11041
2026-01-12 21:19:26.20	21.60	2.43	-58.2	-67.9	3.8	7.45e-01	0	21	104	0	80	11050
2026-01-12 21:19:27.17	21.65	2.50	-58.2	-67.9	3.8	7.46e-01	0	21	104	0	80	11066
2026-01-12 21:19:28.14	21.70	2.56	-58.2	-67.9	3.8	7.46e-01	0	21	104	0	80	11081
2026-01-12 21:19:29.10	21.76	2.63	-58.2	-67.9	3.8	7.47e-01	0	21	104	0	80	11063
2026-01-12 21:19:30.07	21.81	2.70	-58.2	-67.9	3.8	7.46e-01	0	21	104	0	80	11110
2026-01-12 21:19:31.04	21.86	2.76	-58.2	-67.9	3.8	7.46e-01	0	21	104	0	80	11072
2026-01-12 21:19:32.00	21.91	2.83	-58.2	-67.9	3.8	7.45e-01	0	21	104	0	80	11116
2026-01-12 21:19:32.97	21.96	2.90	-58.2	-67.9	3.8	7.44e-01	0	21	104	0	80	11083
2026-01-12 21:19:33.94	22.02	2.96	-58.2	-67.9	3.8	7.45e-01	0	21	104	0	80	11069
2026-01-12 21:19:34.90	22.07	3.03	-58.2	-67.9	3.8	7.45e-01	0	21	104	0	80	11095
2026-01-12 21:19:35.87	22.12	3.10	-58.2	-67.9	3.8	7.43e-01	0	22	104	0	80	11048
2026-01-12 21:19:36.84	22.18	3.17	-58.2	-67.9	3.8	7.46e-01	0	21	104	0	80	11094
2026-01-12 21:19:37.81	22.23	3.24	-58.2	-67.9	3.8	7.46e-01	0	22	104	0	80	11105
2026-01-12 21:19:38.77	22.28	3.30	-58.2	-67.9	3.8	7.46e-01	0	21	104	0	80	11085
2026-01-12 21:19:39.74	22.34	3.37	-58.2	-67.9	3.8	7.46e-01	0	21	104	0	80	11092
2026-01-12 21:19:40.70	22.39	3.44	-58.2	-67.9	3.8	7.44e-01	0	22	104	0	80	11115
2026-01-12 21:19:41.66	22.45	3.51	-58.2	-67.9	3.8	7.45e-01	0	21	104	0	80	11095
2026-01-12 21:19:42.63	22.50	3.58	-58.2	-67.9	3.8	7.46e-01	0	21	104	0	80	11110
2026-01-12 21:19:43.60	22.56	3.65	-58.2	-67.9	3.8	7.46e-01	0	22	104	0	80	11096
2026-01-12 21:19:44.57	22.61	3.72	-58.2	-67.9	3.8	7.45e-01	0	22	104	0	80	11087
2026-01-12 21:19:45.53	22.67	3.79	-58.2	-67.9	3.8	7.44e-01	0	22	104	0	80	11103
2026-01-12 21:19:46.49	22.73	3.86	-58.2	-67.9	3.8	7.45e-01	0	22	104	0	80	11117
2026-01-12 21:19:47.46	22.78	3.93	-58.2	-67.9	3.8	7.44e-01	0	22	104	0	80	11080
2026-01-12 21:19:48.42	22.84	4.00	-58.2	-67.9	3.8	7.45e-01	0	22	104	0	80	11058
2026-01-12 21:19:49.39	22.90	4.07	-58.2	-67.9	3.8	7.44e-01	0	22	104	0	80	11109
2026-01-12 21:19:50.35	22.95	4.14	-58.2	-67.9	3.8	7.46e-01	0	22	104	0	80	11065
2026-01-12 21:19:51.32	23.01	4.21	-58.2	-67.9	3.8	7.45e-01	0	22	104	0	80	11077
2026-01-12 21:19:52.29	23.07	4.29	-58.2	-67.9	3.8	7.45e-01	0	22	104	0	80	11086
2026-01-12 21:19:53.25	23.13	4.36	-58.2	-67.9	3.8	7.47e-01	0	22	104	0	80	11082
2026-01-12 21:19:54.22	23.19	4.43	-58.2	-67.9	3.8	7.45e-01	0	22	104	0	80	11085
2026-01-12 21:19:55.18	23.25	4.50	-58.2	-67.9	3.8	7.44e-01	0	22	104	0	80	11106
2026-01-12 21:19:56.15	23.31	4.58	-58.2	-67.9	3.8	7.45e-01	0	22	104	0	80	11088
2026-01-12 21:19:57.12	23.37	4.65	-58.2	-67.9	3.8	7.44e-01	0	22	104	0	80	11093
2026-01-12 21:19:58.09	23.43	4.72	-58.2	-67.9	3.8	7.45e-01	0	22	104	0	80	11098
2026-01-12 21:19:59.06	23.49	4.80	-58.2	-67.9	3.8	7.45e-01	0	22	104	0	80	11094
2026-01-12 21:20:00.02	23.55	4.87	-58.2	-67.9	3.8	7.45e-01	0	22	104	0	80	11088
2026-01-12 21:20:00.99	23.61	4.94	-58.2	-67.9	3.8	7.45e-01	0	22	104	0	80	11052
2026-01-12 21:20:01.95	23.67	5.02	-58.2	-67.9	3.8	7.45e-01	0	22	104	0	80	11074
2026-01-12 21:20:02.92	23.74	5.09	-58.5	-68.2	3.8	7.46e-01	0	22	104	0	80	11473
2026-01-12 21:20:03.89	23.80	5.17	-58.1	-67.8	3.8	7.45e-01	0	22	104	0	80	10985
2026-01-12 21:20:04.86	23.86	5.24	-58.4	-68.1	3.8	7.46e-01	0	22	104	0	80	11331
2026-01-12 21:20:05.83	23.93	5.32	-58.4	-68.1	3.8	7.46e-01	0	22	104	0	80	11312
2026-01-12 21:20:06.80	23.99	5.39	-58.2	-67.9	3.8	7.45e-01	0	22	104	0	80	11127
2026-01-12 21:20:07.76	24.05	5.47	-58.2	-67.9	3.8	7.46e-01	0	22	104	0	80	11043
2026-01-12 21:20:08.73	24.12	5.54	-58.4	-68.1	3.8	7.46e-01	0	22	104	0	80	11293
2026-01-12 21:20:09.70	24.18	5.62	-58.4	-68.1	3.8	7.46e-01	0	22	104	0	80	11350
2026-01-12 21:20:10.66	24.25	5.70	-58.3	-68.0	3.8	7.46e-01	0	22	104	0	80	11242
2026-01-12 21:20:11.63	24.32	5.77	-58.2	-67.9	3.8	7.44e-01	0	22	104	0	80	11136
2026-01-12 21:20:12.59	24.38	5.85	-58.4	-68.1	3.8	7.46e-01	0	22	104	0	80	11396
2026-01-12 21:20:13.57	24.45	5.93	-58.5	-68.2	3.8	7.46e-01	0	22	104	0	80	11511
2026-01-12 21:20:14.53	24.52	6.01	-58.4	-68.1	3.8	7.47e-01	0	22	104	0	80	11389
2026-01-12 21:20:15.50	24.58	6.08	-58.3	-68.0	3.8	7.46e-01	0	22	104	0	80	11261
2026-01-12 21:20:16.47	24.65	6.16	-58.4	-68.1	3.8	7.45e-01	0	22	104	0	80	11390
2026-01-12 21:20:17.43	24.72	6.24	-58.5	-68.2	3.8	7.45e-01	0	22	104	0	80	11499
2026-01-12 21:20:18.41	24.79	6.32	-58.5	-68.2	3.8	7.45e-01	0	22	104	0	80	11488
2026-01-12 21:20:19.37	24.86	6.40	-58.4	-68.1	3.8	7.45e-01	0	22	104	0	80	11357
2026-01-12 21:20:20.34	24.93	6.48	-58.4	-68.1	3.8	7.44e-01	0	22	104	0	80	11367
2026-01-12 21:20:21.31	25.00	6.56	-58.6	-68.3	3.8	7.45e-01	0	22	104	0	80	11578
2026-01-12 21:20:22.28	25.07	6.64	-58.5	-68.3	3.8	7.45e-01	0	22	104	0	80	11570
2026-01-12 21:20:23.24	25.14	6.72	-58.5	-68.2	3.8	7.46e-01	0	22	104	0	80	11426
2026-01-12 21:20:24.21	25.21	6.80	-58.5	-68.2	3.8	7.46e-01	0	22	104	0	80	11428
2026-01-12 21:20:25.18	25.29	6.88	-58.6	-68.3	3.8	7.46e-01	0	22	104	0	80	11616
2026-01-12 21:20:26.15	25.36	6.96	-58.6	-68.3	3.8	7.45e-01	0	22	104	0	80	11614
2026-01-12 21:20:27.13	25.43	7.04	-58.5	-68.2	3.8	7.45e-01	0	22	104	0	80	11504
2026-01-12 21:20:28.10	25.51	7.13	-58.5	-68.2	3.8	7.45e-01	0	22	104	0	80	11502
2026-01-12 21:20:29.07	25.58	7.21	-58.6	-68.3	3.8	7.45e-01	0	22	104	0	80	11644
2026-01-12 21:20:30.05	25.66	7.29	-58.6	-68.3	3.8	7.46e-01	0	22	104	0	80	11681
2026-01-12 21:20:31.02	25.73	7.38	-58.5	-68.2	3.8	7.46e-01	0	22	104	0	80	11539
2026-01-12 21:20:32.00	25.81	7.46	-58.5	-68.2	3.8	7.46e-01	0	22	104	0	80	11541
2026-01-12 21:20:32.97	25.88	7.54	-58.7	-68.4	3.8	7.45e-01	0	22	104	0	80	11730
2026-01-12 21:20:33.95	25.96	7.63	-58.7	-68.4	3.8	7.44e-01	0	22	104	0	80	11788
2026-01-12 21:20:34.93	26.04	7.72	-58.6	-68.3	3.8	7.44e-01	0	22	104	0	80	11625
2026-01-12 21:20:35.92	26.12	7.80	-58.6	-68.3	3.8	7.44e-01	0	22	104	0	80	11614
2026-01-12 21:20:36.90	26.20	7.89	-58.7	-68.4	3.8	7.46e-01	0	22	104	0	80	11782
2026-01-12 21:20:37.89	26.28	7.98	-58.7	-68.4	3.8	7.46e-01	0	22	104	0	80	11772
2026-01-12 21:20:38.89	26.36	8.06	-58.6	-68.4	3.8	7.46e-01	0	22	104	0	80	11689
2026-01-12 21:20:39.88	26.44	8.15	-58.6	-68.3	3.8	7.47e-01	0	22	104	0	80	11606
2026-01-12 21:20:40.88	26.53	8.24	-58.8	-68.5	3.8	7.45e-01	0	22	104	0	80	11837
2026-01-12 21:20:41.86	26.61	8.33	-58.8	-68.5	3.8	7.44e-01	0	22	104	0	80	11825
2026-01-12 21:20:42.86	26.69	8.42	-58.7	-68.4	3.8	7.45e-01	0	22	104	0	80	11731
2026-01-12 21:20:43.86	26.78	8.51	-58.7	-68.4	3.8	7.45e-01	0	23	104	0	80	11705
2026-01-12 21:20:44.84	26.86	8.60	-58.8	-68.5	3.8	7.46e-01	0	23	104	0	80	11897
2026-01-12 21:20:45.83	26.95	8.69	-58.8	-68.5	3.8	7.45e-01	0	23	104	0	80	11905
2026-01-12 21:20:46.82	27.03	8.78	-58.7	-68.4	3.8	7.46e-01	0	23	104	0	80	11806
2026-01-12 21:20:47.81	27.12	8.87	-58.7	-68.4	3.8	7.45e-01	0	23	104	0	80	11792
2026-01-12 21:20:48.80	27.21	8.96	-58.8	-68.5	3.8	7.45e-01	0	23	104	0	80	11857
2026-01-12 21:20:49.79	27.30	9.06	-58.8	-68.6	3.8	7.47e-01	0	23	104	0	80	11967
2026-01-12 21:20:50.78	27.38	9.15	-58.8	-68.4	3.8	7.45e-01	0	22	104	0	80	11816
2026-01-12 21:20:51.78	27.47	9.24	-58.7	-68.4	3.8	7.47e-01	0	23	104	0	80	11816
2026-01-12 21:20:52.77	27.56	9.33	-58.8	-68.5	3.8	7.45e-01	0	23	104	0	80	11931
2026-01-12 21:20:53.76	27.66	9.43	-58.8	-68.5	3.8	7.45e-01	0	22	104	0	80	11938
2026-01-12 21:20:54.75	27.75	9.52	-58.8	-68.5	3.8	7.45e-01	0	23	104	0	80	11892
2026-01-12 21:20:55.74	27.84	9.62	-58.8	-68.5	3.8	7.47e-01	0	23	104	0	80	11879
2026-01-12 21:20:56.73	27.93	9.71	-58.9	-68.6	3.8	7.46e-01	0	22	104	0	80	11987
2026-01-12 21:20:57.72	28.03	9.81	-58.9	-68.6	3.8	7.46e-01	0	23	104	0	80	12001
2026-01-12 21:20:58.71	28.12	9.90	-58.8	-68.5	3.8	7.46e-01	0	23	104	0	80	11942
2026-01-12 21:20:59.70	28.21	10.00	-58.8	-68.5	3.8	7.47e-01	0	23	104	0	80	11882
2026-01-12 21:21:00.68	28.31	10.10	-58.9	-68.6	3.8	7.46e-01	0	23	104	0	80	11979
2026-01-12 21:21:01.66	28.40	10.19	-58.9	-68.6	3.8	7.45e-01	0	23	104	0	80	12032
2026-01-12 21:21:02.65	28.50	10.29	-58.8	-68.6	3.8	7.45e-01	0	23	104	0	80	11999
2026-01-12 21:21:03.63	28.60	10.39	-58.8	-68.5	3.8	7.46e-01	0	23	104	0	80	11931
2026-01-12 21:21:04.62	28.70	10.48	-58.9	-68.6	3.8	7.46e-01	0	23	104	0	80	12025
2026-01-12 21:21:05.61	28.80	10.58	-59.0	-68.7	3.8	7.45e-01	0	23	104	0	81	11469
2026-01-12 21:21:06.60	28.90	10.68	-58.9	-68.6	3.8	7.45e-01	0	23	104	0	81	11388
2026-01-12 21:21:07.58	29.00	10.78	-58.9	-68.6	3.8	7.46e-01	0	23	104	0	81	11372
2026-01-12 21:21:08.56	29.10	10.88	-59.0	-68.6	3.8	7.43e-01	0	23	104	0	81	11378
2026-01-12 21:21:09.56	29.20	10.98	-59.0	-68.7	3.8	7.46e-01	0	23	104	0	81	11478
2026-01-12 21:21:10.54	29.30	11.08	-59.0	-68.7	3.8	7.47e-01	0	23	104	0	81	11465
2026-01-12 21:21:11.54	29.41	11.19	-58.9	-68.6	3.8	7.46e-01	0	23	104	0	81	11332
2026-01-12 21:21:12.52	29.51	11.29	-58.9	-68.6	3.8	7.46e-01	0	23	104	0	81	11389
2026-01-12 21:21:13.51	29.62	11.39	-59.0	-68.7	3.8	7.46e-01	0	23	104	0	81	11496
2026-01-12 21:21:14.50	29.73	11.50	-59.0	-68.7	3.8	7.44e-01	0	23	104	0	81	11465
2026-01-12 21:21:15.48	29.83	11.60	-59.0	-68.7	3.8	7.44e-01	0	23	104	0	81	11419
2026-01-12 21:21:16.46	29.94	11.70	-59.0	-68.7	3.8	7.46e-01	0	23	104	0	81	11418
2026-01-12 21:21:17.45	30.05	11.81	-59.0	-68.7	3.8	7.44e-01	0	23	104	0	81	11541
2026-01-12 21:21:18.44	30.16	11.91	-59.0	-68.7	3.8	7.46e-01	0	23	104	0	81	11493
2026-01-12 21:21:19.42	30.27	12.02	-59.0	-68.7	3.8	7.45e-01	0	23	104	0	81	11504
2026-01-12 21:21:20.42	30.39	12.12	-59.0	-68.6	3.8	7.47e-01	0	23	104	0	81	11413
2026-01-12 21:21:21.41	30.50	12.23	-59.1	-68.8	3.8	7.45e-01	0	23	104	0	81	11575
2026-01-12 21:21:22.39	30.61	12.34	-59.0	-68.7	3.8	7.45e-01	0	23	104	0	81	11494
2026-01-12 21:21:23.39	30.73	12.45	-59.0	-68.7	3.8	7.45e-01	0	23	104	0	81	11426
2026-01-12 21:21:24.37	30.85	12.55	-59.0	-68.7	3.8	7.44e-01	0	23	104	0	81	11481
2026-01-12 21:21:25.35	30.96	12.66	-59.1	-68.8	3.8	7.43e-01	0	23	104	0	81	11567
2026-01-12 21:21:26.34	31.08	12.77	-59.1	-68.8	3.8	7.44e-01	0	23	104	0	81	11614
2026-01-12 21:21:27.33	31.20	12.88	-59.0	-68.7	3.8	7.46e-01	0	23	104	0	81	11529
2026-01-12 21:21:28.31	31.32	12.99	-59.0	-68.7	3.8	7.45e-01	0	23	104	0	81	11519
2026-01-12 21:21:29.30	31.44	13.10	-59.1	-68.7	3.8	7.44e-01	0	23	104	0	81	11544
2026-01-12 21:21:30.29	31.56	13.22	-59.1	-68.8	3.8	7.46e-01	0	23	104	0	81	11552
2026-01-12 21:21:31.27	31.68	13.33	-59.0	-68.7	3.8	7.46e-01	0	23	104	0	81	11479
2026-01-12 21:21:32.27	31.81	13.44	-59.1	-68.8	3.8	7.44e-01	0	23	104	0	81	11553
2026-01-12 21:21:33.26	31.94	13.56	-59.1	-68.8	3.8	7.45e-01	0	23	104	0	81	11593
2026-01-12 21:21:34.25	32.06	13.67	-59.1	-68.8	3.8	7.46e-01	0	23	104	0	81	11589
2026-01-12 21:21:35.23	32.19	13.79	-59.1	-68.7	3.8	7.46e-01	0	23	104	0	81	11527
2026-01-12 21:21:36.22	32.32	13.90	-59.1	-68.8	3.8	7.47e-01	0	23	104	0	81	11571
2026-01-12 21:21:37.21	32.45	14.02	-59.2	-68.8	3.8	7.47e-01	0	23	104	0	81	11659
2026-01-12 21:21:38.20	32.58	14.13	-59.1	-68.8	3.8	7.46e-01	0	23	104	0	81	11657
2026-01-12 21:21:39.19	32.71	14.25	-59.1	-68.8	3.8	7.45e-01	0	23	104	0	81	11570
2026-01-12 21:21:40.17	32.85	14.37	-59.1	-68.7	3.8	7.45e-01	0	23	104	0	81	11516
2026-01-12 21:21:41.15	32.98	14.49	-59.2	-68.8	3.8	7.45e-01	0	23	104	0	81	11676
2026-01-12 21:21:42.14	33.12	14.61	-59.2	-68.8	3.8	7.44e-01	0	23	104	0	81	11656
2026-01-12 21:21:43.14	33.26	14.73	-59.1	-68.8	3.8	7.43e-01	0	23	104	0	81	11606
2026-01-12 21:21:44.12	33.40	14.85	-59.1	-68.8	3.8	7.44e-01	0	23	104	0	81	11576
2026-01-12 21:21:45.11	33.54	14.97	-59.2	-68.8	3.8	7.45e-01	0	23	104	0	81	11669
2026-01-12 21:21:46.09	33.68	15.09	-59.2	-68.9	3.8	7.45e-01	0	23	104	0	81	11752
2026-01-12 21:21:47.07	33.82	15.21	-59.1	-68.8	3.8	7.46e-01	0	23	104	0	81	11608
2026-01-12 21:21:48.06	33.96	15.33	-59.1	-68.9	3.8	7.45e-01	0	23	104	0	81	11692
2026-01-12 21:21:49.05	34.11	15.46	-59.2	-68.9	3.8	7.45e-01	0	23	104	0	81	11734
2026-01-12 21:21:50.04	34.26	15.58	-59.2	-68.9	3.8	7.48e-01	0	23	104	0	81	11772
2026-01-12 21:21:51.02	34.40	15.71	-59.2	-68.8	3.8	7.44e-01	0	23	104	0	81	11672
2026-01-12 21:21:52.01	34.55	15.83	-59.2	-68.9	3.8	7.45e-01	0	23	104	0	81	11708
2026-01-12 21:21:52.99	34.70	15.96	-59.2	-68.9	3.8	7.45e-01	0	23	104	0	81	11794
2026-01-12 21:21:53.97	34.85	16.08	-59.2	-68.9	3.8	7.45e-01	0	23	104	0	81	11779
2026-01-12 21:21:54.96	35.01	16.21	-59.2	-68.9	3.8	7.46e-01	0	23	104	0	81	11698
2026-01-12 21:21:55.95	35.16	16.34	-59.2	-68.9	3.8	7.45e-01	0	23	104	0	81	11730
2026-01-12 21:21:56.94	35.32	16.47	-59.3	-68.9	3.8	7.45e-01	0	23	104	0	81	11818
2026-01-12 21:21:57.93	35.48	16.60	-59.3	-68.9	3.8	7.46e-01	0	23	104	0	81	11814
2026-01-12 21:21:58.92	35.64	16.73	-59.2	-68.9	3.8	7.45e-01	0	23	104	0	81	11785
2026-01-12 21:21:59.91	35.80	16.86	-59.2	-68.9	3.8	7.46e-01	0	23	104	0	81	11728
2026-01-12 21:22:00.90	35.97	17.00	-59.3	-69.0	3.8	7.45e-01	0	23	104	0	81	11859
2026-01-12 21:22:01.90	36.14	17.13	-59.3	-69.0	3.8	7.46e-01	0	23	104	0	81	11863
2026-01-12 21:22:02.89	36.30	17.27	-59.2	-69.0	3.8	7.45e-01	0	23	104	0	81	11840
2026-01-12 21:22:03.89	36.47	17.40	-59.2	-68.9	3.8	7.45e-01	0	23	104	0	81	11768
2026-01-12 21:22:04.90	36.65	17.54	-59.3	-69.0	3.8	7.45e-01	0	23	104	0	81	11932
2026-01-12 21:22:05.90	36.82	17.68	-59.3	-69.0	3.8	7.46e-01	0	23	104	0	81	11865
2026-01-12 21:22:06.89	37.00	17.81	-59.3	-69.0	3.8	7.46e-01	0	23	104	0	81	11845
2026-01-12 21:22:07.89	37.17	17.95	-59.3	-69.0	3.8	7.46e-01	0	23	104	0	81	11836
2026-01-12 21:22:08.89	37.35	18.09	-59.3	-69.0	3.8	7.46e-01	0	23	104	0	81	11918
2026-01-12 21:22:09.89	37.54	18.23	-59.3	-69.0	3.8	7.45e-01	0	23	104	0	81	11922
2026-01-12 21:22:10.89	37.72	18.38	-59.3	-69.0	3.8	7.47e-01	0	23	104	0	81	11868
2026-01-12 21:22:11.89	37.91	18.52	-59.3	-69.0	3.8	7.47e-01	0	23	104	0	81	11840
2026-01-12 21:22:12.89	38.09	18.66	-59.3	-69.1	3.8	7.43e-01	0	23	104	0	81	11982
2026-01-12 21:22:13.89	38.28	18.81	-59.3	-69.1	3.8	7.46e-01	0	23	104	0	81	11999
2026-01-12 21:22:14.88	38.47	18.95	-59.3	-69.0	3.8	7.46e-01	0	23	104	0	81	11897
2026-01-12 21:22:15.88	38.67	19.09	-59.3	-69.0	3.8	7.47e-01	0	23	104	0	81	11894
2026-01-12 21:22:16.88	38.86	19.24	-59.4	-69.0	3.8	7.46e-01	0	23	104	0	81	11936
2026-01-12 21:22:17.88	39.06	19.39	-59.4	-69.1	3.8	7.45e-01	0	23	104	0	81	11963
2026-01-12 21:22:18.87	39.26	19.53	-59.3	-69.0	3.8	7.45e-01	0	23	104	0	81	11880
2026-01-12 21:22:19.88	39.46	19.68	-59.3	-69.0	3.8	7.44e-01	0	23	104	0	81	11922
2026-01-12 21:22:20.88	39.67	19.83	-59.4	-69.1	3.8	7.45e-01	0	23	104	0	81	12003
2026-01-12 21:22:21.87	39.87	19.98	-59.4	-69.1	3.8	7.45e-01	0	23	104	0	81	12000
2026-01-12 21:22:22.87	40.08	20.13	-59.4	-69.1	3.8	7.46e-01	0	23	104	0	81	12011
2026-01-12 21:22:23.87	40.29	20.29	-59.3	-69.0	3.8	7.45e-01	0	23	104	0	81	11941
2026-01-12 21:22:24.87	40.50	20.44	-59.4	-69.1	3.8	7.45e-01	0	23	104	0	81	12041
2026-01-12 21:22:25.87	40.72	20.59	-59.4	-69.1	3.8	7.46e-01	0	23	104	0	81	12032
2026-01-12 21:22:26.87	40.94	20.75	-59.4	-69.0	3.8	7.45e-01	0	23	104	0	81	11932
2026-01-12 21:22:27.87	41.16	20.90	-59.4	-69.1	3.8	7.46e-01	0	23	104	0	81	11970
2026-01-12 21:22:28.87	41.38	21.06	-59.4	-69.1	3.8	7.45e-01	0	23	104	0	81	12043
2026-01-12 21:22:29.88	41.61	21.22	-59.4	-69.1	3.8	7.44e-01	0	23	104	0	81	12055
2026-01-12 21:22:30.87	41.84	21.38	-59.4	-69.1	3.8	7.46e-01	0	23	104	0	81	11985
2026-01-12 21:22:31.87	42.07	21.53	-59.4	-69.1	3.8	7.44e-01	0	23	104	0	81	11970
2026-01-12 21:22:32.86	42.30	21.69	-59.4	-69.1	3.8	7.45e-01	0	23	104	0	81	12078
2026-01-12 21:22:33.86	42.54	21.85	-59.5	-69.2	3.8	7.45e-01	0	23	104	0	82	11426
2026-01-12 21:22:34.86	42.78	22.01	-59.5	-69.2	3.8	7.45e-01	0	23	104	0	82	11428
2026-01-12 21:22:35.85	43.02	22.17	-59.4	-69.1	3.8	7.45e-01	0	23	104	0	82	11381
2026-01-12 21:22:36.85	43.26	22.34	-59.5	-69.2	3.8	7.45e-01	0	23	104	0	82	11542
2026-01-12 21:22:37.85	43.51	22.50	-59.5	-69.2	3.8	7.45e-01	0	23	104	0	82	11486
2026-01-12 21:22:38.86	43.76	22.67	-59.5	-69.2	3.8	7.46e-01	0	23	104	0	82	11482
2026-01-12 21:22:39.86	44.02	22.83	-59.5	-69.2	3.8	7.47e-01	0	23	104	0	82	11434
2026-01-12 21:22:40.86	44.27	23.00	-59.5	-69.2	3.8	7.45e-01	0	23	104	0	82	11511
2026-01-12 21:22:41.87	44.54	23.17	-59.5	-69.2	3.8	7.47e-01	0	23	104	0	82	11501
2026-01-12 21:22:42.86	44.80	23.33	-59.5	-69.2	3.8	7.44e-01	0	23	104	0	82	11492
2026-01-12 21:22:43.85	45.06	23.50	-59.5	-69.2	3.8	7.46e-01	0	23	104	0	82	11444
2026-01-12 21:22:44.85	45.33	23.67	-59.5	-69.3	3.8	7.45e-01	0	23	104	0	82	11559
2026-01-12 21:22:45.85	45.60	23.84	-59.5	-69.2	3.8	7.46e-01	0	23	104	0	82	11518
2026-01-12 21:22:46.84	45.87	24.01	-59.5	-69.3	3.8	7.46e-01	0	23	104	0	82	11551
2026-01-12 21:22:47.84	46.15	24.18	-59.5	-69.2	3.8	7.45e-01	0	23	104	0	82	11481
2026-01-12 21:22:48.82	46.43	24.35	-59.6	-69.3	3.8	7.46e-01	0	23	104	0	82	11573
2026-01-12 21:22:49.82	46.72	24.52	-59.6	-69.3	3.8	7.46e-01	0	23	104	0	82	11554
2026-01-12 21:22:50.82	47.01	24.70	-59.5	-69.2	3.8	7.44e-01	0	23	104	0	82	11520
2026-01-12 21:22:51.83	47.30	24.87	-59.5	-69.2	3.8	7.45e-01	0	23	104	0	82	11457
2026-01-12 21:22:52.82	47.59	25.05	-59.6	-69.3	3.8	7.46e-01	0	23	104	0	82	11581
2026-01-12 21:22:53.82	47.89	25.22	-59.6	-69.3	3.8	7.47e-01	0	23	104	0	82	11614
2026-01-12 21:22:54.82	48.20	25.40	-59.6	-69.3	3.8	7.45e-01	0	23	104	0	82	11553
2026-01-12 21:22:55.81	48.50	25.58	-59.5	-69.2	3.8	7.44e-01	0	23	104	0	82	11534
2026-01-12 21:22:56.82	48.82	25.76	-59.6	-69.3	3.8	7.46e-01	0	23	104	0	82	11611
2026-01-12 21:22:57.82	49.13	25.93	-59.6	-69.3	3.8	7.45e-01	0	23	104	0	82	11609
2026-01-12 21:22:58.81	49.45	26.11	-59.6	-69.3	3.8	7.44e-01	0	23	104	0	82	11590
2026-01-12 21:22:59.81	49.77	26.29	-59.6	-69.3	3.8	7.44e-01	0	23	104	0	82	11568
2026-01-12 21:23:00.80	50.09	26.47	-59.6	-69.3	3.8	7.46e-01	0	23	104	0	82	11665
2026-01-12 21:23:01.80	50.43	26.65	-59.6	-69.3	3.8	7.47e-01	0	23	104	0	82	11638
2026-01-12 21:23:02.80	50.76	26.83	-59.6	-69.3	3.8	7.44e-01	0	23	104	0	82	11630
2026-01-12 21:23:03.80	51.10	27.02	-59.6	-69.3	3.8	7.45e-01	0	23	104	0	82	11576
2026-01-12 21:23:04.80	51.44	27.20	-59.6	-69.3	3.8	7.46e-01	0	23	104	0	82	11671
2026-01-12 21:23:05.80	51.79	27.38	-59.6	-69.4	3.8	7.45e-01	0	23	104	0	82	11702
2026-01-12 21:23:06.80	52.14	27.56	-59.6	-69.3	3.8	7.45e-01	0	23	104	0	82	11615
2026-01-12 21:23:07.80	52.50	27.75	-59.6	-69.3	3.8	7.46e-01	0	23	104	0	82	11621
2026-01-12 21:23:08.80	52.86	27.93	-59.7	-69.4	3.8	7.44e-01	0	23	104	0	82	11734
2026-01-12 21:23:09.79	53.22	28.12	-59.7	-69.4	3.8	7.46e-01	0	23	104	0	82	11709
2026-01-12 21:23:10.79	53.59	28.30	-59.6	-69.3	3.8	7.45e-01	0	23	104	0	82	11665
2026-01-12 21:23:11.78	53.96	28.48	-59.6	-69.3	3.8	7.47e-01	0	23	104	0	82	11676
2026-01-12 21:23:12.78	54.34	28.67	-59.7	-69.4	3.8	7.44e-01	0	23	104	0	82	11729
2026-01-12 21:23:13.77	54.72	28.85	-59.7	-69.4	3.8	7.47e-01	0	23	104	0	82	11726
2026-01-12 21:23:14.77	55.11	29.04	-59.7	-69.4	3.8	7.45e-01	0	23	104	0	82	11714
2026-01-12 21:23:15.77	55.51	29.23	-59.6	-69.3	3.8	7.44e-01	0	23	104	0	82	11668
2026-01-12 21:23:16.77	55.91	29.41	-59.7	-69.4	3.8	7.46e-01	0	23	104	0	82	11735
2026-01-12 21:23:17.78	56.31	29.60	-59.7	-69.4	3.8	7.46e-01	0	23	104	0	82	11728
2026-01-12 21:23:18.78	56.72	29.79	-59.7	-69.3	3.8	7.46e-01	0	23	104	0	82	11675
2026-01-12 21:23:19.78	57.14	29.97	-59.7	-69.4	3.8	7.45e-01	0	23	104	0	82	11698
2026-01-12 21:23:20.78	57.56	30.16	-59.7	-69.4	3.8	7.48e-01	0	23	104	0	82	11778
2026-01-12 21:23:21.78	57.98	30.34	-59.7	-69.4	3.8	7.45e-01	0	23	104	0	82	11774
2026-01-12 21:23:22.78	58.41	30.53	-59.7	-69.4	3.8	7.46e-01	0	23	104	0	82	11742
2026-01-12 21:23:23.79	58.85	30.72	-59.7	-69.4	3.8	7.46e-01	0	23	104	0	82	11686
2026-01-12 21:23:24.79	59.29	30.90	-59.7	-69.4	3.8	7.46e-01	0	23	104	0	82	11760
2026-01-12 21:23:25.78	59.73	31.09	-59.7	-69.4	3.8	7.45e-01	0	23	104	0	82	11741
2026-01-12 21:23:26.78	60.18	31.27	-59.7	-69.4	3.8	7.48e-01	0	23	104	0	82	11750
2026-01-12 21:23:27.79	60.64	31.46	-59.7	-69.4	3.8	7.46e-01	0	23	104	0	82	11709
2026-01-12 21:23:28.78	61.10	31.64	-59.7	-69.4	3.8	7.47e-01	0	23	104	0	82	11762
2026-01-12 21:23:29.79	61.58	31.82	-59.7	-69.4	3.8	7.45e-01	0	23	104	0	82	11772
2026-01-12 21:23:30.79	62.05	32.01	-59.7	-69.4	3.8	7.46e-01	0	23	104	0	82	11774
2026-01-12 21:23:31.78	62.52	32.19	-59.7	-69.4	3.8	7.46e-01	0	23	104	0	82	11744
2026-01-12 21:23:32.78	63.01	32.37	-59.7	-69.5	3.8	7.45e-01	0	23	104	0	82	11833
2026-01-12 21:23:33.77	63.50	32.55	-59.7	-69.4	3.8	7.46e-01	0	23	104	0	82	11810
2026-01-12 21:23:34.78	64.00	32.73	-59.7	-69.4	3.8	7.47e-01	0	23	104	0	82	11744
2026-01-12 21:23:35.78	64.50	32.91	-59.7	-69.4	3.8	7.48e-01	0	23	104	0	82	11753
2026-01-12 21:23:36.77	65.00	33.08	-59.7	-69.4	3.8	7.45e-01	0	23	104	0	82	11784
2026-01-12 21:23:37.76	65.51	33.25	-59.7	-69.4	3.8	7.46e-01	0	23	104	0	82	11800
2026-01-12 21:23:38.76	66.03	33.43	-59.7	-69.4	3.8	7.48e-01	0	23	104	0	82	11741
2026-01-12 21:23:39.76	66.56	33.60	-59.7	-69.4	3.8	7.44e-01	0	23	104	0	82	11776
2026-01-12 21:23:40.76	67.09	33.78	-59.7	-69.5	3.8	7.47e-01	0	23	104	0	82	11831
2026-01-12 21:23:41.76	67.63	33.95	-59.8	-69.4	3.8	7.46e-01	0	23	104	0	82	11802
2026-01-12 21:23:42.76	68.17	34.11	-59.7	-69.4	3.8	7.45e-01	0	23	104	0	82	11790
2026-01-12 21:23:43.75	68.72	34.28	-59.7	-69.4	3.8	7.45e-01	0	23	104	0	82	11767
2026-01-12 21:23:44.75	69.27	34.45	-59.8	-69.5	3.8	7.44e-01	0	23	104	0	82	11838
2026-01-12 21:23:45.75	69.84	34.61	-59.8	-69.5	3.8	7.46e-01	0	23	104	0	82	11847
2026-01-12 21:23:46.74	70.40	34.77	-59.7	-69.4	3.8	7.45e-01	0	23	104	0	82	11783
2026-01-12 21:23:47.73	70.97	34.93	-59.7	-69.4	3.8	7.45e-01	0	23	104	0	82	11794
2026-01-12 21:23:48.73	71.55	35.09	-59.8	-69.5	3.8	7.46e-01	0	23	104	0	82	11851
2026-01-12 21:23:49.73	72.13	35.24	-59.8	-69.5	3.8	7.44e-01	0	23	104	0	82	11845
2026-01-12 21:23:50.73	72.72	35.40	-59.7	-69.5	3.8	7.45e-01	0	23	104	0	82	11820
2026-01-12 21:23:51.72	73.32	35.55	-59.7	-69.4	3.8	7.46e-01	0	23	104	0	82	11798
2026-01-12 21:23:52.73	73.93	35.70	-59.8	-69.5	3.8	7.47e-01	0	23	104	0	82	11871
2026-01-12 21:23:53.72	74.53	35.84	-59.8	-69.5	3.8	7.45e-01	0	23	104	0	82	11905
2026-01-12 21:23:54.73	75.15	35.98	-59.8	-69.5	3.8	7.46e-01	0	23	104	0	82	11826
2026-01-12 21:23:55.73	75.77	36.12	-59.7	-69.4	3.8	7.45e-01	0	23	104	0	82	11815
2026-01-12 21:23:56.72	76.39	36.26	-59.8	-69.5	3.8	7.47e-01	0	23	104	0	82	11898
2026-01-12 21:23:57.72	77.02	36.40	-59.8	-69.5	3.8	7.44e-01	0	23	104	0	82	11858
2026-01-12 21:23:58.72	77.66	36.53	-59.8	-69.5	3.8	7.46e-01	0	23	104	0	82	11852
2026-01-12 21:23:59.70	78.29	36.65	-59.8	-69.4	3.8	7.47e-01	0	23	104	0	82	11801
2026-01-12 21:24:00.70	78.94	36.78	-59.8	-69.5	3.8	7.46e-01	0	23	104	0	82	11873
2026-01-12 21:24:01.70	79.59	36.90	-59.8	-69.5	3.8	7.47e-01	0	23	104	0	82	11901
2026-01-12 21:24:02.70	80.25	37.02	-59.8	-69.5	3.8	7.46e-01	0	23	104	0	82	11844
2026-01-12 21:24:03.69	80.90	37.13	-59.8	-69.5	3.8	7.46e-01	0	23	104	0	82	11875
2026-01-12 21:24:04.69	81.57	37.24	-59.8	-69.5	3.8	7.47e-01	0	23	104	0	82	11896
2026-01-12 21:24:05.68	82.24	37.35	-59.8	-69.5	3.8	7.46e-01	0	23	104	0	82	11861
2026-01-12 21:24:06.67	82.91	37.45	-59.8	-69.5	3.8	7.45e-01	0	23	104	0	82	11838
2026-01-12 21:24:07.67	83.59	37.55	-59.8	-69.5	3.8	7.45e-01	0	23	104	0	82	11860
2026-01-12 21:24:08.65	84.26	37.65	-59.8	-69.5	3.8	7.46e-01	0	23	104	0	82	11913
2026-01-12 21:24:09.65	84.95	37.74	-59.8	-69.5	3.8	7.45e-01	0	23	104	0	82	11906
2026-01-12 21:24:10.65	85.65	37.83	-59.8	-69.5	3.8	7.44e-01	0	23	104	0	82	11891
2026-01-12 21:24:11.66	86.35	37.91	-59.8	-69.5	3.8	7.47e-01	0	23	104	0	82	11885
2026-01-12 21:24:12.66	87.05	37.99	-59.8	-69.5	3.8	7.46e-01	0	23	104	0	82	11914
2026-01-12 21:24:13.65	87.75	38.06	-59.8	-69.5	3.8	7.46e-01	0	23	104	0	82	11933
2026-01-12 21:24:14.66	88.47	38.13	-59.8	-69.5	3.8	7.45e-01	0	23	104	0	82	11899
2026-01-12 21:24:15.66	89.18	38.20	-59.8	-69.5	3.8	7.43e-01	0	23	104	0	82	11921
2026-01-12 21:24:16.66	89.89	38.26	-59.8	-69.6	3.8	7.46e-01	0	23	104	0	82	11961
2026-01-12 21:24:17.65	90.60	38.32	-59.8	-69.5	3.8	7.45e-01	0	23	104	0	82	11941
2026-01-12 21:24:18.66	91.33	38.37	-59.8	-69.5	3.8	7.46e-01	0	23	104	0	82	11907
2026-01-12 21:24:19.65	92.04	38.42	-59.8	-69.5	3.8	7.46e-01	0	23	104	0	82	11927
2026-01-12 21:24:20.64	92.76	38.46	-59.8	-69.5	3.8	7.46e-01	0	23	104	0	82	11953
2026-01-12 21:24:21.64	93.49	38.50	-59.8	-69.5	3.8	7.46e-01	0	23	104	0	82	11939
2026-01-12 21:24:22.64	94.21	38.53	-59.8	-69.5	3.8	7.45e-01	0	23	104	0	82	11927
2026-01-12 21:24:23.64	94.94	38.56	-59.8	-69.5	3.8	7.45e-01	0	23	104	0	82	11908
2026-01-12 21:24:24.63	95.67	38.58	-59.8	-69.5	3.8	7.46e-01	0	23	104	0	82	11931
2026-01-12 21:24:25.63	96.40	38.60	-59.8	-69.6	3.8	7.45e-01	0	23	104	0	82	11981
2026-01-12 21:24:26.63	97.13	38.61	-59.8	-69.6	3.8	7.45e-01	0	23	104	0	82	11975
2026-01-12 21:24:27.63	97.86	38.62	-59.8	-69.5	3.8	7.46e-01	0	23	104	0	82	11921
2026-01-12 21:24:28.62	98.59	38.62	-59.8	-69.6	3.8	7.45e-01	0	23	104	0	82	11963
2026-01-12 21:24:29.62	99.32	38.62	-59.8	-69.6	3.8	7.46e-01	0	23	104	0	82	11958
2026-01-12 21:24:30.62	100.05	38.62	-59.8	-69.5	3.8	7.45e-01	0	23	104	0	82	11948
2026-01-12 21:24:31.62	100.79	38.60	-59.8	-69.5	3.8	7.46e-01	0	23	104	0	82	11945
2026-01-12 21:24:32.61	101.51	38.59	-59.8	-69.5	3.8	7.46e-01	0	23	104	0	82	11947
2026-01-12 21:24:33.61	102.24	38.57	-59.8	-69.6	3.8	7.46e-01	0	23	104	0	82	11977
2026-01-12 21:24:34.61	102.97	38.54	-59.8	-69.5	3.8	7.48e-01	0	23	104	0	82	11931
2026-01-12 21:24:35.60	103.69	38.51	-59.8	-69.5	3.8	7.44e-01	0	23	104	0	82	11917
2026-01-12 21:24:36.60	104.42	38.47	-59.8	-69.6	3.8	7.47e-01	0	23	104	0	82	12015
2026-01-12 21:24:37.60	105.14	38.43	-59.8	-69.6	3.8	7.47e-01	0	23	104	0	82	11994
2026-01-12 21:24:38.60	105.87	38.39	-59.8	-69.5	3.8	7.45e-01	0	23	104	0	82	11946
2026-01-12 21:24:39.60	106.59	38.34	-59.8	-69.5	3.8	7.46e-01	0	23	104	0	82	11952
2026-01-12 21:24:40.61	107.31	38.28	-59.8	-69.6	3.8	7.45e-01	0	23	104	0	82	11961
2026-01-12 21:24:41.60	108.02	38.22	-59.8	-69.5	3.8	7.46e-01	0	23	104	0	82	11951
2026-01-12 21:24:42.60	108.74	38.16	-59.8	-69.5	3.8	7.45e-01	0	23	104	0	82	11935
2026-01-12 21:24:43.60	109.45	38.09	-59.8	-69.5	3.8	7.45e-01	0	23	104	0	82	11914
2026-01-12 21:24:44.60	110.15	38.01	-59.8	-69.6	3.8	7.45e-01	0	23	104	0	82	11959
2026-01-12 21:24:45.59	110.85	37.94	-59.9	-69.6	3.8	7.46e-01	0	23	104	0	82	11984
2026-01-12 21:24:46.59	111.55	37.85	-59.8	-69.5	3.8	7.46e-01	0	23	104	0	82	11947
2026-01-12 21:24:47.58	112.24	37.77	-59.8	-69.6	3.8	7.45e-01	0	23	104	0	82	11966
2026-01-12 21:24:48.58	112.93	37.68	-59.8	-69.6	3.8	7.45e-01	0	23	104	0	82	11967
2026-01-12 21:24:49.58	113.62	37.58	-59.8	-69.6	3.8	7.45e-01	0	23	104	0	82	11989
2026-01-12 21:24:50.57	114.30	37.49	-59.8	-69.5	3.8	7.46e-01	0	23	104	0	82	11938
2026-01-12 21:24:51.57	114.98	37.38	-59.8	-69.5	3.8	7.47e-01	0	23	104	0	82	11940
2026-01-12 21:24:52.56	115.64	37.28	-59.8	-69.5	3.8	7.45e-01	0	23	104	0	82	11944
2026-01-12 21:24:53.55	116.31	37.17	-59.8	-69.5	3.8	7.45e-01	0	23	104	0	82	11929
2026-01-12 21:24:54.55	116.97	37.05	-59.8	-69.5	3.8	7.46e-01	0	23	104	0	82	11932
2026-01-12 21:24:55.54	117.63	36.94	-59.8	-69.5	3.8	7.45e-01	0	23	104	0	82	11873
2026-01-12 21:24:56.54	118.28	36.82	-59.8	-69.5	3.8	7.46e-01	0	23	104	0	82	11917
2026-01-12 21:24:57.54	118.94	36.69	-59.8	-69.6	3.8	7.44e-01	0	23	104	0	82	11984
2026-01-12 21:24:58.52	119.57	36.57	-59.8	-69.5	3.8	7.45e-01	0	23	104	0	82	11880
2026-01-12 21:24:59.51	120.20	36.44	-59.8	-69.5	3.8	7.44e-01	0	23	104	0	82	11940
2026-01-12 21:25:00.50	120.83	36.31	-59.8	-69.5	3.8	7.46e-01	0	23	104	0	82	11886
2026-01-12 21:25:01.50	121.46	36.17	-59.8	-69.5	3.8	7.46e-01	0	23	104	0	82	11878
2026-01-12 21:25:02.49	122.08	36.03	-59.8	-69.5	3.8	7.44e-01	0	23	104	0	82	11889
2026-01-12 21:25:03.50	122.70	35.89	-59.8	-69.5	3.8	7.45e-01	0	23	104	0	82	11893
2026-01-12 21:25:04.49	123.31	35.74	-59.7	-69.5	3.8	7.46e-01	0	23	104	0	82	11844
2026-01-12 21:25:05.49	123.92	35.59	-59.8	-69.5	3.8	7.44e-01	0	23	104	0	82	11843
2026-01-12 21:25:06.48	124.51	35.45	-59.8	-69.5	3.8	7.45e-01	0	23	104	0	82	11824
2026-01-12 21:25:07.48	125.11	35.29	-59.7	-69.5	3.8	7.45e-01	0	23	104	0	82	11857
2026-01-12 21:25:08.48	125.70	35.14	-59.7	-69.4	3.8	7.46e-01	0	23	104	0	82	11809
2026-01-12 21:25:09.48	126.28	34.98	-59.7	-69.5	3.8	7.47e-01	0	23	104	0	82	11851
2026-01-12 21:25:10.47	126.85	34.82	-59.7	-69.4	3.8	7.46e-01	0	23	104	0	82	11807
2026-01-12 21:25:11.47	127.42	34.66	-59.7	-69.5	3.8	7.45e-01	0	23	104	0	82	11837
2026-01-12 21:25:12.46	127.98	34.50	-59.7	-69.4	3.8	7.44e-01	0	23	104	0	82	11802
2026-01-12 21:25:13.46	128.54	34.33	-59.7	-69.5	3.8	7.46e-01	0	23	104	0	82	11830
2026-01-12 21:25:14.46	129.10	34.16	-59.7	-69.4	3.8	7.45e-01	0	23	104	0	82	11790
2026-01-12 21:25:15.44	129.63	34.00	-59.7	-69.4	3.8	7.46e-01	0	23	104	0	82	11780
2026-01-12 21:25:16.44	130.18	33.83	-59.7	-69.4	3.8	7.47e-01	0	23	104	0	82	11765
2026-01-12 21:25:17.43	130.71	33.66	-59.7	-69.5	3.8	7.44e-01	0	23	104	0	82	11822
2026-01-12 21:25:18.43	131.24	33.48	-59.7	-69.5	3.8	7.47e-01	0	23	104	0	82	11821
2026-01-12 21:25:19.43	131.76	33.31	-59.8	-69.5	3.8	7.46e-01	0	23	104	0	82	11876
2026-01-12 21:25:20.43	132.28	33.13	-59.7	-69.5	3.8	7.43e-01	0	23	104	0	82	11856
2026-01-12 21:25:21.42	132.79	32.96	-59.7	-69.4	3.8	7.47e-01	0	23	104	0	82	11808
2026-01-12 21:25:22.41	133.29	32.78	-59.7	-69.4	3.8	7.47e-01	0	23	104	0	82	11814
2026-01-12 21:25:23.41	133.79	32.60	-59.7	-69.4	3.8	7.44e-01	0	23	104	0	82	11783
2026-01-12 21:25:24.39	134.27	32.42	-59.7	-69.4	3.8	7.46e-01	0	23	104	0	82	11746
2026-01-12 21:25:25.38	134.76	32.24	-59.7	-69.4	3.8	7.46e-01	0	23	104	0	82	11765
2026-01-12 21:25:26.38	135.24	32.06	-59.7	-69.4	3.8	7.44e-01	0	23	104	0	82	11726
2026-01-12 21:25:27.37	135.71	31.88	-59.7	-69.4	3.8	7.47e-01	0	23	104	0	82	11759
2026-01-12 21:25:28.37	136.18	31.70	-59.7	-69.4	3.8	7.46e-01	0	23	104	0	82	11725
2026-01-12 21:25:29.37	136.65	31.51	-59.7	-69.4	3.8	7.46e-01	0	23	104	0	82	11724
2026-01-12 21:25:30.38	137.12	31.32	-59.7	-69.4	3.8	7.46e-01	0	23	104	0	82	11724
2026-01-12 21:25:31.38	137.57	31.14	-59.6	-69.4	3.8	7.46e-01	0	23	104	0	82	11690
2026-01-12 21:25:32.38	138.02	30.95	-59.7	-69.4	3.8	7.44e-01	0	23	104	0	82	11713
2026-01-12 21:25:33.38	138.46	30.77	-59.7	-69.4	3.8	7.47e-01	0	23	104	0	82	11702
2026-01-12 21:25:34.38	138.90	30.58	-59.6	-69.4	3.8	7.45e-01	0	23	104	0	82	11705
2026-01-12 21:25:35.37	139.33	30.40	-59.6	-69.3	3.8	7.45e-01	0	23	104	0	82	11626
2026-01-12 21:25:36.38	139.76	30.21	-59.6	-69.4	3.8	7.47e-01	0	23	104	0	82	11690
2026-01-12 21:25:37.37	140.18	30.02	-59.6	-69.4	3.8	7.45e-01	0	24	104	0	82	11709
2026-01-12 21:25:38.37	140.60	29.84	-59.6	-69.3	3.8	7.45e-01	0	24	104	0	82	11681
2026-01-12 21:25:39.37	141.01	29.65	-59.6	-69.3	3.8	7.43e-01	0	23	104	0	82	11668
2026-01-12 21:25:40.37	141.42	29.46	-59.6	-69.4	3.8	7.43e-01	0	23	104	0	82	11715
2026-01-12 21:25:41.36	141.82	29.28	-59.6	-69.3	3.8	7.45e-01	0	23	104	0	82	11675
2026-01-12 21:25:42.37	142.22	29.09	-59.6	-69.3	3.8	7.46e-01	0	23	104	0	82	11649
2026-01-12 21:25:43.37	142.61	28.90	-59.6	-69.3	3.8	7.45e-01	0	23	104	0	82	11639
2026-01-12 21:25:44.37	143.00	28.71	-59.6	-69.3	3.8	7.45e-01	0	23	104	0	82	11600
2026-01-12 21:25:45.36	143.38	28.53	-59.6	-69.3	3.8	7.45e-01	0	23	104	0	82	11652
2026-01-12 21:25:46.37	143.76	28.34	-59.6	-69.3	3.8	7.44e-01	0	23	104	0	82	11618
2026-01-12 21:25:47.38	144.13	28.15	-59.6	-69.2	3.8	7.47e-01	0	23	104	0	82	11531
2026-01-12 21:25:48.37	144.50	27.97	-59.6	-69.3	3.8	7.46e-01	0	23	104	0	82	11618
2026-01-12 21:25:49.37	144.86	27.78	-59.6	-69.3	3.8	7.45e-01	0	23	104	0	82	11591
2026-01-12 21:25:50.37	145.22	27.60	-59.6	-69.3	3.8	7.45e-01	0	23	104	0	82	11550
2026-01-12 21:25:51.36	145.57	27.41	-59.5	-69.2	3.8	7.45e-01	0	23	104	0	82	11532
2026-01-12 21:25:52.35	145.92	27.23	-59.6	-69.3	3.8	7.45e-01	0	23	104	0	82	11580
2026-01-12 21:25:53.35	146.27	27.05	-59.6	-69.3	3.8	7.45e-01	0	23	104	0	82	11595
2026-01-12 21:25:54.35	146.61	26.87	-59.6	-69.3	3.8	7.45e-01	0	23	104	0	82	11594
2026-01-12 21:25:55.34	146.94	26.68	-59.5	-69.2	3.8	7.44e-01	0	23	104	0	82	11536
2026-01-12 21:25:56.34	147.28	26.50	-59.5	-69.2	3.8	7.45e-01	0	23	104	0	82	11533
2026-01-12 21:25:57.34	147.61	26.32	-59.5	-69.3	3.8	7.44e-01	0	23	104	0	82	11585
2026-01-12 21:25:58.34	147.93	26.14	-59.5	-69.3	3.8	7.45e-01	0	23	104	0	82	11577
2026-01-12 21:25:59.34	148.25	25.96	-59.5	-69.2	3.8	7.45e-01	0	23	104	0	82	11513
2026-01-12 21:26:00.34	148.57	25.78	-59.5	-69.2	3.8	7.46e-01	0	23	104	0	82	11500
2026-01-12 21:26:01.34	148.89	25.60	-59.5	-69.2	3.8	7.46e-01	0	23	104	0	82	11521
2026-01-12 21:26:02.34	149.20	25.42	-59.5	-69.2	3.8	7.46e-01	0	23	104	0	82	11484
2026-01-12 21:26:03.33	149.50	25.24	-59.5	-69.2	3.8	7.47e-01	0	23	104	0	82	11484
2026-01-12 21:26:04.32	149.80	25.07	-59.5	-69.2	3.8	7.44e-01	0	23	104	0	82	11499
2026-01-12 21:26:05.32	150.10	24.89	-59.5	-69.2	3.8	7.45e-01	0	23	104	0	82	11509
2026-01-12 21:26:06.31	150.39	24.72	-59.5	-69.2	3.8	7.45e-01	0	23	104	0	82	11481
2026-01-12 21:26:07.30	150.68	24.54	-59.5	-69.2	3.8	7.45e-01	0	23	104	0	82	11497
2026-01-12 21:26:08.31	150.97	24.37	-59.5	-69.2	3.8	7.45e-01	0	23	104	0	82	11500
2026-01-12 21:26:09.30	151.25	24.20	-59.5	-69.2	3.8	7.46e-01	0	23	104	0	82	11502
2026-01-12 21:26:10.30	151.53	24.02	-59.5	-69.2	3.8	7.46e-01	0	23	104	0	82	11492
2026-01-12 21:26:11.29	151.81	23.85	-59.5	-69.2	3.8	7.45e-01	0	23	104	0	82	11473
2026-01-12 21:26:12.29	152.08	23.68	-59.5	-69.2	3.8	7.45e-01	0	23	104	0	82	11463
2026-01-12 21:26:13.29	152.35	23.51	-59.5	-69.1	3.8	7.47e-01	0	23	104	0	82	11408
2026-01-12 21:26:14.29	152.62	23.34	-59.5	-69.1	3.8	7.46e-01	0	23	104	0	82	11416
2026-01-12 21:26:15.28	152.88	23.17	-59.4	-69.1	3.8	7.46e-01	0	23	104	0	82	11400
2026-01-12 21:26:16.27	153.14	23.01	-59.4	-69.1	3.8	7.45e-01	0	23	104	0	82	11406
2026-01-12 21:26:17.27	153.40	22.84	-59.4	-69.1	3.8	7.46e-01	0	23	104	0	82	11413
2026-01-12 21:26:18.27	153.65	22.67	-59.4	-69.1	3.8	7.45e-01	0	23	104	0	82	11384
2026-01-12 21:26:19.27	153.91	22.51	-59.4	-69.1	3.8	7.45e-01	0	23	104	0	82	11398
2026-01-12 21:26:20.27	154.16	22.34	-59.4	-69.2	3.8	7.45e-01	0	23	104	0	82	11431
2026-01-12 21:26:21.27	154.40	22.18	-59.5	-69.2	3.8	7.47e-01	0	23	104	0	82	11446
2026-01-12 21:26:22.28	154.65	22.01	-59.5	-69.2	3.8	7.45e-01	0	23	104	0	82	11437
2026-01-12 21:26:23.28	154.89	21.85	-59.4	-69.1	3.8	7.46e-01	0	23	104	0	82	11415
2026-01-12 21:26:24.28	155.13	21.69	-59.4	-69.1	3.8	7.44e-01	0	23	104	0	82	11385
2026-01-12 21:26:25.29	155.37	21.53	-59.4	-69.1	3.8	7.45e-01	0	23	104	0	82	11403
2026-01-12 21:26:26.28	155.60	21.37	-59.4	-69.1	3.8	7.46e-01	0	23	104	0	82	11367
2026-01-12 21:26:27.29	155.83	21.21	-59.4	-69.1	3.8	7.45e-01	0	23	104	0	82	11412
2026-01-12 21:26:28.29	156.06	21.05	-59.4	-69.1	3.8	7.46e-01	0	23	104	0	82	11368
2026-01-12 21:26:29.30	156.29	20.89	-59.4	-69.1	3.8	7.45e-01	0	24	104	0	82	11402
2026-01-12 21:26:30.29	156.51	20.74	-59.4	-69.1	3.8	7.45e-01	0	23	104	0	82	11386
2026-01-12 21:26:31.29	156.73	20.58	-59.4	-69.1	3.8	7.46e-01	0	23	104	0	82	11351
2026-01-12 21:26:32.29	156.94	20.43	-59.4	-69.1	3.8	7.44e-01	0	23	104	0	82	11321
2026-01-12 21:26:33.29	157.16	20.27	-59.4	-69.1	3.8	7.47e-01	0	23	104	0	82	11309
2026-01-12 21:26:34.29	157.37	20.12	-59.4	-69.1	3.8	7.45e-01	0	23	104	0	82	11337
2026-01-12 21:26:35.29	157.58	19.97	-59.4	-69.1	3.8	7.47e-01	0	23	104	0	82	11295
2026-01-12 21:26:36.29	157.79	19.81	-59.4	-69.1	3.8	7.46e-01	0	23	104	0	82	11309
2026-01-12 21:26:37.28	157.99	19.66	-59.4	-69.1	3.8	7.46e-01	0	23	104	0	82	11327
2026-01-12 21:26:38.28	158.20	19.51	-59.4	-69.0	3.8	7.46e-01	0	23	104	0	82	11284
2026-01-12 21:26:39.27	158.40	19.37	-59.3	-69.1	3.8	7.44e-01	0	23	104	0	82	11296
2026-01-12 21:26:40.27	158.59	19.22	-59.3	-69.1	3.8	7.47e-01	0	23	104	0	82	11298
2026-01-12 21:26:41.28	158.79	19.07	-59.3	-69.1	3.8	7.45e-01	0	23	104	0	82	11289
2026-01-12 21:26:42.27	158.99	18.92	-59.3	-69.0	3.8	7.46e-01	0	23	104	0	82	11267
2026-01-12 21:26:43.26	159.18	18.78	-59.3	-69.0	3.8	7.45e-01	0	23	104	0	82	11239
2026-01-12 21:26:44.26	159.37	18.64	-59.3	-69.0	3.8	7.45e-01	0	23	104	0	82	11215
2026-01-12 21:26:45.27	159.56	18.49	-59.3	-69.0	3.8	7.46e-01	0	23	104	0	82	11263
2026-01-12 21:26:46.27	159.74	18.35	-59.3	-69.0	3.8	7.46e-01	0	23	104	0	82	11251
2026-01-12 21:26:47.27	159.93	18.20	-59.3	-69.0	3.8	7.47e-01	0	23	104	0	82	11174
2026-01-12 21:26:48.27	160.11	18.06	-59.3	-69.0	3.8	7.46e-01	0	23	104	0	82	11215
2026-01-12 21:26:49.27	160.29	17.92	-59.3	-69.0	3.8	7.44e-01	0	23	104	0	82	11178
2026-01-12 21:26:50.27	160.47	17.78	-59.3	-69.0	3.8	7.46e-01	0	23	104	0	82	11207
2026-01-12 21:26:51.27	160.65	17.64	-59.3	-69.0	3.8	7.45e-01	0	23	104	0	82	11160
2026-01-12 21:26:52.27	160.82	17.50	-59.3	-69.0	3.8	7.45e-01	0	23	104	0	82	11174
2026-01-12 21:26:53.27	161.00	17.37	-59.3	-69.0	3.8	7.47e-01	0	23	104	0	82	11206
2026-01-12 21:26:54.27	161.17	17.23	-59.3	-69.0	3.8	7.46e-01	0	23	104	0	82	11165
2026-01-12 21:26:55.27	161.34	17.09	-59.3	-68.9	3.8	7.45e-01	0	23	104	0	82	11155
2026-01-12 21:26:56.27	161.51	16.96	-59.3	-69.0	3.8	7.46e-01	0	23	104	0	82	11177
2026-01-12 21:26:57.27	161.67	16.82	-59.3	-68.9	3.8	7.45e-01	0	23	104	0	82	11154
2026-01-12 21:26:58.28	161.84	16.69	-59.2	-68.9	3.8	7.44e-01	0	23	104	0	82	11125
2026-01-12 21:26:59.28	162.00	16.55	-59.2	-69.0	3.8	7.45e-01	0	23	104	0	82	11173
2026-01-12 21:27:00.28	162.16	16.42	-59.2	-68.9	3.8	7.45e-01	0	23	104	0	82	11127
2026-01-12 21:27:01.28	162.32	16.29	-59.2	-68.9	3.8	7.45e-01	0	23	104	0	82	11108
2026-01-12 21:27:02.28	162.48	16.16	-59.2	-68.9	3.8	7.46e-01	0	23	104	0	82	11135
2026-01-12 21:27:03.28	162.64	16.03	-59.2	-68.9	3.8	7.47e-01	0	23	104	0	82	11147
2026-01-12 21:27:04.29	162.80	15.90	-59.2	-68.9	3.8	7.45e-01	0	23	104	0	82	11094
2026-01-12 21:27:05.29	162.95	15.77	-59.2	-68.9	3.8	7.45e-01	0	23	104	0	82	11148
2026-01-12 21:27:06.30	163.10	15.64	-59.2	-68.9	3.8	7.43e-01	0	24	104	0	82	11091
2026-01-12 21:27:07.30	163.25	15.51	-59.2	-68.9	3.8	7.44e-01	0	23	104	0	82	11157
2026-01-12 21:27:08.29	163.40	15.39	-59.2	-68.9	3.8	7.46e-01	0	23	104	0	82	11087
2026-01-12 21:27:09.29	163.55	15.26	-59.2	-68.9	3.8	7.46e-01	0	23	104	0	82	11089
2026-01-12 21:27:10.29	163.69	15.13	-59.2	-68.9	3.8	7.46e-01	0	23	104	0	82	11059
2026-01-12 21:27:11.29	163.84	15.01	-59.2	-68.9	3.8	7.45e-01	0	23	104	0	82	11058
2026-01-12 21:27:12.29	163.98	14.89	-59.2	-68.8	3.8	7.46e-01	0	23	104	0	82	11018
2026-01-12 21:27:13.28	164.12	14.76	-59.2	-68.9	3.8	7.46e-01	0	24	104	0	82	11048
2026-01-12 21:27:14.28	164.26	14.64	-59.2	-68.9	3.8	7.44e-01	0	23	104	0	82	11033
2026-01-12 21:27:15.29	164.40	14.52	-59.1	-68.9	3.8	7.45e-01	0	23	104	0	82	11043
2026-01-12 21:27:16.29	164.54	14.40	-59.1	-68.9	3.8	7.45e-01	0	23	104	0	82	11040
2026-01-12 21:27:17.28	164.68	14.28	-59.2	-68.8	3.8	7.47e-01	0	23	104	0	82	11008
2026-01-12 21:27:18.28	164.81	14.16	-59.1	-68.8	3.8	7.47e-01	0	23	104	0	82	10974
2026-01-12 21:27:19.28	164.95	14.04	-59.1	-68.9	3.8	7.46e-01	0	23	104	0	82	11049
2026-01-12 21:27:20.28	165.08	13.92	-59.1	-68.8	3.8	7.45e-01	0	23	104	0	82	10989
2026-01-12 21:27:21.29	165.21	13.80	-59.1	-68.8	3.8	7.45e-01	0	23	104	0	82	11002
2026-01-12 21:27:22.29	165.35	13.68	-59.1	-68.8	3.8	7.45e-01	0	23	104	0	82	10964
2026-01-12 21:27:23.29	165.47	13.57	-59.1	-68.9	3.8	7.46e-01	0	23	104	0	82	11034
2026-01-12 21:27:24.30	165.60	13.45	-59.1	-68.8	3.8	7.47e-01	0	23	104	0	82	10947
2026-01-12 21:27:25.29	165.73	13.33	-59.1	-68.8	3.8	7.45e-01	0	23	104	0	82	10944
2026-01-12 21:27:26.29	165.86	13.22	-59.1	-68.8	3.8	7.46e-01	0	23	104	0	82	10962
2026-01-12 21:27:27.28	165.98	13.11	-59.1	-68.8	3.8	7.46e-01	0	23	104	0	82	10947
2026-01-12 21:27:28.28	166.10	12.99	-59.1	-68.8	3.8	7.46e-01	0	23	104	0	82	10962
2026-01-12 21:27:29.28	166.23	12.88	-59.1	-68.8	3.8	7.44e-01	0	23	104	0	82	10954
2026-01-12 21:27:30.28	166.35	12.77	-59.1	-68.8	3.8	7.45e-01	0	23	104	0	82	10905
2026-01-12 21:27:31.29	166.47	12.65	-59.1	-68.8	3.8	7.47e-01	0	23	104	0	82	10958
2026-01-12 21:27:32.29	166.59	12.54	-59.1	-68.8	3.8	7.47e-01	0	23	104	0	82	10905
2026-01-12 21:27:33.29	166.71	12.43	-59.1	-68.8	3.8	7.46e-01	0	23	104	0	82	10940
2026-01-12 21:27:34.28	166.82	12.32	-59.1	-68.7	3.8	7.44e-01	0	23	104	0	82	10892
2026-01-12 21:27:35.29	166.94	12.21	-59.1	-68.8	3.8	7.45e-01	0	24	104	0	82	10917
2026-01-12 21:27:36.29	167.06	12.10	-59.0	-68.7	3.8	7.44e-01	0	23	104	0	82	10846
2026-01-12 21:27:37.28	167.17	11.99	-59.1	-68.7	3.8	7.44e-01	0	23	104	0	82	10870
2026-01-12 21:27:38.28	167.28	11.89	-59.0	-68.7	3.8	7.47e-01	0	23	104	0	82	10896
2026-01-12 21:27:39.28	167.39	11.78	-59.0	-68.7	3.8	7.45e-01	0	23	104	0	82	10861
2026-01-12 21:27:40.28	167.51	11.67	-59.0	-68.7	3.8	7.46e-01	0	23	104	0	82	10854
2026-01-12 21:27:41.29	167.62	11.56	-59.0	-68.8	3.8	7.46e-01	0	23	104	0	82	10920
2026-01-12 21:27:42.29	167.73	11.46	-59.0	-68.7	3.8	7.43e-01	0	23	104	0	82	10874
2026-01-12 21:27:43.29	167.84	11.35	-59.0	-68.7	3.8	7.45e-01	0	23	104	0	82	10836
2026-01-12 21:27:44.29	167.94	11.25	-59.0	-68.7	3.8	7.45e-01	0	24	104	0	82	10813
2026-01-12 21:27:45.30	168.05	11.14	-59.0	-68.7	3.8	7.45e-01	0	23	104	0	82	10860
2026-01-12 21:27:46.29	168.16	11.04	-59.0	-68.7	3.8	7.46e-01	0	23	104	0	82	10866
2026-01-12 21:27:47.29	168.26	10.94	-59.0	-68.7	3.8	7.45e-01	0	23	104	0	82	10814
2026-01-12 21:27:48.29	168.37	10.84	-59.0	-68.6	3.8	7.45e-01	0	23	104	0	82	10772
2026-01-12 21:27:49.29	168.47	10.73	-59.0	-68.7	3.8	7.45e-01	0	23	104	0	82	10848
2026-01-12 21:27:50.29	168.57	10.63	-59.0	-68.7	3.8	7.44e-01	0	23	104	0	82	10813
2026-01-12 21:27:51.29	168.67	10.53	-59.0	-68.6	3.8	7.46e-01	0	23	104	0	82	10757
2026-01-12 21:27:52.29	168.77	10.43	-58.9	-68.6	3.8	7.47e-01	0	23	104	0	82	10775
2026-01-12 21:27:53.29	168.87	10.33	-59.0	-68.7	3.8	7.47e-01	0	23	104	0	82	10787
2026-01-12 21:27:54.29	168.97	10.23	-58.9	-68.6	3.8	7.47e-01	0	23	104	0	82	10727
2026-01-12 21:27:55.29	169.07	10.13	-58.9	-68.6	3.8	7.45e-01	0	23	104	0	82	10774
2026-01-12 21:27:56.29	169.17	10.03	-58.9	-68.6	3.8	7.45e-01	0	23	104	0	82	10712
2026-01-12 21:27:57.28	169.26	9.93	-58.9	-68.6	3.8	7.44e-01	0	23	104	0	82	10738
2026-01-12 21:27:58.28	169.36	9.84	-58.9	-68.6	3.8	7.46e-01	0	23	104	0	82	10720
2026-01-12 21:27:59.29	169.46	9.74	-58.9	-68.6	3.8	7.43e-01	0	23	104	0	82	10698
2026-01-12 21:28:00.29	169.55	9.64	-58.9	-68.6	3.8	7.45e-01	0	23	104	0	82	10669
2026-01-12 21:28:01.28	169.64	9.54	-58.9	-68.6	3.8	7.46e-01	0	23	104	0	82	10697
2026-01-12 21:28:02.28	169.74	9.45	-58.9	-68.6	3.8	7.45e-01	0	23	104	0	82	10682
2026-01-12 21:28:03.27	169.83	9.35	-58.9	-68.6	3.8	7.44e-01	0	23	104	0	82	10660
2026-01-12 21:28:04.26	169.92	9.26	-58.8	-68.5	3.8	7.46e-01	0	23	104	0	82	10629
2026-01-12 21:28:05.26	170.01	9.16	-58.9	-68.6	3.8	7.45e-01	0	23	104	0	82	10665
2026-01-12 21:28:06.24	170.10	9.07	-58.8	-68.5	3.8	7.47e-01	0	23	104	0	82	10645
2026-01-12 21:28:07.24	170.19	8.98	-58.9	-68.6	3.8	7.44e-01	0	24	104	0	82	10656
2026-01-12 21:28:08.24	170.28	8.88	-58.8	-68.5	3.8	7.46e-01	0	23	104	0	82	10617
2026-01-12 21:28:09.23	170.37	8.79	-58.9	-68.6	3.8	7.45e-01	0	23	104	0	82	10656
2026-01-12 21:28:10.23	170.45	8.70	-58.8	-68.5	3.8	7.45e-01	0	24	104	0	82	10579
2026-01-12 21:28:11.23	170.54	8.61	-58.8	-68.5	3.8	7.47e-01	0	23	104	0	82	10643
2026-01-12 21:28:12.22	170.63	8.52	-58.8	-68.5	3.8	7.45e-01	0	23	104	0	82	10613
2026-01-12 21:28:13.23	170.71	8.42	-58.8	-68.5	3.8	7.45e-01	0	23	104	0	82	10632
2026-01-12 21:28:14.22	170.80	8.33	-58.8	-68.5	3.8	7.46e-01	0	23	104	0	82	10538
2026-01-12 21:28:15.21	170.88	8.24	-58.8	-68.5	3.8	7.45e-01	0	24	104	0	82	10566
2026-01-12 21:28:16.21	170.96	8.15	-58.8	-68.5	3.8	7.43e-01	0	23	104	0	82	10542
2026-01-12 21:28:17.21	171.05	8.06	-58.8	-68.5	3.8	7.46e-01	0	23	104	0	82	10554
2026-01-12 21:28:18.22	171.13	7.97	-58.7	-68.4	3.8	7.47e-01	0	23	104	0	82	10440
2026-01-12 21:28:19.20	171.21	7.89	-58.8	-68.5	3.8	7.46e-01	0	23	104	0	82	10537
2026-01-12 21:28:20.19	171.29	7.80	-58.7	-68.4	3.8	7.45e-01	0	23	104	0	82	10459
2026-01-12 21:28:21.19	171.37	7.71	-58.8	-68.4	3.8	7.45e-01	0	23	104	0	82	10500
2026-01-12 21:28:22.19	171.45	7.62	-58.7	-68.4	3.8	7.45e-01	0	23	104	0	82	10464
2026-01-12 21:28:23.19	171.53	7.53	-58.7	-68.4	3.8	7.46e-01	0	23	104	0	82	10491
2026-01-12 21:28:24.19	171.61	7.45	-58.6	-68.3	3.8	7.45e-01	0	23	104	0	81	10969
2026-01-12 21:28:25.19	171.69	7.36	-58.6	-68.3	3.8	7.45e-01	0	23	104	0	81	11005
2026-01-12 21:28:26.18	171.77	7.28	-58.6	-68.3	3.8	7.45e-01	0	23	104	0	81	10940
2026-01-12 21:28:27.18	171.84	7.19	-58.6	-68.3	3.8	7.45e-01	0	23	104	0	81	10983
2026-01-12 21:28:28.19	171.92	7.10	-58.6	-68.2	3.8	7.46e-01	0	23	104	0	81	10895
2026-01-12 21:28:29.19	172.00	7.02	-58.6	-68.3	3.8	7.46e-01	0	23	104	0	81	11000
2026-01-12 21:28:30.18	172.07	6.93	-58.5	-68.2	3.8	7.46e-01	0	23	104	0	81	10873
2026-01-12 21:28:31.18	172.15	6.85	-58.6	-68.2	3.8	7.46e-01	0	23	104	0	81	10898
2026-01-12 21:28:32.18	172.22	6.76	-58.5	-68.2	3.8	7.46e-01	0	23	104	0	81	10830
2026-01-12 21:28:33.17	172.30	6.68	-58.6	-68.3	3.8	7.45e-01	0	23	104	0	81	10929
2026-01-12 21:28:34.16	172.37	6.60	-58.5	-68.2	3.8	7.46e-01	0	23	104	0	81	10828
2026-01-12 21:28:35.16	172.44	6.51	-58.6	-68.2	3.8	7.47e-01	0	23	104	0	81	10884
2026-01-12 21:28:36.16	172.52	6.43	-58.5	-68.2	3.8	7.46e-01	0	23	104	0	81	10800
2026-01-12 21:28:37.16	172.59	6.35	-58.5	-68.2	3.8	7.46e-01	0	23	104	0	81	10869
2026-01-12 21:28:38.15	172.66	6.27	-58.4	-68.1	3.8	7.44e-01	0	23	104	0	81	10731
2026-01-12 21:28:39.16	172.73	6.18	-58.5	-68.2	3.8	7.46e-01	0	23	104	0	81	10837
2026-01-12 21:28:40.16	172.80	6.10	-58.4	-68.1	3.8	7.45e-01	0	23	104	0	81	10746
2026-01-12 21:28:41.17	172.87	6.02	-58.5	-68.2	3.8	7.45e-01	0	23	104	0	81	10866
2026-01-12 21:28:42.16	172.94	5.94	-58.4	-68.1	3.8	7.45e-01	0	23	104	0	81	10712
2026-01-12 21:28:43.16	173.01	5.86	-58.5	-68.2	3.8	7.46e-01	0	23	104	0	81	10825
2026-01-12 21:28:44.16	173.08	5.78	-58.4	-68.1	3.8	7.46e-01	0	23	104	0	81	10660
2026-01-12 21:28:45.15	173.15	5.70	-58.5	-68.1	3.8	7.46e-01	0	23	104	0	81	10772
2026-01-12 21:28:46.16	173.22	5.62	-58.4	-68.1	3.8	7.46e-01	0	23	104	0	81	10663
2026-01-12 21:28:47.15	173.28	5.54	-58.4	-68.1	3.8	7.44e-01	0	23	104	0	81	10707
2026-01-12 21:28:48.15	173.35	5.46	-58.3	-68.0	3.8	7.46e-01	0	23	104	0	81	10616
2026-01-12 21:28:49.15	173.42	5.38	-58.4	-68.1	3.8	7.45e-01	0	23	104	0	81	10723
2026-01-12 21:28:50.16	173.49	5.30	-58.3	-68.0	3.8	7.45e-01	0	23	104	0	81	10599
2026-01-12 21:28:51.16	173.55	5.22	-58.4	-68.1	3.8	7.45e-01	0	23	104	0	81	10672
2026-01-12 21:28:52.16	173.62	5.14	-58.3	-67.9	3.8	7.45e-01	0	23	104	0	81	10527
2026-01-12 21:28:53.17	173.68	5.06	-58.4	-68.0	3.8	7.46e-01	0	23	104	0	81	10645
2026-01-12 21:28:54.17	173.75	4.99	-58.2	-67.9	3.8	7.45e-01	0	23	104	0	81	10523
2026-01-12 21:28:55.17	173.81	4.91	-58.6	-68.3	3.8	7.46e-01	0	23	104	0	81	10946
2026-01-12 21:28:56.16	173.87	4.83	-58.9	-68.6	3.8	7.45e-01	0	23	104	0	81	11397
2026-01-12 21:28:57.16	173.94	4.76	-59.2	-68.9	3.8	7.46e-01	0	23	104	0	81	11707
2026-01-12 21:28:58.17	174.00	4.68	-59.3	-69.0	3.8	7.44e-01	0	23	104	0	81	11944
2026-01-12 21:28:59.16	174.06	4.60	-59.5	-69.3	3.8	7.47e-01	0	23	104	0	82	11550
2026-01-12 21:29:00.16	174.13	4.53	-59.6	-69.3	3.8	7.46e-01	0	23	104	0	82	11640
2026-01-12 21:29:01.16	174.19	4.45	-59.7	-69.4	3.8	7.46e-01	0	23	104	0	82	11801
2026-01-12 21:29:02.16	174.25	4.38	-59.8	-69.5	3.8	7.45e-01	0	23	104	0	82	11946
2026-01-12 21:29:03.16	174.31	4.30	-59.9	-69.6	3.8	7.46e-01	0	23	104	0	82	12060
2026-01-12 21:29:04.17	174.37	4.23	-60.0	-69.7	3.8	7.46e-01	0	23	104	0	83	11490
2026-01-12 21:29:05.17	174.43	4.15	-60.1	-69.8	3.8	7.47e-01	0	23	104	0	83	11579
2026-01-12 21:29:06.17	174.49	4.08	-60.1	-69.8	3.8	7.46e-01	0	23	104	0	83	11613
2026-01-12 21:29:07.17	174.55	4.00	-60.1	-69.8	3.8	7.45e-01	0	23	104	0	83	11622
2026-01-12 21:29:08.17	174.61	3.93	-60.2	-69.9	3.8	7.48e-01	0	24	104	0	83	11731
2026-01-12 21:29:09.17	174.67	3.86	-60.2	-69.9	3.8	7.45e-01	0	23	104	0	83	11774
2026-01-12 21:29:10.16	174.73	3.78	-60.2	-69.9	3.8	7.46e-01	0	23	104	0	83	11730
2026-01-12 21:29:11.16	174.79	3.71	-60.2	-69.9	3.8	7.46e-01	0	23	104	0	83	11786
2026-01-12 21:29:12.16	174.84	3.64	-60.3	-70.0	3.8	7.45e-01	0	23	104	0	83	11900
2026-01-12 21:29:13.15	174.90	3.56	-60.3	-70.0	3.9	7.44e-01	0	23	104	0	83	11861
2026-01-12 21:29:14.15	174.96	3.49	-60.3	-70.0	3.8	7.46e-01	0	23	104	0	83	11887
2026-01-12 21:29:15.14	175.01	3.42	-60.3	-70.0	3.8	7.45e-01	0	23	104	0	83	11929
2026-01-12 21:29:16.14	175.07	3.35	-60.3	-70.1	3.8	7.46e-01	0	23	104	0	83	11976
2026-01-12 21:29:17.13	175.13	3.28	-60.3	-70.1	3.8	7.46e-01	0	23	104	0	83	11984
2026-01-12 21:29:18.13	175.18	3.21	-60.3	-70.1	3.8	7.45e-01	0	23	104	0	83	11973
2026-01-12 21:29:19.13	175.24	3.13	-60.3	-70.0	3.8	7.44e-01	0	23	104	0	83	11948
2026-01-12 21:29:20.13	175.29	3.06	-60.3	-70.0	3.8	7.46e-01	0	23	104	0	83	11926
2026-01-12 21:29:21.13	175.35	2.99	-60.3	-70.0	3.8	7.43e-01	0	23	104	0	83	11941
2026-01-12 21:29:22.13	175.40	2.92	-60.3	-70.0	3.8	7.45e-01	0	23	104	0	83	11886
2026-01-12 21:29:23.13	175.46	2.85	-60.3	-70.0	3.8	7.45e-01	0	23	104	0	83	11832
2026-01-12 21:29:24.14	175.51	2.78	-60.3	-70.0	3.8	7.45e-01	0	23	104	0	83	11853
2026-01-12 21:29:25.13	175.56	2.71	-60.3	-70.0	3.8	7.45e-01	0	23	104	0	83	11861
2026-01-12 21:29:26.13	175.62	2.64	-60.3	-70.0	3.8	7.45e-01	0	23	104	0	83	11820
2026-01-12 21:29:27.13	175.67	2.57	-60.3	-70.0	3.8	7.44e-01	0	23	104	0	83	11858
2026-01-12 21:29:28.13	175.72	2.50	-60.3	-70.0	3.8	7.46e-01	0	24	104	0	83	11865
2026-01-12 21:29:29.13	175.78	2.43	-60.2	-70.0	3.8	7.44e-01	0	23	104	0	83	11840
2026-01-12 21:29:30.13	175.83	2.37	-60.2	-69.9	3.8	7.46e-01	0	23	104	0	83	11815
2026-01-12 21:29:31.13	175.88	2.30	-60.2	-70.0	3.8	7.46e-01	0	24	104	0	83	11871
2026-01-12 21:29:32.13	175.93	2.23	-60.2	-69.9	3.8	7.47e-01	0	24	104	0	83	11812
2026-01-12 21:29:33.13	175.98	2.16	-60.2	-69.9	3.8	7.46e-01	0	23	104	0	83	11818
2026-01-12 21:29:34.13	176.03	2.09	-60.2	-70.0	3.8	7.46e-01	0	23	104	0	83	11820
2026-01-12 21:29:35.14	176.08	2.02	-60.2	-69.9	3.8	7.46e-01	0	24	104	0	83	11809

#Closed at: 2026-01-12 21:29:35
#Recorded file [0 MB]: D:/lorett/data/31004_260113_001920.dat