passes_logs/2026/01/12/R3.2S_Murmansk/R3.2S_Murmansk__20260112_225306_KANOPUS-V_5_rec.log

#Pass ID: 20260112_225306_KANOPUS-V 5
#Satellite: KANOPUS-V 5
#Configuration: KANOPUS-V_8320
#almurnet v.1.7.20251203
#Start time: 2026-01-12 22:53:07

#Version: 2.2.20231116
#Station: R3.2S_Murmansk
#Location: 33.079688 lon 68.888172 lat
#TLE: 1 43876U 18111A   26012.28056898  .00003514  00000+0  15053-3 0  9996
#TLE: 2 43876  97.3682 280.8443 0001794  87.9048 272.2394 15.23425790391056

#Time	Az	El	Level	Level2	SNR	BER	BlckErr	Temp	State	Recorded	gain1	gain2
2026-01-12 22:53:07.15	21.07	2.02	-58.1	-67.8	3.8	7.45e-01	0	21	0	0	80	10947
2026-01-12 22:53:08.14	21.05	2.09	-58.1	-67.8	3.8	7.45e-01	0	21	104	0	80	10953
2026-01-12 22:53:09.14	21.03	2.16	-58.1	-67.8	3.8	7.44e-01	0	21	104	0	80	10982
2026-01-12 22:53:10.14	21.00	2.23	-58.1	-67.8	3.8	7.45e-01	0	21	104	0	80	10976
2026-01-12 22:53:11.15	20.98	2.30	-58.1	-67.8	3.8	7.47e-01	0	21	104	0	80	10971
2026-01-12 22:53:12.15	20.95	2.37	-58.1	-67.8	3.8	7.45e-01	0	21	104	0	80	10952
2026-01-12 22:53:13.14	20.93	2.44	-58.1	-67.8	3.8	7.46e-01	0	21	104	0	80	11008
2026-01-12 22:53:14.14	20.90	2.51	-58.1	-67.8	3.8	7.47e-01	0	21	104	0	80	10982
2026-01-12 22:53:15.13	20.88	2.58	-58.1	-67.8	3.8	7.44e-01	0	21	104	0	80	10999
2026-01-12 22:53:16.13	20.85	2.65	-58.1	-67.8	3.8	7.44e-01	0	21	104	0	80	10989
2026-01-12 22:53:17.12	20.83	2.72	-58.1	-67.8	3.8	7.44e-01	0	21	104	0	80	10980
2026-01-12 22:53:18.11	20.80	2.79	-58.1	-67.8	3.8	7.45e-01	0	21	104	0	80	10986
2026-01-12 22:53:19.11	20.78	2.87	-58.1	-67.8	3.8	7.46e-01	0	21	104	0	80	10948
2026-01-12 22:53:20.11	20.75	2.94	-58.1	-67.8	3.8	7.44e-01	0	21	104	0	80	10954
2026-01-12 22:53:21.10	20.73	3.01	-58.1	-67.8	3.8	7.44e-01	0	21	104	0	80	10966
2026-01-12 22:53:22.10	20.70	3.08	-58.1	-67.8	3.8	7.44e-01	0	21	104	0	80	10987
2026-01-12 22:53:23.11	20.67	3.16	-58.1	-67.8	3.8	7.44e-01	0	21	104	0	80	10996
2026-01-12 22:53:24.11	20.65	3.23	-58.1	-67.8	3.8	7.43e-01	0	21	104	0	80	10962
2026-01-12 22:53:25.10	20.62	3.30	-58.1	-67.8	3.8	7.45e-01	0	21	104	0	80	10965
2026-01-12 22:53:26.10	20.59	3.37	-58.1	-67.8	3.8	7.44e-01	0	21	104	0	80	10995
2026-01-12 22:53:27.10	20.56	3.45	-58.1	-67.8	3.8	7.45e-01	0	21	104	0	80	11004
2026-01-12 22:53:28.09	20.54	3.52	-58.1	-67.8	3.8	7.47e-01	0	21	104	0	80	10980
2026-01-12 22:53:29.09	20.51	3.60	-58.1	-67.8	3.8	7.46e-01	0	21	104	0	80	10942
2026-01-12 22:53:30.08	20.48	3.67	-58.1	-67.8	3.8	7.45e-01	0	21	104	0	80	10945
2026-01-12 22:53:31.08	20.45	3.74	-58.1	-67.8	3.8	7.46e-01	0	21	104	0	80	10978
2026-01-12 22:53:32.09	20.42	3.82	-58.1	-67.8	3.8	7.46e-01	0	21	104	0	80	10970
2026-01-12 22:53:33.08	20.40	3.90	-58.1	-67.8	3.8	7.46e-01	0	21	104	0	80	10994
2026-01-12 22:53:34.08	20.37	3.97	-58.1	-67.8	3.8	7.46e-01	0	21	104	0	80	10946
2026-01-12 22:53:35.08	20.34	4.05	-58.1	-67.8	3.8	7.46e-01	0	21	104	0	80	11005
2026-01-12 22:53:36.08	20.31	4.12	-58.1	-67.8	3.8	7.46e-01	0	21	104	0	80	10963
2026-01-12 22:53:37.07	20.28	4.20	-58.1	-67.8	3.8	7.48e-01	0	22	104	0	80	11003
2026-01-12 22:53:38.07	20.25	4.28	-58.1	-67.8	3.8	7.46e-01	0	22	104	0	80	10992
2026-01-12 22:53:39.07	20.22	4.35	-58.1	-67.8	3.8	7.45e-01	0	22	104	0	80	11020
2026-01-12 22:53:40.07	20.19	4.43	-58.1	-67.8	3.8	7.47e-01	0	22	104	0	80	11000
2026-01-12 22:53:41.07	20.16	4.51	-58.1	-67.8	3.8	7.46e-01	0	22	104	0	80	10991
2026-01-12 22:53:42.07	20.13	4.59	-58.2	-67.9	3.8	7.44e-01	0	22	104	0	80	11034
2026-01-12 22:53:43.06	20.10	4.66	-58.1	-67.8	3.8	7.46e-01	0	22	104	0	80	11014
2026-01-12 22:53:44.06	20.07	4.74	-58.1	-67.8	3.8	7.46e-01	0	22	104	0	80	10980
2026-01-12 22:53:45.07	20.04	4.82	-58.1	-67.8	3.8	7.45e-01	0	22	104	0	80	11012
2026-01-12 22:53:46.07	20.00	4.90	-58.1	-67.9	3.8	7.45e-01	0	22	104	0	80	11032
2026-01-12 22:53:47.08	19.97	4.98	-58.1	-67.9	3.8	7.46e-01	0	22	104	0	80	11031
2026-01-12 22:53:48.07	19.94	5.06	-58.1	-67.8	3.8	7.46e-01	0	22	104	0	80	11012
2026-01-12 22:53:49.07	19.91	5.14	-58.2	-67.9	3.8	7.45e-01	0	22	104	0	80	11154
2026-01-12 22:53:50.07	19.88	5.22	-58.3	-67.9	3.8	7.45e-01	0	22	104	0	80	11125
2026-01-12 22:53:51.06	19.84	5.30	-58.2	-67.8	3.8	7.47e-01	0	22	104	0	80	10989
2026-01-12 22:53:52.07	19.81	5.38	-58.3	-68.0	3.8	7.46e-01	0	22	104	0	80	11230
2026-01-12 22:53:53.07	19.78	5.46	-58.1	-67.8	3.8	7.45e-01	0	22	104	0	80	11013
2026-01-12 22:53:54.06	19.74	5.54	-58.3	-68.0	3.8	7.45e-01	0	22	104	0	80	11204
2026-01-12 22:53:55.05	19.71	5.63	-58.2	-67.8	3.8	7.46e-01	0	22	104	0	80	11017
2026-01-12 22:53:56.05	19.67	5.71	-58.3	-68.0	3.8	7.44e-01	0	22	104	0	80	11263
2026-01-12 22:53:57.05	19.64	5.79	-58.2	-67.9	3.8	7.47e-01	0	22	104	0	80	11056
2026-01-12 22:53:58.05	19.61	5.87	-58.3	-68.0	3.8	7.45e-01	0	22	104	0	80	11239
2026-01-12 22:53:59.05	19.57	5.96	-58.2	-68.0	3.8	7.45e-01	0	22	104	0	80	11167
2026-01-12 22:54:00.05	19.54	6.04	-58.4	-68.1	3.8	7.44e-01	0	22	104	0	80	11346
2026-01-12 22:54:01.05	19.50	6.13	-58.2	-67.9	3.8	7.46e-01	0	22	104	0	80	11134
2026-01-12 22:54:02.05	19.46	6.21	-58.4	-68.1	3.8	7.46e-01	0	22	104	0	80	11288
2026-01-12 22:54:03.06	19.43	6.30	-58.3	-68.0	3.8	7.45e-01	0	22	104	0	80	11166
2026-01-12 22:54:04.05	19.39	6.38	-58.4	-68.1	3.8	7.44e-01	0	22	104	0	80	11375
2026-01-12 22:54:05.06	19.35	6.47	-58.3	-68.0	3.8	7.45e-01	0	22	104	0	80	11173
2026-01-12 22:54:06.06	19.32	6.55	-58.4	-68.1	3.8	7.46e-01	0	22	104	0	80	11329
2026-01-12 22:54:07.05	19.28	6.64	-58.3	-68.0	3.8	7.45e-01	0	22	104	0	80	11212
2026-01-12 22:54:08.05	19.24	6.72	-58.5	-68.1	3.8	7.45e-01	0	22	104	0	80	11403
2026-01-12 22:54:09.04	19.20	6.81	-58.3	-68.0	3.8	7.46e-01	0	22	104	0	80	11263
2026-01-12 22:54:10.04	19.17	6.90	-58.4	-68.1	3.8	7.45e-01	0	22	104	0	80	11360
2026-01-12 22:54:11.03	19.13	6.99	-58.4	-68.0	3.8	7.45e-01	0	22	104	0	80	11281
2026-01-12 22:54:12.04	19.09	7.07	-58.5	-68.2	3.8	7.46e-01	0	22	104	0	80	11486
2026-01-12 22:54:13.04	19.05	7.16	-58.4	-68.1	3.8	7.45e-01	0	22	104	0	80	11324
2026-01-12 22:54:14.04	19.01	7.25	-58.5	-68.2	3.8	7.45e-01	0	22	104	0	80	11462
2026-01-12 22:54:15.03	18.97	7.34	-58.4	-68.1	3.8	7.45e-01	0	22	104	0	80	11323
2026-01-12 22:54:16.03	18.93	7.43	-58.5	-68.2	3.8	7.47e-01	0	22	104	0	80	11515
2026-01-12 22:54:17.03	18.89	7.52	-58.4	-68.1	3.8	7.45e-01	0	22	104	0	80	11356
2026-01-12 22:54:18.02	18.85	7.61	-58.5	-68.2	3.8	7.46e-01	0	22	104	0	80	11528
2026-01-12 22:54:19.02	18.81	7.70	-58.5	-68.1	3.8	7.44e-01	0	22	104	0	80	11377
2026-01-12 22:54:20.01	18.77	7.79	-58.6	-68.3	3.8	7.46e-01	0	22	104	0	80	11578
2026-01-12 22:54:21.02	18.72	7.89	-58.5	-68.1	3.8	7.46e-01	0	22	104	0	80	11409
2026-01-12 22:54:22.02	18.68	7.98	-58.5	-68.2	3.8	7.45e-01	0	22	104	0	80	11529
2026-01-12 22:54:23.01	18.64	8.07	-58.5	-68.2	3.8	7.45e-01	0	22	104	0	80	11430
2026-01-12 22:54:24.01	18.59	8.16	-58.6	-68.3	3.8	7.45e-01	0	22	104	0	80	11625
2026-01-12 22:54:25.00	18.55	8.26	-58.5	-68.2	3.8	7.45e-01	0	22	104	0	80	11493
2026-01-12 22:54:26.01	18.51	8.35	-58.6	-68.3	3.8	7.45e-01	0	22	104	0	80	11581
2026-01-12 22:54:27.00	18.46	8.44	-58.5	-68.2	3.8	7.47e-01	0	22	104	0	80	11482
2026-01-12 22:54:28.00	18.42	8.54	-58.6	-68.3	3.8	7.45e-01	0	22	104	0	80	11673
2026-01-12 22:54:29.01	18.37	8.64	-58.5	-68.2	3.8	7.45e-01	0	22	104	0	80	11530
2026-01-12 22:54:30.01	18.33	8.73	-58.6	-68.3	3.8	7.45e-01	0	22	104	0	80	11617
2026-01-12 22:54:31.00	18.28	8.83	-58.5	-68.3	3.8	7.45e-01	0	22	104	0	80	11561
2026-01-12 22:54:32.00	18.24	8.93	-58.6	-68.3	3.8	7.46e-01	0	22	104	0	80	11650
2026-01-12 22:54:33.00	18.19	9.02	-58.6	-68.3	3.8	7.46e-01	0	22	104	0	80	11569
2026-01-12 22:54:33.99	18.14	9.12	-58.6	-68.3	3.8	7.45e-01	0	23	104	0	80	11670
2026-01-12 22:54:35.00	18.09	9.22	-58.6	-68.3	3.8	7.45e-01	0	22	104	0	80	11598
2026-01-12 22:54:36.00	18.05	9.32	-58.7	-68.4	3.8	7.46e-01	0	23	104	0	80	11721
2026-01-12 22:54:36.99	18.00	9.42	-58.6	-68.3	3.8	7.46e-01	0	22	104	0	80	11616
2026-01-12 22:54:37.99	17.95	9.52	-58.7	-68.3	3.8	7.47e-01	0	22	104	0	80	11675
2026-01-12 22:54:38.99	17.90	9.62	-58.6	-68.3	3.8	7.47e-01	0	22	104	0	80	11662
2026-01-12 22:54:39.99	17.85	9.72	-58.7	-68.4	3.8	7.44e-01	0	23	104	0	80	11743
2026-01-12 22:54:40.99	17.80	9.82	-58.6	-68.3	3.8	7.47e-01	0	22	104	0	80	11616
2026-01-12 22:54:41.99	17.75	9.92	-58.7	-68.4	3.8	7.43e-01	0	22	104	0	80	11708
2026-01-12 22:54:42.99	17.70	10.03	-58.6	-68.4	3.8	7.45e-01	0	22	104	0	80	11684
2026-01-12 22:54:43.98	17.65	10.13	-58.7	-68.4	3.8	7.45e-01	0	23	104	0	80	11794
2026-01-12 22:54:44.98	17.59	10.23	-58.6	-68.3	3.8	7.45e-01	0	23	104	0	80	11643
2026-01-12 22:54:45.98	17.54	10.34	-58.7	-68.4	3.8	7.46e-01	0	22	104	0	80	11763
2026-01-12 22:54:46.98	17.49	10.44	-58.7	-68.4	3.8	7.47e-01	0	23	104	0	80	11722
2026-01-12 22:54:47.98	17.43	10.55	-58.8	-68.4	3.8	7.46e-01	0	23	104	0	80	11809
2026-01-12 22:54:48.96	17.38	10.65	-58.7	-68.4	3.8	7.44e-01	0	22	104	0	80	11700
2026-01-12 22:54:49.97	17.32	10.76	-58.7	-68.4	3.8	7.45e-01	0	23	104	0	80	11783
2026-01-12 22:54:50.96	17.27	10.86	-58.7	-68.4	3.8	7.46e-01	0	23	104	0	80	11717
2026-01-12 22:54:51.96	17.21	10.97	-58.8	-68.5	3.8	7.46e-01	0	23	104	0	80	11856
2026-01-12 22:54:52.95	17.16	11.08	-58.7	-68.4	3.8	7.45e-01	0	22	104	0	80	11767
2026-01-12 22:54:53.95	17.10	11.19	-58.7	-68.4	3.8	7.45e-01	0	22	104	0	80	11808
2026-01-12 22:54:54.96	17.04	11.30	-58.7	-68.4	3.8	7.45e-01	0	22	104	0	80	11755
2026-01-12 22:54:55.95	16.99	11.41	-58.8	-68.5	3.8	7.46e-01	0	23	104	0	80	11848
2026-01-12 22:54:56.95	16.93	11.52	-58.7	-68.4	3.8	7.45e-01	0	23	104	0	80	11780
2026-01-12 22:54:57.95	16.87	11.63	-58.8	-68.5	3.8	7.47e-01	0	23	104	0	80	11885
2026-01-12 22:54:58.95	16.81	11.74	-58.8	-68.5	3.8	7.47e-01	0	23	104	0	80	11825
2026-01-12 22:54:59.94	16.75	11.86	-58.8	-68.6	3.8	7.45e-01	0	23	104	0	80	11974
2026-01-12 22:55:00.94	16.69	11.97	-58.8	-68.5	3.8	7.45e-01	0	23	104	0	80	11825
2026-01-12 22:55:01.94	16.63	12.08	-58.8	-68.5	3.8	7.46e-01	0	23	104	0	80	11848
2026-01-12 22:55:02.94	16.56	12.20	-58.8	-68.5	3.8	7.46e-01	0	23	104	0	80	11849
2026-01-12 22:55:03.94	16.50	12.32	-58.8	-68.5	3.8	7.46e-01	0	23	104	0	80	11933
2026-01-12 22:55:04.95	16.44	12.43	-58.8	-68.5	3.8	7.47e-01	0	23	104	0	80	11844
2026-01-12 22:55:05.95	16.37	12.55	-58.8	-68.5	3.8	7.45e-01	0	23	104	0	80	11948
2026-01-12 22:55:06.94	16.31	12.67	-58.8	-68.5	3.8	7.46e-01	0	23	104	0	80	11885
2026-01-12 22:55:07.94	16.24	12.79	-58.8	-68.6	3.8	7.46e-01	0	23	104	0	80	11960
2026-01-12 22:55:08.92	16.18	12.90	-58.8	-68.5	3.8	7.46e-01	0	23	104	0	80	11937
2026-01-12 22:55:09.92	16.11	13.02	-58.8	-68.5	3.8	7.46e-01	0	23	104	0	80	11933
2026-01-12 22:55:10.92	16.04	13.14	-58.8	-68.5	3.8	7.44e-01	0	23	104	0	80	11877
2026-01-12 22:55:11.91	15.97	13.26	-58.9	-68.6	3.8	7.45e-01	0	23	104	0	80	11968
2026-01-12 22:55:12.91	15.91	13.39	-58.8	-68.5	3.8	7.45e-01	0	23	104	0	80	11883
2026-01-12 22:55:13.90	15.84	13.51	-58.9	-68.5	3.8	7.46e-01	0	22	104	0	80	11937
2026-01-12 22:55:14.90	15.77	13.63	-58.8	-68.5	3.8	7.44e-01	0	23	104	0	80	11925
2026-01-12 22:55:15.90	15.69	13.76	-58.9	-68.6	3.8	7.46e-01	0	23	104	0	80	11997
2026-01-12 22:55:16.89	15.62	13.88	-58.8	-68.5	3.8	7.46e-01	0	23	104	0	80	11930
2026-01-12 22:55:17.89	15.55	14.01	-58.9	-68.6	3.8	7.43e-01	0	23	104	0	80	12015
2026-01-12 22:55:18.89	15.48	14.13	-58.9	-68.6	3.8	7.45e-01	0	23	104	0	80	11994
2026-01-12 22:55:19.88	15.40	14.26	-58.9	-68.6	3.8	7.45e-01	0	23	104	0	80	12050
2026-01-12 22:55:20.87	15.33	14.39	-58.9	-68.5	3.8	7.48e-01	0	23	104	0	80	11936
2026-01-12 22:55:21.87	15.25	14.52	-58.9	-68.6	3.8	7.45e-01	0	23	104	0	80	12015
2026-01-12 22:55:22.87	15.18	14.65	-58.9	-68.6	3.8	7.46e-01	0	23	104	0	80	11980
2026-01-12 22:55:23.86	15.10	14.78	-59.0	-68.7	3.8	7.45e-01	0	23	104	0	81	11469
2026-01-12 22:55:24.87	15.02	14.91	-58.9	-68.6	3.8	7.44e-01	0	23	104	0	81	11358
2026-01-12 22:55:25.87	14.94	15.05	-59.0	-68.7	3.8	7.46e-01	0	23	104	0	81	11439
2026-01-12 22:55:26.87	14.86	15.18	-58.9	-68.6	3.8	7.44e-01	0	23	104	0	81	11408
2026-01-12 22:55:27.87	14.78	15.32	-59.0	-68.7	3.8	7.45e-01	0	23	104	0	81	11499
2026-01-12 22:55:28.86	14.70	15.45	-59.0	-68.7	3.8	7.45e-01	0	22	104	0	81	11418
2026-01-12 22:55:29.85	14.62	15.59	-59.0	-68.7	3.8	7.45e-01	0	23	104	0	81	11486
2026-01-12 22:55:30.85	14.53	15.72	-59.0	-68.6	3.8	7.45e-01	0	23	104	0	81	11417
2026-01-12 22:55:31.85	14.45	15.86	-59.0	-68.7	3.8	7.46e-01	0	23	104	0	81	11476
2026-01-12 22:55:32.85	14.36	16.00	-59.0	-68.7	3.8	7.45e-01	0	23	104	0	81	11469
2026-01-12 22:55:33.84	14.27	16.14	-59.0	-68.7	3.8	7.45e-01	0	23	104	0	81	11508
2026-01-12 22:55:34.84	14.19	16.28	-59.0	-68.7	3.8	7.45e-01	0	23	104	0	81	11475
2026-01-12 22:55:35.84	14.10	16.43	-59.0	-68.8	3.8	7.45e-01	0	23	104	0	81	11568
2026-01-12 22:55:36.84	14.01	16.57	-59.0	-68.7	3.8	7.44e-01	0	23	104	0	81	11528
2026-01-12 22:55:37.83	13.92	16.71	-59.0	-68.8	3.8	7.45e-01	0	23	104	0	81	11581
2026-01-12 22:55:38.83	13.82	16.86	-59.0	-68.7	3.8	7.45e-01	0	23	104	0	81	11506
2026-01-12 22:55:39.83	13.73	17.01	-59.1	-68.8	3.8	7.47e-01	0	23	104	0	81	11550
2026-01-12 22:55:40.83	13.64	17.15	-59.0	-68.7	3.8	7.45e-01	0	23	104	0	81	11545
2026-01-12 22:55:41.83	13.54	17.30	-59.1	-68.8	3.8	7.45e-01	0	23	104	0	81	11581
2026-01-12 22:55:42.82	13.45	17.45	-59.0	-68.7	3.8	7.44e-01	0	23	104	0	81	11537
2026-01-12 22:55:43.83	13.35	17.60	-59.1	-68.8	3.8	7.46e-01	0	23	104	0	81	11610
2026-01-12 22:55:44.83	13.25	17.76	-59.0	-68.7	3.8	7.46e-01	0	23	104	0	81	11536
2026-01-12 22:55:45.83	13.15	17.91	-59.1	-68.8	3.8	7.46e-01	0	23	104	0	81	11571
2026-01-12 22:55:46.82	13.05	18.06	-59.1	-68.8	3.8	7.46e-01	0	23	104	0	81	11550
2026-01-12 22:55:47.83	12.94	18.22	-59.1	-68.8	3.8	7.44e-01	0	23	104	0	81	11667
2026-01-12 22:55:48.82	12.84	18.38	-59.1	-68.8	3.8	7.45e-01	0	23	104	0	81	11605
2026-01-12 22:55:49.82	12.73	18.53	-59.1	-68.8	3.8	7.47e-01	0	23	104	0	81	11600
2026-01-12 22:55:50.82	12.63	18.69	-59.1	-68.8	3.8	7.44e-01	0	23	104	0	81	11632
2026-01-12 22:55:51.81	12.52	18.85	-59.1	-68.9	3.8	7.48e-01	0	23	104	0	81	11720
2026-01-12 22:55:52.82	12.41	19.02	-59.1	-68.8	3.8	7.45e-01	0	23	104	0	81	11633
2026-01-12 22:55:53.81	12.30	19.18	-59.2	-68.8	3.8	7.45e-01	0	23	104	0	81	11665
2026-01-12 22:55:54.81	12.19	19.34	-59.1	-68.8	3.8	7.44e-01	0	23	104	0	81	11630
2026-01-12 22:55:55.81	12.07	19.51	-59.2	-68.8	3.8	7.46e-01	0	23	104	0	81	11680
2026-01-12 22:55:56.81	11.96	19.68	-59.1	-68.8	3.8	7.45e-01	0	23	104	0	81	11612
2026-01-12 22:55:57.80	11.84	19.84	-59.2	-68.8	3.8	7.45e-01	0	23	104	0	81	11681
2026-01-12 22:55:58.80	11.73	20.01	-59.1	-68.9	3.8	7.46e-01	0	23	104	0	81	11692
2026-01-12 22:55:59.80	11.61	20.18	-59.2	-68.9	3.8	7.44e-01	0	23	104	0	81	11717
2026-01-12 22:56:00.80	11.48	20.36	-59.1	-68.8	3.8	7.45e-01	0	23	104	0	81	11668
2026-01-12 22:56:01.80	11.36	20.53	-59.2	-68.9	3.8	7.46e-01	0	23	104	0	81	11739
2026-01-12 22:56:02.80	11.24	20.71	-59.1	-68.9	3.8	7.45e-01	0	23	104	0	81	11699
2026-01-12 22:56:03.79	11.11	20.88	-59.2	-68.9	3.8	7.46e-01	0	23	104	0	81	11731
2026-01-12 22:56:04.79	10.98	21.06	-59.2	-68.9	3.8	7.45e-01	0	23	104	0	81	11687
2026-01-12 22:56:05.79	10.85	21.24	-59.2	-68.9	3.8	7.45e-01	0	23	104	0	81	11774
2026-01-12 22:56:06.78	10.72	21.42	-59.2	-68.9	3.8	7.45e-01	0	23	104	0	81	11704
2026-01-12 22:56:07.79	10.59	21.60	-59.2	-68.9	3.8	7.48e-01	0	23	104	0	81	11794
2026-01-12 22:56:08.80	10.45	21.79	-59.2	-68.9	3.8	7.46e-01	0	23	104	0	81	11720
2026-01-12 22:56:09.80	10.32	21.97	-59.2	-68.9	3.8	7.45e-01	0	23	104	0	81	11777
2026-01-12 22:56:10.79	10.18	22.16	-59.2	-68.9	3.8	7.46e-01	0	23	104	0	81	11707
2026-01-12 22:56:11.79	10.04	22.35	-59.2	-68.9	3.8	7.45e-01	0	23	104	0	81	11794
2026-01-12 22:56:12.79	9.89	22.54	-59.2	-68.9	3.8	7.46e-01	0	23	104	0	81	11719
2026-01-12 22:56:13.79	9.75	22.73	-59.2	-68.9	3.8	7.45e-01	0	23	104	0	81	11814
2026-01-12 22:56:14.78	9.60	22.92	-59.2	-68.9	3.8	7.45e-01	0	23	104	0	81	11815
2026-01-12 22:56:15.78	9.45	23.12	-59.3	-69.0	3.8	7.44e-01	0	23	104	0	81	11847
2026-01-12 22:56:16.78	9.30	23.31	-59.2	-69.0	3.8	7.46e-01	0	23	104	0	81	11851
2026-01-12 22:56:17.79	9.15	23.51	-59.3	-69.0	3.8	7.45e-01	0	23	104	0	81	11819
2026-01-12 22:56:18.78	8.99	23.71	-59.2	-68.9	3.8	7.46e-01	0	23	104	0	81	11777
2026-01-12 22:56:19.79	8.83	23.92	-59.3	-69.0	3.8	7.47e-01	0	23	104	0	81	11906
2026-01-12 22:56:20.78	8.67	24.12	-59.3	-68.9	3.8	7.44e-01	0	23	104	0	81	11808
2026-01-12 22:56:21.79	8.51	24.32	-59.3	-69.0	3.8	7.45e-01	0	23	104	0	81	11863
2026-01-12 22:56:22.78	8.34	24.53	-59.3	-69.0	3.8	7.46e-01	0	23	104	0	81	11874
2026-01-12 22:56:23.77	8.18	24.74	-59.3	-69.0	3.8	7.45e-01	0	23	104	0	81	11855
2026-01-12 22:56:24.77	8.01	24.95	-59.3	-69.0	3.8	7.45e-01	0	23	104	0	81	11843
2026-01-12 22:56:25.77	7.83	25.16	-59.3	-69.0	3.8	7.45e-01	0	23	104	0	81	11881
2026-01-12 22:56:26.76	7.66	25.37	-59.3	-69.0	3.8	7.46e-01	0	23	104	0	81	11875
2026-01-12 22:56:27.76	7.48	25.59	-59.3	-69.0	3.8	7.46e-01	0	23	104	0	81	11898
2026-01-12 22:56:28.76	7.30	25.81	-59.3	-69.0	3.8	7.46e-01	0	23	104	0	81	11929
2026-01-12 22:56:29.76	7.12	26.03	-59.3	-69.0	3.8	7.45e-01	0	23	104	0	81	11913
2026-01-12 22:56:30.75	6.93	26.24	-59.3	-69.1	3.8	7.44e-01	0	23	104	0	81	11972
2026-01-12 22:56:31.75	6.74	26.47	-59.4	-69.1	3.8	7.46e-01	0	23	104	0	81	11987
2026-01-12 22:56:32.74	6.55	26.69	-59.3	-69.0	3.8	7.46e-01	0	23	104	0	81	11935
2026-01-12 22:56:33.74	6.35	26.92	-59.4	-69.1	3.8	7.45e-01	0	23	104	0	81	11991
2026-01-12 22:56:34.74	6.15	27.15	-59.4	-69.1	3.8	7.47e-01	0	23	104	0	81	11982
2026-01-12 22:56:35.74	5.95	27.38	-59.4	-69.1	3.8	7.46e-01	0	23	104	0	81	12004
2026-01-12 22:56:36.73	5.75	27.61	-59.4	-69.0	3.8	7.47e-01	0	23	104	0	81	11952
2026-01-12 22:56:37.73	5.54	27.85	-59.4	-69.1	3.8	7.46e-01	0	23	104	0	81	12020
2026-01-12 22:56:38.73	5.33	28.08	-59.4	-69.1	3.8	7.44e-01	0	23	104	0	81	12053
2026-01-12 22:56:39.73	5.11	28.32	-59.5	-69.2	3.8	7.47e-01	0	23	104	0	82	11449
2026-01-12 22:56:40.73	4.89	28.57	-59.5	-69.1	3.8	7.44e-01	0	23	104	0	82	11417
2026-01-12 22:56:41.73	4.67	28.81	-59.5	-69.2	3.8	7.44e-01	0	23	104	0	82	11491
2026-01-12 22:56:42.73	4.44	29.06	-59.5	-69.2	3.8	7.43e-01	0	23	104	0	82	11479
2026-01-12 22:56:43.72	4.21	29.30	-59.5	-69.2	3.8	7.44e-01	0	23	104	0	82	11492
2026-01-12 22:56:44.72	3.97	29.55	-59.5	-69.2	3.8	7.46e-01	0	23	104	0	82	11460
2026-01-12 22:56:45.72	3.73	29.80	-59.5	-69.2	3.8	7.46e-01	0	23	104	0	82	11463
2026-01-12 22:56:46.72	3.49	30.06	-59.5	-69.2	3.8	7.47e-01	0	23	104	0	82	11478
2026-01-12 22:56:47.71	3.24	30.31	-59.5	-69.2	3.8	7.46e-01	0	23	104	0	82	11534
2026-01-12 22:56:48.71	2.99	30.57	-59.5	-69.2	3.8	7.46e-01	0	23	104	0	82	11491
2026-01-12 22:56:49.71	2.74	30.83	-59.5	-69.2	3.8	7.46e-01	0	23	104	0	82	11503
2026-01-12 22:56:50.71	2.47	31.10	-59.5	-69.2	3.8	7.44e-01	0	23	104	0	82	11504
2026-01-12 22:56:51.70	2.21	31.36	-59.6	-69.2	3.8	7.45e-01	0	23	104	0	82	11536
2026-01-12 22:56:52.69	1.94	31.62	-59.5	-69.3	3.8	7.44e-01	0	23	104	0	82	11554
2026-01-12 22:56:53.70	1.66	31.90	-59.6	-69.2	3.8	7.46e-01	0	23	104	0	82	11547
2026-01-12 22:56:54.69	1.39	32.16	-59.6	-69.3	3.8	7.45e-01	0	23	104	0	82	11578
2026-01-12 22:56:55.68	1.10	32.44	-59.6	-69.3	3.8	7.44e-01	0	23	104	0	82	11609
2026-01-12 22:56:56.68	0.81	32.71	-59.6	-69.3	3.8	7.47e-01	0	23	104	0	82	11612
2026-01-12 22:56:57.68	0.51	32.99	-59.6	-69.3	3.8	7.44e-01	0	23	104	0	82	11627
2026-01-12 22:56:58.67	0.21	33.27	-59.6	-69.3	3.8	7.46e-01	0	23	104	0	82	11603
2026-01-12 22:56:59.67	359.91	33.55	-59.6	-69.3	3.8	7.44e-01	0	23	104	0	82	11658
2026-01-12 22:57:00.66	359.60	33.83	-59.6	-69.3	3.8	7.46e-01	0	23	104	0	82	11608
2026-01-12 22:57:01.65	359.28	34.12	-59.6	-69.3	3.8	7.45e-01	0	23	104	0	82	11636
2026-01-12 22:57:02.65	358.95	34.41	-59.6	-69.3	3.8	7.44e-01	0	23	104	0	82	11586
2026-01-12 22:57:03.65	358.62	34.70	-59.6	-69.3	3.8	7.47e-01	0	23	104	0	82	11675
2026-01-12 22:57:04.65	358.28	34.99	-59.6	-69.3	3.8	7.46e-01	0	23	104	0	82	11642
2026-01-12 22:57:05.66	357.93	35.29	-59.6	-69.3	3.8	7.45e-01	0	23	104	0	82	11647
2026-01-12 22:57:06.65	357.58	35.59	-59.6	-69.4	3.8	7.46e-01	0	23	104	0	82	11691
2026-01-12 22:57:07.66	357.22	35.89	-59.7	-69.4	3.8	7.44e-01	0	23	104	0	82	11737
2026-01-12 22:57:08.67	356.85	36.19	-59.7	-69.4	3.8	7.46e-01	0	23	104	0	82	11700
2026-01-12 22:57:09.66	356.48	36.49	-59.7	-69.4	3.8	7.46e-01	0	23	104	0	82	11688
2026-01-12 22:57:10.66	356.10	36.80	-59.7	-69.4	3.8	7.47e-01	0	23	104	0	82	11707
2026-01-12 22:57:11.66	355.71	37.11	-59.7	-69.4	3.8	7.45e-01	0	23	104	0	82	11694
2026-01-12 22:57:12.65	355.32	37.41	-59.7	-69.4	3.8	7.46e-01	0	23	104	0	82	11690
2026-01-12 22:57:13.66	354.91	37.73	-59.7	-69.4	3.8	7.46e-01	0	23	104	0	82	11759
2026-01-12 22:57:14.66	354.49	38.04	-59.7	-69.4	3.8	7.45e-01	0	23	104	0	82	11725
2026-01-12 22:57:15.65	354.08	38.35	-59.7	-69.4	3.8	7.45e-01	0	23	104	0	82	11818
2026-01-12 22:57:16.65	353.64	38.67	-59.7	-69.4	3.8	7.45e-01	0	23	104	0	82	11723
2026-01-12 22:57:17.64	353.21	38.99	-59.7	-69.4	3.8	7.45e-01	0	23	104	0	82	11786
2026-01-12 22:57:18.64	352.76	39.31	-59.7	-69.4	3.8	7.47e-01	0	23	104	0	82	11751
2026-01-12 22:57:19.63	352.31	39.62	-59.8	-69.5	3.8	7.46e-01	0	23	104	0	82	11832
2026-01-12 22:57:20.63	351.84	39.95	-59.7	-69.5	3.8	7.47e-01	0	23	104	0	82	11838
2026-01-12 22:57:21.62	351.36	40.27	-59.7	-69.5	3.8	7.46e-01	0	23	104	0	82	11840
2026-01-12 22:57:22.63	350.87	40.59	-59.8	-69.4	3.8	7.47e-01	0	23	104	0	82	11814
2026-01-12 22:57:23.63	350.37	40.92	-59.8	-69.5	3.8	7.44e-01	0	23	104	0	82	11852
2026-01-12 22:57:24.61	349.87	41.24	-59.8	-69.5	3.8	7.47e-01	0	23	104	0	82	11879
2026-01-12 22:57:25.61	349.35	41.57	-59.8	-69.5	3.8	7.47e-01	0	23	104	0	82	11823
2026-01-12 22:57:26.61	348.82	41.90	-59.8	-69.5	3.8	7.45e-01	0	23	104	0	82	11828
2026-01-12 22:57:27.60	348.28	42.22	-59.8	-69.5	3.8	7.47e-01	0	23	104	0	82	11898
2026-01-12 22:57:28.60	347.73	42.55	-59.8	-69.5	3.8	7.45e-01	0	23	104	0	82	11864
2026-01-12 22:57:29.61	347.16	42.88	-59.8	-69.5	3.8	7.45e-01	0	23	104	0	82	11860
2026-01-12 22:57:30.60	346.58	43.21	-59.8	-69.5	3.8	7.45e-01	0	23	104	0	82	11907
2026-01-12 22:57:31.60	345.99	43.54	-59.8	-69.5	3.8	7.46e-01	0	23	104	0	82	11922
2026-01-12 22:57:32.60	345.39	43.87	-59.8	-69.5	3.8	7.44e-01	0	23	104	0	82	11889
2026-01-12 22:57:33.60	344.77	44.20	-59.8	-69.5	3.8	7.46e-01	0	23	104	0	82	11927
2026-01-12 22:57:34.60	344.14	44.53	-59.8	-69.6	3.8	7.47e-01	0	23	104	0	82	11956
2026-01-12 22:57:35.59	343.50	44.85	-59.9	-69.5	3.8	7.46e-01	0	23	104	0	82	11952
2026-01-12 22:57:36.59	342.84	45.18	-59.8	-69.5	3.8	7.46e-01	0	23	104	0	82	11910
2026-01-12 22:57:37.59	342.17	45.51	-59.8	-69.5	3.8	7.45e-01	0	23	104	0	82	11915
2026-01-12 22:57:38.59	341.48	45.83	-59.9	-69.6	3.8	7.47e-01	0	23	104	0	82	11983
2026-01-12 22:57:39.58	340.79	46.15	-59.9	-69.6	3.8	7.46e-01	0	23	104	0	82	12029
2026-01-12 22:57:40.58	340.07	46.47	-59.9	-69.5	3.8	7.45e-01	0	23	104	0	82	11929
2026-01-12 22:57:41.57	339.34	46.79	-59.9	-69.6	3.8	7.46e-01	0	23	104	0	82	11961
2026-01-12 22:57:42.58	338.59	47.11	-59.9	-69.6	3.8	7.44e-01	0	23	104	0	82	12031
2026-01-12 22:57:43.58	337.82	47.42	-59.9	-69.6	3.8	7.46e-01	0	23	104	0	82	12040
2026-01-12 22:57:44.58	337.04	47.73	-59.9	-69.6	3.8	7.46e-01	0	23	104	0	82	12023
2026-01-12 22:57:45.57	336.26	48.04	-59.9	-69.6	3.8	7.47e-01	0	23	104	0	82	12053
2026-01-12 22:57:46.57	335.44	48.34	-60.0	-69.7	3.8	7.47e-01	0	23	104	0	83	11472
2026-01-12 22:57:47.57	334.61	48.64	-60.0	-69.7	3.8	7.46e-01	0	23	104	0	83	11459
2026-01-12 22:57:48.56	333.78	48.93	-60.0	-69.7	3.8	7.45e-01	0	23	104	0	83	11432
2026-01-12 22:57:49.56	332.91	49.23	-60.0	-69.7	3.8	7.45e-01	0	23	104	0	83	11418
2026-01-12 22:57:50.55	332.04	49.51	-60.0	-69.7	3.8	7.46e-01	0	23	104	0	83	11442
2026-01-12 22:57:51.55	331.15	49.79	-60.0	-69.7	3.8	7.45e-01	0	23	104	0	83	11456
2026-01-12 22:57:52.55	330.23	50.07	-60.0	-69.7	3.8	7.45e-01	0	23	104	0	83	11432
2026-01-12 22:57:53.55	329.30	50.34	-60.0	-69.7	3.8	7.46e-01	0	23	104	0	83	11433
2026-01-12 22:57:54.55	328.36	50.60	-60.0	-69.7	3.8	7.46e-01	0	23	104	0	83	11426
2026-01-12 22:57:55.55	327.39	50.86	-60.0	-69.7	3.8	7.47e-01	0	23	104	0	83	11531
2026-01-12 22:57:56.55	326.41	51.11	-60.0	-69.7	3.8	7.46e-01	0	23	104	0	83	11463
2026-01-12 22:57:57.55	325.41	51.35	-60.0	-69.7	3.8	7.46e-01	0	23	104	0	83	11496
2026-01-12 22:57:58.55	324.39	51.59	-60.0	-69.7	3.8	7.46e-01	0	23	104	0	83	11492
2026-01-12 22:57:59.55	323.36	51.81	-60.0	-69.7	3.8	7.46e-01	0	23	104	0	83	11505
2026-01-12 22:58:00.55	322.32	52.03	-60.0	-69.7	3.8	7.44e-01	0	23	104	0	83	11534
2026-01-12 22:58:01.55	321.25	52.24	-60.0	-69.7	3.8	7.46e-01	0	23	104	0	83	11524
2026-01-12 22:58:02.55	320.17	52.44	-60.1	-69.8	3.8	7.44e-01	0	23	104	0	83	11563
2026-01-12 22:58:03.55	319.08	52.64	-60.1	-69.7	3.8	7.44e-01	0	23	104	0	83	11516
2026-01-12 22:58:04.55	317.97	52.82	-60.0	-69.7	3.8	7.46e-01	0	23	104	0	83	11517
2026-01-12 22:58:05.55	316.85	52.99	-60.0	-69.8	3.8	7.46e-01	0	23	104	0	83	11551
2026-01-12 22:58:06.56	315.71	53.15	-60.1	-69.8	3.8	7.44e-01	0	23	104	0	83	11577
2026-01-12 22:58:07.56	314.56	53.30	-60.1	-69.8	3.8	7.45e-01	0	23	104	0	83	11579
2026-01-12 22:58:08.56	313.40	53.44	-60.0	-69.7	3.8	7.47e-01	0	23	104	0	83	11532
2026-01-12 22:58:09.56	312.23	53.57	-60.1	-69.8	3.8	7.45e-01	0	23	104	0	83	11571
2026-01-12 22:58:10.56	311.05	53.68	-60.1	-69.8	3.8	7.45e-01	0	23	104	0	83	11629
2026-01-12 22:58:11.56	309.86	53.78	-60.1	-69.8	3.8	7.45e-01	0	23	104	0	83	11609
2026-01-12 22:58:12.56	308.66	53.88	-60.1	-69.7	3.8	7.46e-01	0	23	104	0	83	11540
2026-01-12 22:58:13.56	307.46	53.95	-60.1	-69.8	3.8	7.45e-01	0	23	104	0	83	11598
2026-01-12 22:58:14.56	306.25	54.02	-60.1	-69.8	3.8	7.47e-01	0	23	104	0	83	11626
2026-01-12 22:58:15.55	305.04	54.07	-60.1	-69.8	3.8	7.46e-01	0	23	104	0	83	11654
2026-01-12 22:58:16.55	303.82	54.12	-60.1	-69.8	3.8	7.47e-01	0	23	104	0	83	11586
2026-01-12 22:58:17.56	302.59	54.14	-60.1	-69.8	3.8	7.45e-01	0	23	104	0	83	11607
2026-01-12 22:58:18.55	301.38	54.16	-60.1	-69.8	3.8	7.46e-01	0	23	104	0	83	11618
2026-01-12 22:58:19.54	300.16	54.16	-60.1	-69.9	3.8	7.46e-01	0	23	104	0	83	11704
2026-01-12 22:58:20.54	298.94	54.15	-60.1	-69.8	3.8	7.44e-01	0	23	104	0	83	11616
2026-01-12 22:58:21.54	297.71	54.13	-60.1	-69.8	3.8	7.46e-01	0	23	104	0	83	11656
2026-01-12 22:58:22.54	296.49	54.09	-60.2	-69.8	3.8	7.46e-01	0	23	104	0	83	11659
2026-01-12 22:58:23.54	295.27	54.04	-60.1	-69.8	3.8	7.46e-01	0	23	104	0	83	11657
2026-01-12 22:58:24.53	294.07	53.98	-60.1	-69.8	3.8	7.45e-01	0	23	104	0	83	11567
2026-01-12 22:58:25.52	292.88	53.91	-60.1	-69.8	3.8	7.46e-01	0	23	104	0	83	11572
2026-01-12 22:58:26.52	291.67	53.82	-60.1	-69.8	3.8	7.47e-01	0	23	104	0	83	11646
2026-01-12 22:58:27.52	290.48	53.72	-60.1	-69.8	3.8	7.45e-01	0	23	104	0	83	11611
2026-01-12 22:58:28.51	289.31	53.61	-60.1	-69.8	3.8	7.46e-01	0	23	104	0	83	11608
2026-01-12 22:58:29.52	288.12	53.49	-60.1	-69.8	3.8	7.45e-01	0	23	104	0	83	11554
2026-01-12 22:58:30.51	286.97	53.36	-60.1	-69.8	3.8	7.46e-01	0	23	104	0	83	11566
2026-01-12 22:58:31.51	285.82	53.21	-60.1	-69.8	3.8	7.45e-01	0	23	104	0	83	11590
2026-01-12 22:58:32.51	284.68	53.05	-60.1	-69.7	3.8	7.46e-01	0	23	104	0	83	11538
2026-01-12 22:58:33.50	283.56	52.89	-60.1	-69.7	3.8	7.44e-01	0	23	104	0	83	11537
2026-01-12 22:58:34.50	282.45	52.71	-60.0	-69.7	3.8	7.46e-01	0	23	104	0	83	11534
2026-01-12 22:58:35.50	281.35	52.52	-60.0	-69.8	3.8	7.45e-01	0	23	104	0	83	11558
2026-01-12 22:58:36.50	280.26	52.33	-60.0	-69.7	3.8	7.46e-01	0	23	104	0	83	11514
2026-01-12 22:58:37.49	279.20	52.12	-60.0	-69.7	3.8	7.46e-01	0	23	104	0	83	11526
2026-01-12 22:58:38.49	278.14	51.91	-60.0	-69.7	3.8	7.46e-01	0	23	104	0	83	11547
2026-01-12 22:58:39.50	277.09	51.68	-60.0	-69.7	3.8	7.44e-01	0	23	104	0	83	11466
2026-01-12 22:58:40.49	276.08	51.45	-60.0	-69.7	3.8	7.45e-01	0	23	104	0	83	11506
2026-01-12 22:58:41.50	275.06	51.21	-60.0	-69.7	3.8	7.47e-01	0	23	104	0	83	11509
2026-01-12 22:58:42.50	274.07	50.96	-60.0	-69.7	3.8	7.46e-01	0	23	104	0	83	11482
2026-01-12 22:58:43.50	273.10	50.71	-60.0	-69.7	3.8	7.46e-01	0	23	104	0	83	11467
2026-01-12 22:58:44.50	272.14	50.44	-60.0	-69.7	3.8	7.44e-01	0	23	104	0	83	11422
2026-01-12 22:58:45.50	271.20	50.17	-60.0	-69.7	3.8	7.46e-01	0	23	104	0	83	11440
2026-01-12 22:58:46.51	270.27	49.90	-60.0	-69.7	3.8	7.47e-01	0	23	104	0	83	11474
2026-01-12 22:58:47.51	269.37	49.62	-60.0	-69.7	3.8	7.47e-01	0	23	104	0	83	11440
2026-01-12 22:58:48.51	268.48	49.33	-60.0	-69.7	3.8	7.46e-01	0	23	104	0	83	11423
2026-01-12 22:58:49.51	267.61	49.04	-60.0	-69.7	3.8	7.46e-01	0	23	104	0	83	11438
2026-01-12 22:58:50.51	266.76	48.75	-60.0	-69.7	3.8	7.45e-01	0	23	104	0	83	11461
2026-01-12 22:58:51.50	265.93	48.45	-60.0	-69.7	3.8	7.44e-01	0	23	104	0	83	11424
2026-01-12 22:58:52.50	265.11	48.15	-59.9	-69.6	3.8	7.45e-01	0	23	104	0	83	11404
2026-01-12 22:58:53.50	264.30	47.84	-60.0	-69.6	3.8	7.45e-01	0	23	104	0	83	11375
2026-01-12 22:58:54.50	263.52	47.53	-60.0	-69.7	3.8	7.46e-01	0	23	104	0	83	11438
2026-01-12 22:58:55.49	262.75	47.22	-60.0	-69.7	3.8	7.47e-01	0	23	104	0	83	11445
2026-01-12 22:58:56.49	262.00	46.90	-60.0	-69.7	3.8	7.47e-01	0	23	104	0	83	11454
2026-01-12 22:58:57.49	261.26	46.58	-59.9	-69.7	3.8	7.46e-01	0	23	104	0	83	11428
2026-01-12 22:58:58.49	260.53	46.26	-60.0	-69.7	3.8	7.45e-01	0	23	104	0	83	11449
2026-01-12 22:58:59.51	259.81	45.93	-60.0	-69.7	3.8	7.46e-01	0	23	104	0	83	11445
2026-01-12 22:59:00.50	259.12	45.61	-59.9	-69.6	3.8	7.46e-01	0	23	104	0	83	11376
2026-01-12 22:59:01.50	258.44	45.28	-59.9	-69.6	3.8	7.45e-01	0	23	104	0	83	11332
2026-01-12 22:59:02.50	257.78	44.96	-59.9	-69.7	3.8	7.47e-01	0	23	104	0	83	11436
2026-01-12 22:59:03.51	257.12	44.63	-59.9	-69.6	3.8	7.44e-01	0	23	104	0	83	11341
2026-01-12 22:59:04.51	256.48	44.30	-59.9	-69.6	3.8	7.45e-01	0	23	104	0	83	11354
2026-01-12 22:59:05.51	255.86	43.97	-59.9	-69.6	3.8	7.45e-01	0	23	104	0	83	11307
2026-01-12 22:59:06.50	255.25	43.64	-59.9	-69.6	3.8	7.47e-01	0	23	104	0	83	11349
2026-01-12 22:59:07.49	254.66	43.31	-59.9	-69.6	3.8	7.46e-01	0	23	104	0	83	11355
2026-01-12 22:59:08.50	254.07	42.98	-59.9	-69.6	3.8	7.46e-01	0	23	104	0	83	11289
2026-01-12 22:59:09.50	253.50	42.65	-59.9	-69.5	3.8	7.45e-01	0	23	104	0	83	11265
2026-01-12 22:59:10.51	252.93	42.31	-59.9	-69.6	3.8	7.47e-01	0	23	104	0	83	11334
2026-01-12 22:59:11.50	252.39	41.99	-59.9	-69.5	3.8	7.44e-01	0	23	104	0	83	11284
2026-01-12 22:59:12.50	251.86	41.66	-59.9	-69.5	3.8	7.44e-01	0	23	104	0	83	11284
2026-01-12 22:59:13.50	251.33	41.33	-59.8	-69.5	3.8	7.44e-01	0	23	104	0	83	11285
2026-01-12 22:59:14.50	250.82	41.00	-59.9	-69.6	3.8	7.45e-01	0	23	104	0	83	11291
2026-01-12 22:59:15.49	250.32	40.67	-59.9	-69.6	3.8	7.47e-01	0	23	104	0	83	11323
2026-01-12 22:59:16.49	249.83	40.35	-59.8	-69.6	3.8	7.46e-01	0	23	104	0	83	11294
2026-01-12 22:59:17.50	249.34	40.02	-59.8	-69.5	3.8	7.46e-01	0	23	104	0	83	11258
2026-01-12 22:59:18.50	248.87	39.70	-59.8	-69.5	3.8	7.46e-01	0	23	104	0	83	11276
2026-01-12 22:59:19.50	248.40	39.37	-59.8	-69.5	3.8	7.45e-01	0	23	104	0	83	11262
2026-01-12 22:59:20.49	247.96	39.06	-59.8	-69.5	3.8	7.46e-01	0	23	104	0	83	11248
2026-01-12 22:59:21.48	247.52	38.74	-59.8	-69.5	3.8	7.44e-01	0	23	104	0	83	11186
2026-01-12 22:59:22.49	247.08	38.42	-59.8	-69.5	3.8	7.45e-01	0	23	104	0	83	11259
2026-01-12 22:59:23.48	246.66	38.10	-59.8	-69.5	3.8	7.45e-01	0	23	104	0	83	11206
2026-01-12 22:59:24.48	246.24	37.79	-59.8	-69.5	3.8	7.47e-01	0	23	104	0	83	11204
2026-01-12 22:59:25.47	245.83	37.48	-59.8	-69.5	3.8	7.45e-01	0	23	104	0	83	11182
2026-01-12 22:59:26.48	245.43	37.17	-59.8	-69.5	3.8	7.46e-01	0	23	104	0	83	11200
2026-01-12 22:59:27.47	245.04	36.86	-59.8	-69.5	3.8	7.46e-01	0	23	104	0	83	11197
2026-01-12 22:59:28.47	244.66	36.55	-59.8	-69.5	3.8	7.46e-01	0	23	104	0	83	11174
2026-01-12 22:59:29.48	244.27	36.24	-59.8	-69.4	3.8	7.46e-01	0	23	104	0	83	11155
2026-01-12 22:59:30.47	243.91	35.94	-59.8	-69.5	3.8	7.45e-01	0	23	104	0	83	11188
2026-01-12 22:59:31.46	243.55	35.64	-59.8	-69.5	3.8	7.45e-01	0	23	104	0	83	11206
2026-01-12 22:59:32.45	243.20	35.35	-59.8	-69.5	3.8	7.45e-01	0	23	104	0	83	11186
2026-01-12 22:59:33.45	242.85	35.05	-59.8	-69.4	3.8	7.46e-01	0	23	104	0	83	11133
2026-01-12 22:59:34.45	242.51	34.76	-59.8	-69.4	3.8	7.46e-01	0	23	104	0	83	11143
2026-01-12 22:59:35.45	242.17	34.46	-59.8	-69.5	3.8	7.46e-01	0	23	104	0	83	11172
2026-01-12 22:59:36.45	241.84	34.17	-59.7	-69.4	3.8	7.46e-01	0	23	104	0	83	11128
2026-01-12 22:59:37.44	241.52	33.89	-59.7	-69.4	3.8	7.44e-01	0	23	104	0	83	11145
2026-01-12 22:59:38.44	241.21	33.60	-59.7	-69.5	3.8	7.46e-01	0	23	104	0	83	11169
2026-01-12 22:59:39.44	240.90	33.31	-59.7	-69.4	3.8	7.45e-01	0	23	104	0	83	11146
2026-01-12 22:59:40.44	240.59	33.03	-59.7	-69.4	3.8	7.44e-01	0	23	104	0	83	11093
2026-01-12 22:59:41.43	240.29	32.75	-59.7	-69.3	3.8	7.45e-01	0	23	104	0	83	11017
2026-01-12 22:59:42.43	240.00	32.48	-59.7	-69.4	3.8	7.45e-01	0	23	104	0	83	11115
2026-01-12 22:59:43.43	239.71	32.20	-59.7	-69.4	3.8	7.45e-01	0	23	104	0	83	11034
2026-01-12 22:59:44.44	239.43	31.92	-59.7	-69.4	3.8	7.45e-01	0	23	104	0	83	11059
2026-01-12 22:59:45.43	239.15	31.66	-59.7	-69.4	3.8	7.44e-01	0	23	104	0	83	11047
2026-01-12 22:59:46.43	238.88	31.39	-59.7	-69.4	3.8	7.45e-01	0	23	104	0	83	11040
2026-01-12 22:59:47.43	238.61	31.12	-59.7	-69.4	3.8	7.45e-01	0	23	104	0	83	11037
2026-01-12 22:59:48.42	238.35	30.86	-59.7	-69.4	3.8	7.47e-01	0	23	104	0	83	11098
2026-01-12 22:59:49.43	238.09	30.59	-59.7	-69.3	3.8	7.46e-01	0	23	104	0	83	11016
2026-01-12 22:59:50.42	237.83	30.33	-59.7	-69.4	3.8	7.46e-01	0	23	104	0	83	11047
2026-01-12 22:59:51.41	237.59	30.08	-59.7	-69.4	3.8	7.46e-01	0	23	104	0	83	11063
2026-01-12 22:59:52.41	237.34	29.82	-59.6	-69.3	3.8	7.47e-01	0	23	104	0	83	11017
2026-01-12 22:59:53.41	237.10	29.57	-59.6	-69.3	3.8	7.44e-01	0	23	104	0	83	10961
2026-01-12 22:59:54.42	236.86	29.31	-59.6	-69.3	3.8	7.43e-01	0	23	104	0	83	10993
2026-01-12 22:59:55.41	236.63	29.07	-59.6	-69.3	3.8	7.47e-01	0	23	104	0	83	11012
2026-01-12 22:59:56.40	236.40	28.82	-59.6	-69.3	3.8	7.46e-01	0	23	104	0	83	10995
2026-01-12 22:59:57.40	236.18	28.58	-59.6	-69.3	3.8	7.46e-01	0	23	104	0	83	10924
2026-01-12 22:59:58.41	235.95	28.33	-59.6	-69.3	3.8	7.44e-01	0	23	104	0	83	10988
2026-01-12 22:59:59.40	235.74	28.09	-59.6	-69.3	3.8	7.46e-01	0	23	104	0	83	10964
2026-01-12 23:00:00.40	235.52	27.85	-59.6	-69.3	3.8	7.45e-01	0	23	104	0	83	10971
2026-01-12 23:00:01.40	235.31	27.62	-59.6	-69.3	3.8	7.43e-01	0	23	104	0	83	10947
2026-01-12 23:00:02.40	235.10	27.38	-59.6	-69.2	3.8	7.45e-01	0	23	104	0	83	10890
2026-01-12 23:00:03.41	234.90	27.15	-59.6	-69.3	3.8	7.44e-01	0	23	104	0	83	10929
2026-01-12 23:00:04.41	234.70	26.92	-59.6	-69.3	3.8	7.45e-01	0	23	104	0	83	10948
2026-01-12 23:00:05.41	234.50	26.69	-59.6	-69.2	3.8	7.45e-01	0	23	104	0	83	10894
2026-01-12 23:00:06.40	234.31	26.46	-59.5	-69.2	3.8	7.45e-01	0	23	104	0	83	10901
2026-01-12 23:00:07.39	234.12	26.24	-59.5	-69.2	3.8	7.46e-01	0	23	104	0	83	10873
2026-01-12 23:00:08.39	233.93	26.02	-59.6	-69.2	3.8	7.45e-01	0	23	104	0	83	10891
2026-01-12 23:00:09.39	233.74	25.80	-59.5	-69.2	3.8	7.46e-01	0	23	104	0	83	10883
2026-01-12 23:00:10.39	233.56	25.58	-59.5	-69.2	3.8	7.46e-01	0	23	104	0	83	10852
2026-01-12 23:00:11.39	233.38	25.36	-59.5	-69.2	3.8	7.44e-01	0	23	104	0	83	10878
2026-01-12 23:00:12.38	233.21	25.15	-59.5	-69.2	3.8	7.45e-01	0	23	104	0	83	10841
2026-01-12 23:00:13.38	233.03	24.93	-59.5	-69.2	3.8	7.46e-01	0	23	104	0	83	10816
2026-01-12 23:00:14.38	232.86	24.72	-59.5	-69.2	3.8	7.46e-01	0	23	104	0	83	10805
2026-01-12 23:00:15.38	232.69	24.51	-59.5	-69.2	3.8	7.47e-01	0	23	104	0	83	10862
2026-01-12 23:00:16.38	232.52	24.30	-59.5	-69.2	3.8	7.46e-01	0	23	104	0	83	10844
2026-01-12 23:00:17.38	232.36	24.10	-59.5	-69.2	3.8	7.46e-01	0	23	104	0	83	10785
2026-01-12 23:00:18.39	232.20	23.89	-59.5	-69.2	3.8	7.43e-01	0	23	104	0	83	10802
2026-01-12 23:00:19.39	232.04	23.69	-59.5	-69.1	3.8	7.46e-01	0	23	104	0	83	10778
2026-01-12 23:00:20.39	231.88	23.49	-59.5	-69.1	3.8	7.45e-01	0	23	104	0	83	10740
2026-01-12 23:00:21.38	231.73	23.29	-59.5	-69.2	3.8	7.45e-01	0	23	104	0	83	10789
2026-01-12 23:00:22.39	231.57	23.09	-59.5	-69.2	3.8	7.46e-01	0	23	104	0	83	10809
2026-01-12 23:00:23.39	231.42	22.89	-59.5	-69.1	3.8	7.45e-01	0	23	104	0	83	10774
2026-01-12 23:00:24.38	231.28	22.70	-59.5	-69.1	3.8	7.45e-01	0	23	104	0	83	10773
2026-01-12 23:00:25.38	231.13	22.51	-59.4	-69.1	3.8	7.46e-01	0	23	104	0	83	10730
2026-01-12 23:00:26.38	230.99	22.32	-59.4	-69.1	3.8	7.46e-01	0	23	104	0	83	10755
2026-01-12 23:00:27.37	230.84	22.13	-59.4	-69.1	3.8	7.46e-01	0	23	104	0	83	10769
2026-01-12 23:00:28.37	230.70	21.94	-59.4	-69.1	3.8	7.47e-01	0	23	104	0	83	10747
2026-01-12 23:00:29.36	230.57	21.75	-59.4	-69.1	3.8	7.45e-01	0	23	104	0	83	10730
2026-01-12 23:00:30.36	230.43	21.57	-59.4	-69.1	3.8	7.44e-01	0	23	104	0	83	10707
2026-01-12 23:00:31.36	230.30	21.39	-59.4	-69.1	3.8	7.47e-01	0	23	104	0	83	10743
2026-01-12 23:00:32.35	230.17	21.21	-59.4	-69.1	3.8	7.47e-01	0	23	104	0	83	10713
2026-01-12 23:00:33.35	230.03	21.03	-59.4	-69.1	3.8	7.46e-01	0	23	104	0	83	10692
2026-01-12 23:00:34.35	229.91	20.85	-59.4	-69.1	3.8	7.44e-01	0	23	104	0	83	10658
2026-01-12 23:00:35.35	229.78	20.67	-59.4	-69.0	3.8	7.45e-01	0	23	104	0	83	10651
2026-01-12 23:00:36.35	229.65	20.49	-59.4	-69.1	3.8	7.45e-01	0	23	104	0	83	10658
2026-01-12 23:00:37.34	229.53	20.32	-59.4	-69.1	3.8	7.45e-01	0	23	104	0	83	10711
2026-01-12 23:00:38.35	229.41	20.14	-59.4	-69.1	3.8	7.47e-01	0	23	104	0	83	10668
2026-01-12 23:00:39.34	229.29	19.97	-59.4	-69.0	3.8	7.46e-01	0	23	104	0	83	10650
2026-01-12 23:00:40.35	229.17	19.80	-59.4	-69.1	3.8	7.46e-01	0	23	104	0	83	10688
2026-01-12 23:00:41.34	229.05	19.63	-59.4	-69.0	3.8	7.45e-01	0	23	104	0	83	10633
2026-01-12 23:00:42.34	228.93	19.47	-59.3	-69.0	3.8	7.46e-01	0	23	104	0	83	10652
2026-01-12 23:00:43.34	228.82	19.30	-59.3	-69.0	3.8	7.47e-01	0	23	104	0	83	10619
2026-01-12 23:00:44.34	228.71	19.13	-59.3	-69.0	3.8	7.45e-01	0	23	104	0	83	10652
2026-01-12 23:00:45.34	228.60	18.97	-59.3	-69.0	3.8	7.46e-01	0	23	104	0	83	10628
2026-01-12 23:00:46.34	228.49	18.81	-59.3	-69.0	3.8	7.47e-01	0	23	104	0	83	10638
2026-01-12 23:00:47.34	228.38	18.65	-59.3	-69.1	3.8	7.44e-01	0	23	104	0	83	10661
2026-01-12 23:00:48.33	228.27	18.49	-59.3	-69.0	3.8	7.45e-01	0	23	104	0	83	10595
2026-01-12 23:00:49.34	228.16	18.33	-59.3	-69.0	3.8	7.46e-01	0	23	104	0	83	10612
2026-01-12 23:00:50.33	228.06	18.17	-59.3	-69.0	3.8	7.46e-01	0	23	104	0	83	10573
2026-01-12 23:00:51.33	227.96	18.01	-59.3	-69.0	3.8	7.45e-01	0	23	104	0	83	10572
2026-01-12 23:00:52.33	227.85	17.86	-59.3	-69.0	3.8	7.45e-01	0	23	104	0	83	10576
2026-01-12 23:00:53.32	227.75	17.71	-59.3	-69.0	3.8	7.44e-01	0	23	104	0	83	10581
2026-01-12 23:00:54.32	227.65	17.55	-59.3	-69.0	3.8	7.44e-01	0	23	104	0	83	10569
2026-01-12 23:00:55.33	227.55	17.40	-59.3	-69.0	3.8	7.47e-01	0	23	104	0	83	10560
2026-01-12 23:00:56.32	227.46	17.25	-59.3	-69.0	3.8	7.44e-01	0	23	104	0	83	10570
2026-01-12 23:00:57.32	227.36	17.10	-59.3	-69.0	3.8	7.45e-01	0	23	104	0	83	10597
2026-01-12 23:00:58.33	227.26	16.95	-59.3	-69.0	3.8	7.47e-01	0	23	104	0	83	10585
2026-01-12 23:00:59.32	227.17	16.80	-59.3	-69.0	3.8	7.45e-01	0	23	104	0	83	10555
2026-01-12 23:01:00.32	227.08	16.66	-59.3	-68.9	3.8	7.44e-01	0	23	104	0	83	10532
2026-01-12 23:01:01.32	226.99	16.51	-59.3	-69.0	3.8	7.46e-01	0	23	104	0	83	10577
2026-01-12 23:01:02.32	226.90	16.37	-59.3	-68.9	3.8	7.44e-01	0	23	104	0	83	10507
2026-01-12 23:01:03.32	226.81	16.22	-59.3	-69.0	3.8	7.47e-01	0	23	104	0	83	10553
2026-01-12 23:01:04.31	226.72	16.08	-59.2	-68.9	3.8	7.45e-01	0	23	104	0	83	10499
2026-01-12 23:01:05.31	226.63	15.94	-59.3	-68.9	3.8	7.46e-01	0	23	104	0	83	10527
2026-01-12 23:01:06.30	226.54	15.80	-59.2	-68.9	3.8	7.46e-01	0	23	104	0	83	10468
2026-01-12 23:01:07.30	226.46	15.66	-59.2	-68.9	3.8	7.47e-01	0	23	104	0	83	10512
2026-01-12 23:01:08.31	226.37	15.52	-59.2	-68.9	3.8	7.47e-01	0	23	104	0	83	10477
2026-01-12 23:01:09.31	226.29	15.38	-59.2	-68.9	3.8	7.47e-01	0	23	104	0	83	10473
2026-01-12 23:01:10.31	226.21	15.25	-59.2	-68.9	3.8	7.46e-01	0	23	104	0	83	10462
2026-01-12 23:01:11.31	226.13	15.11	-59.2	-68.9	3.8	7.45e-01	0	23	104	0	83	10453
2026-01-12 23:01:12.31	226.04	14.98	-59.2	-68.9	3.8	7.45e-01	0	23	104	0	83	10437
2026-01-12 23:01:13.31	225.96	14.84	-59.2	-68.9	3.8	7.46e-01	0	23	104	0	83	10437
2026-01-12 23:01:14.30	225.89	14.71	-59.2	-68.9	3.8	7.45e-01	0	23	104	0	83	10420
2026-01-12 23:01:15.30	225.81	14.58	-59.2	-68.8	3.8	7.46e-01	0	23	104	0	83	10383
2026-01-12 23:01:16.30	225.73	14.45	-59.1	-68.8	3.8	7.47e-01	0	23	104	0	82	10979
2026-01-12 23:01:17.30	225.65	14.32	-59.1	-68.8	3.8	7.45e-01	0	23	104	0	82	11017
2026-01-12 23:01:18.30	225.58	14.19	-59.1	-68.8	3.8	7.46e-01	0	23	104	0	82	10980
2026-01-12 23:01:19.29	225.50	14.06	-59.1	-68.8	3.8	7.43e-01	0	23	104	0	82	10965
2026-01-12 23:01:20.29	225.43	13.94	-59.1	-68.8	3.8	7.46e-01	0	23	104	0	82	10990
2026-01-12 23:01:21.28	225.36	13.81	-59.1	-68.8	3.8	7.46e-01	0	23	104	0	82	10986
2026-01-12 23:01:22.28	225.28	13.68	-59.1	-68.8	3.8	7.44e-01	0	23	104	0	82	10933
2026-01-12 23:01:23.27	225.21	13.56	-59.1	-68.8	3.8	7.46e-01	0	23	104	0	82	10920
2026-01-12 23:01:24.26	225.14	13.44	-59.1	-68.8	3.8	7.46e-01	0	23	104	0	82	10910
2026-01-12 23:01:25.25	225.07	13.31	-59.1	-68.7	3.8	7.44e-01	0	23	104	0	82	10884
2026-01-12 23:01:26.25	225.00	13.19	-59.1	-68.7	3.8	7.45e-01	0	23	104	0	82	10880
2026-01-12 23:01:27.25	224.93	13.07	-59.0	-68.7	3.8	7.46e-01	0	23	104	0	82	10849
2026-01-12 23:01:28.24	224.87	12.95	-59.1	-68.7	3.8	7.46e-01	0	23	104	0	82	10888
2026-01-12 23:01:29.23	224.80	12.83	-59.1	-68.7	3.8	7.48e-01	0	23	104	0	82	10882
2026-01-12 23:01:30.22	224.73	12.71	-59.1	-68.7	3.8	7.46e-01	0	23	104	0	82	10869
2026-01-12 23:01:31.22	224.67	12.59	-59.0	-68.7	3.8	7.46e-01	0	23	104	0	82	10886
2026-01-12 23:01:32.20	224.60	12.48	-59.0	-68.7	3.8	7.46e-01	0	23	104	0	82	10858
2026-01-12 23:01:33.18	224.54	12.36	-59.0	-68.7	3.8	7.46e-01	0	23	104	0	82	10873
2026-01-12 23:01:34.18	224.47	12.24	-59.0	-68.7	3.8	7.45e-01	0	23	104	0	82	10859
2026-01-12 23:01:35.18	224.41	12.13	-59.0	-68.7	3.8	7.45e-01	0	23	104	0	82	10830
2026-01-12 23:01:36.18	224.35	12.01	-59.0	-68.7	3.8	7.47e-01	0	23	104	0	82	10836
2026-01-12 23:01:37.18	224.29	11.90	-59.0	-68.8	3.8	7.44e-01	0	23	104	0	82	10913
2026-01-12 23:01:38.18	224.22	11.78	-59.0	-68.7	3.8	7.45e-01	0	23	104	0	82	10803
2026-01-12 23:01:39.18	224.16	11.67	-59.0	-68.7	3.8	7.46e-01	0	23	104	0	82	10818
2026-01-12 23:01:40.18	224.10	11.56	-59.0	-68.7	3.8	7.44e-01	0	23	104	0	82	10788
2026-01-12 23:01:41.17	224.04	11.45	-59.0	-68.7	3.8	7.45e-01	0	23	104	0	82	10826
2026-01-12 23:01:42.16	223.98	11.34	-59.0	-68.7	3.8	7.47e-01	0	23	104	0	82	10884
2026-01-12 23:01:43.16	223.93	11.22	-59.0	-68.7	3.8	7.44e-01	0	23	104	0	82	10808
2026-01-12 23:01:44.16	223.87	11.11	-58.9	-68.6	3.8	7.46e-01	0	23	104	0	82	10741
2026-01-12 23:01:45.15	223.81	11.01	-59.0	-68.7	3.8	7.47e-01	0	23	104	0	82	10812
2026-01-12 23:01:46.15	223.75	10.90	-59.0	-68.7	3.8	7.46e-01	0	23	104	0	82	10790
2026-01-12 23:01:47.16	223.70	10.79	-59.0	-68.6	3.8	7.46e-01	0	23	104	0	82	10766
2026-01-12 23:01:48.15	223.64	10.68	-58.9	-68.6	3.8	7.47e-01	0	23	104	0	82	10758
2026-01-12 23:01:49.16	223.58	10.57	-59.0	-68.7	3.8	7.44e-01	0	23	104	0	82	10824
2026-01-12 23:01:50.16	223.53	10.47	-59.0	-68.6	3.8	7.46e-01	0	23	104	0	82	10745
2026-01-12 23:01:51.16	223.48	10.36	-58.9	-68.6	3.8	7.45e-01	0	23	104	0	82	10693
2026-01-12 23:01:52.15	223.42	10.26	-58.9	-68.6	3.8	7.47e-01	0	23	104	0	82	10689
2026-01-12 23:01:53.15	223.37	10.15	-59.0	-68.6	3.8	7.46e-01	0	23	104	0	82	10738
2026-01-12 23:01:54.15	223.32	10.05	-58.9	-68.6	3.8	7.45e-01	0	23	104	0	82	10725
2026-01-12 23:01:55.15	223.26	9.94	-58.9	-68.6	3.8	7.45e-01	0	23	104	0	82	10715
2026-01-12 23:01:56.15	223.21	9.84	-58.9	-68.6	3.8	7.47e-01	0	23	104	0	82	10707
2026-01-12 23:01:57.14	223.16	9.74	-59.0	-68.7	3.8	7.46e-01	0	23	104	0	82	10801
2026-01-12 23:01:58.14	223.11	9.64	-58.9	-68.6	3.8	7.45e-01	0	23	104	0	82	10698
2026-01-12 23:01:59.12	223.06	9.54	-58.9	-68.6	3.8	7.45e-01	0	23	104	0	82	10662
2026-01-12 23:02:00.12	223.01	9.44	-58.9	-68.5	3.8	7.44e-01	0	23	104	0	82	10654
2026-01-12 23:02:01.13	222.96	9.33	-58.9	-68.6	3.8	7.46e-01	0	23	104	0	82	10733
2026-01-12 23:02:02.12	222.91	9.24	-58.9	-68.6	3.8	7.47e-01	0	23	104	0	82	10669
2026-01-12 23:02:03.12	222.86	9.14	-58.8	-68.5	3.8	7.48e-01	0	23	104	0	82	10583
2026-01-12 23:02:04.12	222.81	9.04	-58.8	-68.5	3.8	7.46e-01	0	23	104	0	82	10594
2026-01-12 23:02:05.12	222.77	8.94	-58.9	-68.5	3.8	7.47e-01	0	23	104	0	82	10640
2026-01-12 23:02:06.12	222.72	8.84	-58.8	-68.5	3.8	7.45e-01	0	23	104	0	82	10621
2026-01-12 23:02:07.11	222.67	8.74	-58.8	-68.5	3.8	7.45e-01	0	23	104	0	82	10568
2026-01-12 23:02:08.11	222.63	8.65	-58.8	-68.5	3.8	7.45e-01	0	23	104	0	82	10597
2026-01-12 23:02:09.11	222.58	8.55	-58.8	-68.6	3.8	7.45e-01	0	23	104	0	82	10656
2026-01-12 23:02:10.11	222.53	8.46	-58.8	-68.5	3.8	7.45e-01	0	23	104	0	82	10607
2026-01-12 23:02:11.11	222.49	8.36	-58.8	-68.4	3.8	7.47e-01	0	23	104	0	82	10509
2026-01-12 23:02:12.12	222.44	8.26	-58.7	-68.4	3.8	7.44e-01	0	23	104	0	82	10514
2026-01-12 23:02:13.11	222.40	8.17	-58.8	-68.5	3.8	7.44e-01	0	23	104	0	82	10589
2026-01-12 23:02:14.11	222.35	8.08	-58.8	-68.4	3.8	7.45e-01	0	23	104	0	82	10531
2026-01-12 23:02:15.10	222.31	7.98	-58.7	-68.4	3.8	7.47e-01	0	23	104	0	82	10481
2026-01-12 23:02:16.10	222.27	7.89	-58.7	-68.4	3.8	7.45e-01	0	23	104	0	82	10504
2026-01-12 23:02:17.10	222.22	7.80	-58.8	-68.5	3.8	7.44e-01	0	23	104	0	82	10554
2026-01-12 23:02:18.10	222.18	7.71	-58.8	-68.4	3.8	7.45e-01	0	23	104	0	82	10520
2026-01-12 23:02:19.09	222.14	7.61	-58.7	-68.4	3.8	7.45e-01	0	23	104	0	82	10472
2026-01-12 23:02:20.08	222.10	7.52	-58.7	-68.4	3.8	7.47e-01	0	23	104	0	82	10430
2026-01-12 23:02:21.09	222.06	7.43	-58.8	-68.4	3.8	7.46e-01	0	23	104	0	82	10504
2026-01-12 23:02:22.08	222.02	7.34	-58.7	-68.4	3.8	7.46e-01	0	23	104	0	82	10478
2026-01-12 23:02:23.09	221.97	7.25	-58.6	-68.2	3.8	7.45e-01	0	23	104	0	81	10894
2026-01-12 23:02:24.08	221.93	7.16	-58.6	-68.2	3.8	7.44e-01	0	23	104	0	81	10891
2026-01-12 23:02:25.08	221.89	7.07	-58.6	-68.3	3.8	7.44e-01	0	23	104	0	81	11004
2026-01-12 23:02:26.08	221.85	6.98	-58.6	-68.3	3.8	7.46e-01	0	23	104	0	81	10981
2026-01-12 23:02:27.07	221.81	6.90	-58.5	-68.2	3.8	7.46e-01	0	23	104	0	81	10878
2026-01-12 23:02:28.07	221.78	6.81	-58.5	-68.3	3.8	7.46e-01	0	23	104	0	81	10910
2026-01-12 23:02:29.06	221.74	6.72	-58.6	-68.3	3.8	7.45e-01	0	23	104	0	81	10976
2026-01-12 23:02:30.06	221.70	6.63	-58.6	-68.3	3.8	7.45e-01	0	23	104	0	81	10909
2026-01-12 23:02:31.05	221.66	6.55	-58.5	-68.2	3.8	7.46e-01	0	23	104	0	81	10827
2026-01-12 23:02:32.06	221.62	6.46	-58.5	-68.2	3.8	7.46e-01	0	23	104	0	81	10790
2026-01-12 23:02:33.05	221.58	6.38	-58.6	-68.2	3.8	7.47e-01	0	23	104	0	81	10900
2026-01-12 23:02:34.05	221.55	6.29	-58.5	-68.2	3.8	7.45e-01	0	23	104	0	81	10884
2026-01-12 23:02:35.04	221.51	6.20	-58.4	-68.1	3.8	7.45e-01	0	23	104	0	81	10773
2026-01-12 23:02:36.04	221.47	6.12	-58.4	-68.1	3.8	7.46e-01	0	23	104	0	81	10739
2026-01-12 23:02:37.03	221.44	6.04	-58.5	-68.2	3.8	7.45e-01	0	23	104	0	81	10867
2026-01-12 23:02:38.03	221.40	5.95	-58.5	-68.2	3.8	7.45e-01	0	23	104	0	81	10819
2026-01-12 23:02:39.03	221.36	5.87	-58.4	-68.1	3.8	7.43e-01	0	23	104	0	81	10666
2026-01-12 23:02:40.03	221.33	5.78	-58.4	-68.0	3.8	7.45e-01	0	23	104	0	81	10600
2026-01-12 23:02:41.02	221.29	5.70	-58.5	-68.2	3.8	7.44e-01	0	23	104	0	81	10788
2026-01-12 23:02:42.02	221.26	5.62	-58.4	-68.1	3.8	7.45e-01	0	23	104	0	81	10762
2026-01-12 23:02:43.02	221.22	5.54	-58.3	-68.0	3.8	7.45e-01	0	23	104	0	81	10597
2026-01-12 23:02:44.02	221.19	5.45	-58.3	-68.0	3.8	7.46e-01	0	23	104	0	81	10598
2026-01-12 23:02:45.01	221.16	5.37	-58.4	-68.1	3.8	7.46e-01	0	23	104	0	81	10772
2026-01-12 23:02:46.00	221.12	5.29	-58.4	-68.1	3.8	7.47e-01	0	23	104	0	81	10670
2026-01-12 23:02:47.01	221.09	5.21	-58.3	-67.9	3.8	7.45e-01	0	23	104	0	81	10512
2026-01-12 23:02:48.01	221.05	5.13	-58.2	-67.9	3.8	7.46e-01	0	23	104	0	81	10500
2026-01-12 23:02:49.01	221.02	5.05	-58.4	-68.1	3.8	7.46e-01	0	23	104	0	81	10690
2026-01-12 23:02:50.00	220.99	4.97	-58.6	-68.4	3.8	7.48e-01	0	23	104	0	81	11032
2026-01-12 23:02:51.00	220.96	4.89	-59.0	-68.7	3.8	7.45e-01	0	23	104	0	81	11454
2026-01-12 23:02:52.01	220.92	4.81	-59.2	-68.9	3.8	7.46e-01	0	23	104	0	81	11775
2026-01-12 23:02:53.01	220.89	4.73	-59.4	-69.1	3.8	7.45e-01	0	23	104	0	81	11994
2026-01-12 23:02:54.01	220.86	4.65	-59.5	-69.2	3.8	7.45e-01	0	23	104	0	82	11496
2026-01-12 23:02:55.01	220.83	4.57	-59.6	-69.3	3.8	7.45e-01	0	23	104	0	82	11656
2026-01-12 23:02:56.01	220.80	4.49	-59.7	-69.4	3.8	7.46e-01	0	23	104	0	82	11801
2026-01-12 23:02:57.00	220.76	4.41	-59.8	-69.5	3.8	7.47e-01	0	23	104	0	82	11896
2026-01-12 23:02:58.00	220.73	4.34	-59.8	-69.6	3.8	7.46e-01	0	23	104	0	82	11965
2026-01-12 23:02:59.00	220.70	4.26	-59.9	-69.6	3.8	7.45e-01	0	23	104	0	82	12029
2026-01-12 23:03:00.00	220.67	4.18	-60.0	-69.7	3.8	7.46e-01	0	23	104	0	83	11432
2026-01-12 23:03:01.00	220.64	4.10	-60.0	-69.7	3.8	7.44e-01	0	23	104	0	83	11509
2026-01-12 23:03:02.01	220.61	4.03	-60.0	-69.7	3.8	7.45e-01	0	23	104	0	83	11494
2026-01-12 23:03:03.01	220.58	3.95	-60.0	-69.8	3.8	7.47e-01	0	23	104	0	83	11555
2026-01-12 23:03:04.00	220.55	3.88	-60.1	-69.8	3.8	7.45e-01	0	23	104	0	83	11572
2026-01-12 23:03:05.01	220.52	3.80	-60.1	-69.8	3.8	7.47e-01	0	23	104	0	83	11612
2026-01-12 23:03:06.00	220.49	3.72	-60.1	-69.8	3.8	7.45e-01	0	23	104	0	83	11617
2026-01-12 23:03:07.01	220.46	3.65	-60.2	-69.9	3.8	7.45e-01	0	23	104	0	83	11705
2026-01-12 23:03:08.00	220.44	3.57	-60.2	-69.9	3.8	7.44e-01	0	23	104	0	83	11691
2026-01-12 23:03:09.00	220.41	3.50	-60.2	-69.9	3.8	7.47e-01	0	23	104	0	83	11803
2026-01-12 23:03:10.00	220.38	3.42	-60.2	-70.0	3.8	7.47e-01	0	23	104	0	83	11845
2026-01-12 23:03:11.00	220.35	3.35	-60.3	-70.0	3.8	7.44e-01	0	23	104	0	83	11822
2026-01-12 23:03:12.01	220.32	3.27	-60.3	-70.0	3.8	7.46e-01	0	23	104	0	83	11865
2026-01-12 23:03:13.00	220.29	3.20	-60.2	-69.9	3.8	7.45e-01	0	23	104	0	83	11770
2026-01-12 23:03:13.99	220.27	3.13	-60.2	-69.9	3.8	7.45e-01	0	23	104	0	83	11779
2026-01-12 23:03:14.99	220.24	3.06	-60.2	-69.9	3.8	7.47e-01	0	23	104	0	83	11715
2026-01-12 23:03:15.98	220.21	2.98	-60.2	-69.9	3.8	7.45e-01	0	23	104	0	83	11776
2026-01-12 23:03:16.98	220.19	2.91	-60.2	-69.9	3.8	7.45e-01	0	23	104	0	83	11739
2026-01-12 23:03:17.97	220.16	2.84	-60.2	-69.9	3.8	7.46e-01	0	23	104	0	83	11750
2026-01-12 23:03:18.97	220.13	2.77	-60.1	-69.8	3.8	7.47e-01	0	23	104	0	83	11666
2026-01-12 23:03:19.97	220.11	2.69	-60.1	-69.8	3.8	7.48e-01	0	23	104	0	83	11665
2026-01-12 23:03:20.98	220.08	2.62	-60.1	-69.9	3.8	7.46e-01	0	23	104	0	83	11726
2026-01-12 23:03:21.97	220.05	2.55	-60.1	-69.9	3.8	7.44e-01	0	23	104	0	83	11700
2026-01-12 23:03:22.97	220.03	2.48	-60.1	-69.8	3.8	7.46e-01	0	23	104	0	83	11637
2026-01-12 23:03:23.96	220.00	2.41	-60.1	-69.8	3.8	7.46e-01	0	23	104	0	83	11652
2026-01-12 23:03:24.95	219.98	2.34	-60.1	-69.8	3.8	7.45e-01	0	23	104	0	83	11683
2026-01-12 23:03:25.95	219.95	2.27	-60.1	-69.8	3.8	7.45e-01	0	23	104	0	83	11620
2026-01-12 23:03:26.95	219.93	2.20	-60.1	-69.8	3.8	7.45e-01	0	23	104	0	83	11640
2026-01-12 23:03:27.94	219.90	2.13	-60.1	-69.8	3.8	7.45e-01	0	23	104	0	83	11643
2026-01-12 23:03:28.94	219.88	2.06	-60.1	-69.8	3.8	7.47e-01	0	23	104	0	83	11628

#Closed at: 2026-01-12 23:03:29
#Recorded file [0 MB]: D:/lorett/data/31004_260113_015306.dat