passes_logs/2026/01/12/R3.2S_Murmansk/R3.2S_Murmansk__20260112_103500_2024-110A_rec.log

#Pass ID: 20260112_103500_2024-110A
#Satellite: 2024-110A
#Configuration: 01B_900M
#almurnet v.1.7.20251203
#Start time: 2026-01-12 10:35:00

#Version: 2.2.20231116
#Station: R3.2S_Murmansk
#Location: 33.079688 lon 68.888172 lat
#TLE: 1 60012U 24110A   26011.62985279  .00007651  00000+0  46351-3 0  9995
#TLE: 2 60012  97.5746 104.6698 0010503  77.6788 282.5617 15.10823958 88251

#Time	Az	El	Level	Level2	SNR	BER	BlckErr	Temp	State	Recorded	gain1	gain2
2026-01-12 10:35:00.90	21.28	2.05	-56.7	-59.9	6.2	0.00e+00	0	23	0	0	80	20427
2026-01-12 10:35:01.90	21.28	2.12	-56.7	-59.9	6.2	0.00e+00	0	23	104	0	80	20414
2026-01-12 10:35:02.89	21.29	2.19	-56.7	-59.9	6.2	0.00e+00	0	23	104	0	80	20413
2026-01-12 10:35:03.87	21.29	2.26	-56.7	-59.9	6.2	0.00e+00	0	23	104	0	80	20482
2026-01-12 10:35:04.85	21.30	2.33	-56.7	-59.9	6.2	0.00e+00	0	23	104	0	80	20418
2026-01-12 10:35:05.84	21.30	2.40	-56.7	-59.9	6.2	0.00e+00	0	23	104	0	80	20423
2026-01-12 10:35:06.83	21.31	2.47	-56.7	-59.9	6.2	0.00e+00	0	23	104	0	80	20462
2026-01-12 10:35:07.82	21.31	2.54	-56.7	-59.9	6.2	0.00e+00	0	23	104	0	80	20493
2026-01-12 10:35:08.81	21.32	2.61	-56.7	-59.9	6.2	0.00e+00	0	23	104	0	80	20497
2026-01-12 10:35:09.80	21.32	2.68	-56.7	-59.9	6.2	0.00e+00	0	23	104	0	80	20452
2026-01-12 10:35:10.79	21.33	2.75	-56.7	-59.9	6.2	0.00e+00	0	23	104	0	80	20436
2026-01-12 10:35:11.78	21.34	2.82	-56.7	-59.9	6.2	0.00e+00	0	23	104	0	80	20454
2026-01-12 10:35:12.77	21.34	2.89	-56.7	-59.9	6.2	0.00e+00	0	23	104	0	80	20481
2026-01-12 10:35:13.77	21.35	2.96	-56.7	-59.9	6.2	0.00e+00	0	23	104	0	80	20522
2026-01-12 10:35:14.76	21.35	3.04	-56.7	-59.9	6.2	0.00e+00	0	23	104	0	80	20444
2026-01-12 10:35:15.75	21.36	3.11	-56.7	-59.9	6.2	0.00e+00	0	23	104	0	80	20455
2026-01-12 10:35:16.74	21.36	3.18	-56.7	-59.9	6.2	0.00e+00	0	23	104	0	80	20474
2026-01-12 10:35:17.73	21.37	3.25	-56.7	-59.9	6.2	0.00e+00	0	23	104	0	80	20449
2026-01-12 10:35:18.73	21.37	3.33	-56.7	-59.9	6.2	0.00e+00	0	24	104	0	80	20417
2026-01-12 10:35:19.71	21.38	3.40	-56.7	-59.9	6.2	0.00e+00	0	24	104	0	80	20464
2026-01-12 10:35:20.69	21.38	3.47	-56.7	-59.9	6.2	0.00e+00	0	24	104	0	80	20466
2026-01-12 10:35:21.68	21.39	3.54	-56.7	-59.9	6.2	0.00e+00	0	24	104	0	80	20517
2026-01-12 10:35:22.67	21.39	3.62	-56.7	-59.9	6.2	0.00e+00	0	24	104	0	80	20467
2026-01-12 10:35:23.66	21.40	3.69	-56.7	-59.9	6.2	0.00e+00	0	24	104	0	80	20443
2026-01-12 10:35:24.64	21.41	3.76	-56.7	-59.9	6.2	0.00e+00	0	24	104	0	80	20576
2026-01-12 10:35:25.63	21.41	3.84	-56.7	-59.9	6.2	0.00e+00	0	24	104	0	80	20478
2026-01-12 10:35:26.61	21.42	3.91	-56.7	-59.9	6.2	0.00e+00	0	24	104	0	80	20405
2026-01-12 10:35:27.59	21.42	3.99	-56.7	-59.9	6.2	0.00e+00	0	24	104	0	80	20501
2026-01-12 10:35:28.59	21.43	4.06	-56.7	-59.9	6.2	0.00e+00	0	24	104	0	80	20456
2026-01-12 10:35:29.58	21.43	4.14	-56.7	-59.9	6.2	0.00e+00	0	24	104	0	80	20490
2026-01-12 10:35:30.57	21.44	4.21	-56.7	-59.9	6.2	0.00e+00	0	24	104	0	80	20548
2026-01-12 10:35:31.56	21.44	4.29	-56.7	-59.9	6.2	0.00e+00	0	24	104	0	80	20538
2026-01-12 10:35:32.55	21.45	4.37	-56.7	-59.9	6.2	0.00e+00	0	24	104	0	80	20531
2026-01-12 10:35:33.54	21.45	4.44	-56.7	-59.9	6.2	0.00e+00	0	24	104	0	80	20530
2026-01-12 10:35:34.53	21.46	4.52	-56.7	-59.9	6.2	0.00e+00	0	24	104	0	80	20462
2026-01-12 10:35:35.51	21.46	4.59	-56.7	-59.9	6.2	0.00e+00	0	24	104	0	80	20503
2026-01-12 10:35:36.50	21.47	4.67	-56.7	-59.9	6.2	0.00e+00	0	24	104	0	80	20487
2026-01-12 10:35:37.49	21.48	4.75	-56.7	-59.9	6.2	0.00e+00	0	24	104	0	80	20530
2026-01-12 10:35:38.48	21.48	4.83	-56.7	-59.9	6.2	0.00e+00	0	24	104	0	80	20471
2026-01-12 10:35:39.47	21.49	4.91	-56.7	-59.9	6.2	0.00e+00	0	24	104	0	80	20466
2026-01-12 10:35:40.46	21.49	4.98	-56.7	-59.9	6.2	0.00e+00	0	24	104	0	80	20464
2026-01-12 10:35:41.46	21.50	5.06	-56.7	-59.9	6.2	0.00e+00	0	24	104	0	80	20569
2026-01-12 10:35:42.45	21.50	5.14	-56.8	-60.0	6.2	0.00e+00	0	24	104	0	80	20696
2026-01-12 10:35:43.45	21.51	5.22	-56.8	-59.9	6.2	0.00e+00	0	24	104	0	80	20624
2026-01-12 10:35:44.43	21.51	5.30	-56.7	-59.9	6.2	0.00e+00	0	24	104	0	80	20505
2026-01-12 10:35:45.43	21.52	5.38	-56.8	-60.0	6.2	0.00e+00	0	24	104	0	80	20636
2026-01-12 10:35:46.42	21.53	5.46	-56.8	-60.1	6.2	0.00e+00	0	24	104	0	80	20880
2026-01-12 10:35:47.41	21.53	5.54	-56.8	-60.0	6.2	0.00e+00	0	24	104	0	80	20864
2026-01-12 10:35:48.40	21.54	5.63	-56.7	-59.9	6.2	0.00e+00	0	24	104	0	80	20503
2026-01-12 10:35:49.39	21.54	5.71	-56.8	-60.0	6.2	0.00e+00	0	24	104	0	80	20772
2026-01-12 10:35:50.38	21.55	5.79	-56.9	-60.1	6.2	0.00e+00	0	24	104	0	80	20909
2026-01-12 10:35:51.37	21.55	5.87	-56.9	-60.1	6.2	0.00e+00	0	24	104	0	80	20987
2026-01-12 10:35:52.36	21.56	5.95	-56.8	-59.9	6.2	0.00e+00	0	24	104	0	80	20628
2026-01-12 10:35:53.35	21.56	6.04	-56.8	-60.0	6.2	0.00e+00	0	24	104	0	80	20830
2026-01-12 10:35:54.35	21.57	6.12	-56.9	-60.1	6.2	0.00e+00	0	24	104	0	80	20932
2026-01-12 10:35:55.35	21.58	6.20	-56.9	-60.1	6.2	0.00e+00	0	24	104	0	80	21080
2026-01-12 10:35:56.33	21.58	6.29	-56.8	-60.0	6.2	0.00e+00	0	24	104	0	80	20769
2026-01-12 10:35:57.32	21.59	6.37	-56.9	-60.1	6.2	0.00e+00	0	24	104	0	80	20948
2026-01-12 10:35:58.31	21.59	6.46	-56.9	-60.2	6.2	0.00e+00	0	25	104	0	80	21140
2026-01-12 10:35:59.31	21.60	6.54	-57.0	-60.2	6.2	0.00e+00	0	24	104	0	80	21163
2026-01-12 10:36:00.31	21.60	6.63	-56.9	-60.0	6.2	0.00e+00	0	24	104	0	80	20811
2026-01-12 10:36:01.30	21.61	6.71	-56.9	-60.1	6.2	0.00e+00	0	24	104	0	80	21008
2026-01-12 10:36:02.29	21.62	6.80	-57.0	-60.2	6.2	0.00e+00	0	24	104	0	80	21116
2026-01-12 10:36:03.28	21.62	6.88	-57.0	-60.2	6.2	0.00e+00	0	24	104	0	80	21191
2026-01-12 10:36:04.27	21.63	6.97	-56.9	-60.1	6.2	0.00e+00	0	24	104	0	80	20987
2026-01-12 10:36:05.26	21.63	7.06	-57.0	-60.1	6.2	0.00e+00	0	25	104	0	80	21098
2026-01-12 10:36:06.25	21.64	7.15	-57.0	-60.2	6.2	0.00e+00	0	25	104	0	80	21235
2026-01-12 10:36:07.24	21.64	7.23	-57.1	-60.3	6.2	0.00e+00	0	25	104	0	80	21394
2026-01-12 10:36:08.23	21.65	7.32	-56.9	-60.1	6.2	0.00e+00	0	25	104	0	80	21101
2026-01-12 10:36:09.22	21.66	7.41	-57.0	-60.2	6.2	0.00e+00	0	24	104	0	80	21209
2026-01-12 10:36:10.21	21.66	7.50	-57.0	-60.2	6.2	0.00e+00	0	25	104	0	80	21286
2026-01-12 10:36:11.20	21.67	7.59	-57.1	-60.3	6.2	0.00e+00	0	25	104	0	80	21484
2026-01-12 10:36:12.19	21.67	7.68	-57.0	-60.2	6.2	0.00e+00	0	25	104	0	80	21150
2026-01-12 10:36:13.18	21.68	7.77	-57.0	-60.2	6.2	0.00e+00	0	25	104	0	80	21234
2026-01-12 10:36:14.18	21.69	7.86	-57.1	-60.3	6.2	0.00e+00	0	25	104	0	80	21431
2026-01-12 10:36:15.18	21.69	7.95	-57.1	-60.3	6.2	0.00e+00	0	25	104	0	80	21595
2026-01-12 10:36:16.17	21.70	8.04	-57.0	-60.2	6.2	0.00e+00	0	25	104	0	80	21276
2026-01-12 10:36:17.16	21.70	8.14	-57.1	-60.3	6.2	0.00e+00	0	25	104	0	80	21414
2026-01-12 10:36:18.16	21.71	8.23	-57.1	-60.3	6.2	0.00e+00	0	25	104	0	80	21589
2026-01-12 10:36:19.16	21.71	8.32	-57.2	-60.4	6.2	0.00e+00	0	25	104	0	80	21704
2026-01-12 10:36:20.15	21.72	8.42	-57.1	-60.2	6.2	0.00e+00	0	25	104	0	80	21329
2026-01-12 10:36:21.15	21.73	8.51	-57.1	-60.3	6.2	0.00e+00	0	25	104	0	80	21479
2026-01-12 10:36:22.14	21.73	8.60	-57.1	-60.3	6.2	0.00e+00	0	25	104	0	80	21601
2026-01-12 10:36:23.14	21.74	8.70	-57.2	-60.4	6.2	0.00e+00	0	25	104	0	80	21742
2026-01-12 10:36:24.13	21.74	8.80	-57.1	-60.3	6.2	0.00e+00	0	25	104	0	80	21477
2026-01-12 10:36:25.13	21.75	8.89	-57.1	-60.4	6.2	0.00e+00	0	25	104	0	80	21613
2026-01-12 10:36:26.12	21.76	8.99	-57.1	-60.4	6.2	0.00e+00	0	25	104	0	80	21607
2026-01-12 10:36:27.12	21.76	9.09	-57.2	-60.4	6.2	0.00e+00	0	25	104	0	80	21782
2026-01-12 10:36:28.11	21.77	9.18	-57.1	-60.3	6.2	0.00e+00	0	25	104	0	80	21570
2026-01-12 10:36:29.10	21.77	9.28	-57.2	-60.4	6.2	0.00e+00	0	25	104	0	80	21634
2026-01-12 10:36:30.10	21.78	9.38	-57.2	-60.4	6.2	0.00e+00	0	25	104	0	80	21659
2026-01-12 10:36:31.09	21.79	9.48	-57.3	-60.5	6.2	0.00e+00	0	25	104	0	80	21902
2026-01-12 10:36:32.09	21.79	9.58	-57.1	-60.3	6.2	0.00e+00	0	25	104	0	80	21587
2026-01-12 10:36:33.09	21.80	9.68	-57.2	-60.4	6.2	0.00e+00	0	25	104	0	80	21700
2026-01-12 10:36:34.08	21.81	9.78	-57.2	-60.4	6.2	0.00e+00	0	25	104	0	80	21807
2026-01-12 10:36:35.07	21.81	9.88	-57.3	-60.5	6.2	0.00e+00	0	25	104	0	80	21933
2026-01-12 10:36:36.06	21.82	9.98	-57.2	-60.4	6.2	0.00e+00	0	25	104	0	80	21713
2026-01-12 10:36:37.05	21.82	10.08	-57.2	-60.4	6.2	0.00e+00	0	25	104	0	80	21747
2026-01-12 10:36:38.04	21.83	10.18	-57.2	-60.4	6.2	0.00e+00	0	25	104	0	80	21824
2026-01-12 10:36:39.03	21.84	10.29	-57.3	-60.5	6.2	0.00e+00	0	25	104	0	80	22011
2026-01-12 10:36:40.02	21.84	10.39	-57.2	-60.4	6.2	0.00e+00	0	25	104	0	80	21804
2026-01-12 10:36:41.01	21.85	10.49	-57.2	-60.5	6.2	0.00e+00	0	25	104	0	80	21896
2026-01-12 10:36:42.00	21.85	10.60	-57.3	-60.5	6.2	0.00e+00	0	25	104	0	80	21892
2026-01-12 10:36:43.00	21.86	10.70	-57.3	-60.5	6.2	0.00e+00	0	25	104	0	80	22097
2026-01-12 10:36:43.99	21.87	10.81	-57.2	-60.4	6.2	0.00e+00	0	25	104	0	80	21766
2026-01-12 10:36:44.98	21.87	10.92	-57.3	-60.5	6.2	0.00e+00	0	25	104	0	80	21890
2026-01-12 10:36:45.97	21.88	11.02	-57.3	-60.5	6.2	0.00e+00	0	25	104	0	80	21985
2026-01-12 10:36:46.96	21.89	11.13	-57.4	-60.6	6.2	0.00e+00	0	25	104	0	80	22174
2026-01-12 10:36:47.96	21.89	11.24	-57.3	-60.5	6.2	0.00e+00	0	25	104	0	80	21960
2026-01-12 10:36:48.95	21.90	11.35	-57.3	-60.5	6.2	0.00e+00	0	25	104	0	80	21918
2026-01-12 10:36:49.95	21.91	11.46	-57.3	-60.5	6.2	0.00e+00	0	25	104	0	80	21955
2026-01-12 10:36:50.95	21.91	11.57	-57.4	-60.6	6.2	0.00e+00	0	25	104	0	80	22237
2026-01-12 10:36:51.94	21.92	11.68	-57.3	-60.5	6.2	0.00e+00	0	25	104	0	80	22018
2026-01-12 10:36:52.93	21.92	11.79	-57.3	-60.5	6.2	0.00e+00	0	25	104	0	80	22020
2026-01-12 10:36:53.92	21.93	11.90	-57.3	-60.5	6.2	0.00e+00	0	25	104	0	80	21971
2026-01-12 10:36:54.92	21.94	12.02	-57.4	-60.6	6.2	0.00e+00	0	25	104	0	80	22271
2026-01-12 10:36:55.91	21.94	12.13	-57.3	-60.6	6.2	0.00e+00	0	25	104	0	80	22151
2026-01-12 10:36:56.91	21.95	12.25	-57.3	-60.5	6.2	0.00e+00	0	25	104	0	80	22090
2026-01-12 10:36:57.90	21.96	12.36	-57.4	-60.6	6.2	0.00e+00	0	25	104	0	80	22178
2026-01-12 10:36:58.89	21.96	12.48	-57.4	-60.7	6.2	0.00e+00	0	25	104	0	80	22384
2026-01-12 10:36:59.89	21.97	12.59	-57.4	-60.6	6.2	0.00e+00	0	25	104	0	80	22262
2026-01-12 10:37:00.88	21.98	12.71	-57.4	-60.6	6.2	0.00e+00	0	25	104	0	80	22131
2026-01-12 10:37:01.87	21.98	12.83	-57.4	-60.6	6.2	0.00e+00	0	25	104	0	80	22235
2026-01-12 10:37:02.87	21.99	12.95	-57.5	-60.7	6.2	0.00e+00	0	25	104	0	80	22436
2026-01-12 10:37:03.87	22.00	13.07	-57.4	-60.6	6.2	0.00e+00	0	25	104	0	80	22160
2026-01-12 10:37:04.85	22.00	13.18	-57.4	-60.6	6.2	0.00e+00	0	25	104	0	80	22225
2026-01-12 10:37:05.84	22.01	13.30	-57.4	-60.6	6.2	0.00e+00	0	25	104	0	80	22296
2026-01-12 10:37:06.83	22.02	13.43	-57.5	-60.7	6.2	0.00e+00	0	25	104	0	80	22483
2026-01-12 10:37:07.82	22.02	13.55	-57.4	-60.6	6.2	0.00e+00	0	25	104	0	80	22185
2026-01-12 10:37:08.80	22.03	13.67	-57.4	-60.6	6.2	0.00e+00	0	25	104	0	80	22225
2026-01-12 10:37:09.79	22.04	13.79	-57.4	-60.6	6.2	0.00e+00	0	25	104	0	80	22355
2026-01-12 10:37:10.78	22.05	13.92	-57.5	-60.7	6.2	0.00e+00	0	25	104	0	80	22505
2026-01-12 10:37:11.77	22.05	14.04	-57.0	-59.9	6.2	0.00e+00	0	25	104	0	79	21721
2026-01-12 10:37:12.76	22.06	14.17	-54.8	-56.4	6.8	0.00e+00	0	25	104	0	77	16286
2026-01-12 10:37:13.75	22.07	14.29	-57.0	-59.8	6.2	0.00e+00	0	25	104	0	79	21547
2026-01-12 10:37:14.74	22.07	14.42	-54.9	-56.5	6.8	0.00e+00	0	25	104	0	77	16513
2026-01-12 10:37:15.73	22.08	14.55	-53.9	-55.2	7.2	0.00e+00	0	25	104	0	75	15987
2026-01-12 10:37:16.71	22.09	14.68	-53.4	-54.6	7.5	0.00e+00	0	25	104	0	74	15726
2026-01-12 10:37:17.70	22.09	14.81	-53.0	-54.1	7.7	0.00e+00	0	25	104	0	73	15742
2026-01-12 10:37:18.68	22.10	14.94	-54.4	-55.8	6.9	0.00e+00	0	25	104	0	74	18174
2026-01-12 10:37:19.67	22.11	15.07	-56.8	-59.5	6.2	0.00e+00	0	25	104	0	79	20727
2026-01-12 10:37:20.65	22.12	15.20	-55.2	-56.9	6.7	0.00e+00	0	25	104	0	77	17280
2026-01-12 10:37:21.64	22.12	15.34	-48.2	-48.2	9.4	5.28e-04	0	25	104	0	61	15987
2026-01-12 10:37:22.64	22.13	15.47	-46.4	-46.8	11.0	4.23e-03	0	25	104	0	60	14320
2026-01-12 10:37:23.64	22.14	15.61	-43.8	-44.1	12.4	4.29e-04	0	25	0	109051904	54	14844
2026-01-12 10:37:24.62	22.14	15.74	-42.6	-42.9	12.9	1.81e-04	0	26	0	218103808	52	14473
2026-01-12 10:37:25.61	22.15	15.88	-41.8	-42.1	13.1	8.01e-05	0	25	0	335544320	50	14777
2026-01-12 10:37:26.61	22.16	16.02	-41.1	-41.4	13.3	1.90e-05	0	26	0	444596224	49	14442
2026-01-12 10:37:27.60	22.17	16.16	-40.7	-41.0	13.4	2.09e-05	0	26	0	553648128	48	14616
2026-01-12 10:37:28.60	22.17	16.30	-40.6	-40.9	13.4	1.14e-05	0	26	0	662700032	48	14473
2026-01-12 10:37:29.61	22.18	16.45	-39.1	-39.3	13.5	1.52e-05	0	26	0	780140544	45	14432
2026-01-12 10:37:30.61	22.19	16.59	-38.7	-39.0	13.5	9.50e-06	0	26	0	897581056	44	14653
2026-01-12 10:37:31.60	22.20	16.74	-38.5	-38.7	13.6	1.33e-05	0	26	0	998244352	44	14243
2026-01-12 10:37:32.59	22.20	16.88	-38.5	-38.7	13.6	1.33e-05	0	26	0	1115684864	44	14259
2026-01-12 10:37:33.58	22.21	17.03	-38.6	-38.8	13.6	1.14e-05	0	26	0	1224736768	44	14417
2026-01-12 10:37:34.57	22.22	17.18	-38.5	-38.7	13.6	1.33e-05	0	26	0	1342177280	44	14257
2026-01-12 10:37:35.56	22.23	17.32	-38.4	-38.7	13.7	5.70e-06	0	26	0	1451229184	44	14160
2026-01-12 10:37:36.55	22.23	17.47	-38.5	-38.7	13.6	1.71e-05	0	26	0	1560281088	44	14274
2026-01-12 10:37:37.54	22.24	17.62	-38.3	-38.5	13.6	3.80e-06	0	26	0	1669332992	43	14673
2026-01-12 10:37:38.54	22.25	17.78	-38.3	-38.5	13.6	7.60e-06	0	26	0	1786773504	43	14699
2026-01-12 10:37:39.53	22.26	17.93	-38.2	-38.4	13.6	5.70e-06	0	26	0	1895825408	43	14591
2026-01-12 10:37:40.52	22.27	18.08	-38.0	-38.2	13.8	5.70e-06	0	26	0	2004877312	43	14234
2026-01-12 10:37:41.52	22.27	18.24	-38.0	-38.3	13.7	3.80e-06	0	26	0	2122317824	43	14294
2026-01-12 10:37:42.50	22.28	18.40	-37.9	-38.2	13.8	0.00e+00	0	26	0	2231369728	43	14137
2026-01-12 10:37:43.50	22.29	18.55	-37.9	-38.1	13.8	5.70e-06	0	26	0	2340421632	43	14046
2026-01-12 10:37:44.49	22.30	18.71	-37.9	-38.1	13.7	3.80e-06	0	26	0	2449473536	42	14861
2026-01-12 10:37:45.48	22.31	18.87	-37.9	-38.2	13.7	3.80e-06	0	26	0	2566914048	42	14968
2026-01-12 10:37:46.48	22.31	19.04	-37.7	-37.9	13.8	3.80e-06	0	26	0	2675965952	42	14539
2026-01-12 10:37:47.49	22.32	19.20	-37.6	-37.8	13.8	5.70e-06	0	26	0	2793406464	42	14418
2026-01-12 10:37:48.48	22.33	19.37	-37.6	-37.9	13.8	7.60e-06	0	26	0	2902458368	42	14465
2026-01-12 10:37:49.47	22.34	19.53	-37.5	-37.7	13.9	3.80e-06	0	26	0	3011510272	42	14232
2026-01-12 10:37:50.46	22.35	19.70	-37.5	-37.8	13.8	0.00e+00	0	26	0	3128950784	42	14319
2026-01-12 10:37:51.46	22.36	19.87	-37.6	-37.9	13.8	0.00e+00	0	26	0	3238002688	42	14441
2026-01-12 10:37:52.45	22.37	20.04	-37.6	-37.8	13.8	7.60e-06	0	26	0	3347054592	42	14415
2026-01-12 10:37:53.44	22.37	20.21	-37.4	-37.6	13.9	1.90e-06	0	26	0	3456106496	42	14054
2026-01-12 10:37:54.44	22.38	20.39	-37.2	-37.4	13.9	0.00e+00	0	26	0	3573547008	41	14532
2026-01-12 10:37:55.42	22.39	20.56	-37.2	-37.4	13.9	1.90e-06	0	26	0	3682598912	41	14575
2026-01-12 10:37:56.43	22.40	20.74	-37.3	-37.5	13.8	0.00e+00	0	26	0	3800039424	41	14671
2026-01-12 10:37:57.42	22.41	20.92	-37.0	-37.2	13.9	0.00e+00	0	26	0	3909091328	41	14270
2026-01-12 10:37:58.41	22.42	21.09	-36.9	-37.1	14.0	1.90e-06	0	26	0	4026531840	41	14066
2026-01-12 10:37:59.40	22.43	21.27	-36.9	-37.2	14.0	0.00e+00	0	26	0	4127195136	41	14119
2026-01-12 10:38:00.39	22.44	21.46	-37.0	-37.2	14.0	0.00e+00	0	26	0	4244635648	41	14151
2026-01-12 10:38:01.39	22.44	21.64	-36.8	-37.0	13.9	0.00e+00	0	26	0	4353687552	40	14642
2026-01-12 10:38:02.40	22.45	21.83	-36.7	-36.9	13.9	0.00e+00	0	26	0	4462739456	40	14542
2026-01-12 10:38:03.39	22.46	22.02	-36.7	-36.9	13.9	1.90e-06	0	26	0	4580179968	40	14606
2026-01-12 10:38:04.39	22.47	22.21	-36.6	-36.8	14.0	0.00e+00	0	26	0	4689231872	40	14324
2026-01-12 10:38:05.38	22.48	22.40	-36.5	-36.7	14.0	0.00e+00	0	26	0	4806672384	40	14273
2026-01-12 10:38:06.37	22.49	22.59	-36.4	-36.7	14.1	0.00e+00	0	26	0	4915724288	40	14129
2026-01-12 10:38:07.37	22.50	22.79	-36.5	-36.7	14.1	0.00e+00	0	26	0	5033164800	40	14143
2026-01-12 10:38:08.36	22.51	22.98	-36.4	-36.6	14.0	1.90e-06	0	26	0	5142216704	39	14821
2026-01-12 10:38:09.35	22.52	23.18	-36.4	-36.6	14.0	0.00e+00	0	26	0	5251268608	39	14833
2026-01-12 10:38:10.33	22.53	23.38	-36.4	-36.6	14.0	0.00e+00	0	26	0	5360320512	39	14821
2026-01-12 10:38:11.32	22.54	23.58	-36.2	-36.4	14.1	0.00e+00	0	26	0	5477761024	39	14527
2026-01-12 10:38:12.31	22.55	23.78	-36.2	-36.4	14.1	1.90e-06	0	26	0	5586812928	39	14562
2026-01-12 10:38:13.30	22.56	23.99	-36.1	-36.3	14.1	0.00e+00	0	26	0	5695864832	39	14336
2026-01-12 10:38:14.29	22.57	24.19	-36.2	-36.4	14.1	0.00e+00	0	26	0	5804916736	39	14483
2026-01-12 10:38:15.28	22.58	24.40	-36.0	-36.2	14.1	5.70e-06	0	26	0	5913968640	39	14249
2026-01-12 10:38:16.27	22.59	24.61	-35.8	-36.1	14.1	0.00e+00	0	26	0	6031409152	38	14785
2026-01-12 10:38:17.27	22.60	24.83	-35.8	-36.0	14.1	0.00e+00	0	26	0	6140461056	38	14659
2026-01-12 10:38:18.26	22.61	25.05	-35.8	-36.1	14.1	1.90e-06	0	26	0	6257901568	38	14810
2026-01-12 10:38:19.25	22.62	25.26	-35.7	-35.9	14.1	0.00e+00	0	26	0	6358564864	38	14597
2026-01-12 10:38:20.24	22.63	25.48	-35.7	-35.9	14.1	0.00e+00	0	26	0	6476005376	38	14536
2026-01-12 10:38:21.24	22.64	25.71	-35.7	-35.9	14.1	1.90e-06	0	26	0	6585057280	38	14461
2026-01-12 10:38:22.23	22.65	25.93	-35.5	-35.7	14.2	0.00e+00	0	26	0	6702497792	38	14131
2026-01-12 10:38:23.23	22.66	26.16	-35.5	-35.7	14.2	0.00e+00	0	26	0	6811549696	38	14263
2026-01-12 10:38:24.22	22.67	26.39	-35.5	-35.7	14.2	0.00e+00	0	26	0	6928990208	38	14238
2026-01-12 10:38:25.21	22.69	26.62	-35.5	-35.7	14.2	0.00e+00	0	26	0	7038042112	38	14137
2026-01-12 10:38:26.20	22.70	26.85	-35.2	-35.4	14.2	0.00e+00	0	26	0	7147094016	37	14524
2026-01-12 10:38:27.20	22.71	27.09	-35.2	-35.4	14.2	0.00e+00	0	26	0	7256145920	37	14538
2026-01-12 10:38:28.20	22.72	27.33	-35.2	-35.4	14.2	0.00e+00	0	26	0	7365197824	37	14499
2026-01-12 10:38:29.19	22.73	27.57	-35.3	-35.5	14.2	0.00e+00	0	26	0	7482638336	37	14687
2026-01-12 10:38:30.18	22.74	27.81	-34.9	-35.1	14.3	0.00e+00	0	26	0	7591690240	37	14100
2026-01-12 10:38:31.17	22.75	28.06	-34.8	-35.0	14.2	0.00e+00	0	26	0	7709130752	36	14774
2026-01-12 10:38:32.16	22.77	28.31	-34.7	-34.9	14.3	1.90e-06	0	26	0	7818182656	36	14482
2026-01-12 10:38:33.16	22.78	28.56	-34.7	-34.9	14.2	0.00e+00	0	26	0	7935623168	36	14532
2026-01-12 10:38:34.16	22.79	28.82	-34.5	-34.7	14.3	0.00e+00	0	26	0	8044675072	36	14199
2026-01-12 10:38:35.15	22.80	29.07	-34.4	-34.7	14.3	0.00e+00	0	26	0	8153726976	36	14114
2026-01-12 10:38:36.14	22.82	29.33	-31.8	-32.0	14.1	0.00e+00	0	26	0	8262778880	30	14695
2026-01-12 10:38:37.12	22.83	29.59	-31.8	-32.0	14.2	0.00e+00	0	26	0	8380219392	30	14691
2026-01-12 10:38:38.11	22.84	29.86	-31.9	-32.1	14.1	0.00e+00	0	26	0	8489271296	30	14873
2026-01-12 10:38:39.11	22.85	30.13	-31.8	-32.0	14.2	0.00e+00	0	26	0	8598323200	30	14767
2026-01-12 10:38:40.10	22.87	30.40	-31.6	-31.8	14.2	0.00e+00	0	26	0	8707375104	30	14390
2026-01-12 10:38:41.09	22.88	30.67	-31.5	-31.7	14.3	0.00e+00	0	26	0	8816427008	30	14261
2026-01-12 10:38:42.09	22.89	30.95	-31.4	-31.6	14.3	0.00e+00	0	26	0	8933867520	30	14081
2026-01-12 10:38:43.08	22.91	31.23	-31.3	-31.5	14.2	0.00e+00	0	26	0	9042919424	29	14674
2026-01-12 10:38:44.08	22.92	31.52	-31.1	-31.3	14.3	0.00e+00	0	26	0	9160359936	29	14413
2026-01-12 10:38:45.07	22.94	31.81	-31.1	-31.3	14.3	0.00e+00	0	26	0	9269411840	29	14427
2026-01-12 10:38:46.07	22.95	32.10	-31.1	-31.3	14.3	0.00e+00	0	26	0	9386852352	29	14392
2026-01-12 10:38:47.07	22.96	32.39	-31.0	-31.2	14.3	0.00e+00	0	26	0	9495904256	29	14241
2026-01-12 10:38:48.05	22.98	32.69	-31.0	-31.2	14.3	0.00e+00	0	26	0	9604956160	29	14268
2026-01-12 10:38:49.04	22.99	32.99	-30.8	-31.0	14.3	0.00e+00	0	26	0	9714008064	28	14633
2026-01-12 10:38:50.04	23.01	33.29	-30.6	-30.8	14.3	0.00e+00	0	26	0	9831448576	28	14399
2026-01-12 10:38:51.03	23.02	33.60	-30.6	-30.8	14.3	0.00e+00	0	26	0	9940500480	28	14437
2026-01-12 10:38:52.02	23.04	33.91	-30.5	-30.7	14.4	0.00e+00	0	26	0	10049552384	28	14177
2026-01-12 10:38:53.01	23.06	34.22	-30.4	-30.6	14.4	0.00e+00	0	26	0	10166992896	28	14076
2026-01-12 10:38:54.00	23.07	34.54	-30.4	-30.6	14.3	0.00e+00	0	26	0	10267656192	27	14934
2026-01-12 10:38:54.99	23.09	34.86	-30.3	-30.5	14.3	0.00e+00	0	26	0	10385096704	27	14734
2026-01-12 10:38:55.98	23.10	35.19	-30.3	-30.5	14.3	0.00e+00	0	26	0	10494148608	27	14697
2026-01-12 10:38:56.97	23.12	35.52	-30.2	-30.4	14.4	0.00e+00	0	26	0	10611589120	27	14560
2026-01-12 10:38:57.96	23.14	35.85	-30.1	-30.3	14.4	0.00e+00	0	26	0	10720641024	27	14295
2026-01-12 10:38:58.96	23.16	36.19	-30.0	-30.2	14.4	0.00e+00	0	26	0	10838081536	27	14264
2026-01-12 10:38:59.95	23.17	36.53	-30.0	-30.2	14.5	0.00e+00	0	26	0	10938744832	27	14164
2026-01-12 10:39:00.95	23.19	36.88	-30.0	-30.2	14.5	0.00e+00	0	26	0	11056185344	27	14209
2026-01-12 10:39:01.94	23.21	37.23	-29.7	-29.9	14.4	0.00e+00	0	26	0	11165237248	26	14606
2026-01-12 10:39:02.93	23.23	37.59	-29.6	-29.8	14.4	0.00e+00	0	26	0	11282677760	26	14416
2026-01-12 10:39:03.93	23.25	37.95	-29.5	-29.7	14.5	0.00e+00	0	26	0	11391729664	26	14265
2026-01-12 10:39:04.92	23.27	38.31	-29.5	-29.7	14.5	0.00e+00	0	26	0	11500781568	26	14260
2026-01-12 10:39:05.92	23.29	38.68	-29.4	-29.6	14.5	0.00e+00	0	26	0	11618222080	26	14039
2026-01-12 10:39:06.91	23.31	39.05	-29.3	-29.6	14.4	0.00e+00	0	26	0	11727273984	25	14784
2026-01-12 10:39:07.91	23.33	39.43	-29.2	-29.4	14.4	0.00e+00	0	26	0	11844714496	25	14479
2026-01-12 10:39:08.90	23.35	39.81	-29.2	-29.4	14.4	0.00e+00	0	26	0	11945377792	25	14541
2026-01-12 10:39:09.89	23.37	40.20	-29.1	-29.3	14.5	0.00e+00	0	26	0	12062818304	25	14350
2026-01-12 10:39:10.88	23.39	40.59	-29.1	-29.3	14.4	0.00e+00	0	26	0	12171870208	25	14385
2026-01-12 10:39:11.87	23.41	40.98	-29.0	-29.2	14.5	0.00e+00	0	26	0	12289310720	25	14262
2026-01-12 10:39:12.87	23.43	41.39	-28.8	-29.0	14.4	0.00e+00	0	26	0	12398362624	24	14763
2026-01-12 10:39:13.86	23.46	41.79	-28.7	-28.9	14.5	0.00e+00	0	26	0	12507414528	24	14492
2026-01-12 10:39:14.85	23.48	42.20	-28.7	-28.9	14.4	0.00e+00	0	26	0	12616466432	24	14579
2026-01-12 10:39:15.84	23.51	42.62	-28.7	-28.9	14.5	0.00e+00	0	26	0	12733906944	24	14516
2026-01-12 10:39:16.84	23.53	43.04	-28.5	-28.7	14.5	0.00e+00	0	26	0	12842958848	24	14135
2026-01-12 10:39:17.83	23.56	43.47	-28.5	-28.8	14.5	0.00e+00	0	26	0	12952010752	24	14283
2026-01-12 10:39:18.83	23.58	43.91	-28.5	-28.7	14.5	0.00e+00	0	26	0	13069451264	24	14169
2026-01-12 10:39:19.82	23.61	44.34	-28.3	-28.5	14.5	0.00e+00	0	26	0	13178503168	23	14644
2026-01-12 10:39:20.81	23.64	44.79	-28.2	-28.4	14.5	0.00e+00	0	26	0	13295943680	23	14530
2026-01-12 10:39:21.80	23.66	45.23	-28.2	-28.4	14.5	0.00e+00	0	26	0	13396606976	23	14510
2026-01-12 10:39:22.79	23.69	45.69	-28.2	-28.4	14.5	0.00e+00	0	26	0	13514047488	23	14546
2026-01-12 10:39:23.79	23.72	46.15	-28.0	-28.2	14.6	0.00e+00	0	26	0	13623099392	23	14244
2026-01-12 10:39:24.77	23.75	46.61	-27.9	-28.1	14.6	0.00e+00	0	26	0	13732151296	23	14077
2026-01-12 10:39:25.78	23.78	47.09	-27.8	-28.0	14.5	0.00e+00	0	26	0	13849591808	22	14728
2026-01-12 10:39:26.77	23.81	47.57	-27.7	-27.9	14.5	0.00e+00	0	26	0	13958643712	22	14599
2026-01-12 10:39:27.77	23.85	48.06	-27.6	-27.8	14.6	0.00e+00	0	26	0	14076084224	22	14437
2026-01-12 10:39:28.76	23.88	48.54	-27.6	-27.8	14.6	0.00e+00	0	26	0	14185136128	22	14325
2026-01-12 10:39:29.75	23.91	49.04	-27.5	-27.7	14.6	0.00e+00	0	26	0	14294188032	22	14274
2026-01-12 10:39:30.75	23.95	49.55	-27.5	-27.7	14.6	0.00e+00	0	26	0	14403239936	22	14135
2026-01-12 10:39:31.74	23.99	50.05	-27.5	-27.7	14.6	0.00e+00	0	26	0	14520680448	22	14265
2026-01-12 10:39:32.73	24.02	50.57	-27.4	-27.6	14.7	0.00e+00	0	26	0	14629732352	22	13958
2026-01-12 10:39:33.73	24.06	51.09	-27.3	-27.5	14.5	0.00e+00	0	26	0	14747172864	21	14737
2026-01-12 10:39:34.73	24.10	51.62	-27.4	-27.6	14.5	0.00e+00	0	26	0	14856224768	21	14848
2026-01-12 10:39:35.72	24.15	52.16	-27.2	-27.4	14.6	0.00e+00	0	26	0	14965276672	21	14478
2026-01-12 10:39:36.71	24.19	52.70	-27.1	-27.3	14.6	0.00e+00	0	26	0	15082717184	21	14317
2026-01-12 10:39:37.70	24.23	53.24	-27.2	-27.4	14.6	0.00e+00	0	26	0	15191769088	21	14483
2026-01-12 10:39:38.69	24.28	53.80	-27.1	-27.4	14.6	0.00e+00	0	26	0	15300820992	21	14453
2026-01-12 10:39:39.68	24.33	54.35	-27.0	-27.3	14.6	0.00e+00	0	26	0	15409872896	21	14275
2026-01-12 10:39:40.67	24.38	54.92	-26.9	-27.1	14.7	0.00e+00	0	26	0	15527313408	21	14057
2026-01-12 10:39:41.66	24.43	55.49	-27.0	-27.2	14.7	0.00e+00	0	26	0	15636365312	21	14138
2026-01-12 10:39:42.65	24.48	56.07	-26.9	-27.1	14.7	0.00e+00	0	26	0	15745417216	21	14075
2026-01-12 10:39:43.64	24.54	56.66	-26.8	-27.0	14.6	0.00e+00	0	26	0	15854469120	20	14688
2026-01-12 10:39:44.63	24.59	57.25	-26.7	-27.0	14.6	0.00e+00	0	26	0	15971909632	20	14630
2026-01-12 10:39:45.61	24.65	57.84	-26.6	-26.8	14.6	0.00e+00	0	26	0	16080961536	20	14418
2026-01-12 10:39:46.59	24.72	58.44	-26.6	-26.8	14.6	0.00e+00	0	26	0	16190013440	20	14327
2026-01-12 10:39:47.59	24.78	59.06	-26.6	-26.8	14.6	0.00e+00	0	26	0	16299065344	20	14331
2026-01-12 10:39:48.59	24.85	59.69	-26.7	-26.9	14.6	0.00e+00	0	26	0	16416505856	20	14562
2026-01-12 10:39:49.58	24.92	60.31	-26.5	-26.7	14.7	0.00e+00	0	26	0	16525557760	20	14200
2026-01-12 10:39:50.58	25.00	60.95	-26.4	-26.6	14.7	0.00e+00	0	26	0	16642998272	20	14103
2026-01-12 10:39:51.57	25.08	61.59	-26.5	-26.7	14.6	0.00e+00	0	26	0	16752050176	20	14269
2026-01-12 10:39:52.55	25.16	62.23	-26.3	-26.5	14.5	0.00e+00	0	26	0	16861102080	19	14768
2026-01-12 10:39:53.55	25.25	62.89	-26.3	-26.6	14.5	0.00e+00	0	26	0	16970153984	19	14790
2026-01-12 10:39:54.54	25.34	63.55	-26.4	-26.6	14.5	0.00e+00	0	26	0	17087594496	19	14807
2026-01-12 10:39:55.54	25.44	64.23	-26.2	-26.4	14.6	0.00e+00	0	26	0	17196646400	19	14541
2026-01-12 10:39:56.54	25.55	64.91	-26.2	-26.4	14.6	0.00e+00	0	26	0	17305698304	19	14601
2026-01-12 10:39:57.52	25.65	65.58	-26.2	-26.4	14.6	0.00e+00	0	26	0	17423138816	19	14544
2026-01-12 10:39:58.52	25.77	66.27	-26.2	-26.4	14.6	0.00e+00	0	26	0	17532190720	19	14501
2026-01-12 10:39:59.51	25.90	66.96	-26.1	-26.3	14.6	0.00e+00	0	26	0	17649631232	19	14375
2026-01-12 10:40:00.51	26.03	67.67	-26.1	-26.3	14.6	0.00e+00	0	26	0	17758683136	19	14320
2026-01-12 10:40:01.50	26.17	68.37	-26.1	-26.3	14.6	0.00e+00	0	27	0	17867735040	19	14382
2026-01-12 10:40:02.50	26.32	69.09	-26.1	-26.3	14.6	0.00e+00	0	26	0	17976786944	19	14327
2026-01-12 10:40:03.51	26.49	69.82	-26.1	-26.3	14.6	0.00e+00	0	26	0	18094227456	19	14354
2026-01-12 10:40:04.50	26.67	70.54	-26.0	-26.2	14.7	0.00e+00	0	26	0	18203279360	19	14259
2026-01-12 10:40:05.48	26.85	71.26	-26.0	-26.2	14.6	0.00e+00	0	26	0	18312331264	19	14201
2026-01-12 10:40:06.47	27.06	71.99	-26.0	-26.2	14.6	0.00e+00	0	26	0	18429771776	19	14183
2026-01-12 10:40:07.46	27.28	72.73	-25.9	-26.2	14.7	0.00e+00	0	26	0	18538823680	19	14119
2026-01-12 10:40:08.45	27.53	73.47	-25.9	-26.1	14.7	0.00e+00	0	26	0	18656264192	19	14072
2026-01-12 10:40:09.45	27.80	74.23	-25.9	-26.1	14.7	0.00e+00	0	27	0	18756927488	19	14061
2026-01-12 10:40:10.44	28.10	74.98	-25.9	-26.1	14.7	0.00e+00	0	26	0	18874368000	19	14028
2026-01-12 10:40:11.43	28.43	75.73	-26.0	-26.1	14.7	0.00e+00	0	26	0	18983419904	19	14107
2026-01-12 10:40:12.42	28.80	76.49	-25.9	-26.1	14.7	0.00e+00	0	26	0	19100860416	19	14107
2026-01-12 10:40:13.41	29.21	77.26	-25.7	-25.9	14.6	0.00e+00	0	26	0	19209912320	18	14584
2026-01-12 10:40:14.41	29.68	78.03	-25.8	-26.0	14.6	0.00e+00	0	26	0	19318964224	18	14635
2026-01-12 10:40:15.41	30.22	78.81	-25.8	-26.0	14.6	0.00e+00	0	26	0	19436404736	18	14732
2026-01-12 10:40:16.41	30.84	79.59	-25.8	-26.0	14.6	0.00e+00	0	27	0	19545456640	18	14646
2026-01-12 10:40:17.40	31.56	80.37	-25.7	-25.9	14.6	0.00e+00	0	26	0	19654508544	18	14535
2026-01-12 10:40:18.39	32.40	81.14	-25.7	-25.9	14.6	0.00e+00	0	26	0	19763560448	18	14493
2026-01-12 10:40:19.38	33.40	81.92	-25.7	-25.9	14.6	0.00e+00	0	27	0	19881000960	18	14503
2026-01-12 10:40:20.37	34.62	82.70	-25.7	-25.9	14.6	0.00e+00	0	26	0	19990052864	18	14548
2026-01-12 10:40:21.36	36.14	83.47	-25.7	-25.9	14.6	0.00e+00	0	26	0	20107493376	18	14498
2026-01-12 10:40:22.35	38.06	84.24	-25.7	-25.9	14.6	0.00e+00	0	27	0	20208156672	18	14456
2026-01-12 10:40:23.34	40.58	85.01	-25.8	-26.0	14.6	0.00e+00	0	27	0	20325597184	18	14669
2026-01-12 10:40:24.33	44.00	85.76	-25.9	-26.1	14.6	0.00e+00	0	27	0	20434649088	18	14863
2026-01-12 10:40:25.33	48.94	86.50	-26.2	-26.4	14.6	0.00e+00	0	27	0	20552089600	19	14482
2026-01-12 10:40:26.32	56.36	87.20	-26.2	-26.4	14.6	0.00e+00	0	26	0	20661141504	19	14485
2026-01-12 10:40:27.32	68.45	87.82	-26.3	-26.5	14.6	0.00e+00	0	26	0	20770193408	19	14664
2026-01-12 10:40:28.32	88.44	88.28	-26.4	-26.6	14.6	0.00e+00	0	26	0	20887633920	19	14934
2026-01-12 10:40:29.31	116.33	88.42	-26.7	-26.9	14.5	0.00e+00	0	26	0	20996685824	19	15369
2026-01-12 10:40:30.31	142.78	88.18	-26.7	-27.0	14.5	0.00e+00	0	27	0	21114126336	19	15512
2026-01-12 10:40:31.31	160.19	87.66	-26.7	-26.9	14.5	0.00e+00	0	26	0	21223178240	19	15454
2026-01-12 10:40:32.31	170.69	87.00	-26.8	-27.0	14.6	0.00e+00	0	26	0	21332230144	20	14727
2026-01-12 10:40:33.30	177.23	86.29	-26.7	-26.9	14.6	0.00e+00	0	26	0	21441282048	20	14591
2026-01-12 10:40:34.30	181.67	85.55	-26.7	-26.9	14.6	0.00e+00	0	27	0	21558722560	20	14476
2026-01-12 10:40:35.29	184.79	84.79	-26.5	-26.8	14.6	0.00e+00	0	26	0	21667774464	19	15133
2026-01-12 10:40:36.28	187.12	84.02	-26.3	-26.5	14.6	0.00e+00	0	26	0	21776826368	19	14760
2026-01-12 10:40:37.27	188.91	83.25	-26.3	-26.6	14.6	0.00e+00	0	26	0	21894266880	19	14785
2026-01-12 10:40:38.27	190.34	82.47	-26.5	-26.8	14.6	0.00e+00	0	26	0	22003318784	19	15131
2026-01-12 10:40:39.26	191.49	81.69	-26.6	-26.8	14.6	0.00e+00	0	27	0	22120759296	19	15137
2026-01-12 10:40:40.26	192.45	80.90	-26.5	-26.7	14.6	0.00e+00	0	27	0	22229811200	19	15103
2026-01-12 10:40:41.25	193.25	80.13	-26.5	-26.7	14.6	0.00e+00	0	26	0	22338863104	19	15001
2026-01-12 10:40:42.24	193.94	79.35	-26.3	-26.5	14.6	0.00e+00	0	26	0	22447915008	19	14627
2026-01-12 10:40:43.24	194.53	78.57	-26.3	-26.5	14.6	0.00e+00	0	26	0	22565355520	19	14639
2026-01-12 10:40:44.24	195.05	77.79	-26.2	-26.4	14.6	0.00e+00	0	26	0	22674407424	19	14571
2026-01-12 10:40:45.23	195.50	77.03	-25.9	-26.1	14.7	0.00e+00	0	26	0	22783459328	19	14079
2026-01-12 10:40:46.23	195.90	76.26	-26.0	-26.2	14.7	0.00e+00	0	26	0	22900899840	19	14219
2026-01-12 10:40:47.23	196.26	75.49	-26.0	-26.2	14.7	0.00e+00	0	26	0	23009951744	19	14174
2026-01-12 10:40:48.22	196.58	74.74	-26.1	-26.3	14.7	0.00e+00	0	26	0	23127392256	19	14283
2026-01-12 10:40:49.21	196.86	73.98	-26.1	-26.3	14.7	0.00e+00	0	26	0	23236444160	19	14293
2026-01-12 10:40:50.20	197.13	73.24	-26.0	-26.2	14.7	0.00e+00	0	26	0	23345496064	19	14176
2026-01-12 10:40:51.20	197.37	72.49	-26.1	-26.3	14.7	0.00e+00	0	26	0	23454547968	19	14337
2026-01-12 10:40:52.19	197.58	71.75	-26.2	-26.4	14.6	0.00e+00	0	26	0	23571988480	19	14523
2026-01-12 10:40:53.18	197.79	71.02	-26.2	-26.4	14.7	0.00e+00	0	26	0	23681040384	19	14452
2026-01-12 10:40:54.19	197.97	70.28	-26.1	-26.3	14.7	0.00e+00	0	27	0	23790092288	19	14417
2026-01-12 10:40:55.18	198.15	69.56	-26.2	-26.5	14.6	0.00e+00	0	27	0	23907532800	19	14621
2026-01-12 10:40:56.18	198.31	68.84	-26.3	-26.5	14.6	0.00e+00	0	26	0	24016584704	19	14717
2026-01-12 10:40:57.16	198.45	68.14	-26.3	-26.5	14.6	0.00e+00	0	27	0	24134025216	19	14685
2026-01-12 10:40:58.15	198.59	67.43	-26.3	-26.5	14.6	0.00e+00	0	26	0	24234688512	19	14728
2026-01-12 10:40:59.14	198.72	66.74	-26.3	-26.5	14.6	0.00e+00	0	27	0	24352129024	19	14767
2026-01-12 10:41:00.14	198.84	66.04	-26.4	-26.6	14.6	0.00e+00	0	27	0	24461180928	19	14835
2026-01-12 10:41:01.14	198.96	65.35	-26.5	-26.7	14.6	0.00e+00	0	26	0	24578621440	19	14988
2026-01-12 10:41:02.13	199.07	64.67	-26.6	-26.8	14.6	0.00e+00	0	26	0	24687673344	19	15162
2026-01-12 10:41:03.12	199.17	64.00	-26.5	-26.7	14.6	0.00e+00	0	26	0	24805113856	19	15008
2026-01-12 10:41:04.11	199.26	63.33	-26.6	-26.8	14.6	0.00e+00	0	27	0	24914165760	19	15176
2026-01-12 10:41:05.10	199.35	62.68	-26.6	-26.8	14.6	0.00e+00	0	26	0	25023217664	19	15195
2026-01-12 10:41:06.10	199.44	62.02	-26.6	-26.8	14.5	0.00e+00	0	26	0	25132269568	19	15287
2026-01-12 10:41:07.09	199.52	61.37	-26.6	-26.8	14.5	0.00e+00	0	27	0	25241321472	19	15287
2026-01-12 10:41:08.07	199.60	60.74	-26.7	-27.0	14.5	0.00e+00	0	26	0	25358761984	19	15480
2026-01-12 10:41:09.07	199.67	60.10	-26.7	-26.9	14.5	0.00e+00	0	26	0	25467813888	19	15445
2026-01-12 10:41:10.06	199.75	59.48	-26.9	-27.1	14.5	0.00e+00	0	26	0	25585254400	19	15694
2026-01-12 10:41:11.06	199.81	58.85	-26.9	-27.1	14.5	0.00e+00	0	26	0	25685917696	19	15696
2026-01-12 10:41:12.05	199.88	58.24	-27.0	-27.2	14.5	0.00e+00	0	26	0	25803358208	19	15856
2026-01-12 10:41:13.04	199.94	57.64	-26.9	-27.2	14.5	0.00e+00	0	26	0	25912410112	19	15849
2026-01-12 10:41:14.02	200.00	57.04	-27.0	-27.2	14.5	0.00e+00	0	26	0	26029850624	19	16003
2026-01-12 10:41:15.01	200.06	56.45	-27.1	-27.3	14.5	0.00e+00	0	27	0	26138902528	19	16095
2026-01-12 10:41:16.00	200.11	55.87	-27.1	-27.4	14.5	0.00e+00	0	26	0	26247954432	20	15329
2026-01-12 10:41:17.00	200.16	55.29	-27.3	-27.5	14.5	0.00e+00	0	27	0	26357006336	20	15514
2026-01-12 10:41:17.99	200.22	54.71	-27.1	-27.4	14.5	0.00e+00	0	27	0	26474446848	20	15329
2026-01-12 10:41:18.98	200.26	54.15	-27.2	-27.4	14.5	0.00e+00	0	26	0	26583498752	20	15471
2026-01-12 10:41:19.98	200.31	53.59	-27.2	-27.4	14.5	0.00e+00	0	26	0	26692550656	20	15428
2026-01-12 10:41:20.96	200.36	53.04	-27.3	-27.5	14.5	0.00e+00	0	27	0	26809991168	20	15587
2026-01-12 10:41:21.95	200.40	52.50	-27.3	-27.5	14.5	0.00e+00	0	26	0	26919043072	20	15608
2026-01-12 10:41:22.94	200.44	51.96	-27.4	-27.6	14.5	0.00e+00	0	26	0	27028094976	20	15789
2026-01-12 10:41:23.93	200.48	51.43	-27.5	-27.7	14.5	0.00e+00	0	27	0	27137146880	20	15987
2026-01-12 10:41:24.92	200.52	50.90	-27.5	-27.7	14.5	0.00e+00	0	27	0	27254587392	20	15996
2026-01-12 10:41:25.91	200.56	50.38	-27.6	-27.8	14.5	0.00e+00	0	26	0	27363639296	20	16165
2026-01-12 10:41:26.91	200.60	49.86	-27.7	-27.9	14.5	0.00e+00	0	27	0	27472691200	21	15467
2026-01-12 10:41:27.90	200.64	49.36	-27.7	-27.9	14.5	0.00e+00	0	26	0	27581743104	21	15341
2026-01-12 10:41:28.89	200.67	48.86	-27.7	-27.9	14.5	0.00e+00	0	27	0	27699183616	21	15465
2026-01-12 10:41:29.89	200.70	48.36	-27.8	-28.1	14.5	0.00e+00	0	26	0	27808235520	21	15678
2026-01-12 10:41:30.88	200.74	47.87	-27.9	-28.2	14.5	0.00e+00	0	26	0	27925676032	21	15872
2026-01-12 10:41:31.88	200.77	47.38	-28.0	-28.2	14.7	0.00e+00	0	26	0	28034727936	23	14229
2026-01-12 10:41:32.87	200.80	46.91	-28.0	-28.2	14.6	0.00e+00	0	27	0	28143779840	23	14266
2026-01-12 10:41:33.86	200.83	46.44	-28.1	-28.3	14.6	0.00e+00	0	26	0	28252831744	23	14432
2026-01-12 10:41:34.85	200.86	45.98	-28.3	-28.5	14.6	0.00e+00	0	27	0	28370272256	23	14705
2026-01-12 10:41:35.85	200.89	45.51	-57.9	-61.4	6.2	0.00e+00	0	26	104	28395438080	81	22990
2026-01-12 10:41:36.84	200.92	45.06	-57.9	-61.4	6.2	0.00e+00	0	26	104	28395438080	81	23128
2026-01-12 10:41:37.83	200.95	44.61	-58.0	-61.4	6.2	0.00e+00	0	26	104	28395438080	81	23104
2026-01-12 10:41:38.82	200.97	44.17	-57.9	-61.4	6.2	0.00e+00	0	26	104	28395438080	81	22904
2026-01-12 10:41:39.81	201.00	43.74	-58.4	-61.6	6.2	0.00e+00	0	26	104	28395438080	82	22235
2026-01-12 10:41:40.80	201.02	43.31	-58.4	-61.6	6.2	0.00e+00	0	26	104	28395438080	82	22262
2026-01-12 10:41:41.80	201.05	42.88	-58.3	-61.6	6.2	0.00e+00	0	26	104	28395438080	82	22121
2026-01-12 10:41:42.79	201.07	42.46	-58.0	-61.4	6.2	0.00e+00	0	26	104	28395438080	82	21777
2026-01-12 10:41:43.78	201.10	42.04	-58.4	-61.6	6.2	0.00e+00	0	26	104	28395438080	82	22144
2026-01-12 10:41:44.78	201.12	41.63	-58.4	-61.6	6.2	0.00e+00	0	26	104	28395438080	82	22210
2026-01-12 10:41:45.77	201.14	41.22	-58.2	-61.5	6.2	0.00e+00	0	26	104	28395438080	82	22045
2026-01-12 10:41:46.76	201.17	40.82	-58.0	-61.4	6.2	0.00e+00	0	26	104	28395438080	82	21811
2026-01-12 10:41:47.75	201.19	40.43	-58.3	-61.5	6.2	0.00e+00	0	26	104	28395438080	82	22057
2026-01-12 10:41:48.75	201.21	40.04	-58.4	-61.5	6.2	0.00e+00	0	26	104	28395438080	82	22078
2026-01-12 10:41:49.74	201.23	39.65	-58.2	-61.5	6.2	0.00e+00	0	26	104	28395438080	82	21969
2026-01-12 10:41:50.74	201.25	39.27	-58.0	-61.4	6.2	0.00e+00	0	26	104	28395438080	82	21744
2026-01-12 10:41:51.74	201.27	38.89	-58.3	-61.5	6.2	0.00e+00	0	26	104	28395438080	82	22083
2026-01-12 10:41:52.73	201.29	38.52	-58.3	-61.5	6.2	0.00e+00	0	26	104	28395438080	82	22050
2026-01-12 10:41:53.73	201.31	38.15	-58.2	-61.5	6.2	0.00e+00	0	26	104	28395438080	82	21880
2026-01-12 10:41:54.72	201.33	37.79	-58.0	-61.4	6.2	0.00e+00	0	26	104	28395438080	82	21798
2026-01-12 10:41:55.72	201.35	37.43	-58.3	-61.5	6.2	0.00e+00	0	26	104	28395438080	82	21945
2026-01-12 10:41:56.72	201.37	37.07	-58.3	-61.5	6.2	0.00e+00	0	26	104	28395438080	82	22016
2026-01-12 10:41:57.71	201.38	36.72	-58.2	-61.4	6.2	0.00e+00	0	26	104	28395438080	82	21800
2026-01-12 10:41:58.70	201.40	36.38	-58.1	-61.4	6.2	0.00e+00	0	26	104	28395438080	82	21687
2026-01-12 10:41:59.69	201.42	36.04	-58.3	-61.5	6.2	0.00e+00	0	26	104	28395438080	82	21998
2026-01-12 10:42:00.68	201.44	35.70	-58.3	-61.5	6.1	0.00e+00	0	26	104	28395438080	82	21924
2026-01-12 10:42:01.68	201.45	35.36	-58.2	-61.4	6.2	0.00e+00	0	26	104	28395438080	82	21846
2026-01-12 10:42:02.67	201.47	35.04	-58.1	-61.4	6.2	0.00e+00	0	26	104	28395438080	82	21612
2026-01-12 10:42:03.66	201.49	34.71	-58.2	-61.4	6.2	0.00e+00	0	26	104	28395438080	82	21843
2026-01-12 10:42:04.65	201.50	34.39	-58.2	-61.5	6.2	0.00e+00	0	26	104	28395438080	82	21890
2026-01-12 10:42:05.65	201.52	34.07	-58.2	-61.4	6.2	0.00e+00	0	26	104	28395438080	82	21797
2026-01-12 10:42:06.64	201.53	33.76	-58.1	-61.4	6.2	0.00e+00	0	26	104	28395438080	82	21678
2026-01-12 10:42:07.62	201.55	33.45	-58.2	-61.4	6.2	0.00e+00	0	26	104	28395438080	82	21810
2026-01-12 10:42:08.61	201.56	33.14	-58.2	-61.4	6.2	0.00e+00	0	26	104	28395438080	82	21843
2026-01-12 10:42:09.61	201.58	32.84	-58.2	-61.4	6.2	0.00e+00	0	26	104	28395438080	82	21753
2026-01-12 10:42:10.61	201.59	32.54	-58.1	-61.4	6.2	0.00e+00	0	26	104	28395438080	82	21609
2026-01-12 10:42:11.60	201.61	32.24	-58.2	-61.4	6.2	0.00e+00	0	26	104	28395438080	82	21742
2026-01-12 10:42:12.59	201.62	31.95	-58.2	-61.4	6.2	0.00e+00	0	26	104	28395438080	82	21770
2026-01-12 10:42:13.59	201.64	31.66	-58.1	-61.4	6.2	0.00e+00	0	26	104	28395438080	82	21653
2026-01-12 10:42:14.57	201.65	31.37	-58.1	-61.3	6.2	0.00e+00	0	26	104	28395438080	82	21551
2026-01-12 10:42:15.57	201.66	31.09	-58.2	-61.4	6.2	0.00e+00	0	26	104	28395438080	82	21729
2026-01-12 10:42:16.55	201.68	30.81	-58.2	-61.4	6.2	0.00e+00	0	26	104	28395438080	82	21723
2026-01-12 10:42:17.55	201.69	30.53	-58.1	-61.4	6.2	0.00e+00	0	26	104	28395438080	82	21639
2026-01-12 10:42:18.54	201.70	30.26	-58.0	-61.3	6.2	0.00e+00	0	26	104	28395438080	82	21511
2026-01-12 10:42:19.54	201.71	29.99	-58.1	-61.3	6.2	0.00e+00	0	26	104	28395438080	82	21541
2026-01-12 10:42:20.53	201.73	29.72	-58.1	-61.4	6.2	0.00e+00	0	26	104	28395438080	82	21615
2026-01-12 10:42:21.52	201.74	29.45	-58.1	-61.3	6.2	0.00e+00	0	26	104	28395438080	82	21577
2026-01-12 10:42:22.51	201.75	29.19	-58.0	-61.3	6.2	0.00e+00	0	26	104	28395438080	82	21365
2026-01-12 10:42:23.50	201.76	28.93	-58.1	-61.3	6.2	0.00e+00	0	26	104	28395438080	82	21489
2026-01-12 10:42:24.49	201.78	28.68	-58.1	-61.3	6.2	0.00e+00	0	26	104	28395438080	82	21481
2026-01-12 10:42:25.50	201.79	28.42	-58.1	-61.3	6.2	0.00e+00	0	26	104	28395438080	82	21430
2026-01-12 10:42:26.49	201.80	28.17	-58.0	-61.3	6.2	0.00e+00	0	26	104	28395438080	82	21386
2026-01-12 10:42:27.48	201.81	27.92	-58.1	-61.3	6.2	0.00e+00	0	26	104	28395438080	82	21416
2026-01-12 10:42:28.47	201.82	27.68	-58.1	-61.3	6.2	0.00e+00	0	26	104	28395438080	82	21456
2026-01-12 10:42:29.46	201.84	27.43	-58.0	-61.3	6.2	0.00e+00	0	26	104	28395438080	82	21404
2026-01-12 10:42:30.45	201.85	27.19	-58.0	-61.2	6.2	0.00e+00	0	26	104	28395438080	82	21253
2026-01-12 10:42:31.45	201.86	26.95	-58.0	-61.2	6.2	0.00e+00	0	26	104	28395438080	82	21310
2026-01-12 10:42:32.44	201.87	26.72	-58.1	-61.2	6.2	0.00e+00	0	26	104	28395438080	82	21342
2026-01-12 10:42:33.44	201.88	26.48	-58.0	-61.2	6.2	0.00e+00	0	26	104	28395438080	82	21298
2026-01-12 10:42:34.43	201.89	26.25	-58.0	-61.2	6.2	0.00e+00	0	26	104	28395438080	82	21257
2026-01-12 10:42:35.42	201.90	26.02	-58.0	-61.2	6.2	0.00e+00	0	26	104	28395438080	82	21260
2026-01-12 10:42:36.41	201.91	25.80	-58.0	-61.2	6.2	0.00e+00	0	26	104	28395438080	82	21343
2026-01-12 10:42:37.41	201.92	25.57	-58.0	-61.2	6.2	0.00e+00	0	26	104	28395438080	82	21211
2026-01-12 10:42:38.40	201.93	25.35	-58.0	-61.2	6.2	0.00e+00	0	26	104	28395438080	82	21184
2026-01-12 10:42:39.39	201.94	25.13	-58.0	-61.2	6.2	0.00e+00	0	26	104	28395438080	82	21212
2026-01-12 10:42:40.38	201.95	24.92	-58.0	-61.2	6.2	0.00e+00	0	26	104	28395438080	82	21124
2026-01-12 10:42:41.38	201.96	24.70	-58.0	-61.2	6.2	0.00e+00	0	26	104	28395438080	82	21196
2026-01-12 10:42:42.37	201.97	24.49	-57.9	-61.2	6.2	0.00e+00	0	26	104	28395438080	82	21128
2026-01-12 10:42:43.37	201.98	24.27	-58.0	-61.1	6.2	0.00e+00	0	26	104	28395438080	82	21096
2026-01-12 10:42:44.37	201.99	24.06	-58.0	-61.1	6.2	0.00e+00	0	26	104	28395438080	82	21096
2026-01-12 10:42:45.36	202.00	23.85	-57.9	-61.1	6.2	0.00e+00	0	26	104	28395438080	82	21101
2026-01-12 10:42:46.35	202.01	23.65	-57.9	-61.1	6.2	0.00e+00	0	26	104	28395438080	82	21047
2026-01-12 10:42:47.35	202.02	23.45	-57.9	-61.1	6.2	0.00e+00	0	26	104	28395438080	82	21007
2026-01-12 10:42:48.34	202.03	23.24	-57.9	-61.1	6.2	0.00e+00	0	26	104	28395438080	82	21065
2026-01-12 10:42:49.34	202.04	23.04	-57.9	-61.1	6.2	0.00e+00	0	26	104	28395438080	82	21058
2026-01-12 10:42:50.34	202.05	22.84	-57.9	-61.1	6.2	0.00e+00	0	26	104	28395438080	82	21006
2026-01-12 10:42:51.33	202.06	22.65	-57.9	-61.1	6.2	0.00e+00	0	26	104	28395438080	82	20975
2026-01-12 10:42:52.32	202.07	22.46	-57.9	-61.1	6.2	0.00e+00	0	26	104	28395438080	82	21042
2026-01-12 10:42:53.32	202.08	22.26	-57.9	-61.1	6.2	0.00e+00	0	26	104	28395438080	82	21037
2026-01-12 10:42:54.31	202.09	22.07	-57.9	-61.1	6.2	0.00e+00	0	26	104	28395438080	82	20947
2026-01-12 10:42:55.30	202.10	21.88	-57.9	-61.1	6.2	0.00e+00	0	26	104	28395438080	82	20936
2026-01-12 10:42:56.29	202.11	21.70	-57.9	-61.1	6.2	0.00e+00	0	26	104	28395438080	82	20927
2026-01-12 10:42:57.28	202.11	21.51	-57.9	-61.1	6.2	0.00e+00	0	26	104	28395438080	82	20924
2026-01-12 10:42:58.28	202.12	21.33	-57.9	-61.1	6.2	0.00e+00	0	26	104	28395438080	82	20904
2026-01-12 10:42:59.28	202.13	21.14	-57.8	-61.0	6.2	0.00e+00	0	26	104	28395438080	82	20824
2026-01-12 10:43:00.27	202.14	20.96	-57.9	-61.1	6.2	0.00e+00	0	26	104	28395438080	82	20947
2026-01-12 10:43:01.27	202.15	20.78	-57.9	-61.1	6.2	0.00e+00	0	26	104	28395438080	82	20936
2026-01-12 10:43:02.27	202.16	20.60	-57.9	-61.1	6.2	0.00e+00	0	26	104	28395438080	82	20904
2026-01-12 10:43:03.26	202.17	20.43	-57.8	-61.0	6.2	0.00e+00	0	26	104	28395438080	82	20830
2026-01-12 10:43:04.24	202.17	20.26	-57.8	-61.0	6.2	0.00e+00	0	26	104	28395438080	82	20868
2026-01-12 10:43:05.24	202.18	20.08	-57.8	-61.0	6.2	0.00e+00	0	26	104	28395438080	82	20789
2026-01-12 10:43:06.22	202.19	19.91	-57.8	-61.0	6.2	0.00e+00	0	26	104	28395438080	82	20845
2026-01-12 10:43:07.21	202.20	19.74	-57.8	-61.0	6.2	0.00e+00	0	26	104	28395438080	82	20692
2026-01-12 10:43:08.20	202.21	19.58	-57.8	-61.0	6.2	0.00e+00	0	26	104	28395438080	82	20723
2026-01-12 10:43:09.20	202.21	19.41	-57.8	-61.0	6.2	0.00e+00	0	26	104	28395438080	82	20730
2026-01-12 10:43:10.19	202.22	19.24	-57.8	-61.0	6.2	0.00e+00	0	26	104	28395438080	82	20729
2026-01-12 10:43:11.19	202.23	19.08	-57.8	-61.0	6.2	0.00e+00	0	26	104	28395438080	82	20761
2026-01-12 10:43:12.18	202.24	18.91	-57.8	-61.0	6.2	0.00e+00	0	26	104	28395438080	82	20705
2026-01-12 10:43:13.18	202.25	18.75	-57.8	-61.0	6.2	0.00e+00	0	26	104	28395438080	82	20787
2026-01-12 10:43:14.17	202.25	18.59	-57.8	-61.0	6.2	0.00e+00	0	26	104	28395438080	82	20667
2026-01-12 10:43:15.16	202.26	18.43	-57.8	-61.0	6.2	0.00e+00	0	26	104	28395438080	82	20702
2026-01-12 10:43:16.15	202.27	18.27	-57.8	-61.0	6.2	0.00e+00	0	26	104	28395438080	82	20722
2026-01-12 10:43:17.15	202.28	18.12	-57.8	-60.9	6.2	0.00e+00	0	26	104	28395438080	82	20565
2026-01-12 10:43:18.14	202.28	17.96	-57.8	-60.9	6.2	0.00e+00	0	26	104	28395438080	82	20632
2026-01-12 10:43:19.12	202.29	17.81	-57.7	-60.9	6.2	0.00e+00	0	26	104	28395438080	82	20625
2026-01-12 10:43:20.12	202.30	17.65	-57.8	-61.0	6.2	0.00e+00	0	26	104	28395438080	82	20656
2026-01-12 10:43:21.11	202.31	17.50	-57.8	-61.0	6.2	0.00e+00	0	26	104	28395438080	82	20689
2026-01-12 10:43:22.10	202.31	17.35	-57.8	-61.0	6.2	0.00e+00	0	26	104	28395438080	82	20695
2026-01-12 10:43:23.09	202.32	17.20	-57.7	-60.9	6.2	0.00e+00	0	26	104	28395438080	82	20567
2026-01-12 10:43:24.07	202.33	17.06	-57.7	-60.9	6.2	0.00e+00	0	26	104	28395438080	82	20629
2026-01-12 10:43:25.05	202.34	16.91	-57.7	-60.9	6.2	0.00e+00	0	26	104	28395438080	82	20461
2026-01-12 10:43:26.05	202.34	16.76	-57.7	-60.9	6.2	0.00e+00	0	26	104	28395438080	82	20584
2026-01-12 10:43:27.05	202.35	16.62	-57.7	-60.9	6.2	0.00e+00	0	26	104	28395438080	82	20539
2026-01-12 10:43:28.04	202.36	16.47	-57.7	-60.9	6.2	0.00e+00	0	26	104	28395438080	82	20556
2026-01-12 10:43:29.03	202.37	16.33	-57.7	-60.9	6.2	0.00e+00	0	26	104	28395438080	82	20472
2026-01-12 10:43:30.02	202.37	16.19	-57.7	-60.9	6.2	0.00e+00	0	26	104	28395438080	82	20579
2026-01-12 10:43:31.03	202.38	16.05	-57.7	-60.8	6.2	0.00e+00	0	26	104	28395438080	82	20368
2026-01-12 10:43:32.01	202.39	15.91	-57.7	-60.9	6.2	0.00e+00	0	26	104	28395438080	82	20483
2026-01-12 10:43:33.00	202.39	15.77	-57.7	-60.8	6.2	0.00e+00	0	26	104	28395438080	82	20336
2026-01-12 10:43:34.00	202.40	15.63	-57.7	-60.9	6.2	0.00e+00	0	26	104	28395438080	82	20425
2026-01-12 10:43:34.99	202.41	15.49	-57.7	-60.9	6.2	0.00e+00	0	26	104	28395438080	82	20426
2026-01-12 10:43:35.98	202.41	15.36	-57.7	-60.9	6.2	0.00e+00	0	26	104	28395438080	82	20432
2026-01-12 10:43:36.98	202.42	15.22	-57.7	-60.9	6.2	0.00e+00	0	26	104	28395438080	82	20451
2026-01-12 10:43:37.97	202.43	15.09	-57.7	-60.8	6.2	0.00e+00	0	26	104	28395438080	82	20329
2026-01-12 10:43:38.96	202.43	14.96	-57.6	-60.8	6.2	0.00e+00	0	26	104	28395438080	82	20390
2026-01-12 10:43:39.95	202.44	14.82	-57.6	-60.8	6.2	0.00e+00	0	26	104	28395438080	82	20340
2026-01-12 10:43:40.95	202.45	14.69	-57.6	-60.8	6.2	0.00e+00	0	26	104	28395438080	82	20235
2026-01-12 10:43:41.93	202.45	14.56	-57.7	-60.9	6.2	0.00e+00	0	26	104	28395438080	82	20414
2026-01-12 10:43:42.93	202.46	14.43	-57.6	-60.8	6.2	0.00e+00	0	26	104	28395438080	82	20322
2026-01-12 10:43:43.93	202.47	14.30	-57.6	-60.8	6.2	0.00e+00	0	26	104	28395438080	82	20306
2026-01-12 10:43:44.92	202.47	14.18	-57.6	-60.8	6.2	0.00e+00	0	26	104	28395438080	82	20318
2026-01-12 10:43:45.91	202.48	14.05	-57.6	-60.8	6.2	0.00e+00	0	26	104	28395438080	82	20367
2026-01-12 10:43:46.91	202.49	13.92	-57.6	-60.8	6.2	0.00e+00	0	26	104	28395438080	82	20238
2026-01-12 10:43:47.90	202.49	13.80	-57.6	-60.8	6.2	0.00e+00	0	26	104	28395438080	82	20260
2026-01-12 10:43:48.90	202.50	13.67	-57.6	-60.8	6.2	0.00e+00	0	26	104	28395438080	82	20182
2026-01-12 10:43:49.90	202.51	13.55	-57.6	-60.8	6.2	0.00e+00	0	26	104	28395438080	82	20270
2026-01-12 10:43:50.89	202.51	13.42	-57.6	-60.8	6.2	0.00e+00	0	26	104	28395438080	82	20164
2026-01-12 10:43:51.89	202.52	13.30	-57.6	-60.8	6.2	0.00e+00	0	26	104	28395438080	82	20264
2026-01-12 10:43:52.89	202.53	13.18	-57.5	-60.7	6.2	0.00e+00	0	26	104	28395438080	82	20106
2026-01-12 10:43:53.88	202.53	13.06	-57.6	-60.8	6.2	0.00e+00	0	26	104	28395438080	82	20172
2026-01-12 10:43:54.88	202.54	12.94	-57.5	-60.7	6.2	0.00e+00	0	26	104	28395438080	82	20088
2026-01-12 10:43:55.87	202.55	12.82	-57.5	-60.7	6.2	0.00e+00	0	26	104	28395438080	82	20061
2026-01-12 10:43:56.85	202.55	12.70	-57.5	-60.7	6.2	0.00e+00	0	26	104	28395438080	82	20054
2026-01-12 10:43:57.85	202.56	12.58	-57.5	-60.7	6.2	0.00e+00	0	26	104	28395438080	82	20056
2026-01-12 10:43:58.85	202.56	12.47	-57.5	-60.7	6.2	0.00e+00	0	26	104	28395438080	82	20035
2026-01-12 10:43:59.84	202.57	12.35	-57.5	-60.7	6.2	0.00e+00	0	26	104	28395438080	82	20001
2026-01-12 10:44:00.83	202.58	12.24	-57.5	-60.7	6.2	0.00e+00	0	26	104	28395438080	82	20010
2026-01-12 10:44:01.82	202.58	12.12	-57.5	-60.7	6.2	0.00e+00	0	26	104	28395438080	82	20047
2026-01-12 10:44:02.82	202.59	12.01	-57.5	-60.6	6.2	0.00e+00	0	26	104	28395438080	82	19925
2026-01-12 10:44:03.82	202.60	11.89	-57.5	-60.7	6.2	0.00e+00	0	26	104	28395438080	82	19952
2026-01-12 10:44:04.80	202.60	11.78	-57.4	-60.6	6.2	0.00e+00	0	26	104	28395438080	82	19883
2026-01-12 10:44:05.80	202.61	11.67	-57.5	-60.7	6.2	0.00e+00	0	26	104	28395438080	82	20029
2026-01-12 10:44:06.79	202.61	11.56	-57.5	-60.6	6.2	0.00e+00	0	26	104	28395438080	82	19911
2026-01-12 10:44:07.79	202.62	11.45	-57.5	-60.6	6.2	0.00e+00	0	26	104	28395438080	82	19907
2026-01-12 10:44:08.78	202.63	11.34	-57.4	-60.6	6.2	0.00e+00	0	26	104	28395438080	82	19891
2026-01-12 10:44:09.77	202.63	11.23	-57.5	-60.7	6.2	0.00e+00	0	26	104	28395438080	82	19984
2026-01-12 10:44:10.77	202.64	11.12	-57.4	-60.6	6.2	0.00e+00	0	26	104	28395438080	82	19897
2026-01-12 10:44:11.76	202.64	11.01	-57.5	-60.6	6.2	0.00e+00	0	26	104	28395438080	82	19925
2026-01-12 10:44:12.75	202.65	10.90	-57.4	-60.6	6.2	0.00e+00	0	26	104	28395438080	82	19812
2026-01-12 10:44:13.74	202.65	10.80	-57.5	-60.6	6.2	0.00e+00	0	26	104	28395438080	82	19887
2026-01-12 10:44:14.74	202.66	10.69	-57.4	-60.6	6.2	0.00e+00	0	26	104	28395438080	82	19823
2026-01-12 10:44:15.73	202.67	10.58	-57.4	-60.6	6.2	0.00e+00	0	26	104	28395438080	82	19865
2026-01-12 10:44:16.72	202.67	10.48	-57.4	-60.6	6.2	0.00e+00	0	26	104	28395438080	82	19728
2026-01-12 10:44:17.70	202.68	10.38	-57.4	-60.6	6.2	0.00e+00	0	26	104	28395438080	82	19858
2026-01-12 10:44:18.70	202.68	10.27	-57.4	-60.6	6.2	0.00e+00	0	26	104	28395438080	82	19742
2026-01-12 10:44:19.69	202.69	10.17	-57.3	-60.5	6.2	0.00e+00	0	26	104	28395438080	81	20811
2026-01-12 10:44:20.68	202.70	10.06	-57.3	-60.5	6.2	0.00e+00	0	26	104	28395438080	81	20727
2026-01-12 10:44:21.68	202.70	9.96	-57.3	-60.5	6.2	0.00e+00	0	26	104	28395438080	81	20775
2026-01-12 10:44:22.67	202.71	9.86	-57.3	-60.5	6.2	0.00e+00	0	26	104	28395438080	81	20665
2026-01-12 10:44:23.66	202.71	9.76	-57.3	-60.5	6.2	0.00e+00	0	26	104	28395438080	81	20722
2026-01-12 10:44:24.64	202.72	9.66	-57.2	-60.4	6.2	0.00e+00	0	26	104	28395438080	81	20570
2026-01-12 10:44:25.63	202.72	9.56	-57.3	-60.5	6.2	0.00e+00	0	26	104	28395438080	81	20762
2026-01-12 10:44:26.62	202.73	9.46	-57.3	-60.5	6.2	0.00e+00	0	26	104	28395438080	81	20689
2026-01-12 10:44:27.61	202.73	9.36	-57.3	-60.5	6.2	0.00e+00	0	26	104	28395438080	81	20635
2026-01-12 10:44:28.60	202.74	9.26	-57.2	-60.4	6.2	0.00e+00	0	26	104	28395438080	81	20486
2026-01-12 10:44:29.59	202.75	9.16	-57.3	-60.4	6.2	0.00e+00	0	26	104	28395438080	81	20591
2026-01-12 10:44:30.59	202.75	9.07	-57.2	-60.4	6.2	0.00e+00	0	25	104	28395438080	81	20603
2026-01-12 10:44:31.59	202.76	8.97	-57.2	-60.4	6.2	0.00e+00	0	26	104	28395438080	81	20559
2026-01-12 10:44:32.58	202.76	8.87	-57.2	-60.4	6.2	0.00e+00	0	26	104	28395438080	81	20541
2026-01-12 10:44:33.57	202.77	8.78	-57.3	-60.5	6.2	0.00e+00	0	26	104	28395438080	81	20640
2026-01-12 10:44:34.57	202.77	8.68	-57.2	-60.4	6.2	0.00e+00	0	26	104	28395438080	81	20511
2026-01-12 10:44:35.56	202.78	8.58	-57.2	-60.4	6.2	0.00e+00	0	26	104	28395438080	81	20539
2026-01-12 10:44:36.55	202.78	8.49	-57.2	-60.4	6.2	0.00e+00	0	26	104	28395438080	81	20450
2026-01-12 10:44:37.55	202.79	8.39	-57.2	-60.4	6.2	0.00e+00	0	26	104	28395438080	81	20544
2026-01-12 10:44:38.54	202.80	8.30	-57.2	-60.4	6.2	0.00e+00	0	26	104	28395438080	81	20461
2026-01-12 10:44:39.53	202.80	8.21	-57.2	-60.3	6.2	0.00e+00	0	26	104	28395438080	81	20372
2026-01-12 10:44:40.53	202.81	8.11	-57.1	-60.3	6.2	0.00e+00	0	26	104	28395438080	81	20354
2026-01-12 10:44:41.52	202.81	8.02	-57.2	-60.4	6.2	0.00e+00	0	26	104	28395438080	81	20432
2026-01-12 10:44:42.51	202.82	7.93	-57.1	-60.4	6.2	0.00e+00	0	26	104	28395438080	81	20408
2026-01-12 10:44:43.51	202.82	7.84	-57.1	-60.3	6.2	0.00e+00	0	26	104	28395438080	81	20350
2026-01-12 10:44:44.50	202.83	7.75	-57.1	-60.3	6.2	0.00e+00	0	26	104	28395438080	81	20316
2026-01-12 10:44:45.49	202.83	7.66	-57.1	-60.3	6.2	0.00e+00	0	26	104	28395438080	81	20323
2026-01-12 10:44:46.48	202.84	7.57	-57.1	-60.3	6.2	0.00e+00	0	26	104	28395438080	81	20208
2026-01-12 10:44:47.46	202.84	7.48	-57.1	-60.3	6.2	0.00e+00	0	26	104	28395438080	81	20173
2026-01-12 10:44:48.45	202.85	7.39	-57.0	-60.3	6.2	0.00e+00	0	26	104	28395438080	81	20179
2026-01-12 10:44:49.44	202.85	7.30	-57.1	-60.3	6.2	0.00e+00	0	26	104	28395438080	81	20208
2026-01-12 10:44:50.43	202.86	7.21	-57.1	-60.3	6.2	0.00e+00	0	26	104	28395438080	81	20238
2026-01-12 10:44:51.43	202.86	7.12	-57.0	-60.2	6.2	0.00e+00	0	26	104	28395438080	81	20137
2026-01-12 10:44:52.42	202.87	7.03	-57.0	-60.2	6.2	0.00e+00	0	26	104	28395438080	81	20101
2026-01-12 10:44:53.41	202.87	6.95	-57.0	-60.2	6.2	0.00e+00	0	26	104	28395438080	81	20111
2026-01-12 10:44:54.40	202.88	6.86	-57.1	-60.2	6.2	0.00e+00	0	26	104	28395438080	81	20124
2026-01-12 10:44:55.39	202.89	6.77	-57.0	-60.2	6.2	0.00e+00	0	26	104	28395438080	81	20078
2026-01-12 10:44:56.39	202.89	6.69	-57.0	-60.2	6.2	0.00e+00	0	26	104	28395438080	81	19967
2026-01-12 10:44:57.38	202.90	6.60	-57.0	-60.2	6.2	0.00e+00	0	26	104	28395438080	81	19956
2026-01-12 10:44:58.37	202.90	6.51	-57.0	-60.2	6.2	0.00e+00	0	26	104	28395438080	81	20031
2026-01-12 10:44:59.36	202.91	6.43	-56.9	-60.1	6.2	0.00e+00	0	26	104	28395438080	81	19922
2026-01-12 10:45:00.36	202.91	6.34	-56.9	-60.1	6.2	0.00e+00	0	26	104	28395438080	81	19780
2026-01-12 10:45:01.35	202.92	6.26	-56.8	-60.0	6.2	0.00e+00	0	26	104	28395438080	80	20816
2026-01-12 10:45:02.35	202.92	6.17	-56.9	-60.1	6.2	0.00e+00	0	26	104	28395438080	80	20958
2026-01-12 10:45:03.34	202.93	6.09	-56.8	-60.0	6.2	0.00e+00	0	26	104	28395438080	80	20868
2026-01-12 10:45:04.34	202.93	6.01	-56.8	-60.0	6.2	0.00e+00	0	26	104	28395438080	80	20763
2026-01-12 10:45:05.33	202.94	5.92	-56.8	-60.0	6.2	0.00e+00	0	26	104	28395438080	80	20695
2026-01-12 10:45:06.32	202.94	5.84	-56.9	-60.1	6.2	0.00e+00	0	26	104	28395438080	80	20911
2026-01-12 10:45:07.31	202.95	5.76	-56.8	-60.0	6.2	0.00e+00	0	26	104	28395438080	80	20766
2026-01-12 10:45:08.31	202.95	5.68	-56.8	-60.0	6.2	0.00e+00	0	26	104	28395438080	80	20745
2026-01-12 10:45:09.30	202.96	5.59	-56.8	-60.0	6.2	0.00e+00	0	26	104	28395438080	80	20669
2026-01-12 10:45:10.29	202.96	5.51	-56.8	-60.0	6.2	0.00e+00	0	26	104	28395438080	80	20841
2026-01-12 10:45:11.28	202.97	5.43	-56.7	-60.0	6.2	0.00e+00	0	26	104	28395438080	80	20645
2026-01-12 10:45:12.28	202.97	5.35	-56.7	-59.9	6.2	0.00e+00	0	26	104	28395438080	80	20550
2026-01-12 10:45:13.26	202.98	5.27	-56.7	-59.9	6.2	0.00e+00	0	26	104	28395438080	80	20408
2026-01-12 10:45:14.26	202.98	5.19	-56.8	-60.0	6.2	0.00e+00	0	26	104	28395438080	80	20701
2026-01-12 10:45:15.26	202.99	5.11	-56.7	-59.9	6.2	0.00e+00	0	26	104	28395438080	80	20430
2026-01-12 10:45:16.25	202.99	5.03	-56.7	-59.9	6.2	0.00e+00	0	26	104	28395438080	80	20514
2026-01-12 10:45:17.24	203.00	4.95	-57.1	-60.3	6.2	0.00e+00	0	26	104	28395438080	80	21414
2026-01-12 10:45:18.24	203.00	4.87	-57.4	-60.6	6.2	0.00e+00	0	26	104	28395438080	80	22342
2026-01-12 10:45:19.23	203.01	4.79	-57.7	-60.9	6.2	0.00e+00	0	26	104	28395438080	81	21634
2026-01-12 10:45:20.24	203.01	4.71	-57.8	-61.0	6.2	0.00e+00	0	26	104	28395438080	81	22078
2026-01-12 10:45:21.24	203.02	4.63	-58.0	-61.2	6.2	0.00e+00	0	26	104	28395438080	81	22495
2026-01-12 10:45:22.23	203.02	4.56	-58.1	-61.3	6.2	0.00e+00	0	26	104	28395438080	81	22639
2026-01-12 10:45:23.23	203.03	4.48	-58.2	-61.4	6.2	0.00e+00	0	26	104	28395438080	82	21778
2026-01-12 10:45:24.22	203.03	4.40	-58.3	-61.5	6.2	0.00e+00	0	26	104	28395438080	82	22037
2026-01-12 10:45:25.22	203.04	4.32	-58.4	-61.6	6.2	0.00e+00	0	26	104	28395438080	82	22200
2026-01-12 10:45:26.21	203.04	4.25	-58.5	-61.7	6.2	0.00e+00	0	26	104	28395438080	82	22425
2026-01-12 10:45:27.21	203.05	4.17	-58.5	-61.7	6.2	0.00e+00	0	26	104	28395438080	82	22543
2026-01-12 10:45:28.21	203.05	4.09	-58.5	-61.7	6.2	0.00e+00	0	26	104	28395438080	82	22598
2026-01-12 10:45:29.21	203.06	4.02	-58.5	-61.7	6.2	0.00e+00	0	26	104	28395438080	82	22580
2026-01-12 10:45:30.20	203.06	3.94	-58.5	-61.7	6.2	0.00e+00	0	26	104	28395438080	82	22475
2026-01-12 10:45:31.19	203.07	3.87	-58.5	-61.7	6.2	0.00e+00	0	26	104	28395438080	82	22515
2026-01-12 10:45:32.18	203.07	3.79	-58.5	-61.7	6.2	0.00e+00	0	26	104	28395438080	82	22517
2026-01-12 10:45:33.17	203.07	3.72	-58.5	-61.7	6.2	0.00e+00	0	26	104	28395438080	82	22510
2026-01-12 10:45:34.16	203.08	3.64	-58.6	-61.8	6.2	0.00e+00	0	26	104	28395438080	82	22682
2026-01-12 10:45:35.17	203.08	3.57	-58.6	-61.8	6.2	0.00e+00	0	26	104	28395438080	82	22727
2026-01-12 10:45:36.17	203.09	3.49	-58.6	-61.8	6.2	0.00e+00	0	26	104	28395438080	82	22785
2026-01-12 10:45:37.17	203.09	3.42	-58.7	-61.9	6.2	0.00e+00	0	26	104	28395438080	83	21677
2026-01-12 10:45:38.16	203.10	3.35	-58.7	-61.9	6.2	0.00e+00	0	26	104	28395438080	83	21788
2026-01-12 10:45:39.16	203.10	3.27	-58.7	-61.9	6.2	0.00e+00	0	26	104	28395438080	83	21777
2026-01-12 10:45:40.16	203.11	3.20	-58.8	-62.0	6.2	0.00e+00	0	26	104	28395438080	83	21885
2026-01-12 10:45:41.16	203.11	3.13	-58.8	-61.9	6.2	0.00e+00	0	26	104	28395438080	83	21842
2026-01-12 10:45:42.16	203.12	3.05	-58.8	-62.0	6.2	0.00e+00	0	26	104	28395438080	83	22041
2026-01-12 10:45:43.14	203.12	2.98	-58.8	-62.1	6.2	0.00e+00	0	26	104	28395438080	83	22134
2026-01-12 10:45:44.14	203.13	2.91	-58.9	-62.0	6.2	0.00e+00	0	26	104	28395438080	83	22086
2026-01-12 10:45:45.13	203.13	2.84	-58.9	-62.1	6.2	0.00e+00	0	26	104	28395438080	83	22206
2026-01-12 10:45:46.12	203.14	2.77	-58.9	-62.1	6.2	0.00e+00	0	26	104	28395438080	83	22154
2026-01-12 10:45:47.11	203.14	2.70	-58.8	-62.0	6.2	0.00e+00	0	26	104	28395438080	83	22076
2026-01-12 10:45:48.10	203.15	2.62	-58.8	-62.0	6.2	0.00e+00	0	26	104	28395438080	83	22058
2026-01-12 10:45:49.08	203.15	2.55	-58.8	-62.0	6.2	0.00e+00	0	26	104	28395438080	83	22099
2026-01-12 10:45:50.07	203.15	2.48	-58.8	-62.0	6.2	0.00e+00	0	26	104	28395438080	83	22072
2026-01-12 10:45:51.06	203.16	2.41	-58.8	-62.1	6.2	0.00e+00	0	26	104	28395438080	83	22123
2026-01-12 10:45:52.06	203.16	2.34	-58.9	-62.1	6.2	0.00e+00	0	26	104	28395438080	83	22279
2026-01-12 10:45:53.06	203.17	2.27	-58.9	-62.1	6.2	0.00e+00	0	26	104	28395438080	83	22148
2026-01-12 10:45:54.06	203.17	2.20	-58.8	-62.0	6.2	0.00e+00	0	26	104	28395438080	83	22025
2026-01-12 10:45:55.04	203.18	2.13	-58.8	-62.0	6.2	0.00e+00	0	26	104	28395438080	83	22018
2026-01-12 10:45:56.03	203.18	2.07	-58.8	-62.0	6.2	0.00e+00	0	26	104	28395438080	83	22032
2026-01-12 10:45:57.02	203.19	2.00	-58.8	-62.0	6.2	0.00e+00	0	26	104	28395438080	83	21978
2026-01-12 10:45:58.01	203.19	1.93	-58.8	-62.0	6.2	0.00e+00	0	26	104	28395438080	83	21914
2026-01-12 10:45:58.99	203.20	1.86	-58.8	-62.0	6.2	0.00e+00	0	26	104	28395438080	83	21934

#Closed at: 2026-01-12 10:45:59
#Recorded file [28395 MB]: D:/lorett/data/31004_260112_133500.dat