passes_logs/2026/01/12/R3.2S_Murmansk/R3.2S_Murmansk__20260112_052653_SUOMI_NPP_rec.log

#Pass ID: 20260112_052653_SUOMI NPP
#Satellite: SUOMI NPP
#Configuration: NPP
#almurnet v.1.7.20251203
#Start time: 2026-01-12 05:26:55

#Version: 2.2.20231116
#Station: R3.2S_Murmansk
#Location: 33.079688 lon 68.888172 lat
#TLE: 1 37849U 11061A   26011.57971124  .00000103  00000+0  69927-4 0  9996
#TLE: 2 37849  98.7807 313.6578 0002518  69.5076 290.6370 14.19524515736228

#Time	Az	El	Level	Level2	SNR	BER	BlckErr	Temp	State	Recorded	gain1	gain2
2026-01-12 05:26:55.81	65.27	2.12	-53.8	-70.0	3.8	1.49e+00	0	20	0	0	72	25037
2026-01-12 05:26:56.81	65.21	2.18	-53.9	-70.0	3.8	1.49e+00	0	20	104	0	72	25069
2026-01-12 05:26:57.81	65.14	2.24	-53.8	-70.0	3.8	1.49e+00	0	20	104	0	72	25075
2026-01-12 05:26:58.82	65.08	2.30	-53.8	-70.0	3.8	1.49e+00	0	21	104	0	72	25091
2026-01-12 05:26:59.83	65.01	2.35	-53.8	-70.0	3.8	1.49e+00	0	20	104	0	72	25061
2026-01-12 05:27:00.84	64.95	2.41	-53.9	-70.0	3.8	1.49e+00	0	21	104	0	72	25156
2026-01-12 05:27:01.85	64.88	2.47	-53.9	-70.0	3.8	1.49e+00	0	21	104	0	72	25076
2026-01-12 05:27:02.86	64.81	2.53	-53.9	-70.0	3.8	1.49e+00	0	21	104	0	72	25131
2026-01-12 05:27:03.86	64.75	2.58	-53.9	-70.0	3.8	1.49e+00	0	21	104	0	72	25099
2026-01-12 05:27:04.87	64.68	2.64	-53.9	-70.0	3.9	1.49e+00	0	21	104	0	72	25113
2026-01-12 05:27:05.88	64.61	2.70	-54.0	-70.1	3.8	1.49e+00	0	21	104	0	73	23860
2026-01-12 05:27:06.89	64.54	2.76	-54.0	-70.1	3.8	1.49e+00	0	21	104	0	73	23863
2026-01-12 05:27:07.90	64.48	2.82	-54.0	-70.1	3.8	1.49e+00	0	21	104	0	73	23906
2026-01-12 05:27:08.91	64.41	2.88	-53.9	-70.0	3.8	1.49e+00	0	21	104	0	73	23811
2026-01-12 05:27:09.92	64.34	2.93	-53.9	-70.1	3.8	1.49e+00	0	21	104	0	73	23855
2026-01-12 05:27:10.93	64.27	2.99	-53.9	-70.1	3.8	1.49e+00	0	21	104	0	73	23906
2026-01-12 05:27:11.94	64.20	3.05	-53.9	-70.1	3.8	1.49e+00	0	21	104	0	73	23883
2026-01-12 05:27:12.95	64.13	3.11	-53.9	-70.1	3.8	1.49e+00	0	21	104	0	73	23874
2026-01-12 05:27:13.96	64.06	3.17	-53.9	-70.1	3.8	1.49e+00	0	21	104	0	73	23909
2026-01-12 05:27:14.96	63.99	3.23	-53.9	-70.1	3.8	1.49e+00	0	21	104	0	73	23914
2026-01-12 05:27:15.97	63.92	3.29	-54.0	-70.1	3.8	1.49e+00	0	21	104	0	73	23911
2026-01-12 05:27:16.98	63.85	3.35	-53.9	-70.1	3.8	1.49e+00	0	21	104	0	73	23891
2026-01-12 05:27:18.00	63.78	3.41	-54.0	-70.1	3.8	1.49e+00	0	21	104	0	73	23940
2026-01-12 05:27:19.01	63.71	3.46	-54.0	-70.1	3.8	1.49e+00	0	21	104	0	73	23960
2026-01-12 05:27:20.02	63.64	3.52	-53.9	-70.1	3.8	1.49e+00	0	21	104	0	73	23958
2026-01-12 05:27:21.03	63.57	3.58	-53.9	-70.1	3.8	1.49e+00	0	21	104	0	73	23906
2026-01-12 05:27:22.04	63.50	3.64	-53.9	-70.1	3.8	1.49e+00	0	21	104	0	73	23989
2026-01-12 05:27:23.05	63.42	3.70	-53.9	-70.1	3.8	1.49e+00	0	21	104	0	73	24031
2026-01-12 05:27:24.05	63.35	3.76	-53.9	-70.1	3.8	1.49e+00	0	21	104	0	73	23929
2026-01-12 05:27:25.06	63.28	3.82	-53.9	-70.1	3.8	1.49e+00	0	21	104	0	73	23953
2026-01-12 05:27:26.07	63.21	3.88	-53.9	-70.1	3.8	1.49e+00	0	21	104	0	73	23861
2026-01-12 05:27:27.08	63.13	3.94	-53.9	-70.1	3.8	1.49e+00	0	21	104	0	73	23927
2026-01-12 05:27:28.09	63.06	4.00	-53.9	-70.1	3.8	1.49e+00	0	21	104	0	73	23939
2026-01-12 05:27:29.10	62.98	4.06	-54.0	-70.1	3.8	1.49e+00	0	21	104	0	73	23957
2026-01-12 05:27:30.10	62.91	4.12	-54.0	-70.1	3.8	1.49e+00	0	21	104	0	73	23966
2026-01-12 05:27:31.12	62.83	4.18	-54.0	-70.1	3.8	1.49e+00	0	21	104	0	73	23967
2026-01-12 05:27:32.12	62.76	4.24	-54.0	-70.1	3.8	1.49e+00	0	21	104	0	73	24006
2026-01-12 05:27:33.13	62.68	4.30	-54.0	-70.1	3.8	1.49e+00	0	21	104	0	73	24002
2026-01-12 05:27:34.15	62.61	4.36	-54.0	-70.1	3.8	1.49e+00	0	21	104	0	73	23957
2026-01-12 05:27:35.15	62.53	4.42	-54.0	-70.1	3.8	1.49e+00	0	21	104	0	73	23984
2026-01-12 05:27:36.16	62.46	4.48	-54.0	-70.1	3.8	1.49e+00	0	21	104	0	73	23944
2026-01-12 05:27:37.17	62.38	4.55	-53.9	-70.1	3.8	1.49e+00	0	21	104	0	73	23942
2026-01-12 05:27:38.17	62.30	4.61	-54.0	-70.1	3.8	1.49e+00	0	21	104	0	73	23915
2026-01-12 05:27:39.18	62.23	4.67	-53.9	-70.1	3.8	1.49e+00	0	21	104	0	73	23888
2026-01-12 05:27:40.19	62.15	4.73	-54.0	-70.1	3.8	1.49e+00	0	21	104	0	73	23946
2026-01-12 05:27:41.20	62.07	4.79	-54.0	-70.1	3.8	1.49e+00	0	21	104	0	73	23992
2026-01-12 05:27:42.21	61.99	4.85	-54.0	-70.1	3.8	1.49e+00	0	21	104	0	73	23924
2026-01-12 05:27:43.22	61.91	4.91	-54.0	-70.1	3.8	1.49e+00	0	21	104	0	73	23934
2026-01-12 05:27:44.22	61.83	4.97	-54.0	-70.1	3.8	1.49e+00	0	21	104	0	73	23976
2026-01-12 05:27:45.23	61.75	5.03	-54.0	-70.1	3.8	1.49e+00	0	22	104	0	73	23975
2026-01-12 05:27:46.24	61.67	5.10	-54.0	-70.1	3.8	1.49e+00	0	22	104	0	73	23958
2026-01-12 05:27:47.25	61.59	5.16	-54.0	-70.1	3.8	1.49e+00	0	22	104	0	73	23953
2026-01-12 05:27:48.26	61.51	5.22	-54.0	-70.1	3.8	1.49e+00	0	22	104	0	73	23971
2026-01-12 05:27:49.27	61.43	5.28	-54.0	-70.1	3.8	1.49e+00	0	22	104	0	73	24023
2026-01-12 05:27:50.28	61.35	5.34	-53.9	-70.1	3.8	1.49e+00	0	22	104	0	73	23966
2026-01-12 05:27:51.29	61.27	5.40	-54.0	-70.1	3.8	1.49e+00	0	22	104	0	73	24002
2026-01-12 05:27:52.29	61.19	5.47	-53.9	-70.1	3.8	1.49e+00	0	22	104	0	73	23968
2026-01-12 05:27:53.30	61.11	5.53	-54.0	-70.1	3.8	1.49e+00	0	22	104	0	73	23983
2026-01-12 05:27:54.30	61.02	5.59	-53.9	-70.1	3.8	1.49e+00	0	22	104	0	73	23956
2026-01-12 05:27:55.31	60.94	5.65	-54.0	-70.1	3.8	1.49e+00	0	22	104	0	73	23943
2026-01-12 05:27:56.32	60.86	5.72	-54.0	-70.1	3.8	1.49e+00	0	22	104	0	73	23954
2026-01-12 05:27:57.32	60.77	5.78	-54.0	-70.1	3.8	1.49e+00	0	22	104	0	73	24038
2026-01-12 05:27:58.33	60.69	5.84	-54.0	-70.1	3.8	1.49e+00	0	22	104	0	73	23956
2026-01-12 05:27:59.33	60.61	5.90	-54.0	-70.1	3.8	1.49e+00	0	22	104	0	73	24036
2026-01-12 05:28:00.34	60.52	5.97	-54.0	-70.1	3.8	1.49e+00	0	22	104	0	73	23990
2026-01-12 05:28:01.36	60.43	6.03	-54.0	-70.1	3.8	1.49e+00	0	22	104	0	73	23994
2026-01-12 05:28:02.37	60.35	6.09	-54.0	-70.1	3.8	1.49e+00	0	22	104	0	73	23940
2026-01-12 05:28:03.38	60.26	6.15	-54.0	-70.1	3.8	1.49e+00	0	22	104	0	73	23957
2026-01-12 05:28:04.39	60.18	6.22	-54.0	-70.1	3.8	1.49e+00	0	22	104	0	73	24007
2026-01-12 05:28:05.40	60.09	6.28	-54.0	-70.1	3.8	1.49e+00	0	22	104	0	73	24065
2026-01-12 05:28:06.41	60.00	6.34	-54.0	-70.1	3.8	1.49e+00	0	22	104	0	73	23988
2026-01-12 05:28:07.42	59.91	6.41	-54.0	-70.1	3.8	1.49e+00	0	22	104	0	73	24037
2026-01-12 05:28:08.43	59.83	6.47	-54.0	-70.1	3.8	1.49e+00	0	22	104	0	73	23959
2026-01-12 05:28:09.44	59.74	6.54	-54.0	-70.1	3.8	1.49e+00	0	22	104	0	73	24076
2026-01-12 05:28:10.44	59.65	6.60	-54.0	-70.1	3.8	1.49e+00	0	22	104	0	73	23993
2026-01-12 05:28:11.45	59.56	6.66	-54.0	-70.1	3.8	1.49e+00	0	22	104	0	73	24014
2026-01-12 05:28:12.46	59.47	6.73	-54.0	-70.1	3.8	1.49e+00	0	22	104	0	73	24068
2026-01-12 05:28:13.47	59.38	6.79	-54.0	-70.1	3.8	1.49e+00	0	22	104	0	73	24024
2026-01-12 05:28:14.48	59.29	6.86	-54.0	-70.1	3.8	1.49e+00	0	22	104	0	73	24110
2026-01-12 05:28:15.48	59.20	6.92	-54.0	-70.1	3.8	1.49e+00	0	22	104	0	73	24038
2026-01-12 05:28:16.49	59.11	6.98	-54.0	-70.1	3.8	1.49e+00	0	22	104	0	73	24046
2026-01-12 05:28:17.50	59.02	7.05	-54.0	-70.1	3.8	1.49e+00	0	22	104	0	73	24009
2026-01-12 05:28:18.51	58.92	7.11	-54.0	-70.1	3.8	1.49e+00	0	22	104	0	73	24063
2026-01-12 05:28:19.52	58.83	7.18	-54.0	-70.1	3.8	1.49e+00	0	22	104	0	73	24102
2026-01-12 05:28:20.53	58.74	7.24	-54.0	-70.1	3.8	1.49e+00	0	22	104	0	73	24103
2026-01-12 05:28:21.54	58.65	7.31	-54.0	-70.1	3.8	1.49e+00	0	22	104	0	73	23995
2026-01-12 05:28:22.55	58.55	7.37	-54.0	-70.1	3.8	1.49e+00	0	22	104	0	73	24054
2026-01-12 05:28:23.56	58.46	7.44	-54.0	-70.1	3.8	1.49e+00	0	22	104	0	73	24026
2026-01-12 05:28:24.57	58.36	7.50	-54.0	-70.1	3.8	1.49e+00	0	22	104	0	73	24031
2026-01-12 05:28:25.58	58.27	7.57	-54.0	-70.1	3.8	1.49e+00	0	22	104	0	73	24033
2026-01-12 05:28:26.59	58.17	7.63	-54.0	-70.1	3.8	1.49e+00	0	22	104	0	73	24019
2026-01-12 05:28:27.60	58.07	7.70	-54.0	-70.1	3.8	1.49e+00	0	22	104	0	73	24002
2026-01-12 05:28:28.60	57.98	7.76	-54.0	-70.1	3.8	1.49e+00	0	22	104	0	73	24103
2026-01-12 05:28:29.61	57.88	7.83	-54.0	-70.1	3.8	1.49e+00	0	22	104	0	73	24058
2026-01-12 05:28:30.62	57.78	7.89	-54.0	-70.1	3.8	1.49e+00	0	22	104	0	73	24043
2026-01-12 05:28:31.63	57.69	7.96	-54.0	-70.1	3.8	1.49e+00	0	22	104	0	73	24003
2026-01-12 05:28:32.64	57.59	8.02	-54.0	-70.1	3.8	1.49e+00	0	22	104	0	73	24081
2026-01-12 05:28:33.65	57.49	8.09	-54.0	-70.1	3.8	1.49e+00	0	22	104	0	73	24076
2026-01-12 05:28:34.66	57.39	8.16	-54.0	-70.1	3.8	1.49e+00	0	22	104	0	73	24099
2026-01-12 05:28:35.67	57.29	8.22	-54.0	-70.1	3.8	1.49e+00	0	22	104	0	73	24094
2026-01-12 05:28:36.68	57.19	8.29	-54.0	-70.1	3.8	1.49e+00	0	22	104	0	73	24042
2026-01-12 05:28:37.68	57.09	8.35	-54.0	-70.1	3.8	1.49e+00	0	22	104	0	73	24074
2026-01-12 05:28:38.69	56.99	8.42	-54.0	-70.1	3.8	1.49e+00	0	22	104	0	73	24029
2026-01-12 05:28:39.70	56.89	8.49	-54.0	-70.1	3.8	1.49e+00	0	22	104	0	73	24014
2026-01-12 05:28:40.71	56.79	8.55	-54.0	-70.1	3.8	1.49e+00	0	22	104	0	73	24125
2026-01-12 05:28:41.72	56.68	8.62	-54.0	-70.1	3.8	1.49e+00	0	22	104	0	73	24062
2026-01-12 05:28:42.73	56.58	8.69	-54.0	-70.1	3.8	1.49e+00	0	22	104	0	73	24052
2026-01-12 05:28:43.74	56.48	8.75	-54.0	-70.1	3.8	1.49e+00	0	22	104	0	73	24080
2026-01-12 05:28:44.74	56.37	8.82	-54.0	-70.1	3.8	1.49e+00	0	22	104	0	73	24107
2026-01-12 05:28:45.76	56.27	8.89	-54.0	-70.1	3.8	1.49e+00	0	22	104	0	73	24008
2026-01-12 05:28:46.77	56.16	8.95	-54.0	-70.1	3.8	1.49e+00	0	22	104	0	73	24094
2026-01-12 05:28:47.78	56.06	9.02	-54.0	-70.1	3.8	1.49e+00	0	22	104	0	73	24056
2026-01-12 05:28:48.79	55.95	9.09	-54.0	-70.1	3.8	1.49e+00	0	22	104	0	73	24075
2026-01-12 05:28:49.79	55.85	9.15	-54.0	-70.1	3.8	1.49e+00	0	22	104	0	73	24048
2026-01-12 05:28:50.80	55.74	9.22	-54.0	-70.1	3.8	1.49e+00	0	22	104	0	73	24063
2026-01-12 05:28:51.81	55.63	9.29	-54.0	-70.1	3.8	1.49e+00	0	22	104	0	73	24074
2026-01-12 05:28:52.82	55.52	9.36	-54.0	-70.1	3.8	1.49e+00	0	22	104	0	73	24084
2026-01-12 05:28:53.83	55.41	9.42	-54.0	-70.1	3.8	1.49e+00	0	22	104	0	73	24117
2026-01-12 05:28:54.84	55.30	9.49	-54.0	-70.1	3.8	1.49e+00	0	22	104	0	73	24059
2026-01-12 05:28:55.84	55.20	9.56	-54.0	-70.1	3.8	1.49e+00	0	22	104	0	73	24046
2026-01-12 05:28:56.86	55.08	9.63	-54.0	-70.1	3.8	1.49e+00	0	22	104	0	73	24058
2026-01-12 05:28:57.86	54.97	9.69	-54.0	-70.1	3.8	1.49e+00	0	22	104	0	73	23943
2026-01-12 05:28:58.88	54.86	9.76	-54.0	-70.1	3.8	1.49e+00	0	22	104	0	73	24069
2026-01-12 05:28:59.88	54.75	9.83	-54.0	-70.1	3.8	1.49e+00	0	22	104	0	73	24089
2026-01-12 05:29:00.89	54.64	9.90	-54.0	-70.1	3.8	1.49e+00	0	22	104	0	73	24104
2026-01-12 05:29:01.90	54.53	9.97	-54.0	-70.1	3.8	1.49e+00	0	22	104	0	73	24073
2026-01-12 05:29:02.91	54.41	10.04	-54.0	-70.1	3.8	1.49e+00	0	22	104	0	73	24025
2026-01-12 05:29:03.91	54.30	10.10	-54.0	-70.1	3.8	1.49e+00	0	22	104	0	73	24054
2026-01-12 05:29:04.92	54.19	10.17	-54.0	-70.1	3.8	1.49e+00	0	22	104	0	73	24000
2026-01-12 05:29:05.93	54.07	10.24	-54.0	-70.1	3.8	1.49e+00	0	22	104	0	73	24094
2026-01-12 05:29:06.94	53.96	10.31	-54.0	-70.1	3.8	1.49e+00	0	22	104	0	73	24045
2026-01-12 05:29:07.96	53.84	10.38	-54.0	-70.2	3.8	1.49e+00	0	22	104	0	73	24138
2026-01-12 05:29:08.96	53.72	10.45	-54.0	-70.2	3.8	1.49e+00	0	22	104	0	73	24169
2026-01-12 05:29:09.97	53.61	10.51	-54.0	-70.1	3.8	1.49e+00	0	22	104	0	73	24114
2026-01-12 05:29:10.98	53.49	10.58	-54.0	-70.1	3.8	1.49e+00	0	22	104	0	73	24120
2026-01-12 05:29:11.99	53.37	10.65	-54.0	-70.1	3.8	1.49e+00	0	22	104	0	73	24065
2026-01-12 05:29:13.00	53.25	10.72	-54.0	-70.1	3.8	1.49e+00	0	22	104	0	73	24003
2026-01-12 05:29:14.01	53.13	10.79	-54.0	-70.1	3.8	1.49e+00	0	22	104	0	73	24075
2026-01-12 05:29:15.02	53.01	10.86	-54.0	-70.1	3.8	1.49e+00	0	22	104	0	73	24033
2026-01-12 05:29:16.02	52.89	10.93	-54.0	-70.1	3.8	1.49e+00	0	22	104	0	73	24069
2026-01-12 05:29:17.03	52.77	11.00	-54.1	-70.1	3.8	1.49e+00	0	22	104	0	73	24034
2026-01-12 05:29:18.04	52.65	11.07	-54.0	-70.1	3.8	1.49e+00	0	22	104	0	73	24106
2026-01-12 05:29:19.05	52.52	11.14	-54.0	-70.1	3.8	1.49e+00	0	22	104	0	73	24056
2026-01-12 05:29:20.06	52.40	11.21	-54.0	-70.1	3.8	1.49e+00	0	22	104	0	73	24120
2026-01-12 05:29:21.06	52.28	11.28	-54.0	-70.1	3.8	1.49e+00	0	22	104	0	73	24042
2026-01-12 05:29:22.07	52.15	11.34	-54.0	-70.1	3.8	1.49e+00	0	22	104	0	73	24093
2026-01-12 05:29:23.08	52.03	11.41	-54.0	-70.1	3.8	1.49e+00	0	22	104	0	73	24005
2026-01-12 05:29:24.09	51.90	11.48	-54.0	-70.1	3.8	1.49e+00	0	22	104	0	73	24060
2026-01-12 05:29:25.10	51.78	11.55	-54.0	-70.1	3.8	1.49e+00	0	22	104	0	73	24064
2026-01-12 05:29:26.11	51.65	11.62	-54.0	-70.2	3.8	1.49e+00	0	23	104	0	73	24137
2026-01-12 05:29:27.12	51.52	11.69	-54.0	-70.1	3.8	1.49e+00	0	22	104	0	73	24081
2026-01-12 05:29:28.13	51.40	11.76	-54.0	-70.2	3.8	1.49e+00	0	22	104	0	73	24150
2026-01-12 05:29:29.14	51.27	11.83	-54.0	-70.1	3.8	1.49e+00	0	22	104	0	73	24102
2026-01-12 05:29:30.15	51.14	11.90	-54.0	-70.1	3.8	1.49e+00	0	22	104	0	73	24087
2026-01-12 05:29:31.16	51.01	11.97	-54.0	-70.1	3.8	1.49e+00	0	22	104	0	73	24108
2026-01-12 05:29:32.17	50.88	12.04	-54.0	-70.1	3.8	1.49e+00	0	22	104	0	73	24115
2026-01-12 05:29:33.18	50.75	12.12	-54.0	-70.1	3.8	1.49e+00	0	22	104	0	73	24053
2026-01-12 05:29:34.19	50.61	12.19	-54.0	-70.1	3.8	1.49e+00	0	22	104	0	73	24118
2026-01-12 05:29:35.20	50.48	12.26	-54.0	-70.2	3.8	1.49e+00	0	22	104	0	73	24141
2026-01-12 05:29:36.20	50.35	12.33	-54.0	-70.1	3.8	1.49e+00	0	22	104	0	73	24106
2026-01-12 05:29:37.21	50.22	12.40	-54.0	-70.2	3.8	1.49e+00	0	22	104	0	73	24230
2026-01-12 05:29:38.23	50.08	12.47	-54.0	-70.2	3.8	1.49e+00	0	22	104	0	73	24194
2026-01-12 05:29:39.24	49.95	12.54	-54.0	-70.2	3.8	1.49e+00	0	22	104	0	73	24169
2026-01-12 05:29:40.25	49.81	12.61	-54.1	-70.2	3.8	1.49e+00	0	22	104	0	73	24175
2026-01-12 05:29:41.26	49.67	12.68	-54.0	-70.2	3.8	1.49e+00	0	22	104	0	73	24155
2026-01-12 05:29:42.27	49.54	12.75	-54.0	-70.2	3.8	1.49e+00	0	22	104	0	73	24135
2026-01-12 05:29:43.28	49.40	12.82	-54.0	-70.2	3.8	1.49e+00	0	23	104	0	73	24209
2026-01-12 05:29:44.29	49.26	12.89	-54.0	-70.1	3.8	1.49e+00	0	22	104	0	73	24116
2026-01-12 05:29:45.29	49.12	12.96	-54.0	-70.2	3.8	1.49e+00	0	22	104	0	73	24183
2026-01-12 05:29:46.30	48.98	13.03	-54.0	-70.2	3.8	1.49e+00	0	22	104	0	73	24231
2026-01-12 05:29:47.31	48.84	13.10	-54.0	-70.2	3.8	1.49e+00	0	22	104	0	73	24185
2026-01-12 05:29:48.31	48.70	13.17	-54.0	-70.2	3.8	1.49e+00	0	23	104	0	73	24164
2026-01-12 05:29:49.32	48.56	13.25	-54.0	-70.1	3.8	1.49e+00	0	22	104	0	73	24089
2026-01-12 05:29:50.33	48.42	13.32	-54.0	-70.1	3.8	1.49e+00	0	22	104	0	73	24109
2026-01-12 05:29:51.34	48.28	13.39	-54.0	-70.2	3.8	1.49e+00	0	22	104	0	73	24171
2026-01-12 05:29:52.35	48.13	13.46	-54.0	-70.2	3.8	1.49e+00	0	23	104	0	73	24187
2026-01-12 05:29:53.36	47.99	13.53	-54.1	-70.2	3.8	1.49e+00	0	23	104	0	73	24155
2026-01-12 05:29:54.37	47.84	13.60	-54.1	-70.2	3.8	1.49e+00	0	23	104	0	73	24194
2026-01-12 05:29:55.37	47.70	13.67	-54.1	-70.2	3.8	1.49e+00	0	22	104	0	73	24161
2026-01-12 05:29:56.38	47.55	13.74	-54.1	-70.2	3.8	1.49e+00	0	22	104	0	73	24156
2026-01-12 05:29:57.39	47.40	13.81	-54.1	-70.2	3.8	1.49e+00	0	22	104	0	73	24150
2026-01-12 05:29:58.40	47.25	13.88	-54.1	-70.2	3.8	1.49e+00	0	22	104	0	73	24187
2026-01-12 05:29:59.41	47.11	13.96	-54.0	-70.2	3.8	1.49e+00	0	23	104	0	73	24146
2026-01-12 05:30:00.42	46.96	14.03	-54.0	-70.2	3.8	1.49e+00	0	22	104	0	73	24159
2026-01-12 05:30:01.43	46.81	14.10	-54.0	-70.2	3.8	1.49e+00	0	22	104	0	73	24159
2026-01-12 05:30:02.44	46.65	14.17	-54.0	-70.2	3.8	1.49e+00	0	22	104	0	73	24161
2026-01-12 05:30:03.45	46.50	14.24	-54.0	-70.2	3.8	1.49e+00	0	22	104	0	73	24158
2026-01-12 05:30:04.46	46.35	14.31	-54.1	-70.2	3.8	1.49e+00	0	22	104	0	73	24207
2026-01-12 05:30:05.47	46.20	14.38	-54.1	-70.2	3.8	1.49e+00	0	22	104	0	73	24164
2026-01-12 05:30:06.47	46.04	14.45	-54.1	-70.2	3.8	1.49e+00	0	23	104	0	73	24227
2026-01-12 05:30:07.48	45.89	14.52	-54.0	-70.2	3.8	1.49e+00	0	22	104	0	73	24186
2026-01-12 05:30:08.49	45.73	14.60	-54.0	-70.1	3.8	1.49e+00	0	23	104	0	73	24108
2026-01-12 05:30:09.50	45.58	14.67	-54.0	-70.2	3.8	1.49e+00	0	23	104	0	73	24171
2026-01-12 05:30:10.51	45.42	14.74	-54.1	-70.2	3.8	1.49e+00	0	23	104	0	73	24199
2026-01-12 05:30:11.52	45.26	14.81	-54.0	-70.2	3.8	1.49e+00	0	22	104	0	73	24155
2026-01-12 05:30:12.53	45.10	14.88	-54.1	-70.2	3.8	1.49e+00	0	23	104	0	73	24155
2026-01-12 05:30:13.54	44.94	14.95	-54.1	-70.2	3.8	1.49e+00	0	23	104	0	73	24187
2026-01-12 05:30:14.55	44.78	15.02	-54.1	-70.2	3.8	1.49e+00	0	22	104	0	73	24180
2026-01-12 05:30:15.55	44.62	15.09	-54.1	-70.2	3.8	1.49e+00	0	22	104	0	73	24156
2026-01-12 05:30:16.56	44.46	15.16	-54.1	-70.2	3.8	1.49e+00	0	23	104	0	73	24186
2026-01-12 05:30:17.57	44.30	15.24	-54.1	-70.2	3.8	1.49e+00	0	23	104	0	73	24181
2026-01-12 05:30:18.57	44.14	15.31	-54.0	-70.2	3.8	1.49e+00	0	22	104	0	73	24135
2026-01-12 05:30:19.58	43.97	15.38	-54.1	-70.2	3.8	1.49e+00	0	23	104	0	73	24131
2026-01-12 05:30:20.59	43.81	15.45	-54.0	-70.2	3.8	1.49e+00	0	23	104	0	73	24194
2026-01-12 05:30:21.60	43.64	15.52	-54.1	-70.2	3.8	1.49e+00	0	23	104	0	73	24164
2026-01-12 05:30:22.61	43.48	15.59	-54.0	-70.1	3.8	1.49e+00	0	23	104	0	73	24084
2026-01-12 05:30:23.62	43.31	15.66	-54.0	-70.1	3.8	1.49e+00	0	23	104	0	73	24061
2026-01-12 05:30:24.64	43.14	15.73	-54.0	-70.2	3.8	1.49e+00	0	23	104	0	73	24177
2026-01-12 05:30:25.64	42.97	15.80	-54.1	-70.1	3.8	1.49e+00	0	22	104	0	73	24085
2026-01-12 05:30:26.65	42.80	15.87	-54.0	-70.2	3.8	1.49e+00	0	22	104	0	73	24181
2026-01-12 05:30:27.67	42.63	15.95	-54.1	-70.2	3.8	1.49e+00	0	22	104	0	73	24153
2026-01-12 05:30:28.68	42.46	16.02	-54.1	-70.2	3.8	1.49e+00	0	22	104	0	73	24234
2026-01-12 05:30:29.69	42.29	16.09	-54.0	-70.2	3.8	1.49e+00	0	22	104	0	73	24202
2026-01-12 05:30:30.69	42.11	16.16	-54.0	-70.2	3.8	1.49e+00	0	23	104	0	73	24199
2026-01-12 05:30:31.70	41.94	16.23	-54.0	-70.2	3.8	1.49e+00	0	22	104	0	73	24166
2026-01-12 05:30:32.70	41.77	16.30	-54.0	-70.2	3.8	1.49e+00	0	22	104	0	73	24166
2026-01-12 05:30:33.71	41.59	16.37	-54.0	-70.2	3.8	1.49e+00	0	22	104	0	73	24161
2026-01-12 05:30:34.72	41.42	16.44	-54.1	-70.1	3.8	1.49e+00	0	23	104	0	73	24128
2026-01-12 05:30:35.73	41.24	16.51	-54.1	-70.2	3.8	1.49e+00	0	23	104	0	73	24167
2026-01-12 05:30:36.74	41.06	16.58	-54.0	-70.2	3.8	1.49e+00	0	23	104	0	73	24131
2026-01-12 05:30:37.75	40.88	16.65	-54.1	-70.2	3.8	1.49e+00	0	22	104	0	73	24164
2026-01-12 05:30:38.76	40.70	16.72	-54.0	-70.2	3.8	1.49e+00	0	23	104	0	73	24161
2026-01-12 05:30:39.77	40.52	16.79	-54.1	-70.2	3.8	1.49e+00	0	23	104	0	73	24156
2026-01-12 05:30:40.78	40.34	16.86	-54.0	-70.1	3.8	1.49e+00	0	23	104	0	73	24113
2026-01-12 05:30:41.78	40.16	16.93	-54.0	-70.2	3.8	1.49e+00	0	23	104	0	73	24134
2026-01-12 05:30:42.79	39.98	16.99	-54.0	-70.1	3.8	1.49e+00	0	23	104	0	73	24115
2026-01-12 05:30:43.81	39.79	17.07	-54.1	-70.2	3.8	1.49e+00	0	22	104	0	73	24162
2026-01-12 05:30:44.81	39.61	17.13	-54.0	-70.2	3.8	1.49e+00	0	23	104	0	73	24214
2026-01-12 05:30:45.82	39.42	17.20	-54.1	-70.2	3.8	1.49e+00	0	23	104	0	73	24190
2026-01-12 05:30:46.83	39.23	17.27	-54.0	-70.2	3.8	1.49e+00	0	23	104	0	73	24221
2026-01-12 05:30:47.84	39.05	17.34	-54.0	-70.2	3.8	1.49e+00	0	23	104	0	73	24232
2026-01-12 05:30:48.85	38.86	17.41	-54.0	-70.2	3.8	1.49e+00	0	23	104	0	73	24141
2026-01-12 05:30:49.86	38.67	17.48	-54.1	-70.2	3.8	1.49e+00	0	22	104	0	73	24230
2026-01-12 05:30:50.87	38.48	17.55	-54.1	-70.2	3.8	1.49e+00	0	23	104	0	73	24195
2026-01-12 05:30:51.88	38.29	17.62	-54.1	-70.2	3.8	1.49e+00	0	23	104	0	73	24187
2026-01-12 05:30:52.89	38.10	17.68	-54.1	-70.2	3.8	1.49e+00	0	23	104	0	73	24180
2026-01-12 05:30:53.90	37.90	17.75	-54.1	-70.2	3.8	1.49e+00	0	23	104	0	73	24192
2026-01-12 05:30:54.91	37.71	17.82	-54.0	-70.2	3.8	1.49e+00	0	23	104	0	73	24221
2026-01-12 05:30:55.92	37.51	17.89	-54.0	-70.2	3.8	1.49e+00	0	23	104	0	73	24206
2026-01-12 05:30:56.93	37.32	17.96	-54.1	-70.2	3.8	1.49e+00	0	23	104	0	73	24134
2026-01-12 05:30:57.94	37.12	18.02	-54.0	-70.2	3.8	1.49e+00	0	23	104	0	73	24276
2026-01-12 05:30:58.94	36.93	18.09	-54.0	-70.2	3.8	1.49e+00	0	23	104	0	73	24212
2026-01-12 05:30:59.95	36.73	18.16	-54.0	-70.2	3.8	1.49e+00	0	23	104	0	73	24285
2026-01-12 05:31:00.96	36.53	18.22	-54.0	-70.2	3.8	1.49e+00	0	23	104	0	73	24179
2026-01-12 05:31:01.97	36.33	18.29	-54.0	-70.2	3.8	1.49e+00	0	23	104	0	73	24165
2026-01-12 05:31:02.98	36.13	18.36	-54.0	-70.2	3.8	1.49e+00	0	22	104	0	73	24204
2026-01-12 05:31:03.99	35.93	18.42	-54.0	-70.2	3.8	1.49e+00	0	23	104	0	73	24137
2026-01-12 05:31:05.00	35.73	18.49	-54.0	-70.2	3.8	1.49e+00	0	23	104	0	73	24155
2026-01-12 05:31:06.00	35.52	18.56	-54.0	-70.2	3.8	1.49e+00	0	23	104	0	73	24241
2026-01-12 05:31:07.01	35.32	18.62	-54.0	-70.2	3.8	1.49e+00	0	22	104	0	73	24219
2026-01-12 05:31:08.02	35.12	18.69	-54.0	-70.2	3.8	1.49e+00	0	23	104	0	73	24242
2026-01-12 05:31:09.03	34.91	18.75	-54.0	-70.2	3.8	1.49e+00	0	23	104	0	73	24242
2026-01-12 05:31:10.04	34.70	18.82	-54.0	-70.2	3.8	1.49e+00	0	23	104	0	73	24218
2026-01-12 05:31:11.05	34.49	18.88	-54.0	-70.2	3.8	1.49e+00	0	23	104	0	73	24214
2026-01-12 05:31:12.06	34.29	18.95	-54.1	-70.2	3.8	1.49e+00	0	23	104	0	73	24292
2026-01-12 05:31:13.07	34.08	19.01	-54.1	-70.2	3.8	1.49e+00	0	23	104	0	73	24280
2026-01-12 05:31:14.08	33.87	19.08	-54.1	-70.2	3.8	1.49e+00	0	23	104	0	73	24287
2026-01-12 05:31:15.08	33.66	19.14	-54.0	-70.2	3.8	1.49e+00	0	23	104	0	73	24223
2026-01-12 05:31:16.09	33.44	19.20	-54.1	-70.2	3.8	1.49e+00	0	23	104	0	73	24269
2026-01-12 05:31:17.10	33.23	19.27	-54.1	-70.2	3.8	1.49e+00	0	23	104	0	73	24208
2026-01-12 05:31:18.11	33.02	19.33	-54.1	-70.2	3.8	1.49e+00	0	23	104	0	73	24320
2026-01-12 05:31:19.12	32.80	19.39	-54.1	-70.2	3.8	1.49e+00	0	23	104	0	73	24287
2026-01-12 05:31:20.13	32.59	19.46	-54.1	-70.2	3.8	1.49e+00	0	23	104	0	73	24285
2026-01-12 05:31:21.14	32.37	19.52	-54.1	-70.2	3.8	1.49e+00	0	23	104	0	73	24217
2026-01-12 05:31:22.15	32.15	19.58	-54.1	-70.2	3.8	1.49e+00	0	23	104	0	73	24215
2026-01-12 05:31:23.16	31.93	19.64	-54.1	-70.2	3.8	1.49e+00	0	22	104	0	73	24177
2026-01-12 05:31:24.16	31.71	19.70	-54.0	-70.2	3.8	1.49e+00	0	23	104	0	73	24258
2026-01-12 05:31:25.17	31.49	19.76	-54.1	-70.2	3.8	1.49e+00	0	23	104	0	73	24242
2026-01-12 05:31:26.18	31.27	19.83	-54.1	-70.2	3.8	1.49e+00	0	23	104	0	73	24135
2026-01-12 05:31:27.19	31.05	19.89	-54.1	-70.2	3.8	1.49e+00	0	23	104	0	73	24185
2026-01-12 05:31:28.20	30.83	19.95	-54.1	-70.2	3.8	1.49e+00	0	23	104	0	73	24136
2026-01-12 05:31:29.21	30.60	20.01	-54.1	-70.2	3.8	1.49e+00	0	23	104	0	73	24167
2026-01-12 05:31:30.22	30.38	20.07	-54.1	-70.2	3.8	1.49e+00	0	23	104	0	73	24206
2026-01-12 05:31:31.22	30.15	20.13	-54.1	-70.2	3.8	1.49e+00	0	23	104	0	73	24193
2026-01-12 05:31:32.23	29.93	20.19	-54.1	-70.2	3.8	1.49e+00	0	23	104	0	73	24186
2026-01-12 05:31:33.24	29.70	20.24	-54.1	-70.2	3.8	1.49e+00	0	23	104	0	73	24221
2026-01-12 05:31:34.25	29.47	20.30	-54.0	-70.1	3.8	1.49e+00	0	23	104	0	73	24125
2026-01-12 05:31:35.26	29.24	20.36	-54.1	-70.2	3.8	1.49e+00	0	22	104	0	73	24194
2026-01-12 05:31:36.27	29.01	20.42	-54.1	-70.2	3.8	1.49e+00	0	23	104	0	73	24207
2026-01-12 05:31:37.27	28.78	20.48	-54.1	-70.2	3.8	1.49e+00	0	23	104	0	73	24243
2026-01-12 05:31:38.28	28.55	20.53	-54.1	-70.2	3.8	1.49e+00	0	23	104	0	73	24240
2026-01-12 05:31:39.29	28.32	20.59	-54.1	-70.2	3.8	1.49e+00	0	23	104	0	73	24223
2026-01-12 05:31:40.29	28.09	20.65	-54.1	-70.2	3.8	1.49e+00	0	23	104	0	73	24238
2026-01-12 05:31:41.31	27.85	20.70	-54.1	-70.2	3.8	1.49e+00	0	23	104	0	73	24208
2026-01-12 05:31:42.31	27.62	20.76	-54.1	-70.2	3.8	1.49e+00	0	23	104	0	73	24171
2026-01-12 05:31:43.32	27.38	20.81	-54.1	-70.2	3.8	1.49e+00	0	23	104	0	73	24225
2026-01-12 05:31:44.33	27.15	20.87	-54.1	-70.2	3.8	1.49e+00	0	23	104	0	73	24218
2026-01-12 05:31:45.33	26.91	20.92	-54.1	-70.2	3.8	1.49e+00	0	23	104	0	73	24225
2026-01-12 05:31:46.35	26.67	20.97	-54.1	-70.2	3.8	1.49e+00	0	23	104	0	73	24281
2026-01-12 05:31:47.35	26.43	21.03	-54.1	-70.2	3.8	1.49e+00	0	23	104	0	73	24235
2026-01-12 05:31:48.36	26.19	21.08	-54.1	-70.2	3.8	1.49e+00	0	23	104	0	73	24263
2026-01-12 05:31:49.37	25.95	21.13	-54.1	-70.2	3.8	1.49e+00	0	23	104	0	73	24255
2026-01-12 05:31:50.38	25.71	21.19	-54.1	-70.2	3.8	1.49e+00	0	23	104	0	73	24193
2026-01-12 05:31:51.39	25.46	21.24	-54.1	-70.2	3.8	1.49e+00	0	22	104	0	73	24175
2026-01-12 05:31:52.40	25.22	21.29	-54.1	-70.2	3.8	1.49e+00	0	23	104	0	73	24264
2026-01-12 05:31:53.41	24.98	21.34	-54.1	-70.2	3.8	1.49e+00	0	23	104	0	73	24170
2026-01-12 05:31:54.42	24.73	21.39	-54.1	-70.2	3.8	1.49e+00	0	23	104	0	73	24244
2026-01-12 05:31:55.43	24.49	21.44	-54.1	-70.2	3.8	1.49e+00	0	23	104	0	73	24203
2026-01-12 05:31:56.44	24.24	21.49	-54.0	-70.2	3.8	1.49e+00	0	22	104	0	73	24223
2026-01-12 05:31:57.45	23.99	21.54	-54.0	-70.2	3.8	1.49e+00	0	23	104	0	73	24132
2026-01-12 05:31:58.46	23.74	21.59	-54.0	-70.2	3.8	1.49e+00	0	23	104	0	73	24192
2026-01-12 05:31:59.47	23.49	21.64	-54.0	-70.2	3.8	1.49e+00	0	22	104	0	73	24143
2026-01-12 05:32:00.48	23.24	21.68	-54.1	-70.2	3.8	1.49e+00	0	22	104	0	73	24231
2026-01-12 05:32:01.49	22.99	21.73	-54.1	-70.2	3.8	1.49e+00	0	22	104	0	73	24155
2026-01-12 05:32:02.49	22.74	21.78	-54.1	-70.2	3.8	1.49e+00	0	23	104	0	73	24192
2026-01-12 05:32:03.50	22.49	21.82	-54.0	-70.2	3.8	1.49e+00	0	23	104	0	73	24153
2026-01-12 05:32:04.51	22.24	21.87	-54.1	-70.2	3.8	1.49e+00	0	23	104	0	73	24202
2026-01-12 05:32:05.52	21.98	21.91	-54.1	-70.2	3.8	1.49e+00	0	23	104	0	73	24218
2026-01-12 05:32:06.53	21.73	21.96	-54.1	-70.2	3.8	1.49e+00	0	23	104	0	73	24218
2026-01-12 05:32:07.54	21.47	22.00	-54.1	-70.2	3.8	1.49e+00	0	23	104	0	73	24137
2026-01-12 05:32:08.55	21.22	22.05	-54.1	-70.2	3.8	1.49e+00	0	23	104	0	73	24223
2026-01-12 05:32:09.56	20.96	22.09	-54.1	-70.2	3.8	1.49e+00	0	23	104	0	73	24190
2026-01-12 05:32:10.57	20.70	22.13	-54.1	-70.2	3.8	1.49e+00	0	23	104	0	73	24202
2026-01-12 05:32:11.58	20.44	22.17	-54.1	-70.2	3.8	1.49e+00	0	23	104	0	73	24233
2026-01-12 05:32:12.59	20.19	22.21	-54.1	-70.2	3.8	1.49e+00	0	23	104	0	73	24261
2026-01-12 05:32:13.59	19.93	22.25	-54.1	-70.2	3.8	1.49e+00	0	23	104	0	73	24238
2026-01-12 05:32:14.60	19.67	22.30	-54.1	-70.2	3.8	1.49e+00	0	23	104	0	73	24274
2026-01-12 05:32:15.61	19.41	22.33	-54.1	-70.2	3.8	1.49e+00	0	23	104	0	73	24218
2026-01-12 05:32:16.62	19.15	22.37	-54.1	-70.2	3.8	1.49e+00	0	23	104	0	73	24264
2026-01-12 05:32:17.63	18.88	22.41	-54.1	-70.2	3.8	1.49e+00	0	23	104	0	73	24219
2026-01-12 05:32:18.63	18.62	22.45	-54.1	-70.2	3.9	1.49e+00	0	23	104	0	73	24243
2026-01-12 05:32:19.64	18.36	22.49	-54.1	-70.2	3.8	1.49e+00	0	23	104	0	73	24188
2026-01-12 05:32:20.65	18.10	22.52	-54.0	-70.2	3.8	1.49e+00	0	23	104	0	73	24186
2026-01-12 05:32:21.66	17.83	22.56	-54.0	-70.2	3.8	1.49e+00	0	23	104	0	73	24195
2026-01-12 05:32:22.67	17.56	22.60	-54.0	-70.2	3.8	1.49e+00	0	23	104	0	73	24227
2026-01-12 05:32:23.67	17.30	22.63	-54.0	-70.2	3.8	1.49e+00	0	23	104	0	73	24272
2026-01-12 05:32:24.68	17.03	22.66	-54.1	-70.2	3.8	1.49e+00	0	22	104	0	73	24196
2026-01-12 05:32:25.69	16.77	22.70	-54.1	-70.2	3.8	1.49e+00	0	23	104	0	73	24157
2026-01-12 05:32:26.70	16.50	22.73	-54.0	-70.2	3.8	1.49e+00	0	23	104	0	73	24170
2026-01-12 05:32:27.71	16.23	22.76	-54.0	-70.2	3.8	1.49e+00	0	23	104	0	73	24232
2026-01-12 05:32:28.72	15.96	22.79	-54.1	-70.2	3.8	1.49e+00	0	23	104	0	73	24242
2026-01-12 05:32:29.73	15.69	22.83	-54.0	-70.2	3.8	1.49e+00	0	23	104	0	73	24209
2026-01-12 05:32:30.74	15.42	22.86	-54.1	-70.2	3.8	1.49e+00	0	23	104	0	73	24245
2026-01-12 05:32:31.74	15.16	22.89	-54.0	-70.2	3.8	1.49e+00	0	23	104	0	73	24196
2026-01-12 05:32:32.75	14.88	22.91	-54.0	-70.2	3.8	1.49e+00	0	23	104	0	73	24261
2026-01-12 05:32:33.76	14.61	22.94	-54.0	-70.2	3.8	1.49e+00	0	23	104	0	73	24266
2026-01-12 05:32:34.77	14.34	22.97	-54.0	-70.2	3.8	1.49e+00	0	23	104	0	73	24237
2026-01-12 05:32:35.79	14.07	23.00	-54.0	-70.2	3.8	1.49e+00	0	23	104	0	73	24213
2026-01-12 05:32:36.79	13.80	23.02	-54.0	-70.2	3.8	1.49e+00	0	22	104	0	73	24233
2026-01-12 05:32:37.80	13.52	23.05	-54.0	-70.2	3.8	1.49e+00	0	23	104	0	73	24179
2026-01-12 05:32:38.81	13.25	23.08	-54.0	-70.2	3.8	1.49e+00	0	23	104	0	73	24256
2026-01-12 05:32:39.81	12.98	23.10	-54.0	-70.2	3.8	1.49e+00	0	23	104	0	73	24258
2026-01-12 05:32:40.82	12.70	23.12	-54.0	-70.2	3.8	1.49e+00	0	23	104	0	73	24237
2026-01-12 05:32:41.83	12.43	23.15	-54.0	-70.2	3.8	1.49e+00	0	23	104	0	73	24236
2026-01-12 05:32:42.84	12.15	23.17	-54.1	-70.2	3.8	1.49e+00	0	23	104	0	73	24254
2026-01-12 05:32:43.85	11.87	23.19	-54.1	-70.2	3.8	1.49e+00	0	23	104	0	73	24280
2026-01-12 05:32:44.86	11.60	23.21	-54.1	-70.2	3.8	1.49e+00	0	23	104	0	73	24319
2026-01-12 05:32:45.87	11.32	23.23	-54.1	-70.2	3.8	1.49e+00	0	23	104	0	73	24301
2026-01-12 05:32:46.87	11.05	23.25	-54.1	-70.2	3.8	1.49e+00	0	23	104	0	73	24339
2026-01-12 05:32:47.88	10.77	23.27	-54.1	-70.2	3.8	1.49e+00	0	23	104	0	73	24261
2026-01-12 05:32:48.89	10.49	23.29	-54.1	-70.2	3.8	1.49e+00	0	23	104	0	73	24301
2026-01-12 05:32:49.90	10.21	23.30	-54.1	-70.2	3.8	1.49e+00	0	23	104	0	73	24255
2026-01-12 05:32:50.91	9.94	23.32	-54.1	-70.2	3.8	1.49e+00	0	23	104	0	73	24216
2026-01-12 05:32:51.92	9.66	23.34	-54.1	-70.2	3.8	1.49e+00	0	23	104	0	73	24296
2026-01-12 05:32:52.93	9.38	23.35	-54.1	-70.2	3.8	1.49e+00	0	23	104	0	73	24270
2026-01-12 05:32:53.94	9.10	23.37	-54.1	-70.2	3.8	1.49e+00	0	23	104	0	73	24261
2026-01-12 05:32:54.95	8.82	23.38	-54.1	-70.2	3.8	1.49e+00	0	23	104	0	73	24310
2026-01-12 05:32:55.96	8.54	23.39	-54.1	-70.2	3.8	1.49e+00	0	23	104	0	73	24252
2026-01-12 05:32:56.96	8.26	23.41	-54.1	-70.2	3.8	1.49e+00	0	23	104	0	73	24221
2026-01-12 05:32:57.97	7.98	23.42	-54.1	-70.2	3.8	1.49e+00	0	23	104	0	73	24292
2026-01-12 05:32:58.98	7.70	23.43	-54.1	-70.2	3.8	1.49e+00	0	23	104	0	73	24284
2026-01-12 05:32:59.99	7.42	23.44	-54.0	-70.2	3.8	1.49e+00	0	23	104	0	73	24261
2026-01-12 05:33:01.00	7.14	23.45	-54.1	-70.2	3.8	1.49e+00	0	23	104	0	73	24245
2026-01-12 05:33:02.01	6.86	23.46	-54.1	-70.2	3.8	1.49e+00	0	23	104	0	73	24271
2026-01-12 05:33:03.02	6.58	23.46	-54.1	-70.2	3.8	1.49e+00	0	23	104	0	73	24266
2026-01-12 05:33:04.03	6.30	23.47	-54.1	-70.2	3.8	1.49e+00	0	23	104	0	73	24214
2026-01-12 05:33:05.04	6.02	23.48	-54.1	-70.2	3.8	1.49e+00	0	23	104	0	73	24273
2026-01-12 05:33:06.05	5.74	23.48	-54.1	-70.2	3.8	1.49e+00	0	23	104	0	73	24257
2026-01-12 05:33:07.06	5.45	23.49	-54.1	-70.2	3.8	1.49e+00	0	23	104	0	73	24213
2026-01-12 05:33:08.07	5.17	23.49	-54.1	-70.2	3.8	1.49e+00	0	23	104	0	73	24252
2026-01-12 05:33:09.08	4.89	23.50	-54.1	-70.2	3.8	1.49e+00	0	23	104	0	73	24209
2026-01-12 05:33:10.08	4.61	23.50	-54.1	-70.2	3.8	1.49e+00	0	23	104	0	73	24281
2026-01-12 05:33:11.09	4.33	23.50	-54.1	-70.2	3.8	1.49e+00	0	23	104	0	73	24262
2026-01-12 05:33:12.10	4.05	23.50	-54.1	-70.2	3.8	1.49e+00	0	23	104	0	73	24262
2026-01-12 05:33:13.10	3.77	23.50	-54.0	-70.2	3.8	1.49e+00	0	23	104	0	73	24281
2026-01-12 05:33:14.10	3.49	23.50	-54.1	-70.2	3.8	1.49e+00	0	23	104	0	73	24236
2026-01-12 05:33:15.10	3.21	23.50	-54.1	-70.2	3.8	1.49e+00	0	23	104	0	73	24214
2026-01-12 05:33:16.10	2.93	23.50	-54.1	-70.2	3.8	1.49e+00	0	23	104	0	73	24322
2026-01-12 05:33:17.10	2.65	23.50	-54.1	-70.2	3.8	1.49e+00	0	23	104	0	73	24288
2026-01-12 05:33:18.11	2.37	23.49	-54.1	-70.2	3.8	1.49e+00	0	23	104	0	73	24216
2026-01-12 05:33:19.12	2.09	23.49	-54.1	-70.2	3.8	1.49e+00	0	23	104	0	73	24212
2026-01-12 05:33:20.12	1.81	23.49	-54.1	-70.2	3.8	1.49e+00	0	23	104	0	73	24216
2026-01-12 05:33:21.11	1.54	23.48	-54.1	-70.2	3.8	1.49e+00	0	23	104	0	73	24264
2026-01-12 05:33:22.11	1.26	23.47	-54.1	-70.2	3.8	1.49e+00	0	23	104	0	73	24256
2026-01-12 05:33:23.11	0.98	23.47	-54.1	-70.2	3.8	1.49e+00	0	23	104	0	73	24236
2026-01-12 05:33:24.10	0.70	23.46	-54.1	-70.2	3.8	1.49e+00	0	23	104	0	73	24245
2026-01-12 05:33:25.10	0.43	23.45	-54.0	-70.2	3.8	1.49e+00	0	23	104	0	73	24258
2026-01-12 05:33:26.09	0.15	23.44	-54.1	-70.2	3.8	1.49e+00	0	23	104	0	73	24329
2026-01-12 05:33:27.09	359.87	23.43	-54.1	-70.2	3.8	1.49e+00	0	23	104	0	73	24287
2026-01-12 05:33:28.08	359.60	23.42	-54.1	-70.2	3.8	1.49e+00	0	23	104	0	73	24315
2026-01-12 05:33:29.08	359.32	23.41	-54.1	-70.2	3.8	1.49e+00	0	23	104	0	73	24276
2026-01-12 05:33:30.09	359.04	23.40	-54.1	-70.2	3.8	1.49e+00	0	23	104	0	73	24232
2026-01-12 05:33:31.09	358.76	23.39	-54.1	-70.2	3.8	1.49e+00	0	23	104	0	73	24264
2026-01-12 05:33:32.08	358.49	23.37	-54.1	-70.2	3.8	1.49e+00	0	23	104	0	73	24251
2026-01-12 05:33:33.08	358.21	23.36	-54.1	-70.2	3.8	1.49e+00	0	23	104	0	73	24261
2026-01-12 05:33:34.08	357.94	23.34	-54.1	-70.2	3.8	1.49e+00	0	23	104	0	73	24316
2026-01-12 05:33:35.08	357.66	23.33	-54.1	-70.2	3.8	1.49e+00	0	23	104	0	73	24331
2026-01-12 05:33:36.08	357.39	23.31	-54.1	-70.2	3.8	1.49e+00	0	23	104	0	73	24236
2026-01-12 05:33:37.08	357.11	23.29	-54.1	-70.2	3.8	1.49e+00	0	23	104	0	73	24222
2026-01-12 05:33:38.07	356.84	23.28	-54.1	-70.2	3.8	1.49e+00	0	23	104	0	73	24257
2026-01-12 05:33:39.06	356.57	23.26	-54.1	-70.2	3.8	1.49e+00	0	23	104	0	73	24343
2026-01-12 05:33:40.06	356.29	23.24	-54.1	-70.2	3.8	1.49e+00	0	23	104	0	73	24298
2026-01-12 05:33:41.06	356.02	23.22	-54.1	-70.2	3.8	1.49e+00	0	23	104	0	73	24273
2026-01-12 05:33:42.06	355.74	23.20	-54.1	-70.2	3.8	1.49e+00	0	23	104	0	73	24269
2026-01-12 05:33:43.06	355.47	23.18	-54.1	-70.2	3.8	1.49e+00	0	23	104	0	73	24304
2026-01-12 05:33:44.06	355.20	23.16	-54.1	-70.2	3.8	1.49e+00	0	23	104	0	73	24328
2026-01-12 05:33:45.06	354.92	23.13	-54.1	-70.2	3.8	1.49e+00	0	23	104	0	73	24318
2026-01-12 05:33:46.07	354.65	23.11	-54.1	-70.2	3.8	1.49e+00	0	23	104	0	73	24317
2026-01-12 05:33:47.07	354.38	23.09	-54.1	-70.2	3.8	1.49e+00	0	23	104	0	73	24356
2026-01-12 05:33:48.07	354.11	23.06	-54.1	-70.2	3.8	1.49e+00	0	23	104	0	73	24319
2026-01-12 05:33:49.07	353.84	23.04	-54.1	-70.2	3.8	1.49e+00	0	23	104	0	73	24324
2026-01-12 05:33:50.07	353.56	23.01	-54.1	-70.2	3.8	1.49e+00	0	23	104	0	73	24332
2026-01-12 05:33:51.06	353.30	22.99	-54.1	-70.2	3.8	1.49e+00	0	23	104	0	73	24285
2026-01-12 05:33:52.07	353.03	22.96	-54.1	-70.2	3.8	1.49e+00	0	23	104	0	73	24302
2026-01-12 05:33:53.07	352.76	22.93	-54.1	-70.2	3.8	1.49e+00	0	23	104	0	73	24282
2026-01-12 05:33:54.07	352.49	22.90	-54.1	-70.2	3.8	1.49e+00	0	23	104	0	73	24306
2026-01-12 05:33:55.07	352.22	22.87	-54.1	-70.2	3.8	1.49e+00	0	23	104	0	73	24276
2026-01-12 05:33:56.07	351.95	22.84	-54.1	-70.2	3.8	1.49e+00	0	23	104	0	73	24240
2026-01-12 05:33:57.07	351.69	22.81	-54.1	-70.2	3.8	1.49e+00	0	23	104	0	73	24272
2026-01-12 05:33:58.06	351.42	22.78	-54.1	-70.2	3.8	1.49e+00	0	23	104	0	73	24324
2026-01-12 05:33:59.06	351.16	22.75	-54.1	-70.2	3.8	1.49e+00	0	23	104	0	73	24271
2026-01-12 05:34:00.05	350.89	22.72	-54.1	-70.2	3.8	1.49e+00	0	23	104	0	73	24335
2026-01-12 05:34:01.04	350.63	22.69	-54.0	-70.2	3.8	1.49e+00	0	23	104	0	73	24283
2026-01-12 05:34:02.04	350.37	22.65	-54.1	-70.2	3.8	1.49e+00	0	23	104	0	73	24287
2026-01-12 05:34:03.03	350.10	22.62	-54.1	-70.2	3.8	1.49e+00	0	23	104	0	73	24320
2026-01-12 05:34:04.01	349.85	22.59	-54.1	-70.2	3.8	1.49e+00	0	23	104	0	73	24333
2026-01-12 05:34:05.00	349.59	22.55	-54.1	-70.2	3.8	1.49e+00	0	23	104	0	73	24344
2026-01-12 05:34:05.99	349.33	22.51	-54.1	-70.2	3.8	1.49e+00	0	23	104	0	73	24282
2026-01-12 05:34:06.99	349.07	22.48	-54.1	-70.2	3.8	1.49e+00	0	23	104	0	73	24237
2026-01-12 05:34:07.98	348.81	22.44	-54.1	-70.2	3.8	1.49e+00	0	23	104	0	73	24227
2026-01-12 05:34:08.98	348.55	22.40	-54.0	-70.2	3.8	1.49e+00	0	23	104	0	73	24295
2026-01-12 05:34:09.98	348.29	22.37	-54.1	-70.2	3.8	1.49e+00	0	23	104	0	73	24259
2026-01-12 05:34:10.98	348.03	22.33	-53.9	-70.2	3.8	1.49e+00	0	23	104	0	73	24201
2026-01-12 05:34:11.97	347.77	22.29	-53.7	-71.2	3.8	1.49e+00	0	23	104	0	72	28854
2026-01-12 05:34:12.97	347.52	22.25	-56.8	-72.8	3.8	1.49e+00	0	23	104	0	78	24625
2026-01-12 05:34:13.96	347.26	22.21	-57.1	-73.1	3.8	1.49e+00	0	23	104	0	79	23988
2026-01-12 05:34:14.95	347.01	22.17	-57.1	-73.1	3.8	1.49e+00	0	23	104	0	79	24010
2026-01-12 05:34:15.94	346.76	22.13	-57.1	-73.1	3.8	1.49e+00	0	23	104	0	79	23917
2026-01-12 05:34:16.93	346.50	22.08	-57.1	-73.1	3.8	1.49e+00	0	23	104	0	79	23972
2026-01-12 05:34:17.93	346.25	22.04	-57.1	-73.1	3.8	1.49e+00	0	23	104	0	79	23972
2026-01-12 05:34:18.92	346.00	22.00	-57.1	-73.1	3.8	1.49e+00	0	23	104	0	79	23982
2026-01-12 05:34:19.91	345.75	21.96	-57.1	-73.1	3.8	1.49e+00	0	23	104	0	79	23943
2026-01-12 05:34:20.91	345.50	21.91	-57.1	-73.1	3.8	1.49e+00	0	23	104	0	79	24024
2026-01-12 05:34:21.91	345.25	21.87	-57.1	-73.1	3.8	1.49e+00	0	23	104	0	79	23944
2026-01-12 05:34:22.91	344.99	21.82	-57.1	-73.1	3.8	1.49e+00	0	23	104	0	79	23960
2026-01-12 05:34:23.90	344.75	21.78	-57.1	-73.1	3.8	1.49e+00	0	23	104	0	79	23957
2026-01-12 05:34:24.89	344.50	21.73	-57.1	-73.1	3.8	1.49e+00	0	23	104	0	79	23911
2026-01-12 05:34:25.88	344.25	21.69	-57.1	-73.1	3.8	1.49e+00	0	23	104	0	79	23937
2026-01-12 05:34:26.88	344.01	21.64	-57.1	-73.1	3.8	1.49e+00	0	23	104	0	79	24018
2026-01-12 05:34:27.88	343.76	21.59	-57.1	-73.1	3.8	1.49e+00	0	23	104	0	79	23958
2026-01-12 05:34:28.87	343.52	21.54	-57.1	-73.1	3.8	1.49e+00	0	23	104	0	79	23953
2026-01-12 05:34:29.87	343.27	21.49	-57.1	-73.1	3.8	1.49e+00	0	23	104	0	79	23892
2026-01-12 05:34:30.86	343.03	21.45	-57.1	-73.1	3.8	1.49e+00	0	23	104	0	79	23913
2026-01-12 05:34:31.85	342.79	21.40	-57.1	-73.1	3.8	1.49e+00	0	23	104	0	79	23897
2026-01-12 05:34:32.84	342.55	21.35	-57.0	-73.1	3.8	1.49e+00	0	23	104	0	79	23916
2026-01-12 05:34:33.84	342.31	21.30	-57.0	-73.1	3.8	1.49e+00	0	23	104	0	79	23926
2026-01-12 05:34:34.84	342.06	21.25	-57.0	-73.1	3.8	1.49e+00	0	23	104	0	79	23897
2026-01-12 05:34:35.84	341.82	21.20	-57.0	-73.1	3.8	1.49e+00	0	23	104	0	79	23862
2026-01-12 05:34:36.84	341.58	21.14	-57.0	-73.1	3.8	1.49e+00	0	23	104	0	79	23879
2026-01-12 05:34:37.83	341.35	21.09	-57.0	-73.1	3.8	1.49e+00	0	23	104	0	79	23863
2026-01-12 05:34:38.83	341.11	21.04	-57.1	-73.1	3.8	1.49e+00	0	23	104	0	79	23919
2026-01-12 05:34:39.82	340.87	20.99	-57.1	-73.1	3.8	1.49e+00	0	23	104	0	79	23911
2026-01-12 05:34:40.82	340.64	20.93	-57.0	-73.1	3.8	1.49e+00	0	23	104	0	79	23901
2026-01-12 05:34:41.82	340.40	20.88	-57.1	-73.1	3.8	1.49e+00	0	23	104	0	79	23890
2026-01-12 05:34:42.80	340.17	20.83	-57.0	-73.1	3.8	1.49e+00	0	23	104	0	79	23914
2026-01-12 05:34:43.79	339.94	20.77	-57.0	-73.1	3.8	1.49e+00	0	23	104	0	79	23870
2026-01-12 05:34:44.78	339.71	20.72	-57.0	-73.1	3.8	1.49e+00	0	23	104	0	79	23857
2026-01-12 05:34:45.77	339.48	20.66	-57.0	-73.1	3.8	1.49e+00	0	23	104	0	79	23939
2026-01-12 05:34:46.77	339.25	20.61	-57.0	-73.1	3.8	1.49e+00	0	23	104	0	79	23927
2026-01-12 05:34:47.77	339.02	20.55	-57.0	-73.1	3.8	1.49e+00	0	23	104	0	79	23891
2026-01-12 05:34:48.76	338.79	20.50	-57.0	-73.1	3.8	1.49e+00	0	23	104	0	79	23870
2026-01-12 05:34:49.76	338.56	20.44	-57.0	-73.1	3.8	1.49e+00	0	23	104	0	79	23938
2026-01-12 05:34:50.75	338.34	20.38	-57.1	-73.1	3.8	1.49e+00	0	23	104	0	79	23902
2026-01-12 05:34:51.74	338.11	20.33	-57.0	-73.1	3.8	1.49e+00	0	23	104	0	79	23873
2026-01-12 05:34:52.73	337.89	20.27	-57.0	-73.1	3.8	1.49e+00	0	23	104	0	79	23892
2026-01-12 05:34:53.73	337.66	20.21	-57.0	-73.1	3.8	1.49e+00	0	23	104	0	79	23933
2026-01-12 05:34:54.72	337.44	20.15	-57.0	-73.0	3.8	1.49e+00	0	23	104	0	79	23853
2026-01-12 05:34:55.71	337.22	20.10	-57.0	-73.1	3.8	1.49e+00	0	23	104	0	79	23913
2026-01-12 05:34:56.71	336.99	20.04	-57.0	-73.0	3.8	1.49e+00	0	23	104	0	79	23814
2026-01-12 05:34:57.69	336.78	19.98	-57.0	-73.0	3.8	1.49e+00	0	23	104	0	79	23832
2026-01-12 05:34:58.69	336.56	19.92	-57.2	-73.3	3.8	1.49e+00	0	23	104	0	79	24433
2026-01-12 05:34:59.69	336.34	19.86	-57.7	-73.8	3.8	1.49e+00	0	23	104	0	80	24444
2026-01-12 05:35:00.69	336.12	19.80	-58.0	-74.1	3.8	1.49e+00	0	23	104	0	81	23859
2026-01-12 05:35:01.68	335.90	19.74	-58.2	-74.3	3.8	1.49e+00	0	23	104	0	81	24443
2026-01-12 05:35:02.67	335.68	19.68	-58.4	-74.4	3.8	1.49e+00	0	23	104	0	81	24854
2026-01-12 05:35:03.67	335.47	19.62	-58.5	-74.6	3.8	1.49e+00	0	23	104	0	82	23920
2026-01-12 05:35:04.67	335.25	19.56	-58.6	-74.7	3.8	1.49e+00	0	23	104	0	82	24248
2026-01-12 05:35:05.66	335.04	19.49	-58.7	-74.8	3.8	1.49e+00	0	23	104	0	82	24418
2026-01-12 05:35:06.66	334.82	19.43	-58.8	-74.8	3.8	1.49e+00	0	23	104	0	82	24576
2026-01-12 05:35:07.65	334.61	19.37	-58.8	-74.9	3.8	1.49e+00	0	23	104	0	82	24763
2026-01-12 05:35:08.66	334.40	19.31	-58.9	-74.9	3.8	1.49e+00	0	23	104	0	82	24961
2026-01-12 05:35:09.65	334.19	19.25	-59.0	-75.0	3.8	1.49e+00	0	23	104	0	83	23806
2026-01-12 05:35:10.65	333.98	19.18	-59.0	-75.0	3.8	1.49e+00	0	23	104	0	83	23745
2026-01-12 05:35:11.64	333.77	19.12	-58.9	-75.0	3.8	1.49e+00	0	23	104	0	83	23736
2026-01-12 05:35:12.65	333.56	19.06	-58.9	-75.0	3.8	1.49e+00	0	23	104	0	83	23675
2026-01-12 05:35:13.64	333.35	18.99	-58.9	-74.9	3.8	1.49e+00	0	23	104	0	83	23560
2026-01-12 05:35:14.63	333.15	18.93	-58.9	-74.9	3.8	1.49e+00	0	23	104	0	83	23579
2026-01-12 05:35:15.63	332.94	18.87	-59.0	-75.0	3.8	1.49e+00	0	23	104	0	83	23686
2026-01-12 05:35:16.62	332.74	18.80	-59.0	-75.1	3.8	1.49e+00	0	23	104	0	83	23970
2026-01-12 05:35:17.61	332.54	18.74	-59.0	-75.1	3.8	1.49e+00	0	23	104	0	83	23939
2026-01-12 05:35:18.60	332.33	18.67	-59.1	-75.1	3.8	1.49e+00	0	23	104	0	83	24099
2026-01-12 05:35:19.59	332.13	18.61	-59.1	-75.2	3.8	1.49e+00	0	23	104	0	83	24170
2026-01-12 05:35:20.58	331.93	18.54	-59.1	-75.2	3.8	1.49e+00	0	23	104	0	83	24272
2026-01-12 05:35:21.58	331.73	18.48	-59.2	-75.2	3.8	1.49e+00	0	23	104	0	83	24303
2026-01-12 05:35:22.57	331.53	18.41	-59.2	-75.3	3.8	1.49e+00	0	23	104	0	83	24498
2026-01-12 05:35:23.56	331.34	18.35	-59.2	-75.3	3.8	1.49e+00	0	23	104	0	83	24458
2026-01-12 05:35:24.56	331.14	18.28	-59.2	-75.3	3.8	1.49e+00	0	23	104	0	83	24518
2026-01-12 05:35:25.56	330.94	18.22	-59.3	-75.3	3.8	1.49e+00	0	23	104	0	83	24546
2026-01-12 05:35:26.55	330.75	18.15	-59.3	-75.3	3.8	1.49e+00	0	23	104	0	83	24652
2026-01-12 05:35:27.55	330.55	18.08	-59.3	-75.4	3.8	1.49e+00	0	23	104	0	83	24707
2026-01-12 05:35:28.54	330.36	18.02	-59.3	-75.3	3.8	1.49e+00	0	23	104	0	83	24634
2026-01-12 05:35:29.54	330.16	17.95	-59.2	-75.3	3.8	1.49e+00	0	23	104	0	83	24500
2026-01-12 05:35:30.54	329.97	17.89	-59.2	-75.3	3.8	1.49e+00	0	23	104	0	83	24508
2026-01-12 05:35:31.53	329.78	17.82	-59.2	-75.3	3.8	1.49e+00	0	23	104	0	83	24450
2026-01-12 05:35:32.53	329.59	17.75	-59.2	-75.3	3.8	1.49e+00	0	23	104	0	83	24527
2026-01-12 05:35:33.52	329.40	17.68	-59.3	-75.4	3.8	1.49e+00	0	23	104	0	83	24823
2026-01-12 05:35:34.52	329.21	17.62	-59.3	-75.4	3.8	1.49e+00	0	23	104	0	83	24824
2026-01-12 05:35:35.52	329.02	17.55	-59.3	-75.3	3.8	1.49e+00	0	23	104	0	83	24634
2026-01-12 05:35:36.51	328.83	17.48	-59.2	-75.3	3.8	1.49e+00	0	23	104	0	83	24538
2026-01-12 05:35:37.50	328.65	17.41	-59.2	-75.3	3.8	1.49e+00	0	23	104	0	83	24521
2026-01-12 05:35:38.50	328.46	17.35	-59.2	-75.3	3.8	1.49e+00	0	23	104	0	83	24499
2026-01-12 05:35:39.49	328.28	17.28	-59.2	-75.3	3.8	1.49e+00	0	23	104	0	83	24416
2026-01-12 05:35:40.49	328.09	17.21	-59.2	-75.2	3.8	1.49e+00	0	23	104	0	83	24400
2026-01-12 05:35:41.49	327.91	17.14	-59.2	-75.2	3.8	1.49e+00	0	23	104	0	83	24339
2026-01-12 05:35:42.49	327.73	17.07	-59.2	-75.2	3.8	1.49e+00	0	23	104	0	83	24400
2026-01-12 05:35:43.49	327.54	17.01	-59.1	-75.2	3.8	1.49e+00	0	23	104	0	83	24323
2026-01-12 05:35:44.50	327.36	16.94	-59.1	-75.2	3.8	1.49e+00	0	23	104	0	83	24244
2026-01-12 05:35:45.51	327.18	16.87	-59.1	-75.2	3.8	1.49e+00	0	23	104	0	83	24271
2026-01-12 05:35:46.50	327.00	16.80	-59.1	-75.2	3.8	1.49e+00	0	23	104	0	83	24181
2026-01-12 05:35:47.49	326.82	16.73	-59.1	-75.2	3.8	1.49e+00	0	23	104	0	83	24177
2026-01-12 05:35:48.49	326.64	16.66	-59.2	-75.2	3.8	1.49e+00	0	23	104	0	83	24354
2026-01-12 05:35:49.49	326.47	16.59	-59.3	-75.4	3.8	1.49e+00	0	23	104	0	83	24730
2026-01-12 05:35:50.48	326.29	16.52	-59.3	-75.4	3.8	1.49e+00	0	23	104	0	83	24805
2026-01-12 05:35:51.48	326.12	16.45	-59.3	-75.4	3.8	1.49e+00	0	23	104	0	83	24787
2026-01-12 05:35:52.47	325.94	16.38	-59.3	-75.4	3.8	1.49e+00	0	23	104	0	83	24869
2026-01-12 05:35:53.47	325.77	16.31	-59.4	-75.4	3.8	1.49e+00	0	23	104	0	83	24836
2026-01-12 05:35:54.46	325.60	16.25	-59.4	-75.4	3.8	1.49e+00	0	23	104	0	83	24884
2026-01-12 05:35:55.45	325.43	16.18	-59.4	-75.4	3.8	1.49e+00	0	23	104	0	83	24936
2026-01-12 05:35:56.44	325.26	16.11	-59.4	-75.4	3.8	1.49e+00	0	23	104	0	83	24923
2026-01-12 05:35:57.44	325.09	16.04	-59.4	-75.4	3.8	1.49e+00	0	23	104	0	83	24855
2026-01-12 05:35:58.44	324.92	15.97	-59.3	-75.4	3.8	1.49e+00	0	23	104	0	83	24820
2026-01-12 05:35:59.43	324.75	15.90	-59.3	-75.3	3.8	1.49e+00	0	23	104	0	83	24662
2026-01-12 05:36:00.43	324.58	15.83	-59.2	-75.3	3.8	1.49e+00	0	23	104	0	83	24572
2026-01-12 05:36:01.42	324.42	15.76	-59.2	-75.2	3.8	1.49e+00	0	23	104	0	83	24396
2026-01-12 05:36:02.41	324.25	15.69	-59.1	-75.2	3.8	1.49e+00	0	23	104	0	83	24214
2026-01-12 05:36:03.39	324.09	15.62	-59.0	-75.1	3.8	1.49e+00	0	23	104	0	83	23873
2026-01-12 05:36:04.40	323.92	15.55	-58.9	-74.5	3.8	1.49e+00	0	23	104	0	83	22503
2026-01-12 05:36:05.39	323.76	15.48	-58.7	-74.4	3.8	1.49e+00	0	23	104	0	83	22070
2026-01-12 05:36:06.39	323.60	15.41	-58.7	-74.4	3.8	1.49e+00	0	23	104	0	83	22103
2026-01-12 05:36:07.39	323.43	15.34	-52.7	-54.9	14.5	4.34e-01	0	23	0	0	72	4410
2026-01-12 05:36:08.39	323.27	15.27	-55.8	-59.8	12.0	7.00e-07	0	23	0	1048576	76	6154
2026-01-12 05:36:09.38	323.11	15.20	-56.2	-60.6	11.4	5.04e-03	0	23	0	3145728	79	5713
2026-01-12 05:36:10.38	322.95	15.13	-56.4	-61.1	11.1	4.00e-04	0	23	0	5242880	78	6382
2026-01-12 05:36:11.38	322.79	15.06	-57.6	-65.2	7.4	1.75e-01	0	23	0	7340032	80	9072
2026-01-12 05:36:12.38	322.63	14.99	-57.4	-64.5	7.9	2.76e-01	0	23	0	9437184	80	8396
2026-01-12 05:36:13.38	322.47	14.92	-52.1	-54.2	14.8	7.00e-07	0	23	0	10485760	70	4565
2026-01-12 05:36:14.38	322.32	14.85	-52.2	-54.4	14.7	0.00e+00	0	23	0	12582912	70	4678
2026-01-12 05:36:15.37	322.16	14.78	-51.7	-53.8	15.1	0.00e+00	0	23	0	14680064	70	4354
2026-01-12 05:36:16.38	322.00	14.71	-51.5	-53.5	15.0	0.00e+00	0	23	0	16777216	69	4452
2026-01-12 05:36:17.37	321.85	14.64	-51.5	-53.5	15.0	0.00e+00	0	23	0	18874368	69	4450
2026-01-12 05:36:18.36	321.70	14.57	-51.4	-53.4	15.1	0.00e+00	0	23	0	19922944	69	4412
2026-01-12 05:36:19.36	321.54	14.50	-51.5	-53.4	15.0	0.00e+00	0	23	0	22020096	69	4431
2026-01-12 05:36:20.36	321.39	14.43	-51.3	-53.2	15.2	0.00e+00	0	23	0	24117248	69	4328
2026-01-12 05:36:21.35	321.24	14.36	-51.0	-52.8	15.2	0.00e+00	0	23	0	26214400	68	4384
2026-01-12 05:36:22.36	321.09	14.29	-50.5	-52.2	15.3	0.00e+00	0	23	0	27262976	67	4316
2026-01-12 05:36:23.35	320.94	14.22	-50.3	-52.0	15.4	0.00e+00	0	23	0	29360128	67	4237
2026-01-12 05:36:24.35	320.79	14.15	-50.3	-52.1	15.4	0.00e+00	0	23	0	31457280	67	4245
2026-01-12 05:36:25.36	320.64	14.07	-50.4	-52.1	15.4	0.00e+00	0	23	0	33554432	67	4281
2026-01-12 05:36:26.36	320.49	14.00	-50.6	-52.4	15.2	0.00e+00	0	23	0	35651584	67	4398
2026-01-12 05:36:27.36	320.34	13.93	-50.8	-52.7	15.1	0.00e+00	0	23	0	36700160	67	4560
2026-01-12 05:36:28.36	320.19	13.86	-51.0	-53.0	14.9	0.00e+00	0	23	0	38797312	67	4708
2026-01-12 05:36:29.37	320.05	13.79	-51.1	-53.1	14.8	0.00e+00	0	23	0	40894464	67	4788
2026-01-12 05:36:30.38	319.90	13.72	-51.6	-53.7	14.7	0.00e+00	0	23	0	42991616	68	4837
2026-01-12 05:36:31.37	319.76	13.65	-51.6	-53.7	14.7	0.00e+00	0	23	0	45088768	68	4831
2026-01-12 05:36:32.37	319.61	13.58	-51.7	-53.8	14.6	0.00e+00	0	23	0	46137344	68	4895
2026-01-12 05:36:33.37	319.47	13.51	-51.6	-53.7	14.7	0.00e+00	0	23	0	48234496	68	4852
2026-01-12 05:36:34.37	319.33	13.44	-51.4	-53.5	14.8	0.00e+00	0	23	0	50331648	68	4715
2026-01-12 05:36:35.37	319.18	13.37	-51.4	-53.4	14.9	0.00e+00	0	23	0	52428800	68	4670
2026-01-12 05:36:36.37	319.04	13.30	-51.3	-53.4	14.9	0.00e+00	0	23	0	54525952	68	4657
2026-01-12 05:36:37.37	318.90	13.23	-51.6	-53.7	14.7	0.00e+00	0	23	0	55574528	68	4837
2026-01-12 05:36:38.37	318.76	13.16	-51.4	-53.4	14.9	0.00e+00	0	23	0	57671680	68	4666
2026-01-12 05:36:39.37	318.62	13.09	-51.3	-53.3	14.9	0.00e+00	0	23	0	59768832	68	4626
2026-01-12 05:36:40.37	318.48	13.02	-51.4	-53.4	14.8	0.00e+00	0	23	0	61865984	68	4667
2026-01-12 05:36:41.36	318.35	12.95	-51.0	-52.9	15.1	0.00e+00	0	23	0	62914560	68	4400
2026-01-12 05:36:42.36	318.21	12.88	-50.8	-52.7	15.3	0.00e+00	0	23	0	65011712	68	4293
2026-01-12 05:36:43.35	318.07	12.81	-50.6	-52.4	15.2	0.00e+00	0	23	0	67108864	67	4415
2026-01-12 05:36:44.35	317.94	12.74	-50.6	-52.3	15.2	0.00e+00	0	23	0	69206016	67	4388
2026-01-12 05:36:45.34	317.80	12.67	-50.2	-51.9	15.4	0.00e+00	0	23	0	71303168	67	4171
2026-01-12 05:36:46.34	317.67	12.60	-50.6	-52.4	15.1	0.00e+00	0	23	0	72351744	67	4434
2026-01-12 05:36:47.33	317.54	12.53	-50.8	-52.7	15.0	0.00e+00	0	23	0	74448896	67	4585
2026-01-12 05:36:48.31	317.40	12.46	-51.1	-53.0	14.8	0.00e+00	0	23	0	76546048	67	4747
2026-01-12 05:36:49.31	317.27	12.39	-51.4	-53.5	14.6	0.00e+00	0	23	0	78643200	67	4999
2026-01-12 05:36:50.30	317.14	12.32	-51.8	-54.0	14.5	0.00e+00	0	23	0	79691776	68	4993
2026-01-12 05:36:51.29	317.01	12.25	-52.0	-54.3	14.5	0.00e+00	0	23	0	81788928	69	4879
2026-01-12 05:36:52.29	316.88	12.19	-52.1	-54.4	14.4	0.00e+00	0	23	0	83886080	69	4949
2026-01-12 05:36:53.29	316.75	12.12	-52.3	-54.6	14.3	0.00e+00	0	23	0	85983232	69	5088
2026-01-12 05:36:54.28	316.62	12.05	-51.9	-54.1	14.6	0.00e+00	0	23	0	88080384	69	4800
2026-01-12 05:36:55.27	316.49	11.98	-51.7	-53.8	14.7	0.00e+00	0	23	0	89128960	69	4644
2026-01-12 05:36:56.26	316.37	11.91	-51.5	-53.6	14.9	0.00e+00	0	23	0	91226112	69	4509
2026-01-12 05:36:57.26	316.24	11.84	-51.5	-53.5	15.0	0.00e+00	0	23	0	93323264	69	4465
2026-01-12 05:36:58.26	316.11	11.77	-51.5	-53.5	15.0	0.00e+00	0	23	0	95420416	69	4475
2026-01-12 05:36:59.26	315.98	11.70	-51.3	-53.3	15.1	0.00e+00	0	23	0	96468992	69	4363
2026-01-12 05:37:00.26	315.86	11.63	-51.4	-53.4	15.0	0.00e+00	0	23	0	98566144	69	4420
2026-01-12 05:37:01.25	315.73	11.56	-51.3	-53.3	15.1	0.00e+00	0	23	0	100663296	69	4356
2026-01-12 05:37:02.26	315.61	11.49	-51.5	-53.5	14.9	0.00e+00	0	23	0	102760448	69	4470
2026-01-12 05:37:03.25	315.48	11.43	-51.5	-53.5	14.9	0.00e+00	0	23	0	104857600	69	4482
2026-01-12 05:37:04.25	315.36	11.36	-51.3	-53.3	15.0	0.00e+00	0	23	0	105906176	69	4387
2026-01-12 05:37:05.25	315.24	11.29	-51.5	-53.6	14.9	0.00e+00	0	23	0	108003328	69	4525
2026-01-12 05:37:06.25	315.12	11.22	-51.5	-53.5	15.0	0.00e+00	0	23	0	110100480	69	4469
2026-01-12 05:37:07.24	314.99	11.15	-51.4	-53.5	15.0	0.00e+00	0	23	0	112197632	69	4442
2026-01-12 05:37:08.24	314.87	11.08	-51.5	-53.5	14.9	0.00e+00	0	23	0	113246208	69	4482
2026-01-12 05:37:09.24	314.75	11.01	-51.5	-53.6	14.9	0.00e+00	0	23	0	115343360	69	4516
2026-01-12 05:37:10.24	314.63	10.94	-51.6	-53.7	14.8	0.00e+00	0	23	0	117440512	69	4547
2026-01-12 05:37:11.24	314.51	10.88	-51.6	-53.7	14.8	0.00e+00	0	23	0	119537664	69	4592
2026-01-12 05:37:12.24	314.39	10.81	-51.7	-53.9	14.7	0.00e+00	0	23	0	121634816	69	4671
2026-01-12 05:37:13.24	314.28	10.74	-51.8	-54.0	14.6	0.00e+00	0	23	0	122683392	69	4750
2026-01-12 05:37:14.24	314.16	10.67	-52.0	-54.4	14.4	0.00e+00	0	23	0	124780544	69	4931
2026-01-12 05:37:15.24	314.04	10.60	-52.1	-54.4	14.4	0.00e+00	0	23	0	126877696	69	4952
2026-01-12 05:37:16.24	313.92	10.53	-52.2	-54.6	14.3	0.00e+00	0	23	0	128974848	69	5068
2026-01-12 05:37:17.24	313.81	10.47	-52.2	-54.7	14.2	0.00e+00	0	23	0	131072000	69	5118
2026-01-12 05:37:18.24	313.69	10.40	-52.2	-54.6	14.3	0.00e+00	0	23	0	132120576	69	5099
2026-01-12 05:37:19.24	313.58	10.33	-52.1	-54.5	14.4	0.00e+00	0	23	0	134217728	69	4992
2026-01-12 05:37:20.24	313.46	10.26	-52.0	-54.4	14.4	0.00e+00	0	23	0	136314880	69	4946
2026-01-12 05:37:21.23	313.35	10.19	-52.1	-54.5	14.3	0.00e+00	0	23	0	138412032	69	5039
2026-01-12 05:37:22.23	313.24	10.13	-52.0	-54.3	14.4	0.00e+00	0	23	0	139460608	69	4907
2026-01-12 05:37:23.23	313.12	10.06	-52.2	-54.6	14.2	0.00e+00	0	23	0	141557760	69	5083
2026-01-12 05:37:24.23	313.01	9.99	-52.2	-54.7	14.2	0.00e+00	0	23	0	143654912	69	5109
2026-01-12 05:37:25.22	312.90	9.92	-52.3	-54.8	14.2	0.00e+00	0	23	0	145752064	69	5185
2026-01-12 05:37:26.22	312.79	9.86	-52.5	-55.1	14.1	0.00e+00	0	23	0	147849216	70	5087
2026-01-12 05:37:27.22	312.68	9.79	-52.6	-55.3	14.0	0.00e+00	0	23	0	148897792	70	5169
2026-01-12 05:37:28.21	312.57	9.72	-52.7	-55.5	13.8	0.00e+00	0	23	0	150994944	70	5305
2026-01-12 05:37:29.22	312.46	9.66	-52.7	-55.4	13.9	0.00e+00	0	23	0	153092096	70	5246
2026-01-12 05:37:30.22	312.35	9.59	-52.8	-55.6	13.8	0.00e+00	0	23	0	155189248	70	5349
2026-01-12 05:37:31.22	312.24	9.52	-52.7	-55.4	13.9	0.00e+00	0	23	0	157286400	70	5240
2026-01-12 05:37:32.22	312.13	9.45	-52.6	-55.2	14.0	0.00e+00	0	23	0	158334976	70	5150
2026-01-12 05:37:33.22	312.03	9.39	-52.5	-55.1	14.1	0.00e+00	0	23	0	160432128	70	5055
2026-01-12 05:37:34.22	311.92	9.32	-52.3	-54.8	14.3	0.00e+00	0	23	0	162529280	70	4872
2026-01-12 05:37:35.21	311.81	9.25	-52.2	-54.6	14.4	0.00e+00	0	22	0	164626432	70	4787
2026-01-12 05:37:36.22	311.71	9.19	-51.9	-54.1	14.7	0.00e+00	0	23	0	166723584	70	4531
2026-01-12 05:37:37.22	311.60	9.12	-52.0	-54.2	14.7	0.00e+00	0	23	0	167772160	70	4577
2026-01-12 05:37:38.23	311.49	9.05	-51.9	-54.1	14.7	0.00e+00	0	23	0	169869312	70	4526
2026-01-12 05:37:39.23	311.39	8.99	-52.0	-54.2	14.6	0.00e+00	0	23	0	171966464	70	4580
2026-01-12 05:37:40.23	311.28	8.92	-51.8	-53.9	14.8	0.00e+00	0	23	0	174063616	70	4423
2026-01-12 05:37:41.23	311.18	8.85	-51.7	-53.9	14.8	0.00e+00	0	23	0	175112192	70	4403
2026-01-12 05:37:42.23	311.08	8.79	-51.8	-54.1	14.7	0.00e+00	0	23	0	177209344	70	4494
2026-01-12 05:37:43.22	310.98	8.72	-52.1	-54.3	14.5	0.00e+00	0	23	0	179306496	70	4642
2026-01-12 05:37:44.22	310.87	8.66	-52.2	-54.6	14.4	0.00e+00	0	23	0	181403648	70	4785
2026-01-12 05:37:45.22	310.77	8.59	-52.2	-54.5	14.4	0.00e+00	0	23	0	183500800	70	4749
2026-01-12 05:37:46.22	310.67	8.53	-52.3	-54.7	14.3	0.00e+00	0	23	0	184549376	70	4855
2026-01-12 05:37:47.23	310.57	8.46	-52.3	-54.7	14.3	0.00e+00	0	23	0	186646528	70	4847
2026-01-12 05:37:48.23	310.47	8.39	-52.3	-54.7	14.3	0.00e+00	0	23	0	188743680	70	4867
2026-01-12 05:37:49.22	310.37	8.33	-52.4	-54.9	14.2	0.00e+00	0	23	0	190840832	70	4981
2026-01-12 05:37:50.23	310.27	8.26	-52.3	-54.7	14.3	0.00e+00	0	23	0	192937984	70	4860
2026-01-12 05:37:51.22	310.17	8.20	-52.3	-54.8	14.2	0.00e+00	0	23	0	193986560	70	4883
2026-01-12 05:37:52.22	310.07	8.13	-52.2	-54.6	14.4	0.00e+00	0	23	0	196083712	70	4761
2026-01-12 05:37:53.21	309.98	8.07	-52.2	-54.5	14.4	0.00e+00	0	23	0	198180864	70	4757
2026-01-12 05:37:54.20	309.88	8.00	-52.2	-54.6	14.3	0.00e+00	0	23	0	200278016	70	4762
2026-01-12 05:37:55.19	309.78	7.94	-52.0	-54.3	14.5	0.00e+00	0	23	0	201326592	70	4637
2026-01-12 05:37:56.19	309.69	7.87	-52.0	-54.3	14.5	0.00e+00	0	23	0	203423744	70	4627
2026-01-12 05:37:57.18	309.59	7.81	-52.2	-54.5	14.4	0.00e+00	0	23	0	205520896	70	4744
2026-01-12 05:37:58.18	309.50	7.74	-52.0	-54.3	14.5	0.00e+00	0	23	0	207618048	70	4637
2026-01-12 05:37:59.18	309.40	7.68	-52.0	-54.4	14.5	0.00e+00	0	23	0	209715200	70	4658
2026-01-12 05:38:00.18	309.31	7.62	-52.0	-54.4	14.5	0.00e+00	0	23	0	210763776	70	4660
2026-01-12 05:38:01.18	309.21	7.55	-52.2	-54.6	14.4	0.00e+00	0	23	0	212860928	70	4766
2026-01-12 05:38:02.19	309.12	7.49	-52.2	-54.6	14.3	0.00e+00	0	23	0	214958080	70	4813
2026-01-12 05:38:03.18	309.02	7.42	-52.3	-54.8	14.2	0.00e+00	0	23	0	217055232	70	4875
2026-01-12 05:38:04.18	308.93	7.36	-52.4	-54.9	14.1	0.00e+00	0	23	0	219152384	70	4957
2026-01-12 05:38:05.18	308.84	7.29	-52.4	-55.0	14.1	0.00e+00	0	23	0	220200960	70	4991
2026-01-12 05:38:06.17	308.75	7.23	-52.5	-55.1	14.0	0.00e+00	0	23	0	222298112	70	5089
2026-01-12 05:38:07.17	308.65	7.17	-52.7	-55.4	13.8	0.00e+00	0	23	0	224395264	70	5226
2026-01-12 05:38:08.18	308.56	7.10	-52.8	-55.6	13.7	0.00e+00	0	23	0	226492416	70	5351
2026-01-12 05:38:09.17	308.47	7.04	-52.7	-55.4	13.7	0.00e+00	0	23	0	227540992	70	5278
2026-01-12 05:38:10.18	308.38	6.97	-52.9	-55.8	13.6	0.00e+00	0	23	0	229638144	70	5468
2026-01-12 05:38:11.18	308.29	6.91	-52.9	-55.8	13.7	0.00e+00	0	23	0	231735296	71	5171
2026-01-12 05:38:12.18	308.20	6.85	-53.1	-56.0	13.5	0.00e+00	0	23	0	233832448	71	5326
2026-01-12 05:38:13.18	308.11	6.78	-53.2	-56.3	13.3	0.00e+00	0	23	0	235929600	71	5491
2026-01-12 05:38:14.18	308.02	6.72	-53.4	-56.6	13.1	0.00e+00	0	23	0	236978176	71	5667
2026-01-12 05:38:15.17	307.93	6.66	-53.4	-56.6	13.2	0.00e+00	0	23	0	239075328	72	5361
2026-01-12 05:38:16.18	307.84	6.59	-53.4	-56.6	13.2	0.00e+00	0	23	0	241172480	72	5396
2026-01-12 05:38:17.18	307.76	6.53	-53.5	-56.8	13.1	0.00e+00	0	23	0	243269632	72	5482
2026-01-12 05:38:18.18	307.67	6.47	-53.7	-57.1	12.8	0.00e+00	0	23	0	245366784	72	5720
2026-01-12 05:38:19.17	307.58	6.41	-53.6	-57.0	12.9	0.00e+00	0	23	0	246415360	72	5620
2026-01-12 05:38:20.17	307.50	6.34	-53.6	-57.0	12.9	7.00e-07	0	23	0	248512512	72	5654
2026-01-12 05:38:21.17	307.41	6.28	-53.7	-57.1	12.8	0.00e+00	0	23	0	250609664	72	5700
2026-01-12 05:38:22.18	307.32	6.22	-53.6	-57.0	12.9	0.00e+00	0	23	0	252706816	72	5594
2026-01-12 05:38:23.17	307.24	6.15	-53.5	-56.9	13.0	0.00e+00	0	23	0	253755392	72	5536
2026-01-12 05:38:24.17	307.15	6.09	-53.7	-57.1	12.8	0.00e+00	0	23	0	255852544	72	5679
2026-01-12 05:38:25.17	307.07	6.03	-53.7	-57.1	12.9	0.00e+00	0	23	0	257949696	72	5660
2026-01-12 05:38:26.17	306.98	5.97	-53.7	-57.0	12.9	0.00e+00	0	23	0	260046848	72	5655
2026-01-12 05:38:27.17	306.90	5.90	-53.4	-56.7	13.1	0.00e+00	0	23	0	262144000	72	5414
2026-01-12 05:38:28.17	306.82	5.84	-53.6	-57.0	12.9	0.00e+00	0	23	0	263192576	72	5608
2026-01-12 05:38:29.17	306.73	5.78	-53.4	-56.6	13.1	0.00e+00	0	23	0	265289728	72	5372
2026-01-12 05:38:30.17	306.65	5.72	-53.6	-57.0	12.9	0.00e+00	0	23	0	267386880	72	5622
2026-01-12 05:38:31.17	306.57	5.66	-53.7	-57.1	12.8	0.00e+00	0	23	0	269484032	72	5722
2026-01-12 05:38:32.17	306.48	5.60	-53.6	-57.0	12.9	0.00e+00	0	23	0	271581184	72	5631
2026-01-12 05:38:33.18	306.40	5.53	-53.6	-57.0	12.9	0.00e+00	0	23	0	272629760	72	5614
2026-01-12 05:38:34.18	306.32	5.47	-53.6	-57.0	12.9	0.00e+00	0	23	0	274726912	72	5642
2026-01-12 05:38:35.17	306.24	5.41	-53.7	-57.3	12.7	7.00e-07	0	23	0	276824064	72	5814
2026-01-12 05:38:36.17	306.16	5.35	-53.6	-57.1	12.8	0.00e+00	0	23	0	278921216	72	5702
2026-01-12 05:38:37.16	306.08	5.29	-53.8	-57.5	12.5	0.00e+00	0	23	0	281018368	72	5927
2026-01-12 05:38:38.16	306.00	5.23	-54.1	-58.1	12.2	2.20e-06	0	23	0	282066944	73	6005
2026-01-12 05:38:39.16	305.92	5.17	-54.1	-58.0	12.2	2.20e-06	0	23	0	284164096	73	5959
2026-01-12 05:38:40.16	305.84	5.10	-54.1	-58.0	12.2	3.80e-06	0	23	0	286261248	73	5925
2026-01-12 05:38:41.15	305.76	5.04	-54.3	-58.5	11.8	9.10e-06	0	23	0	288358400	73	6299
2026-01-12 05:38:42.15	305.68	4.98	-57.4	-71.7	3.8	3.54e-01	0	23	104	289406976	79	20434
2026-01-12 05:38:43.16	305.60	4.92	-57.9	-73.9	3.8	1.49e+00	0	23	104	289406976	80	24754
2026-01-12 05:38:44.16	305.53	4.86	-58.2	-74.2	3.8	1.49e+00	0	23	104	289406976	81	24373
2026-01-12 05:38:45.16	305.45	4.80	-58.5	-74.6	3.8	1.49e+00	0	23	104	289406976	82	23871
2026-01-12 05:38:46.15	305.37	4.74	-58.7	-74.7	3.8	1.49e+00	0	23	104	289406976	82	24277
2026-01-12 05:38:47.15	305.30	4.68	-58.8	-74.8	3.8	1.49e+00	0	23	104	289406976	82	24674
2026-01-12 05:38:48.15	305.22	4.62	-59.0	-75.0	3.8	1.49e+00	0	23	104	289406976	83	23769
2026-01-12 05:38:49.14	305.14	4.56	-59.1	-75.1	3.8	1.49e+00	0	23	104	289406976	83	23935
2026-01-12 05:38:50.14	305.07	4.50	-59.1	-75.2	3.8	1.49e+00	0	23	104	289406976	83	24278
2026-01-12 05:38:51.14	304.99	4.44	-59.3	-75.3	3.8	1.49e+00	0	23	104	289406976	83	24553
2026-01-12 05:38:52.14	304.92	4.38	-59.3	-75.4	3.8	1.49e+00	0	23	104	289406976	83	24758
2026-01-12 05:38:53.13	304.84	4.32	-59.4	-75.4	3.8	1.49e+00	0	23	104	289406976	83	24907
2026-01-12 05:38:54.13	304.77	4.26	-59.6	-75.7	3.8	1.49e+00	0	23	104	289406976	84	24214
2026-01-12 05:38:55.13	304.69	4.20	-59.7	-75.7	3.8	1.49e+00	0	23	104	289406976	84	24307
2026-01-12 05:38:56.12	304.62	4.14	-59.7	-75.7	3.8	1.49e+00	0	23	104	289406976	84	24408
2026-01-12 05:38:57.12	304.55	4.08	-59.5	-75.8	3.8	1.49e+00	0	23	104	289406976	84	24453
2026-01-12 05:38:58.12	304.47	4.02	-59.7	-75.8	3.8	1.49e+00	0	23	104	289406976	84	24495
2026-01-12 05:38:59.12	304.40	3.96	-59.7	-75.8	3.8	1.49e+00	0	23	104	289406976	84	24534
2026-01-12 05:39:00.12	304.33	3.90	-59.8	-75.8	3.8	1.49e+00	0	23	104	289406976	84	24545
2026-01-12 05:39:01.12	304.25	3.84	-59.8	-75.9	3.8	1.49e+00	0	23	104	289406976	84	24704
2026-01-12 05:39:02.11	304.18	3.79	-59.8	-75.9	3.8	1.49e+00	0	23	104	289406976	84	24740
2026-01-12 05:39:03.11	304.11	3.73	-59.8	-75.9	3.8	1.49e+00	0	23	104	289406976	84	24747
2026-01-12 05:39:04.10	304.04	3.67	-59.8	-75.8	3.8	1.49e+00	0	23	104	289406976	84	24691
2026-01-12 05:39:05.10	303.97	3.61	-59.8	-75.8	3.8	1.49e+00	0	23	104	289406976	84	24685
2026-01-12 05:39:06.09	303.90	3.55	-59.8	-75.8	3.8	1.49e+00	0	23	104	289406976	84	24612
2026-01-12 05:39:07.10	303.83	3.49	-59.7	-75.8	3.8	1.49e+00	0	23	104	289406976	84	24534
