passes_logs/2026/01/12/R3.2S_Murmansk/R3.2S_Murmansk__20260112_132238_AQUA_rec.log

#Pass ID: 20260112_132238_AQUA
#Satellite: AQUA
#Configuration: AQUA
#almurnet v.1.7.20251203
#Start time: 2026-01-12 13:22:38

#Version: 2.2.20231116
#Station: R3.2S_Murmansk
#Location: 33.079688 lon 68.888172 lat
#TLE: 1 27424U 02022A   26011.60158398  .00001056  00000+0  22133-3 0  9990
#TLE: 2 27424  98.4078 337.9720 0002034  82.3051 337.8743 14.61815760260390

#Time	Az	El	Level	Level2	SNR	BER	BlckErr	Temp	State	Recorded	gain1	gain2
2026-01-12 13:22:38.65	207.82	2.00	-58.6	-77.9	3.8	7.45e-01	0	21	0	0	84	36183
2026-01-12 13:22:39.65	207.89	2.06	-58.5	-77.9	3.8	7.45e-01	0	21	104	0	84	36127
2026-01-12 13:22:40.66	207.97	2.12	-58.5	-77.9	3.8	7.44e-01	0	21	104	0	84	36218
2026-01-12 13:22:41.66	208.04	2.18	-58.5	-77.9	3.8	7.45e-01	0	21	104	0	84	36132
2026-01-12 13:22:42.66	208.12	2.24	-58.5	-77.9	3.8	7.44e-01	0	21	104	0	84	36123
2026-01-12 13:22:43.67	208.19	2.30	-58.5	-77.9	3.8	7.46e-01	0	21	104	0	84	36155
2026-01-12 13:22:44.67	208.27	2.36	-58.5	-77.9	3.8	7.45e-01	0	21	104	0	84	36126
2026-01-12 13:22:45.66	208.35	2.42	-58.5	-77.8	3.8	7.49e-01	0	21	104	0	84	36072
2026-01-12 13:22:46.66	208.42	2.47	-58.5	-77.8	3.8	7.50e-01	0	21	104	0	84	36028
2026-01-12 13:22:47.65	208.50	2.53	-58.5	-77.8	3.8	7.46e-01	0	21	104	0	84	36045
2026-01-12 13:22:48.66	208.58	2.59	-58.5	-77.8	3.8	7.47e-01	0	21	104	0	84	36063
2026-01-12 13:22:49.66	208.65	2.65	-58.5	-77.9	3.8	7.45e-01	0	21	104	0	84	36112
2026-01-12 13:22:50.66	208.73	2.71	-58.5	-77.8	3.8	7.44e-01	0	21	104	0	84	36077
2026-01-12 13:22:51.65	208.81	2.77	-58.5	-77.9	3.8	7.40e-01	0	21	104	0	84	36123
2026-01-12 13:22:52.66	208.89	2.83	-58.5	-77.9	3.8	7.46e-01	0	21	104	0	84	36142
2026-01-12 13:22:53.66	208.97	2.89	-58.5	-77.8	3.8	7.49e-01	0	21	104	0	84	36099
2026-01-12 13:22:54.66	209.05	2.95	-58.5	-77.9	3.8	7.47e-01	0	21	104	0	84	36138
2026-01-12 13:22:55.66	209.13	3.01	-58.5	-77.8	3.8	7.49e-01	0	21	104	0	84	36101
2026-01-12 13:22:56.66	209.21	3.07	-58.5	-77.8	3.8	7.47e-01	0	21	104	0	84	35991
2026-01-12 13:22:57.67	209.29	3.13	-58.5	-77.8	3.8	7.44e-01	0	21	104	0	84	36026
2026-01-12 13:22:58.68	209.37	3.19	-58.5	-77.8	3.8	7.44e-01	0	21	104	0	84	35996
2026-01-12 13:22:59.67	209.45	3.25	-58.5	-77.8	3.8	7.44e-01	0	21	104	0	84	36044
2026-01-12 13:23:00.67	209.53	3.31	-58.5	-77.8	3.8	7.47e-01	0	21	104	0	84	36058
2026-01-12 13:23:01.67	209.61	3.37	-58.5	-77.8	3.8	7.46e-01	0	21	104	0	84	36065
2026-01-12 13:23:02.68	209.70	3.43	-58.5	-77.9	3.8	7.45e-01	0	21	104	0	84	36108
2026-01-12 13:23:03.68	209.78	3.49	-58.5	-77.9	3.8	7.49e-01	0	21	104	0	84	36153
2026-01-12 13:23:04.68	209.86	3.56	-58.5	-77.9	3.8	7.46e-01	0	21	104	0	84	36174
2026-01-12 13:23:05.68	209.95	3.62	-58.5	-77.9	3.8	7.44e-01	0	21	104	0	84	36107
2026-01-12 13:23:06.68	210.03	3.68	-58.5	-77.9	3.8	7.47e-01	0	21	104	0	84	36124
2026-01-12 13:23:07.69	210.11	3.74	-58.5	-77.8	3.8	7.46e-01	0	21	104	0	84	36050
2026-01-12 13:23:08.69	210.20	3.80	-58.5	-77.8	3.8	7.45e-01	0	21	104	0	84	36040
2026-01-12 13:23:09.69	210.28	3.86	-58.5	-77.9	3.8	7.45e-01	0	21	104	0	84	36163
2026-01-12 13:23:10.69	210.37	3.92	-58.5	-77.8	3.8	7.46e-01	0	22	104	0	84	36099
2026-01-12 13:23:11.69	210.45	3.98	-58.5	-77.9	3.8	7.45e-01	0	22	104	0	84	36163
2026-01-12 13:23:12.69	210.54	4.05	-58.5	-77.9	3.8	7.46e-01	0	21	104	0	84	36107
2026-01-12 13:23:13.69	210.63	4.11	-58.5	-77.9	3.8	7.47e-01	0	22	104	0	84	36127
2026-01-12 13:23:14.70	210.71	4.17	-58.5	-77.8	3.8	7.43e-01	0	21	104	0	84	36087
2026-01-12 13:23:15.70	210.80	4.23	-58.5	-77.8	3.8	7.48e-01	0	21	104	0	84	36089
2026-01-12 13:23:16.70	210.89	4.30	-58.5	-77.8	3.8	7.46e-01	0	21	104	0	84	36050
2026-01-12 13:23:17.70	210.98	4.36	-58.5	-77.9	3.8	7.46e-01	0	22	104	0	84	36117
2026-01-12 13:23:18.70	211.06	4.42	-58.5	-77.8	3.8	7.48e-01	0	22	104	0	84	36010
2026-01-12 13:23:19.69	211.15	4.48	-58.5	-77.8	3.8	7.45e-01	0	22	104	0	84	36067
2026-01-12 13:23:20.69	211.24	4.54	-58.5	-77.9	3.8	7.48e-01	0	22	104	0	84	36119
2026-01-12 13:23:21.69	211.33	4.61	-58.5	-77.9	3.8	7.47e-01	0	21	104	0	84	36193
2026-01-12 13:23:22.69	211.42	4.67	-58.5	-77.9	3.8	7.45e-01	0	22	104	0	84	36127
2026-01-12 13:23:23.69	211.51	4.73	-58.5	-77.9	3.8	7.46e-01	0	21	104	0	84	36116
2026-01-12 13:23:24.69	211.60	4.80	-58.5	-77.9	3.8	7.46e-01	0	22	104	0	84	36124
2026-01-12 13:23:25.69	211.69	4.86	-58.5	-77.9	3.8	7.50e-01	0	22	104	0	84	36144
2026-01-12 13:23:26.69	211.78	4.92	-58.5	-77.9	3.8	7.48e-01	0	22	104	0	84	36111
2026-01-12 13:23:27.69	211.87	4.99	-58.5	-77.8	3.8	7.46e-01	0	22	104	0	84	36022
2026-01-12 13:23:28.69	211.97	5.05	-58.5	-77.8	3.8	7.46e-01	0	22	104	0	84	36063
2026-01-12 13:23:29.69	212.06	5.11	-58.5	-77.8	3.8	7.46e-01	0	22	104	0	84	36023
2026-01-12 13:23:30.69	212.15	5.18	-58.5	-77.8	3.8	7.46e-01	0	22	104	0	84	36016
2026-01-12 13:23:31.69	212.25	5.24	-58.5	-77.8	3.8	7.44e-01	0	22	104	0	84	36040
2026-01-12 13:23:32.69	212.34	5.30	-58.5	-77.8	3.8	7.46e-01	0	22	104	0	84	36044
2026-01-12 13:23:33.70	212.43	5.37	-58.5	-77.8	3.8	7.43e-01	0	22	104	0	84	35978
2026-01-12 13:23:34.70	212.53	5.43	-58.5	-77.8	3.8	7.47e-01	0	22	104	0	84	36011
2026-01-12 13:23:35.69	212.62	5.50	-58.5	-77.8	3.8	7.45e-01	0	22	104	0	84	36013
2026-01-12 13:23:36.70	212.72	5.56	-58.5	-77.8	3.8	7.46e-01	0	22	104	0	84	36029
2026-01-12 13:23:37.69	212.82	5.63	-58.5	-77.8	3.8	7.44e-01	0	22	104	0	84	35948
2026-01-12 13:23:38.70	212.91	5.69	-58.5	-77.8	3.8	7.44e-01	0	22	104	0	84	35951
2026-01-12 13:23:39.69	213.01	5.75	-58.5	-77.8	3.8	7.44e-01	0	22	104	0	84	35956
2026-01-12 13:23:40.70	213.11	5.82	-58.5	-77.8	3.8	7.48e-01	0	22	104	0	84	35973
2026-01-12 13:23:41.69	213.20	5.88	-58.5	-77.8	3.8	7.49e-01	0	22	104	0	84	35936
2026-01-12 13:23:42.69	213.30	5.95	-58.5	-77.8	3.8	7.46e-01	0	22	104	0	84	35959
2026-01-12 13:23:43.70	213.40	6.02	-58.5	-77.8	3.8	7.47e-01	0	22	104	0	84	35918
2026-01-12 13:23:44.69	213.50	6.08	-58.5	-77.8	3.8	7.44e-01	0	22	104	0	84	36064
2026-01-12 13:23:45.70	213.60	6.15	-58.5	-77.8	3.8	7.48e-01	0	22	104	0	84	36013
2026-01-12 13:23:46.69	213.70	6.21	-58.5	-77.8	3.8	7.45e-01	0	22	104	0	84	35992
2026-01-12 13:23:47.70	213.80	6.28	-58.5	-77.8	3.8	7.43e-01	0	22	104	0	84	36054
2026-01-12 13:23:48.71	213.90	6.34	-58.5	-77.8	3.8	7.47e-01	0	22	104	0	84	36035
2026-01-12 13:23:49.70	214.00	6.41	-58.5	-77.8	3.8	7.46e-01	0	22	104	0	84	36105
2026-01-12 13:23:50.70	214.11	6.47	-58.5	-77.9	3.8	7.47e-01	0	22	104	0	84	36138
2026-01-12 13:23:51.69	214.21	6.54	-58.5	-77.8	3.8	7.46e-01	0	22	104	0	84	36073
2026-01-12 13:23:52.68	214.31	6.61	-58.5	-77.8	3.8	7.47e-01	0	22	104	0	84	36096
2026-01-12 13:23:53.68	214.41	6.67	-58.5	-77.8	3.8	7.43e-01	0	22	104	0	84	36045
2026-01-12 13:23:54.69	214.52	6.74	-58.5	-77.8	3.8	7.45e-01	0	22	104	0	84	36085
2026-01-12 13:23:55.69	214.62	6.81	-58.5	-77.8	3.8	7.44e-01	0	22	104	0	84	35979
2026-01-12 13:23:56.69	214.73	6.87	-58.5	-77.8	3.8	7.45e-01	0	22	104	0	84	35987
2026-01-12 13:23:57.69	214.83	6.94	-58.5	-77.8	3.8	7.42e-01	0	22	104	0	84	36069
2026-01-12 13:23:58.69	214.94	7.01	-58.5	-77.8	3.8	7.50e-01	0	22	104	0	84	35978
2026-01-12 13:23:59.68	215.05	7.07	-58.5	-77.8	3.8	7.45e-01	0	22	104	0	84	36049
2026-01-12 13:24:00.68	215.15	7.14	-58.5	-77.8	3.8	7.46e-01	0	22	104	0	84	36062
2026-01-12 13:24:01.68	215.26	7.21	-58.5	-77.8	3.8	7.43e-01	0	22	104	0	84	36043
2026-01-12 13:24:02.67	215.37	7.27	-58.5	-77.8	3.8	7.46e-01	0	22	104	0	84	36028
2026-01-12 13:24:03.67	215.48	7.34	-58.5	-77.8	3.8	7.43e-01	0	22	104	0	84	35982
2026-01-12 13:24:04.66	215.58	7.41	-58.5	-77.8	3.8	7.45e-01	0	22	104	0	84	36063
2026-01-12 13:24:05.66	215.69	7.48	-58.5	-77.8	3.8	7.45e-01	0	22	104	0	84	36029
2026-01-12 13:24:06.66	215.80	7.54	-58.5	-77.8	3.8	7.49e-01	0	22	104	0	84	36069
2026-01-12 13:24:07.66	215.91	7.61	-58.5	-77.8	3.8	7.44e-01	0	22	104	0	84	36104
2026-01-12 13:24:08.66	216.03	7.68	-58.5	-77.8	3.8	7.48e-01	0	22	104	0	84	36069
2026-01-12 13:24:09.66	216.14	7.75	-58.5	-77.9	3.8	7.46e-01	0	22	104	0	84	36128
2026-01-12 13:24:10.66	216.25	7.82	-58.5	-77.8	3.8	7.43e-01	0	22	104	0	84	36060
2026-01-12 13:24:11.66	216.36	7.89	-58.5	-77.8	3.8	7.46e-01	0	22	104	0	84	36061
2026-01-12 13:24:12.65	216.47	7.95	-58.5	-77.8	3.8	7.41e-01	0	22	104	0	84	36000
2026-01-12 13:24:13.65	216.59	8.02	-58.5	-77.9	3.8	7.48e-01	0	22	104	0	84	36134
2026-01-12 13:24:14.65	216.70	8.09	-58.5	-77.8	3.8	7.45e-01	0	22	104	0	84	36021
2026-01-12 13:24:15.65	216.82	8.16	-58.5	-77.8	3.8	7.46e-01	0	22	104	0	84	36049
2026-01-12 13:24:16.64	216.93	8.23	-58.5	-77.8	3.8	7.48e-01	0	22	104	0	84	35952
2026-01-12 13:24:17.63	217.05	8.30	-58.5	-77.8	3.8	7.46e-01	0	22	104	0	84	36007
2026-01-12 13:24:18.64	217.17	8.37	-58.5	-77.8	3.8	7.45e-01	0	22	104	0	84	36095
2026-01-12 13:24:19.63	217.28	8.44	-58.5	-77.8	3.8	7.50e-01	0	22	104	0	84	36062
2026-01-12 13:24:20.62	217.40	8.50	-58.5	-77.8	3.8	7.47e-01	0	22	104	0	84	36050
2026-01-12 13:24:21.61	217.52	8.57	-58.5	-77.8	3.8	7.45e-01	0	22	104	0	84	36060
2026-01-12 13:24:22.61	217.64	8.64	-58.5	-77.8	3.8	7.46e-01	0	22	104	0	84	36056
2026-01-12 13:24:23.61	217.76	8.71	-58.5	-77.8	3.8	7.46e-01	0	22	104	0	84	36066
2026-01-12 13:24:24.61	217.88	8.78	-58.5	-77.8	3.8	7.50e-01	0	22	104	0	84	35988
2026-01-12 13:24:25.60	218.00	8.85	-58.5	-77.8	3.8	7.47e-01	0	22	104	0	84	36041
2026-01-12 13:24:26.59	218.12	8.92	-58.5	-77.8	3.8	7.48e-01	0	22	104	0	84	35976
2026-01-12 13:24:27.58	218.24	8.99	-58.5	-77.8	3.8	7.45e-01	0	22	104	0	84	36048
2026-01-12 13:24:28.57	218.36	9.06	-58.5	-77.8	3.8	7.42e-01	0	22	104	0	84	35961
2026-01-12 13:24:29.57	218.48	9.13	-58.5	-77.8	3.8	7.47e-01	0	22	104	0	84	35910
2026-01-12 13:24:30.56	218.60	9.20	-58.5	-77.8	3.8	7.46e-01	0	22	104	0	84	35927
2026-01-12 13:24:31.56	218.73	9.27	-58.5	-77.8	3.8	7.45e-01	0	22	104	0	84	36001
2026-01-12 13:24:32.56	218.85	9.34	-58.5	-77.8	3.8	7.49e-01	0	22	104	0	84	35953
2026-01-12 13:24:33.56	218.98	9.42	-58.5	-77.8	3.8	7.47e-01	0	22	104	0	84	35906
2026-01-12 13:24:34.56	219.11	9.49	-58.5	-77.8	3.8	7.44e-01	0	22	104	0	84	35922
2026-01-12 13:24:35.56	219.23	9.56	-58.5	-77.8	3.8	7.49e-01	0	22	104	0	84	36073
2026-01-12 13:24:36.56	219.36	9.63	-58.5	-77.8	3.8	7.45e-01	0	22	104	0	84	36002
2026-01-12 13:24:37.55	219.49	9.70	-58.5	-77.8	3.8	7.43e-01	0	22	104	0	84	36055
2026-01-12 13:24:38.55	219.62	9.77	-58.5	-77.8	3.8	7.51e-01	0	22	104	0	84	36016
2026-01-12 13:24:39.55	219.75	9.84	-58.5	-77.8	3.8	7.44e-01	0	22	104	0	84	35971
2026-01-12 13:24:40.55	219.88	9.92	-58.5	-77.8	3.8	7.44e-01	0	22	104	0	84	35936
2026-01-12 13:24:41.54	220.01	9.99	-58.5	-77.8	3.8	7.48e-01	0	22	104	0	84	35987
2026-01-12 13:24:42.54	220.14	10.06	-58.5	-77.8	3.8	7.45e-01	0	22	104	0	84	35859
2026-01-12 13:24:43.54	220.27	10.13	-58.5	-77.8	3.8	7.46e-01	0	23	104	0	84	35894
2026-01-12 13:24:44.53	220.41	10.20	-58.5	-77.8	3.8	7.50e-01	0	22	104	0	84	35989
2026-01-12 13:24:45.53	220.54	10.27	-58.5	-77.8	3.8	7.46e-01	0	22	104	0	84	35917
2026-01-12 13:24:46.53	220.67	10.35	-58.5	-77.8	3.8	7.46e-01	0	22	104	0	84	35932
2026-01-12 13:24:47.53	220.81	10.42	-58.5	-77.8	3.8	7.46e-01	0	22	104	0	84	35851
2026-01-12 13:24:48.53	220.95	10.49	-58.5	-77.8	3.8	7.47e-01	0	22	104	0	84	35881
2026-01-12 13:24:49.52	221.08	10.56	-58.5	-77.8	3.8	7.44e-01	0	22	104	0	84	35944
2026-01-12 13:24:50.51	221.22	10.64	-58.5	-77.8	3.8	7.47e-01	0	22	104	0	84	35920
2026-01-12 13:24:51.51	221.35	10.71	-58.5	-77.8	3.8	7.52e-01	0	22	104	0	84	35923
2026-01-12 13:24:52.51	221.49	10.78	-58.5	-77.8	3.8	7.49e-01	0	22	104	0	84	35959
2026-01-12 13:24:53.51	221.63	10.86	-58.5	-77.8	3.8	7.47e-01	0	22	104	0	84	35804
2026-01-12 13:24:54.52	221.77	10.93	-58.5	-77.8	3.8	7.45e-01	0	22	104	0	84	35894
2026-01-12 13:24:55.52	221.92	11.00	-58.5	-77.8	3.8	7.48e-01	0	22	104	0	84	35960
2026-01-12 13:24:56.51	222.06	11.08	-58.5	-77.8	3.8	7.45e-01	0	22	104	0	84	35951
2026-01-12 13:24:57.50	222.20	11.15	-58.5	-77.8	3.8	7.41e-01	0	22	104	0	84	35898
2026-01-12 13:24:58.50	222.34	11.22	-58.5	-77.8	3.8	7.43e-01	0	22	104	0	84	35924
2026-01-12 13:24:59.50	222.48	11.30	-58.5	-77.8	3.8	7.49e-01	0	22	104	0	84	35865
2026-01-12 13:25:00.50	222.63	11.37	-58.5	-77.8	3.8	7.45e-01	0	22	104	0	84	35914
2026-01-12 13:25:01.50	222.77	11.44	-58.5	-77.8	3.8	7.46e-01	0	22	104	0	84	35818
2026-01-12 13:25:02.50	222.92	11.52	-58.5	-77.8	3.8	7.46e-01	0	22	104	0	84	35880
2026-01-12 13:25:03.49	223.07	11.59	-58.5	-77.8	3.8	7.44e-01	0	22	104	0	84	35858
2026-01-12 13:25:04.50	223.22	11.67	-58.5	-77.8	3.8	7.45e-01	0	22	104	0	84	35946
2026-01-12 13:25:05.50	223.36	11.74	-58.5	-77.8	3.8	7.47e-01	0	22	104	0	84	35923
2026-01-12 13:25:06.50	223.51	11.82	-58.5	-77.8	3.8	7.43e-01	0	22	104	0	84	35917
2026-01-12 13:25:07.49	223.66	11.89	-58.5	-77.8	3.8	7.46e-01	0	22	104	0	84	35892
2026-01-12 13:25:08.49	223.81	11.96	-58.5	-77.8	3.8	7.46e-01	0	22	104	0	84	35827
2026-01-12 13:25:09.49	223.97	12.04	-58.5	-77.8	3.8	7.43e-01	0	22	104	0	84	35908
2026-01-12 13:25:10.49	224.12	12.11	-58.5	-77.8	3.8	7.45e-01	0	22	104	0	84	35850
2026-01-12 13:25:11.49	224.27	12.19	-58.5	-77.8	3.8	7.47e-01	0	22	104	0	84	35878
2026-01-12 13:25:12.49	224.43	12.26	-58.5	-77.8	3.8	7.45e-01	0	22	104	0	84	35809
2026-01-12 13:25:13.49	224.58	12.34	-58.5	-77.8	3.8	7.45e-01	0	22	104	0	84	35865
2026-01-12 13:25:14.48	224.73	12.41	-58.5	-77.8	3.8	7.49e-01	0	22	104	0	84	35872
2026-01-12 13:25:15.48	224.89	12.49	-58.5	-77.8	3.8	7.46e-01	0	22	104	0	84	35846
2026-01-12 13:25:16.48	225.05	12.56	-58.5	-77.8	3.8	7.42e-01	0	23	104	0	84	35874
2026-01-12 13:25:17.47	225.21	12.64	-58.5	-77.8	3.8	7.46e-01	0	22	104	0	84	35850
2026-01-12 13:25:18.47	225.36	12.71	-58.5	-77.8	3.8	7.47e-01	0	23	104	0	84	35834
2026-01-12 13:25:19.47	225.52	12.79	-58.5	-77.8	3.8	7.50e-01	0	22	104	0	84	35883
2026-01-12 13:25:20.47	225.69	12.86	-58.5	-77.8	3.8	7.47e-01	0	22	104	0	84	35722
2026-01-12 13:25:21.47	225.85	12.94	-58.5	-77.8	3.8	7.46e-01	0	22	104	0	84	35883
2026-01-12 13:25:22.46	226.01	13.02	-58.5	-77.8	3.8	7.42e-01	0	23	104	0	84	35815
2026-01-12 13:25:23.45	226.17	13.09	-58.5	-77.8	3.8	7.46e-01	0	22	104	0	84	35861
2026-01-12 13:25:24.45	226.33	13.17	-58.5	-77.8	3.8	7.49e-01	0	22	104	0	84	35931
2026-01-12 13:25:25.45	226.50	13.24	-58.5	-77.8	3.8	7.46e-01	0	22	104	0	84	35774
2026-01-12 13:25:26.45	226.67	13.32	-58.5	-77.8	3.8	7.45e-01	0	22	104	0	84	35768
2026-01-12 13:25:27.46	226.83	13.39	-58.5	-77.8	3.8	7.47e-01	0	22	104	0	84	35856
2026-01-12 13:25:28.45	227.00	13.47	-58.5	-77.8	3.8	7.46e-01	0	23	104	0	84	35829
2026-01-12 13:25:29.45	227.17	13.55	-58.5	-77.8	3.8	7.47e-01	0	22	104	0	84	35720
2026-01-12 13:25:30.44	227.34	13.62	-58.5	-77.8	3.8	7.48e-01	0	23	104	0	84	35818
2026-01-12 13:25:31.44	227.51	13.70	-58.4	-77.8	3.8	7.46e-01	0	22	104	0	84	35754
2026-01-12 13:25:32.44	227.68	13.77	-58.5	-77.8	3.8	7.46e-01	0	23	104	0	84	35823
2026-01-12 13:25:33.44	227.85	13.85	-58.4	-77.8	3.8	7.44e-01	0	22	104	0	84	35772
2026-01-12 13:25:34.44	228.02	13.93	-58.5	-77.8	3.8	7.46e-01	0	22	104	0	84	35741
2026-01-12 13:25:35.44	228.20	14.00	-58.5	-77.8	3.8	7.46e-01	0	22	104	0	84	35753
2026-01-12 13:25:36.43	228.37	14.08	-58.5	-77.8	3.8	7.47e-01	0	22	104	0	84	35880
2026-01-12 13:25:37.43	228.55	14.15	-58.5	-77.8	3.8	7.46e-01	0	22	104	0	84	35882
2026-01-12 13:25:38.42	228.72	14.23	-58.5	-77.8	3.8	7.44e-01	0	22	104	0	84	35843
2026-01-12 13:25:39.43	228.90	14.31	-58.4	-77.7	3.8	7.46e-01	0	23	104	0	84	35637
2026-01-12 13:25:40.42	229.08	14.38	-58.4	-77.8	3.8	7.46e-01	0	23	104	0	84	35752
2026-01-12 13:25:41.43	229.26	14.46	-58.5	-77.8	3.8	7.47e-01	0	22	104	0	84	35786
2026-01-12 13:25:42.43	229.44	14.54	-58.5	-77.8	3.8	7.47e-01	0	22	104	0	84	35734
2026-01-12 13:25:43.42	229.62	14.61	-58.5	-77.8	3.8	7.45e-01	0	22	104	0	84	35726
2026-01-12 13:25:44.42	229.81	14.69	-58.4	-77.8	3.8	7.45e-01	0	22	104	0	84	35724
2026-01-12 13:25:45.42	229.99	14.77	-58.5	-77.8	3.8	7.48e-01	0	22	104	0	84	35729
2026-01-12 13:25:46.41	230.17	14.84	-58.4	-77.7	3.8	7.45e-01	0	23	104	0	84	35585
2026-01-12 13:25:47.40	230.36	14.92	-58.5	-77.8	3.8	7.45e-01	0	22	104	0	84	35783
2026-01-12 13:25:48.41	230.54	14.99	-58.5	-77.8	3.8	7.47e-01	0	22	104	0	84	35838
2026-01-12 13:25:49.41	230.73	15.07	-58.4	-77.8	3.8	7.45e-01	0	22	104	0	84	35731
2026-01-12 13:25:50.41	230.92	15.15	-58.4	-77.8	3.8	7.47e-01	0	23	104	0	84	35711
2026-01-12 13:25:51.40	231.11	15.22	-58.4	-77.8	3.8	7.45e-01	0	22	104	0	84	35750
2026-01-12 13:25:52.40	231.30	15.30	-58.4	-77.8	3.8	7.46e-01	0	23	104	0	84	35735
2026-01-12 13:25:53.39	231.49	15.38	-58.5	-77.8	3.8	7.45e-01	0	22	104	0	84	35697
2026-01-12 13:25:54.39	231.68	15.45	-58.4	-77.8	3.8	7.46e-01	0	22	104	0	84	35774
2026-01-12 13:25:55.38	231.87	15.53	-58.4	-77.7	3.8	7.47e-01	0	22	104	0	84	35661
2026-01-12 13:25:56.37	232.07	15.60	-58.5	-77.8	3.8	7.45e-01	0	23	104	0	84	35754
2026-01-12 13:25:57.36	232.26	15.68	-58.4	-77.8	3.8	7.45e-01	0	22	104	0	84	35781
2026-01-12 13:25:58.37	232.46	15.76	-58.5	-77.8	3.8	7.47e-01	0	23	104	0	84	35733
2026-01-12 13:25:59.37	232.66	15.83	-58.5	-77.8	3.8	7.46e-01	0	23	104	0	84	35783
2026-01-12 13:26:00.36	232.85	15.91	-58.4	-77.8	3.8	7.47e-01	0	22	104	0	84	35819
2026-01-12 13:26:01.36	233.05	15.98	-58.4	-77.7	3.8	7.44e-01	0	22	104	0	84	35613
2026-01-12 13:26:02.36	233.25	16.06	-58.4	-77.7	3.8	7.46e-01	0	22	104	0	84	35671
2026-01-12 13:26:03.37	233.46	16.14	-58.4	-77.8	3.8	7.50e-01	0	23	104	0	84	35769
2026-01-12 13:26:04.38	233.66	16.21	-58.4	-77.8	3.8	7.46e-01	0	22	104	0	84	35719
2026-01-12 13:26:05.38	233.87	16.29	-58.4	-77.8	3.8	7.47e-01	0	23	104	0	84	35719
2026-01-12 13:26:06.39	234.08	16.37	-58.4	-77.8	3.8	7.49e-01	0	22	104	0	84	35710
2026-01-12 13:26:07.38	234.28	16.44	-58.4	-77.7	3.8	7.45e-01	0	22	104	0	84	35628
2026-01-12 13:26:08.38	234.49	16.52	-58.4	-77.8	3.8	7.46e-01	0	23	104	0	84	35748
2026-01-12 13:26:09.39	234.70	16.59	-58.4	-77.7	3.8	7.45e-01	0	23	104	0	84	35646
2026-01-12 13:26:10.38	234.91	16.67	-58.4	-77.8	3.8	7.48e-01	0	22	104	0	84	35763
2026-01-12 13:26:11.38	235.12	16.74	-58.4	-77.8	3.8	7.46e-01	0	23	104	0	84	35730
2026-01-12 13:26:12.38	235.33	16.82	-58.4	-77.7	3.8	7.47e-01	0	22	104	0	84	35632
2026-01-12 13:26:13.38	235.54	16.89	-58.4	-77.7	3.8	7.46e-01	0	23	104	0	84	35670
2026-01-12 13:26:14.37	235.75	16.97	-58.4	-77.8	3.8	7.45e-01	0	22	104	0	84	35707
2026-01-12 13:26:15.37	235.97	17.04	-58.4	-77.7	3.8	7.45e-01	0	23	104	0	84	35691
2026-01-12 13:26:16.38	236.19	17.12	-58.4	-77.7	3.8	7.46e-01	0	22	104	0	84	35650
2026-01-12 13:26:17.37	236.40	17.19	-58.4	-77.7	3.8	7.46e-01	0	23	104	0	84	35632
2026-01-12 13:26:18.37	236.62	17.27	-58.4	-77.7	3.8	7.46e-01	0	22	104	0	84	35587
2026-01-12 13:26:19.36	236.84	17.34	-58.4	-77.7	3.8	7.45e-01	0	22	104	0	84	35614
2026-01-12 13:26:20.37	237.06	17.42	-58.4	-77.8	3.8	7.45e-01	0	23	104	0	84	35718
2026-01-12 13:26:21.37	237.28	17.49	-58.4	-77.7	3.8	7.43e-01	0	23	104	0	84	35673
2026-01-12 13:26:22.36	237.50	17.57	-58.4	-77.7	3.8	7.45e-01	0	23	104	0	84	35625
2026-01-12 13:26:23.36	237.73	17.64	-58.4	-77.7	3.8	7.45e-01	0	22	104	0	84	35656
2026-01-12 13:26:24.36	237.95	17.71	-58.4	-77.8	3.8	7.45e-01	0	22	104	0	84	35792
2026-01-12 13:26:25.35	238.18	17.79	-58.4	-77.8	3.8	7.47e-01	0	22	104	0	84	35784
2026-01-12 13:26:26.36	238.40	17.86	-58.4	-77.7	3.8	7.46e-01	0	22	104	0	84	35678
2026-01-12 13:26:27.35	238.63	17.93	-58.4	-77.8	3.8	7.47e-01	0	22	104	0	84	35804
2026-01-12 13:26:28.36	238.86	18.01	-58.4	-77.7	3.8	7.47e-01	0	22	104	0	84	35639
2026-01-12 13:26:29.36	239.09	18.08	-58.4	-77.7	3.8	7.44e-01	0	22	104	0	84	35592
2026-01-12 13:26:30.36	239.33	18.15	-58.4	-77.7	3.8	7.50e-01	0	23	104	0	84	35629
2026-01-12 13:26:31.36	239.56	18.22	-58.4	-77.7	3.8	7.47e-01	0	23	104	0	84	35662
2026-01-12 13:26:32.36	239.79	18.30	-58.4	-77.7	3.8	7.46e-01	0	22	104	0	84	35662
2026-01-12 13:26:33.36	240.03	18.37	-58.4	-77.7	3.8	7.47e-01	0	22	104	0	84	35600
2026-01-12 13:26:34.36	240.27	18.44	-58.4	-77.7	3.8	7.45e-01	0	23	104	0	84	35663
2026-01-12 13:26:35.36	240.50	18.51	-58.4	-77.7	3.8	7.46e-01	0	23	104	0	84	35685
2026-01-12 13:26:36.36	240.74	18.58	-58.4	-77.8	3.8	7.42e-01	0	22	104	0	84	35695
2026-01-12 13:26:37.36	240.98	18.66	-58.4	-77.8	3.8	7.45e-01	0	22	104	0	84	35714
2026-01-12 13:26:38.36	241.22	18.73	-58.4	-77.7	3.8	7.46e-01	0	22	104	0	84	35523
2026-01-12 13:26:39.36	241.47	18.80	-58.4	-77.7	3.8	7.44e-01	0	22	104	0	84	35492
2026-01-12 13:26:40.36	241.71	18.87	-58.4	-77.7	3.8	7.49e-01	0	22	104	0	84	35504
2026-01-12 13:26:41.37	241.96	18.94	-58.4	-77.7	3.8	7.46e-01	0	22	104	0	84	35661
2026-01-12 13:26:42.37	242.20	19.01	-58.4	-77.7	3.8	7.46e-01	0	22	104	0	84	35678
2026-01-12 13:26:43.37	242.45	19.08	-58.4	-77.7	3.8	7.46e-01	0	23	104	0	84	35654
2026-01-12 13:26:44.37	242.70	19.15	-58.4	-77.8	3.8	7.44e-01	0	22	104	0	84	35756
2026-01-12 13:26:45.38	242.95	19.22	-58.4	-77.7	3.8	7.45e-01	0	22	104	0	84	35684
2026-01-12 13:26:46.38	243.20	19.29	-58.4	-77.7	3.8	7.47e-01	0	23	104	0	84	35646
2026-01-12 13:26:47.38	243.45	19.35	-58.4	-77.7	3.8	7.47e-01	0	22	104	0	84	35640
2026-01-12 13:26:48.39	243.71	19.42	-58.4	-77.7	3.8	7.45e-01	0	22	104	0	84	35671
2026-01-12 13:26:49.39	243.96	19.49	-58.4	-77.7	3.8	7.44e-01	0	22	104	0	84	35616
2026-01-12 13:26:50.39	244.22	19.56	-58.4	-77.7	3.8	7.45e-01	0	22	104	0	84	35637
2026-01-12 13:26:51.39	244.47	19.62	-58.4	-77.7	3.8	7.44e-01	0	23	104	0	84	35656
2026-01-12 13:26:52.39	244.73	19.69	-58.4	-77.7	3.8	7.47e-01	0	22	104	0	84	35524
2026-01-12 13:26:53.39	244.99	19.76	-58.4	-77.7	3.8	7.44e-01	0	22	104	0	84	35588
2026-01-12 13:26:54.38	245.25	19.82	-58.4	-77.7	3.8	7.47e-01	0	23	104	0	84	35573
2026-01-12 13:26:55.39	245.51	19.89	-58.4	-77.7	3.8	7.44e-01	0	23	104	0	84	35643
2026-01-12 13:26:56.39	245.77	19.96	-58.4	-77.7	3.8	7.47e-01	0	22	104	0	84	35576
2026-01-12 13:26:57.38	246.03	20.02	-58.4	-77.7	3.8	7.44e-01	0	23	104	0	84	35579
2026-01-12 13:26:58.39	246.30	20.08	-58.4	-77.7	3.8	7.43e-01	0	22	104	0	84	35548
2026-01-12 13:26:59.40	246.57	20.15	-58.4	-77.7	3.8	7.44e-01	0	22	104	0	84	35623
2026-01-12 13:27:00.39	246.83	20.21	-58.4	-77.7	3.8	7.45e-01	0	22	104	0	84	35563
2026-01-12 13:27:01.39	247.10	20.28	-58.4	-77.7	3.8	7.44e-01	0	23	104	0	84	35588
2026-01-12 13:27:02.39	247.37	20.34	-58.4	-77.7	3.8	7.48e-01	0	23	104	0	84	35610
2026-01-12 13:27:03.38	247.64	20.40	-58.4	-77.7	3.8	7.47e-01	0	22	104	0	84	35634
2026-01-12 13:27:04.39	247.91	20.46	-58.4	-77.7	3.8	7.48e-01	0	22	104	0	84	35594
2026-01-12 13:27:05.39	248.18	20.52	-58.4	-77.7	3.8	7.48e-01	0	23	104	0	84	35582
2026-01-12 13:27:06.39	248.45	20.59	-58.4	-77.7	3.8	7.46e-01	0	23	104	0	84	35527
2026-01-12 13:27:07.39	248.73	20.65	-58.4	-77.7	3.8	7.47e-01	0	22	104	0	84	35599
2026-01-12 13:27:08.38	249.00	20.71	-58.4	-77.7	3.8	7.46e-01	0	22	104	0	84	35582
2026-01-12 13:27:09.38	249.28	20.76	-58.4	-77.7	3.8	7.45e-01	0	23	104	0	84	35604
2026-01-12 13:27:10.38	249.56	20.82	-58.4	-77.7	3.8	7.45e-01	0	22	104	0	84	35521
2026-01-12 13:27:11.37	249.83	20.88	-58.4	-77.7	3.8	7.48e-01	0	22	104	0	84	35612
2026-01-12 13:27:12.37	250.11	20.94	-58.4	-77.7	3.8	7.46e-01	0	23	104	0	84	35633
2026-01-12 13:27:13.37	250.39	21.00	-58.4	-77.8	3.8	7.47e-01	0	22	104	0	84	35721
2026-01-12 13:27:14.36	250.67	21.05	-58.4	-77.7	3.8	7.47e-01	0	23	104	0	84	35616
2026-01-12 13:27:15.36	250.96	21.11	-58.4	-77.7	3.8	7.44e-01	0	22	104	0	84	35608
2026-01-12 13:27:16.36	251.24	21.17	-58.4	-77.7	3.8	7.46e-01	0	23	104	0	84	35550
2026-01-12 13:27:17.36	251.53	21.22	-58.4	-77.7	3.8	7.49e-01	0	22	104	0	84	35615
2026-01-12 13:27:18.36	251.81	21.28	-58.4	-77.7	3.8	7.47e-01	0	23	104	0	84	35594
2026-01-12 13:27:19.37	252.10	21.33	-58.4	-77.7	3.8	7.49e-01	0	23	104	0	84	35524
2026-01-12 13:27:20.37	252.39	21.39	-58.4	-77.7	3.8	7.47e-01	0	22	104	0	84	35576
2026-01-12 13:27:21.38	252.68	21.44	-58.4	-77.7	3.8	7.47e-01	0	22	104	0	84	35597
2026-01-12 13:27:22.38	252.97	21.49	-58.4	-77.7	3.8	7.46e-01	0	22	104	0	84	35587
2026-01-12 13:27:23.38	253.26	21.54	-58.4	-77.7	3.8	7.49e-01	0	23	104	0	84	35523
2026-01-12 13:27:24.37	253.55	21.60	-58.4	-77.7	3.8	7.46e-01	0	23	104	0	84	35571
2026-01-12 13:27:25.37	253.85	21.65	-58.4	-77.7	3.8	7.46e-01	0	23	104	0	84	35612
2026-01-12 13:27:26.37	254.14	21.70	-58.4	-77.7	3.8	7.47e-01	0	22	104	0	84	35604
2026-01-12 13:27:27.37	254.44	21.75	-58.4	-77.7	3.8	7.47e-01	0	23	104	0	84	35631
2026-01-12 13:27:28.38	254.74	21.80	-58.4	-77.8	3.8	7.45e-01	0	23	104	0	84	35712
2026-01-12 13:27:29.37	255.03	21.84	-58.4	-77.7	3.8	7.47e-01	0	23	104	0	84	35612
2026-01-12 13:27:30.36	255.33	21.89	-58.4	-77.7	3.8	7.43e-01	0	23	104	0	84	35618
2026-01-12 13:27:31.36	255.63	21.94	-58.4	-77.7	3.8	7.44e-01	0	23	104	0	84	35627
2026-01-12 13:27:32.35	255.92	21.98	-58.4	-77.7	3.8	7.46e-01	0	23	104	0	84	35675
2026-01-12 13:27:33.36	256.23	22.03	-58.4	-77.7	3.8	7.48e-01	0	22	104	0	84	35641
2026-01-12 13:27:34.36	256.53	22.07	-58.4	-77.7	3.8	7.46e-01	0	22	104	0	84	35652
2026-01-12 13:27:35.35	256.83	22.12	-58.4	-77.7	3.8	7.45e-01	0	23	104	0	84	35605
2026-01-12 13:27:36.35	257.13	22.16	-58.4	-77.7	3.8	7.43e-01	0	23	104	0	84	35584
2026-01-12 13:27:37.35	257.44	22.20	-58.4	-77.7	3.8	7.44e-01	0	22	104	0	84	35520
2026-01-12 13:27:38.35	257.74	22.25	-58.4	-77.7	3.8	7.44e-01	0	23	104	0	84	35500
2026-01-12 13:27:39.35	258.05	22.29	-58.4	-77.7	3.8	7.48e-01	0	23	104	0	84	35552
2026-01-12 13:27:40.36	258.36	22.33	-58.4	-77.7	3.8	7.48e-01	0	23	104	0	84	35610
2026-01-12 13:27:41.36	258.67	22.37	-58.4	-77.7	3.8	7.46e-01	0	23	104	0	84	35541
2026-01-12 13:27:42.36	258.98	22.41	-58.4	-77.7	3.8	7.47e-01	0	23	104	0	84	35607
2026-01-12 13:27:43.36	259.28	22.45	-58.4	-77.7	3.8	7.48e-01	0	23	104	0	84	35607
2026-01-12 13:27:44.37	259.60	22.48	-58.4	-77.7	3.8	7.44e-01	0	23	104	0	84	35562
2026-01-12 13:27:45.37	259.91	22.52	-58.4	-77.7	3.8	7.45e-01	0	23	104	0	84	35584
2026-01-12 13:27:46.37	260.22	22.56	-58.4	-77.7	3.8	7.46e-01	0	23	104	0	84	35583
2026-01-12 13:27:47.37	260.53	22.59	-58.4	-77.7	3.8	7.46e-01	0	23	104	0	84	35613
2026-01-12 13:27:48.37	260.85	22.63	-58.4	-77.7	3.8	7.45e-01	0	23	104	0	84	35544
2026-01-12 13:27:49.37	261.16	22.66	-58.4	-77.7	3.8	7.46e-01	0	23	104	0	84	35526
2026-01-12 13:27:50.37	261.47	22.69	-58.4	-77.7	3.8	7.42e-01	0	23	104	0	84	35548
2026-01-12 13:27:51.37	261.79	22.73	-58.4	-77.7	3.8	7.44e-01	0	23	104	0	84	35527
2026-01-12 13:27:52.37	262.11	22.76	-58.4	-77.7	3.8	7.45e-01	0	23	104	0	84	35524
2026-01-12 13:27:53.37	262.42	22.79	-58.4	-77.7	3.8	7.44e-01	0	23	104	0	84	35527
2026-01-12 13:27:54.37	262.74	22.82	-58.4	-77.7	3.8	7.45e-01	0	23	104	0	84	35545
2026-01-12 13:27:55.37	263.06	22.85	-58.4	-77.7	3.8	7.49e-01	0	23	104	0	84	35585
2026-01-12 13:27:56.37	263.38	22.87	-58.4	-77.7	3.8	7.46e-01	0	23	104	0	84	35576
2026-01-12 13:27:57.36	263.69	22.90	-58.4	-77.7	3.8	7.47e-01	0	23	104	0	84	35538
2026-01-12 13:27:58.36	264.01	22.93	-58.4	-77.7	3.8	7.44e-01	0	22	104	0	84	35580
2026-01-12 13:27:59.36	264.33	22.95	-58.4	-77.7	3.8	7.47e-01	0	22	104	0	84	35591
2026-01-12 13:28:00.34	264.64	22.98	-58.4	-77.7	3.8	7.43e-01	0	23	104	0	84	35597
2026-01-12 13:28:01.33	264.96	23.00	-58.4	-77.7	3.8	7.46e-01	0	23	104	0	84	35637
2026-01-12 13:28:02.34	265.29	23.02	-58.4	-77.7	3.8	7.45e-01	0	22	104	0	84	35532
2026-01-12 13:28:03.34	265.61	23.05	-58.4	-77.7	3.8	7.49e-01	0	23	104	0	84	35550
2026-01-12 13:28:04.34	265.93	23.07	-58.4	-77.7	3.8	7.46e-01	0	22	104	0	84	35543
2026-01-12 13:28:05.34	266.25	23.09	-58.4	-77.7	3.8	7.44e-01	0	23	104	0	84	35507
2026-01-12 13:28:06.34	266.58	23.11	-58.4	-77.7	3.8	7.47e-01	0	23	104	0	84	35537
2026-01-12 13:28:07.35	266.90	23.13	-58.4	-77.7	3.8	7.44e-01	0	23	104	0	84	35467
2026-01-12 13:28:08.35	267.23	23.14	-58.4	-77.7	3.8	7.47e-01	0	23	104	0	84	35552
2026-01-12 13:28:09.35	267.55	23.16	-58.4	-77.7	3.8	7.42e-01	0	23	104	0	84	35565
2026-01-12 13:28:10.36	267.88	23.18	-58.4	-77.7	3.8	7.49e-01	0	23	104	0	84	35490
2026-01-12 13:28:11.36	268.21	23.19	-58.4	-77.7	3.8	7.48e-01	0	23	104	0	84	35530
2026-01-12 13:28:12.36	268.53	23.21	-58.4	-77.7	3.8	7.45e-01	0	23	104	0	84	35538
2026-01-12 13:28:13.37	268.86	23.22	-58.4	-77.7	3.8	7.45e-01	0	23	104	0	84	35489
2026-01-12 13:28:14.37	269.19	23.23	-58.4	-77.7	3.8	7.44e-01	0	23	104	0	84	35582
2026-01-12 13:28:15.36	269.51	23.24	-58.4	-77.7	3.8	7.47e-01	0	23	104	0	84	35491
2026-01-12 13:28:16.35	269.83	23.25	-58.4	-77.7	3.8	7.45e-01	0	23	104	0	84	35617
2026-01-12 13:28:17.35	270.16	23.26	-58.4	-77.7	3.8	7.47e-01	0	23	104	0	84	35624
2026-01-12 13:28:18.35	270.49	23.27	-58.4	-77.7	3.8	7.48e-01	0	23	104	0	84	35678
2026-01-12 13:28:19.35	270.81	23.28	-58.4	-77.7	3.8	7.47e-01	0	23	104	0	84	35551
2026-01-12 13:28:20.35	271.14	23.29	-58.4	-77.7	3.8	7.47e-01	0	23	104	0	84	35496
2026-01-12 13:28:21.34	271.46	23.29	-58.4	-77.7	3.8	7.46e-01	0	23	104	0	84	35501
2026-01-12 13:28:22.34	271.79	23.30	-58.4	-77.7	3.8	7.41e-01	0	23	104	0	84	35470
2026-01-12 13:28:23.34	272.12	23.30	-58.4	-77.6	3.8	7.43e-01	0	23	104	0	84	35276
2026-01-12 13:28:24.33	272.44	23.30	-58.4	-77.7	3.8	7.47e-01	0	23	104	0	84	35321
2026-01-12 13:28:25.34	272.77	23.31	-58.4	-77.7	3.8	7.48e-01	0	23	104	0	84	35289
2026-01-12 13:28:26.34	273.10	23.31	-58.4	-77.7	3.8	7.46e-01	0	23	104	0	84	35417
2026-01-12 13:28:27.34	273.43	23.31	-58.4	-77.7	3.8	7.44e-01	0	23	104	0	84	35377
2026-01-12 13:28:28.34	273.76	23.31	-58.4	-77.7	3.8	7.46e-01	0	23	104	0	84	35442
2026-01-12 13:28:29.34	274.08	23.31	-58.4	-77.7	3.8	7.50e-01	0	23	104	0	84	35490
2026-01-12 13:28:30.34	274.41	23.30	-58.4	-77.7	3.8	7.43e-01	0	23	104	0	84	35535
2026-01-12 13:28:31.34	274.74	23.30	-58.4	-77.7	3.8	7.42e-01	0	23	104	0	84	35566
2026-01-12 13:28:32.34	275.07	23.30	-58.4	-77.7	3.8	7.46e-01	0	22	104	0	84	35572
2026-01-12 13:28:33.34	275.39	23.29	-58.4	-77.7	3.8	7.48e-01	0	23	104	0	84	35524
2026-01-12 13:28:34.34	275.72	23.28	-58.4	-77.7	3.8	7.48e-01	0	23	104	0	84	35456
2026-01-12 13:28:35.34	276.05	23.28	-58.4	-77.7	3.8	7.47e-01	0	23	104	0	84	35443
2026-01-12 13:28:36.34	276.37	23.27	-58.4	-77.7	3.8	7.44e-01	0	22	104	0	84	35547
2026-01-12 13:28:37.34	276.70	23.26	-58.4	-77.7	3.8	7.50e-01	0	23	104	0	84	35432
2026-01-12 13:28:38.35	277.03	23.25	-58.4	-77.7	3.8	7.48e-01	0	23	104	0	84	35430
2026-01-12 13:28:39.35	277.36	23.24	-58.4	-77.7	3.8	7.44e-01	0	23	104	0	84	35422
2026-01-12 13:28:40.35	277.68	23.23	-58.4	-77.7	3.8	7.49e-01	0	23	104	0	84	35535
2026-01-12 13:28:41.36	278.01	23.21	-58.4	-77.7	3.8	7.46e-01	0	23	104	0	84	35479
2026-01-12 13:28:42.35	278.33	23.20	-58.4	-77.7	3.8	7.45e-01	0	22	104	0	84	35546
2026-01-12 13:28:43.35	278.66	23.19	-58.4	-77.7	3.8	7.45e-01	0	23	104	0	84	35472
2026-01-12 13:28:44.35	278.98	23.17	-58.4	-77.7	3.8	7.47e-01	0	23	104	0	84	35467
2026-01-12 13:28:45.34	279.30	23.16	-58.4	-77.7	3.8	7.47e-01	0	23	104	0	84	35408
2026-01-12 13:28:46.34	279.63	23.14	-58.4	-77.7	3.8	7.47e-01	0	23	104	0	84	35441
2026-01-12 13:28:47.34	279.95	23.12	-58.4	-77.7	3.8	7.46e-01	0	23	104	0	84	35460
2026-01-12 13:28:48.34	280.28	23.10	-58.4	-77.7	3.8	7.48e-01	0	23	104	0	84	35336
2026-01-12 13:28:49.33	280.59	23.08	-58.4	-77.7	3.8	7.46e-01	0	23	104	0	84	35461
2026-01-12 13:28:50.33	280.92	23.06	-58.4	-77.7	3.8	7.46e-01	0	23	104	0	84	35364
2026-01-12 13:28:51.32	281.24	23.04	-58.4	-77.7	3.8	7.47e-01	0	23	104	0	84	35364
2026-01-12 13:28:52.32	281.56	23.02	-58.4	-77.7	3.8	7.48e-01	0	23	104	0	84	35401
2026-01-12 13:28:53.31	281.88	23.00	-58.4	-77.7	3.8	7.45e-01	0	22	104	0	84	35512
2026-01-12 13:28:54.32	282.20	22.97	-58.4	-77.7	3.8	7.46e-01	0	22	104	0	84	35364
2026-01-12 13:28:55.32	282.52	22.95	-58.4	-77.7	3.8	7.44e-01	0	23	104	0	84	35424
2026-01-12 13:28:56.32	282.84	22.92	-58.4	-77.7	3.8	7.51e-01	0	23	104	0	84	35530
2026-01-12 13:28:57.32	283.16	22.89	-58.4	-77.7	3.8	7.46e-01	0	22	104	0	84	35518
2026-01-12 13:28:58.32	283.48	22.87	-58.4	-77.7	3.8	7.47e-01	0	22	104	0	84	35539
2026-01-12 13:28:59.32	283.79	22.84	-58.4	-77.7	3.8	7.47e-01	0	23	104	0	84	35406
2026-01-12 13:29:00.32	284.11	22.81	-58.4	-77.7	3.8	7.46e-01	0	22	104	0	84	35487
2026-01-12 13:29:01.32	284.43	22.78	-58.4	-77.7	3.8	7.48e-01	0	23	104	0	84	35415
2026-01-12 13:29:02.32	284.74	22.75	-58.4	-77.7	3.8	7.46e-01	0	22	104	0	84	35482
2026-01-12 13:29:03.32	285.06	22.72	-58.4	-77.7	3.8	7.43e-01	0	23	104	0	84	35495
2026-01-12 13:29:04.32	285.37	22.68	-58.4	-77.7	3.8	7.47e-01	0	23	104	0	84	35424
2026-01-12 13:29:05.32	285.69	22.65	-58.4	-77.7	3.8	7.49e-01	0	23	104	0	84	35463
2026-01-12 13:29:06.32	286.00	22.62	-58.4	-77.7	3.8	7.46e-01	0	23	104	0	84	35427
2026-01-12 13:29:07.32	286.31	22.58	-58.4	-77.7	3.8	7.49e-01	0	23	104	0	84	35447
2026-01-12 13:29:08.32	286.62	22.55	-58.4	-77.7	3.8	7.44e-01	0	23	104	0	84	35400
2026-01-12 13:29:09.32	286.93	22.51	-58.4	-77.7	3.8	7.45e-01	0	22	104	0	84	35382
2026-01-12 13:29:10.32	287.24	22.47	-58.4	-77.7	3.8	7.44e-01	0	23	104	0	84	35455
2026-01-12 13:29:11.31	287.55	22.44	-58.4	-77.6	3.8	7.46e-01	0	23	104	0	84	35259
2026-01-12 13:29:12.31	287.86	22.40	-58.4	-77.6	3.8	7.45e-01	0	23	104	0	84	35269
2026-01-12 13:29:13.32	288.17	22.36	-58.4	-77.6	3.8	7.45e-01	0	23	104	0	84	35281
2026-01-12 13:29:14.32	288.48	22.32	-58.4	-77.6	3.8	7.46e-01	0	23	104	0	84	35235
2026-01-12 13:29:15.32	288.78	22.28	-58.4	-77.7	3.8	7.43e-01	0	23	104	0	84	35430
2026-01-12 13:29:16.32	289.09	22.24	-58.4	-77.7	3.8	7.45e-01	0	22	104	0	84	35446
2026-01-12 13:29:17.32	289.39	22.19	-58.4	-77.7	3.8	7.45e-01	0	23	104	0	84	35374
2026-01-12 13:29:18.32	289.70	22.15	-58.4	-77.7	3.8	7.49e-01	0	23	104	0	84	35415
2026-01-12 13:29:19.31	290.00	22.11	-58.4	-77.7	3.8	7.49e-01	0	23	104	0	84	35416
2026-01-12 13:29:20.32	290.30	22.06	-58.4	-77.7	3.8	7.46e-01	0	22	104	0	84	35424
2026-01-12 13:29:21.31	290.60	22.02	-58.4	-77.7	3.8	7.46e-01	0	23	104	0	84	35472
2026-01-12 13:29:22.32	290.90	21.97	-58.4	-77.7	3.8	7.44e-01	0	23	104	0	84	35401
2026-01-12 13:29:23.32	291.20	21.93	-58.4	-77.7	3.8	7.46e-01	0	23	104	0	84	35445
2026-01-12 13:29:24.31	291.50	21.88	-58.4	-77.7	3.8	7.45e-01	0	22	104	0	84	35462
2026-01-12 13:29:25.31	291.79	21.83	-58.4	-77.7	3.8	7.46e-01	0	23	104	0	84	35345
2026-01-12 13:29:26.31	292.09	21.78	-58.3	-77.7	3.8	7.48e-01	0	23	104	0	84	35355
2026-01-12 13:29:27.30	292.38	21.74	-58.4	-77.7	3.8	7.45e-01	0	23	104	0	84	35338
2026-01-12 13:29:28.31	292.68	21.69	-58.4	-77.7	3.8	7.46e-01	0	23	104	0	84	35359
2026-01-12 13:29:29.30	292.97	21.64	-58.4	-77.7	3.8	7.45e-01	0	23	104	0	84	35442
2026-01-12 13:29:30.29	293.26	21.59	-58.4	-77.7	3.8	7.45e-01	0	23	104	0	84	35325
2026-01-12 13:29:31.30	293.55	21.53	-58.4	-77.7	3.8	7.45e-01	0	23	104	0	84	35386
2026-01-12 13:29:32.29	293.84	21.48	-58.4	-77.7	3.8	7.45e-01	0	23	104	0	84	35424
2026-01-12 13:29:33.30	294.13	21.43	-58.4	-77.7	3.8	7.44e-01	0	23	104	0	84	35384
2026-01-12 13:29:34.29	294.42	21.38	-58.4	-77.7	3.8	7.48e-01	0	22	104	0	84	35458
2026-01-12 13:29:35.30	294.71	21.32	-58.4	-77.7	3.8	7.42e-01	0	23	104	0	84	35458
2026-01-12 13:29:36.29	294.99	21.27	-58.4	-77.7	3.8	7.44e-01	0	23	104	0	84	35385
2026-01-12 13:29:37.30	295.28	21.21	-58.4	-77.7	3.8	7.46e-01	0	23	104	0	84	35370
2026-01-12 13:29:38.29	295.56	21.16	-58.4	-77.7	3.8	7.47e-01	0	22	104	0	84	35340
2026-01-12 13:29:39.30	295.85	21.10	-58.3	-77.6	3.8	7.46e-01	0	23	104	0	84	35273
2026-01-12 13:29:40.30	296.13	21.05	-58.4	-77.7	3.8	7.46e-01	0	23	104	0	84	35416
2026-01-12 13:29:41.30	296.41	20.99	-58.3	-77.6	3.8	7.42e-01	0	23	104	0	84	35267
2026-01-12 13:29:42.29	296.69	20.93	-58.4	-77.7	3.8	7.47e-01	0	23	104	0	84	35413
2026-01-12 13:29:43.29	296.97	20.87	-58.4	-77.7	3.8	7.47e-01	0	23	104	0	84	35415
2026-01-12 13:29:44.29	297.24	20.82	-58.4	-77.7	3.8	7.43e-01	0	22	104	0	84	35404
2026-01-12 13:29:45.29	297.52	20.76	-58.3	-77.7	3.8	7.46e-01	0	23	104	0	84	35311
2026-01-12 13:29:46.29	297.80	20.70	-58.3	-77.7	3.8	7.46e-01	0	23	104	0	84	35338
2026-01-12 13:29:47.29	298.07	20.64	-58.3	-77.7	3.8	7.46e-01	0	23	104	0	84	35308
2026-01-12 13:29:48.29	298.34	20.58	-58.3	-77.6	3.8	7.45e-01	0	23	104	0	84	35264
2026-01-12 13:29:49.29	298.62	20.52	-58.3	-77.7	3.8	7.48e-01	0	23	104	0	84	35318
2026-01-12 13:29:50.29	298.89	20.45	-58.3	-77.7	3.8	7.50e-01	0	23	104	0	84	35292
2026-01-12 13:29:51.30	299.16	20.39	-58.3	-77.7	3.8	7.44e-01	0	23	104	0	84	35310
2026-01-12 13:29:52.29	299.43	20.33	-58.4	-77.7	3.8	7.47e-01	0	23	104	0	84	35311
2026-01-12 13:29:53.28	299.69	20.27	-58.3	-77.6	3.8	7.48e-01	0	23	104	0	84	35257
2026-01-12 13:29:54.29	299.96	20.20	-58.3	-77.6	3.8	7.45e-01	0	23	104	0	84	35247
2026-01-12 13:29:55.29	300.23	20.14	-58.3	-77.7	3.8	7.46e-01	0	23	104	0	84	35335
2026-01-12 13:29:56.29	300.49	20.08	-58.3	-77.7	3.8	7.45e-01	0	23	104	0	84	35308
2026-01-12 13:29:57.29	300.75	20.01	-58.3	-77.7	3.8	7.44e-01	0	23	104	0	84	35286
2026-01-12 13:29:58.28	301.01	19.95	-58.3	-77.6	3.8	7.48e-01	0	23	104	0	84	35281
2026-01-12 13:29:59.29	301.28	19.88	-58.3	-77.7	3.8	7.43e-01	0	23	104	0	84	35299
2026-01-12 13:30:00.29	301.54	19.82	-58.3	-77.6	3.8	7.47e-01	0	23	104	0	84	35271
2026-01-12 13:30:01.29	301.79	19.75	-58.3	-77.6	3.8	7.45e-01	0	23	104	0	84	35242
2026-01-12 13:30:02.29	302.05	19.69	-58.3	-77.7	3.8	7.47e-01	0	23	104	0	84	35287
2026-01-12 13:30:03.29	302.31	19.62	-58.3	-77.6	3.8	7.44e-01	0	23	104	0	84	35223
2026-01-12 13:30:04.29	302.56	19.55	-58.3	-77.6	3.8	7.46e-01	0	23	104	0	84	35257
2026-01-12 13:30:05.29	302.82	19.49	-58.3	-77.6	3.8	7.45e-01	0	23	104	0	84	35282
2026-01-12 13:30:06.29	303.07	19.42	-58.3	-77.6	3.8	7.47e-01	0	23	104	0	84	35258
2026-01-12 13:30:07.29	303.32	19.35	-58.3	-77.6	3.8	7.44e-01	0	23	104	0	84	35248
2026-01-12 13:30:08.28	303.57	19.28	-58.3	-77.6	3.8	7.46e-01	0	22	104	0	84	35235
2026-01-12 13:30:09.29	303.82	19.21	-58.3	-77.6	3.8	7.50e-01	0	23	104	0	84	35200
2026-01-12 13:30:10.28	304.07	19.15	-58.3	-77.6	3.8	7.46e-01	0	23	104	0	84	35250
2026-01-12 13:30:11.28	304.31	19.08	-58.3	-77.6	3.8	7.45e-01	0	23	104	0	84	35269
2026-01-12 13:30:12.28	304.56	19.01	-58.3	-77.7	3.8	7.44e-01	0	23	104	0	84	35349
2026-01-12 13:30:13.27	304.80	18.94	-58.3	-77.6	3.8	7.47e-01	0	23	104	0	84	35222
2026-01-12 13:30:14.27	305.05	18.87	-58.3	-77.6	3.8	7.52e-01	0	23	104	0	84	35283
2026-01-12 13:30:15.28	305.29	18.80	-58.3	-77.7	3.8	7.47e-01	0	23	104	0	84	35307
2026-01-12 13:30:16.28	305.53	18.73	-58.3	-77.7	3.8	7.49e-01	0	23	104	0	84	35315
2026-01-12 13:30:17.28	305.77	18.66	-58.3	-77.7	3.8	7.48e-01	0	23	104	0	84	35355
2026-01-12 13:30:18.28	306.01	18.59	-58.3	-77.7	3.8	7.44e-01	0	23	104	0	84	35306
2026-01-12 13:30:19.28	306.25	18.52	-58.3	-77.6	3.8	7.49e-01	0	23	104	0	84	35276
2026-01-12 13:30:20.27	306.48	18.45	-58.3	-77.7	3.8	7.46e-01	0	23	104	0	84	35322
2026-01-12 13:30:21.27	306.72	18.37	-58.3	-77.7	3.8	7.43e-01	0	23	104	0	84	35291
2026-01-12 13:30:22.27	306.95	18.30	-58.3	-77.6	3.8	7.49e-01	0	23	104	0	84	35266
2026-01-12 13:30:23.27	307.19	18.23	-58.3	-77.6	3.8	7.45e-01	0	23	104	0	84	35227
2026-01-12 13:30:24.27	307.42	18.16	-58.3	-77.6	3.8	7.48e-01	0	23	104	0	84	35262
2026-01-12 13:30:25.26	307.65	18.09	-58.3	-77.6	3.8	7.47e-01	0	23	104	0	84	35223
2026-01-12 13:30:26.26	307.88	18.01	-58.3	-77.6	3.8	7.47e-01	0	23	104	0	84	35211
2026-01-12 13:30:27.26	308.10	17.94	-58.3	-77.6	3.8	7.46e-01	0	23	104	0	84	35248
2026-01-12 13:30:28.26	308.33	17.87	-58.3	-77.7	3.8	7.46e-01	0	23	104	0	84	35291
2026-01-12 13:30:29.26	308.56	17.80	-58.3	-77.7	3.8	7.48e-01	0	23	104	0	84	35308
2026-01-12 13:30:30.26	308.78	17.72	-58.3	-77.6	3.8	7.46e-01	0	22	104	0	84	35175
2026-01-12 13:30:31.26	309.01	17.65	-58.3	-77.7	3.8	7.48e-01	0	22	104	0	84	35295
2026-01-12 13:30:32.26	309.23	17.57	-58.3	-77.6	3.8	7.45e-01	0	23	104	0	84	35207
2026-01-12 13:30:33.26	309.45	17.50	-58.3	-77.6	3.8	7.48e-01	0	23	104	0	84	35194
2026-01-12 13:30:34.26	309.67	17.43	-58.3	-77.6	3.8	7.43e-01	0	23	104	0	84	35251
2026-01-12 13:30:35.26	309.89	17.35	-58.3	-77.6	3.8	7.47e-01	0	23	104	0	84	35215
2026-01-12 13:30:36.26	310.11	17.28	-58.3	-77.6	3.8	7.49e-01	0	23	104	0	84	35247
2026-01-12 13:30:37.25	310.33	17.21	-58.3	-77.6	3.8	7.49e-01	0	23	104	0	84	35249
2026-01-12 13:30:38.25	310.54	17.13	-58.3	-77.6	3.8	7.48e-01	0	23	104	0	84	35175
2026-01-12 13:30:39.25	310.76	17.06	-58.3	-77.6	3.8	7.45e-01	0	23	104	0	84	35164
2026-01-12 13:30:40.25	310.97	16.98	-58.3	-77.6	3.8	7.45e-01	0	23	104	0	84	35219
2026-01-12 13:30:41.25	311.18	16.91	-58.3	-77.6	3.8	7.50e-01	0	23	104	0	84	35224
2026-01-12 13:30:42.24	311.39	16.83	-58.3	-77.6	3.8	7.45e-01	0	23	104	0	84	35243
2026-01-12 13:30:43.24	311.61	16.76	-58.3	-77.7	3.8	7.45e-01	0	23	104	0	84	35313
2026-01-12 13:30:44.24	311.81	16.68	-58.3	-77.6	3.8	7.46e-01	0	23	104	0	84	35256
2026-01-12 13:30:45.24	312.02	16.61	-58.3	-77.6	3.8	7.48e-01	0	22	104	0	84	35216
2026-01-12 13:30:46.24	312.23	16.53	-58.3	-77.6	3.8	7.46e-01	0	23	104	0	84	35213
2026-01-12 13:30:47.24	312.44	16.46	-58.3	-77.6	3.8	7.46e-01	0	23	104	0	84	35196
2026-01-12 13:30:48.24	312.64	16.38	-58.3	-77.6	3.8	7.45e-01	0	23	104	0	84	35170
2026-01-12 13:30:49.23	312.85	16.31	-58.3	-77.6	3.8	7.44e-01	0	23	104	0	84	35199
2026-01-12 13:30:50.24	313.05	16.23	-58.3	-77.6	3.8	7.43e-01	0	23	104	0	84	35183
2026-01-12 13:30:51.24	313.25	16.16	-58.3	-77.6	3.8	7.46e-01	0	23	104	0	84	35188
2026-01-12 13:30:52.24	313.45	16.08	-58.3	-77.6	3.8	7.43e-01	0	23	104	0	84	35207
2026-01-12 13:30:53.23	313.65	16.01	-58.3	-77.6	3.8	7.47e-01	0	23	104	0	84	35235
2026-01-12 13:30:54.24	313.85	15.93	-58.3	-77.6	3.8	7.44e-01	0	22	104	0	84	35181
2026-01-12 13:30:55.23	314.05	15.85	-58.3	-77.6	3.8	7.45e-01	0	22	104	0	84	35205
2026-01-12 13:30:56.23	314.25	15.78	-58.3	-77.6	3.8	7.50e-01	0	23	104	0	84	35248
2026-01-12 13:30:57.24	314.44	15.70	-58.3	-77.6	3.8	7.44e-01	0	23	104	0	84	35141
2026-01-12 13:30:58.23	314.64	15.63	-58.3	-77.6	3.8	7.47e-01	0	23	104	0	84	35223
2026-01-12 13:30:59.22	314.83	15.55	-58.3	-77.6	3.8	7.44e-01	0	23	104	0	84	35219
2026-01-12 13:31:00.21	315.02	15.48	-58.3	-77.6	3.8	7.45e-01	0	23	104	0	84	35215
2026-01-12 13:31:01.20	315.21	15.40	-58.3	-77.6	3.8	7.47e-01	0	23	104	0	84	35215
2026-01-12 13:31:02.20	315.40	15.33	-58.3	-77.6	3.8	7.42e-01	0	23	104	0	84	35263
2026-01-12 13:31:03.21	315.59	15.25	-58.3	-77.6	3.8	7.47e-01	0	23	104	0	84	35219
2026-01-12 13:31:04.21	315.78	15.17	-58.3	-77.6	3.8	7.46e-01	0	23	104	0	84	35129
2026-01-12 13:31:05.21	315.97	15.10	-58.3	-77.6	3.8	7.48e-01	0	23	104	0	84	35110
2026-01-12 13:31:06.22	316.16	15.02	-58.3	-77.6	3.8	7.46e-01	0	23	104	0	84	35173
2026-01-12 13:31:07.21	316.34	14.95	-58.3	-77.6	3.8	7.47e-01	0	23	104	0	84	35241
2026-01-12 13:31:08.21	316.53	14.87	-58.3	-77.6	3.8	7.45e-01	0	23	104	0	84	35191
2026-01-12 13:31:09.21	316.71	14.79	-58.3	-77.6	3.8	7.45e-01	0	23	104	0	84	35159
2026-01-12 13:31:10.20	316.89	14.72	-58.3	-77.6	3.8	7.47e-01	0	23	104	0	84	35206
2026-01-12 13:31:11.20	317.07	14.64	-58.3	-77.6	3.8	7.44e-01	0	23	104	0	84	35188
2026-01-12 13:31:12.21	317.26	14.57	-58.3	-77.6	3.8	7.46e-01	0	22	104	0	84	35179
2026-01-12 13:31:13.21	317.44	14.49	-58.3	-77.6	3.8	7.44e-01	0	23	104	0	84	35199
2026-01-12 13:31:14.21	317.62	14.41	-58.3	-77.6	3.8	7.47e-01	0	23	104	0	84	35220
2026-01-12 13:31:15.21	317.79	14.34	-58.3	-77.6	3.8	7.48e-01	0	23	104	0	84	35203
2026-01-12 13:31:16.22	317.97	14.26	-58.3	-77.6	3.8	7.48e-01	0	23	104	0	84	35210
2026-01-12 13:31:17.21	318.15	14.19	-58.3	-77.6	3.8	7.48e-01	0	23	104	0	84	35281
2026-01-12 13:31:18.22	318.32	14.11	-58.3	-77.6	3.8	7.44e-01	0	23	104	0	84	35203
2026-01-12 13:31:19.21	318.50	14.03	-58.3	-77.6	3.8	7.45e-01	0	23	104	0	84	35129
2026-01-12 13:31:20.21	318.67	13.96	-58.3	-77.6	3.8	7.47e-01	0	23	104	0	84	35206
2026-01-12 13:31:21.21	318.84	13.88	-58.3	-77.6	3.8	7.45e-01	0	23	104	0	84	35224
2026-01-12 13:31:22.20	319.01	13.81	-58.3	-77.6	3.8	7.43e-01	0	23	104	0	84	35138
2026-01-12 13:31:23.20	319.18	13.73	-58.3	-77.6	3.8	7.47e-01	0	23	104	0	84	35162
2026-01-12 13:31:24.20	319.35	13.66	-58.3	-77.6	3.8	7.49e-01	0	23	104	0	84	35141
2026-01-12 13:31:25.20	319.52	13.58	-58.3	-77.6	3.8	7.46e-01	0	23	104	0	84	35195
2026-01-12 13:31:26.20	319.69	13.50	-58.3	-77.7	3.8	7.46e-01	0	23	104	0	84	35293
2026-01-12 13:31:27.19	319.86	13.43	-58.3	-77.6	3.8	7.46e-01	0	23	104	0	84	35155
2026-01-12 13:31:28.18	320.02	13.36	-58.3	-77.6	3.8	7.45e-01	0	23	104	0	84	35119
2026-01-12 13:31:29.17	320.18	13.28	-58.3	-77.6	3.8	7.48e-01	0	23	104	0	84	35223
2026-01-12 13:31:30.17	320.35	13.21	-58.3	-77.6	3.8	7.45e-01	0	23	104	0	84	35163
2026-01-12 13:31:31.16	320.51	13.13	-58.3	-77.6	3.8	7.46e-01	0	23	104	0	84	35168
2026-01-12 13:31:32.16	320.67	13.06	-58.3	-77.6	3.8	7.45e-01	0	23	104	0	84	35104
2026-01-12 13:31:33.16	320.84	12.98	-58.3	-77.6	3.8	7.44e-01	0	23	104	0	84	35182
2026-01-12 13:31:34.15	321.00	12.91	-58.3	-77.6	3.8	7.47e-01	0	23	104	0	84	35133
2026-01-12 13:31:35.15	321.16	12.83	-58.3	-77.6	3.8	7.45e-01	0	23	104	0	84	35157
2026-01-12 13:31:36.14	321.31	12.76	-58.3	-77.6	3.8	7.43e-01	0	22	104	0	84	35080
2026-01-12 13:31:37.15	321.47	12.68	-58.3	-77.6	3.8	7.48e-01	0	23	104	0	84	35119
2026-01-12 13:31:38.14	321.63	12.61	-58.3	-77.6	3.8	7.46e-01	0	22	104	0	84	35123
2026-01-12 13:31:39.14	321.79	12.53	-58.3	-77.6	3.8	7.46e-01	0	23	104	0	84	35039
2026-01-12 13:31:40.13	321.94	12.46	-58.3	-77.6	3.8	7.49e-01	0	23	104	0	84	35169
2026-01-12 13:31:41.13	322.10	12.38	-58.3	-77.6	3.8	7.46e-01	0	23	104	0	84	35126
2026-01-12 13:31:42.13	322.25	12.31	-58.3	-77.6	3.8	7.48e-01	0	23	104	0	84	35218
2026-01-12 13:31:43.13	322.40	12.24	-58.3	-77.6	3.8	7.45e-01	0	23	104	0	84	35137
2026-01-12 13:31:44.13	322.56	12.16	-58.3	-77.6	3.8	7.49e-01	0	23	104	0	84	35181
2026-01-12 13:31:45.13	322.71	12.09	-58.3	-77.6	3.8	7.43e-01	0	23	104	0	84	35143
2026-01-12 13:31:46.13	322.86	12.01	-58.3	-77.6	3.8	7.45e-01	0	23	104	0	84	35071
2026-01-12 13:31:47.13	323.01	11.94	-58.3	-77.6	3.8	7.46e-01	0	23	104	0	84	35159
2026-01-12 13:31:48.13	323.16	11.86	-58.3	-77.6	3.8	7.45e-01	0	23	104	0	84	35092
2026-01-12 13:31:49.13	323.31	11.79	-58.3	-77.6	3.8	7.47e-01	0	23	104	0	84	35151
2026-01-12 13:31:50.13	323.46	11.72	-58.3	-77.6	3.8	7.48e-01	0	23	104	0	84	35063
2026-01-12 13:31:51.12	323.60	11.64	-58.3	-77.6	3.8	7.44e-01	0	23	104	0	84	35122
2026-01-12 13:31:52.12	323.75	11.57	-58.3	-77.6	3.8	7.48e-01	0	23	104	0	84	35106
2026-01-12 13:31:53.12	323.90	11.50	-58.3	-77.6	3.8	7.46e-01	0	23	104	0	84	35044
2026-01-12 13:31:54.12	324.04	11.42	-58.3	-77.6	3.8	7.46e-01	0	23	104	0	84	35082
2026-01-12 13:31:55.11	324.18	11.35	-58.3	-77.6	3.8	7.45e-01	0	23	104	0	84	35136
2026-01-12 13:31:56.10	324.33	11.28	-58.3	-77.6	3.8	7.47e-01	0	23	104	0	84	35147
2026-01-12 13:31:57.10	324.47	11.20	-58.3	-77.6	3.8	7.44e-01	0	23	104	0	84	35066
2026-01-12 13:31:58.10	324.61	11.13	-58.3	-77.6	3.8	7.44e-01	0	23	104	0	84	35125
2026-01-12 13:31:59.10	324.75	11.06	-58.3	-77.6	3.8	7.46e-01	0	23	104	0	84	35008
2026-01-12 13:32:00.09	324.89	10.99	-58.3	-77.6	3.8	7.49e-01	0	23	104	0	84	35111
2026-01-12 13:32:01.09	325.03	10.91	-58.3	-77.6	3.8	7.43e-01	0	23	104	0	84	35131
2026-01-12 13:32:02.09	325.17	10.84	-58.3	-77.6	3.8	7.47e-01	0	23	104	0	84	35074
2026-01-12 13:32:03.09	325.31	10.77	-58.3	-77.6	3.8	7.49e-01	0	23	104	0	84	35113
2026-01-12 13:32:04.09	325.45	10.70	-58.3	-77.6	3.8	7.47e-01	0	23	104	0	84	35138
2026-01-12 13:32:05.10	325.58	10.62	-58.3	-77.6	3.8	7.48e-01	0	23	104	0	84	35070
2026-01-12 13:32:06.11	325.72	10.55	-58.3	-77.6	3.8	7.47e-01	0	23	104	0	84	35048
2026-01-12 13:32:07.11	325.86	10.48	-58.3	-77.6	3.8	7.46e-01	0	23	104	0	84	35099
2026-01-12 13:32:08.11	325.99	10.41	-58.3	-77.6	3.8	7.47e-01	0	22	104	0	84	35053
2026-01-12 13:32:09.11	326.13	10.33	-58.3	-77.6	3.8	7.43e-01	0	23	104	0	84	35116
2026-01-12 13:32:10.12	326.26	10.26	-58.3	-77.6	3.8	7.48e-01	0	23	104	0	84	35109
2026-01-12 13:32:11.12	326.40	10.19	-58.3	-77.6	3.8	7.47e-01	0	23	104	0	84	35158
2026-01-12 13:32:12.11	326.53	10.12	-58.3	-77.6	3.8	7.46e-01	0	23	104	0	84	35103
2026-01-12 13:32:13.11	326.66	10.05	-58.3	-77.6	3.8	7.45e-01	0	23	104	0	84	35077
2026-01-12 13:32:14.11	326.79	9.98	-58.3	-77.6	3.8	7.45e-01	0	23	104	0	84	35080
2026-01-12 13:32:15.11	326.92	9.90	-58.3	-77.6	3.8	7.47e-01	0	23	104	0	84	35057
2026-01-12 13:32:16.11	327.05	9.83	-58.3	-77.6	3.8	7.45e-01	0	23	104	0	84	35101
2026-01-12 13:32:17.12	327.18	9.76	-58.3	-77.6	3.8	7.46e-01	0	23	104	0	84	35030
2026-01-12 13:32:18.12	327.31	9.69	-58.3	-77.6	3.8	7.48e-01	0	23	104	0	84	35056
2026-01-12 13:32:19.12	327.43	9.62	-58.3	-77.6	3.8	7.48e-01	0	23	104	0	84	35063
2026-01-12 13:32:20.13	327.56	9.55	-58.3	-77.6	3.8	7.45e-01	0	23	104	0	84	35000
2026-01-12 13:32:21.12	327.69	9.48	-58.3	-77.6	3.8	7.44e-01	0	23	104	0	84	35116
2026-01-12 13:32:22.12	327.81	9.41	-58.3	-77.6	3.8	7.44e-01	0	23	104	0	84	34971
2026-01-12 13:32:23.12	327.94	9.34	-58.3	-77.6	3.8	7.46e-01	0	23	104	0	84	35089
2026-01-12 13:32:24.13	328.06	9.27	-58.3	-77.6	3.8	7.45e-01	0	23	104	0	84	35149
2026-01-12 13:32:25.13	328.19	9.20	-58.3	-77.6	3.8	7.47e-01	0	23	104	0	84	35065
2026-01-12 13:32:26.13	328.31	9.13	-58.3	-77.6	3.8	7.47e-01	0	23	104	0	84	35184
2026-01-12 13:32:27.12	328.43	9.06	-58.3	-77.6	3.8	7.43e-01	0	23	104	0	84	35082
2026-01-12 13:32:28.12	328.55	8.99	-58.3	-77.6	3.8	7.48e-01	0	23	104	0	84	35114
2026-01-12 13:32:29.12	328.68	8.92	-58.3	-77.6	3.8	7.43e-01	0	23	104	0	84	35039
2026-01-12 13:32:30.11	328.79	8.85	-58.3	-77.6	3.8	7.45e-01	0	23	104	0	84	35096
2026-01-12 13:32:31.11	328.91	8.78	-58.3	-77.6	3.8	7.44e-01	0	23	104	0	84	35032
2026-01-12 13:32:32.11	329.03	8.71	-58.3	-77.6	3.8	7.47e-01	0	23	104	0	84	35133
2026-01-12 13:32:33.11	329.15	8.64	-58.3	-77.6	3.8	7.48e-01	0	23	104	0	84	35020
2026-01-12 13:32:34.11	329.27	8.57	-58.3	-77.6	3.8	7.46e-01	0	23	104	0	84	35067
2026-01-12 13:32:35.11	329.39	8.50	-58.3	-77.6	3.8	7.44e-01	0	23	104	0	84	35017
2026-01-12 13:32:36.11	329.51	8.43	-58.3	-77.6	3.8	7.45e-01	0	23	104	0	84	35043
2026-01-12 13:32:37.10	329.62	8.36	-58.3	-77.6	3.8	7.43e-01	0	23	104	0	84	35006
2026-01-12 13:32:38.10	329.74	8.30	-58.3	-77.6	3.8	7.45e-01	0	23	104	0	84	35102
2026-01-12 13:32:39.11	329.86	8.23	-58.3	-77.6	3.8	7.44e-01	0	23	104	0	84	35069
2026-01-12 13:32:40.11	329.97	8.16	-58.3	-77.6	3.8	7.47e-01	0	23	104	0	84	35012
2026-01-12 13:32:41.12	330.09	8.09	-58.3	-77.6	3.8	7.47e-01	0	23	104	0	84	35024
2026-01-12 13:32:42.11	330.20	8.02	-58.3	-77.6	3.8	7.46e-01	0	23	104	0	84	35038
2026-01-12 13:32:43.11	330.31	7.95	-58.3	-77.6	3.8	7.45e-01	0	23	104	0	84	34976
2026-01-12 13:32:44.11	330.42	7.89	-58.3	-77.6	3.8	7.46e-01	0	23	104	0	84	35082
2026-01-12 13:32:45.10	330.54	7.82	-58.3	-77.6	3.8	7.48e-01	0	23	104	0	84	34991
2026-01-12 13:32:46.11	330.65	7.75	-58.3	-77.6	3.8	7.47e-01	0	23	104	0	84	35015
2026-01-12 13:32:47.10	330.76	7.68	-58.3	-77.6	3.8	7.46e-01	0	23	104	0	84	35058
2026-01-12 13:32:48.10	330.87	7.61	-58.3	-77.6	3.8	7.45e-01	0	23	104	0	84	35052
2026-01-12 13:32:49.11	330.98	7.55	-58.3	-77.6	3.8	7.46e-01	0	23	104	0	84	34984
2026-01-12 13:32:50.12	331.09	7.48	-58.3	-77.6	3.8	7.47e-01	0	23	104	0	84	35102
2026-01-12 13:32:51.11	331.20	7.41	-58.3	-77.6	3.8	7.46e-01	0	23	104	0	84	35074
2026-01-12 13:32:52.11	331.31	7.35	-58.3	-77.6	3.8	7.47e-01	0	22	104	0	84	35077
2026-01-12 13:32:53.11	331.41	7.28	-58.3	-77.6	3.8	7.47e-01	0	23	104	0	84	35123
2026-01-12 13:32:54.11	331.52	7.21	-58.3	-77.6	3.8	7.48e-01	0	23	104	0	84	35125
2026-01-12 13:32:55.12	331.63	7.14	-58.3	-77.6	3.8	7.48e-01	0	23	104	0	84	35064
2026-01-12 13:32:56.12	331.74	7.08	-58.3	-77.6	3.8	7.50e-01	0	23	104	0	84	35079
2026-01-12 13:32:57.12	331.84	7.01	-58.3	-77.6	3.8	7.46e-01	0	23	104	0	84	35047
2026-01-12 13:32:58.12	331.95	6.94	-58.3	-77.6	3.8	7.48e-01	0	23	104	0	84	35122
2026-01-12 13:32:59.12	332.05	6.88	-58.3	-77.6	3.8	7.47e-01	0	23	104	0	84	35094
2026-01-12 13:33:00.13	332.16	6.81	-58.3	-77.6	3.8	7.48e-01	0	23	104	0	84	34998
2026-01-12 13:33:01.12	332.26	6.75	-58.3	-77.6	3.8	7.47e-01	0	23	104	0	84	34994
2026-01-12 13:33:02.12	332.36	6.68	-58.3	-77.6	3.8	7.47e-01	0	23	104	0	84	35072
2026-01-12 13:33:03.12	332.47	6.61	-58.3	-77.6	3.8	7.47e-01	0	23	104	0	84	35005
2026-01-12 13:33:04.12	332.57	6.55	-58.3	-77.6	3.8	7.42e-01	0	23	104	0	84	34996
2026-01-12 13:33:05.12	332.67	6.48	-58.3	-77.6	3.8	7.45e-01	0	23	104	0	84	34949
2026-01-12 13:33:06.11	332.77	6.42	-58.3	-77.6	3.8	7.45e-01	0	23	104	0	84	35034
2026-01-12 13:33:07.11	332.87	6.35	-58.3	-77.6	3.8	7.44e-01	0	23	104	0	84	34934
2026-01-12 13:33:08.11	332.97	6.29	-58.3	-77.6	3.8	7.44e-01	0	23	104	0	84	34946
2026-01-12 13:33:09.10	333.07	6.22	-58.3	-77.6	3.8	7.45e-01	0	23	104	0	84	34972
2026-01-12 13:33:10.09	333.17	6.16	-58.3	-77.6	3.8	7.46e-01	0	23	104	0	84	34991
2026-01-12 13:33:11.10	333.27	6.09	-58.3	-77.6	3.8	7.47e-01	0	23	104	0	84	34979
2026-01-12 13:33:12.10	333.37	6.03	-58.3	-77.6	3.8	7.45e-01	0	23	104	0	84	34912
2026-01-12 13:33:13.10	333.47	5.96	-58.3	-77.6	3.8	7.46e-01	0	23	104	0	84	34996
2026-01-12 13:33:14.11	333.57	5.90	-58.2	-77.6	3.8	7.47e-01	0	23	104	0	84	34975
2026-01-12 13:33:15.11	333.67	5.84	-58.3	-77.6	3.8	7.49e-01	0	23	104	0	84	35022
2026-01-12 13:33:16.11	333.76	5.77	-58.3	-77.6	3.8	7.46e-01	0	23	104	0	84	34988
2026-01-12 13:33:17.11	333.86	5.71	-58.3	-77.6	3.8	7.46e-01	0	23	104	0	84	34993
2026-01-12 13:33:18.10	333.95	5.64	-58.3	-77.6	3.8	7.46e-01	0	23	104	0	84	34967
2026-01-12 13:33:19.09	334.05	5.58	-58.3	-77.6	3.8	7.47e-01	0	23	104	0	84	35051
2026-01-12 13:33:20.09	334.14	5.52	-58.3	-77.6	3.8	7.48e-01	0	23	104	0	84	35040
2026-01-12 13:33:21.09	334.24	5.45	-58.2	-77.6	3.8	7.46e-01	0	23	104	0	84	34990
2026-01-12 13:33:22.08	334.33	5.39	-58.3	-77.6	3.8	7.49e-01	0	23	104	0	84	34978
2026-01-12 13:33:23.08	334.43	5.33	-58.3	-77.6	3.8	7.48e-01	0	23	104	0	84	34972
2026-01-12 13:33:24.08	334.52	5.26	-58.3	-77.6	3.8	7.47e-01	0	23	104	0	84	35007
2026-01-12 13:33:25.09	334.61	5.20	-58.2	-77.6	3.8	7.47e-01	0	23	104	0	84	34896
2026-01-12 13:33:26.08	334.71	5.14	-58.3	-77.6	3.8	7.46e-01	0	23	104	0	84	34987
2026-01-12 13:33:27.08	334.80	5.07	-58.3	-77.6	3.8	7.46e-01	0	23	104	0	84	35005
2026-01-12 13:33:28.08	334.89	5.01	-58.2	-77.6	3.8	7.48e-01	0	23	104	0	84	35021
2026-01-12 13:33:29.08	334.98	4.95	-58.2	-77.6	3.8	7.46e-01	0	23	104	0	84	34911
2026-01-12 13:33:30.07	335.07	4.89	-58.3	-77.6	3.8	7.45e-01	0	23	104	0	84	34997
2026-01-12 13:33:31.08	335.16	4.82	-58.3	-77.6	3.8	7.50e-01	0	22	104	0	84	35006
2026-01-12 13:33:32.08	335.25	4.76	-58.3	-77.6	3.8	7.46e-01	0	23	104	0	84	35009
2026-01-12 13:33:33.07	335.34	4.70	-58.3	-77.6	3.8	7.48e-01	0	23	104	0	84	35008
2026-01-12 13:33:34.07	335.43	4.64	-58.2	-77.5	3.8	7.47e-01	0	23	104	0	84	34872
2026-01-12 13:33:35.07	335.52	4.57	-58.3	-77.5	3.8	7.44e-01	0	23	104	0	84	34863
2026-01-12 13:33:36.07	335.61	4.51	-58.2	-77.5	3.8	7.47e-01	0	23	104	0	84	34874
2026-01-12 13:33:37.07	335.70	4.45	-58.2	-77.6	3.8	7.46e-01	0	23	104	0	84	34924
2026-01-12 13:33:38.07	335.79	4.39	-58.2	-77.6	3.8	7.47e-01	0	23	104	0	84	35010
2026-01-12 13:33:39.07	335.87	4.33	-58.2	-77.6	3.8	7.47e-01	0	23	104	0	84	34899
2026-01-12 13:33:40.07	335.96	4.26	-58.2	-77.6	3.8	7.42e-01	0	23	104	0	84	34895
2026-01-12 13:33:41.06	336.05	4.20	-58.3	-77.6	3.8	7.46e-01	0	23	104	0	84	34939
2026-01-12 13:33:42.06	336.13	4.14	-58.2	-77.6	3.8	7.46e-01	0	23	104	0	84	34943
2026-01-12 13:33:43.06	336.22	4.08	-58.2	-77.6	3.8	7.47e-01	0	23	104	0	84	34907
2026-01-12 13:33:44.05	336.30	4.02	-58.3	-77.6	3.8	7.45e-01	0	23	104	0	84	34969
2026-01-12 13:33:45.05	336.39	3.96	-58.3	-77.6	3.8	7.44e-01	0	23	104	0	84	34995
2026-01-12 13:33:46.05	336.47	3.90	-58.2	-77.6	3.8	7.46e-01	0	23	104	0	84	34936
2026-01-12 13:33:47.06	336.56	3.84	-58.2	-77.6	3.8	7.46e-01	0	23	104	0	84	34991
2026-01-12 13:33:48.06	336.64	3.78	-58.3	-77.6	3.8	7.46e-01	0	23	104	0	84	34908
2026-01-12 13:33:49.07	336.73	3.72	-58.3	-77.6	3.8	7.44e-01	0	23	104	0	84	34966
2026-01-12 13:33:50.07	336.81	3.65	-58.3	-77.6	3.8	7.48e-01	0	23	104	0	84	35041
2026-01-12 13:33:51.06	336.89	3.59	-58.2	-77.6	3.8	7.46e-01	0	23	104	0	84	34939
2026-01-12 13:33:52.06	336.98	3.53	-58.3	-77.6	3.8	7.46e-01	0	23	104	0	84	35074
2026-01-12 13:33:53.07	337.06	3.47	-58.3	-77.6	3.8	7.46e-01	0	23	104	0	84	34948
2026-01-12 13:33:54.07	337.14	3.41	-58.2	-77.6	3.8	7.47e-01	0	23	104	0	84	34893
2026-01-12 13:33:55.07	337.22	3.35	-58.3	-77.6	3.8	7.45e-01	0	23	104	0	84	34974
2026-01-12 13:33:56.07	337.31	3.29	-58.3	-77.6	3.8	7.46e-01	0	23	104	0	84	34986
2026-01-12 13:33:57.07	337.39	3.23	-58.3	-77.6	3.8	7.45e-01	0	22	104	0	84	34990
2026-01-12 13:33:58.06	337.47	3.17	-58.2	-77.6	3.8	7.45e-01	0	23	104	0	84	34910
2026-01-12 13:33:59.07	337.55	3.11	-58.2	-77.6	3.8	7.44e-01	0	23	104	0	84	34935
2026-01-12 13:34:00.07	337.63	3.05	-58.2	-77.6	3.8	7.45e-01	0	23	104	0	84	34899
2026-01-12 13:34:01.06	337.71	3.00	-58.2	-77.6	3.8	7.44e-01	0	23	104	0	84	34915
2026-01-12 13:34:02.06	337.79	2.94	-58.2	-77.6	3.8	7.48e-01	0	23	104	0	84	34903
2026-01-12 13:34:03.06	337.86	2.88	-58.2	-77.5	3.8	7.48e-01	0	23	104	0	84	34863
2026-01-12 13:34:04.06	337.94	2.82	-58.2	-77.5	3.8	7.44e-01	0	23	104	0	84	34823
2026-01-12 13:34:05.05	338.02	2.76	-58.2	-77.6	3.8	7.45e-01	0	23	104	0	84	34915
2026-01-12 13:34:06.05	338.10	2.70	-58.2	-77.5	3.8	7.43e-01	0	23	104	0	84	34857
2026-01-12 13:34:07.04	338.18	2.64	-58.2	-77.5	3.8	7.45e-01	0	23	104	0	84	34845
2026-01-12 13:34:08.04	338.25	2.58	-58.2	-77.6	3.8	7.48e-01	0	23	104	0	84	34881
2026-01-12 13:34:09.04	338.33	2.53	-58.2	-77.5	3.8	7.43e-01	0	23	104	0	84	34873
2026-01-12 13:34:10.04	338.41	2.47	-58.2	-77.5	3.8	7.47e-01	0	23	104	0	84	34867
2026-01-12 13:34:11.04	338.48	2.41	-58.2	-77.6	3.8	7.45e-01	0	23	104	0	84	34938
2026-01-12 13:34:12.04	338.56	2.35	-58.2	-77.6	3.8	7.47e-01	0	23	104	0	84	34898
2026-01-12 13:34:13.04	338.64	2.29	-58.2	-77.6	3.8	7.45e-01	0	23	104	0	84	34883
2026-01-12 13:34:14.03	338.71	2.23	-58.2	-77.5	3.8	7.45e-01	0	23	104	0	84	34827
2026-01-12 13:34:15.03	338.79	2.18	-58.2	-77.6	3.8	7.45e-01	0	23	104	0	84	34969
2026-01-12 13:34:16.03	338.86	2.12	-58.2	-77.6	3.8	7.47e-01	0	23	104	0	84	34988
2026-01-12 13:34:17.03	338.94	2.06	-58.2	-77.6	3.8	7.47e-01	0	23	104	0	84	34904
2026-01-12 13:34:18.02	339.01	2.00	-58.2	-77.5	3.8	7.44e-01	0	23	104	0	84	34832
2026-01-12 13:34:19.02	339.08	1.95	-58.2	-77.6	3.8	7.48e-01	0	23	104	0	84	34926

#Closed at: 2026-01-12 13:34:19
#Recorded file [0 MB]: D:/lorett/data/31004_260112_162238.dat