passes_logs/2026/01/12/R3.2S_Murmansk/R3.2S_Murmansk__20260112_022828_NOAA_20_JPSS-1_rec.log

#Pass ID: 20260112_022828_NOAA 20 (JPSS-1)
#Satellite: NOAA 20 (JPSS-1)
#Configuration: NOAA 20
#almurnet v.1.7.20251203
#Start time: 2026-01-12 02:28:29

#Version: 2.2.20231116
#Station: R3.2S_Murmansk
#Location: 33.079688 lon 68.888172 lat
#TLE: 1 43013U 17073A   26011.59429536  .00000082  00000+0  59704-4 0  9990
#TLE: 2 43013  98.7632 312.5697 0001637  44.2118 315.9188 14.19535307422256

#Time	Az	El	Level	Level2	SNR	BER	BlckErr	Temp	State	Recorded	gain1	gain2
2026-01-12 02:28:29.64	33.69	2.09	-53.9	-70.0	3.8	1.49e+00	0	21	0	0	72	25111
2026-01-12 02:28:30.64	33.65	2.15	-53.8	-70.0	3.8	1.49e+00	0	21	104	0	72	25123
2026-01-12 02:28:31.65	33.61	2.22	-53.9	-70.0	3.8	1.49e+00	0	21	104	0	72	25132
2026-01-12 02:28:32.66	33.57	2.28	-53.9	-70.0	3.8	1.49e+00	0	21	104	0	72	25091
2026-01-12 02:28:33.67	33.53	2.34	-53.9	-70.0	3.8	1.49e+00	0	21	104	0	72	25070
2026-01-12 02:28:34.68	33.50	2.41	-53.8	-70.0	3.8	1.49e+00	0	21	104	0	72	25079
2026-01-12 02:28:35.69	33.46	2.47	-53.8	-70.0	3.8	1.49e+00	0	21	104	0	72	25125
2026-01-12 02:28:36.70	33.42	2.53	-53.9	-70.0	3.8	1.49e+00	0	21	104	0	72	25106
2026-01-12 02:28:37.71	33.38	2.59	-53.9	-70.0	3.8	1.49e+00	0	21	104	0	72	25143
2026-01-12 02:28:38.71	33.34	2.66	-53.9	-70.0	3.8	1.49e+00	0	21	104	0	72	25081
2026-01-12 02:28:39.72	33.30	2.72	-53.8	-70.0	3.8	1.49e+00	0	21	104	0	72	25223
2026-01-12 02:28:40.74	33.26	2.78	-53.9	-70.0	3.8	1.49e+00	0	21	104	0	72	25154
2026-01-12 02:28:41.74	33.22	2.85	-53.9	-70.0	3.8	1.49e+00	0	21	104	0	72	25174
2026-01-12 02:28:42.75	33.18	2.91	-53.8	-70.0	3.8	1.49e+00	0	21	104	0	72	25159
2026-01-12 02:28:43.76	33.14	2.97	-53.9	-70.0	3.8	1.49e+00	0	21	104	0	72	25154
2026-01-12 02:28:44.77	33.10	3.04	-53.9	-70.0	3.8	1.49e+00	0	21	104	0	72	25074
2026-01-12 02:28:45.78	33.05	3.10	-53.9	-70.0	3.8	1.49e+00	0	21	104	0	72	25105
2026-01-12 02:28:46.79	33.01	3.17	-53.9	-70.0	3.8	1.49e+00	0	21	104	0	72	25133
2026-01-12 02:28:47.80	32.97	3.23	-53.9	-70.0	3.8	1.49e+00	0	21	104	0	72	25098
2026-01-12 02:28:48.81	32.93	3.30	-53.9	-70.0	3.8	1.49e+00	0	21	104	0	72	25149
2026-01-12 02:28:49.82	32.89	3.36	-53.9	-70.0	3.8	1.49e+00	0	21	104	0	72	25175
2026-01-12 02:28:50.83	32.85	3.43	-53.9	-70.0	3.8	1.49e+00	0	21	104	0	72	25153
2026-01-12 02:28:51.84	32.80	3.49	-53.9	-70.0	3.8	1.49e+00	0	21	104	0	72	25180
2026-01-12 02:28:52.85	32.76	3.56	-53.9	-70.0	3.8	1.49e+00	0	21	104	0	72	25184
2026-01-12 02:28:53.86	32.72	3.62	-53.9	-70.0	3.8	1.49e+00	0	21	104	0	72	25240
2026-01-12 02:28:54.86	32.68	3.69	-53.9	-70.0	3.8	1.49e+00	0	21	104	0	72	25215
2026-01-12 02:28:55.87	32.63	3.75	-53.9	-70.0	3.8	1.49e+00	0	21	104	0	72	25209
2026-01-12 02:28:56.88	32.59	3.82	-53.9	-70.0	3.8	1.49e+00	0	21	104	0	72	25221
2026-01-12 02:28:57.89	32.55	3.88	-53.9	-70.0	3.8	1.49e+00	0	22	104	0	72	25216
2026-01-12 02:28:58.90	32.50	3.95	-53.9	-70.0	3.8	1.49e+00	0	22	104	0	72	25129
2026-01-12 02:28:59.91	32.46	4.01	-53.9	-70.1	3.8	1.49e+00	0	21	104	0	72	25324
2026-01-12 02:29:00.92	32.41	4.08	-53.9	-70.0	3.8	1.49e+00	0	21	104	0	72	25220
2026-01-12 02:29:01.93	32.37	4.15	-53.9	-70.0	3.8	1.49e+00	0	21	104	0	72	25201
2026-01-12 02:29:02.93	32.33	4.21	-53.9	-70.0	3.8	1.49e+00	0	22	104	0	72	25256
2026-01-12 02:29:03.94	32.28	4.28	-53.9	-70.0	3.8	1.49e+00	0	21	104	0	72	25195
2026-01-12 02:29:04.95	32.24	4.35	-53.9	-70.1	3.8	1.49e+00	0	22	104	0	72	25275
2026-01-12 02:29:05.96	32.19	4.41	-53.9	-70.0	3.8	1.49e+00	0	22	104	0	72	25163
2026-01-12 02:29:06.97	32.14	4.48	-53.9	-70.1	3.8	1.49e+00	0	22	104	0	72	25296
2026-01-12 02:29:07.98	32.10	4.55	-53.9	-70.0	3.8	1.49e+00	0	22	104	0	72	25206
2026-01-12 02:29:08.99	32.05	4.62	-53.9	-70.1	3.8	1.49e+00	0	22	104	0	72	25272
2026-01-12 02:29:10.00	32.01	4.68	-53.9	-70.0	3.8	1.49e+00	0	22	104	0	72	25232
2026-01-12 02:29:11.01	31.96	4.75	-53.9	-70.0	3.8	1.49e+00	0	22	104	0	72	25225
2026-01-12 02:29:12.02	31.91	4.82	-53.9	-70.0	3.8	1.49e+00	0	22	104	0	72	25166
2026-01-12 02:29:13.03	31.87	4.89	-53.9	-70.0	3.8	1.49e+00	0	22	104	0	72	25202
2026-01-12 02:29:14.03	31.82	4.95	-53.9	-70.0	3.8	1.49e+00	0	22	104	0	72	25262
2026-01-12 02:29:15.04	31.77	5.02	-53.9	-70.1	3.8	1.49e+00	0	22	104	0	72	25334
2026-01-12 02:29:16.05	31.73	5.09	-54.0	-70.1	3.8	1.49e+00	0	22	104	0	73	23982
2026-01-12 02:29:17.06	31.68	5.16	-53.9	-70.1	3.8	1.49e+00	0	22	104	0	73	23959
2026-01-12 02:29:18.06	31.63	5.23	-53.9	-70.1	3.8	1.49e+00	0	22	104	0	73	24016
2026-01-12 02:29:19.07	31.58	5.30	-54.0	-70.1	3.8	1.49e+00	0	22	104	0	73	23947
2026-01-12 02:29:20.08	31.53	5.37	-54.0	-70.1	3.8	1.49e+00	0	22	104	0	73	24005
2026-01-12 02:29:21.09	31.48	5.43	-54.0	-70.1	3.8	1.49e+00	0	22	104	0	73	24010
2026-01-12 02:29:22.10	31.43	5.50	-54.0	-70.1	3.8	1.49e+00	0	22	104	0	73	23942
2026-01-12 02:29:23.11	31.39	5.57	-54.0	-70.1	3.8	1.49e+00	0	22	104	0	73	23974
2026-01-12 02:29:24.12	31.34	5.64	-54.0	-70.1	3.8	1.49e+00	0	22	104	0	73	23960
2026-01-12 02:29:25.12	31.29	5.71	-54.0	-70.1	3.8	1.49e+00	0	22	104	0	73	23967
2026-01-12 02:29:26.13	31.24	5.78	-54.0	-70.1	3.8	1.49e+00	0	22	104	0	73	23995
2026-01-12 02:29:27.14	31.19	5.85	-54.0	-70.1	3.8	1.49e+00	0	22	104	0	73	24022
2026-01-12 02:29:28.15	31.14	5.92	-54.0	-70.1	3.8	1.49e+00	0	22	104	0	73	24007
2026-01-12 02:29:29.15	31.08	5.99	-54.0	-70.1	3.8	1.49e+00	0	22	104	0	73	23997
2026-01-12 02:29:30.16	31.03	6.06	-54.0	-70.1	3.8	1.49e+00	0	22	104	0	73	23991
2026-01-12 02:29:31.17	30.98	6.13	-54.0	-70.1	3.8	1.49e+00	0	22	104	0	73	23897
2026-01-12 02:29:32.18	30.93	6.21	-54.0	-70.1	3.8	1.49e+00	0	22	104	0	73	23980
2026-01-12 02:29:33.19	30.88	6.28	-54.0	-70.1	3.8	1.49e+00	0	22	104	0	73	24037
2026-01-12 02:29:34.20	30.83	6.35	-54.0	-70.1	3.8	1.49e+00	0	22	104	0	73	23939
2026-01-12 02:29:35.21	30.77	6.42	-54.0	-70.1	3.8	1.49e+00	0	22	104	0	73	23992
2026-01-12 02:29:36.22	30.72	6.49	-54.0	-70.1	3.8	1.49e+00	0	22	104	0	73	23958
2026-01-12 02:29:37.23	30.67	6.56	-54.0	-70.1	3.8	1.49e+00	0	22	104	0	73	23987
2026-01-12 02:29:38.24	30.61	6.64	-54.0	-70.1	3.8	1.49e+00	0	22	104	0	73	24071
2026-01-12 02:29:39.25	30.56	6.71	-54.0	-70.1	3.8	1.49e+00	0	22	104	0	73	23879
2026-01-12 02:29:40.26	30.51	6.78	-54.0	-70.1	3.8	1.49e+00	0	22	104	0	73	23997
2026-01-12 02:29:41.26	30.45	6.85	-54.0	-70.1	3.8	1.49e+00	0	22	104	0	73	23966
2026-01-12 02:29:42.27	30.40	6.93	-54.0	-70.1	3.8	1.49e+00	0	22	104	0	73	23983
2026-01-12 02:29:43.28	30.34	7.00	-54.0	-70.1	3.8	1.49e+00	0	22	104	0	73	24011
2026-01-12 02:29:44.28	30.29	7.07	-54.0	-70.1	3.8	1.49e+00	0	22	104	0	73	24031
2026-01-12 02:29:45.29	30.23	7.14	-54.0	-70.1	3.8	1.49e+00	0	22	104	0	73	24021
2026-01-12 02:29:46.30	30.18	7.22	-54.0	-70.1	3.8	1.49e+00	0	22	104	0	73	24078
2026-01-12 02:29:47.31	30.12	7.29	-54.0	-70.1	3.8	1.49e+00	0	22	104	0	73	23974
2026-01-12 02:29:48.32	30.07	7.37	-54.0	-70.1	3.8	1.49e+00	0	22	104	0	73	23932
2026-01-12 02:29:49.33	30.01	7.44	-54.0	-70.1	3.8	1.49e+00	0	22	104	0	73	24003
2026-01-12 02:29:50.34	29.95	7.51	-54.0	-70.1	3.8	1.49e+00	0	22	104	0	73	23995
2026-01-12 02:29:51.35	29.89	7.59	-54.0	-70.1	3.8	1.49e+00	0	22	104	0	73	23931
2026-01-12 02:29:52.36	29.84	7.66	-54.0	-70.1	3.8	1.49e+00	0	22	104	0	73	24021
2026-01-12 02:29:53.37	29.78	7.74	-54.0	-70.1	3.8	1.49e+00	0	22	104	0	73	24080
2026-01-12 02:29:54.38	29.72	7.81	-54.0	-70.1	3.8	1.49e+00	0	22	104	0	73	24045
2026-01-12 02:29:55.39	29.66	7.89	-54.0	-70.2	3.8	1.49e+00	0	22	104	0	73	24133
2026-01-12 02:29:56.40	29.60	7.96	-54.0	-70.1	3.8	1.49e+00	0	22	104	0	73	24107
2026-01-12 02:29:57.41	29.54	8.04	-54.0	-70.1	3.8	1.49e+00	0	22	104	0	73	24018
2026-01-12 02:29:58.42	29.48	8.11	-54.0	-70.1	3.8	1.49e+00	0	22	104	0	73	24075
2026-01-12 02:29:59.42	29.43	8.19	-54.0	-70.1	3.8	1.49e+00	0	22	104	0	73	23995
2026-01-12 02:30:00.43	29.37	8.27	-54.0	-70.1	3.8	1.49e+00	0	22	104	0	73	24037
2026-01-12 02:30:01.44	29.30	8.34	-54.0	-70.1	3.8	1.49e+00	0	22	104	0	73	24040
2026-01-12 02:30:02.45	29.24	8.42	-54.0	-70.1	3.8	1.49e+00	0	22	104	0	73	24016
2026-01-12 02:30:03.46	29.18	8.50	-54.0	-70.1	3.8	1.49e+00	0	22	104	0	73	24094
2026-01-12 02:30:04.47	29.12	8.57	-54.0	-70.1	3.8	1.49e+00	0	22	104	0	73	24068
2026-01-12 02:30:05.48	29.06	8.65	-54.0	-70.1	3.8	1.49e+00	0	22	104	0	73	24073
2026-01-12 02:30:06.49	29.00	8.73	-54.0	-70.1	3.8	1.49e+00	0	22	104	0	73	24070
2026-01-12 02:30:07.50	28.93	8.81	-54.0	-70.1	3.8	1.49e+00	0	22	104	0	73	24069
2026-01-12 02:30:08.51	28.87	8.88	-54.0	-70.1	3.8	1.49e+00	0	22	104	0	73	24067
2026-01-12 02:30:09.52	28.81	8.96	-54.0	-70.1	3.8	1.49e+00	0	22	104	0	73	24036
2026-01-12 02:30:10.53	28.74	9.04	-54.0	-70.1	3.8	1.49e+00	0	22	104	0	73	24008
2026-01-12 02:30:11.54	28.68	9.12	-54.0	-70.1	3.8	1.49e+00	0	22	104	0	73	24062
2026-01-12 02:30:12.54	28.62	9.20	-54.0	-70.1	3.8	1.49e+00	0	22	104	0	73	24085
2026-01-12 02:30:13.55	28.55	9.27	-54.0	-70.1	3.8	1.49e+00	0	22	104	0	73	24023
2026-01-12 02:30:14.56	28.49	9.35	-54.0	-70.1	3.8	1.49e+00	0	22	104	0	73	24029
2026-01-12 02:30:15.57	28.42	9.43	-54.0	-70.1	3.8	1.49e+00	0	22	104	0	73	24046
2026-01-12 02:30:16.58	28.36	9.51	-54.0	-70.1	3.8	1.49e+00	0	22	104	0	73	24087
2026-01-12 02:30:17.59	28.29	9.59	-54.0	-70.1	3.8	1.49e+00	0	22	104	0	73	24106
2026-01-12 02:30:18.60	28.22	9.67	-54.0	-70.1	3.8	1.49e+00	0	22	104	0	73	24040
2026-01-12 02:30:19.61	28.16	9.75	-54.0	-70.1	3.8	1.49e+00	0	22	104	0	73	24118
2026-01-12 02:30:20.61	28.09	9.83	-54.0	-70.1	3.8	1.49e+00	0	22	104	0	73	24074
2026-01-12 02:30:21.62	28.02	9.91	-54.0	-70.1	3.8	1.49e+00	0	22	104	0	73	24035
2026-01-12 02:30:22.63	27.95	9.99	-54.0	-70.1	3.8	1.49e+00	0	22	104	0	73	24098
2026-01-12 02:30:23.64	27.88	10.07	-54.0	-70.1	3.8	1.49e+00	0	22	104	0	73	23972
2026-01-12 02:30:24.65	27.82	10.16	-54.0	-70.1	3.8	1.49e+00	0	22	104	0	73	24050
2026-01-12 02:30:25.66	27.75	10.24	-54.0	-70.1	3.8	1.49e+00	0	23	104	0	73	24062
2026-01-12 02:30:26.67	27.68	10.32	-54.0	-70.1	3.8	1.49e+00	0	23	104	0	73	24067
2026-01-12 02:30:27.68	27.61	10.40	-54.0	-70.1	3.8	1.49e+00	0	22	104	0	73	24035
2026-01-12 02:30:28.69	27.54	10.48	-54.0	-70.1	3.8	1.49e+00	0	23	104	0	73	24092
2026-01-12 02:30:29.70	27.46	10.57	-54.0	-70.1	3.8	1.49e+00	0	22	104	0	73	24056
2026-01-12 02:30:30.71	27.39	10.65	-54.0	-70.2	3.8	1.49e+00	0	23	104	0	73	24141
2026-01-12 02:30:31.72	27.32	10.73	-54.0	-70.1	3.8	1.49e+00	0	23	104	0	73	24084
2026-01-12 02:30:32.73	27.25	10.81	-54.0	-70.1	3.8	1.49e+00	0	23	104	0	73	24030
2026-01-12 02:30:33.74	27.18	10.90	-54.0	-70.1	3.8	1.49e+00	0	23	104	0	73	24095
2026-01-12 02:30:34.75	27.10	10.98	-54.0	-70.1	3.8	1.49e+00	0	23	104	0	73	24096
2026-01-12 02:30:35.76	27.03	11.06	-54.0	-70.1	3.8	1.49e+00	0	23	104	0	73	24081
2026-01-12 02:30:36.76	26.96	11.15	-54.0	-70.1	3.8	1.49e+00	0	23	104	0	73	24046
2026-01-12 02:30:37.77	26.88	11.23	-54.0	-70.1	3.8	1.49e+00	0	23	104	0	73	24059
2026-01-12 02:30:38.78	26.81	11.32	-54.0	-70.1	3.8	1.49e+00	0	23	104	0	73	24099
2026-01-12 02:30:39.79	26.73	11.40	-54.0	-70.1	3.8	1.49e+00	0	23	104	0	73	24060
2026-01-12 02:30:40.80	26.65	11.49	-54.0	-70.1	3.8	1.49e+00	0	22	104	0	73	24097
2026-01-12 02:30:41.81	26.58	11.57	-54.0	-70.1	3.8	1.49e+00	0	23	104	0	73	24070
2026-01-12 02:30:42.82	26.50	11.66	-54.0	-70.1	3.8	1.49e+00	0	23	104	0	73	24104
2026-01-12 02:30:43.83	26.42	11.74	-54.0	-70.1	3.8	1.49e+00	0	23	104	0	73	24115
2026-01-12 02:30:44.84	26.35	11.83	-54.0	-70.1	3.8	1.49e+00	0	23	104	0	73	24088
2026-01-12 02:30:45.85	26.27	11.91	-54.0	-70.1	3.8	1.49e+00	0	23	104	0	73	24119
2026-01-12 02:30:46.86	26.19	12.00	-54.0	-70.1	3.8	1.49e+00	0	23	104	0	73	24075
2026-01-12 02:30:47.87	26.11	12.09	-54.0	-70.1	3.8	1.49e+00	0	23	104	0	73	24085
2026-01-12 02:30:48.87	26.03	12.17	-54.0	-70.1	3.8	1.49e+00	0	23	104	0	73	24076
2026-01-12 02:30:49.88	25.95	12.26	-54.0	-70.1	3.8	1.49e+00	0	23	104	0	73	24040
2026-01-12 02:30:50.89	25.87	12.35	-54.0	-70.1	3.8	1.49e+00	0	23	104	0	73	24081
2026-01-12 02:30:51.90	25.79	12.44	-54.0	-70.1	3.8	1.49e+00	0	23	104	0	73	24049
2026-01-12 02:30:52.91	25.71	12.52	-54.0	-70.1	3.8	1.49e+00	0	23	104	0	73	24078
2026-01-12 02:30:53.92	25.63	12.61	-54.0	-70.1	3.8	1.49e+00	0	23	104	0	73	24050
2026-01-12 02:30:54.93	25.54	12.70	-54.0	-70.1	3.8	1.49e+00	0	23	104	0	73	24070
2026-01-12 02:30:55.94	25.46	12.79	-54.0	-70.2	3.8	1.49e+00	0	23	104	0	73	24139
2026-01-12 02:30:56.95	25.38	12.88	-54.0	-70.1	3.8	1.49e+00	0	23	104	0	73	24056
2026-01-12 02:30:57.96	25.29	12.97	-54.0	-70.1	3.8	1.49e+00	0	23	104	0	73	24110
2026-01-12 02:30:58.97	25.21	13.06	-54.0	-70.1	3.8	1.49e+00	0	23	104	0	73	24124
2026-01-12 02:30:59.97	25.12	13.15	-54.0	-70.1	3.8	1.49e+00	0	23	104	0	73	24124
2026-01-12 02:31:00.99	25.03	13.24	-54.0	-70.1	3.8	1.49e+00	0	23	104	0	73	24078
2026-01-12 02:31:02.00	24.95	13.33	-54.0	-70.2	3.8	1.49e+00	0	23	104	0	73	24173
2026-01-12 02:31:03.01	24.86	13.42	-54.0	-70.2	3.8	1.49e+00	0	23	104	0	73	24136
2026-01-12 02:31:04.02	24.77	13.51	-54.0	-70.2	3.8	1.49e+00	0	23	104	0	73	24156
2026-01-12 02:31:05.03	24.69	13.60	-54.0	-70.2	3.8	1.49e+00	0	22	104	0	73	24192
2026-01-12 02:31:06.04	24.60	13.69	-54.0	-70.1	3.8	1.49e+00	0	23	104	0	73	24084
2026-01-12 02:31:07.05	24.51	13.78	-54.0	-70.2	3.8	1.49e+00	0	23	104	0	73	24146
2026-01-12 02:31:08.06	24.42	13.88	-54.0	-70.1	3.8	1.49e+00	0	23	104	0	73	24076
2026-01-12 02:31:09.07	24.33	13.97	-54.0	-70.1	3.8	1.49e+00	0	23	104	0	73	24072
2026-01-12 02:31:10.08	24.24	14.06	-54.0	-70.1	3.8	1.49e+00	0	23	104	0	73	24056
2026-01-12 02:31:11.09	24.14	14.15	-54.0	-70.1	3.8	1.49e+00	0	23	104	0	73	24089
2026-01-12 02:31:12.10	24.05	14.25	-54.0	-70.1	3.8	1.49e+00	0	23	104	0	73	24102
2026-01-12 02:31:13.11	23.96	14.34	-54.0	-70.2	3.8	1.49e+00	0	23	104	0	73	24151
2026-01-12 02:31:14.12	23.87	14.43	-54.0	-70.1	3.8	1.49e+00	0	23	104	0	73	24078
2026-01-12 02:31:15.12	23.77	14.53	-54.0	-70.1	3.8	1.49e+00	0	23	104	0	73	24124
2026-01-12 02:31:16.12	23.68	14.62	-54.0	-70.1	3.8	1.49e+00	0	23	104	0	73	24122
2026-01-12 02:31:17.13	23.58	14.71	-54.0	-70.2	3.8	1.49e+00	0	23	104	0	73	24155
2026-01-12 02:31:18.14	23.49	14.81	-54.0	-70.1	3.8	1.49e+00	0	23	104	0	73	24106
2026-01-12 02:31:19.15	23.39	14.90	-54.0	-70.1	3.8	1.49e+00	0	23	104	0	73	24053
2026-01-12 02:31:20.16	23.29	15.00	-54.0	-70.1	3.8	1.49e+00	0	23	104	0	73	24113
2026-01-12 02:31:21.17	23.20	15.09	-54.0	-70.1	3.8	1.49e+00	0	23	104	0	73	24099
2026-01-12 02:31:22.17	23.10	15.19	-54.0	-70.2	3.8	1.49e+00	0	23	104	0	73	24158
2026-01-12 02:31:23.18	23.00	15.29	-54.0	-70.2	3.8	1.49e+00	0	23	104	0	73	24134
2026-01-12 02:31:24.19	22.90	15.38	-54.0	-70.1	3.8	1.49e+00	0	23	104	0	73	24120
2026-01-12 02:31:25.20	22.80	15.48	-54.0	-70.1	3.8	1.49e+00	0	23	104	0	73	24103
2026-01-12 02:31:26.21	22.70	15.58	-54.0	-70.2	3.8	1.49e+00	0	23	104	0	73	24145
2026-01-12 02:31:27.22	22.60	15.67	-54.0	-70.1	3.8	1.49e+00	0	23	104	0	73	24130
2026-01-12 02:31:28.23	22.49	15.77	-54.1	-70.1	3.8	1.49e+00	0	23	104	0	73	24114
2026-01-12 02:31:29.24	22.39	15.87	-54.0	-70.2	3.8	1.49e+00	0	23	104	0	73	24171
2026-01-12 02:31:30.25	22.29	15.97	-54.0	-70.2	3.8	1.49e+00	0	23	104	0	73	24175
2026-01-12 02:31:31.26	22.18	16.07	-54.0	-70.2	3.8	1.49e+00	0	23	104	0	73	24154
2026-01-12 02:31:32.26	22.08	16.16	-54.0	-70.1	3.8	1.49e+00	0	23	104	0	73	24092
2026-01-12 02:31:33.28	21.97	16.26	-54.0	-70.1	3.8	1.49e+00	0	23	104	0	73	24080
2026-01-12 02:31:34.29	21.86	16.36	-54.0	-70.1	3.8	1.49e+00	0	22	104	0	73	24124
2026-01-12 02:31:35.30	21.76	16.46	-54.0	-70.1	3.8	1.49e+00	0	23	104	0	73	24118
2026-01-12 02:31:36.31	21.65	16.56	-54.0	-70.1	3.8	1.49e+00	0	23	104	0	73	24068
2026-01-12 02:31:37.32	21.54	16.66	-54.0	-70.2	3.8	1.49e+00	0	23	104	0	73	24169
2026-01-12 02:31:38.32	21.43	16.76	-54.0	-70.2	3.8	1.49e+00	0	23	104	0	73	24147
2026-01-12 02:31:39.33	21.32	16.86	-54.0	-70.2	3.8	1.49e+00	0	23	104	0	73	24183
2026-01-12 02:31:40.34	21.21	16.97	-54.0	-70.2	3.8	1.49e+00	0	23	104	0	73	24169
2026-01-12 02:31:41.35	21.10	17.07	-54.0	-70.2	3.8	1.49e+00	0	23	104	0	73	24175
2026-01-12 02:31:42.35	20.98	17.17	-54.0	-70.2	3.8	1.49e+00	0	23	104	0	73	24186
2026-01-12 02:31:43.36	20.87	17.27	-54.0	-70.2	3.8	1.49e+00	0	23	104	0	73	24175
2026-01-12 02:31:44.37	20.76	17.37	-54.0	-70.2	3.8	1.49e+00	0	23	104	0	73	24160
2026-01-12 02:31:45.38	20.64	17.48	-54.0	-70.2	3.8	1.49e+00	0	23	104	0	73	24197
2026-01-12 02:31:46.38	20.52	17.58	-54.0	-70.2	3.8	1.49e+00	0	23	104	0	73	24203
2026-01-12 02:31:47.39	20.41	17.68	-54.0	-70.2	3.8	1.49e+00	0	23	104	0	73	24151
2026-01-12 02:31:48.40	20.29	17.78	-54.0	-70.1	3.8	1.49e+00	0	23	104	0	73	24088
2026-01-12 02:31:49.41	20.17	17.89	-54.1	-70.2	3.8	1.49e+00	0	23	104	0	73	24236
2026-01-12 02:31:50.42	20.05	17.99	-54.0	-70.2	3.8	1.49e+00	0	23	104	0	73	24191
2026-01-12 02:31:51.43	19.93	18.10	-54.0	-70.2	3.8	1.49e+00	0	23	104	0	73	24148
2026-01-12 02:31:52.44	19.81	18.20	-54.0	-70.2	3.8	1.49e+00	0	23	104	0	73	24169
2026-01-12 02:31:53.45	19.69	18.31	-54.1	-70.2	3.8	1.49e+00	0	23	104	0	73	24149
2026-01-12 02:31:54.46	19.57	18.41	-54.0	-70.2	3.8	1.49e+00	0	23	104	0	73	24171
2026-01-12 02:31:55.47	19.44	18.52	-54.0	-70.2	3.8	1.49e+00	0	23	104	0	73	24164
2026-01-12 02:31:56.47	19.32	18.62	-54.0	-70.2	3.8	1.49e+00	0	23	104	0	73	24221
2026-01-12 02:31:57.48	19.19	18.73	-54.0	-70.2	3.8	1.49e+00	0	23	104	0	73	24207
2026-01-12 02:31:58.48	19.07	18.84	-54.0	-70.2	3.8	1.49e+00	0	23	104	0	73	24219
2026-01-12 02:31:59.50	18.94	18.95	-54.0	-70.2	3.8	1.49e+00	0	23	104	0	73	24145
2026-01-12 02:32:00.50	18.81	19.05	-54.0	-70.2	3.8	1.49e+00	0	23	104	0	73	24132
2026-01-12 02:32:01.51	18.68	19.16	-54.0	-70.2	3.8	1.49e+00	0	23	104	0	73	24196
2026-01-12 02:32:02.52	18.55	19.27	-54.0	-70.2	3.8	1.49e+00	0	23	104	0	73	24160
2026-01-12 02:32:03.53	18.42	19.38	-54.0	-70.2	3.8	1.49e+00	0	23	104	0	73	24160
2026-01-12 02:32:04.54	18.29	19.48	-54.0	-70.2	3.8	1.49e+00	0	23	104	0	73	24133
2026-01-12 02:32:05.55	18.16	19.59	-54.0	-70.2	3.8	1.49e+00	0	23	104	0	73	24149
2026-01-12 02:32:06.56	18.02	19.70	-54.0	-70.2	3.8	1.49e+00	0	23	104	0	73	24166
2026-01-12 02:32:07.57	17.89	19.81	-54.0	-70.2	3.8	1.49e+00	0	23	104	0	73	24177
2026-01-12 02:32:08.58	17.75	19.92	-54.0	-70.2	3.8	1.49e+00	0	23	104	0	73	24257
2026-01-12 02:32:09.58	17.62	20.03	-54.1	-70.2	3.8	1.49e+00	0	23	104	0	73	24182
2026-01-12 02:32:10.59	17.48	20.14	-54.1	-70.2	3.8	1.49e+00	0	23	104	0	73	24203
2026-01-12 02:32:11.60	17.34	20.25	-54.0	-70.2	3.8	1.49e+00	0	23	104	0	73	24154
2026-01-12 02:32:12.61	17.20	20.36	-54.1	-70.1	3.8	1.49e+00	0	23	104	0	73	24112
2026-01-12 02:32:13.62	17.06	20.48	-54.1	-70.2	3.8	1.49e+00	0	23	104	0	73	24197
2026-01-12 02:32:14.63	16.92	20.59	-54.0	-70.2	3.8	1.49e+00	0	23	104	0	73	24188
2026-01-12 02:32:15.63	16.77	20.70	-54.0	-70.2	3.8	1.49e+00	0	23	104	0	73	24199
2026-01-12 02:32:16.63	16.63	20.81	-54.0	-70.2	3.8	1.49e+00	0	23	104	0	73	24195
2026-01-12 02:32:17.64	16.49	20.92	-54.0	-70.2	3.8	1.49e+00	0	23	104	0	73	24197
2026-01-12 02:32:18.65	16.34	21.04	-54.0	-70.2	3.8	1.49e+00	0	23	104	0	73	24215
2026-01-12 02:32:19.66	16.19	21.15	-54.0	-70.2	3.8	1.49e+00	0	23	104	0	73	24152
2026-01-12 02:32:20.67	16.04	21.26	-54.0	-70.2	3.8	1.49e+00	0	23	104	0	73	24192
2026-01-12 02:32:21.68	15.89	21.38	-54.0	-70.2	3.8	1.49e+00	0	23	104	0	73	24190
2026-01-12 02:32:22.68	15.75	21.49	-54.0	-70.2	3.8	1.49e+00	0	23	104	0	73	24243
2026-01-12 02:32:23.69	15.59	21.60	-54.0	-70.2	3.8	1.49e+00	0	23	104	0	73	24235
2026-01-12 02:32:24.70	15.44	21.72	-54.1	-70.2	3.8	1.49e+00	0	23	104	0	73	24246
2026-01-12 02:32:25.71	15.29	21.83	-54.0	-70.2	3.8	1.49e+00	0	23	104	0	73	24235
2026-01-12 02:32:26.72	15.13	21.95	-54.1	-70.2	3.8	1.49e+00	0	23	104	0	73	24223
2026-01-12 02:32:27.73	14.97	22.07	-54.0	-70.2	3.8	1.49e+00	0	23	104	0	73	24157
2026-01-12 02:32:28.74	14.82	22.18	-54.1	-70.2	3.8	1.49e+00	0	23	104	0	73	24253
2026-01-12 02:32:29.75	14.66	22.30	-54.0	-70.2	3.8	1.49e+00	0	23	104	0	73	24134
2026-01-12 02:32:30.76	14.50	22.41	-54.1	-70.2	3.8	1.49e+00	0	23	104	0	73	24216
2026-01-12 02:32:31.76	14.34	22.53	-54.0	-70.2	3.8	1.49e+00	0	23	104	0	73	24201
2026-01-12 02:32:32.77	14.17	22.65	-54.0	-70.1	3.8	1.49e+00	0	23	104	0	73	24122
2026-01-12 02:32:33.78	14.01	22.76	-54.0	-70.2	3.8	1.49e+00	0	23	104	0	73	24194
2026-01-12 02:32:34.80	13.84	22.88	-54.0	-70.2	3.8	1.49e+00	0	23	104	0	73	24170
2026-01-12 02:32:35.80	13.68	23.00	-54.0	-70.2	3.8	1.49e+00	0	23	104	0	73	24198
2026-01-12 02:32:36.81	13.51	23.12	-54.0	-70.2	3.8	1.49e+00	0	23	104	0	73	24205
2026-01-12 02:32:37.82	13.34	23.24	-54.0	-70.1	3.8	1.49e+00	0	23	104	0	73	24127
2026-01-12 02:32:38.83	13.17	23.36	-54.0	-70.2	3.8	1.49e+00	0	23	104	0	73	24172
2026-01-12 02:32:39.84	13.00	23.47	-54.0	-70.2	3.8	1.49e+00	0	23	104	0	73	24219
2026-01-12 02:32:40.85	12.82	23.59	-54.0	-70.2	3.8	1.49e+00	0	23	104	0	73	24240
2026-01-12 02:32:41.86	12.65	23.71	-54.0	-70.2	3.8	1.49e+00	0	23	104	0	73	24307
2026-01-12 02:32:42.87	12.47	23.83	-54.0	-70.2	3.8	1.49e+00	0	23	104	0	73	24196
2026-01-12 02:32:43.88	12.30	23.95	-54.0	-70.2	3.8	1.49e+00	0	23	104	0	73	24226
2026-01-12 02:32:44.89	12.12	24.07	-54.1	-70.2	3.8	1.49e+00	0	23	104	0	73	24225
2026-01-12 02:32:45.89	11.94	24.19	-54.0	-70.2	3.8	1.49e+00	0	23	104	0	73	24185
2026-01-12 02:32:46.90	11.76	24.31	-54.1	-70.2	3.8	1.49e+00	0	23	104	0	73	24214
2026-01-12 02:32:47.91	11.58	24.44	-54.1	-70.2	3.8	1.49e+00	0	23	104	0	73	24186
2026-01-12 02:32:48.91	11.39	24.56	-54.0	-70.2	3.8	1.49e+00	0	23	104	0	73	24267
2026-01-12 02:32:49.92	11.21	24.68	-54.1	-70.2	3.8	1.49e+00	0	23	104	0	73	24196
2026-01-12 02:32:50.93	11.02	24.80	-54.0	-70.2	3.8	1.49e+00	0	23	104	0	73	24217
2026-01-12 02:32:51.94	10.83	24.92	-54.0	-70.2	3.8	1.49e+00	0	23	104	0	73	24217
2026-01-12 02:32:52.95	10.64	25.04	-54.0	-70.2	3.8	1.49e+00	0	23	104	0	73	24152
2026-01-12 02:32:53.96	10.45	25.17	-54.0	-70.2	3.8	1.49e+00	0	23	104	0	73	24162
2026-01-12 02:32:54.97	10.26	25.29	-54.0	-70.2	3.8	1.49e+00	0	23	104	0	73	24185
2026-01-12 02:32:55.98	10.06	25.41	-54.0	-70.2	3.8	1.49e+00	0	23	104	0	73	24240
2026-01-12 02:32:56.98	9.87	25.53	-54.0	-70.2	3.8	1.49e+00	0	23	104	0	73	24187
2026-01-12 02:32:57.99	9.67	25.66	-54.0	-70.2	3.8	1.49e+00	0	23	104	0	73	24180
2026-01-12 02:32:59.00	9.47	25.78	-54.0	-70.2	3.8	1.49e+00	0	23	104	0	73	24181
2026-01-12 02:33:00.01	9.27	25.90	-54.0	-70.2	3.8	1.49e+00	0	23	104	0	73	24175
2026-01-12 02:33:01.02	9.07	26.03	-54.0	-70.2	3.8	1.49e+00	0	23	104	0	73	24161
2026-01-12 02:33:02.02	8.86	26.15	-54.0	-70.1	3.8	1.49e+00	0	23	104	0	73	24119
2026-01-12 02:33:03.03	8.66	26.27	-54.0	-70.2	3.8	1.49e+00	0	23	104	0	73	24151
2026-01-12 02:33:04.04	8.45	26.40	-54.1	-70.2	3.8	1.49e+00	0	23	104	0	73	24156
2026-01-12 02:33:05.05	8.24	26.52	-54.1	-70.2	3.8	1.49e+00	0	23	104	0	73	24136
2026-01-12 02:33:06.05	8.03	26.65	-54.1	-70.2	3.8	1.49e+00	0	23	104	0	73	24177
2026-01-12 02:33:07.06	7.82	26.77	-54.0	-70.2	3.8	1.49e+00	0	23	104	0	73	24148
2026-01-12 02:33:08.07	7.61	26.90	-54.1	-70.2	3.8	1.49e+00	0	23	104	0	73	24145
2026-01-12 02:33:09.08	7.39	27.02	-54.1	-70.2	3.8	1.49e+00	0	23	104	0	73	24154
2026-01-12 02:33:10.09	7.17	27.15	-54.1	-70.2	3.8	1.49e+00	0	23	104	0	73	24258
2026-01-12 02:33:11.10	6.95	27.27	-54.1	-70.2	3.8	1.49e+00	0	23	104	0	73	24211
2026-01-12 02:33:12.11	6.73	27.40	-54.1	-70.2	3.8	1.49e+00	0	23	104	0	73	24259
2026-01-12 02:33:13.12	6.51	27.52	-54.1	-70.2	3.8	1.49e+00	0	23	104	0	73	24271
2026-01-12 02:33:14.13	6.29	27.65	-54.1	-70.2	3.8	1.49e+00	0	23	104	0	73	24264
2026-01-12 02:33:15.14	6.06	27.77	-54.1	-70.2	3.8	1.49e+00	0	23	104	0	73	24193
2026-01-12 02:33:16.15	5.83	27.90	-54.1	-70.2	3.8	1.49e+00	0	23	104	0	73	24210
2026-01-12 02:33:17.15	5.60	28.02	-54.1	-70.2	3.8	1.49e+00	0	23	104	0	73	24281
2026-01-12 02:33:18.16	5.37	28.15	-54.1	-70.2	3.8	1.49e+00	0	23	104	0	73	24262
2026-01-12 02:33:19.17	5.14	28.27	-54.1	-70.2	3.8	1.49e+00	0	23	104	0	73	24270
2026-01-12 02:33:20.18	4.90	28.40	-54.1	-70.2	3.8	1.49e+00	0	23	104	0	73	24216
2026-01-12 02:33:21.19	4.67	28.53	-54.1	-70.2	3.8	1.49e+00	0	23	104	0	73	24282
2026-01-12 02:33:22.19	4.43	28.65	-54.1	-70.2	3.8	1.49e+00	0	23	104	0	73	24235
2026-01-12 02:33:23.20	4.19	28.78	-54.1	-70.2	3.8	1.49e+00	0	23	104	0	73	24233
2026-01-12 02:33:24.21	3.94	28.90	-54.1	-70.2	3.8	1.49e+00	0	23	104	0	73	24247
2026-01-12 02:33:25.22	3.70	29.03	-54.1	-70.2	3.8	1.49e+00	0	23	104	0	73	24293
2026-01-12 02:33:26.23	3.45	29.15	-54.1	-70.2	3.8	1.49e+00	0	23	104	0	73	24245
2026-01-12 02:33:27.24	3.20	29.28	-54.1	-70.2	3.8	1.49e+00	0	23	104	0	73	24258
2026-01-12 02:33:28.25	2.95	29.41	-54.0	-70.2	3.8	1.49e+00	0	23	104	0	73	24202
2026-01-12 02:33:29.26	2.70	29.53	-54.1	-70.2	3.8	1.49e+00	0	23	104	0	73	24171
2026-01-12 02:33:30.27	2.44	29.66	-54.0	-70.2	3.8	1.49e+00	0	23	104	0	73	24147
2026-01-12 02:33:31.28	2.19	29.78	-54.1	-70.2	3.8	1.49e+00	0	23	104	0	73	24223
2026-01-12 02:33:32.28	1.93	29.91	-54.0	-70.2	3.8	1.49e+00	0	23	104	0	73	24196
2026-01-12 02:33:33.29	1.67	30.03	-54.1	-70.2	3.8	1.49e+00	0	23	104	0	73	24259
2026-01-12 02:33:34.31	1.40	30.16	-54.1	-70.2	3.8	1.49e+00	0	23	104	0	73	24203
2026-01-12 02:33:35.31	1.14	30.28	-54.1	-70.2	3.8	1.49e+00	0	23	104	0	73	24175
2026-01-12 02:33:36.33	0.87	30.41	-54.0	-70.2	3.8	1.49e+00	0	23	104	0	73	24206
2026-01-12 02:33:37.33	0.60	30.53	-54.0	-70.2	3.8	1.49e+00	0	23	104	0	73	24256
2026-01-12 02:33:38.34	0.33	30.66	-54.0	-70.2	3.8	1.49e+00	0	23	104	0	73	24208
2026-01-12 02:33:39.35	0.06	30.78	-54.1	-70.2	3.8	1.49e+00	0	23	104	0	73	24209
2026-01-12 02:33:40.36	359.78	30.90	-54.1	-70.2	3.8	1.49e+00	0	23	104	0	73	24234
2026-01-12 02:33:41.37	359.51	31.03	-54.1	-70.2	3.8	1.49e+00	0	23	104	0	73	24257
2026-01-12 02:33:42.38	359.23	31.15	-54.1	-70.2	3.8	1.49e+00	0	23	104	0	73	24142
2026-01-12 02:33:43.38	358.95	31.27	-54.0	-70.2	3.8	1.49e+00	0	23	104	0	73	24194
2026-01-12 02:33:44.39	358.66	31.40	-54.1	-70.2	3.8	1.49e+00	0	23	104	0	73	24235
2026-01-12 02:33:45.40	358.38	31.52	-54.1	-70.2	3.8	1.49e+00	0	23	104	0	73	24295
2026-01-12 02:33:46.41	358.09	31.64	-54.1	-70.2	3.8	1.49e+00	0	23	104	0	73	24166
2026-01-12 02:33:47.42	357.80	31.76	-54.1	-70.2	3.8	1.49e+00	0	23	104	0	73	24247
2026-01-12 02:33:48.43	357.50	31.88	-54.1	-70.2	3.8	1.49e+00	0	23	104	0	73	24228
2026-01-12 02:33:49.44	357.21	32.01	-54.1	-70.2	3.8	1.49e+00	0	23	104	0	73	24274
2026-01-12 02:33:50.45	356.91	32.13	-54.1	-70.2	3.8	1.49e+00	0	23	104	0	73	24197
2026-01-12 02:33:51.47	356.61	32.25	-54.1	-70.2	3.8	1.49e+00	0	23	104	0	73	24262
2026-01-12 02:33:52.47	356.31	32.37	-54.1	-70.2	3.8	1.49e+00	0	23	104	0	73	24198
2026-01-12 02:33:53.48	356.00	32.49	-54.0	-70.2	3.8	1.49e+00	0	23	104	0	73	24147
2026-01-12 02:33:54.50	355.69	32.61	-54.0	-70.2	3.8	1.49e+00	0	23	104	0	73	24155
2026-01-12 02:33:55.51	355.38	32.73	-54.0	-70.2	3.8	1.49e+00	0	23	104	0	73	24168
2026-01-12 02:33:56.52	355.07	32.84	-54.0	-70.2	3.8	1.49e+00	0	23	104	0	73	24145
2026-01-12 02:33:57.52	354.76	32.96	-54.0	-70.2	3.8	1.49e+00	0	23	104	0	73	24161
2026-01-12 02:33:58.52	354.45	33.08	-54.0	-70.2	3.8	1.49e+00	0	23	104	0	73	24205
2026-01-12 02:33:59.53	354.13	33.19	-54.0	-70.2	3.8	1.49e+00	0	23	104	0	73	24229
2026-01-12 02:34:00.54	353.81	33.31	-54.1	-70.2	3.8	1.49e+00	0	23	104	0	73	24182
2026-01-12 02:34:01.55	353.49	33.43	-54.1	-70.2	3.8	1.49e+00	0	23	104	0	73	24262
2026-01-12 02:34:02.56	353.16	33.54	-54.0	-70.2	3.8	1.49e+00	0	23	104	0	73	24263
2026-01-12 02:34:03.57	352.84	33.66	-54.0	-70.2	3.8	1.49e+00	0	23	104	0	73	24235
2026-01-12 02:34:04.58	352.51	33.77	-54.0	-70.2	3.8	1.49e+00	0	23	104	0	73	24189
2026-01-12 02:34:05.59	352.18	33.88	-54.0	-70.2	3.8	1.49e+00	0	23	104	0	73	24191
2026-01-12 02:34:06.60	351.84	33.99	-54.1	-70.2	3.8	1.49e+00	0	23	104	0	73	24237
2026-01-12 02:34:07.60	351.51	34.11	-54.1	-70.2	3.8	1.49e+00	0	23	104	0	73	24229
2026-01-12 02:34:08.61	351.17	34.22	-54.1	-70.2	3.8	1.49e+00	0	23	104	0	73	24217
2026-01-12 02:34:09.62	350.83	34.33	-54.1	-70.2	3.8	1.49e+00	0	23	104	0	73	24244
2026-01-12 02:34:10.63	350.48	34.44	-54.1	-70.2	3.8	1.49e+00	0	23	104	0	73	24231
2026-01-12 02:34:11.64	350.14	34.54	-54.1	-70.2	3.8	1.49e+00	0	23	104	0	73	24257
2026-01-12 02:34:12.64	349.79	34.65	-54.1	-70.2	3.8	1.49e+00	0	23	104	0	73	24243
2026-01-12 02:34:13.65	349.44	34.76	-54.1	-70.2	3.8	1.49e+00	0	23	104	0	73	24244
2026-01-12 02:34:14.66	349.09	34.86	-54.0	-70.2	3.8	1.49e+00	0	23	104	0	73	24177
2026-01-12 02:34:15.67	348.73	34.97	-54.0	-70.2	3.8	1.49e+00	0	23	104	0	73	24219
2026-01-12 02:34:16.68	348.38	35.07	-54.1	-70.2	3.8	1.49e+00	0	23	104	0	73	24248
2026-01-12 02:34:17.69	348.02	35.18	-54.1	-70.2	3.8	1.49e+00	0	23	104	0	73	24251
2026-01-12 02:34:18.70	347.66	35.28	-54.0	-70.2	3.8	1.49e+00	0	23	104	0	73	24217
2026-01-12 02:34:19.70	347.29	35.38	-54.0	-70.2	3.8	1.49e+00	0	23	104	0	73	24231
2026-01-12 02:34:20.71	346.93	35.48	-54.0	-70.2	3.8	1.49e+00	0	23	104	0	73	24194
2026-01-12 02:34:21.72	346.56	35.58	-54.1	-70.2	3.8	1.49e+00	0	23	104	0	73	24271
2026-01-12 02:34:22.73	346.19	35.68	-54.1	-70.2	3.8	1.49e+00	0	23	104	0	73	24166
2026-01-12 02:34:23.74	345.81	35.77	-54.1	-70.2	3.8	1.49e+00	0	23	104	0	73	24258
2026-01-12 02:34:24.75	345.44	35.87	-54.1	-70.2	3.8	1.49e+00	0	23	104	0	73	24233
2026-01-12 02:34:25.76	345.06	35.96	-54.1	-70.2	3.8	1.49e+00	0	23	104	0	73	24233
2026-01-12 02:34:26.77	344.68	36.06	-54.1	-70.2	3.8	1.49e+00	0	23	104	0	73	24195
2026-01-12 02:34:27.77	344.30	36.15	-54.0	-70.2	3.8	1.49e+00	0	23	104	0	73	24136
2026-01-12 02:34:28.77	343.92	36.24	-54.0	-70.2	3.8	1.49e+00	0	23	104	0	73	24156
2026-01-12 02:34:29.78	343.54	36.33	-54.1	-70.2	3.8	1.49e+00	0	23	104	0	73	24224
2026-01-12 02:34:30.78	343.15	36.42	-54.1	-70.2	3.8	1.49e+00	0	23	104	0	73	24201
2026-01-12 02:34:31.79	342.76	36.51	-54.1	-70.2	3.8	1.49e+00	0	23	104	0	73	24162
2026-01-12 02:34:32.80	342.37	36.59	-54.1	-70.2	3.8	1.49e+00	0	23	104	0	73	24203
2026-01-12 02:34:33.81	341.97	36.68	-54.1	-70.2	3.8	1.49e+00	0	23	104	0	73	24212
2026-01-12 02:34:34.82	341.57	36.76	-54.1	-70.2	3.8	1.49e+00	0	23	104	0	73	24191
2026-01-12 02:34:35.83	341.18	36.84	-54.1	-70.2	3.8	1.49e+00	0	23	104	0	73	24223
2026-01-12 02:34:36.84	340.77	36.92	-54.1	-70.2	3.8	1.49e+00	0	23	104	0	73	24213
2026-01-12 02:34:37.85	340.37	37.00	-54.0	-70.2	3.8	1.49e+00	0	23	104	0	73	24203
2026-01-12 02:34:38.85	339.97	37.08	-54.0	-70.2	3.8	1.49e+00	0	23	104	0	73	24218
2026-01-12 02:34:39.87	339.56	37.16	-54.0	-70.2	3.8	1.49e+00	0	23	104	0	73	24221
2026-01-12 02:34:40.88	339.15	37.23	-54.0	-70.2	3.8	1.49e+00	0	23	104	0	73	24240
2026-01-12 02:34:41.89	338.74	37.31	-54.1	-70.2	3.8	1.49e+00	0	23	104	0	73	24145
2026-01-12 02:34:42.90	338.33	37.38	-54.1	-70.2	3.8	1.49e+00	0	23	104	0	73	24182
2026-01-12 02:34:43.90	337.92	37.45	-54.1	-70.2	3.8	1.49e+00	0	23	104	0	73	24213
2026-01-12 02:34:44.91	337.50	37.52	-54.1	-70.2	3.8	1.49e+00	0	23	104	0	73	24276
2026-01-12 02:34:45.92	337.08	37.59	-54.1	-70.2	3.8	1.49e+00	0	23	104	0	73	24257
2026-01-12 02:34:46.93	336.66	37.65	-54.1	-70.2	3.8	1.49e+00	0	23	104	0	73	24273
2026-01-12 02:34:47.93	336.24	37.72	-54.1	-70.2	3.8	1.49e+00	0	23	104	0	73	24238
2026-01-12 02:34:48.94	335.82	37.78	-54.1	-70.2	3.8	1.49e+00	0	23	104	0	73	24298
2026-01-12 02:34:49.95	335.40	37.84	-54.1	-70.2	3.8	1.49e+00	0	23	104	0	73	24257
2026-01-12 02:34:50.96	334.97	37.90	-54.1	-70.2	3.8	1.49e+00	0	23	104	0	73	24261
2026-01-12 02:34:51.97	334.54	37.95	-54.1	-70.2	3.8	1.49e+00	0	23	104	0	73	24289
2026-01-12 02:34:52.98	334.11	38.01	-54.1	-70.2	3.8	1.49e+00	0	23	104	0	73	24262
2026-01-12 02:34:53.98	333.69	38.06	-54.1	-70.2	3.8	1.49e+00	0	23	104	0	73	24201
2026-01-12 02:34:54.99	333.25	38.12	-54.1	-70.2	3.8	1.49e+00	0	23	104	0	73	24228
2026-01-12 02:34:56.00	332.82	38.17	-54.0	-70.2	3.8	1.49e+00	0	23	104	0	73	24257
2026-01-12 02:34:57.01	332.39	38.21	-54.1	-70.2	3.8	1.49e+00	0	23	104	0	73	24251
2026-01-12 02:34:58.01	331.95	38.26	-54.1	-70.2	3.8	1.49e+00	0	23	104	0	73	24251
2026-01-12 02:34:59.02	331.52	38.31	-54.0	-70.2	3.8	1.49e+00	0	23	104	0	73	24281
2026-01-12 02:35:00.03	331.08	38.35	-54.1	-70.2	3.8	1.49e+00	0	23	104	0	73	24278
2026-01-12 02:35:01.04	330.64	38.39	-54.1	-70.2	3.8	1.49e+00	0	23	104	0	73	24276
2026-01-12 02:35:02.05	330.20	38.43	-54.1	-70.2	3.8	1.49e+00	0	23	104	0	73	24305
2026-01-12 02:35:03.05	329.76	38.47	-54.1	-70.2	3.8	1.49e+00	0	23	104	0	73	24330
2026-01-12 02:35:04.06	329.32	38.50	-54.1	-70.2	3.8	1.49e+00	0	23	104	0	73	24275
2026-01-12 02:35:05.07	328.87	38.54	-54.1	-70.2	3.8	1.49e+00	0	23	104	0	73	24283
2026-01-12 02:35:06.07	328.43	38.57	-54.0	-70.2	3.8	1.49e+00	0	23	104	0	73	24282
2026-01-12 02:35:07.08	327.99	38.60	-54.1	-70.2	3.8	1.49e+00	0	23	104	0	73	24282
2026-01-12 02:35:08.10	327.54	38.62	-54.0	-70.2	3.8	1.49e+00	0	23	104	0	73	24277
2026-01-12 02:35:09.11	327.09	38.65	-54.1	-70.2	3.8	1.49e+00	0	23	104	0	73	24301
2026-01-12 02:35:10.11	326.65	38.67	-54.1	-70.2	3.8	1.49e+00	0	23	104	0	73	24256
2026-01-12 02:35:11.12	326.20	38.70	-54.1	-70.2	3.8	1.49e+00	0	23	104	0	73	24268
2026-01-12 02:35:12.13	325.75	38.72	-54.1	-70.2	3.8	1.49e+00	0	23	104	0	73	24295
2026-01-12 02:35:13.14	325.30	38.73	-54.1	-70.2	3.8	1.49e+00	0	23	104	0	73	24287
2026-01-12 02:35:14.15	324.85	38.75	-54.1	-70.2	3.8	1.49e+00	0	23	104	0	73	24280
2026-01-12 02:35:15.16	324.40	38.76	-54.1	-70.2	3.8	1.49e+00	0	23	104	0	73	24314
2026-01-12 02:35:16.17	323.95	38.77	-54.0	-70.2	3.8	1.49e+00	0	23	104	0	73	24331
2026-01-12 02:35:17.18	323.50	38.78	-54.1	-70.2	3.8	1.49e+00	0	23	104	0	73	24333
2026-01-12 02:35:18.18	323.05	38.79	-54.1	-70.2	3.8	1.49e+00	0	23	104	0	73	24294
2026-01-12 02:35:19.19	322.60	38.80	-54.1	-70.2	3.8	1.49e+00	0	23	104	0	73	24272
2026-01-12 02:35:20.20	322.15	38.80	-54.1	-70.2	3.8	1.49e+00	0	23	104	0	73	24238
2026-01-12 02:35:21.21	321.69	38.80	-54.1	-70.2	3.8	1.49e+00	0	23	104	0	73	24271
2026-01-12 02:35:22.22	321.24	38.80	-54.1	-70.2	3.8	1.49e+00	0	23	104	0	73	24237
2026-01-12 02:35:23.23	320.79	38.80	-54.1	-70.2	3.8	1.49e+00	0	23	104	0	73	24232
2026-01-12 02:35:24.24	320.34	38.80	-54.1	-70.2	3.8	1.49e+00	0	23	104	0	73	24230
2026-01-12 02:35:25.25	319.89	38.79	-54.1	-70.2	3.8	1.49e+00	0	23	104	0	73	24227
2026-01-12 02:35:26.26	319.44	38.78	-54.1	-70.2	3.8	1.49e+00	0	23	104	0	73	24311
2026-01-12 02:35:27.27	318.98	38.77	-54.1	-70.2	3.8	1.49e+00	0	23	104	0	73	24281
2026-01-12 02:35:28.27	318.54	38.76	-54.1	-70.2	3.8	1.49e+00	0	23	104	0	73	24258
2026-01-12 02:35:29.28	318.09	38.74	-54.1	-70.2	3.8	1.49e+00	0	23	104	0	73	24191
2026-01-12 02:35:30.29	317.64	38.73	-54.1	-70.2	3.8	1.49e+00	0	23	104	0	73	24260
2026-01-12 02:35:31.30	317.19	38.71	-54.0	-70.2	3.8	1.49e+00	0	23	104	0	73	24285
2026-01-12 02:35:32.32	316.73	38.69	-54.0	-70.2	3.8	1.49e+00	0	23	104	0	73	24233
2026-01-12 02:35:33.32	316.29	38.67	-54.0	-70.2	3.8	1.49e+00	0	23	104	0	73	24279
2026-01-12 02:35:34.33	315.84	38.64	-54.0	-70.2	3.8	1.49e+00	0	23	104	0	73	24227
2026-01-12 02:35:35.34	315.40	38.62	-54.0	-70.2	3.8	1.49e+00	0	23	104	0	73	24249
2026-01-12 02:35:36.35	314.95	38.59	-54.0	-70.2	3.8	1.49e+00	0	23	104	0	73	24259
2026-01-12 02:35:37.36	314.50	38.56	-54.0	-70.2	3.8	1.49e+00	0	23	104	0	73	24178
2026-01-12 02:35:38.36	314.06	38.52	-54.0	-70.2	3.8	1.49e+00	0	23	104	0	73	24193
2026-01-12 02:35:39.37	313.62	38.49	-54.0	-70.2	3.8	1.49e+00	0	23	104	0	73	24259
2026-01-12 02:35:40.39	313.17	38.45	-54.0	-70.2	3.8	1.49e+00	0	23	104	0	73	24231
2026-01-12 02:35:41.40	312.73	38.42	-54.1	-70.2	3.8	1.49e+00	0	23	104	0	73	24233
2026-01-12 02:35:42.40	312.30	38.38	-54.1	-70.2	3.8	1.49e+00	0	23	104	0	73	24199
2026-01-12 02:35:43.41	311.86	38.33	-54.1	-70.2	3.8	1.49e+00	0	23	104	0	73	24227
2026-01-12 02:35:44.42	311.42	38.29	-54.1	-70.2	3.8	1.49e+00	0	23	104	0	73	24257
2026-01-12 02:35:45.43	310.98	38.24	-54.1	-70.2	3.8	1.49e+00	0	23	104	0	73	24278
2026-01-12 02:35:46.44	310.54	38.20	-54.1	-70.2	3.8	1.49e+00	0	23	104	0	73	24231
2026-01-12 02:35:47.45	310.11	38.15	-54.1	-70.2	3.8	1.49e+00	0	23	104	0	73	24236
2026-01-12 02:35:48.46	309.68	38.10	-54.0	-70.2	3.8	1.49e+00	0	23	104	0	73	24266
2026-01-12 02:35:49.46	309.25	38.05	-54.0	-70.2	3.8	1.49e+00	0	23	104	0	73	24302
2026-01-12 02:35:50.47	308.82	37.99	-54.0	-70.2	3.8	1.49e+00	0	23	104	0	73	24224
2026-01-12 02:35:51.48	308.39	37.93	-54.0	-70.2	3.8	1.49e+00	0	23	104	0	73	24219
2026-01-12 02:35:52.49	307.96	37.88	-54.1	-70.2	3.8	1.49e+00	0	23	104	0	73	24202
2026-01-12 02:35:53.50	307.53	37.82	-54.0	-70.2	3.8	1.49e+00	0	23	104	0	73	24239
2026-01-12 02:35:54.51	307.11	37.76	-54.1	-70.2	3.8	1.49e+00	0	23	104	0	73	24215
2026-01-12 02:35:55.52	306.69	37.69	-54.1	-70.2	3.8	1.49e+00	0	23	104	0	73	24171
2026-01-12 02:35:56.53	306.27	37.63	-54.1	-70.2	3.8	1.49e+00	0	23	104	0	73	24204
2026-01-12 02:35:57.54	305.85	37.56	-54.1	-70.2	3.8	1.49e+00	0	23	104	0	73	24221
2026-01-12 02:35:58.55	305.43	37.49	-54.1	-70.2	3.8	1.49e+00	0	23	104	0	73	24233
2026-01-12 02:35:59.55	305.02	37.42	-54.0	-70.2	3.8	1.49e+00	0	23	104	0	73	24285
2026-01-12 02:36:00.56	304.60	37.35	-54.1	-70.2	3.8	1.49e+00	0	23	104	0	73	24243
2026-01-12 02:36:01.57	304.19	37.28	-54.0	-70.2	3.8	1.49e+00	0	23	104	0	73	24262
2026-01-12 02:36:02.58	303.78	37.21	-54.1	-70.2	3.8	1.49e+00	0	23	104	0	73	24242
2026-01-12 02:36:03.59	303.37	37.13	-54.1	-70.2	3.8	1.49e+00	0	23	104	0	73	24263
2026-01-12 02:36:04.59	302.97	37.05	-54.1	-70.2	3.8	1.49e+00	0	23	104	0	73	24229
2026-01-12 02:36:05.60	302.56	36.97	-54.1	-70.2	3.8	1.49e+00	0	23	104	0	73	24332
2026-01-12 02:36:06.61	302.16	36.89	-54.1	-70.2	3.8	1.49e+00	0	23	104	0	73	24315
2026-01-12 02:36:07.62	301.76	36.81	-54.0	-70.2	3.8	1.49e+00	0	23	104	0	73	24214
2026-01-12 02:36:08.63	301.36	36.73	-54.0	-70.2	3.8	1.49e+00	0	23	104	0	73	24287
2026-01-12 02:36:09.64	300.96	36.65	-54.0	-70.2	3.8	1.49e+00	0	23	104	0	73	24220
2026-01-12 02:36:10.65	300.57	36.56	-54.1	-70.2	3.8	1.49e+00	0	23	104	0	73	24245
2026-01-12 02:36:11.66	300.18	36.47	-54.0	-70.2	3.8	1.49e+00	0	23	104	0	73	24276
2026-01-12 02:36:12.66	299.79	36.39	-54.1	-70.2	3.8	1.49e+00	0	23	104	0	73	24255
2026-01-12 02:36:13.67	299.40	36.30	-54.1	-70.2	3.8	1.49e+00	0	23	104	0	73	24226
2026-01-12 02:36:14.68	299.02	36.21	-54.1	-70.2	3.8	1.49e+00	0	23	104	0	73	24269
2026-01-12 02:36:15.69	298.63	36.11	-54.1	-70.2	3.8	1.49e+00	0	23	104	0	73	24236
2026-01-12 02:36:16.70	298.25	36.02	-54.1	-70.2	3.8	1.49e+00	0	23	104	0	73	24224
2026-01-12 02:36:17.70	297.87	35.93	-54.1	-70.2	3.8	1.49e+00	0	23	104	0	73	24250
2026-01-12 02:36:18.71	297.50	35.83	-54.1	-70.2	3.8	1.49e+00	0	23	104	0	73	24343
2026-01-12 02:36:19.72	297.12	35.74	-54.1	-70.2	3.8	1.49e+00	0	23	104	0	73	24275
2026-01-12 02:36:20.73	296.75	35.64	-54.1	-70.2	3.8	1.49e+00	0	23	104	0	73	24311
2026-01-12 02:36:21.74	296.38	35.54	-54.1	-70.2	3.8	1.49e+00	0	23	104	0	73	24260
2026-01-12 02:36:22.75	296.01	35.44	-54.1	-70.2	3.8	1.49e+00	0	23	104	0	73	24302
2026-01-12 02:36:23.76	295.64	35.34	-54.1	-70.2	3.8	1.49e+00	0	23	104	0	73	24237
2026-01-12 02:36:24.77	295.28	35.24	-54.1	-70.2	3.8	1.49e+00	0	23	104	0	73	24201
2026-01-12 02:36:25.77	294.92	35.14	-54.1	-70.2	3.8	1.49e+00	0	23	104	0	73	24256
2026-01-12 02:36:26.78	294.56	35.03	-54.1	-70.2	3.8	1.49e+00	0	23	104	0	73	24262
2026-01-12 02:36:27.79	294.20	34.93	-54.1	-70.2	3.8	1.49e+00	0	23	104	0	73	24249
2026-01-12 02:36:28.80	293.85	34.82	-54.0	-70.2	3.8	1.49e+00	0	23	104	0	73	24283
2026-01-12 02:36:29.81	293.50	34.71	-54.1	-70.2	3.8	1.49e+00	0	23	104	0	73	24290
2026-01-12 02:36:30.82	293.15	34.61	-54.1	-70.2	3.8	1.49e+00	0	23	104	0	73	24216
2026-01-12 02:36:31.83	292.80	34.50	-54.1	-70.2	3.8	1.49e+00	0	23	104	0	73	24194
2026-01-12 02:36:32.83	292.46	34.39	-54.1	-70.2	3.8	1.49e+00	0	23	104	0	73	24266
2026-01-12 02:36:33.84	292.11	34.28	-54.1	-70.2	3.8	1.49e+00	0	23	104	0	73	24246
2026-01-12 02:36:34.85	291.77	34.17	-54.1	-70.2	3.8	1.49e+00	0	23	104	0	73	24252
2026-01-12 02:36:35.86	291.43	34.06	-54.1	-70.2	3.8	1.49e+00	0	23	104	0	73	24249
2026-01-12 02:36:36.87	291.10	33.95	-54.1	-70.2	3.8	1.49e+00	0	23	104	0	73	24265
2026-01-12 02:36:37.87	290.77	33.84	-54.1	-70.2	3.8	1.49e+00	0	23	104	0	73	24277
2026-01-12 02:36:38.88	290.43	33.72	-54.1	-70.2	3.8	1.49e+00	0	23	104	0	73	24236
2026-01-12 02:36:39.89	290.11	33.61	-54.1	-70.2	3.8	1.49e+00	0	23	104	0	73	24253
2026-01-12 02:36:40.90	289.78	33.49	-54.1	-70.2	3.8	1.49e+00	0	23	104	0	73	24229
2026-01-12 02:36:41.91	289.45	33.38	-54.1	-70.2	3.8	1.49e+00	0	23	104	0	73	24290
2026-01-12 02:36:42.91	289.13	33.26	-54.1	-70.2	3.8	1.49e+00	0	23	104	0	73	24186
2026-01-12 02:36:43.92	288.81	33.15	-54.1	-70.2	3.8	1.49e+00	0	23	104	0	73	24246
2026-01-12 02:36:44.93	288.50	33.03	-54.1	-70.2	3.8	1.49e+00	0	23	104	0	73	24223
2026-01-12 02:36:45.94	288.18	32.91	-54.1	-70.2	3.8	1.49e+00	0	23	104	0	73	24271
2026-01-12 02:36:46.95	287.87	32.79	-54.1	-70.2	3.8	1.49e+00	0	23	104	0	73	24324
2026-01-12 02:36:47.95	287.56	32.68	-54.1	-70.2	3.8	1.49e+00	0	23	104	0	73	24277
2026-01-12 02:36:48.96	287.25	32.56	-54.1	-70.2	3.8	1.49e+00	0	23	104	0	73	24338
2026-01-12 02:36:49.97	286.95	32.44	-54.1	-70.2	3.8	1.49e+00	0	23	104	0	73	24194
2026-01-12 02:36:50.98	286.64	32.32	-54.1	-70.2	3.8	1.49e+00	0	23	104	0	73	24266
2026-01-12 02:36:51.99	286.34	32.20	-54.0	-70.2	3.8	1.49e+00	0	23	104	0	73	24310
2026-01-12 02:36:53.00	286.04	32.07	-54.1	-70.2	3.8	1.49e+00	0	23	104	0	73	24210
2026-01-12 02:36:54.01	285.74	31.95	-54.0	-70.2	3.8	1.49e+00	0	23	104	0	73	24202
2026-01-12 02:36:55.02	285.45	31.83	-54.0	-70.2	3.8	1.49e+00	0	23	104	0	73	24256
2026-01-12 02:36:56.03	285.15	31.71	-54.0	-70.2	3.8	1.49e+00	0	23	104	0	73	24242
2026-01-12 02:36:57.04	284.86	31.59	-54.1	-70.2	3.8	1.49e+00	0	23	104	0	73	24279
2026-01-12 02:36:58.05	284.58	31.46	-54.1	-70.2	3.8	1.49e+00	0	23	104	0	73	24283
2026-01-12 02:36:59.05	284.29	31.34	-54.0	-70.2	3.8	1.49e+00	0	23	104	0	73	24314
2026-01-12 02:37:00.06	284.01	31.22	-54.0	-70.2	3.8	1.49e+00	0	23	104	0	73	24264
2026-01-12 02:37:01.07	283.73	31.10	-54.0	-70.2	3.8	1.49e+00	0	23	104	0	73	24250
2026-01-12 02:37:02.08	283.45	30.97	-54.1	-70.2	3.8	1.49e+00	0	23	104	0	73	24291
2026-01-12 02:37:03.09	283.17	30.85	-54.0	-70.2	3.8	1.49e+00	0	23	104	0	73	24253
2026-01-12 02:37:04.09	282.90	30.72	-54.0	-70.2	3.8	1.49e+00	0	23	104	0	73	24328
2026-01-12 02:37:05.10	282.62	30.60	-54.0	-70.2	3.8	1.49e+00	0	23	104	0	73	24296
2026-01-12 02:37:06.12	282.35	30.47	-54.1	-70.2	3.8	1.49e+00	0	23	104	0	73	24301
2026-01-12 02:37:07.12	282.08	30.35	-54.1	-70.2	3.8	1.49e+00	0	23	104	0	73	24314
2026-01-12 02:37:08.13	281.82	30.23	-54.1	-70.2	3.8	1.49e+00	0	23	104	0	73	24196
2026-01-12 02:37:09.14	281.55	30.10	-54.1	-70.2	3.8	1.49e+00	0	23	104	0	73	24258
2026-01-12 02:37:10.15	281.29	29.97	-54.1	-70.2	3.8	1.49e+00	0	23	104	0	73	24278
2026-01-12 02:37:11.16	281.03	29.85	-54.1	-70.2	3.8	1.49e+00	0	23	104	0	73	24384
2026-01-12 02:37:12.17	280.77	29.72	-54.1	-70.2	3.8	1.49e+00	0	23	104	0	73	24267
2026-01-12 02:37:13.18	280.51	29.60	-54.1	-70.2	3.8	1.49e+00	0	23	104	0	73	24228
2026-01-12 02:37:14.19	280.26	29.47	-54.1	-70.2	3.8	1.49e+00	0	23	104	0	73	24259
2026-01-12 02:37:15.20	280.00	29.35	-54.1	-70.2	3.8	1.49e+00	0	23	104	0	73	24240
2026-01-12 02:37:16.21	279.75	29.22	-54.1	-70.2	3.8	1.49e+00	0	23	104	0	73	24267
2026-01-12 02:37:17.22	279.50	29.09	-54.0	-70.2	3.8	1.49e+00	0	23	104	0	73	24239
2026-01-12 02:37:18.23	279.26	28.97	-54.1	-70.2	3.8	1.49e+00	0	23	104	0	73	24250
2026-01-12 02:37:19.24	279.01	28.84	-54.1	-70.2	3.8	1.49e+00	0	23	104	0	73	24220
2026-01-12 02:37:20.25	278.77	28.72	-54.0	-70.2	3.8	1.49e+00	0	23	104	0	73	24230
2026-01-12 02:37:21.26	278.53	28.59	-54.1	-70.2	3.8	1.49e+00	0	23	104	0	73	24297
2026-01-12 02:37:22.26	278.29	28.46	-54.1	-70.2	3.8	1.49e+00	0	23	104	0	73	24330
2026-01-12 02:37:23.27	278.05	28.34	-54.0	-70.2	3.8	1.49e+00	0	23	104	0	73	24234
2026-01-12 02:37:24.28	277.82	28.21	-54.0	-70.2	3.8	1.49e+00	0	23	104	0	73	24286
2026-01-12 02:37:25.29	277.59	28.09	-54.0	-70.2	3.8	1.49e+00	0	23	104	0	73	24183
2026-01-12 02:37:26.30	277.35	27.96	-54.1	-70.2	3.8	1.49e+00	0	23	104	0	73	24282
2026-01-12 02:37:27.30	277.13	27.84	-54.1	-70.2	3.8	1.49e+00	0	23	104	0	73	24290
2026-01-12 02:37:28.31	276.90	27.71	-54.1	-70.2	3.8	1.49e+00	0	23	104	0	73	24228
2026-01-12 02:37:29.32	276.67	27.58	-54.1	-70.2	3.8	1.49e+00	0	23	104	0	73	24297
2026-01-12 02:37:30.33	276.45	27.46	-54.1	-70.2	3.8	1.49e+00	0	23	104	0	73	24252
2026-01-12 02:37:31.34	276.22	27.33	-54.1	-70.2	3.8	1.49e+00	0	23	104	0	73	24224
2026-01-12 02:37:32.35	276.00	27.21	-54.1	-70.2	3.8	1.49e+00	0	23	104	0	73	24228
2026-01-12 02:37:33.36	275.78	27.08	-54.1	-70.2	3.8	1.49e+00	0	23	104	0	73	24231
2026-01-12 02:37:34.36	275.57	26.96	-54.1	-70.2	3.8	1.49e+00	0	23	104	0	73	24242
2026-01-12 02:37:35.37	275.35	26.83	-54.1	-70.2	3.8	1.49e+00	0	23	104	0	73	24237
2026-01-12 02:37:36.38	275.14	26.71	-54.1	-70.2	3.8	1.49e+00	0	23	104	0	73	24272
2026-01-12 02:37:37.39	274.93	26.58	-54.1	-70.2	3.8	1.49e+00	0	23	104	0	73	24264
2026-01-12 02:37:38.39	274.72	26.46	-54.1	-70.2	3.8	1.49e+00	0	23	104	0	73	24380
2026-01-12 02:37:39.40	274.51	26.33	-54.1	-70.2	3.8	1.49e+00	0	23	104	0	73	24270
2026-01-12 02:37:40.41	274.30	26.21	-54.1	-70.2	3.8	1.49e+00	0	23	104	0	73	24311
2026-01-12 02:37:41.42	274.10	26.09	-54.1	-70.2	3.8	1.49e+00	0	23	104	0	73	24279
2026-01-12 02:37:42.43	273.89	25.96	-54.1	-70.2	3.8	1.49e+00	0	23	104	0	73	24239
2026-01-12 02:37:43.44	273.69	25.84	-54.1	-70.2	3.8	1.49e+00	0	23	104	0	73	24239
2026-01-12 02:37:44.45	273.49	25.71	-54.1	-70.2	3.8	1.49e+00	0	23	104	0	73	24198
2026-01-12 02:37:45.46	273.29	25.59	-54.1	-70.2	3.8	1.49e+00	0	23	104	0	73	24207
2026-01-12 02:37:46.47	273.09	25.47	-54.1	-70.2	3.8	1.49e+00	0	23	104	0	73	24232
2026-01-12 02:37:47.48	272.90	25.34	-54.0	-70.2	3.8	1.49e+00	0	23	104	0	73	24225
2026-01-12 02:37:48.49	272.70	25.22	-54.0	-70.2	3.8	1.49e+00	0	23	104	0	73	24273
2026-01-12 02:37:49.49	272.51	25.10	-54.0	-70.2	3.8	1.49e+00	0	23	104	0	73	24235
2026-01-12 02:37:50.50	272.32	24.98	-54.1	-70.2	3.8	1.49e+00	0	23	104	0	73	24257
2026-01-12 02:37:51.51	272.13	24.85	-54.1	-70.2	3.8	1.49e+00	0	23	104	0	73	24271
2026-01-12 02:37:52.52	271.94	24.73	-54.0	-70.2	3.9	1.49e+00	0	23	104	0	73	24234
2026-01-12 02:37:53.53	271.75	24.61	-54.0	-70.2	3.8	1.49e+00	0	23	104	0	73	24258
2026-01-12 02:37:54.54	271.57	24.49	-54.0	-70.2	3.8	1.49e+00	0	23	104	0	73	24364
2026-01-12 02:37:55.55	271.38	24.37	-54.0	-70.2	3.8	1.49e+00	0	23	104	0	73	24267
2026-01-12 02:37:56.56	271.20	24.24	-54.0	-70.2	3.8	1.49e+00	0	23	104	0	73	24319
2026-01-12 02:37:57.57	271.02	24.12	-54.0	-70.2	3.8	1.49e+00	0	23	104	0	73	24223
2026-01-12 02:37:58.58	270.84	24.00	-54.1	-70.2	3.8	1.49e+00	0	23	104	0	73	24283
2026-01-12 02:37:59.59	270.66	23.88	-54.0	-70.2	3.8	1.49e+00	0	23	104	0	73	24299
2026-01-12 02:38:00.59	270.49	23.76	-54.0	-70.2	3.8	1.49e+00	0	23	104	0	73	24227
2026-01-12 02:38:01.60	270.31	23.64	-54.0	-70.2	3.8	1.49e+00	0	23	104	0	73	24284
2026-01-12 02:38:02.61	270.13	23.52	-54.1	-70.2	3.8	1.49e+00	0	23	104	0	73	24236
2026-01-12 02:38:03.62	269.96	23.40	-54.1	-70.2	3.8	1.49e+00	0	23	104	0	73	24303
2026-01-12 02:38:04.63	269.79	23.28	-54.1	-70.2	3.8	1.49e+00	0	23	104	0	73	24254
2026-01-12 02:38:05.64	269.62	23.17	-54.1	-70.2	3.8	1.49e+00	0	23	104	0	73	24320
2026-01-12 02:38:06.65	269.45	23.05	-54.1	-70.2	3.8	1.49e+00	0	23	104	0	73	24278
2026-01-12 02:38:07.66	269.28	22.93	-54.0	-70.2	3.8	1.49e+00	0	23	104	0	73	24235
2026-01-12 02:38:08.67	269.12	22.81	-54.0	-70.2	3.8	1.49e+00	0	23	104	0	73	24274
2026-01-12 02:38:09.68	268.95	22.69	-54.0	-70.2	3.8	1.49e+00	0	23	104	0	73	24297
2026-01-12 02:38:10.69	268.79	22.58	-54.0	-70.2	3.8	1.49e+00	0	23	104	0	73	24285
2026-01-12 02:38:11.70	268.62	22.46	-54.0	-70.2	3.8	1.49e+00	0	23	104	0	73	24238
2026-01-12 02:38:12.71	268.46	22.34	-54.0	-70.2	3.8	1.49e+00	0	23	104	0	73	24256
2026-01-12 02:38:13.72	268.30	22.22	-54.0	-70.2	3.8	1.49e+00	0	23	104	0	73	24297
2026-01-12 02:38:14.72	268.14	22.11	-54.0	-70.2	3.8	1.49e+00	0	23	104	0	73	24296
2026-01-12 02:38:15.73	267.99	21.99	-54.0	-70.2	3.8	1.49e+00	0	23	104	0	73	24306
2026-01-12 02:38:16.74	267.83	21.88	-54.0	-70.2	3.8	1.49e+00	0	23	104	0	73	24394
2026-01-12 02:38:17.74	267.68	21.76	-54.0	-70.2	3.8	1.49e+00	0	23	104	0	73	24287
2026-01-12 02:38:18.75	267.52	21.65	-54.1	-70.2	3.8	1.49e+00	0	23	104	0	73	24299
2026-01-12 02:38:19.76	267.37	21.53	-54.1	-70.2	3.8	1.49e+00	0	23	104	0	73	24315
2026-01-12 02:38:20.77	267.22	21.42	-54.0	-70.2	3.8	1.49e+00	0	23	104	0	73	24239
2026-01-12 02:38:21.78	267.07	21.30	-54.0	-70.2	3.8	1.49e+00	0	23	104	0	73	24252
2026-01-12 02:38:22.79	266.92	21.19	-54.0	-70.2	3.8	1.49e+00	0	23	104	0	73	24229
2026-01-12 02:38:23.79	266.77	21.08	-54.0	-70.2	3.8	1.49e+00	0	23	104	0	73	24230
2026-01-12 02:38:24.80	266.62	20.96	-54.1	-70.2	3.8	1.49e+00	0	23	104	0	73	24273
2026-01-12 02:38:25.81	266.47	20.85	-54.0	-70.2	3.8	1.49e+00	0	23	104	0	73	24271
2026-01-12 02:38:26.82	266.33	20.74	-54.0	-70.2	3.8	1.49e+00	0	23	104	0	73	24276
2026-01-12 02:38:27.83	266.18	20.62	-54.0	-70.2	3.8	1.49e+00	0	23	104	0	73	24317
2026-01-12 02:38:28.84	266.04	20.51	-54.0	-70.2	3.8	1.49e+00	0	23	104	0	73	24260
2026-01-12 02:38:29.85	265.90	20.40	-54.0	-70.2	3.8	1.49e+00	0	23	104	0	73	24264
2026-01-12 02:38:30.86	265.76	20.29	-54.1	-70.2	3.8	1.49e+00	0	23	104	0	73	24308
2026-01-12 02:38:31.87	265.62	20.18	-54.0	-70.2	3.8	1.49e+00	0	23	104	0	73	24279
2026-01-12 02:38:32.88	265.48	20.07	-54.1	-70.2	3.8	1.49e+00	0	23	104	0	73	24279
2026-01-12 02:38:33.89	265.34	19.96	-54.1	-70.2	3.8	1.49e+00	0	23	104	0	73	24309
2026-01-12 02:38:34.89	265.21	19.85	-54.1	-70.2	3.8	1.49e+00	0	23	104	0	73	24262
2026-01-12 02:38:35.90	265.07	19.74	-54.1	-70.2	3.8	1.49e+00	0	23	104	0	73	24310
2026-01-12 02:38:36.91	264.93	19.63	-54.1	-70.2	3.8	1.49e+00	0	23	104	0	73	24247
2026-01-12 02:38:37.92	264.80	19.52	-54.1	-70.2	3.8	1.49e+00	0	23	104	0	73	24291
2026-01-12 02:38:38.93	264.67	19.41	-54.0	-70.2	3.8	1.49e+00	0	23	104	0	73	24322
2026-01-12 02:38:39.94	264.54	19.30	-54.0	-70.2	3.8	1.49e+00	0	23	104	0	73	24314
2026-01-12 02:38:40.94	264.41	19.19	-54.0	-70.2	3.8	1.49e+00	0	23	104	0	73	24245
2026-01-12 02:38:41.95	264.28	19.08	-54.1	-70.2	3.8	1.49e+00	0	23	104	0	73	24246
2026-01-12 02:38:42.96	264.15	18.98	-54.1	-70.2	3.8	1.49e+00	0	23	104	0	73	24308
2026-01-12 02:38:43.97	264.02	18.87	-54.1	-70.2	3.8	1.49e+00	0	23	104	0	73	24301
2026-01-12 02:38:44.97	263.89	18.76	-54.0	-70.2	3.8	1.49e+00	0	23	104	0	73	24353
2026-01-12 02:38:45.98	263.77	18.66	-54.1	-70.2	3.8	1.49e+00	0	23	104	0	73	24216
2026-01-12 02:38:46.99	263.64	18.55	-54.0	-70.2	3.8	1.49e+00	0	23	104	0	73	24293
2026-01-12 02:38:48.00	263.51	18.44	-54.0	-70.2	3.8	1.49e+00	0	23	104	0	73	24251
2026-01-12 02:38:49.01	263.39	18.34	-54.0	-70.2	3.8	1.49e+00	0	23	104	0	73	24225
2026-01-12 02:38:50.01	263.27	18.23	-54.0	-70.2	3.8	1.49e+00	0	23	104	0	73	24268
2026-01-12 02:38:51.02	263.15	18.13	-54.1	-70.2	3.8	1.49e+00	0	23	104	0	73	24266
2026-01-12 02:38:52.03	263.03	18.02	-54.1	-70.2	3.8	1.49e+00	0	23	104	0	73	24313
2026-01-12 02:38:53.04	262.91	17.92	-54.0	-70.2	3.8	1.49e+00	0	23	104	0	73	24265
2026-01-12 02:38:54.05	262.79	17.81	-54.0	-70.2	3.8	1.49e+00	0	23	104	0	73	24263
2026-01-12 02:38:55.06	262.67	17.71	-54.1	-70.2	3.8	1.49e+00	0	23	104	0	73	24304
2026-01-12 02:38:56.07	262.55	17.60	-54.1	-70.2	3.8	1.49e+00	0	23	104	0	73	24333
2026-01-12 02:38:57.08	262.43	17.50	-54.1	-70.2	3.8	1.49e+00	0	23	104	0	73	24214
2026-01-12 02:38:58.09	262.32	17.40	-54.1	-70.2	3.8	1.49e+00	0	23	104	0	73	24277
2026-01-12 02:38:59.09	262.20	17.30	-54.1	-70.2	3.8	1.49e+00	0	23	104	0	73	24242
2026-01-12 02:39:00.10	262.09	17.19	-54.1	-70.2	3.8	1.49e+00	0	23	104	0	73	24274
2026-01-12 02:39:01.11	261.97	17.09	-54.0	-70.2	3.8	1.49e+00	0	23	104	0	73	24270
2026-01-12 02:39:02.12	261.86	16.99	-54.1	-70.2	3.8	1.49e+00	0	23	104	0	73	24251
2026-01-12 02:39:03.12	261.75	16.89	-54.0	-70.2	3.8	1.49e+00	0	23	104	0	73	24273
2026-01-12 02:39:04.13	261.64	16.79	-54.0	-70.2	3.8	1.49e+00	0	23	104	0	73	24301
2026-01-12 02:39:05.14	261.53	16.69	-54.0	-70.2	3.8	1.49e+00	0	23	104	0	73	24302
2026-01-12 02:39:06.15	261.42	16.59	-54.0	-70.2	3.8	1.49e+00	0	23	104	0	73	24298
2026-01-12 02:39:07.16	261.31	16.49	-54.0	-70.2	3.8	1.49e+00	0	23	104	0	73	24354
2026-01-12 02:39:08.17	261.20	16.38	-54.0	-70.2	3.8	1.49e+00	0	23	104	0	73	24289
2026-01-12 02:39:09.18	261.09	16.29	-54.0	-70.2	3.8	1.49e+00	0	23	104	0	73	24249
2026-01-12 02:39:10.19	260.98	16.19	-54.0	-70.2	3.8	1.49e+00	0	23	104	0	73	24259
2026-01-12 02:39:11.20	260.88	16.09	-54.0	-70.2	3.8	1.49e+00	0	23	104	0	73	24259
2026-01-12 02:39:12.21	260.77	15.99	-54.0	-70.2	3.8	1.49e+00	0	23	104	0	73	24307
2026-01-12 02:39:13.22	260.67	15.89	-54.1	-70.2	3.8	1.49e+00	0	23	104	0	73	24168
2026-01-12 02:39:14.23	260.56	15.79	-54.1	-70.2	3.8	1.49e+00	0	23	104	0	73	24260
2026-01-12 02:39:15.23	260.46	15.69	-54.1	-70.2	3.8	1.49e+00	0	23	104	0	73	24238
2026-01-12 02:39:16.24	260.36	15.60	-54.0	-70.2	3.8	1.49e+00	0	23	104	0	73	24267
2026-01-12 02:39:17.25	260.26	15.50	-54.0	-70.2	3.8	1.49e+00	0	23	104	0	73	24228
2026-01-12 02:39:18.26	260.16	15.40	-54.0	-70.2	3.8	1.49e+00	0	23	104	0	73	24315
2026-01-12 02:39:19.27	260.05	15.30	-54.0	-70.2	3.8	1.49e+00	0	23	104	0	73	24273
2026-01-12 02:39:20.27	259.96	15.21	-54.0	-70.2	3.8	1.49e+00	0	23	104	0	73	24253
2026-01-12 02:39:21.28	259.86	15.11	-54.0	-70.2	3.8	1.49e+00	0	23	104	0	73	24316
2026-01-12 02:39:22.29	259.76	15.02	-54.0	-70.2	3.8	1.49e+00	0	23	104	0	73	24334
2026-01-12 02:39:23.30	259.66	14.92	-54.0	-70.2	3.8	1.49e+00	0	23	104	0	73	24298
2026-01-12 02:39:24.31	259.56	14.83	-54.0	-70.2	3.8	1.49e+00	0	23	104	0	73	24315
2026-01-12 02:39:25.31	259.47	14.73	-54.0	-70.2	3.8	1.49e+00	0	23	104	0	73	24318
2026-01-12 02:39:26.31	259.37	14.64	-54.0	-70.2	3.8	1.49e+00	0	23	104	0	73	24283
2026-01-12 02:39:27.32	259.28	14.54	-54.0	-70.2	3.8	1.49e+00	0	23	104	0	73	24244
2026-01-12 02:39:28.34	259.18	14.45	-54.0	-70.2	3.8	1.49e+00	0	23	104	0	73	24278
2026-01-12 02:39:29.34	259.09	14.35	-54.0	-70.2	3.8	1.49e+00	0	23	104	0	73	24247
2026-01-12 02:39:30.35	258.99	14.26	-54.0	-70.2	3.8	1.49e+00	0	23	104	0	73	24206
2026-01-12 02:39:31.36	258.90	14.17	-54.0	-70.2	3.8	1.49e+00	0	23	104	0	73	24226
2026-01-12 02:39:32.37	258.81	14.07	-54.0	-70.2	3.8	1.49e+00	0	23	104	0	73	24241
2026-01-12 02:39:33.38	258.72	13.98	-54.0	-70.2	3.8	1.49e+00	0	23	104	0	73	24216
2026-01-12 02:39:34.38	258.62	13.89	-54.0	-70.2	3.8	1.49e+00	0	23	104	0	73	24311
2026-01-12 02:39:35.39	258.53	13.80	-54.0	-70.2	3.8	1.49e+00	0	23	104	0	73	24235
2026-01-12 02:39:36.40	258.44	13.71	-54.0	-70.2	3.8	1.49e+00	0	23	104	0	73	24274
2026-01-12 02:39:37.41	258.35	13.61	-54.0	-70.2	3.8	1.49e+00	0	23	104	0	73	24268
2026-01-12 02:39:38.42	258.27	13.52	-54.0	-70.2	3.8	1.49e+00	0	23	104	0	73	24271
2026-01-12 02:39:39.43	258.18	13.43	-54.0	-70.2	3.8	1.49e+00	0	23	104	0	73	24361
2026-01-12 02:39:40.44	258.09	13.34	-54.0	-70.2	3.8	1.49e+00	0	23	104	0	73	24318
2026-01-12 02:39:41.45	258.00	13.25	-54.0	-70.2	3.8	1.49e+00	0	23	104	0	73	24271
2026-01-12 02:39:42.46	257.92	13.16	-54.0	-70.2	3.8	1.49e+00	0	23	104	0	73	24291
2026-01-12 02:39:43.47	257.83	13.07	-54.0	-70.2	3.8	1.49e+00	0	23	104	0	73	24253
2026-01-12 02:39:44.48	257.74	12.98	-54.0	-70.2	3.8	1.49e+00	0	23	104	0	73	24286
2026-01-12 02:39:45.48	257.66	12.89	-54.0	-70.2	3.8	1.49e+00	0	23	104	0	73	24190
2026-01-12 02:39:46.49	257.57	12.80	-54.1	-70.2	3.8	1.49e+00	0	23	104	0	73	24250
2026-01-12 02:39:47.50	257.49	12.71	-54.0	-70.2	3.8	1.49e+00	0	23	104	0	73	24220
2026-01-12 02:39:48.51	257.41	12.62	-54.0	-70.2	3.8	1.49e+00	0	23	104	0	73	24308
2026-01-12 02:39:49.52	257.32	12.53	-54.0	-70.2	3.8	1.49e+00	0	23	104	0	73	24252
2026-01-12 02:39:50.52	257.24	12.45	-54.0	-70.2	3.8	1.49e+00	0	23	104	0	73	24280
2026-01-12 02:39:51.52	257.16	12.36	-54.0	-70.2	3.8	1.49e+00	0	23	104	0	73	24329
2026-01-12 02:39:52.53	257.08	12.27	-54.0	-70.2	3.8	1.49e+00	0	23	104	0	73	24346
2026-01-12 02:39:53.54	257.00	12.18	-54.0	-70.2	3.8	1.49e+00	0	23	104	0	73	24304
2026-01-12 02:39:54.54	256.92	12.10	-54.0	-70.2	3.8	1.49e+00	0	23	104	0	73	24265
2026-01-12 02:39:55.56	256.84	12.01	-54.0	-70.2	3.8	1.49e+00	0	23	104	0	73	24327
2026-01-12 02:39:56.57	256.76	11.92	-54.0	-70.2	3.8	1.49e+00	0	23	104	0	73	24243
2026-01-12 02:39:57.57	256.68	11.84	-54.0	-70.2	3.8	1.49e+00	0	23	104	0	73	24194
2026-01-12 02:39:58.58	256.60	11.75	-54.0	-70.2	3.8	1.49e+00	0	23	104	0	73	24272
2026-01-12 02:39:59.59	256.52	11.67	-54.0	-70.2	3.8	1.49e+00	0	23	104	0	73	24348
2026-01-12 02:40:00.59	256.45	11.58	-54.0	-70.2	3.8	1.49e+00	0	23	104	0	73	24252
2026-01-12 02:40:01.60	256.37	11.50	-54.0	-70.2	3.8	1.49e+00	0	23	104	0	73	24256
2026-01-12 02:40:02.61	256.29	11.41	-54.0	-70.2	3.8	1.49e+00	0	23	104	0	73	24287
2026-01-12 02:40:03.62	256.22	11.32	-54.0	-70.2	3.8	1.49e+00	0	23	104	0	73	24315
2026-01-12 02:40:04.62	256.14	11.24	-54.0	-70.2	3.8	1.49e+00	0	23	104	0	73	24320
2026-01-12 02:40:05.63	256.07	11.16	-54.0	-70.2	3.8	1.49e+00	0	23	104	0	73	24378
2026-01-12 02:40:06.64	255.99	11.07	-54.0	-70.2	3.8	1.49e+00	0	23	104	0	73	24293
2026-01-12 02:40:07.65	255.92	10.99	-54.0	-70.2	3.8	1.49e+00	0	23	104	0	73	24269
2026-01-12 02:40:08.66	255.84	10.90	-54.1	-70.2	3.8	1.49e+00	0	23	104	0	73	24296
2026-01-12 02:40:09.83	255.76	10.81	-54.1	-70.2	3.8	1.49e+00	0	23	104	0	73	24214
2026-01-12 02:40:10.69	255.70	10.74	-54.1	-70.2	3.8	1.49e+00	0	23	104	0	73	24265
2026-01-12 02:40:11.84	255.61	10.64	-54.1	-70.2	3.8	1.49e+00	0	23	104	0	73	24258
2026-01-12 02:40:12.70	255.55	10.57	-54.1	-70.2	3.8	1.49e+00	0	23	104	0	73	24262
2026-01-12 02:40:13.86	255.47	10.48	-54.0	-70.2	3.8	1.49e+00	0	23	104	0	73	24303
2026-01-12 02:40:14.73	255.41	10.41	-54.0	-70.2	3.8	1.49e+00	0	23	104	0	73	24326
2026-01-12 02:40:15.88	255.33	10.31	-54.1	-70.2	3.8	1.49e+00	0	23	104	0	73	24312
2026-01-12 02:40:16.75	255.27	10.24	-54.0	-70.2	3.8	1.49e+00	0	23	104	0	73	24280
2026-01-12 02:40:17.90	255.19	10.15	-54.0	-70.2	3.8	1.49e+00	0	23	104	0	73	24283
2026-01-12 02:40:18.77	255.13	10.08	-54.0	-70.2	3.8	1.49e+00	0	23	104	0	73	24287
2026-01-12 02:40:19.92	255.05	9.99	-54.1	-70.2	3.8	1.49e+00	0	23	104	0	73	24327
2026-01-12 02:40:20.78	254.99	9.92	-54.1	-70.2	3.8	1.49e+00	0	23	104	0	73	24322
2026-01-12 02:40:21.93	254.91	9.82	-54.1	-70.2	3.8	1.49e+00	0	23	104	0	73	24273
2026-01-12 02:40:22.80	254.85	9.75	-54.1	-70.2	3.8	1.49e+00	0	23	104	0	73	24295
2026-01-12 02:40:23.95	254.77	9.66	-54.1	-70.2	3.8	1.49e+00	0	23	104	0	73	24225
2026-01-12 02:40:24.82	254.72	9.59	-54.0	-70.2	3.8	1.49e+00	0	23	104	0	73	24267
2026-01-12 02:40:25.97	254.64	9.50	-54.1	-70.2	3.8	1.49e+00	0	23	104	0	73	24260
2026-01-12 02:40:26.84	254.58	9.43	-54.1	-70.2	3.8	1.49e+00	0	23	104	0	73	24315
2026-01-12 02:40:27.99	254.51	9.34	-54.1	-70.2	3.8	1.49e+00	0	23	104	0	73	24218
2026-01-12 02:40:28.85	254.45	9.28	-54.0	-70.2	3.8	1.49e+00	0	23	104	0	73	24301
2026-01-12 02:40:30.01	254.38	9.19	-54.0	-70.2	3.8	1.49e+00	0	23	104	0	73	24246
2026-01-12 02:40:30.87	254.32	9.12	-54.0	-70.2	3.8	1.49e+00	0	23	104	0	73	24286
2026-01-12 02:40:32.02	254.25	9.03	-54.0	-70.2	3.8	1.49e+00	0	23	104	0	73	24307
2026-01-12 02:40:32.89	254.19	8.96	-54.0	-70.2	3.8	1.49e+00	0	23	104	0	73	24331
2026-01-12 02:40:34.04	254.12	8.87	-54.1	-70.2	3.8	1.49e+00	0	23	104	0	73	24258
2026-01-12 02:40:34.91	254.06	8.80	-54.1	-70.2	3.8	1.49e+00	0	23	104	0	73	24252
2026-01-12 02:40:36.06	253.99	8.72	-54.1	-70.2	3.8	1.49e+00	0	23	104	0	73	24340
2026-01-12 02:40:36.93	253.94	8.65	-54.0	-70.2	3.8	1.49e+00	0	23	104	0	73	24317
2026-01-12 02:40:38.08	253.87	8.56	-54.1	-70.2	3.8	1.49e+00	0	23	104	0	73	24291
2026-01-12 02:40:38.95	253.81	8.49	-54.0	-70.2	3.8	1.49e+00	0	23	104	0	73	24327
2026-01-12 02:40:40.10	253.74	8.41	-54.1	-70.2	3.8	1.49e+00	0	23	104	0	73	24307
2026-01-12 02:40:40.96	253.69	8.34	-54.0	-70.2	3.8	1.49e+00	0	23	104	0	73	24275
2026-01-12 02:40:42.12	253.62	8.25	-54.0	-70.2	3.8	1.49e+00	0	23	104	0	73	24243
2026-01-12 02:40:42.98	253.57	8.19	-54.0	-70.2	3.8	1.49e+00	0	23	104	0	73	24175
2026-01-12 02:40:44.14	253.50	8.10	-54.0	-70.2	3.8	1.49e+00	0	23	104	0	73	24326
2026-01-12 02:40:45.00	253.45	8.04	-54.1	-70.2	3.8	1.49e+00	0	23	104	0	73	24165
2026-01-12 02:40:46.15	253.38	7.95	-54.0	-70.2	3.8	1.49e+00	0	23	104	0	73	24199
2026-01-12 02:40:47.02	253.33	7.88	-54.0	-70.2	3.8	1.49e+00	0	23	104	0	73	24280
2026-01-12 02:40:48.17	253.26	7.80	-54.0	-70.2	3.8	1.49e+00	0	23	104	0	73	24266
2026-01-12 02:40:49.03	253.21	7.73	-54.0	-70.2	3.8	1.49e+00	0	23	104	0	73	24287
2026-01-12 02:40:50.18	253.14	7.65	-54.0	-70.2	3.8	1.49e+00	0	23	104	0	73	24275
2026-01-12 02:40:51.04	253.09	7.59	-54.1	-70.2	3.8	1.49e+00	0	23	104	0	73	24251
2026-01-12 02:40:52.19	253.03	7.50	-54.0	-70.2	3.8	1.49e+00	0	23	104	0	73	24230
2026-01-12 02:40:53.06	252.98	7.44	-54.0	-70.2	3.8	1.49e+00	0	23	104	0	73	24332
2026-01-12 02:40:54.21	252.91	7.35	-54.0	-70.2	3.8	1.49e+00	0	23	104	0	73	24287
2026-01-12 02:40:55.08	252.86	7.29	-54.0	-70.2	3.8	1.49e+00	0	23	104	0	73	24264
2026-01-12 02:40:56.23	252.80	7.20	-54.0	-70.2	3.8	1.49e+00	0	23	104	0	73	24252
