passes_logs/2026/01/12/R3.2S_Murmansk/R3.2S_Murmansk__20260112_034057_AQUA_rec.log

#Pass ID: 20260112_034057_AQUA
#Satellite: AQUA
#Configuration: AQUA
#almurnet v.1.7.20251203
#Start time: 2026-01-12 03:40:58

#Version: 2.2.20231116
#Station: R3.2S_Murmansk
#Location: 33.079688 lon 68.888172 lat
#TLE: 1 27424U 02022A   26011.60158398  .00001056  00000+0  22133-3 0  9990
#TLE: 2 27424  98.4078 337.9720 0002034  82.3051 337.8743 14.61815760260390

#Time	Az	El	Level	Level2	SNR	BER	BlckErr	Temp	State	Recorded	gain1	gain2
2026-01-12 03:40:58.40	28.55	2.03	-53.4	-72.8	3.8	7.47e-01	0	20	0	0	74	35701
2026-01-12 03:40:59.40	28.51	2.10	-53.4	-72.6	3.8	7.44e-01	0	20	104	0	74	35041
2026-01-12 03:41:00.41	28.47	2.16	-53.3	-72.6	3.8	7.47e-01	0	20	104	0	74	35093
2026-01-12 03:41:01.42	28.43	2.23	-53.4	-72.8	3.8	7.47e-01	0	21	104	0	74	35805
2026-01-12 03:41:02.44	28.40	2.30	-53.4	-72.6	3.8	7.46e-01	0	20	104	0	74	34930
2026-01-12 03:41:03.45	28.36	2.36	-53.4	-72.8	3.8	7.49e-01	0	20	104	0	74	35752
2026-01-12 03:41:04.46	28.32	2.43	-53.5	-72.7	3.8	7.47e-01	0	20	104	0	74	35543
2026-01-12 03:41:05.47	28.28	2.49	-53.5	-72.8	3.8	7.47e-01	0	20	104	0	74	35798
2026-01-12 03:41:06.48	28.24	2.56	-53.5	-72.7	3.8	7.46e-01	0	20	104	0	74	35416
2026-01-12 03:41:07.49	28.20	2.63	-53.5	-72.8	3.8	7.45e-01	0	21	104	0	74	35734
2026-01-12 03:41:08.50	28.16	2.69	-53.5	-72.8	3.8	7.45e-01	0	21	104	0	74	35968
2026-01-12 03:41:09.51	28.12	2.76	-53.5	-72.8	3.8	7.48e-01	0	21	104	0	74	35938
2026-01-12 03:41:10.51	28.09	2.82	-53.5	-72.7	3.8	7.50e-01	0	21	104	0	74	35686
2026-01-12 03:41:11.52	28.05	2.89	-53.5	-72.7	3.8	7.43e-01	0	21	104	0	74	35640
2026-01-12 03:41:12.53	28.01	2.96	-53.5	-72.8	3.8	7.47e-01	0	21	104	0	74	35937
2026-01-12 03:41:13.54	27.97	3.03	-53.5	-72.8	3.8	7.43e-01	0	21	104	0	74	35705
2026-01-12 03:41:14.55	27.93	3.09	-53.5	-72.8	3.8	7.46e-01	0	21	104	0	74	35882
2026-01-12 03:41:15.56	27.88	3.16	-53.5	-72.8	3.8	7.45e-01	0	21	104	0	74	35897
2026-01-12 03:41:16.57	27.84	3.23	-53.5	-72.8	3.8	7.48e-01	0	21	104	0	74	35988
2026-01-12 03:41:17.58	27.80	3.30	-53.5	-72.8	3.8	7.48e-01	0	21	104	0	74	36007
2026-01-12 03:41:18.59	27.76	3.36	-53.5	-72.8	3.8	7.49e-01	0	21	104	0	74	35836
2026-01-12 03:41:19.60	27.72	3.43	-53.5	-72.8	3.8	7.47e-01	0	21	104	0	74	35913
2026-01-12 03:41:20.61	27.68	3.50	-53.5	-72.8	3.8	7.46e-01	0	21	104	0	74	35995
2026-01-12 03:41:21.62	27.64	3.57	-53.5	-72.8	3.8	7.45e-01	0	21	104	0	74	35961
2026-01-12 03:41:22.63	27.59	3.64	-53.5	-72.9	3.8	7.44e-01	0	21	104	0	74	36107
2026-01-12 03:41:23.63	27.55	3.71	-53.5	-72.8	3.8	7.47e-01	0	21	104	0	74	35804
2026-01-12 03:41:24.64	27.51	3.78	-53.5	-72.7	3.8	7.44e-01	0	21	104	0	74	35591
2026-01-12 03:41:25.65	27.47	3.84	-53.5	-72.8	3.8	7.47e-01	0	21	104	0	74	35827
2026-01-12 03:41:26.66	27.42	3.91	-53.5	-72.8	3.8	7.47e-01	0	21	104	0	74	35713
2026-01-12 03:41:27.67	27.38	3.98	-53.5	-72.8	3.8	7.48e-01	0	21	104	0	74	35923
2026-01-12 03:41:28.67	27.34	4.05	-53.5	-72.8	3.8	7.43e-01	0	21	104	0	74	36019
2026-01-12 03:41:29.68	27.29	4.12	-53.5	-72.8	3.8	7.48e-01	0	21	104	0	74	36100
2026-01-12 03:41:30.69	27.25	4.19	-53.5	-72.8	3.8	7.46e-01	0	21	104	0	74	36069
2026-01-12 03:41:31.70	27.20	4.26	-53.5	-72.8	3.8	7.46e-01	0	21	104	0	74	36017
2026-01-12 03:41:32.71	27.16	4.33	-53.5	-72.9	3.8	7.44e-01	0	21	104	0	74	36130
2026-01-12 03:41:33.72	27.11	4.40	-53.5	-72.8	3.8	7.45e-01	0	21	104	0	74	36069
2026-01-12 03:41:34.73	27.07	4.48	-53.5	-72.8	3.8	7.49e-01	0	21	104	0	74	36036
2026-01-12 03:41:35.74	27.02	4.55	-53.5	-72.9	3.8	7.48e-01	0	21	104	0	74	36229
2026-01-12 03:41:36.75	26.98	4.62	-53.5	-72.8	3.8	7.43e-01	0	21	104	0	74	36084
2026-01-12 03:41:37.75	26.93	4.69	-53.5	-72.8	3.8	7.45e-01	0	22	104	0	74	36037
2026-01-12 03:41:38.77	26.89	4.76	-53.5	-72.8	3.8	7.47e-01	0	21	104	0	74	35920
2026-01-12 03:41:39.78	26.84	4.83	-53.5	-72.8	3.8	7.47e-01	0	21	104	0	74	36002
2026-01-12 03:41:40.78	26.79	4.90	-53.5	-72.8	3.8	7.46e-01	0	21	104	0	74	36072
2026-01-12 03:41:41.79	26.75	4.98	-53.5	-72.9	3.8	7.48e-01	0	21	104	0	74	36157
2026-01-12 03:41:42.80	26.70	5.05	-53.5	-72.8	3.8	7.49e-01	0	21	104	0	74	36091
2026-01-12 03:41:43.80	26.65	5.12	-53.5	-72.8	3.8	7.47e-01	0	21	104	0	74	36081
2026-01-12 03:41:44.82	26.60	5.20	-53.5	-72.9	3.8	7.47e-01	0	21	104	0	74	36123
2026-01-12 03:41:45.83	26.55	5.27	-53.6	-72.9	3.8	7.42e-01	0	21	104	0	74	36149
2026-01-12 03:41:46.83	26.51	5.34	-53.6	-72.9	3.8	7.45e-01	0	21	104	0	74	36172
2026-01-12 03:41:47.84	26.46	5.41	-53.6	-72.9	3.8	7.45e-01	0	22	104	0	74	36300
2026-01-12 03:41:48.85	26.41	5.49	-53.6	-72.9	3.8	7.45e-01	0	21	104	0	74	36337
2026-01-12 03:41:49.86	26.36	5.56	-53.6	-72.9	3.8	7.47e-01	0	21	104	0	74	36298
2026-01-12 03:41:50.86	26.31	5.64	-53.5	-72.9	3.8	7.45e-01	0	21	104	0	74	36208
2026-01-12 03:41:51.87	26.26	5.71	-53.6	-72.9	3.8	7.42e-01	0	21	104	0	74	36173
2026-01-12 03:41:52.88	26.21	5.78	-53.6	-72.9	3.8	7.44e-01	0	21	104	0	74	36231
2026-01-12 03:41:53.89	26.16	5.86	-53.6	-72.9	3.8	7.46e-01	0	22	104	0	74	36199
2026-01-12 03:41:54.90	26.11	5.93	-53.6	-72.9	3.8	7.41e-01	0	21	104	0	74	36247
2026-01-12 03:41:55.90	26.06	6.01	-53.6	-72.9	3.8	7.44e-01	0	21	104	0	74	36290
2026-01-12 03:41:56.91	26.01	6.08	-53.6	-72.9	3.8	7.42e-01	0	22	104	0	74	36285
2026-01-12 03:41:57.92	25.95	6.16	-53.6	-72.9	3.8	7.48e-01	0	22	104	0	74	36320
2026-01-12 03:41:58.93	25.90	6.24	-53.6	-72.9	3.8	7.44e-01	0	21	104	0	74	36191
2026-01-12 03:41:59.94	25.85	6.31	-53.6	-72.9	3.8	7.48e-01	0	22	104	0	74	36301
2026-01-12 03:42:00.95	25.80	6.39	-53.6	-72.9	3.8	7.46e-01	0	22	104	0	74	36193
2026-01-12 03:42:01.96	25.74	6.47	-53.5	-72.9	3.8	7.46e-01	0	22	104	0	74	36219
2026-01-12 03:42:02.96	25.69	6.54	-53.5	-72.9	3.8	7.45e-01	0	22	104	0	74	36264
2026-01-12 03:42:03.97	25.64	6.62	-53.6	-72.9	3.8	7.48e-01	0	22	104	0	74	36210
2026-01-12 03:42:04.97	25.58	6.69	-53.6	-72.9	3.8	7.44e-01	0	22	104	0	74	36288
2026-01-12 03:42:05.98	25.53	6.77	-53.6	-72.9	3.8	7.44e-01	0	22	104	0	74	36289
2026-01-12 03:42:06.99	25.47	6.85	-53.6	-72.9	3.8	7.45e-01	0	22	104	0	74	36210
2026-01-12 03:42:08.00	25.42	6.93	-53.6	-72.9	3.8	7.46e-01	0	22	104	0	74	36264
2026-01-12 03:42:09.01	25.36	7.01	-53.6	-72.9	3.8	7.45e-01	0	22	104	0	74	36301
2026-01-12 03:42:10.01	25.31	7.08	-53.6	-72.9	3.8	7.48e-01	0	22	104	0	74	36357
2026-01-12 03:42:11.02	25.25	7.16	-53.6	-72.9	3.8	7.46e-01	0	22	104	0	74	36286
2026-01-12 03:42:12.03	25.20	7.24	-53.6	-72.9	3.8	7.47e-01	0	22	104	0	74	36335
2026-01-12 03:42:13.04	25.14	7.32	-53.6	-72.9	3.8	7.47e-01	0	22	104	0	74	36198
2026-01-12 03:42:14.04	25.08	7.40	-53.6	-72.9	3.8	7.44e-01	0	22	104	0	74	36244
2026-01-12 03:42:15.05	25.02	7.48	-53.6	-72.9	3.8	7.46e-01	0	22	104	0	74	36197
2026-01-12 03:42:16.06	24.97	7.56	-53.6	-72.9	3.8	7.47e-01	0	22	104	0	74	36244
2026-01-12 03:42:17.07	24.91	7.64	-53.6	-72.9	3.8	7.46e-01	0	22	104	0	74	36193
2026-01-12 03:42:18.08	24.85	7.72	-53.6	-72.9	3.8	7.48e-01	0	22	104	0	74	36335
2026-01-12 03:42:19.09	24.79	7.80	-53.6	-72.9	3.8	7.44e-01	0	22	104	0	74	36257
2026-01-12 03:42:20.10	24.73	7.88	-53.6	-72.9	3.8	7.45e-01	0	22	104	0	74	36242
2026-01-12 03:42:21.11	24.67	7.96	-53.6	-72.9	3.8	7.46e-01	0	22	104	0	74	36309
2026-01-12 03:42:22.11	24.61	8.04	-53.6	-72.9	3.8	7.44e-01	0	22	104	0	74	36352
2026-01-12 03:42:23.12	24.55	8.13	-53.6	-72.9	3.8	7.43e-01	0	22	104	0	74	36254
2026-01-12 03:42:24.13	24.49	8.21	-53.6	-72.9	3.8	7.45e-01	0	22	104	0	74	36339
2026-01-12 03:42:25.14	24.43	8.29	-53.6	-72.9	3.8	7.46e-01	0	22	104	0	74	36295
2026-01-12 03:42:26.15	24.37	8.37	-53.6	-72.9	3.8	7.45e-01	0	22	104	0	74	36373
2026-01-12 03:42:27.16	24.30	8.45	-53.6	-72.9	3.8	7.45e-01	0	22	104	0	74	36419
2026-01-12 03:42:28.17	24.24	8.54	-53.6	-72.9	3.8	7.48e-01	0	22	104	0	74	36381
2026-01-12 03:42:29.18	24.18	8.62	-53.6	-72.9	3.8	7.47e-01	0	22	104	0	74	36237
2026-01-12 03:42:30.19	24.11	8.71	-53.6	-72.9	3.8	7.44e-01	0	22	104	0	74	36319
2026-01-12 03:42:31.19	24.05	8.79	-53.6	-72.9	3.8	7.46e-01	0	22	104	0	74	36349
2026-01-12 03:42:32.20	23.99	8.87	-53.6	-72.9	3.8	7.47e-01	0	22	104	0	74	36370
2026-01-12 03:42:33.21	23.92	8.96	-53.6	-72.9	3.8	7.44e-01	0	22	104	0	74	36437
2026-01-12 03:42:34.22	23.86	9.04	-53.6	-72.9	3.8	7.46e-01	0	22	104	0	74	36359
2026-01-12 03:42:35.23	23.79	9.13	-53.6	-72.9	3.8	7.47e-01	0	22	104	0	74	36428
2026-01-12 03:42:36.24	23.73	9.21	-53.6	-72.9	3.8	7.47e-01	0	22	104	0	74	36389
2026-01-12 03:42:37.24	23.66	9.30	-53.6	-72.9	3.8	7.45e-01	0	22	104	0	74	36463
2026-01-12 03:42:38.25	23.59	9.38	-53.6	-72.9	3.8	7.44e-01	0	22	104	0	74	36430
2026-01-12 03:42:39.26	23.53	9.47	-53.6	-72.9	3.8	7.42e-01	0	22	104	0	74	36323
2026-01-12 03:42:40.27	23.46	9.56	-53.6	-72.9	3.8	7.44e-01	0	22	104	0	74	36407
2026-01-12 03:42:41.28	23.39	9.64	-53.6	-72.9	3.8	7.47e-01	0	22	104	0	74	36354
2026-01-12 03:42:42.28	23.32	9.73	-53.6	-72.9	3.8	7.46e-01	0	22	104	0	74	36359
2026-01-12 03:42:43.29	23.25	9.82	-53.6	-72.9	3.8	7.45e-01	0	22	104	0	74	36396
2026-01-12 03:42:44.30	23.18	9.90	-53.6	-72.9	3.8	7.45e-01	0	22	104	0	74	36352
2026-01-12 03:42:45.31	23.11	9.99	-53.6	-72.9	3.8	7.49e-01	0	22	104	0	74	36430
2026-01-12 03:42:46.32	23.04	10.08	-53.6	-72.9	3.8	7.46e-01	0	22	104	0	74	36373
2026-01-12 03:42:47.33	22.97	10.17	-53.6	-72.9	3.8	7.45e-01	0	22	104	0	74	36407
2026-01-12 03:42:48.34	22.90	10.26	-53.6	-72.9	3.8	7.51e-01	0	22	104	0	74	36444
2026-01-12 03:42:49.35	22.83	10.35	-53.6	-72.9	3.8	7.47e-01	0	22	104	0	74	36406
2026-01-12 03:42:50.36	22.75	10.44	-53.6	-72.9	3.8	7.47e-01	0	22	104	0	74	36401
2026-01-12 03:42:51.37	22.68	10.53	-53.6	-72.9	3.8	7.46e-01	0	22	104	0	74	36392
2026-01-12 03:42:52.38	22.61	10.62	-53.6	-72.9	3.8	7.47e-01	0	22	104	0	74	36397
2026-01-12 03:42:53.39	22.53	10.71	-53.6	-72.9	3.8	7.43e-01	0	22	104	0	74	36370
2026-01-12 03:42:54.39	22.46	10.80	-53.6	-72.9	3.8	7.51e-01	0	22	104	0	74	36405
2026-01-12 03:42:55.40	22.38	10.89	-53.6	-72.9	3.8	7.43e-01	0	22	104	0	74	36419
2026-01-12 03:42:56.41	22.31	10.98	-53.6	-72.9	3.8	7.46e-01	0	22	104	0	74	36392
2026-01-12 03:42:57.42	22.23	11.07	-53.6	-72.9	3.8	7.49e-01	0	22	104	0	74	36399
2026-01-12 03:42:58.43	22.15	11.16	-53.6	-72.9	3.8	7.45e-01	0	22	104	0	74	36410
2026-01-12 03:42:59.44	22.08	11.26	-53.6	-72.9	3.8	7.47e-01	0	22	104	0	74	36448
2026-01-12 03:43:00.45	22.00	11.35	-53.6	-73.0	3.8	7.44e-01	0	22	104	0	74	36534
2026-01-12 03:43:01.46	21.92	11.44	-53.6	-72.9	3.8	7.45e-01	0	22	104	0	74	36497
2026-01-12 03:43:02.47	21.84	11.54	-53.6	-72.9	3.8	7.46e-01	0	22	104	0	74	36327
2026-01-12 03:43:03.48	21.76	11.63	-53.6	-72.9	3.8	7.47e-01	0	22	104	0	74	36432
2026-01-12 03:43:04.49	21.68	11.72	-53.6	-72.9	3.8	7.44e-01	0	22	104	0	74	36448
2026-01-12 03:43:05.49	21.60	11.82	-53.6	-72.9	3.8	7.44e-01	0	22	104	0	74	36459
2026-01-12 03:43:06.50	21.52	11.91	-53.6	-73.0	3.8	7.47e-01	0	22	104	0	74	36536
2026-01-12 03:43:07.51	21.44	12.01	-53.6	-72.9	3.8	7.45e-01	0	22	104	0	74	36487
2026-01-12 03:43:08.52	21.35	12.10	-53.6	-72.9	3.8	7.44e-01	0	22	104	0	74	36504
2026-01-12 03:43:09.53	21.27	12.20	-53.6	-72.9	3.8	7.47e-01	0	22	104	0	74	36454
2026-01-12 03:43:10.54	21.19	12.30	-53.6	-72.9	3.8	7.48e-01	0	22	104	0	74	36523
2026-01-12 03:43:11.55	21.10	12.39	-53.6	-72.9	3.8	7.49e-01	0	22	104	0	74	36521
2026-01-12 03:43:12.56	21.02	12.49	-53.6	-72.9	3.8	7.43e-01	0	22	104	0	74	36495
2026-01-12 03:43:13.57	20.93	12.59	-53.6	-72.9	3.8	7.43e-01	0	22	104	0	74	36508
2026-01-12 03:43:14.58	20.85	12.68	-53.6	-72.9	3.8	7.47e-01	0	22	104	0	74	36515
2026-01-12 03:43:15.59	20.76	12.78	-53.6	-72.9	3.8	7.47e-01	0	22	104	0	74	36414
2026-01-12 03:43:16.60	20.67	12.88	-53.6	-73.0	3.8	7.46e-01	0	22	104	0	74	36550
2026-01-12 03:43:17.61	20.58	12.98	-53.7	-73.1	3.8	7.42e-01	0	22	104	0	75	34934
2026-01-12 03:43:18.62	20.49	13.08	-53.7	-73.0	3.8	7.46e-01	0	22	104	0	75	34557
2026-01-12 03:43:19.63	20.40	13.18	-53.7	-73.0	3.8	7.47e-01	0	22	104	0	75	34539
2026-01-12 03:43:20.64	20.31	13.28	-53.6	-73.0	3.8	7.48e-01	0	22	104	0	75	34534
2026-01-12 03:43:21.65	20.22	13.38	-53.6	-73.0	3.8	7.44e-01	0	22	104	0	75	34539
2026-01-12 03:43:22.66	20.13	13.48	-53.7	-73.0	3.8	7.45e-01	0	22	104	0	75	34560
2026-01-12 03:43:23.67	20.04	13.58	-53.6	-73.0	3.8	7.47e-01	0	22	104	0	75	34602
2026-01-12 03:43:24.68	19.95	13.68	-53.6	-73.0	3.8	7.46e-01	0	22	104	0	75	34529
2026-01-12 03:43:25.68	19.85	13.78	-53.6	-73.0	3.8	7.45e-01	0	22	104	0	75	34597
2026-01-12 03:43:26.69	19.76	13.89	-53.6	-72.9	3.8	7.42e-01	0	22	104	0	75	34480
2026-01-12 03:43:27.70	19.66	13.99	-53.6	-73.0	3.8	7.44e-01	0	22	104	0	75	34508
2026-01-12 03:43:28.71	19.57	14.09	-53.6	-73.0	3.8	7.46e-01	0	22	104	0	75	34564
2026-01-12 03:43:29.72	19.47	14.20	-53.6	-73.0	3.8	7.43e-01	0	22	104	0	75	34533
2026-01-12 03:43:30.73	19.37	14.30	-53.6	-73.0	3.8	7.45e-01	0	22	104	0	75	34537
2026-01-12 03:43:31.74	19.27	14.41	-53.6	-73.0	3.8	7.48e-01	0	23	104	0	75	34526
2026-01-12 03:43:32.75	19.18	14.51	-53.6	-73.0	3.8	7.45e-01	0	22	104	0	75	34635
2026-01-12 03:43:33.76	19.08	14.62	-53.6	-73.0	3.8	7.45e-01	0	22	104	0	75	34503
2026-01-12 03:43:34.77	18.97	14.72	-53.6	-73.0	3.8	7.47e-01	0	22	104	0	75	34605
2026-01-12 03:43:35.78	18.87	14.83	-53.6	-73.0	3.8	7.45e-01	0	22	104	0	75	34550
2026-01-12 03:43:36.78	18.77	14.93	-53.7	-73.0	3.8	7.42e-01	0	22	104	0	75	34580
2026-01-12 03:43:37.79	18.67	15.04	-53.6	-73.0	3.8	7.43e-01	0	22	104	0	75	34716
2026-01-12 03:43:38.79	18.57	15.15	-53.7	-73.0	3.8	7.45e-01	0	22	104	0	75	34610
2026-01-12 03:43:39.80	18.46	15.25	-53.7	-73.0	3.8	7.47e-01	0	22	104	0	75	34631
2026-01-12 03:43:40.81	18.36	15.36	-53.7	-73.0	3.8	7.47e-01	0	22	104	0	75	34669
2026-01-12 03:43:41.82	18.25	15.47	-53.7	-73.0	3.8	7.50e-01	0	22	104	0	75	34634
2026-01-12 03:43:42.83	18.14	15.58	-53.7	-73.0	3.8	7.46e-01	0	22	104	0	75	34628
2026-01-12 03:43:43.83	18.04	15.69	-53.7	-73.0	3.8	7.46e-01	0	22	104	0	75	34691
2026-01-12 03:43:44.84	17.93	15.80	-53.7	-73.0	3.8	7.47e-01	0	22	104	0	75	34705
2026-01-12 03:43:45.85	17.82	15.91	-53.7	-73.0	3.8	7.50e-01	0	22	104	0	75	34625
2026-01-12 03:43:46.86	17.71	16.02	-53.7	-73.0	3.8	7.45e-01	0	22	104	0	75	34606
2026-01-12 03:43:47.87	17.59	16.13	-53.6	-73.0	3.8	7.45e-01	0	22	104	0	75	34656
2026-01-12 03:43:48.88	17.48	16.24	-53.7	-73.0	3.8	7.45e-01	0	22	104	0	75	34601
2026-01-12 03:43:49.90	17.37	16.36	-53.7	-73.0	3.8	7.46e-01	0	22	104	0	75	34654
2026-01-12 03:43:50.91	17.25	16.47	-53.7	-73.0	3.8	7.44e-01	0	22	104	0	75	34708
2026-01-12 03:43:51.91	17.14	16.58	-53.7	-73.0	3.8	7.52e-01	0	22	104	0	75	34657
2026-01-12 03:43:52.92	17.02	16.70	-53.7	-73.0	3.8	7.45e-01	0	22	104	0	75	34608
2026-01-12 03:43:53.93	16.90	16.81	-53.6	-73.0	3.8	7.44e-01	0	22	104	0	75	34600
2026-01-12 03:43:54.94	16.79	16.92	-53.7	-73.0	3.8	7.50e-01	0	22	104	0	75	34608
2026-01-12 03:43:55.95	16.67	17.04	-53.7	-73.0	3.8	7.46e-01	0	23	104	0	75	34604
2026-01-12 03:43:56.95	16.55	17.15	-53.7	-73.0	3.8	7.51e-01	0	22	104	0	75	34621
2026-01-12 03:43:57.96	16.43	17.27	-53.7	-73.0	3.8	7.46e-01	0	22	104	0	75	34599
2026-01-12 03:43:58.97	16.30	17.39	-53.7	-73.0	3.8	7.46e-01	0	22	104	0	75	34585
2026-01-12 03:43:59.97	16.18	17.50	-53.6	-73.0	3.8	7.47e-01	0	22	104	0	75	34566
2026-01-12 03:44:00.99	16.06	17.62	-53.6	-73.0	3.8	7.48e-01	0	22	104	0	75	34564
2026-01-12 03:44:02.00	15.93	17.74	-53.6	-73.0	3.8	7.42e-01	0	23	104	0	75	34606
2026-01-12 03:44:03.01	15.80	17.86	-53.6	-73.0	3.8	7.45e-01	0	22	104	0	75	34535
2026-01-12 03:44:04.01	15.68	17.98	-53.6	-73.0	3.8	7.49e-01	0	22	104	0	75	34584
2026-01-12 03:44:05.02	15.55	18.10	-53.6	-73.0	3.8	7.46e-01	0	22	104	0	75	34581
2026-01-12 03:44:06.03	15.42	18.21	-53.7	-73.0	3.8	7.44e-01	0	22	104	0	75	34564
2026-01-12 03:44:07.04	15.29	18.34	-53.6	-73.0	3.8	7.44e-01	0	22	104	0	75	34539
2026-01-12 03:44:08.05	15.16	18.46	-53.7	-73.0	3.8	7.49e-01	0	22	104	0	75	34611
2026-01-12 03:44:09.06	15.02	18.58	-53.7	-73.0	3.8	7.45e-01	0	22	104	0	75	34593
2026-01-12 03:44:10.07	14.89	18.70	-53.7	-73.0	3.8	7.50e-01	0	22	104	0	75	34575
2026-01-12 03:44:11.07	14.75	18.82	-53.6	-73.0	3.8	7.46e-01	0	22	104	0	75	34553
2026-01-12 03:44:12.08	14.62	18.94	-53.7	-73.0	3.8	7.47e-01	0	22	104	0	75	34625
2026-01-12 03:44:13.09	14.48	19.07	-53.7	-73.0	3.8	7.47e-01	0	23	104	0	75	34562
2026-01-12 03:44:14.09	14.34	19.19	-53.7	-73.0	3.8	7.46e-01	0	22	104	0	75	34540
2026-01-12 03:44:15.10	14.20	19.31	-53.7	-73.0	3.8	7.43e-01	0	23	104	0	75	34624
2026-01-12 03:44:16.11	14.06	19.44	-53.7	-73.0	3.8	7.48e-01	0	22	104	0	75	34606
2026-01-12 03:44:17.12	13.92	19.56	-53.7	-73.0	3.8	7.46e-01	0	22	104	0	75	34536
2026-01-12 03:44:18.13	13.77	19.69	-53.7	-73.0	3.8	7.49e-01	0	22	104	0	75	34653
2026-01-12 03:44:19.13	13.63	19.82	-53.7	-73.0	3.8	7.48e-01	0	22	104	0	75	34596
2026-01-12 03:44:20.14	13.48	19.94	-53.7	-73.0	3.8	7.46e-01	0	22	104	0	75	34578
2026-01-12 03:44:21.15	13.33	20.07	-53.7	-73.0	3.8	7.47e-01	0	22	104	0	75	34583
2026-01-12 03:44:22.16	13.18	20.20	-53.7	-73.0	3.8	7.47e-01	0	22	104	0	75	34701
2026-01-12 03:44:23.17	13.03	20.33	-53.7	-73.0	3.8	7.46e-01	0	22	104	0	75	34655
2026-01-12 03:44:24.18	12.88	20.46	-53.7	-73.0	3.8	7.48e-01	0	22	104	0	75	34680
2026-01-12 03:44:25.19	12.73	20.59	-53.7	-73.0	3.8	7.49e-01	0	22	104	0	75	34645
2026-01-12 03:44:26.20	12.57	20.72	-53.7	-73.0	3.8	7.43e-01	0	22	104	0	75	34608
2026-01-12 03:44:27.21	12.42	20.85	-53.7	-73.0	3.8	7.45e-01	0	23	104	0	75	34626
2026-01-12 03:44:28.21	12.26	20.98	-53.6	-73.0	3.8	7.46e-01	0	22	104	0	75	34588
2026-01-12 03:44:29.22	12.10	21.11	-53.7	-73.0	3.8	7.45e-01	0	22	104	0	75	34571
2026-01-12 03:44:30.23	11.94	21.24	-53.7	-73.0	3.8	7.46e-01	0	22	104	0	75	34606
2026-01-12 03:44:31.24	11.78	21.37	-53.7	-73.0	3.8	7.42e-01	0	22	104	0	75	34701
2026-01-12 03:44:32.25	11.62	21.51	-53.7	-73.0	3.8	7.48e-01	0	22	104	0	75	34639
2026-01-12 03:44:33.26	11.45	21.64	-53.7	-73.0	3.8	7.45e-01	0	23	104	0	75	34779
2026-01-12 03:44:34.27	11.28	21.77	-53.7	-73.0	3.8	7.46e-01	0	22	104	0	75	34676
2026-01-12 03:44:35.28	11.11	21.91	-53.7	-73.0	3.8	7.44e-01	0	22	104	0	75	34715
2026-01-12 03:44:36.29	10.94	22.04	-53.7	-73.0	3.8	7.44e-01	0	22	104	0	75	34650
2026-01-12 03:44:37.29	10.78	22.18	-53.7	-73.0	3.8	7.47e-01	0	22	104	0	75	34661
2026-01-12 03:44:38.30	10.60	22.32	-53.7	-73.0	3.8	7.48e-01	0	23	104	0	75	34591
2026-01-12 03:44:39.31	10.43	22.45	-53.7	-73.0	3.8	7.46e-01	0	22	104	0	75	34632
2026-01-12 03:44:40.32	10.25	22.59	-53.7	-73.0	3.8	7.48e-01	0	22	104	0	75	34609
2026-01-12 03:44:41.33	10.07	22.73	-53.7	-73.0	3.8	7.46e-01	0	22	104	0	75	34704
2026-01-12 03:44:42.33	9.90	22.86	-53.7	-73.0	3.8	7.48e-01	0	23	104	0	75	34690
2026-01-12 03:44:43.34	9.71	23.00	-53.7	-73.0	3.8	7.43e-01	0	23	104	0	75	34757
2026-01-12 03:44:44.35	9.53	23.14	-53.7	-73.0	3.8	7.41e-01	0	22	104	0	75	34654
2026-01-12 03:44:45.35	9.35	23.28	-53.7	-73.0	3.8	7.45e-01	0	22	104	0	75	34641
2026-01-12 03:44:46.36	9.16	23.42	-53.7	-73.0	3.8	7.46e-01	0	23	104	0	75	34573
2026-01-12 03:44:47.37	8.97	23.56	-53.7	-73.0	3.8	7.47e-01	0	22	104	0	75	34615
2026-01-12 03:44:48.38	8.78	23.70	-53.6	-73.0	3.8	7.45e-01	0	22	104	0	75	34619
2026-01-12 03:44:49.39	8.59	23.85	-53.7	-73.0	3.8	7.43e-01	0	22	104	0	75	34628
2026-01-12 03:44:50.40	8.40	23.99	-53.7	-73.0	3.8	7.46e-01	0	22	104	0	75	34635
2026-01-12 03:44:51.41	8.20	24.13	-53.7	-73.0	3.8	7.46e-01	0	23	104	0	75	34611
2026-01-12 03:44:52.42	8.00	24.28	-53.7	-73.0	3.8	7.46e-01	0	23	104	0	75	34566
2026-01-12 03:44:53.42	7.80	24.42	-53.7	-73.0	3.8	7.45e-01	0	23	104	0	75	34529
2026-01-12 03:44:54.43	7.60	24.56	-53.6	-73.0	3.8	7.48e-01	0	23	104	0	75	34531
2026-01-12 03:44:55.44	7.40	24.71	-53.6	-73.0	3.8	7.49e-01	0	23	104	0	75	34644
2026-01-12 03:44:56.45	7.19	24.85	-53.7	-73.0	3.8	7.47e-01	0	22	104	0	75	34706
2026-01-12 03:44:57.45	6.99	25.00	-53.7	-73.0	3.8	7.47e-01	0	23	104	0	75	34701
2026-01-12 03:44:58.46	6.78	25.14	-53.7	-73.0	3.8	7.44e-01	0	23	104	0	75	34643
2026-01-12 03:44:59.47	6.57	25.29	-53.7	-73.0	3.8	7.48e-01	0	22	104	0	75	34685
2026-01-12 03:45:00.48	6.35	25.44	-53.7	-73.0	3.8	7.46e-01	0	22	104	0	75	34690
2026-01-12 03:45:01.49	6.14	25.59	-53.7	-73.0	3.8	7.46e-01	0	22	104	0	75	34662
2026-01-12 03:45:02.50	5.92	25.73	-53.7	-73.0	3.8	7.46e-01	0	23	104	0	75	34670
2026-01-12 03:45:03.51	5.70	25.88	-53.7	-73.0	3.8	7.49e-01	0	23	104	0	75	34701
2026-01-12 03:45:04.51	5.48	26.03	-53.7	-73.0	3.8	7.46e-01	0	23	104	0	75	34603
2026-01-12 03:45:05.52	5.25	26.18	-53.7	-73.0	3.8	7.47e-01	0	22	104	0	75	34673
2026-01-12 03:45:06.53	5.03	26.33	-53.7	-73.0	3.8	7.44e-01	0	23	104	0	75	34675
2026-01-12 03:45:07.54	4.80	26.48	-53.7	-73.0	3.8	7.44e-01	0	23	104	0	75	34693
2026-01-12 03:45:08.55	4.57	26.63	-53.7	-73.0	3.8	7.44e-01	0	23	104	0	75	34760
2026-01-12 03:45:09.55	4.34	26.78	-53.7	-73.0	3.8	7.47e-01	0	22	104	0	75	34682
2026-01-12 03:45:10.56	4.10	26.93	-53.7	-73.0	3.8	7.45e-01	0	23	104	0	75	34601
2026-01-12 03:45:11.58	3.86	27.09	-53.7	-73.0	3.8	7.46e-01	0	23	104	0	75	34621
2026-01-12 03:45:12.58	3.62	27.24	-53.7	-73.0	3.8	7.48e-01	0	23	104	0	75	34664
2026-01-12 03:45:13.58	3.38	27.39	-53.7	-73.0	3.8	7.43e-01	0	23	104	0	75	34618
2026-01-12 03:45:14.59	3.13	27.54	-53.7	-73.0	3.8	7.48e-01	0	23	104	0	75	34606
2026-01-12 03:45:15.60	2.89	27.69	-53.7	-73.0	3.8	7.45e-01	0	22	104	0	75	34716
2026-01-12 03:45:16.61	2.63	27.85	-53.7	-73.0	3.8	7.44e-01	0	22	104	0	75	34670
2026-01-12 03:45:17.62	2.38	28.00	-53.7	-73.0	3.8	7.47e-01	0	23	104	0	75	34673
2026-01-12 03:45:18.62	2.13	28.15	-53.7	-73.0	3.8	7.48e-01	0	23	104	0	75	34688
2026-01-12 03:45:19.63	1.87	28.31	-53.7	-73.0	3.8	7.46e-01	0	23	104	0	75	34627
2026-01-12 03:45:20.64	1.61	28.46	-53.7	-73.0	3.8	7.45e-01	0	22	104	0	75	34624
2026-01-12 03:45:21.65	1.34	28.62	-53.7	-73.0	3.8	7.44e-01	0	23	104	0	75	34568
2026-01-12 03:45:22.65	1.08	28.77	-53.7	-73.0	3.8	7.48e-01	0	22	104	0	75	34610
2026-01-12 03:45:23.66	0.81	28.93	-53.7	-73.0	3.8	7.47e-01	0	23	104	0	75	34666
2026-01-12 03:45:24.67	0.54	29.08	-53.7	-73.0	3.8	7.48e-01	0	22	104	0	75	34656
2026-01-12 03:45:25.68	0.26	29.24	-53.7	-73.0	3.8	7.48e-01	0	23	104	0	75	34597
2026-01-12 03:45:26.69	359.99	29.40	-53.7	-73.0	3.8	7.46e-01	0	23	104	0	75	34688
2026-01-12 03:45:27.70	359.71	29.55	-53.7	-73.0	3.8	7.48e-01	0	23	104	0	75	34633
2026-01-12 03:45:28.70	359.43	29.71	-53.7	-73.0	3.8	7.47e-01	0	23	104	0	75	34615
2026-01-12 03:45:29.71	359.14	29.87	-53.7	-73.0	3.8	7.48e-01	0	23	104	0	75	34705
2026-01-12 03:45:30.72	358.85	30.02	-53.7	-73.0	3.8	7.44e-01	0	23	104	0	75	34637
2026-01-12 03:45:31.73	358.56	30.18	-53.7	-73.0	3.8	7.46e-01	0	23	104	0	75	34661
2026-01-12 03:45:32.74	358.27	30.34	-53.7	-73.0	3.8	7.44e-01	0	23	104	0	75	34658
2026-01-12 03:45:33.75	357.97	30.49	-53.7	-73.0	3.8	7.44e-01	0	22	104	0	75	34604
2026-01-12 03:45:34.76	357.67	30.65	-53.7	-73.0	3.8	7.48e-01	0	23	104	0	75	34713
2026-01-12 03:45:35.77	357.36	30.81	-53.7	-73.0	3.8	7.47e-01	0	23	104	0	75	34689
2026-01-12 03:45:36.78	357.06	30.97	-53.7	-73.0	3.8	7.45e-01	0	23	104	0	75	34627
2026-01-12 03:45:37.79	356.74	31.12	-53.7	-73.0	3.8	7.47e-01	0	22	104	0	75	34660
2026-01-12 03:45:38.80	356.43	31.28	-53.7	-73.0	3.8	7.44e-01	0	23	104	0	75	34696
2026-01-12 03:45:39.81	356.11	31.44	-53.7	-73.0	3.8	7.45e-01	0	23	104	0	75	34656
2026-01-12 03:45:40.82	355.80	31.60	-53.7	-73.0	3.8	7.47e-01	0	23	104	0	75	34601
2026-01-12 03:45:41.82	355.48	31.75	-53.7	-73.0	3.8	7.46e-01	0	23	104	0	75	34622
2026-01-12 03:45:42.83	355.15	31.91	-53.7	-73.0	3.8	7.46e-01	0	23	104	0	75	34676
2026-01-12 03:45:43.84	354.82	32.07	-53.7	-73.0	3.8	7.48e-01	0	23	104	0	75	34747
2026-01-12 03:45:44.85	354.49	32.22	-53.7	-73.0	3.8	7.43e-01	0	23	104	0	75	34652
2026-01-12 03:45:45.86	354.15	32.38	-53.7	-73.0	3.8	7.48e-01	0	23	104	0	75	34681
2026-01-12 03:45:46.87	353.81	32.53	-53.7	-73.0	3.8	7.47e-01	0	23	104	0	75	34654
2026-01-12 03:45:47.88	353.47	32.69	-53.7	-73.0	3.8	7.48e-01	0	23	104	0	75	34738
2026-01-12 03:45:48.88	353.12	32.84	-53.7	-73.0	3.8	7.46e-01	0	22	104	0	75	34721
2026-01-12 03:45:49.89	352.77	33.00	-53.7	-73.0	3.8	7.45e-01	0	23	104	0	75	34663
2026-01-12 03:45:50.89	352.42	33.15	-53.7	-73.0	3.8	7.44e-01	0	23	104	0	75	34646
2026-01-12 03:45:51.90	352.07	33.31	-53.7	-73.0	3.8	7.47e-01	0	23	104	0	75	34712
2026-01-12 03:45:52.91	351.71	33.46	-53.7	-73.0	3.8	7.46e-01	0	23	104	0	75	34758
2026-01-12 03:45:53.92	351.34	33.62	-53.7	-73.0	3.8	7.46e-01	0	23	104	0	75	34792
2026-01-12 03:45:54.93	350.98	33.77	-53.7	-73.0	3.8	7.45e-01	0	23	104	0	75	34756
2026-01-12 03:45:55.94	350.60	33.92	-53.7	-73.0	3.8	7.45e-01	0	23	104	0	75	34707
2026-01-12 03:45:56.96	350.23	34.08	-53.7	-73.0	3.8	7.44e-01	0	23	104	0	75	34728
2026-01-12 03:45:57.96	349.85	34.23	-53.7	-73.0	3.8	7.46e-01	0	23	104	0	75	34712
2026-01-12 03:45:58.97	349.47	34.38	-53.7	-73.0	3.8	7.45e-01	0	23	104	0	75	34776
2026-01-12 03:45:59.98	349.08	34.53	-53.7	-73.0	3.8	7.47e-01	0	23	104	0	75	34689
2026-01-12 03:46:00.99	348.69	34.68	-53.7	-73.0	3.8	7.49e-01	0	23	104	0	75	34691
2026-01-12 03:46:02.00	348.30	34.83	-53.7	-73.0	3.8	7.47e-01	0	23	104	0	75	34594
2026-01-12 03:46:03.01	347.90	34.97	-53.7	-73.0	3.8	7.46e-01	0	23	104	0	75	34661
2026-01-12 03:46:04.02	347.50	35.12	-53.7	-73.0	3.8	7.48e-01	0	23	104	0	75	34665
2026-01-12 03:46:05.02	347.10	35.27	-53.7	-73.0	3.8	7.48e-01	0	23	104	0	75	34575
2026-01-12 03:46:06.03	346.70	35.41	-53.7	-73.0	3.8	7.49e-01	0	23	104	0	75	34681
2026-01-12 03:46:07.05	346.28	35.56	-53.7	-73.0	3.8	7.43e-01	0	23	104	0	75	34554
2026-01-12 03:46:08.05	345.87	35.70	-53.7	-73.0	3.8	7.48e-01	0	23	104	0	75	34700
2026-01-12 03:46:09.06	345.45	35.84	-53.7	-73.0	3.8	7.48e-01	0	23	104	0	75	34669
2026-01-12 03:46:10.07	345.03	35.98	-53.7	-73.0	3.8	7.45e-01	0	23	104	0	75	34738
2026-01-12 03:46:11.08	344.60	36.13	-53.7	-73.0	3.8	7.46e-01	0	23	104	0	75	34706
2026-01-12 03:46:12.09	344.17	36.26	-53.7	-73.0	3.8	7.46e-01	0	23	104	0	75	34696
2026-01-12 03:46:13.10	343.73	36.40	-53.7	-73.0	3.8	7.48e-01	0	23	104	0	75	34732
2026-01-12 03:46:14.11	343.30	36.54	-53.7	-73.0	3.8	7.45e-01	0	23	104	0	75	34810
2026-01-12 03:46:15.12	342.85	36.68	-53.7	-73.0	3.8	7.45e-01	0	23	104	0	75	34788
2026-01-12 03:46:16.12	342.41	36.81	-53.7	-73.0	3.8	7.44e-01	0	23	104	0	75	34781
2026-01-12 03:46:17.13	341.96	36.94	-53.7	-73.0	3.8	7.43e-01	0	23	104	0	75	34629
2026-01-12 03:46:18.14	341.51	37.07	-53.7	-73.0	3.8	7.45e-01	0	23	104	0	75	34679
2026-01-12 03:46:19.15	341.05	37.20	-53.7	-73.0	3.8	7.45e-01	0	23	104	0	75	34718
2026-01-12 03:46:20.16	340.59	37.33	-53.7	-73.0	3.8	7.47e-01	0	23	104	0	75	34711
2026-01-12 03:46:21.17	340.13	37.46	-53.7	-73.0	3.8	7.48e-01	0	23	104	0	75	34783
2026-01-12 03:46:22.18	339.66	37.58	-53.7	-73.0	3.8	7.46e-01	0	23	104	0	75	34698
2026-01-12 03:46:23.19	339.19	37.71	-53.7	-73.0	3.8	7.47e-01	0	23	104	0	75	34746
2026-01-12 03:46:24.20	338.71	37.83	-53.7	-73.0	3.8	7.46e-01	0	23	104	0	75	34762
2026-01-12 03:46:25.21	338.23	37.95	-53.7	-73.0	3.8	7.45e-01	0	23	104	0	75	34768
2026-01-12 03:46:26.21	337.75	38.07	-53.7	-73.0	3.8	7.44e-01	0	23	104	0	75	34719
2026-01-12 03:46:27.22	337.27	38.18	-53.7	-73.0	3.8	7.46e-01	0	23	104	0	75	34708
2026-01-12 03:46:28.23	336.78	38.30	-53.7	-73.0	3.8	7.44e-01	0	23	104	0	75	34643
2026-01-12 03:46:29.24	336.28	38.41	-53.7	-73.0	3.8	7.45e-01	0	23	104	0	75	34744
2026-01-12 03:46:30.24	335.79	38.52	-53.7	-73.0	3.8	7.46e-01	0	23	104	0	75	34794
2026-01-12 03:46:31.25	335.29	38.63	-53.7	-73.0	3.8	7.46e-01	0	23	104	0	75	34692
2026-01-12 03:46:32.26	334.78	38.73	-53.7	-73.0	3.8	7.49e-01	0	23	104	0	75	34660
2026-01-12 03:46:33.27	334.28	38.84	-53.7	-73.0	3.8	7.47e-01	0	23	104	0	75	34718
2026-01-12 03:46:34.28	333.77	38.94	-53.7	-73.0	3.8	7.46e-01	0	23	104	0	75	34703
2026-01-12 03:46:35.29	333.25	39.04	-53.7	-73.0	3.8	7.43e-01	0	23	104	0	75	34690
2026-01-12 03:46:36.30	332.74	39.14	-53.7	-73.0	3.8	7.49e-01	0	23	104	0	75	34725
2026-01-12 03:46:37.31	332.22	39.23	-53.7	-73.0	3.8	7.46e-01	0	23	104	0	75	34706
2026-01-12 03:46:38.32	331.69	39.33	-53.7	-73.0	3.8	7.47e-01	0	23	104	0	75	34771
2026-01-12 03:46:39.33	331.17	39.42	-53.7	-73.0	3.8	7.44e-01	0	23	104	0	75	34707
2026-01-12 03:46:40.34	330.64	39.51	-53.7	-73.0	3.8	7.45e-01	0	23	104	0	75	34784
2026-01-12 03:46:41.34	330.11	39.59	-53.7	-73.0	3.8	7.47e-01	0	23	104	0	75	34744
2026-01-12 03:46:42.35	329.57	39.67	-53.7	-73.0	3.8	7.48e-01	0	23	104	0	75	34805
2026-01-12 03:46:43.36	329.04	39.75	-53.7	-73.0	3.8	7.47e-01	0	23	104	0	75	34695
2026-01-12 03:46:44.37	328.49	39.83	-53.7	-73.0	3.8	7.44e-01	0	23	104	0	75	34771
2026-01-12 03:46:45.38	327.95	39.91	-53.7	-73.0	3.8	7.44e-01	0	23	104	0	75	34834
2026-01-12 03:46:46.39	327.41	39.98	-53.7	-73.0	3.8	7.47e-01	0	23	104	0	75	34767
2026-01-12 03:46:47.39	326.86	40.05	-53.7	-73.0	3.8	7.49e-01	0	23	104	0	75	34802
2026-01-12 03:46:48.40	326.31	40.11	-53.7	-73.0	3.8	7.45e-01	0	23	104	0	75	34821
2026-01-12 03:46:49.41	325.76	40.18	-53.7	-73.0	3.8	7.44e-01	0	23	104	0	75	34799
2026-01-12 03:46:50.42	325.20	40.24	-53.7	-73.0	3.8	7.47e-01	0	23	104	0	75	34804
2026-01-12 03:46:51.43	324.65	40.30	-53.7	-73.0	3.8	7.45e-01	0	23	104	0	75	34844
2026-01-12 03:46:52.44	324.09	40.35	-53.7	-73.0	3.8	7.48e-01	0	23	104	0	75	34815
2026-01-12 03:46:53.44	323.53	40.40	-53.7	-73.0	3.8	7.46e-01	0	23	104	0	75	34754
2026-01-12 03:46:54.45	322.97	40.45	-53.7	-73.0	3.8	7.45e-01	0	22	104	0	75	34751
2026-01-12 03:46:55.45	322.41	40.50	-53.7	-73.1	3.8	7.46e-01	0	23	104	0	75	34898
2026-01-12 03:46:56.46	321.84	40.54	-53.7	-73.0	3.8	7.47e-01	0	23	104	0	75	34778
2026-01-12 03:46:57.47	321.28	40.58	-53.7	-73.0	3.8	7.43e-01	0	23	104	0	75	34714
2026-01-12 03:46:58.48	320.71	40.62	-53.7	-73.0	3.8	7.47e-01	0	23	104	0	75	34731
2026-01-12 03:46:59.49	320.14	40.65	-53.7	-73.0	3.8	7.46e-01	0	23	104	0	75	34817
2026-01-12 03:47:00.50	319.57	40.68	-53.7	-73.0	3.8	7.47e-01	0	23	104	0	75	34748
2026-01-12 03:47:01.51	318.99	40.71	-53.7	-73.0	3.8	7.46e-01	0	23	104	0	75	34810
2026-01-12 03:47:02.52	318.42	40.73	-53.7	-73.0	3.8	7.46e-01	0	23	104	0	75	34772
2026-01-12 03:47:03.53	317.85	40.75	-53.7	-73.0	3.8	7.43e-01	0	23	104	0	75	34749
2026-01-12 03:47:04.54	317.27	40.77	-53.7	-73.0	3.8	7.46e-01	0	23	104	0	75	34794
2026-01-12 03:47:05.55	316.69	40.79	-53.7	-73.0	3.8	7.41e-01	0	23	104	0	75	34744
2026-01-12 03:47:06.55	316.12	40.80	-53.7	-73.1	3.8	7.42e-01	0	23	104	0	75	34882
2026-01-12 03:47:07.56	315.55	40.81	-53.7	-73.0	3.8	7.48e-01	0	23	104	0	75	34706
2026-01-12 03:47:08.57	314.97	40.81	-53.7	-73.0	3.8	7.46e-01	0	23	104	0	75	34752
2026-01-12 03:47:09.58	314.39	40.81	-53.7	-73.0	3.8	7.50e-01	0	23	104	0	75	34837
2026-01-12 03:47:10.59	313.82	40.81	-53.7	-73.0	3.8	7.46e-01	0	23	104	0	75	34798
2026-01-12 03:47:11.60	313.24	40.81	-53.7	-73.0	3.8	7.47e-01	0	23	104	0	75	34843
2026-01-12 03:47:12.61	312.66	40.80	-53.7	-73.0	3.8	7.44e-01	0	23	104	0	75	34824
2026-01-12 03:47:13.62	312.09	40.79	-53.7	-73.0	3.8	7.50e-01	0	23	104	0	75	34723
2026-01-12 03:47:14.63	311.51	40.77	-53.7	-73.0	3.8	7.47e-01	0	23	104	0	75	34777
2026-01-12 03:47:15.64	310.94	40.76	-53.7	-73.0	3.8	7.45e-01	0	23	104	0	75	34784
2026-01-12 03:47:16.65	310.36	40.73	-53.7	-73.0	3.8	7.47e-01	0	23	104	0	75	34853
2026-01-12 03:47:17.66	309.79	40.71	-53.7	-73.0	3.8	7.43e-01	0	23	104	0	75	34805
2026-01-12 03:47:18.67	309.22	40.68	-53.7	-73.0	3.8	7.48e-01	0	23	104	0	75	34830
2026-01-12 03:47:19.68	308.64	40.65	-53.7	-73.0	3.8	7.48e-01	0	23	104	0	75	34791
2026-01-12 03:47:20.69	308.07	40.62	-53.7	-73.0	3.8	7.45e-01	0	23	104	0	75	34859
2026-01-12 03:47:21.70	307.50	40.58	-53.7	-73.0	3.8	7.43e-01	0	23	104	0	75	34844
2026-01-12 03:47:22.70	306.94	40.54	-53.7	-73.0	3.8	7.48e-01	0	23	104	0	75	34792
2026-01-12 03:47:23.71	306.37	40.50	-53.7	-73.0	3.8	7.49e-01	0	23	104	0	75	34822
2026-01-12 03:47:24.72	305.81	40.45	-53.7	-73.0	3.8	7.44e-01	0	23	104	0	75	34817
2026-01-12 03:47:25.73	305.25	40.41	-53.7	-73.0	3.8	7.45e-01	0	23	104	0	75	34822
2026-01-12 03:47:26.74	304.69	40.35	-53.7	-73.0	3.8	7.45e-01	0	23	104	0	75	34860
2026-01-12 03:47:27.75	304.13	40.30	-53.7	-73.0	3.8	7.47e-01	0	23	104	0	75	34751
2026-01-12 03:47:28.75	303.57	40.24	-53.7	-73.0	3.8	7.42e-01	0	23	104	0	75	34752
2026-01-12 03:47:29.76	303.02	40.18	-53.7	-73.0	3.8	7.46e-01	0	23	104	0	75	34801
2026-01-12 03:47:30.77	302.46	40.12	-53.7	-73.0	3.8	7.42e-01	0	23	104	0	75	34720
2026-01-12 03:47:31.78	301.91	40.05	-53.7	-73.0	3.8	7.46e-01	0	23	104	0	75	34776
2026-01-12 03:47:32.78	301.37	39.98	-53.7	-73.0	3.8	7.49e-01	0	23	104	0	75	34804
2026-01-12 03:47:33.79	300.82	39.91	-53.7	-73.0	3.8	7.47e-01	0	23	104	0	75	34806
2026-01-12 03:47:34.80	300.28	39.84	-53.7	-73.1	3.8	7.48e-01	0	23	104	0	75	34884
2026-01-12 03:47:35.81	299.74	39.76	-53.7	-73.0	3.8	7.44e-01	0	23	104	0	75	34856
2026-01-12 03:47:36.82	299.20	39.68	-53.7	-73.0	3.8	7.45e-01	0	23	104	0	75	34802
2026-01-12 03:47:37.83	298.66	39.59	-53.7	-73.0	3.8	7.48e-01	0	23	104	0	75	34773
2026-01-12 03:47:38.83	298.14	39.51	-53.7	-73.0	3.8	7.45e-01	0	23	104	0	75	34764
2026-01-12 03:47:39.84	297.61	39.42	-53.7	-73.0	3.8	7.45e-01	0	23	104	0	75	34800
2026-01-12 03:47:40.85	297.08	39.33	-53.7	-73.0	3.8	7.45e-01	0	23	104	0	75	34833
2026-01-12 03:47:41.85	296.56	39.24	-53.7	-73.0	3.8	7.43e-01	0	23	104	0	75	34793
2026-01-12 03:47:42.86	296.04	39.14	-53.7	-73.0	3.8	7.47e-01	0	23	104	0	75	34842
2026-01-12 03:47:43.87	295.52	39.05	-53.7	-73.0	3.8	7.47e-01	0	23	104	0	75	34871
2026-01-12 03:47:44.88	295.00	38.95	-53.7	-73.0	3.8	7.45e-01	0	23	104	0	75	34846
2026-01-12 03:47:45.89	294.49	38.85	-53.7	-73.0	3.8	7.47e-01	0	23	104	0	75	34797
2026-01-12 03:47:46.90	293.98	38.74	-53.7	-73.1	3.8	7.46e-01	0	23	104	0	75	34892
2026-01-12 03:47:47.91	293.48	38.63	-53.7	-73.0	3.8	7.48e-01	0	23	104	0	75	34817
2026-01-12 03:47:48.91	292.98	38.53	-53.7	-73.0	3.8	7.45e-01	0	23	104	0	75	34795
2026-01-12 03:47:49.92	292.49	38.42	-53.7	-73.0	3.8	7.47e-01	0	23	104	0	75	34847
2026-01-12 03:47:50.93	291.99	38.30	-53.7	-73.0	3.8	7.47e-01	0	23	104	0	75	34781
2026-01-12 03:47:51.94	291.50	38.19	-53.7	-73.0	3.8	7.45e-01	0	23	104	0	75	34824
2026-01-12 03:47:52.95	291.01	38.07	-53.7	-73.0	3.8	7.45e-01	0	23	104	0	75	34807
2026-01-12 03:47:53.95	290.53	37.96	-53.7	-73.0	3.8	7.48e-01	0	23	104	0	75	34844
2026-01-12 03:47:54.97	290.05	37.83	-53.7	-73.0	3.8	7.46e-01	0	23	104	0	75	34873
2026-01-12 03:47:55.97	289.58	37.71	-53.7	-73.0	3.8	7.45e-01	0	23	104	0	75	34778
2026-01-12 03:47:56.98	289.10	37.59	-53.7	-73.0	3.8	7.47e-01	0	23	104	0	75	34779
2026-01-12 03:47:57.99	288.63	37.46	-53.7	-73.0	3.8	7.47e-01	0	23	104	0	75	34859
2026-01-12 03:47:59.00	288.17	37.34	-53.7	-73.1	3.8	7.47e-01	0	23	104	0	75	34897
2026-01-12 03:48:00.01	287.71	37.21	-53.7	-73.0	3.8	7.42e-01	0	23	104	0	75	34804
2026-01-12 03:48:01.01	287.25	37.08	-53.7	-73.1	3.8	7.47e-01	0	23	104	0	75	34918
2026-01-12 03:48:02.02	286.80	36.95	-53.7	-73.0	3.8	7.48e-01	0	23	104	0	75	34824
2026-01-12 03:48:03.02	286.35	36.82	-53.7	-73.0	3.8	7.44e-01	0	23	104	0	75	34847
2026-01-12 03:48:04.03	285.90	36.68	-53.7	-73.0	3.8	7.45e-01	0	23	104	0	75	34867
2026-01-12 03:48:05.04	285.46	36.55	-53.7	-73.0	3.8	7.44e-01	0	23	104	0	75	34836
2026-01-12 03:48:06.05	285.02	36.41	-53.7	-73.1	3.8	7.47e-01	0	23	104	0	75	34902
2026-01-12 03:48:07.06	284.59	36.27	-53.7	-73.0	3.8	7.47e-01	0	23	104	0	75	34864
2026-01-12 03:48:08.07	284.15	36.13	-53.7	-73.0	3.8	7.49e-01	0	23	104	0	75	34803
2026-01-12 03:48:09.07	283.73	35.99	-53.7	-73.0	3.8	7.46e-01	0	23	104	0	75	34830
2026-01-12 03:48:10.08	283.31	35.85	-53.7	-73.0	3.8	7.48e-01	0	23	104	0	75	34860
2026-01-12 03:48:11.09	282.89	35.71	-53.7	-73.1	3.8	7.46e-01	0	23	104	0	75	34902
2026-01-12 03:48:12.10	282.47	35.56	-53.7	-73.0	3.8	7.47e-01	0	23	104	0	75	34805
2026-01-12 03:48:13.11	282.06	35.42	-53.7	-73.0	3.8	7.46e-01	0	23	104	0	75	34816
2026-01-12 03:48:14.11	281.65	35.27	-53.7	-73.0	3.8	7.47e-01	0	23	104	0	75	34799
2026-01-12 03:48:15.12	281.24	35.13	-53.7	-73.0	3.8	7.44e-01	0	23	104	0	75	34846
2026-01-12 03:48:16.13	280.84	34.98	-53.7	-73.1	3.8	7.45e-01	0	23	104	0	75	34895
2026-01-12 03:48:17.13	280.45	34.83	-53.7	-73.0	3.8	7.43e-01	0	23	104	0	75	34825
2026-01-12 03:48:18.14	280.05	34.68	-53.7	-73.0	3.8	7.45e-01	0	23	104	0	75	34803
2026-01-12 03:48:19.15	279.66	34.53	-53.7	-73.0	3.8	7.47e-01	0	23	104	0	75	34795
2026-01-12 03:48:20.16	279.28	34.38	-53.7	-73.1	3.8	7.46e-01	0	23	104	0	75	34885
2026-01-12 03:48:21.17	278.89	34.23	-53.7	-73.0	3.8	7.46e-01	0	23	104	0	75	34773
2026-01-12 03:48:22.18	278.51	34.08	-53.7	-73.0	3.8	7.46e-01	0	23	104	0	75	34858
2026-01-12 03:48:23.19	278.14	33.93	-53.7	-73.0	3.8	7.48e-01	0	23	104	0	75	34784
2026-01-12 03:48:24.19	277.77	33.77	-53.7	-73.0	3.8	7.48e-01	0	23	104	0	75	34763
2026-01-12 03:48:25.20	277.40	33.62	-53.7	-73.0	3.8	7.47e-01	0	23	104	0	75	34815
2026-01-12 03:48:26.21	277.04	33.47	-53.7	-73.0	3.8	7.47e-01	0	23	104	0	75	34782
2026-01-12 03:48:27.22	276.68	33.31	-53.7	-73.0	3.8	7.48e-01	0	23	104	0	75	34743
2026-01-12 03:48:28.23	276.32	33.16	-53.7	-73.0	3.8	7.47e-01	0	23	104	0	75	34865
2026-01-12 03:48:29.23	275.97	33.00	-53.7	-73.1	3.8	7.45e-01	0	23	104	0	75	34920
2026-01-12 03:48:30.24	275.62	32.85	-53.7	-73.0	3.8	7.46e-01	0	23	104	0	75	34818
2026-01-12 03:48:31.25	275.27	32.69	-53.7	-73.0	3.8	7.44e-01	0	23	104	0	75	34765
2026-01-12 03:48:32.26	274.92	32.54	-53.7	-73.0	3.8	7.45e-01	0	23	104	0	75	34775
2026-01-12 03:48:33.27	274.58	32.38	-53.7	-73.0	3.8	7.47e-01	0	23	104	0	75	34706
2026-01-12 03:48:34.28	274.25	32.22	-53.7	-73.0	3.8	7.48e-01	0	23	104	0	75	34790
2026-01-12 03:48:35.28	273.91	32.07	-53.7	-73.0	3.8	7.44e-01	0	23	104	0	75	34862
2026-01-12 03:48:36.29	273.58	31.91	-53.7	-73.0	3.8	7.45e-01	0	23	104	0	75	34776
2026-01-12 03:48:37.30	273.26	31.75	-53.7	-73.0	3.8	7.46e-01	0	23	104	0	75	34840
2026-01-12 03:48:38.31	272.93	31.59	-53.7	-73.0	3.8	7.47e-01	0	23	104	0	75	34781
2026-01-12 03:48:39.31	272.61	31.44	-53.7	-73.0	3.8	7.47e-01	0	23	104	0	75	34794
2026-01-12 03:48:40.32	272.30	31.28	-53.7	-73.0	3.8	7.47e-01	0	23	104	0	75	34778
2026-01-12 03:48:41.33	271.98	31.12	-53.7	-73.0	3.8	7.44e-01	0	23	104	0	75	34784
2026-01-12 03:48:42.34	271.67	30.96	-53.7	-73.0	3.8	7.49e-01	0	23	104	0	75	34770
2026-01-12 03:48:43.35	271.36	30.81	-53.7	-73.0	3.8	7.48e-01	0	23	104	0	75	34810
2026-01-12 03:48:44.35	271.06	30.65	-53.7	-73.0	3.8	7.43e-01	0	23	104	0	75	34797
2026-01-12 03:48:45.36	270.76	30.49	-53.7	-73.0	3.8	7.49e-01	0	23	104	0	75	34782
2026-01-12 03:48:46.37	270.46	30.34	-53.7	-73.0	3.8	7.45e-01	0	23	104	0	75	34812
2026-01-12 03:48:47.38	270.16	30.18	-53.7	-73.1	3.8	7.47e-01	0	23	104	0	75	34890
2026-01-12 03:48:48.39	269.87	30.02	-53.7	-73.0	3.8	7.43e-01	0	23	104	0	75	34799
2026-01-12 03:48:49.40	269.58	29.86	-53.7	-73.0	3.8	7.44e-01	0	23	104	0	75	34747
2026-01-12 03:48:50.41	269.29	29.71	-53.7	-73.0	3.8	7.45e-01	0	23	104	0	75	34791
2026-01-12 03:48:51.41	269.01	29.55	-53.7	-73.0	3.8	7.46e-01	0	23	104	0	75	34867
2026-01-12 03:48:52.42	268.73	29.39	-53.7	-73.0	3.8	7.46e-01	0	23	104	0	75	34802
2026-01-12 03:48:53.43	268.45	29.24	-53.7	-73.0	3.8	7.45e-01	0	23	104	0	75	34792
2026-01-12 03:48:54.44	268.18	29.08	-53.7	-73.1	3.8	7.45e-01	0	23	104	0	75	34892
2026-01-12 03:48:55.45	267.90	28.92	-53.7	-73.1	3.8	7.44e-01	0	23	104	0	75	34886
2026-01-12 03:48:56.46	267.63	28.77	-53.7	-73.0	3.8	7.45e-01	0	23	104	0	75	34813
2026-01-12 03:48:57.47	267.37	28.61	-53.7	-73.0	3.8	7.45e-01	0	23	104	0	75	34822
2026-01-12 03:48:58.48	267.10	28.45	-53.7	-73.0	3.8	7.47e-01	0	23	104	0	75	34856
2026-01-12 03:48:59.48	266.84	28.30	-53.7	-73.0	3.8	7.45e-01	0	23	104	0	75	34798
2026-01-12 03:49:00.49	266.58	28.15	-53.7	-73.0	3.8	7.48e-01	0	23	104	0	75	34796
2026-01-12 03:49:01.50	266.33	27.99	-53.7	-73.0	3.8	7.47e-01	0	23	104	0	75	34767
2026-01-12 03:49:02.51	266.07	27.84	-53.7	-73.0	3.8	7.48e-01	0	23	104	0	75	34766
2026-01-12 03:49:03.52	265.82	27.68	-53.7	-73.0	3.8	7.44e-01	0	23	104	0	75	34797
2026-01-12 03:49:04.53	265.57	27.53	-53.7	-73.0	3.8	7.44e-01	0	23	104	0	75	34817
2026-01-12 03:49:05.53	265.33	27.38	-53.7	-73.0	3.8	7.48e-01	0	23	104	0	75	34871
2026-01-12 03:49:06.54	265.08	27.22	-53.7	-73.1	3.8	7.49e-01	0	23	104	0	75	34888
2026-01-12 03:49:07.56	264.84	27.07	-53.7	-73.0	3.8	7.46e-01	0	23	104	0	75	34793
2026-01-12 03:49:08.57	264.60	26.92	-53.7	-73.0	3.8	7.47e-01	0	23	104	0	75	34855
2026-01-12 03:49:09.57	264.36	26.77	-53.7	-73.0	3.8	7.47e-01	0	23	104	0	75	34845
2026-01-12 03:49:10.58	264.13	26.61	-53.7	-73.1	3.8	7.50e-01	0	23	104	0	75	34884
2026-01-12 03:49:11.59	263.90	26.46	-53.7	-73.0	3.8	7.47e-01	0	23	104	0	75	34790
2026-01-12 03:49:12.61	263.67	26.31	-53.7	-73.0	3.8	7.48e-01	0	23	104	0	75	34775
2026-01-12 03:49:13.61	263.44	26.16	-53.7	-73.0	3.8	7.48e-01	0	23	104	0	75	34779
2026-01-12 03:49:14.62	263.21	26.01	-53.7	-73.0	3.8	7.48e-01	0	23	104	0	75	34841
2026-01-12 03:49:15.63	262.99	25.86	-53.7	-73.0	3.8	7.46e-01	0	23	104	0	75	34734
2026-01-12 03:49:16.64	262.77	25.71	-53.7	-73.0	3.8	7.48e-01	0	23	104	0	75	34749
2026-01-12 03:49:17.65	262.55	25.56	-53.7	-73.0	3.8	7.46e-01	0	23	104	0	75	34723
2026-01-12 03:49:18.66	262.33	25.42	-53.7	-73.0	3.8	7.48e-01	0	23	104	0	75	34697
2026-01-12 03:49:19.67	262.12	25.27	-53.7	-73.0	3.8	7.47e-01	0	23	104	0	75	34770
2026-01-12 03:49:20.68	261.91	25.12	-53.7	-73.0	3.8	7.49e-01	0	23	104	0	75	34734
2026-01-12 03:49:21.69	261.70	24.97	-53.7	-73.0	3.8	7.43e-01	0	23	104	0	75	34736
2026-01-12 03:49:22.70	261.49	24.83	-53.7	-73.0	3.8	7.47e-01	0	23	104	0	75	34839
2026-01-12 03:49:23.71	261.28	24.68	-53.7	-73.0	3.8	7.46e-01	0	23	104	0	75	34850
2026-01-12 03:49:24.72	261.08	24.54	-53.7	-73.0	3.8	7.47e-01	0	23	104	0	75	34828
2026-01-12 03:49:25.72	260.88	24.39	-53.7	-73.1	3.8	7.48e-01	0	23	104	0	75	34886
2026-01-12 03:49:26.73	260.68	24.25	-53.7	-73.0	3.8	7.45e-01	0	23	104	0	75	34836
2026-01-12 03:49:27.74	260.48	24.10	-53.7	-73.0	3.8	7.47e-01	0	23	104	0	75	34802
2026-01-12 03:49:28.75	260.28	23.96	-53.7	-73.1	3.8	7.46e-01	0	23	104	0	75	34893
2026-01-12 03:49:29.75	260.09	23.82	-53.7	-73.1	3.8	7.48e-01	0	23	104	0	75	34897
2026-01-12 03:49:30.76	259.90	23.68	-53.7	-73.1	3.8	7.46e-01	0	23	104	0	75	34884
2026-01-12 03:49:31.77	259.71	23.54	-53.7	-73.0	3.8	7.49e-01	0	23	104	0	75	34770
2026-01-12 03:49:32.78	259.52	23.39	-53.7	-73.1	3.8	7.47e-01	0	23	104	0	75	34906
2026-01-12 03:49:33.79	259.33	23.25	-53.7	-73.1	3.8	7.45e-01	0	23	104	0	75	34958
2026-01-12 03:49:34.80	259.14	23.11	-53.7	-73.0	3.8	7.47e-01	0	23	104	0	75	34836
2026-01-12 03:49:35.81	258.96	22.97	-53.7	-73.1	3.8	7.47e-01	0	23	104	0	75	34885
2026-01-12 03:49:36.82	258.78	22.83	-53.7	-73.0	3.8	7.47e-01	0	23	104	0	75	34780
2026-01-12 03:49:37.82	258.60	22.70	-53.7	-73.1	3.8	7.42e-01	0	23	104	0	75	34889
2026-01-12 03:49:38.83	258.42	22.56	-53.7	-73.0	3.8	7.46e-01	0	23	104	0	75	34794
2026-01-12 03:49:39.84	258.24	22.42	-53.7	-73.0	3.8	7.46e-01	0	23	104	0	75	34778
2026-01-12 03:49:40.84	258.07	22.28	-53.7	-73.0	3.8	7.47e-01	0	23	104	0	75	34846
2026-01-12 03:49:41.85	257.90	22.15	-53.7	-73.0	3.8	7.41e-01	0	23	104	0	75	34869
2026-01-12 03:49:42.86	257.72	22.01	-53.7	-73.0	3.8	7.46e-01	0	23	104	0	75	34786
2026-01-12 03:49:43.87	257.55	21.87	-53.7	-73.0	3.8	7.46e-01	0	23	104	0	75	34770
2026-01-12 03:49:44.87	257.39	21.74	-53.7	-73.0	3.8	7.46e-01	0	23	104	0	75	34826
2026-01-12 03:49:45.88	257.22	21.61	-53.7	-73.0	3.8	7.42e-01	0	23	104	0	75	34862
2026-01-12 03:49:46.89	257.05	21.47	-53.7	-73.0	3.8	7.45e-01	0	22	104	0	75	34854
2026-01-12 03:49:47.90	256.89	21.34	-53.7	-73.0	3.8	7.47e-01	0	23	104	0	75	34798
2026-01-12 03:49:48.91	256.73	21.21	-53.7	-73.0	3.8	7.43e-01	0	23	104	0	75	34865
2026-01-12 03:49:49.92	256.56	21.07	-53.7	-73.1	3.8	7.46e-01	0	23	104	0	75	34939
2026-01-12 03:49:50.93	256.40	20.94	-53.7	-73.0	3.8	7.44e-01	0	23	104	0	75	34814
2026-01-12 03:49:51.94	256.25	20.81	-53.7	-73.1	3.8	7.46e-01	0	23	104	0	75	34913
2026-01-12 03:49:52.95	256.09	20.68	-53.7	-73.1	3.8	7.47e-01	0	23	104	0	75	34908
2026-01-12 03:49:53.96	255.93	20.55	-53.7	-73.0	3.8	7.47e-01	0	23	104	0	75	34801
2026-01-12 03:49:54.97	255.78	20.42	-53.7	-73.0	3.8	7.46e-01	0	23	104	0	75	34836
2026-01-12 03:49:55.98	255.63	20.29	-53.7	-73.1	3.8	7.47e-01	0	23	104	0	75	34901
2026-01-12 03:49:56.98	255.48	20.16	-53.7	-73.1	3.8	7.42e-01	0	23	104	0	75	34911
2026-01-12 03:49:57.99	255.33	20.03	-53.7	-73.0	3.8	7.44e-01	0	23	104	0	75	34873
2026-01-12 03:49:59.00	255.18	19.90	-53.7	-73.0	3.8	7.47e-01	0	23	104	0	75	34874
2026-01-12 03:50:00.01	255.03	19.78	-53.7	-73.1	3.8	7.44e-01	0	23	104	0	75	34884
2026-01-12 03:50:01.01	254.89	19.65	-53.7	-73.1	3.8	7.48e-01	0	23	104	0	75	34886
2026-01-12 03:50:02.02	254.74	19.52	-53.7	-73.0	3.8	7.47e-01	0	23	104	0	75	34859
2026-01-12 03:50:03.03	254.60	19.40	-53.7	-73.0	3.8	7.47e-01	0	23	104	0	75	34828
2026-01-12 03:50:04.04	254.46	19.27	-53.7	-73.0	3.8	7.46e-01	0	23	104	0	75	34857
2026-01-12 03:50:05.05	254.31	19.15	-53.7	-73.0	3.8	7.46e-01	0	23	104	0	75	34868
2026-01-12 03:50:06.06	254.18	19.02	-53.7	-73.1	3.8	7.46e-01	0	23	104	0	75	34903
2026-01-12 03:50:07.07	254.04	18.90	-53.7	-73.1	3.8	7.47e-01	0	23	104	0	75	34975
2026-01-12 03:50:08.08	253.90	18.78	-53.7	-73.0	3.8	7.43e-01	0	23	104	0	75	34854
2026-01-12 03:50:09.09	253.76	18.65	-53.7	-73.1	3.8	7.48e-01	0	23	104	0	75	34932
2026-01-12 03:50:10.10	253.63	18.53	-53.7	-73.0	3.8	7.45e-01	0	23	104	0	75	34856
2026-01-12 03:50:11.11	253.49	18.41	-53.7	-73.0	3.8	7.46e-01	0	23	104	0	75	34869
2026-01-12 03:50:12.12	253.36	18.29	-53.7	-73.1	3.8	7.47e-01	0	23	104	0	75	34887
2026-01-12 03:50:13.13	253.23	18.17	-53.7	-73.1	3.8	7.48e-01	0	23	104	0	75	34915
2026-01-12 03:50:14.14	253.10	18.05	-53.7	-73.1	3.8	7.45e-01	0	23	104	0	75	34891
2026-01-12 03:50:15.14	252.97	17.93	-53.7	-73.1	3.8	7.50e-01	0	23	104	0	75	34909
2026-01-12 03:50:16.15	252.84	17.81	-53.7	-73.1	3.8	7.44e-01	0	23	104	0	75	34989
2026-01-12 03:50:17.16	252.72	17.69	-53.7	-73.1	3.8	7.48e-01	0	23	104	0	75	34914
2026-01-12 03:50:18.17	252.59	17.57	-53.7	-73.1	3.8	7.51e-01	0	23	104	0	75	34941
2026-01-12 03:50:19.18	252.47	17.46	-53.7	-73.1	3.8	7.47e-01	0	23	104	0	75	34945
2026-01-12 03:50:20.19	252.34	17.34	-53.7	-73.1	3.8	7.47e-01	0	23	104	0	75	34916
2026-01-12 03:50:21.20	252.22	17.22	-53.7	-73.1	3.8	7.47e-01	0	23	104	0	75	34908
2026-01-12 03:50:22.21	252.10	17.10	-53.7	-73.1	3.8	7.42e-01	0	23	104	0	75	34926
2026-01-12 03:50:23.22	251.98	16.99	-53.7	-73.1	3.8	7.46e-01	0	23	104	0	75	34891
2026-01-12 03:50:24.23	251.86	16.87	-53.7	-73.1	3.8	7.46e-01	0	23	104	0	75	34883
2026-01-12 03:50:25.23	251.74	16.76	-53.7	-73.1	3.8	7.47e-01	0	23	104	0	75	34902
2026-01-12 03:50:26.24	251.62	16.65	-53.7	-73.0	3.8	7.48e-01	0	23	104	0	75	34847
2026-01-12 03:50:27.26	251.50	16.53	-53.7	-73.0	3.8	7.44e-01	0	23	104	0	75	34829
2026-01-12 03:50:28.26	251.39	16.42	-53.7	-73.0	3.8	7.42e-01	0	23	104	0	75	34870
2026-01-12 03:50:29.28	251.27	16.30	-53.7	-73.0	3.8	7.47e-01	0	23	104	0	75	34848
2026-01-12 03:50:30.28	251.16	16.19	-53.7	-73.1	3.8	7.46e-01	0	23	104	0	75	34935
2026-01-12 03:50:31.29	251.05	16.08	-53.7	-73.1	3.8	7.45e-01	0	23	104	0	75	34889
2026-01-12 03:50:32.30	250.93	15.97	-53.7	-73.0	3.8	7.46e-01	0	23	104	0	75	34876
2026-01-12 03:50:33.31	250.82	15.86	-53.7	-73.1	3.8	7.45e-01	0	23	104	0	75	34900
2026-01-12 03:50:34.31	250.71	15.75	-53.7	-73.1	3.8	7.45e-01	0	23	104	0	75	34902
2026-01-12 03:50:35.32	250.60	15.64	-53.7	-73.1	3.8	7.47e-01	0	23	104	0	75	34964
2026-01-12 03:50:36.33	250.49	15.53	-53.7	-73.0	3.8	7.48e-01	0	23	104	0	75	34777
2026-01-12 03:50:37.34	250.39	15.42	-53.7	-73.1	3.8	7.45e-01	0	23	104	0	75	34919
2026-01-12 03:50:38.35	250.28	15.31	-53.7	-73.0	3.8	7.48e-01	0	23	104	0	75	34837
2026-01-12 03:50:39.36	250.17	15.20	-53.7	-73.0	3.8	7.46e-01	0	23	104	0	75	34855
2026-01-12 03:50:40.36	250.07	15.09	-53.7	-73.0	3.8	7.45e-01	0	23	104	0	75	34870
2026-01-12 03:50:41.38	249.96	14.98	-53.7	-73.0	3.8	7.46e-01	0	23	104	0	75	34814
2026-01-12 03:50:42.39	249.86	14.88	-53.7	-73.0	3.8	7.50e-01	0	23	104	0	75	34877
2026-01-12 03:50:43.39	249.76	14.77	-53.7	-73.0	3.8	7.43e-01	0	23	104	0	75	34815
2026-01-12 03:50:44.40	249.66	14.66	-53.7	-73.1	3.8	7.46e-01	0	23	104	0	75	34904
2026-01-12 03:50:45.41	249.56	14.56	-53.7	-73.1	3.8	7.45e-01	0	23	104	0	75	34912
2026-01-12 03:50:46.42	249.46	14.45	-53.7	-73.1	3.8	7.47e-01	0	23	104	0	75	34893
2026-01-12 03:50:47.43	249.36	14.35	-53.7	-73.1	3.8	7.46e-01	0	23	104	0	75	34957
2026-01-12 03:50:48.44	249.26	14.24	-53.7	-73.0	3.8	7.47e-01	0	23	104	0	75	34815
2026-01-12 03:50:49.45	249.16	14.14	-53.7	-73.0	3.8	7.44e-01	0	23	104	0	75	34838
2026-01-12 03:50:50.46	249.06	14.03	-53.7	-73.0	3.8	7.50e-01	0	23	104	0	75	34783
2026-01-12 03:50:51.47	248.96	13.93	-53.7	-73.0	3.8	7.47e-01	0	23	104	0	75	34818
2026-01-12 03:50:52.48	248.87	13.83	-53.7	-73.1	3.8	7.47e-01	0	23	104	0	75	34909
2026-01-12 03:50:53.49	248.77	13.73	-53.7	-73.1	3.8	7.47e-01	0	23	104	0	75	34901
2026-01-12 03:50:54.50	248.68	13.62	-53.7	-73.1	3.8	7.45e-01	0	23	104	0	75	34896
2026-01-12 03:50:55.51	248.59	13.52	-53.7	-73.0	3.8	7.45e-01	0	23	104	0	75	34876
2026-01-12 03:50:56.52	248.49	13.42	-53.7	-73.0	3.8	7.44e-01	0	23	104	0	75	34846
2026-01-12 03:50:57.53	248.40	13.32	-53.7	-73.0	3.8	7.45e-01	0	23	104	0	75	34856
2026-01-12 03:50:58.54	248.31	13.22	-53.7	-73.1	3.8	7.47e-01	0	23	104	0	75	34962
2026-01-12 03:50:59.55	248.22	13.12	-53.7	-73.0	3.8	7.42e-01	0	23	104	0	75	34850
2026-01-12 03:51:00.55	248.13	13.02	-53.7	-73.0	3.8	7.48e-01	0	23	104	0	75	34857
2026-01-12 03:51:01.56	248.04	12.92	-53.7	-73.0	3.8	7.45e-01	0	23	104	0	75	34850
2026-01-12 03:51:02.57	247.95	12.82	-53.7	-73.0	3.8	7.48e-01	0	23	104	0	75	34830
2026-01-12 03:51:03.58	247.86	12.72	-53.7	-73.0	3.8	7.43e-01	0	23	104	0	75	34800
2026-01-12 03:51:04.59	247.77	12.62	-53.7	-73.0	3.8	7.47e-01	0	23	104	0	75	34831
2026-01-12 03:51:05.60	247.69	12.52	-53.7	-73.0	3.8	7.46e-01	0	23	104	0	75	34841
2026-01-12 03:51:06.61	247.60	12.43	-53.7	-73.1	3.8	7.47e-01	0	23	104	0	75	34943
2026-01-12 03:51:07.62	247.52	12.33	-53.7	-73.1	3.8	7.47e-01	0	23	104	0	75	34904
2026-01-12 03:51:08.62	247.43	12.23	-53.7	-73.0	3.8	7.44e-01	0	23	104	0	75	34853
2026-01-12 03:51:09.63	247.35	12.14	-53.7	-73.0	3.8	7.46e-01	0	23	104	0	75	34803
2026-01-12 03:51:10.64	247.26	12.04	-53.7	-73.0	3.8	7.45e-01	0	23	104	0	75	34794
2026-01-12 03:51:11.64	247.18	11.95	-53.7	-73.1	3.8	7.46e-01	0	23	104	0	75	34936
2026-01-12 03:51:12.65	247.10	11.85	-53.7	-73.1	3.8	7.45e-01	0	23	104	0	75	34884
2026-01-12 03:51:13.66	247.02	11.76	-53.7	-73.0	3.8	7.47e-01	0	23	104	0	75	34853
2026-01-12 03:51:14.67	246.94	11.66	-53.7	-73.0	3.8	7.45e-01	0	23	104	0	75	34872
2026-01-12 03:51:15.68	246.85	11.57	-53.7	-73.1	3.8	7.48e-01	0	23	104	0	75	34881
2026-01-12 03:51:16.69	246.77	11.47	-53.7	-73.0	3.8	7.49e-01	0	23	104	0	75	34794
2026-01-12 03:51:17.70	246.69	11.38	-53.7	-73.0	3.8	7.43e-01	0	23	104	0	75	34793
2026-01-12 03:51:18.71	246.62	11.28	-53.7	-73.1	3.8	7.49e-01	0	23	104	0	75	34908
2026-01-12 03:51:19.72	246.54	11.19	-53.7	-73.1	3.8	7.44e-01	0	23	104	0	75	34925
2026-01-12 03:51:20.72	246.46	11.10	-53.7	-73.0	3.8	7.46e-01	0	23	104	0	75	34860
2026-01-12 03:51:21.74	246.38	11.01	-53.7	-73.1	3.8	7.46e-01	0	23	104	0	75	34949
2026-01-12 03:51:22.75	246.31	10.91	-53.7	-73.0	3.8	7.42e-01	0	23	104	0	75	34802
2026-01-12 03:51:23.76	246.23	10.82	-53.7	-73.0	3.8	7.47e-01	0	23	104	0	75	34709
2026-01-12 03:51:24.77	246.15	10.73	-53.7	-73.1	3.8	7.44e-01	0	23	104	0	75	34933
2026-01-12 03:51:25.77	246.08	10.64	-53.7	-73.1	3.8	7.44e-01	0	23	104	0	75	34930
2026-01-12 03:51:26.78	246.00	10.55	-53.7	-73.1	3.8	7.50e-01	0	23	104	0	75	34886
2026-01-12 03:51:27.79	245.93	10.46	-53.7	-73.1	3.8	7.47e-01	0	23	104	0	75	34902
2026-01-12 03:51:28.80	245.86	10.37	-53.7	-73.0	3.8	7.46e-01	0	23	104	0	75	34867
2026-01-12 03:51:29.81	245.78	10.28	-53.7	-73.1	3.8	7.48e-01	0	23	104	0	75	34931
2026-01-12 03:51:30.82	245.71	10.19	-53.7	-73.1	3.8	7.45e-01	0	23	104	0	75	34900
2026-01-12 03:51:31.83	245.64	10.10	-53.7	-73.1	3.8	7.49e-01	0	23	104	0	75	34890
2026-01-12 03:51:32.84	245.57	10.01	-53.7	-73.1	3.8	7.44e-01	0	23	104	0	75	34917
2026-01-12 03:51:33.85	245.49	9.92	-53.7	-73.0	3.8	7.43e-01	0	23	104	0	75	34762
2026-01-12 03:51:34.85	245.42	9.84	-53.7	-73.1	3.8	7.45e-01	0	23	104	0	75	34922
2026-01-12 03:51:35.86	245.35	9.75	-53.7	-73.0	3.8	7.45e-01	0	23	104	0	75	34846
2026-01-12 03:51:36.87	245.28	9.66	-53.7	-73.0	3.8	7.45e-01	0	23	104	0	75	34788
2026-01-12 03:51:37.88	245.22	9.57	-53.7	-73.0	3.8	7.47e-01	0	23	104	0	75	34844
2026-01-12 03:51:38.89	245.15	9.49	-53.7	-73.0	3.8	7.45e-01	0	23	104	0	75	34837
2026-01-12 03:51:39.89	245.08	9.40	-53.7	-73.1	3.8	7.46e-01	0	23	104	0	75	34949
2026-01-12 03:51:40.90	245.01	9.32	-53.7	-73.0	3.8	7.44e-01	0	23	104	0	75	34790
2026-01-12 03:51:41.90	244.94	9.23	-53.7	-73.0	3.8	7.43e-01	0	23	104	0	75	34822
2026-01-12 03:51:42.91	244.88	9.14	-53.7	-73.1	3.8	7.49e-01	0	23	104	0	75	34889
2026-01-12 03:51:43.92	244.81	9.06	-53.7	-73.0	3.8	7.44e-01	0	23	104	0	75	34822
2026-01-12 03:51:44.93	244.74	8.97	-53.7	-73.1	3.8	7.47e-01	0	23	104	0	75	34927
2026-01-12 03:51:45.94	244.68	8.89	-53.7	-73.0	3.8	7.45e-01	0	23	104	0	75	34850
2026-01-12 03:51:46.94	244.61	8.80	-53.7	-73.0	3.8	7.46e-01	0	23	104	0	75	34874
2026-01-12 03:51:47.95	244.55	8.72	-53.7	-73.0	3.8	7.44e-01	0	23	104	0	75	34827
2026-01-12 03:51:48.96	244.48	8.64	-53.7	-73.0	3.8	7.47e-01	0	23	104	0	75	34846
2026-01-12 03:51:49.97	244.42	8.55	-53.7	-73.0	3.8	7.47e-01	0	23	104	0	75	34865
2026-01-12 03:51:50.98	244.36	8.47	-53.7	-73.0	3.8	7.49e-01	0	23	104	0	75	34783
2026-01-12 03:51:51.99	244.29	8.39	-53.7	-73.0	3.8	7.44e-01	0	23	104	0	75	34782
2026-01-12 03:51:53.00	244.23	8.30	-53.7	-73.0	3.8	7.42e-01	0	23	104	0	75	34747
2026-01-12 03:51:54.01	244.17	8.22	-53.7	-73.0	3.8	7.48e-01	0	23	104	0	75	34813
2026-01-12 03:51:55.02	244.11	8.14	-53.7	-73.0	3.8	7.46e-01	0	23	104	0	75	34741
2026-01-12 03:51:56.03	244.04	8.06	-53.7	-73.0	3.8	7.46e-01	0	23	104	0	75	34815
2026-01-12 03:51:57.04	243.98	7.97	-53.7	-73.0	3.8	7.47e-01	0	23	104	0	75	34767
2026-01-12 03:51:58.05	243.92	7.89	-53.7	-73.0	3.8	7.47e-01	0	23	104	0	75	34824
2026-01-12 03:51:59.06	243.86	7.81	-53.7	-73.0	3.8	7.48e-01	0	23	104	0	75	34791
2026-01-12 03:52:00.07	243.80	7.73	-53.7	-73.0	3.8	7.46e-01	0	23	104	0	75	34801
2026-01-12 03:52:01.07	243.74	7.65	-53.7	-73.0	3.8	7.46e-01	0	23	104	0	75	34759
2026-01-12 03:52:02.08	243.68	7.57	-53.7	-73.0	3.8	7.43e-01	0	23	104	0	75	34790
2026-01-12 03:52:03.09	243.62	7.49	-53.7	-73.0	3.8	7.47e-01	0	23	104	0	75	34733
2026-01-12 03:52:04.10	243.57	7.41	-53.7	-73.0	3.8	7.45e-01	0	23	104	0	75	34767
2026-01-12 03:52:05.10	243.51	7.33	-53.7	-73.0	3.8	7.43e-01	0	23	104	0	75	34714
2026-01-12 03:52:06.11	243.45	7.25	-53.7	-73.0	3.8	7.45e-01	0	23	104	0	75	34810
2026-01-12 03:52:07.12	243.39	7.17	-53.7	-73.0	3.8	7.50e-01	0	23	104	0	75	34820
2026-01-12 03:52:08.13	243.34	7.09	-53.7	-73.0	3.8	7.47e-01	0	23	104	0	75	34766
2026-01-12 03:52:09.14	243.28	7.01	-53.7	-73.0	3.8	7.47e-01	0	23	104	0	75	34771
2026-01-12 03:52:10.15	243.22	6.93	-53.7	-73.0	3.8	7.44e-01	0	23	104	0	75	34777
2026-01-12 03:52:11.16	243.17	6.86	-53.7	-73.0	3.8	7.47e-01	0	23	104	0	75	34849
2026-01-12 03:52:12.17	243.11	6.78	-53.7	-73.1	3.8	7.46e-01	0	23	104	0	75	34908
2026-01-12 03:52:13.18	243.06	6.70	-53.7	-73.1	3.8	7.43e-01	0	23	104	0	75	34930
2026-01-12 03:52:14.19	243.00	6.62	-53.7	-73.0	3.8	7.48e-01	0	23	104	0	75	34875
2026-01-12 03:52:15.20	242.95	6.54	-53.7	-73.1	3.8	7.49e-01	0	23	104	0	75	34911
2026-01-12 03:52:16.21	242.89	6.47	-53.7	-73.1	3.8	7.46e-01	0	23	104	0	75	34888
2026-01-12 03:52:17.22	242.84	6.39	-53.7	-73.0	3.8	7.45e-01	0	23	104	0	75	34796
2026-01-12 03:52:18.23	242.78	6.31	-53.7	-73.0	3.8	7.46e-01	0	23	104	0	75	34759
2026-01-12 03:52:19.23	242.73	6.24	-53.7	-73.0	3.8	7.42e-01	0	23	104	0	75	34845
2026-01-12 03:52:20.25	242.68	6.16	-53.7	-73.0	3.8	7.44e-01	0	23	104	0	75	34839
2026-01-12 03:52:21.25	242.63	6.09	-53.7	-73.1	3.8	7.42e-01	0	23	104	0	75	34934
2026-01-12 03:52:22.26	242.57	6.01	-53.7	-73.0	3.8	7.45e-01	0	23	104	0	75	34763
2026-01-12 03:52:23.27	242.52	5.93	-53.7	-73.0	3.8	7.47e-01	0	23	104	0	75	34814
2026-01-12 03:52:24.28	242.47	5.86	-53.7	-73.1	3.8	7.44e-01	0	23	104	0	75	34957
2026-01-12 03:52:25.29	242.42	5.78	-53.7	-73.0	3.8	7.46e-01	0	23	104	0	75	34846
2026-01-12 03:52:26.30	242.37	5.71	-53.7	-73.0	3.8	7.48e-01	0	23	104	0	75	34788
2026-01-12 03:52:27.31	242.32	5.63	-53.7	-73.1	3.8	7.48e-01	0	23	104	0	75	34896
2026-01-12 03:52:28.32	242.27	5.56	-53.7	-73.1	3.8	7.48e-01	0	23	104	0	75	34932
2026-01-12 03:52:29.34	242.22	5.48	-53.7	-73.1	3.8	7.44e-01	0	23	104	0	75	34886
2026-01-12 03:52:30.35	242.17	5.41	-53.7	-73.0	3.8	7.46e-01	0	23	104	0	75	34821
2026-01-12 03:52:31.35	242.12	5.34	-53.7	-73.1	3.8	7.43e-01	0	23	104	0	75	34939
2026-01-12 03:52:32.35	242.07	5.26	-53.7	-73.1	3.8	7.43e-01	0	23	104	0	75	34909
2026-01-12 03:52:33.36	242.02	5.19	-53.7	-73.1	3.8	7.48e-01	0	23	104	0	75	34927
2026-01-12 03:52:34.37	241.97	5.12	-53.7	-73.1	3.8	7.48e-01	0	23	104	0	75	34896
2026-01-12 03:52:35.38	241.92	5.04	-53.7	-73.1	3.8	7.46e-01	0	23	104	0	75	34906
2026-01-12 03:52:36.39	241.87	4.97	-53.7	-73.0	3.8	7.48e-01	0	23	104	0	75	34867
2026-01-12 03:52:37.40	241.82	4.90	-53.7	-73.1	3.8	7.43e-01	0	23	104	0	75	34922
2026-01-12 03:52:38.41	241.78	4.83	-53.7	-73.0	3.8	7.44e-01	0	23	104	0	75	34857
2026-01-12 03:52:39.42	241.73	4.75	-53.7	-73.0	3.8	7.44e-01	0	23	104	0	75	34754
2026-01-12 03:52:40.42	241.68	4.68	-53.7	-73.0	3.8	7.42e-01	0	23	104	0	75	34867
2026-01-12 03:52:41.43	241.64	4.61	-53.7	-73.0	3.8	7.47e-01	0	23	104	0	75	34869
2026-01-12 03:52:42.43	241.59	4.54	-53.7	-73.1	3.8	7.48e-01	0	23	104	0	75	34915
2026-01-12 03:52:43.44	241.54	4.47	-53.7	-73.0	3.8	7.50e-01	0	23	104	0	75	34860
2026-01-12 03:52:44.45	241.50	4.40	-53.7	-73.1	3.8	7.48e-01	0	23	104	0	75	34997
2026-01-12 03:52:45.46	241.45	4.33	-53.7	-73.1	3.9	7.48e-01	0	23	104	0	75	34991
2026-01-12 03:52:46.47	241.41	4.25	-53.7	-73.1	3.8	7.46e-01	0	23	104	0	75	34934
2026-01-12 03:52:47.48	241.36	4.18	-53.7	-73.1	3.8	7.46e-01	0	23	104	0	75	34954
2026-01-12 03:52:48.48	241.32	4.11	-53.7	-73.1	3.8	7.45e-01	0	23	104	0	75	34986
2026-01-12 03:52:49.49	241.27	4.04	-53.7	-73.0	3.8	7.45e-01	0	23	104	0	75	34879
2026-01-12 03:52:50.50	241.23	3.97	-53.7	-73.1	3.8	7.44e-01	0	23	104	0	75	34970
2026-01-12 03:52:51.51	241.18	3.90	-53.7	-73.0	3.8	7.46e-01	0	23	104	0	75	34867
2026-01-12 03:52:52.52	241.14	3.83	-53.7	-73.0	3.8	7.44e-01	0	23	104	0	75	34811
2026-01-12 03:52:53.53	241.09	3.76	-53.7	-73.0	3.8	7.49e-01	0	23	104	0	75	34759
2026-01-12 03:52:54.54	241.05	3.70	-53.7	-73.0	3.8	7.44e-01	0	23	104	0	75	34843
2026-01-12 03:52:55.54	241.01	3.63	-53.7	-73.0	3.8	7.45e-01	0	23	104	0	75	34815
2026-01-12 03:52:56.55	240.97	3.56	-53.7	-73.0	3.8	7.45e-01	0	23	104	0	75	34852
2026-01-12 03:52:57.56	240.92	3.49	-53.7	-73.0	3.8	7.46e-01	0	23	104	0	75	34871
2026-01-12 03:52:58.57	240.88	3.42	-53.7	-73.1	3.8	7.46e-01	0	23	104	0	75	34916
2026-01-12 03:52:59.58	240.84	3.35	-53.7	-73.0	3.8	7.46e-01	0	23	104	0	75	34862
2026-01-12 03:53:00.59	240.80	3.28	-53.7	-73.0	3.8	7.48e-01	0	23	104	0	75	34861
2026-01-12 03:53:01.60	240.75	3.22	-53.7	-73.1	3.8	7.47e-01	0	23	104	0	75	34906
2026-01-12 03:53:02.60	240.71	3.15	-53.7	-73.1	3.8	7.46e-01	0	23	104	0	75	34954
2026-01-12 03:53:03.61	240.67	3.08	-53.7	-73.0	3.8	7.45e-01	0	23	104	0	75	34784
2026-01-12 03:53:04.62	240.63	3.01	-53.7	-73.0	3.8	7.48e-01	0	23	104	0	75	34868
2026-01-12 03:53:05.64	240.59	2.94	-53.7	-73.0	3.8	7.45e-01	0	23	104	0	75	34866
2026-01-12 03:53:06.64	240.55	2.88	-53.7	-73.0	3.8	7.45e-01	0	23	104	0	75	34766
2026-01-12 03:53:07.65	240.51	2.81	-53.7	-73.1	3.8	7.47e-01	0	23	104	0	75	34951
2026-01-12 03:53:08.66	240.47	2.74	-53.7	-73.1	3.8	7.47e-01	0	23	104	0	75	35008
2026-01-12 03:53:09.67	240.43	2.68	-53.7	-73.1	3.8	7.46e-01	0	23	104	0	75	34946
2026-01-12 03:53:10.68	240.39	2.61	-53.7	-73.1	3.8	7.43e-01	0	23	104	0	75	34931
2026-01-12 03:53:11.69	240.35	2.54	-53.7	-73.1	3.8	7.47e-01	0	23	104	0	75	34963
2026-01-12 03:53:12.70	240.31	2.48	-53.7	-73.0	3.8	7.46e-01	0	23	104	0	75	34855
2026-01-12 03:53:13.71	240.27	2.41	-53.7	-73.1	3.8	7.43e-01	0	23	104	0	75	34919
2026-01-12 03:53:14.72	240.23	2.34	-53.7	-73.1	3.8	7.46e-01	0	23	104	0	75	34956
2026-01-12 03:53:15.73	240.19	2.28	-53.7	-73.1	3.8	7.48e-01	0	23	104	0	75	34940
2026-01-12 03:53:16.73	240.15	2.21	-53.7	-73.1	3.8	7.47e-01	0	23	104	0	75	34884
2026-01-12 03:53:17.74	240.11	2.15	-53.7	-73.1	3.8	7.44e-01	0	23	104	0	75	35034
2026-01-12 03:53:18.75	240.08	2.08	-53.7	-73.1	3.8	7.50e-01	0	23	104	0	75	34921
2026-01-12 03:53:19.76	240.04	2.02	-53.7	-73.1	3.8	7.45e-01	0	23	104	0	75	34923
2026-01-12 03:53:20.77	240.00	1.95	-53.7	-73.0	3.8	7.47e-01	0	23	104	0	75	34843
2026-01-12 03:53:21.78	239.96	1.89	-53.7	-73.1	3.8	7.46e-01	0	23	104	0	75	34955

#Closed at: 2026-01-12 03:53:22
#Recorded file [0 MB]: D:/lorett/data/31004_260112_064058.dat