passes_logs/2026/01/12/R3.2S_Murmansk/R3.2S_Murmansk__20260112_084445_SUOMI_NPP_rec.log

#Pass ID: 20260112_084445_SUOMI NPP
#Satellite: SUOMI NPP
#Configuration: NPP
#almurnet v.1.7.20251203
#Start time: 2026-01-12 08:44:45

#Version: 2.2.20231116
#Station: R3.2S_Murmansk
#Location: 33.079688 lon 68.888172 lat
#TLE: 1 37849U 11061A   26011.57971124  .00000103  00000+0  69927-4 0  9996
#TLE: 2 37849  98.7807 313.6578 0002518  69.5076 290.6370 14.19524515736228

#Time	Az	El	Level	Level2	SNR	BER	BlckErr	Temp	State	Recorded	gain1	gain2
2026-01-12 08:44:45.56	131.63	2.01	-57.2	-73.1	3.8	1.49e+00	0	22	0	0	80	22681
2026-01-12 08:44:46.56	131.61	2.07	-57.1	-73.1	3.8	1.49e+00	0	22	104	0	79	23915
2026-01-12 08:44:47.55	131.59	2.13	-57.1	-73.1	3.8	1.49e+00	0	22	104	0	79	24020
2026-01-12 08:44:48.53	131.58	2.19	-57.1	-73.1	3.8	1.49e+00	0	22	104	0	79	24000
2026-01-12 08:44:49.53	131.56	2.26	-57.1	-73.1	3.8	1.49e+00	0	22	104	0	79	23977
2026-01-12 08:44:50.51	131.54	2.32	-57.1	-73.1	3.8	1.49e+00	0	22	104	0	79	23942
2026-01-12 08:44:51.51	131.52	2.39	-57.1	-73.1	3.8	1.49e+00	0	22	104	0	79	23955
2026-01-12 08:44:52.50	131.50	2.45	-57.1	-73.1	3.8	1.49e+00	0	22	104	0	79	24036
2026-01-12 08:44:53.48	131.48	2.51	-57.1	-73.1	3.8	1.49e+00	0	22	104	0	79	23998
2026-01-12 08:44:54.46	131.46	2.58	-57.1	-73.1	3.8	1.49e+00	0	22	104	0	79	23989
2026-01-12 08:44:55.45	131.44	2.64	-57.1	-73.1	3.8	1.49e+00	0	22	104	0	79	23913
2026-01-12 08:44:56.44	131.42	2.71	-57.1	-73.1	3.8	1.49e+00	0	22	104	0	79	23882
2026-01-12 08:44:57.42	131.40	2.77	-57.1	-73.0	3.8	1.49e+00	0	22	104	0	79	23829
2026-01-12 08:44:58.42	131.39	2.84	-57.1	-73.0	3.8	1.49e+00	0	22	104	0	79	23804
2026-01-12 08:44:59.41	131.37	2.90	-57.1	-73.0	3.8	1.49e+00	0	22	104	0	79	23686
2026-01-12 08:45:00.41	131.35	2.97	-57.1	-73.0	3.8	1.49e+00	0	22	104	0	79	23729
2026-01-12 08:45:01.40	131.33	3.03	-57.1	-72.9	3.8	1.49e+00	0	22	104	0	79	23554
2026-01-12 08:45:02.39	131.31	3.10	-57.1	-73.0	3.8	1.49e+00	0	22	104	0	79	23648
2026-01-12 08:45:03.38	131.29	3.16	-57.1	-72.9	3.8	1.49e+00	0	22	104	0	79	23533
2026-01-12 08:45:04.37	131.27	3.23	-57.1	-72.9	3.8	1.49e+00	0	22	104	0	79	23543
2026-01-12 08:45:05.36	131.24	3.29	-57.1	-72.9	3.8	1.49e+00	0	22	104	0	79	23525
2026-01-12 08:45:06.35	131.22	3.36	-57.1	-72.9	3.8	1.49e+00	0	22	104	0	79	23349
2026-01-12 08:45:07.34	131.20	3.43	-57.1	-72.8	3.8	1.49e+00	0	22	104	0	79	23143
2026-01-12 08:45:08.33	131.18	3.49	-57.1	-72.5	3.8	1.49e+00	0	22	104	0	79	22377
2026-01-12 08:45:09.32	131.16	3.56	-57.1	-71.7	3.8	1.49e+00	0	22	104	0	79	20436
2026-01-12 08:45:10.31	131.14	3.62	-57.0	-70.8	3.8	1.49e+00	0	22	104	0	79	18480
2026-01-12 08:45:11.30	131.12	3.69	-56.9	-69.1	4.3	1.45e+00	21	22	0	0	79	15115
2026-01-12 08:45:12.29	131.10	3.76	-56.9	-68.1	4.7	1.08e+00	0	22	0	1048576	79	13456
2026-01-12 08:45:13.28	131.08	3.83	-56.8	-67.2	5.1	6.22e-01	0	22	0	3145728	79	12170
2026-01-12 08:45:14.26	131.06	3.89	-56.7	-66.3	5.6	4.12e-01	0	22	0	5242880	79	11011
2026-01-12 08:45:15.25	131.04	3.96	-56.7	-66.0	5.9	3.41e-01	0	22	0	7340032	79	10580
2026-01-12 08:45:16.24	131.01	4.03	-56.6	-65.6	6.2	2.44e-01	0	22	0	8388608	79	10061
2026-01-12 08:45:17.22	130.99	4.09	-56.4	-64.4	7.1	1.28e-01	0	22	0	10485760	79	8813
2026-01-12 08:45:18.21	130.97	4.16	-56.3	-63.8	7.5	9.14e-02	0	22	0	12582912	79	8261
2026-01-12 08:45:19.19	130.95	4.23	-56.0	-62.4	8.8	3.76e-02	0	23	0	14680064	78	7408
2026-01-12 08:45:20.18	130.93	4.30	-55.7	-61.4	9.8	1.02e-02	0	22	0	15728640	78	6586
2026-01-12 08:45:21.17	130.91	4.37	-55.4	-60.6	10.4	1.64e-03	0	22	0	17825792	77	6349
2026-01-12 08:45:22.15	130.88	4.43	-55.3	-60.2	10.8	7.37e-04	0	22	0	19922944	77	6095
2026-01-12 08:45:23.15	130.86	4.50	-54.8	-59.0	11.7	1.16e-04	0	22	0	22020096	76	5630
2026-01-12 08:45:24.14	130.84	4.57	-54.4	-58.4	12.0	1.75e-05	0	23	0	23068672	75	5576
2026-01-12 08:45:25.12	130.82	4.64	-54.0	-57.6	12.5	1.50e-06	0	23	0	25165824	74	5371
2026-01-12 08:45:26.11	130.79	4.71	-53.8	-57.1	12.9	0.00e+00	0	23	0	27262976	74	5089
2026-01-12 08:45:27.11	130.77	4.78	-53.6	-56.8	13.0	0.00e+00	0	23	0	29360128	73	5182
2026-01-12 08:45:28.10	130.75	4.85	-53.5	-56.6	13.2	0.00e+00	0	22	0	30408704	73	5055
2026-01-12 08:45:29.10	130.72	4.92	-53.4	-56.5	13.2	0.00e+00	0	22	0	32505856	73	5019
2026-01-12 08:45:30.09	130.70	4.99	-53.5	-56.7	13.1	0.00e+00	0	23	0	34603008	73	5145
2026-01-12 08:45:31.08	130.68	5.06	-53.7	-57.1	12.8	0.00e+00	0	23	0	36700160	73	5358
2026-01-12 08:45:32.07	130.65	5.13	-54.2	-57.8	12.4	1.50e-06	0	23	0	38797312	73	5855
2026-01-12 08:45:33.05	130.63	5.20	-56.5	-64.5	7.1	1.80e-02	0	23	0	39845888	78	9454
2026-01-12 08:45:34.04	130.61	5.27	-53.1	-56.0	13.5	2.28e-05	0	23	0	41943040	72	5006
2026-01-12 08:45:35.03	130.58	5.34	-53.3	-56.2	13.3	0.00e+00	0	23	0	44040192	71	5439
2026-01-12 08:45:36.02	130.56	5.41	-56.4	-65.1	6.5	2.62e-02	0	23	0	46137344	77	10718
2026-01-12 08:45:37.01	130.53	5.48	-52.2	-54.6	14.3	1.22e-05	0	23	0	47185920	71	4537
2026-01-12 08:45:37.99	130.51	5.55	-52.3	-54.7	14.3	0.00e+00	0	23	0	49283072	71	4586
2026-01-12 08:45:38.99	130.49	5.63	-52.3	-54.7	14.3	0.00e+00	0	23	0	51380224	71	4575
2026-01-12 08:45:39.98	130.46	5.70	-52.2	-54.6	14.3	0.00e+00	0	23	0	53477376	71	4512
2026-01-12 08:45:40.97	130.44	5.77	-52.2	-54.6	14.3	0.00e+00	0	23	0	55574528	71	4538
2026-01-12 08:45:41.97	130.41	5.84	-52.3	-54.7	14.3	0.00e+00	0	23	0	56623104	71	4564
2026-01-12 08:45:42.96	130.39	5.92	-52.3	-54.7	14.3	0.00e+00	0	23	0	58720256	71	4590
2026-01-12 08:45:43.95	130.36	5.99	-52.1	-54.4	14.3	0.00e+00	0	23	0	60817408	70	4660
2026-01-12 08:45:44.94	130.34	6.06	-52.0	-54.3	14.4	0.00e+00	0	23	0	62914560	70	4628
2026-01-12 08:45:45.94	130.31	6.13	-52.1	-54.5	14.3	0.00e+00	0	23	0	63963136	70	4711
2026-01-12 08:45:46.93	130.29	6.21	-51.9	-54.2	14.5	0.00e+00	0	23	0	66060288	70	4562
2026-01-12 08:45:47.92	130.26	6.28	-52.1	-54.4	14.4	0.00e+00	0	23	0	68157440	70	4660
2026-01-12 08:45:48.90	130.23	6.35	-52.0	-54.3	14.4	0.00e+00	0	23	0	70254592	70	4611
2026-01-12 08:45:49.90	130.21	6.43	-52.1	-54.5	14.3	0.00e+00	0	23	0	71303168	70	4712
2026-01-12 08:45:50.89	130.18	6.50	-52.0	-54.3	14.4	0.00e+00	0	23	0	73400320	70	4632
2026-01-12 08:45:51.88	130.16	6.58	-52.0	-54.2	14.5	0.00e+00	0	23	0	75497472	70	4586
2026-01-12 08:45:52.88	130.13	6.65	-51.9	-54.1	14.5	0.00e+00	0	23	0	77594624	70	4534
2026-01-12 08:45:53.88	130.10	6.73	-51.9	-54.1	14.5	0.00e+00	0	23	0	79691776	70	4541
2026-01-12 08:45:54.87	130.08	6.80	-51.8	-54.0	14.6	0.00e+00	0	23	0	80740352	70	4452
2026-01-12 08:45:55.86	130.05	6.88	-51.9	-54.1	14.6	0.00e+00	0	23	0	82837504	70	4507
2026-01-12 08:45:56.85	130.02	6.95	-52.0	-54.2	14.5	0.00e+00	0	23	0	84934656	70	4568
2026-01-12 08:45:57.84	129.99	7.03	-52.0	-54.2	14.5	0.00e+00	0	23	0	87031808	70	4561
2026-01-12 08:45:58.83	129.97	7.10	-51.8	-54.0	14.6	0.00e+00	0	23	0	88080384	70	4460
2026-01-12 08:45:59.83	129.94	7.18	-51.8	-53.9	14.7	0.00e+00	0	23	0	90177536	70	4437
2026-01-12 08:46:00.82	129.91	7.26	-51.7	-53.8	14.7	0.00e+00	0	23	0	92274688	70	4386
2026-01-12 08:46:01.81	129.88	7.33	-51.7	-53.7	14.8	0.00e+00	0	23	0	94371840	70	4334
2026-01-12 08:46:02.81	129.86	7.41	-51.8	-53.8	14.7	0.00e+00	0	23	0	96468992	70	4387
2026-01-12 08:46:03.79	129.83	7.49	-51.6	-53.7	14.6	0.00e+00	0	23	0	97517568	69	4569
2026-01-12 08:46:04.78	129.80	7.56	-51.6	-53.7	14.7	0.00e+00	0	23	0	99614720	69	4579
2026-01-12 08:46:05.78	129.77	7.64	-51.5	-53.5	14.8	0.00e+00	0	23	0	101711872	69	4479
2026-01-12 08:46:06.77	129.74	7.72	-51.6	-53.6	14.7	0.00e+00	0	23	0	103809024	69	4518
2026-01-12 08:46:07.75	129.71	7.80	-51.7	-53.8	14.6	0.00e+00	0	23	0	104857600	69	4628
2026-01-12 08:46:08.73	129.69	7.87	-51.6	-53.7	14.7	0.00e+00	0	23	0	106954752	69	4555
2026-01-12 08:46:09.72	129.66	7.95	-51.7	-53.7	14.6	0.00e+00	0	23	0	109051904	69	4593
2026-01-12 08:46:10.72	129.63	8.03	-51.7	-53.8	14.6	0.00e+00	0	23	0	111149056	69	4638
2026-01-12 08:46:11.70	129.60	8.11	-51.8	-53.9	14.6	0.00e+00	0	23	0	112197632	69	4665
2026-01-12 08:46:12.69	129.57	8.19	-51.8	-53.9	14.5	0.00e+00	0	23	0	114294784	69	4696
2026-01-12 08:46:13.68	129.54	8.27	-51.8	-53.9	14.5	0.00e+00	0	23	0	116391936	69	4699
2026-01-12 08:46:14.67	129.51	8.34	-51.9	-54.0	14.5	0.00e+00	0	23	0	118489088	69	4721
2026-01-12 08:46:15.65	129.48	8.42	-51.7	-53.7	14.6	0.00e+00	0	23	0	120586240	69	4581
2026-01-12 08:46:16.64	129.45	8.50	-51.7	-53.8	14.6	0.00e+00	0	23	0	121634816	69	4602
2026-01-12 08:46:17.63	129.42	8.58	-51.6	-53.7	14.7	0.00e+00	0	23	0	123731968	69	4562
2026-01-12 08:46:18.61	129.39	8.66	-51.6	-53.6	14.7	0.00e+00	0	23	0	125829120	69	4507
2026-01-12 08:46:19.61	129.35	8.74	-51.5	-53.5	14.8	0.00e+00	0	23	0	127926272	69	4462
2026-01-12 08:46:20.60	129.32	8.82	-51.6	-53.6	14.7	0.00e+00	0	23	0	128974848	69	4517
2026-01-12 08:46:21.58	129.29	8.91	-51.7	-53.7	14.7	0.00e+00	0	23	0	131072000	69	4574
2026-01-12 08:46:22.57	129.26	8.99	-51.6	-53.6	14.7	0.00e+00	0	23	0	133169152	69	4545
2026-01-12 08:46:23.56	129.23	9.07	-51.6	-53.6	14.7	0.00e+00	0	23	0	135266304	69	4518
2026-01-12 08:46:24.55	129.20	9.15	-51.6	-53.6	14.7	0.00e+00	0	23	0	136314880	69	4522
2026-01-12 08:46:25.54	129.17	9.23	-51.5	-53.4	14.8	0.00e+00	0	23	0	138412032	69	4433
2026-01-12 08:46:26.54	129.13	9.32	-51.5	-53.5	14.8	0.00e+00	0	23	0	140509184	69	4473
2026-01-12 08:46:27.53	129.10	9.40	-51.5	-53.5	14.8	0.00e+00	0	23	0	142606336	69	4473
2026-01-12 08:46:28.52	129.07	9.48	-51.4	-53.4	14.9	0.00e+00	0	23	0	144703488	69	4402
2026-01-12 08:46:29.50	129.04	9.56	-51.5	-53.4	14.8	0.00e+00	0	23	0	145752064	69	4432
2026-01-12 08:46:30.49	129.00	9.65	-51.5	-53.4	14.8	0.00e+00	0	23	0	147849216	69	4432
2026-01-12 08:46:31.47	128.97	9.73	-51.5	-53.5	14.9	0.00e+00	0	23	0	149946368	69	4443
2026-01-12 08:46:32.47	128.94	9.81	-51.4	-53.3	14.9	0.00e+00	0	23	0	152043520	69	4373
2026-01-12 08:46:33.45	128.90	9.90	-51.4	-53.4	14.9	0.00e+00	0	23	0	153092096	69	4402
2026-01-12 08:46:34.44	128.87	9.98	-51.5	-53.4	14.9	0.00e+00	0	23	0	155189248	69	4432
2026-01-12 08:46:35.43	128.83	10.07	-51.3	-53.3	15.0	0.00e+00	0	23	0	157286400	69	4345
2026-01-12 08:46:36.42	128.80	10.15	-51.2	-53.1	15.1	0.00e+00	0	23	0	159383552	69	4256
2026-01-12 08:46:37.41	128.76	10.24	-51.4	-53.3	15.0	0.00e+00	0	23	0	161480704	69	4361
2026-01-12 08:46:38.41	128.73	10.32	-51.2	-53.1	15.1	0.00e+00	0	23	0	162529280	69	4263
2026-01-12 08:46:39.40	128.69	10.41	-51.3	-53.1	15.1	0.00e+00	0	23	0	164626432	69	4284
2026-01-12 08:46:40.39	128.66	10.50	-51.3	-53.2	15.0	0.00e+00	0	23	0	166723584	69	4308
2026-01-12 08:46:41.37	128.62	10.58	-51.4	-53.3	15.0	0.00e+00	0	23	0	168820736	69	4374
2026-01-12 08:46:42.36	128.59	10.67	-51.4	-53.3	15.0	0.00e+00	0	23	0	169869312	69	4351
2026-01-12 08:46:43.35	128.55	10.76	-51.3	-53.2	15.0	0.00e+00	0	23	0	171966464	69	4304
2026-01-12 08:46:44.34	128.52	10.84	-51.4	-53.3	15.0	0.00e+00	0	23	0	174063616	69	4374
2026-01-12 08:46:45.34	128.48	10.93	-51.3	-53.2	15.0	0.00e+00	0	23	0	176160768	69	4301
2026-01-12 08:46:46.32	128.44	11.02	-51.4	-53.3	15.0	0.00e+00	0	23	0	177209344	69	4354
2026-01-12 08:46:47.32	128.41	11.11	-51.4	-53.3	15.0	0.00e+00	0	23	0	179306496	69	4352
2026-01-12 08:46:48.31	128.37	11.20	-51.2	-53.1	15.1	0.00e+00	0	23	0	181403648	69	4244
2026-01-12 08:46:49.30	128.33	11.28	-51.1	-52.9	15.0	0.00e+00	0	23	0	183500800	68	4426
2026-01-12 08:46:50.30	128.29	11.37	-51.1	-53.0	14.9	0.00e+00	0	23	0	184549376	68	4466
2026-01-12 08:46:51.30	128.25	11.47	-51.0	-52.8	15.0	0.00e+00	0	23	0	186646528	68	4391
2026-01-12 08:46:52.28	128.22	11.55	-51.0	-52.8	15.1	0.00e+00	0	23	0	188743680	68	4377
2026-01-12 08:46:53.28	128.18	11.65	-51.1	-52.9	15.0	0.00e+00	0	23	0	190840832	68	4403
2026-01-12 08:46:54.27	128.14	11.74	-51.2	-53.0	15.0	0.00e+00	0	23	0	192937984	68	4488
2026-01-12 08:46:55.27	128.10	11.83	-51.0	-52.8	15.1	0.00e+00	0	23	0	193986560	68	4354
2026-01-12 08:46:56.26	128.06	11.92	-50.8	-52.6	15.2	0.00e+00	0	23	0	196083712	68	4253
2026-01-12 08:46:57.25	128.02	12.01	-51.1	-52.9	15.0	0.00e+00	0	23	0	198180864	68	4404
2026-01-12 08:46:58.24	127.98	12.10	-51.0	-52.7	15.1	0.00e+00	0	23	0	200278016	68	4340
2026-01-12 08:46:59.24	127.94	12.19	-51.0	-52.7	15.1	0.00e+00	0	23	0	201326592	68	4339
2026-01-12 08:47:00.22	127.90	12.29	-51.0	-52.8	15.1	0.00e+00	0	23	0	203423744	68	4384
2026-01-12 08:47:01.21	127.86	12.38	-51.1	-52.9	15.0	0.00e+00	0	23	0	205520896	68	4431
2026-01-12 08:47:02.21	127.82	12.47	-50.8	-52.8	15.1	0.00e+00	0	23	0	207618048	68	4378
2026-01-12 08:47:03.20	127.78	12.57	-51.0	-53.0	15.0	0.00e+00	0	23	0	209715200	68	4469
2026-01-12 08:47:04.19	127.74	12.66	-51.0	-53.0	15.0	0.00e+00	0	23	0	210763776	68	4461
2026-01-12 08:47:05.19	127.69	12.76	-51.0	-53.0	15.0	0.00e+00	0	23	0	212860928	68	4459
2026-01-12 08:47:06.18	127.65	12.85	-51.0	-53.0	15.0	0.00e+00	0	23	0	214958080	68	4464
2026-01-12 08:47:07.17	127.61	12.94	-50.8	-52.8	15.1	0.00e+00	0	23	0	217055232	68	4351
2026-01-12 08:47:08.16	127.57	13.04	-50.4	-52.3	15.2	0.00e+00	0	23	0	218103808	67	4387
2026-01-12 08:47:09.15	127.52	13.14	-50.5	-52.4	15.1	0.00e+00	0	23	0	220200960	67	4439
2026-01-12 08:47:10.14	127.48	13.23	-50.5	-52.5	15.1	0.00e+00	0	23	0	222298112	67	4462
2026-01-12 08:47:11.13	127.44	13.33	-50.6	-52.5	15.1	0.00e+00	0	23	0	224395264	67	4487
2026-01-12 08:47:12.12	127.39	13.42	-50.4	-52.3	15.2	0.00e+00	0	23	0	226492416	67	4384
2026-01-12 08:47:13.12	127.35	13.52	-50.5	-52.4	15.2	0.00e+00	0	23	0	227540992	67	4421
2026-01-12 08:47:14.11	127.31	13.62	-50.5	-52.5	15.1	0.00e+00	0	23	0	229638144	67	4443
2026-01-12 08:47:15.10	127.26	13.72	-50.5	-52.4	15.2	0.00e+00	0	23	0	231735296	67	4417
2026-01-12 08:47:16.10	127.22	13.82	-50.4	-52.3	15.2	0.00e+00	0	23	0	233832448	67	4386
2026-01-12 08:47:17.08	127.17	13.91	-50.5	-52.5	15.1	0.00e+00	0	23	0	234881024	67	4465
2026-01-12 08:47:18.08	127.12	14.01	-50.6	-52.6	15.1	0.00e+00	0	23	0	236978176	67	4512
2026-01-12 08:47:19.07	127.08	14.11	-50.5	-52.5	15.1	0.00e+00	0	23	0	239075328	67	4463
2026-01-12 08:47:20.06	127.03	14.21	-50.6	-52.5	15.1	0.00e+00	0	23	0	241172480	67	4490
2026-01-12 08:47:21.05	126.99	14.31	-50.5	-52.5	15.1	0.00e+00	0	23	0	242221056	67	4472
2026-01-12 08:47:22.04	126.94	14.41	-50.4	-52.3	15.2	0.00e+00	0	23	0	244318208	67	4378
2026-01-12 08:47:23.03	126.89	14.51	-50.5	-52.4	15.2	0.00e+00	0	23	0	246415360	67	4433
2026-01-12 08:47:24.02	126.84	14.62	-50.3	-52.2	15.3	0.00e+00	0	23	0	248512512	67	4330
2026-01-12 08:47:25.00	126.80	14.72	-50.3	-52.1	15.3	0.00e+00	0	23	0	250609664	67	4287
2026-01-12 08:47:25.99	126.75	14.82	-50.2	-52.1	15.2	0.00e+00	0	23	0	251658240	66	4513
2026-01-12 08:47:26.98	126.70	14.92	-50.2	-52.0	15.2	0.00e+00	0	23	0	253755392	66	4486
2026-01-12 08:47:27.97	126.65	15.02	-50.1	-51.9	15.3	0.00e+00	0	23	0	255852544	66	4408
2026-01-12 08:47:28.96	126.60	15.13	-50.2	-52.1	15.2	0.00e+00	0	23	0	257949696	66	4507
2026-01-12 08:47:29.94	126.55	15.23	-50.3	-52.2	15.1	0.00e+00	0	23	0	258998272	66	4550
2026-01-12 08:47:30.93	126.50	15.33	-50.2	-52.0	15.2	0.00e+00	0	23	0	261095424	66	4483
2026-01-12 08:47:31.92	126.45	15.44	-50.2	-52.0	15.2	0.00e+00	0	23	0	263192576	66	4491
2026-01-12 08:47:32.91	126.40	15.54	-50.3	-52.2	15.1	0.00e+00	0	23	0	265289728	66	4581
2026-01-12 08:47:33.89	126.35	15.65	-50.4	-52.3	15.1	0.00e+00	0	23	0	266338304	66	4601
2026-01-12 08:47:34.88	126.30	15.75	-50.2	-52.1	15.2	0.00e+00	0	23	0	268435456	66	4510
2026-01-12 08:47:35.87	126.24	15.86	-50.2	-52.1	15.2	0.00e+00	0	23	0	270532608	66	4514
2026-01-12 08:47:36.86	126.19	15.97	-50.3	-52.1	15.1	0.00e+00	0	23	0	272629760	66	4524
2026-01-12 08:47:37.85	126.14	16.07	-50.3	-52.1	15.1	0.00e+00	0	23	0	274726912	66	4523
2026-01-12 08:47:38.84	126.09	16.18	-50.2	-52.0	15.2	0.00e+00	0	23	0	275775488	66	4468
2026-01-12 08:47:39.84	126.03	16.29	-50.3	-52.2	15.1	0.00e+00	0	23	0	277872640	66	4550
2026-01-12 08:47:40.83	125.98	16.40	-50.3	-52.1	15.2	0.00e+00	0	23	0	279969792	66	4509
2026-01-12 08:47:41.82	125.92	16.51	-50.2	-52.0	15.2	0.00e+00	0	23	0	282066944	66	4458
2026-01-12 08:47:42.82	125.87	16.62	-50.1	-51.8	15.3	0.00e+00	0	23	0	283115520	66	4377
2026-01-12 08:47:43.82	125.81	16.73	-50.0	-51.7	15.4	0.00e+00	0	23	0	285212672	66	4307
2026-01-12 08:47:44.81	125.76	16.84	-50.2	-52.0	15.2	0.00e+00	0	23	0	287309824	66	4458
2026-01-12 08:47:45.80	125.70	16.95	-50.2	-52.1	15.2	0.00e+00	0	23	0	289406976	66	4496
2026-01-12 08:47:46.80	125.64	17.06	-49.9	-51.6	15.4	0.00e+00	0	23	0	291504128	66	4289
2026-01-12 08:47:47.79	125.59	17.17	-50.1	-51.8	15.3	0.00e+00	0	23	0	292552704	66	4386
2026-01-12 08:47:48.78	125.53	17.29	-50.1	-51.8	15.3	0.00e+00	0	23	0	294649856	66	4391
2026-01-12 08:47:49.77	125.47	17.40	-50.1	-51.8	15.3	0.00e+00	0	23	0	296747008	66	4383
2026-01-12 08:47:50.75	125.41	17.51	-50.1	-51.9	15.3	0.00e+00	0	23	0	298844160	66	4400
2026-01-12 08:47:51.73	125.35	17.62	-50.0	-51.8	15.3	0.00e+00	0	23	0	299892736	66	4341
2026-01-12 08:47:52.73	125.29	17.74	-50.1	-51.9	15.3	0.00e+00	0	23	0	301989888	66	4423
2026-01-12 08:47:53.71	125.23	17.85	-50.3	-52.1	15.2	0.00e+00	0	23	0	304087040	66	4496
2026-01-12 08:47:54.69	125.17	17.97	-50.2	-52.0	15.3	0.00e+00	0	23	0	306184192	66	4446
2026-01-12 08:47:55.68	125.11	18.08	-50.4	-52.2	15.1	0.00e+00	0	23	0	307232768	66	4565
2026-01-12 08:47:56.67	125.05	18.20	-50.2	-52.0	15.2	0.00e+00	0	23	0	309329920	66	4479
2026-01-12 08:47:57.67	124.99	18.32	-50.4	-52.3	15.1	0.00e+00	0	23	0	311427072	66	4626
2026-01-12 08:47:58.65	124.93	18.43	-50.5	-52.4	15.1	0.00e+00	0	23	0	313524224	66	4658
2026-01-12 08:47:59.63	124.87	18.55	-50.3	-52.1	15.2	0.00e+00	0	23	0	314572800	66	4515
2026-01-12 08:48:00.63	124.80	18.67	-50.3	-52.1	15.2	0.00e+00	0	23	0	316669952	66	4535
2026-01-12 08:48:01.62	124.74	18.79	-50.4	-52.3	15.1	0.00e+00	0	23	0	318767104	66	4611
2026-01-12 08:48:02.61	124.67	18.91	-50.0	-51.8	15.3	0.00e+00	0	23	0	320864256	66	4365
2026-01-12 08:48:03.59	124.61	19.03	-50.2	-52.1	15.2	0.00e+00	0	23	0	322961408	66	4505
2026-01-12 08:48:04.59	124.54	19.15	-50.3	-52.2	15.2	0.00e+00	0	23	0	324009984	66	4562
2026-01-12 08:48:05.58	124.48	19.27	-50.3	-52.2	15.1	0.00e+00	0	23	0	326107136	66	4572
2026-01-12 08:48:06.57	124.41	19.39	-50.3	-52.1	15.2	0.00e+00	0	23	0	328204288	66	4526
2026-01-12 08:48:07.56	124.34	19.51	-50.4	-52.3	15.1	0.00e+00	0	23	0	330301440	66	4620
2026-01-12 08:48:08.54	124.28	19.63	-50.3	-52.1	15.2	0.00e+00	0	23	0	331350016	66	4544
2026-01-12 08:48:09.54	124.21	19.76	-50.3	-52.2	15.2	0.00e+00	0	23	0	333447168	66	4550
2026-01-12 08:48:10.53	124.14	19.88	-50.0	-51.8	15.3	0.00e+00	0	23	0	335544320	66	4377
2026-01-12 08:48:11.52	124.07	20.01	-50.3	-52.1	15.2	0.00e+00	0	23	0	337641472	66	4537
2026-01-12 08:48:12.51	124.00	20.13	-50.3	-52.1	15.2	0.00e+00	0	23	0	339738624	66	4518
2026-01-12 08:48:13.49	123.93	20.26	-50.2	-52.1	15.2	0.00e+00	0	23	0	340787200	66	4496
2026-01-12 08:48:14.48	123.86	20.38	-50.2	-52.0	15.2	0.00e+00	0	23	0	342884352	66	4465
2026-01-12 08:48:15.47	123.79	20.51	-50.4	-52.3	15.1	0.00e+00	0	23	0	344981504	66	4621
2026-01-12 08:48:16.45	123.71	20.63	-50.3	-52.2	15.1	0.00e+00	0	23	0	347078656	66	4565
2026-01-12 08:48:17.44	123.64	20.76	-50.5	-52.4	15.1	0.00e+00	0	23	0	348127232	66	4653
2026-01-12 08:48:18.42	123.57	20.89	-50.3	-52.2	15.2	0.00e+00	0	23	0	350224384	66	4568
2026-01-12 08:48:19.41	123.49	21.02	-50.7	-52.6	15.0	0.00e+00	0	23	0	352321536	66	4798
2026-01-12 08:48:20.41	123.42	21.15	-50.7	-52.7	14.9	0.00e+00	0	23	0	354418688	66	4846
2026-01-12 08:48:21.40	123.34	21.28	-50.6	-52.5	15.0	0.00e+00	0	23	0	355467264	66	4744
2026-01-12 08:48:22.38	123.27	21.41	-50.9	-53.0	14.9	0.00e+00	0	23	0	357564416	67	4715
2026-01-12 08:48:23.37	123.19	21.54	-51.0	-53.0	14.9	0.00e+00	0	23	0	359661568	67	4747
2026-01-12 08:48:24.36	123.11	21.67	-50.8	-52.8	15.0	0.00e+00	0	23	0	361758720	67	4626
2026-01-12 08:48:25.35	123.03	21.81	-50.7	-52.7	15.1	0.00e+00	0	23	0	362807296	67	4548
2026-01-12 08:48:26.34	122.96	21.94	-50.7	-52.6	15.1	0.00e+00	0	23	0	364904448	67	4524
2026-01-12 08:48:27.34	122.87	22.08	-50.6	-52.5	15.2	0.00e+00	0	23	0	367001600	67	4458
2026-01-12 08:48:28.32	122.80	22.21	-50.6	-52.5	15.2	0.00e+00	0	23	0	369098752	67	4488
2026-01-12 08:48:29.31	122.71	22.34	-50.5	-52.4	15.3	0.00e+00	0	23	0	371195904	67	4401
2026-01-12 08:48:30.30	122.63	22.48	-50.8	-52.7	15.1	0.00e+00	0	23	0	372244480	67	4570
2026-01-12 08:48:31.29	122.55	22.62	-50.7	-52.6	15.1	0.00e+00	0	23	0	374341632	67	4531
2026-01-12 08:48:32.28	122.47	22.75	-50.9	-52.9	15.0	0.00e+00	0	23	0	376438784	67	4670
2026-01-12 08:48:33.28	122.38	22.89	-50.9	-52.9	14.9	0.00e+00	0	23	0	378535936	67	4703
2026-01-12 08:48:34.26	122.30	23.03	-50.9	-52.9	14.9	0.00e+00	0	23	0	379584512	67	4676
2026-01-12 08:48:35.25	122.21	23.17	-50.9	-52.9	15.0	0.00e+00	0	23	0	381681664	67	4697
2026-01-12 08:48:36.23	122.12	23.31	-51.2	-53.3	14.7	0.00e+00	0	23	0	383778816	67	4921
2026-01-12 08:48:37.22	122.04	23.45	-50.9	-52.8	15.0	0.00e+00	0	23	0	385875968	67	4633
2026-01-12 08:48:38.20	121.95	23.59	-51.3	-53.4	14.7	0.00e+00	0	23	0	386924544	67	4968
2026-01-12 08:48:39.20	121.86	23.73	-51.4	-53.5	14.7	0.00e+00	0	23	0	389021696	67	4986
2026-01-12 08:48:40.19	121.77	23.88	-51.6	-53.8	14.7	0.00e+00	0	23	0	391118848	68	4880
2026-01-12 08:48:41.18	121.68	24.02	-51.5	-53.7	14.8	0.00e+00	0	23	0	393216000	68	4834
2026-01-12 08:48:42.17	121.59	24.16	-51.6	-53.8	14.7	0.00e+00	0	23	0	395313152	68	4876
2026-01-12 08:48:43.15	121.50	24.31	-51.7	-53.9	14.7	0.00e+00	0	23	0	396361728	68	4966
2026-01-12 08:48:44.15	121.40	24.45	-51.8	-54.0	14.6	0.00e+00	0	23	0	398458880	68	5021
2026-01-12 08:48:45.14	121.31	24.60	-51.7	-53.9	14.8	0.00e+00	0	23	0	400556032	69	4670
2026-01-12 08:48:46.12	121.21	24.75	-51.9	-54.2	14.6	0.00e+00	0	23	0	402653184	69	4841
2026-01-12 08:48:47.12	121.12	24.90	-51.9	-54.3	14.5	0.00e+00	0	23	0	403701760	69	4902
2026-01-12 08:48:48.11	121.02	25.04	-51.8	-54.1	14.7	0.00e+00	0	23	0	405798912	69	4800
2026-01-12 08:48:49.10	120.92	25.19	-51.8	-54.0	14.7	0.00e+00	0	23	0	407896064	69	4752
2026-01-12 08:48:50.10	120.82	25.35	-51.7	-54.0	14.8	0.00e+00	0	23	0	409993216	69	4735
2026-01-12 08:48:51.08	120.72	25.50	-51.8	-54.0	14.8	0.00e+00	0	23	0	411041792	69	4744
2026-01-12 08:48:52.08	120.62	25.65	-51.8	-54.0	14.8	0.00e+00	0	23	0	413138944	69	4746
2026-01-12 08:48:53.07	120.52	25.80	-51.6	-53.8	14.9	0.00e+00	0	23	0	415236096	69	4602
2026-01-12 08:48:54.06	120.42	25.95	-51.9	-54.2	14.7	0.00e+00	0	23	0	417333248	69	4842
2026-01-12 08:48:55.05	120.31	26.11	-52.0	-54.2	14.7	0.00e+00	0	23	0	419430400	69	4833
2026-01-12 08:48:56.04	120.21	26.26	-51.7	-53.8	14.9	0.00e+00	0	23	0	420478976	69	4610
2026-01-12 08:48:57.02	120.10	26.42	-51.9	-54.2	14.6	0.00e+00	0	23	0	422576128	69	4821
2026-01-12 08:48:58.01	119.99	26.57	-52.0	-54.2	14.6	0.00e+00	0	23	0	424673280	69	4849
2026-01-12 08:48:59.00	119.89	26.73	-52.1	-54.3	14.6	0.00e+00	0	23	0	426770432	69	4915
2026-01-12 08:48:59.98	119.78	26.89	-52.0	-54.2	14.6	0.00e+00	0	23	0	427819008	69	4870
2026-01-12 08:49:00.98	119.67	27.05	-52.2	-54.5	14.5	0.00e+00	0	23	0	429916160	69	4996
2026-01-12 08:49:01.97	119.56	27.21	-52.2	-54.4	14.7	0.00e+00	0	23	0	432013312	70	4679
2026-01-12 08:49:02.96	119.44	27.37	-52.2	-54.4	14.7	0.00e+00	0	23	0	434110464	70	4672
2026-01-12 08:49:03.94	119.33	27.53	-52.1	-54.3	14.8	0.00e+00	0	23	0	435159040	70	4625
2026-01-12 08:49:04.93	119.21	27.69	-52.2	-54.4	14.6	0.00e+00	0	23	0	437256192	70	4661
2026-01-12 08:49:05.92	119.10	27.85	-52.1	-54.4	14.7	0.00e+00	0	23	0	439353344	70	4659
2026-01-12 08:49:06.91	118.98	28.01	-52.3	-54.5	14.6	0.00e+00	0	23	0	441450496	70	4745
2026-01-12 08:49:07.89	118.86	28.18	-52.3	-54.5	14.6	0.00e+00	0	23	0	443547648	70	4753
2026-01-12 08:49:08.89	118.74	28.34	-52.1	-54.3	14.8	0.00e+00	0	23	0	444596224	70	4636
2026-01-12 08:49:09.88	118.62	28.51	-52.5	-54.8	14.4	0.00e+00	0	23	0	446693376	70	4926
2026-01-12 08:49:10.87	118.50	28.68	-52.5	-54.8	14.5	0.00e+00	0	23	0	448790528	70	4919
2026-01-12 08:49:11.87	118.37	28.85	-52.3	-54.6	14.6	0.00e+00	0	23	0	450887680	70	4774
2026-01-12 08:49:12.86	118.25	29.01	-52.7	-55.2	14.2	0.00e+00	0	23	0	451936256	70	5132
2026-01-12 08:49:13.85	118.12	29.18	-52.8	-55.4	14.3	0.00e+00	0	23	0	454033408	71	4959
2026-01-12 08:49:14.83	117.99	29.35	-52.9	-55.4	14.3	0.00e+00	0	23	0	456130560	71	4978
2026-01-12 08:49:15.82	117.87	29.52	-52.8	-55.4	14.3	0.00e+00	0	23	0	458227712	71	4959
2026-01-12 08:49:16.82	117.73	29.70	-52.4	-54.7	14.7	0.00e+00	0	23	0	460324864	71	4577
2026-01-12 08:49:17.81	117.60	29.87	-52.6	-55.0	14.6	0.00e+00	0	23	0	461373440	71	4727
2026-01-12 08:49:18.81	117.47	30.05	-52.3	-54.6	14.7	0.00e+00	0	23	0	463470592	71	4522
2026-01-12 08:49:19.81	117.33	30.22	-51.8	-53.9	15.0	0.00e+00	0	23	0	465567744	70	4396
2026-01-12 08:49:20.80	117.19	30.40	-52.0	-54.2	14.8	0.00e+00	0	23	0	467664896	70	4558
2026-01-12 08:49:21.80	117.05	30.58	-52.3	-54.5	14.7	0.00e+00	0	23	0	468713472	70	4715
2026-01-12 08:49:22.79	116.91	30.75	-52.3	-54.4	14.7	0.00e+00	0	23	0	470810624	70	4703
2026-01-12 08:49:23.78	116.77	30.93	-52.2	-54.4	14.7	0.00e+00	0	23	0	472907776	70	4666
2026-01-12 08:49:24.77	116.63	31.11	-52.2	-54.4	14.7	0.00e+00	0	23	0	475004928	70	4664
2026-01-12 08:49:25.77	116.48	31.29	-52.1	-54.2	14.6	0.00e+00	0	23	0	477102080	69	4864
2026-01-12 08:49:26.76	116.34	31.47	-52.0	-54.1	14.7	0.00e+00	0	23	0	478150656	69	4803
2026-01-12 08:49:27.75	116.19	31.66	-51.6	-53.7	14.9	0.00e+00	0	23	0	480247808	69	4546
2026-01-12 08:49:28.75	116.04	31.84	-52.2	-54.4	14.6	0.00e+00	0	23	0	482344960	69	4928
2026-01-12 08:49:29.74	115.89	32.03	-52.2	-54.4	14.6	0.00e+00	0	23	0	484442112	69	4947
2026-01-12 08:49:30.73	115.73	32.21	-52.4	-54.7	14.4	0.00e+00	0	23	0	485490688	69	5114
2026-01-12 08:49:31.73	115.58	32.40	-52.7	-55.1	14.3	0.00e+00	0	23	0	487587840	70	5073
2026-01-12 08:49:32.72	115.42	32.58	-52.9	-55.5	14.1	0.00e+00	0	23	0	489684992	70	5299
2026-01-12 08:49:33.71	115.26	32.77	-53.3	-56.1	13.9	0.00e+00	0	23	0	491782144	71	5355
2026-01-12 08:49:34.70	115.10	32.96	-53.3	-56.1	13.9	0.00e+00	0	23	0	492830720	71	5370
2026-01-12 08:49:35.70	114.94	33.15	-53.1	-55.8	14.0	0.00e+00	0	23	0	494927872	71	5168
2026-01-12 08:49:36.70	114.77	33.34	-53.5	-56.5	13.7	0.00e+00	0	23	0	497025024	72	5285
2026-01-12 08:49:37.69	114.60	33.53	-53.3	-56.2	14.0	0.00e+00	0	23	0	499122176	72	5130
2026-01-12 08:49:38.67	114.44	33.72	-53.0	-55.7	14.2	0.00e+00	0	23	0	501219328	72	4849
2026-01-12 08:49:39.67	114.26	33.92	-52.8	-55.6	14.3	0.00e+00	0	23	0	502267904	72	4771
2026-01-12 08:49:40.66	114.09	34.11	-52.8	-55.7	14.4	0.00e+00	0	23	0	504365056	72	4822
2026-01-12 08:49:41.65	113.92	34.31	-52.8	-55.6	14.2	0.00e+00	0	23	0	506462208	71	5094
2026-01-12 08:49:42.65	113.74	34.50	-52.8	-55.8	14.1	0.00e+00	0	23	0	508559360	71	5215
2026-01-12 08:49:43.65	113.56	34.70	-53.0	-56.2	13.8	0.00e+00	0	23	0	509607936	71	5450
2026-01-12 08:49:44.64	113.38	34.90	-53.2	-56.5	13.7	0.00e+00	0	23	0	511705088	71	5632
2026-01-12 08:49:45.63	113.19	35.10	-53.2	-56.5	13.7	0.00e+00	0	23	0	513802240	71	5633
2026-01-12 08:49:46.63	113.01	35.30	-53.2	-56.4	13.8	0.00e+00	0	23	0	515899392	71	5533
2026-01-12 08:49:47.63	112.82	35.50	-53.3	-56.5	13.7	0.00e+00	0	23	0	517996544	71	5614
2026-01-12 08:49:48.63	112.62	35.71	-53.5	-56.9	13.5	0.00e+00	0	23	0	519045120	72	5568
2026-01-12 08:49:49.63	112.43	35.91	-54.1	-57.9	13.0	0.00e+00	0	23	0	521142272	73	5895
2026-01-12 08:49:50.63	112.23	36.11	-54.2	-58.1	12.9	0.00e+00	0	23	0	523239424	73	6012
2026-01-12 08:49:51.62	112.03	36.32	-54.4	-58.5	12.7	0.00e+00	0	23	0	525336576	74	5927
2026-01-12 08:49:52.61	111.83	36.52	-54.7	-59.1	12.2	5.30e-06	0	23	0	527433728	74	6396
2026-01-12 08:49:53.60	111.63	36.73	-54.7	-59.0	12.3	6.10e-06	0	23	0	528482304	74	6345
2026-01-12 08:49:54.60	111.42	36.94	-54.7	-59.0	12.4	1.50e-06	0	23	0	530579456	74	6280
2026-01-12 08:49:55.60	111.21	37.15	-54.6	-58.7	12.5	1.50e-06	0	23	0	532676608	74	6083
2026-01-12 08:49:56.59	111.00	37.35	-54.2	-58.0	13.0	2.20e-06	0	23	0	534773760	74	5599
2026-01-12 08:49:57.59	110.79	37.57	-53.5	-56.9	13.7	0.00e+00	0	23	0	535822336	73	5252
2026-01-12 08:49:58.58	110.57	37.78	-52.9	-55.9	14.1	0.00e+00	0	23	0	537919488	72	4978
2026-01-12 08:49:59.57	110.35	37.99	-52.8	-55.6	14.4	0.00e+00	0	23	0	540016640	72	4804
2026-01-12 08:50:00.58	110.12	38.20	-52.5	-55.3	14.4	0.00e+00	0	23	0	542113792	71	4890
2026-01-12 08:50:01.57	109.90	38.41	-52.6	-55.4	14.3	0.00e+00	0	23	0	544210944	71	4962
2026-01-12 08:50:02.57	109.67	38.63	-53.3	-56.6	13.5	0.00e+00	0	23	0	545259520	71	5707
2026-01-12 08:50:03.56	109.44	38.84	-53.3	-56.7	13.5	0.00e+00	0	23	0	547356672	71	5737
2026-01-12 08:50:04.55	109.20	39.06	-53.4	-56.7	13.6	0.00e+00	0	23	0	549453824	71	5733
2026-01-12 08:50:05.55	108.96	39.28	-53.4	-56.6	13.7	0.00e+00	0	23	0	551550976	72	5381
2026-01-12 08:50:06.54	108.72	39.49	-53.4	-56.6	13.7	0.00e+00	0	23	0	552599552	72	5381
2026-01-12 08:50:07.52	108.48	39.71	-53.5	-56.9	13.6	0.00e+00	0	23	0	554696704	72	5547
2026-01-12 08:50:08.51	108.23	39.93	-53.8	-57.4	13.3	0.00e+00	0	23	0	556793856	73	5559
2026-01-12 08:50:09.51	107.98	40.15	-54.2	-58.3	12.7	0.00e+00	0	23	0	558891008	73	6175
2026-01-12 08:50:10.50	107.72	40.37	-54.2	-58.5	12.5	0.00e+00	0	23	0	559939584	73	6309
2026-01-12 08:50:11.49	107.47	40.59	-54.3	-58.5	12.6	0.00e+00	0	23	0	562036736	73	6314
2026-01-12 08:50:12.48	107.21	40.81	-54.5	-58.9	12.4	4.50e-06	0	23	0	564133888	74	6250
2026-01-12 08:50:13.48	106.94	41.03	-54.4	-58.5	12.6	0.00e+00	0	23	0	566231040	74	5973
2026-01-12 08:50:14.48	106.67	41.25	-54.9	-59.6	11.8	2.20e-06	0	23	0	568328192	74	6740
2026-01-12 08:50:15.47	106.39	41.48	-55.0	-59.8	11.7	4.34e-05	0	23	0	569376768	75	6547
2026-01-12 08:50:16.45	106.12	41.70	-55.2	-60.3	11.4	1.60e-05	0	23	0	571473920	75	6894
2026-01-12 08:50:17.45	105.84	41.92	-55.1	-60.1	11.5	4.88e-05	0	23	0	573571072	75	6793
2026-01-12 08:50:18.45	105.55	42.15	-54.1	-57.7	13.3	1.22e-05	0	23	0	575668224	74	5426
2026-01-12 08:50:19.45	105.26	42.38	-54.2	-58.4	12.7	7.00e-07	0	23	0	576716800	74	5875
2026-01-12 08:50:20.44	104.97	42.60	-54.2	-58.5	12.6	7.00e-07	0	23	0	578813952	74	5989
2026-01-12 08:50:21.44	104.67	42.83	-54.1	-58.4	12.7	1.50e-06	0	23	0	580911104	74	5876
2026-01-12 08:50:22.43	104.37	43.06	-54.1	-58.1	12.9	0.00e+00	0	23	0	583008256	74	5694
2026-01-12 08:50:23.43	104.06	43.29	-54.0	-57.7	13.3	0.00e+00	0	23	0	585105408	74	5445
2026-01-12 08:50:24.43	103.75	43.52	-53.4	-56.6	13.9	0.00e+00	0	23	0	586153984	73	5060
2026-01-12 08:50:25.42	103.43	43.74	-53.0	-55.8	14.2	0.00e+00	0	23	0	588251136	72	4924
2026-01-12 08:50:26.41	103.11	43.97	-52.8	-55.5	14.4	0.00e+00	0	23	0	590348288	72	4759
2026-01-12 08:50:27.41	102.79	44.20	-52.9	-55.6	14.4	0.00e+00	0	23	0	592445440	72	4781
2026-01-12 08:50:28.40	102.46	44.43	-52.9	-55.7	14.4	0.00e+00	0	23	0	593494016	72	4849
2026-01-12 08:50:29.39	102.13	44.66	-52.3	-54.9	14.7	0.00e+00	0	23	0	595591168	71	4705
2026-01-12 08:50:30.38	101.79	44.89	-52.6	-55.4	14.4	0.00e+00	0	23	0	597688320	71	4933
2026-01-12 08:50:31.38	101.44	45.12	-52.9	-55.9	14.1	0.00e+00	0	23	0	599785472	71	5260
2026-01-12 08:50:32.37	101.09	45.35	-52.9	-55.8	14.1	0.00e+00	0	23	0	601882624	71	5203
2026-01-12 08:50:33.37	100.74	45.58	-53.2	-56.3	13.8	0.00e+00	0	23	0	602931200	71	5499
2026-01-12 08:50:34.36	100.38	45.81	-53.4	-56.4	13.9	0.00e+00	0	23	0	605028352	72	5234
2026-01-12 08:50:35.35	100.02	46.04	-53.2	-56.1	13.9	0.00e+00	0	23	0	607125504	72	5075
2026-01-12 08:50:36.34	99.65	46.27	-53.0	-55.8	14.1	0.00e+00	0	23	0	609222656	72	4918
2026-01-12 08:50:37.33	99.27	46.50	-52.7	-55.5	14.1	0.00e+00	0	23	0	610271232	71	4987
2026-01-12 08:50:38.32	98.89	46.73	-52.1	-54.5	14.6	0.00e+00	0	23	0	612368384	70	4717
2026-01-12 08:50:39.32	98.50	46.96	-51.7	-53.9	15.0	0.00e+00	0	23	0	614465536	70	4432
2026-01-12 08:50:40.31	98.11	47.19	-51.7	-54.0	14.7	0.00e+00	0	23	0	616562688	69	4726
2026-01-12 08:50:41.30	97.72	47.42	-52.2	-54.6	14.4	0.00e+00	0	23	0	618659840	69	5065
2026-01-12 08:50:42.29	97.31	47.65	-52.6	-55.4	14.0	0.00e+00	0	23	0	619708416	70	5221
2026-01-12 08:50:43.29	96.90	47.88	-52.8	-55.8	13.9	0.00e+00	0	23	0	621805568	70	5480
2026-01-12 08:50:44.28	96.49	48.11	-53.0	-56.1	13.8	0.00e+00	0	23	0	623902720	71	5382
2026-01-12 08:50:45.27	96.06	48.34	-53.0	-56.0	13.9	0.00e+00	0	23	0	625999872	71	5294
2026-01-12 08:50:46.28	95.63	48.57	-52.6	-55.5	14.2	0.00e+00	0	23	0	627048448	71	5001
2026-01-12 08:50:47.27	95.19	48.79	-52.3	-54.8	14.5	0.00e+00	0	23	0	629145600	71	4645
2026-01-12 08:50:48.26	94.75	49.02	-52.5	-55.2	14.4	0.00e+00	0	23	0	631242752	71	4841
2026-01-12 08:50:49.25	94.31	49.24	-53.0	-56.1	13.8	0.00e+00	0	23	0	633339904	71	5382
2026-01-12 08:50:50.24	93.85	49.47	-52.8	-55.9	13.9	0.00e+00	0	23	0	635437056	71	5252
2026-01-12 08:50:51.24	93.39	49.69	-52.5	-55.3	14.3	0.00e+00	0	23	0	636485632	71	4904
2026-01-12 08:50:52.23	92.92	49.92	-52.1	-54.7	14.5	0.00e+00	0	23	0	638582784	70	4853
2026-01-12 08:50:53.22	92.45	50.14	-51.7	-54.2	14.6	0.00e+00	0	23	0	640679936	69	4840
2026-01-12 08:50:54.22	91.96	50.36	-52.2	-54.9	14.2	0.00e+00	0	23	0	642777088	69	5239
2026-01-12 08:50:55.22	91.47	50.58	-51.9	-54.4	14.4	0.00e+00	0	23	0	643825664	69	4977
2026-01-12 08:50:56.21	90.97	50.80	-51.3	-53.4	15.0	0.00e+00	0	23	0	645922816	69	4441
2026-01-12 08:50:57.21	90.46	51.02	-50.8	-52.9	15.2	0.00e+00	0	23	0	648019968	68	4415
2026-01-12 08:50:58.21	89.95	51.24	-50.6	-52.6	15.1	0.00e+00	0	23	0	650117120	67	4532
2026-01-12 08:50:59.20	89.43	51.45	-50.4	-52.4	15.2	0.00e+00	0	23	0	652214272	67	4425
2026-01-12 08:51:00.18	88.91	51.66	-50.1	-52.0	15.3	0.00e+00	0	23	0	653262848	66	4468
2026-01-12 08:51:01.18	88.37	51.87	-50.2	-52.1	15.2	0.00e+00	0	23	0	655360000	66	4531
2026-01-12 08:51:02.17	87.83	52.08	-50.4	-52.4	15.1	0.00e+00	0	23	0	657457152	66	4661
2026-01-12 08:51:03.17	87.28	52.29	-50.8	-52.9	14.8	0.00e+00	0	23	0	659554304	66	4939
2026-01-12 08:51:04.16	86.72	52.50	-50.9	-52.9	15.0	0.00e+00	0	23	0	660602880	67	4687
2026-01-12 08:51:05.16	86.15	52.70	-50.7	-52.7	15.1	0.00e+00	0	23	0	662700032	67	4548
2026-01-12 08:51:06.15	85.58	52.90	-51.4	-53.8	14.5	0.00e+00	0	23	0	664797184	67	5171
2026-01-12 08:51:07.14	85.00	53.10	-52.2	-54.9	14.3	0.00e+00	0	23	0	666894336	69	5249
2026-01-12 08:51:08.14	84.41	53.30	-52.4	-55.1	14.3	0.00e+00	0	23	0	668991488	70	5096
2026-01-12 08:51:09.13	83.82	53.49	-51.7	-54.1	14.9	0.00e+00	0	23	0	670040064	70	4514
2026-01-12 08:51:10.13	83.21	53.69	-51.4	-53.8	14.9	0.00e+00	0	23	0	672137216	69	4604
2026-01-12 08:51:11.12	82.60	53.88	-52.0	-54.7	14.5	0.00e+00	0	23	0	674234368	69	5144
2026-01-12 08:51:12.11	81.98	54.06	-51.9	-54.5	14.5	0.00e+00	0	23	0	676331520	69	4993
2026-01-12 08:51:13.11	81.34	54.25	-50.7	-52.7	15.3	0.00e+00	0	23	0	677380096	68	4331
2026-01-12 08:51:14.10	80.71	54.43	-49.8	-51.6	15.5	0.00e+00	0	23	0	679477248	66	4263
2026-01-12 08:51:15.11	80.05	54.61	-50.1	-52.0	15.3	0.00e+00	0	23	0	681574400	66	4493
2026-01-12 08:51:16.10	79.40	54.79	-50.9	-53.1	14.7	0.00e+00	0	23	0	683671552	66	5070
2026-01-12 08:51:17.09	78.74	54.96	-50.9	-53.1	14.9	0.00e+00	0	23	0	685768704	67	4782
2026-01-12 08:51:18.08	78.07	55.13	-51.0	-53.2	14.8	0.00e+00	0	23	0	686817280	67	4829
2026-01-12 08:51:19.07	77.39	55.29	-51.1	-53.4	14.7	0.00e+00	0	23	0	688914432	67	4948
2026-01-12 08:51:20.07	76.70	55.45	-51.2	-53.5	14.7	0.00e+00	0	23	0	691011584	67	5016
2026-01-12 08:51:21.07	76.01	55.61	-51.2	-53.7	14.6	0.00e+00	0	23	0	693108736	67	5104
2026-01-12 08:51:22.06	75.31	55.77	-51.9	-54.7	14.2	0.00e+00	0	23	0	694157312	69	5119
2026-01-12 08:51:23.06	74.59	55.92	-52.7	-56.1	13.8	0.00e+00	0	23	0	696254464	70	5672
2026-01-12 08:51:24.06	73.87	56.07	-52.2	-55.1	14.3	0.00e+00	0	23	0	698351616	70	5054
2026-01-12 08:51:25.05	73.15	56.21	-51.4	-53.8	14.9	0.00e+00	0	23	0	700448768	69	4609
2026-01-12 08:51:26.05	72.41	56.35	-50.7	-52.9	15.2	0.00e+00	0	23	0	702545920	68	4397
2026-01-12 08:51:27.04	71.68	56.48	-50.0	-52.0	15.3	0.00e+00	0	23	0	703594496	66	4491
2026-01-12 08:51:28.03	70.93	56.61	-49.8	-51.8	15.4	0.00e+00	0	23	0	705691648	66	4351
2026-01-12 08:51:29.03	70.17	56.74	-50.2	-52.3	15.1	0.00e+00	0	23	0	707788800	66	4621
2026-01-12 08:51:30.03	69.41	56.86	-50.9	-53.3	14.6	0.00e+00	0	23	0	709885952	66	5185
2026-01-12 08:51:31.03	68.64	56.98	-50.7	-53.0	14.9	0.00e+00	0	23	0	711983104	67	4755
2026-01-12 08:51:32.02	67.87	57.09	-50.1	-52.3	15.2	0.00e+00	0	23	0	713031680	66	4619
2026-01-12 08:51:33.01	67.09	57.19	-49.8	-51.8	15.4	0.00e+00	0	23	0	715128832	66	4380
2026-01-12 08:51:34.00	66.31	57.29	-49.8	-51.8	15.3	0.00e+00	0	23	0	717225984	66	4375
2026-01-12 08:51:35.00	65.51	57.39	-49.3	-51.2	15.5	0.00e+00	0	23	0	719323136	65	4326
2026-01-12 08:51:35.99	64.72	57.48	-49.4	-51.4	15.4	0.00e+00	0	23	0	720371712	65	4437
2026-01-12 08:51:36.99	63.91	57.57	-50.0	-52.2	15.0	0.00e+00	0	23	0	722468864	65	4863
2026-01-12 08:51:37.99	63.10	57.65	-51.0	-53.7	14.6	0.00e+00	0	23	0	724566016	67	5101
2026-01-12 08:51:38.99	62.28	57.73	-51.3	-54.3	14.3	0.00e+00	0	23	0	726663168	67	5465
2026-01-12 08:51:39.98	61.47	57.80	-50.7	-53.3	14.8	0.00e+00	0	23	0	728760320	67	4893
2026-01-12 08:51:40.98	60.64	57.86	-49.9	-52.0	15.3	0.00e+00	0	23	0	729808896	66	4446
2026-01-12 08:51:41.97	59.82	57.92	-49.0	-50.7	15.5	0.00e+00	0	23	0	731906048	64	4313
2026-01-12 08:51:42.96	59.00	57.97	-48.7	-50.3	15.6	0.00e+00	0	23	0	734003200	63	4379
2026-01-12 08:51:43.95	58.17	58.02	-48.8	-50.5	15.5	0.00e+00	0	23	0	736100352	63	4460
2026-01-12 08:51:44.95	57.33	58.07	-49.3	-51.1	15.2	0.00e+00	0	23	0	737148928	63	4793
2026-01-12 08:51:45.93	56.51	58.10	-49.3	-51.1	15.3	0.00e+00	0	23	0	739246080	64	4543
2026-01-12 08:51:46.93	55.67	58.13	-49.0	-50.8	15.5	0.00e+00	0	23	0	741343232	64	4359
2026-01-12 08:51:47.93	54.82	58.16	-48.4	-50.0	15.7	0.00e+00	0	23	0	743440384	63	4231
2026-01-12 08:51:48.93	53.97	58.18	-48.0	-49.5	15.7	0.00e+00	0	23	0	745537536	62	4203
2026-01-12 08:51:49.92	53.14	58.19	-48.2	-49.8	15.6	0.00e+00	0	23	0	746586112	62	4351
2026-01-12 08:51:50.91	52.30	58.20	-48.3	-49.8	15.6	0.00e+00	0	23	0	748683264	62	4386
2026-01-12 08:51:51.92	51.44	58.20	-48.3	-49.8	15.6	0.00e+00	0	23	0	750780416	62	4371
2026-01-12 08:51:52.91	50.60	58.20	-48.5	-50.1	15.5	0.00e+00	0	23	0	752877568	62	4509
2026-01-12 08:51:53.91	49.75	58.19	-48.6	-50.3	15.4	0.00e+00	0	23	0	753926144	62	4607
2026-01-12 08:51:54.90	48.91	58.17	-48.9	-50.7	15.4	0.00e+00	0	23	0	756023296	63	4573
2026-01-12 08:51:55.89	48.08	58.15	-48.8	-50.6	15.5	0.00e+00	0	23	0	758120448	63	4500
2026-01-12 08:51:56.88	47.24	58.12	-49.0	-50.8	15.4	0.00e+00	0	23	0	760217600	63	4621
2026-01-12 08:51:57.88	46.40	58.09	-48.6	-50.2	15.6	0.00e+00	0	23	0	762314752	63	4335
2026-01-12 08:51:58.87	45.57	58.05	-47.9	-49.3	15.8	0.00e+00	0	23	0	763363328	62	4145
2026-01-12 08:51:59.86	44.74	58.01	-48.0	-49.5	15.7	0.00e+00	0	23	0	765460480	62	4223
2026-01-12 08:52:00.86	43.90	57.96	-48.3	-49.9	15.6	0.00e+00	0	23	0	767557632	62	4403
2026-01-12 08:52:01.86	43.07	57.90	-47.9	-49.4	15.8	0.00e+00	0	23	0	769654784	62	4181
2026-01-12 08:52:02.86	42.24	57.84	-47.8	-49.3	15.8	0.00e+00	0	23	0	770703360	62	4145
2026-01-12 08:52:03.85	41.43	57.78	-48.4	-50.1	15.5	0.00e+00	0	23	0	772800512	62	4501
2026-01-12 08:52:04.85	40.61	57.70	-48.4	-50.1	15.5	0.00e+00	0	23	0	774897664	62	4507
2026-01-12 08:52:05.84	39.80	57.63	-48.5	-50.2	15.5	0.00e+00	0	23	0	776994816	62	4551
2026-01-12 08:52:06.83	39.00	57.54	-49.0	-50.7	15.3	0.00e+00	0	23	0	779091968	63	4575
2026-01-12 08:52:07.84	38.19	57.45	-49.1	-50.8	15.3	0.00e+00	0	23	0	780140544	63	4621
2026-01-12 08:52:08.84	37.39	57.36	-49.3	-51.1	15.2	0.00e+00	0	23	0	782237696	63	4760
2026-01-12 08:52:09.84	36.59	57.26	-49.9	-51.8	15.1	0.00e+00	0	23	0	784334848	64	4919
2026-01-12 08:52:10.83	35.81	57.16	-49.8	-51.7	15.2	0.00e+00	0	23	0	786432000	65	4559
2026-01-12 08:52:11.83	35.03	57.05	-49.4	-51.1	15.6	0.00e+00	0	23	0	787480576	65	4287
2026-01-12 08:52:12.83	34.26	56.94	-49.5	-51.3	15.3	0.00e+00	0	23	0	789577728	64	4621
2026-01-12 08:52:13.82	33.50	56.82	-49.8	-51.6	15.1	0.00e+00	0	23	0	791674880	64	4813
2026-01-12 08:52:14.82	32.73	56.70	-50.0	-51.9	15.1	0.00e+00	0	23	0	793772032	65	4673
2026-01-12 08:52:15.81	31.99	56.57	-50.2	-52.1	15.3	0.00e+00	0	23	0	795869184	66	4502
2026-01-12 08:52:16.80	31.25	56.44	-50.6	-52.5	15.0	0.00e+00	0	23	0	796917760	66	4745
2026-01-12 08:52:17.80	30.50	56.30	-50.3	-52.0	15.5	0.00e+00	0	23	0	799014912	67	4238
2026-01-12 08:52:18.79	29.78	56.16	-50.1	-51.8	15.4	0.00e+00	0	23	0	801112064	66	4361
2026-01-12 08:52:19.78	29.06	56.02	-50.6	-52.4	15.1	0.00e+00	0	23	0	803209216	66	4674
2026-01-12 08:52:20.77	28.35	55.87	-52.2	-54.7	14.4	0.00e+00	0	23	0	804257792	69	5101
2026-01-12 08:52:21.77	27.64	55.72	-51.7	-53.9	14.8	0.00e+00	0	23	0	806354944	69	4669
2026-01-12 08:52:22.77	26.93	55.57	-51.0	-53.0	15.2	0.00e+00	0	23	0	808452096	68	4453
2026-01-12 08:52:23.77	26.24	55.40	-51.1	-53.1	15.1	0.00e+00	0	23	0	810549248	68	4500
2026-01-12 08:52:24.76	25.56	55.24	-50.5	-52.3	15.4	0.00e+00	0	23	0	812646400	67	4361
2026-01-12 08:52:25.75	24.89	55.08	-50.1	-51.8	15.4	0.00e+00	0	23	0	813694976	66	4377
2026-01-12 08:52:26.75	24.21	54.91	-50.0	-51.7	15.5	0.00e+00	0	23	0	815792128	66	4321
2026-01-12 08:52:27.74	23.56	54.73	-50.1	-51.9	15.3	0.00e+00	0	23	0	817889280	66	4403
2026-01-12 08:52:28.73	22.91	54.56	-49.1	-50.6	15.7	0.00e+00	0	23	0	819986432	64	4289
2026-01-12 08:52:29.73	22.26	54.38	-48.8	-50.4	15.8	0.00e+00	0	23	0	821035008	64	4150
2026-01-12 08:52:30.72	21.63	54.20	-49.4	-51.2	15.4	0.00e+00	0	23	0	823132160	64	4546
2026-01-12 08:52:31.71	21.01	54.01	-49.7	-51.5	15.2	0.00e+00	0	23	0	825229312	64	4750
2026-01-12 08:52:32.69	20.40	53.83	-50.8	-52.9	14.9	0.00e+00	0	23	0	827326464	66	4951
2026-01-12 08:52:33.69	19.78	53.64	-51.1	-53.4	14.8	0.00e+00	0	23	0	829423616	67	4933
2026-01-12 08:52:34.68	19.18	53.44	-50.5	-52.5	15.3	0.00e+00	0	23	0	830472192	67	4453
2026-01-12 08:52:35.67	18.59	53.25	-49.9	-51.6	15.5	0.00e+00	0	23	0	832569344	66	4275
2026-01-12 08:52:36.67	18.00	53.05	-50.4	-52.3	15.2	0.00e+00	0	23	0	834666496	66	4604
2026-01-12 08:52:37.66	17.42	52.85	-50.8	-52.8	14.9	0.00e+00	0	23	0	836763648	66	4887
2026-01-12 08:52:38.65	16.86	52.65	-50.8	-52.8	14.9	0.00e+00	0	23	0	837812224	66	4906
2026-01-12 08:52:39.65	16.29	52.44	-50.7	-52.8	15.1	0.00e+00	0	23	0	839909376	67	4602
2026-01-12 08:52:40.65	15.73	52.24	-51.1	-53.2	14.8	0.00e+00	0	23	0	842006528	67	4856
2026-01-12 08:52:41.65	15.18	52.03	-51.3	-53.5	14.7	0.00e+00	0	23	0	844103680	67	5023
2026-01-12 08:52:42.64	14.64	51.82	-52.5	-55.2	14.2	0.00e+00	0	23	0	846200832	70	5149
2026-01-12 08:52:43.64	14.11	51.61	-52.6	-55.4	14.1	0.00e+00	0	23	0	847249408	70	5256
2026-01-12 08:52:44.63	13.59	51.39	-52.6	-55.3	14.2	0.00e+00	0	23	0	849346560	70	5180
2026-01-12 08:52:45.62	13.07	51.18	-52.4	-54.9	14.5	0.00e+00	0	23	0	851443712	70	4957
2026-01-12 08:52:46.60	12.57	50.97	-51.7	-54.0	15.0	0.00e+00	0	23	0	853540864	70	4466
2026-01-12 08:52:47.60	12.07	50.75	-52.0	-54.5	14.5	0.00e+00	0	23	0	854589440	69	5008
2026-01-12 08:52:48.59	11.57	50.53	-51.9	-54.3	14.5	0.00e+00	0	23	0	856686592	69	4913
2026-01-12 08:52:49.58	11.09	50.31	-51.8	-54.3	14.6	0.00e+00	0	23	0	858783744	69	4876
2026-01-12 08:52:50.58	10.60	50.09	-50.5	-52.5	15.2	0.00e+00	0	23	0	860880896	67	4457
2026-01-12 08:52:51.57	10.13	49.87	-50.7	-52.8	15.1	0.00e+00	0	23	0	862978048	67	4620
2026-01-12 08:52:52.56	9.67	49.65	-50.9	-53.1	14.8	0.00e+00	0	23	0	864026624	67	4780
2026-01-12 08:52:53.56	9.21	49.42	-50.7	-52.8	15.0	0.00e+00	0	23	0	866123776	67	4619
2026-01-12 08:52:54.56	8.75	49.19	-50.7	-52.8	15.0	0.00e+00	0	23	0	868220928	67	4604
2026-01-12 08:52:55.56	8.30	48.97	-51.4	-53.6	14.6	0.00e+00	0	23	0	870318080	67	5078
2026-01-12 08:52:56.55	7.86	48.74	-52.3	-54.9	14.3	0.00e+00	0	23	0	871366656	69	5248
2026-01-12 08:52:57.55	7.43	48.51	-52.6	-55.2	14.2	0.00e+00	0	23	0	873463808	70	5117
2026-01-12 08:52:58.54	7.00	48.29	-52.8	-55.5	14.1	0.00e+00	0	23	0	875560960	70	5312
2026-01-12 08:52:59.54	6.58	48.06	-52.1	-54.4	14.7	0.00e+00	0	23	0	877658112	70	4701
2026-01-12 08:53:00.53	6.17	47.83	-51.8	-53.9	15.0	0.00e+00	0	23	0	879755264	70	4423
2026-01-12 08:53:01.52	5.76	47.60	-52.5	-55.0	14.3	0.00e+00	0	23	0	880803840	70	5000
2026-01-12 08:53:02.52	5.36	47.37	-53.7	-57.0	13.5	0.00e+00	0	23	0	882900992	72	5596
2026-01-12 08:53:03.52	4.96	47.14	-54.5	-58.5	12.7	0.00e+00	0	23	0	884998144	74	5966
2026-01-12 08:53:04.51	4.57	46.91	-55.2	-60.1	11.7	6.10e-06	0	23	0	887095296	75	6779
2026-01-12 08:53:05.50	4.19	46.68	-54.5	-58.4	12.9	4.50e-06	0	23	0	888143872	75	5536
2026-01-12 08:53:06.50	3.80	46.45	-53.9	-57.2	13.6	0.00e+00	0	23	0	890241024	74	5140
2026-01-12 08:53:07.49	3.43	46.22	-53.1	-55.7	14.3	0.00e+00	0	23	0	892338176	72	4868
2026-01-12 08:53:08.49	3.06	45.99	-53.3	-56.0	14.1	0.00e+00	0	23	0	894435328	72	5027
2026-01-12 08:53:09.49	2.70	45.76	-53.5	-56.5	13.7	0.00e+00	0	23	0	896532480	72	5307
2026-01-12 08:53:10.48	2.34	45.53	-53.0	-55.6	14.3	0.00e+00	0	23	0	897581056	72	4773
2026-01-12 08:53:11.49	1.98	45.30	-52.1	-54.3	14.7	0.00e+00	0	23	0	899678208	70	4600
2026-01-12 08:53:12.48	1.64	45.07	-51.7	-53.7	15.0	0.00e+00	0	23	0	901775360	69	4554
2026-01-12 08:53:13.46	1.30	44.84	-51.4	-53.4	15.2	0.00e+00	0	23	0	903872512	69	4402
2026-01-12 08:53:14.45	0.97	44.61	-51.9	-53.9	14.9	0.00e+00	0	23	0	904921088	69	4698
2026-01-12 08:53:15.45	0.63	44.38	-52.0	-54.2	14.7	0.00e+00	0	23	0	907018240	69	4832
2026-01-12 08:53:16.44	0.31	44.16	-52.4	-54.7	14.4	0.00e+00	0	23	0	909115392	69	5127
2026-01-12 08:53:17.44	359.98	43.93	-52.5	-54.8	14.5	0.00e+00	0	23	0	911212544	70	4925
2026-01-12 08:53:18.44	359.66	43.70	-52.4	-54.7	14.5	0.00e+00	0	23	0	913309696	70	4823
2026-01-12 08:53:19.44	359.35	43.47	-52.5	-54.9	14.4	0.00e+00	0	23	0	914358272	70	4968
2026-01-12 08:53:20.43	359.04	43.24	-52.9	-55.4	14.2	0.00e+00	0	23	0	916455424	70	5273
2026-01-12 08:53:21.42	358.74	43.01	-53.5	-56.4	13.8	0.00e+00	0	23	0	918552576	72	5270
2026-01-12 08:53:22.41	358.44	42.79	-53.7	-56.7	13.7	0.00e+00	0	23	0	920649728	72	5403
2026-01-12 08:53:23.41	358.14	42.56	-52.9	-55.4	14.4	0.00e+00	0	23	0	921698304	72	4687
2026-01-12 08:53:24.42	357.84	42.33	-52.9	-55.4	14.5	0.00e+00	0	23	0	923795456	72	4684
2026-01-12 08:53:25.41	357.56	42.11	-53.1	-55.7	14.1	0.00e+00	0	23	0	925892608	71	5151
2026-01-12 08:53:26.41	357.27	41.88	-52.8	-55.4	14.4	0.00e+00	0	23	0	927989760	71	4933
2026-01-12 08:53:27.41	356.99	41.66	-52.9	-55.5	14.3	0.00e+00	0	23	0	930086912	71	5021
2026-01-12 08:53:28.40	356.72	41.43	-52.6	-55.0	14.6	0.00e+00	0	23	0	931135488	71	4741
2026-01-12 08:53:29.39	356.45	41.21	-52.9	-55.5	14.2	0.00e+00	0	23	0	933232640	71	5026
2026-01-12 08:53:30.38	356.18	40.99	-52.7	-55.3	14.3	0.00e+00	0	23	0	935329792	71	4913
2026-01-12 08:53:31.37	355.92	40.77	-52.7	-55.2	14.5	0.00e+00	0	23	0	937426944	71	4859
2026-01-12 08:53:32.37	355.65	40.55	-52.8	-55.4	14.3	0.00e+00	0	23	0	938475520	71	4964
2026-01-12 08:53:33.37	355.39	40.33	-53.1	-55.9	14.0	0.00e+00	0	23	0	940572672	71	5223
2026-01-12 08:53:34.36	355.14	40.11	-53.2	-55.9	14.0	0.00e+00	0	23	0	942669824	71	5279
2026-01-12 08:53:35.36	354.89	39.89	-53.7	-56.7	13.7	0.00e+00	0	23	0	944766976	72	5436
2026-01-12 08:53:36.35	354.64	39.67	-54.1	-57.4	13.4	0.00e+00	0	23	0	946864128	73	5547
2026-01-12 08:53:37.33	354.40	39.46	-54.2	-57.5	13.3	0.00e+00	0	23	0	947912704	73	5619
2026-01-12 08:53:38.33	354.16	39.24	-53.5	-56.3	14.1	0.00e+00	0	23	0	950009856	73	4911
2026-01-12 08:53:39.32	353.93	39.02	-53.5	-56.3	14.1	0.00e+00	0	23	0	952107008	73	4885
2026-01-12 08:53:40.32	353.69	38.81	-53.5	-56.2	14.1	0.00e+00	0	23	0	954204160	73	4849
2026-01-12 08:53:41.31	353.46	38.60	-53.3	-55.9	14.3	0.00e+00	0	23	0	955252736	73	4673
2026-01-12 08:53:42.30	353.24	38.38	-53.4	-56.0	14.2	0.00e+00	0	23	0	957349888	73	4739
2026-01-12 08:53:43.29	353.01	38.17	-53.6	-56.4	14.0	0.00e+00	0	23	0	959447040	73	4946
2026-01-12 08:53:44.28	352.79	37.96	-54.0	-57.2	13.5	0.00e+00	0	23	0	961544192	73	5403
2026-01-12 08:53:45.26	352.58	37.75	-53.7	-56.7	13.8	0.00e+00	0	23	0	963641344	73	5103
2026-01-12 08:53:46.26	352.36	37.54	-54.1	-57.4	13.3	0.00e+00	0	23	0	964689920	73	5536
2026-01-12 08:53:47.26	352.14	37.33	-54.3	-57.6	13.2	0.00e+00	0	23	0	966787072	73	5698
2026-01-12 08:53:48.26	351.93	37.12	-54.3	-57.6	13.2	0.00e+00	0	23	0	968884224	73	5690
2026-01-12 08:53:49.25	351.72	36.92	-53.2	-55.9	14.3	0.00e+00	0	23	0	970981376	73	4678
2026-01-12 08:53:50.24	351.52	36.71	-52.8	-55.2	14.6	0.00e+00	0	23	0	972029952	72	4572
2026-01-12 08:53:51.24	351.32	36.50	-53.0	-55.6	14.3	0.00e+00	0	23	0	974127104	72	4795
2026-01-12 08:53:52.24	351.12	36.30	-53.6	-56.6	13.7	0.00e+00	0	23	0	976224256	72	5354
2026-01-12 08:53:53.24	350.92	36.09	-54.0	-57.4	13.3	0.00e+00	0	23	0	978321408	73	5557
2026-01-12 08:53:54.23	350.72	35.89	-54.7	-58.7	12.6	7.00e-07	0	23	0	980418560	74	6070
2026-01-12 08:53:55.22	350.53	35.69	-54.4	-58.0	12.9	0.00e+00	0	23	0	981467136	74	5606
2026-01-12 08:53:56.21	350.34	35.49	-54.2	-57.7	13.2	0.00e+00	0	23	0	983564288	74	5426
2026-01-12 08:53:57.20	350.16	35.29	-54.1	-57.7	13.2	0.00e+00	0	23	0	985661440	74	5437
2026-01-12 08:53:58.19	349.97	35.09	-54.4	-58.2	12.9	0.00e+00	0	23	0	987758592	74	5737
2026-01-12 08:53:59.19	349.79	34.89	-54.3	-57.9	13.0	0.00e+00	0	23	0	988807168	74	5564
2026-01-12 08:54:00.18	349.61	34.70	-53.3	-56.1	14.1	0.00e+00	0	23	0	990904320	73	4806
2026-01-12 08:54:01.18	349.43	34.50	-52.4	-54.8	14.6	0.00e+00	0	23	0	993001472	71	4625
2026-01-12 08:54:02.17	349.25	34.30	-51.9	-54.2	15.0	0.00e+00	0	23	0	995098624	70	4571
2026-01-12 08:54:03.17	349.08	34.11	-52.0	-54.3	14.8	0.00e+00	0	23	0	997195776	70	4611
2026-01-12 08:54:04.16	348.90	33.91	-52.4	-54.9	14.4	0.00e+00	0	23	0	998244352	70	4977
2026-01-12 08:54:05.16	348.73	33.72	-53.3	-56.3	13.8	0.00e+00	0	23	0	1000341504	71	5484
2026-01-12 08:54:06.15	348.57	33.53	-53.6	-56.8	13.6	0.00e+00	0	23	0	1002438656	72	5497
2026-01-12 08:54:07.15	348.40	33.34	-53.4	-56.4	13.8	0.00e+00	0	23	0	1004535808	72	5274
2026-01-12 08:54:08.14	348.24	33.15	-52.7	-55.2	14.6	0.00e+00	0	23	0	1005584384	72	4586
2026-01-12 08:54:09.13	348.07	32.96	-52.7	-55.3	14.3	0.00e+00	0	23	0	1007681536	71	4901
2026-01-12 08:54:10.13	347.91	32.77	-53.0	-55.7	14.1	0.00e+00	0	23	0	1009778688	71	5135
2026-01-12 08:54:11.12	347.76	32.58	-53.4	-56.5	13.6	0.00e+00	0	23	0	1011875840	71	5622
2026-01-12 08:54:12.11	347.60	32.40	-54.1	-57.6	13.2	0.00e+00	0	23	0	1013972992	73	5722
2026-01-12 08:54:13.11	347.44	32.21	-54.0	-57.5	13.2	0.00e+00	0	23	0	1015021568	73	5646
2026-01-12 08:54:14.10	347.29	32.03	-53.3	-56.3	13.9	0.00e+00	0	23	0	1017118720	73	4908
2026-01-12 08:54:15.10	347.14	31.84	-52.8	-55.4	14.4	0.00e+00	0	23	0	1019215872	72	4690
2026-01-12 08:54:16.09	346.99	31.66	-52.5	-55.1	14.4	0.00e+00	0	23	0	1021313024	71	4773
2026-01-12 08:54:17.09	346.84	31.48	-52.6	-55.2	14.4	0.00e+00	0	23	0	1022361600	71	4816
2026-01-12 08:54:18.08	346.70	31.30	-52.9	-55.7	14.1	0.00e+00	0	23	0	1024458752	71	5118
2026-01-12 08:54:19.07	346.55	31.12	-53.1	-56.0	13.9	0.00e+00	0	23	0	1026555904	71	5299
2026-01-12 08:54:20.07	346.41	30.94	-53.1	-55.9	13.9	0.00e+00	0	23	0	1028653056	71	5261
2026-01-12 08:54:21.06	346.27	30.76	-52.7	-55.3	14.3	0.00e+00	0	23	0	1030750208	71	4874
2026-01-12 08:54:22.06	346.13	30.58	-52.1	-54.4	14.7	0.00e+00	0	23	0	1031798784	70	4682
2026-01-12 08:54:23.05	345.99	30.41	-51.9	-54.1	14.9	0.00e+00	0	23	0	1033895936	70	4511
2026-01-12 08:54:24.05	345.85	30.23	-52.0	-54.2	14.8	0.00e+00	0	23	0	1035993088	70	4590
2026-01-12 08:54:25.04	345.72	30.06	-52.4	-54.9	14.4	0.00e+00	0	23	0	1038090240	70	4952
2026-01-12 08:54:26.03	345.59	29.88	-52.9	-55.7	14.0	0.00e+00	0	23	0	1039138816	70	5408
2026-01-12 08:54:27.03	345.45	29.71	-53.6	-56.8	13.5	0.00e+00	0	23	0	1041235968	72	5517
2026-01-12 08:54:28.02	345.32	29.54	-53.6	-56.8	13.6	0.00e+00	0	23	0	1043333120	72	5490
2026-01-12 08:54:29.02	345.20	29.37	-53.4	-56.4	13.8	0.00e+00	0	23	0	1045430272	72	5239
2026-01-12 08:54:30.01	345.07	29.20	-53.0	-55.7	14.3	0.00e+00	0	23	0	1047527424	72	4854
2026-01-12 08:54:31.00	344.94	29.03	-52.5	-55.0	14.5	0.00e+00	0	23	0	1048576000	71	4744
2026-01-12 08:54:31.99	344.82	28.86	-52.5	-55.0	14.5	0.00e+00	0	23	0	1050673152	71	4740
2026-01-12 08:54:32.99	344.69	28.69	-52.5	-55.0	14.5	0.00e+00	0	23	0	1052770304	71	4733
2026-01-12 08:54:33.98	344.57	28.52	-52.5	-55.0	14.5	0.00e+00	0	23	0	1054867456	71	4724
2026-01-12 08:54:34.97	344.45	28.36	-52.7	-55.2	14.4	0.00e+00	0	23	0	1055916032	71	4863
2026-01-12 08:54:35.97	344.33	28.19	-52.6	-55.1	14.5	0.00e+00	0	23	0	1058013184	71	4773
2026-01-12 08:54:36.97	344.21	28.03	-52.4	-54.8	14.6	0.00e+00	0	23	0	1060110336	71	4637
2026-01-12 08:54:37.96	344.10	27.86	-52.3	-54.6	14.7	0.00e+00	0	23	0	1062207488	71	4544
2026-01-12 08:54:38.95	343.98	27.70	-52.2	-54.5	14.8	0.00e+00	0	23	0	1063256064	71	4443
2026-01-12 08:54:39.94	343.87	27.54	-52.1	-54.4	14.7	0.00e+00	0	23	0	1065353216	70	4664
2026-01-12 08:54:40.94	343.75	27.38	-52.1	-54.4	14.7	0.00e+00	0	23	0	1067450368	70	4654
2026-01-12 08:54:41.93	343.64	27.22	-52.6	-55.0	14.3	0.00e+00	0	23	0	1069547520	70	5031
2026-01-12 08:54:42.92	343.53	27.06	-53.1	-55.8	14.0	0.00e+00	0	23	0	1071644672	71	5180
2026-01-12 08:54:43.91	343.42	26.90	-53.6	-56.5	13.6	0.00e+00	0	23	0	1072693248	72	5317
2026-01-12 08:54:44.90	343.31	26.75	-54.0	-57.3	13.2	0.00e+00	0	23	0	1074790400	73	5466
2026-01-12 08:54:45.90	343.20	26.59	-54.1	-57.4	13.2	0.00e+00	0	23	0	1076887552	73	5570
2026-01-12 08:54:46.90	343.09	26.43	-54.1	-57.5	13.1	0.00e+00	0	23	0	1078984704	73	5649
2026-01-12 08:54:47.90	342.99	26.27	-53.9	-57.0	13.5	0.00e+00	0	23	0	1080033280	73	5330
2026-01-12 08:54:48.90	342.88	26.12	-53.8	-56.9	13.5	0.00e+00	0	23	0	1082130432	73	5239
2026-01-12 08:54:49.89	342.78	25.97	-53.6	-56.5	13.9	0.00e+00	0	23	0	1084227584	73	4986
2026-01-12 08:54:50.89	342.68	25.81	-53.5	-56.3	13.9	0.00e+00	0	23	0	1086324736	73	4916
2026-01-12 08:54:51.89	342.57	25.66	-53.4	-56.1	14.1	0.00e+00	0	23	0	1088421888	73	4785
2026-01-12 08:54:52.88	342.47	25.51	-53.0	-55.6	14.3	0.00e+00	0	23	0	1089470464	72	4771
2026-01-12 08:54:53.88	342.37	25.36	-53.1	-55.7	14.2	0.00e+00	0	23	0	1091567616	72	4818
2026-01-12 08:54:54.87	342.28	25.21	-52.7	-55.1	14.5	0.00e+00	0	23	0	1093664768	72	4534
2026-01-12 08:54:55.87	342.18	25.06	-52.5	-54.9	14.5	0.00e+00	0	23	0	1095761920	71	4667
2026-01-12 08:54:56.87	342.08	24.91	-52.3	-54.6	14.7	0.00e+00	0	23	0	1097859072	71	4530
2026-01-12 08:54:57.87	341.98	24.76	-52.1	-54.3	14.7	0.00e+00	0	23	0	1098907648	70	4632
2026-01-12 08:54:58.86	341.89	24.61	-52.2	-54.4	14.7	0.00e+00	0	23	0	1101004800	70	4691
2026-01-12 08:54:59.85	341.80	24.47	-52.1	-54.3	14.7	0.00e+00	0	23	0	1103101952	70	4642
2026-01-12 08:55:00.85	341.70	24.32	-52.1	-54.4	14.7	0.00e+00	0	23	0	1105199104	70	4661
2026-01-12 08:55:01.85	341.61	24.17	-52.4	-54.7	14.5	0.00e+00	0	23	0	1106247680	70	4846
2026-01-12 08:55:02.84	341.52	24.03	-52.5	-54.9	14.4	0.00e+00	0	23	0	1108344832	70	4970
2026-01-12 08:55:03.83	341.43	23.89	-52.5	-54.9	14.4	0.00e+00	0	23	0	1110441984	70	4949
2026-01-12 08:55:04.83	341.34	23.74	-52.6	-55.0	14.3	0.00e+00	0	23	0	1112539136	70	5015
2026-01-12 08:55:05.82	341.25	23.60	-52.5	-54.9	14.4	0.00e+00	0	23	0	1114636288	70	4973
2026-01-12 08:55:06.81	341.16	23.46	-52.3	-54.6	14.6	0.00e+00	0	23	0	1115684864	70	4785
2026-01-12 08:55:07.80	341.08	23.32	-51.9	-54.0	14.9	0.00e+00	0	23	0	1117782016	70	4476
2026-01-12 08:55:08.79	340.99	23.18	-51.8	-53.9	15.0	0.00e+00	0	23	0	1119879168	70	4423
2026-01-12 08:55:09.78	340.91	23.04	-51.5	-53.5	15.0	0.00e+00	0	23	0	1121976320	69	4463
2026-01-12 08:55:10.78	340.82	22.90	-51.3	-53.2	15.1	0.00e+00	0	23	0	1123024896	69	4330
2026-01-12 08:55:11.78	340.74	22.77	-51.5	-53.4	15.1	0.00e+00	0	23	0	1125122048	69	4441
2026-01-12 08:55:12.78	340.65	22.63	-51.6	-53.6	14.9	0.00e+00	0	23	0	1127219200	69	4529
2026-01-12 08:55:13.77	340.57	22.49	-51.8	-53.9	14.8	0.00e+00	0	23	0	1129316352	69	4679
2026-01-12 08:55:14.77	340.49	22.35	-52.3	-54.6	14.4	0.00e+00	0	23	0	1131413504	69	5086
2026-01-12 08:55:15.76	340.41	22.22	-52.8	-55.5	14.0	0.00e+00	0	23	0	1132462080	70	5303
2026-01-12 08:55:16.75	340.33	22.09	-53.2	-56.0	13.9	0.00e+00	0	23	0	1134559232	71	5324
2026-01-12 08:55:17.74	340.25	21.95	-53.9	-57.2	13.2	0.00e+00	0	23	0	1136656384	72	5771
2026-01-12 08:55:18.73	340.17	21.82	-54.1	-57.6	13.0	0.00e+00	0	23	0	1138753536	73	5707
2026-01-12 08:55:19.72	340.10	21.69	-54.3	-58.0	12.8	0.00e+00	0	23	0	1139802112	73	5926
2026-01-12 08:55:20.71	340.02	21.56	-54.1	-57.6	13.0	0.00e+00	0	23	0	1141899264	73	5663
2026-01-12 08:55:21.70	339.94	21.43	-53.8	-57.0	13.4	0.00e+00	0	23	0	1143996416	73	5336
2026-01-12 08:55:22.69	339.87	21.29	-53.4	-56.4	13.8	0.00e+00	0	23	0	1146093568	73	4970
2026-01-12 08:55:23.68	339.79	21.17	-52.9	-55.7	14.2	0.00e+00	0	23	0	1148190720	72	4815
2026-01-12 08:55:24.68	339.72	21.03	-52.6	-55.1	14.4	0.00e+00	0	23	0	1149239296	71	4774
2026-01-12 08:55:25.67	339.64	20.91	-52.2	-54.5	14.8	0.00e+00	0	23	0	1151336448	71	4478
2026-01-12 08:55:26.66	339.57	20.78	-52.0	-54.3	14.7	0.00e+00	0	23	0	1153433600	70	4633
2026-01-12 08:55:27.65	339.50	20.65	-52.0	-54.3	14.7	0.00e+00	0	23	0	1155530752	70	4629
2026-01-12 08:55:28.65	339.43	20.52	-51.8	-54.0	14.9	0.00e+00	0	23	0	1156579328	70	4449
2026-01-12 08:55:29.64	339.35	20.40	-51.5	-53.7	14.9	0.00e+00	0	23	0	1158676480	69	4560
2026-01-12 08:55:30.63	339.28	20.27	-51.5	-53.6	14.9	0.00e+00	0	23	0	1160773632	69	4524
2026-01-12 08:55:31.63	339.21	20.15	-51.4	-53.4	15.1	0.00e+00	0	23	0	1162870784	69	4418
2026-01-12 08:55:32.63	339.14	20.02	-51.4	-53.5	15.0	0.00e+00	0	23	0	1164967936	69	4452
2026-01-12 08:55:33.63	339.07	19.90	-51.3	-53.3	15.1	0.00e+00	0	23	0	1166016512	69	4370
2026-01-12 08:55:34.62	339.01	19.77	-51.3	-53.3	14.9	0.00e+00	0	23	0	1168113664	68	4623
2026-01-12 08:55:35.61	338.94	19.65	-51.0	-52.9	15.2	0.00e+00	0	23	0	1170210816	68	4394
2026-01-12 08:55:36.61	338.87	19.53	-50.9	-52.7	15.2	0.00e+00	0	23	0	1172307968	68	4338
2026-01-12 08:55:37.61	338.80	19.40	-50.9	-52.8	15.2	0.00e+00	0	23	0	1173356544	68	4372
2026-01-12 08:55:38.60	338.74	19.28	-50.7	-52.5	15.4	0.00e+00	0	23	0	1175453696	68	4220
2026-01-12 08:55:39.60	338.67	19.16	-50.7	-52.5	15.4	0.00e+00	0	23	0	1177550848	68	4210
2026-01-12 08:55:40.58	338.61	19.04	-50.5	-52.2	15.3	0.00e+00	0	23	0	1179648000	67	4330
2026-01-12 08:55:41.58	338.54	18.92	-50.4	-52.2	15.3	0.00e+00	0	23	0	1181745152	67	4297
2026-01-12 08:55:42.57	338.48	18.80	-50.5	-52.3	15.3	0.00e+00	0	23	0	1182793728	67	4363
2026-01-12 08:55:43.57	338.42	18.68	-50.5	-52.3	15.2	0.00e+00	0	23	0	1184890880	67	4359
2026-01-12 08:55:44.56	338.35	18.57	-50.7	-52.5	15.1	0.00e+00	0	23	0	1186988032	67	4493
2026-01-12 08:55:45.56	338.29	18.45	-50.7	-52.6	15.1	0.00e+00	0	23	0	1189085184	67	4503
2026-01-12 08:55:46.56	338.23	18.33	-50.7	-52.6	15.1	0.00e+00	0	23	0	1190133760	67	4510
2026-01-12 08:55:47.55	338.17	18.21	-50.9	-52.8	15.0	0.00e+00	0	23	0	1192230912	67	4641
2026-01-12 08:55:48.54	338.11	18.10	-51.1	-53.1	14.8	0.00e+00	0	23	0	1194328064	67	4778
2026-01-12 08:55:49.53	338.05	17.98	-51.2	-53.3	14.7	0.00e+00	0	23	0	1196425216	67	4877
2026-01-12 08:55:50.53	337.99	17.87	-51.3	-53.4	14.6	0.00e+00	0	23	0	1198522368	67	4951
2026-01-12 08:55:51.53	337.93	17.75	-51.9	-54.1	14.5	0.00e+00	0	23	0	1199570944	68	5063
2026-01-12 08:55:52.52	337.87	17.64	-51.9	-54.1	14.6	0.00e+00	0	23	0	1201668096	69	4804
2026-01-12 08:55:53.52	337.81	17.52	-51.9	-54.2	14.6	0.00e+00	0	23	0	1203765248	69	4824
2026-01-12 08:55:54.51	337.75	17.41	-52.4	-54.8	14.2	0.00e+00	0	23	0	1205862400	69	5174
2026-01-12 08:55:55.50	337.69	17.30	-52.4	-54.9	14.2	0.00e+00	0	23	0	1206910976	69	5231
2026-01-12 08:55:56.51	337.64	17.19	-52.5	-55.0	14.2	0.00e+00	0	23	0	1209008128	70	5004
2026-01-12 08:55:57.50	337.58	17.07	-52.6	-55.1	14.2	0.00e+00	0	23	0	1211105280	70	5062
2026-01-12 08:55:58.50	337.52	16.96	-52.9	-55.5	13.9	0.00e+00	0	23	0	1213202432	70	5321
2026-01-12 08:55:59.50	337.47	16.85	-52.9	-55.7	13.9	0.00e+00	0	23	0	1215299584	70	5414
2026-01-12 08:56:00.49	337.41	16.74	-52.9	-55.6	14.0	0.00e+00	0	23	0	1216348160	71	5080
2026-01-12 08:56:01.48	337.36	16.63	-53.2	-56.1	13.7	0.00e+00	0	23	0	1218445312	71	5367
2026-01-12 08:56:02.48	337.30	16.52	-53.2	-56.1	13.7	0.00e+00	0	23	0	1220542464	71	5379
2026-01-12 08:56:03.47	337.25	16.41	-53.3	-56.2	13.6	0.00e+00	0	23	0	1222639616	71	5418
2026-01-12 08:56:04.46	337.20	16.31	-53.4	-56.3	13.7	0.00e+00	0	23	0	1223688192	72	5208
2026-01-12 08:56:05.46	337.14	16.20	-53.2	-56.1	13.8	0.00e+00	0	23	0	1225785344	72	5048
2026-01-12 08:56:06.45	337.09	16.09	-53.4	-56.3	13.7	0.00e+00	0	23	0	1227882496	72	5172
2026-01-12 08:56:07.44	337.04	15.98	-53.1	-55.9	13.9	0.00e+00	0	23	0	1229979648	72	4961
2026-01-12 08:56:08.44	336.99	15.88	-53.0	-55.6	14.1	0.00e+00	0	23	0	1232076800	72	4796
