passes_logs/2026/01/12/R3.2S_Murmansk/R3.2S_Murmansk__20260112_100639_AQUA_rec.log

#Pass ID: 20260112_100639_AQUA
#Satellite: AQUA
#Configuration: AQUA
#almurnet v.1.7.20251203
#Start time: 2026-01-12 10:09:53

#Version: 2.2.20231116
#Station: R3.2S_Murmansk
#Location: 33.079688 lon 68.888172 lat
#TLE: 1 27424U 02022A   26011.60158398  .00001056  00000+0  22133-3 0  9990
#TLE: 2 27424  98.4078 337.9720 0002034  82.3051 337.8743 14.61815760260390

#Time	Az	El	Level	Level2	SNR	BER	BlckErr	Temp	State	Recorded	gain1	gain2
2026-01-12 10:09:53.84	111.01	19.38	-59.5	-73.3	3.8	1.49e+00	0	22	0	0	84	18385
2026-01-12 10:09:54.84	110.88	19.51	-58.9	-78.2	3.8	7.44e-01	0	22	104	0	85	35579
2026-01-12 10:09:55.84	110.76	19.64	-58.9	-78.2	3.8	7.45e-01	0	23	104	0	85	35458
2026-01-12 10:09:56.85	110.63	19.77	-58.8	-78.2	3.8	7.50e-01	0	22	104	0	85	35318
2026-01-12 10:09:57.86	110.49	19.90	-58.8	-78.1	3.8	7.44e-01	0	23	104	0	85	35098
2026-01-12 10:09:58.86	110.36	20.03	-58.8	-78.1	3.8	7.46e-01	0	23	104	0	85	35157
2026-01-12 10:09:59.87	110.23	20.17	-58.7	-78.0	3.8	7.46e-01	0	22	104	0	85	34840
2026-01-12 10:10:00.87	110.09	20.30	-58.7	-78.0	3.8	7.43e-01	0	23	104	0	85	34853
2026-01-12 10:10:01.86	109.96	20.43	-58.7	-78.0	3.8	7.46e-01	0	22	104	0	85	34715
2026-01-12 10:10:02.86	109.82	20.56	-58.6	-78.0	3.8	7.51e-01	0	23	104	0	85	34626
2026-01-12 10:10:03.86	109.69	20.70	-58.6	-77.9	3.8	7.46e-01	0	23	104	0	85	34445
2026-01-12 10:10:04.86	109.55	20.83	-58.6	-77.9	3.8	7.46e-01	0	23	104	0	85	34237
2026-01-12 10:10:05.86	109.41	20.97	-58.5	-77.9	3.8	7.44e-01	0	22	104	0	85	34134
2026-01-12 10:10:06.86	109.26	21.10	-58.5	-77.8	3.8	7.48e-01	0	23	104	0	85	34051
2026-01-12 10:10:07.86	109.12	21.24	-58.5	-77.7	3.8	7.46e-01	0	23	104	0	85	33390
2026-01-12 10:10:08.86	108.98	21.38	-58.4	-77.7	3.8	7.47e-01	0	23	104	0	85	33644
2026-01-12 10:10:09.87	108.83	21.52	-58.4	-77.7	3.8	7.48e-01	0	23	104	0	85	33504
2026-01-12 10:10:10.86	108.68	21.65	-58.4	-77.7	3.8	7.43e-01	0	23	104	0	85	33340
2026-01-12 10:10:11.87	108.53	21.79	-58.3	-77.6	3.8	7.45e-01	0	22	104	0	85	33241
2026-01-12 10:10:12.86	108.39	21.93	-58.3	-77.6	3.8	7.45e-01	0	23	104	0	85	33075
2026-01-12 10:10:13.86	108.23	22.07	-58.3	-77.6	3.8	7.48e-01	0	22	104	0	85	33010
2026-01-12 10:10:14.85	108.08	22.21	-58.3	-77.6	3.8	7.46e-01	0	23	104	0	85	33014
2026-01-12 10:10:15.85	107.93	22.35	-58.3	-77.6	3.8	7.49e-01	0	23	104	0	85	32970
2026-01-12 10:10:16.84	107.77	22.49	-58.2	-77.6	3.8	7.48e-01	0	22	104	0	85	32957
2026-01-12 10:10:17.84	107.62	22.63	-58.2	-77.6	3.8	7.43e-01	0	22	104	0	85	33070
2026-01-12 10:10:18.84	107.46	22.78	-58.2	-77.6	3.8	7.41e-01	0	22	104	0	85	32963
2026-01-12 10:10:19.84	107.30	22.92	-58.2	-77.6	3.8	7.48e-01	0	23	104	0	85	32944
2026-01-12 10:10:20.84	107.13	23.07	-58.2	-77.5	3.8	7.45e-01	0	23	104	0	85	32887
2026-01-12 10:10:21.84	106.97	23.21	-58.2	-77.5	3.8	7.48e-01	0	22	104	0	85	32916
2026-01-12 10:10:22.84	106.80	23.36	-58.2	-77.5	3.8	7.46e-01	0	22	104	0	85	32826
2026-01-12 10:10:23.84	106.64	23.50	-58.2	-77.5	3.8	7.44e-01	0	22	104	0	85	32810
2026-01-12 10:10:24.83	106.47	23.65	-58.2	-77.5	3.8	7.47e-01	0	23	104	0	85	32860
2026-01-12 10:10:25.82	106.30	23.80	-58.2	-77.6	3.8	7.47e-01	0	23	104	0	85	32950
2026-01-12 10:10:26.81	106.13	23.94	-58.2	-77.5	3.8	7.44e-01	0	23	104	0	85	32771
2026-01-12 10:10:27.79	105.96	24.09	-58.2	-77.5	3.8	7.46e-01	0	23	104	0	85	32621
2026-01-12 10:10:28.78	105.79	24.24	-58.2	-77.5	3.8	7.47e-01	0	23	104	0	85	32587
2026-01-12 10:10:29.76	105.61	24.39	-58.2	-77.4	3.8	7.47e-01	0	23	104	0	85	32530
2026-01-12 10:10:30.75	105.44	24.53	-58.2	-77.4	3.8	7.46e-01	0	22	104	0	85	32511
2026-01-12 10:10:31.74	105.26	24.68	-58.2	-77.4	3.8	7.46e-01	0	22	104	0	85	32430
2026-01-12 10:10:32.73	105.08	24.84	-58.2	-77.3	3.8	7.46e-01	0	22	104	0	85	32167
2026-01-12 10:10:33.72	104.89	24.99	-58.2	-77.3	3.8	7.46e-01	0	23	104	0	85	32129
2026-01-12 10:10:34.70	104.71	25.14	-58.2	-77.4	3.8	7.47e-01	0	22	104	0	85	32530
2026-01-12 10:10:35.68	104.53	25.29	-58.2	-77.5	3.8	7.48e-01	0	23	104	0	85	32687
2026-01-12 10:10:36.67	104.34	25.44	-58.2	-77.3	3.8	7.45e-01	0	23	104	0	85	32086
2026-01-12 10:10:37.65	104.15	25.59	-58.2	-77.3	3.8	7.41e-01	0	23	104	0	85	32036
2026-01-12 10:10:38.63	103.96	25.75	-58.2	-77.4	3.8	7.46e-01	0	23	104	0	85	32208
2026-01-12 10:10:39.62	103.76	25.90	-58.2	-77.4	3.8	7.48e-01	0	23	104	0	85	32251
2026-01-12 10:10:40.61	103.57	26.06	-58.2	-77.3	3.8	7.42e-01	0	23	104	0	85	32082
2026-01-12 10:10:41.59	103.37	26.21	-58.1	-77.0	3.8	7.46e-01	0	23	104	0	85	30732
2026-01-12 10:10:42.58	103.17	26.37	-58.1	-76.9	3.8	7.44e-01	0	22	104	0	85	30509
2026-01-12 10:10:43.56	102.97	26.53	-58.2	-77.4	3.8	7.43e-01	0	22	104	0	85	32201
2026-01-12 10:10:44.54	102.77	26.68	-57.6	-74.3	3.9	7.50e-01	0	23	104	0	84	24062
2026-01-12 10:10:45.52	102.56	26.84	-56.2	-70.3	3.8	7.47e-01	0	22	104	0	81	18077
2026-01-12 10:10:46.51	102.35	27.00	-54.7	-67.6	3.8	7.42e-01	0	23	104	0	78	15650
2026-01-12 10:10:47.49	102.15	27.16	-52.8	-64.8	3.8	7.47e-01	0	22	104	0	74	14230
2026-01-12 10:10:48.48	101.93	27.32	-51.0	-62.6	3.8	7.46e-01	0	22	104	0	71	13217
2026-01-12 10:10:49.46	101.72	27.48	-52.5	-64.3	3.8	7.46e-01	0	23	104	0	72	15214
2026-01-12 10:10:50.45	101.50	27.64	-52.6	-64.5	3.9	7.46e-01	0	22	104	0	74	13831
2026-01-12 10:10:51.48	101.27	27.81	-48.6	-59.8	3.9	7.44e-01	0	22	104	0	66	12790
2026-01-12 10:10:52.47	101.05	27.97	-48.5	-59.6	3.8	7.44e-01	0	22	104	0	66	12478
2026-01-12 10:10:53.46	100.82	28.13	-53.9	-66.5	3.9	7.46e-01	0	22	104	0	77	14572
2026-01-12 10:10:54.45	100.60	28.30	-48.9	-60.1	3.8	7.44e-01	0	22	104	0	66	13236
2026-01-12 10:10:55.43	100.37	28.46	-48.4	-59.6	3.9	7.43e-01	0	23	104	0	66	12490
2026-01-12 10:10:56.42	100.14	28.62	-48.6	-59.8	3.8	7.47e-01	0	22	104	0	66	12669
2026-01-12 10:10:57.41	99.90	28.79	-49.2	-60.4	3.8	7.44e-01	0	22	104	0	67	12945
2026-01-12 10:10:58.40	99.66	28.96	-49.2	-60.4	3.8	7.48e-01	0	23	104	0	66	13666
2026-01-12 10:10:59.38	99.43	29.12	-54.4	-67.2	3.8	7.45e-01	0	23	104	0	78	14891
2026-01-12 10:11:00.38	99.18	29.29	-49.5	-60.8	3.9	7.45e-01	0	23	104	0	68	12800
2026-01-12 10:11:01.38	98.93	29.46	-55.0	-68.1	3.9	7.45e-01	0	22	104	0	79	15584
2026-01-12 10:11:02.38	98.68	29.63	-49.0	-60.2	3.8	7.43e-01	0	22	104	0	67	12564
2026-01-12 10:11:03.38	98.43	29.80	-48.6	-59.8	3.8	7.42e-01	0	23	104	0	66	12716
2026-01-12 10:11:04.38	98.17	29.97	-48.6	-59.8	3.8	7.48e-01	0	23	104	0	65	13454
2026-01-12 10:11:05.36	97.92	30.14	-50.2	-61.5	3.8	7.44e-01	0	22	104	0	69	13073
2026-01-12 10:11:06.36	97.66	30.31	-49.0	-60.3	3.8	7.46e-01	0	22	104	0	66	13420
2026-01-12 10:11:07.36	97.39	30.48	-54.5	-67.2	3.9	7.45e-01	0	22	104	0	78	15015
2026-01-12 10:11:08.34	97.13	30.65	-48.8	-59.7	3.8	7.47e-01	0	22	104	0	66	12664
2026-01-12 10:11:09.34	96.86	30.82	-55.3	-68.3	3.9	7.46e-01	0	23	104	0	79	16059
2026-01-12 10:11:10.33	96.59	30.99	-48.9	-60.1	3.8	7.45e-01	0	22	104	0	67	12508
2026-01-12 10:11:11.33	96.31	31.17	-48.4	-59.5	3.8	7.42e-01	0	22	104	0	66	12370
2026-01-12 10:11:12.33	96.04	31.34	-48.4	-59.5	3.8	7.45e-01	0	23	104	0	65	13056
2026-01-12 10:11:13.32	95.76	31.51	-51.0	-62.6	3.9	7.46e-01	0	22	104	0	71	13135
2026-01-12 10:11:14.31	95.47	31.69	-49.0	-60.2	3.9	7.40e-01	0	22	104	0	66	13344
2026-01-12 10:11:15.31	95.18	31.86	-54.9	-67.9	3.9	7.44e-01	0	23	104	0	78	16298
2026-01-12 10:11:16.30	94.89	32.03	-49.9	-61.3	3.9	7.46e-01	0	23	104	0	69	12717
2026-01-12 10:11:17.30	94.60	32.21	-55.4	-68.8	3.9	7.45e-01	0	22	104	0	79	16900
2026-01-12 10:11:18.29	94.30	32.38	-49.1	-60.4	3.8	7.47e-01	0	23	104	0	67	12880
2026-01-12 10:11:19.28	94.00	32.56	-49.3	-60.7	3.8	7.45e-01	0	23	104	0	67	13277
2026-01-12 10:11:20.27	93.70	32.73	-49.2	-60.6	3.8	7.46e-01	0	23	104	0	67	13133
2026-01-12 10:11:21.26	93.39	32.91	-51.2	-62.8	3.8	7.41e-01	0	22	104	0	71	13501
2026-01-12 10:11:22.24	93.09	33.08	-49.2	-60.5	3.8	7.48e-01	0	22	104	0	67	13001
2026-01-12 10:11:23.23	92.78	33.25	-55.2	-68.4	3.9	7.45e-01	0	22	104	0	79	16311
2026-01-12 10:11:24.22	92.46	33.43	-51.0	-62.6	3.9	7.46e-01	0	23	104	0	71	13202
2026-01-12 10:11:25.21	92.14	33.60	-55.8	-69.6	3.9	7.45e-01	0	22	104	0	79	18651
2026-01-12 10:11:26.21	91.81	33.78	-49.5	-60.8	3.8	7.44e-01	0	22	104	0	68	12764
2026-01-12 10:11:27.20	91.49	33.96	-49.0	-60.3	3.8	7.46e-01	0	23	104	0	67	12798
2026-01-12 10:11:28.19	91.15	34.13	-48.8	-60.0	3.8	7.47e-01	0	23	104	0	66	13034
2026-01-12 10:11:29.18	90.82	34.31	-52.0	-63.8	3.9	7.45e-01	0	22	104	0	73	13542
2026-01-12 10:11:30.16	90.49	34.48	-49.6	-61.0	3.8	7.41e-01	0	23	104	0	68	12998
2026-01-12 10:11:31.15	90.14	34.65	-55.7	-69.5	3.8	7.47e-01	0	22	104	0	79	18475
2026-01-12 10:11:32.13	89.80	34.83	-51.2	-62.7	3.8	7.45e-01	0	22	104	0	71	13403
2026-01-12 10:11:33.12	89.45	35.00	-56.7	-72.0	3.8	7.47e-01	0	22	104	0	81	21813
2026-01-12 10:11:34.11	89.10	35.17	-49.4	-60.7	3.8	7.43e-01	0	22	104	0	68	12664
2026-01-12 10:11:35.10	88.74	35.35	-49.3	-60.5	3.9	7.46e-01	0	23	104	0	67	13098
2026-01-12 10:11:36.09	88.38	35.52	-49.4	-60.7	3.8	7.44e-01	0	23	104	0	67	13413
2026-01-12 10:11:37.09	88.01	35.70	-53.9	-66.4	3.8	7.49e-01	0	22	104	0	75	16276
2026-01-12 10:11:38.08	87.64	35.87	-50.2	-61.6	3.8	7.44e-01	0	23	104	0	69	13165
2026-01-12 10:11:39.07	87.27	36.04	-56.3	-70.7	3.8	7.43e-01	0	23	104	0	80	19895
2026-01-12 10:11:40.05	86.90	36.22	-52.2	-64.1	3.9	7.42e-01	0	22	104	0	73	14008
2026-01-12 10:11:41.04	86.51	36.39	-56.7	-71.9	3.8	7.47e-01	0	23	104	0	81	21511
2026-01-12 10:11:42.03	86.13	36.56	-49.9	-61.3	3.8	7.45e-01	0	22	104	0	69	12727
2026-01-12 10:11:43.02	85.74	36.73	-49.6	-61.0	3.8	7.46e-01	0	23	104	0	68	12975
2026-01-12 10:11:44.02	85.34	36.90	-49.7	-61.0	3.9	7.41e-01	0	22	104	0	68	13060
2026-01-12 10:11:45.01	84.94	37.07	-54.5	-67.3	3.8	7.47e-01	0	22	104	0	76	16969
2026-01-12 10:11:45.99	84.54	37.24	-50.9	-62.4	3.8	7.46e-01	0	22	104	0	71	12874
2026-01-12 10:11:46.97	84.14	37.41	-56.5	-71.2	3.8	7.46e-01	0	22	104	0	80	21118
2026-01-12 10:11:47.96	83.73	37.57	-53.7	-66.0	3.9	7.47e-01	0	23	104	0	76	14581
2026-01-12 10:11:48.94	83.32	37.74	-56.4	-70.8	3.8	7.45e-01	0	23	104	0	80	20263
2026-01-12 10:11:49.93	82.90	37.91	-50.8	-62.3	3.9	7.47e-01	0	22	104	0	70	13540
2026-01-12 10:11:50.93	82.47	38.07	-50.6	-62.0	3.8	7.44e-01	0	22	104	0	70	13002
2026-01-12 10:11:51.91	82.05	38.24	-50.8	-62.5	3.8	7.45e-01	0	22	104	0	70	13738
2026-01-12 10:11:52.90	81.61	38.40	-56.0	-70.0	3.8	7.47e-01	0	22	104	0	79	19445
2026-01-12 10:11:53.89	81.18	38.56	-51.2	-62.7	3.8	7.45e-01	0	23	104	0	71	13408
2026-01-12 10:11:54.88	80.73	38.72	-56.5	-71.2	3.8	7.46e-01	0	22	104	0	80	21238
2026-01-12 10:11:55.87	80.29	38.88	-53.0	-65.0	3.9	7.45e-01	0	23	104	0	75	13771
2026-01-12 10:11:56.85	79.84	39.04	-55.9	-69.7	3.8	7.47e-01	0	23	104	0	79	18925
2026-01-12 10:11:57.85	79.38	39.20	-50.7	-62.2	3.9	7.46e-01	0	23	104	0	70	13400
2026-01-12 10:11:58.84	78.92	39.36	-50.3	-61.7	3.9	7.46e-01	0	22	104	0	69	13386
2026-01-12 10:11:59.83	78.46	39.51	-50.4	-61.8	3.9	7.47e-01	0	23	104	0	69	13569
2026-01-12 10:12:00.82	77.99	39.67	-54.1	-66.7	3.8	7.49e-01	0	23	104	0	75	16869
2026-01-12 10:12:01.81	77.51	39.82	-51.1	-62.6	3.8	7.44e-01	0	22	104	0	71	13209
2026-01-12 10:12:02.81	77.03	39.97	-56.3	-70.6	3.8	7.45e-01	0	23	104	0	80	19663
2026-01-12 10:12:03.80	76.55	40.12	-53.4	-65.6	3.9	7.45e-01	0	23	104	0	76	14014
2026-01-12 10:12:04.80	76.05	40.27	-55.4	-68.7	3.8	7.45e-01	0	23	104	0	78	17822
2026-01-12 10:12:05.79	75.56	40.41	-50.7	-62.2	3.9	7.47e-01	0	23	104	0	70	13312
2026-01-12 10:12:06.77	75.07	40.56	-50.1	-61.4	3.9	7.49e-01	0	23	104	0	69	12920
2026-01-12 10:12:07.77	74.56	40.70	-49.8	-61.1	3.8	7.45e-01	0	23	104	0	68	13211
2026-01-12 10:12:08.76	74.06	40.84	-53.4	-65.6	3.9	7.46e-01	0	22	104	0	74	15706
2026-01-12 10:12:09.75	73.55	40.98	-51.2	-62.8	3.9	7.47e-01	0	22	104	0	71	13442
2026-01-12 10:12:10.74	73.03	41.12	-56.0	-70.0	3.8	7.46e-01	0	22	104	0	79	19490
2026-01-12 10:12:11.73	72.52	41.25	-53.4	-65.7	3.8	7.46e-01	0	22	104	0	76	14163
2026-01-12 10:12:12.71	72.00	41.38	-53.6	-65.8	3.8	7.45e-01	0	23	104	0	74	16081
2026-01-12 10:12:13.69	71.48	41.51	-50.8	-62.1	3.8	7.42e-01	0	23	104	0	70	13237
2026-01-12 10:12:14.68	70.94	41.64	-50.0	-61.3	3.9	7.48e-01	0	23	104	0	69	12744
2026-01-12 10:12:15.66	70.41	41.76	-50.2	-61.7	3.9	7.45e-01	0	22	104	0	69	13365
2026-01-12 10:12:16.65	69.87	41.89	-53.0	-65.0	3.8	7.45e-01	0	23	104	0	73	15580
2026-01-12 10:12:17.63	69.33	42.00	-51.1	-62.7	3.9	7.43e-01	0	22	104	0	71	13300
2026-01-12 10:12:18.62	68.79	42.12	-54.4	-67.2	3.8	7.49e-01	0	22	104	0	76	16701
2026-01-12 10:12:19.60	68.24	42.24	-54.6	-67.4	3.9	7.43e-01	0	22	104	0	78	15371
2026-01-12 10:12:20.59	67.68	42.35	-51.5	-63.2	3.8	7.47e-01	0	23	104	0	70	14934
2026-01-12 10:12:21.58	67.12	42.46	-51.5	-63.2	3.9	7.43e-01	0	22	104	0	72	13375
2026-01-12 10:12:22.57	66.56	42.57	-49.7	-61.0	3.9	7.45e-01	0	23	104	0	68	13079
2026-01-12 10:12:23.55	66.00	42.67	-49.5	-60.8	3.8	7.48e-01	0	23	104	0	68	12680
2026-01-12 10:12:24.54	65.42	42.77	-51.5	-63.2	3.8	7.46e-01	0	23	104	0	70	14949
2026-01-12 10:12:25.52	64.85	42.87	-52.2	-64.0	3.9	7.48e-01	0	22	104	0	73	13875
2026-01-12 10:12:26.51	64.28	42.97	-52.8	-65.0	3.8	7.46e-01	0	23	104	0	73	15514
2026-01-12 10:12:27.49	63.70	43.06	-55.3	-68.3	3.8	7.43e-01	0	23	104	0	79	15976
2026-01-12 10:12:28.47	63.12	43.15	-49.8	-61.1	3.8	7.43e-01	0	22	104	0	68	13250
2026-01-12 10:12:29.46	62.53	43.24	-53.7	-65.8	3.9	7.43e-01	0	22	104	0	76	14297
2026-01-12 10:12:30.46	61.93	43.32	-49.9	-61.3	3.8	7.44e-01	0	23	104	0	69	12719
2026-01-12 10:12:31.44	61.34	43.40	-49.7	-61.1	3.9	7.49e-01	0	23	104	0	68	13154
2026-01-12 10:12:32.43	60.74	43.48	-50.8	-62.3	3.8	7.44e-01	0	23	104	0	69	14270
2026-01-12 10:12:33.41	60.15	43.55	-53.5	-65.9	3.9	7.44e-01	0	23	104	0	76	14404
2026-01-12 10:12:34.40	59.55	43.62	-51.3	-62.9	3.8	7.46e-01	0	22	104	0	70	14396
2026-01-12 10:12:35.40	58.93	43.69	-55.6	-69.2	3.9	7.43e-01	0	23	104	0	80	16855
2026-01-12 10:12:36.40	58.32	43.76	-49.5	-60.9	3.8	7.44e-01	0	22	104	0	68	12820
2026-01-12 10:12:37.40	57.70	43.82	-54.5	-67.2	3.9	7.41e-01	0	23	104	0	78	14978
2026-01-12 10:12:38.41	57.07	43.87	-49.5	-60.9	3.8	7.44e-01	0	22	104	0	68	12933
2026-01-12 10:12:39.42	56.44	43.93	-49.4	-60.7	3.9	7.45e-01	0	22	104	0	68	12646
2026-01-12 10:12:40.42	55.82	43.98	-49.7	-61.0	3.8	7.45e-01	0	23	104	0	67	13749
2026-01-12 10:12:41.42	55.19	44.02	-52.1	-63.9	3.9	7.44e-01	0	23	104	0	73	13583
2026-01-12 10:12:42.43	54.56	44.07	-52.1	-63.9	3.9	7.45e-01	0	22	104	0	71	15328
2026-01-12 10:12:43.44	53.92	44.11	-55.6	-69.2	3.9	7.42e-01	0	22	104	0	80	16719
2026-01-12 10:12:44.45	53.29	44.14	-49.7	-61.0	3.8	7.45e-01	0	22	104	0	68	13051
2026-01-12 10:12:45.45	52.65	44.17	-53.4	-65.7	3.9	7.42e-01	0	22	104	0	76	14056
2026-01-12 10:12:46.45	52.02	44.20	-49.9	-61.3	3.8	7.48e-01	0	22	104	0	69	12704
2026-01-12 10:12:47.47	51.37	44.22	-49.8	-61.2	3.9	7.42e-01	0	22	104	0	68	13365
2026-01-12 10:12:48.47	50.74	44.24	-50.3	-61.7	3.8	7.46e-01	0	22	104	0	68	14082
2026-01-12 10:12:49.48	50.09	44.26	-51.5	-63.3	3.9	7.46e-01	0	23	104	0	72	13425
2026-01-12 10:12:50.48	49.46	44.27	-53.1	-65.1	3.8	7.46e-01	0	22	104	0	73	15650
2026-01-12 10:12:51.48	48.82	44.28	-55.4	-68.6	3.8	7.47e-01	0	22	104	0	80	15594
2026-01-12 10:12:52.49	48.18	44.28	-49.7	-61.0	3.9	7.44e-01	0	22	104	0	68	13062
2026-01-12 10:12:53.50	47.53	44.28	-52.5	-64.4	3.9	7.42e-01	0	22	104	0	74	13659
2026-01-12 10:12:54.50	46.90	44.28	-49.3	-60.6	3.8	7.44e-01	0	22	104	0	67	13193
2026-01-12 10:12:55.51	46.25	44.27	-49.4	-60.8	3.9	7.45e-01	0	22	104	0	67	13424
2026-01-12 10:12:56.52	45.61	44.26	-50.8	-62.3	3.9	7.46e-01	0	23	104	0	69	14260
2026-01-12 10:12:57.53	44.97	44.24	-51.5	-63.2	3.8	7.47e-01	0	23	104	0	72	13351
2026-01-12 10:12:58.54	44.32	44.22	-54.0	-66.3	3.8	7.45e-01	0	22	104	0	75	16080
2026-01-12 10:12:59.54	43.69	44.20	-55.1	-68.2	3.9	7.45e-01	0	22	104	0	79	15837
2026-01-12 10:13:00.55	43.05	44.17	-50.1	-61.6	3.8	7.46e-01	0	22	104	0	68	14020
2026-01-12 10:13:01.55	42.42	44.14	-51.4	-62.9	3.9	7.46e-01	0	23	104	0	72	12926
2026-01-12 10:13:02.56	41.78	44.10	-49.3	-60.6	3.9	7.46e-01	0	22	104	0	67	13219
2026-01-12 10:13:03.57	41.15	44.06	-49.5	-60.9	3.9	7.43e-01	0	22	104	0	67	13671
2026-01-12 10:13:04.57	40.52	44.02	-51.9	-63.6	3.8	7.44e-01	0	23	104	0	71	14786
2026-01-12 10:13:05.58	39.89	43.97	-51.7	-63.2	3.8	7.45e-01	0	22	104	0	72	13390
2026-01-12 10:13:06.58	39.26	43.92	-55.1	-68.1	3.8	7.47e-01	0	22	104	0	77	17653
2026-01-12 10:13:07.58	38.64	43.87	-55.1	-68.2	3.9	7.46e-01	0	22	104	0	79	15833
2026-01-12 10:13:08.59	38.02	43.81	-50.9	-62.4	3.8	7.45e-01	0	23	104	0	69	14390
2026-01-12 10:13:09.59	37.40	43.75	-51.8	-63.7	3.8	7.47e-01	0	22	104	0	73	13344
2026-01-12 10:13:10.60	36.78	43.68	-49.7	-61.1	3.8	7.47e-01	0	23	104	0	68	13139
2026-01-12 10:13:11.61	36.16	43.61	-49.5	-60.7	3.8	7.47e-01	0	22	104	0	68	12664
2026-01-12 10:13:12.61	35.55	43.54	-50.8	-62.3	3.8	7.47e-01	0	23	104	0	69	14359
2026-01-12 10:13:13.62	34.94	43.47	-50.7	-62.1	3.9	7.44e-01	0	22	104	0	70	13166
2026-01-12 10:13:14.63	34.33	43.39	-55.8	-69.4	3.8	7.46e-01	0	22	104	0	79	18182
2026-01-12 10:13:15.64	33.72	43.30	-54.5	-67.2	3.9	7.49e-01	0	22	104	0	78	15015
2026-01-12 10:13:16.64	33.13	43.22	-51.8	-63.6	3.8	7.48e-01	0	23	104	0	71	14831
2026-01-12 10:13:17.65	32.53	43.13	-50.4	-61.9	3.9	7.43e-01	0	22	104	0	70	12835
2026-01-12 10:13:18.66	31.93	43.04	-49.5	-60.8	3.8	7.44e-01	0	22	104	0	68	12802
2026-01-12 10:13:19.66	31.34	42.94	-49.1	-60.2	3.9	7.42e-01	0	22	104	0	67	12636
2026-01-12 10:13:20.66	30.76	42.84	-52.5	-64.3	3.8	7.45e-01	0	23	104	0	72	15207
2026-01-12 10:13:21.66	30.18	42.74	-51.2	-62.6	3.9	7.43e-01	0	22	104	0	71	13252
2026-01-12 10:13:22.67	29.60	42.64	-55.9	-69.6	3.8	7.48e-01	0	23	104	0	79	18683
2026-01-12 10:13:23.68	29.02	42.53	-54.5	-67.3	3.9	7.48e-01	0	22	104	0	78	15197
2026-01-12 10:13:24.69	28.45	42.42	-52.6	-64.3	3.8	7.49e-01	0	23	104	0	72	15141
2026-01-12 10:13:25.70	27.88	42.30	-51.2	-62.8	3.9	7.45e-01	0	23	104	0	71	13423
2026-01-12 10:13:26.71	27.31	42.19	-50.2	-61.7	3.8	7.47e-01	0	22	104	0	69	13292
2026-01-12 10:13:27.72	26.75	42.07	-49.9	-61.3	3.9	7.42e-01	0	23	104	0	69	12779
2026-01-12 10:13:28.72	26.20	41.95	-53.4	-65.5	3.9	7.43e-01	0	22	104	0	74	15427
2026-01-12 10:13:29.73	25.65	41.82	-50.8	-62.0	3.9	7.43e-01	0	23	104	0	70	13074
2026-01-12 10:13:30.74	25.10	41.70	-56.8	-71.7	3.8	7.43e-01	0	23	104	0	81	21130
2026-01-12 10:13:31.74	24.56	41.57	-54.1	-66.6	3.9	7.47e-01	0	22	104	0	77	14848
2026-01-12 10:13:32.74	24.03	41.44	-53.4	-65.6	3.8	7.46e-01	0	23	104	0	74	15590
2026-01-12 10:13:33.75	23.49	41.31	-51.2	-62.7	3.9	7.42e-01	0	22	104	0	71	13391
2026-01-12 10:13:34.75	22.97	41.17	-50.0	-61.4	3.9	7.47e-01	0	22	104	0	69	12827
2026-01-12 10:13:35.76	22.44	41.03	-49.9	-61.3	3.8	7.47e-01	0	23	104	0	69	12738
2026-01-12 10:13:36.76	21.93	40.90	-52.5	-64.5	3.9	7.49e-01	0	22	104	0	72	15428
2026-01-12 10:13:37.77	21.41	40.75	-50.9	-62.1	3.9	7.47e-01	0	23	104	0	71	12461
2026-01-12 10:13:38.77	20.90	40.61	-56.9	-71.9	3.8	7.47e-01	0	23	104	0	81	21552
2026-01-12 10:13:39.77	20.40	40.47	-54.9	-67.9	3.9	7.43e-01	0	23	104	0	79	15299
2026-01-12 10:13:40.78	19.90	40.32	-54.5	-67.0	3.8	7.48e-01	0	22	104	0	76	16336
2026-01-12 10:13:41.79	19.40	40.17	-51.2	-62.6	3.9	7.45e-01	0	23	104	0	71	13228
2026-01-12 10:13:42.80	18.91	40.02	-50.8	-62.4	3.8	7.46e-01	0	22	104	0	70	13650
2026-01-12 10:13:43.81	18.42	39.86	-50.6	-61.9	3.8	7.45e-01	0	22	104	0	70	12830
2026-01-12 10:13:44.82	17.94	39.71	-53.8	-66.5	3.8	7.46e-01	0	22	104	0	75	16343
2026-01-12 10:13:45.82	17.46	39.55	-51.4	-63.0	3.8	7.40e-01	0	22	104	0	72	13050
2026-01-12 10:13:46.82	16.99	39.40	-57.2	-73.0	3.8	7.49e-01	0	23	104	0	82	23279
2026-01-12 10:13:47.83	16.52	39.24	-54.6	-67.3	3.9	7.43e-01	0	22	104	0	78	15220
2026-01-12 10:13:48.84	16.06	39.08	-55.0	-67.9	3.8	7.47e-01	0	23	104	0	77	17099
2026-01-12 10:13:49.84	15.60	38.92	-51.5	-63.1	3.8	7.46e-01	0	22	104	0	72	13209
2026-01-12 10:13:50.84	15.15	38.76	-51.0	-62.7	3.8	7.46e-01	0	22	104	0	71	13364
2026-01-12 10:13:51.85	14.70	38.59	-50.4	-61.7	3.8	7.45e-01	0	23	104	0	70	12592
2026-01-12 10:13:52.85	14.26	38.43	-52.6	-64.3	3.8	7.45e-01	0	22	104	0	72	15108
2026-01-12 10:13:53.86	13.82	38.26	-51.3	-62.9	3.9	7.47e-01	0	22	104	0	71	13676
2026-01-12 10:13:54.87	13.38	38.10	-57.5	-73.6	3.8	7.49e-01	0	22	104	0	82	24760
2026-01-12 10:13:55.88	12.95	37.93	-54.6	-67.4	3.8	7.47e-01	0	22	104	0	78	15239
2026-01-12 10:13:56.89	12.52	37.76	-55.5	-69.0	3.8	7.47e-01	0	22	104	0	78	18470
2026-01-12 10:13:57.89	12.10	37.59	-51.5	-63.1	3.8	7.46e-01	0	22	104	0	72	13202
2026-01-12 10:13:58.90	11.68	37.42	-50.6	-61.9	3.8	7.43e-01	0	22	104	0	70	12823
2026-01-12 10:13:59.91	11.27	37.25	-50.4	-61.8	3.8	7.43e-01	0	23	104	0	70	12742
2026-01-12 10:14:00.92	10.86	37.08	-52.9	-65.0	3.8	7.46e-01	0	23	104	0	73	15412
2026-01-12 10:14:01.93	10.45	36.90	-51.3	-62.5	3.8	7.47e-01	0	22	104	0	71	13103
2026-01-12 10:14:02.94	10.05	36.73	-57.7	-74.7	3.7	7.45e-01	0	22	104	0	83	26573
2026-01-12 10:14:03.95	9.66	36.56	-54.6	-67.3	3.8	7.46e-01	0	22	104	0	78	15185
2026-01-12 10:14:04.96	9.27	36.38	-55.5	-68.6	3.8	7.44e-01	0	23	104	0	78	17517
2026-01-12 10:14:05.96	8.88	36.21	-51.5	-63.1	3.8	7.45e-01	0	22	104	0	72	13155
2026-01-12 10:14:06.97	8.50	36.03	-51.3	-63.1	3.9	7.45e-01	0	23	104	0	71	14028
2026-01-12 10:14:07.98	8.12	35.86	-50.9	-62.5	3.8	7.46e-01	0	22	104	0	71	13026
2026-01-12 10:14:08.99	7.74	35.68	-53.6	-65.9	3.8	7.45e-01	0	22	104	0	74	16138
2026-01-12 10:14:09.99	7.38	35.50	-51.0	-62.4	3.8	7.43e-01	0	22	104	0	71	12855
2026-01-12 10:14:11.00	7.01	35.33	-57.7	-74.6	3.8	7.43e-01	0	23	104	0	83	26383
2026-01-12 10:14:12.00	6.65	35.15	-54.5	-67.4	3.8	7.45e-01	0	23	104	0	78	15249
2026-01-12 10:14:13.01	6.29	34.98	-55.6	-69.2	3.8	7.45e-01	0	23	104	0	78	18756
2026-01-12 10:14:14.01	5.94	34.80	-51.1	-62.7	3.8	7.42e-01	0	22	104	0	71	13338
2026-01-12 10:14:15.02	5.59	34.62	-50.5	-61.8	3.8	7.42e-01	0	22	104	0	70	12783
2026-01-12 10:14:16.03	5.24	34.44	-50.0	-61.3	3.9	7.44e-01	0	23	104	0	69	12667
2026-01-12 10:14:17.03	4.90	34.27	-52.4	-64.5	3.8	7.46e-01	0	22	104	0	72	15530
2026-01-12 10:14:18.04	4.56	34.09	-50.8	-62.4	3.9	7.49e-01	0	23	104	0	70	13626
2026-01-12 10:14:19.04	4.23	33.91	-57.6	-74.3	3.8	7.50e-01	0	23	104	0	82	26952
2026-01-12 10:14:20.05	3.90	33.74	-54.4	-67.0	3.9	7.46e-01	0	23	104	0	78	14585
2026-01-12 10:14:21.05	3.58	33.56	-55.4	-69.0	3.9	7.47e-01	0	22	104	0	78	18342
2026-01-12 10:14:22.06	3.25	33.38	-50.6	-62.0	3.8	7.47e-01	0	22	104	0	70	13086
2026-01-12 10:14:23.06	2.93	33.21	-50.8	-62.1	3.8	7.44e-01	0	23	104	0	70	13127
2026-01-12 10:14:24.07	2.62	33.03	-50.4	-61.7	3.8	7.43e-01	0	22	104	0	70	12653
2026-01-12 10:14:25.07	2.31	32.85	-53.2	-65.5	3.8	7.45e-01	0	23	104	0	74	15545
2026-01-12 10:14:26.08	2.00	32.67	-50.4	-62.0	3.8	7.45e-01	0	22	104	0	70	13006
2026-01-12 10:14:27.09	1.69	32.50	-57.5	-74.1	3.8	7.42e-01	0	22	104	0	82	26214
2026-01-12 10:14:28.10	1.39	32.32	-53.7	-65.9	3.8	7.43e-01	0	23	104	0	76	14436
2026-01-12 10:14:29.11	1.09	32.14	-54.9	-68.2	3.8	7.43e-01	0	22	104	0	77	17768
2026-01-12 10:14:30.12	0.79	31.97	-50.5	-61.9	3.9	7.44e-01	0	23	104	0	70	12855
2026-01-12 10:14:31.12	0.50	31.79	-50.4	-61.6	3.8	7.46e-01	0	22	104	0	70	12443
2026-01-12 10:14:32.13	0.21	31.62	-50.1	-61.5	3.8	7.47e-01	0	23	104	0	69	13097
2026-01-12 10:14:33.14	359.93	31.44	-52.6	-65.0	3.8	7.45e-01	0	23	104	0	73	15434
2026-01-12 10:14:34.15	359.64	31.27	-50.2	-61.7	3.9	7.45e-01	0	23	104	0	69	13355
2026-01-12 10:14:35.15	359.37	31.09	-57.1	-72.7	3.8	7.41e-01	0	22	104	0	82	22491
2026-01-12 10:14:36.16	359.09	30.92	-53.5	-65.7	3.9	7.46e-01	0	22	104	0	76	14202
2026-01-12 10:14:37.16	358.82	30.75	-54.6	-67.6	3.8	7.43e-01	0	22	104	0	77	16595
2026-01-12 10:14:38.17	358.55	30.57	-50.5	-62.1	3.8	7.47e-01	0	22	104	0	70	13200
2026-01-12 10:14:39.18	358.28	30.40	-49.7	-60.8	3.9	7.44e-01	0	22	104	0	68	12781
2026-01-12 10:14:40.18	358.02	30.23	-49.3	-60.4	3.8	7.47e-01	0	22	104	0	67	12950
2026-01-12 10:14:41.18	357.76	30.06	-51.4	-63.2	3.9	7.44e-01	0	23	104	0	71	14132
2026-01-12 10:14:42.19	357.50	29.89	-50.7	-62.3	3.8	7.42e-01	0	22	104	0	69	14250
2026-01-12 10:14:43.20	357.25	29.71	-57.1	-72.8	3.9	7.43e-01	0	23	104	0	82	22601
2026-01-12 10:14:44.21	356.99	29.54	-53.1	-65.0	3.8	7.44e-01	0	23	104	0	75	13827
2026-01-12 10:14:45.21	356.74	29.37	-54.3	-66.9	3.9	7.48e-01	0	22	104	0	77	15363
2026-01-12 10:14:46.22	356.50	29.20	-50.6	-62.3	3.8	7.46e-01	0	22	104	0	70	13466
2026-01-12 10:14:47.23	356.25	29.03	-50.3	-61.9	3.8	7.43e-01	0	22	104	0	69	13610
2026-01-12 10:14:48.24	356.01	28.87	-50.6	-62.1	3.8	7.48e-01	0	22	104	0	69	13951
2026-01-12 10:14:49.24	355.77	28.70	-53.4	-65.7	3.8	7.48e-01	0	22	104	0	75	14896
2026-01-12 10:14:50.25	355.54	28.53	-51.3	-63.1	3.8	7.47e-01	0	22	104	0	70	14805
2026-01-12 10:14:51.26	355.30	28.36	-57.0	-72.6	3.9	7.49e-01	0	22	104	0	82	22173
2026-01-12 10:14:52.26	355.07	28.20	-52.3	-64.5	3.9	7.45e-01	0	22	104	0	74	13850
2026-01-12 10:14:53.26	354.84	28.03	-54.0	-66.3	3.8	7.45e-01	0	22	104	0	77	14314
2026-01-12 10:14:54.26	354.62	27.87	-50.6	-61.9	3.9	7.46e-01	0	22	104	0	70	12846
2026-01-12 10:14:55.27	354.40	27.71	-50.2	-61.7	3.8	7.45e-01	0	22	104	0	69	13294
2026-01-12 10:14:56.28	354.17	27.54	-49.9	-61.4	3.8	7.45e-01	0	23	104	0	68	13639
2026-01-12 10:14:57.29	353.95	27.38	-51.5	-63.5	3.9	7.45e-01	0	23	104	0	71	14544
2026-01-12 10:14:58.29	353.74	27.22	-52.1	-63.9	3.8	7.46e-01	0	22	104	0	71	15241
2026-01-12 10:14:59.29	353.53	27.05	-56.8	-71.8	3.9	7.44e-01	0	22	104	0	82	20113
2026-01-12 10:15:00.29	353.32	26.89	-52.4	-64.3	3.8	7.45e-01	0	23	104	0	74	13466
2026-01-12 10:15:01.30	353.11	26.73	-53.7	-65.9	3.8	7.45e-01	0	23	104	0	76	14516
2026-01-12 10:15:02.30	352.90	26.57	-50.8	-62.4	3.8	7.45e-01	0	23	104	0	70	13613
2026-01-12 10:15:03.31	352.69	26.41	-50.2	-61.6	3.9	7.44e-01	0	23	104	0	69	13121
2026-01-12 10:15:04.31	352.49	26.25	-49.9	-61.3	3.8	7.49e-01	0	22	104	0	68	13505
2026-01-12 10:15:05.32	352.29	26.10	-51.5	-63.3	3.9	7.46e-01	0	23	104	0	71	14259
2026-01-12 10:15:06.33	352.09	25.94	-52.9	-65.1	3.8	7.47e-01	0	23	104	0	73	15674
2026-01-12 10:15:07.34	351.89	25.78	-56.6	-71.6	3.9	7.39e-01	0	22	104	0	82	19652
2026-01-12 10:15:08.34	351.70	25.62	-52.1	-63.9	3.9	7.42e-01	0	23	104	0	73	13681
2026-01-12 10:15:09.35	351.51	25.47	-53.1	-65.1	3.9	7.45e-01	0	23	104	0	75	13891
2026-01-12 10:15:10.36	351.31	25.31	-51.0	-62.3	3.8	7.46e-01	0	22	104	0	71	12754
2026-01-12 10:15:11.37	351.12	25.16	-50.5	-61.8	3.8	7.41e-01	0	23	104	0	70	12790
2026-01-12 10:15:12.38	350.94	25.00	-50.5	-61.9	3.8	7.44e-01	0	22	104	0	69	13617
2026-01-12 10:15:13.38	350.75	24.85	-51.7	-63.6	3.9	7.45e-01	0	23	104	0	72	13986
2026-01-12 10:15:14.38	350.57	24.70	-53.8	-66.6	3.8	7.45e-01	0	23	104	0	75	16670
2026-01-12 10:15:15.39	350.39	24.55	-56.5	-71.2	3.9	7.44e-01	0	22	104	0	82	18931
2026-01-12 10:15:16.40	350.21	24.39	-51.8	-63.2	3.9	7.41e-01	0	22	104	0	72	13398
2026-01-12 10:15:17.41	350.03	24.24	-53.4	-65.5	3.9	7.46e-01	0	23	104	0	76	13858
2026-01-12 10:15:18.41	349.86	24.09	-51.5	-62.9	3.9	7.43e-01	0	23	104	0	72	12905
2026-01-12 10:15:19.42	349.68	23.94	-51.1	-62.7	3.8	7.48e-01	0	23	104	0	71	13270
2026-01-12 10:15:20.43	349.51	23.79	-51.3	-62.9	3.8	7.47e-01	0	23	104	0	70	14506
2026-01-12 10:15:21.43	349.34	23.65	-51.7	-63.6	3.8	7.45e-01	0	22	104	0	72	14029
2026-01-12 10:15:22.43	349.17	23.50	-54.6	-67.5	3.8	7.49e-01	0	23	104	0	76	17480
2026-01-12 10:15:23.43	349.01	23.36	-56.4	-71.0	3.8	7.46e-01	0	23	104	0	82	18414
2026-01-12 10:15:24.44	348.84	23.21	-51.5	-63.1	3.9	7.46e-01	0	23	104	0	72	13254
2026-01-12 10:15:25.44	348.68	23.06	-53.0	-65.0	3.8	7.46e-01	0	22	104	0	75	13856
2026-01-12 10:15:26.45	348.52	22.92	-51.3	-62.8	3.8	7.47e-01	0	23	104	0	71	13529
2026-01-12 10:15:27.46	348.36	22.77	-50.6	-62.0	3.8	7.45e-01	0	23	104	0	70	13011
2026-01-12 10:15:28.46	348.20	22.63	-50.6	-62.1	3.8	7.50e-01	0	22	104	0	69	13891
2026-01-12 10:15:29.47	348.04	22.49	-51.2	-62.8	3.8	7.47e-01	0	23	104	0	71	13514
2026-01-12 10:15:30.48	347.88	22.35	-55.3	-68.8	3.8	7.48e-01	0	23	104	0	78	18030
2026-01-12 10:15:31.49	347.73	22.20	-56.3	-70.6	3.9	7.47e-01	0	23	104	0	81	18590
2026-01-12 10:15:32.49	347.58	22.06	-51.5	-63.2	3.8	7.47e-01	0	23	104	0	72	13295
2026-01-12 10:15:33.50	347.42	21.92	-52.7	-64.7	3.8	7.45e-01	0	22	104	0	74	14206
2026-01-12 10:15:34.50	347.28	21.78	-51.4	-63.0	3.9	7.44e-01	0	22	104	0	72	13098
2026-01-12 10:15:35.51	347.13	21.64	-50.6	-62.1	3.9	7.43e-01	0	23	104	0	70	13179
2026-01-12 10:15:36.52	346.98	21.50	-50.8	-62.2	3.8	7.48e-01	0	22	104	0	69	14054
2026-01-12 10:15:37.51	346.84	21.37	-51.3	-62.8	3.8	7.46e-01	0	22	104	0	71	13566
2026-01-12 10:15:38.52	346.69	21.23	-55.3	-68.7	3.8	7.46e-01	0	22	104	0	78	17776
2026-01-12 10:15:39.53	346.55	21.09	-56.3	-70.7	3.8	7.45e-01	0	23	104	0	81	18734
2026-01-12 10:15:40.54	346.41	20.96	-51.3	-63.0	3.9	7.48e-01	0	23	104	0	71	13863
2026-01-12 10:15:41.55	346.27	20.82	-52.4	-64.4	3.8	7.44e-01	0	23	104	0	74	13656
2026-01-12 10:15:42.55	346.13	20.69	-51.2	-62.8	3.9	7.44e-01	0	22	104	0	71	13508
2026-01-12 10:15:43.56	345.99	20.55	-50.6	-62.0	3.9	7.46e-01	0	23	104	0	70	12968
2026-01-12 10:15:44.56	345.85	20.42	-50.9	-62.5	3.8	7.47e-01	0	22	104	0	69	14616
2026-01-12 10:15:45.57	345.72	20.29	-51.1	-62.6	3.8	7.45e-01	0	22	104	0	70	14025
2026-01-12 10:15:46.58	345.58	20.15	-56.0	-70.3	3.7	7.49e-01	0	22	104	0	79	20233
2026-01-12 10:15:47.59	345.45	20.02	-56.3	-70.9	3.9	7.41e-01	0	22	104	0	81	19217
2026-01-12 10:15:48.59	345.32	19.89	-51.7	-63.6	3.9	7.51e-01	0	22	104	0	72	14017
2026-01-12 10:15:49.60	345.19	19.76	-53.7	-56.8	14.8	6.03e-01	0	22	0	0	75	5381
2026-01-12 10:15:50.61	345.06	19.63	-53.4	-56.4	15.1	6.00e-01	0	23	0	1572864	75	5154
2026-01-12 10:15:51.62	344.93	19.50	-53.2	-56.1	15.3	6.02e-01	0	23	0	3670016	75	4932
2026-01-12 10:15:52.62	344.81	19.37	-52.3	-54.7	15.8	6.01e-01	0	22	0	5242880	73	4739
2026-01-12 10:15:53.63	344.68	19.24	-51.5	-53.7	16.0	6.04e-01	0	22	0	7340032	72	4461
2026-01-12 10:15:54.63	344.56	19.12	-51.1	-53.2	16.0	6.01e-01	0	22	0	9437184	71	4481
2026-01-12 10:15:55.64	344.43	18.99	-50.8	-52.8	16.0	6.01e-01	0	22	0	11010048	70	4510
2026-01-12 10:15:56.64	344.31	18.86	-50.8	-52.8	16.0	6.02e-01	0	23	0	13107200	70	4531
2026-01-12 10:15:57.64	344.19	18.74	-50.5	-52.4	16.2	6.00e-01	0	23	0	14680064	70	4314
2026-01-12 10:15:58.65	344.07	18.61	-49.8	-51.6	16.1	6.03e-01	0	22	0	16777216	68	4412
2026-01-12 10:15:59.65	343.95	18.49	-49.5	-51.2	16.3	6.03e-01	0	22	0	18874368	68	4241
2026-01-12 10:16:00.66	343.84	18.37	-49.1	-50.8	16.2	6.05e-01	0	22	0	20447232	67	4269
2026-01-12 10:16:01.66	343.72	18.24	-49.0	-50.6	16.3	6.04e-01	0	22	0	22544384	67	4182
2026-01-12 10:16:02.67	343.60	18.12	-49.1	-50.8	16.2	6.02e-01	0	22	0	24117248	67	4279
2026-01-12 10:16:03.67	343.49	18.00	-48.9	-50.6	16.3	6.00e-01	0	23	0	26214400	67	4173
2026-01-12 10:16:04.68	343.38	17.88	-49.0	-50.7	16.3	6.04e-01	0	22	0	28311552	67	4211
2026-01-12 10:16:05.69	343.26	17.75	-49.1	-50.8	16.2	6.04e-01	0	22	0	29884416	67	4250
2026-01-12 10:16:06.69	343.15	17.63	-49.0	-50.7	16.3	6.03e-01	0	22	0	31981568	67	4206
2026-01-12 10:16:07.69	343.04	17.51	-48.9	-50.6	16.3	6.00e-01	0	23	0	33554432	67	4168
2026-01-12 10:16:08.70	342.93	17.39	-49.0	-50.7	16.3	6.02e-01	0	22	0	35651584	67	4212
2026-01-12 10:16:09.71	342.82	17.27	-49.0	-50.7	16.3	6.01e-01	0	22	0	37748736	67	4223
2026-01-12 10:16:10.72	342.72	17.16	-49.0	-50.7	16.3	6.05e-01	0	22	0	39321600	67	4239
2026-01-12 10:16:11.72	342.61	17.04	-49.0	-50.7	16.3	6.02e-01	0	23	0	41418752	67	4224
2026-01-12 10:16:12.73	342.50	16.92	-49.0	-50.7	16.3	6.04e-01	0	23	0	42991616	67	4225
2026-01-12 10:16:13.73	342.40	16.80	-49.1	-50.8	16.3	6.01e-01	0	22	0	45088768	67	4255
2026-01-12 10:16:14.74	342.29	16.69	-49.0	-50.7	16.3	6.00e-01	0	22	0	47185920	67	4242
2026-01-12 10:16:15.74	342.19	16.57	-49.0	-50.7	16.3	6.00e-01	0	23	0	48758784	67	4233
2026-01-12 10:16:16.75	342.09	16.46	-48.9	-50.6	16.3	6.00e-01	0	22	0	50855936	67	4162
2026-01-12 10:16:17.76	341.99	16.34	-49.0	-50.7	16.3	6.02e-01	0	22	0	52428800	67	4211
2026-01-12 10:16:18.76	341.89	16.23	-49.0	-50.7	16.3	5.99e-01	0	22	0	54525952	67	4224
2026-01-12 10:16:19.76	341.79	16.11	-49.0	-50.7	16.2	6.02e-01	0	22	0	56098816	67	4241
2026-01-12 10:16:20.76	341.69	16.00	-49.1	-50.8	16.2	6.03e-01	0	22	0	58195968	67	4265
2026-01-12 10:16:21.77	341.59	15.89	-49.0	-50.7	16.3	6.03e-01	0	22	0	60293120	67	4200
2026-01-12 10:16:22.78	341.49	15.77	-49.1	-50.8	16.2	6.02e-01	0	22	0	61865984	67	4263
2026-01-12 10:16:23.79	341.40	15.66	-49.0	-50.7	16.3	6.00e-01	0	22	0	63963136	67	4241
2026-01-12 10:16:24.80	341.30	15.55	-48.9	-50.6	16.3	6.02e-01	0	22	0	66060288	67	4180
2026-01-12 10:16:25.80	341.20	15.44	-49.0	-50.7	16.3	6.02e-01	0	23	0	67633152	67	4206
2026-01-12 10:16:26.81	341.11	15.33	-49.0	-50.7	16.3	6.02e-01	0	22	0	69730304	67	4238
2026-01-12 10:16:27.82	341.02	15.22	-49.1	-50.8	16.2	6.03e-01	0	22	0	71303168	67	4269
2026-01-12 10:16:28.81	340.93	15.11	-49.2	-50.9	16.2	6.04e-01	0	23	0	73400320	67	4319
2026-01-12 10:16:29.82	340.83	15.00	-49.1	-50.8	16.2	6.01e-01	0	22	0	74973184	67	4271
2026-01-12 10:16:30.83	340.74	14.89	-49.0	-50.7	16.3	5.99e-01	0	22	0	77070336	67	4220
2026-01-12 10:16:31.83	340.65	14.78	-49.1	-50.8	16.3	6.04e-01	0	22	0	79167488	67	4282
2026-01-12 10:16:32.85	340.56	14.67	-49.1	-50.8	16.2	6.01e-01	0	22	0	80740352	67	4260
2026-01-12 10:16:33.85	340.47	14.57	-49.0	-50.7	16.3	6.04e-01	0	22	0	82837504	67	4225
2026-01-12 10:16:34.86	340.38	14.46	-49.0	-50.7	16.3	6.03e-01	0	22	0	84410368	67	4238
2026-01-12 10:16:35.86	340.30	14.35	-49.1	-50.8	16.2	6.00e-01	0	22	0	86507520	67	4288
2026-01-12 10:16:36.87	340.21	14.25	-49.2	-50.9	16.2	6.04e-01	0	22	0	88604672	67	4333
2026-01-12 10:16:37.87	340.12	14.14	-49.0	-50.7	16.3	6.03e-01	0	23	0	90177536	67	4234
2026-01-12 10:16:38.87	340.04	14.04	-48.9	-50.6	16.4	6.03e-01	0	22	0	92274688	67	4171
2026-01-12 10:16:39.88	339.95	13.93	-49.0	-50.7	16.3	6.01e-01	0	22	0	94371840	67	4198
2026-01-12 10:16:40.89	339.87	13.83	-49.0	-50.7	16.3	6.02e-01	0	22	0	95944704	67	4235
2026-01-12 10:16:41.89	339.79	13.73	-49.1	-50.9	16.2	6.03e-01	0	22	0	98041856	67	4305
2026-01-12 10:16:42.90	339.70	13.62	-49.1	-50.8	16.3	6.02e-01	0	23	0	99614720	67	4278
2026-01-12 10:16:43.90	339.62	13.52	-49.0	-50.7	16.3	6.01e-01	0	22	0	101711872	67	4218
2026-01-12 10:16:44.91	339.54	13.42	-49.0	-50.7	16.3	6.00e-01	0	22	0	103284736	67	4230
2026-01-12 10:16:45.92	339.46	13.31	-49.1	-50.8	16.2	6.02e-01	0	22	0	105381888	67	4286
2026-01-12 10:16:46.93	339.38	13.21	-49.2	-51.0	16.2	6.03e-01	0	22	0	107479040	67	4353
2026-01-12 10:16:47.93	339.30	13.11	-49.3	-51.1	16.1	6.03e-01	0	22	0	109051904	67	4423
2026-01-12 10:16:48.94	339.22	13.01	-49.1	-50.9	16.2	6.03e-01	0	22	0	111149056	67	4298
2026-01-12 10:16:49.95	339.14	12.91	-49.2	-50.9	16.2	6.03e-01	0	23	0	112721920	67	4319
2026-01-12 10:16:50.96	339.06	12.81	-49.1	-50.9	16.2	6.02e-01	0	23	0	114819072	67	4292
2026-01-12 10:16:51.97	338.98	12.71	-49.3	-51.0	16.2	6.06e-01	0	22	0	116916224	67	4380
2026-01-12 10:16:52.97	338.91	12.61	-49.2	-51.0	16.2	6.02e-01	0	23	0	118489088	67	4359
2026-01-12 10:16:53.98	338.83	12.51	-49.3	-51.1	16.1	5.98e-01	0	22	0	120586240	67	4392
2026-01-12 10:16:54.98	338.75	12.41	-49.2	-51.0	16.1	6.03e-01	0	22	0	122683392	67	4373
2026-01-12 10:16:55.99	338.68	12.32	-49.1	-50.9	16.2	6.02e-01	0	22	0	124256256	67	4309
2026-01-12 10:16:57.00	338.60	12.22	-49.2	-51.0	16.2	6.02e-01	0	22	0	126353408	67	4368
2026-01-12 10:16:58.00	338.53	12.12	-49.3	-51.1	16.1	6.05e-01	0	22	0	127926272	67	4438
2026-01-12 10:16:59.01	338.46	12.02	-49.3	-51.1	16.1	6.00e-01	0	22	0	130023424	67	4419
2026-01-12 10:17:00.01	338.39	11.93	-49.4	-51.2	16.1	6.02e-01	0	22	0	131596288	67	4487
2026-01-12 10:17:01.02	338.31	11.83	-49.3	-51.2	16.1	6.03e-01	0	22	0	133693440	67	4446
2026-01-12 10:17:02.03	338.24	11.74	-49.3	-51.1	16.1	6.04e-01	0	23	0	135790592	67	4436
2026-01-12 10:17:03.03	338.17	11.64	-49.4	-51.2	16.1	6.02e-01	0	22	0	137363456	67	4459
2026-01-12 10:17:04.04	338.10	11.55	-49.4	-51.2	16.1	6.04e-01	0	22	0	139460608	67	4476
2026-01-12 10:17:05.05	338.03	11.45	-49.5	-51.3	16.0	6.02e-01	0	22	0	141033472	67	4521
2026-01-12 10:17:06.05	337.96	11.36	-49.4	-51.3	16.0	6.02e-01	0	22	0	143130624	67	4496
2026-01-12 10:17:07.06	337.89	11.26	-49.4	-51.2	16.0	6.01e-01	0	22	0	145227776	67	4458
2026-01-12 10:17:08.05	337.82	11.17	-49.4	-51.2	16.1	6.04e-01	0	23	0	146800640	67	4447
2026-01-12 10:17:09.06	337.75	11.08	-49.3	-51.2	16.1	6.04e-01	0	23	0	148897792	67	4448
2026-01-12 10:17:10.07	337.69	10.98	-49.4	-51.2	16.0	6.02e-01	0	22	0	150470656	67	4476
2026-01-12 10:17:11.08	337.62	10.89	-49.4	-51.2	16.0	6.03e-01	0	22	0	152567808	67	4481
2026-01-12 10:17:12.09	337.55	10.80	-49.3	-51.1	16.1	6.00e-01	0	22	0	154664960	67	4404
2026-01-12 10:17:13.09	337.49	10.71	-49.3	-51.1	16.1	6.02e-01	0	22	0	156237824	67	4396
2026-01-12 10:17:14.10	337.42	10.61	-49.3	-51.1	16.1	6.03e-01	0	22	0	158334976	67	4438
2026-01-12 10:17:15.10	337.35	10.52	-49.4	-51.2	16.0	6.04e-01	0	22	0	159907840	67	4492
2026-01-12 10:17:16.11	337.29	10.43	-49.3	-51.2	16.1	6.01e-01	0	22	0	162004992	67	4444
2026-01-12 10:17:17.12	337.22	10.34	-49.3	-51.1	16.1	6.03e-01	0	22	0	164102144	67	4423
2026-01-12 10:17:18.12	337.16	10.25	-49.3	-51.1	16.1	6.03e-01	0	22	0	165675008	67	4401
2026-01-12 10:17:19.13	337.10	10.16	-49.3	-51.2	16.1	6.01e-01	0	22	0	167772160	67	4449
2026-01-12 10:17:20.14	337.03	10.07	-49.3	-51.1	16.1	6.02e-01	0	23	0	169345024	67	4432
2026-01-12 10:17:21.14	336.97	9.98	-49.3	-51.1	16.1	6.02e-01	0	23	0	171442176	67	4432
2026-01-12 10:17:22.15	336.91	9.90	-49.4	-51.3	16.1	6.01e-01	0	22	0	173539328	67	4503
2026-01-12 10:17:23.16	336.85	9.81	-49.4	-51.3	16.1	6.02e-01	0	22	0	175112192	67	4515
2026-01-12 10:17:24.17	336.79	9.72	-49.5	-51.3	16.0	6.00e-01	0	22	0	177209344	67	4536
2026-01-12 10:17:25.18	336.73	9.63	-49.5	-51.4	16.0	6.04e-01	0	22	0	179306496	67	4569
2026-01-12 10:17:26.19	336.66	9.54	-49.6	-51.5	16.0	6.01e-01	0	22	0	180879360	67	4611
2026-01-12 10:17:27.19	336.60	9.45	-49.6	-51.4	16.0	6.03e-01	0	22	0	182976512	67	4596
2026-01-12 10:17:28.20	336.55	9.37	-49.5	-51.4	16.0	6.01e-01	0	23	0	184549376	67	4589
2026-01-12 10:17:29.20	336.49	9.28	-49.5	-51.4	16.0	6.03e-01	0	22	0	186646528	67	4567
2026-01-12 10:17:30.21	336.43	9.19	-49.6	-51.5	15.9	6.01e-01	0	23	0	188219392	67	4645
2026-01-12 10:17:31.22	336.37	9.11	-49.7	-51.6	15.9	6.02e-01	0	23	0	190316544	67	4662
2026-01-12 10:17:32.22	336.31	9.02	-49.8	-51.8	15.8	6.00e-01	0	22	0	192413696	67	4771
2026-01-12 10:17:33.23	336.25	8.94	-49.8	-51.8	15.8	6.04e-01	0	23	0	193986560	67	4764
2026-01-12 10:17:34.23	336.20	8.85	-49.7	-51.6	15.9	6.02e-01	0	22	0	196083712	67	4690
2026-01-12 10:17:35.24	336.14	8.77	-49.7	-51.6	15.9	6.00e-01	0	22	0	197656576	67	4691
2026-01-12 10:17:36.25	336.08	8.68	-49.7	-51.7	15.9	6.04e-01	0	22	0	199753728	67	4707
2026-01-12 10:17:37.25	336.03	8.60	-49.7	-51.6	15.9	6.02e-01	0	22	0	201850880	67	4658
2026-01-12 10:17:38.26	335.97	8.52	-49.8	-51.8	15.8	6.00e-01	0	22	0	203423744	67	4772
2026-01-12 10:17:39.26	335.92	8.43	-49.9	-51.9	15.8	6.03e-01	0	22	0	205520896	67	4823
2026-01-12 10:17:40.27	335.86	8.35	-49.8	-51.8	15.8	6.01e-01	0	23	0	207093760	67	4790
2026-01-12 10:17:41.27	335.81	8.27	-49.9	-51.9	15.8	6.00e-01	0	22	0	209190912	67	4853
2026-01-12 10:17:42.28	335.75	8.18	-49.9	-51.9	15.8	6.01e-01	0	22	0	211288064	67	4863
2026-01-12 10:17:43.29	335.70	8.10	-49.8	-51.8	15.8	6.02e-01	0	22	0	212860928	67	4797
2026-01-12 10:17:44.30	335.64	8.02	-49.9	-51.9	15.8	6.07e-01	0	22	0	214958080	67	4852
2026-01-12 10:17:45.31	335.59	7.93	-49.9	-51.9	15.8	6.01e-01	0	23	0	216530944	67	4836
2026-01-12 10:17:46.32	335.54	7.85	-50.0	-52.0	15.7	6.01e-01	0	23	0	218628096	67	4892
2026-01-12 10:17:47.33	335.48	7.77	-50.0	-52.0	15.7	6.02e-01	0	22	0	220725248	67	4886
2026-01-12 10:17:48.34	335.43	7.69	-49.8	-51.8	15.8	6.02e-01	0	22	0	222298112	67	4806
2026-01-12 10:17:49.34	335.38	7.61	-50.1	-52.1	15.7	6.01e-01	0	22	0	224395264	67	4965
2026-01-12 10:17:50.35	335.33	7.53	-50.0	-52.1	15.9	6.01e-01	0	22	0	225968128	68	4661
2026-01-12 10:17:51.36	335.28	7.45	-50.0	-51.9	15.9	6.01e-01	0	22	0	228065280	68	4597
2026-01-12 10:17:52.37	335.23	7.37	-49.9	-51.9	15.9	6.03e-01	0	23	0	230162432	68	4570
2026-01-12 10:17:53.37	335.18	7.29	-50.1	-52.1	15.9	6.01e-01	0	22	0	231735296	68	4668
2026-01-12 10:17:54.38	335.13	7.21	-50.0	-52.0	15.9	6.02e-01	0	22	0	233832448	68	4633
2026-01-12 10:17:55.39	335.08	7.13	-50.1	-52.1	15.9	6.05e-01	0	22	0	235929600	68	4692
2026-01-12 10:17:56.40	335.03	7.05	-50.3	-52.3	15.7	6.02e-01	0	22	0	237502464	68	4810
2026-01-12 10:17:57.41	334.98	6.97	-50.1	-52.1	15.8	6.03e-01	0	23	0	239599616	68	4695
2026-01-12 10:17:58.41	334.93	6.89	-50.1	-52.1	15.8	6.02e-01	0	22	0	241172480	68	4699
2026-01-12 10:17:59.42	334.88	6.81	-50.2	-52.2	15.8	6.01e-01	0	22	0	243269632	68	4754
2026-01-12 10:18:00.43	334.83	6.73	-50.1	-52.2	15.8	6.04e-01	0	22	0	245366784	68	4737
2026-01-12 10:18:01.43	334.78	6.66	-50.2	-52.3	15.7	6.05e-01	0	22	0	246939648	68	4808
2026-01-12 10:18:02.44	334.74	6.58	-50.2	-52.3	15.8	6.03e-01	0	22	0	249036800	68	4768
2026-01-12 10:18:03.45	334.69	6.50	-50.2	-52.3	15.8	5.99e-01	0	22	0	250609664	68	4776
2026-01-12 10:18:04.46	334.64	6.42	-50.3	-52.4	15.7	6.01e-01	0	23	0	252706816	68	4850
2026-01-12 10:18:05.47	334.59	6.35	-50.2	-52.3	15.7	6.02e-01	0	22	0	254279680	68	4803
2026-01-12 10:18:06.48	334.55	6.27	-50.4	-52.6	15.7	6.03e-01	0	23	0	256376832	68	4928
2026-01-12 10:18:07.48	334.50	6.19	-50.3	-52.5	15.7	6.02e-01	0	23	0	258473984	68	4881
2026-01-12 10:18:08.49	334.46	6.12	-50.2	-52.3	15.8	6.00e-01	0	23	0	260046848	68	4776
2026-01-12 10:18:09.48	334.41	6.04	-50.3	-52.5	15.7	6.01e-01	0	23	0	262144000	68	4876
2026-01-12 10:18:10.49	334.37	5.97	-50.2	-52.3	15.8	6.03e-01	0	22	0	264241152	68	4770
2026-01-12 10:18:11.50	334.32	5.89	-50.4	-52.6	15.6	6.01e-01	0	23	0	265814016	68	4977
2026-01-12 10:18:12.50	334.28	5.82	-50.5	-52.7	15.6	6.02e-01	0	22	0	267911168	68	5013
2026-01-12 10:18:13.50	334.23	5.74	-50.4	-52.6	15.8	5.99e-01	0	22	0	269484032	69	4666
2026-01-12 10:18:14.51	334.19	5.67	-50.6	-52.8	15.8	6.01e-01	0	23	0	271581184	69	4792
2026-01-12 10:18:15.51	334.14	5.59	-50.9	-53.2	15.5	6.03e-01	0	22	0	273154048	69	5038
2026-01-12 10:18:16.52	334.10	5.52	-50.8	-53.1	15.6	6.03e-01	0	22	0	275251200	69	4974
2026-01-12 10:18:17.53	334.06	5.44	-50.9	-53.2	15.5	6.02e-01	0	22	0	277348352	69	5027
2026-01-12 10:18:18.53	334.01	5.37	-50.2	-52.4	15.9	6.02e-01	0	22	0	278921216	69	4567
2026-01-12 10:18:19.54	333.97	5.29	-50.4	-52.7	15.8	6.02e-01	0	22	0	281018368	69	4711
2026-01-12 10:18:20.54	333.93	5.22	-50.5	-52.7	15.7	6.01e-01	0	22	0	282591232	69	4747
2026-01-12 10:18:21.55	333.88	5.15	-50.6	-52.9	15.6	6.03e-01	0	23	0	284688384	69	4866
2026-01-12 10:18:22.56	333.84	5.07	-50.4	-52.7	15.7	6.02e-01	0	22	0	286785536	69	4747
2026-01-12 10:18:23.57	333.80	5.00	-52.5	-55.6	15.1	6.04e-01	0	22	0	288358400	72	5576
2026-01-12 10:18:24.58	333.76	4.93	-57.2	-76.5	3.8	7.47e-01	0	22	104	289406976	82	34734
2026-01-12 10:18:25.57	333.72	4.86	-57.6	-76.8	3.8	7.48e-01	0	23	104	289406976	82	36058
2026-01-12 10:18:26.58	333.68	4.78	-57.8	-77.1	3.8	7.46e-01	0	23	104	289406976	83	35187
2026-01-12 10:18:27.59	333.64	4.71	-58.0	-77.3	3.8	7.48e-01	0	23	104	289406976	83	36026
2026-01-12 10:18:28.60	333.59	4.64	-58.3	-77.7	3.8	7.45e-01	0	23	104	289406976	84	35363
2026-01-12 10:18:29.61	333.55	4.57	-58.5	-77.8	3.8	7.47e-01	0	23	104	289406976	84	35828
2026-01-12 10:18:30.62	333.51	4.50	-58.6	-77.9	3.8	7.45e-01	0	23	104	289406976	84	36192
2026-01-12 10:18:31.63	333.47	4.42	-58.7	-78.0	3.8	7.48e-01	0	22	104	289406976	85	34707
2026-01-12 10:18:32.64	333.43	4.35	-58.8	-78.1	3.8	7.43e-01	0	23	104	289406976	85	34883
2026-01-12 10:18:33.65	333.39	4.28	-58.8	-78.1	3.8	7.45e-01	0	23	104	289406976	85	35195
2026-01-12 10:18:34.65	333.35	4.21	-58.9	-78.2	3.8	7.45e-01	0	23	104	289406976	85	35371
2026-01-12 10:18:35.66	333.32	4.14	-58.9	-78.2	3.8	7.46e-01	0	23	104	289406976	85	35513
2026-01-12 10:18:36.66	333.28	4.07	-58.9	-78.2	3.8	7.43e-01	0	22	104	289406976	85	35629
2026-01-12 10:18:37.66	333.24	4.00	-58.9	-78.3	3.8	7.48e-01	0	23	104	289406976	85	35757
2026-01-12 10:18:38.66	333.20	3.93	-59.0	-78.3	3.8	7.45e-01	0	23	104	289406976	85	35933
2026-01-12 10:18:39.66	333.16	3.86	-59.0	-78.3	3.8	7.45e-01	0	23	104	289406976	85	36061
2026-01-12 10:18:40.67	333.12	3.79	-59.0	-78.4	3.8	7.46e-01	0	22	104	289406976	85	36143
2026-01-12 10:18:41.68	333.09	3.72	-59.1	-78.4	3.8	7.45e-01	0	22	104	289406976	85	36380
2026-01-12 10:18:42.67	333.05	3.65	-59.1	-78.4	3.8	7.48e-01	0	23	104	289406976	85	36409
2026-01-12 10:18:43.68	333.01	3.59	-59.1	-78.4	3.8	7.46e-01	0	23	104	289406976	85	36448
2026-01-12 10:18:44.69	332.98	3.52	-59.1	-78.5	3.8	7.44e-01	0	22	104	289406976	85	36606
2026-01-12 10:18:45.70	332.94	3.45	-59.1	-78.4	3.8	7.45e-01	0	23	104	289406976	85	36379
2026-01-12 10:18:46.70	332.90	3.38	-59.0	-78.4	3.8	7.44e-01	0	23	104	289406976	85	36341
2026-01-12 10:18:47.70	332.87	3.31	-59.0	-78.4	3.8	7.46e-01	0	23	104	289406976	85	36193
2026-01-12 10:18:48.70	332.83	3.24	-59.0	-78.4	3.8	7.45e-01	0	23	104	289406976	85	36168
2026-01-12 10:18:49.70	332.79	3.18	-59.0	-78.4	3.8	7.45e-01	0	23	104	289406976	85	36180
2026-01-12 10:18:50.70	332.76	3.11	-59.0	-78.4	3.8	7.46e-01	0	23	104	289406976	85	36117
2026-01-12 10:18:51.70	332.72	3.04	-59.0	-78.3	3.8	7.46e-01	0	23	104	289406976	85	36011
2026-01-12 10:18:52.70	332.69	2.97	-59.0	-78.4	3.8	7.49e-01	0	23	104	289406976	85	36109
2026-01-12 10:18:53.71	332.65	2.91	-59.0	-78.3	3.8	7.47e-01	0	22	104	289406976	85	35953
2026-01-12 10:18:54.71	332.62	2.84	-59.0	-78.3	3.8	7.44e-01	0	23	104	289406976	85	35939
2026-01-12 10:18:55.71	332.58	2.77	-59.0	-78.3	3.8	7.46e-01	0	23	104	289406976	85	35919
2026-01-12 10:18:56.71	332.55	2.71	-59.0	-78.3	3.8	7.46e-01	0	23	104	289406976	85	35865
2026-01-12 10:18:57.71	332.51	2.64	-59.0	-78.3	3.8	7.46e-01	0	23	104	289406976	85	35887
2026-01-12 10:18:58.71	332.48	2.57	-59.0	-78.3	3.8	7.48e-01	0	23	104	289406976	85	35838
2026-01-12 10:18:59.72	332.45	2.51	-58.9	-78.3	3.8	7.48e-01	0	23	104	289406976	85	35805
2026-01-12 10:19:00.72	332.41	2.44	-58.9	-78.3	3.8	7.44e-01	0	23	104	289406976	85	35817
2026-01-12 10:19:01.73	332.38	2.38	-58.9	-78.3	3.8	7.48e-01	0	23	104	289406976	85	35795
2026-01-12 10:19:02.73	332.35	2.31	-58.9	-78.2	3.8	7.43e-01	0	23	104	289406976	85	35665
2026-01-12 10:19:03.74	332.31	2.24	-58.9	-78.3	3.8	7.48e-01	0	23	104	289406976	85	35730
2026-01-12 10:19:04.75	332.28	2.18	-58.9	-78.3	3.8	7.47e-01	0	23	104	289406976	85	35748
2026-01-12 10:19:05.76	332.25	2.11	-58.9	-78.2	3.8	7.44e-01	0	23	104	289406976	85	35667
2026-01-12 10:19:06.75	332.21	2.05	-58.9	-78.3	3.8	7.47e-01	0	23	104	289406976	85	35694
2026-01-12 10:19:07.75	332.18	1.98	-58.9	-78.2	3.8	7.47e-01	0	23	104	289406976	85	35675

#Closed at: 2026-01-12 10:19:08
#Recorded file [289 MB]: D:/lorett/data/31004_260112_130953.dat