passes_logs/2026/01/12/R3.2S_Murmansk/R3.2S_Murmansk__20260112_215825_NOAA_21_JPSS-2_rec.log

#Pass ID: 20260112_215825_NOAA 21 (JPSS-2)
#Satellite: NOAA 21 (JPSS-2)
#Configuration: NOAA-21
#almurnet v.1.7.20251203
#Start time: 2026-01-12 21:58:25

#Version: 2.2.20231116
#Station: R3.2S_Murmansk
#Location: 33.079688 lon 68.888172 lat
#TLE: 1 54234U 22150A   26012.26378519  .00000063  00000+0  50547-4 0  9993
#TLE: 2 54234  98.7495 313.1967 0000726 309.1075  51.0036 14.19534275164425

#Time	Az	El	Level	Level2	SNR	BER	BlckErr	Temp	State	Recorded	gain1	gain2
2026-01-12 21:58:25.30	18.39	1.98	-57.2	-70.8	3.8	1.49e+00	0	20	0	0	81	16392
2026-01-12 21:58:26.30	18.47	2.04	-57.2	-70.7	3.8	1.49e+00	0	20	104	0	79	18250
2026-01-12 21:58:27.30	18.55	2.09	-57.2	-70.8	3.8	1.49e+00	0	20	104	0	79	18466
2026-01-12 21:58:28.29	18.63	2.14	-57.2	-70.8	3.8	1.49e+00	0	20	104	0	79	18397
2026-01-12 21:58:29.29	18.71	2.19	-57.2	-70.9	3.8	1.49e+00	0	21	104	0	79	18565
2026-01-12 21:58:30.29	18.79	2.24	-57.2	-70.8	3.8	1.49e+00	0	20	104	0	79	18492
2026-01-12 21:58:31.30	18.87	2.29	-57.2	-70.9	3.8	1.49e+00	0	21	104	0	79	18564
2026-01-12 21:58:32.30	18.95	2.35	-57.2	-70.9	3.8	1.49e+00	0	21	104	0	79	18592
2026-01-12 21:58:33.30	19.04	2.40	-57.2	-70.8	3.8	1.49e+00	0	20	104	0	79	18468
2026-01-12 21:58:34.30	19.12	2.45	-57.2	-70.8	3.8	1.49e+00	0	21	104	0	79	18475
2026-01-12 21:58:35.31	19.20	2.50	-57.2	-70.7	3.8	1.49e+00	0	21	104	0	79	18240
2026-01-12 21:58:36.31	19.28	2.56	-57.2	-70.8	3.8	1.49e+00	0	21	104	0	79	18416
2026-01-12 21:58:37.32	19.37	2.61	-57.2	-70.7	3.8	1.49e+00	0	21	104	0	79	18279
2026-01-12 21:58:38.32	19.45	2.66	-57.2	-70.8	3.8	1.49e+00	0	21	104	0	79	18355
2026-01-12 21:58:39.33	19.53	2.71	-57.2	-70.8	3.8	1.49e+00	0	21	104	0	79	18433
2026-01-12 21:58:40.33	19.62	2.77	-57.2	-70.8	3.8	1.49e+00	0	21	104	0	79	18497
2026-01-12 21:58:41.33	19.70	2.82	-57.2	-70.9	3.8	1.49e+00	0	21	104	0	79	18543
2026-01-12 21:58:42.33	19.78	2.87	-57.2	-70.9	3.8	1.49e+00	0	21	104	0	79	18673
2026-01-12 21:58:43.33	19.87	2.92	-57.2	-70.9	3.8	1.49e+00	0	21	104	0	79	18716
2026-01-12 21:58:44.33	19.95	2.98	-57.2	-70.9	3.8	1.49e+00	0	21	104	0	79	18657
2026-01-12 21:58:45.33	20.04	3.03	-57.2	-70.9	3.8	1.49e+00	0	21	104	0	79	18577
2026-01-12 21:58:46.34	20.12	3.08	-57.2	-70.9	3.8	1.49e+00	0	21	104	0	79	18681
2026-01-12 21:58:47.35	20.21	3.14	-57.2	-70.9	3.8	1.49e+00	0	21	104	0	79	18694
2026-01-12 21:58:48.35	20.29	3.19	-57.2	-71.0	3.8	1.49e+00	0	21	104	0	79	18748
2026-01-12 21:58:49.34	20.38	3.24	-57.2	-70.9	3.8	1.49e+00	0	21	104	0	79	18714
2026-01-12 21:58:50.34	20.47	3.29	-57.2	-70.9	3.8	1.49e+00	0	21	104	0	79	18600
2026-01-12 21:58:51.35	20.55	3.35	-57.2	-70.7	3.8	1.49e+00	0	21	104	0	79	18229
2026-01-12 21:58:52.34	20.64	3.40	-57.2	-70.4	3.8	1.49e+00	0	21	104	0	79	17645
2026-01-12 21:58:53.34	20.73	3.45	-57.2	-70.3	3.8	1.49e+00	0	21	104	0	79	17393
2026-01-12 21:58:54.34	20.81	3.51	-57.1	-70.1	3.8	1.49e+00	0	21	104	0	79	17028
2026-01-12 21:58:55.33	20.90	3.56	-57.2	-70.1	3.8	1.49e+00	0	21	104	0	79	17000
2026-01-12 21:58:56.34	20.99	3.61	-57.1	-70.1	3.8	1.49e+00	0	21	104	0	79	16967
2026-01-12 21:58:57.33	21.08	3.67	-57.1	-70.1	3.8	1.49e+00	0	21	104	0	79	16909
2026-01-12 21:58:58.33	21.17	3.72	-57.2	-70.2	3.8	1.49e+00	0	21	104	0	79	17126
2026-01-12 21:58:59.33	21.25	3.77	-57.1	-70.1	3.8	1.49e+00	0	21	104	0	79	16976
2026-01-12 21:59:00.33	21.34	3.83	-57.1	-69.8	3.8	1.49e+00	0	21	104	0	79	16343
2026-01-12 21:59:01.33	21.43	3.88	-57.1	-69.3	3.8	1.49e+00	0	21	104	0	79	15575
2026-01-12 21:59:02.33	21.52	3.93	-57.1	-68.9	3.9	1.49e+00	0	21	104	0	79	14848
2026-01-12 21:59:03.33	21.61	3.99	-57.0	-68.0	4.1	1.49e+00	0	21	104	0	79	13302
2026-01-12 21:59:04.33	21.70	4.04	-57.0	-68.2	3.9	1.46e+00	0	21	104	0	79	13657
2026-01-12 21:59:05.34	21.80	4.09	-57.0	-67.7	4.1	1.47e+00	0	22	104	0	79	12916
2026-01-12 21:59:06.33	21.89	4.15	-57.0	-67.7	4.0	1.47e+00	0	22	104	0	79	12932
2026-01-12 21:59:07.33	21.98	4.20	-56.9	-66.9	4.3	1.45e+00	0	21	104	0	79	11782
2026-01-12 21:59:08.33	22.07	4.26	-56.7	-65.2	5.0	1.02e+00	0	21	0	0	79	9693
2026-01-12 21:59:09.33	22.16	4.31	-56.4	-63.5	6.2	3.87e-01	0	21	0	3145728	79	7918
2026-01-12 21:59:10.33	22.25	4.36	-55.9	-61.5	7.8	1.02e-01	0	21	0	6291456	78	6682
2026-01-12 21:59:11.33	22.35	4.42	-55.1	-59.4	9.6	1.02e-02	0	21	0	9437184	76	5900
2026-01-12 21:59:12.34	22.44	4.47	-54.7	-58.5	10.5	1.54e-03	0	22	0	12582912	76	5291
2026-01-12 21:59:13.33	22.53	4.53	-53.7	-56.8	11.7	1.21e-04	0	21	0	15728640	74	4913
2026-01-12 21:59:14.33	22.63	4.58	-53.4	-56.2	12.1	6.48e-05	0	21	0	18874368	73	4868
2026-01-12 21:59:15.33	22.72	4.63	-53.1	-55.8	12.3	3.00e-06	0	21	0	22020096	72	4909
2026-01-12 21:59:16.33	22.81	4.69	-53.2	-56.0	12.2	9.90e-06	0	21	0	25165824	72	4996
2026-01-12 21:59:17.33	22.91	4.74	-53.3	-56.2	12.0	9.10e-06	0	22	0	28311552	72	5133
2026-01-12 21:59:18.33	23.00	4.80	-53.5	-56.5	11.7	2.59e-05	0	22	0	31457280	72	5333
2026-01-12 21:59:19.33	23.10	4.85	-54.0	-57.4	11.1	9.61e-05	0	21	0	34603008	73	5585
2026-01-12 21:59:20.34	23.20	4.91	-54.5	-58.4	10.3	7.45e-04	0	22	0	37748736	74	5899
2026-01-12 21:59:21.34	23.29	4.96	-55.1	-59.7	9.2	6.03e-03	0	22	0	40894464	75	6474
2026-01-12 21:59:22.34	23.39	5.02	-55.6	-60.8	8.4	2.30e-02	0	22	0	44040192	76	6897
2026-01-12 21:59:23.34	23.48	5.07	-55.4	-60.1	8.9	4.16e-02	0	22	0	47185920	76	6409
2026-01-12 21:59:24.34	23.58	5.12	-54.5	-58.1	10.9	1.55e-03	0	21	0	50331648	75	5347
2026-01-12 21:59:25.34	23.68	5.18	-56.3	-63.2	6.2	1.33e+00	2	22	104	51380224	78	8119
2026-01-12 21:59:26.34	23.78	5.23	-55.3	-59.6	9.6	2.62e-02	0	22	0	53477376	77	5683
2026-01-12 21:59:27.34	23.87	5.29	-53.8	-56.9	11.7	7.00e-07	0	22	0	56623104	72	5552
2026-01-12 21:59:28.35	23.97	5.34	-56.4	-63.1	6.4	3.89e-01	0	22	0	59768832	78	8017
2026-01-12 21:59:29.35	24.07	5.40	-52.4	-54.7	13.2	0.00e+00	0	22	0	62914560	71	4582
2026-01-12 21:59:30.35	24.17	5.45	-51.5	-53.5	13.8	0.00e+00	0	22	0	66060288	69	4465
2026-01-12 21:59:31.34	24.27	5.51	-51.3	-53.2	14.1	0.00e+00	0	22	0	69206016	69	4321
2026-01-12 21:59:32.34	24.37	5.56	-51.4	-53.3	14.0	0.00e+00	0	22	0	72351744	69	4354
2026-01-12 21:59:33.34	24.47	5.62	-51.3	-53.2	14.1	0.00e+00	0	22	0	75497472	69	4326
2026-01-12 21:59:34.33	24.57	5.67	-51.4	-53.3	14.0	0.00e+00	0	22	0	78643200	69	4346
2026-01-12 21:59:35.34	24.67	5.73	-51.4	-53.4	14.0	0.00e+00	0	22	0	81788928	69	4400
2026-01-12 21:59:36.34	24.77	5.78	-51.3	-53.2	14.1	0.00e+00	0	22	0	84934656	69	4336
2026-01-12 21:59:37.33	24.87	5.84	-51.4	-53.3	14.0	0.00e+00	0	22	0	88080384	69	4391
2026-01-12 21:59:38.33	24.98	5.89	-51.5	-53.5	13.9	0.00e+00	0	22	0	91226112	69	4448
2026-01-12 21:59:39.33	25.08	5.95	-51.4	-53.3	14.1	0.00e+00	0	22	0	94371840	69	4343
2026-01-12 21:59:40.33	25.18	6.00	-51.3	-53.2	14.1	0.00e+00	0	22	0	97517568	69	4302
2026-01-12 21:59:41.34	25.28	6.06	-51.2	-53.1	14.0	0.00e+00	0	22	0	100663296	68	4520
2026-01-12 21:59:42.34	25.39	6.12	-51.1	-53.0	14.1	0.00e+00	0	22	0	103809024	68	4459
2026-01-12 21:59:43.34	25.49	6.17	-51.2	-53.0	14.1	0.00e+00	0	22	0	106954752	68	4476
2026-01-12 21:59:44.34	25.60	6.23	-51.2	-53.0	14.1	0.00e+00	0	22	0	110100480	68	4473
2026-01-12 21:59:45.34	25.70	6.28	-51.2	-53.1	14.0	0.00e+00	0	22	0	112197632	68	4519
2026-01-12 21:59:46.34	25.81	6.34	-51.1	-52.9	14.1	0.00e+00	0	22	0	115343360	68	4437
2026-01-12 21:59:47.33	25.91	6.39	-51.2	-53.0	14.1	0.00e+00	0	22	0	118489088	68	4474
2026-01-12 21:59:48.33	26.02	6.45	-51.1	-52.9	14.2	0.00e+00	0	22	0	121634816	68	4405
2026-01-12 21:59:49.33	26.12	6.50	-51.1	-52.9	14.2	0.00e+00	0	22	0	124780544	68	4404
2026-01-12 21:59:50.33	26.23	6.56	-51.1	-52.9	14.2	0.00e+00	0	22	0	127926272	68	4424
2026-01-12 21:59:51.34	26.34	6.62	-51.2	-53.1	14.0	0.00e+00	0	22	0	131072000	68	4505
2026-01-12 21:59:52.33	26.44	6.67	-51.0	-52.8	14.2	0.00e+00	0	22	0	134217728	68	4375
2026-01-12 21:59:53.33	26.55	6.73	-51.0	-52.8	14.3	0.00e+00	0	22	0	137363456	68	4357
2026-01-12 21:59:54.33	26.66	6.78	-51.0	-52.8	14.3	0.00e+00	0	22	0	140509184	68	4361
2026-01-12 21:59:55.33	26.77	6.84	-51.0	-52.8	14.3	0.00e+00	0	22	0	143654912	68	4349
2026-01-12 21:59:56.34	26.88	6.90	-50.9	-52.6	14.4	0.00e+00	0	22	0	146800640	68	4281
2026-01-12 21:59:57.34	26.99	6.95	-51.0	-52.7	14.3	0.00e+00	0	22	0	149946368	68	4322
2026-01-12 21:59:58.34	27.10	7.01	-51.0	-52.7	14.3	0.00e+00	0	22	0	153092096	68	4339
2026-01-12 21:59:59.34	27.21	7.07	-51.1	-52.8	14.2	0.00e+00	0	22	0	156237824	68	4382
2026-01-12 22:00:00.34	27.32	7.12	-51.1	-52.9	14.2	0.00e+00	0	22	0	159383552	68	4396
2026-01-12 22:00:01.34	27.43	7.18	-51.0	-52.8	14.3	0.00e+00	0	22	0	162529280	68	4348
2026-01-12 22:00:02.33	27.54	7.23	-51.0	-52.7	14.3	0.00e+00	0	22	0	165675008	68	4315
2026-01-12 22:00:03.33	27.65	7.29	-51.0	-52.8	14.3	0.00e+00	0	22	0	168820736	68	4356
2026-01-12 22:00:04.33	27.76	7.35	-50.9	-52.6	14.4	0.00e+00	0	22	0	171966464	68	4271
2026-01-12 22:00:05.33	27.87	7.40	-50.9	-52.6	14.4	0.00e+00	0	22	0	175112192	68	4276
2026-01-12 22:00:06.33	27.99	7.46	-50.8	-52.5	14.5	0.00e+00	0	22	0	178257920	68	4234
2026-01-12 22:00:07.32	28.10	7.51	-50.8	-52.5	14.5	0.00e+00	0	22	0	181403648	68	4206
2026-01-12 22:00:08.32	28.21	7.57	-50.5	-52.2	14.5	0.00e+00	0	22	0	184549376	67	4298
2026-01-12 22:00:09.31	28.32	7.63	-50.4	-52.1	14.5	0.00e+00	0	22	0	187695104	67	4272
2026-01-12 22:00:10.31	28.44	7.68	-50.4	-52.1	14.5	0.00e+00	0	22	0	190840832	67	4265
2026-01-12 22:00:11.31	28.55	7.74	-50.3	-52.0	14.6	0.00e+00	0	22	0	193986560	67	4199
2026-01-12 22:00:12.31	28.67	7.80	-50.4	-52.0	14.6	0.00e+00	0	22	0	197132288	67	4223
2026-01-12 22:00:13.31	28.79	7.85	-50.3	-51.9	14.7	0.00e+00	0	22	0	200278016	67	4180
2026-01-12 22:00:14.32	28.90	7.91	-50.4	-52.0	14.6	0.00e+00	0	22	0	203423744	67	4212
2026-01-12 22:00:15.32	29.02	7.97	-50.4	-52.0	14.6	0.00e+00	0	22	0	206569472	67	4207
2026-01-12 22:00:16.31	29.14	8.02	-50.3	-52.0	14.6	0.00e+00	0	22	0	209715200	67	4197
2026-01-12 22:00:17.31	29.25	8.08	-50.1	-51.7	14.6	0.00e+00	0	22	0	212860928	66	4312
2026-01-12 22:00:18.31	29.37	8.14	-50.3	-51.9	14.5	0.00e+00	0	22	0	216006656	66	4426
2026-01-12 22:00:19.31	29.49	8.19	-50.3	-51.9	14.5	0.00e+00	0	22	0	219152384	66	4419
2026-01-12 22:00:20.30	29.61	8.25	-50.3	-52.0	14.4	0.00e+00	0	22	0	222298112	66	4448
2026-01-12 22:00:21.30	29.73	8.31	-50.3	-52.0	14.5	0.00e+00	0	22	0	225443840	66	4450
2026-01-12 22:00:22.30	29.85	8.36	-50.3	-52.0	14.5	0.00e+00	0	22	0	228589568	66	4452
2026-01-12 22:00:23.31	29.97	8.42	-50.4	-52.1	14.4	0.00e+00	0	22	0	231735296	66	4505
2026-01-12 22:00:24.31	30.09	8.48	-50.4	-52.1	14.4	0.00e+00	0	22	0	234881024	66	4505
2026-01-12 22:00:25.31	30.21	8.53	-50.4	-52.0	14.4	0.00e+00	0	22	0	238026752	66	4480
2026-01-12 22:00:26.31	30.33	8.59	-50.3	-51.9	14.5	0.00e+00	0	22	0	241172480	66	4417
2026-01-12 22:00:27.31	30.45	8.65	-50.2	-51.9	14.5	0.00e+00	0	22	0	244318208	66	4400
2026-01-12 22:00:28.32	30.58	8.71	-50.3	-51.9	14.5	0.00e+00	0	22	0	247463936	66	4440
2026-01-12 22:00:29.31	30.70	8.76	-50.3	-52.0	14.5	0.00e+00	0	22	0	250609664	66	4452
2026-01-12 22:00:30.31	30.82	8.82	-50.1	-51.7	14.7	0.00e+00	0	22	0	253755392	66	4303
2026-01-12 22:00:31.32	30.95	8.88	-50.0	-51.6	14.7	0.00e+00	0	22	0	256901120	66	4249
2026-01-12 22:00:32.32	31.07	8.93	-50.0	-51.5	14.8	0.00e+00	0	22	0	260046848	66	4229
2026-01-12 22:00:33.32	31.20	8.99	-50.0	-51.5	14.8	0.00e+00	0	22	0	263192576	66	4209
2026-01-12 22:00:34.32	31.32	9.05	-49.9	-51.4	14.8	0.00e+00	0	22	0	266338304	66	4169
2026-01-12 22:00:35.32	31.45	9.11	-50.0	-51.5	14.8	0.00e+00	0	22	0	268435456	66	4223
2026-01-12 22:00:36.32	31.58	9.16	-49.9	-51.4	14.8	0.00e+00	0	22	0	271581184	66	4193
2026-01-12 22:00:37.31	31.70	9.22	-50.0	-51.5	14.8	0.00e+00	0	22	0	274726912	66	4233
2026-01-12 22:00:38.31	31.83	9.28	-50.1	-51.6	14.7	0.00e+00	0	22	0	277872640	66	4279
2026-01-12 22:00:39.32	31.96	9.33	-50.1	-51.6	14.7	0.00e+00	0	22	0	281018368	66	4268
2026-01-12 22:00:40.32	32.09	9.39	-50.1	-51.6	14.7	0.00e+00	0	22	0	284164096	66	4281
2026-01-12 22:00:41.32	32.21	9.45	-50.0	-51.6	14.7	0.00e+00	0	22	0	287309824	66	4252
2026-01-12 22:00:42.32	32.34	9.51	-50.0	-51.6	14.7	0.00e+00	0	22	0	290455552	66	4260
2026-01-12 22:00:43.31	32.47	9.56	-50.1	-51.6	14.7	0.00e+00	0	22	0	293601280	66	4277
2026-01-12 22:00:44.32	32.60	9.62	-50.1	-51.7	14.7	0.00e+00	0	22	0	296747008	66	4296
2026-01-12 22:00:45.32	32.73	9.68	-49.9	-51.4	14.8	0.00e+00	0	22	0	299892736	66	4183
2026-01-12 22:00:46.32	32.87	9.73	-49.9	-51.5	14.8	0.00e+00	0	22	0	303038464	66	4207
2026-01-12 22:00:47.32	33.00	9.79	-49.8	-51.3	14.9	0.00e+00	0	22	0	306184192	66	4139
2026-01-12 22:00:48.32	33.13	9.85	-49.8	-51.3	14.9	0.00e+00	0	22	0	309329920	66	4130
2026-01-12 22:00:49.32	33.26	9.91	-49.9	-51.4	14.9	0.00e+00	0	22	0	312475648	66	4157
2026-01-12 22:00:50.32	33.39	9.96	-49.8	-51.2	15.0	0.00e+00	0	22	0	315621376	66	4095
2026-01-12 22:00:51.32	33.53	10.02	-49.6	-51.1	14.9	0.00e+00	0	22	0	318767104	65	4251
2026-01-12 22:00:52.31	33.66	10.08	-49.7	-51.2	14.8	0.00e+00	0	22	0	321912832	65	4293
2026-01-12 22:00:53.30	33.79	10.13	-49.7	-51.2	14.8	0.00e+00	0	22	0	325058560	65	4300
2026-01-12 22:00:54.31	33.93	10.19	-49.5	-51.0	14.9	0.00e+00	0	22	0	328204288	65	4194
2026-01-12 22:00:55.30	34.06	10.25	-49.5	-51.0	14.9	0.00e+00	0	22	0	331350016	65	4203
2026-01-12 22:00:56.30	34.20	10.30	-49.7	-51.1	14.8	0.00e+00	0	22	0	334495744	65	4280
2026-01-12 22:00:57.30	34.34	10.36	-49.8	-51.3	14.8	0.00e+00	0	22	0	337641472	65	4355
2026-01-12 22:00:58.29	34.47	10.42	-49.7	-51.2	14.8	0.00e+00	0	22	0	340787200	65	4308
2026-01-12 22:00:59.29	34.61	10.48	-49.8	-51.3	14.7	0.00e+00	0	22	0	343932928	65	4378
2026-01-12 22:01:00.29	34.75	10.53	-49.9	-51.4	14.7	0.00e+00	0	22	0	347078656	65	4420
2026-01-12 22:01:01.29	34.89	10.59	-49.9	-51.4	14.7	0.00e+00	0	22	0	350224384	65	4427
2026-01-12 22:01:02.29	35.03	10.65	-49.8	-51.3	14.7	0.00e+00	0	22	0	353370112	65	4388
2026-01-12 22:01:03.28	35.17	10.70	-49.8	-51.3	14.7	0.00e+00	0	22	0	356515840	65	4353
2026-01-12 22:01:04.28	35.31	10.76	-49.7	-51.2	14.8	0.00e+00	0	22	0	359661568	65	4303
2026-01-12 22:01:05.29	35.45	10.82	-49.7	-51.2	14.8	0.00e+00	0	22	0	362807296	65	4322
2026-01-12 22:01:06.29	35.59	10.88	-49.7	-51.1	14.8	0.00e+00	0	22	0	365953024	65	4283
2026-01-12 22:01:07.29	35.73	10.93	-49.7	-51.2	14.8	0.00e+00	0	22	0	369098752	65	4322
2026-01-12 22:01:08.29	35.87	10.99	-49.6	-51.0	14.9	0.00e+00	0	22	0	372244480	65	4241
2026-01-12 22:01:09.29	36.02	11.05	-49.5	-50.9	15.0	0.00e+00	0	22	0	375390208	65	4166
2026-01-12 22:01:10.29	36.16	11.10	-49.4	-50.9	15.0	0.00e+00	0	22	0	378535936	65	4150
2026-01-12 22:01:11.29	36.30	11.16	-49.6	-51.0	14.9	0.00e+00	0	22	0	381681664	65	4225
2026-01-12 22:01:12.29	36.45	11.22	-49.5	-50.9	15.0	0.00e+00	0	22	0	384827392	65	4192
2026-01-12 22:01:13.28	36.59	11.27	-49.5	-50.9	15.0	0.00e+00	0	22	0	387973120	65	4187
2026-01-12 22:01:14.29	36.74	11.33	-49.5	-50.9	15.0	0.00e+00	0	22	0	391118848	65	4185
2026-01-12 22:01:15.29	36.89	11.39	-49.5	-51.0	15.0	0.00e+00	0	22	0	394264576	65	4203
2026-01-12 22:01:16.29	37.03	11.44	-49.5	-51.0	14.9	0.00e+00	0	22	0	397410304	65	4216
2026-01-12 22:01:17.29	37.18	11.50	-49.6	-51.1	14.9	0.00e+00	0	22	0	400556032	65	4244
2026-01-12 22:01:18.29	37.33	11.56	-49.5	-50.9	15.0	0.00e+00	0	22	0	402653184	65	4184
2026-01-12 22:01:19.29	37.48	11.62	-49.3	-50.7	15.1	0.00e+00	0	22	0	405798912	65	4094
2026-01-12 22:01:20.29	37.63	11.67	-49.2	-50.6	15.1	0.00e+00	0	22	0	408944640	65	4042
2026-01-12 22:01:21.29	37.77	11.73	-49.2	-50.6	15.1	0.00e+00	0	22	0	412090368	65	4044
2026-01-12 22:01:22.29	37.92	11.78	-49.2	-50.6	15.0	0.00e+00	0	22	0	415236096	64	4254
2026-01-12 22:01:23.29	38.08	11.84	-49.2	-50.6	15.0	0.00e+00	0	22	0	418381824	64	4268
2026-01-12 22:01:24.29	38.23	11.90	-49.2	-50.6	15.0	0.00e+00	0	22	0	421527552	64	4249
2026-01-12 22:01:25.29	38.38	11.95	-49.2	-50.6	15.0	0.00e+00	0	22	0	424673280	64	4286
2026-01-12 22:01:26.30	38.53	12.01	-49.3	-50.7	14.9	0.00e+00	0	22	0	427819008	64	4312
2026-01-12 22:01:27.30	38.69	12.07	-49.2	-50.7	15.0	0.00e+00	0	22	0	430964736	64	4294
2026-01-12 22:01:28.31	38.84	12.12	-49.5	-50.9	14.8	0.00e+00	0	22	0	434110464	64	4429
2026-01-12 22:01:29.32	39.00	12.18	-49.5	-50.9	14.8	0.00e+00	0	22	0	437256192	64	4437
2026-01-12 22:01:30.32	39.15	12.24	-49.5	-50.9	14.8	0.00e+00	0	22	0	440401920	64	4431
2026-01-12 22:01:31.31	39.30	12.29	-49.5	-51.0	14.8	0.00e+00	0	22	0	443547648	64	4442
2026-01-12 22:01:32.32	39.46	12.35	-49.6	-51.1	14.7	0.00e+00	0	22	0	446693376	64	4504
2026-01-12 22:01:33.32	39.62	12.41	-49.6	-51.1	14.8	0.00e+00	0	22	0	449839104	64	4509
2026-01-12 22:01:34.32	39.77	12.46	-49.7	-51.1	14.7	0.00e+00	0	22	0	452984832	64	4534
2026-01-12 22:01:35.32	39.93	12.52	-49.5	-50.9	14.8	0.00e+00	0	22	0	456130560	64	4432
2026-01-12 22:01:36.31	40.09	12.57	-49.5	-50.9	14.8	0.00e+00	0	22	0	459276288	64	4427
2026-01-12 22:01:37.31	40.25	12.63	-49.4	-50.9	14.9	0.00e+00	0	22	0	462422016	64	4406
2026-01-12 22:01:38.30	40.40	12.68	-49.4	-50.9	14.9	0.00e+00	0	22	0	465567744	64	4399
2026-01-12 22:01:39.30	40.56	12.74	-49.3	-50.7	14.9	0.00e+00	0	22	0	468713472	64	4333
2026-01-12 22:01:40.30	40.72	12.80	-49.0	-50.4	15.1	0.00e+00	0	22	0	471859200	64	4167
2026-01-12 22:01:41.31	40.89	12.85	-49.0	-50.4	15.1	0.00e+00	0	22	0	475004928	64	4165
2026-01-12 22:01:42.31	41.05	12.91	-49.0	-50.4	15.1	0.00e+00	0	23	0	478150656	64	4166
2026-01-12 22:01:43.30	41.21	12.96	-49.1	-50.5	15.0	0.00e+00	0	22	0	481296384	64	4224
2026-01-12 22:01:44.31	41.37	13.02	-49.1	-50.5	15.1	0.00e+00	0	22	0	484442112	64	4217
2026-01-12 22:01:45.31	41.54	13.07	-49.2	-50.6	15.0	0.00e+00	0	22	0	487587840	64	4247
2026-01-12 22:01:46.32	41.70	13.13	-49.2	-50.6	15.0	0.00e+00	0	22	0	490733568	64	4260
2026-01-12 22:01:47.32	41.87	13.18	-49.2	-50.6	15.0	0.00e+00	0	22	0	493879296	64	4280
2026-01-12 22:01:48.32	42.03	13.24	-49.2	-50.6	15.0	0.00e+00	0	22	0	497025024	64	4253
2026-01-12 22:01:49.32	42.20	13.29	-49.2	-50.6	15.0	0.00e+00	0	22	0	500170752	64	4249
2026-01-12 22:01:50.33	42.37	13.35	-49.2	-50.5	15.0	0.00e+00	0	22	0	503316480	64	4232
2026-01-12 22:01:51.33	42.53	13.40	-49.1	-50.4	15.1	0.00e+00	0	22	0	506462208	64	4182
2026-01-12 22:01:52.32	42.70	13.46	-49.1	-50.4	15.1	0.00e+00	0	22	0	509607936	64	4187
2026-01-12 22:01:53.32	42.87	13.51	-49.1	-50.5	15.1	0.00e+00	0	22	0	512753664	64	4199
2026-01-12 22:01:54.32	43.04	13.57	-49.0	-50.4	15.1	0.00e+00	0	22	0	515899392	64	4163
2026-01-12 22:01:55.32	43.20	13.62	-49.1	-50.4	15.1	0.00e+00	0	22	0	519045120	64	4173
2026-01-12 22:01:56.33	43.38	13.67	-49.1	-50.5	15.1	0.00e+00	0	22	0	522190848	64	4207
2026-01-12 22:01:57.33	43.55	13.73	-49.2	-50.6	15.0	0.00e+00	0	22	0	525336576	64	4261
2026-01-12 22:01:58.32	43.72	13.78	-49.2	-50.6	15.0	0.00e+00	0	22	0	528482304	64	4274
2026-01-12 22:01:59.32	43.89	13.84	-49.3	-50.7	14.9	0.00e+00	0	22	0	531628032	64	4317
2026-01-12 22:02:00.32	44.06	13.89	-49.3	-50.7	15.0	0.00e+00	0	22	0	534773760	64	4306
2026-01-12 22:02:01.32	44.23	13.94	-49.2	-50.6	15.0	0.00e+00	0	22	0	537919488	64	4281
2026-01-12 22:02:02.31	44.40	14.00	-49.1	-50.5	15.1	0.00e+00	0	22	0	541065216	64	4210
2026-01-12 22:02:03.30	44.58	14.05	-49.2	-50.5	15.0	0.00e+00	0	22	0	544210944	64	4229
2026-01-12 22:02:04.30	44.75	14.10	-49.2	-50.5	15.1	0.00e+00	0	22	0	547356672	64	4240
2026-01-12 22:02:05.30	44.93	14.15	-49.2	-50.6	15.0	0.00e+00	0	22	0	550502400	64	4257
2026-01-12 22:02:06.30	45.10	14.21	-49.2	-50.6	15.0	0.00e+00	0	22	0	553648128	64	4265
2026-01-12 22:02:07.30	45.28	14.26	-49.1	-50.5	15.0	0.00e+00	0	22	0	556793856	64	4216
2026-01-12 22:02:08.30	45.46	14.31	-49.1	-50.5	15.1	0.00e+00	0	22	0	559939584	64	4218
2026-01-12 22:02:09.30	45.63	14.37	-49.3	-50.7	15.0	0.00e+00	0	22	0	562036736	64	4294
2026-01-12 22:02:10.30	45.81	14.42	-49.3	-50.7	14.9	0.00e+00	0	22	0	565182464	64	4315
2026-01-12 22:02:11.30	45.99	14.47	-49.3	-50.7	15.0	0.00e+00	0	22	0	568328192	64	4295
2026-01-12 22:02:12.30	46.17	14.52	-49.2	-50.6	15.0	0.00e+00	0	22	0	571473920	64	4276
2026-01-12 22:02:13.30	46.35	14.57	-49.2	-50.6	15.0	0.00e+00	0	22	0	574619648	64	4264
2026-01-12 22:02:14.31	46.53	14.63	-49.3	-50.7	15.0	0.00e+00	0	22	0	578813952	64	4310
2026-01-12 22:02:15.31	46.72	14.68	-49.2	-50.6	15.0	0.00e+00	0	22	0	581959680	64	4274
2026-01-12 22:02:16.31	46.90	14.73	-49.3	-50.7	15.0	0.00e+00	0	22	0	585105408	64	4302
2026-01-12 22:02:17.31	47.08	14.78	-49.3	-50.7	15.0	0.00e+00	0	22	0	587202560	64	4314
2026-01-12 22:02:18.31	47.26	14.83	-49.3	-50.7	14.9	0.00e+00	0	22	0	590348288	64	4311
2026-01-12 22:02:19.32	47.45	14.88	-49.2	-50.5	15.0	0.00e+00	0	22	0	593494016	64	4236
2026-01-12 22:02:20.33	47.64	14.93	-49.2	-50.6	15.0	0.00e+00	0	22	0	596639744	64	4261
2026-01-12 22:02:21.32	47.82	14.98	-49.3	-50.7	15.0	0.00e+00	0	22	0	599785472	64	4325
2026-01-12 22:02:22.32	48.01	15.04	-49.4	-50.8	14.9	0.00e+00	0	22	0	602931200	64	4350
2026-01-12 22:02:23.32	48.19	15.09	-49.2	-50.6	15.0	0.00e+00	0	22	0	606076928	64	4257
2026-01-12 22:02:24.32	48.38	15.14	-49.2	-50.6	15.0	0.00e+00	0	22	0	609222656	64	4245
2026-01-12 22:02:25.32	48.57	15.19	-49.1	-50.5	15.1	0.00e+00	0	22	0	612368384	64	4202
2026-01-12 22:02:26.32	48.75	15.24	-49.0	-50.3	15.2	0.00e+00	0	22	0	615514112	64	4141
2026-01-12 22:02:27.32	48.94	15.29	-49.0	-50.3	15.1	0.00e+00	0	22	0	618659840	64	4135
2026-01-12 22:02:28.32	49.13	15.33	-49.1	-50.5	15.1	0.00e+00	0	22	0	621805568	64	4214
2026-01-12 22:02:29.33	49.32	15.38	-49.2	-50.5	15.0	0.00e+00	0	23	0	624951296	64	4237
2026-01-12 22:02:30.33	49.52	15.43	-49.1	-50.5	15.1	0.00e+00	0	22	0	628097024	64	4215
2026-01-12 22:02:31.33	49.71	15.48	-49.2	-50.6	15.0	0.00e+00	0	22	0	631242752	64	4279
2026-01-12 22:02:32.34	49.90	15.53	-49.2	-50.6	15.0	0.00e+00	0	22	0	634388480	64	4255
2026-01-12 22:02:33.34	50.09	15.58	-49.2	-50.6	15.0	0.00e+00	0	22	0	637534208	64	4243
2026-01-12 22:02:34.34	50.29	15.63	-49.2	-50.5	15.0	0.00e+00	0	22	0	640679936	64	4240
2026-01-12 22:02:35.34	50.48	15.68	-49.0	-50.3	15.2	0.00e+00	0	22	0	643825664	64	4145
2026-01-12 22:02:36.33	50.67	15.72	-49.0	-50.3	15.2	0.00e+00	0	22	0	646971392	64	4127
2026-01-12 22:02:37.33	50.87	15.77	-48.9	-50.3	15.2	0.00e+00	0	22	0	650117120	64	4106
2026-01-12 22:02:38.33	51.06	15.82	-48.8	-50.1	15.3	0.00e+00	0	22	0	653262848	64	4010
2026-01-12 22:02:39.32	51.26	15.86	-48.8	-50.1	15.3	0.00e+00	0	22	0	656408576	64	4040
2026-01-12 22:02:40.32	51.45	15.91	-48.9	-50.2	15.2	0.00e+00	0	22	0	659554304	64	4063
2026-01-12 22:02:41.33	51.65	15.96	-48.9	-50.2	15.2	0.00e+00	0	22	0	662700032	64	4066
2026-01-12 22:02:42.32	51.85	16.00	-48.8	-50.2	15.2	0.00e+00	0	22	0	665845760	64	4068
2026-01-12 22:02:43.32	52.05	16.05	-48.9	-50.2	15.2	0.00e+00	0	22	0	668991488	64	4096
2026-01-12 22:02:44.32	52.25	16.10	-48.9	-50.3	15.2	0.00e+00	0	22	0	672137216	64	4105
2026-01-12 22:02:45.32	52.45	16.14	-48.9	-50.3	15.2	0.00e+00	0	22	0	675282944	64	4117
2026-01-12 22:02:46.33	52.65	16.19	-49.0	-50.4	15.1	0.00e+00	0	22	0	678428672	64	4156
2026-01-12 22:02:47.33	52.85	16.23	-49.0	-50.4	15.1	0.00e+00	0	22	0	681574400	64	4162
2026-01-12 22:02:48.34	53.05	16.28	-49.0	-50.3	15.2	0.00e+00	0	22	0	684720128	64	4130
2026-01-12 22:02:49.34	53.25	16.32	-49.0	-50.3	15.2	0.00e+00	0	22	0	687865856	64	4129
2026-01-12 22:02:50.34	53.46	16.37	-48.9	-50.3	15.2	0.00e+00	0	22	0	691011584	64	4103
2026-01-12 22:02:51.34	53.66	16.41	-49.0	-50.4	15.1	0.00e+00	0	23	0	694157312	64	4147
2026-01-12 22:02:52.34	53.86	16.46	-48.8	-50.2	15.2	0.00e+00	0	22	0	697303040	64	4056
2026-01-12 22:02:53.34	54.07	16.50	-48.9	-50.2	15.2	0.00e+00	0	22	0	700448768	64	4078
2026-01-12 22:02:54.34	54.27	16.54	-48.8	-50.1	15.3	0.00e+00	0	22	0	703594496	64	4029
2026-01-12 22:02:55.33	54.48	16.59	-48.7	-50.0	15.2	0.00e+00	0	22	0	706740224	63	4203
2026-01-12 22:02:56.34	54.69	16.63	-48.7	-50.0	15.2	0.00e+00	0	22	0	709885952	63	4225
2026-01-12 22:02:57.34	54.89	16.67	-48.7	-50.1	15.2	0.00e+00	0	22	0	713031680	63	4244
2026-01-12 22:02:58.34	55.10	16.72	-48.8	-50.1	15.1	0.00e+00	0	22	0	716177408	63	4265
2026-01-12 22:02:59.33	55.30	16.76	-48.8	-50.2	15.1	0.00e+00	0	22	0	719323136	63	4292
2026-01-12 22:03:00.33	55.51	16.80	-48.8	-50.1	15.1	0.00e+00	0	22	0	722468864	63	4286
2026-01-12 22:03:01.33	55.72	16.84	-48.7	-50.1	15.2	0.00e+00	0	22	0	725614592	63	4255
2026-01-12 22:03:02.32	55.93	16.88	-48.8	-50.2	15.1	0.00e+00	0	22	0	728760320	63	4301
2026-01-12 22:03:03.32	56.14	16.92	-48.7	-50.0	15.2	0.00e+00	0	22	0	731906048	63	4237
2026-01-12 22:03:04.32	56.35	16.96	-48.6	-49.9	15.2	0.00e+00	0	22	0	735051776	63	4172
2026-01-12 22:03:05.32	56.56	17.00	-48.6	-49.9	15.2	0.00e+00	0	22	0	738197504	63	4187
2026-01-12 22:03:06.32	56.77	17.04	-48.6	-49.9	15.2	0.00e+00	0	22	0	741343232	63	4151
2026-01-12 22:03:07.32	56.99	17.08	-48.5	-49.8	15.3	0.00e+00	0	22	0	743440384	63	4106
2026-01-12 22:03:08.32	57.20	17.12	-48.7	-49.9	15.2	0.00e+00	0	22	0	746586112	63	4193
2026-01-12 22:03:09.31	57.41	17.16	-48.6	-49.9	15.2	0.00e+00	0	22	0	749731840	63	4191
2026-01-12 22:03:10.31	57.62	17.20	-48.6	-49.9	15.2	0.00e+00	0	23	0	752877568	63	4192
2026-01-12 22:03:11.31	57.84	17.24	-48.5	-49.8	15.3	0.00e+00	0	22	0	756023296	63	4111
2026-01-12 22:03:12.32	58.06	17.28	-48.5	-49.8	15.3	0.00e+00	0	23	0	759169024	63	4123
2026-01-12 22:03:13.32	58.27	17.31	-48.5	-49.8	15.3	0.00e+00	0	22	0	762314752	63	4137
2026-01-12 22:03:14.32	58.49	17.35	-48.6	-49.9	15.3	0.00e+00	0	22	0	765460480	63	4159
2026-01-12 22:03:15.32	58.70	17.39	-48.6	-49.9	15.2	0.00e+00	0	22	0	768606208	63	4158
2026-01-12 22:03:16.33	58.92	17.43	-48.5	-49.8	15.3	0.00e+00	0	23	0	771751936	63	4125
2026-01-12 22:03:17.33	59.14	17.46	-48.5	-49.8	15.3	0.00e+00	0	22	0	774897664	63	4135
2026-01-12 22:03:18.33	59.36	17.50	-48.5	-49.8	15.3	0.00e+00	0	22	0	778043392	63	4104
2026-01-12 22:03:19.33	59.58	17.54	-48.3	-49.5	15.4	0.00e+00	0	22	0	781189120	63	4000
2026-01-12 22:03:20.33	59.80	17.57	-48.3	-49.5	15.5	0.00e+00	0	22	0	784334848	63	3980
2026-01-12 22:03:21.32	60.01	17.61	-48.3	-49.5	15.5	0.00e+00	0	22	0	787480576	63	3987
2026-01-12 22:03:22.33	60.24	17.64	-48.1	-49.4	15.3	0.00e+00	0	22	0	790626304	62	4154
2026-01-12 22:03:23.33	60.46	17.67	-48.1	-49.3	15.4	0.00e+00	0	22	0	793772032	62	4124
2026-01-12 22:03:24.33	60.68	17.71	-48.2	-49.5	15.3	0.00e+00	0	23	0	796917760	62	4198
2026-01-12 22:03:25.33	60.90	17.74	-48.2	-49.4	15.3	0.00e+00	0	22	0	800063488	62	4192
2026-01-12 22:03:26.34	61.12	17.78	-48.3	-49.6	15.3	0.00e+00	0	22	0	803209216	62	4258
2026-01-12 22:03:27.33	61.34	17.81	-48.3	-49.5	15.3	0.00e+00	0	22	0	806354944	62	4242
2026-01-12 22:03:28.34	61.57	17.84	-48.2	-49.5	15.3	0.00e+00	0	22	0	809500672	62	4219
2026-01-12 22:03:29.34	61.79	17.87	-48.3	-49.5	15.3	0.00e+00	0	22	0	812646400	62	4240
2026-01-12 22:03:30.33	62.02	17.91	-48.2	-49.4	15.3	0.00e+00	0	22	0	815792128	62	4187
2026-01-12 22:03:31.33	62.24	17.94	-48.2	-49.4	15.3	0.00e+00	0	22	0	818937856	62	4186
2026-01-12 22:03:32.32	62.46	17.97	-48.1	-49.4	15.4	0.00e+00	0	23	0	822083584	62	4149
2026-01-12 22:03:33.33	62.69	18.00	-48.1	-49.4	15.3	0.00e+00	0	22	0	825229312	62	4160
2026-01-12 22:03:34.33	62.92	18.03	-48.2	-49.5	15.3	0.00e+00	0	22	0	828375040	62	4196
2026-01-12 22:03:35.33	63.14	18.06	-48.2	-49.4	15.3	0.00e+00	0	22	0	831520768	62	4187
2026-01-12 22:03:36.34	63.37	18.09	-48.2	-49.5	15.3	0.00e+00	0	22	0	834666496	62	4210
2026-01-12 22:03:37.34	63.60	18.12	-48.2	-49.4	15.3	0.00e+00	0	22	0	837812224	62	4183
2026-01-12 22:03:38.34	63.83	18.15	-48.1	-49.3	15.3	0.00e+00	0	22	0	840957952	62	4145
2026-01-12 22:03:39.34	64.05	18.17	-48.1	-49.3	15.4	0.00e+00	0	22	0	844103680	62	4145
2026-01-12 22:03:40.35	64.28	18.20	-48.1	-49.3	15.4	0.00e+00	0	22	0	847249408	62	4143
2026-01-12 22:03:41.35	64.51	18.23	-48.1	-49.3	15.3	0.00e+00	0	22	0	850395136	62	4136
2026-01-12 22:03:42.36	64.75	18.26	-48.2	-49.4	15.3	0.00e+00	0	23	0	853540864	62	4191
2026-01-12 22:03:43.36	64.97	18.28	-48.3	-49.5	15.3	0.00e+00	0	23	0	856686592	62	4229
2026-01-12 22:03:44.36	65.20	18.31	-48.2	-49.5	15.3	0.00e+00	0	22	0	859832320	62	4216
2026-01-12 22:03:45.36	65.44	18.34	-48.1	-49.4	15.3	0.00e+00	0	23	0	862978048	62	4155
2026-01-12 22:03:46.36	65.67	18.36	-48.1	-49.4	15.3	0.00e+00	0	23	0	866123776	62	4160
2026-01-12 22:03:47.35	65.89	18.39	-48.2	-49.5	15.3	0.00e+00	0	23	0	869269504	62	4204
2026-01-12 22:03:48.35	66.13	18.41	-48.2	-49.4	15.3	0.00e+00	0	22	0	872415232	62	4189
2026-01-12 22:03:49.35	66.36	18.43	-48.1	-49.3	15.4	0.00e+00	0	22	0	875560960	62	4117
2026-01-12 22:03:50.35	66.59	18.46	-48.1	-49.4	15.3	0.00e+00	0	23	0	878706688	62	4162
2026-01-12 22:03:51.36	66.83	18.48	-48.1	-49.3	15.3	0.00e+00	0	23	0	881852416	62	4138
2026-01-12 22:03:52.36	67.06	18.50	-48.2	-49.4	15.3	0.00e+00	0	22	0	884998144	62	4183
2026-01-12 22:03:53.37	67.29	18.53	-48.3	-49.5	15.3	0.00e+00	0	22	0	888143872	62	4229
2026-01-12 22:03:54.36	67.53	18.55	-48.3	-49.6	15.2	0.00e+00	0	23	0	891289600	62	4272
2026-01-12 22:03:55.36	67.76	18.57	-48.4	-49.6	15.2	0.00e+00	0	23	0	894435328	62	4287
2026-01-12 22:03:56.36	67.99	18.59	-48.4	-49.7	15.2	0.00e+00	0	22	0	897581056	62	4311
2026-01-12 22:03:57.36	68.23	18.61	-48.5	-49.8	15.2	0.00e+00	0	22	0	900726784	62	4355
2026-01-12 22:03:58.36	68.46	18.63	-48.5	-49.7	15.2	0.00e+00	0	22	0	903872512	62	4336
2026-01-12 22:03:59.36	68.70	18.65	-48.5	-49.8	15.2	0.00e+00	0	23	0	907018240	62	4364
2026-01-12 22:04:00.35	68.93	18.67	-48.6	-49.8	15.1	0.00e+00	0	23	0	909115392	62	4386
2026-01-12 22:04:01.35	69.17	18.69	-48.6	-49.9	15.1	0.00e+00	0	22	0	912261120	62	4407
2026-01-12 22:04:02.34	69.40	18.71	-48.5	-49.8	15.1	0.00e+00	0	22	0	915406848	62	4387
2026-01-12 22:04:03.34	69.64	18.73	-48.6	-49.9	15.1	0.00e+00	0	22	0	918552576	62	4425
2026-01-12 22:04:04.34	69.87	18.74	-48.6	-49.9	15.1	0.00e+00	0	22	0	921698304	62	4425
2026-01-12 22:04:05.34	70.11	18.76	-48.5	-49.8	15.2	0.00e+00	0	22	0	924844032	62	4381
2026-01-12 22:04:06.34	70.35	18.78	-48.5	-49.8	15.1	0.00e+00	0	23	0	927989760	62	4387
2026-01-12 22:04:07.34	70.59	18.79	-48.5	-49.7	15.2	0.00e+00	0	22	0	931135488	62	4337
2026-01-12 22:04:08.34	70.82	18.81	-48.4	-49.7	15.2	0.00e+00	0	22	0	934281216	62	4295
2026-01-12 22:04:09.33	71.06	18.82	-48.2	-49.5	15.3	0.00e+00	0	23	0	937426944	62	4212
2026-01-12 22:04:10.33	71.30	18.84	-48.4	-49.7	15.2	0.00e+00	0	22	0	940572672	62	4307
2026-01-12 22:04:11.33	71.54	18.85	-48.4	-49.7	15.2	0.00e+00	0	22	0	943718400	62	4300
2026-01-12 22:04:12.33	71.77	18.87	-48.4	-49.7	15.2	0.00e+00	0	22	0	946864128	62	4302
2026-01-12 22:04:13.33	72.01	18.88	-48.5	-49.8	15.2	0.00e+00	0	22	0	950009856	62	4365
2026-01-12 22:04:14.32	72.25	18.89	-48.5	-49.8	15.2	0.00e+00	0	22	0	953155584	62	4367
2026-01-12 22:04:15.33	72.49	18.90	-48.5	-49.8	15.2	0.00e+00	0	22	0	956301312	62	4354
2026-01-12 22:04:16.32	72.73	18.92	-48.4	-49.7	15.2	0.00e+00	0	22	0	959447040	62	4304
2026-01-12 22:04:17.32	72.97	18.93	-48.5	-49.8	15.2	0.00e+00	0	23	0	962592768	62	4357
2026-01-12 22:04:18.31	73.20	18.94	-48.5	-49.8	15.1	0.00e+00	0	22	0	965738496	62	4384
2026-01-12 22:04:19.32	73.45	18.95	-48.5	-49.8	15.1	0.00e+00	0	22	0	968884224	62	4386
2026-01-12 22:04:20.32	73.69	18.96	-48.5	-49.8	15.2	0.00e+00	0	23	0	972029952	62	4359
2026-01-12 22:04:21.32	73.93	18.97	-48.5	-49.8	15.2	0.00e+00	0	22	0	975175680	62	4366
2026-01-12 22:04:22.32	74.17	18.98	-48.4	-49.7	15.2	0.00e+00	0	22	0	978321408	62	4298
2026-01-12 22:04:23.31	74.41	18.98	-48.4	-49.6	15.2	0.00e+00	0	23	0	981467136	62	4291
2026-01-12 22:04:24.30	74.64	18.99	-48.5	-49.7	15.2	0.00e+00	0	22	0	984612864	62	4340
2026-01-12 22:04:25.31	74.89	19.00	-48.5	-49.8	15.2	0.00e+00	0	22	0	987758592	62	4345
2026-01-12 22:04:26.31	75.13	19.01	-48.5	-49.7	15.2	0.00e+00	0	23	0	990904320	62	4333
2026-01-12 22:04:27.30	75.37	19.01	-48.5	-49.8	15.2	0.00e+00	0	22	0	994050048	62	4345
2026-01-12 22:04:28.30	75.61	19.02	-48.4	-49.7	15.2	0.00e+00	0	23	0	997195776	62	4298
2026-01-12 22:04:29.30	75.85	19.02	-48.4	-49.7	15.2	0.00e+00	0	23	0	1000341504	62	4301
2026-01-12 22:04:30.30	76.09	19.03	-48.4	-49.7	15.2	0.00e+00	0	23	0	1003487232	62	4315
2026-01-12 22:04:31.31	76.33	19.03	-48.4	-49.6	15.2	0.00e+00	0	22	0	1006632960	62	4282
2026-01-12 22:04:32.31	76.57	19.04	-48.3	-49.6	15.3	0.00e+00	0	23	0	1009778688	62	4271
2026-01-12 22:04:33.31	76.82	19.04	-48.4	-49.6	15.2	0.00e+00	0	23	0	1012924416	62	4280
2026-01-12 22:04:34.31	77.06	19.04	-48.3	-49.6	15.2	0.00e+00	0	22	0	1016070144	62	4259
2026-01-12 22:04:35.30	77.30	19.05	-48.2	-49.5	15.3	0.00e+00	0	22	0	1019215872	62	4212
2026-01-12 22:04:36.31	77.54	19.05	-48.4	-49.6	15.2	0.00e+00	0	22	0	1022361600	62	4283
2026-01-12 22:04:37.30	77.78	19.05	-48.3	-49.5	15.3	0.00e+00	0	22	0	1025507328	62	4228
2026-01-12 22:04:38.29	78.02	19.05	-48.2	-49.5	15.3	0.00e+00	0	23	0	1028653056	62	4206
2026-01-12 22:04:39.29	78.26	19.05	-48.2	-49.5	15.3	0.00e+00	0	23	0	1031798784	62	4215
2026-01-12 22:04:40.29	78.50	19.05	-48.3	-49.6	15.2	0.00e+00	0	22	0	1034944512	62	4247
2026-01-12 22:04:41.29	78.74	19.05	-48.4	-49.6	15.2	0.00e+00	0	23	0	1037041664	62	4287
2026-01-12 22:04:42.29	78.99	19.05	-48.4	-49.7	15.2	0.00e+00	0	23	0	1040187392	62	4313
2026-01-12 22:04:43.28	79.23	19.05	-48.4	-49.7	15.2	0.00e+00	0	23	0	1043333120	62	4326
2026-01-12 22:04:44.28	79.47	19.05	-48.4	-49.7	15.2	0.00e+00	0	22	0	1046478848	62	4302
2026-01-12 22:04:45.29	79.71	19.04	-48.3	-49.6	15.2	0.00e+00	0	23	0	1049624576	62	4249
2026-01-12 22:04:46.28	79.95	19.04	-48.3	-49.5	15.3	0.00e+00	0	23	0	1052770304	62	4238
2026-01-12 22:04:47.28	80.19	19.04	-48.3	-49.6	15.2	0.00e+00	0	23	0	1055916032	62	4258
2026-01-12 22:04:48.28	80.43	19.03	-48.5	-49.7	15.2	0.00e+00	0	22	0	1059061760	62	4340
2026-01-12 22:04:49.29	80.68	19.03	-48.6	-49.9	15.1	0.00e+00	0	22	0	1062207488	62	4407
2026-01-12 22:04:50.29	80.92	19.02	-48.6	-49.9	15.1	0.00e+00	0	23	0	1065353216	62	4422
2026-01-12 22:04:51.29	81.16	19.02	-48.5	-49.8	15.1	0.00e+00	0	22	0	1068498944	62	4374
2026-01-12 22:04:52.29	81.40	19.01	-48.5	-49.8	15.2	0.00e+00	0	23	0	1071644672	62	4342
2026-01-12 22:04:53.30	81.64	19.01	-48.5	-49.8	15.2	0.00e+00	0	23	0	1074790400	62	4347
2026-01-12 22:04:54.29	81.88	19.00	-48.4	-49.7	15.2	0.00e+00	0	22	0	1077936128	62	4298
2026-01-12 22:04:55.28	82.12	18.99	-48.4	-49.7	15.2	0.00e+00	0	23	0	1081081856	62	4295
2026-01-12 22:04:56.28	82.36	18.98	-48.4	-49.7	15.2	0.00e+00	0	22	0	1084227584	62	4306
2026-01-12 22:04:57.28	82.60	18.98	-48.4	-49.7	15.2	0.00e+00	0	22	0	1087373312	62	4312
2026-01-12 22:04:58.29	82.85	18.97	-48.5	-49.8	15.1	0.00e+00	0	22	0	1090519040	62	4345
2026-01-12 22:04:59.27	83.08	18.96	-48.5	-49.7	15.2	0.00e+00	0	22	0	1093664768	62	4336
2026-01-12 22:05:00.27	83.32	18.95	-48.5	-49.7	15.2	0.00e+00	0	22	0	1096810496	62	4336
2026-01-12 22:05:01.26	83.56	18.94	-48.4	-49.6	15.2	0.00e+00	0	23	0	1099956224	62	4283
2026-01-12 22:05:02.26	83.80	18.93	-48.4	-49.6	15.2	0.00e+00	0	23	0	1103101952	62	4277
2026-01-12 22:05:03.26	84.04	18.92	-48.5	-49.7	15.2	0.00e+00	0	22	0	1106247680	62	4328
2026-01-12 22:05:04.26	84.28	18.90	-48.5	-49.8	15.1	0.00e+00	0	23	0	1109393408	62	4349
2026-01-12 22:05:05.26	84.52	18.89	-48.5	-49.8	15.1	0.00e+00	0	23	0	1112539136	62	4344
2026-01-12 22:05:06.24	84.75	18.88	-48.5	-49.7	15.2	0.00e+00	0	23	0	1115684864	62	4340
2026-01-12 22:05:07.24	84.99	18.87	-48.4	-49.7	15.2	0.00e+00	0	22	0	1118830592	62	4327
2026-01-12 22:05:08.25	85.23	18.85	-48.4	-49.6	15.2	0.00e+00	0	23	0	1121976320	62	4289
2026-01-12 22:05:09.24	85.47	18.84	-48.2	-49.5	15.3	0.00e+00	0	22	0	1125122048	62	4205
2026-01-12 22:05:10.24	85.71	18.82	-48.2	-49.4	15.3	0.00e+00	0	23	0	1128267776	62	4179
2026-01-12 22:05:11.23	85.94	18.81	-48.1	-49.3	15.3	0.00e+00	0	23	0	1131413504	62	4140
2026-01-12 22:05:12.22	86.18	18.79	-48.1	-49.3	15.3	0.00e+00	0	22	0	1134559232	62	4117
2026-01-12 22:05:13.23	86.42	18.78	-48.1	-49.3	15.3	0.00e+00	0	23	0	1137704960	62	4130
2026-01-12 22:05:14.22	86.65	18.76	-48.2	-49.4	15.3	0.00e+00	0	23	0	1140850688	62	4189
2026-01-12 22:05:15.22	86.89	18.74	-48.1	-49.3	15.3	0.00e+00	0	22	0	1143996416	62	4142
2026-01-12 22:05:16.21	87.13	18.73	-48.2	-49.4	15.3	0.00e+00	0	23	0	1147142144	62	4172
2026-01-12 22:05:17.21	87.36	18.71	-48.2	-49.5	15.3	0.00e+00	0	23	0	1150287872	62	4194
2026-01-12 22:05:18.21	87.60	18.69	-48.1	-49.3	15.3	0.00e+00	0	23	0	1153433600	62	4124
2026-01-12 22:05:19.21	87.83	18.67	-48.2	-49.5	15.2	0.00e+00	0	23	0	1156579328	62	4199
2026-01-12 22:05:20.20	88.07	18.65	-48.1	-49.3	15.3	0.00e+00	0	23	0	1158676480	62	4140
2026-01-12 22:05:21.20	88.30	18.63	-48.2	-49.5	15.2	0.00e+00	0	23	0	1161822208	62	4198
2026-01-12 22:05:22.19	88.54	18.61	-48.1	-49.4	15.3	0.00e+00	0	23	0	1164967936	62	4160
2026-01-12 22:05:23.19	88.77	18.59	-48.1	-49.3	15.3	0.00e+00	0	23	0	1168113664	62	4142
2026-01-12 22:05:24.19	89.01	18.57	-48.1	-49.3	15.4	0.00e+00	0	23	0	1171259392	62	4118
2026-01-12 22:05:25.19	89.24	18.55	-48.1	-49.3	15.3	0.00e+00	0	23	0	1174405120	62	4129
2026-01-12 22:05:26.19	89.47	18.53	-48.1	-49.3	15.3	0.00e+00	0	23	0	1177550848	62	4143
2026-01-12 22:05:27.19	89.71	18.50	-48.2	-49.4	15.3	0.00e+00	0	23	0	1180696576	62	4188
2026-01-12 22:05:28.19	89.94	18.48	-48.3	-49.6	15.2	0.00e+00	0	22	0	1183842304	62	4266
2026-01-12 22:05:29.19	90.17	18.46	-48.1	-49.4	15.3	0.00e+00	0	23	0	1186988032	62	4157
2026-01-12 22:05:30.19	90.41	18.43	-48.1	-49.3	15.3	0.00e+00	0	23	0	1190133760	62	4120
2026-01-12 22:05:31.19	90.64	18.41	-48.1	-49.3	15.3	0.00e+00	0	23	0	1193279488	62	4140
2026-01-12 22:05:32.18	90.87	18.39	-48.1	-49.3	15.3	0.00e+00	0	23	0	1196425216	62	4116
2026-01-12 22:05:33.18	91.10	18.36	-48.1	-49.4	15.3	0.00e+00	0	23	0	1199570944	62	4148
2026-01-12 22:05:34.17	91.33	18.33	-48.2	-49.4	15.3	0.00e+00	0	23	0	1202716672	62	4182
2026-01-12 22:05:35.18	91.56	18.31	-48.2	-49.5	15.3	0.00e+00	0	23	0	1205862400	62	4197
2026-01-12 22:05:36.18	91.79	18.28	-48.4	-49.7	15.2	0.00e+00	0	23	0	1209008128	62	4293
2026-01-12 22:05:37.18	92.02	18.26	-48.4	-49.7	15.2	0.00e+00	0	23	0	1212153856	62	4303
2026-01-12 22:05:38.18	92.25	18.23	-48.4	-49.7	15.2	0.00e+00	0	23	0	1215299584	62	4314
2026-01-12 22:05:39.19	92.48	18.20	-48.4	-49.7	15.2	0.00e+00	0	23	0	1218445312	62	4317
2026-01-12 22:05:40.18	92.71	18.17	-48.4	-49.6	15.2	0.00e+00	0	23	0	1221591040	62	4277
2026-01-12 22:05:41.18	92.94	18.14	-48.3	-49.6	15.2	0.00e+00	0	23	0	1224736768	62	4268
2026-01-12 22:05:42.17	93.17	18.12	-48.4	-49.7	15.1	0.00e+00	0	23	0	1227882496	62	4292
2026-01-12 22:05:43.17	93.39	18.09	-48.4	-49.7	15.1	0.00e+00	0	23	0	1231028224	62	4308
2026-01-12 22:05:44.17	93.62	18.06	-48.2	-49.5	15.2	0.00e+00	0	23	0	1234173952	62	4216
2026-01-12 22:05:45.17	93.85	18.03	-48.2	-49.5	15.3	0.00e+00	0	23	0	1237319680	62	4218
2026-01-12 22:05:46.17	94.07	18.00	-48.1	-49.4	15.3	0.00e+00	0	23	0	1240465408	62	4165
2026-01-12 22:05:47.16	94.30	17.97	-48.2	-49.4	15.3	0.00e+00	0	23	0	1243611136	62	4189
2026-01-12 22:05:48.16	94.52	17.94	-48.1	-49.3	15.3	0.00e+00	0	23	0	1246756864	62	4141
2026-01-12 22:05:49.16	94.75	17.90	-48.1	-49.3	15.3	0.00e+00	0	23	0	1249902592	62	4119
2026-01-12 22:05:50.17	94.97	17.87	-48.0	-49.3	15.3	0.00e+00	0	23	0	1253048320	62	4106
2026-01-12 22:05:51.16	95.20	17.84	-48.2	-49.4	15.3	0.00e+00	0	23	0	1256194048	62	4170
2026-01-12 22:05:52.16	95.42	17.81	-48.2	-49.5	15.3	0.00e+00	0	23	0	1259339776	62	4207
2026-01-12 22:05:53.16	95.64	17.77	-48.3	-49.5	15.2	0.00e+00	0	23	0	1262485504	62	4242
2026-01-12 22:05:54.16	95.87	17.74	-48.3	-49.6	15.2	0.00e+00	0	23	0	1265631232	62	4252
2026-01-12 22:05:55.16	96.09	17.71	-48.2	-49.5	15.2	0.00e+00	0	23	0	1268776960	62	4212
2026-01-12 22:05:56.15	96.31	17.67	-48.2	-49.4	15.2	0.00e+00	0	23	0	1271922688	62	4192
2026-01-12 22:05:57.13	96.52	17.64	-48.2	-49.5	15.2	0.00e+00	0	23	0	1275068416	62	4197
2026-01-12 22:05:58.13	96.75	17.60	-48.2	-49.4	15.3	0.00e+00	0	23	0	1278214144	62	4167
2026-01-12 22:05:59.13	96.97	17.57	-48.3	-49.6	15.2	0.00e+00	0	23	0	1280311296	62	4246
2026-01-12 22:06:00.13	97.19	17.53	-48.2	-49.5	15.2	0.00e+00	0	23	0	1283457024	62	4219
2026-01-12 22:06:01.13	97.40	17.50	-48.2	-49.4	15.3	0.00e+00	0	23	0	1286602752	62	4188
2026-01-12 22:06:02.13	97.62	17.46	-48.2	-49.4	15.3	0.00e+00	0	23	0	1289748480	62	4167
2026-01-12 22:06:03.12	97.84	17.42	-48.3	-49.5	15.2	0.00e+00	0	23	0	1292894208	62	4225
2026-01-12 22:06:04.12	98.06	17.39	-48.3	-49.6	15.2	0.00e+00	0	23	0	1296039936	62	4250
2026-01-12 22:06:05.12	98.27	17.35	-48.3	-49.6	15.2	0.00e+00	0	23	0	1299185664	62	4274
2026-01-12 22:06:06.11	98.49	17.31	-48.4	-49.6	15.2	0.00e+00	0	23	0	1302331392	62	4278
2026-01-12 22:06:07.11	98.71	17.28	-48.3	-49.6	15.2	0.00e+00	0	23	0	1305477120	62	4259
2026-01-12 22:06:08.10	98.92	17.24	-48.3	-49.6	15.2	0.00e+00	0	23	0	1308622848	62	4261
2026-01-12 22:06:09.09	99.13	17.20	-48.4	-49.7	15.1	0.00e+00	0	23	0	1311768576	62	4300
2026-01-12 22:06:10.10	99.35	17.16	-48.5	-49.8	15.1	0.00e+00	0	23	0	1314914304	62	4351
2026-01-12 22:06:11.08	99.56	17.12	-48.4	-49.7	15.1	0.00e+00	0	23	0	1318060032	62	4325
2026-01-12 22:06:12.09	99.77	17.08	-48.3	-49.6	15.2	0.00e+00	0	23	0	1321205760	62	4252
2026-01-12 22:06:13.08	99.98	17.04	-48.3	-49.6	15.2	0.00e+00	0	23	0	1324351488	62	4244
2026-01-12 22:06:14.07	100.20	17.00	-48.4	-49.7	15.1	0.00e+00	0	23	0	1327497216	62	4321
2026-01-12 22:06:15.07	100.41	16.96	-48.5	-49.8	15.1	0.00e+00	0	23	0	1330642944	62	4375
2026-01-12 22:06:16.07	100.62	16.92	-48.6	-49.9	15.0	0.00e+00	0	23	0	1333788672	62	4428
2026-01-12 22:06:17.07	100.83	16.88	-48.8	-50.1	15.0	0.00e+00	0	23	0	1336934400	62	4518
2026-01-12 22:06:18.06	101.04	16.84	-48.7	-50.1	15.0	0.00e+00	0	23	0	1340080128	62	4503
2026-01-12 22:06:19.06	101.25	16.80	-48.8	-50.1	14.9	0.00e+00	0	23	0	1343225856	62	4534
2026-01-12 22:06:20.06	101.46	16.75	-48.8	-50.2	14.9	0.00e+00	0	23	0	1346371584	62	4561
2026-01-12 22:06:21.06	101.66	16.71	-48.7	-50.1	14.9	0.00e+00	0	23	0	1349517312	62	4515
2026-01-12 22:06:22.06	101.87	16.67	-48.7	-50.0	15.0	0.00e+00	0	23	0	1352663040	62	4475
2026-01-12 22:06:23.06	102.08	16.63	-48.8	-50.1	15.0	0.00e+00	0	23	0	1355808768	62	4505
2026-01-12 22:06:24.05	102.28	16.58	-48.7	-50.1	15.0	0.00e+00	0	23	0	1358954496	62	4495
2026-01-12 22:06:25.05	102.49	16.54	-48.8	-50.2	14.9	0.00e+00	0	23	0	1362100224	62	4557
2026-01-12 22:06:26.04	102.69	16.50	-48.8	-50.2	14.9	0.00e+00	0	23	0	1365245952	62	4548
2026-01-12 22:06:27.04	102.90	16.45	-48.9	-50.2	14.9	0.00e+00	0	23	0	1368391680	62	4590
2026-01-12 22:06:28.03	103.10	16.41	-48.9	-50.2	15.0	0.00e+00	0	23	0	1371537408	63	4321
2026-01-12 22:06:29.03	103.31	16.37	-48.9	-50.3	15.0	0.00e+00	0	23	0	1374683136	63	4366
2026-01-12 22:06:30.03	103.51	16.32	-49.0	-50.4	14.9	0.00e+00	0	23	0	1377828864	63	4417
2026-01-12 22:06:31.03	103.71	16.28	-49.1	-50.5	14.9	0.00e+00	0	23	0	1380974592	63	4462
2026-01-12 22:06:32.03	103.91	16.23	-49.1	-50.5	14.9	0.00e+00	0	23	0	1384120320	63	4463
2026-01-12 22:06:33.04	104.12	16.18	-49.0	-50.4	14.9	0.00e+00	0	23	0	1387266048	63	4416
2026-01-12 22:06:34.03	104.32	16.14	-49.0	-50.4	14.9	0.00e+00	0	23	0	1390411776	63	4401
2026-01-12 22:06:35.03	104.52	16.09	-48.9	-50.2	15.0	0.00e+00	0	23	0	1392508928	63	4321
2026-01-12 22:06:36.03	104.72	16.05	-48.8	-50.2	15.0	0.00e+00	0	23	0	1395654656	63	4305
2026-01-12 22:06:37.02	104.92	16.00	-49.0	-50.3	15.0	0.00e+00	0	23	0	1398800384	63	4371
2026-01-12 22:06:38.03	105.12	15.95	-48.8	-50.1	15.1	0.00e+00	0	23	0	1401946112	63	4290
2026-01-12 22:06:39.03	105.31	15.91	-48.8	-50.1	15.1	0.00e+00	0	23	0	1405091840	63	4247
2026-01-12 22:06:40.03	105.51	15.86	-48.8	-50.0	15.1	0.00e+00	0	23	0	1408237568	63	4242
2026-01-12 22:06:41.03	105.71	15.81	-48.8	-50.1	15.1	0.00e+00	0	23	0	1411383296	63	4254
2026-01-12 22:06:42.03	105.90	15.76	-48.9	-50.2	15.0	0.00e+00	0	23	0	1414529024	63	4321
2026-01-12 22:06:43.03	106.10	15.72	-49.0	-50.4	14.9	0.00e+00	0	23	0	1417674752	63	4414
2026-01-12 22:06:44.04	106.30	15.67	-49.1	-50.5	14.9	0.00e+00	0	23	0	1420820480	63	4445
2026-01-12 22:06:45.04	106.49	15.62	-49.2	-50.6	14.8	0.00e+00	0	23	0	1423966208	63	4541
2026-01-12 22:06:46.03	106.68	15.57	-49.2	-50.6	14.9	0.00e+00	0	23	0	1427111936	63	4505
2026-01-12 22:06:47.03	106.88	15.52	-49.1	-50.4	14.9	0.00e+00	0	23	0	1430257664	63	4437
2026-01-12 22:06:48.03	107.07	15.47	-49.0	-50.3	14.9	0.00e+00	0	23	0	1433403392	63	4389
2026-01-12 22:06:49.02	107.26	15.43	-49.0	-50.3	15.0	0.00e+00	0	23	0	1436549120	63	4374
2026-01-12 22:06:50.03	107.45	15.38	-49.0	-50.3	14.9	0.00e+00	0	23	0	1439694848	63	4372
2026-01-12 22:06:51.02	107.64	15.33	-48.9	-50.2	15.0	0.00e+00	0	23	0	1442840576	63	4335
2026-01-12 22:06:52.01	107.83	15.28	-49.0	-50.4	14.9	0.00e+00	0	23	0	1445986304	63	4401
2026-01-12 22:06:53.01	108.02	15.23	-48.9	-50.2	15.0	0.00e+00	0	23	0	1449132032	63	4330
2026-01-12 22:06:54.01	108.21	15.18	-48.8	-50.1	15.1	0.00e+00	0	23	0	1452277760	63	4291
2026-01-12 22:06:55.01	108.40	15.13	-48.8	-50.1	15.1	0.00e+00	0	23	0	1455423488	63	4270
2026-01-12 22:06:56.01	108.58	15.08	-48.8	-50.1	15.1	0.00e+00	0	23	0	1458569216	63	4248
2026-01-12 22:06:57.00	108.77	15.03	-48.8	-50.1	15.0	0.00e+00	0	23	0	1461714944	63	4283
2026-01-12 22:06:58.01	108.96	14.98	-49.0	-50.3	14.9	0.00e+00	0	23	0	1464860672	63	4389
2026-01-12 22:06:59.01	109.14	14.92	-49.0	-50.4	14.9	0.00e+00	0	23	0	1468006400	63	4401
2026-01-12 22:07:00.01	109.33	14.87	-49.1	-50.5	14.9	0.00e+00	0	23	0	1471152128	63	4449
2026-01-12 22:07:01.01	109.51	14.82	-49.1	-50.5	14.9	0.00e+00	0	23	0	1474297856	63	4452
2026-01-12 22:07:02.00	109.70	14.77	-49.2	-50.6	14.8	0.00e+00	0	23	0	1477443584	63	4518
2026-01-12 22:07:03.00	109.88	14.72	-49.2	-50.5	14.9	0.00e+00	0	23	0	1480589312	63	4478
2026-01-12 22:07:04.00	110.06	14.67	-49.2	-50.6	14.9	0.00e+00	0	23	0	1483735040	63	4511
2026-01-12 22:07:04.99	110.24	14.62	-49.1	-50.5	14.9	0.00e+00	0	23	0	1486880768	63	4458
2026-01-12 22:07:05.98	110.42	14.57	-49.1	-50.4	14.9	0.00e+00	0	23	0	1490026496	63	4432
2026-01-12 22:07:06.97	110.60	14.51	-49.0	-50.4	14.9	0.00e+00	0	23	0	1493172224	63	4407
2026-01-12 22:07:07.97	110.78	14.46	-48.9	-50.2	15.0	0.00e+00	0	23	0	1496317952	63	4332
2026-01-12 22:07:08.97	110.96	14.41	-48.9	-50.2	15.0	0.00e+00	0	23	0	1499463680	63	4316
2026-01-12 22:07:09.97	111.14	14.36	-48.8	-50.1	15.0	0.00e+00	0	23	0	1502609408	63	4291
2026-01-12 22:07:10.97	111.32	14.30	-48.9	-50.3	15.0	0.00e+00	0	23	0	1505755136	63	4351
2026-01-12 22:07:11.97	111.50	14.25	-49.0	-50.4	14.9	0.00e+00	0	23	0	1508900864	63	4419
2026-01-12 22:07:12.97	111.67	14.20	-49.0	-50.4	14.9	0.00e+00	0	23	0	1512046592	63	4415
2026-01-12 22:07:13.98	111.85	14.14	-49.2	-50.5	14.8	0.00e+00	0	23	0	1515192320	63	4487
2026-01-12 22:07:14.98	112.03	14.09	-49.0	-50.3	15.0	0.00e+00	0	23	0	1518338048	63	4374
2026-01-12 22:07:15.98	112.20	14.04	-49.1	-50.5	14.9	0.00e+00	0	23	0	1521483776	63	4451
2026-01-12 22:07:16.97	112.38	13.98	-49.1	-50.5	14.9	0.00e+00	0	23	0	1524629504	63	4460
2026-01-12 22:07:17.97	112.55	13.93	-49.1	-50.5	14.9	0.00e+00	0	23	0	1526726656	63	4459
2026-01-12 22:07:18.97	112.72	13.88	-49.1	-50.5	14.9	0.00e+00	0	23	0	1529872384	63	4461
2026-01-12 22:07:19.96	112.90	13.82	-49.3	-50.6	14.8	0.00e+00	0	23	0	1533018112	63	4539
2026-01-12 22:07:20.97	113.07	13.77	-49.3	-50.6	14.8	0.00e+00	0	23	0	1536163840	63	4544
2026-01-12 22:07:21.97	113.24	13.71	-49.2	-50.6	14.8	0.00e+00	0	23	0	1539309568	63	4526
2026-01-12 22:07:22.97	113.41	13.66	-49.2	-50.6	14.8	0.00e+00	0	23	0	1542455296	63	4499
2026-01-12 22:07:23.97	113.58	13.60	-49.2	-50.6	14.8	0.00e+00	0	23	0	1545601024	63	4511
2026-01-12 22:07:24.98	113.76	13.55	-49.3	-50.7	14.8	0.00e+00	0	23	0	1548746752	63	4569
2026-01-12 22:07:25.97	113.92	13.49	-49.2	-50.6	14.8	0.00e+00	0	23	0	1551892480	63	4499
2026-01-12 22:07:26.97	114.09	13.44	-49.3	-50.6	14.8	0.00e+00	0	23	0	1555038208	63	4538
2026-01-12 22:07:27.97	114.26	13.39	-49.0	-50.3	15.0	0.00e+00	0	23	0	1558183936	63	4387
2026-01-12 22:07:28.97	114.43	13.33	-49.0	-50.3	14.9	0.00e+00	0	23	0	1561329664	63	4388
2026-01-12 22:07:29.96	114.59	13.28	-49.1	-50.5	14.9	0.00e+00	0	23	0	1564475392	63	4445
2026-01-12 22:07:30.96	114.76	13.22	-49.1	-50.4	14.9	0.00e+00	0	23	0	1567621120	63	4440
2026-01-12 22:07:31.96	114.93	13.17	-49.0	-50.4	14.9	0.00e+00	0	23	0	1570766848	63	4392
2026-01-12 22:07:32.96	115.09	13.11	-49.0	-50.3	14.9	0.00e+00	0	23	0	1573912576	63	4370
2026-01-12 22:07:33.97	115.26	13.05	-49.0	-50.4	14.9	0.00e+00	0	23	0	1577058304	63	4402
2026-01-12 22:07:34.97	115.42	13.00	-49.0	-50.3	14.9	0.00e+00	0	23	0	1580204032	63	4371
2026-01-12 22:07:35.97	115.58	12.94	-49.0	-50.4	14.9	0.00e+00	0	23	0	1583349760	63	4431
2026-01-12 22:07:36.97	115.75	12.89	-49.1	-50.4	14.9	0.00e+00	0	23	0	1586495488	63	4432
2026-01-12 22:07:37.97	115.91	12.83	-49.0	-50.4	14.9	0.00e+00	0	23	0	1589641216	63	4399
2026-01-12 22:07:38.98	116.07	12.77	-49.1	-50.5	14.8	0.00e+00	0	23	0	1592786944	63	4469
2026-01-12 22:07:39.97	116.23	12.72	-49.1	-50.5	14.9	0.00e+00	0	23	0	1595932672	63	4466
2026-01-12 22:07:40.97	116.39	12.66	-49.0	-50.4	14.9	0.00e+00	0	23	0	1599078400	63	4395
2026-01-12 22:07:41.96	116.55	12.61	-49.0	-50.4	14.9	0.00e+00	0	23	0	1602224128	63	4418
2026-01-12 22:07:42.96	116.71	12.55	-49.2	-50.6	14.8	0.00e+00	0	23	0	1605369856	63	4506
2026-01-12 22:07:43.96	116.87	12.50	-49.0	-50.4	14.9	0.00e+00	0	23	0	1608515584	63	4427
2026-01-12 22:07:44.96	117.03	12.44	-49.0	-50.3	15.0	0.00e+00	0	23	0	1611661312	63	4373
2026-01-12 22:07:45.96	117.18	12.38	-49.0	-50.3	14.9	0.00e+00	0	23	0	1614807040	63	4387
2026-01-12 22:07:46.96	117.34	12.33	-49.0	-50.3	15.0	0.00e+00	0	23	0	1617952768	63	4376
2026-01-12 22:07:47.96	117.50	12.27	-49.0	-50.4	14.9	0.00e+00	0	23	0	1621098496	63	4393
2026-01-12 22:07:48.97	117.65	12.21	-49.0	-50.3	14.9	0.00e+00	0	23	0	1624244224	63	4381
2026-01-12 22:07:49.97	117.81	12.16	-49.0	-50.4	14.9	0.00e+00	0	23	0	1627389952	63	4394
2026-01-12 22:07:50.96	117.96	12.10	-48.9	-50.3	15.0	0.00e+00	0	23	0	1630535680	63	4350
2026-01-12 22:07:51.96	118.12	12.04	-48.9	-50.3	14.9	0.00e+00	0	23	0	1633681408	63	4362
2026-01-12 22:07:52.97	118.27	11.99	-48.9	-50.3	14.9	0.00e+00	0	23	0	1636827136	63	4369
2026-01-12 22:07:53.97	118.42	11.93	-49.0	-50.4	14.9	0.00e+00	0	23	0	1639972864	63	4393
2026-01-12 22:07:54.97	118.58	11.87	-49.0	-50.4	14.9	0.00e+00	0	23	0	1643118592	63	4397
2026-01-12 22:07:55.98	118.73	11.81	-49.0	-50.4	14.9	0.00e+00	0	23	0	1646264320	63	4422
2026-01-12 22:07:56.97	118.88	11.76	-49.1	-50.5	14.8	0.00e+00	0	23	0	1649410048	63	4470
2026-01-12 22:07:57.97	119.03	11.70	-49.1	-50.5	14.8	0.00e+00	0	23	0	1652555776	63	4465
2026-01-12 22:07:58.98	119.18	11.64	-49.1	-50.5	14.8	0.00e+00	0	23	0	1655701504	63	4481
2026-01-12 22:07:59.97	119.33	11.59	-49.1	-50.5	14.8	0.00e+00	0	23	0	1658847232	63	4487
2026-01-12 22:08:00.97	119.48	11.53	-49.1	-50.5	14.8	0.00e+00	0	23	0	1661992960	63	4491
2026-01-12 22:08:01.97	119.63	11.47	-49.2	-50.6	14.7	0.00e+00	0	23	0	1665138688	63	4545
2026-01-12 22:08:02.98	119.78	11.42	-49.2	-50.7	14.7	0.00e+00	0	23	0	1668284416	63	4554
2026-01-12 22:08:03.98	119.92	11.36	-49.4	-50.8	14.6	0.00e+00	0	23	0	1671430144	63	4639
2026-01-12 22:08:04.97	120.07	11.30	-49.4	-50.8	14.6	0.00e+00	0	23	0	1674575872	63	4648
2026-01-12 22:08:05.97	120.22	11.24	-49.4	-50.8	14.8	0.00e+00	0	23	0	1677721600	64	4388
2026-01-12 22:08:06.97	120.36	11.19	-49.4	-50.9	14.7	0.00e+00	0	23	0	1680867328	64	4411
2026-01-12 22:08:07.96	120.50	11.13	-49.4	-50.8	14.7	0.00e+00	0	23	0	1682964480	64	4387
2026-01-12 22:08:08.97	120.65	11.07	-49.5	-51.0	14.7	0.00e+00	0	23	0	1686110208	64	4461
2026-01-12 22:08:09.97	120.79	11.01	-49.5	-51.0	14.7	0.00e+00	0	23	0	1689255936	64	4459
2026-01-12 22:08:10.97	120.94	10.96	-49.6	-51.1	14.6	0.00e+00	0	23	0	1692401664	64	4509
2026-01-12 22:08:11.96	121.08	10.90	-49.5	-51.0	14.6	0.00e+00	0	23	0	1695547392	64	4467
2026-01-12 22:08:12.96	121.22	10.84	-49.6	-51.1	14.6	0.00e+00	0	23	0	1698693120	64	4504
2026-01-12 22:08:13.97	121.37	10.78	-49.6	-51.1	14.6	0.00e+00	0	23	0	1701838848	64	4499
2026-01-12 22:08:14.97	121.51	10.73	-49.7	-51.2	14.5	0.00e+00	0	23	0	1704984576	64	4572
2026-01-12 22:08:15.97	121.65	10.67	-49.8	-51.3	14.5	0.00e+00	0	23	0	1708130304	64	4629
2026-01-12 22:08:16.98	121.79	10.61	-49.7	-51.2	14.5	0.00e+00	0	23	0	1711276032	64	4597
2026-01-12 22:08:17.99	121.93	10.55	-49.8	-51.3	14.5	0.00e+00	0	23	0	1714421760	64	4626
2026-01-12 22:08:18.98	122.07	10.50	-49.8	-51.3	14.5	0.00e+00	0	23	0	1717567488	64	4619
2026-01-12 22:08:19.98	122.21	10.44	-49.8	-51.3	14.5	0.00e+00	0	23	0	1720713216	64	4637
2026-01-12 22:08:20.98	122.34	10.38	-49.8	-51.4	14.4	0.00e+00	0	23	0	1723858944	64	4681
2026-01-12 22:08:21.97	122.48	10.32	-49.7	-51.3	14.5	0.00e+00	0	23	0	1727004672	64	4618
2026-01-12 22:08:22.97	122.62	10.27	-49.7	-51.2	14.5	0.00e+00	0	23	0	1730150400	64	4594
2026-01-12 22:08:23.97	122.75	10.21	-49.7	-51.2	14.5	0.00e+00	0	23	0	1733296128	64	4595
2026-01-12 22:08:24.98	122.89	10.15	-49.6	-51.1	14.6	0.00e+00	0	23	0	1736441856	64	4513
2026-01-12 22:08:25.97	123.03	10.09	-49.5	-51.0	14.6	0.00e+00	0	23	0	1739587584	64	4484
2026-01-12 22:08:26.97	123.16	10.04	-49.6	-51.2	14.5	0.00e+00	0	23	0	1742733312	64	4555
2026-01-12 22:08:27.97	123.30	9.98	-49.6	-51.1	14.6	0.00e+00	0	23	0	1745879040	64	4506
2026-01-12 22:08:28.98	123.43	9.92	-49.6	-51.1	14.6	0.00e+00	0	23	0	1749024768	64	4520
2026-01-12 22:08:29.98	123.56	9.86	-49.5	-51.0	14.6	0.00e+00	0	23	0	1752170496	64	4479
2026-01-12 22:08:30.97	123.70	9.81	-49.7	-51.2	14.5	0.00e+00	0	23	0	1755316224	64	4588
2026-01-12 22:08:31.98	123.83	9.75	-49.7	-51.2	14.5	0.00e+00	0	23	0	1758461952	64	4590
2026-01-12 22:08:32.98	123.96	9.69	-49.8	-51.3	14.4	0.00e+00	0	23	0	1761607680	64	4647
2026-01-12 22:08:33.98	124.09	9.63	-49.7	-51.3	14.5	0.00e+00	0	23	0	1764753408	64	4604
2026-01-12 22:08:34.99	124.23	9.57	-49.7	-51.3	14.5	0.00e+00	0	23	0	1767899136	64	4604
2026-01-12 22:08:35.98	124.36	9.52	-49.8	-51.4	14.4	0.00e+00	0	23	0	1771044864	64	4678
2026-01-12 22:08:36.98	124.49	9.46	-49.8	-51.3	14.4	0.00e+00	0	23	0	1774190592	64	4638
2026-01-12 22:08:37.98	124.61	9.40	-49.9	-51.5	14.5	0.00e+00	0	23	0	1777336320	65	4469
2026-01-12 22:08:38.99	124.74	9.34	-50.0	-51.5	14.5	0.00e+00	0	23	0	1780482048	65	4487
2026-01-12 22:08:39.99	124.87	9.29	-50.0	-51.6	14.4	0.00e+00	0	23	0	1783627776	65	4535
2026-01-12 22:08:40.99	125.00	9.23	-49.8	-51.4	14.6	0.00e+00	0	23	0	1786773504	65	4397
2026-01-12 22:08:41.99	125.13	9.17	-50.0	-51.6	14.4	0.00e+00	0	23	0	1789919232	65	4499
2026-01-12 22:08:42.99	125.26	9.11	-50.1	-51.7	14.4	0.00e+00	0	23	0	1793064960	65	4565
2026-01-12 22:08:44.00	125.38	9.05	-50.0	-51.5	14.4	0.00e+00	0	23	0	1796210688	65	4480
2026-01-12 22:08:45.00	125.51	9.00	-50.0	-51.5	14.4	0.00e+00	0	23	0	1799356416	65	4490
2026-01-12 22:08:45.99	125.63	8.94	-50.0	-51.6	14.4	0.00e+00	0	23	0	1802502144	65	4505
2026-01-12 22:08:47.00	125.76	8.88	-49.8	-51.4	14.5	0.00e+00	0	23	0	1805647872	65	4398
2026-01-12 22:08:48.00	125.89	8.82	-49.9	-51.5	14.4	0.00e+00	0	23	0	1808793600	65	4467
2026-01-12 22:08:49.00	126.01	8.77	-49.9	-51.5	14.4	0.00e+00	0	23	0	1811939328	65	4476
2026-01-12 22:08:50.01	126.13	8.71	-50.0	-51.6	14.3	0.00e+00	0	23	0	1815085056	65	4534
2026-01-12 22:08:51.01	126.26	8.65	-50.0	-51.6	14.4	0.00e+00	0	23	0	1818230784	65	4539
2026-01-12 22:08:52.01	126.38	8.59	-50.0	-51.6	14.4	0.00e+00	0	23	0	1821376512	65	4531
2026-01-12 22:08:53.01	126.50	8.54	-50.0	-51.6	14.4	0.00e+00	0	23	0	1824522240	65	4509
2026-01-12 22:08:54.01	126.63	8.48	-50.0	-51.6	14.4	0.00e+00	0	23	0	1827667968	65	4537
2026-01-12 22:08:55.01	126.75	8.42	-50.1	-51.7	14.3	0.00e+00	0	23	0	1830813696	65	4587
2026-01-12 22:08:56.02	126.87	8.36	-50.2	-51.8	14.3	0.00e+00	0	23	0	1833959424	65	4635
2026-01-12 22:08:57.02	126.99	8.31	-50.2	-51.8	14.3	0.00e+00	0	23	0	1837105152	65	4641
2026-01-12 22:08:58.01	127.11	8.25	-50.2	-51.9	14.2	0.00e+00	0	23	0	1840250880	65	4667
2026-01-12 22:08:59.02	127.23	8.19	-50.3	-51.9	14.2	0.00e+00	0	23	0	1843396608	65	4691
2026-01-12 22:09:00.02	127.35	8.13	-50.2	-51.9	14.2	0.00e+00	0	23	0	1846542336	65	4658
2026-01-12 22:09:01.02	127.47	8.08	-50.1	-51.8	14.2	0.00e+00	0	23	0	1849688064	65	4615
2026-01-12 22:09:02.01	127.58	8.02	-50.0	-51.7	14.3	0.00e+00	0	23	0	1852833792	65	4550
2026-01-12 22:09:03.01	127.70	7.96	-50.2	-51.8	14.3	0.00e+00	0	23	0	1855979520	65	4633
2026-01-12 22:09:04.01	127.82	7.91	-50.1	-51.7	14.3	0.00e+00	0	23	0	1859125248	65	4568
2026-01-12 22:09:05.01	127.94	7.85	-50.3	-52.0	14.2	0.00e+00	0	23	0	1862270976	65	4709
2026-01-12 22:09:06.01	128.05	7.79	-50.3	-52.0	14.1	0.00e+00	0	23	0	1864368128	65	4731
2026-01-12 22:09:07.01	128.17	7.73	-50.4	-52.1	14.2	0.00e+00	0	23	0	1867513856	66	4539
2026-01-12 22:09:08.01	128.28	7.68	-50.5	-52.2	14.2	0.00e+00	0	23	0	1870659584	66	4566
2026-01-12 22:09:09.01	128.40	7.62	-50.4	-52.1	14.2	0.00e+00	0	23	0	1873805312	66	4528
2026-01-12 22:09:10.01	128.51	7.56	-50.4	-52.1	14.2	0.00e+00	0	23	0	1876951040	66	4500
2026-01-12 22:09:11.01	128.63	7.51	-50.5	-52.2	14.1	0.00e+00	0	23	0	1880096768	66	4579
2026-01-12 22:09:12.00	128.74	7.45	-50.5	-52.2	14.1	0.00e+00	0	23	0	1883242496	66	4597
2026-01-12 22:09:12.99	128.85	7.39	-50.6	-52.3	14.0	0.00e+00	0	23	0	1886388224	66	4639
2026-01-12 22:09:14.00	128.97	7.34	-50.5	-52.2	14.1	0.00e+00	0	23	0	1889533952	66	4580
2026-01-12 22:09:14.99	129.08	7.28	-50.4	-52.2	14.2	0.00e+00	0	23	0	1892679680	66	4550
2026-01-12 22:09:15.98	129.19	7.22	-50.5	-52.2	14.1	0.00e+00	0	23	0	1895825408	66	4575
2026-01-12 22:09:16.99	129.30	7.17	-50.5	-52.3	14.1	0.00e+00	0	23	0	1898971136	66	4631
2026-01-12 22:09:17.98	129.41	7.11	-50.7	-52.5	14.0	0.00e+00	0	23	0	1902116864	66	4714
2026-01-12 22:09:18.98	129.52	7.05	-50.6	-52.4	14.0	0.00e+00	0	23	0	1905262592	66	4656
2026-01-12 22:09:19.97	129.63	7.00	-50.6	-52.3	14.0	0.00e+00	0	23	0	1908408320	66	4629
2026-01-12 22:09:20.97	129.74	6.94	-50.4	-52.1	14.1	0.00e+00	0	23	0	1911554048	66	4545
2026-01-12 22:09:21.97	129.85	6.89	-50.4	-52.1	14.2	0.00e+00	0	23	0	1914699776	66	4516
2026-01-12 22:09:22.97	129.96	6.83	-50.4	-52.1	14.2	0.00e+00	0	23	0	1917845504	66	4505
2026-01-12 22:09:23.97	130.07	6.77	-50.4	-52.2	14.1	0.00e+00	0	23	0	1920991232	66	4557
2026-01-12 22:09:24.97	130.18	6.72	-50.4	-52.2	14.1	0.00e+00	0	23	0	1924136960	66	4551
2026-01-12 22:09:25.96	130.29	6.66	-50.5	-52.2	14.1	0.00e+00	0	23	0	1927282688	66	4586
2026-01-12 22:09:26.96	130.40	6.60	-50.7	-52.5	13.9	0.00e+00	0	23	0	1930428416	66	4710
2026-01-12 22:09:27.95	130.50	6.55	-50.5	-52.2	14.1	0.00e+00	0	23	0	1933574144	66	4566
2026-01-12 22:09:28.95	130.61	6.49	-50.4	-52.1	14.1	0.00e+00	0	23	0	1936719872	66	4516
2026-01-12 22:09:29.95	130.72	6.44	-50.5	-52.3	14.1	0.00e+00	0	23	0	1939865600	66	4601
2026-01-12 22:09:30.94	130.82	6.38	-50.4	-52.2	14.1	0.00e+00	0	23	0	1943011328	66	4561
2026-01-12 22:09:31.94	130.93	6.32	-50.7	-52.5	13.9	0.00e+00	0	23	0	1946157056	66	4726
2026-01-12 22:09:32.94	131.03	6.27	-50.8	-52.7	13.8	0.00e+00	0	23	0	1949302784	66	4834
2026-01-12 22:09:33.93	131.14	6.21	-50.5	-52.3	14.0	0.00e+00	0	23	0	1952448512	66	4634
2026-01-12 22:09:34.93	131.24	6.16	-50.6	-52.5	13.9	0.00e+00	0	23	0	1955594240	66	4719
2026-01-12 22:09:35.93	131.34	6.10	-50.5	-52.2	14.1	0.00e+00	0	23	0	1958739968	66	4577
2026-01-12 22:09:36.92	131.45	6.04	-50.7	-52.6	13.8	0.00e+00	0	23	0	1961885696	66	4777
2026-01-12 22:09:37.93	131.55	5.99	-50.7	-52.5	13.8	0.00e+00	0	23	0	1965031424	66	4754
2026-01-12 22:09:38.92	131.65	5.93	-50.7	-52.5	13.9	0.00e+00	0	23	0	1968177152	66	4738
2026-01-12 22:09:39.92	131.76	5.88	-50.3	-52.0	14.2	0.00e+00	0	23	0	1971322880	66	4465
2026-01-12 22:09:40.92	131.86	5.82	-50.8	-52.6	13.8	0.00e+00	0	23	0	1973420032	66	4799
2026-01-12 22:09:41.92	131.96	5.77	-51.0	-52.9	13.7	0.00e+00	0	23	0	1976565760	67	4685
2026-01-12 22:09:42.91	132.06	5.71	-50.6	-52.5	14.0	0.00e+00	0	23	0	1979711488	67	4448
2026-01-12 22:09:43.90	132.16	5.65	-50.7	-52.5	14.0	0.00e+00	0	23	0	1982857216	67	4464
2026-01-12 22:09:44.90	132.26	5.60	-50.7	-52.5	14.0	0.00e+00	0	23	0	1986002944	67	4473
2026-01-12 22:09:45.90	132.36	5.54	-50.6	-52.4	14.1	0.00e+00	0	23	0	1989148672	67	4409
2026-01-12 22:09:46.91	132.46	5.49	-50.4	-52.2	14.2	0.00e+00	0	23	0	1992294400	67	4296
2026-01-12 22:09:47.91	132.56	5.43	-50.9	-52.8	13.8	0.00e+00	0	23	0	1995440128	67	4604
2026-01-12 22:09:48.90	132.66	5.38	-50.7	-52.6	13.9	0.00e+00	0	23	0	1998585856	67	4512
2026-01-12 22:09:49.91	132.76	5.32	-50.8	-52.7	13.8	0.00e+00	0	23	0	2001731584	67	4592
2026-01-12 22:09:50.91	132.86	5.27	-50.8	-52.7	13.8	0.00e+00	0	23	0	2004877312	67	4557
2026-01-12 22:09:51.92	132.96	5.21	-50.4	-52.2	14.2	0.00e+00	0	23	0	2008023040	67	4312
2026-01-12 22:09:52.91	133.06	5.16	-50.5	-52.4	14.0	0.00e+00	0	23	0	2011168768	67	4396
2026-01-12 22:09:53.91	133.16	5.10	-50.7	-52.6	13.9	0.00e+00	0	23	0	2014314496	67	4499
2026-01-12 22:09:54.91	133.25	5.05	-50.6	-52.5	13.9	0.00e+00	0	23	0	2017460224	67	4460
2026-01-12 22:09:55.92	133.35	4.99	-56.8	-65.5	5.2	6.24e-02	0	23	0	2020605952	78	10541
