passes_logs/2026/01/12/R3.2S_Murmansk/R3.2S_Murmansk__20260112_070539_SUOMI_NPP_rec.log

#Pass ID: 20260112_070539_SUOMI NPP
#Satellite: SUOMI NPP
#Configuration: NPP
#almurnet v.1.7.20251203
#Start time: 2026-01-12 07:05:41

#Version: 2.2.20231116
#Station: R3.2S_Murmansk
#Location: 33.079688 lon 68.888172 lat
#TLE: 1 37849U 11061A   26011.57971124  .00000103  00000+0  69927-4 0  9996
#TLE: 2 37849  98.7807 313.6578 0002518  69.5076 290.6370 14.19524515736228

#Time	Az	El	Level	Level2	SNR	BER	BlckErr	Temp	State	Recorded	gain1	gain2
2026-01-12 07:05:41.31	95.29	2.14	-57.0	-73.0	3.8	1.49e+00	0	20	0	0	80	22292
2026-01-12 07:05:42.30	95.24	2.20	-57.0	-72.9	3.8	1.49e+00	0	21	104	0	79	23425
2026-01-12 07:05:43.31	95.19	2.26	-57.0	-72.9	3.8	1.49e+00	0	21	104	0	79	23563
2026-01-12 07:05:44.31	95.14	2.32	-57.0	-72.9	3.8	1.49e+00	0	21	104	0	79	23456
2026-01-12 07:05:45.31	95.09	2.38	-57.0	-72.9	3.8	1.49e+00	0	21	104	0	79	23481
2026-01-12 07:05:46.31	95.03	2.44	-57.0	-72.9	3.8	1.49e+00	0	21	104	0	79	23493
2026-01-12 07:05:47.31	94.98	2.50	-57.0	-72.9	3.8	1.49e+00	0	21	104	0	79	23540
2026-01-12 07:05:48.31	94.93	2.56	-57.0	-72.9	3.8	1.49e+00	0	21	104	0	79	23490
2026-01-12 07:05:49.30	94.88	2.62	-57.0	-72.9	3.8	1.49e+00	0	21	104	0	79	23547
2026-01-12 07:05:50.31	94.83	2.68	-57.0	-72.9	3.8	1.49e+00	0	21	104	0	79	23563
2026-01-12 07:05:51.32	94.77	2.74	-57.0	-72.9	3.8	1.49e+00	0	21	104	0	79	23567
2026-01-12 07:05:52.32	94.72	2.80	-57.0	-73.0	3.8	1.49e+00	0	21	104	0	79	23589
2026-01-12 07:05:53.31	94.67	2.86	-57.0	-73.0	3.8	1.49e+00	0	21	104	0	79	23632
2026-01-12 07:05:54.31	94.61	2.92	-57.0	-73.0	3.8	1.49e+00	0	21	104	0	79	23589
2026-01-12 07:05:55.31	94.56	2.98	-57.0	-72.9	3.8	1.49e+00	0	21	104	0	79	23577
2026-01-12 07:05:56.31	94.50	3.05	-57.0	-72.9	3.8	1.49e+00	0	21	104	0	79	23501
2026-01-12 07:05:57.31	94.45	3.11	-57.0	-72.9	3.8	1.49e+00	0	21	104	0	79	23447
2026-01-12 07:05:58.31	94.40	3.17	-57.0	-72.9	3.8	1.49e+00	0	21	104	0	79	23483
2026-01-12 07:05:59.31	94.34	3.23	-57.0	-72.9	3.8	1.49e+00	0	21	104	0	79	23476
2026-01-12 07:06:00.32	94.29	3.29	-56.9	-72.9	3.8	1.49e+00	0	21	104	0	79	23405
2026-01-12 07:06:01.32	94.23	3.36	-57.0	-72.9	3.8	1.49e+00	0	21	104	0	79	23444
2026-01-12 07:06:02.32	94.17	3.42	-57.0	-72.9	3.8	1.49e+00	0	21	104	0	79	23573
2026-01-12 07:06:03.33	94.12	3.48	-57.0	-72.9	3.8	1.49e+00	0	21	104	0	79	23525
2026-01-12 07:06:04.32	94.06	3.54	-57.0	-72.9	3.8	1.49e+00	0	21	104	0	79	23467
2026-01-12 07:06:05.31	94.01	3.60	-57.0	-72.9	3.8	1.49e+00	0	21	104	0	79	23454
2026-01-12 07:06:06.32	93.95	3.67	-57.0	-72.9	3.8	1.49e+00	0	21	104	0	79	23413
2026-01-12 07:06:07.31	93.89	3.73	-57.0	-72.8	3.8	1.49e+00	0	21	104	0	79	23275
2026-01-12 07:06:08.32	93.84	3.79	-57.0	-72.8	3.8	1.49e+00	0	21	104	0	79	23156
2026-01-12 07:06:09.32	93.78	3.86	-57.0	-72.8	3.8	1.49e+00	0	21	104	0	79	23169
2026-01-12 07:06:10.33	93.72	3.92	-57.0	-72.8	3.8	1.49e+00	0	21	104	0	79	23273
2026-01-12 07:06:11.33	93.66	3.98	-57.0	-72.9	3.8	1.49e+00	0	21	104	0	79	23456
2026-01-12 07:06:12.32	93.60	4.05	-57.0	-72.9	3.8	1.49e+00	0	21	104	0	79	23576
2026-01-12 07:06:13.32	93.55	4.11	-57.0	-73.0	3.8	1.49e+00	0	21	104	0	79	23597
2026-01-12 07:06:14.32	93.49	4.17	-57.0	-72.9	3.8	1.49e+00	0	21	104	0	79	23385
2026-01-12 07:06:15.33	93.43	4.24	-56.9	-72.7	3.8	1.49e+00	0	21	104	0	79	22791
2026-01-12 07:06:16.33	93.37	4.30	-56.9	-72.2	3.8	1.49e+00	0	21	104	0	79	21683
2026-01-12 07:06:17.32	93.31	4.36	-56.9	-71.8	3.8	1.49e+00	0	21	104	0	79	20552
2026-01-12 07:06:18.32	93.25	4.43	-56.9	-70.9	3.9	1.49e+00	0	21	104	0	79	18626
2026-01-12 07:06:19.32	93.19	4.49	-56.9	-70.0	3.9	1.48e+00	0	22	104	0	79	16804
2026-01-12 07:06:20.32	93.13	4.56	-56.8	-69.2	4.2	1.39e+00	0	22	0	0	79	15315
2026-01-12 07:06:21.32	93.07	4.62	-56.8	-68.5	4.5	1.19e+00	10	22	0	1048576	79	14163
2026-01-12 07:06:22.32	93.01	4.68	-56.7	-67.5	4.9	8.72e-01	0	21	0	2097152	79	12571
2026-01-12 07:06:23.32	92.95	4.75	-56.6	-66.8	5.2	6.79e-01	0	21	0	4194304	79	11672
2026-01-12 07:06:24.32	92.89	4.81	-56.6	-66.3	5.6	4.67e-01	0	22	0	6291456	79	10938
2026-01-12 07:06:25.33	92.82	4.88	-56.5	-65.7	5.9	3.46e-01	0	21	0	8388608	79	10278
2026-01-12 07:06:26.32	92.76	4.94	-56.5	-65.4	6.1	2.86e-01	0	21	0	10485760	79	9909
2026-01-12 07:06:27.32	92.70	5.01	-56.4	-64.8	6.6	1.87e-01	0	21	0	11534336	79	9216
2026-01-12 07:06:28.33	92.64	5.07	-56.4	-64.5	6.8	1.98e-01	0	22	0	13631488	79	8958
2026-01-12 07:06:29.32	92.57	5.14	-55.8	-61.8	9.4	2.08e-02	0	21	0	15728640	78	6895
2026-01-12 07:06:30.31	92.51	5.20	-55.8	-61.8	9.5	1.50e-03	0	22	0	17825792	77	7349
2026-01-12 07:06:31.30	92.45	5.27	-56.8	-68.7	4.0	1.47e+00	0	22	104	18874368	78	15398
2026-01-12 07:06:32.31	92.38	5.34	-56.6	-64.7	6.5	9.05e-01	0	21	0	19922944	79	9154
2026-01-12 07:06:33.30	92.32	5.40	-54.9	-59.4	11.4	1.17e-04	0	22	0	22020096	76	5888
2026-01-12 07:06:34.29	92.26	5.47	-54.7	-59.0	11.6	2.82e-05	0	21	0	23068672	75	5959
2026-01-12 07:06:35.28	92.19	5.53	-54.6	-58.7	11.9	4.65e-05	0	21	0	25165824	75	5741
2026-01-12 07:06:36.29	92.13	5.60	-54.1	-57.6	12.6	6.80e-06	0	21	0	27262976	74	5392
2026-01-12 07:06:37.29	92.06	5.67	-53.9	-57.2	13.0	0.00e+00	0	22	0	29360128	74	5137
2026-01-12 07:06:38.28	92.00	5.73	-53.8	-57.0	13.1	0.00e+00	0	22	0	30408704	74	5037
2026-01-12 07:06:39.29	91.93	5.80	-53.8	-57.1	13.1	0.00e+00	0	22	0	32505856	74	5061
2026-01-12 07:06:40.29	91.86	5.87	-53.6	-56.7	13.2	0.00e+00	0	22	0	34603008	73	5139
2026-01-12 07:06:41.29	91.80	5.93	-53.7	-56.9	13.0	0.00e+00	0	22	0	36700160	73	5277
2026-01-12 07:06:42.29	91.73	6.00	-53.7	-57.0	13.0	7.00e-07	0	22	0	38797312	73	5281
2026-01-12 07:06:43.29	91.66	6.07	-53.7	-57.0	13.0	0.00e+00	0	22	0	39845888	73	5300
2026-01-12 07:06:44.28	91.60	6.13	-53.9	-57.3	12.8	0.00e+00	0	22	0	41943040	73	5505
2026-01-12 07:06:45.29	91.53	6.20	-53.9	-57.3	12.7	0.00e+00	0	22	0	44040192	73	5515
2026-01-12 07:06:46.29	91.46	6.27	-53.9	-57.3	12.7	0.00e+00	0	22	0	46137344	73	5525
2026-01-12 07:06:47.29	91.39	6.34	-53.7	-56.9	13.1	0.00e+00	0	22	0	48234496	73	5247
2026-01-12 07:06:48.28	91.32	6.40	-53.5	-56.6	13.4	0.00e+00	0	22	0	49283072	73	5061
2026-01-12 07:06:49.28	91.25	6.47	-53.3	-56.3	13.6	0.00e+00	0	22	0	51380224	73	4883
2026-01-12 07:06:50.28	91.18	6.54	-53.5	-56.5	13.4	0.00e+00	0	22	0	53477376	73	5037
2026-01-12 07:06:51.28	91.11	6.61	-53.4	-56.4	13.5	0.00e+00	0	22	0	55574528	73	4981
2026-01-12 07:06:52.29	91.04	6.68	-53.3	-56.1	13.7	0.00e+00	0	22	0	56623104	73	4797
2026-01-12 07:06:53.28	90.97	6.75	-53.3	-56.2	13.6	0.00e+00	0	22	0	58720256	73	4865
2026-01-12 07:06:54.28	90.90	6.81	-53.2	-56.1	13.8	0.00e+00	0	22	0	60817408	73	4771
2026-01-12 07:06:55.27	90.83	6.88	-53.3	-56.2	13.7	0.00e+00	0	22	0	62914560	73	4850
2026-01-12 07:06:56.27	90.76	6.95	-53.4	-56.3	13.6	0.00e+00	0	22	0	65011712	73	4909
2026-01-12 07:06:57.27	90.69	7.02	-53.5	-56.5	13.5	0.00e+00	0	22	0	66060288	73	5000
2026-01-12 07:06:58.27	90.62	7.09	-53.6	-56.6	13.4	0.00e+00	0	22	0	68157440	73	5089
2026-01-12 07:06:59.26	90.54	7.16	-53.4	-56.4	13.5	0.00e+00	0	22	0	70254592	73	4967
2026-01-12 07:07:00.26	90.47	7.23	-53.5	-56.5	13.5	0.00e+00	0	22	0	72351744	73	4989
2026-01-12 07:07:01.27	90.40	7.30	-53.5	-56.5	13.5	0.00e+00	0	22	0	74448896	73	4993
2026-01-12 07:07:02.27	90.32	7.37	-53.5	-56.5	13.5	0.00e+00	0	22	0	75497472	73	5037
2026-01-12 07:07:03.26	90.25	7.44	-53.4	-56.3	13.6	0.00e+00	0	22	0	77594624	73	4886
2026-01-12 07:07:04.26	90.18	7.51	-53.4	-56.3	13.6	0.00e+00	0	22	0	79691776	73	4892
2026-01-12 07:07:05.26	90.10	7.58	-53.4	-56.3	13.6	0.00e+00	0	22	0	81788928	73	4919
2026-01-12 07:07:06.26	90.03	7.65	-53.4	-56.4	13.6	0.00e+00	0	22	0	83886080	73	4937
2026-01-12 07:07:07.26	89.95	7.72	-53.3	-56.1	13.8	0.00e+00	0	22	0	84934656	73	4809
2026-01-12 07:07:08.25	89.87	7.79	-53.3	-56.1	13.8	0.00e+00	0	22	0	87031808	73	4793
2026-01-12 07:07:09.25	89.80	7.86	-53.4	-56.3	13.6	0.00e+00	0	22	0	89128960	73	4905
2026-01-12 07:07:10.25	89.72	7.93	-52.9	-56.0	13.7	0.00e+00	0	22	0	91226112	72	5038
2026-01-12 07:07:11.25	89.64	8.00	-53.0	-56.1	13.7	0.00e+00	0	22	0	92274688	72	5077
2026-01-12 07:07:12.25	89.57	8.07	-53.2	-56.4	13.4	0.00e+00	0	22	0	94371840	72	5279
2026-01-12 07:07:13.24	89.49	8.14	-53.0	-56.1	13.7	0.00e+00	0	22	0	96468992	72	5069
2026-01-12 07:07:14.25	89.41	8.22	-53.0	-56.2	13.6	0.00e+00	0	22	0	98566144	72	5134
2026-01-12 07:07:15.25	89.33	8.29	-53.0	-56.0	13.7	0.00e+00	0	22	0	100663296	72	5041
2026-01-12 07:07:16.25	89.25	8.36	-52.8	-55.8	13.9	0.00e+00	0	22	0	101711872	72	4884
2026-01-12 07:07:17.25	89.17	8.43	-52.6	-55.5	13.9	0.00e+00	0	22	0	103809024	71	5026
2026-01-12 07:07:18.25	89.09	8.50	-52.5	-55.3	14.0	0.00e+00	0	22	0	105906176	71	4921
2026-01-12 07:07:19.24	89.01	8.58	-52.6	-55.4	14.0	0.00e+00	0	22	0	108003328	71	4974
2026-01-12 07:07:20.24	88.93	8.65	-52.6	-55.5	13.9	0.00e+00	0	22	0	109051904	71	5012
2026-01-12 07:07:21.24	88.85	8.72	-52.6	-55.5	13.9	0.00e+00	0	22	0	111149056	71	5010
2026-01-12 07:07:22.23	88.77	8.79	-52.6	-55.5	13.9	0.00e+00	0	22	0	113246208	71	5016
2026-01-12 07:07:23.23	88.69	8.87	-52.5	-55.3	14.0	0.00e+00	0	22	0	115343360	71	4874
2026-01-12 07:07:24.23	88.61	8.94	-52.4	-55.2	14.1	0.00e+00	0	22	0	117440512	71	4845
2026-01-12 07:07:25.23	88.52	9.01	-52.6	-55.5	13.9	0.00e+00	0	22	0	118489088	71	4989
2026-01-12 07:07:26.22	88.44	9.09	-52.7	-55.6	13.9	0.00e+00	0	22	0	120586240	71	5062
2026-01-12 07:07:27.23	88.36	9.16	-52.6	-55.4	14.0	0.00e+00	0	22	0	122683392	71	4978
2026-01-12 07:07:28.23	88.27	9.23	-52.6	-55.4	14.0	0.00e+00	0	22	0	124780544	71	4973
2026-01-12 07:07:29.22	88.19	9.31	-52.4	-55.2	14.2	0.00e+00	0	22	0	126877696	71	4850
2026-01-12 07:07:30.22	88.10	9.38	-52.4	-55.2	14.2	0.00e+00	0	22	0	127926272	71	4821
2026-01-12 07:07:31.22	88.02	9.45	-52.1	-54.7	14.4	0.00e+00	0	22	0	130023424	70	4858
2026-01-12 07:07:32.22	87.93	9.53	-52.2	-54.8	14.2	0.00e+00	0	22	0	132120576	70	4915
2026-01-12 07:07:33.22	87.84	9.60	-52.4	-55.2	14.0	0.00e+00	0	22	0	134217728	70	5120
2026-01-12 07:07:34.22	87.76	9.68	-52.1	-54.8	14.2	0.00e+00	0	22	0	136314880	70	4919
2026-01-12 07:07:35.21	87.67	9.75	-52.3	-55.1	14.1	0.00e+00	0	22	0	137363456	70	5086
2026-01-12 07:07:36.21	87.58	9.83	-52.3	-55.1	14.1	0.00e+00	0	22	0	139460608	70	5081
2026-01-12 07:07:37.21	87.49	9.90	-52.4	-55.2	14.0	0.00e+00	0	22	0	141557760	70	5145
2026-01-12 07:07:38.21	87.41	9.98	-52.2	-55.0	14.2	0.00e+00	0	22	0	143654912	70	4988
2026-01-12 07:07:39.21	87.32	10.05	-52.2	-54.9	14.2	0.00e+00	0	22	0	144703488	70	4944
2026-01-12 07:07:40.21	87.23	10.13	-52.3	-55.0	14.1	0.00e+00	0	22	0	146800640	70	5040
2026-01-12 07:07:41.21	87.14	10.21	-52.2	-55.0	14.2	0.00e+00	0	22	0	148897792	70	4992
2026-01-12 07:07:42.21	87.04	10.28	-52.1	-54.8	14.3	0.00e+00	0	22	0	150994944	70	4875
2026-01-12 07:07:43.20	86.95	10.36	-52.1	-54.8	14.3	0.00e+00	0	22	0	153092096	70	4881
2026-01-12 07:07:44.20	86.86	10.43	-52.4	-55.1	14.1	0.00e+00	0	22	0	154140672	70	5083
2026-01-12 07:07:45.20	86.77	10.51	-52.3	-55.0	14.2	0.00e+00	0	22	0	156237824	70	5009
2026-01-12 07:07:46.19	86.68	10.59	-52.4	-55.3	14.1	0.00e+00	0	22	0	158334976	70	5162
2026-01-12 07:07:47.19	86.59	10.66	-52.3	-55.1	14.1	0.00e+00	0	22	0	160432128	70	5042
2026-01-12 07:07:48.19	86.49	10.74	-52.2	-54.9	14.3	0.00e+00	0	22	0	161480704	70	4940
2026-01-12 07:07:49.19	86.40	10.82	-52.3	-54.9	14.2	0.00e+00	0	22	0	163577856	70	4954
2026-01-12 07:07:50.19	86.30	10.89	-52.3	-55.0	14.2	0.00e+00	0	22	0	165675008	70	4993
2026-01-12 07:07:51.19	86.21	10.97	-52.3	-55.0	14.1	0.00e+00	0	22	0	167772160	70	4998
2026-01-12 07:07:52.19	86.11	11.05	-52.3	-54.9	14.2	0.00e+00	0	22	0	169869312	70	4971
2026-01-12 07:07:53.19	86.02	11.13	-52.1	-54.5	14.5	0.00e+00	0	22	0	170917888	70	4758
2026-01-12 07:07:54.18	85.92	11.20	-52.1	-54.7	14.4	0.00e+00	0	22	0	173015040	70	4834
2026-01-12 07:07:55.19	85.82	11.28	-52.0	-54.4	14.5	0.00e+00	0	22	0	175112192	70	4681
2026-01-12 07:07:56.19	85.72	11.36	-52.0	-54.5	14.5	0.00e+00	0	22	0	177209344	70	4724
2026-01-12 07:07:57.19	85.62	11.44	-52.1	-54.6	14.4	0.00e+00	0	22	0	179306496	70	4800
2026-01-12 07:07:58.19	85.53	11.52	-52.0	-54.5	14.5	0.00e+00	0	22	0	180355072	70	4740
2026-01-12 07:07:59.19	85.43	11.60	-52.0	-54.4	14.5	0.00e+00	0	22	0	182452224	70	4665
2026-01-12 07:08:00.19	85.33	11.68	-52.0	-54.5	14.5	0.00e+00	0	22	0	184549376	70	4731
2026-01-12 07:08:01.19	85.23	11.75	-51.9	-54.3	14.6	0.00e+00	0	22	0	186646528	70	4640
2026-01-12 07:08:02.18	85.13	11.83	-52.0	-54.4	14.5	0.00e+00	0	22	0	187695104	70	4693
2026-01-12 07:08:03.18	85.02	11.91	-52.0	-54.4	14.5	0.00e+00	0	22	0	189792256	70	4684
2026-01-12 07:08:04.18	84.92	11.99	-52.1	-54.6	14.3	0.00e+00	0	22	0	191889408	70	4785
2026-01-12 07:08:05.18	84.82	12.07	-52.1	-54.6	14.4	0.00e+00	0	22	0	193986560	70	4801
2026-01-12 07:08:06.18	84.71	12.15	-52.1	-54.6	14.4	0.00e+00	0	22	0	196083712	70	4800
2026-01-12 07:08:07.18	84.61	12.23	-52.2	-54.8	14.3	0.00e+00	0	22	0	197132288	70	4872
2026-01-12 07:08:08.18	84.51	12.31	-52.2	-54.8	14.3	0.00e+00	0	22	0	199229440	70	4915
2026-01-12 07:08:09.17	84.40	12.39	-52.2	-54.9	14.2	0.00e+00	0	22	0	201326592	70	4936
2026-01-12 07:08:10.17	84.30	12.47	-52.2	-54.8	14.3	0.00e+00	0	22	0	203423744	70	4874
2026-01-12 07:08:11.16	84.19	12.55	-52.1	-54.6	14.4	0.00e+00	0	23	0	205520896	70	4793
2026-01-12 07:08:12.15	84.08	12.63	-52.1	-54.7	14.4	0.00e+00	0	22	0	206569472	70	4837
2026-01-12 07:08:13.15	83.98	12.71	-52.0	-54.6	14.5	0.00e+00	0	22	0	208666624	70	4769
2026-01-12 07:08:14.15	83.87	12.80	-52.1	-54.7	14.4	0.00e+00	0	22	0	210763776	70	4859
2026-01-12 07:08:15.15	83.76	12.88	-52.2	-54.8	14.3	0.00e+00	0	22	0	212860928	70	4903
2026-01-12 07:08:16.15	83.65	12.96	-52.3	-55.0	14.1	0.00e+00	0	22	0	213909504	70	5034
2026-01-12 07:08:17.15	83.54	13.04	-52.2	-54.9	14.3	0.00e+00	0	22	0	216006656	70	4963
2026-01-12 07:08:18.15	83.43	13.12	-52.3	-55.1	14.2	0.00e+00	0	22	0	218103808	70	5088
2026-01-12 07:08:19.15	83.32	13.20	-52.3	-55.1	14.1	0.00e+00	0	22	0	220200960	70	5080
2026-01-12 07:08:20.15	83.21	13.29	-52.2	-54.8	14.3	0.00e+00	0	22	0	222298112	70	4915
2026-01-12 07:08:21.14	83.09	13.37	-52.0	-54.6	14.5	0.00e+00	0	22	0	223346688	70	4796
2026-01-12 07:08:22.14	82.98	13.45	-52.0	-54.6	14.4	0.00e+00	0	22	0	225443840	70	4813
2026-01-12 07:08:23.13	82.87	13.53	-51.9	-54.4	14.6	0.00e+00	0	22	0	227540992	70	4692
2026-01-12 07:08:24.13	82.75	13.62	-51.9	-54.4	14.4	0.00e+00	0	22	0	229638144	69	4966
2026-01-12 07:08:25.14	82.64	13.70	-51.9	-54.4	14.4	0.00e+00	0	22	0	231735296	69	4950
2026-01-12 07:08:26.14	82.52	13.78	-52.1	-54.8	14.2	0.00e+00	0	22	0	232783872	69	5189
2026-01-12 07:08:27.14	82.41	13.87	-52.0	-54.6	14.3	0.00e+00	0	23	0	234881024	69	5074
2026-01-12 07:08:28.14	82.29	13.95	-52.2	-54.9	14.1	0.00e+00	0	22	0	236978176	69	5244
2026-01-12 07:08:29.14	82.17	14.03	-52.0	-54.6	14.4	0.00e+00	0	22	0	239075328	69	5043
2026-01-12 07:08:30.13	82.05	14.12	-52.1	-54.6	14.3	0.00e+00	0	22	0	240123904	69	5059
2026-01-12 07:08:31.13	81.93	14.20	-52.0	-54.4	14.4	0.00e+00	0	22	0	242221056	69	4977
2026-01-12 07:08:32.13	81.81	14.29	-51.9	-54.3	14.5	0.00e+00	0	22	0	244318208	69	4918
2026-01-12 07:08:33.13	81.69	14.37	-51.9	-54.3	14.5	0.00e+00	0	22	0	246415360	69	4872
2026-01-12 07:08:34.13	81.57	14.45	-51.7	-53.9	14.8	0.00e+00	0	23	0	248512512	69	4704
2026-01-12 07:08:35.12	81.45	14.54	-51.7	-54.0	14.7	0.00e+00	0	22	0	249561088	69	4727
2026-01-12 07:08:36.11	81.33	14.62	-51.8	-54.2	14.5	0.00e+00	0	22	0	251658240	69	4859
2026-01-12 07:08:37.11	81.20	14.71	-51.6	-53.9	14.8	0.00e+00	0	23	0	253755392	69	4657
2026-01-12 07:08:38.11	81.08	14.79	-51.8	-54.2	14.5	0.00e+00	0	22	0	255852544	69	4858
2026-01-12 07:08:39.10	80.96	14.88	-51.8	-54.2	14.6	0.00e+00	0	22	0	256901120	69	4847
2026-01-12 07:08:40.10	80.83	14.96	-51.8	-54.2	14.6	0.00e+00	0	22	0	258998272	69	4851
2026-01-12 07:08:41.10	80.70	15.05	-51.9	-54.3	14.5	0.00e+00	0	22	0	261095424	69	4877
2026-01-12 07:08:42.10	80.58	15.13	-51.9	-54.4	14.4	0.00e+00	0	22	0	263192576	69	4927
2026-01-12 07:08:43.09	80.45	15.22	-52.1	-54.6	14.3	0.00e+00	0	22	0	265289728	69	5051
2026-01-12 07:08:44.09	80.32	15.31	-52.1	-54.7	14.3	0.00e+00	0	22	0	266338304	69	5117
2026-01-12 07:08:45.09	80.19	15.39	-51.9	-54.2	14.5	0.00e+00	0	23	0	268435456	69	4857
2026-01-12 07:08:46.10	80.06	15.48	-52.2	-54.8	14.2	0.00e+00	0	22	0	270532608	69	5168
2026-01-12 07:08:47.09	79.93	15.57	-52.5	-55.2	14.1	0.00e+00	0	23	0	272629760	70	5123
2026-01-12 07:08:48.10	79.80	15.65	-52.4	-55.1	14.2	0.00e+00	0	23	0	274726912	70	5061
2026-01-12 07:08:49.10	79.67	15.74	-52.4	-55.1	14.2	0.00e+00	0	22	0	275775488	70	5056
2026-01-12 07:08:50.10	79.53	15.83	-52.3	-54.9	14.3	0.00e+00	0	22	0	277872640	70	4959
2026-01-12 07:08:51.10	79.40	15.92	-52.2	-54.8	14.4	0.00e+00	0	22	0	279969792	70	4896
2026-01-12 07:08:52.09	79.26	16.00	-52.3	-54.9	14.3	0.00e+00	0	22	0	282066944	70	4938
2026-01-12 07:08:53.09	79.13	16.09	-51.9	-54.3	14.7	0.00e+00	0	22	0	284164096	70	4644
2026-01-12 07:08:54.09	78.99	16.18	-52.3	-54.9	14.3	0.00e+00	0	23	0	285212672	70	4982
2026-01-12 07:08:55.09	78.85	16.26	-52.4	-55.1	14.2	0.00e+00	0	22	0	287309824	70	5045
2026-01-12 07:08:56.09	78.72	16.35	-52.3	-54.9	14.3	0.00e+00	0	22	0	289406976	70	4978
2026-01-12 07:08:57.09	78.58	16.44	-52.4	-55.0	14.2	0.00e+00	0	22	0	291504128	70	5013
2026-01-12 07:08:58.08	78.44	16.53	-52.3	-54.9	14.3	0.00e+00	0	22	0	292552704	70	4947
2026-01-12 07:08:59.08	78.30	16.62	-52.3	-54.9	14.3	0.00e+00	0	22	0	294649856	70	4941
2026-01-12 07:09:00.08	78.16	16.71	-52.0	-54.5	14.5	0.00e+00	0	22	0	296747008	70	4725
2026-01-12 07:09:01.08	78.01	16.79	-51.8	-54.2	14.8	0.00e+00	0	22	0	298844160	70	4549
2026-01-12 07:09:02.08	77.87	16.88	-52.1	-54.6	14.5	0.00e+00	0	23	0	300941312	70	4784
2026-01-12 07:09:03.07	77.73	16.97	-51.9	-54.3	14.7	0.00e+00	0	22	0	301989888	70	4632
2026-01-12 07:09:04.08	77.58	17.06	-51.7	-54.2	14.6	0.00e+00	0	22	0	304087040	69	4820
2026-01-12 07:09:05.07	77.44	17.15	-51.8	-54.2	14.6	0.00e+00	0	22	0	306184192	69	4837
2026-01-12 07:09:06.07	77.29	17.24	-51.7	-54.1	14.6	0.00e+00	0	22	0	308281344	69	4784
2026-01-12 07:09:07.07	77.14	17.33	-51.5	-53.9	14.8	0.00e+00	0	23	0	310378496	69	4653
2026-01-12 07:09:08.08	76.99	17.42	-51.6	-54.0	14.7	0.00e+00	0	22	0	311427072	69	4719
2026-01-12 07:09:09.07	76.85	17.51	-51.2	-53.4	15.1	0.00e+00	0	22	0	313524224	69	4392
2026-01-12 07:09:10.08	76.69	17.60	-51.3	-53.5	15.0	0.00e+00	0	23	0	315621376	69	4482
2026-01-12 07:09:11.08	76.54	17.69	-51.1	-53.2	15.0	0.00e+00	0	22	0	317718528	68	4592
2026-01-12 07:09:12.07	76.39	17.78	-51.2	-53.3	15.0	0.00e+00	0	22	0	318767104	68	4620
2026-01-12 07:09:13.07	76.24	17.87	-51.1	-53.2	15.0	0.00e+00	0	22	0	320864256	68	4583
2026-01-12 07:09:14.07	76.08	17.96	-51.1	-53.2	15.0	0.00e+00	0	22	0	322961408	68	4566
2026-01-12 07:09:15.07	75.93	18.05	-51.2	-53.3	14.9	0.00e+00	0	22	0	325058560	68	4612
2026-01-12 07:09:16.06	75.77	18.14	-51.4	-53.6	14.8	0.00e+00	0	23	0	327155712	68	4779
2026-01-12 07:09:17.07	75.62	18.23	-51.2	-53.2	15.0	0.00e+00	0	22	0	328204288	68	4597
2026-01-12 07:09:18.07	75.46	18.32	-51.2	-53.3	14.9	0.00e+00	0	22	0	330301440	68	4651
2026-01-12 07:09:19.07	75.30	18.41	-51.3	-53.4	14.9	0.00e+00	0	23	0	332398592	68	4672
2026-01-12 07:09:20.07	75.14	18.50	-51.4	-53.6	14.7	0.00e+00	0	22	0	334495744	68	4808
2026-01-12 07:09:21.07	74.98	18.60	-51.5	-53.7	14.7	0.00e+00	0	23	0	336592896	68	4866
2026-01-12 07:09:22.07	74.82	18.69	-51.5	-53.7	14.7	0.00e+00	0	22	0	337641472	68	4869
2026-01-12 07:09:23.06	74.66	18.78	-51.8	-54.2	14.5	0.00e+00	0	22	0	339738624	68	5104
2026-01-12 07:09:24.06	74.49	18.87	-51.6	-54.0	14.6	0.00e+00	0	23	0	341835776	68	4992
2026-01-12 07:09:25.07	74.33	18.96	-51.5	-53.7	14.7	0.00e+00	0	22	0	343932928	68	4861
2026-01-12 07:09:26.07	74.16	19.05	-51.5	-53.8	14.6	0.00e+00	0	22	0	346030080	68	4899
2026-01-12 07:09:27.08	73.99	19.14	-51.5	-53.7	14.7	0.00e+00	0	23	0	347078656	68	4862
2026-01-12 07:09:28.07	73.83	19.24	-51.5	-53.9	14.6	0.00e+00	0	23	0	349175808	68	4931
2026-01-12 07:09:29.07	73.66	19.33	-51.3	-53.6	14.7	0.00e+00	0	23	0	351272960	68	4770
2026-01-12 07:09:30.07	73.49	19.42	-51.2	-53.5	14.8	0.00e+00	0	22	0	353370112	68	4709
2026-01-12 07:09:31.07	73.32	19.51	-51.3	-53.6	14.8	0.00e+00	0	22	0	354418688	68	4761
2026-01-12 07:09:32.07	73.14	19.60	-51.1	-53.3	15.0	0.00e+00	0	23	0	356515840	68	4638
2026-01-12 07:09:33.07	72.97	19.70	-51.0	-53.1	15.1	0.00e+00	0	22	0	358612992	68	4524
2026-01-12 07:09:34.07	72.80	19.79	-50.8	-52.8	15.2	0.00e+00	0	22	0	360710144	68	4390
2026-01-12 07:09:35.07	72.62	19.88	-50.9	-53.0	15.1	0.00e+00	0	23	0	362807296	68	4464
2026-01-12 07:09:36.06	72.45	19.97	-50.9	-52.9	15.1	0.00e+00	0	23	0	363855872	68	4424
2026-01-12 07:09:37.05	72.27	20.06	-50.9	-53.0	15.1	0.00e+00	0	22	0	365953024	68	4488
2026-01-12 07:09:38.04	72.10	20.15	-50.9	-53.1	15.1	0.00e+00	0	22	0	368050176	68	4499
2026-01-12 07:09:39.04	71.92	20.25	-51.0	-53.1	15.0	0.00e+00	0	22	0	370147328	68	4528
2026-01-12 07:09:40.02	71.74	20.34	-51.1	-53.3	15.0	0.00e+00	0	23	0	371195904	68	4631
2026-01-12 07:09:41.02	71.56	20.43	-51.1	-53.3	15.0	0.00e+00	0	23	0	373293056	68	4616
2026-01-12 07:09:42.01	71.38	20.52	-51.4	-53.6	14.8	0.00e+00	0	22	0	375390208	68	4798
2026-01-12 07:09:43.01	71.19	20.61	-51.6	-54.0	14.6	0.00e+00	0	22	0	377487360	68	5004
2026-01-12 07:09:44.01	71.01	20.71	-51.7	-54.1	14.5	0.00e+00	0	22	0	379584512	68	5089
2026-01-12 07:09:45.00	70.82	20.80	-51.9	-54.3	14.4	0.00e+00	0	22	0	380633088	68	5185
2026-01-12 07:09:45.99	70.64	20.89	-51.8	-54.2	14.5	0.00e+00	0	22	0	382730240	68	5117
2026-01-12 07:09:46.99	70.45	20.98	-51.6	-53.9	14.6	0.00e+00	0	22	0	384827392	68	4958
2026-01-12 07:09:47.98	70.26	21.08	-51.7	-54.0	14.6	0.00e+00	0	22	0	386924544	68	5027
2026-01-12 07:09:48.97	70.08	21.17	-51.7	-54.0	14.6	0.00e+00	0	22	0	387973120	68	5000
2026-01-12 07:09:49.97	69.88	21.26	-51.7	-53.9	14.6	0.00e+00	0	22	0	390070272	68	4979
2026-01-12 07:09:50.96	69.69	21.35	-51.5	-53.7	14.7	0.00e+00	0	22	0	392167424	68	4833
2026-01-12 07:09:51.96	69.50	21.44	-51.4	-53.6	14.8	0.00e+00	0	23	0	394264576	68	4782
2026-01-12 07:09:52.95	69.31	21.54	-51.4	-53.5	14.8	0.00e+00	0	23	0	396361728	68	4739
2026-01-12 07:09:53.94	69.11	21.63	-51.2	-53.3	15.0	0.00e+00	0	23	0	397410304	68	4610
2026-01-12 07:09:54.93	68.92	21.72	-51.4	-53.6	14.8	0.00e+00	0	23	0	399507456	68	4783
2026-01-12 07:09:55.93	68.72	21.81	-51.5	-53.7	14.7	0.00e+00	0	23	0	401604608	68	4852
2026-01-12 07:09:56.93	68.52	21.90	-51.6	-53.8	14.7	0.00e+00	0	23	0	403701760	68	4897
2026-01-12 07:09:57.91	68.32	22.00	-51.8	-54.1	14.5	0.00e+00	0	23	0	404750336	68	5093
2026-01-12 07:09:58.90	68.12	22.09	-51.7	-54.0	14.6	0.00e+00	0	22	0	406847488	68	4999
2026-01-12 07:09:59.89	67.92	22.18	-51.9	-54.3	14.5	0.00e+00	0	23	0	408944640	69	4898
2026-01-12 07:10:00.88	67.71	22.27	-52.0	-54.3	14.6	0.00e+00	0	23	0	411041792	69	4904
2026-01-12 07:10:01.86	67.51	22.36	-51.8	-54.0	14.7	0.00e+00	0	23	0	413138944	69	4747
2026-01-12 07:10:02.85	67.31	22.45	-51.7	-54.0	14.7	0.00e+00	0	23	0	414187520	69	4715
2026-01-12 07:10:03.85	67.10	22.54	-51.6	-53.7	14.9	0.00e+00	0	23	0	416284672	69	4585
2026-01-12 07:10:04.85	66.89	22.64	-51.7	-53.9	14.8	0.00e+00	0	22	0	418381824	69	4698
2026-01-12 07:10:05.85	66.68	22.73	-51.6	-53.7	14.9	0.00e+00	0	22	0	420478976	69	4595
2026-01-12 07:10:06.84	66.47	22.82	-51.7	-53.9	14.8	0.00e+00	0	22	0	421527552	69	4675
2026-01-12 07:10:07.84	66.25	22.91	-51.9	-54.2	14.6	0.00e+00	0	22	0	423624704	69	4857
2026-01-12 07:10:08.85	66.04	23.00	-52.1	-54.4	14.5	0.00e+00	0	22	0	425721856	69	4973
2026-01-12 07:10:09.84	65.82	23.09	-52.0	-54.4	14.5	0.00e+00	0	22	0	427819008	69	4938
2026-01-12 07:10:10.83	65.61	23.18	-52.0	-54.2	14.6	0.00e+00	0	22	0	429916160	69	4863
2026-01-12 07:10:11.83	65.39	23.28	-52.0	-54.2	14.6	0.00e+00	0	23	0	430964736	69	4857
2026-01-12 07:10:12.83	65.17	23.37	-51.8	-54.0	14.7	0.00e+00	0	22	0	433061888	69	4754
2026-01-12 07:10:13.83	64.95	23.46	-51.6	-53.6	14.9	0.00e+00	0	23	0	435159040	69	4533
2026-01-12 07:10:14.83	64.73	23.55	-51.5	-53.6	15.0	0.00e+00	0	22	0	437256192	69	4496
2026-01-12 07:10:15.83	64.50	23.64	-51.0	-52.9	15.2	0.00e+00	0	23	0	438304768	68	4417
2026-01-12 07:10:16.83	64.28	23.73	-50.9	-52.9	15.2	0.00e+00	0	22	0	440401920	68	4401
2026-01-12 07:10:17.82	64.05	23.82	-50.8	-52.6	15.3	0.00e+00	0	22	0	442499072	68	4290
2026-01-12 07:10:18.82	63.83	23.91	-50.4	-52.2	15.4	0.00e+00	0	22	0	444596224	67	4313
2026-01-12 07:10:19.81	63.60	24.00	-50.1	-51.9	15.3	0.00e+00	0	22	0	446693376	66	4425
2026-01-12 07:10:20.80	63.37	24.09	-50.0	-51.8	15.4	0.00e+00	0	23	0	447741952	66	4355
2026-01-12 07:10:21.80	63.14	24.18	-50.1	-51.9	15.3	0.00e+00	0	23	0	449839104	66	4393
2026-01-12 07:10:22.78	62.91	24.27	-50.0	-51.8	15.4	0.00e+00	0	23	0	451936256	66	4358
2026-01-12 07:10:23.77	62.68	24.35	-50.0	-51.8	15.4	0.00e+00	0	23	0	454033408	66	4344
2026-01-12 07:10:24.77	62.44	24.44	-50.0	-51.8	15.4	0.00e+00	0	23	0	455081984	66	4361
2026-01-12 07:10:25.76	62.21	24.53	-50.1	-51.9	15.4	0.00e+00	0	23	0	457179136	66	4416
2026-01-12 07:10:26.75	61.97	24.62	-50.3	-52.2	15.2	0.00e+00	0	23	0	459276288	66	4582
2026-01-12 07:10:27.74	61.73	24.71	-50.2	-52.2	15.2	0.00e+00	0	22	0	461373440	66	4548
2026-01-12 07:10:28.73	61.50	24.79	-50.3	-52.1	15.2	0.00e+00	0	23	0	463470592	66	4535
2026-01-12 07:10:29.72	61.26	24.88	-50.3	-52.2	15.1	0.00e+00	0	23	0	464519168	66	4580
2026-01-12 07:10:30.72	61.01	24.97	-50.4	-52.4	15.0	0.00e+00	0	22	0	466616320	66	4660
2026-01-12 07:10:31.71	60.77	25.05	-50.6	-52.6	14.9	0.00e+00	0	22	0	468713472	66	4790
2026-01-12 07:10:32.70	60.53	25.14	-50.6	-52.6	14.9	0.00e+00	0	23	0	470810624	66	4799
2026-01-12 07:10:33.69	60.28	25.23	-50.7	-52.7	14.7	0.00e+00	0	23	0	471859200	66	4868
2026-01-12 07:10:34.69	60.03	25.31	-50.6	-52.6	14.9	0.00e+00	0	23	0	473956352	66	4783
2026-01-12 07:10:35.68	59.78	25.40	-50.7	-52.7	14.9	0.00e+00	0	22	0	476053504	66	4854
2026-01-12 07:10:36.67	59.53	25.48	-50.5	-52.5	15.0	0.00e+00	0	22	0	478150656	66	4751
2026-01-12 07:10:37.67	59.28	25.57	-50.4	-52.3	15.1	0.00e+00	0	23	0	480247808	66	4628
2026-01-12 07:10:38.83	58.99	25.67	-50.3	-52.2	15.2	0.00e+00	0	22	0	481296384	66	4566
2026-01-12 07:10:39.67	58.77	25.74	-50.5	-52.4	15.1	0.00e+00	0	23	0	483393536	66	4666
2026-01-12 07:10:40.80	58.48	25.83	-50.7	-52.6	14.9	0.00e+00	0	22	0	485490688	66	4810
2026-01-12 07:10:41.65	58.26	25.90	-50.9	-52.9	14.7	0.00e+00	0	22	0	486539264	66	4975
2026-01-12 07:10:42.78	57.96	26.00	-50.9	-53.0	14.9	0.00e+00	0	23	0	488636416	67	4749
2026-01-12 07:10:43.64	57.74	26.07	-50.9	-53.0	14.9	0.00e+00	0	22	0	490733568	67	4707
2026-01-12 07:10:44.78	57.44	26.16	-50.7	-52.7	15.0	0.00e+00	0	22	0	492830720	67	4561
2026-01-12 07:10:45.64	57.21	26.24	-50.9	-52.9	14.9	0.00e+00	0	23	0	493879296	67	4684
2026-01-12 07:10:46.76	56.92	26.33	-50.8	-52.8	15.0	0.00e+00	0	23	0	495976448	67	4643
2026-01-12 07:10:47.61	56.69	26.40	-50.8	-52.8	14.9	0.00e+00	0	23	0	498073600	67	4645
2026-01-12 07:10:48.74	56.38	26.49	-50.7	-52.6	15.1	0.00e+00	0	22	0	500170752	67	4500
2026-01-12 07:10:49.59	56.16	26.56	-50.4	-52.2	15.3	0.00e+00	0	23	0	502267904	67	4328
2026-01-12 07:10:50.72	55.85	26.65	-50.1	-51.8	15.3	0.00e+00	0	23	0	504365056	66	4374
2026-01-12 07:10:51.58	55.61	26.72	-50.3	-52.2	15.1	0.00e+00	0	23	0	505413632	66	4564
2026-01-12 07:10:52.70	55.31	26.80	-50.5	-52.4	15.0	0.00e+00	0	22	0	507510784	66	4676
2026-01-12 07:10:53.55	55.07	26.87	-50.7	-52.6	14.9	0.00e+00	0	23	0	509607936	66	4793
2026-01-12 07:10:54.68	54.76	26.96	-51.1	-53.2	14.8	0.00e+00	0	23	0	511705088	67	4852
2026-01-12 07:10:55.53	54.52	27.02	-51.3	-53.5	14.6	0.00e+00	0	22	0	512753664	67	5014
2026-01-12 07:10:56.67	54.21	27.11	-51.7	-54.0	14.6	0.00e+00	0	23	0	514850816	68	4998
2026-01-12 07:10:57.51	53.97	27.18	-51.6	-53.7	14.7	0.00e+00	0	23	0	516947968	68	4866
2026-01-12 07:10:58.65	53.65	27.26	-51.6	-53.7	14.8	0.00e+00	0	23	0	519045120	68	4859
2026-01-12 07:10:59.50	53.41	27.33	-51.1	-53.0	15.1	0.00e+00	0	23	0	520093696	68	4488
2026-01-12 07:11:00.64	53.08	27.41	-51.0	-52.9	15.2	0.00e+00	0	22	0	522190848	68	4431
2026-01-12 07:11:01.50	52.84	27.48	-51.2	-53.2	15.0	0.00e+00	0	23	0	524288000	68	4554
2026-01-12 07:11:02.65	52.51	27.56	-51.4	-53.5	14.8	0.00e+00	0	23	0	526385152	68	4745
2026-01-12 07:11:03.50	52.26	27.62	-51.6	-53.7	14.7	0.00e+00	0	23	0	527433728	68	4839
2026-01-12 07:11:04.64	51.93	27.71	-51.6	-53.8	14.7	0.00e+00	0	23	0	529530880	68	4895
2026-01-12 07:11:05.48	51.69	27.77	-51.6	-53.8	14.7	0.00e+00	0	23	0	531628032	68	4883
2026-01-12 07:11:06.63	51.35	27.85	-51.3	-53.5	14.8	0.00e+00	0	23	0	533725184	68	4713
2026-01-12 07:11:07.48	51.10	27.91	-51.4	-53.6	14.7	0.00e+00	0	23	0	535822336	68	4798
2026-01-12 07:11:08.62	50.76	27.99	-51.4	-53.6	14.8	0.00e+00	0	23	0	537919488	68	4771
2026-01-12 07:11:09.47	50.51	28.05	-51.3	-53.5	14.9	0.00e+00	0	23	0	538968064	68	4717
2026-01-12 07:11:10.62	50.17	28.13	-51.1	-53.2	15.0	0.00e+00	0	23	0	541065216	68	4563
2026-01-12 07:11:11.47	49.91	28.18	-51.2	-53.3	14.9	0.00e+00	0	23	0	543162368	68	4638
2026-01-12 07:11:12.62	49.57	28.26	-51.6	-53.9	14.6	0.00e+00	0	23	0	545259520	68	4981
2026-01-12 07:11:13.48	49.31	28.32	-51.8	-54.2	14.5	0.00e+00	0	23	0	546308096	68	5106
2026-01-12 07:11:14.62	48.96	28.39	-51.8	-54.2	14.6	0.00e+00	0	22	0	548405248	69	4831
2026-01-12 07:11:15.48	48.70	28.45	-51.8	-54.1	14.7	0.00e+00	0	23	0	550502400	69	4798
2026-01-12 07:11:16.61	48.36	28.52	-51.7	-54.0	14.8	0.00e+00	0	22	0	552599552	69	4712
2026-01-12 07:11:17.47	48.09	28.58	-51.5	-53.6	14.9	0.00e+00	0	23	0	553648128	69	4533
2026-01-12 07:11:18.61	47.74	28.65	-51.5	-53.7	14.9	0.00e+00	0	23	0	555745280	69	4557
2026-01-12 07:11:19.47	47.48	28.70	-51.7	-53.9	14.7	0.00e+00	0	22	0	557842432	69	4689
2026-01-12 07:11:20.60	47.13	28.77	-51.3	-53.3	15.1	0.00e+00	0	23	0	559939584	69	4388
2026-01-12 07:11:21.46	46.86	28.82	-51.4	-53.5	15.0	0.00e+00	0	23	0	562036736	69	4448
2026-01-12 07:11:22.59	46.51	28.89	-51.2	-53.3	14.8	0.00e+00	0	23	0	564133888	68	4646
2026-01-12 07:11:23.45	46.24	28.94	-51.2	-53.2	14.9	0.00e+00	0	22	0	565182464	68	4598
2026-01-12 07:11:24.59	45.88	29.00	-51.1	-53.1	15.1	0.00e+00	0	23	0	567279616	68	4506
2026-01-12 07:11:25.44	45.61	29.05	-51.0	-53.0	15.1	0.00e+00	0	22	0	569376768	68	4465
2026-01-12 07:11:26.58	45.25	29.12	-50.6	-52.5	15.1	0.00e+00	0	23	0	571473920	67	4473
2026-01-12 07:11:27.42	44.98	29.16	-50.6	-52.6	15.1	0.00e+00	0	23	0	572522496	67	4517
2026-01-12 07:11:28.56	44.62	29.22	-51.2	-53.3	14.7	0.00e+00	0	23	0	574619648	67	4921
2026-01-12 07:11:29.42	44.34	29.27	-51.6	-53.9	14.5	0.00e+00	0	23	0	576716800	68	4977
2026-01-12 07:11:30.55	43.98	29.33	-51.2	-53.3	15.0	0.00e+00	0	23	0	578813952	68	4617
2026-01-12 07:11:31.41	43.70	29.37	-51.0	-53.0	15.1	0.00e+00	0	23	0	579862528	68	4473
2026-01-12 07:11:32.56	43.33	29.43	-50.5	-52.3	15.3	0.00e+00	0	23	0	581959680	67	4386
2026-01-12 07:11:33.42	43.05	29.47	-50.2	-52.0	15.2	0.00e+00	0	23	0	584056832	66	4486
2026-01-12 07:11:34.55	42.68	29.53	-50.4	-52.3	15.1	0.00e+00	0	22	0	586153984	66	4608
2026-01-12 07:11:35.41	42.40	29.57	-50.5	-52.4	15.0	0.00e+00	0	23	0	587202560	66	4670
2026-01-12 07:11:36.55	42.03	29.62	-50.4	-52.2	15.1	0.00e+00	0	23	0	590348288	66	4561
2026-01-12 07:11:37.41	41.75	29.66	-50.4	-52.3	15.1	0.00e+00	0	23	0	591396864	66	4624
2026-01-12 07:11:38.55	41.37	29.71	-50.8	-52.8	14.8	0.00e+00	0	23	0	593494016	66	4903
2026-01-12 07:11:39.41	41.09	29.75	-51.0	-53.0	14.8	0.00e+00	0	22	0	595591168	67	4726
2026-01-12 07:11:40.54	40.71	29.80	-51.7	-54.0	14.5	0.00e+00	0	23	0	597688320	68	5012
2026-01-12 07:11:41.40	40.43	29.84	-51.8	-54.2	14.4	0.00e+00	0	22	0	598736896	68	5104
2026-01-12 07:11:42.54	40.05	29.88	-52.0	-54.5	14.4	0.00e+00	0	23	0	600834048	69	5040
2026-01-12 07:11:43.40	39.76	29.92	-52.2	-54.9	14.2	0.00e+00	0	23	0	602931200	69	5226
2026-01-12 07:11:44.54	39.38	29.96	-52.8	-55.7	13.8	0.00e+00	0	23	0	605028352	70	5431
2026-01-12 07:11:45.39	39.10	29.99	-53.2	-56.3	13.6	0.00e+00	0	22	0	606076928	71	5503
2026-01-12 07:11:46.53	38.71	30.04	-52.8	-55.8	13.9	0.00e+00	0	23	0	608174080	71	5169
2026-01-12 07:11:47.38	38.43	30.07	-52.6	-55.3	14.2	0.00e+00	0	23	0	610271232	71	4899
2026-01-12 07:11:48.52	38.04	30.10	-52.5	-55.2	14.3	0.00e+00	0	23	0	612368384	71	4838
2026-01-12 07:11:49.37	37.75	30.13	-52.6	-55.4	14.2	0.00e+00	0	23	0	613416960	71	4969
2026-01-12 07:11:50.51	37.37	30.17	-53.1	-56.1	13.8	0.00e+00	0	22	0	615514112	71	5362
2026-01-12 07:11:51.37	37.08	30.20	-53.0	-56.0	13.8	0.00e+00	0	23	0	617611264	71	5290
2026-01-12 07:11:52.50	36.69	30.23	-52.6	-55.2	14.3	0.00e+00	0	23	0	619708416	71	4865
2026-01-12 07:11:53.35	36.40	30.26	-52.2	-54.6	14.7	0.00e+00	0	23	0	621805568	71	4517
2026-01-12 07:11:54.49	36.01	30.29	-51.8	-54.1	14.8	0.00e+00	0	23	0	623902720	70	4512
2026-01-12 07:11:55.35	35.72	30.31	-51.7	-54.0	14.9	0.00e+00	0	23	0	624951296	70	4453
2026-01-12 07:11:56.49	35.33	30.34	-51.9	-54.3	14.7	0.00e+00	0	23	0	627048448	70	4606
2026-01-12 07:11:57.34	35.04	30.36	-51.8	-54.2	14.8	0.00e+00	0	23	0	629145600	70	4548
2026-01-12 07:11:58.48	34.65	30.39	-52.2	-54.7	14.5	0.00e+00	0	23	0	631242752	70	4818
2026-01-12 07:11:59.33	34.35	30.41	-52.4	-55.0	14.3	0.00e+00	0	23	0	632291328	70	5015
2026-01-12 07:12:00.48	33.96	30.43	-52.5	-55.3	14.1	0.00e+00	0	23	0	634388480	70	5185
2026-01-12 07:12:01.33	33.66	30.45	-52.4	-55.1	14.1	0.00e+00	0	23	0	636485632	70	5086
2026-01-12 07:12:02.47	33.27	30.47	-52.5	-55.2	14.1	0.00e+00	0	23	0	638582784	70	5134
2026-01-12 07:12:03.32	32.98	30.48	-52.3	-55.0	14.3	0.00e+00	0	23	0	639631360	70	5016
2026-01-12 07:12:04.47	32.58	30.50	-52.2	-54.7	14.4	0.00e+00	0	23	0	641728512	70	4868
2026-01-12 07:12:05.33	32.28	30.52	-52.3	-55.0	14.2	0.00e+00	0	23	0	643825664	70	5021
2026-01-12 07:12:06.47	31.89	30.53	-52.5	-55.4	14.0	0.00e+00	0	23	0	645922816	70	5231
2026-01-12 07:12:07.32	31.59	30.54	-52.7	-55.6	13.9	0.00e+00	0	23	0	648019968	70	5359
2026-01-12 07:12:08.46	31.19	30.56	-52.6	-55.4	14.0	0.00e+00	0	23	0	650117120	70	5240
2026-01-12 07:12:09.32	30.90	30.57	-52.0	-54.4	14.6	0.00e+00	0	23	0	651165696	70	4705
2026-01-12 07:12:10.47	30.50	30.58	-51.3	-53.4	15.1	0.00e+00	0	23	0	653262848	69	4402
2026-01-12 07:12:11.32	30.20	30.58	-51.1	-53.1	15.0	0.00e+00	0	23	0	655360000	68	4517
2026-01-12 07:12:12.47	29.80	30.59	-51.2	-53.2	15.0	0.00e+00	0	23	0	657457152	68	4569
2026-01-12 07:12:13.32	29.50	30.60	-51.5	-53.8	14.7	0.00e+00	0	23	0	658505728	68	4874
2026-01-12 07:12:14.46	29.11	30.60	-52.1	-54.6	14.4	0.00e+00	0	23	0	660602880	69	5061
2026-01-12 07:12:15.33	28.80	30.61	-52.3	-54.8	14.2	0.00e+00	0	23	0	662700032	69	5207
2026-01-12 07:12:16.47	28.41	30.61	-52.5	-55.1	14.2	0.00e+00	0	23	0	664797184	70	5065
2026-01-12 07:12:17.32	28.11	30.61	-52.5	-55.1	14.2	0.00e+00	0	23	0	665845760	70	5077
2026-01-12 07:12:18.46	27.71	30.61	-52.7	-55.4	14.0	0.00e+00	0	23	0	667942912	70	5252
2026-01-12 07:12:19.32	27.41	30.61	-53.1	-56.0	13.9	0.00e+00	0	22	0	670040064	71	5296
2026-01-12 07:12:20.47	27.01	30.61	-53.0	-55.8	14.0	0.00e+00	0	23	0	672137216	71	5163
2026-01-12 07:12:21.33	26.71	30.60	-52.8	-55.4	14.2	0.00e+00	0	23	0	674234368	71	4982
2026-01-12 07:12:22.48	26.31	30.60	-51.9	-54.1	14.8	0.00e+00	0	23	0	676331520	70	4541
2026-01-12 07:12:23.34	26.01	30.59	-51.5	-53.5	14.9	0.00e+00	0	23	0	677380096	69	4488
2026-01-12 07:12:24.48	25.62	30.58	-51.1	-53.1	15.0	0.00e+00	0	23	0	679477248	68	4514
2026-01-12 07:12:25.34	25.32	30.58	-51.5	-53.7	14.8	0.00e+00	0	23	0	681574400	68	4815
2026-01-12 07:12:26.49	24.92	30.57	-52.2	-54.6	14.4	0.00e+00	0	22	0	683671552	69	5060
2026-01-12 07:12:27.35	24.62	30.56	-52.4	-54.9	14.2	0.00e+00	0	23	0	684720128	69	5261
2026-01-12 07:12:28.49	24.22	30.54	-52.2	-54.6	14.5	0.00e+00	0	23	0	686817280	70	4789
2026-01-12 07:12:29.36	23.92	30.53	-51.8	-53.9	15.0	0.00e+00	0	23	0	688914432	70	4427
2026-01-12 07:12:30.50	23.53	30.51	-51.6	-53.6	14.9	0.00e+00	0	23	0	691011584	69	4545
2026-01-12 07:12:31.36	23.23	30.50	-51.7	-53.8	14.9	0.00e+00	0	23	0	692060160	69	4629
2026-01-12 07:12:32.50	22.83	30.48	-51.6	-53.8	14.9	0.00e+00	0	23	0	695205888	69	4602
2026-01-12 07:12:33.37	22.53	30.47	-51.7	-53.9	14.8	0.00e+00	0	23	0	696254464	69	4690
2026-01-12 07:12:34.50	22.14	30.44	-52.1	-54.5	14.5	0.00e+00	0	23	0	698351616	69	5025
2026-01-12 07:12:35.35	21.85	30.43	-52.2	-54.6	14.4	0.00e+00	0	23	0	700448768	69	5084
2026-01-12 07:12:36.50	21.46	30.40	-52.4	-54.8	14.4	0.00e+00	0	22	0	702545920	70	4912
2026-01-12 07:12:37.35	21.16	30.38	-52.1	-54.5	14.6	0.00e+00	0	22	0	703594496	70	4723
2026-01-12 07:12:38.49	20.77	30.36	-52.0	-54.3	14.7	0.00e+00	0	23	0	705691648	70	4645
2026-01-12 07:12:39.34	20.48	30.34	-51.9	-54.1	14.8	0.00e+00	0	23	0	707788800	70	4528
2026-01-12 07:12:40.49	20.09	30.31	-51.8	-54.0	14.9	0.00e+00	0	23	0	709885952	70	4487
2026-01-12 07:12:41.34	19.80	30.28	-51.9	-54.1	14.8	0.00e+00	0	23	0	710934528	70	4526
2026-01-12 07:12:42.47	19.41	30.25	-52.0	-54.4	14.5	0.00e+00	0	23	0	713031680	69	4928
2026-01-12 07:12:43.33	19.12	30.23	-51.9	-54.3	14.6	0.00e+00	0	23	0	715128832	69	4875
2026-01-12 07:12:44.47	18.73	30.19	-52.1	-54.6	14.3	0.00e+00	0	23	0	717225984	69	5084
2026-01-12 07:12:45.33	18.44	30.16	-51.8	-54.2	14.6	0.00e+00	0	23	0	719323136	69	4824
2026-01-12 07:12:46.48	18.05	30.13	-51.7	-54.1	14.7	0.00e+00	0	23	0	721420288	69	4764
2026-01-12 07:12:47.33	17.76	30.10	-51.3	-53.4	15.0	0.00e+00	0	23	0	722468864	69	4435
2026-01-12 07:12:48.47	17.38	30.06	-50.7	-52.6	15.3	0.00e+00	0	23	0	724566016	68	4282
2026-01-12 07:12:49.32	17.09	30.03	-50.6	-52.6	15.1	0.00e+00	0	23	0	726663168	67	4535
2026-01-12 07:12:50.46	16.71	29.99	-50.8	-52.9	15.0	0.00e+00	0	23	0	728760320	67	4656
2026-01-12 07:12:51.32	16.42	29.95	-50.9	-53.0	14.9	0.00e+00	0	23	0	729808896	67	4716
2026-01-12 07:12:52.47	16.04	29.91	-51.1	-53.2	14.8	0.00e+00	0	23	0	731906048	67	4865
2026-01-12 07:12:53.32	15.76	29.88	-51.3	-53.4	14.7	0.00e+00	0	23	0	734003200	67	4965
2026-01-12 07:12:54.46	15.38	29.83	-51.8	-54.1	14.5	0.00e+00	0	22	0	736100352	68	5068
2026-01-12 07:12:55.31	15.09	29.79	-51.8	-54.1	14.5	0.00e+00	0	23	0	737148928	68	5100
2026-01-12 07:12:56.45	14.72	29.74	-51.8	-54.1	14.5	0.00e+00	0	23	0	739246080	68	5066
2026-01-12 07:12:57.30	14.44	29.71	-52.0	-54.3	14.6	0.00e+00	0	23	0	741343232	69	4923
2026-01-12 07:12:58.45	14.06	29.66	-51.9	-54.2	14.6	0.00e+00	0	23	0	743440384	69	4842
2026-01-12 07:12:59.31	13.78	29.62	-51.9	-54.1	14.7	0.00e+00	0	23	0	744488960	69	4784
2026-01-12 07:13:00.44	13.41	29.56	-51.4	-53.4	15.0	0.00e+00	0	23	0	747634688	69	4435
2026-01-12 07:13:01.30	13.13	29.52	-51.5	-53.5	15.0	0.00e+00	0	23	0	748683264	69	4483
2026-01-12 07:13:02.44	12.76	29.47	-51.7	-53.9	14.8	0.00e+00	0	23	0	750780416	69	4683
2026-01-12 07:13:03.29	12.48	29.42	-52.1	-54.4	14.5	0.00e+00	0	23	0	752877568	69	4969
2026-01-12 07:13:04.43	12.11	29.37	-52.0	-54.3	14.6	0.00e+00	0	23	0	754974720	69	4912
2026-01-12 07:13:05.29	11.84	29.32	-52.0	-54.3	14.6	0.00e+00	0	23	0	756023296	69	4899
2026-01-12 07:13:06.43	11.47	29.26	-51.7	-53.8	14.9	0.00e+00	0	23	0	758120448	69	4603
2026-01-12 07:13:07.28	11.20	29.22	-51.7	-53.9	14.8	0.00e+00	0	23	0	760217600	69	4684
2026-01-12 07:13:08.42	10.84	29.15	-51.8	-54.0	14.7	0.00e+00	0	23	0	762314752	69	4746
2026-01-12 07:13:09.27	10.57	29.11	-52.1	-54.4	14.5	0.00e+00	0	23	0	763363328	69	4979
2026-01-12 07:13:10.41	10.21	29.04	-52.3	-54.7	14.4	0.00e+00	0	23	0	765460480	69	5104
2026-01-12 07:13:11.26	9.94	29.00	-52.5	-54.9	14.4	0.00e+00	0	23	0	767557632	70	4932
2026-01-12 07:13:12.39	9.58	28.93	-52.5	-54.9	14.4	0.00e+00	0	23	0	769654784	70	4973
2026-01-12 07:13:13.24	9.32	28.88	-52.6	-55.0	14.3	0.00e+00	0	23	0	770703360	70	5037
2026-01-12 07:13:14.38	8.96	28.81	-52.3	-54.5	14.6	0.00e+00	0	23	0	772800512	70	4754
2026-01-12 07:13:15.23	8.70	28.76	-52.4	-54.7	14.5	0.00e+00	0	23	0	774897664	70	4833
2026-01-12 07:13:16.37	8.34	28.69	-52.7	-55.3	14.1	0.00e+00	0	23	0	776994816	70	5177
2026-01-12 07:13:17.22	8.08	28.64	-53.1	-55.8	14.0	0.00e+00	0	23	0	779091968	71	5215
2026-01-12 07:13:18.36	7.73	28.57	-53.6	-56.8	13.4	0.00e+00	0	23	0	781189120	72	5470
2026-01-12 07:13:19.20	7.47	28.51	-53.7	-56.9	13.4	0.00e+00	0	23	0	782237696	72	5552
2026-01-12 07:13:20.34	7.13	28.44	-53.8	-57.1	13.2	0.00e+00	0	23	0	784334848	72	5680
2026-01-12 07:13:21.19	6.87	28.39	-53.9	-57.2	13.1	0.00e+00	0	23	0	786432000	72	5765
2026-01-12 07:13:22.33	6.52	28.31	-54.1	-57.6	13.0	0.00e+00	0	23	0	788529152	73	5662
2026-01-12 07:13:23.19	6.27	28.25	-54.0	-57.4	13.2	0.00e+00	0	23	0	789577728	73	5534
2026-01-12 07:13:24.32	5.93	28.18	-53.8	-57.1	13.5	0.00e+00	0	23	0	791674880	73	5349
2026-01-12 07:13:25.17	5.67	28.12	-53.4	-56.5	13.8	0.00e+00	0	23	0	793772032	73	4986
2026-01-12 07:13:26.31	5.33	28.04	-53.7	-57.0	13.4	0.00e+00	0	23	0	795869184	73	5305
2026-01-12 07:13:27.16	5.08	27.98	-53.6	-57.0	13.4	0.00e+00	0	23	0	796917760	73	5333
2026-01-12 07:13:28.30	4.75	27.90	-53.5	-56.7	13.5	0.00e+00	0	23	0	799014912	73	5153
2026-01-12 07:13:29.15	4.50	27.84	-52.9	-55.9	14.0	0.00e+00	0	23	0	801112064	72	4936
2026-01-12 07:13:30.28	4.17	27.76	-52.5	-55.1	14.4	0.00e+00	0	23	0	803209216	71	4789
2026-01-12 07:13:31.13	3.92	27.70	-52.3	-54.8	14.6	0.00e+00	0	23	0	804257792	71	4609
2026-01-12 07:13:32.28	3.59	27.62	-51.9	-54.2	14.7	0.00e+00	0	23	0	806354944	70	4592
2026-01-12 07:13:33.13	3.34	27.56	-51.6	-53.7	14.9	0.00e+00	0	23	0	808452096	69	4590
2026-01-12 07:13:34.28	3.01	27.47	-51.4	-53.5	15.0	0.00e+00	0	23	0	810549248	69	4455
2026-01-12 07:13:35.13	2.77	27.41	-50.9	-52.8	15.2	0.00e+00	0	23	0	812646400	68	4368
2026-01-12 07:13:36.26	2.45	27.33	-50.4	-52.3	15.3	0.00e+00	0	23	0	814743552	67	4356
2026-01-12 07:13:37.12	2.21	27.26	-50.7	-52.6	15.1	0.00e+00	0	23	0	815792128	67	4525
2026-01-12 07:13:38.26	1.88	27.17	-50.6	-52.6	15.1	0.00e+00	0	23	0	817889280	67	4504
2026-01-12 07:13:39.12	1.64	27.11	-50.6	-52.5	15.1	0.00e+00	0	23	0	819986432	67	4482
2026-01-12 07:13:40.25	1.33	27.02	-50.3	-52.2	15.3	0.00e+00	0	23	0	822083584	67	4312
2026-01-12 07:13:41.11	1.09	26.95	-50.7	-52.7	15.1	0.00e+00	0	23	0	823132160	67	4550
2026-01-12 07:13:42.24	0.78	26.87	-51.1	-53.3	14.7	0.00e+00	0	23	0	825229312	67	4895
2026-01-12 07:13:43.09	0.55	26.80	-51.7	-54.1	14.5	0.00e+00	0	22	0	827326464	68	5053
2026-01-12 07:13:44.24	0.23	26.71	-51.9	-54.3	14.5	0.00e+00	0	23	0	829423616	69	4895
2026-01-12 07:13:45.09	360.00	26.64	-52.0	-54.4	14.5	0.00e+00	0	23	0	830472192	69	4942
2026-01-12 07:13:46.22	359.69	26.55	-51.7	-53.9	14.8	0.00e+00	0	23	0	832569344	69	4675
2026-01-12 07:13:47.08	359.46	26.48	-51.7	-53.9	14.8	0.00e+00	0	23	0	834666496	69	4694
2026-01-12 07:13:48.21	359.16	26.39	-52.0	-54.4	14.5	0.00e+00	0	23	0	836763648	69	4963
2026-01-12 07:13:49.06	358.93	26.32	-52.4	-55.0	14.1	0.00e+00	0	23	0	837812224	70	5034
2026-01-12 07:13:50.20	358.63	26.23	-53.0	-55.9	14.0	0.00e+00	0	23	0	839909376	71	5255
2026-01-12 07:13:51.06	358.40	26.16	-53.2	-56.2	13.8	0.00e+00	0	23	0	842006528	71	5420
2026-01-12 07:13:52.21	358.10	26.06	-53.3	-56.3	13.8	0.00e+00	0	23	0	844103680	72	5182
2026-01-12 07:13:53.05	357.88	25.99	-53.3	-56.2	13.8	0.00e+00	0	23	0	846200832	72	5135
2026-01-12 07:13:54.20	357.58	25.90	-52.9	-55.5	14.3	0.00e+00	0	23	0	848297984	72	4758
2026-01-12 07:13:55.05	357.37	25.82	-52.4	-54.8	14.6	0.00e+00	0	23	0	849346560	71	4617
2026-01-12 07:13:56.18	357.08	25.73	-52.2	-54.4	14.8	0.00e+00	0	23	0	851443712	71	4437
2026-01-12 07:13:57.04	356.86	25.66	-52.0	-54.2	14.8	0.00e+00	0	23	0	853540864	70	4548
2026-01-12 07:13:58.18	356.57	25.56	-51.5	-53.6	15.0	0.00e+00	0	23	0	855638016	69	4503
2026-01-12 07:13:59.03	356.35	25.49	-51.4	-53.5	15.0	0.00e+00	0	23	0	856686592	69	4463
2026-01-12 07:14:00.18	356.06	25.39	-51.5	-53.5	15.0	0.00e+00	0	23	0	858783744	69	4478
2026-01-12 07:14:01.04	355.85	25.32	-50.9	-52.8	15.2	0.00e+00	0	23	0	860880896	68	4382
2026-01-12 07:14:02.18	355.56	25.22	-50.3	-52.1	15.4	0.00e+00	0	23	0	862978048	67	4252
2026-01-12 07:14:03.03	355.35	25.14	-50.1	-51.8	15.3	0.00e+00	0	23	0	864026624	66	4364
2026-01-12 07:14:04.18	355.07	25.04	-50.0	-51.7	15.2	0.00e+00	0	23	0	867172352	66	4338
2026-01-12 07:14:05.03	354.86	24.97	-50.1	-51.8	15.3	0.00e+00	0	23	0	868220928	66	4367
2026-01-12 07:14:06.18	354.58	24.87	-50.1	-51.9	15.3	0.00e+00	0	23	0	870318080	66	4422
2026-01-12 07:14:07.04	354.38	24.79	-50.2	-52.0	15.2	0.00e+00	0	23	0	872415232	66	4486
2026-01-12 07:14:08.18	354.10	24.69	-50.1	-51.9	15.3	0.00e+00	0	23	0	874512384	66	4399
2026-01-12 07:14:09.03	353.90	24.62	-50.0	-51.8	15.4	0.00e+00	0	23	0	875560960	66	4364
2026-01-12 07:14:10.17	353.63	24.52	-50.1	-51.9	15.3	0.00e+00	0	23	0	877658112	66	4413
2026-01-12 07:14:11.03	353.42	24.44	-50.2	-52.0	15.2	0.00e+00	0	23	0	879755264	66	4450
2026-01-12 07:14:12.17	353.16	24.34	-50.2	-51.9	15.3	0.00e+00	0	23	0	881852416	66	4440
2026-01-12 07:14:13.02	352.96	24.26	-50.3	-52.1	15.2	0.00e+00	0	23	0	882900992	66	4541
2026-01-12 07:14:14.16	352.69	24.16	-50.5	-52.3	15.0	0.00e+00	0	23	0	884998144	66	4650
2026-01-12 07:14:15.02	352.49	24.09	-50.8	-52.7	14.9	0.00e+00	0	23	0	887095296	66	4858
2026-01-12 07:14:16.17	352.23	23.98	-50.7	-52.6	15.0	0.00e+00	0	23	0	889192448	67	4511
2026-01-12 07:14:17.02	352.04	23.91	-50.8	-52.8	15.0	0.00e+00	0	23	0	890241024	67	4624
2026-01-12 07:14:18.17	351.78	23.80	-50.7	-52.7	15.1	0.00e+00	0	23	0	893386752	67	4547
2026-01-12 07:14:19.03	351.58	23.72	-50.5	-52.4	15.2	0.00e+00	0	23	0	894435328	67	4430
2026-01-12 07:14:20.18	351.32	23.62	-50.6	-52.5	15.2	0.00e+00	0	23	0	896532480	67	4468
2026-01-12 07:14:21.04	351.13	23.54	-50.5	-52.3	15.3	0.00e+00	0	23	0	898629632	67	4383
2026-01-12 07:14:22.19	350.88	23.44	-50.4	-52.3	15.3	0.00e+00	0	23	0	900726784	67	4355
2026-01-12 07:14:23.05	350.69	23.36	-50.3	-52.1	15.4	0.00e+00	0	23	0	901775360	67	4274
2026-01-12 07:14:24.20	350.44	23.26	-50.2	-52.0	15.2	0.00e+00	0	23	0	903872512	66	4447
2026-01-12 07:14:25.06	350.25	23.18	-50.0	-51.7	15.4	0.00e+00	0	23	0	905969664	66	4326
2026-01-12 07:14:26.20	350.00	23.07	-49.8	-51.5	15.5	0.00e+00	0	23	0	908066816	66	4236
2026-01-12 07:14:27.06	349.82	22.99	-49.6	-51.2	15.4	0.00e+00	0	23	0	909115392	65	4323
2026-01-12 07:14:28.20	349.57	22.89	-49.5	-51.1	15.5	0.00e+00	0	23	0	911212544	65	4282
2026-01-12 07:14:29.06	349.39	22.81	-49.5	-51.1	15.6	0.00e+00	0	23	0	913309696	65	4246
2026-01-12 07:14:30.21	349.15	22.71	-49.3	-50.9	15.6	0.00e+00	0	22	0	915406848	65	4150
2026-01-12 07:14:31.07	348.97	22.63	-48.9	-50.4	15.7	0.00e+00	0	23	0	917504000	64	4174
2026-01-12 07:14:32.21	348.73	22.52	-48.9	-50.5	15.7	0.00e+00	0	23	0	919601152	64	4203
2026-01-12 07:14:33.07	348.55	22.44	-49.1	-50.7	15.5	0.00e+00	0	23	0	920649728	64	4301
2026-01-12 07:14:34.20	348.32	22.34	-49.4	-51.1	15.4	0.00e+00	0	23	0	922746880	64	4496
2026-01-12 07:14:35.06	348.14	22.26	-49.8	-51.5	15.1	0.00e+00	0	23	0	924844032	64	4739
2026-01-12 07:14:36.20	347.91	22.15	-49.9	-51.6	15.1	0.00e+00	0	23	0	926941184	64	4791
2026-01-12 07:14:37.06	347.73	22.08	-49.9	-51.6	15.3	0.00e+00	0	23	0	927989760	65	4516
2026-01-12 07:14:38.20	347.50	21.97	-49.8	-51.5	15.3	0.00e+00	0	23	0	930086912	65	4467
2026-01-12 07:14:39.06	347.33	21.89	-49.7	-51.4	15.4	0.00e+00	0	23	0	932184064	65	4405
2026-01-12 07:14:40.20	347.10	21.79	-49.6	-51.3	15.4	0.00e+00	0	23	0	934281216	65	4364
2026-01-12 07:14:41.06	346.93	21.71	-49.6	-51.3	15.4	0.00e+00	0	23	0	935329792	65	4367
2026-01-12 07:14:42.20	346.71	21.60	-49.7	-51.3	15.4	0.00e+00	0	23	0	937426944	65	4380
2026-01-12 07:14:43.06	346.54	21.52	-49.7	-51.3	15.4	0.00e+00	0	23	0	939524096	65	4381
2026-01-12 07:14:44.20	346.32	21.42	-49.8	-51.5	15.3	0.00e+00	0	23	0	941621248	65	4480
2026-01-12 07:14:45.06	346.15	21.34	-50.0	-51.7	15.2	0.00e+00	0	23	0	943718400	65	4573
2026-01-12 07:14:46.20	345.94	21.23	-49.8	-51.5	15.3	0.00e+00	0	23	0	945815552	65	4481
2026-01-12 07:14:47.05	345.77	21.15	-49.9	-51.5	15.3	0.00e+00	0	23	0	946864128	65	4491
2026-01-12 07:14:48.21	345.55	21.04	-50.1	-51.8	15.1	0.00e+00	0	23	0	948961280	65	4640
2026-01-12 07:14:49.07	345.39	20.96	-50.0	-51.8	15.2	0.00e+00	0	23	0	951058432	65	4612
2026-01-12 07:14:50.22	345.18	20.86	-50.1	-51.9	15.1	0.00e+00	0	22	0	953155584	65	4664
2026-01-12 07:14:51.07	345.02	20.78	-50.0	-51.7	15.2	0.00e+00	0	23	0	954204160	65	4589
2026-01-12 07:14:52.21	344.81	20.67	-49.9	-51.6	15.3	0.00e+00	0	23	0	956301312	65	4539
2026-01-12 07:14:53.07	344.65	20.60	-49.6	-51.2	15.4	0.00e+00	0	23	0	958398464	65	4318
2026-01-12 07:14:54.21	344.44	20.49	-49.5	-51.1	15.5	0.00e+00	0	23	0	960495616	65	4257
2026-01-12 07:14:55.07	344.28	20.41	-49.6	-51.2	15.5	0.00e+00	0	23	0	961544192	65	4302
2026-01-12 07:14:56.21	344.08	20.31	-49.5	-51.1	15.5	0.00e+00	0	23	0	964689920	65	4248
2026-01-12 07:14:57.07	343.92	20.23	-49.6	-51.2	15.5	0.00e+00	0	23	0	965738496	65	4318
2026-01-12 07:14:58.22	343.72	20.12	-49.9	-51.6	15.3	0.00e+00	0	23	0	967835648	65	4507
2026-01-12 07:14:59.07	343.57	20.04	-50.2	-52.0	15.0	0.00e+00	0	23	0	969932800	65	4751
2026-01-12 07:15:00.21	343.37	19.94	-50.5	-52.4	15.0	0.00e+00	0	23	0	972029952	66	4665
2026-01-12 07:15:01.07	343.22	19.86	-50.7	-52.7	14.9	0.00e+00	0	22	0	973078528	66	4832
2026-01-12 07:15:02.21	343.02	19.75	-50.9	-52.8	14.8	0.00e+00	0	22	0	975175680	66	4901
2026-01-12 07:15:03.07	342.87	19.67	-50.8	-52.7	14.8	0.00e+00	0	23	0	977272832	66	4864
2026-01-12 07:15:04.21	342.67	19.57	-50.5	-52.3	15.1	0.00e+00	0	23	0	979369984	66	4624
2026-01-12 07:15:05.07	342.53	19.49	-50.5	-52.3	15.1	0.00e+00	0	23	0	980418560	66	4599
2026-01-12 07:15:06.21	342.33	19.38	-50.4	-52.2	15.1	0.00e+00	0	23	0	982515712	66	4576
2026-01-12 07:15:07.07	342.19	19.31	-50.0	-51.7	15.4	0.00e+00	0	23	0	984612864	66	4327
2026-01-12 07:15:08.21	342.00	19.20	-50.1	-51.8	15.3	0.00e+00	0	23	0	986710016	66	4377
2026-01-12 07:15:09.07	341.85	19.12	-50.1	-51.8	15.4	0.00e+00	0	23	0	987758592	66	4364
2026-01-12 07:15:10.21	341.66	19.02	-50.1	-51.8	15.3	0.00e+00	0	23	0	990904320	66	4365
2026-01-12 07:15:11.07	341.52	18.94	-50.2	-51.9	15.3	0.00e+00	0	23	0	991952896	66	4437
2026-01-12 07:15:12.21	341.34	18.84	-50.4	-52.2	15.1	0.00e+00	0	23	0	994050048	66	4584
2026-01-12 07:15:13.07	341.20	18.76	-50.4	-52.2	15.1	0.00e+00	0	23	0	996147200	66	4561
2026-01-12 07:15:14.21	341.01	18.65	-50.7	-52.6	15.0	0.00e+00	0	23	0	998244352	66	4765
2026-01-12 07:15:15.07	340.87	18.57	-51.1	-53.1	14.8	0.00e+00	0	22	0	999292928	67	4771
2026-01-12 07:15:16.21	340.69	18.47	-51.1	-53.1	14.8	0.00e+00	0	23	0	1001390080	67	4788
2026-01-12 07:15:17.06	340.56	18.39	-51.5	-53.5	14.7	0.00e+00	0	23	0	1003487232	68	4753
2026-01-12 07:15:18.20	340.38	18.29	-51.8	-54.0	14.5	0.00e+00	0	23	0	1005584384	68	4995
2026-01-12 07:15:19.06	340.24	18.21	-51.7	-53.9	14.6	0.00e+00	0	23	0	1006632960	68	4939
2026-01-12 07:15:20.20	340.06	18.11	-51.4	-53.4	14.8	0.00e+00	0	23	0	1008730112	68	4692
2026-01-12 07:15:21.05	339.93	18.03	-51.4	-53.5	14.8	0.00e+00	0	23	0	1010827264	68	4715
2026-01-12 07:15:22.19	339.76	17.93	-51.2	-53.2	15.0	0.00e+00	0	23	0	1012924416	68	4556
2026-01-12 07:15:23.05	339.62	17.85	-51.2	-53.1	15.0	0.00e+00	0	23	0	1015021568	68	4519
2026-01-12 07:15:24.18	339.45	17.75	-51.0	-52.8	15.1	0.00e+00	0	23	0	1017118720	68	4391
2026-01-12 07:15:25.04	339.32	17.67	-51.2	-53.1	15.1	0.00e+00	0	23	0	1018167296	68	4524
2026-01-12 07:15:26.17	339.15	17.57	-51.2	-53.1	15.0	0.00e+00	0	23	0	1020264448	68	4545
2026-01-12 07:15:27.03	339.02	17.49	-51.2	-53.2	15.0	0.00e+00	0	23	0	1022361600	68	4551
2026-01-12 07:15:28.17	338.85	17.39	-51.5	-53.7	14.7	0.00e+00	0	23	0	1024458752	68	4820
2026-01-12 07:15:29.01	338.73	17.32	-51.6	-53.8	14.7	0.00e+00	0	23	0	1025507328	68	4886
2026-01-12 07:15:30.15	338.56	17.22	-51.7	-53.9	14.6	0.00e+00	0	23	0	1027604480	68	4953
2026-01-12 07:15:31.00	338.44	17.14	-51.8	-54.0	14.5	0.00e+00	0	23	0	1029701632	68	5032
2026-01-12 07:15:32.15	338.27	17.04	-51.8	-54.0	14.5	0.00e+00	0	23	0	1031798784	68	5026
2026-01-12 07:15:33.00	338.15	16.96	-51.7	-53.9	14.6	0.00e+00	0	23	0	1032847360	68	4944
2026-01-12 07:15:34.14	337.99	16.86	-51.5	-53.6	14.8	0.00e+00	0	23	0	1034944512	68	4764
2026-01-12 07:15:34.99	337.86	16.79	-51.2	-53.2	15.0	0.00e+00	0	23	0	1037041664	68	4573
2026-01-12 07:15:36.13	337.70	16.68	-51.0	-52.9	15.1	0.00e+00	0	23	0	1039138816	68	4420
2026-01-12 07:15:36.98	337.58	16.61	-50.9	-52.9	15.1	0.00e+00	0	23	0	1040187392	68	4405
2026-01-12 07:15:38.11	337.43	16.51	-50.7	-52.5	15.3	0.00e+00	0	23	0	1042284544	68	4240
2026-01-12 07:15:38.97	337.31	16.43	-50.3	-52.1	15.3	0.00e+00	0	23	0	1044381696	67	4289
2026-01-12 07:15:40.11	337.15	16.33	-50.2	-52.0	15.4	0.00e+00	0	23	0	1046478848	67	4213
2026-01-12 07:15:40.96	337.03	16.26	-50.4	-52.2	15.3	0.00e+00	0	23	0	1048576000	67	4315
2026-01-12 07:15:42.10	336.88	16.16	-50.4	-52.2	15.3	0.00e+00	0	23	0	1050673152	67	4307
2026-01-12 07:15:42.95	336.76	16.09	-50.5	-52.3	15.2	0.00e+00	0	23	0	1051721728	67	4388
2026-01-12 07:15:44.07	336.61	15.99	-50.8	-52.7	15.0	0.00e+00	0	23	0	1053818880	67	4556
2026-01-12 07:15:44.92	336.49	15.91	-50.7	-52.5	15.1	0.00e+00	0	23	0	1055916032	67	4472
2026-01-12 07:15:46.06	336.34	15.81	-50.8	-52.7	15.0	0.00e+00	0	23	0	1058013184	67	4571
2026-01-12 07:15:46.92	336.23	15.74	-51.0	-53.0	14.9	0.00e+00	0	23	0	1059061760	67	4714
2026-01-12 07:15:48.06	336.08	15.64	-51.1	-53.1	14.8	0.00e+00	0	23	0	1061158912	67	4810
2026-01-12 07:15:48.92	335.97	15.57	-51.2	-53.2	14.7	0.00e+00	0	23	0	1063256064	67	4834
2026-01-12 07:15:50.06	335.82	15.47	-51.1	-53.1	14.8	0.00e+00	0	23	0	1065353216	67	4765
2026-01-12 07:15:50.92	335.71	15.39	-51.1	-53.1	14.8	0.00e+00	0	23	0	1066401792	67	4771
2026-01-12 07:15:52.06	335.56	15.29	-50.9	-52.8	14.9	0.00e+00	0	23	0	1068498944	67	4633
2026-01-12 07:15:52.92	335.45	15.22	-50.9	-52.9	14.9	0.00e+00	0	23	0	1070596096	67	4660
2026-01-12 07:15:54.06	335.30	15.12	-50.9	-52.8	14.9	0.00e+00	0	23	0	1072693248	67	4643
2026-01-12 07:15:54.92	335.19	15.05	-50.8	-52.7	15.0	0.00e+00	0	23	0	1073741824	67	4577
2026-01-12 07:15:56.07	335.05	14.95	-50.9	-52.9	14.9	0.00e+00	0	23	0	1076887552	67	4662
2026-01-12 07:15:56.93	334.94	14.88	-51.1	-53.2	14.8	0.00e+00	0	23	0	1077936128	67	4819
2026-01-12 07:15:58.06	334.80	14.78	-51.6	-53.8	14.6	0.00e+00	0	23	0	1080033280	68	4876
2026-01-12 07:15:58.92	334.70	14.71	-51.9	-54.1	14.4	0.00e+00	0	23	0	1082130432	68	5093
2026-01-12 07:16:00.06	334.56	14.61	-52.3	-54.7	14.2	0.00e+00	0	22	0	1084227584	69	5128
2026-01-12 07:16:00.92	334.45	14.54	-52.5	-55.1	14.2	0.00e+00	0	23	0	1085276160	70	5052
2026-01-12 07:16:02.07	334.31	14.44	-52.7	-55.4	13.9	0.00e+00	0	23	0	1087373312	70	5257
2026-01-12 07:16:02.92	334.21	14.37	-52.9	-55.6	13.9	0.00e+00	0	23	0	1089470464	71	5090
2026-01-12 07:16:04.07	334.07	14.27	-52.9	-55.6	14.0	0.00e+00	0	23	0	1091567616	71	5071
2026-01-12 07:16:04.92	333.97	14.20	-52.7	-55.4	14.1	0.00e+00	0	23	0	1092616192	71	4942
2026-01-12 07:16:06.06	333.83	14.11	-52.4	-54.8	14.5	0.00e+00	0	23	0	1094713344	71	4620
2026-01-12 07:16:06.92	333.73	14.03	-52.0	-54.3	14.6	0.00e+00	0	23	0	1096810496	70	4640
2026-01-12 07:16:08.06	333.60	13.94	-51.6	-53.7	14.8	0.00e+00	0	23	0	1098907648	69	4581
2026-01-12 07:16:08.90	333.50	13.87	-51.3	-53.3	15.1	0.00e+00	0	23	0	1099956224	69	4387
2026-01-12 07:16:10.04	333.37	13.77	-51.0	-53.0	15.0	0.00e+00	0	23	0	1103101952	68	4457
2026-01-12 07:16:10.90	333.27	13.70	-50.8	-52.7	15.2	0.00e+00	0	23	0	1104150528	68	4312
2026-01-12 07:16:12.04	333.14	13.61	-50.8	-52.7	15.2	0.00e+00	0	23	0	1106247680	68	4338
2026-01-12 07:16:12.89	333.04	13.54	-50.9	-52.8	15.2	0.00e+00	0	23	0	1108344832	68	4365
2026-01-12 07:16:14.02	332.91	13.44	-51.0	-53.0	15.0	0.00e+00	0	23	0	1110441984	68	4467
2026-01-12 07:16:14.88	332.82	13.37	-51.1	-53.2	15.0	0.00e+00	0	23	0	1111490560	68	4546
2026-01-12 07:16:16.03	332.69	13.28	-51.5	-53.6	14.7	0.00e+00	0	23	0	1113587712	68	4804
2026-01-12 07:16:16.89	332.59	13.21	-51.6	-53.8	14.6	0.00e+00	0	23	0	1115684864	68	4919
2026-01-12 07:16:18.03	332.47	13.11	-52.1	-54.5	14.4	0.00e+00	0	23	0	1117782016	69	4986
2026-01-12 07:16:18.89	332.37	13.04	-52.3	-54.8	14.2	0.00e+00	0	23	0	1118830592	69	5189
2026-01-12 07:16:20.04	332.25	12.95	-52.6	-55.2	14.1	0.00e+00	0	23	0	1120927744	70	5112
2026-01-12 07:16:20.89	332.15	12.88	-52.7	-55.4	13.9	0.00e+00	0	23	0	1123024896	70	5221
2026-01-12 07:16:22.04	332.03	12.79	-52.8	-55.6	13.8	0.00e+00	0	23	0	1125122048	70	5366
2026-01-12 07:16:22.89	331.94	12.72	-52.9	-55.6	13.8	0.00e+00	0	23	0	1127219200	70	5376
2026-01-12 07:16:24.03	331.82	12.63	-52.9	-55.6	13.8	0.00e+00	0	23	0	1129316352	70	5399
2026-01-12 07:16:24.89	331.73	12.56	-52.8	-55.5	14.1	0.00e+00	0	23	0	1130364928	71	5003
2026-01-12 07:16:26.03	331.60	12.47	-52.8	-55.4	14.1	0.00e+00	0	23	0	1132462080	71	4968
2026-01-12 07:16:26.88	331.52	12.40	-52.7	-55.3	14.2	0.00e+00	0	23	0	1134559232	71	4912
2026-01-12 07:16:28.01	331.40	12.31	-52.7	-55.4	14.1	0.00e+00	0	23	0	1136656384	71	4933
2026-01-12 07:16:28.87	331.31	12.24	-52.5	-55.0	14.3	0.00e+00	0	23	0	1137704960	71	4745
2026-01-12 07:16:30.02	331.19	12.15	-52.5	-55.1	14.3	0.00e+00	0	23	0	1139802112	71	4775
2026-01-12 07:16:30.88	331.10	12.08	-52.6	-55.1	14.2	0.00e+00	0	23	0	1141899264	71	4813
2026-01-12 07:16:32.02	330.98	11.99	-52.5	-55.0	14.3	0.00e+00	0	23	0	1143996416	71	4744
2026-01-12 07:16:32.87	330.90	11.92	-52.6	-55.1	14.2	0.00e+00	0	23	0	1145044992	71	4809
2026-01-12 07:16:34.02	330.78	11.83	-52.5	-55.0	14.3	0.00e+00	0	23	0	1147142144	71	4718
2026-01-12 07:16:34.88	330.69	11.76	-52.6	-55.1	14.2	0.00e+00	0	23	0	1149239296	71	4813
2026-01-12 07:16:36.02	330.58	11.67	-52.6	-55.1	14.2	0.00e+00	0	23	0	1151336448	71	4800
2026-01-12 07:16:36.87	330.50	11.60	-52.6	-55.2	14.2	0.00e+00	0	23	0	1153433600	71	4842
2026-01-12 07:16:38.01	330.38	11.51	-52.8	-55.4	14.0	0.00e+00	0	23	0	1155530752	71	4945
2026-01-12 07:16:38.86	330.30	11.45	-52.9	-55.6	13.9	0.00e+00	0	23	0	1156579328	71	5060
2026-01-12 07:16:40.01	330.19	11.36	-52.9	-55.7	13.9	0.00e+00	0	23	0	1158676480	71	5121
2026-01-12 07:16:40.87	330.10	11.29	-53.0	-55.8	13.8	0.00e+00	0	23	0	1160773632	71	5208
2026-01-12 07:16:42.02	329.99	11.20	-53.0	-55.8	13.8	0.00e+00	0	23	0	1162870784	71	5171
2026-01-12 07:16:42.88	329.91	11.13	-52.9	-55.7	13.8	0.00e+00	0	23	0	1163919360	71	5137
2026-01-12 07:16:44.02	329.80	11.04	-53.0	-55.7	13.8	0.00e+00	0	23	0	1166016512	71	5155
2026-01-12 07:16:44.88	329.72	10.98	-52.9	-55.7	13.8	0.00e+00	0	23	0	1168113664	71	5117
2026-01-12 07:16:46.02	329.61	10.89	-52.7	-55.4	14.0	0.00e+00	0	23	0	1170210816	71	4940
2026-01-12 07:16:46.88	329.53	10.82	-52.4	-54.9	14.3	0.00e+00	0	23	0	1171259392	71	4703
2026-01-12 07:16:48.03	329.42	10.74	-52.3	-54.8	14.4	0.00e+00	0	23	0	1174405120	71	4619
2026-01-12 07:16:48.89	329.34	10.67	-52.2	-54.5	14.6	0.00e+00	0	23	0	1175453696	71	4485
2026-01-12 07:16:50.04	329.24	10.58	-52.1	-54.4	14.5	0.00e+00	0	23	0	1177550848	70	4686
2026-01-12 07:16:50.89	329.16	10.52	-52.0	-54.2	14.6	0.00e+00	0	23	0	1179648000	70	4591
2026-01-12 07:16:52.04	329.05	10.43	-51.9	-54.1	14.7	0.00e+00	0	23	0	1181745152	70	4519
2026-01-12 07:16:52.90	328.97	10.36	-51.6	-53.7	14.8	0.00e+00	0	23	0	1182793728	69	4558
2026-01-12 07:16:54.04	328.87	10.28	-51.5	-53.6	14.8	0.00e+00	0	23	0	1184890880	69	4505
2026-01-12 07:16:54.90	328.79	10.21	-51.4	-53.4	14.9	0.00e+00	0	23	0	1186988032	69	4438
2026-01-12 07:16:56.04	328.69	10.13	-51.3	-53.3	14.9	0.00e+00	0	23	0	1189085184	69	4391
2026-01-12 07:16:56.90	328.61	10.06	-51.4	-53.5	14.9	0.00e+00	0	23	0	1190133760	69	4472
2026-01-12 07:16:58.05	328.51	9.97	-51.5	-53.6	14.8	0.00e+00	0	23	0	1192230912	69	4499
2026-01-12 07:16:58.91	328.44	9.91	-51.6	-53.7	14.7	0.00e+00	0	23	0	1194328064	69	4589
2026-01-12 07:17:00.05	328.34	9.82	-51.8	-54.0	14.6	0.00e+00	0	23	0	1196425216	69	4737
2026-01-12 07:17:00.91	328.26	9.76	-52.0	-54.3	14.4	0.00e+00	0	23	0	1197473792	69	4909
2026-01-12 07:17:02.05	328.16	9.67	-52.1	-54.4	14.3	0.00e+00	0	23	0	1200619520	69	4981
2026-01-12 07:17:02.91	328.09	9.61	-52.2	-54.7	14.1	0.00e+00	0	23	0	1201668096	69	5107
2026-01-12 07:17:04.05	327.99	9.53	-52.5	-55.1	14.1	0.00e+00	0	23	0	1203765248	70	5058
2026-01-12 07:17:04.91	327.92	9.46	-52.6	-55.1	14.0	0.00e+00	0	23	0	1205862400	70	5093
2026-01-12 07:17:06.06	327.82	9.38	-52.8	-55.6	13.7	0.00e+00	0	23	0	1207959552	70	5343
2026-01-12 07:17:06.92	327.75	9.31	-52.9	-55.6	13.9	0.00e+00	0	23	0	1209008128	71	5054
2026-01-12 07:17:08.07	327.65	9.23	-53.1	-56.0	13.6	0.00e+00	0	23	0	1211105280	71	5307
2026-01-12 07:17:08.93	327.58	9.16	-53.2	-56.1	13.5	0.00e+00	0	23	0	1213202432	71	5365
2026-01-12 07:17:10.08	327.48	9.08	-53.2	-56.1	13.5	0.00e+00	0	23	0	1215299584	71	5400
2026-01-12 07:17:10.94	327.41	9.02	-53.2	-56.2	13.5	0.00e+00	0	23	0	1216348160	71	5424
2026-01-12 07:17:12.08	327.32	8.93	-53.3	-56.3	13.4	0.00e+00	0	23	0	1219493888	71	5503
2026-01-12 07:17:12.94	327.25	8.87	-53.2	-56.3	13.4	0.00e+00	0	23	0	1220542464	71	5466
