passes_logs/2026/01/12/R3.2S_Murmansk/R3.2S_Murmansk__20260112_095516_NOAA_21_JPSS-2_rec.log

#Pass ID: 20260112_095516_NOAA 21 (JPSS-2)
#Satellite: NOAA 21 (JPSS-2)
#Configuration: NOAA-21
#almurnet v.1.7.20251203
#Start time: 2026-01-12 09:55:17

#Version: 2.2.20231116
#Station: R3.2S_Murmansk
#Location: 33.079688 lon 68.888172 lat
#TLE: 1 54234U 22150A   26011.55893233  .00000075  00000+0  56634-4 0  9995
#TLE: 2 54234  98.7494 312.5004 0000755 313.1908  46.9205 14.19534095164321

#Time	Az	El	Level	Level2	SNR	BER	BlckErr	Temp	State	Recorded	gain1	gain2
2026-01-12 09:55:17.63	161.32	2.06	-57.2	-70.9	3.8	1.49e+00	0	20	0	0	80	17562
2026-01-12 09:55:18.62	161.34	2.13	-57.1	-70.7	3.8	1.49e+00	0	20	104	0	79	18116
2026-01-12 09:55:19.63	161.35	2.19	-57.1	-70.6	3.8	1.49e+00	0	20	104	0	79	17956
2026-01-12 09:55:20.64	161.36	2.26	-57.1	-70.6	3.8	1.49e+00	0	20	104	0	79	17913
2026-01-12 09:55:21.65	161.38	2.32	-57.1	-70.6	3.8	1.49e+00	0	20	104	0	79	18087
2026-01-12 09:55:22.65	161.39	2.39	-57.1	-70.6	3.8	1.49e+00	0	20	104	0	79	18093
2026-01-12 09:55:23.66	161.41	2.45	-57.1	-70.6	3.8	1.49e+00	0	21	104	0	79	18009
2026-01-12 09:55:24.67	161.42	2.52	-57.1	-70.6	3.8	1.49e+00	0	21	104	0	79	18000
2026-01-12 09:55:25.68	161.44	2.58	-57.1	-70.7	3.8	1.49e+00	0	21	104	0	79	18116
2026-01-12 09:55:26.67	161.45	2.65	-57.1	-70.6	3.8	1.49e+00	0	20	104	0	79	18037
2026-01-12 09:55:27.68	161.46	2.71	-57.1	-70.6	3.8	1.49e+00	0	21	104	0	79	17949
2026-01-12 09:55:28.69	161.48	2.78	-57.1	-70.5	3.8	1.49e+00	0	21	104	0	79	17847
2026-01-12 09:55:29.70	161.49	2.85	-57.1	-70.5	3.8	1.49e+00	0	21	104	0	79	17689
2026-01-12 09:55:30.70	161.51	2.91	-57.1	-70.4	3.8	1.49e+00	0	21	104	0	79	17664
2026-01-12 09:55:31.71	161.52	2.98	-57.1	-70.5	3.8	1.49e+00	0	21	104	0	79	17728
2026-01-12 09:55:32.72	161.54	3.05	-57.1	-70.5	3.8	1.49e+00	0	21	104	0	79	17743
2026-01-12 09:55:33.72	161.55	3.11	-57.1	-70.6	3.8	1.49e+00	0	21	104	0	79	17894
2026-01-12 09:55:34.73	161.57	3.18	-57.1	-70.8	3.8	1.49e+00	0	21	104	0	79	18347
2026-01-12 09:55:35.74	161.58	3.25	-57.1	-70.9	3.8	1.49e+00	0	21	104	0	79	18654
2026-01-12 09:55:36.74	161.59	3.31	-57.1	-70.9	3.8	1.49e+00	0	21	104	0	79	18593
2026-01-12 09:55:37.74	161.61	3.38	-57.1	-70.7	3.8	1.49e+00	0	21	104	0	79	18203
2026-01-12 09:55:38.75	161.62	3.45	-57.1	-70.3	3.8	1.49e+00	0	21	104	0	79	17290
2026-01-12 09:55:39.75	161.64	3.52	-57.0	-69.4	3.9	1.49e+00	0	21	104	0	79	15702
2026-01-12 09:55:40.75	161.65	3.58	-57.0	-69.0	3.8	1.49e+00	0	21	104	0	79	14951
2026-01-12 09:55:41.76	161.67	3.65	-56.9	-67.4	4.2	1.47e+00	0	21	104	0	79	12518
2026-01-12 09:55:42.77	161.68	3.72	-56.8	-66.8	4.0	1.20e+00	0	21	104	0	79	11661
2026-01-12 09:55:43.77	161.70	3.79	-56.7	-65.3	5.0	6.77e-01	0	21	0	1048576	79	9793
2026-01-12 09:55:44.78	161.71	3.86	-56.5	-64.5	5.5	4.40e-01	0	21	0	3145728	79	8899
2026-01-12 09:55:45.79	161.73	3.93	-56.4	-63.6	6.0	3.79e-01	0	21	0	6291456	79	8033
2026-01-12 09:55:46.80	161.75	4.00	-56.3	-63.2	6.4	2.88e-01	0	21	0	9437184	79	7642
2026-01-12 09:55:47.80	161.76	4.06	-56.2	-63.0	6.4	1.59e-01	0	21	0	12582912	78	7925
2026-01-12 09:55:48.81	161.78	4.13	-56.0	-62.1	7.2	1.36e-01	0	21	0	15728640	78	7200
2026-01-12 09:55:49.82	161.79	4.20	-55.8	-61.2	8.1	5.99e-02	0	21	0	18874368	78	6455
2026-01-12 09:55:50.83	161.81	4.27	-55.8	-61.2	8.1	4.66e-02	0	21	0	23068672	78	6461
2026-01-12 09:55:51.84	161.82	4.34	-55.6	-60.8	8.3	3.54e-02	0	21	0	26214400	77	6509
2026-01-12 09:55:52.84	161.84	4.41	-55.4	-60.2	9.0	1.18e-02	0	21	0	28311552	77	6062
2026-01-12 09:55:53.85	161.85	4.48	-55.0	-59.4	9.6	8.00e-03	0	21	0	31457280	76	5893
2026-01-12 09:55:54.86	161.87	4.55	-55.0	-59.2	9.8	6.11e-03	0	21	0	34603008	76	5762
2026-01-12 09:55:55.87	161.89	4.63	-54.9	-58.9	10.0	2.92e-03	0	21	0	37748736	76	5586
2026-01-12 09:55:56.87	161.90	4.70	-54.8	-58.8	10.2	2.52e-03	0	21	0	41943040	76	5483
2026-01-12 09:55:57.87	161.92	4.77	-54.3	-58.0	10.8	5.93e-04	0	21	0	45088768	75	5283
2026-01-12 09:55:58.88	161.93	4.84	-54.5	-58.2	10.6	1.01e-03	0	21	0	48234496	75	5457
2026-01-12 09:55:59.89	161.95	4.91	-54.3	-58.0	10.8	7.90e-04	0	21	0	51380224	75	5298
2026-01-12 09:56:00.89	161.97	4.98	-54.4	-58.2	10.6	7.25e-04	0	21	0	53477376	75	5422
2026-01-12 09:56:01.90	161.98	5.05	-54.6	-58.5	10.3	1.30e-03	0	21	0	56623104	75	5615
2026-01-12 09:56:02.91	162.00	5.12	-55.0	-59.3	9.8	4.74e-04	0	21	0	59768832	75	6151
2026-01-12 09:56:03.92	162.01	5.20	-54.8	-58.9	10.0	2.15e-03	0	21	0	63963136	75	5897
2026-01-12 09:56:04.93	162.03	5.27	-56.7	-65.9	4.7	2.83e-01	0	21	0	67108864	78	11138
2026-01-12 09:56:05.93	162.05	5.34	-57.1	-69.0	3.9	1.48e+00	0	22	104	67108864	79	14972
2026-01-12 09:56:06.94	162.06	5.41	-51.5	-53.5	13.7	1.52e-01	0	22	0	67108864	69	4481
2026-01-12 09:56:07.95	162.08	5.49	-51.5	-53.4	13.8	0.00e+00	0	22	0	70254592	69	4441
2026-01-12 09:56:08.95	162.10	5.56	-51.4	-53.3	13.9	0.00e+00	0	21	0	73400320	69	4379
2026-01-12 09:56:09.95	162.11	5.63	-51.5	-53.5	13.8	0.00e+00	0	21	0	76546048	69	4479
2026-01-12 09:56:10.96	162.13	5.71	-51.3	-53.3	14.0	0.00e+00	0	21	0	79691776	69	4360
2026-01-12 09:56:11.96	162.15	5.78	-51.0	-52.9	14.1	0.00e+00	0	22	0	82837504	68	4407
2026-01-12 09:56:12.96	162.16	5.85	-51.2	-53.1	13.9	0.00e+00	0	22	0	85983232	68	4538
2026-01-12 09:56:13.97	162.18	5.93	-51.1	-53.0	14.0	0.00e+00	0	21	0	89128960	68	4468
2026-01-12 09:56:14.98	162.20	6.00	-50.9	-52.8	14.2	0.00e+00	0	21	0	92274688	68	4360
2026-01-12 09:56:15.99	162.22	6.08	-50.9	-52.7	14.2	0.00e+00	0	21	0	95420416	68	4337
2026-01-12 09:56:16.99	162.23	6.15	-50.9	-52.7	14.2	0.00e+00	0	22	0	98566144	68	4307
2026-01-12 09:56:18.00	162.25	6.23	-50.9	-52.7	14.3	0.00e+00	0	22	0	101711872	68	4292
2026-01-12 09:56:19.01	162.27	6.30	-50.9	-52.7	14.2	0.00e+00	0	22	0	104857600	68	4321
2026-01-12 09:56:20.02	162.28	6.38	-51.0	-52.8	14.2	0.00e+00	0	21	0	108003328	68	4373
2026-01-12 09:56:21.02	162.30	6.45	-50.9	-52.7	14.3	0.00e+00	0	21	0	111149056	68	4299
2026-01-12 09:56:22.03	162.32	6.53	-51.1	-52.9	14.1	0.00e+00	0	22	0	114294784	68	4409
2026-01-12 09:56:23.04	162.34	6.61	-50.9	-52.6	14.3	0.00e+00	0	22	0	117440512	68	4286
2026-01-12 09:56:24.04	162.35	6.68	-50.6	-52.4	14.3	0.00e+00	0	22	0	120586240	67	4415
2026-01-12 09:56:25.05	162.37	6.76	-50.6	-52.3	14.3	0.00e+00	0	22	0	123731968	67	4370
2026-01-12 09:56:26.06	162.39	6.84	-50.5	-52.3	14.3	0.00e+00	0	22	0	126877696	67	4351
2026-01-12 09:56:27.06	162.41	6.91	-50.4	-52.1	14.5	0.00e+00	0	22	0	130023424	67	4282
2026-01-12 09:56:28.07	162.43	6.99	-50.5	-52.2	14.4	0.00e+00	0	21	0	133169152	67	4314
2026-01-12 09:56:29.08	162.44	7.07	-50.5	-52.3	14.4	0.00e+00	0	22	0	136314880	67	4345
2026-01-12 09:56:30.09	162.46	7.15	-50.4	-52.1	14.5	0.00e+00	0	22	0	139460608	67	4288
2026-01-12 09:56:31.09	162.48	7.22	-50.5	-52.2	14.4	0.00e+00	0	22	0	142606336	67	4295
2026-01-12 09:56:32.10	162.50	7.30	-50.4	-52.1	14.5	0.00e+00	0	22	0	145752064	67	4276
2026-01-12 09:56:33.11	162.52	7.38	-50.4	-52.1	14.5	0.00e+00	0	22	0	148897792	67	4266
2026-01-12 09:56:34.12	162.54	7.46	-50.3	-52.0	14.6	0.00e+00	0	22	0	152043520	67	4200
2026-01-12 09:56:35.12	162.55	7.54	-50.3	-51.9	14.6	0.00e+00	0	22	0	155189248	67	4171
2026-01-12 09:56:36.12	162.57	7.62	-50.3	-52.0	14.6	0.00e+00	0	22	0	158334976	67	4196
2026-01-12 09:56:37.12	162.59	7.70	-50.2	-51.9	14.7	0.00e+00	0	22	0	161480704	67	4162
2026-01-12 09:56:38.12	162.61	7.77	-50.3	-51.9	14.7	0.00e+00	0	22	0	164626432	67	4171
2026-01-12 09:56:39.13	162.63	7.86	-50.3	-52.0	14.6	0.00e+00	0	22	0	167772160	67	4203
2026-01-12 09:56:40.14	162.65	7.94	-50.2	-51.8	14.7	0.00e+00	0	22	0	170917888	67	4140
2026-01-12 09:56:41.14	162.67	8.02	-50.1	-51.7	14.6	0.00e+00	0	22	0	174063616	66	4319
2026-01-12 09:56:42.15	162.69	8.10	-50.0	-51.6	14.6	0.00e+00	0	22	0	177209344	66	4288
2026-01-12 09:56:43.16	162.71	8.18	-50.0	-51.6	14.7	0.00e+00	0	22	0	180355072	66	4257
2026-01-12 09:56:44.16	162.72	8.26	-50.1	-51.8	14.6	0.00e+00	0	22	0	183500800	66	4353
2026-01-12 09:56:45.17	162.74	8.34	-50.0	-51.6	14.7	0.00e+00	0	22	0	186646528	66	4263
2026-01-12 09:56:46.18	162.76	8.42	-50.1	-51.7	14.6	0.00e+00	0	22	0	189792256	66	4320
2026-01-12 09:56:47.18	162.78	8.50	-50.1	-51.7	14.7	0.00e+00	0	22	0	192937984	66	4294
2026-01-12 09:56:48.18	162.80	8.59	-50.0	-51.6	14.7	0.00e+00	0	22	0	196083712	66	4243
2026-01-12 09:56:49.19	162.82	8.67	-50.0	-51.6	14.7	0.00e+00	0	22	0	199229440	66	4278
2026-01-12 09:56:50.20	162.84	8.75	-50.1	-51.7	14.6	0.00e+00	0	22	0	202375168	66	4324
2026-01-12 09:56:51.20	162.86	8.83	-50.0	-51.6	14.7	0.00e+00	0	22	0	205520896	66	4283
2026-01-12 09:56:52.21	162.88	8.92	-50.0	-51.5	14.7	0.00e+00	0	22	0	208666624	66	4241
2026-01-12 09:56:53.22	162.90	9.00	-49.9	-51.4	14.8	0.00e+00	0	22	0	211812352	66	4189
2026-01-12 09:56:54.22	162.92	9.08	-49.9	-51.4	14.8	0.00e+00	0	22	0	214958080	66	4191
2026-01-12 09:56:55.23	162.94	9.17	-49.8	-51.4	14.9	0.00e+00	0	22	0	218103808	66	4146
2026-01-12 09:56:56.24	162.96	9.25	-49.9	-51.4	14.8	0.00e+00	0	22	0	221249536	66	4185
2026-01-12 09:56:57.24	162.98	9.34	-49.8	-51.4	14.8	0.00e+00	0	22	0	224395264	66	4160
2026-01-12 09:56:58.25	163.00	9.42	-49.7	-51.2	14.9	0.00e+00	0	22	0	227540992	66	4088
2026-01-12 09:56:59.26	163.03	9.51	-49.7	-51.2	15.0	0.00e+00	0	22	0	230686720	66	4074
2026-01-12 09:57:00.26	163.05	9.59	-49.7	-51.2	14.9	0.00e+00	0	22	0	233832448	66	4098
2026-01-12 09:57:01.26	163.07	9.68	-49.6	-51.1	14.8	0.00e+00	0	22	0	236978176	65	4258
2026-01-12 09:57:02.27	163.09	9.77	-49.6	-51.1	14.8	0.00e+00	0	22	0	240123904	65	4261
2026-01-12 09:57:03.28	163.11	9.85	-49.5	-51.0	14.9	0.00e+00	0	22	0	243269632	65	4218
2026-01-12 09:57:04.29	163.13	9.94	-49.6	-51.1	14.8	0.00e+00	0	22	0	246415360	65	4259
2026-01-12 09:57:05.29	163.15	10.03	-49.7	-51.2	14.8	0.00e+00	0	22	0	249561088	65	4303
2026-01-12 09:57:06.30	163.17	10.11	-49.5	-51.0	14.9	0.00e+00	0	22	0	252706816	65	4222
2026-01-12 09:57:07.31	163.20	10.20	-49.5	-51.0	14.9	0.00e+00	0	22	0	255852544	65	4196
2026-01-12 09:57:08.31	163.22	10.29	-49.5	-50.9	14.9	0.00e+00	0	22	0	258998272	65	4190
2026-01-12 09:57:09.31	163.24	10.38	-49.3	-50.8	15.0	0.00e+00	0	22	0	262144000	65	4111
2026-01-12 09:57:10.32	163.26	10.47	-49.4	-50.9	15.0	0.00e+00	0	22	0	265289728	65	4158
2026-01-12 09:57:11.33	163.28	10.55	-49.3	-50.8	15.1	0.00e+00	0	22	0	268435456	65	4118
2026-01-12 09:57:12.33	163.30	10.64	-49.3	-50.8	15.1	0.00e+00	0	22	0	271581184	65	4110
2026-01-12 09:57:13.34	163.33	10.73	-49.3	-50.8	15.1	0.00e+00	0	22	0	274726912	65	4101
2026-01-12 09:57:14.35	163.35	10.82	-49.3	-50.7	15.1	0.00e+00	0	22	0	277872640	65	4089
2026-01-12 09:57:15.36	163.37	10.91	-49.4	-50.9	15.0	0.00e+00	0	22	0	281018368	65	4153
2026-01-12 09:57:16.37	163.39	11.00	-49.2	-50.7	15.1	0.00e+00	0	22	0	284164096	65	4062
2026-01-12 09:57:17.38	163.42	11.10	-49.2	-50.6	15.0	0.00e+00	0	22	0	287309824	64	4272
2026-01-12 09:57:18.38	163.44	11.19	-49.1	-50.6	15.0	0.00e+00	0	22	0	290455552	64	4261
2026-01-12 09:57:19.40	163.46	11.28	-49.1	-50.6	15.0	0.00e+00	0	22	0	293601280	64	4260
2026-01-12 09:57:20.41	163.49	11.37	-49.0	-50.5	15.1	0.00e+00	0	22	0	296747008	64	4204
2026-01-12 09:57:21.41	163.51	11.46	-49.1	-50.6	15.0	0.00e+00	0	22	0	299892736	64	4257
2026-01-12 09:57:22.42	163.53	11.56	-49.0	-50.4	15.1	0.00e+00	0	22	0	303038464	64	4186
2026-01-12 09:57:23.43	163.56	11.65	-48.9	-50.4	15.2	0.00e+00	0	22	0	306184192	64	4157
2026-01-12 09:57:24.44	163.58	11.74	-49.1	-50.6	15.0	0.00e+00	0	22	0	309329920	64	4266
2026-01-12 09:57:25.45	163.60	11.84	-48.9	-50.4	15.1	0.00e+00	0	22	0	312475648	64	4161
2026-01-12 09:57:26.45	163.63	11.93	-49.0	-50.4	15.1	0.00e+00	0	22	0	315621376	64	4168
2026-01-12 09:57:27.46	163.65	12.03	-49.0	-50.4	15.1	0.00e+00	0	22	0	318767104	64	4163
2026-01-12 09:57:28.47	163.67	12.12	-48.9	-50.4	15.1	0.00e+00	0	22	0	321912832	64	4146
2026-01-12 09:57:29.48	163.70	12.22	-48.8	-50.2	15.2	0.00e+00	0	22	0	325058560	64	4089
2026-01-12 09:57:30.49	163.72	12.31	-48.8	-50.1	15.3	0.00e+00	0	22	0	328204288	64	4049
2026-01-12 09:57:31.49	163.75	12.41	-48.7	-50.1	15.3	0.00e+00	0	22	0	331350016	64	4030
2026-01-12 09:57:32.50	163.77	12.50	-48.8	-50.1	15.3	0.00e+00	0	22	0	334495744	64	4050
2026-01-12 09:57:33.51	163.80	12.60	-48.7	-50.1	15.3	0.00e+00	0	22	0	337641472	64	4031
2026-01-12 09:57:34.51	163.82	12.70	-48.8	-50.1	15.3	0.00e+00	0	22	0	340787200	64	4044
2026-01-12 09:57:35.52	163.85	12.79	-48.7	-50.0	15.3	0.00e+00	0	22	0	343932928	64	3998
2026-01-12 09:57:36.53	163.87	12.89	-48.6	-49.9	15.2	0.00e+00	0	22	0	347078656	63	4165
2026-01-12 09:57:37.53	163.90	12.99	-48.7	-50.1	15.1	0.00e+00	0	22	0	350224384	63	4263
2026-01-12 09:57:38.54	163.92	13.09	-48.6	-50.0	15.2	0.00e+00	0	22	0	353370112	63	4211
2026-01-12 09:57:39.55	163.95	13.19	-48.7	-50.0	15.2	0.00e+00	0	22	0	356515840	63	4225
2026-01-12 09:57:40.55	163.97	13.29	-48.6	-50.0	15.2	0.00e+00	0	22	0	359661568	63	4212
2026-01-12 09:57:41.56	164.00	13.39	-48.6	-49.9	15.2	0.00e+00	0	22	0	362807296	63	4184
2026-01-12 09:57:42.57	164.03	13.49	-48.6	-49.9	15.2	0.00e+00	0	22	0	365953024	63	4186
2026-01-12 09:57:43.57	164.05	13.59	-48.5	-49.8	15.3	0.00e+00	0	22	0	369098752	63	4137
2026-01-12 09:57:44.57	164.08	13.69	-48.5	-49.8	15.3	0.00e+00	0	22	0	372244480	63	4140
2026-01-12 09:57:45.57	164.10	13.79	-48.5	-49.9	15.3	0.00e+00	0	22	0	375390208	63	4151
2026-01-12 09:57:46.58	164.13	13.89	-48.6	-49.9	15.2	0.00e+00	0	22	0	378535936	63	4165
2026-01-12 09:57:47.59	164.16	13.99	-48.6	-49.9	15.2	0.00e+00	0	22	0	381681664	63	4192
2026-01-12 09:57:48.59	164.18	14.09	-48.5	-49.9	15.3	0.00e+00	0	22	0	384827392	63	4154
2026-01-12 09:57:49.58	164.21	14.20	-48.6	-50.0	15.2	0.00e+00	0	22	0	387973120	63	4194
2026-01-12 09:57:50.59	164.24	14.30	-48.6	-49.9	15.3	0.00e+00	0	22	0	391118848	63	4161
2026-01-12 09:57:51.60	164.27	14.40	-48.6	-50.0	15.2	0.00e+00	0	22	0	394264576	63	4209
2026-01-12 09:57:52.60	164.29	14.51	-48.5	-49.8	15.3	0.00e+00	0	22	0	397410304	63	4141
2026-01-12 09:57:53.60	164.32	14.61	-48.6	-49.9	15.2	0.00e+00	0	22	0	400556032	63	4183
2026-01-12 09:57:54.61	164.35	14.72	-48.6	-50.0	15.2	0.00e+00	0	22	0	403701760	63	4201
2026-01-12 09:57:55.62	164.38	14.82	-48.6	-49.9	15.2	0.00e+00	0	22	0	406847488	63	4187
2026-01-12 09:57:56.62	164.41	14.93	-48.7	-50.1	15.2	0.00e+00	0	22	0	409993216	63	4259
2026-01-12 09:57:57.62	164.43	15.04	-48.7	-50.0	15.2	0.00e+00	0	22	0	413138944	63	4234
2026-01-12 09:57:58.63	164.46	15.14	-48.6	-50.0	15.2	0.00e+00	0	22	0	416284672	63	4205
2026-01-12 09:57:59.64	164.49	15.25	-48.7	-50.0	15.2	0.00e+00	0	22	0	419430400	63	4239
2026-01-12 09:58:00.64	164.52	15.36	-48.7	-50.0	15.2	0.00e+00	0	22	0	422576128	63	4231
2026-01-12 09:58:01.65	164.55	15.47	-48.6	-50.0	15.2	0.00e+00	0	22	0	425721856	63	4204
2026-01-12 09:58:02.65	164.58	15.58	-48.7	-50.0	15.2	0.00e+00	0	22	0	428867584	63	4216
2026-01-12 09:58:03.66	164.61	15.69	-48.7	-50.1	15.2	0.00e+00	0	22	0	432013312	63	4267
2026-01-12 09:58:04.67	164.64	15.80	-48.7	-50.1	15.2	0.00e+00	0	22	0	435159040	63	4254
2026-01-12 09:58:05.67	164.67	15.91	-48.6	-50.0	15.3	0.00e+00	0	22	0	438304768	63	4199
2026-01-12 09:58:06.67	164.70	16.02	-48.7	-50.1	15.2	0.00e+00	0	22	0	441450496	63	4259
2026-01-12 09:58:07.68	164.73	16.13	-48.7	-50.0	15.2	0.00e+00	0	22	0	444596224	63	4237
2026-01-12 09:58:08.68	164.76	16.24	-48.7	-50.0	15.2	0.00e+00	0	22	0	447741952	63	4239
2026-01-12 09:58:09.69	164.79	16.35	-48.7	-50.1	15.2	0.00e+00	0	22	0	450887680	63	4244
2026-01-12 09:58:10.70	164.82	16.46	-48.6	-50.0	15.2	0.00e+00	0	22	0	454033408	63	4205
2026-01-12 09:58:11.70	164.85	16.58	-48.6	-49.9	15.2	0.00e+00	0	22	0	457179136	63	4183
2026-01-12 09:58:12.71	164.88	16.69	-48.7	-50.0	15.2	0.00e+00	0	22	0	460324864	63	4226
2026-01-12 09:58:13.71	164.91	16.81	-48.7	-50.1	15.2	0.00e+00	0	22	0	463470592	63	4257
2026-01-12 09:58:14.71	164.95	16.92	-48.7	-50.0	15.2	0.00e+00	0	22	0	466616320	63	4218
2026-01-12 09:58:15.71	164.98	17.04	-48.7	-50.1	15.2	0.00e+00	0	22	0	469762048	63	4245
2026-01-12 09:58:16.72	165.01	17.15	-48.7	-50.0	15.2	0.00e+00	0	22	0	472907776	63	4223
2026-01-12 09:58:17.71	165.04	17.27	-48.7	-50.0	15.2	0.00e+00	0	22	0	476053504	63	4228
2026-01-12 09:58:18.70	165.07	17.38	-48.7	-50.0	15.2	0.00e+00	0	22	0	479199232	63	4234
2026-01-12 09:58:19.69	165.11	17.50	-48.6	-50.0	15.2	0.00e+00	0	22	0	482344960	63	4196
2026-01-12 09:58:20.68	165.14	17.61	-48.7	-50.0	15.2	0.00e+00	0	22	0	485490688	63	4225
2026-01-12 09:58:21.68	165.17	17.73	-48.7	-50.0	15.2	0.00e+00	0	22	0	488636416	63	4237
2026-01-12 09:58:22.67	165.21	17.85	-48.6	-50.0	15.2	0.00e+00	0	22	0	491782144	63	4201
2026-01-12 09:58:23.67	165.24	17.97	-48.7	-50.0	15.2	0.00e+00	0	22	0	494927872	63	4224
2026-01-12 09:58:24.68	165.27	18.09	-48.7	-50.0	15.2	0.00e+00	0	22	0	498073600	63	4237
2026-01-12 09:58:25.68	165.31	18.21	-48.7	-50.0	15.2	0.00e+00	0	22	0	501219328	63	4226
2026-01-12 09:58:26.68	165.34	18.33	-48.7	-50.0	15.2	0.00e+00	0	22	0	504365056	63	4229
2026-01-12 09:58:27.68	165.38	18.45	-48.7	-50.0	15.2	0.00e+00	0	22	0	507510784	63	4236
2026-01-12 09:58:28.68	165.41	18.58	-48.7	-50.1	15.2	0.00e+00	0	22	0	510656512	63	4252
2026-01-12 09:58:29.68	165.45	18.70	-48.8	-50.1	15.2	0.00e+00	0	22	0	513802240	63	4267
2026-01-12 09:58:30.67	165.48	18.82	-48.7	-50.0	15.2	0.00e+00	0	22	0	515899392	63	4211
2026-01-12 09:58:31.67	165.52	18.94	-48.6	-49.9	15.3	0.00e+00	0	22	0	519045120	63	4182
2026-01-12 09:58:32.66	165.55	19.07	-48.5	-49.8	15.3	0.00e+00	0	22	0	522190848	63	4113
2026-01-12 09:58:33.66	165.59	19.19	-48.5	-49.8	15.3	0.00e+00	0	22	0	525336576	63	4116
2026-01-12 09:58:34.67	165.62	19.32	-48.5	-49.8	15.3	0.00e+00	0	22	0	528482304	63	4133
2026-01-12 09:58:35.66	165.66	19.44	-48.4	-49.7	15.4	0.00e+00	0	22	0	531628032	63	4058
2026-01-12 09:58:36.65	165.70	19.57	-48.5	-49.8	15.4	0.00e+00	0	22	0	534773760	63	4104
2026-01-12 09:58:37.65	165.73	19.70	-48.3	-49.6	15.4	0.00e+00	0	22	0	537919488	63	4028
2026-01-12 09:58:38.65	165.77	19.83	-48.4	-49.7	15.4	0.00e+00	0	22	0	541065216	63	4069
2026-01-12 09:58:39.64	165.81	19.95	-48.4	-49.6	15.4	0.00e+00	0	22	0	544210944	63	4049
2026-01-12 09:58:40.64	165.85	20.08	-48.4	-49.6	15.4	0.00e+00	0	22	0	547356672	63	4036
2026-01-12 09:58:41.63	165.89	20.21	-48.2	-49.5	15.5	0.00e+00	0	22	0	550502400	63	3974
2026-01-12 09:58:42.63	165.92	20.34	-48.1	-49.3	15.4	0.00e+00	0	22	0	553648128	62	4141
2026-01-12 09:58:43.62	165.96	20.47	-48.1	-49.3	15.4	0.00e+00	0	22	0	556793856	62	4131
2026-01-12 09:58:44.61	166.00	20.61	-48.2	-49.4	15.4	0.00e+00	0	22	0	559939584	62	4188
2026-01-12 09:58:45.61	166.04	20.74	-48.0	-49.2	15.5	0.00e+00	0	22	0	563085312	62	4068
2026-01-12 09:58:46.61	166.08	20.87	-48.0	-49.3	15.5	0.00e+00	0	22	0	566231040	62	4099
2026-01-12 09:58:47.61	166.12	21.01	-48.0	-49.2	15.5	0.00e+00	0	22	0	569376768	62	4067
2026-01-12 09:58:48.61	166.16	21.14	-47.9	-49.1	15.6	0.00e+00	0	22	0	572522496	62	4013
2026-01-12 09:58:49.61	166.20	21.28	-47.8	-48.9	15.6	0.00e+00	0	22	0	575668224	62	3955
2026-01-12 09:58:50.60	166.24	21.41	-47.7	-48.9	15.6	0.00e+00	0	22	0	578813952	62	3951
2026-01-12 09:58:51.60	166.28	21.55	-47.7	-48.9	15.5	0.00e+00	0	22	0	581959680	61	4151
2026-01-12 09:58:52.60	166.33	21.69	-47.6	-48.8	15.5	0.00e+00	0	22	0	585105408	61	4121
2026-01-12 09:58:53.60	166.37	21.83	-47.5	-48.7	15.5	0.00e+00	0	22	0	588251136	61	4084
2026-01-12 09:58:54.58	166.41	21.96	-47.5	-48.7	15.5	0.00e+00	0	22	0	591396864	61	4089
2026-01-12 09:58:55.58	166.45	22.10	-47.5	-48.7	15.6	0.00e+00	0	22	0	594542592	61	4061
2026-01-12 09:58:56.58	166.49	22.25	-47.5	-48.6	15.6	0.00e+00	0	22	0	597688320	61	4043
2026-01-12 09:58:57.57	166.54	22.39	-47.5	-48.6	15.6	0.00e+00	0	22	0	600834048	61	4047
2026-01-12 09:58:58.57	166.58	22.53	-47.5	-48.7	15.5	0.00e+00	0	22	0	603979776	61	4053
2026-01-12 09:58:59.57	166.63	22.67	-47.4	-48.5	15.6	0.00e+00	0	22	0	607125504	61	4000
2026-01-12 09:59:00.57	166.67	22.82	-47.4	-48.6	15.6	0.00e+00	0	22	0	610271232	61	4006
2026-01-12 09:59:01.58	166.72	22.96	-47.2	-48.4	15.7	0.00e+00	0	22	0	613416960	61	3936
2026-01-12 09:59:02.58	166.76	23.11	-47.3	-48.4	15.7	0.00e+00	0	22	0	616562688	61	3953
2026-01-12 09:59:03.57	166.81	23.25	-47.2	-48.3	15.7	0.00e+00	0	22	0	619708416	61	3912
2026-01-12 09:59:04.57	166.85	23.40	-47.1	-48.3	15.6	0.00e+00	0	22	0	622854144	60	4111
2026-01-12 09:59:05.58	166.90	23.55	-47.2	-48.3	15.6	0.00e+00	0	22	0	624951296	60	4141
2026-01-12 09:59:06.57	166.95	23.70	-47.1	-48.3	15.6	0.00e+00	0	22	0	628097024	60	4101
2026-01-12 09:59:07.57	166.99	23.85	-47.0	-48.2	15.6	0.00e+00	0	22	0	631242752	60	4060
2026-01-12 09:59:08.57	167.04	24.00	-47.1	-48.2	15.6	0.00e+00	0	22	0	634388480	60	4081
2026-01-12 09:59:09.57	167.09	24.15	-47.1	-48.3	15.6	0.00e+00	0	22	0	637534208	60	4125
2026-01-12 09:59:10.57	167.14	24.30	-47.1	-48.3	15.6	0.00e+00	0	22	0	640679936	60	4122
2026-01-12 09:59:11.57	167.19	24.46	-47.1	-48.2	15.6	0.00e+00	0	22	0	643825664	60	4082
2026-01-12 09:59:12.57	167.24	24.61	-47.1	-48.3	15.6	0.00e+00	0	22	0	646971392	60	4107
2026-01-12 09:59:13.57	167.29	24.77	-47.2	-48.3	15.6	0.00e+00	0	22	0	650117120	60	4126
2026-01-12 09:59:14.57	167.34	24.92	-47.2	-48.4	15.5	0.00e+00	0	22	0	653262848	60	4166
2026-01-12 09:59:15.56	167.39	25.08	-47.3	-48.5	15.5	0.00e+00	0	22	0	656408576	60	4216
2026-01-12 09:59:16.57	167.44	25.24	-47.4	-48.6	15.5	0.00e+00	0	22	0	659554304	60	4243
2026-01-12 09:59:17.57	167.49	25.40	-47.4	-48.6	15.5	0.00e+00	0	22	0	662700032	60	4253
2026-01-12 09:59:18.56	167.54	25.55	-47.5	-48.7	15.4	0.00e+00	0	22	0	665845760	60	4294
2026-01-12 09:59:19.56	167.59	25.72	-47.5	-48.7	15.4	0.00e+00	0	22	0	668991488	60	4329
2026-01-12 09:59:20.56	167.65	25.88	-47.7	-48.9	15.4	0.00e+00	0	22	0	672137216	60	4401
2026-01-12 09:59:21.57	167.70	26.04	-47.8	-48.9	15.3	0.00e+00	0	22	0	675282944	60	4437
2026-01-12 09:59:22.58	167.76	26.21	-47.9	-49.1	15.3	0.00e+00	0	22	0	678428672	60	4510
2026-01-12 09:59:23.59	167.81	26.37	-47.9	-49.2	15.3	0.00e+00	0	22	0	681574400	61	4299
2026-01-12 09:59:24.59	167.87	26.54	-48.0	-49.3	15.3	0.00e+00	0	22	0	684720128	61	4355
2026-01-12 09:59:25.60	167.92	26.71	-48.1	-49.3	15.3	0.00e+00	0	22	0	687865856	61	4390
2026-01-12 09:59:26.61	167.98	26.88	-48.2	-49.5	15.2	0.00e+00	0	22	0	691011584	61	4452
2026-01-12 09:59:27.62	168.04	27.05	-48.4	-49.6	15.2	0.00e+00	0	22	0	694157312	61	4520
2026-01-12 09:59:28.63	168.10	27.22	-48.4	-49.6	15.2	0.00e+00	0	22	0	697303040	61	4525
2026-01-12 09:59:29.63	168.16	27.39	-48.4	-49.6	15.3	0.00e+00	0	22	0	700448768	62	4288
2026-01-12 09:59:30.64	168.21	27.56	-48.5	-49.8	15.2	0.00e+00	0	22	0	703594496	62	4369
2026-01-12 09:59:31.65	168.27	27.74	-48.6	-49.9	15.2	0.00e+00	0	22	0	706740224	62	4407
2026-01-12 09:59:32.66	168.33	27.91	-48.6	-49.9	15.2	0.00e+00	0	22	0	709885952	62	4426
2026-01-12 09:59:33.67	168.40	28.09	-48.6	-49.9	15.2	0.00e+00	0	22	0	713031680	62	4416
2026-01-12 09:59:34.67	168.46	28.26	-48.6	-49.9	15.2	0.00e+00	0	22	0	716177408	62	4394
2026-01-12 09:59:35.68	168.52	28.44	-48.6	-49.9	15.1	0.00e+00	0	22	0	719323136	62	4423
2026-01-12 09:59:36.69	168.58	28.62	-48.6	-49.9	15.2	0.00e+00	0	22	0	722468864	62	4409
2026-01-12 09:59:37.70	168.65	28.80	-48.5	-49.8	15.2	0.00e+00	0	22	0	725614592	62	4356
2026-01-12 09:59:38.71	168.71	28.99	-48.5	-49.8	15.2	0.00e+00	0	22	0	728760320	62	4370
2026-01-12 09:59:39.72	168.78	29.17	-48.5	-49.8	15.2	0.00e+00	0	22	0	731906048	62	4346
2026-01-12 09:59:40.73	168.84	29.35	-48.4	-49.7	15.3	0.00e+00	0	22	0	735051776	62	4316
2026-01-12 09:59:41.74	168.91	29.54	-48.4	-49.6	15.3	0.00e+00	0	22	0	738197504	62	4289
2026-01-12 09:59:42.74	168.98	29.72	-48.4	-49.6	15.3	0.00e+00	0	22	0	741343232	62	4272
2026-01-12 09:59:43.75	169.04	29.91	-48.3	-49.6	15.3	0.00e+00	0	22	0	744488960	62	4257
2026-01-12 09:59:44.76	169.11	30.10	-48.3	-49.5	15.4	0.00e+00	0	22	0	747634688	62	4220
2026-01-12 09:59:45.77	169.18	30.29	-48.2	-49.4	15.4	0.00e+00	0	22	0	750780416	62	4158
2026-01-12 09:59:46.77	169.25	30.48	-48.2	-49.4	15.4	0.00e+00	0	22	0	753926144	62	4178
2026-01-12 09:59:47.78	169.32	30.68	-48.1	-49.3	15.4	0.00e+00	0	22	0	757071872	62	4133
2026-01-12 09:59:48.79	169.39	30.87	-48.0	-49.3	15.5	0.00e+00	0	22	0	760217600	62	4100
2026-01-12 09:59:49.79	169.47	31.06	-48.1	-49.3	15.4	0.00e+00	0	22	0	763363328	62	4143
2026-01-12 09:59:50.79	169.54	31.26	-48.1	-49.4	15.4	0.00e+00	0	22	0	766509056	62	4152
2026-01-12 09:59:51.80	169.61	31.46	-48.0	-49.2	15.5	0.00e+00	0	22	0	769654784	62	4072
2026-01-12 09:59:52.81	169.69	31.66	-48.1	-49.3	15.4	0.00e+00	0	22	0	772800512	62	4139
2026-01-12 09:59:53.82	169.76	31.86	-48.1	-49.3	15.4	0.00e+00	0	22	0	775946240	62	4117
2026-01-12 09:59:54.83	169.84	32.06	-48.0	-49.2	15.5	0.00e+00	0	22	0	779091968	62	4097
2026-01-12 09:59:55.84	169.92	32.26	-48.0	-49.2	15.5	0.00e+00	0	22	0	782237696	62	4092
2026-01-12 09:59:56.84	170.00	32.46	-48.1	-49.3	15.4	0.00e+00	0	22	0	785383424	62	4116
2026-01-12 09:59:57.85	170.08	32.67	-48.1	-49.4	15.4	0.00e+00	0	22	0	788529152	62	4159
2026-01-12 09:59:58.85	170.16	32.87	-48.2	-49.5	15.4	0.00e+00	0	22	0	791674880	62	4211
2026-01-12 09:59:59.86	170.24	33.08	-48.2	-49.5	15.4	0.00e+00	0	22	0	794820608	62	4202
2026-01-12 10:00:00.87	170.32	33.29	-48.3	-49.6	15.3	0.00e+00	0	22	0	797966336	62	4243
2026-01-12 10:00:01.88	170.41	33.50	-48.5	-49.8	15.2	0.00e+00	0	22	0	801112064	62	4356
2026-01-12 10:00:02.89	170.49	33.72	-48.6	-49.9	15.2	0.00e+00	0	22	0	804257792	62	4423
2026-01-12 10:00:03.89	170.58	33.93	-48.8	-50.1	15.1	0.00e+00	0	22	0	807403520	62	4539
2026-01-12 10:00:04.90	170.66	34.15	-48.9	-50.2	15.1	0.00e+00	0	22	0	810549248	62	4568
2026-01-12 10:00:05.90	170.75	34.36	-49.0	-50.4	15.1	0.00e+00	0	22	0	813694976	63	4397
2026-01-12 10:00:06.91	170.84	34.58	-49.1	-50.5	15.1	0.00e+00	0	22	0	816840704	63	4447
2026-01-12 10:00:07.91	170.93	34.80	-49.2	-50.5	15.0	0.00e+00	0	22	0	819986432	63	4459
2026-01-12 10:00:08.91	171.02	35.02	-49.3	-50.6	15.0	0.00e+00	0	22	0	823132160	63	4515
2026-01-12 10:00:09.92	171.11	35.24	-49.5	-50.9	15.0	0.00e+00	0	22	0	826277888	64	4402
2026-01-12 10:00:10.93	171.21	35.46	-49.6	-51.0	14.9	0.00e+00	0	22	0	829423616	64	4474
2026-01-12 10:00:11.94	171.30	35.69	-49.8	-51.2	14.8	0.00e+00	0	22	0	832569344	64	4590
2026-01-12 10:00:12.94	171.40	35.91	-50.0	-51.4	14.8	0.00e+00	0	22	0	835715072	65	4413
2026-01-12 10:00:13.95	171.49	36.14	-50.2	-51.7	14.7	0.00e+00	0	23	0	838860800	65	4593
2026-01-12 10:00:14.96	171.59	36.37	-50.4	-52.0	14.5	0.00e+00	0	22	0	842006528	65	4715
2026-01-12 10:00:15.96	171.69	36.60	-50.7	-52.3	14.5	0.00e+00	0	22	0	845152256	66	4617
2026-01-12 10:00:16.97	171.79	36.84	-50.9	-52.5	14.3	0.00e+00	0	22	0	848297984	66	4756
2026-01-12 10:00:17.98	171.90	37.07	-51.1	-52.8	14.3	0.00e+00	0	22	0	851443712	67	4632
2026-01-12 10:00:18.99	172.00	37.31	-51.2	-52.9	14.3	0.00e+00	0	22	0	854589440	67	4664
2026-01-12 10:00:20.00	172.11	37.55	-51.3	-53.0	14.2	0.00e+00	0	22	0	857735168	67	4723
2026-01-12 10:00:21.01	172.22	37.79	-51.2	-52.9	14.3	0.00e+00	0	22	0	860880896	67	4670
2026-01-12 10:00:22.02	172.33	38.03	-51.2	-52.8	14.3	0.00e+00	0	22	0	864026624	67	4650
2026-01-12 10:00:23.03	172.44	38.27	-50.9	-52.5	14.5	0.00e+00	0	22	0	867172352	67	4456
2026-01-12 10:00:24.03	172.55	38.52	-50.7	-52.2	14.7	0.00e+00	0	22	0	870318080	67	4335
2026-01-12 10:00:25.03	172.66	38.76	-50.7	-52.3	14.6	0.00e+00	0	22	0	873463808	67	4344
2026-01-12 10:00:26.03	172.78	39.01	-50.6	-52.1	14.7	0.00e+00	0	22	0	876609536	67	4286
2026-01-12 10:00:27.04	172.89	39.26	-50.7	-52.3	14.7	0.00e+00	0	22	0	879755264	67	4357
2026-01-12 10:00:28.05	173.01	39.51	-50.8	-52.4	14.6	0.00e+00	0	23	0	882900992	67	4413
2026-01-12 10:00:29.06	173.13	39.76	-50.9	-52.5	14.5	0.00e+00	0	22	0	886046720	67	4477
2026-01-12 10:00:30.06	173.25	40.01	-50.7	-52.3	14.6	0.00e+00	0	22	0	889192448	67	4362
2026-01-12 10:00:31.07	173.38	40.27	-50.7	-52.2	14.7	0.00e+00	0	22	0	892338176	67	4336
2026-01-12 10:00:32.08	173.51	40.53	-50.6	-52.1	14.8	0.00e+00	0	22	0	895483904	67	4259
2026-01-12 10:00:33.09	173.63	40.79	-50.5	-52.0	14.8	0.00e+00	0	22	0	898629632	67	4225
2026-01-12 10:00:34.10	173.76	41.05	-50.5	-52.0	14.8	0.00e+00	0	22	0	901775360	67	4214
2026-01-12 10:00:35.11	173.90	41.31	-50.5	-52.0	14.8	0.00e+00	0	22	0	904921088	67	4229
2026-01-12 10:00:36.11	174.03	41.58	-50.7	-52.3	14.6	0.00e+00	0	22	0	908066816	67	4363
2026-01-12 10:00:37.12	174.17	41.84	-50.6	-52.1	14.8	0.00e+00	0	22	0	911212544	67	4280
2026-01-12 10:00:38.12	174.30	42.11	-50.6	-52.1	14.8	0.00e+00	0	22	0	914358272	67	4259
2026-01-12 10:00:39.13	174.45	42.38	-50.6	-52.2	14.7	0.00e+00	0	22	0	917504000	67	4297
2026-01-12 10:00:40.14	174.59	42.65	-50.6	-52.1	14.7	0.00e+00	0	22	0	920649728	67	4269
2026-01-12 10:00:41.15	174.74	42.93	-50.5	-51.9	14.9	0.00e+00	0	22	0	923795456	67	4177
2026-01-12 10:00:42.16	174.88	43.20	-50.4	-51.9	14.9	0.00e+00	0	23	0	926941184	67	4149
2026-01-12 10:00:43.17	175.03	43.48	-50.2	-51.6	14.8	0.00e+00	0	22	0	930086912	66	4278
2026-01-12 10:00:44.17	175.19	43.76	-50.3	-51.8	14.8	0.00e+00	0	22	0	933232640	66	4379
2026-01-12 10:00:45.18	175.34	44.04	-50.3	-51.7	14.8	0.00e+00	0	22	0	936378368	66	4326
2026-01-12 10:00:46.17	175.50	44.32	-50.4	-51.9	14.7	0.00e+00	0	22	0	939524096	66	4428
2026-01-12 10:00:47.18	175.66	44.60	-50.4	-51.9	14.7	0.00e+00	0	23	0	942669824	66	4435
2026-01-12 10:00:48.19	175.82	44.89	-50.5	-52.0	14.6	0.00e+00	0	22	0	945815552	66	4478
2026-01-12 10:00:49.20	175.99	45.18	-50.4	-51.9	14.7	0.00e+00	0	22	0	948961280	66	4397
2026-01-12 10:00:50.21	176.16	45.47	-50.5	-51.9	14.7	0.00e+00	0	22	0	952107008	66	4436
2026-01-12 10:00:51.21	176.33	45.76	-50.3	-51.8	14.8	0.00e+00	0	23	0	955252736	66	4363
2026-01-12 10:00:52.21	176.51	46.05	-50.2	-51.6	14.9	0.00e+00	0	23	0	958398464	66	4256
2026-01-12 10:00:53.22	176.69	46.35	-50.0	-51.5	15.0	0.00e+00	0	22	0	961544192	66	4198
2026-01-12 10:00:54.23	176.87	46.64	-50.0	-51.4	15.0	0.00e+00	0	22	0	964689920	66	4165
2026-01-12 10:00:55.24	177.06	46.94	-49.9	-51.3	15.1	0.00e+00	0	22	0	967835648	66	4109
2026-01-12 10:00:56.25	177.25	47.25	-49.9	-51.3	15.0	0.00e+00	0	22	0	970981376	66	4119
2026-01-12 10:00:57.25	177.44	47.55	-49.8	-51.2	15.1	0.00e+00	0	22	0	974127104	66	4084
2026-01-12 10:00:58.26	177.64	47.85	-49.9	-51.2	15.1	0.00e+00	0	23	0	977272832	66	4092
2026-01-12 10:00:59.26	177.84	48.16	-49.9	-51.3	15.1	0.00e+00	0	23	0	980418560	66	4110
2026-01-12 10:01:00.26	178.04	48.46	-49.7	-51.1	15.2	0.00e+00	0	22	0	983564288	66	4018
2026-01-12 10:01:01.27	178.25	48.77	-50.0	-51.4	15.0	0.00e+00	0	22	0	986710016	66	4148
2026-01-12 10:01:02.28	178.46	49.08	-50.0	-51.4	15.0	0.00e+00	0	22	0	989855744	66	4172
2026-01-12 10:01:03.29	178.68	49.40	-50.1	-51.5	14.9	0.00e+00	0	23	0	993001472	66	4241
2026-01-12 10:01:04.30	178.90	49.71	-50.2	-51.7	14.8	0.00e+00	0	22	0	996147200	66	4325
2026-01-12 10:01:05.31	179.13	50.03	-50.4	-52.0	14.7	0.00e+00	0	22	0	999292928	66	4442
2026-01-12 10:01:06.32	179.36	50.35	-50.5	-52.1	14.6	0.00e+00	0	22	0	1002438656	66	4509
2026-01-12 10:01:07.33	179.60	50.67	-50.5	-52.1	14.6	0.00e+00	0	22	0	1005584384	66	4519
2026-01-12 10:01:08.34	179.84	51.00	-50.4	-52.0	14.7	0.00e+00	0	22	0	1008730112	66	4459
2026-01-12 10:01:09.34	180.08	51.32	-50.3	-51.8	14.8	0.00e+00	0	22	0	1011875840	66	4342
2026-01-12 10:01:10.35	180.34	51.64	-50.0	-51.4	15.0	0.00e+00	0	23	0	1015021568	66	4191
2026-01-12 10:01:11.36	180.59	51.97	-49.9	-51.4	15.0	0.00e+00	0	22	0	1018167296	66	4153
2026-01-12 10:01:12.37	180.86	52.30	-49.9	-51.3	15.0	0.00e+00	0	22	0	1021313024	66	4141
2026-01-12 10:01:13.37	181.12	52.63	-49.9	-51.3	15.1	0.00e+00	0	22	0	1024458752	66	4104
2026-01-12 10:01:14.38	181.40	52.96	-49.8	-51.1	15.2	0.00e+00	0	22	0	1027604480	66	4051
2026-01-12 10:01:15.39	181.68	53.30	-49.4	-50.8	15.2	0.00e+00	0	23	0	1030750208	65	4105
2026-01-12 10:01:16.40	181.97	53.63	-48.9	-50.2	15.3	0.00e+00	0	22	0	1033895936	64	4079
2026-01-12 10:01:17.41	182.26	53.97	-48.6	-49.9	15.4	0.00e+00	0	22	0	1037041664	63	4153
2026-01-12 10:01:18.42	182.56	54.31	-48.2	-49.4	15.6	0.00e+00	0	22	0	1040187392	63	3941
2026-01-12 10:01:19.42	182.87	54.65	-47.8	-48.9	15.6	0.00e+00	0	23	0	1043333120	62	3949
2026-01-12 10:01:20.43	183.18	54.99	-47.8	-49.0	15.6	0.00e+00	0	23	0	1046478848	62	3980
2026-01-12 10:01:21.44	183.50	55.33	-47.6	-48.8	15.6	0.00e+00	0	22	0	1049624576	61	4107
2026-01-12 10:01:22.44	183.83	55.67	-47.5	-48.6	15.6	0.00e+00	0	22	0	1052770304	61	4049
2026-01-12 10:01:23.45	184.17	56.02	-47.5	-48.7	15.6	0.00e+00	0	22	0	1055916032	61	4061
2026-01-12 10:01:24.46	184.52	56.36	-47.5	-48.7	15.6	0.00e+00	0	22	0	1059061760	61	4052
2026-01-12 10:01:25.47	184.87	56.71	-47.5	-48.7	15.6	0.00e+00	0	22	0	1062207488	61	4056
2026-01-12 10:01:26.47	185.24	57.06	-47.6	-48.8	15.6	0.00e+00	0	22	0	1065353216	61	4120
2026-01-12 10:01:27.47	185.61	57.40	-47.7	-48.9	15.5	0.00e+00	0	23	0	1068498944	61	4155
2026-01-12 10:01:28.48	185.99	57.76	-47.8	-49.0	15.5	0.00e+00	0	22	0	1071644672	61	4223
2026-01-12 10:01:29.49	186.38	58.11	-47.6	-48.8	15.5	0.00e+00	0	22	0	1074790400	61	4128
2026-01-12 10:01:30.49	186.78	58.46	-47.4	-48.6	15.6	0.00e+00	0	22	0	1077936128	61	4028
2026-01-12 10:01:31.49	187.19	58.81	-47.4	-48.5	15.7	0.00e+00	0	22	0	1081081856	61	3985
2026-01-12 10:01:32.50	187.62	59.16	-47.0	-48.1	15.7	0.00e+00	0	22	0	1084227584	60	4044
2026-01-12 10:01:33.50	188.05	59.51	-47.1	-48.2	15.7	0.00e+00	0	22	0	1087373312	60	4056
2026-01-12 10:01:34.50	188.50	59.87	-47.1	-48.2	15.6	0.00e+00	0	22	0	1090519040	60	4071
2026-01-12 10:01:35.51	188.96	60.22	-46.9	-48.0	15.7	0.00e+00	0	22	0	1093664768	60	3984
2026-01-12 10:01:36.51	189.43	60.57	-46.8	-47.9	15.8	0.00e+00	0	22	0	1096810496	60	3927
2026-01-12 10:01:37.51	189.91	60.93	-46.9	-48.0	15.6	0.00e+00	0	22	0	1099956224	59	4210
2026-01-12 10:01:38.51	190.41	61.28	-47.0	-48.1	15.6	0.00e+00	0	23	0	1103101952	59	4249
2026-01-12 10:01:39.51	190.92	61.63	-46.7	-47.7	15.7	0.00e+00	0	22	0	1106247680	59	4098
2026-01-12 10:01:40.51	191.44	61.98	-46.6	-47.6	15.7	0.00e+00	0	22	0	1109393408	59	4050
2026-01-12 10:01:41.50	191.98	62.33	-46.6	-47.7	15.7	0.00e+00	0	22	0	1112539136	59	4069
2026-01-12 10:01:42.50	192.54	62.69	-46.6	-47.7	15.7	0.00e+00	0	22	0	1115684864	59	4052
2026-01-12 10:01:43.50	193.11	63.04	-46.5	-47.6	15.8	0.00e+00	0	22	0	1118830592	59	4018
2026-01-12 10:01:44.50	193.70	63.39	-46.8	-47.9	15.6	0.00e+00	0	22	0	1121976320	59	4182
2026-01-12 10:01:45.50	194.30	63.74	-47.2	-48.4	15.5	0.00e+00	0	22	0	1125122048	59	4393
2026-01-12 10:01:46.49	194.92	64.08	-47.1	-48.2	15.6	0.00e+00	0	22	0	1128267776	60	4066
2026-01-12 10:01:47.50	195.57	64.44	-47.0	-48.1	15.7	0.00e+00	0	22	0	1131413504	60	4030
2026-01-12 10:01:48.50	196.24	64.78	-47.0	-48.1	15.7	0.00e+00	0	22	0	1134559232	60	4020
2026-01-12 10:01:49.49	196.91	65.12	-46.9	-48.0	15.7	0.00e+00	0	22	0	1137704960	60	4003
2026-01-12 10:01:50.49	197.62	65.47	-47.1	-48.3	15.6	0.00e+00	0	23	0	1140850688	60	4118
2026-01-12 10:01:51.49	198.35	65.81	-47.1	-48.3	15.6	0.00e+00	0	23	0	1143996416	60	4123
2026-01-12 10:01:52.49	199.10	66.15	-47.2	-48.4	15.6	0.00e+00	0	23	0	1147142144	60	4153
2026-01-12 10:01:53.49	199.87	66.49	-47.1	-48.2	15.7	0.00e+00	0	22	0	1150287872	60	4092
2026-01-12 10:01:54.49	200.67	66.82	-47.0	-48.2	15.6	0.00e+00	0	22	0	1153433600	60	4062
2026-01-12 10:01:55.49	201.49	67.15	-47.2	-48.4	15.6	0.00e+00	0	22	0	1156579328	60	4148
2026-01-12 10:01:56.49	202.34	67.48	-47.4	-48.5	15.5	0.00e+00	0	22	0	1159725056	60	4232
2026-01-12 10:01:57.50	203.23	67.81	-47.6	-48.7	15.5	0.00e+00	0	22	0	1162870784	60	4335
2026-01-12 10:01:58.51	204.15	68.13	-47.3	-48.5	15.6	0.00e+00	0	22	0	1166016512	60	4209
2026-01-12 10:01:59.52	205.09	68.45	-47.3	-48.5	15.6	0.00e+00	0	22	0	1169162240	60	4202
2026-01-12 10:02:00.52	206.05	68.77	-47.4	-48.5	15.5	0.00e+00	0	22	0	1172307968	60	4239
2026-01-12 10:02:01.53	207.06	69.08	-47.3	-48.5	15.6	0.00e+00	0	22	0	1175453696	60	4210
2026-01-12 10:02:02.54	208.10	69.38	-47.3	-48.5	15.5	0.00e+00	0	22	0	1178599424	60	4230
2026-01-12 10:02:03.55	209.17	69.69	-47.4	-48.5	15.6	0.00e+00	0	22	0	1181745152	60	4225
2026-01-12 10:02:04.56	210.28	69.98	-47.1	-48.2	15.6	0.00e+00	0	22	0	1184890880	60	4080
2026-01-12 10:02:05.56	211.41	70.27	-46.9	-48.0	15.7	0.00e+00	0	22	0	1188036608	60	3977
2026-01-12 10:02:06.56	212.57	70.55	-46.7	-47.8	15.8	0.00e+00	0	22	0	1191182336	60	3896
2026-01-12 10:02:07.57	213.78	70.82	-47.2	-48.4	15.5	0.00e+00	0	22	0	1194328064	59	4406
2026-01-12 10:02:08.57	215.02	71.09	-47.4	-48.5	15.5	0.00e+00	0	22	0	1197473792	59	4471
2026-01-12 10:02:09.58	216.30	71.35	-47.1	-48.3	15.6	0.00e+00	0	22	0	1200619520	60	4102
2026-01-12 10:02:10.58	217.61	71.59	-47.1	-48.2	15.6	0.00e+00	0	22	0	1203765248	60	4071
2026-01-12 10:02:11.59	218.97	71.84	-47.4	-48.6	15.5	0.00e+00	0	22	0	1206910976	60	4256
2026-01-12 10:02:12.60	220.37	72.07	-47.5	-48.6	15.5	0.00e+00	0	22	0	1210056704	60	4271
2026-01-12 10:02:13.61	221.81	72.29	-47.4	-48.6	15.5	0.00e+00	0	22	0	1213202432	60	4254
2026-01-12 10:02:14.61	223.27	72.50	-47.2	-48.3	15.6	0.00e+00	0	22	0	1216348160	60	4119
2026-01-12 10:02:15.61	224.77	72.70	-47.3	-48.5	15.5	0.00e+00	0	22	0	1219493888	60	4198
2026-01-12 10:02:16.61	226.30	72.89	-47.6	-48.8	15.5	0.00e+00	0	22	0	1222639616	60	4354
2026-01-12 10:02:17.63	227.90	73.07	-47.3	-48.5	15.6	0.00e+00	0	22	0	1225785344	60	4208
2026-01-12 10:02:18.63	229.50	73.24	-47.6	-48.8	15.5	0.00e+00	0	22	0	1228931072	60	4346
2026-01-12 10:02:19.64	231.15	73.39	-47.7	-48.9	15.4	0.00e+00	0	22	0	1232076800	60	4417
2026-01-12 10:02:20.65	232.83	73.53	-47.3	-48.5	15.6	0.00e+00	0	22	0	1235222528	60	4199
2026-01-12 10:02:21.66	234.54	73.66	-47.2	-48.4	15.6	0.00e+00	0	22	0	1238368256	60	4156
2026-01-12 10:02:22.67	236.27	73.78	-47.3	-48.4	15.6	0.00e+00	0	22	0	1241513984	60	4182
2026-01-12 10:02:23.68	238.03	73.88	-47.1	-48.3	15.7	0.00e+00	0	22	0	1244659712	60	4103
2026-01-12 10:02:24.68	239.79	73.96	-46.7	-47.8	15.8	0.00e+00	0	22	0	1247805440	60	3883
2026-01-12 10:02:25.69	241.59	74.03	-46.8	-47.9	15.8	0.00e+00	0	22	0	1250951168	60	3948
2026-01-12 10:02:26.70	243.41	74.08	-46.9	-48.0	15.7	0.00e+00	0	22	0	1254096896	60	3977
2026-01-12 10:02:27.70	245.21	74.12	-47.1	-48.2	15.7	0.00e+00	0	22	0	1257242624	60	4090
2026-01-12 10:02:28.71	247.04	74.15	-47.2	-48.3	15.6	0.00e+00	0	22	0	1260388352	60	4121
2026-01-12 10:02:29.71	248.86	74.16	-47.0	-48.1	15.7	0.00e+00	0	22	0	1263534080	60	4015
2026-01-12 10:02:30.72	250.70	74.15	-46.8	-47.9	15.8	0.00e+00	0	22	0	1266679808	60	3940
2026-01-12 10:02:31.72	252.51	74.13	-47.0	-48.1	15.7	0.00e+00	0	22	0	1269825536	60	4016
2026-01-12 10:02:32.72	254.32	74.09	-47.1	-48.2	15.7	0.00e+00	0	22	0	1272971264	60	4075
2026-01-12 10:02:33.73	256.14	74.04	-47.3	-48.5	15.6	0.00e+00	0	22	0	1276116992	60	4198
2026-01-12 10:02:34.74	257.94	73.97	-47.0	-48.1	15.7	0.00e+00	0	22	0	1279262720	60	4014
2026-01-12 10:02:35.75	259.72	73.89	-46.9	-48.0	15.8	0.00e+00	0	22	0	1282408448	60	3961
2026-01-12 10:02:36.75	261.47	73.80	-46.9	-48.0	15.8	0.00e+00	0	22	0	1285554176	60	3975
2026-01-12 10:02:37.76	263.21	73.68	-47.3	-48.4	15.6	0.00e+00	0	22	0	1288699904	60	4188
2026-01-12 10:02:38.77	264.92	73.56	-47.4	-48.5	15.5	0.00e+00	0	22	0	1291845632	60	4237
2026-01-12 10:02:39.78	266.61	73.42	-47.3	-48.4	15.6	0.00e+00	0	22	0	1294991360	60	4178
2026-01-12 10:02:40.78	268.24	73.27	-47.0	-48.1	15.7	0.00e+00	0	22	0	1298137088	60	4043
2026-01-12 10:02:41.78	269.85	73.11	-46.8	-47.9	15.8	0.00e+00	0	22	0	1301282816	60	3916
2026-01-12 10:02:42.79	271.44	72.93	-47.0	-48.1	15.7	0.00e+00	0	22	0	1304428544	60	4008
2026-01-12 10:02:43.80	272.99	72.74	-47.0	-48.1	15.7	0.00e+00	0	22	0	1307574272	60	4024
2026-01-12 10:02:44.81	274.51	72.54	-47.1	-48.2	15.7	0.00e+00	0	22	0	1310720000	60	4063
2026-01-12 10:02:45.81	275.98	72.33	-47.3	-48.4	15.6	0.00e+00	0	22	0	1313865728	60	4163
2026-01-12 10:02:46.83	277.43	72.11	-47.2	-48.3	15.6	0.00e+00	0	22	0	1317011456	60	4114
2026-01-12 10:02:47.84	278.84	71.88	-46.8	-47.9	15.8	0.00e+00	0	22	0	1320157184	60	3952
2026-01-12 10:02:48.85	280.21	71.64	-47.2	-48.3	15.6	0.00e+00	0	22	0	1323302912	59	4360
2026-01-12 10:02:49.86	281.53	71.39	-47.1	-48.2	15.7	0.00e+00	0	22	0	1326448640	60	4098
2026-01-12 10:02:50.86	282.81	71.13	-47.4	-48.5	15.5	0.00e+00	0	22	0	1329594368	60	4214
2026-01-12 10:02:51.87	284.07	70.87	-47.6	-48.7	15.5	0.00e+00	0	22	0	1332740096	60	4327
2026-01-12 10:02:52.87	285.27	70.60	-47.4	-48.6	15.4	0.00e+00	0	22	0	1335885824	60	4266
2026-01-12 10:02:53.88	286.45	70.32	-47.3	-48.4	15.5	0.00e+00	0	22	0	1339031552	60	4173
2026-01-12 10:02:54.89	287.60	70.03	-46.9	-48.0	15.7	0.00e+00	0	22	0	1342177280	60	3982
2026-01-12 10:02:55.90	288.71	69.74	-47.1	-48.2	15.7	0.00e+00	0	22	0	1345323008	60	4084
2026-01-12 10:02:56.91	289.78	69.44	-47.6	-48.8	15.5	0.00e+00	0	22	0	1348468736	60	4382
2026-01-12 10:02:57.92	290.83	69.13	-48.2	-49.4	15.3	0.00e+00	0	22	0	1351614464	61	4437
2026-01-12 10:02:58.93	291.84	68.82	-48.5	-49.8	15.3	0.00e+00	0	22	0	1354760192	62	4374
2026-01-12 10:02:59.94	292.82	68.51	-47.7	-48.9	15.7	0.00e+00	0	22	0	1357905920	62	3925
2026-01-12 10:03:00.94	293.76	68.19	-46.8	-47.9	15.8	0.00e+00	0	22	0	1361051648	60	3943
2026-01-12 10:03:01.95	294.67	67.87	-47.1	-48.2	15.6	0.00e+00	0	22	0	1364197376	59	4335
2026-01-12 10:03:02.95	295.56	67.54	-47.5	-48.7	15.5	0.00e+00	0	22	0	1367343104	60	4293
2026-01-12 10:03:03.96	296.42	67.21	-48.3	-49.5	15.2	0.00e+00	0	22	0	1370488832	61	4490
2026-01-12 10:03:04.97	297.25	66.88	-48.4	-49.6	15.3	0.00e+00	0	22	0	1373634560	62	4284
2026-01-12 10:03:05.98	298.06	66.54	-48.2	-49.4	15.3	0.00e+00	0	22	0	1376780288	62	4188
2026-01-12 10:03:06.98	298.84	66.21	-47.4	-48.5	15.6	0.00e+00	0	22	0	1379926016	61	3980
2026-01-12 10:03:07.99	299.60	65.87	-46.8	-47.9	15.8	0.00e+00	0	22	0	1383071744	60	3938
2026-01-12 10:03:08.99	300.33	65.52	-47.1	-48.2	15.7	0.00e+00	0	22	0	1386217472	60	4095
2026-01-12 10:03:10.00	301.04	65.18	-48.1	-49.3	15.3	0.00e+00	0	22	0	1389363200	61	4383
2026-01-12 10:03:11.01	301.74	64.83	-48.9	-50.2	15.2	0.00e+00	0	22	0	1392508928	63	4328
2026-01-12 10:03:12.02	302.41	64.48	-49.1	-50.4	15.1	0.00e+00	0	22	0	1395654656	63	4432
2026-01-12 10:03:13.02	303.06	64.13	-48.2	-49.4	15.5	0.00e+00	0	22	0	1398800384	63	3944
2026-01-12 10:03:14.03	303.69	63.78	-47.6	-48.8	15.5	0.00e+00	0	22	0	1401946112	61	4101
2026-01-12 10:03:15.03	304.30	63.43	-46.9	-48.0	15.7	0.00e+00	0	22	0	1405091840	60	3986
2026-01-12 10:03:16.04	304.89	63.08	-46.8	-47.9	15.7	0.00e+00	0	22	0	1408237568	60	3939
2026-01-12 10:03:17.04	305.47	62.73	-47.7	-48.8	15.3	0.00e+00	0	22	0	1411383296	60	4388
2026-01-12 10:03:18.05	306.03	62.37	-48.5	-49.8	15.1	0.00e+00	0	22	0	1414529024	62	4373
2026-01-12 10:03:19.06	306.57	62.02	-48.8	-50.1	15.1	0.00e+00	0	22	0	1417674752	62	4496
2026-01-12 10:03:20.07	307.10	61.66	-48.4	-49.6	15.3	0.00e+00	0	22	0	1420820480	62	4276
2026-01-12 10:03:21.08	307.62	61.31	-47.9	-49.0	15.5	0.00e+00	0	22	0	1423966208	62	3998
2026-01-12 10:03:22.09	308.12	60.95	-47.4	-48.5	15.6	0.00e+00	0	22	0	1427111936	61	3988
2026-01-12 10:03:23.10	308.61	60.60	-47.0	-48.1	15.7	0.00e+00	0	22	0	1430257664	60	4023
2026-01-12 10:03:24.10	309.08	60.25	-47.4	-48.5	15.6	0.00e+00	0	22	0	1433403392	60	4210
2026-01-12 10:03:25.11	309.54	59.89	-48.0	-49.1	15.4	0.00e+00	0	23	0	1436549120	61	4288
2026-01-12 10:03:26.11	309.98	59.54	-48.8	-50.0	15.1	0.00e+00	0	22	0	1439694848	62	4492
2026-01-12 10:03:27.11	310.42	59.19	-49.3	-50.6	15.0	0.00e+00	0	22	0	1442840576	63	4523
2026-01-12 10:03:28.12	310.84	58.84	-48.5	-49.7	15.4	0.00e+00	0	22	0	1445986304	63	4082
2026-01-12 10:03:29.13	311.26	58.48	-47.7	-48.8	15.6	0.00e+00	0	22	0	1449132032	62	3911
2026-01-12 10:03:30.14	311.66	58.13	-47.5	-48.6	15.6	0.00e+00	0	22	0	1452277760	61	4021
2026-01-12 10:03:31.14	312.05	57.78	-47.2	-48.3	15.8	0.00e+00	0	22	0	1455423488	61	3880
2026-01-12 10:03:32.15	312.43	57.43	-47.0	-48.1	15.7	0.00e+00	0	22	0	1458569216	60	4037
2026-01-12 10:03:33.16	312.81	57.08	-47.9	-49.0	15.3	0.00e+00	0	22	0	1461714944	60	4483
2026-01-12 10:03:34.16	313.17	56.74	-48.8	-50.0	15.2	0.00e+00	0	22	0	1464860672	62	4489
2026-01-12 10:03:35.17	313.53	56.39	-49.4	-50.8	15.1	0.00e+00	0	22	0	1468006400	64	4357
2026-01-12 10:03:36.18	313.87	56.05	-49.3	-50.6	15.1	0.00e+00	0	22	0	1471152128	64	4290
2026-01-12 10:03:37.19	314.21	55.70	-48.9	-50.2	15.2	0.00e+00	0	22	0	1474297856	64	4059
2026-01-12 10:03:38.19	314.54	55.36	-48.6	-49.8	15.3	0.00e+00	0	23	0	1477443584	63	4115
2026-01-12 10:03:39.20	314.86	55.02	-48.4	-49.6	15.5	0.00e+00	0	22	0	1480589312	63	4026
2026-01-12 10:03:40.21	315.18	54.68	-48.1	-49.3	15.5	0.00e+00	0	23	0	1483735040	62	4114
2026-01-12 10:03:41.22	315.48	54.34	-48.2	-49.4	15.5	0.00e+00	0	22	0	1486880768	62	4176
2026-01-12 10:03:42.23	315.78	54.00	-48.8	-50.1	15.2	0.00e+00	0	22	0	1490026496	62	4511
2026-01-12 10:03:43.23	316.08	53.67	-49.2	-50.5	15.1	0.00e+00	0	22	0	1493172224	63	4477
2026-01-12 10:03:44.24	316.36	53.33	-49.8	-51.1	14.9	0.00e+00	0	22	0	1496317952	64	4538
2026-01-12 10:03:45.24	316.64	53.00	-50.2	-51.7	14.8	0.00e+00	0	23	0	1499463680	65	4575
2026-01-12 10:03:46.25	316.92	52.67	-50.3	-51.8	14.7	0.00e+00	0	22	0	1502609408	65	4606
2026-01-12 10:03:47.25	317.18	52.34	-50.2	-51.6	14.7	0.00e+00	0	22	0	1505755136	65	4521
2026-01-12 10:03:48.26	317.45	52.02	-49.8	-51.2	15.0	0.00e+00	0	22	0	1508900864	65	4306
2026-01-12 10:03:49.27	317.70	51.69	-49.4	-50.7	15.3	0.00e+00	0	22	0	1512046592	65	4060
2026-01-12 10:03:50.27	317.95	51.37	-49.0	-50.2	15.3	0.00e+00	0	22	0	1515192320	64	4077
2026-01-12 10:03:51.28	318.20	51.04	-49.2	-50.4	15.2	0.00e+00	0	22	0	1518338048	64	4183
2026-01-12 10:03:52.29	318.44	50.72	-49.8	-51.1	14.9	0.00e+00	0	22	0	1521483776	64	4516
2026-01-12 10:03:53.30	318.68	50.40	-50.5	-52.0	14.7	0.00e+00	0	22	0	1524629504	66	4467
2026-01-12 10:03:54.31	318.91	50.08	-51.1	-52.7	14.5	0.00e+00	0	22	0	1527775232	67	4568
2026-01-12 10:03:55.32	319.13	49.77	-51.1	-52.8	14.4	0.00e+00	0	22	0	1530920960	67	4603
2026-01-12 10:03:56.33	319.36	49.45	-50.8	-52.3	14.7	0.00e+00	0	22	0	1534066688	67	4368
2026-01-12 10:03:57.34	319.57	49.14	-50.9	-52.4	14.6	0.00e+00	0	22	0	1537212416	67	4440
2026-01-12 10:03:58.34	319.79	48.83	-50.9	-52.5	14.6	0.00e+00	0	22	0	1540358144	67	4456
2026-01-12 10:03:59.35	320.00	48.52	-50.7	-52.2	14.7	0.00e+00	0	22	0	1543503872	67	4300
2026-01-12 10:04:00.35	320.20	48.21	-50.3	-51.8	14.9	0.00e+00	0	22	0	1546649600	67	4103
2026-01-12 10:04:01.36	320.40	47.91	-50.4	-51.9	14.9	0.00e+00	0	22	0	1549795328	67	4149
2026-01-12 10:04:02.36	320.60	47.61	-50.5	-52.0	14.9	0.00e+00	0	22	0	1552941056	67	4204
2026-01-12 10:04:03.37	320.79	47.30	-50.6	-52.1	14.8	0.00e+00	0	22	0	1556086784	67	4245
2026-01-12 10:04:04.37	320.98	47.01	-50.5	-52.0	14.7	0.00e+00	0	22	0	1559232512	67	4207
2026-01-12 10:04:05.38	321.16	46.71	-50.6	-52.1	14.7	0.00e+00	0	22	0	1562378240	67	4275
2026-01-12 10:04:06.38	321.35	46.41	-50.7	-52.2	14.7	0.00e+00	0	23	0	1565523968	67	4316
2026-01-12 10:04:07.39	321.53	46.12	-50.8	-52.3	14.7	0.00e+00	0	22	0	1568669696	67	4360
2026-01-12 10:04:08.40	321.70	45.83	-50.8	-52.4	14.6	0.00e+00	0	22	0	1571815424	67	4401
2026-01-12 10:04:09.40	321.87	45.54	-50.6	-52.1	14.8	0.00e+00	0	22	0	1574961152	67	4243
2026-01-12 10:04:10.41	322.05	45.25	-50.6	-52.1	14.8	0.00e+00	0	22	0	1578106880	67	4272
2026-01-12 10:04:11.42	322.21	44.96	-51.0	-52.6	14.6	0.00e+00	0	22	0	1581252608	67	4502
2026-01-12 10:04:12.43	322.38	44.67	-51.8	-53.5	14.2	0.00e+00	0	22	0	1584398336	68	4707
2026-01-12 10:04:13.43	322.54	44.39	-52.2	-54.0	14.0	0.00e+00	0	22	0	1587544064	69	4725
2026-01-12 10:04:14.44	322.70	44.11	-51.9	-53.6	14.3	0.00e+00	0	22	0	1590689792	69	4544
2026-01-12 10:04:15.45	322.85	43.83	-51.5	-53.1	14.6	0.00e+00	0	23	0	1593835520	69	4257
2026-01-12 10:04:16.45	323.01	43.55	-51.3	-52.9	14.7	0.00e+00	0	22	0	1596981248	69	4147
2026-01-12 10:04:17.46	323.16	43.28	-51.2	-52.7	14.6	0.00e+00	0	22	0	1600126976	68	4307
2026-01-12 10:04:18.47	323.30	43.00	-50.9	-52.4	14.8	0.00e+00	0	22	0	1603272704	68	4182
2026-01-12 10:04:19.48	323.45	42.73	-51.1	-52.7	14.7	0.00e+00	0	22	0	1606418432	68	4311
2026-01-12 10:04:20.48	323.59	42.46	-51.3	-52.9	14.5	0.00e+00	0	23	0	1609564160	68	4424
2026-01-12 10:04:21.49	323.73	42.19	-51.1	-52.7	14.7	0.00e+00	0	23	0	1612709888	68	4300
2026-01-12 10:04:22.50	323.87	41.92	-50.9	-52.4	14.9	0.00e+00	0	22	0	1615855616	68	4164
2026-01-12 10:04:23.51	324.01	41.65	-50.7	-52.2	15.0	0.00e+00	0	22	0	1619001344	68	4081
2026-01-12 10:04:24.52	324.15	41.39	-50.5	-52.0	14.9	0.00e+00	0	22	0	1622147072	67	4206
2026-01-12 10:04:25.52	324.28	41.13	-50.5	-51.9	14.8	0.00e+00	0	22	0	1625292800	67	4177
2026-01-12 10:04:26.52	324.41	40.87	-50.4	-51.9	14.9	0.00e+00	0	22	0	1628438528	67	4155
2026-01-12 10:04:27.53	324.54	40.61	-50.5	-51.9	14.9	0.00e+00	0	22	0	1631584256	67	4179
2026-01-12 10:04:28.54	324.66	40.35	-50.6	-52.0	14.9	0.00e+00	0	22	0	1634729984	67	4227
2026-01-12 10:04:29.55	324.79	40.10	-50.9	-52.5	14.6	0.00e+00	0	22	0	1637875712	67	4448
2026-01-12 10:04:30.56	324.91	39.84	-51.2	-52.8	14.4	0.00e+00	0	22	0	1641021440	67	4635
2026-01-12 10:04:31.56	325.03	39.59	-51.7	-53.4	14.2	0.00e+00	0	22	0	1644167168	68	4692
2026-01-12 10:04:32.57	325.15	39.34	-51.6	-53.3	14.3	0.00e+00	0	23	0	1647312896	68	4606
2026-01-12 10:04:33.58	325.27	39.09	-51.3	-52.9	14.5	0.00e+00	0	22	0	1650458624	68	4419
2026-01-12 10:04:34.58	325.38	38.85	-51.1	-52.6	14.7	0.00e+00	0	23	0	1653604352	68	4282
2026-01-12 10:04:35.59	325.50	38.60	-50.7	-52.2	15.0	0.00e+00	0	23	0	1656750080	68	4063
2026-01-12 10:04:36.60	325.61	38.36	-50.2	-51.6	15.1	0.00e+00	0	22	0	1659895808	67	4033
2026-01-12 10:04:37.60	325.72	38.12	-49.9	-51.3	15.1	0.00e+00	0	22	0	1663041536	66	4101
2026-01-12 10:04:38.61	325.83	37.88	-49.8	-51.2	15.1	0.00e+00	0	22	0	1666187264	66	4079
2026-01-12 10:04:39.62	325.93	37.64	-49.9	-51.2	15.1	0.00e+00	0	22	0	1669332992	66	4088
2026-01-12 10:04:40.63	326.04	37.40	-49.8	-51.1	15.2	0.00e+00	0	22	0	1672478720	66	4048
2026-01-12 10:04:41.64	326.15	37.16	-49.8	-51.1	15.1	0.00e+00	0	22	0	1675624448	66	4051
2026-01-12 10:04:42.65	326.25	36.93	-49.7	-51.1	15.2	0.00e+00	0	22	0	1678770176	66	4025
2026-01-12 10:04:43.65	326.35	36.70	-49.4	-50.7	15.3	0.00e+00	0	22	0	1681915904	65	4066
2026-01-12 10:04:44.66	326.45	36.47	-49.4	-50.7	15.3	0.00e+00	0	23	0	1685061632	65	4062
2026-01-12 10:04:45.67	326.55	36.24	-49.5	-50.8	15.2	0.00e+00	0	23	0	1688207360	65	4130
2026-01-12 10:04:46.67	326.65	36.01	-49.4	-50.7	15.2	0.00e+00	0	22	0	1691353088	65	4088
2026-01-12 10:04:47.68	326.74	35.78	-49.5	-50.9	15.1	0.00e+00	0	22	0	1694498816	65	4151
2026-01-12 10:04:48.69	326.84	35.56	-49.6	-50.9	15.1	0.00e+00	0	22	0	1697644544	65	4179
2026-01-12 10:04:49.70	326.93	35.34	-49.6	-50.9	15.1	0.00e+00	0	22	0	1700790272	65	4187
2026-01-12 10:04:50.71	327.03	35.11	-49.6	-50.9	15.1	0.00e+00	0	23	0	1703936000	65	4163
2026-01-12 10:04:51.72	327.12	34.89	-49.4	-50.7	15.2	0.00e+00	0	22	0	1707081728	65	4096
2026-01-12 10:04:52.72	327.21	34.68	-49.4	-50.7	15.2	0.00e+00	0	23	0	1710227456	65	4083
2026-01-12 10:04:53.73	327.30	34.46	-49.3	-50.6	15.3	0.00e+00	0	22	0	1713373184	65	4039
2026-01-12 10:04:54.74	327.39	34.24	-49.3	-50.6	15.3	0.00e+00	0	22	0	1716518912	65	4032
2026-01-12 10:04:55.75	327.47	34.03	-49.3	-50.6	15.3	0.00e+00	0	23	0	1719664640	65	4044
2026-01-12 10:04:56.76	327.56	33.81	-49.4	-50.7	15.2	0.00e+00	0	22	0	1722810368	65	4083
2026-01-12 10:04:57.76	327.64	33.60	-49.6	-51.0	15.1	0.00e+00	0	22	0	1725956096	65	4201
2026-01-12 10:04:58.77	327.73	33.39	-49.7	-51.1	15.0	0.00e+00	0	22	0	1729101824	65	4274
2026-01-12 10:04:59.78	327.81	33.18	-49.7	-51.1	15.0	0.00e+00	0	22	0	1732247552	65	4281
2026-01-12 10:05:00.79	327.89	32.97	-49.8	-51.2	15.0	0.00e+00	0	22	0	1735393280	65	4296
2026-01-12 10:05:01.79	327.97	32.77	-49.6	-51.0	15.1	0.00e+00	0	23	0	1738539008	65	4230
2026-01-12 10:05:02.80	328.05	32.56	-49.6	-50.9	15.1	0.00e+00	0	22	0	1741684736	65	4180
2026-01-12 10:05:03.81	328.13	32.36	-49.6	-50.9	15.1	0.00e+00	0	22	0	1744830464	65	4184
2026-01-12 10:05:04.81	328.21	32.16	-49.2	-50.5	15.3	0.00e+00	0	22	0	1747976192	65	3986
2026-01-12 10:05:05.82	328.29	31.96	-49.0	-50.3	15.3	0.00e+00	0	22	0	1751121920	64	4127
2026-01-12 10:05:06.83	328.36	31.76	-48.9	-50.2	15.3	0.00e+00	0	22	0	1754267648	64	4090
2026-01-12 10:05:07.83	328.44	31.56	-49.0	-50.3	15.3	0.00e+00	0	23	0	1757413376	64	4113
2026-01-12 10:05:08.83	328.51	31.37	-48.8	-50.1	15.4	0.00e+00	0	22	0	1760559104	64	4019
2026-01-12 10:05:09.84	328.59	31.17	-48.6	-49.8	15.3	0.00e+00	0	22	0	1763704832	63	4125
2026-01-12 10:05:10.85	328.66	30.98	-48.4	-49.7	15.4	0.00e+00	0	22	0	1766850560	63	4065
2026-01-12 10:05:11.85	328.73	30.78	-48.5	-49.8	15.4	0.00e+00	0	22	0	1769996288	63	4105
2026-01-12 10:05:12.86	328.80	30.59	-48.5	-49.8	15.4	0.00e+00	0	22	0	1773142016	63	4111
2026-01-12 10:05:13.87	328.87	30.40	-48.5	-49.7	15.4	0.00e+00	0	22	0	1776287744	63	4070
2026-01-12 10:05:14.88	328.94	30.21	-48.5	-49.8	15.4	0.00e+00	0	22	0	1779433472	63	4099
2026-01-12 10:05:15.89	329.01	30.02	-48.5	-49.7	15.4	0.00e+00	0	22	0	1782579200	63	4075
2026-01-12 10:05:16.89	329.08	29.84	-48.5	-49.7	15.4	0.00e+00	0	22	0	1785724928	63	4085
2026-01-12 10:05:17.90	329.15	29.65	-48.4	-49.6	15.4	0.00e+00	0	23	0	1788870656	63	4040
2026-01-12 10:05:18.91	329.21	29.46	-48.4	-49.6	15.5	0.00e+00	0	22	0	1792016384	63	4020
2026-01-12 10:05:19.92	329.28	29.28	-48.1	-49.3	15.5	0.00e+00	0	22	0	1795162112	62	4111
2026-01-12 10:05:20.93	329.34	29.10	-48.1	-49.3	15.5	0.00e+00	0	23	0	1798307840	62	4108
2026-01-12 10:05:21.94	329.41	28.92	-48.1	-49.3	15.4	0.00e+00	0	22	0	1801453568	62	4133
2026-01-12 10:05:22.95	329.47	28.73	-48.0	-49.2	15.5	0.00e+00	0	22	0	1804599296	62	4087
2026-01-12 10:05:23.96	329.54	28.56	-48.0	-49.2	15.5	0.00e+00	0	22	0	1807745024	62	4053
2026-01-12 10:05:24.96	329.60	28.38	-48.0	-49.2	15.5	0.00e+00	0	22	0	1810890752	62	4060
2026-01-12 10:05:25.97	329.66	28.20	-48.1	-49.3	15.4	0.00e+00	0	22	0	1814036480	62	4119
2026-01-12 10:05:26.98	329.72	28.03	-48.1	-49.4	15.4	0.00e+00	0	22	0	1817182208	62	4146
2026-01-12 10:05:27.99	329.78	27.85	-48.1	-49.3	15.4	0.00e+00	0	22	0	1820327936	62	4145
2026-01-12 10:05:28.99	329.84	27.68	-48.1	-49.3	15.4	0.00e+00	0	22	0	1823473664	62	4128
2026-01-12 10:05:30.00	329.90	27.51	-48.2	-49.4	15.4	0.00e+00	0	22	0	1826619392	62	4148
2026-01-12 10:05:31.00	329.96	27.34	-48.1	-49.3	15.4	0.00e+00	0	23	0	1829765120	62	4129
2026-01-12 10:05:32.00	330.02	27.17	-48.1	-49.3	15.4	0.00e+00	0	22	0	1832910848	62	4137
2026-01-12 10:05:33.01	330.08	27.00	-48.1	-49.3	15.4	0.00e+00	0	22	0	1836056576	62	4144
2026-01-12 10:05:34.02	330.13	26.83	-48.1	-49.4	15.4	0.00e+00	0	22	0	1839202304	62	4146
2026-01-12 10:05:35.02	330.19	26.66	-48.3	-49.5	15.3	0.00e+00	0	22	0	1842348032	62	4214
2026-01-12 10:05:36.03	330.25	26.49	-48.2	-49.4	15.4	0.00e+00	0	22	0	1845493760	62	4180
2026-01-12 10:05:37.04	330.30	26.33	-48.1	-49.3	15.4	0.00e+00	0	22	0	1848639488	62	4130
2026-01-12 10:05:38.05	330.36	26.16	-48.1	-49.3	15.4	0.00e+00	0	22	0	1851785216	62	4122
2026-01-12 10:05:39.05	330.41	26.00	-48.0	-49.2	15.5	0.00e+00	0	22	0	1854930944	62	4075
2026-01-12 10:05:40.05	330.47	25.84	-48.0	-49.2	15.5	0.00e+00	0	22	0	1858076672	62	4095
2026-01-12 10:05:41.06	330.52	25.68	-47.9	-49.1	15.5	0.00e+00	0	22	0	1861222400	62	4036
2026-01-12 10:05:42.07	330.57	25.52	-47.9	-49.1	15.5	0.00e+00	0	23	0	1864368128	62	4040
2026-01-12 10:05:43.08	330.62	25.36	-47.9	-49.1	15.5	0.00e+00	0	22	0	1867513856	62	4040
2026-01-12 10:05:44.09	330.68	25.20	-47.9	-49.1	15.5	0.00e+00	0	23	0	1870659584	62	4047
2026-01-12 10:05:45.10	330.73	25.04	-48.0	-49.2	15.5	0.00e+00	0	22	0	1873805312	62	4087
2026-01-12 10:05:46.11	330.78	24.88	-48.0	-49.2	15.4	0.00e+00	0	22	0	1876951040	62	4098
2026-01-12 10:05:47.11	330.83	24.73	-48.1	-49.3	15.4	0.00e+00	0	23	0	1880096768	62	4138
2026-01-12 10:05:48.12	330.88	24.57	-48.1	-49.3	15.4	0.00e+00	0	22	0	1883242496	62	4142
2026-01-12 10:05:49.13	330.93	24.42	-48.1	-49.3	15.4	0.00e+00	0	23	0	1886388224	62	4114
2026-01-12 10:05:50.14	330.98	24.27	-48.0	-49.2	15.5	0.00e+00	0	22	0	1889533952	62	4079
2026-01-12 10:05:51.15	331.03	24.11	-48.0	-49.2	15.5	0.00e+00	0	22	0	1892679680	62	4071
2026-01-12 10:05:52.16	331.08	23.96	-47.9	-49.0	15.5	0.00e+00	0	22	0	1895825408	62	4004
2026-01-12 10:05:53.16	331.13	23.81	-47.9	-49.0	15.6	0.00e+00	0	22	0	1898971136	62	4000
2026-01-12 10:05:54.17	331.17	23.66	-47.8	-49.0	15.6	0.00e+00	0	22	0	1902116864	62	3979
2026-01-12 10:05:55.18	331.22	23.51	-47.8	-49.0	15.6	0.00e+00	0	23	0	1905262592	62	3963
2026-01-12 10:05:56.19	331.27	23.36	-47.9	-49.1	15.5	0.00e+00	0	23	0	1908408320	62	4016
2026-01-12 10:05:57.19	331.31	23.22	-47.8	-49.0	15.5	0.00e+00	0	22	0	1911554048	62	3992
2026-01-12 10:05:58.20	331.36	23.07	-48.0	-49.1	15.5	0.00e+00	0	23	0	1914699776	62	4050
2026-01-12 10:05:59.21	331.40	22.93	-48.0	-49.2	15.4	0.00e+00	0	23	0	1917845504	62	4089
2026-01-12 10:06:00.22	331.45	22.78	-48.0	-49.2	15.4	0.00e+00	0	22	0	1920991232	62	4098
2026-01-12 10:06:01.23	331.50	22.64	-48.1	-49.4	15.4	0.00e+00	0	23	0	1924136960	62	4154
2026-01-12 10:06:02.23	331.54	22.49	-48.2	-49.4	15.3	0.00e+00	0	23	0	1927282688	62	4184
2026-01-12 10:06:03.24	331.58	22.35	-48.2	-49.5	15.3	0.00e+00	0	22	0	1930428416	62	4199
2026-01-12 10:06:04.24	331.63	22.21	-48.2	-49.5	15.3	0.00e+00	0	22	0	1933574144	62	4216
2026-01-12 10:06:05.24	331.67	22.07	-48.2	-49.4	15.3	0.00e+00	0	23	0	1936719872	62	4182
2026-01-12 10:06:06.25	331.71	21.93	-48.3	-49.5	15.3	0.00e+00	0	22	0	1939865600	62	4237
2026-01-12 10:06:07.26	331.76	21.79	-48.3	-49.5	15.3	0.00e+00	0	22	0	1943011328	62	4241
2026-01-12 10:06:08.27	331.80	21.65	-48.3	-49.5	15.3	0.00e+00	0	22	0	1946157056	62	4238
2026-01-12 10:06:09.27	331.84	21.51	-48.2	-49.5	15.3	0.00e+00	0	22	0	1949302784	62	4207
2026-01-12 10:06:10.28	331.88	21.38	-48.1	-49.3	15.4	0.00e+00	0	23	0	1952448512	62	4124
2026-01-12 10:06:11.29	331.92	21.24	-48.0	-49.2	15.4	0.00e+00	0	22	0	1955594240	62	4092
2026-01-12 10:06:12.29	331.96	21.11	-48.0	-49.2	15.5	0.00e+00	0	23	0	1958739968	62	4057
2026-01-12 10:06:13.29	332.00	20.97	-48.1	-49.3	15.4	0.00e+00	0	22	0	1961885696	62	4105
2026-01-12 10:06:14.30	332.05	20.84	-47.9	-49.1	15.5	0.00e+00	0	23	0	1965031424	62	4035
2026-01-12 10:06:15.30	332.09	20.70	-47.7	-48.9	15.6	0.00e+00	0	22	0	1968177152	62	3941
2026-01-12 10:06:16.31	332.13	20.57	-47.6	-48.8	15.5	0.00e+00	0	22	0	1971322880	61	4110
2026-01-12 10:06:17.32	332.16	20.44	-47.7	-48.8	15.4	0.00e+00	0	22	0	1974468608	61	4139
2026-01-12 10:06:18.33	332.20	20.31	-47.5	-48.7	15.5	0.00e+00	0	22	0	1977614336	61	4070
2026-01-12 10:06:19.33	332.24	20.18	-47.6	-48.7	15.5	0.00e+00	0	22	0	1980760064	61	4089
2026-01-12 10:06:20.34	332.28	20.05	-47.5	-48.7	15.5	0.00e+00	0	22	0	1983905792	61	4068
2026-01-12 10:06:21.34	332.32	19.92	-47.6	-48.7	15.5	0.00e+00	0	22	0	1987051520	61	4093
2026-01-12 10:06:22.35	332.36	19.79	-47.7	-48.9	15.4	0.00e+00	0	23	0	1990197248	61	4150
2026-01-12 10:06:23.36	332.40	19.66	-47.6	-48.8	15.4	0.00e+00	0	22	0	1993342976	61	4130
2026-01-12 10:06:24.37	332.43	19.53	-47.7	-48.9	15.4	0.00e+00	0	22	0	1996488704	61	4161
2026-01-12 10:06:25.38	332.47	19.41	-47.8	-49.0	15.3	0.00e+00	0	22	0	1999634432	61	4235
2026-01-12 10:06:26.39	332.51	19.28	-47.7	-48.9	15.4	0.00e+00	0	22	0	2002780160	61	4164
2026-01-12 10:06:27.40	332.54	19.15	-47.8	-48.9	15.4	0.00e+00	0	23	0	2005925888	61	4193
2026-01-12 10:06:28.40	332.58	19.03	-47.8	-49.0	15.4	0.00e+00	0	23	0	2009071616	61	4212
2026-01-12 10:06:29.41	332.62	18.91	-47.8	-49.0	15.4	0.00e+00	0	22	0	2012217344	61	4226
2026-01-12 10:06:30.42	332.65	18.78	-47.9	-49.1	15.3	0.00e+00	0	22	0	2015363072	61	4271
2026-01-12 10:06:31.43	332.69	18.66	-47.9	-49.1	15.4	0.00e+00	0	23	0	2018508800	61	4246
2026-01-12 10:06:32.44	332.72	18.53	-47.8	-49.0	15.4	0.00e+00	0	22	0	2021654528	61	4224
2026-01-12 10:06:33.44	332.76	18.41	-48.0	-49.2	15.3	0.00e+00	0	23	0	2024800256	61	4312
2026-01-12 10:06:34.44	332.79	18.29	-48.0	-49.2	15.3	0.00e+00	0	22	0	2027945984	61	4297
2026-01-12 10:06:35.45	332.83	18.17	-47.9	-49.1	15.3	0.00e+00	0	23	0	2031091712	61	4283
2026-01-12 10:06:36.46	332.86	18.05	-47.9	-49.2	15.3	0.00e+00	0	22	0	2034237440	61	4294
2026-01-12 10:06:37.46	332.90	17.93	-48.0	-49.2	15.3	0.00e+00	0	23	0	2037383168	61	4338
2026-01-12 10:06:38.47	332.93	17.81	-48.1	-49.4	15.2	0.00e+00	0	22	0	2040528896	61	4410
2026-01-12 10:06:39.47	332.96	17.70	-48.0	-49.3	15.3	0.00e+00	0	22	0	2043674624	61	4349
2026-01-12 10:06:40.48	333.00	17.58	-48.1	-49.4	15.2	0.00e+00	0	23	0	2046820352	61	4405
2026-01-12 10:06:41.49	333.03	17.46	-48.2	-49.5	15.2	0.00e+00	0	23	0	2049966080	61	4469
2026-01-12 10:06:42.50	333.06	17.34	-48.3	-49.5	15.1	0.00e+00	0	23	0	2053111808	61	4489
2026-01-12 10:06:43.50	333.10	17.23	-48.2	-49.4	15.2	0.00e+00	0	22	0	2056257536	61	4435
2026-01-12 10:06:44.51	333.13	17.11	-48.3	-49.6	15.1	0.00e+00	0	22	0	2059403264	61	4501
