passes_logs/2026/01/12/R3.2S_Murmansk/R3.2S_Murmansk__20260112_222807_SUOMI_NPP_rec.log

#Pass ID: 20260112_222807_SUOMI NPP
#Satellite: SUOMI NPP
#Configuration: NPP
#almurnet v.1.7.20251203
#Start time: 2026-01-12 22:28:08

#Version: 2.2.20231116
#Station: R3.2S_Murmansk
#Location: 33.079688 lon 68.888172 lat
#TLE: 1 37849U 11061A   26012.28456845  .00000093  00000+0  65163-4 0  9999
#TLE: 2 37849  98.7807 314.3566 0002508  68.3553 291.7890 14.19524725736322

#Time	Az	El	Level	Level2	SNR	BER	BlckErr	Temp	State	Recorded	gain1	gain2
2026-01-12 22:28:08.06	18.98	2.04	-57.1	-73.0	3.8	1.49e+00	0	20	0	0	80	22447
2026-01-12 22:28:09.05	19.05	2.10	-57.1	-72.9	3.8	1.49e+00	0	20	104	0	79	23342
2026-01-12 22:28:10.05	19.12	2.15	-57.1	-72.9	3.8	1.49e+00	0	20	104	0	79	23427
2026-01-12 22:28:11.04	19.19	2.21	-57.1	-73.0	3.8	1.49e+00	0	20	104	0	79	23685
2026-01-12 22:28:12.04	19.26	2.26	-57.1	-73.0	3.8	1.49e+00	0	20	104	0	79	23653
2026-01-12 22:28:13.05	19.33	2.32	-57.1	-73.0	3.8	1.49e+00	0	20	104	0	79	23729
2026-01-12 22:28:14.05	19.40	2.37	-57.1	-73.1	3.8	1.49e+00	0	20	104	0	79	23877
2026-01-12 22:28:15.04	19.47	2.43	-57.1	-73.0	3.8	1.49e+00	0	21	104	0	79	23836
2026-01-12 22:28:16.04	19.54	2.48	-57.1	-73.1	3.8	1.49e+00	0	20	104	0	79	23915
2026-01-12 22:28:17.03	19.61	2.54	-57.1	-73.0	3.8	1.49e+00	0	20	104	0	79	23788
2026-01-12 22:28:18.03	19.68	2.60	-57.1	-73.1	3.8	1.49e+00	0	21	104	0	79	23888
2026-01-12 22:28:19.02	19.75	2.65	-57.1	-73.0	3.8	1.49e+00	0	21	104	0	79	23804
2026-01-12 22:28:20.02	19.82	2.71	-57.1	-73.0	3.8	1.49e+00	0	21	104	0	79	23840
2026-01-12 22:28:21.02	19.89	2.76	-57.1	-73.1	3.8	1.49e+00	0	21	104	0	79	23863
2026-01-12 22:28:22.02	19.96	2.82	-57.1	-73.0	3.8	1.49e+00	0	21	104	0	79	23795
2026-01-12 22:28:23.02	20.03	2.88	-57.1	-72.9	3.8	1.49e+00	0	20	104	0	79	23545
2026-01-12 22:28:24.03	20.11	2.93	-57.1	-72.7	3.8	1.49e+00	0	21	104	0	79	22917
2026-01-12 22:28:25.02	20.18	2.99	-57.1	-72.5	3.8	1.49e+00	0	21	104	0	79	22321
2026-01-12 22:28:26.01	20.25	3.05	-57.1	-72.1	3.8	1.49e+00	0	21	104	0	79	21498
2026-01-12 22:28:27.02	20.33	3.10	-57.1	-72.2	3.8	1.49e+00	0	21	104	0	79	21706
2026-01-12 22:28:28.01	20.40	3.16	-57.1	-71.6	3.8	1.49e+00	0	21	104	0	79	20241
2026-01-12 22:28:29.01	20.47	3.22	-57.1	-71.6	3.8	1.49e+00	0	21	104	0	79	20226
2026-01-12 22:28:30.00	20.54	3.27	-57.1	-71.8	3.8	1.49e+00	0	21	104	0	79	20633
2026-01-12 22:28:30.99	20.62	3.33	-57.0	-71.6	3.8	1.49e+00	0	21	104	0	79	20174
2026-01-12 22:28:31.99	20.69	3.39	-57.1	-71.9	3.8	1.49e+00	0	21	104	0	79	20813
2026-01-12 22:28:32.99	20.77	3.44	-57.1	-71.6	3.8	1.49e+00	0	21	104	0	79	20197
2026-01-12 22:28:34.00	20.84	3.50	-57.0	-71.0	3.8	1.48e+00	0	21	104	0	79	18795
2026-01-12 22:28:34.99	20.92	3.56	-57.0	-70.5	3.9	1.48e+00	0	21	104	0	79	17783
2026-01-12 22:28:35.99	20.99	3.62	-57.0	-69.4	4.2	1.42e+00	0	21	0	0	79	15669
2026-01-12 22:28:36.98	21.07	3.67	-56.9	-68.7	4.4	1.36e+00	31	21	0	0	79	14498
2026-01-12 22:28:37.98	21.14	3.73	-56.9	-68.4	4.6	9.20e-01	0	21	0	2097152	79	13921
2026-01-12 22:28:38.98	21.22	3.79	-56.9	-68.0	4.7	8.45e-01	0	21	0	3145728	79	13347
2026-01-12 22:28:39.97	21.30	3.84	-56.8	-67.4	5.0	8.39e-01	0	21	0	5242880	79	12518
2026-01-12 22:28:40.96	21.37	3.90	-56.8	-67.3	5.1	6.51e-01	0	21	0	7340032	79	12286
2026-01-12 22:28:41.96	21.45	3.96	-56.7	-66.7	5.4	5.66e-01	0	21	0	9437184	79	11456
2026-01-12 22:28:42.95	21.53	4.02	-56.6	-65.6	6.1	3.38e-01	0	21	0	11534336	79	10070
2026-01-12 22:28:43.95	21.60	4.08	-56.4	-64.2	7.3	2.23e-01	0	21	0	12582912	79	8585
2026-01-12 22:28:44.95	21.68	4.13	-56.0	-62.5	8.8	3.11e-02	0	21	0	14680064	78	7495
2026-01-12 22:28:45.95	21.76	4.19	-55.5	-61.0	10.1	6.37e-03	0	21	0	16777216	77	6665
2026-01-12 22:28:46.94	21.84	4.25	-55.0	-59.5	11.3	6.47e-04	0	21	0	18874368	76	5960
2026-01-12 22:28:47.94	21.92	4.31	-54.3	-58.0	12.4	8.69e-05	0	21	0	19922944	75	5324
2026-01-12 22:28:48.94	22.00	4.37	-53.9	-57.3	12.9	7.00e-07	0	21	0	22020096	74	5175
2026-01-12 22:28:49.94	22.08	4.42	-53.5	-56.7	13.2	0.00e+00	0	21	0	24117248	73	5129
2026-01-12 22:28:50.94	22.16	4.48	-53.5	-56.7	13.2	0.00e+00	0	21	0	26214400	73	5146
2026-01-12 22:28:51.93	22.24	4.54	-53.5	-56.7	13.3	0.00e+00	0	21	0	28311552	73	5109
2026-01-12 22:28:52.93	22.32	4.60	-53.7	-57.0	13.0	0.00e+00	0	21	0	29360128	73	5310
2026-01-12 22:28:53.93	22.40	4.66	-53.8	-57.3	12.8	0.00e+00	0	21	0	31457280	73	5477
2026-01-12 22:28:54.92	22.48	4.72	-54.0	-57.6	12.6	0.00e+00	0	21	0	33554432	73	5661
2026-01-12 22:28:55.91	22.56	4.78	-54.4	-58.4	11.9	1.14e-05	0	21	0	35651584	73	6203
2026-01-12 22:28:56.91	22.64	4.84	-55.1	-60.0	10.8	1.81e-04	0	21	0	37748736	75	6671
2026-01-12 22:28:57.90	22.72	4.89	-55.4	-60.8	10.0	1.97e-03	0	21	0	38797312	75	7339
2026-01-12 22:28:58.90	22.80	4.95	-55.8	-62.0	9.1	7.70e-03	0	21	0	40894464	76	7927
2026-01-12 22:28:59.91	22.89	5.01	-56.2	-63.3	8.1	3.02e-02	0	21	0	42991616	77	8675
2026-01-12 22:29:00.90	22.97	5.07	-54.2	-57.9	12.6	1.43e-02	0	21	0	45088768	75	5239
2026-01-12 22:29:01.90	23.05	5.13	-56.7	-67.4	5.0	6.59e-03	0	21	0	46137344	78	13189
2026-01-12 22:29:02.90	23.14	5.19	-56.4	-63.7	7.9	5.98e-02	0	21	0	48234496	78	8609
2026-01-12 22:29:03.90	23.22	5.25	-53.7	-56.8	13.3	1.04e-02	0	21	0	50331648	74	4923
2026-01-12 22:29:04.91	23.30	5.31	-56.8	-66.7	5.5	4.16e-03	0	21	0	52428800	78	12159
2026-01-12 22:29:05.91	23.39	5.37	-54.0	-57.4	12.9	1.14e-02	0	21	0	54525952	74	5222
2026-01-12 22:29:06.90	23.47	5.43	-53.9	-57.2	13.0	7.00e-07	0	21	0	55574528	74	5134
2026-01-12 22:29:07.90	23.56	5.49	-53.8	-57.0	13.2	0.00e+00	0	21	0	57671680	74	5020
2026-01-12 22:29:08.90	23.64	5.55	-53.8	-57.0	13.3	0.00e+00	0	22	0	59768832	74	4995
2026-01-12 22:29:09.89	23.73	5.61	-53.4	-56.2	13.6	0.00e+00	0	21	0	61865984	73	4864
2026-01-12 22:29:10.90	23.82	5.67	-53.4	-56.3	13.6	0.00e+00	0	22	0	63963136	73	4914
2026-01-12 22:29:11.90	23.90	5.73	-53.2	-56.0	13.8	0.00e+00	0	22	0	65011712	73	4740
2026-01-12 22:29:12.90	23.99	5.79	-53.1	-55.9	13.8	0.00e+00	0	21	0	67108864	72	4954
2026-01-12 22:29:13.89	24.07	5.85	-53.2	-55.9	13.8	0.00e+00	0	21	0	69206016	72	4978
2026-01-12 22:29:14.90	24.16	5.92	-53.1	-55.8	13.8	0.00e+00	0	21	0	71303168	72	4910
2026-01-12 22:29:15.89	24.25	5.98	-53.1	-55.8	13.9	0.00e+00	0	22	0	72351744	72	4915
2026-01-12 22:29:16.89	24.34	6.04	-53.2	-56.0	13.7	0.00e+00	0	22	0	74448896	72	5023
2026-01-12 22:29:17.88	24.43	6.10	-53.2	-55.9	13.8	0.00e+00	0	22	0	76546048	72	4959
2026-01-12 22:29:18.88	24.52	6.16	-53.0	-55.7	14.0	0.00e+00	0	22	0	78643200	72	4826
2026-01-12 22:29:19.88	24.60	6.22	-53.2	-55.9	13.8	0.00e+00	0	22	0	80740352	72	4949
2026-01-12 22:29:20.88	24.69	6.28	-53.2	-56.0	13.8	0.00e+00	0	22	0	81788928	72	5005
2026-01-12 22:29:21.88	24.78	6.34	-53.1	-55.8	13.9	0.00e+00	0	22	0	83886080	72	4924
2026-01-12 22:29:22.87	24.87	6.40	-53.3	-56.1	13.7	0.00e+00	0	22	0	85983232	72	5047
2026-01-12 22:29:23.86	24.96	6.46	-53.2	-55.9	13.8	0.00e+00	0	22	0	88080384	72	4968
2026-01-12 22:29:24.86	25.05	6.53	-53.2	-56.0	13.7	0.00e+00	0	22	0	90177536	72	5014
2026-01-12 22:29:25.86	25.15	6.59	-53.2	-56.0	13.8	0.00e+00	0	22	0	91226112	72	5008
2026-01-12 22:29:26.85	25.24	6.65	-53.1	-55.8	13.9	0.00e+00	0	22	0	93323264	72	4901
2026-01-12 22:29:27.85	25.33	6.71	-53.2	-56.0	13.8	0.00e+00	0	22	0	95420416	72	5012
2026-01-12 22:29:28.84	25.42	6.77	-53.2	-55.9	13.8	0.00e+00	0	22	0	97517568	72	4971
2026-01-12 22:29:29.84	25.51	6.83	-53.0	-55.6	14.0	0.00e+00	0	22	0	98566144	72	4804
2026-01-12 22:29:30.83	25.61	6.90	-52.9	-55.5	14.1	0.00e+00	0	22	0	100663296	72	4749
2026-01-12 22:29:31.83	25.70	6.96	-52.7	-55.2	14.3	0.00e+00	0	22	0	102760448	72	4568
2026-01-12 22:29:32.83	25.79	7.02	-52.7	-55.2	14.2	0.00e+00	0	22	0	104857600	71	4833
2026-01-12 22:29:33.84	25.89	7.08	-52.7	-55.1	14.2	0.00e+00	0	22	0	106954752	71	4812
2026-01-12 22:29:34.83	25.98	7.15	-52.6	-55.0	14.3	0.00e+00	0	22	0	108003328	71	4724
2026-01-12 22:29:35.82	26.08	7.21	-52.5	-54.9	14.4	0.00e+00	0	22	0	110100480	71	4695
2026-01-12 22:29:36.82	26.17	7.27	-52.6	-55.0	14.3	0.00e+00	0	22	0	112197632	71	4720
2026-01-12 22:29:37.81	26.27	7.33	-52.5	-54.9	14.4	0.00e+00	0	22	0	114294784	71	4652
2026-01-12 22:29:38.81	26.36	7.40	-52.4	-54.8	14.5	0.00e+00	0	22	0	116391936	71	4606
2026-01-12 22:29:39.80	26.46	7.46	-52.3	-54.5	14.6	0.00e+00	0	22	0	117440512	71	4477
2026-01-12 22:29:40.79	26.56	7.52	-52.4	-54.6	14.6	0.00e+00	0	22	0	119537664	71	4544
2026-01-12 22:29:41.78	26.65	7.58	-52.3	-54.5	14.6	0.00e+00	0	22	0	121634816	71	4473
2026-01-12 22:29:42.78	26.75	7.65	-52.4	-54.7	14.6	0.00e+00	0	22	0	123731968	71	4565
2026-01-12 22:29:43.77	26.85	7.71	-52.4	-54.7	14.6	0.00e+00	0	22	0	124780544	71	4564
2026-01-12 22:29:44.76	26.95	7.77	-52.4	-54.7	14.5	0.00e+00	0	22	0	126877696	71	4562
2026-01-12 22:29:45.75	27.04	7.83	-52.3	-54.6	14.6	0.00e+00	0	22	0	128974848	71	4515
2026-01-12 22:29:46.74	27.14	7.90	-52.3	-54.6	14.6	0.00e+00	0	22	0	131072000	71	4507
2026-01-12 22:29:47.73	27.24	7.96	-52.5	-54.8	14.5	0.00e+00	0	22	0	132120576	71	4607
2026-01-12 22:29:48.72	27.34	8.02	-52.5	-54.9	14.4	0.00e+00	0	22	0	134217728	71	4662
2026-01-12 22:29:49.71	27.44	8.09	-52.6	-55.0	14.3	0.00e+00	0	22	0	136314880	71	4726
2026-01-12 22:29:50.71	27.54	8.15	-52.6	-55.0	14.3	0.00e+00	0	22	0	138412032	71	4748
2026-01-12 22:29:51.70	27.64	8.21	-52.7	-55.1	14.2	0.00e+00	0	22	0	140509184	71	4793
2026-01-12 22:29:52.70	27.74	8.28	-52.8	-55.2	14.2	0.00e+00	0	22	0	141557760	71	4861
2026-01-12 22:29:53.69	27.85	8.34	-52.8	-55.3	14.1	0.00e+00	0	22	0	143654912	71	4909
2026-01-12 22:29:54.69	27.95	8.41	-52.8	-55.3	14.1	0.00e+00	0	22	0	145752064	71	4921
2026-01-12 22:29:55.68	28.05	8.47	-52.9	-55.5	14.0	0.00e+00	0	22	0	147849216	71	4994
2026-01-12 22:29:56.68	28.15	8.53	-53.1	-55.8	13.8	0.00e+00	0	22	0	148897792	71	5198
2026-01-12 22:29:57.68	28.26	8.60	-53.0	-55.7	13.9	0.00e+00	0	22	0	150994944	71	5107
2026-01-12 22:29:58.68	28.36	8.66	-53.1	-55.8	13.9	0.00e+00	0	22	0	153092096	71	5163
2026-01-12 22:29:59.67	28.47	8.73	-53.2	-55.9	13.8	0.00e+00	0	22	0	155189248	71	5244
2026-01-12 22:30:00.67	28.57	8.79	-53.1	-55.7	13.9	0.00e+00	0	22	0	157286400	71	5128
2026-01-12 22:30:01.67	28.68	8.86	-53.2	-55.9	13.7	0.00e+00	0	22	0	158334976	71	5273
2026-01-12 22:30:02.67	28.79	8.92	-53.1	-55.8	13.9	0.00e+00	0	22	0	160432128	71	5166
2026-01-12 22:30:03.67	28.89	8.99	-53.0	-55.5	14.0	0.00e+00	0	22	0	162529280	71	5016
2026-01-12 22:30:04.66	29.00	9.05	-53.0	-55.5	14.0	0.00e+00	0	22	0	164626432	71	5039
2026-01-12 22:30:05.66	29.11	9.12	-53.2	-55.8	13.8	0.00e+00	0	22	0	166723584	71	5187
2026-01-12 22:30:06.65	29.21	9.18	-52.9	-55.4	14.1	0.00e+00	0	22	0	167772160	71	4937
2026-01-12 22:30:07.65	29.32	9.25	-52.9	-55.4	14.1	0.00e+00	0	22	0	169869312	71	4982
2026-01-12 22:30:08.64	29.43	9.31	-52.8	-55.3	14.1	0.00e+00	0	22	0	171966464	71	4901
2026-01-12 22:30:09.64	29.54	9.38	-52.8	-55.2	14.2	0.00e+00	0	22	0	174063616	71	4849
2026-01-12 22:30:10.64	29.65	9.44	-52.8	-55.3	14.2	0.00e+00	0	22	0	175112192	71	4896
2026-01-12 22:30:11.64	29.76	9.51	-52.8	-55.2	14.2	0.00e+00	0	22	0	177209344	71	4842
2026-01-12 22:30:12.64	29.87	9.58	-52.8	-55.2	14.2	0.00e+00	0	22	0	179306496	71	4863
2026-01-12 22:30:13.64	29.98	9.64	-52.8	-55.2	14.2	0.00e+00	0	22	0	181403648	71	4860
2026-01-12 22:30:14.63	30.09	9.71	-52.7	-55.1	14.3	0.00e+00	0	22	0	183500800	71	4761
2026-01-12 22:30:15.63	30.21	9.77	-52.6	-54.9	14.4	0.00e+00	0	22	0	184549376	71	4705
2026-01-12 22:30:16.63	30.32	9.84	-52.5	-54.8	14.5	0.00e+00	0	22	0	186646528	71	4614
2026-01-12 22:30:17.62	30.43	9.91	-52.6	-54.9	14.4	0.00e+00	0	22	0	188743680	71	4685
2026-01-12 22:30:18.62	30.55	9.97	-52.4	-54.7	14.6	0.00e+00	0	22	0	190840832	71	4547
2026-01-12 22:30:19.62	30.66	10.04	-52.4	-54.6	14.7	0.00e+00	0	22	0	191889408	71	4500
2026-01-12 22:30:20.62	30.78	10.10	-52.3	-54.4	14.8	0.00e+00	0	22	0	193986560	71	4440
2026-01-12 22:30:21.62	30.89	10.17	-52.1	-54.2	14.7	0.00e+00	0	22	0	196083712	70	4598
2026-01-12 22:30:22.62	31.01	10.24	-52.2	-54.4	14.6	0.00e+00	0	22	0	198180864	70	4684
2026-01-12 22:30:23.60	31.12	10.30	-52.3	-54.5	14.5	0.00e+00	0	22	0	200278016	70	4740
2026-01-12 22:30:24.61	31.24	10.37	-52.0	-54.1	14.8	0.00e+00	0	22	0	201326592	70	4540
2026-01-12 22:30:25.60	31.36	10.44	-52.0	-54.0	14.8	0.00e+00	0	22	0	203423744	70	4488
2026-01-12 22:30:26.60	31.47	10.50	-52.1	-54.2	14.7	0.00e+00	0	22	0	205520896	70	4564
2026-01-12 22:30:27.60	31.59	10.57	-52.1	-54.2	14.7	0.00e+00	0	22	0	207618048	70	4558
2026-01-12 22:30:28.61	31.71	10.64	-52.1	-54.2	14.7	0.00e+00	0	22	0	209715200	70	4581
2026-01-12 22:30:29.61	31.83	10.71	-52.0	-54.1	14.8	0.00e+00	0	22	0	210763776	70	4536
2026-01-12 22:30:30.61	31.95	10.77	-52.0	-54.1	14.8	0.00e+00	0	22	0	212860928	70	4500
2026-01-12 22:30:31.61	32.07	10.84	-51.8	-53.8	14.9	0.00e+00	0	22	0	214958080	70	4368
2026-01-12 22:30:32.61	32.19	10.91	-51.8	-53.7	15.0	0.00e+00	0	22	0	217055232	70	4339
2026-01-12 22:30:33.60	32.31	10.98	-51.7	-53.7	15.0	0.00e+00	0	22	0	218103808	70	4301
2026-01-12 22:30:34.59	32.44	11.04	-51.8	-53.7	15.0	0.00e+00	0	22	0	220200960	70	4334
2026-01-12 22:30:35.59	32.56	11.11	-51.8	-53.7	15.0	0.00e+00	0	22	0	222298112	70	4326
2026-01-12 22:30:36.58	32.68	11.18	-51.8	-53.8	15.0	0.00e+00	0	22	0	224395264	70	4372
2026-01-12 22:30:37.58	32.80	11.25	-51.9	-53.9	14.9	0.00e+00	0	22	0	226492416	70	4427
2026-01-12 22:30:38.58	32.93	11.31	-51.9	-53.9	14.9	0.00e+00	0	22	0	227540992	70	4441
2026-01-12 22:30:39.57	33.05	11.38	-51.9	-53.9	14.9	0.00e+00	0	22	0	229638144	70	4405
2026-01-12 22:30:40.57	33.18	11.45	-52.0	-54.0	14.8	0.00e+00	0	22	0	231735296	70	4479
2026-01-12 22:30:41.55	33.30	11.52	-51.9	-54.0	14.9	0.00e+00	0	22	0	233832448	70	4458
2026-01-12 22:30:42.56	33.43	11.58	-51.9	-53.9	14.9	0.00e+00	0	22	0	235929600	70	4430
2026-01-12 22:30:43.55	33.56	11.65	-51.9	-54.0	14.9	0.00e+00	0	22	0	236978176	70	4443
2026-01-12 22:30:44.55	33.68	11.72	-52.1	-54.1	14.8	0.00e+00	0	22	0	239075328	70	4541
2026-01-12 22:30:45.54	33.81	11.79	-51.9	-54.0	14.9	0.00e+00	0	22	0	241172480	70	4450
2026-01-12 22:30:46.54	33.94	11.86	-51.8	-53.8	15.0	0.00e+00	0	22	0	243269632	70	4359
2026-01-12 22:30:47.53	34.07	11.93	-52.0	-54.0	14.9	0.00e+00	0	22	0	244318208	70	4481
2026-01-12 22:30:48.52	34.20	11.99	-51.8	-53.8	15.0	0.00e+00	0	22	0	246415360	70	4370
2026-01-12 22:30:49.52	34.33	12.06	-51.9	-53.9	14.9	0.00e+00	0	22	0	248512512	70	4419
2026-01-12 22:30:50.53	34.46	12.13	-52.0	-54.0	14.9	0.00e+00	0	22	0	250609664	70	4478
2026-01-12 22:30:51.52	34.59	12.20	-51.8	-53.8	15.0	0.00e+00	0	22	0	252706816	70	4352
2026-01-12 22:30:52.53	34.72	12.27	-51.8	-53.7	15.1	0.00e+00	0	22	0	253755392	70	4322
2026-01-12 22:30:53.53	34.86	12.34	-51.8	-53.8	15.0	0.00e+00	0	22	0	255852544	70	4377
2026-01-12 22:30:54.53	34.99	12.41	-51.9	-53.8	15.0	0.00e+00	0	22	0	257949696	70	4388
2026-01-12 22:30:55.52	35.12	12.48	-51.8	-53.8	15.0	0.00e+00	0	22	0	260046848	70	4368
2026-01-12 22:30:56.52	35.26	12.54	-51.9	-54.0	14.9	0.00e+00	0	22	0	261095424	70	4442
2026-01-12 22:30:57.51	35.39	12.61	-52.0	-54.0	14.9	0.00e+00	0	22	0	263192576	70	4464
2026-01-12 22:30:58.51	35.53	12.68	-51.8	-53.7	15.1	0.00e+00	0	22	0	265289728	70	4331
2026-01-12 22:30:59.51	35.67	12.75	-52.0	-54.0	14.9	0.00e+00	0	22	0	267386880	70	4469
2026-01-12 22:31:00.49	35.80	12.82	-51.7	-53.7	15.1	0.00e+00	0	22	0	269484032	70	4318
2026-01-12 22:31:01.48	35.94	12.89	-51.6	-53.6	15.0	0.00e+00	0	22	0	270532608	69	4501
2026-01-12 22:31:02.48	36.08	12.96	-51.5	-53.4	15.1	0.00e+00	0	22	0	272629760	69	4414
2026-01-12 22:31:03.48	36.21	13.03	-51.5	-53.4	15.1	0.00e+00	0	22	0	274726912	69	4432
2026-01-12 22:31:04.48	36.35	13.10	-51.4	-53.3	15.1	0.00e+00	0	22	0	276824064	69	4373
2026-01-12 22:31:05.49	36.50	13.17	-51.4	-53.2	15.2	0.00e+00	0	22	0	277872640	69	4329
2026-01-12 22:31:06.49	36.64	13.24	-51.3	-53.1	15.2	0.00e+00	0	22	0	279969792	69	4275
2026-01-12 22:31:07.48	36.78	13.31	-51.3	-53.1	15.2	0.00e+00	0	22	0	282066944	69	4288
2026-01-12 22:31:08.48	36.92	13.37	-51.1	-52.9	15.2	0.00e+00	0	22	0	284164096	68	4396
2026-01-12 22:31:09.47	37.06	13.44	-51.1	-52.9	15.2	0.00e+00	0	22	0	286261248	68	4404
2026-01-12 22:31:10.48	37.21	13.51	-51.0	-52.7	15.3	0.00e+00	0	22	0	287309824	68	4327
2026-01-12 22:31:11.47	37.35	13.58	-51.0	-52.8	15.2	0.00e+00	0	22	0	289406976	68	4364
2026-01-12 22:31:12.47	37.49	13.65	-51.2	-53.0	15.1	0.00e+00	0	22	0	291504128	68	4457
2026-01-12 22:31:13.47	37.64	13.72	-51.1	-52.8	15.2	0.00e+00	0	22	0	293601280	68	4382
2026-01-12 22:31:14.47	37.79	13.79	-51.1	-52.9	15.2	0.00e+00	0	22	0	295698432	68	4405
2026-01-12 22:31:15.47	37.93	13.86	-51.3	-53.1	15.1	0.00e+00	0	22	0	296747008	68	4518
2026-01-12 22:31:16.47	38.08	13.93	-51.1	-52.9	15.2	0.00e+00	0	22	0	298844160	68	4422
2026-01-12 22:31:17.47	38.23	14.00	-51.2	-53.1	15.1	0.00e+00	0	22	0	300941312	68	4512
2026-01-12 22:31:18.46	38.38	14.07	-51.2	-53.0	15.1	0.00e+00	0	22	0	303038464	68	4478
2026-01-12 22:31:19.46	38.53	14.14	-51.3	-53.1	15.1	0.00e+00	0	22	0	304087040	68	4518
2026-01-12 22:31:20.47	38.68	14.21	-51.1	-52.9	15.2	0.00e+00	0	22	0	306184192	68	4422
2026-01-12 22:31:21.47	38.83	14.28	-51.2	-53.0	15.1	0.00e+00	0	22	0	308281344	68	4488
2026-01-12 22:31:22.46	38.98	14.35	-51.2	-53.0	15.1	0.00e+00	0	22	0	310378496	68	4490
2026-01-12 22:31:23.46	39.13	14.42	-51.3	-53.2	15.0	0.00e+00	0	22	0	312475648	68	4575
2026-01-12 22:31:24.47	39.29	14.49	-51.4	-53.3	14.9	0.00e+00	0	22	0	313524224	68	4651
2026-01-12 22:31:25.46	39.44	14.56	-51.5	-53.5	14.9	0.00e+00	0	22	0	315621376	68	4711
2026-01-12 22:31:26.46	39.59	14.63	-51.7	-53.6	14.8	0.00e+00	0	22	0	317718528	68	4798
2026-01-12 22:31:27.46	39.75	14.70	-51.6	-53.6	14.8	0.00e+00	0	22	0	319815680	68	4796
2026-01-12 22:31:28.46	39.91	14.77	-51.7	-53.7	14.7	0.00e+00	0	22	0	321912832	68	4864
2026-01-12 22:31:29.46	40.06	14.84	-51.6	-53.6	14.8	0.00e+00	0	22	0	322961408	68	4761
2026-01-12 22:31:30.45	40.22	14.91	-51.8	-53.8	14.7	0.00e+00	0	22	0	325058560	68	4905
2026-01-12 22:31:31.46	40.38	14.99	-51.5	-53.3	14.9	0.00e+00	0	22	0	327155712	68	4651
2026-01-12 22:31:32.46	40.54	15.06	-51.5	-53.5	14.8	0.00e+00	0	22	0	329252864	68	4708
2026-01-12 22:31:33.46	40.70	15.13	-51.5	-53.3	14.9	0.00e+00	0	22	0	331350016	68	4647
2026-01-12 22:31:34.45	40.85	15.20	-51.5	-53.4	14.9	0.00e+00	0	22	0	332398592	68	4656
2026-01-12 22:31:35.45	41.02	15.27	-51.4	-53.3	15.0	0.00e+00	0	22	0	334495744	68	4645
2026-01-12 22:31:36.45	41.18	15.34	-51.3	-53.1	15.0	0.00e+00	0	22	0	336592896	68	4540
2026-01-12 22:31:37.44	41.34	15.41	-51.3	-53.2	15.0	0.00e+00	0	22	0	338690048	68	4578
2026-01-12 22:31:38.43	41.50	15.47	-51.3	-53.2	15.0	0.00e+00	0	22	0	339738624	68	4560
2026-01-12 22:31:39.43	41.66	15.55	-51.4	-53.2	15.0	0.00e+00	0	22	0	341835776	68	4585
2026-01-12 22:31:40.42	41.83	15.61	-51.3	-53.1	15.1	0.00e+00	0	22	0	343932928	68	4540
2026-01-12 22:31:41.41	41.99	15.68	-51.4	-53.2	15.0	0.00e+00	0	22	0	346030080	68	4583
2026-01-12 22:31:42.41	42.16	15.75	-51.4	-53.2	15.0	0.00e+00	0	22	0	348127232	68	4595
2026-01-12 22:31:43.41	42.32	15.82	-51.1	-52.9	15.2	0.00e+00	0	22	0	349175808	68	4392
2026-01-12 22:31:44.41	42.49	15.89	-51.3	-53.1	15.0	0.00e+00	0	22	0	351272960	68	4534
2026-01-12 22:31:45.40	42.66	15.96	-51.3	-53.1	15.1	0.00e+00	0	22	0	353370112	68	4512
2026-01-12 22:31:46.40	42.83	16.03	-51.2	-53.0	15.1	0.00e+00	0	22	0	355467264	68	4450
2026-01-12 22:31:47.40	43.00	16.10	-51.1	-52.9	15.2	0.00e+00	0	22	0	356515840	68	4393
2026-01-12 22:31:48.39	43.17	16.17	-51.0	-52.8	15.3	0.00e+00	0	22	0	358612992	68	4353
2026-01-12 22:31:49.38	43.34	16.24	-51.0	-52.8	15.3	0.00e+00	0	22	0	360710144	68	4367
2026-01-12 22:31:50.38	43.51	16.31	-50.9	-52.6	15.4	0.00e+00	0	22	0	362807296	68	4271
2026-01-12 22:31:51.38	43.68	16.38	-51.0	-52.7	15.3	0.00e+00	0	22	0	364904448	68	4321
2026-01-12 22:31:52.38	43.86	16.45	-50.9	-52.6	15.4	0.00e+00	0	22	0	365953024	68	4261
2026-01-12 22:31:53.37	44.03	16.52	-51.1	-52.8	15.2	0.00e+00	0	22	0	368050176	68	4389
2026-01-12 22:31:54.37	44.20	16.59	-50.9	-52.6	15.3	0.00e+00	0	22	0	370147328	68	4283
2026-01-12 22:31:55.36	44.38	16.66	-51.1	-52.8	15.2	0.00e+00	0	22	0	372244480	68	4381
2026-01-12 22:31:56.36	44.56	16.73	-51.2	-53.0	15.2	0.00e+00	0	22	0	373293056	68	4443
2026-01-12 22:31:57.35	44.73	16.80	-51.2	-53.0	15.1	0.00e+00	0	22	0	375390208	68	4471
2026-01-12 22:31:58.35	44.91	16.87	-51.3	-53.2	15.0	0.00e+00	0	22	0	377487360	68	4573
2026-01-12 22:31:59.35	45.09	16.94	-51.3	-53.1	15.1	0.00e+00	0	22	0	379584512	68	4523
2026-01-12 22:32:00.36	45.27	17.01	-51.4	-53.2	15.0	0.00e+00	0	22	0	381681664	68	4577
2026-01-12 22:32:01.36	45.45	17.08	-51.1	-52.9	15.2	0.00e+00	0	22	0	382730240	68	4419
2026-01-12 22:32:02.36	45.64	17.15	-51.2	-53.1	15.1	0.00e+00	0	22	0	384827392	68	4498
2026-01-12 22:32:03.37	45.82	17.22	-51.0	-52.8	15.2	0.00e+00	0	22	0	386924544	68	4366
2026-01-12 22:32:04.36	46.00	17.29	-51.1	-52.9	15.2	0.00e+00	0	22	0	389021696	68	4398
2026-01-12 22:32:05.36	46.19	17.35	-51.2	-53.0	15.1	0.00e+00	0	22	0	391118848	68	4445
2026-01-12 22:32:06.35	46.37	17.42	-51.3	-53.1	15.1	0.00e+00	0	22	0	392167424	68	4502
2026-01-12 22:32:07.34	46.55	17.49	-51.3	-53.1	15.1	0.00e+00	0	22	0	394264576	68	4505
2026-01-12 22:32:08.35	46.74	17.56	-51.4	-53.3	15.0	0.00e+00	0	22	0	396361728	68	4612
2026-01-12 22:32:09.35	46.93	17.63	-51.3	-53.2	15.0	0.00e+00	0	22	0	398458880	68	4567
2026-01-12 22:32:10.34	47.12	17.70	-51.3	-53.2	15.0	0.00e+00	0	22	0	399507456	68	4567
2026-01-12 22:32:11.34	47.31	17.77	-51.4	-53.2	15.0	0.00e+00	0	22	0	401604608	68	4587
2026-01-12 22:32:12.35	47.50	17.83	-51.3	-53.1	15.1	0.00e+00	0	22	0	403701760	68	4524
2026-01-12 22:32:13.35	47.69	17.90	-51.3	-53.1	15.1	0.00e+00	0	22	0	405798912	68	4514
2026-01-12 22:32:14.34	47.88	17.97	-51.2	-53.0	15.2	0.00e+00	0	22	0	407896064	68	4449
2026-01-12 22:32:15.34	48.07	18.04	-51.1	-52.9	15.2	0.00e+00	0	22	0	408944640	68	4419
2026-01-12 22:32:16.34	48.26	18.11	-51.2	-53.0	15.1	0.00e+00	0	22	0	411041792	68	4481
2026-01-12 22:32:17.34	48.46	18.17	-51.2	-53.0	15.1	0.00e+00	0	22	0	413138944	68	4490
2026-01-12 22:32:18.34	48.65	18.24	-51.3	-53.1	15.1	0.00e+00	0	22	0	415236096	68	4535
2026-01-12 22:32:19.34	48.85	18.31	-51.2	-53.0	15.1	0.00e+00	0	22	0	417333248	68	4475
2026-01-12 22:32:20.34	49.05	18.38	-51.3	-53.1	15.1	0.00e+00	0	22	0	418381824	68	4505
2026-01-12 22:32:21.33	49.24	18.44	-51.1	-52.9	15.2	0.00e+00	0	22	0	420478976	68	4419
2026-01-12 22:32:22.33	49.44	18.51	-51.0	-52.7	15.3	0.00e+00	0	22	0	422576128	68	4314
2026-01-12 22:32:23.32	49.64	18.58	-51.1	-52.8	15.2	0.00e+00	0	22	0	424673280	68	4374
2026-01-12 22:32:24.32	49.84	18.64	-51.1	-52.8	15.3	0.00e+00	0	22	0	425721856	68	4361
2026-01-12 22:32:25.32	50.04	18.71	-51.2	-52.9	15.2	0.00e+00	0	22	0	427819008	68	4439
2026-01-12 22:32:26.31	50.24	18.78	-51.3	-53.1	15.1	0.00e+00	0	22	0	429916160	68	4504
2026-01-12 22:32:27.31	50.44	18.84	-51.6	-53.5	14.9	0.00e+00	0	22	0	432013312	68	4738
2026-01-12 22:32:28.31	50.65	18.91	-51.6	-53.6	14.8	0.00e+00	0	22	0	434110464	68	4775
2026-01-12 22:32:29.31	50.85	18.97	-51.6	-53.6	14.8	0.00e+00	0	22	0	435159040	68	4772
2026-01-12 22:32:30.31	51.06	19.04	-51.8	-53.7	14.7	0.00e+00	0	22	0	437256192	68	4854
2026-01-12 22:32:31.32	51.26	19.11	-51.6	-53.4	14.9	0.00e+00	0	22	0	439353344	68	4698
2026-01-12 22:32:32.32	51.47	19.17	-51.3	-53.1	15.1	0.00e+00	0	22	0	441450496	68	4513
2026-01-12 22:32:33.31	51.68	19.24	-51.3	-53.1	15.0	0.00e+00	0	22	0	443547648	68	4518
2026-01-12 22:32:34.31	51.89	19.30	-51.4	-53.2	15.0	0.00e+00	0	22	0	444596224	68	4576
2026-01-12 22:32:35.31	52.10	19.37	-51.4	-53.3	15.0	0.00e+00	0	22	0	446693376	68	4606
2026-01-12 22:32:36.31	52.31	19.43	-51.8	-53.8	14.7	0.00e+00	0	22	0	448790528	68	4881
2026-01-12 22:32:37.30	52.52	19.49	-51.8	-53.7	14.9	0.00e+00	0	22	0	450887680	69	4569
2026-01-12 22:32:38.31	52.73	19.56	-51.9	-53.9	14.8	0.00e+00	0	22	0	451936256	69	4669
2026-01-12 22:32:39.30	52.94	19.62	-52.0	-54.0	14.7	0.00e+00	0	22	0	454033408	69	4738
2026-01-12 22:32:40.30	53.16	19.69	-51.8	-53.7	14.9	0.00e+00	0	22	0	456130560	69	4589
2026-01-12 22:32:41.29	53.37	19.75	-51.5	-53.3	15.1	0.00e+00	0	22	0	458227712	69	4377
2026-01-12 22:32:42.29	53.58	19.81	-51.5	-53.3	15.1	0.00e+00	0	22	0	460324864	69	4382
2026-01-12 22:32:43.28	53.80	19.87	-51.8	-53.7	14.9	0.00e+00	0	22	0	461373440	69	4572
2026-01-12 22:32:44.28	54.02	19.94	-52.0	-54.0	14.8	0.00e+00	0	22	0	463470592	69	4726
2026-01-12 22:32:45.27	54.23	20.00	-52.2	-54.3	14.6	0.00e+00	0	22	0	465567744	69	4896
2026-01-12 22:32:46.27	54.45	20.06	-52.5	-54.6	14.6	0.00e+00	0	22	0	467664896	70	4799
2026-01-12 22:32:47.26	54.67	20.12	-52.7	-54.9	14.4	0.00e+00	0	22	0	468713472	70	4981
2026-01-12 22:32:48.25	54.89	20.18	-52.4	-54.6	14.6	0.00e+00	0	22	0	470810624	70	4767
2026-01-12 22:32:49.25	55.11	20.25	-52.3	-54.4	14.7	0.00e+00	0	22	0	472907776	70	4663
2026-01-12 22:32:50.26	55.34	20.31	-52.1	-54.1	14.8	0.00e+00	0	22	0	475004928	70	4539
2026-01-12 22:32:51.25	55.56	20.37	-51.9	-53.8	15.0	0.00e+00	0	22	0	477102080	70	4377
2026-01-12 22:32:52.25	55.78	20.43	-52.0	-53.9	15.0	0.00e+00	0	22	0	478150656	70	4421
2026-01-12 22:32:53.25	56.01	20.49	-51.8	-53.7	15.1	0.00e+00	0	22	0	480247808	70	4332
2026-01-12 22:32:54.26	56.24	20.55	-51.8	-53.7	15.1	0.00e+00	0	22	0	482344960	70	4336
2026-01-12 22:32:55.25	56.46	20.61	-51.8	-53.7	15.1	0.00e+00	0	22	0	484442112	70	4338
2026-01-12 22:32:56.25	56.69	20.67	-52.0	-53.9	15.0	0.00e+00	0	22	0	485490688	70	4434
2026-01-12 22:32:57.24	56.92	20.73	-51.7	-53.6	15.2	0.00e+00	0	22	0	487587840	70	4265
2026-01-12 22:32:58.24	57.15	20.79	-51.7	-53.5	15.0	0.00e+00	0	22	0	489684992	69	4492
2026-01-12 22:32:59.23	57.37	20.84	-51.7	-53.6	15.0	0.00e+00	0	22	0	491782144	69	4505
2026-01-12 22:33:00.23	57.61	20.90	-51.9	-53.8	14.8	0.00e+00	0	22	0	493879296	69	4645
2026-01-12 22:33:01.22	57.84	20.96	-52.2	-54.3	14.6	0.00e+00	0	22	0	494927872	69	4909
2026-01-12 22:33:02.23	58.07	21.02	-52.1	-54.2	14.7	0.00e+00	0	22	0	497025024	69	4836
2026-01-12 22:33:03.23	58.30	21.08	-52.2	-54.3	14.6	0.00e+00	0	22	0	499122176	69	4885
2026-01-12 22:33:04.24	58.54	21.13	-52.1	-54.1	14.7	0.00e+00	0	22	0	501219328	69	4792
2026-01-12 22:33:05.24	58.78	21.19	-51.8	-53.7	14.9	0.00e+00	0	22	0	503316480	69	4587
2026-01-12 22:33:06.23	59.01	21.25	-51.6	-53.5	15.1	0.00e+00	0	22	0	504365056	69	4454
2026-01-12 22:33:07.23	59.25	21.30	-51.3	-53.0	15.3	0.00e+00	0	22	0	506462208	69	4226
2026-01-12 22:33:08.23	59.49	21.36	-51.1	-52.8	15.3	0.00e+00	0	22	0	508559360	68	4366
2026-01-12 22:33:09.22	59.72	21.41	-51.3	-53.0	15.1	0.00e+00	0	22	0	510656512	68	4485
2026-01-12 22:33:10.21	59.96	21.47	-51.3	-53.0	15.1	0.00e+00	0	22	0	512753664	68	4490
2026-01-12 22:33:11.21	60.20	21.52	-51.3	-53.1	15.1	0.00e+00	0	22	0	513802240	68	4512
2026-01-12 22:33:12.21	60.44	21.57	-51.3	-53.1	15.1	0.00e+00	0	22	0	515899392	68	4499
2026-01-12 22:33:13.21	60.69	21.63	-51.5	-53.3	15.0	0.00e+00	0	22	0	517996544	68	4643
2026-01-12 22:33:14.21	60.93	21.68	-51.8	-53.8	14.7	0.00e+00	0	22	0	520093696	68	4882
2026-01-12 22:33:15.21	61.17	21.73	-52.1	-54.2	14.7	0.00e+00	0	22	0	521142272	69	4834
2026-01-12 22:33:16.21	61.42	21.79	-52.4	-54.6	14.4	0.00e+00	0	22	0	523239424	69	5051
2026-01-12 22:33:17.21	61.66	21.84	-52.7	-55.0	14.4	0.00e+00	0	22	0	525336576	70	4996
2026-01-12 22:33:18.20	61.91	21.89	-52.6	-54.7	14.5	0.00e+00	0	22	0	527433728	70	4851
2026-01-12 22:33:19.21	62.16	21.94	-52.2	-54.2	14.8	0.00e+00	0	22	0	529530880	70	4582
2026-01-12 22:33:20.20	62.40	21.99	-52.0	-53.9	15.0	0.00e+00	0	22	0	530579456	70	4432
2026-01-12 22:33:21.19	62.65	22.04	-51.6	-53.5	15.1	0.00e+00	0	22	0	532676608	69	4443
2026-01-12 22:33:22.19	62.90	22.09	-51.4	-53.1	15.3	0.00e+00	0	22	0	534773760	69	4287
2026-01-12 22:33:23.19	63.15	22.14	-51.6	-53.4	15.1	0.00e+00	0	22	0	536870912	69	4426
2026-01-12 22:33:24.19	63.40	22.19	-51.8	-53.7	14.9	0.00e+00	0	22	0	537919488	69	4582
2026-01-12 22:33:25.18	63.65	22.24	-52.0	-54.0	14.8	0.00e+00	0	22	0	540016640	69	4736
2026-01-12 22:33:26.18	63.90	22.28	-52.0	-54.0	14.7	0.00e+00	0	22	0	542113792	69	4748
2026-01-12 22:33:27.18	64.16	22.33	-51.9	-53.9	14.8	0.00e+00	0	22	0	544210944	69	4668
2026-01-12 22:33:28.18	64.41	22.38	-51.9	-53.8	14.9	0.00e+00	0	22	0	546308096	69	4629
2026-01-12 22:33:29.18	64.66	22.42	-51.9	-53.9	14.8	0.00e+00	0	22	0	547356672	69	4684
2026-01-12 22:33:30.18	64.92	22.47	-51.9	-53.9	14.8	0.00e+00	0	22	0	549453824	69	4686
2026-01-12 22:33:31.17	65.17	22.52	-51.9	-53.9	14.9	0.00e+00	0	22	0	551550976	69	4654
2026-01-12 22:33:32.17	65.43	22.56	-52.0	-53.9	14.8	0.00e+00	0	22	0	553648128	69	4695
2026-01-12 22:33:33.17	65.69	22.61	-52.0	-54.0	14.8	0.00e+00	0	22	0	555745280	69	4736
2026-01-12 22:33:34.16	65.95	22.65	-52.0	-54.0	14.8	0.00e+00	0	22	0	556793856	69	4726
2026-01-12 22:33:35.15	66.20	22.69	-51.5	-53.3	15.2	0.00e+00	0	22	0	558891008	69	4357
2026-01-12 22:33:36.15	66.46	22.74	-51.4	-53.1	15.3	0.00e+00	0	22	0	560988160	69	4289
2026-01-12 22:33:37.15	66.72	22.78	-51.7	-53.5	15.1	0.00e+00	0	22	0	563085312	69	4486
2026-01-12 22:33:38.14	66.98	22.82	-52.0	-54.0	14.8	0.00e+00	0	22	0	564133888	69	4733
2026-01-12 22:33:39.14	67.24	22.86	-52.5	-54.7	14.5	0.00e+00	0	22	0	566231040	70	4820
2026-01-12 22:33:40.13	67.50	22.90	-52.8	-55.1	14.4	0.00e+00	0	22	0	568328192	70	5042
2026-01-12 22:33:41.13	67.77	22.94	-52.8	-55.1	14.3	0.00e+00	0	22	0	570425344	70	5064
2026-01-12 22:33:42.13	68.03	22.98	-52.7	-55.0	14.4	0.00e+00	0	22	0	572522496	70	4996
2026-01-12 22:33:43.12	68.29	23.02	-52.4	-54.5	14.6	0.00e+00	0	22	0	573571072	70	4750
2026-01-12 22:33:44.12	68.56	23.06	-52.4	-54.4	14.7	0.00e+00	0	22	0	575668224	70	4695
2026-01-12 22:33:45.12	68.83	23.10	-52.2	-54.2	14.8	0.00e+00	0	22	0	577765376	70	4595
2026-01-12 22:33:46.11	69.09	23.13	-52.2	-54.2	14.9	0.00e+00	0	22	0	579862528	70	4589
2026-01-12 22:33:47.12	69.36	23.17	-52.4	-54.4	14.7	0.00e+00	0	22	0	581959680	70	4703
2026-01-12 22:33:48.11	69.62	23.21	-52.4	-54.5	14.6	0.00e+00	0	22	0	583008256	70	4741
2026-01-12 22:33:49.12	69.90	23.24	-52.4	-54.5	14.7	0.00e+00	0	22	0	585105408	70	4718
2026-01-12 22:33:50.11	70.16	23.28	-52.5	-54.7	14.5	0.00e+00	0	22	0	587202560	70	4837
2026-01-12 22:33:51.11	70.43	23.31	-52.7	-54.9	14.4	0.00e+00	0	23	0	589299712	70	4941
2026-01-12 22:33:52.10	70.70	23.35	-52.7	-55.0	14.3	0.00e+00	0	22	0	590348288	70	4989
2026-01-12 22:33:53.10	70.97	23.38	-52.8	-55.0	14.3	0.00e+00	0	22	0	592445440	70	5032
2026-01-12 22:33:54.10	71.24	23.41	-52.9	-55.1	14.2	0.00e+00	0	22	0	594542592	70	5099
2026-01-12 22:33:55.10	71.51	23.44	-53.2	-55.6	14.2	0.00e+00	0	22	0	596639744	71	5050
2026-01-12 22:33:56.10	71.79	23.48	-53.2	-55.7	14.1	0.00e+00	0	22	0	598736896	71	5121
2026-01-12 22:33:57.10	72.06	23.51	-53.2	-55.6	14.1	0.00e+00	0	22	0	599785472	71	5084
2026-01-12 22:33:58.10	72.33	23.54	-53.5	-56.0	14.0	0.00e+00	0	22	0	601882624	72	5018
2026-01-12 22:33:59.10	72.61	23.57	-53.4	-55.9	14.1	0.00e+00	0	22	0	603979776	72	4973
2026-01-12 22:34:00.10	72.88	23.60	-53.3	-55.7	14.2	0.00e+00	0	22	0	606076928	72	4840
2026-01-12 22:34:01.09	73.16	23.62	-53.0	-55.3	14.5	0.00e+00	0	22	0	607125504	72	4634
2026-01-12 22:34:02.09	73.43	23.65	-52.5	-54.7	14.7	0.00e+00	0	22	0	609222656	71	4547
2026-01-12 22:34:03.08	73.70	23.68	-52.4	-54.4	14.9	0.00e+00	0	22	0	611319808	71	4417
2026-01-12 22:34:04.09	73.98	23.71	-52.1	-54.0	14.9	0.00e+00	0	22	0	613416960	70	4480
2026-01-12 22:34:05.09	74.26	23.73	-52.0	-54.0	15.0	0.00e+00	0	22	0	615514112	70	4444
2026-01-12 22:34:06.09	74.54	23.76	-51.7	-53.6	15.2	0.00e+00	0	22	0	616562688	70	4248
2026-01-12 22:34:07.08	74.81	23.78	-51.5	-53.4	15.1	0.00e+00	0	22	0	618659840	69	4394
2026-01-12 22:34:08.08	75.09	23.80	-51.4	-53.2	15.2	0.00e+00	0	22	0	620756992	69	4319
2026-01-12 22:34:09.08	75.37	23.83	-51.2	-52.9	15.4	0.00e+00	0	22	0	622854144	69	4175
2026-01-12 22:34:10.08	75.65	23.85	-51.4	-53.2	15.3	0.00e+00	0	22	0	624951296	69	4300
2026-01-12 22:34:11.08	75.93	23.87	-51.8	-53.8	14.9	0.00e+00	0	22	0	625999872	69	4620
2026-01-12 22:34:12.09	76.21	23.89	-52.3	-54.4	14.5	0.00e+00	0	22	0	628097024	69	4976
2026-01-12 22:34:13.09	76.49	23.91	-52.6	-54.8	14.5	0.00e+00	0	22	0	630194176	70	4872
2026-01-12 22:34:14.09	76.77	23.93	-52.5	-54.6	14.6	0.00e+00	0	22	0	632291328	70	4788
2026-01-12 22:34:15.10	77.06	23.95	-52.0	-53.9	15.0	0.00e+00	0	22	0	633339904	70	4434
2026-01-12 22:34:16.09	77.34	23.97	-51.8	-53.7	15.1	0.00e+00	0	22	0	635437056	70	4339
2026-01-12 22:34:17.10	77.62	23.99	-51.5	-53.3	15.1	0.00e+00	0	22	0	637534208	69	4380
2026-01-12 22:34:18.09	77.90	24.01	-51.7	-53.5	15.1	0.00e+00	0	22	0	639631360	69	4485
2026-01-12 22:34:19.10	78.18	24.02	-52.0	-54.0	14.8	0.00e+00	0	22	0	641728512	69	4720
2026-01-12 22:34:20.09	78.46	24.04	-52.1	-54.1	14.7	0.00e+00	0	22	0	642777088	69	4801
2026-01-12 22:34:21.09	78.75	24.05	-52.1	-54.1	14.7	0.00e+00	0	22	0	644874240	69	4774
2026-01-12 22:34:22.08	79.03	24.07	-51.9	-53.8	14.9	0.00e+00	0	22	0	646971392	69	4645
2026-01-12 22:34:23.08	79.31	24.08	-51.6	-53.5	15.0	0.00e+00	0	22	0	649068544	69	4468
2026-01-12 22:34:24.08	79.59	24.09	-51.8	-53.7	14.9	0.00e+00	0	22	0	651165696	69	4582
2026-01-12 22:34:25.09	79.88	24.10	-52.2	-54.2	14.7	0.00e+00	0	22	0	652214272	69	4852
2026-01-12 22:34:26.08	80.16	24.12	-52.2	-54.2	14.6	0.00e+00	0	22	0	654311424	69	4847
2026-01-12 22:34:27.08	80.45	24.13	-52.0	-54.0	14.7	0.00e+00	0	22	0	656408576	69	4736
2026-01-12 22:34:28.07	80.73	24.14	-51.8	-53.7	15.0	0.00e+00	0	22	0	658505728	69	4551
2026-01-12 22:34:29.07	81.01	24.15	-51.3	-53.1	15.3	0.00e+00	0	22	0	660602880	69	4260
2026-01-12 22:34:30.06	81.29	24.15	-51.0	-52.6	15.3	0.00e+00	0	22	0	661651456	68	4291
2026-01-12 22:34:31.07	81.58	24.16	-51.1	-52.8	15.3	0.00e+00	0	22	0	663748608	68	4361
2026-01-12 22:34:32.07	81.87	24.17	-51.1	-52.9	15.2	0.00e+00	0	22	0	665845760	68	4418
2026-01-12 22:34:33.07	82.15	24.17	-51.3	-53.1	15.1	0.00e+00	0	22	0	667942912	68	4525
2026-01-12 22:34:34.07	82.44	24.18	-51.4	-53.2	15.0	0.00e+00	0	22	0	668991488	68	4575
2026-01-12 22:34:35.07	82.72	24.19	-51.5	-53.3	15.0	0.00e+00	0	22	0	671088640	68	4646
2026-01-12 22:34:36.07	83.01	24.19	-51.6	-53.4	14.9	0.00e+00	0	22	0	673185792	68	4700
2026-01-12 22:34:37.07	83.29	24.19	-51.5	-53.4	14.9	0.00e+00	0	23	0	675282944	68	4669
2026-01-12 22:34:38.07	83.58	24.19	-51.3	-53.0	15.1	0.00e+00	0	22	0	677380096	68	4493
2026-01-12 22:34:39.07	83.87	24.20	-51.2	-52.9	15.1	0.00e+00	0	22	0	678428672	68	4430
2026-01-12 22:34:40.06	84.15	24.20	-51.1	-52.8	15.2	0.00e+00	0	22	0	680525824	68	4379
2026-01-12 22:34:41.05	84.43	24.20	-51.1	-52.9	15.2	0.00e+00	0	22	0	682622976	68	4404
2026-01-12 22:34:42.05	84.72	24.20	-51.2	-53.0	15.2	0.00e+00	0	22	0	684720128	68	4447
2026-01-12 22:34:43.05	85.00	24.20	-51.2	-52.9	15.2	0.00e+00	0	22	0	685768704	68	4417
2026-01-12 22:34:44.05	85.29	24.20	-51.1	-52.8	15.3	0.00e+00	0	22	0	687865856	68	4379
2026-01-12 22:34:45.05	85.57	24.19	-51.2	-53.0	15.2	0.00e+00	0	22	0	689963008	68	4470
2026-01-12 22:34:46.04	85.86	24.19	-51.3	-53.1	15.1	0.00e+00	0	22	0	692060160	68	4515
2026-01-12 22:34:47.04	86.14	24.19	-51.4	-53.3	15.0	0.00e+00	0	22	0	694157312	68	4600
2026-01-12 22:34:48.04	86.43	24.18	-51.5	-53.4	15.0	0.00e+00	0	22	0	695205888	68	4658
2026-01-12 22:34:49.03	86.71	24.18	-51.3	-53.1	15.1	0.00e+00	0	22	0	697303040	68	4516
2026-01-12 22:34:50.04	87.00	24.17	-51.2	-53.0	15.1	0.00e+00	0	22	0	699400192	68	4464
2026-01-12 22:34:51.04	87.28	24.16	-51.0	-52.6	15.3	0.00e+00	0	22	0	701497344	68	4289
2026-01-12 22:34:52.03	87.57	24.15	-50.9	-52.6	15.4	0.00e+00	0	22	0	703594496	68	4274
2026-01-12 22:34:53.03	87.85	24.15	-51.0	-52.7	15.3	0.00e+00	0	22	0	704643072	68	4321
2026-01-12 22:34:54.02	88.13	24.14	-51.1	-52.8	15.3	0.00e+00	0	22	0	706740224	68	4377
2026-01-12 22:34:55.02	88.42	24.13	-51.1	-52.9	15.2	0.00e+00	0	22	0	708837376	68	4412
2026-01-12 22:34:56.02	88.70	24.12	-51.2	-53.0	15.2	0.00e+00	0	22	0	710934528	68	4462
2026-01-12 22:34:57.02	88.99	24.11	-51.3	-53.1	15.1	0.00e+00	0	22	0	711983104	68	4540
2026-01-12 22:34:58.02	89.27	24.09	-51.5	-53.3	15.0	0.00e+00	0	22	0	714080256	68	4644
2026-01-12 22:34:59.01	89.55	24.08	-51.6	-53.5	14.9	0.00e+00	0	22	0	716177408	68	4707
2026-01-12 22:35:00.01	89.83	24.07	-51.6	-53.4	14.9	0.00e+00	0	22	0	718274560	68	4696
2026-01-12 22:35:01.01	90.12	24.05	-51.5	-53.4	14.9	0.00e+00	0	23	0	720371712	68	4661
2026-01-12 22:35:02.01	90.40	24.04	-51.5	-53.3	15.0	0.00e+00	0	22	0	721420288	68	4625
2026-01-12 22:35:03.00	90.68	24.02	-51.4	-53.2	15.1	0.00e+00	0	22	0	723517440	68	4564
2026-01-12 22:35:04.00	90.96	24.01	-51.3	-53.0	15.1	0.00e+00	0	22	0	725614592	68	4480
2026-01-12 22:35:05.00	91.25	23.99	-51.2	-52.9	15.2	0.00e+00	0	22	0	727711744	68	4439
2026-01-12 22:35:05.99	91.52	23.97	-51.1	-52.8	15.3	0.00e+00	0	22	0	728760320	68	4359
2026-01-12 22:35:06.99	91.81	23.96	-50.9	-52.5	15.4	0.00e+00	0	22	0	730857472	68	4222
2026-01-12 22:35:07.99	92.09	23.94	-50.8	-52.4	15.5	0.00e+00	0	22	0	732954624	68	4165
2026-01-12 22:35:09.00	92.37	23.92	-50.4	-52.0	15.5	0.00e+00	0	22	0	735051776	67	4226
2026-01-12 22:35:10.01	92.65	23.90	-50.6	-52.2	15.4	0.00e+00	0	22	0	737148928	67	4326
2026-01-12 22:35:11.01	92.94	23.88	-50.8	-52.5	15.2	0.00e+00	0	22	0	739246080	67	4473
2026-01-12 22:35:12.01	93.21	23.85	-50.9	-52.6	15.2	0.00e+00	0	22	0	740294656	67	4531
2026-01-12 22:35:13.02	93.50	23.83	-50.8	-52.5	15.2	0.00e+00	0	22	0	742391808	67	4462
2026-01-12 22:35:14.02	93.78	23.81	-50.4	-52.0	15.4	0.00e+00	0	22	0	744488960	67	4229
2026-01-12 22:35:15.03	94.06	23.78	-50.3	-51.9	15.5	0.00e+00	0	22	0	746586112	67	4191
2026-01-12 22:35:16.03	94.34	23.76	-50.2	-51.8	15.3	0.00e+00	0	22	0	747634688	66	4355
2026-01-12 22:35:17.04	94.62	23.73	-50.2	-51.8	15.4	0.00e+00	0	22	0	749731840	66	4357
2026-01-12 22:35:18.03	94.89	23.71	-50.3	-51.9	15.4	0.00e+00	0	22	0	751828992	66	4417
2026-01-12 22:35:19.03	95.17	23.68	-50.4	-52.1	15.3	0.00e+00	0	22	0	753926144	66	4498
2026-01-12 22:35:20.03	95.45	23.66	-50.4	-52.0	15.3	0.00e+00	0	22	0	756023296	66	4459
2026-01-12 22:35:21.03	95.72	23.63	-50.2	-51.8	15.4	0.00e+00	0	22	0	757071872	66	4349
2026-01-12 22:35:22.03	96.00	23.60	-50.0	-51.6	15.5	0.00e+00	0	22	0	759169024	66	4250
2026-01-12 22:35:23.04	96.28	23.57	-49.8	-51.3	15.7	0.00e+00	0	22	0	761266176	66	4102
2026-01-12 22:35:24.04	96.55	23.54	-49.7	-51.2	15.5	0.00e+00	0	22	0	763363328	65	4293
2026-01-12 22:35:25.04	96.82	23.51	-49.7	-51.2	15.5	0.00e+00	0	23	0	765460480	65	4334
2026-01-12 22:35:26.04	97.10	23.48	-50.0	-51.5	15.3	0.00e+00	0	22	0	766509056	65	4489
2026-01-12 22:35:27.04	97.37	23.45	-50.1	-51.7	15.3	0.00e+00	0	22	0	768606208	65	4562
2026-01-12 22:35:28.04	97.64	23.41	-50.5	-52.1	15.2	0.00e+00	0	22	0	770703360	66	4540
2026-01-12 22:35:29.04	97.91	23.38	-50.7	-52.4	15.1	0.00e+00	0	22	0	772800512	66	4667
2026-01-12 22:35:30.03	98.18	23.35	-50.7	-52.4	15.1	0.00e+00	0	23	0	773849088	66	4693
2026-01-12 22:35:31.03	98.45	23.32	-50.5	-52.2	15.2	0.00e+00	0	22	0	775946240	66	4580
2026-01-12 22:35:32.04	98.73	23.28	-50.3	-52.0	15.3	0.00e+00	0	22	0	778043392	66	4464
2026-01-12 22:35:33.05	99.00	23.24	-50.1	-51.7	15.4	0.00e+00	0	22	0	780140544	66	4302
2026-01-12 22:35:34.05	99.27	23.21	-50.0	-51.6	15.5	0.00e+00	0	22	0	782237696	66	4272
2026-01-12 22:35:35.05	99.54	23.17	-49.9	-51.5	15.5	0.00e+00	0	22	0	784334848	66	4210
2026-01-12 22:35:36.06	99.81	23.13	-49.9	-51.4	15.6	0.00e+00	0	22	0	785383424	66	4165
2026-01-12 22:35:37.06	100.08	23.10	-49.8	-51.3	15.7	0.00e+00	0	22	0	787480576	66	4101
2026-01-12 22:35:38.06	100.34	23.06	-49.8	-51.3	15.7	0.00e+00	0	22	0	789577728	66	4121
2026-01-12 22:35:39.06	100.61	23.02	-49.6	-51.1	15.6	0.00e+00	0	22	0	791674880	65	4254
2026-01-12 22:35:40.06	100.87	22.98	-49.3	-50.7	15.7	0.00e+00	0	22	0	792723456	65	4076
2026-01-12 22:35:41.06	101.14	22.94	-49.2	-50.6	15.8	0.00e+00	0	22	0	794820608	65	4040
2026-01-12 22:35:42.06	101.40	22.90	-48.8	-50.2	15.8	0.00e+00	0	23	0	796917760	64	4081
2026-01-12 22:35:43.06	101.67	22.86	-49.0	-50.4	15.8	0.00e+00	0	22	0	799014912	64	4146
2026-01-12 22:35:44.06	101.93	22.82	-48.9	-50.3	15.7	0.00e+00	0	22	0	801112064	64	4135
2026-01-12 22:35:45.07	102.19	22.78	-49.2	-50.6	15.6	0.00e+00	0	22	0	802160640	64	4260
2026-01-12 22:35:46.06	102.45	22.73	-49.5	-51.0	15.4	0.00e+00	0	22	0	804257792	64	4467
2026-01-12 22:35:47.05	102.71	22.69	-49.8	-51.3	15.3	0.00e+00	0	22	0	806354944	64	4618
2026-01-12 22:35:48.05	102.97	22.65	-49.7	-51.2	15.5	0.00e+00	0	22	0	808452096	65	4339
2026-01-12 22:35:49.06	103.23	22.60	-49.6	-51.1	15.5	0.00e+00	0	22	0	810549248	65	4264
2026-01-12 22:35:50.05	103.49	22.56	-49.5	-51.0	15.6	0.00e+00	0	22	0	811597824	65	4207
2026-01-12 22:35:51.05	103.74	22.51	-49.3	-50.8	15.7	0.00e+00	0	22	0	813694976	65	4116
2026-01-12 22:35:52.05	104.00	22.47	-49.1	-50.5	15.7	0.00e+00	0	22	0	815792128	64	4205
2026-01-12 22:35:53.06	104.26	22.42	-49.1	-50.5	15.7	0.00e+00	0	22	0	817889280	64	4234
2026-01-12 22:35:54.07	104.52	22.37	-49.2	-50.7	15.6	0.00e+00	0	22	0	819986432	64	4314
2026-01-12 22:35:55.06	104.77	22.33	-49.7	-51.2	15.3	0.00e+00	0	22	0	821035008	64	4564
2026-01-12 22:35:56.06	105.02	22.28	-50.0	-51.6	15.4	0.00e+00	0	22	0	823132160	65	4519
2026-01-12 22:35:57.06	105.28	22.23	-49.9	-51.4	15.4	0.00e+00	0	22	0	825229312	65	4432
2026-01-12 22:35:58.06	105.53	22.18	-49.7	-51.3	15.5	0.00e+00	0	22	0	827326464	65	4343
2026-01-12 22:35:59.07	105.78	22.13	-49.9	-51.4	15.4	0.00e+00	0	22	0	828375040	65	4419
2026-01-12 22:36:00.07	106.04	22.08	-49.6	-51.1	15.5	0.00e+00	0	22	0	830472192	65	4280
2026-01-12 22:36:01.07	106.29	22.03	-49.4	-50.9	15.6	0.00e+00	0	22	0	832569344	65	4180
2026-01-12 22:36:02.07	106.54	21.98	-49.8	-51.3	15.5	0.00e+00	0	22	0	834666496	65	4365
2026-01-12 22:36:03.07	106.78	21.93	-49.6	-51.2	15.5	0.00e+00	0	22	0	836763648	65	4296
2026-01-12 22:36:04.07	107.03	21.88	-49.9	-51.4	15.4	0.00e+00	0	22	0	837812224	65	4427
2026-01-12 22:36:05.06	107.28	21.83	-49.9	-51.5	15.3	0.00e+00	0	22	0	839909376	65	4478
2026-01-12 22:36:06.06	107.52	21.78	-49.9	-51.5	15.4	0.00e+00	0	22	0	842006528	65	4476
2026-01-12 22:36:07.06	107.77	21.72	-49.8	-51.3	15.4	0.00e+00	0	22	0	844103680	65	4385
2026-01-12 22:36:08.06	108.01	21.67	-49.7	-51.3	15.5	0.00e+00	0	22	0	846200832	65	4344
2026-01-12 22:36:09.05	108.25	21.62	-49.9	-51.5	15.4	0.00e+00	0	22	0	847249408	65	4447
2026-01-12 22:36:10.05	108.50	21.56	-50.0	-51.6	15.3	0.00e+00	0	22	0	849346560	65	4513
2026-01-12 22:36:11.06	108.74	21.51	-50.1	-51.7	15.3	0.00e+00	0	22	0	851443712	65	4569
2026-01-12 22:36:12.06	108.98	21.46	-50.2	-51.8	15.2	0.00e+00	0	22	0	853540864	65	4605
2026-01-12 22:36:13.06	109.22	21.40	-50.0	-51.6	15.3	0.00e+00	0	22	0	854589440	65	4527
2026-01-12 22:36:14.07	109.46	21.34	-50.1	-51.7	15.2	0.00e+00	0	23	0	856686592	65	4597
2026-01-12 22:36:15.07	109.70	21.29	-50.4	-52.1	15.2	0.00e+00	0	22	0	858783744	66	4523
2026-01-12 22:36:16.07	109.94	21.23	-50.9	-52.7	14.9	0.00e+00	0	22	0	860880896	66	4851
2026-01-12 22:36:17.08	110.18	21.18	-51.1	-52.9	15.0	0.00e+00	0	22	0	862978048	67	4675
2026-01-12 22:36:18.09	110.42	21.12	-51.1	-52.9	14.9	0.00e+00	0	22	0	864026624	67	4695
2026-01-12 22:36:19.09	110.66	21.06	-51.0	-52.7	15.1	0.00e+00	0	23	0	866123776	67	4589
2026-01-12 22:36:20.08	110.89	21.00	-50.7	-52.4	15.2	0.00e+00	0	22	0	868220928	67	4415
2026-01-12 22:36:21.08	111.12	20.95	-50.6	-52.2	15.3	0.00e+00	0	23	0	870318080	67	4324
2026-01-12 22:36:22.08	111.35	20.89	-50.4	-52.0	15.4	0.00e+00	0	22	0	872415232	67	4219
2026-01-12 22:36:23.08	111.59	20.83	-50.1	-51.6	15.5	0.00e+00	0	22	0	873463808	66	4285
2026-01-12 22:36:24.08	111.82	20.77	-50.2	-51.7	15.4	0.00e+00	0	22	0	875560960	66	4339
2026-01-12 22:36:25.08	112.05	20.71	-50.1	-51.7	15.4	0.00e+00	0	22	0	877658112	66	4330
2026-01-12 22:36:26.08	112.28	20.65	-50.3	-52.0	15.3	0.00e+00	0	22	0	879755264	66	4456
2026-01-12 22:36:27.09	112.51	20.59	-50.6	-52.3	15.1	0.00e+00	0	22	0	881852416	66	4628
2026-01-12 22:36:28.09	112.73	20.53	-50.9	-52.6	14.9	0.00e+00	0	23	0	882900992	66	4792
2026-01-12 22:36:29.09	112.96	20.47	-51.2	-53.1	14.9	0.00e+00	0	22	0	884998144	67	4780
2026-01-12 22:36:30.10	113.19	20.41	-51.4	-53.3	14.7	0.00e+00	0	22	0	887095296	67	4907
2026-01-12 22:36:31.08	113.41	20.35	-51.5	-53.4	14.9	0.00e+00	0	22	0	889192448	68	4664
2026-01-12 22:36:32.08	113.63	20.29	-51.4	-53.3	15.0	0.00e+00	0	22	0	890241024	68	4613
2026-01-12 22:36:33.09	113.86	20.23	-51.5	-53.4	14.9	0.00e+00	0	23	0	892338176	68	4671
2026-01-12 22:36:34.09	114.08	20.16	-51.3	-53.1	15.1	0.00e+00	0	23	0	894435328	68	4531
2026-01-12 22:36:35.10	114.31	20.10	-51.2	-52.9	15.1	0.00e+00	0	22	0	896532480	68	4436
2026-01-12 22:36:36.10	114.53	20.04	-50.9	-52.6	15.3	0.00e+00	0	22	0	898629632	68	4263
2026-01-12 22:36:37.10	114.75	19.98	-50.8	-52.5	15.4	0.00e+00	0	22	0	899678208	68	4223
2026-01-12 22:36:38.10	114.97	19.91	-50.5	-52.1	15.4	0.00e+00	0	22	0	901775360	67	4276
2026-01-12 22:36:39.10	115.18	19.85	-50.7	-52.4	15.2	0.00e+00	0	23	0	903872512	67	4424
2026-01-12 22:36:40.09	115.40	19.79	-50.9	-52.6	15.1	0.00e+00	0	22	0	905969664	67	4522
2026-01-12 22:36:41.09	115.62	19.72	-51.2	-53.0	14.9	0.00e+00	0	22	0	908066816	67	4743
2026-01-12 22:36:42.09	115.83	19.66	-51.2	-53.0	14.9	0.00e+00	0	23	0	909115392	67	4740
2026-01-12 22:36:43.09	116.05	19.59	-51.6	-53.5	14.8	0.00e+00	0	23	0	911212544	68	4724
2026-01-12 22:36:44.09	116.26	19.53	-51.8	-53.8	14.7	0.00e+00	0	23	0	913309696	68	4896
2026-01-12 22:36:45.09	116.47	19.47	-51.7	-53.6	14.8	0.00e+00	0	22	0	915406848	68	4776
2026-01-12 22:36:46.09	116.68	19.40	-51.5	-53.4	14.9	0.00e+00	0	23	0	916455424	68	4678
2026-01-12 22:36:47.09	116.89	19.34	-51.6	-53.5	14.8	0.00e+00	0	23	0	918552576	68	4732
2026-01-12 22:36:48.09	117.11	19.27	-51.4	-53.3	14.9	0.00e+00	0	23	0	920649728	68	4601
2026-01-12 22:36:49.09	117.31	19.21	-51.5	-53.3	14.9	0.00e+00	0	22	0	922746880	68	4640
2026-01-12 22:36:50.08	117.52	19.14	-51.6	-53.5	14.8	0.00e+00	0	23	0	924844032	68	4733
2026-01-12 22:36:51.09	117.73	19.07	-51.7	-53.7	14.7	0.00e+00	0	23	0	925892608	68	4817
2026-01-12 22:36:52.08	117.94	19.01	-51.9	-53.8	14.6	0.00e+00	0	22	0	927989760	68	4907
2026-01-12 22:36:53.08	118.14	18.94	-51.7	-53.7	14.7	0.00e+00	0	23	0	930086912	68	4835
2026-01-12 22:36:54.07	118.34	18.88	-51.7	-53.6	14.8	0.00e+00	0	22	0	932184064	68	4779
2026-01-12 22:36:55.07	118.55	18.81	-51.6	-53.6	14.8	0.00e+00	0	22	0	934281216	68	4762
2026-01-12 22:36:56.07	118.75	18.74	-51.6	-53.5	14.8	0.00e+00	0	22	0	935329792	68	4730
2026-01-12 22:36:57.08	118.96	18.68	-51.6	-53.5	14.8	0.00e+00	0	23	0	937426944	68	4721
2026-01-12 22:36:58.07	119.16	18.61	-51.8	-53.8	14.6	0.00e+00	0	23	0	939524096	68	4913
2026-01-12 22:36:59.07	119.36	18.54	-52.0	-54.1	14.6	0.00e+00	0	23	0	941621248	69	4775
2026-01-12 22:37:00.07	119.56	18.47	-51.8	-53.7	14.8	0.00e+00	0	23	0	943718400	69	4569
2026-01-12 22:37:01.07	119.75	18.41	-51.5	-53.3	15.1	0.00e+00	0	23	0	944766976	69	4383
2026-01-12 22:37:02.07	119.95	18.34	-51.2	-52.9	15.3	0.00e+00	0	23	0	946864128	69	4180
2026-01-12 22:37:03.07	120.15	18.27	-50.7	-52.4	15.4	0.00e+00	0	23	0	948961280	68	4169
2026-01-12 22:37:04.07	120.35	18.20	-50.8	-52.4	15.4	0.00e+00	0	23	0	951058432	68	4190
2026-01-12 22:37:05.08	120.54	18.14	-50.8	-52.4	15.4	0.00e+00	0	23	0	952107008	68	4190
2026-01-12 22:37:06.07	120.74	18.07	-50.9	-52.6	15.3	0.00e+00	0	23	0	954204160	68	4284
2026-01-12 22:37:07.07	120.93	18.00	-51.4	-53.2	14.9	0.00e+00	0	23	0	956301312	68	4592
2026-01-12 22:37:08.06	121.12	17.93	-51.6	-53.5	14.8	0.00e+00	0	23	0	958398464	68	4706
2026-01-12 22:37:09.07	121.32	17.86	-51.7	-53.6	14.7	0.00e+00	0	23	0	960495616	68	4813
2026-01-12 22:37:10.07	121.51	17.79	-51.8	-53.7	14.7	0.00e+00	0	23	0	961544192	68	4858
2026-01-12 22:37:11.07	121.70	17.72	-51.6	-53.5	14.8	0.00e+00	0	22	0	963641344	68	4710
2026-01-12 22:37:12.08	121.89	17.66	-51.4	-53.2	15.0	0.00e+00	0	23	0	965738496	68	4566
2026-01-12 22:37:13.08	122.08	17.59	-51.4	-53.2	15.0	0.00e+00	0	22	0	967835648	68	4574
2026-01-12 22:37:14.08	122.27	17.52	-51.5	-53.4	14.9	0.00e+00	0	23	0	969932800	68	4661
2026-01-12 22:37:15.08	122.45	17.45	-51.8	-53.7	14.7	0.00e+00	0	23	0	970981376	68	4860
2026-01-12 22:37:16.07	122.64	17.38	-52.1	-54.1	14.6	0.00e+00	0	23	0	973078528	69	4813
2026-01-12 22:37:17.08	122.82	17.31	-52.3	-54.4	14.4	0.00e+00	0	23	0	975175680	69	4955
2026-01-12 22:37:18.08	123.01	17.24	-52.6	-54.8	14.3	0.00e+00	0	23	0	977272832	70	4901
2026-01-12 22:37:19.08	123.19	17.17	-52.6	-54.9	14.4	0.00e+00	0	23	0	978321408	70	4932
2026-01-12 22:37:20.08	123.38	17.10	-52.4	-54.5	14.6	0.00e+00	0	23	0	980418560	70	4743
2026-01-12 22:37:21.08	123.56	17.03	-52.0	-54.0	14.9	0.00e+00	0	23	0	982515712	70	4454
2026-01-12 22:37:22.09	123.74	16.96	-51.6	-53.5	15.0	0.00e+00	0	23	0	984612864	69	4453
2026-01-12 22:37:23.08	123.92	16.89	-51.1	-52.9	15.1	0.00e+00	0	23	0	986710016	68	4425
2026-01-12 22:37:24.08	124.10	16.82	-51.0	-52.7	15.2	0.00e+00	0	23	0	987758592	68	4324
2026-01-12 22:37:25.09	124.28	16.75	-51.0	-52.8	15.2	0.00e+00	0	23	0	989855744	68	4351
2026-01-12 22:37:26.09	124.46	16.68	-51.1	-52.9	15.1	0.00e+00	0	23	0	991952896	68	4398
2026-01-12 22:37:27.09	124.64	16.61	-51.5	-53.4	14.8	0.00e+00	0	23	0	994050048	68	4687
2026-01-12 22:37:28.08	124.81	16.54	-51.6	-53.5	14.8	0.00e+00	0	23	0	996147200	68	4752
2026-01-12 22:37:29.08	124.99	16.47	-51.6	-53.5	14.8	0.00e+00	0	23	0	997195776	68	4734
2026-01-12 22:37:30.09	125.16	16.40	-51.6	-53.5	14.8	0.00e+00	0	23	0	999292928	68	4743
2026-01-12 22:37:31.09	125.34	16.33	-51.2	-53.0	15.0	0.00e+00	0	23	0	1001390080	68	4490
2026-01-12 22:37:32.09	125.51	16.26	-51.2	-53.0	15.1	0.00e+00	0	23	0	1003487232	68	4448
2026-01-12 22:37:33.09	125.68	16.19	-51.0	-52.8	15.1	0.00e+00	0	22	0	1005584384	68	4362
2026-01-12 22:37:34.08	125.85	16.12	-50.9	-52.7	15.2	0.00e+00	0	23	0	1006632960	68	4304
2026-01-12 22:37:35.09	126.03	16.05	-51.2	-53.0	15.1	0.00e+00	0	23	0	1008730112	68	4448
2026-01-12 22:37:36.09	126.20	15.98	-51.3	-53.2	14.9	0.00e+00	0	23	0	1010827264	68	4561
2026-01-12 22:37:37.08	126.36	15.91	-51.5	-53.4	14.8	0.00e+00	0	23	0	1012924416	68	4693
2026-01-12 22:37:38.08	126.53	15.84	-51.8	-53.8	14.6	0.00e+00	0	23	0	1013972992	68	4882
2026-01-12 22:37:39.08	126.70	15.77	-51.9	-53.9	14.5	0.00e+00	0	23	0	1016070144	68	4953
2026-01-12 22:37:40.08	126.87	15.70	-51.8	-53.8	14.6	0.00e+00	0	23	0	1018167296	68	4900
2026-01-12 22:37:41.07	127.03	15.63	-51.7	-53.6	14.7	0.00e+00	0	22	0	1020264448	68	4803
2026-01-12 22:37:42.08	127.20	15.55	-51.4	-53.3	14.9	0.00e+00	0	23	0	1022361600	68	4612
2026-01-12 22:37:43.08	127.36	15.48	-51.2	-53.1	15.0	0.00e+00	0	23	0	1023410176	68	4498
2026-01-12 22:37:44.08	127.53	15.41	-51.3	-53.1	15.0	0.00e+00	0	23	0	1025507328	68	4523
2026-01-12 22:37:45.09	127.69	15.34	-51.3	-53.2	14.9	0.00e+00	0	22	0	1027604480	68	4546
2026-01-12 22:37:46.08	127.85	15.27	-51.3	-53.1	14.9	0.00e+00	0	23	0	1029701632	68	4543
2026-01-12 22:37:47.08	128.02	15.20	-51.4	-53.3	14.9	0.00e+00	0	23	0	1031798784	68	4628
2026-01-12 22:37:48.08	128.18	15.13	-51.7	-53.6	14.7	0.00e+00	0	23	0	1032847360	68	4809
2026-01-12 22:37:49.08	128.34	15.06	-51.6	-53.6	14.7	0.00e+00	0	23	0	1034944512	68	4785
2026-01-12 22:37:50.07	128.50	14.99	-51.7	-53.7	14.7	0.00e+00	0	23	0	1037041664	68	4819
2026-01-12 22:37:51.07	128.66	14.92	-51.4	-53.3	14.8	0.00e+00	0	23	0	1039138816	68	4628
2026-01-12 22:37:52.07	128.81	14.85	-51.3	-53.1	14.9	0.00e+00	0	23	0	1040187392	68	4528
2026-01-12 22:37:53.07	128.97	14.78	-51.1	-52.9	15.1	0.00e+00	0	22	0	1042284544	68	4408
2026-01-12 22:37:54.07	129.13	14.71	-50.9	-52.7	15.2	0.00e+00	0	23	0	1044381696	68	4301
2026-01-12 22:37:55.07	129.28	14.64	-51.1	-53.0	15.1	0.00e+00	0	23	0	1046478848	68	4447
2026-01-12 22:37:56.07	129.44	14.56	-51.4	-53.3	14.9	0.00e+00	0	23	0	1048576000	68	4619
2026-01-12 22:37:57.06	129.59	14.49	-51.6	-53.6	14.7	0.00e+00	0	23	0	1049624576	68	4764
2026-01-12 22:37:58.06	129.75	14.42	-52.2	-54.3	14.5	0.00e+00	0	23	0	1051721728	69	4896
2026-01-12 22:37:59.05	129.90	14.35	-52.4	-54.7	14.2	0.00e+00	0	23	0	1053818880	69	5115
2026-01-12 22:38:00.06	130.05	14.28	-52.8	-55.2	14.1	0.00e+00	0	23	0	1055916032	70	5109
2026-01-12 22:38:01.06	130.20	14.21	-53.0	-55.5	14.0	0.00e+00	0	23	0	1058013184	71	5006
2026-01-12 22:38:02.05	130.35	14.14	-52.8	-55.2	14.2	0.00e+00	0	23	0	1059061760	71	4867
2026-01-12 22:38:03.05	130.50	14.07	-52.7	-55.0	14.3	0.00e+00	0	23	0	1061158912	71	4740
2026-01-12 22:38:04.06	130.65	14.00	-52.4	-54.7	14.5	0.00e+00	0	23	0	1063256064	71	4549
2026-01-12 22:38:05.05	130.80	13.93	-52.2	-54.4	14.7	0.00e+00	0	22	0	1065353216	71	4404
2026-01-12 22:38:06.05	130.95	13.86	-52.2	-54.3	14.6	0.00e+00	0	23	0	1066401792	70	4629
2026-01-12 22:38:07.05	131.10	13.79	-51.9	-53.9	14.8	0.00e+00	0	23	0	1068498944	70	4431
2026-01-12 22:38:08.04	131.24	13.72	-51.8	-53.8	14.9	0.00e+00	0	23	0	1070596096	70	4355
2026-01-12 22:38:09.05	131.39	13.65	-51.6	-53.5	14.8	0.00e+00	0	23	0	1072693248	69	4491
2026-01-12 22:38:10.04	131.54	13.58	-51.4	-53.3	15.0	0.00e+00	0	23	0	1074790400	69	4378
2026-01-12 22:38:11.05	131.68	13.51	-51.5	-53.4	15.0	0.00e+00	0	23	0	1075838976	69	4403
2026-01-12 22:38:12.05	131.83	13.44	-51.4	-53.3	15.0	0.00e+00	0	23	0	1077936128	69	4352
2026-01-12 22:38:13.05	131.97	13.37	-51.1	-52.9	15.1	0.00e+00	0	23	0	1080033280	68	4403
2026-01-12 22:38:14.05	132.11	13.30	-51.1	-53.0	15.0	0.00e+00	0	23	0	1082130432	68	4451
2026-01-12 22:38:15.05	132.26	13.23	-51.1	-52.9	15.1	0.00e+00	0	23	0	1084227584	68	4398
2026-01-12 22:38:16.05	132.40	13.16	-51.0	-52.7	15.1	0.00e+00	0	23	0	1085276160	68	4339
2026-01-12 22:38:17.05	132.54	13.09	-51.0	-52.8	15.1	0.00e+00	0	23	0	1087373312	68	4362
2026-01-12 22:38:18.05	132.68	13.02	-51.1	-53.0	15.0	0.00e+00	0	23	0	1089470464	68	4448
2026-01-12 22:38:19.04	132.82	12.95	-51.1	-53.0	15.0	0.00e+00	0	23	0	1091567616	68	4446
2026-01-12 22:38:20.04	132.96	12.88	-51.2	-53.0	15.0	0.00e+00	0	23	0	1092616192	68	4468
2026-01-12 22:38:21.04	133.09	12.81	-51.4	-53.3	14.8	0.00e+00	0	23	0	1094713344	68	4603
2026-01-12 22:38:22.04	133.23	12.74	-51.5	-53.4	14.8	0.00e+00	0	23	0	1096810496	68	4680
2026-01-12 22:38:23.04	133.37	12.67	-51.8	-53.9	14.5	0.00e+00	0	23	0	1098907648	68	4945
2026-01-12 22:38:24.04	133.51	12.60	-51.9	-54.0	14.5	0.00e+00	0	22	0	1101004800	69	4751
2026-01-12 22:38:25.05	133.64	12.53	-51.8	-53.9	14.6	0.00e+00	0	23	0	1102053376	69	4688
2026-01-12 22:38:26.04	133.78	12.46	-52.0	-54.1	14.5	0.00e+00	0	22	0	1104150528	69	4768
2026-01-12 22:38:27.04	133.91	12.39	-51.9	-54.0	14.6	0.00e+00	0	23	0	1106247680	69	4732
2026-01-12 22:38:28.04	134.05	12.32	-51.9	-54.0	14.6	0.00e+00	0	23	0	1108344832	69	4740
2026-01-12 22:38:29.03	134.18	12.25	-51.9	-54.1	14.6	0.00e+00	0	23	0	1110441984	69	4769
2026-01-12 22:38:30.03	134.31	12.18	-51.7	-53.7	14.7	0.00e+00	0	23	0	1111490560	69	4585
2026-01-12 22:38:31.03	134.44	12.11	-51.6	-53.6	14.8	0.00e+00	0	23	0	1113587712	69	4503
2026-01-12 22:38:32.03	134.58	12.04	-51.5	-53.4	14.9	0.00e+00	0	23	0	1115684864	69	4436
2026-01-12 22:38:33.03	134.71	11.97	-51.5	-53.4	14.9	0.00e+00	0	23	0	1117782016	69	4417
2026-01-12 22:38:34.03	134.84	11.91	-51.5	-53.5	14.9	0.00e+00	0	23	0	1119879168	69	4468
2026-01-12 22:38:35.04	134.97	11.84	-51.5	-53.5	14.9	0.00e+00	0	23	0	1120927744	69	4483
2026-01-12 22:38:36.04	135.10	11.77	-51.7	-53.7	14.7	0.00e+00	0	23	0	1123024896	69	4598
2026-01-12 22:38:37.03	135.23	11.70	-51.8	-53.8	14.7	0.00e+00	0	23	0	1125122048	69	4649
2026-01-12 22:38:38.03	135.35	11.63	-51.7	-53.7	14.7	0.00e+00	0	23	0	1127219200	69	4596
2026-01-12 22:38:39.03	135.48	11.56	-51.9	-54.0	14.6	0.00e+00	0	23	0	1128267776	69	4731
2026-01-12 22:38:40.03	135.61	11.49	-51.9	-54.0	14.6	0.00e+00	0	23	0	1130364928	69	4726
2026-01-12 22:38:41.03	135.74	11.42	-51.8	-53.8	14.7	0.00e+00	0	23	0	1132462080	69	4634
2026-01-12 22:38:42.03	135.86	11.36	-51.8	-53.8	14.7	0.00e+00	0	23	0	1134559232	69	4638
2026-01-12 22:38:43.03	135.99	11.29	-51.7	-53.8	14.7	0.00e+00	0	23	0	1136656384	69	4620
2026-01-12 22:38:44.03	136.11	11.22	-51.7	-53.8	14.7	0.00e+00	0	23	0	1137704960	69	4619
2026-01-12 22:38:45.02	136.24	11.15	-51.8	-53.8	14.7	0.00e+00	0	23	0	1139802112	69	4647
2026-01-12 22:38:46.02	136.36	11.08	-51.5	-53.5	14.9	0.00e+00	0	23	0	1141899264	69	4452
2026-01-12 22:38:47.02	136.48	11.01	-51.7	-53.7	14.7	0.00e+00	0	23	0	1143996416	69	4574
2026-01-12 22:38:48.02	136.60	10.95	-51.6	-53.6	14.8	0.00e+00	0	23	0	1146093568	69	4529
2026-01-12 22:38:49.02	136.73	10.88	-51.7	-53.7	14.7	0.00e+00	0	23	0	1147142144	69	4580
2026-01-12 22:38:50.03	136.85	10.81	-51.9	-54.0	14.5	0.00e+00	0	23	0	1149239296	69	4754
2026-01-12 22:38:51.03	136.97	10.74	-51.9	-54.0	14.5	0.00e+00	0	22	0	1151336448	69	4734
2026-01-12 22:38:52.03	137.09	10.67	-52.1	-54.3	14.4	0.00e+00	0	23	0	1153433600	69	4919
2026-01-12 22:38:53.02	137.21	10.61	-52.3	-54.5	14.3	0.00e+00	0	23	0	1154482176	69	5013
2026-01-12 22:38:54.02	137.33	10.54	-52.2	-54.5	14.4	0.00e+00	0	23	0	1156579328	70	4710
2026-01-12 22:38:55.01	137.45	10.47	-52.6	-55.0	14.1	0.00e+00	0	23	0	1158676480	70	5027
2026-01-12 22:38:56.01	137.56	10.40	-52.7	-55.1	14.0	0.00e+00	0	23	0	1160773632	70	5079
2026-01-12 22:38:57.01	137.68	10.34	-52.8	-55.3	13.9	0.00e+00	0	23	0	1162870784	70	5168
2026-01-12 22:38:58.01	137.80	10.27	-53.0	-55.5	14.0	0.00e+00	0	23	0	1163919360	71	5034
2026-01-12 22:38:59.00	137.92	10.20	-52.9	-55.4	14.0	0.00e+00	0	23	0	1166016512	71	4981
2026-01-12 22:39:00.00	138.03	10.14	-53.1	-55.7	13.8	0.00e+00	0	23	0	1168113664	71	5112
2026-01-12 22:39:01.00	138.15	10.07	-53.1	-55.7	13.8	0.00e+00	0	23	0	1170210816	71	5147
2026-01-12 22:39:02.00	138.26	10.00	-53.1	-55.7	13.8	0.00e+00	0	23	0	1171259392	71	5138
2026-01-12 22:39:02.99	138.38	9.94	-53.1	-55.7	13.8	0.00e+00	0	23	0	1173356544	71	5112
2026-01-12 22:39:04.00	138.49	9.87	-52.9	-55.4	14.0	0.00e+00	0	23	0	1175453696	71	4977
2026-01-12 22:39:04.99	138.60	9.80	-52.8	-55.3	14.1	0.00e+00	0	23	0	1177550848	71	4917
2026-01-12 22:39:06.00	138.72	9.73	-52.8	-55.3	14.1	0.00e+00	0	23	0	1179648000	71	4873
2026-01-12 22:39:06.99	138.83	9.67	-52.5	-54.9	14.4	0.00e+00	0	23	0	1180696576	71	4663
2026-01-12 22:39:08.00	138.94	9.60	-52.4	-54.7	14.5	0.00e+00	0	23	0	1182793728	71	4570
2026-01-12 22:39:08.99	139.05	9.54	-52.2	-54.4	14.6	0.00e+00	0	23	0	1184890880	71	4441
2026-01-12 22:39:10.00	139.17	9.47	-52.4	-54.7	14.5	0.00e+00	0	23	0	1186988032	71	4548
2026-01-12 22:39:10.99	139.28	9.40	-52.5	-54.8	14.4	0.00e+00	0	23	0	1189085184	71	4634
2026-01-12 22:39:12.00	139.39	9.34	-52.3	-54.5	14.6	0.00e+00	0	23	0	1190133760	71	4469
2026-01-12 22:39:13.00	139.50	9.27	-52.3	-54.6	14.5	0.00e+00	0	23	0	1192230912	71	4525
2026-01-12 22:39:14.01	139.61	9.20	-52.2	-54.5	14.4	0.00e+00	0	23	0	1194328064	70	4731
2026-01-12 22:39:15.01	139.72	9.14	-51.9	-54.1	14.6	0.00e+00	0	23	0	1196425216	70	4510
2026-01-12 22:39:16.02	139.83	9.07	-52.1	-54.3	14.5	0.00e+00	0	23	0	1198522368	70	4623
2026-01-12 22:39:17.02	139.93	9.00	-52.0	-54.1	14.6	0.00e+00	0	23	0	1199570944	70	4525
2026-01-12 22:39:18.02	140.04	8.94	-52.0	-54.1	14.6	0.00e+00	0	23	0	1201668096	70	4542
2026-01-12 22:39:19.02	140.15	8.87	-52.0	-54.2	14.6	0.00e+00	0	23	0	1203765248	70	4562
2026-01-12 22:39:20.02	140.26	8.81	-52.0	-54.2	14.6	0.00e+00	0	23	0	1205862400	70	4567
2026-01-12 22:39:21.01	140.36	8.74	-51.9	-54.1	14.7	0.00e+00	0	23	0	1207959552	70	4510
2026-01-12 22:39:22.01	140.47	8.68	-52.1	-54.3	14.6	0.00e+00	0	23	0	1209008128	70	4607
2026-01-12 22:39:23.01	140.57	8.61	-51.9	-54.1	14.6	0.00e+00	0	23	0	1211105280	70	4514
2026-01-12 22:39:24.01	140.68	8.55	-52.0	-54.2	14.6	0.00e+00	0	23	0	1213202432	70	4586
2026-01-12 22:39:25.01	140.78	8.48	-52.2	-54.4	14.4	0.00e+00	0	23	0	1215299584	70	4704
2026-01-12 22:39:26.00	140.88	8.42	-52.2	-54.5	14.4	0.00e+00	0	23	0	1216348160	70	4708
2026-01-12 22:39:27.00	140.99	8.35	-52.5	-54.8	14.2	0.00e+00	0	23	0	1218445312	70	4919
2026-01-12 22:39:28.01	141.09	8.29	-52.5	-54.9	14.1	0.00e+00	0	23	0	1220542464	70	4947
2026-01-12 22:39:29.01	141.19	8.22	-52.8	-55.3	13.8	0.00e+00	0	23	0	1222639616	70	5194
2026-01-12 22:39:30.01	141.29	8.16	-53.0	-55.7	13.7	0.00e+00	0	23	0	1224736768	71	5110
2026-01-12 22:39:31.01	141.40	8.09	-52.9	-55.5	13.8	0.00e+00	0	23	0	1225785344	71	5034
2026-01-12 22:39:32.01	141.50	8.03	-53.2	-56.0	13.5	0.00e+00	0	23	0	1227882496	71	5301
2026-01-12 22:39:33.01	141.60	7.96	-53.2	-56.0	13.5	0.00e+00	0	23	0	1229979648	71	5338
2026-01-12 22:39:34.01	141.70	7.90	-53.1	-55.9	13.6	0.00e+00	0	23	0	1232076800	71	5252
2026-01-12 22:39:35.00	141.80	7.84	-53.0	-55.7	13.7	0.00e+00	0	23	0	1234173952	71	5131
2026-01-12 22:39:36.01	141.90	7.77	-53.0	-55.7	13.7	0.00e+00	0	23	0	1235222528	71	5115
2026-01-12 22:39:37.00	142.00	7.71	-53.0	-55.6	13.7	0.00e+00	0	23	0	1237319680	71	5091
2026-01-12 22:39:38.01	142.10	7.64	-52.9	-55.5	13.8	0.00e+00	0	23	0	1239416832	71	5016
