passes_logs/2026/01/12/R3.2S_Murmansk/R3.2S_Murmansk__20260112_063624_NOAA_21_JPSS-2_rec.log

#Pass ID: 20260112_063624_NOAA 21 (JPSS-2)
#Satellite: NOAA 21 (JPSS-2)
#Configuration: NOAA-21
#almurnet v.1.7.20251203
#Start time: 2026-01-12 06:36:25

#Version: 2.2.20231116
#Station: R3.2S_Murmansk
#Location: 33.079688 lon 68.888172 lat
#TLE: 1 54234U 22150A   26011.55893233  .00000075  00000+0  56634-4 0  9995
#TLE: 2 54234  98.7494 312.5004 0000755 313.1908  46.9205 14.19534095164321

#Time	Az	El	Level	Level2	SNR	BER	BlckErr	Temp	State	Recorded	gain1	gain2
2026-01-12 06:36:25.09	87.14	2.02	-56.9	-70.6	3.8	1.49e+00	0	21	0	0	80	17052
2026-01-12 06:36:26.08	87.08	2.08	-56.8	-70.5	3.8	1.49e+00	0	21	104	0	78	18943
2026-01-12 06:36:27.07	87.03	2.14	-56.8	-70.6	3.8	1.49e+00	0	21	104	0	78	19016
2026-01-12 06:36:28.07	86.97	2.20	-56.8	-70.6	3.8	1.49e+00	0	21	104	0	78	18987
2026-01-12 06:36:29.08	86.92	2.26	-56.8	-70.5	3.8	1.49e+00	0	21	104	0	78	18922
2026-01-12 06:36:30.08	86.86	2.32	-56.8	-70.5	3.8	1.49e+00	0	21	104	0	78	18947
2026-01-12 06:36:31.08	86.80	2.37	-56.8	-70.5	3.8	1.49e+00	0	21	104	0	78	18912
2026-01-12 06:36:32.07	86.75	2.43	-56.8	-70.5	3.8	1.49e+00	0	21	104	0	78	18937
2026-01-12 06:36:33.07	86.69	2.49	-56.8	-70.6	3.8	1.49e+00	0	21	104	0	78	19003
2026-01-12 06:36:34.08	86.63	2.55	-56.8	-70.6	3.8	1.49e+00	0	21	104	0	78	18980
2026-01-12 06:36:35.07	86.57	2.61	-56.8	-70.6	3.8	1.49e+00	0	21	104	0	78	18981
2026-01-12 06:36:36.07	86.51	2.67	-56.8	-70.6	3.8	1.49e+00	0	21	104	0	78	18987
2026-01-12 06:36:37.05	86.46	2.73	-56.8	-70.6	3.8	1.49e+00	0	21	104	0	78	18977
2026-01-12 06:36:38.04	86.40	2.79	-56.8	-70.6	3.8	1.49e+00	0	21	104	0	78	19010
2026-01-12 06:36:39.04	86.34	2.85	-56.8	-70.6	3.8	1.49e+00	0	21	104	0	78	19018
2026-01-12 06:36:40.04	86.28	2.91	-56.8	-70.6	3.8	1.49e+00	0	21	104	0	78	19029
2026-01-12 06:36:41.05	86.22	2.97	-56.8	-70.6	3.8	1.49e+00	0	21	104	0	78	19050
2026-01-12 06:36:42.05	86.16	3.03	-56.8	-70.6	3.8	1.49e+00	0	21	104	0	78	19034
2026-01-12 06:36:43.05	86.10	3.09	-56.9	-70.6	3.8	1.49e+00	0	21	104	0	78	19069
2026-01-12 06:36:44.05	86.04	3.15	-56.8	-70.5	3.8	1.49e+00	0	21	104	0	78	18940
2026-01-12 06:36:45.06	85.98	3.21	-56.8	-70.5	3.8	1.49e+00	0	21	104	0	78	18859
2026-01-12 06:36:46.05	85.92	3.27	-56.8	-70.5	3.8	1.49e+00	0	21	104	0	78	18873
2026-01-12 06:36:47.05	85.86	3.33	-56.8	-70.5	3.8	1.49e+00	0	21	104	0	78	18841
2026-01-12 06:36:48.04	85.80	3.39	-56.9	-70.6	3.8	1.49e+00	0	21	104	0	78	19002
2026-01-12 06:36:49.04	85.74	3.45	-56.9	-70.6	3.8	1.49e+00	0	21	104	0	78	19038
2026-01-12 06:36:50.05	85.68	3.51	-56.9	-70.6	3.8	1.49e+00	0	21	104	0	78	19123
2026-01-12 06:36:51.06	85.61	3.58	-56.9	-70.6	3.8	1.49e+00	0	21	104	0	78	19086
2026-01-12 06:36:52.06	85.55	3.64	-56.9	-70.6	3.8	1.49e+00	0	21	104	0	78	19071
2026-01-12 06:36:53.06	85.49	3.70	-56.9	-70.5	3.8	1.49e+00	0	21	104	0	78	18925
2026-01-12 06:36:54.05	85.43	3.76	-56.9	-70.4	3.8	1.49e+00	0	22	104	0	78	18708
2026-01-12 06:36:55.05	85.36	3.82	-56.8	-70.3	3.8	1.49e+00	0	21	104	0	78	18495
2026-01-12 06:36:56.04	85.30	3.88	-56.8	-70.3	3.8	1.49e+00	0	22	104	0	78	18514
2026-01-12 06:36:57.04	85.24	3.94	-56.8	-70.4	3.8	1.49e+00	0	22	104	0	78	18548
2026-01-12 06:36:58.04	85.17	4.00	-56.8	-70.5	3.8	1.49e+00	0	21	104	0	78	18769
2026-01-12 06:36:59.04	85.11	4.07	-56.9	-70.6	3.8	1.49e+00	0	22	104	0	78	18970
2026-01-12 06:37:00.05	85.04	4.13	-56.9	-70.6	3.8	1.49e+00	0	22	104	0	78	19086
2026-01-12 06:37:01.04	84.98	4.19	-56.9	-70.5	3.8	1.49e+00	0	22	104	0	78	18927
2026-01-12 06:37:02.04	84.91	4.25	-56.8	-70.2	3.8	1.49e+00	0	22	104	0	78	18205
2026-01-12 06:37:03.03	84.85	4.31	-56.8	-69.7	3.8	1.49e+00	0	22	104	0	78	17134
2026-01-12 06:37:04.03	84.78	4.38	-56.8	-68.9	3.8	1.49e+00	0	22	104	0	78	15661
2026-01-12 06:37:05.03	84.72	4.44	-56.7	-68.0	3.9	1.49e+00	0	22	104	0	78	14176
2026-01-12 06:37:06.03	84.65	4.50	-56.6	-66.6	4.3	1.46e+00	0	22	104	0	78	11983
2026-01-12 06:37:07.03	84.59	4.57	-56.4	-66.1	4.0	1.23e+00	0	22	104	0	78	11386
2026-01-12 06:37:08.03	84.52	4.63	-56.3	-64.8	5.1	6.57e-01	0	22	0	2097152	78	9720
2026-01-12 06:37:09.02	84.45	4.69	-56.2	-63.9	5.6	4.11e-01	0	22	0	4194304	78	8806
2026-01-12 06:37:10.02	84.38	4.75	-56.1	-63.3	6.0	2.96e-01	0	22	0	7340032	78	8211
2026-01-12 06:37:11.02	84.32	4.82	-56.0	-62.7	6.5	2.21e-01	0	22	0	10485760	78	7634
2026-01-12 06:37:12.00	84.25	4.88	-55.9	-62.4	6.7	1.48e-01	0	22	0	13631488	78	7411
2026-01-12 06:37:13.00	84.18	4.94	-55.8	-61.8	7.2	1.16e-01	0	22	0	16777216	78	6928
2026-01-12 06:37:14.00	84.11	5.01	-55.7	-61.7	7.3	9.08e-02	0	22	0	19922944	78	6868
2026-01-12 06:37:14.99	84.04	5.07	-55.2	-59.9	9.2	1.30e-02	0	22	0	23068672	77	5870
2026-01-12 06:37:15.98	83.98	5.13	-56.3	-63.9	5.6	1.94e-01	0	22	0	26214400	77	9378
2026-01-12 06:37:16.98	83.91	5.20	-56.1	-63.3	6.0	1.25e-01	0	22	0	29360128	77	8757
2026-01-12 06:37:17.99	83.84	5.26	-53.0	-55.7	12.4	1.18e-04	0	22	0	32505856	72	4830
2026-01-12 06:37:18.98	83.77	5.32	-56.8	-69.9	3.8	1.25e+00	0	22	104	34603008	78	17493
2026-01-12 06:37:19.98	83.70	5.39	-53.3	-56.2	12.0	5.55e-04	0	22	0	34603008	73	4843
2026-01-12 06:37:20.98	83.62	5.45	-53.1	-55.8	12.2	9.10e-06	0	22	0	37748736	72	4925
2026-01-12 06:37:21.98	83.55	5.52	-52.5	-55.0	12.8	0.00e+00	0	22	0	40894464	71	4717
2026-01-12 06:37:22.98	83.48	5.58	-52.1	-54.4	13.2	0.00e+00	0	22	0	44040192	70	4657
2026-01-12 06:37:23.97	83.41	5.65	-52.2	-54.5	13.1	7.00e-07	0	22	0	47185920	70	4713
2026-01-12 06:37:24.97	83.34	5.71	-52.2	-54.5	13.1	0.00e+00	0	22	0	50331648	70	4743
2026-01-12 06:37:25.97	83.27	5.78	-52.2	-54.5	13.1	0.00e+00	0	22	0	53477376	70	4723
2026-01-12 06:37:26.96	83.19	5.84	-51.7	-53.8	13.7	0.00e+00	0	22	0	56623104	70	4368
2026-01-12 06:37:27.96	83.12	5.91	-51.4	-53.4	13.8	0.00e+00	0	22	0	59768832	69	4426
2026-01-12 06:37:28.96	83.05	5.97	-51.0	-52.9	14.0	0.00e+00	0	22	0	62914560	68	4419
2026-01-12 06:37:29.96	82.97	6.04	-51.0	-52.8	14.1	0.00e+00	0	22	0	66060288	68	4373
2026-01-12 06:37:30.96	82.90	6.10	-50.8	-52.6	14.2	0.00e+00	0	22	0	69206016	68	4257
2026-01-12 06:37:31.95	82.83	6.17	-50.8	-52.6	14.2	0.00e+00	0	22	0	72351744	68	4258
2026-01-12 06:37:32.95	82.75	6.23	-50.4	-52.1	14.3	0.00e+00	0	22	0	75497472	67	4269
2026-01-12 06:37:33.95	82.68	6.30	-50.1	-51.8	14.4	0.00e+00	0	22	0	78643200	66	4373
2026-01-12 06:37:34.94	82.60	6.36	-50.4	-52.1	14.2	0.00e+00	0	22	0	81788928	66	4519
2026-01-12 06:37:35.94	82.52	6.43	-50.3	-52.1	14.2	0.00e+00	0	22	0	84934656	66	4511
2026-01-12 06:37:36.94	82.45	6.50	-50.3	-52.0	14.3	0.00e+00	0	22	0	88080384	66	4460
2026-01-12 06:37:37.93	82.37	6.56	-50.2	-52.0	14.3	0.00e+00	0	22	0	91226112	66	4446
2026-01-12 06:37:38.93	82.29	6.63	-50.2	-51.9	14.3	0.00e+00	0	22	0	94371840	66	4421
2026-01-12 06:37:39.93	82.22	6.69	-50.3	-52.0	14.2	0.00e+00	0	22	0	97517568	66	4483
2026-01-12 06:37:40.92	82.14	6.76	-50.3	-52.0	14.3	0.00e+00	0	22	0	100663296	66	4447
2026-01-12 06:37:41.92	82.06	6.83	-50.2	-51.9	14.3	0.00e+00	0	22	0	103809024	66	4410
2026-01-12 06:37:42.91	81.98	6.89	-50.2	-52.0	14.3	0.00e+00	0	22	0	106954752	66	4442
2026-01-12 06:37:43.91	81.91	6.96	-50.2	-51.9	14.3	0.00e+00	0	22	0	110100480	66	4431
2026-01-12 06:37:44.91	81.83	7.03	-50.1	-51.8	14.4	0.00e+00	0	22	0	113246208	66	4341
2026-01-12 06:37:45.90	81.75	7.09	-50.1	-51.8	14.4	0.00e+00	0	22	0	116391936	66	4354
2026-01-12 06:37:46.90	81.67	7.16	-50.1	-51.7	14.5	0.00e+00	0	22	0	119537664	66	4323
2026-01-12 06:37:47.90	81.59	7.23	-50.1	-51.8	14.4	0.00e+00	0	22	0	122683392	66	4363
2026-01-12 06:37:48.90	81.51	7.30	-50.1	-51.7	14.5	0.00e+00	0	22	0	124780544	66	4332
2026-01-12 06:37:49.89	81.43	7.36	-50.0	-51.7	14.5	0.00e+00	0	22	0	127926272	66	4312
2026-01-12 06:37:50.88	81.34	7.43	-50.1	-51.8	14.4	0.00e+00	0	22	0	131072000	66	4346
2026-01-12 06:37:51.88	81.26	7.50	-50.1	-51.7	14.5	0.00e+00	0	22	0	134217728	66	4319
2026-01-12 06:37:52.87	81.18	7.57	-49.9	-51.5	14.6	0.00e+00	0	22	0	137363456	66	4194
2026-01-12 06:37:53.87	81.10	7.63	-50.0	-51.5	14.6	0.00e+00	0	22	0	140509184	66	4241
2026-01-12 06:37:54.86	81.02	7.70	-49.8	-51.4	14.7	0.00e+00	0	22	0	143654912	66	4153
2026-01-12 06:37:55.86	80.93	7.77	-49.9	-51.4	14.6	0.00e+00	0	22	0	146800640	66	4186
2026-01-12 06:37:56.86	80.85	7.84	-49.8	-51.4	14.7	0.00e+00	0	22	0	149946368	66	4172
2026-01-12 06:37:57.85	80.76	7.91	-49.8	-51.4	14.7	0.00e+00	0	22	0	153092096	66	4181
2026-01-12 06:37:58.84	80.68	7.98	-49.9	-51.5	14.6	0.00e+00	0	22	0	156237824	66	4225
2026-01-12 06:37:59.84	80.60	8.05	-49.8	-51.4	14.7	0.00e+00	0	22	0	159383552	66	4174
2026-01-12 06:38:00.83	80.51	8.11	-49.8	-51.4	14.7	0.00e+00	0	22	0	162529280	66	4168
2026-01-12 06:38:01.83	80.42	8.18	-49.9	-51.5	14.6	0.00e+00	0	22	0	165675008	66	4204
2026-01-12 06:38:02.83	80.34	8.25	-49.8	-51.4	14.7	0.00e+00	0	22	0	168820736	66	4172
2026-01-12 06:38:03.83	80.25	8.32	-49.8	-51.4	14.7	0.00e+00	0	22	0	171966464	66	4180
2026-01-12 06:38:04.83	80.16	8.39	-49.7	-51.3	14.8	0.00e+00	0	22	0	175112192	66	4104
2026-01-12 06:38:05.83	80.08	8.46	-49.8	-51.4	14.7	0.00e+00	0	22	0	178257920	66	4146
2026-01-12 06:38:06.83	79.99	8.53	-49.7	-51.3	14.8	0.00e+00	0	22	0	181403648	66	4113
2026-01-12 06:38:07.82	79.90	8.60	-49.6	-51.1	14.7	0.00e+00	0	22	0	184549376	65	4273
2026-01-12 06:38:08.82	79.81	8.67	-49.6	-51.1	14.7	0.00e+00	0	22	0	187695104	65	4278
2026-01-12 06:38:09.81	79.72	8.74	-49.6	-51.2	14.7	0.00e+00	0	22	0	190840832	65	4293
2026-01-12 06:38:10.80	79.63	8.81	-49.6	-51.2	14.7	0.00e+00	0	22	0	193986560	65	4304
2026-01-12 06:38:11.80	79.54	8.88	-49.5	-51.0	14.7	0.00e+00	0	22	0	197132288	65	4238
2026-01-12 06:38:12.80	79.45	8.95	-49.5	-51.0	14.8	0.00e+00	0	22	0	200278016	65	4198
2026-01-12 06:38:13.80	79.36	9.02	-49.5	-51.0	14.8	0.00e+00	0	22	0	203423744	65	4221
2026-01-12 06:38:14.80	79.27	9.09	-49.5	-51.1	14.7	0.00e+00	0	22	0	206569472	65	4253
2026-01-12 06:38:15.80	79.18	9.16	-49.4	-50.9	14.8	0.00e+00	0	22	0	209715200	65	4186
2026-01-12 06:38:16.80	79.08	9.24	-49.4	-50.9	14.8	0.00e+00	0	22	0	212860928	65	4173
2026-01-12 06:38:17.79	78.99	9.31	-49.5	-51.0	14.8	0.00e+00	0	22	0	216006656	65	4209
2026-01-12 06:38:18.78	78.90	9.38	-49.5	-51.0	14.8	0.00e+00	0	22	0	219152384	65	4200
2026-01-12 06:38:19.77	78.80	9.45	-49.4	-50.9	14.9	0.00e+00	0	23	0	221249536	65	4154
2026-01-12 06:38:20.77	78.71	9.52	-49.4	-50.8	14.9	0.00e+00	0	22	0	224395264	65	4136
2026-01-12 06:38:21.77	78.61	9.59	-49.2	-50.6	15.0	0.00e+00	0	22	0	227540992	65	4040
2026-01-12 06:38:22.76	78.52	9.66	-49.2	-50.7	15.0	0.00e+00	0	22	0	230686720	65	4055
2026-01-12 06:38:23.76	78.42	9.73	-49.1	-50.5	14.9	0.00e+00	0	22	0	233832448	64	4226
2026-01-12 06:38:24.76	78.33	9.81	-49.2	-50.7	14.8	0.00e+00	0	22	0	236978176	64	4312
2026-01-12 06:38:25.76	78.23	9.88	-49.1	-50.5	14.9	0.00e+00	0	22	0	240123904	64	4232
2026-01-12 06:38:26.76	78.13	9.95	-49.1	-50.6	14.9	0.00e+00	0	22	0	243269632	64	4249
2026-01-12 06:38:27.76	78.03	10.02	-49.0	-50.4	15.0	0.00e+00	0	22	0	246415360	64	4178
2026-01-12 06:38:28.76	77.94	10.10	-49.1	-50.5	14.9	0.00e+00	0	22	0	249561088	64	4229
2026-01-12 06:38:29.76	77.84	10.17	-49.0	-50.5	14.9	0.00e+00	0	22	0	252706816	64	4206
2026-01-12 06:38:30.76	77.74	10.24	-49.0	-50.4	15.0	0.00e+00	0	22	0	255852544	64	4158
2026-01-12 06:38:31.77	77.64	10.32	-49.0	-50.4	15.0	0.00e+00	0	22	0	258998272	64	4160
2026-01-12 06:38:32.77	77.54	10.39	-48.9	-50.3	15.1	0.00e+00	0	22	0	262144000	64	4132
2026-01-12 06:38:33.78	77.43	10.46	-48.8	-50.2	15.1	0.00e+00	0	22	0	265289728	64	4061
2026-01-12 06:38:34.79	77.33	10.54	-48.9	-50.3	15.1	0.00e+00	0	22	0	268435456	64	4102
2026-01-12 06:38:35.79	77.23	10.61	-48.6	-50.0	15.1	0.00e+00	0	22	0	271581184	63	4199
2026-01-12 06:38:36.79	77.13	10.69	-48.7	-50.1	15.0	0.00e+00	0	22	0	274726912	63	4283
2026-01-12 06:38:37.79	77.02	10.76	-48.8	-50.2	15.0	0.00e+00	0	23	0	277872640	63	4293
2026-01-12 06:38:38.79	76.92	10.83	-48.6	-49.9	15.1	0.00e+00	0	22	0	281018368	63	4189
2026-01-12 06:38:39.80	76.81	10.91	-48.5	-49.8	15.2	0.00e+00	0	23	0	284164096	63	4132
2026-01-12 06:38:40.81	76.71	10.98	-48.6	-49.9	15.1	0.00e+00	0	22	0	287309824	63	4183
2026-01-12 06:38:41.81	76.60	11.06	-48.5	-49.9	15.1	0.00e+00	0	22	0	290455552	63	4166
2026-01-12 06:38:42.82	76.50	11.13	-48.5	-49.8	15.1	0.00e+00	0	23	0	293601280	63	4143
2026-01-12 06:38:43.82	76.39	11.21	-48.6	-49.9	15.1	0.00e+00	0	22	0	296747008	63	4189
2026-01-12 06:38:44.82	76.28	11.28	-48.5	-49.8	15.1	0.00e+00	0	22	0	299892736	63	4135
2026-01-12 06:38:45.83	76.17	11.36	-48.4	-49.8	15.2	0.00e+00	0	23	0	303038464	63	4104
2026-01-12 06:38:46.83	76.06	11.43	-48.5	-49.8	15.2	0.00e+00	0	22	0	306184192	63	4130
2026-01-12 06:38:47.82	75.96	11.51	-48.5	-49.9	15.1	0.00e+00	0	22	0	309329920	63	4148
2026-01-12 06:38:48.83	75.85	11.58	-48.4	-49.8	15.2	0.00e+00	0	22	0	312475648	63	4111
2026-01-12 06:38:49.84	75.73	11.66	-48.4	-49.7	15.2	0.00e+00	0	22	0	315621376	63	4073
2026-01-12 06:38:50.84	75.62	11.74	-48.6	-49.9	15.1	0.00e+00	0	22	0	318767104	63	4172
2026-01-12 06:38:51.84	75.51	11.81	-48.4	-49.8	15.2	0.00e+00	0	22	0	321912832	63	4106
2026-01-12 06:38:52.84	75.40	11.89	-48.4	-49.7	15.3	0.00e+00	0	22	0	325058560	63	4060
2026-01-12 06:38:53.85	75.29	11.96	-48.4	-49.8	15.2	0.00e+00	0	22	0	328204288	63	4102
2026-01-12 06:38:54.86	75.17	12.04	-48.3	-49.6	15.3	0.00e+00	0	22	0	331350016	63	4017
2026-01-12 06:38:55.87	75.06	12.12	-48.2	-49.5	15.4	0.00e+00	0	22	0	334495744	63	3983
2026-01-12 06:38:56.86	74.95	12.19	-48.2	-49.5	15.3	0.00e+00	0	23	0	337641472	63	3996
2026-01-12 06:38:57.86	74.83	12.27	-48.0	-49.3	15.3	0.00e+00	0	23	0	340787200	62	4125
2026-01-12 06:38:58.86	74.72	12.35	-48.0	-49.3	15.3	0.00e+00	0	22	0	343932928	62	4129
2026-01-12 06:38:59.87	74.60	12.42	-48.1	-49.3	15.3	0.00e+00	0	22	0	347078656	62	4130
2026-01-12 06:39:00.87	74.48	12.50	-48.1	-49.4	15.2	0.00e+00	0	22	0	350224384	62	4159
2026-01-12 06:39:01.88	74.36	12.58	-48.2	-49.5	15.2	0.00e+00	0	22	0	353370112	62	4208
2026-01-12 06:39:02.88	74.25	12.66	-48.1	-49.4	15.2	0.00e+00	0	22	0	356515840	62	4149
2026-01-12 06:39:03.88	74.13	12.73	-48.2	-49.4	15.2	0.00e+00	0	22	0	359661568	62	4193
2026-01-12 06:39:04.88	74.01	12.81	-48.1	-49.4	15.2	0.00e+00	0	22	0	362807296	62	4187
2026-01-12 06:39:05.88	73.89	12.89	-48.2	-49.5	15.2	0.00e+00	0	22	0	365953024	62	4236
2026-01-12 06:39:06.88	73.77	12.96	-48.2	-49.6	15.2	0.00e+00	0	22	0	369098752	62	4243
2026-01-12 06:39:07.88	73.65	13.04	-48.2	-49.5	15.2	0.00e+00	0	22	0	372244480	62	4210
2026-01-12 06:39:08.87	73.53	13.12	-48.2	-49.5	15.2	0.00e+00	0	22	0	375390208	62	4235
2026-01-12 06:39:09.87	73.40	13.20	-48.2	-49.5	15.2	0.00e+00	0	23	0	378535936	62	4196
2026-01-12 06:39:10.87	73.28	13.28	-48.1	-49.4	15.2	0.00e+00	0	23	0	381681664	62	4175
2026-01-12 06:39:11.88	73.16	13.35	-48.2	-49.5	15.2	0.00e+00	0	22	0	384827392	62	4206
2026-01-12 06:39:12.88	73.03	13.43	-48.3	-49.7	15.1	0.00e+00	0	22	0	387973120	62	4294
2026-01-12 06:39:13.89	72.91	13.51	-48.3	-49.6	15.1	0.00e+00	0	22	0	391118848	62	4275
2026-01-12 06:39:14.89	72.78	13.59	-48.3	-49.6	15.2	0.00e+00	0	23	0	394264576	62	4254
2026-01-12 06:39:15.90	72.65	13.67	-48.3	-49.6	15.1	0.00e+00	0	22	0	397410304	62	4268
2026-01-12 06:39:16.89	72.53	13.75	-48.2	-49.5	15.2	0.00e+00	0	22	0	400556032	62	4216
2026-01-12 06:39:17.89	72.40	13.83	-48.1	-49.4	15.2	0.00e+00	0	23	0	403701760	62	4184
2026-01-12 06:39:18.90	72.27	13.91	-48.1	-49.4	15.2	0.00e+00	0	22	0	406847488	62	4189
2026-01-12 06:39:19.90	72.14	13.98	-48.1	-49.4	15.2	0.00e+00	0	22	0	409993216	62	4177
2026-01-12 06:39:20.89	72.01	14.06	-48.3	-49.6	15.1	0.00e+00	0	22	0	413138944	62	4260
2026-01-12 06:39:21.89	71.88	14.14	-48.3	-49.6	15.2	0.00e+00	0	23	0	416284672	62	4253
2026-01-12 06:39:22.89	71.75	14.22	-48.3	-49.6	15.1	0.00e+00	0	22	0	419430400	62	4282
2026-01-12 06:39:23.88	71.62	14.30	-48.3	-49.6	15.1	0.00e+00	0	23	0	422576128	62	4290
2026-01-12 06:39:24.88	71.49	14.38	-48.4	-49.7	15.1	0.00e+00	0	22	0	425721856	62	4309
2026-01-12 06:39:25.88	71.35	14.46	-48.2	-49.5	15.2	0.00e+00	0	23	0	428867584	62	4218
2026-01-12 06:39:26.88	71.22	14.54	-48.3	-49.6	15.2	0.00e+00	0	22	0	432013312	62	4245
2026-01-12 06:39:27.88	71.08	14.62	-48.3	-49.7	15.1	0.00e+00	0	23	0	434110464	62	4294
2026-01-12 06:39:28.87	70.95	14.70	-48.2	-49.5	15.2	0.00e+00	0	23	0	437256192	62	4207
2026-01-12 06:39:29.87	70.81	14.78	-48.2	-49.5	15.2	0.00e+00	0	22	0	440401920	62	4227
2026-01-12 06:39:30.86	70.68	14.86	-48.1	-49.4	15.2	0.00e+00	0	23	0	443547648	62	4183
2026-01-12 06:39:31.86	70.54	14.94	-48.2	-49.5	15.2	0.00e+00	0	23	0	446693376	62	4207
2026-01-12 06:39:32.86	70.40	15.02	-48.3	-49.6	15.2	0.00e+00	0	23	0	449839104	62	4243
2026-01-12 06:39:33.85	70.26	15.10	-48.2	-49.5	15.2	0.00e+00	0	23	0	452984832	62	4236
2026-01-12 06:39:34.86	70.12	15.18	-48.4	-49.7	15.1	0.00e+00	0	23	0	456130560	62	4297
2026-01-12 06:39:35.85	69.98	15.26	-48.4	-49.7	15.1	0.00e+00	0	22	0	459276288	62	4317
2026-01-12 06:39:36.84	69.84	15.34	-48.4	-49.7	15.1	0.00e+00	0	23	0	462422016	62	4300
2026-01-12 06:39:37.84	69.70	15.42	-48.4	-49.8	15.0	0.00e+00	0	23	0	465567744	62	4354
2026-01-12 06:39:38.84	69.55	15.50	-48.4	-49.7	15.1	0.00e+00	0	23	0	468713472	62	4326
2026-01-12 06:39:39.84	69.41	15.58	-48.5	-49.8	15.1	0.00e+00	0	23	0	471859200	62	4360
2026-01-12 06:39:40.84	69.26	15.66	-48.6	-49.9	15.0	0.00e+00	0	23	0	475004928	62	4411
2026-01-12 06:39:41.84	69.12	15.74	-48.5	-49.8	15.1	0.00e+00	0	22	0	478150656	62	4356
2026-01-12 06:39:42.84	68.97	15.83	-48.5	-49.8	15.1	0.00e+00	0	23	0	481296384	62	4371
2026-01-12 06:39:43.84	68.83	15.91	-48.5	-49.8	15.1	0.00e+00	0	22	0	484442112	62	4348
2026-01-12 06:39:44.83	68.68	15.99	-48.4	-49.7	15.1	0.00e+00	0	23	0	487587840	62	4318
2026-01-12 06:39:45.82	68.53	16.07	-48.4	-49.7	15.1	0.00e+00	0	23	0	490733568	62	4311
2026-01-12 06:39:46.82	68.38	16.15	-48.5	-49.8	15.0	0.00e+00	0	23	0	493879296	62	4366
2026-01-12 06:39:47.81	68.23	16.23	-48.4	-49.7	15.1	0.00e+00	0	23	0	497025024	62	4301
2026-01-12 06:39:48.81	68.08	16.31	-48.4	-49.7	15.1	0.00e+00	0	23	0	500170752	62	4307
2026-01-12 06:39:49.80	67.93	16.39	-48.5	-49.8	15.0	0.00e+00	0	23	0	503316480	62	4386
2026-01-12 06:39:50.80	67.78	16.47	-48.6	-50.0	15.0	0.00e+00	0	23	0	506462208	62	4446
2026-01-12 06:39:51.81	67.62	16.56	-48.7	-50.0	14.9	0.00e+00	0	23	0	509607936	62	4483
2026-01-12 06:39:52.80	67.47	16.64	-48.7	-50.1	14.9	0.00e+00	0	23	0	512753664	62	4495
2026-01-12 06:39:53.80	67.31	16.72	-48.7	-50.1	14.9	0.00e+00	0	22	0	515899392	62	4514
2026-01-12 06:39:54.79	67.16	16.80	-48.8	-50.1	14.9	0.00e+00	0	23	0	519045120	62	4523
2026-01-12 06:39:55.79	67.00	16.88	-48.6	-50.0	15.0	0.00e+00	0	23	0	522190848	62	4453
2026-01-12 06:39:56.79	66.84	16.97	-48.6	-49.9	15.0	0.00e+00	0	23	0	525336576	62	4422
2026-01-12 06:39:57.79	66.68	17.05	-48.6	-50.0	15.0	0.00e+00	0	23	0	528482304	62	4453
2026-01-12 06:39:58.78	66.52	17.13	-48.7	-50.0	15.0	0.00e+00	0	23	0	531628032	62	4472
2026-01-12 06:39:59.78	66.36	17.21	-48.6	-49.9	15.0	0.00e+00	0	23	0	534773760	62	4439
2026-01-12 06:40:00.77	66.20	17.29	-48.5	-49.8	15.0	0.00e+00	0	23	0	536870912	62	4386
2026-01-12 06:40:01.77	66.04	17.37	-48.5	-49.8	15.0	0.00e+00	0	23	0	540016640	62	4374
2026-01-12 06:40:02.77	65.88	17.46	-48.6	-49.9	15.0	0.00e+00	0	23	0	543162368	62	4440
2026-01-12 06:40:03.77	65.71	17.54	-48.6	-49.9	15.0	0.00e+00	0	23	0	546308096	62	4419
2026-01-12 06:40:04.77	65.55	17.62	-48.5	-49.8	15.0	0.00e+00	0	23	0	549453824	62	4384
2026-01-12 06:40:05.77	65.38	17.70	-48.5	-49.8	15.1	0.00e+00	0	22	0	552599552	62	4353
2026-01-12 06:40:06.76	65.21	17.79	-48.4	-49.7	15.1	0.00e+00	0	23	0	555745280	62	4338
2026-01-12 06:40:07.77	65.04	17.87	-48.3	-49.6	15.2	0.00e+00	0	23	0	558891008	62	4259
2026-01-12 06:40:08.76	64.88	17.95	-48.3	-49.6	15.1	0.00e+00	0	23	0	562036736	62	4266
2026-01-12 06:40:09.75	64.71	18.03	-48.3	-49.6	15.2	0.00e+00	0	23	0	565182464	62	4244
2026-01-12 06:40:10.75	64.54	18.12	-48.3	-49.6	15.1	0.00e+00	0	23	0	568328192	62	4290
2026-01-12 06:40:11.75	64.37	18.20	-48.2	-49.5	15.2	0.00e+00	0	23	0	571473920	62	4218
2026-01-12 06:40:12.75	64.19	18.28	-48.1	-49.4	15.3	0.00e+00	0	23	0	574619648	62	4168
2026-01-12 06:40:13.76	64.02	18.36	-48.3	-49.6	15.2	0.00e+00	0	22	0	577765376	62	4273
2026-01-12 06:40:14.76	63.84	18.45	-48.1	-49.4	15.3	0.00e+00	0	23	0	580911104	62	4164
2026-01-12 06:40:15.77	63.67	18.53	-48.2	-49.4	15.2	0.00e+00	0	23	0	584056832	62	4187
2026-01-12 06:40:16.76	63.49	18.61	-48.2	-49.4	15.2	0.00e+00	0	23	0	587202560	62	4188
2026-01-12 06:40:17.76	63.31	18.69	-48.2	-49.5	15.2	0.00e+00	0	22	0	590348288	62	4204
2026-01-12 06:40:18.75	63.14	18.78	-48.3	-49.6	15.2	0.00e+00	0	23	0	593494016	62	4246
2026-01-12 06:40:19.75	62.96	18.86	-48.1	-49.4	15.3	0.00e+00	0	23	0	596639744	62	4163
2026-01-12 06:40:20.74	62.78	18.94	-48.0	-49.3	15.3	0.00e+00	0	23	0	599785472	62	4115
2026-01-12 06:40:21.74	62.60	19.02	-48.1	-49.3	15.3	0.00e+00	0	23	0	602931200	62	4143
2026-01-12 06:40:22.74	62.41	19.10	-48.0	-49.2	15.3	0.00e+00	0	23	0	606076928	62	4090
2026-01-12 06:40:23.74	62.23	19.19	-48.0	-49.2	15.3	0.00e+00	0	23	0	609222656	62	4087
2026-01-12 06:40:24.74	62.04	19.27	-48.0	-49.2	15.4	0.00e+00	0	23	0	612368384	62	4079
2026-01-12 06:40:25.74	61.86	19.35	-48.0	-49.2	15.3	0.00e+00	0	23	0	615514112	62	4090
2026-01-12 06:40:26.74	61.67	19.43	-48.0	-49.2	15.4	0.00e+00	0	23	0	618659840	62	4084
2026-01-12 06:40:27.73	61.49	19.51	-47.9	-49.2	15.4	0.00e+00	0	23	0	621805568	62	4053
2026-01-12 06:40:28.73	61.30	19.60	-47.8	-49.1	15.4	0.00e+00	0	23	0	624951296	62	4009
2026-01-12 06:40:29.73	61.11	19.68	-47.8	-49.0	15.4	0.00e+00	0	23	0	628097024	62	3978
2026-01-12 06:40:30.73	60.92	19.76	-47.8	-49.0	15.4	0.00e+00	0	23	0	631242752	62	3986
2026-01-12 06:40:31.73	60.73	19.84	-47.8	-49.1	15.4	0.00e+00	0	23	0	634388480	62	4022
2026-01-12 06:40:32.73	60.53	19.92	-47.8	-49.0	15.5	0.00e+00	0	23	0	637534208	62	3992
2026-01-12 06:40:33.68	60.35	20.00	-47.8	-49.1	15.4	0.00e+00	0	23	0	640679936	62	4006
2026-01-12 06:40:34.68	60.15	20.08	-47.8	-49.0	15.5	0.00e+00	0	23	0	643825664	62	3973
2026-01-12 06:40:35.67	59.96	20.16	-47.8	-49.0	15.5	0.00e+00	0	23	0	646971392	62	3988
2026-01-12 06:40:36.67	59.76	20.25	-47.6	-48.8	15.4	0.00e+00	0	23	0	650117120	61	4099
2026-01-12 06:40:37.67	59.56	20.33	-47.4	-48.6	15.5	0.00e+00	0	22	0	653262848	61	4025
2026-01-12 06:40:38.67	59.37	20.41	-47.4	-48.6	15.5	0.00e+00	0	23	0	656408576	61	4042
2026-01-12 06:40:39.67	59.17	20.49	-47.5	-48.7	15.4	0.00e+00	0	23	0	659554304	61	4053
2026-01-12 06:40:40.67	58.96	20.57	-47.6	-48.8	15.4	0.00e+00	0	23	0	662700032	61	4106
2026-01-12 06:40:41.67	58.76	20.65	-47.5	-48.7	15.4	0.00e+00	0	23	0	664797184	61	4076
2026-01-12 06:40:42.66	58.56	20.73	-47.6	-48.8	15.4	0.00e+00	0	23	0	667942912	61	4114
2026-01-12 06:40:43.66	58.36	20.81	-47.6	-48.8	15.4	0.00e+00	0	23	0	671088640	61	4141
2026-01-12 06:40:44.65	58.15	20.89	-47.6	-48.8	15.4	0.00e+00	0	23	0	674234368	61	4139
2026-01-12 06:40:45.65	57.95	20.97	-47.6	-48.8	15.4	0.00e+00	0	23	0	677380096	61	4141
2026-01-12 06:40:46.65	57.74	21.05	-47.7	-48.9	15.4	0.00e+00	0	23	0	680525824	61	4158
2026-01-12 06:40:47.65	57.53	21.13	-47.6	-48.8	15.4	0.00e+00	0	23	0	683671552	61	4138
2026-01-12 06:40:48.65	57.32	21.21	-47.6	-48.8	15.4	0.00e+00	0	23	0	686817280	61	4137
2026-01-12 06:40:49.65	57.11	21.29	-47.5	-48.7	15.4	0.00e+00	0	23	0	689963008	61	4091
2026-01-12 06:40:50.65	56.90	21.37	-47.6	-48.9	15.4	0.00e+00	0	23	0	693108736	61	4147
2026-01-12 06:40:51.65	56.68	21.45	-47.8	-49.0	15.3	0.00e+00	0	23	0	696254464	61	4212
2026-01-12 06:40:52.66	56.47	21.53	-47.7	-49.0	15.3	0.00e+00	0	23	0	699400192	61	4208
2026-01-12 06:40:53.65	56.25	21.61	-47.6	-48.8	15.4	0.00e+00	0	23	0	702545920	61	4145
2026-01-12 06:40:54.65	56.04	21.69	-47.5	-48.7	15.5	0.00e+00	0	23	0	705691648	61	4071
2026-01-12 06:40:55.65	55.82	21.77	-47.4	-48.6	15.5	0.00e+00	0	23	0	708837376	61	4032
2026-01-12 06:40:56.65	55.60	21.85	-47.3	-48.5	15.5	0.00e+00	0	23	0	711983104	61	3988
2026-01-12 06:40:57.64	55.38	21.93	-47.4	-48.6	15.5	0.00e+00	0	23	0	715128832	61	4018
2026-01-12 06:40:58.65	55.16	22.00	-47.5	-48.7	15.4	0.00e+00	0	23	0	718274560	61	4096
2026-01-12 06:40:59.65	54.94	22.08	-47.4	-48.6	15.5	0.00e+00	0	23	0	721420288	61	4040
2026-01-12 06:41:00.65	54.71	22.16	-47.4	-48.6	15.5	0.00e+00	0	23	0	724566016	61	4048
2026-01-12 06:41:01.64	54.49	22.24	-47.4	-48.6	15.5	0.00e+00	0	23	0	727711744	61	4021
2026-01-12 06:41:02.65	54.26	22.31	-47.5	-48.7	15.5	0.00e+00	0	23	0	730857472	61	4072
2026-01-12 06:41:03.64	54.04	22.39	-47.5	-48.7	15.5	0.00e+00	0	23	0	734003200	61	4059
2026-01-12 06:41:04.65	53.81	22.47	-47.6	-48.8	15.4	0.00e+00	0	23	0	737148928	61	4112
2026-01-12 06:41:05.65	53.58	22.54	-47.7	-48.9	15.4	0.00e+00	0	23	0	740294656	61	4184
2026-01-12 06:41:06.65	53.35	22.62	-47.7	-48.9	15.4	0.00e+00	0	23	0	743440384	61	4167
2026-01-12 06:41:07.65	53.12	22.70	-47.7	-48.9	15.4	0.00e+00	0	23	0	746586112	61	4172
2026-01-12 06:41:08.65	52.89	22.77	-47.6	-48.8	15.4	0.00e+00	0	23	0	749731840	61	4144
2026-01-12 06:41:09.65	52.65	22.85	-47.7	-49.0	15.3	0.00e+00	0	23	0	752877568	61	4201
2026-01-12 06:41:10.66	52.42	22.92	-47.8	-49.0	15.3	0.00e+00	0	23	0	756023296	61	4218
2026-01-12 06:41:11.65	52.18	23.00	-47.8	-49.0	15.3	0.00e+00	0	23	0	759169024	61	4234
2026-01-12 06:41:12.64	51.95	23.07	-47.7	-48.9	15.3	0.00e+00	0	23	0	762314752	61	4169
2026-01-12 06:41:13.63	51.71	23.14	-47.6	-48.9	15.4	0.00e+00	0	23	0	765460480	61	4147
2026-01-12 06:41:14.62	51.48	23.22	-47.6	-48.8	15.4	0.00e+00	0	23	0	768606208	61	4111
2026-01-12 06:41:15.62	51.24	23.29	-47.6	-48.8	15.4	0.00e+00	0	23	0	771751936	61	4140
2026-01-12 06:41:16.61	51.00	23.36	-47.6	-48.8	15.4	0.00e+00	0	23	0	774897664	61	4107
2026-01-12 06:41:17.61	50.76	23.44	-47.7	-48.9	15.4	0.00e+00	0	23	0	778043392	61	4174
2026-01-12 06:41:18.61	50.51	23.51	-47.8	-49.0	15.3	0.00e+00	0	23	0	781189120	61	4228
2026-01-12 06:41:19.61	50.27	23.58	-47.8	-49.0	15.3	0.00e+00	0	23	0	784334848	61	4238
2026-01-12 06:41:20.61	50.02	23.65	-47.9	-49.2	15.2	0.00e+00	0	23	0	787480576	61	4300
2026-01-12 06:41:21.60	49.78	23.72	-47.9	-49.1	15.3	0.00e+00	0	23	0	790626304	61	4288
2026-01-12 06:41:22.60	49.53	23.79	-47.9	-49.1	15.3	0.00e+00	0	23	0	793772032	61	4287
2026-01-12 06:41:23.61	49.28	23.86	-47.8	-49.0	15.3	0.00e+00	0	23	0	796917760	61	4216
2026-01-12 06:41:24.60	49.03	23.93	-47.9	-49.1	15.3	0.00e+00	0	23	0	799014912	61	4284
2026-01-12 06:41:25.60	48.78	24.00	-47.9	-49.2	15.2	0.00e+00	0	23	0	802160640	61	4306
2026-01-12 06:41:26.60	48.52	24.07	-48.1	-49.3	15.2	0.00e+00	0	23	0	805306368	61	4371
2026-01-12 06:41:27.60	48.27	24.14	-48.0	-49.2	15.2	0.00e+00	0	23	0	808452096	61	4314
2026-01-12 06:41:28.60	48.02	24.21	-48.0	-49.2	15.2	0.00e+00	0	23	0	811597824	61	4331
2026-01-12 06:41:29.59	47.76	24.28	-48.0	-49.3	15.2	0.00e+00	0	23	0	814743552	61	4353
2026-01-12 06:41:30.59	47.51	24.35	-48.1	-49.4	15.1	0.00e+00	0	23	0	817889280	61	4423
2026-01-12 06:41:31.58	47.25	24.41	-48.2	-49.5	15.1	0.00e+00	0	23	0	821035008	61	4453
2026-01-12 06:41:32.58	46.99	24.48	-48.3	-49.6	15.1	0.00e+00	0	23	0	824180736	61	4514
2026-01-12 06:41:33.58	46.73	24.54	-48.1	-49.4	15.2	0.00e+00	0	23	0	827326464	61	4401
2026-01-12 06:41:34.58	46.47	24.61	-48.2	-49.5	15.1	0.00e+00	0	23	0	830472192	61	4444
2026-01-12 06:41:35.58	46.21	24.68	-48.0	-49.2	15.2	0.00e+00	0	23	0	833617920	61	4330
2026-01-12 06:41:36.58	45.94	24.74	-47.9	-49.1	15.3	0.00e+00	0	23	0	836763648	61	4276
2026-01-12 06:41:37.58	45.68	24.80	-47.9	-49.1	15.3	0.00e+00	0	23	0	839909376	61	4266
2026-01-12 06:41:38.58	45.41	24.87	-47.8	-49.1	15.3	0.00e+00	0	23	0	843055104	61	4253
2026-01-12 06:41:39.58	45.14	24.93	-48.0	-49.2	15.2	0.00e+00	0	23	0	846200832	61	4314
2026-01-12 06:41:40.58	44.88	24.99	-47.9	-49.2	15.2	0.00e+00	0	23	0	849346560	61	4306
2026-01-12 06:41:41.57	44.61	25.05	-47.9	-49.2	15.3	0.00e+00	0	23	0	852492288	61	4298
2026-01-12 06:41:42.58	44.34	25.12	-47.8	-49.1	15.3	0.00e+00	0	23	0	855638016	61	4249
2026-01-12 06:41:43.58	44.07	25.18	-47.9	-49.2	15.3	0.00e+00	0	23	0	858783744	61	4311
2026-01-12 06:41:44.58	43.79	25.24	-47.9	-49.2	15.3	0.00e+00	0	23	0	861929472	61	4305
2026-01-12 06:41:45.58	43.52	25.30	-47.8	-49.0	15.3	0.00e+00	0	23	0	865075200	61	4212
2026-01-12 06:41:46.58	43.25	25.36	-48.0	-49.2	15.2	0.00e+00	0	23	0	868220928	61	4339
2026-01-12 06:41:47.59	42.97	25.42	-48.0	-49.3	15.2	0.00e+00	0	23	0	871366656	61	4363
2026-01-12 06:41:48.59	42.69	25.47	-48.2	-49.4	15.1	0.00e+00	0	23	0	874512384	61	4427
2026-01-12 06:41:49.59	42.41	25.53	-48.1	-49.4	15.1	0.00e+00	0	23	0	877658112	61	4413
2026-01-12 06:41:50.59	42.14	25.59	-48.2	-49.5	15.1	0.00e+00	0	23	0	880803840	61	4445
2026-01-12 06:41:51.59	41.86	25.64	-48.2	-49.4	15.1	0.00e+00	0	23	0	883949568	61	4429
2026-01-12 06:41:52.58	41.58	25.70	-48.1	-49.3	15.2	0.00e+00	0	23	0	887095296	61	4367
2026-01-12 06:41:53.58	41.30	25.75	-48.1	-49.3	15.2	0.00e+00	0	23	0	890241024	61	4382
2026-01-12 06:41:54.58	41.02	25.81	-48.0	-49.2	15.2	0.00e+00	0	23	0	893386752	61	4327
2026-01-12 06:41:55.58	40.73	25.86	-47.8	-49.0	15.3	0.00e+00	0	23	0	896532480	61	4237
2026-01-12 06:41:56.59	40.44	25.92	-47.8	-49.0	15.3	0.00e+00	0	23	0	899678208	61	4226
2026-01-12 06:41:57.59	40.16	25.97	-47.7	-49.0	15.3	0.00e+00	0	23	0	902823936	61	4195
2026-01-12 06:41:58.59	39.87	26.02	-47.6	-48.8	15.4	0.00e+00	0	23	0	905969664	61	4134
2026-01-12 06:41:59.58	39.59	26.07	-47.7	-48.9	15.4	0.00e+00	0	23	0	909115392	61	4156
2026-01-12 06:42:00.57	39.30	26.12	-47.4	-48.6	15.5	0.00e+00	0	23	0	912261120	61	4022
2026-01-12 06:42:01.57	39.01	26.17	-47.5	-48.7	15.5	0.00e+00	0	23	0	915406848	61	4057
2026-01-12 06:42:02.57	38.72	26.22	-47.4	-48.6	15.5	0.00e+00	0	23	0	918552576	61	4005
2026-01-12 06:42:03.56	38.44	26.26	-47.4	-48.6	15.5	0.00e+00	0	23	0	921698304	61	4024
2026-01-12 06:42:04.57	38.14	26.31	-47.7	-48.9	15.4	0.00e+00	0	23	0	924844032	61	4151
2026-01-12 06:42:05.56	37.85	26.36	-47.6	-48.7	15.4	0.00e+00	0	23	0	927989760	61	4098
2026-01-12 06:42:06.57	37.56	26.40	-47.6	-48.8	15.4	0.00e+00	0	23	0	931135488	61	4136
2026-01-12 06:42:07.57	37.26	26.45	-47.6	-48.8	15.4	0.00e+00	0	23	0	933232640	61	4110
2026-01-12 06:42:08.57	36.97	26.49	-47.5	-48.7	15.4	0.00e+00	0	23	0	936378368	61	4093
2026-01-12 06:42:09.57	36.67	26.54	-47.5	-48.7	15.4	0.00e+00	0	23	0	939524096	61	4084
2026-01-12 06:42:10.57	36.38	26.58	-47.5	-48.7	15.4	0.00e+00	0	23	0	942669824	61	4090
2026-01-12 06:42:11.57	36.08	26.62	-47.6	-48.9	15.4	0.00e+00	0	23	0	945815552	61	4147
2026-01-12 06:42:12.57	35.78	26.66	-47.5	-48.7	15.5	0.00e+00	0	23	0	948961280	61	4069
2026-01-12 06:42:13.57	35.48	26.70	-47.5	-48.7	15.4	0.00e+00	0	23	0	952107008	61	4094
2026-01-12 06:42:14.57	35.18	26.74	-47.5	-48.7	15.5	0.00e+00	0	23	0	955252736	61	4053
2026-01-12 06:42:15.58	34.88	26.78	-47.5	-48.6	15.5	0.00e+00	0	23	0	958398464	61	4044
2026-01-12 06:42:16.58	34.58	26.82	-47.5	-48.7	15.5	0.00e+00	0	23	0	961544192	61	4067
2026-01-12 06:42:17.58	34.27	26.86	-47.6	-48.8	15.4	0.00e+00	0	23	0	964689920	61	4120
2026-01-12 06:42:18.59	33.97	26.89	-47.6	-48.8	15.4	0.00e+00	0	23	0	967835648	61	4117
2026-01-12 06:42:19.58	33.67	26.93	-47.5	-48.7	15.5	0.00e+00	0	23	0	970981376	61	4068
2026-01-12 06:42:20.59	33.36	26.96	-47.4	-48.5	15.5	0.00e+00	0	23	0	974127104	61	4000
2026-01-12 06:42:21.58	33.06	27.00	-47.4	-48.6	15.5	0.00e+00	0	23	0	977272832	61	4026
2026-01-12 06:42:22.58	32.76	27.03	-47.3	-48.5	15.5	0.00e+00	0	23	0	980418560	61	3984
2026-01-12 06:42:23.59	32.45	27.06	-47.4	-48.6	15.5	0.00e+00	0	23	0	983564288	61	4040
2026-01-12 06:42:24.59	32.14	27.09	-47.5	-48.7	15.5	0.00e+00	0	23	0	986710016	61	4069
2026-01-12 06:42:25.59	31.83	27.12	-47.5	-48.7	15.5	0.00e+00	0	23	0	989855744	61	4064
2026-01-12 06:42:26.59	31.53	27.15	-47.5	-48.7	15.4	0.00e+00	0	23	0	993001472	61	4087
2026-01-12 06:42:27.59	31.22	27.18	-47.6	-48.8	15.4	0.00e+00	0	23	0	996147200	61	4101
2026-01-12 06:42:28.59	30.91	27.21	-47.5	-48.6	15.5	0.00e+00	0	23	0	999292928	61	4041
2026-01-12 06:42:29.58	30.60	27.23	-47.6	-48.8	15.4	0.00e+00	0	23	0	1002438656	61	4108
2026-01-12 06:42:30.58	30.29	27.26	-47.7	-48.9	15.4	0.00e+00	0	23	0	1005584384	61	4158
2026-01-12 06:42:31.59	29.98	27.28	-47.7	-48.9	15.4	0.00e+00	0	23	0	1008730112	61	4152
2026-01-12 06:42:32.59	29.67	27.31	-47.7	-48.9	15.4	0.00e+00	0	23	0	1011875840	61	4172
2026-01-12 06:42:33.58	29.36	27.33	-47.7	-48.9	15.4	0.00e+00	0	23	0	1015021568	61	4163
2026-01-12 06:42:34.59	29.05	27.35	-47.7	-48.9	15.4	0.00e+00	0	23	0	1018167296	61	4175
2026-01-12 06:42:35.59	28.73	27.37	-47.7	-48.9	15.4	0.00e+00	0	23	0	1021313024	61	4168
2026-01-12 06:42:36.59	28.42	27.40	-47.5	-48.7	15.4	0.00e+00	0	23	0	1024458752	61	4079
2026-01-12 06:42:37.59	28.11	27.41	-47.6	-48.8	15.4	0.00e+00	0	23	0	1027604480	61	4105
2026-01-12 06:42:38.59	27.79	27.43	-47.8	-49.0	15.3	0.00e+00	0	23	0	1030750208	61	4213
2026-01-12 06:42:39.59	27.48	27.45	-47.9	-49.2	15.3	0.00e+00	0	23	0	1033895936	61	4299
2026-01-12 06:42:40.60	27.16	27.47	-48.0	-49.2	15.2	0.00e+00	0	23	0	1037041664	61	4325
2026-01-12 06:42:41.61	26.85	27.48	-47.9	-49.1	15.3	0.00e+00	0	23	0	1040187392	61	4279
2026-01-12 06:42:42.61	26.53	27.50	-47.9	-49.1	15.2	0.00e+00	0	23	0	1043333120	61	4283
2026-01-12 06:42:43.61	26.22	27.51	-47.8	-49.0	15.3	0.00e+00	0	23	0	1046478848	61	4203
2026-01-12 06:42:44.62	25.90	27.52	-47.7	-48.9	15.4	0.00e+00	0	23	0	1049624576	61	4160
2026-01-12 06:42:45.62	25.58	27.53	-47.8	-49.0	15.3	0.00e+00	0	23	0	1052770304	61	4212
2026-01-12 06:42:46.62	25.27	27.55	-47.8	-49.1	15.3	0.00e+00	0	23	0	1055916032	61	4249
2026-01-12 06:42:47.63	24.95	27.56	-47.8	-49.0	15.3	0.00e+00	0	23	0	1059061760	61	4208
2026-01-12 06:42:48.63	24.63	27.56	-47.7	-48.9	15.4	0.00e+00	0	23	0	1062207488	61	4189
2026-01-12 06:42:49.62	24.32	27.57	-47.7	-48.9	15.4	0.00e+00	0	23	0	1065353216	61	4178
2026-01-12 06:42:50.62	24.01	27.58	-47.8	-49.0	15.3	0.00e+00	0	23	0	1068498944	61	4204
2026-01-12 06:42:51.63	23.69	27.58	-47.7	-48.9	15.3	0.00e+00	0	23	0	1071644672	61	4187
2026-01-12 06:42:52.64	23.37	27.59	-47.6	-48.8	15.4	0.00e+00	0	23	0	1074790400	61	4122
2026-01-12 06:42:53.63	23.05	27.59	-47.6	-48.8	15.4	0.00e+00	0	23	0	1077936128	61	4126
2026-01-12 06:42:54.62	22.74	27.60	-47.7	-48.9	15.3	0.00e+00	0	23	0	1081081856	61	4185
2026-01-12 06:42:55.62	22.42	27.60	-47.7	-48.9	15.3	0.00e+00	0	23	0	1084227584	61	4167
2026-01-12 06:42:56.61	22.11	27.60	-47.7	-49.0	15.3	0.00e+00	0	23	0	1087373312	61	4202
2026-01-12 06:42:57.61	21.79	27.60	-47.9	-49.1	15.3	0.00e+00	0	23	0	1090519040	61	4253
2026-01-12 06:42:58.62	21.47	27.60	-47.9	-49.1	15.3	0.00e+00	0	23	0	1093664768	61	4265
2026-01-12 06:42:59.63	21.15	27.60	-47.8	-49.0	15.3	0.00e+00	0	23	0	1096810496	61	4229
2026-01-12 06:43:00.63	20.84	27.59	-47.7	-48.9	15.3	0.00e+00	0	23	0	1099956224	61	4164
2026-01-12 06:43:01.64	20.52	27.59	-47.7	-48.9	15.3	0.00e+00	0	23	0	1103101952	61	4191
2026-01-12 06:43:02.63	20.20	27.59	-47.6	-48.8	15.4	0.00e+00	0	23	0	1106247680	61	4142
2026-01-12 06:43:03.63	19.89	27.58	-47.5	-48.7	15.4	0.00e+00	0	23	0	1109393408	61	4083
2026-01-12 06:43:04.64	19.57	27.57	-47.6	-48.7	15.4	0.00e+00	0	23	0	1112539136	61	4092
2026-01-12 06:43:05.64	19.25	27.56	-47.4	-48.6	15.5	0.00e+00	0	23	0	1115684864	61	4010
2026-01-12 06:43:06.63	18.94	27.56	-47.5	-48.7	15.4	0.00e+00	0	23	0	1117782016	61	4071
2026-01-12 06:43:07.63	18.62	27.55	-47.5	-48.6	15.5	0.00e+00	0	23	0	1120927744	61	4043
2026-01-12 06:43:08.63	18.31	27.54	-47.5	-48.6	15.4	0.00e+00	0	23	0	1124073472	61	4040
2026-01-12 06:43:09.63	17.99	27.52	-47.5	-48.6	15.5	0.00e+00	0	23	0	1127219200	61	4051
2026-01-12 06:43:10.62	17.68	27.51	-47.6	-48.8	15.4	0.00e+00	0	23	0	1130364928	61	4103
2026-01-12 06:43:11.61	17.37	27.50	-47.5	-48.6	15.5	0.00e+00	0	23	0	1133510656	61	4037
2026-01-12 06:43:12.61	17.06	27.48	-47.6	-48.8	15.4	0.00e+00	0	23	0	1136656384	61	4127
2026-01-12 06:43:13.61	16.74	27.47	-47.5	-48.7	15.4	0.00e+00	0	23	0	1139802112	61	4064
2026-01-12 06:43:14.61	16.43	27.45	-47.6	-48.7	15.4	0.00e+00	0	23	0	1142947840	61	4097
2026-01-12 06:43:15.61	16.11	27.44	-47.6	-48.8	15.4	0.00e+00	0	23	0	1146093568	61	4103
2026-01-12 06:43:16.61	15.80	27.42	-47.7	-48.8	15.4	0.00e+00	0	23	0	1149239296	61	4133
2026-01-12 06:43:17.62	15.49	27.40	-47.7	-48.9	15.3	0.00e+00	0	23	0	1152385024	61	4170
2026-01-12 06:43:18.62	15.17	27.38	-47.7	-48.9	15.3	0.00e+00	0	23	0	1155530752	61	4169
2026-01-12 06:43:19.63	14.86	27.36	-47.8	-49.0	15.3	0.00e+00	0	23	0	1158676480	61	4202
2026-01-12 06:43:20.63	14.55	27.33	-47.7	-48.9	15.3	0.00e+00	0	23	0	1161822208	61	4186
2026-01-12 06:43:21.63	14.24	27.31	-47.7	-48.9	15.4	0.00e+00	0	23	0	1164967936	61	4180
2026-01-12 06:43:22.63	13.92	27.29	-47.7	-48.9	15.4	0.00e+00	0	23	0	1168113664	61	4177
2026-01-12 06:43:23.63	13.61	27.26	-47.6	-48.8	15.4	0.00e+00	0	23	0	1171259392	61	4134
2026-01-12 06:43:24.64	13.30	27.24	-47.6	-48.8	15.4	0.00e+00	0	23	0	1174405120	61	4132
2026-01-12 06:43:25.63	13.00	27.21	-47.6	-48.8	15.4	0.00e+00	0	23	0	1177550848	61	4129
2026-01-12 06:43:26.64	12.68	27.18	-47.7	-48.9	15.4	0.00e+00	0	23	0	1180696576	61	4152
2026-01-12 06:43:27.64	12.38	27.15	-47.6	-48.8	15.4	0.00e+00	0	23	0	1183842304	61	4136
2026-01-12 06:43:28.63	12.07	27.13	-47.7	-48.9	15.4	0.00e+00	0	23	0	1186988032	61	4156
2026-01-12 06:43:29.63	11.76	27.10	-47.8	-49.0	15.3	0.00e+00	0	23	0	1190133760	61	4223
2026-01-12 06:43:30.63	11.46	27.07	-47.9	-49.1	15.3	0.00e+00	0	23	0	1193279488	61	4267
2026-01-12 06:43:31.63	11.15	27.03	-47.8	-49.0	15.3	0.00e+00	0	23	0	1196425216	61	4202
2026-01-12 06:43:32.63	10.85	27.00	-47.9	-49.1	15.3	0.00e+00	0	23	0	1199570944	61	4281
2026-01-12 06:43:33.63	10.54	26.97	-47.8	-49.0	15.3	0.00e+00	0	23	0	1202716672	61	4235
2026-01-12 06:43:34.63	10.24	26.93	-47.7	-48.9	15.4	0.00e+00	0	23	0	1205862400	61	4176
2026-01-12 06:43:35.63	9.94	26.90	-47.8	-48.9	15.3	0.00e+00	0	23	0	1209008128	61	4189
2026-01-12 06:43:36.63	9.63	26.86	-47.7	-48.9	15.3	0.00e+00	0	23	0	1212153856	61	4186
2026-01-12 06:43:37.62	9.33	26.82	-47.7	-48.9	15.4	0.00e+00	0	23	0	1215299584	61	4166
2026-01-12 06:43:38.62	9.03	26.79	-47.7	-48.9	15.3	0.00e+00	0	23	0	1218445312	61	4184
2026-01-12 06:43:39.63	8.73	26.75	-47.6	-48.8	15.4	0.00e+00	0	23	0	1221591040	61	4134
2026-01-12 06:43:40.62	8.43	26.71	-47.5	-48.7	15.4	0.00e+00	0	23	0	1224736768	61	4072
2026-01-12 06:43:41.62	8.13	26.67	-47.6	-48.7	15.4	0.00e+00	0	23	0	1227882496	61	4091
2026-01-12 06:43:42.62	7.84	26.63	-47.8	-49.0	15.3	0.00e+00	0	23	0	1231028224	61	4218
2026-01-12 06:43:43.62	7.54	26.59	-47.8	-49.1	15.3	0.00e+00	0	23	0	1234173952	61	4243
2026-01-12 06:43:44.63	7.24	26.54	-47.9	-49.1	15.3	0.00e+00	0	23	0	1237319680	61	4264
2026-01-12 06:43:45.64	6.94	26.50	-48.0	-49.2	15.2	0.00e+00	0	23	0	1240465408	61	4314
2026-01-12 06:43:46.65	6.64	26.46	-48.0	-49.2	15.2	0.00e+00	0	23	0	1243611136	61	4313
2026-01-12 06:43:47.65	6.35	26.41	-48.0	-49.2	15.3	0.00e+00	0	23	0	1246756864	61	4299
2026-01-12 06:43:48.66	6.05	26.36	-47.8	-49.0	15.3	0.00e+00	0	23	0	1249902592	61	4236
2026-01-12 06:43:49.66	5.76	26.32	-47.9	-49.1	15.3	0.00e+00	0	23	0	1253048320	61	4274
2026-01-12 06:43:50.65	5.47	26.27	-47.9	-49.1	15.3	0.00e+00	0	23	0	1256194048	61	4267
2026-01-12 06:43:51.66	5.18	26.22	-47.9	-49.1	15.3	0.00e+00	0	23	0	1259339776	61	4262
2026-01-12 06:43:52.66	4.89	26.17	-47.8	-49.0	15.3	0.00e+00	0	23	0	1262485504	61	4241
2026-01-12 06:43:53.66	4.60	26.13	-47.7	-48.9	15.3	0.00e+00	0	23	0	1265631232	61	4191
2026-01-12 06:43:54.65	4.32	26.08	-47.7	-49.0	15.3	0.00e+00	0	23	0	1268776960	61	4195
2026-01-12 06:43:55.65	4.03	26.02	-47.8	-49.1	15.3	0.00e+00	0	23	0	1271922688	61	4250
2026-01-12 06:43:56.65	3.74	25.97	-47.7	-48.9	15.3	0.00e+00	0	23	0	1275068416	61	4191
2026-01-12 06:43:57.65	3.46	25.92	-47.8	-49.0	15.3	0.00e+00	0	23	0	1278214144	61	4195
2026-01-12 06:43:58.65	3.17	25.87	-47.8	-49.0	15.3	0.00e+00	0	23	0	1281359872	61	4242
2026-01-12 06:43:59.64	2.89	25.82	-47.9	-49.1	15.3	0.00e+00	0	23	0	1284505600	61	4256
2026-01-12 06:44:00.65	2.61	25.76	-47.9	-49.1	15.3	0.00e+00	0	23	0	1287651328	61	4276
2026-01-12 06:44:01.65	2.33	25.71	-47.9	-49.1	15.3	0.00e+00	0	23	0	1290797056	61	4271
2026-01-12 06:44:02.64	2.05	25.65	-47.8	-49.0	15.3	0.00e+00	0	23	0	1293942784	61	4237
2026-01-12 06:44:03.63	1.77	25.60	-47.5	-48.7	15.5	0.00e+00	0	23	0	1296039936	61	4070
2026-01-12 06:44:04.63	1.50	25.54	-47.4	-48.6	15.5	0.00e+00	0	23	0	1299185664	61	4010
2026-01-12 06:44:05.63	1.22	25.48	-47.5	-48.7	15.5	0.00e+00	0	23	0	1302331392	61	4058
2026-01-12 06:44:06.63	0.94	25.42	-47.6	-48.7	15.4	0.00e+00	0	23	0	1305477120	61	4098
2026-01-12 06:44:07.63	0.67	25.37	-47.7	-48.9	15.3	0.00e+00	0	23	0	1308622848	61	4161
2026-01-12 06:44:08.63	0.39	25.31	-47.8	-49.0	15.3	0.00e+00	0	23	0	1311768576	61	4230
2026-01-12 06:44:09.63	0.12	25.25	-47.8	-49.0	15.3	0.00e+00	0	23	0	1314914304	61	4219
2026-01-12 06:44:10.62	359.85	25.19	-47.6	-48.8	15.4	0.00e+00	0	23	0	1318060032	61	4117
2026-01-12 06:44:11.62	359.58	25.13	-47.4	-48.6	15.5	0.00e+00	0	23	0	1321205760	61	4027
2026-01-12 06:44:12.62	359.31	25.07	-47.5	-48.6	15.4	0.00e+00	0	23	0	1324351488	61	4042
2026-01-12 06:44:13.62	359.04	25.00	-47.4	-48.5	15.5	0.00e+00	0	23	0	1327497216	61	3999
2026-01-12 06:44:14.62	358.77	24.94	-47.4	-48.6	15.5	0.00e+00	0	23	0	1330642944	61	4017
2026-01-12 06:44:15.62	358.51	24.88	-47.6	-48.7	15.4	0.00e+00	0	23	0	1333788672	61	4098
2026-01-12 06:44:16.62	358.24	24.82	-47.8	-49.0	15.3	0.00e+00	0	23	0	1336934400	61	4203
2026-01-12 06:44:17.62	357.97	24.75	-47.9	-49.2	15.2	0.00e+00	0	23	0	1340080128	61	4297
2026-01-12 06:44:18.61	357.71	24.69	-48.0	-49.3	15.2	0.00e+00	0	23	0	1343225856	61	4346
2026-01-12 06:44:19.61	357.45	24.62	-47.9	-49.1	15.2	0.00e+00	0	23	0	1346371584	61	4277
2026-01-12 06:44:20.61	357.19	24.56	-47.9	-49.1	15.3	0.00e+00	0	23	0	1349517312	61	4274
2026-01-12 06:44:21.60	356.93	24.49	-47.8	-49.0	15.3	0.00e+00	0	23	0	1352663040	61	4229
2026-01-12 06:44:22.60	356.67	24.43	-47.4	-48.5	15.5	0.00e+00	0	23	0	1355808768	61	4002
2026-01-12 06:44:23.61	356.41	24.36	-47.0	-48.1	15.5	0.00e+00	0	23	0	1358954496	60	4047
2026-01-12 06:44:24.60	356.16	24.29	-47.0	-48.1	15.5	0.00e+00	0	23	0	1362100224	60	4042
2026-01-12 06:44:25.60	355.90	24.22	-46.9	-48.1	15.5	0.00e+00	0	23	0	1365245952	60	4007
2026-01-12 06:44:26.60	355.65	24.15	-47.1	-48.2	15.5	0.00e+00	0	23	0	1368391680	60	4079
2026-01-12 06:44:27.59	355.40	24.09	-47.2	-48.3	15.5	0.00e+00	0	23	0	1371537408	60	4130
2026-01-12 06:44:28.60	355.14	24.02	-47.2	-48.4	15.4	0.00e+00	0	23	0	1374683136	60	4168
2026-01-12 06:44:29.59	354.89	23.95	-47.3	-48.4	15.4	0.00e+00	0	23	0	1377828864	60	4176
2026-01-12 06:44:30.60	354.64	23.88	-47.3	-48.4	15.4	0.00e+00	0	23	0	1380974592	60	4193
2026-01-12 06:44:31.59	354.39	23.81	-47.2	-48.4	15.4	0.00e+00	0	23	0	1384120320	60	4158
2026-01-12 06:44:32.60	354.14	23.74	-47.3	-48.5	15.4	0.00e+00	0	23	0	1387266048	60	4208
2026-01-12 06:44:33.60	353.90	23.67	-47.4	-48.5	15.4	0.00e+00	0	23	0	1390411776	60	4230
2026-01-12 06:44:34.60	353.65	23.59	-47.5	-48.7	15.3	0.00e+00	0	23	0	1393557504	60	4302
2026-01-12 06:44:35.60	353.41	23.52	-47.6	-48.8	15.3	0.00e+00	0	23	0	1396703232	60	4359
2026-01-12 06:44:36.60	353.16	23.45	-47.7	-48.9	15.3	0.00e+00	0	23	0	1399848960	60	4407
2026-01-12 06:44:37.60	352.92	23.38	-47.8	-49.0	15.2	0.00e+00	0	23	0	1402994688	60	4476
2026-01-12 06:44:38.60	352.68	23.30	-47.8	-49.0	15.2	0.00e+00	0	23	0	1406140416	60	4464
2026-01-12 06:44:39.60	352.44	23.23	-47.7	-48.9	15.3	0.00e+00	0	23	0	1409286144	60	4406
2026-01-12 06:44:40.60	352.20	23.16	-47.7	-48.9	15.2	0.00e+00	0	23	0	1412431872	60	4427
2026-01-12 06:44:41.60	351.96	23.08	-47.6	-48.8	15.3	0.00e+00	0	23	0	1415577600	60	4348
2026-01-12 06:44:42.61	351.72	23.01	-47.4	-48.6	15.3	0.00e+00	0	23	0	1418723328	60	4278
2026-01-12 06:44:43.62	351.49	22.93	-47.4	-48.5	15.4	0.00e+00	0	23	0	1421869056	60	4235
2026-01-12 06:44:44.61	351.25	22.86	-47.5	-48.7	15.3	0.00e+00	0	23	0	1425014784	60	4313
2026-01-12 06:44:45.61	351.02	22.78	-47.6	-48.8	15.3	0.00e+00	0	23	0	1428160512	60	4371
2026-01-12 06:44:46.61	350.79	22.71	-47.8	-49.0	15.2	0.00e+00	0	23	0	1430257664	60	4487
2026-01-12 06:44:47.62	350.56	22.63	-48.0	-49.3	15.2	0.00e+00	0	23	0	1433403392	61	4359
2026-01-12 06:44:48.62	350.33	22.56	-48.2	-49.4	15.1	0.00e+00	0	23	0	1436549120	61	4437
2026-01-12 06:44:49.62	350.10	22.48	-48.1	-49.4	15.1	0.00e+00	0	23	0	1439694848	61	4409
2026-01-12 06:44:50.62	349.87	22.40	-48.1	-49.3	15.2	0.00e+00	0	23	0	1442840576	61	4373
2026-01-12 06:44:51.62	349.64	22.33	-48.0	-49.2	15.2	0.00e+00	0	23	0	1445986304	61	4326
2026-01-12 06:44:52.62	349.42	22.25	-47.8	-49.0	15.3	0.00e+00	0	23	0	1449132032	61	4225
2026-01-12 06:44:53.62	349.19	22.17	-47.8	-49.1	15.3	0.00e+00	0	23	0	1452277760	61	4255
2026-01-12 06:44:54.62	348.97	22.09	-47.9	-49.2	15.3	0.00e+00	0	23	0	1455423488	61	4302
2026-01-12 06:44:55.62	348.75	22.02	-48.0	-49.3	15.2	0.00e+00	0	23	0	1458569216	61	4358
2026-01-12 06:44:56.63	348.53	21.94	-48.1	-49.3	15.2	0.00e+00	0	23	0	1461714944	61	4390
2026-01-12 06:44:57.63	348.31	21.86	-48.1	-49.3	15.2	0.00e+00	0	23	0	1464860672	61	4375
2026-01-12 06:44:58.63	348.09	21.78	-48.1	-49.4	15.2	0.00e+00	0	23	0	1468006400	61	4394
2026-01-12 06:44:59.64	347.87	21.70	-47.9	-49.2	15.3	0.00e+00	0	23	0	1471152128	61	4295
2026-01-12 06:45:00.64	347.65	21.62	-47.9	-49.1	15.3	0.00e+00	0	23	0	1474297856	61	4281
2026-01-12 06:45:01.65	347.44	21.54	-47.8	-49.0	15.3	0.00e+00	0	23	0	1477443584	61	4225
2026-01-12 06:45:02.65	347.22	21.46	-47.8	-49.0	15.3	0.00e+00	0	23	0	1480589312	61	4227
2026-01-12 06:45:03.66	347.01	21.38	-47.7	-48.9	15.3	0.00e+00	0	23	0	1483735040	61	4187
2026-01-12 06:45:04.66	346.80	21.30	-47.7	-48.9	15.3	0.00e+00	0	23	0	1486880768	61	4190
2026-01-12 06:45:05.66	346.58	21.22	-47.7	-48.9	15.3	0.00e+00	0	23	0	1490026496	61	4193
2026-01-12 06:45:06.66	346.38	21.14	-47.9	-49.1	15.3	0.00e+00	0	23	0	1493172224	61	4276
2026-01-12 06:45:07.66	346.17	21.06	-48.0	-49.2	15.2	0.00e+00	0	23	0	1496317952	61	4333
2026-01-12 06:45:08.66	345.96	20.98	-47.9	-49.2	15.2	0.00e+00	0	23	0	1499463680	61	4303
2026-01-12 06:45:09.67	345.75	20.90	-48.0	-49.3	15.2	0.00e+00	0	23	0	1502609408	61	4341
2026-01-12 06:45:10.67	345.55	20.82	-47.9	-49.1	15.3	0.00e+00	0	23	0	1505755136	61	4255
2026-01-12 06:45:11.66	345.34	20.74	-47.9	-49.2	15.2	0.00e+00	0	23	0	1508900864	61	4301
2026-01-12 06:45:12.66	345.14	20.66	-47.8	-49.0	15.3	0.00e+00	0	23	0	1512046592	61	4212
2026-01-12 06:45:13.66	344.94	20.58	-47.8	-49.0	15.3	0.00e+00	0	23	0	1515192320	61	4210
2026-01-12 06:45:14.66	344.74	20.50	-47.6	-48.8	15.4	0.00e+00	0	23	0	1518338048	61	4123
2026-01-12 06:45:15.67	344.54	20.42	-47.6	-48.8	15.4	0.00e+00	0	23	0	1521483776	61	4130
2026-01-12 06:45:16.66	344.34	20.34	-47.7	-48.9	15.4	0.00e+00	0	23	0	1524629504	61	4164
2026-01-12 06:45:17.67	344.14	20.26	-47.7	-49.0	15.3	0.00e+00	0	23	0	1527775232	61	4194
2026-01-12 06:45:18.68	343.94	20.17	-48.0	-49.2	15.2	0.00e+00	0	23	0	1530920960	61	4306
2026-01-12 06:45:19.69	343.74	20.09	-48.0	-49.2	15.2	0.00e+00	0	23	0	1534066688	61	4331
2026-01-12 06:45:20.70	343.55	20.01	-47.9	-49.1	15.3	0.00e+00	0	23	0	1537212416	61	4286
2026-01-12 06:45:21.70	343.35	19.93	-47.9	-49.2	15.2	0.00e+00	0	23	0	1540358144	61	4306
2026-01-12 06:45:22.70	343.16	19.85	-47.9	-49.1	15.3	0.00e+00	0	23	0	1543503872	61	4253
2026-01-12 06:45:23.70	342.97	19.76	-47.9	-49.1	15.3	0.00e+00	0	23	0	1546649600	61	4277
2026-01-12 06:45:24.70	342.78	19.68	-47.8	-49.1	15.3	0.00e+00	0	23	0	1549795328	61	4248
2026-01-12 06:45:25.70	342.59	19.60	-47.9	-49.1	15.3	0.00e+00	0	23	0	1552941056	61	4264
2026-01-12 06:45:26.70	342.40	19.52	-47.9	-49.1	15.2	0.00e+00	0	23	0	1556086784	61	4277
2026-01-12 06:45:27.70	342.22	19.44	-47.9	-49.1	15.2	0.00e+00	0	23	0	1559232512	61	4278
2026-01-12 06:45:28.70	342.03	19.35	-47.9	-49.2	15.2	0.00e+00	0	23	0	1562378240	61	4295
2026-01-12 06:45:29.69	341.85	19.27	-47.9	-49.1	15.2	0.00e+00	0	23	0	1565523968	61	4287
2026-01-12 06:45:30.70	341.66	19.19	-47.9	-49.1	15.2	0.00e+00	0	23	0	1568669696	61	4261
2026-01-12 06:45:31.69	341.48	19.11	-48.0	-49.2	15.2	0.00e+00	0	23	0	1571815424	61	4324
2026-01-12 06:45:32.69	341.30	19.03	-47.9	-49.1	15.2	0.00e+00	0	23	0	1574961152	61	4291
2026-01-12 06:45:33.68	341.12	18.94	-47.9	-49.1	15.2	0.00e+00	0	23	0	1578106880	61	4254
2026-01-12 06:45:34.68	340.94	18.86	-47.8	-49.0	15.3	0.00e+00	0	23	0	1581252608	61	4222
2026-01-12 06:45:35.67	340.76	18.78	-47.9	-49.1	15.2	0.00e+00	0	23	0	1584398336	61	4263
2026-01-12 06:45:36.67	340.58	18.70	-47.9	-49.1	15.3	0.00e+00	0	23	0	1587544064	61	4256
2026-01-12 06:45:37.67	340.40	18.62	-47.8	-49.0	15.3	0.00e+00	0	23	0	1590689792	61	4219
2026-01-12 06:45:38.68	340.23	18.53	-47.8	-49.0	15.3	0.00e+00	0	23	0	1593835520	61	4199
2026-01-12 06:45:39.67	340.05	18.45	-47.9	-49.1	15.2	0.00e+00	0	23	0	1596981248	61	4261
2026-01-12 06:45:40.68	339.88	18.37	-47.9	-49.2	15.2	0.00e+00	0	23	0	1600126976	61	4300
2026-01-12 06:45:41.67	339.70	18.29	-48.0	-49.2	15.2	0.00e+00	0	23	0	1603272704	61	4319
2026-01-12 06:45:42.66	339.53	18.21	-47.9	-49.1	15.2	0.00e+00	0	23	0	1606418432	61	4284
2026-01-12 06:45:43.66	339.36	18.12	-47.9	-49.1	15.2	0.00e+00	0	23	0	1609564160	61	4266
2026-01-12 06:45:44.66	339.19	18.04	-47.9	-49.1	15.2	0.00e+00	0	23	0	1611661312	61	4255
2026-01-12 06:45:45.66	339.02	17.96	-47.8	-49.0	15.3	0.00e+00	0	23	0	1614807040	61	4223
2026-01-12 06:45:46.66	338.85	17.88	-47.9	-49.2	15.2	0.00e+00	0	23	0	1617952768	61	4304
2026-01-12 06:45:47.66	338.69	17.79	-48.0	-49.2	15.2	0.00e+00	0	23	0	1621098496	61	4328
2026-01-12 06:45:48.66	338.52	17.71	-48.1	-49.3	15.2	0.00e+00	0	23	0	1624244224	61	4381
2026-01-12 06:45:49.66	338.35	17.63	-48.2	-49.5	15.1	0.00e+00	0	23	0	1627389952	61	4452
2026-01-12 06:45:50.66	338.19	17.55	-48.3	-49.6	15.1	0.00e+00	0	23	0	1630535680	61	4495
2026-01-12 06:45:51.66	338.02	17.46	-48.2	-49.5	15.1	0.00e+00	0	23	0	1633681408	61	4464
2026-01-12 06:45:52.65	337.86	17.38	-48.3	-49.5	15.1	0.00e+00	0	23	0	1636827136	61	4482
2026-01-12 06:45:53.65	337.70	17.30	-48.4	-49.6	15.0	0.00e+00	0	23	0	1639972864	61	4540
2026-01-12 06:45:54.64	337.54	17.22	-48.1	-49.4	15.1	0.00e+00	0	23	0	1643118592	61	4421
2026-01-12 06:45:55.64	337.38	17.14	-48.1	-49.4	15.1	0.00e+00	0	23	0	1646264320	61	4405
2026-01-12 06:45:56.64	337.22	17.06	-48.0	-49.3	15.2	0.00e+00	0	23	0	1649410048	61	4364
2026-01-12 06:45:57.64	337.06	16.97	-47.9	-49.1	15.2	0.00e+00	0	23	0	1652555776	61	4285
2026-01-12 06:45:58.63	336.91	16.89	-47.9	-49.1	15.2	0.00e+00	0	23	0	1655701504	61	4287
2026-01-12 06:45:59.63	336.75	16.81	-48.0	-49.2	15.2	0.00e+00	0	23	0	1658847232	61	4326
2026-01-12 06:46:00.63	336.59	16.73	-48.0	-49.2	15.2	0.00e+00	0	23	0	1661992960	61	4336
2026-01-12 06:46:01.63	336.44	16.65	-48.0	-49.3	15.2	0.00e+00	0	23	0	1665138688	61	4361
2026-01-12 06:46:02.63	336.28	16.57	-48.1	-49.4	15.1	0.00e+00	0	23	0	1668284416	61	4422
2026-01-12 06:46:03.63	336.13	16.48	-48.2	-49.5	15.1	0.00e+00	0	23	0	1671430144	61	4466
2026-01-12 06:46:04.63	335.98	16.40	-48.4	-49.7	15.0	0.00e+00	0	23	0	1674575872	61	4562
2026-01-12 06:46:05.64	335.82	16.32	-48.5	-49.8	15.1	0.00e+00	0	23	0	1677721600	62	4343
2026-01-12 06:46:06.64	335.67	16.24	-48.5	-49.8	15.0	0.00e+00	0	23	0	1680867328	62	4390
2026-01-12 06:46:07.64	335.52	16.16	-48.6	-49.9	15.0	0.00e+00	0	23	0	1684013056	62	4403
2026-01-12 06:46:08.64	335.37	16.08	-48.4	-49.7	15.1	0.00e+00	0	23	0	1687158784	62	4327
2026-01-12 06:46:09.63	335.23	15.99	-48.2	-49.5	15.2	0.00e+00	0	23	0	1690304512	62	4216
2026-01-12 06:46:10.63	335.08	15.91	-48.2	-49.4	15.2	0.00e+00	0	23	0	1693450240	62	4180
2026-01-12 06:46:11.62	334.93	15.83	-48.1	-49.3	15.3	0.00e+00	0	23	0	1696595968	62	4141
2026-01-12 06:46:12.62	334.79	15.75	-48.1	-49.3	15.3	0.00e+00	0	23	0	1699741696	62	4137
2026-01-12 06:46:13.62	334.64	15.67	-48.0	-49.3	15.3	0.00e+00	0	23	0	1702887424	62	4111
2026-01-12 06:46:14.62	334.50	15.59	-48.1	-49.4	15.2	0.00e+00	0	23	0	1706033152	62	4154
2026-01-12 06:46:15.62	334.35	15.51	-48.2	-49.5	15.2	0.00e+00	0	23	0	1709178880	62	4212
2026-01-12 06:46:16.62	334.21	15.43	-48.3	-49.6	15.1	0.00e+00	0	23	0	1712324608	62	4261
2026-01-12 06:46:17.61	334.07	15.35	-48.5	-49.8	15.1	0.00e+00	0	23	0	1715470336	62	4352
2026-01-12 06:46:18.60	333.93	15.27	-48.6	-49.9	15.0	0.00e+00	0	23	0	1718616064	62	4437
2026-01-12 06:46:19.59	333.79	15.19	-48.7	-50.0	14.9	0.00e+00	0	23	0	1721761792	62	4488
2026-01-12 06:46:20.59	333.65	15.11	-48.7	-50.0	15.0	0.00e+00	0	23	0	1724907520	62	4486
2026-01-12 06:46:21.59	333.51	15.03	-48.8	-50.1	14.9	0.00e+00	0	23	0	1728053248	62	4525
2026-01-12 06:46:22.59	333.37	14.95	-48.7	-50.1	14.9	0.00e+00	0	23	0	1731198976	62	4506
2026-01-12 06:46:23.59	333.24	14.87	-48.8	-50.2	14.9	0.00e+00	0	23	0	1734344704	62	4556
2026-01-12 06:46:24.59	333.10	14.79	-48.7	-50.1	14.9	0.00e+00	0	23	0	1737490432	62	4495
2026-01-12 06:46:25.59	332.96	14.71	-48.4	-49.7	15.1	0.00e+00	0	23	0	1740636160	62	4331
2026-01-12 06:46:26.59	332.83	14.63	-48.4	-49.7	15.1	0.00e+00	0	23	0	1743781888	62	4311
2026-01-12 06:46:27.57	332.70	14.55	-48.4	-49.7	15.0	0.00e+00	0	23	0	1745879040	62	4339
2026-01-12 06:46:28.57	332.56	14.47	-48.3	-49.5	15.2	0.00e+00	0	23	0	1749024768	62	4240
2026-01-12 06:46:29.56	332.43	14.39	-48.2	-49.5	15.2	0.00e+00	0	23	0	1752170496	62	4210
2026-01-12 06:46:30.56	332.30	14.31	-48.3	-49.6	15.1	0.00e+00	0	23	0	1755316224	62	4269
2026-01-12 06:46:31.55	332.17	14.23	-48.3	-49.6	15.1	0.00e+00	0	23	0	1758461952	62	4275
2026-01-12 06:46:32.55	332.04	14.16	-48.3	-49.6	15.1	0.00e+00	0	23	0	1761607680	62	4289
2026-01-12 06:46:33.55	331.91	14.08	-48.6	-49.9	15.0	0.00e+00	0	23	0	1764753408	62	4402
2026-01-12 06:46:34.55	331.78	14.00	-48.7	-50.0	15.0	0.00e+00	0	23	0	1767899136	62	4469
2026-01-12 06:46:35.54	331.65	13.92	-48.7	-50.0	14.9	0.00e+00	0	23	0	1771044864	62	4491
2026-01-12 06:46:36.54	331.52	13.84	-48.8	-50.1	14.9	0.00e+00	0	23	0	1774190592	62	4537
2026-01-12 06:46:37.54	331.39	13.76	-48.8	-50.1	14.9	0.00e+00	0	23	0	1777336320	62	4537
2026-01-12 06:46:38.54	331.27	13.68	-48.8	-50.1	14.9	0.00e+00	0	23	0	1780482048	62	4543
2026-01-12 06:46:39.55	331.14	13.60	-48.7	-50.0	14.9	0.00e+00	0	23	0	1783627776	62	4470
2026-01-12 06:46:40.54	331.02	13.53	-48.6	-50.0	14.9	0.00e+00	0	23	0	1786773504	62	4455
2026-01-12 06:46:41.55	330.89	13.45	-48.7	-50.0	14.9	0.00e+00	0	23	0	1789919232	62	4477
2026-01-12 06:46:42.54	330.77	13.37	-48.5	-49.8	15.0	0.00e+00	0	23	0	1793064960	62	4369
2026-01-12 06:46:43.54	330.64	13.29	-48.4	-49.7	15.1	0.00e+00	0	23	0	1796210688	62	4305
2026-01-12 06:46:44.54	330.52	13.21	-48.4	-49.7	15.1	0.00e+00	0	23	0	1799356416	62	4309
2026-01-12 06:46:45.54	330.40	13.14	-48.2	-49.5	15.2	0.00e+00	0	23	0	1802502144	62	4212
2026-01-12 06:46:46.54	330.28	13.06	-48.3	-49.5	15.1	0.00e+00	0	23	0	1805647872	62	4234
2026-01-12 06:46:47.54	330.16	12.98	-48.1	-49.4	15.2	0.00e+00	0	23	0	1808793600	62	4158
2026-01-12 06:46:48.54	330.04	12.90	-48.2	-49.4	15.2	0.00e+00	0	23	0	1811939328	62	4167
2026-01-12 06:46:49.54	329.92	12.83	-48.1	-49.3	15.3	0.00e+00	0	23	0	1815085056	62	4127
2026-01-12 06:46:50.54	329.80	12.75	-48.2	-49.4	15.2	0.00e+00	0	23	0	1818230784	62	4180
2026-01-12 06:46:51.53	329.68	12.67	-48.4	-49.7	15.1	0.00e+00	0	23	0	1821376512	62	4311
2026-01-12 06:46:52.53	329.57	12.60	-48.6	-49.9	15.0	0.00e+00	0	23	0	1824522240	62	4397
2026-01-12 06:46:53.53	329.45	12.52	-48.7	-50.1	14.9	0.00e+00	0	23	0	1827667968	62	4512
2026-01-12 06:46:54.53	329.33	12.44	-48.9	-50.3	14.8	0.00e+00	0	23	0	1830813696	62	4610
2026-01-12 06:46:55.53	329.22	12.37	-49.0	-50.4	14.9	0.00e+00	0	23	0	1833959424	63	4436
2026-01-12 06:46:56.53	329.10	12.29	-49.1	-50.5	14.8	0.00e+00	0	23	0	1837105152	63	4480
2026-01-12 06:46:57.53	328.99	12.21	-49.1	-50.5	14.8	0.00e+00	0	23	0	1840250880	63	4466
2026-01-12 06:46:58.53	328.87	12.14	-49.1	-50.5	14.8	0.00e+00	0	23	0	1843396608	63	4489
2026-01-12 06:46:59.52	328.76	12.06	-49.1	-50.5	14.8	0.00e+00	0	23	0	1846542336	63	4469
2026-01-12 06:47:00.52	328.65	11.99	-49.1	-50.5	14.8	0.00e+00	0	23	0	1849688064	63	4451
2026-01-12 06:47:01.52	328.54	11.91	-48.9	-50.3	14.9	0.00e+00	0	23	0	1852833792	63	4357
2026-01-12 06:47:02.52	328.43	11.83	-48.9	-50.3	14.9	0.00e+00	0	23	0	1854930944	63	4368
2026-01-12 06:47:03.52	328.31	11.76	-48.8	-50.1	15.0	0.00e+00	0	23	0	1858076672	63	4264
2026-01-12 06:47:04.51	328.21	11.68	-48.8	-50.1	15.0	0.00e+00	0	23	0	1861222400	63	4266
2026-01-12 06:47:05.50	328.10	11.61	-48.7	-50.1	15.0	0.00e+00	0	23	0	1864368128	63	4246
2026-01-12 06:47:06.51	327.99	11.53	-48.5	-49.8	15.1	0.00e+00	0	23	0	1867513856	63	4101
2026-01-12 06:47:07.51	327.88	11.46	-48.4	-49.7	15.2	0.00e+00	0	23	0	1870659584	63	4083
2026-01-12 06:47:08.52	327.77	11.38	-48.4	-49.7	15.2	0.00e+00	0	23	0	1873805312	63	4087
2026-01-12 06:47:09.52	327.66	11.31	-48.5	-49.7	15.2	0.00e+00	0	23	0	1876951040	63	4093
2026-01-12 06:47:10.53	327.55	11.23	-48.6	-49.9	15.1	0.00e+00	0	23	0	1880096768	63	4175
2026-01-12 06:47:11.53	327.45	11.16	-48.6	-49.9	15.1	0.00e+00	0	23	0	1883242496	63	4193
2026-01-12 06:47:12.52	327.34	11.08	-48.8	-50.1	15.0	0.00e+00	0	23	0	1886388224	63	4291
2026-01-12 06:47:13.52	327.24	11.01	-49.0	-50.4	14.9	0.00e+00	0	23	0	1889533952	63	4406
2026-01-12 06:47:14.51	327.13	10.94	-49.2	-50.6	14.8	0.00e+00	0	23	0	1892679680	63	4509
2026-01-12 06:47:15.51	327.03	10.86	-49.4	-50.8	14.7	0.00e+00	0	23	0	1895825408	64	4384
2026-01-12 06:47:16.51	326.93	10.79	-49.3	-50.8	14.8	0.00e+00	0	23	0	1898971136	64	4364
2026-01-12 06:47:17.51	326.82	10.71	-49.5	-50.9	14.7	0.00e+00	0	23	0	1902116864	64	4440
2026-01-12 06:47:18.51	326.72	10.64	-49.5	-50.9	14.7	0.00e+00	0	23	0	1905262592	64	4438
2026-01-12 06:47:19.51	326.62	10.57	-49.5	-51.0	14.6	0.00e+00	0	23	0	1908408320	64	4455
2026-01-12 06:47:20.50	326.52	10.49	-49.6	-51.1	14.6	0.00e+00	0	23	0	1911554048	64	4529
2026-01-12 06:47:21.50	326.42	10.42	-49.7	-51.2	14.5	0.00e+00	0	23	0	1914699776	64	4559
2026-01-12 06:47:22.50	326.32	10.35	-49.5	-51.0	14.6	0.00e+00	0	23	0	1917845504	64	4472
2026-01-12 06:47:23.50	326.22	10.28	-49.5	-51.0	14.6	0.00e+00	0	23	0	1920991232	64	4463
2026-01-12 06:47:24.49	326.12	10.20	-49.4	-50.9	14.6	0.00e+00	0	23	0	1924136960	64	4426
2026-01-12 06:47:25.48	326.02	10.13	-49.4	-50.8	14.7	0.00e+00	0	23	0	1927282688	64	4387
2026-01-12 06:47:26.48	325.92	10.06	-49.3	-50.8	14.7	0.00e+00	0	23	0	1930428416	64	4347
2026-01-12 06:47:27.48	325.83	9.99	-49.3	-50.7	14.8	0.00e+00	0	23	0	1933574144	64	4318
2026-01-12 06:47:28.48	325.73	9.91	-49.2	-50.6	14.8	0.00e+00	0	23	0	1936719872	64	4262
2026-01-12 06:47:29.47	325.63	9.84	-49.2	-50.7	14.8	0.00e+00	0	23	0	1939865600	64	4300
2026-01-12 06:47:30.47	325.54	9.77	-49.2	-50.7	14.8	0.00e+00	0	23	0	1943011328	64	4306
2026-01-12 06:47:31.47	325.44	9.70	-49.3	-50.7	14.8	0.00e+00	0	23	0	1946157056	64	4323
2026-01-12 06:47:32.47	325.35	9.63	-49.4	-50.9	14.7	0.00e+00	0	23	0	1949302784	64	4411
2026-01-12 06:47:33.46	325.25	9.56	-49.5	-51.0	14.6	0.00e+00	0	23	0	1952448512	64	4444
2026-01-12 06:47:34.46	325.16	9.48	-49.5	-50.9	14.7	0.00e+00	0	23	0	1955594240	64	4439
2026-01-12 06:47:35.45	325.06	9.41	-49.5	-51.0	14.7	0.00e+00	0	23	0	1958739968	64	4450
2026-01-12 06:47:36.45	324.97	9.34	-49.5	-51.0	14.6	0.00e+00	0	23	0	1961885696	64	4488
2026-01-12 06:47:37.45	324.88	9.27	-49.6	-51.2	14.5	0.00e+00	0	23	0	1965031424	64	4553
2026-01-12 06:47:38.45	324.79	9.20	-49.8	-51.3	14.4	0.00e+00	0	23	0	1968177152	64	4629
2026-01-12 06:47:39.45	324.69	9.13	-49.9	-51.4	14.4	0.00e+00	0	23	0	1971322880	64	4699
2026-01-12 06:47:40.44	324.60	9.06	-49.8	-51.4	14.4	0.00e+00	0	23	0	1974468608	64	4692
2026-01-12 06:47:41.43	324.51	8.99	-49.9	-51.5	14.3	0.00e+00	0	23	0	1976565760	64	4734
2026-01-12 06:47:42.42	324.42	8.92	-50.1	-51.7	14.4	0.00e+00	0	23	0	1979711488	65	4549
2026-01-12 06:47:43.41	324.33	8.85	-50.0	-51.6	14.4	0.00e+00	0	23	0	1982857216	65	4540
2026-01-12 06:47:44.40	324.25	8.78	-50.0	-51.7	14.4	0.00e+00	0	23	0	1986002944	65	4553
2026-01-12 06:47:45.41	324.16	8.71	-50.2	-51.8	14.3	0.00e+00	0	23	0	1989148672	65	4621
2026-01-12 06:47:46.40	324.07	8.64	-50.3	-51.9	14.2	0.00e+00	0	23	0	1992294400	65	4690
2026-01-12 06:47:47.41	323.98	8.57	-50.3	-52.0	14.2	0.00e+00	0	23	0	1995440128	65	4738
2026-01-12 06:47:48.41	323.89	8.50	-50.2	-51.8	14.2	0.00e+00	0	23	0	1998585856	65	4644
2026-01-12 06:47:49.41	323.80	8.43	-50.2	-51.8	14.3	0.00e+00	0	23	0	2001731584	65	4642
2026-01-12 06:47:50.41	323.72	8.36	-50.2	-51.8	14.2	0.00e+00	0	23	0	2004877312	65	4637
2026-01-12 06:47:51.39	323.63	8.29	-50.2	-51.9	14.2	0.00e+00	0	23	0	2008023040	65	4674
2026-01-12 06:47:52.39	323.54	8.22	-50.1	-51.7	14.3	0.00e+00	0	23	0	2011168768	65	4564
2026-01-12 06:47:53.39	323.46	8.15	-50.1	-51.8	14.3	0.00e+00	0	23	0	2014314496	65	4608
2026-01-12 06:47:54.39	323.37	8.08	-50.0	-51.6	14.4	0.00e+00	0	23	0	2017460224	65	4544
