passes_logs/2026/01/12/R3.2S_Murmansk/R3.2S_Murmansk__20260112_112424_FENGYUN_3D_rec.log

#Pass ID: 20260112_112424_FENGYUN 3D
#Satellite: FENGYUN 3D
#Configuration: FENGYUN 3D
#almurnet v.1.7.20251203
#Start time: 2026-01-12 11:24:26

#Version: 2.2.20231116
#Station: R3.2S_Murmansk
#Location: 33.079688 lon 68.888172 lat
#TLE: 1 43010U 17072A   26011.62066612  .00000104  00000+0  70810-4 0  9998
#TLE: 2 43010  98.9935 343.3846 0002223 114.2890 245.8518 14.19694405422776

#Time	Az	El	Level	Level2	SNR	BER	BlckErr	Temp	State	Recorded	gain1	gain2
2026-01-12 11:24:26.31	147.95	2.12	-56.8	-69.8	3.8	8.46e-01	0	21	0	0	80	15465
2026-01-12 11:24:27.30	147.95	2.18	-56.8	-69.7	3.8	8.46e-01	0	21	104	0	78	17264
2026-01-12 11:24:28.30	147.95	2.25	-56.8	-69.7	3.8	8.45e-01	0	21	104	0	78	17269
2026-01-12 11:24:29.30	147.95	2.31	-56.8	-69.7	3.8	8.45e-01	0	21	104	0	78	17237
2026-01-12 11:24:30.28	147.95	2.38	-56.8	-69.8	3.8	8.46e-01	0	21	104	0	78	17286
2026-01-12 11:24:31.27	147.95	2.44	-56.8	-69.7	3.8	8.45e-01	0	21	104	0	78	17210
2026-01-12 11:24:32.27	147.95	2.51	-56.8	-69.7	3.8	8.46e-01	0	21	104	0	78	17233
2026-01-12 11:24:33.26	147.95	2.57	-56.8	-69.7	3.8	8.46e-01	0	21	104	0	78	17215
2026-01-12 11:24:34.25	147.95	2.64	-56.8	-69.7	3.8	8.45e-01	0	21	104	0	78	17211
2026-01-12 11:24:35.25	147.95	2.70	-56.8	-69.7	3.8	8.45e-01	0	21	104	0	78	17178
2026-01-12 11:24:36.24	147.95	2.77	-56.8	-69.8	3.8	8.47e-01	0	21	104	0	78	17292
2026-01-12 11:24:37.23	147.95	2.83	-56.8	-69.7	3.8	8.45e-01	0	21	104	0	78	17258
2026-01-12 11:24:38.23	147.94	2.90	-56.8	-69.7	3.8	8.45e-01	0	21	104	0	78	17279
2026-01-12 11:24:39.23	147.94	2.97	-56.8	-69.8	3.8	8.45e-01	0	21	104	0	78	17344
2026-01-12 11:24:40.23	147.94	3.03	-56.8	-69.8	3.8	8.45e-01	0	22	104	0	78	17297
2026-01-12 11:24:41.21	147.94	3.10	-56.8	-69.7	3.8	8.45e-01	0	21	104	0	78	17281
2026-01-12 11:24:42.21	147.94	3.16	-56.8	-69.7	3.8	8.45e-01	0	21	104	0	78	17190
2026-01-12 11:24:43.20	147.94	3.23	-56.8	-69.6	3.8	8.46e-01	0	21	104	0	78	17045
2026-01-12 11:24:44.19	147.94	3.30	-56.8	-69.6	3.8	8.46e-01	0	22	104	0	78	17018
2026-01-12 11:24:45.19	147.94	3.36	-56.8	-69.5	3.8	8.47e-01	0	21	104	0	78	16776
2026-01-12 11:24:46.18	147.94	3.43	-56.7	-69.0	3.8	8.46e-01	0	22	104	0	78	15888
2026-01-12 11:24:47.17	147.94	3.50	-56.7	-68.7	3.8	8.45e-01	0	22	104	0	78	15300
2026-01-12 11:24:48.17	147.94	3.57	-56.7	-68.4	3.8	8.45e-01	0	21	104	0	78	14771
2026-01-12 11:24:49.16	147.94	3.63	-56.6	-67.3	3.8	8.45e-01	0	22	104	0	78	13056
2026-01-12 11:24:50.15	147.94	3.70	-56.5	-66.8	3.9	8.43e-01	0	22	104	0	78	12321
2026-01-12 11:24:51.15	147.93	3.77	-56.5	-66.6	3.9	8.42e-01	0	21	104	0	78	11999
2026-01-12 11:24:52.15	147.93	3.84	-56.3	-64.5	4.8	8.23e-01	0	22	0	0	78	9418
2026-01-12 11:24:53.15	147.93	3.91	-55.9	-62.9	5.7	7.45e-01	0	22	0	0	78	7881
2026-01-12 11:24:54.14	147.93	3.97	-55.9	-62.9	5.7	7.30e-01	0	22	0	2097152	78	7846
2026-01-12 11:24:55.13	147.93	4.04	-55.7	-62.0	6.3	2.34e-01	0	22	0	8388608	77	7541
2026-01-12 11:24:56.12	147.93	4.11	-55.2	-60.6	7.5	5.65e-02	0	22	0	13631488	76	6739
2026-01-12 11:24:57.12	147.93	4.18	-54.5	-58.9	9.0	2.85e-02	0	22	0	18874368	75	5860
2026-01-12 11:24:58.11	147.93	4.25	-54.0	-57.8	9.9	1.11e-02	0	22	0	25165824	74	5520
2026-01-12 11:24:59.10	147.93	4.32	-53.4	-56.8	10.8	1.11e-03	0	22	0	30408704	73	5190
2026-01-12 11:25:00.09	147.93	4.39	-52.6	-55.5	11.7	1.37e-04	0	22	0	35651584	71	4986
2026-01-12 11:25:01.09	147.92	4.46	-51.5	-53.9	12.8	1.02e-05	0	22	0	41943040	69	4680
2026-01-12 11:25:02.08	147.92	4.53	-51.5	-53.8	12.9	3.40e-06	0	22	0	47185920	69	4622
2026-01-12 11:25:03.08	147.92	4.60	-50.1	-52.0	13.8	0.00e+00	0	22	0	52428800	66	4475
2026-01-12 11:25:04.08	147.92	4.67	-50.1	-52.1	13.7	0.00e+00	0	22	0	58720256	66	4513
2026-01-12 11:25:05.08	147.92	4.74	-49.5	-51.3	14.1	0.00e+00	0	22	0	63963136	65	4380
2026-01-12 11:25:06.08	147.92	4.81	-50.1	-52.1	13.5	0.00e+00	0	22	0	69206016	65	4795
2026-01-12 11:25:07.07	147.92	4.88	-50.0	-52.0	13.6	0.00e+00	0	22	0	75497472	65	4708
2026-01-12 11:25:08.07	147.92	4.95	-50.5	-52.7	13.3	0.00e+00	0	22	0	80740352	66	4820
2026-01-12 11:25:09.07	147.91	5.02	-50.9	-53.1	13.1	0.00e+00	0	22	0	87031808	67	4773
2026-01-12 11:25:10.06	147.91	5.10	-56.6	-65.7	4.4	8.07e-01	0	22	0	90177536	78	10893
2026-01-12 11:25:11.06	147.91	5.17	-55.2	-60.2	8.0	1.34e-01	0	22	0	93323264	77	6112
2026-01-12 11:25:12.05	147.91	5.24	-49.4	-51.2	14.2	0.00e+00	0	22	0	99614720	65	4317
2026-01-12 11:25:13.04	147.91	5.31	-51.3	-53.6	12.9	0.00e+00	0	22	0	104857600	67	5064
2026-01-12 11:25:14.04	147.91	5.38	-54.7	-60.0	7.6	9.83e-04	0	22	0	110100480	74	7075
2026-01-12 11:25:15.03	147.91	5.46	-48.9	-50.6	14.5	0.00e+00	0	22	0	116391936	64	4276
2026-01-12 11:25:16.03	147.90	5.53	-49.2	-50.9	14.3	0.00e+00	0	22	0	121634816	64	4418
2026-01-12 11:25:17.02	147.90	5.60	-49.0	-50.8	14.5	0.00e+00	0	22	0	126877696	64	4343
2026-01-12 11:25:18.01	147.90	5.67	-49.0	-50.7	14.5	0.00e+00	0	22	0	133169152	64	4303
2026-01-12 11:25:19.01	147.90	5.75	-49.1	-50.8	14.4	0.00e+00	0	22	0	138412032	64	4376
2026-01-12 11:25:20.00	147.90	5.82	-49.0	-50.7	14.5	0.00e+00	0	22	0	143654912	64	4323
2026-01-12 11:25:20.99	147.90	5.89	-49.2	-50.9	14.3	0.00e+00	0	22	0	149946368	64	4433
2026-01-12 11:25:21.98	147.90	5.97	-49.2	-51.0	14.3	0.00e+00	0	22	0	155189248	64	4444
2026-01-12 11:25:22.98	147.89	6.04	-48.9	-50.6	14.6	0.00e+00	0	22	0	160432128	64	4257
2026-01-12 11:25:23.97	147.89	6.12	-48.8	-50.5	14.7	0.00e+00	0	22	0	166723584	64	4222
2026-01-12 11:25:24.96	147.89	6.19	-48.9	-50.6	14.6	0.00e+00	0	22	0	171966464	64	4249
2026-01-12 11:25:25.96	147.89	6.26	-48.8	-50.4	14.7	0.00e+00	0	22	0	177209344	64	4164
2026-01-12 11:25:26.94	147.89	6.34	-49.1	-50.8	14.5	0.00e+00	0	22	0	183500800	64	4370
2026-01-12 11:25:27.93	147.89	6.41	-48.8	-50.5	14.7	0.00e+00	0	22	0	188743680	64	4198
2026-01-12 11:25:28.93	147.88	6.49	-48.9	-50.5	14.7	0.00e+00	0	22	0	193986560	64	4219
2026-01-12 11:25:29.93	147.88	6.57	-49.0	-50.7	14.5	0.00e+00	0	22	0	200278016	64	4315
2026-01-12 11:25:30.92	147.88	6.64	-49.1	-50.7	14.5	0.00e+00	0	22	0	205520896	64	4329
2026-01-12 11:25:31.91	147.88	6.72	-49.0	-50.6	14.6	0.00e+00	0	22	0	210763776	64	4285
2026-01-12 11:25:32.91	147.88	6.79	-48.9	-50.5	14.7	0.00e+00	0	22	0	217055232	64	4208
2026-01-12 11:25:33.90	147.87	6.87	-49.0	-50.6	14.6	0.00e+00	0	22	0	222298112	64	4282
2026-01-12 11:25:34.91	147.87	6.95	-49.0	-50.6	14.7	0.00e+00	0	22	0	227540992	64	4257
2026-01-12 11:25:35.90	147.87	7.02	-48.8	-50.4	14.8	0.00e+00	0	22	0	233832448	64	4146
2026-01-12 11:25:36.89	147.87	7.10	-48.7	-50.3	14.8	0.00e+00	0	22	0	239075328	64	4141
2026-01-12 11:25:37.88	147.87	7.18	-48.8	-50.4	14.8	0.00e+00	0	22	0	244318208	64	4184
2026-01-12 11:25:38.88	147.86	7.26	-48.6	-50.2	14.8	0.00e+00	0	22	0	250609664	63	4300
2026-01-12 11:25:39.88	147.86	7.33	-48.4	-50.0	14.9	0.00e+00	0	22	0	255852544	63	4220
2026-01-12 11:25:40.87	147.86	7.41	-48.5	-50.0	14.8	0.00e+00	0	22	0	261095424	63	4239
2026-01-12 11:25:41.87	147.86	7.49	-48.5	-50.0	14.8	0.00e+00	0	22	0	267386880	63	4236
2026-01-12 11:25:42.86	147.86	7.57	-48.5	-50.0	14.9	0.00e+00	0	22	0	272629760	63	4234
2026-01-12 11:25:43.86	147.85	7.65	-48.6	-50.1	14.8	0.00e+00	0	22	0	277872640	63	4286
2026-01-12 11:25:44.86	147.85	7.73	-48.4	-49.9	14.9	0.00e+00	0	22	0	284164096	63	4192
2026-01-12 11:25:45.86	147.85	7.81	-48.3	-49.8	15.0	0.00e+00	0	22	0	289406976	63	4128
2026-01-12 11:25:46.85	147.85	7.89	-48.4	-49.9	15.0	0.00e+00	0	22	0	294649856	63	4156
2026-01-12 11:25:47.85	147.84	7.97	-48.3	-49.8	15.0	0.00e+00	0	22	0	300941312	63	4137
2026-01-12 11:25:48.84	147.84	8.05	-48.3	-49.9	15.0	0.00e+00	0	22	0	306184192	63	4148
2026-01-12 11:25:49.84	147.84	8.13	-48.4	-50.0	14.9	0.00e+00	0	22	0	311427072	63	4197
2026-01-12 11:25:50.84	147.84	8.21	-48.3	-49.8	15.0	0.00e+00	0	22	0	317718528	63	4125
2026-01-12 11:25:51.83	147.83	8.29	-48.3	-49.8	15.0	0.00e+00	0	22	0	322961408	63	4126
2026-01-12 11:25:52.82	147.83	8.37	-48.3	-49.9	15.0	0.00e+00	0	22	0	329252864	63	4153
2026-01-12 11:25:53.82	147.83	8.45	-48.1	-49.6	15.0	0.00e+00	0	22	0	334495744	62	4272
2026-01-12 11:25:54.81	147.83	8.53	-48.2	-49.7	15.0	0.00e+00	0	22	0	339738624	62	4293
2026-01-12 11:25:55.81	147.82	8.61	-48.0	-49.5	15.1	0.00e+00	0	22	0	346030080	62	4198
2026-01-12 11:25:56.81	147.82	8.70	-48.0	-49.4	15.1	0.00e+00	0	22	0	351272960	62	4181
2026-01-12 11:25:57.81	147.82	8.78	-48.1	-49.6	15.0	0.00e+00	0	22	0	356515840	62	4250
2026-01-12 11:25:58.80	147.82	8.86	-47.9	-49.4	15.1	0.00e+00	0	22	0	361758720	62	4152
2026-01-12 11:25:59.80	147.81	8.95	-47.9	-49.3	15.2	0.00e+00	0	22	0	368050176	62	4130
2026-01-12 11:26:00.78	147.81	9.03	-47.9	-49.4	15.2	0.00e+00	0	22	0	373293056	62	4164
2026-01-12 11:26:01.77	147.81	9.11	-47.8	-49.2	15.2	0.00e+00	0	22	0	379584512	62	4088
2026-01-12 11:26:02.76	147.81	9.19	-47.8	-49.3	15.2	0.00e+00	0	22	0	384827392	62	4117
2026-01-12 11:26:03.76	147.80	9.28	-47.8	-49.3	15.2	0.00e+00	0	22	0	390070272	62	4105
2026-01-12 11:26:04.76	147.80	9.36	-47.8	-49.3	15.2	0.00e+00	0	22	0	395313152	62	4110
2026-01-12 11:26:05.75	147.80	9.45	-47.7	-49.1	15.3	0.00e+00	0	22	0	401604608	62	4035
2026-01-12 11:26:06.75	147.79	9.53	-47.6	-49.1	15.1	0.00e+00	0	22	0	406847488	61	4263
2026-01-12 11:26:07.74	147.79	9.62	-47.7	-49.1	15.1	0.00e+00	0	22	0	412090368	61	4279
2026-01-12 11:26:08.73	147.79	9.70	-47.5	-49.0	15.2	0.00e+00	0	22	0	418381824	61	4198
2026-01-12 11:26:09.72	147.79	9.79	-47.6	-49.1	15.1	0.00e+00	0	22	0	423624704	61	4262
2026-01-12 11:26:10.71	147.78	9.87	-47.5	-49.0	15.2	0.00e+00	0	22	0	429916160	61	4194
2026-01-12 11:26:11.70	147.78	9.96	-47.7	-49.1	15.1	0.00e+00	0	22	0	435159040	61	4266
2026-01-12 11:26:12.69	147.78	10.05	-47.5	-48.9	15.3	0.00e+00	0	22	0	440401920	61	4163
2026-01-12 11:26:13.69	147.77	10.13	-47.5	-48.9	15.3	0.00e+00	0	22	0	445644800	61	4154
2026-01-12 11:26:14.68	147.77	10.22	-47.5	-48.9	15.3	0.00e+00	0	22	0	451936256	61	4163
2026-01-12 11:26:15.67	147.77	10.31	-47.5	-48.9	15.3	0.00e+00	0	22	0	457179136	61	4171
2026-01-12 11:26:16.67	147.76	10.40	-47.5	-49.0	15.2	0.00e+00	0	22	0	462422016	61	4197
2026-01-12 11:26:17.66	147.76	10.48	-47.5	-48.9	15.3	0.00e+00	0	22	0	468713472	61	4152
2026-01-12 11:26:18.65	147.76	10.57	-47.4	-48.8	15.3	0.00e+00	0	22	0	473956352	61	4103
2026-01-12 11:26:19.65	147.75	10.66	-47.5	-49.0	15.2	0.00e+00	0	22	0	479199232	61	4202
2026-01-12 11:26:20.64	147.75	10.75	-47.3	-48.7	15.4	0.00e+00	0	23	0	485490688	61	4068
2026-01-12 11:26:21.63	147.75	10.84	-47.4	-48.8	15.3	0.00e+00	0	22	0	490733568	61	4121
2026-01-12 11:26:22.63	147.74	10.93	-47.3	-48.7	15.4	0.00e+00	0	22	0	495976448	61	4081
2026-01-12 11:26:23.62	147.74	11.02	-47.3	-48.7	15.4	0.00e+00	0	22	0	502267904	61	4076
2026-01-12 11:26:24.61	147.73	11.11	-47.3	-48.7	15.4	0.00e+00	0	23	0	507510784	61	4092
2026-01-12 11:26:25.61	147.73	11.20	-47.2	-48.6	15.4	0.00e+00	0	22	0	512753664	61	4039
2026-01-12 11:26:26.60	147.73	11.29	-47.3	-48.7	15.4	0.00e+00	0	22	0	519045120	61	4086
2026-01-12 11:26:27.59	147.72	11.38	-47.3	-48.7	15.4	0.00e+00	0	22	0	524288000	61	4091
2026-01-12 11:26:28.58	147.72	11.47	-47.3	-48.7	15.4	0.00e+00	0	22	0	529530880	61	4063
2026-01-12 11:26:29.57	147.72	11.57	-47.3	-48.7	15.4	0.00e+00	0	22	0	535822336	61	4092
2026-01-12 11:26:30.57	147.71	11.66	-47.5	-48.9	15.3	0.00e+00	0	22	0	541065216	61	4188
2026-01-12 11:26:31.56	147.71	11.75	-47.3	-48.7	15.4	0.00e+00	0	22	0	546308096	61	4068
2026-01-12 11:26:32.56	147.70	11.85	-47.2	-48.6	15.4	0.00e+00	0	23	0	552599552	61	4025
2026-01-12 11:26:33.56	147.70	11.94	-47.1	-48.5	15.3	0.00e+00	0	22	0	557842432	60	4203
2026-01-12 11:26:34.56	147.69	12.03	-47.1	-48.5	15.3	0.00e+00	0	22	0	563085312	60	4225
2026-01-12 11:26:35.55	147.69	12.13	-47.2	-48.6	15.3	0.00e+00	0	22	0	569376768	60	4271
2026-01-12 11:26:36.55	147.69	12.22	-47.1	-48.5	15.3	0.00e+00	0	22	0	574619648	60	4217
2026-01-12 11:26:37.54	147.68	12.32	-47.1	-48.5	15.3	0.00e+00	0	22	0	579862528	60	4220
2026-01-12 11:26:38.54	147.68	12.41	-46.9	-48.3	15.4	0.00e+00	0	22	0	586153984	60	4122
2026-01-12 11:26:39.54	147.67	12.51	-47.0	-48.4	15.4	0.00e+00	0	23	0	591396864	60	4147
2026-01-12 11:26:40.53	147.67	12.61	-47.0	-48.4	15.4	0.00e+00	0	22	0	596639744	60	4164
2026-01-12 11:26:41.52	147.66	12.70	-46.9	-48.3	15.4	0.00e+00	0	23	0	602931200	60	4117
2026-01-12 11:26:42.52	147.66	12.80	-46.9	-48.2	15.5	0.00e+00	0	22	0	608174080	60	4076
2026-01-12 11:26:43.51	147.66	12.90	-46.9	-48.3	15.4	0.00e+00	0	22	0	613416960	60	4104
2026-01-12 11:26:44.50	147.65	13.00	-46.8	-48.1	15.5	0.00e+00	0	22	0	619708416	60	4032
2026-01-12 11:26:45.50	147.65	13.09	-46.7	-48.0	15.6	0.00e+00	0	23	0	624951296	60	3994
2026-01-12 11:26:46.49	147.64	13.19	-47.0	-48.4	15.3	0.00e+00	0	23	0	630194176	59	4402
2026-01-12 11:26:47.48	147.64	13.29	-46.9	-48.3	15.3	0.00e+00	0	22	0	636485632	59	4374
2026-01-12 11:26:48.47	147.63	13.39	-47.0	-48.4	15.3	0.00e+00	0	23	0	641728512	59	4410
2026-01-12 11:26:49.47	147.63	13.49	-47.0	-48.4	15.2	0.00e+00	0	22	0	646971392	59	4418
2026-01-12 11:26:50.47	147.62	13.59	-46.9	-48.3	15.3	0.00e+00	0	23	0	653262848	59	4363
2026-01-12 11:26:51.47	147.62	13.69	-47.0	-48.3	15.3	0.00e+00	0	23	0	658505728	59	4391
2026-01-12 11:26:52.46	147.61	13.79	-46.9	-48.2	15.3	0.00e+00	0	22	0	663748608	59	4321
2026-01-12 11:26:53.45	147.61	13.89	-46.7	-48.1	15.4	0.00e+00	0	22	0	670040064	59	4259
2026-01-12 11:26:54.43	147.60	13.99	-46.6	-47.9	15.5	0.00e+00	0	22	0	675282944	59	4193
2026-01-12 11:26:55.43	147.60	14.10	-46.7	-48.0	15.4	0.00e+00	0	23	0	680525824	59	4242
2026-01-12 11:26:56.42	147.59	14.20	-46.7	-48.0	15.5	0.00e+00	0	23	0	686817280	59	4218
2026-01-12 11:26:57.42	147.59	14.30	-46.6	-47.9	15.5	0.00e+00	0	23	0	692060160	59	4160
2026-01-12 11:26:58.42	147.58	14.41	-46.6	-48.0	15.5	0.00e+00	0	22	0	697303040	59	4205
2026-01-12 11:26:59.41	147.57	14.51	-46.5	-47.9	15.5	0.00e+00	0	23	0	703594496	59	4155
2026-01-12 11:27:00.41	147.57	14.62	-46.5	-47.8	15.6	0.00e+00	0	23	0	708837376	59	4131
2026-01-12 11:27:01.41	147.56	14.72	-46.4	-47.7	15.6	0.00e+00	0	23	0	715128832	59	4083
2026-01-12 11:27:02.40	147.56	14.83	-46.4	-47.7	15.6	0.00e+00	0	22	0	720371712	59	4072
2026-01-12 11:27:03.40	147.55	14.93	-46.4	-47.7	15.6	0.00e+00	0	22	0	725614592	59	4089
2026-01-12 11:27:04.39	147.55	15.04	-46.4	-47.7	15.6	0.00e+00	0	23	0	730857472	59	4095
2026-01-12 11:27:05.38	147.54	15.14	-46.3	-47.6	15.7	0.00e+00	0	23	0	737148928	59	4037
2026-01-12 11:27:06.38	147.53	15.25	-46.3	-47.6	15.7	0.00e+00	0	22	0	742391808	59	4042
2026-01-12 11:27:07.38	147.53	15.36	-46.3	-47.6	15.7	0.00e+00	0	22	0	747634688	59	4046
2026-01-12 11:27:08.37	147.52	15.47	-46.3	-47.6	15.7	0.00e+00	0	23	0	753926144	59	4038
2026-01-12 11:27:09.36	147.52	15.58	-46.3	-47.6	15.7	0.00e+00	0	22	0	759169024	59	4041
2026-01-12 11:27:10.35	147.51	15.69	-46.3	-47.6	15.7	0.00e+00	0	22	0	764411904	59	4031
2026-01-12 11:27:11.34	147.50	15.79	-46.3	-47.6	15.7	0.00e+00	0	23	0	770703360	59	4032
2026-01-12 11:27:12.33	147.50	15.90	-46.3	-47.6	15.7	0.00e+00	0	23	0	775946240	59	4049
2026-01-12 11:27:13.32	147.49	16.01	-46.4	-47.7	15.6	0.00e+00	0	22	0	781189120	59	4076
2026-01-12 11:27:14.32	147.48	16.13	-46.2	-47.5	15.7	0.00e+00	0	22	0	787480576	59	3989
2026-01-12 11:27:15.32	147.48	16.24	-46.1	-47.4	15.6	0.00e+00	0	22	0	792723456	58	4146
2026-01-12 11:27:16.30	147.47	16.35	-46.1	-47.4	15.6	0.00e+00	0	22	0	797966336	58	4174
2026-01-12 11:27:17.29	147.46	16.46	-46.2	-47.5	15.5	0.00e+00	0	23	0	804257792	58	4221
2026-01-12 11:27:18.29	147.46	16.58	-46.2	-47.5	15.5	0.00e+00	0	23	0	809500672	58	4236
2026-01-12 11:27:19.27	147.45	16.69	-46.1	-47.4	15.6	0.00e+00	0	23	0	814743552	58	4174
2026-01-12 11:27:20.26	147.44	16.80	-46.1	-47.4	15.6	0.00e+00	0	23	0	821035008	58	4167
2026-01-12 11:27:21.26	147.44	16.92	-46.0	-47.2	15.7	0.00e+00	0	23	0	826277888	58	4093
2026-01-12 11:27:22.25	147.43	17.03	-45.9	-47.1	15.7	0.00e+00	0	23	0	831520768	58	4044
2026-01-12 11:27:23.25	147.42	17.15	-45.8	-47.1	15.7	0.00e+00	0	23	0	836763648	58	4037
2026-01-12 11:27:24.25	147.41	17.27	-45.8	-47.1	15.7	0.00e+00	0	23	0	843055104	58	4035
2026-01-12 11:27:25.25	147.41	17.38	-45.9	-47.1	15.7	0.00e+00	0	23	0	848297984	58	4050
2026-01-12 11:27:26.24	147.40	17.50	-45.8	-47.1	15.8	0.00e+00	0	22	0	854589440	58	4012
2026-01-12 11:27:27.24	147.39	17.62	-45.9	-47.1	15.7	0.00e+00	0	23	0	859832320	58	4043
2026-01-12 11:27:28.24	147.38	17.74	-45.7	-47.0	15.8	0.00e+00	0	23	0	865075200	58	3974
2026-01-12 11:27:29.23	147.38	17.86	-45.7	-46.9	15.8	0.00e+00	0	22	0	871366656	58	3952
2026-01-12 11:27:30.23	147.37	17.98	-45.7	-47.0	15.6	0.00e+00	0	23	0	876609536	57	4198
2026-01-12 11:27:31.22	147.36	18.10	-45.5	-46.7	15.8	0.00e+00	0	23	0	881852416	57	4089
2026-01-12 11:27:32.22	147.35	18.22	-45.5	-46.7	15.8	0.00e+00	0	23	0	888143872	57	4089
2026-01-12 11:27:33.21	147.34	18.34	-45.4	-46.6	15.8	0.00e+00	0	23	0	893386752	57	4029
2026-01-12 11:27:34.20	147.34	18.46	-45.3	-46.5	15.8	0.00e+00	0	23	0	898629632	57	3997
2026-01-12 11:27:35.20	147.33	18.59	-45.2	-46.5	15.9	0.00e+00	0	23	0	904921088	57	3959
2026-01-12 11:27:36.20	147.32	18.71	-45.2	-46.4	15.9	0.00e+00	0	23	0	910163968	57	3957
2026-01-12 11:27:37.19	147.31	18.83	-45.1	-46.3	15.7	0.00e+00	0	23	0	915406848	56	4144
2026-01-12 11:27:38.18	147.30	18.96	-45.1	-46.3	15.7	0.00e+00	0	23	0	921698304	56	4134
2026-01-12 11:27:39.17	147.29	19.08	-45.1	-46.4	15.7	0.00e+00	0	23	0	926941184	56	4157
2026-01-12 11:27:40.17	147.29	19.21	-45.2	-46.4	15.7	0.00e+00	0	23	0	932184064	56	4193
2026-01-12 11:27:41.17	147.28	19.34	-45.1	-46.4	15.7	0.00e+00	0	23	0	938475520	56	4152
2026-01-12 11:27:42.16	147.27	19.46	-45.2	-46.4	15.7	0.00e+00	0	23	0	943718400	56	4164
2026-01-12 11:27:43.15	147.26	19.59	-45.2	-46.4	15.7	0.00e+00	0	23	0	948961280	56	4188
2026-01-12 11:27:44.15	147.25	19.72	-45.2	-46.5	15.7	0.00e+00	0	23	0	955252736	56	4204
2026-01-12 11:27:45.14	147.24	19.85	-45.3	-46.6	15.6	0.00e+00	0	23	0	960495616	56	4249
2026-01-12 11:27:46.13	147.23	19.98	-45.3	-46.6	15.6	0.00e+00	0	23	0	965738496	56	4259
2026-01-12 11:27:47.12	147.22	20.11	-45.4	-46.6	15.6	0.00e+00	0	23	0	972029952	56	4271
2026-01-12 11:27:48.12	147.21	20.24	-45.3	-46.6	15.6	0.00e+00	0	23	0	977272832	56	4270
2026-01-12 11:27:49.11	147.20	20.37	-45.3	-46.6	15.6	0.00e+00	0	23	0	982515712	56	4274
2026-01-12 11:27:50.11	147.19	20.50	-45.5	-46.8	15.5	0.00e+00	0	23	0	988807168	56	4359
2026-01-12 11:27:51.11	147.18	20.64	-45.4	-46.7	15.6	0.00e+00	0	23	0	994050048	56	4325
2026-01-12 11:27:52.10	147.17	20.77	-45.3	-46.6	15.6	0.00e+00	0	23	0	999292928	56	4260
2026-01-12 11:27:53.09	147.16	20.91	-45.4	-46.7	15.6	0.00e+00	0	23	0	1005584384	56	4293
2026-01-12 11:27:54.08	147.15	21.04	-45.3	-46.6	15.6	0.00e+00	0	23	0	1010827264	56	4250
2026-01-12 11:27:55.08	147.14	21.18	-45.4	-46.6	15.6	0.00e+00	0	23	0	1016070144	56	4286
2026-01-12 11:27:56.09	147.13	21.32	-45.4	-46.6	15.6	0.00e+00	0	23	0	1022361600	56	4291
2026-01-12 11:27:57.08	147.12	21.46	-45.2	-46.5	15.7	0.00e+00	0	23	0	1027604480	56	4227
2026-01-12 11:27:58.07	147.11	21.59	-45.2	-46.4	15.7	0.00e+00	0	23	0	1032847360	56	4182
2026-01-12 11:27:59.07	147.10	21.73	-45.2	-46.5	15.7	0.00e+00	0	23	0	1039138816	56	4205
2026-01-12 11:28:00.07	147.09	21.87	-45.2	-46.4	15.7	0.00e+00	0	23	0	1044381696	56	4191
2026-01-12 11:28:01.05	147.08	22.01	-45.0	-46.3	15.8	0.00e+00	0	23	0	1049624576	56	4123
2026-01-12 11:28:02.05	147.06	22.16	-45.1	-46.4	15.7	0.00e+00	0	23	0	1055916032	56	4161
2026-01-12 11:28:03.05	147.05	22.30	-45.0	-46.3	15.8	0.00e+00	0	23	0	1061158912	56	4114
2026-01-12 11:28:04.05	147.04	22.44	-45.0	-46.3	15.7	0.00e+00	0	23	0	1066401792	56	4116
2026-01-12 11:28:05.04	147.03	22.59	-45.1	-46.4	15.7	0.00e+00	0	23	0	1072693248	56	4154
2026-01-12 11:28:06.03	147.02	22.73	-45.0	-46.2	15.8	0.00e+00	0	23	0	1077936128	56	4079
2026-01-12 11:28:07.03	147.00	22.88	-44.9	-46.2	15.8	0.00e+00	0	23	0	1083179008	56	4061
2026-01-12 11:28:08.02	146.99	23.02	-44.9	-46.1	15.8	0.00e+00	0	23	0	1089470464	56	4045
2026-01-12 11:28:09.02	146.98	23.17	-44.9	-46.2	15.9	0.00e+00	0	23	0	1094713344	56	4054
2026-01-12 11:28:10.02	146.97	23.32	-44.9	-46.2	15.8	0.00e+00	0	23	0	1101004800	56	4062
2026-01-12 11:28:11.02	146.95	23.47	-44.9	-46.1	15.9	0.00e+00	0	23	0	1106247680	56	4029
2026-01-12 11:28:12.01	146.94	23.62	-45.0	-46.2	15.8	0.00e+00	0	23	0	1111490560	56	4074
2026-01-12 11:28:13.00	146.93	23.77	-44.8	-46.0	15.9	0.00e+00	0	23	0	1116733440	56	4000
2026-01-12 11:28:14.00	146.92	23.92	-44.7	-45.9	16.0	0.00e+00	0	23	0	1123024896	56	3929
2026-01-12 11:28:14.99	146.90	24.07	-44.8	-46.0	15.9	0.00e+00	0	23	0	1128267776	56	3967
2026-01-12 11:28:15.99	146.89	24.23	-44.8	-46.0	15.9	0.00e+00	0	23	0	1133510656	56	3986
2026-01-12 11:28:16.98	146.88	24.38	-44.7	-45.9	15.9	0.00e+00	0	23	0	1139802112	56	3954
2026-01-12 11:28:17.95	146.86	24.53	-44.7	-45.9	16.0	0.00e+00	0	23	0	1145044992	56	3942
2026-01-12 11:28:18.95	146.85	24.69	-44.7	-45.9	16.0	0.00e+00	0	23	0	1150287872	56	3936
2026-01-12 11:28:19.94	146.83	24.85	-44.7	-45.9	15.9	0.00e+00	0	23	0	1156579328	56	3955
2026-01-12 11:28:20.94	146.82	25.00	-44.7	-45.9	16.0	0.00e+00	0	23	0	1161822208	56	3930
2026-01-12 11:28:21.94	146.81	25.16	-44.5	-45.8	15.8	0.00e+00	0	23	0	1167065088	55	4100
2026-01-12 11:28:22.93	146.79	25.32	-44.5	-45.7	15.8	0.00e+00	0	23	0	1173356544	55	4097
2026-01-12 11:28:23.92	146.78	25.48	-44.5	-45.7	15.9	0.00e+00	0	23	0	1178599424	55	4084
2026-01-12 11:28:24.92	146.76	25.65	-44.5	-45.7	15.9	0.00e+00	0	23	0	1183842304	55	4083
2026-01-12 11:28:25.91	146.75	25.81	-44.5	-45.7	15.9	0.00e+00	0	23	0	1190133760	55	4063
2026-01-12 11:28:26.90	146.73	25.97	-44.5	-45.7	15.9	0.00e+00	0	23	0	1195376640	55	4076
2026-01-12 11:28:27.89	146.71	26.14	-44.5	-45.7	15.9	0.00e+00	0	23	0	1200619520	55	4089
2026-01-12 11:28:28.88	146.70	26.30	-44.3	-45.5	16.0	0.00e+00	0	23	0	1206910976	55	3982
2026-01-12 11:28:29.87	146.68	26.47	-44.3	-45.4	16.0	0.00e+00	0	23	0	1212153856	55	3954
2026-01-12 11:28:30.87	146.67	26.64	-44.1	-45.2	15.9	0.00e+00	0	23	0	1217396736	54	4091
2026-01-12 11:28:31.87	146.65	26.81	-44.0	-45.2	15.9	0.00e+00	0	23	0	1223688192	54	4080
2026-01-12 11:28:32.86	146.63	26.98	-44.0	-45.2	15.9	0.00e+00	0	23	0	1228931072	54	4084
2026-01-12 11:28:33.85	146.62	27.15	-44.0	-45.2	15.9	0.00e+00	0	23	0	1234173952	54	4055
2026-01-12 11:28:34.85	146.60	27.32	-44.1	-45.3	15.9	0.00e+00	0	23	0	1240465408	54	4122
2026-01-12 11:28:35.85	146.58	27.49	-44.1	-45.3	15.9	0.00e+00	0	23	0	1245708288	54	4119
2026-01-12 11:28:36.83	146.56	27.67	-44.2	-45.4	15.8	0.00e+00	0	23	0	1250951168	54	4149
2026-01-12 11:28:37.82	146.55	27.84	-44.1	-45.3	15.9	0.00e+00	0	23	0	1257242624	54	4108
2026-01-12 11:28:38.81	146.53	28.02	-44.2	-45.3	15.8	0.00e+00	0	23	0	1262485504	54	4143
2026-01-12 11:28:39.82	146.51	28.20	-44.2	-45.4	15.8	0.00e+00	0	23	0	1267728384	54	4185
2026-01-12 11:28:40.81	146.49	28.37	-44.2	-45.5	15.8	0.00e+00	0	23	0	1274019840	54	4194
2026-01-12 11:28:41.82	146.47	28.56	-44.1	-45.3	15.8	0.00e+00	0	23	0	1279262720	54	4143
2026-01-12 11:28:42.81	146.45	28.74	-44.2	-45.4	15.8	0.00e+00	0	23	0	1284505600	54	4179
2026-01-12 11:28:43.81	146.43	28.92	-44.3	-45.5	15.8	0.00e+00	0	23	0	1290797056	54	4225
2026-01-12 11:28:44.80	146.42	29.10	-44.2	-45.5	15.8	0.00e+00	0	23	0	1296039936	54	4194
2026-01-12 11:28:45.80	146.40	29.29	-44.1	-45.4	15.8	0.00e+00	0	23	0	1301282816	54	4158
2026-01-12 11:28:46.79	146.38	29.47	-44.2	-45.5	15.8	0.00e+00	0	23	0	1307574272	54	4195
2026-01-12 11:28:47.78	146.36	29.66	-44.1	-45.3	15.9	0.00e+00	0	23	0	1312817152	54	4136
2026-01-12 11:28:48.78	146.33	29.85	-44.1	-45.3	15.9	0.00e+00	0	23	0	1318060032	54	4136
2026-01-12 11:28:49.77	146.31	30.04	-44.1	-45.3	15.9	0.00e+00	0	23	0	1324351488	54	4137
2026-01-12 11:28:50.77	146.29	30.23	-44.1	-45.3	15.8	0.00e+00	0	23	0	1329594368	54	4136
2026-01-12 11:28:51.77	146.27	30.42	-44.1	-45.3	15.8	0.00e+00	0	23	0	1334837248	54	4139
2026-01-12 11:28:52.76	146.25	30.62	-44.1	-45.3	15.8	0.00e+00	0	23	0	1341128704	54	4134
2026-01-12 11:28:53.74	146.23	30.81	-44.0	-45.2	15.9	0.00e+00	0	23	0	1346371584	54	4059
2026-01-12 11:28:54.74	146.21	31.01	-44.0	-45.2	15.9	0.00e+00	0	23	0	1351614464	54	4073
2026-01-12 11:28:55.74	146.18	31.20	-43.8	-45.0	16.0	0.00e+00	0	23	0	1357905920	54	3999
2026-01-12 11:28:56.72	146.16	31.40	-43.8	-45.0	16.0	0.00e+00	0	23	0	1363148800	54	3989
2026-01-12 11:28:57.72	146.14	31.60	-43.7	-44.9	16.0	0.00e+00	0	23	0	1368391680	54	3934
2026-01-12 11:28:58.71	146.11	31.80	-43.8	-44.9	16.0	0.00e+00	0	23	0	1373634560	54	3957
2026-01-12 11:28:59.70	146.09	32.00	-43.6	-44.8	15.9	0.00e+00	0	23	0	1379926016	53	4127
2026-01-12 11:29:00.70	146.06	32.21	-43.6	-44.8	15.9	0.00e+00	0	23	0	1385168896	53	4118
2026-01-12 11:29:01.69	146.04	32.41	-43.7	-44.9	15.9	0.00e+00	0	23	0	1391460352	53	4162
2026-01-12 11:29:02.68	146.01	32.62	-43.8	-45.0	15.8	0.00e+00	0	23	0	1396703232	53	4196
2026-01-12 11:29:03.66	145.99	32.83	-43.8	-45.0	15.8	0.00e+00	0	23	0	1401946112	53	4204
2026-01-12 11:29:04.65	145.96	33.03	-43.9	-45.1	15.8	0.00e+00	0	23	0	1407188992	53	4247
2026-01-12 11:29:05.65	145.94	33.25	-44.0	-45.2	15.8	0.00e+00	0	23	0	1413480448	53	4301
2026-01-12 11:29:06.64	145.91	33.46	-43.8	-45.0	15.8	0.00e+00	0	23	0	1418723328	53	4230
2026-01-12 11:29:07.63	145.88	33.67	-43.8	-45.0	15.8	0.00e+00	0	23	0	1425014784	53	4203
2026-01-12 11:29:08.62	145.86	33.89	-43.6	-44.8	15.9	0.00e+00	0	23	0	1430257664	53	4101
2026-01-12 11:29:09.62	145.83	34.11	-43.6	-44.7	15.9	0.00e+00	0	23	0	1435500544	53	4086
2026-01-12 11:29:10.61	145.80	34.32	-43.7	-44.9	15.9	0.00e+00	0	23	0	1441792000	53	4147
2026-01-12 11:29:11.61	145.77	34.54	-43.6	-44.7	15.9	0.00e+00	0	23	0	1447034880	53	4090
2026-01-12 11:29:12.60	145.74	34.77	-43.5	-44.6	16.0	0.00e+00	0	23	0	1452277760	53	4044
2026-01-12 11:29:13.60	145.71	34.99	-43.5	-44.7	15.9	0.00e+00	0	23	0	1457520640	53	4058
2026-01-12 11:29:14.60	145.68	35.22	-43.5	-44.6	16.0	0.00e+00	0	23	0	1463812096	53	4042
2026-01-12 11:29:15.60	145.65	35.44	-43.6	-44.7	15.9	0.00e+00	0	23	0	1469054976	53	4092
2026-01-12 11:29:16.59	145.62	35.67	-43.6	-44.7	15.9	0.00e+00	0	23	0	1475346432	53	4087
2026-01-12 11:29:17.59	145.59	35.90	-43.5	-44.6	16.0	0.00e+00	0	23	0	1480589312	53	4051
2026-01-12 11:29:18.58	145.56	36.13	-43.4	-44.6	16.0	0.00e+00	0	23	0	1485832192	53	4025
2026-01-12 11:29:19.57	145.53	36.37	-43.5	-44.6	16.0	0.00e+00	0	23	0	1492123648	53	4048
2026-01-12 11:29:20.57	145.49	36.60	-43.4	-44.6	16.0	0.00e+00	0	23	0	1497366528	53	4031
2026-01-12 11:29:21.55	145.46	36.84	-43.5	-44.7	15.9	0.00e+00	0	23	0	1502609408	53	4070
2026-01-12 11:29:22.55	145.43	37.07	-43.7	-44.7	15.9	0.00e+00	0	23	0	1507852288	53	4090
2026-01-12 11:29:23.54	145.39	37.31	-43.7	-44.8	15.9	0.00e+00	0	23	0	1514143744	53	4101
2026-01-12 11:29:24.53	145.36	37.55	-43.6	-44.7	15.9	0.00e+00	0	23	0	1519386624	53	4064
2026-01-12 11:29:25.53	145.32	37.80	-43.7	-44.7	15.9	0.00e+00	0	23	0	1525678080	53	4085
2026-01-12 11:29:26.52	145.28	38.04	-43.7	-44.7	15.9	0.00e+00	0	23	0	1530920960	53	4088
2026-01-12 11:29:27.51	145.25	38.29	-43.7	-44.8	15.9	0.00e+00	0	23	0	1536163840	53	4109
2026-01-12 11:29:28.50	145.21	38.54	-43.8	-44.8	15.9	0.00e+00	0	23	0	1541406720	53	4145
2026-01-12 11:29:29.51	145.17	38.79	-43.9	-44.9	15.9	0.00e+00	0	23	0	1547698176	53	4184
2026-01-12 11:29:30.49	145.13	39.04	-44.0	-45.1	15.9	0.00e+00	0	23	0	1552941056	53	4251
2026-01-12 11:29:31.48	145.09	39.29	-44.0	-45.1	15.8	0.00e+00	0	23	0	1558183936	53	4265
2026-01-12 11:29:32.48	145.05	39.55	-44.2	-45.3	15.8	0.00e+00	0	23	0	1564475392	53	4377
2026-01-12 11:29:33.47	145.01	39.81	-44.3	-45.4	15.8	0.00e+00	0	23	0	1569718272	53	4402
2026-01-12 11:29:34.47	144.97	40.07	-44.5	-45.5	15.8	0.00e+00	0	23	0	1576009728	54	4241
2026-01-12 11:29:35.46	144.93	40.33	-44.5	-45.5	15.8	0.00e+00	0	23	0	1581252608	54	4242
2026-01-12 11:29:36.45	144.89	40.59	-44.5	-45.6	15.8	0.00e+00	0	23	0	1586495488	54	4254
2026-01-12 11:29:37.44	144.84	40.86	-44.5	-45.6	15.8	0.00e+00	0	23	0	1591738368	54	4256
2026-01-12 11:29:38.44	144.80	41.13	-44.5	-45.6	15.8	0.00e+00	0	23	0	1598029824	54	4246
2026-01-12 11:29:39.43	144.75	41.40	-44.4	-45.5	15.8	0.00e+00	0	23	0	1603272704	54	4204
2026-01-12 11:29:40.42	144.71	41.67	-44.4	-45.5	15.8	0.00e+00	0	23	0	1608515584	54	4218
2026-01-12 11:29:41.42	144.66	41.94	-44.5	-45.5	15.8	0.00e+00	0	23	0	1614807040	54	4227
2026-01-12 11:29:42.41	144.61	42.22	-44.4	-45.4	15.8	0.00e+00	0	23	0	1620049920	54	4182
2026-01-12 11:29:43.41	144.56	42.49	-44.4	-45.4	15.8	0.00e+00	0	23	0	1625292800	54	4187
2026-01-12 11:29:44.40	144.51	42.77	-44.1	-45.2	15.9	0.00e+00	0	23	0	1631584256	54	4072
2026-01-12 11:29:45.39	144.46	43.05	-44.1	-45.1	15.9	0.00e+00	0	23	0	1636827136	54	4037
2026-01-12 11:29:46.39	144.41	43.34	-44.0	-45.1	15.9	0.00e+00	0	23	0	1642070016	54	4005
2026-01-12 11:29:47.38	144.36	43.62	-43.9	-45.0	15.9	0.00e+00	0	23	0	1648361472	54	3974
2026-01-12 11:29:48.38	144.30	43.91	-44.0	-45.1	15.9	0.00e+00	0	23	0	1653604352	54	4020
2026-01-12 11:29:49.37	144.25	44.20	-44.1	-45.1	15.9	0.00e+00	0	23	0	1658847232	54	4049
2026-01-12 11:29:50.36	144.19	44.49	-44.1	-45.1	15.9	0.00e+00	0	23	0	1665138688	54	4049
2026-01-12 11:29:51.36	144.14	44.79	-44.1	-45.1	15.9	0.00e+00	0	23	0	1670381568	54	4036
2026-01-12 11:29:52.36	144.08	45.09	-44.1	-45.1	15.9	0.00e+00	0	23	0	1676673024	54	4041
2026-01-12 11:29:53.36	144.02	45.39	-44.1	-45.2	15.9	0.00e+00	0	23	0	1681915904	54	4057
2026-01-12 11:29:54.35	143.96	45.69	-44.3	-45.4	15.9	0.00e+00	0	23	0	1687158784	54	4170
2026-01-12 11:29:55.35	143.90	45.99	-44.3	-45.4	15.8	0.00e+00	0	23	0	1692401664	54	4171
2026-01-12 11:29:56.34	143.83	46.30	-44.2	-45.2	15.9	0.00e+00	0	23	0	1698693120	54	4084
2026-01-12 11:29:57.33	143.77	46.60	-44.1	-45.1	15.9	0.00e+00	0	23	0	1703936000	54	4049
2026-01-12 11:29:58.32	143.70	46.91	-43.9	-44.9	16.0	0.00e+00	0	23	0	1709178880	54	3939
2026-01-12 11:29:59.31	143.64	47.22	-43.9	-45.0	16.0	0.00e+00	0	23	0	1715470336	54	3970
2026-01-12 11:30:00.31	143.57	47.54	-44.1	-45.2	15.9	0.00e+00	0	23	0	1720713216	54	4055
2026-01-12 11:30:01.30	143.50	47.85	-44.3	-45.4	15.8	0.00e+00	0	23	0	1725956096	54	4152
2026-01-12 11:30:02.30	143.43	48.18	-44.6	-45.7	15.8	0.00e+00	0	23	0	1732247552	54	4304
2026-01-12 11:30:03.29	143.35	48.50	-44.6	-45.7	15.8	0.00e+00	0	23	0	1737490432	54	4321
2026-01-12 11:30:04.29	143.28	48.82	-44.6	-45.7	15.7	0.00e+00	0	23	0	1742733312	54	4325
2026-01-12 11:30:05.29	143.20	49.15	-44.5	-45.6	15.8	0.00e+00	0	23	0	1749024768	54	4253
2026-01-12 11:30:06.28	143.13	49.48	-44.5	-45.6	15.8	0.00e+00	0	23	0	1754267648	54	4253
2026-01-12 11:30:07.28	143.04	49.81	-44.8	-45.9	15.7	0.00e+00	0	23	0	1760559104	54	4411
2026-01-12 11:30:08.27	142.96	50.14	-44.9	-46.0	15.8	0.00e+00	0	23	0	1765801984	55	4219
2026-01-12 11:30:09.26	142.88	50.47	-45.2	-46.3	15.7	0.00e+00	0	23	0	1771044864	55	4365
2026-01-12 11:30:10.25	142.80	50.81	-45.3	-46.4	15.7	0.00e+00	0	23	0	1776287744	55	4440
2026-01-12 11:30:11.25	142.71	51.15	-45.3	-46.4	15.7	0.00e+00	0	23	0	1782579200	55	4416
2026-01-12 11:30:12.24	142.62	51.49	-45.4	-46.5	15.6	0.00e+00	0	23	0	1787822080	55	4465
2026-01-12 11:30:13.23	142.53	51.84	-45.9	-47.0	15.6	0.00e+00	0	23	0	1793064960	56	4465
2026-01-12 11:30:14.22	142.43	52.18	-46.0	-47.2	15.6	0.00e+00	0	23	0	1799356416	57	4294
2026-01-12 11:30:15.21	142.34	52.53	-45.9	-47.0	15.7	0.00e+00	0	23	0	1804599296	57	4225
2026-01-12 11:30:16.21	142.24	52.89	-45.6	-46.7	15.8	0.00e+00	0	23	0	1809842176	57	4088
2026-01-12 11:30:17.20	142.14	53.24	-45.4	-46.5	15.8	0.00e+00	0	23	0	1816133632	57	3983
2026-01-12 11:30:18.19	142.03	53.60	-45.4	-46.5	15.9	0.00e+00	0	23	0	1821376512	57	3987
2026-01-12 11:30:19.18	141.93	53.95	-45.9	-47.0	15.7	0.00e+00	0	23	0	1826619392	57	4232
2026-01-12 11:30:20.18	141.82	54.32	-45.9	-47.1	15.7	0.00e+00	0	23	0	1832910848	57	4244
2026-01-12 11:30:21.18	141.71	54.68	-45.7	-46.8	15.7	0.00e+00	0	23	0	1838153728	57	4118
2026-01-12 11:30:22.19	141.59	55.06	-45.5	-46.6	15.8	0.00e+00	0	23	0	1843396608	57	4033
2026-01-12 11:30:23.18	141.47	55.42	-45.3	-46.3	15.9	0.00e+00	0	23	0	1849688064	57	3908
2026-01-12 11:30:24.17	141.35	55.79	-45.5	-46.7	15.8	0.00e+00	0	23	0	1854930944	57	4053
2026-01-12 11:30:25.16	141.23	56.17	-45.4	-46.6	15.9	0.00e+00	0	23	0	1861222400	57	4018
2026-01-12 11:30:26.15	141.10	56.54	-45.5	-46.7	15.8	0.00e+00	0	23	0	1866465280	57	4054
2026-01-12 11:30:27.14	140.97	56.92	-45.4	-46.5	15.9	0.00e+00	0	23	0	1871708160	57	4001
2026-01-12 11:30:28.13	140.83	57.30	-45.3	-46.4	15.9	0.00e+00	0	23	0	1876951040	57	3924
2026-01-12 11:30:29.13	140.69	57.68	-45.3	-46.3	15.9	0.00e+00	0	23	0	1883242496	57	3912
2026-01-12 11:30:30.12	140.55	58.07	-45.0	-46.0	15.9	0.00e+00	0	23	0	1888485376	56	4003
2026-01-12 11:30:31.11	140.40	58.45	-45.2	-46.3	15.8	0.00e+00	0	23	0	1893728256	56	4111
2026-01-12 11:30:32.11	140.25	58.85	-45.0	-46.1	15.9	0.00e+00	0	23	0	1900019712	56	4033
2026-01-12 11:30:33.10	140.09	59.24	-44.4	-45.5	15.9	0.00e+00	0	23	0	1905262592	55	3960
2026-01-12 11:30:34.10	139.93	59.64	-44.0	-45.0	15.9	0.00e+00	0	23	0	1910505472	54	3977
2026-01-12 11:30:35.08	139.76	60.03	-43.9	-44.9	16.0	0.00e+00	0	23	0	1916796928	54	3937
2026-01-12 11:30:36.08	139.59	60.43	-44.1	-45.2	15.9	0.00e+00	0	23	0	1922039808	54	4056
2026-01-12 11:30:37.07	139.41	60.83	-44.3	-45.4	15.8	0.00e+00	0	23	0	1927282688	54	4158
2026-01-12 11:30:38.06	139.23	61.23	-44.3	-45.4	15.8	0.00e+00	0	23	0	1933574144	54	4183
2026-01-12 11:30:39.06	139.04	61.64	-44.4	-45.5	15.8	0.00e+00	0	23	0	1938817024	54	4201
2026-01-12 11:30:40.06	138.84	62.05	-44.7	-45.8	15.7	0.00e+00	0	23	0	1944059904	54	4368
2026-01-12 11:30:41.05	138.63	62.46	-44.7	-45.8	15.8	0.00e+00	0	23	0	1950351360	54	4371
2026-01-12 11:30:42.05	138.42	62.88	-44.2	-45.3	15.9	0.00e+00	0	23	0	1955594240	54	4102
2026-01-12 11:30:43.05	138.20	63.30	-44.1	-45.1	15.9	0.00e+00	0	23	0	1960837120	54	4033
2026-01-12 11:30:44.05	137.97	63.72	-44.1	-45.1	15.9	0.00e+00	0	23	0	1967128576	54	4033
2026-01-12 11:30:45.04	137.74	64.13	-44.0	-45.0	15.9	0.00e+00	0	23	0	1972371456	54	3988
2026-01-12 11:30:46.03	137.50	64.55	-43.6	-44.6	15.9	0.00e+00	0	23	0	1977614336	53	4012
2026-01-12 11:30:47.03	137.24	64.98	-43.5	-44.6	15.9	0.00e+00	0	23	0	1983905792	53	4014
2026-01-12 11:30:48.03	136.98	65.41	-43.9	-44.9	15.9	0.00e+00	0	23	0	1989148672	53	4184
2026-01-12 11:30:49.02	136.70	65.83	-43.9	-44.9	15.9	0.00e+00	0	23	0	1994391552	53	4171
2026-01-12 11:30:50.02	136.42	66.26	-43.5	-44.5	16.0	0.00e+00	0	23	0	2000683008	53	3998
2026-01-12 11:30:51.01	136.12	66.69	-43.5	-44.5	16.0	0.00e+00	0	23	0	2005925888	53	3999
2026-01-12 11:30:52.00	135.82	67.12	-43.2	-44.2	16.1	0.00e+00	0	23	0	2011168768	53	3846
2026-01-12 11:30:52.99	135.49	67.56	-43.1	-44.1	16.0	0.00e+00	0	23	0	2017460224	52	4036
2026-01-12 11:30:53.98	135.16	67.99	-43.2	-44.2	16.0	0.00e+00	0	23	0	2022703104	52	4058
2026-01-12 11:30:54.98	134.81	68.43	-43.2	-44.2	16.0	0.00e+00	0	23	0	2027945984	52	4058
2026-01-12 11:30:55.98	134.44	68.87	-43.0	-44.0	16.0	0.00e+00	0	23	0	2034237440	52	3983
2026-01-12 11:30:56.98	134.05	69.31	-43.0	-44.0	16.0	0.00e+00	0	23	0	2039480320	52	4001
2026-01-12 11:30:57.97	133.65	69.75	-42.8	-43.8	16.0	0.00e+00	0	23	0	2044723200	52	3873
2026-01-12 11:30:58.96	133.23	70.19	-42.7	-43.7	16.1	0.00e+00	0	23	0	2051014656	52	3842
2026-01-12 11:30:59.96	132.79	70.63	-42.9	-43.9	16.0	0.00e+00	0	23	0	2056257536	52	3926
2026-01-12 11:31:00.96	132.32	71.08	-42.9	-43.9	16.0	0.00e+00	0	23	0	2061500416	52	3946
2026-01-12 11:31:01.94	131.84	71.52	-42.9	-43.9	16.0	0.00e+00	0	23	0	2067791872	52	3932
2026-01-12 11:31:02.95	131.32	71.97	-43.0	-44.0	16.0	0.00e+00	0	23	0	2073034752	52	3981
2026-01-12 11:31:03.94	130.78	72.41	-42.9	-43.9	16.0	0.00e+00	0	23	0	2078277632	52	3927
2026-01-12 11:31:04.94	130.20	72.86	-43.0	-44.0	16.0	0.00e+00	0	23	0	2084569088	52	3978
2026-01-12 11:31:05.93	129.60	73.30	-43.0	-44.0	16.0	0.00e+00	0	23	0	2089811968	52	3968
2026-01-12 11:31:06.92	128.96	73.74	-43.0	-44.1	16.0	0.00e+00	0	23	0	2095054848	52	4011
2026-01-12 11:31:07.92	128.28	74.19	-43.3	-44.3	15.9	0.00e+00	0	23	0	2101346304	52	4137
2026-01-12 11:31:08.91	127.57	74.63	-42.9	-43.9	16.0	0.00e+00	0	23	0	2106589184	52	3944
2026-01-12 11:31:09.90	126.81	75.07	-42.5	-43.4	16.0	0.00e+00	0	23	0	2111832064	51	3958
2026-01-12 11:31:10.89	126.00	75.51	-42.7	-43.8	16.0	0.00e+00	0	23	0	2118123520	51	4102
2026-01-12 11:31:11.89	125.13	75.96	-42.6	-43.6	16.0	0.00e+00	0	23	0	2123366400	51	4039
2026-01-12 11:31:12.88	124.22	76.39	-42.5	-43.5	16.0	0.00e+00	0	23	0	2128609280	51	3959
2026-01-12 11:31:13.87	123.23	76.83	-42.3	-43.3	16.0	0.00e+00	0	23	0	2134900736	51	3910
2026-01-12 11:31:14.87	122.17	77.26	-42.2	-43.2	16.1	0.00e+00	0	23	0	2140143616	51	3861
2026-01-12 11:31:15.87	121.04	77.69	-42.0	-43.0	16.0	0.00e+00	0	23	0	2146435072	50	3970
2026-01-12 11:31:16.86	119.83	78.12	-41.9	-42.9	16.1	0.00e+00	0	23	0	2151677952	50	3933
2026-01-12 11:31:17.86	118.51	78.54	-41.6	-42.5	16.0	0.00e+00	0	23	0	2156920832	49	4001
2026-01-12 11:31:18.85	117.11	78.95	-41.5	-42.5	16.0	0.00e+00	0	23	0	2162163712	49	3990
2026-01-12 11:31:19.85	115.58	79.37	-41.5	-42.5	16.1	0.00e+00	0	23	0	2168455168	49	3984
2026-01-12 11:31:20.84	113.94	79.77	-41.2	-42.1	16.0	0.00e+00	0	23	0	2173698048	48	4047
2026-01-12 11:31:21.83	112.17	80.16	-41.2	-42.2	16.0	0.00e+00	0	23	0	2178940928	48	4070
2026-01-12 11:31:22.82	110.25	80.54	-41.5	-42.5	16.0	0.00e+00	0	23	0	2185232384	48	4233
2026-01-12 11:31:23.81	108.17	80.91	-41.4	-42.3	16.0	0.00e+00	0	23	0	2190475264	48	4145
2026-01-12 11:31:24.80	105.91	81.27	-41.3	-42.3	16.0	0.00e+00	0	23	0	2195718144	48	4130
2026-01-12 11:31:25.80	103.43	81.62	-41.3	-42.2	16.0	0.00e+00	0	23	0	2202009600	48	4090
2026-01-12 11:31:26.79	100.76	81.95	-41.5	-42.4	16.0	0.00e+00	0	23	0	2207252480	48	4183
2026-01-12 11:31:27.78	97.87	82.27	-41.0	-42.0	16.0	0.00e+00	0	23	0	2212495360	48	3982
2026-01-12 11:31:28.77	94.75	82.56	-40.9	-41.8	16.0	0.00e+00	0	23	0	2218786816	48	3910
2026-01-12 11:31:29.77	91.34	82.83	-41.5	-42.5	16.0	0.00e+00	0	23	0	2224029696	48	4231
2026-01-12 11:31:30.77	87.68	83.07	-41.5	-42.5	16.0	0.00e+00	0	23	0	2229272576	48	4213
2026-01-12 11:31:31.76	83.80	83.28	-41.7	-42.7	16.0	0.00e+00	0	23	0	2235564032	48	4318
2026-01-12 11:31:32.75	79.70	83.46	-42.0	-43.0	16.0	0.00e+00	0	23	0	2240806912	49	4231
2026-01-12 11:31:33.75	75.34	83.60	-42.2	-43.3	16.0	0.00e+00	0	23	0	2246049792	49	4351
2026-01-12 11:31:34.75	70.80	83.71	-42.2	-43.2	16.0	0.00e+00	0	23	0	2252341248	49	4338
2026-01-12 11:31:35.75	66.14	83.78	-42.0	-43.0	16.0	0.00e+00	0	23	0	2257584128	49	4229
2026-01-12 11:31:36.74	61.45	83.80	-42.0	-43.0	16.0	0.00e+00	0	23	0	2262827008	49	4212
2026-01-12 11:31:37.73	56.76	83.78	-42.0	-43.0	16.0	0.00e+00	0	23	0	2269118464	49	4226
2026-01-12 11:31:38.72	52.13	83.73	-42.1	-43.1	16.0	0.00e+00	0	23	0	2274361344	49	4282
2026-01-12 11:31:39.71	47.61	83.63	-42.3	-43.3	16.0	0.00e+00	0	23	0	2279604224	49	4364
2026-01-12 11:31:40.71	43.21	83.49	-42.3	-43.3	16.0	0.00e+00	0	23	0	2285895680	49	4361
2026-01-12 11:31:41.71	39.02	83.32	-42.3	-43.3	16.0	0.00e+00	0	23	0	2291138560	49	4373
2026-01-12 11:31:42.70	35.10	83.11	-42.1	-43.1	16.0	0.00e+00	0	23	0	2296381440	50	4042
2026-01-12 11:31:43.69	31.43	82.88	-42.1	-43.1	16.0	0.00e+00	0	23	0	2302672896	50	4020
2026-01-12 11:31:44.69	27.97	82.61	-41.8	-42.7	16.1	0.00e+00	0	23	0	2307915776	50	3866
2026-01-12 11:31:45.67	24.83	82.33	-41.4	-42.4	16.0	0.00e+00	0	23	0	2313158656	49	3941
2026-01-12 11:31:46.66	21.89	82.02	-41.4	-42.4	16.0	0.00e+00	0	23	0	2318401536	49	3940
2026-01-12 11:31:47.65	19.18	81.69	-41.8	-42.8	16.0	0.00e+00	0	23	0	2324692992	49	4112
2026-01-12 11:31:48.64	16.69	81.35	-41.8	-42.8	16.0	0.00e+00	0	23	0	2329935872	49	4125
2026-01-12 11:31:49.64	14.36	80.99	-41.6	-42.6	16.0	0.00e+00	0	23	0	2336227328	49	4022
2026-01-12 11:31:50.63	12.25	80.62	-41.7	-42.7	16.0	0.00e+00	0	23	0	2341470208	49	4060
2026-01-12 11:31:51.63	10.27	80.24	-41.7	-42.7	16.0	0.00e+00	0	23	0	2346713088	49	4067
2026-01-12 11:31:52.62	8.47	79.85	-41.7	-42.7	16.0	0.00e+00	0	23	0	2353004544	49	4057
2026-01-12 11:31:53.62	6.80	79.44	-41.7	-42.7	16.0	0.00e+00	0	23	0	2358247424	49	4074
2026-01-12 11:31:54.61	5.26	79.04	-41.7	-42.7	16.0	0.00e+00	0	23	0	2363490304	49	4052
2026-01-12 11:31:55.60	3.84	78.62	-41.6	-42.6	16.0	0.00e+00	0	23	0	2368733184	49	4017
2026-01-12 11:31:56.60	2.50	78.20	-41.7	-42.7	16.0	0.00e+00	0	23	0	2375024640	49	4067
2026-01-12 11:31:57.59	1.28	77.78	-42.0	-42.9	16.0	0.00e+00	0	23	0	2380267520	49	4192
2026-01-12 11:31:58.59	0.12	77.35	-42.1	-43.1	16.0	0.00e+00	0	23	0	2386558976	49	4265
2026-01-12 11:31:59.58	359.06	76.92	-42.1	-43.1	16.0	0.00e+00	0	23	0	2391801856	49	4248
2026-01-12 11:32:00.57	358.06	76.49	-42.4	-43.4	16.0	0.00e+00	0	23	0	2397044736	49	4398
2026-01-12 11:32:01.57	357.12	76.05	-42.4	-43.4	16.0	0.00e+00	0	23	0	2403336192	50	4170
2026-01-12 11:32:02.55	356.26	75.61	-42.4	-43.4	16.0	0.00e+00	0	23	0	2408579072	50	4166
2026-01-12 11:32:03.55	355.44	75.17	-42.7	-43.7	15.9	0.00e+00	0	23	0	2413821952	50	4299
2026-01-12 11:32:04.54	354.67	74.73	-42.9	-43.9	15.9	0.00e+00	0	23	0	2419064832	51	4187
2026-01-12 11:32:05.53	353.94	74.29	-42.8	-43.9	16.0	0.00e+00	0	23	0	2425356288	51	4159
2026-01-12 11:32:06.52	353.26	73.85	-42.8	-43.8	16.0	0.00e+00	0	23	0	2430599168	51	4102
2026-01-12 11:32:07.51	352.62	73.41	-42.9	-43.9	15.9	0.00e+00	0	23	0	2436890624	51	4154
2026-01-12 11:32:08.51	352.00	72.96	-43.1	-44.1	15.9	0.00e+00	0	23	0	2442133504	51	4273
2026-01-12 11:32:09.50	351.43	72.52	-43.2	-44.3	15.9	0.00e+00	0	23	0	2447376384	51	4341
2026-01-12 11:32:10.50	350.88	72.07	-43.3	-44.3	15.9	0.00e+00	0	23	0	2452619264	51	4373
2026-01-12 11:32:11.50	350.35	71.62	-43.3	-44.3	15.9	0.00e+00	0	23	0	2458910720	51	4389
2026-01-12 11:32:12.49	349.86	71.18	-43.4	-44.4	15.9	0.00e+00	0	23	0	2464153600	52	4179
2026-01-12 11:32:13.49	349.39	70.74	-43.4	-44.5	16.0	0.00e+00	0	23	0	2469396480	52	4195
2026-01-12 11:32:14.48	348.94	70.30	-43.1	-44.1	16.0	0.00e+00	0	23	0	2475687936	52	4049
2026-01-12 11:32:15.48	348.52	69.85	-43.2	-44.2	16.0	0.00e+00	0	23	0	2480930816	52	4055
2026-01-12 11:32:16.48	348.11	69.41	-43.3	-44.3	15.9	0.00e+00	0	23	0	2487222272	52	4141
2026-01-12 11:32:17.47	347.72	68.97	-43.6	-44.6	15.9	0.00e+00	0	23	0	2492465152	52	4261
2026-01-12 11:32:18.47	347.35	68.53	-43.4	-44.4	15.9	0.00e+00	0	23	0	2497708032	52	4157
2026-01-12 11:32:19.46	347.00	68.10	-43.3	-44.3	15.9	0.00e+00	0	23	0	2503999488	52	4134
2026-01-12 11:32:20.45	346.66	67.67	-43.5	-44.5	15.9	0.00e+00	0	23	0	2509242368	52	4228
2026-01-12 11:32:21.45	346.33	67.23	-43.6	-44.6	15.9	0.00e+00	0	23	0	2514485248	52	4281
2026-01-12 11:32:22.44	346.02	66.80	-43.6	-44.6	15.9	0.00e+00	0	23	0	2519728128	52	4291
2026-01-12 11:32:23.42	345.73	66.38	-43.6	-44.7	15.9	0.00e+00	0	23	0	2526019584	52	4297
2026-01-12 11:32:24.42	345.44	65.94	-43.7	-44.7	15.9	0.00e+00	0	23	0	2531262464	52	4335
2026-01-12 11:32:25.41	345.16	65.52	-43.4	-44.4	15.9	0.00e+00	0	23	0	2536505344	52	4184
2026-01-12 11:32:26.40	344.90	65.10	-43.3	-44.3	15.9	0.00e+00	0	23	0	2542796800	52	4107
2026-01-12 11:32:27.40	344.64	64.67	-43.2	-44.2	15.9	0.00e+00	0	23	0	2548039680	52	4086
2026-01-12 11:32:28.39	344.40	64.25	-43.3	-44.4	15.9	0.00e+00	0	23	0	2553282560	52	4150
2026-01-12 11:32:29.39	344.16	63.83	-43.5	-44.5	15.9	0.00e+00	0	23	0	2559574016	52	4220
2026-01-12 11:32:30.37	343.94	63.42	-43.6	-44.6	15.9	0.00e+00	0	23	0	2564816896	52	4261
2026-01-12 11:32:31.37	343.71	63.00	-43.4	-44.4	15.9	0.00e+00	0	23	0	2571108352	52	4187
2026-01-12 11:32:32.36	343.50	62.59	-43.6	-44.6	15.9	0.00e+00	0	23	0	2576351232	52	4255
2026-01-12 11:32:33.36	343.29	62.18	-43.6	-44.6	15.9	0.00e+00	0	23	0	2581594112	52	4273
2026-01-12 11:32:34.35	343.10	61.77	-44.0	-45.1	15.9	0.00e+00	0	23	0	2586836992	53	4255
2026-01-12 11:32:35.34	342.91	61.37	-44.2	-45.3	15.9	0.00e+00	0	23	0	2593128448	53	4357
2026-01-12 11:32:36.34	342.72	60.96	-44.0	-45.1	15.8	0.00e+00	0	23	0	2598371328	53	4259
2026-01-12 11:32:37.33	342.54	60.56	-44.0	-45.0	15.8	0.00e+00	0	23	0	2603614208	53	4235
2026-01-12 11:32:38.32	342.37	60.16	-44.0	-45.0	15.9	0.00e+00	0	23	0	2609905664	53	4230
2026-01-12 11:32:39.31	342.20	59.76	-44.2	-45.3	15.8	0.00e+00	0	23	0	2615148544	53	4345
2026-01-12 11:32:40.30	342.04	59.37	-44.1	-45.2	15.9	0.00e+00	0	23	0	2620391424	53	4308
2026-01-12 11:32:41.29	341.88	58.98	-44.3	-45.4	15.8	0.00e+00	0	23	0	2626682880	53	4416
2026-01-12 11:32:42.28	341.72	58.59	-44.5	-45.5	15.8	0.00e+00	0	23	0	2631925760	54	4231
2026-01-12 11:32:43.28	341.57	58.20	-44.4	-45.5	15.8	0.00e+00	0	23	0	2637168640	54	4209
2026-01-12 11:32:44.27	341.43	57.82	-44.5	-45.5	15.8	0.00e+00	0	23	0	2643460096	54	4236
2026-01-12 11:32:45.27	341.29	57.43	-44.9	-46.0	15.8	0.00e+00	0	23	0	2648702976	55	4220
2026-01-12 11:32:46.25	341.15	57.05	-45.6	-46.7	15.7	0.00e+00	0	23	0	2653945856	56	4338
2026-01-12 11:32:47.25	341.02	56.67	-45.8	-46.9	15.7	0.00e+00	0	23	0	2660237312	56	4416
2026-01-12 11:32:48.25	340.89	56.29	-45.8	-46.9	15.6	0.00e+00	0	23	0	2665480192	56	4439
2026-01-12 11:32:49.23	340.77	55.93	-45.5	-46.6	15.7	0.00e+00	0	23	0	2670723072	56	4273
2026-01-12 11:32:50.23	340.64	55.55	-45.6	-46.7	15.7	0.00e+00	0	23	0	2677014528	56	4317
2026-01-12 11:32:51.24	340.52	55.18	-45.7	-46.8	15.7	0.00e+00	0	23	0	2682257408	56	4373
2026-01-12 11:32:52.23	340.41	54.81	-45.8	-46.9	15.7	0.00e+00	0	23	0	2687500288	56	4421
2026-01-12 11:32:53.23	340.30	54.45	-45.8	-46.9	15.7	0.00e+00	0	23	0	2693791744	56	4409
2026-01-12 11:32:54.22	340.19	54.09	-45.6	-46.7	15.7	0.00e+00	0	23	0	2699034624	56	4317
2026-01-12 11:32:55.22	340.08	53.72	-45.6	-46.7	15.7	0.00e+00	0	23	0	2704277504	56	4295
2026-01-12 11:32:56.21	339.97	53.37	-45.2	-46.3	15.8	0.00e+00	0	23	0	2710568960	56	4110
2026-01-12 11:32:57.21	339.87	53.01	-45.3	-46.4	15.8	0.00e+00	0	23	0	2715811840	56	4158
2026-01-12 11:32:58.21	339.77	52.66	-45.4	-46.6	15.8	0.00e+00	0	23	0	2722103296	56	4245
2026-01-12 11:32:59.21	339.68	52.31	-45.3	-46.4	15.8	0.00e+00	0	23	0	2727346176	56	4183
2026-01-12 11:33:00.21	339.58	51.96	-45.0	-46.1	15.9	0.00e+00	0	23	0	2732589056	56	4049
2026-01-12 11:33:01.20	339.49	51.61	-44.9	-45.9	15.9	0.00e+00	0	23	0	2737831936	56	3930
2026-01-12 11:33:02.19	339.40	51.27	-44.7	-45.7	16.0	0.00e+00	0	23	0	2744123392	56	3868
2026-01-12 11:33:03.17	339.31	50.94	-44.2	-45.2	16.0	0.00e+00	0	23	0	2749366272	55	3858
2026-01-12 11:33:04.16	339.23	50.60	-44.3	-45.3	16.0	0.00e+00	0	23	0	2754609152	55	3895
2026-01-12 11:33:05.15	339.14	50.27	-44.5	-45.6	16.0	0.00e+00	0	23	0	2760900608	55	4012
2026-01-12 11:33:06.15	339.06	49.93	-44.5	-45.6	16.0	0.00e+00	0	23	0	2766143488	55	4045
2026-01-12 11:33:07.13	338.98	49.61	-44.5	-45.6	15.9	0.00e+00	0	23	0	2771386368	55	4044
2026-01-12 11:33:08.13	338.90	49.28	-44.4	-45.5	15.9	0.00e+00	0	23	0	2777677824	55	3987
2026-01-12 11:33:09.13	338.83	48.95	-44.2	-45.2	16.0	0.00e+00	0	23	0	2782920704	55	3868
2026-01-12 11:33:10.12	338.75	48.63	-44.0	-45.1	15.9	0.00e+00	0	23	0	2788163584	54	4009
2026-01-12 11:33:11.12	338.68	48.30	-44.1	-45.1	15.9	0.00e+00	0	23	0	2794455040	54	4032
2026-01-12 11:33:12.11	338.61	47.99	-44.1	-45.1	15.9	0.00e+00	0	23	0	2799697920	54	4011
2026-01-12 11:33:13.11	338.54	47.67	-43.9	-45.0	16.0	0.00e+00	0	23	0	2804940800	54	3965
2026-01-12 11:33:14.10	338.47	47.35	-44.1	-45.2	15.9	0.00e+00	0	23	0	2811232256	54	4058
2026-01-12 11:33:15.09	338.40	47.04	-44.2	-45.3	15.9	0.00e+00	0	23	0	2816475136	54	4102
2026-01-12 11:33:16.09	338.34	46.73	-44.1	-45.2	15.9	0.00e+00	0	23	0	2821718016	54	4078
2026-01-12 11:33:17.08	338.27	46.43	-44.1	-45.2	15.9	0.00e+00	0	23	0	2828009472	54	4074
2026-01-12 11:33:18.08	338.21	46.12	-44.1	-45.1	15.9	0.00e+00	0	23	0	2833252352	54	4036
2026-01-12 11:33:19.07	338.15	45.82	-44.0	-45.0	15.9	0.00e+00	0	23	0	2838495232	54	3991
2026-01-12 11:33:20.06	338.09	45.52	-44.1	-45.1	15.9	0.00e+00	0	23	0	2844786688	54	4039
2026-01-12 11:33:21.05	338.03	45.22	-44.1	-45.2	15.9	0.00e+00	0	23	0	2850029568	54	4074
2026-01-12 11:33:22.05	337.97	44.92	-44.0	-45.0	16.0	0.00e+00	0	23	0	2855272448	54	3991
2026-01-12 11:33:23.04	337.91	44.63	-43.9	-45.0	16.0	0.00e+00	0	23	0	2861563904	54	3959
2026-01-12 11:33:24.03	337.86	44.34	-43.9	-44.9	15.9	0.00e+00	0	23	0	2866806784	54	3956
2026-01-12 11:33:25.03	337.80	44.05	-43.8	-44.8	16.0	0.00e+00	0	23	0	2872049664	54	3875
2026-01-12 11:33:26.03	337.75	43.76	-43.8	-44.8	16.0	0.00e+00	0	23	0	2878341120	54	3906
2026-01-12 11:33:27.02	337.70	43.47	-43.9	-44.9	16.0	0.00e+00	0	23	0	2883584000	54	3940
2026-01-12 11:33:28.01	337.64	43.19	-44.0	-45.0	16.0	0.00e+00	0	23	0	2888826880	54	3994
2026-01-12 11:33:29.00	337.59	42.91	-44.1	-45.2	15.9	0.00e+00	0	23	0	2894069760	54	4056
2026-01-12 11:33:30.00	337.54	42.63	-44.1	-45.1	15.9	0.00e+00	0	23	0	2900361216	54	4047
2026-01-12 11:33:30.99	337.50	42.35	-44.1	-45.2	15.9	0.00e+00	0	23	0	2905604096	54	4059
2026-01-12 11:33:31.98	337.45	42.08	-44.1	-45.1	15.9	0.00e+00	0	23	0	2911895552	54	4033
2026-01-12 11:33:32.97	337.40	41.80	-43.9	-45.0	16.0	0.00e+00	0	23	0	2917138432	54	3964
2026-01-12 11:33:33.97	337.35	41.53	-43.9	-44.9	16.0	0.00e+00	0	23	0	2922381312	54	3938
2026-01-12 11:33:34.96	337.31	41.26	-43.6	-44.7	15.9	0.00e+00	0	23	0	2928672768	53	4066
2026-01-12 11:33:35.96	337.26	40.99	-43.6	-44.7	16.0	0.00e+00	0	23	0	2933915648	53	4056
2026-01-12 11:33:36.95	337.22	40.73	-43.6	-44.6	16.0	0.00e+00	0	23	0	2939158528	53	4024
2026-01-12 11:33:37.94	337.18	40.47	-43.6	-44.6	16.0	0.00e+00	0	23	0	2945449984	53	4033
2026-01-12 11:33:38.92	337.14	40.21	-43.6	-44.7	15.9	0.00e+00	0	23	0	2950692864	53	4060
2026-01-12 11:33:39.92	337.09	39.95	-43.5	-44.5	16.0	0.00e+00	0	23	0	2955935744	53	3981
2026-01-12 11:33:40.91	337.05	39.69	-43.5	-44.5	16.0	0.00e+00	0	23	0	2961178624	53	3987
2026-01-12 11:33:41.89	337.01	39.44	-43.6	-44.7	15.9	0.00e+00	0	23	0	2967470080	53	4065
2026-01-12 11:33:42.89	336.97	39.18	-43.6	-44.6	16.0	0.00e+00	0	23	0	2972712960	53	4035
2026-01-12 11:33:43.88	336.94	38.93	-43.6	-44.7	15.9	0.00e+00	0	23	0	2977955840	53	4055
2026-01-12 11:33:44.88	336.90	38.68	-43.6	-44.6	16.0	0.00e+00	0	23	0	2984247296	53	4042
2026-01-12 11:33:45.87	336.86	38.43	-43.5	-44.5	16.0	0.00e+00	0	23	0	2989490176	53	3978
2026-01-12 11:33:46.86	336.82	38.19	-43.5	-44.5	16.0	0.00e+00	0	23	0	2994733056	53	3998
2026-01-12 11:33:47.85	336.79	37.94	-43.4	-44.4	16.0	0.00e+00	0	23	0	3001024512	53	3934
2026-01-12 11:33:48.85	336.75	37.70	-43.4	-44.4	16.0	0.00e+00	0	23	0	3006267392	53	3936
2026-01-12 11:33:49.84	336.72	37.46	-43.4	-44.4	16.0	0.00e+00	0	23	0	3011510272	53	3955
2026-01-12 11:33:50.83	336.68	37.22	-43.5	-44.5	15.9	0.00e+00	0	23	0	3017801728	53	4004
2026-01-12 11:33:51.83	336.65	36.98	-43.6	-44.7	15.9	0.00e+00	0	23	0	3023044608	53	4062
2026-01-12 11:33:52.82	336.61	36.74	-43.5	-44.6	15.9	0.00e+00	0	23	0	3028287488	53	4024
2026-01-12 11:33:53.82	336.58	36.51	-43.6	-44.7	15.9	0.00e+00	0	23	0	3034578944	53	4060
2026-01-12 11:33:54.81	336.55	36.27	-43.7	-44.7	15.9	0.00e+00	0	23	0	3039821824	53	4086
2026-01-12 11:33:55.80	336.52	36.04	-43.6	-44.6	16.0	0.00e+00	0	23	0	3045064704	53	4045
2026-01-12 11:33:56.79	336.49	35.81	-43.6	-44.6	16.0	0.00e+00	0	23	0	3051356160	53	4021
2026-01-12 11:33:57.77	336.46	35.59	-43.3	-44.4	16.0	0.00e+00	0	23	0	3056599040	53	3914
2026-01-12 11:33:58.77	336.43	35.36	-43.4	-44.4	16.0	0.00e+00	0	23	0	3061841920	53	3938
2026-01-12 11:33:59.76	336.40	35.14	-43.2	-44.2	16.1	0.00e+00	0	23	0	3068133376	53	3853
2026-01-12 11:34:00.75	336.37	34.92	-43.3	-44.3	16.0	0.00e+00	0	23	0	3073376256	53	3887
2026-01-12 11:34:01.74	336.34	34.69	-43.3	-44.3	16.0	0.00e+00	0	23	0	3078619136	53	3896
2026-01-12 11:34:02.74	336.31	34.47	-43.2	-44.2	16.1	0.00e+00	0	23	0	3084910592	53	3863
2026-01-12 11:34:03.73	336.28	34.25	-43.3	-44.3	16.0	0.00e+00	0	23	0	3090153472	53	3872
2026-01-12 11:34:04.72	336.25	34.04	-43.4	-44.4	16.0	0.00e+00	0	23	0	3095396352	53	3942
2026-01-12 11:34:05.72	336.23	33.82	-43.5	-44.5	16.0	0.00e+00	0	23	0	3101687808	53	3989
2026-01-12 11:34:06.71	336.20	33.61	-43.7	-44.7	15.9	0.00e+00	0	23	0	3106930688	53	4065
2026-01-12 11:34:07.71	336.17	33.39	-43.7	-44.8	15.9	0.00e+00	0	23	0	3112173568	53	4116
2026-01-12 11:34:08.70	336.15	33.18	-43.9	-44.9	15.9	0.00e+00	0	23	0	3117416448	53	4180
2026-01-12 11:34:09.69	336.12	32.97	-44.0	-45.0	15.9	0.00e+00	0	23	0	3123707904	53	4221
2026-01-12 11:34:10.69	336.10	32.77	-44.1	-45.2	15.8	0.00e+00	0	23	0	3128950784	53	4306
2026-01-12 11:34:11.68	336.07	32.56	-44.2	-45.3	15.8	0.00e+00	0	23	0	3135242240	53	4352
2026-01-12 11:34:12.67	336.05	32.35	-44.3	-45.4	15.8	0.00e+00	0	23	0	3140485120	53	4394
2026-01-12 11:34:13.66	336.02	32.15	-44.3	-45.4	15.8	0.00e+00	0	23	0	3145728000	53	4412
2026-01-12 11:34:14.66	336.00	31.95	-44.4	-45.5	15.8	0.00e+00	0	23	0	3152019456	54	4228
2026-01-12 11:34:15.66	335.97	31.74	-44.5	-45.5	15.8	0.00e+00	0	23	0	3157262336	54	4242
2026-01-12 11:34:16.65	335.95	31.55	-44.5	-45.6	15.8	0.00e+00	0	23	0	3162505216	54	4281
2026-01-12 11:34:17.64	335.93	31.35	-44.6	-45.7	15.8	0.00e+00	0	23	0	3167748096	54	4294
2026-01-12 11:34:18.64	335.91	31.15	-44.6	-45.7	15.8	0.00e+00	0	23	0	3174039552	54	4315
2026-01-12 11:34:19.64	335.88	30.95	-44.7	-45.8	15.8	0.00e+00	0	23	0	3179282432	54	4346
2026-01-12 11:34:20.63	335.86	30.76	-44.6	-45.7	15.8	0.00e+00	0	23	0	3185573888	54	4325
2026-01-12 11:34:21.62	335.84	30.57	-44.6	-45.7	15.8	0.00e+00	0	23	0	3190816768	54	4309
2026-01-12 11:34:22.61	335.82	30.37	-44.6	-45.7	15.8	0.00e+00	0	23	0	3196059648	54	4335
2026-01-12 11:34:23.61	335.80	30.18	-44.6	-45.6	15.8	0.00e+00	0	23	0	3202351104	54	4289
2026-01-12 11:34:24.60	335.78	29.99	-44.4	-45.5	15.8	0.00e+00	0	23	0	3207593984	54	4223
2026-01-12 11:34:25.60	335.76	29.80	-44.3	-45.4	15.8	0.00e+00	0	23	0	3212836864	54	4170
2026-01-12 11:34:26.59	335.74	29.62	-44.3	-45.4	15.8	0.00e+00	0	23	0	3218079744	54	4179
2026-01-12 11:34:27.59	335.72	29.43	-44.4	-45.4	15.8	0.00e+00	0	23	0	3224371200	54	4191
2026-01-12 11:34:28.58	335.70	29.25	-44.2	-45.2	15.9	0.00e+00	0	23	0	3229614080	54	4085
2026-01-12 11:34:29.58	335.68	29.06	-44.0	-45.1	15.9	0.00e+00	0	23	0	3235905536	54	4015
2026-01-12 11:34:30.58	335.66	28.88	-44.1	-45.1	15.9	0.00e+00	0	23	0	3241148416	54	4046
2026-01-12 11:34:31.57	335.64	28.70	-43.9	-45.0	15.9	0.00e+00	0	23	0	3246391296	54	3982
2026-01-12 11:34:32.57	335.62	28.52	-43.8	-44.8	16.0	0.00e+00	0	23	0	3252682752	54	3888
2026-01-12 11:34:33.55	335.60	28.34	-43.8	-44.9	16.0	0.00e+00	0	23	0	3257925632	54	3915
2026-01-12 11:34:34.54	335.59	28.16	-43.8	-44.8	16.0	0.00e+00	0	23	0	3263168512	54	3902
2026-01-12 11:34:35.55	335.57	27.98	-43.7	-44.7	16.0	0.00e+00	0	23	0	3268411392	54	3846
2026-01-12 11:34:36.54	335.55	27.81	-43.6	-44.6	15.9	0.00e+00	0	23	0	3274702848	53	4013
2026-01-12 11:34:37.53	335.53	27.64	-43.5	-44.5	15.9	0.00e+00	0	23	0	3279945728	53	3999
2026-01-12 11:34:38.53	335.52	27.46	-43.6	-44.6	15.9	0.00e+00	0	23	0	3286237184	53	4044
2026-01-12 11:34:39.52	335.50	27.29	-43.7	-44.7	15.9	0.00e+00	0	23	0	3291480064	53	4082
2026-01-12 11:34:40.52	335.48	27.12	-43.7	-44.7	15.9	0.00e+00	0	23	0	3296722944	53	4064
2026-01-12 11:34:41.51	335.47	26.95	-43.7	-44.7	15.9	0.00e+00	0	23	0	3301965824	53	4082
2026-01-12 11:34:42.50	335.45	26.78	-43.7	-44.8	15.9	0.00e+00	0	23	0	3308257280	53	4103
2026-01-12 11:34:43.50	335.44	26.61	-43.7	-44.8	15.9	0.00e+00	0	23	0	3313500160	53	4101
2026-01-12 11:34:44.49	335.42	26.45	-43.8	-44.9	15.9	0.00e+00	0	23	0	3318743040	53	4161
2026-01-12 11:34:45.49	335.40	26.28	-43.9	-44.9	15.9	0.00e+00	0	23	0	3325034496	53	4172
2026-01-12 11:34:46.49	335.39	26.11	-44.0	-45.0	15.8	0.00e+00	0	23	0	3330277376	53	4234
2026-01-12 11:34:47.49	335.37	25.95	-44.0	-45.0	15.8	0.00e+00	0	23	0	3336568832	53	4236
2026-01-12 11:34:48.48	335.36	25.79	-44.0	-45.1	15.8	0.00e+00	0	23	0	3341811712	53	4246
2026-01-12 11:34:49.48	335.34	25.62	-44.1	-45.2	15.8	0.00e+00	0	23	0	3347054592	53	4313
2026-01-12 11:34:50.47	335.33	25.46	-44.1	-45.1	15.8	0.00e+00	0	23	0	3353346048	53	4286
2026-01-12 11:34:51.47	335.31	25.30	-44.1	-45.2	15.8	0.00e+00	0	23	0	3358588928	53	4314
2026-01-12 11:34:52.46	335.30	25.15	-44.2	-45.3	15.8	0.00e+00	0	23	0	3363831808	53	4361
2026-01-12 11:34:53.45	335.29	24.99	-44.2	-45.3	15.8	0.00e+00	0	23	0	3370123264	53	4384
2026-01-12 11:34:54.44	335.27	24.83	-44.3	-45.4	15.8	0.00e+00	0	23	0	3375366144	53	4394
2026-01-12 11:34:55.44	335.26	24.67	-44.3	-45.3	15.8	0.00e+00	0	23	0	3380609024	53	4383
2026-01-12 11:34:56.43	335.25	24.52	-44.4	-45.4	15.7	0.00e+00	0	23	0	3386900480	53	4433
2026-01-12 11:34:57.43	335.23	24.37	-44.3	-45.4	15.8	0.00e+00	0	23	0	3392143360	53	4430
2026-01-12 11:34:58.43	335.22	24.21	-44.3	-45.4	15.8	0.00e+00	0	23	0	3397386240	53	4396
2026-01-12 11:34:59.42	335.21	24.06	-44.4	-45.5	15.7	0.00e+00	0	23	0	3403677696	53	4442
2026-01-12 11:35:00.42	335.19	23.91	-44.3	-45.4	15.8	0.00e+00	0	23	0	3408920576	53	4414
2026-01-12 11:35:01.42	335.18	23.76	-44.4	-45.5	15.7	0.00e+00	0	23	0	3414163456	53	4448
2026-01-12 11:35:02.41	335.17	23.61	-44.5	-45.5	15.8	0.00e+00	0	23	0	3420454912	54	4229
2026-01-12 11:35:03.41	335.16	23.46	-44.5	-45.6	15.8	0.00e+00	0	23	0	3425697792	54	4243
2026-01-12 11:35:04.41	335.14	23.31	-44.5	-45.6	15.8	0.00e+00	0	23	0	3431989248	54	4254
2026-01-12 11:35:05.41	335.13	23.16	-44.5	-45.6	15.8	0.00e+00	0	23	0	3437232128	54	4262
2026-01-12 11:35:06.40	335.12	23.01	-44.5	-45.5	15.8	0.00e+00	0	23	0	3442475008	54	4240
2026-01-12 11:35:07.40	335.11	22.87	-44.6	-45.7	15.7	0.00e+00	0	23	0	3447717888	54	4306
2026-01-12 11:35:08.39	335.10	22.72	-44.7	-45.7	15.7	0.00e+00	0	23	0	3454009344	54	4332
2026-01-12 11:35:09.39	335.08	22.58	-44.7	-45.8	15.7	0.00e+00	0	23	0	3459252224	54	4348
2026-01-12 11:35:10.39	335.07	22.43	-44.8	-45.9	15.7	0.00e+00	0	23	0	3464495104	54	4401
2026-01-12 11:35:11.39	335.06	22.29	-44.8	-45.8	15.7	0.00e+00	0	23	0	3470786560	54	4385
2026-01-12 11:35:12.38	335.05	22.15	-44.9	-45.9	15.7	0.00e+00	0	23	0	3476029440	54	4435
2026-01-12 11:35:13.37	335.04	22.01	-44.8	-45.9	15.7	0.00e+00	0	23	0	3482320896	54	4415
2026-01-12 11:35:14.37	335.03	21.87	-44.9	-46.0	15.7	0.00e+00	0	23	0	3487563776	54	4442
2026-01-12 11:35:15.36	335.02	21.73	-45.0	-46.1	15.7	0.00e+00	0	23	0	3492806656	55	4244
2026-01-12 11:35:16.35	335.01	21.59	-44.9	-46.0	15.7	0.00e+00	0	23	0	3498049536	55	4221
2026-01-12 11:35:17.34	335.00	21.46	-45.0	-46.1	15.7	0.00e+00	0	23	0	3504340992	55	4243
2026-01-12 11:35:18.33	334.99	21.32	-45.0	-46.1	15.7	0.00e+00	0	23	0	3509583872	55	4261
2026-01-12 11:35:19.34	334.98	21.18	-45.1	-46.2	15.7	0.00e+00	0	23	0	3514826752	55	4327
2026-01-12 11:35:20.33	334.97	21.05	-45.1	-46.2	15.7	0.00e+00	0	23	0	3521118208	55	4319
2026-01-12 11:35:21.32	334.96	20.91	-45.1	-46.2	15.7	0.00e+00	0	23	0	3526361088	55	4327
2026-01-12 11:35:22.31	334.95	20.78	-45.2	-46.2	15.6	0.00e+00	0	23	0	3532652544	55	4339
2026-01-12 11:35:23.30	334.94	20.65	-45.1	-46.2	15.7	0.00e+00	0	23	0	3537895424	55	4328
2026-01-12 11:35:24.30	334.93	20.51	-45.2	-46.3	15.6	0.00e+00	0	23	0	3543138304	55	4378
2026-01-12 11:35:25.29	334.92	20.38	-45.3	-46.4	15.6	0.00e+00	0	23	0	3548381184	55	4397
2026-01-12 11:35:26.29	334.91	20.25	-45.2	-46.3	15.6	0.00e+00	0	23	0	3554672640	55	4358
2026-01-12 11:35:27.28	334.90	20.12	-45.2	-46.3	15.6	0.00e+00	0	23	0	3559915520	55	4391
2026-01-12 11:35:28.28	334.89	19.99	-45.3	-46.4	15.6	0.00e+00	0	23	0	3565158400	55	4430
2026-01-12 11:35:29.27	334.88	19.86	-45.3	-46.4	15.6	0.00e+00	0	23	0	3571449856	55	4414
2026-01-12 11:35:30.26	334.88	19.73	-45.3	-46.4	15.6	0.00e+00	0	23	0	3576692736	55	4428
2026-01-12 11:35:31.26	334.87	19.60	-45.3	-46.4	15.6	0.00e+00	0	23	0	3581935616	55	4440
2026-01-12 11:35:32.25	334.86	19.48	-45.3	-46.5	15.6	0.00e+00	0	23	0	3588227072	55	4452
2026-01-12 11:35:33.24	334.85	19.35	-45.4	-46.5	15.6	0.00e+00	0	23	0	3593469952	55	4460
2026-01-12 11:35:34.23	334.84	19.22	-45.6	-46.8	15.6	0.00e+00	0	23	0	3598712832	56	4350
2026-01-12 11:35:35.23	334.83	19.10	-45.6	-46.7	15.6	0.00e+00	0	23	0	3605004288	56	4328
2026-01-12 11:35:36.22	334.82	18.97	-45.6	-46.8	15.6	0.00e+00	0	23	0	3610247168	56	4352
2026-01-12 11:35:37.21	334.82	18.85	-45.7	-46.9	15.6	0.00e+00	0	23	0	3615490048	56	4403
2026-01-12 11:35:38.20	334.81	18.73	-45.7	-46.8	15.6	0.00e+00	0	23	0	3621781504	56	4373
2026-01-12 11:35:39.20	334.80	18.60	-45.7	-46.8	15.6	0.00e+00	0	23	0	3627024384	56	4370
2026-01-12 11:35:40.19	334.79	18.48	-45.8	-47.0	15.5	0.00e+00	0	23	0	3632267264	56	4456
2026-01-12 11:35:41.18	334.79	18.36	-45.9	-47.0	15.5	0.00e+00	0	23	0	3638558720	56	4476
2026-01-12 11:35:42.17	334.78	18.24	-45.9	-47.0	15.6	0.00e+00	0	23	0	3643801600	56	4468
2026-01-12 11:35:43.17	334.77	18.12	-45.9	-47.0	15.5	0.00e+00	0	23	0	3649044480	56	4475
