passes_logs/2026/01/12/R3.2S_Murmansk/R3.2S_Murmansk__20260112_213204_2024-110A_rec.log

#Pass ID: 20260112_213204_2024-110A
#Satellite: 2024-110A
#Configuration: 01B_900M
#almurnet v.1.7.20251203
#Start time: 2026-01-12 21:32:05

#Version: 2.2.20231116
#Station: R3.2S_Murmansk
#Location: 33.079688 lon 68.888172 lat
#TLE: 1 60012U 24110A   26012.29215811  .00007717  00000+0  46734-3 0  9995
#TLE: 2 60012  97.5744 105.3254 0010423  75.6228 284.6158 15.10835003 88351

#Time	Az	El	Level	Level2	SNR	BER	BlckErr	Temp	State	Recorded	gain1	gain2
2026-01-12 21:32:05.10	201.34	2.04	-57.1	-60.3	6.1	0.00e+00	0	24	0	0	81	20379
2026-01-12 21:32:06.09	201.41	2.10	-57.1	-60.3	6.2	0.00e+00	0	24	104	0	81	20382
2026-01-12 21:32:07.09	201.49	2.17	-57.1	-60.3	6.2	0.00e+00	0	24	104	0	81	20379
2026-01-12 21:32:08.08	201.57	2.23	-57.1	-60.4	6.2	0.00e+00	0	24	104	0	81	20409
2026-01-12 21:32:09.09	201.65	2.29	-57.1	-60.4	6.2	0.00e+00	0	24	104	0	81	20419
2026-01-12 21:32:10.09	201.73	2.36	-57.1	-60.4	6.2	0.00e+00	0	24	104	0	81	20420
2026-01-12 21:32:11.09	201.81	2.42	-57.1	-60.3	6.2	0.00e+00	0	24	104	0	81	20377
2026-01-12 21:32:12.09	201.89	2.48	-57.2	-60.3	6.2	0.00e+00	0	24	104	0	81	20310
2026-01-12 21:32:13.09	201.97	2.55	-57.1	-60.3	6.2	0.00e+00	0	24	104	0	81	20323
2026-01-12 21:32:14.09	202.05	2.61	-57.2	-60.4	6.2	0.00e+00	0	24	104	0	81	20446
2026-01-12 21:32:15.08	202.13	2.68	-57.1	-60.3	6.2	0.00e+00	0	24	104	0	81	20362
2026-01-12 21:32:16.08	202.21	2.74	-57.2	-60.3	6.2	0.00e+00	0	24	104	0	81	20395
2026-01-12 21:32:17.08	202.29	2.81	-57.2	-60.4	6.2	0.00e+00	0	24	104	0	81	20424
2026-01-12 21:32:18.08	202.37	2.87	-57.2	-60.3	6.2	0.00e+00	0	24	104	0	81	20391
2026-01-12 21:32:19.08	202.45	2.94	-57.2	-60.4	6.2	0.00e+00	0	24	104	0	81	20425
2026-01-12 21:32:20.08	202.54	3.00	-57.2	-60.4	6.2	0.00e+00	0	24	104	0	81	20426
2026-01-12 21:32:21.09	202.62	3.07	-57.2	-60.4	6.2	0.00e+00	0	24	104	0	81	20444
2026-01-12 21:32:22.09	202.71	3.13	-57.2	-60.4	6.2	0.00e+00	0	24	104	0	81	20456
2026-01-12 21:32:23.09	202.79	3.20	-57.2	-60.3	6.2	0.00e+00	0	24	104	0	81	20388
2026-01-12 21:32:24.09	202.88	3.26	-57.2	-60.3	6.2	0.00e+00	0	24	104	0	81	20392
2026-01-12 21:32:25.09	202.96	3.33	-57.2	-60.4	6.2	0.00e+00	0	24	104	0	81	20407
2026-01-12 21:32:26.09	203.05	3.40	-57.2	-60.4	6.2	0.00e+00	0	24	104	0	81	20436
2026-01-12 21:32:27.09	203.13	3.46	-57.2	-60.4	6.2	0.00e+00	0	25	104	0	81	20411
2026-01-12 21:32:28.09	203.22	3.53	-57.2	-60.4	6.2	0.00e+00	0	25	104	0	81	20418
2026-01-12 21:32:29.08	203.31	3.59	-57.2	-60.4	6.2	0.00e+00	0	25	104	0	81	20484
2026-01-12 21:32:30.08	203.40	3.66	-57.2	-60.4	6.2	0.00e+00	0	25	104	0	81	20440
2026-01-12 21:32:31.08	203.48	3.73	-57.2	-60.4	6.2	0.00e+00	0	25	104	0	81	20486
2026-01-12 21:32:32.08	203.57	3.79	-57.2	-60.4	6.2	0.00e+00	0	24	104	0	81	20509
2026-01-12 21:32:33.09	203.66	3.86	-57.2	-60.4	6.2	0.00e+00	0	25	104	0	81	20401
2026-01-12 21:32:34.09	203.75	3.93	-57.2	-60.4	6.2	0.00e+00	0	25	104	0	81	20435
2026-01-12 21:32:35.09	203.84	4.00	-57.2	-60.4	6.2	0.00e+00	0	25	104	0	81	20481
2026-01-12 21:32:36.10	203.93	4.07	-57.2	-60.4	6.2	0.00e+00	0	25	104	0	81	20469
2026-01-12 21:32:37.10	204.03	4.13	-57.2	-60.4	6.2	0.00e+00	0	25	104	0	81	20500
2026-01-12 21:32:38.10	204.12	4.20	-57.2	-60.4	6.2	0.00e+00	0	25	104	0	81	20441
2026-01-12 21:32:39.10	204.21	4.27	-57.2	-60.4	6.2	0.00e+00	0	25	104	0	81	20453
2026-01-12 21:32:40.10	204.30	4.34	-57.2	-60.4	6.2	0.00e+00	0	25	104	0	81	20512
2026-01-12 21:32:41.11	204.40	4.41	-57.2	-60.4	6.2	0.00e+00	0	25	104	0	81	20506
2026-01-12 21:32:42.11	204.49	4.48	-57.2	-60.4	6.2	0.00e+00	0	25	104	0	81	20466
2026-01-12 21:32:43.11	204.58	4.55	-57.2	-60.4	6.2	0.00e+00	0	25	104	0	81	20500
2026-01-12 21:32:44.11	204.68	4.61	-57.2	-60.4	6.2	0.00e+00	0	25	104	0	81	20458
2026-01-12 21:32:45.11	204.77	4.68	-57.2	-60.4	6.2	0.00e+00	0	25	104	0	81	20500
2026-01-12 21:32:46.11	204.87	4.75	-57.2	-60.4	6.2	0.00e+00	0	25	104	0	81	20430
2026-01-12 21:32:47.11	204.97	4.82	-57.2	-60.4	6.2	0.00e+00	0	25	104	0	81	20423
2026-01-12 21:32:48.11	205.06	4.89	-57.2	-60.4	6.2	0.00e+00	0	25	104	0	81	20455
2026-01-12 21:32:49.11	205.16	4.96	-57.2	-60.4	6.2	0.00e+00	0	25	104	0	81	20428
2026-01-12 21:32:50.12	205.26	5.03	-57.2	-60.4	6.2	0.00e+00	0	25	104	0	81	20481
2026-01-12 21:32:51.12	205.36	5.10	-57.3	-60.5	6.2	0.00e+00	0	25	104	0	81	20717
2026-01-12 21:32:52.13	205.46	5.18	-57.3	-60.5	6.2	0.00e+00	0	25	104	0	81	20673
2026-01-12 21:32:53.13	205.56	5.25	-57.2	-60.4	6.2	0.00e+00	0	25	104	0	81	20490
2026-01-12 21:32:54.13	205.66	5.32	-57.2	-60.4	6.2	0.00e+00	0	25	104	0	81	20405
2026-01-12 21:32:55.13	205.76	5.39	-57.3	-60.5	6.2	0.00e+00	0	25	104	0	81	20728
2026-01-12 21:32:56.13	205.86	5.46	-57.3	-60.5	6.2	0.00e+00	0	25	104	0	81	20724
2026-01-12 21:32:57.13	205.97	5.53	-57.2	-60.4	6.2	0.00e+00	0	25	104	0	81	20432
2026-01-12 21:32:58.13	206.07	5.60	-57.2	-60.4	6.2	0.00e+00	0	25	104	0	81	20404
2026-01-12 21:32:59.13	206.17	5.68	-57.3	-60.5	6.2	0.00e+00	0	25	104	0	81	20872
2026-01-12 21:33:00.14	206.28	5.75	-57.3	-60.5	6.2	0.00e+00	0	25	104	0	81	20688
2026-01-12 21:33:01.14	206.38	5.82	-57.2	-60.4	6.2	0.00e+00	0	25	104	0	81	20608
2026-01-12 21:33:02.14	206.49	5.89	-57.2	-60.4	6.2	0.00e+00	0	25	104	0	81	20501
2026-01-12 21:33:03.14	206.59	5.97	-57.3	-60.5	6.2	0.00e+00	0	25	104	0	81	20865
2026-01-12 21:33:04.14	206.70	6.04	-57.3	-60.5	6.2	0.00e+00	0	25	104	0	81	20682
2026-01-12 21:33:05.14	206.81	6.11	-57.2	-60.4	6.2	0.00e+00	0	25	104	0	81	20559
2026-01-12 21:33:06.15	206.91	6.19	-57.2	-60.4	6.2	0.00e+00	0	25	104	0	81	20521
2026-01-12 21:33:07.14	207.02	6.26	-57.4	-60.6	6.2	0.00e+00	0	25	104	0	81	20888
2026-01-12 21:33:08.14	207.13	6.33	-57.3	-60.5	6.2	0.00e+00	0	25	104	0	81	20747
2026-01-12 21:33:09.13	207.24	6.41	-57.3	-60.5	6.2	0.00e+00	0	25	104	0	81	20659
2026-01-12 21:33:10.13	207.35	6.48	-57.3	-60.5	6.2	0.00e+00	0	25	104	0	81	20651
2026-01-12 21:33:11.13	207.46	6.55	-57.4	-60.6	6.2	0.00e+00	0	25	104	0	81	21005
2026-01-12 21:33:12.12	207.57	6.63	-57.4	-60.6	6.2	0.00e+00	0	25	104	0	81	20943
2026-01-12 21:33:13.11	207.68	6.70	-57.3	-60.5	6.2	0.00e+00	0	25	104	0	81	20795
2026-01-12 21:33:14.11	207.80	6.78	-57.3	-60.5	6.2	0.00e+00	0	25	104	0	81	20781
2026-01-12 21:33:15.11	207.91	6.85	-57.4	-60.6	6.2	0.00e+00	0	25	104	0	81	21069
2026-01-12 21:33:16.11	208.02	6.93	-57.4	-60.6	6.2	0.00e+00	0	25	104	0	81	20960
2026-01-12 21:33:17.10	208.14	7.00	-57.3	-60.5	6.2	0.00e+00	0	25	104	0	81	20862
2026-01-12 21:33:18.10	208.25	7.08	-57.3	-60.5	6.2	0.00e+00	0	25	104	0	81	20861
2026-01-12 21:33:19.10	208.37	7.15	-57.4	-60.6	6.2	0.00e+00	0	25	104	0	81	21050
2026-01-12 21:33:20.09	208.49	7.23	-57.4	-60.6	6.2	0.00e+00	0	25	104	0	81	21020
2026-01-12 21:33:21.10	208.60	7.31	-57.4	-60.6	6.2	0.00e+00	0	25	104	0	81	20973
2026-01-12 21:33:22.09	208.72	7.38	-57.4	-60.5	6.2	0.00e+00	0	25	104	0	81	20808
2026-01-12 21:33:23.08	208.84	7.46	-57.5	-60.7	6.2	0.00e+00	0	25	104	0	81	21155
2026-01-12 21:33:24.07	208.96	7.53	-57.5	-60.7	6.2	0.00e+00	0	25	104	0	81	21132
2026-01-12 21:33:25.06	209.08	7.61	-57.4	-60.6	6.2	0.00e+00	0	26	104	0	81	20980
2026-01-12 21:33:26.06	209.20	7.69	-57.4	-60.6	6.2	0.00e+00	0	25	104	0	81	20896
2026-01-12 21:33:27.06	209.32	7.76	-57.5	-60.7	6.2	0.00e+00	0	25	104	0	81	21351
2026-01-12 21:33:28.06	209.45	7.84	-57.5	-60.7	6.2	0.00e+00	0	25	104	0	81	21268
2026-01-12 21:33:29.05	209.57	7.92	-57.4	-60.6	6.2	0.00e+00	0	25	104	0	81	21051
2026-01-12 21:33:30.06	209.69	8.00	-57.4	-60.6	6.2	0.00e+00	0	25	104	0	81	20988
2026-01-12 21:33:31.05	209.82	8.08	-57.5	-60.7	6.2	0.00e+00	0	26	104	0	81	21299
2026-01-12 21:33:32.05	209.95	8.15	-57.5	-60.7	6.2	0.00e+00	0	25	104	0	81	21237
2026-01-12 21:33:33.05	210.07	8.23	-57.4	-60.7	6.2	0.00e+00	0	25	104	0	81	21154
2026-01-12 21:33:34.04	210.20	8.31	-57.4	-60.7	6.2	0.00e+00	0	25	104	0	81	21122
2026-01-12 21:33:35.04	210.33	8.39	-57.5	-60.7	6.2	0.00e+00	0	25	104	0	81	21353
2026-01-12 21:33:36.05	210.46	8.47	-57.5	-60.7	6.2	0.00e+00	0	25	104	0	81	21301
2026-01-12 21:33:37.04	210.59	8.55	-57.5	-60.7	6.2	0.00e+00	0	25	104	0	81	21257
2026-01-12 21:33:38.04	210.72	8.63	-57.5	-60.7	6.2	0.00e+00	0	25	104	0	81	21226
2026-01-12 21:33:39.04	210.85	8.71	-57.6	-60.8	6.2	0.00e+00	0	25	104	0	81	21518
2026-01-12 21:33:40.04	210.98	8.79	-57.6	-60.8	6.2	0.00e+00	0	25	104	0	81	21512
2026-01-12 21:33:41.04	211.12	8.87	-57.5	-60.7	6.2	0.00e+00	0	26	104	0	81	21241
2026-01-12 21:33:42.04	211.25	8.95	-57.5	-60.7	6.2	0.00e+00	0	26	104	0	81	21208
2026-01-12 21:33:43.04	211.39	9.03	-57.6	-60.8	6.2	0.00e+00	0	25	104	0	81	21376
2026-01-12 21:33:44.04	211.52	9.11	-57.6	-60.8	6.2	0.00e+00	0	26	104	0	81	21455
2026-01-12 21:33:45.04	211.66	9.20	-57.5	-60.7	6.2	0.00e+00	0	26	104	0	81	21303
2026-01-12 21:33:46.04	211.80	9.28	-57.5	-60.7	6.2	0.00e+00	0	25	104	0	81	21324
2026-01-12 21:33:47.04	211.94	9.36	-57.6	-60.8	6.2	0.00e+00	0	26	104	0	81	21529
2026-01-12 21:33:48.03	212.08	9.44	-57.6	-60.8	6.2	0.00e+00	0	26	104	0	81	21442
2026-01-12 21:33:49.02	212.22	9.52	-57.5	-60.8	6.2	0.00e+00	0	25	104	0	81	21365
2026-01-12 21:33:50.02	212.36	9.61	-57.6	-60.8	6.2	0.00e+00	0	26	104	0	81	21366
2026-01-12 21:33:51.01	212.50	9.69	-57.6	-60.8	6.2	0.00e+00	0	26	104	0	81	21595
2026-01-12 21:33:52.00	212.64	9.77	-57.6	-60.8	6.2	0.00e+00	0	26	104	0	81	21592
2026-01-12 21:33:53.00	212.79	9.85	-57.6	-60.8	6.2	0.00e+00	0	25	104	0	81	21382
2026-01-12 21:33:54.00	212.93	9.94	-57.6	-60.8	6.2	0.00e+00	0	26	104	0	81	21454
2026-01-12 21:33:55.00	213.08	10.02	-57.6	-60.9	6.2	0.00e+00	0	25	104	0	81	21660
2026-01-12 21:33:56.00	213.23	10.10	-57.6	-60.8	6.2	0.00e+00	0	26	104	0	81	21553
2026-01-12 21:33:57.00	213.38	10.19	-57.6	-60.8	6.2	0.00e+00	0	25	104	0	81	21465
2026-01-12 21:33:58.01	213.53	10.27	-57.6	-60.8	6.2	0.00e+00	0	26	104	0	81	21457
2026-01-12 21:33:59.01	213.68	10.36	-57.7	-60.9	6.2	0.00e+00	0	26	104	0	81	21711
2026-01-12 21:34:00.01	213.83	10.44	-57.6	-60.8	6.2	0.00e+00	0	26	104	0	81	21585
2026-01-12 21:34:01.01	213.98	10.53	-57.6	-60.8	6.2	0.00e+00	0	26	104	0	81	21552
2026-01-12 21:34:02.01	214.14	10.61	-57.6	-60.8	6.2	0.00e+00	0	26	104	0	81	21519
2026-01-12 21:34:03.01	214.29	10.70	-57.7	-60.9	6.2	0.00e+00	0	26	104	0	81	21705
2026-01-12 21:34:04.00	214.44	10.78	-57.7	-60.8	6.2	0.00e+00	0	26	104	0	81	21577
2026-01-12 21:34:05.00	214.60	10.87	-57.6	-60.8	6.2	0.00e+00	0	26	104	0	81	21534
2026-01-12 21:34:06.00	214.76	10.96	-57.6	-60.8	6.2	0.00e+00	0	26	104	0	81	21444
2026-01-12 21:34:07.00	214.92	11.04	-57.7	-60.9	6.2	0.00e+00	0	26	104	0	81	21707
2026-01-12 21:34:08.00	215.08	11.13	-57.7	-60.9	6.2	0.00e+00	0	26	104	0	81	21671
2026-01-12 21:34:08.99	215.24	11.21	-57.7	-60.9	6.2	0.00e+00	0	26	104	0	81	21615
2026-01-12 21:34:09.99	215.40	11.30	-57.6	-60.9	6.2	0.00e+00	0	26	104	0	81	21607
2026-01-12 21:34:10.99	215.56	11.39	-57.7	-60.9	6.2	0.00e+00	0	25	104	0	81	21701
2026-01-12 21:34:11.99	215.73	11.48	-57.7	-60.9	6.2	0.00e+00	0	26	104	0	81	21737
2026-01-12 21:34:12.99	215.89	11.56	-57.7	-60.9	6.2	0.00e+00	0	26	104	0	81	21663
2026-01-12 21:34:13.98	216.06	11.65	-57.7	-60.9	6.2	0.00e+00	0	26	104	0	81	21616
2026-01-12 21:34:14.98	216.23	11.74	-57.7	-60.9	6.2	0.00e+00	0	26	104	0	81	21822
2026-01-12 21:34:15.98	216.40	11.83	-57.7	-60.9	6.2	0.00e+00	0	26	104	0	81	21803
2026-01-12 21:34:16.97	216.57	11.92	-57.7	-60.9	6.2	0.00e+00	0	26	104	0	81	21693
2026-01-12 21:34:17.96	216.74	12.00	-57.7	-60.9	6.2	0.00e+00	0	26	104	0	81	21651
2026-01-12 21:34:18.95	216.91	12.09	-57.7	-60.9	6.2	0.00e+00	0	26	104	0	81	21850
2026-01-12 21:34:19.95	217.08	12.18	-57.7	-60.9	6.2	0.00e+00	0	26	104	0	81	21799
2026-01-12 21:34:20.95	217.26	12.27	-57.7	-60.9	6.2	0.00e+00	0	25	104	0	81	21762
2026-01-12 21:34:21.94	217.43	12.36	-57.7	-60.9	6.2	0.00e+00	0	26	104	0	81	21772
2026-01-12 21:34:22.94	217.61	12.45	-57.8	-61.0	6.2	0.00e+00	0	26	104	0	81	21870
2026-01-12 21:34:23.94	217.79	12.54	-57.8	-61.0	6.2	0.00e+00	0	26	104	0	81	21876
2026-01-12 21:34:24.93	217.96	12.63	-57.7	-60.9	6.2	0.00e+00	0	26	104	0	81	21794
2026-01-12 21:34:25.93	218.15	12.72	-57.7	-60.9	6.2	0.00e+00	0	26	104	0	81	21808
2026-01-12 21:34:26.94	218.33	12.81	-57.8	-61.0	6.2	0.00e+00	0	26	104	0	81	21908
2026-01-12 21:34:27.93	218.51	12.90	-57.8	-61.0	6.2	0.00e+00	0	26	104	0	81	21923
2026-01-12 21:34:28.93	218.70	12.99	-57.7	-61.0	6.2	0.00e+00	0	26	104	0	81	21873
2026-01-12 21:34:29.94	218.89	13.08	-57.7	-61.0	6.2	0.00e+00	0	26	104	0	81	21922
2026-01-12 21:34:30.94	219.07	13.17	-57.8	-61.0	6.2	0.00e+00	0	26	104	0	81	21948
2026-01-12 21:34:31.94	219.26	13.27	-57.8	-61.0	6.2	0.00e+00	0	26	104	0	81	21925
2026-01-12 21:34:32.93	219.45	13.36	-57.8	-61.0	6.1	0.00e+00	0	26	104	0	81	21925
2026-01-12 21:34:33.93	219.64	13.45	-57.8	-61.0	6.2	0.00e+00	0	25	104	0	81	21889
2026-01-12 21:34:34.94	219.84	13.54	-57.8	-61.0	6.2	0.00e+00	0	26	104	0	81	21994
2026-01-12 21:34:35.93	220.03	13.63	-57.8	-61.0	6.2	0.00e+00	0	26	104	0	81	22025
2026-01-12 21:34:36.93	220.23	13.73	-57.8	-61.0	6.2	0.00e+00	0	26	104	0	81	21914
2026-01-12 21:34:37.92	220.42	13.82	-57.8	-61.0	6.2	0.00e+00	0	26	104	0	81	21858
2026-01-12 21:34:38.93	220.63	13.91	-57.8	-61.0	6.1	0.00e+00	0	26	104	0	81	22043
2026-01-12 21:34:39.93	220.83	14.00	-57.8	-61.0	6.2	0.00e+00	0	26	104	0	81	21949
2026-01-12 21:34:40.93	221.03	14.10	-57.8	-61.0	6.2	0.00e+00	0	26	104	0	81	21945
2026-01-12 21:34:41.92	221.23	14.19	-57.8	-61.0	6.2	0.00e+00	0	26	104	0	81	21992
2026-01-12 21:34:42.93	221.44	14.28	-57.8	-61.0	6.2	0.00e+00	0	26	104	0	81	22071
2026-01-12 21:34:43.92	221.64	14.38	-57.8	-61.0	6.2	0.00e+00	0	26	104	0	81	21981
2026-01-12 21:34:44.92	221.85	14.47	-57.8	-61.0	6.2	0.00e+00	0	26	104	0	81	21967
2026-01-12 21:34:45.92	222.06	14.57	-57.8	-61.0	6.2	0.00e+00	0	26	104	0	81	22015
2026-01-12 21:34:46.92	222.27	14.66	-57.8	-61.0	6.2	0.00e+00	0	26	104	0	81	22077
2026-01-12 21:34:47.91	222.48	14.75	-57.8	-61.0	6.2	0.00e+00	0	26	104	0	81	22033
2026-01-12 21:34:48.92	222.69	14.85	-57.8	-61.0	6.2	0.00e+00	0	26	104	0	81	22067
2026-01-12 21:34:49.93	222.91	14.94	-57.8	-61.0	6.2	0.00e+00	0	26	104	0	81	22032
2026-01-12 21:34:50.93	223.13	15.04	-57.8	-61.0	6.2	0.00e+00	0	26	104	0	81	22030
2026-01-12 21:34:51.92	223.34	15.13	-57.8	-61.0	6.2	0.00e+00	0	26	104	0	81	22021
2026-01-12 21:34:52.91	223.56	15.23	-57.8	-61.0	6.2	0.00e+00	0	26	104	0	81	22078
2026-01-12 21:34:53.91	223.78	15.32	-57.8	-61.0	6.2	0.00e+00	0	26	104	0	81	21994
2026-01-12 21:34:54.91	224.01	15.42	-57.9	-61.1	6.2	0.00e+00	0	26	104	0	81	22113
2026-01-12 21:34:55.92	224.23	15.51	-57.8	-61.1	6.2	0.00e+00	0	26	104	0	81	22150
2026-01-12 21:34:56.92	224.46	15.61	-57.8	-61.0	6.2	0.00e+00	0	26	104	0	81	22072
2026-01-12 21:34:57.92	224.69	15.70	-57.8	-61.1	6.2	0.00e+00	0	26	104	0	81	22113
2026-01-12 21:34:58.91	224.92	15.80	-57.9	-61.1	6.2	0.00e+00	0	26	104	0	81	22236
2026-01-12 21:34:59.91	225.15	15.89	-57.9	-61.1	6.2	0.00e+00	0	26	104	0	81	22176
2026-01-12 21:35:00.91	225.38	15.99	-57.8	-61.1	6.2	0.00e+00	0	26	104	0	81	22132
2026-01-12 21:35:01.91	225.61	16.09	-57.9	-61.1	6.2	0.00e+00	0	26	104	0	81	22114
2026-01-12 21:35:02.91	225.85	16.18	-57.9	-61.1	6.2	0.00e+00	0	26	104	0	81	22168
2026-01-12 21:35:03.91	226.09	16.28	-57.9	-61.1	6.2	0.00e+00	0	26	104	0	81	22150
2026-01-12 21:35:04.92	226.33	16.37	-57.9	-61.1	6.2	0.00e+00	0	26	104	0	81	22216
2026-01-12 21:35:05.92	226.57	16.47	-57.9	-61.1	6.2	0.00e+00	0	26	104	0	81	22237
2026-01-12 21:35:06.92	226.82	16.57	-57.9	-61.1	6.2	0.00e+00	0	26	104	0	81	22260
2026-01-12 21:35:07.91	227.06	16.66	-57.9	-61.1	6.2	0.00e+00	0	26	104	0	81	22251
2026-01-12 21:35:08.91	227.31	16.76	-57.9	-61.1	6.2	0.00e+00	0	26	104	0	81	22248
2026-01-12 21:35:09.91	227.56	16.85	-57.9	-61.1	6.2	0.00e+00	0	26	104	0	81	22229
2026-01-12 21:35:10.91	227.81	16.95	-57.9	-61.1	6.2	0.00e+00	0	26	104	0	81	22310
2026-01-12 21:35:11.91	228.06	17.05	-57.9	-61.1	6.2	0.00e+00	0	26	104	0	81	22228
2026-01-12 21:35:12.90	228.31	17.14	-57.9	-61.1	6.2	0.00e+00	0	26	104	0	81	22177
2026-01-12 21:35:13.91	228.57	17.24	-57.9	-61.1	6.2	0.00e+00	0	26	104	0	81	22340
2026-01-12 21:35:14.90	228.82	17.33	-57.9	-61.1	6.2	0.00e+00	0	26	104	0	81	22353
2026-01-12 21:35:15.90	229.08	17.43	-57.9	-61.1	6.1	0.00e+00	0	26	104	0	81	22340
2026-01-12 21:35:16.91	229.35	17.53	-57.9	-61.1	6.2	0.00e+00	0	26	104	0	81	22240
2026-01-12 21:35:17.91	229.61	17.62	-57.9	-61.1	6.2	0.00e+00	0	26	104	0	81	22341
2026-01-12 21:35:18.92	229.88	17.72	-57.9	-61.1	6.2	0.00e+00	0	26	104	0	81	22278
2026-01-12 21:35:19.90	230.14	17.81	-57.9	-61.1	6.2	0.00e+00	0	26	104	0	81	22311
2026-01-12 21:35:20.90	230.41	17.91	-57.9	-61.1	6.2	0.00e+00	0	26	104	0	81	22262
2026-01-12 21:35:21.90	230.68	18.00	-57.9	-61.1	6.2	0.00e+00	0	26	104	0	81	22322
2026-01-12 21:35:22.89	230.95	18.10	-57.9	-61.2	6.2	0.00e+00	0	26	104	0	81	22438
2026-01-12 21:35:23.89	231.23	18.19	-57.9	-61.1	6.2	0.00e+00	0	26	104	0	81	22362
2026-01-12 21:35:24.88	231.50	18.29	-57.9	-61.2	6.2	0.00e+00	0	26	104	0	81	22380
2026-01-12 21:35:25.88	231.78	18.38	-57.9	-61.1	6.2	0.00e+00	0	26	104	0	81	22358
2026-01-12 21:35:26.88	232.06	18.48	-58.0	-61.2	6.1	0.00e+00	0	26	104	0	81	22415
2026-01-12 21:35:27.88	232.34	18.57	-58.0	-61.2	6.2	0.00e+00	0	26	104	0	81	22448
2026-01-12 21:35:28.88	232.63	18.67	-57.9	-61.1	6.2	0.00e+00	0	26	104	0	81	22362
2026-01-12 21:35:29.87	232.91	18.76	-57.9	-61.1	6.2	0.00e+00	0	26	104	0	81	22317
2026-01-12 21:35:30.88	233.20	18.86	-58.0	-61.2	6.2	0.00e+00	0	26	104	0	81	22519
2026-01-12 21:35:31.88	233.49	18.95	-58.0	-61.2	6.2	0.00e+00	0	26	104	0	81	22434
2026-01-12 21:35:32.88	233.78	19.04	-57.9	-61.1	6.2	0.00e+00	0	26	104	0	81	22310
2026-01-12 21:35:33.87	234.07	19.14	-58.0	-61.2	6.2	0.00e+00	0	26	104	0	81	22384
2026-01-12 21:35:34.87	234.37	19.23	-58.0	-61.2	6.2	0.00e+00	0	26	104	0	81	22538
2026-01-12 21:35:35.87	234.67	19.32	-58.0	-61.2	6.2	0.00e+00	0	26	104	0	81	22426
2026-01-12 21:35:36.86	234.97	19.42	-57.9	-61.2	6.2	0.00e+00	0	26	104	0	81	22426
2026-01-12 21:35:37.86	235.27	19.51	-58.0	-61.2	6.2	0.00e+00	0	26	104	0	81	22456
2026-01-12 21:35:38.86	235.57	19.60	-58.0	-61.2	6.2	0.00e+00	0	26	104	0	81	22547
2026-01-12 21:35:39.85	235.88	19.69	-58.0	-61.2	6.2	0.00e+00	0	26	104	0	81	22451
2026-01-12 21:35:40.86	236.19	19.78	-57.9	-61.1	6.2	0.00e+00	0	26	104	0	81	22340
2026-01-12 21:35:41.85	236.50	19.87	-58.0	-61.2	6.2	0.00e+00	0	26	104	0	81	22457
2026-01-12 21:35:42.86	236.81	19.97	-58.0	-61.2	6.2	0.00e+00	0	26	104	0	81	22553
2026-01-12 21:35:43.86	237.13	20.06	-58.0	-61.2	6.2	0.00e+00	0	26	104	0	81	22538
2026-01-12 21:35:44.86	237.44	20.15	-57.9	-61.2	6.2	0.00e+00	0	26	104	0	81	22366
2026-01-12 21:35:45.86	237.76	20.24	-58.0	-61.2	6.2	0.00e+00	0	26	104	0	81	22514
2026-01-12 21:35:46.86	238.08	20.33	-58.0	-61.2	6.2	0.00e+00	0	26	104	0	81	22473
2026-01-12 21:35:47.87	238.41	20.42	-58.0	-61.2	6.2	0.00e+00	0	26	104	0	81	22571
2026-01-12 21:35:48.87	238.73	20.50	-57.9	-61.1	6.2	0.00e+00	0	26	104	0	81	22354
2026-01-12 21:35:49.87	239.06	20.59	-58.0	-61.2	6.2	0.00e+00	0	26	104	0	81	22526
2026-01-12 21:35:50.87	239.39	20.68	-58.0	-61.2	6.2	0.00e+00	0	26	104	0	81	22520
2026-01-12 21:35:51.87	239.72	20.77	-58.0	-61.2	6.2	0.00e+00	0	26	104	0	81	22554
2026-01-12 21:35:52.86	240.05	20.85	-57.9	-61.2	6.2	0.00e+00	0	26	104	0	81	22381
2026-01-12 21:35:53.86	240.39	20.94	-58.0	-61.2	6.2	0.00e+00	0	26	104	0	81	22562
2026-01-12 21:35:54.86	240.73	21.02	-58.0	-61.2	6.2	0.00e+00	0	26	104	0	81	22505
2026-01-12 21:35:55.86	241.06	21.11	-58.0	-61.2	6.2	0.00e+00	0	26	104	0	81	22472
2026-01-12 21:35:56.87	241.41	21.19	-57.9	-61.2	6.2	0.00e+00	0	26	104	0	81	22383
2026-01-12 21:35:57.86	241.75	21.28	-58.0	-61.2	6.2	0.00e+00	0	26	104	0	81	22544
2026-01-12 21:35:58.87	242.10	21.36	-58.0	-61.2	6.2	0.00e+00	0	26	104	0	81	22552
2026-01-12 21:35:59.87	242.45	21.44	-58.0	-61.2	6.2	0.00e+00	0	26	104	0	81	22457
2026-01-12 21:36:00.86	242.79	21.53	-57.9	-61.2	6.2	0.00e+00	0	26	104	0	81	22468
2026-01-12 21:36:01.86	243.14	21.61	-58.0	-61.2	6.2	0.00e+00	0	26	104	0	81	22516
2026-01-12 21:36:02.87	243.50	21.69	-58.0	-61.3	6.2	0.00e+00	0	26	104	0	81	22644
2026-01-12 21:36:03.87	243.86	21.77	-58.0	-61.2	6.2	0.00e+00	0	26	104	0	81	22598
2026-01-12 21:36:04.87	244.22	21.85	-57.9	-61.2	6.2	0.00e+00	0	26	104	0	81	22458
2026-01-12 21:36:05.87	244.58	21.93	-58.0	-61.2	6.2	0.00e+00	0	26	104	0	81	22477
2026-01-12 21:36:06.87	244.94	22.00	-58.0	-61.2	6.2	0.00e+00	0	26	104	0	81	22614
2026-01-12 21:36:07.88	245.30	22.08	-58.0	-61.2	6.2	0.00e+00	0	26	104	0	81	22608
2026-01-12 21:36:08.87	245.67	22.16	-58.0	-61.2	6.2	0.00e+00	0	26	104	0	81	22544
2026-01-12 21:36:09.88	246.04	22.23	-58.0	-61.2	6.2	0.00e+00	0	26	104	0	81	22525
2026-01-12 21:36:10.88	246.41	22.31	-58.0	-61.2	6.2	0.00e+00	0	26	104	0	81	22618
2026-01-12 21:36:11.88	246.78	22.38	-58.0	-61.2	6.1	0.00e+00	0	26	104	0	81	22587
2026-01-12 21:36:12.88	247.15	22.45	-58.0	-61.2	6.1	0.00e+00	0	26	104	0	81	22510
2026-01-12 21:36:13.87	247.52	22.52	-58.0	-61.2	6.2	0.00e+00	0	26	104	0	81	22498
2026-01-12 21:36:14.86	247.90	22.59	-58.0	-61.3	6.2	0.00e+00	0	26	104	0	81	22697
2026-01-12 21:36:15.86	248.28	22.66	-58.0	-61.2	6.2	0.00e+00	0	26	104	0	81	22551
2026-01-12 21:36:16.86	248.66	22.73	-58.0	-61.2	6.2	0.00e+00	0	26	104	0	81	22568
2026-01-12 21:36:17.86	249.04	22.80	-58.0	-61.2	6.2	0.00e+00	0	26	104	0	81	22581
2026-01-12 21:36:18.85	249.42	22.87	-58.1	-61.3	6.2	0.00e+00	0	26	104	0	81	22672
2026-01-12 21:36:19.85	249.81	22.93	-58.0	-61.3	6.2	0.00e+00	0	26	104	0	81	22642
2026-01-12 21:36:20.85	250.20	23.00	-58.0	-61.2	6.2	0.00e+00	0	26	104	0	81	22589
2026-01-12 21:36:21.85	250.59	23.06	-58.0	-61.2	6.2	0.00e+00	0	26	104	0	81	22571
2026-01-12 21:36:22.85	250.98	23.12	-58.1	-61.3	6.2	0.00e+00	0	26	104	0	81	22643
2026-01-12 21:36:23.84	251.37	23.18	-58.0	-61.3	6.2	0.00e+00	0	26	104	0	81	22631
2026-01-12 21:36:24.84	251.76	23.24	-58.0	-61.3	6.2	0.00e+00	0	26	104	0	81	22680
2026-01-12 21:36:25.84	252.16	23.30	-58.0	-61.2	6.1	0.00e+00	0	26	104	0	81	22619
2026-01-12 21:36:26.84	252.56	23.36	-58.1	-61.3	6.2	0.00e+00	0	26	104	0	81	22673
2026-01-12 21:36:27.83	252.95	23.42	-58.1	-61.2	6.2	0.00e+00	0	26	104	0	81	22620
2026-01-12 21:36:28.84	253.36	23.48	-58.0	-61.3	6.1	0.00e+00	0	26	104	0	81	22682
2026-01-12 21:36:29.84	253.76	23.53	-58.0	-61.3	6.2	0.00e+00	0	26	104	0	81	22625
2026-01-12 21:36:30.84	254.16	23.58	-58.1	-61.3	6.2	0.00e+00	0	26	104	0	81	22762
2026-01-12 21:36:31.84	254.57	23.64	-58.0	-61.3	6.2	0.00e+00	0	26	104	0	81	22671
2026-01-12 21:36:32.83	254.97	23.69	-58.0	-61.2	6.2	0.00e+00	0	26	104	0	81	22540
2026-01-12 21:36:33.84	255.39	23.74	-58.0	-61.3	6.2	0.00e+00	0	26	104	0	81	22709
2026-01-12 21:36:34.84	255.80	23.79	-58.1	-61.3	6.2	0.00e+00	0	26	104	0	81	22781
2026-01-12 21:36:35.85	256.21	23.83	-58.1	-61.3	6.2	0.00e+00	0	26	104	0	81	22713
2026-01-12 21:36:36.85	256.62	23.88	-58.0	-61.2	6.2	0.00e+00	0	26	104	0	81	22577
2026-01-12 21:36:37.84	257.03	23.92	-58.0	-61.2	6.2	0.00e+00	0	26	104	0	81	22588
2026-01-12 21:36:38.84	257.45	23.97	-58.1	-61.3	6.2	0.00e+00	0	26	104	0	81	22746
2026-01-12 21:36:39.84	257.87	24.01	-58.1	-61.3	6.2	0.00e+00	0	26	104	0	81	22770
2026-01-12 21:36:40.84	258.28	24.05	-58.0	-61.3	6.2	0.00e+00	0	26	104	0	81	22652
2026-01-12 21:36:41.83	258.70	24.09	-58.1	-61.3	6.2	0.00e+00	0	26	104	0	81	22707
2026-01-12 21:36:42.84	259.12	24.13	-58.1	-61.3	6.2	0.00e+00	0	26	104	0	81	22731
2026-01-12 21:36:43.84	259.54	24.16	-58.1	-61.3	6.2	0.00e+00	0	26	104	0	81	22751
2026-01-12 21:36:44.85	259.97	24.20	-58.0	-61.3	6.2	0.00e+00	0	26	104	0	81	22712
2026-01-12 21:36:45.86	260.40	24.23	-58.1	-61.3	6.2	0.00e+00	0	26	104	0	81	22680
2026-01-12 21:36:46.86	260.82	24.26	-58.1	-61.3	6.2	0.00e+00	0	26	104	0	81	22846
2026-01-12 21:36:47.85	261.24	24.29	-58.1	-61.3	6.2	0.00e+00	0	26	104	0	81	22779
2026-01-12 21:36:48.85	261.67	24.32	-58.1	-61.3	6.2	0.00e+00	0	26	104	0	81	22707
2026-01-12 21:36:49.86	262.10	24.35	-58.1	-61.3	6.2	0.00e+00	0	26	104	0	81	22747
2026-01-12 21:36:50.87	262.53	24.38	-58.2	-61.4	6.2	0.00e+00	0	26	104	0	82	21807
2026-01-12 21:36:51.86	262.96	24.40	-58.2	-61.4	6.2	0.00e+00	0	26	104	0	82	21679
2026-01-12 21:36:52.86	263.38	24.42	-58.1	-61.4	6.2	0.00e+00	0	26	104	0	82	21635
2026-01-12 21:36:53.86	263.81	24.45	-58.2	-61.4	6.2	0.00e+00	0	26	104	0	82	21676
2026-01-12 21:36:54.86	264.24	24.47	-58.2	-61.4	6.1	0.00e+00	0	26	104	0	82	21765
2026-01-12 21:36:55.85	264.67	24.48	-58.2	-61.4	6.2	0.00e+00	0	26	104	0	82	21728
2026-01-12 21:36:56.84	265.10	24.50	-58.1	-61.4	6.2	0.00e+00	0	26	104	0	82	21734
2026-01-12 21:36:57.84	265.53	24.52	-58.2	-61.4	6.2	0.00e+00	0	26	104	0	82	21688
2026-01-12 21:36:58.85	265.97	24.53	-58.2	-61.4	6.2	0.00e+00	0	26	104	0	82	21767
2026-01-12 21:36:59.85	266.40	24.54	-58.2	-61.4	6.2	0.00e+00	0	26	104	0	82	21705
2026-01-12 21:37:00.85	266.83	24.55	-58.1	-61.3	6.2	0.00e+00	0	26	104	0	82	21606
2026-01-12 21:37:01.85	267.26	24.56	-58.2	-61.4	6.2	0.00e+00	0	26	104	0	82	21644
2026-01-12 21:37:02.85	267.70	24.57	-58.2	-61.4	6.2	0.00e+00	0	26	104	0	82	21816
2026-01-12 21:37:03.85	268.13	24.58	-58.2	-61.4	6.2	0.00e+00	0	26	104	0	82	21772
2026-01-12 21:37:04.84	268.56	24.58	-58.1	-61.4	6.2	0.00e+00	0	26	104	0	82	21670
2026-01-12 21:37:05.85	269.00	24.58	-58.2	-61.4	6.2	0.00e+00	0	26	104	0	82	21691
2026-01-12 21:37:06.85	269.43	24.58	-58.2	-61.5	6.2	0.00e+00	0	26	104	0	82	21916
2026-01-12 21:37:07.86	269.87	24.58	-58.2	-61.4	6.2	0.00e+00	0	26	104	0	82	21848
2026-01-12 21:37:08.85	270.30	24.58	-58.2	-61.4	6.2	0.00e+00	0	26	104	0	82	21762
2026-01-12 21:37:09.85	270.73	24.58	-58.2	-61.4	6.2	0.00e+00	0	26	104	0	82	21768
2026-01-12 21:37:10.85	271.17	24.57	-58.3	-61.5	6.2	0.00e+00	0	26	104	0	82	21892
2026-01-12 21:37:11.85	271.60	24.57	-58.2	-61.5	6.2	0.00e+00	0	26	104	0	82	21879
2026-01-12 21:37:12.85	272.03	24.56	-58.2	-61.4	6.2	0.00e+00	0	26	104	0	82	21810
2026-01-12 21:37:13.85	272.46	24.55	-58.2	-61.4	6.2	0.00e+00	0	26	104	0	82	21826
2026-01-12 21:37:14.84	272.89	24.54	-58.3	-61.5	6.2	0.00e+00	0	26	104	0	82	21912
2026-01-12 21:37:15.84	273.32	24.52	-58.3	-61.5	6.2	0.00e+00	0	26	104	0	82	21901
2026-01-12 21:37:16.84	273.76	24.51	-58.2	-61.5	6.2	0.00e+00	0	26	104	0	82	21873
2026-01-12 21:37:17.84	274.19	24.49	-58.2	-61.4	6.2	0.00e+00	0	26	104	0	82	21719
2026-01-12 21:37:18.84	274.62	24.48	-58.3	-61.6	6.2	0.00e+00	0	26	104	0	82	22140
2026-01-12 21:37:19.84	275.05	24.46	-58.3	-61.5	6.2	0.00e+00	0	26	104	0	82	21975
2026-01-12 21:37:20.84	275.48	24.44	-58.3	-61.5	6.2	0.00e+00	0	26	104	0	82	22061
2026-01-12 21:37:21.83	275.90	24.41	-58.3	-61.5	6.2	0.00e+00	0	26	104	0	82	21930
2026-01-12 21:37:22.83	276.33	24.39	-58.3	-61.5	6.2	0.00e+00	0	26	104	0	82	22090
2026-01-12 21:37:23.83	276.76	24.37	-58.3	-61.5	6.2	0.00e+00	0	26	104	0	82	21889
2026-01-12 21:37:24.83	277.18	24.34	-58.2	-61.5	6.2	0.00e+00	0	26	104	0	82	21897
2026-01-12 21:37:25.83	277.61	24.31	-58.3	-61.5	6.2	0.00e+00	0	26	104	0	82	21887
2026-01-12 21:37:26.83	278.04	24.28	-58.3	-61.5	6.2	0.00e+00	0	26	104	0	82	22083
2026-01-12 21:37:27.83	278.46	24.25	-58.3	-61.5	6.2	0.00e+00	0	26	104	0	82	22015
2026-01-12 21:37:28.83	278.88	24.22	-58.2	-61.5	6.2	0.00e+00	0	26	104	0	82	21952
2026-01-12 21:37:29.83	279.30	24.18	-58.3	-61.5	6.2	0.00e+00	0	26	104	0	82	21890
2026-01-12 21:37:30.83	279.73	24.15	-58.3	-61.5	6.2	0.00e+00	0	26	104	0	82	22090
2026-01-12 21:37:31.83	280.15	24.11	-58.3	-61.5	6.2	0.00e+00	0	26	104	0	82	22059
2026-01-12 21:37:32.83	280.56	24.07	-58.3	-61.5	6.2	0.00e+00	0	26	104	0	82	22037
2026-01-12 21:37:33.82	280.98	24.03	-58.3	-61.5	6.2	0.00e+00	0	26	104	0	82	21983
2026-01-12 21:37:34.82	281.39	23.99	-58.3	-61.6	6.2	0.00e+00	0	26	104	0	82	22117
2026-01-12 21:37:35.81	281.81	23.95	-58.4	-61.6	6.2	0.00e+00	0	26	104	0	82	22172
2026-01-12 21:37:36.82	282.22	23.91	-58.3	-61.6	6.1	0.00e+00	0	26	104	0	82	22110
2026-01-12 21:37:37.81	282.63	23.86	-58.3	-61.5	6.2	0.00e+00	0	26	104	0	82	22050
2026-01-12 21:37:38.81	283.04	23.82	-58.4	-61.6	6.2	0.00e+00	0	26	104	0	82	22157
2026-01-12 21:37:39.81	283.45	23.77	-58.4	-61.6	6.2	0.00e+00	0	26	104	0	82	22219
2026-01-12 21:37:40.80	283.86	23.72	-58.3	-61.6	6.2	0.00e+00	0	26	104	0	82	22147
2026-01-12 21:37:41.80	284.27	23.67	-58.3	-61.5	6.2	0.00e+00	0	26	104	0	82	22092
2026-01-12 21:37:42.79	284.67	23.62	-58.3	-61.6	6.2	0.00e+00	0	26	104	0	82	22173
2026-01-12 21:37:43.79	285.07	23.57	-58.4	-61.6	6.2	0.00e+00	0	26	104	0	82	22223
2026-01-12 21:37:44.80	285.48	23.51	-58.4	-61.6	6.2	0.00e+00	0	26	104	0	82	22268
2026-01-12 21:37:45.79	285.88	23.46	-58.4	-61.6	6.2	0.00e+00	0	26	104	0	82	22176
2026-01-12 21:37:46.79	286.28	23.40	-58.4	-61.6	6.2	0.00e+00	0	26	104	0	82	22226
2026-01-12 21:37:47.79	286.68	23.34	-58.4	-61.6	6.2	0.00e+00	0	26	104	0	82	22350
2026-01-12 21:37:48.79	287.07	23.29	-58.4	-61.6	6.2	0.00e+00	0	26	104	0	82	22284
2026-01-12 21:37:49.78	287.46	23.23	-58.4	-61.6	6.2	0.00e+00	0	26	104	0	82	22284
2026-01-12 21:37:50.78	287.86	23.17	-58.4	-61.6	6.2	0.00e+00	0	26	104	0	82	22165
2026-01-12 21:37:51.78	288.25	23.10	-58.4	-61.6	6.2	0.00e+00	0	26	104	0	82	22293
2026-01-12 21:37:52.77	288.63	23.04	-58.4	-61.6	6.2	0.00e+00	0	26	104	0	82	22248
2026-01-12 21:37:53.78	289.03	22.98	-58.4	-61.6	6.2	0.00e+00	0	26	104	0	82	22138
2026-01-12 21:37:54.78	289.41	22.91	-58.4	-61.6	6.1	0.00e+00	0	26	104	0	82	22323
2026-01-12 21:37:55.77	289.79	22.85	-58.4	-61.6	6.2	0.00e+00	0	26	104	0	82	22318
2026-01-12 21:37:56.77	290.18	22.78	-58.4	-61.6	6.2	0.00e+00	0	26	104	0	82	22311
2026-01-12 21:37:57.76	290.55	22.71	-58.4	-61.6	6.2	0.00e+00	0	26	104	0	82	22277
2026-01-12 21:37:58.76	290.93	22.64	-58.4	-61.6	6.2	0.00e+00	0	26	104	0	82	22318
2026-01-12 21:37:59.76	291.31	22.57	-58.4	-61.7	6.2	0.00e+00	0	26	104	0	82	22424
2026-01-12 21:38:00.76	291.69	22.50	-58.4	-61.7	6.2	0.00e+00	0	26	104	0	82	22419
2026-01-12 21:38:01.75	292.05	22.43	-58.4	-61.6	6.2	0.00e+00	0	26	104	0	82	22349
2026-01-12 21:38:02.75	292.43	22.36	-58.4	-61.6	6.2	0.00e+00	0	26	104	0	82	22361
2026-01-12 21:38:03.76	292.80	22.28	-58.5	-61.7	6.2	0.00e+00	0	26	104	0	82	22401
2026-01-12 21:38:04.76	293.17	22.21	-58.5	-61.7	6.2	0.00e+00	0	26	104	0	82	22503
2026-01-12 21:38:05.76	293.53	22.14	-58.4	-61.7	6.2	0.00e+00	0	26	104	0	82	22400
2026-01-12 21:38:06.76	293.90	22.06	-58.5	-61.7	6.2	0.00e+00	0	26	104	0	82	22407
2026-01-12 21:38:07.77	294.26	21.98	-58.5	-61.7	6.2	0.00e+00	0	26	104	0	82	22491
2026-01-12 21:38:08.77	294.62	21.90	-58.5	-61.7	6.2	0.00e+00	0	26	104	0	82	22455
2026-01-12 21:38:09.77	294.98	21.83	-58.4	-61.7	6.2	0.00e+00	0	26	104	0	82	22389
2026-01-12 21:38:10.78	295.34	21.75	-58.4	-61.7	6.2	0.00e+00	0	26	104	0	82	22383
2026-01-12 21:38:11.78	295.69	21.67	-58.4	-61.7	6.2	0.00e+00	0	26	104	0	82	22404
2026-01-12 21:38:12.78	296.05	21.59	-58.4	-61.7	6.2	0.00e+00	0	26	104	0	82	22374
2026-01-12 21:38:13.78	296.40	21.51	-58.4	-61.6	6.2	0.00e+00	0	26	104	0	82	22353
2026-01-12 21:38:14.78	296.74	21.42	-58.5	-61.7	6.2	0.00e+00	0	26	104	0	82	22433
2026-01-12 21:38:15.78	297.09	21.34	-58.5	-61.7	6.2	0.00e+00	0	26	104	0	82	22481
2026-01-12 21:38:16.79	297.44	21.26	-58.5	-61.7	6.2	0.00e+00	0	26	104	0	82	22372
2026-01-12 21:38:17.77	297.77	21.18	-58.5	-61.7	6.2	0.00e+00	0	26	104	0	82	22494
2026-01-12 21:38:18.77	298.11	21.09	-58.4	-61.7	6.2	0.00e+00	0	26	104	0	82	22413
2026-01-12 21:38:19.76	298.44	21.01	-58.5	-61.7	6.1	0.00e+00	0	26	104	0	82	22462
2026-01-12 21:38:20.76	298.78	20.92	-58.5	-61.7	6.2	0.00e+00	0	26	104	0	82	22396
2026-01-12 21:38:21.76	299.11	20.84	-58.5	-61.7	6.2	0.00e+00	0	26	104	0	82	22473
2026-01-12 21:38:22.75	299.44	20.75	-58.4	-61.6	6.2	0.00e+00	0	26	104	0	82	22324
2026-01-12 21:38:23.75	299.77	20.66	-58.5	-61.7	6.2	0.00e+00	0	26	104	0	82	22465
2026-01-12 21:38:24.75	300.10	20.58	-58.5	-61.6	6.2	0.00e+00	0	26	104	0	82	22364
2026-01-12 21:38:25.75	300.42	20.49	-58.4	-61.7	6.2	0.00e+00	0	26	104	0	82	22399
2026-01-12 21:38:26.74	300.74	20.40	-58.4	-61.6	6.2	0.00e+00	0	26	104	0	82	22349
2026-01-12 21:38:27.74	301.06	20.31	-58.5	-61.6	6.2	0.00e+00	0	26	104	0	82	22346
2026-01-12 21:38:28.73	301.38	20.23	-58.4	-61.7	6.2	0.00e+00	0	26	104	0	82	22477
2026-01-12 21:38:29.73	301.70	20.14	-58.4	-61.6	6.2	0.00e+00	0	26	104	0	82	22343
2026-01-12 21:38:30.73	302.01	20.05	-58.4	-61.6	6.2	0.00e+00	0	26	104	0	82	22310
2026-01-12 21:38:31.73	302.33	19.96	-58.5	-61.7	6.2	0.00e+00	0	26	104	0	82	22409
2026-01-12 21:38:32.73	302.64	19.87	-58.4	-61.6	6.2	0.00e+00	0	26	104	0	82	22305
2026-01-12 21:38:33.73	302.95	19.77	-58.4	-61.6	6.2	0.00e+00	0	26	104	0	82	22337
2026-01-12 21:38:34.73	303.25	19.68	-58.4	-61.6	6.1	0.00e+00	0	26	104	0	82	22269
2026-01-12 21:38:35.73	303.56	19.59	-58.4	-61.6	6.2	0.00e+00	0	26	104	0	82	22308
2026-01-12 21:38:36.72	303.86	19.50	-58.4	-61.6	6.2	0.00e+00	0	26	104	0	82	22261
2026-01-12 21:38:37.72	304.16	19.41	-58.4	-61.6	6.2	0.00e+00	0	26	104	0	82	22270
2026-01-12 21:38:38.72	304.46	19.32	-58.4	-61.6	6.2	0.00e+00	0	26	104	0	82	22171
2026-01-12 21:38:39.71	304.75	19.22	-58.4	-61.6	6.2	0.00e+00	0	26	104	0	82	22170
2026-01-12 21:38:40.71	305.04	19.13	-58.4	-61.6	6.2	0.00e+00	0	26	104	0	82	22226
2026-01-12 21:38:41.70	305.33	19.04	-58.4	-61.6	6.2	0.00e+00	0	26	104	0	82	22258
2026-01-12 21:38:42.70	305.62	18.95	-58.4	-61.6	6.2	0.00e+00	0	26	104	0	82	22240
2026-01-12 21:38:43.69	305.91	18.85	-58.4	-61.6	6.2	0.00e+00	0	26	104	0	82	22196
2026-01-12 21:38:44.69	306.20	18.76	-58.4	-61.6	6.2	0.00e+00	0	26	104	0	82	22216
2026-01-12 21:38:45.70	306.48	18.66	-58.4	-61.5	6.1	0.00e+00	0	26	104	0	82	22081
2026-01-12 21:38:46.69	306.76	18.57	-58.3	-61.6	6.2	0.00e+00	0	26	104	0	82	22111
2026-01-12 21:38:47.69	307.05	18.48	-58.4	-61.6	6.2	0.00e+00	0	26	104	0	82	22165
2026-01-12 21:38:48.70	307.33	18.38	-58.3	-61.6	6.2	0.00e+00	0	26	104	0	82	22188
2026-01-12 21:38:49.70	307.60	18.29	-58.3	-61.5	6.2	0.00e+00	0	26	104	0	82	22087
2026-01-12 21:38:50.69	307.88	18.19	-58.3	-61.5	6.2	0.00e+00	0	26	104	0	82	22039
2026-01-12 21:38:51.69	308.15	18.10	-58.3	-61.5	6.2	0.00e+00	0	26	104	0	82	22029
2026-01-12 21:38:52.69	308.42	18.00	-58.3	-61.5	6.2	0.00e+00	0	26	104	0	82	21970
2026-01-12 21:38:53.70	308.69	17.91	-58.3	-61.5	6.2	0.00e+00	0	26	104	0	82	22098
2026-01-12 21:38:54.69	308.96	17.81	-58.3	-61.5	6.2	0.00e+00	0	26	104	0	82	22023
2026-01-12 21:38:55.68	309.22	17.72	-58.3	-61.5	6.2	0.00e+00	0	26	104	0	82	22053
2026-01-12 21:38:56.68	309.48	17.62	-58.3	-61.5	6.2	0.00e+00	0	26	104	0	82	22063
2026-01-12 21:38:57.68	309.75	17.53	-58.3	-61.5	6.2	0.00e+00	0	26	104	0	82	22038
2026-01-12 21:38:58.67	310.00	17.43	-58.3	-61.5	6.2	0.00e+00	0	26	104	0	82	21976
2026-01-12 21:38:59.67	310.26	17.34	-58.3	-61.5	6.2	0.00e+00	0	26	104	0	82	22050
2026-01-12 21:39:00.67	310.52	17.24	-58.3	-61.5	6.2	0.00e+00	0	26	104	0	82	22019
2026-01-12 21:39:01.67	310.77	17.15	-58.3	-61.5	6.2	0.00e+00	0	26	104	0	82	21995
2026-01-12 21:39:02.67	311.02	17.05	-58.3	-61.5	6.2	0.00e+00	0	26	104	0	82	21988
2026-01-12 21:39:03.67	311.28	16.96	-58.3	-61.5	6.2	0.00e+00	0	26	104	0	82	21996
2026-01-12 21:39:04.67	311.52	16.86	-58.3	-61.5	6.2	0.00e+00	0	26	104	0	82	21974
2026-01-12 21:39:05.67	311.77	16.77	-58.3	-61.5	6.2	0.00e+00	0	26	104	0	82	21922
2026-01-12 21:39:06.67	312.02	16.67	-58.3	-61.5	6.2	0.00e+00	0	26	104	0	82	21946
2026-01-12 21:39:07.68	312.26	16.57	-58.3	-61.5	6.1	0.00e+00	0	26	104	0	82	21873
2026-01-12 21:39:08.67	312.50	16.48	-58.2	-61.5	6.1	0.00e+00	0	26	104	0	82	21926
2026-01-12 21:39:09.67	312.74	16.38	-58.2	-61.4	6.2	0.00e+00	0	26	104	0	82	21829
2026-01-12 21:39:10.67	312.98	16.29	-58.2	-61.5	6.2	0.00e+00	0	26	104	0	82	21861
2026-01-12 21:39:11.67	313.22	16.19	-58.2	-61.4	6.2	0.00e+00	0	26	104	0	82	21851
2026-01-12 21:39:12.66	313.45	16.10	-58.2	-61.4	6.2	0.00e+00	0	26	104	0	82	21818
2026-01-12 21:39:13.67	313.69	16.00	-58.2	-61.4	6.2	0.00e+00	0	26	104	0	82	21845
2026-01-12 21:39:14.67	313.92	15.91	-58.2	-61.5	6.2	0.00e+00	0	26	104	0	82	21859
2026-01-12 21:39:15.67	314.15	15.81	-58.2	-61.4	6.2	0.00e+00	0	26	104	0	82	21713
2026-01-12 21:39:16.66	314.37	15.72	-58.2	-61.4	6.2	0.00e+00	0	26	104	0	82	21699
2026-01-12 21:39:17.66	314.60	15.62	-58.2	-61.4	6.2	0.00e+00	0	26	104	0	82	21655
2026-01-12 21:39:18.66	314.83	15.53	-58.2	-61.4	6.2	0.00e+00	0	26	104	0	82	21688
2026-01-12 21:39:19.66	315.05	15.44	-58.2	-61.4	6.2	0.00e+00	0	26	104	0	82	21716
2026-01-12 21:39:20.66	315.27	15.34	-58.1	-61.4	6.2	0.00e+00	0	26	104	0	82	21653
2026-01-12 21:39:21.66	315.49	15.25	-58.1	-61.3	6.2	0.00e+00	0	26	104	0	82	21526
2026-01-12 21:39:22.67	315.71	15.15	-58.1	-61.4	6.2	0.00e+00	0	26	104	0	82	21653
2026-01-12 21:39:23.66	315.93	15.06	-58.1	-61.4	6.2	0.00e+00	0	26	104	0	82	21654
2026-01-12 21:39:24.66	316.14	14.96	-58.1	-61.4	6.2	0.00e+00	0	26	104	0	82	21609
2026-01-12 21:39:25.65	316.36	14.87	-58.1	-61.3	6.2	0.00e+00	0	26	104	0	82	21421
2026-01-12 21:39:26.65	316.57	14.78	-58.1	-61.3	6.2	0.00e+00	0	26	104	0	82	21604
2026-01-12 21:39:27.64	316.78	14.68	-58.1	-61.3	6.2	0.00e+00	0	26	104	0	82	21570
2026-01-12 21:39:28.65	316.99	14.59	-58.1	-61.3	6.2	0.00e+00	0	26	104	0	82	21414
2026-01-12 21:39:29.65	317.20	14.50	-58.1	-61.3	6.2	0.00e+00	0	26	104	0	82	21402
2026-01-12 21:39:30.64	317.40	14.40	-58.1	-61.3	6.2	0.00e+00	0	26	104	0	82	21526
2026-01-12 21:39:31.63	317.61	14.31	-58.1	-61.3	6.2	0.00e+00	0	26	104	0	82	21379
2026-01-12 21:39:32.63	317.81	14.22	-58.0	-61.2	6.2	0.00e+00	0	26	104	0	82	21331
2026-01-12 21:39:33.63	318.01	14.13	-58.0	-61.2	6.2	0.00e+00	0	26	104	0	82	21258
2026-01-12 21:39:34.63	318.21	14.03	-58.1	-61.3	6.2	0.00e+00	0	26	104	0	82	21491
2026-01-12 21:39:35.63	318.41	13.94	-58.0	-61.2	6.2	0.00e+00	0	26	104	0	82	21321
2026-01-12 21:39:36.63	318.61	13.85	-58.0	-61.2	6.2	0.00e+00	0	26	104	0	82	21277
2026-01-12 21:39:37.63	318.81	13.76	-58.0	-61.2	6.2	0.00e+00	0	26	104	0	82	21212
2026-01-12 21:39:38.64	319.00	13.67	-58.0	-61.2	6.2	0.00e+00	0	26	104	0	82	21352
2026-01-12 21:39:39.64	319.20	13.57	-58.0	-61.2	6.2	0.00e+00	0	26	104	0	82	21278
2026-01-12 21:39:40.64	319.39	13.48	-58.0	-61.2	6.2	0.00e+00	0	26	104	0	82	21206
2026-01-12 21:39:41.64	319.58	13.39	-58.0	-61.2	6.2	0.00e+00	0	26	104	0	82	21152
2026-01-12 21:39:42.64	319.77	13.30	-58.0	-61.2	6.2	0.00e+00	0	26	104	0	82	21226
2026-01-12 21:39:43.63	319.96	13.21	-58.0	-61.2	6.2	0.00e+00	0	26	104	0	82	21141
2026-01-12 21:39:44.63	320.14	13.12	-58.0	-61.1	6.2	0.00e+00	0	26	104	0	82	21072
2026-01-12 21:39:45.64	320.33	13.03	-58.0	-61.2	6.2	0.00e+00	0	26	104	0	82	21128
2026-01-12 21:39:46.64	320.51	12.94	-58.0	-61.2	6.2	0.00e+00	0	26	104	0	82	21191
2026-01-12 21:39:47.64	320.70	12.85	-57.9	-61.1	6.2	0.00e+00	0	26	104	0	82	21105
2026-01-12 21:39:48.64	320.88	12.76	-57.9	-61.1	6.2	0.00e+00	0	26	104	0	82	21098
2026-01-12 21:39:49.64	321.06	12.67	-57.9	-61.1	6.1	0.00e+00	0	26	104	0	82	21047
2026-01-12 21:39:50.63	321.24	12.58	-57.9	-61.2	6.2	0.00e+00	0	26	104	0	82	21142
2026-01-12 21:39:51.64	321.42	12.49	-57.9	-61.1	6.2	0.00e+00	0	26	104	0	82	21079
2026-01-12 21:39:52.63	321.59	12.40	-57.9	-61.1	6.2	0.00e+00	0	26	104	0	82	20931
2026-01-12 21:39:53.63	321.77	12.31	-57.9	-61.1	6.2	0.00e+00	0	26	104	0	82	20924
2026-01-12 21:39:54.64	321.94	12.22	-57.9	-61.1	6.2	0.00e+00	0	26	104	0	82	21029
2026-01-12 21:39:55.63	322.12	12.13	-57.9	-61.1	6.2	0.00e+00	0	26	104	0	82	20989
2026-01-12 21:39:56.64	322.29	12.04	-57.9	-61.1	6.2	0.00e+00	0	26	104	0	82	20882
2026-01-12 21:39:57.64	322.46	11.96	-57.8	-61.0	6.2	0.00e+00	0	26	104	0	82	20832
2026-01-12 21:39:58.65	322.63	11.87	-57.9	-61.1	6.2	0.00e+00	0	26	104	0	82	21044
2026-01-12 21:39:59.65	322.80	11.78	-57.9	-61.1	6.2	0.00e+00	0	26	104	0	82	20904
2026-01-12 21:40:00.64	322.97	11.69	-57.8	-61.1	6.2	0.00e+00	0	26	104	0	82	20891
2026-01-12 21:40:01.64	323.13	11.61	-57.8	-61.0	6.2	0.00e+00	0	26	104	0	82	20800
2026-01-12 21:40:02.64	323.30	11.52	-57.9	-61.1	6.2	0.00e+00	0	26	104	0	82	20927
2026-01-12 21:40:03.64	323.46	11.43	-57.8	-61.0	6.2	0.00e+00	0	26	104	0	82	20843
2026-01-12 21:40:04.62	323.62	11.35	-57.8	-61.0	6.2	0.00e+00	0	26	104	0	82	20784
2026-01-12 21:40:05.62	323.78	11.26	-57.8	-61.0	6.2	0.00e+00	0	26	104	0	82	20814
2026-01-12 21:40:06.62	323.94	11.17	-57.8	-61.0	6.2	0.00e+00	0	26	104	0	82	20794
2026-01-12 21:40:07.62	324.10	11.09	-57.8	-61.0	6.2	0.00e+00	0	26	104	0	82	20817
2026-01-12 21:40:08.63	324.26	11.00	-57.8	-61.0	6.2	0.00e+00	0	26	104	0	82	20759
2026-01-12 21:40:09.62	324.42	10.92	-57.7	-60.9	6.2	0.00e+00	0	26	104	0	82	20609
2026-01-12 21:40:10.63	324.57	10.83	-57.8	-61.0	6.2	0.00e+00	0	26	104	0	82	20755
2026-01-12 21:40:11.64	324.73	10.74	-57.8	-61.0	6.2	0.00e+00	0	26	104	0	82	20668
2026-01-12 21:40:12.64	324.89	10.66	-57.7	-61.0	6.2	0.00e+00	0	26	104	0	82	20651
2026-01-12 21:40:13.64	325.04	10.57	-57.7	-61.0	6.2	0.00e+00	0	26	104	0	82	20649
2026-01-12 21:40:14.63	325.19	10.49	-57.8	-61.0	6.2	0.00e+00	0	26	104	0	82	20702
2026-01-12 21:40:15.63	325.34	10.41	-57.7	-60.9	6.2	0.00e+00	0	26	104	0	82	20573
2026-01-12 21:40:16.63	325.49	10.32	-57.7	-60.9	6.2	0.00e+00	0	26	104	0	82	20625
2026-01-12 21:40:17.63	325.64	10.24	-57.7	-60.9	6.2	0.00e+00	0	26	104	0	82	20584
2026-01-12 21:40:18.63	325.79	10.16	-57.7	-60.9	6.2	0.00e+00	0	26	104	0	82	20585
2026-01-12 21:40:19.63	325.93	10.07	-57.7	-60.9	6.2	0.00e+00	0	26	104	0	82	20515
2026-01-12 21:40:20.63	326.08	9.99	-57.7	-60.9	6.2	0.00e+00	0	26	104	0	82	20522
2026-01-12 21:40:21.63	326.23	9.91	-57.7	-60.8	6.2	0.00e+00	0	26	104	0	82	20389
2026-01-12 21:40:22.62	326.37	9.82	-57.7	-60.9	6.2	0.00e+00	0	26	104	0	82	20493
2026-01-12 21:40:23.62	326.51	9.74	-57.7	-60.9	6.2	0.00e+00	0	26	104	0	82	20408
2026-01-12 21:40:24.62	326.65	9.66	-57.6	-60.9	6.2	0.00e+00	0	26	104	0	82	20403
2026-01-12 21:40:25.62	326.79	9.58	-57.6	-60.8	6.2	0.00e+00	0	26	104	0	82	20295
2026-01-12 21:40:26.62	326.94	9.50	-57.6	-60.9	6.2	0.00e+00	0	26	104	0	82	20403
2026-01-12 21:40:27.61	327.07	9.42	-57.6	-60.8	6.2	0.00e+00	0	26	104	0	82	20345
2026-01-12 21:40:28.61	327.21	9.33	-57.6	-60.8	6.2	0.00e+00	0	26	104	0	82	20235
2026-01-12 21:40:29.60	327.35	9.25	-57.6	-60.8	6.2	0.00e+00	0	26	104	0	82	20215
2026-01-12 21:40:30.61	327.49	9.17	-57.6	-60.8	6.2	0.00e+00	0	26	104	0	82	20312
2026-01-12 21:40:31.60	327.62	9.09	-57.6	-60.8	6.2	0.00e+00	0	26	104	0	82	20248
2026-01-12 21:40:32.60	327.76	9.01	-57.6	-60.8	6.2	0.00e+00	0	26	104	0	82	20226
2026-01-12 21:40:33.59	327.89	8.93	-57.6	-60.7	6.2	0.00e+00	0	26	104	0	82	20131
2026-01-12 21:40:34.59	328.02	8.85	-57.6	-60.7	6.2	0.00e+00	0	26	104	0	82	20148
2026-01-12 21:40:35.59	328.15	8.77	-57.6	-60.8	6.2	0.00e+00	0	26	104	0	82	20198
2026-01-12 21:40:36.59	328.29	8.69	-57.6	-60.7	6.2	0.00e+00	0	26	104	0	82	20109
2026-01-12 21:40:37.59	328.42	8.61	-57.5	-60.7	6.2	0.00e+00	0	26	104	0	82	20103
2026-01-12 21:40:38.59	328.55	8.53	-57.6	-60.8	6.2	0.00e+00	0	26	104	0	82	20261
2026-01-12 21:40:39.59	328.68	8.45	-57.5	-60.7	6.2	0.00e+00	0	26	104	0	82	20123
2026-01-12 21:40:40.58	328.80	8.38	-57.5	-60.7	6.2	0.00e+00	0	26	104	0	82	20108
2026-01-12 21:40:41.58	328.93	8.30	-57.5	-60.7	6.2	0.00e+00	0	26	104	0	82	20067
2026-01-12 21:40:42.57	329.06	8.22	-57.5	-60.7	6.2	0.00e+00	0	26	104	0	82	20150
2026-01-12 21:40:43.58	329.18	8.14	-57.5	-60.7	6.2	0.00e+00	0	26	104	0	82	20030
2026-01-12 21:40:44.59	329.31	8.06	-57.5	-60.7	6.2	0.00e+00	0	26	104	0	82	20090
2026-01-12 21:40:45.59	329.43	7.99	-57.5	-60.7	6.2	0.00e+00	0	26	104	0	82	19943
2026-01-12 21:40:46.59	329.56	7.91	-57.5	-60.7	6.2	0.00e+00	0	26	104	0	82	20108
2026-01-12 21:40:47.58	329.68	7.83	-57.5	-60.7	6.2	0.00e+00	0	26	104	0	82	20042
2026-01-12 21:40:48.58	329.80	7.75	-57.5	-60.7	6.2	0.00e+00	0	26	104	0	82	19975
2026-01-12 21:40:49.58	329.92	7.68	-57.4	-60.6	6.2	0.00e+00	0	26	104	0	82	19908
2026-01-12 21:40:50.58	330.04	7.60	-57.5	-60.7	6.2	0.00e+00	0	26	104	0	82	20013
2026-01-12 21:40:51.58	330.16	7.52	-57.4	-60.6	6.2	0.00e+00	0	26	104	0	82	19932
2026-01-12 21:40:52.57	330.28	7.45	-57.4	-60.6	6.2	0.00e+00	0	26	104	0	82	19892
2026-01-12 21:40:53.58	330.40	7.37	-57.4	-60.6	6.2	0.00e+00	0	26	104	0	82	19820
2026-01-12 21:40:54.58	330.52	7.30	-57.4	-60.6	6.2	0.00e+00	0	26	104	0	81	20916
2026-01-12 21:40:55.58	330.64	7.22	-57.3	-60.5	6.2	0.00e+00	0	26	104	0	81	20826
2026-01-12 21:40:56.58	330.75	7.15	-57.3	-60.5	6.2	0.00e+00	0	26	104	0	81	20817
2026-01-12 21:40:57.58	330.87	7.07	-57.3	-60.5	6.2	0.00e+00	0	26	104	0	81	20680
2026-01-12 21:40:58.58	330.98	7.00	-57.3	-60.5	6.2	0.00e+00	0	26	104	0	81	20823
2026-01-12 21:40:59.57	331.10	6.92	-57.3	-60.5	6.2	0.00e+00	0	26	104	0	81	20741
2026-01-12 21:41:00.57	331.21	6.85	-57.3	-60.5	6.2	0.00e+00	0	26	104	0	81	20794
2026-01-12 21:41:01.57	331.32	6.77	-57.2	-60.4	6.2	0.00e+00	0	26	104	0	81	20628
2026-01-12 21:41:02.57	331.43	6.70	-57.3	-60.5	6.2	0.00e+00	0	26	104	0	81	20807
2026-01-12 21:41:03.57	331.55	6.62	-57.3	-60.5	6.2	0.00e+00	0	26	104	0	81	20658
2026-01-12 21:41:04.57	331.66	6.55	-57.3	-60.5	6.2	0.00e+00	0	26	104	0	81	20645
2026-01-12 21:41:05.57	331.77	6.48	-57.2	-60.4	6.2	0.00e+00	0	26	104	0	81	20450
2026-01-12 21:41:06.57	331.88	6.40	-57.3	-60.5	6.2	0.00e+00	0	26	104	0	81	20686
2026-01-12 21:41:07.58	331.99	6.33	-57.2	-60.4	6.2	0.00e+00	0	26	104	0	81	20593
2026-01-12 21:41:08.57	332.09	6.26	-57.2	-60.4	6.2	0.00e+00	0	26	104	0	81	20599
2026-01-12 21:41:09.57	332.20	6.18	-57.1	-60.3	6.2	0.00e+00	0	26	104	0	81	20386
2026-01-12 21:41:10.57	332.31	6.11	-57.2	-60.4	6.2	0.00e+00	0	26	104	0	81	20491
2026-01-12 21:41:11.56	332.41	6.04	-57.2	-60.4	6.2	0.00e+00	0	26	104	0	81	20398
2026-01-12 21:41:12.56	332.52	5.97	-57.2	-60.4	6.2	0.00e+00	0	26	104	0	81	20442
2026-01-12 21:41:13.56	332.62	5.90	-57.1	-60.3	6.2	0.00e+00	0	26	104	0	81	20301
2026-01-12 21:41:14.57	332.73	5.82	-57.2	-60.4	6.2	0.00e+00	0	26	104	0	81	20452
2026-01-12 21:41:15.57	332.83	5.75	-57.1	-60.3	6.2	0.00e+00	0	26	104	0	81	20355
2026-01-12 21:41:16.57	332.94	5.68	-57.1	-60.3	6.2	0.00e+00	0	26	104	0	81	20324
2026-01-12 21:41:17.58	333.04	5.61	-57.0	-60.2	6.2	0.00e+00	0	26	104	0	81	20053
2026-01-12 21:41:18.57	333.14	5.54	-57.1	-60.3	6.2	0.00e+00	0	26	104	0	81	20317
2026-01-12 21:41:19.58	333.24	5.47	-57.0	-60.2	6.2	0.00e+00	0	26	104	0	81	20154
2026-01-12 21:41:20.57	333.34	5.40	-57.1	-60.3	6.2	0.00e+00	0	26	104	0	81	20188
2026-01-12 21:41:21.57	333.44	5.33	-57.0	-60.2	6.2	0.00e+00	0	26	104	0	81	19993
2026-01-12 21:41:22.57	333.54	5.26	-57.0	-60.2	6.2	0.00e+00	0	26	104	0	81	20108
2026-01-12 21:41:23.56	333.64	5.19	-56.9	-60.1	6.2	0.00e+00	0	26	104	0	81	19817
2026-01-12 21:41:24.55	333.74	5.12	-57.0	-60.2	6.2	0.00e+00	0	26	104	0	80	21123
2026-01-12 21:41:25.55	333.84	5.05	-56.8	-60.0	6.2	0.00e+00	0	26	104	0	80	20845
2026-01-12 21:41:26.55	333.94	4.98	-56.8	-60.0	6.2	0.00e+00	0	26	104	0	80	20697
2026-01-12 21:41:27.55	334.03	4.91	-57.3	-60.5	6.2	0.00e+00	0	26	104	0	80	22029
2026-01-12 21:41:28.54	334.13	4.84	-57.8	-61.0	6.2	0.00e+00	0	26	104	0	81	21899
2026-01-12 21:41:29.54	334.22	4.77	-58.1	-61.3	6.2	0.00e+00	0	26	104	0	81	22737
2026-01-12 21:41:30.54	334.32	4.70	-58.3	-61.5	6.2	0.00e+00	0	26	104	0	82	22077
2026-01-12 21:41:31.53	334.41	4.63	-58.4	-61.7	6.2	0.00e+00	0	26	104	0	82	22381
2026-01-12 21:41:32.53	334.51	4.57	-58.6	-61.8	6.2	0.00e+00	0	26	104	0	82	22679
2026-01-12 21:41:33.53	334.60	4.50	-58.7	-61.9	6.2	0.00e+00	0	26	104	0	83	21777
2026-01-12 21:41:34.52	334.69	4.43	-58.8	-62.0	6.2	0.00e+00	0	26	104	0	83	22036
2026-01-12 21:41:35.52	334.79	4.36	-58.9	-62.1	6.2	0.00e+00	0	26	104	0	83	22190
2026-01-12 21:41:36.51	334.88	4.29	-58.9	-62.1	6.2	0.00e+00	0	26	104	0	83	22312
2026-01-12 21:41:37.51	334.97	4.23	-59.0	-62.1	6.2	0.00e+00	0	26	104	0	83	22356
2026-01-12 21:41:38.50	335.06	4.16	-59.0	-62.2	6.2	0.00e+00	0	26	104	0	83	22450
2026-01-12 21:41:39.49	335.15	4.09	-59.0	-62.2	6.2	0.00e+00	0	26	104	0	83	22501
2026-01-12 21:41:40.49	335.24	4.03	-59.0	-62.3	6.2	0.00e+00	0	26	104	0	83	22657
2026-01-12 21:41:41.49	335.33	3.96	-59.1	-62.2	6.2	0.00e+00	0	26	104	0	83	22616
2026-01-12 21:41:42.49	335.42	3.89	-59.1	-62.3	6.2	0.00e+00	0	26	104	0	83	22687
2026-01-12 21:41:43.49	335.51	3.83	-59.1	-62.3	6.2	0.00e+00	0	26	104	0	83	22746
2026-01-12 21:41:44.49	335.60	3.76	-59.1	-62.3	6.2	0.00e+00	0	26	104	0	83	22793
2026-01-12 21:41:45.50	335.69	3.69	-59.1	-62.3	6.2	0.00e+00	0	26	104	0	83	22769
2026-01-12 21:41:46.50	335.77	3.63	-59.1	-62.3	6.2	0.00e+00	0	26	104	0	83	22813
2026-01-12 21:41:47.51	335.86	3.56	-59.3	-62.5	6.2	0.00e+00	0	26	104	0	84	22064
2026-01-12 21:41:48.50	335.95	3.49	-59.3	-62.5	6.2	0.00e+00	0	26	104	0	84	21991
2026-01-12 21:41:49.50	336.03	3.43	-59.3	-62.5	6.2	0.00e+00	0	26	104	0	84	21974
2026-01-12 21:41:50.50	336.12	3.36	-59.2	-62.4	6.2	0.00e+00	0	26	104	0	84	21839
2026-01-12 21:41:51.50	336.20	3.30	-59.2	-62.4	6.2	0.00e+00	0	26	104	0	84	21800
2026-01-12 21:41:52.51	336.29	3.23	-59.2	-62.4	6.2	0.00e+00	0	26	104	0	84	21716
2026-01-12 21:41:53.50	336.37	3.17	-59.2	-62.4	6.2	0.00e+00	0	26	104	0	84	21743
2026-01-12 21:41:54.50	336.46	3.10	-59.2	-62.4	6.1	0.00e+00	0	26	104	0	84	21729
2026-01-12 21:41:55.50	336.54	3.04	-59.2	-62.4	6.2	0.00e+00	0	26	104	0	84	21757
2026-01-12 21:41:56.49	336.62	2.97	-59.2	-62.4	6.2	0.00e+00	0	26	104	0	84	21677
2026-01-12 21:41:57.50	336.71	2.91	-59.2	-62.4	6.2	0.00e+00	0	26	104	0	84	21680
2026-01-12 21:41:58.50	336.79	2.84	-59.2	-62.4	6.2	0.00e+00	0	26	104	0	84	21629
2026-01-12 21:41:59.49	336.87	2.78	-59.2	-62.4	6.2	0.00e+00	0	26	104	0	84	21654
2026-01-12 21:42:00.49	336.95	2.72	-59.2	-62.4	6.2	0.00e+00	0	26	104	0	84	21694
2026-01-12 21:42:01.49	337.03	2.65	-59.1	-62.4	6.2	0.00e+00	0	26	104	0	84	21676
2026-01-12 21:42:02.50	337.11	2.59	-59.1	-62.4	6.2	0.00e+00	0	26	104	0	84	21674
2026-01-12 21:42:03.50	337.19	2.52	-59.1	-62.4	6.2	0.00e+00	0	26	104	0	84	21633
2026-01-12 21:42:04.50	337.27	2.46	-59.1	-62.4	6.2	0.00e+00	0	26	104	0	84	21655
2026-01-12 21:42:05.50	337.35	2.40	-59.1	-62.4	6.2	0.00e+00	0	26	104	0	84	21655
2026-01-12 21:42:06.51	337.43	2.33	-59.1	-62.3	6.2	0.00e+00	0	26	104	0	84	21571
2026-01-12 21:42:07.51	337.51	2.27	-59.1	-62.3	6.2	0.00e+00	0	26	104	0	84	21483
2026-01-12 21:42:08.51	337.59	2.21	-59.1	-62.3	6.2	0.00e+00	0	26	104	0	84	21539
2026-01-12 21:42:09.51	337.67	2.15	-59.1	-62.3	6.2	0.00e+00	0	26	104	0	84	21557
2026-01-12 21:42:10.51	337.74	2.08	-59.1	-62.3	6.2	0.00e+00	0	26	104	0	84	21542
2026-01-12 21:42:11.51	337.82	2.02	-59.1	-62.3	6.2	0.00e+00	0	26	104	0	84	21472
2026-01-12 21:42:12.51	337.90	1.96	-59.1	-62.3	6.2	0.00e+00	0	26	104	0	84	21456

#Closed at: 2026-01-12 21:42:12
#Recorded file [0 MB]: D:/lorett/data/31004_260113_003204.dat