passes_logs/2026/01/12/R3.2S_Murmansk/R3.2S_Murmansk__20260112_114349_AQUA_rec.log

#Pass ID: 20260112_114349_AQUA
#Satellite: AQUA
#Configuration: AQUA
#almurnet v.1.7.20251203
#Start time: 2026-01-12 11:43:49

#Version: 2.2.20231116
#Station: R3.2S_Murmansk
#Location: 33.079688 lon 68.888172 lat
#TLE: 1 27424U 02022A   26011.60158398  .00001056  00000+0  22133-3 0  9990
#TLE: 2 27424  98.4078 337.9720 0002034  82.3051 337.8743 14.61815760260390

#Time	Az	El	Level	Level2	SNR	BER	BlckErr	Temp	State	Recorded	gain1	gain2
2026-01-12 11:43:49.78	163.85	2.02	-56.7	-75.8	3.8	7.47e-01	0	21	0	0	82	32019
2026-01-12 11:43:50.77	163.86	2.09	-56.6	-75.7	3.8	7.43e-01	0	21	104	0	80	35459
2026-01-12 11:43:51.77	163.88	2.16	-56.6	-75.4	3.8	7.44e-01	0	21	104	0	80	34465
2026-01-12 11:43:52.76	163.90	2.22	-56.6	-75.3	3.8	7.45e-01	0	21	104	0	80	33823
2026-01-12 11:43:53.75	163.92	2.29	-56.6	-75.2	3.8	7.46e-01	0	21	104	0	80	33356
2026-01-12 11:43:54.74	163.93	2.35	-56.6	-75.0	3.8	7.47e-01	0	21	104	0	80	32575
2026-01-12 11:43:55.74	163.95	2.42	-56.6	-74.8	3.8	7.46e-01	0	21	104	0	80	31848
2026-01-12 11:43:56.72	163.97	2.49	-56.6	-74.9	3.8	7.47e-01	0	21	104	0	80	32406
2026-01-12 11:43:57.72	163.99	2.55	-56.6	-75.0	3.8	7.47e-01	0	21	104	0	80	32846
2026-01-12 11:43:58.72	164.00	2.62	-56.6	-75.2	3.8	7.43e-01	0	21	104	0	80	33569
2026-01-12 11:43:59.71	164.02	2.69	-56.6	-75.0	3.8	7.45e-01	0	21	104	0	80	32582
2026-01-12 11:44:00.71	164.04	2.76	-56.6	-75.3	3.8	7.46e-01	0	21	104	0	80	33976
2026-01-12 11:44:01.71	164.06	2.83	-56.6	-74.8	3.8	7.46e-01	0	21	104	0	80	32048
2026-01-12 11:44:02.71	164.08	2.89	-56.5	-74.3	3.9	7.41e-01	0	21	104	0	80	30173
2026-01-12 11:44:03.70	164.09	2.96	-56.6	-74.1	3.9	7.45e-01	0	21	104	0	80	29509
2026-01-12 11:44:04.69	164.11	3.03	-56.5	-73.1	3.9	7.41e-01	0	21	104	0	80	26440
2026-01-12 11:44:05.69	164.13	3.10	-56.5	-74.0	3.9	7.44e-01	0	21	104	0	80	29287
2026-01-12 11:44:06.68	164.15	3.17	-56.6	-74.8	3.8	7.46e-01	0	21	104	0	80	32150
2026-01-12 11:44:07.67	164.17	3.24	-56.6	-75.1	3.8	7.46e-01	0	21	104	0	80	32939
2026-01-12 11:44:08.66	164.19	3.31	-56.6	-75.5	3.8	7.48e-01	0	21	104	0	80	34671
2026-01-12 11:44:09.65	164.20	3.37	-56.6	-75.9	3.8	7.49e-01	0	21	104	0	80	36185
2026-01-12 11:44:10.64	164.22	3.44	-56.6	-75.5	3.8	7.45e-01	0	21	104	0	80	34750
2026-01-12 11:44:11.63	164.24	3.51	-56.5	-73.4	3.9	7.42e-01	0	21	104	0	80	27388
2026-01-12 11:44:12.62	164.26	3.58	-56.5	-71.5	4.0	7.34e-01	0	21	104	0	80	21879
2026-01-12 11:44:13.61	164.28	3.65	-56.4	-69.5	5.5	6.97e-01	42	21	0	0	80	17297
2026-01-12 11:44:14.60	164.30	3.72	-56.2	-66.6	7.5	6.50e-01	88	21	0	1572864	80	12429
2026-01-12 11:44:15.60	164.32	3.79	-56.0	-65.3	8.5	6.35e-01	0	22	0	3670016	80	10722
2026-01-12 11:44:16.60	164.34	3.86	-56.0	-64.8	9.3	6.26e-01	0	21	0	5242880	80	10135
2026-01-12 11:44:17.59	164.35	3.94	-55.8	-63.7	10.1	6.19e-01	0	21	0	7340032	80	8932
2026-01-12 11:44:18.57	164.37	4.01	-55.5	-62.3	11.4	6.13e-01	0	21	0	8912896	80	7613
2026-01-12 11:44:19.57	164.39	4.08	-55.3	-61.6	12.1	6.10e-01	0	21	0	11010048	79	7411
2026-01-12 11:44:20.56	164.41	4.15	-54.9	-60.5	12.8	6.08e-01	0	21	0	12582912	78	6899
2026-01-12 11:44:21.55	164.43	4.22	-54.8	-60.1	13.0	6.09e-01	0	21	0	14680064	78	6600
2026-01-12 11:44:22.54	164.45	4.29	-54.7	-59.9	13.2	6.09e-01	0	22	0	16252928	78	6478
2026-01-12 11:44:23.53	164.47	4.36	-54.5	-59.3	13.6	6.08e-01	0	21	0	18350080	78	6042
2026-01-12 11:44:24.53	164.49	4.44	-54.0	-58.2	14.2	6.06e-01	0	22	0	20447232	76	5969
2026-01-12 11:44:25.53	164.51	4.51	-53.6	-57.5	14.5	6.05e-01	0	22	0	22020096	76	5510
2026-01-12 11:44:26.52	164.53	4.58	-53.3	-57.0	14.6	6.06e-01	0	22	0	24117248	75	5497
2026-01-12 11:44:27.52	164.55	4.66	-53.1	-56.5	14.9	6.07e-01	0	22	0	25690112	75	5212
2026-01-12 11:44:28.51	164.57	4.73	-52.4	-55.5	15.4	6.07e-01	0	22	0	27787264	74	4878
2026-01-12 11:44:29.50	164.59	4.80	-52.2	-55.2	15.4	6.06e-01	0	22	0	29360128	73	4989
2026-01-12 11:44:30.49	164.61	4.88	-52.1	-55.0	15.4	6.09e-01	0	22	0	31457280	73	4925
2026-01-12 11:44:31.49	164.63	4.95	-52.1	-55.0	15.4	6.06e-01	0	22	0	33030144	73	4902
2026-01-12 11:44:32.48	164.65	5.02	-52.3	-55.4	15.2	6.05e-01	0	22	0	35127296	73	5124
2026-01-12 11:44:33.48	164.67	5.10	-51.8	-54.5	15.6	6.06e-01	0	21	0	37224448	72	4885
2026-01-12 11:44:34.47	164.69	5.17	-53.1	-56.5	14.9	6.05e-01	0	22	0	38797312	74	5521
2026-01-12 11:44:35.47	164.72	5.25	-53.4	-57.1	14.2	6.07e-01	0	22	0	40894464	76	5246
2026-01-12 11:44:36.46	164.74	5.32	-51.0	-53.4	15.8	6.08e-01	0	22	0	42467328	70	4855
2026-01-12 11:44:37.46	164.76	5.40	-50.6	-52.8	16.0	6.09e-01	0	22	0	44564480	70	4508
2026-01-12 11:44:38.46	164.78	5.47	-53.0	-56.4	14.9	6.07e-01	0	22	0	46137344	75	5120
2026-01-12 11:44:39.45	164.80	5.55	-50.5	-52.6	16.1	6.08e-01	0	22	0	48234496	70	4441
2026-01-12 11:44:40.45	164.82	5.63	-50.8	-53.1	15.7	6.06e-01	0	22	0	49807360	69	4950
2026-01-12 11:44:41.44	164.84	5.70	-50.7	-53.1	15.7	6.04e-01	0	22	0	51904512	69	4927
2026-01-12 11:44:42.43	164.86	5.78	-50.4	-52.6	15.9	6.06e-01	0	22	0	54001664	69	4652
2026-01-12 11:44:43.42	164.89	5.86	-50.6	-52.9	15.7	6.09e-01	0	22	0	55574528	69	4841
2026-01-12 11:44:44.42	164.91	5.93	-50.4	-52.6	15.9	6.06e-01	0	22	0	57671680	69	4692
2026-01-12 11:44:45.41	164.93	6.01	-50.6	-52.9	15.8	6.08e-01	0	22	0	59244544	69	4825
2026-01-12 11:44:46.40	164.95	6.09	-50.3	-52.5	15.9	6.05e-01	0	22	0	61341696	69	4632
2026-01-12 11:44:47.40	164.97	6.17	-50.5	-52.8	15.8	6.06e-01	0	22	0	62914560	69	4761
2026-01-12 11:44:48.39	165.00	6.24	-50.5	-52.7	15.8	6.07e-01	0	22	0	65011712	69	4708
2026-01-12 11:44:49.38	165.02	6.32	-50.3	-52.4	16.0	6.06e-01	0	22	0	67108864	69	4571
2026-01-12 11:44:50.37	165.04	6.40	-50.2	-52.3	16.0	6.05e-01	0	22	0	68681728	69	4544
2026-01-12 11:44:51.36	165.06	6.48	-50.1	-52.2	16.1	6.07e-01	0	22	0	70254592	69	4467
2026-01-12 11:44:52.35	165.08	6.56	-50.1	-52.1	16.1	6.05e-01	0	22	0	72351744	69	4441
2026-01-12 11:44:53.35	165.11	6.64	-50.0	-52.1	16.2	6.07e-01	0	22	0	74448896	69	4406
2026-01-12 11:44:54.34	165.13	6.72	-50.2	-52.3	16.1	6.05e-01	0	22	0	76021760	69	4499
2026-01-12 11:44:55.33	165.15	6.80	-50.1	-52.2	16.1	6.06e-01	0	22	0	78118912	69	4466
2026-01-12 11:44:56.33	165.18	6.88	-50.1	-52.2	16.1	6.06e-01	0	22	0	79691776	69	4470
2026-01-12 11:44:57.32	165.20	6.96	-50.1	-52.2	16.1	6.07e-01	0	22	0	81788928	69	4445
2026-01-12 11:44:58.32	165.22	7.04	-50.0	-52.0	16.2	6.06e-01	0	22	0	83361792	69	4372
2026-01-12 11:44:59.31	165.25	7.12	-50.0	-52.0	16.2	6.06e-01	0	22	0	85458944	69	4383
2026-01-12 11:45:00.30	165.27	7.20	-50.0	-52.0	16.2	6.06e-01	0	22	0	87031808	69	4376
2026-01-12 11:45:01.29	165.29	7.28	-50.0	-52.0	16.0	6.06e-01	0	22	0	89128960	68	4611
2026-01-12 11:45:02.29	165.32	7.36	-49.9	-51.9	16.1	6.07e-01	0	22	0	91226112	68	4551
2026-01-12 11:45:03.28	165.34	7.44	-49.8	-51.8	16.1	6.08e-01	0	22	0	92798976	68	4505
2026-01-12 11:45:04.28	165.37	7.53	-49.9	-51.9	16.0	6.05e-01	0	22	0	94896128	68	4590
2026-01-12 11:45:05.27	165.39	7.61	-49.9	-51.9	16.0	6.07e-01	0	22	0	96468992	68	4580
2026-01-12 11:45:06.27	165.41	7.69	-49.8	-51.7	16.1	6.07e-01	0	22	0	98566144	68	4483
2026-01-12 11:45:07.26	165.44	7.78	-49.8	-51.8	16.1	6.05e-01	0	22	0	100139008	68	4516
2026-01-12 11:45:08.25	165.46	7.86	-49.6	-51.6	16.2	6.08e-01	0	22	0	102236160	68	4394
2026-01-12 11:45:09.24	165.49	7.94	-49.8	-51.8	16.1	6.08e-01	0	22	0	103809024	68	4501
2026-01-12 11:45:10.24	165.51	8.03	-49.9	-51.9	16.0	6.06e-01	0	22	0	105906176	68	4574
2026-01-12 11:45:11.24	165.54	8.11	-49.9	-51.9	16.0	6.08e-01	0	22	0	108003328	68	4572
2026-01-12 11:45:12.22	165.56	8.20	-50.0	-52.0	16.0	6.06e-01	0	22	0	109576192	68	4602
2026-01-12 11:45:13.22	165.59	8.28	-49.8	-51.7	16.1	6.07e-01	0	22	0	111673344	68	4475
2026-01-12 11:45:14.21	165.61	8.37	-49.9	-51.9	16.1	6.07e-01	0	22	0	113246208	68	4549
2026-01-12 11:45:15.20	165.64	8.45	-49.7	-51.6	16.2	6.07e-01	0	22	0	115343360	68	4404
2026-01-12 11:45:16.20	165.66	8.54	-49.8	-51.8	16.1	6.05e-01	0	22	0	116916224	68	4508
2026-01-12 11:45:17.19	165.69	8.63	-49.8	-51.7	16.1	6.08e-01	0	22	0	119013376	68	4465
2026-01-12 11:45:18.18	165.72	8.71	-49.9	-51.9	16.1	6.05e-01	0	22	0	121110528	68	4547
2026-01-12 11:45:19.17	165.74	8.80	-49.8	-51.7	16.1	6.06e-01	0	22	0	122683392	68	4487
2026-01-12 11:45:20.17	165.77	8.89	-49.8	-51.7	16.1	6.07e-01	0	22	0	124256256	68	4475
2026-01-12 11:45:21.16	165.79	8.98	-49.8	-51.7	16.1	6.07e-01	0	22	0	126353408	68	4487
2026-01-12 11:45:22.15	165.82	9.06	-49.7	-51.6	16.1	6.07e-01	0	22	0	128450560	68	4438
2026-01-12 11:45:23.14	165.85	9.15	-49.7	-51.6	16.2	6.06e-01	0	22	0	130023424	68	4393
2026-01-12 11:45:24.14	165.87	9.24	-49.7	-51.7	16.1	6.08e-01	0	22	0	132120576	68	4445
2026-01-12 11:45:25.14	165.90	9.33	-49.7	-51.6	16.2	6.06e-01	0	22	0	133693440	68	4404
2026-01-12 11:45:26.13	165.93	9.42	-49.6	-51.5	16.2	6.06e-01	0	22	0	135790592	68	4373
2026-01-12 11:45:27.12	165.96	9.51	-49.6	-51.5	16.2	6.06e-01	0	22	0	137363456	68	4345
2026-01-12 11:45:28.12	165.98	9.60	-49.6	-51.5	16.2	6.08e-01	0	22	0	139460608	68	4361
2026-01-12 11:45:29.10	166.01	9.69	-49.7	-51.6	16.1	6.05e-01	0	22	0	141033472	68	4423
2026-01-12 11:45:30.10	166.04	9.78	-49.6	-51.5	16.2	6.06e-01	0	22	0	143130624	68	4357
2026-01-12 11:45:31.10	166.07	9.87	-49.6	-51.4	16.2	6.05e-01	0	22	0	145227776	68	4332
2026-01-12 11:45:32.09	166.09	9.97	-49.6	-51.5	16.2	6.06e-01	0	22	0	146800640	68	4341
2026-01-12 11:45:33.09	166.12	10.06	-49.6	-51.5	16.2	6.07e-01	0	22	0	148897792	68	4364
2026-01-12 11:45:34.08	166.15	10.15	-49.4	-51.2	16.3	6.07e-01	0	22	0	150470656	68	4227
2026-01-12 11:45:35.07	166.18	10.24	-49.4	-51.2	16.3	6.08e-01	0	22	0	152567808	68	4206
2026-01-12 11:45:36.07	166.21	10.34	-49.4	-51.2	16.1	6.07e-01	0	22	0	154140672	67	4463
2026-01-12 11:45:37.06	166.24	10.43	-49.3	-51.1	16.1	6.07e-01	0	22	0	156237824	67	4427
2026-01-12 11:45:38.06	166.27	10.52	-49.2	-51.0	16.2	6.08e-01	0	22	0	157810688	67	4376
2026-01-12 11:45:39.06	166.30	10.62	-49.2	-51.0	16.2	6.05e-01	0	22	0	159907840	67	4368
2026-01-12 11:45:40.05	166.33	10.71	-49.2	-51.0	16.2	6.04e-01	0	22	0	162004992	67	4383
2026-01-12 11:45:41.04	166.36	10.81	-49.1	-50.9	16.2	6.05e-01	0	22	0	163577856	67	4335
2026-01-12 11:45:42.04	166.39	10.91	-49.1	-50.9	16.3	6.08e-01	0	22	0	165675008	67	4311
2026-01-12 11:45:43.03	166.42	11.00	-49.1	-50.9	16.3	6.08e-01	0	22	0	167247872	67	4305
2026-01-12 11:45:44.02	166.45	11.10	-49.1	-50.9	16.2	6.05e-01	0	22	0	169345024	67	4317
2026-01-12 11:45:45.01	166.48	11.19	-49.0	-50.8	16.3	6.07e-01	0	22	0	170917888	67	4261
2026-01-12 11:45:46.00	166.51	11.29	-49.1	-50.9	16.3	6.06e-01	0	22	0	173015040	67	4306
2026-01-12 11:45:47.00	166.54	11.39	-49.1	-50.9	16.3	6.06e-01	0	22	0	174587904	67	4307
2026-01-12 11:45:47.99	166.57	11.49	-49.1	-50.9	16.3	6.04e-01	0	22	0	176685056	67	4300
2026-01-12 11:45:48.98	166.60	11.59	-48.9	-50.7	16.4	6.06e-01	0	22	0	178782208	67	4196
2026-01-12 11:45:49.98	166.63	11.69	-49.0	-50.8	16.3	6.08e-01	0	22	0	180355072	67	4254
2026-01-12 11:45:50.96	166.66	11.78	-49.0	-50.8	16.3	6.09e-01	0	22	0	182452224	67	4262
2026-01-12 11:45:51.96	166.69	11.88	-49.1	-50.9	16.3	6.07e-01	0	22	0	184025088	67	4293
2026-01-12 11:45:52.95	166.73	11.98	-49.1	-50.8	16.3	6.08e-01	0	22	0	186122240	67	4267
2026-01-12 11:45:53.95	166.76	12.09	-49.0	-50.7	16.3	6.05e-01	0	22	0	187695104	67	4237
2026-01-12 11:45:54.94	166.79	12.19	-49.1	-50.8	16.3	6.07e-01	0	22	0	189792256	67	4277
2026-01-12 11:45:55.93	166.82	12.29	-49.0	-50.8	16.3	6.07e-01	0	22	0	191889408	67	4250
2026-01-12 11:45:56.92	166.86	12.39	-49.0	-50.8	16.3	6.07e-01	0	22	0	193462272	67	4245
2026-01-12 11:45:57.91	166.89	12.49	-49.1	-50.9	16.3	6.05e-01	0	22	0	195035136	67	4319
2026-01-12 11:45:58.90	166.92	12.60	-49.1	-50.9	16.3	6.06e-01	0	22	0	197132288	67	4323
2026-01-12 11:45:59.90	166.96	12.70	-49.0	-50.8	16.3	6.07e-01	0	22	0	199229440	67	4258
2026-01-12 11:46:00.90	166.99	12.80	-49.1	-50.9	16.3	6.08e-01	0	22	0	200802304	67	4304
2026-01-12 11:46:01.88	167.02	12.91	-49.1	-50.8	16.3	6.06e-01	0	22	0	202899456	67	4271
2026-01-12 11:46:02.88	167.06	13.01	-49.0	-50.8	16.3	6.04e-01	0	22	0	204472320	67	4263
2026-01-12 11:46:03.87	167.09	13.12	-49.0	-50.7	16.4	6.05e-01	0	22	0	206569472	67	4231
2026-01-12 11:46:04.87	167.13	13.23	-49.0	-50.8	16.3	6.07e-01	0	22	0	208142336	67	4263
2026-01-12 11:46:05.86	167.16	13.33	-49.1	-50.9	16.3	6.07e-01	0	22	0	210239488	67	4308
2026-01-12 11:46:06.84	167.20	13.44	-49.1	-50.8	16.3	6.06e-01	0	22	0	211812352	67	4270
2026-01-12 11:46:07.83	167.23	13.54	-49.1	-50.8	16.3	6.05e-01	0	22	0	213909504	67	4290
2026-01-12 11:46:08.83	167.27	13.65	-49.1	-50.8	16.3	6.08e-01	0	22	0	215482368	67	4286
2026-01-12 11:46:09.82	167.30	13.76	-48.9	-50.6	16.4	6.10e-01	0	22	0	217579520	67	4174
2026-01-12 11:46:10.81	167.34	13.87	-48.8	-50.5	16.2	6.05e-01	0	22	0	219676672	66	4370
2026-01-12 11:46:11.81	167.38	13.98	-48.8	-50.5	16.2	6.07e-01	0	22	0	221249536	66	4391
2026-01-12 11:46:12.80	167.41	14.09	-48.8	-50.5	16.2	6.04e-01	0	22	0	223346688	66	4380
2026-01-12 11:46:13.80	167.45	14.20	-48.8	-50.5	16.3	6.04e-01	0	22	0	224919552	66	4360
2026-01-12 11:46:14.79	167.49	14.31	-48.8	-50.5	16.2	6.07e-01	0	22	0	227016704	66	4380
2026-01-12 11:46:15.78	167.52	14.43	-48.8	-50.5	16.2	6.07e-01	0	22	0	228589568	66	4372
2026-01-12 11:46:16.77	167.56	14.54	-48.9	-50.6	16.2	6.08e-01	0	22	0	230686720	66	4405
2026-01-12 11:46:17.77	167.60	14.65	-48.9	-50.7	16.1	6.07e-01	0	22	0	232259584	66	4451
2026-01-12 11:46:18.76	167.64	14.77	-48.8	-50.5	16.2	6.09e-01	0	22	0	234356736	66	4361
2026-01-12 11:46:19.75	167.68	14.88	-48.8	-50.5	16.2	6.08e-01	0	22	0	236453888	66	4350
2026-01-12 11:46:20.74	167.71	14.99	-48.8	-50.5	16.2	6.08e-01	0	22	0	238026752	66	4370
2026-01-12 11:46:21.74	167.75	15.11	-48.8	-50.5	16.2	6.08e-01	0	22	0	240123904	66	4389
2026-01-12 11:46:22.74	167.79	15.23	-48.8	-50.5	16.2	6.04e-01	0	22	0	241696768	66	4376
2026-01-12 11:46:23.72	167.83	15.34	-48.7	-50.4	16.3	6.08e-01	0	22	0	243793920	66	4315
2026-01-12 11:46:24.71	167.87	15.46	-48.8	-50.5	16.3	6.05e-01	0	22	0	245366784	66	4343
2026-01-12 11:46:25.71	167.91	15.58	-48.6	-50.3	16.3	6.06e-01	0	22	0	247463936	66	4260
2026-01-12 11:46:26.70	167.95	15.70	-48.7	-50.4	16.3	6.05e-01	0	22	0	249036800	66	4301
2026-01-12 11:46:27.69	168.00	15.81	-48.7	-50.4	16.3	6.05e-01	0	22	0	251133952	66	4295
2026-01-12 11:46:28.69	168.04	15.94	-48.7	-50.3	16.3	6.06e-01	0	22	0	253231104	66	4286
2026-01-12 11:46:29.67	168.08	16.05	-48.6	-50.3	16.3	6.05e-01	0	22	0	254803968	66	4269
2026-01-12 11:46:30.67	168.12	16.18	-48.6	-50.3	16.1	6.07e-01	0	22	0	256901120	66	4249
2026-01-12 11:46:31.66	168.16	16.30	-48.6	-50.2	16.3	6.06e-01	0	22	0	258473984	66	4228
2026-01-12 11:46:32.65	168.20	16.42	-48.6	-50.2	16.3	6.06e-01	0	22	0	260571136	66	4239
2026-01-12 11:46:33.64	168.25	16.54	-48.6	-50.3	16.3	6.06e-01	0	22	0	262144000	66	4255
2026-01-12 11:46:34.63	168.29	16.67	-48.5	-50.2	16.4	6.09e-01	0	22	0	264241152	66	4206
2026-01-12 11:46:35.62	168.33	16.79	-48.7	-50.3	16.3	6.06e-01	0	22	0	265814016	66	4288
2026-01-12 11:46:36.62	168.38	16.92	-48.6	-50.3	16.4	6.06e-01	0	22	0	267911168	66	4250
2026-01-12 11:46:37.61	168.42	17.04	-48.5	-50.2	16.4	6.07e-01	0	22	0	269484032	66	4214
2026-01-12 11:46:38.60	168.47	17.17	-48.6	-50.2	16.4	6.04e-01	0	22	0	271581184	66	4220
2026-01-12 11:46:39.60	168.51	17.29	-48.6	-50.2	16.3	6.06e-01	0	22	0	273678336	66	4240
2026-01-12 11:46:40.59	168.56	17.42	-48.6	-50.2	16.3	6.05e-01	0	22	0	275251200	66	4235
2026-01-12 11:46:41.59	168.60	17.55	-48.7	-50.3	16.3	6.06e-01	0	22	0	277348352	66	4273
2026-01-12 11:46:42.58	168.65	17.68	-48.6	-50.3	16.3	6.09e-01	0	22	0	278921216	66	4246
2026-01-12 11:46:43.57	168.70	17.81	-48.6	-50.3	16.3	6.08e-01	0	22	0	281018368	66	4251
2026-01-12 11:46:44.57	168.74	17.94	-48.7	-50.3	16.3	6.07e-01	0	22	0	282591232	66	4284
2026-01-12 11:46:45.56	168.79	18.07	-48.6	-50.2	16.3	6.05e-01	0	22	0	284688384	66	4240
2026-01-12 11:46:46.55	168.84	18.21	-48.7	-50.4	16.1	6.05e-01	0	22	0	286261248	66	4294
2026-01-12 11:46:47.54	168.89	18.34	-48.6	-50.2	16.3	6.06e-01	0	22	0	288358400	66	4231
2026-01-12 11:46:48.53	168.93	18.47	-48.5	-50.2	16.4	6.08e-01	0	22	0	290455552	66	4208
2026-01-12 11:46:49.53	168.98	18.61	-48.5	-50.2	16.3	6.07e-01	0	22	0	292028416	66	4210
2026-01-12 11:46:50.52	169.03	18.74	-48.6	-50.2	16.3	6.05e-01	0	22	0	294125568	66	4208
2026-01-12 11:46:51.52	169.08	18.88	-48.6	-50.2	16.3	6.06e-01	0	22	0	295698432	66	4234
2026-01-12 11:46:52.51	169.13	19.02	-48.5	-50.2	16.4	6.06e-01	0	22	0	297795584	66	4199
2026-01-12 11:46:53.50	169.18	19.15	-48.6	-50.2	16.4	6.07e-01	0	22	0	299368448	66	4225
2026-01-12 11:46:54.49	169.24	19.29	-48.6	-50.2	16.4	6.04e-01	0	22	0	301465600	66	4229
2026-01-12 11:46:55.48	169.29	19.43	-48.5	-50.1	16.4	6.08e-01	0	22	0	303038464	66	4188
2026-01-12 11:46:56.48	169.34	19.57	-48.5	-50.2	16.4	6.07e-01	0	22	0	305135616	66	4211
2026-01-12 11:46:57.47	169.39	19.71	-48.6	-50.2	16.3	6.05e-01	0	22	0	306708480	66	4231
2026-01-12 11:46:58.46	169.44	19.86	-48.5	-50.2	16.4	6.07e-01	0	22	0	308805632	66	4206
2026-01-12 11:46:59.45	169.50	20.00	-48.6	-50.2	16.3	6.06e-01	0	22	0	310902784	66	4237
2026-01-12 11:47:00.45	169.55	20.14	-48.6	-50.3	16.3	6.07e-01	0	22	0	312475648	66	4246
2026-01-12 11:47:01.44	169.61	20.29	-48.7	-50.3	16.3	6.07e-01	0	22	0	314572800	66	4275
2026-01-12 11:47:02.44	169.66	20.43	-48.6	-50.2	16.4	6.05e-01	0	22	0	316145664	66	4222
2026-01-12 11:47:03.44	169.72	20.58	-48.7	-50.3	16.3	6.06e-01	0	22	0	318242816	66	4266
2026-01-12 11:47:04.43	169.77	20.73	-48.7	-50.4	16.3	6.06e-01	0	22	0	319815680	66	4297
2026-01-12 11:47:05.42	169.83	20.88	-48.7	-50.3	16.3	6.07e-01	0	22	0	321912832	66	4280
2026-01-12 11:47:06.41	169.89	21.03	-48.7	-50.3	16.3	6.07e-01	0	22	0	323485696	66	4267
2026-01-12 11:47:07.41	169.95	21.18	-48.6	-50.3	16.3	6.05e-01	0	22	0	325582848	66	4262
2026-01-12 11:47:08.39	170.00	21.33	-48.7	-50.4	16.3	6.06e-01	0	22	0	327680000	66	4315
2026-01-12 11:47:09.39	170.06	21.48	-48.8	-50.4	16.3	6.07e-01	0	22	0	329252864	66	4339
2026-01-12 11:47:10.39	170.12	21.63	-48.8	-50.4	16.3	6.06e-01	0	22	0	331350016	66	4340
2026-01-12 11:47:11.38	170.18	21.79	-48.9	-50.6	16.2	6.05e-01	0	22	0	332922880	66	4396
2026-01-12 11:47:12.37	170.24	21.94	-48.9	-50.6	16.2	6.07e-01	0	22	0	335020032	66	4397
2026-01-12 11:47:13.36	170.30	22.10	-49.0	-50.7	16.1	6.05e-01	0	22	0	336592896	66	4453
2026-01-12 11:47:14.35	170.36	22.26	-48.9	-50.6	16.2	6.06e-01	0	22	0	338690048	66	4397
2026-01-12 11:47:15.35	170.43	22.41	-49.0	-50.7	16.1	6.08e-01	0	22	0	340262912	66	4493
2026-01-12 11:47:16.34	170.49	22.57	-48.9	-50.6	16.2	6.08e-01	0	22	0	342360064	66	4416
2026-01-12 11:47:17.34	170.55	22.73	-48.9	-50.6	16.2	6.05e-01	0	22	0	344457216	66	4416
2026-01-12 11:47:18.34	170.62	22.90	-49.0	-50.7	16.1	6.07e-01	0	22	0	346030080	66	4455
2026-01-12 11:47:19.33	170.68	23.06	-48.9	-50.6	16.2	6.06e-01	0	22	0	348127232	66	4416
2026-01-12 11:47:20.33	170.75	23.22	-48.9	-50.6	16.2	6.05e-01	0	22	0	349700096	66	4415
2026-01-12 11:47:21.32	170.82	23.39	-48.9	-50.6	16.2	6.08e-01	0	22	0	351797248	66	4420
2026-01-12 11:47:22.31	170.88	23.55	-48.9	-50.5	16.2	6.08e-01	0	22	0	353370112	66	4373
2026-01-12 11:47:23.31	170.95	23.72	-48.8	-50.4	16.2	6.07e-01	0	22	0	355467264	66	4337
2026-01-12 11:47:24.30	171.02	23.89	-48.8	-50.5	16.2	6.09e-01	0	22	0	357040128	66	4376
2026-01-12 11:47:25.30	171.09	24.06	-48.8	-50.5	16.2	6.05e-01	0	22	0	359137280	66	4359
2026-01-12 11:47:26.28	171.16	24.23	-48.9	-50.6	16.2	6.07e-01	0	22	0	361234432	66	4393
2026-01-12 11:47:27.27	171.23	24.40	-48.8	-50.5	16.2	6.05e-01	0	22	0	362807296	66	4352
2026-01-12 11:47:28.27	171.30	24.57	-48.9	-50.6	16.2	6.08e-01	0	22	0	364904448	66	4425
2026-01-12 11:47:29.26	171.37	24.75	-49.0	-50.7	16.1	6.06e-01	0	22	0	366477312	66	4470
2026-01-12 11:47:30.25	171.44	24.92	-49.0	-50.7	16.1	6.06e-01	0	22	0	368574464	66	4464
2026-01-12 11:47:31.24	171.52	25.10	-49.0	-50.7	16.1	6.05e-01	0	22	0	370147328	66	4458
2026-01-12 11:47:32.24	171.59	25.28	-49.0	-50.7	16.1	6.06e-01	0	22	0	372244480	66	4470
2026-01-12 11:47:33.23	171.67	25.45	-49.0	-50.7	16.1	6.06e-01	0	22	0	373817344	66	4470
2026-01-12 11:47:34.22	171.74	25.63	-48.9	-50.6	16.2	6.04e-01	0	22	0	375914496	66	4416
2026-01-12 11:47:35.22	171.82	25.82	-49.0	-50.7	16.1	6.09e-01	0	22	0	377487360	66	4456
2026-01-12 11:47:36.20	171.90	26.00	-49.1	-50.8	16.1	6.08e-01	0	22	0	379584512	66	4519
2026-01-12 11:47:37.20	171.98	26.18	-49.1	-50.9	16.1	6.06e-01	0	22	0	381681664	66	4550
2026-01-12 11:47:38.19	172.06	26.37	-49.0	-50.7	16.1	6.07e-01	0	22	0	383254528	66	4473
2026-01-12 11:47:39.20	172.14	26.56	-48.9	-50.6	16.2	6.05e-01	0	22	0	385351680	66	4432
2026-01-12 11:47:40.19	172.22	26.75	-48.8	-50.5	16.2	6.07e-01	0	22	0	386924544	66	4356
2026-01-12 11:47:41.19	172.31	26.94	-48.6	-50.2	16.3	6.07e-01	0	22	0	389021696	66	4231
2026-01-12 11:47:42.18	172.39	27.13	-48.5	-50.1	16.4	6.05e-01	0	22	0	390594560	66	4172
2026-01-12 11:47:43.17	172.47	27.32	-48.6	-50.2	16.4	6.06e-01	0	23	0	392691712	66	4198
2026-01-12 11:47:44.16	172.56	27.51	-48.7	-50.3	16.3	6.05e-01	0	22	0	394264576	66	4261
2026-01-12 11:47:45.15	172.64	27.71	-48.6	-50.3	16.3	6.06e-01	0	22	0	396361728	66	4244
2026-01-12 11:47:46.16	172.73	27.90	-48.6	-50.3	16.3	6.07e-01	0	22	0	398458880	66	4245
2026-01-12 11:47:47.15	172.82	28.10	-48.5	-50.1	16.4	6.06e-01	0	22	0	400031744	66	4180
2026-01-12 11:47:48.15	172.91	28.30	-48.4	-50.0	16.4	6.07e-01	0	22	0	402128896	66	4127
2026-01-12 11:47:49.15	173.00	28.51	-48.3	-49.8	16.3	6.06e-01	0	22	0	403701760	65	4281
2026-01-12 11:47:50.14	173.10	28.71	-48.3	-49.9	16.3	6.06e-01	0	22	0	405798912	65	4299
2026-01-12 11:47:51.13	173.19	28.91	-48.4	-50.0	16.2	6.06e-01	0	22	0	407371776	65	4373
2026-01-12 11:47:52.12	173.28	29.12	-48.6	-50.2	16.2	6.06e-01	0	22	0	409468928	65	4452
2026-01-12 11:47:53.12	173.38	29.32	-48.6	-50.2	16.2	6.07e-01	0	22	0	411041792	65	4467
2026-01-12 11:47:54.11	173.48	29.53	-48.5	-50.1	16.2	6.07e-01	0	22	0	413138944	65	4421
2026-01-12 11:47:55.10	173.57	29.74	-48.4	-50.0	16.2	6.07e-01	0	22	0	415236096	65	4370
2026-01-12 11:47:56.09	173.67	29.95	-48.4	-50.0	16.2	6.05e-01	0	22	0	416808960	65	4361
2026-01-12 11:47:57.09	173.78	30.17	-48.3	-49.9	16.3	6.08e-01	0	22	0	418906112	65	4295
2026-01-12 11:47:58.08	173.88	30.38	-48.3	-49.8	16.3	6.08e-01	0	22	0	420478976	65	4287
2026-01-12 11:47:59.07	173.98	30.60	-48.2	-49.8	16.3	6.07e-01	0	22	0	422576128	65	4253
2026-01-12 11:48:00.06	174.08	30.81	-48.2	-49.7	16.3	6.07e-01	0	22	0	424148992	65	4234
2026-01-12 11:48:01.06	174.19	31.04	-48.2	-49.8	16.3	6.05e-01	0	22	0	426246144	65	4266
2026-01-12 11:48:02.04	174.30	31.25	-48.4	-49.9	16.2	6.06e-01	0	22	0	427819008	65	4339
2026-01-12 11:48:03.04	174.41	31.48	-48.5	-50.1	16.2	6.06e-01	0	22	0	429916160	65	4435
2026-01-12 11:48:04.03	174.52	31.70	-48.5	-50.1	16.2	6.06e-01	0	22	0	432013312	65	4428
2026-01-12 11:48:05.02	174.63	31.93	-48.4	-50.0	16.2	6.07e-01	0	22	0	433586176	65	4386
2026-01-12 11:48:06.02	174.75	32.16	-48.5	-50.1	16.2	6.06e-01	0	22	0	435683328	65	4419
2026-01-12 11:48:07.01	174.86	32.39	-48.6	-50.3	16.1	6.07e-01	0	22	0	437256192	65	4509
2026-01-12 11:48:08.02	174.98	32.62	-48.7	-50.3	16.1	6.08e-01	0	22	0	439353344	65	4542
2026-01-12 11:48:09.01	175.10	32.86	-48.8	-50.5	16.1	6.05e-01	0	22	0	440926208	65	4603
2026-01-12 11:48:10.00	175.22	33.09	-48.9	-50.6	16.0	6.06e-01	0	22	0	443023360	65	4666
2026-01-12 11:48:10.99	175.34	33.33	-48.7	-50.4	16.1	6.05e-01	0	22	0	444596224	65	4551
2026-01-12 11:48:11.98	175.46	33.57	-48.8	-50.4	16.1	6.04e-01	0	22	0	446693376	65	4593
2026-01-12 11:48:12.97	175.59	33.81	-48.9	-50.6	16.0	6.07e-01	0	22	0	448266240	65	4681
2026-01-12 11:48:13.95	175.71	34.05	-49.2	-50.9	16.0	6.08e-01	0	22	0	450363392	66	4594
2026-01-12 11:48:14.94	175.84	34.29	-49.3	-51.0	16.0	6.04e-01	0	22	0	452460544	66	4639
2026-01-12 11:48:15.94	175.98	34.54	-49.4	-51.1	16.0	6.05e-01	0	22	0	454033408	66	4696
2026-01-12 11:48:16.93	176.11	34.79	-49.4	-51.2	16.0	6.08e-01	0	22	0	456130560	66	4710
2026-01-12 11:48:17.93	176.25	35.04	-49.4	-51.1	16.0	6.09e-01	0	22	0	457703424	66	4689
2026-01-12 11:48:18.93	176.38	35.30	-49.3	-51.0	16.0	6.07e-01	0	22	0	459800576	66	4629
2026-01-12 11:48:19.93	176.53	35.55	-49.4	-51.1	16.0	6.04e-01	0	22	0	461373440	66	4681
2026-01-12 11:48:20.92	176.67	35.81	-49.5	-51.3	15.9	6.05e-01	0	22	0	463470592	66	4780
2026-01-12 11:48:21.92	176.81	36.07	-49.9	-51.7	15.9	6.04e-01	0	22	0	465043456	67	4731
2026-01-12 11:48:22.91	176.96	36.33	-50.0	-51.8	15.9	6.07e-01	0	22	0	467140608	67	4804
2026-01-12 11:48:23.90	177.11	36.59	-49.8	-51.6	16.0	6.04e-01	0	22	0	469237760	67	4679
2026-01-12 11:48:24.90	177.26	36.86	-49.9	-51.7	15.9	6.03e-01	0	22	0	470810624	67	4735
2026-01-12 11:48:25.88	177.41	37.12	-50.0	-51.8	15.9	6.04e-01	0	22	0	472907776	67	4795
2026-01-12 11:48:26.88	177.57	37.39	-50.3	-52.2	15.9	6.06e-01	0	23	0	474480640	68	4743
2026-01-12 11:48:27.87	177.73	37.66	-50.5	-52.4	15.8	6.08e-01	0	22	0	476577792	68	4833
2026-01-12 11:48:28.86	177.89	37.93	-50.4	-52.3	15.8	6.07e-01	0	22	0	478150656	68	4797
2026-01-12 11:48:29.86	178.05	38.21	-50.3	-52.2	15.9	6.07e-01	0	22	0	480247808	68	4726
2026-01-12 11:48:30.86	178.22	38.49	-50.6	-52.6	15.7	6.05e-01	0	23	0	481820672	68	4935
2026-01-12 11:48:31.86	178.39	38.77	-50.8	-52.8	15.8	6.07e-01	0	22	0	483917824	69	4812
2026-01-12 11:48:32.85	178.57	39.05	-50.6	-52.5	15.9	6.06e-01	0	22	0	486014976	69	4641
2026-01-12 11:48:33.85	178.74	39.34	-50.3	-52.2	16.1	6.07e-01	0	22	0	487587840	69	4449
2026-01-12 11:48:34.84	178.92	39.62	-50.3	-52.1	16.1	6.08e-01	0	22	0	489684992	69	4427
2026-01-12 11:48:35.84	179.11	39.91	-50.2	-52.0	16.1	6.05e-01	0	22	0	491257856	69	4382
2026-01-12 11:48:36.83	179.29	40.20	-50.1	-51.9	16.2	6.05e-01	0	22	0	493355008	69	4296
2026-01-12 11:48:37.82	179.48	40.50	-49.9	-51.7	16.3	6.05e-01	0	23	0	494927872	69	4197
2026-01-12 11:48:38.82	179.67	40.79	-49.9	-51.6	16.4	6.07e-01	0	22	0	497025024	69	4188
2026-01-12 11:48:39.81	179.87	41.09	-49.7	-51.4	16.2	6.05e-01	0	23	0	498597888	68	4331
2026-01-12 11:48:40.80	180.07	41.39	-49.5	-51.2	16.3	6.09e-01	0	22	0	500695040	68	4228
2026-01-12 11:48:41.79	180.27	41.69	-49.6	-51.3	16.2	6.08e-01	0	22	0	502792192	68	4280
2026-01-12 11:48:42.78	180.48	41.99	-49.4	-51.1	16.4	6.07e-01	0	22	0	504365056	68	4176
2026-01-12 11:48:43.78	180.69	42.30	-49.4	-51.1	16.4	6.09e-01	0	22	0	506462208	68	4167
2026-01-12 11:48:44.77	180.90	42.61	-49.3	-50.9	16.2	6.07e-01	0	22	0	508035072	67	4336
2026-01-12 11:48:45.76	181.12	42.92	-49.0	-50.6	16.4	6.06e-01	0	22	0	510132224	67	4183
2026-01-12 11:48:46.76	181.35	43.23	-48.6	-50.2	16.3	6.05e-01	0	22	0	511705088	66	4219
2026-01-12 11:48:47.75	181.57	43.54	-48.7	-50.3	16.3	6.08e-01	0	22	0	513802240	66	4278
2026-01-12 11:48:48.74	181.80	43.86	-48.5	-50.1	16.4	6.07e-01	0	22	0	515375104	66	4165
2026-01-12 11:48:49.73	182.04	44.18	-48.1	-49.6	16.4	6.05e-01	0	22	0	517472256	65	4175
2026-01-12 11:48:50.72	182.28	44.50	-48.3	-49.8	16.3	6.07e-01	0	22	0	519045120	65	4269
2026-01-12 11:48:51.72	182.53	44.83	-48.4	-50.0	16.2	6.04e-01	0	22	0	521142272	65	4375
2026-01-12 11:48:52.72	182.78	45.16	-48.3	-49.8	16.3	6.06e-01	0	22	0	523239424	65	4267
2026-01-12 11:48:53.71	183.04	45.48	-48.2	-49.7	16.3	6.07e-01	0	22	0	524812288	65	4230
2026-01-12 11:48:54.70	183.30	45.81	-48.2	-49.7	16.3	6.06e-01	0	23	0	526909440	65	4232
2026-01-12 11:48:55.70	183.57	46.15	-48.3	-49.9	16.3	6.06e-01	0	23	0	528482304	65	4319
2026-01-12 11:48:56.69	183.84	46.48	-48.3	-49.9	16.3	6.06e-01	0	22	0	530579456	65	4298
2026-01-12 11:48:57.68	184.12	46.82	-48.2	-49.7	16.3	6.07e-01	0	22	0	532676608	65	4219
2026-01-12 11:48:58.68	184.41	47.16	-48.3	-49.8	16.3	6.06e-01	0	23	0	534249472	65	4282
2026-01-12 11:48:59.66	184.70	47.50	-48.3	-49.9	16.2	6.07e-01	0	22	0	535822336	65	4329
2026-01-12 11:49:00.66	185.00	47.84	-48.2	-49.8	16.3	6.10e-01	0	22	0	537919488	65	4251
2026-01-12 11:49:01.65	185.30	48.19	-48.5	-50.0	16.2	6.07e-01	0	23	0	540016640	65	4384
2026-01-12 11:49:02.64	185.61	48.53	-48.2	-49.8	16.3	6.06e-01	0	22	0	541589504	65	4267
2026-01-12 11:49:03.63	185.93	48.88	-48.2	-49.8	16.3	6.07e-01	0	22	0	543686656	65	4266
2026-01-12 11:49:04.62	186.26	49.23	-48.2	-49.8	16.3	6.09e-01	0	22	0	545259520	65	4263
2026-01-12 11:49:05.63	186.60	49.59	-48.3	-49.8	16.3	6.05e-01	0	22	0	547356672	65	4276
2026-01-12 11:49:06.62	186.94	49.95	-48.2	-49.7	16.3	6.08e-01	0	22	0	548929536	65	4214
2026-01-12 11:49:07.61	187.29	50.30	-48.2	-49.7	16.3	6.05e-01	0	23	0	551026688	65	4225
2026-01-12 11:49:08.60	187.64	50.66	-47.9	-49.4	16.4	6.06e-01	0	22	0	552599552	65	4072
2026-01-12 11:49:09.59	188.01	51.02	-48.1	-49.6	16.4	6.07e-01	0	22	0	554696704	65	4174
2026-01-12 11:49:10.58	188.39	51.38	-48.1	-49.7	16.3	6.06e-01	0	22	0	556793856	65	4197
2026-01-12 11:49:11.57	188.77	51.74	-47.8	-49.3	16.3	6.07e-01	0	22	0	558366720	64	4277
2026-01-12 11:49:12.56	189.16	52.11	-48.1	-49.6	16.2	6.06e-01	0	22	0	560463872	64	4420
2026-01-12 11:49:13.56	189.57	52.48	-47.8	-49.3	16.3	6.07e-01	0	22	0	562036736	64	4258
2026-01-12 11:49:14.55	189.98	52.85	-47.7	-49.2	16.3	6.03e-01	0	23	0	564133888	64	4238
2026-01-12 11:49:15.55	190.41	53.22	-47.8	-49.3	16.3	6.05e-01	0	22	0	565706752	64	4276
2026-01-12 11:49:16.54	190.85	53.59	-48.0	-49.6	16.2	6.07e-01	0	22	0	567803904	64	4399
2026-01-12 11:49:17.54	191.30	53.96	-48.0	-49.5	16.2	6.05e-01	0	22	0	569376768	64	4358
2026-01-12 11:49:18.54	191.76	54.34	-48.0	-49.6	16.2	6.09e-01	0	22	0	571473920	64	4414
2026-01-12 11:49:19.54	192.23	54.72	-48.2	-49.8	16.1	6.09e-01	0	22	0	573571072	64	4494
2026-01-12 11:49:20.53	192.72	55.09	-48.3	-49.9	16.1	6.08e-01	0	22	0	575143936	64	4582
2026-01-12 11:49:21.52	193.21	55.46	-48.4	-50.0	16.1	6.07e-01	0	22	0	577241088	64	4601
2026-01-12 11:49:22.52	193.72	55.84	-48.6	-50.2	16.1	6.08e-01	0	22	0	578813952	65	4480
2026-01-12 11:49:23.51	194.25	56.22	-48.5	-50.1	16.2	6.06e-01	0	22	0	580911104	65	4416
2026-01-12 11:49:24.50	194.78	56.59	-49.0	-50.7	16.0	6.07e-01	0	22	0	582483968	65	4728
2026-01-12 11:49:25.50	195.34	56.98	-48.9	-50.5	16.0	6.06e-01	0	23	0	584581120	65	4643
2026-01-12 11:49:26.49	195.91	57.35	-49.2	-50.9	16.1	6.06e-01	0	22	0	586153984	66	4581
2026-01-12 11:49:27.48	196.49	57.73	-49.5	-51.3	15.9	6.07e-01	0	23	0	588251136	66	4766
2026-01-12 11:49:28.47	197.09	58.10	-49.6	-51.3	15.9	6.05e-01	0	23	0	589824000	66	4762
2026-01-12 11:49:29.47	197.71	58.48	-50.1	-51.9	15.8	6.06e-01	0	22	0	591921152	67	4850
2026-01-12 11:49:30.46	198.35	58.86	-50.1	-51.9	15.9	6.07e-01	0	22	0	594018304	67	4828
2026-01-12 11:49:31.45	199.00	59.23	-50.4	-52.3	15.9	6.06e-01	0	22	0	595591168	68	4770
2026-01-12 11:49:32.45	199.68	59.61	-50.5	-52.4	15.8	6.07e-01	0	22	0	597688320	68	4824
2026-01-12 11:49:33.45	200.38	59.98	-50.5	-52.4	15.8	6.07e-01	0	23	0	599261184	68	4819
2026-01-12 11:49:34.44	201.09	60.35	-50.9	-52.9	15.8	6.05e-01	0	22	0	601358336	69	4816
2026-01-12 11:49:35.43	201.82	60.72	-51.0	-53.0	15.8	6.07e-01	0	22	0	603455488	69	4916
2026-01-12 11:49:36.43	202.58	61.09	-50.8	-52.7	15.9	6.07e-01	0	23	0	605028352	69	4713
2026-01-12 11:49:37.43	203.37	61.46	-51.5	-53.6	15.7	6.07e-01	0	22	0	607125504	70	4939
2026-01-12 11:49:38.43	204.17	61.82	-51.5	-53.6	15.7	6.05e-01	0	22	0	608698368	70	4954
2026-01-12 11:49:39.42	205.00	62.18	-51.3	-53.3	15.8	6.05e-01	0	22	0	610795520	70	4769
2026-01-12 11:49:40.42	205.85	62.54	-51.7	-53.9	15.7	6.08e-01	0	22	0	612368384	71	4841
2026-01-12 11:49:41.41	206.73	62.89	-51.7	-53.8	15.8	6.05e-01	0	22	0	614465536	71	4802
2026-01-12 11:49:42.41	207.63	63.24	-51.6	-53.7	15.5	6.05e-01	0	23	0	616038400	71	4741
2026-01-12 11:49:43.40	208.56	63.59	-51.7	-53.8	15.8	6.08e-01	0	22	0	618135552	71	4770
2026-01-12 11:49:44.40	209.52	63.93	-52.2	-54.5	15.5	6.05e-01	0	22	0	620232704	72	4881
2026-01-12 11:49:45.39	210.50	64.26	-52.1	-54.3	15.7	6.05e-01	0	22	0	621805568	72	4780
2026-01-12 11:49:46.38	211.51	64.59	-52.3	-54.6	15.6	6.06e-01	0	22	0	623378432	72	4975
2026-01-12 11:49:47.36	212.54	64.91	-52.7	-55.1	15.4	6.07e-01	0	22	0	625475584	73	4953
2026-01-12 11:49:48.36	213.62	65.23	-53.0	-55.5	15.4	6.07e-01	0	22	0	627572736	73	5195
2026-01-12 11:49:49.35	214.72	65.54	-52.7	-55.1	15.5	6.08e-01	0	23	0	629145600	73	4976
2026-01-12 11:49:50.35	215.86	65.85	-53.3	-55.9	15.3	6.07e-01	0	22	0	631242752	74	5158
2026-01-12 11:49:51.34	217.03	66.15	-53.5	-56.3	15.1	6.04e-01	0	22	0	632815616	74	5348
2026-01-12 11:49:52.34	218.23	66.44	-52.9	-55.4	15.6	6.06e-01	0	22	0	634912768	74	4853
2026-01-12 11:49:53.33	219.46	66.72	-53.2	-55.9	15.4	6.02e-01	0	23	0	636485632	74	5107
2026-01-12 11:49:54.32	220.72	66.99	-53.3	-56.0	15.3	6.03e-01	0	23	0	638582784	74	5196
2026-01-12 11:49:55.31	222.01	67.25	-53.0	-55.5	15.5	6.04e-01	0	23	0	640155648	74	4923
2026-01-12 11:49:56.30	223.33	67.50	-53.3	-56.0	15.3	6.04e-01	0	22	0	642252800	74	5169
2026-01-12 11:49:57.30	224.70	67.74	-53.2	-55.8	15.4	6.02e-01	0	23	0	644349952	74	5093
2026-01-12 11:49:58.29	226.08	67.97	-52.7	-55.1	15.7	6.03e-01	0	22	0	645922816	74	4679
2026-01-12 11:49:59.28	227.50	68.19	-52.8	-55.3	15.7	6.05e-01	0	22	0	648019968	74	4769
2026-01-12 11:50:00.27	228.95	68.39	-52.6	-54.9	15.9	6.04e-01	0	22	0	649592832	74	4568
2026-01-12 11:50:01.26	230.42	68.59	-53.2	-55.9	15.4	6.04e-01	0	23	0	651689984	74	5105
2026-01-12 11:50:02.25	231.93	68.77	-52.4	-54.7	16.0	6.04e-01	0	23	0	653262848	74	4459
2026-01-12 11:50:03.25	233.48	68.94	-53.0	-55.5	15.6	6.05e-01	0	22	0	655360000	74	4913
2026-01-12 11:50:04.23	235.02	69.09	-52.7	-55.0	15.8	6.03e-01	0	22	0	657457152	74	4645
2026-01-12 11:50:05.23	236.61	69.23	-52.6	-54.9	15.8	6.02e-01	0	22	0	659030016	74	4572
2026-01-12 11:50:06.22	238.21	69.35	-52.5	-54.9	15.9	6.01e-01	0	22	0	660602880	74	4547
2026-01-12 11:50:07.21	239.84	69.46	-52.8	-55.2	15.7	6.06e-01	0	22	0	662700032	74	4744
2026-01-12 11:50:08.20	241.47	69.56	-51.9	-54.0	16.0	6.02e-01	0	23	0	664797184	73	4364
2026-01-12 11:50:09.19	243.13	69.64	-52.1	-54.3	15.7	6.02e-01	0	22	0	666370048	72	4810
2026-01-12 11:50:10.19	244.81	69.70	-52.3	-54.6	15.6	6.05e-01	0	23	0	668467200	72	4967
2026-01-12 11:50:11.18	246.49	69.75	-51.7	-53.8	15.9	6.04e-01	0	22	0	670040064	72	4504
2026-01-12 11:50:12.17	248.17	69.78	-51.8	-53.9	15.9	6.03e-01	0	23	0	672137216	72	4582
2026-01-12 11:50:13.17	249.87	69.79	-52.1	-54.3	15.8	6.04e-01	0	22	0	673710080	72	4760
2026-01-12 11:50:14.17	251.58	69.79	-51.7	-53.8	15.9	6.02e-01	0	23	0	675807232	72	4529
2026-01-12 11:50:15.16	253.27	69.77	-52.0	-54.2	15.8	6.05e-01	0	22	0	677380096	72	4727
2026-01-12 11:50:16.15	254.95	69.74	-52.4	-54.7	15.6	6.02e-01	0	22	0	679477248	72	5032
2026-01-12 11:50:17.14	256.62	69.69	-52.0	-54.1	15.8	6.05e-01	0	23	0	681574400	72	4700
2026-01-12 11:50:18.14	258.30	69.62	-52.0	-54.2	15.8	6.02e-01	0	23	0	683147264	72	4717
2026-01-12 11:50:19.14	259.97	69.54	-52.4	-54.7	15.6	6.03e-01	0	22	0	685244416	72	4990
2026-01-12 11:50:20.13	261.61	69.44	-52.2	-54.4	15.7	6.05e-01	0	23	0	686817280	72	4837
2026-01-12 11:50:21.12	263.22	69.33	-52.0	-54.2	15.8	6.03e-01	0	22	0	688914432	72	4712
2026-01-12 11:50:22.11	264.82	69.20	-51.9	-54.1	15.9	6.03e-01	0	22	0	690487296	72	4660
2026-01-12 11:50:23.11	266.41	69.06	-52.1	-54.3	15.7	6.05e-01	0	22	0	692584448	72	4769
2026-01-12 11:50:24.10	267.96	68.90	-51.7	-53.8	16.0	6.03e-01	0	22	0	694157312	72	4517
2026-01-12 11:50:25.09	269.49	68.73	-51.7	-53.7	16.0	6.03e-01	0	23	0	696254464	72	4475
2026-01-12 11:50:26.09	271.00	68.55	-52.0	-54.2	15.8	6.03e-01	0	23	0	698351616	72	4740
2026-01-12 11:50:27.08	272.47	68.35	-51.6	-53.7	16.0	6.04e-01	0	22	0	699924480	72	4445
2026-01-12 11:50:28.08	273.92	68.14	-51.7	-53.8	16.0	6.02e-01	0	23	0	702021632	72	4512
2026-01-12 11:50:29.07	275.33	67.92	-51.8	-53.9	15.9	6.02e-01	0	23	0	703594496	72	4585
2026-01-12 11:50:30.06	276.71	67.69	-52.0	-54.1	15.8	6.03e-01	0	23	0	705691648	72	4695
2026-01-12 11:50:31.05	278.06	67.45	-51.8	-53.8	16.0	6.02e-01	0	22	0	707264512	72	4540
2026-01-12 11:50:32.05	279.38	67.19	-52.0	-54.1	15.9	6.04e-01	0	23	0	709361664	72	4699
2026-01-12 11:50:33.04	280.67	66.93	-51.7	-53.8	16.0	6.02e-01	0	23	0	711458816	72	4526
2026-01-12 11:50:34.04	281.93	66.65	-52.0	-54.2	15.8	6.04e-01	0	22	0	713031680	72	4707
2026-01-12 11:50:35.03	283.15	66.37	-51.5	-53.5	16.1	6.04e-01	0	22	0	715128832	72	4353
2026-01-12 11:50:36.03	284.34	66.08	-51.2	-53.1	16.1	6.02e-01	0	23	0	716701696	71	4415
2026-01-12 11:50:37.02	285.50	65.78	-51.2	-53.1	16.1	6.04e-01	0	23	0	718798848	71	4408
2026-01-12 11:50:38.02	286.63	65.48	-51.4	-53.4	16.0	6.05e-01	0	23	0	720371712	71	4591
2026-01-12 11:50:39.01	287.72	65.17	-50.9	-52.8	16.2	6.05e-01	0	23	0	722468864	71	4248
2026-01-12 11:50:40.00	288.78	64.85	-50.5	-52.3	16.2	6.02e-01	0	23	0	724041728	70	4268
2026-01-12 11:50:41.00	289.83	64.52	-50.5	-52.3	16.2	6.04e-01	0	22	0	726138880	70	4291
2026-01-12 11:50:42.00	290.84	64.19	-50.9	-52.8	16.0	5.98e-01	0	22	0	728236032	70	4527
2026-01-12 11:50:42.99	291.81	63.85	-50.7	-52.5	16.1	6.03e-01	0	22	0	729808896	70	4371
2026-01-12 11:50:43.98	292.76	63.51	-50.4	-52.2	16.3	6.03e-01	0	23	0	731906048	70	4205
2026-01-12 11:50:44.98	293.68	63.17	-50.5	-52.3	16.0	6.02e-01	0	23	0	733478912	69	4505
2026-01-12 11:50:45.97	294.58	62.82	-50.7	-52.6	15.9	6.03e-01	0	23	0	735576064	69	4665
2026-01-12 11:50:46.97	295.45	62.46	-50.4	-52.2	16.1	6.06e-01	0	23	0	737148928	69	4484
2026-01-12 11:50:47.97	296.30	62.10	-50.1	-51.9	16.2	6.01e-01	0	22	0	739246080	69	4300
2026-01-12 11:50:48.96	297.12	61.74	-49.7	-51.4	16.2	6.04e-01	0	22	0	740818944	68	4308
2026-01-12 11:50:49.95	297.91	61.38	-50.0	-51.8	16.1	6.02e-01	0	22	0	742916096	68	4512
2026-01-12 11:50:50.95	298.69	61.02	-49.8	-51.5	16.1	6.02e-01	0	22	0	745013248	68	4379
2026-01-12 11:50:51.95	299.44	60.65	-49.8	-51.5	16.2	6.02e-01	0	22	0	746586112	68	4347
2026-01-12 11:50:52.95	300.18	60.28	-49.6	-51.3	16.2	6.03e-01	0	23	0	748683264	68	4266
2026-01-12 11:50:53.95	300.89	59.90	-49.6	-51.2	16.3	6.01e-01	0	22	0	750256128	68	4216
2026-01-12 11:50:54.94	301.57	59.53	-50.2	-51.9	16.0	6.04e-01	0	23	0	752353280	68	4593
2026-01-12 11:50:55.93	302.24	59.16	-49.6	-51.3	16.2	6.04e-01	0	22	0	753926144	68	4272
2026-01-12 11:50:56.92	302.89	58.79	-49.2	-50.8	16.3	6.04e-01	0	22	0	756023296	67	4245
2026-01-12 11:50:57.91	303.52	58.41	-49.2	-50.8	16.2	6.05e-01	0	22	0	757596160	67	4291
2026-01-12 11:50:58.90	304.13	58.04	-49.4	-51.1	16.2	6.03e-01	0	23	0	759693312	67	4405
2026-01-12 11:50:59.89	304.72	57.66	-49.3	-50.9	16.2	6.02e-01	0	23	0	761790464	67	4339
2026-01-12 11:51:00.88	305.30	57.29	-49.3	-50.9	16.2	6.06e-01	0	22	0	763363328	67	4326
2026-01-12 11:51:01.86	305.86	56.91	-49.1	-50.7	16.3	6.04e-01	0	22	0	764936192	67	4227
2026-01-12 11:51:02.85	306.41	56.54	-49.1	-50.8	16.2	6.03e-01	0	23	0	767033344	67	4250
2026-01-12 11:51:03.86	306.95	56.16	-48.5	-50.0	16.4	6.01e-01	0	22	0	769130496	66	4129
2026-01-12 11:51:04.85	307.47	55.78	-48.7	-50.3	16.3	6.03e-01	0	23	0	770703360	66	4264
2026-01-12 11:51:05.85	307.98	55.40	-48.8	-50.4	16.2	6.04e-01	0	23	0	772800512	66	4320
2026-01-12 11:51:06.84	308.47	55.03	-48.6	-50.2	16.3	6.04e-01	0	23	0	774373376	66	4198
2026-01-12 11:51:07.83	308.95	54.66	-48.5	-50.1	16.3	6.04e-01	0	22	0	776470528	66	4150
2026-01-12 11:51:08.82	309.42	54.29	-48.5	-50.1	16.4	6.02e-01	0	22	0	778043392	66	4157
2026-01-12 11:51:09.82	309.88	53.91	-48.7	-50.3	16.3	5.98e-01	0	22	0	780140544	66	4244
2026-01-12 11:51:10.82	310.33	53.54	-48.6	-50.1	16.3	6.03e-01	0	23	0	782237696	66	4181
2026-01-12 11:51:11.80	310.75	53.17	-48.5	-50.0	16.4	6.06e-01	0	23	0	783810560	66	4126
2026-01-12 11:51:12.80	311.18	52.80	-48.5	-50.1	16.4	6.04e-01	0	22	0	785907712	66	4155
2026-01-12 11:51:13.79	311.59	52.44	-48.6	-50.2	16.3	6.02e-01	0	22	0	787480576	66	4215
2026-01-12 11:51:14.78	311.99	52.07	-48.6	-50.2	16.3	6.02e-01	0	22	0	789577728	66	4222
2026-01-12 11:51:15.76	312.38	51.71	-48.7	-50.2	16.3	6.01e-01	0	22	0	791150592	66	4229
2026-01-12 11:51:16.77	312.77	51.34	-48.9	-50.5	16.2	6.04e-01	0	22	0	793247744	66	4360
2026-01-12 11:51:17.77	313.14	50.98	-48.9	-50.5	16.2	6.02e-01	0	23	0	794820608	66	4380
2026-01-12 11:51:18.77	313.51	50.62	-49.0	-50.7	16.2	6.03e-01	0	23	0	796917760	66	4442
2026-01-12 11:51:19.76	313.87	50.26	-49.3	-51.0	16.0	6.01e-01	0	22	0	799014912	66	4614
2026-01-12 11:51:20.75	314.21	49.91	-49.4	-51.0	16.0	6.04e-01	0	22	0	800587776	66	4647
2026-01-12 11:51:21.74	314.55	49.55	-49.4	-51.0	16.0	6.03e-01	0	23	0	802684928	66	4650
2026-01-12 11:51:22.74	314.89	49.20	-49.3	-51.0	16.0	6.02e-01	0	22	0	804257792	66	4632
2026-01-12 11:51:23.72	315.21	48.85	-49.3	-51.0	16.0	6.04e-01	0	23	0	806354944	66	4614
2026-01-12 11:51:24.72	315.53	48.50	-49.3	-50.9	16.0	6.03e-01	0	23	0	807927808	66	4592
2026-01-12 11:51:25.72	315.84	48.16	-49.5	-51.2	15.9	6.03e-01	0	22	0	810024960	66	4736
2026-01-12 11:51:26.71	316.14	47.81	-49.5	-51.2	15.9	6.01e-01	0	22	0	811597824	66	4752
2026-01-12 11:51:27.70	316.44	47.47	-49.4	-51.1	16.0	6.03e-01	0	22	0	813694976	66	4671
2026-01-12 11:51:28.69	316.73	47.13	-49.3	-51.0	16.0	6.03e-01	0	22	0	815792128	66	4620
2026-01-12 11:51:29.69	317.01	46.79	-49.3	-50.9	16.0	6.02e-01	0	22	0	817364992	66	4595
2026-01-12 11:51:30.68	317.29	46.46	-49.4	-51.1	16.0	6.02e-01	0	22	0	819462144	66	4676
2026-01-12 11:51:31.67	317.56	46.13	-49.4	-51.0	16.0	6.02e-01	0	22	0	821035008	66	4638
2026-01-12 11:51:32.66	317.83	45.79	-49.2	-50.9	16.1	6.04e-01	0	22	0	823132160	66	4557
2026-01-12 11:51:33.66	318.09	45.46	-49.3	-50.9	16.0	6.02e-01	0	23	0	824705024	66	4583
2026-01-12 11:51:34.65	318.35	45.14	-49.5	-51.2	16.0	6.03e-01	0	23	0	826802176	66	4708
2026-01-12 11:51:35.64	318.60	44.81	-49.4	-51.0	16.0	6.02e-01	0	23	0	828375040	66	4641
2026-01-12 11:51:36.64	318.84	44.49	-49.3	-50.9	16.0	6.01e-01	0	23	0	830472192	66	4577
2026-01-12 11:51:37.63	319.08	44.17	-49.2	-50.8	16.0	6.04e-01	0	22	0	832569344	66	4544
2026-01-12 11:51:38.63	319.32	43.85	-49.4	-51.1	16.0	6.04e-01	0	23	0	834142208	66	4676
2026-01-12 11:51:39.63	319.55	43.53	-49.5	-51.1	16.0	6.03e-01	0	22	0	835715072	66	4705
2026-01-12 11:51:40.62	319.78	43.22	-49.5	-51.2	16.0	6.03e-01	0	22	0	837812224	66	4713
2026-01-12 11:51:41.63	320.01	42.90	-49.5	-51.2	16.0	6.02e-01	0	23	0	839909376	66	4730
2026-01-12 11:51:42.62	320.22	42.59	-49.4	-51.1	16.0	6.04e-01	0	22	0	841482240	66	4679
2026-01-12 11:51:43.61	320.44	42.29	-49.5	-51.2	15.9	6.02e-01	0	22	0	843579392	66	4757
2026-01-12 11:51:44.60	320.65	41.98	-49.6	-51.3	15.9	6.02e-01	0	23	0	845152256	66	4789
2026-01-12 11:51:45.60	320.85	41.68	-49.7	-51.4	16.0	6.04e-01	0	22	0	847249408	67	4584
2026-01-12 11:51:46.60	321.06	41.38	-49.8	-51.5	16.0	6.03e-01	0	22	0	849346560	67	4649
2026-01-12 11:51:47.60	321.26	41.08	-49.7	-51.5	16.0	6.02e-01	0	22	0	850919424	67	4615
2026-01-12 11:51:48.59	321.45	40.78	-49.8	-51.5	16.0	6.04e-01	0	23	0	853016576	67	4651
2026-01-12 11:51:49.58	321.64	40.49	-49.9	-51.7	15.9	6.04e-01	0	22	0	854589440	67	4706
2026-01-12 11:51:50.57	321.83	40.20	-49.8	-51.6	15.9	6.03e-01	0	23	0	856686592	67	4669
2026-01-12 11:51:51.57	322.02	39.91	-49.8	-51.5	16.0	6.01e-01	0	22	0	858259456	67	4622
2026-01-12 11:51:52.56	322.20	39.62	-49.7	-51.4	16.0	6.04e-01	0	22	0	860356608	67	4583
2026-01-12 11:51:53.55	322.38	39.34	-49.8	-51.5	16.0	6.05e-01	0	22	0	861929472	67	4625
2026-01-12 11:51:54.55	322.55	39.05	-49.8	-51.5	16.0	6.03e-01	0	22	0	864026624	67	4642
2026-01-12 11:51:55.55	322.73	38.77	-49.6	-51.3	16.1	6.05e-01	0	22	0	866123776	67	4514
2026-01-12 11:51:56.54	322.89	38.50	-49.7	-51.4	16.0	6.01e-01	0	23	0	867696640	67	4569
2026-01-12 11:51:57.54	323.06	38.22	-49.6	-51.3	16.1	6.02e-01	0	22	0	869793792	67	4502
2026-01-12 11:51:58.52	323.22	37.95	-49.5	-51.2	16.1	6.02e-01	0	22	0	871366656	67	4478
2026-01-12 11:51:59.51	323.38	37.68	-49.6	-51.3	16.1	6.04e-01	0	22	0	873463808	67	4495
2026-01-12 11:52:00.51	323.54	37.40	-49.5	-51.2	16.1	6.05e-01	0	22	0	875036672	67	4467
2026-01-12 11:52:01.50	323.70	37.14	-49.6	-51.3	16.1	6.03e-01	0	23	0	877133824	67	4519
2026-01-12 11:52:02.49	323.85	36.87	-49.5	-51.2	16.1	6.04e-01	0	22	0	878706688	67	4461
2026-01-12 11:52:03.48	324.00	36.61	-49.5	-51.2	16.1	6.01e-01	0	22	0	880803840	67	4485
2026-01-12 11:52:04.48	324.15	36.35	-49.4	-51.1	16.1	6.05e-01	0	22	0	882900992	67	4429
2026-01-12 11:52:05.48	324.30	36.09	-49.3	-51.0	16.2	6.03e-01	0	22	0	884473856	67	4360
2026-01-12 11:52:06.48	324.44	35.83	-49.1	-50.7	16.3	6.02e-01	0	22	0	886571008	67	4200
2026-01-12 11:52:07.46	324.58	35.57	-48.9	-50.5	16.4	6.03e-01	0	22	0	888143872	67	4141
2026-01-12 11:52:08.45	324.72	35.32	-48.7	-50.2	16.3	6.03e-01	0	22	0	890241024	66	4236
2026-01-12 11:52:09.44	324.86	35.07	-48.6	-50.1	16.3	6.01e-01	0	22	0	891813888	66	4193
2026-01-12 11:52:10.44	325.00	34.82	-48.6	-50.2	16.3	6.02e-01	0	22	0	893911040	66	4215
2026-01-12 11:52:11.43	325.13	34.57	-48.6	-50.2	16.3	6.03e-01	0	22	0	895483904	66	4216
2026-01-12 11:52:12.42	325.26	34.33	-48.5	-50.0	16.3	6.02e-01	0	22	0	897581056	66	4135
2026-01-12 11:52:13.42	325.39	34.08	-48.5	-50.1	16.4	6.03e-01	0	22	0	899153920	66	4149
2026-01-12 11:52:14.42	325.52	33.84	-48.2	-49.8	16.3	6.04e-01	0	22	0	901251072	65	4261
2026-01-12 11:52:15.42	325.64	33.60	-48.1	-49.6	16.3	6.03e-01	0	22	0	903348224	65	4179
2026-01-12 11:52:16.40	325.77	33.36	-48.1	-49.7	16.3	6.04e-01	0	22	0	904921088	65	4198
2026-01-12 11:52:17.40	325.89	33.12	-48.1	-49.6	16.3	6.04e-01	0	23	0	907018240	65	4168
2026-01-12 11:52:18.39	326.01	32.89	-47.9	-49.4	16.4	6.00e-01	0	22	0	908591104	65	4066
2026-01-12 11:52:19.39	326.13	32.66	-47.8	-49.3	16.3	6.04e-01	0	22	0	910688256	64	4258
2026-01-12 11:52:20.38	326.25	32.43	-47.8	-49.2	16.3	6.01e-01	0	22	0	912261120	64	4240
2026-01-12 11:52:21.37	326.36	32.20	-47.7	-49.2	16.3	6.03e-01	0	22	0	914358272	64	4238
2026-01-12 11:52:22.37	326.47	31.97	-47.7	-49.2	16.4	6.05e-01	0	23	0	915931136	64	4196
2026-01-12 11:52:23.36	326.59	31.74	-47.7	-49.3	16.3	6.05e-01	0	22	0	918028288	64	4244
2026-01-12 11:52:24.35	326.70	31.52	-47.8	-49.3	16.3	6.03e-01	0	22	0	920125440	64	4264
2026-01-12 11:52:25.35	326.81	31.30	-47.7	-49.2	16.3	6.03e-01	0	22	0	921698304	64	4235
2026-01-12 11:52:26.34	326.91	31.08	-47.8	-49.3	16.3	6.03e-01	0	22	0	923795456	64	4273
2026-01-12 11:52:27.34	327.02	30.86	-47.7	-49.2	16.3	6.05e-01	0	22	0	925368320	64	4203
2026-01-12 11:52:28.33	327.13	30.64	-47.7	-49.2	16.3	6.02e-01	0	22	0	927465472	64	4212
2026-01-12 11:52:29.32	327.23	30.43	-47.7	-49.2	16.3	6.02e-01	0	22	0	929038336	64	4226
2026-01-12 11:52:30.31	327.33	30.21	-47.8	-49.3	16.3	6.02e-01	0	22	0	931135488	64	4268
2026-01-12 11:52:31.30	327.43	30.00	-47.8	-49.3	16.3	6.04e-01	0	22	0	932708352	64	4281
2026-01-12 11:52:32.30	327.53	29.79	-47.9	-49.4	16.2	6.02e-01	0	22	0	934805504	64	4334
2026-01-12 11:52:33.28	327.63	29.58	-48.0	-49.5	16.2	6.01e-01	0	22	0	936902656	64	4386
2026-01-12 11:52:34.27	327.72	29.38	-48.0	-49.5	16.2	6.03e-01	0	22	0	938475520	64	4382
2026-01-12 11:52:35.26	327.82	29.17	-48.1	-49.7	16.1	6.04e-01	0	22	0	940572672	64	4470
2026-01-12 11:52:36.26	327.91	28.96	-48.2	-49.8	16.1	6.02e-01	0	22	0	942145536	64	4502
2026-01-12 11:52:37.25	328.01	28.76	-48.3	-49.9	16.1	6.03e-01	0	22	0	944242688	64	4558
2026-01-12 11:52:38.23	328.10	28.56	-48.2	-49.8	16.1	6.02e-01	0	22	0	945815552	64	4533
2026-01-12 11:52:39.23	328.19	28.36	-48.3	-49.9	16.1	6.02e-01	0	22	0	947912704	64	4573
2026-01-12 11:52:40.23	328.28	28.16	-48.2	-49.8	16.1	6.04e-01	0	22	0	949485568	64	4499
2026-01-12 11:52:41.23	328.37	27.96	-48.2	-49.7	16.1	6.03e-01	0	22	0	951582720	64	4493
2026-01-12 11:52:42.22	328.46	27.77	-48.2	-49.8	16.1	6.01e-01	0	22	0	953155584	64	4514
2026-01-12 11:52:43.21	328.54	27.58	-48.3	-49.8	16.1	6.01e-01	0	22	0	955252736	64	4534
2026-01-12 11:52:44.21	328.63	27.38	-48.3	-49.8	16.1	6.05e-01	0	22	0	957349888	64	4545
2026-01-12 11:52:45.20	328.71	27.19	-48.4	-50.0	16.0	6.02e-01	0	22	0	958922752	64	4634
2026-01-12 11:52:46.20	328.80	27.00	-48.5	-50.1	16.0	6.00e-01	0	22	0	961019904	64	4662
2026-01-12 11:52:47.18	328.88	26.81	-48.5	-50.1	16.0	6.05e-01	0	23	0	962592768	64	4668
2026-01-12 11:52:48.18	328.96	26.62	-48.6	-50.2	16.0	6.03e-01	0	22	0	964689920	64	4716
2026-01-12 11:52:49.18	329.04	26.44	-48.5	-50.2	16.0	6.01e-01	0	22	0	966262784	64	4706
2026-01-12 11:52:50.16	329.12	26.26	-48.7	-50.3	16.1	6.02e-01	0	22	0	968359936	65	4502
2026-01-12 11:52:51.15	329.20	26.07	-48.7	-50.3	16.1	6.03e-01	0	22	0	969932800	65	4544
2026-01-12 11:52:52.14	329.28	25.89	-48.8	-50.5	16.0	6.04e-01	0	22	0	972029952	65	4607
2026-01-12 11:52:53.13	329.36	25.71	-48.8	-50.4	16.1	6.04e-01	0	23	0	974127104	65	4576
2026-01-12 11:52:54.13	329.43	25.53	-48.8	-50.5	16.0	6.04e-01	0	22	0	975699968	65	4608
2026-01-12 11:52:55.12	329.51	25.35	-48.9	-50.6	16.0	6.02e-01	0	22	0	977272832	65	4686
2026-01-12 11:52:56.12	329.58	25.17	-48.9	-50.6	15.9	6.03e-01	0	22	0	979369984	65	4685
2026-01-12 11:52:57.11	329.66	25.00	-48.9	-50.6	16.0	6.05e-01	0	23	0	981467136	65	4686
2026-01-12 11:52:58.09	329.73	24.83	-49.1	-50.8	15.9	6.03e-01	0	22	0	983040000	65	4766
2026-01-12 11:52:59.08	329.80	24.65	-48.9	-50.6	16.0	6.02e-01	0	22	0	985137152	65	4675
2026-01-12 11:53:00.08	329.87	24.48	-48.9	-50.6	16.0	6.05e-01	0	22	0	986710016	65	4691
2026-01-12 11:53:01.07	329.94	24.31	-49.0	-50.7	16.0	6.05e-01	0	22	0	988807168	65	4715
2026-01-12 11:53:02.06	330.01	24.14	-48.9	-50.6	16.0	6.03e-01	0	22	0	990380032	65	4665
2026-01-12 11:53:03.05	330.08	23.97	-49.0	-50.6	16.0	6.01e-01	0	22	0	992477184	65	4705
2026-01-12 11:53:04.04	330.15	23.81	-48.9	-50.6	16.0	6.01e-01	0	22	0	994574336	65	4660
2026-01-12 11:53:05.04	330.22	23.64	-49.0	-50.7	16.0	6.02e-01	0	22	0	996147200	65	4724
2026-01-12 11:53:06.04	330.29	23.47	-49.0	-50.7	16.0	6.03e-01	0	23	0	998244352	65	4723
2026-01-12 11:53:07.03	330.35	23.31	-48.9	-50.5	16.0	6.03e-01	0	22	0	999817216	65	4633
2026-01-12 11:53:08.03	330.42	23.14	-48.9	-50.5	16.0	6.04e-01	0	22	0	1001914368	65	4626
2026-01-12 11:53:09.02	330.49	22.98	-48.7	-50.4	16.1	6.01e-01	0	22	0	1003487232	65	4557
2026-01-12 11:53:10.02	330.55	22.82	-48.6	-50.2	16.1	6.06e-01	0	22	0	1005584384	65	4473
2026-01-12 11:53:11.01	330.61	22.66	-48.6	-50.2	16.1	6.03e-01	0	23	0	1007157248	65	4492
2026-01-12 11:53:12.01	330.68	22.50	-48.6	-50.2	16.1	6.02e-01	0	23	0	1009254400	65	4474
2026-01-12 11:53:13.00	330.74	22.34	-48.7	-50.3	16.1	6.03e-01	0	23	0	1011351552	65	4528
2026-01-12 11:53:13.99	330.80	22.19	-48.7	-50.3	16.1	6.05e-01	0	23	0	1012924416	65	4527
2026-01-12 11:53:14.98	330.86	22.03	-48.7	-50.3	16.1	6.04e-01	0	22	0	1015021568	65	4536
2026-01-12 11:53:15.98	330.92	21.88	-48.7	-50.3	16.1	6.03e-01	0	22	0	1016594432	65	4521
2026-01-12 11:53:16.96	330.98	21.73	-48.7	-50.3	16.1	6.02e-01	0	22	0	1018691584	65	4527
2026-01-12 11:53:17.96	331.04	21.57	-48.7	-50.3	16.1	6.03e-01	0	22	0	1020264448	65	4526
2026-01-12 11:53:18.95	331.10	21.42	-48.7	-50.3	16.1	6.04e-01	0	22	0	1022361600	65	4530
2026-01-12 11:53:19.95	331.16	21.27	-48.6	-50.2	16.1	6.03e-01	0	22	0	1023934464	65	4483
2026-01-12 11:53:20.95	331.22	21.12	-48.6	-50.2	16.1	6.05e-01	0	22	0	1026031616	65	4486
2026-01-12 11:53:21.93	331.28	20.97	-48.6	-50.2	16.1	6.01e-01	0	22	0	1028128768	65	4457
2026-01-12 11:53:22.93	331.33	20.82	-48.7	-50.3	16.1	6.05e-01	0	23	0	1029701632	65	4510
2026-01-12 11:53:23.92	331.39	20.68	-48.7	-50.3	16.1	6.02e-01	0	23	0	1031274496	65	4518
2026-01-12 11:53:24.91	331.44	20.53	-48.7	-50.3	16.1	6.02e-01	0	23	0	1033371648	65	4534
2026-01-12 11:53:25.91	331.50	20.38	-48.6	-50.3	16.1	6.02e-01	0	23	0	1035468800	65	4522
2026-01-12 11:53:26.90	331.56	20.24	-48.6	-50.2	16.1	6.05e-01	0	23	0	1037041664	65	4489
2026-01-12 11:53:27.90	331.61	20.10	-48.6	-50.3	16.1	6.04e-01	0	23	0	1039138816	65	4495
2026-01-12 11:53:28.89	331.66	19.95	-48.7	-50.4	16.1	6.01e-01	0	22	0	1040711680	65	4567
2026-01-12 11:53:29.89	331.72	19.81	-48.6	-50.2	16.1	6.04e-01	0	22	0	1042808832	65	4487
2026-01-12 11:53:30.88	331.77	19.67	-48.6	-50.2	16.1	6.04e-01	0	22	0	1044905984	65	4478
2026-01-12 11:53:31.87	331.82	19.53	-48.6	-50.2	16.1	6.02e-01	0	22	0	1046478848	65	4477
2026-01-12 11:53:32.87	331.87	19.39	-48.5	-50.2	16.1	6.03e-01	0	22	0	1048051712	65	4444
2026-01-12 11:53:33.86	331.93	19.25	-48.5	-50.1	16.2	6.04e-01	0	22	0	1050148864	65	4432
2026-01-12 11:53:34.86	331.98	19.12	-48.5	-50.1	16.1	6.03e-01	0	22	0	1052246016	65	4427
2026-01-12 11:53:35.86	332.03	18.98	-48.5	-50.1	16.1	6.03e-01	0	22	0	1053818880	65	4416
2026-01-12 11:53:36.85	332.08	18.84	-48.5	-50.1	16.1	6.02e-01	0	22	0	1055916032	65	4438
2026-01-12 11:53:37.85	332.13	18.71	-48.4	-50.0	16.2	6.04e-01	0	22	0	1057488896	65	4388
2026-01-12 11:53:38.85	332.18	18.57	-48.4	-50.0	16.2	6.03e-01	0	22	0	1059586048	65	4377
2026-01-12 11:53:39.84	332.23	18.44	-48.5	-50.1	16.2	6.01e-01	0	22	0	1061683200	65	4423
2026-01-12 11:53:40.84	332.28	18.30	-48.5	-50.1	16.2	6.04e-01	0	22	0	1063256064	65	4405
2026-01-12 11:53:41.83	332.32	18.17	-48.3	-49.8	16.2	6.06e-01	0	22	0	1065353216	65	4287
2026-01-12 11:53:42.83	332.37	18.04	-48.3	-49.9	16.3	6.04e-01	0	22	0	1066926080	65	4297
2026-01-12 11:53:43.82	332.42	17.91	-48.4	-50.0	16.2	6.04e-01	0	23	0	1069023232	65	4350
2026-01-12 11:53:44.82	332.47	17.78	-48.4	-50.0	16.2	6.03e-01	0	23	0	1070596096	65	4345
2026-01-12 11:53:45.81	332.51	17.65	-48.3	-49.9	16.2	6.01e-01	0	22	0	1072693248	65	4317
2026-01-12 11:53:46.81	332.56	17.52	-48.3	-49.9	16.2	6.02e-01	0	22	0	1074266112	65	4337
2026-01-12 11:53:47.81	332.60	17.39	-48.4	-50.0	16.2	6.01e-01	0	22	0	1076363264	65	4368
2026-01-12 11:53:48.81	332.65	17.27	-48.5	-50.1	16.2	6.04e-01	0	22	0	1078460416	65	4437
2026-01-12 11:53:49.80	332.69	17.14	-48.4	-50.0	16.2	6.01e-01	0	22	0	1080033280	65	4373
2026-01-12 11:53:50.79	332.74	17.02	-48.4	-50.0	16.2	6.01e-01	0	22	0	1082130432	65	4368
2026-01-12 11:53:51.78	332.78	16.89	-48.4	-50.0	16.2	6.03e-01	0	22	0	1083703296	65	4370
2026-01-12 11:53:52.78	332.83	16.77	-48.3	-49.9	16.2	6.00e-01	0	23	0	1085800448	65	4323
2026-01-12 11:53:53.77	332.87	16.64	-48.4	-50.0	16.2	6.03e-01	0	22	0	1087373312	65	4368
2026-01-12 11:53:54.77	332.91	16.52	-48.4	-50.0	16.2	6.06e-01	0	22	0	1089470464	65	4351
2026-01-12 11:53:55.76	332.96	16.40	-48.3	-49.9	16.2	6.00e-01	0	23	0	1091043328	65	4328
2026-01-12 11:53:56.75	333.00	16.28	-48.3	-50.0	16.2	6.04e-01	0	22	0	1093140480	65	4344
2026-01-12 11:53:57.75	333.04	16.16	-48.4	-50.0	16.2	6.01e-01	0	22	0	1095237632	65	4374
2026-01-12 11:53:58.74	333.08	16.04	-48.4	-50.1	16.2	6.03e-01	0	22	0	1096810496	65	4403
2026-01-12 11:53:59.74	333.13	15.92	-48.5	-50.1	16.2	6.03e-01	0	22	0	1098907648	65	4427
2026-01-12 11:54:00.73	333.17	15.80	-48.5	-50.1	16.1	6.04e-01	0	22	0	1100480512	65	4439
2026-01-12 11:54:01.72	333.21	15.68	-48.5	-50.2	16.1	6.04e-01	0	22	0	1102577664	65	4470
2026-01-12 11:54:02.72	333.25	15.56	-48.5	-50.2	16.1	6.05e-01	0	22	0	1104150528	65	4477
2026-01-12 11:54:03.71	333.29	15.45	-48.5	-50.1	16.2	6.02e-01	0	22	0	1106247680	65	4432
2026-01-12 11:54:04.70	333.33	15.33	-48.4	-50.1	16.2	6.04e-01	0	22	0	1107820544	65	4405
2026-01-12 11:54:05.69	333.37	15.22	-48.5	-50.2	16.2	6.05e-01	0	22	0	1109917696	65	4443
2026-01-12 11:54:06.68	333.41	15.10	-48.5	-50.2	16.2	6.04e-01	0	22	0	1112014848	65	4456
2026-01-12 11:54:07.68	333.45	14.99	-48.4	-50.1	16.2	6.04e-01	0	22	0	1113587712	65	4393
2026-01-12 11:54:08.67	333.49	14.87	-48.5	-50.2	16.2	6.03e-01	0	22	0	1115684864	65	4442
2026-01-12 11:54:09.66	333.53	14.76	-48.5	-50.1	16.2	6.02e-01	0	22	0	1117257728	65	4425
2026-01-12 11:54:10.65	333.56	14.65	-48.5	-50.1	16.2	6.04e-01	0	22	0	1119354880	65	4425
2026-01-12 11:54:11.64	333.60	14.54	-48.5	-50.1	16.1	6.02e-01	0	22	0	1120927744	65	4437
2026-01-12 11:54:12.63	333.64	14.42	-48.5	-50.2	16.1	6.04e-01	0	22	0	1123024896	65	4442
2026-01-12 11:54:13.62	333.68	14.31	-48.5	-50.1	16.1	6.03e-01	0	22	0	1124597760	65	4434
2026-01-12 11:54:14.61	333.71	14.20	-48.4	-50.1	16.2	6.00e-01	0	22	0	1126694912	65	4402
2026-01-12 11:54:15.61	333.75	14.09	-48.5	-50.2	16.1	6.04e-01	0	22	0	1128267776	65	4449
2026-01-12 11:54:16.60	333.79	13.98	-48.6	-50.3	16.1	6.04e-01	0	22	0	1130364928	65	4499
2026-01-12 11:54:17.59	333.82	13.87	-48.5	-50.1	16.2	6.03e-01	0	23	0	1132462080	65	4432
2026-01-12 11:54:18.58	333.86	13.77	-48.5	-50.2	16.1	6.03e-01	0	22	0	1134034944	65	4474
2026-01-12 11:54:19.57	333.90	13.66	-48.5	-50.1	16.1	6.02e-01	0	23	0	1136132096	65	4427
2026-01-12 11:54:20.56	333.93	13.55	-48.4	-50.0	16.2	6.02e-01	0	22	0	1137704960	65	4381
2026-01-12 11:54:21.55	333.97	13.45	-48.5	-50.2	16.1	6.04e-01	0	22	0	1139802112	65	4442
2026-01-12 11:54:22.55	334.00	13.34	-48.4	-50.1	16.1	6.04e-01	0	22	0	1141374976	65	4420
2026-01-12 11:54:23.54	334.04	13.23	-48.5	-50.1	16.1	6.03e-01	0	23	0	1143472128	65	4433
2026-01-12 11:54:24.54	334.07	13.13	-48.5	-50.2	16.1	6.01e-01	0	22	0	1145044992	65	4460
2026-01-12 11:54:25.53	334.11	13.02	-48.6	-50.2	16.1	6.04e-01	0	23	0	1147142144	65	4489
2026-01-12 11:54:26.52	334.14	12.92	-48.5	-50.1	16.1	6.04e-01	0	22	0	1148715008	65	4440
2026-01-12 11:54:27.51	334.18	12.82	-48.4	-50.1	16.1	6.01e-01	0	23	0	1150812160	65	4399
2026-01-12 11:54:28.51	334.21	12.71	-48.5	-50.2	16.1	6.04e-01	0	23	0	1152909312	65	4455
2026-01-12 11:54:29.50	334.24	12.61	-48.5	-50.2	16.1	6.04e-01	0	22	0	1154482176	65	4463
2026-01-12 11:54:30.49	334.28	12.51	-48.5	-50.1	16.1	6.03e-01	0	22	0	1156579328	65	4433
2026-01-12 11:54:31.48	334.31	12.41	-48.6	-50.3	16.1	6.02e-01	0	23	0	1158152192	65	4495
2026-01-12 11:54:32.48	334.34	12.30	-48.5	-50.2	16.1	6.04e-01	0	22	0	1160249344	65	4462
2026-01-12 11:54:33.47	334.38	12.20	-48.6	-50.3	16.1	6.04e-01	0	22	0	1161822208	65	4518
2026-01-12 11:54:34.47	334.41	12.10	-48.6	-50.3	16.0	6.05e-01	0	23	0	1163919360	65	4543
2026-01-12 11:54:35.46	334.44	12.00	-48.7	-50.4	16.0	6.04e-01	0	23	0	1165492224	65	4549
2026-01-12 11:54:36.45	334.47	11.90	-48.6	-50.3	16.1	6.04e-01	0	22	0	1167589376	65	4518
2026-01-12 11:54:37.44	334.51	11.80	-48.7	-50.4	16.0	6.05e-01	0	22	0	1169686528	65	4560
2026-01-12 11:54:38.44	334.54	11.70	-48.8	-50.5	16.0	6.04e-01	0	22	0	1171259392	65	4617
2026-01-12 11:54:39.44	334.57	11.61	-48.7	-50.4	16.0	6.04e-01	0	22	0	1173356544	65	4577
2026-01-12 11:54:40.43	334.60	11.51	-48.8	-50.5	16.0	6.02e-01	0	23	0	1174929408	65	4630
2026-01-12 11:54:41.42	334.63	11.41	-48.8	-50.6	15.9	6.02e-01	0	22	0	1177026560	65	4668
2026-01-12 11:54:42.42	334.66	11.31	-48.8	-50.5	16.0	6.04e-01	0	22	0	1178599424	65	4649
2026-01-12 11:54:43.41	334.69	11.22	-48.9	-50.6	15.9	6.03e-01	0	22	0	1180696576	65	4688
2026-01-12 11:54:44.40	334.73	11.12	-48.9	-50.7	15.9	6.04e-01	0	22	0	1182269440	65	4717
2026-01-12 11:54:45.40	334.76	11.02	-48.8	-50.5	16.0	6.05e-01	0	22	0	1184366592	65	4638
2026-01-12 11:54:46.39	334.79	10.93	-48.7	-50.4	16.0	6.03e-01	0	22	0	1186463744	65	4582
2026-01-12 11:54:47.38	334.82	10.83	-48.7	-50.4	16.0	6.01e-01	0	22	0	1188036608	65	4597
2026-01-12 11:54:48.38	334.85	10.74	-48.8	-50.5	16.0	6.02e-01	0	22	0	1190133760	65	4648
2026-01-12 11:54:49.38	334.88	10.64	-48.8	-50.5	16.0	6.00e-01	0	22	0	1191706624	65	4614
2026-01-12 11:54:50.36	334.91	10.55	-48.8	-50.5	16.0	6.05e-01	0	22	0	1193803776	65	4628
2026-01-12 11:54:51.36	334.94	10.46	-48.9	-50.6	16.0	6.02e-01	0	22	0	1195376640	65	4674
2026-01-12 11:54:52.35	334.96	10.37	-48.9	-50.6	15.9	6.04e-01	0	22	0	1197473792	65	4699
2026-01-12 11:54:53.33	334.99	10.27	-48.9	-50.7	15.9	6.03e-01	0	22	0	1199046656	65	4706
2026-01-12 11:54:54.33	335.02	10.18	-48.9	-50.6	15.9	6.03e-01	0	22	0	1201143808	65	4679
2026-01-12 11:54:55.32	335.05	10.09	-48.9	-50.6	15.9	6.01e-01	0	22	0	1202716672	65	4700
2026-01-12 11:54:56.31	335.08	10.00	-48.9	-50.6	15.9	6.02e-01	0	22	0	1204813824	65	4702
2026-01-12 11:54:57.30	335.11	9.91	-48.9	-50.7	15.9	6.03e-01	0	22	0	1206910976	65	4721
2026-01-12 11:54:58.30	335.14	9.82	-48.9	-50.7	15.9	6.02e-01	0	22	0	1208483840	65	4732
2026-01-12 11:54:59.29	335.16	9.73	-49.0	-50.7	15.9	6.03e-01	0	22	0	1210580992	65	4745
2026-01-12 11:55:00.28	335.19	9.64	-48.9	-50.7	15.9	6.04e-01	0	22	0	1212153856	65	4724
2026-01-12 11:55:01.27	335.22	9.55	-49.0	-50.7	15.9	6.02e-01	0	23	0	1214251008	65	4758
2026-01-12 11:55:02.27	335.25	9.46	-48.9	-50.7	15.9	6.03e-01	0	22	0	1215823872	65	4728
2026-01-12 11:55:03.26	335.28	9.37	-49.0	-50.8	15.9	6.03e-01	0	22	0	1217921024	65	4764
2026-01-12 11:55:04.25	335.30	9.28	-49.1	-50.9	15.9	6.03e-01	0	22	0	1219493888	65	4831
2026-01-12 11:55:05.24	335.33	9.19	-49.1	-50.9	15.8	6.01e-01	0	22	0	1221591040	65	4865
2026-01-12 11:55:06.24	335.36	9.10	-49.2	-51.0	16.0	6.03e-01	0	23	0	1223688192	66	4604
2026-01-12 11:55:07.24	335.38	9.02	-49.1	-50.9	16.0	6.04e-01	0	22	0	1225261056	66	4588
2026-01-12 11:55:08.24	335.41	8.93	-49.2	-51.1	16.0	6.01e-01	0	22	0	1227358208	66	4655
2026-01-12 11:55:09.23	335.44	8.84	-49.2	-51.0	16.0	6.03e-01	0	22	0	1228931072	66	4628
2026-01-12 11:55:10.22	335.46	8.76	-49.2	-51.0	16.0	6.02e-01	0	22	0	1231028224	66	4615
