passes_logs/2026/01/04/R4.6S_Anadyr/R4.6S_Anadyr__20260104_223648_NOAA_21_JPSS-2_rec.log

#Pass ID: 20260104_223648_NOAA 21 (JPSS-2)
#Satellite: NOAA 21 (JPSS-2)
#Configuration: NOAA-21
#almurnet v.1.7.20251203
#Start time: 2026-01-04 22:36:54

#Version: 2.2.20231116
#Station: R4.6S_Anadyr
#Location: 177.4865 lon 64.73178 lat
#TLE: 1 54234U 22150A   26003.45311712  .00000198  00000+0  11468-3 0  9993
#TLE: 2 54234  98.7487 304.4932 0001159 347.5017  12.6130 14.19531745163172

#Time	Az	El	Level	Level2	SNR	BER	BlckErr	Temp	State	Recorded	gain1	gain2
2026-01-04 22:36:54.42	117.15	0.35	-49.0	-50.7	5.7	0.00e+00	0	29	0	0	60	41767
2026-01-04 22:36:55.39	117.12	0.41	-49.0	-61.9	3.5	1.52e+00	0	31	104	0	60	43620
2026-01-04 22:36:56.37	117.08	0.46	-48.9	-61.8	3.5	1.52e+00	0	31	104	0	60	43188
2026-01-04 22:36:57.35	117.04	0.52	-48.9	-61.8	3.5	1.52e+00	0	31	104	0	60	43239
2026-01-04 22:36:58.33	117.00	0.58	-48.9	-61.8	3.5	1.51e+00	0	31	104	0	60	42975
2026-01-04 22:36:59.31	116.96	0.63	-48.9	-61.7	3.5	1.52e+00	0	31	104	0	60	42612
2026-01-04 22:37:00.28	116.92	0.69	-48.7	-61.6	3.5	1.52e+00	0	31	104	0	60	42286
2026-01-04 22:37:01.26	116.88	0.75	-48.7	-61.6	3.5	1.52e+00	0	31	104	0	60	41983
2026-01-04 22:37:02.24	116.84	0.80	-48.7	-61.5	3.5	1.52e+00	0	31	104	0	60	41891
2026-01-04 22:37:03.22	116.80	0.86	-48.6	-61.5	3.5	1.52e+00	0	31	104	0	60	41591
2026-01-04 22:37:04.19	116.76	0.92	-48.5	-61.4	3.5	1.52e+00	0	31	104	0	60	41222
2026-01-04 22:37:05.17	116.72	0.98	-48.3	-61.2	3.5	1.52e+00	0	31	104	0	60	40464
2026-01-04 22:37:06.15	116.68	1.03	-48.0	-61.0	3.5	1.52e+00	0	31	104	0	60	39361
2026-01-04 22:37:07.13	116.64	1.09	-47.7	-60.6	3.5	1.52e+00	0	31	104	0	60	37431
2026-01-04 22:37:08.10	116.60	1.15	-46.6	-59.9	3.5	1.52e+00	0	31	104	0	60	34537
2026-01-04 22:37:09.08	116.56	1.21	-46.6	-59.8	3.5	1.51e+00	0	31	104	0	60	34380
2026-01-04 22:37:10.06	116.52	1.27	-46.5	-59.8	3.5	1.52e+00	0	31	104	0	60	34220
2026-01-04 22:37:11.04	116.48	1.32	-46.5	-59.8	3.5	1.52e+00	0	31	104	0	60	34361
2026-01-04 22:37:12.01	116.44	1.38	-46.6	-59.8	3.5	1.52e+00	0	31	104	0	60	34455
2026-01-04 22:37:12.99	116.40	1.44	-46.6	-59.8	3.5	1.52e+00	0	31	104	0	60	34377
2026-01-04 22:37:13.97	116.36	1.50	-46.7	-59.8	3.5	1.52e+00	0	31	104	0	60	34129
2026-01-04 22:37:14.95	116.32	1.56	-46.6	-59.8	3.5	1.51e+00	0	31	104	0	60	34346
2026-01-04 22:37:15.93	116.27	1.62	-46.5	-59.8	3.5	1.52e+00	0	31	104	0	60	34330
2026-01-04 22:37:16.91	116.23	1.68	-46.5	-59.9	3.5	1.52e+00	0	31	104	0	60	34525
2026-01-04 22:37:17.89	116.19	1.74	-46.5	-59.8	3.5	1.52e+00	0	31	104	0	60	34375
2026-01-04 22:37:18.87	116.15	1.79	-46.4	-59.8	3.5	1.52e+00	0	31	104	0	60	34464
2026-01-04 22:37:19.85	116.10	1.85	-46.5	-59.9	3.5	1.51e+00	0	31	104	0	60	34508
2026-01-04 22:37:20.82	116.06	1.91	-46.4	-59.8	3.5	1.52e+00	0	31	104	0	60	34228
2026-01-04 22:37:21.81	116.02	1.97	-46.4	-59.8	3.5	1.52e+00	0	31	104	0	60	34263
2026-01-04 22:37:22.78	115.98	2.03	-46.5	-59.7	3.5	1.52e+00	0	31	104	0	60	34017
2026-01-04 22:37:23.77	115.93	2.09	-46.4	-59.6	3.5	1.52e+00	0	31	104	0	60	33506
2026-01-04 22:37:24.75	115.89	2.15	-46.5	-59.5	3.5	1.52e+00	0	31	104	0	60	33318
2026-01-04 22:37:25.72	115.84	2.21	-46.5	-59.4	3.5	1.52e+00	0	31	104	0	60	32851
2026-01-04 22:37:26.70	115.80	2.27	-46.5	-59.4	3.5	1.52e+00	0	31	104	0	60	32790
2026-01-04 22:37:27.68	115.76	2.33	-46.4	-59.4	3.5	1.52e+00	0	31	104	0	60	32698
2026-01-04 22:37:28.65	115.71	2.39	-46.5	-59.4	3.5	1.52e+00	0	31	104	0	60	32853
2026-01-04 22:37:29.63	115.67	2.45	-46.6	-59.5	3.5	1.52e+00	0	31	104	0	60	33295
2026-01-04 22:37:30.60	115.62	2.51	-46.6	-59.7	3.5	1.52e+00	0	31	104	0	60	33714
2026-01-04 22:37:31.58	115.58	2.57	-46.5	-59.8	3.5	1.52e+00	0	31	104	0	60	34330
2026-01-04 22:37:32.56	115.53	2.63	-46.5	-59.8	3.5	1.52e+00	0	31	104	0	60	34425
2026-01-04 22:37:33.53	115.49	2.69	-46.5	-59.8	3.5	1.52e+00	0	31	104	0	60	34415
2026-01-04 22:37:34.51	115.44	2.75	-46.6	-59.7	3.5	1.52e+00	0	31	104	0	60	34033
2026-01-04 22:37:35.49	115.40	2.81	-46.6	-59.8	3.5	1.52e+00	0	31	104	0	60	34355
2026-01-04 22:37:36.47	115.35	2.88	-46.6	-59.9	3.5	1.52e+00	0	31	104	0	60	34588
2026-01-04 22:37:37.45	115.31	2.94	-46.5	-59.7	3.5	1.52e+00	0	31	104	0	60	33990
2026-01-04 22:37:38.43	115.26	3.00	-46.5	-59.5	3.5	1.52e+00	0	31	104	0	60	33055
2026-01-04 22:37:39.41	115.21	3.06	-46.6	-59.5	3.5	1.52e+00	0	31	104	0	60	33033
2026-01-04 22:37:40.39	115.17	3.12	-46.4	-58.8	3.5	1.51e+00	0	31	104	0	60	30537
2026-01-04 22:37:41.37	115.12	3.18	-46.5	-59.0	3.5	1.52e+00	0	31	104	0	60	31376
2026-01-04 22:37:42.34	115.07	3.24	-46.6	-59.0	3.5	1.52e+00	0	31	104	0	60	31340
2026-01-04 22:37:43.32	115.03	3.31	-46.6	-59.6	3.5	1.52e+00	0	31	104	0	60	33622
2026-01-04 22:37:44.30	114.98	3.37	-46.4	-58.4	3.5	1.52e+00	0	31	104	0	60	29327
2026-01-04 22:37:45.28	114.93	3.43	-45.8	-54.0	5.3	1.20e+00	0	31	104	0	60	17560
2026-01-04 22:37:46.26	114.88	3.49	-46.1	-55.0	5.2	1.20e+00	0	31	104	0	60	19773
2026-01-04 22:37:47.24	114.83	3.56	-45.9	-53.6	4.1	1.27e+00	0	31	104	0	60	16711
2026-01-04 22:37:48.22	114.79	3.62	-44.3	-48.5	10.5	5.11e-03	0	31	0	0	60	9287
2026-01-04 22:37:49.19	114.74	3.68	-44.5	-48.6	10.2	8.86e-04	0	31	0	3145728	60	9466
2026-01-04 22:37:50.17	114.69	3.74	-46.6	-59.0	3.5	1.52e+00	0	31	104	4194304	60	31155
2026-01-04 22:37:51.15	114.64	3.81	-47.1	-59.8	3.5	1.52e+00	0	31	104	4194304	60	34465
2026-01-04 22:37:52.13	114.59	3.87	-44.7	-50.5	8.2	3.30e-03	0	31	104	4194304	60	11747
2026-01-04 22:37:53.11	114.54	3.93	-38.4	-39.7	19.4	0.00e+00	0	31	0	6291456	50	6044
2026-01-04 22:37:54.08	114.49	4.00	-46.5	-57.7	3.6	1.51e+00	0	32	104	8388608	60	26991
2026-01-04 22:37:55.06	114.44	4.06	-38.5	-39.9	19.3	6.94e-05	0	31	0	8388608	50	6156
2026-01-04 22:37:56.04	114.39	4.12	-38.3	-39.7	19.4	0.00e+00	0	31	0	11534336	50	6014
2026-01-04 22:37:57.02	114.34	4.19	-38.3	-39.7	19.5	0.00e+00	0	31	0	14680064	50	5998
2026-01-04 22:37:58.00	114.29	4.25	-38.3	-39.6	19.6	0.00e+00	0	32	0	17825792	50	5957
2026-01-04 22:37:58.98	114.24	4.31	-37.9	-39.1	20.0	0.00e+00	0	31	0	20971520	48	6339
2026-01-04 22:37:59.96	114.19	4.38	-37.9	-39.2	20.0	0.00e+00	0	31	0	24117248	48	6352
2026-01-04 22:38:00.93	114.14	4.44	-38.0	-39.3	20.1	0.00e+00	0	31	0	27262976	48	6464
2026-01-04 22:38:01.91	114.09	4.51	-37.8	-39.0	20.2	0.00e+00	0	31	0	30408704	48	6250
2026-01-04 22:38:02.88	114.04	4.57	-37.6	-38.8	20.5	0.00e+00	0	32	0	33554432	48	6070
2026-01-04 22:38:03.86	113.98	4.63	-37.8	-39.1	20.3	0.00e+00	0	31	0	36700160	48	6283
2026-01-04 22:38:04.84	113.93	4.70	-38.0	-39.3	19.7	0.00e+00	0	31	0	39845888	48	6427
2026-01-04 22:38:05.82	113.88	4.76	-37.4	-38.6	20.6	0.00e+00	0	32	0	41943040	48	5949
2026-01-04 22:38:06.79	113.83	4.83	-38.1	-39.3	20.1	0.00e+00	0	31	0	45088768	48	6459
2026-01-04 22:38:07.77	113.77	4.89	-38.1	-39.3	20.0	0.00e+00	0	31	0	48234496	48	6489
2026-01-04 22:38:08.75	113.72	4.96	-37.7	-38.9	20.4	0.00e+00	0	32	0	51380224	48	6164
2026-01-04 22:38:09.73	113.67	5.02	-37.6	-38.8	20.6	0.00e+00	0	31	0	54525952	48	6071
2026-01-04 22:38:10.71	113.61	5.09	-37.3	-38.5	20.8	0.00e+00	0	31	0	57671680	48	5867
2026-01-04 22:38:11.68	113.56	5.16	-37.2	-38.3	21.0	0.00e+00	0	31	0	60817408	48	5742
2026-01-04 22:38:12.66	113.50	5.22	-37.4	-38.5	20.7	0.00e+00	0	32	0	63963136	48	5894
2026-01-04 22:38:13.64	113.45	5.29	-37.3	-38.4	20.8	0.00e+00	0	32	0	67108864	48	5852
2026-01-04 22:38:14.62	113.40	5.35	-37.6	-38.7	20.6	0.00e+00	0	32	0	70254592	48	6050
2026-01-04 22:38:15.59	113.34	5.42	-37.3	-38.4	20.9	0.00e+00	0	32	0	73400320	48	5851
2026-01-04 22:38:16.57	113.29	5.49	-37.2	-38.4	21.0	0.00e+00	0	31	0	75497472	48	5792
2026-01-04 22:38:17.55	113.23	5.55	-37.3	-38.5	20.9	0.00e+00	0	31	0	78643200	48	5862
2026-01-04 22:38:18.53	113.17	5.62	-37.0	-38.1	21.1	0.00e+00	0	31	0	81788928	48	5646
2026-01-04 22:38:19.51	113.12	5.69	-37.4	-38.5	20.9	0.00e+00	0	31	0	84934656	48	5922
2026-01-04 22:38:20.49	113.06	5.75	-37.3	-38.5	20.8	0.00e+00	0	32	0	88080384	48	5886
2026-01-04 22:38:21.47	113.00	5.82	-38.0	-39.2	20.0	0.00e+00	0	32	0	91226112	48	6366
2026-01-04 22:38:22.45	112.95	5.89	-37.3	-38.5	20.7	0.00e+00	0	32	0	94371840	48	5872
2026-01-04 22:38:23.43	112.89	5.95	-37.4	-38.5	20.9	0.00e+00	0	32	0	97517568	48	5902
2026-01-04 22:38:24.40	112.83	6.02	-37.6	-38.8	20.8	0.00e+00	0	32	0	100663296	48	6077
2026-01-04 22:38:25.39	112.77	6.09	-37.5	-38.7	20.8	0.00e+00	0	32	0	103809024	48	6021
2026-01-04 22:38:26.37	112.72	6.16	-37.5	-38.7	20.9	0.00e+00	0	32	0	106954752	48	6010
2026-01-04 22:38:27.34	112.66	6.22	-37.5	-38.6	20.8	0.00e+00	0	31	0	110100480	48	5959
2026-01-04 22:38:28.32	112.60	6.29	-37.1	-38.2	21.2	0.00e+00	0	32	0	112197632	48	5718
2026-01-04 22:38:29.29	112.54	6.36	-38.2	-39.4	20.3	0.00e+00	0	32	0	115343360	48	6553
2026-01-04 22:38:30.27	112.48	6.43	-37.4	-38.5	20.8	0.00e+00	0	32	0	118489088	48	5924
2026-01-04 22:38:31.25	112.42	6.50	-37.6	-38.8	20.8	0.00e+00	0	32	0	121634816	48	6090
2026-01-04 22:38:32.23	112.36	6.57	-37.6	-38.8	20.9	0.00e+00	0	32	0	124780544	48	6080
2026-01-04 22:38:33.21	112.30	6.63	-37.2	-38.3	21.2	0.00e+00	0	32	0	127926272	48	5731
2026-01-04 22:38:34.19	112.24	6.70	-37.1	-38.2	21.4	0.00e+00	0	32	0	131072000	48	5722
2026-01-04 22:38:35.17	112.18	6.77	-37.1	-38.2	21.3	0.00e+00	0	32	0	134217728	48	5668
2026-01-04 22:38:36.14	112.12	6.84	-37.3	-38.4	21.2	0.00e+00	0	32	0	137363456	48	5840
2026-01-04 22:38:37.12	112.06	6.91	-37.5	-38.7	21.0	0.00e+00	0	31	0	140509184	48	6019
2026-01-04 22:38:38.10	112.00	6.98	-36.8	-37.9	21.8	0.00e+00	0	32	0	143654912	46	6139
2026-01-04 22:38:39.08	111.94	7.05	-36.6	-37.7	21.8	0.00e+00	0	32	0	145752064	46	6022
2026-01-04 22:38:40.05	111.88	7.12	-36.8	-37.9	21.6	0.00e+00	0	32	0	148897792	46	6175
2026-01-04 22:38:41.03	111.81	7.19	-36.7	-37.8	21.7	0.00e+00	0	32	0	152043520	46	6104
2026-01-04 22:38:42.01	111.75	7.26	-36.6	-37.7	21.7	0.00e+00	0	32	0	155189248	46	6020
2026-01-04 22:38:42.99	111.69	7.33	-36.3	-37.3	22.1	0.00e+00	0	32	0	158334976	46	5763
2026-01-04 22:38:43.97	111.62	7.40	-36.6	-37.7	21.9	0.00e+00	0	32	0	161480704	46	5996
2026-01-04 22:38:44.94	111.56	7.47	-36.3	-37.3	22.2	0.00e+00	0	32	0	164626432	46	5763
2026-01-04 22:38:45.92	111.50	7.54	-36.3	-37.4	22.1	0.00e+00	0	31	0	167772160	46	5818
2026-01-04 22:38:46.90	111.43	7.61	-36.5	-37.6	21.9	0.00e+00	0	32	0	170917888	46	5955
2026-01-04 22:38:47.88	111.37	7.69	-36.4	-37.4	22.0	0.00e+00	0	32	0	174063616	46	5856
2026-01-04 22:38:48.85	111.30	7.76	-36.4	-37.5	22.0	0.00e+00	0	32	0	177209344	46	5897
2026-01-04 22:38:49.83	111.24	7.83	-36.6	-37.7	21.9	0.00e+00	0	32	0	180355072	46	5999
2026-01-04 22:38:50.81	111.17	7.90	-36.3	-37.3	22.0	0.00e+00	0	32	0	182452224	46	5780
2026-01-04 22:38:51.79	111.10	7.97	-36.2	-37.2	22.2	0.00e+00	0	32	0	185597952	46	5683
2026-01-04 22:38:52.76	111.04	8.04	-36.1	-37.1	22.3	0.00e+00	0	32	0	188743680	46	5623
2026-01-04 22:38:53.73	110.97	8.11	-36.1	-37.2	22.3	0.00e+00	0	32	0	191889408	46	5674
2026-01-04 22:38:54.71	110.91	8.19	-36.3	-37.3	22.2	0.00e+00	0	32	0	195035136	46	5764
2026-01-04 22:38:55.69	110.84	8.26	-36.3	-37.4	22.2	0.00e+00	0	32	0	198180864	46	5796
2026-01-04 22:38:56.67	110.77	8.33	-36.2	-37.3	22.1	0.00e+00	0	32	0	201326592	46	5755
2026-01-04 22:38:57.65	110.70	8.40	-36.2	-37.2	22.3	0.00e+00	0	32	0	204472320	46	5703
2026-01-04 22:38:58.63	110.63	8.48	-36.1	-37.1	22.4	0.00e+00	0	32	0	207618048	46	5639
2026-01-04 22:38:59.60	110.56	8.55	-35.9	-36.9	22.5	0.00e+00	0	32	0	210763776	46	5508
2026-01-04 22:39:00.58	110.50	8.62	-36.0	-37.1	22.4	0.00e+00	0	32	0	213909504	46	5623
2026-01-04 22:39:01.56	110.43	8.70	-35.9	-37.0	22.5	0.00e+00	0	32	0	217055232	46	5533
2026-01-04 22:39:02.54	110.36	8.77	-36.2	-37.2	22.4	0.00e+00	0	32	0	219152384	46	5697
2026-01-04 22:39:03.52	110.29	8.85	-35.7	-36.8	22.8	0.00e+00	0	32	0	222298112	46	5412
2026-01-04 22:39:04.49	110.22	8.92	-35.7	-36.7	22.7	0.00e+00	0	32	0	225443840	44	6055
2026-01-04 22:39:05.47	110.14	8.99	-35.6	-36.6	22.8	0.00e+00	0	32	0	228589568	44	5985
2026-01-04 22:39:06.44	110.07	9.07	-35.8	-36.8	22.7	0.00e+00	0	32	0	231735296	44	6101
2026-01-04 22:39:07.42	110.00	9.14	-35.7	-36.6	22.8	0.00e+00	0	32	0	234881024	44	5992
2026-01-04 22:39:08.40	109.93	9.22	-35.9	-36.9	22.7	0.00e+00	0	32	0	238026752	44	6195
2026-01-04 22:39:09.38	109.86	9.29	-35.5	-36.5	22.9	0.00e+00	0	32	0	241172480	44	5896
2026-01-04 22:39:10.35	109.78	9.37	-35.6	-36.6	22.9	0.00e+00	0	32	0	244318208	44	5959
2026-01-04 22:39:11.34	109.71	9.44	-35.5	-36.6	22.9	0.00e+00	0	32	0	247463936	44	5932
2026-01-04 22:39:12.32	109.64	9.52	-35.4	-36.5	23.1	0.00e+00	0	32	0	250609664	44	5862
2026-01-04 22:39:13.29	109.56	9.59	-35.4	-36.5	23.2	0.00e+00	0	32	0	253755392	44	5861
2026-01-04 22:39:14.27	109.49	9.67	-35.2	-36.2	23.2	0.00e+00	0	32	0	255852544	44	5672
2026-01-04 22:39:15.24	109.41	9.74	-35.3	-36.3	23.0	0.00e+00	0	32	0	258998272	44	5767
2026-01-04 22:39:16.22	109.34	9.82	-35.2	-36.2	23.1	0.00e+00	0	32	0	262144000	44	5684
2026-01-04 22:39:17.19	109.26	9.90	-35.2	-36.2	23.1	0.00e+00	0	32	0	265289728	44	5694
2026-01-04 22:39:18.17	109.19	9.97	-35.4	-36.3	23.1	0.00e+00	0	32	0	268435456	44	5768
2026-01-04 22:39:19.15	109.11	10.05	-35.3	-36.3	23.1	0.00e+00	0	32	0	271581184	44	5748
2026-01-04 22:39:20.13	109.03	10.13	-34.8	-35.7	23.5	0.00e+00	0	32	0	274726912	44	5356
2026-01-04 22:39:21.10	108.96	10.20	-35.0	-35.9	23.4	0.00e+00	0	32	0	277872640	44	5498
2026-01-04 22:39:22.08	108.88	10.28	-35.1	-36.1	23.3	0.00e+00	0	32	0	281018368	44	5629
2026-01-04 22:39:23.06	108.80	10.36	-35.3	-36.2	23.2	0.00e+00	0	32	0	284164096	44	5718
2026-01-04 22:39:24.04	108.72	10.44	-35.4	-36.4	23.1	0.00e+00	0	32	0	287309824	44	5807
2026-01-04 22:39:25.01	108.64	10.51	-34.8	-35.8	23.5	0.00e+00	0	32	0	289406976	44	5417
2026-01-04 22:39:25.99	108.56	10.59	-35.0	-36.0	23.4	0.00e+00	0	32	0	292552704	44	5554
2026-01-04 22:39:26.96	108.48	10.67	-35.1	-36.0	23.3	0.00e+00	0	32	0	295698432	44	5589
2026-01-04 22:39:27.94	108.40	10.75	-35.1	-36.1	23.3	0.00e+00	0	32	0	298844160	44	5604
2026-01-04 22:39:28.92	108.32	10.83	-35.1	-36.1	23.3	0.00e+00	0	32	0	301989888	44	5615
2026-01-04 22:39:29.90	108.24	10.91	-34.9	-35.9	23.4	0.00e+00	0	32	0	305135616	44	5492
2026-01-04 22:39:30.88	108.16	10.98	-35.1	-36.1	23.4	0.00e+00	0	32	0	308281344	44	5621
2026-01-04 22:39:31.85	108.08	11.06	-35.2	-36.1	23.4	0.00e+00	0	32	0	311427072	44	5655
2026-01-04 22:39:32.84	107.99	11.14	-35.1	-36.0	23.3	0.00e+00	0	32	0	314572800	44	5584
2026-01-04 22:39:33.81	107.91	11.22	-35.0	-36.0	23.5	0.00e+00	0	32	0	317718528	44	5567
2026-01-04 22:39:34.80	107.83	11.30	-34.8	-35.7	23.7	0.00e+00	0	32	0	320864256	44	5357
2026-01-04 22:39:35.77	107.74	11.38	-34.9	-35.9	23.5	0.00e+00	0	32	0	322961408	44	5468
2026-01-04 22:39:36.75	107.66	11.46	-35.0	-35.9	23.4	0.00e+00	0	32	0	326107136	44	5511
2026-01-04 22:39:37.73	107.57	11.54	-34.9	-35.8	23.6	0.00e+00	0	32	0	329252864	44	5425
2026-01-04 22:39:38.71	107.49	11.62	-34.8	-35.7	23.6	0.00e+00	0	32	0	332398592	42	6030
2026-01-04 22:39:39.68	107.40	11.70	-34.9	-35.9	23.6	0.00e+00	0	32	0	335544320	42	6153
2026-01-04 22:39:40.66	107.32	11.79	-34.8	-35.7	23.6	0.00e+00	0	32	0	338690048	42	6045
2026-01-04 22:39:41.64	107.23	11.87	-35.0	-35.9	23.5	0.00e+00	0	32	0	341835776	42	6174
2026-01-04 22:39:42.61	107.14	11.95	-35.2	-36.2	23.2	0.00e+00	0	32	0	344981504	42	6352
2026-01-04 22:39:43.59	107.05	12.03	-35.1	-36.1	23.5	0.00e+00	0	32	0	348127232	42	6291
2026-01-04 22:39:44.57	106.97	12.11	-35.1	-36.1	23.4	0.00e+00	0	32	0	351272960	42	6283
2026-01-04 22:39:45.55	106.88	12.19	-34.9	-35.8	23.7	0.00e+00	0	32	0	354418688	42	6094
2026-01-04 22:39:46.53	106.79	12.28	-35.1	-36.0	23.4	0.00e+00	0	32	0	356515840	42	6275
2026-01-04 22:39:47.50	106.70	12.36	-34.9	-35.8	23.7	0.00e+00	0	32	0	359661568	42	6119
2026-01-04 22:39:48.48	106.61	12.44	-35.0	-35.9	23.6	0.00e+00	0	32	0	362807296	42	6169
2026-01-04 22:39:49.46	106.52	12.52	-35.1	-36.1	23.4	0.00e+00	0	32	0	365953024	42	6296
2026-01-04 22:39:50.45	106.42	12.61	-35.1	-36.1	23.4	0.00e+00	0	32	0	369098752	42	6311
2026-01-04 22:39:51.42	106.33	12.69	-35.1	-36.0	23.5	0.00e+00	0	32	0	372244480	42	6245
2026-01-04 22:39:52.39	106.24	12.77	-34.9	-35.8	23.6	0.00e+00	0	31	0	375390208	42	6088
2026-01-04 22:39:53.37	106.15	12.86	-34.9	-35.8	23.8	0.00e+00	0	32	0	378535936	42	6126
2026-01-04 22:39:54.35	106.05	12.94	-34.8	-35.7	23.8	0.00e+00	0	32	0	381681664	42	6039
2026-01-04 22:39:55.33	105.96	13.03	-35.0	-36.0	23.5	0.00e+00	0	32	0	384827392	42	6228
2026-01-04 22:39:56.30	105.86	13.11	-35.4	-36.4	23.3	0.00e+00	0	32	0	387973120	42	6502
2026-01-04 22:39:57.28	105.77	13.19	-35.0	-36.0	23.4	0.00e+00	0	32	0	391118848	42	6214
2026-01-04 22:39:58.25	105.67	13.28	-34.6	-35.6	23.9	0.00e+00	0	32	0	393216000	42	5928
2026-01-04 22:39:59.23	105.58	13.36	-34.7	-35.6	23.8	0.00e+00	0	32	0	396361728	42	5958
2026-01-04 22:40:00.21	105.48	13.45	-34.5	-35.4	24.0	0.00e+00	0	32	0	399507456	42	5852
2026-01-04 22:40:01.19	105.38	13.53	-34.7	-35.6	23.8	0.00e+00	0	32	0	402653184	42	5983
2026-01-04 22:40:02.17	105.28	13.62	-34.7	-35.6	23.7	0.00e+00	0	32	0	405798912	42	5944
2026-01-04 22:40:03.15	105.18	13.71	-34.7	-35.6	23.8	0.00e+00	0	32	0	408944640	42	5952
2026-01-04 22:40:04.12	105.08	13.79	-34.6	-35.5	23.8	0.00e+00	0	32	0	412090368	42	5901
2026-01-04 22:40:05.10	104.98	13.88	-34.7	-35.6	23.8	0.00e+00	0	32	0	415236096	42	5954
2026-01-04 22:40:06.07	104.88	13.96	-34.6	-35.5	23.9	0.00e+00	0	32	0	418381824	42	5899
2026-01-04 22:40:07.05	104.78	14.05	-34.6	-35.6	23.9	0.00e+00	0	32	0	421527552	42	5927
2026-01-04 22:40:08.03	104.68	14.14	-34.6	-35.5	23.9	0.00e+00	0	32	0	424673280	42	5909
2026-01-04 22:40:09.00	104.58	14.22	-34.6	-35.5	23.9	0.00e+00	0	32	0	427819008	42	5925
2026-01-04 22:40:09.98	104.48	14.31	-34.5	-35.4	24.0	0.00e+00	0	32	0	429916160	42	5796
2026-01-04 22:40:10.96	104.37	14.40	-34.5	-35.4	24.0	0.00e+00	0	32	0	433061888	42	5805
2026-01-04 22:40:11.94	104.27	14.49	-34.4	-35.3	24.0	0.00e+00	0	32	0	436207616	42	5790
2026-01-04 22:40:12.91	104.16	14.57	-34.5	-35.5	23.8	0.00e+00	0	32	0	439353344	42	5872
2026-01-04 22:40:13.89	104.06	14.66	-35.0	-35.9	23.6	0.00e+00	0	32	0	442499072	42	6204
2026-01-04 22:40:14.87	103.95	14.75	-34.5	-35.4	23.9	0.00e+00	0	32	0	445644800	42	5813
2026-01-04 22:40:15.85	103.84	14.84	-34.7	-35.7	23.8	0.00e+00	0	32	0	448790528	42	6012
2026-01-04 22:40:16.83	103.74	14.93	-34.6	-35.5	23.8	0.00e+00	0	32	0	451936256	42	5923
2026-01-04 22:40:17.80	103.63	15.02	-34.7	-35.6	23.8	0.00e+00	0	32	0	455081984	42	5987
2026-01-04 22:40:18.78	103.52	15.11	-34.7	-35.6	23.8	0.00e+00	0	32	0	458227712	42	5957
2026-01-04 22:40:19.75	103.41	15.20	-34.6	-35.6	23.8	0.00e+00	0	32	0	461373440	42	5945
2026-01-04 22:40:20.73	103.30	15.29	-34.6	-35.5	23.9	0.00e+00	0	32	0	463470592	42	5923
2026-01-04 22:40:21.71	103.19	15.38	-34.4	-35.4	24.0	0.00e+00	0	32	0	466616320	42	5799
2026-01-04 22:40:22.68	103.08	15.47	-34.5	-35.4	24.0	0.00e+00	0	32	0	469762048	42	5848
2026-01-04 22:40:23.66	102.97	15.56	-34.6	-35.5	23.9	0.00e+00	0	32	0	472907776	42	5887
2026-01-04 22:40:24.64	102.85	15.65	-34.6	-35.5	24.0	0.00e+00	0	32	0	476053504	42	5880
2026-01-04 22:40:25.62	102.74	15.74	-34.6	-35.6	23.9	0.00e+00	0	32	0	479199232	42	5928
2026-01-04 22:40:26.59	102.63	15.83	-34.8	-35.8	23.7	0.00e+00	0	32	0	482344960	42	6078
2026-01-04 22:40:27.57	102.51	15.92	-34.7	-35.6	23.9	0.00e+00	0	32	0	485490688	42	5960
2026-01-04 22:40:28.55	102.40	16.01	-34.7	-35.6	23.8	0.00e+00	0	32	0	488636416	42	5950
2026-01-04 22:40:29.53	102.28	16.10	-34.7	-35.6	23.8	0.00e+00	0	32	0	491782144	42	5966
2026-01-04 22:40:30.51	102.16	16.20	-34.8	-35.7	23.8	0.00e+00	0	32	0	494927872	42	6057
2026-01-04 22:40:31.49	102.04	16.29	-34.6	-35.6	23.8	0.00e+00	0	32	0	498073600	42	5940
2026-01-04 22:40:32.47	101.92	16.38	-34.7	-35.6	24.0	0.00e+00	0	32	0	500170752	42	5941
2026-01-04 22:40:33.44	101.81	16.47	-34.7	-35.6	23.8	0.00e+00	0	32	0	503316480	42	5973
2026-01-04 22:40:34.42	101.69	16.57	-34.8	-35.8	23.6	0.00e+00	0	32	0	506462208	42	6087
2026-01-04 22:40:35.40	101.56	16.66	-34.8	-35.7	23.9	0.00e+00	0	32	0	509607936	42	6014
2026-01-04 22:40:36.37	101.44	16.75	-34.8	-35.8	23.7	0.00e+00	0	32	0	512753664	42	6069
2026-01-04 22:40:37.35	101.32	16.85	-35.0	-35.9	23.6	0.00e+00	0	32	0	515899392	42	6188
2026-01-04 22:40:38.33	101.20	16.94	-34.9	-35.8	23.6	0.00e+00	0	32	0	519045120	42	6125
2026-01-04 22:40:39.31	101.07	17.03	-34.8	-35.8	23.6	0.00e+00	0	32	0	522190848	42	6078
2026-01-04 22:40:40.29	100.95	17.13	-34.8	-35.8	23.7	0.00e+00	0	32	0	525336576	42	6073
2026-01-04 22:40:41.27	100.82	17.22	-34.9	-35.9	23.6	0.00e+00	0	32	0	528482304	42	6154
2026-01-04 22:40:42.25	100.70	17.32	-35.0	-35.9	23.6	0.00e+00	0	32	0	531628032	42	6190
2026-01-04 22:40:43.22	100.57	17.41	-35.1	-36.0	23.6	0.00e+00	0	32	0	533725184	42	6241
2026-01-04 22:40:44.20	100.44	17.51	-35.0	-36.0	23.6	0.00e+00	0	32	0	536870912	42	6226
2026-01-04 22:40:45.18	100.31	17.60	-35.1	-36.0	23.6	0.00e+00	0	32	0	540016640	42	6262
2026-01-04 22:40:46.15	100.18	17.70	-35.0	-36.0	23.6	0.00e+00	0	32	0	543162368	42	6213
2026-01-04 22:40:47.13	100.05	17.79	-35.0	-35.9	23.6	0.00e+00	0	32	0	546308096	42	6195
2026-01-04 22:40:48.11	99.92	17.89	-35.3	-36.2	23.5	0.00e+00	0	32	0	549453824	42	6399
2026-01-04 22:40:49.09	99.79	17.99	-35.0	-35.9	23.7	0.00e+00	0	32	0	552599552	42	6171
2026-01-04 22:40:50.07	99.65	18.08	-34.8	-35.8	23.8	0.00e+00	0	32	0	555745280	42	6067
2026-01-04 22:40:51.04	99.52	18.18	-34.8	-35.7	23.7	0.00e+00	0	32	0	558891008	42	6033
2026-01-04 22:40:52.02	99.39	18.28	-35.0	-35.9	23.6	0.00e+00	0	32	0	562036736	42	6176
2026-01-04 22:40:53.00	99.25	18.37	-34.9	-35.8	23.7	0.00e+00	0	32	0	565182464	42	6113
2026-01-04 22:40:53.98	99.11	18.47	-34.9	-35.9	23.6	0.00e+00	0	32	0	567279616	42	6139
2026-01-04 22:40:54.95	98.98	18.57	-35.0	-36.0	23.5	0.00e+00	0	32	0	570425344	42	6223
2026-01-04 22:40:55.93	98.84	18.66	-34.9	-35.9	23.7	0.00e+00	0	32	0	573571072	42	6148
2026-01-04 22:40:56.91	98.70	18.76	-34.9	-35.8	23.8	0.00e+00	0	32	0	576716800	42	6087
2026-01-04 22:40:57.89	98.56	18.86	-34.8	-35.7	23.8	0.00e+00	0	32	0	579862528	42	6052
2026-01-04 22:40:58.87	98.42	18.96	-34.8	-35.7	23.8	0.00e+00	0	32	0	583008256	42	6048
2026-01-04 22:40:59.84	98.28	19.06	-34.7	-35.6	23.9	0.00e+00	0	32	0	586153984	42	5945
2026-01-04 22:41:00.82	98.13	19.16	-34.7	-35.6	24.0	0.00e+00	0	32	0	589299712	42	5970
2026-01-04 22:41:01.80	97.99	19.25	-34.7	-35.6	24.0	0.00e+00	0	32	0	592445440	42	5986
2026-01-04 22:41:02.78	97.84	19.35	-34.3	-35.2	24.2	0.00e+00	0	32	0	595591168	42	5712
2026-01-04 22:41:03.76	97.70	19.45	-34.2	-35.1	24.3	0.00e+00	0	32	0	598736896	42	5647
2026-01-04 22:41:04.74	97.55	19.55	-34.2	-35.1	24.4	0.00e+00	0	32	0	601882624	42	5596
2026-01-04 22:41:05.72	97.40	19.65	-34.0	-34.9	24.5	0.00e+00	0	32	0	605028352	42	5478
2026-01-04 22:41:06.70	97.25	19.75	-34.1	-35.0	24.3	0.00e+00	0	32	0	607125504	42	5583
2026-01-04 22:41:07.68	97.10	19.85	-34.1	-35.0	24.3	0.00e+00	0	32	0	610271232	42	5587
2026-01-04 22:41:08.65	96.95	19.95	-33.9	-34.8	24.4	0.00e+00	0	32	0	613416960	42	5440
2026-01-04 22:41:09.63	96.80	20.05	-34.1	-35.0	24.3	0.00e+00	0	32	0	616562688	42	5574
2026-01-04 22:41:10.61	96.65	20.15	-34.2	-35.1	24.2	0.00e+00	0	32	0	619708416	42	5629
2026-01-04 22:41:11.59	96.49	20.26	-34.1	-35.0	24.4	0.00e+00	0	32	0	622854144	42	5581
2026-01-04 22:41:12.57	96.34	20.36	-34.2	-35.1	24.3	0.00e+00	0	32	0	625999872	42	5650
2026-01-04 22:41:13.55	96.18	20.46	-34.0	-34.9	24.5	0.00e+00	0	32	0	629145600	42	5516
2026-01-04 22:41:14.53	96.02	20.56	-34.0	-34.9	24.5	0.00e+00	0	32	0	632291328	42	5512
2026-01-04 22:41:15.50	95.87	20.66	-33.8	-34.7	24.7	0.00e+00	0	32	0	635437056	42	5376
2026-01-04 22:41:16.49	95.71	20.76	-33.8	-34.7	24.7	0.00e+00	0	32	0	638582784	40	6030
2026-01-04 22:41:17.47	95.55	20.87	-33.7	-34.6	24.8	0.00e+00	0	32	0	641728512	40	5951
2026-01-04 22:41:18.44	95.39	20.97	-33.4	-34.3	24.9	0.00e+00	0	32	0	644874240	40	5751
2026-01-04 22:41:19.42	95.22	21.07	-33.4	-34.3	25.0	0.00e+00	0	32	0	646971392	40	5746
2026-01-04 22:41:20.40	95.06	21.17	-33.4	-34.3	24.8	0.00e+00	0	32	0	650117120	40	5726
2026-01-04 22:41:21.38	94.90	21.27	-33.4	-34.3	24.8	0.00e+00	0	32	0	653262848	40	5756
2026-01-04 22:41:22.36	94.73	21.38	-33.5	-34.3	24.7	0.00e+00	0	32	0	656408576	40	5780
2026-01-04 22:41:23.33	94.56	21.48	-33.5	-34.3	24.9	0.00e+00	0	32	0	659554304	40	5787
2026-01-04 22:41:24.31	94.40	21.58	-33.6	-34.4	24.8	0.00e+00	0	32	0	662700032	40	5857
2026-01-04 22:41:25.29	94.23	21.69	-33.3	-34.2	24.9	0.00e+00	0	32	0	665845760	40	5709
2026-01-04 22:41:26.26	94.06	21.79	-33.6	-34.5	24.8	0.00e+00	0	32	0	668991488	40	5912
2026-01-04 22:41:27.24	93.89	21.89	-33.6	-34.5	24.8	0.00e+00	0	32	0	672137216	40	5872
2026-01-04 22:41:28.22	93.71	22.00	-33.8	-34.7	24.7	0.00e+00	0	32	0	675282944	40	6009
2026-01-04 22:41:29.19	93.54	22.10	-33.9	-34.8	24.6	0.00e+00	0	32	0	678428672	40	6077
2026-01-04 22:41:30.17	93.37	22.20	-33.9	-34.8	24.6	0.00e+00	0	32	0	680525824	40	6096
2026-01-04 22:41:31.15	93.19	22.31	-33.8	-34.7	24.6	0.00e+00	0	32	0	683671552	40	6033
2026-01-04 22:41:32.12	93.01	22.41	-33.5	-34.4	24.8	0.00e+00	0	32	0	686817280	40	5826
2026-01-04 22:41:33.10	92.84	22.52	-33.4	-34.2	24.9	0.00e+00	0	32	0	689963008	40	5719
2026-01-04 22:41:34.07	92.66	22.62	-33.5	-34.4	24.9	0.00e+00	0	32	0	693108736	40	5808
2026-01-04 22:41:35.05	92.48	22.72	-33.3	-34.1	25.1	0.00e+00	0	32	0	696254464	40	5653
2026-01-04 22:41:36.03	92.29	22.83	-33.1	-34.0	25.1	0.00e+00	0	32	0	699400192	40	5560
2026-01-04 22:41:37.01	92.11	22.93	-33.2	-34.0	25.0	0.00e+00	0	32	0	702545920	40	5583
2026-01-04 22:41:37.99	91.93	23.04	-33.2	-34.1	25.0	0.00e+00	0	32	0	705691648	40	5617
2026-01-04 22:41:38.97	91.74	23.14	-33.3	-34.2	25.0	0.00e+00	0	32	0	708837376	40	5693
2026-01-04 22:41:39.94	91.55	23.25	-33.4	-34.3	24.8	0.00e+00	0	32	0	711983104	40	5758
2026-01-04 22:41:40.93	91.36	23.36	-33.5	-34.4	24.7	0.00e+00	0	32	0	714080256	40	5829
2026-01-04 22:41:41.90	91.18	23.46	-33.6	-34.5	24.8	0.00e+00	0	32	0	717225984	40	5897
2026-01-04 22:41:42.87	90.99	23.56	-33.6	-34.5	24.8	0.00e+00	0	32	0	720371712	40	5893
2026-01-04 22:41:43.85	90.79	23.67	-33.5	-34.4	24.9	0.00e+00	0	32	0	723517440	40	5830
2026-01-04 22:41:44.82	90.60	23.77	-33.3	-34.2	25.0	0.00e+00	0	32	0	726663168	40	5673
2026-01-04 22:41:45.80	90.41	23.88	-33.4	-34.2	25.0	0.00e+00	0	32	0	729808896	40	5697
2026-01-04 22:41:46.78	90.21	23.99	-33.3	-34.2	25.0	0.00e+00	0	32	0	732954624	40	5685
2026-01-04 22:41:47.76	90.01	24.09	-33.6	-34.4	24.9	0.00e+00	0	32	0	736100352	40	5848
2026-01-04 22:41:48.73	89.81	24.20	-33.6	-34.5	24.6	0.00e+00	0	32	0	739246080	40	5864
2026-01-04 22:41:49.71	89.61	24.30	-33.7	-34.6	24.6	0.00e+00	0	32	0	742391808	40	5963
2026-01-04 22:41:50.69	89.41	24.41	-33.7	-34.6	24.6	0.00e+00	0	32	0	745537536	40	5969
2026-01-04 22:41:51.67	89.21	24.52	-33.9	-34.7	24.6	0.00e+00	0	32	0	747634688	40	6057
2026-01-04 22:41:52.64	89.01	24.62	-33.7	-34.6	24.7	0.00e+00	0	32	0	750780416	40	5928
2026-01-04 22:41:53.62	88.80	24.73	-33.7	-34.6	24.7	0.00e+00	0	32	0	753926144	40	5961
2026-01-04 22:41:54.59	88.59	24.83	-33.7	-34.6	24.8	0.00e+00	0	32	0	757071872	40	5961
2026-01-04 22:41:55.57	88.39	24.94	-33.5	-34.3	24.9	0.00e+00	0	32	0	760217600	40	5785
2026-01-04 22:41:56.55	88.18	25.04	-33.6	-34.5	24.8	0.00e+00	0	32	0	763363328	40	5864
2026-01-04 22:41:57.53	87.96	25.15	-33.5	-34.3	24.9	0.00e+00	0	32	0	766509056	40	5783
2026-01-04 22:41:58.51	87.75	25.26	-33.6	-34.5	24.7	0.00e+00	0	32	0	769654784	40	5874
2026-01-04 22:41:59.49	87.54	25.36	-33.8	-34.6	24.6	0.00e+00	0	32	0	772800512	40	5992
2026-01-04 22:42:00.46	87.32	25.47	-33.9	-34.8	24.6	0.00e+00	0	32	0	775946240	40	6067
2026-01-04 22:42:01.43	87.11	25.57	-33.8	-34.7	24.6	0.00e+00	0	32	0	779091968	40	6037
2026-01-04 22:42:02.42	86.89	25.68	-33.8	-34.7	24.7	0.00e+00	0	32	0	781189120	40	6005
2026-01-04 22:42:03.39	86.67	25.78	-34.1	-34.9	24.5	0.00e+00	0	32	0	784334848	40	6201
2026-01-04 22:42:04.36	86.45	25.89	-34.2	-35.1	24.5	0.00e+00	0	32	0	787480576	40	6295
2026-01-04 22:42:05.34	86.22	26.00	-34.1	-35.0	24.5	0.00e+00	0	32	0	790626304	40	6254
2026-01-04 22:42:06.31	86.00	26.10	-34.2	-35.1	24.5	0.00e+00	0	32	0	793772032	40	6330
2026-01-04 22:42:07.29	85.77	26.21	-34.3	-35.2	24.2	0.00e+00	0	32	0	796917760	40	6411
2026-01-04 22:42:08.27	85.55	26.31	-34.6	-35.5	24.1	0.00e+00	0	32	0	800063488	40	6616
2026-01-04 22:42:09.24	85.32	26.42	-35.0	-36.0	23.9	0.00e+00	0	32	0	803209216	42	6208
2026-01-04 22:42:10.22	85.09	26.52	-34.6	-35.5	24.2	0.00e+00	0	32	0	806354944	42	5885
2026-01-04 22:42:11.20	84.86	26.63	-34.6	-35.5	24.2	0.00e+00	0	32	0	809500672	42	5896
2026-01-04 22:42:12.18	84.62	26.73	-34.4	-35.3	24.4	0.00e+00	0	32	0	812646400	42	5734
2026-01-04 22:42:13.16	84.39	26.84	-34.4	-35.3	24.2	0.00e+00	0	32	0	815792128	42	5783
2026-01-04 22:42:14.13	84.15	26.94	-34.5	-35.4	24.2	0.00e+00	0	32	0	818937856	42	5805
2026-01-04 22:42:15.11	83.91	27.05	-34.3	-35.1	24.3	0.00e+00	0	32	0	821035008	42	5659
2026-01-04 22:42:16.09	83.67	27.15	-34.4	-35.3	24.3	0.00e+00	0	32	0	824180736	42	5733
2026-01-04 22:42:17.07	83.43	27.26	-34.4	-35.3	24.3	0.00e+00	0	32	0	827326464	42	5765
2026-01-04 22:42:18.04	83.19	27.36	-34.8	-35.7	24.1	0.00e+00	0	32	0	830472192	42	6009
2026-01-04 22:42:19.02	82.94	27.46	-34.6	-35.5	24.2	0.00e+00	0	32	0	833617920	42	5878
2026-01-04 22:42:19.99	82.70	27.57	-34.3	-35.2	24.4	0.00e+00	0	32	0	836763648	42	5675
2026-01-04 22:42:20.97	82.45	27.67	-34.3	-35.2	24.4	0.00e+00	0	32	0	839909376	42	5679
2026-01-04 22:42:21.95	82.20	27.77	-34.1	-35.0	24.6	0.00e+00	0	32	0	843055104	42	5554
2026-01-04 22:42:22.93	81.95	27.88	-34.0	-34.8	24.6	0.00e+00	0	32	0	846200832	42	5466
2026-01-04 22:42:23.90	81.70	27.98	-33.8	-34.7	24.8	0.00e+00	0	32	0	849346560	42	5355
2026-01-04 22:42:24.87	81.45	28.08	-33.9	-34.8	24.6	0.00e+00	0	32	0	851443712	42	5432
2026-01-04 22:42:25.85	81.19	28.18	-33.8	-34.7	24.7	0.00e+00	0	32	0	854589440	42	5397
2026-01-04 22:42:26.83	80.93	28.29	-34.1	-35.0	24.5	0.00e+00	0	32	0	857735168	42	5567
2026-01-04 22:42:27.81	80.67	28.39	-34.3	-35.2	24.4	0.00e+00	0	32	0	860880896	42	5663
2026-01-04 22:42:28.79	80.41	28.49	-34.1	-35.0	24.4	0.00e+00	0	32	0	864026624	42	5582
2026-01-04 22:42:29.77	80.15	28.59	-34.3	-35.2	24.3	0.00e+00	0	32	0	867172352	42	5684
2026-01-04 22:42:30.74	79.88	28.69	-34.1	-34.9	24.4	0.00e+00	0	32	0	870318080	42	5530
2026-01-04 22:42:31.72	79.62	28.79	-34.0	-34.9	24.6	0.00e+00	0	32	0	873463808	42	5485
2026-01-04 22:42:32.70	79.35	28.89	-34.1	-35.0	24.4	0.00e+00	0	32	0	876609536	42	5544
2026-01-04 22:42:33.68	79.08	28.99	-34.4	-35.3	24.3	0.00e+00	0	32	0	879755264	42	5767
2026-01-04 22:42:34.65	78.81	29.09	-34.6	-35.5	23.9	0.00e+00	0	32	0	882900992	42	5914
2026-01-04 22:42:35.63	78.54	29.19	-34.8	-35.7	23.9	0.00e+00	0	32	0	884998144	42	6056
2026-01-04 22:42:36.60	78.26	29.29	-35.0	-35.9	23.7	0.00e+00	0	32	0	888143872	42	6184
2026-01-04 22:42:37.58	77.99	29.39	-35.1	-36.0	23.9	0.00e+00	0	32	0	891289600	42	6253
2026-01-04 22:42:38.55	77.71	29.48	-34.5	-35.4	24.1	0.00e+00	0	32	0	894435328	42	5853
2026-01-04 22:42:39.53	77.43	29.58	-34.3	-35.2	24.3	0.00e+00	0	32	0	897581056	42	5718
2026-01-04 22:42:40.51	77.15	29.68	-34.1	-35.0	24.4	0.00e+00	0	32	0	900726784	42	5544
2026-01-04 22:42:41.49	76.87	29.78	-34.1	-34.9	24.5	0.00e+00	0	32	0	903872512	42	5525
2026-01-04 22:42:42.47	76.58	29.87	-34.0	-34.9	24.6	0.00e+00	0	32	0	907018240	42	5519
2026-01-04 22:42:43.44	76.30	29.97	-34.1	-35.0	24.5	0.00e+00	0	32	0	910163968	42	5548
2026-01-04 22:42:44.42	76.01	30.06	-34.1	-35.0	24.5	0.00e+00	0	32	0	913309696	42	5535
2026-01-04 22:42:45.39	75.72	30.16	-33.9	-34.8	24.7	0.00e+00	0	32	0	916455424	42	5419
2026-01-04 22:42:46.37	75.43	30.25	-33.9	-34.8	24.7	0.00e+00	0	32	0	918552576	42	5423
2026-01-04 22:42:47.35	75.14	30.34	-33.8	-34.6	24.8	0.00e+00	0	32	0	921698304	42	5339
2026-01-04 22:42:48.33	74.84	30.44	-33.9	-34.7	24.6	0.00e+00	0	32	0	924844032	42	5388
2026-01-04 22:42:49.31	74.54	30.53	-34.1	-35.0	24.5	0.00e+00	0	32	0	927989760	42	5561
2026-01-04 22:42:50.28	74.25	30.62	-34.1	-35.0	24.5	0.00e+00	0	32	0	931135488	42	5581
2026-01-04 22:42:51.26	73.95	30.71	-34.3	-35.2	24.4	0.00e+00	0	32	0	934281216	42	5687
2026-01-04 22:42:52.24	73.64	30.80	-34.4	-35.3	24.3	0.00e+00	0	32	0	937426944	42	5728
2026-01-04 22:42:53.22	73.34	30.90	-34.2	-35.1	24.4	0.00e+00	0	32	0	940572672	42	5628
2026-01-04 22:42:54.19	73.04	30.98	-34.3	-35.2	24.4	0.00e+00	0	32	0	943718400	42	5702
2026-01-04 22:42:55.17	72.73	31.07	-34.2	-35.1	24.4	0.00e+00	0	32	0	946864128	42	5647
2026-01-04 22:42:56.15	72.42	31.16	-34.5	-35.4	24.3	0.00e+00	0	32	0	950009856	42	5812
2026-01-04 22:42:57.12	72.11	31.25	-34.2	-35.1	24.5	0.00e+00	0	32	0	953155584	42	5634
2026-01-04 22:42:58.10	71.80	31.34	-34.2	-35.1	24.5	0.00e+00	0	32	0	956301312	42	5622
2026-01-04 22:42:59.08	71.49	31.42	-34.2	-35.1	24.5	0.00e+00	0	32	0	958398464	42	5640
2026-01-04 22:43:00.06	71.17	31.51	-34.2	-35.1	24.5	0.00e+00	0	32	0	961544192	42	5603
2026-01-04 22:43:01.03	70.86	31.59	-34.3	-35.2	24.4	0.00e+00	0	32	0	964689920	42	5674
2026-01-04 22:43:02.00	70.54	31.67	-34.3	-35.2	24.3	0.00e+00	0	32	0	967835648	42	5695
2026-01-04 22:43:02.98	70.22	31.76	-34.5	-35.4	24.2	0.00e+00	0	32	0	970981376	42	5819
2026-01-04 22:43:03.96	69.90	31.84	-34.6	-35.5	24.2	0.00e+00	0	32	0	974127104	42	5901
2026-01-04 22:43:04.94	69.57	31.92	-34.8	-35.7	23.9	0.00e+00	0	32	0	977272832	42	6052
2026-01-04 22:43:05.91	69.25	32.00	-34.9	-35.8	24.0	0.00e+00	0	32	0	980418560	42	6127
2026-01-04 22:43:06.89	68.92	32.08	-35.0	-35.9	23.9	0.00e+00	0	32	0	983564288	42	6202
2026-01-04 22:43:07.88	68.59	32.16	-35.0	-35.9	23.9	0.00e+00	0	32	0	986710016	42	6151
2026-01-04 22:43:08.86	68.26	32.24	-35.1	-36.1	23.9	0.00e+00	0	32	0	989855744	42	6278
2026-01-04 22:43:09.84	67.93	32.32	-35.0	-36.0	23.9	0.00e+00	0	32	0	993001472	42	6211
2026-01-04 22:43:10.82	67.59	32.39	-34.9	-35.8	24.0	0.00e+00	0	32	0	995098624	42	6095
2026-01-04 22:43:11.80	67.26	32.47	-34.7	-35.6	24.1	0.00e+00	0	32	0	998244352	42	5978
2026-01-04 22:43:12.78	66.92	32.54	-34.8	-35.7	24.0	0.00e+00	0	32	0	1001390080	42	6052
2026-01-04 22:43:13.76	66.58	32.62	-35.1	-36.0	24.0	0.00e+00	0	32	0	1004535808	42	6241
2026-01-04 22:43:14.74	66.24	32.69	-34.7	-35.6	24.0	0.00e+00	0	32	0	1007681536	42	5964
2026-01-04 22:43:15.72	65.90	32.76	-34.6	-35.5	24.3	0.00e+00	0	32	0	1010827264	42	5868
2026-01-04 22:43:16.70	65.56	32.83	-34.5	-35.4	24.3	0.00e+00	0	32	0	1013972992	42	5844
2026-01-04 22:43:17.68	65.21	32.90	-34.7	-35.6	24.2	0.00e+00	0	32	0	1017118720	42	5975
2026-01-04 22:43:18.66	64.87	32.97	-34.8	-35.7	24.1	0.00e+00	0	32	0	1020264448	42	6003
2026-01-04 22:43:19.63	64.52	33.04	-35.0	-35.9	24.0	0.00e+00	0	32	0	1023410176	42	6188
2026-01-04 22:43:20.61	64.18	33.11	-34.9	-35.8	24.0	0.00e+00	0	32	0	1026555904	42	6134
2026-01-04 22:43:21.59	63.83	33.17	-34.8	-35.7	24.2	0.00e+00	0	32	0	1029701632	42	6027
2026-01-04 22:43:22.57	63.47	33.24	-34.9	-35.8	24.0	0.00e+00	0	32	0	1031798784	42	6099
2026-01-04 22:43:23.55	63.12	33.30	-35.0	-35.9	23.9	0.00e+00	0	32	0	1034944512	42	6174
2026-01-04 22:43:24.53	62.77	33.36	-35.1	-36.0	23.8	0.00e+00	0	32	0	1038090240	42	6262
2026-01-04 22:43:25.51	62.41	33.42	-35.1	-36.0	23.8	0.00e+00	0	32	0	1041235968	42	6226
2026-01-04 22:43:26.49	62.05	33.48	-35.2	-36.2	23.6	0.00e+00	0	32	0	1044381696	42	6359
2026-01-04 22:43:27.47	61.70	33.54	-35.3	-36.2	23.6	0.00e+00	0	32	0	1047527424	42	6399
2026-01-04 22:43:28.44	61.34	33.60	-35.2	-36.1	23.6	0.00e+00	0	32	0	1050673152	42	6340
2026-01-04 22:43:29.42	60.98	33.66	-35.2	-36.1	23.6	0.00e+00	0	32	0	1053818880	42	6327
2026-01-04 22:43:30.40	60.62	33.71	-35.1	-36.0	23.9	0.00e+00	0	32	0	1056964608	42	6245
2026-01-04 22:43:31.38	60.25	33.77	-35.0	-36.0	23.8	0.00e+00	0	32	0	1060110336	42	6229
2026-01-04 22:43:32.35	59.89	33.82	-35.0	-35.9	23.9	0.00e+00	0	32	0	1063256064	42	6188
2026-01-04 22:43:33.33	59.53	33.87	-34.7	-35.6	24.1	0.00e+00	0	32	0	1066401792	42	5940
2026-01-04 22:43:34.31	59.16	33.92	-34.7	-35.6	24.2	0.00e+00	0	32	0	1068498944	42	5969
2026-01-04 22:43:35.29	58.79	33.97	-34.6	-35.6	24.1	0.00e+00	0	32	0	1071644672	42	5930
2026-01-04 22:43:36.27	58.42	34.02	-34.7	-35.6	24.1	0.00e+00	0	32	0	1074790400	42	5954
2026-01-04 22:43:37.25	58.05	34.06	-34.8	-35.7	24.1	0.00e+00	0	32	0	1077936128	42	5997
2026-01-04 22:43:38.23	57.68	34.11	-35.0	-35.9	23.8	0.00e+00	0	32	0	1081081856	42	6151
2026-01-04 22:43:39.21	57.31	34.15	-35.0	-35.9	23.8	0.00e+00	0	32	0	1084227584	42	6196
2026-01-04 22:43:40.19	56.94	34.20	-35.3	-36.2	23.6	0.00e+00	0	32	0	1087373312	42	6394
2026-01-04 22:43:41.17	56.56	34.24	-35.2	-36.1	23.6	0.00e+00	0	32	0	1090519040	42	6330
2026-01-04 22:43:42.14	56.19	34.28	-35.4	-36.3	23.3	0.00e+00	0	32	0	1093664768	42	6496
2026-01-04 22:43:43.12	55.81	34.32	-35.5	-36.5	23.2	0.00e+00	0	32	0	1096810496	42	6596
2026-01-04 22:43:44.10	55.44	34.35	-35.3	-36.3	23.5	0.00e+00	0	32	0	1099956224	42	6436
2026-01-04 22:43:45.08	55.06	34.39	-35.1	-36.0	23.7	0.00e+00	0	32	0	1102053376	42	6271
2026-01-04 22:43:46.06	54.68	34.42	-35.2	-36.1	23.7	0.00e+00	0	32	0	1105199104	42	6300
2026-01-04 22:43:47.03	54.30	34.46	-35.3	-36.2	23.5	0.00e+00	0	32	0	1108344832	42	6386
2026-01-04 22:43:48.01	53.92	34.49	-35.2	-36.2	23.6	0.00e+00	0	32	0	1111490560	42	6368
2026-01-04 22:43:48.99	53.54	34.52	-35.4	-36.3	23.5	0.00e+00	0	32	0	1114636288	42	6490
2026-01-04 22:43:49.97	53.16	34.55	-35.4	-36.3	23.6	0.00e+00	0	32	0	1117782016	42	6479
2026-01-04 22:43:50.95	52.78	34.58	-35.2	-36.1	23.7	0.00e+00	0	32	0	1120927744	42	6331
2026-01-04 22:43:51.92	52.40	34.60	-35.2	-36.1	23.7	0.00e+00	0	32	0	1124073472	42	6320
2026-01-04 22:43:52.90	52.02	34.63	-35.5	-36.5	23.5	0.00e+00	0	32	0	1127219200	42	6613
2026-01-04 22:43:53.88	51.63	34.65	-35.3	-36.2	23.7	0.00e+00	0	32	0	1130364928	42	6403
2026-01-04 22:43:54.86	51.25	34.67	-35.3	-36.2	23.7	0.00e+00	0	32	0	1133510656	42	6406
2026-01-04 22:43:55.84	50.86	34.69	-35.4	-36.3	23.6	0.00e+00	0	32	0	1136656384	42	6459
2026-01-04 22:43:56.82	50.48	34.71	-35.3	-36.2	23.7	0.00e+00	0	32	0	1138753536	42	6394
2026-01-04 22:43:57.80	50.09	34.73	-35.5	-36.4	23.5	0.00e+00	0	32	0	1141899264	42	6558
2026-01-04 22:43:58.78	49.71	34.74	-35.7	-36.6	23.4	0.00e+00	0	32	0	1145044992	42	6720
2026-01-04 22:43:59.75	49.32	34.76	-35.8	-36.7	23.3	0.00e+00	0	32	0	1148190720	44	6058
2026-01-04 22:44:00.73	48.94	34.77	-35.8	-36.7	23.2	0.00e+00	0	32	0	1151336448	44	6054
2026-01-04 22:44:01.71	48.55	34.78	-35.8	-36.8	23.2	0.00e+00	0	32	0	1154482176	44	6079
2026-01-04 22:44:02.69	48.16	34.79	-35.6	-36.6	23.4	0.00e+00	0	32	0	1157627904	44	5953
2026-01-04 22:44:03.66	47.78	34.80	-35.6	-36.5	23.3	0.00e+00	0	32	0	1160773632	44	5915
2026-01-04 22:44:04.64	47.39	34.81	-35.6	-36.6	23.3	0.00e+00	0	32	0	1163919360	44	5955
2026-01-04 22:44:05.62	47.00	34.81	-35.5	-36.4	23.4	0.00e+00	0	32	0	1167065088	44	5843
2026-01-04 22:44:06.60	46.61	34.82	-35.1	-36.0	23.8	0.00e+00	0	32	0	1170210816	44	5573
2026-01-04 22:44:07.58	46.23	34.82	-35.1	-36.0	23.8	0.00e+00	0	32	0	1172307968	44	5570
2026-01-04 22:44:08.56	45.84	34.82	-35.2	-36.1	23.8	0.00e+00	0	32	0	1175453696	44	5658
2026-01-04 22:44:09.53	45.45	34.82	-35.1	-36.1	23.7	0.00e+00	0	32	0	1178599424	44	5615
2026-01-04 22:44:10.51	45.07	34.82	-35.1	-36.0	23.8	0.00e+00	0	32	0	1181745152	44	5556
2026-01-04 22:44:11.48	44.68	34.82	-35.3	-36.3	23.5	0.00e+00	0	32	0	1184890880	44	5728
2026-01-04 22:44:12.46	44.29	34.81	-36.0	-37.0	23.2	0.00e+00	0	32	0	1188036608	44	6227
2026-01-04 22:44:13.44	43.91	34.80	-35.7	-36.7	23.2	0.00e+00	0	32	0	1191182336	44	5996
2026-01-04 22:44:14.41	43.52	34.80	-35.9	-36.9	23.0	0.00e+00	0	32	0	1194328064	44	6168
2026-01-04 22:44:15.39	43.13	34.79	-36.0	-37.0	23.0	0.00e+00	0	32	0	1197473792	44	6255
2026-01-04 22:44:16.37	42.75	34.78	-36.0	-36.9	23.1	0.00e+00	0	32	0	1200619520	44	6203
2026-01-04 22:44:17.35	42.36	34.76	-35.6	-36.5	23.2	0.00e+00	0	32	0	1203765248	44	5911
2026-01-04 22:44:18.33	41.97	34.75	-35.7	-36.6	23.3	0.00e+00	0	32	0	1206910976	44	5984
2026-01-04 22:44:19.30	41.59	34.74	-35.5	-36.5	23.4	0.00e+00	0	32	0	1209008128	44	5871
2026-01-04 22:44:20.28	41.21	34.72	-35.3	-36.2	23.6	0.00e+00	0	32	0	1212153856	44	5701
2026-01-04 22:44:21.26	40.82	34.70	-35.3	-36.2	23.5	0.00e+00	0	32	0	1215299584	44	5719
2026-01-04 22:44:22.24	40.44	34.68	-35.7	-36.6	23.2	0.00e+00	0	32	0	1218445312	44	5987
2026-01-04 22:44:23.22	40.05	34.66	-35.6	-36.6	23.4	0.00e+00	0	32	0	1221591040	44	5967
2026-01-04 22:44:24.19	39.67	34.64	-35.6	-36.5	23.4	0.00e+00	0	32	0	1224736768	44	5909
2026-01-04 22:44:25.16	39.29	34.61	-35.7	-36.6	23.4	0.00e+00	0	32	0	1227882496	44	5977
2026-01-04 22:44:26.14	38.91	34.59	-35.5	-36.5	23.5	0.00e+00	0	32	0	1231028224	44	5862
2026-01-04 22:44:27.12	38.53	34.56	-35.5	-36.4	23.5	0.00e+00	0	32	0	1234173952	44	5835
2026-01-04 22:44:28.09	38.15	34.53	-35.6	-36.6	23.5	0.00e+00	0	32	0	1237319680	44	5933
2026-01-04 22:44:29.07	37.77	34.50	-35.8	-36.7	23.2	0.00e+00	0	32	0	1240465408	44	6056
2026-01-04 22:44:30.05	37.39	34.47	-35.8	-36.7	23.2	0.00e+00	0	32	0	1243611136	44	6050
2026-01-04 22:44:31.03	37.01	34.44	-35.8	-36.7	23.2	0.00e+00	0	32	0	1245708288	44	6059
2026-01-04 22:44:32.01	36.63	34.41	-35.6	-36.5	23.5	0.00e+00	0	32	0	1248854016	44	5893
2026-01-04 22:44:32.99	36.25	34.37	-35.6	-36.5	23.5	0.00e+00	0	32	0	1251999744	44	5910
2026-01-04 22:44:33.96	35.88	34.33	-35.1	-36.1	23.7	0.00e+00	0	32	0	1255145472	44	5616
2026-01-04 22:44:34.94	35.50	34.30	-35.0	-36.0	23.9	0.00e+00	0	32	0	1258291200	44	5531
2026-01-04 22:44:35.92	35.13	34.26	-35.1	-36.1	23.8	0.00e+00	0	32	0	1261436928	44	5598
2026-01-04 22:44:36.90	34.75	34.22	-35.3	-36.2	23.6	0.00e+00	0	32	0	1264582656	44	5719
2026-01-04 22:44:37.88	34.38	34.17	-35.2	-36.1	23.7	0.00e+00	0	32	0	1267728384	44	5615
2026-01-04 22:44:38.85	34.01	34.13	-35.2	-36.2	23.8	0.00e+00	0	32	0	1270874112	44	5661
2026-01-04 22:44:39.83	33.64	34.09	-35.3	-36.2	23.5	0.00e+00	0	32	0	1274019840	44	5700
2026-01-04 22:44:40.81	33.27	34.04	-35.0	-35.9	23.8	0.00e+00	0	32	0	1277165568	44	5491
2026-01-04 22:44:41.79	32.90	33.99	-34.8	-35.7	23.8	0.00e+00	0	32	0	1280311296	42	6060
2026-01-04 22:44:42.76	32.54	33.95	-34.8	-35.7	23.9	0.00e+00	0	32	0	1282408448	42	6064
2026-01-04 22:44:43.75	32.17	33.90	-34.8	-35.7	23.9	0.00e+00	0	32	0	1285554176	42	6034
2026-01-04 22:44:44.73	31.80	33.84	-35.0	-35.9	23.7	0.00e+00	0	32	0	1288699904	42	6158
2026-01-04 22:44:45.71	31.43	33.79	-35.0	-35.9	23.7	0.00e+00	0	32	0	1291845632	42	6194
2026-01-04 22:44:46.69	31.07	33.74	-35.1	-36.1	23.7	0.00e+00	0	32	0	1294991360	42	6284
2026-01-04 22:44:47.67	30.71	33.68	-35.1	-36.0	23.6	0.00e+00	0	32	0	1298137088	42	6269
2026-01-04 22:44:48.65	30.35	33.63	-35.2	-36.1	23.6	0.00e+00	0	32	0	1301282816	42	6330
2026-01-04 22:44:49.62	29.99	33.57	-35.2	-36.2	23.6	0.00e+00	0	32	0	1304428544	42	6351
2026-01-04 22:44:50.60	29.63	33.51	-35.3	-36.2	23.7	0.00e+00	0	32	0	1307574272	42	6389
2026-01-04 22:44:51.58	29.28	33.45	-35.4	-36.3	23.6	0.00e+00	0	32	0	1310720000	42	6483
2026-01-04 22:44:52.56	28.92	33.39	-35.4	-36.3	23.4	0.00e+00	0	32	0	1313865728	42	6465
2026-01-04 22:44:53.53	28.57	33.33	-35.6	-36.5	23.4	0.00e+00	0	32	0	1317011456	42	6627
2026-01-04 22:44:54.51	28.22	33.27	-35.7	-36.6	23.3	0.00e+00	0	32	0	1319108608	42	6708
2026-01-04 22:44:55.49	27.87	33.21	-35.3	-36.3	23.7	0.00e+00	0	32	0	1322254336	42	6462
2026-01-04 22:44:56.47	27.51	33.14	-35.1	-36.1	23.7	0.00e+00	0	32	0	1325400064	42	6289
2026-01-04 22:44:57.45	27.17	33.07	-35.0	-35.9	23.8	0.00e+00	0	32	0	1328545792	42	6160
2026-01-04 22:44:58.43	26.82	33.01	-35.0	-35.9	23.8	0.00e+00	0	32	0	1331691520	42	6156
2026-01-04 22:44:59.41	26.47	32.94	-34.9	-35.8	24.0	0.00e+00	0	32	0	1334837248	42	6130
2026-01-04 22:45:00.39	26.13	32.87	-35.0	-35.9	23.9	0.00e+00	0	32	0	1337982976	42	6173
2026-01-04 22:45:01.37	25.79	32.80	-35.1	-36.0	23.9	0.00e+00	0	32	0	1341128704	42	6224
2026-01-04 22:45:02.34	25.45	32.73	-35.0	-36.0	23.8	0.00e+00	0	32	0	1344274432	42	6211
2026-01-04 22:45:03.32	25.11	32.66	-35.0	-36.0	23.9	0.00e+00	0	32	0	1347420160	42	6221
2026-01-04 22:45:04.29	24.77	32.58	-35.0	-35.9	23.9	0.00e+00	0	32	0	1350565888	42	6145
2026-01-04 22:45:05.27	24.44	32.51	-34.7	-35.6	24.1	0.00e+00	0	32	0	1352663040	42	5987
2026-01-04 22:45:06.25	24.10	32.44	-34.5	-35.4	24.2	0.00e+00	0	32	0	1355808768	42	5832
2026-01-04 22:45:07.23	23.77	32.36	-34.3	-35.2	24.4	0.00e+00	0	32	0	1358954496	42	5687
2026-01-04 22:45:08.21	23.43	32.28	-34.3	-35.2	24.3	0.00e+00	0	32	0	1362100224	42	5707
2026-01-04 22:45:09.19	23.10	32.21	-34.5	-35.4	24.3	0.00e+00	0	32	0	1365245952	42	5819
2026-01-04 22:45:10.17	22.77	32.13	-34.8	-35.7	24.1	0.00e+00	0	32	0	1368391680	42	6018
2026-01-04 22:45:11.15	22.45	32.05	-35.2	-36.1	23.7	0.00e+00	0	32	0	1371537408	42	6308
2026-01-04 22:45:12.12	22.12	31.97	-35.4	-36.4	23.6	0.00e+00	0	32	0	1374683136	42	6517
2026-01-04 22:45:13.10	21.80	31.89	-35.4	-36.4	23.5	0.00e+00	0	32	0	1377828864	42	6518
2026-01-04 22:45:14.07	21.48	31.81	-35.1	-36.0	23.6	0.00e+00	0	32	0	1380974592	42	6275
2026-01-04 22:45:15.05	21.16	31.72	-34.7	-35.7	24.0	0.00e+00	0	32	0	1384120320	42	6004
2026-01-04 22:45:16.03	20.84	31.64	-34.7	-35.6	24.0	0.00e+00	0	32	0	1386217472	42	5960
2026-01-04 22:45:17.01	20.52	31.56	-34.7	-35.6	24.1	0.00e+00	0	32	0	1389363200	42	5941
2026-01-04 22:45:17.99	20.21	31.47	-34.6	-35.6	24.1	0.00e+00	0	32	0	1392508928	42	5938
2026-01-04 22:45:18.96	19.90	31.39	-35.0	-35.9	23.8	0.00e+00	0	32	0	1395654656	42	6201
2026-01-04 22:45:19.94	19.58	31.30	-35.2	-36.2	23.6	0.00e+00	0	32	0	1398800384	42	6357
2026-01-04 22:45:20.92	19.27	31.21	-35.2	-36.2	23.5	0.00e+00	0	32	0	1401946112	42	6405
2026-01-04 22:45:21.89	18.97	31.13	-35.0	-36.0	23.6	0.00e+00	0	32	0	1405091840	42	6231
2026-01-04 22:45:22.87	18.66	31.04	-34.5	-35.4	24.0	0.00e+00	0	32	0	1408237568	42	5820
2026-01-04 22:45:23.84	18.36	30.95	-33.9	-34.8	24.4	0.00e+00	0	32	0	1411383296	42	5416
2026-01-04 22:45:24.82	18.05	30.86	-33.8	-34.7	24.6	0.00e+00	0	32	0	1414529024	42	5381
2026-01-04 22:45:25.80	17.75	30.77	-33.6	-34.5	24.8	0.00e+00	0	32	0	1417674752	40	5876
2026-01-04 22:45:26.77	17.45	30.68	-33.9	-34.7	24.7	0.00e+00	0	32	0	1420820480	40	6062
2026-01-04 22:45:27.75	17.15	30.59	-34.3	-35.2	24.4	0.00e+00	0	32	0	1422917632	40	6411
2026-01-04 22:45:28.73	16.86	30.49	-34.9	-35.8	23.9	0.00e+00	0	32	0	1426063360	42	6114
2026-01-04 22:45:29.71	16.56	30.40	-35.3	-36.3	23.6	0.00e+00	0	32	0	1429209088	42	6440
2026-01-04 22:45:30.69	16.27	30.31	-35.4	-36.4	23.4	0.00e+00	0	32	0	1432354816	42	6513
2026-01-04 22:45:31.67	15.97	30.21	-35.3	-36.2	23.5	0.00e+00	0	32	0	1435500544	42	6419
2026-01-04 22:45:32.64	15.69	30.12	-34.8	-35.7	24.0	0.00e+00	0	32	0	1438646272	42	6019
2026-01-04 22:45:33.62	15.40	30.03	-34.5	-35.4	24.2	0.00e+00	0	32	0	1441792000	42	5825
2026-01-04 22:45:34.60	15.11	29.93	-34.1	-35.0	24.5	0.00e+00	0	32	0	1444937728	42	5548
2026-01-04 22:45:35.57	14.83	29.84	-34.2	-35.1	24.5	0.00e+00	0	32	0	1448083456	42	5616
2026-01-04 22:45:36.55	14.55	29.74	-34.3	-35.2	24.3	0.00e+00	0	32	0	1451229184	42	5686
2026-01-04 22:45:37.53	14.26	29.64	-34.5	-35.4	24.2	0.00e+00	0	32	0	1454374912	42	5838
2026-01-04 22:45:38.51	13.98	29.55	-34.6	-35.5	24.2	0.00e+00	0	32	0	1457520640	42	5897
2026-01-04 22:45:39.49	13.70	29.45	-34.6	-35.5	24.1	0.00e+00	0	32	0	1460666368	42	5890
2026-01-04 22:45:40.46	13.43	29.35	-34.4	-35.3	24.2	0.00e+00	0	32	0	1462763520	42	5782
2026-01-04 22:45:41.45	13.15	29.25	-34.6	-35.5	24.0	0.00e+00	0	32	0	1465909248	42	5889
2026-01-04 22:45:42.42	12.88	29.15	-34.5	-35.5	24.1	0.00e+00	0	32	0	1469054976	42	5869
2026-01-04 22:45:43.40	12.61	29.05	-34.7	-35.7	24.0	0.00e+00	0	32	0	1472200704	42	6013
2026-01-04 22:45:44.38	12.34	28.95	-34.8	-35.7	24.0	0.00e+00	0	32	0	1475346432	42	6049
2026-01-04 22:45:45.36	12.07	28.85	-35.1	-36.0	23.9	0.00e+00	0	32	0	1478492160	42	6234
2026-01-04 22:45:46.34	11.81	28.75	-34.6	-35.5	24.2	0.00e+00	0	32	0	1481637888	42	5913
2026-01-04 22:45:47.32	11.54	28.65	-34.6	-35.5	24.2	0.00e+00	0	32	0	1484783616	42	5914
2026-01-04 22:45:48.30	11.28	28.55	-34.5	-35.4	24.3	0.00e+00	0	32	0	1487929344	42	5813
2026-01-04 22:45:49.27	11.02	28.45	-34.3	-35.3	24.4	0.00e+00	0	32	0	1491075072	42	5728
2026-01-04 22:45:50.25	10.76	28.35	-34.4	-35.4	24.5	0.00e+00	0	32	0	1494220800	42	5797
2026-01-04 22:45:51.23	10.50	28.25	-33.9	-34.8	24.7	0.00e+00	0	32	0	1496317952	42	5439
2026-01-04 22:45:52.21	10.24	28.15	-33.8	-34.7	24.8	0.00e+00	0	32	0	1499463680	40	6000
2026-01-04 22:45:53.18	9.99	28.05	-33.8	-34.6	24.9	0.00e+00	0	32	0	1502609408	40	5969
2026-01-04 22:45:54.15	9.74	27.94	-33.8	-34.6	24.8	0.00e+00	0	32	0	1505755136	40	5982
2026-01-04 22:45:55.13	9.49	27.84	-33.9	-34.8	24.7	0.00e+00	0	32	0	1508900864	40	6081
2026-01-04 22:45:56.11	9.24	27.74	-34.2	-35.0	24.5	0.00e+00	0	32	0	1512046592	40	6271
2026-01-04 22:45:57.09	8.99	27.64	-34.4	-35.3	24.4	0.00e+00	0	32	0	1515192320	40	6437
2026-01-04 22:45:58.06	8.75	27.53	-34.0	-34.9	24.5	0.00e+00	0	32	0	1518338048	40	6192
2026-01-04 22:45:59.04	8.50	27.43	-34.0	-34.9	24.7	0.00e+00	0	32	0	1521483776	40	6166
2026-01-04 22:46:00.02	8.26	27.33	-33.9	-34.8	24.7	0.00e+00	0	32	0	1524629504	40	6098
2026-01-04 22:46:01.00	8.02	27.22	-34.0	-34.8	24.7	0.00e+00	0	32	0	1527775232	40	6124
2026-01-04 22:46:01.97	7.78	27.12	-33.9	-34.8	24.7	0.00e+00	0	32	0	1529872384	40	6082
2026-01-04 22:46:02.95	7.54	27.01	-34.0	-34.9	24.6	0.00e+00	0	32	0	1533018112	40	6179
2026-01-04 22:46:03.93	7.30	26.91	-33.9	-34.8	24.7	0.00e+00	0	32	0	1536163840	40	6085
2026-01-04 22:46:04.91	7.07	26.80	-34.1	-35.0	24.5	0.00e+00	0	32	0	1539309568	40	6267
2026-01-04 22:46:05.89	6.83	26.70	-34.0	-34.9	24.6	0.00e+00	0	32	0	1542455296	40	6148
2026-01-04 22:46:06.86	6.60	26.60	-33.9	-34.8	24.7	0.00e+00	0	32	0	1545601024	40	6088
2026-01-04 22:46:07.84	6.37	26.49	-33.9	-34.8	24.7	0.00e+00	0	32	0	1548746752	40	6077
2026-01-04 22:46:08.82	6.14	26.39	-33.8	-34.7	24.7	0.00e+00	0	32	0	1551892480	40	6012
2026-01-04 22:46:09.80	5.91	26.28	-34.0	-34.9	24.5	0.00e+00	0	32	0	1555038208	40	6143
2026-01-04 22:46:10.77	5.69	26.18	-33.8	-34.7	24.6	0.00e+00	0	32	0	1558183936	40	6047
2026-01-04 22:46:11.75	5.46	26.07	-33.9	-34.7	24.5	0.00e+00	0	32	0	1561329664	40	6061
2026-01-04 22:46:12.73	5.24	25.97	-34.0	-34.8	24.5	0.00e+00	0	32	0	1563426816	40	6130
2026-01-04 22:46:13.70	5.02	25.86	-34.1	-35.0	24.4	0.00e+00	0	32	0	1566572544	40	6217
2026-01-04 22:46:14.68	4.80	25.76	-33.8	-34.7	24.7	0.00e+00	0	32	0	1569718272	40	6020
2026-01-04 22:46:15.66	4.58	25.65	-33.8	-34.6	24.8	0.00e+00	0	32	0	1572864000	40	5989
2026-01-04 22:46:16.64	4.36	25.54	-33.8	-34.7	24.7	0.00e+00	0	32	0	1576009728	40	6032
2026-01-04 22:46:17.62	4.15	25.44	-33.7	-34.6	24.8	0.00e+00	0	32	0	1579155456	40	5943
2026-01-04 22:46:18.60	3.93	25.33	-33.8	-34.7	24.8	0.00e+00	0	32	0	1582301184	40	6022
2026-01-04 22:46:19.57	3.72	25.23	-33.8	-34.7	24.7	0.00e+00	0	32	0	1585446912	40	6003
2026-01-04 22:46:20.55	3.51	25.12	-34.1	-35.0	24.6	0.00e+00	0	32	0	1588592640	40	6244
2026-01-04 22:46:21.53	3.30	25.02	-34.0	-34.9	24.6	0.00e+00	0	32	0	1591738368	40	6198
2026-01-04 22:46:22.51	3.09	24.91	-34.1	-35.0	24.5	0.00e+00	0	32	0	1594884096	40	6212
2026-01-04 22:46:23.48	2.89	24.81	-34.1	-35.0	24.6	0.00e+00	0	32	0	1598029824	40	6245
2026-01-04 22:46:24.46	2.68	24.70	-34.1	-35.0	24.6	0.00e+00	0	32	0	1600126976	40	6235
2026-01-04 22:46:25.44	2.48	24.59	-34.0	-34.8	24.6	0.00e+00	0	32	0	1603272704	40	6133
2026-01-04 22:46:26.42	2.27	24.49	-33.6	-34.4	24.8	0.00e+00	0	32	0	1606418432	40	5854
2026-01-04 22:46:27.40	2.07	24.38	-33.6	-34.4	24.8	0.00e+00	0	32	0	1609564160	40	5853
2026-01-04 22:46:28.38	1.87	24.28	-33.2	-34.1	25.0	0.00e+00	0	32	0	1612709888	40	5611
2026-01-04 22:46:29.36	1.67	24.17	-33.3	-34.2	24.9	0.00e+00	0	32	0	1615855616	40	5700
2026-01-04 22:46:30.33	1.48	24.07	-33.1	-34.0	25.0	0.00e+00	0	32	0	1619001344	40	5544
2026-01-04 22:46:31.31	1.28	23.96	-33.1	-33.9	25.0	0.00e+00	0	32	0	1622147072	40	5507
2026-01-04 22:46:32.29	1.09	23.86	-33.2	-34.0	25.1	0.00e+00	0	32	0	1625292800	40	5576
2026-01-04 22:46:33.26	0.89	23.75	-33.1	-34.0	25.0	0.00e+00	0	32	0	1628438528	40	5558
2026-01-04 22:46:34.24	0.70	23.65	-33.2	-34.0	25.1	0.00e+00	0	32	0	1631584256	40	5592
2026-01-04 22:46:35.22	0.51	23.54	-33.4	-34.2	24.9	0.00e+00	0	32	0	1634729984	40	5722
2026-01-04 22:46:36.20	0.32	23.44	-33.5	-34.3	24.7	0.00e+00	0	32	0	1636827136	40	5789
2026-01-04 22:46:37.17	0.13	23.33	-33.6	-34.5	24.5	0.00e+00	0	32	0	1639972864	40	5895
2026-01-04 22:46:38.15	359.95	23.23	-34.0	-34.9	24.4	0.00e+00	0	32	0	1643118592	40	6198
2026-01-04 22:46:39.13	359.76	23.12	-33.8	-34.7	24.4	0.00e+00	0	32	0	1646264320	40	6004
2026-01-04 22:46:40.10	359.58	23.02	-33.7	-34.6	24.4	0.00e+00	0	32	0	1649410048	40	5979
2026-01-04 22:46:41.08	359.39	22.91	-33.9	-34.8	24.4	0.00e+00	0	32	0	1652555776	40	6095
2026-01-04 22:46:42.06	359.21	22.81	-33.8	-34.7	24.5	0.00e+00	0	32	0	1655701504	40	5996
2026-01-04 22:46:43.04	359.03	22.71	-33.8	-34.7	24.5	0.00e+00	0	32	0	1658847232	40	6051
2026-01-04 22:46:44.02	358.85	22.60	-33.8	-34.7	24.5	0.00e+00	0	32	0	1661992960	40	6042
2026-01-04 22:46:45.00	358.67	22.50	-33.9	-34.7	24.5	0.00e+00	0	32	0	1665138688	40	6064
2026-01-04 22:46:45.97	358.50	22.39	-33.8	-34.7	24.5	0.00e+00	0	32	0	1668284416	40	6028
2026-01-04 22:46:46.95	358.32	22.29	-33.8	-34.7	24.6	0.00e+00	0	32	0	1671430144	40	6002
2026-01-04 22:46:47.93	358.15	22.19	-33.9	-34.8	24.5	0.00e+00	0	32	0	1673527296	40	6081
2026-01-04 22:46:48.90	357.97	22.08	-33.7	-34.5	24.7	0.00e+00	0	32	0	1676673024	40	5917
2026-01-04 22:46:49.88	357.80	21.98	-33.7	-34.5	24.7	0.00e+00	0	32	0	1679818752	40	5919
2026-01-04 22:46:50.85	357.63	21.88	-33.7	-34.5	24.7	0.00e+00	0	32	0	1682964480	40	5926
2026-01-04 22:46:51.83	357.46	21.77	-33.7	-34.6	24.7	0.00e+00	0	32	0	1686110208	40	5947
2026-01-04 22:46:52.81	357.29	21.67	-33.7	-34.6	24.7	0.00e+00	0	32	0	1689255936	40	5954
2026-01-04 22:46:53.79	357.12	21.57	-33.8	-34.6	24.7	0.00e+00	0	32	0	1692401664	40	5991
2026-01-04 22:46:54.77	356.96	21.47	-33.9	-34.8	24.6	0.00e+00	0	32	0	1695547392	40	6066
2026-01-04 22:46:55.74	356.79	21.36	-34.0	-34.9	24.5	0.00e+00	0	32	0	1698693120	40	6192
2026-01-04 22:46:56.72	356.63	21.26	-34.2	-35.1	24.3	0.00e+00	0	32	0	1701838848	40	6309
2026-01-04 22:46:57.70	356.47	21.16	-34.4	-35.3	24.3	0.00e+00	0	32	0	1704984576	40	6450
2026-01-04 22:46:58.68	356.30	21.06	-34.5	-35.4	24.1	0.00e+00	0	32	0	1707081728	40	6523
2026-01-04 22:46:59.65	356.14	20.96	-34.5	-35.4	24.0	0.00e+00	0	32	0	1710227456	40	6538
2026-01-04 22:47:00.63	355.98	20.85	-34.5	-35.5	24.1	0.00e+00	0	32	0	1713373184	40	6588
2026-01-04 22:47:01.60	355.83	20.75	-34.4	-35.3	24.2	0.00e+00	0	32	0	1716518912	40	6448
2026-01-04 22:47:02.59	355.67	20.65	-34.4	-35.3	24.3	0.00e+00	0	32	0	1719664640	40	6425
2026-01-04 22:47:03.57	355.51	20.55	-34.3	-35.2	24.2	0.00e+00	0	32	0	1722810368	40	6384
2026-01-04 22:47:04.54	355.35	20.45	-34.2	-35.1	24.3	0.00e+00	0	32	0	1725956096	40	6339
2026-01-04 22:47:05.52	355.20	20.35	-34.0	-34.9	24.5	0.00e+00	0	32	0	1729101824	40	6182
2026-01-04 22:47:06.50	355.05	20.25	-34.1	-35.0	24.4	0.00e+00	0	32	0	1732247552	40	6258
2026-01-04 22:47:07.48	354.89	20.15	-34.0	-34.9	24.5	0.00e+00	0	32	0	1735393280	40	6168
2026-01-04 22:47:08.45	354.74	20.05	-34.0	-34.9	24.4	0.00e+00	0	32	0	1738539008	40	6200
2026-01-04 22:47:09.43	354.59	19.95	-34.0	-34.9	24.5	0.00e+00	0	32	0	1741684736	40	6143
2026-01-04 22:47:10.41	354.44	19.85	-33.9	-34.8	24.6	0.00e+00	0	32	0	1743781888	40	6118
2026-01-04 22:47:11.39	354.29	19.75	-34.0	-34.9	24.4	0.00e+00	0	32	0	1746927616	40	6197
2026-01-04 22:47:12.36	354.15	19.65	-34.1	-35.0	24.5	0.00e+00	0	32	0	1750073344	40	6226
2026-01-04 22:47:13.34	354.00	19.55	-34.2	-35.1	24.3	0.00e+00	0	32	0	1753219072	40	6342
2026-01-04 22:47:14.32	353.85	19.45	-34.0	-34.8	24.4	0.00e+00	0	32	0	1756364800	40	6132
2026-01-04 22:47:15.29	353.71	19.35	-33.9	-34.8	24.3	0.00e+00	0	32	0	1759510528	40	6130
2026-01-04 22:47:16.27	353.57	19.25	-33.9	-34.8	24.2	0.00e+00	0	32	0	1762656256	40	6109
2026-01-04 22:47:17.25	353.42	19.16	-33.9	-34.8	24.3	0.00e+00	0	32	0	1765801984	40	6076
2026-01-04 22:47:18.22	353.28	19.06	-33.7	-34.7	24.4	0.00e+00	0	32	0	1768947712	40	6004
2026-01-04 22:47:19.20	353.14	18.96	-33.9	-34.8	24.2	0.00e+00	0	32	0	1772093440	40	6089
2026-01-04 22:47:20.19	353.00	18.86	-34.0	-34.9	24.1	0.00e+00	0	32	0	1775239168	40	6183
2026-01-04 22:47:21.17	352.86	18.76	-34.3	-35.2	24.0	0.00e+00	0	32	0	1777336320	40	6423
2026-01-04 22:47:22.14	352.72	18.67	-34.0	-34.9	24.2	0.00e+00	0	32	0	1780482048	40	6188
2026-01-04 22:47:23.12	352.59	18.57	-33.7	-34.6	24.2	0.00e+00	0	32	0	1783627776	40	5951
2026-01-04 22:47:24.10	352.45	18.47	-34.0	-34.8	24.3	0.00e+00	0	32	0	1786773504	40	6120
2026-01-04 22:47:25.07	352.32	18.38	-33.7	-34.6	24.4	0.00e+00	0	32	0	1789919232	40	5963
2026-01-04 22:47:26.05	352.18	18.28	-33.7	-34.5	24.3	0.00e+00	0	32	0	1793064960	40	5925
2026-01-04 22:47:27.03	352.05	18.18	-33.8	-34.7	24.3	0.00e+00	0	32	0	1796210688	40	6017
2026-01-04 22:47:28.01	351.91	18.09	-33.9	-34.8	24.3	0.00e+00	0	32	0	1799356416	40	6129
2026-01-04 22:47:28.99	351.78	17.99	-34.1	-35.0	24.2	0.00e+00	0	32	0	1802502144	40	6252
2026-01-04 22:47:29.97	351.65	17.89	-34.1	-35.0	24.1	0.00e+00	0	32	0	1805647872	40	6265
2026-01-04 22:47:30.94	351.52	17.80	-34.3	-35.2	24.0	0.00e+00	0	32	0	1808793600	40	6384
2026-01-04 22:47:31.92	351.39	17.70	-34.4	-35.3	24.0	9.10e-06	0	32	0	1810890752	40	6480
2026-01-04 22:47:32.90	351.26	17.61	-34.3	-35.3	23.8	0.00e+00	0	32	0	1814036480	40	6430
2026-01-04 22:47:33.87	351.13	17.51	-34.3	-35.3	23.9	0.00e+00	0	32	0	1817182208	40	6429
2026-01-04 22:47:34.85	351.01	17.42	-34.5	-35.4	23.8	0.00e+00	0	32	0	1820327936	40	6508
2026-01-04 22:47:35.83	350.88	17.33	-34.6	-35.6	23.7	0.00e+00	0	32	0	1823473664	40	6664
2026-01-04 22:47:36.80	350.76	17.23	-34.6	-35.5	23.8	0.00e+00	0	32	0	1826619392	40	6602
2026-01-04 22:47:37.78	350.63	17.14	-34.4	-35.3	23.9	0.00e+00	0	32	0	1829765120	40	6433
2026-01-04 22:47:38.76	350.51	17.04	-34.4	-35.3	24.0	0.00e+00	0	32	0	1832910848	40	6459
2026-01-04 22:47:39.73	350.39	16.95	-34.4	-35.3	24.0	0.00e+00	0	32	0	1836056576	40	6498
2026-01-04 22:47:40.71	350.26	16.86	-34.4	-35.3	24.1	0.00e+00	0	32	0	1839202304	40	6480
2026-01-04 22:47:41.69	350.14	16.76	-34.5	-35.4	24.0	0.00e+00	0	32	0	1842348032	40	6529
2026-01-04 22:47:42.66	350.02	16.67	-34.5	-35.4	24.0	0.00e+00	0	32	0	1845493760	40	6505
2026-01-04 22:47:43.65	349.90	16.58	-34.6	-35.5	23.9	0.00e+00	0	32	0	1848639488	40	6643
2026-01-04 22:47:44.62	349.78	16.49	-34.6	-35.6	23.9	0.00e+00	0	32	0	1850736640	40	6650
2026-01-04 22:47:45.59	349.67	16.40	-34.7	-35.6	23.9	0.00e+00	0	32	0	1853882368	40	6696
2026-01-04 22:47:46.57	349.55	16.30	-34.8	-35.7	23.8	0.00e+00	0	32	0	1857028096	42	6038
2026-01-04 22:47:47.55	349.43	16.21	-34.8	-35.8	23.7	0.00e+00	0	32	0	1860173824	42	6070
2026-01-04 22:47:48.52	349.31	16.12	-34.9	-35.8	23.7	0.00e+00	0	32	0	1863319552	42	6125
2026-01-04 22:47:49.50	349.20	16.03	-34.9	-35.8	23.7	0.00e+00	0	32	0	1866465280	42	6124
2026-01-04 22:47:50.48	349.08	15.94	-35.0	-36.0	23.6	0.00e+00	0	32	0	1869611008	42	6213
2026-01-04 22:47:51.46	348.97	15.85	-35.2	-36.1	23.5	0.00e+00	0	32	0	1872756736	42	6310
2026-01-04 22:47:52.43	348.86	15.76	-35.2	-36.1	23.5	0.00e+00	0	32	0	1875902464	42	6303
2026-01-04 22:47:53.41	348.74	15.67	-35.1	-36.0	23.5	0.00e+00	0	32	0	1879048192	42	6232
2026-01-04 22:47:54.39	348.63	15.58	-35.0	-36.0	23.5	0.00e+00	0	32	0	1882193920	42	6213
2026-01-04 22:47:55.37	348.52	15.49	-35.1	-36.0	23.4	0.00e+00	0	32	0	1884291072	42	6272
2026-01-04 22:47:56.35	348.41	15.40	-35.1	-36.0	23.4	0.00e+00	0	32	0	1887436800	42	6271
2026-01-04 22:47:57.32	348.30	15.31	-35.1	-36.1	23.4	0.00e+00	0	32	0	1890582528	42	6297
2026-01-04 22:47:58.30	348.19	15.22	-35.3	-36.3	23.3	0.00e+00	0	32	0	1893728256	42	6440
2026-01-04 22:47:59.28	348.08	15.13	-35.1	-36.1	23.3	0.00e+00	0	32	0	1896873984	42	6285
2026-01-04 22:48:00.26	347.98	15.04	-35.0	-36.0	23.4	0.00e+00	0	32	0	1900019712	42	6218
2026-01-04 22:48:01.24	347.87	14.95	-35.0	-35.9	23.5	0.00e+00	0	32	0	1903165440	42	6174
2026-01-04 22:48:02.22	347.76	14.86	-35.1	-36.0	23.3	0.00e+00	0	32	0	1906311168	42	6275
2026-01-04 22:48:03.20	347.66	14.77	-34.9	-35.9	23.5	0.00e+00	0	32	0	1909456896	42	6148
2026-01-04 22:48:04.17	347.55	14.69	-34.9	-35.9	23.5	0.00e+00	0	32	0	1912602624	42	6166
2026-01-04 22:48:05.15	347.45	14.60	-34.9	-35.9	23.5	0.00e+00	0	32	0	1915748352	42	6147
2026-01-04 22:48:06.13	347.34	14.51	-34.8	-35.7	23.6	0.00e+00	0	32	0	1917845504	42	6035
2026-01-04 22:48:07.10	347.24	14.42	-34.8	-35.7	23.6	0.00e+00	0	32	0	1920991232	42	6034
2026-01-04 22:48:08.07	347.14	14.34	-34.8	-35.8	23.6	0.00e+00	0	32	0	1924136960	42	6081
2026-01-04 22:48:09.05	347.04	14.25	-34.8	-35.8	23.6	0.00e+00	0	32	0	1927282688	42	6077
