passes_logs/2026/01/04/R4.6S_Anadyr/R4.6S_Anadyr__20260104_131006_SUOMI_NPP_rec.log

#Pass ID: 20260104_131006_SUOMI NPP
#Satellite: SUOMI NPP
#Configuration: NPP
#almurnet v.1.7.20251203
#Start time: 2026-01-04 13:10:10

#Version: 2.2.20231116
#Station: R4.6S_Anadyr
#Location: 177.4865 lon 64.73178 lat
#TLE: 1 37849U 11061A   26001.07732418  .00000182  00000+0  10735-3 0  9990
#TLE: 2 37849  98.7795 303.2470 0002580  87.2016 272.9455 14.19520779734739

#Time	Az	El	Level	Level2	SNR	BER	BlckErr	Temp	State	Recorded	gain1	gain2
2026-01-04 13:10:10.37	18.94	0.19	-51.4	-65.2	3.3	1.54e+00	0	39	0	0	60	65623
2026-01-04 13:10:11.37	18.99	0.24	-50.7	-65.9	3.6	1.51e+00	0	39	104	0	60	70944
2026-01-04 13:10:12.38	19.04	0.30	-50.1	-65.3	3.6	1.51e+00	0	39	104	0	60	66794
2026-01-04 13:10:13.38	19.10	0.35	-49.9	-65.2	3.6	1.51e+00	0	39	104	0	60	65405
2026-01-04 13:10:14.39	19.15	0.41	-49.9	-65.1	3.6	1.51e+00	0	39	104	0	60	65160
2026-01-04 13:10:15.40	19.21	0.46	-49.8	-65.0	3.6	1.51e+00	0	39	104	0	60	64632
2026-01-04 13:10:16.41	19.26	0.52	-49.7	-65.0	3.6	1.51e+00	0	39	104	0	60	63976
2026-01-04 13:10:17.42	19.32	0.57	-49.6	-64.8	3.6	1.51e+00	0	39	104	0	60	62884
2026-01-04 13:10:18.43	19.37	0.63	-49.5	-64.8	3.6	1.51e+00	0	39	104	0	60	62565
2026-01-04 13:10:19.44	19.43	0.69	-49.4	-64.6	3.6	1.51e+00	0	39	104	0	60	61643
2026-01-04 13:10:20.45	19.48	0.74	-49.2	-64.5	3.6	1.51e+00	0	39	104	0	60	60353
2026-01-04 13:10:21.46	19.54	0.80	-49.1	-64.3	3.6	1.51e+00	0	39	104	0	60	59312
2026-01-04 13:10:22.46	19.59	0.85	-48.9	-64.0	3.6	1.51e+00	0	39	104	0	60	57595
2026-01-04 13:10:23.47	19.65	0.91	-48.4	-63.6	3.6	1.51e+00	0	39	104	0	60	54848
2026-01-04 13:10:24.48	19.70	0.97	-48.1	-63.2	3.6	1.51e+00	0	39	104	0	60	52484
2026-01-04 13:10:25.49	19.76	1.02	-48.1	-63.2	3.6	1.51e+00	0	39	104	0	60	52365
2026-01-04 13:10:26.50	19.82	1.08	-48.1	-63.2	3.6	1.51e+00	0	39	104	0	60	52481
2026-01-04 13:10:27.51	19.87	1.14	-48.1	-63.3	3.6	1.51e+00	0	39	104	0	60	52612
2026-01-04 13:10:28.52	19.93	1.19	-48.1	-63.3	3.6	1.51e+00	0	39	104	0	60	52796
2026-01-04 13:10:29.53	19.99	1.25	-48.1	-63.3	3.6	1.51e+00	0	39	104	0	60	52604
2026-01-04 13:10:30.54	20.04	1.31	-48.1	-63.2	3.6	1.51e+00	0	39	104	0	60	52537
2026-01-04 13:10:31.55	20.10	1.36	-48.1	-63.3	3.6	1.51e+00	0	39	104	0	60	52563
2026-01-04 13:10:32.56	20.16	1.42	-48.1	-63.3	3.6	1.51e+00	0	39	104	0	60	52684
2026-01-04 13:10:33.57	20.22	1.48	-48.1	-63.3	3.6	1.51e+00	0	39	104	0	60	52675
2026-01-04 13:10:34.57	20.28	1.53	-48.1	-63.2	3.6	1.51e+00	0	39	104	0	60	52489
2026-01-04 13:10:35.58	20.33	1.59	-48.1	-63.2	3.6	1.51e+00	0	39	104	0	60	52278
2026-01-04 13:10:36.59	20.39	1.65	-48.1	-63.1	3.6	1.51e+00	0	39	104	0	60	51575
2026-01-04 13:10:37.60	20.45	1.71	-48.1	-63.1	3.6	1.51e+00	0	39	104	0	60	51914
2026-01-04 13:10:38.61	20.51	1.76	-48.1	-63.1	3.6	1.51e+00	0	39	104	0	60	51620
2026-01-04 13:10:39.62	20.57	1.82	-48.1	-63.2	3.6	1.51e+00	0	39	104	0	60	52217
2026-01-04 13:10:40.63	20.63	1.88	-48.1	-63.2	3.6	1.51e+00	0	39	104	0	60	52095
2026-01-04 13:10:41.64	20.69	1.94	-48.1	-63.2	3.6	1.51e+00	0	39	104	0	60	52460
2026-01-04 13:10:42.65	20.75	1.99	-48.1	-63.3	3.6	1.51e+00	0	39	104	0	60	52714
2026-01-04 13:10:43.66	20.81	2.05	-48.1	-63.2	3.6	1.51e+00	0	39	104	0	60	52280
2026-01-04 13:10:44.67	20.87	2.11	-48.1	-63.2	3.6	1.51e+00	0	39	104	0	60	52331
2026-01-04 13:10:45.68	20.93	2.17	-48.1	-63.2	3.6	1.51e+00	0	39	104	0	60	52520
2026-01-04 13:10:46.69	20.99	2.23	-48.1	-63.1	3.6	1.51e+00	0	39	104	0	60	51612
2026-01-04 13:10:47.70	21.05	2.29	-48.1	-62.9	3.6	1.51e+00	0	39	104	0	60	50438
2026-01-04 13:10:48.71	21.11	2.34	-48.1	-62.6	3.6	1.51e+00	0	39	104	0	60	48763
2026-01-04 13:10:49.72	21.17	2.40	-48.0	-62.4	3.6	1.51e+00	0	39	104	0	60	47486
2026-01-04 13:10:50.73	21.24	2.46	-48.1	-63.0	3.6	1.51e+00	0	39	104	0	60	50771
2026-01-04 13:10:51.74	21.30	2.52	-48.1	-63.2	3.6	1.51e+00	0	39	104	0	60	51978
2026-01-04 13:10:52.75	21.36	2.58	-48.0	-60.9	3.6	1.51e+00	0	39	104	0	60	40172
2026-01-04 13:10:53.76	21.42	2.64	-47.6	-57.1	5.4	8.85e-01	0	39	104	0	60	25753
2026-01-04 13:10:54.77	21.48	2.70	-47.0	-52.9	8.7	1.20e-01	0	39	0	1048576	60	16053
2026-01-04 13:10:55.78	21.55	2.76	-46.1	-50.5	12.0	1.33e-02	0	39	0	3145728	60	12112
2026-01-04 13:10:56.79	21.61	2.81	-45.2	-48.5	13.9	5.64e-05	0	39	0	4194304	60	9672
2026-01-04 13:10:57.80	21.67	2.87	-44.0	-46.6	15.8	0.00e+00	0	39	0	6291456	60	7697
2026-01-04 13:10:58.80	21.74	2.93	-42.9	-44.9	17.4	0.00e+00	0	39	0	8388608	60	6346
2026-01-04 13:10:59.81	21.80	2.99	-43.6	-45.9	16.3	0.00e+00	0	39	0	10485760	58	8022
2026-01-04 13:11:00.82	21.86	3.05	-43.0	-45.0	17.1	0.00e+00	0	39	0	12582912	58	7231
2026-01-04 13:11:01.83	21.93	3.11	-42.6	-44.6	17.2	0.00e+00	0	39	0	13631488	58	6893
2026-01-04 13:11:02.84	21.99	3.17	-44.1	-46.7	15.3	0.00e+00	0	39	0	15728640	60	7843
2026-01-04 13:11:03.85	22.06	3.23	-44.3	-47.0	15.0	7.00e-07	0	39	0	17825792	60	8077
2026-01-04 13:11:04.86	22.12	3.29	-46.0	-50.2	11.8	5.11e-05	0	39	0	19922944	60	11708
2026-01-04 13:11:05.87	22.19	3.35	-43.3	-45.5	17.0	6.40e-05	0	39	0	22020096	60	6802
2026-01-04 13:11:06.88	22.25	3.41	-47.7	-61.6	3.5	4.20e-01	0	39	104	23068672	60	43355
2026-01-04 13:11:07.89	22.32	3.47	-47.8	-56.2	6.1	1.03e-01	0	40	0	23068672	60	23233
2026-01-04 13:11:08.90	22.38	3.53	-43.8	-46.0	16.4	4.85e-02	0	39	0	24117248	60	7251
2026-01-04 13:11:09.91	22.45	3.59	-48.2	-63.2	3.6	7.53e-01	0	39	104	26214400	60	52122
2026-01-04 13:11:10.92	22.52	3.65	-44.0	-46.5	6.0	1.48e+00	0	39	104	26214400	60	7613
2026-01-04 13:11:11.93	22.58	3.72	-43.4	-45.5	17.1	0.00e+00	0	39	0	26214400	60	6782
2026-01-04 13:11:12.94	22.65	3.78	-43.3	-45.3	17.2	0.00e+00	0	39	0	28311552	60	6627
2026-01-04 13:11:13.95	22.72	3.84	-43.0	-44.9	17.7	0.00e+00	0	39	0	30408704	60	6318
2026-01-04 13:11:14.96	22.78	3.90	-43.1	-45.0	17.4	0.00e+00	0	39	0	31457280	58	7219
2026-01-04 13:11:15.96	22.85	3.96	-43.2	-45.2	17.3	0.00e+00	0	39	0	33554432	58	7400
2026-01-04 13:11:16.97	22.92	4.02	-43.3	-45.3	17.2	0.00e+00	0	39	0	35651584	58	7495
2026-01-04 13:11:17.98	22.99	4.08	-43.0	-44.8	17.5	0.00e+00	0	39	0	37748736	58	7085
2026-01-04 13:11:18.99	23.06	4.14	-43.5	-45.6	17.1	0.00e+00	0	39	0	39845888	58	7707
2026-01-04 13:11:20.00	23.12	4.21	-43.0	-44.8	17.8	0.00e+00	0	39	0	40894464	60	6304
2026-01-04 13:11:21.01	23.19	4.27	-42.9	-44.7	18.1	0.00e+00	0	39	0	42991616	58	6943
2026-01-04 13:11:22.02	23.26	4.33	-41.8	-43.3	19.2	0.00e+00	0	39	0	45088768	56	6690
2026-01-04 13:11:23.03	23.33	4.39	-42.4	-44.0	18.7	0.00e+00	0	40	0	47185920	56	7247
2026-01-04 13:11:24.04	23.40	4.45	-42.3	-43.9	18.7	0.00e+00	0	40	0	49283072	56	7110
2026-01-04 13:11:25.04	23.47	4.52	-41.6	-43.0	19.6	0.00e+00	0	40	0	51380224	56	6444
2026-01-04 13:11:26.06	23.54	4.58	-42.3	-43.9	18.9	0.00e+00	0	39	0	52428800	56	7122
2026-01-04 13:11:27.07	23.61	4.64	-41.6	-43.1	19.5	0.00e+00	0	40	0	54525952	56	6476
2026-01-04 13:11:28.07	23.68	4.70	-42.0	-43.5	19.2	0.00e+00	0	39	0	56623104	56	6837
2026-01-04 13:11:29.09	23.76	4.77	-41.9	-43.5	19.3	0.00e+00	0	39	0	58720256	56	6782
2026-01-04 13:11:30.10	23.83	4.83	-41.3	-42.7	19.8	0.00e+00	0	40	0	60817408	56	6235
2026-01-04 13:11:31.11	23.90	4.89	-41.6	-43.0	19.6	0.00e+00	0	40	0	61865984	56	6454
2026-01-04 13:11:32.12	23.97	4.95	-41.1	-42.4	20.2	0.00e+00	0	40	0	63963136	56	6029
2026-01-04 13:11:33.13	24.04	5.02	-41.3	-42.6	20.0	0.00e+00	0	40	0	66060288	56	6167
2026-01-04 13:11:34.13	24.12	5.08	-41.0	-42.4	20.2	0.00e+00	0	39	0	68157440	56	5980
2026-01-04 13:11:35.14	24.19	5.14	-41.1	-42.4	20.3	0.00e+00	0	39	0	70254592	56	5978
2026-01-04 13:11:36.15	24.26	5.21	-41.0	-42.3	20.5	0.00e+00	0	40	0	71303168	56	5908
2026-01-04 13:11:37.16	24.33	5.27	-40.9	-42.1	20.4	0.00e+00	0	39	0	73400320	56	5813
2026-01-04 13:11:38.17	24.41	5.33	-40.7	-41.9	20.7	0.00e+00	0	39	0	75497472	56	5692
2026-01-04 13:11:39.18	24.48	5.40	-40.8	-42.0	20.5	0.00e+00	0	40	0	77594624	54	6463
2026-01-04 13:11:40.19	24.56	5.46	-40.6	-41.8	20.7	0.00e+00	0	40	0	79691776	54	6285
2026-01-04 13:11:41.20	24.63	5.53	-40.7	-42.0	20.5	0.00e+00	0	40	0	80740352	54	6408
2026-01-04 13:11:42.20	24.71	5.59	-40.6	-41.9	20.8	0.00e+00	0	40	0	82837504	54	6320
2026-01-04 13:11:43.21	24.78	5.65	-40.5	-41.7	21.0	0.00e+00	0	40	0	84934656	54	6198
2026-01-04 13:11:44.22	24.86	5.72	-40.3	-41.5	21.0	0.00e+00	0	40	0	87031808	54	6042
2026-01-04 13:11:45.23	24.93	5.78	-40.2	-41.4	21.1	0.00e+00	0	40	0	89128960	54	5991
2026-01-04 13:11:46.24	25.01	5.85	-40.4	-41.6	21.0	0.00e+00	0	40	0	90177536	54	6110
2026-01-04 13:11:47.25	25.09	5.91	-40.6	-41.8	20.7	0.00e+00	0	40	0	92274688	54	6267
2026-01-04 13:11:48.26	25.16	5.98	-40.7	-42.0	20.7	0.00e+00	0	40	0	94371840	54	6404
2026-01-04 13:11:49.27	25.24	6.04	-40.6	-41.8	20.7	0.00e+00	0	40	0	96468992	54	6308
2026-01-04 13:11:50.28	25.32	6.11	-40.7	-41.9	20.7	0.00e+00	0	40	0	98566144	54	6356
2026-01-04 13:11:51.29	25.40	6.17	-40.6	-41.8	20.9	0.00e+00	0	39	0	99614720	54	6314
2026-01-04 13:11:52.30	25.47	6.24	-40.4	-41.6	21.0	0.00e+00	0	40	0	101711872	54	6144
2026-01-04 13:11:53.31	25.55	6.30	-40.4	-41.6	21.0	0.00e+00	0	40	0	103809024	54	6146
2026-01-04 13:11:54.32	25.63	6.37	-40.7	-42.0	20.7	0.00e+00	0	40	0	105906176	54	6410
2026-01-04 13:11:55.33	25.71	6.44	-40.3	-41.5	21.1	0.00e+00	0	40	0	108003328	54	6079
2026-01-04 13:11:56.33	25.79	6.50	-40.4	-41.7	21.1	0.00e+00	0	40	0	109051904	54	6175
2026-01-04 13:11:57.34	25.87	6.57	-40.4	-41.6	21.0	0.00e+00	0	40	0	111149056	54	6123
2026-01-04 13:11:58.35	25.95	6.63	-40.1	-41.3	21.1	0.00e+00	0	40	0	113246208	54	5935
2026-01-04 13:11:59.36	26.03	6.70	-40.6	-41.8	21.0	0.00e+00	0	40	0	115343360	54	6284
2026-01-04 13:12:00.37	26.11	6.77	-40.6	-41.8	20.8	0.00e+00	0	40	0	117440512	54	6311
2026-01-04 13:12:01.38	26.19	6.83	-40.6	-41.8	20.8	0.00e+00	0	40	0	118489088	54	6304
2026-01-04 13:12:02.39	26.27	6.90	-40.3	-41.5	21.2	0.00e+00	0	40	0	120586240	54	6086
2026-01-04 13:12:03.40	26.36	6.97	-40.5	-41.7	20.9	0.00e+00	0	40	0	122683392	54	6245
2026-01-04 13:12:04.41	26.44	7.03	-40.7	-42.0	20.9	0.00e+00	0	40	0	124780544	54	6418
2026-01-04 13:12:05.42	26.52	7.10	-40.3	-41.5	21.2	0.00e+00	0	40	0	126877696	54	6040
2026-01-04 13:12:06.42	26.60	7.17	-40.5	-41.7	21.0	0.00e+00	0	40	0	127926272	54	6202
2026-01-04 13:12:07.43	26.69	7.23	-40.4	-41.6	21.1	0.00e+00	0	40	0	130023424	54	6162
2026-01-04 13:12:08.44	26.77	7.30	-40.5	-41.7	21.1	0.00e+00	0	40	0	132120576	54	6179
2026-01-04 13:12:09.45	26.86	7.37	-40.6	-41.8	20.9	0.00e+00	0	40	0	134217728	54	6288
2026-01-04 13:12:10.46	26.94	7.44	-40.7	-41.9	20.8	0.00e+00	0	40	0	136314880	54	6363
2026-01-04 13:12:11.47	27.02	7.50	-40.1	-41.2	21.4	0.00e+00	0	40	0	137363456	54	5867
2026-01-04 13:12:12.48	27.11	7.57	-40.4	-41.6	21.1	0.00e+00	0	40	0	139460608	54	6132
2026-01-04 13:12:13.49	27.20	7.64	-40.2	-41.3	21.5	0.00e+00	0	40	0	141557760	54	5955
2026-01-04 13:12:14.50	27.28	7.71	-40.3	-41.5	21.3	0.00e+00	0	40	0	143654912	54	6039
2026-01-04 13:12:15.51	27.37	7.78	-40.3	-41.5	21.4	0.00e+00	0	40	0	145752064	54	6055
2026-01-04 13:12:16.52	27.45	7.85	-40.2	-41.4	21.3	0.00e+00	0	40	0	147849216	54	5986
2026-01-04 13:12:17.53	27.54	7.91	-40.0	-41.1	21.5	0.00e+00	0	40	0	148897792	54	5806
2026-01-04 13:12:18.54	27.63	7.98	-39.9	-41.0	21.6	0.00e+00	0	40	0	150994944	54	5701
2026-01-04 13:12:19.55	27.72	8.05	-39.8	-40.8	21.8	0.00e+00	0	40	0	153092096	54	5614
2026-01-04 13:12:20.56	27.81	8.12	-39.8	-40.9	21.8	0.00e+00	0	40	0	155189248	54	5683
2026-01-04 13:12:21.57	27.89	8.19	-39.9	-41.0	21.6	0.00e+00	0	40	0	157286400	52	6453
2026-01-04 13:12:22.58	27.98	8.26	-40.1	-41.2	21.7	0.00e+00	0	40	0	158334976	52	6550
2026-01-04 13:12:23.59	28.07	8.33	-39.8	-40.9	21.8	0.00e+00	0	40	0	160432128	52	6328
2026-01-04 13:12:24.60	28.16	8.40	-39.8	-40.9	21.8	0.00e+00	0	40	0	162529280	52	6325
2026-01-04 13:12:25.61	28.25	8.47	-39.8	-40.9	21.7	0.00e+00	0	40	0	164626432	52	6377
2026-01-04 13:12:26.62	28.34	8.54	-39.8	-40.9	21.8	0.00e+00	0	40	0	166723584	52	6345
2026-01-04 13:12:27.63	28.44	8.61	-39.9	-41.1	21.6	0.00e+00	0	40	0	167772160	52	6472
2026-01-04 13:12:28.64	28.53	8.68	-39.8	-40.9	21.7	0.00e+00	0	40	0	169869312	52	6371
2026-01-04 13:12:29.65	28.62	8.75	-39.8	-40.9	21.5	0.00e+00	0	40	0	171966464	52	6349
2026-01-04 13:12:30.66	28.71	8.82	-39.8	-40.9	21.7	0.00e+00	0	40	0	174063616	52	6343
2026-01-04 13:12:31.66	28.80	8.89	-39.7	-40.8	21.7	0.00e+00	0	40	0	176160768	52	6256
2026-01-04 13:12:32.67	28.90	8.96	-39.8	-40.9	21.8	0.00e+00	0	40	0	177209344	52	6325
2026-01-04 13:12:33.68	28.99	9.03	-39.9	-41.0	21.9	0.00e+00	0	40	0	179306496	52	6455
2026-01-04 13:12:34.69	29.08	9.10	-39.8	-40.9	21.7	0.00e+00	0	40	0	181403648	52	6343
2026-01-04 13:12:35.69	29.18	9.17	-39.8	-40.9	21.8	0.00e+00	0	40	0	183500800	52	6363
2026-01-04 13:12:36.70	29.27	9.24	-40.0	-41.1	21.7	0.00e+00	0	40	0	185597952	52	6539
2026-01-04 13:12:37.71	29.37	9.31	-39.9	-41.1	21.5	0.00e+00	0	40	0	186646528	52	6469
2026-01-04 13:12:38.72	29.46	9.39	-40.1	-41.3	21.6	0.00e+00	0	40	0	188743680	52	6631
2026-01-04 13:12:39.73	29.56	9.46	-40.0	-41.1	21.7	0.00e+00	0	40	0	190840832	52	6473
2026-01-04 13:12:40.74	29.66	9.53	-39.7	-40.8	22.0	0.00e+00	0	40	0	192937984	52	6249
2026-01-04 13:12:41.75	29.76	9.60	-39.7	-40.8	22.0	0.00e+00	0	40	0	195035136	52	6253
2026-01-04 13:12:42.76	29.85	9.67	-39.6	-40.7	22.1	0.00e+00	0	40	0	196083712	52	6189
2026-01-04 13:12:43.77	29.95	9.75	-39.6	-40.6	22.1	0.00e+00	0	40	0	198180864	52	6152
2026-01-04 13:12:44.78	30.05	9.82	-39.3	-40.4	22.3	0.00e+00	0	40	0	200278016	52	5969
2026-01-04 13:12:45.79	30.15	9.89	-39.2	-40.2	22.4	0.00e+00	0	40	0	202375168	52	5832
2026-01-04 13:12:46.80	30.25	9.96	-39.3	-40.2	22.4	0.00e+00	0	40	0	204472320	52	5895
2026-01-04 13:12:47.81	30.35	10.04	-39.6	-40.6	22.1	0.00e+00	0	40	0	205520896	52	6123
2026-01-04 13:12:48.82	30.45	10.11	-39.3	-40.3	22.5	0.00e+00	0	40	0	207618048	52	5897
2026-01-04 13:12:49.83	30.55	10.18	-39.3	-40.3	22.4	0.00e+00	0	40	0	209715200	52	5936
2026-01-04 13:12:50.84	30.65	10.25	-39.2	-40.2	22.3	0.00e+00	0	40	0	211812352	52	5853
2026-01-04 13:12:51.85	30.75	10.33	-39.4	-40.4	22.2	0.00e+00	0	40	0	213909504	52	6029
2026-01-04 13:12:52.86	30.86	10.40	-39.7	-40.8	21.9	0.00e+00	0	40	0	216006656	52	6271
2026-01-04 13:12:53.86	30.96	10.47	-39.9	-41.0	21.9	0.00e+00	0	40	0	217055232	52	6443
2026-01-04 13:12:54.87	31.06	10.55	-39.9	-41.0	21.8	0.00e+00	0	40	0	219152384	52	6455
2026-01-04 13:12:55.88	31.17	10.62	-40.0	-41.2	21.7	0.00e+00	0	40	0	221249536	52	6545
2026-01-04 13:12:56.89	31.27	10.70	-39.9	-41.0	21.7	0.00e+00	0	40	0	223346688	52	6463
2026-01-04 13:12:57.90	31.37	10.77	-40.2	-41.4	21.5	0.00e+00	0	40	0	225443840	52	6721
2026-01-04 13:12:58.91	31.48	10.84	-40.2	-41.4	21.5	0.00e+00	0	40	0	226492416	52	6720
2026-01-04 13:12:59.92	31.59	10.92	-40.2	-41.4	21.5	0.00e+00	0	40	0	228589568	52	6728
2026-01-04 13:13:00.93	31.69	10.99	-40.3	-41.5	21.5	0.00e+00	0	40	0	230686720	52	6780
2026-01-04 13:13:01.94	31.80	11.07	-40.3	-41.4	21.4	0.00e+00	0	40	0	232783872	52	6735
2026-01-04 13:13:02.95	31.91	11.14	-40.1	-41.3	21.5	0.00e+00	0	40	0	234881024	52	6632
2026-01-04 13:13:03.96	32.02	11.22	-40.4	-41.5	21.5	0.00e+00	0	40	0	235929600	52	6820
2026-01-04 13:13:04.97	32.12	11.29	-40.2	-41.4	21.5	0.00e+00	0	40	0	238026752	52	6707
2026-01-04 13:13:05.98	32.23	11.37	-40.2	-41.3	21.6	0.00e+00	0	40	0	240123904	52	6653
2026-01-04 13:13:06.98	32.34	11.44	-40.0	-41.1	21.8	0.00e+00	0	40	0	242221056	52	6507
2026-01-04 13:13:07.99	32.45	11.52	-40.0	-41.0	21.8	0.00e+00	0	40	0	244318208	52	6464
2026-01-04 13:13:09.00	32.56	11.60	-39.9	-41.0	21.8	0.00e+00	0	40	0	245366784	52	6433
2026-01-04 13:13:10.01	32.67	11.67	-39.6	-40.6	22.1	0.00e+00	0	40	0	247463936	52	6167
2026-01-04 13:13:11.02	32.79	11.75	-39.8	-40.9	22.0	0.00e+00	0	40	0	249561088	52	6327
2026-01-04 13:13:12.02	32.90	11.82	-39.7	-40.8	22.0	0.00e+00	0	40	0	251658240	52	6279
2026-01-04 13:13:13.03	33.01	11.90	-39.7	-40.7	22.0	0.00e+00	0	40	0	253755392	52	6245
2026-01-04 13:13:14.04	33.12	11.98	-39.7	-40.8	22.0	0.00e+00	0	40	0	254803968	52	6278
2026-01-04 13:13:15.05	33.24	12.05	-39.6	-40.7	22.1	0.00e+00	0	40	0	256901120	52	6206
2026-01-04 13:13:16.06	33.35	12.13	-39.5	-40.5	22.1	0.00e+00	0	40	0	258998272	52	6076
2026-01-04 13:13:17.07	33.47	12.21	-39.5	-40.5	22.2	0.00e+00	0	40	0	261095424	52	6056
2026-01-04 13:13:18.08	33.58	12.28	-39.5	-40.6	22.2	0.00e+00	0	40	0	263192576	52	6112
2026-01-04 13:13:19.09	33.70	12.36	-39.4	-40.4	22.3	0.00e+00	0	40	0	264241152	52	5985
2026-01-04 13:13:20.10	33.82	12.44	-39.4	-40.4	22.4	0.00e+00	0	40	0	266338304	52	5980
2026-01-04 13:13:21.11	33.93	12.51	-39.4	-40.5	22.3	0.00e+00	0	40	0	268435456	52	6043
2026-01-04 13:13:22.12	34.05	12.59	-39.2	-40.1	22.5	0.00e+00	0	40	0	270532608	52	5825
2026-01-04 13:13:23.12	34.17	12.67	-39.5	-40.5	22.3	0.00e+00	0	40	0	272629760	52	6081
2026-01-04 13:13:24.13	34.29	12.75	-39.2	-40.2	22.6	0.00e+00	0	40	0	273678336	52	5869
2026-01-04 13:13:25.14	34.41	12.83	-39.1	-40.1	22.6	0.00e+00	0	40	0	275775488	52	5774
2026-01-04 13:13:26.15	34.53	12.90	-39.3	-40.3	22.5	0.00e+00	0	40	0	277872640	52	5946
2026-01-04 13:13:27.16	34.65	12.98	-39.2	-40.2	22.5	0.00e+00	0	40	0	279969792	52	5892
2026-01-04 13:13:28.17	34.77	13.06	-39.2	-40.2	22.5	0.00e+00	0	40	0	282066944	52	5838
2026-01-04 13:13:29.18	34.89	13.14	-39.4	-40.4	22.4	0.00e+00	0	40	0	284164096	52	5987
2026-01-04 13:13:30.19	35.02	13.22	-39.4	-40.4	22.4	0.00e+00	0	40	0	285212672	52	6030
2026-01-04 13:13:31.20	35.14	13.30	-39.1	-40.1	22.6	0.00e+00	0	40	0	287309824	52	5785
2026-01-04 13:13:32.21	35.27	13.38	-39.1	-40.1	22.6	0.00e+00	0	40	0	289406976	52	5781
2026-01-04 13:13:33.22	35.39	13.45	-39.1	-40.1	22.7	0.00e+00	0	40	0	291504128	52	5792
2026-01-04 13:13:34.23	35.52	13.53	-38.9	-39.8	22.8	0.00e+00	0	40	0	293601280	52	5617
2026-01-04 13:13:35.24	35.64	13.61	-38.9	-39.9	22.8	0.00e+00	0	40	0	294649856	52	5632
2026-01-04 13:13:36.25	35.77	13.69	-39.1	-40.1	22.6	0.00e+00	0	40	0	296747008	52	5791
2026-01-04 13:13:37.26	35.90	13.77	-38.9	-39.8	22.8	0.00e+00	0	40	0	298844160	52	5611
2026-01-04 13:13:38.27	36.03	13.85	-39.2	-40.1	22.6	0.00e+00	0	40	0	300941312	52	5823
2026-01-04 13:13:39.28	36.15	13.93	-39.2	-40.2	22.5	0.00e+00	0	40	0	301989888	52	5864
2026-01-04 13:13:40.29	36.28	14.01	-39.4	-40.5	22.2	0.00e+00	0	40	0	304087040	52	6042
2026-01-04 13:13:41.29	36.41	14.09	-39.8	-40.9	22.0	0.00e+00	0	40	0	306184192	52	6330
2026-01-04 13:13:42.31	36.54	14.17	-39.8	-40.9	21.5	0.00e+00	0	40	0	308281344	52	6352
2026-01-04 13:13:43.31	36.67	14.25	-40.0	-41.1	21.4	0.00e+00	0	40	0	310378496	52	6522
2026-01-04 13:13:44.32	36.81	14.33	-40.0	-41.1	21.7	0.00e+00	0	40	0	312475648	52	6526
2026-01-04 13:13:45.33	36.94	14.41	-40.1	-41.3	21.5	0.00e+00	0	40	0	313524224	52	6618
2026-01-04 13:13:46.34	37.07	14.49	-40.1	-41.2	21.7	0.00e+00	0	40	0	315621376	52	6603
2026-01-04 13:13:47.35	37.21	14.58	-39.9	-41.0	21.8	0.00e+00	0	40	0	317718528	52	6460
2026-01-04 13:13:48.36	37.34	14.66	-40.1	-41.2	21.7	0.00e+00	0	40	0	319815680	52	6561
2026-01-04 13:13:49.37	37.48	14.74	-39.9	-41.0	21.9	0.00e+00	0	40	0	321912832	52	6441
2026-01-04 13:13:50.38	37.62	14.82	-39.9	-41.0	21.9	0.00e+00	0	40	0	322961408	52	6409
2026-01-04 13:13:51.39	37.75	14.90	-39.8	-40.9	21.9	0.00e+00	0	40	0	325058560	52	6361
2026-01-04 13:13:52.40	37.89	14.98	-39.7	-40.8	22.2	0.00e+00	0	40	0	327155712	52	6251
2026-01-04 13:13:53.41	38.03	15.06	-40.0	-41.1	21.8	0.00e+00	0	40	0	329252864	52	6506
2026-01-04 13:13:54.42	38.17	15.15	-39.5	-40.5	22.3	0.00e+00	0	40	0	331350016	52	6100
2026-01-04 13:13:55.43	38.31	15.23	-39.6	-40.6	22.2	0.00e+00	0	40	0	332398592	52	6147
2026-01-04 13:13:56.44	38.45	15.31	-39.4	-40.4	22.4	0.00e+00	0	40	0	334495744	52	6004
2026-01-04 13:13:57.45	38.59	15.39	-39.4	-40.4	22.4	0.00e+00	0	40	0	336592896	52	6015
2026-01-04 13:13:58.46	38.73	15.48	-39.2	-40.2	22.6	0.00e+00	0	40	0	338690048	52	5856
2026-01-04 13:13:59.47	38.88	15.56	-39.1	-40.1	22.6	0.00e+00	0	40	0	340787200	52	5788
2026-01-04 13:14:00.48	39.02	15.64	-39.1	-40.1	22.6	0.00e+00	0	40	0	341835776	52	5809
2026-01-04 13:14:01.49	39.17	15.72	-39.1	-40.1	22.8	0.00e+00	0	40	0	343932928	52	5772
2026-01-04 13:14:02.50	39.31	15.81	-38.9	-39.8	22.9	0.00e+00	0	40	0	346030080	52	5610
2026-01-04 13:14:03.50	39.46	15.89	-38.9	-39.9	22.8	0.00e+00	0	40	0	348127232	52	5642
2026-01-04 13:14:04.51	39.60	15.97	-38.8	-39.8	22.9	0.00e+00	0	40	0	350224384	52	5592
2026-01-04 13:14:05.52	39.75	16.05	-38.8	-39.7	22.9	0.00e+00	0	40	0	351272960	50	6232
2026-01-04 13:14:06.53	39.90	16.14	-38.8	-39.7	22.9	0.00e+00	0	40	0	353370112	50	6239
2026-01-04 13:14:07.54	40.05	16.22	-38.8	-39.8	22.8	0.00e+00	0	40	0	355467264	50	6279
2026-01-04 13:14:08.55	40.20	16.30	-38.7	-39.7	22.7	0.00e+00	0	40	0	357564416	50	6192
2026-01-04 13:14:09.56	40.35	16.39	-38.9	-39.9	22.8	0.00e+00	0	40	0	359661568	50	6339
2026-01-04 13:14:10.57	40.50	16.47	-38.6	-39.6	23.2	0.00e+00	0	40	0	360710144	50	6126
2026-01-04 13:14:11.58	40.66	16.56	-38.8	-39.8	22.7	0.00e+00	0	40	0	362807296	50	6273
2026-01-04 13:14:12.59	40.81	16.64	-38.4	-39.4	23.2	0.00e+00	0	40	0	364904448	50	5979
2026-01-04 13:14:13.60	40.96	16.72	-38.4	-39.3	23.4	0.00e+00	0	40	0	367001600	50	5923
2026-01-04 13:14:14.61	41.12	16.81	-38.2	-39.1	23.4	0.00e+00	0	40	0	369098752	50	5770
2026-01-04 13:14:15.62	41.27	16.89	-38.4	-39.3	23.3	0.00e+00	0	40	0	370147328	50	5918
2026-01-04 13:14:16.63	41.43	16.98	-38.4	-39.3	23.3	0.00e+00	0	40	0	372244480	50	5915
2026-01-04 13:14:17.64	41.59	17.06	-38.4	-39.4	23.3	0.00e+00	0	40	0	374341632	50	5967
2026-01-04 13:14:18.65	41.75	17.15	-38.4	-39.3	23.3	0.00e+00	0	40	0	376438784	50	5935
2026-01-04 13:14:19.65	41.91	17.23	-38.6	-39.5	23.2	0.00e+00	0	40	0	378535936	50	6080
2026-01-04 13:14:20.66	42.07	17.31	-38.5	-39.4	23.2	0.00e+00	0	40	0	380633088	50	5992
2026-01-04 13:14:21.67	42.23	17.40	-38.5	-39.5	23.3	0.00e+00	0	40	0	381681664	50	6044
2026-01-04 13:14:22.68	42.39	17.48	-38.5	-39.4	23.2	0.00e+00	0	40	0	383778816	50	6017
2026-01-04 13:14:23.69	42.55	17.57	-38.6	-39.6	23.1	0.00e+00	0	40	0	385875968	50	6131
2026-01-04 13:14:24.70	42.72	17.65	-38.6	-39.5	23.1	0.00e+00	0	40	0	387973120	50	6057
2026-01-04 13:14:25.70	42.88	17.74	-38.4	-39.3	23.3	0.00e+00	0	40	0	390070272	50	5912
2026-01-04 13:14:26.71	43.04	17.82	-38.3	-39.3	23.4	0.00e+00	0	40	0	391118848	50	5901
2026-01-04 13:14:27.72	43.21	17.91	-38.3	-39.3	23.2	0.00e+00	0	40	0	393216000	50	5907
2026-01-04 13:14:28.73	43.38	17.99	-38.5	-39.4	22.9	0.00e+00	0	40	0	395313152	50	5984
2026-01-04 13:14:29.74	43.55	18.08	-38.6	-39.6	22.3	0.00e+00	0	40	0	397410304	50	6116
2026-01-04 13:14:30.75	43.72	18.16	-38.6	-39.5	23.0	0.00e+00	0	40	0	399507456	50	6049
2026-01-04 13:14:31.75	43.89	18.25	-38.2	-39.1	23.4	0.00e+00	0	40	0	400556032	50	5822
2026-01-04 13:14:32.77	44.06	18.33	-38.0	-38.8	23.7	0.00e+00	0	40	0	402653184	50	5623
2026-01-04 13:14:33.78	44.23	18.42	-37.8	-38.7	23.8	0.00e+00	0	40	0	404750336	50	5513
2026-01-04 13:14:34.79	44.40	18.51	-37.8	-38.7	23.8	0.00e+00	0	40	0	406847488	48	6208
2026-01-04 13:14:35.79	44.58	18.59	-37.7	-38.6	23.9	0.00e+00	0	40	0	408944640	48	6111
2026-01-04 13:14:36.80	44.75	18.68	-37.8	-38.6	23.9	0.00e+00	0	40	0	409993216	48	6168
2026-01-04 13:14:37.81	44.93	18.76	-37.5	-38.4	24.0	0.00e+00	0	40	0	412090368	48	5987
2026-01-04 13:14:38.82	45.10	18.85	-38.0	-38.8	23.7	0.00e+00	0	40	0	414187520	48	6310
2026-01-04 13:14:39.83	45.28	18.93	-37.9	-38.7	23.8	0.00e+00	0	40	0	416284672	48	6244
2026-01-04 13:14:40.84	45.46	19.02	-37.6	-38.5	24.0	0.00e+00	0	40	0	418381824	48	6046
2026-01-04 13:14:41.85	45.64	19.11	-37.9	-38.8	23.7	0.00e+00	0	40	0	419430400	48	6252
2026-01-04 13:14:42.86	45.82	19.19	-37.8	-38.6	23.9	0.00e+00	0	40	0	421527552	48	6157
2026-01-04 13:14:43.87	46.00	19.28	-38.0	-38.9	23.6	0.00e+00	0	40	0	423624704	48	6390
2026-01-04 13:14:44.88	46.19	19.36	-38.2	-39.1	23.5	0.00e+00	0	40	0	425721856	48	6488
2026-01-04 13:14:45.90	46.37	19.45	-38.5	-39.4	23.3	0.00e+00	0	40	0	427819008	48	6728
2026-01-04 13:14:46.91	46.56	19.54	-38.3	-39.2	23.4	0.00e+00	0	40	0	428867584	48	6563
2026-01-04 13:14:47.92	46.74	19.62	-38.1	-39.0	23.5	0.00e+00	0	40	0	430964736	48	6439
2026-01-04 13:14:48.92	46.93	19.71	-38.0	-38.9	23.7	0.00e+00	0	40	0	433061888	48	6365
2026-01-04 13:14:49.93	47.11	19.79	-37.9	-38.8	23.8	0.00e+00	0	40	0	435159040	48	6257
2026-01-04 13:14:50.94	47.30	19.88	-37.8	-38.7	23.8	0.00e+00	0	40	0	437256192	48	6175
2026-01-04 13:14:51.95	47.49	19.96	-37.7	-38.6	23.9	0.00e+00	0	40	0	438304768	48	6124
2026-01-04 13:14:52.96	47.68	20.05	-38.0	-38.9	23.7	0.00e+00	0	40	0	440401920	48	6374
2026-01-04 13:14:53.97	47.88	20.14	-38.1	-39.0	23.6	0.00e+00	0	40	0	442499072	48	6458
2026-01-04 13:14:54.98	48.07	20.22	-38.1	-39.0	23.6	0.00e+00	0	40	0	444596224	48	6443
2026-01-04 13:14:55.99	48.26	20.31	-38.2	-39.1	23.4	0.00e+00	0	40	0	446693376	48	6504
2026-01-04 13:14:57.00	48.46	20.39	-38.3	-39.2	23.4	0.00e+00	0	40	0	448790528	48	6577
2026-01-04 13:14:58.01	48.65	20.48	-38.3	-39.2	23.6	0.00e+00	0	40	0	449839104	48	6567
2026-01-04 13:14:59.02	48.85	20.57	-37.6	-38.5	23.9	0.00e+00	0	40	0	451936256	48	6035
2026-01-04 13:15:00.03	49.05	20.65	-37.6	-38.5	24.0	0.00e+00	0	40	0	454033408	48	6039
2026-01-04 13:15:01.04	49.25	20.74	-37.9	-38.8	23.8	0.00e+00	0	40	0	456130560	48	6251
2026-01-04 13:15:02.04	49.45	20.82	-38.0	-38.9	23.8	0.00e+00	0	40	0	458227712	48	6343
2026-01-04 13:15:03.05	49.65	20.91	-37.8	-38.7	23.8	0.00e+00	0	40	0	459276288	48	6233
2026-01-04 13:15:04.06	49.85	20.99	-38.0	-38.9	23.5	0.00e+00	0	40	0	461373440	48	6357
2026-01-04 13:15:05.07	50.06	21.08	-37.9	-38.8	23.8	0.00e+00	0	40	0	463470592	48	6291
2026-01-04 13:15:06.08	50.26	21.16	-37.8	-38.7	23.9	0.00e+00	0	40	0	465567744	48	6204
2026-01-04 13:15:07.09	50.47	21.25	-37.6	-38.5	24.0	0.00e+00	0	40	0	467664896	48	6060
2026-01-04 13:15:08.10	50.68	21.33	-37.7	-38.6	23.9	0.00e+00	0	40	0	468713472	48	6114
2026-01-04 13:15:09.11	50.88	21.42	-37.5	-38.4	24.1	0.00e+00	0	40	0	470810624	48	5972
2026-01-04 13:15:10.12	51.09	21.51	-37.7	-38.5	24.0	0.00e+00	0	40	0	472907776	48	6078
2026-01-04 13:15:11.13	51.30	21.59	-37.8	-38.6	23.9	0.00e+00	0	40	0	475004928	48	6147
2026-01-04 13:15:12.14	51.52	21.68	-37.7	-38.6	24.0	0.00e+00	0	40	0	477102080	48	6134
2026-01-04 13:15:13.15	51.73	21.76	-37.9	-38.8	23.9	0.00e+00	0	40	0	478150656	48	6246
2026-01-04 13:15:14.16	51.94	21.84	-37.9	-38.7	24.0	0.00e+00	0	40	0	480247808	48	6227
2026-01-04 13:15:15.16	52.16	21.93	-37.7	-38.6	23.9	0.00e+00	0	40	0	482344960	48	6148
2026-01-04 13:15:16.17	52.37	22.01	-37.8	-38.7	23.9	0.00e+00	0	40	0	484442112	48	6187
2026-01-04 13:15:17.18	52.59	22.10	-37.7	-38.6	23.9	0.00e+00	0	40	0	486539264	48	6134
2026-01-04 13:15:18.19	52.81	22.18	-37.9	-38.8	23.7	0.00e+00	0	40	0	487587840	48	6258
2026-01-04 13:15:19.20	53.03	22.27	-38.0	-38.9	23.6	0.00e+00	0	40	0	489684992	48	6382
2026-01-04 13:15:20.21	53.25	22.35	-37.9	-38.8	23.7	0.00e+00	0	40	0	491782144	48	6306
2026-01-04 13:15:21.22	53.47	22.43	-37.9	-38.8	23.8	0.00e+00	0	40	0	493879296	48	6286
2026-01-04 13:15:22.23	53.69	22.52	-38.1	-39.0	23.6	0.00e+00	0	40	0	495976448	48	6451
2026-01-04 13:15:23.24	53.92	22.60	-37.7	-38.6	24.0	0.00e+00	0	40	0	497025024	48	6130
2026-01-04 13:15:24.25	54.14	22.68	-38.1	-39.0	23.6	0.00e+00	0	40	0	499122176	48	6459
2026-01-04 13:15:25.26	54.37	22.77	-38.0	-38.9	23.7	0.00e+00	0	40	0	501219328	48	6356
2026-01-04 13:15:26.27	54.60	22.85	-38.0	-38.9	23.7	0.00e+00	0	40	0	503316480	48	6370
2026-01-04 13:15:27.28	54.83	22.93	-37.9	-38.7	23.8	0.00e+00	0	40	0	505413632	48	6227
2026-01-04 13:15:28.29	55.06	23.01	-37.9	-38.8	23.7	0.00e+00	0	40	0	506462208	48	6282
2026-01-04 13:15:29.30	55.29	23.10	-37.9	-38.8	23.8	0.00e+00	0	40	0	508559360	48	6247
2026-01-04 13:15:30.30	55.52	23.18	-37.7	-38.5	24.0	0.00e+00	0	40	0	510656512	48	6080
2026-01-04 13:15:31.31	55.75	23.26	-37.6	-38.4	23.9	0.00e+00	0	40	0	512753664	48	6025
2026-01-04 13:15:32.32	55.99	23.34	-37.6	-38.5	23.8	0.00e+00	0	40	0	514850816	48	6073
2026-01-04 13:15:33.33	56.22	23.42	-37.8	-38.7	23.8	0.00e+00	0	40	0	516947968	48	6193
2026-01-04 13:15:34.34	56.46	23.50	-37.8	-38.7	23.8	0.00e+00	0	40	0	517996544	48	6201
2026-01-04 13:15:35.35	56.70	23.59	-38.1	-39.0	23.6	0.00e+00	0	40	0	520093696	48	6434
2026-01-04 13:15:36.36	56.94	23.67	-38.4	-39.3	23.4	0.00e+00	0	40	0	522190848	48	6658
2026-01-04 13:15:37.37	57.18	23.75	-38.5	-39.5	23.3	0.00e+00	0	40	0	524288000	48	6793
2026-01-04 13:15:38.38	57.42	23.83	-38.8	-39.8	23.3	0.00e+00	0	40	0	525336576	50	6262
2026-01-04 13:15:39.39	57.67	23.91	-38.7	-39.6	23.2	0.00e+00	0	40	0	527433728	50	6148
2026-01-04 13:15:40.40	57.91	23.99	-38.3	-39.3	23.5	0.00e+00	0	40	0	529530880	50	5903
2026-01-04 13:15:41.40	58.16	24.06	-38.3	-39.2	23.5	0.00e+00	0	40	0	531628032	50	5867
2026-01-04 13:15:42.41	58.40	24.14	-37.9	-38.7	23.9	0.00e+00	0	40	0	533725184	50	5544
2026-01-04 13:15:43.42	58.65	24.22	-38.0	-38.8	23.8	0.00e+00	0	40	0	534773760	50	5629
2026-01-04 13:15:44.43	58.90	24.30	-38.0	-38.9	23.7	0.00e+00	0	40	0	536870912	50	5644
2026-01-04 13:15:45.44	59.15	24.38	-37.8	-38.7	23.9	0.00e+00	0	40	0	538968064	50	5549
2026-01-04 13:15:46.45	59.41	24.46	-37.8	-38.6	23.9	0.00e+00	0	40	0	541065216	48	6154
2026-01-04 13:15:47.46	59.66	24.53	-37.5	-38.3	24.2	0.00e+00	0	40	0	543162368	48	5946
2026-01-04 13:15:48.47	59.91	24.61	-37.5	-38.3	24.2	0.00e+00	0	40	0	545259520	48	5950
2026-01-04 13:15:49.48	60.17	24.69	-37.7	-38.5	23.8	0.00e+00	0	40	0	546308096	48	6078
2026-01-04 13:15:50.49	60.43	24.76	-38.0	-38.8	23.8	0.00e+00	0	40	0	548405248	48	6317
2026-01-04 13:15:51.50	60.68	24.84	-38.2	-39.1	23.6	0.00e+00	0	40	0	550502400	48	6530
2026-01-04 13:15:52.51	60.94	24.92	-38.6	-39.5	23.4	0.00e+00	0	40	0	552599552	48	6827
2026-01-04 13:15:53.52	61.20	24.99	-38.5	-39.5	23.3	0.00e+00	0	40	0	554696704	50	6039
2026-01-04 13:15:54.53	61.47	25.07	-38.3	-39.3	23.5	0.00e+00	0	40	0	555745280	50	5909
2026-01-04 13:15:55.54	61.73	25.14	-37.9	-38.7	23.9	0.00e+00	0	40	0	557842432	50	5555
2026-01-04 13:15:56.55	61.99	25.21	-37.7	-38.6	24.0	0.00e+00	0	40	0	559939584	48	6138
2026-01-04 13:15:57.56	62.26	25.29	-37.8	-38.7	23.8	0.00e+00	0	40	0	562036736	48	6189
2026-01-04 13:15:58.56	62.52	25.36	-38.1	-39.0	23.5	0.00e+00	0	40	0	564133888	48	6448
2026-01-04 13:15:59.57	62.79	25.43	-38.8	-39.7	23.2	0.00e+00	0	40	0	565182464	48	6990
2026-01-04 13:16:00.59	63.06	25.51	-39.1	-40.1	22.7	0.00e+00	0	40	0	567279616	50	6492
2026-01-04 13:16:01.60	63.33	25.58	-39.5	-40.5	22.5	0.00e+00	0	40	0	569376768	50	6832
2026-01-04 13:16:02.60	63.60	25.65	-39.5	-40.5	22.5	0.00e+00	0	40	0	571473920	50	6832
2026-01-04 13:16:03.61	63.88	25.72	-39.1	-40.1	22.8	0.00e+00	0	40	0	573571072	50	6514
2026-01-04 13:16:04.62	64.15	25.79	-38.6	-39.5	23.4	0.00e+00	0	40	0	574619648	50	6068
2026-01-04 13:16:05.63	64.43	25.86	-38.6	-39.6	23.3	0.00e+00	0	40	0	576716800	50	6107
2026-01-04 13:16:06.64	64.70	25.93	-38.9	-39.8	23.1	0.00e+00	0	40	0	578813952	50	6307
2026-01-04 13:16:07.65	64.98	26.00	-38.6	-39.5	23.1	0.00e+00	0	40	0	580911104	50	6096
2026-01-04 13:16:08.66	65.26	26.07	-39.1	-40.1	22.8	0.00e+00	0	40	0	583008256	50	6498
2026-01-04 13:16:09.67	65.54	26.13	-39.0	-40.0	22.8	0.00e+00	0	40	0	584056832	50	6456
2026-01-04 13:16:10.68	65.82	26.20	-39.2	-40.2	22.7	0.00e+00	0	40	0	586153984	50	6580
2026-01-04 13:16:11.69	66.10	26.27	-39.4	-40.4	22.6	0.00e+00	0	40	0	588251136	50	6734
2026-01-04 13:16:12.70	66.39	26.33	-39.5	-40.5	22.6	0.00e+00	0	40	0	590348288	50	6775
2026-01-04 13:16:13.70	66.67	26.40	-39.6	-40.6	22.4	0.00e+00	0	40	0	592445440	50	6879
2026-01-04 13:16:14.71	66.95	26.46	-39.7	-40.7	22.4	0.00e+00	0	40	0	593494016	50	6982
2026-01-04 13:16:15.72	67.24	26.53	-39.5	-40.5	22.6	0.00e+00	0	40	0	595591168	50	6803
2026-01-04 13:16:16.73	67.53	26.59	-39.2	-40.2	22.7	0.00e+00	0	40	0	597688320	50	6575
2026-01-04 13:16:17.74	67.82	26.65	-39.0	-40.0	22.9	0.00e+00	0	40	0	599785472	50	6418
2026-01-04 13:16:18.75	68.11	26.72	-39.1	-40.0	22.8	0.00e+00	0	40	0	601882624	50	6460
2026-01-04 13:16:19.76	68.40	26.78	-39.0	-40.0	22.9	0.00e+00	0	40	0	602931200	50	6402
2026-01-04 13:16:20.77	68.69	26.84	-38.9	-39.9	23.1	0.00e+00	0	40	0	605028352	50	6320
2026-01-04 13:16:21.78	68.99	26.90	-39.4	-40.4	22.5	0.00e+00	0	40	0	607125504	50	6759
2026-01-04 13:16:22.79	69.28	26.96	-39.7	-40.7	22.4	0.00e+00	0	40	0	609222656	50	6963
2026-01-04 13:16:23.80	69.58	27.02	-39.9	-40.9	22.3	0.00e+00	0	40	0	611319808	52	6368
2026-01-04 13:16:24.81	69.87	27.08	-40.0	-41.1	22.0	0.00e+00	0	40	0	613416960	52	6475
2026-01-04 13:16:25.82	70.17	27.14	-40.1	-41.1	22.0	0.00e+00	0	40	0	614465536	52	6528
2026-01-04 13:16:26.83	70.47	27.19	-39.3	-40.3	22.6	0.00e+00	0	40	0	616562688	52	5926
2026-01-04 13:16:27.84	70.77	27.25	-39.1	-40.0	22.5	0.00e+00	0	40	0	618659840	52	5754
2026-01-04 13:16:28.85	71.07	27.30	-38.6	-39.6	23.2	0.00e+00	0	40	0	620756992	50	6112
2026-01-04 13:16:29.86	71.37	27.36	-38.6	-39.5	23.3	0.00e+00	0	40	0	622854144	50	6063
2026-01-04 13:16:30.87	71.68	27.41	-38.7	-39.6	23.0	0.00e+00	0	40	0	623902720	50	6165
2026-01-04 13:16:31.87	71.98	27.47	-39.4	-40.4	22.5	0.00e+00	0	40	0	625999872	50	6737
2026-01-04 13:16:32.88	72.28	27.52	-40.3	-41.4	21.7	0.00e+00	0	40	0	628097024	52	6757
2026-01-04 13:16:33.89	72.59	27.57	-40.3	-41.4	21.8	0.00e+00	0	40	0	630194176	52	6712
2026-01-04 13:16:34.90	72.90	27.62	-40.4	-41.6	21.6	0.00e+00	0	40	0	632291328	52	6869
2026-01-04 13:16:35.90	73.20	27.67	-40.5	-41.6	21.5	0.00e+00	0	40	0	633339904	52	6920
2026-01-04 13:16:36.91	73.51	27.72	-40.9	-42.1	21.1	0.00e+00	0	40	0	635437056	54	6522
2026-01-04 13:16:37.92	73.82	27.77	-41.1	-42.3	20.7	0.00e+00	0	40	0	637534208	54	6681
2026-01-04 13:16:38.93	74.13	27.82	-41.9	-43.3	20.1	0.00e+00	0	40	0	639631360	56	6662
2026-01-04 13:16:39.94	74.44	27.87	-42.3	-43.7	19.8	0.00e+00	0	40	0	641728512	56	7005
2026-01-04 13:16:40.95	74.76	27.91	-42.3	-43.7	19.7	0.00e+00	0	40	0	642777088	56	6996
2026-01-04 13:16:41.96	75.07	27.96	-41.9	-43.3	20.1	0.00e+00	0	40	0	644874240	56	6678
2026-01-04 13:16:42.97	75.39	28.01	-41.7	-43.0	20.4	0.00e+00	0	40	0	646971392	56	6417
2026-01-04 13:16:43.98	75.70	28.05	-41.7	-43.1	20.3	0.00e+00	0	40	0	649068544	56	6479
2026-01-04 13:16:44.98	76.01	28.09	-42.1	-43.6	19.5	0.00e+00	0	40	0	651165696	56	6865
2026-01-04 13:16:46.00	76.33	28.13	-42.1	-43.5	19.9	0.00e+00	0	40	0	652214272	56	6825
2026-01-04 13:16:47.00	76.65	28.18	-41.8	-43.2	20.2	0.00e+00	0	40	0	654311424	56	6550
2026-01-04 13:16:48.02	76.97	28.22	-41.6	-42.9	20.6	0.00e+00	0	40	0	656408576	56	6379
2026-01-04 13:16:49.03	77.29	28.26	-41.0	-42.2	21.1	0.00e+00	0	40	0	658505728	56	5856
2026-01-04 13:16:50.04	77.61	28.30	-41.2	-42.4	21.0	0.00e+00	0	40	0	660602880	56	6012
2026-01-04 13:16:51.05	77.93	28.33	-41.1	-42.3	21.0	0.00e+00	0	40	0	661651456	56	5942
2026-01-04 13:16:52.06	78.25	28.37	-41.7	-43.0	20.4	0.00e+00	0	40	0	663748608	56	6418
2026-01-04 13:16:53.06	78.57	28.41	-41.9	-43.3	20.1	0.00e+00	0	40	0	665845760	56	6628
2026-01-04 13:16:54.07	78.90	28.44	-42.0	-43.3	20.1	0.00e+00	0	40	0	667942912	56	6686
2026-01-04 13:16:55.08	79.22	28.48	-41.5	-42.8	20.5	0.00e+00	0	40	0	670040064	56	6288
2026-01-04 13:16:56.09	79.55	28.51	-41.1	-42.3	21.0	0.00e+00	0	40	0	671088640	56	5940
2026-01-04 13:16:57.09	79.87	28.54	-41.1	-42.3	21.0	0.00e+00	0	40	0	673185792	56	5947
2026-01-04 13:16:58.10	80.19	28.57	-40.9	-42.2	21.1	0.00e+00	0	40	0	675282944	56	5831
2026-01-04 13:16:59.11	80.52	28.60	-41.0	-42.3	21.1	0.00e+00	0	40	0	677380096	56	5902
2026-01-04 13:17:00.12	80.85	28.63	-40.8	-42.0	21.4	0.00e+00	0	40	0	679477248	54	6410
2026-01-04 13:17:01.13	81.18	28.66	-40.1	-41.2	21.9	0.00e+00	0	40	0	681574400	54	5874
2026-01-04 13:17:02.14	81.50	28.69	-39.8	-40.8	22.2	0.00e+00	0	40	0	682622976	52	6281
2026-01-04 13:17:03.15	81.83	28.71	-39.5	-40.5	22.4	0.00e+00	0	40	0	684720128	52	6059
2026-01-04 13:17:04.16	82.16	28.74	-39.6	-40.6	22.3	0.00e+00	0	40	0	686817280	52	6123
2026-01-04 13:17:05.17	82.49	28.76	-39.8	-40.9	21.9	0.00e+00	0	40	0	688914432	52	6352
2026-01-04 13:17:06.18	82.82	28.79	-39.8	-40.8	22.1	0.00e+00	0	40	0	689963008	52	6299
2026-01-04 13:17:07.18	83.15	28.81	-39.8	-40.8	22.2	0.00e+00	0	40	0	692060160	52	6278
2026-01-04 13:17:08.19	83.48	28.83	-39.7	-40.7	22.3	0.00e+00	0	40	0	694157312	52	6213
2026-01-04 13:17:09.20	83.81	28.85	-39.6	-40.6	22.3	0.00e+00	0	40	0	696254464	52	6164
2026-01-04 13:17:10.21	84.15	28.87	-40.0	-41.1	22.0	0.00e+00	0	40	0	698351616	52	6466
2026-01-04 13:17:11.22	84.48	28.89	-39.8	-40.9	22.1	0.00e+00	0	40	0	699400192	52	6346
2026-01-04 13:17:12.23	84.81	28.91	-39.7	-40.8	22.2	0.00e+00	0	40	0	701497344	52	6269
2026-01-04 13:17:13.24	85.15	28.93	-39.7	-40.8	22.2	0.00e+00	0	40	0	703594496	52	6260
2026-01-04 13:17:14.24	85.48	28.94	-39.7	-40.7	22.2	0.00e+00	0	40	0	705691648	52	6243
2026-01-04 13:17:15.25	85.81	28.96	-39.6	-40.6	22.3	0.00e+00	0	40	0	707788800	52	6167
2026-01-04 13:17:16.26	86.14	28.97	-39.6	-40.6	22.3	0.00e+00	0	40	0	709885952	52	6133
2026-01-04 13:17:17.27	86.48	28.98	-39.3	-40.3	22.5	0.00e+00	0	40	0	710934528	52	5919
2026-01-04 13:17:18.28	86.81	28.99	-39.6	-40.7	22.3	0.00e+00	0	40	0	713031680	52	6199
2026-01-04 13:17:19.29	87.15	29.00	-39.8	-40.8	22.1	0.00e+00	0	40	0	715128832	52	6294
2026-01-04 13:17:20.30	87.48	29.01	-39.8	-40.9	22.1	0.00e+00	0	40	0	717225984	52	6360
2026-01-04 13:17:21.31	87.82	29.02	-39.7	-40.8	22.2	0.00e+00	0	40	0	719323136	52	6268
2026-01-04 13:17:22.32	88.16	29.03	-39.4	-40.4	22.6	0.00e+00	0	40	0	720371712	52	5978
2026-01-04 13:17:23.33	88.49	29.03	-39.2	-40.1	22.7	0.00e+00	0	40	0	722468864	52	5816
2026-01-04 13:17:24.34	88.83	29.04	-39.1	-40.0	22.8	0.00e+00	0	40	0	724566016	52	5746
2026-01-04 13:17:25.35	89.16	29.04	-39.6	-40.6	22.3	0.00e+00	0	40	0	726663168	52	6139
2026-01-04 13:17:26.36	89.50	29.05	-40.2	-41.4	21.9	0.00e+00	0	40	0	728760320	52	6703
2026-01-04 13:17:27.37	89.84	29.05	-40.5	-41.7	21.3	0.00e+00	0	40	0	729808896	52	6946
2026-01-04 13:17:28.38	90.17	29.05	-40.5	-41.7	21.5	0.00e+00	0	40	0	731906048	54	6186
2026-01-04 13:17:29.39	90.51	29.05	-40.5	-41.7	21.4	0.00e+00	0	40	0	734003200	54	6177
2026-01-04 13:17:30.39	90.84	29.05	-40.5	-41.6	21.5	0.00e+00	0	40	0	736100352	54	6161
2026-01-04 13:17:31.40	91.18	29.05	-40.7	-41.9	21.1	0.00e+00	0	40	0	738197504	54	6358
2026-01-04 13:17:32.41	91.51	29.04	-40.8	-42.0	21.1	0.00e+00	0	40	0	739246080	54	6419
2026-01-04 13:17:33.41	91.85	29.04	-40.3	-41.5	21.6	0.00e+00	0	40	0	741343232	54	6036
2026-01-04 13:17:34.42	92.18	29.03	-39.6	-40.6	22.3	0.00e+00	0	40	0	743440384	54	5481
2026-01-04 13:17:35.43	92.52	29.03	-38.9	-39.8	22.9	0.00e+00	0	40	0	745537536	52	5613
2026-01-04 13:17:36.44	92.85	29.02	-38.5	-39.4	23.2	0.00e+00	0	40	0	747634688	50	6016
2026-01-04 13:17:37.45	93.19	29.01	-38.8	-39.7	22.9	0.00e+00	0	40	0	748683264	50	6244
2026-01-04 13:17:38.46	93.52	29.00	-39.5	-40.6	22.4	0.00e+00	0	40	0	750780416	50	6864
2026-01-04 13:17:39.47	93.86	28.99	-40.2	-41.3	21.6	0.00e+00	0	40	0	752877568	52	6622
2026-01-04 13:17:40.48	94.19	28.98	-40.6	-41.8	21.1	0.00e+00	0	40	0	754974720	52	7009
2026-01-04 13:17:41.49	94.53	28.97	-40.8	-42.0	21.1	0.00e+00	0	40	0	757071872	54	6417
2026-01-04 13:17:42.50	94.86	28.95	-40.9	-42.1	21.0	0.00e+00	0	40	0	758120448	54	6518
2026-01-04 13:17:43.51	95.20	28.94	-41.0	-42.3	20.9	0.00e+00	0	40	0	760217600	54	6662
2026-01-04 13:17:44.52	95.53	28.92	-41.1	-42.4	20.7	0.00e+00	0	40	0	762314752	54	6720
2026-01-04 13:17:45.53	95.87	28.91	-41.3	-42.6	20.9	0.00e+00	0	40	0	764411904	54	6876
2026-01-04 13:17:46.54	96.20	28.89	-40.7	-41.9	21.2	0.00e+00	0	40	0	766509056	54	6364
2026-01-04 13:17:47.55	96.53	28.87	-40.3	-41.5	21.6	0.00e+00	0	40	0	767557632	54	6048
2026-01-04 13:17:48.56	96.86	28.85	-40.4	-41.5	21.5	0.00e+00	0	40	0	769654784	54	6060
2026-01-04 13:17:49.56	97.19	28.83	-41.0	-42.2	21.0	0.00e+00	0	40	0	771751936	54	6576
2026-01-04 13:17:50.58	97.53	28.81	-41.5	-42.9	20.3	0.00e+00	0	40	0	773849088	54	7144
2026-01-04 13:17:51.59	97.86	28.78	-42.8	-44.5	18.9	0.00e+00	0	40	0	775946240	58	6787
2026-01-04 13:17:52.59	98.19	28.76	-43.0	-44.8	18.7	0.00e+00	0	40	0	778043392	58	7011
2026-01-04 13:17:53.60	98.52	28.74	-43.0	-44.7	18.8	0.00e+00	0	40	0	779091968	58	6953
2026-01-04 13:17:54.61	98.85	28.71	-42.9	-44.5	18.9	0.00e+00	0	40	0	781189120	58	6839
2026-01-04 13:17:55.62	99.18	28.68	-42.6	-44.2	19.3	0.00e+00	0	40	0	783286272	58	6553
2026-01-04 13:17:56.63	99.50	28.66	-42.1	-43.6	19.8	0.00e+00	0	40	0	785383424	58	6168
2026-01-04 13:17:57.64	99.83	28.63	-42.4	-44.0	19.5	0.00e+00	0	40	0	787480576	58	6391
2026-01-04 13:17:58.65	100.16	28.60	-42.2	-43.7	19.6	0.00e+00	0	40	0	788529152	58	6204
2026-01-04 13:17:59.66	100.49	28.57	-41.9	-43.3	20.0	0.00e+00	0	40	0	790626304	58	5947
2026-01-04 13:18:00.67	100.81	28.53	-41.0	-42.3	21.0	0.00e+00	0	40	0	792723456	56	5917
2026-01-04 13:18:01.68	101.14	28.50	-40.1	-41.2	21.7	0.00e+00	0	40	0	794820608	54	5888
2026-01-04 13:18:02.69	101.46	28.47	-40.3	-41.5	21.6	0.00e+00	0	40	0	796917760	54	6047
2026-01-04 13:18:03.69	101.79	28.43	-40.6	-41.7	21.3	0.00e+00	0	40	0	797966336	54	6229
2026-01-04 13:18:04.70	102.11	28.40	-41.1	-42.4	20.6	0.00e+00	0	40	0	800063488	54	6707
2026-01-04 13:18:05.71	102.43	28.36	-41.5	-42.9	20.5	0.00e+00	0	40	0	802160640	54	7102
2026-01-04 13:18:06.72	102.75	28.33	-41.0	-42.3	20.8	0.00e+00	0	40	0	804257792	54	6646
2026-01-04 13:18:07.72	103.07	28.29	-40.8	-42.0	21.2	0.00e+00	0	40	0	806354944	54	6424
2026-01-04 13:18:08.73	103.39	28.25	-40.3	-41.5	21.4	0.00e+00	0	40	0	807403520	54	6051
2026-01-04 13:18:09.74	103.71	28.21	-40.4	-41.5	21.5	0.00e+00	0	40	0	809500672	54	6093
2026-01-04 13:18:10.75	104.03	28.17	-40.5	-41.6	21.5	0.00e+00	0	40	0	811597824	54	6159
2026-01-04 13:18:11.76	104.35	28.13	-40.1	-41.2	21.8	0.00e+00	0	40	0	813694976	54	5874
2026-01-04 13:18:12.77	104.67	28.08	-39.7	-40.8	22.1	0.00e+00	0	40	0	815792128	52	6252
2026-01-04 13:18:13.78	104.99	28.04	-39.5	-40.5	22.4	0.00e+00	0	40	0	816840704	52	6090
2026-01-04 13:18:14.79	105.30	28.00	-39.3	-40.3	22.6	0.00e+00	0	40	0	818937856	52	5927
2026-01-04 13:18:15.80	105.62	27.95	-39.3	-40.3	22.3	0.00e+00	0	40	0	821035008	52	5923
2026-01-04 13:18:16.81	105.93	27.90	-39.5	-40.6	22.1	0.00e+00	0	40	0	823132160	52	6115
2026-01-04 13:18:17.81	106.24	27.86	-39.9	-41.0	21.8	0.00e+00	0	40	0	825229312	52	6437
2026-01-04 13:18:18.82	106.55	27.81	-40.5	-41.7	21.4	0.00e+00	0	40	0	826277888	52	6939
2026-01-04 13:18:19.83	106.87	27.76	-40.3	-41.4	21.6	0.00e+00	0	40	0	828375040	52	6730
2026-01-04 13:18:20.84	107.18	27.71	-40.2	-41.3	21.8	0.00e+00	0	40	0	830472192	52	6620
2026-01-04 13:18:21.85	107.49	27.66	-39.4	-40.4	22.6	0.00e+00	0	40	0	832569344	52	5995
2026-01-04 13:18:22.85	107.79	27.61	-39.4	-40.4	22.3	0.00e+00	0	40	0	834666496	52	6033
2026-01-04 13:18:23.86	108.10	27.56	-39.5	-40.5	22.3	0.00e+00	0	40	0	835715072	52	6101
2026-01-04 13:18:24.87	108.41	27.51	-39.6	-40.7	22.2	0.00e+00	0	40	0	837812224	52	6186
2026-01-04 13:18:25.88	108.71	27.46	-39.9	-41.0	22.0	0.00e+00	0	40	0	839909376	52	6420
2026-01-04 13:18:26.89	109.02	27.40	-39.8	-40.9	22.1	0.00e+00	0	40	0	842006528	52	6340
2026-01-04 13:18:27.90	109.32	27.35	-39.6	-40.7	22.2	0.00e+00	0	40	0	844103680	52	6180
2026-01-04 13:18:28.91	109.62	27.29	-39.1	-40.1	22.7	0.00e+00	0	40	0	845152256	52	5806
2026-01-04 13:18:29.92	109.92	27.24	-39.4	-40.4	22.4	0.00e+00	0	40	0	847249408	52	5997
2026-01-04 13:18:30.93	110.23	27.18	-39.3	-40.2	22.6	0.00e+00	0	40	0	849346560	52	5895
2026-01-04 13:18:31.94	110.52	27.12	-39.9	-41.0	22.0	0.00e+00	0	40	0	851443712	52	6400
2026-01-04 13:18:32.95	110.82	27.06	-39.9	-41.0	21.9	0.00e+00	0	40	0	853540864	52	6434
2026-01-04 13:18:33.96	111.12	27.00	-40.2	-41.3	21.6	0.00e+00	0	40	0	854589440	52	6675
2026-01-04 13:18:34.97	111.42	26.94	-40.1	-41.2	21.9	0.00e+00	0	40	0	856686592	52	6592
2026-01-04 13:18:35.98	111.71	26.88	-39.8	-40.9	22.0	0.00e+00	0	40	0	858783744	52	6327
2026-01-04 13:18:36.98	112.00	26.82	-39.9	-41.0	21.9	0.00e+00	0	40	0	860880896	52	6435
2026-01-04 13:18:37.99	112.30	26.76	-40.6	-41.7	21.3	0.00e+00	0	40	0	862978048	52	6974
2026-01-04 13:18:39.00	112.59	26.70	-41.3	-42.6	20.3	0.00e+00	0	40	0	864026624	54	6892
2026-01-04 13:18:40.01	112.88	26.64	-41.8	-43.1	20.2	0.00e+00	0	40	0	866123776	56	6514
2026-01-04 13:18:41.02	113.17	26.57	-41.6	-42.9	20.3	0.00e+00	0	40	0	868220928	56	6372
2026-01-04 13:18:42.03	113.46	26.51	-40.7	-41.8	21.3	0.00e+00	0	40	0	870318080	56	5614
2026-01-04 13:18:43.04	113.75	26.44	-40.1	-41.2	21.7	0.00e+00	0	40	0	872415232	54	5860
2026-01-04 13:18:44.05	114.03	26.38	-39.6	-40.7	22.1	0.00e+00	0	40	0	874512384	52	6187
2026-01-04 13:18:45.06	114.32	26.31	-40.2	-41.3	21.3	0.00e+00	0	40	0	875560960	52	6646
2026-01-04 13:18:46.07	114.60	26.25	-40.0	-41.0	21.8	0.00e+00	0	40	0	877658112	52	6460
2026-01-04 13:18:47.08	114.88	26.18	-40.1	-41.2	21.7	0.00e+00	0	40	0	879755264	52	6610
2026-01-04 13:18:48.09	115.17	26.11	-40.0	-41.1	21.8	0.00e+00	0	40	0	881852416	52	6530
2026-01-04 13:18:49.10	115.45	26.04	-39.9	-41.0	21.9	0.00e+00	0	40	0	883949568	52	6450
2026-01-04 13:18:50.11	115.73	25.98	-39.6	-40.6	22.2	0.00e+00	0	40	0	884998144	52	6141
2026-01-04 13:18:51.12	116.00	25.91	-39.3	-40.4	22.4	0.00e+00	0	40	0	887095296	52	5967
2026-01-04 13:18:52.13	116.28	25.84	-39.9	-40.9	22.0	0.00e+00	0	40	0	889192448	52	6380
2026-01-04 13:18:53.13	116.55	25.77	-40.0	-41.1	21.8	0.00e+00	0	40	0	891289600	52	6491
2026-01-04 13:18:54.14	116.83	25.70	-40.3	-41.5	21.4	0.00e+00	0	40	0	893386752	52	6777
2026-01-04 13:18:55.15	117.10	25.62	-40.5	-41.6	21.3	0.00e+00	0	40	0	894435328	52	6923
2026-01-04 13:18:56.16	117.37	25.55	-40.0	-41.1	21.8	0.00e+00	0	40	0	896532480	52	6482
2026-01-04 13:18:57.17	117.65	25.48	-39.2	-40.2	22.5	0.00e+00	0	40	0	898629632	52	5867
2026-01-04 13:18:58.18	117.92	25.41	-38.9	-39.9	22.6	0.00e+00	0	40	0	900726784	52	5679
2026-01-04 13:18:59.18	118.18	25.34	-38.8	-39.7	22.9	0.00e+00	0	40	0	902823936	50	6224
2026-01-04 13:19:00.19	118.45	25.26	-38.8	-39.7	22.8	0.00e+00	0	40	0	903872512	50	6233
2026-01-04 13:19:01.20	118.72	25.19	-39.0	-40.0	22.7	0.00e+00	0	40	0	905969664	50	6416
2026-01-04 13:19:02.22	118.98	25.11	-38.9	-39.9	22.7	0.00e+00	0	40	0	908066816	50	6342
2026-01-04 13:19:03.22	119.24	25.04	-39.2	-40.2	22.6	0.00e+00	0	40	0	910163968	50	6582
2026-01-04 13:19:04.23	119.51	24.96	-38.8	-39.8	22.8	0.00e+00	0	40	0	912261120	50	6292
2026-01-04 13:19:05.24	119.77	24.89	-38.9	-39.9	22.7	0.00e+00	0	40	0	913309696	50	6349
2026-01-04 13:19:06.25	120.03	24.81	-39.1	-40.1	22.6	0.00e+00	0	40	0	915406848	50	6487
2026-01-04 13:19:07.26	120.29	24.74	-38.9	-39.9	22.7	0.00e+00	0	40	0	917504000	50	6365
2026-01-04 13:19:08.27	120.54	24.66	-39.2	-40.2	22.4	0.00e+00	0	40	0	919601152	50	6612
2026-01-04 13:19:09.28	120.80	24.58	-39.3	-40.3	22.4	0.00e+00	0	40	0	921698304	50	6660
2026-01-04 13:19:10.28	121.05	24.50	-39.1	-40.1	22.5	0.00e+00	0	40	0	922746880	50	6539
2026-01-04 13:19:11.29	121.31	24.43	-38.6	-39.6	23.1	0.00e+00	0	40	0	924844032	50	6108
2026-01-04 13:19:12.30	121.56	24.35	-37.6	-38.5	23.9	0.00e+00	0	40	0	926941184	48	6058
2026-01-04 13:19:13.31	121.81	24.27	-37.4	-38.2	24.0	0.00e+00	0	40	0	929038336	48	5876
2026-01-04 13:19:14.32	122.06	24.19	-37.4	-38.2	24.1	0.00e+00	0	40	0	931135488	48	5876
2026-01-04 13:19:15.33	122.31	24.11	-37.4	-38.3	23.9	0.00e+00	0	40	0	932184064	48	5898
2026-01-04 13:19:16.34	122.56	24.03	-38.4	-39.3	23.1	0.00e+00	0	40	0	934281216	48	6656
2026-01-04 13:19:17.35	122.81	23.95	-38.9	-39.9	22.8	0.00e+00	0	40	0	936378368	50	6390
2026-01-04 13:19:18.36	123.05	23.87	-39.0	-40.0	22.7	0.00e+00	0	40	0	938475520	50	6398
2026-01-04 13:19:19.37	123.29	23.79	-38.7	-39.6	23.0	0.00e+00	0	40	0	940572672	50	6145
2026-01-04 13:19:20.38	123.54	23.71	-38.1	-39.0	23.5	0.00e+00	0	40	0	942669824	50	5712
2026-01-04 13:19:21.39	123.78	23.63	-37.9	-38.8	23.6	0.00e+00	0	40	0	943718400	50	5587
2026-01-04 13:19:22.40	124.02	23.55	-38.2	-39.1	23.3	0.00e+00	0	40	0	945815552	50	5792
2026-01-04 13:19:23.41	124.26	23.47	-38.8	-39.8	22.9	0.00e+00	0	40	0	947912704	50	6261
2026-01-04 13:19:24.42	124.50	23.39	-38.7	-39.7	22.8	0.00e+00	0	40	0	950009856	50	6190
2026-01-04 13:19:25.43	124.73	23.30	-38.8	-39.8	22.7	0.00e+00	0	40	0	952107008	50	6277
2026-01-04 13:19:26.44	124.97	23.22	-38.5	-39.4	23.1	0.00e+00	0	40	0	953155584	50	5988
2026-01-04 13:19:27.45	125.20	23.14	-38.0	-38.9	23.5	0.00e+00	0	40	0	955252736	50	5688
2026-01-04 13:19:28.46	125.44	23.06	-37.8	-38.7	23.6	0.00e+00	0	40	0	957349888	48	6210
2026-01-04 13:19:29.47	125.67	22.97	-37.6	-38.5	23.8	0.00e+00	0	40	0	959447040	48	6047
2026-01-04 13:19:30.48	125.90	22.89	-38.1	-39.0	23.3	0.00e+00	0	40	0	960495616	48	6454
2026-01-04 13:19:31.48	126.13	22.81	-39.1	-40.1	22.6	0.00e+00	0	40	0	962592768	50	6480
2026-01-04 13:19:32.49	126.36	22.72	-39.9	-41.0	21.8	0.00e+00	0	40	0	964689920	50	7216
2026-01-04 13:19:33.50	126.58	22.64	-40.1	-41.3	21.5	0.00e+00	0	40	0	966787072	52	6671
2026-01-04 13:19:34.51	126.81	22.56	-39.9	-41.1	21.7	0.00e+00	0	40	0	968884224	52	6474
2026-01-04 13:19:35.52	127.03	22.47	-39.0	-40.0	22.6	0.00e+00	0	40	0	970981376	52	5706
2026-01-04 13:19:36.53	127.26	22.39	-38.1	-39.0	23.4	0.00e+00	0	40	0	972029952	50	5708
2026-01-04 13:19:37.54	127.48	22.30	-37.7	-38.6	23.6	0.00e+00	0	40	0	974127104	48	6116
2026-01-04 13:19:38.55	127.70	22.22	-37.5	-38.4	23.8	0.00e+00	0	40	0	976224256	48	5996
2026-01-04 13:19:39.56	127.92	22.14	-37.7	-38.5	23.7	0.00e+00	0	40	0	978321408	48	6095
2026-01-04 13:19:40.57	128.14	22.05	-37.7	-38.6	23.6	0.00e+00	0	40	0	980418560	48	6158
2026-01-04 13:19:41.57	128.36	21.97	-37.6	-38.5	23.7	0.00e+00	0	40	0	981467136	48	6087
2026-01-04 13:19:42.58	128.57	21.88	-37.6	-38.4	23.7	0.00e+00	0	40	0	983564288	48	6033
2026-01-04 13:19:43.59	128.79	21.80	-37.6	-38.5	23.7	0.00e+00	0	40	0	985661440	48	6075
2026-01-04 13:19:44.60	129.00	21.71	-37.7	-38.6	23.7	0.00e+00	0	40	0	987758592	48	6111
2026-01-04 13:19:45.61	129.22	21.63	-38.4	-39.3	23.0	0.00e+00	0	40	0	989855744	48	6653
2026-01-04 13:19:46.62	129.43	21.54	-39.0	-40.1	22.5	0.00e+00	0	40	0	990904320	50	6467
2026-01-04 13:19:47.63	129.64	21.45	-40.1	-41.2	21.5	0.00e+00	0	40	0	993001472	52	6576
2026-01-04 13:19:48.64	129.85	21.37	-41.0	-42.4	20.5	0.00e+00	0	40	0	995098624	54	6725
2026-01-04 13:19:49.65	130.06	21.28	-41.5	-42.9	20.0	0.00e+00	0	40	0	997195776	54	7163
2026-01-04 13:19:50.66	130.27	21.20	-41.2	-42.5	20.5	0.00e+00	0	40	0	999292928	54	6807
2026-01-04 13:19:51.67	130.47	21.11	-40.6	-41.8	21.1	0.00e+00	0	40	0	1000341504	54	6311
2026-01-04 13:19:52.68	130.68	21.03	-40.1	-41.3	21.6	0.00e+00	0	40	0	1002438656	54	5920
2026-01-04 13:19:53.69	130.88	20.94	-39.9	-41.0	21.8	0.00e+00	0	40	0	1004535808	54	5733
2026-01-04 13:19:54.70	131.09	20.85	-39.3	-40.3	22.4	0.00e+00	0	40	0	1006632960	52	5933
2026-01-04 13:19:55.70	131.29	20.77	-38.9	-39.9	22.7	0.00e+00	0	40	0	1008730112	52	5672
2026-01-04 13:19:56.71	131.49	20.68	-38.8	-39.8	22.7	0.00e+00	0	40	0	1009778688	50	6279
2026-01-04 13:19:57.72	131.69	20.60	-38.7	-39.7	22.8	0.00e+00	0	40	0	1011875840	50	6234
2026-01-04 13:19:58.73	131.88	20.51	-38.7	-39.7	22.8	0.00e+00	0	40	0	1013972992	50	6196
2026-01-04 13:19:59.74	132.08	20.42	-38.3	-39.2	23.1	0.00e+00	0	40	0	1016070144	50	5863
2026-01-04 13:20:00.75	132.28	20.34	-37.8	-38.7	23.3	0.00e+00	0	40	0	1018167296	48	6188
2026-01-04 13:20:01.76	132.47	20.25	-37.5	-38.4	23.7	0.00e+00	0	40	0	1019215872	48	5993
2026-01-04 13:20:02.76	132.67	20.16	-37.4	-38.3	23.8	0.00e+00	0	40	0	1021313024	48	5903
2026-01-04 13:20:03.77	132.86	20.08	-37.7	-38.6	23.6	0.00e+00	0	40	0	1023410176	48	6153
2026-01-04 13:20:04.78	133.05	19.99	-37.9	-38.8	23.3	0.00e+00	0	40	0	1025507328	48	6303
2026-01-04 13:20:05.79	133.24	19.90	-38.2	-39.1	23.2	0.00e+00	0	40	0	1027604480	48	6492
2026-01-04 13:20:06.80	133.43	19.82	-38.6	-39.5	22.9	0.00e+00	0	40	0	1028653056	48	6833
2026-01-04 13:20:07.81	133.62	19.73	-38.6	-39.6	22.8	0.00e+00	0	40	0	1030750208	50	6160
2026-01-04 13:20:08.83	133.81	19.64	-38.8	-39.8	22.7	0.00e+00	0	40	0	1032847360	50	6268
2026-01-04 13:20:09.84	134.00	19.56	-38.6	-39.6	23.0	0.00e+00	0	40	0	1034944512	50	6118
2026-01-04 13:20:10.85	134.19	19.47	-38.4	-39.4	22.9	0.00e+00	0	40	0	1037041664	50	5995
2026-01-04 13:20:11.86	134.37	19.38	-38.4	-39.3	23.1	0.00e+00	0	40	0	1039138816	50	5959
2026-01-04 13:20:12.87	134.56	19.30	-38.5	-39.5	22.9	0.00e+00	0	40	0	1040187392	50	6050
2026-01-04 13:20:13.88	134.74	19.21	-38.8	-39.8	22.6	0.00e+00	0	40	0	1042284544	50	6283
2026-01-04 13:20:14.89	134.92	19.12	-39.3	-40.4	22.2	0.00e+00	0	40	0	1044381696	50	6694
2026-01-04 13:20:15.90	135.10	19.04	-39.4	-40.5	22.2	0.00e+00	0	40	0	1046478848	50	6803
2026-01-04 13:20:16.91	135.28	18.95	-39.3	-40.4	22.2	0.00e+00	0	40	0	1048576000	50	6699
2026-01-04 13:20:17.92	135.46	18.87	-39.3	-40.4	22.2	0.00e+00	0	40	0	1049624576	50	6699
2026-01-04 13:20:18.93	135.64	18.78	-39.0	-40.0	22.5	0.00e+00	0	40	0	1051721728	50	6419
2026-01-04 13:20:19.94	135.82	18.69	-38.1	-39.0	23.3	0.00e+00	0	40	0	1053818880	50	5731
2026-01-04 13:20:20.95	135.99	18.61	-37.6	-38.4	23.7	0.00e+00	0	40	0	1055916032	48	6026
2026-01-04 13:20:21.96	136.17	18.52	-37.4	-38.3	23.8	0.00e+00	0	40	0	1058013184	48	5943
2026-01-04 13:20:22.97	136.34	18.43	-37.5	-38.4	23.7	0.00e+00	0	40	0	1059061760	48	5996
2026-01-04 13:20:23.98	136.52	18.35	-37.5	-38.3	23.9	0.00e+00	0	40	0	1061158912	48	5940
2026-01-04 13:20:24.99	136.69	18.26	-37.6	-38.4	23.6	0.00e+00	0	40	0	1063256064	48	6015
2026-01-04 13:20:26.00	136.86	18.18	-37.4	-38.3	24.0	0.00e+00	0	40	0	1065353216	48	5900
2026-01-04 13:20:27.00	137.03	18.09	-37.4	-38.3	23.8	0.00e+00	0	40	0	1067450368	48	5906
2026-01-04 13:20:28.01	137.20	18.00	-37.4	-38.3	23.9	0.00e+00	0	40	0	1068498944	48	5920
2026-01-04 13:20:29.02	137.37	17.92	-37.4	-38.3	23.8	0.00e+00	0	40	0	1070596096	48	5903
2026-01-04 13:20:30.03	137.53	17.83	-37.2	-38.1	24.0	0.00e+00	0	40	0	1072693248	48	5792
2026-01-04 13:20:31.04	137.70	17.75	-37.3	-38.1	23.9	0.00e+00	0	40	0	1074790400	48	5826
2026-01-04 13:20:32.05	137.87	17.66	-37.4	-38.2	23.8	0.00e+00	0	40	0	1076887552	48	5877
2026-01-04 13:20:33.06	138.03	17.58	-37.4	-38.2	23.8	0.00e+00	0	40	0	1077936128	48	5885
2026-01-04 13:20:34.07	138.19	17.49	-37.4	-38.3	23.8	0.00e+00	0	40	0	1080033280	48	5936
2026-01-04 13:20:35.08	138.36	17.40	-37.7	-38.6	23.5	0.00e+00	0	40	0	1082130432	48	6110
2026-01-04 13:20:36.09	138.52	17.32	-37.7	-38.6	23.4	0.00e+00	0	40	0	1084227584	48	6149
2026-01-04 13:20:37.10	138.68	17.23	-37.8	-38.7	23.1	0.00e+00	0	40	0	1086324736	48	6191
2026-01-04 13:20:38.11	138.84	17.15	-37.8	-38.7	23.1	0.00e+00	0	40	0	1087373312	48	6207
2026-01-04 13:20:39.12	139.00	17.06	-38.0	-38.9	23.3	0.00e+00	0	40	0	1089470464	48	6389
2026-01-04 13:20:40.13	139.16	16.98	-38.2	-39.2	23.1	0.00e+00	0	40	0	1091567616	48	6558
2026-01-04 13:20:41.14	139.32	16.89	-37.9	-38.8	23.3	0.00e+00	0	40	0	1093664768	48	6290
2026-01-04 13:20:42.15	139.47	16.81	-38.0	-38.9	22.9	0.00e+00	0	40	0	1095761920	48	6375
2026-01-04 13:20:43.16	139.63	16.72	-37.8	-38.7	23.3	0.00e+00	0	40	0	1096810496	48	6233
2026-01-04 13:20:44.17	139.79	16.64	-37.5	-38.4	23.5	0.00e+00	0	40	0	1098907648	48	5999
2026-01-04 13:20:45.17	139.94	16.56	-37.6	-38.4	23.6	0.00e+00	0	40	0	1101004800	48	6029
2026-01-04 13:20:46.18	140.09	16.47	-37.3	-38.2	23.9	0.00e+00	0	40	0	1103101952	48	5841
2026-01-04 13:20:47.19	140.25	16.39	-37.3	-38.2	23.8	0.00e+00	0	40	0	1105199104	48	5868
2026-01-04 13:20:48.20	140.40	16.30	-37.3	-38.1	23.9	0.00e+00	0	40	0	1107296256	48	5812
2026-01-04 13:20:49.21	140.55	16.22	-37.4	-38.3	23.7	0.00e+00	0	40	0	1108344832	48	5921
2026-01-04 13:20:50.21	140.70	16.13	-37.6	-38.4	23.6	0.00e+00	0	40	0	1110441984	48	6024
2026-01-04 13:20:51.22	140.85	16.05	-37.7	-38.6	23.6	0.00e+00	0	40	0	1112539136	48	6134
2026-01-04 13:20:52.23	141.00	15.97	-37.8	-38.8	23.4	0.00e+00	0	40	0	1114636288	48	6256
2026-01-04 13:20:53.24	141.14	15.88	-37.9	-38.8	23.4	0.00e+00	0	40	0	1116733440	48	6264
2026-01-04 13:20:54.25	141.29	15.80	-37.9	-38.8	23.3	0.00e+00	0	40	0	1117782016	48	6293
2026-01-04 13:20:55.26	141.44	15.72	-37.9	-38.8	23.4	0.00e+00	0	40	0	1119879168	48	6258
2026-01-04 13:20:56.27	141.58	15.63	-37.7	-38.6	23.6	0.00e+00	0	40	0	1121976320	48	6119
2026-01-04 13:20:57.28	141.73	15.55	-37.5	-38.4	23.6	0.00e+00	0	40	0	1124073472	48	6002
2026-01-04 13:20:58.29	141.87	15.47	-37.6	-38.5	23.6	0.00e+00	0	40	0	1126170624	48	6071
2026-01-04 13:20:59.30	142.01	15.38	-37.7	-38.5	23.5	0.00e+00	0	40	0	1127219200	48	6092
2026-01-04 13:21:00.31	142.16	15.30	-37.6	-38.5	23.5	0.00e+00	0	40	0	1129316352	48	6058
2026-01-04 13:21:01.31	142.30	15.22	-38.0	-38.9	23.1	0.00e+00	0	40	0	1131413504	48	6334
2026-01-04 13:21:02.32	142.44	15.14	-38.1	-39.1	23.1	0.00e+00	0	40	0	1133510656	48	6472
2026-01-04 13:21:03.33	142.58	15.05	-38.4	-39.4	22.9	0.00e+00	0	40	0	1135607808	48	6697
2026-01-04 13:21:04.34	142.72	14.97	-38.9	-39.9	22.4	0.00e+00	0	40	0	1136656384	50	6327
2026-01-04 13:21:05.35	142.86	14.89	-39.0	-40.1	22.2	0.00e+00	0	40	0	1138753536	50	6476
2026-01-04 13:21:06.36	142.99	14.81	-39.2	-40.3	22.2	0.00e+00	0	40	0	1140850688	50	6625
2026-01-04 13:21:07.38	143.13	14.72	-39.3	-40.4	22.0	0.00e+00	0	40	0	1142947840	50	6743
2026-01-04 13:21:08.39	143.27	14.64	-39.0	-40.0	22.2	0.00e+00	0	40	0	1145044992	50	6452
2026-01-04 13:21:09.39	143.40	14.56	-39.2	-40.3	22.0	0.00e+00	0	40	0	1146093568	50	6623
2026-01-04 13:21:10.40	143.54	14.48	-39.0	-40.0	22.3	0.00e+00	0	40	0	1148190720	50	6443
2026-01-04 13:21:11.41	143.67	14.40	-38.8	-39.8	22.5	0.00e+00	0	40	0	1150287872	50	6270
2026-01-04 13:21:12.42	143.81	14.32	-39.0	-40.0	22.3	0.00e+00	0	40	0	1152385024	50	6417
2026-01-04 13:21:13.43	143.94	14.23	-38.5	-39.4	22.8	0.00e+00	0	40	0	1154482176	50	6016
2026-01-04 13:21:14.44	144.07	14.15	-38.4	-39.4	22.8	0.00e+00	0	40	0	1155530752	50	5973
2026-01-04 13:21:15.45	144.20	14.07	-38.6	-39.6	22.6	0.00e+00	0	40	0	1157627904	50	6150
2026-01-04 13:21:16.46	144.33	13.99	-38.9	-39.9	22.5	0.00e+00	0	40	0	1159725056	50	6383
2026-01-04 13:21:17.47	144.46	13.91	-39.1	-40.2	22.2	0.00e+00	0	40	0	1161822208	50	6564
2026-01-04 13:21:18.48	144.59	13.83	-39.4	-40.5	21.9	0.00e+00	0	40	0	1163919360	50	6787
2026-01-04 13:21:19.49	144.72	13.75	-39.5	-40.6	21.8	0.00e+00	0	40	0	1164967936	50	6877
2026-01-04 13:21:20.49	144.85	13.67	-40.0	-41.2	21.3	0.00e+00	0	40	0	1167065088	52	6592
2026-01-04 13:21:21.50	144.98	13.59	-40.2	-41.4	21.1	0.00e+00	0	40	0	1169162240	52	6741
2026-01-04 13:21:22.51	145.10	13.51	-40.5	-41.7	20.9	0.00e+00	0	40	0	1171259392	52	6962
2026-01-04 13:21:23.52	145.23	13.43	-40.7	-42.0	20.6	0.00e+00	0	40	0	1173356544	54	6452
2026-01-04 13:21:24.53	145.35	13.35	-40.6	-41.9	20.8	0.00e+00	0	40	0	1174405120	54	6345
2026-01-04 13:21:25.54	145.48	13.27	-40.8	-42.1	20.6	0.00e+00	0	40	0	1176502272	54	6465
2026-01-04 13:21:26.55	145.60	13.19	-40.6	-41.9	20.8	0.00e+00	0	40	0	1178599424	54	6353
2026-01-04 13:21:27.56	145.73	13.11	-40.5	-41.7	20.9	0.00e+00	0	40	0	1180696576	54	6207
2026-01-04 13:21:28.57	145.85	13.03	-40.5	-41.8	20.8	0.00e+00	0	40	0	1182793728	54	6268
2026-01-04 13:21:29.58	145.97	12.95	-40.3	-41.6	21.0	0.00e+00	0	40	0	1183842304	54	6113
2026-01-04 13:21:30.59	146.09	12.87	-40.4	-41.7	21.0	0.00e+00	0	40	0	1185939456	54	6187
2026-01-04 13:21:31.60	146.21	12.79	-40.1	-41.3	21.3	0.00e+00	0	40	0	1188036608	54	5908
2026-01-04 13:21:32.60	146.33	12.72	-39.9	-41.0	21.4	0.00e+00	0	40	0	1190133760	54	5751
2026-01-04 13:21:33.61	146.45	12.64	-40.1	-41.3	21.3	0.00e+00	0	40	0	1192230912	54	5942
2026-01-04 13:21:34.62	146.57	12.56	-39.9	-41.0	21.5	0.00e+00	0	40	0	1193279488	54	5736
2026-01-04 13:21:35.63	146.69	12.48	-39.9	-41.0	21.4	0.00e+00	0	40	0	1195376640	54	5759
2026-01-04 13:21:36.64	146.81	12.40	-39.8	-41.0	21.6	0.00e+00	0	40	0	1197473792	54	5701
2026-01-04 13:21:37.65	146.93	12.33	-39.9	-41.1	21.5	0.00e+00	0	40	0	1199570944	52	6482
2026-01-04 13:21:38.65	147.04	12.25	-39.9	-41.1	21.6	0.00e+00	0	40	0	1201668096	52	6474
2026-01-04 13:21:39.66	147.16	12.17	-39.3	-40.4	22.1	0.00e+00	0	40	0	1203765248	52	5975
2026-01-04 13:21:40.67	147.27	12.09	-39.3	-40.3	22.1	0.00e+00	0	40	0	1204813824	52	5958
2026-01-04 13:21:41.68	147.39	12.02	-39.5	-40.6	21.9	0.00e+00	0	40	0	1206910976	52	6121
2026-01-04 13:21:42.69	147.50	11.94	-39.0	-40.0	22.4	0.00e+00	0	40	0	1209008128	52	5737
2026-01-04 13:21:43.70	147.62	11.86	-39.1	-40.1	22.3	0.00e+00	0	40	0	1211105280	52	5792
2026-01-04 13:21:44.71	147.73	11.78	-38.9	-39.9	22.6	0.00e+00	0	40	0	1213202432	52	5639
2026-01-04 13:21:45.72	147.84	11.71	-38.6	-39.6	22.7	0.00e+00	0	40	0	1214251008	50	6145
2026-01-04 13:21:46.73	147.95	11.63	-38.8	-39.7	22.5	0.00e+00	0	40	0	1216348160	50	6243
2026-01-04 13:21:47.74	148.07	11.55	-38.8	-39.8	22.6	0.00e+00	0	40	0	1218445312	50	6265
2026-01-04 13:21:48.74	148.18	11.48	-38.9	-39.8	22.5	0.00e+00	0	40	0	1220542464	50	6313
