passes_logs/2026/01/04/R4.6S_Anadyr/R4.6S_Anadyr__20260104_183107_NOAA_20_JPSS-1_rec.log

#Pass ID: 20260104_183107_NOAA 20 (JPSS-1)
#Satellite: NOAA 20 (JPSS-1)
#Configuration: NOAA 20
#almurnet v.1.7.20251203
#Start time: 2026-01-04 18:31:10

#Version: 2.2.20231116
#Station: R4.6S_Anadyr
#Location: 177.4865 lon 64.73178 lat
#TLE: 1 43013U 17073A   26003.41800368  .00000169  00000+0  10117-3 0  9998
#TLE: 2 43013  98.7624 304.4804 0001884  56.1176 304.0179 14.19532918421092

#Time	Az	El	Level	Level2	SNR	BER	BlckErr	Temp	State	Recorded	gain1	gain2
2026-01-04 18:31:10.64	41.38	0.16	-50.2	-64.0	3.3	1.54e+00	0	29	0	0	60	57289
2026-01-04 18:31:11.65	41.31	0.21	-49.7	-65.0	3.6	1.51e+00	0	30	104	0	60	64017
2026-01-04 18:31:12.66	41.24	0.26	-49.1	-64.2	3.6	1.51e+00	0	30	104	0	60	58923
2026-01-04 18:31:13.67	41.16	0.31	-49.0	-64.2	3.6	1.51e+00	0	30	104	0	60	58360
2026-01-04 18:31:14.68	41.09	0.36	-49.5	-64.7	3.6	1.51e+00	0	30	104	0	60	61770
2026-01-04 18:31:15.69	41.01	0.41	-49.0	-64.2	3.6	1.51e+00	0	30	104	0	60	58439
2026-01-04 18:31:16.70	40.94	0.46	-48.9	-64.1	3.6	1.51e+00	0	30	104	0	60	57973
2026-01-04 18:31:17.71	40.87	0.51	-49.2	-64.4	3.6	1.51e+00	0	30	104	0	60	60002
2026-01-04 18:31:18.72	40.79	0.56	-49.0	-64.2	3.6	1.51e+00	0	30	104	0	60	58701
2026-01-04 18:31:19.73	40.72	0.61	-48.8	-64.0	3.6	1.51e+00	0	30	104	0	60	57111
2026-01-04 18:31:20.74	40.64	0.66	-48.7	-63.9	3.6	1.51e+00	0	30	104	0	60	56827
2026-01-04 18:31:21.75	40.57	0.71	-48.8	-64.0	3.6	1.51e+00	0	30	104	0	60	57293
2026-01-04 18:31:22.76	40.49	0.76	-48.6	-63.8	3.6	1.51e+00	0	30	104	0	60	56205
2026-01-04 18:31:23.77	40.41	0.81	-48.4	-63.6	3.6	1.51e+00	0	30	104	0	60	54514
2026-01-04 18:31:24.78	40.34	0.86	-48.3	-63.5	3.6	1.51e+00	0	30	104	0	60	54020
2026-01-04 18:31:25.79	40.26	0.91	-48.2	-63.4	3.6	1.51e+00	0	30	104	0	60	53186
2026-01-04 18:31:26.80	40.19	0.97	-47.8	-63.0	3.6	1.51e+00	0	30	104	0	60	50837
2026-01-04 18:31:27.81	40.11	1.02	-47.3	-62.4	3.6	1.51e+00	0	30	104	0	60	47836
2026-01-04 18:31:28.82	40.03	1.07	-47.3	-62.3	3.6	1.51e+00	0	30	104	0	60	47338
2026-01-04 18:31:29.83	39.95	1.12	-47.3	-62.4	3.5	1.51e+00	0	30	104	0	60	47882
2026-01-04 18:31:30.84	39.88	1.17	-47.3	-62.4	3.5	1.51e+00	0	30	104	0	60	47626
2026-01-04 18:31:31.85	39.80	1.22	-47.3	-62.5	3.6	1.51e+00	0	30	104	0	60	48054
2026-01-04 18:31:32.86	39.72	1.27	-47.3	-62.4	3.6	1.51e+00	0	30	104	0	60	47759
2026-01-04 18:31:33.86	39.64	1.32	-47.3	-62.4	3.6	1.51e+00	0	30	104	0	60	47887
2026-01-04 18:31:34.87	39.56	1.37	-47.3	-62.4	3.6	1.51e+00	0	30	104	0	60	47870
2026-01-04 18:31:35.88	39.48	1.42	-47.3	-62.4	3.6	1.51e+00	0	30	104	0	60	47769
2026-01-04 18:31:36.89	39.40	1.48	-47.3	-62.4	3.6	1.51e+00	0	30	104	0	60	47489
2026-01-04 18:31:37.90	39.32	1.53	-47.3	-62.4	3.6	1.51e+00	0	30	104	0	60	47524
2026-01-04 18:31:38.91	39.24	1.58	-47.3	-62.4	3.6	1.51e+00	0	30	104	0	60	47418
2026-01-04 18:31:39.93	39.16	1.63	-47.3	-62.3	3.6	1.51e+00	0	30	104	0	60	47318
2026-01-04 18:31:40.93	39.08	1.68	-47.3	-62.5	3.6	1.51e+00	0	30	104	0	60	47932
2026-01-04 18:31:41.94	39.00	1.73	-47.3	-62.4	3.6	1.51e+00	0	30	104	0	60	47818
2026-01-04 18:31:42.95	38.92	1.78	-47.3	-62.4	3.6	1.51e+00	0	30	104	0	60	47760
2026-01-04 18:31:43.96	38.84	1.83	-47.3	-62.4	3.6	1.51e+00	0	30	104	0	60	47476
2026-01-04 18:31:44.97	38.76	1.89	-47.3	-62.4	3.6	1.51e+00	0	30	104	0	60	47848
2026-01-04 18:31:45.98	38.67	1.94	-47.3	-62.3	3.6	1.51e+00	0	30	104	0	60	47049
2026-01-04 18:31:47.00	38.59	1.99	-47.3	-62.2	3.6	1.51e+00	0	30	104	0	60	46768
2026-01-04 18:31:48.01	38.51	2.04	-47.3	-62.2	3.6	1.51e+00	0	30	104	0	60	46605
2026-01-04 18:31:49.02	38.43	2.09	-47.3	-62.2	3.6	1.51e+00	0	30	104	0	60	46307
2026-01-04 18:31:50.02	38.34	2.14	-47.3	-62.2	3.6	1.51e+00	0	30	104	0	60	46780
2026-01-04 18:31:51.03	38.26	2.20	-47.3	-62.3	3.6	1.51e+00	0	30	104	0	60	47068
2026-01-04 18:31:52.05	38.17	2.25	-47.3	-62.4	3.6	1.51e+00	0	30	104	0	60	47741
2026-01-04 18:31:53.06	38.09	2.30	-47.3	-62.5	3.6	1.51e+00	0	30	104	0	60	48160
2026-01-04 18:31:54.07	38.01	2.35	-47.3	-62.3	3.6	1.51e+00	0	30	104	0	60	47182
2026-01-04 18:31:55.08	37.92	2.40	-47.3	-62.3	3.6	1.51e+00	0	30	104	0	60	47209
2026-01-04 18:31:56.09	37.83	2.46	-47.3	-62.4	3.6	1.51e+00	0	30	104	0	60	47714
2026-01-04 18:31:57.10	37.75	2.51	-47.3	-62.5	3.6	1.51e+00	0	30	104	0	60	47944
2026-01-04 18:31:58.11	37.66	2.56	-47.3	-62.0	3.6	1.51e+00	0	30	104	0	60	45585
2026-01-04 18:31:59.12	37.58	2.61	-47.3	-61.9	3.5	1.51e+00	0	30	104	0	60	44741
2026-01-04 18:32:00.13	37.49	2.66	-47.3	-61.6	3.6	1.51e+00	0	30	104	0	60	43604
2026-01-04 18:32:01.14	37.40	2.72	-47.2	-61.5	3.6	1.51e+00	0	30	104	0	60	43200
2026-01-04 18:32:02.15	37.32	2.77	-47.3	-62.3	3.6	1.51e+00	0	30	104	0	60	47066
2026-01-04 18:32:03.16	37.23	2.82	-47.3	-61.2	3.6	1.51e+00	0	30	104	0	60	41577
2026-01-04 18:32:04.17	37.14	2.87	-47.3	-61.1	3.6	1.50e+00	0	30	104	0	60	40881
2026-01-04 18:32:05.18	37.05	2.92	-46.6	-53.4	6.7	7.57e-01	5	30	0	0	60	16836
2026-01-04 18:32:06.19	36.97	2.98	-46.7	-54.1	7.1	1.13e-01	92	30	0	2097152	60	18381
2026-01-04 18:32:07.20	36.88	3.03	-46.7	-53.8	7.6	3.37e-01	7	30	0	4194304	60	17608
2026-01-04 18:32:08.21	36.79	3.08	-47.5	-62.6	3.6	1.52e+00	0	30	104	5242880	60	48818
2026-01-04 18:32:09.22	36.70	3.13	-43.3	-45.9	15.4	5.94e-01	9	30	104	5242880	60	7096
2026-01-04 18:32:10.23	36.61	3.19	-47.2	-61.8	3.6	1.43e+00	0	30	104	5242880	60	44627
2026-01-04 18:32:11.24	36.52	3.24	-47.0	-56.1	4.7	1.50e+00	0	30	104	5242880	60	23072
2026-01-04 18:32:12.25	36.43	3.29	-44.7	-48.3	13.8	1.98e-05	0	30	104	5242880	60	9377
2026-01-04 18:32:13.26	36.34	3.34	-43.2	-45.5	16.3	0.00e+00	92	30	0	6291456	60	6832
2026-01-04 18:32:14.26	36.25	3.40	-43.3	-45.7	15.8	0.00e+00	0	30	0	8388608	60	6989
2026-01-04 18:32:15.27	36.16	3.45	-43.1	-45.4	16.0	0.00e+00	0	30	0	10485760	60	6723
2026-01-04 18:32:16.28	36.06	3.50	-43.4	-45.9	16.0	0.00e+00	0	30	0	11534336	60	7093
2026-01-04 18:32:17.29	35.97	3.55	-42.8	-44.9	16.6	0.00e+00	2	30	0	13631488	60	6364
2026-01-04 18:32:18.29	35.88	3.61	-42.5	-44.5	17.3	0.00e+00	0	30	0	15728640	58	6794
2026-01-04 18:32:19.30	35.79	3.66	-42.6	-44.7	17.1	0.00e+00	0	30	0	17825792	58	6959
2026-01-04 18:32:20.31	35.69	3.71	-42.3	-44.2	17.5	0.00e+00	92	30	0	19922944	58	6568
2026-01-04 18:32:21.32	35.60	3.76	-42.7	-44.7	17.0	0.00e+00	72	30	0	20971520	58	6972
2026-01-04 18:32:22.33	35.51	3.82	-42.4	-44.4	17.3	0.00e+00	90	30	0	23068672	58	6758
2026-01-04 18:32:23.34	35.41	3.87	-42.9	-45.1	16.6	0.00e+00	72	30	0	25165824	58	7331
2026-01-04 18:32:24.35	35.32	3.92	-42.4	-44.4	17.1	0.00e+00	72	30	0	27262976	58	6742
2026-01-04 18:32:25.36	35.22	3.98	-42.7	-44.8	17.2	0.00e+00	0	30	0	29360128	58	7044
2026-01-04 18:32:26.36	35.13	4.03	-42.2	-44.1	17.7	0.00e+00	2	30	0	30408704	58	6511
2026-01-04 18:32:27.37	35.03	4.08	-42.2	-44.1	17.6	0.00e+00	91	30	0	32505856	58	6501
2026-01-04 18:32:28.38	34.94	4.13	-42.0	-43.9	17.9	0.00e+00	9	30	0	34603008	58	6332
2026-01-04 18:32:29.39	34.84	4.19	-42.5	-44.5	17.3	0.00e+00	92	30	0	36700160	58	6833
2026-01-04 18:32:30.40	34.74	4.24	-42.5	-44.4	17.5	0.00e+00	9	30	0	38797312	58	6758
2026-01-04 18:32:31.41	34.65	4.29	-42.3	-44.3	17.5	0.00e+00	11	30	0	40894464	58	6632
2026-01-04 18:32:32.42	34.55	4.35	-42.4	-44.3	17.7	0.00e+00	8	30	0	41943040	58	6643
2026-01-04 18:32:33.43	34.45	4.40	-42.2	-44.1	17.8	0.00e+00	5	30	0	44040192	58	6465
2026-01-04 18:32:34.43	34.35	4.45	-42.1	-43.9	18.1	0.00e+00	32	30	0	46137344	58	6379
2026-01-04 18:32:35.44	34.26	4.50	-42.4	-44.3	17.5	0.00e+00	5	30	0	48234496	58	6644
2026-01-04 18:32:36.45	34.16	4.56	-42.3	-44.1	17.4	0.00e+00	90	30	0	49283072	58	6534
2026-01-04 18:32:37.46	34.06	4.61	-42.2	-44.0	18.0	0.00e+00	5	30	0	51380224	58	6449
2026-01-04 18:32:38.47	33.96	4.66	-42.3	-44.2	17.7	0.00e+00	7	30	0	53477376	58	6550
2026-01-04 18:32:39.48	33.86	4.72	-42.1	-44.0	17.8	0.00e+00	0	30	0	55574528	58	6413
2026-01-04 18:32:40.48	33.76	4.77	-42.4	-44.3	17.8	0.00e+00	6	30	0	57671680	58	6679
2026-01-04 18:32:41.49	33.66	4.82	-41.8	-43.5	18.2	0.00e+00	6	30	0	58720256	58	6053
2026-01-04 18:32:42.50	33.56	4.88	-42.1	-43.9	18.0	0.00e+00	7	30	0	60817408	58	6319
2026-01-04 18:32:43.51	33.46	4.93	-42.3	-44.2	17.8	0.00e+00	92	30	0	62914560	58	6548
2026-01-04 18:32:44.52	33.35	4.98	-42.1	-43.8	18.1	0.00e+00	72	30	0	65011712	58	6300
2026-01-04 18:32:45.53	33.25	5.04	-42.0	-43.8	18.2	0.00e+00	92	30	0	67108864	58	6267
2026-01-04 18:32:46.54	33.15	5.09	-42.1	-43.9	18.1	0.00e+00	73	30	0	69206016	58	6335
2026-01-04 18:32:47.54	33.05	5.14	-42.4	-44.2	17.7	0.00e+00	0	30	0	70254592	58	6602
2026-01-04 18:32:48.55	32.94	5.20	-41.9	-43.6	18.4	0.00e+00	0	30	0	72351744	56	6879
2026-01-04 18:32:49.56	32.84	5.25	-42.2	-44.0	18.0	0.00e+00	0	30	0	74448896	56	7248
2026-01-04 18:32:50.57	32.73	5.30	-41.9	-43.6	18.3	0.00e+00	92	30	0	76546048	56	6906
2026-01-04 18:32:51.58	32.63	5.36	-42.1	-43.9	18.2	0.00e+00	71	30	0	78643200	56	7093
2026-01-04 18:32:52.59	32.53	5.41	-42.1	-43.9	18.3	0.00e+00	92	30	0	79691776	56	7095
2026-01-04 18:32:53.60	32.42	5.46	-42.3	-44.1	18.2	0.00e+00	73	30	0	81788928	56	7310
2026-01-04 18:32:54.60	32.32	5.52	-42.0	-43.7	18.4	0.00e+00	6	30	0	83886080	56	6990
2026-01-04 18:32:55.61	32.21	5.57	-42.0	-43.7	18.4	0.00e+00	5	31	0	85983232	56	7003
2026-01-04 18:32:56.62	32.10	5.62	-42.1	-43.9	18.1	0.00e+00	6	30	0	88080384	56	7099
2026-01-04 18:32:57.62	32.00	5.68	-41.9	-43.6	18.5	0.00e+00	6	30	0	89128960	56	6864
2026-01-04 18:32:58.63	31.89	5.73	-41.7	-43.3	18.9	0.00e+00	11	30	0	91226112	56	6667
2026-01-04 18:32:59.64	31.78	5.78	-41.9	-43.6	18.6	0.00e+00	92	30	0	93323264	56	6901
2026-01-04 18:33:00.65	31.67	5.84	-42.0	-43.7	18.4	0.00e+00	0	30	0	95420416	56	6975
2026-01-04 18:33:01.66	31.56	5.89	-41.8	-43.4	18.7	0.00e+00	30	30	0	97517568	56	6732
2026-01-04 18:33:02.67	31.45	5.94	-41.9	-43.6	18.6	0.00e+00	6	30	0	98566144	56	6915
2026-01-04 18:33:03.68	31.35	6.00	-41.7	-43.3	18.9	0.00e+00	0	30	0	100663296	56	6643
2026-01-04 18:33:04.69	31.24	6.05	-41.8	-43.4	19.0	0.00e+00	0	30	0	102760448	56	6730
2026-01-04 18:33:05.70	31.13	6.11	-41.8	-43.4	18.6	0.00e+00	8	30	0	104857600	56	6737
2026-01-04 18:33:06.71	31.01	6.16	-41.5	-43.1	19.1	0.00e+00	92	30	0	106954752	56	6488
2026-01-04 18:33:07.72	30.90	6.21	-41.6	-43.2	18.9	0.00e+00	74	30	0	108003328	56	6562
2026-01-04 18:33:08.73	30.79	6.27	-41.3	-42.8	19.2	0.00e+00	90	30	0	110100480	56	6308
2026-01-04 18:33:09.74	30.68	6.32	-41.5	-43.0	18.9	0.00e+00	74	30	0	112197632	56	6447
2026-01-04 18:33:10.75	30.57	6.37	-41.5	-43.1	19.0	0.00e+00	0	30	0	114294784	56	6469
2026-01-04 18:33:11.75	30.46	6.43	-41.4	-42.9	18.8	0.00e+00	71	30	0	116391936	56	6340
2026-01-04 18:33:12.76	30.34	6.48	-41.1	-42.5	19.2	0.00e+00	5	30	0	117440512	56	6078
2026-01-04 18:33:13.77	30.23	6.53	-41.3	-42.8	19.4	0.00e+00	86	30	0	119537664	56	6246
2026-01-04 18:33:14.78	30.11	6.59	-41.1	-42.5	19.5	0.00e+00	75	30	0	121634816	56	6100
2026-01-04 18:33:15.79	30.00	6.64	-41.4	-42.9	19.4	0.00e+00	92	30	0	123731968	56	6337
2026-01-04 18:33:16.80	29.88	6.70	-41.2	-42.7	19.4	0.00e+00	7	30	0	125829120	56	6242
2026-01-04 18:33:17.81	29.77	6.75	-41.7	-43.4	18.8	0.00e+00	19	30	0	126877696	56	6716
2026-01-04 18:33:18.82	29.65	6.80	-41.1	-42.6	19.6	0.00e+00	0	30	0	128974848	56	6138
2026-01-04 18:33:19.83	29.54	6.86	-41.2	-42.7	19.4	0.00e+00	9	30	0	131072000	56	6199
2026-01-04 18:33:20.84	29.42	6.91	-40.9	-42.3	19.7	0.00e+00	72	30	0	133169152	56	5920
2026-01-04 18:33:21.85	29.30	6.96	-41.1	-42.6	19.7	0.00e+00	0	30	0	135266304	56	6125
2026-01-04 18:33:22.86	29.19	7.02	-40.9	-42.3	19.7	0.00e+00	90	30	0	137363456	56	5962
2026-01-04 18:33:23.87	29.07	7.07	-40.9	-42.3	19.8	0.00e+00	0	30	0	138412032	56	5964
2026-01-04 18:33:24.87	28.95	7.13	-41.0	-42.4	19.8	0.00e+00	92	30	0	140509184	56	5987
2026-01-04 18:33:25.88	28.83	7.18	-40.5	-41.9	20.2	0.00e+00	0	31	0	142606336	54	6318
2026-01-04 18:33:26.89	28.71	7.23	-40.6	-41.9	20.1	0.00e+00	0	30	0	144703488	54	6379
2026-01-04 18:33:27.90	28.59	7.29	-40.6	-41.9	20.2	0.00e+00	0	31	0	145752064	54	6386
2026-01-04 18:33:28.91	28.47	7.34	-40.6	-42.0	20.1	0.00e+00	0	30	0	147849216	54	6399
2026-01-04 18:33:29.92	28.35	7.39	-40.6	-41.9	20.1	0.00e+00	92	30	0	149946368	54	6377
2026-01-04 18:33:30.93	28.23	7.45	-40.5	-41.8	20.2	0.00e+00	0	30	0	152043520	54	6305
2026-01-04 18:33:31.94	28.11	7.50	-40.6	-42.0	20.1	0.00e+00	91	30	0	154140672	54	6400
2026-01-04 18:33:32.95	27.98	7.55	-40.7	-42.1	19.9	0.00e+00	75	30	0	155189248	54	6481
2026-01-04 18:33:33.96	27.86	7.61	-40.7	-42.0	20.0	0.00e+00	6	30	0	157286400	54	6440
2026-01-04 18:33:34.97	27.74	7.66	-41.0	-42.3	19.9	0.00e+00	69	30	0	159383552	54	6689
2026-01-04 18:33:35.98	27.62	7.72	-40.8	-42.2	19.9	0.00e+00	13	30	0	161480704	54	6581
2026-01-04 18:33:36.99	27.49	7.77	-40.7	-42.1	20.1	0.00e+00	92	30	0	163577856	54	6486
2026-01-04 18:33:37.99	27.37	7.82	-40.8	-42.2	20.1	0.00e+00	12	30	0	165675008	54	6571
2026-01-04 18:33:39.00	27.24	7.88	-40.8	-42.2	19.9	0.00e+00	90	30	0	166723584	54	6585
2026-01-04 18:33:40.01	27.12	7.93	-40.7	-42.0	20.3	0.00e+00	13	30	0	168820736	54	6450
2026-01-04 18:33:41.02	26.99	7.98	-41.4	-42.9	19.6	0.00e+00	50	30	0	170917888	54	7106
2026-01-04 18:33:42.03	26.87	8.04	-41.0	-42.3	20.1	0.00e+00	12	30	0	173015040	54	6688
2026-01-04 18:33:43.04	26.74	8.09	-40.8	-42.1	20.2	0.00e+00	12	30	0	175112192	54	6517
2026-01-04 18:33:44.05	26.61	8.14	-40.8	-42.2	20.0	0.00e+00	0	30	0	176160768	54	6573
2026-01-04 18:33:45.06	26.48	8.20	-40.5	-41.8	20.4	0.00e+00	0	30	0	178257920	54	6255
2026-01-04 18:33:46.07	26.35	8.25	-40.6	-41.9	20.4	0.00e+00	92	30	0	180355072	54	6357
2026-01-04 18:33:47.08	26.23	8.30	-40.7	-42.0	20.3	0.00e+00	0	30	0	182452224	54	6417
2026-01-04 18:33:48.09	26.10	8.36	-40.4	-41.7	20.6	0.00e+00	19	30	0	184549376	54	6220
2026-01-04 18:33:49.10	25.97	8.41	-40.5	-41.7	20.4	0.00e+00	0	30	0	185597952	54	6240
2026-01-04 18:33:50.11	25.84	8.46	-40.4	-41.7	20.4	0.00e+00	0	30	0	187695104	54	6243
2026-01-04 18:33:51.12	25.71	8.52	-40.3	-41.6	20.6	0.00e+00	0	30	0	189792256	54	6155
2026-01-04 18:33:52.13	25.57	8.57	-40.3	-41.5	20.7	0.00e+00	0	30	0	191889408	54	6082
2026-01-04 18:33:53.13	25.44	8.62	-40.5	-41.8	20.4	0.00e+00	92	30	0	193986560	54	6261
2026-01-04 18:33:54.14	25.31	8.68	-40.5	-41.8	20.6	0.00e+00	0	31	0	195035136	54	6260
2026-01-04 18:33:55.15	25.18	8.73	-40.6	-41.9	20.3	0.00e+00	91	30	0	197132288	54	6374
2026-01-04 18:33:56.16	25.05	8.78	-40.5	-41.8	20.5	0.00e+00	75	31	0	199229440	54	6253
2026-01-04 18:33:57.17	24.91	8.84	-40.3	-41.6	20.6	0.00e+00	75	30	0	201326592	54	6113
2026-01-04 18:33:58.18	24.78	8.89	-40.5	-41.8	20.4	0.00e+00	75	30	0	203423744	54	6294
2026-01-04 18:33:59.19	24.64	8.94	-40.4	-41.6	20.6	0.00e+00	75	30	0	204472320	54	6155
2026-01-04 18:34:00.20	24.51	8.99	-40.2	-41.5	20.7	0.00e+00	75	30	0	206569472	54	6046
2026-01-04 18:34:01.21	24.37	9.05	-40.4	-41.7	20.6	0.00e+00	0	30	0	208666624	54	6223
2026-01-04 18:34:02.22	24.24	9.10	-40.5	-41.9	20.4	0.00e+00	91	30	0	210763776	54	6321
2026-01-04 18:34:03.23	24.10	9.15	-40.5	-41.8	20.4	0.00e+00	0	30	0	212860928	54	6251
2026-01-04 18:34:04.24	23.96	9.21	-40.3	-41.5	20.7	0.00e+00	72	30	0	213909504	54	6101
2026-01-04 18:34:05.25	23.82	9.26	-40.6	-41.9	20.2	0.00e+00	0	30	0	216006656	54	6322
2026-01-04 18:34:06.26	23.69	9.31	-40.7	-42.0	20.6	0.00e+00	0	30	0	218103808	54	6436
2026-01-04 18:34:07.27	23.55	9.36	-40.6	-41.9	20.3	0.00e+00	0	31	0	220200960	54	6318
2026-01-04 18:34:08.28	23.41	9.42	-40.4	-41.7	20.4	0.00e+00	0	30	0	222298112	54	6191
2026-01-04 18:34:09.29	23.27	9.47	-40.3	-41.6	20.8	0.00e+00	92	30	0	223346688	54	6139
2026-01-04 18:34:10.30	23.13	9.52	-40.4	-41.6	20.7	0.00e+00	0	30	0	225443840	54	6154
2026-01-04 18:34:11.31	22.99	9.57	-40.3	-41.6	20.8	0.00e+00	0	30	0	227540992	54	6144
2026-01-04 18:34:12.32	22.84	9.63	-40.6	-41.9	20.5	0.00e+00	68	30	0	229638144	54	6350
2026-01-04 18:34:13.33	22.70	9.68	-40.5	-41.8	20.4	0.00e+00	75	30	0	231735296	54	6279
2026-01-04 18:34:14.34	22.56	9.73	-40.6	-41.9	20.3	0.00e+00	0	30	0	233832448	54	6334
2026-01-04 18:34:15.35	22.42	9.78	-40.2	-41.5	20.6	0.00e+00	75	30	0	234881024	54	6052
2026-01-04 18:34:16.36	22.27	9.84	-40.5	-41.8	20.5	0.00e+00	90	30	0	236978176	54	6306
2026-01-04 18:34:17.37	22.13	9.89	-40.3	-41.6	20.7	0.00e+00	74	31	0	239075328	54	6114
2026-01-04 18:34:18.38	21.99	9.94	-40.5	-41.8	20.6	0.00e+00	43	31	0	241172480	54	6276
2026-01-04 18:34:19.39	21.84	9.99	-40.7	-42.0	20.8	0.00e+00	0	31	0	243269632	54	6432
2026-01-04 18:34:20.39	21.70	10.04	-40.4	-41.7	20.7	0.00e+00	75	30	0	244318208	54	6198
2026-01-04 18:34:21.41	21.55	10.09	-40.5	-41.7	20.6	0.00e+00	6	31	0	246415360	54	6244
2026-01-04 18:34:22.41	21.40	10.15	-40.4	-41.7	20.4	0.00e+00	7	31	0	248512512	54	6211
2026-01-04 18:34:23.42	21.26	10.20	-40.6	-41.9	20.6	0.00e+00	61	30	0	250609664	54	6352
2026-01-04 18:34:24.43	21.11	10.25	-40.4	-41.6	20.7	0.00e+00	7	30	0	252706816	54	6158
2026-01-04 18:34:25.44	20.96	10.30	-40.1	-41.4	21.0	0.00e+00	92	31	0	253755392	54	5968
2026-01-04 18:34:26.45	20.81	10.35	-40.2	-41.4	20.8	0.00e+00	5	30	0	255852544	54	5993
2026-01-04 18:34:27.46	20.66	10.40	-40.2	-41.4	20.8	0.00e+00	0	30	0	257949696	54	6032
2026-01-04 18:34:28.47	20.51	10.45	-40.3	-41.5	20.7	0.00e+00	6	30	0	260046848	54	6061
2026-01-04 18:34:29.48	20.36	10.51	-40.2	-41.5	20.8	0.00e+00	8	31	0	262144000	54	6059
2026-01-04 18:34:30.49	20.21	10.56	-40.3	-41.6	20.8	0.00e+00	0	31	0	263192576	54	6109
2026-01-04 18:34:31.50	20.06	10.61	-40.4	-41.7	20.7	0.00e+00	0	31	0	265289728	54	6187
2026-01-04 18:34:32.51	19.91	10.66	-40.1	-41.3	20.9	0.00e+00	92	30	0	267386880	54	5920
2026-01-04 18:34:33.52	19.76	10.71	-40.4	-41.7	20.8	0.00e+00	0	30	0	269484032	54	6192
2026-01-04 18:34:34.53	19.60	10.76	-40.3	-41.5	20.8	0.00e+00	69	31	0	271581184	54	6084
2026-01-04 18:34:35.54	19.45	10.81	-40.2	-41.4	21.1	0.00e+00	69	31	0	272629760	54	5967
2026-01-04 18:34:36.55	19.30	10.86	-40.0	-41.2	21.1	0.00e+00	23	31	0	274726912	54	5871
2026-01-04 18:34:37.56	19.14	10.91	-40.2	-41.4	21.0	0.00e+00	48	31	0	276824064	54	6014
2026-01-04 18:34:38.57	18.99	10.96	-40.1	-41.3	21.1	0.00e+00	69	30	0	278921216	54	5926
2026-01-04 18:34:39.58	18.83	11.01	-39.9	-41.1	21.2	0.00e+00	92	31	0	281018368	54	5815
2026-01-04 18:34:40.59	18.67	11.06	-39.9	-41.0	21.3	0.00e+00	69	31	0	282066944	54	5742
2026-01-04 18:34:41.61	18.52	11.11	-39.9	-41.0	21.2	0.00e+00	92	30	0	284164096	54	5758
2026-01-04 18:34:42.61	18.36	11.16	-39.7	-40.9	21.3	0.00e+00	23	30	0	286261248	52	6330
2026-01-04 18:34:43.62	18.20	11.21	-39.6	-40.8	21.5	0.00e+00	6	30	0	288358400	52	6251
2026-01-04 18:34:44.63	18.04	11.26	-39.5	-40.6	21.6	0.00e+00	11	30	0	290455552	52	6140
2026-01-04 18:34:45.65	17.88	11.31	-39.4	-40.5	21.7	0.00e+00	6	31	0	291504128	52	6081
2026-01-04 18:34:46.66	17.72	11.36	-39.4	-40.5	21.7	0.00e+00	92	31	0	293601280	52	6035
2026-01-04 18:34:47.67	17.56	11.41	-39.4	-40.4	21.7	0.00e+00	6	30	0	295698432	52	6030
2026-01-04 18:34:48.67	17.40	11.46	-40.1	-41.3	21.2	0.00e+00	92	30	0	297795584	52	6618
2026-01-04 18:34:49.68	17.24	11.51	-39.4	-40.5	21.7	0.00e+00	7	30	0	299892736	52	6098
2026-01-04 18:34:50.69	17.08	11.56	-39.4	-40.4	21.8	0.00e+00	6	30	0	301989888	52	6031
2026-01-04 18:34:51.70	16.92	11.61	-39.3	-40.3	21.8	0.00e+00	6	30	0	303038464	52	5957
2026-01-04 18:34:52.71	16.76	11.65	-39.2	-40.3	21.8	0.00e+00	76	30	0	305135616	52	5923
2026-01-04 18:34:53.72	16.59	11.70	-39.2	-40.3	21.7	0.00e+00	6	30	0	307232768	52	5907
2026-01-04 18:34:54.73	16.43	11.75	-39.3	-40.4	22.0	0.00e+00	0	30	0	309329920	52	5982
2026-01-04 18:34:55.74	16.26	11.80	-39.2	-40.3	21.8	0.00e+00	90	30	0	311427072	52	5950
2026-01-04 18:34:56.75	16.10	11.85	-39.2	-40.2	21.9	0.00e+00	0	30	0	312475648	52	5883
2026-01-04 18:34:57.75	15.93	11.90	-39.4	-40.5	21.7	0.00e+00	18	31	0	314572800	52	6036
2026-01-04 18:34:58.76	15.77	11.94	-39.5	-40.7	21.6	0.00e+00	6	31	0	316669952	52	6178
2026-01-04 18:34:59.78	15.60	11.99	-38.9	-40.0	22.1	0.00e+00	7	31	0	318767104	52	5718
2026-01-04 18:35:00.78	15.43	12.04	-39.1	-40.2	22.0	0.00e+00	63	31	0	320864256	52	5842
2026-01-04 18:35:01.79	15.27	12.09	-39.1	-40.2	22.1	0.00e+00	5	30	0	321912832	52	5838
2026-01-04 18:35:02.80	15.10	12.13	-39.2	-40.3	22.0	0.00e+00	92	30	0	324009984	52	5927
2026-01-04 18:35:03.81	14.93	12.18	-38.9	-40.0	22.2	0.00e+00	2	30	0	326107136	52	5726
2026-01-04 18:35:04.82	14.76	12.23	-39.0	-40.0	22.1	0.00e+00	90	30	0	328204288	52	5750
2026-01-04 18:35:05.83	14.59	12.27	-39.6	-40.7	21.8	0.00e+00	10	30	0	330301440	52	6221
2026-01-04 18:35:06.84	14.42	12.32	-38.9	-40.0	22.3	0.00e+00	9	30	0	331350016	52	5705
2026-01-04 18:35:07.85	14.25	12.37	-38.7	-39.7	22.5	0.00e+00	10	30	0	333447168	50	6190
2026-01-04 18:35:08.86	14.08	12.41	-38.6	-39.6	22.7	0.00e+00	0	30	0	335544320	50	6155
2026-01-04 18:35:09.87	13.90	12.46	-38.7	-39.8	22.4	0.00e+00	68	31	0	337641472	50	6260
2026-01-04 18:35:10.88	13.73	12.51	-39.2	-40.3	21.8	0.00e+00	0	30	0	339738624	50	6626
2026-01-04 18:35:11.89	13.56	12.55	-38.7	-39.7	22.5	0.00e+00	92	30	0	340787200	50	6191
2026-01-04 18:35:12.90	13.38	12.60	-38.9	-40.0	22.5	0.00e+00	0	31	0	342884352	50	6399
2026-01-04 18:35:13.91	13.21	12.64	-39.4	-40.5	21.7	0.00e+00	76	31	0	344981504	50	6814
2026-01-04 18:35:14.92	13.04	12.69	-38.2	-39.2	22.7	0.00e+00	5	30	0	347078656	50	5838
2026-01-04 18:35:15.93	12.86	12.73	-38.2	-39.1	22.3	0.00e+00	75	30	0	349175808	50	5798
2026-01-04 18:35:16.94	12.68	12.78	-38.3	-39.3	22.7	0.00e+00	0	31	0	350224384	50	5912
2026-01-04 18:35:17.92	12.51	12.82	-38.2	-39.1	23.1	0.00e+00	0	30	0	352321536	50	5824
2026-01-04 18:35:18.93	12.34	12.87	-38.0	-38.9	23.2	0.00e+00	90	30	0	354418688	50	5669
2026-01-04 18:35:19.94	12.16	12.91	-38.0	-38.9	23.3	0.00e+00	76	30	0	356515840	50	5650
2026-01-04 18:35:20.95	11.98	12.95	-37.9	-38.9	23.3	0.00e+00	90	30	0	358612992	50	5632
2026-01-04 18:35:21.96	11.80	13.00	-37.9	-38.8	23.3	0.00e+00	76	30	0	359661568	50	5598
2026-01-04 18:35:22.97	11.62	13.04	-37.9	-38.8	23.3	0.00e+00	3	30	0	361758720	50	5615
2026-01-04 18:35:23.98	11.44	13.09	-37.9	-38.8	23.3	0.00e+00	76	30	0	363855872	50	5605
2026-01-04 18:35:24.99	11.26	13.13	-38.0	-38.9	23.2	0.00e+00	2	30	0	365953024	50	5659
2026-01-04 18:35:26.00	11.08	13.17	-38.2	-39.2	23.1	0.00e+00	92	30	0	368050176	50	5861
2026-01-04 18:35:27.01	10.90	13.21	-38.2	-39.1	23.0	0.00e+00	2	30	0	370147328	50	5804
2026-01-04 18:35:28.02	10.72	13.26	-38.0	-39.0	23.1	0.00e+00	92	30	0	371195904	50	5706
2026-01-04 18:35:29.03	10.53	13.30	-38.1	-39.1	23.1	0.00e+00	4	30	0	373293056	50	5764
2026-01-04 18:35:30.04	10.35	13.34	-38.7	-39.7	22.4	0.00e+00	0	30	0	375390208	50	6205
2026-01-04 18:35:31.05	10.17	13.38	-38.6	-39.6	22.3	0.00e+00	0	31	0	377487360	50	6145
2026-01-04 18:35:32.06	9.98	13.43	-38.6	-39.6	22.5	0.00e+00	0	30	0	379584512	50	6168
2026-01-04 18:35:33.07	9.80	13.47	-38.6	-39.6	22.8	0.00e+00	79	30	0	380633088	50	6116
2026-01-04 18:35:34.08	9.61	13.51	-38.7	-39.6	22.7	0.00e+00	0	30	0	382730240	50	6173
2026-01-04 18:35:35.09	9.43	13.55	-38.5	-39.5	22.7	0.00e+00	91	30	0	384827392	50	6072
2026-01-04 18:35:36.10	9.24	13.59	-38.4	-39.4	22.8	0.00e+00	72	30	0	386924544	50	5984
2026-01-04 18:35:37.11	9.06	13.63	-38.4	-39.4	22.8	0.00e+00	31	30	0	389021696	50	5983
2026-01-04 18:35:38.12	8.87	13.67	-38.5	-39.5	22.8	0.00e+00	2	30	0	390070272	50	6042
2026-01-04 18:35:39.12	8.68	13.71	-38.7	-39.7	22.6	0.00e+00	0	30	0	392167424	50	6174
2026-01-04 18:35:40.14	8.49	13.75	-38.3	-39.3	22.8	0.00e+00	0	30	0	394264576	50	5915
2026-01-04 18:35:41.15	8.30	13.79	-38.4	-39.4	22.8	0.00e+00	10	31	0	396361728	50	6012
2026-01-04 18:35:42.16	8.11	13.83	-38.5	-39.5	22.7	0.00e+00	92	31	0	398458880	50	6069
2026-01-04 18:35:43.17	7.92	13.87	-38.4	-39.3	22.9	0.00e+00	5	30	0	399507456	50	5955
2026-01-04 18:35:44.18	7.73	13.91	-38.4	-39.3	22.9	0.00e+00	92	30	0	401604608	50	5947
2026-01-04 18:35:45.19	7.54	13.95	-38.2	-39.2	22.6	0.00e+00	5	30	0	403701760	50	5837
2026-01-04 18:35:46.20	7.35	13.99	-38.3	-39.2	22.9	0.00e+00	0	30	0	405798912	50	5885
2026-01-04 18:35:47.21	7.16	14.03	-38.3	-39.2	22.8	0.00e+00	0	30	0	407896064	50	5879
2026-01-04 18:35:48.22	6.97	14.06	-38.2	-39.2	22.9	0.00e+00	6	30	0	408944640	50	5858
2026-01-04 18:35:49.22	6.78	14.10	-38.3	-39.3	22.8	0.00e+00	92	30	0	411041792	50	5922
2026-01-04 18:35:50.24	6.58	14.14	-38.3	-39.3	23.0	0.00e+00	0	30	0	413138944	50	5924
2026-01-04 18:35:51.24	6.39	14.18	-38.3	-39.2	23.0	0.00e+00	90	31	0	415236096	50	5864
2026-01-04 18:35:52.25	6.20	14.21	-38.4	-39.3	23.2	0.00e+00	0	30	0	417333248	50	5953
2026-01-04 18:35:53.26	6.00	14.25	-38.3	-39.2	23.2	0.00e+00	0	30	0	418381824	50	5856
2026-01-04 18:35:54.27	5.81	14.29	-38.1	-39.1	23.2	0.00e+00	0	30	0	420478976	50	5771
2026-01-04 18:35:55.28	5.61	14.32	-38.4	-39.3	23.0	0.00e+00	0	31	0	422576128	50	5930
2026-01-04 18:35:56.29	5.41	14.36	-38.2	-39.1	23.1	0.00e+00	57	30	0	424673280	50	5813
2026-01-04 18:35:57.30	5.22	14.39	-38.0	-38.9	23.1	0.00e+00	0	30	0	426770432	50	5689
2026-01-04 18:35:58.31	5.02	14.43	-38.2	-39.2	23.1	0.00e+00	92	30	0	427819008	50	5856
2026-01-04 18:35:59.32	4.82	14.46	-38.0	-38.9	22.5	0.00e+00	73	30	0	429916160	50	5673
2026-01-04 18:36:00.33	4.62	14.50	-38.0	-39.0	23.1	0.00e+00	76	30	0	432013312	50	5707
2026-01-04 18:36:01.34	4.43	14.53	-37.9	-38.8	23.0	0.00e+00	6	30	0	434110464	50	5600
2026-01-04 18:36:02.34	4.23	14.57	-38.3	-39.3	22.9	0.00e+00	0	30	0	436207616	50	5898
2026-01-04 18:36:03.36	4.03	14.60	-38.2	-39.2	23.2	0.00e+00	0	31	0	438304768	50	5830
2026-01-04 18:36:04.36	3.83	14.63	-38.4	-39.3	23.0	0.00e+00	12	30	0	439353344	50	5938
2026-01-04 18:36:05.37	3.63	14.67	-38.5	-39.5	22.9	0.00e+00	92	31	0	441450496	50	6069
2026-01-04 18:36:06.38	3.43	14.70	-38.3	-39.2	23.2	0.00e+00	5	30	0	443547648	50	5875
2026-01-04 18:36:07.39	3.23	14.73	-38.2	-39.1	23.3	0.00e+00	92	31	0	445644800	50	5804
2026-01-04 18:36:08.40	3.02	14.76	-38.0	-39.0	23.2	0.00e+00	6	30	0	447741952	50	5703
2026-01-04 18:36:09.41	2.82	14.80	-38.0	-38.9	23.3	0.00e+00	7	31	0	448790528	50	5676
2026-01-04 18:36:10.42	2.62	14.83	-38.7	-39.8	22.4	0.00e+00	7	31	0	450887680	50	6246
2026-01-04 18:36:11.43	2.42	14.86	-38.2	-39.2	23.1	0.00e+00	4	30	0	452984832	50	5830
2026-01-04 18:36:12.44	2.21	14.89	-37.9	-38.8	23.2	0.00e+00	92	31	0	455081984	50	5616
2026-01-04 18:36:13.45	2.01	14.92	-38.4	-39.4	23.1	0.00e+00	5	30	0	457179136	50	5979
2026-01-04 18:36:14.46	1.80	14.95	-38.9	-39.9	22.6	0.00e+00	90	30	0	458227712	50	6372
2026-01-04 18:36:15.47	1.60	14.98	-38.6	-39.5	22.7	0.00e+00	6	30	0	460324864	50	6096
2026-01-04 18:36:16.48	1.39	15.01	-39.1	-40.1	22.5	0.00e+00	15	31	0	462422016	50	6483
2026-01-04 18:36:17.49	1.19	15.04	-38.2	-39.2	23.0	0.00e+00	5	31	0	464519168	50	5840
2026-01-04 18:36:18.50	0.98	15.07	-38.4	-39.4	23.1	0.00e+00	75	30	0	466616320	50	6011
2026-01-04 18:36:19.50	0.78	15.10	-38.4	-39.4	22.6	0.00e+00	73	30	0	467664896	50	5975
2026-01-04 18:36:20.51	0.57	15.13	-38.8	-39.8	22.6	0.00e+00	68	31	0	469762048	50	6314
2026-01-04 18:36:21.52	0.36	15.15	-38.4	-39.3	22.9	0.00e+00	91	31	0	471859200	50	5959
2026-01-04 18:36:22.53	0.16	15.18	-38.2	-39.2	23.2	0.00e+00	17	30	0	473956352	50	5849
2026-01-04 18:36:23.54	359.95	15.21	-37.9	-38.8	23.3	0.00e+00	91	31	0	476053504	50	5594
2026-01-04 18:36:24.55	359.74	15.23	-37.8	-38.7	23.2	0.00e+00	11	31	0	477102080	50	5560
2026-01-04 18:36:25.56	359.53	15.26	-37.9	-38.8	23.1	0.00e+00	6	30	0	479199232	48	6288
2026-01-04 18:36:26.57	359.32	15.29	-37.9	-38.9	23.3	0.00e+00	0	30	0	481296384	48	6325
2026-01-04 18:36:27.58	359.11	15.31	-38.1	-39.0	23.3	0.00e+00	13	30	0	483393536	48	6453
2026-01-04 18:36:28.59	358.90	15.34	-38.2	-39.1	23.1	0.00e+00	92	30	0	485490688	48	6531
2026-01-04 18:36:29.60	358.69	15.36	-39.3	-40.4	22.0	0.00e+00	15	30	0	486539264	50	6755
2026-01-04 18:36:30.61	358.48	15.39	-38.2	-39.2	23.2	0.00e+00	92	31	0	488636416	50	5840
2026-01-04 18:36:31.62	358.27	15.41	-37.9	-38.8	23.4	0.00e+00	7	30	0	490733568	50	5613
2026-01-04 18:36:32.63	358.06	15.44	-38.0	-38.9	23.3	0.00e+00	10	31	0	492830720	50	5685
2026-01-04 18:36:33.63	357.85	15.46	-38.1	-39.0	23.4	0.00e+00	7	31	0	494927872	50	5711
2026-01-04 18:36:34.64	357.64	15.48	-38.0	-38.9	23.3	0.00e+00	6	31	0	495976448	50	5646
2026-01-04 18:36:35.65	357.43	15.51	-38.3	-39.2	23.1	0.00e+00	92	31	0	498073600	50	5880
2026-01-04 18:36:36.67	357.21	15.53	-38.3	-39.3	23.0	0.00e+00	0	31	0	500170752	50	5932
2026-01-04 18:36:37.67	357.00	15.55	-38.2	-39.2	23.1	7.00e-07	92	30	0	502267904	50	5849
2026-01-04 18:36:38.68	356.79	15.57	-38.3	-39.2	23.1	0.00e+00	70	30	0	504365056	50	5884
2026-01-04 18:36:39.69	356.57	15.59	-38.5	-39.5	23.1	0.00e+00	0	30	0	506462208	50	6079
2026-01-04 18:36:40.70	356.36	15.61	-38.6	-39.6	22.8	0.00e+00	0	30	0	507510784	50	6124
2026-01-04 18:36:41.71	356.15	15.64	-38.7	-39.7	23.0	0.00e+00	0	30	0	509607936	50	6182
2026-01-04 18:36:42.72	355.93	15.66	-38.8	-39.8	22.4	0.00e+00	6	30	0	511705088	50	6307
2026-01-04 18:36:43.73	355.72	15.68	-39.0	-40.0	22.7	0.00e+00	5	30	0	513802240	50	6393
2026-01-04 18:36:44.74	355.50	15.69	-39.2	-40.3	22.3	0.00e+00	92	31	0	515899392	50	6632
2026-01-04 18:36:45.75	355.29	15.71	-38.8	-39.8	22.8	0.00e+00	9	30	0	516947968	50	6260
2026-01-04 18:36:46.76	355.07	15.73	-38.4	-39.4	22.9	0.00e+00	76	30	0	519045120	50	5981
2026-01-04 18:36:47.77	354.85	15.75	-38.4	-39.4	23.1	0.00e+00	75	30	0	521142272	50	5976
2026-01-04 18:36:48.78	354.64	15.77	-38.3	-39.2	23.0	7.00e-07	4	31	0	523239424	50	5866
2026-01-04 18:36:49.79	354.42	15.79	-38.3	-39.2	23.0	0.00e+00	0	30	0	525336576	50	5892
2026-01-04 18:36:50.80	354.21	15.80	-38.2	-39.2	23.2	0.00e+00	0	30	0	526385152	50	5838
2026-01-04 18:36:51.81	353.99	15.82	-38.2	-39.2	23.2	0.00e+00	92	30	0	528482304	50	5837
2026-01-04 18:36:52.82	353.77	15.84	-38.3	-39.3	23.1	0.00e+00	0	30	0	530579456	50	5903
2026-01-04 18:36:53.83	353.55	15.85	-38.3	-39.3	23.1	0.00e+00	92	30	0	532676608	50	5911
2026-01-04 18:36:54.83	353.34	15.87	-38.2	-39.1	23.3	7.00e-07	0	30	0	534773760	50	5772
2026-01-04 18:36:55.84	353.12	15.88	-38.3	-39.2	23.2	0.00e+00	0	31	0	535822336	50	5854
2026-01-04 18:36:56.85	352.90	15.90	-38.2	-39.2	23.2	0.00e+00	0	31	0	537919488	50	5838
2026-01-04 18:36:57.87	352.68	15.91	-38.3	-39.2	23.1	0.00e+00	0	31	0	540016640	50	5873
2026-01-04 18:36:58.87	352.47	15.92	-38.4	-39.3	23.0	0.00e+00	90	31	0	542113792	50	5915
2026-01-04 18:36:59.88	352.25	15.94	-38.3	-39.2	23.1	7.00e-07	77	31	0	544210944	50	5875
2026-01-04 18:37:00.89	352.03	15.95	-38.9	-39.9	22.8	0.00e+00	92	30	0	545259520	50	6322
2026-01-04 18:37:01.90	351.81	15.96	-38.6	-39.6	22.8	0.00e+00	71	30	0	547356672	50	6144
2026-01-04 18:37:02.91	351.59	15.98	-38.7	-39.7	22.9	0.00e+00	27	30	0	549453824	50	6202
2026-01-04 18:37:03.92	351.37	15.99	-38.8	-39.8	22.8	0.00e+00	0	30	0	551550976	50	6263
2026-01-04 18:37:04.93	351.15	16.00	-38.6	-39.5	22.9	0.00e+00	77	30	0	553648128	50	6088
2026-01-04 18:37:05.94	350.93	16.01	-38.5	-39.5	22.8	0.00e+00	92	30	0	554696704	50	6073
2026-01-04 18:37:06.95	350.71	16.02	-38.6	-39.6	22.7	0.00e+00	5	30	0	556793856	50	6104
2026-01-04 18:37:07.96	350.49	16.03	-38.4	-39.4	22.9	1.50e-06	92	31	0	558891008	50	5993
2026-01-04 18:37:08.97	350.27	16.04	-38.6	-39.6	22.8	0.00e+00	71	30	0	560988160	50	6107
2026-01-04 18:37:09.98	350.05	16.05	-38.8	-39.8	22.5	0.00e+00	92	30	0	563085312	50	6270
2026-01-04 18:37:10.98	349.83	16.06	-38.7	-39.7	22.7	0.00e+00	0	31	0	564133888	50	6180
2026-01-04 18:37:11.99	349.61	16.06	-38.9	-40.0	22.5	0.00e+00	2	30	0	566231040	50	6392
2026-01-04 18:37:13.00	349.39	16.07	-38.7	-39.7	22.6	0.00e+00	0	30	0	568328192	50	6231
2026-01-04 18:37:14.01	349.17	16.08	-39.1	-40.2	22.6	0.00e+00	0	30	0	570425344	50	6547
2026-01-04 18:37:15.02	348.95	16.09	-39.3	-40.3	21.8	0.00e+00	90	30	0	572522496	50	6691
2026-01-04 18:37:16.03	348.73	16.09	-39.6	-40.7	22.2	1.50e-06	0	30	0	574619648	52	6219
2026-01-04 18:37:17.04	348.51	16.10	-39.6	-40.6	22.2	0.00e+00	92	30	0	575668224	52	6164
2026-01-04 18:37:18.05	348.29	16.11	-38.7	-39.7	22.8	0.00e+00	0	30	0	577765376	50	6178
2026-01-04 18:37:19.06	348.07	16.11	-39.0	-40.0	22.7	0.00e+00	0	30	0	579862528	50	6437
2026-01-04 18:37:20.07	347.84	16.12	-39.0	-40.0	22.4	0.00e+00	0	30	0	581959680	50	6392
2026-01-04 18:37:21.08	347.62	16.12	-38.8	-39.8	22.7	0.00e+00	0	31	0	584056832	50	6257
2026-01-04 18:37:22.09	347.40	16.12	-38.8	-39.8	22.6	0.00e+00	92	31	0	585105408	50	6300
2026-01-04 18:37:23.10	347.18	16.13	-39.0	-40.0	22.5	0.00e+00	0	31	0	587202560	50	6441
2026-01-04 18:37:24.11	346.96	16.13	-39.1	-40.1	22.4	0.00e+00	92	30	0	589299712	50	6521
2026-01-04 18:37:25.12	346.74	16.13	-38.7	-39.6	22.9	0.00e+00	72	30	0	591396864	50	6151
2026-01-04 18:37:26.13	346.51	16.14	-38.3	-39.2	23.1	0.00e+00	42	30	0	592445440	50	5891
2026-01-04 18:37:27.14	346.29	16.14	-38.8	-39.8	23.1	0.00e+00	76	30	0	594542592	50	6251
2026-01-04 18:37:28.14	346.07	16.14	-38.7	-39.7	22.6	0.00e+00	10	30	0	596639744	50	6189
2026-01-04 18:37:29.15	345.85	16.14	-38.4	-39.4	22.8	0.00e+00	56	30	0	598736896	50	6002
2026-01-04 18:37:30.16	345.63	16.14	-38.7	-39.7	22.6	0.00e+00	2	30	0	600834048	50	6187
2026-01-04 18:37:31.17	345.41	16.14	-38.6	-39.6	22.8	0.00e+00	92	30	0	602931200	50	6127
2026-01-04 18:37:32.18	345.19	16.14	-39.1	-40.1	22.4	7.00e-07	12	30	0	603979776	50	6512
2026-01-04 18:37:33.19	344.96	16.14	-38.8	-39.8	22.6	0.00e+00	5	30	0	606076928	50	6308
2026-01-04 18:37:34.20	344.74	16.14	-38.8	-39.8	22.6	7.00e-07	0	30	0	608174080	50	6246
2026-01-04 18:37:35.21	344.52	16.14	-38.9	-39.9	22.1	0.00e+00	6	30	0	610271232	50	6356
2026-01-04 18:37:36.22	344.30	16.13	-38.8	-39.8	22.6	0.00e+00	3	30	0	612368384	50	6287
2026-01-04 18:37:37.23	344.08	16.13	-38.4	-39.4	23.0	0.00e+00	0	30	0	613416960	50	5973
2026-01-04 18:37:38.24	343.86	16.13	-38.9	-39.9	22.5	0.00e+00	90	30	0	615514112	50	6368
2026-01-04 18:37:39.25	343.63	16.12	-39.0	-40.0	22.6	0.00e+00	0	30	0	617611264	50	6428
2026-01-04 18:37:40.26	343.41	16.12	-38.9	-39.9	22.6	0.00e+00	92	30	0	619708416	50	6353
2026-01-04 18:37:41.27	343.19	16.12	-38.7	-39.7	22.7	0.00e+00	0	30	0	621805568	50	6217
2026-01-04 18:37:42.28	342.97	16.11	-38.9	-39.9	22.9	0.00e+00	0	31	0	622854144	50	6366
2026-01-04 18:37:43.29	342.75	16.11	-38.7	-39.6	22.8	0.00e+00	0	30	0	624951296	50	6163
2026-01-04 18:37:44.30	342.53	16.10	-39.1	-40.1	22.6	0.00e+00	0	30	0	627048448	50	6509
2026-01-04 18:37:45.31	342.31	16.09	-39.3	-40.3	22.3	0.00e+00	92	30	0	629145600	50	6656
2026-01-04 18:37:46.31	342.09	16.09	-39.7	-40.8	22.2	0.00e+00	0	30	0	631242752	52	6270
2026-01-04 18:37:47.32	341.87	16.08	-39.9	-41.0	22.1	0.00e+00	91	30	0	632291328	52	6430
2026-01-04 18:37:48.34	341.64	16.07	-39.4	-40.5	22.1	0.00e+00	68	30	0	634388480	52	6055
2026-01-04 18:37:49.34	341.42	16.07	-39.9	-41.0	21.9	0.00e+00	70	30	0	636485632	52	6436
2026-01-04 18:37:50.35	341.20	16.06	-40.1	-41.1	22.3	0.00e+00	14	30	0	638582784	52	6508
2026-01-04 18:37:51.36	340.98	16.05	-39.8	-40.9	22.0	0.00e+00	8	30	0	640679936	52	6337
2026-01-04 18:37:52.37	340.76	16.04	-40.2	-41.3	21.4	0.00e+00	37	31	0	641728512	52	6640
2026-01-04 18:37:53.38	340.54	16.03	-38.6	-39.6	22.9	0.00e+00	8	30	0	643825664	50	6118
2026-01-04 18:37:54.39	340.32	16.02	-38.8	-39.8	22.8	0.00e+00	92	30	0	645922816	50	6273
2026-01-04 18:37:55.40	340.10	16.01	-39.1	-40.1	22.6	7.00e-07	5	30	0	648019968	50	6491
2026-01-04 18:37:56.41	339.88	16.00	-39.1	-40.1	22.8	0.00e+00	91	30	0	650117120	50	6520
2026-01-04 18:37:57.42	339.66	15.99	-38.9	-39.8	22.9	0.00e+00	7	30	0	651165696	50	6316
2026-01-04 18:37:58.43	339.44	15.98	-39.2	-40.3	22.4	0.00e+00	5	30	0	653262848	50	6628
2026-01-04 18:37:59.44	339.22	15.96	-39.0	-40.0	22.4	0.00e+00	7	31	0	655360000	50	6451
2026-01-04 18:38:00.45	339.01	15.95	-39.0	-40.0	22.7	0.00e+00	0	30	0	657457152	50	6437
2026-01-04 18:38:01.46	338.79	15.94	-38.9	-39.8	22.8	0.00e+00	92	30	0	659554304	50	6306
2026-01-04 18:38:02.47	338.57	15.93	-38.4	-39.4	22.9	0.00e+00	0	30	0	660602880	50	5967
2026-01-04 18:38:03.48	338.35	15.91	-38.6	-39.6	23.0	0.00e+00	41	30	0	662700032	50	6142
2026-01-04 18:38:04.49	338.13	15.90	-38.7	-39.6	22.9	0.00e+00	67	31	0	664797184	50	6165
2026-01-04 18:38:05.50	337.91	15.88	-39.1	-40.1	22.8	0.00e+00	71	30	0	666894336	50	6484
2026-01-04 18:38:06.51	337.69	15.87	-38.7	-39.6	23.0	0.00e+00	0	30	0	668991488	50	6157
2026-01-04 18:38:07.52	337.48	15.85	-38.4	-39.3	23.2	0.00e+00	0	30	0	671088640	50	5931
2026-01-04 18:38:08.53	337.26	15.84	-38.4	-39.4	23.1	0.00e+00	33	30	0	672137216	50	5999
2026-01-04 18:38:09.53	337.04	15.82	-38.7	-39.7	23.0	0.00e+00	0	31	0	674234368	50	6174
2026-01-04 18:38:10.54	336.83	15.81	-38.4	-39.3	23.1	0.00e+00	92	30	0	676331520	50	5936
2026-01-04 18:38:11.55	336.61	15.79	-38.4	-39.3	23.1	0.00e+00	13	30	0	678428672	50	5956
2026-01-04 18:38:12.56	336.39	15.77	-38.5	-39.5	23.1	0.00e+00	16	30	0	680525824	50	6044
2026-01-04 18:38:13.57	336.18	15.75	-38.6	-39.5	23.0	0.00e+00	15	30	0	681574400	50	6065
2026-01-04 18:38:14.58	335.96	15.74	-38.4	-39.4	23.1	0.00e+00	19	30	0	683671552	50	5969
2026-01-04 18:38:15.59	335.75	15.72	-39.0	-40.0	23.0	0.00e+00	92	31	0	685768704	50	6393
2026-01-04 18:38:16.60	335.53	15.70	-38.9	-39.9	22.9	0.00e+00	9	30	0	687865856	50	6323
2026-01-04 18:38:17.61	335.32	15.68	-38.4	-39.3	23.2	0.00e+00	92	30	0	689963008	50	5932
2026-01-04 18:38:18.61	335.10	15.66	-39.5	-40.4	22.9	0.00e+00	6	30	0	691011584	50	6769
2026-01-04 18:38:19.62	334.89	15.64	-39.8	-40.8	22.3	7.00e-07	49	30	0	693108736	52	6268
2026-01-04 18:38:20.63	334.67	15.62	-38.8	-39.7	23.2	0.00e+00	0	30	0	695205888	50	6215
2026-01-04 18:38:21.64	334.46	15.60	-39.3	-40.3	22.7	0.00e+00	6	30	0	697303040	50	6641
2026-01-04 18:38:22.65	334.25	15.58	-39.6	-40.6	22.6	0.00e+00	0	30	0	699400192	50	6866
2026-01-04 18:38:23.66	334.03	15.55	-38.7	-39.7	22.9	0.00e+00	0	30	0	700448768	50	6205
2026-01-04 18:38:24.67	333.82	15.53	-38.9	-39.9	22.9	0.00e+00	92	30	0	702545920	50	6361
2026-01-04 18:38:25.68	333.61	15.51	-39.1	-40.1	23.1	0.00e+00	75	30	0	704643072	50	6471
2026-01-04 18:38:26.69	333.39	15.49	-39.2	-40.2	22.9	0.00e+00	92	30	0	706740224	50	6611
2026-01-04 18:38:27.70	333.18	15.46	-39.2	-40.2	22.8	0.00e+00	75	31	0	708837376	52	5860
2026-01-04 18:38:28.71	332.97	15.44	-39.0	-40.0	22.7	0.00e+00	0	30	0	709885952	52	5715
2026-01-04 18:38:29.72	332.76	15.42	-39.4	-40.4	22.8	0.00e+00	71	31	0	711983104	52	6027
2026-01-04 18:38:30.72	332.55	15.39	-39.1	-40.0	22.6	7.00e-07	69	30	0	714080256	50	6448
2026-01-04 18:38:31.74	332.34	15.37	-39.0	-40.0	22.9	0.00e+00	75	30	0	716177408	52	5698
2026-01-04 18:38:32.75	332.13	15.34	-38.9	-39.9	22.8	0.00e+00	5	30	0	718274560	52	5667
2026-01-04 18:38:33.75	331.92	15.32	-39.0	-40.0	22.6	0.00e+00	92	30	0	719323136	52	5733
2026-01-04 18:38:34.77	331.71	15.29	-39.3	-40.3	22.5	0.00e+00	75	30	0	721420288	52	5910
2026-01-04 18:38:35.78	331.50	15.27	-39.3	-40.3	22.7	0.00e+00	7	30	0	723517440	52	5926
2026-01-04 18:38:36.79	331.29	15.24	-39.2	-40.2	22.4	0.00e+00	11	30	0	725614592	52	5857
2026-01-04 18:38:37.79	331.08	15.21	-39.3	-40.3	22.6	0.00e+00	10	30	0	727711744	52	5924
2026-01-04 18:38:38.80	330.87	15.18	-39.1	-40.1	22.7	0.00e+00	64	30	0	728760320	50	6499
2026-01-04 18:38:39.81	330.67	15.16	-38.7	-39.6	22.8	0.00e+00	0	30	0	730857472	50	6156
2026-01-04 18:38:40.82	330.46	15.13	-38.7	-39.7	22.6	0.00e+00	92	30	0	732954624	50	6232
2026-01-04 18:38:41.83	330.25	15.10	-38.9	-39.9	22.6	0.00e+00	0	30	0	735051776	50	6332
2026-01-04 18:38:42.84	330.05	15.07	-39.1	-40.1	22.8	0.00e+00	92	31	0	737148928	50	6486
2026-01-04 18:38:43.85	329.84	15.04	-39.5	-40.6	22.6	0.00e+00	0	30	0	739246080	50	6850
2026-01-04 18:38:44.86	329.63	15.01	-39.2	-40.2	22.3	0.00e+00	0	30	0	740294656	50	6613
2026-01-04 18:38:45.87	329.43	14.98	-39.0	-39.9	22.4	0.00e+00	0	30	0	742391808	50	6388
2026-01-04 18:38:46.88	329.22	14.96	-39.2	-40.2	22.6	0.00e+00	74	30	0	744488960	50	6548
2026-01-04 18:38:47.89	329.02	14.92	-38.9	-39.9	22.6	0.00e+00	92	30	0	746586112	52	5676
2026-01-04 18:38:48.90	328.81	14.89	-39.2	-40.2	22.4	0.00e+00	0	30	0	748683264	52	5872
2026-01-04 18:38:49.91	328.61	14.86	-39.4	-40.5	22.1	0.00e+00	92	30	0	749731840	52	6057
2026-01-04 18:38:50.92	328.41	14.83	-40.7	-41.8	21.3	7.00e-07	0	30	0	751828992	52	7038
2026-01-04 18:38:51.92	328.21	14.80	-40.8	-42.0	21.5	7.00e-07	74	30	0	753926144	54	6391
2026-01-04 18:38:52.93	328.00	14.77	-41.1	-42.3	20.6	7.00e-07	74	30	0	756023296	54	6635
2026-01-04 18:38:53.94	327.80	14.74	-40.3	-41.4	21.4	0.00e+00	13	30	0	758120448	54	6012
2026-01-04 18:38:54.95	327.60	14.70	-40.5	-41.6	22.3	0.00e+00	92	30	0	759169024	54	6134
2026-01-04 18:38:55.96	327.40	14.67	-40.3	-41.4	22.3	0.00e+00	75	30	0	761266176	54	6017
2026-01-04 18:38:56.97	327.20	14.64	-40.0	-41.0	22.2	0.00e+00	92	30	0	763363328	54	5743
2026-01-04 18:38:57.98	327.00	14.61	-40.3	-41.4	22.2	0.00e+00	75	30	0	765460480	54	6007
2026-01-04 18:38:58.99	326.80	14.57	-39.6	-40.6	22.6	0.00e+00	0	30	0	767557632	52	6166
2026-01-04 18:39:00.00	326.60	14.54	-40.2	-41.2	21.6	0.00e+00	0	31	0	768606208	52	6607
2026-01-04 18:39:01.01	326.40	14.50	-40.5	-41.5	21.7	0.00e+00	2	30	0	770703360	52	6831
2026-01-04 18:39:02.02	326.20	14.47	-40.4	-41.5	21.4	0.00e+00	21	30	0	772800512	54	6068
2026-01-04 18:39:03.03	326.01	14.43	-39.5	-40.6	22.1	0.00e+00	2	30	0	774897664	52	6126
2026-01-04 18:39:04.04	325.81	14.40	-40.0	-41.0	22.2	0.00e+00	91	30	0	776994816	52	6418
2026-01-04 18:39:05.04	325.61	14.36	-38.9	-39.8	22.9	0.00e+00	0	30	0	778043392	52	5623
2026-01-04 18:39:06.05	325.42	14.33	-39.5	-40.5	22.5	0.00e+00	92	30	0	780140544	52	6073
2026-01-04 18:39:07.06	325.22	14.29	-39.4	-40.4	22.6	0.00e+00	0	30	0	782237696	52	5988
2026-01-04 18:39:08.07	325.02	14.26	-39.9	-40.9	22.4	0.00e+00	0	30	0	784334848	54	5663
2026-01-04 18:39:09.08	324.83	14.22	-40.1	-41.1	22.0	0.00e+00	0	30	0	786432000	52	6483
2026-01-04 18:39:10.09	324.64	14.18	-39.0	-39.9	23.1	0.00e+00	0	30	0	787480576	52	5672
2026-01-04 18:39:11.10	324.44	14.14	-39.2	-40.2	22.8	0.00e+00	91	30	0	789577728	50	6549
2026-01-04 18:39:12.11	324.25	14.11	-40.9	-42.1	21.6	0.00e+00	0	30	0	791674880	52	7278
2026-01-04 18:39:13.12	324.05	14.07	-39.5	-40.4	22.8	0.00e+00	91	30	0	793772032	52	6019
2026-01-04 18:39:14.13	323.86	14.03	-40.3	-41.4	22.0	0.00e+00	0	30	0	795869184	54	6021
2026-01-04 18:39:15.14	323.67	13.99	-39.2	-40.2	22.7	0.00e+00	0	30	0	796917760	52	5831
2026-01-04 18:39:16.15	323.48	13.95	-39.2	-40.1	23.2	0.00e+00	75	30	0	799014912	52	5803
2026-01-04 18:39:17.16	323.29	13.92	-39.0	-40.0	22.8	0.00e+00	7	30	0	801112064	50	6409
2026-01-04 18:39:18.17	323.10	13.88	-39.4	-40.4	22.7	0.00e+00	70	30	0	803209216	50	6744
2026-01-04 18:39:19.18	322.91	13.84	-38.9	-39.8	23.1	0.00e+00	8	30	0	805306368	50	6313
2026-01-04 18:39:20.19	322.72	13.80	-39.6	-40.6	22.4	0.00e+00	92	30	0	807403520	52	6120
2026-01-04 18:39:21.20	322.53	13.76	-39.0	-39.9	22.8	0.00e+00	8	30	0	808452096	52	5690
2026-01-04 18:39:22.21	322.34	13.72	-41.1	-42.2	22.9	0.00e+00	0	30	0	810549248	52	7370
2026-01-04 18:39:23.22	322.15	13.68	-40.1	-41.2	22.5	0.00e+00	0	30	0	812646400	54	5861
2026-01-04 18:39:24.23	321.96	13.64	-40.0	-41.0	22.6	0.00e+00	7	30	0	814743552	52	6405
2026-01-04 18:39:25.24	321.78	13.60	-39.9	-40.9	22.0	0.00e+00	0	30	0	816840704	54	5663
2026-01-04 18:39:26.24	321.59	13.56	-40.1	-41.0	22.9	0.00e+00	2	30	0	817889280	54	5729
2026-01-04 18:39:27.26	321.41	13.51	-40.1	-41.1	22.5	0.00e+00	92	31	0	819986432	52	6513
2026-01-04 18:39:28.26	321.22	13.47	-39.8	-40.8	22.5	0.00e+00	0	30	0	822083584	52	6310
2026-01-04 18:39:29.27	321.04	13.43	-40.0	-41.0	22.1	0.00e+00	90	30	0	824180736	52	6440
2026-01-04 18:39:30.28	320.85	13.39	-40.3	-41.3	22.8	0.00e+00	0	30	0	826277888	54	5898
2026-01-04 18:39:31.29	320.67	13.35	-38.9	-39.8	23.2	0.00e+00	0	30	0	827326464	50	6275
2026-01-04 18:39:32.30	320.49	13.31	-39.2	-40.1	22.8	0.00e+00	0	30	0	829423616	50	6523
2026-01-04 18:39:33.31	320.30	13.26	-38.9	-39.8	22.8	0.00e+00	73	30	0	831520768	50	6309
2026-01-04 18:39:34.32	320.12	13.22	-39.6	-40.6	22.8	0.00e+00	92	30	0	833617920	52	6118
2026-01-04 18:39:35.33	319.94	13.18	-39.7	-40.8	22.5	0.00e+00	0	30	0	835715072	52	6256
2026-01-04 18:39:36.34	319.76	13.13	-39.5	-40.5	22.6	0.00e+00	92	30	0	836763648	52	6046
2026-01-04 18:39:37.35	319.58	13.09	-39.4	-40.4	22.4	0.00e+00	15	30	0	838860800	52	6008
2026-01-04 18:39:38.36	319.40	13.05	-40.0	-41.0	22.2	0.00e+00	0	30	0	840957952	52	6462
2026-01-04 18:39:39.37	319.22	13.00	-39.5	-40.6	22.2	0.00e+00	0	30	0	843055104	52	6104
2026-01-04 18:39:40.38	319.04	12.96	-39.9	-40.9	22.0	0.00e+00	17	30	0	845152256	52	6353
2026-01-04 18:39:41.39	318.86	12.92	-40.6	-41.7	21.8	0.00e+00	63	31	0	846200832	54	6202
2026-01-04 18:39:42.40	318.68	12.87	-40.5	-41.6	21.6	0.00e+00	13	30	0	848297984	52	6922
2026-01-04 18:39:43.40	318.51	12.83	-40.4	-41.5	21.8	0.00e+00	92	31	0	850395136	54	6053
2026-01-04 18:39:44.41	318.33	12.78	-40.3	-41.3	22.0	0.00e+00	9	30	0	852492288	54	5960
2026-01-04 18:39:45.42	318.15	12.74	-40.0	-41.1	22.0	0.00e+00	92	30	0	854589440	54	5808
2026-01-04 18:39:46.43	317.98	12.69	-39.6	-40.6	22.1	0.00e+00	5	30	0	855638016	52	6145
2026-01-04 18:39:47.44	317.80	12.65	-40.6	-41.7	21.6	0.00e+00	0	30	0	857735168	52	6954
2026-01-04 18:39:48.45	317.63	12.60	-40.4	-41.5	21.5	0.00e+00	0	30	0	859832320	54	6072
2026-01-04 18:39:49.46	317.45	12.56	-40.7	-41.8	21.6	0.00e+00	7	30	0	861929472	54	6279
2026-01-04 18:39:50.47	317.28	12.51	-41.0	-42.1	21.3	0.00e+00	92	30	0	864026624	54	6497
2026-01-04 18:39:51.48	317.11	12.46	-40.5	-41.6	21.6	0.00e+00	5	30	0	865075200	54	6149
2026-01-04 18:39:52.49	316.94	12.42	-41.2	-42.3	21.4	0.00e+00	92	30	0	867172352	54	6672
2026-01-04 18:39:53.50	316.76	12.37	-41.1	-42.3	21.3	0.00e+00	0	31	0	869269504	54	6637
2026-01-04 18:39:54.51	316.59	12.33	-40.9	-42.0	21.3	0.00e+00	0	30	0	871366656	54	6450
2026-01-04 18:39:55.52	316.42	12.28	-40.8	-42.0	21.0	0.00e+00	0	30	0	873463808	54	6429
2026-01-04 18:39:56.53	316.25	12.23	-40.7	-41.9	21.0	0.00e+00	72	30	0	874512384	54	6371
2026-01-04 18:39:57.54	316.08	12.19	-40.6	-41.8	21.1	0.00e+00	90	30	0	876609536	54	6285
2026-01-04 18:39:58.55	315.91	12.14	-40.8	-42.0	20.9	0.00e+00	14	30	0	878706688	54	6439
2026-01-04 18:39:59.55	315.74	12.09	-40.5	-41.7	21.1	0.00e+00	90	30	0	880803840	54	6207
2026-01-04 18:40:00.56	315.58	12.04	-41.0	-42.2	21.0	0.00e+00	73	30	0	882900992	54	6606
2026-01-04 18:40:01.57	315.41	12.00	-42.1	-43.3	20.6	0.00e+00	0	30	0	883949568	56	6678
2026-01-04 18:40:02.58	315.24	11.95	-41.0	-42.3	20.9	0.00e+00	5	30	0	886046720	54	6632
2026-01-04 18:40:03.59	315.08	11.90	-41.3	-42.5	20.9	0.00e+00	7	30	0	888143872	56	6087
2026-01-04 18:40:04.60	314.91	11.85	-40.6	-41.7	21.1	0.00e+00	88	30	0	890241024	54	6229
2026-01-04 18:40:05.61	314.74	11.80	-41.0	-42.2	21.1	0.00e+00	18	30	0	892338176	54	6557
2026-01-04 18:40:06.62	314.58	11.76	-41.1	-42.3	20.9	0.00e+00	91	30	0	893386752	54	6634
2026-01-04 18:40:07.63	314.42	11.71	-41.1	-42.3	20.9	0.00e+00	7	30	0	895483904	56	5952
2026-01-04 18:40:08.64	314.25	11.66	-41.6	-42.8	20.8	0.00e+00	25	30	0	897581056	56	6296
2026-01-04 18:40:09.65	314.09	11.61	-41.6	-42.8	20.6	0.00e+00	8	30	0	899678208	56	6313
2026-01-04 18:40:10.66	313.93	11.56	-41.4	-42.7	20.4	0.00e+00	6	30	0	901775360	56	6210
2026-01-04 18:40:11.67	313.76	11.51	-41.3	-42.6	20.2	0.00e+00	6	30	0	903872512	56	6168
2026-01-04 18:40:12.68	313.60	11.46	-41.4	-42.7	20.3	0.00e+00	7	30	0	904921088	56	6222
2026-01-04 18:40:13.69	313.44	11.41	-41.7	-43.0	20.2	0.00e+00	92	30	0	907018240	56	6424
2026-01-04 18:40:14.70	313.28	11.37	-42.0	-43.3	20.3	0.00e+00	72	30	0	909115392	56	6673
2026-01-04 18:40:15.71	313.12	11.32	-42.1	-43.4	20.0	0.00e+00	92	30	0	911212544	58	5985
2026-01-04 18:40:16.72	312.96	11.27	-41.6	-42.9	20.2	0.00e+00	73	30	0	913309696	56	6368
2026-01-04 18:40:17.73	312.80	11.22	-42.5	-43.9	20.1	0.00e+00	0	30	0	914358272	56	7146
2026-01-04 18:40:18.74	312.65	11.17	-41.5	-42.8	20.5	0.00e+00	11	30	0	916455424	56	6250
2026-01-04 18:40:19.75	312.49	11.12	-41.8	-43.1	20.2	0.00e+00	66	30	0	918552576	56	6525
2026-01-04 18:40:20.76	312.33	11.07	-41.9	-43.2	20.1	0.00e+00	91	30	0	920649728	56	6598
2026-01-04 18:40:21.77	312.17	11.02	-43.0	-44.4	20.3	0.00e+00	9	30	0	922746880	56	7525
2026-01-04 18:40:22.78	312.02	10.97	-42.1	-43.4	20.3	0.00e+00	90	30	0	923795456	56	6722
2026-01-04 18:40:23.78	311.86	10.92	-41.9	-43.3	20.3	0.00e+00	2	30	0	925892608	56	6679
2026-01-04 18:40:24.79	311.71	10.87	-42.0	-43.4	20.2	0.00e+00	8	30	0	927989760	58	6008
2026-01-04 18:40:25.80	311.56	10.82	-42.1	-43.4	20.2	0.00e+00	10	30	0	930086912	56	6767
2026-01-04 18:40:26.81	311.40	10.77	-42.2	-43.5	20.2	0.00e+00	2	30	0	932184064	58	6096
2026-01-04 18:40:27.82	311.25	10.72	-42.2	-43.6	20.2	0.00e+00	79	30	0	933232640	58	6122
2026-01-04 18:40:28.83	311.10	10.66	-42.2	-43.5	19.8	0.00e+00	2	30	0	935329792	58	6087
2026-01-04 18:40:29.84	310.94	10.61	-42.0	-43.3	20.1	0.00e+00	92	30	0	937426944	58	5948
2026-01-04 18:40:30.85	310.79	10.56	-42.1	-43.4	20.1	0.00e+00	0	30	0	939524096	58	6019
2026-01-04 18:40:31.86	310.64	10.51	-42.4	-43.8	19.8	0.00e+00	37	30	0	941621248	56	7071
2026-01-04 18:40:32.87	310.49	10.46	-42.4	-43.8	20.3	0.00e+00	0	30	0	942669824	56	7036
2026-01-04 18:40:33.88	310.34	10.41	-42.4	-43.7	20.2	0.00e+00	0	30	0	944766976	56	7000
2026-01-04 18:40:34.89	310.19	10.36	-41.9	-43.2	20.3	0.00e+00	0	30	0	946864128	56	6558
2026-01-04 18:40:35.90	310.04	10.31	-42.6	-44.0	20.1	0.00e+00	67	30	0	948961280	58	6402
2026-01-04 18:40:36.91	309.89	10.25	-42.4	-43.7	20.2	0.00e+00	92	30	0	951058432	58	6229
2026-01-04 18:40:37.92	309.74	10.20	-42.0	-43.4	19.9	0.00e+00	67	30	0	952107008	56	6709
2026-01-04 18:40:38.93	309.60	10.15	-41.9	-43.2	20.1	0.00e+00	90	30	0	954204160	56	6566
2026-01-04 18:40:39.94	309.45	10.10	-42.1	-43.5	19.9	0.00e+00	13	30	0	956301312	56	6771
2026-01-04 18:40:40.95	309.30	10.05	-42.4	-43.7	20.4	0.00e+00	17	30	0	958398464	56	6946
2026-01-04 18:40:41.96	309.16	10.00	-41.8	-43.0	20.1	0.00e+00	16	30	0	960495616	56	6454
2026-01-04 18:40:42.96	309.01	9.94	-42.7	-44.1	20.0	0.00e+00	0	30	0	961544192	56	7309
2026-01-04 18:40:43.97	308.87	9.89	-42.1	-43.3	20.8	0.00e+00	92	30	0	963641344	56	6645
2026-01-04 18:40:44.98	308.73	9.84	-41.7	-42.9	20.5	0.00e+00	0	30	0	965738496	56	6383
2026-01-04 18:40:45.99	308.58	9.79	-42.7	-44.0	20.4	0.00e+00	92	30	0	967835648	56	7181
2026-01-04 18:40:47.00	308.44	9.74	-42.0	-43.4	20.3	0.00e+00	9	30	0	969932800	56	6724
2026-01-04 18:40:48.01	308.30	9.68	-41.9	-43.2	20.3	0.00e+00	0	30	0	972029952	58	5882
2026-01-04 18:40:49.02	308.15	9.63	-41.7	-43.0	20.2	0.00e+00	2	30	0	973078528	58	5700
2026-01-04 18:40:50.03	308.01	9.58	-42.1	-43.4	20.4	0.00e+00	2	30	0	975175680	56	6751
2026-01-04 18:40:51.04	307.87	9.53	-42.1	-43.4	20.5	7.00e-07	65	30	0	977272832	56	6729
2026-01-04 18:40:52.05	307.73	9.47	-42.4	-43.7	20.2	0.00e+00	0	30	0	979369984	56	6974
2026-01-04 18:40:53.06	307.59	9.42	-42.6	-44.1	19.6	0.00e+00	91	30	0	981467136	58	6498
2026-01-04 18:40:54.07	307.45	9.37	-42.2	-43.7	19.7	0.00e+00	0	30	0	982515712	56	6949
2026-01-04 18:40:55.08	307.31	9.32	-41.9	-43.2	20.5	7.00e-07	35	30	0	984612864	56	6551
2026-01-04 18:40:56.09	307.17	9.26	-41.5	-42.8	20.4	0.00e+00	72	30	0	986710016	56	6281
2026-01-04 18:40:57.10	307.03	9.21	-42.0	-43.2	20.4	0.00e+00	71	30	0	988807168	56	6607
2026-01-04 18:40:58.11	306.90	9.16	-41.7	-42.9	20.8	0.00e+00	0	30	0	990904320	56	6373
2026-01-04 18:40:59.12	306.76	9.11	-41.1	-42.3	21.0	0.00e+00	0	30	0	991952896	56	5897
2026-01-04 18:41:00.13	306.62	9.05	-41.9	-43.1	20.8	0.00e+00	92	30	0	994050048	56	6501
2026-01-04 18:41:01.14	306.49	9.00	-40.8	-42.0	21.1	0.00e+00	11	30	0	996147200	56	5705
2026-01-04 18:41:02.15	306.35	8.95	-40.7	-41.9	21.2	0.00e+00	92	30	0	998244352	54	6338
2026-01-04 18:41:03.15	306.22	8.89	-40.3	-41.5	21.2	0.00e+00	11	30	0	1000341504	54	6060
2026-01-04 18:41:04.16	306.08	8.84	-40.4	-41.5	21.5	0.00e+00	9	30	0	1001390080	54	6076
2026-01-04 18:41:05.17	305.95	8.79	-40.3	-41.4	21.7	0.00e+00	65	30	0	1003487232	54	6004
2026-01-04 18:41:06.18	305.82	8.73	-39.8	-40.8	21.8	0.00e+00	2	30	0	1005584384	54	5622
2026-01-04 18:41:07.19	305.68	8.68	-39.8	-40.9	21.7	0.00e+00	92	30	0	1007681536	52	6370
2026-01-04 18:41:08.20	305.55	8.63	-39.9	-40.9	21.9	0.00e+00	16	30	0	1009778688	52	6382
2026-01-04 18:41:09.20	305.42	8.58	-40.2	-41.3	21.9	0.00e+00	92	30	0	1010827264	52	6641
2026-01-04 18:41:10.21	305.29	8.52	-40.5	-41.7	21.6	0.00e+00	14	30	0	1012924416	52	6935
2026-01-04 18:41:11.23	305.16	8.47	-40.1	-41.2	21.8	0.00e+00	91	30	0	1015021568	52	6575
2026-01-04 18:41:12.23	305.03	8.42	-40.0	-41.1	21.9	0.00e+00	0	30	0	1017118720	54	5800
2026-01-04 18:41:13.24	304.90	8.36	-40.7	-41.8	21.9	0.00e+00	0	30	0	1019215872	54	6268
2026-01-04 18:41:14.25	304.77	8.31	-40.2	-41.2	22.0	0.00e+00	45	30	0	1020264448	54	5874
2026-01-04 18:41:15.26	304.64	8.26	-40.8	-41.8	21.8	0.00e+00	0	30	0	1022361600	54	6313
2026-01-04 18:41:16.27	304.51	8.20	-41.0	-42.1	21.7	0.00e+00	90	30	0	1024458752	54	6483
2026-01-04 18:41:17.28	304.38	8.15	-40.3	-41.4	21.6	0.00e+00	0	31	0	1026555904	54	6020
2026-01-04 18:41:18.29	304.25	8.10	-40.1	-41.2	21.7	0.00e+00	68	30	0	1028653056	54	5845
2026-01-04 18:41:19.30	304.13	8.04	-40.1	-41.2	21.8	0.00e+00	67	30	0	1029701632	54	5891
2026-01-04 18:41:20.31	304.00	7.99	-40.2	-41.3	21.6	0.00e+00	0	30	0	1031798784	54	5940
2026-01-04 18:41:21.32	303.87	7.93	-40.1	-41.1	22.0	0.00e+00	0	30	0	1033895936	52	6521
2026-01-04 18:41:22.33	303.75	7.88	-39.7	-40.8	22.2	0.00e+00	0	30	0	1035993088	52	6262
2026-01-04 18:41:23.34	303.62	7.83	-40.2	-41.3	22.1	0.00e+00	92	30	0	1038090240	52	6633
2026-01-04 18:41:24.35	303.50	7.77	-39.8	-40.8	22.0	0.00e+00	13	30	0	1040187392	52	6306
2026-01-04 18:41:25.36	303.37	7.72	-40.5	-41.6	22.0	0.00e+00	92	30	0	1041235968	52	6914
2026-01-04 18:41:26.37	303.25	7.67	-40.2	-41.3	22.1	0.00e+00	68	30	0	1043333120	52	6640
2026-01-04 18:41:27.38	303.13	7.61	-39.9	-40.9	22.2	0.00e+00	6	30	0	1045430272	52	6346
2026-01-04 18:41:28.39	303.00	7.56	-40.3	-41.4	22.2	0.00e+00	12	30	0	1047527424	54	6021
2026-01-04 18:41:29.40	302.88	7.51	-39.8	-40.8	22.4	0.00e+00	15	30	0	1049624576	54	5593
2026-01-04 18:41:30.41	302.76	7.45	-40.1	-41.2	22.0	0.00e+00	82	30	0	1050673152	54	5833
2026-01-04 18:41:31.42	302.64	7.40	-40.0	-41.1	21.8	0.00e+00	0	30	0	1052770304	52	6508
2026-01-04 18:41:32.43	302.51	7.34	-39.5	-40.5	21.7	0.00e+00	92	30	0	1054867456	52	6082
2026-01-04 18:41:33.44	302.39	7.29	-39.6	-40.6	22.1	0.00e+00	0	30	0	1056964608	52	6151
2026-01-04 18:41:34.45	302.27	7.24	-40.0	-41.1	21.9	0.00e+00	19	30	0	1059061760	52	6529
2026-01-04 18:41:35.46	302.15	7.18	-39.9	-41.0	22.0	0.00e+00	0	30	0	1060110336	52	6403
2026-01-04 18:41:36.47	302.03	7.13	-39.7	-40.8	21.9	0.00e+00	0	30	0	1062207488	52	6262
2026-01-04 18:41:37.48	301.92	7.08	-40.3	-41.4	21.9	0.00e+00	18	30	0	1064304640	52	6715
2026-01-04 18:41:38.50	301.80	7.02	-40.1	-41.1	21.3	0.00e+00	65	30	0	1066401792	52	6520
2026-01-04 18:41:39.50	301.68	6.97	-40.5	-41.5	22.0	0.00e+00	92	30	0	1068498944	54	6102
2026-01-04 18:41:40.51	301.56	6.91	-40.0	-41.0	22.1	0.00e+00	0	30	0	1069547520	54	5699
2026-01-04 18:41:41.53	301.44	6.86	-41.6	-42.7	21.2	0.00e+00	91	30	0	1071644672	54	6986
2026-01-04 18:41:42.54	301.33	6.81	-40.5	-41.6	21.8	0.00e+00	23	30	0	1073741824	54	6165
2026-01-04 18:41:43.54	301.21	6.75	-39.9	-40.9	22.0	0.00e+00	17	30	0	1075838976	54	5683
2026-01-04 18:41:44.55	301.10	6.70	-39.7	-40.8	21.6	0.00e+00	50	30	0	1077936128	52	6308
2026-01-04 18:41:45.56	300.98	6.65	-39.5	-40.6	21.8	0.00e+00	5	30	0	1078984704	52	6105
2026-01-04 18:41:46.57	300.87	6.59	-39.2	-40.3	21.9	0.00e+00	92	30	0	1081081856	52	5915
2026-01-04 18:41:47.58	300.75	6.54	-39.3	-40.4	21.8	0.00e+00	6	30	0	1083179008	52	5999
2026-01-04 18:41:48.59	300.64	6.48	-39.6	-40.8	21.4	0.00e+00	92	30	0	1085276160	52	6262
2026-01-04 18:41:49.60	300.52	6.43	-39.6	-40.7	21.7	0.00e+00	6	30	0	1087373312	52	6210
2026-01-04 18:41:50.61	300.41	6.38	-39.5	-40.6	21.6	0.00e+00	6	30	0	1088421888	52	6167
2026-01-04 18:41:51.62	300.30	6.32	-39.8	-40.9	21.5	0.00e+00	20	30	0	1090519040	52	6362
2026-01-04 18:41:52.63	300.19	6.27	-40.1	-41.3	21.0	0.00e+00	0	30	0	1092616192	52	6623
2026-01-04 18:41:53.64	300.07	6.22	-40.1	-41.3	21.5	0.00e+00	71	30	0	1094713344	52	6641
2026-01-04 18:41:54.65	299.96	6.16	-40.2	-41.3	21.2	0.00e+00	0	30	0	1096810496	52	6688
2026-01-04 18:41:55.66	299.85	6.11	-40.1	-41.2	21.7	0.00e+00	92	30	0	1097859072	52	6602
2026-01-04 18:41:56.67	299.74	6.05	-40.8	-41.9	21.4	0.00e+00	0	30	0	1099956224	52	7160
2026-01-04 18:41:57.68	299.63	6.00	-40.3	-41.4	21.7	0.00e+00	65	30	0	1102053376	54	5986
2026-01-04 18:41:58.69	299.52	5.95	-40.0	-41.1	21.4	0.00e+00	0	30	0	1104150528	54	5780
2026-01-04 18:41:59.70	299.41	5.89	-39.9	-41.0	21.6	0.00e+00	0	30	0	1106247680	54	5752
2026-01-04 18:42:00.71	299.30	5.84	-40.5	-41.6	21.3	0.00e+00	7	30	0	1108344832	54	6135
2026-01-04 18:42:01.72	299.19	5.79	-39.9	-41.0	21.6	0.00e+00	0	30	0	1109393408	54	5735
2026-01-04 18:42:02.73	299.09	5.73	-40.1	-41.2	21.3	0.00e+00	91	30	0	1111490560	52	6607
2026-01-04 18:42:03.74	298.98	5.68	-40.2	-41.3	21.8	0.00e+00	12	30	0	1113587712	52	6686
2026-01-04 18:42:04.75	298.87	5.63	-40.5	-41.6	21.4	0.00e+00	92	30	0	1115684864	54	6118
2026-01-04 18:42:05.76	298.76	5.57	-40.2	-41.2	21.5	0.00e+00	18	30	0	1117782016	54	5893
2026-01-04 18:42:06.77	298.66	5.52	-40.9	-42.1	21.0	0.00e+00	63	30	0	1118830592	54	6539
2026-01-04 18:42:07.78	298.55	5.46	-40.5	-41.7	20.9	0.00e+00	31	30	0	1120927744	54	6202
2026-01-04 18:42:08.79	298.45	5.41	-40.5	-41.7	20.8	0.00e+00	17	30	0	1123024896	54	6190
2026-01-04 18:42:09.80	298.34	5.36	-40.5	-41.7	20.5	0.00e+00	90	30	0	1125122048	54	6244
2026-01-04 18:42:10.81	298.24	5.30	-40.5	-41.8	20.6	0.00e+00	0	30	0	1127219200	54	6246
2026-01-04 18:42:11.82	298.13	5.25	-40.1	-41.3	20.7	0.00e+00	91	30	0	1128267776	54	5923
2026-01-04 18:42:12.83	298.03	5.20	-40.6	-41.8	20.6	0.00e+00	0	30	0	1130364928	54	6305
2026-01-04 18:42:13.84	297.92	5.14	-41.1	-42.4	20.3	0.00e+00	0	30	0	1132462080	54	6767
2026-01-04 18:42:14.85	297.82	5.09	-41.3	-42.5	20.5	0.00e+00	0	30	0	1134559232	54	6818
2026-01-04 18:42:15.86	297.72	5.04	-41.9	-43.2	19.8	0.00e+00	0	30	0	1136656384	56	6615
2026-01-04 18:42:16.87	297.61	4.98	-41.4	-42.7	20.5	0.00e+00	90	30	0	1137704960	56	6214
2026-01-04 18:42:17.88	297.51	4.93	-41.9	-43.2	20.2	0.00e+00	0	30	0	1139802112	56	6579
2026-01-04 18:42:18.88	297.41	4.88	-42.1	-43.5	20.1	0.00e+00	90	30	0	1141899264	56	6799
2026-01-04 18:42:19.89	297.31	4.82	-41.1	-42.4	20.3	0.00e+00	0	30	0	1143996416	56	6010
2026-01-04 18:42:20.90	297.21	4.77	-41.4	-42.8	20.0	0.00e+00	67	30	0	1146093568	56	6266
2026-01-04 18:42:21.91	297.11	4.72	-40.6	-41.9	20.3	0.00e+00	0	30	0	1147142144	56	5677
2026-01-04 18:42:22.92	297.01	4.66	-41.0	-42.3	19.9	0.00e+00	0	30	0	1149239296	54	6681
2026-01-04 18:42:23.93	296.91	4.61	-41.1	-42.5	19.5	0.00e+00	0	30	0	1151336448	54	6809
2026-01-04 18:42:24.93	296.81	4.56	-41.0	-42.2	19.7	0.00e+00	69	30	0	1153433600	54	6608
2026-01-04 18:42:25.94	296.71	4.51	-41.1	-42.4	20.3	0.00e+00	92	30	0	1155530752	54	6746
2026-01-04 18:42:26.95	296.61	4.45	-40.9	-42.2	20.2	0.00e+00	4	30	0	1156579328	54	6590
2026-01-04 18:42:27.96	296.51	4.40	-41.0	-42.4	19.8	0.00e+00	92	30	0	1158676480	54	6734
2026-01-04 18:42:28.97	296.41	4.35	-41.4	-42.9	19.4	0.00e+00	12	30	0	1160773632	54	7124
2026-01-04 18:42:29.98	296.32	4.29	-41.4	-42.9	19.3	0.00e+00	12	30	0	1162870784	54	7126
2026-01-04 18:42:30.99	296.22	4.24	-41.3	-42.8	19.7	0.00e+00	16	30	0	1164967936	54	7020
2026-01-04 18:42:32.00	296.12	4.19	-41.8	-43.3	19.4	0.00e+00	0	30	0	1166016512	56	6621
2026-01-04 18:42:33.01	296.03	4.13	-42.3	-43.8	19.1	0.00e+00	92	30	0	1168113664	56	7056
2026-01-04 18:42:34.02	295.93	4.08	-42.2	-43.7	18.9	0.00e+00	0	30	0	1170210816	56	6972
2026-01-04 18:42:35.03	295.83	4.03	-41.6	-43.1	19.1	0.00e+00	92	30	0	1172307968	56	6533
2026-01-04 18:42:36.04	295.74	3.97	-42.3	-43.8	19.2	0.00e+00	2	30	0	1174405120	56	7088
2026-01-04 18:42:37.05	295.64	3.92	-41.6	-43.2	19.2	0.00e+00	2	30	0	1176502272	56	6541
2026-01-04 18:42:38.05	295.55	3.87	-41.9	-43.4	19.0	0.00e+00	0	30	0	1177550848	56	6760
2026-01-04 18:42:39.06	295.45	3.82	-42.3	-43.8	19.3	0.00e+00	0	30	0	1179648000	56	7082
2026-01-04 18:42:40.07	295.36	3.76	-42.5	-44.1	18.9	0.00e+00	92	30	0	1181745152	56	7262
2026-01-04 18:42:41.08	295.27	3.71	-42.0	-43.6	18.9	0.00e+00	61	30	0	1183842304	56	6855
2026-01-04 18:42:42.09	295.17	3.66	-42.0	-43.7	18.7	0.00e+00	92	30	0	1185939456	56	6932
2026-01-04 18:42:43.10	295.08	3.61	-41.7	-43.3	18.9	0.00e+00	0	30	0	1186988032	56	6669
2026-01-04 18:42:44.11	294.99	3.55	-42.3	-44.0	18.6	0.00e+00	71	30	0	1189085184	56	7173
2026-01-04 18:42:45.12	294.90	3.50	-41.7	-43.3	18.9	0.00e+00	67	30	0	1191182336	56	6664
2026-01-04 18:42:46.13	294.80	3.45	-41.8	-43.4	18.6	0.00e+00	67	30	0	1193279488	56	6724
2026-01-04 18:42:47.14	294.71	3.40	-42.3	-44.0	18.6	0.00e+00	33	30	0	1195376640	58	6422
