passes_logs/2026/01/04/R4.6S_Anadyr/R4.6S_Anadyr__20260104_071612_FENGYUN_3E_rec.log

#Pass ID: 20260104_071612_FENGYUN 3E
#Satellite: FENGYUN 3E
#Configuration: FENGYUN 3E
#almurnet v.1.7.20251203
#Start time: 2026-01-04 07:16:13

#Version: 2.2.20231116
#Station: R4.6S_Anadyr
#Location: 177.4865 lon 64.73178 lat
#TLE: 1 49008U 21062A   26003.51942929 -.00000034  00000+0  45519-5 0  9990
#TLE: 2 49008  98.7472   8.7829 0001426 160.7926 199.3304 14.19883272233213

#Time	Az	El	Level	Level2	SNR	BER	BlckErr	Temp	State	Recorded	gain1	gain2
2026-01-04 07:16:13.28	230.17	0.03	-51.8	-62.5	3.5	8.45e-01	0	37	0	0	60	48189
2026-01-04 07:16:14.28	230.26	0.07	-52.2	-63.4	3.6	8.45e-01	0	38	104	0	60	53632
2026-01-04 07:16:15.30	230.34	0.12	-52.4	-63.6	3.6	8.46e-01	0	38	104	0	60	54669
2026-01-04 07:16:16.31	230.43	0.16	-52.3	-63.5	3.6	8.45e-01	0	38	104	0	60	54062
2026-01-04 07:16:17.32	230.51	0.21	-52.6	-63.8	3.6	8.47e-01	0	38	104	0	60	55783
2026-01-04 07:16:18.33	230.60	0.25	-51.6	-62.8	3.6	8.45e-01	0	38	104	0	60	50046
2026-01-04 07:16:19.34	230.69	0.30	-51.8	-63.0	3.6	8.44e-01	0	38	104	0	60	51048
2026-01-04 07:16:20.35	230.77	0.35	-52.0	-63.2	3.6	8.45e-01	0	38	104	0	60	52401
2026-01-04 07:16:21.36	230.86	0.39	-52.4	-63.6	3.6	8.46e-01	0	39	104	0	60	54749
2026-01-04 07:16:22.37	230.95	0.44	-52.2	-63.4	3.6	8.46e-01	0	39	104	0	60	53611
2026-01-04 07:16:23.37	231.04	0.48	-51.6	-62.8	3.6	8.45e-01	0	38	104	0	60	49740
2026-01-04 07:16:24.38	231.12	0.53	-51.3	-62.5	3.6	8.45e-01	0	39	104	0	60	48225
2026-01-04 07:16:25.39	231.21	0.58	-51.1	-62.4	3.6	8.45e-01	0	39	104	0	60	47547
2026-01-04 07:16:26.40	231.30	0.62	-52.2	-63.4	3.6	8.45e-01	0	39	104	0	60	53324
2026-01-04 07:16:27.41	231.39	0.67	-51.6	-62.9	3.6	8.44e-01	0	39	104	0	60	50636
2026-01-04 07:16:28.42	231.48	0.71	-52.5	-63.7	3.6	8.45e-01	0	39	104	0	60	55032
2026-01-04 07:16:29.43	231.57	0.76	-51.8	-63.0	3.6	8.45e-01	0	39	104	0	60	51217
2026-01-04 07:16:30.44	231.65	0.81	-52.2	-63.4	3.6	8.44e-01	0	39	104	0	60	53741
2026-01-04 07:16:31.45	231.74	0.85	-52.5	-63.8	3.6	8.44e-01	0	39	104	0	60	56068
2026-01-04 07:16:32.46	231.83	0.90	-52.0	-63.2	3.6	8.45e-01	0	39	104	0	60	52018
2026-01-04 07:16:33.47	231.92	0.95	-51.7	-62.9	3.6	8.45e-01	0	39	104	0	60	50567
2026-01-04 07:16:34.48	232.01	0.99	-52.3	-63.6	3.6	8.46e-01	0	39	104	0	60	54589
2026-01-04 07:16:35.49	232.11	1.04	-51.4	-62.6	3.6	8.45e-01	0	39	104	0	60	48897
2026-01-04 07:16:36.50	232.20	1.08	-52.5	-63.7	3.6	8.45e-01	0	39	104	0	60	55293
2026-01-04 07:16:37.50	232.29	1.13	-52.7	-63.9	3.6	8.45e-01	0	39	104	0	60	56936
2026-01-04 07:16:38.51	232.38	1.18	-52.2	-63.4	3.6	8.46e-01	0	39	104	0	60	53255
2026-01-04 07:16:39.52	232.47	1.22	-51.8	-63.0	3.6	8.45e-01	0	39	104	0	60	51197
2026-01-04 07:16:40.53	232.56	1.27	-52.9	-64.1	3.6	8.45e-01	0	39	104	0	60	58031
2026-01-04 07:16:41.54	232.65	1.31	-52.4	-63.6	3.6	8.46e-01	0	39	104	0	60	54863
2026-01-04 07:16:42.55	232.75	1.36	-52.1	-63.3	3.6	8.45e-01	0	39	104	0	60	52611
2026-01-04 07:16:43.56	232.84	1.41	-51.9	-63.1	3.6	8.45e-01	0	39	104	0	60	51900
2026-01-04 07:16:44.57	232.93	1.45	-52.2	-63.4	3.6	8.45e-01	0	39	104	0	60	53280
2026-01-04 07:16:45.58	233.03	1.50	-52.4	-63.6	3.6	8.46e-01	0	39	104	0	60	54427
2026-01-04 07:16:46.59	233.12	1.55	-52.8	-64.1	3.6	8.45e-01	0	39	104	0	60	58049
2026-01-04 07:16:47.60	233.21	1.59	-51.9	-63.1	3.6	8.44e-01	0	39	104	0	60	51720
2026-01-04 07:16:48.61	233.31	1.64	-52.3	-63.5	3.6	8.46e-01	0	39	104	0	60	54152
2026-01-04 07:16:49.62	233.40	1.69	-51.7	-63.0	3.6	8.45e-01	0	39	104	0	60	51021
2026-01-04 07:16:50.63	233.50	1.73	-52.9	-64.2	3.6	8.46e-01	0	39	104	0	60	58455
2026-01-04 07:16:51.64	233.59	1.78	-52.7	-63.8	3.6	8.45e-01	0	39	104	0	60	56270
2026-01-04 07:16:52.65	233.69	1.83	-52.5	-63.7	3.6	8.45e-01	0	39	104	0	60	55181
2026-01-04 07:16:53.66	233.78	1.87	-51.7	-62.9	3.6	8.46e-01	0	39	104	0	60	50668
2026-01-04 07:16:54.67	233.88	1.92	-52.6	-63.8	3.6	8.44e-01	0	39	104	0	60	55719
2026-01-04 07:16:55.68	233.97	1.96	-52.5	-63.7	3.6	8.45e-01	0	39	104	0	60	55317
2026-01-04 07:16:56.69	234.07	2.01	-51.6	-62.8	3.6	8.45e-01	0	39	104	0	60	50027
2026-01-04 07:16:57.70	234.17	2.06	-51.5	-62.8	3.6	8.46e-01	0	39	104	0	60	49897
2026-01-04 07:16:58.71	234.27	2.10	-52.6	-63.8	3.6	8.45e-01	0	39	104	0	60	55796
2026-01-04 07:16:59.72	234.36	2.15	-52.4	-63.6	3.6	8.45e-01	0	39	104	0	60	54892
2026-01-04 07:17:00.73	234.46	2.20	-52.3	-63.5	3.6	8.45e-01	0	39	104	0	60	54361
2026-01-04 07:17:01.74	234.56	2.24	-51.9	-63.2	3.6	8.46e-01	0	39	104	0	60	52022
2026-01-04 07:17:02.75	234.66	2.29	-52.5	-63.8	3.6	8.44e-01	0	39	104	0	60	55874
2026-01-04 07:17:03.76	234.76	2.34	-52.7	-63.9	3.6	8.45e-01	0	39	104	0	60	56758
2026-01-04 07:17:04.77	234.85	2.38	-52.1	-63.3	3.6	8.46e-01	0	39	104	0	60	52702
2026-01-04 07:17:05.78	234.95	2.43	-52.4	-63.5	3.6	8.45e-01	0	39	104	0	60	54245
2026-01-04 07:17:06.79	235.05	2.48	-52.1	-63.4	3.6	8.46e-01	0	39	104	0	60	53278
2026-01-04 07:17:07.80	235.15	2.52	-51.8	-63.0	3.6	8.46e-01	0	39	104	0	60	51015
2026-01-04 07:17:08.81	235.25	2.57	-52.2	-63.4	3.6	8.45e-01	0	39	104	0	60	53622
2026-01-04 07:17:09.82	235.35	2.62	-52.5	-63.7	3.6	8.46e-01	0	39	104	0	60	55316
2026-01-04 07:17:10.83	235.45	2.66	-51.8	-63.1	3.6	8.44e-01	0	39	104	0	60	51374
2026-01-04 07:17:11.84	235.55	2.71	-52.4	-63.6	3.6	8.45e-01	0	39	104	0	60	54915
2026-01-04 07:17:12.85	235.66	2.76	-52.3	-63.5	3.6	8.45e-01	0	39	104	0	60	54163
2026-01-04 07:17:13.86	235.76	2.80	-51.5	-62.7	3.6	8.45e-01	0	39	104	0	60	49412
2026-01-04 07:17:14.87	235.86	2.85	-52.3	-63.5	3.6	8.45e-01	0	39	104	0	60	54329
2026-01-04 07:17:15.88	235.96	2.90	-51.7	-63.0	3.6	8.46e-01	0	39	104	0	60	50931
2026-01-04 07:17:16.89	236.06	2.94	-52.2	-63.5	3.6	8.46e-01	0	39	104	0	60	53798
2026-01-04 07:17:17.90	236.17	2.99	-52.2	-63.5	3.6	8.45e-01	0	39	104	0	60	53961
2026-01-04 07:17:18.91	236.27	3.04	-52.0	-63.3	3.6	8.46e-01	0	39	104	0	60	52894
2026-01-04 07:17:19.92	236.37	3.08	-52.3	-63.5	3.6	8.46e-01	0	39	104	0	60	54327
2026-01-04 07:17:20.93	236.48	3.13	-52.0	-63.1	3.6	8.45e-01	0	39	104	0	60	51909
2026-01-04 07:17:21.94	236.58	3.18	-52.0	-63.3	3.6	8.46e-01	0	39	104	0	60	52598
2026-01-04 07:17:22.94	236.68	3.22	-52.2	-63.4	3.6	8.45e-01	0	39	104	0	60	53346
2026-01-04 07:17:23.95	236.79	3.27	-52.4	-63.6	3.6	8.45e-01	0	39	104	0	60	54573
2026-01-04 07:17:24.97	236.89	3.32	-51.9	-63.2	3.6	8.46e-01	0	39	104	0	60	52031
2026-01-04 07:17:25.98	237.00	3.36	-51.1	-62.4	3.6	8.45e-01	0	39	104	0	60	47516
2026-01-04 07:17:26.99	237.11	3.41	-51.6	-62.8	3.6	8.45e-01	0	39	104	0	60	49998
2026-01-04 07:17:28.00	237.21	3.46	-51.8	-63.0	3.6	8.45e-01	0	39	104	0	60	51293
2026-01-04 07:17:29.01	237.32	3.50	-51.3	-62.6	3.6	8.43e-01	0	39	104	0	60	48925
2026-01-04 07:17:30.02	237.42	3.55	-51.5	-62.8	3.6	8.43e-01	0	39	104	0	60	49855
2026-01-04 07:17:31.03	237.53	3.60	-51.7	-63.0	3.6	8.47e-01	0	39	104	0	60	50990
2026-01-04 07:17:32.04	237.64	3.64	-50.8	-62.0	3.6	8.45e-01	0	39	104	0	60	45732
2026-01-04 07:17:33.05	237.75	3.69	-51.9	-63.2	3.6	8.44e-01	0	39	104	0	60	52153
2026-01-04 07:17:34.06	237.85	3.74	-51.5	-62.8	3.6	8.45e-01	0	39	104	0	60	49775
2026-01-04 07:17:35.06	237.96	3.78	-52.0	-63.2	3.6	8.45e-01	0	39	104	0	60	52179
2026-01-04 07:17:36.07	238.07	3.83	-52.1	-63.3	3.6	8.45e-01	0	39	104	0	60	52553
2026-01-04 07:17:37.09	238.18	3.88	-51.9	-63.1	3.6	8.45e-01	0	39	104	0	60	51359
2026-01-04 07:17:38.10	238.29	3.93	-52.4	-63.6	3.6	8.45e-01	0	39	104	0	60	54752
2026-01-04 07:17:39.11	238.40	3.97	-51.5	-62.7	3.6	8.45e-01	0	39	104	0	60	49235
2026-01-04 07:17:40.12	238.51	4.02	-52.4	-63.6	3.6	8.46e-01	0	39	104	0	60	54940
2026-01-04 07:17:41.13	238.62	4.07	-52.7	-63.9	3.6	8.45e-01	0	39	104	0	60	56629
2026-01-04 07:17:42.14	238.73	4.11	-52.6	-63.8	3.6	8.45e-01	0	39	104	0	60	56049
2026-01-04 07:17:43.15	238.84	4.16	-51.7	-62.9	3.6	8.45e-01	0	39	104	0	60	50396
2026-01-04 07:17:44.16	238.95	4.21	-52.0	-63.2	3.6	8.45e-01	0	39	104	0	60	52138
2026-01-04 07:17:45.17	239.06	4.25	-51.4	-62.7	3.6	8.45e-01	0	39	104	0	60	49159
2026-01-04 07:17:46.18	239.18	4.30	-51.6	-62.9	3.6	8.45e-01	0	39	104	0	60	50322
2026-01-04 07:17:47.19	239.29	4.35	-51.1	-62.4	3.6	8.44e-01	0	39	104	0	60	47387
2026-01-04 07:17:48.19	239.40	4.39	-52.5	-63.7	3.6	8.45e-01	0	39	104	0	60	55652
2026-01-04 07:17:49.21	239.51	4.44	-51.6	-62.8	3.6	8.45e-01	0	39	104	0	60	50093
2026-01-04 07:17:50.22	239.63	4.49	-51.7	-62.9	3.6	8.45e-01	0	39	104	0	60	50688
2026-01-04 07:17:51.22	239.74	4.53	-52.4	-63.6	3.6	8.46e-01	0	39	104	0	60	54978
2026-01-04 07:17:52.23	239.85	4.58	-52.3	-63.6	3.6	8.46e-01	0	39	104	0	60	54784
2026-01-04 07:17:53.24	239.97	4.62	-52.8	-64.0	3.6	8.45e-01	0	39	104	0	60	57332
2026-01-04 07:17:54.25	240.08	4.67	-52.3	-63.6	3.6	8.45e-01	0	39	104	0	60	54599
2026-01-04 07:17:55.26	240.20	4.72	-51.8	-63.1	3.6	8.45e-01	0	39	104	0	60	51782
2026-01-04 07:17:56.27	240.31	4.76	-51.5	-62.8	3.6	8.45e-01	0	39	104	0	60	49908
2026-01-04 07:17:57.28	240.43	4.81	-51.6	-62.9	3.6	8.45e-01	0	39	104	0	60	50295
2026-01-04 07:17:58.29	240.55	4.86	-52.5	-63.9	3.6	8.46e-01	0	39	104	0	60	56318
2026-01-04 07:17:59.30	240.66	4.90	-52.7	-63.9	3.6	8.45e-01	0	39	104	0	60	56801
2026-01-04 07:18:00.31	240.78	4.95	-52.4	-63.6	3.6	8.45e-01	0	39	104	0	60	54831
2026-01-04 07:18:01.33	240.90	5.00	-52.0	-63.2	3.6	8.44e-01	0	39	104	0	60	52398
2026-01-04 07:18:02.34	241.01	5.04	-52.0	-63.1	3.6	8.46e-01	0	39	104	0	60	51925
2026-01-04 07:18:03.34	241.13	5.09	-52.2	-63.5	3.6	8.44e-01	0	39	104	0	60	54066
2026-01-04 07:18:04.35	241.25	5.14	-52.7	-63.9	3.6	8.46e-01	0	39	104	0	60	56880
2026-01-04 07:18:05.36	241.37	5.18	-52.2	-63.5	3.6	8.45e-01	0	39	104	0	60	53954
2026-01-04 07:18:06.37	241.49	5.23	-52.1	-63.3	3.6	8.46e-01	0	39	104	0	60	53067
2026-01-04 07:18:07.38	241.61	5.28	-52.3	-63.8	3.6	8.46e-01	0	39	104	0	60	56157
2026-01-04 07:18:08.39	241.73	5.32	-51.5	-63.0	3.6	8.46e-01	0	39	104	0	60	50938
2026-01-04 07:18:09.41	241.85	5.37	-52.0	-63.4	3.6	8.44e-01	0	39	104	0	60	53299
2026-01-04 07:18:10.42	241.97	5.42	-51.8	-63.2	3.6	8.45e-01	0	39	104	0	60	52200
2026-01-04 07:18:11.42	242.09	5.46	-52.0	-63.4	3.6	8.45e-01	0	39	104	0	60	53312
2026-01-04 07:18:12.44	242.21	5.51	-52.4	-63.8	3.5	8.45e-01	0	39	104	0	60	56267
2026-01-04 07:18:13.45	242.33	5.55	-52.3	-63.5	3.6	8.45e-01	0	39	104	0	60	54344
2026-01-04 07:18:14.45	242.45	5.60	-51.8	-63.1	3.6	8.46e-01	0	39	104	0	60	51845
2026-01-04 07:18:15.46	242.58	5.65	-51.3	-62.6	3.6	8.45e-01	0	39	104	0	60	48641
2026-01-04 07:18:16.47	242.70	5.69	-51.2	-62.5	3.6	8.46e-01	0	39	104	0	60	48022
2026-01-04 07:18:17.48	242.82	5.74	-51.8	-63.2	3.6	8.44e-01	0	39	104	0	60	51985
2026-01-04 07:18:18.49	242.94	5.78	-51.7	-63.0	3.6	8.45e-01	0	39	104	0	60	51230
2026-01-04 07:18:19.50	243.07	5.83	-51.4	-62.6	3.6	8.45e-01	0	39	104	0	60	48877
2026-01-04 07:18:20.51	243.19	5.88	-50.6	-61.8	3.6	8.45e-01	0	39	104	0	60	44687
2026-01-04 07:18:21.52	243.32	5.92	-50.1	-61.3	3.6	8.45e-01	0	39	104	0	60	41924
2026-01-04 07:18:22.52	243.44	5.97	-49.9	-61.0	3.6	8.45e-01	0	39	104	0	60	40577
2026-01-04 07:18:23.53	243.57	6.01	-44.3	-46.1	14.5	2.20e-06	0	39	104	0	60	7324
2026-01-04 07:18:24.54	243.69	6.06	-49.1	-57.0	3.6	1.54e-02	0	39	104	5242880	58	28718
2026-01-04 07:18:25.55	243.82	6.11	-43.0	-44.4	17.8	8.46e-01	0	40	104	5242880	60	6027
2026-01-04 07:18:26.56	243.94	6.15	-41.4	-42.4	18.5	5.26e-02	0	39	0	8388608	60	4753
2026-01-04 07:18:27.57	244.07	6.20	-42.8	-44.3	14.6	0.00e+00	0	39	0	15728640	58	6685
2026-01-04 07:18:28.58	244.20	6.24	-41.8	-43.1	16.2	0.00e+00	0	39	0	23068672	58	5779
2026-01-04 07:18:29.59	244.33	6.29	-43.9	-45.6	13.8	2.33e-04	0	39	0	30408704	60	6905
2026-01-04 07:18:30.60	244.45	6.34	-45.2	-47.4	11.9	9.15e-05	0	39	0	37748736	60	8505
2026-01-04 07:18:31.61	244.58	6.38	-44.5	-46.5	12.0	2.56e-04	0	39	0	45088768	60	7670
2026-01-04 07:18:32.62	244.71	6.43	-43.5	-45.2	14.0	2.04e-04	0	39	0	52428800	60	6573
2026-01-04 07:18:33.63	244.84	6.47	-43.9	-45.6	13.9	1.37e-05	0	39	0	58720256	60	6898
2026-01-04 07:18:34.64	244.97	6.52	-44.3	-46.2	13.0	1.10e-06	0	39	0	66060288	60	7406
2026-01-04 07:18:35.65	245.10	6.56	-44.7	-46.7	14.2	8.00e-06	0	39	0	74448896	60	7793
2026-01-04 07:18:36.66	245.23	6.61	-43.0	-44.6	14.7	0.00e+00	0	39	0	80740352	58	6895
2026-01-04 07:18:37.67	245.36	6.65	-42.8	-44.4	14.7	0.00e+00	0	39	0	88080384	60	6001
2026-01-04 07:18:38.68	245.49	6.70	-42.1	-43.5	16.4	0.00e+00	0	39	0	95420416	58	6093
2026-01-04 07:18:39.69	245.62	6.74	-41.9	-43.3	15.9	0.00e+00	0	39	0	102760448	56	6633
2026-01-04 07:18:40.70	245.76	6.79	-43.2	-44.8	14.6	8.00e-06	0	39	0	110100480	60	6302
2026-01-04 07:18:41.71	245.89	6.84	-41.5	-42.8	16.2	0.00e+00	0	39	0	117440512	56	6290
2026-01-04 07:18:42.72	246.02	6.88	-41.4	-42.8	16.0	0.00e+00	0	39	0	124780544	56	6259
2026-01-04 07:18:43.73	246.15	6.93	-41.7	-43.1	16.7	0.00e+00	0	39	0	132120576	56	6498
2026-01-04 07:18:44.74	246.29	6.97	-40.2	-41.4	17.2	0.00e+00	0	39	0	139460608	54	5988
2026-01-04 07:18:45.75	246.42	7.02	-40.4	-41.5	17.7	0.00e+00	0	39	0	146800640	54	6059
2026-01-04 07:18:46.76	246.56	7.06	-40.9	-42.1	17.1	0.00e+00	0	40	0	154140672	54	6482
2026-01-04 07:18:47.77	246.69	7.11	-40.7	-41.9	17.2	0.00e+00	0	39	0	161480704	54	6356
2026-01-04 07:18:48.78	246.82	7.15	-40.1	-41.2	17.8	0.00e+00	0	39	0	168820736	52	6566
2026-01-04 07:18:49.79	246.96	7.20	-40.8	-42.0	17.5	0.00e+00	0	39	0	176160768	54	6398
2026-01-04 07:18:50.80	247.10	7.24	-40.9	-42.0	17.4	0.00e+00	0	39	0	183500800	54	6458
2026-01-04 07:18:51.81	247.23	7.28	-40.3	-41.5	18.3	0.00e+00	0	39	0	190840832	54	6041
2026-01-04 07:18:52.82	247.37	7.33	-40.1	-41.2	17.7	0.00e+00	0	39	0	198180864	54	5857
2026-01-04 07:18:53.83	247.51	7.37	-40.7	-41.9	17.6	0.00e+00	0	39	0	205520896	54	6319
2026-01-04 07:18:54.84	247.64	7.42	-40.2	-41.3	18.0	0.00e+00	0	39	0	212860928	52	6667
2026-01-04 07:18:55.85	247.78	7.46	-39.7	-40.7	18.7	0.00e+00	0	39	0	220200960	52	6238
2026-01-04 07:18:56.87	247.92	7.51	-40.2	-41.3	18.3	0.00e+00	0	39	0	227540992	52	6635
2026-01-04 07:18:57.88	248.06	7.55	-39.3	-40.3	19.5	0.00e+00	0	39	0	233832448	52	5960
2026-01-04 07:18:58.89	248.20	7.60	-39.3	-40.3	19.1	0.00e+00	0	39	0	241172480	52	5963
2026-01-04 07:18:59.89	248.34	7.64	-38.6	-39.5	19.6	0.00e+00	0	39	0	249561088	50	6078
2026-01-04 07:19:00.90	248.48	7.68	-38.3	-39.2	19.8	0.00e+00	0	39	0	255852544	48	6601
2026-01-04 07:19:01.91	248.62	7.73	-37.6	-38.5	20.2	0.00e+00	0	39	0	263192576	48	6100
2026-01-04 07:19:02.92	248.76	7.77	-37.7	-38.7	20.3	0.00e+00	0	39	0	270532608	48	6180
2026-01-04 07:19:03.93	248.90	7.82	-38.1	-39.1	19.9	0.00e+00	0	39	0	277872640	48	6470
2026-01-04 07:19:04.94	249.04	7.86	-38.6	-39.6	19.7	0.00e+00	0	40	0	285212672	48	6876
2026-01-04 07:19:05.95	249.18	7.90	-37.8	-38.8	20.0	0.00e+00	0	39	0	292552704	48	6262
2026-01-04 07:19:06.96	249.33	7.95	-38.3	-39.3	20.4	0.00e+00	0	39	0	299892736	48	6639
2026-01-04 07:19:07.97	249.47	7.99	-38.1	-39.1	19.2	0.00e+00	0	39	0	307232768	48	6532
2026-01-04 07:19:08.98	249.61	8.03	-37.2	-38.1	20.6	0.00e+00	0	39	0	314572800	48	5788
2026-01-04 07:19:09.99	249.76	8.08	-38.2	-39.2	20.1	0.00e+00	0	39	0	321912832	48	6572
2026-01-04 07:19:11.00	249.90	8.12	-38.2	-39.1	20.2	0.00e+00	0	40	0	329252864	48	6510
2026-01-04 07:19:12.01	250.04	8.17	-37.9	-38.8	20.5	0.00e+00	0	40	0	336592896	48	6302
2026-01-04 07:19:13.02	250.19	8.21	-37.1	-38.1	20.6	0.00e+00	0	39	0	343932928	48	5773
2026-01-04 07:19:14.03	250.33	8.25	-36.5	-37.4	21.0	0.00e+00	0	39	0	351272960	46	5990
2026-01-04 07:19:15.04	250.48	8.29	-36.6	-37.5	20.7	0.00e+00	0	39	0	357564416	46	6103
2026-01-04 07:19:16.05	250.63	8.34	-37.1	-38.1	20.5	0.00e+00	0	40	0	365953024	46	6478
2026-01-04 07:19:17.06	250.77	8.38	-36.5	-37.3	20.8	0.00e+00	0	39	0	373293056	46	5951
2026-01-04 07:19:18.07	250.92	8.42	-36.8	-37.7	20.8	0.00e+00	0	39	0	379584512	46	6192
2026-01-04 07:19:19.08	251.07	8.47	-36.3	-37.1	21.1	0.00e+00	0	40	0	386924544	46	5826
2026-01-04 07:19:20.09	251.21	8.51	-36.0	-36.9	21.1	0.00e+00	0	39	0	394264576	46	5662
2026-01-04 07:19:21.10	251.36	8.55	-35.4	-36.2	21.6	0.00e+00	0	39	0	401604608	44	5876
2026-01-04 07:19:22.11	251.51	8.59	-34.8	-35.6	21.9	0.00e+00	0	39	0	408944640	44	5471
2026-01-04 07:19:23.12	251.66	8.64	-34.9	-35.7	21.9	0.00e+00	0	39	0	416284672	42	6207
2026-01-04 07:19:24.13	251.81	8.68	-34.8	-35.7	22.0	0.00e+00	0	39	0	423624704	42	6178
2026-01-04 07:19:25.14	251.96	8.72	-34.8	-35.6	22.1	0.00e+00	0	39	0	430964736	42	6127
2026-01-04 07:19:26.15	252.11	8.76	-34.7	-35.6	22.1	0.00e+00	0	39	0	438304768	42	6115
2026-01-04 07:19:27.16	252.26	8.80	-34.5	-35.4	22.3	0.00e+00	0	40	0	445644800	42	5970
2026-01-04 07:19:28.17	252.41	8.85	-34.5	-35.4	22.3	0.00e+00	0	39	0	452984832	42	5988
2026-01-04 07:19:29.18	252.56	8.89	-34.5	-35.3	22.3	0.00e+00	0	39	0	460324864	42	5911
2026-01-04 07:19:30.19	252.71	8.93	-34.4	-35.3	22.3	0.00e+00	0	40	0	467664896	42	5908
2026-01-04 07:19:31.19	252.87	8.97	-34.5	-35.3	22.3	0.00e+00	0	39	0	475004928	42	5927
2026-01-04 07:19:32.20	253.02	9.01	-34.6	-35.4	22.2	0.00e+00	0	39	0	482344960	42	6020
2026-01-04 07:19:33.21	253.17	9.05	-34.5	-35.4	22.2	0.00e+00	0	39	0	489684992	42	5972
2026-01-04 07:19:34.22	253.33	9.09	-34.6	-35.4	22.1	0.00e+00	0	39	0	497025024	42	6029
2026-01-04 07:19:35.23	253.48	9.14	-34.6	-35.5	22.0	0.00e+00	0	40	0	504365056	42	6059
2026-01-04 07:19:36.23	253.63	9.18	-34.4	-35.2	22.2	0.00e+00	0	39	0	510656512	42	5861
2026-01-04 07:19:37.24	253.79	9.22	-34.3	-35.2	22.2	0.00e+00	0	40	0	519045120	42	5830
2026-01-04 07:19:38.25	253.94	9.26	-34.4	-35.3	22.2	0.00e+00	0	40	0	526385152	42	5916
2026-01-04 07:19:39.26	254.10	9.30	-34.3	-35.1	22.3	0.00e+00	0	40	0	532676608	42	5808
2026-01-04 07:19:40.27	254.25	9.34	-34.4	-35.2	22.2	0.00e+00	0	39	0	540016640	42	5856
2026-01-04 07:19:41.28	254.41	9.38	-34.4	-35.3	22.2	0.00e+00	0	39	0	547356672	42	5899
2026-01-04 07:19:42.29	254.57	9.42	-34.4	-35.2	22.3	0.00e+00	0	39	0	554696704	42	5853
2026-01-04 07:19:43.30	254.72	9.46	-34.5	-35.3	22.3	0.00e+00	0	39	0	562036736	42	5934
2026-01-04 07:19:44.31	254.88	9.50	-34.3	-35.1	22.5	0.00e+00	0	40	0	569376768	42	5804
2026-01-04 07:19:45.32	255.04	9.54	-34.4	-35.2	22.4	0.00e+00	0	39	0	576716800	42	5852
2026-01-04 07:19:46.33	255.20	9.58	-34.3	-35.1	22.5	0.00e+00	0	40	0	584056832	42	5806
2026-01-04 07:19:47.34	255.36	9.62	-34.3	-35.1	22.4	0.00e+00	0	40	0	591396864	42	5781
2026-01-04 07:19:48.35	255.52	9.66	-34.5	-35.3	22.4	0.00e+00	0	40	0	598736896	42	5916
2026-01-04 07:19:49.36	255.68	9.70	-34.5	-35.3	22.6	0.00e+00	0	39	0	606076928	42	5962
2026-01-04 07:19:50.37	255.84	9.74	-34.5	-35.3	22.5	0.00e+00	0	40	0	613416960	42	5960
2026-01-04 07:19:51.38	256.00	9.78	-34.4	-35.2	22.6	0.00e+00	0	40	0	620756992	42	5833
2026-01-04 07:19:52.39	256.16	9.82	-34.4	-35.2	22.5	0.00e+00	0	40	0	628097024	42	5892
2026-01-04 07:19:53.40	256.32	9.86	-34.3	-35.1	22.6	0.00e+00	0	40	0	635437056	42	5789
2026-01-04 07:19:54.41	256.48	9.89	-34.4	-35.2	22.5	0.00e+00	0	40	0	642777088	42	5851
2026-01-04 07:19:55.42	256.65	9.93	-34.3	-35.1	22.6	0.00e+00	0	39	0	650117120	42	5814
2026-01-04 07:19:56.43	256.81	9.97	-34.2	-35.0	22.5	0.00e+00	0	40	0	656408576	42	5743
2026-01-04 07:19:57.44	256.97	10.01	-34.2	-35.1	22.5	0.00e+00	0	40	0	663748608	42	5764
2026-01-04 07:19:58.45	257.14	10.05	-34.2	-35.0	22.5	0.00e+00	0	40	0	672137216	42	5720
2026-01-04 07:19:59.46	257.30	10.09	-34.2	-35.0	22.5	0.00e+00	0	40	0	678428672	42	5744
2026-01-04 07:20:00.47	257.46	10.12	-34.1	-34.9	22.5	0.00e+00	0	40	0	685768704	42	5682
2026-01-04 07:20:01.48	257.63	10.16	-34.1	-35.0	22.5	0.00e+00	0	40	0	693108736	42	5699
2026-01-04 07:20:02.49	257.79	10.20	-33.9	-34.7	22.6	0.00e+00	0	40	0	700448768	42	5564
2026-01-04 07:20:03.50	257.96	10.24	-33.9	-34.7	22.6	0.00e+00	0	40	0	707788800	42	5520
2026-01-04 07:20:04.51	258.13	10.27	-33.8	-34.6	22.7	0.00e+00	0	40	0	715128832	42	5480
2026-01-04 07:20:05.52	258.29	10.31	-33.9	-34.7	22.7	0.00e+00	0	40	0	722468864	42	5532
2026-01-04 07:20:06.53	258.46	10.35	-34.0	-34.8	22.5	0.00e+00	0	40	0	729808896	42	5591
2026-01-04 07:20:07.54	258.63	10.38	-33.8	-34.6	22.6	0.00e+00	0	40	0	737148928	42	5464
2026-01-04 07:20:08.55	258.79	10.42	-33.9	-34.7	22.6	0.00e+00	0	40	0	744488960	42	5543
2026-01-04 07:20:09.56	258.96	10.46	-34.1	-34.9	22.5	0.00e+00	0	40	0	751828992	42	5682
2026-01-04 07:20:10.57	259.13	10.49	-33.9	-34.7	22.6	0.00e+00	0	39	0	759169024	42	5560
2026-01-04 07:20:11.58	259.30	10.53	-34.0	-34.8	22.6	0.00e+00	0	40	0	766509056	42	5626
2026-01-04 07:20:12.59	259.47	10.57	-34.0	-34.8	22.6	0.00e+00	0	40	0	773849088	42	5625
2026-01-04 07:20:13.60	259.64	10.60	-33.9	-34.7	22.7	0.00e+00	0	40	0	781189120	42	5549
2026-01-04 07:20:14.61	259.81	10.64	-33.8	-34.6	22.8	0.00e+00	0	40	0	788529152	40	6128
2026-01-04 07:20:15.62	259.98	10.67	-33.9	-34.7	22.7	0.00e+00	0	40	0	795869184	40	6203
2026-01-04 07:20:16.63	260.15	10.71	-33.8	-34.6	22.7	0.00e+00	0	40	0	803209216	40	6169
2026-01-04 07:20:17.64	260.32	10.74	-34.1	-35.0	22.5	0.00e+00	0	40	0	809500672	40	6401
2026-01-04 07:20:18.65	260.49	10.78	-34.0	-34.8	22.6	0.00e+00	0	39	0	817889280	40	6314
2026-01-04 07:20:19.66	260.66	10.81	-34.1	-34.9	22.6	0.00e+00	0	40	0	825229312	40	6337
2026-01-04 07:20:20.67	260.84	10.85	-34.2	-35.0	22.5	0.00e+00	0	40	0	831520768	40	6447
2026-01-04 07:20:21.68	261.01	10.88	-34.3	-35.1	22.5	0.00e+00	0	40	0	838860800	40	6514
2026-01-04 07:20:22.69	261.18	10.92	-34.7	-35.6	22.3	0.00e+00	0	40	0	846200832	42	6124
2026-01-04 07:20:23.69	261.36	10.95	-34.3	-35.1	22.7	0.00e+00	0	40	0	853540864	42	5809
2026-01-04 07:20:24.70	261.53	10.98	-34.8	-35.6	22.7	0.00e+00	0	40	0	860880896	42	6118
2026-01-04 07:20:25.71	261.70	11.02	-34.4	-35.1	22.8	0.00e+00	0	40	0	868220928	42	5824
2026-01-04 07:20:26.72	261.88	11.05	-34.5	-35.3	22.3	0.00e+00	0	40	0	875560960	42	5924
2026-01-04 07:20:27.73	262.05	11.08	-35.2	-36.0	22.4	0.00e+00	0	40	0	882900992	42	6463
2026-01-04 07:20:28.74	262.23	11.12	-34.3	-35.1	22.9	0.00e+00	0	40	0	890241024	42	5822
2026-01-04 07:20:29.75	262.40	11.15	-34.2	-35.0	22.8	0.00e+00	0	40	0	897581056	42	5747
2026-01-04 07:20:30.76	262.58	11.18	-35.1	-35.9	22.6	0.00e+00	0	40	0	904921088	42	6340
2026-01-04 07:20:31.77	262.76	11.22	-34.5	-35.3	22.8	0.00e+00	0	39	0	912261120	42	5919
2026-01-04 07:20:32.78	262.94	11.25	-34.2	-35.0	22.9	0.00e+00	0	40	0	919601152	42	5712
2026-01-04 07:20:33.79	263.11	11.28	-34.7	-35.5	22.5	0.00e+00	0	40	0	926941184	42	6080
2026-01-04 07:20:34.80	263.29	11.31	-34.4	-35.2	22.7	0.00e+00	0	40	0	934281216	42	5859
2026-01-04 07:20:35.81	263.47	11.34	-34.5	-35.3	22.9	0.00e+00	0	40	0	941621248	42	5963
2026-01-04 07:20:36.82	263.65	11.38	-34.4	-35.2	22.8	0.00e+00	0	40	0	948961280	42	5873
2026-01-04 07:20:37.83	263.83	11.41	-34.3	-35.1	22.7	0.00e+00	0	40	0	955252736	42	5802
2026-01-04 07:20:38.84	264.01	11.44	-34.8	-35.6	22.6	0.00e+00	0	40	0	962592768	42	6112
2026-01-04 07:20:39.85	264.19	11.47	-33.9	-34.7	23.0	0.00e+00	0	39	0	970981376	42	5533
2026-01-04 07:20:40.86	264.37	11.50	-34.1	-34.9	22.9	0.00e+00	0	40	0	977272832	40	6381
2026-01-04 07:20:41.87	264.55	11.53	-35.8	-36.6	22.7	0.00e+00	0	40	0	984612864	46	5501
2026-01-04 07:20:42.88	264.73	11.56	-35.0	-35.8	22.9	0.00e+00	0	40	0	991952896	42	6251
2026-01-04 07:20:43.89	264.91	11.59	-34.6	-35.4	23.0	0.00e+00	0	40	0	999292928	42	5990
2026-01-04 07:20:44.90	265.09	11.62	-35.0	-35.8	22.4	0.00e+00	0	40	0	1006632960	42	6258
2026-01-04 07:20:45.91	265.27	11.65	-35.1	-35.9	22.5	0.00e+00	0	40	0	1013972992	42	6359
2026-01-04 07:20:46.92	265.45	11.68	-34.3	-35.1	22.6	0.00e+00	0	40	0	1021313024	42	5827
2026-01-04 07:20:47.93	265.64	11.71	-34.9	-35.8	22.4	0.00e+00	0	40	0	1028653056	42	6257
2026-01-04 07:20:48.94	265.82	11.74	-34.7	-35.5	22.4	0.00e+00	0	40	0	1035993088	42	6068
2026-01-04 07:20:49.95	266.00	11.77	-34.7	-35.6	22.5	0.00e+00	0	40	0	1043333120	42	6122
2026-01-04 07:20:50.96	266.18	11.79	-35.4	-36.3	22.4	0.00e+00	0	40	0	1050673152	42	6630
2026-01-04 07:20:51.97	266.37	11.82	-34.0	-34.8	22.7	0.00e+00	0	40	0	1058013184	42	5588
2026-01-04 07:20:52.98	266.55	11.85	-34.3	-35.1	22.8	0.00e+00	0	40	0	1065353216	42	5783
2026-01-04 07:20:53.99	266.74	11.88	-34.5	-35.3	22.6	0.00e+00	0	40	0	1072693248	42	5912
2026-01-04 07:20:55.00	266.92	11.91	-34.7	-35.5	22.8	0.00e+00	0	40	0	1080033280	42	6069
2026-01-04 07:20:56.00	267.11	11.93	-34.1	-34.9	23.0	0.00e+00	0	40	0	1087373312	42	5667
2026-01-04 07:20:57.01	267.29	11.96	-34.4	-35.2	22.6	0.00e+00	0	40	0	1094713344	42	5868
2026-01-04 07:20:58.03	267.48	11.99	-34.7	-35.5	22.6	0.00e+00	0	40	0	1102053376	42	6055
2026-01-04 07:20:59.04	267.67	12.01	-36.6	-37.3	22.0	0.00e+00	0	40	0	1108344832	46	5951
2026-01-04 07:21:00.04	267.85	12.04	-35.6	-36.4	22.6	0.00e+00	0	40	0	1116733440	44	6004
2026-01-04 07:21:01.05	268.04	12.07	-36.1	-36.9	22.4	0.00e+00	0	40	0	1124073472	44	6363
2026-01-04 07:21:02.07	268.23	12.09	-35.8	-36.6	22.5	0.00e+00	0	40	0	1130364928	44	6159
2026-01-04 07:21:03.07	268.41	12.12	-34.8	-35.6	22.5	0.00e+00	0	40	0	1137704960	44	5500
2026-01-04 07:21:04.08	268.60	12.14	-34.7	-35.6	22.6	0.00e+00	0	40	0	1145044992	42	6125
2026-01-04 07:21:05.10	268.79	12.17	-34.4	-35.2	22.6	0.00e+00	0	40	0	1152385024	42	5883
2026-01-04 07:21:06.11	268.98	12.19	-34.7	-35.5	22.7	0.00e+00	0	40	0	1159725056	42	6063
2026-01-04 07:21:07.11	269.16	12.22	-33.9	-34.7	22.9	0.00e+00	0	40	0	1167065088	42	5558
2026-01-04 07:21:08.12	269.35	12.24	-33.8	-34.6	22.9	0.00e+00	0	40	0	1174405120	42	5490
2026-01-04 07:21:09.13	269.54	12.26	-34.0	-34.8	23.0	0.00e+00	0	40	0	1181745152	42	5599
2026-01-04 07:21:10.14	269.73	12.29	-33.9	-34.7	23.0	0.00e+00	0	40	0	1189085184	42	5551
2026-01-04 07:21:11.15	269.92	12.31	-33.8	-34.6	23.0	0.00e+00	0	40	0	1196425216	40	6127
2026-01-04 07:21:12.16	270.11	12.34	-33.7	-34.5	22.9	0.00e+00	0	40	0	1203765248	40	6059
2026-01-04 07:21:13.17	270.30	12.36	-33.5	-34.3	23.0	0.00e+00	0	40	0	1211105280	40	5914
2026-01-04 07:21:14.18	270.49	12.38	-34.1	-34.9	22.5	0.00e+00	0	40	0	1218445312	40	6361
2026-01-04 07:21:15.19	270.69	12.40	-34.2	-35.0	22.9	0.00e+00	0	40	0	1225785344	42	5724
2026-01-04 07:21:16.21	270.88	12.43	-34.3	-35.1	23.0	0.00e+00	0	40	0	1233125376	42	5811
2026-01-04 07:21:17.22	271.07	12.45	-33.9	-34.7	23.0	0.00e+00	0	40	0	1240465408	42	5518
2026-01-04 07:21:18.23	271.26	12.47	-33.9	-34.7	23.0	0.00e+00	0	40	0	1247805440	42	5537
2026-01-04 07:21:19.24	271.45	12.49	-33.9	-34.7	23.1	0.00e+00	0	40	0	1255145472	40	6232
2026-01-04 07:21:20.24	271.64	12.51	-33.6	-34.4	23.1	0.00e+00	0	40	0	1262485504	40	5986
2026-01-04 07:21:21.26	271.84	12.53	-33.6	-34.4	23.1	0.00e+00	0	40	0	1269825536	40	5985
2026-01-04 07:21:22.27	272.03	12.55	-33.8	-34.6	23.0	0.00e+00	0	40	0	1277165568	40	6156
2026-01-04 07:21:23.28	272.23	12.57	-33.9	-34.6	22.9	0.00e+00	0	40	0	1283457024	40	6173
2026-01-04 07:21:24.29	272.42	12.59	-34.0	-34.8	23.0	0.00e+00	0	40	0	1290797056	40	6256
2026-01-04 07:21:25.30	272.61	12.61	-34.0	-34.8	23.0	0.00e+00	0	40	0	1299185664	40	6278
2026-01-04 07:21:26.31	272.81	12.63	-33.5	-34.3	23.1	0.00e+00	0	40	0	1305477120	40	5949
2026-01-04 07:21:27.32	273.00	12.65	-33.6	-34.4	23.0	0.00e+00	0	40	0	1312817152	40	6028
2026-01-04 07:21:28.33	273.19	12.67	-34.0	-34.8	22.8	0.00e+00	0	40	0	1320157184	40	6288
2026-01-04 07:21:29.34	273.39	12.69	-34.2	-35.0	22.8	0.00e+00	0	40	0	1327497216	40	6397
2026-01-04 07:21:30.35	273.58	12.71	-34.0	-34.8	23.0	0.00e+00	0	40	0	1334837248	40	6290
2026-01-04 07:21:31.36	273.78	12.73	-34.2	-35.0	22.9	0.00e+00	0	40	0	1342177280	40	6451
2026-01-04 07:21:32.37	273.98	12.74	-34.0	-34.8	23.1	0.00e+00	0	40	0	1349517312	40	6262
2026-01-04 07:21:33.38	274.17	12.76	-34.0	-34.8	23.1	0.00e+00	0	40	0	1356857344	40	6258
2026-01-04 07:21:34.39	274.37	12.78	-33.7	-34.5	23.0	0.00e+00	0	40	0	1364197376	40	6069
2026-01-04 07:21:35.40	274.56	12.80	-33.7	-34.5	23.1	0.00e+00	0	40	0	1371537408	40	6058
2026-01-04 07:21:36.41	274.76	12.81	-33.7	-34.5	23.2	0.00e+00	0	40	0	1378877440	40	6081
2026-01-04 07:21:37.42	274.96	12.83	-33.6	-34.4	23.2	0.00e+00	0	40	0	1386217472	40	6026
2026-01-04 07:21:38.43	275.15	12.84	-34.5	-35.2	22.9	0.00e+00	0	40	0	1393557504	40	6612
2026-01-04 07:21:39.44	275.35	12.86	-34.2	-35.0	23.0	0.00e+00	0	40	0	1400897536	40	6403
2026-01-04 07:21:40.45	275.55	12.88	-34.2	-35.0	22.9	0.00e+00	0	40	0	1408237568	40	6451
2026-01-04 07:21:41.45	275.74	12.89	-33.8	-34.6	23.0	0.00e+00	0	40	0	1415577600	40	6145
2026-01-04 07:21:42.46	275.94	12.90	-33.7	-34.5	23.1	0.00e+00	0	40	0	1422917632	40	6040
2026-01-04 07:21:43.47	276.14	12.92	-33.7	-34.5	23.0	0.00e+00	0	40	0	1429209088	40	6043
2026-01-04 07:21:44.48	276.33	12.93	-33.5	-34.3	23.1	0.00e+00	0	40	0	1436549120	40	5904
2026-01-04 07:21:45.49	276.53	12.95	-33.6	-34.4	23.1	0.00e+00	0	40	0	1444937728	40	5976
2026-01-04 07:21:46.50	276.73	12.96	-33.5	-34.3	23.0	0.00e+00	0	40	0	1451229184	40	5932
2026-01-04 07:21:47.51	276.93	12.97	-33.8	-34.6	23.2	0.00e+00	0	40	0	1458569216	40	6136
2026-01-04 07:21:48.52	277.13	12.99	-33.8	-34.6	23.2	0.00e+00	0	40	0	1465909248	40	6131
2026-01-04 07:21:49.53	277.33	13.00	-33.5	-34.3	23.2	0.00e+00	0	40	0	1473249280	40	5927
2026-01-04 07:21:50.54	277.52	13.01	-33.5	-34.3	23.1	0.00e+00	0	40	0	1480589312	40	5924
2026-01-04 07:21:51.55	277.72	13.02	-34.3	-35.1	23.2	0.00e+00	0	40	0	1487929344	40	6519
2026-01-04 07:21:52.56	277.92	13.04	-34.3	-35.0	23.2	0.00e+00	0	40	0	1495269376	40	6446
2026-01-04 07:21:53.57	278.12	13.05	-34.3	-35.0	23.0	0.00e+00	0	40	0	1502609408	42	5756
2026-01-04 07:21:54.58	278.32	13.06	-34.3	-35.1	23.0	0.00e+00	0	40	0	1509949440	42	5823
2026-01-04 07:21:55.59	278.52	13.07	-34.2	-35.0	22.8	0.00e+00	0	40	0	1517289472	42	5751
2026-01-04 07:21:56.60	278.72	13.08	-34.2	-35.0	22.7	0.00e+00	0	40	0	1524629504	42	5746
2026-01-04 07:21:57.61	278.92	13.09	-34.3	-35.1	22.9	0.00e+00	0	40	0	1531969536	42	5771
2026-01-04 07:21:58.62	279.12	13.10	-34.0	-34.8	22.9	0.00e+00	0	40	0	1539309568	42	5577
2026-01-04 07:21:59.63	279.32	13.11	-33.8	-34.7	22.9	0.00e+00	0	40	0	1546649600	40	6179
2026-01-04 07:22:00.63	279.52	13.12	-33.9	-34.7	22.9	0.00e+00	0	40	0	1553989632	40	6231
2026-01-04 07:22:01.64	279.72	13.13	-33.8	-34.6	22.9	0.00e+00	0	40	0	1561329664	40	6166
2026-01-04 07:22:02.65	279.92	13.14	-33.3	-34.1	23.2	0.00e+00	0	40	0	1568669696	40	5815
2026-01-04 07:22:03.66	280.12	13.15	-33.4	-34.2	23.1	0.00e+00	0	40	0	1576009728	40	5866
2026-01-04 07:22:04.67	280.32	13.15	-33.1	-33.9	23.2	0.00e+00	0	40	0	1582301184	40	5682
2026-01-04 07:22:05.68	280.52	13.16	-33.5	-34.3	23.1	0.00e+00	0	40	0	1589641216	40	5935
2026-01-04 07:22:06.69	280.72	13.17	-34.3	-35.2	23.1	0.00e+00	0	40	0	1596981248	40	6552
2026-01-04 07:22:07.70	280.92	13.18	-33.7	-34.5	22.9	0.00e+00	0	40	0	1604321280	40	6088
2026-01-04 07:22:08.71	281.12	13.18	-33.9	-34.8	22.9	0.00e+00	0	40	0	1611661312	40	6255
2026-01-04 07:22:09.72	281.33	13.19	-34.2	-35.0	22.9	0.00e+00	0	40	0	1619001344	40	6430
2026-01-04 07:22:10.73	281.53	13.19	-34.2	-35.1	22.8	0.00e+00	0	40	0	1626341376	40	6479
2026-01-04 07:22:11.74	281.73	13.20	-34.2	-35.1	22.8	0.00e+00	0	40	0	1633681408	40	6476
2026-01-04 07:22:12.75	281.93	13.21	-34.2	-35.0	22.8	0.00e+00	0	40	0	1641021440	40	6442
2026-01-04 07:22:13.76	282.13	13.21	-34.5	-35.3	22.5	0.00e+00	0	40	0	1648361472	40	6651
2026-01-04 07:22:14.77	282.33	13.22	-34.1	-34.9	23.0	0.00e+00	0	40	0	1655701504	42	5654
2026-01-04 07:22:15.77	282.53	13.22	-34.5	-35.3	23.1	0.00e+00	0	40	0	1663041536	42	5934
2026-01-04 07:22:16.78	282.73	13.22	-34.2	-35.0	23.2	0.00e+00	0	40	0	1670381568	42	5736
2026-01-04 07:22:17.79	282.93	13.23	-34.3	-35.0	23.4	0.00e+00	0	40	0	1677721600	42	5748
2026-01-04 07:22:18.80	283.14	13.23	-34.5	-35.3	23.2	0.00e+00	0	40	0	1685061632	42	5935
2026-01-04 07:22:19.82	283.34	13.23	-34.0	-34.8	23.2	0.00e+00	0	40	0	1692401664	42	5582
2026-01-04 07:22:20.82	283.54	13.24	-34.2	-35.0	23.2	0.00e+00	0	40	0	1699741696	42	5723
2026-01-04 07:22:21.83	283.74	13.24	-34.2	-35.0	23.0	0.00e+00	0	40	0	1706033152	42	5749
2026-01-04 07:22:22.84	283.94	13.24	-34.2	-35.0	23.0	0.00e+00	0	40	0	1714421760	42	5751
2026-01-04 07:22:23.85	284.15	13.24	-34.6	-35.4	22.7	0.00e+00	0	40	0	1721761792	42	6011
2026-01-04 07:22:24.86	284.35	13.25	-34.5	-35.2	22.9	0.00e+00	0	40	0	1728053248	42	5885
2026-01-04 07:22:25.87	284.55	13.25	-34.4	-35.2	22.8	0.00e+00	0	40	0	1735393280	42	5876
2026-01-04 07:22:26.88	284.75	13.25	-34.0	-34.7	23.0	0.00e+00	0	40	0	1742733312	42	5566
2026-01-04 07:22:27.89	284.95	13.25	-34.0	-34.8	23.0	0.00e+00	0	40	0	1750073344	42	5618
2026-01-04 07:22:28.90	285.15	13.25	-34.5	-35.2	23.1	0.00e+00	0	40	0	1757413376	42	5895
2026-01-04 07:22:29.91	285.36	13.25	-34.4	-35.1	23.1	0.00e+00	0	40	0	1764753408	42	5825
2026-01-04 07:22:30.92	285.56	13.25	-33.8	-34.6	23.3	0.00e+00	0	40	0	1772093440	42	5440
2026-01-04 07:22:31.93	285.76	13.25	-33.5	-34.3	23.2	0.00e+00	0	40	0	1779433472	40	5953
2026-01-04 07:22:32.94	285.96	13.25	-33.4	-34.2	23.3	0.00e+00	0	40	0	1786773504	40	5842
2026-01-04 07:22:33.95	286.16	13.25	-33.8	-34.6	23.1	0.00e+00	0	40	0	1794113536	40	6107
2026-01-04 07:22:34.95	286.36	13.24	-33.5	-34.3	23.1	0.00e+00	0	40	0	1801453568	40	5954
2026-01-04 07:22:35.96	286.57	13.24	-33.6	-34.4	23.2	0.00e+00	0	40	0	1808793600	40	5967
2026-01-04 07:22:36.97	286.77	13.24	-33.5	-34.2	23.1	0.00e+00	0	40	0	1816133632	40	5891
2026-01-04 07:22:37.98	286.97	13.24	-33.4	-34.2	23.1	0.00e+00	0	40	0	1823473664	40	5861
2026-01-04 07:22:38.98	287.17	13.23	-33.6	-34.4	22.9	0.00e+00	0	40	0	1830813696	40	6023
2026-01-04 07:22:39.99	287.37	13.23	-34.0	-34.8	23.1	0.00e+00	0	40	0	1838153728	40	6256
2026-01-04 07:22:41.00	287.57	13.23	-33.7	-34.5	23.1	0.00e+00	0	40	0	1845493760	40	6034
2026-01-04 07:22:42.01	287.77	13.22	-33.4	-34.2	23.1	0.00e+00	0	40	0	1852833792	40	5881
2026-01-04 07:22:43.02	287.97	13.22	-33.3	-34.1	23.2	0.00e+00	0	40	0	1859125248	40	5781
2026-01-04 07:22:44.03	288.18	13.21	-33.5	-34.3	23.0	0.00e+00	0	40	0	1866465280	40	5954
2026-01-04 07:22:45.04	288.38	13.21	-33.8	-34.6	23.0	0.00e+00	0	40	0	1873805312	40	6131
2026-01-04 07:22:46.05	288.58	13.20	-33.6	-34.4	23.1	0.00e+00	0	40	0	1881145344	40	6021
2026-01-04 07:22:47.06	288.78	13.20	-33.7	-34.5	23.0	0.00e+00	0	40	0	1888485376	40	6053
2026-01-04 07:22:48.07	288.98	13.19	-33.7	-34.5	23.0	0.00e+00	0	40	0	1895825408	40	6040
2026-01-04 07:22:49.08	289.18	13.19	-33.6	-34.4	22.8	0.00e+00	0	40	0	1903165440	40	5988
2026-01-04 07:22:50.10	289.39	13.18	-33.3	-34.1	22.9	0.00e+00	0	40	0	1910505472	40	5824
2026-01-04 07:22:51.10	289.58	13.17	-33.4	-34.3	22.9	0.00e+00	0	40	0	1917845504	40	5905
2026-01-04 07:22:52.11	289.78	13.17	-33.6	-34.4	22.8	0.00e+00	0	40	0	1925185536	40	6005
2026-01-04 07:22:53.13	289.99	13.16	-33.6	-34.4	22.9	0.00e+00	0	40	0	1932525568	40	5983
2026-01-04 07:22:54.13	290.19	13.15	-33.5	-34.3	22.9	0.00e+00	0	40	0	1939865600	40	5946
2026-01-04 07:22:55.14	290.39	13.14	-33.4	-34.2	23.0	0.00e+00	0	40	0	1947205632	40	5876
2026-01-04 07:22:56.15	290.59	13.14	-33.5	-34.3	23.0	0.00e+00	0	40	0	1954545664	40	5907
2026-01-04 07:22:57.16	290.79	13.13	-33.2	-34.0	23.0	0.00e+00	0	40	0	1961885696	40	5727
2026-01-04 07:22:58.17	290.99	13.12	-33.2	-34.0	22.9	0.00e+00	0	40	0	1969225728	40	5736
2026-01-04 07:22:59.18	291.19	13.11	-33.3	-34.1	23.0	0.00e+00	0	40	0	1976565760	40	5811
2026-01-04 07:23:00.19	291.39	13.10	-33.3	-34.2	22.9	0.00e+00	0	40	0	1982857216	40	5832
2026-01-04 07:23:01.20	291.59	13.09	-33.2	-34.0	23.0	0.00e+00	0	40	0	1991245824	40	5747
2026-01-04 07:23:02.21	291.79	13.08	-33.4	-34.2	23.0	0.00e+00	0	40	0	1998585856	40	5880
2026-01-04 07:23:03.22	291.99	13.07	-33.3	-34.1	23.1	0.00e+00	0	40	0	2004877312	40	5769
2026-01-04 07:23:04.23	292.19	13.06	-33.2	-34.0	23.2	0.00e+00	0	40	0	2012217344	40	5723
2026-01-04 07:23:05.24	292.38	13.05	-33.1	-33.9	23.3	0.00e+00	0	40	0	2019557376	40	5641
2026-01-04 07:23:06.25	292.58	13.03	-33.1	-33.9	23.4	0.00e+00	0	40	0	2026897408	40	5668
2026-01-04 07:23:07.26	292.78	13.02	-33.2	-34.0	23.4	0.00e+00	0	40	0	2034237440	40	5699
2026-01-04 07:23:08.27	292.98	13.01	-33.1	-33.8	23.3	0.00e+00	0	40	0	2041577472	40	5612
2026-01-04 07:23:09.28	293.18	13.00	-33.1	-33.9	23.3	0.00e+00	0	40	0	2048917504	40	5656
2026-01-04 07:23:10.29	293.38	12.99	-33.1	-33.9	23.2	0.00e+00	0	40	0	2056257536	40	5665
2026-01-04 07:23:11.30	293.58	12.97	-33.5	-34.3	22.9	0.00e+00	0	40	0	2063597568	40	5951
2026-01-04 07:23:12.30	293.77	12.96	-33.4	-34.2	22.9	0.00e+00	0	40	0	2070937600	40	5879
2026-01-04 07:23:13.31	293.97	12.95	-33.9	-34.7	22.6	0.00e+00	0	40	0	2078277632	40	6220
2026-01-04 07:23:14.33	294.17	12.93	-33.8	-34.6	22.7	0.00e+00	0	40	0	2085617664	40	6136
2026-01-04 07:23:15.33	294.37	12.92	-33.7	-34.4	22.7	0.00e+00	0	40	0	2092957696	40	6033
2026-01-04 07:23:16.34	294.56	12.90	-33.7	-34.5	22.7	0.00e+00	0	40	0	2100297728	40	6074
2026-01-04 07:23:17.35	294.76	12.89	-33.8	-34.6	22.9	0.00e+00	0	40	0	2107637760	40	6122
2026-01-04 07:23:18.36	294.96	12.87	-33.5	-34.2	23.0	0.00e+00	0	40	0	2114977792	40	5896
2026-01-04 07:23:19.37	295.15	12.86	-34.6	-35.4	22.5	0.00e+00	0	40	0	2122317824	40	6706
2026-01-04 07:23:20.38	295.35	12.84	-34.9	-35.7	22.5	0.00e+00	0	40	0	2129657856	42	6203
2026-01-04 07:23:21.39	295.55	12.83	-33.6	-34.4	23.2	0.00e+00	0	40	0	2135949312	40	6002
2026-01-04 07:23:22.40	295.74	12.81	-33.6	-34.4	23.2	0.00e+00	0	40	0	2144337920	40	5981
2026-01-04 07:23:23.41	295.94	12.79	-33.4	-34.1	23.2	0.00e+00	0	40	0	2151677952	40	5805
2026-01-04 07:23:24.42	296.13	12.78	-33.5	-34.3	23.0	0.00e+00	0	40	0	2157969408	40	5957
2026-01-04 07:23:25.43	296.33	12.76	-34.0	-34.8	22.8	0.00e+00	0	40	0	2165309440	40	6292
2026-01-04 07:23:26.43	296.52	12.74	-34.0	-34.8	22.6	0.00e+00	0	40	0	2172649472	40	6270
2026-01-04 07:23:27.44	296.72	12.72	-34.0	-34.8	22.6	0.00e+00	0	40	0	2179989504	40	6269
2026-01-04 07:23:28.45	296.91	12.71	-33.9	-34.8	22.7	0.00e+00	0	40	0	2187329536	40	6251
2026-01-04 07:23:29.46	297.11	12.69	-33.9	-34.8	22.6	0.00e+00	0	40	0	2194669568	40	6256
2026-01-04 07:23:30.47	297.30	12.67	-33.7	-34.5	22.7	0.00e+00	0	40	0	2202009600	40	6081
2026-01-04 07:23:31.48	297.49	12.65	-34.5	-35.4	22.4	0.00e+00	0	40	0	2209349632	40	6732
2026-01-04 07:23:32.49	297.69	12.63	-34.1	-35.0	22.6	0.00e+00	0	40	0	2216689664	40	6397
2026-01-04 07:23:33.50	297.88	12.61	-34.0	-34.8	22.6	0.00e+00	0	40	0	2224029696	40	6290
2026-01-04 07:23:34.51	298.07	12.59	-33.9	-34.7	22.7	0.00e+00	0	40	0	2231369728	40	6216
2026-01-04 07:23:35.52	298.27	12.57	-34.0	-34.8	22.8	0.00e+00	0	40	0	2238709760	40	6283
2026-01-04 07:23:36.53	298.46	12.55	-33.9	-34.7	22.7	0.00e+00	0	40	0	2246049792	40	6206
2026-01-04 07:23:37.54	298.65	12.53	-33.6	-34.5	22.8	0.00e+00	0	40	0	2253389824	40	6043
2026-01-04 07:23:38.55	298.85	12.51	-33.5	-34.3	22.9	0.00e+00	0	40	0	2260729856	40	5928
2026-01-04 07:23:39.56	299.04	12.49	-33.6	-34.3	22.9	0.00e+00	0	40	0	2268069888	40	5964
2026-01-04 07:23:40.57	299.23	12.47	-33.4	-34.2	23.0	0.00e+00	0	40	0	2275409920	40	5852
2026-01-04 07:23:41.58	299.42	12.45	-33.4	-34.2	23.0	0.00e+00	0	40	0	2281701376	40	5891
2026-01-04 07:23:42.59	299.61	12.42	-33.5	-34.3	22.8	0.00e+00	0	40	0	2289041408	40	5930
2026-01-04 07:23:43.60	299.80	12.40	-33.4	-34.2	22.9	0.00e+00	0	40	0	2297430016	40	5871
2026-01-04 07:23:44.61	299.99	12.38	-33.8	-34.6	22.8	0.00e+00	0	40	0	2303721472	40	6123
2026-01-04 07:23:45.62	300.18	12.36	-33.7	-34.5	22.8	0.00e+00	0	40	0	2311061504	40	6083
2026-01-04 07:23:46.63	300.37	12.33	-33.8	-34.6	22.8	0.00e+00	0	40	0	2318401536	40	6166
2026-01-04 07:23:47.63	300.56	12.31	-34.0	-34.8	22.7	0.00e+00	0	40	0	2325741568	40	6314
2026-01-04 07:23:48.64	300.75	12.29	-34.0	-34.9	22.7	0.00e+00	0	40	0	2333081600	40	6325
2026-01-04 07:23:49.65	300.94	12.26	-33.9	-34.7	22.8	0.00e+00	0	40	0	2340421632	40	6196
2026-01-04 07:23:50.66	301.13	12.24	-33.8	-34.7	22.7	0.00e+00	0	40	0	2347761664	40	6189
2026-01-04 07:23:51.67	301.32	12.22	-34.0	-34.8	22.7	0.00e+00	0	40	0	2355101696	40	6259
2026-01-04 07:23:52.68	301.50	12.19	-33.9	-34.7	22.7	0.00e+00	0	40	0	2362441728	40	6223
2026-01-04 07:23:53.69	301.69	12.17	-33.6	-34.4	22.6	0.00e+00	0	40	0	2369781760	40	5979
2026-01-04 07:23:54.70	301.88	12.14	-34.0	-34.8	22.8	0.00e+00	0	40	0	2377121792	40	6289
2026-01-04 07:23:55.71	302.07	12.12	-33.9	-34.7	22.8	0.00e+00	0	40	0	2384461824	40	6241
2026-01-04 07:23:56.72	302.25	12.09	-33.9	-34.8	22.8	0.00e+00	0	40	0	2391801856	40	6247
2026-01-04 07:23:57.73	302.44	12.07	-34.1	-34.7	25.1	0.00e+00	0	40	0	2399141888	40	6229
2026-01-04 07:23:58.74	302.63	12.04	-34.2	-34.9	25.0	0.00e+00	0	40	0	2406481920	40	6331
2026-01-04 07:23:59.75	302.81	12.01	-34.2	-34.8	25.1	0.00e+00	0	40	0	2413821952	40	6305
2026-01-04 07:24:00.75	303.00	11.99	-34.0	-34.7	25.1	0.00e+00	0	40	0	2421161984	40	6186
2026-01-04 07:24:01.76	303.18	11.96	-34.2	-34.8	24.9	0.00e+00	0	40	0	2427453440	40	6306
2026-01-04 07:24:02.77	303.37	11.93	-33.9	-34.6	25.0	0.00e+00	0	40	0	2434793472	40	6128
2026-01-04 07:24:03.78	303.55	11.91	-34.0	-34.6	25.0	0.00e+00	0	40	0	2442133504	40	6145
2026-01-04 07:24:04.79	303.74	11.88	-34.1	-34.7	24.8	0.00e+00	0	40	0	2449473536	40	6229
2026-01-04 07:24:05.80	303.92	11.85	-34.2	-34.9	24.7	0.00e+00	0	40	0	2456813568	40	6340
2026-01-04 07:24:06.81	304.10	11.82	-34.2	-34.8	24.8	0.00e+00	0	40	0	2464153600	40	6294
2026-01-04 07:24:07.82	304.29	11.80	-34.0	-34.6	25.0	0.00e+00	0	40	0	2471493632	40	6166
2026-01-04 07:24:08.83	304.47	11.77	-34.0	-34.6	25.0	0.00e+00	0	40	0	2478833664	40	6148
2026-01-04 07:24:09.84	304.65	11.74	-34.1	-34.8	24.9	0.00e+00	0	40	0	2486173696	40	6279
2026-01-04 07:24:10.85	304.84	11.71	-33.9	-34.6	24.9	0.00e+00	0	40	0	2493513728	40	6116
2026-01-04 07:24:11.86	305.02	11.68	-33.8	-34.4	25.1	0.00e+00	0	40	0	2500853760	40	6002
2026-01-04 07:24:12.87	305.20	11.65	-33.8	-34.5	25.0	0.00e+00	0	40	0	2508193792	40	6056
2026-01-04 07:24:13.87	305.38	11.62	-33.7	-34.4	25.1	0.00e+00	0	40	0	2515533824	40	5980
2026-01-04 07:24:14.88	305.56	11.59	-33.8	-34.4	25.1	0.00e+00	0	40	0	2522873856	40	6024
2026-01-04 07:24:15.89	305.74	11.56	-33.8	-34.5	25.1	0.00e+00	0	40	0	2530213888	40	6050
2026-01-04 07:24:16.90	305.92	11.53	-33.8	-34.4	25.2	0.00e+00	0	40	0	2537553920	40	6020
2026-01-04 07:24:17.91	306.10	11.50	-33.8	-34.5	25.1	0.00e+00	0	40	0	2544893952	40	6044
2026-01-04 07:24:18.92	306.28	11.47	-33.9	-34.6	25.1	0.00e+00	0	40	0	2552233984	40	6122
2026-01-04 07:24:19.93	306.46	11.44	-33.9	-34.5	25.0	0.00e+00	0	40	0	2558525440	40	6090
2026-01-04 07:24:20.94	306.64	11.41	-34.0	-34.6	24.9	0.00e+00	0	40	0	2565865472	40	6160
2026-01-04 07:24:21.95	306.81	11.38	-33.9	-34.6	24.9	0.00e+00	0	40	0	2574254080	40	6109
2026-01-04 07:24:22.96	306.99	11.35	-34.1	-34.7	24.9	0.00e+00	0	40	0	2580545536	40	6231
2026-01-04 07:24:23.97	307.17	11.32	-34.0	-34.7	24.8	0.00e+00	0	40	0	2587885568	40	6202
2026-01-04 07:24:24.98	307.35	11.28	-34.1	-34.8	24.8	0.00e+00	0	40	0	2595225600	40	6252
2026-01-04 07:24:25.99	307.52	11.25	-34.0	-34.7	24.8	0.00e+00	0	40	0	2602565632	40	6201
2026-01-04 07:24:27.00	307.70	11.22	-34.2	-34.8	24.6	0.00e+00	0	40	0	2609905664	40	6315
2026-01-04 07:24:28.01	307.88	11.19	-34.1	-34.8	24.8	0.00e+00	0	40	0	2617245696	40	6260
2026-01-04 07:24:29.02	308.05	11.16	-34.2	-34.9	24.8	0.00e+00	0	40	0	2624585728	40	6348
2026-01-04 07:24:30.03	308.23	11.12	-34.3	-34.9	24.6	0.00e+00	0	40	0	2631925760	40	6390
2026-01-04 07:24:31.04	308.40	11.09	-34.2	-34.9	24.6	0.00e+00	0	40	0	2639265792	40	6344
2026-01-04 07:24:32.05	308.58	11.06	-34.5	-35.1	24.6	0.00e+00	0	40	0	2646605824	40	6503
2026-01-04 07:24:33.06	308.75	11.02	-34.7	-35.4	24.4	0.00e+00	0	40	0	2653945856	42	5976
2026-01-04 07:24:34.07	308.93	10.99	-34.5	-35.1	24.7	0.00e+00	0	40	0	2661285888	42	5806
2026-01-04 07:24:35.08	309.10	10.96	-34.2	-34.9	24.7	0.00e+00	0	40	0	2668625920	42	5648
2026-01-04 07:24:36.09	309.27	10.92	-34.5	-35.1	24.6	0.00e+00	0	40	0	2675965952	42	5817
2026-01-04 07:24:37.10	309.44	10.89	-34.8	-35.4	24.3	0.00e+00	0	40	0	2683305984	42	6006
2026-01-04 07:24:38.11	309.62	10.85	-34.9	-35.5	24.6	0.00e+00	0	40	0	2690646016	42	6083
2026-01-04 07:24:39.12	309.79	10.82	-34.7	-35.3	24.6	0.00e+00	0	40	0	2697986048	42	5938
2026-01-04 07:24:40.13	309.96	10.79	-34.5	-35.2	24.4	0.00e+00	0	40	0	2705326080	42	5833
2026-01-04 07:24:41.14	310.13	10.75	-34.5	-35.2	24.6	0.00e+00	0	40	0	2712666112	42	5841
2026-01-04 07:24:42.15	310.30	10.72	-34.9	-35.6	24.2	0.00e+00	0	40	0	2720006144	42	6104
2026-01-04 07:24:43.16	310.47	10.68	-34.7	-35.3	24.6	0.00e+00	0	40	0	2727346176	42	5921
2026-01-04 07:24:44.17	310.64	10.65	-34.9	-35.5	24.8	0.00e+00	0	40	0	2733637632	42	6062
2026-01-04 07:24:45.18	310.81	10.61	-34.8	-35.5	24.4	0.00e+00	0	40	0	2740977664	42	6057
2026-01-04 07:24:46.19	310.98	10.57	-34.9	-35.5	24.4	0.00e+00	0	40	0	2748317696	42	6088
2026-01-04 07:24:47.20	311.15	10.54	-34.8	-35.4	24.4	0.00e+00	0	40	0	2755657728	42	6033
2026-01-04 07:24:48.21	311.32	10.50	-35.6	-36.3	24.1	0.00e+00	0	40	0	2762997760	42	6651
2026-01-04 07:24:49.22	311.48	10.47	-34.9	-35.5	24.4	0.00e+00	0	40	0	2770337792	42	6077
2026-01-04 07:24:50.23	311.65	10.43	-34.9	-35.5	24.3	0.00e+00	0	40	0	2777677824	42	6091
2026-01-04 07:24:51.24	311.82	10.39	-35.8	-36.5	23.7	0.00e+00	0	40	0	2785017856	44	6069
2026-01-04 07:24:52.25	311.99	10.36	-35.5	-36.1	24.0	0.00e+00	0	40	0	2792357888	44	5821
2026-01-04 07:24:53.26	312.15	10.32	-35.3	-36.0	23.8	0.00e+00	0	40	0	2799697920	44	5727
2026-01-04 07:24:54.27	312.32	10.28	-35.1	-35.7	24.0	0.00e+00	0	40	0	2807037952	44	5560
2026-01-04 07:24:55.28	312.48	10.25	-34.7	-35.4	24.2	0.00e+00	0	40	0	2814377984	44	5316
2026-01-04 07:24:56.29	312.65	10.21	-34.8	-35.4	24.2	0.00e+00	0	40	0	2821718016	42	6030
2026-01-04 07:24:57.30	312.81	10.17	-34.5	-35.2	24.5	0.00e+00	0	40	0	2829058048	42	5843
2026-01-04 07:24:58.31	312.98	10.14	-34.5	-35.1	24.5	0.00e+00	0	40	0	2836398080	42	5790
2026-01-04 07:24:59.32	313.14	10.10	-34.5	-35.1	24.4	0.00e+00	0	40	0	2843738112	42	5799
2026-01-04 07:25:00.33	313.30	10.06	-34.4	-35.0	24.5	0.00e+00	0	40	0	2851078144	42	5752
2026-01-04 07:25:01.34	313.47	10.02	-34.3	-35.0	24.5	0.00e+00	0	40	0	2857369600	42	5701
2026-01-04 07:25:02.35	313.63	9.98	-34.3	-34.9	24.7	0.00e+00	0	40	0	2865758208	42	5654
2026-01-04 07:25:03.36	313.79	9.95	-34.6	-35.2	24.5	0.00e+00	0	40	0	2873098240	42	5888
2026-01-04 07:25:04.37	313.95	9.91	-34.4	-35.0	24.7	0.00e+00	0	40	0	2879389696	42	5732
2026-01-04 07:25:05.38	314.12	9.87	-34.6	-35.2	24.6	0.00e+00	0	40	0	2886729728	42	5864
2026-01-04 07:25:06.39	314.28	9.83	-34.3	-35.0	24.6	0.00e+00	0	40	0	2894069760	42	5701
2026-01-04 07:25:07.40	314.44	9.79	-34.9	-35.5	24.5	0.00e+00	0	40	0	2901409792	42	6070
2026-01-04 07:25:08.41	314.60	9.75	-35.0	-35.7	24.2	0.00e+00	0	40	0	2908749824	42	6178
2026-01-04 07:25:09.41	314.75	9.71	-35.6	-36.3	23.9	0.00e+00	0	40	0	2916089856	42	6648
2026-01-04 07:25:10.42	314.91	9.67	-36.0	-36.7	23.9	0.00e+00	0	40	0	2923429888	44	6205
2026-01-04 07:25:11.43	315.07	9.64	-35.9	-36.6	23.8	0.00e+00	0	40	0	2930769920	44	6111
2026-01-04 07:25:12.44	315.23	9.60	-35.6	-36.3	23.9	0.00e+00	0	40	0	2938109952	44	5929
2026-01-04 07:25:13.45	315.39	9.56	-35.9	-36.5	23.6	0.00e+00	0	40	0	2945449984	44	6096
2026-01-04 07:25:14.46	315.55	9.52	-35.7	-36.4	23.8	0.00e+00	0	40	0	2952790016	44	5966
2026-01-04 07:25:15.47	315.70	9.48	-35.5	-36.2	23.7	0.00e+00	0	40	0	2960130048	44	5832
2026-01-04 07:25:16.48	315.86	9.44	-35.3	-36.0	23.8	0.00e+00	0	40	0	2967470080	44	5722
2026-01-04 07:25:17.49	316.02	9.40	-35.2	-35.9	24.0	0.00e+00	0	40	0	2974810112	44	5655
2026-01-04 07:25:18.50	316.17	9.36	-35.5	-36.1	23.9	0.00e+00	0	40	0	2982150144	44	5822
2026-01-04 07:25:19.51	316.33	9.32	-35.7	-36.3	23.6	0.00e+00	0	40	0	2989490176	44	5949
2026-01-04 07:25:20.52	316.48	9.28	-35.7	-36.3	23.7	0.00e+00	0	40	0	2996830208	44	5953
2026-01-04 07:25:21.53	316.64	9.24	-35.9	-36.5	23.5	0.00e+00	0	40	0	3004170240	44	6097
2026-01-04 07:25:22.54	316.79	9.20	-35.8	-36.5	23.4	0.00e+00	0	40	0	3010461696	44	6037
2026-01-04 07:25:23.55	316.95	9.15	-35.7	-36.4	23.4	0.00e+00	0	40	0	3018850304	44	5967
2026-01-04 07:25:24.56	317.10	9.11	-36.0	-36.6	23.3	0.00e+00	0	40	0	3026190336	44	6171
2026-01-04 07:25:25.57	317.25	9.07	-36.4	-37.1	23.0	0.00e+00	0	40	0	3032481792	44	6478
2026-01-04 07:25:26.58	317.41	9.03	-36.3	-37.0	23.5	0.00e+00	0	40	0	3039821824	44	6421
2026-01-04 07:25:27.58	317.56	8.99	-36.2	-36.9	23.1	0.00e+00	0	40	0	3047161856	44	6347
2026-01-04 07:25:28.59	317.71	8.95	-35.8	-36.4	23.4	0.00e+00	0	40	0	3054501888	44	6033
2026-01-04 07:25:29.60	317.86	8.91	-35.5	-36.1	23.7	0.00e+00	0	40	0	3061841920	44	5814
2026-01-04 07:25:30.61	318.01	8.87	-35.4	-36.0	23.7	0.00e+00	0	40	0	3069181952	44	5755
2026-01-04 07:25:31.62	318.16	8.83	-35.7	-36.4	23.7	0.00e+00	0	40	0	3076521984	44	5973
2026-01-04 07:25:32.63	318.31	8.78	-35.9	-36.6	23.6	0.00e+00	0	40	0	3083862016	44	6108
2026-01-04 07:25:33.64	318.46	8.74	-36.1	-36.8	23.1	0.00e+00	0	40	0	3091202048	44	6269
2026-01-04 07:25:34.65	318.61	8.70	-35.7	-36.4	23.5	0.00e+00	0	40	0	3098542080	44	5985
2026-01-04 07:25:35.66	318.76	8.66	-35.6	-36.3	23.7	0.00e+00	0	40	0	3105882112	44	5910
2026-01-04 07:25:36.67	318.91	8.62	-35.6	-36.2	23.7	0.00e+00	0	40	0	3113222144	44	5880
2026-01-04 07:25:37.68	319.06	8.57	-35.6	-36.2	23.7	0.00e+00	0	40	0	3120562176	44	5894
2026-01-04 07:25:38.69	319.20	8.53	-35.5	-36.2	23.6	0.00e+00	0	40	0	3127902208	44	5839
2026-01-04 07:25:39.70	319.35	8.49	-35.4	-36.1	23.7	0.00e+00	0	40	0	3135242240	44	5764
2026-01-04 07:25:40.71	319.50	8.45	-35.8	-36.4	23.6	0.00e+00	0	40	0	3142582272	44	6010
2026-01-04 07:25:41.72	319.64	8.41	-35.6	-36.2	23.6	0.00e+00	0	40	0	3149922304	44	5883
2026-01-04 07:25:42.73	319.79	8.36	-35.6	-36.3	23.6	0.00e+00	0	40	0	3156213760	44	5936
2026-01-04 07:25:43.73	319.93	8.32	-35.7	-36.4	23.5	0.00e+00	0	40	0	3163553792	44	5977
2026-01-04 07:25:44.74	320.08	8.28	-36.2	-36.9	23.1	0.00e+00	0	40	0	3170893824	44	6345
2026-01-04 07:25:45.75	320.22	8.24	-35.9	-36.6	23.3	0.00e+00	0	40	0	3178233856	44	6140
2026-01-04 07:25:46.75	320.37	8.19	-35.8	-36.4	23.5	0.00e+00	0	40	0	3185573888	44	6009
2026-01-04 07:25:47.76	320.51	8.15	-35.7	-36.4	23.4	0.00e+00	0	40	0	3192913920	44	6006
2026-01-04 07:25:48.77	320.65	8.11	-35.7	-36.4	23.3	0.00e+00	0	40	0	3200253952	44	5981
2026-01-04 07:25:49.78	320.80	8.06	-35.7	-36.4	23.3	0.00e+00	0	40	0	3207593984	44	5987
2026-01-04 07:25:50.79	320.94	8.02	-35.6	-36.3	23.5	0.00e+00	0	40	0	3214934016	44	5910
2026-01-04 07:25:51.80	321.08	7.98	-36.1	-36.8	23.4	0.00e+00	0	40	0	3222274048	44	6274
2026-01-04 07:25:52.81	321.22	7.93	-36.2	-36.9	23.5	0.00e+00	0	40	0	3229614080	44	6371
2026-01-04 07:25:53.82	321.37	7.89	-37.1	-37.8	23.3	0.00e+00	0	40	0	3236954112	44	7037
2026-01-04 07:25:54.83	321.51	7.85	-37.2	-38.0	22.9	0.00e+00	0	40	0	3244294144	46	6401
2026-01-04 07:25:55.84	321.65	7.80	-36.6	-37.3	23.4	0.00e+00	0	40	0	3251634176	46	5912
2026-01-04 07:25:56.85	321.79	7.76	-37.0	-37.6	23.6	0.00e+00	0	40	0	3258974208	46	6161
2026-01-04 07:25:57.86	321.93	7.72	-36.5	-37.2	23.7	0.00e+00	0	40	0	3266314240	46	5857
2026-01-04 07:25:58.87	322.07	7.67	-36.2	-36.9	23.5	0.00e+00	0	40	0	3273654272	46	5655
2026-01-04 07:25:59.88	322.21	7.63	-36.3	-36.9	23.7	0.00e+00	0	40	0	3280994304	44	6387
2026-01-04 07:26:00.88	322.34	7.59	-36.1	-36.7	23.7	0.00e+00	0	40	0	3287285760	44	6237
2026-01-04 07:26:01.89	322.48	7.54	-36.1	-36.7	23.8	0.00e+00	0	40	0	3294625792	44	6231
2026-01-04 07:26:02.90	322.62	7.50	-36.3	-36.9	23.7	0.00e+00	0	40	0	3303014400	44	6377
2026-01-04 07:26:03.91	322.76	7.45	-36.4	-37.0	23.6	0.00e+00	0	40	0	3309305856	44	6445
2026-01-04 07:26:04.92	322.89	7.41	-36.4	-37.1	23.4	0.00e+00	0	40	0	3316645888	44	6489
2026-01-04 07:26:05.93	323.03	7.36	-36.2	-36.9	23.4	0.00e+00	0	40	0	3323985920	44	6350
2026-01-04 07:26:06.94	323.17	7.32	-36.4	-37.1	23.2	0.00e+00	0	40	0	3331325952	44	6519
2026-01-04 07:26:07.95	323.30	7.28	-36.4	-37.1	23.1	0.00e+00	0	40	0	3338665984	46	5807
2026-01-04 07:26:08.96	323.44	7.23	-37.0	-37.8	22.7	0.00e+00	0	40	0	3346006016	46	6259
2026-01-04 07:26:09.97	323.57	7.19	-36.6	-37.3	23.0	0.00e+00	0	40	0	3353346048	46	5935
2026-01-04 07:26:10.98	323.71	7.14	-36.6	-37.3	22.9	0.00e+00	0	40	0	3360686080	46	5953
2026-01-04 07:26:11.99	323.84	7.10	-37.2	-37.9	22.8	0.00e+00	0	40	0	3368026112	48	5655
2026-01-04 07:26:13.00	323.98	7.05	-37.4	-38.1	22.6	0.00e+00	0	40	0	3375366144	48	5827
2026-01-04 07:26:14.01	324.11	7.01	-38.2	-38.9	22.5	0.00e+00	0	40	0	3382706176	48	6334
2026-01-04 07:26:15.02	324.24	6.96	-37.1	-37.8	22.8	0.00e+00	0	40	0	3390046208	48	5567
2026-01-04 07:26:16.02	324.37	6.92	-38.2	-38.9	22.9	0.00e+00	0	40	0	3397386240	48	6360
2026-01-04 07:26:17.04	324.51	6.88	-37.9	-38.6	22.7	0.00e+00	0	40	0	3404726272	48	6124
2026-01-04 07:26:18.05	324.64	6.83	-38.4	-39.1	22.6	0.00e+00	0	40	0	3412066304	48	6479
2026-01-04 07:26:19.05	324.77	6.79	-37.4	-38.1	23.0	0.00e+00	0	40	0	3419406336	48	5768
2026-01-04 07:26:20.06	324.90	6.74	-36.9	-37.6	23.0	0.00e+00	0	40	0	3426746368	48	5467
2026-01-04 07:26:21.07	325.03	6.70	-37.5	-38.1	23.2	0.00e+00	0	40	0	3434086400	46	6522
2026-01-04 07:26:22.08	325.16	6.65	-36.8	-37.5	23.2	0.00e+00	0	40	0	3440377856	46	6067
2026-01-04 07:26:23.09	325.29	6.61	-36.6	-37.3	23.2	0.00e+00	0	40	0	3448766464	46	5911
2026-01-04 07:26:24.10	325.42	6.56	-36.1	-36.8	23.3	0.00e+00	0	40	0	3456106496	46	5578
2026-01-04 07:26:25.11	325.55	6.52	-36.0	-36.7	23.3	0.00e+00	0	40	0	3462397952	46	5528
2026-01-04 07:26:26.12	325.68	6.47	-36.2	-36.9	23.5	0.00e+00	0	40	0	3469737984	46	5662
2026-01-04 07:26:27.13	325.81	6.43	-36.3	-37.0	23.3	0.00e+00	0	40	0	3477078016	46	5723
2026-01-04 07:26:28.14	325.94	6.38	-36.3	-36.9	23.4	0.00e+00	0	40	0	3484418048	46	5685
2026-01-04 07:26:29.15	326.06	6.33	-36.2	-36.9	23.5	0.00e+00	0	40	0	3491758080	46	5662
2026-01-04 07:26:30.16	326.19	6.29	-36.1	-36.8	23.3	0.00e+00	0	40	0	3499098112	46	5599
2026-01-04 07:26:31.16	326.32	6.24	-35.8	-36.5	23.3	0.00e+00	0	40	0	3506438144	46	5430
2026-01-04 07:26:32.17	326.44	6.20	-36.0	-36.7	23.2	0.00e+00	0	40	0	3513778176	46	5563
2026-01-04 07:26:33.18	326.57	6.15	-36.4	-37.1	22.8	0.00e+00	0	40	0	3521118208	46	5815
2026-01-04 07:26:34.19	326.70	6.11	-36.4	-37.1	22.8	0.00e+00	0	40	0	3528458240	46	5805
2026-01-04 07:26:35.20	326.82	6.06	-36.6	-37.3	22.8	0.00e+00	0	40	0	3535798272	46	5944
2026-01-04 07:26:36.21	326.95	6.02	-36.1	-36.8	22.7	0.00e+00	0	40	0	3543138304	46	5581
2026-01-04 07:26:37.22	327.07	5.97	-36.5	-37.2	22.6	0.00e+00	0	40	0	3550478336	46	5879
2026-01-04 07:26:38.23	327.19	5.93	-36.5	-37.2	22.6	0.00e+00	0	40	0	3557818368	46	5876
2026-01-04 07:26:39.23	327.32	5.88	-37.0	-37.8	22.3	0.00e+00	0	40	0	3564109824	46	6249
2026-01-04 07:26:40.24	327.44	5.84	-36.9	-37.6	22.4	0.00e+00	0	40	0	3571449856	46	6155
2026-01-04 07:26:41.25	327.56	5.79	-36.9	-37.6	22.3	0.00e+00	0	40	0	3579838464	46	6116
2026-01-04 07:26:42.26	327.69	5.74	-37.1	-37.8	22.3	0.00e+00	0	40	0	3586129920	46	6282
2026-01-04 07:26:43.27	327.81	5.70	-36.9	-37.7	22.2	0.00e+00	0	40	0	3593469952	46	6179
2026-01-04 07:26:44.28	327.93	5.65	-36.8	-37.5	22.4	0.00e+00	0	40	0	3600809984	46	6088
2026-01-04 07:26:45.29	328.05	5.61	-36.8	-37.5	22.4	0.00e+00	0	40	0	3608150016	46	6067
2026-01-04 07:26:46.29	328.17	5.56	-36.7	-37.4	22.5	0.00e+00	0	40	0	3615490048	46	6030
2026-01-04 07:26:47.30	328.29	5.52	-36.6	-37.3	22.5	0.00e+00	0	40	0	3622830080	46	5944
2026-01-04 07:26:48.31	328.42	5.47	-36.5	-37.2	22.4	0.00e+00	0	40	0	3630170112	46	5876
2026-01-04 07:26:49.32	328.54	5.42	-36.4	-37.1	22.4	0.00e+00	0	40	0	3637510144	46	5789
2026-01-04 07:26:50.33	328.66	5.38	-37.0	-37.7	22.3	0.00e+00	0	40	0	3644850176	46	6199
2026-01-04 07:26:51.34	328.77	5.33	-37.0	-37.7	22.4	0.00e+00	0	40	0	3652190208	46	6239
2026-01-04 07:26:52.35	328.89	5.29	-36.4	-37.1	22.4	0.00e+00	0	40	0	3659530240	46	5816
2026-01-04 07:26:53.36	329.01	5.24	-37.2	-37.9	22.3	0.00e+00	0	40	0	3666870272	46	6363
2026-01-04 07:26:54.37	329.13	5.19	-36.9	-37.6	22.5	0.00e+00	0	40	0	3674210304	46	6150
2026-01-04 07:26:55.38	329.25	5.15	-37.2	-37.9	22.2	0.00e+00	0	40	0	3681550336	46	6334
2026-01-04 07:26:56.39	329.37	5.10	-36.9	-37.6	22.3	0.00e+00	0	40	0	3688890368	46	6119
2026-01-04 07:26:57.40	329.48	5.06	-37.3	-38.0	22.6	0.00e+00	0	40	0	3696230400	46	6436
2026-01-04 07:26:58.41	329.60	5.01	-37.1	-37.7	22.6	0.00e+00	0	40	0	3703570432	46	6239
2026-01-04 07:26:59.42	329.72	4.96	-37.2	-37.9	22.6	0.00e+00	0	40	0	3710910464	46	6346
2026-01-04 07:27:00.43	329.83	4.92	-37.2	-37.9	22.4	0.00e+00	0	40	0	3717201920	46	6340
2026-01-04 07:27:01.44	329.95	4.87	-37.2	-37.9	22.5	0.00e+00	0	40	0	3724541952	46	6381
2026-01-04 07:27:02.45	330.07	4.83	-37.3	-38.0	22.3	0.00e+00	0	40	0	3732930560	46	6396
2026-01-04 07:27:03.46	330.18	4.78	-37.2	-37.9	22.2	0.00e+00	0	40	0	3739222016	46	6335
2026-01-04 07:27:04.47	330.30	4.73	-37.3	-38.0	22.0	0.00e+00	0	40	0	3746562048	46	6458
2026-01-04 07:27:05.48	330.41	4.69	-37.5	-38.2	21.8	0.00e+00	0	40	0	3753902080	46	6583
2026-01-04 07:27:06.49	330.53	4.64	-37.7	-38.4	21.6	0.00e+00	0	40	0	3761242112	48	6032
2026-01-04 07:27:07.49	330.64	4.60	-38.0	-38.7	21.5	0.00e+00	0	40	0	3768582144	48	6233
2026-01-04 07:27:08.51	330.75	4.55	-38.1	-38.9	21.4	0.00e+00	0	40	0	3775922176	48	6345
2026-01-04 07:27:09.51	330.86	4.50	-38.1	-38.9	21.4	0.00e+00	0	40	0	3783262208	48	6346
2026-01-04 07:27:10.52	330.98	4.46	-38.2	-38.9	21.2	0.00e+00	0	40	0	3790602240	48	6378
2026-01-04 07:27:11.53	331.09	4.41	-37.6	-38.3	21.1	0.00e+00	0	40	0	3797942272	48	5953
2026-01-04 07:27:12.54	331.20	4.36	-37.8	-38.6	21.0	0.00e+00	0	40	0	3805282304	48	6144
2026-01-04 07:27:13.55	331.31	4.32	-38.2	-39.0	20.5	0.00e+00	0	40	0	3812622336	48	6428
2026-01-04 07:27:14.56	331.43	4.27	-38.8	-39.6	20.0	0.00e+00	0	40	0	3819962368	50	6149
2026-01-04 07:27:15.57	331.54	4.23	-39.4	-40.3	19.4	0.00e+00	0	40	0	3827302400	50	6635
2026-01-04 07:27:16.58	331.65	4.18	-39.5	-40.5	18.8	0.00e+00	0	40	0	3834642432	50	6779
2026-01-04 07:27:17.59	331.76	4.13	-39.3	-40.3	18.8	0.00e+00	0	40	0	3841982464	52	5899
2026-01-04 07:27:18.60	331.87	4.09	-40.1	-41.2	17.4	0.00e+00	0	40	0	3849322496	52	6550
2026-01-04 07:27:19.61	331.98	4.04	-40.5	-41.7	16.6	0.00e+00	0	40	0	3856662528	52	6969
2026-01-04 07:27:20.62	332.09	3.99	-40.9	-42.2	15.4	0.00e+00	0	40	0	3862953984	54	6567
2026-01-04 07:27:21.63	332.20	3.95	-42.3	-43.9	14.0	0.00e+00	0	40	0	3870294016	56	7135
2026-01-04 07:27:22.64	332.31	3.90	-43.6	-45.6	12.2	1.02e-04	0	40	0	3877634048	58	7723
2026-01-04 07:27:23.65	332.41	3.86	-44.6	-47.2	10.3	2.17e-03	0	40	0	3884974080	60	8240
2026-01-04 07:27:24.66	332.52	3.81	-44.8	-48.0	8.4	2.50e-02	0	40	0	3892314112	60	9086
2026-01-04 07:27:25.67	332.63	3.76	-45.6	-49.8	6.3	1.21e-01	0	40	0	3899654144	60	11157
2026-01-04 07:27:26.68	332.74	3.72	-46.2	-51.5	4.7	7.48e-01	0	40	0	3903848448	60	13649
2026-01-04 07:27:27.69	332.85	3.67	-45.7	-51.8	4.0	8.15e-01	0	40	0	3903848448	60	14086
2026-01-04 07:27:28.69	332.95	3.62	-46.1	-54.8	3.7	8.44e-01	0	40	104	3903848448	60	19938
2026-01-04 07:27:29.70	333.06	3.58	-45.7	-55.3	3.6	8.45e-01	0	40	104	3903848448	60	21095
2026-01-04 07:27:30.71	333.16	3.53	-46.0	-56.2	3.6	8.46e-01	0	40	104	3903848448	60	23228
2026-01-04 07:27:31.72	333.27	3.49	-45.7	-56.2	3.6	8.46e-01	0	40	104	3903848448	60	23247
2026-01-04 07:27:32.73	333.38	3.44	-45.3	-56.1	3.6	8.46e-01	0	40	104	3903848448	60	22972
2026-01-04 07:27:33.74	333.48	3.39	-45.7	-56.8	3.6	8.46e-01	0	40	104	3903848448	60	24957
2026-01-04 07:27:34.74	333.59	3.35	-45.5	-56.6	3.6	8.46e-01	0	40	104	3903848448	60	24477
2026-01-04 07:27:35.75	333.69	3.30	-45.7	-57.0	3.6	8.44e-01	0	40	104	3903848448	60	25534
2026-01-04 07:27:36.76	333.79	3.26	-45.7	-56.7	3.6	8.45e-01	0	40	104	3903848448	60	24805
2026-01-04 07:27:37.77	333.90	3.21	-45.9	-57.0	3.5	8.46e-01	0	40	104	3903848448	60	25539
2026-01-04 07:27:38.78	334.00	3.16	-46.3	-57.4	3.6	8.45e-01	0	40	104	3903848448	60	26750
2026-01-04 07:27:39.79	334.11	3.12	-45.9	-57.0	3.6	8.45e-01	0	40	104	3903848448	60	25657
2026-01-04 07:27:40.79	334.21	3.07	-45.9	-57.1	3.6	8.45e-01	0	40	104	3903848448	60	25858
2026-01-04 07:27:41.80	334.31	3.02	-46.4	-57.6	3.6	8.46e-01	0	40	104	3903848448	60	27311
2026-01-04 07:27:42.81	334.41	2.98	-48.2	-59.2	3.6	8.46e-01	0	40	104	3903848448	60	33005
2026-01-04 07:27:43.82	334.52	2.93	-49.9	-61.4	3.6	8.45e-01	0	40	104	3903848448	60	42586
2026-01-04 07:27:44.83	334.62	2.89	-50.8	-62.1	3.6	8.45e-01	0	40	104	3903848448	60	45929
2026-01-04 07:27:45.83	334.72	2.84	-50.9	-62.1	3.5	8.45e-01	0	40	104	3903848448	60	45942
2026-01-04 07:27:46.85	334.82	2.79	-50.5	-61.7	3.6	8.46e-01	0	40	104	3903848448	60	43982
2026-01-04 07:27:47.86	334.92	2.75	-50.0	-61.4	3.6	8.46e-01	0	40	104	3903848448	60	42374
2026-01-04 07:27:48.86	335.02	2.70	-50.1	-61.4	3.6	8.45e-01	0	40	104	3903848448	60	42582
2026-01-04 07:27:49.87	335.12	2.65	-50.3	-61.6	3.5	8.46e-01	0	40	104	3903848448	60	43690
2026-01-04 07:27:50.88	335.22	2.61	-50.2	-61.6	3.6	8.45e-01	0	40	104	3903848448	60	43657
