passes_logs/2026/01/04/R4.6S_Anadyr/R4.6S_Anadyr__20260104_194926_SUOMI_NPP_rec.log

#Pass ID: 20260104_194926_SUOMI NPP
#Satellite: SUOMI NPP
#Configuration: NPP
#almurnet v.1.7.20251203
#Start time: 2026-01-04 19:49:28

#Version: 2.2.20231116
#Station: R4.6S_Anadyr
#Location: 177.4865 lon 64.73178 lat
#TLE: 1 37849U 11061A   26001.07732418  .00000182  00000+0  10735-3 0  9990
#TLE: 2 37849  98.7795 303.2470 0002580  87.2016 272.9455 14.19520779734739

#Time	Az	El	Level	Level2	SNR	BER	BlckErr	Temp	State	Recorded	gain1	gain2
2026-01-04 19:49:28.15	58.11	0.07	-49.2	-59.9	3.5	8.46e-01	0	27	0	0	60	35839
2026-01-04 19:49:29.15	58.04	0.12	-49.4	-64.6	3.6	1.51e+00	0	28	104	0	60	61601
2026-01-04 19:49:30.16	57.96	0.17	-49.2	-64.4	3.6	1.51e+00	0	28	104	0	60	60119
2026-01-04 19:49:31.17	57.88	0.21	-49.7	-64.9	3.6	1.51e+00	0	28	104	0	60	63226
2026-01-04 19:49:32.18	57.81	0.26	-49.3	-64.5	3.6	1.51e+00	0	28	104	0	60	60427
2026-01-04 19:49:33.19	57.73	0.31	-49.1	-64.4	3.6	1.51e+00	0	28	104	0	60	59647
2026-01-04 19:49:34.20	57.65	0.36	-49.0	-64.2	3.6	1.51e+00	0	28	104	0	60	58900
2026-01-04 19:49:35.21	57.57	0.41	-49.0	-64.2	3.6	1.51e+00	0	28	104	0	60	58677
2026-01-04 19:49:36.22	57.50	0.46	-48.7	-64.0	3.6	1.51e+00	0	28	104	0	60	57103
2026-01-04 19:49:37.24	57.42	0.51	-48.7	-63.9	3.6	1.51e+00	0	28	104	0	60	56444
2026-01-04 19:49:38.24	57.34	0.56	-48.6	-63.8	3.6	1.51e+00	0	28	104	0	60	55917
2026-01-04 19:49:39.25	57.26	0.61	-48.5	-63.8	3.6	1.51e+00	0	28	104	0	60	55664
2026-01-04 19:49:40.26	57.18	0.66	-48.5	-63.7	3.6	1.51e+00	0	28	104	0	60	55549
2026-01-04 19:49:41.27	57.10	0.71	-48.4	-63.6	3.6	1.51e+00	0	28	104	0	60	54617
2026-01-04 19:49:42.28	57.02	0.76	-48.2	-63.5	3.6	1.51e+00	0	28	104	0	60	53973
2026-01-04 19:49:43.29	56.94	0.81	-48.0	-63.2	3.6	1.51e+00	0	28	104	0	60	52191
2026-01-04 19:49:44.30	56.86	0.86	-47.4	-62.6	3.6	1.51e+00	0	28	104	0	60	48781
2026-01-04 19:49:45.31	56.78	0.90	-47.1	-62.3	3.6	1.51e+00	0	28	104	0	60	47070
2026-01-04 19:49:46.32	56.70	0.95	-47.1	-62.3	3.6	1.51e+00	0	28	104	0	60	47247
2026-01-04 19:49:47.33	56.62	1.00	-47.1	-62.2	3.6	1.51e+00	0	28	104	0	60	46799
2026-01-04 19:49:48.34	56.54	1.05	-47.1	-62.3	3.6	1.51e+00	0	28	104	0	60	47114
2026-01-04 19:49:49.34	56.46	1.10	-47.1	-62.3	3.6	1.51e+00	0	28	104	0	60	46932
2026-01-04 19:49:50.36	56.38	1.15	-47.1	-62.3	3.6	1.51e+00	0	28	104	0	60	46866
2026-01-04 19:49:51.37	56.29	1.20	-47.1	-62.3	3.6	1.51e+00	0	28	104	0	60	46868
2026-01-04 19:49:52.38	56.21	1.25	-47.1	-62.3	3.6	1.51e+00	0	28	104	0	60	47054
2026-01-04 19:49:53.38	56.13	1.30	-47.1	-62.3	3.6	1.51e+00	0	28	104	0	60	46895
2026-01-04 19:49:54.39	56.05	1.35	-47.1	-62.2	3.6	1.51e+00	0	28	104	0	60	46777
2026-01-04 19:49:55.40	55.96	1.40	-47.1	-62.3	3.6	1.51e+00	0	28	104	0	60	47216
2026-01-04 19:49:56.41	55.88	1.45	-47.1	-62.3	3.6	1.51e+00	0	28	104	0	60	47086
2026-01-04 19:49:57.42	55.80	1.50	-47.1	-62.2	3.6	1.51e+00	0	28	104	0	60	46813
2026-01-04 19:49:58.43	55.71	1.55	-47.1	-62.3	3.6	1.51e+00	0	29	104	0	60	46872
2026-01-04 19:49:59.44	55.63	1.60	-47.1	-62.2	3.6	1.51e+00	0	28	104	0	60	46700
2026-01-04 19:50:00.45	55.54	1.65	-47.1	-62.2	3.6	1.51e+00	0	28	104	0	60	46644
2026-01-04 19:50:01.46	55.46	1.70	-47.1	-62.2	3.6	1.51e+00	0	29	104	0	60	46821
2026-01-04 19:50:02.47	55.37	1.75	-47.1	-62.3	3.6	1.51e+00	0	28	104	0	60	47014
2026-01-04 19:50:03.48	55.29	1.80	-47.1	-62.3	3.6	1.51e+00	0	28	104	0	60	46945
2026-01-04 19:50:04.49	55.20	1.85	-47.1	-62.2	3.6	1.51e+00	0	28	104	0	60	46784
2026-01-04 19:50:05.50	55.11	1.90	-47.1	-62.3	3.6	1.51e+00	0	28	104	0	60	47051
2026-01-04 19:50:06.51	55.03	1.95	-47.1	-62.2	3.6	1.51e+00	0	29	104	0	60	46705
2026-01-04 19:50:07.52	54.94	2.00	-47.1	-62.2	3.6	1.51e+00	0	28	104	0	60	46565
2026-01-04 19:50:08.53	54.85	2.05	-47.1	-62.2	3.6	1.51e+00	0	28	104	0	60	46405
2026-01-04 19:50:09.54	54.77	2.10	-47.1	-61.9	3.6	1.51e+00	0	28	104	0	60	45107
2026-01-04 19:50:10.55	54.68	2.15	-47.1	-61.9	3.6	1.51e+00	0	28	104	0	60	44835
2026-01-04 19:50:11.56	54.59	2.20	-47.1	-62.0	3.6	1.51e+00	0	29	104	0	60	45495
2026-01-04 19:50:12.57	54.50	2.25	-47.1	-62.1	3.6	1.51e+00	0	29	104	0	60	45825
2026-01-04 19:50:13.58	54.41	2.30	-47.1	-62.3	3.6	1.51e+00	0	29	104	0	60	46921
2026-01-04 19:50:14.59	54.32	2.35	-47.1	-62.3	3.6	1.51e+00	0	29	104	0	60	47036
2026-01-04 19:50:15.60	54.24	2.40	-47.1	-62.2	3.6	1.51e+00	0	29	104	0	60	46582
2026-01-04 19:50:16.61	54.15	2.45	-47.1	-62.1	3.6	1.51e+00	0	29	104	0	60	46162
2026-01-04 19:50:17.62	54.06	2.50	-47.1	-62.2	3.6	1.51e+00	0	29	104	0	60	46561
2026-01-04 19:50:18.63	53.97	2.55	-47.1	-62.3	3.6	1.51e+00	0	29	104	0	60	46880
2026-01-04 19:50:19.64	53.87	2.60	-47.1	-62.2	3.6	1.51e+00	0	29	104	0	60	46438
2026-01-04 19:50:20.65	53.78	2.65	-47.1	-61.8	3.5	1.51e+00	0	29	104	0	60	44316
2026-01-04 19:50:21.66	53.69	2.71	-47.1	-61.0	3.6	1.51e+00	0	29	104	0	60	40419
2026-01-04 19:50:22.67	53.60	2.76	-47.1	-61.2	3.6	1.51e+00	0	28	104	0	60	41341
2026-01-04 19:50:23.68	53.51	2.81	-47.1	-61.9	3.6	1.51e+00	0	29	104	0	60	44763
2026-01-04 19:50:24.69	53.42	2.86	-47.1	-62.0	3.6	1.51e+00	0	29	104	0	60	45384
2026-01-04 19:50:25.70	53.32	2.91	-47.0	-59.5	3.6	1.51e+00	0	29	104	0	60	34121
2026-01-04 19:50:26.71	53.23	2.96	-46.8	-57.5	4.8	1.50e+00	92	29	104	0	60	27068
2026-01-04 19:50:27.72	53.14	3.01	-46.6	-54.3	6.0	5.35e-01	2	29	0	1048576	60	18836
2026-01-04 19:50:28.73	53.04	3.06	-47.1	-61.3	3.6	7.49e-01	0	29	104	2097152	60	41957
2026-01-04 19:50:29.74	52.95	3.11	-47.2	-61.9	3.6	1.51e+00	0	29	104	2097152	60	44954
2026-01-04 19:50:30.75	52.86	3.16	-46.2	-53.5	7.2	8.00e-01	0	29	104	2097152	60	17045
2026-01-04 19:50:31.76	52.76	3.21	-42.8	-45.1	16.3	3.29e-02	87	29	0	3145728	60	6511
2026-01-04 19:50:32.77	52.67	3.26	-47.0	-61.2	3.6	3.50e-04	0	29	104	4194304	60	41581
2026-01-04 19:50:33.78	52.57	3.31	-44.5	-48.2	5.9	1.41e+00	0	29	104	4194304	60	9316
2026-01-04 19:50:34.79	52.48	3.36	-43.1	-45.6	16.1	0.00e+00	2	29	0	4194304	60	6861
2026-01-04 19:50:35.80	52.38	3.41	-42.6	-44.9	16.2	0.00e+00	0	29	0	6291456	58	7111
2026-01-04 19:50:36.81	52.28	3.47	-42.3	-44.5	17.0	0.00e+00	88	29	0	8388608	58	6790
2026-01-04 19:50:37.82	52.19	3.52	-42.2	-44.3	17.0	0.00e+00	0	29	0	9437184	58	6639
2026-01-04 19:50:38.83	52.09	3.57	-41.9	-43.8	17.5	0.00e+00	92	28	0	11534336	58	6281
2026-01-04 19:50:39.83	51.99	3.62	-42.2	-44.3	17.1	0.00e+00	0	29	0	13631488	58	6662
2026-01-04 19:50:40.84	51.90	3.67	-42.2	-44.3	17.1	0.00e+00	92	29	0	15728640	58	6644
2026-01-04 19:50:41.85	51.80	3.72	-42.1	-44.1	17.1	0.00e+00	2	29	0	17825792	58	6479
2026-01-04 19:50:42.86	51.70	3.77	-42.4	-44.5	16.9	0.00e+00	0	29	0	18874368	58	6836
2026-01-04 19:50:43.87	51.60	3.82	-42.5	-44.6	16.7	0.00e+00	81	29	0	20971520	58	6892
2026-01-04 19:50:44.88	51.50	3.87	-42.6	-44.9	16.8	0.00e+00	0	29	0	23068672	58	7091
2026-01-04 19:50:45.89	51.40	3.92	-42.3	-44.4	17.1	0.00e+00	70	29	0	25165824	58	6720
2026-01-04 19:50:46.90	51.30	3.97	-42.3	-44.3	17.2	0.00e+00	0	29	0	27262976	58	6684
2026-01-04 19:50:47.91	51.20	4.02	-42.6	-44.8	16.6	0.00e+00	78	29	0	28311552	58	7046
2026-01-04 19:50:48.92	51.10	4.08	-41.9	-43.8	17.8	0.00e+00	0	29	0	30408704	58	6291
2026-01-04 19:50:49.93	51.00	4.13	-41.8	-43.7	17.8	0.00e+00	2	29	0	32505856	56	6939
2026-01-04 19:50:50.94	50.90	4.18	-41.7	-43.5	18.0	0.00e+00	92	29	0	34603008	56	6812
2026-01-04 19:50:51.94	50.80	4.23	-42.0	-43.9	17.6	0.00e+00	0	29	0	36700160	56	7112
2026-01-04 19:50:52.95	50.70	4.28	-41.9	-43.7	17.9	0.00e+00	91	29	0	37748736	56	6992
2026-01-04 19:50:53.96	50.60	4.33	-41.4	-43.1	18.3	0.00e+00	0	29	0	39845888	56	6527
2026-01-04 19:50:54.97	50.49	4.38	-42.0	-44.0	17.5	0.00e+00	90	29	0	41943040	56	7188
2026-01-04 19:50:55.98	50.39	4.43	-41.9	-43.7	17.8	0.00e+00	0	29	0	44040192	56	6993
2026-01-04 19:50:56.99	50.29	4.48	-41.9	-43.8	17.8	0.00e+00	76	29	0	46137344	56	7055
2026-01-04 19:50:58.00	50.18	4.53	-41.9	-43.7	17.7	0.00e+00	58	29	0	47185920	56	6978
2026-01-04 19:50:59.01	50.08	4.59	-41.9	-43.8	17.8	0.00e+00	0	29	0	49283072	56	7073
2026-01-04 19:51:00.02	49.97	4.64	-41.8	-43.7	17.8	0.00e+00	60	29	0	51380224	56	6956
2026-01-04 19:51:01.03	49.87	4.69	-42.0	-43.9	17.7	0.00e+00	0	29	0	53477376	56	7125
2026-01-04 19:51:02.04	49.76	4.74	-42.0	-43.9	17.7	0.00e+00	70	29	0	55574528	56	7161
2026-01-04 19:51:03.05	49.66	4.79	-41.9	-43.7	17.9	0.00e+00	0	29	0	57671680	56	6971
2026-01-04 19:51:04.06	49.55	4.84	-42.0	-43.8	17.8	0.00e+00	64	29	0	58720256	56	7063
2026-01-04 19:51:05.07	49.45	4.89	-41.9	-43.7	18.0	0.00e+00	72	29	0	60817408	56	6997
2026-01-04 19:51:06.08	49.34	4.94	-43.1	-45.4	16.2	0.00e+00	0	29	0	62914560	58	7558
2026-01-04 19:51:07.09	49.23	5.00	-43.0	-45.3	16.2	0.00e+00	3	29	0	65011712	58	7464
2026-01-04 19:51:08.10	49.12	5.05	-42.4	-44.4	17.2	0.00e+00	0	29	0	67108864	58	6724
2026-01-04 19:51:09.11	49.02	5.10	-43.1	-45.4	16.1	0.00e+00	62	29	0	68157440	58	7579
2026-01-04 19:51:10.12	48.91	5.15	-42.9	-45.1	16.4	0.00e+00	0	29	0	70254592	58	7332
2026-01-04 19:51:11.13	48.80	5.20	-43.1	-45.5	15.6	0.00e+00	92	29	0	72351744	58	7618
2026-01-04 19:51:12.13	48.69	5.25	-43.2	-45.6	16.3	0.00e+00	92	29	0	74448896	58	7725
2026-01-04 19:51:13.14	48.58	5.30	-43.1	-45.5	16.3	0.00e+00	0	29	0	76546048	58	7606
2026-01-04 19:51:14.15	48.47	5.35	-43.5	-46.1	16.1	0.00e+00	92	29	0	77594624	58	8144
2026-01-04 19:51:15.16	48.36	5.40	-43.5	-46.0	15.3	0.00e+00	0	29	0	79691776	58	8123
2026-01-04 19:51:16.17	48.25	5.46	-43.5	-46.0	15.8	0.00e+00	92	29	0	81788928	60	7252
2026-01-04 19:51:17.18	48.14	5.51	-43.6	-46.1	15.6	0.00e+00	0	29	0	83886080	60	7311
2026-01-04 19:51:18.19	48.03	5.56	-43.1	-45.3	16.7	0.00e+00	92	29	0	85983232	60	6658
2026-01-04 19:51:19.20	47.92	5.61	-42.3	-44.2	17.4	0.00e+00	32	29	0	87031808	58	6586
2026-01-04 19:51:20.21	47.80	5.66	-42.4	-44.4	17.6	0.00e+00	0	29	0	89128960	58	6707
2026-01-04 19:51:21.22	47.69	5.71	-41.7	-43.4	18.3	0.00e+00	92	29	0	91226112	56	6722
2026-01-04 19:51:22.23	47.58	5.76	-41.6	-43.2	18.5	0.00e+00	0	29	0	93323264	56	6605
2026-01-04 19:51:23.24	47.46	5.81	-41.3	-42.8	18.9	0.00e+00	22	29	0	95420416	56	6314
2026-01-04 19:51:24.25	47.35	5.86	-41.0	-42.6	19.2	0.00e+00	0	29	0	96468992	56	6121
2026-01-04 19:51:25.26	47.24	5.92	-41.3	-42.9	18.8	0.00e+00	91	29	0	98566144	56	6361
2026-01-04 19:51:26.27	47.12	5.97	-41.0	-42.5	19.2	0.00e+00	3	29	0	100663296	56	6050
2026-01-04 19:51:27.28	47.01	6.02	-40.8	-42.3	19.3	0.00e+00	0	29	0	102760448	54	6677
2026-01-04 19:51:28.28	46.89	6.07	-40.9	-42.4	19.4	0.00e+00	90	29	0	104857600	54	6750
2026-01-04 19:51:29.29	46.78	6.12	-41.1	-42.7	19.0	0.00e+00	0	29	0	105906176	54	6943
2026-01-04 19:51:30.30	46.66	6.17	-40.9	-42.4	19.2	0.00e+00	9	29	0	108003328	54	6723
2026-01-04 19:51:31.31	46.54	6.22	-40.7	-42.2	19.4	0.00e+00	0	29	0	110100480	54	6574
2026-01-04 19:51:32.32	46.42	6.27	-40.6	-42.0	19.7	0.00e+00	92	29	0	112197632	54	6407
2026-01-04 19:51:33.33	46.31	6.32	-40.5	-41.9	19.7	0.00e+00	0	29	0	114294784	54	6358
2026-01-04 19:51:34.34	46.19	6.37	-40.6	-42.0	19.6	0.00e+00	0	29	0	115343360	54	6460
2026-01-04 19:51:35.35	46.07	6.43	-41.2	-42.8	19.0	0.00e+00	92	29	0	117440512	54	7012
2026-01-04 19:51:36.36	45.95	6.48	-41.2	-42.8	18.6	0.00e+00	0	29	0	119537664	54	7068
2026-01-04 19:51:37.37	45.83	6.53	-41.3	-42.8	19.1	0.00e+00	3	29	0	121634816	54	7068
2026-01-04 19:51:38.37	45.71	6.58	-40.9	-42.4	19.2	0.00e+00	0	29	0	123731968	54	6719
2026-01-04 19:51:39.39	45.59	6.63	-40.9	-42.4	19.2	0.00e+00	90	29	0	125829120	54	6763
2026-01-04 19:51:40.39	45.47	6.68	-40.6	-42.0	19.7	0.00e+00	0	29	0	126877696	54	6424
2026-01-04 19:51:41.40	45.35	6.73	-40.9	-42.4	19.3	0.00e+00	67	29	0	128974848	54	6767
2026-01-04 19:51:42.41	45.23	6.78	-40.8	-42.3	19.6	0.00e+00	91	29	0	131072000	54	6616
2026-01-04 19:51:43.42	45.11	6.83	-41.3	-42.8	19.2	0.00e+00	0	29	0	133169152	54	7085
2026-01-04 19:51:44.43	44.98	6.88	-41.1	-42.6	19.1	0.00e+00	36	29	0	135266304	54	6911
2026-01-04 19:51:45.45	44.86	6.93	-40.7	-42.2	19.6	0.00e+00	0	29	0	136314880	54	6568
2026-01-04 19:51:46.45	44.74	6.99	-40.9	-42.4	19.3	0.00e+00	74	29	0	138412032	54	6764
2026-01-04 19:51:47.46	44.61	7.04	-40.8	-42.3	19.4	0.00e+00	0	29	0	140509184	54	6625
2026-01-04 19:51:48.47	44.49	7.09	-41.0	-42.5	19.2	0.00e+00	90	29	0	142606336	54	6833
2026-01-04 19:51:49.48	44.37	7.14	-40.7	-42.1	19.5	0.00e+00	9	29	0	144703488	54	6522
2026-01-04 19:51:50.49	44.24	7.19	-41.0	-42.5	19.2	0.00e+00	0	29	0	145752064	54	6784
2026-01-04 19:51:51.50	44.12	7.24	-40.8	-42.3	19.4	0.00e+00	57	29	0	147849216	54	6648
2026-01-04 19:51:52.51	43.99	7.29	-40.8	-42.3	19.2	0.00e+00	0	29	0	149946368	54	6661
2026-01-04 19:51:53.52	43.86	7.34	-41.0	-42.5	19.2	0.00e+00	64	29	0	152043520	54	6827
2026-01-04 19:51:54.53	43.74	7.39	-40.6	-42.0	19.6	0.00e+00	0	29	0	154140672	54	6463
2026-01-04 19:51:55.54	43.61	7.44	-40.7	-42.1	19.5	0.00e+00	72	29	0	155189248	54	6528
2026-01-04 19:51:56.55	43.48	7.49	-40.7	-42.1	19.6	0.00e+00	0	29	0	157286400	54	6522
2026-01-04 19:51:57.56	43.35	7.54	-41.0	-42.5	19.3	0.00e+00	0	29	0	159383552	54	6818
2026-01-04 19:51:58.57	43.22	7.59	-40.8	-42.3	19.6	0.00e+00	92	29	0	161480704	54	6627
2026-01-04 19:51:59.58	43.09	7.64	-40.7	-42.1	19.6	0.00e+00	0	29	0	163577856	54	6531
2026-01-04 19:52:00.59	42.96	7.69	-40.7	-42.2	19.7	0.00e+00	76	29	0	164626432	54	6550
2026-01-04 19:52:01.60	42.83	7.74	-40.5	-41.9	19.8	0.00e+00	0	29	0	166723584	54	6361
2026-01-04 19:52:02.60	42.71	7.79	-40.8	-42.3	19.3	0.00e+00	0	29	0	168820736	54	6636
2026-01-04 19:52:03.61	42.57	7.84	-40.9	-42.4	19.4	2.20e-06	15	29	0	170917888	54	6745
2026-01-04 19:52:04.62	42.44	7.89	-40.6	-42.0	19.7	0.00e+00	0	29	0	173015040	54	6408
2026-01-04 19:52:05.63	42.31	7.94	-40.5	-41.9	19.9	0.00e+00	92	29	0	174063616	54	6349
2026-01-04 19:52:06.64	42.18	7.99	-40.3	-41.6	20.1	0.00e+00	0	29	0	176160768	54	6135
2026-01-04 19:52:07.65	42.05	8.04	-40.4	-41.8	20.1	0.00e+00	58	29	0	178257920	54	6269
2026-01-04 19:52:08.66	41.91	8.09	-40.4	-41.8	20.0	0.00e+00	0	29	0	180355072	54	6263
2026-01-04 19:52:09.67	41.78	8.14	-40.5	-41.9	19.9	0.00e+00	0	29	0	182452224	54	6319
2026-01-04 19:52:10.68	41.64	8.19	-40.3	-41.6	20.2	0.00e+00	0	29	0	183500800	54	6126
2026-01-04 19:52:11.69	41.51	8.24	-40.2	-41.6	20.2	0.00e+00	0	29	0	185597952	54	6124
2026-01-04 19:52:12.70	41.37	8.29	-40.2	-41.5	20.1	0.00e+00	80	29	0	187695104	54	6100
2026-01-04 19:52:13.71	41.24	8.34	-40.3	-41.7	20.1	0.00e+00	0	29	0	189792256	54	6181
2026-01-04 19:52:14.72	41.10	8.39	-40.4	-41.8	20.0	0.00e+00	92	29	0	191889408	54	6259
2026-01-04 19:52:15.73	40.97	8.44	-40.4	-41.8	19.9	0.00e+00	0	29	0	193986560	54	6308
2026-01-04 19:52:16.74	40.83	8.49	-40.6	-42.1	19.7	0.00e+00	0	29	0	195035136	54	6485
2026-01-04 19:52:17.75	40.69	8.54	-40.7	-42.2	19.6	0.00e+00	0	29	0	197132288	54	6546
2026-01-04 19:52:18.76	40.55	8.59	-41.1	-42.6	19.2	0.00e+00	0	29	0	199229440	54	6909
2026-01-04 19:52:19.77	40.41	8.64	-41.0	-42.6	19.3	0.00e+00	86	29	0	201326592	54	6860
2026-01-04 19:52:20.78	40.28	8.69	-40.9	-42.4	19.4	0.00e+00	0	29	0	203423744	54	6729
2026-01-04 19:52:21.78	40.14	8.74	-40.6	-42.0	19.7	0.00e+00	92	29	0	204472320	54	6451
2026-01-04 19:52:22.79	40.00	8.79	-40.6	-42.0	19.7	0.00e+00	0	29	0	206569472	54	6448
2026-01-04 19:52:23.80	39.86	8.84	-40.6	-42.0	19.9	0.00e+00	71	29	0	208666624	54	6447
2026-01-04 19:52:24.81	39.72	8.89	-40.7	-42.1	19.7	0.00e+00	0	29	0	210763776	54	6535
2026-01-04 19:52:25.82	39.57	8.93	-40.6	-42.0	19.8	0.00e+00	0	29	0	212860928	54	6450
2026-01-04 19:52:26.83	39.43	8.98	-40.9	-42.3	19.5	0.00e+00	6	29	0	213909504	54	6671
2026-01-04 19:52:27.84	39.29	9.03	-40.9	-42.4	19.5	0.00e+00	0	29	0	216006656	54	6705
2026-01-04 19:52:28.85	39.15	9.08	-40.4	-41.8	20.0	0.00e+00	31	29	0	218103808	54	6264
2026-01-04 19:52:29.86	39.00	9.13	-40.2	-41.6	20.3	0.00e+00	0	29	0	220200960	54	6114
2026-01-04 19:52:30.86	38.86	9.18	-40.3	-41.6	20.2	0.00e+00	75	29	0	222298112	54	6171
2026-01-04 19:52:31.87	38.72	9.23	-40.0	-41.2	20.5	0.00e+00	0	29	0	223346688	54	5894
2026-01-04 19:52:32.89	38.57	9.27	-40.3	-41.7	20.2	0.00e+00	0	29	0	225443840	54	6203
2026-01-04 19:52:33.89	38.43	9.32	-40.2	-41.5	20.4	0.00e+00	4	29	0	227540992	54	6066
2026-01-04 19:52:34.90	38.28	9.37	-40.1	-41.4	20.6	0.00e+00	0	29	0	229638144	54	6007
2026-01-04 19:52:35.91	38.13	9.42	-40.0	-41.3	20.5	0.00e+00	4	29	0	231735296	54	5916
2026-01-04 19:52:36.92	37.99	9.47	-39.9	-41.2	20.7	0.00e+00	0	29	0	232783872	54	5864
2026-01-04 19:52:37.93	37.84	9.52	-39.9	-41.2	20.5	0.00e+00	62	29	0	234881024	52	6576
2026-01-04 19:52:38.94	37.69	9.56	-40.1	-41.4	20.5	0.00e+00	0	29	0	236978176	52	6697
2026-01-04 19:52:39.95	37.54	9.61	-40.3	-41.7	20.1	0.00e+00	0	29	0	239075328	52	6935
2026-01-04 19:52:40.96	37.40	9.66	-39.9	-41.2	20.8	0.00e+00	0	29	0	241172480	52	6569
2026-01-04 19:52:41.97	37.25	9.71	-40.1	-41.4	20.3	0.00e+00	0	29	0	242221056	52	6755
2026-01-04 19:52:42.98	37.10	9.75	-39.5	-40.6	21.1	0.00e+00	0	29	0	244318208	52	6155
2026-01-04 19:52:43.99	36.95	9.80	-39.0	-40.1	21.3	0.00e+00	0	29	0	246415360	52	5827
2026-01-04 19:52:45.00	36.80	9.85	-38.7	-39.8	21.7	0.00e+00	33	29	0	248512512	52	5571
2026-01-04 19:52:46.01	36.64	9.90	-38.3	-39.3	22.2	0.00e+00	0	29	0	250609664	50	5943
2026-01-04 19:52:47.02	36.49	9.94	-38.3	-39.4	22.2	0.00e+00	0	29	0	251658240	50	5966
2026-01-04 19:52:48.03	36.34	9.99	-38.5	-39.5	22.1	0.00e+00	0	29	0	253755392	50	6078
2026-01-04 19:52:49.04	36.19	10.04	-38.4	-39.5	22.1	0.00e+00	0	29	0	255852544	50	6047
2026-01-04 19:52:50.04	36.04	10.08	-38.5	-39.5	22.0	0.00e+00	0	29	0	257949696	50	6080
2026-01-04 19:52:51.05	35.88	10.13	-38.6	-39.6	22.0	0.00e+00	0	29	0	260046848	50	6156
2026-01-04 19:52:52.06	35.73	10.18	-38.8	-39.9	21.8	0.00e+00	67	29	0	262144000	50	6342
2026-01-04 19:52:53.07	35.57	10.22	-38.7	-39.8	21.6	0.00e+00	0	29	0	263192576	50	6294
2026-01-04 19:52:54.08	35.42	10.27	-38.9	-40.0	21.7	0.00e+00	0	29	0	265289728	50	6457
2026-01-04 19:52:55.09	35.26	10.32	-39.2	-40.3	21.4	0.00e+00	0	29	0	267386880	50	6675
2026-01-04 19:52:56.10	35.11	10.36	-39.4	-40.7	20.9	0.00e+00	0	29	0	269484032	50	6931
2026-01-04 19:52:57.11	34.95	10.41	-39.5	-40.7	21.1	0.00e+00	0	29	0	271581184	50	6959
2026-01-04 19:52:58.12	34.79	10.45	-39.2	-40.4	21.3	0.00e+00	0	29	0	272629760	50	6753
2026-01-04 19:52:59.13	34.63	10.50	-39.2	-40.3	21.4	0.00e+00	92	29	0	274726912	50	6663
2026-01-04 19:53:00.14	34.48	10.54	-38.7	-39.8	21.9	0.00e+00	0	29	0	276824064	50	6307
2026-01-04 19:53:01.15	34.32	10.59	-38.5	-39.6	22.1	0.00e+00	14	29	0	278921216	50	6147
2026-01-04 19:53:02.16	34.16	10.64	-38.6	-39.7	21.9	0.00e+00	4	29	0	279969792	50	6177
2026-01-04 19:53:03.17	34.00	10.68	-38.6	-39.6	21.9	0.00e+00	0	29	0	282066944	50	6148
2026-01-04 19:53:04.18	33.84	10.73	-38.5	-39.6	22.0	0.00e+00	6	29	0	284164096	50	6116
2026-01-04 19:53:05.19	33.68	10.77	-38.3	-39.4	22.2	0.00e+00	0	29	0	286261248	50	5991
2026-01-04 19:53:06.20	33.52	10.82	-38.1	-39.1	22.3	0.00e+00	92	29	0	288358400	50	5794
2026-01-04 19:53:07.21	33.35	10.86	-38.1	-39.1	22.5	0.00e+00	0	29	0	290455552	50	5767
2026-01-04 19:53:08.22	33.19	10.90	-37.9	-38.9	22.6	0.00e+00	22	29	0	291504128	48	6329
2026-01-04 19:53:09.23	33.03	10.95	-37.7	-38.6	22.8	0.00e+00	0	29	0	293601280	48	6136
2026-01-04 19:53:10.23	32.87	10.99	-37.7	-38.6	22.9	0.00e+00	0	29	0	295698432	48	6148
2026-01-04 19:53:11.24	32.70	11.04	-37.8	-38.8	22.7	0.00e+00	0	29	0	297795584	48	6262
2026-01-04 19:53:12.26	32.54	11.08	-37.9	-38.8	22.8	0.00e+00	0	29	0	299892736	48	6316
2026-01-04 19:53:13.26	32.37	11.12	-37.9	-38.9	22.6	0.00e+00	41	29	0	300941312	48	6360
2026-01-04 19:53:14.27	32.21	11.17	-38.0	-39.0	22.4	0.00e+00	0	29	0	303038464	48	6461
2026-01-04 19:53:15.28	32.04	11.21	-38.0	-38.9	22.6	0.00e+00	92	29	0	305135616	48	6381
2026-01-04 19:53:16.29	31.88	11.26	-38.1	-39.1	22.3	0.00e+00	0	29	0	307232768	48	6486
2026-01-04 19:53:17.30	31.71	11.30	-38.2	-39.2	22.4	0.00e+00	0	29	0	309329920	48	6604
2026-01-04 19:53:18.31	31.54	11.34	-38.2	-39.2	22.4	0.00e+00	0	29	0	310378496	48	6586
2026-01-04 19:53:19.32	31.37	11.38	-37.9	-38.9	22.5	0.00e+00	0	29	0	312475648	48	6350
2026-01-04 19:53:20.33	31.21	11.43	-37.6	-38.5	22.9	0.00e+00	92	29	0	314572800	48	6088
2026-01-04 19:53:21.34	31.04	11.47	-37.3	-38.2	23.2	0.00e+00	0	29	0	316669952	48	5868
2026-01-04 19:53:22.35	30.87	11.51	-37.2	-38.0	23.3	0.00e+00	65	29	0	318767104	48	5760
2026-01-04 19:53:23.36	30.70	11.55	-37.1	-38.0	23.3	0.00e+00	0	29	0	319815680	48	5754
2026-01-04 19:53:24.37	30.53	11.60	-37.6	-38.6	23.2	0.00e+00	0	29	0	321912832	48	6111
2026-01-04 19:53:25.38	30.36	11.64	-37.3	-38.2	23.3	0.00e+00	0	29	0	324009984	48	5846
2026-01-04 19:53:26.39	30.19	11.68	-38.1	-39.1	22.4	0.00e+00	0	29	0	326107136	48	6528
2026-01-04 19:53:27.40	30.01	11.72	-38.2	-39.2	22.4	0.00e+00	75	29	0	328204288	48	6591
2026-01-04 19:53:28.41	29.84	11.76	-38.0	-39.1	22.5	0.00e+00	0	29	0	329252864	48	6475
2026-01-04 19:53:29.42	29.67	11.80	-38.1	-39.2	22.3	0.00e+00	90	29	0	331350016	48	6544
2026-01-04 19:53:30.43	29.50	11.84	-38.1	-39.1	22.6	0.00e+00	0	29	0	333447168	48	6527
2026-01-04 19:53:31.44	29.32	11.88	-38.3	-39.4	22.3	0.00e+00	0	29	0	335544320	48	6704
2026-01-04 19:53:32.45	29.15	11.93	-38.4	-39.5	22.2	0.00e+00	0	29	0	337641472	48	6807
2026-01-04 19:53:33.46	28.97	11.97	-38.4	-39.5	22.1	0.00e+00	0	29	0	339738624	48	6792
2026-01-04 19:53:34.47	28.80	12.01	-38.4	-39.4	22.3	0.00e+00	64	29	0	340787200	48	6747
2026-01-04 19:53:35.48	28.62	12.05	-38.5	-39.5	21.8	0.00e+00	0	29	0	342884352	48	6827
2026-01-04 19:53:36.49	28.45	12.09	-38.2	-39.2	22.4	0.00e+00	86	29	0	344981504	48	6614
2026-01-04 19:53:37.50	28.27	12.13	-38.0	-39.0	22.6	0.00e+00	0	29	0	347078656	48	6432
2026-01-04 19:53:38.51	28.09	12.16	-38.1	-39.1	22.6	0.00e+00	88	29	0	348127232	48	6529
2026-01-04 19:53:39.52	27.92	12.20	-38.0	-39.0	22.6	0.00e+00	0	29	0	350224384	48	6437
2026-01-04 19:53:40.53	27.74	12.24	-38.3	-39.3	22.4	0.00e+00	0	29	0	352321536	48	6627
2026-01-04 19:53:41.54	27.56	12.28	-38.3	-39.3	22.3	0.00e+00	57	29	0	354418688	48	6672
2026-01-04 19:53:42.55	27.38	12.32	-38.4	-39.4	22.3	0.00e+00	0	29	0	356515840	48	6753
2026-01-04 19:53:43.56	27.20	12.36	-38.3	-39.3	22.3	0.00e+00	89	29	0	358612992	48	6648
2026-01-04 19:53:44.57	27.02	12.40	-38.4	-39.5	22.2	0.00e+00	0	29	0	359661568	48	6775
2026-01-04 19:53:45.58	26.84	12.43	-38.3	-39.3	22.4	0.00e+00	36	29	0	361758720	48	6675
2026-01-04 19:53:46.59	26.66	12.47	-38.4	-39.5	22.2	0.00e+00	0	29	0	363855872	48	6804
2026-01-04 19:53:47.59	26.48	12.51	-38.5	-39.6	22.2	0.00e+00	0	29	0	365953024	48	6880
2026-01-04 19:53:48.60	26.30	12.55	-38.1	-39.1	22.5	0.00e+00	0	29	0	368050176	48	6528
2026-01-04 19:53:49.61	26.12	12.58	-38.0	-39.0	22.5	0.00e+00	0	29	0	369098752	48	6420
2026-01-04 19:53:50.62	25.93	12.62	-37.7	-38.6	22.9	0.00e+00	3	29	0	371195904	48	6171
2026-01-04 19:53:51.63	25.75	12.66	-37.7	-38.6	22.9	0.00e+00	0	29	0	373293056	48	6165
2026-01-04 19:53:52.64	25.57	12.69	-37.6	-38.5	23.0	0.00e+00	92	29	0	375390208	48	6064
2026-01-04 19:53:53.65	25.38	12.73	-37.9	-38.8	22.8	0.00e+00	0	29	0	377487360	48	6311
2026-01-04 19:53:54.66	25.20	12.76	-37.8	-38.7	22.8	0.00e+00	0	29	0	378535936	48	6207
2026-01-04 19:53:55.67	25.01	12.80	-38.2	-39.2	22.5	0.00e+00	0	29	0	380633088	48	6585
2026-01-04 19:53:56.68	24.83	12.83	-38.0	-39.0	22.7	0.00e+00	0	29	0	382730240	48	6421
2026-01-04 19:53:57.69	24.64	12.87	-38.0	-39.0	22.6	0.00e+00	7	29	0	384827392	48	6448
2026-01-04 19:53:58.70	24.45	12.90	-38.0	-39.0	22.6	0.00e+00	0	29	0	386924544	48	6441
2026-01-04 19:53:59.71	24.27	12.94	-38.0	-39.0	22.7	0.00e+00	33	29	0	387973120	48	6392
2026-01-04 19:54:00.72	24.08	12.97	-37.9	-38.8	22.8	0.00e+00	0	29	0	390070272	48	6303
2026-01-04 19:54:01.72	23.89	13.01	-38.1	-39.1	22.6	0.00e+00	0	29	0	392167424	48	6503
2026-01-04 19:54:02.74	23.70	13.04	-38.2	-39.2	22.4	0.00e+00	0	29	0	394264576	48	6594
2026-01-04 19:54:03.74	23.52	13.07	-37.9	-38.9	22.6	0.00e+00	0	29	0	396361728	48	6349
2026-01-04 19:54:04.75	23.33	13.11	-37.9	-38.9	22.7	0.00e+00	1	29	0	397410304	48	6345
2026-01-04 19:54:05.76	23.14	13.14	-37.9	-38.9	22.7	0.00e+00	0	29	0	399507456	48	6342
2026-01-04 19:54:06.77	22.95	13.17	-38.3	-39.3	22.4	0.00e+00	41	29	0	401604608	48	6671
2026-01-04 19:54:07.78	22.76	13.21	-38.6	-39.7	22.0	0.00e+00	0	29	0	403701760	48	6966
2026-01-04 19:54:08.79	22.57	13.24	-39.0	-40.2	21.6	0.00e+00	21	29	0	405798912	50	6549
2026-01-04 19:54:09.80	22.38	13.27	-39.3	-40.5	21.5	0.00e+00	0	29	0	406847488	50	6816
2026-01-04 19:54:10.81	22.19	13.30	-39.0	-40.2	21.5	0.00e+00	0	29	0	408944640	50	6554
2026-01-04 19:54:11.82	21.99	13.33	-38.8	-39.9	21.9	0.00e+00	8	29	0	411041792	50	6342
2026-01-04 19:54:12.83	21.80	13.36	-38.7	-39.8	22.0	0.00e+00	0	29	0	413138944	50	6282
2026-01-04 19:54:13.84	21.61	13.39	-38.0	-39.0	22.6	0.00e+00	53	29	0	415236096	50	5723
2026-01-04 19:54:14.84	21.42	13.42	-37.7	-38.7	22.9	0.00e+00	0	29	0	416284672	50	5545
2026-01-04 19:54:15.85	21.22	13.45	-37.6	-38.6	22.9	0.00e+00	80	29	0	418381824	48	6122
2026-01-04 19:54:16.86	21.03	13.48	-37.5	-38.4	23.1	0.00e+00	0	29	0	420478976	48	6001
2026-01-04 19:54:17.87	20.84	13.51	-37.2	-38.1	22.6	0.00e+00	0	29	0	422576128	48	5819
2026-01-04 19:54:18.89	20.64	13.54	-37.1	-38.0	23.2	0.00e+00	0	29	0	424673280	48	5741
2026-01-04 19:54:19.89	20.45	13.57	-36.7	-37.5	23.8	0.00e+00	0	29	0	426770432	46	6097
2026-01-04 19:54:20.90	20.25	13.60	-37.0	-37.9	23.5	0.00e+00	74	29	0	427819008	46	6353
2026-01-04 19:54:21.91	20.05	13.63	-37.0	-37.9	23.5	0.00e+00	0	29	0	429916160	46	6358
2026-01-04 19:54:22.92	19.86	13.66	-37.2	-38.1	23.3	0.00e+00	86	29	0	432013312	46	6478
2026-01-04 19:54:23.93	19.66	13.69	-37.5	-38.4	23.0	0.00e+00	0	29	0	434110464	46	6740
2026-01-04 19:54:24.94	19.46	13.71	-37.5	-38.4	23.1	0.00e+00	0	29	0	436207616	46	6744
2026-01-04 19:54:25.95	19.27	13.74	-37.4	-38.3	23.3	0.00e+00	0	29	0	437256192	46	6674
2026-01-04 19:54:26.96	19.07	13.77	-37.0	-37.9	23.5	0.00e+00	0	29	0	439353344	46	6344
2026-01-04 19:54:27.97	18.87	13.79	-36.9	-37.8	23.5	0.00e+00	7	29	0	441450496	46	6281
2026-01-04 19:54:28.98	18.67	13.82	-36.9	-37.7	23.6	0.00e+00	0	29	0	443547648	46	6245
2026-01-04 19:54:29.99	18.47	13.85	-37.3	-38.2	23.3	0.00e+00	90	29	0	445644800	46	6544
2026-01-04 19:54:31.00	18.27	13.87	-37.2	-38.1	23.0	0.00e+00	0	29	0	446693376	46	6517
2026-01-04 19:54:32.01	18.07	13.90	-37.8	-38.7	22.7	0.00e+00	0	29	0	448790528	46	6972
2026-01-04 19:54:33.02	17.87	13.92	-38.0	-38.9	22.7	0.00e+00	0	29	0	450887680	48	6386
2026-01-04 19:54:34.02	17.68	13.95	-38.2	-39.2	22.6	0.00e+00	0	29	0	452984832	48	6571
2026-01-04 19:54:35.03	17.48	13.97	-38.3	-39.3	22.4	0.00e+00	0	29	0	455081984	48	6687
2026-01-04 19:54:36.04	17.27	14.00	-38.1	-39.1	22.5	0.00e+00	0	29	0	456130560	48	6479
2026-01-04 19:54:37.05	17.07	14.02	-38.4	-39.5	22.3	0.00e+00	66	29	0	458227712	48	6810
2026-01-04 19:54:38.06	16.87	14.04	-38.5	-39.5	22.2	0.00e+00	0	29	0	460324864	48	6833
2026-01-04 19:54:39.07	16.67	14.07	-38.6	-39.7	22.1	0.00e+00	0	29	0	462422016	48	6931
2026-01-04 19:54:40.07	16.47	14.09	-38.8	-39.9	21.8	0.00e+00	0	29	0	464519168	50	6365
2026-01-04 19:54:41.08	16.27	14.11	-38.7	-39.7	22.0	0.00e+00	0	29	0	465567744	50	6245
2026-01-04 19:54:42.09	16.06	14.13	-38.9	-40.0	21.7	0.00e+00	2	29	0	467664896	50	6434
2026-01-04 19:54:43.10	15.86	14.15	-38.6	-39.6	21.9	0.00e+00	3	29	0	469762048	50	6171
2026-01-04 19:54:44.11	15.66	14.18	-39.0	-40.2	21.8	0.00e+00	82	29	0	471859200	50	6553
2026-01-04 19:54:45.12	15.45	14.20	-38.5	-39.6	22.1	0.00e+00	0	29	0	473956352	50	6140
2026-01-04 19:54:46.13	15.25	14.22	-38.7	-39.8	21.9	0.00e+00	81	29	0	475004928	50	6256
2026-01-04 19:54:47.13	15.05	14.24	-39.1	-40.2	21.7	0.00e+00	0	29	0	477102080	50	6570
2026-01-04 19:54:48.14	14.84	14.26	-39.0	-40.1	21.7	0.00e+00	0	29	0	479199232	50	6479
2026-01-04 19:54:49.15	14.64	14.28	-38.7	-39.7	22.0	0.00e+00	42	29	0	481296384	50	6240
2026-01-04 19:54:50.16	14.43	14.30	-38.3	-39.4	22.3	0.00e+00	0	29	0	483393536	50	5984
2026-01-04 19:54:51.17	14.23	14.32	-38.0	-38.9	22.6	0.00e+00	91	29	0	484442112	50	5683
2026-01-04 19:54:52.18	14.02	14.33	-37.8	-38.8	22.9	0.00e+00	0	29	0	486539264	50	5572
2026-01-04 19:54:53.19	13.82	14.35	-37.9	-38.8	22.8	0.00e+00	92	29	0	488636416	48	6300
2026-01-04 19:54:54.20	13.61	14.37	-37.9	-38.9	22.9	0.00e+00	0	29	0	490733568	48	6329
2026-01-04 19:54:55.21	13.40	14.39	-37.7	-38.6	23.0	0.00e+00	0	29	0	492830720	48	6160
2026-01-04 19:54:56.22	13.20	14.41	-37.6	-38.5	23.0	0.00e+00	10	29	0	494927872	48	6097
2026-01-04 19:54:57.23	12.99	14.42	-37.4	-38.3	23.1	0.00e+00	0	29	0	495976448	48	5934
2026-01-04 19:54:58.24	12.78	14.44	-37.4	-38.3	23.3	0.00e+00	91	29	0	498073600	48	5932
2026-01-04 19:54:59.25	12.58	14.45	-37.3	-38.2	23.1	0.00e+00	0	29	0	500170752	48	5887
2026-01-04 19:55:00.26	12.37	14.47	-37.6	-38.5	22.9	0.00e+00	51	29	0	502267904	48	6095
2026-01-04 19:55:01.27	12.16	14.49	-37.8	-38.7	22.9	0.00e+00	0	29	0	504365056	48	6203
2026-01-04 19:55:02.28	11.95	14.50	-38.0	-39.0	22.6	0.00e+00	0	29	0	505413632	48	6416
2026-01-04 19:55:03.28	11.75	14.51	-38.2	-39.2	22.4	0.00e+00	0	29	0	507510784	48	6592
2026-01-04 19:55:04.29	11.54	14.53	-38.3	-39.3	22.2	0.00e+00	0	29	0	509607936	48	6680
2026-01-04 19:55:05.30	11.33	14.54	-38.2	-39.2	22.5	0.00e+00	82	29	0	511705088	48	6575
2026-01-04 19:55:06.31	11.12	14.56	-38.2	-39.3	22.4	0.00e+00	0	29	0	513802240	48	6622
2026-01-04 19:55:07.32	10.91	14.57	-38.2	-39.2	22.5	0.00e+00	37	29	0	514850816	48	6612
2026-01-04 19:55:08.33	10.70	14.58	-38.1	-39.1	22.6	0.00e+00	0	29	0	516947968	48	6467
2026-01-04 19:55:09.34	10.49	14.59	-37.8	-38.7	22.8	0.00e+00	0	29	0	519045120	48	6233
2026-01-04 19:55:10.35	10.28	14.61	-37.9	-38.8	22.7	0.00e+00	0	29	0	521142272	48	6313
2026-01-04 19:55:11.36	10.07	14.62	-37.8	-38.8	22.8	0.00e+00	0	29	0	523239424	48	6298
2026-01-04 19:55:12.37	9.86	14.63	-38.0	-39.0	22.5	0.00e+00	84	29	0	524288000	48	6445
2026-01-04 19:55:13.38	9.65	14.64	-38.2	-39.2	22.5	0.00e+00	0	29	0	526385152	48	6613
2026-01-04 19:55:14.39	9.44	14.65	-38.2	-39.2	22.4	0.00e+00	92	29	0	528482304	48	6603
2026-01-04 19:55:15.40	9.23	14.66	-38.2	-39.2	22.5	0.00e+00	0	29	0	530579456	48	6580
2026-01-04 19:55:16.40	9.03	14.67	-38.2	-39.2	22.4	0.00e+00	0	29	0	532676608	48	6603
2026-01-04 19:55:17.42	8.81	14.68	-38.2	-39.2	22.5	0.00e+00	0	29	0	533725184	48	6599
2026-01-04 19:55:18.43	8.60	14.69	-38.2	-39.2	22.4	0.00e+00	0	29	0	535822336	48	6595
2026-01-04 19:55:19.44	8.39	14.70	-38.2	-39.2	22.6	0.00e+00	73	29	0	537919488	48	6553
2026-01-04 19:55:20.44	8.18	14.71	-38.1	-39.2	22.6	0.00e+00	0	29	0	540016640	48	6544
2026-01-04 19:55:21.45	7.97	14.71	-38.2	-39.2	22.5	0.00e+00	56	29	0	542113792	48	6606
2026-01-04 19:55:22.46	7.76	14.72	-38.1	-39.1	22.5	0.00e+00	0	29	0	543162368	48	6496
2026-01-04 19:55:23.47	7.55	14.73	-37.9	-38.8	22.8	0.00e+00	0	29	0	545259520	48	6307
2026-01-04 19:55:24.48	7.34	14.73	-37.8	-38.8	22.8	0.00e+00	0	29	0	547356672	48	6252
2026-01-04 19:55:25.49	7.13	14.74	-37.6	-38.6	23.0	0.00e+00	0	29	0	549453824	48	6108
2026-01-04 19:55:26.50	6.91	14.75	-37.7	-38.7	22.9	0.00e+00	0	29	0	551550976	48	6179
2026-01-04 19:55:27.51	6.70	14.75	-38.1	-39.1	22.5	0.00e+00	0	29	0	552599552	48	6508
2026-01-04 19:55:28.52	6.49	14.76	-37.8	-38.8	22.7	0.00e+00	89	29	0	554696704	48	6273
2026-01-04 19:55:29.53	6.28	14.76	-37.7	-38.7	22.9	0.00e+00	0	29	0	556793856	48	6200
2026-01-04 19:55:30.54	6.07	14.77	-38.1	-39.0	22.7	0.00e+00	82	29	0	558891008	48	6461
2026-01-04 19:55:31.55	5.86	14.77	-38.0	-39.0	22.7	0.00e+00	0	29	0	560988160	48	6402
2026-01-04 19:55:32.56	5.64	14.77	-38.0	-39.0	22.5	0.00e+00	0	29	0	562036736	48	6427
2026-01-04 19:55:33.56	5.43	14.78	-38.0	-39.1	22.6	0.00e+00	0	29	0	564133888	48	6468
2026-01-04 19:55:34.57	5.22	14.78	-38.0	-39.0	22.6	0.00e+00	0	29	0	566231040	48	6456
2026-01-04 19:55:35.58	5.01	14.78	-37.9	-38.9	22.6	0.00e+00	6	29	0	568328192	48	6336
2026-01-04 19:55:36.59	4.80	14.78	-38.1	-39.1	22.5	0.00e+00	0	29	0	570425344	48	6528
2026-01-04 19:55:37.61	4.58	14.79	-38.3	-39.3	22.3	0.00e+00	92	29	0	571473920	48	6687
2026-01-04 19:55:38.61	4.37	14.79	-38.3	-39.4	22.4	0.00e+00	0	29	0	573571072	48	6715
2026-01-04 19:55:39.62	4.16	14.79	-38.2	-39.2	22.5	0.00e+00	0	29	0	575668224	48	6586
2026-01-04 19:55:40.63	3.95	14.79	-38.1	-39.1	22.6	0.00e+00	0	29	0	577765376	48	6501
2026-01-04 19:55:41.64	3.74	14.79	-37.9	-38.9	22.7	0.00e+00	0	29	0	579862528	48	6374
2026-01-04 19:55:42.64	3.53	14.79	-37.7	-38.7	22.9	0.00e+00	75	29	0	580911104	48	6177
2026-01-04 19:55:43.65	3.31	14.79	-37.6	-38.5	23.0	0.00e+00	0	29	0	583008256	48	6066
2026-01-04 19:55:44.66	3.10	14.79	-37.5	-38.4	23.1	0.00e+00	92	29	0	585105408	48	6011
2026-01-04 19:55:45.67	2.89	14.78	-37.5	-38.4	23.1	0.00e+00	0	29	0	587202560	48	5996
2026-01-04 19:55:46.68	2.68	14.78	-37.5	-38.5	23.0	0.00e+00	0	29	0	589299712	48	6057
2026-01-04 19:55:47.69	2.47	14.78	-37.7	-38.7	22.8	0.00e+00	0	29	0	591396864	48	6217
2026-01-04 19:55:48.70	2.25	14.78	-38.0	-39.0	22.6	0.00e+00	0	29	0	592445440	48	6415
2026-01-04 19:55:49.71	2.04	14.77	-38.1	-39.1	22.4	0.00e+00	3	29	0	594542592	48	6524
2026-01-04 19:55:50.72	1.83	14.77	-38.2	-39.2	22.4	0.00e+00	0	29	0	596639744	48	6576
2026-01-04 19:55:51.73	1.62	14.77	-38.4	-39.4	22.3	0.00e+00	86	29	0	598736896	48	6747
2026-01-04 19:55:52.74	1.41	14.76	-38.5	-39.6	22.2	0.00e+00	0	29	0	600834048	48	6851
2026-01-04 19:55:53.75	1.19	14.76	-38.2	-39.2	22.4	0.00e+00	76	29	0	601882624	48	6560
2026-01-04 19:55:54.76	0.98	14.75	-38.1	-39.1	22.5	0.00e+00	0	29	0	603979776	48	6504
2026-01-04 19:55:55.77	0.77	14.75	-38.3	-39.4	22.3	0.00e+00	0	29	0	606076928	48	6694
2026-01-04 19:55:56.78	0.56	14.74	-38.4	-39.5	22.2	0.00e+00	5	29	0	608174080	48	6787
2026-01-04 19:55:57.79	0.35	14.73	-38.5	-39.5	22.0	0.00e+00	0	29	0	610271232	48	6831
2026-01-04 19:55:58.80	0.14	14.73	-38.7	-39.8	22.0	0.00e+00	90	29	0	611319808	50	6281
2026-01-04 19:55:59.81	359.93	14.72	-38.9	-40.0	21.6	0.00e+00	0	29	0	613416960	50	6392
2026-01-04 19:56:00.82	359.71	14.71	-38.9	-40.0	21.8	0.00e+00	88	29	0	615514112	50	6445
2026-01-04 19:56:01.82	359.50	14.70	-38.7	-39.7	22.1	0.00e+00	0	29	0	617611264	50	6244
2026-01-04 19:56:02.84	359.29	14.70	-38.5	-39.5	22.1	0.00e+00	0	29	0	619708416	50	6080
2026-01-04 19:56:03.85	359.08	14.69	-38.2	-39.2	22.4	0.00e+00	0	29	0	620756992	50	5861
2026-01-04 19:56:04.86	358.87	14.68	-38.1	-39.1	22.4	0.00e+00	0	29	0	622854144	50	5804
2026-01-04 19:56:05.87	358.66	14.67	-37.8	-38.8	22.7	0.00e+00	92	29	0	624951296	50	5588
2026-01-04 19:56:06.88	358.45	14.66	-37.7	-38.7	22.8	0.00e+00	0	29	0	627048448	48	6196
2026-01-04 19:56:07.89	358.24	14.65	-37.6	-38.5	23.0	0.00e+00	90	29	0	629145600	48	6068
2026-01-04 19:56:08.89	358.03	14.64	-37.6	-38.5	23.0	0.00e+00	0	29	0	630194176	48	6087
2026-01-04 19:56:09.90	357.82	14.63	-37.7	-38.6	22.9	0.00e+00	0	29	0	632291328	48	6173
2026-01-04 19:56:10.91	357.61	14.62	-37.8	-38.7	22.8	0.00e+00	0	29	0	634388480	48	6237
2026-01-04 19:56:11.92	357.40	14.61	-38.0	-39.0	22.5	0.00e+00	0	29	0	636485632	48	6419
2026-01-04 19:56:12.93	357.19	14.59	-38.1	-39.1	22.3	0.00e+00	92	29	0	638582784	48	6534
2026-01-04 19:56:13.94	356.98	14.58	-38.1	-39.1	22.5	0.00e+00	0	29	0	639631360	48	6466
2026-01-04 19:56:14.95	356.77	14.57	-38.1	-39.1	22.5	0.00e+00	91	29	0	641728512	48	6536
2026-01-04 19:56:15.96	356.56	14.55	-38.0	-38.9	22.6	0.00e+00	0	29	0	643825664	48	6377
2026-01-04 19:56:16.97	356.36	14.54	-37.8	-38.7	22.8	0.00e+00	0	29	0	645922816	48	6233
2026-01-04 19:56:17.98	356.15	14.53	-37.4	-38.3	23.2	0.00e+00	0	29	0	648019968	48	5925
2026-01-04 19:56:18.99	355.94	14.51	-37.3	-38.2	23.1	0.00e+00	0	29	0	649068544	48	5877
2026-01-04 19:56:20.00	355.73	14.50	-37.3	-38.1	23.3	0.00e+00	0	29	0	651165696	48	5823
2026-01-04 19:56:21.01	355.52	14.48	-37.0	-37.9	23.3	0.00e+00	0	29	0	653262848	48	5647
2026-01-04 19:56:22.02	355.32	14.47	-37.2	-38.1	23.2	0.00e+00	66	29	0	655360000	48	5780
2026-01-04 19:56:23.03	355.11	14.45	-37.4	-38.3	23.2	0.00e+00	0	29	0	657457152	48	5953
2026-01-04 19:56:24.04	354.90	14.44	-37.4	-38.3	23.1	0.00e+00	0	29	0	659554304	48	5949
2026-01-04 19:56:25.05	354.69	14.42	-37.5	-38.5	23.0	0.00e+00	0	29	0	660602880	48	6053
2026-01-04 19:56:26.06	354.49	14.40	-37.6	-38.5	23.0	0.00e+00	0	29	0	662700032	48	6081
2026-01-04 19:56:27.07	354.28	14.39	-37.8	-38.8	22.7	0.00e+00	62	29	0	664797184	48	6271
2026-01-04 19:56:28.07	354.08	14.37	-37.7	-38.7	22.8	0.00e+00	0	29	0	666894336	48	6237
2026-01-04 19:56:29.08	353.87	14.35	-37.9	-38.9	22.6	0.00e+00	92	29	0	668991488	48	6353
2026-01-04 19:56:30.09	353.66	14.33	-38.0	-39.1	22.5	0.00e+00	0	29	0	670040064	48	6471
2026-01-04 19:56:31.10	353.46	14.31	-38.2	-39.2	22.4	0.00e+00	64	29	0	672137216	48	6599
2026-01-04 19:56:32.11	353.25	14.29	-38.6	-39.6	22.1	0.00e+00	0	29	0	674234368	48	6923
2026-01-04 19:56:33.12	353.05	14.27	-38.1	-39.1	22.3	0.00e+00	31	29	0	676331520	48	6499
2026-01-04 19:56:34.13	352.84	14.25	-38.3	-39.3	22.2	0.00e+00	1	29	0	678428672	48	6686
2026-01-04 19:56:35.14	352.64	14.23	-38.3	-39.3	22.3	0.00e+00	0	29	0	679477248	48	6668
2026-01-04 19:56:36.15	352.43	14.21	-38.1	-39.1	22.5	0.00e+00	61	29	0	681574400	48	6508
2026-01-04 19:56:37.16	352.23	14.19	-38.1	-39.2	22.4	0.00e+00	30	29	0	683671552	48	6566
2026-01-04 19:56:38.16	352.03	14.17	-38.0	-39.0	22.5	0.00e+00	91	29	0	685768704	48	6427
2026-01-04 19:56:39.17	351.83	14.15	-38.0	-39.0	22.6	0.00e+00	0	29	0	687865856	48	6402
2026-01-04 19:56:40.19	351.62	14.13	-37.6	-38.6	23.0	0.00e+00	0	29	0	688914432	48	6135
2026-01-04 19:56:41.20	351.42	14.11	-37.7	-38.7	22.8	0.00e+00	0	29	0	691011584	48	6212
2026-01-04 19:56:42.20	351.22	14.08	-37.6	-38.5	23.0	0.00e+00	0	29	0	693108736	48	6076
2026-01-04 19:56:43.21	351.02	14.06	-37.5	-38.4	23.0	0.00e+00	90	29	0	695205888	48	6003
2026-01-04 19:56:44.22	350.81	14.04	-37.7	-38.6	23.1	0.00e+00	0	29	0	697303040	48	6142
2026-01-04 19:56:45.23	350.61	14.02	-37.5	-38.5	23.0	0.00e+00	92	29	0	698351616	48	6039
2026-01-04 19:56:46.24	350.41	13.99	-37.8	-38.7	22.8	0.00e+00	0	29	0	700448768	48	6231
2026-01-04 19:56:47.25	350.21	13.97	-37.8	-38.8	22.8	0.00e+00	0	29	0	702545920	48	6272
2026-01-04 19:56:48.26	350.01	13.94	-37.8	-38.8	22.8	0.00e+00	3	29	0	704643072	48	6270
2026-01-04 19:56:49.27	349.81	13.92	-37.5	-38.4	23.1	0.00e+00	0	29	0	706740224	48	6007
2026-01-04 19:56:50.28	349.61	13.89	-37.5	-38.4	23.0	0.00e+00	77	29	0	707788800	48	6025
2026-01-04 19:56:51.29	349.41	13.87	-37.6	-38.6	22.9	0.00e+00	0	29	0	709885952	48	6108
2026-01-04 19:56:52.30	349.21	13.84	-37.6	-38.5	23.0	0.00e+00	92	29	0	711983104	48	6085
2026-01-04 19:56:53.31	349.01	13.82	-37.8	-38.8	22.8	0.00e+00	0	29	0	714080256	48	6257
2026-01-04 19:56:54.32	348.81	13.79	-38.0	-39.0	22.6	0.00e+00	0	29	0	716177408	48	6443
2026-01-04 19:56:55.33	348.62	13.76	-38.2	-39.2	22.4	0.00e+00	0	29	0	717225984	48	6592
2026-01-04 19:56:56.34	348.42	13.74	-38.4	-39.5	22.1	0.00e+00	0	29	0	719323136	48	6771
2026-01-04 19:56:57.35	348.22	13.71	-38.3	-39.3	22.4	0.00e+00	83	29	0	721420288	48	6662
2026-01-04 19:56:58.35	348.03	13.68	-38.2	-39.2	22.4	0.00e+00	0	29	0	723517440	48	6571
2026-01-04 19:56:59.36	347.83	13.65	-38.1	-39.1	22.5	0.00e+00	81	29	0	725614592	48	6484
2026-01-04 19:57:00.37	347.63	13.63	-38.1	-39.1	22.6	0.00e+00	0	29	0	727711744	48	6505
2026-01-04 19:57:01.38	347.44	13.60	-38.1	-39.1	22.4	0.00e+00	0	29	0	728760320	48	6505
2026-01-04 19:57:02.39	347.24	13.57	-38.1	-39.1	22.4	0.00e+00	0	29	0	730857472	48	6539
2026-01-04 19:57:03.40	347.05	13.54	-38.1	-39.1	22.5	0.00e+00	0	29	0	732954624	48	6535
2026-01-04 19:57:04.41	346.85	13.51	-38.2	-39.3	22.3	0.00e+00	4	29	0	735051776	48	6639
2026-01-04 19:57:05.42	346.66	13.48	-38.4	-39.4	22.2	0.00e+00	0	29	0	737148928	48	6764
2026-01-04 19:57:06.42	346.47	13.45	-38.2	-39.2	22.3	0.00e+00	89	29	0	738197504	48	6587
2026-01-04 19:57:07.43	346.27	13.42	-38.3	-39.4	22.3	0.00e+00	0	29	0	740294656	48	6698
2026-01-04 19:57:08.44	346.08	13.39	-38.2	-39.2	22.4	0.00e+00	89	29	0	742391808	48	6587
2026-01-04 19:57:09.45	345.89	13.36	-38.3	-39.3	22.5	0.00e+00	0	29	0	744488960	48	6648
2026-01-04 19:57:10.46	345.70	13.33	-38.2	-39.2	22.4	0.00e+00	0	29	0	746586112	48	6598
2026-01-04 19:57:11.48	345.50	13.30	-38.3	-39.3	22.2	0.00e+00	0	29	0	747634688	48	6631
2026-01-04 19:57:12.49	345.31	13.26	-38.2	-39.2	22.3	0.00e+00	0	29	0	749731840	48	6543
2026-01-04 19:57:13.49	345.12	13.23	-38.0	-38.9	22.7	0.00e+00	89	29	0	751828992	48	6387
2026-01-04 19:57:14.50	344.93	13.20	-37.9	-38.9	22.7	0.00e+00	0	29	0	753926144	48	6367
2026-01-04 19:57:15.51	344.74	13.17	-37.8	-38.8	22.8	0.00e+00	68	29	0	756023296	48	6247
2026-01-04 19:57:16.52	344.55	13.14	-38.0	-39.0	22.6	0.00e+00	0	29	0	757071872	48	6428
2026-01-04 19:57:17.53	344.36	13.10	-38.1	-39.0	22.6	0.00e+00	0	29	0	759169024	48	6455
2026-01-04 19:57:18.54	344.17	13.07	-38.1	-39.1	22.5	0.00e+00	0	29	0	761266176	48	6482
2026-01-04 19:57:19.55	343.98	13.04	-38.5	-39.5	21.9	0.00e+00	0	29	0	763363328	48	6843
2026-01-04 19:57:20.56	343.80	13.00	-38.1	-39.1	22.3	0.00e+00	1	29	0	765460480	50	5811
2026-01-04 19:57:21.57	343.61	12.97	-37.6	-38.6	22.9	0.00e+00	0	29	0	766509056	48	6118
2026-01-04 19:57:22.58	343.42	12.93	-37.4	-38.3	23.1	0.00e+00	91	29	0	768606208	48	5944
2026-01-04 19:57:23.59	343.24	12.90	-37.4	-38.3	23.1	0.00e+00	0	29	0	770703360	48	5960
2026-01-04 19:57:24.60	343.05	12.86	-37.2	-38.1	23.3	0.00e+00	0	29	0	772800512	48	5819
2026-01-04 19:57:25.61	342.86	12.83	-37.5	-38.4	23.0	0.00e+00	0	29	0	774897664	48	5995
2026-01-04 19:57:26.62	342.68	12.79	-37.4	-38.3	22.7	0.00e+00	0	29	0	775946240	48	5943
2026-01-04 19:57:27.63	342.49	12.76	-37.4	-38.3	22.8	0.00e+00	2	29	0	778043392	48	5960
2026-01-04 19:57:28.64	342.31	12.72	-37.8	-38.8	22.7	0.00e+00	0	29	0	780140544	48	6266
2026-01-04 19:57:29.65	342.12	12.69	-38.0	-39.0	22.6	0.00e+00	92	29	0	782237696	48	6395
2026-01-04 19:57:30.65	341.94	12.65	-38.5	-39.6	21.9	0.00e+00	0	29	0	784334848	48	6882
2026-01-04 19:57:31.66	341.76	12.61	-38.3	-39.3	22.2	0.00e+00	33	29	0	785383424	48	6649
2026-01-04 19:57:32.67	341.58	12.58	-38.3	-39.4	22.3	0.00e+00	0	29	0	787480576	48	6712
2026-01-04 19:57:33.68	341.40	12.54	-38.5	-39.5	22.3	0.00e+00	0	29	0	789577728	48	6826
2026-01-04 19:57:34.69	341.21	12.50	-38.6	-39.7	21.9	0.00e+00	1	29	0	791674880	48	6928
2026-01-04 19:57:35.70	341.03	12.47	-39.1	-40.3	21.7	0.00e+00	0	29	0	793772032	50	6633
2026-01-04 19:57:36.71	340.85	12.43	-39.4	-40.6	21.3	0.00e+00	92	29	0	795869184	50	6857
2026-01-04 19:57:37.72	340.67	12.39	-39.0	-40.2	21.6	0.00e+00	0	29	0	796917760	50	6540
2026-01-04 19:57:38.73	340.49	12.35	-38.8	-39.9	21.9	0.00e+00	15	29	0	799014912	50	6325
2026-01-04 19:57:39.74	340.31	12.31	-38.8	-39.9	21.8	0.00e+00	0	29	0	801112064	50	6349
2026-01-04 19:57:40.75	340.13	12.28	-38.8	-39.9	21.8	0.00e+00	0	29	0	803209216	50	6321
2026-01-04 19:57:41.76	339.95	12.24	-38.5	-39.5	21.8	0.00e+00	64	29	0	804257792	50	6072
2026-01-04 19:57:42.77	339.78	12.20	-38.5	-39.5	22.1	0.00e+00	32	29	0	806354944	50	6090
2026-01-04 19:57:43.78	339.60	12.16	-38.4	-39.5	22.0	0.00e+00	92	29	0	808452096	50	6056
2026-01-04 19:57:44.79	339.42	12.12	-38.5	-39.6	22.0	0.00e+00	0	29	0	810549248	50	6107
2026-01-04 19:57:45.80	339.25	12.08	-38.6	-39.7	21.8	0.00e+00	36	29	0	812646400	50	6205
2026-01-04 19:57:46.81	339.07	12.04	-38.6	-39.6	22.0	0.00e+00	0	29	0	813694976	50	6166
2026-01-04 19:57:47.82	338.89	12.00	-38.8	-39.9	21.9	0.00e+00	0	29	0	815792128	50	6338
2026-01-04 19:57:48.82	338.72	11.96	-39.2	-40.4	21.3	0.00e+00	15	29	0	817889280	50	6720
2026-01-04 19:57:49.83	338.55	11.92	-38.9	-40.0	21.6	0.00e+00	0	29	0	819986432	50	6443
2026-01-04 19:57:50.84	338.37	11.88	-39.1	-40.3	21.3	0.00e+00	91	29	0	822083584	50	6633
2026-01-04 19:57:51.85	338.20	11.84	-39.7	-40.9	21.2	0.00e+00	0	29	0	824180736	50	7097
2026-01-04 19:57:52.86	338.03	11.80	-39.4	-40.6	21.5	0.00e+00	83	29	0	825229312	50	6905
2026-01-04 19:57:53.87	337.85	11.76	-39.4	-40.5	21.1	0.00e+00	0	29	0	827326464	50	6841
2026-01-04 19:57:54.88	337.68	11.72	-39.9	-41.1	20.9	0.00e+00	0	29	0	829423616	52	6523
2026-01-04 19:57:55.89	337.51	11.67	-40.1	-41.4	20.5	0.00e+00	3	29	0	831520768	52	6704
2026-01-04 19:57:56.90	337.34	11.63	-40.1	-41.3	20.8	0.00e+00	0	29	0	833617920	52	6665
2026-01-04 19:57:57.91	337.17	11.59	-40.3	-41.6	20.6	0.00e+00	88	29	0	834666496	52	6918
2026-01-04 19:57:58.92	337.00	11.55	-39.9	-41.2	20.8	0.00e+00	0	29	0	836763648	52	6556
2026-01-04 19:57:59.93	336.83	11.51	-40.3	-41.5	20.4	0.00e+00	62	29	0	838860800	52	6827
2026-01-04 19:58:00.94	336.66	11.46	-39.1	-40.2	21.5	0.00e+00	0	29	0	840957952	52	5864
2026-01-04 19:58:01.95	336.49	11.42	-38.9	-39.9	21.8	0.00e+00	0	29	0	843055104	52	5676
2026-01-04 19:58:02.96	336.32	11.38	-38.8	-39.9	21.9	0.00e+00	0	29	0	844103680	52	5643
2026-01-04 19:58:03.97	336.16	11.34	-38.4	-39.4	22.3	0.00e+00	0	29	0	846200832	50	5996
2026-01-04 19:58:04.98	335.99	11.29	-38.5	-39.5	22.0	0.00e+00	86	29	0	848297984	50	6093
2026-01-04 19:58:05.99	335.82	11.25	-38.4	-39.3	22.2	0.00e+00	0	29	0	850395136	50	5956
2026-01-04 19:58:07.00	335.66	11.21	-38.6	-39.6	22.0	0.00e+00	30	29	0	852492288	50	6118
2026-01-04 19:58:08.01	335.49	11.16	-38.9	-40.0	21.7	0.00e+00	0	29	0	853540864	50	6392
2026-01-04 19:58:09.02	335.32	11.12	-39.2	-40.3	21.3	0.00e+00	0	29	0	855638016	50	6622
2026-01-04 19:58:10.03	335.16	11.08	-39.5	-40.7	21.0	0.00e+00	0	29	0	857735168	50	6959
2026-01-04 19:58:11.03	335.00	11.03	-39.9	-41.2	20.6	0.00e+00	0	29	0	859832320	52	6556
2026-01-04 19:58:12.04	334.83	10.99	-40.1	-41.4	20.3	0.00e+00	0	29	0	861929472	52	6736
2026-01-04 19:58:13.05	334.67	10.94	-40.1	-41.4	20.4	0.00e+00	0	29	0	862978048	52	6756
2026-01-04 19:58:14.06	334.51	10.90	-40.8	-42.2	19.7	0.00e+00	64	29	0	865075200	54	6600
2026-01-04 19:58:15.07	334.35	10.85	-40.1	-41.3	20.6	0.00e+00	0	29	0	867172352	54	5939
2026-01-04 19:58:16.08	334.18	10.81	-39.9	-41.1	20.8	0.00e+00	54	30	0	869269504	54	5805
2026-01-04 19:58:17.09	334.02	10.76	-39.6	-40.7	21.0	0.00e+00	0	29	0	871366656	52	6231
2026-01-04 19:58:18.10	333.86	10.72	-39.4	-40.5	21.0	0.00e+00	0	29	0	872415232	52	6093
2026-01-04 19:58:19.11	333.70	10.67	-39.4	-40.5	21.2	0.00e+00	0	29	0	874512384	52	6099
2026-01-04 19:58:20.12	333.54	10.63	-39.6	-40.8	21.0	0.00e+00	0	29	0	876609536	52	6275
2026-01-04 19:58:21.13	333.38	10.58	-40.1	-41.3	20.6	0.00e+00	45	29	0	878706688	52	6673
2026-01-04 19:58:22.14	333.23	10.54	-40.0	-41.2	20.7	0.00e+00	0	29	0	880803840	52	6603
2026-01-04 19:58:23.15	333.07	10.49	-40.4	-41.7	20.2	0.00e+00	92	29	0	881852416	52	6974
2026-01-04 19:58:24.16	332.91	10.45	-40.7	-42.1	19.7	0.00e+00	33	29	0	883949568	52	7293
2026-01-04 19:58:25.17	332.75	10.40	-41.2	-42.8	19.1	0.00e+00	0	29	0	886046720	54	7027
2026-01-04 19:58:26.18	332.60	10.36	-41.8	-43.5	18.6	0.00e+00	2	29	0	888143872	56	6771
2026-01-04 19:58:27.19	332.44	10.31	-41.9	-43.7	18.3	0.00e+00	33	29	0	890241024	56	6945
2026-01-04 19:58:28.20	332.28	10.26	-42.2	-44.0	17.9	0.00e+00	6	29	0	892338176	56	7233
2026-01-04 19:58:29.21	332.13	10.22	-41.8	-43.4	18.7	0.00e+00	0	29	0	893386752	56	6752
2026-01-04 19:58:30.22	331.97	10.17	-41.8	-43.5	18.5	0.00e+00	90	30	0	895483904	56	6821
2026-01-04 19:58:31.22	331.82	10.12	-41.3	-42.9	19.1	0.00e+00	0	30	0	897581056	56	6321
2026-01-04 19:58:32.23	331.67	10.08	-41.5	-43.0	19.0	0.00e+00	0	30	0	899678208	56	6447
2026-01-04 19:58:33.24	331.52	10.03	-41.1	-42.6	19.4	0.00e+00	0	29	0	901775360	56	6140
2026-01-04 19:58:34.25	331.36	9.98	-41.1	-42.7	19.2	0.00e+00	0	29	0	902823936	56	6174
2026-01-04 19:58:35.26	331.21	9.94	-41.0	-42.5	19.6	0.00e+00	0	29	0	904921088	56	6035
2026-01-04 19:58:36.27	331.06	9.89	-41.0	-42.5	19.4	0.00e+00	0	29	0	907018240	56	6052
2026-01-04 19:58:37.28	330.91	9.84	-41.2	-42.6	19.4	0.00e+00	88	29	0	909115392	56	6169
2026-01-04 19:58:38.29	330.76	9.80	-40.9	-42.3	19.7	0.00e+00	0	30	0	911212544	56	5955
2026-01-04 19:58:39.30	330.61	9.75	-40.9	-42.3	19.7	0.00e+00	0	29	0	912261120	56	5929
2026-01-04 19:58:40.31	330.46	9.70	-40.9	-42.3	19.7	0.00e+00	0	29	0	914358272	56	5958
2026-01-04 19:58:41.32	330.31	9.65	-40.5	-41.9	19.9	0.00e+00	0	29	0	916455424	54	6336
2026-01-04 19:58:42.33	330.16	9.61	-40.4	-41.7	20.2	0.00e+00	1	29	0	918552576	54	6217
2026-01-04 19:58:43.34	330.01	9.56	-40.6	-41.9	20.0	0.00e+00	0	29	0	920649728	54	6378
2026-01-04 19:58:44.35	329.86	9.51	-40.6	-41.9	20.1	0.00e+00	90	29	0	921698304	54	6369
2026-01-04 19:58:45.36	329.72	9.46	-40.3	-41.6	20.2	0.00e+00	0	29	0	923795456	54	6135
2026-01-04 19:58:46.37	329.57	9.41	-40.6	-41.9	20.1	0.00e+00	0	29	0	925892608	54	6357
2026-01-04 19:58:47.38	329.42	9.37	-40.5	-41.8	20.2	0.00e+00	0	29	0	927989760	54	6309
2026-01-04 19:58:48.39	329.28	9.32	-40.4	-41.7	20.2	0.00e+00	0	29	0	930086912	54	6216
2026-01-04 19:58:49.40	329.13	9.27	-40.7	-42.1	20.0	0.00e+00	0	29	0	931135488	54	6491
2026-01-04 19:58:50.40	328.99	9.22	-40.5	-41.8	20.1	0.00e+00	0	29	0	933232640	54	6296
2026-01-04 19:58:51.42	328.84	9.17	-40.0	-41.3	20.6	0.00e+00	88	29	0	935329792	54	5918
2026-01-04 19:58:52.42	328.70	9.12	-40.1	-41.4	20.4	0.00e+00	0	29	0	937426944	54	5976
2026-01-04 19:58:53.44	328.56	9.07	-39.9	-41.2	20.6	0.00e+00	0	29	0	939524096	54	5845
2026-01-04 19:58:54.45	328.42	9.03	-39.9	-41.1	20.8	0.00e+00	0	29	0	940572672	52	6474
2026-01-04 19:58:55.46	328.27	8.98	-39.5	-40.6	21.0	0.00e+00	0	29	0	942669824	52	6158
2026-01-04 19:58:56.47	328.13	8.93	-39.4	-40.6	20.9	0.00e+00	0	29	0	944766976	52	6120
2026-01-04 19:58:57.47	327.99	8.88	-39.5	-40.7	21.0	0.00e+00	0	29	0	946864128	52	6200
2026-01-04 19:58:58.48	327.85	8.83	-39.6	-40.8	20.9	0.00e+00	82	29	0	948961280	52	6257
2026-01-04 19:58:59.49	327.71	8.78	-39.6	-40.8	20.9	0.00e+00	0	30	0	950009856	52	6316
2026-01-04 19:59:00.50	327.57	8.73	-39.5	-40.7	21.0	0.00e+00	85	29	0	952107008	52	6230
2026-01-04 19:59:01.51	327.43	8.68	-39.7	-40.9	20.8	0.00e+00	0	29	0	954204160	52	6368
2026-01-04 19:59:02.52	327.29	8.63	-39.9	-41.1	20.8	0.00e+00	0	29	0	956301312	52	6520
2026-01-04 19:59:03.53	327.15	8.58	-40.0	-41.3	20.6	0.00e+00	0	29	0	958398464	52	6638
2026-01-04 19:59:04.54	327.02	8.53	-39.8	-41.0	20.8	0.00e+00	0	29	0	959447040	52	6447
2026-01-04 19:59:05.55	326.88	8.49	-39.8	-41.0	20.7	0.00e+00	86	29	0	961544192	52	6447
2026-01-04 19:59:06.56	326.74	8.44	-39.9	-41.1	20.4	0.00e+00	0	29	0	963641344	52	6520
2026-01-04 19:59:07.57	326.61	8.39	-40.1	-41.4	20.4	0.00e+00	83	29	0	965738496	52	6722
2026-01-04 19:59:08.58	326.47	8.34	-40.1	-41.4	20.4	0.00e+00	0	29	0	967835648	52	6697
2026-01-04 19:59:09.59	326.33	8.29	-40.0	-41.2	20.5	0.00e+00	0	29	0	969932800	52	6591
2026-01-04 19:59:10.60	326.20	8.24	-39.9	-41.1	20.5	0.00e+00	0	29	0	970981376	52	6527
2026-01-04 19:59:11.61	326.06	8.19	-39.9	-41.2	20.4	0.00e+00	0	29	0	973078528	52	6582
2026-01-04 19:59:12.62	325.93	8.14	-39.7	-40.9	20.7	0.00e+00	0	29	0	975175680	52	6349
2026-01-04 19:59:13.63	325.80	8.09	-39.7	-41.0	20.6	0.00e+00	0	29	0	977272832	52	6400
2026-01-04 19:59:14.64	325.66	8.04	-39.8	-41.0	20.7	0.00e+00	81	29	0	979369984	52	6406
2026-01-04 19:59:15.65	325.53	7.99	-39.7	-40.9	20.8	0.00e+00	0	29	0	980418560	52	6376
2026-01-04 19:59:16.66	325.40	7.94	-39.7	-40.9	20.6	0.00e+00	0	29	0	982515712	52	6349
2026-01-04 19:59:17.67	325.27	7.89	-39.8	-41.0	20.7	0.00e+00	0	29	0	984612864	52	6423
2026-01-04 19:59:18.68	325.14	7.84	-39.6	-40.8	20.7	0.00e+00	0	29	0	986710016	52	6302
2026-01-04 19:59:19.69	325.00	7.79	-39.6	-40.9	20.8	0.00e+00	0	29	0	988807168	52	6320
2026-01-04 19:59:20.70	324.87	7.74	-39.6	-40.8	20.8	0.00e+00	0	29	0	989855744	52	6304
2026-01-04 19:59:21.71	324.74	7.69	-39.5	-40.8	20.9	0.00e+00	92	29	0	991952896	52	6256
2026-01-04 19:59:22.72	324.61	7.64	-39.3	-40.4	21.1	0.00e+00	0	30	0	994050048	52	6033
2026-01-04 19:59:23.73	324.49	7.59	-39.0	-40.1	21.4	0.00e+00	0	29	0	996147200	52	5810
2026-01-04 19:59:24.74	324.36	7.54	-39.0	-40.1	21.5	0.00e+00	0	29	0	998244352	52	5796
2026-01-04 19:59:25.74	324.23	7.49	-38.4	-39.5	21.8	0.00e+00	0	29	0	999292928	50	6034
2026-01-04 19:59:26.75	324.10	7.44	-38.6	-39.7	21.7	0.00e+00	73	29	0	1001390080	50	6217
2026-01-04 19:59:27.76	323.98	7.38	-38.4	-39.5	22.0	0.00e+00	0	29	0	1003487232	50	6039
2026-01-04 19:59:28.77	323.85	7.33	-38.3	-39.4	22.0	0.00e+00	90	29	0	1005584384	50	5979
2026-01-04 19:59:29.78	323.72	7.28	-38.4	-39.5	22.0	0.00e+00	0	29	0	1007681536	50	6046
2026-01-04 19:59:30.79	323.60	7.23	-38.7	-39.8	21.8	0.00e+00	2	29	0	1008730112	50	6263
2026-01-04 19:59:31.79	323.47	7.18	-38.6	-39.7	21.7	0.00e+00	0	29	0	1010827264	50	6186
2026-01-04 19:59:32.81	323.35	7.13	-38.7	-39.8	21.7	0.00e+00	0	29	0	1012924416	50	6246
2026-01-04 19:59:33.81	323.22	7.08	-38.7	-39.8	21.7	0.00e+00	73	30	0	1015021568	50	6288
2026-01-04 19:59:34.82	323.10	7.03	-38.8	-39.9	21.5	0.00e+00	0	29	0	1017118720	50	6361
2026-01-04 19:59:35.83	322.98	6.98	-39.0	-40.1	21.4	0.00e+00	0	29	0	1018167296	50	6502
2026-01-04 19:59:36.85	322.85	6.93	-38.5	-39.6	21.7	0.00e+00	0	30	0	1020264448	50	6141
2026-01-04 19:59:37.85	322.73	6.88	-38.5	-39.5	21.7	0.00e+00	90	29	0	1022361600	50	6100
2026-01-04 19:59:38.86	322.61	6.83	-38.6	-39.6	21.8	0.00e+00	0	29	0	1024458752	50	6168
2026-01-04 19:59:39.87	322.49	6.78	-38.3	-39.4	22.0	0.00e+00	0	29	0	1026555904	50	5975
2026-01-04 19:59:40.88	322.36	6.73	-38.5	-39.6	21.7	0.00e+00	0	29	0	1027604480	50	6106
2026-01-04 19:59:41.89	322.24	6.67	-38.3	-39.4	21.9	0.00e+00	0	30	0	1029701632	50	5981
2026-01-04 19:59:42.90	322.12	6.62	-38.6	-39.7	21.5	0.00e+00	81	29	0	1031798784	50	6186
2026-01-04 19:59:43.91	322.00	6.57	-38.7	-39.8	21.7	0.00e+00	0	29	0	1033895936	50	6278
2026-01-04 19:59:44.92	321.88	6.52	-38.8	-39.9	21.5	0.00e+00	71	29	0	1035993088	50	6383
2026-01-04 19:59:45.93	321.76	6.47	-39.0	-40.1	21.4	0.00e+00	0	30	0	1038090240	50	6486
2026-01-04 19:59:46.94	321.64	6.42	-38.9	-40.0	21.4	0.00e+00	0	29	0	1039138816	50	6450
2026-01-04 19:59:47.95	321.53	6.37	-39.3	-40.5	21.1	0.00e+00	0	29	0	1041235968	50	6801
2026-01-04 19:59:48.96	321.41	6.32	-39.1	-40.3	21.1	0.00e+00	0	29	0	1043333120	50	6616
2026-01-04 19:59:49.97	321.29	6.27	-39.3	-40.5	21.1	0.00e+00	0	29	0	1045430272	50	6812
2026-01-04 19:59:50.98	321.17	6.22	-39.4	-40.6	21.1	0.00e+00	0	29	0	1047527424	50	6905
2026-01-04 19:59:51.99	321.06	6.17	-39.4	-40.6	20.9	0.00e+00	38	29	0	1048576000	50	6905
2026-01-04 19:59:53.00	320.94	6.11	-39.2	-40.4	21.0	0.00e+00	0	29	0	1050673152	50	6753
2026-01-04 19:59:54.01	320.82	6.06	-39.3	-40.5	21.0	0.00e+00	0	29	0	1052770304	50	6807
2026-01-04 19:59:55.02	320.71	6.01	-39.6	-40.8	20.7	0.00e+00	0	29	0	1054867456	50	7036
2026-01-04 19:59:56.03	320.59	5.96	-39.5	-40.7	20.8	0.00e+00	0	29	0	1056964608	50	6962
2026-01-04 19:59:57.04	320.48	5.91	-39.8	-41.0	20.5	0.00e+00	0	30	0	1058013184	50	7243
2026-01-04 19:59:58.05	320.36	5.86	-39.8	-41.1	20.7	0.00e+00	0	29	0	1060110336	52	6479
2026-01-04 19:59:59.06	320.25	5.81	-39.8	-41.0	20.6	0.00e+00	74	29	0	1062207488	52	6444
2026-01-04 20:00:00.07	320.14	5.76	-39.7	-41.0	20.6	0.00e+00	0	29	0	1064304640	52	6393
2026-01-04 20:00:01.08	320.02	5.71	-39.8	-41.1	20.5	0.00e+00	0	29	0	1066401792	52	6486
2026-01-04 20:00:02.09	319.91	5.65	-39.9	-41.1	20.5	0.00e+00	0	29	0	1067450368	52	6523
2026-01-04 20:00:03.10	319.80	5.60	-39.7	-41.0	20.4	0.00e+00	0	30	0	1069547520	52	6391
2026-01-04 20:00:04.11	319.69	5.55	-39.8	-41.0	20.3	0.00e+00	86	30	0	1071644672	52	6440
2026-01-04 20:00:05.12	319.58	5.50	-39.5	-40.8	20.7	0.00e+00	0	29	0	1073741824	52	6249
2026-01-04 20:00:06.13	319.47	5.45	-39.5	-40.7	20.7	0.00e+00	87	30	0	1075838976	52	6180
2026-01-04 20:00:07.14	319.36	5.40	-39.9	-41.2	20.4	0.00e+00	0	30	0	1076887552	52	6566
2026-01-04 20:00:08.15	319.24	5.35	-39.5	-40.7	20.8	0.00e+00	90	30	0	1078984704	52	6174
2026-01-04 20:00:09.16	319.14	5.30	-39.2	-40.3	21.0	0.00e+00	33	30	0	1081081856	52	5947
2026-01-04 20:00:10.16	319.03	5.25	-39.4	-40.6	20.4	0.00e+00	0	30	0	1083179008	52	6156
2026-01-04 20:00:11.17	318.92	5.19	-39.1	-40.2	21.1	0.00e+00	0	30	0	1085276160	52	5892
2026-01-04 20:00:12.18	318.81	5.14	-39.2	-40.4	20.9	0.00e+00	0	30	0	1086324736	52	6001
2026-01-04 20:00:13.19	318.70	5.09	-39.6	-40.7	21.1	0.00e+00	34	29	0	1088421888	52	6242
2026-01-04 20:00:14.20	318.59	5.04	-39.3	-40.4	21.0	0.00e+00	0	30	0	1090519040	52	6020
2026-01-04 20:00:15.21	318.49	4.99	-39.4	-40.5	21.2	0.00e+00	92	29	0	1092616192	52	6090
2026-01-04 20:00:16.23	318.38	4.94	-39.3	-40.4	21.1	0.00e+00	0	30	0	1094713344	52	6019
2026-01-04 20:00:17.23	318.27	4.89	-39.3	-40.4	20.9	0.00e+00	0	30	0	1095761920	52	6024
2026-01-04 20:00:18.24	318.17	4.84	-39.4	-40.6	20.9	0.00e+00	0	30	0	1097859072	52	6105
2026-01-04 20:00:19.25	318.06	4.79	-39.6	-40.9	20.7	0.00e+00	0	29	0	1099956224	52	6328
2026-01-04 20:00:20.26	317.95	4.73	-39.7	-41.0	20.5	0.00e+00	19	29	0	1102053376	52	6411
2026-01-04 20:00:21.27	317.85	4.68	-39.7	-40.9	20.6	0.00e+00	0	30	0	1104150528	52	6347
2026-01-04 20:00:22.28	317.74	4.63	-40.2	-41.5	20.1	0.00e+00	89	30	0	1106247680	52	6815
2026-01-04 20:00:23.29	317.64	4.58	-40.5	-41.9	19.7	0.00e+00	0	30	0	1107296256	52	7133
2026-01-04 20:00:24.30	317.54	4.53	-40.6	-42.1	19.5	0.00e+00	0	29	0	1109393408	52	7267
2026-01-04 20:00:25.31	317.43	4.48	-40.6	-42.0	19.7	0.00e+00	0	29	0	1111490560	54	6454
2026-01-04 20:00:26.32	317.33	4.43	-40.9	-42.4	19.2	0.00e+00	0	30	0	1113587712	54	6753
2026-01-04 20:00:27.33	317.23	4.38	-41.0	-42.4	19.4	0.00e+00	0	30	0	1115684864	54	6766
2026-01-04 20:00:28.34	317.12	4.33	-40.8	-42.3	19.6	0.00e+00	0	29	0	1116733440	54	6635
2026-01-04 20:00:29.35	317.02	4.27	-40.7	-42.1	19.6	0.00e+00	89	30	0	1118830592	54	6465
2026-01-04 20:00:30.36	316.92	4.22	-40.5	-41.9	19.7	0.00e+00	0	30	0	1120927744	54	6352
2026-01-04 20:00:31.37	316.82	4.17	-40.8	-42.3	19.4	0.00e+00	0	30	0	1123024896	54	6627
2026-01-04 20:00:32.38	316.72	4.12	-40.1	-41.4	20.3	0.00e+00	0	30	0	1125122048	54	6005
2026-01-04 20:00:33.39	316.62	4.07	-39.3	-40.5	20.8	0.00e+00	0	30	0	1126170624	52	6065
2026-01-04 20:00:34.40	316.52	4.02	-39.5	-40.7	20.8	0.00e+00	81	29	0	1128267776	52	6200
2026-01-04 20:00:35.40	316.42	3.97	-39.3	-40.5	21.0	0.00e+00	0	29	0	1130364928	52	6035
2026-01-04 20:00:36.41	316.32	3.92	-39.0	-40.1	21.3	0.00e+00	92	29	0	1132462080	52	5810
2026-01-04 20:00:37.42	316.22	3.87	-39.4	-40.6	21.0	0.00e+00	0	29	0	1134559232	52	6152
2026-01-04 20:00:38.43	316.12	3.82	-39.4	-40.6	21.1	0.00e+00	0	29	0	1135607808	52	6107
2026-01-04 20:00:39.44	316.02	3.77	-39.9	-41.1	20.8	0.00e+00	0	29	0	1137704960	52	6510
2026-01-04 20:00:40.45	315.92	3.71	-39.7	-41.0	20.5	0.00e+00	0	30	0	1139802112	52	6407
2026-01-04 20:00:41.46	315.83	3.66	-39.8	-41.0	20.5	0.00e+00	0	30	0	1141899264	52	6434
2026-01-04 20:00:42.47	315.73	3.61	-39.4	-40.5	20.8	0.00e+00	0	30	0	1143996416	52	6087
2026-01-04 20:00:43.48	315.63	3.56	-39.1	-40.2	21.0	0.00e+00	80	30	0	1145044992	52	5891
2026-01-04 20:00:44.48	315.53	3.51	-39.7	-41.0	20.3	0.00e+00	0	29	0	1147142144	52	6413
2026-01-04 20:00:45.49	315.44	3.46	-40.0	-41.2	20.3	0.00e+00	61	29	0	1149239296	52	6598
2026-01-04 20:00:46.50	315.34	3.41	-40.0	-41.3	20.1	0.00e+00	0	29	0	1151336448	52	6665
2026-01-04 20:00:47.51	315.25	3.36	-40.1	-41.5	19.9	0.00e+00	0	30	0	1153433600	52	6776
2026-01-04 20:00:48.52	315.15	3.31	-40.8	-42.2	19.3	0.00e+00	0	29	0	1154482176	54	6579
2026-01-04 20:00:49.53	315.06	3.26	-41.5	-43.1	18.4	0.00e+00	0	30	0	1156579328	54	7303
2026-01-04 20:00:50.53	314.96	3.21	-41.3	-42.8	19.0	0.00e+00	0	30	0	1158676480	56	6303
2026-01-04 20:00:51.54	314.87	3.16	-41.5	-43.0	18.9	0.00e+00	0	30	0	1160773632	56	6435
2026-01-04 20:00:52.55	314.77	3.11	-41.4	-43.0	18.6	0.00e+00	87	30	0	1162870784	56	6408
2026-01-04 20:00:53.56	314.68	3.06	-41.6	-43.3	18.5	0.00e+00	0	30	0	1163919360	56	6657
2026-01-04 20:00:54.56	314.59	3.01	-47.9	-63.0	3.6	2.62e-01	0	30	104	1166016512	60	51084
2026-01-04 20:00:55.57	314.49	2.95	-48.3	-63.4	3.6	1.51e+00	0	30	104	1166016512	60	53734
2026-01-04 20:00:56.58	314.40	2.90	-48.6	-63.8	3.5	1.51e+00	0	30	104	1166016512	60	55840
2026-01-04 20:00:57.59	314.31	2.85	-48.9	-64.1	3.6	1.51e+00	0	30	104	1166016512	60	57897
2026-01-04 20:00:58.61	314.22	2.80	-48.9	-64.1	3.6	1.51e+00	0	30	104	1166016512	60	57930
2026-01-04 20:00:59.62	314.12	2.75	-48.9	-64.1	3.6	1.51e+00	0	30	104	1166016512	60	57853
2026-01-04 20:01:00.63	314.03	2.70	-48.8	-64.0	3.6	1.51e+00	0	30	104	1166016512	60	57425
2026-01-04 20:01:01.63	313.94	2.65	-48.9	-64.0	3.5	1.51e+00	0	30	104	1166016512	60	57508
2026-01-04 20:01:02.65	313.85	2.60	-48.8	-64.0	3.6	1.51e+00	0	30	104	1166016512	60	56960
2026-01-04 20:01:03.65	313.76	2.55	-48.8	-64.0	3.6	1.51e+00	0	30	104	1166016512	60	57055
2026-01-04 20:01:04.66	313.67	2.50	-48.7	-63.9	3.6	1.51e+00	0	30	104	1166016512	60	56882
2026-01-04 20:01:05.67	313.58	2.45	-48.8	-63.9	3.6	1.51e+00	0	30	104	1166016512	60	56694
2026-01-04 20:01:06.68	313.49	2.40	-48.8	-64.0	3.6	1.51e+00	0	30	104	1166016512	60	57185
2026-01-04 20:01:07.69	313.40	2.35	-48.8	-64.0	3.6	1.51e+00	0	30	104	1166016512	60	57156
