passes_logs/2026/01/04/R4.6S_Anadyr/R4.6S_Anadyr__20260104_214553_TY-42_rec.log

#Pass ID: 20260104_214553_TY-42
#Satellite: TY-42
#Configuration: TY-42_900M
#almurnet v.1.7.20251203
#Start time: 2026-01-04 21:46:25

#Version: 2.2.20231116
#Station: R4.6S_Anadyr
#Location: 177.4865 lon 64.73178 lat
#TLE: 1 64048U 25103A   26003.64460648  .00008007  00000-0  38191-3 0 09992
#TLE: 2 64048 097.4106 079.2764 0001638 093.2825 303.9096 15.19157386 35096

#Time	Az	El	Level	Level2	SNR	BER	BlckErr	Temp	State	Recorded	gain1	gain2
2026-01-04 21:46:25.02	25.70	1.72	-48.8	-63.7	3.5	1.51e+00	0	28	0	0	60	55349
2026-01-04 21:46:26.03	25.80	1.78	-47.0	-49.5	6.1	0.00e+00	0	30	104	0	60	36735
2026-01-04 21:46:27.04	25.90	1.84	-47.0	-49.5	6.1	0.00e+00	0	30	104	0	60	36702
2026-01-04 21:46:28.05	26.01	1.90	-47.0	-49.5	6.1	0.00e+00	0	30	104	0	60	36376
2026-01-04 21:46:29.06	26.11	1.95	-47.0	-49.5	6.1	0.00e+00	0	30	104	0	60	36524
2026-01-04 21:46:30.07	26.22	2.01	-47.0	-49.5	6.1	0.00e+00	0	30	104	0	60	36402
2026-01-04 21:46:31.08	26.32	2.07	-47.0	-49.5	6.1	0.00e+00	0	30	104	0	60	36619
2026-01-04 21:46:32.08	26.43	2.12	-47.0	-49.5	6.1	0.00e+00	0	30	104	0	60	36580
2026-01-04 21:46:33.09	26.54	2.18	-47.0	-49.5	6.1	0.00e+00	0	30	104	0	60	36631
2026-01-04 21:46:34.10	26.64	2.24	-47.0	-49.5	6.1	0.00e+00	0	30	104	0	60	36604
2026-01-04 21:46:35.11	26.75	2.30	-47.0	-49.5	6.1	0.00e+00	0	30	104	0	60	36652
2026-01-04 21:46:36.12	26.86	2.36	-47.0	-49.5	6.1	0.00e+00	0	30	104	0	60	36647
2026-01-04 21:46:37.13	26.97	2.41	-47.0	-49.5	6.1	0.00e+00	0	30	104	0	60	36682
2026-01-04 21:46:38.14	27.08	2.47	-47.0	-49.5	6.1	0.00e+00	0	30	104	0	60	36472
2026-01-04 21:46:39.15	27.19	2.53	-47.0	-49.5	6.1	0.00e+00	0	30	104	0	60	36481
2026-01-04 21:46:40.16	27.30	2.59	-47.0	-49.5	6.1	0.00e+00	0	31	104	0	60	36680
2026-01-04 21:46:41.17	27.41	2.65	-47.0	-49.5	6.1	0.00e+00	0	31	104	0	60	36724
2026-01-04 21:46:42.18	27.52	2.70	-47.0	-49.5	6.1	0.00e+00	0	31	104	0	60	36720
2026-01-04 21:46:43.19	27.63	2.76	-47.0	-49.6	6.1	0.00e+00	0	31	104	0	60	36937
2026-01-04 21:46:44.20	27.75	2.82	-47.0	-49.5	6.1	0.00e+00	0	31	104	0	60	36470
2026-01-04 21:46:45.21	27.86	2.88	-47.0	-49.5	6.1	0.00e+00	0	31	104	0	60	36654
2026-01-04 21:46:46.22	27.97	2.94	-47.0	-49.5	6.1	0.00e+00	0	30	104	0	60	36573
2026-01-04 21:46:47.23	28.09	3.00	-47.0	-49.6	6.1	0.00e+00	0	30	104	0	60	36852
2026-01-04 21:46:48.24	28.20	3.06	-47.0	-49.5	6.1	0.00e+00	0	31	104	0	60	36489
2026-01-04 21:46:49.25	28.32	3.12	-46.9	-49.5	6.1	0.00e+00	0	31	104	0	60	36425
2026-01-04 21:46:50.26	28.43	3.17	-46.8	-49.2	6.1	0.00e+00	0	31	104	0	60	35518
2026-01-04 21:46:51.27	28.55	3.23	-46.7	-49.2	6.1	0.00e+00	0	31	104	0	60	35196
2026-01-04 21:46:52.28	28.67	3.29	-46.8	-49.3	6.1	0.00e+00	0	31	104	0	60	35688
2026-01-04 21:46:53.29	28.79	3.35	-47.2	-49.6	6.1	0.00e+00	0	31	104	0	60	37157
2026-01-04 21:46:54.30	28.90	3.41	-47.1	-49.6	6.0	0.00e+00	0	31	104	0	60	36798
2026-01-04 21:46:55.31	29.02	3.47	-47.6	-50.1	6.1	0.00e+00	0	31	104	0	60	38997
2026-01-04 21:46:56.31	29.14	3.53	-47.3	-49.7	6.1	0.00e+00	0	31	104	0	60	37358
2026-01-04 21:46:57.32	29.26	3.59	-45.3	-47.0	6.2	0.00e+00	0	31	104	0	60	27525
2026-01-04 21:46:58.33	29.38	3.65	-46.0	-47.9	6.1	0.00e+00	0	31	104	0	60	30386
2026-01-04 21:46:59.34	29.50	3.71	-46.5	-48.8	6.1	0.00e+00	0	31	104	0	60	33649
2026-01-04 21:47:00.35	29.62	3.77	-46.2	-48.2	6.1	0.00e+00	0	31	104	0	60	31640
2026-01-04 21:47:01.36	29.75	3.83	-46.0	-47.9	6.2	0.00e+00	0	31	104	0	60	30401
2026-01-04 21:47:02.37	29.87	3.89	-44.0	-45.2	6.3	0.00e+00	0	31	104	0	60	22272
2026-01-04 21:47:03.38	29.99	3.95	-44.8	-46.1	7.5	0.00e+00	0	31	104	0	60	24612
2026-01-04 21:47:04.39	30.12	4.01	-30.2	-30.4	14.5	0.00e+00	464	31	104	0	30	22892
2026-01-04 21:47:05.40	30.24	4.07	-32.8	-33.0	11.5	0.00e+00	882	31	104	33554432	54	7686
2026-01-04 21:47:06.41	30.37	4.13	-32.5	-32.8	12.5	0.00e+00	2512	31	104	33554432	42	15106
2026-01-04 21:47:07.42	30.49	4.19	-27.3	-27.7	16.0	0.00e+00	0	31	0	134217728	30	16709
2026-01-04 21:47:08.43	30.62	4.25	-28.4	-28.8	15.7	6.03e-02	0	31	0	243269632	30	18922
2026-01-04 21:47:09.44	30.75	4.31	-27.6	-28.0	15.9	1.12e-03	0	31	0	360710144	30	17280
2026-01-04 21:47:10.45	30.88	4.37	-26.9	-27.3	16.1	1.12e-03	0	31	0	478150656	30	15930
2026-01-04 21:47:11.46	31.01	4.43	-27.2	-27.6	16.1	7.41e-04	0	31	0	587202560	28	18434
2026-01-04 21:47:12.47	31.13	4.50	-27.4	-27.8	16.1	7.41e-04	0	31	0	704643072	28	19048
2026-01-04 21:47:13.48	31.26	4.56	-26.8	-27.2	16.2	5.50e-04	0	31	0	813694976	28	17748
2026-01-04 21:47:14.49	31.40	4.62	-26.6	-27.0	16.3	5.50e-04	0	31	0	931135488	28	17270
2026-01-04 21:47:15.50	31.53	4.68	-26.6	-27.1	16.2	4.14e-04	0	32	0	1048576000	28	17407
2026-01-04 21:47:16.50	31.66	4.74	-26.7	-27.2	16.1	4.14e-04	0	31	0	1157627904	28	17615
2026-01-04 21:47:17.52	31.79	4.80	-27.0	-27.4	16.1	3.22e-04	0	32	0	1266679808	28	18107
2026-01-04 21:47:18.52	31.92	4.86	-27.4	-27.8	16.0	3.71e-04	0	32	0	1384120320	28	18977
2026-01-04 21:47:19.53	32.06	4.92	-26.3	-26.8	16.4	3.71e-04	0	32	0	1501560832	28	16845
2026-01-04 21:47:20.54	32.19	4.99	-26.6	-27.1	16.4	3.32e-04	0	32	0	1610612736	28	17415
2026-01-04 21:47:21.55	32.33	5.05	-26.2	-26.7	16.4	3.32e-04	0	32	0	1728053248	28	16691
2026-01-04 21:47:22.56	32.46	5.11	-26.7	-27.1	16.3	1.52e-04	0	32	0	1837105152	28	17538
2026-01-04 21:47:23.57	32.60	5.17	-27.3	-27.7	16.3	1.52e-04	0	32	0	1954545664	28	18860
2026-01-04 21:47:24.58	32.74	5.23	-27.0	-27.5	16.3	2.45e-04	0	32	0	2063597568	28	18309
2026-01-04 21:47:25.59	32.88	5.29	-26.8	-27.3	16.3	2.45e-04	0	32	0	2181038080	28	17877
2026-01-04 21:47:26.60	33.02	5.36	-26.6	-27.0	16.4	1.47e-04	0	32	0	2290089984	28	17364
2026-01-04 21:47:27.61	33.16	5.42	-27.0	-27.5	16.3	1.47e-04	0	32	0	2407530496	28	18245
2026-01-04 21:47:28.62	33.30	5.48	-27.6	-28.1	16.1	2.34e-04	0	32	0	2516582400	28	19557
2026-01-04 21:47:29.62	33.44	5.54	-27.0	-27.4	16.3	4.20e-04	0	32	0	2634022912	30	16234
2026-01-04 21:47:30.64	33.58	5.61	-27.4	-27.9	16.2	4.20e-04	0	32	0	2751463424	30	17082
2026-01-04 21:47:31.64	33.72	5.67	-27.5	-27.9	16.2	4.20e-04	0	32	0	2860515328	30	17195
2026-01-04 21:47:32.66	33.87	5.73	-27.7	-28.2	16.1	3.65e-04	0	32	0	2977955840	30	17732
2026-01-04 21:47:33.67	34.01	5.79	-27.4	-27.8	16.1	3.65e-04	0	32	0	3087007744	30	16977
2026-01-04 21:47:34.67	34.15	5.85	-27.2	-27.7	16.2	3.76e-04	0	32	0	3196059648	30	16697
2026-01-04 21:47:35.68	34.30	5.92	-27.2	-27.6	16.2	4.74e-04	0	32	0	3313500160	30	16569
2026-01-04 21:47:36.69	34.44	5.98	-27.3	-27.7	16.3	4.74e-04	0	32	0	3430940672	30	16799
2026-01-04 21:47:37.70	34.59	6.04	-27.1	-27.6	16.2	2.56e-04	0	32	0	3539992576	30	16439
2026-01-04 21:47:38.71	34.74	6.11	-27.6	-28.1	16.2	2.56e-04	0	32	0	3657433088	30	17427
2026-01-04 21:47:39.72	34.89	6.17	-27.0	-27.5	16.3	2.56e-04	0	32	0	3766484992	30	16362
2026-01-04 21:47:40.73	35.04	6.23	-27.3	-27.8	16.3	2.29e-04	0	32	0	3883925504	30	16918
2026-01-04 21:47:41.74	35.19	6.30	-27.0	-27.5	16.4	2.29e-04	0	32	0	4001366016	30	16314
2026-01-04 21:47:42.75	35.34	6.36	-27.1	-27.6	16.3	2.29e-04	0	32	0	4110417920	28	18526
2026-01-04 21:47:43.76	35.49	6.42	-27.8	-28.3	16.2	2.51e-04	0	32	0	4219469824	30	17844
2026-01-04 21:47:44.77	35.64	6.49	-27.2	-27.7	16.3	2.51e-04	0	32	0	4336910336	30	16717
2026-01-04 21:47:45.78	35.80	6.55	-27.1	-27.5	16.4	3.32e-04	0	32	0	4445962240	30	16418
2026-01-04 21:47:46.79	35.95	6.61	-26.9	-27.4	16.4	2.94e-04	0	32	0	4563402752	30	16162
2026-01-04 21:47:47.80	36.11	6.68	-26.7	-27.2	16.5	2.94e-04	0	32	0	4680843264	28	17732
2026-01-04 21:47:48.81	36.26	6.74	-26.4	-26.9	16.6	1.31e-04	0	32	0	4789895168	28	17064
2026-01-04 21:47:49.82	36.42	6.80	-26.5	-27.0	16.5	1.31e-04	0	32	0	4907335680	28	17311
2026-01-04 21:47:50.83	36.58	6.87	-26.6	-27.1	16.4	1.85e-04	0	32	0	5016387584	28	17427
2026-01-04 21:47:51.84	36.74	6.93	-26.6	-27.1	16.4	1.85e-04	0	32	0	5133828096	28	17463
2026-01-04 21:47:52.85	36.89	6.99	-26.4	-26.9	16.5	1.36e-04	0	32	0	5242880000	28	17087
2026-01-04 21:47:53.86	37.05	7.06	-26.5	-27.0	16.5	1.69e-04	0	32	0	5360320512	28	17321
2026-01-04 21:47:54.87	37.22	7.12	-26.6	-27.1	16.6	1.69e-04	0	32	0	5469372416	28	17568
2026-01-04 21:47:55.88	37.38	7.19	-26.4	-26.9	16.6	1.69e-04	0	32	0	5586812928	28	17090
2026-01-04 21:47:56.88	37.54	7.25	-26.5	-26.9	16.6	9.26e-05	0	32	0	5695864832	28	17199
2026-01-04 21:47:57.89	37.70	7.31	-26.7	-27.2	16.6	9.26e-05	7	32	0	5813305344	28	17694
2026-01-04 21:47:58.91	37.87	7.38	-26.1	-26.6	16.7	8.71e-05	0	32	0	5930745856	28	16430
2026-01-04 21:47:59.91	38.03	7.44	-26.3	-26.8	16.6	4.35e-05	0	32	0	6039797760	28	16899
2026-01-04 21:48:00.92	38.20	7.51	-26.3	-26.8	16.6	4.35e-05	0	33	0	6148849664	28	16857
2026-01-04 21:48:01.93	38.37	7.57	-26.3	-26.8	16.6	4.90e-05	0	32	0	6274678784	28	16952
2026-01-04 21:48:02.94	38.53	7.63	-26.3	-26.8	16.6	4.90e-05	0	32	0	6383730688	28	16866
2026-01-04 21:48:03.95	38.70	7.70	-26.0	-26.5	16.7	3.81e-05	0	33	0	6492782592	28	16421
2026-01-04 21:48:04.96	38.87	7.76	-25.9	-26.4	16.7	3.81e-05	0	33	0	6610223104	28	16170
2026-01-04 21:48:05.97	39.04	7.83	-26.0	-26.5	16.5	4.90e-05	0	33	0	6719275008	28	16380
2026-01-04 21:48:06.98	39.21	7.89	-25.9	-26.4	16.5	4.90e-05	0	32	0	6836715520	28	16108
2026-01-04 21:48:07.99	39.39	7.96	-26.2	-26.7	16.4	9.80e-05	0	33	0	6954156032	28	16717
2026-01-04 21:48:09.00	39.56	8.02	-25.8	-26.3	16.5	9.80e-05	0	32	0	7063207936	28	16037
2026-01-04 21:48:10.01	39.73	8.08	-25.8	-26.2	16.6	1.74e-04	0	32	0	7172259840	28	15844
2026-01-04 21:48:11.02	39.91	8.15	-25.7	-26.2	16.7	1.74e-04	0	33	0	7289700352	26	17694
2026-01-04 21:48:12.03	40.09	8.21	-25.9	-26.4	16.7	5.44e-05	0	33	0	7398752256	26	18016
2026-01-04 21:48:13.04	40.26	8.28	-25.7	-26.2	16.8	2.72e-05	0	33	0	7516192768	26	17736
2026-01-04 21:48:14.05	40.44	8.34	-25.9	-26.4	16.7	2.72e-05	0	33	0	7633633280	26	18161
2026-01-04 21:48:15.06	40.62	8.41	-25.8	-26.3	16.7	4.35e-05	0	33	0	7742685184	26	17916
2026-01-04 21:48:16.07	40.80	8.47	-25.7	-26.2	16.8	4.35e-05	0	33	0	7860125696	26	17756
2026-01-04 21:48:17.07	40.98	8.53	-25.8	-26.3	16.8	3.81e-05	0	33	0	7969177600	26	17962
2026-01-04 21:48:18.09	41.16	8.60	-25.5	-26.0	16.9	3.81e-05	0	33	0	8086618112	26	17311
2026-01-04 21:48:19.09	41.34	8.66	-25.9	-26.4	16.8	1.08e-05	0	33	0	8204058624	26	18027
2026-01-04 21:48:20.10	41.53	8.73	-25.5	-26.1	16.8	1.08e-05	0	33	0	8313110528	26	17408
2026-01-04 21:48:21.11	41.71	8.79	-25.5	-26.0	16.8	3.26e-05	0	33	0	8422162432	26	17336
2026-01-04 21:48:22.12	41.90	8.86	-25.7	-26.1	16.8	3.26e-05	0	33	0	8539602944	26	17595
2026-01-04 21:48:23.13	42.08	8.92	-25.8	-26.3	16.9	2.17e-05	0	33	0	8648654848	26	17891
2026-01-04 21:48:24.14	42.27	8.99	-25.6	-26.1	16.9	2.17e-05	0	33	0	8766095360	26	17540
2026-01-04 21:48:25.15	42.46	9.05	-25.4	-25.9	16.9	2.17e-05	0	33	0	8883535872	26	17069
2026-01-04 21:48:26.16	42.65	9.12	-25.7	-26.2	16.8	5.40e-06	0	33	0	8992587776	26	17726
2026-01-04 21:48:27.17	42.84	9.18	-24.9	-25.4	17.0	5.40e-06	0	33	0	9101639680	26	16074
2026-01-04 21:48:28.18	43.03	9.25	-25.7	-26.2	16.9	1.63e-05	0	33	0	9219080192	26	17645
2026-01-04 21:48:29.19	43.23	9.31	-24.7	-25.2	17.1	1.63e-05	0	33	0	9336520704	24	17695
2026-01-04 21:48:30.20	43.42	9.37	-25.4	-25.9	16.9	1.63e-05	0	33	0	9445572608	24	19217
2026-01-04 21:48:31.21	43.62	9.44	-25.2	-25.7	16.9	2.17e-05	0	33	0	9563013120	24	18841
2026-01-04 21:48:32.22	43.81	9.50	-25.1	-25.6	16.9	1.08e-05	0	33	0	9672065024	24	18587
2026-01-04 21:48:33.23	44.01	9.57	-25.1	-25.6	16.9	1.08e-05	0	33	0	9789505536	24	18618
2026-01-04 21:48:34.24	44.21	9.63	-25.3	-25.8	16.8	0.00e+00	0	33	0	9906946048	24	18947
2026-01-04 21:48:35.25	44.41	9.70	-25.2	-25.7	16.8	0.00e+00	0	33	0	10015997952	24	18745
2026-01-04 21:48:36.26	44.61	9.76	-25.1	-25.7	16.9	4.35e-05	0	33	0	10133438464	24	18650
2026-01-04 21:48:37.27	44.81	9.82	-25.2	-25.7	16.9	4.35e-05	0	33	0	10242490368	24	18668
2026-01-04 21:48:38.28	45.01	9.89	-25.7	-26.2	16.8	5.40e-06	0	33	0	10351542272	24	19832
2026-01-04 21:48:39.29	45.21	9.95	-25.1	-25.6	17.0	5.40e-06	0	33	0	10468982784	26	16578
2026-01-04 21:48:40.30	45.42	10.02	-25.2	-25.7	16.9	5.40e-06	0	33	0	10586423296	26	16705
2026-01-04 21:48:41.31	45.62	10.08	-25.0	-25.5	17.0	5.40e-06	0	33	0	10695475200	26	16289
2026-01-04 21:48:42.32	45.83	10.14	-24.5	-25.0	17.0	5.40e-06	0	33	0	10812915712	24	17331
2026-01-04 21:48:43.33	46.04	10.21	-25.1	-25.6	16.9	5.40e-06	0	33	0	10921967616	24	18566
2026-01-04 21:48:44.34	46.25	10.27	-24.8	-25.3	17.0	0.00e+00	0	33	0	11039408128	24	17854
2026-01-04 21:48:45.35	46.46	10.34	-24.6	-25.1	17.0	0.00e+00	0	33	0	11148460032	24	17591
2026-01-04 21:48:46.36	46.67	10.40	-24.9	-25.4	16.9	5.40e-06	0	33	0	11265900544	24	18063
2026-01-04 21:48:47.37	46.88	10.46	-24.9	-25.4	16.9	5.40e-06	0	33	0	11374952448	24	18036
2026-01-04 21:48:48.38	47.09	10.53	-24.9	-25.4	16.8	2.72e-05	0	33	0	11492392960	24	18185
2026-01-04 21:48:49.39	47.31	10.59	-25.0	-25.5	16.7	2.72e-05	0	33	0	11609833472	24	18332
2026-01-04 21:48:50.40	47.52	10.65	-25.2	-25.7	16.8	1.08e-05	0	33	0	11718885376	24	18707
2026-01-04 21:48:51.41	47.74	10.72	-24.9	-25.4	16.8	1.08e-05	0	33	0	11836325888	24	18169
2026-01-04 21:48:52.42	47.95	10.78	-25.0	-25.5	16.9	2.72e-05	0	33	0	11945377792	24	18389
2026-01-04 21:48:53.43	48.17	10.84	-24.8	-25.3	16.8	2.72e-05	0	33	0	12062818304	24	17915
2026-01-04 21:48:54.44	48.39	10.91	-24.8	-25.3	16.8	0.00e+00	0	33	0	12180258816	24	17943
2026-01-04 21:48:55.45	48.61	10.97	-25.0	-25.5	16.8	0.00e+00	0	33	0	12289310720	24	18404
2026-01-04 21:48:56.46	48.84	11.03	-25.0	-25.5	16.9	1.63e-05	0	33	0	12398362624	24	18404
2026-01-04 21:48:57.47	49.06	11.09	-25.0	-25.5	16.9	1.63e-05	0	33	0	12515803136	24	18400
2026-01-04 21:48:58.48	49.28	11.16	-25.1	-25.6	16.9	1.63e-05	0	33	0	12624855040	24	18444
2026-01-04 21:48:59.49	49.51	11.22	-25.2	-25.7	16.8	1.63e-05	0	33	0	12742295552	24	18657
2026-01-04 21:49:00.50	49.74	11.28	-25.1	-25.6	16.8	0.00e+00	0	33	0	12859736064	24	18544
2026-01-04 21:49:01.51	49.96	11.34	-24.7	-25.2	17.0	0.00e+00	0	33	0	12968787968	24	17677
2026-01-04 21:49:02.52	50.19	11.41	-24.7	-25.2	16.9	1.08e-05	0	33	0	13086228480	24	17644
2026-01-04 21:49:03.53	50.42	11.47	-24.7	-25.2	16.8	1.08e-05	0	33	0	13195280384	24	17668
2026-01-04 21:49:04.54	50.65	11.53	-24.7	-25.2	16.7	5.40e-06	0	33	0	13312720896	24	17798
2026-01-04 21:49:05.55	50.89	11.59	-24.6	-25.1	16.7	5.40e-06	0	33	0	13421772800	24	17515
2026-01-04 21:49:06.56	51.12	11.65	-24.6	-25.1	16.8	2.72e-05	0	33	0	13539213312	24	17542
2026-01-04 21:49:07.57	51.35	11.71	-24.6	-25.1	16.6	2.72e-05	0	33	0	13648265216	24	17524
2026-01-04 21:49:08.58	51.59	11.77	-24.5	-25.0	16.6	5.40e-06	0	33	0	13765705728	24	17289
2026-01-04 21:49:09.59	51.83	11.83	-24.8	-25.3	16.8	5.40e-06	0	33	0	13883146240	24	17848
2026-01-04 21:49:10.60	52.06	11.89	-24.7	-25.2	16.9	5.40e-06	0	33	0	13992198144	24	17737
2026-01-04 21:49:11.61	52.30	11.96	-25.1	-25.6	16.8	1.08e-05	0	33	0	14109638656	24	18604
2026-01-04 21:49:12.62	52.54	12.02	-25.4	-25.9	16.7	2.72e-05	0	33	0	14218690560	24	19149
2026-01-04 21:49:13.63	52.79	12.08	-24.8	-25.3	16.8	2.72e-05	0	33	0	14327742464	24	18007
2026-01-04 21:49:14.63	53.03	12.13	-24.5	-25.0	16.7	1.08e-05	0	33	0	14445182976	24	17379
2026-01-04 21:49:15.64	53.27	12.19	-24.7	-25.2	16.6	1.08e-05	0	33	0	14562623488	24	17637
2026-01-04 21:49:16.65	53.51	12.25	-25.4	-25.9	16.5	2.17e-05	0	33	0	14671675392	24	19234
2026-01-04 21:49:17.66	53.76	12.31	-25.4	-25.9	16.6	2.17e-05	0	33	0	14789115904	24	19095
2026-01-04 21:49:18.67	54.01	12.37	-25.5	-26.0	16.6	1.63e-05	0	33	0	14898167808	24	19385
2026-01-04 21:49:19.68	54.26	12.43	-25.5	-26.0	16.6	1.63e-05	0	33	0	15015608320	24	19490
2026-01-04 21:49:20.69	54.51	12.49	-24.8	-25.3	16.7	1.08e-05	0	33	0	15133048832	24	17858
2026-01-04 21:49:21.70	54.76	12.55	-24.8	-25.3	16.5	3.26e-05	0	33	0	15242100736	24	17947
2026-01-04 21:49:22.71	55.01	12.60	-25.0	-25.5	16.6	3.26e-05	0	33	0	15351152640	24	18308
2026-01-04 21:49:23.72	55.26	12.66	-25.0	-25.5	16.8	5.44e-05	0	33	0	15468593152	24	18284
2026-01-04 21:49:24.73	55.52	12.72	-24.6	-25.1	16.9	5.44e-05	0	33	0	15586033664	24	17426
2026-01-04 21:49:25.75	55.78	12.78	-24.3	-24.8	16.9	1.63e-05	0	33	0	15695085568	24	16973
2026-01-04 21:49:26.76	56.03	12.83	-24.3	-24.8	16.8	1.63e-05	0	33	0	15812526080	24	16963
2026-01-04 21:49:27.76	56.29	12.89	-24.4	-24.9	16.7	5.40e-06	0	33	0	15921577984	24	17099
2026-01-04 21:49:28.77	56.55	12.95	-24.4	-24.9	16.9	5.40e-06	0	33	0	16039018496	24	17143
2026-01-04 21:49:29.78	56.81	13.00	-24.3	-24.8	17.0	1.08e-05	0	33	0	16148070400	24	16847
2026-01-04 21:49:30.79	57.07	13.06	-24.3	-24.8	16.9	1.08e-05	0	34	0	16265510912	24	16986
2026-01-04 21:49:31.80	57.33	13.11	-24.4	-24.9	16.8	5.40e-06	0	33	0	16382951424	24	17125
2026-01-04 21:49:32.81	57.60	13.17	-24.4	-24.9	16.7	5.40e-06	0	33	0	16492003328	24	17088
2026-01-04 21:49:33.82	57.86	13.22	-24.1	-24.6	16.7	5.40e-06	0	33	0	16601055232	24	16520
2026-01-04 21:49:34.83	58.13	13.28	-24.1	-24.5	17.0	5.40e-06	0	33	0	16718495744	24	16425
2026-01-04 21:49:35.83	58.39	13.33	-24.0	-24.5	17.0	0.00e+00	0	33	0	16835936256	24	16397
2026-01-04 21:49:36.84	58.66	13.38	-23.9	-24.4	16.9	0.00e+00	0	34	0	16944988160	24	16140
2026-01-04 21:49:37.85	58.93	13.44	-23.9	-24.4	16.9	0.00e+00	0	34	0	17062428672	24	16217
2026-01-04 21:49:38.86	59.20	13.49	-23.7	-24.2	16.9	0.00e+00	0	33	0	17171480576	22	17683
2026-01-04 21:49:39.88	59.47	13.54	-23.7	-24.2	16.8	0.00e+00	0	34	0	17280532480	22	17685
2026-01-04 21:49:40.89	59.75	13.59	-23.7	-24.3	16.7	5.40e-06	0	33	0	17406361600	22	17806
2026-01-04 21:49:41.90	60.02	13.65	-23.6	-24.1	16.9	5.40e-06	0	33	0	17515413504	22	17580
2026-01-04 21:49:42.91	60.30	13.70	-23.6	-24.1	16.8	1.63e-05	0	33	0	17624465408	22	17574
2026-01-04 21:49:43.92	60.57	13.75	-23.7	-24.2	16.3	1.63e-05	0	33	0	17741905920	22	17702
2026-01-04 21:49:44.93	60.85	13.80	-23.7	-24.2	16.2	5.40e-06	0	33	0	17850957824	22	17617
2026-01-04 21:49:45.94	61.13	13.85	-23.5	-24.0	16.6	5.40e-06	0	33	0	17968398336	22	17399
2026-01-04 21:49:46.95	61.41	13.90	-23.6	-24.1	16.9	4.35e-05	0	33	0	18085838848	22	17565
2026-01-04 21:49:47.96	61.69	13.95	-23.6	-24.0	16.9	0.00e+00	0	34	0	18194890752	22	17394
2026-01-04 21:49:48.97	61.97	14.00	-23.5	-24.0	16.6	0.00e+00	0	33	0	18312331264	22	17356
2026-01-04 21:49:49.98	62.25	14.05	-23.4	-23.9	16.2	5.40e-06	0	34	0	18421383168	22	17052
2026-01-04 21:49:50.99	62.54	14.09	-23.4	-23.9	16.6	5.40e-06	0	34	0	18538823680	22	17071
2026-01-04 21:49:52.00	62.82	14.14	-23.3	-23.8	16.7	1.63e-05	0	33	0	18647875584	22	16922
2026-01-04 21:49:53.01	63.11	14.19	-23.5	-24.0	17.0	1.63e-05	0	34	0	18765316096	22	17330
2026-01-04 21:49:54.02	63.40	14.23	-23.5	-24.0	17.1	5.40e-06	0	33	0	18874368000	22	17263
2026-01-04 21:49:55.03	63.68	14.28	-23.5	-24.0	17.0	5.40e-06	0	33	0	18991808512	22	17260
2026-01-04 21:49:56.04	63.97	14.33	-23.4	-23.9	17.1	0.00e+00	0	33	0	19109249024	22	17134
2026-01-04 21:49:57.05	64.26	14.37	-23.7	-24.2	17.0	0.00e+00	0	33	0	19218300928	22	17667
2026-01-04 21:49:58.05	64.55	14.42	-23.4	-23.9	17.0	0.00e+00	0	33	0	19335741440	22	17199
2026-01-04 21:49:59.06	64.84	14.46	-23.5	-24.1	17.0	0.00e+00	0	33	0	19444793344	22	17418
2026-01-04 21:50:00.07	65.14	14.50	-23.4	-23.9	17.1	0.00e+00	0	33	0	19553845248	22	17070
2026-01-04 21:50:01.08	65.43	14.55	-23.4	-23.9	17.1	0.00e+00	0	33	0	19671285760	22	17056
2026-01-04 21:50:02.09	65.73	14.59	-23.3	-23.8	17.1	0.00e+00	0	33	0	19788726272	22	16904
2026-01-04 21:50:03.10	66.02	14.63	-23.6	-24.1	17.0	0.00e+00	0	33	0	19897778176	22	17405
2026-01-04 21:50:04.11	66.32	14.67	-23.3	-23.8	17.0	0.00e+00	0	34	0	20015218688	22	16868
2026-01-04 21:50:05.12	66.62	14.71	-23.2	-23.7	16.9	0.00e+00	0	34	0	20124270592	22	16717
2026-01-04 21:50:06.13	66.92	14.75	-23.3	-23.8	16.9	0.00e+00	0	33	0	20241711104	22	16874
2026-01-04 21:50:07.14	67.22	14.79	-23.3	-23.8	16.7	0.00e+00	0	34	0	20359151616	22	16992
2026-01-04 21:50:08.15	67.52	14.83	-23.5	-24.0	16.8	0.00e+00	0	34	0	20468203520	22	17254
2026-01-04 21:50:09.16	67.82	14.87	-23.2	-23.7	17.0	5.40e-06	0	34	0	20577255424	22	16755
2026-01-04 21:50:10.17	68.13	14.91	-23.2	-23.7	17.1	5.40e-06	0	34	0	20694695936	22	16757
2026-01-04 21:50:11.18	68.43	14.95	-23.2	-23.8	17.1	0.00e+00	0	34	0	20803747840	22	16825
2026-01-04 21:50:12.19	68.73	14.99	-23.3	-23.8	17.0	0.00e+00	0	34	0	20921188352	22	16964
2026-01-04 21:50:13.20	69.04	15.02	-23.4	-23.9	16.9	0.00e+00	0	34	0	21038628864	22	17034
2026-01-04 21:50:14.21	69.35	15.06	-23.3	-23.8	17.1	0.00e+00	0	34	0	21147680768	22	16912
2026-01-04 21:50:15.22	69.65	15.09	-23.4	-23.9	17.1	0.00e+00	0	34	0	21265121280	22	17082
2026-01-04 21:50:16.23	69.96	15.13	-23.2	-23.7	16.9	0.00e+00	0	34	0	21374173184	22	16780
2026-01-04 21:50:17.23	70.27	15.16	-23.3	-23.8	16.7	0.00e+00	0	34	0	21491613696	22	16837
2026-01-04 21:50:18.24	70.58	15.19	-23.3	-23.8	16.9	0.00e+00	0	33	0	21600665600	22	16873
2026-01-04 21:50:19.25	70.89	15.23	-23.3	-23.8	16.8	0.00e+00	0	34	0	21718106112	22	16815
2026-01-04 21:50:20.26	71.20	15.26	-23.2	-23.7	16.8	0.00e+00	0	33	0	21827158016	22	16761
2026-01-04 21:50:21.27	71.51	15.29	-23.4	-23.9	16.9	0.00e+00	0	33	0	21944598528	22	17087
2026-01-04 21:50:22.28	71.83	15.32	-23.3	-23.8	17.0	0.00e+00	0	34	0	22053650432	22	16912
2026-01-04 21:50:23.29	72.14	15.35	-23.4	-23.9	17.0	5.40e-06	0	34	0	22171090944	22	17107
2026-01-04 21:50:24.30	72.45	15.38	-23.3	-23.8	17.1	5.40e-06	0	34	0	22288531456	22	16887
2026-01-04 21:50:25.31	72.77	15.41	-23.3	-23.8	17.1	0.00e+00	0	33	0	22397583360	22	16901
2026-01-04 21:50:26.32	73.08	15.44	-23.3	-23.8	17.0	0.00e+00	0	34	0	22506635264	22	16820
2026-01-04 21:50:27.33	73.40	15.46	-23.3	-23.8	17.0	0.00e+00	0	34	0	22624075776	22	16928
2026-01-04 21:50:28.34	73.72	15.49	-23.5	-24.0	17.0	0.00e+00	0	34	0	22741516288	22	17254
2026-01-04 21:50:29.35	74.04	15.52	-23.5	-24.0	17.0	0.00e+00	0	34	0	22850568192	22	17235
2026-01-04 21:50:30.36	74.36	15.54	-23.6	-24.1	17.0	0.00e+00	0	34	0	22968008704	22	17490
2026-01-04 21:50:31.36	74.67	15.57	-23.4	-23.9	17.1	0.00e+00	0	34	0	23077060608	22	17144
2026-01-04 21:50:32.38	74.99	15.59	-23.6	-24.0	17.1	0.00e+00	0	34	0	23194501120	22	17395
2026-01-04 21:50:33.38	75.31	15.61	-23.7	-24.1	17.0	0.00e+00	0	34	0	23311941632	22	17579
2026-01-04 21:50:34.40	75.64	15.64	-23.4	-23.9	17.0	0.00e+00	0	34	0	23420993536	22	17085
2026-01-04 21:50:35.41	75.96	15.66	-23.7	-24.2	17.0	0.00e+00	0	34	0	23530045440	22	17634
2026-01-04 21:50:36.42	76.28	15.68	-23.4	-23.9	16.9	0.00e+00	0	34	0	23647485952	22	17022
2026-01-04 21:50:37.43	76.60	15.70	-23.5	-24.0	16.6	0.00e+00	0	34	0	23756537856	22	17253
2026-01-04 21:50:38.44	76.92	15.72	-23.4	-23.9	16.5	0.00e+00	0	34	0	23873978368	22	17032
2026-01-04 21:50:39.45	77.25	15.74	-23.5	-24.0	16.7	0.00e+00	0	34	0	23991418880	22	17292
2026-01-04 21:50:40.46	77.57	15.75	-23.6	-24.1	16.7	0.00e+00	0	34	0	24100470784	22	17428
2026-01-04 21:50:41.47	77.90	15.77	-23.9	-24.3	16.9	1.63e-05	0	34	0	24217911296	22	17942
2026-01-04 21:50:42.47	78.22	15.79	-23.7	-24.2	17.0	1.63e-05	0	34	0	24326963200	22	17727
2026-01-04 21:50:43.48	78.54	15.80	-23.6	-24.1	16.9	1.63e-05	0	34	0	24436015104	22	17494
2026-01-04 21:50:44.49	78.87	15.82	-23.5	-24.0	17.0	0.00e+00	0	34	0	24561844224	22	17343
2026-01-04 21:50:45.50	79.20	15.83	-23.7	-24.2	16.9	0.00e+00	0	34	0	24670896128	22	17649
2026-01-04 21:50:46.51	79.52	15.84	-23.5	-24.0	16.9	0.00e+00	0	34	0	24779948032	22	17275
2026-01-04 21:50:47.52	79.85	15.86	-23.5	-23.9	16.8	0.00e+00	0	34	0	24897388544	22	17186
2026-01-04 21:50:48.53	80.18	15.87	-23.6	-24.1	16.7	0.00e+00	0	34	0	25006440448	22	17431
2026-01-04 21:50:49.54	80.50	15.88	-23.5	-24.0	16.7	5.40e-06	0	34	0	25123880960	22	17259
2026-01-04 21:50:50.55	80.83	15.89	-23.7	-24.2	16.6	5.40e-06	0	34	0	25241321472	22	17665
2026-01-04 21:50:51.56	81.16	15.90	-23.6	-24.1	16.8	1.08e-05	0	34	0	25350373376	22	17438
2026-01-04 21:50:52.57	81.49	15.91	-23.8	-24.3	16.9	1.08e-05	0	34	0	25459425280	22	17811
2026-01-04 21:50:53.58	81.82	15.92	-23.6	-24.1	16.9	5.40e-06	0	34	0	25585254400	22	17403
2026-01-04 21:50:54.59	82.14	15.92	-23.3	-23.8	16.9	5.40e-06	0	34	0	25694306304	22	16890
2026-01-04 21:50:55.60	82.47	15.93	-23.3	-23.8	16.9	0.00e+00	0	34	0	25803358208	22	16918
2026-01-04 21:50:56.61	82.80	15.94	-23.5	-23.9	16.9	0.00e+00	0	34	0	25920798720	22	17141
2026-01-04 21:50:57.62	83.13	15.94	-23.5	-23.9	16.9	0.00e+00	0	34	0	26029850624	22	17181
2026-01-04 21:50:58.63	83.46	15.94	-23.2	-23.6	16.9	0.00e+00	0	34	0	26147291136	22	16617
2026-01-04 21:50:59.63	83.79	15.95	-23.2	-23.7	16.9	0.00e+00	0	34	0	26264731648	22	16620
2026-01-04 21:51:00.64	84.12	15.95	-23.3	-23.8	16.9	0.00e+00	0	34	0	26373783552	22	16908
2026-01-04 21:51:01.65	84.45	15.95	-23.2	-23.7	16.9	0.00e+00	0	34	0	26482835456	22	16620
2026-01-04 21:51:02.66	84.77	15.95	-23.2	-23.7	16.9	5.40e-06	0	34	0	26600275968	22	16697
2026-01-04 21:51:03.67	85.10	15.95	-23.4	-23.8	16.9	5.40e-06	0	34	0	26709327872	22	16932
2026-01-04 21:51:04.68	85.43	15.95	-23.6	-24.1	16.8	0.00e+00	0	34	0	26826768384	22	17407
2026-01-04 21:51:05.69	85.76	15.95	-23.5	-23.9	16.9	0.00e+00	0	34	0	26944208896	22	17129
2026-01-04 21:51:06.70	86.09	15.95	-23.8	-24.2	16.7	0.00e+00	0	34	0	27053260800	22	17793
2026-01-04 21:51:07.71	86.42	15.94	-23.3	-23.8	16.9	0.00e+00	0	34	0	27170701312	22	16854
2026-01-04 21:51:08.72	86.75	15.94	-23.3	-23.7	16.9	0.00e+00	0	34	0	27279753216	22	16746
2026-01-04 21:51:09.73	87.08	15.93	-23.5	-23.9	16.9	0.00e+00	0	34	0	27388805120	22	17119
2026-01-04 21:51:10.73	87.41	15.93	-23.3	-23.7	16.9	5.40e-06	0	34	0	27514634240	22	16788
2026-01-04 21:51:11.74	87.74	15.92	-23.2	-23.7	16.9	5.40e-06	0	34	0	27623686144	22	16723
2026-01-04 21:51:12.75	88.06	15.91	-23.2	-23.7	16.9	0.00e+00	0	34	0	27732738048	22	16719
2026-01-04 21:51:13.76	88.39	15.91	-23.3	-23.8	16.8	0.00e+00	0	34	0	27850178560	22	16908
2026-01-04 21:51:14.76	88.72	15.90	-23.3	-23.7	16.8	0.00e+00	0	34	0	27959230464	22	16793
2026-01-04 21:51:15.77	89.05	15.89	-23.4	-23.8	16.8	0.00e+00	0	34	0	28076670976	22	16973
2026-01-04 21:51:16.78	89.37	15.88	-23.4	-23.8	16.9	0.00e+00	0	34	0	28185722880	22	16917
2026-01-04 21:51:17.79	89.70	15.87	-23.4	-23.8	16.8	0.00e+00	0	34	0	28303163392	22	16935
2026-01-04 21:51:18.80	90.03	15.85	-23.4	-23.8	16.8	0.00e+00	0	34	0	28412215296	22	16984
2026-01-04 21:51:19.80	90.35	15.84	-23.5	-24.0	16.8	0.00e+00	0	34	0	28529655808	22	17236
2026-01-04 21:51:20.81	90.68	15.83	-23.4	-23.9	16.8	0.00e+00	0	34	0	28638707712	22	17026
2026-01-04 21:51:21.82	91.01	15.81	-23.5	-23.9	16.8	0.00e+00	0	34	0	28756148224	22	17121
2026-01-04 21:51:22.83	91.33	15.80	-23.7	-24.1	16.8	0.00e+00	0	34	0	28865200128	22	17539
2026-01-04 21:51:23.84	91.66	15.78	-23.7	-24.1	16.7	0.00e+00	0	34	0	28982640640	22	17553
2026-01-04 21:51:24.85	91.98	15.77	-23.4	-23.9	16.8	0.00e+00	0	34	0	29100081152	22	17097
2026-01-04 21:51:25.86	92.31	15.75	-23.6	-24.0	16.7	0.00e+00	0	34	0	29209133056	22	17362
2026-01-04 21:51:26.87	92.63	15.73	-23.5	-24.0	16.7	0.00e+00	0	34	0	29318184960	22	17240
2026-01-04 21:51:27.88	92.96	15.71	-23.4	-23.8	16.8	1.08e-05	0	34	0	29435625472	22	16991
2026-01-04 21:51:28.89	93.28	15.69	-23.5	-23.9	16.8	1.08e-05	0	34	0	29553065984	22	17144
2026-01-04 21:51:29.90	93.60	15.67	-23.4	-23.9	16.7	0.00e+00	0	34	0	29662117888	22	17054
2026-01-04 21:51:30.91	93.93	15.65	-23.4	-23.8	16.7	0.00e+00	0	34	0	29779558400	22	16996
2026-01-04 21:51:31.91	94.24	15.63	-23.4	-23.9	16.7	0.00e+00	0	34	0	29888610304	22	17013
2026-01-04 21:51:32.93	94.57	15.61	-23.4	-23.8	16.7	5.40e-06	0	34	0	30006050816	22	17000
2026-01-04 21:51:33.94	94.89	15.58	-23.4	-23.8	16.7	0.00e+00	0	34	0	30123491328	22	16955
2026-01-04 21:51:34.95	95.21	15.56	-23.5	-24.0	16.8	0.00e+00	0	34	0	30232543232	22	17211
2026-01-04 21:51:35.96	95.53	15.53	-23.4	-23.8	16.7	5.40e-06	0	34	0	30341595136	22	16876
2026-01-04 21:51:36.96	95.85	15.51	-23.5	-23.9	16.7	5.40e-06	0	34	0	30459035648	22	17105
2026-01-04 21:51:37.97	96.16	15.48	-23.5	-23.9	16.7	5.40e-06	0	34	0	30568087552	22	17094
2026-01-04 21:51:38.98	96.48	15.46	-23.4	-23.8	16.8	5.40e-06	0	34	0	30685528064	22	16931
2026-01-04 21:51:39.99	96.80	15.43	-23.5	-23.9	16.7	0.00e+00	0	34	0	30802968576	22	17081
2026-01-04 21:51:41.00	97.12	15.40	-23.4	-23.8	16.8	0.00e+00	0	34	0	30912020480	22	16940
2026-01-04 21:51:42.00	97.43	15.37	-23.4	-23.8	16.8	0.00e+00	0	34	0	31029460992	22	16903
2026-01-04 21:51:43.01	97.74	15.34	-23.4	-23.9	16.8	0.00e+00	0	34	0	31138512896	22	17013
2026-01-04 21:51:44.02	98.06	15.31	-23.4	-23.8	16.8	0.00e+00	0	34	0	31247564800	22	16992
2026-01-04 21:51:45.03	98.37	15.28	-23.4	-23.8	16.8	0.00e+00	0	34	0	31373393920	22	16933
2026-01-04 21:51:46.04	98.69	15.25	-23.5	-23.9	16.8	0.00e+00	0	34	0	31482445824	22	17170
2026-01-04 21:51:47.05	99.00	15.22	-23.6	-24.0	16.8	0.00e+00	0	34	0	31591497728	22	17251
2026-01-04 21:51:48.06	99.31	15.18	-23.5	-23.9	16.8	0.00e+00	0	34	0	31708938240	22	17147
2026-01-04 21:51:49.07	99.62	15.15	-23.5	-23.9	16.8	0.00e+00	0	34	0	31817990144	22	17067
2026-01-04 21:51:50.08	99.93	15.12	-23.5	-23.9	16.8	0.00e+00	0	34	0	31935430656	22	17200
2026-01-04 21:51:51.09	100.24	15.08	-23.4	-23.8	16.9	0.00e+00	0	34	0	32052871168	22	16985
2026-01-04 21:51:52.10	100.55	15.05	-23.5	-23.9	16.9	0.00e+00	0	34	0	32161923072	22	17145
2026-01-04 21:51:53.11	100.85	15.01	-23.7	-24.1	16.9	0.00e+00	0	34	0	32270974976	22	17559
2026-01-04 21:51:54.12	101.16	14.97	-23.4	-23.9	16.9	0.00e+00	0	34	0	32388415488	22	17006
2026-01-04 21:51:55.13	101.47	14.94	-23.5	-23.9	16.9	0.00e+00	0	34	0	32497467392	22	17159
2026-01-04 21:51:56.14	101.77	14.90	-23.6	-24.0	16.9	0.00e+00	0	34	0	32614907904	22	17300
2026-01-04 21:51:57.15	102.07	14.86	-23.5	-24.0	16.9	0.00e+00	0	34	0	32732348416	22	17227
2026-01-04 21:51:58.16	102.38	14.82	-23.7	-24.2	16.9	0.00e+00	0	34	0	32841400320	22	17619
2026-01-04 21:51:59.16	102.68	14.78	-23.8	-24.2	16.9	0.00e+00	0	34	0	32958840832	22	17718
2026-01-04 21:52:00.17	102.98	14.74	-23.7	-24.1	16.9	0.00e+00	0	34	0	33067892736	22	17474
2026-01-04 21:52:01.18	103.28	14.70	-23.5	-23.9	16.9	0.00e+00	0	34	0	33176944640	22	17177
2026-01-04 21:52:02.19	103.58	14.66	-23.6	-24.0	16.9	0.00e+00	0	34	0	33302773760	22	17321
2026-01-04 21:52:03.20	103.88	14.62	-23.5	-24.0	17.0	0.00e+00	0	34	0	33411825664	22	17225
2026-01-04 21:52:04.21	104.17	14.57	-23.8	-24.2	16.9	0.00e+00	0	34	0	33520877568	22	17684
2026-01-04 21:52:05.22	104.47	14.53	-23.9	-24.3	17.0	0.00e+00	0	34	0	33638318080	22	17951
2026-01-04 21:52:06.23	104.76	14.49	-24.0	-24.4	17.0	0.00e+00	0	34	0	33747369984	22	18147
2026-01-04 21:52:07.24	105.06	14.44	-24.0	-24.4	17.0	0.00e+00	0	34	0	33864810496	22	18155
2026-01-04 21:52:08.24	105.35	14.40	-24.3	-24.7	17.0	0.00e+00	0	34	0	33982251008	22	18707
2026-01-04 21:52:09.25	105.64	14.35	-24.2	-24.7	16.9	0.00e+00	0	34	0	34091302912	24	16647
2026-01-04 21:52:10.26	105.93	14.31	-24.0	-24.4	17.0	0.00e+00	0	34	0	34200354816	24	16233
2026-01-04 21:52:11.27	106.22	14.26	-24.1	-24.5	17.0	5.40e-06	0	34	0	34317795328	24	16306
2026-01-04 21:52:12.28	106.51	14.22	-24.0	-24.4	17.1	5.40e-06	0	34	0	34426847232	24	16123
2026-01-04 21:52:13.29	106.80	14.17	-24.3	-24.7	17.0	0.00e+00	0	34	0	34544287744	24	16797
2026-01-04 21:52:14.30	107.09	14.12	-24.3	-24.7	17.0	0.00e+00	0	34	0	34661728256	24	16807
2026-01-04 21:52:15.31	107.37	14.07	-24.2	-24.6	17.1	0.00e+00	0	34	0	34770780160	24	16558
2026-01-04 21:52:16.32	107.66	14.03	-24.4	-24.9	17.0	0.00e+00	0	34	0	34888220672	24	17014
2026-01-04 21:52:17.33	107.94	13.98	-24.1	-24.5	17.1	0.00e+00	0	34	0	34997272576	24	16305
2026-01-04 21:52:18.34	108.22	13.93	-24.3	-24.7	17.1	0.00e+00	0	34	0	35114713088	24	16785
2026-01-04 21:52:19.34	108.50	13.88	-24.2	-24.6	17.1	5.40e-06	0	34	0	35232153600	24	16578
2026-01-04 21:52:20.35	108.78	13.83	-24.2	-24.6	17.1	5.40e-06	0	34	0	35341205504	24	16596
2026-01-04 21:52:21.36	109.06	13.78	-24.3	-24.7	17.1	0.00e+00	0	34	0	35450257408	24	16737
2026-01-04 21:52:22.37	109.34	13.73	-24.5	-24.9	17.1	0.00e+00	0	34	0	35567697920	24	17055
2026-01-04 21:52:23.38	109.62	13.68	-24.1	-24.5	17.2	0.00e+00	0	34	0	35676749824	24	16350
2026-01-04 21:52:24.39	109.90	13.62	-24.2	-24.6	17.1	0.00e+00	0	34	0	35794190336	24	16569
2026-01-04 21:52:25.40	110.17	13.57	-24.1	-24.5	17.1	0.00e+00	0	34	0	35911630848	24	16383
2026-01-04 21:52:26.41	110.44	13.52	-48.4	-50.9	6.1	0.00e+00	0	34	104	36003905536	60	42718
2026-01-04 21:52:27.42	110.72	13.47	-48.4	-50.8	6.1	0.00e+00	0	34	104	36003905536	60	42600
2026-01-04 21:52:28.43	110.99	13.41	-48.4	-50.9	6.1	0.00e+00	0	34	104	36003905536	60	42810
2026-01-04 21:52:29.44	111.26	13.36	-48.4	-50.8	6.1	0.00e+00	0	34	104	36003905536	60	42590
2026-01-04 21:52:30.45	111.53	13.30	-48.4	-50.8	6.1	0.00e+00	0	34	104	36003905536	60	42410
2026-01-04 21:52:31.47	111.80	13.25	-48.4	-50.9	6.1	0.00e+00	0	34	104	36003905536	60	42724
2026-01-04 21:52:32.48	112.07	13.20	-48.4	-50.9	6.1	0.00e+00	0	33	104	36003905536	60	42860
2026-01-04 21:52:33.48	112.33	13.14	-48.4	-50.9	6.1	0.00e+00	0	34	104	36003905536	60	43166
2026-01-04 21:52:34.49	112.60	13.09	-48.4	-50.9	6.1	0.00e+00	0	34	104	36003905536	60	42814
2026-01-04 21:52:35.51	112.86	13.03	-48.4	-50.9	6.1	0.00e+00	0	34	104	36003905536	60	43104
2026-01-04 21:52:36.51	113.12	12.97	-48.4	-50.8	6.1	0.00e+00	0	34	104	36003905536	60	42478
2026-01-04 21:52:37.52	113.38	12.92	-48.3	-50.8	6.1	0.00e+00	0	34	104	36003905536	60	42465
2026-01-04 21:52:38.54	113.65	12.86	-48.4	-50.9	6.1	0.00e+00	0	33	104	36003905536	60	43042
2026-01-04 21:52:39.54	113.90	12.80	-48.4	-50.9	6.1	0.00e+00	0	34	104	36003905536	60	43021
2026-01-04 21:52:40.55	114.16	12.75	-48.4	-50.9	6.1	0.00e+00	0	34	104	36003905536	60	42858
2026-01-04 21:52:41.56	114.42	12.69	-48.4	-50.9	6.1	0.00e+00	0	34	104	36003905536	60	42899
2026-01-04 21:52:42.57	114.67	12.63	-48.3	-50.8	6.1	0.00e+00	0	33	104	36003905536	60	42522
2026-01-04 21:52:43.58	114.93	12.57	-48.3	-50.8	6.1	0.00e+00	0	34	104	36003905536	60	42620
2026-01-04 21:52:44.59	115.18	12.51	-48.4	-50.8	6.1	0.00e+00	0	34	104	36003905536	60	42713
2026-01-04 21:52:45.60	115.43	12.46	-48.3	-50.8	6.1	0.00e+00	0	34	104	36003905536	60	42419
2026-01-04 21:52:46.61	115.68	12.40	-48.4	-50.9	6.1	0.00e+00	0	34	104	36003905536	60	43072
2026-01-04 21:52:47.62	115.93	12.34	-48.4	-50.8	6.1	0.00e+00	0	33	104	36003905536	60	42636
2026-01-04 21:52:48.62	116.18	12.28	-48.4	-50.9	6.1	0.00e+00	0	33	104	36003905536	60	42800
2026-01-04 21:52:49.63	116.42	12.22	-48.4	-50.9	6.1	0.00e+00	0	33	104	36003905536	60	43103
2026-01-04 21:52:50.64	116.67	12.16	-48.4	-50.9	6.1	0.00e+00	0	33	104	36003905536	60	42999
2026-01-04 21:52:51.65	116.92	12.10	-48.4	-50.9	6.1	0.00e+00	0	33	104	36003905536	60	42943
2026-01-04 21:52:52.66	117.16	12.04	-48.4	-50.9	6.1	0.00e+00	0	33	104	36003905536	60	42761
2026-01-04 21:52:53.67	117.40	11.98	-48.4	-50.9	6.1	0.00e+00	0	33	104	36003905536	60	42821
2026-01-04 21:52:54.68	117.64	11.92	-48.4	-50.9	6.1	0.00e+00	0	33	104	36003905536	60	43065
2026-01-04 21:52:55.69	117.88	11.86	-48.4	-50.9	6.1	0.00e+00	0	33	104	36003905536	60	42759
2026-01-04 21:52:56.70	118.12	11.80	-48.3	-50.8	6.1	0.00e+00	0	33	104	36003905536	60	42371
2026-01-04 21:52:57.71	118.36	11.73	-48.4	-50.9	6.1	0.00e+00	0	33	104	36003905536	60	42816
2026-01-04 21:52:58.72	118.60	11.67	-48.2	-50.8	6.1	0.00e+00	0	33	104	36003905536	60	42247
2026-01-04 21:52:59.73	118.83	11.61	-48.4	-50.8	6.1	0.00e+00	0	33	104	36003905536	60	42509
2026-01-04 21:53:00.74	119.07	11.55	-48.4	-50.8	6.1	0.00e+00	0	33	104	36003905536	60	42651
2026-01-04 21:53:01.75	119.30	11.49	-48.3	-50.9	6.1	0.00e+00	0	33	104	36003905536	60	42722
2026-01-04 21:53:02.76	119.53	11.43	-48.4	-50.9	6.1	0.00e+00	0	33	104	36003905536	60	43075
2026-01-04 21:53:03.77	119.76	11.36	-48.4	-50.9	6.1	0.00e+00	0	33	104	36003905536	60	42755
2026-01-04 21:53:04.78	119.99	11.30	-48.4	-50.9	6.1	0.00e+00	0	33	104	36003905536	60	42845
2026-01-04 21:53:05.79	120.22	11.24	-48.4	-50.9	6.1	0.00e+00	0	33	104	36003905536	60	42832
2026-01-04 21:53:06.80	120.45	11.18	-48.3	-50.8	6.1	0.00e+00	0	33	104	36003905536	60	42457
2026-01-04 21:53:07.80	120.67	11.11	-48.4	-50.9	6.1	0.00e+00	0	34	104	36003905536	60	42768
2026-01-04 21:53:08.81	120.90	11.05	-48.3	-50.8	6.1	0.00e+00	0	34	104	36003905536	60	42367
2026-01-04 21:53:09.82	121.12	10.99	-48.4	-50.9	6.1	0.00e+00	0	33	104	36003905536	60	42907
2026-01-04 21:53:10.83	121.35	10.92	-48.4	-50.9	6.1	0.00e+00	0	33	104	36003905536	60	43188
2026-01-04 21:53:11.84	121.57	10.86	-48.4	-50.9	6.1	0.00e+00	0	34	104	36003905536	60	42834
2026-01-04 21:53:12.85	121.79	10.80	-48.4	-50.8	6.1	0.00e+00	0	33	104	36003905536	60	42703
2026-01-04 21:53:13.86	122.01	10.73	-48.4	-50.9	6.1	0.00e+00	0	33	104	36003905536	60	42787
2026-01-04 21:53:14.87	122.23	10.67	-48.4	-50.9	6.1	0.00e+00	0	33	104	36003905536	60	42891
2026-01-04 21:53:15.88	122.44	10.61	-48.4	-50.9	6.1	0.00e+00	0	33	104	36003905536	60	42789
2026-01-04 21:53:16.89	122.66	10.54	-48.4	-50.8	6.1	0.00e+00	0	33	104	36003905536	60	42651
2026-01-04 21:53:17.90	122.88	10.48	-48.3	-50.8	6.1	0.00e+00	0	33	104	36003905536	60	42360
2026-01-04 21:53:18.91	123.09	10.41	-48.3	-50.8	6.1	0.00e+00	0	33	104	36003905536	60	42700
2026-01-04 21:53:19.91	123.30	10.35	-48.3	-50.8	6.1	0.00e+00	0	34	104	36003905536	60	42587
2026-01-04 21:53:20.92	123.51	10.29	-48.3	-50.8	6.1	0.00e+00	0	33	104	36003905536	60	42345
2026-01-04 21:53:21.93	123.72	10.22	-48.4	-50.9	6.1	0.00e+00	0	33	104	36003905536	60	42756
2026-01-04 21:53:22.95	123.93	10.16	-48.2	-50.7	6.1	0.00e+00	0	34	104	36003905536	60	42127
2026-01-04 21:53:23.96	124.14	10.09	-48.3	-50.8	6.1	0.00e+00	0	34	104	36003905536	60	42237
2026-01-04 21:53:24.96	124.35	10.03	-48.3	-50.8	6.1	0.00e+00	0	33	104	36003905536	60	42423
2026-01-04 21:53:25.97	124.55	9.96	-48.3	-50.7	6.1	0.00e+00	0	33	104	36003905536	60	41983
2026-01-04 21:53:26.98	124.76	9.90	-48.3	-50.8	6.1	0.00e+00	0	34	104	36003905536	60	42446
2026-01-04 21:53:27.99	124.96	9.83	-48.3	-50.8	6.1	0.00e+00	0	33	104	36003905536	60	42310
2026-01-04 21:53:29.00	125.17	9.77	-48.0	-50.5	6.1	0.00e+00	0	33	104	36003905536	60	41122
2026-01-04 21:53:30.01	125.37	9.70	-48.3	-50.8	6.1	0.00e+00	0	33	104	36003905536	60	42293
2026-01-04 21:53:31.02	125.57	9.64	-48.3	-50.7	6.1	0.00e+00	0	34	104	36003905536	60	42026
2026-01-04 21:53:32.03	125.77	9.58	-48.3	-50.8	6.1	0.00e+00	0	33	104	36003905536	60	42357
2026-01-04 21:53:33.04	125.97	9.51	-48.0	-50.5	6.1	0.00e+00	0	33	104	36003905536	60	41023
2026-01-04 21:53:34.05	126.17	9.45	-48.3	-50.8	6.1	0.00e+00	0	33	104	36003905536	60	42286
2026-01-04 21:53:35.06	126.36	9.38	-48.2	-50.7	6.1	0.00e+00	0	33	104	36003905536	60	41898
2026-01-04 21:53:36.07	126.56	9.32	-48.2	-50.7	6.1	0.00e+00	0	33	104	36003905536	60	41893
2026-01-04 21:53:37.08	126.75	9.25	-48.0	-50.6	6.1	0.00e+00	0	33	104	36003905536	60	41348
2026-01-04 21:53:38.09	126.95	9.19	-48.1	-50.5	6.1	0.00e+00	0	33	104	36003905536	60	41251
2026-01-04 21:53:39.10	127.14	9.12	-48.2	-50.7	6.1	0.00e+00	0	34	104	36003905536	60	41853
2026-01-04 21:53:40.10	127.33	9.06	-48.2	-50.7	6.1	0.00e+00	0	34	104	36003905536	60	42167
2026-01-04 21:53:41.11	127.52	8.99	-48.3	-50.7	6.1	0.00e+00	0	33	104	36003905536	60	41887
2026-01-04 21:53:42.12	127.71	8.93	-48.3	-50.8	6.1	0.00e+00	0	33	104	36003905536	60	42282
2026-01-04 21:53:43.13	127.90	8.86	-48.3	-50.8	6.1	0.00e+00	0	33	104	36003905536	60	42226
2026-01-04 21:53:44.14	128.08	8.79	-48.3	-50.8	6.1	0.00e+00	0	33	104	36003905536	60	42357
2026-01-04 21:53:45.15	128.27	8.73	-48.3	-50.8	6.1	0.00e+00	0	33	104	36003905536	60	42304
2026-01-04 21:53:46.16	128.46	8.66	-48.3	-50.8	6.1	0.00e+00	0	33	104	36003905536	60	42311
2026-01-04 21:53:47.16	128.64	8.60	-48.2	-50.7	6.1	0.00e+00	0	33	104	36003905536	60	41953
2026-01-04 21:53:48.17	128.82	8.53	-48.2	-50.7	6.1	0.00e+00	0	33	104	36003905536	60	41956
2026-01-04 21:53:49.18	129.01	8.47	-48.2	-50.7	6.1	0.00e+00	0	33	104	36003905536	60	42066
2026-01-04 21:53:50.19	129.19	8.40	-48.3	-50.8	6.1	0.00e+00	0	33	104	36003905536	60	42602
2026-01-04 21:53:51.20	129.37	8.34	-48.3	-50.8	6.1	0.00e+00	0	33	104	36003905536	60	42564
2026-01-04 21:53:52.21	129.55	8.27	-48.2	-50.7	6.1	0.00e+00	0	33	104	36003905536	60	42199
2026-01-04 21:53:53.22	129.73	8.21	-48.2	-50.7	6.1	0.00e+00	0	33	104	36003905536	60	41995
2026-01-04 21:53:54.23	129.90	8.14	-48.3	-50.8	6.1	0.00e+00	0	33	104	36003905536	60	42338
2026-01-04 21:53:55.24	130.08	8.08	-48.2	-50.6	6.1	0.00e+00	0	33	104	36003905536	60	41703
2026-01-04 21:53:56.25	130.26	8.01	-48.2	-50.8	6.1	0.00e+00	0	33	104	36003905536	60	42280
2026-01-04 21:53:57.26	130.43	7.95	-48.1	-50.6	6.1	0.00e+00	0	33	104	36003905536	60	41572
2026-01-04 21:53:58.26	130.60	7.88	-48.2	-50.7	6.1	0.00e+00	0	33	104	36003905536	60	41942
2026-01-04 21:53:59.27	130.78	7.82	-48.2	-50.8	6.1	0.00e+00	0	33	104	36003905536	60	42247
2026-01-04 21:54:00.28	130.95	7.75	-48.2	-50.7	6.1	0.00e+00	0	33	104	36003905536	60	41933
2026-01-04 21:54:01.29	131.12	7.69	-48.2	-50.6	6.1	0.00e+00	0	33	104	36003905536	60	41488
2026-01-04 21:54:02.30	131.29	7.63	-48.2	-50.7	6.0	0.00e+00	0	33	104	36003905536	60	42174
2026-01-04 21:54:03.31	131.46	7.56	-48.2	-50.6	6.1	0.00e+00	0	33	104	36003905536	60	41697
2026-01-04 21:54:04.32	131.63	7.50	-48.2	-50.7	6.1	0.00e+00	0	33	104	36003905536	60	41948
2026-01-04 21:54:05.32	131.79	7.43	-48.1	-50.6	6.1	0.00e+00	0	33	104	36003905536	60	41353
2026-01-04 21:54:06.33	131.96	7.37	-48.2	-50.7	6.1	0.00e+00	0	33	104	36003905536	60	41962
2026-01-04 21:54:07.34	132.13	7.30	-48.0	-50.6	6.1	0.00e+00	0	34	104	36003905536	60	41267
2026-01-04 21:54:08.35	132.29	7.24	-48.2	-50.7	6.1	0.00e+00	0	33	104	36003905536	60	41757
2026-01-04 21:54:09.36	132.46	7.17	-48.0	-50.5	6.1	0.00e+00	0	33	104	36003905536	60	40885
2026-01-04 21:54:10.37	132.62	7.11	-48.1	-50.6	6.1	0.00e+00	0	33	104	36003905536	60	41592
2026-01-04 21:54:11.38	132.78	7.04	-48.1	-50.6	6.1	0.00e+00	0	33	104	36003905536	60	41611
2026-01-04 21:54:12.39	132.94	6.98	-48.1	-50.6	6.1	0.00e+00	0	33	104	36003905536	60	41472
2026-01-04 21:54:13.40	133.10	6.92	-48.0	-50.5	6.1	0.00e+00	0	33	104	36003905536	60	41008
2026-01-04 21:54:14.41	133.26	6.85	-48.1	-50.6	6.1	0.00e+00	0	33	104	36003905536	60	41704
2026-01-04 21:54:15.42	133.42	6.79	-48.0	-50.5	6.1	0.00e+00	0	34	104	36003905536	60	41098
2026-01-04 21:54:16.43	133.58	6.72	-47.9	-50.4	6.1	0.00e+00	0	33	104	36003905536	60	40526
2026-01-04 21:54:17.44	133.74	6.66	-48.0	-50.5	6.1	0.00e+00	0	34	104	36003905536	60	40915
2026-01-04 21:54:18.45	133.89	6.59	-48.0	-50.5	6.1	0.00e+00	0	34	104	36003905536	60	41262
2026-01-04 21:54:19.46	134.05	6.53	-48.0	-50.5	6.1	0.00e+00	0	33	104	36003905536	60	40857
2026-01-04 21:54:20.47	134.20	6.47	-48.0	-50.5	6.0	0.00e+00	0	33	104	36003905536	60	40999
2026-01-04 21:54:21.48	134.36	6.40	-48.0	-50.5	6.1	0.00e+00	0	33	104	36003905536	60	41040
2026-01-04 21:54:22.49	134.51	6.34	-48.0	-50.4	6.1	0.00e+00	0	33	104	36003905536	60	40655
2026-01-04 21:54:23.50	134.66	6.27	-48.0	-50.5	6.1	0.00e+00	0	33	104	36003905536	60	41001
2026-01-04 21:54:24.51	134.81	6.21	-47.9	-50.4	6.1	0.00e+00	0	33	104	36003905536	60	40580
2026-01-04 21:54:25.52	134.96	6.15	-47.9	-50.4	6.1	0.00e+00	0	33	104	36003905536	60	40637
2026-01-04 21:54:26.53	135.11	6.08	-47.9	-50.4	6.1	0.00e+00	0	33	104	36003905536	60	40567
2026-01-04 21:54:27.54	135.26	6.02	-47.9	-50.4	6.1	0.00e+00	0	33	104	36003905536	60	40523
2026-01-04 21:54:28.54	135.41	5.96	-47.9	-50.4	6.1	0.00e+00	0	33	104	36003905536	60	40580
2026-01-04 21:54:29.55	135.56	5.89	-47.9	-50.4	6.1	0.00e+00	0	33	104	36003905536	60	40522
2026-01-04 21:54:30.56	135.70	5.83	-47.9	-50.4	6.1	0.00e+00	0	33	104	36003905536	60	40532
2026-01-04 21:54:31.57	135.85	5.77	-47.8	-50.3	6.1	0.00e+00	0	33	104	36003905536	60	40162
2026-01-04 21:54:32.58	136.00	5.70	-47.8	-50.3	6.1	0.00e+00	0	33	104	36003905536	60	40294
2026-01-04 21:54:33.59	136.14	5.64	-47.9	-50.3	6.1	0.00e+00	0	33	104	36003905536	60	40169
2026-01-04 21:54:34.60	136.28	5.58	-47.9	-50.4	6.1	0.00e+00	0	33	104	36003905536	60	40491
2026-01-04 21:54:35.61	136.43	5.51	-47.8	-50.3	6.1	0.00e+00	0	33	104	36003905536	60	39875
2026-01-04 21:54:36.62	136.57	5.45	-47.7	-50.2	6.1	0.00e+00	0	33	104	36003905536	60	39493
2026-01-04 21:54:37.63	136.71	5.39	-47.7	-50.2	6.1	0.00e+00	0	33	104	36003905536	60	39457
2026-01-04 21:54:38.64	136.85	5.33	-47.8	-50.3	6.1	0.00e+00	0	33	104	36003905536	60	39940
2026-01-04 21:54:39.65	136.99	5.26	-47.7	-50.2	6.1	0.00e+00	0	33	104	36003905536	60	39657
2026-01-04 21:54:40.66	137.13	5.20	-47.6	-50.1	6.1	0.00e+00	0	34	104	36003905536	60	39252
2026-01-04 21:54:41.67	137.27	5.14	-47.8	-50.3	6.1	0.00e+00	0	33	104	36003905536	60	39979
2026-01-04 21:54:42.68	137.41	5.08	-47.8	-50.3	6.1	0.00e+00	0	33	104	36003905536	60	39955
2026-01-04 21:54:43.69	137.54	5.01	-47.8	-50.3	6.1	0.00e+00	0	33	104	36003905536	60	39944
2026-01-04 21:54:44.70	137.68	4.95	-47.7	-50.2	6.1	0.00e+00	0	33	104	36003905536	60	39517
2026-01-04 21:54:45.71	137.82	4.89	-47.8	-50.3	6.1	0.00e+00	0	33	104	36003905536	60	39903
2026-01-04 21:54:46.72	137.95	4.83	-47.7	-50.2	6.1	0.00e+00	0	33	104	36003905536	60	39815
2026-01-04 21:54:47.73	138.08	4.77	-47.7	-50.2	6.1	0.00e+00	0	33	104	36003905536	60	39673
2026-01-04 21:54:48.74	138.22	4.70	-47.6	-50.1	6.1	0.00e+00	0	33	104	36003905536	60	39229
2026-01-04 21:54:49.75	138.35	4.64	-47.7	-50.2	6.1	0.00e+00	0	33	104	36003905536	60	39513
2026-01-04 21:54:50.76	138.48	4.58	-47.5	-50.0	6.1	0.00e+00	0	33	104	36003905536	60	38790
2026-01-04 21:54:51.77	138.62	4.52	-47.6	-50.0	6.1	0.00e+00	0	33	104	36003905536	60	38920
2026-01-04 21:54:52.78	138.75	4.46	-47.5	-49.9	6.1	0.00e+00	0	33	104	36003905536	60	38486
2026-01-04 21:54:53.79	138.88	4.39	-47.3	-49.8	6.1	0.00e+00	0	33	104	36003905536	60	37937
2026-01-04 21:54:54.80	139.01	4.33	-47.2	-49.6	6.0	0.00e+00	0	33	104	36003905536	60	37172
2026-01-04 21:54:55.81	139.13	4.27	-47.4	-49.9	6.1	0.00e+00	0	33	104	36003905536	60	38431
2026-01-04 21:54:56.82	139.26	4.21	-47.4	-49.9	6.1	0.00e+00	0	33	104	36003905536	60	38086
2026-01-04 21:54:57.83	139.39	4.15	-47.0	-49.5	6.1	0.00e+00	0	33	104	36003905536	60	36604
2026-01-04 21:54:58.83	139.52	4.09	-46.8	-49.2	6.1	0.00e+00	0	33	104	36003905536	60	35417
2026-01-04 21:54:59.84	139.64	4.03	-47.1	-49.6	6.1	0.00e+00	0	33	104	36003905536	60	36940
2026-01-04 21:55:00.85	139.77	3.97	-46.8	-49.3	6.1	0.00e+00	0	33	104	36003905536	60	35765
2026-01-04 21:55:01.86	139.89	3.91	-46.4	-49.0	6.1	0.00e+00	0	33	104	36003905536	60	34684
2026-01-04 21:55:02.87	140.02	3.85	-45.5	-48.5	6.1	0.00e+00	0	33	104	36003905536	60	32459
2026-01-04 21:55:03.88	140.14	3.78	-46.4	-49.0	6.1	0.00e+00	0	33	104	36003905536	60	34399
2026-01-04 21:55:04.89	140.26	3.72	-46.1	-48.5	6.1	0.00e+00	0	33	104	36003905536	60	32407
2026-01-04 21:55:05.90	140.39	3.66	-45.4	-47.7	6.1	0.00e+00	0	33	104	36003905536	60	29744
2026-01-04 21:55:06.91	140.51	3.60	-46.0	-48.5	6.1	0.00e+00	0	33	104	36003905536	60	32492
2026-01-04 21:55:07.91	140.63	3.54	-45.9	-48.4	6.1	0.00e+00	0	33	104	36003905536	60	32394
2026-01-04 21:55:08.92	140.75	3.48	-46.0	-48.5	6.1	0.00e+00	0	33	104	36003905536	60	32469
2026-01-04 21:55:09.93	140.87	3.42	-45.9	-48.4	6.1	0.00e+00	0	33	104	36003905536	60	32187
2026-01-04 21:55:10.94	140.99	3.36	-45.9	-48.4	6.1	0.00e+00	0	33	104	36003905536	60	32066
2026-01-04 21:55:11.95	141.11	3.30	-45.8	-48.4	6.1	0.00e+00	0	33	104	36003905536	60	32140
2026-01-04 21:55:12.96	141.23	3.24	-45.2	-47.8	6.1	0.00e+00	0	33	104	36003905536	60	30157
2026-01-04 21:55:13.97	141.34	3.18	-45.7	-48.2	6.1	0.00e+00	0	33	104	36003905536	60	31365
2026-01-04 21:55:14.98	141.46	3.12	-45.3	-47.9	6.1	0.00e+00	0	33	104	36003905536	60	30347
2026-01-04 21:55:15.99	141.58	3.06	-45.5	-48.0	6.1	0.00e+00	0	33	104	36003905536	60	30603
2026-01-04 21:55:17.00	141.69	3.00	-45.7	-48.2	6.0	0.00e+00	0	33	104	36003905536	60	31411
2026-01-04 21:55:18.01	141.81	2.94	-47.5	-50.0	6.1	0.00e+00	0	33	104	36003905536	60	38594
2026-01-04 21:55:19.02	141.92	2.89	-48.3	-50.8	6.1	0.00e+00	0	33	104	36003905536	60	42276
2026-01-04 21:55:20.03	142.04	2.83	-48.4	-50.9	6.1	0.00e+00	0	33	104	36003905536	60	42941
2026-01-04 21:55:21.03	142.15	2.77	-48.6	-51.1	6.1	0.00e+00	0	33	104	36003905536	60	43855
2026-01-04 21:55:22.04	142.26	2.71	-48.8	-51.3	6.1	0.00e+00	0	33	104	36003905536	60	44766
2026-01-04 21:55:23.05	142.38	2.65	-48.9	-51.3	6.1	0.00e+00	0	33	104	36003905536	60	45124
2026-01-04 21:55:24.06	142.49	2.59	-48.9	-51.3	6.1	0.00e+00	0	33	104	36003905536	60	44905
2026-01-04 21:55:25.07	142.60	2.53	-48.9	-51.3	6.1	0.00e+00	0	33	104	36003905536	60	45086
2026-01-04 21:55:26.08	142.71	2.47	-48.9	-51.4	6.1	0.00e+00	0	33	104	36003905536	60	45417
2026-01-04 21:55:27.09	142.82	2.41	-48.9	-51.4	6.1	0.00e+00	0	33	104	36003905536	60	45418
2026-01-04 21:55:28.10	142.93	2.36	-48.9	-51.4	6.1	0.00e+00	0	33	104	36003905536	60	45605
2026-01-04 21:55:29.11	143.04	2.30	-48.9	-51.4	6.1	0.00e+00	0	33	104	36003905536	60	45493
2026-01-04 21:55:30.12	143.15	2.24	-48.9	-51.4	6.1	0.00e+00	0	33	104	36003905536	60	45376
2026-01-04 21:55:31.13	143.26	2.18	-48.9	-51.4	6.1	0.00e+00	0	33	104	36003905536	60	45401
2026-01-04 21:55:32.14	143.36	2.12	-48.9	-51.4	6.1	0.00e+00	0	33	104	36003905536	60	45643
2026-01-04 21:55:33.15	143.47	2.06	-48.9	-51.3	6.1	0.00e+00	0	33	104	36003905536	60	45153
2026-01-04 21:55:34.16	143.58	2.01	-48.9	-51.3	6.1	0.00e+00	0	33	104	36003905536	60	45210
2026-01-04 21:55:35.17	143.68	1.95	-48.9	-51.4	6.1	0.00e+00	0	33	104	36003905536	60	45253
2026-01-04 21:55:36.18	143.79	1.89	-48.9	-51.3	6.1	0.00e+00	0	33	104	36003905536	60	45011
2026-01-04 21:55:37.19	143.89	1.83	-48.9	-51.4	6.1	0.00e+00	0	33	104	36003905536	60	45495
2026-01-04 21:55:38.20	144.00	1.77	-48.9	-51.4	6.1	0.00e+00	0	33	104	36003905536	60	45461
2026-01-04 21:55:39.21	144.10	1.72	-48.9	-51.4	6.1	0.00e+00	0	33	104	36003905536	60	45362
2026-01-04 21:55:40.22	144.21	1.66	-49.0	-51.5	6.1	0.00e+00	0	33	104	36003905536	60	45893
2026-01-04 21:55:41.23	144.31	1.60	-49.1	-51.5	6.1	0.00e+00	0	33	104	36003905536	60	46100
2026-01-04 21:55:42.24	144.41	1.54	-49.1	-51.5	6.1	0.00e+00	0	33	104	36003905536	60	46149
2026-01-04 21:55:43.25	144.52	1.49	-49.0	-51.5	6.1	0.00e+00	0	33	104	36003905536	60	46070
2026-01-04 21:55:44.26	144.62	1.43	-49.0	-51.5	6.1	0.00e+00	0	33	104	36003905536	60	45982
2026-01-04 21:55:45.27	144.72	1.37	-48.9	-51.4	6.1	0.00e+00	0	33	104	36003905536	60	45263
2026-01-04 21:55:46.28	144.82	1.32	-49.0	-51.5	6.1	0.00e+00	0	33	104	36003905536	60	46110
2026-01-04 21:55:47.29	144.92	1.26	-49.2	-51.6	6.1	0.00e+00	0	33	104	36003905536	60	46828
2026-01-04 21:55:48.30	145.02	1.20	-49.0	-51.5	6.1	0.00e+00	0	33	104	36003905536	60	45774
2026-01-04 21:55:49.31	145.12	1.15	-49.1	-51.6	6.1	0.00e+00	0	33	104	36003905536	60	46467
2026-01-04 21:55:50.32	145.22	1.09	-49.1	-51.6	6.1	0.00e+00	0	33	104	36003905536	60	46817
2026-01-04 21:55:51.33	145.32	1.03	-49.3	-51.8	6.1	0.00e+00	0	33	104	36003905536	60	47581
2026-01-04 21:55:52.34	145.41	0.98	-49.4	-51.8	6.1	0.00e+00	0	33	104	36003905536	60	47851
2026-01-04 21:55:53.35	145.51	0.92	-49.4	-51.9	6.1	0.00e+00	0	33	104	36003905536	60	48136
2026-01-04 21:55:54.35	145.61	0.86	-49.4	-51.8	6.1	0.00e+00	0	33	104	36003905536	60	47914
2026-01-04 21:55:55.36	145.70	0.81	-49.1	-51.6	6.1	0.00e+00	0	33	104	36003905536	60	46302
2026-01-04 21:55:56.37	145.80	0.75	-49.1	-51.6	6.1	0.00e+00	0	33	104	36003905536	60	46788
2026-01-04 21:55:57.38	145.90	0.70	-49.6	-52.1	6.1	0.00e+00	0	33	104	36003905536	60	49118
2026-01-04 21:55:58.39	145.99	0.64	-49.3	-51.7	6.1	0.00e+00	0	33	104	36003905536	60	47330
2026-01-04 21:55:59.40	146.09	0.58	-49.2	-51.7	6.1	0.00e+00	0	33	104	36003905536	60	47135
2026-01-04 21:56:00.41	146.18	0.53	-49.4	-51.9	6.1	0.00e+00	0	33	104	36003905536	60	48234
2026-01-04 21:56:01.42	146.27	0.47	-49.2	-51.7	6.1	0.00e+00	0	33	104	36003905536	60	47162
2026-01-04 21:56:02.43	146.37	0.42	-49.5	-52.0	6.1	0.00e+00	0	33	104	36003905536	60	48921
2026-01-04 21:56:03.44	146.46	0.36	-49.4	-51.9	6.1	0.00e+00	0	33	104	36003905536	60	48152
2026-01-04 21:56:04.45	146.55	0.31	-49.2	-51.7	6.1	0.00e+00	0	33	104	36003905536	60	46856
2026-01-04 21:56:05.46	146.65	0.25	-49.2	-51.7	6.1	0.00e+00	0	33	104	36003905536	60	47109
2026-01-04 21:56:06.47	146.74	0.19	-49.3	-51.7	6.1	0.00e+00	0	33	104	36003905536	60	47265
2026-01-04 21:56:07.48	146.83	0.14	-49.1	-51.6	6.1	0.00e+00	0	33	104	36003905536	60	46495
2026-01-04 21:56:08.49	146.92	0.08	-49.0	-51.5	6.1	0.00e+00	0	33	104	36003905536	60	46078
2026-01-04 21:56:09.50	147.01	0.03	-49.1	-51.6	6.1	0.00e+00	0	33	104	36003905536	60	46613
2026-01-04 21:56:10.51	147.10	-0.03	-49.1	-51.7	6.1	0.00e+00	0	33	104	36003905536	60	46925
2026-01-04 21:56:11.52	147.19	-0.08	-48.9	-51.4	6.1	0.00e+00	0	33	104	36003905536	60	45490
2026-01-04 21:56:12.53	147.28	-0.14	-49.2	-51.6	6.1	0.00e+00	0	33	104	36003905536	60	46743

#Closed at: 2026-01-04 21:56:12
#Recorded file [36003 MB]: D:/lorett/data/35029_260105_094625.dat