passes_logs/2026/01/04/R4.6S_Anadyr/R4.6S_Anadyr__20260104_010450_SUOMI_NPP_rec.log

#Pass ID: 20260104_010450_SUOMI NPP
#Satellite: SUOMI NPP
#Configuration: NPP
#almurnet v.1.7.20251203
#Start time: 2026-01-04 01:04:52

#Version: 2.2.20231116
#Station: R4.6S_Anadyr
#Location: 177.4865 lon 64.73178 lat
#TLE: 1 37849U 11061A   26001.07732418  .00000182  00000+0  10735-3 0  9990
#TLE: 2 37849  98.7795 303.2470 0002580  87.2016 272.9455 14.19520779734739

#Time	Az	El	Level	Level2	SNR	BER	BlckErr	Temp	State	Recorded	gain1	gain2
2026-01-04 01:04:52.12	176.28	0.09	-50.8	-63.3	3.4	1.52e+00	0	38	0	0	60	51538
2026-01-04 01:04:53.13	176.31	0.15	-51.0	-66.5	3.6	1.51e+00	0	39	104	0	60	75998
2026-01-04 01:04:54.14	176.34	0.21	-51.7	-66.9	3.6	1.51e+00	0	39	104	0	60	79712
2026-01-04 01:04:55.15	176.37	0.27	-51.5	-66.8	3.6	1.51e+00	0	39	104	0	60	78874
2026-01-04 01:04:56.16	176.39	0.33	-51.4	-66.7	3.6	1.51e+00	0	39	104	0	60	77762
2026-01-04 01:04:57.17	176.42	0.39	-51.9	-67.2	3.5	1.51e+00	0	39	104	0	60	82696
2026-01-04 01:04:58.18	176.45	0.45	-51.6	-66.8	3.6	1.51e+00	0	39	104	0	60	79160
2026-01-04 01:04:59.19	176.48	0.51	-50.9	-66.1	3.6	1.51e+00	0	39	104	0	60	73116
2026-01-04 01:05:00.20	176.51	0.57	-50.4	-65.6	3.6	1.51e+00	0	39	104	0	60	69032
2026-01-04 01:05:01.21	176.53	0.63	-50.2	-65.4	3.6	1.51e+00	0	39	104	0	60	67517
2026-01-04 01:05:02.22	176.56	0.69	-50.0	-65.3	3.6	1.51e+00	0	39	104	0	60	66189
2026-01-04 01:05:03.23	176.59	0.75	-49.8	-65.2	3.6	1.51e+00	0	39	104	0	60	65836
2026-01-04 01:05:04.24	176.62	0.81	-49.9	-65.1	3.6	1.51e+00	0	39	104	0	60	65295
2026-01-04 01:05:05.25	176.65	0.87	-49.8	-65.0	3.6	1.51e+00	0	39	104	0	60	64375
2026-01-04 01:05:06.26	176.68	0.93	-49.8	-65.0	3.6	1.51e+00	0	39	104	0	60	64066
2026-01-04 01:05:07.27	176.71	1.00	-49.6	-64.8	3.6	1.51e+00	0	39	104	0	60	62859
2026-01-04 01:05:08.28	176.73	1.06	-49.2	-64.5	3.6	1.51e+00	0	39	104	0	60	60356
2026-01-04 01:05:09.29	176.76	1.12	-49.6	-64.8	3.6	1.51e+00	0	39	104	0	60	62741
2026-01-04 01:05:10.29	176.79	1.18	-49.3	-64.5	3.6	1.51e+00	0	39	104	0	60	60846
2026-01-04 01:05:11.30	176.82	1.24	-49.1	-64.3	3.6	1.51e+00	0	39	104	0	60	59412
2026-01-04 01:05:12.31	176.85	1.30	-49.3	-64.5	3.6	1.51e+00	0	39	104	0	60	60615
2026-01-04 01:05:13.32	176.88	1.36	-49.6	-64.8	3.6	1.51e+00	0	39	104	0	60	63139
2026-01-04 01:05:14.33	176.91	1.43	-49.5	-64.7	3.6	1.51e+00	0	39	104	0	60	62055
2026-01-04 01:05:15.34	176.94	1.49	-49.6	-64.8	3.6	1.51e+00	0	39	104	0	60	62828
2026-01-04 01:05:16.35	176.97	1.55	-49.5	-64.7	3.6	1.51e+00	0	39	104	0	60	61760
2026-01-04 01:05:17.36	177.00	1.61	-49.5	-64.7	3.6	1.51e+00	0	39	104	0	60	61833
2026-01-04 01:05:18.37	177.03	1.68	-49.6	-64.8	3.6	1.51e+00	0	39	104	0	60	62943
2026-01-04 01:05:19.38	177.06	1.74	-49.6	-64.7	3.6	1.51e+00	0	39	104	0	60	62015
2026-01-04 01:05:20.39	177.09	1.80	-49.4	-64.5	3.6	1.51e+00	0	39	104	0	60	60940
2026-01-04 01:05:21.40	177.12	1.86	-49.0	-64.2	3.6	1.51e+00	0	39	104	0	60	58414
2026-01-04 01:05:22.41	177.15	1.93	-49.0	-64.2	3.6	1.51e+00	0	39	104	0	60	58449
2026-01-04 01:05:23.41	177.18	1.99	-49.0	-64.1	3.6	1.51e+00	0	39	104	0	60	58035
2026-01-04 01:05:24.42	177.21	2.05	-48.9	-64.1	3.6	1.51e+00	0	39	104	0	60	57739
2026-01-04 01:05:25.44	177.24	2.12	-48.9	-64.0	3.6	1.51e+00	0	39	104	0	60	57175
2026-01-04 01:05:26.45	177.27	2.18	-48.9	-64.0	3.6	1.51e+00	0	39	104	0	60	57338
2026-01-04 01:05:27.46	177.31	2.25	-48.9	-64.0	3.6	1.51e+00	0	39	104	0	60	57302
2026-01-04 01:05:28.47	177.34	2.31	-48.8	-63.9	3.6	1.51e+00	0	39	104	0	60	56877
2026-01-04 01:05:29.48	177.37	2.37	-48.8	-63.9	3.6	1.51e+00	0	39	104	0	60	56596
2026-01-04 01:05:30.49	177.40	2.44	-48.8	-63.9	3.6	1.51e+00	0	39	104	0	60	56896
2026-01-04 01:05:31.49	177.43	2.50	-48.8	-63.8	3.6	1.51e+00	0	39	104	0	60	56288
2026-01-04 01:05:32.50	177.46	2.57	-48.7	-63.5	3.6	1.51e+00	0	39	104	0	60	53932
2026-01-04 01:05:33.51	177.49	2.63	-48.8	-63.0	3.6	1.51e+00	0	39	104	0	60	50768
2026-01-04 01:05:34.52	177.53	2.70	-48.9	-62.4	3.6	1.51e+00	0	39	104	0	60	47676
2026-01-04 01:05:35.53	177.56	2.76	-48.8	-62.0	3.7	1.50e+00	0	39	104	0	60	45566
2026-01-04 01:05:36.54	177.59	2.83	-49.0	-62.0	3.7	1.50e+00	0	39	104	0	60	45756
2026-01-04 01:05:37.55	177.62	2.89	-48.9	-62.5	3.6	1.51e+00	0	39	104	0	60	48122
2026-01-04 01:05:38.56	177.66	2.96	-49.1	-63.6	3.6	1.51e+00	0	40	104	0	60	54462
2026-01-04 01:05:39.57	177.69	3.02	-49.1	-63.0	3.6	1.51e+00	0	40	104	0	60	51142
2026-01-04 01:05:40.58	177.72	3.09	-48.9	-60.6	4.0	1.50e+00	65	39	104	0	60	38743
2026-01-04 01:05:41.59	177.75	3.15	-48.4	-55.7	6.8	3.60e-01	0	40	0	0	60	21920
2026-01-04 01:05:42.60	177.79	3.22	-47.4	-52.2	11.0	1.33e-02	0	39	0	2097152	60	14755
2026-01-04 01:05:43.60	177.82	3.28	-46.6	-50.3	13.1	3.91e-04	0	39	0	4194304	60	11806
2026-01-04 01:05:44.61	177.85	3.35	-46.0	-49.0	14.8	7.60e-06	0	39	0	6291456	60	10144
2026-01-04 01:05:45.63	177.89	3.42	-44.9	-47.2	16.5	0.00e+00	0	39	0	8388608	60	8270
2026-01-04 01:05:46.64	177.92	3.48	-43.9	-45.8	17.9	0.00e+00	0	39	0	9437184	60	7041
2026-01-04 01:05:47.64	177.95	3.55	-43.3	-45.1	18.2	0.00e+00	0	39	0	11534336	60	6503
2026-01-04 01:05:48.65	177.99	3.62	-42.6	-44.2	18.9	0.00e+00	0	39	0	13631488	58	6540
2026-01-04 01:05:49.66	178.02	3.68	-42.7	-44.3	18.8	0.00e+00	0	39	0	15728640	58	6646
2026-01-04 01:05:50.67	178.05	3.75	-42.7	-44.3	18.8	0.00e+00	0	39	0	17825792	58	6682
2026-01-04 01:05:51.68	178.09	3.82	-45.7	-48.5	15.8	6.63e-05	0	39	0	18874368	60	9610
2026-01-04 01:05:52.69	178.12	3.89	-44.9	-47.0	17.2	1.27e-01	0	39	0	20971520	60	8111
2026-01-04 01:05:53.70	178.16	3.95	-46.4	-49.7	13.0	7.00e-07	0	39	0	23068672	60	11065
2026-01-04 01:05:54.71	178.19	4.02	-44.4	-46.4	17.4	1.43e-01	0	40	0	25165824	60	7567
2026-01-04 01:05:55.72	178.23	4.09	-46.5	-50.0	13.4	5.26e-02	0	40	0	27262976	60	11483
2026-01-04 01:05:56.73	178.26	4.16	-43.2	-45.0	18.0	0.00e+00	0	39	0	28311552	60	6441
2026-01-04 01:05:57.74	178.30	4.23	-43.0	-44.7	18.4	0.00e+00	0	39	0	30408704	60	6221
2026-01-04 01:05:58.74	178.33	4.29	-43.2	-45.0	18.0	0.00e+00	0	40	0	32505856	60	6454
2026-01-04 01:05:59.75	178.37	4.36	-43.2	-44.9	18.5	0.00e+00	0	39	0	34603008	60	6356
2026-01-04 01:06:00.76	178.40	4.43	-43.0	-44.7	18.4	0.00e+00	0	39	0	36700160	60	6204
2026-01-04 01:06:01.77	178.44	4.50	-43.2	-45.0	18.5	0.00e+00	0	40	0	37748736	60	6430
2026-01-04 01:06:02.77	178.47	4.57	-42.7	-44.3	19.1	0.00e+00	0	40	0	39845888	58	6629
2026-01-04 01:06:03.78	178.51	4.64	-42.7	-44.2	19.1	0.00e+00	0	40	0	41943040	58	6591
2026-01-04 01:06:04.79	178.55	4.71	-42.9	-44.5	18.8	0.00e+00	0	40	0	44040192	58	6809
2026-01-04 01:06:05.80	178.58	4.78	-42.5	-44.1	19.0	0.00e+00	0	40	0	46137344	58	6468
2026-01-04 01:06:06.81	178.62	4.85	-42.4	-43.9	19.2	0.00e+00	0	40	0	47185920	58	6340
2026-01-04 01:06:07.81	178.66	4.92	-42.7	-44.3	18.8	0.00e+00	0	40	0	49283072	58	6625
2026-01-04 01:06:08.82	178.69	4.99	-42.9	-44.5	19.0	0.00e+00	0	40	0	51380224	58	6814
2026-01-04 01:06:09.83	178.73	5.06	-43.0	-44.6	18.8	0.00e+00	0	40	0	53477376	58	6883
2026-01-04 01:06:10.83	178.77	5.13	-42.7	-44.2	19.1	0.00e+00	0	40	0	55574528	58	6581
2026-01-04 01:06:11.84	178.80	5.20	-43.0	-44.5	18.8	0.00e+00	0	40	0	56623104	58	6846
2026-01-04 01:06:12.85	178.84	5.27	-42.8	-44.3	19.0	0.00e+00	0	40	0	58720256	58	6663
2026-01-04 01:06:13.86	178.88	5.34	-42.9	-44.4	19.2	0.00e+00	0	40	0	60817408	58	6700
2026-01-04 01:06:14.86	178.92	5.41	-43.2	-44.9	18.7	0.00e+00	0	40	0	62914560	58	7096
2026-01-04 01:06:15.87	178.95	5.48	-43.2	-44.8	18.8	0.00e+00	0	40	0	65011712	58	7019
2026-01-04 01:06:16.88	178.99	5.55	-43.0	-44.6	19.1	0.00e+00	0	40	0	66060288	58	6865
2026-01-04 01:06:17.89	179.03	5.63	-43.2	-44.8	18.9	0.00e+00	0	40	0	68157440	58	7028
2026-01-04 01:06:18.90	179.07	5.70	-43.0	-44.5	18.9	0.00e+00	0	40	0	70254592	58	6848
2026-01-04 01:06:19.91	179.11	5.77	-43.0	-44.5	19.2	0.00e+00	0	40	0	72351744	58	6785
2026-01-04 01:06:20.92	179.15	5.84	-43.6	-45.2	18.9	0.00e+00	0	40	0	74448896	58	7339
2026-01-04 01:06:21.93	179.19	5.92	-43.3	-44.9	19.0	0.00e+00	0	40	0	75497472	58	7105
2026-01-04 01:06:22.93	179.23	5.99	-42.6	-44.0	19.4	0.00e+00	0	40	0	77594624	58	6429
2026-01-04 01:06:23.94	179.26	6.06	-42.5	-44.0	19.6	0.00e+00	0	40	0	79691776	58	6403
2026-01-04 01:06:24.95	179.30	6.13	-42.2	-43.6	19.9	0.00e+00	0	40	0	81788928	58	6149
2026-01-04 01:06:25.96	179.34	6.21	-42.0	-43.3	19.8	0.00e+00	0	40	0	83886080	58	5938
2026-01-04 01:06:26.97	179.38	6.28	-42.2	-43.6	19.8	0.00e+00	0	40	0	84934656	58	6119
2026-01-04 01:06:27.98	179.42	6.35	-41.9	-43.2	19.9	0.00e+00	0	40	0	87031808	58	5885
2026-01-04 01:06:28.99	179.46	6.43	-42.1	-43.4	20.2	0.00e+00	0	40	0	89128960	58	6015
2026-01-04 01:06:29.99	179.50	6.50	-42.1	-43.4	20.0	0.00e+00	0	40	0	91226112	58	6008
2026-01-04 01:06:31.01	179.55	6.58	-41.9	-43.2	20.3	0.00e+00	0	40	0	93323264	58	5883
2026-01-04 01:06:32.01	179.59	6.65	-41.9	-43.2	20.3	0.00e+00	0	40	0	94371840	56	6569
2026-01-04 01:06:33.02	179.63	6.73	-42.1	-43.4	20.1	0.00e+00	0	40	0	96468992	56	6751
2026-01-04 01:06:34.03	179.67	6.80	-41.8	-43.1	20.4	0.00e+00	0	40	0	98566144	56	6531
2026-01-04 01:06:35.04	179.71	6.88	-41.8	-43.1	20.2	0.00e+00	0	40	0	100663296	56	6518
2026-01-04 01:06:36.05	179.75	6.95	-41.5	-42.8	20.6	0.00e+00	0	40	0	102760448	56	6274
2026-01-04 01:06:37.06	179.79	7.03	-41.3	-42.5	20.9	0.00e+00	0	40	0	104857600	56	6097
2026-01-04 01:06:38.07	179.83	7.10	-41.3	-42.5	20.8	0.00e+00	0	40	0	105906176	56	6091
2026-01-04 01:06:39.08	179.88	7.18	-41.1	-42.3	21.1	0.00e+00	0	40	0	108003328	56	5901
2026-01-04 01:06:40.09	179.92	7.26	-41.2	-42.4	21.0	0.00e+00	0	40	0	110100480	56	5987
2026-01-04 01:06:41.10	179.96	7.33	-41.2	-42.4	20.9	0.00e+00	0	40	0	112197632	56	6001
2026-01-04 01:06:42.11	180.00	7.41	-41.5	-42.6	21.3	0.00e+00	0	40	0	114294784	56	6131
2026-01-04 01:06:43.12	180.05	7.49	-41.5	-42.7	21.1	0.00e+00	0	40	0	115343360	56	6202
2026-01-04 01:06:44.13	180.09	7.56	-41.3	-42.5	21.3	0.00e+00	0	40	0	117440512	56	6053
2026-01-04 01:06:45.14	180.13	7.64	-41.6	-42.7	21.0	0.00e+00	0	40	0	119537664	56	6227
2026-01-04 01:06:46.15	180.18	7.72	-41.8	-43.0	21.2	0.00e+00	0	40	0	121634816	56	6429
2026-01-04 01:06:47.16	180.22	7.80	-41.4	-42.6	21.2	0.00e+00	0	40	0	123731968	56	6121
2026-01-04 01:06:48.17	180.27	7.87	-41.3	-42.5	21.1	0.00e+00	0	40	0	124780544	56	6071
2026-01-04 01:06:49.18	180.31	7.95	-41.2	-42.4	21.1	0.00e+00	0	40	0	126877696	56	5999
2026-01-04 01:06:50.19	180.36	8.03	-41.3	-42.5	21.2	0.00e+00	0	40	0	128974848	56	6065
2026-01-04 01:06:51.20	180.40	8.11	-41.0	-42.2	21.2	0.00e+00	0	40	0	131072000	56	5865
2026-01-04 01:06:52.21	180.45	8.19	-41.1	-42.3	21.2	0.00e+00	0	40	0	133169152	56	5939
2026-01-04 01:06:53.21	180.49	8.27	-41.0	-42.1	21.4	0.00e+00	0	40	0	134217728	56	5823
2026-01-04 01:06:54.22	180.54	8.35	-40.9	-42.1	21.4	0.00e+00	0	40	0	136314880	56	5769
2026-01-04 01:06:55.24	180.58	8.43	-41.2	-42.3	21.4	0.00e+00	0	40	0	138412032	56	5944
2026-01-04 01:06:56.25	180.63	8.51	-41.2	-42.3	21.5	0.00e+00	0	40	0	140509184	56	5959
2026-01-04 01:06:57.25	180.67	8.59	-41.5	-42.7	20.9	0.00e+00	0	40	0	142606336	56	6202
2026-01-04 01:06:58.26	180.72	8.67	-41.5	-42.6	21.2	0.00e+00	0	40	0	143654912	56	6160
2026-01-04 01:06:59.27	180.77	8.75	-41.6	-42.8	21.1	0.00e+00	0	40	0	145752064	56	6299
2026-01-04 01:07:00.28	180.81	8.83	-41.2	-42.4	21.4	0.00e+00	0	40	0	147849216	56	5972
2026-01-04 01:07:01.29	180.86	8.91	-40.9	-42.0	21.5	0.00e+00	0	40	0	149946368	56	5699
2026-01-04 01:07:02.29	180.91	8.99	-41.1	-42.3	21.3	0.00e+00	0	40	0	152043520	56	5934
2026-01-04 01:07:03.30	180.95	9.07	-41.4	-42.5	21.5	0.00e+00	0	40	0	153092096	56	6090
2026-01-04 01:07:04.31	181.00	9.15	-41.6	-42.8	21.4	0.00e+00	0	40	0	155189248	56	6268
2026-01-04 01:07:05.32	181.05	9.24	-41.5	-42.6	21.4	0.00e+00	0	40	0	157286400	56	6166
2026-01-04 01:07:06.33	181.10	9.32	-41.4	-42.5	21.5	0.00e+00	0	40	0	159383552	56	6042
2026-01-04 01:07:07.34	181.15	9.40	-41.2	-42.3	21.6	0.00e+00	0	40	0	161480704	56	5897
2026-01-04 01:07:08.35	181.20	9.48	-41.4	-42.5	21.5	0.00e+00	0	40	0	162529280	56	6099
2026-01-04 01:07:09.36	181.25	9.57	-41.5	-42.6	21.7	0.00e+00	0	40	0	164626432	56	6165
2026-01-04 01:07:10.37	181.30	9.65	-41.9	-43.0	21.6	0.00e+00	0	40	0	166723584	56	6446
2026-01-04 01:07:11.37	181.34	9.73	-41.0	-42.1	21.8	0.00e+00	0	40	0	168820736	56	5798
2026-01-04 01:07:12.38	181.39	9.82	-41.1	-42.2	21.9	0.00e+00	0	40	0	170917888	56	5850
2026-01-04 01:07:13.39	181.44	9.90	-41.1	-42.2	21.7	0.00e+00	0	40	0	173015040	56	5835
2026-01-04 01:07:14.40	181.49	9.99	-41.1	-42.2	21.8	0.00e+00	0	40	0	174063616	56	5864
2026-01-04 01:07:15.40	181.54	10.07	-40.6	-41.7	21.8	0.00e+00	0	40	0	176160768	54	6179
2026-01-04 01:07:16.41	181.60	10.15	-41.2	-42.2	21.9	0.00e+00	0	40	0	178257920	54	6601
2026-01-04 01:07:17.42	181.65	10.24	-41.6	-42.7	21.8	0.00e+00	0	40	0	180355072	54	6975
2026-01-04 01:07:18.43	181.70	10.33	-41.8	-42.9	21.8	0.00e+00	0	40	0	181403648	54	7092
2026-01-04 01:07:19.44	181.75	10.41	-41.5	-42.6	21.8	0.00e+00	0	40	0	183500800	56	6147
2026-01-04 01:07:20.45	181.80	10.50	-40.8	-41.9	22.2	0.00e+00	0	40	0	185597952	56	5653
2026-01-04 01:07:21.46	181.86	10.58	-40.5	-41.6	22.0	0.00e+00	0	40	0	187695104	54	6121
2026-01-04 01:07:22.47	181.91	10.67	-40.6	-41.6	22.0	0.00e+00	0	40	0	189792256	54	6148
2026-01-04 01:07:23.48	181.96	10.76	-40.6	-41.6	22.1	0.00e+00	0	40	0	190840832	54	6147
2026-01-04 01:07:24.49	182.01	10.85	-40.5	-41.6	22.0	0.00e+00	0	40	0	192937984	54	6115
2026-01-04 01:07:25.49	182.07	10.93	-41.0	-42.1	22.0	0.00e+00	0	40	0	195035136	54	6479
2026-01-04 01:07:26.50	182.12	11.02	-40.6	-41.7	21.8	0.00e+00	0	40	0	197132288	54	6201
2026-01-04 01:07:27.51	182.18	11.11	-40.1	-41.2	22.1	0.00e+00	0	40	0	199229440	54	5834
2026-01-04 01:07:28.52	182.23	11.20	-40.4	-41.5	22.0	0.00e+00	0	40	0	201326592	54	6040
2026-01-04 01:07:29.53	182.28	11.29	-40.3	-41.3	22.0	0.00e+00	0	40	0	202375168	54	5946
2026-01-04 01:07:30.54	182.34	11.37	-40.4	-41.4	22.0	0.00e+00	0	40	0	204472320	54	6015
2026-01-04 01:07:31.55	182.39	11.46	-40.4	-41.5	22.0	0.00e+00	0	40	0	206569472	54	6043
2026-01-04 01:07:32.56	182.45	11.55	-40.2	-41.2	22.1	0.00e+00	0	40	0	208666624	54	5891
2026-01-04 01:07:33.57	182.51	11.64	-40.2	-41.3	22.0	0.00e+00	0	40	0	210763776	54	5910
2026-01-04 01:07:34.58	182.56	11.73	-40.0	-41.1	22.1	0.00e+00	0	40	0	211812352	54	5775
2026-01-04 01:07:35.59	182.62	11.83	-40.1	-41.1	22.3	0.00e+00	0	40	0	213909504	54	5823
2026-01-04 01:07:36.60	182.68	11.92	-40.5	-41.6	22.1	0.00e+00	0	40	0	216006656	54	6107
2026-01-04 01:07:37.61	182.73	12.01	-40.3	-41.3	22.4	0.00e+00	0	40	0	218103808	54	5942
2026-01-04 01:07:38.61	182.79	12.10	-40.4	-41.5	22.2	0.00e+00	0	40	0	220200960	54	6046
2026-01-04 01:07:39.62	182.85	12.19	-40.0	-41.0	22.4	0.00e+00	0	40	0	221249536	54	5717
2026-01-04 01:07:40.63	182.91	12.28	-39.9	-40.9	22.5	0.00e+00	0	40	0	223346688	54	5671
2026-01-04 01:07:41.64	182.97	12.37	-40.2	-41.2	22.4	0.00e+00	0	40	0	225443840	54	5870
2026-01-04 01:07:42.65	183.03	12.47	-40.2	-41.2	22.4	0.00e+00	0	40	0	227540992	54	5843
2026-01-04 01:07:43.66	183.08	12.56	-40.1	-41.1	22.4	0.00e+00	0	40	0	229638144	54	5799
2026-01-04 01:07:44.67	183.14	12.65	-40.1	-41.1	22.5	0.00e+00	0	40	0	230686720	54	5767
2026-01-04 01:07:45.67	183.20	12.75	-40.2	-41.2	22.4	0.00e+00	0	40	0	232783872	54	5850
2026-01-04 01:07:46.68	183.26	12.84	-40.0	-41.0	22.6	0.00e+00	0	40	0	234881024	54	5750
2026-01-04 01:07:47.69	183.33	12.94	-40.1	-41.0	22.7	0.00e+00	0	40	0	236978176	52	6452
2026-01-04 01:07:48.70	183.39	13.03	-40.3	-41.2	22.5	0.00e+00	0	40	0	239075328	52	6606
2026-01-04 01:07:49.71	183.45	13.13	-39.8	-40.7	22.8	0.00e+00	0	40	0	240123904	52	6226
2026-01-04 01:07:50.72	183.51	13.22	-39.8	-40.7	22.6	0.00e+00	0	40	0	242221056	52	6242
2026-01-04 01:07:51.73	183.57	13.32	-39.5	-40.5	22.9	0.00e+00	0	40	0	244318208	52	6043
2026-01-04 01:07:52.74	183.64	13.41	-39.6	-40.6	22.9	0.00e+00	0	40	0	246415360	52	6125
2026-01-04 01:07:53.75	183.70	13.51	-39.9	-40.9	22.7	0.00e+00	0	40	0	248512512	52	6320
2026-01-04 01:07:54.76	183.76	13.61	-40.1	-41.1	22.9	0.00e+00	0	40	0	249561088	52	6471
2026-01-04 01:07:55.76	183.83	13.70	-39.8	-40.7	22.8	0.00e+00	0	40	0	251658240	52	6216
2026-01-04 01:07:56.77	183.89	13.80	-39.7	-40.6	22.9	0.00e+00	0	40	0	253755392	52	6147
2026-01-04 01:07:57.78	183.95	13.90	-39.3	-40.2	23.0	0.00e+00	0	40	0	255852544	52	5858
2026-01-04 01:07:58.79	184.02	14.00	-39.6	-40.5	22.9	0.00e+00	0	40	0	257949696	52	6092
2026-01-04 01:07:59.79	184.08	14.10	-39.5	-40.4	22.9	0.00e+00	0	40	0	258998272	52	6006
2026-01-04 01:08:00.80	184.15	14.20	-39.5	-40.4	22.8	0.00e+00	0	40	0	261095424	52	6025
2026-01-04 01:08:01.81	184.22	14.30	-39.7	-40.6	22.7	0.00e+00	0	40	0	263192576	52	6132
2026-01-04 01:08:02.82	184.28	14.40	-39.3	-40.2	23.0	0.00e+00	0	40	0	265289728	52	5845
2026-01-04 01:08:03.83	184.35	14.50	-39.7	-40.7	22.7	0.00e+00	0	40	0	267386880	52	6208
2026-01-04 01:08:04.84	184.42	14.60	-39.4	-40.3	23.1	0.00e+00	0	40	0	269484032	52	5943
2026-01-04 01:08:05.85	184.49	14.70	-39.6	-40.5	22.8	0.00e+00	0	40	0	270532608	52	6076
2026-01-04 01:08:06.86	184.55	14.80	-39.2	-40.1	23.3	0.00e+00	0	40	0	272629760	52	5825
2026-01-04 01:08:07.87	184.62	14.90	-39.2	-40.1	23.1	0.00e+00	0	40	0	274726912	52	5770
2026-01-04 01:08:08.88	184.69	15.00	-39.2	-40.1	23.2	0.00e+00	0	40	0	276824064	52	5771
2026-01-04 01:08:09.89	184.76	15.11	-39.2	-40.1	23.3	0.00e+00	0	40	0	278921216	52	5763
2026-01-04 01:08:10.90	184.83	15.21	-39.3	-40.2	23.4	0.00e+00	0	40	0	279969792	52	5869
2026-01-04 01:08:11.90	184.90	15.31	-39.2	-40.1	23.2	0.00e+00	0	40	0	282066944	52	5818
2026-01-04 01:08:12.91	184.97	15.42	-38.9	-39.7	23.4	0.00e+00	0	40	0	284164096	52	5565
2026-01-04 01:08:13.92	185.05	15.52	-39.0	-39.9	23.3	0.00e+00	0	40	0	286261248	52	5663
2026-01-04 01:08:14.93	185.12	15.62	-38.6	-39.5	23.6	0.00e+00	0	40	0	287309824	50	6077
2026-01-04 01:08:15.94	185.19	15.73	-38.6	-39.5	23.6	0.00e+00	0	40	0	289406976	50	6050
2026-01-04 01:08:16.95	185.26	15.84	-38.7	-39.5	23.4	0.00e+00	0	40	0	291504128	50	6093
2026-01-04 01:08:17.96	185.34	15.94	-38.5	-39.4	23.5	0.00e+00	0	40	0	293601280	50	6000
2026-01-04 01:08:18.97	185.41	16.05	-38.6	-39.5	23.4	0.00e+00	0	40	0	295698432	50	6074
2026-01-04 01:08:19.97	185.48	16.15	-38.7	-39.6	23.4	0.00e+00	0	40	0	297795584	50	6156
2026-01-04 01:08:20.98	185.56	16.26	-38.7	-39.6	23.4	0.00e+00	0	40	0	298844160	50	6140
2026-01-04 01:08:21.99	185.64	16.37	-38.9	-39.8	23.3	0.00e+00	0	40	0	300941312	50	6267
2026-01-04 01:08:23.00	185.71	16.48	-38.8	-39.7	23.4	0.00e+00	0	40	0	303038464	50	6194
2026-01-04 01:08:24.01	185.79	16.58	-38.9	-39.8	23.3	0.00e+00	0	40	0	305135616	50	6303
2026-01-04 01:08:25.02	185.87	16.69	-38.9	-39.8	23.2	0.00e+00	0	40	0	307232768	50	6311
2026-01-04 01:08:26.03	185.94	16.80	-39.1	-40.0	23.2	0.00e+00	0	40	0	308281344	50	6447
2026-01-04 01:08:27.04	186.02	16.91	-38.9	-39.7	23.3	0.00e+00	0	40	0	310378496	50	6244
2026-01-04 01:08:28.05	186.10	17.02	-38.9	-39.8	23.1	0.00e+00	0	40	0	312475648	50	6305
2026-01-04 01:08:29.06	186.18	17.13	-38.7	-39.5	23.4	0.00e+00	0	40	0	314572800	50	6100
2026-01-04 01:08:30.07	186.26	17.24	-38.9	-39.8	23.1	0.00e+00	0	40	0	316669952	50	6305
2026-01-04 01:08:31.07	186.34	17.36	-38.7	-39.6	23.4	0.00e+00	0	40	0	317718528	50	6136
2026-01-04 01:08:32.08	186.42	17.47	-38.4	-39.3	23.6	0.00e+00	0	40	0	319815680	50	5917
2026-01-04 01:08:33.09	186.50	17.58	-38.3	-39.2	23.8	0.00e+00	0	40	0	321912832	50	5853
2026-01-04 01:08:34.10	186.58	17.69	-38.3	-39.2	23.8	0.00e+00	0	40	0	324009984	50	5863
2026-01-04 01:08:35.11	186.67	17.81	-38.2	-39.1	23.9	0.00e+00	0	40	0	326107136	50	5781
2026-01-04 01:08:36.12	186.75	17.92	-38.1	-38.9	23.8	0.00e+00	0	40	0	327155712	50	5672
2026-01-04 01:08:37.13	186.83	18.04	-38.1	-38.9	24.0	0.00e+00	0	40	0	329252864	50	5640
2026-01-04 01:08:38.13	186.92	18.15	-38.0	-38.9	24.0	0.00e+00	0	40	0	331350016	50	5633
2026-01-04 01:08:39.15	187.00	18.27	-38.0	-38.8	24.0	0.00e+00	0	40	0	333447168	50	5614
2026-01-04 01:08:40.15	187.09	18.38	-37.9	-38.7	24.0	0.00e+00	0	40	0	335544320	50	5564
2026-01-04 01:08:41.17	187.18	18.50	-38.0	-38.8	23.9	0.00e+00	0	40	0	336592896	50	5618
2026-01-04 01:08:42.18	187.26	18.61	-37.9	-38.8	24.0	0.00e+00	0	40	0	338690048	50	5568
2026-01-04 01:08:43.18	187.35	18.73	-38.3	-39.1	23.8	0.00e+00	0	40	0	340787200	50	5820
2026-01-04 01:08:44.19	187.44	18.85	-38.0	-38.9	23.9	0.00e+00	0	40	0	342884352	50	5639
2026-01-04 01:08:45.20	187.53	18.97	-38.2	-39.1	23.9	0.00e+00	0	40	0	344981504	50	5762
2026-01-04 01:08:46.21	187.62	19.09	-38.0	-38.9	23.9	0.00e+00	0	40	0	346030080	50	5649
2026-01-04 01:08:47.22	187.71	19.21	-38.1	-39.0	23.9	0.00e+00	0	40	0	348127232	50	5732
2026-01-04 01:08:48.23	187.80	19.33	-38.2	-39.1	23.9	0.00e+00	0	40	0	350224384	50	5784
2026-01-04 01:08:49.24	187.89	19.45	-38.3	-39.2	23.7	0.00e+00	0	40	0	352321536	50	5857
2026-01-04 01:08:50.24	187.98	19.57	-38.3	-39.2	23.8	0.00e+00	0	40	0	354418688	50	5875
2026-01-04 01:08:51.25	188.07	19.69	-38.7	-39.6	23.5	0.00e+00	0	40	0	355467264	50	6118
2026-01-04 01:08:52.26	188.17	19.81	-38.5	-39.4	23.6	0.00e+00	0	40	0	357564416	50	5972
2026-01-04 01:08:53.27	188.26	19.93	-38.5	-39.5	23.6	0.00e+00	0	40	0	359661568	50	6038
2026-01-04 01:08:54.28	188.36	20.05	-38.7	-39.6	23.5	0.00e+00	0	40	0	361758720	50	6129
2026-01-04 01:08:55.29	188.45	20.18	-38.8	-39.7	23.5	0.00e+00	0	40	0	363855872	50	6212
2026-01-04 01:08:56.30	188.55	20.30	-38.7	-39.6	23.5	0.00e+00	0	40	0	365953024	50	6123
2026-01-04 01:08:57.31	188.65	20.43	-38.4	-39.3	23.7	0.00e+00	0	40	0	367001600	50	5917
2026-01-04 01:08:58.32	188.75	20.55	-38.4	-39.3	23.7	0.00e+00	0	40	0	369098752	50	5916
2026-01-04 01:08:59.33	188.85	20.68	-38.3	-39.1	23.8	0.00e+00	0	40	0	371195904	50	5810
2026-01-04 01:09:00.34	188.95	20.80	-38.2	-39.0	23.8	0.00e+00	0	40	0	373293056	50	5755
2026-01-04 01:09:01.34	189.04	20.93	-38.1	-39.0	23.8	0.00e+00	0	40	0	375390208	50	5726
2026-01-04 01:09:02.35	189.15	21.06	-37.8	-38.6	24.3	0.00e+00	0	40	0	376438784	50	5470
2026-01-04 01:09:03.36	189.25	21.18	-37.8	-38.7	24.1	0.00e+00	0	40	0	378535936	50	5518
2026-01-04 01:09:04.37	189.35	21.31	-37.4	-38.3	24.4	0.00e+00	0	40	0	380633088	48	5899
2026-01-04 01:09:05.38	189.45	21.44	-37.7	-38.6	24.2	0.00e+00	0	40	0	382730240	48	6114
2026-01-04 01:09:06.39	189.56	21.57	-37.8	-38.7	24.1	0.00e+00	0	40	0	384827392	48	6203
2026-01-04 01:09:07.40	189.67	21.70	-37.6	-38.4	24.2	0.00e+00	0	40	0	385875968	48	5998
2026-01-04 01:09:08.41	189.77	21.83	-37.6	-38.5	24.2	0.00e+00	0	40	0	387973120	48	6063
2026-01-04 01:09:09.42	189.88	21.96	-37.6	-38.5	24.3	0.00e+00	0	40	0	390070272	48	6053
2026-01-04 01:09:10.43	189.99	22.10	-37.6	-38.4	24.3	0.00e+00	0	40	0	392167424	48	6002
2026-01-04 01:09:11.43	190.09	22.23	-37.6	-38.5	24.3	0.00e+00	0	40	0	394264576	48	6036
2026-01-04 01:09:12.45	190.21	22.36	-37.7	-38.6	24.3	0.00e+00	0	40	0	395313152	48	6110
2026-01-04 01:09:13.46	190.32	22.50	-37.6	-38.4	24.4	0.00e+00	0	40	0	397410304	48	6024
2026-01-04 01:09:14.46	190.43	22.63	-37.3	-38.1	24.5	0.00e+00	0	40	0	399507456	48	5825
2026-01-04 01:09:15.47	190.54	22.76	-37.3	-38.1	24.6	0.00e+00	0	40	0	401604608	48	5812
2026-01-04 01:09:16.48	190.65	22.90	-37.2	-38.0	24.6	0.00e+00	0	40	0	403701760	48	5736
2026-01-04 01:09:17.49	190.77	23.03	-37.1	-37.9	24.6	0.00e+00	0	40	0	404750336	48	5651
2026-01-04 01:09:18.50	190.88	23.17	-36.9	-37.7	24.5	0.00e+00	0	40	0	406847488	48	5540
2026-01-04 01:09:19.51	191.00	23.31	-37.0	-37.8	24.8	0.00e+00	0	40	0	408944640	48	5567
2026-01-04 01:09:20.52	191.12	23.45	-37.1	-37.9	24.8	0.00e+00	0	40	0	411041792	48	5641
2026-01-04 01:09:21.53	191.24	23.59	-36.9	-37.7	24.7	0.00e+00	0	40	0	413138944	48	5552
2026-01-04 01:09:22.54	191.36	23.72	-37.1	-37.9	24.8	0.00e+00	0	40	0	414187520	48	5632
2026-01-04 01:09:23.55	191.48	23.86	-37.2	-38.0	24.7	0.00e+00	0	40	0	416284672	48	5708
2026-01-04 01:09:24.56	191.60	24.00	-37.2	-37.9	24.7	0.00e+00	0	40	0	418381824	48	5688
2026-01-04 01:09:25.57	191.72	24.15	-37.3	-38.1	24.8	0.00e+00	0	40	0	420478976	48	5763
2026-01-04 01:09:26.58	191.84	24.29	-37.2	-38.0	24.8	0.00e+00	0	40	0	422576128	48	5738
2026-01-04 01:09:27.59	191.97	24.43	-37.4	-38.2	24.6	0.00e+00	0	40	0	423624704	48	5887
2026-01-04 01:09:28.59	192.09	24.57	-37.4	-38.2	24.5	0.00e+00	0	40	0	425721856	48	5874
2026-01-04 01:09:29.60	192.22	24.72	-37.8	-38.7	24.5	0.00e+00	0	40	0	427819008	48	6182
2026-01-04 01:09:30.61	192.35	24.86	-37.7	-38.5	24.3	0.00e+00	0	40	0	429916160	48	6096
2026-01-04 01:09:31.62	192.48	25.00	-38.1	-38.9	24.2	0.00e+00	0	40	0	432013312	48	6386
2026-01-04 01:09:32.63	192.61	25.15	-37.8	-38.6	24.4	0.00e+00	0	40	0	433061888	48	6130
2026-01-04 01:09:33.64	192.74	25.30	-38.1	-39.0	24.1	0.00e+00	0	40	0	435159040	48	6403
2026-01-04 01:09:34.65	192.87	25.44	-38.1	-39.0	24.2	0.00e+00	0	40	0	437256192	48	6395
2026-01-04 01:09:35.66	193.01	25.59	-38.2	-39.1	23.8	0.00e+00	0	40	0	439353344	48	6485
2026-01-04 01:09:36.66	193.14	25.74	-38.3	-39.1	23.9	0.00e+00	0	40	0	441450496	48	6520
2026-01-04 01:09:37.67	193.28	25.89	-38.4	-39.2	23.8	0.00e+00	0	40	0	442499072	48	6589
2026-01-04 01:09:38.68	193.41	26.04	-38.7	-39.6	23.8	0.00e+00	0	40	0	444596224	48	6861
2026-01-04 01:09:39.69	193.55	26.19	-38.8	-39.7	23.6	0.00e+00	0	40	0	446693376	50	6184
2026-01-04 01:09:40.70	193.69	26.34	-38.9	-39.8	23.4	0.00e+00	0	40	0	448790528	50	6302
2026-01-04 01:09:41.70	193.83	26.49	-38.9	-39.7	23.5	0.00e+00	0	40	0	450887680	50	6242
2026-01-04 01:09:42.71	193.98	26.64	-38.8	-39.7	23.5	0.00e+00	0	40	0	451936256	50	6233
2026-01-04 01:09:43.72	194.12	26.79	-38.9	-39.8	23.4	0.00e+00	0	40	0	454033408	50	6267
2026-01-04 01:09:44.73	194.27	26.95	-38.8	-39.7	23.4	0.00e+00	0	40	0	456130560	50	6218
2026-01-04 01:09:45.74	194.41	27.10	-39.0	-39.9	23.4	0.00e+00	0	40	0	458227712	50	6372
2026-01-04 01:09:46.75	194.56	27.25	-38.8	-39.7	23.7	0.00e+00	0	40	0	460324864	50	6220
2026-01-04 01:09:47.76	194.71	27.41	-39.2	-40.2	23.4	0.00e+00	0	40	0	462422016	50	6552
2026-01-04 01:09:48.77	194.86	27.57	-39.0	-39.9	23.6	0.00e+00	0	40	0	463470592	50	6333
2026-01-04 01:09:49.78	195.01	27.72	-39.2	-40.1	23.4	0.00e+00	0	40	0	465567744	50	6476
2026-01-04 01:09:50.79	195.17	27.88	-39.2	-40.1	23.4	0.00e+00	0	40	0	467664896	50	6505
2026-01-04 01:09:51.80	195.32	28.04	-39.0	-40.0	23.5	0.00e+00	0	40	0	469762048	50	6393
2026-01-04 01:09:52.81	195.48	28.20	-39.0	-39.9	23.4	0.00e+00	0	40	0	471859200	50	6380
2026-01-04 01:09:53.82	195.64	28.36	-39.2	-40.1	23.2	0.00e+00	0	40	0	472907776	50	6483
2026-01-04 01:09:54.83	195.80	28.52	-39.2	-40.1	23.3	0.00e+00	0	40	0	475004928	50	6515
2026-01-04 01:09:55.83	195.96	28.68	-39.3	-40.2	23.3	0.00e+00	0	40	0	477102080	50	6584
2026-01-04 01:09:56.84	196.12	28.84	-39.6	-40.5	23.1	0.00e+00	0	40	0	479199232	50	6831
2026-01-04 01:09:57.85	196.29	29.00	-39.5	-40.5	23.2	0.00e+00	0	40	0	481296384	52	6039
2026-01-04 01:09:58.86	196.45	29.17	-39.9	-40.9	22.9	0.00e+00	0	40	0	482344960	52	6330
2026-01-04 01:09:59.87	196.62	29.33	-40.4	-41.4	22.2	0.00e+00	0	40	0	484442112	52	6743
2026-01-04 01:10:00.88	196.79	29.49	-40.6	-41.6	22.1	0.00e+00	0	40	0	486539264	54	6141
2026-01-04 01:10:01.89	196.96	29.66	-41.2	-42.3	21.6	0.00e+00	0	40	0	488636416	54	6674
2026-01-04 01:10:02.90	197.14	29.83	-41.0	-42.2	21.5	0.00e+00	0	40	0	490733568	54	6544
2026-01-04 01:10:03.91	197.31	29.99	-41.7	-42.9	21.0	0.00e+00	0	40	0	491782144	56	6328
2026-01-04 01:10:04.92	197.49	30.16	-41.7	-42.9	21.1	0.00e+00	0	40	0	493879296	56	6365
2026-01-04 01:10:05.93	197.67	30.33	-42.2	-43.5	20.7	0.00e+00	0	40	0	495976448	56	6797
2026-01-04 01:10:06.94	197.85	30.50	-41.9	-43.1	21.0	0.00e+00	0	40	0	498073600	56	6487
2026-01-04 01:10:07.95	198.03	30.67	-41.9	-43.1	21.1	0.00e+00	0	40	0	500170752	56	6508
2026-01-04 01:10:08.95	198.21	30.83	-41.7	-42.8	21.0	0.00e+00	0	40	0	501219328	56	6309
2026-01-04 01:10:09.96	198.40	31.01	-41.9	-43.0	21.1	0.00e+00	0	40	0	503316480	56	6447
2026-01-04 01:10:10.97	198.58	31.18	-41.7	-42.9	21.1	0.00e+00	0	40	0	505413632	56	6343
2026-01-04 01:10:11.98	198.77	31.35	-41.4	-42.5	21.1	0.00e+00	0	40	0	507510784	56	6040
2026-01-04 01:10:12.99	198.96	31.52	-41.4	-42.5	21.4	0.00e+00	0	40	0	509607936	56	6083
2026-01-04 01:10:14.00	199.16	31.70	-41.1	-42.2	21.5	0.00e+00	0	40	0	510656512	56	5895
2026-01-04 01:10:15.01	199.35	31.87	-41.1	-42.2	21.6	0.00e+00	0	40	0	512753664	56	5840
2026-01-04 01:10:16.02	199.55	32.04	-41.1	-42.2	21.4	0.00e+00	0	40	0	514850816	56	5892
2026-01-04 01:10:17.03	199.75	32.22	-40.5	-41.6	22.0	0.00e+00	0	40	0	516947968	54	6110
2026-01-04 01:10:18.04	199.95	32.40	-40.5	-41.5	22.0	0.00e+00	0	40	0	519045120	54	6079
2026-01-04 01:10:19.05	200.16	32.57	-40.1	-41.1	22.4	0.00e+00	0	40	0	520093696	54	5818
2026-01-04 01:10:20.05	200.36	32.75	-40.5	-41.6	22.0	0.00e+00	0	40	0	522190848	54	6120
2026-01-04 01:10:21.07	200.57	32.93	-40.7	-41.7	21.8	0.00e+00	0	40	0	524288000	54	6243
2026-01-04 01:10:22.07	200.78	33.11	-41.0	-42.1	21.5	0.00e+00	0	40	0	526385152	54	6510
2026-01-04 01:10:23.08	201.00	33.28	-41.2	-42.4	21.3	0.00e+00	0	40	0	528482304	54	6746
2026-01-04 01:10:24.09	201.21	33.46	-41.1	-42.3	21.4	0.00e+00	0	40	0	530579456	54	6629
2026-01-04 01:10:25.10	201.43	33.65	-41.2	-42.3	21.5	0.00e+00	0	40	0	531628032	54	6655
2026-01-04 01:10:26.11	201.65	33.83	-40.7	-41.8	22.1	0.00e+00	0	40	0	533725184	54	6259
2026-01-04 01:10:27.12	201.87	34.01	-40.5	-41.5	22.2	0.00e+00	0	40	0	535822336	54	6091
2026-01-04 01:10:28.13	202.10	34.19	-39.8	-40.7	22.7	0.00e+00	0	40	0	537919488	54	5564
2026-01-04 01:10:29.14	202.32	34.37	-39.5	-40.4	23.0	0.00e+00	0	40	0	540016640	52	5985
2026-01-04 01:10:30.15	202.55	34.56	-39.6	-40.5	22.9	0.00e+00	0	40	0	541065216	52	6068
2026-01-04 01:10:31.16	202.79	34.74	-39.8	-40.8	22.8	0.00e+00	0	40	0	543162368	52	6273
2026-01-04 01:10:32.16	203.02	34.92	-39.9	-40.9	22.6	0.00e+00	0	40	0	545259520	52	6370
2026-01-04 01:10:33.17	203.26	35.11	-40.0	-41.0	22.5	0.00e+00	0	40	0	547356672	52	6460
2026-01-04 01:10:34.18	203.50	35.30	-40.7	-41.8	21.9	0.00e+00	0	40	0	549453824	54	6249
2026-01-04 01:10:35.19	203.74	35.48	-41.3	-42.6	21.2	0.00e+00	0	40	0	550502400	54	6858
2026-01-04 01:10:36.20	203.99	35.67	-40.7	-41.8	21.8	0.00e+00	0	40	0	552599552	54	6250
2026-01-04 01:10:37.21	204.24	35.86	-40.5	-41.6	21.9	0.00e+00	0	40	0	554696704	54	6125
2026-01-04 01:10:38.22	204.49	36.04	-40.6	-41.6	22.1	0.00e+00	0	40	0	556793856	54	6148
2026-01-04 01:10:39.23	204.74	36.23	-40.6	-41.7	22.1	0.00e+00	0	40	0	558891008	54	6188
2026-01-04 01:10:40.23	205.00	36.42	-39.7	-40.6	22.8	0.00e+00	0	40	0	559939584	52	6163
2026-01-04 01:10:41.24	205.26	36.61	-39.6	-40.5	22.8	0.00e+00	0	40	0	562036736	52	6091
2026-01-04 01:10:42.25	205.52	36.80	-39.3	-40.2	23.2	0.00e+00	0	40	0	564133888	52	5831
2026-01-04 01:10:43.26	205.79	36.99	-39.2	-40.1	23.1	0.00e+00	0	40	0	566231040	52	5769
2026-01-04 01:10:44.27	206.05	37.18	-39.1	-40.0	23.3	0.00e+00	0	40	0	568328192	52	5738
2026-01-04 01:10:45.28	206.33	37.37	-39.2	-40.2	23.1	0.00e+00	0	40	0	569376768	52	5831
2026-01-04 01:10:46.29	206.60	37.56	-39.0	-39.9	23.3	0.00e+00	0	40	0	571473920	52	5680
2026-01-04 01:10:47.29	206.88	37.75	-38.5	-39.4	23.8	0.00e+00	0	40	0	573571072	50	5990
2026-01-04 01:10:48.30	207.16	37.95	-38.9	-39.7	23.6	0.00e+00	0	40	0	575668224	50	6240
2026-01-04 01:10:49.31	207.45	38.14	-38.9	-39.8	23.5	0.00e+00	0	40	0	577765376	50	6306
2026-01-04 01:10:50.33	207.74	38.33	-38.7	-39.6	23.7	0.00e+00	0	40	0	578813952	50	6156
2026-01-04 01:10:51.33	208.03	38.52	-38.1	-39.0	24.1	0.00e+00	0	40	0	580911104	50	5704
2026-01-04 01:10:52.34	208.32	38.72	-38.2	-39.1	23.8	0.00e+00	0	40	0	583008256	50	5787
2026-01-04 01:10:53.35	208.62	38.91	-38.0	-38.8	24.1	0.00e+00	0	40	0	585105408	50	5610
2026-01-04 01:10:54.36	208.92	39.10	-37.8	-38.6	24.2	0.00e+00	0	40	0	587202560	50	5475
2026-01-04 01:10:55.37	209.23	39.30	-37.5	-38.3	24.5	0.00e+00	0	40	0	588251136	48	5922
2026-01-04 01:10:56.38	209.54	39.49	-37.1	-37.9	24.8	0.00e+00	0	40	0	590348288	48	5656
2026-01-04 01:10:57.39	209.85	39.69	-37.0	-37.7	24.9	0.00e+00	0	40	0	592445440	48	5539
2026-01-04 01:10:58.40	210.17	39.88	-37.3	-38.0	24.6	0.00e+00	0	40	0	594542592	48	5747
2026-01-04 01:10:59.41	210.49	40.08	-38.1	-38.9	24.1	0.00e+00	0	40	0	596639744	48	6361
2026-01-04 01:11:00.42	210.81	40.27	-37.9	-38.8	24.1	0.00e+00	0	40	0	597688320	48	6253
2026-01-04 01:11:01.43	211.14	40.47	-38.3	-39.1	23.9	0.00e+00	0	40	0	599785472	48	6531
2026-01-04 01:11:02.43	211.47	40.66	-38.4	-39.3	23.8	0.00e+00	0	40	0	601882624	48	6660
2026-01-04 01:11:03.44	211.81	40.85	-38.2	-39.0	23.5	0.00e+00	0	40	0	603979776	48	6422
2026-01-04 01:11:04.45	212.15	41.05	-38.4	-39.2	24.1	0.00e+00	0	40	0	606076928	48	6572
2026-01-04 01:11:05.46	212.49	41.24	-38.6	-39.5	23.7	0.00e+00	0	40	0	607125504	50	6052
2026-01-04 01:11:06.47	212.84	41.44	-38.8	-39.7	23.6	0.00e+00	0	40	0	609222656	50	6212
2026-01-04 01:11:07.48	213.19	41.63	-39.1	-40.0	23.5	0.00e+00	0	40	0	611319808	50	6409
2026-01-04 01:11:08.49	213.55	41.83	-38.8	-39.6	23.8	0.00e+00	0	40	0	613416960	50	6171
2026-01-04 01:11:09.49	213.91	42.02	-38.8	-39.7	23.8	0.00e+00	0	40	0	615514112	50	6197
2026-01-04 01:11:10.51	214.27	42.22	-38.6	-39.4	24.0	0.00e+00	0	40	0	616562688	50	6027
2026-01-04 01:11:11.51	214.64	42.41	-38.5	-39.3	24.0	0.00e+00	0	40	0	618659840	50	5949
2026-01-04 01:11:12.52	215.01	42.60	-38.5	-39.3	23.8	0.00e+00	0	40	0	620756992	50	5964
2026-01-04 01:11:13.53	215.39	42.79	-38.8	-39.6	23.7	0.00e+00	0	40	0	622854144	50	6149
2026-01-04 01:11:14.54	215.78	42.99	-39.4	-40.3	23.1	0.00e+00	0	40	0	624951296	50	6668
2026-01-04 01:11:15.55	216.16	43.18	-40.2	-41.3	22.3	0.00e+00	0	40	0	627048448	52	6629
2026-01-04 01:11:16.56	216.56	43.37	-40.0	-41.0	22.6	0.00e+00	0	40	0	628097024	52	6445
2026-01-04 01:11:17.57	216.95	43.56	-39.3	-40.2	23.2	0.00e+00	0	40	0	630194176	52	5890
2026-01-04 01:11:18.58	217.35	43.75	-39.0	-39.9	23.5	0.00e+00	0	40	0	632291328	52	5685
2026-01-04 01:11:19.59	217.76	43.94	-38.4	-39.2	23.9	0.00e+00	0	40	0	634388480	50	5863
2026-01-04 01:11:20.60	218.17	44.13	-38.4	-39.2	23.8	0.00e+00	0	40	0	636485632	50	5848
2026-01-04 01:11:21.61	218.59	44.32	-38.7	-39.5	23.7	0.00e+00	0	40	0	637534208	50	6084
2026-01-04 01:11:22.62	219.01	44.51	-39.0	-39.9	23.2	0.00e+00	0	40	0	639631360	50	6373
2026-01-04 01:11:23.62	219.43	44.69	-39.6	-40.6	22.8	0.00e+00	0	40	0	641728512	50	6891
2026-01-04 01:11:24.63	219.86	44.88	-40.3	-41.3	22.1	0.00e+00	0	40	0	643825664	52	6667
2026-01-04 01:11:25.64	220.29	45.07	-40.2	-41.3	22.4	0.00e+00	0	40	0	645922816	52	6616
2026-01-04 01:11:26.65	220.74	45.25	-40.2	-41.2	22.6	0.00e+00	0	40	0	646971392	52	6555
2026-01-04 01:11:27.65	221.18	45.43	-39.8	-40.7	22.7	0.00e+00	0	40	0	649068544	52	6228
2026-01-04 01:11:28.66	221.63	45.61	-39.7	-40.7	22.5	0.00e+00	0	40	0	651165696	52	6198
2026-01-04 01:11:29.67	222.08	45.80	-39.9	-40.9	22.5	0.00e+00	0	40	0	653262848	52	6377
2026-01-04 01:11:30.67	222.54	45.97	-40.2	-41.2	22.4	0.00e+00	0	40	0	655360000	52	6598
2026-01-04 01:11:31.68	223.01	46.15	-40.2	-41.2	22.3	0.00e+00	0	40	0	656408576	52	6557
2026-01-04 01:11:32.70	223.48	46.33	-40.8	-41.9	21.9	0.00e+00	0	40	0	658505728	52	7101
2026-01-04 01:11:33.70	223.95	46.51	-40.2	-41.2	22.5	0.00e+00	0	40	0	660602880	54	5839
2026-01-04 01:11:34.71	224.44	46.68	-39.9	-40.9	22.6	0.00e+00	0	40	0	662700032	54	5638
2026-01-04 01:11:35.72	224.92	46.85	-40.1	-41.1	22.2	0.00e+00	0	40	0	664797184	52	6533
2026-01-04 01:11:36.73	225.42	47.03	-39.9	-40.9	22.5	0.00e+00	0	40	0	665845760	52	6354
2026-01-04 01:11:37.74	225.91	47.20	-40.1	-41.2	22.3	0.00e+00	0	40	0	667942912	52	6572
2026-01-04 01:11:38.75	226.42	47.37	-40.2	-41.2	22.3	0.00e+00	0	40	0	670040064	52	6565
2026-01-04 01:11:39.76	226.93	47.53	-39.7	-40.7	22.7	0.00e+00	0	40	0	672137216	52	6194
2026-01-04 01:11:40.76	227.44	47.70	-39.2	-40.1	23.3	0.00e+00	0	40	0	674234368	52	5778
2026-01-04 01:11:41.77	227.95	47.86	-39.0	-39.9	23.3	0.00e+00	0	40	0	675282944	52	5683
2026-01-04 01:11:42.78	228.48	48.02	-38.5	-39.4	23.5	0.00e+00	0	40	0	677380096	50	5975
2026-01-04 01:11:43.79	229.01	48.18	-38.9	-39.8	23.3	0.00e+00	0	40	0	679477248	50	6259
2026-01-04 01:11:44.80	229.55	48.34	-39.6	-40.5	22.9	0.00e+00	0	40	0	681574400	50	6844
2026-01-04 01:11:45.81	230.09	48.49	-39.4	-40.3	22.9	0.00e+00	0	40	0	683671552	50	6666
2026-01-04 01:11:46.81	230.63	48.64	-39.2	-40.1	23.0	0.00e+00	0	40	0	684720128	50	6527
2026-01-04 01:11:47.82	231.18	48.80	-39.6	-40.5	22.9	0.00e+00	0	40	0	686817280	50	6837
2026-01-04 01:11:48.83	231.74	48.94	-39.6	-40.6	22.9	0.00e+00	0	40	0	688914432	52	6123
2026-01-04 01:11:49.84	232.30	49.09	-39.8	-40.7	22.7	0.00e+00	0	40	0	691011584	52	6244
2026-01-04 01:11:50.85	232.87	49.23	-39.6	-40.6	22.8	0.00e+00	0	40	0	693108736	52	6143
2026-01-04 01:11:51.86	233.44	49.38	-39.6	-40.5	22.8	0.00e+00	0	40	0	694157312	52	6083
2026-01-04 01:11:52.86	234.01	49.51	-39.8	-40.8	22.7	0.00e+00	0	40	0	696254464	52	6280
2026-01-04 01:11:53.87	234.60	49.65	-40.2	-41.3	22.5	0.00e+00	0	40	0	698351616	52	6635
2026-01-04 01:11:54.88	235.18	49.78	-39.6	-40.6	22.8	0.00e+00	0	40	0	700448768	52	6125
2026-01-04 01:11:55.89	235.78	49.91	-39.6	-40.5	23.1	0.00e+00	0	40	0	702545920	52	6047
2026-01-04 01:11:56.90	236.38	50.04	-39.6	-40.5	23.0	0.00e+00	0	40	0	703594496	52	6080
2026-01-04 01:11:57.91	236.98	50.16	-40.2	-41.2	22.3	0.00e+00	0	40	0	705691648	52	6560
2026-01-04 01:11:58.92	237.59	50.29	-40.8	-42.0	21.7	0.00e+00	0	40	0	707788800	54	6417
2026-01-04 01:11:59.93	238.20	50.40	-41.0	-42.2	22.0	0.00e+00	0	40	0	709885952	54	6547
2026-01-04 01:12:00.94	238.82	50.52	-40.4	-41.4	22.2	0.00e+00	0	40	0	711983104	54	6006
2026-01-04 01:12:01.95	239.44	50.63	-40.7	-41.8	21.9	0.00e+00	0	40	0	713031680	54	6268
2026-01-04 01:12:02.96	240.07	50.74	-40.0	-41.0	22.5	0.00e+00	0	40	0	715128832	54	5704
2026-01-04 01:12:03.97	240.70	50.85	-40.0	-41.0	22.6	0.00e+00	0	40	0	717225984	54	5697
2026-01-04 01:12:04.98	241.33	50.95	-40.4	-41.5	22.3	0.00e+00	0	40	0	719323136	54	6050
2026-01-04 01:12:05.99	241.97	51.05	-41.3	-42.5	21.4	0.00e+00	0	40	0	721420288	54	6776
2026-01-04 01:12:07.00	242.62	51.14	-41.8	-43.1	21.0	0.00e+00	0	40	0	723517440	56	6474
2026-01-04 01:12:08.01	243.27	51.24	-40.4	-41.5	21.9	0.00e+00	0	40	0	724566016	54	6087
2026-01-04 01:12:09.01	243.91	51.32	-40.5	-41.7	21.9	0.00e+00	0	40	0	726663168	54	6204
2026-01-04 01:12:10.02	244.57	51.41	-40.5	-41.7	22.1	0.00e+00	0	40	0	728760320	54	6179
2026-01-04 01:12:11.03	245.23	51.49	-40.1	-41.1	22.3	0.00e+00	0	40	0	730857472	54	5806
2026-01-04 01:12:12.04	245.89	51.57	-39.0	-39.9	23.5	0.00e+00	0	40	0	732954624	52	5664
2026-01-04 01:12:13.05	246.55	51.64	-39.3	-40.2	23.5	0.00e+00	0	40	0	734003200	52	5842
2026-01-04 01:12:14.06	247.22	51.71	-39.3	-40.2	23.5	0.00e+00	0	40	0	736100352	52	5843
2026-01-04 01:12:15.07	247.90	51.77	-39.0	-39.9	24.0	0.00e+00	0	40	0	738197504	52	5636
2026-01-04 01:12:16.08	248.57	51.84	-38.4	-39.2	24.5	0.00e+00	0	40	0	740294656	50	5855
2026-01-04 01:12:17.09	249.25	51.89	-38.5	-39.3	24.2	0.00e+00	0	40	0	742391808	50	5914
2026-01-04 01:12:18.10	249.93	51.95	-39.3	-40.1	23.6	0.00e+00	0	40	0	743440384	50	6536
2026-01-04 01:12:19.11	250.61	52.00	-39.7	-40.7	23.0	0.00e+00	0	40	0	745537536	50	6964
2026-01-04 01:12:20.11	251.29	52.04	-39.3	-40.2	23.1	0.00e+00	0	40	0	747634688	50	6607
2026-01-04 01:12:21.12	251.97	52.08	-39.6	-40.6	23.1	0.00e+00	0	40	0	749731840	50	6855
2026-01-04 01:12:22.13	252.66	52.12	-39.1	-40.0	23.3	0.00e+00	0	40	0	751828992	50	6439
2026-01-04 01:12:23.14	253.35	52.15	-38.3	-39.1	24.1	0.00e+00	0	40	0	752877568	50	5794
2026-01-04 01:12:24.15	254.04	52.18	-37.8	-38.7	24.4	0.00e+00	0	40	0	754974720	48	6177
2026-01-04 01:12:25.16	254.74	52.20	-38.3	-39.1	24.0	0.00e+00	0	40	0	757071872	48	6520
2026-01-04 01:12:26.17	255.43	52.23	-39.1	-40.0	23.2	0.00e+00	0	40	0	759169024	50	6460
2026-01-04 01:12:27.18	256.12	52.24	-39.5	-40.4	23.1	0.00e+00	0	40	0	761266176	50	6736
2026-01-04 01:12:28.19	256.82	52.25	-39.0	-39.9	23.2	0.00e+00	0	40	0	762314752	50	6380
2026-01-04 01:12:29.20	257.51	52.26	-39.7	-40.7	23.0	0.00e+00	0	40	0	764411904	52	6211
2026-01-04 01:12:30.21	258.21	52.26	-40.0	-40.9	22.6	0.00e+00	0	40	0	766509056	52	6360
2026-01-04 01:12:31.22	258.91	52.26	-39.1	-40.0	23.3	0.00e+00	0	40	0	768606208	52	5708
2026-01-04 01:12:32.23	259.60	52.26	-38.1	-38.9	24.1	0.00e+00	0	40	0	770703360	50	5695
2026-01-04 01:12:33.24	260.30	52.25	-39.0	-39.9	23.4	0.00e+00	0	40	0	771751936	50	6350
2026-01-04 01:12:34.25	260.99	52.23	-39.9	-40.9	22.6	0.00e+00	0	40	0	773849088	52	6372
2026-01-04 01:12:35.26	261.68	52.21	-39.2	-40.1	23.2	0.00e+00	0	40	0	775946240	52	5826
2026-01-04 01:12:36.27	262.38	52.19	-38.2	-39.0	24.1	0.00e+00	0	40	0	778043392	50	5735
2026-01-04 01:12:37.28	263.07	52.17	-38.5	-39.3	23.8	0.00e+00	0	40	0	780140544	50	5960
2026-01-04 01:12:38.29	263.76	52.13	-38.9	-39.8	23.2	0.00e+00	0	40	0	781189120	50	6251
2026-01-04 01:12:39.30	264.45	52.10	-39.5	-40.4	22.8	0.00e+00	0	40	0	783286272	50	6768
2026-01-04 01:12:40.31	265.13	52.06	-39.5	-40.5	22.8	0.00e+00	0	40	0	785383424	50	6785
2026-01-04 01:12:41.31	265.81	52.02	-39.5	-40.5	22.9	0.00e+00	0	40	0	787480576	52	6056
2026-01-04 01:12:42.32	266.50	51.97	-38.4	-39.2	23.9	0.00e+00	0	40	0	789577728	50	5868
2026-01-04 01:12:43.34	267.18	51.92	-37.4	-38.2	24.4	0.00e+00	0	40	0	791674880	48	5867
2026-01-04 01:12:44.34	267.85	51.86	-37.9	-38.7	24.2	0.00e+00	0	40	0	792723456	48	6228
2026-01-04 01:12:45.36	268.54	51.80	-38.4	-39.2	23.9	0.00e+00	0	40	0	794820608	48	6603
2026-01-04 01:12:46.36	269.20	51.74	-38.0	-38.9	24.2	0.00e+00	0	40	0	796917760	48	6332
2026-01-04 01:12:47.37	269.87	51.67	-37.6	-38.5	24.5	0.00e+00	0	40	0	799014912	48	6036
2026-01-04 01:12:48.38	270.54	51.60	-37.8	-38.7	24.3	0.00e+00	0	40	0	800063488	48	6197
2026-01-04 01:12:49.39	271.20	51.52	-38.7	-39.6	23.6	0.00e+00	0	40	0	802160640	48	6861
2026-01-04 01:12:50.40	271.86	51.45	-38.8	-39.7	23.6	0.00e+00	0	40	0	804257792	50	6224
2026-01-04 01:12:51.41	272.52	51.36	-38.4	-39.3	23.8	0.00e+00	0	40	0	806354944	50	5914
2026-01-04 01:12:52.42	273.17	51.28	-37.2	-38.0	24.7	0.00e+00	0	40	0	808452096	48	5703
2026-01-04 01:12:53.43	273.82	51.19	-37.1	-37.9	24.8	0.00e+00	0	40	0	809500672	48	5678
2026-01-04 01:12:54.44	274.47	51.09	-38.2	-39.0	23.9	0.00e+00	0	40	0	811597824	48	6457
2026-01-04 01:12:55.45	275.11	51.00	-38.5	-39.3	23.7	0.00e+00	0	40	0	813694976	48	6688
2026-01-04 01:12:56.46	275.74	50.89	-38.1	-38.9	24.1	0.00e+00	0	40	0	815792128	48	6371
2026-01-04 01:12:57.47	276.38	50.79	-38.3	-39.2	23.9	0.00e+00	0	40	0	817889280	48	6571
2026-01-04 01:12:58.47	277.00	50.68	-38.8	-39.6	23.6	0.00e+00	0	40	0	819986432	50	6161
2026-01-04 01:12:59.48	277.62	50.57	-38.5	-39.4	23.7	0.00e+00	0	40	0	821035008	50	6000
2026-01-04 01:13:00.49	278.24	50.46	-38.6	-39.4	23.8	0.00e+00	0	40	0	823132160	50	6002
2026-01-04 01:13:01.50	278.86	50.34	-39.3	-40.3	23.1	0.00e+00	0	40	0	825229312	50	6643
2026-01-04 01:13:02.51	279.47	50.22	-40.0	-41.0	22.6	0.00e+00	0	40	0	827326464	52	6432
2026-01-04 01:13:03.52	280.07	50.10	-40.2	-41.2	22.4	0.00e+00	0	40	0	829423616	52	6563
2026-01-04 01:13:04.53	280.67	49.97	-40.6	-41.7	22.1	0.00e+00	0	40	0	830472192	54	6179
2026-01-04 01:13:05.54	281.27	49.85	-41.5	-42.7	21.3	0.00e+00	0	40	0	832569344	54	6968
2026-01-04 01:13:06.55	281.85	49.71	-41.7	-43.0	21.0	0.00e+00	0	40	0	834666496	54	7187
2026-01-04 01:13:07.56	282.44	49.58	-41.1	-42.2	21.7	0.00e+00	0	40	0	836763648	54	6572
2026-01-04 01:13:08.57	283.02	49.44	-40.6	-41.6	22.5	0.00e+00	0	40	0	838860800	54	6129
2026-01-04 01:13:09.58	283.59	49.30	-39.6	-40.5	23.2	0.00e+00	0	40	0	839909376	52	6045
2026-01-04 01:13:10.59	284.16	49.16	-39.1	-40.0	23.3	0.00e+00	0	40	0	842006528	52	5707
2026-01-04 01:13:11.60	284.73	49.02	-38.7	-39.5	23.6	0.00e+00	0	40	0	844103680	50	6097
2026-01-04 01:13:12.61	285.28	48.87	-38.4	-39.3	23.9	0.00e+00	0	40	0	846200832	50	5903
2026-01-04 01:13:13.61	285.83	48.72	-38.2	-39.0	24.1	0.00e+00	0	40	0	848297984	50	5759
2026-01-04 01:13:14.62	286.38	48.57	-38.8	-39.7	23.6	0.00e+00	0	40	0	849346560	50	6210
2026-01-04 01:13:15.63	286.92	48.42	-40.0	-40.9	22.7	0.00e+00	0	40	0	851443712	52	6372
2026-01-04 01:13:16.65	287.47	48.26	-41.1	-42.2	21.8	0.00e+00	0	40	0	853540864	54	6542
2026-01-04 01:13:17.65	287.99	48.10	-41.3	-42.4	21.6	0.00e+00	0	40	0	855638016	54	6758
2026-01-04 01:13:18.66	288.52	47.94	-41.2	-42.3	21.5	0.00e+00	0	40	0	857735168	54	6668
2026-01-04 01:13:19.67	289.04	47.78	-42.4	-43.6	20.6	0.00e+00	0	40	0	858783744	56	6887
2026-01-04 01:13:20.68	289.55	47.62	-42.9	-44.3	19.9	0.00e+00	0	40	0	860880896	58	6647
2026-01-04 01:13:21.69	290.07	47.45	-44.1	-45.9	19.1	0.00e+00	0	40	0	862978048	60	7098
2026-01-04 01:13:22.70	290.57	47.28	-43.9	-45.5	18.9	0.00e+00	0	40	0	865075200	60	6842
2026-01-04 01:13:23.71	291.07	47.11	-43.2	-44.7	19.7	0.00e+00	0	40	0	867172352	60	6183
2026-01-04 01:13:24.72	291.56	46.94	-42.8	-44.1	20.4	0.00e+00	0	40	0	868220928	60	5813
2026-01-04 01:13:25.73	292.05	46.77	-43.5	-44.9	19.8	0.00e+00	0	40	0	870318080	58	7139
2026-01-04 01:13:26.73	292.53	46.60	-44.7	-46.4	18.5	0.00e+00	0	40	0	872415232	60	7579
2026-01-04 01:13:27.74	293.01	46.42	-43.2	-44.6	19.8	0.00e+00	0	40	0	874512384	60	6109
2026-01-04 01:13:28.75	293.48	46.25	-42.3	-43.5	20.7	0.00e+00	0	40	0	876609536	58	6060
2026-01-04 01:13:29.76	293.95	46.07	-43.4	-44.8	19.3	0.00e+00	0	40	0	877658112	58	7065
2026-01-04 01:13:30.77	294.41	45.89	-45.8	-48.2	16.2	0.00e+00	0	40	0	879755264	60	9283
2026-01-04 01:13:31.77	294.86	45.71	-48.0	-52.1	12.0	5.87e-05	0	40	0	881852416	60	14614
2026-01-04 01:13:32.78	295.32	45.53	-45.3	-47.4	17.1	0.00e+00	0	40	0	883949568	60	8513
2026-01-04 01:13:33.79	295.76	45.35	-44.4	-46.0	18.9	0.00e+00	0	40	0	886046720	60	7248
2026-01-04 01:13:34.80	296.21	45.17	-43.9	-45.4	18.8	0.00e+00	0	40	0	888143872	60	6727
2026-01-04 01:13:35.81	296.64	44.98	-44.7	-46.6	17.7	0.00e+00	0	40	0	889192448	60	7745
2026-01-04 01:13:36.82	297.07	44.80	-45.2	-47.3	17.0	0.00e+00	0	40	0	891289600	60	8355
2026-01-04 01:13:37.83	297.50	44.61	-44.2	-46.0	18.4	0.00e+00	0	40	0	893386752	60	7177
2026-01-04 01:13:38.84	297.92	44.42	-43.4	-44.9	19.3	0.00e+00	0	40	0	895483904	60	6354
2026-01-04 01:13:39.85	298.34	44.24	-42.4	-43.7	20.4	0.00e+00	0	40	0	897581056	58	6175
2026-01-04 01:13:40.86	298.75	44.05	-41.8	-43.0	21.3	0.00e+00	0	40	0	898629632	58	5726
2026-01-04 01:13:41.87	299.16	43.86	-40.3	-41.3	22.5	0.00e+00	0	40	0	900726784	54	5898
2026-01-04 01:13:42.88	299.56	43.67	-39.6	-40.5	23.0	0.00e+00	0	40	0	902823936	52	6099
2026-01-04 01:13:43.89	299.96	43.48	-39.9	-40.8	23.2	0.00e+00	0	40	0	904921088	52	6266
2026-01-04 01:13:44.90	300.35	43.29	-39.8	-40.7	23.0	0.00e+00	0	40	0	907018240	52	6241
2026-01-04 01:13:45.91	300.74	43.10	-39.5	-40.4	23.4	0.00e+00	0	40	0	908066816	52	5982
2026-01-04 01:13:46.92	301.13	42.90	-39.7	-40.7	23.1	0.00e+00	0	40	0	910163968	52	6175
2026-01-04 01:13:47.93	301.51	42.71	-39.1	-40.0	23.6	0.00e+00	0	40	0	912261120	52	5698
2026-01-04 01:13:48.93	301.88	42.52	-38.4	-39.2	24.3	0.00e+00	0	40	0	914358272	50	5848
2026-01-04 01:13:49.94	302.25	42.33	-38.2	-39.0	24.2	0.00e+00	0	40	0	916455424	50	5723
2026-01-04 01:13:50.95	302.62	42.14	-38.9	-39.8	23.6	0.00e+00	0	40	0	917504000	50	6286
2026-01-04 01:13:51.96	302.98	41.94	-39.7	-40.6	23.2	0.00e+00	0	40	0	919601152	50	6924
2026-01-04 01:13:52.97	303.34	41.75	-39.2	-40.1	23.5	0.00e+00	0	40	0	921698304	52	5814
2026-01-04 01:13:53.98	303.69	41.56	-39.0	-39.8	23.8	0.00e+00	0	40	0	923795456	52	5611
2026-01-04 01:13:54.99	304.04	41.36	-38.5	-39.3	24.0	0.00e+00	0	40	0	925892608	50	5931
2026-01-04 01:13:56.00	304.38	41.17	-38.6	-39.4	23.8	0.00e+00	0	40	0	926941184	50	6009
2026-01-04 01:13:57.01	304.73	40.97	-39.4	-40.3	23.3	0.00e+00	0	40	0	929038336	50	6660
2026-01-04 01:13:58.02	305.06	40.78	-40.3	-41.3	22.7	0.00e+00	0	40	0	931135488	52	6625
2026-01-04 01:13:59.03	305.40	40.59	-41.0	-42.1	22.1	0.00e+00	0	40	0	933232640	54	6465
2026-01-04 01:14:00.04	305.73	40.39	-41.2	-42.3	21.9	0.00e+00	0	40	0	935329792	54	6685
2026-01-04 01:14:01.04	306.05	40.20	-40.5	-41.5	22.5	0.00e+00	0	40	0	936378368	54	6055
2026-01-04 01:14:02.05	306.37	40.01	-40.1	-41.1	22.9	0.00e+00	0	40	0	938475520	54	5795
2026-01-04 01:14:03.06	306.69	39.81	-40.4	-41.4	22.7	0.00e+00	0	40	0	940572672	54	6013
2026-01-04 01:14:04.07	307.00	39.62	-41.3	-42.5	21.3	0.00e+00	0	40	0	942669824	54	6788
2026-01-04 01:14:05.08	307.31	39.43	-42.8	-44.2	20.0	0.00e+00	0	40	0	944766976	58	6575
2026-01-04 01:14:06.09	307.62	39.23	-43.1	-44.6	20.0	0.00e+00	0	40	0	945815552	58	6867
2026-01-04 01:14:07.10	307.92	39.04	-42.4	-43.7	21.0	0.00e+00	0	40	0	947912704	58	6185
2026-01-04 01:14:08.11	308.22	38.85	-41.3	-42.3	22.0	0.00e+00	0	40	0	950009856	56	5950
2026-01-04 01:14:09.12	308.52	38.65	-41.2	-42.2	22.4	0.00e+00	0	40	0	952107008	56	5887
2026-01-04 01:14:10.13	308.81	38.46	-42.1	-43.2	21.5	0.00e+00	0	40	0	954204160	56	6571
2026-01-04 01:14:11.14	309.10	38.27	-43.1	-44.4	20.2	0.00e+00	0	40	0	956301312	58	6725
2026-01-04 01:14:12.15	309.39	38.08	-44.1	-45.7	19.4	0.00e+00	0	40	0	957349888	60	6975
2026-01-04 01:14:13.15	309.67	37.89	-43.3	-44.7	20.3	0.00e+00	0	40	0	959447040	60	6196
2026-01-04 01:14:14.16	309.95	37.70	-42.0	-43.2	21.5	0.00e+00	0	40	0	961544192	58	5847
2026-01-04 01:14:15.17	310.22	37.51	-40.8	-41.8	22.4	0.00e+00	0	40	0	963641344	54	6300
2026-01-04 01:14:16.17	310.49	37.32	-40.6	-41.5	22.6	0.00e+00	0	40	0	964689920	54	6101
2026-01-04 01:14:17.18	310.77	37.13	-40.3	-41.2	22.6	0.00e+00	0	40	0	966787072	54	5873
2026-01-04 01:14:18.19	311.03	36.94	-41.4	-42.5	21.5	0.00e+00	0	40	0	968884224	54	6840
2026-01-04 01:14:19.20	311.30	36.75	-43.6	-45.1	19.5	0.00e+00	0	40	0	970981376	58	7259
2026-01-04 01:14:20.21	311.56	36.56	-44.3	-46.0	18.9	0.00e+00	0	40	0	973078528	60	7228
2026-01-04 01:14:21.22	311.82	36.37	-43.0	-44.4	20.2	0.00e+00	0	40	0	974127104	60	6029
2026-01-04 01:14:22.23	312.07	36.18	-41.7	-42.8	21.7	0.00e+00	0	40	0	976224256	56	6275
2026-01-04 01:14:23.24	312.32	36.00	-40.5	-41.5	22.5	0.00e+00	0	40	0	978321408	54	6080
2026-01-04 01:14:24.25	312.57	35.81	-40.2	-41.1	23.0	0.00e+00	0	40	0	980418560	54	5784
2026-01-04 01:14:25.26	312.82	35.62	-40.1	-41.0	22.9	0.00e+00	0	40	0	982515712	54	5726
2026-01-04 01:14:26.27	313.06	35.44	-41.0	-42.0	22.3	0.00e+00	0	40	0	984612864	54	6396
2026-01-04 01:14:27.28	313.31	35.25	-43.1	-44.4	20.0	0.00e+00	0	40	0	985661440	56	7588
2026-01-04 01:14:28.29	313.54	35.07	-44.3	-46.0	19.5	0.00e+00	0	40	0	987758592	60	7175
2026-01-04 01:14:29.30	313.78	34.88	-43.2	-44.6	20.4	0.00e+00	0	40	0	989855744	60	6150
2026-01-04 01:14:30.31	314.01	34.70	-41.4	-42.5	22.1	0.00e+00	0	40	0	991952896	56	6090
2026-01-04 01:14:31.32	314.24	34.52	-39.4	-40.3	23.6	0.00e+00	0	40	0	994050048	54	5272
2026-01-04 01:14:32.33	314.47	34.33	-38.9	-39.7	23.9	0.00e+00	0	40	0	995098624	52	5536
2026-01-04 01:14:33.33	314.70	34.15	-39.1	-39.9	23.7	0.00e+00	0	40	0	997195776	52	5692
2026-01-04 01:14:34.34	314.92	33.97	-40.2	-41.1	22.7	0.00e+00	0	40	0	999292928	52	6502
2026-01-04 01:14:35.35	315.14	33.79	-41.6	-42.7	21.2	0.00e+00	0	40	0	1001390080	54	6941
2026-01-04 01:14:36.36	315.36	33.61	-43.3	-44.8	19.3	0.00e+00	0	40	0	1003487232	58	7018
2026-01-04 01:14:37.37	315.58	33.43	-44.7	-46.7	17.3	0.00e+00	0	40	0	1004535808	60	7801
2026-01-04 01:14:38.38	315.79	33.25	-44.3	-46.1	18.3	0.00e+00	0	40	0	1006632960	60	7318
2026-01-04 01:14:39.39	316.00	33.08	-42.8	-44.2	20.2	0.00e+00	0	40	0	1008730112	60	5832
2026-01-04 01:14:40.40	316.21	32.90	-41.4	-42.5	21.4	0.00e+00	0	40	0	1010827264	56	6042
2026-01-04 01:14:41.40	316.42	32.72	-40.3	-41.3	22.3	0.00e+00	0	40	0	1012924416	54	5937
2026-01-04 01:14:42.41	316.62	32.55	-39.8	-40.7	22.7	0.00e+00	0	40	0	1013972992	54	5553
2026-01-04 01:14:43.42	316.82	32.37	-40.3	-41.3	22.3	0.00e+00	0	40	0	1016070144	54	5908
2026-01-04 01:14:44.43	317.03	32.20	-41.3	-42.3	21.7	0.00e+00	0	40	0	1018167296	54	6657
2026-01-04 01:14:45.44	317.22	32.02	-42.5	-43.8	20.5	0.00e+00	0	40	0	1020264448	56	7037
2026-01-04 01:14:46.45	317.42	31.85	-44.0	-45.7	18.7	0.00e+00	0	40	0	1022361600	60	6974
2026-01-04 01:14:47.46	317.61	31.68	-45.2	-47.4	17.3	0.00e+00	0	40	0	1023410176	60	8453
2026-01-04 01:14:48.47	317.81	31.50	-46.2	-49.0	15.5	0.00e+00	0	40	0	1025507328	60	10202
2026-01-04 01:14:49.48	318.00	31.33	-45.6	-48.0	16.7	0.00e+00	0	40	0	1027604480	60	9083
2026-01-04 01:14:50.49	318.19	31.16	-44.0	-45.8	18.7	0.00e+00	0	40	0	1029701632	60	7031
2026-01-04 01:14:51.50	318.37	30.99	-42.9	-44.3	20.3	0.00e+00	0	40	0	1031798784	60	5962
2026-01-04 01:14:52.51	318.56	30.82	-41.5	-42.7	21.2	0.00e+00	0	40	0	1032847360	58	5531
2026-01-04 01:14:53.53	318.74	30.65	-40.8	-41.8	22.2	0.00e+00	0	40	0	1034944512	54	6314
2026-01-04 01:14:54.53	318.92	30.48	-40.8	-41.8	22.1	0.00e+00	0	40	0	1037041664	54	6288
2026-01-04 01:14:55.54	319.10	30.32	-40.6	-41.6	22.4	0.00e+00	0	40	0	1039138816	54	6133
2026-01-04 01:14:56.55	319.28	30.15	-41.6	-42.8	21.3	0.00e+00	0	40	0	1041235968	54	7020
2026-01-04 01:14:57.56	319.45	29.98	-42.3	-43.6	20.8	0.00e+00	0	40	0	1042284544	56	6870
2026-01-04 01:14:58.57	319.63	29.82	-42.9	-44.2	20.5	0.00e+00	0	40	0	1044381696	56	7397
2026-01-04 01:14:59.58	319.80	29.65	-42.7	-44.0	20.4	0.00e+00	0	40	0	1046478848	58	6412
2026-01-04 01:15:00.59	319.97	29.49	-42.4	-43.7	20.8	0.00e+00	0	40	0	1048576000	58	6215
2026-01-04 01:15:01.60	320.14	29.33	-42.0	-43.2	21.1	0.00e+00	0	40	0	1050673152	58	5838
2026-01-04 01:15:02.61	320.31	29.16	-41.6	-42.7	21.6	0.00e+00	0	40	0	1052770304	56	6206
2026-01-04 01:15:03.62	320.47	29.00	-41.6	-42.7	21.7	0.00e+00	0	40	0	1053818880	56	6183
2026-01-04 01:15:04.63	320.64	28.84	-40.9	-41.9	22.2	0.00e+00	0	40	0	1055916032	56	5657
2026-01-04 01:15:05.64	320.80	28.68	-41.2	-42.2	22.0	0.00e+00	0	40	0	1058013184	56	5862
2026-01-04 01:15:06.65	320.96	28.52	-41.2	-42.3	21.8	0.00e+00	0	40	0	1060110336	56	5913
2026-01-04 01:15:07.66	321.12	28.36	-41.6	-42.7	21.6	0.00e+00	0	40	0	1062207488	56	6187
2026-01-04 01:15:08.67	321.28	28.20	-42.1	-43.2	21.2	0.00e+00	0	40	0	1063256064	56	6614
2026-01-04 01:15:09.68	321.43	28.04	-42.4	-43.5	21.2	0.00e+00	0	40	0	1065353216	56	6833
2026-01-04 01:15:10.69	321.59	27.89	-41.8	-42.9	21.5	0.00e+00	0	40	0	1067450368	56	6376
2026-01-04 01:15:11.70	321.74	27.73	-41.4	-42.5	21.9	0.00e+00	0	40	0	1069547520	56	6061
2026-01-04 01:15:12.71	321.89	27.57	-41.1	-42.2	22.3	0.00e+00	0	40	0	1071644672	56	5844
2026-01-04 01:15:13.72	322.04	27.42	-40.5	-41.5	22.3	0.00e+00	0	40	0	1072693248	54	6065
2026-01-04 01:15:14.73	322.19	27.26	-40.3	-41.3	22.7	0.00e+00	0	40	0	1074790400	54	5956
2026-01-04 01:15:15.74	322.34	27.11	-40.4	-41.4	22.6	0.00e+00	0	40	0	1076887552	54	6003
2026-01-04 01:15:16.75	322.48	26.96	-40.4	-41.4	22.7	0.00e+00	0	40	0	1078984704	54	5984
2026-01-04 01:15:17.76	322.63	26.80	-40.1	-41.0	22.9	0.00e+00	0	40	0	1081081856	54	5753
2026-01-04 01:15:18.77	322.77	26.65	-40.1	-41.1	22.9	0.00e+00	0	40	0	1082130432	54	5812
2026-01-04 01:15:19.78	322.91	26.50	-39.9	-40.9	23.1	0.00e+00	0	40	0	1084227584	54	5636
2026-01-04 01:15:20.79	323.06	26.35	-40.0	-41.0	22.8	0.00e+00	0	40	0	1086324736	54	5733
2026-01-04 01:15:21.80	323.20	26.20	-39.4	-40.4	23.3	0.00e+00	0	40	0	1088421888	52	5992
2026-01-04 01:15:22.80	323.33	26.05	-39.6	-40.6	23.0	0.00e+00	0	40	0	1090519040	52	6132
2026-01-04 01:15:23.81	323.47	25.90	-39.6	-40.5	23.3	0.00e+00	0	40	0	1091567616	52	6091
2026-01-04 01:15:24.82	323.61	25.76	-39.3	-40.1	23.6	0.00e+00	0	40	0	1093664768	52	5823
2026-01-04 01:15:25.83	323.74	25.61	-39.4	-40.3	23.3	0.00e+00	0	40	0	1095761920	52	5913
2026-01-04 01:15:26.84	323.87	25.46	-39.3	-40.2	23.4	0.00e+00	0	40	0	1097859072	52	5874
2026-01-04 01:15:27.85	324.01	25.32	-39.3	-40.3	23.1	0.00e+00	0	40	0	1099956224	52	5897
2026-01-04 01:15:28.86	324.14	25.17	-40.0	-41.0	23.0	0.00e+00	0	40	0	1101004800	52	6414
2026-01-04 01:15:29.87	324.27	25.03	-39.9	-40.8	23.2	0.00e+00	0	40	0	1103101952	52	6298
2026-01-04 01:15:30.88	324.40	24.88	-39.9	-40.9	22.8	0.00e+00	0	40	0	1105199104	52	6345
2026-01-04 01:15:31.90	324.52	24.74	-39.9	-40.8	22.9	0.00e+00	0	40	0	1107296256	52	6303
2026-01-04 01:15:32.91	324.65	24.60	-39.9	-40.9	22.8	0.00e+00	0	40	0	1109393408	52	6343
2026-01-04 01:15:33.91	324.77	24.46	-40.2	-41.2	22.4	0.00e+00	0	40	0	1110441984	52	6605
2026-01-04 01:15:34.92	324.90	24.31	-39.9	-40.8	22.9	0.00e+00	0	40	0	1112539136	52	6308
2026-01-04 01:15:35.93	325.02	24.17	-39.2	-40.2	23.2	0.00e+00	0	40	0	1114636288	52	5838
2026-01-04 01:15:36.94	325.14	24.03	-39.2	-40.1	23.3	0.00e+00	0	40	0	1116733440	52	5783
2026-01-04 01:15:37.95	325.27	23.89	-39.7	-40.6	23.4	0.00e+00	0	40	0	1118830592	52	6169
2026-01-04 01:15:38.96	325.39	23.76	-39.6	-40.5	23.3	0.00e+00	0	40	0	1120927744	52	6075
2026-01-04 01:15:39.97	325.51	23.62	-39.5	-40.3	23.4	0.00e+00	0	40	0	1121976320	52	5962
2026-01-04 01:15:40.98	325.62	23.48	-39.6	-40.5	23.1	0.00e+00	0	40	0	1124073472	52	6097
2026-01-04 01:15:41.99	325.74	23.34	-40.1	-41.1	22.6	0.00e+00	0	40	0	1126170624	52	6465
2026-01-04 01:15:43.00	325.86	23.21	-40.4	-41.4	22.6	0.00e+00	0	40	0	1128267776	52	6739
2026-01-04 01:15:44.01	325.97	23.07	-40.2	-41.2	22.7	0.00e+00	0	40	0	1130364928	52	6576
2026-01-04 01:15:45.01	326.08	22.94	-40.5	-41.5	22.2	0.00e+00	0	40	0	1131413504	52	6832
2026-01-04 01:15:46.02	326.20	22.80	-40.6	-41.6	22.1	0.00e+00	0	40	0	1133510656	52	6908
2026-01-04 01:15:47.03	326.31	22.67	-40.8	-41.8	22.0	0.00e+00	0	40	0	1135607808	52	7084
2026-01-04 01:15:48.04	326.42	22.53	-41.0	-42.1	22.0	0.00e+00	0	40	0	1137704960	54	6483
2026-01-04 01:15:49.05	326.53	22.40	-40.9	-42.0	22.0	0.00e+00	0	40	0	1139802112	54	6414
2026-01-04 01:15:50.06	326.64	22.27	-40.5	-41.5	22.2	0.00e+00	0	40	0	1140850688	54	6091
2026-01-04 01:15:51.07	326.75	22.14	-40.9	-42.1	21.9	0.00e+00	0	40	0	1142947840	54	6469
2026-01-04 01:15:52.08	326.86	22.01	-40.5	-41.6	22.2	0.00e+00	0	40	0	1145044992	54	6138
2026-01-04 01:15:53.09	326.97	21.88	-40.4	-41.4	22.2	0.00e+00	0	40	0	1147142144	54	6016
2026-01-04 01:15:54.10	327.07	21.75	-40.3	-41.3	22.4	0.00e+00	0	40	0	1149239296	54	5958
2026-01-04 01:15:55.11	327.18	21.62	-40.1	-41.1	22.7	0.00e+00	0	40	0	1150287872	52	6476
2026-01-04 01:15:56.12	327.28	21.49	-40.1	-41.1	22.8	0.00e+00	0	40	0	1152385024	52	6524
2026-01-04 01:15:57.13	327.39	21.36	-39.9	-40.9	23.1	0.00e+00	0	40	0	1154482176	52	6340
2026-01-04 01:15:58.14	327.49	21.23	-39.8	-40.8	23.0	0.00e+00	0	40	0	1156579328	52	6269
2026-01-04 01:15:59.15	327.59	21.11	-40.3	-41.3	22.9	0.00e+00	0	40	0	1158676480	52	6623
2026-01-04 01:16:00.16	327.69	20.98	-39.7	-40.6	23.2	0.00e+00	0	40	0	1159725056	52	6153
2026-01-04 01:16:01.17	327.79	20.85	-40.0	-41.0	22.9	0.00e+00	0	40	0	1161822208	52	6423
2026-01-04 01:16:02.18	327.89	20.73	-40.2	-41.2	22.6	0.00e+00	0	40	0	1163919360	52	6553
2026-01-04 01:16:03.19	327.99	20.60	-40.2	-41.2	22.6	0.00e+00	0	40	0	1166016512	52	6563
2026-01-04 01:16:04.20	328.09	20.48	-41.0	-42.0	22.0	0.00e+00	0	40	0	1168113664	54	6452
2026-01-04 01:16:05.21	328.19	20.36	-40.9	-42.0	21.8	0.00e+00	0	40	0	1169162240	54	6418
2026-01-04 01:16:06.22	328.28	20.23	-41.6	-42.7	21.5	0.00e+00	0	40	0	1171259392	54	7001
2026-01-04 01:16:07.23	328.38	20.11	-42.1	-43.3	21.3	0.00e+00	0	40	0	1173356544	56	6686
2026-01-04 01:16:08.24	328.47	19.99	-42.4	-43.7	20.9	0.00e+00	0	40	0	1175453696	56	6928
2026-01-04 01:16:09.24	328.57	19.87	-41.9	-43.1	20.9	0.00e+00	0	40	0	1177550848	58	5801
2026-01-04 01:16:10.25	328.66	19.75	-42.2	-43.5	20.8	0.00e+00	0	40	0	1178599424	58	6058
2026-01-04 01:16:11.26	328.75	19.63	-41.9	-43.1	21.0	0.00e+00	0	40	0	1180696576	58	5767
2026-01-04 01:16:12.27	328.85	19.50	-41.7	-42.9	21.4	0.00e+00	0	40	0	1182793728	56	6325
2026-01-04 01:16:13.28	328.94	19.39	-41.3	-42.4	21.7	0.00e+00	0	40	0	1184890880	56	5987
2026-01-04 01:16:14.29	329.03	19.27	-41.1	-42.2	21.8	0.00e+00	0	40	0	1186988032	56	5884
2026-01-04 01:16:15.30	329.12	19.15	-40.6	-41.7	22.0	0.00e+00	0	40	0	1188036608	54	6240
2026-01-04 01:16:16.31	329.21	19.03	-40.2	-41.2	22.4	0.00e+00	0	40	0	1190133760	54	5896
2026-01-04 01:16:17.32	329.30	18.91	-39.7	-40.6	22.7	0.00e+00	0	40	0	1192230912	54	5502
2026-01-04 01:16:18.33	329.39	18.80	-39.7	-40.7	23.0	0.00e+00	0	40	0	1194328064	52	6180
2026-01-04 01:16:19.34	329.47	18.68	-40.0	-40.9	22.9	0.00e+00	0	40	0	1196425216	52	6385
2026-01-04 01:16:20.35	329.56	18.56	-39.8	-40.7	23.0	0.00e+00	0	40	0	1198522368	52	6234
2026-01-04 01:16:21.36	329.65	18.45	-40.0	-40.9	23.0	0.00e+00	0	40	0	1199570944	52	6352
2026-01-04 01:16:22.37	329.73	18.33	-39.9	-40.9	23.1	0.00e+00	0	40	0	1201668096	52	6319
2026-01-04 01:16:23.38	329.82	18.22	-40.2	-41.1	23.0	0.00e+00	0	40	0	1203765248	52	6535
2026-01-04 01:16:24.38	329.90	18.10	-39.9	-40.9	23.0	0.00e+00	0	40	0	1205862400	52	6320
2026-01-04 01:16:25.39	329.99	17.99	-40.3	-41.2	23.0	0.00e+00	0	40	0	1207959552	52	6584
