passes_logs/2026/01/04/R4.6S_Anadyr/R4.6S_Anadyr__20260104_024725_SUOMI_NPP_rec.log

#Pass ID: 20260104_024725_SUOMI NPP
#Satellite: SUOMI NPP
#Configuration: NPP
#almurnet v.1.7.20251203
#Start time: 2026-01-04 02:47:27

#Version: 2.2.20231116
#Station: R4.6S_Anadyr
#Location: 177.4865 lon 64.73178 lat
#TLE: 1 37849U 11061A   26001.07732418  .00000182  00000+0  10735-3 0  9990
#TLE: 2 37849  98.7795 303.2470 0002580  87.2016 272.9455 14.19520779734739

#Time	Az	El	Level	Level2	SNR	BER	BlckErr	Temp	State	Recorded	gain1	gain2
2026-01-04 02:47:27.59	222.43	0.11	-51.2	-62.8	3.4	8.46e-01	0	37	0	0	60	49841
2026-01-04 02:47:28.60	222.51	0.15	-51.3	-66.7	3.6	1.51e+00	0	38	104	0	60	78304
2026-01-04 02:47:29.61	222.59	0.20	-51.3	-66.6	3.6	1.51e+00	0	38	104	0	60	76840
2026-01-04 02:47:30.62	222.67	0.25	-50.9	-66.1	3.6	1.51e+00	0	38	104	0	60	73144
2026-01-04 02:47:31.63	222.75	0.30	-50.6	-65.9	3.6	1.51e+00	0	38	104	0	60	71204
2026-01-04 02:47:32.64	222.83	0.35	-50.7	-65.9	3.6	1.51e+00	0	38	104	0	60	71365
2026-01-04 02:47:33.65	222.91	0.40	-50.5	-65.8	3.6	1.51e+00	0	38	104	0	60	70371
2026-01-04 02:47:34.66	222.99	0.45	-50.6	-65.8	3.6	1.51e+00	0	38	104	0	60	70407
2026-01-04 02:47:35.67	223.07	0.50	-50.3	-65.7	3.6	1.51e+00	0	38	104	0	60	69420
2026-01-04 02:47:36.68	223.15	0.55	-50.4	-65.8	3.6	1.51e+00	0	38	104	0	60	70582
2026-01-04 02:47:37.69	223.23	0.59	-50.3	-65.9	3.6	1.51e+00	0	38	104	0	60	70934
2026-01-04 02:47:38.70	223.31	0.64	-50.4	-65.7	3.6	1.51e+00	0	38	104	0	60	69563
2026-01-04 02:47:39.71	223.39	0.69	-50.3	-65.5	3.6	1.51e+00	0	38	104	0	60	68306
2026-01-04 02:47:40.72	223.47	0.74	-50.2	-65.4	3.6	1.51e+00	0	38	104	0	60	67155
2026-01-04 02:47:41.73	223.55	0.79	-49.8	-65.1	3.6	1.51e+00	0	38	104	0	60	64881
2026-01-04 02:47:42.74	223.63	0.84	-49.2	-64.4	3.6	1.51e+00	0	38	104	0	60	60156
2026-01-04 02:47:43.75	223.72	0.89	-47.9	-63.1	3.6	1.51e+00	0	38	104	0	60	51734
2026-01-04 02:47:44.76	223.80	0.94	-47.8	-63.0	3.6	1.51e+00	0	38	104	0	60	51165
2026-01-04 02:47:45.77	223.88	0.99	-47.8	-63.0	3.6	1.51e+00	0	38	104	0	60	50940
2026-01-04 02:47:46.78	223.96	1.04	-47.8	-62.9	3.6	1.51e+00	0	38	104	0	60	50630
2026-01-04 02:47:47.79	224.05	1.09	-47.8	-63.0	3.6	1.51e+00	0	38	104	0	60	50953
2026-01-04 02:47:48.80	224.13	1.14	-47.8	-63.0	3.6	1.51e+00	0	38	104	0	60	50785
2026-01-04 02:47:49.81	224.21	1.19	-47.8	-62.9	3.6	1.51e+00	0	38	104	0	60	50594
2026-01-04 02:47:50.82	224.30	1.24	-47.8	-62.9	3.6	1.51e+00	0	38	104	0	60	50652
2026-01-04 02:47:51.83	224.38	1.28	-47.9	-63.0	3.6	1.51e+00	0	38	104	0	60	51061
2026-01-04 02:47:52.84	224.47	1.33	-47.9	-63.1	3.6	1.51e+00	0	38	104	0	60	51427
2026-01-04 02:47:53.84	224.55	1.38	-47.8	-63.0	3.6	1.51e+00	0	38	104	0	60	50925
2026-01-04 02:47:54.85	224.64	1.43	-47.8	-62.9	3.6	1.51e+00	0	38	104	0	60	50622
2026-01-04 02:47:55.86	224.72	1.48	-47.8	-63.0	3.6	1.51e+00	0	38	104	0	60	50821
2026-01-04 02:47:56.87	224.81	1.53	-47.7	-62.9	3.6	1.51e+00	0	38	104	0	60	50511
2026-01-04 02:47:57.88	224.89	1.58	-47.7	-62.9	3.6	1.51e+00	0	38	104	0	60	50332
2026-01-04 02:47:58.89	224.98	1.63	-47.7	-62.9	3.6	1.51e+00	0	38	104	0	60	50582
2026-01-04 02:47:59.90	225.06	1.68	-47.7	-62.8	3.6	1.51e+00	0	38	104	0	60	49856
2026-01-04 02:48:00.91	225.15	1.73	-47.7	-62.8	3.6	1.51e+00	0	38	104	0	60	50077
2026-01-04 02:48:01.92	225.24	1.78	-47.7	-62.9	3.6	1.51e+00	0	38	104	0	60	50285
2026-01-04 02:48:02.93	225.33	1.83	-47.7	-62.8	3.6	1.51e+00	0	38	104	0	60	50000
2026-01-04 02:48:03.94	225.41	1.88	-47.7	-62.9	3.6	1.51e+00	0	38	104	0	60	50358
2026-01-04 02:48:04.96	225.50	1.93	-47.7	-62.9	3.6	1.51e+00	0	38	104	0	60	50308
2026-01-04 02:48:05.96	225.59	1.98	-47.7	-62.9	3.6	1.51e+00	0	38	104	0	60	50460
2026-01-04 02:48:06.97	225.68	2.03	-47.8	-62.9	3.6	1.51e+00	0	38	104	0	60	50673
2026-01-04 02:48:07.98	225.77	2.08	-47.9	-63.0	3.6	1.51e+00	0	38	104	0	60	50992
2026-01-04 02:48:08.99	225.85	2.13	-47.8	-62.9	3.6	1.51e+00	0	38	104	0	60	50646
2026-01-04 02:48:10.01	225.94	2.18	-47.8	-62.9	3.6	1.51e+00	0	38	104	0	60	50703
2026-01-04 02:48:11.01	226.03	2.23	-47.8	-62.9	3.6	1.51e+00	0	38	104	0	60	50478
2026-01-04 02:48:12.02	226.12	2.28	-47.8	-62.9	3.6	1.51e+00	0	38	104	0	60	50591
2026-01-04 02:48:13.03	226.21	2.33	-47.7	-62.9	3.6	1.51e+00	0	38	104	0	60	50311
2026-01-04 02:48:14.04	226.30	2.38	-47.7	-62.8	3.6	1.51e+00	0	39	104	0	60	49614
2026-01-04 02:48:15.05	226.39	2.43	-47.7	-62.7	3.6	1.51e+00	0	39	104	0	60	49381
2026-01-04 02:48:16.06	226.49	2.48	-47.6	-62.4	3.6	1.51e+00	0	38	104	0	60	47820
2026-01-04 02:48:17.07	226.58	2.53	-47.7	-62.3	3.6	1.51e+00	0	39	104	0	60	47001
2026-01-04 02:48:18.08	226.67	2.58	-47.6	-62.2	3.6	1.51e+00	0	39	104	0	60	46706
2026-01-04 02:48:19.09	226.76	2.63	-47.6	-61.5	3.6	1.51e+00	0	38	104	0	60	42954
2026-01-04 02:48:20.10	226.85	2.69	-47.6	-60.4	3.6	1.51e+00	0	38	104	0	60	37935
2026-01-04 02:48:21.11	226.94	2.74	-47.5	-58.8	4.1	1.42e+00	81	38	104	0	60	31407
2026-01-04 02:48:22.12	227.04	2.79	-47.3	-56.2	4.7	9.85e-01	37	39	0	1048576	60	23436
2026-01-04 02:48:23.13	227.13	2.84	-47.3	-55.7	5.2	5.60e-01	0	39	0	3145728	60	22023
2026-01-04 02:48:24.14	227.22	2.89	-47.2	-54.8	6.1	3.34e-01	91	38	0	4194304	60	19858
2026-01-04 02:48:25.16	227.32	2.94	-47.1	-54.6	6.2	2.16e-01	34	39	0	6291456	60	19438
2026-01-04 02:48:26.17	227.41	2.99	-47.1	-54.3	6.9	1.66e-01	91	39	0	8388608	60	18822
2026-01-04 02:48:27.17	227.51	3.04	-47.3	-55.2	6.0	3.06e-01	92	39	0	10485760	60	20887
2026-01-04 02:48:28.18	227.60	3.09	-47.4	-55.3	5.8	3.38e-01	26	38	0	12582912	60	21133
2026-01-04 02:48:29.19	227.70	3.14	-47.4	-55.4	5.6	4.84e-01	70	38	0	13631488	60	21287
2026-01-04 02:48:30.20	227.79	3.19	-47.8	-62.0	3.6	4.09e-01	0	39	104	14680064	60	45574
2026-01-04 02:48:31.21	227.89	3.24	-47.5	-61.3	3.6	1.51e+00	0	39	104	14680064	60	41859
2026-01-04 02:48:32.22	227.98	3.29	-47.4	-55.5	6.5	1.34e+00	0	39	104	14680064	60	21583
2026-01-04 02:48:33.23	228.08	3.34	-47.2	-53.8	7.3	2.01e-01	92	38	0	15728640	60	17771
2026-01-04 02:48:34.24	228.18	3.40	-47.1	-53.5	7.9	8.03e-02	90	38	0	16777216	60	17083
2026-01-04 02:48:35.25	228.27	3.45	-47.1	-53.8	7.5	7.51e-02	82	38	0	18874368	60	17629
2026-01-04 02:48:36.26	228.37	3.50	-47.1	-53.6	7.7	7.70e-02	90	38	0	20971520	60	17381
2026-01-04 02:48:37.27	228.47	3.55	-47.2	-53.8	7.6	6.29e-02	0	38	0	23068672	60	17751
2026-01-04 02:48:38.28	228.56	3.60	-47.2	-53.7	7.6	1.13e-01	92	39	0	25165824	60	17505
2026-01-04 02:48:39.29	228.66	3.65	-47.2	-53.6	7.9	1.04e-01	0	39	0	26214400	60	17355
2026-01-04 02:48:40.30	228.76	3.70	-47.3	-53.9	7.4	8.27e-02	92	38	0	28311552	60	18011
2026-01-04 02:48:41.31	228.86	3.75	-47.3	-54.0	7.3	1.12e-01	39	39	0	30408704	60	18080
2026-01-04 02:48:42.32	228.96	3.80	-47.3	-54.0	7.4	9.91e-02	90	38	0	32505856	60	18195
2026-01-04 02:48:43.33	229.06	3.86	-47.3	-54.2	7.3	1.01e-01	92	39	0	34603008	60	18443
2026-01-04 02:48:44.33	229.16	3.91	-47.3	-54.2	7.1	1.44e-01	0	39	0	35651584	60	18558
2026-01-04 02:48:45.34	229.26	3.96	-47.3	-54.3	7.0	1.47e-01	92	38	0	37748736	60	18687
2026-01-04 02:48:46.35	229.36	4.01	-47.3	-54.2	7.2	1.23e-01	0	39	0	39845888	60	18436
2026-01-04 02:48:47.36	229.46	4.06	-47.2	-53.8	7.5	9.77e-02	91	38	0	41943040	60	17667
2026-01-04 02:48:48.37	229.56	4.11	-47.3	-53.9	7.7	1.00e-01	39	38	0	44040192	60	17840
2026-01-04 02:48:49.38	229.66	4.16	-47.4	-54.2	7.3	7.55e-02	92	39	0	46137344	60	18462
2026-01-04 02:48:50.39	229.76	4.21	-47.3	-54.2	7.2	1.20e-01	92	39	0	47185920	60	18471
2026-01-04 02:48:51.40	229.87	4.27	-47.4	-54.3	7.1	1.06e-01	0	38	0	49283072	60	18745
2026-01-04 02:48:52.41	229.97	4.32	-47.3	-53.9	7.5	1.24e-01	70	39	0	51380224	60	17858
2026-01-04 02:48:53.42	230.07	4.37	-47.3	-54.0	7.4	1.05e-01	0	39	0	53477376	60	18210
2026-01-04 02:48:54.43	230.17	4.42	-47.4	-54.3	7.2	1.07e-01	92	39	0	55574528	60	18671
2026-01-04 02:48:55.44	230.28	4.47	-47.4	-54.2	7.2	1.16e-01	0	39	0	56623104	60	18447
2026-01-04 02:48:56.45	230.38	4.52	-47.4	-54.3	7.1	1.33e-01	92	39	0	58720256	60	18806
2026-01-04 02:48:57.46	230.49	4.57	-47.5	-54.5	6.9	1.52e-01	92	39	0	60817408	60	19287
2026-01-04 02:48:58.46	230.59	4.63	-47.6	-55.0	6.5	1.61e-01	0	39	0	62914560	60	20224
2026-01-04 02:48:59.47	230.69	4.68	-47.5	-54.5	6.9	1.66e-01	92	39	0	65011712	60	19209
2026-01-04 02:49:00.48	230.80	4.73	-47.6	-54.9	6.6	1.99e-01	0	39	0	66060288	60	20148
2026-01-04 02:49:01.49	230.91	4.78	-47.7	-55.0	6.6	2.09e-01	92	39	0	68157440	60	20240
2026-01-04 02:49:02.50	231.01	4.83	-47.7	-55.0	6.6	1.96e-01	0	39	0	70254592	60	20320
2026-01-04 02:49:03.51	231.12	4.88	-47.7	-55.0	6.6	2.17e-01	92	39	0	72351744	60	20335
2026-01-04 02:49:04.52	231.22	4.93	-47.8	-55.3	6.4	2.24e-01	90	39	0	74448896	60	20956
2026-01-04 02:49:05.53	231.33	4.99	-47.9	-55.2	6.5	2.20e-01	52	39	0	75497472	60	20740
2026-01-04 02:49:06.54	231.44	5.04	-47.9	-55.5	6.3	2.45e-01	90	39	0	77594624	60	21514
2026-01-04 02:49:07.55	231.55	5.09	-47.9	-55.3	6.3	2.59e-01	0	39	0	79691776	60	21083
2026-01-04 02:49:08.56	231.66	5.14	-48.0	-55.7	6.0	2.60e-01	90	39	0	81788928	60	22111
2026-01-04 02:49:09.57	231.76	5.19	-48.0	-55.5	6.4	2.38e-01	0	39	0	83886080	60	21427
2026-01-04 02:49:10.58	231.87	5.25	-48.0	-55.5	6.3	2.29e-01	90	39	0	84934656	60	21645
2026-01-04 02:49:11.59	231.98	5.30	-48.0	-55.4	6.4	2.38e-01	92	39	0	87031808	60	21359
2026-01-04 02:49:12.60	232.09	5.35	-48.0	-55.2	6.6	2.10e-01	92	39	0	89128960	60	20806
2026-01-04 02:49:13.61	232.20	5.40	-48.0	-55.3	6.4	2.09e-01	92	39	0	91226112	60	21130
2026-01-04 02:49:14.62	232.31	5.45	-48.0	-55.2	6.7	1.83e-01	0	39	0	93323264	60	20854
2026-01-04 02:49:15.63	232.42	5.50	-48.0	-55.3	6.5	1.82e-01	92	39	0	94371840	60	21061
2026-01-04 02:49:16.64	232.53	5.56	-48.0	-55.1	6.7	1.87e-01	0	39	0	96468992	60	20608
2026-01-04 02:49:17.64	232.65	5.61	-48.0	-54.8	7.1	1.82e-01	91	39	0	98566144	60	19970
2026-01-04 02:49:18.65	232.76	5.66	-48.0	-54.9	7.2	1.37e-01	91	39	0	100663296	60	20096
2026-01-04 02:49:19.66	232.87	5.71	-48.1	-54.9	7.1	1.25e-01	91	39	0	102760448	60	20041
2026-01-04 02:49:20.67	232.98	5.76	-48.0	-54.7	7.4	1.23e-01	91	39	0	103809024	60	19727
2026-01-04 02:49:21.68	233.10	5.82	-48.0	-54.9	7.3	1.03e-01	0	39	0	105906176	60	20123
2026-01-04 02:49:22.69	233.21	5.87	-48.0	-54.5	7.7	6.18e-02	92	39	0	108003328	60	19247
2026-01-04 02:49:23.70	233.32	5.92	-48.1	-54.6	7.8	9.26e-02	0	39	0	110100480	60	19304
2026-01-04 02:49:24.71	233.44	5.97	-48.1	-54.6	7.6	7.48e-02	92	39	0	112197632	60	19485
2026-01-04 02:49:25.72	233.55	6.02	-48.0	-54.4	8.0	6.60e-02	36	39	0	114294784	60	18925
2026-01-04 02:49:26.73	233.67	6.08	-48.1	-54.6	8.1	6.23e-02	90	39	0	115343360	60	19324
2026-01-04 02:49:27.74	233.78	6.13	-48.2	-54.6	7.9	6.59e-02	92	39	0	117440512	60	19330
2026-01-04 02:49:28.74	233.90	6.18	-48.1	-54.3	8.2	6.42e-02	0	39	0	119537664	60	18853
2026-01-04 02:49:29.76	234.01	6.23	-48.1	-54.5	8.0	6.71e-02	90	39	0	121634816	60	19176
2026-01-04 02:49:30.77	234.13	6.28	-48.1	-54.4	8.0	5.95e-02	0	39	0	123731968	60	18862
2026-01-04 02:49:31.77	234.25	6.34	-48.0	-54.2	8.2	5.82e-02	91	39	0	124780544	60	18616
2026-01-04 02:49:32.78	234.36	6.39	-48.0	-54.3	8.1	5.43e-02	0	39	0	126877696	60	18841
2026-01-04 02:49:33.79	234.48	6.44	-48.1	-54.3	8.3	5.89e-02	92	39	0	128974848	60	18672
2026-01-04 02:49:34.80	234.60	6.49	-48.2	-54.4	8.3	5.81e-02	92	39	0	131072000	60	19079
2026-01-04 02:49:35.81	234.72	6.54	-48.1	-54.2	8.4	4.06e-02	0	39	0	133169152	60	18472
2026-01-04 02:49:36.81	234.84	6.59	-47.9	-53.9	8.5	3.36e-02	72	39	0	134217728	60	17979
2026-01-04 02:49:37.83	234.96	6.65	-47.9	-53.9	8.6	3.82e-02	0	39	0	136314880	60	17979
2026-01-04 02:49:38.84	235.08	6.70	-47.8	-53.6	8.9	2.90e-02	92	39	0	138412032	60	17286
2026-01-04 02:49:39.85	235.20	6.75	-47.9	-53.8	8.8	2.59e-02	0	39	0	140509184	60	17645
2026-01-04 02:49:40.85	235.32	6.80	-47.9	-53.7	8.9	2.93e-02	92	39	0	142606336	60	17464
2026-01-04 02:49:41.86	235.44	6.86	-47.9	-53.7	8.9	3.01e-02	92	39	0	143654912	60	17549
2026-01-04 02:49:42.87	235.56	6.91	-47.8	-53.4	9.3	1.64e-02	50	39	0	145752064	60	16834
2026-01-04 02:49:43.88	235.68	6.96	-48.0	-53.4	9.4	1.70e-02	87	39	0	147849216	60	16966
2026-01-04 02:49:44.89	235.80	7.01	-47.9	-53.2	9.8	1.34e-02	0	39	0	149946368	60	16444
2026-01-04 02:49:45.90	235.93	7.06	-47.9	-53.2	9.9	1.37e-02	92	39	0	152043520	60	16507
2026-01-04 02:49:46.91	236.05	7.12	-47.9	-53.3	9.8	1.04e-02	0	39	0	153092096	60	16627
2026-01-04 02:49:47.92	236.17	7.17	-47.9	-53.2	9.7	8.61e-03	92	39	0	155189248	60	16544
2026-01-04 02:49:48.93	236.30	7.22	-47.8	-52.8	10.5	7.59e-03	37	39	0	157286400	60	15769
2026-01-04 02:49:49.93	236.42	7.27	-47.6	-52.4	10.5	2.85e-03	92	39	0	159383552	60	15107
2026-01-04 02:49:50.94	236.55	7.32	-47.7	-52.5	10.9	2.78e-03	92	39	0	161480704	60	15293
2026-01-04 02:49:51.95	236.67	7.38	-47.6	-52.3	10.9	2.20e-03	0	39	0	162529280	60	14855
2026-01-04 02:49:52.96	236.80	7.43	-47.4	-51.9	11.3	1.54e-03	91	39	0	164626432	60	14242
2026-01-04 02:49:53.97	236.92	7.48	-47.4	-51.9	11.2	1.43e-03	0	39	0	166723584	60	14271
2026-01-04 02:49:54.98	237.05	7.53	-47.3	-51.8	11.3	1.33e-03	92	39	0	168820736	60	14001
2026-01-04 02:49:55.98	237.18	7.58	-47.3	-51.6	11.7	6.74e-04	40	39	0	170917888	60	13765
2026-01-04 02:49:56.99	237.30	7.63	-47.3	-51.7	11.6	9.35e-04	92	39	0	171966464	60	13824
2026-01-04 02:49:58.00	237.43	7.69	-47.0	-50.9	12.5	2.17e-04	92	39	0	174063616	60	12712
2026-01-04 02:49:59.01	237.56	7.74	-47.2	-51.2	12.4	9.46e-05	0	39	0	176160768	60	13060
2026-01-04 02:50:00.02	237.69	7.79	-46.8	-50.4	13.2	6.71e-05	92	39	0	178257920	60	11909
2026-01-04 02:50:01.02	237.82	7.84	-46.4	-49.8	13.6	1.52e-05	0	39	0	180355072	60	11205
2026-01-04 02:50:02.03	237.95	7.89	-46.3	-49.6	13.8	9.10e-06	92	39	0	181403648	60	10928
2026-01-04 02:50:03.04	238.08	7.95	-46.2	-49.4	14.1	3.00e-06	0	39	0	183500800	60	10675
2026-01-04 02:50:04.05	238.21	8.00	-46.0	-49.1	14.3	4.50e-06	91	39	0	185597952	60	10340
2026-01-04 02:50:05.06	238.34	8.05	-45.9	-48.9	14.5	7.00e-07	91	39	0	187695104	60	10058
2026-01-04 02:50:06.06	238.47	8.10	-45.9	-48.9	14.5	1.50e-06	0	39	0	189792256	60	10045
2026-01-04 02:50:07.07	238.60	8.15	-45.9	-48.8	14.6	0.00e+00	91	39	0	190840832	60	10011
2026-01-04 02:50:08.08	238.73	8.20	-46.0	-48.9	14.8	7.00e-07	0	39	0	192937984	60	10021
2026-01-04 02:50:09.09	238.87	8.26	-46.2	-49.1	14.8	0.00e+00	92	39	0	195035136	60	10348
2026-01-04 02:50:10.10	239.00	8.31	-46.2	-49.1	14.8	0.00e+00	0	39	0	197132288	60	10326
2026-01-04 02:50:11.11	239.13	8.36	-45.9	-48.6	15.3	0.00e+00	92	39	0	199229440	60	9683
2026-01-04 02:50:12.12	239.27	8.41	-45.7	-48.3	15.4	0.00e+00	92	39	0	200278016	60	9444
2026-01-04 02:50:13.13	239.40	8.46	-45.7	-48.3	15.5	0.00e+00	0	39	0	202375168	60	9369
2026-01-04 02:50:14.14	239.54	8.51	-45.5	-48.0	15.5	0.00e+00	92	39	0	204472320	60	9124
2026-01-04 02:50:15.14	239.67	8.56	-45.7	-48.2	16.1	0.00e+00	0	39	0	206569472	60	9312
2026-01-04 02:50:16.15	239.81	8.62	-45.9	-48.2	16.3	3.80e-06	92	39	0	208666624	60	9259
2026-01-04 02:50:17.16	239.94	8.67	-46.7	-49.1	16.1	0.00e+00	0	39	0	210763776	60	10337
2026-01-04 02:50:18.17	240.08	8.72	-46.6	-48.9	16.4	0.00e+00	92	39	0	211812352	60	10053
2026-01-04 02:50:19.18	240.22	8.77	-46.0	-48.2	16.6	0.00e+00	92	39	0	213909504	60	9297
2026-01-04 02:50:20.19	240.36	8.82	-45.5	-47.7	16.7	0.00e+00	92	39	0	216006656	60	8781
2026-01-04 02:50:21.20	240.50	8.87	-44.9	-47.0	16.9	0.00e+00	92	39	0	218103808	60	8130
2026-01-04 02:50:22.21	240.63	8.92	-45.0	-47.1	16.9	0.00e+00	0	39	0	220200960	60	8167
2026-01-04 02:50:23.22	240.77	8.98	-44.6	-46.6	17.2	0.00e+00	89	39	0	221249536	60	7750
2026-01-04 02:50:24.23	240.91	9.03	-44.7	-46.6	17.5	0.00e+00	0	39	0	223346688	60	7754
2026-01-04 02:50:25.24	241.05	9.08	-44.5	-46.4	17.6	0.00e+00	90	39	0	225443840	60	7572
2026-01-04 02:50:26.25	241.19	9.13	-44.3	-46.2	17.8	0.00e+00	38	39	0	227540992	60	7373
2026-01-04 02:50:27.25	241.33	9.18	-44.3	-46.1	17.9	0.00e+00	91	39	0	228589568	60	7329
2026-01-04 02:50:28.26	241.48	9.23	-44.1	-45.9	17.9	0.00e+00	90	39	0	230686720	60	7166
2026-01-04 02:50:29.27	241.62	9.28	-43.8	-45.6	18.1	0.00e+00	0	39	0	232783872	60	6905
2026-01-04 02:50:30.28	241.76	9.33	-43.8	-45.6	18.1	0.00e+00	90	39	0	234881024	60	6873
2026-01-04 02:50:31.29	241.90	9.38	-44.0	-45.9	17.6	0.00e+00	0	39	0	236978176	60	7129
2026-01-04 02:50:32.30	242.05	9.43	-43.8	-45.5	18.0	0.00e+00	90	39	0	239075328	60	6839
2026-01-04 02:50:33.31	242.19	9.49	-43.3	-45.0	18.7	0.00e+00	56	39	0	240123904	60	6424
2026-01-04 02:50:34.32	242.34	9.54	-43.0	-44.5	19.1	0.00e+00	91	39	0	242221056	60	6076
2026-01-04 02:50:35.33	242.48	9.59	-42.8	-44.3	19.3	0.00e+00	92	39	0	244318208	60	5949
2026-01-04 02:50:36.34	242.63	9.64	-42.6	-44.1	19.6	0.00e+00	0	39	0	246415360	58	6481
2026-01-04 02:50:37.35	242.77	9.69	-42.4	-43.8	19.8	0.00e+00	80	39	0	248512512	58	6247
2026-01-04 02:50:38.36	242.92	9.74	-42.2	-43.5	20.2	0.00e+00	0	39	0	249561088	58	6071
2026-01-04 02:50:39.37	243.07	9.79	-41.9	-43.2	20.3	0.00e+00	92	39	0	251658240	58	5896
2026-01-04 02:50:40.38	243.21	9.84	-42.0	-43.3	20.3	0.00e+00	0	39	0	253755392	58	5923
2026-01-04 02:50:41.39	243.36	9.89	-41.8	-43.1	20.7	0.00e+00	92	39	0	255852544	58	5765
2026-01-04 02:50:42.39	243.51	9.94	-41.6	-42.9	20.8	0.00e+00	92	39	0	257949696	56	6331
2026-01-04 02:50:43.40	243.66	9.99	-41.5	-42.7	20.9	0.00e+00	0	39	0	258998272	56	6205
2026-01-04 02:50:44.41	243.81	10.04	-41.4	-42.6	20.9	0.00e+00	92	39	0	261095424	56	6153
2026-01-04 02:50:45.42	243.96	10.09	-41.2	-42.4	21.2	0.00e+00	0	39	0	263192576	56	6003
2026-01-04 02:50:46.43	244.11	10.14	-40.8	-42.0	21.5	0.00e+00	92	39	0	265289728	56	5704
2026-01-04 02:50:47.44	244.26	10.19	-40.6	-41.6	21.7	0.00e+00	0	39	0	267386880	54	6165
2026-01-04 02:50:48.45	244.41	10.24	-40.3	-41.4	22.0	0.00e+00	90	39	0	268435456	54	5976
2026-01-04 02:50:49.46	244.56	10.29	-40.3	-41.3	22.1	0.00e+00	92	39	0	270532608	54	5942
2026-01-04 02:50:50.47	244.72	10.34	-40.1	-41.1	22.4	0.00e+00	0	39	0	272629760	54	5792
2026-01-04 02:50:51.48	244.87	10.39	-40.0	-41.0	22.5	0.00e+00	92	39	0	274726912	54	5714
2026-01-04 02:50:52.49	245.02	10.44	-40.1	-41.1	22.0	0.00e+00	0	39	0	276824064	54	5803
2026-01-04 02:50:53.50	245.18	10.49	-40.2	-41.2	22.2	0.00e+00	92	39	0	277872640	54	5896
2026-01-04 02:50:54.51	245.33	10.54	-40.3	-41.3	22.2	0.00e+00	0	39	0	279969792	54	5962
2026-01-04 02:50:55.52	245.48	10.59	-40.2	-41.2	22.4	0.00e+00	92	39	0	282066944	54	5859
2026-01-04 02:50:56.53	245.64	10.64	-40.4	-41.4	22.1	0.00e+00	92	39	0	284164096	54	5998
2026-01-04 02:50:57.54	245.80	10.69	-40.4	-41.4	22.2	0.00e+00	90	39	0	286261248	54	5992
2026-01-04 02:50:58.55	245.95	10.73	-41.1	-42.2	22.1	0.00e+00	92	39	0	287309824	54	6543
2026-01-04 02:50:59.56	246.11	10.78	-41.0	-42.1	22.2	0.00e+00	0	39	0	289406976	54	6489
2026-01-04 02:51:00.57	246.27	10.83	-41.4	-42.4	22.4	0.00e+00	92	39	0	291504128	56	5990
2026-01-04 02:51:01.58	246.43	10.88	-40.7	-41.7	22.6	0.00e+00	0	39	0	293601280	54	6200
2026-01-04 02:51:02.59	246.58	10.93	-40.5	-41.5	22.7	0.00e+00	92	39	0	295698432	54	6078
2026-01-04 02:51:03.60	246.74	10.98	-40.8	-41.8	22.6	0.00e+00	92	39	0	297795584	54	6267
2026-01-04 02:51:04.61	246.90	11.03	-41.0	-41.9	22.7	0.00e+00	92	39	0	298844160	54	6372
2026-01-04 02:51:05.63	247.06	11.08	-41.5	-42.5	22.7	0.00e+00	92	39	0	300941312	56	6082
2026-01-04 02:51:06.64	247.22	11.12	-41.0	-42.0	22.7	0.00e+00	0	39	0	303038464	56	5710
2026-01-04 02:51:07.64	247.38	11.17	-40.5	-41.5	22.8	0.00e+00	92	39	0	305135616	54	6067
2026-01-04 02:51:08.65	247.55	11.22	-40.3	-41.3	22.8	0.00e+00	0	39	0	307232768	54	5900
2026-01-04 02:51:09.66	247.71	11.27	-40.2	-41.1	22.8	0.00e+00	92	39	0	308281344	54	5813
2026-01-04 02:51:10.67	247.87	11.32	-39.9	-40.9	22.9	0.00e+00	0	39	0	310378496	54	5647
2026-01-04 02:51:11.68	248.03	11.36	-40.1	-41.1	22.9	0.00e+00	92	39	0	312475648	54	5780
2026-01-04 02:51:12.69	248.20	11.41	-40.4	-41.4	22.8	0.00e+00	92	39	0	314572800	54	5976
2026-01-04 02:51:13.70	248.36	11.46	-41.1	-42.1	22.6	0.00e+00	0	39	0	316669952	54	6489
2026-01-04 02:51:14.71	248.53	11.51	-40.7	-41.6	22.8	0.00e+00	92	39	0	317718528	54	6141
2026-01-04 02:51:15.72	248.69	11.55	-40.6	-41.5	22.8	0.00e+00	0	39	0	319815680	54	6099
2026-01-04 02:51:16.73	248.86	11.60	-40.6	-41.5	22.8	0.00e+00	92	39	0	321912832	54	6098
2026-01-04 02:51:17.74	249.02	11.65	-40.6	-41.5	22.7	0.00e+00	0	39	0	324009984	54	6075
2026-01-04 02:51:18.75	249.19	11.69	-40.4	-41.4	22.7	0.00e+00	92	39	0	326107136	54	5973
2026-01-04 02:51:19.76	249.36	11.74	-40.4	-41.4	22.5	0.00e+00	92	39	0	327155712	54	6010
2026-01-04 02:51:20.77	249.53	11.79	-40.7	-41.7	22.8	0.00e+00	0	39	0	329252864	54	6214
2026-01-04 02:51:21.77	249.69	11.83	-40.4	-41.4	22.7	0.00e+00	92	39	0	331350016	54	5969
2026-01-04 02:51:22.78	249.86	11.88	-40.5	-41.5	22.8	0.00e+00	0	39	0	333447168	54	6053
2026-01-04 02:51:23.79	250.03	11.93	-40.2	-41.2	22.8	0.00e+00	92	39	0	335544320	54	5840
2026-01-04 02:51:24.80	250.20	11.97	-40.5	-41.4	22.8	0.00e+00	0	39	0	336592896	54	6021
2026-01-04 02:51:25.81	250.37	12.02	-40.4	-41.4	22.7	0.00e+00	92	39	0	338690048	54	5981
2026-01-04 02:51:26.82	250.54	12.06	-40.3	-41.3	22.8	0.00e+00	90	39	0	340787200	54	5928
2026-01-04 02:51:27.83	250.71	12.11	-40.5	-41.5	22.5	0.00e+00	0	39	0	342884352	54	6098
2026-01-04 02:51:28.84	250.88	12.15	-40.4	-41.4	22.5	0.00e+00	90	39	0	344981504	54	5968
2026-01-04 02:51:29.85	251.06	12.20	-41.4	-42.4	22.3	0.00e+00	0	39	0	346030080	54	6740
2026-01-04 02:51:30.86	251.23	12.24	-41.0	-42.0	22.1	0.00e+00	91	39	0	348127232	54	6439
2026-01-04 02:51:31.87	251.40	12.29	-40.7	-41.8	22.2	0.00e+00	0	39	0	350224384	54	6263
2026-01-04 02:51:32.88	251.58	12.33	-40.6	-41.6	22.2	0.00e+00	90	39	0	352321536	54	6141
2026-01-04 02:51:33.89	251.75	12.38	-40.6	-41.6	22.3	0.00e+00	43	39	0	354418688	54	6168
2026-01-04 02:51:34.90	251.93	12.42	-40.5	-41.5	22.3	0.00e+00	35	39	0	355467264	54	6092
2026-01-04 02:51:35.91	252.10	12.47	-40.6	-41.6	22.2	0.00e+00	91	39	0	357564416	54	6146
2026-01-04 02:51:36.92	252.28	12.51	-41.1	-42.2	22.2	0.00e+00	0	39	0	359661568	54	6542
2026-01-04 02:51:37.93	252.45	12.56	-40.6	-41.6	22.4	0.00e+00	91	39	0	361758720	54	6109
2026-01-04 02:51:38.94	252.63	12.60	-40.7	-41.7	21.8	0.00e+00	0	39	0	363855872	54	6222
2026-01-04 02:51:39.95	252.81	12.64	-40.9	-42.0	22.3	0.00e+00	92	39	0	364904448	54	6391
2026-01-04 02:51:40.96	252.99	12.69	-41.0	-42.0	22.1	0.00e+00	41	39	0	367001600	54	6448
2026-01-04 02:51:41.97	253.16	12.73	-41.3	-42.3	21.8	0.00e+00	92	39	0	369098752	54	6690
2026-01-04 02:51:42.98	253.34	12.78	-41.4	-42.5	21.8	0.00e+00	90	39	0	371195904	54	6795
2026-01-04 02:51:43.98	253.52	12.82	-41.1	-42.2	22.1	0.00e+00	0	39	0	373293056	56	5840
2026-01-04 02:51:44.99	253.70	12.86	-41.3	-42.4	21.6	0.00e+00	92	39	0	375390208	56	6023
2026-01-04 02:51:46.00	253.88	12.90	-40.8	-41.9	21.9	0.00e+00	0	39	0	376438784	56	5643
2026-01-04 02:51:47.01	254.06	12.95	-40.7	-41.8	22.1	0.00e+00	90	39	0	378535936	54	6248
2026-01-04 02:51:48.02	254.24	12.99	-40.7	-41.7	22.0	0.00e+00	25	39	0	380633088	54	6240
2026-01-04 02:51:49.03	254.43	13.03	-41.5	-42.5	22.1	0.00e+00	91	39	0	382730240	54	6835
2026-01-04 02:51:50.04	254.61	13.07	-40.9	-41.9	22.2	0.00e+00	92	39	0	384827392	54	6356
2026-01-04 02:51:51.04	254.79	13.11	-41.1	-42.1	22.0	0.00e+00	0	39	0	385875968	54	6520
2026-01-04 02:51:52.05	254.97	13.16	-41.1	-42.2	21.8	0.00e+00	74	39	0	387973120	54	6573
2026-01-04 02:51:53.06	255.16	13.20	-40.8	-41.8	22.2	0.00e+00	0	39	0	390070272	54	6314
2026-01-04 02:51:54.07	255.34	13.24	-41.0	-42.1	22.0	0.00e+00	92	39	0	392167424	54	6476
2026-01-04 02:51:55.08	255.53	13.28	-40.8	-41.9	22.0	0.00e+00	0	39	0	394264576	54	6323
2026-01-04 02:51:56.09	255.71	13.32	-41.0	-42.1	21.7	0.00e+00	92	39	0	395313152	54	6522
2026-01-04 02:51:57.10	255.90	13.36	-41.2	-42.3	21.7	0.00e+00	92	39	0	397410304	54	6665
2026-01-04 02:51:58.10	256.08	13.40	-41.3	-42.4	21.4	0.00e+00	0	39	0	399507456	54	6723
2026-01-04 02:51:59.12	256.27	13.44	-41.2	-42.3	21.3	0.00e+00	80	39	0	401604608	54	6672
2026-01-04 02:52:00.13	256.46	13.48	-41.4	-42.6	21.2	0.00e+00	0	39	0	403701760	54	6859
2026-01-04 02:52:01.14	256.65	13.52	-41.1	-42.3	21.5	0.00e+00	61	39	0	404750336	54	6627
2026-01-04 02:52:02.15	256.84	13.56	-41.0	-42.1	21.4	0.00e+00	0	39	0	406847488	54	6511
2026-01-04 02:52:03.16	257.03	13.60	-40.9	-42.0	21.5	0.00e+00	92	39	0	408944640	54	6453
2026-01-04 02:52:04.16	257.21	13.64	-41.2	-42.3	21.4	0.00e+00	91	39	0	411041792	54	6669
2026-01-04 02:52:05.17	257.40	13.68	-41.0	-42.1	21.6	0.00e+00	10	39	0	413138944	54	6488
2026-01-04 02:52:06.19	257.60	13.72	-41.2	-42.3	21.5	0.00e+00	92	39	0	414187520	54	6646
2026-01-04 02:52:07.19	257.78	13.75	-41.8	-43.0	21.2	0.00e+00	0	39	0	416284672	54	7188
2026-01-04 02:52:08.20	257.98	13.79	-42.0	-43.1	20.9	0.00e+00	91	39	0	418381824	56	6538
2026-01-04 02:52:09.21	258.17	13.83	-42.3	-43.6	20.9	0.00e+00	0	39	0	420478976	56	6860
2026-01-04 02:52:10.22	258.36	13.87	-42.0	-43.2	21.0	0.00e+00	91	39	0	422576128	56	6562
2026-01-04 02:52:11.23	258.55	13.91	-41.9	-43.1	21.0	0.00e+00	38	39	0	423624704	56	6490
2026-01-04 02:52:12.23	258.74	13.94	-42.1	-43.3	20.7	0.00e+00	39	39	0	425721856	56	6669
2026-01-04 02:52:13.24	258.94	13.98	-42.5	-43.7	20.5	0.00e+00	92	39	0	427819008	56	7006
2026-01-04 02:52:14.25	259.13	14.02	-42.3	-43.5	20.8	0.00e+00	0	39	0	429916160	58	6079
2026-01-04 02:52:15.26	259.33	14.05	-42.4	-43.6	20.9	0.00e+00	92	39	0	432013312	58	6165
2026-01-04 02:52:16.27	259.52	14.09	-43.2	-44.5	20.2	0.00e+00	0	39	0	433061888	58	6827
2026-01-04 02:52:17.27	259.72	14.12	-42.7	-44.0	20.7	0.00e+00	91	39	0	435159040	58	6404
2026-01-04 02:52:18.28	259.91	14.16	-42.7	-44.0	20.4	0.00e+00	44	39	0	437256192	58	6422
2026-01-04 02:52:19.29	260.11	14.20	-42.9	-44.2	20.7	0.00e+00	90	39	0	439353344	58	6543
2026-01-04 02:52:20.30	260.30	14.23	-42.8	-44.0	20.8	0.00e+00	91	39	0	441450496	58	6433
2026-01-04 02:52:21.31	260.50	14.27	-42.6	-43.8	20.9	0.00e+00	0	39	0	443547648	58	6257
2026-01-04 02:52:22.32	260.70	14.30	-42.2	-43.3	21.2	0.00e+00	80	39	0	444596224	58	5940
2026-01-04 02:52:23.33	260.90	14.33	-41.6	-42.7	21.4	0.00e+00	0	39	0	446693376	56	6237
2026-01-04 02:52:24.34	261.10	14.37	-41.6	-42.7	21.2	0.00e+00	92	39	0	448790528	56	6234
2026-01-04 02:52:25.35	261.30	14.40	-41.6	-42.7	21.1	0.00e+00	0	39	0	450887680	56	6240
2026-01-04 02:52:26.36	261.50	14.44	-41.7	-42.8	21.1	0.00e+00	92	39	0	452984832	56	6314
2026-01-04 02:52:27.37	261.70	14.47	-42.4	-43.6	20.7	0.00e+00	92	39	0	454033408	58	6140
2026-01-04 02:52:28.38	261.90	14.50	-42.2	-43.5	20.8	0.00e+00	0	39	0	456130560	58	6041
2026-01-04 02:52:29.39	262.10	14.54	-43.2	-44.6	19.8	0.00e+00	83	39	0	458227712	58	6865
2026-01-04 02:52:30.40	262.30	14.57	-43.0	-44.2	20.6	0.00e+00	0	39	0	460324864	58	6582
2026-01-04 02:52:31.41	262.50	14.60	-42.3	-43.5	21.1	0.00e+00	92	39	0	462422016	58	6037
2026-01-04 02:52:32.41	262.70	14.63	-41.9	-43.0	21.2	0.00e+00	0	39	0	463470592	58	5735
2026-01-04 02:52:33.42	262.90	14.66	-42.0	-43.2	21.2	0.00e+00	92	39	0	465567744	58	5845
2026-01-04 02:52:34.43	263.11	14.69	-41.8	-42.9	21.5	0.00e+00	45	39	0	467664896	56	6360
2026-01-04 02:52:35.44	263.31	14.73	-42.2	-43.4	20.9	0.00e+00	0	39	0	469762048	56	6710
2026-01-04 02:52:36.45	263.51	14.76	-41.4	-42.5	21.5	0.00e+00	92	39	0	471859200	56	6071
2026-01-04 02:52:37.46	263.72	14.79	-41.0	-42.1	22.0	0.00e+00	0	39	0	472907776	56	5786
2026-01-04 02:52:38.47	263.92	14.82	-41.1	-42.1	22.2	0.00e+00	92	39	0	475004928	56	5822
2026-01-04 02:52:39.48	264.13	14.85	-40.5	-41.5	22.5	0.00e+00	0	39	0	477102080	54	6083
2026-01-04 02:52:40.49	264.33	14.88	-40.2	-41.2	22.5	0.00e+00	92	39	0	479199232	54	5887
2026-01-04 02:52:41.50	264.54	14.91	-39.9	-40.9	22.7	0.00e+00	63	39	0	481296384	52	6343
2026-01-04 02:52:42.51	264.74	14.93	-40.4	-41.4	22.7	0.00e+00	0	39	0	482344960	52	6725
2026-01-04 02:52:43.52	264.95	14.96	-40.2	-41.2	22.9	0.00e+00	92	39	0	484442112	52	6560
2026-01-04 02:52:44.53	265.16	14.99	-40.0	-41.0	22.9	0.00e+00	0	39	0	486539264	52	6400
2026-01-04 02:52:45.54	265.36	15.02	-40.0	-40.9	22.9	0.00e+00	92	39	0	488636416	52	6366
2026-01-04 02:52:46.54	265.57	15.05	-40.1	-41.1	22.8	0.00e+00	0	39	0	490733568	52	6493
2026-01-04 02:52:47.55	265.78	15.07	-40.1	-41.1	22.7	0.00e+00	91	39	0	491782144	52	6471
2026-01-04 02:52:48.57	265.99	15.10	-40.1	-41.1	22.6	0.00e+00	28	39	0	493879296	52	6473
2026-01-04 02:52:49.57	266.20	15.13	-40.0	-41.0	22.6	0.00e+00	50	39	0	495976448	52	6405
2026-01-04 02:52:50.58	266.40	15.15	-40.0	-41.0	22.6	0.00e+00	92	39	0	498073600	52	6424
2026-01-04 02:52:51.59	266.61	15.18	-40.0	-41.0	22.6	0.00e+00	0	39	0	500170752	52	6427
2026-01-04 02:52:52.60	266.82	15.21	-40.4	-41.4	22.4	0.00e+00	61	39	0	501219328	52	6724
2026-01-04 02:52:53.61	267.03	15.23	-40.4	-41.4	22.4	0.00e+00	0	39	0	503316480	52	6732
2026-01-04 02:52:54.62	267.24	15.26	-40.8	-41.9	22.2	0.00e+00	92	39	0	505413632	54	6319
2026-01-04 02:52:55.63	267.46	15.28	-40.7	-41.6	22.8	0.00e+00	0	39	0	507510784	54	6171
2026-01-04 02:52:56.64	267.67	15.31	-40.7	-41.6	22.8	0.00e+00	92	39	0	509607936	54	6171
2026-01-04 02:52:57.65	267.88	15.33	-40.6	-41.6	22.7	0.00e+00	92	39	0	510656512	54	6116
2026-01-04 02:52:58.66	268.09	15.35	-40.8	-41.8	22.1	0.00e+00	0	39	0	512753664	54	6273
2026-01-04 02:52:59.67	268.30	15.38	-40.9	-42.0	22.2	0.00e+00	47	39	0	514850816	54	6409
2026-01-04 02:53:00.68	268.51	15.40	-41.0	-42.1	21.9	0.00e+00	0	39	0	516947968	54	6480
2026-01-04 02:53:01.69	268.73	15.42	-41.0	-42.1	21.9	0.00e+00	89	39	0	519045120	54	6490
2026-01-04 02:53:02.70	268.94	15.44	-40.8	-41.8	22.2	0.00e+00	0	39	0	520093696	54	6303
2026-01-04 02:53:03.71	269.15	15.47	-40.5	-41.6	22.4	0.00e+00	92	39	0	522190848	54	6109
2026-01-04 02:53:04.72	269.37	15.49	-40.2	-41.2	22.7	0.00e+00	92	39	0	524288000	54	5858
2026-01-04 02:53:05.73	269.58	15.51	-39.9	-40.9	22.8	0.00e+00	0	39	0	526385152	54	5663
2026-01-04 02:53:06.74	269.80	15.53	-40.2	-41.2	22.7	0.00e+00	92	39	0	528482304	54	5844
2026-01-04 02:53:07.75	270.01	15.55	-40.6	-41.6	22.5	0.00e+00	0	39	0	529530880	54	6134
2026-01-04 02:53:08.76	270.23	15.57	-40.7	-41.7	22.1	0.00e+00	63	39	0	531628032	54	6235
2026-01-04 02:53:09.77	270.44	15.59	-40.9	-42.0	22.0	0.00e+00	0	39	0	533725184	54	6420
2026-01-04 02:53:10.78	270.66	15.61	-40.8	-41.9	21.9	0.00e+00	92	39	0	535822336	54	6358
2026-01-04 02:53:11.78	270.87	15.63	-41.0	-42.1	21.9	0.00e+00	90	39	0	537919488	54	6514
2026-01-04 02:53:12.79	271.09	15.65	-40.9	-41.9	22.0	0.00e+00	51	39	0	540016640	54	6368
2026-01-04 02:53:13.80	271.30	15.67	-41.0	-42.1	21.9	0.00e+00	92	39	0	541065216	54	6466
2026-01-04 02:53:14.81	271.52	15.68	-41.0	-42.0	22.0	0.00e+00	0	39	0	543162368	54	6432
2026-01-04 02:53:15.82	271.74	15.70	-41.3	-42.4	21.8	0.00e+00	92	39	0	545259520	54	6721
2026-01-04 02:53:16.83	271.95	15.72	-41.5	-42.7	21.3	0.00e+00	0	39	0	547356672	54	6952
2026-01-04 02:53:17.84	272.17	15.74	-43.0	-44.4	20.2	0.00e+00	92	39	0	549453824	56	7532
2026-01-04 02:53:18.85	272.39	15.75	-41.9	-43.0	21.2	0.00e+00	90	39	0	550502400	58	5747
2026-01-04 02:53:19.86	272.60	15.77	-41.4	-42.5	21.8	0.00e+00	47	39	0	552599552	56	6049
2026-01-04 02:53:20.87	272.82	15.78	-40.8	-41.8	22.1	0.00e+00	92	39	0	554696704	56	5608
2026-01-04 02:53:21.88	273.04	15.80	-40.4	-41.4	22.6	0.00e+00	0	39	0	556793856	54	6004
2026-01-04 02:53:22.89	273.26	15.81	-40.2	-41.2	22.8	0.00e+00	90	39	0	558891008	54	5865
2026-01-04 02:53:23.90	273.48	15.83	-39.8	-40.8	22.9	0.00e+00	0	39	0	559939584	54	5584
2026-01-04 02:53:24.91	273.70	15.84	-40.3	-41.3	22.5	0.00e+00	92	39	0	562036736	54	5945
2026-01-04 02:53:25.91	273.91	15.86	-40.2	-41.2	22.6	0.00e+00	88	39	0	564133888	54	5833
2026-01-04 02:53:26.92	274.13	15.87	-40.7	-41.7	22.1	0.00e+00	92	39	0	566231040	54	6232
2026-01-04 02:53:27.93	274.35	15.88	-40.8	-41.8	22.2	0.00e+00	92	39	0	568328192	54	6308
2026-01-04 02:53:28.94	274.57	15.90	-40.6	-41.6	22.4	0.00e+00	0	39	0	569376768	54	6124
2026-01-04 02:53:29.95	274.79	15.91	-40.0	-40.9	22.8	0.00e+00	52	39	0	571473920	54	5680
2026-01-04 02:53:30.96	275.01	15.92	-39.8	-40.8	22.8	0.00e+00	0	39	0	573571072	52	6267
2026-01-04 02:53:31.97	275.23	15.93	-39.5	-40.4	23.0	0.00e+00	91	39	0	575668224	52	5998
2026-01-04 02:53:32.98	275.45	15.94	-39.4	-40.3	23.1	0.00e+00	43	39	0	577765376	52	5947
2026-01-04 02:53:33.99	275.67	15.95	-39.8	-40.8	22.8	0.00e+00	92	39	0	578813952	52	6271
2026-01-04 02:53:35.00	275.89	15.96	-40.1	-41.0	22.6	0.00e+00	92	39	0	580911104	52	6455
2026-01-04 02:53:36.01	276.11	15.97	-40.2	-41.2	22.4	0.00e+00	0	39	0	583008256	52	6593
2026-01-04 02:53:37.02	276.33	15.98	-40.1	-41.1	22.5	0.00e+00	92	39	0	585105408	52	6505
2026-01-04 02:53:38.03	276.55	15.99	-40.2	-41.1	22.6	0.00e+00	0	39	0	587202560	52	6534
2026-01-04 02:53:39.04	276.77	16.00	-40.4	-41.4	22.5	0.00e+00	92	39	0	588251136	54	5985
2026-01-04 02:53:40.05	276.99	16.01	-40.6	-41.6	22.6	0.00e+00	0	39	0	590348288	54	6132
2026-01-04 02:53:41.06	277.22	16.02	-40.9	-42.0	22.2	0.00e+00	92	39	0	592445440	54	6398
2026-01-04 02:53:42.06	277.43	16.02	-41.0	-42.1	22.1	0.00e+00	90	39	0	594542592	54	6466
2026-01-04 02:53:43.07	277.66	16.03	-41.3	-42.4	21.7	0.00e+00	0	39	0	596639744	54	6723
2026-01-04 02:53:44.08	277.88	16.04	-41.9	-43.1	21.5	0.00e+00	4	39	0	597688320	54	7277
2026-01-04 02:53:45.09	278.10	16.04	-41.6	-42.7	21.8	0.00e+00	0	39	0	599785472	56	6223
2026-01-04 02:53:46.10	278.32	16.05	-41.5	-42.6	21.7	0.00e+00	44	39	0	601882624	56	6143
2026-01-04 02:53:47.11	278.54	16.06	-41.0	-42.1	21.9	0.00e+00	0	39	0	603979776	56	5781
2026-01-04 02:53:48.12	278.76	16.06	-41.0	-42.1	21.9	0.00e+00	79	39	0	606076928	56	5775
2026-01-04 02:53:49.13	278.99	16.07	-41.2	-42.3	21.6	0.00e+00	92	39	0	608174080	56	5927
2026-01-04 02:53:50.14	279.21	16.07	-41.6	-42.7	21.3	0.00e+00	0	39	0	609222656	56	6237
2026-01-04 02:53:51.15	279.43	16.07	-41.6	-42.8	21.2	0.00e+00	71	39	0	611319808	56	6255
2026-01-04 02:53:52.16	279.65	16.08	-41.9	-43.2	20.8	0.00e+00	0	39	0	613416960	56	6557
2026-01-04 02:53:53.17	279.87	16.08	-42.0	-43.2	20.9	0.00e+00	92	39	0	615514112	56	6578
2026-01-04 02:53:54.18	280.10	16.08	-41.9	-43.1	21.1	0.00e+00	0	39	0	617611264	56	6502
2026-01-04 02:53:55.19	280.32	16.09	-41.5	-42.6	21.6	0.00e+00	92	39	0	618659840	56	6117
2026-01-04 02:53:56.20	280.54	16.09	-41.7	-42.9	21.6	7.00e-07	41	39	0	620756992	56	6335
2026-01-04 02:53:57.21	280.76	16.09	-41.7	-42.9	21.0	0.00e+00	0	39	0	622854144	56	6362
2026-01-04 02:53:58.22	280.98	16.09	-42.0	-43.2	20.8	0.00e+00	91	39	0	624951296	56	6584
2026-01-04 02:53:59.23	281.21	16.09	-42.1	-43.3	20.9	0.00e+00	7	39	0	627048448	56	6681
2026-01-04 02:54:00.24	281.43	16.09	-41.8	-42.9	20.7	0.00e+00	92	39	0	628097024	56	6367
2026-01-04 02:54:01.24	281.65	16.09	-42.3	-43.6	21.1	0.00e+00	0	39	0	630194176	58	6128
2026-01-04 02:54:02.25	281.87	16.09	-41.5	-42.6	21.2	0.00e+00	92	39	0	632291328	56	6143
2026-01-04 02:54:03.26	282.09	16.09	-41.1	-42.1	21.9	0.00e+00	42	39	0	634388480	56	5795
2026-01-04 02:54:04.27	282.32	16.09	-41.0	-42.0	22.2	0.00e+00	0	39	0	636485632	54	6413
2026-01-04 02:54:05.28	282.54	16.09	-40.8	-41.9	22.2	0.00e+00	92	39	0	637534208	54	6325
2026-01-04 02:54:06.29	282.76	16.08	-41.0	-42.1	21.9	0.00e+00	0	39	0	639631360	54	6484
2026-01-04 02:54:07.30	282.98	16.08	-40.9	-42.0	22.0	0.00e+00	90	39	0	641728512	54	6401
2026-01-04 02:54:08.31	283.20	16.08	-40.6	-41.6	22.2	0.00e+00	0	39	0	643825664	54	6153
2026-01-04 02:54:09.32	283.43	16.08	-40.2	-41.2	22.3	0.00e+00	92	39	0	645922816	54	5841
2026-01-04 02:54:10.32	283.65	16.07	-39.9	-40.9	22.5	0.00e+00	0	39	0	646971392	54	5672
2026-01-04 02:54:11.34	283.87	16.07	-40.1	-41.1	22.5	0.00e+00	50	39	0	649068544	54	5784
2026-01-04 02:54:12.35	284.09	16.06	-40.1	-41.1	22.5	0.00e+00	90	39	0	651165696	54	5791
2026-01-04 02:54:13.35	284.31	16.06	-40.2	-41.2	22.0	0.00e+00	0	39	0	653262848	54	5867
2026-01-04 02:54:14.36	284.53	16.05	-40.4	-41.4	22.3	0.00e+00	42	39	0	655360000	54	6008
2026-01-04 02:54:15.37	284.75	16.05	-40.3	-41.3	22.1	0.00e+00	0	39	0	656408576	54	5910
2026-01-04 02:54:16.38	284.98	16.04	-40.3	-41.4	22.2	0.00e+00	92	39	0	658505728	54	5966
2026-01-04 02:54:17.39	285.20	16.03	-40.4	-41.4	21.9	0.00e+00	0	39	0	660602880	54	6019
2026-01-04 02:54:18.40	285.42	16.03	-39.9	-40.9	22.5	0.00e+00	90	39	0	662700032	54	5684
2026-01-04 02:54:19.41	285.64	16.02	-39.7	-40.7	22.8	0.00e+00	92	39	0	664797184	52	6196
2026-01-04 02:54:20.41	285.86	16.01	-40.0	-40.9	22.5	0.00e+00	0	39	0	665845760	52	6387
2026-01-04 02:54:21.42	286.08	16.00	-40.0	-41.0	22.5	0.00e+00	90	39	0	667942912	52	6408
2026-01-04 02:54:22.43	286.30	15.99	-40.1	-41.1	22.5	0.00e+00	0	39	0	670040064	52	6535
2026-01-04 02:54:23.44	286.52	15.99	-40.6	-41.7	22.0	0.00e+00	91	39	0	672137216	54	6209
2026-01-04 02:54:24.45	286.74	15.98	-40.8	-41.8	22.2	0.00e+00	0	39	0	674234368	54	6311
2026-01-04 02:54:25.45	286.96	15.97	-40.5	-41.5	22.2	0.00e+00	92	39	0	675282944	54	6074
2026-01-04 02:54:26.46	287.18	15.96	-40.2	-41.2	22.5	0.00e+00	92	39	0	677380096	54	5849
2026-01-04 02:54:27.47	287.40	15.95	-40.0	-41.0	22.6	0.00e+00	0	39	0	679477248	54	5724
2026-01-04 02:54:28.48	287.62	15.94	-39.9	-40.8	22.8	0.00e+00	90	39	0	681574400	54	5606
2026-01-04 02:54:29.49	287.84	15.92	-40.6	-41.6	22.5	0.00e+00	0	39	0	683671552	54	6110
2026-01-04 02:54:30.50	288.06	15.91	-40.0	-40.9	22.9	0.00e+00	90	39	0	684720128	54	5657
2026-01-04 02:54:31.51	288.28	15.90	-40.2	-41.2	22.8	0.00e+00	0	39	0	686817280	54	5876
2026-01-04 02:54:32.52	288.50	15.89	-40.6	-41.6	22.2	0.00e+00	92	39	0	688914432	54	6134
2026-01-04 02:54:33.53	288.72	15.87	-40.5	-41.5	22.3	0.00e+00	92	39	0	691011584	54	6082
2026-01-04 02:54:34.54	288.93	15.86	-40.9	-41.9	22.0	0.00e+00	0	39	0	693108736	54	6364
2026-01-04 02:54:35.55	289.15	15.85	-40.9	-42.0	21.9	0.00e+00	66	39	0	694157312	54	6421
2026-01-04 02:54:36.56	289.37	15.83	-40.5	-41.6	22.2	0.00e+00	0	39	0	696254464	54	6110
2026-01-04 02:54:37.56	289.59	15.82	-40.6	-41.6	22.4	0.00e+00	88	39	0	698351616	54	6157
2026-01-04 02:54:38.57	289.81	15.80	-40.4	-41.4	22.4	0.00e+00	0	39	0	700448768	54	5975
2026-01-04 02:54:39.58	290.02	15.79	-40.5	-41.5	22.4	0.00e+00	90	39	0	702545920	54	6046
2026-01-04 02:54:40.59	290.24	15.77	-40.5	-41.6	22.5	0.00e+00	38	39	0	704643072	54	6112
2026-01-04 02:54:41.60	290.46	15.76	-40.1	-41.0	22.4	0.00e+00	0	39	0	705691648	54	5746
2026-01-04 02:54:42.60	290.67	15.74	-39.7	-40.7	22.8	0.00e+00	90	39	0	707788800	54	5528
2026-01-04 02:54:43.61	290.89	15.72	-40.1	-41.1	22.5	0.00e+00	0	39	0	709885952	52	6499
2026-01-04 02:54:44.62	291.11	15.71	-40.0	-41.0	22.6	0.00e+00	92	39	0	711983104	52	6448
2026-01-04 02:54:45.64	291.33	15.69	-40.2	-41.2	22.4	0.00e+00	0	39	0	714080256	52	6574
2026-01-04 02:54:46.64	291.54	15.67	-40.3	-41.4	22.3	0.00e+00	86	39	0	715128832	52	6699
2026-01-04 02:54:47.65	291.76	15.65	-40.6	-41.7	22.0	0.00e+00	0	39	0	717225984	54	6198
2026-01-04 02:54:48.66	291.97	15.64	-40.6	-41.7	22.0	0.00e+00	18	39	0	719323136	54	6188
2026-01-04 02:54:49.67	292.19	15.62	-40.5	-41.5	21.9	0.00e+00	92	39	0	721420288	54	6096
2026-01-04 02:54:50.68	292.40	15.60	-40.6	-41.6	22.2	0.00e+00	0	39	0	723517440	54	6167
2026-01-04 02:54:51.68	292.61	15.58	-40.5	-41.5	22.0	0.00e+00	74	39	0	724566016	54	6067
2026-01-04 02:54:52.69	292.83	15.56	-40.8	-41.9	21.9	0.00e+00	0	39	0	726663168	54	6318
2026-01-04 02:54:53.70	293.04	15.54	-40.3	-41.4	22.3	0.00e+00	72	39	0	728760320	54	5969
2026-01-04 02:54:54.71	293.26	15.52	-40.0	-41.0	22.5	0.00e+00	0	39	0	730857472	54	5747
2026-01-04 02:54:55.72	293.47	15.50	-40.0	-40.9	22.5	0.00e+00	92	39	0	732954624	54	5694
2026-01-04 02:54:56.73	293.68	15.47	-39.9	-40.8	22.7	0.00e+00	40	39	0	734003200	52	6317
2026-01-04 02:54:57.74	293.90	15.45	-40.1	-41.1	22.4	0.00e+00	0	39	0	736100352	52	6528
2026-01-04 02:54:58.74	294.11	15.43	-39.5	-40.4	23.2	0.00e+00	47	39	0	738197504	52	6033
2026-01-04 02:54:59.75	294.32	15.41	-39.1	-40.0	23.4	0.00e+00	0	39	0	740294656	52	5736
2026-01-04 02:55:00.76	294.53	15.39	-38.7	-39.6	23.6	0.00e+00	77	39	0	742391808	50	6113
2026-01-04 02:55:01.78	294.75	15.36	-39.1	-39.9	23.7	0.00e+00	0	39	0	743440384	50	6373
2026-01-04 02:55:02.78	294.96	15.34	-39.3	-40.2	23.4	0.00e+00	78	39	0	745537536	52	5885
2026-01-04 02:55:03.79	295.17	15.32	-39.6	-40.5	23.5	0.00e+00	10	39	0	747634688	52	6056
2026-01-04 02:55:04.80	295.38	15.29	-39.4	-40.3	23.2	0.00e+00	0	39	0	749731840	52	5935
2026-01-04 02:55:05.81	295.59	15.27	-39.4	-40.3	23.4	0.00e+00	50	39	0	751828992	52	5913
2026-01-04 02:55:06.82	295.80	15.24	-38.9	-39.8	23.5	0.00e+00	0	39	0	752877568	52	5600
2026-01-04 02:55:07.83	296.01	15.22	-39.1	-40.0	23.4	0.00e+00	92	39	0	754974720	52	5725
2026-01-04 02:55:08.84	296.22	15.19	-39.2	-40.1	23.5	0.00e+00	0	39	0	757071872	52	5799
2026-01-04 02:55:09.85	296.43	15.17	-39.0	-39.9	23.6	0.00e+00	92	39	0	759169024	52	5649
2026-01-04 02:55:10.86	296.63	15.14	-39.3	-40.2	23.4	0.00e+00	41	39	0	761266176	52	5852
2026-01-04 02:55:11.87	296.84	15.11	-39.3	-40.2	23.2	0.00e+00	0	39	0	762314752	52	5852
2026-01-04 02:55:12.88	297.05	15.09	-39.7	-40.7	22.9	0.00e+00	90	39	0	764411904	52	6187
2026-01-04 02:55:13.89	297.26	15.06	-40.0	-40.9	22.7	0.00e+00	0	39	0	766509056	52	6384
2026-01-04 02:55:14.90	297.47	15.03	-39.7	-40.7	22.9	0.00e+00	92	39	0	768606208	52	6196
2026-01-04 02:55:15.91	297.67	15.00	-39.7	-40.6	23.0	0.00e+00	0	39	0	770703360	52	6166
2026-01-04 02:55:16.91	297.88	14.98	-39.8	-40.7	23.0	0.00e+00	92	39	0	771751936	52	6220
2026-01-04 02:55:17.92	298.08	14.95	-39.5	-40.4	23.2	0.00e+00	9	39	0	773849088	52	5990
2026-01-04 02:55:18.93	298.29	14.92	-39.5	-40.4	23.1	0.00e+00	0	39	0	775946240	52	6006
2026-01-04 02:55:19.94	298.49	14.89	-39.7	-40.7	22.9	0.00e+00	85	39	0	778043392	52	6185
2026-01-04 02:55:20.95	298.70	14.86	-39.6	-40.6	23.0	0.00e+00	0	39	0	780140544	52	6127
2026-01-04 02:55:21.96	298.90	14.83	-39.7	-40.7	22.8	0.00e+00	92	39	0	781189120	52	6211
2026-01-04 02:55:22.97	299.11	14.80	-39.7	-40.7	22.9	0.00e+00	0	39	0	783286272	52	6195
2026-01-04 02:55:23.98	299.31	14.77	-39.4	-40.3	23.1	0.00e+00	92	39	0	785383424	52	5917
2026-01-04 02:55:24.99	299.52	14.74	-39.3	-40.2	23.3	0.00e+00	0	39	0	787480576	52	5847
2026-01-04 02:55:26.00	299.72	14.71	-39.0	-39.9	23.5	0.00e+00	0	39	0	789577728	52	5644
2026-01-04 02:55:27.01	299.92	14.68	-38.9	-39.8	23.5	0.00e+00	76	39	0	791674880	52	5612
2026-01-04 02:55:28.02	300.12	14.65	-39.4	-40.2	23.6	0.00e+00	0	39	0	792723456	52	5894
2026-01-04 02:55:29.03	300.32	14.62	-38.8	-39.6	23.8	0.00e+00	92	39	0	794820608	50	6148
2026-01-04 02:55:30.04	300.53	14.58	-39.0	-39.9	23.8	0.00e+00	0	39	0	796917760	50	6320
2026-01-04 02:55:31.04	300.72	14.55	-38.5	-39.4	23.7	0.00e+00	90	39	0	799014912	50	5996
2026-01-04 02:55:32.06	300.93	14.52	-38.6	-39.4	23.9	0.00e+00	0	39	0	801112064	50	6019
2026-01-04 02:55:33.06	301.12	14.49	-38.8	-39.7	23.8	0.00e+00	47	39	0	802160640	50	6211
2026-01-04 02:55:34.07	301.32	14.45	-39.2	-40.1	23.4	0.00e+00	10	39	0	804257792	50	6514
2026-01-04 02:55:35.08	301.52	14.42	-39.1	-40.0	23.3	0.00e+00	0	39	0	806354944	50	6414
2026-01-04 02:55:36.09	301.72	14.39	-39.7	-40.6	23.3	0.00e+00	25	39	0	808452096	50	6909
2026-01-04 02:55:37.10	301.92	14.35	-39.6	-40.5	23.4	0.00e+00	0	39	0	810549248	50	6792
2026-01-04 02:55:38.11	302.12	14.32	-39.3	-40.2	23.2	0.00e+00	92	39	0	811597824	50	6548
2026-01-04 02:55:39.11	302.31	14.28	-39.6	-40.5	23.0	0.00e+00	0	39	0	813694976	50	6807
2026-01-04 02:55:40.13	302.51	14.25	-39.6	-40.5	22.9	0.00e+00	45	39	0	815792128	50	6820
2026-01-04 02:55:41.14	302.71	14.21	-39.4	-40.4	23.1	0.00e+00	90	39	0	817889280	52	5967
2026-01-04 02:55:42.14	302.90	14.18	-39.9	-40.9	22.9	0.00e+00	0	39	0	819986432	52	6358
2026-01-04 02:55:43.15	303.10	14.14	-39.8	-40.7	22.8	0.00e+00	81	39	0	821035008	52	6220
2026-01-04 02:55:44.16	303.29	14.11	-40.0	-40.9	22.9	0.00e+00	0	39	0	823132160	52	6372
2026-01-04 02:55:45.17	303.49	14.07	-39.7	-40.7	23.0	0.00e+00	67	39	0	825229312	52	6203
2026-01-04 02:55:46.18	303.68	14.04	-39.7	-40.6	23.0	0.00e+00	29	39	0	827326464	52	6169
2026-01-04 02:55:47.19	303.88	14.00	-40.0	-40.9	22.8	0.00e+00	92	39	0	829423616	52	6361
2026-01-04 02:55:48.20	304.07	13.96	-39.9	-40.9	23.1	0.00e+00	37	39	0	830472192	52	6322
2026-01-04 02:55:49.21	304.26	13.93	-39.6	-40.5	22.9	0.00e+00	33	39	0	832569344	52	6056
2026-01-04 02:55:50.22	304.45	13.89	-39.8	-40.7	23.1	0.00e+00	92	39	0	834666496	52	6227
2026-01-04 02:55:51.23	304.65	13.85	-39.4	-40.3	23.0	0.00e+00	0	39	0	836763648	52	5924
2026-01-04 02:55:52.23	304.84	13.82	-39.3	-40.3	23.2	0.00e+00	92	39	0	838860800	52	5907
2026-01-04 02:55:53.24	305.03	13.78	-39.3	-40.3	23.0	0.00e+00	0	39	0	839909376	52	5904
2026-01-04 02:55:54.25	305.22	13.74	-39.3	-40.2	23.2	0.00e+00	90	39	0	842006528	52	5886
2026-01-04 02:55:55.26	305.41	13.70	-39.9	-40.9	22.6	0.00e+00	0	39	0	844103680	52	6370
2026-01-04 02:55:56.27	305.60	13.66	-39.9	-40.9	22.8	0.00e+00	0	39	0	846200832	52	6373
2026-01-04 02:55:57.28	305.78	13.62	-39.4	-40.3	23.3	0.00e+00	91	39	0	848297984	52	5949
2026-01-04 02:55:58.29	305.97	13.58	-39.4	-40.3	23.0	0.00e+00	0	39	0	849346560	52	5958
2026-01-04 02:55:59.30	306.16	13.55	-40.2	-41.1	22.3	0.00e+00	92	39	0	851443712	52	6510
2026-01-04 02:56:00.31	306.35	13.51	-39.9	-40.8	22.8	0.00e+00	0	39	0	853540864	52	6288
2026-01-04 02:56:01.32	306.54	13.47	-40.3	-41.3	22.2	0.00e+00	92	39	0	855638016	54	5915
2026-01-04 02:56:02.33	306.72	13.43	-40.2	-41.2	22.4	0.00e+00	0	39	0	857735168	54	5869
2026-01-04 02:56:03.34	306.91	13.39	-40.3	-41.3	22.4	0.00e+00	0	39	0	858783744	54	5903
2026-01-04 02:56:04.34	307.09	13.35	-40.0	-41.0	22.6	0.00e+00	42	39	0	860880896	54	5699
2026-01-04 02:56:05.36	307.28	13.31	-40.0	-41.0	22.5	0.00e+00	0	39	0	862978048	52	6423
2026-01-04 02:56:06.36	307.46	13.27	-40.0	-41.0	22.5	0.00e+00	72	39	0	865075200	52	6436
2026-01-04 02:56:07.37	307.65	13.23	-40.0	-41.0	22.4	0.00e+00	0	39	0	867172352	52	6436
2026-01-04 02:56:08.38	307.83	13.18	-40.4	-41.5	22.1	0.00e+00	92	39	0	868220928	52	6792
2026-01-04 02:56:09.39	308.01	13.14	-41.2	-42.3	21.6	0.00e+00	0	39	0	870318080	54	6661
2026-01-04 02:56:10.40	308.19	13.10	-40.7	-41.8	21.7	0.00e+00	92	39	0	872415232	54	6280
2026-01-04 02:56:11.41	308.38	13.06	-40.9	-42.0	21.9	0.00e+00	92	39	0	874512384	54	6410
2026-01-04 02:56:12.42	308.56	13.02	-41.0	-42.1	21.7	0.00e+00	0	39	0	876609536	54	6489
2026-01-04 02:56:13.43	308.74	12.98	-41.1	-42.2	21.6	0.00e+00	45	39	0	878706688	54	6594
2026-01-04 02:56:14.44	308.92	12.93	-41.7	-42.8	21.7	0.00e+00	0	39	0	879755264	56	6289
2026-01-04 02:56:15.45	309.10	12.89	-42.6	-43.8	20.0	0.00e+00	62	39	0	881852416	56	7072
2026-01-04 02:56:16.46	309.28	12.85	-42.2	-43.3	21.2	0.00e+00	0	39	0	883949568	58	5954
2026-01-04 02:56:17.47	309.46	12.81	-41.9	-43.0	21.6	0.00e+00	50	39	0	886046720	56	6400
2026-01-04 02:56:18.47	309.63	12.76	-41.8	-42.9	21.6	0.00e+00	0	39	0	888143872	56	6331
2026-01-04 02:56:19.48	309.81	12.72	-42.0	-43.2	21.3	0.00e+00	0	39	0	889192448	56	6543
2026-01-04 02:56:20.49	309.99	12.68	-42.2	-43.4	21.1	0.00e+00	36	39	0	891289600	58	6003
2026-01-04 02:56:21.50	310.17	12.63	-42.6	-43.8	20.8	0.00e+00	0	39	0	893386752	58	6283
2026-01-04 02:56:22.51	310.34	12.59	-42.6	-43.9	20.3	0.00e+00	92	39	0	895483904	58	6389
2026-01-04 02:56:23.52	310.52	12.55	-42.7	-44.1	20.5	0.00e+00	0	39	0	897581056	58	6478
2026-01-04 02:56:24.53	310.70	12.50	-42.4	-43.6	20.8	0.00e+00	64	39	0	898629632	58	6160
2026-01-04 02:56:25.54	310.87	12.46	-42.6	-43.9	20.7	0.00e+00	0	39	0	900726784	58	6341
2026-01-04 02:56:26.55	311.04	12.41	-41.8	-43.0	21.6	0.00e+00	0	39	0	902823936	56	6413
2026-01-04 02:56:27.56	311.22	12.37	-41.3	-42.4	21.8	0.00e+00	92	39	0	904921088	56	5976
2026-01-04 02:56:28.57	311.39	12.33	-40.9	-41.9	21.9	0.00e+00	0	39	0	907018240	56	5683
2026-01-04 02:56:29.58	311.57	12.28	-40.4	-41.4	22.3	0.00e+00	76	39	0	908066816	54	5997
2026-01-04 02:56:30.59	311.74	12.24	-40.7	-41.7	22.1	0.00e+00	0	39	0	910163968	54	6239
2026-01-04 02:56:31.60	311.91	12.19	-40.8	-41.8	22.0	0.00e+00	92	39	0	912261120	54	6309
2026-01-04 02:56:32.61	312.08	12.15	-41.7	-42.8	21.7	0.00e+00	0	39	0	914358272	56	6263
2026-01-04 02:56:33.61	312.25	12.10	-42.0	-43.1	21.6	0.00e+00	0	39	0	916455424	56	6535
2026-01-04 02:56:34.63	312.42	12.06	-41.9	-43.0	21.2	0.00e+00	92	39	0	917504000	56	6439
2026-01-04 02:56:35.64	312.59	12.01	-42.2	-43.4	20.9	0.00e+00	0	39	0	919601152	56	6724
2026-01-04 02:56:36.65	312.76	11.96	-42.0	-43.2	20.9	0.00e+00	92	39	0	921698304	56	6572
2026-01-04 02:56:37.66	312.93	11.92	-42.2	-43.5	20.7	0.00e+00	0	39	0	923795456	56	6776
2026-01-04 02:56:38.67	313.10	11.87	-42.2	-43.4	20.6	0.00e+00	92	39	0	925892608	56	6745
2026-01-04 02:56:39.68	313.27	11.83	-42.2	-43.5	20.5	0.00e+00	0	39	0	926941184	56	6802
2026-01-04 02:56:40.69	313.43	11.78	-42.4	-43.7	20.2	0.00e+00	0	39	0	929038336	56	6966
2026-01-04 02:56:41.70	313.60	11.73	-42.5	-43.8	20.3	0.00e+00	71	39	0	931135488	56	7055
2026-01-04 02:56:42.70	313.76	11.69	-42.5	-43.8	20.3	0.00e+00	0	39	0	933232640	56	7061
2026-01-04 02:56:43.71	313.93	11.64	-41.7	-43.0	21.0	0.00e+00	40	39	0	935329792	56	6412
2026-01-04 02:56:44.72	314.10	11.59	-41.7	-42.9	21.0	0.00e+00	0	39	0	936378368	56	6372
2026-01-04 02:56:45.73	314.26	11.55	-41.6	-42.8	21.1	0.00e+00	76	39	0	938475520	56	6316
2026-01-04 02:56:46.74	314.42	11.50	-41.3	-42.5	21.0	0.00e+00	0	39	0	940572672	56	6064
2026-01-04 02:56:47.75	314.59	11.45	-41.0	-42.2	21.4	0.00e+00	42	39	0	942669824	56	5854
2026-01-04 02:56:48.76	314.75	11.41	-40.7	-41.8	21.8	0.00e+00	34	39	0	944766976	56	5579
2026-01-04 02:56:49.77	314.91	11.36	-40.9	-42.0	21.5	0.00e+00	0	39	0	946864128	54	6427
2026-01-04 02:56:50.78	315.08	11.31	-41.1	-42.2	21.4	0.00e+00	41	39	0	947912704	54	6609
2026-01-04 02:56:51.79	315.24	11.26	-41.3	-42.4	21.3	0.00e+00	0	39	0	950009856	54	6748
2026-01-04 02:56:52.80	315.40	11.22	-41.4	-42.6	21.1	0.00e+00	61	39	0	952107008	54	6879
2026-01-04 02:56:53.81	315.56	11.17	-41.3	-42.4	21.2	0.00e+00	0	39	0	954204160	54	6751
2026-01-04 02:56:54.82	315.72	11.12	-41.4	-42.5	21.1	0.00e+00	67	39	0	956301312	54	6837
2026-01-04 02:56:55.83	315.88	11.07	-41.8	-42.9	21.3	0.00e+00	50	39	0	957349888	54	7128
2026-01-04 02:56:56.83	316.04	11.03	-41.7	-42.9	21.3	0.00e+00	0	39	0	959447040	56	6322
2026-01-04 02:56:57.84	316.20	10.98	-41.6	-42.7	21.6	0.00e+00	53	39	0	961544192	56	6190
2026-01-04 02:56:58.85	316.35	10.93	-41.3	-42.4	21.6	0.00e+00	0	39	0	963641344	56	5973
2026-01-04 02:56:59.86	316.51	10.88	-41.5	-42.6	21.5	0.00e+00	25	39	0	965738496	56	6131
2026-01-04 02:57:00.87	316.67	10.83	-41.4	-42.5	21.2	0.00e+00	0	39	0	966787072	56	6071
2026-01-04 02:57:01.88	316.83	10.78	-42.2	-43.4	21.3	0.00e+00	0	39	0	968884224	56	6722
2026-01-04 02:57:02.89	316.98	10.74	-42.1	-43.3	21.2	0.00e+00	40	39	0	970981376	56	6644
2026-01-04 02:57:03.90	317.14	10.69	-42.2	-43.4	21.0	0.00e+00	0	39	0	973078528	56	6735
2026-01-04 02:57:04.91	317.29	10.64	-42.5	-43.7	20.7	0.00e+00	92	39	0	975175680	56	6987
2026-01-04 02:57:05.92	317.45	10.59	-42.3	-43.5	20.7	0.00e+00	0	39	0	976224256	56	6847
2026-01-04 02:57:06.93	317.60	10.54	-42.1	-43.4	20.5	0.00e+00	90	39	0	978321408	56	6757
2026-01-04 02:57:07.94	317.76	10.49	-42.0	-43.3	20.5	0.00e+00	0	39	0	980418560	56	6622
2026-01-04 02:57:08.95	317.91	10.44	-41.9	-43.2	20.6	0.00e+00	0	39	0	982515712	56	6578
2026-01-04 02:57:09.96	318.06	10.39	-41.9	-43.1	20.5	0.00e+00	41	39	0	984612864	56	6537
2026-01-04 02:57:10.97	318.21	10.34	-41.8	-43.1	20.7	0.00e+00	0	39	0	985661440	56	6474
2026-01-04 02:57:11.98	318.36	10.30	-41.9	-43.1	20.5	0.00e+00	73	39	0	987758592	56	6534
2026-01-04 02:57:12.98	318.51	10.25	-41.6	-42.8	20.9	0.00e+00	0	39	0	989855744	56	6279
2026-01-04 02:57:13.99	318.66	10.20	-41.4	-42.5	21.1	0.00e+00	92	39	0	991952896	56	6100
2026-01-04 02:57:15.00	318.82	10.15	-41.2	-42.3	21.4	0.00e+00	0	39	0	994050048	56	5951
2026-01-04 02:57:16.01	318.96	10.10	-41.1	-42.2	21.5	0.00e+00	0	39	0	995098624	56	5880
2026-01-04 02:57:17.02	319.11	10.05	-41.0	-42.1	21.6	0.00e+00	0	39	0	997195776	56	5789
2026-01-04 02:57:18.03	319.26	10.00	-40.8	-41.9	21.7	0.00e+00	0	39	0	999292928	56	5652
2026-01-04 02:57:19.04	319.41	9.95	-40.4	-41.5	21.9	0.00e+00	49	39	0	1001390080	54	6084
2026-01-04 02:57:20.05	319.56	9.90	-40.4	-41.5	21.9	0.00e+00	0	39	0	1003487232	54	6084
2026-01-04 02:57:21.06	319.71	9.85	-40.5	-41.5	21.9	0.00e+00	37	39	0	1004535808	54	6098
2026-01-04 02:57:22.07	319.85	9.80	-40.5	-41.6	21.9	0.00e+00	0	39	0	1006632960	54	6112
2026-01-04 02:57:23.08	320.00	9.75	-40.6	-41.7	21.8	0.00e+00	0	39	0	1008730112	54	6197
2026-01-04 02:57:24.09	320.14	9.70	-40.6	-41.7	21.9	0.00e+00	0	39	0	1010827264	54	6225
2026-01-04 02:57:25.10	320.29	9.65	-40.8	-41.9	21.9	0.00e+00	0	39	0	1012924416	54	6343
2026-01-04 02:57:26.11	320.43	9.60	-41.0	-42.1	21.7	0.00e+00	5	39	0	1015021568	54	6482
2026-01-04 02:57:27.12	320.58	9.55	-40.9	-42.0	21.6	0.00e+00	0	39	0	1016070144	54	6451
2026-01-04 02:57:28.13	320.72	9.50	-40.7	-41.8	21.6	0.00e+00	27	39	0	1018167296	54	6307
2026-01-04 02:57:29.14	320.87	9.45	-41.1	-42.2	21.5	0.00e+00	0	39	0	1020264448	54	6588
2026-01-04 02:57:30.15	321.01	9.40	-41.0	-42.1	21.7	0.00e+00	3	39	0	1022361600	54	6506
2026-01-04 02:57:31.16	321.15	9.35	-40.9	-42.0	21.7	0.00e+00	0	39	0	1024458752	54	6440
2026-01-04 02:57:32.17	321.29	9.30	-40.6	-41.7	21.7	0.00e+00	0	39	0	1025507328	54	6226
2026-01-04 02:57:33.18	321.43	9.25	-40.7	-41.8	21.9	0.00e+00	18	39	0	1027604480	54	6246
2026-01-04 02:57:34.19	321.58	9.19	-40.8	-41.8	21.8	0.00e+00	0	39	0	1029701632	54	6308
2026-01-04 02:57:35.20	321.72	9.14	-40.5	-41.6	21.9	0.00e+00	92	39	0	1031798784	54	6131
2026-01-04 02:57:36.21	321.86	9.09	-40.3	-41.4	22.0	0.00e+00	0	39	0	1033895936	54	6000
2026-01-04 02:57:37.22	322.00	9.04	-40.6	-41.7	21.8	0.00e+00	65	39	0	1034944512	54	6232
2026-01-04 02:57:38.23	322.14	8.99	-40.7	-41.8	21.7	0.00e+00	0	39	0	1037041664	54	6254
2026-01-04 02:57:39.24	322.27	8.94	-40.5	-41.6	21.5	0.00e+00	0	39	0	1039138816	54	6161
2026-01-04 02:57:40.25	322.41	8.89	-40.7	-41.8	21.6	0.00e+00	0	39	0	1041235968	54	6301
2026-01-04 02:57:41.26	322.55	8.84	-40.5	-41.6	21.7	0.00e+00	0	39	0	1043333120	54	6142
2026-01-04 02:57:42.27	322.69	8.79	-40.7	-41.8	21.6	0.00e+00	92	39	0	1044381696	54	6260
2026-01-04 02:57:43.27	322.82	8.74	-41.6	-42.7	21.3	0.00e+00	2	39	0	1046478848	54	6989
2026-01-04 02:57:44.28	322.96	8.69	-42.0	-43.2	21.2	0.00e+00	92	39	0	1048576000	58	5858
2026-01-04 02:57:45.29	323.09	8.64	-41.6	-42.8	21.5	0.00e+00	0	39	0	1050673152	58	5574
2026-01-04 02:57:46.30	323.23	8.58	-42.2	-43.4	21.5	0.00e+00	0	39	0	1052770304	56	6703
2026-01-04 02:57:47.31	323.37	8.53	-41.8	-42.9	21.8	0.00e+00	0	39	0	1053818880	56	6334
2026-01-04 02:57:48.32	323.50	8.48	-41.2	-42.3	21.7	0.00e+00	0	39	0	1055916032	56	5902
2026-01-04 02:57:49.33	323.63	8.43	-41.5	-42.6	21.8	0.00e+00	39	39	0	1058013184	56	6126
2026-01-04 02:57:50.33	323.77	8.38	-41.6	-42.6	21.9	0.00e+00	0	39	0	1060110336	56	6143
2026-01-04 02:57:51.34	323.90	8.33	-41.7	-42.7	21.9	0.00e+00	92	39	0	1062207488	56	6239
2026-01-04 02:57:52.35	324.03	8.28	-41.2	-42.2	22.0	0.00e+00	0	39	0	1063256064	56	5877
2026-01-04 02:57:53.36	324.16	8.23	-40.7	-41.8	21.9	0.00e+00	0	39	0	1065353216	54	6289
2026-01-04 02:57:54.37	324.30	8.18	-42.3	-43.4	21.3	0.00e+00	0	39	0	1067450368	56	6759
2026-01-04 02:57:55.38	324.43	8.12	-41.9	-43.0	21.8	0.00e+00	0	39	0	1069547520	56	6419
2026-01-04 02:57:56.39	324.56	8.07	-41.3	-42.5	21.5	0.00e+00	50	39	0	1071644672	56	6034
2026-01-04 02:57:57.40	324.69	8.02	-41.3	-42.4	21.5	0.00e+00	0	39	0	1072693248	56	6012
2026-01-04 02:57:58.41	324.82	7.97	-41.3	-42.4	21.4	0.00e+00	77	39	0	1074790400	56	6018
2026-01-04 02:57:59.42	324.95	7.92	-41.5	-42.7	21.3	0.00e+00	0	39	0	1076887552	56	6206
2026-01-04 02:58:00.43	325.08	7.87	-41.4	-42.5	21.5	0.00e+00	0	39	0	1078984704	56	6079
2026-01-04 02:58:01.44	325.21	7.82	-41.3	-42.5	21.5	0.00e+00	0	39	0	1081081856	56	6062
2026-01-04 02:58:02.45	325.33	7.76	-41.4	-42.5	21.3	0.00e+00	0	39	0	1082130432	56	6102
2026-01-04 02:58:03.46	325.46	7.71	-41.3	-42.4	21.3	0.00e+00	31	39	0	1084227584	56	6032
2026-01-04 02:58:04.47	325.59	7.66	-42.0	-43.2	21.2	0.00e+00	0	39	0	1086324736	56	6569
2026-01-04 02:58:05.48	325.72	7.61	-42.4	-43.6	21.1	0.00e+00	67	39	0	1088421888	56	6856
2026-01-04 02:58:06.49	325.84	7.56	-42.1	-43.3	21.1	0.00e+00	0	39	0	1090519040	56	6664
2026-01-04 02:58:07.50	325.97	7.51	-42.4	-43.6	21.1	0.00e+00	43	39	0	1091567616	56	6866
2026-01-04 02:58:08.51	326.09	7.46	-41.9	-43.1	21.2	0.00e+00	0	39	0	1093664768	56	6465
2026-01-04 02:58:09.52	326.22	7.40	-42.2	-43.4	21.1	0.00e+00	0	39	0	1095761920	56	6710
2026-01-04 02:58:10.53	326.34	7.35	-42.2	-43.4	21.1	0.00e+00	31	39	0	1097859072	56	6721
2026-01-04 02:58:11.54	326.47	7.30	-41.8	-43.0	21.2	0.00e+00	0	39	0	1099956224	56	6433
2026-01-04 02:58:12.55	326.59	7.25	-42.4	-43.6	21.1	0.00e+00	92	39	0	1101004800	56	6855
2026-01-04 02:58:13.56	326.72	7.20	-42.0	-43.2	21.1	0.00e+00	0	39	0	1103101952	56	6587
2026-01-04 02:58:14.57	326.84	7.15	-42.0	-43.2	21.2	0.00e+00	55	39	0	1105199104	56	6575
2026-01-04 02:58:15.57	326.96	7.10	-42.2	-43.3	21.5	0.00e+00	0	39	0	1107296256	56	6676
2026-01-04 02:58:16.58	327.08	7.04	-41.7	-42.8	21.8	0.00e+00	0	39	0	1109393408	56	6266
2026-01-04 02:58:17.59	327.21	6.99	-41.6	-42.7	21.5	0.00e+00	0	39	0	1111490560	56	6221
2026-01-04 02:58:18.60	327.33	6.94	-42.3	-43.4	21.5	0.00e+00	0	39	0	1112539136	56	6768
2026-01-04 02:58:19.61	327.45	6.89	-42.0	-43.1	21.3	0.00e+00	30	39	0	1114636288	56	6506
2026-01-04 02:58:20.62	327.57	6.84	-41.8	-43.0	21.1	0.00e+00	0	39	0	1116733440	56	6444
2026-01-04 02:58:21.62	327.69	6.79	-42.5	-43.7	21.1	0.00e+00	92	39	0	1118830592	58	6203
2026-01-04 02:58:22.63	327.81	6.73	-41.8	-43.0	21.2	0.00e+00	0	39	0	1120927744	58	5739
2026-01-04 02:58:23.64	327.93	6.68	-42.1	-43.3	21.1	0.00e+00	0	39	0	1121976320	58	5904
2026-01-04 02:58:24.65	328.05	6.63	-42.4	-43.6	21.2	0.00e+00	25	39	0	1124073472	56	6853
2026-01-04 02:58:25.67	328.17	6.58	-42.6	-43.8	20.9	0.00e+00	0	39	0	1126170624	58	6266
2026-01-04 02:58:26.67	328.28	6.53	-42.3	-43.6	20.9	0.00e+00	25	39	0	1128267776	58	6106
2026-01-04 02:58:27.69	328.40	6.48	-42.3	-43.5	20.9	0.00e+00	0	39	0	1130364928	58	6084
2026-01-04 02:58:28.69	328.52	6.43	-42.3	-43.6	20.9	0.00e+00	80	39	0	1131413504	58	6119
2026-01-04 02:58:29.70	328.64	6.37	-42.1	-43.4	20.8	0.00e+00	0	39	0	1133510656	58	5993
2026-01-04 02:58:30.71	328.75	6.32	-41.7	-42.9	21.0	0.00e+00	0	39	0	1135607808	56	6352
2026-01-04 02:58:31.72	328.87	6.27	-41.7	-42.9	20.9	0.00e+00	0	39	0	1137704960	56	6334
2026-01-04 02:58:32.73	328.98	6.22	-42.0	-43.3	20.6	0.00e+00	0	39	0	1139802112	56	6619
2026-01-04 02:58:33.74	329.10	6.17	-41.6	-42.8	20.7	0.00e+00	39	39	0	1140850688	56	6304
2026-01-04 02:58:34.75	329.22	6.12	-41.8	-43.1	20.3	0.00e+00	0	39	0	1142947840	56	6503
2026-01-04 02:58:35.76	329.33	6.07	-42.9	-44.2	20.0	0.00e+00	92	39	0	1145044992	58	6581
2026-01-04 02:58:36.77	329.44	6.01	-42.6	-43.9	20.0	0.00e+00	0	39	0	1147142144	58	6381
2026-01-04 02:58:37.77	329.56	5.96	-42.5	-43.8	20.0	0.00e+00	0	39	0	1149239296	58	6307
2026-01-04 02:58:38.78	329.67	5.91	-42.3	-43.6	20.1	0.00e+00	0	39	0	1150287872	58	6166
2026-01-04 02:58:39.79	329.78	5.86	-42.7	-44.1	19.7	0.00e+00	0	39	0	1152385024	58	6515
2026-01-04 02:58:40.80	329.90	5.81	-42.5	-44.0	19.6	0.00e+00	0	39	0	1154482176	58	6413
2026-01-04 02:58:41.80	330.01	5.76	-42.7	-44.1	19.6	0.00e+00	0	39	0	1156579328	58	6530
2026-01-04 02:58:42.81	330.12	5.71	-43.0	-44.5	19.6	0.00e+00	92	39	0	1158676480	58	6791
2026-01-04 02:58:43.82	330.23	5.65	-42.9	-44.3	19.4	0.00e+00	0	39	0	1159725056	58	6686
2026-01-04 02:58:44.83	330.34	5.60	-42.9	-44.4	19.4	0.00e+00	0	39	0	1161822208	58	6713
2026-01-04 02:58:45.84	330.45	5.55	-42.9	-44.4	19.5	0.00e+00	0	39	0	1163919360	58	6704
2026-01-04 02:58:46.85	330.56	5.50	-42.8	-44.2	19.7	0.00e+00	0	39	0	1166016512	58	6608
2026-01-04 02:58:47.86	330.67	5.45	-43.1	-44.6	19.3	0.00e+00	0	39	0	1168113664	58	6889
2026-01-04 02:58:48.87	330.78	5.40	-43.7	-45.3	19.2	0.00e+00	0	39	0	1169162240	60	6670
2026-01-04 02:58:49.88	330.89	5.35	-44.0	-45.7	19.0	0.00e+00	92	39	0	1171259392	60	6947
2026-01-04 02:58:50.89	331.00	5.30	-43.4	-44.9	19.3	0.00e+00	0	39	0	1173356544	60	6376
2026-01-04 02:58:51.90	331.11	5.24	-43.4	-45.0	18.9	0.00e+00	92	39	0	1175453696	60	6437
2026-01-04 02:58:52.91	331.22	5.19	-43.3	-44.9	18.9	0.00e+00	0	39	0	1177550848	60	6387
2026-01-04 02:58:53.92	331.33	5.14	-42.9	-44.5	19.0	0.00e+00	0	39	0	1179648000	60	6102
2026-01-04 02:58:54.93	331.44	5.09	-43.3	-44.9	19.0	0.00e+00	0	39	0	1180696576	60	6328
2026-01-04 02:58:55.94	331.54	5.04	-43.2	-44.8	18.9	0.00e+00	0	39	0	1182793728	60	6280
2026-01-04 02:58:56.95	331.65	4.99	-44.7	-46.4	18.5	0.00e+00	37	39	0	1184890880	60	7548
2026-01-04 02:58:57.96	331.76	4.94	-44.2	-46.0	18.3	0.00e+00	0	39	0	1186988032	60	7172
2026-01-04 02:58:58.97	331.86	4.89	-44.3	-46.0	18.3	0.00e+00	92	39	0	1189085184	60	7236
