passes_logs/2026/01/04/R4.6S_Anadyr/R4.6S_Anadyr__20260104_232630_NOAA_20_JPSS-1_rec.log

#Pass ID: 20260104_232630_NOAA 20 (JPSS-1)
#Satellite: NOAA 20 (JPSS-1)
#Configuration: NOAA 20
#almurnet v.1.7.20251203
#Start time: 2026-01-04 23:26:33

#Version: 2.2.20231116
#Station: R4.6S_Anadyr
#Location: 177.4865 lon 64.73178 lat
#TLE: 1 43013U 17073A   26003.41800368  .00000169  00000+0  10117-3 0  9998
#TLE: 2 43013  98.7624 304.4804 0001884  56.1176 304.0179 14.19532918421092

#Time	Az	El	Level	Level2	SNR	BER	BlckErr	Temp	State	Recorded	gain1	gain2
2026-01-04 23:26:33.59	137.17	0.16	-49.0	-63.9	3.5	1.51e+00	0	29	0	0	60	56914
2026-01-04 23:26:34.59	137.15	0.22	-48.9	-64.2	3.6	1.51e+00	0	30	104	0	60	58371
2026-01-04 23:26:35.60	137.14	0.28	-49.0	-64.2	3.6	1.51e+00	0	30	104	0	60	58440
2026-01-04 23:26:36.61	137.12	0.34	-49.3	-64.5	3.6	1.51e+00	0	30	104	0	60	60926
2026-01-04 23:26:37.62	137.10	0.40	-49.1	-64.3	3.6	1.51e+00	0	31	104	0	60	59454
2026-01-04 23:26:38.63	137.08	0.46	-48.9	-64.1	3.6	1.51e+00	0	31	104	0	60	57726
2026-01-04 23:26:39.64	137.06	0.52	-49.0	-64.1	3.6	1.51e+00	0	31	104	0	60	58144
2026-01-04 23:26:40.65	137.04	0.59	-48.9	-64.0	3.5	1.51e+00	0	31	104	0	60	57585
2026-01-04 23:26:41.65	137.02	0.65	-48.8	-64.0	3.6	1.51e+00	0	31	104	0	60	57266
2026-01-04 23:26:42.66	137.01	0.71	-48.7	-63.9	3.6	1.51e+00	0	31	104	0	60	56416
2026-01-04 23:26:43.67	136.99	0.77	-48.7	-63.9	3.6	1.51e+00	0	31	104	0	60	56505
2026-01-04 23:26:44.69	136.97	0.83	-48.5	-63.7	3.6	1.51e+00	0	31	104	0	60	55459
2026-01-04 23:26:45.69	136.95	0.89	-48.5	-63.7	3.6	1.51e+00	0	31	104	0	60	55236
2026-01-04 23:26:46.71	136.93	0.96	-48.4	-63.5	3.6	1.51e+00	0	31	104	0	60	54319
2026-01-04 23:26:47.71	136.91	1.02	-48.2	-63.4	3.6	1.51e+00	0	31	104	0	60	53361
2026-01-04 23:26:48.73	136.89	1.08	-47.8	-63.0	3.6	1.51e+00	0	31	104	0	60	51304
2026-01-04 23:26:49.74	136.87	1.14	-47.5	-62.7	3.5	1.51e+00	0	31	104	0	60	49252
2026-01-04 23:26:50.74	136.85	1.20	-47.2	-62.5	3.6	1.51e+00	0	31	104	0	60	47950
2026-01-04 23:26:51.76	136.83	1.27	-47.2	-62.5	3.6	1.51e+00	0	31	104	0	60	47926
2026-01-04 23:26:52.77	136.81	1.33	-47.2	-62.4	3.6	1.51e+00	0	31	104	0	60	47783
2026-01-04 23:26:53.78	136.79	1.39	-47.2	-62.4	3.6	1.51e+00	0	31	104	0	60	47605
2026-01-04 23:26:54.79	136.77	1.46	-47.2	-62.4	3.6	1.51e+00	0	31	104	0	60	47401
2026-01-04 23:26:55.79	136.75	1.52	-47.3	-62.5	3.6	1.51e+00	0	31	104	0	60	47971
2026-01-04 23:26:56.81	136.73	1.58	-47.2	-62.5	3.6	1.51e+00	0	31	104	0	60	47952
2026-01-04 23:26:57.81	136.71	1.64	-47.1	-62.4	3.6	1.51e+00	0	31	104	0	60	47668
2026-01-04 23:26:58.82	136.69	1.71	-47.2	-62.4	3.6	1.51e+00	0	31	104	0	60	47534
2026-01-04 23:26:59.83	136.67	1.77	-47.2	-62.3	3.6	1.51e+00	0	31	104	0	60	47116
2026-01-04 23:27:00.84	136.65	1.83	-47.2	-62.2	3.6	1.51e+00	0	31	104	0	60	46481
2026-01-04 23:27:01.85	136.63	1.90	-47.2	-62.1	3.6	1.51e+00	0	31	104	0	60	46286
2026-01-04 23:27:02.86	136.61	1.96	-47.3	-62.3	3.6	1.51e+00	0	31	104	0	60	46983
2026-01-04 23:27:03.87	136.58	2.03	-47.2	-62.2	3.6	1.51e+00	0	31	104	0	60	46730
2026-01-04 23:27:04.88	136.56	2.09	-47.2	-62.0	3.6	1.51e+00	0	31	104	0	60	45616
2026-01-04 23:27:05.89	136.54	2.16	-47.2	-62.2	3.6	1.51e+00	0	31	104	0	60	46440
2026-01-04 23:27:06.90	136.52	2.22	-47.2	-62.2	3.6	1.51e+00	0	31	104	0	60	46783
2026-01-04 23:27:07.90	136.50	2.28	-47.2	-62.4	3.6	1.51e+00	0	31	104	0	60	47876
2026-01-04 23:27:08.91	136.48	2.35	-47.2	-62.5	3.6	1.51e+00	0	31	104	0	60	48198
2026-01-04 23:27:09.93	136.46	2.41	-47.2	-62.4	3.6	1.51e+00	0	31	104	0	60	47851
2026-01-04 23:27:10.94	136.43	2.48	-47.2	-62.2	3.6	1.51e+00	0	31	104	0	60	46692
2026-01-04 23:27:11.94	136.41	2.54	-47.2	-62.0	3.6	1.51e+00	0	31	104	0	60	45665
2026-01-04 23:27:12.96	136.39	2.61	-47.2	-62.1	3.6	1.51e+00	0	31	104	0	60	46188
2026-01-04 23:27:13.97	136.37	2.68	-47.1	-61.7	3.6	1.51e+00	0	31	104	0	60	43930
2026-01-04 23:27:14.98	136.35	2.74	-47.1	-61.6	3.6	1.51e+00	0	31	104	0	60	43531
2026-01-04 23:27:15.99	136.32	2.81	-47.1	-61.2	3.6	1.51e+00	0	31	104	0	60	41306
2026-01-04 23:27:17.00	136.30	2.87	-47.1	-60.7	3.6	1.51e+00	0	31	104	0	60	39110
2026-01-04 23:27:18.01	136.28	2.94	-47.1	-61.0	3.6	1.51e+00	0	31	104	0	60	40557
2026-01-04 23:27:19.02	136.26	3.01	-47.0	-60.9	3.6	1.51e+00	0	31	104	0	60	39864
2026-01-04 23:27:20.03	136.23	3.07	-47.1	-61.6	3.6	1.51e+00	0	31	104	0	60	43620
2026-01-04 23:27:21.03	136.21	3.14	-47.1	-62.0	3.6	1.51e+00	0	31	104	0	60	45599
2026-01-04 23:27:22.05	136.19	3.21	-47.1	-61.7	3.6	1.51e+00	0	31	104	0	60	44091
2026-01-04 23:27:23.06	136.16	3.27	-47.0	-57.6	4.8	1.40e+00	0	31	104	0	60	27516
2026-01-04 23:27:24.06	136.14	3.34	-46.6	-54.1	6.0	8.06e-01	92	31	0	1048576	60	18405
2026-01-04 23:27:25.07	136.12	3.41	-45.6	-50.4	11.2	4.57e-02	70	31	0	2097152	60	12035
2026-01-04 23:27:26.09	136.09	3.48	-44.1	-47.2	13.6	1.83e-04	92	31	0	4194304	60	8286
2026-01-04 23:27:27.10	136.07	3.54	-44.1	-47.2	14.4	6.10e-06	3	31	0	5242880	60	8295
2026-01-04 23:27:28.11	136.05	3.61	-43.6	-46.4	15.0	0.00e+00	90	31	0	7340032	60	7535
2026-01-04 23:27:29.12	136.02	3.68	-42.6	-44.8	16.6	0.00e+00	91	31	0	9437184	58	7064
2026-01-04 23:27:30.13	136.00	3.75	-42.7	-44.9	16.5	0.00e+00	92	31	0	11534336	58	7128
2026-01-04 23:27:31.14	135.97	3.81	-43.3	-45.8	15.6	0.00e+00	91	31	0	13631488	58	7920
2026-01-04 23:27:32.14	135.95	3.88	-47.5	-62.0	3.6	1.46e+00	0	31	104	13631488	60	45652
2026-01-04 23:27:33.15	135.93	3.95	-39.8	-41.2	19.2	1.12e+00	90	31	104	13631488	54	5852
2026-01-04 23:27:34.16	135.90	4.02	-47.1	-61.3	3.6	1.30e+00	0	31	104	13631488	60	41880
2026-01-04 23:27:35.17	135.88	4.09	-47.1	-56.5	6.4	1.32e+00	91	31	104	13631488	60	24140
2026-01-04 23:27:36.18	135.85	4.16	-45.8	-51.5	9.9	1.50e-06	91	31	0	13631488	60	13607
2026-01-04 23:27:37.19	135.83	4.23	-41.0	-42.5	19.0	2.82e-05	92	31	0	15728640	56	6091
2026-01-04 23:27:38.20	135.80	4.30	-40.7	-42.3	19.3	0.00e+00	90	31	0	17825792	54	6624
2026-01-04 23:27:39.21	135.78	4.37	-40.9	-42.5	18.9	0.00e+00	0	31	0	19922944	54	6847
2026-01-04 23:27:40.22	135.75	4.44	-41.4	-43.2	18.1	0.00e+00	92	31	0	22020096	54	7349
2026-01-04 23:27:41.23	135.73	4.51	-41.3	-42.9	19.1	0.00e+00	16	31	0	23068672	54	7150
2026-01-04 23:27:42.24	135.70	4.58	-40.2	-41.6	19.8	0.00e+00	92	31	0	25165824	54	6163
2026-01-04 23:27:43.24	135.68	4.65	-39.9	-41.2	20.4	0.00e+00	92	31	0	27262976	52	6542
2026-01-04 23:27:44.26	135.65	4.72	-39.8	-41.1	20.5	0.00e+00	92	31	0	29360128	52	6472
2026-01-04 23:27:45.26	135.62	4.79	-39.6	-40.8	20.7	0.00e+00	92	31	0	31457280	52	6310
2026-01-04 23:27:46.28	135.60	4.86	-39.6	-40.9	20.7	0.00e+00	9	31	0	32505856	52	6332
2026-01-04 23:27:47.28	135.57	4.93	-39.0	-40.2	21.1	0.00e+00	92	31	0	34603008	52	5848
2026-01-04 23:27:48.29	135.54	5.00	-39.6	-40.9	21.1	0.00e+00	6	31	0	36700160	52	6337
2026-01-04 23:27:49.30	135.52	5.07	-39.4	-40.6	20.9	0.00e+00	92	31	0	38797312	52	6134
2026-01-04 23:27:50.31	135.49	5.14	-39.8	-41.1	20.5	0.00e+00	92	31	0	40894464	52	6510
2026-01-04 23:27:51.32	135.46	5.22	-39.3	-40.5	21.1	0.00e+00	92	31	0	41943040	52	6089
2026-01-04 23:27:52.33	135.44	5.29	-39.0	-40.2	21.3	0.00e+00	92	31	0	44040192	52	5856
2026-01-04 23:27:53.34	135.41	5.36	-40.1	-41.4	20.4	0.00e+00	92	31	0	46137344	52	6730
2026-01-04 23:27:54.35	135.38	5.43	-39.5	-40.7	20.8	0.00e+00	90	31	0	48234496	52	6221
2026-01-04 23:27:55.36	135.36	5.50	-39.6	-40.8	20.7	0.00e+00	7	31	0	50331648	52	6280
2026-01-04 23:27:56.37	135.33	5.58	-39.7	-41.0	20.7	0.00e+00	92	31	0	51380224	52	6394
2026-01-04 23:27:57.38	135.30	5.65	-39.9	-41.2	20.7	0.00e+00	6	31	0	53477376	52	6591
2026-01-04 23:27:58.39	135.27	5.72	-39.4	-40.6	21.0	0.00e+00	92	31	0	55574528	52	6154
2026-01-04 23:27:59.40	135.24	5.80	-39.1	-40.2	21.3	0.00e+00	92	31	0	57671680	52	5891
2026-01-04 23:28:00.40	135.22	5.87	-39.2	-40.3	21.4	0.00e+00	90	31	0	59768832	52	5957
2026-01-04 23:28:01.41	135.19	5.94	-39.0	-40.1	21.5	0.00e+00	90	31	0	60817408	52	5780
2026-01-04 23:28:02.41	135.16	6.02	-38.7	-39.7	22.0	0.00e+00	0	31	0	62914560	50	6242
2026-01-04 23:28:03.42	135.13	6.09	-38.8	-39.9	21.8	0.00e+00	92	31	0	65011712	50	6347
2026-01-04 23:28:04.43	135.10	6.16	-38.9	-40.0	21.8	0.00e+00	16	31	0	67108864	50	6407
2026-01-04 23:28:05.44	135.07	6.24	-38.7	-39.8	21.9	0.00e+00	91	31	0	69206016	50	6292
2026-01-04 23:28:06.45	135.04	6.31	-38.7	-39.8	21.9	0.00e+00	91	31	0	70254592	50	6250
2026-01-04 23:28:07.46	135.01	6.39	-38.9	-40.0	21.7	0.00e+00	91	31	0	72351744	50	6443
2026-01-04 23:28:08.47	134.99	6.46	-39.1	-40.2	21.6	0.00e+00	92	31	0	74448896	50	6562
2026-01-04 23:28:09.48	134.96	6.54	-38.5	-39.5	22.2	0.00e+00	92	31	0	76546048	50	6092
2026-01-04 23:28:10.49	134.93	6.61	-38.8	-39.9	21.9	0.00e+00	92	31	0	78643200	50	6319
2026-01-04 23:28:11.50	134.90	6.69	-38.8	-39.9	21.9	0.00e+00	0	31	0	79691776	50	6349
2026-01-04 23:28:12.51	134.87	6.77	-38.6	-39.6	22.1	0.00e+00	92	31	0	81788928	50	6162
2026-01-04 23:28:13.52	134.83	6.84	-38.6	-39.6	22.0	0.00e+00	92	31	0	83886080	50	6161
2026-01-04 23:28:14.53	134.80	6.92	-38.4	-39.4	22.2	0.00e+00	92	31	0	85983232	50	6029
2026-01-04 23:28:15.54	134.77	7.00	-38.2	-39.2	22.5	0.00e+00	92	31	0	88080384	50	5868
2026-01-04 23:28:16.55	134.74	7.07	-38.3	-39.3	22.4	0.00e+00	92	31	0	90177536	50	5914
2026-01-04 23:28:17.56	134.71	7.15	-38.4	-39.5	22.3	0.00e+00	92	31	0	91226112	50	6050
2026-01-04 23:28:18.56	134.68	7.23	-38.3	-39.3	22.4	0.00e+00	0	31	0	93323264	50	5932
2026-01-04 23:28:19.57	134.65	7.30	-38.3	-39.3	22.4	0.00e+00	92	31	0	95420416	50	5916
2026-01-04 23:28:20.58	134.62	7.38	-38.3	-39.3	22.4	0.00e+00	8	31	0	97517568	50	5964
2026-01-04 23:28:21.59	134.59	7.46	-38.8	-39.9	22.2	0.00e+00	92	31	0	98566144	50	6326
2026-01-04 23:28:22.60	134.55	7.54	-38.5	-39.5	22.3	0.00e+00	92	31	0	100663296	50	6099
2026-01-04 23:28:23.61	134.52	7.62	-38.3	-39.4	22.3	0.00e+00	92	31	0	102760448	50	5979
2026-01-04 23:28:24.62	134.49	7.70	-38.1	-39.2	22.5	0.00e+00	90	31	0	104857600	50	5837
2026-01-04 23:28:25.63	134.46	7.77	-38.2	-39.3	22.4	0.00e+00	92	31	0	106954752	50	5915
2026-01-04 23:28:26.64	134.42	7.85	-38.5	-39.5	22.2	0.00e+00	90	31	0	108003328	50	6099
2026-01-04 23:28:27.65	134.39	7.93	-38.3	-39.4	22.3	0.00e+00	19	31	0	110100480	50	6001
2026-01-04 23:28:28.66	134.36	8.01	-38.5	-39.5	22.3	0.00e+00	92	31	0	112197632	50	6101
2026-01-04 23:28:29.67	134.32	8.09	-38.3	-39.3	22.4	0.00e+00	92	31	0	114294784	50	5963
2026-01-04 23:28:30.67	134.29	8.17	-38.3	-39.3	22.5	0.00e+00	92	31	0	116391936	50	5928
2026-01-04 23:28:31.68	134.26	8.25	-38.3	-39.4	22.4	0.00e+00	92	31	0	118489088	50	5976
2026-01-04 23:28:32.69	134.22	8.33	-38.3	-39.3	22.4	0.00e+00	92	31	0	119537664	50	5964
2026-01-04 23:28:33.70	134.19	8.41	-38.1	-39.1	22.7	0.00e+00	92	31	0	121634816	50	5775
2026-01-04 23:28:34.71	134.15	8.50	-38.3	-39.3	22.6	0.00e+00	5	31	0	123731968	50	5916
2026-01-04 23:28:35.72	134.12	8.58	-38.2	-39.2	22.7	0.00e+00	91	31	0	125829120	50	5849
2026-01-04 23:28:36.73	134.09	8.66	-38.0	-39.0	22.8	0.00e+00	0	31	0	127926272	50	5730
2026-01-04 23:28:37.74	134.05	8.74	-37.8	-38.8	23.0	0.00e+00	91	31	0	128974848	50	5600
2026-01-04 23:28:38.75	134.02	8.82	-37.9	-38.8	23.0	0.00e+00	91	31	0	131072000	48	6292
2026-01-04 23:28:39.76	133.98	8.91	-37.9	-38.9	22.9	0.00e+00	92	31	0	133169152	48	6347
2026-01-04 23:28:40.77	133.94	8.99	-38.3	-39.3	22.6	0.00e+00	92	31	0	135266304	48	6666
2026-01-04 23:28:41.78	133.91	9.07	-38.0	-38.9	22.7	0.00e+00	0	31	0	137363456	48	6373
2026-01-04 23:28:42.79	133.87	9.15	-38.3	-39.3	22.5	0.00e+00	90	31	0	138412032	48	6630
2026-01-04 23:28:43.80	133.84	9.24	-38.2	-39.2	22.6	0.00e+00	0	31	0	140509184	48	6579
2026-01-04 23:28:44.81	133.80	9.32	-38.6	-39.6	22.4	0.00e+00	90	31	0	142606336	50	6127
2026-01-04 23:28:45.82	133.76	9.41	-38.4	-39.4	22.5	0.00e+00	92	31	0	144703488	50	5997
2026-01-04 23:28:46.83	133.73	9.49	-38.2	-39.2	22.7	0.00e+00	90	31	0	146800640	50	5869
2026-01-04 23:28:47.84	133.69	9.57	-38.3	-39.3	22.6	0.00e+00	92	31	0	147849216	50	5951
2026-01-04 23:28:48.85	133.65	9.66	-38.1	-39.1	22.8	0.00e+00	90	31	0	149946368	50	5763
2026-01-04 23:28:49.86	133.61	9.74	-38.5	-39.5	22.6	0.00e+00	92	31	0	152043520	50	6091
2026-01-04 23:28:50.86	133.58	9.83	-38.0	-39.0	22.9	0.00e+00	0	31	0	154140672	50	5703
2026-01-04 23:28:51.88	133.54	9.92	-38.1	-39.1	22.9	0.00e+00	92	31	0	156237824	50	5768
2026-01-04 23:28:52.88	133.50	10.00	-38.1	-39.1	22.8	0.00e+00	22	31	0	157286400	50	5769
2026-01-04 23:28:53.90	133.46	10.09	-37.8	-38.7	23.2	0.00e+00	92	31	0	159383552	50	5532
2026-01-04 23:28:54.91	133.42	10.17	-38.0	-39.0	22.9	0.00e+00	92	31	0	161480704	50	5728
2026-01-04 23:28:55.92	133.38	10.26	-37.9	-38.8	23.2	0.00e+00	92	31	0	163577856	50	5595
2026-01-04 23:28:56.93	133.34	10.35	-37.8	-38.8	23.2	0.00e+00	90	31	0	165675008	50	5575
2026-01-04 23:28:57.94	133.30	10.44	-37.9	-38.9	23.3	0.00e+00	5	31	0	166723584	50	5641
2026-01-04 23:28:58.94	133.26	10.52	-37.7	-38.6	23.4	0.00e+00	90	31	0	168820736	48	6170
2026-01-04 23:28:59.95	133.22	10.61	-37.7	-38.6	23.4	0.00e+00	11	31	0	170917888	48	6131
2026-01-04 23:29:00.96	133.18	10.70	-37.7	-38.6	23.5	0.00e+00	90	31	0	173015040	48	6147
2026-01-04 23:29:01.97	133.14	10.79	-37.8	-38.8	23.2	0.00e+00	92	31	0	175112192	48	6269
2026-01-04 23:29:02.98	133.10	10.88	-37.6	-38.5	23.5	0.00e+00	92	31	0	176160768	48	6079
2026-01-04 23:29:03.99	133.06	10.97	-37.6	-38.6	23.4	0.00e+00	92	31	0	178257920	48	6111
2026-01-04 23:29:05.00	133.02	11.05	-37.8	-38.7	23.4	0.00e+00	56	31	0	180355072	48	6206
2026-01-04 23:29:06.01	132.98	11.14	-37.5	-38.5	23.5	0.00e+00	92	31	0	182452224	48	6042
2026-01-04 23:29:07.02	132.93	11.23	-37.5	-38.4	23.6	0.00e+00	0	31	0	184549376	48	5998
2026-01-04 23:29:08.03	132.89	11.33	-37.6	-38.5	23.5	0.00e+00	91	31	0	186646528	48	6052
2026-01-04 23:29:09.04	132.85	11.42	-37.5	-38.5	23.5	0.00e+00	92	31	0	187695104	48	6043
2026-01-04 23:29:10.05	132.81	11.51	-37.5	-38.4	23.6	0.00e+00	91	31	0	189792256	48	6004
2026-01-04 23:29:11.06	132.76	11.60	-37.8	-38.7	23.4	0.00e+00	92	31	0	191889408	48	6237
2026-01-04 23:29:12.07	132.72	11.69	-37.6	-38.4	23.6	0.00e+00	77	31	0	193986560	48	6033
2026-01-04 23:29:13.08	132.68	11.78	-37.7	-38.7	23.5	0.00e+00	92	31	0	196083712	48	6180
2026-01-04 23:29:14.09	132.63	11.88	-37.6	-38.5	23.7	0.00e+00	0	31	0	197132288	48	6049
2026-01-04 23:29:15.10	132.59	11.97	-37.5	-38.4	23.6	0.00e+00	92	31	0	199229440	48	5966
2026-01-04 23:29:16.11	132.54	12.06	-37.6	-38.5	23.5	0.00e+00	92	31	0	201326592	48	6044
2026-01-04 23:29:17.12	132.50	12.15	-37.6	-38.5	23.5	0.00e+00	92	31	0	203423744	48	6079
2026-01-04 23:29:18.13	132.45	12.25	-37.5	-38.4	23.7	0.00e+00	92	31	0	205520896	48	6023
2026-01-04 23:29:19.14	132.41	12.34	-37.7	-38.6	23.6	0.00e+00	92	31	0	206569472	48	6115
2026-01-04 23:29:20.15	132.36	12.44	-37.4	-38.3	23.7	0.00e+00	90	31	0	208666624	48	5933
2026-01-04 23:29:21.16	132.31	12.53	-37.7	-38.6	23.5	0.00e+00	28	31	0	210763776	48	6160
2026-01-04 23:29:22.17	132.27	12.63	-37.4	-38.3	23.7	0.00e+00	92	31	0	212860928	48	5921
2026-01-04 23:29:23.18	132.22	12.72	-37.4	-38.3	23.8	0.00e+00	7	31	0	214958080	48	5920
2026-01-04 23:29:24.19	132.17	12.82	-37.5	-38.3	23.7	0.00e+00	92	31	0	216006656	48	5962
2026-01-04 23:29:25.20	132.13	12.91	-37.4	-38.3	23.8	0.00e+00	92	31	0	218103808	48	5912
2026-01-04 23:29:26.21	132.08	13.01	-37.4	-38.3	23.8	0.00e+00	92	31	0	220200960	48	5937
2026-01-04 23:29:27.21	132.03	13.11	-37.4	-38.3	23.7	0.00e+00	92	31	0	222298112	48	5942
2026-01-04 23:29:28.22	131.98	13.20	-37.6	-38.5	23.8	0.00e+00	67	31	0	224395264	48	6042
2026-01-04 23:29:29.23	131.93	13.30	-37.5	-38.4	23.7	0.00e+00	92	31	0	225443840	48	6001
2026-01-04 23:29:30.24	131.88	13.40	-37.5	-38.4	23.8	0.00e+00	0	31	0	227540992	48	6024
2026-01-04 23:29:31.25	131.83	13.50	-37.4	-38.2	23.9	0.00e+00	92	31	0	229638144	48	5881
2026-01-04 23:29:32.26	131.79	13.60	-37.5	-38.4	23.7	0.00e+00	92	31	0	231735296	48	5996
2026-01-04 23:29:33.27	131.73	13.70	-37.6	-38.5	23.6	0.00e+00	92	31	0	233832448	48	6089
2026-01-04 23:29:34.28	131.68	13.80	-37.5	-38.3	23.8	0.00e+00	92	31	0	234881024	48	5963
2026-01-04 23:29:35.29	131.63	13.90	-37.7	-38.6	23.6	0.00e+00	92	31	0	236978176	48	6114
2026-01-04 23:29:36.30	131.58	14.00	-37.6	-38.4	23.7	0.00e+00	92	31	0	239075328	48	6033
2026-01-04 23:29:37.31	131.53	14.10	-37.6	-38.5	23.7	0.00e+00	8	31	0	241172480	48	6069
2026-01-04 23:29:38.32	131.48	14.20	-37.3	-38.1	23.9	0.00e+00	92	31	0	243269632	48	5828
2026-01-04 23:29:39.33	131.43	14.30	-37.2	-38.1	23.9	0.00e+00	30	31	0	244318208	48	5804
2026-01-04 23:29:40.34	131.37	14.40	-37.6	-38.5	23.6	0.00e+00	90	32	0	246415360	48	6067
2026-01-04 23:29:41.35	131.32	14.50	-37.6	-38.5	23.7	0.00e+00	91	31	0	248512512	48	6059
2026-01-04 23:29:42.36	131.27	14.61	-37.6	-38.5	23.6	0.00e+00	91	31	0	250609664	48	6075
2026-01-04 23:29:43.37	131.21	14.71	-37.6	-38.5	23.7	0.00e+00	91	31	0	252706816	48	6048
2026-01-04 23:29:44.38	131.16	14.81	-37.4	-38.3	23.7	0.00e+00	0	31	0	254803968	48	5930
2026-01-04 23:29:45.39	131.10	14.92	-37.2	-38.1	24.0	0.00e+00	92	31	0	255852544	48	5801
2026-01-04 23:29:46.40	131.05	15.02	-37.3	-38.2	23.9	0.00e+00	27	31	0	257949696	48	5855
2026-01-04 23:29:47.41	130.99	15.13	-37.8	-38.7	23.5	0.00e+00	92	31	0	260046848	48	6186
2026-01-04 23:29:48.42	130.94	15.23	-37.5	-38.4	23.8	0.00e+00	92	31	0	262144000	48	5967
2026-01-04 23:29:49.43	130.88	15.34	-37.3	-38.2	24.0	0.00e+00	92	31	0	264241152	48	5838
2026-01-04 23:29:50.44	130.82	15.44	-37.3	-38.2	24.0	0.00e+00	92	31	0	265289728	48	5871
2026-01-04 23:29:51.45	130.77	15.55	-37.2	-38.1	24.0	0.00e+00	92	31	0	267386880	48	5786
2026-01-04 23:29:52.46	130.71	15.66	-37.3	-38.2	24.0	0.00e+00	92	31	0	269484032	48	5840
2026-01-04 23:29:53.47	130.65	15.76	-37.5	-38.4	23.8	0.00e+00	62	31	0	271581184	48	5985
2026-01-04 23:29:54.48	130.59	15.87	-37.4	-38.3	23.9	0.00e+00	92	31	0	273678336	48	5937
2026-01-04 23:29:55.49	130.53	15.98	-37.2	-38.1	24.1	0.00e+00	92	31	0	274726912	48	5780
2026-01-04 23:29:56.50	130.47	16.09	-37.2	-38.1	24.0	0.00e+00	91	31	0	276824064	48	5766
2026-01-04 23:29:57.51	130.41	16.20	-37.1	-37.9	24.1	0.00e+00	92	31	0	278921216	48	5678
2026-01-04 23:29:58.52	130.35	16.31	-37.2	-38.1	24.0	0.00e+00	92	31	0	281018368	48	5796
2026-01-04 23:29:59.53	130.29	16.42	-37.2	-38.1	24.0	0.00e+00	92	31	0	283115520	48	5776
2026-01-04 23:30:00.54	130.23	16.53	-37.1	-37.9	24.1	0.00e+00	0	31	0	284164096	48	5685
2026-01-04 23:30:01.55	130.17	16.64	-37.0	-37.8	24.2	0.00e+00	92	31	0	286261248	48	5620
2026-01-04 23:30:02.56	130.11	16.75	-37.1	-37.9	24.0	0.00e+00	92	31	0	288358400	48	5671
2026-01-04 23:30:03.57	130.04	16.86	-37.1	-38.0	24.1	0.00e+00	92	31	0	290455552	48	5702
2026-01-04 23:30:04.58	129.98	16.98	-37.1	-38.0	24.1	0.00e+00	92	31	0	292552704	48	5736
2026-01-04 23:30:05.58	129.92	17.09	-37.2	-38.1	23.9	0.00e+00	92	31	0	293601280	48	5804
2026-01-04 23:30:06.60	129.85	17.20	-37.5	-38.4	23.7	0.00e+00	92	31	0	295698432	48	6003
2026-01-04 23:30:07.60	129.79	17.32	-37.4	-38.3	23.9	0.00e+00	69	31	0	297795584	48	5935
2026-01-04 23:30:08.62	129.72	17.43	-37.5	-38.4	23.8	0.00e+00	92	31	0	299892736	48	5979
2026-01-04 23:30:09.63	129.66	17.55	-37.5	-38.4	23.7	0.00e+00	10	31	0	301989888	48	5994
2026-01-04 23:30:10.63	129.59	17.66	-37.2	-38.1	24.0	0.00e+00	92	31	0	303038464	48	5799
2026-01-04 23:30:11.64	129.52	17.78	-37.4	-38.3	23.9	0.00e+00	90	31	0	305135616	48	5941
2026-01-04 23:30:12.66	129.45	17.89	-37.2	-38.0	24.0	0.00e+00	92	31	0	307232768	48	5752
2026-01-04 23:30:13.66	129.39	18.01	-37.1	-38.0	24.1	0.00e+00	92	31	0	309329920	48	5727
2026-01-04 23:30:14.68	129.32	18.13	-37.2	-38.0	24.0	0.00e+00	92	31	0	311427072	48	5757
2026-01-04 23:30:15.69	129.25	18.25	-37.3	-38.1	24.0	0.00e+00	90	31	0	312475648	48	5807
2026-01-04 23:30:16.70	129.18	18.36	-37.2	-38.1	24.1	0.00e+00	57	31	0	314572800	48	5772
2026-01-04 23:30:17.71	129.11	18.48	-37.0	-37.9	24.2	0.00e+00	92	31	0	316669952	48	5645
2026-01-04 23:30:18.72	129.04	18.60	-37.2	-38.0	24.1	0.00e+00	92	31	0	318767104	48	5741
2026-01-04 23:30:19.73	128.97	18.72	-37.1	-38.0	24.1	0.00e+00	92	31	0	320864256	48	5716
2026-01-04 23:30:20.74	128.90	18.84	-37.1	-38.0	24.2	0.00e+00	92	31	0	322961408	48	5718
2026-01-04 23:30:21.75	128.82	18.96	-37.1	-37.9	24.1	0.00e+00	90	32	0	324009984	48	5677
2026-01-04 23:30:22.76	128.75	19.09	-37.2	-38.1	24.1	0.00e+00	92	31	0	326107136	48	5800
2026-01-04 23:30:23.76	128.68	19.21	-37.4	-38.3	24.1	0.00e+00	8	31	0	328204288	48	5899
2026-01-04 23:30:24.77	128.60	19.33	-37.5	-38.4	24.0	0.00e+00	92	31	0	330301440	48	5996
2026-01-04 23:30:25.78	128.53	19.45	-37.3	-38.1	24.1	0.00e+00	0	31	0	332398592	48	5821
2026-01-04 23:30:26.79	128.45	19.58	-37.3	-38.2	24.0	0.00e+00	92	31	0	333447168	48	5845
2026-01-04 23:30:27.80	128.38	19.70	-37.1	-37.9	24.2	0.00e+00	92	31	0	335544320	48	5666
2026-01-04 23:30:28.81	128.30	19.83	-37.3	-38.1	24.0	0.00e+00	92	31	0	337641472	48	5823
2026-01-04 23:30:29.82	128.22	19.95	-37.3	-38.2	24.0	0.00e+00	92	31	0	339738624	48	5854
2026-01-04 23:30:30.83	128.14	20.08	-37.4	-38.2	23.9	0.00e+00	52	31	0	341835776	48	5895
2026-01-04 23:30:31.84	128.06	20.21	-37.4	-38.2	24.0	0.00e+00	92	31	0	342884352	48	5889
2026-01-04 23:30:32.85	127.98	20.33	-37.2	-38.1	24.0	0.00e+00	28	31	0	344981504	48	5775
2026-01-04 23:30:33.85	127.90	20.46	-37.4	-38.3	23.9	0.00e+00	91	31	0	347078656	48	5902
2026-01-04 23:30:34.87	127.82	20.59	-37.4	-38.3	23.9	0.00e+00	92	31	0	349175808	48	5919
2026-01-04 23:30:35.88	127.74	20.72	-37.3	-38.2	24.0	0.00e+00	92	31	0	351272960	48	5865
2026-01-04 23:30:36.88	127.66	20.85	-37.6	-38.5	23.6	0.00e+00	92	31	0	352321536	48	6055
2026-01-04 23:30:37.89	127.58	20.98	-38.0	-38.9	23.4	0.00e+00	92	31	0	354418688	48	6324
2026-01-04 23:30:38.90	127.49	21.11	-37.4	-38.2	23.9	0.00e+00	90	31	0	356515840	48	5884
2026-01-04 23:30:39.91	127.41	21.24	-37.5	-38.4	24.0	0.00e+00	7	31	0	358612992	48	5976
2026-01-04 23:30:40.92	127.32	21.37	-37.5	-38.4	23.8	0.00e+00	92	31	0	360710144	48	5978
2026-01-04 23:30:41.93	127.24	21.51	-37.6	-38.5	23.8	0.00e+00	92	31	0	361758720	48	6046
2026-01-04 23:30:42.94	127.15	21.64	-37.6	-38.4	23.8	0.00e+00	92	31	0	363855872	48	6033
2026-01-04 23:30:43.95	127.06	21.77	-37.9	-38.8	23.5	0.00e+00	92	31	0	365953024	48	6268
2026-01-04 23:30:44.96	126.97	21.91	-37.8	-38.7	23.6	0.00e+00	64	31	0	368050176	48	6228
2026-01-04 23:30:45.97	126.88	22.04	-38.0	-38.9	23.4	0.00e+00	92	31	0	370147328	48	6364
2026-01-04 23:30:46.97	126.80	22.18	-38.0	-38.9	23.4	0.00e+00	18	31	0	371195904	48	6349
2026-01-04 23:30:47.98	126.70	22.31	-37.9	-38.9	23.5	0.00e+00	92	31	0	373293056	48	6326
2026-01-04 23:30:48.99	126.61	22.45	-38.2	-39.1	23.2	0.00e+00	0	32	0	375390208	48	6515
2026-01-04 23:30:50.00	126.52	22.59	-38.1	-39.1	23.3	0.00e+00	92	31	0	377487360	48	6471
2026-01-04 23:30:51.01	126.43	22.73	-38.0	-38.9	23.4	0.00e+00	92	32	0	379584512	48	6367
2026-01-04 23:30:52.02	126.33	22.87	-38.6	-39.5	23.0	0.00e+00	23	31	0	380633088	48	6843
2026-01-04 23:30:53.03	126.24	23.01	-38.4	-39.4	22.9	0.00e+00	92	31	0	382730240	48	6723
2026-01-04 23:30:54.04	126.14	23.15	-38.5	-39.4	23.0	0.00e+00	24	32	0	384827392	48	6733
2026-01-04 23:30:55.05	126.05	23.29	-38.8	-39.8	22.6	0.00e+00	90	31	0	386924544	48	7024
2026-01-04 23:30:56.06	125.95	23.43	-38.7	-39.7	22.9	0.00e+00	15	31	0	389021696	50	6178
2026-01-04 23:30:57.07	125.85	23.57	-38.6	-39.5	22.9	0.00e+00	92	31	0	391118848	50	6099
2026-01-04 23:30:58.08	125.75	23.72	-38.8	-39.8	22.7	0.00e+00	92	31	0	392167424	50	6261
2026-01-04 23:30:59.09	125.65	23.86	-38.9	-39.9	22.6	0.00e+00	53	31	0	394264576	50	6338
2026-01-04 23:31:00.10	125.55	24.01	-38.9	-39.9	22.6	0.00e+00	91	32	0	396361728	50	6322
2026-01-04 23:31:01.11	125.44	24.15	-39.2	-40.2	22.3	0.00e+00	0	31	0	398458880	50	6595
2026-01-04 23:31:02.12	125.34	24.30	-39.0	-40.0	22.5	0.00e+00	91	31	0	400556032	50	6426
2026-01-04 23:31:03.13	125.24	24.45	-39.0	-40.0	22.5	0.00e+00	0	31	0	401604608	50	6459
2026-01-04 23:31:04.14	125.13	24.59	-39.0	-40.1	22.6	0.00e+00	92	31	0	403701760	50	6466
2026-01-04 23:31:05.15	125.02	24.74	-39.0	-40.0	22.5	0.00e+00	91	31	0	405798912	50	6416
2026-01-04 23:31:06.16	124.92	24.89	-39.0	-40.0	22.7	0.00e+00	92	32	0	407896064	50	6398
2026-01-04 23:31:07.17	124.81	25.04	-39.2	-40.3	22.3	0.00e+00	92	32	0	409993216	50	6635
2026-01-04 23:31:08.18	124.70	25.19	-39.2	-40.2	22.4	0.00e+00	0	31	0	411041792	50	6587
2026-01-04 23:31:09.19	124.59	25.34	-39.3	-40.3	22.2	0.00e+00	92	32	0	413138944	50	6660
2026-01-04 23:31:10.20	124.48	25.49	-39.3	-40.4	22.1	0.00e+00	55	31	0	415236096	50	6728
2026-01-04 23:31:11.21	124.36	25.65	-39.5	-40.6	22.0	0.00e+00	92	31	0	417333248	50	6897
2026-01-04 23:31:12.22	124.25	25.80	-38.9	-40.0	22.6	0.00e+00	90	31	0	419430400	50	6397
2026-01-04 23:31:13.23	124.13	25.95	-39.6	-40.7	21.9	0.00e+00	92	32	0	420478976	50	6936
2026-01-04 23:31:14.24	124.02	26.11	-39.2	-40.2	22.3	0.00e+00	92	31	0	422576128	50	6614
2026-01-04 23:31:15.25	123.90	26.27	-39.4	-40.4	22.0	0.00e+00	0	32	0	424673280	50	6758
2026-01-04 23:31:16.26	123.78	26.42	-39.3	-40.3	22.3	0.00e+00	90	31	0	426770432	50	6631
2026-01-04 23:31:17.27	123.66	26.58	-39.3	-40.4	22.2	0.00e+00	7	32	0	428867584	50	6696
2026-01-04 23:31:18.28	123.54	26.74	-39.3	-40.4	22.2	0.00e+00	92	32	0	429916160	52	5969
2026-01-04 23:31:19.29	123.42	26.90	-39.4	-40.4	22.1	0.00e+00	27	32	0	432013312	52	6031
2026-01-04 23:31:20.30	123.29	27.06	-39.6	-40.7	22.0	0.00e+00	92	32	0	434110464	52	6190
2026-01-04 23:31:21.31	123.17	27.22	-39.7	-40.7	22.0	0.00e+00	90	31	0	436207616	52	6225
2026-01-04 23:31:22.32	123.04	27.38	-39.7	-40.7	21.9	0.00e+00	92	31	0	438304768	52	6227
2026-01-04 23:31:23.33	122.92	27.54	-40.2	-41.3	21.6	0.00e+00	90	32	0	439353344	52	6652
2026-01-04 23:31:24.34	122.79	27.70	-40.0	-41.1	21.4	0.00e+00	0	32	0	441450496	52	6487
2026-01-04 23:31:25.35	122.66	27.87	-39.8	-40.9	21.7	0.00e+00	92	32	0	443547648	52	6347
2026-01-04 23:31:26.35	122.53	28.03	-39.8	-40.9	21.7	0.00e+00	0	32	0	445644800	52	6363
2026-01-04 23:31:27.36	122.39	28.19	-40.0	-41.1	21.6	0.00e+00	92	31	0	447741952	52	6472
2026-01-04 23:31:28.37	122.26	28.36	-40.1	-41.2	21.3	0.00e+00	92	31	0	448790528	52	6586
2026-01-04 23:31:29.38	122.12	28.53	-40.1	-41.3	21.5	0.00e+00	92	31	0	450887680	52	6627
2026-01-04 23:31:30.39	121.99	28.70	-39.9	-41.0	21.6	0.00e+00	92	32	0	452984832	52	6446
2026-01-04 23:31:31.40	121.85	28.86	-40.1	-41.2	21.6	0.00e+00	0	31	0	455081984	52	6567
2026-01-04 23:31:32.41	121.71	29.03	-39.7	-40.8	21.8	0.00e+00	92	31	0	457179136	52	6290
2026-01-04 23:31:33.42	121.57	29.20	-39.8	-40.9	21.8	0.00e+00	31	31	0	459276288	52	6339
2026-01-04 23:31:34.43	121.42	29.37	-40.0	-41.1	21.5	0.00e+00	92	32	0	460324864	52	6508
2026-01-04 23:31:35.44	121.28	29.55	-40.1	-41.3	21.4	0.00e+00	92	32	0	462422016	52	6648
2026-01-04 23:31:36.45	121.13	29.72	-39.9	-41.0	21.7	0.00e+00	92	32	0	464519168	52	6464
2026-01-04 23:31:37.46	120.98	29.89	-39.3	-40.4	22.2	0.00e+00	92	31	0	466616320	52	5981
2026-01-04 23:31:38.47	120.83	30.07	-39.2	-40.2	22.3	0.00e+00	64	32	0	468713472	52	5849
2026-01-04 23:31:39.48	120.68	30.24	-39.0	-40.0	22.6	0.00e+00	92	32	0	469762048	52	5748
2026-01-04 23:31:40.49	120.53	30.42	-38.9	-39.9	22.7	0.00e+00	5	31	0	471859200	52	5657
2026-01-04 23:31:41.50	120.37	30.59	-39.1	-40.1	22.5	0.00e+00	92	32	0	473956352	52	5790
2026-01-04 23:31:42.51	120.22	30.77	-39.1	-40.1	22.6	0.00e+00	0	32	0	476053504	52	5769
2026-01-04 23:31:43.52	120.06	30.95	-39.5	-40.5	22.2	0.00e+00	89	32	0	478150656	52	6068
2026-01-04 23:31:44.53	119.90	31.13	-39.2	-40.3	22.3	0.00e+00	92	32	0	479199232	52	5906
2026-01-04 23:31:45.54	119.74	31.31	-39.3	-40.3	22.2	0.00e+00	92	32	0	481296384	52	5933
2026-01-04 23:31:46.55	119.58	31.49	-39.6	-40.7	22.0	0.00e+00	90	32	0	483393536	52	6214
2026-01-04 23:31:47.55	119.41	31.67	-39.6	-40.7	22.0	0.00e+00	24	31	0	485490688	52	6193
2026-01-04 23:31:48.56	119.24	31.85	-39.8	-40.9	21.8	0.00e+00	90	31	0	487587840	52	6339
2026-01-04 23:31:49.58	119.07	32.04	-39.6	-40.7	22.0	0.00e+00	0	31	0	488636416	52	6220
2026-01-04 23:31:50.59	118.90	32.22	-39.8	-40.9	21.7	0.00e+00	90	32	0	490733568	52	6384
2026-01-04 23:31:51.59	118.73	32.41	-39.9	-41.0	21.7	0.00e+00	92	32	0	492830720	52	6450
2026-01-04 23:31:52.60	118.55	32.59	-40.2	-41.3	21.4	0.00e+00	91	31	0	494927872	52	6646
2026-01-04 23:31:53.61	118.38	32.78	-40.3	-41.4	21.4	0.00e+00	91	32	0	497025024	52	6747
2026-01-04 23:31:54.62	118.20	32.97	-40.3	-41.5	21.3	0.00e+00	66	32	0	498073600	52	6805
2026-01-04 23:31:55.63	118.02	33.16	-40.4	-41.6	21.2	0.00e+00	91	31	0	500170752	52	6883
2026-01-04 23:31:56.64	117.83	33.35	-40.2	-41.3	21.4	0.00e+00	65	32	0	502267904	52	6665
2026-01-04 23:31:57.65	117.65	33.54	-40.3	-41.4	21.3	0.00e+00	92	31	0	504365056	52	6762
2026-01-04 23:31:58.66	117.46	33.73	-40.4	-41.6	21.2	0.00e+00	8	32	0	506462208	52	6864
2026-01-04 23:31:59.67	117.27	33.92	-40.4	-41.6	21.1	0.00e+00	92	32	0	507510784	52	6892
2026-01-04 23:32:00.67	117.08	34.11	-41.0	-42.3	20.3	0.00e+00	90	31	0	509607936	54	6623
2026-01-04 23:32:01.69	116.88	34.31	-41.1	-42.4	20.3	0.00e+00	92	31	0	511705088	54	6757
2026-01-04 23:32:02.69	116.69	34.50	-41.3	-42.7	20.1	0.00e+00	92	32	0	513802240	54	6968
2026-01-04 23:32:03.71	116.48	34.70	-41.4	-42.8	20.0	0.00e+00	0	31	0	515899392	54	7009
2026-01-04 23:32:04.72	116.28	34.89	-41.5	-42.9	19.9	0.00e+00	90	32	0	516947968	54	7115
2026-01-04 23:32:05.72	116.08	35.09	-41.4	-42.8	20.0	0.00e+00	0	32	0	519045120	54	7025
2026-01-04 23:32:06.73	115.87	35.29	-41.3	-42.6	20.2	0.00e+00	92	31	0	521142272	54	6896
2026-01-04 23:32:07.75	115.66	35.49	-41.2	-42.5	20.3	0.00e+00	92	32	0	523239424	54	6819
2026-01-04 23:32:08.76	115.45	35.69	-41.3	-42.6	20.2	0.00e+00	90	32	0	525336576	54	6882
2026-01-04 23:32:09.76	115.23	35.88	-41.5	-42.8	20.0	0.00e+00	90	32	0	527433728	54	7087
2026-01-04 23:32:10.78	115.01	36.09	-41.1	-42.5	20.4	0.00e+00	0	31	0	528482304	54	6786
2026-01-04 23:32:11.79	114.79	36.29	-41.0	-42.2	20.5	0.00e+00	90	31	0	530579456	54	6606
2026-01-04 23:32:12.79	114.57	36.49	-41.2	-42.6	20.3	0.00e+00	0	31	0	532676608	54	6862
2026-01-04 23:32:13.81	114.34	36.70	-40.8	-42.0	21.0	0.00e+00	92	31	0	534773760	54	6449
2026-01-04 23:32:14.81	114.12	36.90	-40.6	-41.8	21.0	0.00e+00	92	32	0	536870912	54	6247
2026-01-04 23:32:15.82	113.89	37.10	-40.7	-41.9	20.9	0.00e+00	92	31	0	537919488	54	6361
2026-01-04 23:32:16.83	113.65	37.31	-40.3	-41.5	21.1	0.00e+00	90	31	0	540016640	54	6045
2026-01-04 23:32:17.84	113.41	37.51	-40.5	-41.7	21.1	0.00e+00	72	31	0	542113792	54	6189
2026-01-04 23:32:18.85	113.17	37.72	-40.2	-41.3	21.4	0.00e+00	92	31	0	544210944	54	5964
2026-01-04 23:32:19.86	112.93	37.93	-40.3	-41.5	21.3	0.00e+00	60	31	0	546308096	54	6048
2026-01-04 23:32:20.87	112.68	38.14	-40.2	-41.3	21.5	0.00e+00	92	31	0	547356672	54	5950
2026-01-04 23:32:21.88	112.43	38.34	-40.1	-41.2	21.5	0.00e+00	87	31	0	549453824	54	5874
2026-01-04 23:32:22.89	112.18	38.55	-40.3	-41.4	21.4	0.00e+00	92	32	0	551550976	54	6005
2026-01-04 23:32:23.90	111.92	38.76	-40.2	-41.4	21.3	0.00e+00	92	32	0	553648128	54	5992
2026-01-04 23:32:24.91	111.66	38.98	-40.5	-41.7	21.0	0.00e+00	92	31	0	555745280	54	6206
2026-01-04 23:32:25.92	111.40	39.19	-40.5	-41.7	21.1	0.00e+00	92	31	0	556793856	54	6197
2026-01-04 23:32:26.93	111.13	39.40	-40.8	-42.1	20.8	0.00e+00	7	32	0	558891008	54	6520
2026-01-04 23:32:27.93	110.86	39.61	-40.9	-42.1	20.6	0.00e+00	90	31	0	560988160	54	6536
2026-01-04 23:32:28.94	110.59	39.82	-41.1	-42.5	20.5	0.00e+00	0	31	0	563085312	54	6794
2026-01-04 23:32:29.95	110.31	40.04	-41.4	-42.8	19.9	0.00e+00	91	31	0	565182464	54	7049
2026-01-04 23:32:30.96	110.03	40.25	-41.8	-43.3	19.9	0.00e+00	91	32	0	566231040	54	7429
2026-01-04 23:32:31.97	109.74	40.46	-42.0	-43.5	19.2	0.00e+00	91	31	0	568328192	56	6781
2026-01-04 23:32:32.98	109.45	40.68	-41.3	-42.7	20.0	0.00e+00	92	31	0	570425344	56	6190
2026-01-04 23:32:33.99	109.16	40.90	-41.1	-42.4	20.6	0.00e+00	25	32	0	572522496	56	5989
2026-01-04 23:32:35.00	108.86	41.11	-40.6	-41.8	21.0	0.00e+00	90	32	0	574619648	54	6303
2026-01-04 23:32:36.01	108.56	41.33	-40.3	-41.5	21.4	0.00e+00	71	32	0	575668224	54	6059
2026-01-04 23:32:37.02	108.26	41.54	-40.5	-41.7	21.2	0.00e+00	92	31	0	577765376	54	6227
2026-01-04 23:32:38.03	107.95	41.76	-40.3	-41.5	21.3	0.00e+00	81	31	0	579862528	54	6055
2026-01-04 23:32:39.04	107.63	41.98	-40.3	-41.4	21.3	0.00e+00	92	31	0	581959680	54	6030
2026-01-04 23:32:40.05	107.31	42.20	-40.0	-41.2	21.6	0.00e+00	90	31	0	584056832	54	5834
2026-01-04 23:32:41.06	106.99	42.41	-40.0	-41.1	21.6	0.00e+00	0	31	0	585105408	54	5812
2026-01-04 23:32:42.07	106.67	42.63	-39.8	-40.9	21.7	0.00e+00	90	31	0	587202560	54	5664
2026-01-04 23:32:43.08	106.33	42.85	-39.7	-40.8	22.0	0.00e+00	0	31	0	589299712	52	6257
2026-01-04 23:32:44.09	106.00	43.07	-39.5	-40.5	22.0	0.00e+00	90	32	0	591396864	52	6081
2026-01-04 23:32:45.10	105.66	43.29	-39.7	-40.8	21.9	0.00e+00	92	31	0	593494016	52	6260
2026-01-04 23:32:46.11	105.31	43.51	-40.1	-41.3	21.5	0.00e+00	92	32	0	595591168	52	6622
2026-01-04 23:32:47.12	104.96	43.73	-40.5	-41.7	21.1	0.00e+00	92	31	0	596639744	52	6946
2026-01-04 23:32:48.13	104.61	43.94	-40.7	-42.0	20.7	0.00e+00	0	31	0	598736896	54	6408
2026-01-04 23:32:49.14	104.25	44.16	-40.7	-42.0	20.8	0.00e+00	92	31	0	600834048	54	6416
2026-01-04 23:32:50.15	103.88	44.38	-40.9	-42.2	20.6	0.00e+00	3	31	0	602931200	54	6548
2026-01-04 23:32:51.16	103.51	44.60	-40.8	-42.0	20.7	0.00e+00	92	32	0	605028352	54	6460
2026-01-04 23:32:52.16	103.14	44.82	-40.4	-41.6	21.2	0.00e+00	8	32	0	606076928	54	6126
2026-01-04 23:32:53.17	102.76	45.04	-40.5	-41.6	21.0	0.00e+00	91	31	0	608174080	54	6164
2026-01-04 23:32:54.18	102.38	45.25	-40.5	-41.7	21.0	0.00e+00	90	32	0	610271232	54	6221
2026-01-04 23:32:55.19	101.99	45.47	-40.6	-41.8	21.0	0.00e+00	41	31	0	612368384	54	6285
2026-01-04 23:32:56.20	101.59	45.69	-40.5	-41.8	21.0	0.00e+00	92	32	0	614465536	54	6251
2026-01-04 23:32:57.21	101.19	45.91	-40.5	-41.7	21.0	0.00e+00	62	32	0	615514112	54	6202
2026-01-04 23:32:58.22	100.78	46.12	-40.3	-41.5	21.2	0.00e+00	91	31	0	617611264	54	6095
2026-01-04 23:32:59.23	100.37	46.34	-40.6	-41.8	21.1	0.00e+00	7	31	0	619708416	54	6303
2026-01-04 23:33:00.24	99.95	46.55	-40.9	-42.2	20.5	0.00e+00	91	32	0	621805568	54	6544
2026-01-04 23:33:01.25	99.52	46.77	-40.9	-42.2	20.5	0.00e+00	90	32	0	623902720	54	6569
2026-01-04 23:33:02.26	99.09	46.98	-40.8	-42.0	20.7	0.00e+00	91	32	0	624951296	54	6430
2026-01-04 23:33:03.26	98.66	47.19	-40.9	-42.1	20.7	0.00e+00	91	32	0	627048448	54	6510
2026-01-04 23:33:04.27	98.22	47.41	-40.5	-41.7	20.7	0.00e+00	6	31	0	629145600	54	6216
2026-01-04 23:33:05.28	97.77	47.62	-40.4	-41.6	21.1	0.00e+00	92	31	0	631242752	54	6156
2026-01-04 23:33:06.30	97.31	47.83	-40.0	-41.1	21.5	0.00e+00	2	31	0	633339904	54	5822
2026-01-04 23:33:07.30	96.86	48.04	-39.8	-41.0	21.7	0.00e+00	92	31	0	634388480	54	5696
2026-01-04 23:33:08.31	96.39	48.25	-39.7	-40.7	21.9	0.00e+00	82	32	0	636485632	54	5562
2026-01-04 23:33:09.32	95.91	48.46	-39.9	-41.1	21.6	0.00e+00	92	32	0	638582784	52	6471
2026-01-04 23:33:10.34	95.43	48.67	-40.0	-41.2	21.7	0.00e+00	92	32	0	640679936	52	6555
2026-01-04 23:33:11.34	94.95	48.87	-39.5	-40.6	21.9	0.00e+00	0	32	0	642777088	52	6152
2026-01-04 23:33:12.35	94.46	49.07	-39.3	-40.3	22.3	0.00e+00	92	32	0	643825664	52	5945
2026-01-04 23:33:13.36	93.96	49.28	-39.1	-40.1	22.4	0.00e+00	33	31	0	645922816	52	5826
2026-01-04 23:33:14.37	93.45	49.48	-38.8	-39.8	22.8	0.00e+00	92	32	0	648019968	50	6275
2026-01-04 23:33:15.38	92.94	49.68	-38.5	-39.4	23.2	0.00e+00	0	31	0	650117120	50	6027
2026-01-04 23:33:16.39	92.42	49.88	-38.4	-39.3	23.2	0.00e+00	92	31	0	652214272	50	5952
2026-01-04 23:33:17.40	91.89	50.07	-38.0	-39.0	23.6	0.00e+00	90	31	0	653262848	50	5697
2026-01-04 23:33:18.41	91.36	50.27	-37.5	-38.4	23.9	0.00e+00	49	31	0	655360000	48	5987
2026-01-04 23:33:19.42	90.82	50.46	-37.5	-38.4	24.1	0.00e+00	92	31	0	657457152	48	5985
2026-01-04 23:33:20.43	90.27	50.65	-37.3	-38.1	24.2	0.00e+00	34	31	0	659554304	48	5789
2026-01-04 23:33:21.44	89.71	50.84	-37.2	-38.1	24.2	0.00e+00	92	32	0	661651456	48	5770
2026-01-04 23:33:22.45	89.15	51.03	-37.2	-38.0	24.4	0.00e+00	0	31	0	662700032	48	5758
2026-01-04 23:33:23.46	88.59	51.21	-37.3	-38.2	24.2	0.00e+00	88	31	0	664797184	48	5846
2026-01-04 23:33:24.46	88.02	51.39	-37.5	-38.3	24.1	0.00e+00	92	31	0	666894336	48	5945
2026-01-04 23:33:25.47	87.43	51.57	-37.7	-38.5	23.7	0.00e+00	44	31	0	668991488	48	6095
2026-01-04 23:33:26.48	86.84	51.75	-37.9	-38.8	23.8	0.00e+00	90	31	0	671088640	48	6298
2026-01-04 23:33:27.49	86.25	51.93	-37.4	-38.2	24.1	0.00e+00	11	31	0	672137216	48	5891
2026-01-04 23:33:28.50	85.64	52.10	-37.4	-38.3	24.1	0.00e+00	90	31	0	674234368	48	5905
2026-01-04 23:33:29.51	85.03	52.27	-37.5	-38.4	24.1	0.00e+00	13	31	0	676331520	48	5969
2026-01-04 23:33:30.51	84.42	52.43	-37.7	-38.5	23.9	0.00e+00	92	32	0	678428672	48	6085
2026-01-04 23:33:31.52	83.80	52.60	-37.5	-38.3	24.1	0.00e+00	0	32	0	680525824	48	5929
2026-01-04 23:33:32.53	83.17	52.76	-37.8	-38.7	23.8	0.00e+00	90	32	0	681574400	48	6182
2026-01-04 23:33:33.53	82.54	52.91	-37.7	-38.6	23.9	0.00e+00	92	31	0	683671552	48	6161
2026-01-04 23:33:34.54	81.89	53.07	-37.9	-38.9	23.7	0.00e+00	2	31	0	685768704	48	6320
2026-01-04 23:33:35.55	81.24	53.22	-38.0	-38.9	23.5	0.00e+00	92	31	0	687865856	48	6379
2026-01-04 23:33:36.56	80.58	53.37	-38.2	-39.2	23.3	0.00e+00	27	31	0	689963008	48	6559
2026-01-04 23:33:37.57	79.92	53.51	-37.9	-38.9	23.5	0.00e+00	92	31	0	692060160	48	6328
2026-01-04 23:33:38.58	79.24	53.65	-37.5	-38.4	24.1	0.00e+00	0	31	0	693108736	48	5969
2026-01-04 23:33:39.59	78.57	53.79	-37.5	-38.4	24.0	0.00e+00	34	31	0	695205888	48	5979
2026-01-04 23:33:40.60	77.88	53.92	-37.4	-38.3	24.0	0.00e+00	92	31	0	697303040	48	5908
2026-01-04 23:33:41.61	77.19	54.05	-37.0	-37.8	24.5	0.00e+00	27	31	0	699400192	48	5595
2026-01-04 23:33:42.62	76.49	54.18	-36.7	-37.5	24.8	0.00e+00	90	31	0	701497344	46	6053
2026-01-04 23:33:43.64	75.78	54.30	-36.3	-37.1	25.2	0.00e+00	53	31	0	702545920	46	5762
2026-01-04 23:33:44.65	75.08	54.42	-36.4	-37.2	24.8	0.00e+00	92	31	0	704643072	46	5836
2026-01-04 23:33:45.66	74.36	54.53	-36.6	-37.4	24.9	0.00e+00	0	31	0	706740224	46	5975
2026-01-04 23:33:46.67	73.64	54.64	-36.6	-37.4	24.8	0.00e+00	90	31	0	708837376	46	6028
2026-01-04 23:33:47.68	72.91	54.74	-36.5	-37.2	24.9	0.00e+00	92	31	0	710934528	46	5893
2026-01-04 23:33:48.69	72.18	54.84	-37.0	-37.9	24.5	0.00e+00	66	31	0	711983104	46	6333
2026-01-04 23:33:49.70	71.45	54.94	-36.8	-37.7	24.4	0.00e+00	92	32	0	714080256	46	6186
2026-01-04 23:33:50.71	70.71	55.03	-36.7	-37.5	25.2	0.00e+00	0	32	0	716177408	46	6038
2026-01-04 23:33:51.71	69.97	55.11	-36.0	-36.7	25.4	0.00e+00	91	31	0	718274560	46	5563
2026-01-04 23:33:52.72	69.22	55.20	-35.8	-36.6	25.7	0.00e+00	0	32	0	720371712	46	5442
2026-01-04 23:33:53.73	68.47	55.27	-35.6	-36.3	25.7	0.00e+00	91	31	0	721420288	44	5951
2026-01-04 23:33:54.74	67.71	55.35	-35.6	-36.4	25.7	0.00e+00	0	32	0	723517440	44	5978
2026-01-04 23:33:55.75	66.95	55.41	-35.8	-36.6	25.7	0.00e+00	0	31	0	725614592	44	6129
2026-01-04 23:33:56.76	66.18	55.47	-35.6	-36.3	25.9	0.00e+00	91	31	0	727711744	44	5953
2026-01-04 23:33:57.77	65.41	55.53	-35.4	-36.2	25.9	0.00e+00	34	31	0	729808896	44	5853
2026-01-04 23:33:58.78	64.64	55.58	-35.5	-36.3	25.8	0.00e+00	92	31	0	730857472	44	5933
2026-01-04 23:33:59.79	63.87	55.63	-35.5	-36.2	25.8	0.00e+00	33	31	0	732954624	44	5875
2026-01-04 23:34:00.80	63.09	55.67	-35.0	-35.8	26.2	0.00e+00	92	31	0	735051776	44	5575
2026-01-04 23:34:01.81	62.31	55.71	-35.1	-35.9	26.0	0.00e+00	0	32	0	737148928	44	5647
2026-01-04 23:34:02.81	61.54	55.74	-35.4	-36.1	26.0	0.00e+00	33	31	0	739246080	44	5818
2026-01-04 23:34:03.83	60.75	55.77	-35.3	-36.0	26.0	0.00e+00	92	31	0	740294656	44	5728
2026-01-04 23:34:04.83	59.97	55.79	-35.4	-36.2	25.9	0.00e+00	50	31	0	742391808	44	5861
2026-01-04 23:34:05.85	59.18	55.80	-35.5	-36.3	25.6	0.00e+00	92	31	0	744488960	44	5917
2026-01-04 23:34:06.86	58.40	55.82	-36.2	-37.0	25.4	0.00e+00	48	31	0	746586112	44	6395
2026-01-04 23:34:07.86	57.62	55.82	-35.8	-36.5	25.5	0.00e+00	92	31	0	748683264	44	6088
2026-01-04 23:34:08.87	56.83	55.82	-36.1	-36.9	25.4	0.00e+00	0	31	0	749731840	44	6347
2026-01-04 23:34:09.88	56.05	55.81	-36.5	-37.3	25.0	0.00e+00	92	31	0	751828992	44	6627
2026-01-04 23:34:10.89	55.26	55.80	-35.8	-36.6	25.4	0.00e+00	90	32	0	753926144	44	6124
2026-01-04 23:34:11.90	54.48	55.79	-35.9	-36.7	25.0	0.00e+00	2	31	0	756023296	44	6192
2026-01-04 23:34:12.91	53.69	55.77	-36.0	-36.7	25.5	0.00e+00	91	32	0	758120448	44	6244
2026-01-04 23:34:13.92	52.91	55.74	-35.8	-36.5	25.6	0.00e+00	0	31	0	760217600	44	6094
2026-01-04 23:34:14.93	52.13	55.71	-36.0	-36.8	25.1	0.00e+00	91	31	0	761266176	44	6299
2026-01-04 23:34:15.94	51.35	55.67	-35.8	-36.6	25.6	0.00e+00	0	32	0	763363328	44	6111
2026-01-04 23:34:16.95	50.58	55.63	-35.5	-36.3	25.7	0.00e+00	91	32	0	765460480	44	5914
2026-01-04 23:34:17.96	49.80	55.58	-35.5	-36.2	25.9	0.00e+00	68	31	0	767557632	44	5877
2026-01-04 23:34:18.97	49.03	55.53	-34.6	-35.3	26.6	0.00e+00	4	32	0	769654784	42	5960
2026-01-04 23:34:19.98	48.26	55.47	-34.4	-35.1	26.7	0.00e+00	92	31	0	770703360	42	5804
2026-01-04 23:34:20.99	47.50	55.41	-34.6	-35.3	26.5	0.00e+00	32	32	0	772800512	42	5904
2026-01-04 23:34:22.00	46.74	55.34	-34.4	-35.1	26.7	0.00e+00	92	32	0	774897664	42	5799
2026-01-04 23:34:23.01	45.98	55.27	-34.3	-35.0	26.6	0.00e+00	50	31	0	776994816	42	5752
2026-01-04 23:34:24.01	45.23	55.20	-34.1	-34.8	26.8	0.00e+00	92	32	0	779091968	42	5568
2026-01-04 23:34:25.02	44.49	55.12	-33.9	-34.6	27.0	0.00e+00	24	31	0	780140544	42	5474
2026-01-04 23:34:26.03	43.74	55.03	-34.0	-34.7	27.0	0.00e+00	33	31	0	782237696	42	5511
2026-01-04 23:34:27.04	43.00	54.94	-34.3	-35.0	26.7	0.00e+00	92	32	0	784334848	42	5735
2026-01-04 23:34:28.05	42.27	54.84	-35.0	-35.7	26.2	0.00e+00	0	31	0	786432000	42	6204
2026-01-04 23:34:29.06	41.54	54.74	-35.4	-36.1	25.8	0.00e+00	92	31	0	788529152	42	6504
2026-01-04 23:34:30.07	40.81	54.64	-35.4	-36.1	26.0	0.00e+00	0	31	0	789577728	42	6488
2026-01-04 23:34:31.09	40.08	54.53	-35.7	-36.5	25.9	0.00e+00	92	31	0	791674880	44	6043
2026-01-04 23:34:32.10	39.37	54.42	-35.3	-36.0	25.7	0.00e+00	49	31	0	793772032	44	5728
2026-01-04 23:34:33.11	38.66	54.30	-35.9	-36.7	25.1	0.00e+00	92	31	0	795869184	44	6187
2026-01-04 23:34:34.12	37.96	54.18	-36.7	-37.5	25.2	0.00e+00	85	31	0	797966336	44	6801
2026-01-04 23:34:35.13	37.26	54.05	-36.2	-37.0	25.0	0.00e+00	0	32	0	799014912	46	5733
2026-01-04 23:34:36.14	36.57	53.92	-36.4	-37.2	24.9	0.00e+00	92	32	0	801112064	46	5884
2026-01-04 23:34:37.15	35.89	53.79	-36.5	-37.3	24.8	0.00e+00	0	31	0	803209216	46	5899
2026-01-04 23:34:38.16	35.21	53.65	-36.7	-37.5	24.9	0.00e+00	92	31	0	805306368	46	6039
2026-01-04 23:34:39.17	34.54	53.51	-36.6	-37.4	24.9	0.00e+00	0	31	0	807403520	46	5998
2026-01-04 23:34:40.17	33.89	53.37	-36.5	-37.3	25.0	0.00e+00	92	31	0	808452096	46	5956
2026-01-04 23:34:41.18	33.23	53.22	-36.3	-37.1	25.2	0.00e+00	35	31	0	810549248	46	5801
2026-01-04 23:34:42.19	32.58	53.07	-36.3	-37.1	25.2	0.00e+00	0	31	0	812646400	46	5775
2026-01-04 23:34:43.20	31.93	52.92	-36.4	-37.2	25.2	0.00e+00	92	31	0	814743552	46	5834
2026-01-04 23:34:44.21	31.30	52.76	-36.4	-37.2	25.2	0.00e+00	48	32	0	816840704	46	5830
2026-01-04 23:34:45.22	30.67	52.60	-36.2	-36.9	25.2	0.00e+00	92	31	0	817889280	46	5691
2026-01-04 23:34:46.23	30.04	52.44	-36.1	-36.9	25.3	0.00e+00	47	31	0	819986432	46	5662
2026-01-04 23:34:47.24	29.43	52.27	-36.3	-37.1	25.2	0.00e+00	92	31	0	822083584	46	5778
2026-01-04 23:34:48.25	28.82	52.10	-36.5	-37.3	25.0	0.00e+00	13	31	0	824180736	46	5946
2026-01-04 23:34:49.26	28.21	51.93	-36.7	-37.6	24.6	0.00e+00	17	31	0	826277888	46	6110
2026-01-04 23:34:50.27	27.62	51.75	-37.0	-37.8	24.6	0.00e+00	91	31	0	828375040	46	6264
2026-01-04 23:34:51.28	27.03	51.58	-37.3	-38.1	24.2	0.00e+00	0	32	0	829423616	46	6514
2026-01-04 23:34:52.29	26.45	51.40	-36.8	-37.5	24.8	0.00e+00	91	31	0	831520768	46	6100
2026-01-04 23:34:53.29	25.88	51.22	-37.0	-37.8	24.5	0.00e+00	48	31	0	833617920	46	6289
2026-01-04 23:34:54.30	25.31	51.03	-37.9	-38.7	23.7	0.00e+00	92	31	0	835715072	48	6244
2026-01-04 23:34:55.31	24.75	50.85	-38.5	-39.4	23.2	0.00e+00	0	31	0	837812224	48	6763
2026-01-04 23:34:56.32	24.20	50.66	-38.6	-39.6	23.1	0.00e+00	88	32	0	838860800	48	6850
2026-01-04 23:34:57.33	23.66	50.47	-38.5	-39.4	23.3	0.00e+00	89	31	0	840957952	48	6737
2026-01-04 23:34:58.34	23.12	50.27	-38.4	-39.3	23.2	0.00e+00	0	31	0	843055104	48	6641
2026-01-04 23:34:59.35	22.58	50.08	-38.9	-39.9	22.7	0.00e+00	90	31	0	845152256	50	6336
2026-01-04 23:35:00.36	22.06	49.88	-39.4	-40.4	22.2	0.00e+00	0	31	0	847249408	50	6731
2026-01-04 23:35:01.37	21.54	49.69	-39.8	-40.9	21.8	0.00e+00	90	31	0	848297984	52	6376
2026-01-04 23:35:02.38	21.03	49.49	-40.0	-41.1	21.6	0.00e+00	0	31	0	850395136	52	6509
2026-01-04 23:35:03.39	20.52	49.29	-40.7	-41.9	20.9	0.00e+00	92	32	0	852492288	52	7130
2026-01-04 23:35:04.40	20.02	49.08	-40.7	-42.0	20.9	0.00e+00	0	31	0	854589440	54	6399
2026-01-04 23:35:05.41	19.53	48.88	-41.1	-42.4	20.4	0.00e+00	52	31	0	856686592	54	6695
2026-01-04 23:35:06.42	19.05	48.68	-41.5	-42.9	19.9	0.00e+00	92	31	0	857735168	54	7165
2026-01-04 23:35:07.43	18.57	48.47	-41.6	-43.0	19.8	0.00e+00	0	31	0	859832320	54	7212
2026-01-04 23:35:08.44	18.09	48.26	-40.9	-42.2	20.6	0.00e+00	92	31	0	861929472	54	6568
2026-01-04 23:35:09.44	17.63	48.06	-41.5	-42.8	19.9	0.00e+00	50	31	0	864026624	54	7073
2026-01-04 23:35:10.45	17.17	47.85	-42.2	-43.8	19.4	0.00e+00	92	31	0	866123776	56	7014
2026-01-04 23:35:11.46	16.72	47.64	-41.9	-43.3	19.4	0.00e+00	0	31	0	867172352	56	6689
2026-01-04 23:35:12.47	16.27	47.42	-41.0	-42.3	20.6	0.00e+00	14	31	0	869269504	56	5917
2026-01-04 23:35:13.48	15.83	47.21	-40.9	-42.1	20.9	0.00e+00	90	31	0	871366656	56	5795
2026-01-04 23:35:14.49	15.40	47.00	-40.7	-41.9	20.9	0.00e+00	0	31	0	873463808	54	6342
2026-01-04 23:35:15.50	14.97	46.79	-40.7	-41.9	20.8	0.00e+00	92	31	0	875560960	54	6360
2026-01-04 23:35:16.51	14.54	46.57	-40.7	-41.9	20.9	0.00e+00	6	31	0	876609536	54	6384
2026-01-04 23:35:17.52	14.12	46.36	-41.4	-42.7	20.3	0.00e+00	90	31	0	878706688	54	6975
2026-01-04 23:35:18.53	13.71	46.14	-41.0	-42.3	20.6	0.00e+00	5	31	0	880803840	54	6625
2026-01-04 23:35:19.49	13.33	45.94	-40.5	-41.6	21.2	0.00e+00	44	31	0	882900992	54	6156
2026-01-04 23:35:20.50	12.92	45.72	-40.3	-41.5	21.3	0.00e+00	92	31	0	884998144	54	6051
2026-01-04 23:35:21.51	12.53	45.50	-40.4	-41.5	21.3	0.00e+00	5	31	0	886046720	54	6100
2026-01-04 23:35:22.51	12.14	45.29	-40.3	-41.4	21.5	0.00e+00	92	31	0	888143872	54	6011
2026-01-04 23:35:23.52	11.76	45.07	-40.0	-41.1	21.6	0.00e+00	28	31	0	890241024	52	6491
2026-01-04 23:35:24.53	11.38	44.85	-40.0	-41.2	21.7	0.00e+00	92	31	0	892338176	52	6556
2026-01-04 23:35:25.54	11.00	44.63	-40.4	-41.5	21.2	0.00e+00	0	31	0	894435328	52	6839
2026-01-04 23:35:26.55	10.64	44.42	-40.3	-41.5	21.3	0.00e+00	92	31	0	896532480	52	6813
2026-01-04 23:35:27.56	10.27	44.20	-39.8	-40.9	21.9	0.00e+00	0	31	0	897581056	52	6336
2026-01-04 23:35:28.57	9.91	43.98	-39.3	-40.3	22.4	0.00e+00	30	31	0	899678208	52	5954
2026-01-04 23:35:29.58	9.56	43.76	-39.4	-40.4	22.2	0.00e+00	92	31	0	901775360	52	6007
2026-01-04 23:35:30.59	9.21	43.54	-39.6	-40.6	22.0	0.00e+00	30	31	0	903872512	52	6166
2026-01-04 23:35:31.60	8.86	43.33	-40.1	-41.3	21.4	0.00e+00	92	31	0	905969664	52	6644
2026-01-04 23:35:32.61	8.52	43.11	-40.1	-41.2	21.6	0.00e+00	55	31	0	907018240	52	6564
2026-01-04 23:35:33.62	8.19	42.89	-39.8	-40.9	21.8	0.00e+00	92	31	0	909115392	52	6367
2026-01-04 23:35:34.63	7.86	42.67	-39.8	-40.9	21.9	0.00e+00	56	31	0	911212544	52	6321
2026-01-04 23:35:35.64	7.53	42.46	-39.7	-40.8	21.8	0.00e+00	85	31	0	913309696	52	6266
2026-01-04 23:35:36.65	7.21	42.24	-39.9	-41.1	21.6	0.00e+00	92	31	0	915406848	52	6474
2026-01-04 23:35:37.66	6.89	42.02	-40.3	-41.4	21.2	0.00e+00	7	31	0	916455424	52	6755
2026-01-04 23:35:38.67	6.58	41.80	-40.5	-41.7	21.1	0.00e+00	92	31	0	918552576	52	6930
2026-01-04 23:35:39.68	6.27	41.59	-40.5	-41.7	21.1	0.00e+00	8	31	0	920649728	52	6932
2026-01-04 23:35:40.68	5.97	41.37	-40.5	-41.7	21.1	0.00e+00	92	31	0	922746880	52	6994
2026-01-04 23:35:41.69	5.67	41.16	-40.6	-41.8	21.1	0.00e+00	0	31	0	924844032	54	6270
2026-01-04 23:35:42.70	5.37	40.94	-40.2	-41.3	21.4	0.00e+00	92	31	0	925892608	54	5948
2026-01-04 23:35:43.71	5.08	40.73	-40.2	-41.3	21.4	0.00e+00	90	31	0	927989760	54	5943
2026-01-04 23:35:44.72	4.79	40.51	-40.3	-41.5	21.3	0.00e+00	0	31	0	930086912	54	6061
2026-01-04 23:35:45.73	4.51	40.30	-40.4	-41.6	21.2	0.00e+00	92	31	0	932184064	54	6128
2026-01-04 23:35:46.74	4.22	40.09	-40.3	-41.4	21.3	0.00e+00	32	31	0	934281216	54	6031
2026-01-04 23:35:47.74	3.95	39.88	-40.3	-41.4	21.3	0.00e+00	92	31	0	935329792	54	6019
2026-01-04 23:35:48.75	3.68	39.66	-40.1	-41.3	21.4	0.00e+00	32	31	0	937426944	54	5915
2026-01-04 23:35:49.76	3.41	39.45	-40.0	-41.2	21.5	0.00e+00	91	31	0	939524096	54	5831
2026-01-04 23:35:50.77	3.14	39.24	-39.8	-40.9	21.8	0.00e+00	0	31	0	941621248	52	6384
2026-01-04 23:35:51.78	2.88	39.03	-39.7	-40.8	21.9	0.00e+00	50	31	0	943718400	52	6259
2026-01-04 23:35:52.79	2.62	38.82	-39.7	-40.8	22.0	0.00e+00	90	31	0	944766976	52	6262
2026-01-04 23:35:53.80	2.36	38.61	-39.9	-41.0	21.7	0.00e+00	52	31	0	946864128	52	6453
2026-01-04 23:35:54.81	2.11	38.40	-40.1	-41.2	21.4	0.00e+00	92	31	0	948961280	52	6571
2026-01-04 23:35:55.82	1.86	38.19	-40.4	-41.6	20.9	0.00e+00	0	31	0	951058432	52	6884
2026-01-04 23:35:56.83	1.61	37.99	-40.7	-41.9	20.9	0.00e+00	91	31	0	953155584	54	6388
2026-01-04 23:35:57.84	1.37	37.78	-40.6	-41.8	20.9	0.00e+00	0	31	0	954204160	54	6264
2026-01-04 23:35:58.85	1.13	37.57	-40.3	-41.5	20.8	0.00e+00	0	32	0	956301312	54	6050
2026-01-04 23:35:59.86	0.89	37.37	-40.2	-41.3	21.4	0.00e+00	92	31	0	958398464	54	5959
2026-01-04 23:36:00.87	0.65	37.16	-40.0	-41.1	21.6	0.00e+00	2	31	0	960495616	54	5826
2026-01-04 23:36:01.88	0.42	36.96	-40.2	-41.4	21.3	0.00e+00	92	31	0	962592768	54	6012
2026-01-04 23:36:02.89	0.19	36.76	-40.2	-41.4	21.4	0.00e+00	0	31	0	963641344	54	6011
2026-01-04 23:36:03.90	359.97	36.55	-40.1	-41.2	21.5	0.00e+00	0	31	0	965738496	54	5862
2026-01-04 23:36:04.91	359.75	36.35	-39.8	-40.9	21.7	0.00e+00	0	31	0	967835648	54	5634
2026-01-04 23:36:05.92	359.53	36.15	-39.8	-41.0	21.5	0.00e+00	0	31	0	969932800	54	5699
2026-01-04 23:36:06.93	359.31	35.95	-40.0	-41.2	21.6	0.00e+00	92	31	0	972029952	54	5852
2026-01-04 23:36:07.94	359.09	35.75	-40.1	-41.3	21.4	0.00e+00	0	31	0	973078528	54	5911
2026-01-04 23:36:08.95	358.88	35.55	-40.5	-41.8	21.1	0.00e+00	92	31	0	975175680	54	6259
2026-01-04 23:36:09.96	358.67	35.35	-41.0	-42.3	20.4	0.00e+00	29	31	0	977272832	54	6650
2026-01-04 23:36:10.97	358.47	35.16	-40.8	-42.1	20.5	0.00e+00	3	31	0	979369984	54	6502
2026-01-04 23:36:11.98	358.26	34.96	-41.3	-42.7	20.1	0.00e+00	51	31	0	981467136	54	6966
2026-01-04 23:36:12.99	358.06	34.77	-40.8	-42.1	20.6	0.00e+00	53	31	0	982515712	54	6529
2026-01-04 23:36:14.00	357.86	34.57	-40.7	-42.0	20.8	0.00e+00	90	31	0	984612864	54	6397
2026-01-04 23:36:15.01	357.66	34.38	-40.5	-41.7	21.1	0.00e+00	52	31	0	986710016	54	6190
2026-01-04 23:36:16.02	357.47	34.18	-40.1	-41.2	21.5	0.00e+00	92	31	0	988807168	54	5891
2026-01-04 23:36:17.03	357.28	33.99	-40.1	-41.2	21.5	0.00e+00	2	31	0	990904320	54	5872
2026-01-04 23:36:18.04	357.09	33.80	-40.2	-41.4	21.3	0.00e+00	92	31	0	993001472	54	5973
2026-01-04 23:36:19.05	356.90	33.61	-40.0	-41.2	21.5	0.00e+00	0	31	0	994050048	54	5842
2026-01-04 23:36:20.06	356.71	33.42	-40.6	-41.9	21.1	0.00e+00	0	31	0	996147200	54	6320
2026-01-04 23:36:21.07	356.53	33.23	-40.5	-41.7	20.7	0.00e+00	0	31	0	998244352	54	6241
2026-01-04 23:36:22.08	356.35	33.04	-40.9	-42.3	20.5	0.00e+00	0	31	0	1000341504	54	6665
2026-01-04 23:36:23.09	356.17	32.86	-41.1	-42.4	20.2	0.00e+00	91	31	0	1002438656	54	6752
2026-01-04 23:36:24.10	355.99	32.67	-41.0	-42.3	20.3	0.00e+00	0	31	0	1003487232	54	6672
2026-01-04 23:36:25.11	355.82	32.48	-40.7	-42.0	20.7	0.00e+00	90	31	0	1005584384	54	6433
2026-01-04 23:36:26.12	355.65	32.30	-40.6	-41.8	20.8	0.00e+00	0	31	0	1007681536	54	6306
2026-01-04 23:36:27.13	355.48	32.12	-40.5	-41.8	20.9	0.00e+00	0	31	0	1009778688	54	6248
2026-01-04 23:36:28.14	355.31	31.93	-40.8	-42.1	20.5	0.00e+00	0	31	0	1011875840	54	6499
2026-01-04 23:36:29.15	355.14	31.75	-40.7	-42.0	20.8	0.00e+00	51	31	0	1012924416	54	6413
2026-01-04 23:36:30.16	354.98	31.57	-40.7	-42.0	20.7	0.00e+00	92	31	0	1015021568	54	6393
2026-01-04 23:36:31.17	354.81	31.39	-40.4	-41.6	21.0	0.00e+00	52	31	0	1017118720	54	6118
2026-01-04 23:36:32.17	354.65	31.21	-40.4	-41.6	21.0	0.00e+00	92	31	0	1019215872	54	6128
2026-01-04 23:36:33.18	354.49	31.03	-40.2	-41.4	21.3	0.00e+00	30	31	0	1021313024	54	5965
2026-01-04 23:36:34.19	354.34	30.85	-39.9	-41.1	21.5	0.00e+00	16	31	0	1022361600	54	5783
2026-01-04 23:36:35.20	354.18	30.68	-39.7	-40.9	21.6	0.00e+00	0	31	0	1024458752	52	6322
2026-01-04 23:36:36.21	354.03	30.50	-39.8	-41.0	21.8	0.00e+00	51	31	0	1026555904	52	6399
2026-01-04 23:36:37.22	353.87	30.33	-39.8	-41.0	21.6	0.00e+00	17	31	0	1028653056	52	6432
2026-01-04 23:36:38.23	353.72	30.15	-40.0	-41.2	21.5	0.00e+00	51	31	0	1030750208	52	6561
2026-01-04 23:36:39.24	353.57	29.98	-40.3	-41.5	21.2	0.00e+00	92	31	0	1031798784	52	6804
2026-01-04 23:36:40.25	353.43	29.80	-40.2	-41.4	21.3	0.00e+00	0	31	0	1033895936	52	6721
2026-01-04 23:36:41.27	353.28	29.63	-40.3	-41.5	21.1	0.00e+00	83	31	0	1035993088	52	6802
2026-01-04 23:36:42.27	353.14	29.46	-40.2	-41.5	21.1	0.00e+00	0	31	0	1038090240	52	6778
2026-01-04 23:36:43.28	352.99	29.29	-40.3	-41.5	21.1	0.00e+00	0	31	0	1040187392	52	6821
2026-01-04 23:36:44.29	352.85	29.12	-40.4	-41.6	21.0	0.00e+00	0	31	0	1041235968	52	6902
2026-01-04 23:36:45.30	352.71	28.95	-40.4	-41.6	20.9	0.00e+00	0	31	0	1043333120	52	6891
2026-01-04 23:36:46.31	352.57	28.78	-40.2	-41.4	21.2	0.00e+00	90	31	0	1045430272	52	6724
2026-01-04 23:36:47.32	352.44	28.62	-40.5	-41.7	21.0	0.00e+00	28	31	0	1047527424	52	6954
2026-01-04 23:36:48.33	352.30	28.45	-40.2	-41.3	21.4	0.00e+00	90	31	0	1049624576	52	6669
2026-01-04 23:36:49.34	352.17	28.28	-39.9	-41.0	21.6	0.00e+00	0	31	0	1050673152	52	6441
2026-01-04 23:36:50.35	352.03	28.12	-39.9	-41.1	21.5	0.00e+00	0	31	0	1052770304	52	6491
2026-01-04 23:36:51.36	351.90	27.96	-39.9	-41.1	21.5	0.00e+00	0	31	0	1054867456	52	6483
2026-01-04 23:36:52.37	351.77	27.79	-39.9	-41.0	21.6	0.00e+00	27	31	0	1056964608	52	6458
2026-01-04 23:36:53.38	351.65	27.63	-39.8	-41.0	21.6	0.00e+00	28	31	0	1059061760	52	6404
2026-01-04 23:36:54.38	351.52	27.47	-39.6	-40.8	21.9	0.00e+00	26	31	0	1061158912	52	6251
2026-01-04 23:36:55.39	351.39	27.31	-39.6	-40.7	21.8	0.00e+00	92	31	0	1062207488	52	6211
2026-01-04 23:36:56.40	351.27	27.15	-39.4	-40.5	22.0	0.00e+00	5	31	0	1064304640	52	6083
2026-01-04 23:36:57.41	351.15	26.99	-39.4	-40.5	22.1	0.00e+00	80	31	0	1066401792	52	6066
2026-01-04 23:36:58.42	351.02	26.83	-39.2	-40.3	22.2	0.00e+00	0	31	0	1068498944	52	5915
2026-01-04 23:36:59.43	350.90	26.67	-39.3	-40.4	22.2	0.00e+00	0	31	0	1070596096	52	5997
2026-01-04 23:37:00.44	350.78	26.52	-39.1	-40.1	22.3	0.00e+00	0	31	0	1071644672	52	5803
2026-01-04 23:37:01.45	350.67	26.36	-39.1	-40.1	22.5	0.00e+00	0	31	0	1073741824	52	5805
2026-01-04 23:37:02.46	350.55	26.21	-39.2	-40.3	22.2	0.00e+00	92	31	0	1075838976	52	5933
2026-01-04 23:37:03.47	350.43	26.05	-39.1	-40.2	22.2	0.00e+00	0	31	0	1077936128	52	5864
2026-01-04 23:37:04.48	350.32	25.90	-39.1	-40.2	22.4	0.00e+00	92	31	0	1080033280	52	5846
2026-01-04 23:37:05.49	350.21	25.74	-39.1	-40.1	22.5	0.00e+00	0	31	0	1081081856	52	5805
2026-01-04 23:37:06.50	350.09	25.59	-39.0	-40.0	22.4	0.00e+00	28	31	0	1083179008	52	5752
2026-01-04 23:37:07.51	349.98	25.44	-38.9	-39.9	22.7	0.00e+00	0	31	0	1085276160	52	5637
2026-01-04 23:37:08.51	349.87	25.29	-39.0	-40.0	22.6	0.00e+00	0	31	0	1087373312	52	5718
2026-01-04 23:37:09.52	349.76	25.14	-38.9	-39.9	22.3	0.00e+00	92	31	0	1089470464	52	5683
2026-01-04 23:37:10.53	349.65	24.99	-38.8	-39.8	22.7	0.00e+00	26	31	0	1090519040	52	5615
2026-01-04 23:37:11.54	349.55	24.84	-38.9	-39.9	22.6	0.00e+00	91	31	0	1092616192	52	5669
2026-01-04 23:37:12.55	349.44	24.70	-38.7	-39.7	22.7	0.00e+00	60	31	0	1094713344	50	6239
2026-01-04 23:37:13.56	349.34	24.55	-39.0	-40.0	22.5	0.00e+00	4	31	0	1096810496	50	6424
2026-01-04 23:37:14.57	349.23	24.40	-39.0	-40.0	22.5	0.00e+00	60	31	0	1098907648	50	6415
2026-01-04 23:37:15.58	349.13	24.26	-39.1	-40.2	22.5	0.00e+00	24	31	0	1099956224	50	6570
2026-01-04 23:37:16.59	349.03	24.11	-39.2	-40.2	22.3	0.00e+00	92	31	0	1102053376	50	6591
2026-01-04 23:37:17.60	348.93	23.97	-39.1	-40.1	22.4	0.00e+00	6	31	0	1104150528	50	6536
2026-01-04 23:37:18.61	348.83	23.82	-39.2	-40.3	22.3	0.00e+00	92	31	0	1106247680	50	6664
2026-01-04 23:37:19.62	348.73	23.68	-39.2	-40.3	22.3	0.00e+00	61	31	0	1108344832	50	6624
2026-01-04 23:37:20.63	348.63	23.54	-39.2	-40.2	22.3	0.00e+00	48	31	0	1109393408	50	6609
2026-01-04 23:37:21.64	348.53	23.40	-39.2	-40.3	22.2	0.00e+00	7	31	0	1111490560	50	6658
2026-01-04 23:37:22.65	348.44	23.25	-39.0	-40.1	22.5	0.00e+00	6	32	0	1113587712	50	6488
2026-01-04 23:37:23.66	348.34	23.11	-39.1	-40.1	22.3	0.00e+00	2	31	0	1115684864	50	6504
2026-01-04 23:37:24.67	348.25	22.98	-39.4	-40.5	21.9	0.00e+00	7	31	0	1117782016	50	6812
2026-01-04 23:37:25.68	348.15	22.84	-39.4	-40.5	22.2	0.00e+00	92	31	0	1118830592	50	6806
2026-01-04 23:37:26.69	348.06	22.70	-38.9	-39.9	22.5	0.00e+00	7	31	0	1120927744	50	6371
2026-01-04 23:37:27.70	347.97	22.56	-38.8	-39.8	22.7	0.00e+00	92	31	0	1123024896	50	6274
2026-01-04 23:37:28.71	347.88	22.42	-38.9	-39.9	22.6	0.00e+00	27	31	0	1125122048	50	6365
2026-01-04 23:37:29.72	347.79	22.29	-39.0	-40.0	22.5	0.00e+00	0	31	0	1127219200	50	6455
2026-01-04 23:37:30.73	347.70	22.15	-38.7	-39.7	22.6	0.00e+00	0	31	0	1129316352	50	6185
2026-01-04 23:37:31.74	347.61	22.02	-38.7	-39.7	22.8	0.00e+00	0	31	0	1130364928	50	6177
2026-01-04 23:37:32.75	347.52	21.88	-38.6	-39.6	22.7	0.00e+00	91	32	0	1132462080	50	6149
2026-01-04 23:37:33.76	347.43	21.75	-38.6	-39.6	22.7	0.00e+00	26	31	0	1134559232	50	6164
2026-01-04 23:37:34.77	347.35	21.62	-38.5	-39.4	22.9	0.00e+00	92	31	0	1136656384	50	6031
2026-01-04 23:37:35.78	347.26	21.48	-38.6	-39.6	22.8	0.00e+00	54	31	0	1138753536	50	6133
2026-01-04 23:37:36.79	347.18	21.35	-38.4	-39.4	22.9	0.00e+00	28	31	0	1139802112	50	5980
2026-01-04 23:37:37.80	347.09	21.22	-38.4	-39.4	23.0	0.00e+00	2	31	0	1141899264	50	5980
2026-01-04 23:37:38.81	347.01	21.09	-38.5	-39.5	22.9	0.00e+00	0	31	0	1143996416	50	6086
2026-01-04 23:37:39.82	346.93	20.96	-38.5	-39.4	22.7	0.00e+00	16	31	0	1146093568	50	6029
2026-01-04 23:37:40.83	346.84	20.83	-38.7	-39.7	22.7	0.00e+00	55	31	0	1148190720	50	6205
2026-01-04 23:37:41.84	346.76	20.70	-38.7	-39.7	22.4	0.00e+00	92	31	0	1149239296	50	6218
2026-01-04 23:37:42.85	346.68	20.57	-38.7	-39.8	22.7	0.00e+00	0	31	0	1151336448	50	6256
2026-01-04 23:37:43.86	346.60	20.45	-38.6	-39.6	22.8	0.00e+00	68	31	0	1153433600	50	6152
2026-01-04 23:37:44.87	346.52	20.32	-38.9	-40.0	22.7	0.00e+00	0	31	0	1155530752	50	6418
2026-01-04 23:37:45.88	346.44	20.19	-38.5	-39.5	22.7	0.00e+00	0	31	0	1157627904	50	6082
2026-01-04 23:37:46.89	346.37	20.07	-38.5	-39.5	22.6	0.00e+00	0	31	0	1158676480	50	6065
2026-01-04 23:37:47.89	346.29	19.94	-39.0	-40.0	22.5	0.00e+00	0	31	0	1160773632	50	6426
2026-01-04 23:37:48.90	346.21	19.82	-38.6	-39.6	22.8	0.00e+00	91	31	0	1162870784	50	6111
2026-01-04 23:37:49.92	346.14	19.69	-38.5	-39.5	22.9	0.00e+00	0	31	0	1164967936	50	6075
2026-01-04 23:37:50.93	346.06	19.57	-38.5	-39.5	22.8	0.00e+00	92	31	0	1167065088	50	6046
2026-01-04 23:37:51.94	345.99	19.45	-38.5	-39.5	22.8	0.00e+00	24	31	0	1168113664	50	6064
2026-01-04 23:37:52.94	345.92	19.32	-38.5	-39.5	22.8	0.00e+00	24	31	0	1170210816	50	6059
2026-01-04 23:37:53.96	345.84	19.20	-38.5	-39.5	22.9	0.00e+00	0	31	0	1172307968	50	6040
2026-01-04 23:37:54.96	345.77	19.08	-38.2	-39.1	23.1	0.00e+00	4	31	0	1174405120	50	5821
2026-01-04 23:37:55.98	345.70	18.96	-38.3	-39.2	23.1	0.00e+00	92	31	0	1176502272	50	5879
2026-01-04 23:37:56.99	345.63	18.84	-38.3	-39.2	22.9	0.00e+00	25	31	0	1177550848	50	5885
2026-01-04 23:37:58.00	345.55	18.72	-38.5	-39.4	22.9	0.00e+00	90	31	0	1179648000	50	6020
2026-01-04 23:37:59.01	345.48	18.60	-38.3	-39.3	22.9	0.00e+00	56	31	0	1181745152	50	5933
2026-01-04 23:38:00.02	345.41	18.48	-38.4	-39.3	22.9	0.00e+00	56	31	0	1183842304	50	5960
2026-01-04 23:38:01.03	345.35	18.36	-38.3	-39.2	23.0	0.00e+00	0	31	0	1185939456	50	5891
2026-01-04 23:38:02.04	345.28	18.24	-38.5	-39.5	22.8	0.00e+00	56	31	0	1186988032	50	6075
2026-01-04 23:38:03.04	345.21	18.13	-38.4	-39.4	22.9	0.00e+00	40	31	0	1189085184	50	5994
2026-01-04 23:38:04.06	345.14	18.01	-38.4	-39.4	22.9	0.00e+00	2	31	0	1191182336	50	5970
