passes_logs/2026/01/04/R4.6S_Anadyr/R4.6S_Anadyr__20260104_045740_AQUA_rec.log

#Pass ID: 20260104_045740_AQUA
#Satellite: AQUA
#Configuration: AQUA
#almurnet v.1.7.20251203
#Start time: 2026-01-04 04:57:41

#Version: 2.2.20231116
#Station: R4.6S_Anadyr
#Location: 177.4865 lon 64.73178 lat
#TLE: 1 27424U 02022A   25365.92641127  .00002078  00000+0  42628-3 0  9999
#TLE: 2 27424  98.4058 327.1196 0001962  94.7781 340.6230 14.61783896258835

#Time	Az	El	Level	Level2	SNR	BER	BlckErr	Temp	State	Recorded	gain1	gain2
2026-01-04 04:57:41.67	243.16	0.06	-51.4	-62.1	3.5	8.45e-01	0	37	0	0	60	46228
2026-01-04 04:57:42.67	243.27	0.10	-53.3	-71.3	3.5	3.04e+01	0	38	104	0	60	141737
2026-01-04 04:57:43.68	243.38	0.14	-53.2	-71.2	3.5	3.04e+01	0	38	104	0	60	140248
2026-01-04 04:57:44.69	243.49	0.18	-52.7	-70.9	3.5	3.04e+01	0	38	104	0	60	135277
2026-01-04 04:57:45.70	243.60	0.22	-52.5	-70.4	3.5	3.04e+01	0	38	104	0	60	127525
2026-01-04 04:57:46.71	243.71	0.26	-53.3	-71.4	3.5	3.04e+01	0	38	104	0	60	142324
2026-01-04 04:57:47.72	243.82	0.30	-53.2	-71.2	3.5	3.04e+01	0	38	104	0	60	140143
2026-01-04 04:57:48.73	243.93	0.35	-53.1	-71.0	3.5	3.04e+01	0	38	104	0	60	137182
2026-01-04 04:57:49.74	244.04	0.39	-53.0	-70.9	3.5	3.04e+01	0	38	104	0	60	135135
2026-01-04 04:57:50.75	244.15	0.43	-53.1	-71.0	3.5	3.04e+01	0	38	104	0	60	136045
2026-01-04 04:57:51.76	244.27	0.47	-53.2	-71.2	3.5	3.04e+01	0	39	104	0	60	139193
2026-01-04 04:57:52.77	244.38	0.51	-52.4	-70.3	3.5	3.04e+01	0	38	104	0	60	126484
2026-01-04 04:57:53.78	244.49	0.55	-51.7	-69.6	3.5	3.04e+01	0	39	104	0	60	116352
2026-01-04 04:57:54.79	244.60	0.59	-51.5	-69.3	3.5	3.04e+01	0	38	104	0	60	112393
2026-01-04 04:57:55.80	244.72	0.63	-51.4	-69.2	3.5	3.04e+01	0	38	104	0	60	111319
2026-01-04 04:57:56.81	244.83	0.67	-51.5	-69.4	3.5	3.04e+01	0	38	104	0	60	113100
2026-01-04 04:57:57.81	244.94	0.71	-50.7	-68.5	3.5	3.04e+01	0	39	104	0	60	102583
2026-01-04 04:57:58.82	245.06	0.75	-49.8	-67.7	3.5	3.04e+01	0	38	104	0	60	93015
2026-01-04 04:57:59.83	245.17	0.79	-50.0	-67.8	3.5	3.04e+01	0	38	104	0	60	94845
2026-01-04 04:58:00.84	245.29	0.83	-49.6	-67.5	3.5	3.04e+01	0	38	104	0	60	90955
2026-01-04 04:58:01.85	245.40	0.88	-49.2	-67.1	3.5	3.04e+01	0	39	104	0	60	86780
2026-01-04 04:58:02.86	245.52	0.92	-49.1	-66.9	3.5	3.04e+01	0	39	104	0	60	85520
2026-01-04 04:58:03.87	245.63	0.96	-49.1	-66.9	3.5	3.04e+01	0	39	104	0	60	85571
2026-01-04 04:58:04.88	245.75	1.00	-49.1	-66.9	3.5	3.04e+01	0	39	104	0	60	85451
2026-01-04 04:58:05.89	245.87	1.04	-49.0	-66.9	3.5	3.04e+01	0	39	104	0	60	84893
2026-01-04 04:58:06.90	245.98	1.08	-49.1	-66.9	3.5	3.04e+01	0	39	104	0	60	84695
2026-01-04 04:58:07.91	246.10	1.12	-49.0	-66.9	3.5	3.04e+01	0	39	104	0	60	84821
2026-01-04 04:58:08.92	246.22	1.16	-49.1	-66.9	3.5	3.04e+01	0	39	104	0	60	84796
2026-01-04 04:58:09.93	246.33	1.20	-49.1	-67.0	3.5	3.04e+01	0	39	104	0	60	86183
2026-01-04 04:58:10.94	246.45	1.24	-49.4	-67.2	3.5	3.04e+01	0	39	104	0	60	88270
2026-01-04 04:58:11.94	246.57	1.28	-49.4	-67.2	3.5	3.04e+01	0	39	104	0	60	88537
2026-01-04 04:58:12.96	246.69	1.32	-49.4	-67.2	3.5	3.04e+01	0	39	104	0	60	88370
2026-01-04 04:58:13.97	246.81	1.36	-49.2	-67.1	3.5	3.04e+01	0	39	104	0	60	87386
2026-01-04 04:58:14.98	246.93	1.40	-49.2	-67.0	3.5	3.04e+01	0	39	104	0	60	86317
2026-01-04 04:58:15.98	247.05	1.44	-49.1	-66.9	3.5	3.04e+01	0	39	104	0	60	85098
2026-01-04 04:58:17.00	247.17	1.48	-49.1	-66.9	3.5	3.04e+01	0	39	104	0	60	85190
2026-01-04 04:58:18.00	247.29	1.52	-49.1	-66.9	3.5	3.04e+01	0	39	104	0	60	84683
2026-01-04 04:58:19.02	247.41	1.56	-49.0	-66.7	3.5	3.04e+01	0	39	104	0	60	83454
2026-01-04 04:58:20.02	247.53	1.60	-49.0	-66.7	3.5	3.04e+01	0	39	104	0	60	83559
2026-01-04 04:58:21.04	247.65	1.64	-49.0	-66.9	3.5	3.04e+01	0	39	104	0	60	84825
2026-01-04 04:58:22.04	247.77	1.68	-49.0	-66.9	3.5	3.04e+01	0	39	104	0	60	84811
2026-01-04 04:58:23.05	247.90	1.72	-49.1	-66.9	3.5	3.04e+01	0	39	104	0	60	85270
2026-01-04 04:58:24.06	248.02	1.76	-49.1	-66.9	3.5	3.04e+01	0	39	104	0	60	85395
2026-01-04 04:58:25.07	248.14	1.80	-49.0	-66.8	3.5	3.04e+01	0	39	104	0	60	84550
2026-01-04 04:58:26.08	248.26	1.84	-49.0	-66.8	3.5	3.04e+01	0	39	104	0	60	84366
2026-01-04 04:58:27.08	248.39	1.88	-49.0	-66.8	3.5	3.04e+01	0	39	104	0	60	84453
2026-01-04 04:58:28.09	248.51	1.92	-49.1	-66.9	3.5	3.04e+01	0	39	104	0	60	85287
2026-01-04 04:58:29.10	248.64	1.96	-49.1	-66.9	3.5	3.04e+01	0	39	104	0	60	85182
2026-01-04 04:58:30.11	248.76	2.00	-49.1	-66.8	3.5	3.04e+01	0	39	104	0	60	84605
2026-01-04 04:58:31.12	248.89	2.04	-49.1	-66.8	3.5	3.04e+01	0	39	104	0	60	84362
2026-01-04 04:58:32.13	249.01	2.08	-49.0	-66.6	3.5	3.04e+01	0	39	104	0	60	82575
2026-01-04 04:58:33.14	249.14	2.12	-49.0	-66.7	3.5	3.04e+01	0	39	104	0	60	83149
2026-01-04 04:58:34.15	249.26	2.16	-49.0	-66.6	3.5	3.04e+01	0	39	104	0	60	81837
2026-01-04 04:58:35.16	249.39	2.20	-49.0	-66.7	3.5	3.04e+01	0	39	104	0	60	82903
2026-01-04 04:58:36.17	249.52	2.24	-49.0	-66.8	3.5	3.04e+01	0	39	104	0	60	83717
2026-01-04 04:58:37.18	249.64	2.28	-49.0	-66.9	3.5	3.04e+01	0	39	104	0	60	84761
2026-01-04 04:58:38.19	249.77	2.32	-49.0	-66.9	3.5	3.04e+01	0	39	104	0	60	84833
2026-01-04 04:58:39.20	249.90	2.36	-49.1	-66.9	3.5	3.04e+01	0	39	104	0	60	85239
2026-01-04 04:58:40.21	250.03	2.40	-49.0	-66.7	3.5	3.04e+01	0	39	104	0	60	83702
2026-01-04 04:58:41.22	250.16	2.44	-49.0	-66.8	3.5	3.04e+01	0	39	104	0	60	84182
2026-01-04 04:58:42.23	250.28	2.48	-49.0	-66.7	3.5	3.04e+01	0	39	104	0	60	82935
2026-01-04 04:58:43.23	250.41	2.52	-49.0	-66.8	3.5	3.04e+01	0	39	104	0	60	84258
2026-01-04 04:58:44.25	250.54	2.56	-49.0	-66.7	3.5	3.04e+01	0	39	104	0	60	83648
2026-01-04 04:58:45.25	250.67	2.59	-49.0	-66.6	3.5	3.04e+01	0	39	104	0	60	82460
2026-01-04 04:58:46.26	250.80	2.63	-49.0	-66.4	3.5	3.04e+01	0	39	104	0	60	80755
2026-01-04 04:58:47.27	250.93	2.67	-49.0	-66.5	3.5	3.04e+01	0	39	104	0	60	81796
2026-01-04 04:58:48.28	251.06	2.71	-49.0	-65.5	3.5	3.04e+01	0	39	104	0	60	72249
2026-01-04 04:58:49.29	251.20	2.75	-49.0	-64.1	3.8	3.04e+01	0	39	104	0	60	61720
2026-01-04 04:58:50.30	251.33	2.79	-48.9	-64.0	3.9	3.04e+01	0	39	104	0	60	61246
2026-01-04 04:58:51.31	251.46	2.83	-49.0	-65.9	3.7	3.04e+01	0	39	104	0	60	75505
2026-01-04 04:58:52.32	251.59	2.87	-48.6	-59.5	7.5	3.04e+01	92	39	104	0	60	36389
2026-01-04 04:58:53.33	251.73	2.91	-47.4	-53.1	13.2	3.04e+01	0	39	0	1048576	60	17475
2026-01-04 04:58:54.34	251.86	2.94	-46.2	-50.3	15.6	3.04e+01	0	39	0	3145728	60	12571
2026-01-04 04:58:55.35	251.99	2.98	-45.1	-48.3	18.5	3.04e+01	0	39	0	5242880	60	10032
2026-01-04 04:58:56.36	252.13	3.02	-44.7	-47.6	20.6	3.04e+01	0	39	0	6815744	60	9273
2026-01-04 04:58:57.37	252.26	3.06	-46.6	-50.9	15.4	3.04e+01	0	39	0	8912896	60	13490
2026-01-04 04:58:58.38	252.40	3.10	-48.8	-61.9	5.5	3.04e+01	1	39	104	8912896	60	47968
2026-01-04 04:58:59.39	252.53	3.14	-41.7	-43.5	23.0	3.04e+01	0	39	0	9961472	56	7284
2026-01-04 04:59:00.40	252.67	3.17	-41.8	-43.6	23.4	3.04e+01	0	39	0	12058624	60	5839
2026-01-04 04:59:01.40	252.80	3.21	-43.1	-45.2	21.5	3.04e+01	0	39	0	13631488	60	7037
2026-01-04 04:59:02.41	252.94	3.25	-41.5	-43.3	23.3	3.04e+01	0	39	0	15728640	56	7094
2026-01-04 04:59:03.43	253.08	3.29	-40.7	-42.3	24.1	3.04e+01	0	39	0	17825792	56	6330
2026-01-04 04:59:04.43	253.21	3.33	-41.0	-42.7	24.1	3.04e+01	0	39	0	19398656	56	6616
2026-01-04 04:59:05.44	253.35	3.36	-41.0	-42.7	24.0	3.04e+01	0	39	0	21495808	56	6631
2026-01-04 04:59:06.45	253.49	3.40	-40.4	-41.9	24.5	3.04e+01	0	39	0	23068672	56	6064
2026-01-04 04:59:07.46	253.63	3.44	-40.6	-42.3	24.3	3.04e+01	0	39	0	25165824	56	6293
2026-01-04 04:59:08.47	253.76	3.48	-40.5	-42.2	24.5	3.04e+01	0	39	0	27262976	56	6210
2026-01-04 04:59:09.48	253.90	3.52	-40.9	-42.5	24.4	3.04e+01	0	39	0	28835840	56	6484
2026-01-04 04:59:10.49	254.04	3.55	-41.2	-42.9	23.8	3.04e+01	0	39	0	30932992	56	6729
2026-01-04 04:59:11.49	254.18	3.59	-40.3	-41.9	24.9	3.04e+01	0	39	0	33030144	56	6015
2026-01-04 04:59:12.50	254.32	3.63	-40.8	-42.5	24.3	3.04e+01	0	39	0	34603008	56	6433
2026-01-04 04:59:13.51	254.46	3.66	-40.6	-42.2	24.5	3.04e+01	0	39	0	36700160	56	6214
2026-01-04 04:59:14.52	254.60	3.70	-40.1	-41.7	24.9	3.04e+01	0	39	0	38273024	56	5877
2026-01-04 04:59:15.53	254.74	3.74	-40.3	-41.9	24.9	3.04e+01	0	39	0	40370176	56	6010
2026-01-04 04:59:16.53	254.88	3.78	-40.2	-41.8	24.8	3.04e+01	0	39	0	42467328	56	5947
2026-01-04 04:59:17.54	255.03	3.81	-40.2	-41.7	24.9	3.04e+01	0	39	0	44040192	56	5920
2026-01-04 04:59:18.55	255.17	3.85	-40.1	-41.7	25.1	3.04e+01	0	39	0	46137344	56	5872
2026-01-04 04:59:19.56	255.31	3.89	-40.3	-41.8	24.8	3.04e+01	0	39	0	47710208	56	5988
2026-01-04 04:59:20.57	255.45	3.92	-40.7	-42.3	24.4	3.04e+01	0	39	0	49807360	56	6323
2026-01-04 04:59:21.57	255.60	3.96	-40.2	-41.8	24.9	3.04e+01	0	39	0	51380224	56	5945
2026-01-04 04:59:22.58	255.74	4.00	-40.0	-41.5	25.2	3.04e+01	0	39	0	53477376	56	5776
2026-01-04 04:59:23.59	255.88	4.03	-39.9	-41.4	25.1	3.04e+01	0	39	0	55574528	54	6399
2026-01-04 04:59:24.60	256.03	4.07	-39.9	-41.4	25.2	3.04e+01	0	39	0	57147392	54	6393
2026-01-04 04:59:25.61	256.17	4.11	-40.0	-41.5	25.1	3.04e+01	0	39	0	59244544	54	6479
2026-01-04 04:59:26.62	256.32	4.14	-40.2	-41.8	24.8	3.04e+01	0	39	0	61341696	54	6676
2026-01-04 04:59:27.63	256.46	4.18	-40.0	-41.5	25.0	3.04e+01	0	39	0	62914560	54	6454
2026-01-04 04:59:28.64	256.61	4.21	-40.0	-41.6	24.8	3.04e+01	0	39	0	65011712	54	6529
2026-01-04 04:59:29.65	256.76	4.25	-39.9	-41.4	25.1	3.04e+01	0	39	0	66584576	54	6408
2026-01-04 04:59:30.66	256.90	4.29	-40.0	-41.6	25.0	3.04e+01	0	39	0	68681728	54	6505
2026-01-04 04:59:31.67	257.05	4.32	-40.1	-41.6	25.1	3.04e+01	0	39	0	70778880	54	6543
2026-01-04 04:59:32.67	257.20	4.36	-39.8	-41.3	25.4	3.04e+01	0	39	0	72351744	54	6311
2026-01-04 04:59:33.68	257.35	4.39	-39.9	-41.3	25.3	3.04e+01	0	39	0	74448896	54	6335
2026-01-04 04:59:34.69	257.49	4.43	-40.0	-41.6	25.1	3.04e+01	0	39	0	76546048	54	6501
2026-01-04 04:59:35.70	257.64	4.46	-39.9	-41.5	25.2	3.04e+01	0	39	0	78118912	54	6431
2026-01-04 04:59:36.71	257.79	4.50	-39.8	-41.3	25.3	3.04e+01	0	39	0	80216064	54	6321
2026-01-04 04:59:37.72	257.94	4.54	-39.7	-41.2	25.4	3.04e+01	0	39	0	81788928	54	6275
2026-01-04 04:59:38.73	258.09	4.57	-39.5	-41.0	25.7	3.04e+01	0	39	0	83886080	54	6101
2026-01-04 04:59:39.74	258.24	4.61	-39.8	-41.3	25.4	3.04e+01	0	39	0	85983232	54	6319
2026-01-04 04:59:40.75	258.39	4.64	-40.1	-41.6	25.0	3.04e+01	0	39	0	87556096	54	6545
2026-01-04 04:59:41.76	258.54	4.68	-40.1	-41.6	25.0	3.04e+01	0	39	0	89653248	54	6529
2026-01-04 04:59:42.77	258.69	4.71	-40.4	-42.0	24.8	3.04e+01	0	39	0	91226112	54	6866
2026-01-04 04:59:43.78	258.85	4.75	-39.6	-41.1	25.4	3.04e+01	0	39	0	93323264	54	6167
2026-01-04 04:59:44.79	259.00	4.78	-39.5	-41.0	25.7	3.04e+01	0	39	0	95420416	54	6071
2026-01-04 04:59:45.80	259.15	4.81	-39.6	-41.1	25.6	3.04e+01	0	39	0	96993280	54	6190
2026-01-04 04:59:46.81	259.30	4.85	-39.6	-41.1	25.5	3.04e+01	0	39	0	99090432	54	6160
2026-01-04 04:59:47.81	259.46	4.88	-39.5	-40.9	25.7	3.04e+01	0	39	0	100663296	54	6063
2026-01-04 04:59:48.82	259.61	4.92	-39.5	-41.0	25.7	3.04e+01	0	39	0	102760448	54	6096
2026-01-04 04:59:49.83	259.76	4.95	-39.5	-41.0	25.6	3.04e+01	0	39	0	104857600	54	6116
2026-01-04 04:59:50.84	259.92	4.98	-39.5	-41.0	25.6	3.04e+01	0	39	0	106430464	54	6100
2026-01-04 04:59:51.85	260.07	5.02	-39.6	-41.1	25.6	3.04e+01	0	39	0	108527616	54	6138
2026-01-04 04:59:52.86	260.23	5.05	-39.4	-40.9	25.8	3.04e+01	0	39	0	110100480	54	6010
2026-01-04 04:59:53.87	260.38	5.09	-39.4	-40.8	25.7	3.04e+01	0	39	0	112197632	54	5987
2026-01-04 04:59:54.88	260.54	5.12	-39.4	-40.8	25.7	3.04e+01	0	39	0	114294784	54	5976
2026-01-04 04:59:55.89	260.70	5.15	-39.3	-40.7	25.9	3.04e+01	0	39	0	115867648	54	5894
2026-01-04 04:59:56.89	260.85	5.18	-39.5	-40.9	25.7	3.04e+01	0	39	0	117964800	54	6064
2026-01-04 04:59:57.90	261.01	5.22	-39.3	-40.8	25.8	3.04e+01	0	39	0	119537664	54	5957
2026-01-04 04:59:58.91	261.17	5.25	-39.3	-40.8	25.9	3.04e+01	0	39	0	121634816	54	5934
2026-01-04 04:59:59.91	261.32	5.28	-39.3	-40.8	25.9	3.04e+01	0	39	0	123731968	54	5937
2026-01-04 05:00:00.92	261.48	5.32	-39.4	-40.9	25.7	3.04e+01	0	39	0	125304832	54	6035
2026-01-04 05:00:01.94	261.64	5.35	-39.3	-40.8	25.9	3.04e+01	0	39	0	127401984	54	5947
2026-01-04 05:00:02.95	261.80	5.38	-39.4	-40.9	25.7	3.04e+01	0	39	0	129499136	54	6002
2026-01-04 05:00:03.95	261.96	5.41	-39.3	-40.7	25.9	3.04e+01	0	39	0	131072000	54	5880
2026-01-04 05:00:04.96	262.12	5.45	-39.5	-40.9	25.7	3.04e+01	0	39	0	133169152	54	6054
2026-01-04 05:00:05.97	262.28	5.48	-39.4	-40.8	25.8	3.04e+01	0	39	0	134742016	54	5982
2026-01-04 05:00:06.98	262.44	5.51	-39.4	-40.9	25.9	3.04e+01	0	39	0	136839168	54	6003
2026-01-04 05:00:07.99	262.60	5.54	-39.2	-40.7	25.9	3.04e+01	0	39	0	138936320	54	5876
2026-01-04 05:00:09.00	262.76	5.57	-39.2	-40.7	26.0	3.04e+01	0	39	0	140509184	54	5884
2026-01-04 05:00:10.01	262.92	5.60	-39.2	-40.7	26.0	3.04e+01	0	39	0	142606336	54	5867
2026-01-04 05:00:11.02	263.08	5.64	-39.3	-40.7	26.1	3.04e+01	0	39	0	144179200	54	5905
2026-01-04 05:00:12.03	263.24	5.67	-39.3	-40.7	26.0	3.04e+01	0	39	0	146276352	54	5891
2026-01-04 05:00:13.04	263.41	5.70	-39.2	-40.7	26.0	3.04e+01	0	39	0	148373504	54	5874
2026-01-04 05:00:14.05	263.57	5.73	-39.3	-40.8	25.9	3.04e+01	0	39	0	149946368	54	5940
2026-01-04 05:00:15.06	263.73	5.76	-39.3	-40.7	26.0	3.04e+01	0	39	0	152043520	54	5925
2026-01-04 05:00:16.07	263.90	5.79	-39.4	-40.9	25.8	3.04e+01	0	39	0	153616384	54	6034
2026-01-04 05:00:17.08	264.06	5.82	-39.2	-40.6	26.0	3.04e+01	0	39	0	155713536	54	5848
2026-01-04 05:00:18.09	264.23	5.85	-39.2	-40.6	26.1	3.04e+01	0	39	0	157810688	54	5806
2026-01-04 05:00:19.10	264.39	5.88	-39.2	-40.6	26.2	3.04e+01	0	39	0	159383552	54	5817
2026-01-04 05:00:20.10	264.55	5.91	-39.3	-40.7	25.7	3.04e+01	0	39	0	161480704	54	5902
2026-01-04 05:00:21.11	264.72	5.94	-41.0	-42.5	26.2	3.04e+01	0	39	0	163053568	54	7251
2026-01-04 05:00:22.12	264.88	5.97	-40.4	-41.8	25.8	3.04e+01	0	39	0	165150720	56	5959
2026-01-04 05:00:23.13	265.05	6.00	-39.6	-41.1	26.1	3.04e+01	0	39	0	167247872	54	6136
2026-01-04 05:00:24.14	265.22	6.03	-39.4	-40.8	26.2	3.04e+01	0	39	0	168820736	54	5953
2026-01-04 05:00:25.15	265.38	6.06	-39.2	-40.6	26.2	3.04e+01	0	39	0	170917888	54	5835
2026-01-04 05:00:26.16	265.55	6.09	-39.2	-40.6	26.2	3.04e+01	0	39	0	173015040	54	5848
2026-01-04 05:00:27.17	265.72	6.12	-39.1	-40.5	26.3	3.04e+01	0	39	0	174587904	54	5771
2026-01-04 05:00:28.18	265.89	6.15	-39.1	-40.5	26.2	3.04e+01	0	39	0	176685056	54	5787
2026-01-04 05:00:29.19	266.06	6.18	-39.1	-40.5	26.3	3.04e+01	0	39	0	178257920	54	5771
2026-01-04 05:00:30.20	266.22	6.20	-39.1	-40.5	26.4	3.04e+01	0	39	0	180355072	54	5790
2026-01-04 05:00:31.21	266.39	6.23	-39.1	-40.5	26.6	3.04e+01	0	39	0	182452224	54	5749
2026-01-04 05:00:32.21	266.56	6.26	-39.4	-40.8	26.4	3.04e+01	0	39	0	184025088	54	5965
2026-01-04 05:00:33.22	266.73	6.29	-39.2	-40.6	26.4	3.04e+01	0	39	0	186122240	54	5792
2026-01-04 05:00:34.24	266.90	6.32	-39.2	-40.6	26.4	3.04e+01	0	39	0	187695104	54	5809
2026-01-04 05:00:35.24	267.07	6.34	-39.1	-40.5	26.4	3.04e+01	0	39	0	189792256	54	5726
2026-01-04 05:00:36.25	267.24	6.37	-39.2	-40.7	26.3	3.04e+01	0	39	0	191889408	54	5860
2026-01-04 05:00:37.26	267.41	6.40	-39.3	-40.7	26.2	3.04e+01	0	39	0	193462272	54	5880
2026-01-04 05:00:38.27	267.58	6.43	-39.2	-40.6	26.3	3.04e+01	0	39	0	195559424	52	6555
2026-01-04 05:00:39.28	267.76	6.45	-39.3	-40.7	26.2	3.04e+01	0	39	0	197656576	52	6607
2026-01-04 05:00:40.29	267.93	6.48	-39.4	-40.8	26.3	3.04e+01	0	39	0	199229440	52	6670
2026-01-04 05:00:41.30	268.10	6.51	-40.0	-41.5	25.8	3.04e+01	0	39	0	201326592	52	7246
2026-01-04 05:00:42.31	268.27	6.53	-39.4	-40.8	26.3	3.04e+01	0	39	0	202899456	54	5967
2026-01-04 05:00:43.32	268.45	6.56	-39.6	-41.0	26.1	3.04e+01	0	39	0	204996608	54	6134
2026-01-04 05:00:44.33	268.62	6.59	-39.5	-41.0	25.9	3.04e+01	0	39	0	207093760	54	6077
2026-01-04 05:00:45.34	268.79	6.61	-39.3	-40.7	26.3	3.04e+01	0	39	0	208666624	54	5875
2026-01-04 05:00:46.35	268.97	6.64	-39.4	-40.8	26.2	3.04e+01	0	39	0	210763776	54	5944
2026-01-04 05:00:47.36	269.14	6.66	-39.0	-40.4	26.3	3.04e+01	0	39	0	212336640	54	5660
2026-01-04 05:00:48.37	269.32	6.69	-39.0	-40.3	26.5	3.04e+01	0	39	0	214433792	52	6344
2026-01-04 05:00:49.38	269.49	6.71	-39.3	-40.7	26.2	3.04e+01	0	39	0	216530944	52	6586
2026-01-04 05:00:50.39	269.67	6.74	-39.5	-40.9	26.1	3.04e+01	0	39	0	218103808	52	6765
2026-01-04 05:00:51.39	269.84	6.76	-39.2	-40.5	26.5	3.04e+01	0	39	0	220200960	52	6489
2026-01-04 05:00:52.40	270.02	6.79	-39.2	-40.6	26.5	3.04e+01	0	39	0	221773824	52	6570
2026-01-04 05:00:53.41	270.19	6.81	-39.1	-40.5	26.4	3.04e+01	0	39	0	223870976	52	6476
2026-01-04 05:00:54.43	270.37	6.84	-39.0	-40.4	26.7	3.04e+01	0	39	0	225968128	52	6376
2026-01-04 05:00:55.43	270.55	6.86	-39.0	-40.4	26.6	3.04e+01	0	39	0	227540992	52	6388
2026-01-04 05:00:56.45	270.72	6.88	-38.9	-40.2	26.8	3.04e+01	0	39	0	229638144	52	6270
2026-01-04 05:00:57.45	270.90	6.91	-39.0	-40.4	26.7	3.04e+01	0	39	0	231211008	52	6360
2026-01-04 05:00:58.46	271.08	6.93	-38.9	-40.2	26.8	3.04e+01	0	39	0	233308160	52	6276
2026-01-04 05:00:59.47	271.26	6.96	-39.0	-40.3	26.7	3.04e+01	0	39	0	235405312	52	6348
2026-01-04 05:01:00.48	271.43	6.98	-38.9	-40.3	26.7	3.04e+01	0	39	0	236978176	52	6313
2026-01-04 05:01:01.49	271.61	7.00	-39.0	-40.4	26.2	3.04e+01	0	39	0	239075328	52	6356
2026-01-04 05:01:02.50	271.79	7.02	-39.3	-40.7	26.6	3.04e+01	0	39	0	241172480	52	6628
2026-01-04 05:01:03.51	271.97	7.05	-39.3	-40.6	26.4	3.04e+01	0	39	0	242745344	52	6567
2026-01-04 05:01:04.52	272.15	7.07	-39.1	-40.5	26.4	3.04e+01	0	39	0	244842496	52	6459
2026-01-04 05:01:05.53	272.33	7.09	-39.1	-40.4	26.6	3.04e+01	0	39	0	246415360	52	6407
2026-01-04 05:01:06.54	272.51	7.11	-38.9	-40.3	26.7	3.04e+01	0	39	0	248512512	52	6319
2026-01-04 05:01:07.55	272.69	7.13	-39.1	-40.5	26.6	3.04e+01	0	39	0	250609664	52	6455
2026-01-04 05:01:08.56	272.87	7.16	-38.9	-40.2	26.8	3.04e+01	0	39	0	252182528	52	6276
2026-01-04 05:01:09.56	273.05	7.18	-38.7	-40.1	26.9	3.04e+01	0	39	0	254279680	52	6144
2026-01-04 05:01:10.57	273.23	7.20	-38.7	-40.0	26.9	3.04e+01	0	39	0	255852544	52	6099
2026-01-04 05:01:11.58	273.41	7.22	-38.7	-40.0	26.8	3.04e+01	0	39	0	257949696	52	6131
2026-01-04 05:01:12.59	273.59	7.24	-38.6	-39.9	26.9	3.04e+01	0	39	0	260046848	52	6053
2026-01-04 05:01:13.60	273.78	7.26	-38.6	-40.0	26.9	3.04e+01	0	39	0	261619712	52	6092
2026-01-04 05:01:14.61	273.96	7.28	-38.7	-40.1	26.9	3.04e+01	0	39	0	263716864	52	6156
2026-01-04 05:01:15.62	274.14	7.30	-38.6	-40.0	26.9	3.04e+01	0	39	0	265289728	52	6095
2026-01-04 05:01:16.63	274.32	7.32	-38.7	-40.1	27.0	3.04e+01	0	39	0	267386880	52	6156
2026-01-04 05:01:17.64	274.51	7.34	-38.7	-40.0	26.9	3.04e+01	0	39	0	269484032	52	6113
2026-01-04 05:01:18.65	274.69	7.36	-38.8	-40.1	27.0	3.04e+01	0	39	0	271056896	52	6191
2026-01-04 05:01:19.66	274.87	7.38	-38.7	-40.1	27.0	3.04e+01	0	39	0	273154048	52	6141
2026-01-04 05:01:20.67	275.06	7.40	-38.8	-40.2	26.9	3.04e+01	0	39	0	274726912	52	6259
2026-01-04 05:01:21.68	275.24	7.42	-38.8	-40.1	27.0	3.04e+01	0	39	0	276824064	52	6173
2026-01-04 05:01:22.69	275.43	7.43	-38.6	-40.0	27.0	3.04e+01	0	39	0	278921216	52	6081
2026-01-04 05:01:23.70	275.61	7.45	-38.5	-39.9	27.1	3.04e+01	0	39	0	280494080	52	5997
2026-01-04 05:01:24.71	275.79	7.47	-38.8	-40.1	27.0	3.04e+01	0	39	0	282591232	52	6168
2026-01-04 05:01:25.72	275.98	7.49	-38.7	-40.1	27.0	3.04e+01	0	39	0	284164096	52	6152
2026-01-04 05:01:26.73	276.17	7.51	-38.7	-40.0	27.0	3.04e+01	0	39	0	286261248	52	6113
2026-01-04 05:01:27.74	276.35	7.52	-38.6	-39.9	27.1	3.04e+01	0	39	0	288358400	52	6042
2026-01-04 05:01:28.75	276.54	7.54	-38.6	-39.9	27.0	3.04e+01	0	39	0	289931264	52	6048
2026-01-04 05:01:29.76	276.72	7.56	-38.6	-40.0	27.0	3.04e+01	0	39	0	292028416	52	6092
2026-01-04 05:01:30.77	276.91	7.57	-38.7	-40.0	27.1	3.04e+01	0	39	0	294125568	52	6098
2026-01-04 05:01:31.78	277.09	7.59	-38.7	-40.0	27.1	3.04e+01	0	39	0	295698432	52	6123
2026-01-04 05:01:32.79	277.28	7.61	-39.2	-40.6	26.9	3.04e+01	0	39	0	297795584	52	6521
2026-01-04 05:01:33.80	277.47	7.62	-39.1	-40.5	26.8	3.04e+01	0	39	0	299368448	52	6453
2026-01-04 05:01:34.81	277.66	7.64	-39.5	-40.9	26.6	3.04e+01	0	39	0	301465600	52	6730
2026-01-04 05:01:35.82	277.84	7.65	-39.1	-40.5	27.1	3.04e+01	0	39	0	303562752	52	6461
2026-01-04 05:01:36.83	278.03	7.67	-38.6	-40.0	27.2	3.04e+01	0	39	0	305135616	52	6073
2026-01-04 05:01:37.83	278.22	7.68	-38.8	-40.1	27.1	3.04e+01	0	39	0	307232768	52	6178
2026-01-04 05:01:38.84	278.40	7.70	-38.6	-40.0	27.2	3.04e+01	0	39	0	309329920	52	6085
2026-01-04 05:01:39.85	278.59	7.71	-38.5	-39.9	27.3	3.04e+01	0	39	0	310902784	52	5996
2026-01-04 05:01:40.86	278.78	7.73	-38.9	-40.3	27.1	3.04e+01	0	39	0	312999936	52	6281
2026-01-04 05:01:41.87	278.97	7.74	-38.9	-40.3	27.1	3.04e+01	0	39	0	314572800	52	6287
2026-01-04 05:01:42.88	279.16	7.75	-38.8	-40.1	27.2	3.04e+01	0	39	0	316669952	52	6156
2026-01-04 05:01:43.89	279.35	7.77	-38.7	-40.0	27.2	3.04e+01	0	39	0	318767104	52	6128
2026-01-04 05:01:44.90	279.53	7.78	-38.7	-40.0	27.2	3.04e+01	0	39	0	320339968	52	6129
2026-01-04 05:01:45.90	279.72	7.79	-38.8	-40.1	27.1	3.04e+01	0	39	0	322437120	52	6192
2026-01-04 05:01:46.91	279.91	7.81	-38.8	-40.1	27.1	3.04e+01	0	39	0	324009984	52	6182
2026-01-04 05:01:47.92	280.10	7.82	-38.7	-40.0	27.3	3.04e+01	0	39	0	326107136	52	6089
2026-01-04 05:01:48.93	280.29	7.83	-38.6	-40.0	27.2	3.04e+01	0	39	0	328204288	52	6080
2026-01-04 05:01:49.94	280.48	7.84	-38.5	-39.8	27.3	3.04e+01	0	39	0	329777152	52	5972
2026-01-04 05:01:50.95	280.67	7.86	-38.6	-39.9	27.0	3.04e+01	0	39	0	331874304	52	6046
2026-01-04 05:01:51.96	280.86	7.87	-38.9	-40.3	26.8	3.04e+01	0	39	0	333447168	52	6305
2026-01-04 05:01:52.97	281.05	7.88	-38.7	-40.0	27.1	3.04e+01	0	39	0	335544320	52	6118
2026-01-04 05:01:53.98	281.24	7.89	-38.5	-39.9	26.9	3.04e+01	0	39	0	337641472	52	6002
2026-01-04 05:01:54.99	281.43	7.90	-38.7	-40.0	27.3	3.04e+01	0	39	0	339214336	52	6089
2026-01-04 05:01:56.00	281.62	7.91	-38.5	-39.9	27.3	3.04e+01	0	39	0	341311488	52	6012
2026-01-04 05:01:57.01	281.81	7.92	-38.5	-39.9	27.3	3.04e+01	0	39	0	342884352	52	5996
2026-01-04 05:01:58.02	282.00	7.93	-38.6	-40.0	27.1	3.04e+01	0	39	0	344981504	52	6097
2026-01-04 05:01:59.03	282.19	7.94	-38.5	-39.9	27.2	3.04e+01	0	39	0	347078656	52	6019
2026-01-04 05:02:00.03	282.38	7.95	-38.4	-39.7	27.3	3.04e+01	0	39	0	348651520	52	5876
2026-01-04 05:02:01.04	282.57	7.96	-38.3	-39.6	27.4	3.04e+01	0	39	0	350748672	52	5856
2026-01-04 05:02:02.05	282.77	7.97	-38.2	-39.5	27.4	3.04e+01	0	39	0	352321536	52	5778
2026-01-04 05:02:03.06	282.96	7.98	-38.4	-39.8	27.3	3.04e+01	0	39	0	354418688	52	5937
2026-01-04 05:02:04.07	283.15	7.99	-38.4	-39.8	27.3	3.04e+01	0	39	0	356515840	52	5939
2026-01-04 05:02:05.08	283.34	8.00	-38.5	-39.8	27.2	3.04e+01	0	39	0	358088704	52	5949
2026-01-04 05:02:06.09	283.53	8.00	-38.4	-39.7	27.3	3.04e+01	0	39	0	360185856	52	5877
2026-01-04 05:02:07.10	283.73	8.01	-38.4	-39.7	27.1	3.04e+01	0	39	0	362283008	52	5887
2026-01-04 05:02:08.11	283.92	8.02	-38.3	-39.6	27.3	3.04e+01	0	39	0	363855872	52	5805
2026-01-04 05:02:09.12	284.11	8.03	-38.2	-39.6	27.4	3.04e+01	0	39	0	365953024	52	5794
2026-01-04 05:02:10.13	284.30	8.03	-38.4	-39.8	27.1	3.04e+01	0	39	0	367525888	52	5931
2026-01-04 05:02:11.13	284.49	8.04	-38.6	-39.9	27.1	3.04e+01	0	39	0	369623040	52	6053
2026-01-04 05:02:12.14	284.69	8.05	-38.5	-39.8	27.2	3.04e+01	0	39	0	371720192	52	5964
2026-01-04 05:02:13.15	284.88	8.05	-38.1	-39.5	27.5	3.04e+01	0	39	0	373293056	52	5731
2026-01-04 05:02:14.16	285.07	8.06	-38.4	-39.7	27.1	3.04e+01	0	39	0	375390208	52	5897
2026-01-04 05:02:15.17	285.26	8.06	-38.3	-39.7	27.4	3.04e+01	0	39	0	376963072	52	5863
2026-01-04 05:02:16.18	285.46	8.07	-38.2	-39.5	27.5	3.04e+01	0	40	0	379060224	52	5772
2026-01-04 05:02:17.19	285.65	8.07	-38.3	-39.6	27.4	3.04e+01	0	39	0	381157376	52	5809
2026-01-04 05:02:18.20	285.84	8.08	-38.5	-39.9	27.3	3.04e+01	0	40	0	382730240	52	5999
2026-01-04 05:02:19.21	286.03	8.08	-38.5	-39.8	27.3	3.04e+01	0	40	0	384827392	52	5972
2026-01-04 05:02:20.22	286.23	8.09	-38.3	-39.6	27.5	3.04e+01	0	40	0	386400256	52	5823
2026-01-04 05:02:21.23	286.42	8.09	-38.3	-39.6	27.5	3.04e+01	0	40	0	388497408	52	5796
2026-01-04 05:02:22.24	286.61	8.10	-38.3	-39.6	27.4	3.04e+01	0	39	0	390594560	52	5852
2026-01-04 05:02:23.25	286.81	8.10	-38.4	-39.7	27.5	3.04e+01	0	39	0	392167424	52	5901
2026-01-04 05:02:24.25	287.00	8.10	-38.6	-40.0	26.5	3.04e+01	0	39	0	394264576	52	6074
2026-01-04 05:02:25.26	287.19	8.11	-39.0	-40.4	27.3	3.04e+01	0	39	0	395837440	52	6355
2026-01-04 05:02:26.27	287.39	8.11	-38.8	-40.1	27.3	3.04e+01	0	39	0	397934592	52	6165
2026-01-04 05:02:27.28	287.58	8.11	-38.9	-40.2	27.4	3.04e+01	0	39	0	400031744	52	6247
2026-01-04 05:02:28.29	287.77	8.11	-38.6	-39.9	26.9	3.04e+01	0	39	0	401604608	52	6060
2026-01-04 05:02:29.30	287.97	8.12	-38.8	-40.1	27.5	3.04e+01	0	40	0	403701760	52	6146
2026-01-04 05:02:30.31	288.16	8.12	-38.5	-39.8	27.4	3.04e+01	0	40	0	405798912	52	5991
2026-01-04 05:02:31.32	288.35	8.12	-38.6	-39.9	27.6	3.04e+01	0	39	0	407371776	52	6048
2026-01-04 05:02:32.33	288.55	8.12	-38.5	-39.8	27.6	3.04e+01	0	40	0	409468928	52	5956
2026-01-04 05:02:33.34	288.74	8.12	-38.6	-39.9	27.6	3.04e+01	0	40	0	411041792	52	6018
2026-01-04 05:02:34.35	288.93	8.12	-39.1	-40.4	27.3	3.04e+01	0	40	0	413138944	52	6389
2026-01-04 05:02:35.36	289.13	8.12	-39.2	-40.5	27.1	3.04e+01	0	40	0	415236096	52	6463
2026-01-04 05:02:36.37	289.32	8.12	-38.7	-40.0	27.4	3.04e+01	0	40	0	416808960	52	6095
2026-01-04 05:02:37.37	289.51	8.12	-39.0	-40.3	27.3	3.04e+01	0	40	0	418906112	52	6348
2026-01-04 05:02:38.38	289.71	8.12	-38.6	-40.0	27.5	3.04e+01	0	39	0	420478976	52	6080
2026-01-04 05:02:39.39	289.90	8.12	-38.5	-39.8	27.5	3.04e+01	0	40	0	422576128	52	5959
2026-01-04 05:02:40.40	290.09	8.12	-38.4	-39.7	27.5	3.04e+01	0	39	0	424673280	52	5917
2026-01-04 05:02:41.41	290.29	8.12	-38.4	-39.7	27.5	3.04e+01	0	40	0	426246144	52	5926
2026-01-04 05:02:42.41	290.48	8.12	-38.5	-39.9	27.5	3.04e+01	0	40	0	428343296	52	5998
2026-01-04 05:02:43.42	290.67	8.12	-38.5	-39.9	27.2	3.04e+01	0	39	0	429916160	52	6007
2026-01-04 05:02:44.43	290.86	8.11	-38.6	-39.9	27.3	3.04e+01	0	39	0	432013312	52	6020
2026-01-04 05:02:45.44	291.06	8.11	-38.3	-39.6	27.4	3.04e+01	0	40	0	434110464	52	5841
2026-01-04 05:02:46.45	291.25	8.11	-38.8	-40.1	27.0	3.04e+01	0	40	0	435683328	52	6175
2026-01-04 05:02:47.46	291.44	8.11	-39.1	-40.5	27.0	3.04e+01	0	40	0	437780480	52	6434
2026-01-04 05:02:48.47	291.64	8.10	-38.7	-40.0	27.4	3.04e+01	0	39	0	439353344	52	6088
2026-01-04 05:02:49.48	291.83	8.10	-38.6	-39.9	27.3	3.04e+01	0	40	0	441450496	52	6027
2026-01-04 05:02:50.49	292.02	8.10	-39.1	-40.5	26.6	3.04e+01	0	40	0	443547648	52	6471
2026-01-04 05:02:51.50	292.22	8.09	-38.9	-40.2	27.0	3.04e+01	0	39	0	445120512	52	6262
2026-01-04 05:02:52.51	292.41	8.09	-38.3	-39.6	27.4	3.04e+01	0	40	0	447217664	52	5857
2026-01-04 05:02:53.52	292.60	8.08	-38.4	-39.7	27.3	3.04e+01	0	39	0	448790528	52	5901
2026-01-04 05:02:54.52	292.79	8.08	-38.4	-39.7	27.3	3.04e+01	0	40	0	450887680	52	5924
2026-01-04 05:02:55.53	292.99	8.07	-38.4	-39.8	27.3	3.04e+01	0	40	0	452984832	52	5941
2026-01-04 05:02:56.54	293.18	8.07	-38.4	-39.7	27.4	3.04e+01	0	40	0	454557696	52	5893
2026-01-04 05:02:57.55	293.37	8.06	-38.6	-39.9	27.3	3.04e+01	0	40	0	456654848	52	6025
2026-01-04 05:02:58.56	293.57	8.06	-38.5	-39.8	27.2	3.04e+01	0	40	0	458752000	52	5946
2026-01-04 05:02:59.57	293.76	8.05	-38.4	-39.7	27.3	3.04e+01	0	40	0	460324864	52	5900
2026-01-04 05:03:00.58	293.95	8.05	-38.4	-39.7	27.4	3.04e+01	0	40	0	462422016	52	5872
2026-01-04 05:03:01.59	294.14	8.04	-38.6	-39.9	27.1	3.04e+01	0	40	0	463994880	52	6031
2026-01-04 05:03:02.60	294.33	8.03	-38.7	-40.0	27.3	3.04e+01	0	40	0	466092032	52	6112
2026-01-04 05:03:03.61	294.53	8.03	-38.4	-39.7	27.4	3.04e+01	0	40	0	468189184	52	5924
2026-01-04 05:03:04.62	294.72	8.02	-38.5	-39.8	27.3	3.04e+01	0	40	0	469762048	52	5972
2026-01-04 05:03:05.62	294.91	8.01	-38.5	-39.8	27.4	3.04e+01	0	40	0	471859200	52	5960
2026-01-04 05:03:06.63	295.10	8.00	-38.3	-39.6	27.4	3.04e+01	0	40	0	473956352	52	5837
2026-01-04 05:03:07.64	295.29	8.00	-38.4	-39.7	27.5	3.04e+01	0	40	0	475529216	52	5880
2026-01-04 05:03:08.65	295.48	7.99	-38.6	-39.9	27.4	3.04e+01	0	40	0	477626368	52	6056
2026-01-04 05:03:09.66	295.68	7.98	-38.9	-40.2	27.4	3.04e+01	0	40	0	479199232	52	6261
2026-01-04 05:03:10.67	295.87	7.97	-38.7	-40.1	27.3	3.04e+01	0	40	0	481296384	52	6139
2026-01-04 05:03:11.68	296.06	7.96	-38.6	-39.9	27.5	3.04e+01	0	40	0	483393536	52	6011
2026-01-04 05:03:12.69	296.25	7.95	-38.5	-39.8	27.5	3.04e+01	0	40	0	484966400	52	5982
2026-01-04 05:03:13.70	296.44	7.94	-38.5	-39.8	27.4	3.04e+01	0	40	0	487063552	52	5959
2026-01-04 05:03:14.71	296.63	7.93	-38.4	-39.7	27.3	3.04e+01	0	40	0	488636416	52	5913
2026-01-04 05:03:15.72	296.82	7.92	-38.4	-39.7	27.4	3.04e+01	0	40	0	490733568	52	5873
2026-01-04 05:03:16.73	297.01	7.91	-38.4	-39.7	27.4	3.04e+01	0	40	0	492830720	52	5894
2026-01-04 05:03:17.74	297.20	7.90	-38.6	-39.9	27.2	3.04e+01	0	40	0	494403584	52	6011
2026-01-04 05:03:18.75	297.39	7.89	-38.8	-40.2	27.2	3.04e+01	0	40	0	496500736	52	6223
2026-01-04 05:03:19.76	297.58	7.88	-38.8	-40.1	27.4	3.04e+01	0	40	0	498073600	52	6166
2026-01-04 05:03:20.77	297.77	7.87	-38.8	-40.1	27.2	3.04e+01	0	40	0	500170752	52	6155
2026-01-04 05:03:21.77	297.96	7.86	-39.3	-40.6	26.9	3.04e+01	0	40	0	502267904	52	6559
2026-01-04 05:03:22.79	298.15	7.85	-38.8	-40.2	27.1	3.04e+01	0	40	0	503840768	52	6217
2026-01-04 05:03:23.80	298.34	7.83	-38.6	-39.9	27.5	3.04e+01	0	40	0	505937920	52	6004
2026-01-04 05:03:24.81	298.53	7.82	-39.0	-40.3	27.1	3.04e+01	0	40	0	507510784	52	6318
2026-01-04 05:03:25.82	298.72	7.81	-38.8	-40.2	27.2	3.04e+01	0	40	0	509607936	52	6213
2026-01-04 05:03:26.83	298.91	7.80	-39.0	-40.4	27.2	3.04e+01	0	40	0	511705088	52	6388
2026-01-04 05:03:27.84	299.10	7.78	-38.9	-40.2	27.2	3.04e+01	0	40	0	513277952	52	6238
2026-01-04 05:03:28.85	299.29	7.77	-38.7	-40.0	27.3	3.04e+01	0	40	0	515375104	52	6094
2026-01-04 05:03:29.86	299.47	7.76	-38.8	-40.1	27.2	3.04e+01	0	39	0	516947968	52	6187
2026-01-04 05:03:30.87	299.66	7.74	-39.3	-40.7	26.8	3.04e+01	0	40	0	519045120	52	6576
2026-01-04 05:03:31.88	299.85	7.73	-39.0	-40.4	27.3	3.04e+01	0	40	0	521142272	52	6374
2026-01-04 05:03:32.89	300.04	7.71	-38.9	-40.2	27.1	3.04e+01	0	40	0	522715136	52	6256
2026-01-04 05:03:33.90	300.23	7.70	-39.2	-40.6	27.1	3.04e+01	0	40	0	524812288	52	6513
2026-01-04 05:03:34.91	300.41	7.69	-38.7	-40.0	27.4	3.04e+01	0	40	0	526909440	52	6123
2026-01-04 05:03:35.91	300.60	7.67	-38.9	-40.3	27.3	3.04e+01	0	40	0	528482304	52	6292
2026-01-04 05:03:36.93	300.79	7.66	-39.1	-40.4	27.3	3.04e+01	0	40	0	530579456	52	6404
2026-01-04 05:03:37.93	300.97	7.64	-39.1	-40.4	27.3	3.04e+01	0	40	0	532152320	52	6408
2026-01-04 05:03:38.94	301.16	7.62	-38.6	-40.0	27.4	3.04e+01	0	40	0	534249472	52	6070
2026-01-04 05:03:39.95	301.35	7.61	-38.6	-39.9	27.2	3.04e+01	0	40	0	536346624	52	6040
2026-01-04 05:03:40.96	301.53	7.59	-39.0	-40.4	27.1	3.04e+01	0	40	0	537919488	52	6371
2026-01-04 05:03:41.97	301.72	7.58	-38.9	-40.3	27.3	3.04e+01	0	40	0	540016640	52	6284
2026-01-04 05:03:42.98	301.90	7.56	-38.8	-40.1	27.2	3.04e+01	0	40	0	542113792	52	6159
2026-01-04 05:03:44.00	302.09	7.54	-38.7	-40.0	27.2	3.04e+01	0	40	0	543686656	52	6121
2026-01-04 05:03:45.01	302.28	7.53	-38.4	-39.8	27.4	3.04e+01	0	40	0	545783808	52	5931
2026-01-04 05:03:46.01	302.46	7.51	-38.7	-40.0	27.3	3.04e+01	0	40	0	547356672	52	6119
2026-01-04 05:03:47.02	302.64	7.49	-38.9	-40.2	27.3	3.04e+01	0	40	0	549453824	52	6247
2026-01-04 05:03:48.04	302.83	7.47	-39.0	-40.4	27.0	3.04e+01	0	40	0	551550976	52	6390
2026-01-04 05:03:49.04	303.01	7.46	-38.9	-40.2	27.2	3.04e+01	0	40	0	553123840	52	6232
2026-01-04 05:03:50.05	303.20	7.44	-38.7	-40.0	27.4	3.04e+01	0	40	0	555220992	52	6111
2026-01-04 05:03:51.06	303.38	7.42	-38.8	-40.1	27.2	3.04e+01	0	40	0	556793856	52	6166
2026-01-04 05:03:52.08	303.57	7.40	-38.8	-40.1	27.2	3.04e+01	0	40	0	558891008	52	6179
2026-01-04 05:03:53.08	303.75	7.38	-39.0	-40.3	27.2	3.04e+01	0	40	0	560988160	52	6322
2026-01-04 05:03:54.10	303.93	7.36	-39.7	-41.1	27.0	3.04e+01	0	40	0	562561024	52	6916
2026-01-04 05:03:55.11	304.11	7.34	-39.0	-40.4	26.8	3.04e+01	0	40	0	564658176	52	6359
2026-01-04 05:03:56.12	304.30	7.32	-39.0	-40.4	26.9	3.04e+01	0	40	0	566231040	52	6394
2026-01-04 05:03:57.13	304.48	7.30	-38.6	-39.9	27.3	3.04e+01	0	40	0	568328192	52	6031
2026-01-04 05:03:58.14	304.66	7.28	-38.8	-40.2	27.1	3.04e+01	0	40	0	570425344	52	6221
2026-01-04 05:03:59.15	304.84	7.26	-39.4	-40.7	26.8	3.04e+01	0	40	0	571998208	54	5926
2026-01-04 05:04:00.16	305.02	7.24	-39.1	-40.5	27.2	3.04e+01	0	40	0	574095360	54	5733
2026-01-04 05:04:01.16	305.20	7.22	-39.0	-40.3	27.0	3.04e+01	0	40	0	575668224	54	5658
2026-01-04 05:04:02.17	305.38	7.20	-39.1	-40.5	26.9	3.04e+01	0	40	0	577765376	52	6438
2026-01-04 05:04:03.18	305.56	7.18	-38.7	-40.1	27.1	3.04e+01	0	40	0	579862528	52	6144
2026-01-04 05:04:04.19	305.75	7.16	-38.6	-40.0	27.2	3.04e+01	0	40	0	581435392	52	6067
2026-01-04 05:04:05.20	305.93	7.14	-38.8	-40.2	27.3	3.04e+01	0	40	0	583532544	52	6239
2026-01-04 05:04:06.21	306.11	7.12	-39.0	-40.3	27.2	3.04e+01	0	40	0	585105408	52	6339
2026-01-04 05:04:07.22	306.28	7.10	-39.0	-40.4	27.2	3.04e+01	0	40	0	587202560	52	6366
2026-01-04 05:04:08.23	306.46	7.07	-38.9	-40.2	27.4	3.04e+01	0	40	0	589299712	52	6264
2026-01-04 05:04:09.24	306.64	7.05	-39.1	-40.5	27.1	3.04e+01	0	40	0	590872576	52	6490
2026-01-04 05:04:10.25	306.82	7.03	-39.3	-40.6	27.2	3.04e+01	0	40	0	592969728	52	6569
2026-01-04 05:04:11.26	307.00	7.01	-39.2	-40.6	27.0	3.04e+01	0	40	0	595066880	52	6556
2026-01-04 05:04:12.27	307.18	6.98	-38.9	-40.3	27.1	3.04e+01	0	40	0	596639744	52	6325
2026-01-04 05:04:13.28	307.36	6.96	-39.2	-40.7	26.9	3.04e+01	0	40	0	598736896	52	6576
2026-01-04 05:04:14.29	307.53	6.94	-39.1	-40.5	27.0	3.04e+01	0	40	0	600309760	52	6465
2026-01-04 05:04:15.30	307.71	6.91	-39.1	-40.5	26.9	3.04e+01	0	40	0	602406912	52	6476
2026-01-04 05:04:16.31	307.89	6.89	-39.1	-40.4	27.0	3.04e+01	0	40	0	604504064	52	6420
2026-01-04 05:04:17.32	308.06	6.87	-39.1	-40.5	26.9	3.04e+01	0	40	0	606076928	52	6466
2026-01-04 05:04:18.33	308.24	6.84	-39.0	-40.4	26.9	3.04e+01	0	40	0	608174080	52	6399
2026-01-04 05:04:19.34	308.42	6.82	-38.9	-40.3	27.0	3.04e+01	0	40	0	610271232	52	6329
2026-01-04 05:04:20.35	308.59	6.79	-39.1	-40.4	27.1	3.04e+01	0	40	0	611844096	52	6419
2026-01-04 05:04:21.36	308.77	6.77	-39.0	-40.4	27.1	3.04e+01	0	40	0	613941248	52	6383
2026-01-04 05:04:22.37	308.94	6.75	-39.1	-40.5	26.9	3.04e+01	0	40	0	615514112	52	6426
2026-01-04 05:04:23.38	309.12	6.72	-38.9	-40.3	27.0	3.04e+01	0	40	0	617611264	52	6316
2026-01-04 05:04:24.39	309.29	6.70	-38.8	-40.2	27.0	3.04e+01	0	40	0	619708416	52	6234
2026-01-04 05:04:25.40	309.46	6.67	-38.6	-40.0	27.0	3.04e+01	0	40	0	621281280	52	6129
2026-01-04 05:04:26.41	309.64	6.64	-38.9	-40.3	26.8	3.04e+01	0	40	0	623378432	52	6340
2026-01-04 05:04:27.42	309.81	6.62	-38.9	-40.3	27.0	3.04e+01	0	40	0	624951296	52	6312
2026-01-04 05:04:28.42	309.98	6.59	-38.9	-40.4	26.8	3.04e+01	0	40	0	627048448	52	6356
2026-01-04 05:04:29.43	310.16	6.57	-38.9	-40.3	26.8	3.04e+01	0	40	0	629145600	52	6324
2026-01-04 05:04:30.44	310.33	6.54	-38.8	-40.3	27.0	3.04e+01	0	40	0	630718464	52	6282
2026-01-04 05:04:31.45	310.50	6.52	-39.2	-40.6	26.7	3.04e+01	0	40	0	632815616	52	6560
2026-01-04 05:04:32.46	310.67	6.49	-38.8	-40.3	26.9	3.04e+01	0	40	0	634388480	52	6282
2026-01-04 05:04:33.47	310.84	6.46	-38.9	-40.3	27.0	3.04e+01	0	40	0	636485632	52	6319
2026-01-04 05:04:34.48	311.01	6.44	-38.9	-40.3	26.9	3.04e+01	0	40	0	638582784	52	6326
2026-01-04 05:04:35.49	311.18	6.41	-38.9	-40.3	26.8	3.04e+01	0	40	0	640155648	52	6316
2026-01-04 05:04:36.50	311.36	6.38	-38.8	-40.2	26.8	3.04e+01	0	40	0	642252800	52	6249
2026-01-04 05:04:37.51	311.53	6.35	-38.8	-40.2	26.8	3.04e+01	0	40	0	643825664	52	6239
2026-01-04 05:04:38.52	311.69	6.33	-38.7	-40.1	26.9	3.04e+01	0	40	0	645922816	52	6174
2026-01-04 05:04:39.53	311.86	6.30	-38.9	-40.3	26.8	3.04e+01	0	40	0	648019968	52	6304
2026-01-04 05:04:40.54	312.03	6.27	-38.9	-40.3	26.8	3.04e+01	0	40	0	649592832	52	6330
2026-01-04 05:04:41.55	312.20	6.24	-38.9	-40.4	26.6	3.04e+01	0	40	0	651689984	52	6351
2026-01-04 05:04:42.56	312.37	6.21	-39.1	-40.5	26.7	3.04e+01	0	40	0	653262848	52	6438
2026-01-04 05:04:43.57	312.54	6.19	-38.9	-40.3	26.8	3.04e+01	0	40	0	655360000	52	6306
2026-01-04 05:04:44.58	312.71	6.16	-39.1	-40.5	26.8	3.04e+01	0	40	0	657457152	52	6459
2026-01-04 05:04:45.59	312.87	6.13	-39.4	-40.8	26.4	3.04e+01	0	40	0	659030016	52	6684
2026-01-04 05:04:46.59	313.04	6.10	-39.0	-40.4	26.7	3.04e+01	0	40	0	661127168	52	6361
2026-01-04 05:04:47.60	313.21	6.07	-39.0	-40.4	26.7	3.04e+01	0	40	0	663224320	52	6361
2026-01-04 05:04:48.61	313.37	6.04	-38.8	-40.2	26.7	3.04e+01	0	40	0	664797184	52	6250
2026-01-04 05:04:49.62	313.54	6.01	-38.7	-40.1	26.8	3.04e+01	0	40	0	666894336	52	6179
2026-01-04 05:04:50.63	313.70	5.98	-38.9	-40.3	26.6	3.04e+01	0	40	0	668467200	52	6294
2026-01-04 05:04:51.64	313.87	5.95	-38.9	-40.4	26.6	3.04e+01	0	40	0	670564352	52	6363
2026-01-04 05:04:52.65	314.03	5.92	-38.8	-40.2	26.7	3.04e+01	0	40	0	672661504	52	6263
2026-01-04 05:04:53.66	314.20	5.90	-38.8	-40.2	26.7	3.04e+01	0	40	0	674234368	52	6261
2026-01-04 05:04:54.67	314.36	5.87	-38.8	-40.2	26.8	3.04e+01	0	40	0	676331520	52	6229
2026-01-04 05:04:55.68	314.53	5.83	-39.1	-40.6	26.6	3.04e+01	0	40	0	678428672	52	6499
2026-01-04 05:04:56.69	314.69	5.80	-39.3	-40.7	26.3	3.04e+01	0	40	0	680001536	52	6618
2026-01-04 05:04:57.70	314.85	5.77	-39.2	-40.7	26.4	3.04e+01	0	40	0	682098688	52	6587
2026-01-04 05:04:58.71	315.01	5.74	-39.1	-40.5	26.6	3.04e+01	0	40	0	683671552	52	6428
2026-01-04 05:04:59.72	315.18	5.71	-39.2	-40.6	26.4	3.04e+01	0	40	0	685768704	52	6548
2026-01-04 05:05:00.73	315.34	5.68	-39.2	-40.6	26.4	3.04e+01	0	40	0	687341568	52	6562
2026-01-04 05:05:01.74	315.50	5.65	-39.0	-40.4	26.6	3.04e+01	0	40	0	689438720	52	6400
2026-01-04 05:05:02.74	315.66	5.62	-39.1	-40.5	26.4	3.04e+01	0	40	0	691535872	52	6496
2026-01-04 05:05:03.75	315.82	5.59	-39.2	-40.7	26.2	3.04e+01	0	40	0	693108736	52	6587
2026-01-04 05:05:04.76	315.98	5.56	-39.1	-40.6	26.5	3.04e+01	0	40	0	695205888	52	6507
2026-01-04 05:05:05.77	316.14	5.53	-39.1	-40.5	26.4	3.04e+01	0	40	0	696778752	52	6489
2026-01-04 05:05:06.78	316.30	5.49	-39.2	-40.6	26.4	3.04e+01	0	40	0	698875904	52	6564
2026-01-04 05:05:07.79	316.46	5.46	-39.6	-41.0	26.0	3.04e+01	0	40	0	700973056	52	6841
2026-01-04 05:05:08.80	316.62	5.43	-39.5	-40.9	25.9	3.04e+01	0	40	0	702545920	54	6038
2026-01-04 05:05:09.81	316.78	5.40	-40.2	-41.7	26.1	3.04e+01	0	40	0	704643072	54	6626
2026-01-04 05:05:10.82	316.94	5.37	-39.8	-41.2	25.9	3.04e+01	0	40	0	706740224	54	6266
2026-01-04 05:05:11.83	317.09	5.33	-40.2	-41.6	26.0	3.04e+01	0	40	0	708313088	54	6536
2026-01-04 05:05:12.84	317.25	5.30	-40.1	-41.6	25.9	3.04e+01	0	40	0	710410240	54	6528
2026-01-04 05:05:13.85	317.41	5.27	-40.4	-41.9	25.7	3.04e+01	0	40	0	711983104	54	6782
2026-01-04 05:05:14.86	317.57	5.24	-39.6	-41.0	26.4	3.04e+01	0	40	0	714080256	54	6070
2026-01-04 05:05:15.87	317.72	5.20	-39.8	-41.2	26.3	3.04e+01	0	40	0	716177408	54	6243
2026-01-04 05:05:16.88	317.88	5.17	-39.6	-41.0	25.9	3.04e+01	0	40	0	717750272	54	6126
2026-01-04 05:05:17.89	318.03	5.14	-39.5	-40.9	26.5	3.04e+01	0	40	0	719847424	54	6018
2026-01-04 05:05:18.89	318.19	5.11	-39.3	-40.7	26.3	3.04e+01	0	40	0	721420288	54	5898
2026-01-04 05:05:19.90	318.34	5.07	-39.4	-40.8	26.3	3.04e+01	0	40	0	723517440	52	6704
2026-01-04 05:05:20.91	318.50	5.04	-39.9	-41.4	26.1	3.04e+01	0	40	0	725614592	52	7156
2026-01-04 05:05:21.92	318.65	5.01	-40.2	-41.8	25.7	3.04e+01	0	40	0	727187456	54	6651
2026-01-04 05:05:22.93	318.80	4.97	-39.9	-41.3	26.0	3.04e+01	0	40	0	729284608	54	6343
2026-01-04 05:05:23.93	318.96	4.94	-39.7	-41.2	26.1	3.04e+01	0	40	0	731381760	54	6235
2026-01-04 05:05:24.94	319.11	4.90	-39.6	-41.0	26.0	3.04e+01	0	40	0	732954624	54	6103
2026-01-04 05:05:25.95	319.26	4.87	-39.6	-41.1	26.1	3.04e+01	0	40	0	735051776	54	6138
2026-01-04 05:05:26.96	319.41	4.84	-39.4	-40.8	26.1	3.04e+01	0	40	0	736624640	54	5973
2026-01-04 05:05:27.97	319.57	4.80	-39.3	-40.7	26.3	3.04e+01	0	40	0	738721792	54	5914
2026-01-04 05:05:28.98	319.72	4.77	-39.4	-40.9	26.2	3.04e+01	0	40	0	740818944	54	6015
2026-01-04 05:05:29.99	319.87	4.73	-39.5	-41.0	26.0	3.04e+01	0	40	0	742391808	54	6104
2026-01-04 05:05:31.00	320.02	4.70	-39.6	-41.1	26.1	3.04e+01	0	40	0	744488960	54	6168
2026-01-04 05:05:32.01	320.17	4.66	-39.8	-41.2	25.9	3.04e+01	0	40	0	746061824	54	6273
2026-01-04 05:05:33.02	320.32	4.63	-39.7	-41.1	26.1	3.04e+01	0	40	0	748158976	54	6197
2026-01-04 05:05:34.02	320.47	4.60	-39.5	-41.0	26.2	3.04e+01	0	40	0	749731840	54	6075
2026-01-04 05:05:35.03	320.62	4.56	-39.4	-40.8	26.3	3.04e+01	0	40	0	751828992	54	5953
2026-01-04 05:05:36.04	320.77	4.53	-39.6	-41.0	26.0	3.04e+01	0	40	0	753926144	54	6123
2026-01-04 05:05:37.05	320.92	4.49	-39.6	-41.0	26.2	3.04e+01	0	40	0	755499008	54	6108
2026-01-04 05:05:38.06	321.06	4.46	-40.1	-41.6	26.1	3.04e+01	0	40	0	757596160	54	6520
2026-01-04 05:05:39.07	321.21	4.42	-40.3	-41.7	26.0	3.04e+01	0	40	0	759693312	54	6645
2026-01-04 05:05:40.08	321.36	4.38	-40.2	-41.7	25.6	3.04e+01	0	40	0	761266176	54	6594
2026-01-04 05:05:41.09	321.51	4.35	-40.7	-42.2	25.7	3.04e+01	0	40	0	763363328	54	7037
2026-01-04 05:05:42.10	321.65	4.31	-40.2	-41.7	25.8	3.04e+01	0	40	0	764936192	56	5920
2026-01-04 05:05:43.11	321.80	4.28	-40.7	-42.3	25.4	3.04e+01	0	40	0	767033344	56	6280
2026-01-04 05:05:44.12	321.94	4.24	-40.7	-42.2	25.8	3.04e+01	0	40	0	769130496	56	6245
2026-01-04 05:05:45.13	322.09	4.21	-40.1	-41.6	25.8	3.04e+01	0	40	0	770703360	56	5805
2026-01-04 05:05:46.13	322.23	4.17	-40.5	-41.9	25.8	3.04e+01	0	40	0	772800512	56	6043
2026-01-04 05:05:47.14	322.38	4.14	-40.8	-42.3	25.5	3.04e+01	0	40	0	774897664	56	6293
2026-01-04 05:05:48.15	322.52	4.10	-40.6	-42.0	25.7	3.04e+01	0	40	0	776470528	56	6123
2026-01-04 05:05:49.16	322.67	4.06	-40.2	-41.7	26.0	3.04e+01	0	40	0	778567680	56	5874
2026-01-04 05:05:50.17	322.81	4.03	-40.7	-42.2	25.8	3.04e+01	0	40	0	780140544	56	6234
2026-01-04 05:05:51.18	322.95	3.99	-40.8	-42.3	25.7	3.04e+01	0	40	0	782237696	56	6296
2026-01-04 05:05:52.19	323.10	3.95	-40.7	-42.2	25.4	3.04e+01	0	40	0	784334848	56	6245
2026-01-04 05:05:53.20	323.24	3.92	-41.5	-43.1	25.4	3.04e+01	0	40	0	785907712	56	6918
2026-01-04 05:05:54.21	323.38	3.88	-41.1	-42.6	25.6	3.04e+01	0	40	0	788004864	56	6555
2026-01-04 05:05:55.21	323.52	3.84	-41.1	-42.6	25.6	3.04e+01	0	40	0	789577728	56	6569
2026-01-04 05:05:56.22	323.66	3.81	-41.0	-42.5	25.7	3.04e+01	0	40	0	791674880	56	6478
2026-01-04 05:05:57.23	323.80	3.77	-41.1	-42.7	25.4	3.04e+01	0	40	0	793772032	56	6595
2026-01-04 05:05:58.24	323.95	3.73	-41.3	-42.8	25.3	3.04e+01	0	40	0	795344896	56	6724
2026-01-04 05:05:59.25	324.09	3.70	-41.0	-42.6	25.6	3.04e+01	0	40	0	797442048	56	6501
2026-01-04 05:06:00.26	324.23	3.66	-40.5	-42.0	25.5	3.04e+01	0	40	0	799014912	56	6095
2026-01-04 05:06:01.27	324.37	3.62	-40.7	-42.2	25.4	3.04e+01	0	40	0	801112064	56	6238
2026-01-04 05:06:02.28	324.50	3.59	-41.2	-42.8	25.2	3.04e+01	0	40	0	803209216	56	6656
2026-01-04 05:06:03.29	324.64	3.55	-40.7	-42.2	25.6	3.04e+01	0	40	0	804782080	56	6211
2026-01-04 05:06:04.30	324.78	3.51	-41.2	-42.8	25.0	3.04e+01	0	40	0	806879232	56	6654
2026-01-04 05:06:05.31	324.92	3.47	-41.7	-49.9	3.4	3.04e+01	0	40	104	808452096	56	15082
2026-01-04 05:06:06.32	325.06	3.44	-41.1	-51.4	3.4	3.04e+01	0	40	104	808452096	58	16123
2026-01-04 05:06:07.33	325.19	3.40	-41.3	-51.6	3.6	3.04e+01	0	40	104	808452096	56	18371
2026-01-04 05:06:08.34	325.33	3.36	-41.4	-51.7	3.6	3.04e+01	0	40	104	808452096	56	18637
2026-01-04 05:06:09.35	325.47	3.32	-41.0	-51.2	3.6	3.04e+01	0	40	104	808452096	56	17683
2026-01-04 05:06:10.36	325.60	3.29	-41.3	-51.6	3.6	3.04e+01	0	40	104	808452096	56	18479
2026-01-04 05:06:11.37	325.74	3.25	-49.7	-66.8	3.5	3.04e+01	0	40	104	808452096	60	84222
2026-01-04 05:06:12.38	325.88	3.21	-45.5	-56.8	3.6	3.04e+01	0	40	104	808452096	60	26753
2026-01-04 05:06:13.38	326.01	3.17	-46.1	-57.8	3.5	3.04e+01	0	40	104	808452096	60	29857
2026-01-04 05:06:14.39	326.14	3.14	-43.7	-54.5	3.6	3.04e+01	0	40	104	808452096	60	20488
2026-01-04 05:06:15.40	326.28	3.10	-44.4	-55.6	3.6	3.04e+01	0	40	104	808452096	60	23258
2026-01-04 05:06:16.41	326.41	3.06	-43.6	-54.5	3.6	3.04e+01	0	40	104	808452096	60	20529
2026-01-04 05:06:17.42	326.55	3.02	-47.8	-61.0	3.4	3.04e+01	0	40	104	808452096	60	43111
2026-01-04 05:06:18.43	326.68	2.98	-50.4	-68.4	3.5	3.04e+01	0	40	104	808452096	60	101657
2026-01-04 05:06:19.44	326.81	2.94	-50.4	-68.5	3.5	3.04e+01	0	40	104	808452096	60	102874
2026-01-04 05:06:20.44	326.94	2.91	-50.8	-68.7	3.5	3.04e+01	0	40	104	808452096	60	104186
2026-01-04 05:06:21.45	327.08	2.87	-50.3	-68.6	3.5	3.04e+01	0	40	104	808452096	60	103193
2026-01-04 05:06:22.46	327.21	2.83	-50.3	-68.6	3.5	3.04e+01	0	40	104	808452096	60	104080
2026-01-04 05:06:23.47	327.34	2.79	-50.2	-68.5	3.5	3.04e+01	0	40	104	808452096	60	102453
2026-01-04 05:06:24.48	327.47	2.75	-49.8	-68.5	3.5	3.04e+01	0	40	104	808452096	60	102106
2026-01-04 05:06:25.49	327.60	2.71	-50.3	-68.5	3.5	3.04e+01	0	40	104	808452096	60	102142
2026-01-04 05:06:26.50	327.73	2.68	-50.1	-68.5	3.5	3.04e+01	0	40	104	808452096	60	101977
2026-01-04 05:06:27.51	327.86	2.64	-50.7	-68.7	3.5	3.04e+01	0	40	104	808452096	60	105240
2026-01-04 05:06:28.52	327.99	2.60	-51.1	-69.2	3.5	3.04e+01	0	40	104	808452096	60	110618
2026-01-04 05:06:29.53	328.12	2.56	-51.1	-69.0	3.5	3.04e+01	0	40	104	808452096	60	109040
2026-01-04 05:06:30.54	328.25	2.52	-50.8	-68.7	3.5	3.04e+01	0	40	104	808452096	60	105180
2026-01-04 05:06:31.55	328.38	2.48	-51.1	-69.0	3.5	3.04e+01	0	40	104	808452096	60	108327
2026-01-04 05:06:32.56	328.51	2.44	-50.6	-68.7	3.5	3.04e+01	0	40	104	808452096	60	105315
2026-01-04 05:06:33.56	328.63	2.40	-51.0	-69.0	3.5	3.04e+01	0	40	104	808452096	60	108850
2026-01-04 05:06:34.58	328.76	2.37	-51.3	-69.0	3.5	3.04e+01	0	40	104	808452096	60	109073
2026-01-04 05:06:35.58	328.89	2.33	-51.1	-69.0	3.5	3.04e+01	0	40	104	808452096	60	108099
2026-01-04 05:06:36.60	329.01	2.29	-51.1	-69.0	3.5	3.04e+01	0	40	104	808452096	60	108353
2026-01-04 05:06:37.60	329.14	2.25	-51.3	-69.1	3.5	3.04e+01	0	40	104	808452096	60	110075
2026-01-04 05:06:38.61	329.27	2.21	-52.0	-69.8	3.5	3.04e+01	0	40	104	808452096	60	119144
2026-01-04 05:06:39.63	329.39	2.17	-52.1	-70.0	3.5	3.04e+01	0	40	104	808452096	60	121065
2026-01-04 05:06:40.64	329.52	2.13	-51.6	-69.4	3.5	3.04e+01	0	40	104	808452096	60	113982
2026-01-04 05:06:41.65	329.64	2.09	-51.8	-69.6	3.5	3.04e+01	0	40	104	808452096	60	116078
2026-01-04 05:06:42.65	329.77	2.05	-51.4	-69.2	3.5	3.04e+01	0	40	104	808452096	60	111196
2026-01-04 05:06:43.67	329.89	2.01	-52.0	-69.9	3.5	3.04e+01	0	40	104	808452096	60	119680
2026-01-04 05:06:44.68	330.02	1.97	-51.6	-69.5	3.5	3.04e+01	0	40	104	808452096	60	114463
2026-01-04 05:06:45.69	330.14	1.93	-50.9	-68.7	3.5	3.04e+01	0	40	104	808452096	60	105206
2026-01-04 05:06:46.70	330.26	1.89	-51.4	-69.2	3.5	3.04e+01	0	40	104	808452096	60	111439
2026-01-04 05:06:47.71	330.39	1.85	-51.5	-69.4	3.5	3.04e+01	0	40	104	808452096	60	112983
2026-01-04 05:06:48.72	330.51	1.81	-52.0	-69.9	3.5	3.04e+01	0	40	104	808452096	60	120095
2026-01-04 05:06:49.73	330.63	1.77	-51.9	-69.7	3.5	3.04e+01	0	40	104	808452096	60	117840
2026-01-04 05:06:50.74	330.75	1.74	-51.9	-69.8	3.5	3.04e+01	0	40	104	808452096	60	118837
2026-01-04 05:06:51.75	330.87	1.70	-51.6	-69.4	3.4	3.04e+01	0	40	104	808452096	60	113667
2026-01-04 05:06:52.76	331.00	1.66	-51.5	-69.3	3.5	3.04e+01	0	40	104	808452096	60	112808
2026-01-04 05:06:53.77	331.12	1.62	-52.2	-69.9	3.5	3.04e+01	0	40	104	808452096	60	120947
2026-01-04 05:06:54.78	331.24	1.58	-51.6	-69.5	3.5	3.04e+01	0	40	104	808452096	60	114346
2026-01-04 05:06:55.79	331.36	1.54	-51.7	-69.5	3.5	3.04e+01	0	40	104	808452096	60	114886
2026-01-04 05:06:56.80	331.48	1.50	-51.5	-69.3	3.5	3.04e+01	0	40	104	808452096	60	112599
2026-01-04 05:06:57.81	331.60	1.46	-51.8	-69.6	3.5	3.04e+01	0	40	104	808452096	60	116168
2026-01-04 05:06:58.82	331.72	1.42	-51.9	-69.7	3.5	3.04e+01	0	40	104	808452096	60	117979
2026-01-04 05:06:59.83	331.83	1.38	-52.2	-70.0	3.5	3.04e+01	0	40	104	808452096	60	121406
2026-01-04 05:07:00.84	331.95	1.34	-51.7	-69.5	3.5	3.04e+01	0	40	104	808452096	60	115284
2026-01-04 05:07:01.85	332.07	1.30	-52.4	-70.3	3.5	3.04e+01	0	40	104	808452096	60	125605
2026-01-04 05:07:02.86	332.19	1.26	-52.0	-69.9	3.5	3.04e+01	0	40	104	808452096	60	119959
2026-01-04 05:07:03.87	332.31	1.22	-51.5	-69.3	3.5	3.04e+01	0	40	104	808452096	60	112867
2026-01-04 05:07:04.88	332.42	1.18	-51.6	-69.4	3.5	3.04e+01	0	40	104	808452096	60	113858
2026-01-04 05:07:05.89	332.54	1.14	-51.3	-69.2	3.5	3.04e+01	0	40	104	808452096	60	110855
2026-01-04 05:07:06.90	332.66	1.10	-51.6	-69.5	3.5	3.04e+01	0	40	104	808452096	60	114630
2026-01-04 05:07:07.91	332.77	1.06	-52.0	-69.8	3.5	3.04e+01	0	40	104	808452096	60	119187
2026-01-04 05:07:08.92	332.89	1.02	-52.2	-70.1	3.5	3.04e+01	0	40	104	808452096	60	122529
2026-01-04 05:07:09.93	333.00	0.98	-51.4	-69.2	3.5	3.04e+01	0	40	104	808452096	60	110779
2026-01-04 05:07:10.94	333.12	0.94	-51.7	-69.5	3.5	3.04e+01	0	40	104	808452096	60	115019
2026-01-04 05:07:11.95	333.23	0.90	-52.3	-70.1	3.5	3.04e+01	0	40	104	808452096	60	122866
2026-01-04 05:07:12.96	333.35	0.85	-51.8	-69.6	3.5	3.04e+01	0	40	104	808452096	60	116600
2026-01-04 05:07:13.97	333.46	0.81	-51.2	-69.1	3.5	3.04e+01	0	40	104	808452096	60	109590
2026-01-04 05:07:14.98	333.58	0.77	-51.9	-69.8	3.5	3.04e+01	0	40	104	808452096	60	118334
2026-01-04 05:07:15.99	333.69	0.73	-51.4	-69.2	3.5	3.04e+01	0	40	104	808452096	60	111075
2026-01-04 05:07:16.99	333.80	0.69	-52.6	-70.5	3.5	3.04e+01	0	40	104	808452096	60	128809
2026-01-04 05:07:18.00	333.92	0.65	-52.0	-69.8	3.5	3.04e+01	0	40	104	808452096	60	119524
2026-01-04 05:07:19.01	334.03	0.61	-52.1	-69.9	3.5	3.04e+01	0	40	104	808452096	60	120302
2026-01-04 05:07:20.02	334.14	0.57	-51.6	-69.5	3.5	3.04e+01	0	40	104	808452096	60	114334
2026-01-04 05:07:21.03	334.25	0.53	-52.3	-70.1	3.5	3.04e+01	0	40	104	808452096	60	122777
2026-01-04 05:07:22.04	334.36	0.49	-52.1	-69.9	3.5	3.04e+01	0	40	104	808452096	60	120342
2026-01-04 05:07:23.05	334.48	0.45	-52.1	-69.9	3.5	3.04e+01	0	40	104	808452096	60	120223
2026-01-04 05:07:24.06	334.59	0.41	-52.0	-69.9	3.5	3.04e+01	0	40	104	808452096	60	119808
2026-01-04 05:07:25.07	334.70	0.37	-52.0	-69.9	3.5	3.04e+01	0	40	104	808452096	60	120232
2026-01-04 05:07:26.08	334.81	0.33	-51.8	-69.7	3.5	3.04e+01	0	40	104	808452096	60	117293
2026-01-04 05:07:27.09	334.92	0.29	-51.3	-69.2	3.5	3.04e+01	0	40	104	808452096	60	110601
2026-01-04 05:07:28.10	335.03	0.25	-51.9	-69.8	3.5	3.04e+01	0	40	104	808452096	60	118320
2026-01-04 05:07:29.11	335.14	0.21	-50.9	-68.7	3.5	3.04e+01	0	40	104	808452096	60	105181
2026-01-04 05:07:30.12	335.25	0.17	-51.1	-68.9	3.5	3.04e+01	0	40	104	808452096	60	107185
2026-01-04 05:07:31.13	335.36	0.13	-51.4	-69.3	3.5	3.04e+01	0	40	104	808452096	60	112072
2026-01-04 05:07:32.14	335.46	0.09	-51.0	-68.9	3.5	3.04e+01	0	40	104	808452096	60	107283
2026-01-04 05:07:33.15	335.57	0.05	-52.1	-70.0	3.5	3.04e+01	0	40	104	808452096	60	121415
2026-01-04 05:07:34.16	335.68	0.00	-51.6	-69.4	3.5	3.04e+01	0	40	104	808452096	60	113948
2026-01-04 05:07:35.17	335.79	-0.04	-51.4	-69.2	3.5	3.04e+01	0	40	104	808452096	60	110400

#Closed at: 2026-01-04 05:07:35
#Recorded file [808 MB]: D:/lorett/data/35029_260104_165741.dat