passes_logs/2026/01/04/R4.6S_Anadyr/R4.6S_Anadyr__20260104_212732_SUOMI_NPP_rec.log

#Pass ID: 20260104_212732_SUOMI NPP
#Satellite: SUOMI NPP
#Configuration: NPP
#almurnet v.1.7.20251203
#Start time: 2026-01-04 21:27:33

#Version: 2.2.20231116
#Station: R4.6S_Anadyr
#Location: 177.4865 lon 64.73178 lat
#TLE: 1 37849U 11061A   26001.07732418  .00000182  00000+0  10735-3 0  9990
#TLE: 2 37849  98.7795 303.2470 0002580  87.2016 272.9455 14.19520779734739

#Time	Az	El	Level	Level2	SNR	BER	BlckErr	Temp	State	Recorded	gain1	gain2
2026-01-04 21:27:33.29	89.45	0.04	-48.7	-59.5	3.5	8.45e-01	0	28	0	0	60	33961
2026-01-04 21:27:34.29	89.39	0.09	-49.4	-64.6	3.6	1.51e+00	0	29	104	0	60	61452
2026-01-04 21:27:35.30	89.32	0.14	-49.1	-64.4	3.6	1.51e+00	0	29	104	0	60	59737
2026-01-04 21:27:36.31	89.26	0.19	-49.1	-64.2	3.6	1.51e+00	0	29	104	0	60	58674
2026-01-04 21:27:37.32	89.20	0.25	-49.0	-64.3	3.6	1.51e+00	0	29	104	0	60	59008
2026-01-04 21:27:38.33	89.13	0.30	-48.8	-64.0	3.6	1.51e+00	0	29	104	0	60	57235
2026-01-04 21:27:39.34	89.07	0.36	-48.8	-64.0	3.6	1.51e+00	0	29	104	0	60	57174
2026-01-04 21:27:40.35	89.01	0.41	-48.8	-64.0	3.6	1.51e+00	0	29	104	0	60	56995
2026-01-04 21:27:41.36	88.94	0.46	-48.9	-64.0	3.6	1.51e+00	0	29	104	0	60	57387
2026-01-04 21:27:42.37	88.88	0.52	-48.8	-63.9	3.6	1.51e+00	0	29	104	0	60	56775
2026-01-04 21:27:43.38	88.82	0.57	-48.6	-63.9	3.6	1.51e+00	0	29	104	0	60	56590
2026-01-04 21:27:44.39	88.75	0.62	-48.6	-63.8	3.6	1.51e+00	0	30	104	0	60	55900
2026-01-04 21:27:45.40	88.69	0.68	-48.5	-63.8	3.6	1.51e+00	0	29	104	0	60	55682
2026-01-04 21:27:46.41	88.62	0.73	-48.4	-63.6	3.6	1.51e+00	0	30	104	0	60	54775
2026-01-04 21:27:47.42	88.56	0.79	-47.9	-63.5	3.6	1.51e+00	0	30	104	0	60	53898
2026-01-04 21:27:48.43	88.49	0.84	-48.1	-63.3	3.6	1.51e+00	0	30	104	0	60	53043
2026-01-04 21:27:49.44	88.43	0.89	-47.3	-62.9	3.6	1.51e+00	0	30	104	0	60	50324
2026-01-04 21:27:50.45	88.36	0.95	-46.7	-62.3	3.6	1.51e+00	0	30	104	0	60	47287
2026-01-04 21:27:51.46	88.29	1.00	-46.7	-62.3	3.6	1.51e+00	0	30	104	0	60	47221
2026-01-04 21:27:52.47	88.23	1.06	-46.7	-62.3	3.6	1.51e+00	0	30	104	0	60	47027
2026-01-04 21:27:53.48	88.16	1.11	-46.7	-62.3	3.6	1.51e+00	0	30	104	0	60	47300
2026-01-04 21:27:54.49	88.09	1.17	-46.7	-62.3	3.6	1.51e+00	0	30	104	0	60	47257
2026-01-04 21:27:55.50	88.03	1.22	-46.7	-62.3	3.6	1.51e+00	0	30	104	0	60	47206
2026-01-04 21:27:56.51	87.96	1.28	-46.8	-62.3	3.6	1.51e+00	0	30	104	0	60	46984
2026-01-04 21:27:57.52	87.89	1.33	-46.8	-62.3	3.6	1.51e+00	0	30	104	0	60	46988
2026-01-04 21:27:58.53	87.82	1.38	-46.7	-62.3	3.6	1.51e+00	0	30	104	0	60	47050
2026-01-04 21:27:59.54	87.76	1.44	-46.7	-62.2	3.6	1.51e+00	0	30	104	0	60	46799
2026-01-04 21:28:00.54	87.69	1.49	-46.7	-62.2	3.6	1.51e+00	0	30	104	0	60	46600
2026-01-04 21:28:01.55	87.62	1.55	-46.7	-62.2	3.6	1.51e+00	0	30	104	0	60	46788
2026-01-04 21:28:02.56	87.55	1.60	-46.7	-62.3	3.6	1.51e+00	0	30	104	0	60	46969
2026-01-04 21:28:03.57	87.48	1.66	-46.7	-62.3	3.6	1.51e+00	0	30	104	0	60	46940
2026-01-04 21:28:04.58	87.41	1.71	-46.7	-62.3	3.6	1.51e+00	0	30	104	0	60	47168
2026-01-04 21:28:05.59	87.34	1.77	-46.8	-62.3	3.6	1.51e+00	0	30	104	0	60	47154
2026-01-04 21:28:06.60	87.27	1.82	-46.8	-62.3	3.6	1.51e+00	0	30	104	0	60	47080
2026-01-04 21:28:07.61	87.20	1.88	-46.8	-62.3	3.6	1.51e+00	0	30	104	0	60	47187
2026-01-04 21:28:08.62	87.13	1.94	-46.8	-62.2	3.6	1.51e+00	0	30	104	0	60	46810
2026-01-04 21:28:09.63	87.06	1.99	-46.7	-62.2	3.6	1.51e+00	0	30	104	0	60	46640
2026-01-04 21:28:10.64	86.99	2.05	-46.7	-62.2	3.6	1.51e+00	0	30	104	0	60	46413
2026-01-04 21:28:11.64	86.92	2.10	-46.7	-62.1	3.6	1.51e+00	0	30	104	0	60	45920
2026-01-04 21:28:12.65	86.85	2.16	-46.7	-61.8	3.6	1.51e+00	0	30	104	0	60	44592
2026-01-04 21:28:13.66	86.78	2.21	-46.7	-62.1	3.6	1.51e+00	0	30	104	0	60	45986
2026-01-04 21:28:14.67	86.70	2.27	-46.7	-62.0	3.6	1.51e+00	0	30	104	0	60	45685
2026-01-04 21:28:15.68	86.63	2.33	-46.7	-62.3	3.6	1.51e+00	0	30	104	0	60	46988
2026-01-04 21:28:16.69	86.56	2.38	-46.7	-62.3	3.6	1.51e+00	0	30	104	0	60	47320
2026-01-04 21:28:17.70	86.48	2.44	-46.7	-62.3	3.6	1.51e+00	0	30	104	0	60	46942
2026-01-04 21:28:18.71	86.41	2.49	-46.7	-62.1	3.6	1.51e+00	0	30	104	0	60	46184
2026-01-04 21:28:19.72	86.34	2.55	-46.7	-62.2	3.6	1.51e+00	0	30	104	0	60	46597
2026-01-04 21:28:20.73	86.26	2.61	-46.8	-62.3	3.6	1.51e+00	0	30	104	0	60	47095
2026-01-04 21:28:21.74	86.19	2.66	-46.7	-62.3	3.5	1.51e+00	0	30	104	0	60	46909
2026-01-04 21:28:22.75	86.11	2.72	-46.7	-61.9	3.6	1.51e+00	0	30	104	0	60	45002
2026-01-04 21:28:23.76	86.04	2.77	-46.7	-61.3	3.6	1.51e+00	0	30	104	0	60	42044
2026-01-04 21:28:24.77	85.96	2.83	-46.7	-61.2	3.6	1.51e+00	0	30	104	0	60	41551
2026-01-04 21:28:25.78	85.89	2.89	-46.7	-61.5	3.6	1.51e+00	0	30	104	0	60	43191
2026-01-04 21:28:26.79	85.81	2.94	-46.8	-62.1	3.6	1.51e+00	0	30	104	0	60	46126
2026-01-04 21:28:27.80	85.74	3.00	-46.8	-61.1	3.6	1.51e+00	0	30	104	0	60	41207
2026-01-04 21:28:28.81	85.66	3.06	-46.7	-58.8	3.7	1.51e+00	0	30	104	0	60	31332
2026-01-04 21:28:29.82	85.58	3.12	-46.5	-56.0	5.0	7.03e-01	0	30	0	0	60	22928
2026-01-04 21:28:30.83	85.51	3.17	-46.2	-53.6	6.7	3.27e-01	0	30	0	2097152	60	17232
2026-01-04 21:28:31.84	85.43	3.23	-46.7	-58.3	3.6	7.34e-02	0	30	104	3145728	60	29595
2026-01-04 21:28:32.85	85.35	3.29	-47.0	-62.0	3.6	1.51e+00	0	30	104	3145728	60	45326
2026-01-04 21:28:33.86	85.27	3.34	-45.8	-52.7	8.9	1.50e+00	0	30	104	3145728	60	15670
2026-01-04 21:28:34.87	85.20	3.40	-42.5	-44.9	16.8	1.30e-01	0	30	0	3145728	60	6335
2026-01-04 21:28:35.87	85.12	3.46	-46.9	-59.4	3.4	0.00e+00	16	30	0	5242880	60	33858
2026-01-04 21:28:36.88	85.04	3.51	-45.6	-51.7	5.6	1.51e+00	0	30	104	5242880	60	13951
2026-01-04 21:28:37.89	84.96	3.57	-40.7	-42.4	18.6	0.00e+00	0	30	0	5242880	54	6700
2026-01-04 21:28:38.90	84.88	3.63	-42.3	-44.6	17.0	0.00e+00	0	30	0	7340032	56	7699
2026-01-04 21:28:39.91	84.80	3.69	-42.5	-44.8	16.4	0.00e+00	0	30	0	8388608	56	7886
2026-01-04 21:28:40.92	84.72	3.74	-42.0	-44.0	17.4	0.00e+00	0	30	0	10485760	56	7222
2026-01-04 21:28:41.93	84.64	3.80	-42.0	-44.1	17.3	0.00e+00	0	30	0	12582912	56	7296
2026-01-04 21:28:42.94	84.56	3.86	-41.7	-43.6	17.8	0.00e+00	0	30	0	14680064	56	6912
2026-01-04 21:28:43.95	84.48	3.92	-41.9	-43.9	17.5	0.00e+00	0	30	0	16777216	56	7092
2026-01-04 21:28:44.96	84.40	3.98	-41.8	-43.7	17.8	0.00e+00	0	30	0	17825792	56	6967
2026-01-04 21:28:45.97	84.31	4.03	-41.8	-43.7	17.6	0.00e+00	0	30	0	19922944	56	6991
2026-01-04 21:28:46.97	84.23	4.09	-41.3	-43.0	18.4	0.00e+00	0	30	0	22020096	56	6455
2026-01-04 21:28:47.98	84.15	4.15	-41.7	-43.6	17.9	0.00e+00	0	30	0	24117248	56	6899
2026-01-04 21:28:48.99	84.07	4.21	-41.4	-43.2	18.1	0.00e+00	0	30	0	25165824	56	6593
2026-01-04 21:28:50.00	83.98	4.27	-41.5	-43.3	18.1	0.00e+00	0	30	0	27262976	56	6684
2026-01-04 21:28:51.01	83.90	4.32	-41.3	-43.0	18.4	0.00e+00	0	30	0	29360128	56	6444
2026-01-04 21:28:52.02	83.82	4.38	-40.9	-42.6	18.9	0.00e+00	0	30	0	31457280	56	6122
2026-01-04 21:28:53.03	83.73	4.44	-41.3	-43.1	18.4	0.00e+00	0	30	0	33554432	56	6470
2026-01-04 21:28:54.03	83.65	4.50	-41.8	-43.8	17.7	0.00e+00	0	30	0	35651584	56	7011
2026-01-04 21:28:55.04	83.56	4.56	-41.6	-43.5	18.1	0.00e+00	0	30	0	36700160	56	6799
2026-01-04 21:28:56.05	83.48	4.62	-41.7	-43.7	18.1	0.00e+00	0	30	0	38797312	56	6935
2026-01-04 21:28:57.06	83.39	4.67	-41.6	-43.5	18.1	0.00e+00	0	30	0	40894464	56	6797
2026-01-04 21:28:58.06	83.31	4.73	-41.5	-43.4	18.4	0.00e+00	0	30	0	42991616	56	6722
2026-01-04 21:28:59.07	83.22	4.79	-41.2	-42.9	18.7	0.00e+00	0	30	0	45088768	56	6380
2026-01-04 21:29:00.08	83.13	4.85	-41.3	-43.0	18.4	0.00e+00	0	30	0	46137344	56	6464
2026-01-04 21:29:01.09	83.05	4.91	-41.3	-43.0	18.6	0.00e+00	0	30	0	48234496	56	6442
2026-01-04 21:29:02.10	82.96	4.97	-41.1	-42.8	18.8	0.00e+00	0	30	0	50331648	56	6249
2026-01-04 21:29:03.11	82.87	5.03	-40.7	-42.3	19.1	0.00e+00	0	30	0	52428800	56	5939
2026-01-04 21:29:04.12	82.78	5.09	-41.0	-42.8	18.9	0.00e+00	0	30	0	54525952	54	7012
2026-01-04 21:29:05.13	82.70	5.15	-41.0	-42.8	18.7	0.00e+00	0	30	0	55574528	54	7018
2026-01-04 21:29:06.14	82.61	5.21	-40.9	-42.6	19.0	0.00e+00	0	30	0	57671680	54	6886
2026-01-04 21:29:07.15	82.52	5.26	-41.0	-42.8	18.8	0.00e+00	0	30	0	59768832	54	7039
2026-01-04 21:29:08.16	82.43	5.32	-40.8	-42.5	19.1	0.00e+00	0	30	0	61865984	54	6846
2026-01-04 21:29:09.16	82.34	5.38	-40.8	-42.5	19.1	0.00e+00	0	30	0	63963136	54	6805
2026-01-04 21:29:10.17	82.25	5.44	-40.7	-42.3	19.2	0.00e+00	0	30	0	65011712	54	6664
2026-01-04 21:29:11.18	82.16	5.50	-40.6	-42.2	19.5	0.00e+00	0	30	0	67108864	54	6540
2026-01-04 21:29:12.19	82.07	5.56	-40.1	-41.5	20.0	0.00e+00	0	30	0	69206016	54	6059
2026-01-04 21:29:13.20	81.97	5.62	-39.9	-41.3	20.2	0.00e+00	0	30	0	71303168	54	5916
2026-01-04 21:29:14.21	81.88	5.68	-39.6	-40.9	20.5	0.00e+00	0	30	0	73400320	52	6353
2026-01-04 21:29:15.22	81.79	5.74	-40.5	-42.0	19.6	0.00e+00	0	30	0	74448896	52	7248
2026-01-04 21:29:16.23	81.70	5.80	-40.6	-42.1	19.5	0.00e+00	0	30	0	76546048	52	7321
2026-01-04 21:29:17.24	81.60	5.86	-40.5	-42.0	19.6	0.00e+00	0	30	0	78643200	52	7196
2026-01-04 21:29:18.25	81.51	5.92	-40.2	-41.7	20.0	0.00e+00	0	30	0	80740352	52	6935
2026-01-04 21:29:19.26	81.42	5.98	-40.3	-41.7	20.0	0.00e+00	0	30	0	82837504	52	7003
2026-01-04 21:29:20.27	81.32	6.04	-40.0	-41.4	20.2	0.00e+00	0	30	0	83886080	52	6768
2026-01-04 21:29:21.27	81.23	6.10	-40.2	-41.6	19.8	0.00e+00	0	30	0	85983232	52	6927
2026-01-04 21:29:22.28	81.13	6.16	-40.2	-41.7	19.9	0.00e+00	0	30	0	88080384	52	6985
2026-01-04 21:29:23.30	81.04	6.22	-40.2	-41.6	20.0	0.00e+00	0	30	0	90177536	52	6925
2026-01-04 21:29:24.31	80.94	6.28	-40.2	-41.7	19.9	0.00e+00	0	30	0	92274688	52	6955
2026-01-04 21:29:25.31	80.84	6.34	-40.5	-42.1	19.6	0.00e+00	0	30	0	93323264	52	7320
2026-01-04 21:29:26.32	80.75	6.40	-40.6	-42.2	19.6	0.00e+00	0	30	0	95420416	52	7393
2026-01-04 21:29:27.33	80.65	6.47	-40.8	-42.4	19.3	0.00e+00	0	30	0	97517568	52	7539
2026-01-04 21:29:28.34	80.55	6.53	-40.9	-42.6	19.1	0.00e+00	0	30	0	99614720	54	6874
2026-01-04 21:29:29.35	80.46	6.59	-40.8	-42.5	19.1	0.00e+00	0	30	0	101711872	54	6842
2026-01-04 21:29:30.36	80.36	6.65	-40.7	-42.4	19.3	9.90e-06	0	30	0	103809024	54	6735
2026-01-04 21:29:31.37	80.26	6.71	-40.4	-42.0	19.7	0.00e+00	0	30	0	104857600	54	6431
2026-01-04 21:29:32.38	80.16	6.77	-40.5	-42.1	19.7	0.00e+00	0	30	0	106954752	54	6506
2026-01-04 21:29:33.39	80.06	6.83	-40.9	-42.6	19.2	0.00e+00	0	30	0	109051904	54	6852
2026-01-04 21:29:34.40	79.96	6.89	-40.9	-42.5	19.2	0.00e+00	0	30	0	111149056	54	6820
2026-01-04 21:29:35.41	79.86	6.95	-41.2	-42.9	18.7	0.00e+00	0	30	0	113246208	54	7156
2026-01-04 21:29:36.42	79.76	7.01	-40.8	-42.5	19.3	0.00e+00	0	30	0	114294784	54	6778
2026-01-04 21:29:37.43	79.66	7.08	-41.3	-43.0	18.7	0.00e+00	0	30	0	116391936	54	7236
2026-01-04 21:29:38.43	79.55	7.14	-40.9	-42.5	19.3	0.00e+00	0	30	0	118489088	54	6829
2026-01-04 21:29:39.44	79.45	7.20	-40.8	-42.3	19.3	0.00e+00	0	30	0	120586240	54	6691
2026-01-04 21:29:40.46	79.35	7.26	-40.9	-42.5	19.3	0.00e+00	0	30	0	122683392	54	6798
2026-01-04 21:29:41.47	79.24	7.32	-40.6	-42.1	19.9	0.00e+00	0	30	0	123731968	54	6498
2026-01-04 21:29:42.47	79.14	7.38	-40.6	-42.2	19.5	0.00e+00	0	30	0	125829120	54	6572
2026-01-04 21:29:43.48	79.04	7.44	-40.8	-42.4	19.3	0.00e+00	0	30	0	127926272	54	6753
2026-01-04 21:29:44.49	78.93	7.51	-40.1	-41.5	20.2	0.00e+00	0	30	0	130023424	54	6101
2026-01-04 21:29:45.50	78.83	7.57	-39.8	-41.2	20.5	0.00e+00	0	30	0	132120576	54	5853
2026-01-04 21:29:46.51	78.72	7.63	-40.4	-41.9	19.8	0.00e+00	0	30	0	133169152	54	6339
2026-01-04 21:29:47.52	78.62	7.69	-40.3	-41.7	20.1	0.00e+00	0	30	0	135266304	54	6207
2026-01-04 21:29:48.53	78.51	7.75	-40.2	-41.5	20.1	0.00e+00	0	30	0	137363456	54	6093
2026-01-04 21:29:49.54	78.40	7.82	-40.1	-41.5	20.2	5.30e-06	0	30	0	139460608	54	6035
2026-01-04 21:29:50.55	78.30	7.88	-40.2	-41.6	20.2	0.00e+00	0	30	0	141557760	54	6112
2026-01-04 21:29:51.56	78.19	7.94	-40.1	-41.5	20.2	0.00e+00	0	30	0	142606336	54	6046
2026-01-04 21:29:52.57	78.08	8.00	-40.1	-41.5	20.2	0.00e+00	0	30	0	144703488	54	6067
2026-01-04 21:29:53.58	77.97	8.06	-39.9	-41.3	20.4	0.00e+00	0	30	0	146800640	54	5929
2026-01-04 21:29:54.58	77.86	8.13	-40.2	-41.7	20.2	0.00e+00	0	30	0	148897792	52	6932
2026-01-04 21:29:55.59	77.75	8.19	-40.2	-41.6	20.2	0.00e+00	0	30	0	150994944	52	6872
2026-01-04 21:29:56.60	77.64	8.25	-40.4	-41.8	20.1	0.00e+00	0	30	0	152043520	52	7079
2026-01-04 21:29:57.61	77.53	8.31	-40.2	-41.6	20.1	0.00e+00	0	30	0	154140672	52	6869
2026-01-04 21:29:58.62	77.42	8.38	-40.0	-41.4	20.3	0.00e+00	0	30	0	156237824	52	6741
2026-01-04 21:29:59.63	77.31	8.44	-40.5	-42.0	19.8	0.00e+00	0	30	0	158334976	52	7236
2026-01-04 21:30:00.64	77.20	8.50	-40.4	-41.9	19.7	0.00e+00	0	30	0	160432128	52	7134
2026-01-04 21:30:01.65	77.08	8.56	-40.3	-41.8	20.1	0.00e+00	0	30	0	161480704	52	7033
2026-01-04 21:30:02.65	76.97	8.63	-40.6	-42.1	19.7	0.00e+00	0	30	0	163577856	52	7327
2026-01-04 21:30:03.66	76.86	8.69	-40.4	-41.9	19.9	0.00e+00	0	30	0	165675008	52	7147
2026-01-04 21:30:04.67	76.74	8.75	-40.3	-41.8	20.0	0.00e+00	0	30	0	167772160	52	7059
2026-01-04 21:30:05.68	76.63	8.81	-40.4	-42.0	19.9	0.00e+00	0	30	0	169869312	52	7180
2026-01-04 21:30:06.69	76.51	8.88	-40.2	-41.7	20.1	0.00e+00	0	30	0	170917888	52	6989
2026-01-04 21:30:07.70	76.40	8.94	-40.4	-42.0	20.1	0.00e+00	0	30	0	173015040	52	7175
2026-01-04 21:30:08.71	76.28	9.00	-40.3	-41.8	20.0	0.00e+00	0	30	0	175112192	52	7047
2026-01-04 21:30:09.72	76.16	9.07	-40.1	-41.6	20.2	0.00e+00	0	30	0	177209344	52	6880
2026-01-04 21:30:10.73	76.05	9.13	-40.7	-42.3	19.6	0.00e+00	0	30	0	179306496	52	7437
2026-01-04 21:30:11.73	75.93	9.19	-40.4	-42.0	19.8	0.00e+00	0	30	0	180355072	52	7189
2026-01-04 21:30:12.74	75.81	9.26	-40.3	-41.8	20.1	0.00e+00	0	30	0	182452224	52	7082
2026-01-04 21:30:13.75	75.69	9.32	-40.0	-41.4	20.4	0.00e+00	0	30	0	184549376	52	6709
2026-01-04 21:30:14.76	75.57	9.38	-40.1	-41.6	20.2	0.00e+00	0	30	0	186646528	52	6849
2026-01-04 21:30:15.77	75.45	9.44	-40.1	-41.5	20.2	0.00e+00	0	30	0	188743680	52	6792
2026-01-04 21:30:16.78	75.33	9.51	-40.1	-41.5	20.4	0.00e+00	0	30	0	189792256	52	6811
2026-01-04 21:30:17.79	75.21	9.57	-39.4	-40.6	21.1	0.00e+00	0	30	0	191889408	52	6126
2026-01-04 21:30:18.80	75.09	9.64	-39.3	-40.5	21.2	0.00e+00	0	30	0	193986560	52	6069
2026-01-04 21:30:19.81	74.97	9.70	-39.2	-40.4	21.2	0.00e+00	0	30	0	196083712	52	6019
2026-01-04 21:30:20.82	74.85	9.76	-39.3	-40.6	21.1	0.00e+00	0	30	0	198180864	52	6110
2026-01-04 21:30:21.83	74.72	9.83	-39.5	-40.8	21.0	0.00e+00	0	30	0	200278016	52	6271
2026-01-04 21:30:22.84	74.60	9.89	-39.5	-40.8	21.0	0.00e+00	0	30	0	201326592	52	6283
2026-01-04 21:30:23.84	74.48	9.95	-39.3	-40.5	20.9	0.00e+00	0	30	0	203423744	52	6079
2026-01-04 21:30:24.85	74.35	10.02	-39.4	-40.6	21.1	0.00e+00	0	30	0	205520896	52	6135
2026-01-04 21:30:25.86	74.23	10.08	-39.5	-40.8	21.0	0.00e+00	0	30	0	207618048	52	6261
2026-01-04 21:30:26.87	74.10	10.14	-39.7	-41.0	20.8	0.00e+00	0	30	0	209715200	52	6407
2026-01-04 21:30:27.88	73.97	10.21	-39.6	-40.8	20.9	0.00e+00	0	30	0	210763776	52	6291
2026-01-04 21:30:28.89	73.85	10.27	-39.8	-41.1	20.8	0.00e+00	0	30	0	212860928	52	6498
2026-01-04 21:30:29.90	73.72	10.33	-39.7	-41.0	20.9	0.00e+00	0	30	0	214958080	52	6399
2026-01-04 21:30:30.91	73.59	10.40	-39.8	-41.2	20.6	0.00e+00	0	30	0	217055232	52	6540
2026-01-04 21:30:31.92	73.46	10.46	-40.2	-41.7	20.1	0.00e+00	0	30	0	219152384	52	6928
2026-01-04 21:30:32.93	73.33	10.53	-40.3	-41.8	20.1	0.00e+00	0	30	0	220200960	52	7015
2026-01-04 21:30:33.94	73.20	10.59	-40.4	-41.9	20.0	0.00e+00	0	30	0	222298112	52	7109
2026-01-04 21:30:34.95	73.07	10.65	-40.5	-42.0	19.9	0.00e+00	0	30	0	224395264	52	7173
2026-01-04 21:30:35.96	72.94	10.72	-40.3	-41.7	20.2	0.00e+00	0	30	0	226492416	52	6961
2026-01-04 21:30:36.97	72.81	10.78	-40.3	-41.8	20.1	0.00e+00	0	30	0	228589568	52	7034
2026-01-04 21:30:37.97	72.68	10.84	-40.2	-41.6	20.2	0.00e+00	0	30	0	229638144	52	6921
2026-01-04 21:30:38.98	72.55	10.91	-40.1	-41.5	20.4	0.00e+00	0	30	0	231735296	52	6820
2026-01-04 21:30:39.99	72.41	10.97	-40.5	-41.9	20.1	0.00e+00	0	30	0	233832448	52	7162
2026-01-04 21:30:41.00	72.28	11.04	-40.1	-41.4	20.4	0.00e+00	0	30	0	235929600	52	6761
2026-01-04 21:30:42.01	72.14	11.10	-40.1	-41.4	20.5	0.00e+00	0	30	0	238026752	52	6721
2026-01-04 21:30:43.02	72.01	11.16	-39.9	-41.2	20.7	0.00e+00	0	30	0	239075328	52	6576
2026-01-04 21:30:44.02	71.88	11.23	-39.8	-41.1	20.7	0.00e+00	0	30	0	241172480	52	6485
2026-01-04 21:30:45.03	71.74	11.29	-39.7	-40.9	21.0	0.00e+00	0	30	0	243269632	52	6340
2026-01-04 21:30:46.04	71.60	11.36	-39.6	-40.8	21.0	0.00e+00	0	30	0	245366784	52	6254
2026-01-04 21:30:47.05	71.46	11.42	-39.5	-40.7	21.2	0.00e+00	0	30	0	247463936	52	6210
2026-01-04 21:30:48.05	71.33	11.48	-39.5	-40.7	21.2	0.00e+00	0	30	0	248512512	52	6199
2026-01-04 21:30:49.06	71.19	11.55	-39.3	-40.5	21.3	0.00e+00	0	30	0	250609664	52	6063
2026-01-04 21:30:50.07	71.05	11.61	-39.2	-40.4	21.3	0.00e+00	0	30	0	252706816	52	5984
2026-01-04 21:30:51.08	70.91	11.68	-39.3	-40.5	21.3	0.00e+00	0	30	0	254803968	52	6079
2026-01-04 21:30:52.09	70.77	11.74	-39.3	-40.5	21.1	0.00e+00	0	30	0	256901120	52	6055
2026-01-04 21:30:53.10	70.63	11.80	-39.2	-40.3	21.3	0.00e+00	0	30	0	257949696	52	5958
2026-01-04 21:30:54.11	70.48	11.87	-39.2	-40.3	21.1	0.00e+00	0	30	0	260046848	52	5935
2026-01-04 21:30:55.12	70.34	11.93	-39.4	-40.6	21.2	0.00e+00	0	30	0	262144000	52	6139
2026-01-04 21:30:56.13	70.20	12.00	-39.3	-40.4	21.4	0.00e+00	0	30	0	264241152	52	6019
2026-01-04 21:30:57.14	70.06	12.06	-39.3	-40.5	21.2	0.00e+00	0	30	0	266338304	52	6052
2026-01-04 21:30:58.15	69.91	12.12	-39.4	-40.6	21.2	0.00e+00	0	30	0	267386880	52	6119
2026-01-04 21:30:59.16	69.77	12.19	-39.3	-40.5	21.3	0.00e+00	0	30	0	269484032	52	6075
2026-01-04 21:31:00.16	69.62	12.25	-39.3	-40.5	21.2	0.00e+00	0	30	0	271581184	52	6071
2026-01-04 21:31:01.17	69.47	12.31	-39.6	-40.9	21.0	0.00e+00	0	31	0	273678336	52	6330
2026-01-04 21:31:02.18	69.33	12.38	-39.5	-40.7	21.1	0.00e+00	0	30	0	275775488	52	6224
2026-01-04 21:31:03.19	69.18	12.44	-39.5	-40.7	21.1	0.00e+00	0	30	0	276824064	52	6208
2026-01-04 21:31:04.20	69.03	12.51	-39.2	-40.3	21.4	0.00e+00	0	30	0	278921216	52	5921
2026-01-04 21:31:05.21	68.88	12.57	-39.3	-40.4	21.3	0.00e+00	0	30	0	281018368	52	5980
2026-01-04 21:31:06.22	68.73	12.63	-39.4	-40.6	21.3	0.00e+00	0	30	0	283115520	52	6111
2026-01-04 21:31:07.22	68.58	12.70	-39.3	-40.5	21.3	0.00e+00	0	30	0	285212672	52	6036
2026-01-04 21:31:08.23	68.43	12.76	-39.4	-40.5	21.3	0.00e+00	0	30	0	286261248	52	6065
2026-01-04 21:31:09.24	68.28	12.82	-39.6	-40.7	21.2	0.00e+00	0	30	0	288358400	52	6243
2026-01-04 21:31:10.25	68.13	12.89	-39.6	-40.8	21.0	0.00e+00	0	30	0	290455552	52	6268
2026-01-04 21:31:11.27	67.97	12.95	-39.6	-40.8	21.1	0.00e+00	0	30	0	292552704	52	6260
2026-01-04 21:31:12.28	67.82	13.02	-39.7	-40.9	21.1	0.00e+00	0	30	0	294649856	52	6342
2026-01-04 21:31:13.29	67.67	13.08	-39.6	-40.8	21.0	0.00e+00	0	30	0	296747008	52	6256
2026-01-04 21:31:14.29	67.51	13.14	-39.5	-40.7	21.2	0.00e+00	0	30	0	297795584	52	6188
2026-01-04 21:31:15.30	67.36	13.21	-39.7	-40.9	21.0	5.30e-06	0	30	0	299892736	52	6349
2026-01-04 21:31:16.31	67.20	13.27	-39.8	-41.0	20.9	0.00e+00	0	30	0	301989888	52	6420
2026-01-04 21:31:17.32	67.04	13.33	-39.9	-41.2	20.8	0.00e+00	0	30	0	304087040	52	6557
2026-01-04 21:31:18.33	66.89	13.40	-39.9	-41.1	20.9	0.00e+00	0	30	0	306184192	52	6503
2026-01-04 21:31:19.34	66.73	13.46	-39.7	-40.9	20.8	0.00e+00	0	30	0	307232768	52	6349
2026-01-04 21:31:20.35	66.57	13.52	-39.8	-41.0	20.7	0.00e+00	0	30	0	309329920	52	6409
2026-01-04 21:31:21.36	66.41	13.59	-39.7	-40.9	21.0	0.00e+00	0	30	0	311427072	52	6376
2026-01-04 21:31:22.37	66.25	13.65	-39.7	-40.9	21.0	0.00e+00	0	30	0	313524224	52	6382
2026-01-04 21:31:23.38	66.09	13.71	-39.8	-41.0	21.0	0.00e+00	0	30	0	315621376	52	6413
2026-01-04 21:31:24.39	65.93	13.78	-39.8	-41.0	20.9	0.00e+00	0	30	0	316669952	52	6424
2026-01-04 21:31:25.40	65.76	13.84	-39.6	-40.8	21.1	0.00e+00	0	30	0	318767104	52	6292
2026-01-04 21:31:26.41	65.60	13.90	-39.5	-40.7	21.3	0.00e+00	0	30	0	320864256	52	6229
2026-01-04 21:31:27.41	65.44	13.96	-39.5	-40.7	21.2	0.00e+00	0	30	0	322961408	52	6203
2026-01-04 21:31:28.42	65.27	14.03	-39.3	-40.4	21.4	0.00e+00	0	31	0	325058560	52	6016
2026-01-04 21:31:29.43	65.11	14.09	-39.2	-40.3	21.6	0.00e+00	0	30	0	326107136	52	5963
2026-01-04 21:31:30.44	64.94	14.15	-39.6	-40.7	21.2	0.00e+00	0	30	0	328204288	52	6220
2026-01-04 21:31:31.45	64.77	14.21	-39.5	-40.7	21.1	0.00e+00	0	30	0	330301440	52	6225
2026-01-04 21:31:32.46	64.61	14.28	-39.9	-41.2	20.9	0.00e+00	0	31	0	332398592	52	6547
2026-01-04 21:31:33.47	64.44	14.34	-40.0	-41.2	20.7	0.00e+00	0	31	0	334495744	52	6574
2026-01-04 21:31:34.47	64.27	14.40	-40.4	-41.7	20.4	0.00e+00	0	30	0	335544320	52	6966
2026-01-04 21:31:35.48	64.10	14.46	-40.0	-41.2	20.8	0.00e+00	0	30	0	337641472	52	6602
2026-01-04 21:31:36.49	63.93	14.53	-39.9	-41.2	21.0	0.00e+00	0	30	0	339738624	52	6554
2026-01-04 21:31:37.50	63.76	14.59	-40.0	-41.2	20.8	0.00e+00	0	30	0	341835776	52	6611
2026-01-04 21:31:38.51	63.59	14.65	-39.7	-41.0	21.1	0.00e+00	0	30	0	343932928	52	6406
2026-01-04 21:31:39.52	63.42	14.71	-39.7	-40.9	20.9	0.00e+00	0	31	0	344981504	52	6377
2026-01-04 21:31:40.53	63.24	14.77	-39.6	-40.8	21.2	0.00e+00	0	30	0	347078656	52	6270
2026-01-04 21:31:41.54	63.07	14.83	-39.7	-40.9	21.1	0.00e+00	0	30	0	349175808	52	6356
2026-01-04 21:31:42.55	62.89	14.90	-39.4	-40.6	21.3	0.00e+00	0	30	0	351272960	52	6158
2026-01-04 21:31:43.56	62.72	14.96	-39.4	-40.6	21.5	2.20e-06	0	31	0	353370112	52	6124
2026-01-04 21:31:44.57	62.54	15.02	-39.2	-40.4	21.5	0.00e+00	0	30	0	354418688	52	5994
2026-01-04 21:31:45.58	62.36	15.08	-38.7	-39.8	22.0	0.00e+00	0	31	0	356515840	52	5592
2026-01-04 21:31:46.59	62.19	15.14	-38.7	-39.8	22.0	0.00e+00	0	30	0	358612992	50	6287
2026-01-04 21:31:47.60	62.01	15.20	-38.4	-39.5	22.3	0.00e+00	0	30	0	360710144	50	6041
2026-01-04 21:31:48.61	61.83	15.26	-38.4	-39.4	22.1	0.00e+00	0	30	0	362807296	50	6027
2026-01-04 21:31:49.62	61.65	15.32	-38.3	-39.4	22.2	0.00e+00	0	30	0	364904448	50	5989
2026-01-04 21:31:50.63	61.47	15.38	-38.4	-39.4	22.3	0.00e+00	0	30	0	365953024	50	6023
2026-01-04 21:31:51.64	61.29	15.44	-38.2	-39.3	22.4	0.00e+00	0	30	0	368050176	50	5900
2026-01-04 21:31:52.65	61.10	15.50	-38.0	-39.0	22.6	0.00e+00	0	30	0	370147328	50	5749
2026-01-04 21:31:53.66	60.92	15.56	-37.9	-38.9	22.7	0.00e+00	0	30	0	372244480	50	5678
2026-01-04 21:31:54.67	60.74	15.62	-38.0	-39.0	22.7	0.00e+00	0	30	0	374341632	50	5702
2026-01-04 21:31:55.68	60.55	15.68	-37.8	-38.7	22.8	0.00e+00	0	30	0	375390208	48	6245
2026-01-04 21:31:56.69	60.37	15.74	-38.1	-39.1	22.6	0.00e+00	0	30	0	377487360	48	6494
2026-01-04 21:31:57.69	60.18	15.80	-37.9	-38.9	22.7	0.00e+00	0	30	0	379584512	48	6356
2026-01-04 21:31:58.70	60.00	15.86	-37.9	-38.9	22.6	0.00e+00	0	30	0	381681664	48	6333
2026-01-04 21:31:59.71	59.81	15.92	-37.8	-38.8	23.0	0.00e+00	0	31	0	383778816	48	6308
2026-01-04 21:32:00.72	59.62	15.98	-37.7	-38.6	22.9	0.00e+00	0	31	0	384827392	48	6172
2026-01-04 21:32:01.73	59.43	16.04	-37.5	-38.4	23.1	0.00e+00	0	31	0	386924544	48	6011
2026-01-04 21:32:02.74	59.24	16.09	-37.5	-38.4	23.2	1.22e-05	0	31	0	389021696	48	6020
2026-01-04 21:32:03.75	59.05	16.15	-37.4	-38.4	23.0	0.00e+00	0	30	0	391118848	48	5985
2026-01-04 21:32:04.76	58.86	16.21	-37.4	-38.3	23.1	0.00e+00	0	30	0	393216000	48	5945
2026-01-04 21:32:05.77	58.67	16.27	-37.5	-38.4	23.2	0.00e+00	0	30	0	394264576	48	6011
2026-01-04 21:32:06.78	58.48	16.33	-37.5	-38.4	23.1	0.00e+00	0	31	0	396361728	48	6013
2026-01-04 21:32:07.79	58.29	16.38	-37.8	-38.8	22.9	0.00e+00	0	30	0	398458880	48	6246
2026-01-04 21:32:08.80	58.09	16.44	-37.8	-38.8	22.8	0.00e+00	0	30	0	400556032	48	6264
2026-01-04 21:32:09.81	57.90	16.50	-37.6	-38.5	23.0	0.00e+00	0	30	0	402653184	48	6103
2026-01-04 21:32:10.82	57.70	16.56	-37.5	-38.5	23.1	0.00e+00	0	30	0	403701760	48	6060
2026-01-04 21:32:11.82	57.51	16.61	-37.5	-38.5	23.0	0.00e+00	0	30	0	405798912	48	6072
2026-01-04 21:32:12.83	57.31	16.67	-37.3	-38.2	23.2	0.00e+00	0	30	0	407896064	48	5866
2026-01-04 21:32:13.84	57.11	16.73	-37.3	-38.2	23.3	0.00e+00	0	30	0	409993216	48	5872
2026-01-04 21:32:14.85	56.91	16.78	-37.4	-38.3	23.1	0.00e+00	0	31	0	412090368	48	5959
2026-01-04 21:32:15.86	56.71	16.84	-37.5	-38.4	23.2	0.00e+00	0	30	0	413138944	48	6023
2026-01-04 21:32:16.87	56.51	16.89	-37.1	-38.1	23.4	0.00e+00	0	30	0	415236096	48	5767
2026-01-04 21:32:17.88	56.31	16.95	-37.1	-38.0	23.5	0.00e+00	0	30	0	417333248	48	5713
2026-01-04 21:32:18.89	56.11	17.00	-36.8	-37.6	23.7	0.00e+00	0	30	0	419430400	48	5497
2026-01-04 21:32:19.90	55.91	17.06	-36.9	-37.8	23.5	0.00e+00	0	31	0	421527552	46	6314
2026-01-04 21:32:20.91	55.71	17.11	-37.2	-38.2	23.3	0.00e+00	0	31	0	422576128	46	6548
2026-01-04 21:32:21.92	55.50	17.17	-37.3	-38.2	23.3	6.10e-06	0	31	0	424673280	46	6597
2026-01-04 21:32:22.93	55.30	17.22	-37.6	-38.6	22.9	0.00e+00	0	31	0	426770432	46	6899
2026-01-04 21:32:23.94	55.09	17.28	-37.8	-38.8	22.7	0.00e+00	0	31	0	428867584	48	6268
2026-01-04 21:32:24.95	54.89	17.33	-37.8	-38.9	22.8	0.00e+00	0	30	0	430964736	48	6319
2026-01-04 21:32:25.96	54.68	17.38	-37.9	-38.9	22.7	0.00e+00	0	31	0	433061888	48	6379
2026-01-04 21:32:26.97	54.47	17.44	-37.7	-38.7	23.0	0.00e+00	0	30	0	434110464	48	6188
2026-01-04 21:32:27.98	54.26	17.49	-37.5	-38.5	23.1	0.00e+00	0	31	0	436207616	48	6053
2026-01-04 21:32:28.99	54.06	17.54	-37.2	-38.1	23.3	0.00e+00	0	30	0	438304768	48	5800
2026-01-04 21:32:30.00	53.85	17.59	-37.5	-38.4	23.2	0.00e+00	0	31	0	440401920	48	6016
2026-01-04 21:32:31.01	53.64	17.65	-37.3	-38.3	23.3	0.00e+00	0	31	0	442499072	48	5922
2026-01-04 21:32:32.02	53.42	17.70	-37.4	-38.3	22.7	0.00e+00	0	31	0	443547648	48	5940
2026-01-04 21:32:33.03	53.21	17.75	-37.4	-38.3	23.2	0.00e+00	0	31	0	445644800	48	5930
2026-01-04 21:32:34.03	53.00	17.80	-37.1	-38.1	23.4	0.00e+00	0	31	0	447741952	48	5766
2026-01-04 21:32:35.04	52.79	17.85	-37.2	-38.1	23.4	0.00e+00	0	31	0	449839104	48	5778
2026-01-04 21:32:36.05	52.57	17.90	-37.0	-37.9	23.6	0.00e+00	0	30	0	451936256	48	5639
2026-01-04 21:32:37.06	52.36	17.95	-36.8	-37.7	23.8	0.00e+00	0	30	0	452984832	48	5548
2026-01-04 21:32:38.07	52.14	18.00	-36.3	-37.1	24.2	0.00e+00	0	31	0	455081984	46	5826
2026-01-04 21:32:39.08	51.93	18.05	-36.0	-36.8	24.4	0.00e+00	0	31	0	457179136	46	5590
2026-01-04 21:32:40.09	51.71	18.10	-35.8	-36.6	24.4	0.00e+00	0	31	0	459276288	46	5497
2026-01-04 21:32:41.10	51.49	18.15	-35.9	-36.7	24.3	0.00e+00	0	31	0	461373440	46	5549
2026-01-04 21:32:42.10	51.28	18.20	-36.0	-36.8	24.4	0.00e+00	0	31	0	462422016	46	5612
2026-01-04 21:32:43.12	51.06	18.25	-35.9	-36.7	24.3	0.00e+00	0	30	0	464519168	46	5521
2026-01-04 21:32:44.12	50.84	18.29	-35.9	-36.7	24.3	0.00e+00	0	31	0	466616320	46	5543
2026-01-04 21:32:45.14	50.62	18.34	-36.0	-36.8	24.2	0.00e+00	0	31	0	468713472	46	5581
2026-01-04 21:32:46.15	50.39	18.39	-36.2	-37.1	24.2	0.00e+00	0	31	0	470810624	46	5768
2026-01-04 21:32:47.15	50.18	18.43	-36.4	-37.3	24.0	0.00e+00	0	31	0	471859200	46	5902
2026-01-04 21:32:48.16	49.95	18.48	-36.7	-37.6	23.8	0.00e+00	0	31	0	473956352	46	6128
2026-01-04 21:32:49.17	49.73	18.53	-36.7	-37.6	23.8	0.00e+00	0	31	0	476053504	46	6132
2026-01-04 21:32:50.18	49.51	18.57	-36.6	-37.4	23.9	0.00e+00	0	31	0	478150656	46	6017
2026-01-04 21:32:51.19	49.28	18.62	-36.7	-37.5	23.9	0.00e+00	0	31	0	480247808	46	6088
2026-01-04 21:32:52.20	49.06	18.66	-36.9	-37.7	23.7	0.00e+00	0	31	0	481296384	46	6233
2026-01-04 21:32:53.21	48.83	18.71	-36.9	-37.8	23.7	0.00e+00	0	31	0	483393536	46	6310
2026-01-04 21:32:54.22	48.60	18.75	-37.3	-38.3	23.4	0.00e+00	0	31	0	485490688	46	6620
2026-01-04 21:32:55.23	48.38	18.80	-37.4	-38.4	23.1	0.00e+00	0	31	0	487587840	46	6703
2026-01-04 21:32:56.24	48.15	18.84	-37.3	-38.2	23.2	0.00e+00	0	31	0	489684992	46	6599
2026-01-04 21:32:57.25	47.92	18.88	-37.2	-38.1	23.5	0.00e+00	0	31	0	490733568	46	6488
2026-01-04 21:32:58.26	47.69	18.93	-36.9	-37.8	23.6	0.00e+00	0	31	0	492830720	46	6260
2026-01-04 21:32:59.27	47.46	18.97	-37.2	-38.1	23.5	0.00e+00	0	31	0	494927872	46	6490
2026-01-04 21:33:00.27	47.23	19.01	-37.1	-38.0	23.5	0.00e+00	0	31	0	497025024	46	6436
2026-01-04 21:33:01.29	47.00	19.05	-36.9	-37.8	23.7	0.00e+00	0	31	0	499122176	46	6284
2026-01-04 21:33:02.29	46.77	19.09	-36.6	-37.5	23.9	0.00e+00	0	31	0	500170752	46	6039
2026-01-04 21:33:03.30	46.54	19.13	-36.1	-36.9	24.4	0.00e+00	0	31	0	502267904	46	5666
2026-01-04 21:33:04.31	46.31	19.17	-36.1	-36.9	24.3	0.00e+00	0	31	0	504365056	46	5654
2026-01-04 21:33:05.32	46.07	19.21	-36.3	-37.1	24.2	0.00e+00	0	31	0	506462208	46	5808
2026-01-04 21:33:06.32	45.84	19.25	-36.4	-37.3	24.1	0.00e+00	0	30	0	508559360	46	5902
2026-01-04 21:33:07.33	45.61	19.29	-36.1	-37.0	23.9	0.00e+00	0	31	0	509607936	46	5705
2026-01-04 21:33:08.34	45.37	19.33	-36.1	-36.9	24.2	0.00e+00	0	31	0	511705088	46	5669
2026-01-04 21:33:09.35	45.13	19.37	-35.8	-36.6	24.3	0.00e+00	0	31	0	513802240	46	5481
2026-01-04 21:33:10.36	44.90	19.40	-36.0	-36.8	24.3	0.00e+00	0	31	0	515899392	46	5626
2026-01-04 21:33:11.37	44.66	19.44	-36.2	-37.0	24.2	0.00e+00	0	31	0	517996544	46	5755
2026-01-04 21:33:12.38	44.42	19.48	-36.2	-37.0	24.2	0.00e+00	0	31	0	519045120	46	5723
2026-01-04 21:33:13.39	44.18	19.51	-36.3	-37.1	24.1	0.00e+00	0	31	0	521142272	46	5798
2026-01-04 21:33:14.40	43.95	19.55	-36.3	-37.2	24.3	0.00e+00	0	31	0	523239424	46	5848
2026-01-04 21:33:15.41	43.71	19.59	-36.5	-37.3	24.0	0.00e+00	0	31	0	525336576	46	5925
2026-01-04 21:33:16.42	43.47	19.62	-36.7	-37.5	23.8	0.00e+00	0	30	0	527433728	46	6097
2026-01-04 21:33:17.43	43.23	19.65	-36.9	-37.8	23.6	0.00e+00	0	30	0	529530880	46	6296
2026-01-04 21:33:18.44	42.98	19.69	-37.1	-38.0	23.5	0.00e+00	0	30	0	530579456	46	6394
2026-01-04 21:33:19.45	42.74	19.72	-37.1	-38.0	23.4	0.00e+00	0	30	0	532676608	46	6459
2026-01-04 21:33:20.45	42.50	19.75	-37.1	-38.0	23.6	0.00e+00	0	31	0	534773760	46	6416
2026-01-04 21:33:21.47	42.26	19.79	-37.0	-37.9	23.6	0.00e+00	0	31	0	536870912	46	6348
2026-01-04 21:33:22.48	42.02	19.82	-37.2	-38.1	23.4	0.00e+00	0	31	0	538968064	46	6505
2026-01-04 21:33:23.49	41.77	19.85	-37.8	-38.7	23.1	0.00e+00	0	31	0	540016640	46	6979
2026-01-04 21:33:24.50	41.53	19.88	-38.0	-39.0	22.7	0.00e+00	0	31	0	542113792	48	6430
2026-01-04 21:33:25.51	41.28	19.91	-38.2	-39.3	22.6	0.00e+00	0	31	0	544210944	48	6620
2026-01-04 21:33:26.52	41.04	19.94	-38.5	-39.5	22.4	0.00e+00	0	30	0	546308096	48	6808
2026-01-04 21:33:27.52	40.80	19.97	-38.6	-39.6	22.3	0.00e+00	0	31	0	548405248	48	6915
2026-01-04 21:33:28.53	40.55	20.00	-38.7	-39.8	22.1	0.00e+00	0	30	0	549453824	50	6248
2026-01-04 21:33:29.54	40.30	20.03	-38.8	-39.9	22.0	0.00e+00	0	31	0	551550976	50	6369
2026-01-04 21:33:30.55	40.06	20.05	-39.0	-40.1	21.7	0.00e+00	0	31	0	553648128	50	6515
2026-01-04 21:33:31.56	39.81	20.08	-38.4	-39.4	22.6	0.00e+00	0	30	0	555745280	50	5984
2026-01-04 21:33:32.57	39.56	20.11	-38.1	-39.0	22.7	0.00e+00	0	30	0	557842432	50	5760
2026-01-04 21:33:33.58	39.31	20.13	-37.9	-38.8	23.1	0.00e+00	0	30	0	558891008	50	5620
2026-01-04 21:33:34.59	39.06	20.16	-37.8	-38.8	23.0	0.00e+00	0	30	0	560988160	48	6262
2026-01-04 21:33:35.60	38.81	20.18	-38.0	-39.0	22.8	0.00e+00	0	31	0	563085312	48	6417
2026-01-04 21:33:36.61	38.57	20.21	-38.4	-39.4	22.4	0.00e+00	0	31	0	565182464	48	6765
2026-01-04 21:33:37.62	38.32	20.23	-38.4	-39.5	22.4	0.00e+00	0	30	0	567279616	48	6811
2026-01-04 21:33:38.63	38.07	20.26	-38.4	-39.5	22.4	0.00e+00	0	31	0	568328192	48	6781
2026-01-04 21:33:39.64	37.81	20.28	-38.4	-39.4	22.4	0.00e+00	0	31	0	570425344	48	6724
2026-01-04 21:33:40.64	37.57	20.30	-38.1	-39.1	22.6	0.00e+00	0	30	0	572522496	48	6538
2026-01-04 21:33:41.65	37.31	20.32	-38.1	-39.1	22.7	0.00e+00	0	30	0	574619648	48	6528
2026-01-04 21:33:42.66	37.06	20.34	-38.0	-39.0	22.7	0.00e+00	0	31	0	576716800	48	6451
2026-01-04 21:33:43.67	36.81	20.36	-38.2	-39.2	22.5	0.00e+00	0	31	0	577765376	48	6603
2026-01-04 21:33:44.68	36.56	20.38	-38.3	-39.3	22.4	0.00e+00	0	31	0	579862528	48	6659
2026-01-04 21:33:45.69	36.31	20.40	-38.4	-39.4	22.4	0.00e+00	0	31	0	581959680	48	6720
2026-01-04 21:33:46.70	36.05	20.42	-38.5	-39.5	22.3	0.00e+00	0	30	0	584056832	48	6815
2026-01-04 21:33:47.71	35.80	20.44	-38.7	-39.7	22.1	9.10e-06	0	31	0	586153984	50	6215
2026-01-04 21:33:48.72	35.55	20.46	-38.8	-39.9	22.0	0.00e+00	0	31	0	587202560	50	6323
2026-01-04 21:33:49.73	35.29	20.48	-38.7	-39.8	22.1	0.00e+00	0	31	0	589299712	50	6288
2026-01-04 21:33:50.74	35.04	20.49	-38.5	-39.5	22.3	0.00e+00	0	31	0	591396864	50	6053
2026-01-04 21:33:51.75	34.78	20.51	-38.0	-38.9	22.7	0.00e+00	0	31	0	593494016	50	5684
2026-01-04 21:33:52.75	34.53	20.52	-37.8	-38.8	22.3	0.00e+00	0	31	0	595591168	50	5571
2026-01-04 21:33:53.76	34.28	20.54	-37.8	-38.8	22.9	0.00e+00	0	31	0	597688320	48	6263
2026-01-04 21:33:54.77	34.02	20.55	-37.8	-38.8	22.9	0.00e+00	0	31	0	598736896	48	6277
2026-01-04 21:33:55.78	33.77	20.57	-37.9	-38.8	22.8	0.00e+00	0	31	0	600834048	48	6308
2026-01-04 21:33:56.79	33.51	20.58	-38.2	-39.2	22.6	0.00e+00	0	30	0	602931200	48	6546
2026-01-04 21:33:57.80	33.25	20.59	-38.6	-39.6	22.2	0.00e+00	0	31	0	605028352	48	6903
2026-01-04 21:33:58.81	33.00	20.60	-38.5	-39.6	22.2	0.00e+00	0	30	0	607125504	48	6866
2026-01-04 21:33:59.82	32.74	20.61	-38.6	-39.6	22.3	0.00e+00	0	31	0	608174080	48	6899
2026-01-04 21:34:00.83	32.49	20.63	-38.6	-39.6	22.2	0.00e+00	0	30	0	610271232	48	6892
2026-01-04 21:34:01.84	32.23	20.64	-38.5	-39.6	22.3	0.00e+00	0	31	0	612368384	48	6849
2026-01-04 21:34:02.85	31.97	20.64	-38.4	-39.4	22.4	0.00e+00	0	31	0	614465536	48	6766
2026-01-04 21:34:03.86	31.72	20.65	-38.5	-39.5	22.2	0.00e+00	0	31	0	616562688	48	6803
2026-01-04 21:34:04.87	31.46	20.66	-38.4	-39.5	22.3	0.00e+00	0	31	0	617611264	48	6787
2026-01-04 21:34:05.88	31.20	20.67	-38.5	-39.6	22.1	0.00e+00	0	31	0	619708416	48	6871
2026-01-04 21:34:06.89	30.94	20.68	-38.3	-39.3	22.4	0.00e+00	0	31	0	621805568	48	6687
2026-01-04 21:34:07.90	30.69	20.68	-38.3	-39.3	22.4	0.00e+00	0	31	0	623902720	48	6665
2026-01-04 21:34:08.91	30.43	20.69	-38.3	-39.3	22.5	0.00e+00	0	31	0	625999872	48	6618
2026-01-04 21:34:09.92	30.17	20.69	-38.4	-39.5	22.4	0.00e+00	0	31	0	627048448	48	6780
2026-01-04 21:34:10.93	29.91	20.70	-38.3	-39.3	22.5	0.00e+00	0	31	0	629145600	48	6625
2026-01-04 21:34:11.93	29.66	20.70	-37.8	-38.7	22.8	0.00e+00	0	31	0	631242752	48	6234
2026-01-04 21:34:12.94	29.40	20.71	-37.8	-38.7	22.9	0.00e+00	0	31	0	633339904	48	6226
2026-01-04 21:34:13.95	29.14	20.71	-37.8	-38.7	23.0	0.00e+00	0	31	0	635437056	48	6231
2026-01-04 21:34:14.96	28.89	20.71	-37.6	-38.6	23.1	0.00e+00	0	31	0	636485632	48	6115
2026-01-04 21:34:15.97	28.63	20.71	-37.6	-38.5	23.1	0.00e+00	0	31	0	638582784	48	6079
2026-01-04 21:34:16.98	28.37	20.71	-37.6	-38.5	23.1	0.00e+00	0	31	0	640679936	48	6085
2026-01-04 21:34:17.99	28.11	20.71	-37.7	-38.6	23.1	0.00e+00	0	31	0	642777088	48	6135
2026-01-04 21:34:19.00	27.85	20.71	-37.7	-38.6	23.0	0.00e+00	0	31	0	644874240	48	6144
2026-01-04 21:34:20.01	27.60	20.71	-37.7	-38.7	23.0	0.00e+00	0	31	0	645922816	48	6209
2026-01-04 21:34:21.02	27.34	20.71	-38.1	-39.2	22.7	0.00e+00	0	31	0	648019968	48	6558
2026-01-04 21:34:22.02	27.08	20.71	-38.4	-39.4	22.4	0.00e+00	0	30	0	650117120	48	6756
2026-01-04 21:34:23.04	26.82	20.70	-38.6	-39.7	22.2	0.00e+00	0	31	0	652214272	48	6966
2026-01-04 21:34:24.04	26.57	20.70	-38.8	-39.9	21.9	0.00e+00	0	30	0	654311424	48	7116
2026-01-04 21:34:25.05	26.31	20.70	-38.9	-40.0	21.9	0.00e+00	0	31	0	655360000	50	6423
2026-01-04 21:34:26.06	26.05	20.69	-38.6	-39.7	22.2	0.00e+00	0	30	0	657457152	50	6219
2026-01-04 21:34:27.07	25.79	20.69	-38.3	-39.3	22.6	0.00e+00	0	31	0	659554304	50	5962
2026-01-04 21:34:28.08	25.54	20.68	-37.8	-38.7	23.0	0.00e+00	0	30	0	661651456	50	5537
2026-01-04 21:34:29.09	25.28	20.68	-37.3	-38.2	23.4	0.00e+00	0	31	0	663748608	48	5895
2026-01-04 21:34:30.10	25.02	20.67	-37.0	-37.9	23.5	0.00e+00	0	31	0	665845760	48	5653
2026-01-04 21:34:31.11	24.77	20.66	-36.9	-37.7	22.9	0.00e+00	0	31	0	666894336	48	5552
2026-01-04 21:34:32.12	24.51	20.65	-36.9	-37.7	23.6	0.00e+00	0	31	0	668991488	46	6216
2026-01-04 21:34:33.13	24.25	20.64	-36.7	-37.5	23.8	0.00e+00	0	31	0	671088640	46	6082
2026-01-04 21:34:34.14	23.99	20.63	-36.8	-37.7	23.6	0.00e+00	0	31	0	673185792	46	6175
2026-01-04 21:34:35.15	23.74	20.62	-36.5	-37.3	23.9	0.00e+00	0	31	0	675282944	46	5945
2026-01-04 21:34:36.16	23.48	20.61	-36.6	-37.4	23.9	0.00e+00	0	31	0	676331520	46	6008
2026-01-04 21:34:37.17	23.23	20.60	-36.1	-36.9	24.3	0.00e+00	0	31	0	678428672	46	5679
2026-01-04 21:34:38.18	22.97	20.59	-36.1	-36.9	24.4	0.00e+00	0	30	0	680525824	46	5644
2026-01-04 21:34:39.18	22.72	20.58	-36.1	-36.9	24.3	0.00e+00	0	31	0	682622976	46	5644
2026-01-04 21:34:40.19	22.46	20.56	-36.2	-37.0	24.2	0.00e+00	0	31	0	683671552	46	5709
2026-01-04 21:34:41.20	22.21	20.55	-36.4	-37.2	24.1	0.00e+00	0	31	0	685768704	46	5874
2026-01-04 21:34:42.21	21.95	20.54	-36.4	-37.2	23.9	0.00e+00	0	31	0	687865856	46	5861
2026-01-04 21:34:43.22	21.70	20.52	-36.7	-37.5	23.8	0.00e+00	0	31	0	689963008	46	6083
2026-01-04 21:34:44.22	21.44	20.51	-36.5	-37.4	23.9	0.00e+00	0	31	0	692060160	46	6001
2026-01-04 21:34:45.23	21.19	20.49	-36.4	-37.3	24.2	0.00e+00	0	31	0	694157312	46	5935
2026-01-04 21:34:46.24	20.94	20.47	-36.2	-37.0	24.3	0.00e+00	0	31	0	695205888	46	5729
2026-01-04 21:34:47.25	20.68	20.46	-36.1	-37.0	24.3	0.00e+00	0	31	0	697303040	46	5706
2026-01-04 21:34:48.26	20.43	20.44	-36.2	-37.0	24.3	0.00e+00	0	31	0	699400192	46	5739
2026-01-04 21:34:49.27	20.18	20.42	-36.2	-37.1	24.0	0.00e+00	0	30	0	701497344	46	5771
2026-01-04 21:34:50.28	19.92	20.40	-36.7	-37.6	24.0	0.00e+00	0	30	0	703594496	46	6127
2026-01-04 21:34:51.29	19.67	20.38	-36.3	-37.1	24.0	0.00e+00	0	30	0	704643072	46	5823
2026-01-04 21:34:52.30	19.42	20.36	-36.5	-37.3	23.8	0.00e+00	0	31	0	706740224	46	5947
2026-01-04 21:34:53.30	19.17	20.34	-36.6	-37.4	24.0	0.00e+00	0	30	0	708837376	46	6015
2026-01-04 21:34:54.31	18.92	20.32	-36.5	-37.3	23.8	0.00e+00	0	30	0	710934528	46	5934
2026-01-04 21:34:55.32	18.67	20.30	-36.4	-37.2	24.1	0.00e+00	0	31	0	713031680	46	5874
2026-01-04 21:34:56.33	18.42	20.28	-36.7	-37.5	23.9	0.00e+00	0	30	0	714080256	46	6088
2026-01-04 21:34:57.34	18.17	20.25	-36.7	-37.5	23.9	0.00e+00	0	31	0	716177408	46	6076
2026-01-04 21:34:58.35	17.92	20.23	-36.5	-37.3	23.8	0.00e+00	0	30	0	718274560	46	5951
2026-01-04 21:34:59.36	17.67	20.21	-36.8	-37.6	23.8	0.00e+00	0	31	0	720371712	46	6169
2026-01-04 21:35:00.37	17.42	20.18	-36.8	-37.6	23.7	0.00e+00	0	31	0	722468864	46	6159
2026-01-04 21:35:01.38	17.17	20.16	-37.0	-37.9	23.5	0.00e+00	0	30	0	723517440	46	6360
2026-01-04 21:35:02.39	16.92	20.13	-36.8	-37.7	23.5	0.00e+00	0	30	0	725614592	46	6182
2026-01-04 21:35:03.40	16.67	20.10	-37.0	-37.8	23.9	0.00e+00	0	30	0	727711744	46	6298
2026-01-04 21:35:04.41	16.42	20.08	-36.7	-37.6	23.8	3.00e-06	0	31	0	729808896	46	6123
2026-01-04 21:35:05.42	16.18	20.05	-36.8	-37.7	23.7	0.00e+00	0	31	0	731906048	46	6185
2026-01-04 21:35:06.43	15.93	20.02	-37.4	-38.3	23.3	0.00e+00	0	30	0	732954624	46	6646
2026-01-04 21:35:07.43	15.69	19.99	-37.5	-38.4	23.2	0.00e+00	0	31	0	735051776	46	6731
2026-01-04 21:35:08.44	15.44	19.97	-37.9	-38.9	23.1	0.00e+00	0	30	0	737148928	48	6333
2026-01-04 21:35:09.45	15.20	19.94	-38.5	-39.5	22.3	0.00e+00	0	30	0	739246080	48	6848
2026-01-04 21:35:10.46	14.95	19.91	-38.0	-39.0	22.7	0.00e+00	0	30	0	741343232	48	6434
2026-01-04 21:35:11.47	14.71	19.88	-37.9	-38.9	22.8	0.00e+00	0	31	0	742391808	48	6377
2026-01-04 21:35:12.48	14.46	19.85	-37.9	-38.9	22.8	0.00e+00	0	30	0	744488960	48	6334
2026-01-04 21:35:13.49	14.22	19.81	-37.9	-38.9	22.7	0.00e+00	0	31	0	746586112	48	6349
2026-01-04 21:35:14.50	13.98	19.78	-37.7	-38.7	22.9	0.00e+00	0	30	0	748683264	48	6202
2026-01-04 21:35:15.51	13.74	19.75	-38.0	-39.0	22.8	0.00e+00	0	31	0	750780416	48	6451
2026-01-04 21:35:16.52	13.49	19.72	-37.9	-38.9	22.8	0.00e+00	0	30	0	751828992	48	6325
2026-01-04 21:35:17.53	13.25	19.68	-38.3	-39.3	22.4	0.00e+00	0	31	0	753926144	48	6665
2026-01-04 21:35:18.32	13.06	19.66	-38.6	-39.7	22.2	0.00e+00	0	31	0	756023296	50	6220
2026-01-04 21:35:19.47	12.79	19.62	-38.9	-40.1	21.7	0.00e+00	0	31	0	758120448	50	6479
2026-01-04 21:35:20.34	12.59	19.59	-39.4	-40.6	21.5	0.00e+00	0	31	0	760217600	50	6912
2026-01-04 21:35:21.49	12.31	19.55	-39.1	-40.2	21.7	0.00e+00	0	30	0	762314752	50	6575
2026-01-04 21:35:22.35	12.11	19.52	-39.0	-40.1	22.0	0.00e+00	0	31	0	763363328	50	6486
2026-01-04 21:35:23.51	11.84	19.48	-39.2	-40.3	21.6	0.00e+00	0	31	0	765460480	50	6661
2026-01-04 21:35:24.37	11.63	19.45	-38.9	-40.0	21.9	0.00e+00	0	31	0	767557632	50	6460
2026-01-04 21:35:25.53	11.36	19.40	-39.0	-40.1	21.9	0.00e+00	0	31	0	769654784	50	6513
2026-01-04 21:35:26.39	11.16	19.37	-38.8	-39.9	22.0	0.00e+00	0	31	0	771751936	50	6343
2026-01-04 21:35:27.54	10.89	19.33	-38.7	-39.8	22.2	0.00e+00	0	31	0	773849088	50	6273
2026-01-04 21:35:28.41	10.69	19.29	-38.5	-39.5	22.4	0.00e+00	0	31	0	774897664	50	6071
2026-01-04 21:35:29.56	10.42	19.25	-37.8	-38.8	23.0	0.00e+00	0	31	0	776994816	50	5592
2026-01-04 21:35:30.43	10.22	19.22	-37.6	-38.6	23.0	0.00e+00	0	31	0	779091968	48	6107
2026-01-04 21:35:31.58	9.96	19.17	-37.6	-38.5	23.0	0.00e+00	0	31	0	781189120	48	6091
2026-01-04 21:35:32.44	9.76	19.14	-37.6	-38.6	23.0	0.00e+00	0	31	0	782237696	48	6130
2026-01-04 21:35:33.60	9.49	19.09	-37.8	-38.8	22.9	0.00e+00	0	30	0	784334848	48	6267
2026-01-04 21:35:34.47	9.29	19.06	-37.9	-38.9	22.9	0.00e+00	0	31	0	786432000	48	6333
2026-01-04 21:35:35.62	9.03	19.01	-37.6	-38.6	22.9	0.00e+00	0	31	0	788529152	48	6128
2026-01-04 21:35:36.48	8.83	18.97	-37.9	-38.9	22.7	0.00e+00	0	30	0	790626304	48	6324
2026-01-04 21:35:37.64	8.57	18.92	-37.8	-38.8	22.9	0.00e+00	0	31	0	792723456	48	6270
2026-01-04 21:35:38.50	8.38	18.89	-37.6	-38.6	23.2	0.00e+00	0	31	0	793772032	48	6104
2026-01-04 21:35:39.65	8.12	18.84	-37.5	-38.4	23.2	0.00e+00	0	31	0	795869184	48	6003
2026-01-04 21:35:40.52	7.92	18.80	-37.3	-38.2	23.4	0.00e+00	0	30	0	797966336	48	5844
2026-01-04 21:35:41.67	7.66	18.75	-37.1	-37.9	23.6	0.00e+00	0	31	0	800063488	48	5674
2026-01-04 21:35:42.54	7.47	18.71	-37.0	-37.8	23.5	0.00e+00	0	31	0	801112064	48	5630
2026-01-04 21:35:43.69	7.21	18.66	-36.9	-37.8	23.6	0.00e+00	0	31	0	803209216	48	5572
2026-01-04 21:35:44.56	7.02	18.62	-36.9	-37.7	23.5	0.00e+00	0	31	0	805306368	48	5547
2026-01-04 21:35:45.71	6.76	18.57	-36.8	-37.6	23.8	0.00e+00	0	30	0	807403520	46	6160
2026-01-04 21:35:46.58	6.57	18.53	-36.7	-37.6	23.5	0.00e+00	0	31	0	809500672	46	6113
2026-01-04 21:35:47.73	6.32	18.48	-36.8	-37.7	23.6	0.00e+00	0	31	0	811597824	46	6198
2026-01-04 21:35:48.59	6.13	18.44	-37.0	-37.9	23.6	0.00e+00	0	31	0	812646400	46	6349
2026-01-04 21:35:49.75	5.87	18.39	-37.6	-38.5	23.0	0.00e+00	0	31	0	814743552	46	6803
2026-01-04 21:35:50.61	5.69	18.35	-37.8	-38.8	22.8	0.00e+00	0	31	0	816840704	48	6251
2026-01-04 21:35:51.76	5.43	18.29	-38.3	-39.3	22.4	2.59e-05	0	31	0	818937856	48	6690
2026-01-04 21:35:52.63	5.25	18.25	-38.8	-39.9	21.9	0.00e+00	0	31	0	819986432	50	6381
2026-01-04 21:35:53.78	5.00	18.20	-39.1	-40.3	21.6	0.00e+00	0	31	0	823132160	50	6625
2026-01-04 21:35:54.65	4.81	18.15	-39.1	-40.3	21.7	0.00e+00	0	31	0	824180736	50	6625
2026-01-04 21:35:55.80	4.56	18.10	-39.1	-40.3	21.6	0.00e+00	0	31	0	826277888	50	6646
2026-01-04 21:35:56.66	4.38	18.06	-39.1	-40.2	21.6	0.00e+00	0	31	0	828375040	50	6611
2026-01-04 21:35:57.81	4.13	18.00	-39.6	-40.8	21.4	0.00e+00	0	31	0	830472192	50	7074
2026-01-04 21:35:58.68	3.95	17.96	-39.3	-40.5	21.4	0.00e+00	0	31	0	831520768	50	6798
2026-01-04 21:35:59.83	3.70	17.90	-39.7	-41.0	21.0	0.00e+00	0	31	0	833617920	52	6445
2026-01-04 21:36:00.70	3.52	17.86	-39.7	-41.0	20.8	0.00e+00	0	31	0	835715072	52	6443
2026-01-04 21:36:01.85	3.28	17.80	-39.9	-41.2	20.8	0.00e+00	0	31	0	837812224	52	6580
2026-01-04 21:36:02.72	3.09	17.76	-40.2	-41.5	20.6	0.00e+00	0	31	0	838860800	52	6805
2026-01-04 21:36:03.87	2.85	17.70	-40.0	-41.3	20.7	0.00e+00	0	31	0	842006528	52	6669
2026-01-04 21:36:04.74	2.67	17.65	-40.0	-41.3	20.8	0.00e+00	0	31	0	843055104	52	6616
2026-01-04 21:36:05.89	2.43	17.59	-39.4	-40.6	21.2	0.00e+00	0	31	0	845152256	52	6133
2026-01-04 21:36:06.76	2.25	17.55	-38.9	-40.0	21.8	0.00e+00	0	31	0	847249408	52	5724
2026-01-04 21:36:07.91	2.01	17.49	-38.4	-39.5	22.3	0.00e+00	0	31	0	849346560	50	6046
2026-01-04 21:36:08.78	1.84	17.44	-37.7	-38.7	22.9	0.00e+00	0	31	0	850395136	50	5556
2026-01-04 21:36:09.93	1.60	17.38	-37.7	-38.7	22.9	0.00e+00	0	30	0	852492288	48	6213
2026-01-04 21:36:10.80	1.42	17.34	-37.4	-38.3	23.2	0.00e+00	0	31	0	854589440	48	5938
2026-01-04 21:36:11.95	1.19	17.28	-36.9	-37.8	23.5	0.00e+00	0	31	0	856686592	48	5588
2026-01-04 21:36:12.81	1.01	17.23	-36.8	-37.7	23.5	0.00e+00	0	30	0	858783744	48	5563
2026-01-04 21:36:13.97	0.78	17.17	-36.8	-37.7	23.7	0.00e+00	0	31	0	860880896	48	5556
2026-01-04 21:36:14.83	0.61	17.12	-36.9	-37.8	23.5	0.00e+00	0	31	0	861929472	48	5602
2026-01-04 21:36:15.99	0.37	17.06	-37.2	-38.1	23.4	0.00e+00	0	31	0	864026624	48	5816
2026-01-04 21:36:16.85	0.20	17.01	-37.5	-38.4	23.1	0.00e+00	0	31	0	866123776	48	5991
2026-01-04 21:36:18.01	359.97	16.95	-37.8	-38.8	22.8	0.00e+00	0	31	0	868220928	48	6279
2026-01-04 21:36:18.87	359.80	16.90	-37.9	-38.9	22.6	0.00e+00	0	31	0	869269504	48	6336
2026-01-04 21:36:20.02	359.57	16.84	-38.3	-39.4	22.3	0.00e+00	0	31	0	871366656	48	6718
2026-01-04 21:36:20.89	359.40	16.79	-38.0	-38.9	22.7	0.00e+00	0	30	0	873463808	48	6382
2026-01-04 21:36:22.04	359.18	16.73	-37.7	-38.7	22.8	0.00e+00	0	31	0	875560960	48	6204
2026-01-04 21:36:22.91	359.01	16.68	-37.4	-38.4	23.0	0.00e+00	0	31	0	877658112	48	5982
2026-01-04 21:36:24.06	358.78	16.61	-37.4	-38.3	23.2	0.00e+00	0	31	0	879755264	48	5918
2026-01-04 21:36:24.92	358.62	16.57	-37.2	-38.1	23.3	0.00e+00	0	31	0	880803840	48	5814
2026-01-04 21:36:26.08	358.39	16.50	-37.3	-38.3	23.0	0.00e+00	0	31	0	882900992	48	5922
2026-01-04 21:36:26.95	358.22	16.45	-37.9	-38.9	22.5	0.00e+00	0	31	0	884998144	48	6385
2026-01-04 21:36:28.10	358.00	16.39	-38.4	-39.5	22.2	0.00e+00	0	31	0	887095296	48	6801
2026-01-04 21:36:28.96	357.84	16.34	-38.4	-39.5	22.1	0.00e+00	0	31	0	888143872	48	6827
2026-01-04 21:36:30.12	357.62	16.27	-39.1	-40.3	21.3	0.00e+00	0	31	0	890241024	50	6661
2026-01-04 21:36:30.98	357.46	16.22	-39.4	-40.6	21.2	0.00e+00	0	31	0	892338176	50	6901
2026-01-04 21:36:32.13	357.24	16.16	-39.4	-40.6	21.2	0.00e+00	0	31	0	894435328	50	6903
2026-01-04 21:36:33.00	357.08	16.11	-39.4	-40.6	21.2	0.00e+00	0	31	0	896532480	50	6882
2026-01-04 21:36:34.15	356.86	16.04	-39.0	-40.1	21.6	0.00e+00	0	31	0	898629632	50	6536
2026-01-04 21:36:35.01	356.70	15.99	-39.0	-40.1	21.7	0.00e+00	0	31	0	899678208	50	6509
2026-01-04 21:36:36.17	356.48	15.92	-38.5	-39.6	22.1	0.00e+00	0	31	0	901775360	50	6126
2026-01-04 21:36:37.03	356.33	15.87	-38.3	-39.4	22.2	0.00e+00	0	31	0	903872512	50	5982
2026-01-04 21:36:38.19	356.11	15.80	-38.1	-39.1	22.5	0.00e+00	0	31	0	905969664	50	5797
2026-01-04 21:36:39.05	355.95	15.75	-38.1	-39.1	22.5	0.00e+00	0	31	0	907018240	50	5793
2026-01-04 21:36:40.21	355.74	15.69	-38.0	-39.1	22.5	0.00e+00	0	31	0	910163968	50	5779
2026-01-04 21:36:41.07	355.59	15.63	-38.2	-39.2	22.3	0.00e+00	0	31	0	911212544	50	5878
2026-01-04 21:36:42.23	355.38	15.57	-38.0	-39.0	22.5	0.00e+00	0	31	0	913309696	50	5746
2026-01-04 21:36:43.09	355.22	15.52	-38.2	-39.3	22.4	0.00e+00	0	31	0	915406848	50	5911
2026-01-04 21:36:44.25	355.01	15.45	-38.1	-39.2	22.4	0.00e+00	0	31	0	917504000	50	5832
2026-01-04 21:36:45.11	354.86	15.40	-38.0	-39.0	22.4	0.00e+00	0	31	0	918552576	50	5707
2026-01-04 21:36:46.26	354.65	15.33	-38.2	-39.2	22.3	0.00e+00	0	31	0	920649728	50	5875
2026-01-04 21:36:47.13	354.50	15.27	-38.3	-39.3	22.3	0.00e+00	0	31	0	922746880	50	5926
2026-01-04 21:36:48.28	354.29	15.21	-38.5	-39.6	21.9	0.00e+00	0	31	0	924844032	50	6167
2026-01-04 21:36:49.14	354.14	15.15	-38.8	-39.9	21.8	0.00e+00	0	31	0	926941184	50	6368
2026-01-04 21:36:50.29	353.94	15.08	-39.2	-40.4	21.4	0.00e+00	0	31	0	929038336	50	6709
2026-01-04 21:36:51.16	353.79	15.03	-39.3	-40.6	21.2	0.00e+00	0	31	0	930086912	50	6876
2026-01-04 21:36:52.31	353.59	14.96	-39.2	-40.4	21.4	0.00e+00	0	31	0	932184064	50	6768
2026-01-04 21:36:53.17	353.44	14.91	-39.2	-40.4	21.4	0.00e+00	0	31	0	934281216	50	6767
2026-01-04 21:36:54.33	353.24	14.84	-39.0	-40.1	21.7	0.00e+00	0	31	0	936378368	50	6530
2026-01-04 21:36:55.20	353.09	14.79	-38.7	-39.8	21.8	0.00e+00	0	31	0	937426944	50	6285
2026-01-04 21:36:56.35	352.89	14.72	-38.4	-39.5	22.1	0.00e+00	0	31	0	939524096	50	6055
2026-01-04 21:36:57.21	352.75	14.66	-38.3	-39.4	22.2	0.00e+00	0	31	0	941621248	50	5988
2026-01-04 21:36:58.36	352.55	14.59	-38.3	-39.4	22.2	0.00e+00	0	31	0	943718400	50	5993
2026-01-04 21:36:59.23	352.40	14.54	-38.5	-39.6	22.0	0.00e+00	0	31	0	945815552	50	6145
2026-01-04 21:37:00.38	352.21	14.47	-38.6	-39.7	21.9	0.00e+00	0	30	0	947912704	50	6175
2026-01-04 21:37:01.24	352.07	14.42	-38.6	-39.7	21.9	0.00e+00	0	31	0	948961280	50	6199
2026-01-04 21:37:02.40	351.87	14.35	-38.6	-39.7	21.8	0.00e+00	0	31	0	951058432	50	6195
2026-01-04 21:37:03.26	351.73	14.29	-38.7	-39.8	21.8	0.00e+00	0	30	0	953155584	50	6247
2026-01-04 21:37:04.42	351.54	14.22	-38.5	-39.6	21.9	0.00e+00	0	31	0	955252736	50	6162
2026-01-04 21:37:05.28	351.40	14.17	-38.5	-39.6	22.0	0.00e+00	0	31	0	956301312	50	6110
2026-01-04 21:37:06.43	351.21	14.10	-38.5	-39.6	22.0	0.00e+00	0	30	0	958398464	50	6143
2026-01-04 21:37:07.30	351.07	14.04	-38.4	-39.5	22.1	0.00e+00	0	31	0	960495616	50	6086
2026-01-04 21:37:08.45	350.88	13.97	-38.2	-39.3	22.3	0.00e+00	0	31	0	962592768	50	5920
2026-01-04 21:37:09.31	350.74	13.92	-38.1	-39.2	22.3	0.00e+00	0	31	0	964689920	50	5869
2026-01-04 21:37:10.47	350.55	13.85	-38.1	-39.1	22.4	0.00e+00	0	31	0	966787072	50	5808
2026-01-04 21:37:11.33	350.42	13.79	-38.0	-39.0	22.4	0.00e+00	0	31	0	967835648	50	5722
2026-01-04 21:37:12.48	350.23	13.72	-37.7	-38.8	22.6	0.00e+00	0	31	0	969932800	50	5569
2026-01-04 21:37:13.35	350.09	13.67	-37.7	-38.7	22.7	0.00e+00	0	31	0	972029952	48	6217
2026-01-04 21:37:14.50	349.91	13.60	-37.7	-38.6	22.7	0.00e+00	0	31	0	974127104	48	6167
2026-01-04 21:37:15.37	349.77	13.54	-37.8	-38.8	22.4	0.00e+00	0	31	0	975175680	48	6313
2026-01-04 21:37:16.52	349.59	13.47	-37.6	-38.6	22.7	0.00e+00	0	31	0	977272832	48	6134
2026-01-04 21:37:17.38	349.46	13.42	-37.3	-38.2	23.0	0.00e+00	0	31	0	979369984	48	5877
2026-01-04 21:37:18.54	349.28	13.34	-36.9	-37.8	23.3	0.00e+00	0	31	0	981467136	48	5600
2026-01-04 21:37:19.40	349.14	13.29	-36.5	-37.4	23.7	0.00e+00	0	31	0	983564288	46	6000
2026-01-04 21:37:20.55	348.97	13.22	-36.2	-37.1	23.9	0.00e+00	0	31	0	985661440	46	5784
2026-01-04 21:37:21.41	348.84	13.16	-36.0	-36.9	24.0	0.00e+00	0	31	0	986710016	46	5639
2026-01-04 21:37:22.57	348.66	13.09	-36.4	-37.3	23.7	0.00e+00	0	31	0	988807168	46	5897
2026-01-04 21:37:23.44	348.53	13.04	-36.5	-37.4	23.7	0.00e+00	0	31	0	990904320	46	5967
2026-01-04 21:37:24.59	348.35	12.96	-36.8	-37.7	23.5	0.00e+00	0	31	0	993001472	46	6204
2026-01-04 21:37:25.46	348.22	12.91	-36.9	-37.8	23.3	0.00e+00	0	31	0	994050048	46	6281
2026-01-04 21:37:26.61	348.05	12.84	-37.0	-37.9	23.2	0.00e+00	0	31	0	996147200	46	6362
2026-01-04 21:37:27.48	347.92	12.78	-37.3	-38.3	22.8	0.00e+00	0	31	0	998244352	46	6669
2026-01-04 21:37:28.63	347.75	12.71	-37.3	-38.2	22.9	0.00e+00	0	31	0	1000341504	46	6599
2026-01-04 21:37:29.49	347.62	12.66	-37.4	-38.4	22.9	0.00e+00	0	31	0	1002438656	46	6749
2026-01-04 21:37:30.65	347.45	12.58	-37.5	-38.5	22.8	0.00e+00	0	31	0	1004535808	46	6790
2026-01-04 21:37:31.51	347.32	12.53	-37.8	-38.9	22.5	0.00e+00	0	31	0	1005584384	46	7111
2026-01-04 21:37:32.66	347.15	12.46	-37.8	-38.9	22.3	0.00e+00	0	31	0	1007681536	48	6335
2026-01-04 21:37:33.53	347.02	12.40	-37.6	-38.6	22.5	0.00e+00	0	31	0	1009778688	48	6157
2026-01-04 21:37:34.68	346.86	12.33	-37.4	-38.3	22.8	0.00e+00	0	31	0	1011875840	48	5949
2026-01-04 21:37:35.54	346.73	12.27	-37.4	-38.3	22.6	0.00e+00	0	31	0	1012924416	48	5952
2026-01-04 21:37:36.70	346.57	12.20	-37.1	-38.0	23.2	0.00e+00	0	31	0	1016070144	48	5731
2026-01-04 21:37:37.56	346.44	12.15	-37.0	-37.9	23.2	0.00e+00	0	31	0	1017118720	48	5680
2026-01-04 21:37:38.72	346.28	12.07	-37.1	-38.0	23.1	0.00e+00	0	31	0	1019215872	48	5755
2026-01-04 21:37:39.58	346.16	12.02	-37.2	-38.2	23.0	0.00e+00	0	31	0	1021313024	48	5863
2026-01-04 21:37:40.74	345.99	11.94	-36.9	-37.9	23.2	0.00e+00	0	31	0	1023410176	48	5638
2026-01-04 21:37:41.60	345.87	11.89	-37.2	-38.1	23.0	0.00e+00	0	31	0	1024458752	48	5816
2026-01-04 21:37:42.76	345.71	11.82	-37.3	-38.3	22.8	0.00e+00	0	31	0	1026555904	48	5942
2026-01-04 21:37:43.62	345.59	11.76	-37.7	-38.7	22.5	0.00e+00	0	31	0	1028653056	48	6230
2026-01-04 21:37:44.77	345.43	11.69	-37.8	-38.8	22.5	0.00e+00	0	31	0	1030750208	48	6252
2026-01-04 21:37:45.64	345.31	11.63	-37.9	-38.9	22.3	0.00e+00	0	31	0	1032847360	48	6371
2026-01-04 21:37:46.79	345.15	11.56	-37.8	-38.8	22.4	0.00e+00	0	31	0	1034944512	48	6298
2026-01-04 21:37:47.65	345.03	11.51	-38.3	-39.4	22.0	0.00e+00	0	31	0	1035993088	48	6693
2026-01-04 21:37:48.81	344.87	11.43	-38.3	-39.4	21.9	0.00e+00	0	31	0	1038090240	48	6748
2026-01-04 21:37:49.68	344.76	11.38	-38.6	-39.7	21.8	0.00e+00	0	31	0	1040187392	48	6971
2026-01-04 21:37:50.83	344.60	11.31	-38.7	-39.8	21.6	0.00e+00	0	31	0	1042284544	48	7057
2026-01-04 21:37:51.69	344.49	11.25	-38.4	-39.5	21.8	0.00e+00	0	31	0	1043333120	48	6813
2026-01-04 21:37:52.85	344.33	11.18	-38.3	-39.4	21.9	0.00e+00	0	31	0	1045430272	48	6697
2026-01-04 21:37:53.71	344.22	11.12	-38.1	-39.2	22.0	0.00e+00	0	31	0	1047527424	48	6555
2026-01-04 21:37:54.87	344.06	11.05	-38.1	-39.2	22.1	0.00e+00	0	31	0	1049624576	48	6596
2026-01-04 21:37:55.73	343.95	11.00	-37.9	-38.9	22.2	0.00e+00	0	31	0	1051721728	48	6380
2026-01-04 21:37:56.89	343.80	10.92	-37.4	-38.3	22.5	0.00e+00	0	31	0	1053818880	48	5962
2026-01-04 21:37:57.75	343.68	10.87	-37.3	-38.3	22.6	0.00e+00	0	31	0	1054867456	48	5946
2026-01-04 21:37:58.90	343.53	10.80	-37.3	-38.2	22.6	0.00e+00	0	31	0	1056964608	48	5871
2026-01-04 21:37:59.77	343.42	10.74	-37.5	-38.5	22.6	0.00e+00	0	31	0	1059061760	48	6050
2026-01-04 21:38:00.92	343.27	10.67	-37.6	-38.6	22.4	0.00e+00	0	31	0	1061158912	48	6132
2026-01-04 21:38:01.79	343.16	10.61	-37.2	-38.2	22.7	0.00e+00	0	31	0	1062207488	48	5838
2026-01-04 21:38:02.94	343.01	10.54	-37.2	-38.2	22.6	0.00e+00	0	31	0	1064304640	48	5841
2026-01-04 21:38:03.81	342.90	10.49	-37.7	-38.7	21.7	0.00e+00	0	30	0	1066401792	48	6197
2026-01-04 21:38:04.96	342.75	10.41	-38.1	-39.2	22.0	0.00e+00	0	31	0	1068498944	48	6544
2026-01-04 21:38:05.82	342.65	10.36	-38.5	-39.6	21.6	0.00e+00	0	31	0	1070596096	48	6883
2026-01-04 21:38:06.98	342.50	10.29	-38.8	-40.0	21.2	0.00e+00	0	31	0	1072693248	48	7230
2026-01-04 21:38:07.84	342.39	10.23	-39.0	-40.2	21.2	0.00e+00	0	31	0	1073741824	50	6546
2026-01-04 21:38:09.00	342.25	10.16	-39.3	-40.5	21.0	0.00e+00	0	31	0	1075838976	50	6826
2026-01-04 21:38:09.86	342.14	10.11	-39.1	-40.3	21.0	0.00e+00	0	30	0	1077936128	50	6633
2026-01-04 21:38:11.02	342.00	10.03	-38.9	-40.1	21.3	0.00e+00	0	31	0	1080033280	50	6466
2026-01-04 21:38:11.89	341.89	9.98	-38.7	-39.8	21.4	0.00e+00	0	31	0	1081081856	50	6281
2026-01-04 21:38:13.04	341.75	9.91	-38.5	-39.6	21.6	0.00e+00	0	31	0	1084227584	50	6150
2026-01-04 21:38:13.91	341.64	9.85	-38.5	-39.6	21.6	0.00e+00	0	31	0	1085276160	50	6134
2026-01-04 21:38:15.06	341.50	9.78	-38.5	-39.6	21.7	0.00e+00	0	31	0	1087373312	50	6142
2026-01-04 21:38:15.92	341.40	9.72	-38.4	-39.5	21.7	0.00e+00	0	31	0	1089470464	50	6067
2026-01-04 21:38:17.07	341.26	9.65	-38.4	-39.5	21.7	0.00e+00	0	30	0	1091567616	50	6082
2026-01-04 21:38:17.93	341.16	9.60	-38.5	-39.6	21.6	0.00e+00	0	31	0	1092616192	50	6146
2026-01-04 21:38:19.09	341.02	9.53	-38.2	-39.3	21.7	0.00e+00	0	30	0	1094713344	50	5959
2026-01-04 21:38:19.95	340.92	9.47	-38.5	-39.7	21.5	0.00e+00	0	31	0	1096810496	50	6183
2026-01-04 21:38:21.11	340.78	9.40	-38.3	-39.4	21.8	0.00e+00	0	31	0	1098907648	50	5980
2026-01-04 21:38:21.97	340.68	9.35	-38.5	-39.6	21.5	0.00e+00	0	31	0	1099956224	50	6166
2026-01-04 21:38:23.12	340.54	9.27	-38.9	-40.1	21.1	0.00e+00	0	31	0	1103101952	50	6500
2026-01-04 21:38:23.99	340.44	9.22	-38.7	-39.9	21.4	0.00e+00	0	31	0	1104150528	50	6359
2026-01-04 21:38:25.14	340.31	9.15	-38.4	-39.5	21.6	0.00e+00	0	31	0	1106247680	50	6073
2026-01-04 21:38:26.01	340.21	9.09	-38.8	-40.0	21.2	0.00e+00	0	31	0	1108344832	50	6447
2026-01-04 21:38:27.16	340.08	9.02	-39.0	-40.2	21.1	0.00e+00	0	31	0	1110441984	50	6549
2026-01-04 21:38:28.03	339.98	8.97	-39.0	-40.2	21.0	0.00e+00	0	31	0	1111490560	50	6588
2026-01-04 21:38:29.18	339.85	8.90	-39.3	-40.6	20.8	0.00e+00	0	31	0	1113587712	50	6871
2026-01-04 21:38:30.04	339.75	8.84	-39.3	-40.5	20.8	0.00e+00	0	31	0	1115684864	50	6793
2026-01-04 21:38:31.20	339.62	8.77	-39.4	-40.6	20.6	0.00e+00	0	31	0	1117782016	50	6904
2026-01-04 21:38:32.06	339.52	8.72	-39.6	-40.9	20.4	0.00e+00	0	31	0	1119879168	50	7118
2026-01-04 21:38:33.21	339.39	8.65	-39.5	-40.8	20.5	0.00e+00	0	31	0	1121976320	50	7024
2026-01-04 21:38:34.08	339.29	8.59	-39.3	-40.5	20.8	0.00e+00	0	31	0	1123024896	52	6098
2026-01-04 21:38:35.23	339.17	8.52	-39.7	-41.0	20.5	0.00e+00	0	31	0	1125122048	52	6394
2026-01-04 21:38:36.10	339.07	8.47	-39.2	-40.4	20.8	0.00e+00	0	31	0	1127219200	52	6027
2026-01-04 21:38:37.25	338.94	8.40	-39.3	-40.5	20.7	0.00e+00	0	31	0	1129316352	52	6091
2026-01-04 21:38:38.11	338.85	8.34	-39.4	-40.6	20.7	0.00e+00	0	31	0	1130364928	52	6171
2026-01-04 21:38:39.27	338.72	8.27	-39.3	-40.5	20.8	0.00e+00	0	31	0	1132462080	52	6102
2026-01-04 21:38:40.14	338.63	8.22	-38.8	-40.0	21.1	0.00e+00	0	31	0	1134559232	52	5726
2026-01-04 21:38:41.29	338.50	8.15	-39.5	-40.8	20.5	0.00e+00	0	31	0	1136656384	52	6260
2026-01-04 21:38:42.16	338.41	8.09	-39.6	-40.9	20.5	0.00e+00	0	31	0	1138753536	52	6355
2026-01-04 21:38:43.31	338.29	8.02	-39.6	-40.9	20.4	0.00e+00	0	31	0	1140850688	52	6328
2026-01-04 21:38:44.18	338.19	7.97	-39.9	-41.2	20.1	0.00e+00	0	31	0	1141899264	52	6591
2026-01-04 21:38:45.33	338.07	7.90	-40.3	-41.7	19.7	0.00e+00	0	31	0	1143996416	52	6987
2026-01-04 21:38:46.20	337.98	7.84	-40.1	-41.5	19.8	0.00e+00	0	31	0	1146093568	52	6794
2026-01-04 21:38:47.35	337.86	7.77	-40.3	-41.7	19.6	0.00e+00	0	31	0	1148190720	52	6994
2026-01-04 21:38:48.21	337.77	7.72	-40.4	-41.9	19.6	0.00e+00	0	31	0	1149239296	52	7107
2026-01-04 21:38:49.37	337.65	7.65	-40.4	-41.8	19.6	0.00e+00	0	31	0	1151336448	52	7049
2026-01-04 21:38:50.23	337.56	7.60	-40.6	-42.1	19.3	0.00e+00	0	31	0	1153433600	52	7267
2026-01-04 21:38:51.38	337.44	7.53	-40.2	-41.6	19.7	0.00e+00	0	31	0	1155530752	52	6883
2026-01-04 21:38:52.25	337.35	7.47	-39.9	-41.3	20.0	0.00e+00	0	31	0	1157627904	52	6630
2026-01-04 21:38:53.40	337.23	7.40	-40.1	-41.5	19.8	0.00e+00	0	31	0	1159725056	52	6828
2026-01-04 21:38:54.27	337.14	7.35	-39.9	-41.2	20.2	0.00e+00	0	31	0	1160773632	52	6556
2026-01-04 21:38:55.42	337.03	7.28	-39.8	-41.1	20.0	0.00e+00	0	31	0	1162870784	52	6530
2026-01-04 21:38:56.29	336.94	7.23	-39.7	-41.0	20.2	0.00e+00	0	31	0	1164967936	52	6420
2026-01-04 21:38:57.44	336.82	7.16	-39.7	-41.0	20.3	0.00e+00	0	31	0	1167065088	52	6448
2026-01-04 21:38:58.31	336.73	7.11	-39.9	-41.3	19.8	0.00e+00	0	31	0	1168113664	52	6657
2026-01-04 21:38:59.46	336.62	7.04	-40.4	-41.9	19.6	0.00e+00	0	31	0	1170210816	52	7128
2026-01-04 21:39:00.32	336.53	6.98	-40.2	-41.6	19.7	0.00e+00	0	31	0	1172307968	52	6852
2026-01-04 21:39:01.47	336.42	6.91	-39.8	-41.1	19.9	0.00e+00	0	31	0	1174405120	52	6498
2026-01-04 21:39:02.34	336.33	6.86	-40.0	-41.3	19.7	0.00e+00	0	31	0	1176502272	52	6686
2026-01-04 21:39:03.49	336.22	6.79	-39.9	-41.2	20.0	0.00e+00	0	31	0	1178599424	52	6566
2026-01-04 21:39:04.36	336.14	6.74	-39.7	-41.1	20.0	0.00e+00	0	31	0	1179648000	52	6488
2026-01-04 21:39:05.51	336.02	6.67	-40.0	-41.4	19.7	0.00e+00	0	31	0	1181745152	52	6747
2026-01-04 21:39:06.38	335.94	6.62	-40.2	-41.6	19.5	0.00e+00	0	31	0	1183842304	52	6884
2026-01-04 21:39:07.53	335.83	6.55	-40.2	-41.7	19.6	0.00e+00	0	31	0	1185939456	52	6931
2026-01-04 21:39:08.40	335.74	6.50	-40.1	-41.5	19.6	0.00e+00	0	31	0	1186988032	52	6829
2026-01-04 21:39:09.55	335.63	6.43	-40.1	-41.5	19.6	0.00e+00	0	31	0	1190133760	52	6827
2026-01-04 21:39:10.42	335.55	6.38	-40.1	-41.6	19.5	0.00e+00	0	31	0	1191182336	52	6876
2026-01-04 21:39:11.57	335.44	6.31	-40.2	-41.6	19.3	0.00e+00	0	31	0	1193279488	52	6927
2026-01-04 21:39:12.43	335.36	6.26	-40.2	-41.7	19.3	1.50e-06	0	31	0	1195376640	52	6931
2026-01-04 21:39:13.59	335.25	6.19	-40.5	-42.1	18.9	0.00e+00	0	31	0	1197473792	52	7316
2026-01-04 21:39:14.45	335.17	6.14	-40.4	-42.0	18.9	0.00e+00	0	31	0	1198522368	52	7181
2026-01-04 21:39:15.61	335.06	6.07	-40.6	-42.3	18.4	0.00e+00	0	31	0	1200619520	52	7454
