passes_logs/2026/01/04/R4.6S_Anadyr/R4.6S_Anadyr__20260104_115035_NOAA_20_JPSS-1_rec.log

#Pass ID: 20260104_115035_NOAA 20 (JPSS-1)
#Satellite: NOAA 20 (JPSS-1)
#Configuration: NOAA 20
#almurnet v.1.7.20251203
#Start time: 2026-01-04 11:50:37

#Version: 2.2.20231116
#Station: R4.6S_Anadyr
#Location: 177.4865 lon 64.73178 lat
#TLE: 1 43013U 17073A   26003.41800368  .00000169  00000+0  10117-3 0  9998
#TLE: 2 43013  98.7624 304.4804 0001884  56.1176 304.0179 14.19532918421092

#Time	Az	El	Level	Level2	SNR	BER	BlckErr	Temp	State	Recorded	gain1	gain2
2026-01-04 11:50:37.66	20.08	0.10	-50.5	-65.4	3.5	1.51e+00	0	38	0	0	60	66927
2026-01-04 11:50:38.67	20.17	0.14	-51.4	-66.5	3.6	1.51e+00	0	39	104	0	60	76710
2026-01-04 11:50:39.68	20.26	0.19	-51.4	-66.6	3.6	1.51e+00	0	39	104	0	60	77238
2026-01-04 11:50:40.69	20.35	0.23	-50.3	-65.5	3.6	1.51e+00	0	39	104	0	60	68110
2026-01-04 11:50:41.70	20.44	0.27	-50.4	-65.6	3.6	1.51e+00	0	39	104	0	60	68567
2026-01-04 11:50:42.71	20.53	0.32	-50.2	-65.4	3.6	1.51e+00	0	39	104	0	60	67398
2026-01-04 11:50:43.72	20.62	0.36	-50.2	-65.5	3.6	1.51e+00	0	39	104	0	60	68049
2026-01-04 11:50:44.73	20.71	0.40	-50.1	-65.3	3.6	1.51e+00	0	39	104	0	60	66760
2026-01-04 11:50:45.74	20.80	0.45	-50.4	-65.6	3.6	1.51e+00	0	39	104	0	60	69205
2026-01-04 11:50:46.75	20.89	0.49	-50.1	-65.3	3.6	1.51e+00	0	39	104	0	60	66704
2026-01-04 11:50:47.76	20.98	0.53	-50.0	-65.2	3.6	1.51e+00	0	39	104	0	60	65878
2026-01-04 11:50:48.77	21.08	0.58	-50.0	-65.2	3.6	1.51e+00	0	39	104	0	60	65433
2026-01-04 11:50:49.78	21.17	0.62	-49.8	-64.9	3.6	1.51e+00	0	39	104	0	60	63707
2026-01-04 11:50:50.78	21.26	0.66	-49.6	-64.9	3.6	1.51e+00	0	39	104	0	60	63184
2026-01-04 11:50:51.79	21.35	0.71	-49.5	-64.8	3.6	1.51e+00	0	39	104	0	60	62456
2026-01-04 11:50:52.80	21.45	0.75	-49.4	-64.5	3.6	1.51e+00	0	39	104	0	60	60979
2026-01-04 11:50:53.81	21.54	0.80	-49.1	-64.3	3.6	1.51e+00	0	39	104	0	60	59269
2026-01-04 11:50:54.82	21.63	0.84	-48.6	-63.8	3.6	1.51e+00	0	39	104	0	60	56304
2026-01-04 11:50:55.83	21.73	0.88	-48.0	-63.1	3.6	1.51e+00	0	39	104	0	60	51926
2026-01-04 11:50:56.84	21.82	0.93	-48.0	-63.1	3.6	1.51e+00	0	39	104	0	60	51810
2026-01-04 11:50:57.85	21.91	0.97	-47.9	-63.1	3.6	1.51e+00	0	39	104	0	60	51736
2026-01-04 11:50:58.86	22.01	1.01	-47.9	-63.1	3.6	1.51e+00	0	39	104	0	60	51616
2026-01-04 11:50:59.87	22.10	1.06	-47.9	-63.1	3.6	1.51e+00	0	39	104	0	60	51430
2026-01-04 11:51:00.88	22.20	1.10	-47.9	-63.1	3.6	1.51e+00	0	39	104	0	60	51458
2026-01-04 11:51:01.89	22.29	1.15	-47.9	-63.1	3.6	1.51e+00	0	39	104	0	60	51408
2026-01-04 11:51:02.90	22.39	1.19	-47.9	-63.2	3.6	1.51e+00	0	39	104	0	60	52020
2026-01-04 11:51:03.90	22.49	1.23	-47.9	-63.1	3.6	1.51e+00	0	39	104	0	60	51883
2026-01-04 11:51:04.91	22.58	1.28	-47.9	-63.1	3.6	1.51e+00	0	39	104	0	60	51819
2026-01-04 11:51:05.92	22.68	1.32	-47.9	-63.0	3.6	1.51e+00	0	39	104	0	60	51317
2026-01-04 11:51:06.93	22.77	1.36	-47.9	-63.0	3.6	1.51e+00	0	39	104	0	60	51245
2026-01-04 11:51:07.94	22.87	1.41	-47.9	-63.1	3.6	1.51e+00	0	39	104	0	60	51545
2026-01-04 11:51:08.95	22.97	1.45	-47.9	-63.1	3.6	1.51e+00	0	39	104	0	60	51737
2026-01-04 11:51:09.96	23.07	1.49	-47.9	-63.1	3.6	1.51e+00	0	39	104	0	60	51648
2026-01-04 11:51:10.97	23.16	1.54	-47.9	-63.1	3.6	1.51e+00	0	39	104	0	60	51490
2026-01-04 11:51:11.98	23.26	1.58	-47.9	-63.0	3.6	1.51e+00	0	39	104	0	60	51285
2026-01-04 11:51:12.99	23.36	1.63	-47.9	-63.0	3.6	1.51e+00	0	39	104	0	60	51287
2026-01-04 11:51:14.00	23.46	1.67	-47.9	-63.1	3.6	1.51e+00	0	39	104	0	60	51376
2026-01-04 11:51:15.01	23.56	1.71	-47.9	-63.1	3.6	1.51e+00	0	39	104	0	60	51553
2026-01-04 11:51:16.02	23.66	1.76	-47.9	-63.1	3.5	1.51e+00	0	39	104	0	60	51715
2026-01-04 11:51:17.03	23.76	1.80	-47.9	-63.1	3.6	1.51e+00	0	39	104	0	60	51670
2026-01-04 11:51:18.04	23.86	1.84	-47.9	-63.1	3.6	1.51e+00	0	39	104	0	60	51603
2026-01-04 11:51:19.05	23.96	1.89	-47.9	-63.1	3.6	1.51e+00	0	39	104	0	60	51576
2026-01-04 11:51:20.06	24.06	1.93	-47.9	-63.1	3.6	1.51e+00	0	39	104	0	60	51631
2026-01-04 11:51:21.07	24.16	1.98	-47.9	-63.1	3.6	1.51e+00	0	39	104	0	60	51628
2026-01-04 11:51:22.08	24.26	2.02	-47.9	-63.1	3.6	1.51e+00	0	39	104	0	60	51644
2026-01-04 11:51:23.09	24.36	2.06	-47.9	-63.0	3.6	1.51e+00	0	39	104	0	60	51257
2026-01-04 11:51:24.09	24.46	2.11	-47.9	-63.0	3.6	1.51e+00	0	39	104	0	60	51001
2026-01-04 11:51:25.10	24.56	2.15	-47.9	-63.0	3.6	1.51e+00	0	39	104	0	60	50982
2026-01-04 11:51:26.12	24.66	2.19	-47.9	-63.0	3.6	1.51e+00	0	40	104	0	60	51030
2026-01-04 11:51:27.13	24.77	2.24	-47.9	-63.1	3.6	1.51e+00	0	39	104	0	60	51497
2026-01-04 11:51:28.14	24.87	2.28	-47.9	-63.0	3.6	1.51e+00	0	40	104	0	60	51071
2026-01-04 11:51:29.15	24.97	2.33	-47.9	-63.0	3.6	1.51e+00	0	39	104	0	60	51212
2026-01-04 11:51:30.16	25.08	2.37	-47.9	-63.1	3.6	1.51e+00	0	40	104	0	60	51589
2026-01-04 11:51:31.17	25.18	2.41	-47.9	-62.9	3.6	1.51e+00	0	39	104	0	60	50572
2026-01-04 11:51:32.17	25.28	2.46	-48.0	-63.0	3.6	1.51e+00	0	40	104	0	60	50810
2026-01-04 11:51:33.18	25.39	2.50	-48.0	-62.4	3.6	1.51e+00	0	40	104	0	60	47638
2026-01-04 11:51:34.19	25.49	2.54	-47.9	-62.2	3.6	1.51e+00	0	40	104	0	60	46653
2026-01-04 11:51:35.20	25.59	2.59	-47.9	-62.7	3.6	1.51e+00	0	39	104	0	60	49224
2026-01-04 11:51:36.21	25.70	2.63	-48.0	-62.4	3.6	1.51e+00	0	39	104	0	60	47560
2026-01-04 11:51:37.22	25.80	2.68	-47.1	-54.5	7.9	6.96e-01	2	39	104	0	60	19168
2026-01-04 11:51:38.23	25.91	2.72	-46.5	-51.7	10.1	9.37e-02	92	39	0	1048576	60	13882
2026-01-04 11:51:39.24	26.02	2.76	-44.6	-47.6	14.9	5.34e-05	0	39	0	3145728	60	8633
2026-01-04 11:51:40.25	26.12	2.81	-44.8	-47.7	14.9	0.00e+00	28	40	0	4194304	60	8794
2026-01-04 11:51:41.26	26.23	2.85	-43.7	-46.1	16.2	0.00e+00	0	39	0	6291456	60	7314
2026-01-04 11:51:42.27	26.34	2.89	-42.7	-44.6	17.8	0.00e+00	0	39	0	8388608	58	6858
2026-01-04 11:51:43.28	26.44	2.94	-44.0	-46.5	15.6	0.00e+00	0	39	0	10485760	60	7661
2026-01-04 11:51:44.29	26.55	2.98	-44.4	-47.2	14.4	0.00e+00	45	40	0	12582912	60	8301
2026-01-04 11:51:45.30	26.66	3.02	-45.3	-48.7	14.5	7.40e-05	92	39	0	13631488	60	9859
2026-01-04 11:51:46.31	26.77	3.07	-43.9	-46.5	14.4	0.00e+00	0	40	0	15728640	60	7599
2026-01-04 11:51:47.31	26.87	3.11	-47.6	-61.8	3.8	1.51e+00	0	40	104	16777216	60	44392
2026-01-04 11:51:48.32	26.98	3.15	-46.3	-50.5	13.3	1.04e+00	39	40	104	16777216	60	12150
2026-01-04 11:51:49.33	27.09	3.20	-43.4	-45.5	17.2	0.00e+00	41	40	0	17825792	60	6771
2026-01-04 11:51:50.34	27.20	3.24	-48.2	-60.8	4.3	1.39e+00	0	40	104	18874368	60	39718
2026-01-04 11:51:51.35	27.31	3.29	-42.9	-44.8	16.5	1.28e+00	37	39	104	18874368	58	7037
2026-01-04 11:51:52.35	27.42	3.33	-42.9	-44.8	17.8	0.00e+00	92	39	0	19922944	58	7013
2026-01-04 11:51:53.36	27.53	3.37	-42.8	-44.5	17.8	0.00e+00	45	39	0	20971520	58	6830
2026-01-04 11:51:54.37	27.64	3.42	-43.6	-45.7	17.1	0.00e+00	90	40	0	23068672	58	7783
2026-01-04 11:51:55.38	27.75	3.46	-43.1	-45.0	18.2	0.00e+00	5	40	0	25165824	58	7187
2026-01-04 11:51:56.39	27.86	3.50	-42.3	-44.0	18.6	0.00e+00	5	40	0	27262976	58	6411
2026-01-04 11:51:57.40	27.97	3.55	-42.4	-44.1	18.7	0.00e+00	41	40	0	29360128	58	6510
2026-01-04 11:51:58.40	28.08	3.59	-42.1	-43.7	18.9	0.00e+00	6	40	0	30408704	58	6219
2026-01-04 11:51:59.41	28.19	3.63	-42.6	-44.3	18.6	0.00e+00	31	40	0	32505856	58	6622
2026-01-04 11:52:00.42	28.30	3.68	-42.3	-43.8	18.9	0.00e+00	6	39	0	34603008	58	6312
2026-01-04 11:52:01.43	28.42	3.72	-42.6	-44.3	19.1	0.00e+00	92	40	0	36700160	58	6628
2026-01-04 11:52:02.44	28.53	3.76	-42.0	-43.4	19.3	0.00e+00	6	40	0	38797312	58	6027
2026-01-04 11:52:03.45	28.64	3.81	-42.1	-43.6	19.4	0.00e+00	5	39	0	39845888	58	6113
2026-01-04 11:52:04.46	28.76	3.85	-41.9	-43.3	19.6	0.00e+00	0	39	0	41943040	56	6678
2026-01-04 11:52:05.47	28.87	3.89	-42.4	-44.0	19.1	0.00e+00	6	39	0	44040192	56	7211
2026-01-04 11:52:06.48	28.98	3.94	-41.9	-43.4	19.7	0.00e+00	0	39	0	46137344	56	6706
2026-01-04 11:52:07.49	29.10	3.98	-41.5	-42.8	19.9	0.00e+00	44	40	0	48234496	56	6298
2026-01-04 11:52:08.50	29.21	4.02	-42.1	-43.6	19.5	0.00e+00	92	40	0	50331648	56	6859
2026-01-04 11:52:09.51	29.33	4.07	-41.9	-43.4	19.6	0.00e+00	5	39	0	51380224	56	6732
2026-01-04 11:52:10.52	29.44	4.11	-42.4	-44.0	19.1	0.00e+00	50	40	0	53477376	56	7173
2026-01-04 11:52:11.53	29.56	4.15	-41.7	-43.1	19.9	0.00e+00	42	40	0	55574528	56	6494
2026-01-04 11:52:12.54	29.68	4.20	-42.7	-44.3	18.9	0.00e+00	39	40	0	57671680	58	6633
2026-01-04 11:52:13.55	29.79	4.24	-42.1	-43.6	19.5	0.00e+00	39	40	0	59768832	58	6119
2026-01-04 11:52:14.56	29.91	4.28	-42.3	-43.9	19.2	0.00e+00	47	40	0	60817408	58	6331
2026-01-04 11:52:15.56	30.03	4.32	-41.5	-42.9	20.2	0.00e+00	66	40	0	62914560	56	6321
2026-01-04 11:52:16.57	30.14	4.37	-41.8	-43.1	19.8	0.00e+00	6	39	0	65011712	56	6532
2026-01-04 11:52:17.58	30.26	4.41	-41.8	-43.2	19.8	0.00e+00	92	40	0	67108864	56	6569
2026-01-04 11:52:18.59	30.38	4.45	-42.2	-43.7	19.4	0.00e+00	38	40	0	69206016	56	6971
2026-01-04 11:52:19.60	30.50	4.50	-42.0	-43.5	19.4	0.00e+00	6	40	0	70254592	56	6795
2026-01-04 11:52:20.61	30.62	4.54	-41.8	-43.2	19.7	0.00e+00	45	40	0	72351744	56	6570
2026-01-04 11:52:21.62	30.74	4.58	-41.7	-43.1	19.9	0.00e+00	6	39	0	74448896	56	6486
2026-01-04 11:52:22.63	30.85	4.62	-41.6	-43.0	20.1	0.00e+00	92	40	0	76546048	56	6399
2026-01-04 11:52:23.64	30.97	4.67	-42.1	-43.6	19.3	0.00e+00	6	40	0	78643200	56	6885
2026-01-04 11:52:24.65	31.09	4.71	-41.6	-43.0	20.0	0.00e+00	90	40	0	79691776	56	6394
2026-01-04 11:52:25.66	31.22	4.75	-41.7	-43.1	19.9	0.00e+00	0	40	0	81788928	56	6501
2026-01-04 11:52:26.67	31.34	4.80	-41.4	-42.7	20.3	0.00e+00	45	40	0	83886080	56	6195
2026-01-04 11:52:27.68	31.46	4.84	-41.5	-42.8	20.3	0.00e+00	0	40	0	85983232	56	6317
2026-01-04 11:52:28.69	31.58	4.88	-41.5	-42.9	20.2	0.00e+00	40	40	0	88080384	56	6321
2026-01-04 11:52:29.69	31.70	4.92	-41.3	-42.5	20.5	0.00e+00	0	40	0	89128960	56	6102
2026-01-04 11:52:30.70	31.82	4.97	-41.3	-42.6	20.4	0.00e+00	0	40	0	91226112	56	6146
2026-01-04 11:52:31.71	31.94	5.01	-41.2	-42.5	20.5	0.00e+00	91	40	0	93323264	56	6069
2026-01-04 11:52:32.72	32.07	5.05	-41.5	-42.9	20.4	0.00e+00	0	40	0	95420416	56	6320
2026-01-04 11:52:33.73	32.19	5.09	-41.4	-42.7	20.4	0.00e+00	90	40	0	97517568	56	6186
2026-01-04 11:52:34.74	32.31	5.14	-41.5	-42.8	20.2	0.00e+00	34	40	0	98566144	56	6317
2026-01-04 11:52:35.75	32.44	5.18	-41.5	-42.8	20.2	0.00e+00	35	40	0	100663296	56	6311
2026-01-04 11:52:36.76	32.56	5.22	-41.3	-42.6	20.5	0.00e+00	41	40	0	102760448	56	6107
2026-01-04 11:52:37.77	32.69	5.26	-41.5	-42.9	20.2	0.00e+00	43	40	0	104857600	56	6337
2026-01-04 11:52:38.78	32.81	5.31	-41.4	-42.7	20.4	0.00e+00	91	40	0	106954752	56	6202
2026-01-04 11:52:39.79	32.94	5.35	-41.3	-42.6	20.4	0.00e+00	0	40	0	108003328	56	6117
2026-01-04 11:52:40.80	33.06	5.39	-41.4	-42.7	20.5	0.00e+00	92	40	0	110100480	56	6185
2026-01-04 11:52:41.81	33.19	5.43	-41.3	-42.6	20.4	0.00e+00	0	40	0	112197632	56	6163
2026-01-04 11:52:42.81	33.31	5.47	-41.1	-42.4	20.7	0.00e+00	34	40	0	114294784	56	5986
2026-01-04 11:52:43.82	33.44	5.52	-41.2	-42.4	20.5	0.00e+00	0	40	0	116391936	56	6031
2026-01-04 11:52:44.83	33.57	5.56	-41.2	-42.5	20.5	0.00e+00	0	40	0	118489088	56	6080
2026-01-04 11:52:45.84	33.69	5.60	-41.4	-42.7	20.4	0.00e+00	0	40	0	119537664	56	6182
2026-01-04 11:52:46.85	33.82	5.64	-41.4	-42.7	20.3	0.00e+00	0	40	0	121634816	56	6195
2026-01-04 11:52:47.86	33.95	5.68	-41.7	-43.0	20.2	0.00e+00	90	40	0	123731968	56	6457
2026-01-04 11:52:48.87	34.08	5.73	-41.5	-42.8	20.2	0.00e+00	0	40	0	125829120	56	6293
2026-01-04 11:52:49.88	34.21	5.77	-41.3	-42.6	20.6	0.00e+00	0	40	0	127926272	56	6122
2026-01-04 11:52:50.88	34.33	5.81	-41.4	-42.7	20.5	0.00e+00	3	40	0	128974848	56	6187
2026-01-04 11:52:51.89	34.46	5.85	-41.1	-42.3	20.8	0.00e+00	45	40	0	131072000	56	5935
2026-01-04 11:52:52.90	34.59	5.89	-41.0	-42.2	20.9	0.00e+00	0	40	0	133169152	56	5863
2026-01-04 11:52:53.91	34.72	5.93	-41.2	-42.5	20.6	0.00e+00	0	40	0	135266304	56	6065
2026-01-04 11:52:54.92	34.85	5.98	-41.3	-42.6	20.6	0.00e+00	92	40	0	136314880	56	6119
2026-01-04 11:52:55.93	34.98	6.02	-41.3	-42.6	20.7	0.00e+00	45	40	0	138412032	56	6107
2026-01-04 11:52:56.94	35.12	6.06	-41.1	-42.4	20.8	0.00e+00	92	40	0	140509184	56	5968
2026-01-04 11:52:57.94	35.25	6.10	-41.5	-42.9	20.2	0.00e+00	47	40	0	142606336	56	6334
2026-01-04 11:52:58.96	35.38	6.14	-41.0	-42.3	20.7	0.00e+00	0	40	0	144703488	56	5910
2026-01-04 11:52:59.96	35.51	6.18	-41.0	-42.2	20.9	0.00e+00	47	40	0	146800640	56	5886
2026-01-04 11:53:00.97	35.64	6.22	-41.0	-42.2	20.9	0.00e+00	34	40	0	147849216	56	5869
2026-01-04 11:53:01.98	35.78	6.26	-41.1	-42.3	20.8	0.00e+00	92	40	0	149946368	56	5932
2026-01-04 11:53:02.99	35.91	6.30	-41.1	-42.4	20.8	0.00e+00	0	40	0	152043520	56	5976
2026-01-04 11:53:04.00	36.04	6.35	-40.9	-42.1	21.0	0.00e+00	90	40	0	154140672	56	5827
2026-01-04 11:53:05.01	36.18	6.39	-40.9	-42.1	20.9	0.00e+00	2	40	0	156237824	56	5786
2026-01-04 11:53:06.02	36.31	6.43	-41.3	-42.5	20.6	0.00e+00	34	40	0	157286400	56	6100
2026-01-04 11:53:07.03	36.45	6.47	-41.0	-42.2	21.0	0.00e+00	0	40	0	159383552	56	5893
2026-01-04 11:53:08.03	36.58	6.51	-41.2	-42.4	20.8	0.00e+00	0	40	0	161480704	56	6016
2026-01-04 11:53:09.04	36.72	6.55	-41.3	-42.6	20.6	0.00e+00	0	40	0	163577856	56	6125
2026-01-04 11:53:10.05	36.85	6.59	-41.4	-42.7	20.5	0.00e+00	0	40	0	165675008	56	6211
2026-01-04 11:53:11.06	36.99	6.63	-41.4	-42.7	20.6	0.00e+00	92	40	0	166723584	56	6205
2026-01-04 11:53:12.07	37.12	6.67	-41.6	-42.9	20.4	0.00e+00	0	40	0	168820736	56	6338
2026-01-04 11:53:13.08	37.26	6.71	-41.4	-42.6	20.6	0.00e+00	92	40	0	170917888	56	6166
2026-01-04 11:53:14.09	37.40	6.75	-41.5	-42.8	20.5	0.00e+00	0	40	0	173015040	56	6249
2026-01-04 11:53:15.10	37.54	6.79	-41.4	-42.7	20.6	0.00e+00	0	40	0	175112192	56	6204
2026-01-04 11:53:16.11	37.67	6.83	-41.4	-42.7	20.6	0.00e+00	0	40	0	176160768	56	6192
2026-01-04 11:53:17.12	37.81	6.87	-41.4	-42.7	20.6	0.00e+00	47	40	0	178257920	56	6223
2026-01-04 11:53:18.13	37.95	6.91	-41.5	-42.8	20.4	0.00e+00	92	40	0	180355072	56	6269
2026-01-04 11:53:19.14	38.09	6.95	-41.4	-42.6	20.7	0.00e+00	35	40	0	182452224	56	6155
2026-01-04 11:53:20.14	38.23	6.99	-41.2	-42.4	20.9	0.00e+00	92	40	0	184549376	56	6018
2026-01-04 11:53:21.15	38.37	7.03	-41.2	-42.5	20.8	0.00e+00	35	40	0	185597952	56	6034
2026-01-04 11:53:22.16	38.51	7.07	-41.5	-42.8	20.4	0.00e+00	0	40	0	187695104	56	6300
2026-01-04 11:53:23.17	38.65	7.11	-41.6	-42.9	20.4	0.00e+00	0	40	0	189792256	56	6326
2026-01-04 11:53:24.18	38.79	7.15	-41.5	-42.7	20.6	0.00e+00	3	40	0	191889408	56	6244
2026-01-04 11:53:25.19	38.93	7.19	-41.4	-42.7	20.6	0.00e+00	29	40	0	193986560	56	6184
2026-01-04 11:53:26.19	39.07	7.23	-41.5	-42.7	20.5	0.00e+00	32	40	0	195035136	56	6232
2026-01-04 11:53:27.20	39.22	7.27	-41.4	-42.6	20.6	0.00e+00	92	40	0	197132288	56	6173
2026-01-04 11:53:28.21	39.36	7.31	-41.5	-42.8	20.5	0.00e+00	32	40	0	199229440	56	6298
2026-01-04 11:53:29.22	39.50	7.35	-41.7	-43.0	20.2	0.00e+00	5	40	0	201326592	56	6438
2026-01-04 11:53:30.23	39.64	7.39	-41.9	-43.2	20.2	0.00e+00	2	40	0	203423744	56	6583
2026-01-04 11:53:31.24	39.79	7.42	-41.6	-42.9	20.4	0.00e+00	0	40	0	204472320	56	6340
2026-01-04 11:53:32.25	39.93	7.46	-41.6	-42.9	20.4	0.00e+00	0	40	0	206569472	56	6380
2026-01-04 11:53:33.26	40.08	7.50	-42.1	-43.5	19.9	0.00e+00	0	40	0	208666624	56	6835
2026-01-04 11:53:34.27	40.22	7.54	-41.6	-42.9	20.4	0.00e+00	92	40	0	210763776	56	6331
2026-01-04 11:53:35.28	40.37	7.58	-41.4	-42.7	20.6	0.00e+00	42	40	0	212860928	56	6212
2026-01-04 11:53:36.29	40.51	7.62	-41.4	-42.6	20.7	0.00e+00	91	40	0	214958080	56	6138
2026-01-04 11:53:37.30	40.66	7.66	-41.2	-42.4	20.8	0.00e+00	41	40	0	216006656	56	6020
2026-01-04 11:53:38.31	40.80	7.69	-41.2	-42.4	20.9	0.00e+00	0	40	0	218103808	56	6011
2026-01-04 11:53:39.32	40.95	7.73	-41.4	-42.7	20.6	0.00e+00	0	40	0	220200960	56	6188
2026-01-04 11:53:40.33	41.10	7.77	-41.4	-42.6	20.7	0.00e+00	41	40	0	222298112	56	6147
2026-01-04 11:53:41.34	41.24	7.81	-41.4	-42.7	20.6	0.00e+00	92	40	0	224395264	56	6216
2026-01-04 11:53:42.35	41.39	7.85	-41.3	-42.6	20.8	0.00e+00	40	40	0	225443840	56	6132
2026-01-04 11:53:43.36	41.54	7.88	-41.4	-42.6	20.7	0.00e+00	90	40	0	227540992	56	6169
2026-01-04 11:53:44.37	41.69	7.92	-41.5	-42.8	20.6	0.00e+00	47	40	0	229638144	56	6280
2026-01-04 11:53:45.38	41.84	7.96	-41.3	-42.5	20.8	0.00e+00	34	40	0	231735296	56	6066
2026-01-04 11:53:46.39	41.99	8.00	-41.4	-42.7	20.6	0.00e+00	6	40	0	233832448	56	6197
2026-01-04 11:53:47.40	42.14	8.03	-41.5	-42.7	20.7	0.00e+00	5	40	0	234881024	56	6217
2026-01-04 11:53:48.41	42.29	8.07	-41.4	-42.6	20.7	0.00e+00	11	40	0	236978176	56	6162
2026-01-04 11:53:49.42	42.44	8.11	-41.6	-42.9	20.2	0.00e+00	5	40	0	239075328	56	6338
2026-01-04 11:53:50.43	42.59	8.14	-41.3	-42.5	20.9	0.00e+00	92	40	0	241172480	56	6055
2026-01-04 11:53:51.44	42.74	8.18	-41.2	-42.4	20.9	0.00e+00	0	40	0	243269632	56	6014
2026-01-04 11:53:52.45	42.89	8.22	-41.2	-42.4	20.9	0.00e+00	90	40	0	244318208	56	5984
2026-01-04 11:53:53.45	43.04	8.25	-41.2	-42.4	20.9	0.00e+00	5	40	0	246415360	56	6000
2026-01-04 11:53:54.47	43.19	8.29	-41.4	-42.6	20.7	0.00e+00	6	40	0	248512512	56	6161
2026-01-04 11:53:55.48	43.35	8.33	-41.3	-42.6	20.6	0.00e+00	5	40	0	250609664	56	6110
2026-01-04 11:53:56.48	43.50	8.36	-41.3	-42.5	20.8	0.00e+00	46	40	0	252706816	56	6069
2026-01-04 11:53:57.49	43.65	8.40	-41.4	-42.7	20.6	0.00e+00	91	40	0	253755392	56	6212
2026-01-04 11:53:58.50	43.80	8.44	-41.6	-42.8	20.5	0.00e+00	0	40	0	255852544	56	6305
2026-01-04 11:53:59.51	43.96	8.47	-41.7	-43.0	20.4	0.00e+00	91	40	0	257949696	56	6418
2026-01-04 11:54:00.52	44.11	8.51	-41.5	-42.8	20.6	0.00e+00	48	40	0	260046848	56	6280
2026-01-04 11:54:01.53	44.27	8.54	-41.7	-43.0	20.4	0.00e+00	4	40	0	262144000	56	6396
2026-01-04 11:54:02.54	44.42	8.58	-41.4	-42.6	20.9	0.00e+00	46	40	0	263192576	56	6144
2026-01-04 11:54:03.55	44.58	8.61	-41.4	-42.7	20.7	0.00e+00	47	40	0	265289728	56	6195
2026-01-04 11:54:04.56	44.73	8.65	-41.3	-42.5	20.8	0.00e+00	92	40	0	267386880	56	6068
2026-01-04 11:54:05.57	44.89	8.68	-41.3	-42.5	20.9	0.00e+00	42	40	0	269484032	56	6054
2026-01-04 11:54:06.58	45.05	8.72	-41.2	-42.4	21.0	0.00e+00	92	40	0	271581184	56	6028
2026-01-04 11:54:07.59	45.20	8.75	-41.2	-42.4	21.0	0.00e+00	7	40	0	272629760	56	6012
2026-01-04 11:54:08.60	45.36	8.79	-41.2	-42.5	20.9	0.00e+00	6	40	0	274726912	56	6034
2026-01-04 11:54:09.61	45.52	8.82	-41.1	-42.3	21.0	0.00e+00	0	40	0	276824064	56	5910
2026-01-04 11:54:10.62	45.68	8.86	-41.0	-42.2	21.1	0.00e+00	40	40	0	278921216	56	5831
2026-01-04 11:54:11.63	45.83	8.89	-41.0	-42.2	21.0	0.00e+00	92	40	0	281018368	56	5880
2026-01-04 11:54:12.64	45.99	8.93	-41.1	-42.3	21.1	0.00e+00	0	40	0	283115520	56	5905
2026-01-04 11:54:13.64	46.15	8.96	-41.1	-42.3	21.1	0.00e+00	91	40	0	284164096	56	5946
2026-01-04 11:54:14.65	46.31	8.99	-41.2	-42.4	21.0	0.00e+00	6	40	0	286261248	56	5978
2026-01-04 11:54:15.66	46.47	9.03	-41.3	-42.5	21.0	0.00e+00	60	40	0	288358400	56	6053
2026-01-04 11:54:16.67	46.63	9.06	-41.2	-42.3	21.0	0.00e+00	7	40	0	290455552	56	5964
2026-01-04 11:54:17.68	46.79	9.09	-41.4	-42.7	20.7	0.00e+00	48	40	0	292552704	56	6209
2026-01-04 11:54:18.69	46.95	9.13	-41.5	-42.8	20.8	0.00e+00	0	40	0	293601280	56	6250
2026-01-04 11:54:19.70	47.11	9.16	-41.4	-42.7	20.7	0.00e+00	48	40	0	295698432	56	6183
2026-01-04 11:54:20.71	47.27	9.19	-41.6	-42.8	20.6	0.00e+00	92	40	0	297795584	56	6304
2026-01-04 11:54:21.71	47.43	9.23	-41.6	-42.8	20.6	0.00e+00	0	40	0	299892736	56	6299
2026-01-04 11:54:22.73	47.60	9.26	-41.7	-43.0	20.6	0.00e+00	92	40	0	301989888	56	6413
2026-01-04 11:54:23.74	47.76	9.29	-41.7	-43.0	20.6	7.00e-07	32	40	0	303038464	56	6396
2026-01-04 11:54:24.75	47.92	9.32	-41.7	-42.9	20.5	0.00e+00	48	40	0	305135616	56	6381
2026-01-04 11:54:25.76	48.09	9.36	-41.5	-42.7	20.8	0.00e+00	35	40	0	307232768	56	6222
2026-01-04 11:54:26.77	48.25	9.39	-41.4	-42.7	20.9	0.00e+00	49	40	0	309329920	56	6176
2026-01-04 11:54:27.78	48.42	9.42	-41.5	-42.7	20.8	0.00e+00	92	40	0	311427072	56	6229
2026-01-04 11:54:28.78	48.58	9.45	-42.1	-43.5	20.5	1.50e-06	2	40	0	312475648	56	6785
2026-01-04 11:54:29.79	48.74	9.48	-41.5	-42.7	20.9	0.00e+00	91	40	0	314572800	56	6201
2026-01-04 11:54:30.80	48.91	9.52	-41.6	-42.8	20.6	0.00e+00	33	40	0	316669952	56	6280
2026-01-04 11:54:31.81	49.07	9.55	-41.5	-42.8	20.7	0.00e+00	68	40	0	318767104	56	6266
2026-01-04 11:54:32.82	49.24	9.58	-41.4	-42.6	21.0	0.00e+00	32	40	0	320864256	56	6150
2026-01-04 11:54:33.83	49.41	9.61	-41.3	-42.5	21.0	0.00e+00	0	40	0	321912832	56	6061
2026-01-04 11:54:34.84	49.57	9.64	-41.3	-42.5	21.0	0.00e+00	75	40	0	324009984	56	6087
2026-01-04 11:54:35.85	49.74	9.67	-41.3	-42.5	21.1	0.00e+00	2	40	0	326107136	56	6081
2026-01-04 11:54:36.86	49.91	9.70	-41.2	-42.3	21.2	0.00e+00	92	40	0	328204288	56	5960
2026-01-04 11:54:37.87	50.07	9.73	-41.4	-42.6	21.0	0.00e+00	0	40	0	330301440	56	6136
2026-01-04 11:54:38.88	50.24	9.76	-41.4	-42.6	21.0	0.00e+00	66	40	0	331350016	56	6142
2026-01-04 11:54:39.89	50.41	9.79	-41.5	-42.7	20.9	0.00e+00	43	40	0	333447168	56	6195
2026-01-04 11:54:40.90	50.58	9.82	-41.5	-42.7	20.9	0.00e+00	0	40	0	335544320	56	6198
2026-01-04 11:54:41.91	50.75	9.85	-41.4	-42.6	20.9	0.00e+00	0	40	0	337641472	56	6161
2026-01-04 11:54:42.92	50.92	9.88	-41.6	-42.8	20.8	0.00e+00	0	40	0	339738624	56	6313
2026-01-04 11:54:43.92	51.08	9.91	-41.6	-42.9	20.7	0.00e+00	90	40	0	340787200	56	6338
2026-01-04 11:54:44.93	51.25	9.94	-41.7	-43.0	20.3	0.00e+00	33	40	0	342884352	56	6419
2026-01-04 11:54:45.95	51.43	9.97	-41.6	-42.8	20.7	0.00e+00	91	40	0	344981504	56	6313
2026-01-04 11:54:46.96	51.60	9.99	-41.7	-43.0	20.6	0.00e+00	34	40	0	347078656	56	6391
2026-01-04 11:54:47.96	51.76	10.02	-41.5	-42.8	20.9	0.00e+00	47	40	0	349175808	56	6257
2026-01-04 11:54:48.97	51.94	10.05	-41.3	-42.5	21.0	0.00e+00	32	40	0	350224384	56	6098
2026-01-04 11:54:49.98	52.11	10.08	-41.4	-42.6	20.9	0.00e+00	0	40	0	352321536	56	6116
2026-01-04 11:54:50.99	52.28	10.11	-41.4	-42.6	21.1	0.00e+00	91	40	0	354418688	56	6161
2026-01-04 11:54:52.00	52.45	10.13	-41.4	-42.6	21.0	0.00e+00	2	40	0	356515840	56	6147
2026-01-04 11:54:53.01	52.62	10.16	-41.3	-42.5	21.1	0.00e+00	92	40	0	358612992	56	6076
2026-01-04 11:54:54.02	52.80	10.19	-41.1	-42.2	21.3	0.00e+00	34	40	0	359661568	56	5868
2026-01-04 11:54:55.03	52.97	10.22	-41.0	-42.1	21.4	0.00e+00	0	40	0	361758720	56	5810
2026-01-04 11:54:56.04	53.14	10.24	-40.9	-42.1	21.5	0.00e+00	0	40	0	363855872	56	5786
2026-01-04 11:54:57.05	53.32	10.27	-41.2	-42.4	21.2	0.00e+00	2	40	0	365953024	56	5978
2026-01-04 11:54:58.06	53.49	10.30	-40.9	-42.1	21.4	0.00e+00	0	40	0	368050176	56	5794
2026-01-04 11:54:59.07	53.66	10.32	-41.1	-42.3	21.2	0.00e+00	0	40	0	369098752	56	5941
2026-01-04 11:55:00.08	53.84	10.35	-41.2	-42.4	21.1	0.00e+00	92	40	0	371195904	56	5981
2026-01-04 11:55:01.09	54.01	10.37	-41.2	-42.4	21.1	0.00e+00	0	40	0	373293056	56	6030
2026-01-04 11:55:02.10	54.19	10.40	-41.3	-42.5	21.1	0.00e+00	49	40	0	375390208	56	6056
2026-01-04 11:55:03.11	54.36	10.43	-41.4	-42.6	20.9	0.00e+00	50	40	0	377487360	56	6169
2026-01-04 11:55:04.12	54.54	10.45	-41.4	-42.6	20.9	0.00e+00	48	40	0	379584512	56	6131
2026-01-04 11:55:05.12	54.71	10.48	-41.1	-42.3	21.1	0.00e+00	0	40	0	380633088	56	5931
2026-01-04 11:55:06.13	54.89	10.50	-41.1	-42.3	21.2	0.00e+00	2	40	0	382730240	56	5917
2026-01-04 11:55:07.14	55.07	10.52	-41.2	-42.3	21.3	0.00e+00	92	40	0	384827392	56	5955
2026-01-04 11:55:08.15	55.24	10.55	-41.1	-42.3	21.2	0.00e+00	40	40	0	386924544	56	5935
2026-01-04 11:55:09.16	55.42	10.57	-41.1	-42.2	21.3	0.00e+00	92	40	0	389021696	56	5884
2026-01-04 11:55:10.17	55.60	10.60	-40.9	-42.0	21.5	0.00e+00	39	40	0	390070272	56	5729
2026-01-04 11:55:11.18	55.78	10.62	-40.9	-42.1	21.5	0.00e+00	39	40	0	392167424	56	5774
2026-01-04 11:55:12.18	55.95	10.64	-40.5	-41.6	21.8	0.00e+00	0	40	0	394264576	54	6127
2026-01-04 11:55:13.19	56.13	10.67	-40.5	-41.6	21.8	0.00e+00	32	40	0	396361728	54	6170
2026-01-04 11:55:14.20	56.31	10.69	-40.5	-41.6	21.7	0.00e+00	38	40	0	398458880	54	6166
2026-01-04 11:55:15.21	56.49	10.71	-40.5	-41.6	21.8	0.00e+00	0	40	0	399507456	54	6125
2026-01-04 11:55:16.22	56.67	10.74	-40.6	-41.7	21.7	0.00e+00	92	40	0	401604608	54	6189
2026-01-04 11:55:17.23	56.85	10.76	-40.7	-41.8	21.7	0.00e+00	0	40	0	403701760	54	6253
2026-01-04 11:55:18.24	57.03	10.78	-40.5	-41.6	21.5	0.00e+00	0	40	0	405798912	54	6134
2026-01-04 11:55:19.25	57.21	10.80	-40.7	-41.8	21.6	0.00e+00	0	40	0	407896064	54	6304
2026-01-04 11:55:20.26	57.39	10.82	-40.9	-42.0	21.4	0.00e+00	0	40	0	408944640	54	6444
2026-01-04 11:55:21.27	57.57	10.85	-41.1	-42.2	21.2	0.00e+00	0	40	0	411041792	54	6614
2026-01-04 11:55:22.27	57.75	10.87	-41.0	-42.1	21.3	0.00e+00	2	40	0	413138944	54	6522
2026-01-04 11:55:23.28	57.93	10.89	-41.0	-42.1	21.2	0.00e+00	92	40	0	415236096	54	6524
2026-01-04 11:55:24.29	58.11	10.91	-41.1	-42.2	21.2	0.00e+00	0	40	0	417333248	54	6599
2026-01-04 11:55:25.30	58.29	10.93	-41.1	-42.3	21.2	0.00e+00	92	40	0	418381824	54	6646
2026-01-04 11:55:26.31	58.47	10.95	-41.2	-42.4	21.0	0.00e+00	47	40	0	420478976	54	6709
2026-01-04 11:55:27.32	58.65	10.97	-41.3	-42.5	21.0	0.00e+00	49	40	0	422576128	54	6809
2026-01-04 11:55:28.32	58.83	10.99	-41.1	-42.3	21.3	0.00e+00	0	40	0	424673280	54	6630
2026-01-04 11:55:29.33	59.02	11.01	-41.2	-42.4	21.1	0.00e+00	35	40	0	426770432	54	6726
2026-01-04 11:55:30.34	59.20	11.03	-41.2	-42.5	21.0	0.00e+00	92	40	0	427819008	54	6776
2026-01-04 11:55:31.35	59.38	11.05	-41.1	-42.3	21.2	0.00e+00	0	40	0	429916160	54	6663
2026-01-04 11:55:32.36	59.57	11.07	-41.2	-42.4	21.1	0.00e+00	92	40	0	432013312	54	6743
2026-01-04 11:55:33.36	59.75	11.08	-41.2	-42.4	21.1	0.00e+00	48	40	0	434110464	54	6748
2026-01-04 11:55:34.37	59.93	11.10	-41.3	-42.5	20.9	0.00e+00	41	40	0	436207616	54	6825
2026-01-04 11:55:35.38	60.11	11.12	-41.5	-42.7	20.8	0.00e+00	39	40	0	437256192	54	6975
2026-01-04 11:55:36.39	60.30	11.14	-41.6	-42.9	20.6	0.00e+00	6	40	0	439353344	54	7129
2026-01-04 11:55:37.40	60.48	11.16	-41.6	-42.8	20.6	0.00e+00	24	40	0	441450496	54	7073
2026-01-04 11:55:38.41	60.67	11.17	-41.6	-42.9	20.6	0.00e+00	8	40	0	443547648	54	7108
2026-01-04 11:55:39.41	60.85	11.19	-41.7	-43.0	20.5	0.00e+00	92	40	0	445644800	54	7190
2026-01-04 11:55:40.42	61.04	11.21	-41.6	-42.8	20.7	0.00e+00	40	40	0	446693376	54	7071
2026-01-04 11:55:41.43	61.22	11.22	-41.6	-42.8	20.7	0.00e+00	92	40	0	448790528	54	7061
2026-01-04 11:55:42.44	61.41	11.24	-41.7	-43.0	20.6	0.00e+00	7	40	0	450887680	54	7222
2026-01-04 11:55:43.45	61.59	11.26	-41.6	-42.8	20.7	0.00e+00	5	40	0	452984832	54	7057
2026-01-04 11:55:44.46	61.78	11.27	-41.7	-43.0	20.6	0.00e+00	0	40	0	455081984	56	6418
2026-01-04 11:55:45.46	61.96	11.29	-41.8	-43.1	20.5	0.00e+00	5	40	0	456130560	56	6493
2026-01-04 11:55:46.47	62.15	11.30	-41.8	-43.1	20.5	0.00e+00	90	40	0	458227712	56	6491
2026-01-04 11:55:47.48	62.33	11.32	-41.9	-43.2	20.4	0.00e+00	46	40	0	460324864	56	6581
2026-01-04 11:55:48.49	62.52	11.33	-41.9	-43.3	20.3	0.00e+00	92	40	0	462422016	56	6633
2026-01-04 11:55:49.50	62.71	11.35	-42.0	-43.4	20.2	0.00e+00	0	40	0	464519168	56	6709
2026-01-04 11:55:50.51	62.89	11.36	-42.0	-43.4	20.3	0.00e+00	47	40	0	465567744	56	6700
2026-01-04 11:55:51.52	63.08	11.38	-42.1	-43.4	20.2	0.00e+00	0	40	0	467664896	56	6745
2026-01-04 11:55:52.53	63.27	11.39	-41.9	-43.2	20.3	0.00e+00	49	40	0	469762048	56	6596
2026-01-04 11:55:53.54	63.46	11.40	-41.8	-43.1	20.4	0.00e+00	92	40	0	471859200	56	6521
2026-01-04 11:55:54.55	63.64	11.42	-41.9	-43.2	20.4	0.00e+00	49	40	0	473956352	56	6588
2026-01-04 11:55:55.56	63.83	11.43	-41.8	-43.1	20.5	0.00e+00	92	40	0	476053504	56	6505
2026-01-04 11:55:56.57	64.02	11.44	-41.9	-43.2	20.4	0.00e+00	48	40	0	477102080	56	6583
2026-01-04 11:55:57.58	64.21	11.45	-41.6	-42.8	20.7	0.00e+00	7	40	0	479199232	56	6299
2026-01-04 11:55:58.59	64.40	11.47	-41.5	-42.7	20.8	0.00e+00	5	40	0	481296384	56	6242
2026-01-04 11:55:59.60	64.58	11.48	-41.5	-42.7	20.9	0.00e+00	38	40	0	483393536	56	6194
2026-01-04 11:56:00.61	64.77	11.49	-41.4	-42.7	20.8	0.00e+00	16	40	0	485490688	56	6179
2026-01-04 11:56:01.62	64.96	11.50	-41.4	-42.6	20.9	0.00e+00	0	40	0	486539264	56	6141
2026-01-04 11:56:02.63	65.15	11.51	-41.5	-42.8	20.8	0.00e+00	92	40	0	488636416	56	6248
2026-01-04 11:56:03.63	65.34	11.52	-41.6	-42.8	20.7	0.00e+00	8	40	0	490733568	56	6287
2026-01-04 11:56:04.64	65.53	11.53	-41.6	-42.9	20.7	0.00e+00	92	40	0	492830720	56	6339
2026-01-04 11:56:05.65	65.71	11.54	-41.5	-42.8	20.8	0.00e+00	6	40	0	494927872	56	6257
2026-01-04 11:56:06.66	65.90	11.55	-41.7	-43.0	20.6	0.00e+00	0	40	0	495976448	56	6397
2026-01-04 11:56:07.67	66.09	11.56	-41.7	-43.0	20.6	0.00e+00	5	40	0	498073600	56	6401
2026-01-04 11:56:08.68	66.28	11.57	-41.7	-43.0	20.6	0.00e+00	0	40	0	500170752	56	6418
2026-01-04 11:56:09.69	66.47	11.58	-41.2	-42.4	21.2	0.00e+00	90	40	0	502267904	56	5973
2026-01-04 11:56:10.70	66.66	11.59	-41.2	-42.4	21.1	0.00e+00	43	40	0	504365056	56	6008
2026-01-04 11:56:11.71	66.85	11.60	-41.3	-42.5	21.1	0.00e+00	92	40	0	505413632	56	6046
2026-01-04 11:56:12.72	67.04	11.61	-41.1	-42.3	21.2	0.00e+00	0	40	0	507510784	56	5898
2026-01-04 11:56:13.73	67.23	11.62	-41.3	-42.5	21.0	0.00e+00	49	40	0	509607936	56	6058
2026-01-04 11:56:14.74	67.42	11.62	-41.2	-42.4	21.0	0.00e+00	45	40	0	511705088	56	6003
2026-01-04 11:56:15.75	67.61	11.63	-41.3	-42.5	20.9	0.00e+00	49	40	0	513802240	56	6062
2026-01-04 11:56:16.76	67.80	11.64	-41.4	-42.7	20.8	0.00e+00	91	40	0	514850816	56	6188
2026-01-04 11:56:17.76	67.99	11.65	-41.2	-42.4	21.1	0.00e+00	32	40	0	516947968	56	6004
2026-01-04 11:56:18.77	68.18	11.65	-41.4	-42.6	20.9	0.00e+00	91	40	0	519045120	56	6152
2026-01-04 11:56:19.78	68.37	11.66	-41.1	-42.2	21.2	0.00e+00	33	40	0	521142272	56	5894
2026-01-04 11:56:20.79	68.57	11.66	-41.0	-42.1	21.4	0.00e+00	2	40	0	523239424	56	5815
2026-01-04 11:56:21.80	68.76	11.67	-41.0	-42.2	21.4	0.00e+00	31	40	0	524288000	56	5840
2026-01-04 11:56:22.81	68.95	11.68	-41.2	-42.4	21.2	0.00e+00	34	40	0	526385152	56	5991
2026-01-04 11:56:23.82	69.14	11.68	-41.2	-42.4	21.1	0.00e+00	75	40	0	528482304	56	6004
2026-01-04 11:56:24.83	69.33	11.69	-41.1	-42.3	21.3	0.00e+00	0	40	0	530579456	56	5946
2026-01-04 11:56:25.84	69.52	11.69	-41.0	-42.2	21.2	0.00e+00	92	40	0	532676608	56	5864
2026-01-04 11:56:26.84	69.71	11.70	-41.1	-42.3	21.3	0.00e+00	0	40	0	533725184	56	5903
2026-01-04 11:56:27.86	69.90	11.70	-41.0	-42.1	21.3	0.00e+00	92	40	0	535822336	56	5822
2026-01-04 11:56:28.86	70.09	11.70	-41.0	-42.2	21.4	0.00e+00	2	40	0	537919488	56	5830
2026-01-04 11:56:29.88	70.29	11.71	-41.0	-42.1	21.4	0.00e+00	0	40	0	540016640	56	5824
2026-01-04 11:56:30.89	70.48	11.71	-40.6	-41.8	21.6	0.00e+00	0	40	0	542113792	54	6259
2026-01-04 11:56:31.90	70.67	11.71	-40.7	-41.8	21.5	0.00e+00	0	40	0	544210944	54	6303
2026-01-04 11:56:32.90	70.86	11.72	-40.6	-41.7	21.7	0.00e+00	92	40	0	545259520	54	6189
2026-01-04 11:56:33.91	71.05	11.72	-40.3	-41.4	22.0	0.00e+00	49	40	0	547356672	54	6007
2026-01-04 11:56:34.93	71.24	11.72	-40.3	-41.4	21.9	0.00e+00	76	40	0	549453824	54	5979
2026-01-04 11:56:35.94	71.43	11.72	-40.0	-41.1	22.2	0.00e+00	38	40	0	551550976	54	5779
2026-01-04 11:56:36.95	71.63	11.72	-40.1	-41.2	22.2	0.00e+00	43	40	0	553648128	54	5849
2026-01-04 11:56:37.96	71.82	11.73	-40.1	-41.1	22.3	0.00e+00	43	40	0	554696704	54	5806
2026-01-04 11:56:38.96	72.01	11.73	-40.1	-41.2	22.2	0.00e+00	43	40	0	556793856	54	5829
2026-01-04 11:56:39.97	72.20	11.73	-40.0	-41.1	22.3	0.00e+00	43	40	0	558891008	54	5775
2026-01-04 11:56:40.98	72.39	11.73	-40.0	-41.1	22.3	0.00e+00	0	40	0	560988160	54	5768
2026-01-04 11:56:41.99	72.58	11.73	-40.1	-41.1	22.2	0.00e+00	92	40	0	563085312	54	5817
2026-01-04 11:56:43.00	72.77	11.73	-40.1	-41.1	22.2	0.00e+00	2	40	0	564133888	54	5802
2026-01-04 11:56:44.01	72.97	11.73	-40.0	-41.1	22.3	0.00e+00	18	40	0	566231040	54	5794
2026-01-04 11:56:45.02	73.16	11.73	-39.9	-41.0	22.3	0.00e+00	33	40	0	568328192	54	5724
2026-01-04 11:56:46.03	73.35	11.73	-39.9	-41.0	22.2	0.00e+00	0	40	0	570425344	54	5702
2026-01-04 11:56:47.04	73.54	11.72	-39.8	-40.8	22.5	0.00e+00	0	40	0	572522496	54	5589
2026-01-04 11:56:48.05	73.73	11.72	-39.8	-40.8	22.4	0.00e+00	0	40	0	573571072	52	6305
2026-01-04 11:56:49.06	73.92	11.72	-39.8	-40.8	22.5	0.00e+00	92	40	0	575668224	52	6269
2026-01-04 11:56:50.07	74.12	11.72	-39.7	-40.7	22.5	0.00e+00	0	40	0	577765376	52	6184
2026-01-04 11:56:51.08	74.31	11.72	-39.7	-40.7	22.7	0.00e+00	0	40	0	579862528	52	6192
2026-01-04 11:56:52.09	74.50	11.71	-39.9	-40.9	22.4	0.00e+00	50	40	0	581959680	52	6377
2026-01-04 11:56:53.10	74.69	11.71	-40.2	-41.3	22.1	0.00e+00	50	40	0	583008256	52	6618
2026-01-04 11:56:54.11	74.88	11.71	-39.9	-41.0	22.3	0.00e+00	0	40	0	585105408	52	6397
2026-01-04 11:56:55.12	75.07	11.70	-39.8	-40.8	22.4	0.00e+00	50	40	0	587202560	52	6312
2026-01-04 11:56:56.13	75.27	11.70	-39.8	-40.8	22.6	0.00e+00	92	40	0	589299712	52	6289
2026-01-04 11:56:57.14	75.46	11.70	-39.8	-40.8	22.6	0.00e+00	33	40	0	591396864	52	6308
2026-01-04 11:56:58.15	75.65	11.69	-39.8	-40.9	22.6	0.00e+00	90	40	0	592445440	52	6325
2026-01-04 11:56:59.16	75.84	11.69	-39.6	-40.6	22.8	0.00e+00	0	40	0	594542592	52	6130
2026-01-04 11:57:00.16	76.03	11.68	-39.6	-40.6	22.8	0.00e+00	32	40	0	596639744	52	6107
2026-01-04 11:57:01.17	76.22	11.68	-39.6	-40.6	22.7	0.00e+00	48	40	0	598736896	52	6137
2026-01-04 11:57:02.18	76.41	11.67	-39.5	-40.5	22.9	0.00e+00	0	40	0	600834048	52	6041
2026-01-04 11:57:03.19	76.60	11.66	-39.5	-40.5	22.8	0.00e+00	92	40	0	601882624	52	6062
2026-01-04 11:57:04.20	76.79	11.66	-39.6	-40.6	22.8	0.00e+00	2	40	0	603979776	52	6112
2026-01-04 11:57:05.21	76.98	11.65	-39.6	-40.6	22.7	0.00e+00	92	40	0	606076928	52	6145
2026-01-04 11:57:06.22	77.17	11.64	-39.7	-40.7	22.6	0.00e+00	0	40	0	608174080	52	6210
2026-01-04 11:57:07.23	77.36	11.64	-39.7	-40.7	22.6	0.00e+00	0	40	0	610271232	52	6235
2026-01-04 11:57:08.24	77.56	11.63	-39.9	-40.9	22.4	0.00e+00	0	40	0	612368384	52	6387
2026-01-04 11:57:09.25	77.75	11.62	-39.9	-40.9	22.4	0.00e+00	0	40	0	613416960	52	6372
2026-01-04 11:57:10.26	77.94	11.62	-39.9	-40.9	22.5	0.00e+00	0	40	0	615514112	52	6323
2026-01-04 11:57:11.27	78.13	11.61	-39.9	-40.9	22.5	0.00e+00	0	40	0	617611264	52	6341
2026-01-04 11:57:12.28	78.32	11.60	-39.7	-40.8	22.5	0.00e+00	91	40	0	619708416	52	6247
2026-01-04 11:57:13.29	78.51	11.59	-40.0	-41.0	22.3	0.00e+00	46	40	0	621805568	52	6432
2026-01-04 11:57:14.30	78.70	11.58	-40.1	-41.2	22.3	0.00e+00	20	40	0	622854144	52	6571
2026-01-04 11:57:15.31	78.89	11.57	-40.0	-41.0	22.0	0.00e+00	0	40	0	624951296	52	6460
2026-01-04 11:57:16.32	79.08	11.56	-39.9	-41.0	22.3	0.00e+00	48	40	0	627048448	52	6396
2026-01-04 11:57:17.33	79.27	11.55	-40.1	-41.1	22.2	0.00e+00	0	40	0	629145600	52	6530
2026-01-04 11:57:18.34	79.46	11.54	-39.9	-40.9	22.4	0.00e+00	34	40	0	631242752	52	6367
2026-01-04 11:57:19.34	79.64	11.53	-39.7	-40.7	22.6	0.00e+00	92	40	0	632291328	52	6212
2026-01-04 11:57:20.35	79.83	11.52	-39.8	-40.8	22.6	0.00e+00	33	40	0	634388480	52	6251
2026-01-04 11:57:21.36	80.02	11.51	-39.7	-40.7	22.6	0.00e+00	90	40	0	636485632	52	6215
2026-01-04 11:57:22.37	80.21	11.50	-39.8	-40.8	22.5	0.00e+00	0	40	0	638582784	52	6286
2026-01-04 11:57:23.38	80.40	11.49	-39.9	-41.0	22.4	0.00e+00	0	40	0	640679936	52	6403
2026-01-04 11:57:24.39	80.59	11.48	-40.3	-41.3	22.1	0.00e+00	35	40	0	641728512	52	6681
2026-01-04 11:57:25.40	80.78	11.46	-40.4	-41.4	22.1	0.00e+00	6	40	0	643825664	52	6766
2026-01-04 11:57:26.40	80.96	11.45	-40.3	-41.3	22.0	0.00e+00	36	40	0	645922816	52	6687
2026-01-04 11:57:27.41	81.15	11.44	-40.6	-41.7	21.9	0.00e+00	5	40	0	648019968	52	6969
2026-01-04 11:57:28.42	81.34	11.43	-40.6	-41.7	21.7	0.00e+00	92	40	0	650117120	52	6968
2026-01-04 11:57:29.43	81.53	11.41	-40.4	-41.5	21.9	0.00e+00	0	40	0	651165696	52	6831
2026-01-04 11:57:30.44	81.72	11.40	-40.5	-41.5	21.7	0.00e+00	5	40	0	653262848	52	6839
2026-01-04 11:57:31.45	81.90	11.39	-40.4	-41.5	22.0	0.00e+00	5	40	0	655360000	52	6777
2026-01-04 11:57:32.46	82.09	11.37	-40.3	-41.4	22.0	0.00e+00	0	40	0	657457152	52	6695
2026-01-04 11:57:33.47	82.28	11.36	-40.2	-41.2	22.1	0.00e+00	0	40	0	659554304	52	6612
2026-01-04 11:57:34.48	82.47	11.34	-40.1	-41.1	22.3	0.00e+00	0	40	0	660602880	52	6511
2026-01-04 11:57:35.49	82.65	11.33	-40.0	-41.1	22.2	0.00e+00	92	40	0	662700032	52	6481
2026-01-04 11:57:36.50	82.84	11.32	-39.9	-41.0	22.3	0.00e+00	41	40	0	664797184	52	6392
2026-01-04 11:57:37.51	83.03	11.30	-40.0	-41.0	22.2	0.00e+00	92	40	0	666894336	52	6440
2026-01-04 11:57:38.51	83.21	11.28	-40.0	-41.1	22.1	0.00e+00	0	40	0	668991488	52	6490
2026-01-04 11:57:39.52	83.40	11.27	-39.8	-40.9	22.4	0.00e+00	0	40	0	670040064	52	6320
2026-01-04 11:57:40.53	83.58	11.25	-39.9	-40.9	22.3	0.00e+00	0	40	0	672137216	52	6337
2026-01-04 11:57:41.54	83.77	11.24	-39.9	-40.9	22.4	0.00e+00	43	40	0	674234368	52	6347
2026-01-04 11:57:42.55	83.96	11.22	-39.9	-40.9	22.3	0.00e+00	92	40	0	676331520	52	6358
2026-01-04 11:57:43.56	84.14	11.20	-39.7	-40.7	22.6	0.00e+00	48	40	0	678428672	52	6225
2026-01-04 11:57:44.57	84.33	11.19	-39.7	-40.7	22.6	0.00e+00	92	40	0	679477248	52	6187
2026-01-04 11:57:45.58	84.51	11.17	-39.7	-40.7	22.5	0.00e+00	7	40	0	681574400	52	6191
2026-01-04 11:57:46.58	84.69	11.15	-39.6	-40.6	22.6	0.00e+00	37	40	0	683671552	52	6169
2026-01-04 11:57:47.59	84.88	11.13	-39.5	-40.5	22.8	0.00e+00	39	40	0	685768704	52	6046
2026-01-04 11:57:48.60	85.06	11.12	-39.6	-40.6	22.7	0.00e+00	6	40	0	687865856	52	6155
2026-01-04 11:57:49.61	85.25	11.10	-39.6	-40.6	22.6	0.00e+00	11	40	0	688914432	52	6149
2026-01-04 11:57:50.62	85.43	11.08	-39.6	-40.6	22.8	0.00e+00	40	40	0	691011584	52	6147
2026-01-04 11:57:51.63	85.61	11.06	-39.6	-40.6	22.7	0.00e+00	92	40	0	693108736	52	6153
2026-01-04 11:57:52.64	85.80	11.04	-39.5	-40.5	22.8	0.00e+00	7	40	0	695205888	52	6084
2026-01-04 11:57:53.65	85.98	11.02	-39.5	-40.5	22.8	0.00e+00	23	40	0	697303040	52	6076
2026-01-04 11:57:54.66	86.16	11.00	-39.5	-40.5	22.7	0.00e+00	0	40	0	698351616	52	6079
2026-01-04 11:57:55.67	86.35	10.98	-39.4	-40.4	22.9	0.00e+00	8	40	0	700448768	52	5981
2026-01-04 11:57:56.68	86.53	10.96	-39.6	-40.6	22.6	0.00e+00	8	40	0	702545920	52	6145
2026-01-04 11:57:57.68	86.71	10.94	-39.6	-40.6	22.6	0.00e+00	0	40	0	704643072	52	6168
2026-01-04 11:57:58.69	86.89	10.92	-39.1	-40.1	23.1	0.00e+00	92	40	0	706740224	52	5789
2026-01-04 11:57:59.70	87.07	10.90	-39.3	-40.3	23.0	0.00e+00	47	40	0	708837376	52	5899
2026-01-04 11:58:00.71	87.26	10.88	-39.3	-40.3	22.9	0.00e+00	92	40	0	709885952	52	5941
2026-01-04 11:58:01.72	87.44	10.86	-39.4	-40.4	22.8	0.00e+00	46	40	0	711983104	52	6017
2026-01-04 11:58:02.73	87.62	10.84	-39.6	-40.6	22.7	0.00e+00	46	40	0	714080256	52	6119
2026-01-04 11:58:03.74	87.80	10.82	-39.6	-40.6	22.7	0.00e+00	48	40	0	716177408	52	6124
2026-01-04 11:58:04.75	87.98	10.80	-39.5	-40.5	22.8	0.00e+00	41	40	0	718274560	52	6056
2026-01-04 11:58:05.76	88.16	10.77	-39.7	-40.7	22.6	0.00e+00	84	40	0	719323136	52	6217
2026-01-04 11:58:06.76	88.34	10.75	-39.7	-40.8	22.5	0.00e+00	42	40	0	721420288	52	6266
2026-01-04 11:58:07.77	88.52	10.73	-39.5	-40.5	22.8	0.00e+00	91	40	0	723517440	52	6070
2026-01-04 11:58:08.78	88.70	10.71	-39.4	-40.4	22.9	0.00e+00	0	40	0	725614592	52	5984
2026-01-04 11:58:09.79	88.88	10.68	-39.4	-40.5	22.8	0.00e+00	40	40	0	727711744	52	6035
2026-01-04 11:58:10.80	89.06	10.66	-39.5	-40.5	22.7	0.00e+00	36	40	0	728760320	52	6060
2026-01-04 11:58:11.81	89.24	10.64	-39.5	-40.5	22.7	0.00e+00	39	40	0	730857472	52	6096
2026-01-04 11:58:12.82	89.41	10.61	-39.6	-40.6	22.6	0.00e+00	74	40	0	732954624	52	6170
2026-01-04 11:58:13.83	89.59	10.59	-39.6	-40.6	22.7	0.00e+00	0	40	0	735051776	52	6172
2026-01-04 11:58:14.84	89.77	10.57	-39.6	-40.6	22.7	0.00e+00	92	40	0	737148928	52	6147
2026-01-04 11:58:15.85	89.95	10.54	-39.6	-40.6	22.6	0.00e+00	2	40	0	738197504	52	6130
2026-01-04 11:58:16.86	90.13	10.52	-39.4	-40.4	22.9	0.00e+00	92	40	0	740294656	52	5976
2026-01-04 11:58:17.87	90.30	10.49	-39.3	-40.3	23.0	0.00e+00	2	40	0	742391808	52	5951
2026-01-04 11:58:18.88	90.48	10.47	-39.3	-40.3	23.0	0.00e+00	2	40	0	744488960	52	5936
2026-01-04 11:58:19.89	90.66	10.44	-39.2	-40.2	23.1	0.00e+00	0	40	0	746586112	52	5844
2026-01-04 11:58:20.90	90.83	10.42	-39.3	-40.3	22.9	0.00e+00	47	40	0	747634688	52	5919
2026-01-04 11:58:21.91	91.01	10.39	-39.4	-40.4	22.9	0.00e+00	92	40	0	749731840	52	5980
2026-01-04 11:58:22.92	91.18	10.37	-39.5	-40.5	22.8	0.00e+00	0	40	0	751828992	52	6063
2026-01-04 11:58:23.93	91.36	10.34	-39.6	-40.6	22.7	0.00e+00	92	40	0	753926144	52	6126
2026-01-04 11:58:24.93	91.53	10.31	-39.6	-40.6	22.6	0.00e+00	47	40	0	756023296	52	6137
2026-01-04 11:58:25.94	91.71	10.29	-39.7	-40.7	22.7	0.00e+00	47	40	0	757071872	52	6217
2026-01-04 11:58:26.95	91.88	10.26	-39.8	-40.8	22.6	0.00e+00	3	40	0	759169024	52	6267
2026-01-04 11:58:27.95	92.05	10.23	-39.9	-41.0	22.5	0.00e+00	34	40	0	761266176	52	6391
2026-01-04 11:58:28.96	92.23	10.21	-39.8	-40.8	22.5	0.00e+00	90	40	0	763363328	52	6276
2026-01-04 11:58:29.97	92.40	10.18	-40.0	-41.0	22.2	0.00e+00	35	40	0	765460480	52	6450
2026-01-04 11:58:30.98	92.57	10.15	-39.8	-40.9	22.4	0.00e+00	91	40	0	766509056	52	6339
2026-01-04 11:58:31.99	92.75	10.12	-39.8	-40.9	22.3	0.00e+00	36	40	0	768606208	52	6331
2026-01-04 11:58:33.00	92.92	10.10	-40.1	-41.1	22.2	0.00e+00	92	40	0	770703360	52	6513
2026-01-04 11:58:34.01	93.09	10.07	-40.1	-41.1	22.1	0.00e+00	36	40	0	772800512	52	6511
2026-01-04 11:58:35.01	93.26	10.04	-40.1	-41.1	22.1	0.00e+00	0	40	0	774897664	52	6507
2026-01-04 11:58:36.02	93.43	10.01	-40.3	-41.4	22.0	0.00e+00	78	40	0	776994816	54	6028
2026-01-04 11:58:37.03	93.60	9.98	-40.4	-41.5	21.6	0.00e+00	0	40	0	778043392	54	6063
2026-01-04 11:58:38.04	93.78	9.95	-40.6	-41.8	21.6	0.00e+00	92	40	0	780140544	54	6254
2026-01-04 11:58:39.05	93.95	9.93	-40.6	-41.7	21.6	0.00e+00	0	40	0	782237696	54	6217
2026-01-04 11:58:40.06	94.12	9.90	-40.8	-42.0	21.4	0.00e+00	90	40	0	784334848	54	6425
2026-01-04 11:58:41.07	94.29	9.87	-40.9	-42.0	21.2	0.00e+00	2	40	0	785383424	54	6461
2026-01-04 11:58:42.08	94.46	9.84	-40.9	-42.1	21.3	0.00e+00	0	40	0	787480576	54	6491
2026-01-04 11:58:43.09	94.63	9.81	-41.0	-42.2	21.1	0.00e+00	0	40	0	789577728	54	6590
2026-01-04 11:58:44.10	94.79	9.78	-41.2	-42.4	21.0	0.00e+00	0	40	0	791674880	54	6737
2026-01-04 11:58:45.11	94.96	9.75	-41.4	-42.6	20.8	0.00e+00	92	40	0	793772032	54	6895
2026-01-04 11:58:46.12	95.13	9.72	-41.5	-42.8	20.6	0.00e+00	0	40	0	794820608	54	7021
2026-01-04 11:58:47.13	95.30	9.69	-41.6	-42.9	20.4	0.00e+00	92	40	0	796917760	54	7168
2026-01-04 11:58:48.13	95.47	9.66	-41.7	-43.0	20.4	0.00e+00	32	40	0	799014912	56	6457
2026-01-04 11:58:49.14	95.63	9.63	-41.8	-43.1	20.1	0.00e+00	38	40	0	801112064	56	6488
2026-01-04 11:58:50.15	95.80	9.59	-41.9	-43.2	20.2	0.00e+00	2	40	0	803209216	56	6596
2026-01-04 11:58:51.16	95.97	9.56	-41.6	-42.9	20.7	0.00e+00	0	40	0	805306368	56	6334
2026-01-04 11:58:52.17	96.13	9.53	-41.5	-42.8	20.7	0.00e+00	47	40	0	806354944	56	6286
2026-01-04 11:58:53.18	96.30	9.50	-41.4	-42.7	20.6	0.00e+00	33	40	0	808452096	56	6216
2026-01-04 11:58:54.19	96.46	9.47	-41.4	-42.7	20.7	0.00e+00	92	40	0	810549248	56	6208
2026-01-04 11:58:55.20	96.63	9.44	-41.4	-42.7	20.6	0.00e+00	0	40	0	812646400	56	6241
2026-01-04 11:58:56.21	96.79	9.41	-41.5	-42.8	20.6	0.00e+00	92	40	0	814743552	56	6303
2026-01-04 11:58:57.22	96.96	9.37	-41.7	-43.0	20.4	0.00e+00	0	40	0	815792128	56	6461
2026-01-04 11:58:58.23	97.12	9.34	-41.8	-43.2	20.2	0.00e+00	0	40	0	817889280	56	6582
2026-01-04 11:58:59.24	97.29	9.31	-41.7	-43.1	20.3	0.00e+00	0	40	0	819986432	56	6468
2026-01-04 11:59:00.24	97.45	9.28	-41.9	-43.3	20.1	0.00e+00	0	40	0	822083584	56	6621
2026-01-04 11:59:01.25	97.61	9.24	-42.0	-43.3	20.0	0.00e+00	90	40	0	824180736	56	6686
2026-01-04 11:59:02.26	97.77	9.21	-42.0	-43.4	20.0	0.00e+00	0	40	0	825229312	56	6704
2026-01-04 11:59:03.27	97.94	9.18	-42.3	-43.7	19.6	0.00e+00	92	40	0	827326464	56	7003
2026-01-04 11:59:04.28	98.10	9.14	-42.4	-43.9	19.5	0.00e+00	0	40	0	829423616	56	7143
2026-01-04 11:59:05.29	98.26	9.11	-42.7	-44.3	19.4	0.00e+00	39	40	0	831520768	56	7468
2026-01-04 11:59:06.30	98.42	9.08	-42.7	-44.3	19.1	0.00e+00	0	40	0	833617920	58	6655
2026-01-04 11:59:07.31	98.58	9.04	-43.1	-44.7	18.8	0.00e+00	0	40	0	834666496	58	6978
2026-01-04 11:59:08.31	98.74	9.01	-43.1	-44.8	18.6	0.00e+00	92	40	0	836763648	58	7058
2026-01-04 11:59:09.32	98.90	8.98	-43.2	-44.9	18.4	0.00e+00	42	40	0	838860800	58	7158
2026-01-04 11:59:10.33	99.06	8.94	-43.1	-44.8	18.6	0.00e+00	92	40	0	840957952	58	7055
2026-01-04 11:59:11.34	99.22	8.91	-43.2	-44.9	18.6	0.00e+00	40	40	0	843055104	58	7133
2026-01-04 11:59:12.35	99.38	8.87	-43.0	-44.6	18.8	0.00e+00	53	40	0	844103680	58	6891
2026-01-04 11:59:13.36	99.54	8.84	-43.0	-44.6	18.8	0.00e+00	46	40	0	846200832	58	6918
2026-01-04 11:59:14.37	99.70	8.80	-42.7	-44.3	19.2	0.00e+00	0	40	0	848297984	58	6616
2026-01-04 11:59:15.38	99.86	8.77	-42.7	-44.2	19.2	0.00e+00	90	40	0	850395136	58	6592
2026-01-04 11:59:16.38	100.01	8.73	-42.8	-44.4	19.0	0.00e+00	5	40	0	852492288	58	6747
2026-01-04 11:59:17.39	100.17	8.70	-42.8	-44.3	19.1	0.00e+00	92	40	0	853540864	58	6681
2026-01-04 11:59:18.40	100.33	8.66	-42.6	-44.1	19.4	0.00e+00	37	40	0	855638016	58	6490
2026-01-04 11:59:19.41	100.48	8.63	-42.6	-44.2	19.2	0.00e+00	92	40	0	857735168	58	6546
2026-01-04 11:59:20.42	100.64	8.59	-42.6	-44.1	19.2	0.00e+00	36	40	0	859832320	58	6537
2026-01-04 11:59:21.43	100.80	8.56	-42.5	-44.0	19.3	0.00e+00	0	40	0	861929472	58	6444
2026-01-04 11:59:22.44	100.95	8.52	-42.5	-44.0	19.3	0.00e+00	0	40	0	862978048	58	6444
2026-01-04 11:59:23.45	101.11	8.49	-42.6	-44.1	19.3	0.00e+00	5	40	0	865075200	58	6522
2026-01-04 11:59:24.46	101.26	8.45	-42.6	-44.2	19.2	0.00e+00	92	40	0	867172352	58	6543
2026-01-04 11:59:25.47	101.42	8.41	-42.9	-44.5	18.8	0.00e+00	6	40	0	869269504	58	6800
2026-01-04 11:59:26.48	101.57	8.38	-42.8	-44.4	19.0	0.00e+00	92	40	0	871366656	58	6763
2026-01-04 11:59:27.48	101.72	8.34	-43.0	-44.6	18.6	0.00e+00	46	40	0	873463808	58	6914
2026-01-04 11:59:28.49	101.88	8.30	-43.2	-44.9	18.3	0.00e+00	0	40	0	874512384	58	7162
2026-01-04 11:59:29.50	102.03	8.27	-43.3	-45.1	18.3	0.00e+00	0	40	0	876609536	58	7285
2026-01-04 11:59:30.51	102.18	8.23	-43.0	-44.6	18.7	0.00e+00	0	40	0	878706688	58	6880
2026-01-04 11:59:31.52	102.33	8.19	-42.7	-44.3	19.0	0.00e+00	88	40	0	880803840	58	6680
2026-01-04 11:59:32.53	102.49	8.16	-42.7	-44.4	19.0	0.00e+00	44	40	0	882900992	58	6696
2026-01-04 11:59:33.54	102.64	8.12	-42.3	-43.8	19.5	0.00e+00	91	40	0	883949568	58	6313
2026-01-04 11:59:34.55	102.79	8.08	-42.3	-43.8	19.4	0.00e+00	38	40	0	886046720	58	6317
2026-01-04 11:59:35.56	102.94	8.04	-42.2	-43.7	19.6	0.00e+00	92	40	0	888143872	58	6226
2026-01-04 11:59:36.57	103.09	8.01	-42.1	-43.7	19.7	0.00e+00	40	40	0	890241024	58	6191
2026-01-04 11:59:37.58	103.24	7.97	-42.5	-44.2	19.2	0.00e+00	6	40	0	892338176	58	6549
2026-01-04 11:59:38.59	103.39	7.93	-42.4	-44.0	19.4	0.00e+00	18	40	0	893386752	58	6396
2026-01-04 11:59:39.59	103.54	7.89	-42.4	-43.9	19.3	0.00e+00	6	40	0	895483904	58	6390
2026-01-04 11:59:40.60	103.69	7.86	-42.7	-44.3	19.1	0.00e+00	92	40	0	897581056	58	6636
2026-01-04 11:59:41.61	103.83	7.82	-42.7	-44.3	19.0	0.00e+00	6	40	0	899678208	58	6653
2026-01-04 11:59:42.62	103.98	7.78	-42.8	-44.4	18.8	0.00e+00	92	40	0	901775360	58	6745
2026-01-04 11:59:43.63	104.13	7.74	-42.6	-44.1	19.2	0.00e+00	6	40	0	902823936	58	6511
2026-01-04 11:59:44.64	104.28	7.70	-42.3	-43.8	19.4	0.00e+00	7	40	0	904921088	58	6282
2026-01-04 11:59:45.65	104.43	7.66	-42.2	-43.7	19.5	0.00e+00	0	40	0	907018240	58	6190
2026-01-04 11:59:46.66	104.57	7.63	-42.1	-43.6	19.6	0.00e+00	7	40	0	909115392	58	6119
2026-01-04 11:59:47.67	104.72	7.59	-41.8	-43.1	20.3	0.00e+00	92	40	0	911212544	56	6523
2026-01-04 11:59:48.68	104.86	7.55	-41.6	-42.9	20.4	0.00e+00	44	40	0	912261120	56	6358
2026-01-04 11:59:49.69	105.01	7.51	-41.6	-42.9	20.3	0.00e+00	92	40	0	914358272	56	6361
2026-01-04 11:59:50.70	105.15	7.47	-41.5	-42.8	20.5	0.00e+00	45	40	0	916455424	56	6248
2026-01-04 11:59:51.71	105.30	7.43	-41.6	-42.9	20.4	0.00e+00	45	40	0	918552576	56	6323
2026-01-04 11:59:52.72	105.44	7.39	-41.8	-43.1	20.1	0.00e+00	0	40	0	920649728	56	6523
2026-01-04 11:59:53.73	105.59	7.35	-41.9	-43.2	20.1	0.00e+00	36	40	0	921698304	56	6605
2026-01-04 11:59:54.74	105.73	7.31	-41.7	-43.1	20.2	0.00e+00	92	40	0	923795456	56	6481
2026-01-04 11:59:55.75	105.87	7.27	-41.8	-43.1	20.2	0.00e+00	37	40	0	925892608	56	6514
2026-01-04 11:59:56.76	106.02	7.24	-41.9	-43.3	19.8	0.00e+00	92	40	0	927989760	56	6661
2026-01-04 11:59:57.77	106.16	7.20	-41.9	-43.2	20.0	0.00e+00	45	40	0	930086912	56	6611
2026-01-04 11:59:58.78	106.30	7.16	-41.8	-43.2	20.2	0.00e+00	0	40	0	931135488	56	6548
2026-01-04 11:59:59.79	106.44	7.12	-41.7	-43.0	20.4	0.00e+00	0	40	0	933232640	56	6416
2026-01-04 12:00:00.80	106.59	7.08	-41.8	-43.1	20.2	0.00e+00	36	40	0	935329792	56	6535
2026-01-04 12:00:01.81	106.73	7.04	-41.8	-43.1	20.1	0.00e+00	92	40	0	937426944	56	6539
2026-01-04 12:00:02.82	106.87	7.00	-41.8	-43.2	20.1	0.00e+00	0	40	0	939524096	56	6545
2026-01-04 12:00:03.83	107.01	6.96	-41.7	-43.1	20.2	0.00e+00	92	40	0	941621248	56	6481
2026-01-04 12:00:04.84	107.15	6.92	-41.9	-43.3	19.9	0.00e+00	2	40	0	942669824	56	6684
2026-01-04 12:00:05.84	107.29	6.88	-41.9	-43.3	19.9	0.00e+00	90	40	0	944766976	56	6640
2026-01-04 12:00:06.86	107.43	6.84	-41.9	-43.3	20.0	0.00e+00	0	40	0	946864128	56	6672
2026-01-04 12:00:07.86	107.56	6.80	-41.6	-43.0	20.2	0.00e+00	0	40	0	948961280	56	6436
2026-01-04 12:00:08.87	107.70	6.75	-41.5	-42.9	20.4	0.00e+00	0	40	0	950009856	56	6351
2026-01-04 12:00:09.88	107.84	6.71	-41.2	-42.7	20.5	0.00e+00	39	40	0	952107008	56	6206
2026-01-04 12:00:10.89	107.98	6.67	-41.0	-42.3	20.9	0.00e+00	92	40	0	954204160	56	5931
2026-01-04 12:00:11.90	108.12	6.63	-40.9	-42.2	21.0	0.00e+00	38	40	0	956301312	56	5842
2026-01-04 12:00:12.91	108.25	6.59	-40.8	-42.0	21.2	0.00e+00	92	40	0	958398464	56	5709
2026-01-04 12:00:13.92	108.39	6.55	-40.8	-42.0	21.1	0.00e+00	44	40	0	959447040	54	6458
2026-01-04 12:00:14.92	108.52	6.51	-40.5	-41.8	21.3	0.00e+00	45	40	0	961544192	54	6248
2026-01-04 12:00:15.93	108.66	6.47	-40.6	-41.8	21.2	0.00e+00	47	40	0	963641344	54	6289
2026-01-04 12:00:16.94	108.80	6.43	-40.7	-42.0	21.0	0.00e+00	44	40	0	965738496	54	6433
2026-01-04 12:00:17.95	108.93	6.39	-40.7	-41.9	21.2	0.00e+00	88	40	0	967835648	54	6345
2026-01-04 12:00:18.96	109.07	6.35	-40.9	-42.1	20.9	0.00e+00	0	40	0	969932800	54	6523
2026-01-04 12:00:19.97	109.20	6.30	-40.9	-42.2	20.9	0.00e+00	90	40	0	970981376	54	6571
2026-01-04 12:00:20.98	109.33	6.26	-41.1	-42.4	20.8	0.00e+00	2	40	0	973078528	54	6709
2026-01-04 12:00:21.99	109.47	6.22	-40.9	-42.2	21.0	0.00e+00	0	40	0	975175680	54	6579
2026-01-04 12:00:23.00	109.60	6.18	-40.7	-41.9	21.2	0.00e+00	37	40	0	977272832	54	6367
2026-01-04 12:00:24.01	109.73	6.14	-40.8	-42.0	21.1	0.00e+00	0	40	0	979369984	54	6456
2026-01-04 12:00:25.02	109.87	6.10	-40.7	-41.9	21.3	0.00e+00	21	40	0	980418560	54	6335
2026-01-04 12:00:26.03	110.00	6.06	-40.6	-41.7	21.3	0.00e+00	0	40	0	982515712	54	6227
2026-01-04 12:00:27.04	110.13	6.01	-40.6	-41.8	21.2	0.00e+00	92	40	0	984612864	54	6287
2026-01-04 12:00:28.05	110.26	5.97	-40.9	-42.1	20.9	0.00e+00	0	40	0	986710016	54	6530
2026-01-04 12:00:29.06	110.39	5.93	-40.9	-42.1	20.8	0.00e+00	92	40	0	988807168	54	6533
2026-01-04 12:00:30.07	110.52	5.89	-41.0	-42.3	20.8	0.00e+00	0	40	0	989855744	54	6641
2026-01-04 12:00:31.08	110.65	5.85	-41.1	-42.4	20.5	0.00e+00	0	40	0	991952896	54	6759
2026-01-04 12:00:32.09	110.79	5.80	-41.4	-42.7	20.3	0.00e+00	0	40	0	994050048	54	6989
2026-01-04 12:00:33.09	110.91	5.76	-41.2	-42.5	20.5	0.00e+00	43	40	0	996147200	54	6841
2026-01-04 12:00:34.10	111.04	5.72	-41.4	-42.7	20.4	0.00e+00	92	40	0	998244352	54	6955
2026-01-04 12:00:35.11	111.17	5.68	-41.1	-42.4	20.6	0.00e+00	0	40	0	999292928	54	6753
2026-01-04 12:00:36.11	111.30	5.64	-41.2	-42.5	20.5	0.00e+00	92	40	0	1001390080	54	6795
2026-01-04 12:00:37.12	111.43	5.59	-41.0	-42.3	20.7	0.00e+00	0	40	0	1003487232	54	6655
2026-01-04 12:00:38.13	111.56	5.55	-41.1	-42.3	20.8	0.00e+00	37	40	0	1005584384	54	6674
2026-01-04 12:00:39.14	111.68	5.51	-40.8	-42.0	21.0	0.00e+00	44	40	0	1007681536	54	6422
2026-01-04 12:00:40.15	111.81	5.47	-40.8	-42.0	21.0	0.00e+00	41	40	0	1008730112	54	6437
2026-01-04 12:00:41.16	111.94	5.42	-40.8	-42.0	21.1	0.00e+00	52	40	0	1010827264	54	6436
2026-01-04 12:00:42.17	112.06	5.38	-40.6	-41.9	21.2	0.00e+00	0	40	0	1012924416	54	6320
2026-01-04 12:00:43.18	112.19	5.34	-40.7	-41.9	21.0	0.00e+00	92	40	0	1015021568	54	6335
2026-01-04 12:00:44.19	112.32	5.30	-40.8	-42.0	21.0	0.00e+00	3	40	0	1017118720	54	6412
2026-01-04 12:00:45.20	112.44	5.25	-40.7	-41.8	21.1	0.00e+00	57	40	0	1018167296	54	6317
2026-01-04 12:00:46.21	112.57	5.21	-41.0	-42.3	20.7	0.00e+00	36	40	0	1020264448	54	6638
2026-01-04 12:00:47.22	112.69	5.17	-40.8	-42.0	20.9	0.00e+00	0	40	0	1022361600	54	6417
2026-01-04 12:00:48.23	112.82	5.13	-41.0	-42.2	20.5	0.00e+00	75	40	0	1024458752	54	6601
2026-01-04 12:00:49.23	112.94	5.08	-40.9	-42.2	20.8	0.00e+00	0	40	0	1026555904	54	6555
2026-01-04 12:00:50.24	113.06	5.04	-41.2	-42.5	20.5	0.00e+00	90	40	0	1027604480	54	6790
2026-01-04 12:00:51.25	113.19	5.00	-41.2	-42.5	20.5	0.00e+00	0	40	0	1029701632	54	6779
2026-01-04 12:00:52.26	113.31	4.95	-41.2	-42.5	20.3	0.00e+00	90	40	0	1031798784	54	6826
2026-01-04 12:00:53.27	113.43	4.91	-41.0	-42.2	20.6	0.00e+00	0	40	0	1033895936	54	6585
2026-01-04 12:00:54.28	113.55	4.87	-41.0	-42.2	20.6	0.00e+00	41	40	0	1035993088	54	6590
2026-01-04 12:00:55.29	113.68	4.83	-40.9	-42.2	20.7	0.00e+00	0	40	0	1038090240	54	6566
2026-01-04 12:00:56.30	113.80	4.78	-40.7	-41.9	20.8	0.00e+00	43	40	0	1039138816	54	6374
2026-01-04 12:00:57.30	113.92	4.74	-40.8	-42.1	20.7	0.00e+00	92	40	0	1041235968	54	6491
2026-01-04 12:00:58.32	114.04	4.70	-41.1	-42.4	20.5	0.00e+00	0	40	0	1043333120	54	6720
2026-01-04 12:00:59.33	114.16	4.65	-41.1	-42.4	20.5	0.00e+00	80	40	0	1045430272	54	6704
2026-01-04 12:01:00.34	114.28	4.61	-41.0	-42.4	20.3	0.00e+00	42	40	0	1047527424	54	6694
2026-01-04 12:01:01.34	114.40	4.57	-41.1	-42.4	20.3	0.00e+00	43	40	0	1048576000	54	6738
2026-01-04 12:01:02.36	114.52	4.52	-41.0	-42.4	20.3	0.00e+00	41	40	0	1050673152	54	6718
2026-01-04 12:01:03.36	114.64	4.48	-41.1	-42.5	20.2	0.00e+00	42	40	0	1052770304	54	6780
2026-01-04 12:01:04.38	114.76	4.44	-41.5	-42.9	19.8	0.00e+00	92	40	0	1054867456	54	7108
2026-01-04 12:01:05.38	114.87	4.39	-41.6	-43.0	19.7	0.00e+00	44	40	0	1056964608	54	7216
2026-01-04 12:01:06.39	114.99	4.35	-41.5	-42.9	19.7	0.00e+00	92	40	0	1058013184	54	7168
2026-01-04 12:01:07.40	115.11	4.31	-41.6	-43.0	19.7	0.00e+00	0	40	0	1060110336	54	7220
2026-01-04 12:01:08.41	115.23	4.26	-41.4	-42.8	19.9	0.00e+00	86	40	0	1062207488	54	7079
2026-01-04 12:01:09.42	115.35	4.22	-41.5	-42.9	19.8	0.00e+00	5	40	0	1064304640	54	7152
2026-01-04 12:01:10.43	115.46	4.18	-41.4	-42.8	19.9	0.00e+00	6	40	0	1066401792	54	7011
2026-01-04 12:01:11.44	115.58	4.13	-41.4	-42.7	20.0	0.00e+00	16	40	0	1067450368	54	6988
2026-01-04 12:01:12.45	115.70	4.09	-41.7	-43.1	19.6	0.00e+00	5	40	0	1069547520	56	6525
2026-01-04 12:01:13.46	115.81	4.05	-41.9	-43.4	19.5	0.00e+00	91	40	0	1071644672	56	6750
2026-01-04 12:01:14.47	115.93	4.00	-41.7	-43.2	19.6	0.00e+00	0	40	0	1073741824	56	6560
2026-01-04 12:01:15.48	116.04	3.96	-41.7	-43.2	19.6	0.00e+00	39	40	0	1075838976	56	6541
2026-01-04 12:01:16.48	116.16	3.91	-42.1	-43.6	19.1	0.00e+00	42	40	0	1076887552	56	6904
2026-01-04 12:01:17.49	116.27	3.87	-42.3	-43.9	18.9	0.00e+00	42	40	0	1078984704	56	7117
2026-01-04 12:01:18.50	116.38	3.83	-42.3	-43.9	19.0	0.00e+00	0	40	0	1081081856	56	7169
2026-01-04 12:01:19.51	116.50	3.78	-42.2	-43.8	19.0	0.00e+00	42	40	0	1083179008	56	7024
2026-01-04 12:01:20.52	116.61	3.74	-41.9	-43.4	19.4	0.00e+00	90	40	0	1085276160	56	6765
2026-01-04 12:01:21.53	116.73	3.70	-42.2	-43.8	19.0	0.00e+00	6	40	0	1086324736	56	7047
2026-01-04 12:01:22.54	116.84	3.65	-42.0	-43.5	19.2	0.00e+00	90	40	0	1088421888	56	6833
2026-01-04 12:01:23.55	116.95	3.61	-42.1	-43.7	19.0	0.00e+00	47	40	0	1090519040	56	6944
2026-01-04 12:01:24.56	117.06	3.56	-42.1	-43.7	18.9	0.00e+00	92	40	0	1092616192	56	7000
2026-01-04 12:01:25.56	117.17	3.52	-42.2	-43.8	18.7	0.00e+00	42	40	0	1094713344	56	7073
2026-01-04 12:01:26.57	117.29	3.48	-42.5	-44.2	18.4	0.00e+00	43	40	0	1095761920	56	7412
2026-01-04 12:01:27.58	117.40	3.43	-42.1	-43.7	18.9	0.00e+00	92	40	0	1097859072	56	7005
2026-01-04 12:01:28.59	117.51	3.39	-42.0	-43.6	18.9	0.00e+00	7	40	0	1099956224	56	6905
2026-01-04 12:01:29.60	117.62	3.35	-42.0	-43.7	18.8	0.00e+00	92	40	0	1102053376	56	6950
2026-01-04 12:01:30.61	117.73	3.30	-41.9	-43.6	18.9	0.00e+00	43	40	0	1104150528	56	6864
2026-01-04 12:01:31.62	117.84	3.26	-42.1	-43.8	18.6	0.00e+00	7	40	0	1105199104	56	7038
2026-01-04 12:01:32.62	117.95	3.21	-42.0	-43.7	18.8	0.00e+00	45	40	0	1107296256	56	6981
2026-01-04 12:01:33.63	118.06	3.17	-42.5	-44.3	18.5	0.00e+00	6	40	0	1109393408	56	7444
2026-01-04 12:01:34.64	118.17	3.13	-42.7	-44.5	18.0	0.00e+00	0	40	0	1111490560	56	7654
2026-01-04 12:01:35.65	118.28	3.08	-42.7	-44.6	18.0	0.00e+00	0	40	0	1113587712	58	6869
2026-01-04 12:01:36.66	118.38	3.04	-43.0	-44.9	17.5	0.00e+00	92	40	0	1114636288	58	7107
2026-01-04 12:01:37.67	118.49	2.99	-48.7	-63.6	3.6	8.83e-01	0	40	104	1116733440	60	54684
2026-01-04 12:01:38.68	118.60	2.95	-48.7	-64.5	3.6	1.51e+00	0	40	104	1116733440	60	60395
2026-01-04 12:01:39.69	118.71	2.91	-49.5	-64.8	3.6	1.51e+00	0	40	104	1116733440	60	62829
2026-01-04 12:01:40.70	118.82	2.86	-49.7	-64.9	3.6	1.51e+00	0	40	104	1116733440	60	63763
2026-01-04 12:01:41.71	118.92	2.82	-49.8	-65.1	3.6	1.51e+00	0	40	104	1116733440	60	64713
2026-01-04 12:01:42.72	119.03	2.77	-49.7	-65.1	3.6	1.51e+00	0	40	104	1116733440	60	64788
2026-01-04 12:01:43.73	119.14	2.73	-49.9	-65.1	3.6	1.51e+00	0	40	104	1116733440	60	65140
2026-01-04 12:01:44.74	119.24	2.68	-50.0	-65.2	3.6	1.51e+00	0	40	104	1116733440	60	65505
2026-01-04 12:01:45.75	119.35	2.64	-50.0	-65.2	3.6	1.51e+00	0	40	104	1116733440	60	65915
2026-01-04 12:01:46.75	119.45	2.60	-50.0	-65.2	3.6	1.51e+00	0	40	104	1116733440	60	66080
2026-01-04 12:01:47.76	119.56	2.55	-50.0	-65.3	3.6	1.51e+00	0	40	104	1116733440	60	66574
2026-01-04 12:01:48.77	119.66	2.51	-50.1	-65.3	3.6	1.51e+00	0	40	104	1116733440	60	66612
2026-01-04 12:01:49.78	119.77	2.46	-50.1	-65.4	3.6	1.51e+00	0	40	104	1116733440	60	67381
2026-01-04 12:01:50.79	119.87	2.42	-50.5	-65.7	3.6	1.51e+00	0	40	104	1116733440	60	69526
2026-01-04 12:01:51.80	119.97	2.38	-50.3	-65.5	3.6	1.51e+00	0	40	104	1116733440	60	68339
2026-01-04 12:01:52.80	120.08	2.33	-50.4	-65.6	3.6	1.51e+00	0	40	104	1116733440	60	68777
2026-01-04 12:01:53.81	120.18	2.29	-50.4	-65.6	3.6	1.51e+00	0	40	104	1116733440	60	68520
2026-01-04 12:01:54.82	120.28	2.24	-50.3	-65.5	3.6	1.51e+00	0	40	104	1116733440	60	67878
2026-01-04 12:01:55.83	120.39	2.20	-50.3	-65.4	3.6	1.51e+00	0	40	104	1116733440	60	67625
2026-01-04 12:01:56.84	120.49	2.16	-50.5	-65.7	3.6	1.51e+00	0	40	104	1116733440	60	69969
2026-01-04 12:01:57.85	120.59	2.11	-50.7	-65.9	3.6	1.51e+00	0	40	104	1116733440	60	71126
2026-01-04 12:01:58.86	120.69	2.07	-50.5	-65.7	3.6	1.51e+00	0	40	104	1116733440	60	69563
2026-01-04 12:01:59.87	120.79	2.02	-50.5	-65.7	3.6	1.51e+00	0	40	104	1116733440	60	69626
2026-01-04 12:02:00.88	120.90	1.98	-50.3	-65.4	3.6	1.51e+00	0	40	104	1116733440	60	67655
2026-01-04 12:02:01.88	121.00	1.94	-50.3	-65.4	3.6	1.51e+00	0	40	104	1116733440	60	67357
2026-01-04 12:02:02.89	121.10	1.89	-50.4	-65.6	3.6	1.51e+00	0	40	104	1116733440	60	69086
2026-01-04 12:02:03.90	121.20	1.85	-50.5	-65.7	3.6	1.51e+00	0	40	104	1116733440	60	69465
2026-01-04 12:02:04.91	121.30	1.80	-50.2	-65.4	3.6	1.51e+00	0	40	104	1116733440	60	67510
2026-01-04 12:02:05.92	121.40	1.76	-50.2	-65.4	3.6	1.51e+00	0	40	104	1116733440	60	67613
2026-01-04 12:02:06.93	121.50	1.71	-50.5	-65.7	3.6	1.51e+00	0	40	104	1116733440	60	69651
2026-01-04 12:02:07.94	121.60	1.67	-50.4	-65.6	3.6	1.51e+00	0	40	104	1116733440	60	68593
2026-01-04 12:02:08.95	121.70	1.63	-50.3	-65.5	3.6	1.51e+00	0	40	104	1116733440	60	68301
2026-01-04 12:02:09.96	121.79	1.58	-51.3	-66.5	3.6	1.51e+00	0	40	104	1116733440	60	76047
2026-01-04 12:02:10.96	121.89	1.54	-50.7	-65.9	3.6	1.51e+00	0	40	104	1116733440	60	71501
2026-01-04 12:02:11.98	121.99	1.49	-50.5	-65.7	3.6	1.51e+00	0	40	104	1116733440	60	69408
2026-01-04 12:02:12.98	122.09	1.45	-50.5	-65.8	3.6	1.51e+00	0	40	104	1116733440	60	70141
2026-01-04 12:02:13.99	122.19	1.41	-50.5	-65.7	3.6	1.51e+00	0	40	104	1116733440	60	69846
2026-01-04 12:02:15.00	122.28	1.36	-50.7	-65.9	3.6	1.51e+00	0	40	104	1116733440	60	71425
2026-01-04 12:02:16.01	122.38	1.32	-51.0	-66.1	3.6	1.51e+00	0	40	104	1116733440	60	73096
2026-01-04 12:02:17.02	122.48	1.27	-50.7	-65.9	3.6	1.51e+00	0	40	104	1116733440	60	70903
