passes_logs/2026/01/04/R4.6S_Anadyr/R4.6S_Anadyr__20260104_053313_FENGYUN_3E_rec.log

#Pass ID: 20260104_053313_FENGYUN 3E
#Satellite: FENGYUN 3E
#Configuration: FENGYUN 3E
#almurnet v.1.7.20251203
#Start time: 2026-01-04 05:33:15

#Version: 2.2.20231116
#Station: R4.6S_Anadyr
#Location: 177.4865 lon 64.73178 lat
#TLE: 1 49008U 21062A   26003.51942929 -.00000034  00000+0  45519-5 0  9990
#TLE: 2 49008  98.7472   8.7829 0001426 160.7926 199.3304 14.19883272233213

#Time	Az	El	Level	Level2	SNR	BER	BlckErr	Temp	State	Recorded	gain1	gain2
2026-01-04 05:33:15.82	183.11	0.14	-51.8	-69.5	3.5	3.04e+01	0	37	0	0	60	115521
2026-01-04 05:33:16.83	183.15	0.20	-52.6	-64.0	3.6	8.46e-01	0	38	104	0	60	57123
2026-01-04 05:33:17.84	183.18	0.26	-52.0	-63.2	3.6	8.45e-01	0	38	104	0	60	52500
2026-01-04 05:33:18.85	183.22	0.32	-53.1	-64.4	3.6	8.44e-01	0	38	104	0	60	60092
2026-01-04 05:33:19.86	183.25	0.38	-51.6	-63.0	3.5	8.45e-01	0	38	104	0	60	51038
2026-01-04 05:33:20.87	183.29	0.44	-51.1	-62.4	3.6	8.44e-01	0	38	104	0	60	47626
2026-01-04 05:33:21.88	183.33	0.50	-52.3	-63.7	3.6	8.45e-01	0	38	104	0	60	55139
2026-01-04 05:33:22.89	183.36	0.56	-52.2	-63.5	3.6	8.46e-01	0	38	104	0	60	53846
2026-01-04 05:33:23.90	183.40	0.62	-52.3	-63.5	3.6	8.46e-01	0	38	104	0	60	54127
2026-01-04 05:33:24.91	183.43	0.68	-51.0	-62.3	3.6	8.46e-01	0	38	104	0	60	47039
2026-01-04 05:33:25.92	183.47	0.74	-51.3	-62.5	3.6	8.46e-01	0	38	104	0	60	48018
2026-01-04 05:33:26.93	183.51	0.80	-51.5	-62.8	3.6	8.45e-01	0	38	104	0	60	49904
2026-01-04 05:33:27.94	183.55	0.86	-51.6	-62.9	3.6	8.45e-01	0	38	104	0	60	50458
2026-01-04 05:33:28.95	183.58	0.92	-51.5	-62.8	3.6	8.45e-01	0	38	104	0	60	49818
2026-01-04 05:33:29.96	183.62	0.98	-50.1	-61.3	3.6	8.45e-01	0	38	104	0	60	42071
2026-01-04 05:33:30.97	183.66	1.04	-49.0	-60.4	3.6	8.45e-01	0	38	104	0	60	37855
2026-01-04 05:33:31.98	183.69	1.10	-49.0	-59.9	3.6	8.46e-01	0	38	104	0	60	35915
2026-01-04 05:33:32.99	183.73	1.16	-49.5	-60.8	3.6	8.46e-01	0	39	104	0	60	39447
2026-01-04 05:33:34.00	183.77	1.22	-50.0	-61.3	3.6	8.45e-01	0	38	104	0	60	42088
2026-01-04 05:33:35.01	183.81	1.28	-49.9	-61.1	3.6	8.46e-01	0	38	104	0	60	41169
2026-01-04 05:33:36.02	183.85	1.34	-50.2	-61.5	3.6	8.44e-01	0	38	104	0	60	42861
2026-01-04 05:33:37.03	183.88	1.40	-49.7	-61.0	3.5	8.45e-01	0	39	104	0	60	40551
2026-01-04 05:33:38.04	183.92	1.46	-49.5	-60.9	3.6	8.44e-01	0	39	104	0	60	40025
2026-01-04 05:33:39.05	183.96	1.52	-49.8	-61.1	3.6	8.45e-01	0	39	104	0	60	41173
2026-01-04 05:33:40.06	184.00	1.58	-49.9	-61.3	3.6	8.45e-01	0	39	104	0	60	41981
2026-01-04 05:33:41.07	184.04	1.65	-49.8	-61.2	3.6	8.45e-01	0	39	104	0	60	41359
2026-01-04 05:33:42.08	184.08	1.71	-50.0	-61.4	3.6	8.46e-01	0	38	104	0	60	42399
2026-01-04 05:33:43.09	184.12	1.77	-49.7	-61.0	3.6	8.47e-01	0	39	104	0	60	40571
2026-01-04 05:33:44.10	184.15	1.83	-49.6	-60.9	3.6	8.46e-01	0	39	104	0	60	40088
2026-01-04 05:33:45.11	184.19	1.89	-50.2	-61.4	3.6	8.45e-01	0	39	104	0	60	42641
2026-01-04 05:33:46.12	184.23	1.96	-50.2	-61.4	3.6	8.45e-01	0	39	104	0	60	42611
2026-01-04 05:33:47.13	184.27	2.02	-50.0	-61.1	3.6	8.44e-01	0	39	104	0	60	41062
2026-01-04 05:33:48.14	184.31	2.08	-49.9	-60.9	3.6	8.46e-01	0	39	104	0	60	40279
2026-01-04 05:33:49.15	184.35	2.14	-49.4	-60.6	3.6	8.45e-01	0	39	104	0	60	38609
2026-01-04 05:33:50.15	184.39	2.20	-49.4	-60.6	3.6	8.46e-01	0	39	104	0	60	38579
2026-01-04 05:33:51.16	184.43	2.27	-49.3	-60.5	3.6	8.45e-01	0	39	104	0	60	38317
2026-01-04 05:33:52.17	184.47	2.33	-49.6	-60.8	3.6	8.46e-01	0	39	104	0	60	39693
2026-01-04 05:33:53.18	184.51	2.39	-49.1	-60.3	3.6	8.46e-01	0	39	104	0	60	37356
2026-01-04 05:33:54.20	184.56	2.46	-48.9	-60.0	3.6	8.45e-01	0	39	104	0	60	36072
2026-01-04 05:33:55.21	184.60	2.52	-48.7	-59.9	3.6	8.45e-01	0	39	104	0	60	35902
2026-01-04 05:33:56.22	184.64	2.58	-48.8	-60.0	3.6	8.45e-01	0	39	104	0	60	35947
2026-01-04 05:33:57.23	184.68	2.65	-48.6	-59.4	3.6	8.45e-01	0	39	104	0	60	33683
2026-01-04 05:33:58.24	184.72	2.71	-48.5	-58.3	3.6	8.45e-01	0	39	104	0	60	29552
2026-01-04 05:33:59.24	184.76	2.77	-48.4	-57.7	3.6	8.45e-01	0	39	104	0	60	27836
2026-01-04 05:34:00.25	184.80	2.84	-48.3	-56.8	3.9	8.41e-01	0	39	104	0	60	25117
2026-01-04 05:34:01.26	184.84	2.90	-48.4	-57.2	3.8	8.41e-01	0	39	104	0	60	26267
2026-01-04 05:34:02.27	184.89	2.97	-48.5	-58.2	3.6	8.45e-01	0	39	104	0	60	29490
2026-01-04 05:34:03.28	184.93	3.03	-48.5	-58.6	3.6	8.44e-01	0	39	104	0	60	30840
2026-01-04 05:34:04.29	184.97	3.09	-48.1	-55.1	4.4	8.38e-01	0	39	104	0	60	20613
2026-01-04 05:34:05.30	185.01	3.16	-46.5	-49.4	7.8	7.44e-02	0	39	0	2097152	60	10649
2026-01-04 05:34:06.31	185.06	3.22	-45.6	-47.8	11.8	3.81e-03	0	39	0	9437184	60	8847
2026-01-04 05:34:07.32	185.10	3.29	-43.3	-44.6	14.8	2.20e-06	0	39	0	15728640	60	6139
2026-01-04 05:34:08.33	185.14	3.35	-41.2	-42.2	17.4	0.00e+00	0	39	0	23068672	58	5249
2026-01-04 05:34:09.34	185.19	3.42	-39.4	-40.2	19.2	0.00e+00	0	39	0	31457280	52	5864
2026-01-04 05:34:10.35	185.23	3.48	-37.7	-38.4	20.9	0.00e+00	0	39	0	37748736	48	5995
2026-01-04 05:34:11.36	185.27	3.55	-38.1	-38.7	21.4	0.00e+00	0	39	0	45088768	48	6221
2026-01-04 05:34:12.37	185.32	3.61	-37.7	-38.3	21.5	0.00e+00	0	39	0	52428800	48	5935
2026-01-04 05:34:13.38	185.36	3.68	-38.9	-39.6	20.7	0.00e+00	0	39	0	59768832	50	6156
2026-01-04 05:34:14.39	185.40	3.75	-39.0	-39.7	20.4	0.00e+00	0	39	0	67108864	50	6175
2026-01-04 05:34:15.40	185.45	3.81	-41.3	-42.2	17.1	0.00e+00	0	39	0	74448896	54	6605
2026-01-04 05:34:16.41	185.49	3.88	-38.7	-39.4	21.4	0.00e+00	0	39	0	81788928	52	5328
2026-01-04 05:34:17.42	185.54	3.94	-48.6	-53.2	6.6	7.63e-01	0	39	0	85983232	60	16461
2026-01-04 05:34:18.43	185.58	4.01	-40.3	-41.0	20.0	2.45e-03	0	39	0	91226112	60	4037
2026-01-04 05:34:19.44	185.63	4.08	-38.4	-39.1	21.0	0.00e+00	0	39	0	98566144	50	5810
2026-01-04 05:34:20.45	185.67	4.14	-36.1	-36.7	22.6	0.00e+00	0	39	0	105906176	46	5509
2026-01-04 05:34:21.46	185.72	4.21	-37.5	-38.1	22.4	0.00e+00	0	39	0	113246208	46	6498
2026-01-04 05:34:22.47	185.76	4.28	-38.3	-38.9	22.4	0.00e+00	0	39	0	120586240	48	6365
2026-01-04 05:34:23.48	185.81	4.35	-38.4	-39.0	22.2	0.00e+00	0	39	0	127926272	48	6454
2026-01-04 05:34:24.49	185.86	4.41	-37.6	-38.2	22.4	0.00e+00	0	39	0	135266304	48	5859
2026-01-04 05:34:25.50	185.90	4.48	-37.6	-38.3	22.1	0.00e+00	0	39	0	142606336	48	5903
2026-01-04 05:34:26.51	185.95	4.55	-37.6	-38.1	22.6	0.00e+00	0	39	0	149946368	48	5812
2026-01-04 05:34:27.51	186.00	4.62	-37.7	-38.3	22.5	0.00e+00	0	39	0	156237824	48	5943
2026-01-04 05:34:28.52	186.04	4.68	-37.5	-38.1	22.5	0.00e+00	0	39	0	163577856	48	5823
2026-01-04 05:34:29.53	186.09	4.75	-36.7	-37.3	22.8	0.00e+00	0	39	0	170917888	48	5303
2026-01-04 05:34:30.54	186.14	4.82	-37.1	-37.7	22.6	0.00e+00	0	39	0	178257920	46	6238
2026-01-04 05:34:31.55	186.18	4.89	-37.0	-37.6	22.5	0.00e+00	0	39	0	185597952	46	6171
2026-01-04 05:34:32.56	186.23	4.96	-37.1	-37.7	22.7	0.00e+00	0	39	0	192937984	46	6240
2026-01-04 05:34:33.57	186.28	5.03	-36.9	-37.6	22.5	0.00e+00	0	39	0	200278016	46	6133
2026-01-04 05:34:34.58	186.33	5.09	-37.3	-37.9	22.9	0.00e+00	0	39	0	207618048	46	6373
2026-01-04 05:34:35.59	186.38	5.16	-37.1	-37.7	22.7	0.00e+00	0	39	0	214958080	46	6203
2026-01-04 05:34:36.60	186.42	5.23	-37.3	-37.9	22.5	0.00e+00	0	39	0	222298112	46	6382
2026-01-04 05:34:37.61	186.47	5.30	-37.5	-38.1	22.7	0.00e+00	0	39	0	229638144	46	6514
2026-01-04 05:34:38.62	186.52	5.37	-37.9	-38.6	22.6	0.00e+00	0	39	0	236978176	48	6119
2026-01-04 05:34:39.64	186.57	5.44	-38.6	-39.3	22.3	0.00e+00	0	39	0	244318208	48	6630
2026-01-04 05:34:40.65	186.62	5.51	-37.8	-38.4	22.5	0.00e+00	0	39	0	251658240	48	6015
2026-01-04 05:34:41.66	186.67	5.58	-37.5	-38.1	22.9	0.00e+00	0	39	0	258998272	48	5805
2026-01-04 05:34:42.67	186.72	5.65	-37.7	-38.3	22.5	0.00e+00	0	39	0	266338304	48	5941
2026-01-04 05:34:43.67	186.77	5.72	-38.4	-39.0	23.0	0.00e+00	0	39	0	273678336	48	6446
2026-01-04 05:34:44.68	186.82	5.79	-38.0	-38.6	22.9	0.00e+00	0	39	0	281018368	48	6165
2026-01-04 05:34:45.69	186.87	5.86	-38.7	-39.4	22.7	0.00e+00	0	39	0	288358400	48	6710
2026-01-04 05:34:46.70	186.92	5.94	-37.3	-37.9	23.0	0.00e+00	0	39	0	295698432	48	5688
2026-01-04 05:34:47.71	186.97	6.01	-37.7	-38.3	23.2	0.00e+00	0	39	0	303038464	48	5913
2026-01-04 05:34:48.72	187.02	6.08	-37.4	-38.0	23.1	0.00e+00	0	39	0	309329920	46	6400
2026-01-04 05:34:49.73	187.08	6.15	-37.8	-38.4	23.2	0.00e+00	0	39	0	316669952	48	6002
2026-01-04 05:34:50.74	187.13	6.22	-37.3	-37.9	23.4	0.00e+00	0	39	0	325058560	48	5654
2026-01-04 05:34:51.75	187.18	6.29	-37.1	-37.7	23.3	0.00e+00	0	39	0	331350016	48	5521
2026-01-04 05:34:52.76	187.23	6.37	-36.9	-37.6	23.3	0.00e+00	0	39	0	338690048	46	6109
2026-01-04 05:34:53.77	187.28	6.44	-37.4	-38.0	23.1	0.00e+00	0	39	0	346030080	46	6452
2026-01-04 05:34:54.78	187.34	6.51	-37.3	-37.9	23.4	0.00e+00	0	39	0	353370112	46	6346
2026-01-04 05:34:55.79	187.39	6.58	-36.9	-37.5	23.4	0.00e+00	0	39	0	360710144	46	6075
2026-01-04 05:34:56.80	187.44	6.66	-37.1	-37.7	23.4	0.00e+00	0	39	0	368050176	46	6208
2026-01-04 05:34:57.81	187.50	6.73	-37.0	-37.6	23.3	0.00e+00	0	39	0	375390208	46	6137
2026-01-04 05:34:58.82	187.55	6.80	-37.0	-37.7	23.1	0.00e+00	0	39	0	382730240	46	6204
2026-01-04 05:34:59.83	187.60	6.87	-37.7	-38.4	23.0	0.00e+00	0	39	0	390070272	48	5966
2026-01-04 05:35:00.84	187.66	6.95	-38.1	-38.7	22.1	0.00e+00	0	39	0	397410304	50	5558
2026-01-04 05:35:01.85	187.71	7.02	-38.0	-38.6	23.0	0.00e+00	0	39	0	404750336	48	6152
2026-01-04 05:35:02.86	187.77	7.10	-37.3	-37.9	23.4	0.00e+00	0	39	0	412090368	48	5645
2026-01-04 05:35:03.87	187.82	7.17	-37.4	-38.0	23.1	0.00e+00	0	39	0	419430400	48	5732
2026-01-04 05:35:04.88	187.88	7.24	-37.4	-38.0	23.3	0.00e+00	0	39	0	426770432	48	5706
2026-01-04 05:35:05.89	187.93	7.32	-36.5	-37.1	23.4	0.00e+00	0	39	0	434110464	46	5815
2026-01-04 05:35:06.90	187.99	7.39	-36.7	-37.3	23.1	0.00e+00	0	39	0	441450496	46	5943
2026-01-04 05:35:07.91	188.04	7.47	-36.1	-36.7	23.6	0.00e+00	0	39	0	448790528	46	5560
2026-01-04 05:35:08.92	188.10	7.54	-36.1	-36.7	23.4	0.00e+00	0	39	0	456130560	46	5516
2026-01-04 05:35:09.93	188.16	7.62	-36.1	-36.7	23.5	0.00e+00	0	39	0	462422016	46	5552
2026-01-04 05:35:10.94	188.21	7.69	-36.5	-37.1	23.4	0.00e+00	0	39	0	470810624	46	5810
2026-01-04 05:35:11.95	188.27	7.77	-36.7	-37.3	23.4	0.00e+00	0	39	0	478150656	46	5940
2026-01-04 05:35:12.96	188.33	7.85	-37.4	-38.0	22.8	0.00e+00	0	39	0	484442112	46	6429
2026-01-04 05:35:13.97	188.38	7.92	-37.1	-37.7	23.5	0.00e+00	0	39	0	491782144	48	5511
2026-01-04 05:35:14.98	188.44	8.00	-37.7	-38.3	23.3	0.00e+00	0	39	0	499122176	48	5944
2026-01-04 05:35:15.98	188.50	8.08	-37.8	-38.4	23.5	0.00e+00	0	39	0	506462208	48	5978
2026-01-04 05:35:16.99	188.56	8.15	-37.5	-38.0	23.8	0.00e+00	0	39	0	513802240	48	5744
2026-01-04 05:35:18.00	188.62	8.23	-36.9	-37.4	23.9	0.00e+00	0	39	0	521142272	48	5361
2026-01-04 05:35:19.01	188.68	8.31	-36.9	-37.5	23.8	0.00e+00	0	39	0	528482304	46	6059
2026-01-04 05:35:20.02	188.74	8.38	-36.4	-37.0	23.6	0.00e+00	0	39	0	535822336	46	5698
2026-01-04 05:35:21.02	188.79	8.46	-36.4	-37.0	23.6	0.00e+00	0	39	0	543162368	46	5714
2026-01-04 05:35:22.04	188.86	8.54	-37.4	-38.0	23.8	0.00e+00	0	39	0	550502400	46	6395
2026-01-04 05:35:23.05	188.92	8.62	-37.5	-38.0	23.9	0.00e+00	0	39	0	557842432	48	5730
2026-01-04 05:35:24.06	188.98	8.70	-37.7	-38.2	23.7	0.00e+00	0	39	0	565182464	48	5882
2026-01-04 05:35:25.07	189.04	8.77	-37.9	-38.5	23.0	0.00e+00	0	39	0	572522496	48	6040
2026-01-04 05:35:26.08	189.10	8.85	-36.9	-37.5	24.2	0.00e+00	0	39	0	579862528	46	6056
2026-01-04 05:35:27.09	189.16	8.93	-37.1	-37.7	23.8	0.00e+00	0	39	0	587202560	46	6213
2026-01-04 05:35:28.10	189.22	9.01	-36.4	-37.0	24.2	0.00e+00	0	39	0	594542592	46	5709
2026-01-04 05:35:29.11	189.28	9.09	-36.0	-36.6	24.3	0.00e+00	0	39	0	601882624	44	6107
2026-01-04 05:35:30.12	189.35	9.17	-36.1	-36.6	24.1	0.00e+00	0	39	0	608174080	44	6161
2026-01-04 05:35:31.13	189.41	9.25	-36.1	-36.6	24.1	0.00e+00	0	39	0	616562688	44	6167
2026-01-04 05:35:32.14	189.47	9.33	-35.5	-36.0	24.5	0.00e+00	0	39	0	623902720	44	5741
2026-01-04 05:35:33.15	189.54	9.41	-35.7	-36.2	24.4	0.00e+00	0	39	0	630194176	44	5883
2026-01-04 05:35:34.16	189.60	9.49	-36.0	-36.5	24.3	0.00e+00	0	39	0	637534208	44	6102
2026-01-04 05:35:35.17	189.66	9.57	-35.8	-36.3	24.1	0.00e+00	0	39	0	644874240	44	5922
2026-01-04 05:35:36.18	189.73	9.65	-35.3	-35.8	24.5	0.00e+00	0	39	0	652214272	44	5623
2026-01-04 05:35:37.19	189.79	9.73	-35.0	-35.6	24.2	0.00e+00	0	39	0	659554304	44	5452
2026-01-04 05:35:38.20	189.86	9.81	-35.5	-36.1	24.2	0.00e+00	0	39	0	666894336	44	5794
2026-01-04 05:35:39.21	189.92	9.90	-36.1	-36.6	24.4	0.00e+00	0	39	0	674234368	44	6170
2026-01-04 05:35:40.22	189.99	9.98	-37.3	-37.9	24.1	0.00e+00	0	39	0	681574400	46	6338
2026-01-04 05:35:41.23	190.05	10.06	-36.2	-36.8	24.2	0.00e+00	0	39	0	688914432	46	5567
2026-01-04 05:35:42.24	190.12	10.14	-35.6	-36.1	23.8	0.00e+00	0	39	0	696254464	44	5790
2026-01-04 05:35:43.25	190.19	10.23	-35.8	-36.4	24.2	0.00e+00	0	39	0	703594496	44	5979
2026-01-04 05:35:44.26	190.26	10.31	-36.4	-37.0	24.1	0.00e+00	0	39	0	710934528	44	6422
2026-01-04 05:35:45.27	190.32	10.39	-36.1	-36.6	24.2	0.00e+00	0	39	0	718274560	44	6147
2026-01-04 05:35:46.28	190.39	10.48	-36.0	-36.5	24.3	0.00e+00	0	39	0	725614592	44	6088
2026-01-04 05:35:47.29	190.46	10.56	-36.2	-36.7	24.1	0.00e+00	0	39	0	732954624	44	6244
2026-01-04 05:35:48.30	190.53	10.64	-35.4	-36.0	23.8	0.00e+00	0	39	0	740294656	44	5734
2026-01-04 05:35:49.31	190.60	10.73	-35.2	-35.8	24.1	0.00e+00	0	39	0	747634688	44	5588
2026-01-04 05:35:50.32	190.67	10.81	-34.7	-35.2	24.5	0.00e+00	0	39	0	754974720	42	5855
2026-01-04 05:35:51.33	190.74	10.90	-34.6	-35.1	24.4	0.00e+00	0	39	0	762314752	42	5826
2026-01-04 05:35:52.34	190.81	10.98	-35.0	-35.6	24.3	0.00e+00	0	39	0	769654784	42	6107
2026-01-04 05:35:53.34	190.88	11.07	-35.2	-35.8	24.1	0.00e+00	0	39	0	776994816	42	6273
2026-01-04 05:35:54.36	190.95	11.15	-35.0	-35.6	24.4	0.00e+00	0	39	0	783286272	42	6135
2026-01-04 05:35:55.37	191.02	11.24	-35.7	-36.3	24.2	0.00e+00	0	39	0	790626304	44	5905
2026-01-04 05:35:56.38	191.09	11.32	-35.9	-36.5	24.5	0.00e+00	0	39	0	799014912	44	6041
2026-01-04 05:35:57.39	191.16	11.41	-36.3	-36.9	24.1	0.00e+00	0	39	0	805306368	44	6331
2026-01-04 05:35:58.40	191.24	11.50	-36.9	-37.5	23.5	0.00e+00	0	39	0	812646400	46	6067
2026-01-04 05:35:59.41	191.31	11.58	-36.6	-37.1	23.6	0.00e+00	0	39	0	819986432	48	5186
2026-01-04 05:36:00.42	191.38	11.67	-36.9	-37.5	23.3	0.00e+00	0	39	0	827326464	46	6095
2026-01-04 05:36:01.43	191.46	11.76	-35.2	-35.8	24.4	0.00e+00	0	39	0	834666496	44	5571
2026-01-04 05:36:02.44	191.53	11.85	-35.1	-35.7	24.8	0.00e+00	0	39	0	842006528	44	5516
2026-01-04 05:36:03.45	191.60	11.93	-36.0	-36.5	24.4	0.00e+00	0	39	0	849346560	44	6068
2026-01-04 05:36:04.46	191.68	12.02	-34.8	-35.4	24.9	0.00e+00	0	39	0	856686592	44	5325
2026-01-04 05:36:05.47	191.75	12.11	-36.6	-37.1	24.4	0.00e+00	0	39	0	864026624	44	6508
2026-01-04 05:36:06.48	191.83	12.20	-35.2	-35.7	24.8	0.00e+00	0	39	0	871366656	44	5538
2026-01-04 05:36:07.49	191.91	12.29	-36.0	-36.5	24.6	0.00e+00	0	39	0	878706688	44	6095
2026-01-04 05:36:08.50	191.98	12.38	-34.9	-35.4	24.9	0.00e+00	0	39	0	886046720	44	5376
2026-01-04 05:36:09.51	192.06	12.47	-35.8	-36.3	24.5	0.00e+00	0	39	0	893386752	42	6653
2026-01-04 05:36:10.51	192.14	12.56	-34.9	-35.5	24.8	0.00e+00	0	39	0	900726784	44	5380
2026-01-04 05:36:11.53	192.22	12.65	-35.2	-35.7	24.9	0.00e+00	0	39	0	908066816	42	6225
2026-01-04 05:36:12.54	192.29	12.74	-34.6	-35.2	25.3	0.00e+00	0	39	0	915406848	42	5840
2026-01-04 05:36:13.55	192.37	12.83	-34.9	-35.4	25.3	0.00e+00	0	39	0	922746880	42	6013
2026-01-04 05:36:14.56	192.45	12.92	-35.0	-35.5	25.4	0.00e+00	0	39	0	929038336	42	6038
2026-01-04 05:36:15.57	192.53	13.01	-34.8	-35.3	25.5	0.00e+00	0	39	0	936378368	42	5936
2026-01-04 05:36:16.58	192.61	13.10	-34.8	-35.3	25.5	0.00e+00	0	39	0	944766976	42	5929
2026-01-04 05:36:17.59	192.69	13.19	-34.3	-34.8	25.7	0.00e+00	0	39	0	951058432	42	5567
2026-01-04 05:36:18.60	192.78	13.29	-34.8	-35.3	25.6	0.00e+00	0	39	0	958398464	42	5960
2026-01-04 05:36:19.61	192.86	13.38	-35.4	-35.9	25.3	0.00e+00	0	39	0	965738496	42	6341
2026-01-04 05:36:20.62	192.94	13.47	-34.5	-35.1	25.8	0.00e+00	0	39	0	973078528	42	5775
2026-01-04 05:36:21.62	193.02	13.56	-34.1	-34.6	25.9	0.00e+00	0	39	0	980418560	42	5480
2026-01-04 05:36:22.64	193.11	13.66	-34.1	-34.6	25.4	0.00e+00	0	39	0	987758592	42	5487
2026-01-04 05:36:23.65	193.19	13.75	-34.2	-34.7	25.5	0.00e+00	0	39	0	995098624	42	5512
2026-01-04 05:36:24.66	193.27	13.84	-33.9	-34.4	25.7	0.00e+00	0	39	0	1002438656	42	5340
2026-01-04 05:36:25.67	193.36	13.94	-33.5	-34.0	25.7	0.00e+00	0	39	0	1009778688	40	5752
2026-01-04 05:36:26.67	193.44	14.03	-33.8	-34.3	25.7	0.00e+00	0	39	0	1017118720	40	5952
2026-01-04 05:36:27.68	193.53	14.13	-33.6	-34.1	25.7	0.00e+00	0	39	0	1024458752	40	5826
2026-01-04 05:36:28.69	193.62	14.22	-34.1	-34.6	25.7	0.00e+00	0	39	0	1031798784	40	6173
2026-01-04 05:36:29.70	193.70	14.32	-33.6	-34.1	25.6	0.00e+00	0	39	0	1039138816	40	5823
2026-01-04 05:36:30.70	193.79	14.41	-34.0	-34.5	25.6	0.00e+00	0	39	0	1046478848	40	6051
2026-01-04 05:36:31.71	193.88	14.51	-33.7	-34.2	25.5	0.00e+00	0	39	0	1053818880	40	5876
2026-01-04 05:36:32.72	193.97	14.61	-33.1	-33.6	25.9	0.00e+00	0	39	0	1060110336	40	5496
2026-01-04 05:36:33.73	194.06	14.70	-33.1	-33.6	25.9	0.00e+00	0	39	0	1068498944	40	5445
2026-01-04 05:36:34.74	194.14	14.80	-32.9	-33.4	25.9	0.00e+00	0	39	0	1075838976	40	5339
2026-01-04 05:36:35.75	194.24	14.90	-33.5	-34.0	25.9	0.00e+00	0	39	0	1082130432	40	5755
2026-01-04 05:36:36.76	194.33	15.00	-33.0	-33.5	25.9	0.00e+00	0	39	0	1089470464	38	6044
2026-01-04 05:36:37.77	194.42	15.09	-32.9	-33.4	26.0	0.00e+00	0	39	0	1096810496	38	6021
2026-01-04 05:36:38.78	194.51	15.19	-33.1	-33.6	25.9	0.00e+00	0	39	0	1104150528	38	6157
2026-01-04 05:36:39.79	194.60	15.29	-33.2	-33.6	25.9	0.00e+00	0	39	0	1111490560	38	6172
2026-01-04 05:36:40.80	194.69	15.39	-33.3	-33.8	25.8	0.00e+00	0	39	0	1118830592	38	6300
2026-01-04 05:36:41.81	194.79	15.49	-33.2	-33.7	26.0	0.00e+00	0	39	0	1126170624	38	6199
2026-01-04 05:36:42.82	194.88	15.59	-33.9	-34.4	25.8	0.00e+00	0	39	0	1133510656	38	6708
2026-01-04 05:36:43.83	194.98	15.69	-33.7	-34.2	26.0	0.00e+00	0	39	0	1140850688	40	5848
2026-01-04 05:36:44.84	195.07	15.79	-33.6	-34.0	26.1	0.00e+00	0	39	0	1148190720	40	5756
2026-01-04 05:36:45.85	195.17	15.89	-33.4	-33.9	26.2	0.00e+00	0	39	0	1155530752	40	5641
2026-01-04 05:36:46.86	195.27	15.99	-33.4	-33.9	26.0	0.00e+00	0	39	0	1162870784	40	5687
2026-01-04 05:36:47.87	195.36	16.09	-33.4	-33.9	26.2	0.00e+00	0	39	0	1170210816	40	5672
2026-01-04 05:36:48.88	195.46	16.20	-33.4	-33.9	26.2	0.00e+00	0	39	0	1177550848	40	5641
2026-01-04 05:36:49.89	195.56	16.30	-33.4	-33.9	26.3	0.00e+00	0	39	0	1184890880	40	5661
2026-01-04 05:36:50.90	195.66	16.40	-33.6	-34.1	26.2	0.00e+00	0	39	0	1192230912	40	5762
2026-01-04 05:36:51.91	195.76	16.50	-33.0	-33.5	26.4	0.00e+00	0	39	0	1199570944	38	6056
2026-01-04 05:36:52.92	195.86	16.61	-33.4	-33.9	26.5	0.00e+00	0	39	0	1205862400	38	6356
2026-01-04 05:36:53.93	195.96	16.71	-33.5	-33.9	26.5	0.00e+00	0	39	0	1214251008	38	6389
2026-01-04 05:36:54.93	196.06	16.81	-33.8	-34.3	26.5	0.00e+00	0	39	0	1221591040	38	6663
2026-01-04 05:36:55.95	196.17	16.92	-33.5	-34.1	26.6	0.00e+00	0	39	0	1227882496	40	5768
2026-01-04 05:36:56.95	196.27	17.02	-33.5	-34.0	26.6	0.00e+00	0	39	0	1235222528	40	5715
2026-01-04 05:36:57.96	196.37	17.13	-32.8	-33.3	26.6	0.00e+00	0	39	0	1242562560	38	5909
2026-01-04 05:36:58.97	196.48	17.23	-32.8	-33.3	26.7	0.00e+00	0	39	0	1249902592	38	5940
2026-01-04 05:36:59.98	196.58	17.34	-32.7	-33.2	26.8	0.00e+00	0	39	0	1257242624	38	5849
2026-01-04 05:37:00.99	196.69	17.45	-32.7	-33.2	26.9	0.00e+00	0	39	0	1264582656	38	5863
2026-01-04 05:37:02.00	196.80	17.55	-32.7	-33.2	26.7	0.00e+00	0	39	0	1271922688	38	5859
2026-01-04 05:37:03.01	196.90	17.66	-32.8	-33.3	26.9	0.00e+00	0	39	0	1279262720	38	5954
2026-01-04 05:37:04.02	197.01	17.77	-32.5	-33.0	26.9	0.00e+00	0	39	0	1286602752	38	5748
2026-01-04 05:37:05.03	197.12	17.87	-32.6	-33.1	27.0	0.00e+00	0	39	0	1293942784	38	5799
2026-01-04 05:37:06.04	197.23	17.98	-32.1	-32.5	27.0	0.00e+00	0	39	0	1301282816	38	5436
2026-01-04 05:37:07.05	197.34	18.09	-32.1	-32.6	26.8	0.00e+00	0	39	0	1308622848	38	5447
2026-01-04 05:37:08.06	197.45	18.20	-31.9	-32.3	27.2	0.00e+00	0	39	0	1315962880	36	5958
2026-01-04 05:37:09.07	197.56	18.31	-32.1	-32.5	27.0	0.00e+00	0	39	0	1323302912	36	6102
2026-01-04 05:37:10.08	197.68	18.42	-32.3	-32.8	26.8	0.00e+00	0	39	0	1330642944	36	6262
2026-01-04 05:37:11.09	197.79	18.53	-32.9	-33.3	26.9	0.00e+00	0	39	0	1337982976	38	5960
2026-01-04 05:37:12.10	197.91	18.64	-33.2	-33.6	26.9	0.00e+00	0	39	0	1345323008	38	6169
2026-01-04 05:37:13.11	198.02	18.75	-32.3	-32.8	27.1	0.00e+00	0	39	0	1352663040	38	5600
2026-01-04 05:37:14.12	198.14	18.86	-32.6	-33.0	27.0	0.00e+00	0	39	0	1358954496	38	5750
2026-01-04 05:37:15.13	198.25	18.97	-32.4	-32.9	27.0	0.00e+00	0	39	0	1367343104	38	5631
2026-01-04 05:37:16.14	198.37	19.08	-32.4	-32.9	26.9	0.00e+00	0	39	0	1374683136	38	5667
2026-01-04 05:37:17.15	198.49	19.20	-32.2	-32.7	26.9	0.00e+00	0	39	0	1380974592	38	5549
2026-01-04 05:37:18.16	198.61	19.31	-32.2	-32.7	26.9	0.00e+00	0	39	0	1388314624	38	5512
2026-01-04 05:37:19.17	198.73	19.42	-32.2	-32.6	26.9	0.00e+00	0	39	0	1395654656	38	5483
2026-01-04 05:37:20.18	198.85	19.54	-32.3	-32.8	26.9	0.00e+00	0	39	0	1402994688	38	5591
2026-01-04 05:37:21.19	198.97	19.65	-32.0	-32.5	27.0	0.00e+00	0	39	0	1410334720	38	5423
2026-01-04 05:37:22.20	199.10	19.76	-32.1	-32.6	26.8	0.00e+00	0	39	0	1417674752	38	5459
2026-01-04 05:37:23.21	199.22	19.88	-32.1	-32.6	26.8	0.00e+00	0	39	0	1425014784	38	5477
2026-01-04 05:37:24.22	199.34	19.99	-32.6	-33.1	26.7	0.00e+00	0	39	0	1432354816	38	5768
2026-01-04 05:37:25.23	199.47	20.11	-32.3	-32.8	27.0	0.00e+00	0	39	0	1439694848	38	5602
2026-01-04 05:37:26.24	199.60	20.23	-32.7	-33.1	27.0	0.00e+00	0	39	0	1447034880	38	5827
2026-01-04 05:37:27.25	199.72	20.34	-32.4	-32.9	27.1	0.00e+00	0	39	0	1454374912	38	5656
2026-01-04 05:37:28.26	199.85	20.46	-32.5	-33.0	27.0	0.00e+00	0	39	0	1461714944	38	5722
2026-01-04 05:37:29.27	199.98	20.58	-32.1	-32.6	27.0	0.00e+00	0	39	0	1469054976	38	5469
2026-01-04 05:37:30.28	200.11	20.69	-32.0	-32.4	27.2	0.00e+00	0	39	0	1476395008	38	5368
2026-01-04 05:37:31.29	200.24	20.81	-32.0	-32.5	27.1	0.00e+00	0	39	0	1483735040	38	5391
2026-01-04 05:37:32.30	200.38	20.93	-32.0	-32.4	27.1	0.00e+00	0	39	0	1491075072	38	5359
2026-01-04 05:37:33.31	200.51	21.05	-32.1	-32.6	27.1	0.00e+00	0	39	0	1498415104	38	5458
2026-01-04 05:37:34.32	200.64	21.17	-32.0	-32.4	27.0	0.00e+00	0	39	0	1505755136	38	5371
2026-01-04 05:37:35.33	200.78	21.29	-31.9	-32.3	27.1	0.00e+00	0	39	0	1513095168	36	5956
2026-01-04 05:37:36.34	200.91	21.41	-31.7	-32.2	27.1	0.00e+00	0	39	0	1520435200	36	5832
2026-01-04 05:37:37.35	201.05	21.53	-31.6	-32.1	27.1	0.00e+00	0	39	0	1526726656	36	5805
2026-01-04 05:37:38.36	201.19	21.65	-32.0	-32.5	26.9	0.00e+00	0	39	0	1534066688	36	6047
2026-01-04 05:37:39.37	201.33	21.77	-31.8	-32.3	27.1	0.00e+00	0	39	0	1541406720	36	5932
2026-01-04 05:37:40.38	201.47	21.89	-31.7	-32.2	27.2	0.00e+00	0	39	0	1548746752	36	5877
2026-01-04 05:37:41.39	201.61	22.01	-31.8	-32.3	27.2	0.00e+00	0	39	0	1556086784	36	5918
2026-01-04 05:37:42.40	201.75	22.14	-31.8	-32.3	27.1	0.00e+00	0	39	0	1563426816	36	5897
2026-01-04 05:37:43.41	201.90	22.26	-31.8	-32.2	27.2	0.00e+00	0	39	0	1570766848	36	5877
2026-01-04 05:37:44.42	202.04	22.38	-31.6	-32.1	27.1	0.00e+00	0	39	0	1578106880	36	5787
2026-01-04 05:37:45.43	202.19	22.51	-31.5	-32.0	27.2	0.00e+00	0	39	0	1585446912	36	5728
2026-01-04 05:37:46.44	202.33	22.63	-31.7	-32.1	27.1	0.00e+00	0	39	0	1592786944	36	5826
2026-01-04 05:37:47.45	202.48	22.76	-31.4	-31.8	27.3	0.00e+00	0	39	0	1600126976	36	5620
2026-01-04 05:37:48.46	202.63	22.88	-31.4	-31.9	27.3	0.00e+00	0	39	0	1607467008	36	5683
2026-01-04 05:37:49.47	202.78	23.01	-31.9	-32.4	27.2	0.00e+00	0	39	0	1614807040	36	5970
2026-01-04 05:37:50.48	202.93	23.13	-31.5	-32.0	27.3	0.00e+00	0	39	0	1622147072	36	5730
2026-01-04 05:37:51.49	203.09	23.26	-31.6	-32.0	27.4	0.00e+00	0	39	0	1629487104	36	5753
2026-01-04 05:37:52.50	203.24	23.38	-31.5	-32.0	27.4	0.00e+00	0	39	0	1636827136	36	5704
2026-01-04 05:37:53.51	203.40	23.51	-31.3	-31.8	27.3	0.00e+00	0	39	0	1644167168	36	5610
2026-01-04 05:37:54.52	203.55	23.64	-31.4	-31.8	27.5	0.00e+00	0	39	0	1651507200	36	5621
2026-01-04 05:37:55.53	203.71	23.77	-31.5	-31.9	27.5	0.00e+00	0	39	0	1658847232	36	5685
2026-01-04 05:37:56.54	203.87	23.89	-31.7	-32.2	27.4	0.00e+00	0	39	0	1666187264	36	5835
2026-01-04 05:37:57.55	204.03	24.02	-32.0	-32.4	27.5	0.00e+00	0	39	0	1673527296	36	6015
2026-01-04 05:37:58.56	204.19	24.15	-31.9	-32.3	27.4	0.00e+00	0	39	0	1679818752	36	5964
2026-01-04 05:37:59.57	204.35	24.28	-31.9	-32.4	27.4	0.00e+00	0	39	0	1687158784	36	5993
2026-01-04 05:38:00.58	204.52	24.41	-31.8	-32.2	27.2	0.00e+00	0	39	0	1695547392	36	5887
2026-01-04 05:38:01.59	204.68	24.54	-31.5	-31.9	27.4	0.00e+00	0	39	0	1701838848	36	5688
2026-01-04 05:38:02.60	204.85	24.67	-31.4	-31.8	27.3	0.00e+00	0	39	0	1709178880	36	5626
2026-01-04 05:38:03.61	205.02	24.80	-31.6	-32.1	27.3	0.00e+00	0	39	0	1716518912	36	5775
2026-01-04 05:38:04.62	205.19	24.94	-31.5	-31.9	27.4	0.00e+00	0	39	0	1723858944	36	5694
2026-01-04 05:38:05.63	205.36	25.07	-31.5	-31.9	27.3	0.00e+00	0	39	0	1731198976	36	5685
2026-01-04 05:38:06.64	205.53	25.20	-31.5	-32.0	27.4	0.00e+00	0	39	0	1738539008	36	5749
2026-01-04 05:38:07.65	205.70	25.33	-31.5	-32.0	27.4	0.00e+00	0	39	0	1745879040	36	5735
2026-01-04 05:38:08.66	205.88	25.47	-31.3	-31.8	27.5	0.00e+00	0	39	0	1753219072	36	5612
2026-01-04 05:38:09.66	206.05	25.60	-31.3	-31.8	27.5	0.00e+00	0	39	0	1760559104	36	5607
2026-01-04 05:38:10.67	206.23	25.73	-31.2	-31.7	27.5	0.00e+00	0	39	0	1767899136	36	5539
2026-01-04 05:38:11.68	206.41	25.87	-31.3	-31.8	27.5	0.00e+00	0	39	0	1775239168	36	5612
2026-01-04 05:38:12.69	206.59	26.00	-31.4	-31.8	27.6	0.00e+00	0	39	0	1782579200	36	5626
2026-01-04 05:38:13.70	206.78	26.14	-31.3	-31.8	27.6	0.00e+00	0	39	0	1789919232	36	5608
2026-01-04 05:38:14.71	206.96	26.27	-31.1	-31.6	27.6	0.00e+00	0	39	0	1797259264	36	5462
2026-01-04 05:38:15.72	207.14	26.41	-31.5	-32.0	27.6	0.00e+00	0	39	0	1804599296	36	5735
2026-01-04 05:38:16.73	207.33	26.54	-31.1	-31.5	27.8	0.00e+00	0	39	0	1811939328	36	5431
2026-01-04 05:38:17.74	207.52	26.68	-31.2	-31.6	27.6	0.00e+00	0	39	0	1819279360	36	5487
2026-01-04 05:38:18.75	207.71	26.82	-30.5	-31.0	28.0	0.00e+00	0	39	0	1826619392	34	5708
2026-01-04 05:38:19.76	207.90	26.95	-30.3	-30.8	28.2	0.00e+00	0	39	0	1832910848	34	5591
2026-01-04 05:38:20.77	208.10	27.09	-30.5	-30.9	28.0	0.00e+00	0	39	0	1841299456	34	5692
2026-01-04 05:38:21.78	208.29	27.23	-30.5	-31.0	28.1	0.00e+00	0	39	0	1848639488	34	5709
2026-01-04 05:38:22.80	208.49	27.37	-30.6	-31.1	28.1	0.00e+00	0	39	0	1854930944	34	5778
2026-01-04 05:38:23.81	208.69	27.51	-30.8	-31.2	28.2	0.00e+00	0	39	0	1862270976	34	5895
2026-01-04 05:38:24.82	208.89	27.65	-31.1	-31.6	28.0	0.00e+00	0	39	0	1869611008	34	6110
2026-01-04 05:38:25.83	209.09	27.79	-31.2	-31.6	27.9	0.00e+00	0	39	0	1876951040	34	6145
2026-01-04 05:38:26.84	209.29	27.93	-31.1	-31.6	27.9	0.00e+00	0	39	0	1884291072	34	6106
2026-01-04 05:38:27.85	209.50	28.07	-30.8	-31.3	27.9	0.00e+00	0	39	0	1891631104	34	5919
2026-01-04 05:38:28.86	209.71	28.21	-30.7	-31.2	27.9	0.00e+00	0	39	0	1898971136	34	5869
2026-01-04 05:38:29.87	209.91	28.35	-30.7	-31.1	27.9	0.00e+00	0	39	0	1906311168	34	5814
2026-01-04 05:38:30.88	210.12	28.49	-30.8	-31.3	27.9	0.00e+00	0	39	0	1913651200	34	5907
2026-01-04 05:38:31.89	210.34	28.63	-30.9	-31.4	27.7	0.00e+00	0	39	0	1920991232	34	6003
2026-01-04 05:38:32.90	210.55	28.77	-30.8	-31.3	27.9	0.00e+00	0	39	0	1928331264	34	5926
2026-01-04 05:38:33.91	210.77	28.91	-31.1	-31.6	27.7	0.00e+00	0	39	0	1935671296	34	6129
2026-01-04 05:38:34.92	210.99	29.06	-31.0	-31.5	27.8	0.00e+00	0	39	0	1943011328	34	6046
2026-01-04 05:38:35.93	211.21	29.20	-31.2	-31.6	27.7	0.00e+00	0	39	0	1950351360	34	6168
2026-01-04 05:38:36.94	211.43	29.34	-31.5	-32.0	27.5	0.00e+00	0	39	0	1957691392	34	6415
2026-01-04 05:38:37.95	211.65	29.48	-31.4	-31.9	27.6	0.00e+00	0	39	0	1965031424	34	6349
2026-01-04 05:38:38.95	211.87	29.62	-31.5	-31.9	27.5	0.00e+00	0	39	0	1972371456	34	6370
2026-01-04 05:38:39.96	212.10	29.77	-31.5	-32.0	27.5	0.00e+00	0	39	0	1978662912	36	5705
2026-01-04 05:38:40.97	212.33	29.91	-31.6	-32.1	27.6	0.00e+00	0	39	0	1986002944	36	5779
2026-01-04 05:38:41.98	212.56	30.06	-31.7	-32.2	27.1	0.00e+00	0	39	0	1994391552	36	5847
2026-01-04 05:38:42.99	212.80	30.20	-31.1	-31.6	27.6	0.00e+00	0	39	0	2000683008	36	5472
2026-01-04 05:38:44.00	213.03	30.34	-31.3	-31.8	27.5	0.00e+00	0	39	0	2008023040	36	5572
2026-01-04 05:38:45.01	213.27	30.49	-31.2	-31.6	27.7	0.00e+00	0	39	0	2015363072	36	5495
2026-01-04 05:38:46.02	213.51	30.63	-31.1	-31.5	27.8	0.00e+00	0	39	0	2022703104	36	5435
2026-01-04 05:38:47.03	213.75	30.78	-30.9	-31.4	28.0	0.00e+00	0	39	0	2030043136	36	5334
2026-01-04 05:38:48.04	214.00	30.92	-30.8	-31.3	27.9	0.00e+00	0	39	0	2037383168	36	5267
2026-01-04 05:38:49.05	214.24	31.07	-30.8	-31.2	28.0	0.00e+00	0	39	0	2044723200	36	5244
2026-01-04 05:38:50.06	214.49	31.21	-30.8	-31.2	28.0	0.00e+00	0	39	0	2052063232	34	5883
2026-01-04 05:38:51.07	214.74	31.36	-31.0	-31.4	27.8	0.00e+00	0	39	0	2059403264	34	6013
2026-01-04 05:38:52.08	214.99	31.51	-30.9	-31.3	27.8	0.00e+00	0	39	0	2066743296	34	5957
2026-01-04 05:38:53.09	215.25	31.65	-30.7	-31.2	27.8	0.00e+00	0	39	0	2074083328	34	5839
2026-01-04 05:38:54.10	215.51	31.80	-30.6	-31.0	27.9	0.00e+00	0	39	0	2081423360	34	5754
2026-01-04 05:38:55.11	215.77	31.94	-30.7	-31.2	27.7	0.00e+00	0	39	0	2088763392	34	5829
2026-01-04 05:38:56.11	216.03	32.09	-30.5	-31.0	27.6	0.00e+00	0	39	0	2096103424	34	5703
2026-01-04 05:38:57.12	216.29	32.23	-30.4	-30.9	28.1	0.00e+00	0	39	0	2103443456	34	5631
2026-01-04 05:38:58.13	216.56	32.38	-30.5	-30.9	27.9	0.00e+00	0	39	0	2110783488	34	5694
2026-01-04 05:38:59.13	216.82	32.53	-30.7	-31.1	27.9	0.00e+00	0	39	0	2118123520	34	5815
2026-01-04 05:39:00.14	217.09	32.67	-30.6	-31.0	27.9	0.00e+00	0	39	0	2125463552	34	5745
2026-01-04 05:39:01.15	217.37	32.82	-30.3	-30.7	28.0	0.00e+00	0	39	0	2131755008	34	5551
2026-01-04 05:39:02.16	217.64	32.96	-30.4	-30.9	27.9	0.00e+00	0	39	0	2139095040	34	5646
2026-01-04 05:39:03.17	217.92	33.11	-30.5	-31.0	27.9	0.00e+00	0	39	0	2147483648	34	5725
2026-01-04 05:39:04.18	218.20	33.26	-30.6	-31.1	28.0	0.00e+00	0	39	0	2153775104	34	5776
2026-01-04 05:39:05.19	218.49	33.40	-30.7	-31.1	27.9	0.00e+00	0	39	0	2161115136	34	5815
2026-01-04 05:39:06.20	218.77	33.55	-31.2	-31.7	27.9	0.00e+00	0	39	0	2168455168	34	6218
2026-01-04 05:39:07.21	219.06	33.69	-31.7	-32.2	27.6	0.00e+00	0	39	0	2175795200	36	5860
2026-01-04 05:39:08.22	219.35	33.84	-32.7	-33.1	27.5	0.00e+00	0	39	0	2183135232	36	6522
2026-01-04 05:39:09.23	219.65	33.99	-32.3	-32.8	27.3	0.00e+00	0	39	0	2190475264	38	5583
2026-01-04 05:39:10.24	219.94	34.13	-32.5	-32.9	27.2	0.00e+00	0	39	0	2197815296	38	5693
2026-01-04 05:39:11.25	220.24	34.28	-32.3	-32.7	27.8	0.00e+00	0	39	0	2205155328	38	5543
2026-01-04 05:39:12.26	220.54	34.42	-32.7	-33.2	27.4	0.00e+00	0	39	0	2212495360	38	5832
2026-01-04 05:39:13.27	220.85	34.57	-33.3	-33.7	27.7	0.00e+00	0	39	0	2219835392	38	6243
2026-01-04 05:39:14.28	221.15	34.71	-32.6	-33.1	27.5	0.00e+00	0	39	0	2227175424	38	5780
2026-01-04 05:39:15.29	221.46	34.86	-32.0	-32.4	27.9	0.00e+00	0	39	0	2234515456	38	5377
2026-01-04 05:39:16.30	221.78	35.00	-32.3	-32.7	28.0	0.00e+00	0	39	0	2241855488	38	5559
2026-01-04 05:39:17.31	222.09	35.15	-32.7	-33.2	27.8	0.00e+00	0	39	0	2249195520	38	5832
2026-01-04 05:39:18.32	222.41	35.29	-32.8	-33.2	27.7	0.00e+00	0	39	0	2255486976	38	5880
2026-01-04 05:39:19.33	222.73	35.43	-31.7	-32.1	28.0	0.00e+00	0	39	0	2263875584	36	5816
2026-01-04 05:39:20.34	223.05	35.58	-31.5	-32.0	28.0	0.00e+00	0	39	0	2271215616	36	5723
2026-01-04 05:39:21.35	223.38	35.72	-32.4	-32.9	28.1	0.00e+00	0	39	0	2277507072	40	5043
2026-01-04 05:39:22.36	223.71	35.86	-32.5	-33.0	28.2	0.00e+00	0	39	0	2284847104	38	5709
2026-01-04 05:39:23.37	224.04	36.00	-32.3	-32.7	28.0	0.00e+00	0	39	0	2293235712	38	5551
2026-01-04 05:39:24.38	224.37	36.15	-32.2	-32.7	27.9	0.00e+00	0	39	0	2299527168	38	5515
2026-01-04 05:39:25.39	224.71	36.29	-32.5	-33.0	28.1	0.00e+00	0	39	0	2306867200	36	6403
2026-01-04 05:39:26.40	225.05	36.43	-32.5	-33.0	28.0	0.00e+00	0	39	0	2314207232	36	6407
2026-01-04 05:39:27.41	225.39	36.57	-32.3	-32.8	27.9	0.00e+00	0	39	0	2321547264	38	5569
2026-01-04 05:39:28.42	225.74	36.71	-32.1	-32.6	28.0	0.00e+00	0	40	0	2328887296	38	5452
2026-01-04 05:39:29.43	226.09	36.85	-32.4	-32.9	28.1	0.00e+00	0	39	0	2336227328	38	5640
2026-01-04 05:39:30.44	226.44	36.98	-32.0	-32.5	28.1	0.00e+00	0	39	0	2343567360	38	5379
2026-01-04 05:39:31.45	226.79	37.12	-32.0	-32.5	28.0	0.00e+00	0	39	0	2350907392	36	6071
2026-01-04 05:39:32.46	227.15	37.26	-32.0	-32.5	27.4	0.00e+00	0	40	0	2358247424	36	6080
2026-01-04 05:39:33.47	227.51	37.40	-32.0	-32.4	27.7	0.00e+00	0	39	0	2365587456	36	6022
2026-01-04 05:39:34.48	227.88	37.53	-32.2	-32.7	27.5	0.00e+00	0	39	0	2372927488	36	6183
2026-01-04 05:39:35.48	228.24	37.66	-32.5	-33.0	24.6	0.00e+00	0	39	0	2380267520	36	6399
2026-01-04 05:39:36.50	228.61	37.80	-32.5	-33.0	27.5	0.00e+00	0	39	0	2387607552	38	5701
2026-01-04 05:39:37.51	228.99	37.93	-31.9	-32.4	27.7	0.00e+00	0	39	0	2394947584	38	5333
2026-01-04 05:39:38.51	229.36	38.07	-31.9	-32.4	27.7	0.00e+00	0	39	0	2402287616	38	5334
2026-01-04 05:39:39.53	229.74	38.20	-31.6	-32.1	27.7	0.00e+00	0	39	0	2409627648	36	5769
2026-01-04 05:39:40.53	230.12	38.33	-31.3	-31.7	28.0	0.00e+00	0	39	0	2416967680	36	5560
2026-01-04 05:39:41.54	230.50	38.46	-31.2	-31.6	28.0	0.00e+00	0	39	0	2424307712	36	5495
2026-01-04 05:39:42.55	230.89	38.59	-30.9	-31.3	28.0	0.00e+00	0	39	0	2430599168	36	5312
2026-01-04 05:39:43.56	231.28	38.72	-30.8	-31.3	28.0	0.00e+00	0	40	0	2437939200	34	5916
2026-01-04 05:39:44.57	231.67	38.84	-30.9	-31.4	27.9	0.00e+00	0	39	0	2445279232	34	5971
2026-01-04 05:39:45.58	232.07	38.97	-31.0	-31.5	27.9	0.00e+00	0	39	0	2452619264	34	6073
2026-01-04 05:39:46.59	232.47	39.09	-31.0	-31.4	27.9	0.00e+00	0	39	0	2459959296	34	6014
2026-01-04 05:39:47.60	232.87	39.22	-31.1	-31.6	27.7	0.00e+00	0	39	0	2467299328	34	6134
2026-01-04 05:39:48.61	233.28	39.34	-32.0	-32.5	27.6	0.00e+00	0	39	0	2474639360	34	6786
2026-01-04 05:39:49.62	233.69	39.46	-33.0	-33.5	27.5	0.00e+00	0	39	0	2481979392	38	6058
2026-01-04 05:39:50.63	234.10	39.58	-32.6	-33.1	27.6	0.00e+00	0	39	0	2489319424	38	5789
2026-01-04 05:39:51.64	234.52	39.70	-31.9	-32.4	27.5	0.00e+00	0	39	0	2496659456	38	5346
2026-01-04 05:39:52.65	234.93	39.82	-31.9	-32.4	27.8	0.00e+00	0	39	0	2503999488	36	5966
2026-01-04 05:39:53.66	235.35	39.94	-31.7	-32.2	27.8	0.00e+00	0	39	0	2511339520	36	5859
2026-01-04 05:39:54.67	235.78	40.05	-31.6	-32.1	27.8	0.00e+00	0	39	0	2518679552	36	5784
2026-01-04 05:39:55.67	236.20	40.17	-31.9	-32.4	27.6	0.00e+00	0	39	0	2526019584	36	5973
2026-01-04 05:39:56.69	236.63	40.28	-32.3	-32.8	27.4	0.00e+00	0	39	0	2533359616	36	6251
2026-01-04 05:39:57.69	237.06	40.39	-33.0	-33.5	27.2	0.00e+00	0	39	0	2540699648	38	6060
2026-01-04 05:39:58.70	237.50	40.50	-32.7	-33.2	27.3	0.00e+00	0	40	0	2548039680	38	5837
2026-01-04 05:39:59.71	237.94	40.61	-32.1	-32.6	27.7	0.00e+00	0	40	0	2554331136	36	6104
2026-01-04 05:40:00.72	238.38	40.71	-32.5	-33.0	27.5	0.00e+00	0	39	0	2561671168	36	6418
2026-01-04 05:40:01.73	238.82	40.82	-31.6	-32.0	28.0	0.00e+00	0	40	0	2570059776	36	5747
2026-01-04 05:40:02.74	239.27	40.92	-31.3	-31.8	27.8	0.00e+00	0	40	0	2576351232	36	5578
2026-01-04 05:40:03.75	239.72	41.02	-31.7	-32.2	27.8	0.00e+00	0	40	0	2583691264	36	5854
2026-01-04 05:40:04.76	240.17	41.12	-32.8	-33.2	27.6	0.00e+00	0	40	0	2591031296	38	5877
2026-01-04 05:40:05.77	240.63	41.22	-31.6	-32.0	28.0	0.00e+00	0	40	0	2598371328	36	5751
2026-01-04 05:40:06.78	241.09	41.32	-31.8	-32.2	28.1	0.00e+00	0	40	0	2605711360	36	5860
2026-01-04 05:40:07.79	241.55	41.41	-31.8	-32.3	28.1	0.00e+00	0	39	0	2613051392	36	5907
2026-01-04 05:40:08.80	242.01	41.51	-32.9	-33.3	28.2	0.00e+00	0	40	0	2620391424	38	5953
2026-01-04 05:40:09.80	242.47	41.60	-31.7	-32.1	27.9	0.00e+00	0	39	0	2627731456	38	5178
2026-01-04 05:40:10.82	242.94	41.69	-32.7	-33.2	27.9	0.00e+00	0	39	0	2635071488	38	5829
2026-01-04 05:40:11.83	243.42	41.78	-32.5	-33.0	27.8	0.00e+00	0	39	0	2642411520	38	5712
2026-01-04 05:40:12.84	243.89	41.86	-32.2	-32.7	27.7	0.00e+00	0	39	0	2649751552	38	5533
2026-01-04 05:40:13.85	244.37	41.95	-32.3	-32.8	27.7	0.00e+00	0	39	0	2657091584	38	5579
2026-01-04 05:40:14.86	244.84	42.03	-33.2	-33.7	27.8	0.00e+00	0	39	0	2664431616	38	6176
2026-01-04 05:40:15.87	245.32	42.11	-32.9	-33.4	27.8	0.00e+00	0	39	0	2671771648	38	5965
2026-01-04 05:40:16.88	245.81	42.18	-32.8	-33.3	27.8	0.00e+00	0	40	0	2679111680	38	5905
2026-01-04 05:40:17.89	246.29	42.26	-32.8	-33.3	27.9	0.00e+00	0	40	0	2686451712	38	5930
2026-01-04 05:40:18.90	246.78	42.33	-33.0	-33.5	27.7	0.00e+00	0	39	0	2693791744	38	6035
2026-01-04 05:40:19.91	247.27	42.41	-32.9	-33.3	27.9	0.00e+00	0	40	0	2701131776	38	5943
2026-01-04 05:40:20.92	247.76	42.47	-32.6	-33.1	27.7	0.00e+00	0	40	0	2707423232	38	5768
2026-01-04 05:40:21.93	248.26	42.54	-31.7	-32.2	28.0	0.00e+00	0	39	0	2715811840	38	5195
2026-01-04 05:40:22.94	248.75	42.61	-31.3	-31.8	28.0	0.00e+00	0	40	0	2723151872	36	5572
2026-01-04 05:40:23.95	249.25	42.67	-31.4	-31.9	27.7	0.00e+00	0	40	0	2729443328	36	5655
2026-01-04 05:40:24.96	249.75	42.73	-32.2	-32.6	27.5	0.00e+00	0	39	0	2736783360	36	6168
2026-01-04 05:40:25.96	250.25	42.79	-32.7	-33.2	27.5	0.00e+00	0	39	0	2744123392	38	5835
2026-01-04 05:40:26.97	250.75	42.84	-33.7	-34.2	27.2	0.00e+00	0	40	0	2751463424	38	6565
2026-01-04 05:40:27.98	251.26	42.89	-34.1	-34.6	27.2	0.00e+00	0	39	0	2758803456	40	6133
2026-01-04 05:40:28.99	251.76	42.95	-33.2	-33.7	27.4	0.00e+00	0	39	0	2766143488	40	5549
2026-01-04 05:40:30.00	252.27	42.99	-33.1	-33.5	27.4	0.00e+00	0	39	0	2773483520	38	6086
2026-01-04 05:40:31.01	252.78	43.04	-32.8	-33.3	27.3	0.00e+00	0	39	0	2780823552	38	5913
2026-01-04 05:40:32.02	253.29	43.08	-32.5	-33.0	27.4	0.00e+00	0	39	0	2788163584	38	5728
2026-01-04 05:40:33.03	253.80	43.13	-32.8	-33.3	27.4	0.00e+00	0	39	0	2795503616	38	5920
2026-01-04 05:40:34.04	254.32	43.16	-33.0	-33.5	27.4	0.00e+00	0	39	0	2802843648	38	6057
2026-01-04 05:40:35.05	254.83	43.20	-32.7	-33.2	27.4	0.00e+00	0	39	0	2810183680	38	5846
2026-01-04 05:40:36.06	255.35	43.23	-32.4	-32.8	27.6	0.00e+00	0	39	0	2817523712	38	5622
2026-01-04 05:40:37.07	255.86	43.27	-31.8	-32.2	27.7	0.00e+00	0	39	0	2824863744	38	5225
2026-01-04 05:40:38.08	256.38	43.29	-32.3	-32.8	27.4	0.00e+00	0	40	0	2832203776	38	5607
2026-01-04 05:40:39.09	256.90	43.32	-32.8	-33.3	27.5	0.00e+00	0	40	0	2839543808	38	5927
2026-01-04 05:40:40.10	257.42	43.34	-32.7	-33.2	27.5	0.00e+00	0	39	0	2846883840	38	5835
2026-01-04 05:40:41.11	257.94	43.36	-32.4	-32.8	27.5	0.00e+00	0	40	0	2853175296	38	5621
2026-01-04 05:40:42.12	258.46	43.38	-32.1	-32.6	27.6	0.00e+00	0	39	0	2860515328	38	5444
2026-01-04 05:40:43.13	258.98	43.40	-31.2	-31.7	27.7	0.00e+00	0	40	0	2868903936	36	5534
2026-01-04 05:40:44.14	259.50	43.41	-31.1	-31.6	27.5	0.00e+00	0	39	0	2875195392	36	5478
2026-01-04 05:40:45.15	260.03	43.42	-32.1	-32.5	27.4	0.00e+00	0	40	0	2882535424	36	6086
2026-01-04 05:40:46.16	260.55	43.43	-33.2	-33.7	27.5	0.00e+00	0	40	0	2889875456	38	6203
2026-01-04 05:40:47.16	261.07	43.44	-32.9	-33.4	27.2	0.00e+00	0	39	0	2897215488	38	6016
2026-01-04 05:40:48.17	261.59	43.44	-32.1	-32.5	27.6	0.00e+00	0	39	0	2904555520	38	5433
2026-01-04 05:40:49.18	262.11	43.44	-31.7	-32.2	27.6	0.00e+00	0	39	0	2911895552	36	5847
2026-01-04 05:40:50.19	262.64	43.44	-32.2	-32.6	27.6	0.00e+00	0	40	0	2919235584	36	6158
2026-01-04 05:40:51.20	263.16	43.43	-32.7	-33.2	27.3	0.00e+00	0	39	0	2926575616	36	6564
2026-01-04 05:40:52.21	263.68	43.43	-32.5	-33.0	27.3	0.00e+00	0	39	0	2933915648	36	6415
2026-01-04 05:40:53.22	264.20	43.42	-31.9	-32.3	27.5	0.00e+00	0	40	0	2941255680	36	5959
2026-01-04 05:40:54.23	264.72	43.40	-31.7	-32.2	27.5	0.00e+00	0	40	0	2948595712	36	5874
2026-01-04 05:40:55.24	265.25	43.39	-31.9	-32.4	27.4	0.00e+00	0	40	0	2955935744	36	5981
2026-01-04 05:40:56.25	265.77	43.37	-31.9	-32.4	27.2	0.00e+00	0	39	0	2963275776	36	5997
2026-01-04 05:40:57.26	266.29	43.35	-32.0	-32.5	27.3	0.00e+00	0	39	0	2970615808	36	6081
2026-01-04 05:40:58.27	266.81	43.33	-31.9	-32.4	27.4	0.00e+00	0	40	0	2977955840	36	5999
2026-01-04 05:40:59.28	267.33	43.30	-31.9	-32.4	27.4	0.00e+00	0	40	0	2985295872	36	5987
2026-01-04 05:41:00.29	267.84	43.27	-33.0	-33.5	27.5	0.00e+00	0	40	0	2992635904	36	6792
2026-01-04 05:41:01.30	268.36	43.24	-32.7	-33.1	27.4	0.00e+00	0	40	0	2999975936	38	5821
2026-01-04 05:41:02.31	268.88	43.21	-32.4	-32.9	27.8	0.00e+00	0	40	0	3006267392	38	5656
2026-01-04 05:41:03.32	269.39	43.17	-32.2	-32.7	27.4	0.00e+00	0	40	0	3013607424	38	5522
2026-01-04 05:41:04.33	269.90	43.14	-32.4	-32.9	27.5	0.00e+00	0	40	0	3021996032	38	5655
2026-01-04 05:41:05.34	270.42	43.10	-32.3	-32.7	27.4	0.00e+00	0	39	0	3028287488	38	5548
2026-01-04 05:41:06.35	270.93	43.05	-32.4	-32.8	27.4	0.00e+00	0	40	0	3035627520	38	5625
2026-01-04 05:41:07.36	271.44	43.01	-32.8	-33.3	27.3	0.00e+00	0	40	0	3042967552	38	5938
2026-01-04 05:41:08.37	271.95	42.96	-32.5	-33.0	27.2	0.00e+00	0	40	0	3050307584	38	5699
2026-01-04 05:41:09.38	272.45	42.91	-33.5	-33.9	27.3	0.00e+00	0	40	0	3057647616	38	6384
2026-01-04 05:41:10.39	272.96	42.86	-33.0	-33.4	26.9	0.00e+00	0	39	0	3064987648	40	5357
2026-01-04 05:41:11.39	273.46	42.80	-33.3	-33.8	26.5	0.00e+00	0	39	0	3072327680	40	5571
2026-01-04 05:41:12.40	273.96	42.75	-32.5	-33.0	27.1	0.00e+00	0	40	0	3079667712	38	5697
2026-01-04 05:41:13.41	274.46	42.69	-31.9	-32.3	27.6	0.00e+00	0	40	0	3087007744	38	5315
2026-01-04 05:41:14.42	274.95	42.63	-31.7	-32.2	27.6	0.00e+00	0	40	0	3094347776	36	5860
2026-01-04 05:41:15.43	275.45	42.56	-31.6	-32.1	27.5	0.00e+00	0	39	0	3101687808	36	5799
2026-01-04 05:41:16.44	275.94	42.50	-32.5	-33.0	27.4	0.00e+00	0	39	0	3109027840	36	6420
2026-01-04 05:41:17.45	276.44	42.43	-32.0	-32.4	27.4	0.00e+00	0	40	0	3116367872	36	6003
2026-01-04 05:41:18.46	276.93	42.36	-31.9	-32.4	27.5	0.00e+00	0	40	0	3123707904	36	5967
2026-01-04 05:41:19.47	277.41	42.28	-32.8	-33.3	27.7	0.00e+00	0	39	0	3131047936	36	6642
2026-01-04 05:41:20.48	277.90	42.21	-33.5	-33.9	27.2	0.00e+00	0	40	0	3138387968	38	6384
2026-01-04 05:41:21.49	278.38	42.13	-33.0	-33.5	27.6	0.00e+00	0	39	0	3145728000	38	6055
2026-01-04 05:41:22.50	278.86	42.05	-32.1	-32.6	27.6	0.00e+00	0	40	0	3152019456	38	5469
2026-01-04 05:41:23.51	279.34	41.97	-31.9	-32.3	27.5	0.00e+00	0	39	0	3159359488	38	5307
2026-01-04 05:41:24.52	279.82	41.89	-31.4	-31.9	27.6	0.00e+00	0	40	0	3166699520	36	5659
2026-01-04 05:41:25.53	280.29	41.80	-31.2	-31.6	27.9	0.00e+00	0	40	0	3175088128	36	5495
2026-01-04 05:41:26.54	280.76	41.72	-31.4	-31.9	27.9	0.00e+00	0	39	0	3181379584	36	5651
2026-01-04 05:41:27.55	281.23	41.63	-31.4	-31.9	27.8	0.00e+00	0	40	0	3188719616	36	5668
2026-01-04 05:41:28.56	281.70	41.54	-31.7	-32.2	27.4	0.00e+00	0	40	0	3196059648	36	5832
2026-01-04 05:41:29.56	282.16	41.45	-32.6	-33.1	26.7	0.00e+00	0	40	0	3203399680	36	6518
2026-01-04 05:41:30.57	282.62	41.35	-32.5	-33.0	26.7	0.00e+00	0	40	0	3210739712	36	6408
2026-01-04 05:41:31.58	283.07	41.26	-32.1	-32.6	27.1	0.00e+00	0	39	0	3218079744	36	6151
2026-01-04 05:41:32.59	283.53	41.16	-31.4	-31.9	27.3	0.00e+00	0	40	0	3225419776	36	5656
2026-01-04 05:41:33.61	283.99	41.06	-31.6	-32.1	27.4	0.00e+00	0	40	0	3232759808	36	5796
2026-01-04 05:41:34.61	284.43	40.96	-31.7	-32.2	27.4	0.00e+00	0	40	0	3240099840	36	5853
2026-01-04 05:41:35.62	284.88	40.86	-31.2	-31.6	27.7	0.00e+00	0	40	0	3247439872	36	5458
2026-01-04 05:41:36.63	285.32	40.75	-31.3	-31.8	27.6	0.00e+00	0	39	0	3254779904	36	5594
2026-01-04 05:41:37.64	285.77	40.65	-31.3	-31.8	27.8	0.00e+00	0	40	0	3262119936	36	5570
2026-01-04 05:41:38.65	286.20	40.54	-31.2	-31.6	27.8	0.00e+00	0	40	0	3269459968	36	5492
2026-01-04 05:41:39.66	286.64	40.43	-31.1	-31.5	27.9	0.00e+00	0	40	0	3276800000	36	5432
2026-01-04 05:41:40.67	287.07	40.32	-30.8	-31.2	28.0	0.00e+00	0	40	0	3283091456	34	5870
2026-01-04 05:41:41.68	287.50	40.21	-30.8	-31.2	28.0	0.00e+00	0	39	0	3291480064	34	5886
2026-01-04 05:41:42.69	287.93	40.09	-30.8	-31.2	27.9	0.00e+00	0	39	0	3298820096	34	5896
2026-01-04 05:41:43.70	288.35	39.98	-30.6	-31.1	27.9	0.00e+00	0	40	0	3305111552	34	5780
2026-01-04 05:41:44.70	288.77	39.86	-30.8	-31.3	27.8	0.00e+00	0	40	0	3312451584	34	5908
2026-01-04 05:41:45.71	289.19	39.75	-31.0	-31.4	27.7	0.00e+00	0	40	0	3319791616	34	6029
2026-01-04 05:41:46.72	289.60	39.63	-30.9	-31.4	27.7	0.00e+00	0	40	0	3327131648	34	6007
2026-01-04 05:41:47.73	290.01	39.51	-31.0	-31.5	27.7	0.00e+00	0	40	0	3334471680	34	6045
2026-01-04 05:41:48.74	290.42	39.39	-31.2	-31.6	27.7	0.00e+00	0	40	0	3341811712	34	6150
2026-01-04 05:41:49.74	290.82	39.27	-31.3	-31.8	27.8	0.00e+00	0	40	0	3349151744	34	6256
2026-01-04 05:41:50.75	291.23	39.14	-32.1	-32.6	27.7	0.00e+00	0	40	0	3356491776	36	6128
2026-01-04 05:41:51.76	291.63	39.02	-32.1	-32.5	27.6	0.00e+00	0	40	0	3363831808	38	5438
2026-01-04 05:41:52.77	292.02	38.89	-32.2	-32.7	27.6	0.00e+00	0	40	0	3371171840	38	5507
2026-01-04 05:41:53.78	292.42	38.77	-32.2	-32.7	27.3	0.00e+00	0	40	0	3378511872	38	5519
2026-01-04 05:41:54.79	292.81	38.64	-33.1	-33.6	27.4	0.00e+00	0	40	0	3385851904	38	6142
2026-01-04 05:41:55.80	293.20	38.51	-32.3	-32.8	27.6	0.00e+00	0	40	0	3393191936	38	5612
2026-01-04 05:41:56.81	293.58	38.38	-32.1	-32.6	27.7	0.00e+00	0	40	0	3400531968	38	5447
2026-01-04 05:41:57.82	293.96	38.25	-31.4	-31.9	28.0	0.00e+00	0	40	0	3407872000	36	5644
2026-01-04 05:41:58.83	294.34	38.12	-31.4	-31.8	28.0	0.00e+00	0	40	0	3415212032	36	5626
2026-01-04 05:41:59.84	294.72	37.99	-31.1	-31.5	28.0	0.00e+00	0	40	0	3422552064	36	5398
2026-01-04 05:42:00.85	295.09	37.86	-31.4	-31.9	27.8	0.00e+00	0	40	0	3429892096	36	5648
2026-01-04 05:42:01.86	295.46	37.72	-31.7	-32.2	27.8	0.00e+00	0	40	0	3436183552	36	5871
2026-01-04 05:42:02.87	295.83	37.59	-31.7	-32.2	27.8	0.00e+00	0	40	0	3443523584	36	5841
2026-01-04 05:42:03.88	296.19	37.46	-31.5	-32.0	27.9	0.00e+00	0	40	0	3451912192	36	5704
2026-01-04 05:42:04.89	296.55	37.32	-31.7	-32.2	27.6	0.00e+00	0	40	0	3458203648	36	5829
2026-01-04 05:42:05.90	296.91	37.18	-31.6	-32.1	28.0	0.00e+00	0	40	0	3465543680	36	5771
2026-01-04 05:42:06.90	297.26	37.05	-31.4	-31.9	27.9	0.00e+00	0	40	0	3472883712	36	5682
2026-01-04 05:42:07.91	297.61	36.91	-31.0	-31.4	28.1	0.00e+00	0	40	0	3480223744	36	5362
2026-01-04 05:42:08.92	297.96	36.77	-30.9	-31.4	28.0	0.00e+00	0	40	0	3487563776	36	5326
2026-01-04 05:42:09.93	298.31	36.63	-30.9	-31.3	28.1	0.00e+00	0	40	0	3494903808	36	5297
2026-01-04 05:42:10.94	298.65	36.49	-30.7	-31.1	28.2	0.00e+00	0	40	0	3502243840	34	5810
2026-01-04 05:42:11.95	298.99	36.35	-30.6	-31.1	28.2	0.00e+00	0	40	0	3509583872	34	5786
2026-01-04 05:42:12.96	299.33	36.21	-30.6	-31.1	28.2	0.00e+00	0	40	0	3516923904	34	5773
2026-01-04 05:42:13.97	299.66	36.07	-30.8	-31.2	28.3	0.00e+00	0	40	0	3524263936	34	5884
2026-01-04 05:42:14.98	300.00	35.93	-30.9	-31.4	28.2	0.00e+00	0	40	0	3531603968	34	5983
2026-01-04 05:42:15.99	300.33	35.79	-31.2	-31.6	28.0	0.00e+00	0	40	0	3538944000	34	6161
2026-01-04 05:42:17.00	300.65	35.65	-31.4	-31.9	27.5	0.00e+00	0	40	0	3546284032	34	6329
2026-01-04 05:42:18.01	300.97	35.51	-31.4	-31.9	27.9	0.00e+00	0	40	0	3553624064	34	6320
2026-01-04 05:42:19.01	301.29	35.36	-31.1	-31.6	27.8	0.00e+00	0	40	0	3559915520	34	6113
2026-01-04 05:42:20.02	301.61	35.22	-31.0	-31.4	28.0	0.00e+00	0	40	0	3568304128	34	6019
2026-01-04 05:42:21.03	301.92	35.08	-30.9	-31.4	27.9	0.00e+00	0	40	0	3575644160	34	5989
2026-01-04 05:42:22.04	302.24	34.93	-30.8	-31.2	28.0	0.00e+00	0	40	0	3581935616	34	5876
2026-01-04 05:42:23.05	302.55	34.79	-31.0	-31.4	28.0	0.00e+00	0	40	0	3589275648	34	6019
2026-01-04 05:42:24.06	302.85	34.65	-30.8	-31.2	28.1	0.00e+00	0	40	0	3596615680	34	5867
2026-01-04 05:42:25.07	303.16	34.50	-30.7	-31.1	27.9	0.00e+00	0	40	0	3603955712	34	5824
2026-01-04 05:42:26.08	303.46	34.36	-30.6	-31.1	27.9	0.00e+00	0	40	0	3611295744	34	5777
2026-01-04 05:42:27.09	303.76	34.21	-30.7	-31.2	28.1	0.00e+00	0	40	0	3618635776	34	5837
2026-01-04 05:42:28.10	304.06	34.07	-31.4	-31.8	27.7	0.00e+00	0	40	0	3625975808	34	6284
2026-01-04 05:42:29.11	304.35	33.92	-32.0	-32.5	27.9	0.00e+00	0	40	0	3633315840	36	6068
2026-01-04 05:42:30.12	304.64	33.78	-32.2	-32.7	27.3	0.00e+00	0	40	0	3640655872	36	6199
2026-01-04 05:42:31.13	304.93	33.63	-32.4	-32.9	27.2	0.00e+00	0	40	0	3647995904	36	6327
2026-01-04 05:42:32.14	305.22	33.49	-32.1	-32.6	27.4	0.00e+00	0	40	0	3655335936	36	6149
2026-01-04 05:42:33.15	305.50	33.34	-32.0	-32.4	27.0	0.00e+00	0	40	0	3662675968	36	6023
2026-01-04 05:42:34.16	305.78	33.20	-32.0	-32.5	27.3	0.00e+00	0	40	0	3670016000	36	6044
2026-01-04 05:42:35.17	306.06	33.05	-32.5	-33.0	27.3	0.00e+00	0	40	0	3677356032	36	6431
2026-01-04 05:42:36.17	306.33	32.91	-32.2	-32.7	27.3	0.00e+00	0	40	0	3684696064	36	6219
2026-01-04 05:42:37.19	306.61	32.76	-32.0	-32.4	27.2	0.00e+00	0	40	0	3692036096	36	6027
2026-01-04 05:42:38.20	306.88	32.61	-32.1	-32.6	26.8	0.00e+00	0	40	0	3699376128	36	6134
2026-01-04 05:42:39.20	307.15	32.47	-32.0	-32.4	27.3	0.00e+00	0	40	0	3706716160	36	6028
2026-01-04 05:42:40.21	307.41	32.32	-31.7	-32.1	27.5	0.00e+00	0	40	0	3713007616	36	5822
2026-01-04 05:42:41.22	307.68	32.18	-31.5	-32.0	27.6	0.00e+00	0	40	0	3720347648	36	5696
2026-01-04 05:42:42.23	307.94	32.03	-31.2	-31.6	27.8	0.00e+00	0	40	0	3728736256	36	5496
2026-01-04 05:42:43.24	308.20	31.89	-31.2	-31.6	27.9	0.00e+00	0	40	0	3735027712	36	5502
2026-01-04 05:42:44.25	308.46	31.74	-30.7	-31.1	28.0	0.00e+00	0	40	0	3742367744	34	5822
2026-01-04 05:42:45.26	308.71	31.60	-30.9	-31.4	28.0	0.00e+00	0	40	0	3749707776	34	5983
2026-01-04 05:42:46.26	308.96	31.45	-31.2	-31.6	27.9	0.00e+00	0	40	0	3757047808	34	6164
2026-01-04 05:42:47.27	309.22	31.31	-31.4	-31.9	27.8	0.00e+00	0	40	0	3764387840	34	6357
2026-01-04 05:42:48.28	309.46	31.17	-31.3	-31.8	27.6	0.00e+00	0	40	0	3771727872	34	6263
2026-01-04 05:42:49.29	309.71	31.02	-31.5	-31.9	27.4	0.00e+00	0	40	0	3779067904	34	6375
2026-01-04 05:42:50.30	309.95	30.88	-31.8	-32.3	27.6	0.00e+00	0	40	0	3786407936	36	5931
2026-01-04 05:42:51.31	310.20	30.73	-31.8	-32.3	27.7	0.00e+00	0	40	0	3793747968	36	5925
2026-01-04 05:42:52.32	310.44	30.59	-32.7	-33.2	27.7	0.00e+00	0	40	0	3801088000	36	6592
2026-01-04 05:42:53.33	310.68	30.44	-32.5	-33.0	27.5	0.00e+00	0	40	0	3808428032	38	5729
2026-01-04 05:42:54.34	310.91	30.30	-31.9	-32.4	27.8	0.00e+00	0	40	0	3815768064	38	5328
2026-01-04 05:42:55.35	311.15	30.16	-32.3	-32.8	27.7	0.00e+00	0	40	0	3823108096	38	5597
2026-01-04 05:42:56.36	311.38	30.01	-32.4	-32.9	27.8	0.00e+00	0	40	0	3830448128	38	5631
2026-01-04 05:42:57.37	311.61	29.87	-32.0	-32.5	27.7	0.00e+00	0	40	0	3836739584	38	5400
2026-01-04 05:42:58.38	311.83	29.73	-31.8	-32.3	27.4	0.00e+00	0	40	0	3845128192	38	5271
2026-01-04 05:42:59.39	312.06	29.59	-31.8	-32.3	27.7	0.00e+00	0	40	0	3852468224	36	5923
2026-01-04 05:43:00.40	312.28	29.44	-32.4	-32.8	27.6	0.00e+00	0	40	0	3858759680	36	6311
2026-01-04 05:43:01.41	312.51	29.30	-32.5	-33.0	27.7	0.00e+00	0	40	0	3866099712	38	5727
2026-01-04 05:43:02.42	312.73	29.16	-32.1	-32.6	27.5	0.00e+00	0	40	0	3873439744	38	5448
2026-01-04 05:43:03.43	312.95	29.02	-32.6	-33.1	27.5	0.00e+00	0	40	0	3880779776	38	5791
2026-01-04 05:43:04.43	313.16	28.88	-32.5	-33.0	27.1	0.00e+00	0	40	0	3888119808	38	5752
2026-01-04 05:43:05.44	313.37	28.74	-32.3	-32.8	27.8	0.00e+00	0	40	0	3895459840	38	5572
2026-01-04 05:43:06.45	313.59	28.60	-32.3	-32.8	27.6	0.00e+00	0	40	0	3902799872	38	5582
2026-01-04 05:43:07.46	313.80	28.46	-32.0	-32.5	27.5	0.00e+00	0	40	0	3910139904	38	5380
2026-01-04 05:43:08.47	314.01	28.32	-32.0	-32.5	27.5	0.00e+00	0	40	0	3917479936	38	5423
2026-01-04 05:43:09.48	314.21	28.18	-31.6	-32.1	27.6	0.00e+00	0	40	0	3924819968	36	5766
2026-01-04 05:43:10.49	314.42	28.04	-31.5	-31.9	27.5	0.00e+00	0	40	0	3932160000	36	5690
2026-01-04 05:43:11.50	314.62	27.90	-31.5	-32.0	27.4	0.00e+00	0	40	0	3939500032	36	5727
2026-01-04 05:43:12.51	314.83	27.76	-31.6	-32.1	27.4	0.00e+00	0	40	0	3946840064	36	5791
2026-01-04 05:43:13.52	315.03	27.62	-31.6	-32.1	27.4	0.00e+00	0	40	0	3954180096	36	5784
2026-01-04 05:43:14.53	315.23	27.48	-31.8	-32.3	27.4	0.00e+00	0	40	0	3961520128	36	5903
2026-01-04 05:43:15.54	315.42	27.35	-31.7	-32.1	27.3	0.00e+00	0	40	0	3968860160	36	5820
2026-01-04 05:43:16.54	315.62	27.21	-31.9	-32.3	27.2	0.00e+00	0	40	0	3976200192	36	5935
2026-01-04 05:43:17.55	315.81	27.07	-32.1	-32.6	26.9	0.00e+00	0	40	0	3983540224	36	6112
2026-01-04 05:43:18.56	316.00	26.94	-32.0	-32.5	27.0	0.00e+00	0	40	0	3989831680	36	6046
2026-01-04 05:43:19.57	316.19	26.80	-32.1	-32.6	27.3	0.00e+00	0	40	0	3998220288	36	6109
2026-01-04 05:43:20.58	316.38	26.66	-31.9	-32.4	27.1	0.00e+00	0	40	0	4005560320	36	5993
2026-01-04 05:43:21.59	316.57	26.53	-32.2	-32.7	27.1	0.00e+00	0	40	0	4011851776	36	6196
2026-01-04 05:43:22.60	316.75	26.39	-32.2	-32.7	27.1	0.00e+00	0	40	0	4019191808	36	6180
2026-01-04 05:43:23.61	316.94	26.26	-32.4	-32.9	27.2	0.00e+00	0	40	0	4026531840	36	6334
2026-01-04 05:43:24.62	317.12	26.12	-32.1	-32.6	27.1	0.00e+00	0	40	0	4033871872	36	6113
2026-01-04 05:43:25.63	317.30	25.99	-31.8	-32.3	26.4	0.00e+00	0	40	0	4041211904	36	5929
2026-01-04 05:43:26.64	317.48	25.86	-31.9	-32.3	27.2	0.00e+00	0	40	0	4048551936	36	5963
2026-01-04 05:43:27.65	317.66	25.72	-32.1	-32.6	26.9	0.00e+00	0	40	0	4055891968	36	6132
2026-01-04 05:43:28.66	317.84	25.59	-32.6	-33.1	26.7	0.00e+00	0	40	0	4063232000	36	6522
2026-01-04 05:43:29.67	318.01	25.46	-32.2	-32.7	26.4	0.00e+00	0	40	0	4070572032	36	6215
2026-01-04 05:43:30.68	318.19	25.32	-32.5	-32.9	27.1	0.00e+00	0	40	0	4077912064	36	6388
2026-01-04 05:43:31.69	318.36	25.19	-32.2	-32.7	27.0	0.00e+00	0	40	0	4085252096	38	5543
2026-01-04 05:43:32.70	318.53	25.06	-32.4	-32.9	26.9	0.00e+00	0	40	0	4092592128	38	5662
2026-01-04 05:43:33.71	318.70	24.93	-32.8	-33.2	26.7	0.00e+00	0	40	0	4099932160	38	5885
2026-01-04 05:43:34.72	318.87	24.80	-32.6	-33.1	26.6	0.00e+00	0	40	0	4107272192	38	5806
2026-01-04 05:43:35.73	319.04	24.67	-32.2	-32.7	27.2	0.00e+00	0	40	0	4114612224	38	5527
2026-01-04 05:43:36.74	319.20	24.54	-31.8	-32.3	27.3	0.00e+00	0	40	0	4121952256	36	5913
2026-01-04 05:43:37.75	319.37	24.41	-31.7	-32.2	27.2	0.00e+00	0	40	0	4129292288	36	5856
2026-01-04 05:43:38.76	319.53	24.28	-31.7	-32.1	27.4	0.00e+00	0	40	0	4135583744	36	5817
2026-01-04 05:43:39.77	319.69	24.15	-31.7	-32.2	27.5	0.00e+00	0	40	0	4142923776	36	5849
2026-01-04 05:43:40.78	319.85	24.02	-31.3	-31.8	27.6	0.00e+00	0	40	0	4151312384	36	5599
2026-01-04 05:43:41.78	320.01	23.90	-31.6	-32.1	27.5	0.00e+00	0	40	0	4157603840	36	5783
2026-01-04 05:43:42.79	320.17	23.77	-32.1	-32.6	27.3	0.00e+00	0	40	0	4164943872	36	6155
2026-01-04 05:43:43.80	320.33	23.64	-31.8	-32.3	27.4	0.00e+00	0	40	0	4172283904	36	5935
2026-01-04 05:43:44.81	320.48	23.52	-31.9	-32.3	27.5	0.00e+00	0	40	0	4179623936	36	5956
2026-01-04 05:43:45.82	320.64	23.39	-32.0	-32.5	27.3	0.00e+00	0	40	0	4186963968	36	6041
2026-01-04 05:43:46.83	320.79	23.27	-32.0	-32.4	27.2	0.00e+00	0	40	0	4194304000	36	6021
2026-01-04 05:43:47.84	320.94	23.14	-32.2	-32.7	27.4	0.00e+00	0	40	0	4201644032	36	6210
2026-01-04 05:43:48.85	321.09	23.02	-32.2	-32.7	27.2	0.00e+00	0	40	0	4208984064	36	6186
2026-01-04 05:43:49.86	321.24	22.89	-32.0	-32.4	27.4	0.00e+00	0	40	0	4216324096	36	6031
2026-01-04 05:43:50.87	321.39	22.77	-32.1	-32.6	27.3	0.00e+00	0	40	0	4223664128	36	6141
2026-01-04 05:43:51.88	321.54	22.64	-32.0	-32.5	27.2	0.00e+00	0	40	0	4231004160	36	6072
2026-01-04 05:43:52.89	321.68	22.52	-32.2	-32.7	27.2	0.00e+00	0	40	0	4238344192	36	6223
2026-01-04 05:43:53.90	321.83	22.40	-32.0	-32.5	27.1	0.00e+00	0	40	0	4245684224	36	6073
2026-01-04 05:43:54.90	321.97	22.28	-32.2	-32.7	27.2	0.00e+00	0	40	0	4253024256	36	6187
2026-01-04 05:43:55.91	322.12	22.15	-32.0	-32.4	27.2	0.00e+00	0	40	0	4260364288	36	6031
2026-01-04 05:43:56.92	322.26	22.03	-32.2	-32.7	27.3	0.00e+00	0	40	0	4267704320	36	6183
2026-01-04 05:43:57.93	322.40	21.91	-32.2	-32.6	27.3	0.00e+00	0	40	0	4275044352	36	6159
2026-01-04 05:43:58.94	322.54	21.79	-31.9	-32.4	27.3	0.00e+00	0	40	0	4282384384	36	6003
2026-01-04 05:43:59.95	322.68	21.67	-31.8	-32.3	27.4	0.00e+00	0	40	0	4288675840	36	5898
2026-01-04 05:44:00.96	322.81	21.55	-31.9	-32.4	27.4	0.00e+00	0	40	0	4296015872	36	5969
2026-01-04 05:44:01.97	322.95	21.43	-32.0	-32.4	27.3	0.00e+00	0	40	0	4303355904	36	6027
2026-01-04 05:44:02.98	323.09	21.31	-31.7	-32.2	27.2	0.00e+00	0	40	0	4310695936	36	5854
2026-01-04 05:44:03.98	323.22	21.19	-31.7	-32.2	27.1	0.00e+00	0	40	0	4318035968	36	5885
2026-01-04 05:44:04.99	323.35	21.08	-31.9	-32.4	27.1	0.00e+00	0	40	0	4325376000	36	5985
2026-01-04 05:44:06.01	323.49	20.96	-31.9	-32.4	27.1	0.00e+00	0	40	0	4332716032	36	5976
2026-01-04 05:44:07.01	323.62	20.84	-32.1	-32.5	27.0	0.00e+00	0	40	0	4340056064	36	6098
2026-01-04 05:44:08.02	323.75	20.72	-32.2	-32.7	26.9	0.00e+00	0	40	0	4347396096	36	6224
2026-01-04 05:44:09.03	323.88	20.61	-32.5	-32.9	26.8	0.00e+00	0	40	0	4354736128	36	6371
2026-01-04 05:44:10.04	324.01	20.49	-32.5	-33.0	26.8	0.00e+00	0	40	0	4362076160	38	5752
2026-01-04 05:44:11.05	324.14	20.37	-32.5	-33.0	26.8	0.00e+00	0	40	0	4369416192	38	5726
2026-01-04 05:44:12.06	324.26	20.26	-32.7	-33.2	26.8	0.00e+00	0	40	0	4376756224	38	5874
2026-01-04 05:44:13.07	324.39	20.14	-32.8	-33.3	26.7	0.00e+00	0	40	0	4384096256	38	5932
2026-01-04 05:44:14.08	324.51	20.03	-32.7	-33.1	26.6	0.00e+00	0	40	0	4391436288	38	5808
2026-01-04 05:44:15.09	324.64	19.91	-32.7	-33.2	26.7	0.00e+00	0	40	0	4398776320	38	5833
2026-01-04 05:44:16.10	324.76	19.80	-32.5	-32.9	26.6	0.00e+00	0	40	0	4406116352	38	5682
2026-01-04 05:44:17.11	324.88	19.69	-32.4	-32.9	26.8	0.00e+00	0	40	0	4412407808	38	5656
2026-01-04 05:44:18.12	325.01	19.57	-32.8	-33.2	26.8	0.00e+00	0	40	0	4419747840	38	5879
2026-01-04 05:44:19.13	325.13	19.46	-32.9	-33.4	26.7	0.00e+00	0	40	0	4428136448	38	5998
2026-01-04 05:44:20.14	325.25	19.35	-32.9	-33.4	26.6	0.00e+00	0	40	0	4434427904	38	6008
2026-01-04 05:44:21.15	325.37	19.24	-32.8	-33.3	26.6	0.00e+00	0	40	0	4441767936	38	5920
2026-01-04 05:44:22.16	325.48	19.13	-33.0	-33.4	26.5	0.00e+00	0	40	0	4449107968	38	6024
2026-01-04 05:44:23.17	325.60	19.01	-32.9	-33.4	26.3	0.00e+00	0	40	0	4456448000	38	5991
2026-01-04 05:44:24.18	325.72	18.90	-32.8	-33.2	26.5	0.00e+00	0	40	0	4463788032	38	5893
2026-01-04 05:44:25.19	325.83	18.79	-32.8	-33.3	26.5	0.00e+00	0	40	0	4471128064	38	5903
2026-01-04 05:44:26.20	325.95	18.68	-33.0	-33.5	26.6	0.00e+00	0	40	0	4478468096	38	6039
2026-01-04 05:44:27.21	326.06	18.57	-33.0	-33.5	26.5	0.00e+00	0	40	0	4485808128	38	6095
2026-01-04 05:44:28.22	326.18	18.46	-32.7	-33.1	26.6	0.00e+00	0	40	0	4493148160	38	5823
2026-01-04 05:44:29.23	326.29	18.36	-32.8	-33.2	26.6	0.00e+00	0	40	0	4500488192	38	5879
2026-01-04 05:44:30.24	326.40	18.25	-32.6	-33.1	26.5	0.00e+00	0	40	0	4507828224	38	5779
2026-01-04 05:44:31.25	326.51	18.14	-32.7	-33.2	26.5	0.00e+00	0	40	0	4515168256	38	5858
2026-01-04 05:44:32.26	326.62	18.03	-32.9	-33.4	26.3	0.00e+00	0	40	0	4522508288	38	6008
2026-01-04 05:44:33.27	326.73	17.92	-33.1	-33.6	26.4	0.00e+00	0	40	0	4529848320	38	6144
2026-01-04 05:44:34.28	326.84	17.82	-33.0	-33.5	26.2	0.00e+00	0	40	0	4537188352	38	6041
2026-01-04 05:44:35.29	326.95	17.71	-32.8	-33.3	26.3	0.00e+00	0	40	0	4544528384	38	5903
2026-01-04 05:44:36.30	327.06	17.60	-32.8	-33.3	26.3	0.00e+00	0	40	0	4551868416	38	5943
2026-01-04 05:44:37.31	327.16	17.50	-32.8	-33.3	26.1	0.00e+00	0	40	0	4559208448	38	5931
2026-01-04 05:44:38.32	327.27	17.39	-32.9	-33.4	26.3	0.00e+00	0	40	0	4565499904	38	6018
2026-01-04 05:44:39.33	327.38	17.29	-33.1	-33.6	26.1	0.00e+00	0	40	0	4573888512	38	6146
2026-01-04 05:44:40.34	327.48	17.18	-33.0	-33.5	26.1	0.00e+00	0	40	0	4581228544	38	6036
2026-01-04 05:44:41.35	327.58	17.08	-33.1	-33.6	26.0	0.00e+00	0	40	0	4587520000	38	6141
2026-01-04 05:44:42.36	327.69	16.97	-33.1	-33.6	26.1	0.00e+00	0	40	0	4594860032	38	6136
2026-01-04 05:44:43.37	327.79	16.87	-33.3	-33.8	26.1	0.00e+00	0	40	0	4602200064	38	6274
2026-01-04 05:44:44.38	327.89	16.77	-33.4	-33.9	26.0	0.00e+00	0	40	0	4609540096	38	6347
