passes_logs/2026/01/04/R4.6S_Anadyr/R4.6S_Anadyr__20260104_112954_SUOMI_NPP_rec.log

#Pass ID: 20260104_112954_SUOMI NPP
#Satellite: SUOMI NPP
#Configuration: NPP
#almurnet v.1.7.20251203
#Start time: 2026-01-04 11:29:58

#Version: 2.2.20231116
#Station: R4.6S_Anadyr
#Location: 177.4865 lon 64.73178 lat
#TLE: 1 37849U 11061A   26001.07732418  .00000182  00000+0  10735-3 0  9990
#TLE: 2 37849  98.7795 303.2470 0002580  87.2016 272.9455 14.19520779734739

#Time	Az	El	Level	Level2	SNR	BER	BlckErr	Temp	State	Recorded	gain1	gain2
2026-01-04 11:29:58.19	21.56	0.13	-51.4	-65.2	3.3	1.54e+00	0	39	0	0	60	65728
2026-01-04 11:29:59.20	21.66	0.16	-50.3	-65.5	3.6	1.51e+00	0	39	104	0	60	67871
2026-01-04 11:30:00.21	21.76	0.20	-49.9	-65.2	3.6	1.51e+00	0	39	104	0	60	65841
2026-01-04 11:30:01.21	21.86	0.24	-50.0	-65.2	3.6	1.51e+00	0	39	104	0	60	66144
2026-01-04 11:30:02.22	21.96	0.28	-49.9	-65.2	3.6	1.51e+00	0	39	104	0	60	65435
2026-01-04 11:30:03.23	22.06	0.31	-49.9	-65.1	3.6	1.51e+00	0	39	104	0	60	65002
2026-01-04 11:30:04.24	22.17	0.35	-49.8	-65.0	3.6	1.51e+00	0	39	104	0	60	64044
2026-01-04 11:30:05.25	22.27	0.39	-49.7	-64.9	3.6	1.51e+00	0	39	104	0	60	63262
2026-01-04 11:30:06.26	22.37	0.43	-49.6	-64.8	3.6	1.51e+00	0	39	104	0	60	62878
2026-01-04 11:30:07.27	22.47	0.47	-49.6	-64.8	3.6	1.51e+00	0	39	104	0	60	62582
2026-01-04 11:30:08.28	22.58	0.50	-49.5	-64.7	3.6	1.51e+00	0	39	104	0	60	61981
2026-01-04 11:30:09.29	22.68	0.54	-49.4	-64.6	3.6	1.51e+00	0	39	104	0	60	61339
2026-01-04 11:30:10.30	22.78	0.58	-49.2	-64.3	3.6	1.51e+00	0	39	104	0	60	59577
2026-01-04 11:30:11.31	22.89	0.62	-48.9	-64.1	3.6	1.51e+00	0	39	104	0	60	57729
2026-01-04 11:30:12.32	22.99	0.65	-48.0	-63.2	3.6	1.51e+00	0	39	104	0	60	51949
2026-01-04 11:30:13.33	23.10	0.69	-47.9	-63.1	3.6	1.51e+00	0	39	104	0	60	51387
2026-01-04 11:30:14.34	23.20	0.73	-47.9	-63.0	3.6	1.51e+00	0	39	104	0	60	51352
2026-01-04 11:30:15.35	23.31	0.77	-47.9	-63.1	3.6	1.51e+00	0	39	104	0	60	51529
2026-01-04 11:30:16.36	23.41	0.80	-47.9	-63.1	3.6	1.51e+00	0	39	104	0	60	51379
2026-01-04 11:30:17.37	23.52	0.84	-47.9	-63.1	3.6	1.51e+00	0	39	104	0	60	51543
2026-01-04 11:30:18.37	23.62	0.88	-47.9	-63.1	3.6	1.51e+00	0	39	104	0	60	51620
2026-01-04 11:30:19.38	23.73	0.91	-47.9	-63.0	3.6	1.51e+00	0	39	104	0	60	51173
2026-01-04 11:30:20.40	23.83	0.95	-47.9	-63.1	3.5	1.51e+00	0	39	104	0	60	51360
2026-01-04 11:30:21.41	23.94	0.99	-47.9	-63.0	3.6	1.51e+00	0	39	104	0	60	51075
2026-01-04 11:30:22.42	24.05	1.03	-47.9	-63.1	3.6	1.51e+00	0	39	104	0	60	51470
2026-01-04 11:30:23.43	24.15	1.06	-47.9	-63.0	3.6	1.51e+00	0	39	104	0	60	51202
2026-01-04 11:30:24.43	24.26	1.10	-47.9	-63.0	3.6	1.51e+00	0	39	104	0	60	51336
2026-01-04 11:30:25.45	24.37	1.14	-47.9	-63.0	3.6	1.51e+00	0	39	104	0	60	51336
2026-01-04 11:30:26.46	24.48	1.18	-47.9	-63.0	3.6	1.51e+00	0	39	104	0	60	51206
2026-01-04 11:30:27.47	24.58	1.21	-47.9	-63.0	3.6	1.51e+00	0	39	104	0	60	51243
2026-01-04 11:30:28.48	24.69	1.25	-47.9	-63.1	3.6	1.51e+00	0	39	104	0	60	51682
2026-01-04 11:30:29.49	24.80	1.29	-47.9	-63.0	3.6	1.51e+00	0	39	104	0	60	51270
2026-01-04 11:30:30.49	24.91	1.32	-47.9	-63.1	3.6	1.51e+00	0	39	104	0	60	51455
2026-01-04 11:30:31.50	25.02	1.36	-47.9	-63.0	3.6	1.51e+00	0	39	104	0	60	51159
2026-01-04 11:30:32.51	25.13	1.40	-47.9	-63.1	3.6	1.51e+00	0	39	104	0	60	51379
2026-01-04 11:30:33.52	25.23	1.43	-47.9	-63.0	3.6	1.51e+00	0	39	104	0	60	51215
2026-01-04 11:30:34.53	25.34	1.47	-47.9	-63.1	3.6	1.51e+00	0	39	104	0	60	51730
2026-01-04 11:30:35.54	25.45	1.51	-47.9	-63.1	3.6	1.51e+00	0	39	104	0	60	51589
2026-01-04 11:30:36.55	25.56	1.55	-47.9	-63.1	3.6	1.51e+00	0	39	104	0	60	51636
2026-01-04 11:30:37.56	25.68	1.58	-47.9	-63.1	3.6	1.51e+00	0	39	104	0	60	51561
2026-01-04 11:30:38.57	25.79	1.62	-47.9	-63.1	3.6	1.51e+00	0	39	104	0	60	51496
2026-01-04 11:30:39.58	25.90	1.66	-47.9	-63.0	3.6	1.51e+00	0	39	104	0	60	51295
2026-01-04 11:30:40.59	26.01	1.69	-47.9	-63.1	3.6	1.51e+00	0	39	104	0	60	51470
2026-01-04 11:30:41.60	26.12	1.73	-47.9	-63.0	3.6	1.51e+00	0	39	104	0	60	51204
2026-01-04 11:30:42.60	26.23	1.77	-47.9	-63.1	3.6	1.51e+00	0	39	104	0	60	51503
2026-01-04 11:30:43.61	26.34	1.80	-47.9	-63.1	3.6	1.51e+00	0	39	104	0	60	51612
2026-01-04 11:30:44.62	26.45	1.84	-47.9	-63.1	3.6	1.51e+00	0	39	104	0	60	51368
2026-01-04 11:30:45.63	26.57	1.87	-47.9	-63.1	3.6	1.51e+00	0	39	104	0	60	51465
2026-01-04 11:30:46.64	26.68	1.91	-47.9	-63.0	3.6	1.51e+00	0	39	104	0	60	51144
2026-01-04 11:30:47.65	26.79	1.95	-47.9	-63.0	3.6	1.51e+00	0	39	104	0	60	51042
2026-01-04 11:30:48.66	26.91	1.98	-47.9	-63.0	3.6	1.51e+00	0	39	104	0	60	51162
2026-01-04 11:30:49.67	27.02	2.02	-47.9	-63.0	3.6	1.51e+00	0	39	104	0	60	50928
2026-01-04 11:30:50.68	27.13	2.06	-47.9	-63.0	3.6	1.51e+00	0	40	104	0	60	51338
2026-01-04 11:30:51.69	27.25	2.09	-47.9	-63.0	3.6	1.51e+00	0	39	104	0	60	51217
2026-01-04 11:30:52.70	27.36	2.13	-47.9	-63.0	3.6	1.51e+00	0	40	104	0	60	51260
2026-01-04 11:30:53.71	27.48	2.17	-47.9	-63.0	3.6	1.51e+00	0	40	104	0	60	50939
2026-01-04 11:30:54.72	27.59	2.20	-47.9	-63.0	3.6	1.51e+00	0	39	104	0	60	51121
2026-01-04 11:30:55.73	27.71	2.24	-47.9	-63.1	3.6	1.51e+00	0	40	104	0	60	51496
2026-01-04 11:30:56.74	27.82	2.27	-47.9	-63.1	3.6	1.51e+00	0	39	104	0	60	51371
2026-01-04 11:30:57.75	27.94	2.31	-47.9	-63.0	3.6	1.51e+00	0	39	104	0	60	51345
2026-01-04 11:30:58.76	28.05	2.35	-47.9	-63.0	3.6	1.51e+00	0	40	104	0	60	51211
2026-01-04 11:30:59.77	28.17	2.38	-47.9	-62.9	3.6	1.51e+00	0	39	104	0	60	50723
2026-01-04 11:31:00.78	28.29	2.42	-47.9	-63.0	3.6	1.51e+00	0	39	104	0	60	50942
2026-01-04 11:31:01.79	28.40	2.45	-47.9	-62.9	3.6	1.51e+00	0	40	104	0	60	50689
2026-01-04 11:31:02.80	28.52	2.49	-47.9	-63.0	3.6	1.51e+00	0	40	104	0	60	51337
2026-01-04 11:31:03.81	28.64	2.52	-47.9	-63.0	3.6	1.51e+00	0	40	104	0	60	50871
2026-01-04 11:31:04.82	28.76	2.56	-47.9	-63.1	3.6	1.51e+00	0	40	104	0	60	51724
2026-01-04 11:31:05.83	28.87	2.60	-47.9	-62.8	3.6	1.51e+00	0	40	104	0	60	50142
2026-01-04 11:31:06.84	28.99	2.63	-47.8	-62.2	3.6	1.51e+00	0	40	104	0	60	46500
2026-01-04 11:31:07.85	29.11	2.67	-47.8	-61.9	3.6	1.51e+00	0	40	104	0	60	45079
2026-01-04 11:31:08.86	29.23	2.70	-47.8	-62.7	3.6	1.51e+00	0	40	104	0	60	49442
2026-01-04 11:31:09.87	29.35	2.74	-47.8	-60.6	3.6	1.51e+00	0	39	104	0	60	38941
2026-01-04 11:31:10.88	29.47	2.77	-47.1	-54.5	7.5	4.25e-01	0	40	0	0	60	19115
2026-01-04 11:31:11.89	29.59	2.81	-45.7	-49.8	12.4	6.77e-03	12	39	0	2097152	60	11114
2026-01-04 11:31:12.90	29.71	2.84	-43.8	-46.4	15.6	0.00e+00	0	39	0	3145728	60	7523
2026-01-04 11:31:13.91	29.83	2.88	-42.9	-45.0	16.9	0.00e+00	91	39	0	5242880	60	6457
2026-01-04 11:31:14.92	29.95	2.91	-42.1	-44.0	17.9	0.00e+00	0	40	0	7340032	58	6395
2026-01-04 11:31:15.93	30.07	2.95	-42.8	-44.9	17.1	0.00e+00	0	39	0	9437184	58	7131
2026-01-04 11:31:16.94	30.19	2.98	-43.5	-45.8	16.1	0.00e+00	0	40	0	11534336	58	7942
2026-01-04 11:31:17.95	30.31	3.02	-45.5	-49.3	12.0	3.00e-06	0	40	0	12582912	60	10597
2026-01-04 11:31:18.96	30.43	3.05	-43.1	-45.2	17.1	3.89e-05	69	40	0	14680064	60	6591
2026-01-04 11:31:19.97	30.55	3.09	-47.7	-61.8	3.6	1.10e+00	0	40	104	15728640	60	44626
2026-01-04 11:31:20.98	30.68	3.12	-46.6	-51.4	10.4	1.45e+00	92	40	104	15728640	60	13385
2026-01-04 11:31:21.99	30.80	3.16	-43.5	-45.6	17.1	2.06e-04	0	40	0	15728640	60	6861
2026-01-04 11:31:23.00	30.92	3.19	-48.3	-63.0	3.6	7.12e-01	0	39	104	17825792	60	51316
2026-01-04 11:31:24.01	31.04	3.23	-44.1	-46.6	15.6	1.47e+00	0	40	104	17825792	60	7706
2026-01-04 11:31:25.02	31.17	3.26	-43.4	-45.4	16.8	0.00e+00	0	40	0	17825792	60	6752
2026-01-04 11:31:26.03	31.29	3.30	-44.5	-47.1	15.9	0.00e+00	38	40	0	19922944	60	8226
2026-01-04 11:31:27.04	31.41	3.33	-43.9	-46.2	16.2	0.00e+00	0	40	0	22020096	60	7396
2026-01-04 11:31:28.05	31.54	3.37	-44.1	-46.5	15.9	0.00e+00	30	40	0	23068672	60	7612
2026-01-04 11:31:29.06	31.66	3.40	-44.2	-46.6	15.8	0.00e+00	0	39	0	25165824	60	7738
2026-01-04 11:31:30.07	31.79	3.43	-44.5	-47.2	15.7	0.00e+00	57	40	0	27262976	60	8236
2026-01-04 11:31:31.08	31.91	3.47	-43.7	-45.8	16.8	0.00e+00	0	40	0	29360128	60	7026
2026-01-04 11:31:32.08	32.04	3.50	-43.8	-46.0	16.7	0.00e+00	0	40	0	31457280	60	7178
2026-01-04 11:31:33.09	32.16	3.54	-43.1	-45.0	17.7	0.00e+00	0	40	0	32505856	60	6402
2026-01-04 11:31:34.10	32.29	3.57	-44.3	-46.7	16.0	0.00e+00	0	39	0	34603008	60	7814
2026-01-04 11:31:35.11	32.41	3.60	-43.9	-46.2	16.3	0.00e+00	65	39	0	36700160	60	7391
2026-01-04 11:31:36.12	32.54	3.64	-43.3	-45.2	17.2	0.00e+00	0	39	0	38797312	60	6608
2026-01-04 11:31:37.13	32.66	3.67	-43.7	-45.8	16.5	0.00e+00	91	39	0	40894464	60	7028
2026-01-04 11:31:38.14	32.79	3.70	-43.8	-45.9	17.1	0.00e+00	0	39	0	42991616	60	7144
2026-01-04 11:31:39.15	32.92	3.74	-43.6	-45.7	16.8	0.00e+00	0	39	0	44040192	60	6965
2026-01-04 11:31:40.16	33.05	3.77	-43.7	-45.9	17.2	0.00e+00	0	40	0	46137344	60	7096
2026-01-04 11:31:41.17	33.17	3.81	-43.4	-45.4	17.0	0.00e+00	0	40	0	48234496	60	6750
2026-01-04 11:31:42.18	33.30	3.84	-44.2	-46.6	16.6	0.00e+00	18	40	0	50331648	60	7685
2026-01-04 11:31:43.18	33.43	3.87	-43.7	-45.8	16.8	0.00e+00	0	40	0	52428800	60	7077
2026-01-04 11:31:44.19	33.56	3.91	-43.9	-46.1	16.5	0.00e+00	90	40	0	53477376	60	7265
2026-01-04 11:31:45.20	33.69	3.94	-43.5	-45.5	17.4	0.00e+00	0	40	0	55574528	60	6839
2026-01-04 11:31:46.21	33.81	3.97	-43.8	-45.9	16.9	0.00e+00	0	40	0	57671680	60	7164
2026-01-04 11:31:47.21	33.94	4.00	-43.6	-45.7	17.0	0.00e+00	0	40	0	59768832	60	6978
2026-01-04 11:31:48.22	34.07	4.04	-43.0	-44.9	17.7	0.00e+00	0	40	0	61865984	58	7138
2026-01-04 11:31:49.23	34.20	4.07	-43.0	-44.8	17.8	0.00e+00	71	40	0	62914560	58	7080
2026-01-04 11:31:50.24	34.33	4.10	-42.5	-44.1	18.4	0.00e+00	0	40	0	65011712	58	6529
2026-01-04 11:31:51.25	34.46	4.14	-42.2	-43.9	18.7	0.00e+00	92	40	0	67108864	58	6326
2026-01-04 11:31:52.26	34.59	4.17	-42.4	-44.1	18.4	0.00e+00	0	40	0	69206016	58	6501
2026-01-04 11:31:53.27	34.72	4.20	-42.2	-43.8	18.8	0.00e+00	0	40	0	71303168	58	6292
2026-01-04 11:31:54.28	34.86	4.23	-42.4	-44.1	18.5	0.00e+00	0	40	0	72351744	58	6477
2026-01-04 11:31:55.29	34.99	4.27	-42.7	-44.5	18.0	0.00e+00	0	40	0	74448896	58	6815
2026-01-04 11:31:56.30	35.12	4.30	-42.3	-43.9	18.8	0.00e+00	0	40	0	76546048	58	6350
2026-01-04 11:31:57.31	35.25	4.33	-42.2	-43.8	18.8	0.00e+00	0	40	0	78643200	56	7009
2026-01-04 11:31:58.31	35.38	4.36	-42.1	-43.6	18.9	0.00e+00	69	40	0	80740352	56	6917
2026-01-04 11:31:59.32	35.51	4.39	-42.2	-43.8	18.9	0.00e+00	0	40	0	81788928	56	7020
2026-01-04 11:32:00.33	35.65	4.43	-42.2	-43.8	18.7	0.00e+00	71	40	0	83886080	56	7078
2026-01-04 11:32:01.34	35.78	4.46	-42.1	-43.6	19.0	0.00e+00	0	40	0	85983232	56	6922
2026-01-04 11:32:02.34	35.91	4.49	-42.2	-43.8	18.8	0.00e+00	0	40	0	88080384	56	7062
2026-01-04 11:32:03.36	36.05	4.52	-41.8	-43.3	19.3	0.00e+00	0	40	0	90177536	56	6640
2026-01-04 11:32:04.37	36.18	4.55	-41.4	-42.8	19.7	0.00e+00	0	40	0	91226112	56	6311
2026-01-04 11:32:05.37	36.31	4.58	-41.9	-43.4	19.2	0.00e+00	72	40	0	93323264	56	6713
2026-01-04 11:32:06.38	36.45	4.62	-41.8	-43.3	19.2	0.00e+00	0	40	0	95420416	56	6648
2026-01-04 11:32:07.40	36.59	4.65	-42.1	-43.7	19.2	0.00e+00	92	40	0	97517568	56	6976
2026-01-04 11:32:08.41	36.72	4.68	-42.1	-43.7	19.0	0.00e+00	0	40	0	99614720	56	6951
2026-01-04 11:32:09.42	36.86	4.71	-42.3	-44.0	18.6	0.00e+00	0	40	0	100663296	56	7177
2026-01-04 11:32:10.42	36.99	4.74	-42.6	-44.2	18.4	0.00e+00	0	40	0	102760448	56	7418
2026-01-04 11:32:11.43	37.13	4.77	-42.2	-43.8	18.8	0.00e+00	0	40	0	104857600	56	7072
2026-01-04 11:32:12.44	37.26	4.80	-42.5	-44.1	18.5	0.00e+00	12	40	0	106954752	56	7324
2026-01-04 11:32:13.45	37.40	4.83	-42.2	-43.7	19.0	0.00e+00	0	40	0	109051904	56	6993
2026-01-04 11:32:14.46	37.54	4.86	-42.2	-43.8	18.9	0.00e+00	65	40	0	111149056	56	7026
2026-01-04 11:32:15.47	37.67	4.89	-42.2	-43.8	19.0	0.00e+00	0	40	0	112197632	56	7024
2026-01-04 11:32:16.48	37.81	4.92	-42.0	-43.6	19.2	0.00e+00	0	40	0	114294784	56	6861
2026-01-04 11:32:17.49	37.95	4.96	-42.1	-43.6	19.2	0.00e+00	0	40	0	116391936	56	6905
2026-01-04 11:32:18.50	38.09	4.99	-42.0	-43.5	19.2	0.00e+00	0	40	0	118489088	56	6847
2026-01-04 11:32:19.52	38.23	5.02	-41.9	-43.4	19.2	0.00e+00	0	40	0	120586240	56	6766
2026-01-04 11:32:20.53	38.36	5.05	-42.0	-43.5	19.3	0.00e+00	0	40	0	121634816	56	6832
2026-01-04 11:32:21.54	38.50	5.08	-42.0	-43.5	19.2	0.00e+00	72	40	0	123731968	56	6843
2026-01-04 11:32:22.54	38.64	5.11	-42.3	-43.9	18.6	0.00e+00	0	40	0	125829120	56	7117
2026-01-04 11:32:23.55	38.78	5.14	-42.4	-44.0	18.9	0.00e+00	0	40	0	127926272	56	7225
2026-01-04 11:32:24.56	38.92	5.17	-42.1	-43.6	19.2	0.00e+00	0	40	0	130023424	56	6876
2026-01-04 11:32:25.57	39.06	5.19	-42.0	-43.4	19.4	0.00e+00	0	40	0	131072000	56	6761
2026-01-04 11:32:26.58	39.20	5.22	-42.0	-43.5	19.2	0.00e+00	66	40	0	133169152	56	6805
2026-01-04 11:32:27.59	39.34	5.25	-41.9	-43.4	19.4	0.00e+00	0	40	0	135266304	56	6758
2026-01-04 11:32:28.60	39.48	5.28	-42.1	-43.7	19.1	0.00e+00	92	40	0	137363456	56	6928
2026-01-04 11:32:29.61	39.62	5.31	-42.0	-43.5	19.4	0.00e+00	0	40	0	139460608	56	6804
2026-01-04 11:32:30.62	39.76	5.34	-42.0	-43.5	19.3	0.00e+00	0	40	0	140509184	56	6808
2026-01-04 11:32:31.63	39.90	5.37	-42.0	-43.4	19.4	0.00e+00	0	40	0	142606336	56	6766
2026-01-04 11:32:32.64	40.05	5.40	-42.1	-43.6	19.1	0.00e+00	0	40	0	144703488	56	6920
2026-01-04 11:32:33.65	40.19	5.43	-42.3	-43.9	19.0	0.00e+00	0	40	0	146800640	56	7140
2026-01-04 11:32:34.66	40.33	5.46	-42.5	-44.1	18.7	0.00e+00	0	40	0	148897792	56	7324
2026-01-04 11:32:35.67	40.47	5.48	-42.5	-44.2	18.6	0.00e+00	90	40	0	149946368	56	7351
2026-01-04 11:32:36.68	40.62	5.51	-42.5	-44.1	18.9	0.00e+00	0	40	0	152043520	56	7276
2026-01-04 11:32:37.69	40.76	5.54	-42.4	-44.1	18.9	0.00e+00	44	40	0	154140672	56	7255
2026-01-04 11:32:38.70	40.90	5.57	-42.2	-43.8	19.0	0.00e+00	0	40	0	156237824	56	7029
2026-01-04 11:32:39.70	41.04	5.60	-42.3	-43.8	19.0	0.00e+00	0	40	0	158334976	56	7066
2026-01-04 11:32:40.71	41.19	5.62	-42.2	-43.8	19.0	0.00e+00	41	40	0	159383552	56	7039
2026-01-04 11:32:41.72	41.33	5.65	-42.1	-43.7	19.2	0.00e+00	0	40	0	161480704	56	6943
2026-01-04 11:32:42.73	41.48	5.68	-42.0	-43.5	19.2	0.00e+00	60	40	0	163577856	56	6828
2026-01-04 11:32:43.74	41.62	5.71	-42.1	-43.6	19.2	0.00e+00	0	40	0	165675008	56	6892
2026-01-04 11:32:44.74	41.76	5.74	-42.1	-43.6	19.2	0.00e+00	91	40	0	167772160	56	6896
2026-01-04 11:32:45.76	41.91	5.76	-42.1	-43.7	19.0	0.00e+00	0	40	0	168820736	56	6947
2026-01-04 11:32:46.76	42.06	5.79	-42.6	-44.2	18.8	0.00e+00	0	40	0	170917888	56	7403
2026-01-04 11:32:47.77	42.20	5.82	-42.5	-44.2	18.7	0.00e+00	0	40	0	173015040	56	7351
2026-01-04 11:32:48.78	42.35	5.84	-42.5	-44.1	18.8	0.00e+00	0	40	0	175112192	56	7313
2026-01-04 11:32:49.79	42.49	5.87	-43.0	-44.8	18.2	0.00e+00	20	40	0	177209344	58	7014
2026-01-04 11:32:50.80	42.64	5.90	-42.6	-44.2	18.7	0.00e+00	0	40	0	178257920	58	6592
2026-01-04 11:32:51.81	42.79	5.92	-42.8	-44.6	18.4	0.00e+00	76	40	0	180355072	58	6854
2026-01-04 11:32:52.82	42.93	5.95	-42.7	-44.4	18.4	0.00e+00	0	40	0	182452224	58	6709
2026-01-04 11:32:53.83	43.08	5.98	-42.7	-44.4	18.6	0.00e+00	0	40	0	184549376	58	6700
2026-01-04 11:32:54.84	43.23	6.00	-42.7	-44.4	18.6	0.00e+00	0	40	0	186646528	58	6693
2026-01-04 11:32:55.85	43.38	6.03	-42.5	-44.2	18.6	0.00e+00	0	40	0	187695104	58	6574
2026-01-04 11:32:56.86	43.52	6.05	-42.7	-44.4	18.6	0.00e+00	0	40	0	189792256	58	6739
2026-01-04 11:32:57.86	43.67	6.08	-42.5	-44.1	18.8	0.00e+00	0	40	0	191889408	58	6526
2026-01-04 11:32:58.87	43.82	6.11	-42.8	-44.5	18.5	0.00e+00	86	40	0	193986560	58	6803
2026-01-04 11:32:59.88	43.97	6.13	-42.6	-44.3	18.6	0.00e+00	0	40	0	196083712	58	6645
2026-01-04 11:33:00.89	44.12	6.16	-42.5	-44.1	18.8	0.00e+00	41	40	0	197132288	58	6524
2026-01-04 11:33:01.90	44.27	6.18	-42.4	-44.0	18.8	0.00e+00	0	40	0	199229440	58	6412
2026-01-04 11:33:02.91	44.42	6.21	-42.5	-44.1	18.8	0.00e+00	0	40	0	201326592	58	6486
2026-01-04 11:33:03.92	44.57	6.23	-42.4	-44.0	19.0	0.00e+00	0	40	0	203423744	58	6391
2026-01-04 11:33:04.93	44.72	6.26	-42.5	-44.1	18.7	0.00e+00	0	40	0	205520896	58	6507
2026-01-04 11:33:05.94	44.87	6.28	-42.4	-44.0	18.8	0.00e+00	82	40	0	207618048	58	6404
2026-01-04 11:33:06.95	45.02	6.31	-42.2	-43.8	19.2	0.00e+00	0	40	0	208666624	58	6251
2026-01-04 11:33:07.96	45.17	6.33	-42.1	-43.6	19.2	0.00e+00	78	40	0	210763776	58	6172
2026-01-04 11:33:08.97	45.32	6.35	-42.1	-43.7	19.2	0.00e+00	0	40	0	212860928	58	6183
2026-01-04 11:33:09.98	45.47	6.38	-42.1	-43.6	19.3	0.00e+00	0	40	0	214958080	56	6879
2026-01-04 11:33:10.99	45.62	6.40	-42.4	-44.0	19.0	0.00e+00	0	40	0	217055232	56	7185
2026-01-04 11:33:12.00	45.77	6.43	-42.6	-44.2	18.8	0.00e+00	0	40	0	218103808	56	7360
2026-01-04 11:33:13.01	45.93	6.45	-42.6	-44.2	18.7	0.00e+00	40	40	0	220200960	58	6563
2026-01-04 11:33:14.02	46.08	6.47	-43.0	-44.8	18.2	0.00e+00	0	40	0	222298112	58	7011
2026-01-04 11:33:15.02	46.23	6.50	-43.3	-45.2	17.8	0.00e+00	92	40	0	224395264	58	7396
2026-01-04 11:33:16.03	46.38	6.52	-43.4	-45.3	17.6	0.00e+00	0	40	0	226492416	58	7438
2026-01-04 11:33:17.04	46.54	6.54	-43.3	-45.2	17.8	0.00e+00	0	40	0	227540992	58	7357
2026-01-04 11:33:18.05	46.69	6.57	-43.4	-45.3	17.6	0.00e+00	0	40	0	229638144	58	7446
2026-01-04 11:33:19.06	46.84	6.59	-43.2	-45.1	17.9	0.00e+00	0	40	0	231735296	58	7280
2026-01-04 11:33:20.07	47.00	6.61	-43.3	-45.2	17.9	0.00e+00	62	40	0	233832448	58	7354
2026-01-04 11:33:21.08	47.15	6.63	-43.2	-45.1	18.0	0.00e+00	0	40	0	235929600	58	7266
2026-01-04 11:33:22.09	47.30	6.66	-43.0	-44.8	18.3	0.00e+00	47	40	0	236978176	58	7063
2026-01-04 11:33:23.10	47.46	6.68	-42.8	-44.5	18.3	0.00e+00	33	40	0	239075328	58	6831
2026-01-04 11:33:24.11	47.61	6.70	-42.9	-44.7	18.2	0.00e+00	0	40	0	241172480	58	6954
2026-01-04 11:33:25.12	47.77	6.72	-42.9	-44.7	18.4	0.00e+00	0	40	0	243269632	58	6945
2026-01-04 11:33:26.13	47.92	6.74	-43.1	-44.9	18.3	0.00e+00	0	40	0	245366784	58	7118
2026-01-04 11:33:27.14	48.08	6.76	-43.0	-44.7	18.2	0.00e+00	30	40	0	246415360	58	6980
2026-01-04 11:33:28.15	48.23	6.79	-42.4	-44.0	18.9	0.00e+00	0	40	0	248512512	58	6411
2026-01-04 11:33:29.16	48.39	6.81	-42.4	-44.0	18.9	0.00e+00	92	40	0	250609664	58	6416
2026-01-04 11:33:30.17	48.54	6.83	-42.4	-44.0	18.9	0.00e+00	0	40	0	252706816	58	6442
2026-01-04 11:33:31.18	48.70	6.85	-42.5	-44.1	19.0	0.00e+00	33	40	0	254803968	58	6516
2026-01-04 11:33:32.19	48.86	6.87	-42.2	-43.7	19.2	0.00e+00	0	40	0	255852544	58	6219
2026-01-04 11:33:33.19	49.01	6.89	-42.2	-43.7	19.3	0.00e+00	0	40	0	257949696	58	6206
2026-01-04 11:33:34.20	49.17	6.91	-42.2	-43.7	19.2	0.00e+00	70	40	0	260046848	58	6196
2026-01-04 11:33:35.21	49.33	6.93	-42.0	-43.5	19.5	0.00e+00	0	40	0	262144000	58	6073
2026-01-04 11:33:36.22	49.48	6.95	-42.3	-43.8	19.1	0.00e+00	91	40	0	264241152	58	6292
2026-01-04 11:33:37.23	49.64	6.97	-42.4	-43.9	19.1	0.00e+00	0	40	0	265289728	58	6374
2026-01-04 11:33:38.24	49.80	6.99	-42.7	-44.4	18.6	0.00e+00	0	40	0	267386880	58	6713
2026-01-04 11:33:39.25	49.96	7.01	-42.8	-44.5	18.6	0.00e+00	0	40	0	269484032	58	6770
2026-01-04 11:33:40.26	50.11	7.03	-43.0	-44.7	18.2	0.00e+00	0	40	0	271581184	58	6995
2026-01-04 11:33:41.27	50.27	7.05	-43.2	-45.1	17.9	0.00e+00	0	40	0	273678336	58	7265
2026-01-04 11:33:42.28	50.43	7.07	-43.2	-45.0	18.0	0.00e+00	0	40	0	275775488	58	7192
2026-01-04 11:33:43.29	50.59	7.09	-43.3	-45.1	18.0	0.00e+00	70	40	0	276824064	58	7281
2026-01-04 11:33:44.30	50.75	7.11	-42.9	-44.6	18.4	0.00e+00	0	40	0	278921216	58	6851
2026-01-04 11:33:45.31	50.91	7.12	-42.8	-44.5	18.7	0.00e+00	15	40	0	281018368	58	6803
2026-01-04 11:33:46.32	51.07	7.14	-42.6	-44.2	18.6	0.00e+00	0	40	0	283115520	58	6582
2026-01-04 11:33:47.33	51.23	7.16	-42.4	-44.0	19.0	0.00e+00	0	40	0	285212672	58	6423
2026-01-04 11:33:48.34	51.39	7.18	-42.1	-43.6	19.5	0.00e+00	0	40	0	286261248	58	6137
2026-01-04 11:33:49.35	51.55	7.20	-42.0	-43.5	19.6	0.00e+00	0	40	0	288358400	58	6071
2026-01-04 11:33:50.36	51.71	7.21	-42.1	-43.6	19.4	0.00e+00	70	40	0	290455552	58	6144
2026-01-04 11:33:51.37	51.87	7.23	-42.0	-43.5	19.5	0.00e+00	0	40	0	292552704	58	6079
2026-01-04 11:33:52.38	52.03	7.25	-42.0	-43.5	19.5	0.00e+00	72	40	0	294649856	58	6081
2026-01-04 11:33:53.39	52.19	7.27	-41.9	-43.4	19.6	0.00e+00	0	40	0	295698432	58	5991
2026-01-04 11:33:54.40	52.35	7.28	-42.0	-43.5	19.5	0.00e+00	0	40	0	297795584	58	6063
2026-01-04 11:33:55.41	52.51	7.30	-42.1	-43.6	19.5	0.00e+00	0	40	0	299892736	58	6140
2026-01-04 11:33:56.42	52.67	7.32	-41.7	-43.1	19.9	0.00e+00	0	40	0	301989888	56	6487
2026-01-04 11:33:57.43	52.83	7.33	-41.7	-43.1	19.9	0.00e+00	61	40	0	304087040	56	6496
2026-01-04 11:33:58.44	52.99	7.35	-41.6	-43.0	20.0	0.00e+00	0	40	0	305135616	56	6401
2026-01-04 11:33:59.45	53.15	7.37	-41.7	-43.1	19.9	0.00e+00	66	40	0	307232768	56	6494
2026-01-04 11:34:00.46	53.32	7.38	-41.9	-43.3	19.6	0.00e+00	0	40	0	309329920	56	6692
2026-01-04 11:34:01.46	53.48	7.40	-41.8	-43.2	19.8	0.00e+00	0	40	0	311427072	56	6599
2026-01-04 11:34:02.47	53.64	7.41	-41.8	-43.2	19.9	0.00e+00	0	40	0	313524224	56	6542
2026-01-04 11:34:03.48	53.80	7.43	-41.8	-43.2	19.8	0.00e+00	0	40	0	314572800	56	6562
2026-01-04 11:34:04.49	53.96	7.44	-41.8	-43.2	19.9	0.00e+00	66	40	0	316669952	56	6555
2026-01-04 11:34:05.50	54.13	7.46	-41.8	-43.2	19.9	0.00e+00	0	40	0	318767104	56	6552
2026-01-04 11:34:06.50	54.29	7.47	-41.5	-42.9	20.1	0.00e+00	84	40	0	320864256	56	6321
2026-01-04 11:34:07.51	54.45	7.49	-41.2	-42.5	20.4	0.00e+00	0	40	0	322961408	56	6084
2026-01-04 11:34:08.52	54.61	7.50	-41.4	-42.7	20.2	0.00e+00	0	40	0	324009984	56	6240
2026-01-04 11:34:09.53	54.78	7.52	-41.6	-42.9	20.1	0.00e+00	0	40	0	326107136	56	6384
2026-01-04 11:34:10.54	54.94	7.53	-41.5	-42.8	20.2	0.00e+00	0	40	0	328204288	56	6266
2026-01-04 11:34:11.54	55.10	7.54	-41.9	-43.3	19.7	0.00e+00	0	40	0	330301440	56	6651
2026-01-04 11:34:12.55	55.27	7.56	-41.9	-43.3	19.6	0.00e+00	0	40	0	332398592	56	6666
2026-01-04 11:34:13.56	55.43	7.57	-42.2	-43.7	19.4	0.00e+00	62	40	0	333447168	56	6995
2026-01-04 11:34:14.57	55.59	7.59	-42.3	-43.8	19.3	0.00e+00	0	40	0	335544320	56	7073
2026-01-04 11:34:15.58	55.76	7.60	-42.6	-44.2	19.0	0.00e+00	84	40	0	337641472	56	7345
2026-01-04 11:34:16.59	55.92	7.61	-42.5	-44.1	19.0	0.00e+00	0	40	0	339738624	56	7287
2026-01-04 11:34:17.60	56.09	7.62	-42.4	-43.9	19.1	0.00e+00	0	40	0	341835776	56	7163
2026-01-04 11:34:18.60	56.25	7.64	-42.4	-43.9	19.2	0.00e+00	0	40	0	342884352	56	7135
2026-01-04 11:34:19.62	56.42	7.65	-42.3	-43.8	19.3	0.00e+00	0	40	0	344981504	56	7066
2026-01-04 11:34:20.63	56.58	7.66	-42.4	-44.0	19.1	0.00e+00	91	40	0	347078656	56	7171
2026-01-04 11:34:21.64	56.75	7.67	-42.3	-43.9	19.1	0.00e+00	0	40	0	349175808	56	7097
2026-01-04 11:34:22.65	56.91	7.68	-42.5	-44.1	19.0	0.00e+00	82	40	0	351272960	56	7276
2026-01-04 11:34:23.66	57.08	7.70	-42.5	-44.1	19.0	0.00e+00	0	40	0	353370112	56	7287
2026-01-04 11:34:24.67	57.24	7.71	-42.6	-44.2	18.9	0.00e+00	0	40	0	354418688	56	7364
2026-01-04 11:34:25.68	57.41	7.72	-42.6	-44.2	18.9	0.00e+00	0	40	0	356515840	56	7382
2026-01-04 11:34:26.69	57.57	7.73	-42.7	-44.3	18.7	0.00e+00	0	40	0	358612992	56	7466
2026-01-04 11:34:27.69	57.74	7.74	-42.7	-44.3	18.7	0.00e+00	16	40	0	360710144	56	7503
2026-01-04 11:34:28.70	57.90	7.75	-42.7	-44.3	18.8	0.00e+00	0	40	0	361758720	56	7438
2026-01-04 11:34:29.71	58.07	7.76	-42.6	-44.2	18.9	0.00e+00	75	40	0	363855872	56	7351
2026-01-04 11:34:30.72	58.24	7.77	-42.8	-44.4	18.6	0.00e+00	0	40	0	365953024	58	6767
2026-01-04 11:34:31.73	58.40	7.78	-42.9	-44.7	18.4	0.00e+00	0	40	0	368050176	58	6949
2026-01-04 11:34:32.74	58.57	7.79	-43.0	-44.7	18.3	0.00e+00	0	40	0	370147328	58	7005
2026-01-04 11:34:33.75	58.74	7.80	-43.2	-45.1	18.0	0.00e+00	0	40	0	372244480	58	7289
2026-01-04 11:34:34.76	58.90	7.81	-43.5	-45.4	17.7	0.00e+00	15	40	0	373293056	58	7575
2026-01-04 11:34:35.76	59.07	7.82	-43.7	-45.7	17.5	0.00e+00	0	40	0	375390208	60	6972
2026-01-04 11:34:36.77	59.23	7.83	-43.7	-45.7	17.6	0.00e+00	85	40	0	377487360	60	6939
2026-01-04 11:34:37.78	59.40	7.84	-43.4	-45.3	17.9	0.00e+00	0	40	0	379584512	60	6656
2026-01-04 11:34:38.79	59.57	7.85	-43.4	-45.3	18.0	0.00e+00	0	40	0	381681664	60	6650
2026-01-04 11:34:39.80	59.74	7.85	-43.1	-44.9	18.3	0.00e+00	0	40	0	382730240	60	6368
2026-01-04 11:34:40.81	59.90	7.86	-43.1	-44.9	18.3	0.00e+00	0	40	0	384827392	60	6342
2026-01-04 11:34:41.82	60.07	7.87	-43.1	-44.9	18.4	0.00e+00	70	40	0	386924544	60	6365
2026-01-04 11:34:42.83	60.24	7.88	-43.2	-45.0	18.1	0.00e+00	0	40	0	389021696	60	6423
2026-01-04 11:34:43.84	60.41	7.88	-43.4	-45.3	18.0	0.00e+00	73	40	0	391118848	60	6636
2026-01-04 11:34:44.85	60.57	7.89	-43.4	-45.2	17.9	0.00e+00	0	40	0	392167424	60	6594
2026-01-04 11:34:45.86	60.74	7.90	-43.2	-45.0	18.2	0.00e+00	0	40	0	394264576	60	6432
2026-01-04 11:34:46.87	60.91	7.91	-43.2	-45.0	18.1	0.00e+00	0	40	0	396361728	60	6411
2026-01-04 11:34:47.88	61.08	7.91	-43.1	-44.9	18.3	0.00e+00	0	40	0	398458880	60	6318
2026-01-04 11:34:48.89	61.24	7.92	-43.1	-44.9	18.2	0.00e+00	0	40	0	400556032	60	6328
2026-01-04 11:34:49.90	61.41	7.93	-42.9	-44.6	18.5	0.00e+00	0	40	0	401604608	60	6155
2026-01-04 11:34:50.91	61.58	7.93	-43.0	-44.7	18.5	0.00e+00	69	40	0	403701760	60	6184
2026-01-04 11:34:51.92	61.75	7.94	-42.8	-44.5	18.6	0.00e+00	0	40	0	405798912	60	6058
2026-01-04 11:34:52.93	61.92	7.94	-42.9	-44.6	18.5	0.00e+00	90	40	0	407896064	60	6173
2026-01-04 11:34:53.94	62.08	7.95	-42.5	-44.1	18.9	0.00e+00	0	40	0	409993216	58	6478
2026-01-04 11:34:54.94	62.25	7.95	-42.5	-44.1	18.9	0.00e+00	0	40	0	411041792	58	6491
2026-01-04 11:34:55.95	62.42	7.96	-42.7	-44.3	18.8	0.00e+00	0	40	0	413138944	58	6656
2026-01-04 11:34:56.96	62.59	7.96	-42.5	-44.1	19.0	0.00e+00	0	40	0	415236096	58	6493
2026-01-04 11:34:57.97	62.76	7.97	-42.7	-44.3	18.7	0.00e+00	71	40	0	417333248	58	6683
2026-01-04 11:34:58.98	62.92	7.97	-42.6	-44.3	18.7	0.00e+00	0	40	0	419430400	58	6629
2026-01-04 11:34:59.99	63.09	7.98	-42.8	-44.4	18.7	0.00e+00	92	40	0	420478976	58	6766
2026-01-04 11:35:01.00	63.26	7.98	-42.5	-44.1	18.8	0.00e+00	0	40	0	422576128	58	6524
2026-01-04 11:35:02.01	63.43	7.98	-42.5	-44.1	19.0	0.00e+00	0	40	0	424673280	58	6475
2026-01-04 11:35:03.02	63.60	7.99	-42.3	-43.9	19.2	0.00e+00	0	40	0	426770432	58	6335
2026-01-04 11:35:04.03	63.77	7.99	-42.3	-43.8	19.2	0.00e+00	0	40	0	428867584	58	6291
2026-01-04 11:35:05.04	63.94	7.99	-42.0	-43.5	19.5	0.00e+00	40	40	0	429916160	58	6047
2026-01-04 11:35:06.05	64.11	8.00	-41.9	-43.3	19.8	0.00e+00	0	40	0	432013312	58	5950
2026-01-04 11:35:07.06	64.27	8.00	-42.0	-43.4	19.5	0.00e+00	38	40	0	434110464	58	6025
2026-01-04 11:35:08.06	64.44	8.00	-41.9	-43.3	19.6	0.00e+00	0	40	0	436207616	58	5964
2026-01-04 11:35:09.07	64.61	8.00	-41.9	-43.3	19.6	0.00e+00	0	40	0	438304768	58	5958
2026-01-04 11:35:10.08	64.78	8.01	-41.9	-43.4	19.7	0.00e+00	0	40	0	440401920	58	5995
2026-01-04 11:35:11.09	64.95	8.01	-41.9	-43.3	19.7	0.00e+00	0	40	0	441450496	58	5942
2026-01-04 11:35:12.10	65.12	8.01	-41.9	-43.4	19.6	0.00e+00	31	40	0	443547648	58	5979
2026-01-04 11:35:13.11	65.29	8.01	-41.7	-43.1	19.8	0.00e+00	0	40	0	445644800	56	6529
2026-01-04 11:35:14.12	65.46	8.01	-41.7	-43.1	20.0	0.00e+00	92	40	0	447741952	56	6493
2026-01-04 11:35:15.13	65.62	8.01	-41.6	-42.9	20.1	0.00e+00	28	40	0	449839104	56	6360
2026-01-04 11:35:16.14	65.79	8.01	-41.6	-42.9	20.0	0.00e+00	0	40	0	450887680	56	6372
2026-01-04 11:35:17.14	65.96	8.02	-41.6	-43.0	20.1	0.00e+00	0	40	0	452984832	56	6411
2026-01-04 11:35:18.15	66.13	8.02	-41.5	-42.8	20.1	0.00e+00	0	40	0	455081984	56	6294
2026-01-04 11:35:19.16	66.30	8.02	-41.5	-42.8	20.2	0.00e+00	12	40	0	457179136	56	6283
2026-01-04 11:35:20.17	66.47	8.02	-41.6	-43.0	20.0	0.00e+00	0	40	0	459276288	56	6434
2026-01-04 11:35:21.17	66.64	8.02	-42.0	-43.4	19.7	0.00e+00	70	40	0	460324864	56	6716
2026-01-04 11:35:22.18	66.80	8.02	-41.8	-43.2	20.0	0.00e+00	0	40	0	462422016	56	6572
2026-01-04 11:35:23.19	66.97	8.01	-41.8	-43.3	19.6	0.00e+00	92	40	0	464519168	56	6626
2026-01-04 11:35:24.20	67.14	8.01	-42.0	-43.4	19.5	0.00e+00	0	40	0	466616320	56	6765
2026-01-04 11:35:25.21	67.31	8.01	-41.8	-43.2	19.8	0.00e+00	33	40	0	468713472	56	6573
2026-01-04 11:35:26.22	67.48	8.01	-41.4	-42.8	20.2	0.00e+00	71	40	0	469762048	56	6270
2026-01-04 11:35:27.23	67.65	8.01	-41.1	-42.4	20.4	0.00e+00	0	40	0	471859200	56	6001
2026-01-04 11:35:28.24	67.82	8.01	-41.2	-42.5	20.5	0.00e+00	69	40	0	473956352	56	6040
2026-01-04 11:35:29.25	67.99	8.01	-41.2	-42.5	20.4	0.00e+00	0	40	0	476053504	56	6042
2026-01-04 11:35:30.26	68.16	8.00	-41.3	-42.6	20.4	0.00e+00	90	40	0	478150656	56	6114
2026-01-04 11:35:31.27	68.33	8.00	-41.3	-42.7	20.2	0.00e+00	0	40	0	479199232	56	6197
2026-01-04 11:35:32.28	68.50	8.00	-41.7	-43.1	19.8	0.00e+00	0	40	0	481296384	56	6517
2026-01-04 11:35:33.29	68.66	8.00	-41.6	-43.0	19.9	0.00e+00	0	40	0	483393536	56	6423
2026-01-04 11:35:34.30	68.83	7.99	-41.9	-43.3	19.5	0.00e+00	0	40	0	485490688	56	6668
2026-01-04 11:35:35.31	69.00	7.99	-41.8	-43.2	19.8	0.00e+00	69	40	0	487587840	56	6586
2026-01-04 11:35:36.32	69.17	7.99	-41.6	-43.0	20.0	0.00e+00	0	40	0	488636416	56	6438
2026-01-04 11:35:37.33	69.34	7.98	-41.4	-42.7	20.1	0.00e+00	92	40	0	490733568	56	6239
2026-01-04 11:35:38.33	69.51	7.98	-41.3	-42.7	20.3	0.00e+00	0	40	0	492830720	56	6191
2026-01-04 11:35:39.34	69.68	7.97	-41.4	-42.7	20.0	0.00e+00	0	40	0	494927872	56	6227
2026-01-04 11:35:40.35	69.84	7.97	-41.5	-42.9	19.4	0.00e+00	0	40	0	497025024	56	6335
2026-01-04 11:35:41.36	70.01	7.97	-41.4	-42.7	20.1	0.00e+00	0	40	0	498073600	56	6213
2026-01-04 11:35:42.37	70.18	7.96	-41.4	-42.7	20.2	0.00e+00	64	40	0	500170752	56	6230
2026-01-04 11:35:43.38	70.35	7.96	-41.3	-42.6	20.2	0.00e+00	0	40	0	502267904	56	6158
2026-01-04 11:35:44.39	70.52	7.95	-41.3	-42.7	20.0	0.00e+00	74	40	0	504365056	56	6214
2026-01-04 11:35:45.40	70.69	7.95	-41.2	-42.6	20.3	0.00e+00	0	40	0	506462208	56	6111
2026-01-04 11:35:46.41	70.85	7.94	-41.1	-42.4	20.4	0.00e+00	0	40	0	508559360	56	5991
2026-01-04 11:35:47.42	71.02	7.93	-41.0	-42.3	20.5	0.00e+00	0	40	0	509607936	56	5943
2026-01-04 11:35:48.43	71.19	7.93	-40.6	-41.8	20.9	0.00e+00	0	40	0	511705088	54	6285
2026-01-04 11:35:49.44	71.36	7.92	-40.5	-41.7	21.0	0.00e+00	55	40	0	513802240	54	6215
2026-01-04 11:35:50.45	71.53	7.92	-40.2	-41.4	21.3	0.00e+00	0	40	0	515899392	54	6002
2026-01-04 11:35:51.46	71.70	7.91	-40.1	-41.3	21.4	0.00e+00	62	40	0	517996544	54	5910
2026-01-04 11:35:52.47	71.86	7.90	-40.3	-41.5	21.2	0.00e+00	0	40	0	519045120	54	6086
2026-01-04 11:35:53.48	72.03	7.90	-39.9	-41.0	21.6	0.00e+00	0	40	0	521142272	54	5741
2026-01-04 11:35:54.49	72.20	7.89	-39.9	-41.0	21.6	0.00e+00	0	40	0	523239424	54	5744
2026-01-04 11:35:55.50	72.37	7.88	-40.0	-41.1	21.5	0.00e+00	0	40	0	525336576	54	5792
2026-01-04 11:35:56.51	72.53	7.87	-40.0	-41.1	21.5	0.00e+00	66	40	0	527433728	54	5812
2026-01-04 11:35:57.52	72.70	7.87	-40.1	-41.2	21.4	0.00e+00	0	40	0	528482304	54	5881
2026-01-04 11:35:58.53	72.87	7.86	-40.2	-41.4	21.3	0.00e+00	80	40	0	530579456	54	5987
2026-01-04 11:35:59.54	73.04	7.85	-40.5	-41.7	21.0	0.00e+00	0	40	0	532676608	54	6225
2026-01-04 11:36:00.55	73.20	7.84	-40.3	-41.5	21.2	0.00e+00	77	40	0	534773760	54	6091
2026-01-04 11:36:01.56	73.37	7.83	-40.5	-41.7	21.0	0.00e+00	0	40	0	536870912	54	6210
2026-01-04 11:36:02.57	73.54	7.82	-40.4	-41.6	20.9	0.00e+00	0	40	0	537919488	54	6167
2026-01-04 11:36:03.58	73.71	7.81	-40.5	-41.7	21.0	0.00e+00	0	40	0	540016640	54	6224
2026-01-04 11:36:04.59	73.87	7.80	-40.6	-41.8	20.9	0.00e+00	2	40	0	542113792	54	6257
2026-01-04 11:36:05.60	74.04	7.80	-40.6	-41.8	20.9	0.00e+00	64	40	0	544210944	54	6266
2026-01-04 11:36:06.61	74.21	7.79	-40.7	-41.9	20.9	0.00e+00	0	40	0	546308096	54	6361
2026-01-04 11:36:07.61	74.37	7.78	-40.6	-41.8	20.9	0.00e+00	92	40	0	547356672	54	6260
2026-01-04 11:36:08.62	74.54	7.77	-40.9	-42.1	20.7	0.00e+00	0	40	0	549453824	54	6515
2026-01-04 11:36:09.63	74.70	7.76	-40.9	-42.2	20.5	0.00e+00	0	40	0	551550976	54	6595
2026-01-04 11:36:10.64	74.87	7.75	-40.9	-42.2	20.5	0.00e+00	0	40	0	553648128	54	6558
2026-01-04 11:36:11.65	75.04	7.73	-40.7	-41.9	20.8	0.00e+00	0	40	0	555745280	54	6379
2026-01-04 11:36:12.66	75.20	7.72	-40.6	-41.8	20.9	0.00e+00	43	40	0	556793856	54	6292
2026-01-04 11:36:13.67	75.37	7.71	-40.7	-41.9	20.7	0.00e+00	0	40	0	558891008	54	6365
2026-01-04 11:36:14.68	75.53	7.70	-40.5	-41.7	21.0	0.00e+00	80	40	0	560988160	54	6210
2026-01-04 11:36:15.69	75.70	7.69	-40.4	-41.6	21.1	0.00e+00	0	40	0	563085312	54	6118
2026-01-04 11:36:16.70	75.86	7.68	-40.2	-41.3	21.3	0.00e+00	0	40	0	565182464	54	5964
2026-01-04 11:36:17.71	76.03	7.67	-40.3	-41.5	21.0	0.00e+00	0	40	0	566231040	54	6080
2026-01-04 11:36:18.72	76.20	7.65	-40.4	-41.6	21.0	0.00e+00	0	40	0	568328192	54	6162
2026-01-04 11:36:19.73	76.36	7.64	-40.6	-41.8	20.8	0.00e+00	69	40	0	570425344	54	6312
2026-01-04 11:36:20.74	76.53	7.63	-40.6	-41.8	20.9	0.00e+00	0	40	0	572522496	54	6264
2026-01-04 11:36:21.75	76.69	7.62	-40.8	-42.0	20.8	0.00e+00	70	40	0	574619648	54	6463
2026-01-04 11:36:22.76	76.86	7.60	-40.8	-42.1	20.5	0.00e+00	0	40	0	576716800	54	6476
2026-01-04 11:36:23.76	77.02	7.59	-41.2	-42.5	20.3	0.00e+00	0	40	0	577765376	54	6822
2026-01-04 11:36:24.77	77.18	7.58	-41.4	-42.7	20.0	0.00e+00	0	40	0	579862528	54	6999
2026-01-04 11:36:25.78	77.35	7.56	-41.4	-42.8	20.3	0.00e+00	0	40	0	581959680	54	7009
2026-01-04 11:36:26.79	77.51	7.55	-41.5	-42.9	20.1	0.00e+00	12	40	0	584056832	54	7091
2026-01-04 11:36:27.80	77.68	7.54	-41.8	-43.2	19.7	0.00e+00	0	40	0	586153984	54	7393
2026-01-04 11:36:28.81	77.84	7.52	-42.0	-43.4	19.6	0.00e+00	91	40	0	587202560	56	6743
2026-01-04 11:36:29.82	78.00	7.51	-41.9	-43.4	19.3	0.00e+00	0	40	0	589299712	56	6713
2026-01-04 11:36:30.83	78.17	7.49	-41.8	-43.2	19.6	0.00e+00	52	40	0	591396864	56	6608
2026-01-04 11:36:31.84	78.33	7.48	-41.4	-42.8	20.1	0.00e+00	0	40	0	593494016	56	6248
2026-01-04 11:36:32.85	78.49	7.46	-41.5	-42.9	20.1	0.00e+00	0	40	0	595591168	56	6336
2026-01-04 11:36:33.86	78.66	7.45	-41.4	-42.7	20.1	0.00e+00	33	40	0	596639744	56	6220
2026-01-04 11:36:34.87	78.82	7.43	-41.0	-42.3	20.5	0.00e+00	0	40	0	598736896	56	5914
2026-01-04 11:36:35.88	78.98	7.42	-41.1	-42.3	20.5	0.00e+00	90	40	0	600834048	56	5962
2026-01-04 11:36:36.89	79.14	7.40	-40.7	-42.0	20.8	0.00e+00	0	40	0	602931200	54	6396
2026-01-04 11:36:37.90	79.31	7.39	-40.4	-41.6	21.2	0.00e+00	15	40	0	605028352	54	6132
2026-01-04 11:36:38.91	79.47	7.37	-40.2	-41.3	21.3	0.00e+00	0	40	0	606076928	54	5951
2026-01-04 11:36:39.92	79.63	7.36	-39.8	-40.9	21.7	0.00e+00	0	40	0	608174080	54	5654
2026-01-04 11:36:40.92	79.79	7.34	-39.7	-40.8	21.8	0.00e+00	0	40	0	610271232	52	6279
2026-01-04 11:36:41.93	79.95	7.32	-39.3	-40.3	22.2	0.00e+00	0	40	0	612368384	52	5957
2026-01-04 11:36:42.94	80.12	7.31	-39.5	-40.5	22.0	0.00e+00	64	40	0	614465536	52	6093
2026-01-04 11:36:43.95	80.28	7.29	-39.6	-40.7	21.9	0.00e+00	0	40	0	615514112	52	6199
2026-01-04 11:36:44.96	80.44	7.27	-39.6	-40.7	21.8	0.00e+00	92	40	0	617611264	52	6212
2026-01-04 11:36:45.97	80.60	7.26	-39.8	-40.9	21.7	0.00e+00	0	40	0	619708416	52	6352
2026-01-04 11:36:46.98	80.76	7.24	-39.8	-40.9	21.7	0.00e+00	0	40	0	621805568	52	6375
2026-01-04 11:36:47.99	80.92	7.22	-39.8	-40.9	21.5	0.00e+00	0	40	0	623902720	52	6371
2026-01-04 11:36:49.00	81.08	7.20	-40.1	-41.3	21.4	0.00e+00	0	40	0	624951296	52	6635
2026-01-04 11:36:50.01	81.24	7.19	-39.9	-41.1	21.5	0.00e+00	37	40	0	627048448	52	6465
2026-01-04 11:36:51.02	81.40	7.17	-39.9	-41.0	21.6	0.00e+00	0	40	0	629145600	52	6414
2026-01-04 11:36:52.03	81.56	7.15	-39.9	-41.0	21.7	0.00e+00	51	40	0	631242752	52	6419
2026-01-04 11:36:53.04	81.72	7.13	-39.8	-40.9	21.7	0.00e+00	0	40	0	633339904	52	6330
2026-01-04 11:36:54.05	81.88	7.11	-39.5	-40.6	21.9	0.00e+00	0	40	0	634388480	52	6125
2026-01-04 11:36:55.06	82.04	7.09	-39.6	-40.7	21.9	0.00e+00	0	40	0	636485632	52	6178
2026-01-04 11:36:56.06	82.20	7.08	-39.9	-41.0	21.6	0.00e+00	0	40	0	638582784	52	6451
2026-01-04 11:36:57.07	82.36	7.06	-39.8	-40.9	21.7	0.00e+00	55	40	0	640679936	52	6333
2026-01-04 11:36:58.08	82.52	7.04	-40.0	-41.1	21.6	0.00e+00	0	40	0	642777088	52	6512
2026-01-04 11:36:59.09	82.67	7.02	-40.1	-41.3	21.4	0.00e+00	92	40	0	643825664	52	6656
2026-01-04 11:37:00.10	82.83	7.00	-40.1	-41.2	21.4	0.00e+00	0	40	0	645922816	52	6589
2026-01-04 11:37:01.11	82.99	6.98	-40.1	-41.3	21.3	0.00e+00	14	40	0	648019968	52	6643
2026-01-04 11:37:02.12	83.15	6.96	-40.3	-41.4	21.3	0.00e+00	29	40	0	650117120	52	6766
2026-01-04 11:37:03.12	83.30	6.94	-40.2	-41.4	21.3	0.00e+00	0	40	0	652214272	52	6713
2026-01-04 11:37:04.13	83.46	6.92	-40.1	-41.2	21.5	0.00e+00	0	40	0	653262848	52	6574
2026-01-04 11:37:05.14	83.62	6.90	-40.1	-41.3	21.4	0.00e+00	61	40	0	655360000	52	6648
2026-01-04 11:37:06.15	83.78	6.88	-40.2	-41.4	21.2	0.00e+00	90	40	0	657457152	52	6735
2026-01-04 11:37:07.16	83.93	6.86	-40.0	-41.2	21.4	0.00e+00	0	40	0	659554304	52	6555
2026-01-04 11:37:08.17	84.09	6.83	-40.0	-41.1	21.5	0.00e+00	89	40	0	661651456	52	6539
2026-01-04 11:37:09.18	84.25	6.81	-39.6	-40.6	21.9	0.00e+00	0	40	0	662700032	52	6161
2026-01-04 11:37:10.18	84.40	6.79	-39.4	-40.5	22.1	0.00e+00	0	40	0	664797184	52	6056
2026-01-04 11:37:11.19	84.56	6.77	-39.5	-40.5	22.0	0.00e+00	0	40	0	666894336	52	6102
2026-01-04 11:37:12.20	84.71	6.75	-39.3	-40.3	22.3	0.00e+00	0	40	0	668991488	52	5912
2026-01-04 11:37:13.21	84.87	6.73	-39.2	-40.2	22.2	0.00e+00	55	40	0	671088640	52	5889
2026-01-04 11:37:14.22	85.02	6.71	-39.5	-40.6	22.0	0.00e+00	0	40	0	673185792	52	6107
2026-01-04 11:37:15.23	85.18	6.68	-39.8	-40.9	21.7	0.00e+00	92	40	0	674234368	52	6322
2026-01-04 11:37:16.24	85.33	6.66	-40.0	-41.1	21.6	0.00e+00	0	40	0	676331520	52	6484
2026-01-04 11:37:17.25	85.49	6.64	-40.1	-41.3	21.3	0.00e+00	0	40	0	678428672	52	6647
2026-01-04 11:37:18.26	85.64	6.62	-40.3	-41.5	21.2	0.00e+00	0	40	0	680525824	52	6790
2026-01-04 11:37:19.27	85.80	6.59	-40.3	-41.4	21.2	0.00e+00	33	40	0	682622976	52	6767
2026-01-04 11:37:20.28	85.95	6.57	-40.3	-41.5	21.1	0.00e+00	44	40	0	683671552	52	6805
2026-01-04 11:37:21.29	86.11	6.55	-40.3	-41.5	20.9	0.00e+00	0	40	0	685768704	52	6836
2026-01-04 11:37:22.30	86.26	6.53	-40.2	-41.4	21.1	0.00e+00	91	40	0	687865856	52	6704
2026-01-04 11:37:23.30	86.41	6.50	-40.1	-41.2	21.3	0.00e+00	0	40	0	689963008	52	6579
2026-01-04 11:37:24.32	86.57	6.48	-40.2	-41.4	21.3	0.00e+00	0	40	0	692060160	52	6695
2026-01-04 11:37:25.32	86.72	6.46	-40.1	-41.3	21.3	0.00e+00	0	40	0	693108736	52	6628
2026-01-04 11:37:26.33	86.87	6.43	-40.4	-41.6	21.0	0.00e+00	0	40	0	695205888	52	6868
2026-01-04 11:37:27.34	87.02	6.41	-40.4	-41.6	21.0	0.00e+00	9	40	0	697303040	52	6875
2026-01-04 11:37:28.35	87.17	6.38	-40.5	-41.8	20.9	0.00e+00	0	40	0	699400192	52	7010
2026-01-04 11:37:29.36	87.33	6.36	-40.6	-41.8	20.8	0.00e+00	79	40	0	701497344	54	6311
2026-01-04 11:37:30.37	87.48	6.34	-40.6	-41.8	20.9	0.00e+00	0	40	0	702545920	54	6294
2026-01-04 11:37:31.38	87.63	6.31	-40.7	-42.0	20.7	0.00e+00	0	40	0	704643072	54	6416
2026-01-04 11:37:32.39	87.78	6.29	-40.8	-42.1	20.7	0.00e+00	0	40	0	706740224	54	6507
2026-01-04 11:37:33.39	87.93	6.26	-41.3	-42.7	20.1	0.00e+00	0	40	0	708837376	54	6952
2026-01-04 11:37:34.40	88.08	6.24	-41.3	-42.6	20.0	0.00e+00	0	40	0	710934528	54	6899
2026-01-04 11:37:35.41	88.23	6.21	-41.7	-43.1	19.7	0.00e+00	0	40	0	711983104	54	7297
2026-01-04 11:37:36.42	88.38	6.19	-41.8	-43.3	19.4	0.00e+00	90	40	0	714080256	56	6641
2026-01-04 11:37:37.43	88.53	6.16	-42.0	-43.5	19.2	0.00e+00	0	40	0	716177408	56	6797
2026-01-04 11:37:38.44	88.68	6.14	-41.9	-43.3	19.5	0.00e+00	92	40	0	718274560	56	6665
2026-01-04 11:37:39.45	88.83	6.11	-42.0	-43.4	19.3	0.00e+00	0	40	0	720371712	56	6764
2026-01-04 11:37:40.46	88.98	6.08	-41.8	-43.3	19.5	0.00e+00	0	40	0	721420288	56	6620
2026-01-04 11:37:41.46	89.13	6.06	-41.9	-43.4	19.5	0.00e+00	9	40	0	723517440	56	6716
2026-01-04 11:37:42.47	89.28	6.03	-41.8	-43.2	19.5	0.00e+00	0	40	0	725614592	56	6602
2026-01-04 11:37:43.48	89.42	6.01	-42.2	-43.7	19.2	0.00e+00	59	40	0	727711744	56	6973
2026-01-04 11:37:44.49	89.57	5.98	-42.2	-43.8	18.8	0.00e+00	0	40	0	729808896	56	7027
2026-01-04 11:37:45.50	89.72	5.95	-42.3	-44.0	18.9	0.00e+00	92	40	0	730857472	56	7175
2026-01-04 11:37:46.51	89.87	5.93	-42.2	-43.8	19.1	0.00e+00	0	40	0	732954624	56	7046
2026-01-04 11:37:47.52	90.01	5.90	-42.1	-43.7	19.1	0.00e+00	33	40	0	735051776	56	6958
2026-01-04 11:37:48.53	90.16	5.87	-42.1	-43.6	19.2	0.00e+00	0	40	0	737148928	56	6884
2026-01-04 11:37:49.54	90.31	5.85	-41.9	-43.4	19.3	0.00e+00	0	40	0	739246080	56	6733
2026-01-04 11:37:50.55	90.46	5.82	-41.9	-43.3	19.6	0.00e+00	62	40	0	741343232	56	6692
2026-01-04 11:37:51.55	90.60	5.79	-41.6	-43.0	19.9	0.00e+00	0	40	0	742391808	56	6457
2026-01-04 11:37:52.56	90.75	5.77	-41.7	-43.1	19.6	0.00e+00	91	40	0	744488960	56	6481
2026-01-04 11:37:53.57	90.89	5.74	-41.6	-43.0	19.7	0.00e+00	0	40	0	746586112	56	6439
2026-01-04 11:37:54.58	91.04	5.71	-41.6	-43.1	19.7	0.00e+00	33	40	0	748683264	56	6474
2026-01-04 11:37:55.59	91.18	5.68	-41.7	-43.2	19.5	0.00e+00	0	40	0	749731840	56	6589
2026-01-04 11:37:56.60	91.33	5.66	-42.0	-43.5	19.3	0.00e+00	0	40	0	751828992	56	6844
2026-01-04 11:37:57.61	91.47	5.63	-42.1	-43.7	19.1	0.00e+00	25	40	0	753926144	56	6959
2026-01-04 11:37:58.62	91.62	5.60	-42.6	-44.3	18.7	0.00e+00	0	40	0	756023296	56	7434
2026-01-04 11:37:59.63	91.76	5.57	-42.4	-44.0	18.8	0.00e+00	73	40	0	758120448	56	7215
2026-01-04 11:38:00.64	91.91	5.54	-42.4	-44.0	18.9	0.00e+00	0	40	0	759169024	56	7236
2026-01-04 11:38:01.65	92.05	5.51	-42.2	-43.8	19.0	0.00e+00	33	40	0	761266176	56	7073
2026-01-04 11:38:02.66	92.19	5.49	-42.4	-44.0	18.8	0.00e+00	0	40	0	763363328	56	7233
2026-01-04 11:38:03.67	92.34	5.46	-42.7	-44.4	18.5	0.00e+00	0	40	0	765460480	56	7540
2026-01-04 11:38:04.67	92.48	5.43	-42.6	-44.3	18.5	0.00e+00	70	40	0	767557632	56	7454
2026-01-04 11:38:05.68	92.62	5.40	-42.9	-44.7	18.1	0.00e+00	0	40	0	769654784	58	6944
2026-01-04 11:38:06.69	92.76	5.37	-43.2	-45.0	17.9	0.00e+00	92	40	0	770703360	58	7241
2026-01-04 11:38:07.70	92.90	5.34	-43.3	-45.2	17.6	0.00e+00	0	40	0	772800512	58	7383
2026-01-04 11:38:08.71	93.05	5.31	-43.7	-45.7	17.1	0.00e+00	90	40	0	774897664	58	7852
2026-01-04 11:38:09.73	93.19	5.28	-43.9	-46.0	16.8	0.00e+00	0	40	0	776994816	60	7227
2026-01-04 11:38:10.73	93.33	5.25	-43.9	-46.1	16.8	0.00e+00	0	40	0	779091968	60	7279
2026-01-04 11:38:11.74	93.47	5.22	-44.0	-46.3	16.6	0.00e+00	65	40	0	780140544	60	7462
2026-01-04 11:38:12.75	93.61	5.19	-44.0	-46.3	16.7	0.00e+00	0	40	0	782237696	60	7480
2026-01-04 11:38:13.75	93.75	5.17	-43.9	-46.1	16.8	0.00e+00	65	40	0	784334848	60	7324
2026-01-04 11:38:14.76	93.89	5.14	-43.7	-45.8	17.0	0.00e+00	0	40	0	786432000	60	7075
2026-01-04 11:38:15.77	94.03	5.11	-43.5	-45.6	17.2	0.00e+00	92	40	0	788529152	60	6877
2026-01-04 11:38:16.78	94.17	5.08	-43.3	-45.2	17.6	0.00e+00	0	40	0	789577728	60	6615
2026-01-04 11:38:17.79	94.31	5.05	-43.0	-44.9	17.9	0.00e+00	0	40	0	791674880	60	6383
2026-01-04 11:38:18.80	94.45	5.01	-43.0	-44.8	18.0	0.00e+00	0	40	0	793772032	60	6300
2026-01-04 11:38:19.81	94.59	4.98	-42.8	-44.6	18.2	0.00e+00	0	40	0	795869184	60	6169
2026-01-04 11:38:20.82	94.73	4.95	-42.8	-44.6	18.1	0.00e+00	48	40	0	797966336	60	6141
2026-01-04 11:38:21.83	94.86	4.92	-42.7	-44.5	18.3	0.00e+00	0	40	0	799014912	58	6811
2026-01-04 11:38:22.84	95.00	4.89	-42.7	-44.4	18.2	0.00e+00	92	40	0	801112064	58	6762
2026-01-04 11:38:23.85	95.14	4.86	-42.8	-44.6	18.2	0.00e+00	0	40	0	803209216	58	6875
2026-01-04 11:38:24.86	95.28	4.83	-42.8	-44.6	18.2	0.00e+00	0	40	0	805306368	58	6880
2026-01-04 11:38:25.87	95.41	4.80	-42.9	-44.8	18.0	0.00e+00	0	40	0	807403520	58	7013
2026-01-04 11:38:26.88	95.55	4.77	-42.8	-44.8	18.0	0.00e+00	0	40	0	808452096	58	7009
2026-01-04 11:38:27.89	95.69	4.74	-43.1	-45.1	17.7	0.00e+00	69	40	0	810549248	58	7320
2026-01-04 11:38:28.90	95.82	4.71	-43.3	-45.4	17.5	0.00e+00	0	40	0	812646400	58	7536
2026-01-04 11:38:29.91	95.96	4.67	-43.6	-45.8	17.0	0.00e+00	92	40	0	814743552	60	7061
2026-01-04 11:38:30.92	96.10	4.64	-43.5	-45.6	17.0	0.00e+00	0	40	0	816840704	60	6926
2026-01-04 11:38:31.93	96.23	4.61	-43.2	-45.1	17.6	0.00e+00	0	40	0	817889280	60	6537
2026-01-04 11:38:32.93	96.36	4.58	-43.3	-45.4	17.3	0.00e+00	0	40	0	819986432	60	6729
2026-01-04 11:38:33.94	96.50	4.55	-43.3	-45.3	17.3	0.00e+00	0	40	0	822083584	60	6676
2026-01-04 11:38:34.95	96.63	4.52	-43.3	-45.3	17.5	0.00e+00	0	40	0	824180736	60	6653
2026-01-04 11:38:35.96	96.77	4.48	-43.3	-45.4	17.3	0.00e+00	0	40	0	826277888	60	6707
2026-01-04 11:38:36.97	96.90	4.45	-42.8	-44.6	18.1	0.00e+00	86	40	0	827326464	60	6149
2026-01-04 11:38:37.98	97.04	4.42	-43.1	-45.1	17.7	0.00e+00	0	40	0	829423616	60	6502
2026-01-04 11:38:38.99	97.17	4.39	-42.9	-44.8	17.7	0.00e+00	65	40	0	831520768	60	6307
2026-01-04 11:38:40.00	97.30	4.36	-42.5	-44.2	18.5	0.00e+00	0	40	0	833617920	58	6558
2026-01-04 11:38:41.01	97.44	4.32	-42.3	-43.9	18.6	0.00e+00	0	40	0	835715072	58	6370
2026-01-04 11:38:42.02	97.57	4.29	-42.2	-43.8	18.8	0.00e+00	36	40	0	837812224	58	6294
2026-01-04 11:38:43.02	97.70	4.26	-42.3	-44.0	18.6	0.00e+00	0	40	0	838860800	58	6443
2026-01-04 11:38:44.03	97.83	4.23	-42.4	-44.1	18.5	0.00e+00	92	40	0	840957952	58	6478
2026-01-04 11:38:45.05	97.96	4.19	-42.8	-44.6	17.9	0.00e+00	0	40	0	843055104	58	6925
2026-01-04 11:38:46.06	98.10	4.16	-42.7	-44.5	18.2	0.00e+00	23	40	0	845152256	58	6819
2026-01-04 11:38:47.06	98.23	4.13	-42.9	-44.7	17.9	0.00e+00	0	40	0	847249408	58	6998
2026-01-04 11:38:48.07	98.36	4.10	-43.2	-45.1	17.5	0.00e+00	0	40	0	848297984	58	7328
2026-01-04 11:38:49.08	98.49	4.06	-43.3	-45.3	17.3	0.00e+00	9	40	0	850395136	58	7487
2026-01-04 11:38:50.09	98.62	4.03	-43.1	-45.1	17.5	0.00e+00	0	40	0	852492288	58	7279
2026-01-04 11:38:51.10	98.75	4.00	-43.1	-45.2	17.2	0.00e+00	92	40	0	854589440	58	7366
2026-01-04 11:38:52.11	98.88	3.96	-43.3	-45.4	16.9	0.00e+00	0	40	0	856686592	58	7544
2026-01-04 11:38:53.12	99.01	3.93	-43.0	-45.0	17.7	0.00e+00	92	40	0	857735168	58	7206
2026-01-04 11:38:54.13	99.14	3.90	-42.9	-44.7	17.8	0.00e+00	0	40	0	859832320	58	7005
2026-01-04 11:38:55.14	99.27	3.86	-42.5	-44.2	18.2	0.00e+00	0	40	0	861929472	58	6595
2026-01-04 11:38:56.15	99.39	3.83	-42.3	-44.0	18.3	0.00e+00	0	40	0	864026624	58	6440
2026-01-04 11:38:57.16	99.52	3.79	-42.3	-44.0	18.5	0.00e+00	0	40	0	866123776	58	6399
2026-01-04 11:38:58.16	99.65	3.76	-42.0	-43.6	18.9	0.00e+00	92	40	0	867172352	58	6147
2026-01-04 11:38:59.17	99.78	3.73	-41.8	-43.4	19.0	0.00e+00	61	40	0	869269504	56	6747
2026-01-04 11:39:00.18	99.91	3.69	-41.8	-43.4	19.0	0.00e+00	92	40	0	871366656	56	6740
2026-01-04 11:39:01.19	100.03	3.66	-42.0	-43.6	18.6	0.00e+00	0	40	0	873463808	56	6892
2026-01-04 11:39:02.20	100.16	3.63	-41.9	-43.5	18.7	0.00e+00	0	40	0	875560960	56	6833
2026-01-04 11:39:03.22	100.29	3.59	-41.9	-43.5	18.7	0.00e+00	0	40	0	876609536	56	6796
2026-01-04 11:39:04.23	100.41	3.56	-41.9	-43.5	18.9	0.00e+00	0	40	0	878706688	56	6786
2026-01-04 11:39:05.24	100.54	3.52	-42.0	-43.6	18.7	0.00e+00	66	40	0	880803840	56	6881
2026-01-04 11:39:06.24	100.66	3.49	-41.9	-43.6	18.8	0.00e+00	0	40	0	882900992	56	6875
2026-01-04 11:39:07.25	100.79	3.45	-42.1	-44.0	18.4	0.00e+00	92	40	0	884998144	56	7233
2026-01-04 11:39:08.26	100.92	3.42	-42.0	-44.0	18.4	0.00e+00	0	40	0	886046720	56	7180
2026-01-04 11:39:09.27	101.04	3.39	-42.1	-44.2	18.1	0.00e+00	0	40	0	888143872	56	7422
2026-01-04 11:39:10.28	101.17	3.35	-41.9	-44.1	18.1	0.00e+00	0	40	0	890241024	56	7306
2026-01-04 11:39:11.29	101.29	3.32	-42.0	-44.5	17.7	0.00e+00	0	40	0	892338176	56	7597
2026-01-04 11:39:12.30	101.41	3.28	-41.9	-44.3	18.0	0.00e+00	66	40	0	894435328	56	7449
2026-01-04 11:39:13.31	101.54	3.25	-42.2	-44.5	17.8	0.00e+00	0	40	0	895483904	56	7635
2026-01-04 11:39:14.32	101.66	3.21	-42.5	-44.6	17.7	0.00e+00	90	40	0	897581056	56	7720
2026-01-04 11:39:15.33	101.78	3.18	-42.5	-44.2	17.9	0.00e+00	0	40	0	899678208	56	7422
2026-01-04 11:39:16.34	101.91	3.14	-42.8	-44.8	17.6	0.00e+00	0	40	0	901775360	58	7026
2026-01-04 11:39:17.35	102.03	3.11	-42.7	-44.7	17.3	0.00e+00	0	40	0	903872512	58	7003
2026-01-04 11:39:18.36	102.15	3.07	-42.6	-44.6	17.6	0.00e+00	0	40	0	904921088	58	6926
2026-01-04 11:39:19.37	102.28	3.04	-42.8	-44.8	17.5	0.00e+00	66	40	0	907018240	58	7052
2026-01-04 11:39:20.38	102.40	3.00	-47.1	-53.6	3.8	0.00e+00	0	40	0	909115392	58	19415
2026-01-04 11:39:21.38	102.52	2.97	-49.0	-64.2	3.6	1.51e+00	0	40	104	909115392	60	58942
2026-01-04 11:39:22.39	102.64	2.93	-49.4	-64.7	3.6	1.51e+00	0	40	104	909115392	60	61873
2026-01-04 11:39:23.40	102.76	2.90	-49.6	-64.8	3.6	1.51e+00	0	40	104	909115392	60	62952
2026-01-04 11:39:24.41	102.88	2.86	-49.7	-65.0	3.6	1.51e+00	0	40	104	909115392	60	64122
2026-01-04 11:39:25.42	103.00	2.82	-49.8	-65.0	3.6	1.51e+00	0	40	104	909115392	60	64481
2026-01-04 11:39:26.43	103.12	2.79	-49.8	-65.0	3.6	1.51e+00	0	40	104	909115392	60	64269
2026-01-04 11:39:27.44	103.24	2.75	-49.8	-65.0	3.6	1.51e+00	0	40	104	909115392	60	64615
2026-01-04 11:39:28.45	103.36	2.72	-49.8	-65.0	3.6	1.51e+00	0	40	104	909115392	60	64634
2026-01-04 11:39:29.46	103.48	2.68	-49.8	-65.0	3.6	1.51e+00	0	40	104	909115392	60	64366
2026-01-04 11:39:30.47	103.60	2.65	-49.9	-65.1	3.6	1.51e+00	0	40	104	909115392	60	65030
2026-01-04 11:39:31.48	103.72	2.61	-49.9	-65.1	3.6	1.51e+00	0	40	104	909115392	60	65003
2026-01-04 11:39:32.49	103.84	2.57	-49.8	-65.1	3.6	1.51e+00	0	40	104	909115392	60	64738
2026-01-04 11:39:33.50	103.96	2.54	-49.9	-65.1	3.6	1.51e+00	0	40	104	909115392	60	65004
2026-01-04 11:39:34.51	104.07	2.50	-49.9	-65.1	3.5	1.51e+00	0	40	104	909115392	60	65288
2026-01-04 11:39:35.52	104.19	2.47	-49.9	-65.1	3.6	1.51e+00	0	40	104	909115392	60	65073
2026-01-04 11:39:36.53	104.31	2.43	-49.9	-65.1	3.6	1.51e+00	0	40	104	909115392	60	64803
2026-01-04 11:39:37.54	104.43	2.39	-49.9	-65.1	3.6	1.51e+00	0	40	104	909115392	60	65008
2026-01-04 11:39:38.55	104.54	2.36	-50.0	-65.2	3.6	1.51e+00	0	40	104	909115392	60	65683
2026-01-04 11:39:39.56	104.66	2.32	-50.2	-65.4	3.6	1.51e+00	0	40	104	909115392	60	67564
2026-01-04 11:39:40.57	104.78	2.29	-50.1	-65.3	3.6	1.51e+00	0	40	104	909115392	60	66677
2026-01-04 11:39:41.58	104.89	2.25	-50.2	-65.4	3.6	1.51e+00	0	40	104	909115392	60	67614
2026-01-04 11:39:42.59	105.01	2.21	-50.1	-65.3	3.6	1.51e+00	0	40	104	909115392	60	66735
2026-01-04 11:39:43.60	105.12	2.18	-50.0	-65.3	3.6	1.51e+00	0	40	104	909115392	60	66249
2026-01-04 11:39:44.61	105.24	2.14	-50.0	-65.2	3.6	1.51e+00	0	40	104	909115392	60	65909
2026-01-04 11:39:45.62	105.35	2.10	-50.2	-65.5	3.6	1.51e+00	0	40	104	909115392	60	67854
2026-01-04 11:39:46.63	105.47	2.07	-50.3	-65.6	3.6	1.51e+00	0	40	104	909115392	60	68607
2026-01-04 11:39:47.64	105.58	2.03	-50.2	-65.5	3.6	1.51e+00	0	40	104	909115392	60	67707
2026-01-04 11:39:48.65	105.70	1.99	-50.2	-65.4	3.6	1.51e+00	0	40	104	909115392	60	67227
2026-01-04 11:39:49.65	105.81	1.96	-50.0	-65.3	3.6	1.51e+00	0	40	104	909115392	60	66649
2026-01-04 11:39:50.66	105.92	1.92	-50.2	-65.5	3.6	1.51e+00	0	40	104	909115392	60	67935
2026-01-04 11:39:51.67	106.04	1.88	-50.3	-65.5	3.6	1.51e+00	0	40	104	909115392	60	68145
2026-01-04 11:39:52.68	106.15	1.85	-50.3	-65.6	3.6	1.51e+00	0	40	104	909115392	60	68505
2026-01-04 11:39:53.69	106.26	1.81	-50.3	-65.5	3.6	1.51e+00	0	40	104	909115392	60	68210
2026-01-04 11:39:54.70	106.38	1.77	-50.4	-65.6	3.6	1.51e+00	0	40	104	909115392	60	68497
2026-01-04 11:39:55.71	106.49	1.74	-50.2	-65.4	3.6	1.51e+00	0	40	104	909115392	60	67266
2026-01-04 11:39:56.72	106.60	1.70	-50.5	-65.7	3.6	1.51e+00	0	40	104	909115392	60	69361
2026-01-04 11:39:57.73	106.71	1.66	-50.4	-65.6	3.6	1.51e+00	0	40	104	909115392	60	68874
2026-01-04 11:39:58.74	106.82	1.63	-50.1	-65.3	3.6	1.51e+00	0	40	104	909115392	60	66279
2026-01-04 11:39:59.75	106.94	1.59	-50.1	-65.3	3.6	1.51e+00	0	40	104	909115392	60	66549
2026-01-04 11:40:00.76	107.05	1.55	-50.4	-65.6	3.6	1.51e+00	0	40	104	909115392	60	68971
2026-01-04 11:40:01.77	107.16	1.51	-50.6	-65.8	3.6	1.51e+00	0	40	104	909115392	60	70276
2026-01-04 11:40:02.78	107.27	1.48	-50.4	-65.6	3.5	1.51e+00	0	40	104	909115392	60	69160
2026-01-04 11:40:03.79	107.38	1.44	-50.6	-65.8	3.6	1.51e+00	0	40	104	909115392	60	70560
2026-01-04 11:40:04.80	107.49	1.40	-50.9	-66.1	3.6	1.51e+00	0	40	104	909115392	60	73142
2026-01-04 11:40:05.81	107.60	1.37	-50.7	-65.9	3.6	1.51e+00	0	40	104	909115392	60	71699
2026-01-04 11:40:06.82	107.71	1.33	-50.5	-65.7	3.6	1.51e+00	0	40	104	909115392	60	69932
2026-01-04 11:40:07.83	107.82	1.29	-50.5	-65.7	3.6	1.51e+00	0	40	104	909115392	60	69338
2026-01-04 11:40:08.84	107.93	1.25	-50.5	-65.6	3.6	1.51e+00	0	40	104	909115392	60	68993
2026-01-04 11:40:09.84	108.03	1.22	-50.5	-65.7	3.6	1.51e+00	0	40	104	909115392	60	69748
2026-01-04 11:40:10.85	108.14	1.18	-50.5	-65.7	3.6	1.51e+00	0	40	104	909115392	60	69931
2026-01-04 11:40:11.86	108.25	1.14	-50.5	-65.7	3.6	1.51e+00	0	40	104	909115392	60	69752
2026-01-04 11:40:12.87	108.36	1.10	-50.6	-65.7	3.6	1.51e+00	0	40	104	909115392	60	69826
2026-01-04 11:40:13.88	108.47	1.07	-50.5	-65.6	3.6	1.51e+00	0	40	104	909115392	60	69187
2026-01-04 11:40:14.89	108.57	1.03	-50.8	-66.0	3.6	1.51e+00	0	40	104	909115392	60	72249
2026-01-04 11:40:15.90	108.68	0.99	-51.0	-66.1	3.6	1.51e+00	0	40	104	909115392	60	73159
2026-01-04 11:40:16.91	108.79	0.95	-50.7	-65.9	3.6	1.51e+00	0	40	104	909115392	60	71158
2026-01-04 11:40:17.92	108.89	0.92	-50.9	-66.1	3.6	1.51e+00	0	40	104	909115392	60	72843
2026-01-04 11:40:18.93	109.00	0.88	-50.6	-65.9	3.5	1.51e+00	0	40	104	909115392	60	70992
2026-01-04 11:40:19.94	109.11	0.84	-50.5	-65.7	3.6	1.51e+00	0	40	104	909115392	60	69319
2026-01-04 11:40:20.95	109.21	0.80	-50.3	-65.5	3.6	1.51e+00	0	40	104	909115392	60	67744
2026-01-04 11:40:21.96	109.32	0.76	-50.6	-65.8	3.6	1.51e+00	0	40	104	909115392	60	70284
2026-01-04 11:40:22.97	109.42	0.73	-50.9	-66.1	3.6	1.51e+00	0	40	104	909115392	60	72737
2026-01-04 11:40:23.98	109.53	0.69	-51.1	-66.3	3.6	1.51e+00	0	40	104	909115392	60	74524
2026-01-04 11:40:24.99	109.63	0.65	-51.0	-66.2	3.6	1.51e+00	0	40	104	909115392	60	73885
2026-01-04 11:40:26.00	109.74	0.61	-50.5	-65.7	3.6	1.51e+00	0	40	104	909115392	60	69836
2026-01-04 11:40:27.01	109.84	0.57	-50.4	-65.6	3.6	1.51e+00	0	40	104	909115392	60	69120
2026-01-04 11:40:28.01	109.94	0.54	-50.6	-65.8	3.6	1.51e+00	0	40	104	909115392	60	70147
2026-01-04 11:40:29.02	110.05	0.50	-50.9	-66.1	3.6	1.51e+00	0	40	104	909115392	60	72899
2026-01-04 11:40:30.04	110.15	0.46	-50.9	-66.1	3.6	1.51e+00	0	40	104	909115392	60	72841
2026-01-04 11:40:31.05	110.26	0.42	-50.9	-66.1	3.6	1.51e+00	0	40	104	909115392	60	72583
2026-01-04 11:40:32.05	110.36	0.39	-50.8	-66.0	3.6	1.51e+00	0	40	104	909115392	60	71824
2026-01-04 11:40:33.06	110.46	0.35	-50.7	-65.9	3.6	1.51e+00	0	40	104	909115392	60	71428
2026-01-04 11:40:34.07	110.56	0.31	-50.7	-65.9	3.6	1.51e+00	0	40	104	909115392	60	71280
2026-01-04 11:40:35.08	110.67	0.27	-50.7	-65.9	3.5	1.51e+00	0	40	104	909115392	60	71052
2026-01-04 11:40:36.09	110.77	0.23	-51.1	-66.3	3.6	1.51e+00	0	40	104	909115392	60	74228
2026-01-04 11:40:37.10	110.87	0.19	-51.6	-66.8	3.6	1.51e+00	0	40	104	909115392	60	79126
2026-01-04 11:40:38.11	110.97	0.16	-50.8	-66.0	3.6	1.51e+00	0	40	104	909115392	60	71876
2026-01-04 11:40:39.12	111.07	0.12	-51.4	-66.6	3.6	1.51e+00	0	40	104	909115392	60	77445
2026-01-04 11:40:40.13	111.17	0.08	-50.6	-65.7	3.6	1.51e+00	0	40	104	909115392	60	69948
2026-01-04 11:40:41.14	111.27	0.04	-50.9	-66.1	3.6	1.51e+00	0	40	104	909115392	60	72979
2026-01-04 11:40:42.15	111.37	0.00	-51.4	-66.6	3.6	1.51e+00	0	40	104	909115392	60	77307

#Closed at: 2026-01-04 11:40:42
#Recorded file [909 MB]: D:/lorett/data/35029_260104_232958.dat