passes_logs/2026/01/04/R4.6S_Anadyr/R4.6S_Anadyr__20260104_133055_NOAA_20_JPSS-1_rec.log

#Pass ID: 20260104_133055_NOAA 20 (JPSS-1)
#Satellite: NOAA 20 (JPSS-1)
#Configuration: NOAA 20
#almurnet v.1.7.20251203
#Start time: 2026-01-04 13:30:58

#Version: 2.2.20231116
#Station: R4.6S_Anadyr
#Location: 177.4865 lon 64.73178 lat
#TLE: 1 43013U 17073A   26003.41800368  .00000169  00000+0  10117-3 0  9998
#TLE: 2 43013  98.7624 304.4804 0001884  56.1176 304.0179 14.19532918421092

#Time	Az	El	Level	Level2	SNR	BER	BlckErr	Temp	State	Recorded	gain1	gain2
2026-01-04 13:30:58.25	18.98	0.16	-49.7	-64.6	3.5	1.51e+00	0	38	0	0	60	61537
2026-01-04 13:30:59.26	19.02	0.21	-50.0	-65.3	3.6	1.51e+00	0	39	104	0	60	66204
2026-01-04 13:31:00.27	19.06	0.27	-50.0	-65.3	3.6	1.51e+00	0	39	104	0	60	66350
2026-01-04 13:31:01.28	19.10	0.33	-49.7	-65.0	3.6	1.51e+00	0	39	104	0	60	63976
2026-01-04 13:31:02.29	19.14	0.39	-49.7	-64.9	3.6	1.51e+00	0	39	104	0	60	63524
2026-01-04 13:31:03.29	19.18	0.44	-49.6	-64.9	3.6	1.51e+00	0	39	104	0	60	63460
2026-01-04 13:31:04.30	19.22	0.50	-49.6	-64.8	3.6	1.51e+00	0	39	104	0	60	63099
2026-01-04 13:31:05.31	19.26	0.56	-49.5	-64.8	3.6	1.51e+00	0	39	104	0	60	62788
2026-01-04 13:31:06.32	19.31	0.62	-49.5	-64.7	3.6	1.51e+00	0	39	104	0	60	62313
2026-01-04 13:31:07.33	19.35	0.68	-49.4	-64.6	3.6	1.51e+00	0	39	104	0	60	61075
2026-01-04 13:31:08.34	19.39	0.73	-49.3	-64.5	3.6	1.51e+00	0	39	104	0	60	60811
2026-01-04 13:31:09.35	19.43	0.79	-49.3	-64.5	3.6	1.51e+00	0	39	104	0	60	60666
2026-01-04 13:31:10.36	19.47	0.85	-49.2	-64.4	3.6	1.51e+00	0	39	104	0	60	59771
2026-01-04 13:31:11.37	19.52	0.91	-49.0	-64.3	3.6	1.51e+00	0	39	104	0	60	58987
2026-01-04 13:31:12.38	19.56	0.97	-48.9	-64.1	3.6	1.51e+00	0	39	104	0	60	58164
2026-01-04 13:31:13.39	19.60	1.03	-48.7	-63.8	3.6	1.51e+00	0	39	104	0	60	56229
2026-01-04 13:31:14.40	19.65	1.09	-48.3	-63.5	3.6	1.51e+00	0	39	104	0	60	54031
2026-01-04 13:31:15.41	19.69	1.15	-48.0	-63.2	3.6	1.51e+00	0	39	104	0	60	52540
2026-01-04 13:31:16.42	19.73	1.20	-48.0	-63.2	3.6	1.51e+00	0	39	104	0	60	52508
2026-01-04 13:31:17.44	19.78	1.26	-48.0	-63.2	3.6	1.51e+00	0	39	104	0	60	52373
2026-01-04 13:31:18.44	19.82	1.32	-48.0	-63.2	3.6	1.51e+00	0	40	104	0	60	52101
2026-01-04 13:31:19.46	19.86	1.38	-48.0	-63.2	3.6	1.51e+00	0	40	104	0	60	52254
2026-01-04 13:31:20.46	19.91	1.44	-48.0	-63.2	3.6	1.51e+00	0	39	104	0	60	52339
2026-01-04 13:31:21.47	19.95	1.50	-48.0	-63.2	3.6	1.51e+00	0	39	104	0	60	52233
2026-01-04 13:31:22.48	19.99	1.56	-48.0	-63.2	3.6	1.51e+00	0	39	104	0	60	52303
2026-01-04 13:31:23.49	20.04	1.62	-48.0	-63.1	3.6	1.51e+00	0	40	104	0	60	51834
2026-01-04 13:31:24.50	20.08	1.68	-48.0	-63.1	3.6	1.51e+00	0	40	104	0	60	51887
2026-01-04 13:31:25.51	20.13	1.74	-48.0	-63.1	3.6	1.51e+00	0	40	104	0	60	51543
2026-01-04 13:31:26.52	20.17	1.80	-48.0	-63.1	3.5	1.51e+00	0	40	104	0	60	51627
2026-01-04 13:31:27.53	20.22	1.86	-48.0	-63.1	3.6	1.51e+00	0	40	104	0	60	51638
2026-01-04 13:31:28.54	20.26	1.92	-48.0	-63.2	3.6	1.51e+00	0	40	104	0	60	52042
2026-01-04 13:31:29.55	20.31	1.98	-48.0	-63.2	3.6	1.51e+00	0	40	104	0	60	52222
2026-01-04 13:31:30.56	20.35	2.05	-48.0	-63.2	3.6	1.51e+00	0	39	104	0	60	52341
2026-01-04 13:31:31.57	20.40	2.11	-48.0	-63.2	3.6	1.51e+00	0	40	104	0	60	52340
2026-01-04 13:31:32.58	20.45	2.17	-48.0	-63.2	3.6	1.51e+00	0	40	104	0	60	52408
2026-01-04 13:31:33.59	20.49	2.23	-48.0	-63.2	3.6	1.51e+00	0	39	104	0	60	52322
2026-01-04 13:31:34.60	20.54	2.29	-48.0	-63.2	3.6	1.51e+00	0	39	104	0	60	52421
2026-01-04 13:31:35.60	20.58	2.35	-48.0	-63.1	3.6	1.51e+00	0	40	104	0	60	51548
2026-01-04 13:31:36.61	20.63	2.41	-48.0	-62.8	3.6	1.51e+00	0	40	104	0	60	50018
2026-01-04 13:31:37.62	20.68	2.47	-48.0	-62.4	3.6	1.51e+00	0	40	104	0	60	47668
2026-01-04 13:31:38.63	20.72	2.54	-48.0	-62.4	3.6	1.51e+00	0	39	104	0	60	47698
2026-01-04 13:31:39.64	20.77	2.60	-48.0	-62.4	3.5	1.51e+00	0	40	104	0	60	47707
2026-01-04 13:31:40.65	20.82	2.66	-48.0	-62.9	3.6	1.51e+00	0	40	104	0	60	50719
2026-01-04 13:31:41.66	20.87	2.72	-48.0	-63.0	3.6	1.51e+00	0	40	104	0	60	51348
2026-01-04 13:31:42.67	20.91	2.78	-47.9	-61.3	3.6	1.51e+00	0	40	104	0	60	41836
2026-01-04 13:31:43.68	20.96	2.85	-47.6	-57.1	5.1	1.34e+00	0	40	0	0	60	25975
2026-01-04 13:31:44.69	21.01	2.91	-47.1	-53.3	8.3	2.79e-01	0	40	0	1048576	60	16777
2026-01-04 13:31:45.70	21.06	2.97	-45.9	-50.1	12.1	5.21e-03	0	40	0	3145728	60	11583
2026-01-04 13:31:46.71	21.11	3.03	-45.8	-49.9	12.1	1.56e-04	0	40	0	5242880	60	11238
2026-01-04 13:31:47.72	21.15	3.10	-44.1	-46.7	15.3	9.10e-06	0	40	0	7340032	60	7844
2026-01-04 13:31:48.73	21.20	3.16	-43.6	-45.8	16.5	0.00e+00	0	40	0	9437184	60	7085
2026-01-04 13:31:49.73	21.25	3.22	-43.1	-45.2	17.3	0.00e+00	0	40	0	10485760	60	6599
2026-01-04 13:31:50.75	21.30	3.29	-43.0	-45.0	16.9	0.00e+00	0	40	0	12582912	58	7209
2026-01-04 13:31:51.76	21.35	3.35	-43.1	-45.2	17.0	0.00e+00	0	40	0	14680064	58	7366
2026-01-04 13:31:52.77	21.40	3.41	-43.7	-46.0	16.1	0.00e+00	0	40	0	16777216	58	8117
2026-01-04 13:31:53.78	21.45	3.48	-43.8	-46.3	16.0	0.00e+00	0	40	0	18874368	60	7432
2026-01-04 13:31:54.78	21.50	3.54	-45.2	-48.6	13.6	0.00e+00	0	40	0	19922944	60	9696
2026-01-04 13:31:55.79	21.55	3.60	-45.9	-50.2	11.8	3.20e-05	0	40	0	22020096	60	11630
2026-01-04 13:31:56.80	21.60	3.67	-42.7	-44.6	17.4	1.52e-05	0	40	0	24117248	58	6875
2026-01-04 13:31:57.81	21.65	3.73	-43.0	-45.0	17.4	0.00e+00	0	40	0	26214400	58	7171
2026-01-04 13:31:58.82	21.70	3.80	-47.9	-62.8	3.6	3.91e-01	0	40	104	27262976	60	49685
2026-01-04 13:31:59.83	21.75	3.86	-47.0	-53.9	5.0	1.50e+00	4	40	104	27262976	60	17923
2026-01-04 13:32:00.84	21.80	3.93	-47.7	-55.5	5.6	1.13e-02	0	40	0	27262976	60	21557
2026-01-04 13:32:01.85	21.85	3.99	-44.6	-47.2	15.3	6.87e-03	0	40	0	29360128	60	8237
2026-01-04 13:32:02.85	21.90	4.06	-44.1	-46.5	16.0	0.00e+00	0	40	0	30408704	60	7619
2026-01-04 13:32:03.86	21.96	4.12	-43.6	-45.8	16.7	0.00e+00	0	40	0	32505856	60	7026
2026-01-04 13:32:04.87	22.01	4.19	-43.4	-45.5	17.3	0.00e+00	0	40	0	34603008	60	6773
2026-01-04 13:32:05.88	22.06	4.25	-43.8	-46.1	16.6	0.00e+00	0	40	0	36700160	60	7281
2026-01-04 13:32:06.89	22.11	4.32	-42.8	-44.6	17.7	0.00e+00	0	40	0	38797312	58	6882
2026-01-04 13:32:07.89	22.16	4.38	-42.8	-44.7	18.1	0.00e+00	0	40	0	40894464	58	6945
2026-01-04 13:32:08.91	22.22	4.45	-43.3	-45.3	17.2	0.00e+00	0	40	0	41943040	58	7440
2026-01-04 13:32:09.91	22.27	4.51	-42.3	-44.0	18.6	0.00e+00	0	40	0	44040192	58	6409
2026-01-04 13:32:10.92	22.32	4.58	-42.6	-44.4	18.3	0.00e+00	0	40	0	46137344	58	6693
2026-01-04 13:32:11.93	22.38	4.65	-42.5	-44.2	18.5	0.00e+00	0	40	0	48234496	58	6571
2026-01-04 13:32:12.94	22.43	4.71	-42.4	-44.2	18.4	0.00e+00	0	40	0	50331648	58	6540
2026-01-04 13:32:13.95	22.48	4.78	-42.6	-44.3	18.4	0.00e+00	0	40	0	51380224	58	6667
2026-01-04 13:32:14.96	22.54	4.84	-42.7	-44.5	18.0	0.00e+00	0	40	0	53477376	58	6834
2026-01-04 13:32:15.97	22.59	4.91	-42.6	-44.3	18.3	0.00e+00	0	40	0	55574528	58	6660
2026-01-04 13:32:16.98	22.65	4.98	-42.7	-44.5	18.3	0.00e+00	0	40	0	57671680	58	6779
2026-01-04 13:32:17.99	22.70	5.05	-42.5	-44.2	18.4	0.00e+00	0	40	0	59768832	58	6599
2026-01-04 13:32:19.00	22.76	5.11	-42.4	-44.1	18.6	0.00e+00	0	40	0	60817408	58	6508
2026-01-04 13:32:20.01	22.81	5.18	-42.7	-44.5	18.2	0.00e+00	0	40	0	62914560	58	6805
2026-01-04 13:32:21.01	22.87	5.25	-42.5	-44.3	18.5	0.00e+00	0	40	0	65011712	58	6621
2026-01-04 13:32:22.02	22.92	5.31	-42.0	-43.6	19.0	0.00e+00	0	40	0	67108864	58	6123
2026-01-04 13:32:23.03	22.98	5.38	-42.4	-44.0	18.8	0.00e+00	0	40	0	69206016	58	6446
2026-01-04 13:32:24.04	23.03	5.45	-42.3	-43.9	18.8	0.00e+00	0	40	0	70254592	58	6385
2026-01-04 13:32:25.05	23.09	5.52	-42.2	-43.8	18.8	0.00e+00	0	40	0	72351744	58	6315
2026-01-04 13:32:26.06	23.15	5.59	-42.7	-44.4	18.3	0.00e+00	0	40	0	74448896	58	6726
2026-01-04 13:32:27.07	23.20	5.65	-42.3	-44.0	18.8	0.00e+00	0	40	0	76546048	58	6411
2026-01-04 13:32:28.07	23.26	5.72	-42.5	-44.2	18.6	0.00e+00	0	40	0	78643200	58	6569
2026-01-04 13:32:29.08	23.32	5.79	-42.3	-44.0	18.8	0.00e+00	0	40	0	79691776	58	6395
2026-01-04 13:32:30.09	23.37	5.86	-42.3	-43.9	18.8	0.00e+00	0	40	0	81788928	58	6387
2026-01-04 13:32:31.09	23.43	5.93	-42.5	-44.2	18.4	0.00e+00	0	40	0	83886080	58	6602
2026-01-04 13:32:32.11	23.49	6.00	-42.7	-44.5	18.3	0.00e+00	0	40	0	85983232	58	6776
2026-01-04 13:32:33.11	23.55	6.07	-42.5	-44.1	18.7	0.00e+00	0	40	0	88080384	58	6531
2026-01-04 13:32:34.12	23.61	6.14	-42.5	-44.2	18.7	0.00e+00	0	40	0	89128960	58	6553
2026-01-04 13:32:35.13	23.67	6.21	-42.5	-44.1	18.7	0.00e+00	0	40	0	91226112	58	6501
2026-01-04 13:32:36.14	23.72	6.28	-42.3	-44.0	18.8	0.00e+00	0	40	0	93323264	58	6398
2026-01-04 13:32:37.15	23.78	6.35	-42.3	-44.0	18.9	0.00e+00	0	40	0	95420416	58	6409
2026-01-04 13:32:38.16	23.84	6.42	-42.3	-43.9	18.7	0.00e+00	0	40	0	97517568	58	6359
2026-01-04 13:32:39.17	23.90	6.49	-42.5	-44.1	18.6	0.00e+00	0	40	0	98566144	58	6519
2026-01-04 13:32:40.18	23.96	6.56	-42.6	-44.3	18.8	0.00e+00	0	40	0	100663296	58	6639
2026-01-04 13:32:41.19	24.02	6.63	-42.2	-43.8	19.2	0.00e+00	0	40	0	102760448	58	6250
2026-01-04 13:32:42.20	24.08	6.70	-42.3	-43.9	18.8	0.00e+00	0	40	0	104857600	58	6359
2026-01-04 13:32:43.21	24.15	6.77	-42.3	-43.9	19.0	0.00e+00	0	40	0	106954752	58	6360
2026-01-04 13:32:44.21	24.21	6.84	-41.7	-43.1	19.9	0.00e+00	0	40	0	108003328	56	6484
2026-01-04 13:32:45.22	24.27	6.91	-41.6	-43.0	19.9	0.00e+00	0	40	0	110100480	56	6403
2026-01-04 13:32:46.23	24.33	6.98	-41.6	-43.0	19.9	0.00e+00	0	40	0	112197632	56	6423
2026-01-04 13:32:47.24	24.39	7.06	-41.8	-43.2	19.7	0.00e+00	0	40	0	114294784	56	6606
2026-01-04 13:32:48.24	24.45	7.13	-41.7	-43.1	19.9	0.00e+00	0	40	0	116391936	56	6472
2026-01-04 13:32:49.25	24.52	7.20	-41.5	-42.9	20.0	0.00e+00	0	40	0	117440512	56	6339
2026-01-04 13:32:50.26	24.58	7.27	-41.7	-43.1	19.8	0.00e+00	0	40	0	119537664	56	6507
2026-01-04 13:32:51.27	24.64	7.34	-41.4	-42.7	20.2	0.00e+00	0	40	0	121634816	56	6245
2026-01-04 13:32:52.28	24.71	7.42	-41.4	-42.7	20.1	0.00e+00	0	40	0	123731968	56	6241
2026-01-04 13:32:53.29	24.77	7.49	-41.6	-42.9	20.0	0.00e+00	0	40	0	125829120	56	6384
2026-01-04 13:32:54.30	24.83	7.56	-41.5	-42.9	20.1	0.00e+00	0	40	0	126877696	56	6349
2026-01-04 13:32:55.31	24.90	7.64	-41.6	-43.0	20.0	0.00e+00	0	40	0	128974848	56	6403
2026-01-04 13:32:56.32	24.96	7.71	-41.4	-42.7	20.3	0.00e+00	0	40	0	131072000	56	6227
2026-01-04 13:32:57.33	25.03	7.78	-41.4	-42.7	20.2	0.00e+00	0	40	0	133169152	56	6216
2026-01-04 13:32:58.33	25.09	7.86	-41.1	-42.4	20.6	0.00e+00	0	40	0	135266304	56	6004
2026-01-04 13:32:59.34	25.16	7.93	-41.2	-42.4	20.5	0.00e+00	0	40	0	137363456	56	6032
2026-01-04 13:33:00.35	25.22	8.00	-41.2	-42.5	20.5	0.00e+00	0	40	0	138412032	56	6059
2026-01-04 13:33:01.36	25.29	8.08	-41.2	-42.5	20.5	0.00e+00	0	40	0	140509184	56	6058
2026-01-04 13:33:02.37	25.36	8.15	-41.2	-42.5	20.5	0.00e+00	0	40	0	142606336	56	6094
2026-01-04 13:33:03.38	25.42	8.23	-41.4	-42.8	20.3	0.00e+00	0	40	0	144703488	56	6248
2026-01-04 13:33:04.39	25.49	8.30	-41.0	-42.3	20.8	0.00e+00	0	40	0	146800640	56	5906
2026-01-04 13:33:05.40	25.56	8.38	-40.8	-42.1	21.0	0.00e+00	0	40	0	147849216	56	5763
2026-01-04 13:33:06.41	25.63	8.45	-40.9	-42.2	20.8	0.00e+00	0	40	0	149946368	56	5856
2026-01-04 13:33:07.41	25.69	8.53	-40.7	-41.9	21.1	0.00e+00	0	40	0	152043520	54	6355
2026-01-04 13:33:08.42	25.76	8.60	-40.8	-42.0	20.9	0.00e+00	0	40	0	154140672	54	6399
2026-01-04 13:33:09.43	25.83	8.68	-40.9	-42.1	20.9	0.00e+00	0	40	0	156237824	54	6506
2026-01-04 13:33:10.44	25.90	8.75	-40.8	-42.0	21.0	0.00e+00	0	40	0	157286400	54	6399
2026-01-04 13:33:11.45	25.97	8.83	-40.6	-41.8	21.1	0.00e+00	0	40	0	159383552	54	6285
2026-01-04 13:33:12.46	26.04	8.91	-40.6	-41.7	21.2	0.00e+00	0	40	0	161480704	54	6233
2026-01-04 13:33:13.46	26.11	8.98	-40.6	-41.8	21.2	0.00e+00	0	40	0	163577856	54	6298
2026-01-04 13:33:14.47	26.18	9.06	-40.7	-41.9	21.1	0.00e+00	0	40	0	165675008	54	6356
2026-01-04 13:33:15.49	26.25	9.14	-40.6	-41.8	21.2	0.00e+00	0	40	0	166723584	54	6247
2026-01-04 13:33:16.49	26.32	9.21	-40.6	-41.7	21.2	0.00e+00	0	40	0	168820736	54	6245
2026-01-04 13:33:17.50	26.39	9.29	-40.5	-41.6	21.3	0.00e+00	0	40	0	170917888	54	6168
2026-01-04 13:33:18.51	26.46	9.37	-40.4	-41.5	21.4	0.00e+00	0	40	0	173015040	54	6077
2026-01-04 13:33:19.52	26.54	9.45	-40.4	-41.5	21.4	0.00e+00	0	40	0	175112192	54	6098
2026-01-04 13:33:20.53	26.61	9.53	-40.4	-41.6	21.4	0.00e+00	0	40	0	176160768	54	6107
2026-01-04 13:33:21.54	26.68	9.60	-40.6	-41.8	21.2	0.00e+00	0	40	0	178257920	54	6261
2026-01-04 13:33:22.55	26.76	9.68	-40.7	-41.9	21.1	0.00e+00	0	40	0	180355072	54	6325
2026-01-04 13:33:23.56	26.83	9.76	-40.7	-41.9	21.1	0.00e+00	0	40	0	182452224	54	6363
2026-01-04 13:33:24.57	26.90	9.84	-41.0	-42.3	20.9	0.00e+00	0	40	0	184549376	54	6634
2026-01-04 13:33:25.58	26.98	9.92	-40.8	-42.0	21.0	0.00e+00	0	40	0	185597952	54	6423
2026-01-04 13:33:26.59	27.05	10.00	-40.8	-42.0	21.0	0.00e+00	0	40	0	187695104	54	6427
2026-01-04 13:33:27.60	27.13	10.08	-40.4	-41.5	21.6	0.00e+00	0	40	0	189792256	54	6063
2026-01-04 13:33:28.61	27.20	10.16	-40.0	-41.1	21.8	0.00e+00	0	40	0	191889408	54	5817
2026-01-04 13:33:29.62	27.28	10.24	-40.1	-41.2	21.8	0.00e+00	0	40	0	193986560	54	5870
2026-01-04 13:33:30.63	27.36	10.32	-40.0	-41.1	21.9	0.00e+00	0	40	0	195035136	54	5784
2026-01-04 13:33:31.64	27.43	10.40	-40.1	-41.2	21.9	0.00e+00	0	40	0	197132288	54	5835
2026-01-04 13:33:32.65	27.51	10.48	-40.0	-41.1	21.9	0.00e+00	0	40	0	199229440	54	5776
2026-01-04 13:33:33.65	27.59	10.56	-39.7	-40.7	22.3	0.00e+00	0	40	0	201326592	52	6222
2026-01-04 13:33:34.67	27.67	10.64	-39.7	-40.8	22.3	0.00e+00	0	40	0	203423744	52	6249
2026-01-04 13:33:35.67	27.74	10.72	-39.8	-40.8	22.2	0.00e+00	0	40	0	205520896	52	6290
2026-01-04 13:33:36.68	27.82	10.80	-39.6	-40.6	22.4	0.00e+00	0	40	0	206569472	52	6140
2026-01-04 13:33:37.69	27.90	10.89	-39.7	-40.7	22.3	0.00e+00	0	40	0	208666624	52	6210
2026-01-04 13:33:38.70	27.98	10.97	-39.7	-40.7	22.2	0.00e+00	0	40	0	210763776	52	6240
2026-01-04 13:33:39.71	28.06	11.05	-39.7	-40.7	22.3	0.00e+00	0	40	0	212860928	52	6204
2026-01-04 13:33:40.72	28.14	11.13	-39.6	-40.6	22.4	0.00e+00	0	40	0	214958080	52	6126
2026-01-04 13:33:41.73	28.22	11.21	-39.7	-40.7	22.4	0.00e+00	0	40	0	216006656	52	6197
2026-01-04 13:33:42.74	28.30	11.30	-39.6	-40.6	22.4	0.00e+00	0	40	0	218103808	52	6163
2026-01-04 13:33:43.75	28.39	11.38	-39.7	-40.8	22.3	0.00e+00	0	40	0	220200960	52	6261
2026-01-04 13:33:44.75	28.47	11.46	-39.7	-40.8	22.3	0.00e+00	0	40	0	222298112	52	6252
2026-01-04 13:33:45.76	28.55	11.55	-39.9	-40.9	22.2	0.00e+00	0	40	0	223346688	52	6371
2026-01-04 13:33:46.77	28.63	11.63	-39.8	-40.8	22.2	0.00e+00	0	40	0	225443840	52	6297
2026-01-04 13:33:47.78	28.72	11.72	-39.9	-40.9	22.3	0.00e+00	0	40	0	227540992	52	6379
2026-01-04 13:33:48.80	28.80	11.80	-39.8	-40.8	22.3	0.00e+00	0	40	0	229638144	52	6281
2026-01-04 13:33:49.80	28.88	11.88	-39.6	-40.6	22.4	0.00e+00	0	40	0	231735296	52	6136
2026-01-04 13:33:50.81	28.97	11.97	-39.5	-40.6	22.5	0.00e+00	0	40	0	233832448	52	6111
2026-01-04 13:33:51.82	29.05	12.05	-39.6	-40.6	22.5	0.00e+00	0	40	0	234881024	52	6151
2026-01-04 13:33:52.83	29.14	12.14	-39.4	-40.4	22.6	0.00e+00	0	40	0	236978176	52	5968
2026-01-04 13:33:53.83	29.23	12.22	-39.4	-40.3	22.5	0.00e+00	0	40	0	239075328	52	5949
2026-01-04 13:33:54.84	29.31	12.31	-39.7	-40.7	22.3	0.00e+00	0	40	0	241172480	52	6234
2026-01-04 13:33:55.85	29.40	12.40	-39.4	-40.4	22.5	0.00e+00	0	40	0	243269632	52	6009
2026-01-04 13:33:56.85	29.49	12.48	-39.3	-40.3	22.8	0.00e+00	0	40	0	244318208	52	5958
2026-01-04 13:33:57.86	29.58	12.57	-39.2	-40.2	22.8	0.00e+00	0	40	0	246415360	52	5853
2026-01-04 13:33:58.87	29.66	12.65	-39.2	-40.1	22.9	0.00e+00	0	40	0	248512512	52	5810
2026-01-04 13:33:59.88	29.75	12.74	-39.4	-40.3	22.7	0.00e+00	0	40	0	250609664	52	5964
2026-01-04 13:34:00.89	29.84	12.83	-39.3	-40.3	22.8	0.00e+00	0	40	0	252706816	52	5904
2026-01-04 13:34:01.89	29.93	12.92	-39.6	-40.6	22.6	0.00e+00	0	40	0	253755392	52	6118
2026-01-04 13:34:02.90	30.02	13.00	-39.2	-40.2	23.0	0.00e+00	0	40	0	255852544	52	5833
2026-01-04 13:34:03.91	30.11	13.09	-39.2	-40.2	22.8	0.00e+00	0	40	0	257949696	52	5845
2026-01-04 13:34:04.92	30.21	13.18	-39.0	-39.9	23.1	0.00e+00	0	40	0	260046848	52	5686
2026-01-04 13:34:05.93	30.30	13.27	-39.1	-40.0	23.1	0.00e+00	0	40	0	262144000	52	5752
2026-01-04 13:34:06.93	30.39	13.36	-39.0	-40.0	23.0	0.00e+00	0	40	0	263192576	52	5720
2026-01-04 13:34:07.94	30.48	13.45	-38.9	-39.8	23.2	0.00e+00	0	40	0	265289728	52	5629
2026-01-04 13:34:08.95	30.58	13.54	-39.0	-40.0	23.1	0.00e+00	0	40	0	267386880	52	5716
2026-01-04 13:34:09.96	30.67	13.62	-39.1	-40.1	23.1	0.00e+00	0	40	0	269484032	52	5768
2026-01-04 13:34:10.97	30.77	13.71	-38.8	-39.8	23.3	0.00e+00	0	40	0	271581184	52	5573
2026-01-04 13:34:11.97	30.86	13.80	-38.9	-39.8	23.2	0.00e+00	0	40	0	272629760	52	5597
2026-01-04 13:34:12.98	30.96	13.89	-38.8	-39.7	23.3	0.00e+00	0	40	0	274726912	50	6209
2026-01-04 13:34:13.99	31.05	13.99	-38.7	-39.6	23.4	0.00e+00	0	40	0	276824064	50	6145
2026-01-04 13:34:15.00	31.15	14.08	-38.6	-39.5	23.5	0.00e+00	0	40	0	278921216	50	6057
2026-01-04 13:34:16.00	31.25	14.17	-38.7	-39.6	23.5	0.00e+00	0	40	0	281018368	50	6118
2026-01-04 13:34:17.01	31.35	14.26	-38.6	-39.5	23.5	0.00e+00	0	40	0	282066944	50	6069
2026-01-04 13:34:18.02	31.44	14.35	-38.7	-39.6	23.4	0.00e+00	0	40	0	284164096	50	6139
2026-01-04 13:34:19.03	31.54	14.44	-38.8	-39.7	23.3	0.00e+00	0	40	0	286261248	50	6244
2026-01-04 13:34:20.04	31.64	14.53	-38.9	-39.9	23.2	0.00e+00	0	40	0	288358400	50	6319
2026-01-04 13:34:21.05	31.75	14.63	-38.4	-39.3	23.7	0.00e+00	0	40	0	290455552	50	5946
2026-01-04 13:34:22.06	31.85	14.72	-38.6	-39.5	23.6	0.00e+00	0	40	0	291504128	50	6051
2026-01-04 13:34:23.07	31.95	14.81	-38.6	-39.5	23.4	0.00e+00	0	40	0	293601280	50	6098
2026-01-04 13:34:24.07	32.05	14.91	-38.7	-39.6	23.4	0.00e+00	0	40	0	295698432	50	6139
2026-01-04 13:34:25.09	32.15	15.00	-38.8	-39.7	23.4	0.00e+00	0	40	0	297795584	50	6186
2026-01-04 13:34:26.10	32.26	15.09	-39.0	-39.9	23.2	0.00e+00	0	40	0	299892736	50	6390
2026-01-04 13:34:27.11	32.36	15.19	-39.2	-40.1	23.0	0.00e+00	0	40	0	300941312	50	6529
2026-01-04 13:34:28.11	32.47	15.28	-38.8	-39.7	23.3	0.00e+00	0	40	0	303038464	50	6241
2026-01-04 13:34:29.12	32.57	15.38	-39.1	-40.0	23.1	0.00e+00	0	40	0	305135616	50	6464
2026-01-04 13:34:30.13	32.68	15.47	-38.9	-39.8	23.2	0.00e+00	0	40	0	307232768	50	6300
2026-01-04 13:34:31.13	32.78	15.57	-38.9	-39.8	23.3	0.00e+00	0	40	0	309329920	50	6295
2026-01-04 13:34:32.14	32.89	15.66	-39.1	-40.1	23.1	0.00e+00	0	40	0	310378496	50	6474
2026-01-04 13:34:33.15	33.00	15.76	-39.0	-39.9	23.1	0.00e+00	0	40	0	312475648	50	6382
2026-01-04 13:34:34.16	33.11	15.85	-39.2	-40.2	22.9	0.00e+00	0	40	0	314572800	50	6542
2026-01-04 13:34:35.17	33.22	15.95	-39.3	-40.3	22.7	0.00e+00	0	40	0	316669952	50	6632
2026-01-04 13:34:36.18	33.33	16.05	-39.2	-40.2	23.0	0.00e+00	0	40	0	318767104	50	6551
2026-01-04 13:34:37.19	33.44	16.15	-39.1	-40.1	22.9	0.00e+00	0	40	0	319815680	50	6466
2026-01-04 13:34:38.20	33.55	16.24	-39.1	-40.1	23.0	0.00e+00	0	40	0	321912832	50	6479
2026-01-04 13:34:39.21	33.66	16.34	-39.1	-40.1	23.1	0.00e+00	0	40	0	324009984	50	6501
2026-01-04 13:34:40.22	33.78	16.44	-39.0	-39.9	23.2	0.00e+00	0	40	0	326107136	50	6358
2026-01-04 13:34:41.23	33.89	16.54	-39.1	-40.1	23.1	0.00e+00	0	40	0	328204288	50	6502
2026-01-04 13:34:42.24	34.00	16.64	-39.0	-40.0	23.2	0.00e+00	0	40	0	330301440	50	6395
2026-01-04 13:34:43.25	34.12	16.73	-39.2	-40.2	22.9	0.00e+00	0	40	0	331350016	50	6565
2026-01-04 13:34:44.26	34.23	16.83	-39.1	-40.0	23.1	0.00e+00	0	40	0	333447168	50	6427
2026-01-04 13:34:45.27	34.35	16.93	-39.1	-40.0	23.1	0.00e+00	0	40	0	335544320	50	6435
2026-01-04 13:34:46.27	34.47	17.03	-39.0	-39.9	23.2	0.00e+00	0	40	0	337641472	50	6360
2026-01-04 13:34:47.28	34.59	17.13	-39.1	-40.0	23.1	0.00e+00	0	40	0	339738624	50	6455
2026-01-04 13:34:48.29	34.70	17.23	-39.1	-40.0	23.1	0.00e+00	0	40	0	340787200	50	6461
2026-01-04 13:34:49.30	34.82	17.33	-39.3	-40.2	23.0	0.00e+00	0	40	0	342884352	50	6588
2026-01-04 13:34:50.31	34.94	17.43	-39.2	-40.1	23.0	0.00e+00	0	40	0	344981504	50	6521
2026-01-04 13:34:51.32	35.07	17.54	-39.2	-40.2	23.0	0.00e+00	0	40	0	347078656	50	6582
2026-01-04 13:34:52.33	35.19	17.64	-39.4	-40.3	22.7	0.00e+00	0	40	0	349175808	50	6684
2026-01-04 13:34:53.33	35.31	17.74	-39.4	-40.3	22.9	0.00e+00	0	40	0	350224384	50	6676
2026-01-04 13:34:54.34	35.43	17.84	-39.5	-40.5	22.7	0.00e+00	0	40	0	352321536	50	6809
2026-01-04 13:34:55.35	35.56	17.94	-39.6	-40.6	22.7	0.00e+00	0	40	0	354418688	52	6172
2026-01-04 13:34:56.36	35.68	18.05	-39.8	-40.8	22.6	0.00e+00	0	40	0	356515840	52	6295
2026-01-04 13:34:57.37	35.81	18.15	-40.0	-41.1	22.2	0.00e+00	0	40	0	358612992	52	6472
2026-01-04 13:34:58.38	35.93	18.25	-40.0	-41.0	22.3	0.00e+00	0	40	0	359661568	52	6430
2026-01-04 13:34:59.39	36.06	18.36	-40.2	-41.3	22.1	0.00e+00	0	40	0	361758720	52	6657
2026-01-04 13:35:00.40	36.19	18.46	-40.0	-41.1	22.3	0.00e+00	0	40	0	363855872	52	6479
2026-01-04 13:35:01.41	36.32	18.56	-40.0	-41.0	22.2	0.00e+00	0	40	0	365953024	52	6424
2026-01-04 13:35:02.42	36.45	18.67	-40.2	-41.3	22.1	0.00e+00	0	40	0	368050176	52	6629
2026-01-04 13:35:03.43	36.58	18.77	-40.2	-41.3	22.0	0.00e+00	0	40	0	369098752	52	6622
2026-01-04 13:35:04.44	36.71	18.88	-40.0	-41.1	22.2	0.00e+00	0	40	0	371195904	52	6471
2026-01-04 13:35:05.45	36.85	18.98	-40.2	-41.3	21.9	0.00e+00	0	40	0	373293056	52	6662
2026-01-04 13:35:06.46	36.98	19.09	-40.1	-41.1	22.2	0.00e+00	0	40	0	375390208	52	6526
2026-01-04 13:35:07.47	37.11	19.20	-40.1	-41.1	22.1	0.00e+00	0	40	0	377487360	52	6526
2026-01-04 13:35:08.48	37.25	19.30	-40.1	-41.2	22.1	0.00e+00	0	40	0	378535936	52	6542
2026-01-04 13:35:09.49	37.39	19.41	-40.1	-41.1	22.2	0.00e+00	0	40	0	380633088	52	6515
2026-01-04 13:35:10.49	37.52	19.52	-40.1	-41.1	22.2	0.00e+00	0	40	0	382730240	52	6526
2026-01-04 13:35:11.50	37.66	19.62	-40.1	-41.2	22.1	0.00e+00	0	40	0	384827392	52	6556
2026-01-04 13:35:12.51	37.80	19.73	-40.2	-41.3	22.0	0.00e+00	0	40	0	386924544	52	6621
2026-01-04 13:35:13.52	37.94	19.84	-40.1	-41.1	22.2	0.00e+00	0	40	0	387973120	52	6512
2026-01-04 13:35:14.52	38.08	19.95	-40.2	-41.3	22.1	0.00e+00	0	40	0	390070272	52	6617
2026-01-04 13:35:15.53	38.22	20.05	-40.1	-41.1	22.2	0.00e+00	0	40	0	392167424	52	6526
2026-01-04 13:35:16.54	38.36	20.16	-40.1	-41.2	22.2	0.00e+00	0	40	0	394264576	52	6565
2026-01-04 13:35:17.82	38.55	20.30	-40.1	-41.2	22.2	0.00e+00	0	40	0	396361728	52	6566
2026-01-04 13:35:18.54	38.65	20.38	-39.9	-41.0	22.4	0.00e+00	0	40	0	397410304	52	6395
2026-01-04 13:35:19.83	38.84	20.52	-40.0	-41.1	22.3	0.00e+00	0	40	0	399507456	52	6483
2026-01-04 13:35:20.56	38.94	20.60	-40.0	-41.0	22.3	0.00e+00	0	40	0	401604608	52	6462
2026-01-04 13:35:21.85	39.13	20.74	-40.0	-41.0	22.4	0.00e+00	0	40	0	403701760	52	6460
2026-01-04 13:35:22.57	39.24	20.82	-40.0	-41.0	22.3	0.00e+00	0	40	0	404750336	52	6451
2026-01-04 13:35:23.87	39.43	20.96	-39.8	-40.8	22.5	0.00e+00	0	40	0	406847488	52	6294
2026-01-04 13:35:24.59	39.54	21.04	-39.8	-40.8	22.5	0.00e+00	0	40	0	408944640	52	6285
2026-01-04 13:35:25.89	39.74	21.19	-39.9	-40.9	22.5	0.00e+00	0	40	0	411041792	52	6339
2026-01-04 13:35:26.61	39.85	21.27	-39.9	-40.9	22.4	0.00e+00	0	40	0	412090368	52	6336
2026-01-04 13:35:27.90	40.04	21.41	-39.9	-41.0	22.4	0.00e+00	0	40	0	415236096	52	6391
2026-01-04 13:35:28.62	40.15	21.49	-39.9	-40.9	22.4	0.00e+00	0	40	0	416284672	52	6353
2026-01-04 13:35:29.92	40.36	21.64	-40.0	-41.0	22.4	0.00e+00	0	40	0	418381824	52	6439
2026-01-04 13:35:30.64	40.47	21.72	-39.9	-40.9	22.1	0.00e+00	0	40	0	420478976	52	6390
2026-01-04 13:35:31.94	40.67	21.86	-40.1	-41.2	22.2	0.00e+00	0	40	0	422576128	52	6546
2026-01-04 13:35:32.66	40.79	21.94	-40.0	-41.1	22.3	0.00e+00	0	40	0	423624704	52	6467
2026-01-04 13:35:33.95	40.99	22.09	-40.1	-41.1	22.2	0.00e+00	0	40	0	426770432	52	6511
2026-01-04 13:35:34.67	41.11	22.17	-40.0	-41.0	22.3	0.00e+00	0	40	0	427819008	52	6454
2026-01-04 13:35:35.97	41.32	22.32	-39.9	-40.9	22.4	0.00e+00	0	40	0	429916160	52	6360
2026-01-04 13:35:36.69	41.44	22.40	-40.0	-41.0	22.3	0.00e+00	0	40	0	430964736	52	6461
2026-01-04 13:35:37.99	41.65	22.55	-39.8	-40.8	22.6	0.00e+00	0	40	0	434110464	52	6278
2026-01-04 13:35:38.71	41.77	22.63	-39.8	-40.8	22.5	0.00e+00	0	40	0	435159040	52	6312
2026-01-04 13:35:40.01	41.99	22.78	-39.7	-40.7	22.7	0.00e+00	0	40	0	437256192	52	6176
2026-01-04 13:35:40.73	42.11	22.86	-39.6	-40.5	22.8	0.00e+00	0	40	0	439353344	52	6099
2026-01-04 13:35:42.03	42.33	23.01	-39.5	-40.4	22.9	0.00e+00	0	40	0	441450496	52	6015
2026-01-04 13:35:42.75	42.45	23.09	-39.4	-40.4	22.9	0.00e+00	0	40	0	442499072	52	5972
2026-01-04 13:35:44.05	42.67	23.25	-39.5	-40.5	22.9	0.00e+00	0	40	0	445644800	52	6068
2026-01-04 13:35:44.77	42.80	23.33	-39.5	-40.5	22.8	0.00e+00	0	40	0	446693376	52	6066
2026-01-04 13:35:46.07	43.02	23.48	-39.4	-40.4	23.0	0.00e+00	0	40	0	448790528	52	5966
2026-01-04 13:35:46.79	43.15	23.56	-39.5	-40.5	22.9	0.00e+00	0	40	0	450887680	52	6080
2026-01-04 13:35:48.09	43.38	23.72	-39.4	-40.3	23.0	0.00e+00	0	40	0	452984832	52	5952
2026-01-04 13:35:48.81	43.51	23.80	-39.4	-40.4	22.8	0.00e+00	0	40	0	454033408	52	5977
2026-01-04 13:35:50.11	43.74	23.95	-39.3	-40.2	22.1	0.00e+00	0	40	0	456130560	52	5863
2026-01-04 13:35:50.83	43.87	24.04	-39.4	-40.3	22.4	0.00e+00	0	40	0	458227712	52	5964
2026-01-04 13:35:52.13	44.11	24.19	-39.3	-40.3	22.9	0.00e+00	0	40	0	460324864	52	5903
2026-01-04 13:35:52.85	44.24	24.27	-39.3	-40.2	23.1	0.00e+00	0	40	0	461373440	52	5880
2026-01-04 13:35:54.14	44.48	24.43	-39.1	-40.1	23.3	0.00e+00	0	40	0	464519168	52	5781
2026-01-04 13:35:54.86	44.61	24.51	-38.9	-39.8	23.4	0.00e+00	0	40	0	465567744	52	5616
2026-01-04 13:35:56.16	44.85	24.67	-38.7	-39.6	23.6	0.00e+00	0	40	0	467664896	50	6120
2026-01-04 13:35:56.88	44.99	24.75	-38.6	-39.4	23.8	0.00e+00	0	40	0	468713472	50	6015
2026-01-04 13:35:58.18	45.24	24.91	-38.4	-39.3	23.9	0.00e+00	0	40	0	471859200	50	5901
2026-01-04 13:35:58.90	45.37	24.99	-38.3	-39.2	23.9	0.00e+00	0	40	0	472907776	50	5856
2026-01-04 13:36:00.19	45.62	25.15	-38.5	-39.4	23.9	0.00e+00	0	40	0	475004928	50	5972
2026-01-04 13:36:00.91	45.76	25.23	-38.5	-39.4	23.9	0.00e+00	0	40	0	477102080	50	5965
2026-01-04 13:36:02.21	46.02	25.39	-38.5	-39.4	23.8	0.00e+00	0	40	0	479199232	50	5984
2026-01-04 13:36:02.93	46.16	25.48	-38.4	-39.3	23.9	0.00e+00	0	40	0	480247808	50	5941
2026-01-04 13:36:04.23	46.42	25.63	-38.5	-39.4	23.9	0.00e+00	0	40	0	483393536	50	5988
2026-01-04 13:36:04.95	46.56	25.72	-38.5	-39.3	23.8	0.00e+00	0	40	0	484442112	50	5951
2026-01-04 13:36:06.25	46.83	25.88	-38.4	-39.3	23.9	0.00e+00	0	40	0	486539264	50	5940
2026-01-04 13:36:06.97	46.97	25.96	-38.5	-39.4	23.8	0.00e+00	0	40	0	488636416	50	5975
2026-01-04 13:36:08.27	47.24	26.12	-38.4	-39.3	23.8	0.00e+00	0	40	0	490733568	50	5936
2026-01-04 13:36:08.99	47.39	26.21	-38.4	-39.3	24.0	0.00e+00	0	40	0	491782144	50	5939
2026-01-04 13:36:10.29	47.66	26.37	-38.6	-39.5	23.7	0.00e+00	0	40	0	494927872	50	6047
2026-01-04 13:36:11.01	47.81	26.45	-38.5	-39.4	23.7	0.00e+00	0	40	0	495976448	50	5991
2026-01-04 13:36:12.31	48.08	26.61	-38.6	-39.5	23.7	0.00e+00	0	40	0	498073600	50	6075
2026-01-04 13:36:13.03	48.24	26.70	-38.8	-39.8	23.5	0.00e+00	0	40	0	499122176	50	6255
2026-01-04 13:36:14.32	48.51	26.86	-38.9	-39.8	23.4	0.00e+00	0	40	0	502267904	50	6296
2026-01-04 13:36:15.05	48.67	26.95	-39.0	-39.9	23.2	0.00e+00	0	40	0	503316480	50	6346
2026-01-04 13:36:16.34	48.95	27.11	-39.1	-40.0	23.2	0.00e+00	0	40	0	505413632	50	6424
2026-01-04 13:36:17.06	49.11	27.19	-39.0	-40.0	23.3	0.00e+00	0	40	0	507510784	50	6403
2026-01-04 13:36:18.36	49.40	27.35	-38.8	-39.7	23.6	0.00e+00	0	40	0	509607936	50	6205
2026-01-04 13:36:19.08	49.56	27.44	-39.0	-39.9	23.5	0.00e+00	0	40	0	510656512	50	6351
2026-01-04 13:36:20.38	49.85	27.60	-39.2	-40.2	23.2	0.00e+00	0	40	0	512753664	50	6571
2026-01-04 13:36:21.10	50.01	27.69	-39.4	-40.4	23.0	0.00e+00	0	40	0	514850816	50	6697
2026-01-04 13:36:22.40	50.31	27.85	-39.4	-40.4	23.0	0.00e+00	0	40	0	516947968	50	6729
2026-01-04 13:36:23.12	50.47	27.94	-39.3	-40.3	23.2	0.00e+00	0	40	0	517996544	50	6650
2026-01-04 13:36:24.41	50.77	28.10	-39.3	-40.3	23.1	0.00e+00	0	40	0	521142272	50	6640
2026-01-04 13:36:25.13	50.94	28.19	-39.4	-40.3	23.0	0.00e+00	0	40	0	522190848	50	6689
2026-01-04 13:36:26.43	51.24	28.35	-39.2	-40.2	23.2	0.00e+00	0	40	0	524288000	50	6565
2026-01-04 13:36:27.15	51.42	28.43	-39.2	-40.1	23.2	0.00e+00	0	40	0	526385152	50	6532
2026-01-04 13:36:28.45	51.73	28.59	-39.4	-40.3	23.0	0.00e+00	0	40	0	528482304	50	6657
2026-01-04 13:36:29.17	51.90	28.68	-39.6	-40.6	22.8	0.00e+00	0	40	0	529530880	50	6876
2026-01-04 13:36:30.47	52.21	28.84	-39.9	-40.9	22.6	0.00e+00	0	40	0	532676608	52	6326
2026-01-04 13:36:31.19	52.39	28.93	-40.2	-41.2	22.3	0.00e+00	0	40	0	533725184	52	6586
2026-01-04 13:36:32.49	52.71	29.09	-40.1	-41.2	22.3	0.00e+00	0	40	0	535822336	52	6566
2026-01-04 13:36:33.21	52.89	29.18	-40.1	-41.1	22.3	0.00e+00	0	40	0	536870912	52	6527
2026-01-04 13:36:34.51	53.21	29.34	-40.3	-41.4	22.1	0.00e+00	0	40	0	540016640	52	6727
2026-01-04 13:36:35.23	53.39	29.43	-40.4	-41.5	21.9	0.00e+00	0	40	0	541065216	52	6798
2026-01-04 13:36:36.53	53.72	29.59	-41.0	-42.2	21.3	0.00e+00	0	40	0	543162368	54	6579
2026-01-04 13:36:37.25	53.91	29.68	-40.8	-41.9	21.6	0.00e+00	0	40	0	545259520	54	6367
2026-01-04 13:36:38.55	54.24	29.84	-40.9	-42.1	21.5	0.00e+00	0	40	0	547356672	54	6470
2026-01-04 13:36:39.27	54.43	29.93	-41.2	-42.3	21.3	0.00e+00	0	40	0	548405248	54	6688
2026-01-04 13:36:40.57	54.77	30.09	-41.3	-42.4	21.2	0.00e+00	0	40	0	551550976	54	6769
2026-01-04 13:36:41.29	54.96	30.18	-41.1	-42.3	21.3	0.00e+00	0	40	0	552599552	54	6666
2026-01-04 13:36:42.59	55.30	30.34	-40.8	-42.0	21.6	0.00e+00	0	40	0	554696704	54	6393
2026-01-04 13:36:43.31	55.49	30.42	-40.7	-41.9	21.6	0.00e+00	0	40	0	556793856	54	6328
2026-01-04 13:36:44.60	55.84	30.58	-40.8	-41.9	21.7	0.00e+00	0	40	0	558891008	54	6372
2026-01-04 13:36:45.32	56.04	30.67	-41.0	-42.2	21.4	0.00e+00	0	40	0	559939584	54	6541
2026-01-04 13:36:46.62	56.39	30.83	-41.3	-42.5	21.0	0.00e+00	0	40	0	562036736	54	6840
2026-01-04 13:36:47.34	56.59	30.92	-41.6	-42.9	20.7	0.00e+00	0	40	0	564133888	54	7100
2026-01-04 13:36:48.64	56.95	31.07	-42.5	-43.9	19.8	0.00e+00	0	40	0	566231040	56	7147
2026-01-04 13:36:49.36	57.15	31.16	-42.7	-44.1	19.6	0.00e+00	0	40	0	567279616	56	7330
2026-01-04 13:36:50.66	57.52	31.32	-43.1	-44.7	19.0	0.00e+00	0	40	0	570425344	58	6938
2026-01-04 13:36:51.38	57.72	31.41	-43.4	-45.1	18.6	0.00e+00	0	40	0	571473920	58	7290
2026-01-04 13:36:52.68	58.09	31.56	-43.6	-45.3	18.5	0.00e+00	0	40	0	573571072	58	7440
2026-01-04 13:36:53.40	58.30	31.65	-43.6	-45.3	18.4	0.00e+00	0	40	0	575668224	58	7440
2026-01-04 13:36:54.70	58.68	31.81	-43.6	-45.3	18.5	0.00e+00	0	40	0	577765376	58	7452
2026-01-04 13:36:55.42	58.89	31.89	-43.2	-44.9	18.9	0.00e+00	0	40	0	578813952	58	7096
2026-01-04 13:36:56.72	59.27	32.05	-43.1	-44.7	19.1	0.00e+00	0	40	0	580911104	58	6961
2026-01-04 13:36:57.44	59.48	32.13	-42.8	-44.2	19.5	0.00e+00	0	40	0	583008256	58	6608
2026-01-04 13:36:58.74	59.87	32.29	-42.8	-44.3	19.4	0.00e+00	0	40	0	585105408	58	6636
2026-01-04 13:36:59.46	60.09	32.37	-43.0	-44.6	19.1	0.00e+00	0	40	0	586153984	58	6851
2026-01-04 13:37:00.75	60.48	32.52	-43.3	-44.9	18.8	0.00e+00	0	40	0	589299712	58	7143
2026-01-04 13:37:01.47	60.70	32.61	-43.4	-45.1	18.6	0.00e+00	0	40	0	590348288	58	7268
2026-01-04 13:37:02.77	61.10	32.76	-44.0	-45.8	18.0	0.00e+00	0	40	0	592445440	60	7071
2026-01-04 13:37:03.49	61.32	32.85	-44.1	-46.0	17.8	0.00e+00	0	40	0	594542592	60	7195
2026-01-04 13:37:04.79	61.73	33.00	-43.8	-45.6	18.2	0.00e+00	0	40	0	596639744	60	6913
2026-01-04 13:37:05.51	61.95	33.08	-43.7	-45.5	18.4	0.00e+00	0	40	0	597688320	60	6809
2026-01-04 13:37:06.81	62.36	33.23	-43.1	-44.7	19.1	0.00e+00	0	40	0	600834048	60	6240
2026-01-04 13:37:07.53	62.59	33.31	-42.9	-44.4	19.2	0.00e+00	0	40	0	601882624	60	6010
2026-01-04 13:37:08.83	63.01	33.46	-42.5	-43.9	19.8	0.00e+00	0	40	0	603979776	58	6368
2026-01-04 13:37:09.55	63.24	33.54	-42.5	-43.9	19.7	0.00e+00	0	40	0	605028352	58	6339
2026-01-04 13:37:10.85	63.67	33.69	-42.6	-44.1	19.7	0.00e+00	0	40	0	608174080	58	6470
2026-01-04 13:37:11.57	63.90	33.77	-42.5	-43.9	19.8	0.00e+00	0	40	0	609222656	58	6373
2026-01-04 13:37:12.86	64.33	33.91	-42.4	-43.8	19.7	0.00e+00	0	40	0	611319808	58	6292
2026-01-04 13:37:13.59	64.57	34.00	-42.4	-43.9	19.8	0.00e+00	0	40	0	613416960	58	6328
2026-01-04 13:37:14.88	65.00	34.14	-42.5	-43.9	19.8	0.00e+00	0	40	0	615514112	58	6330
2026-01-04 13:37:15.60	65.24	34.22	-42.5	-43.9	19.8	0.00e+00	0	40	0	616562688	58	6351
2026-01-04 13:37:16.90	65.68	34.36	-42.3	-43.7	19.8	0.00e+00	0	40	0	619708416	58	6190
2026-01-04 13:37:17.62	65.93	34.44	-42.4	-43.7	19.9	0.00e+00	0	40	0	620756992	58	6245
2026-01-04 13:37:18.92	66.38	34.58	-42.2	-43.6	20.0	0.00e+00	0	40	0	622854144	58	6121
2026-01-04 13:37:19.64	66.62	34.65	-42.3	-43.7	20.1	0.00e+00	0	40	0	624951296	58	6211
2026-01-04 13:37:20.94	67.08	34.79	-42.0	-43.3	20.3	0.00e+00	0	40	0	627048448	58	5940
2026-01-04 13:37:21.65	67.32	34.87	-41.8	-43.1	20.6	0.00e+00	0	40	0	628097024	58	5771
2026-01-04 13:37:22.95	67.78	35.00	-41.7	-43.0	20.8	0.00e+00	0	40	0	630194176	56	6392
2026-01-04 13:37:23.67	68.04	35.08	-41.4	-42.6	21.0	0.00e+00	0	40	0	632291328	56	6134
2026-01-04 13:37:24.97	68.50	35.21	-41.3	-42.5	21.2	0.00e+00	0	40	0	634388480	56	6053
2026-01-04 13:37:25.69	68.76	35.28	-41.4	-42.6	20.8	0.00e+00	0	40	0	635437056	56	6143
2026-01-04 13:37:26.99	69.23	35.42	-41.6	-42.9	20.8	0.00e+00	0	40	0	638582784	56	6328
2026-01-04 13:37:27.71	69.49	35.49	-41.7	-43.0	20.7	0.00e+00	0	40	0	639631360	56	6445
2026-01-04 13:37:29.01	69.97	35.62	-41.2	-42.3	21.4	0.00e+00	0	40	0	641728512	56	5956
2026-01-04 13:37:29.73	70.23	35.69	-40.8	-41.9	21.7	0.00e+00	0	40	0	643825664	56	5675
2026-01-04 13:37:31.02	70.71	35.81	-39.9	-40.9	22.6	0.00e+00	0	40	0	645922816	54	5695
2026-01-04 13:37:31.74	70.98	35.88	-39.6	-40.6	22.8	0.00e+00	0	40	0	646971392	52	6116
2026-01-04 13:37:33.04	71.46	36.00	-39.3	-40.2	23.2	0.00e+00	0	40	0	649068544	52	5879
2026-01-04 13:37:33.76	71.74	36.07	-39.4	-40.3	23.1	0.00e+00	0	40	0	651165696	52	5944
2026-01-04 13:37:35.06	72.23	36.19	-39.5	-40.5	22.9	0.00e+00	0	40	0	653262848	52	6035
2026-01-04 13:37:35.78	72.50	36.26	-39.7	-40.7	22.8	0.00e+00	0	40	0	654311424	52	6203
2026-01-04 13:37:37.08	73.00	36.38	-39.8	-40.8	22.7	0.00e+00	0	40	0	657457152	52	6280
2026-01-04 13:37:37.80	73.28	36.44	-39.8	-40.8	22.7	0.00e+00	0	40	0	658505728	52	6270
2026-01-04 13:37:39.10	73.78	36.56	-39.8	-40.8	22.7	0.00e+00	0	40	0	660602880	52	6273
2026-01-04 13:37:39.82	74.06	36.62	-39.7	-40.7	22.8	0.00e+00	0	40	0	662700032	52	6205
2026-01-04 13:37:41.12	74.57	36.73	-39.7	-40.7	22.8	0.00e+00	0	40	0	664797184	52	6180
2026-01-04 13:37:41.84	74.85	36.79	-39.8	-40.8	22.7	0.00e+00	0	40	0	665845760	52	6284
2026-01-04 13:37:43.14	75.37	36.90	-40.0	-41.0	22.5	0.00e+00	0	40	0	668991488	52	6443
2026-01-04 13:37:43.86	75.65	36.96	-40.3	-41.4	22.1	0.00e+00	0	40	0	670040064	52	6714
2026-01-04 13:37:45.15	76.17	37.06	-40.3	-41.4	22.1	0.00e+00	0	40	0	672137216	52	6710
2026-01-04 13:37:45.87	76.46	37.12	-40.6	-41.7	21.9	0.00e+00	0	40	0	673185792	52	6939
2026-01-04 13:37:47.17	76.98	37.22	-40.4	-41.5	22.0	0.00e+00	0	40	0	676331520	52	6822
2026-01-04 13:37:47.90	77.28	37.27	-40.4	-41.4	22.1	0.00e+00	0	40	0	677380096	52	6758
2026-01-04 13:37:49.19	77.80	37.37	-40.4	-41.5	22.1	0.00e+00	0	40	0	679477248	52	6771
2026-01-04 13:37:49.92	78.10	37.42	-40.4	-41.5	22.0	0.00e+00	0	40	0	681574400	52	6791
2026-01-04 13:37:51.21	78.63	37.52	-40.5	-41.5	22.0	0.00e+00	0	40	0	683671552	52	6832
2026-01-04 13:37:51.93	78.93	37.57	-40.5	-41.6	21.8	0.00e+00	0	40	0	684720128	52	6908
2026-01-04 13:37:53.23	79.47	37.66	-40.7	-41.8	21.7	0.00e+00	0	40	0	687865856	54	6292
2026-01-04 13:37:53.95	79.77	37.71	-40.8	-41.9	21.7	0.00e+00	0	40	0	688914432	54	6354
2026-01-04 13:37:55.25	80.31	37.79	-40.5	-41.6	22.0	0.00e+00	0	40	0	691011584	54	6115
2026-01-04 13:37:55.97	80.61	37.84	-40.4	-41.4	22.0	0.00e+00	0	40	0	692060160	54	6014
2026-01-04 13:37:57.27	81.16	37.92	-40.6	-41.7	21.8	0.00e+00	0	40	0	695205888	54	6179
2026-01-04 13:37:57.99	81.47	37.96	-41.0	-42.1	21.3	0.00e+00	0	40	0	696254464	54	6486
2026-01-04 13:37:59.29	82.02	38.04	-41.3	-42.5	21.0	0.00e+00	0	40	0	698351616	54	6809
2026-01-04 13:38:00.01	82.33	38.08	-41.5	-42.7	20.9	0.00e+00	0	40	0	700448768	54	6963
2026-01-04 13:38:01.31	82.88	38.16	-41.4	-42.6	21.1	0.00e+00	0	40	0	702545920	54	6901
2026-01-04 13:38:02.03	83.19	38.20	-41.1	-42.2	21.2	0.00e+00	0	40	0	703594496	54	6607
2026-01-04 13:38:03.33	83.75	38.26	-41.0	-42.2	21.3	0.00e+00	0	40	0	706740224	54	6555
2026-01-04 13:38:04.05	84.06	38.30	-40.8	-41.9	21.5	0.00e+00	0	40	0	707788800	54	6383
2026-01-04 13:38:05.34	84.62	38.36	-40.8	-41.9	21.6	0.00e+00	0	40	0	709885952	54	6374
2026-01-04 13:38:06.07	84.94	38.40	-41.0	-42.2	21.2	0.00e+00	0	40	0	711983104	54	6574
2026-01-04 13:38:07.36	85.50	38.46	-41.5	-42.7	20.8	0.00e+00	0	40	0	714080256	54	7003
2026-01-04 13:38:08.08	85.81	38.49	-42.0	-43.3	20.3	0.00e+00	0	40	0	715128832	56	6667
2026-01-04 13:38:09.37	86.38	38.54	-42.3	-43.7	20.1	0.00e+00	0	40	0	717225984	56	6970
2026-01-04 13:38:10.10	86.70	38.57	-42.0	-43.3	20.4	0.00e+00	0	40	0	719323136	56	6643
2026-01-04 13:38:11.39	87.27	38.62	-41.9	-43.2	20.5	0.00e+00	0	39	0	721420288	56	6560
2026-01-04 13:38:12.12	87.59	38.65	-41.5	-42.7	21.0	0.00e+00	0	40	0	722468864	56	6182
2026-01-04 13:38:13.41	88.16	38.70	-41.7	-42.9	20.7	0.00e+00	0	40	0	725614592	56	6385
2026-01-04 13:38:14.14	88.48	38.72	-42.0	-43.3	20.4	0.00e+00	0	40	0	726663168	56	6636
2026-01-04 13:38:15.43	89.05	38.76	-42.0	-43.3	20.3	0.00e+00	0	40	0	728760320	56	6681
2026-01-04 13:38:16.16	89.38	38.78	-42.3	-43.7	20.0	0.00e+00	0	40	0	730857472	56	6933
2026-01-04 13:38:17.46	89.96	38.82	-42.6	-44.1	19.6	0.00e+00	0	40	0	732954624	56	7276
2026-01-04 13:38:18.17	90.28	38.83	-42.6	-44.1	19.6	0.00e+00	0	40	0	734003200	58	6492
2026-01-04 13:38:19.47	90.86	38.87	-42.7	-44.1	19.6	0.00e+00	0	40	0	736100352	58	6525
2026-01-04 13:38:20.19	91.18	38.88	-42.7	-44.2	19.4	0.00e+00	0	40	0	738197504	58	6595
2026-01-04 13:38:21.49	91.76	38.91	-43.0	-44.5	19.1	0.00e+00	0	40	0	740294656	58	6798
2026-01-04 13:38:22.21	92.09	38.92	-43.1	-44.6	19.1	0.00e+00	0	39	0	741343232	58	6890
2026-01-04 13:38:23.50	92.66	38.94	-43.0	-44.5	19.2	0.00e+00	0	40	0	744488960	58	6820
2026-01-04 13:38:24.22	92.99	38.95	-43.0	-44.5	19.2	0.00e+00	0	40	0	745537536	58	6846
2026-01-04 13:38:25.52	93.57	38.97	-42.5	-44.0	19.7	0.00e+00	0	40	0	747634688	58	6397
2026-01-04 13:38:26.24	93.90	38.97	-42.2	-43.6	20.0	0.00e+00	0	40	0	749731840	58	6139
2026-01-04 13:38:27.54	94.48	38.98	-42.1	-43.4	20.2	0.00e+00	0	40	0	751828992	58	6005
2026-01-04 13:38:28.26	94.81	38.99	-42.2	-43.5	20.1	0.00e+00	0	40	0	752877568	58	6091
2026-01-04 13:38:29.56	95.39	38.99	-42.0	-43.3	20.5	0.00e+00	0	40	0	756023296	58	5903
2026-01-04 13:38:30.28	95.72	38.99	-42.0	-43.3	20.2	0.00e+00	0	40	0	757071872	58	5961
2026-01-04 13:38:31.57	96.30	38.99	-42.1	-43.4	20.2	0.00e+00	0	40	0	759169024	58	6032
2026-01-04 13:38:32.29	96.63	38.99	-42.1	-43.4	20.2	0.00e+00	0	40	0	760217600	58	6031
2026-01-04 13:38:33.59	97.21	38.99	-41.6	-42.9	20.6	0.00e+00	0	39	0	763363328	56	6352
2026-01-04 13:38:34.31	97.54	38.98	-41.3	-42.5	21.1	0.00e+00	0	40	0	764411904	56	6098
2026-01-04 13:38:35.61	98.12	38.97	-40.9	-42.0	21.5	0.00e+00	0	40	0	766509056	56	5731
2026-01-04 13:38:36.33	98.45	38.97	-40.8	-41.9	21.7	0.00e+00	0	40	0	768606208	56	5677
2026-01-04 13:38:37.62	99.03	38.95	-40.6	-41.7	21.8	0.00e+00	0	40	0	770703360	54	6193
2026-01-04 13:38:38.34	99.35	38.94	-40.7	-41.9	21.6	0.00e+00	0	40	0	771751936	54	6320
2026-01-04 13:38:39.64	99.94	38.92	-41.1	-42.2	21.3	0.00e+00	0	40	0	774897664	54	6608
2026-01-04 13:38:40.36	100.26	38.91	-41.3	-42.5	21.0	0.00e+00	0	40	0	775946240	54	6792
2026-01-04 13:38:41.65	100.84	38.88	-41.6	-42.9	20.8	0.00e+00	0	40	0	778043392	54	7090
2026-01-04 13:38:42.37	101.16	38.87	-41.8	-43.0	20.6	0.00e+00	0	40	0	779091968	56	6446
2026-01-04 13:38:43.67	101.74	38.84	-41.6	-42.8	20.8	0.00e+00	0	40	0	782237696	56	6296
2026-01-04 13:38:44.39	102.06	38.82	-41.4	-42.6	21.0	0.00e+00	0	40	0	783286272	56	6157
2026-01-04 13:38:45.69	102.64	38.78	-42.1	-43.5	20.3	0.00e+00	0	40	0	785383424	56	6794
2026-01-04 13:38:46.41	102.96	38.76	-42.4	-43.7	19.9	0.00e+00	0	40	0	787480576	56	6977
2026-01-04 13:38:47.71	103.54	38.72	-43.1	-44.7	19.0	0.00e+00	0	40	0	789577728	58	6944
2026-01-04 13:38:48.43	103.86	38.70	-43.3	-45.0	18.7	0.00e+00	0	40	0	790626304	58	7238
2026-01-04 13:38:49.72	104.43	38.65	-43.5	-45.2	18.4	0.00e+00	0	40	0	793772032	58	7403
2026-01-04 13:38:50.45	104.76	38.63	-43.5	-45.2	18.5	0.00e+00	0	40	0	794820608	58	7410
2026-01-04 13:38:51.74	105.32	38.58	-42.6	-44.1	19.7	0.00e+00	0	40	0	796917760	58	6498
2026-01-04 13:38:52.47	105.64	38.55	-42.4	-43.9	19.9	0.00e+00	0	40	0	797966336	58	6324
2026-01-04 13:38:53.76	106.21	38.49	-42.1	-43.5	20.3	0.00e+00	0	40	0	801112064	58	6068
2026-01-04 13:38:54.49	106.53	38.46	-41.8	-43.1	20.6	0.00e+00	0	40	0	802160640	58	5818
2026-01-04 13:38:55.78	107.09	38.40	-41.3	-42.5	21.1	0.00e+00	0	40	0	804257792	56	6039
2026-01-04 13:38:56.50	107.41	38.37	-41.6	-42.8	20.8	0.00e+00	0	40	0	806354944	56	6297
2026-01-04 13:38:57.80	107.97	38.31	-42.4	-43.8	19.9	0.00e+00	0	40	0	808452096	56	7077
2026-01-04 13:38:58.52	108.28	38.27	-42.4	-43.8	19.9	0.00e+00	0	40	0	809500672	56	7037
2026-01-04 13:38:59.82	108.84	38.20	-41.7	-43.0	20.8	0.00e+00	0	40	0	812646400	56	6447
2026-01-04 13:39:00.54	109.15	38.16	-41.2	-42.4	21.2	0.00e+00	0	40	0	813694976	56	6022
2026-01-04 13:39:01.84	109.71	38.09	-40.6	-41.7	21.9	0.00e+00	0	39	0	815792128	54	6178
2026-01-04 13:39:02.56	110.01	38.05	-40.4	-41.4	22.1	0.00e+00	0	39	0	817889280	54	6032
2026-01-04 13:39:03.86	110.57	37.97	-40.7	-41.8	21.8	0.00e+00	0	40	0	819986432	54	6293
2026-01-04 13:39:04.58	110.87	37.92	-40.4	-41.5	22.0	0.00e+00	0	39	0	821035008	54	6063
2026-01-04 13:39:05.87	111.42	37.84	-39.8	-40.9	22.7	0.00e+00	0	40	0	823132160	54	5633
2026-01-04 13:39:06.59	111.72	37.80	-39.2	-40.2	23.3	0.00e+00	0	40	0	825229312	52	5840
2026-01-04 13:39:07.89	112.26	37.71	-39.1	-40.0	23.3	0.00e+00	0	40	0	827326464	52	5726
2026-01-04 13:39:08.61	112.56	37.66	-39.2	-40.2	23.2	0.00e+00	0	40	0	828375040	52	5829
2026-01-04 13:39:09.90	113.10	37.57	-40.1	-41.2	22.3	0.00e+00	0	40	0	831520768	52	6565
2026-01-04 13:39:10.62	113.40	37.52	-40.2	-41.2	22.3	0.00e+00	0	40	0	832569344	52	6588
2026-01-04 13:39:11.92	113.93	37.43	-39.9	-41.0	22.6	0.00e+00	0	40	0	834666496	52	6401
2026-01-04 13:39:12.64	114.23	37.38	-39.8	-40.8	22.7	0.00e+00	0	40	0	836763648	52	6263
2026-01-04 13:39:13.93	114.76	37.28	-39.2	-40.1	23.2	0.00e+00	0	40	0	838860800	52	5828
2026-01-04 13:39:14.65	115.05	37.23	-39.3	-40.3	23.2	0.00e+00	0	40	0	839909376	52	5911
2026-01-04 13:39:15.95	115.57	37.12	-39.1	-40.1	23.3	0.00e+00	0	40	0	843055104	52	5779
2026-01-04 13:39:16.67	115.86	37.07	-38.8	-39.7	23.7	0.00e+00	0	40	0	844103680	52	5519
2026-01-04 13:39:17.97	116.38	36.96	-38.2	-39.0	24.2	0.00e+00	0	40	0	846200832	50	5755
2026-01-04 13:39:18.69	116.67	36.90	-38.0	-38.9	24.4	0.00e+00	0	40	0	847249408	50	5636
2026-01-04 13:39:19.99	117.19	36.80	-37.3	-38.1	25.0	0.00e+00	0	40	0	850395136	48	5790
2026-01-04 13:39:20.71	117.47	36.73	-37.8	-38.6	24.6	0.00e+00	0	40	0	851443712	48	6131
2026-01-04 13:39:22.00	117.98	36.62	-38.8	-39.7	23.6	0.00e+00	0	40	0	853540864	48	6957
2026-01-04 13:39:22.72	118.26	36.56	-39.1	-40.0	23.5	0.00e+00	0	40	0	855638016	50	6446
2026-01-04 13:39:24.02	118.76	36.45	-38.2	-39.1	24.2	0.00e+00	0	40	0	857735168	50	5793
2026-01-04 13:39:24.74	119.04	36.38	-38.0	-38.8	24.4	0.00e+00	0	40	0	858783744	50	5598
2026-01-04 13:39:26.04	119.54	36.26	-37.8	-38.6	24.6	0.00e+00	0	40	0	861929472	50	5499
2026-01-04 13:39:26.76	119.82	36.20	-38.1	-39.0	24.3	0.00e+00	0	40	0	862978048	50	5710
2026-01-04 13:39:28.06	120.31	36.08	-38.1	-39.0	23.8	0.00e+00	0	39	0	865075200	50	5724
2026-01-04 13:39:28.78	120.58	36.01	-38.1	-39.0	24.3	0.00e+00	0	40	0	866123776	50	5704
2026-01-04 13:39:30.07	121.07	35.89	-37.4	-38.2	24.8	0.00e+00	0	40	0	869269504	48	5895
2026-01-04 13:39:30.79	121.34	35.82	-37.4	-38.2	24.9	0.00e+00	0	39	0	870318080	48	5878
2026-01-04 13:39:32.09	121.82	35.69	-37.8	-38.6	24.5	0.00e+00	0	39	0	872415232	48	6119
2026-01-04 13:39:32.81	122.08	35.62	-38.2	-39.1	24.2	0.00e+00	0	39	0	874512384	48	6480
2026-01-04 13:39:34.11	122.56	35.49	-38.4	-39.2	23.7	0.00e+00	0	39	0	876609536	48	6597
2026-01-04 13:39:34.83	122.82	35.42	-38.3	-39.2	24.1	0.00e+00	0	40	0	877658112	48	6575
2026-01-04 13:39:36.13	123.29	35.29	-37.8	-38.6	24.5	0.00e+00	0	40	0	880803840	48	6172
2026-01-04 13:39:36.85	123.55	35.21	-37.6	-38.4	24.7	0.00e+00	0	40	0	881852416	48	5995
2026-01-04 13:39:38.15	124.02	35.08	-38.1	-38.9	24.2	0.00e+00	0	40	0	883949568	48	6373
2026-01-04 13:39:38.87	124.27	35.01	-38.6	-39.5	23.7	0.00e+00	0	40	0	884998144	48	6807
2026-01-04 13:39:40.17	124.73	34.87	-39.4	-40.4	22.9	0.00e+00	0	40	0	888143872	50	6734
2026-01-04 13:39:40.89	124.99	34.79	-39.5	-40.5	23.0	0.00e+00	0	40	0	889192448	50	6777
2026-01-04 13:39:42.19	125.44	34.65	-39.0	-40.0	23.4	0.00e+00	0	40	0	891289600	50	6411
2026-01-04 13:39:42.91	125.69	34.58	-39.0	-40.0	23.4	0.00e+00	0	40	0	893386752	50	6404
2026-01-04 13:39:44.21	126.14	34.44	-39.1	-40.0	23.4	0.00e+00	0	40	0	895483904	50	6412
2026-01-04 13:39:44.93	126.38	34.36	-39.5	-40.4	23.0	0.00e+00	0	39	0	896532480	50	6756
2026-01-04 13:39:46.23	126.83	34.22	-39.6	-40.6	22.9	0.00e+00	0	39	0	899678208	50	6902
2026-01-04 13:39:46.95	127.07	34.14	-39.3	-40.2	23.2	0.00e+00	0	40	0	900726784	50	6588
2026-01-04 13:39:48.25	127.50	33.99	-38.9	-39.8	23.7	0.00e+00	0	40	0	902823936	50	6291
2026-01-04 13:39:48.97	127.74	33.91	-38.7	-39.6	23.7	0.00e+00	0	40	0	904921088	50	6139
2026-01-04 13:39:50.27	128.17	33.77	-39.3	-40.2	22.9	0.00e+00	0	40	0	907018240	50	6598
2026-01-04 13:39:50.99	128.41	33.69	-40.2	-41.3	22.1	0.00e+00	0	40	0	908066816	52	6651
2026-01-04 13:39:52.28	128.83	33.54	-40.5	-41.6	21.9	0.00e+00	0	39	0	910163968	52	6917
2026-01-04 13:39:53.00	129.07	33.46	-40.6	-41.7	21.9	0.00e+00	0	39	0	912261120	52	6994
2026-01-04 13:39:54.30	129.48	33.31	-40.3	-41.3	22.3	0.00e+00	0	39	0	914358272	52	6668
2026-01-04 13:39:55.02	129.71	33.22	-39.4	-40.4	23.1	0.00e+00	0	40	0	915406848	52	5980
2026-01-04 13:39:56.32	130.13	33.07	-40.0	-41.0	22.5	0.00e+00	0	40	0	918552576	52	6405
2026-01-04 13:39:57.04	130.35	32.99	-40.4	-41.5	22.0	0.00e+00	0	40	0	919601152	52	6819
2026-01-04 13:39:58.34	130.76	32.84	-41.3	-42.5	20.9	0.00e+00	0	40	0	921698304	54	6843
2026-01-04 13:39:59.06	130.98	32.75	-41.4	-42.6	21.0	0.00e+00	0	40	0	923795456	54	6885
2026-01-04 13:40:00.36	131.38	32.60	-40.8	-41.9	21.6	0.00e+00	0	40	0	925892608	54	6353
2026-01-04 13:40:01.08	131.60	32.52	-40.7	-41.8	21.9	0.00e+00	0	40	0	926941184	54	6283
2026-01-04 13:40:02.37	132.00	32.36	-39.9	-40.9	22.3	0.00e+00	0	40	0	929038336	54	5688
2026-01-04 13:40:03.09	132.21	32.28	-40.2	-41.3	22.0	0.00e+00	0	40	0	931135488	54	5915
2026-01-04 13:40:04.39	132.60	32.12	-41.2	-42.4	20.9	0.00e+00	0	40	0	933232640	54	6759
2026-01-04 13:40:05.11	132.82	32.04	-41.5	-42.7	20.7	0.00e+00	0	40	0	934281216	54	6973
2026-01-04 13:40:06.41	133.20	31.88	-40.7	-41.8	21.8	0.00e+00	0	40	0	937426944	54	6250
2026-01-04 13:40:07.13	133.41	31.79	-39.9	-40.9	22.5	0.00e+00	0	40	0	938475520	54	5670
2026-01-04 13:40:08.43	133.79	31.64	-39.2	-40.1	23.4	0.00e+00	0	39	0	940572672	52	5803
2026-01-04 13:40:09.15	134.00	31.55	-39.2	-40.1	23.2	0.00e+00	0	40	0	942669824	52	5781
2026-01-04 13:40:10.44	134.37	31.39	-40.1	-41.2	22.3	0.00e+00	0	40	0	944766976	52	6558
2026-01-04 13:40:11.16	134.57	31.31	-41.0	-42.2	21.4	0.00e+00	0	40	0	945815552	54	6557
2026-01-04 13:40:12.46	134.94	31.15	-42.0	-43.4	20.3	0.00e+00	0	40	0	948961280	56	6696
2026-01-04 13:40:13.18	135.14	31.06	-41.5	-42.8	20.9	0.00e+00	0	40	0	950009856	56	6276
2026-01-04 13:40:14.48	135.50	30.90	-41.1	-42.2	21.5	0.00e+00	0	40	0	952107008	56	5875
2026-01-04 13:40:15.20	135.70	30.81	-40.5	-41.6	21.8	0.00e+00	0	40	0	953155584	54	6144
2026-01-04 13:40:16.50	136.06	30.65	-39.9	-40.8	22.6	0.00e+00	0	39	0	956301312	54	5628
2026-01-04 13:40:17.22	136.26	30.57	-39.9	-40.9	22.5	0.00e+00	0	39	0	957349888	54	5695
2026-01-04 13:40:18.52	136.61	30.41	-41.0	-42.2	21.3	0.00e+00	0	40	0	959447040	54	6554
2026-01-04 13:40:19.24	136.80	30.32	-41.3	-42.5	21.0	0.00e+00	0	40	0	961544192	54	6810
2026-01-04 13:40:20.53	137.14	30.16	-40.5	-41.6	21.9	0.00e+00	0	40	0	963641344	54	6155
2026-01-04 13:40:21.25	137.33	30.07	-40.0	-41.0	22.4	0.00e+00	0	39	0	964689920	54	5746
2026-01-04 13:40:22.55	137.67	29.91	-39.2	-40.1	23.2	0.00e+00	0	40	0	967835648	52	5828
2026-01-04 13:40:23.27	137.86	29.82	-38.7	-39.6	23.7	0.00e+00	0	40	0	968884224	52	5482
2026-01-04 13:40:24.56	138.19	29.66	-39.1	-40.0	23.2	0.00e+00	0	40	0	970981376	50	6426
2026-01-04 13:40:25.28	138.38	29.57	-39.8	-40.8	22.5	0.00e+00	0	40	0	973078528	50	7075
2026-01-04 13:40:26.58	138.71	29.41	-40.5	-41.7	21.8	0.00e+00	0	40	0	975175680	52	6937
2026-01-04 13:40:27.30	138.89	29.32	-40.1	-41.2	22.3	0.00e+00	0	39	0	976224256	52	6568
2026-01-04 13:40:28.60	139.22	29.16	-39.3	-40.2	23.0	0.00e+00	0	40	0	978321408	52	5871
2026-01-04 13:40:29.32	139.40	29.07	-39.3	-40.3	23.2	0.00e+00	0	40	0	980418560	52	5908
2026-01-04 13:40:30.61	139.71	28.91	-38.2	-39.1	24.0	0.00e+00	0	39	0	982515712	50	5795
2026-01-04 13:40:31.34	139.89	28.82	-38.4	-39.3	23.9	0.00e+00	0	40	0	983564288	50	5931
2026-01-04 13:40:32.63	140.21	28.66	-39.2	-40.2	23.1	0.00e+00	0	40	0	986710016	50	6562
2026-01-04 13:40:33.35	140.38	28.57	-39.8	-40.8	22.5	0.00e+00	0	40	0	987758592	50	7039
2026-01-04 13:40:34.65	140.69	28.41	-40.1	-41.2	22.3	0.00e+00	0	40	0	989855744	52	6541
2026-01-04 13:40:35.37	140.86	28.32	-39.9	-40.9	22.5	0.00e+00	0	39	0	990904320	52	6369
2026-01-04 13:40:36.67	141.17	28.16	-39.5	-40.4	22.9	0.00e+00	0	40	0	994050048	52	6027
2026-01-04 13:40:37.39	141.34	28.07	-38.9	-39.8	23.6	0.00e+00	0	40	0	995098624	52	5586
2026-01-04 13:40:38.69	141.64	27.91	-37.9	-38.7	24.4	0.00e+00	0	39	0	997195776	50	5557
2026-01-04 13:40:39.41	141.80	27.82	-37.6	-38.4	24.5	0.00e+00	0	40	0	999292928	48	6027
2026-01-04 13:40:40.71	142.10	27.66	-38.0	-38.9	24.2	0.00e+00	0	40	0	1001390080	48	6319
2026-01-04 13:40:41.43	142.26	27.57	-38.3	-39.2	23.9	0.00e+00	0	40	0	1002438656	48	6569
2026-01-04 13:40:42.72	142.55	27.41	-38.8	-39.7	23.5	0.00e+00	0	40	0	1005584384	50	6236
2026-01-04 13:40:43.45	142.72	27.32	-38.7	-39.7	23.5	0.00e+00	0	40	0	1006632960	50	6175
2026-01-04 13:40:44.74	143.00	27.16	-38.1	-38.9	24.2	0.00e+00	0	40	0	1008730112	50	5677
2026-01-04 13:40:45.46	143.16	27.07	-37.9	-38.8	24.4	0.00e+00	0	40	0	1010827264	50	5576
2026-01-04 13:40:46.76	143.45	26.91	-36.6	-37.4	25.4	0.00e+00	0	39	0	1012924416	46	5971
2026-01-04 13:40:47.48	143.60	26.82	-36.6	-37.3	25.6	0.00e+00	0	40	0	1013972992	46	5932
2026-01-04 13:40:48.77	143.88	26.67	-36.6	-37.4	25.4	0.00e+00	0	39	0	1016070144	46	5975
2026-01-04 13:40:49.49	144.03	26.58	-37.1	-37.9	24.7	0.00e+00	0	40	0	1018167296	46	6318
2026-01-04 13:40:50.79	144.31	26.42	-38.4	-39.3	23.6	0.00e+00	0	39	0	1020264448	48	6625
2026-01-04 13:40:51.51	144.46	26.33	-38.9	-39.9	23.3	0.00e+00	0	39	0	1021313024	50	6363
2026-01-04 13:40:52.81	144.73	26.17	-39.0	-39.9	23.1	0.00e+00	0	40	0	1024458752	50	6373
2026-01-04 13:40:53.53	144.88	26.08	-38.5	-39.4	23.8	0.00e+00	0	40	0	1025507328	50	6008
2026-01-04 13:40:54.83	145.15	25.92	-37.9	-38.7	24.1	0.00e+00	0	40	0	1027604480	50	5551
2026-01-04 13:40:55.55	145.29	25.84	-37.8	-38.6	24.4	0.00e+00	0	39	0	1029701632	48	6153
2026-01-04 13:40:56.84	145.56	25.68	-37.0	-37.8	25.1	0.00e+00	0	40	0	1031798784	48	5570
2026-01-04 13:40:57.56	145.70	25.59	-36.5	-37.2	25.5	0.00e+00	0	40	0	1032847360	46	5890
2026-01-04 13:40:58.86	145.96	25.44	-36.6	-37.3	25.4	0.00e+00	0	40	0	1034944512	46	5936
2026-01-04 13:40:59.58	146.10	25.35	-36.9	-37.6	25.2	0.00e+00	0	40	0	1037041664	46	6148
2026-01-04 13:41:00.88	146.36	25.19	-37.4	-38.2	24.7	0.00e+00	0	40	0	1039138816	46	6606
2026-01-04 13:41:01.60	146.50	25.10	-37.6	-38.5	24.6	0.00e+00	0	40	0	1040187392	46	6784
2026-01-04 13:41:02.89	146.75	24.95	-37.7	-38.6	24.5	0.00e+00	0	40	0	1043333120	48	6131
2026-01-04 13:41:03.61	146.88	24.86	-37.5	-38.3	24.7	0.00e+00	0	40	0	1044381696	48	5962
2026-01-04 13:41:04.91	147.13	24.71	-37.0	-37.8	25.0	0.00e+00	0	40	0	1046478848	48	5619
2026-01-04 13:41:05.63	147.27	24.62	-36.7	-37.4	25.3	0.00e+00	0	39	0	1048576000	46	6017
2026-01-04 13:41:06.93	147.51	24.47	-36.4	-37.1	25.6	0.00e+00	0	40	0	1050673152	46	5827
2026-01-04 13:41:07.64	147.65	24.38	-36.5	-37.2	25.5	0.00e+00	0	40	0	1051721728	46	5875
2026-01-04 13:41:08.94	147.89	24.23	-36.5	-37.2	25.5	0.00e+00	0	40	0	1054867456	46	5872
2026-01-04 13:41:09.66	148.02	24.14	-36.9	-37.6	25.1	0.00e+00	0	40	0	1055916032	46	6171
2026-01-04 13:41:10.96	148.26	23.99	-37.0	-37.8	25.1	0.00e+00	0	40	0	1058013184	46	6316
2026-01-04 13:41:11.68	148.39	23.90	-37.4	-38.2	24.8	0.00e+00	0	40	0	1059061760	46	6584
2026-01-04 13:41:12.97	148.62	23.75	-37.4	-38.2	24.6	0.00e+00	0	40	0	1062207488	46	6589
2026-01-04 13:41:13.70	148.75	23.66	-37.2	-38.1	24.9	0.00e+00	0	40	0	1063256064	46	6465
2026-01-04 13:41:14.99	148.98	23.51	-37.2	-38.0	24.9	0.00e+00	0	39	0	1065353216	46	6450
2026-01-04 13:41:15.71	149.10	23.43	-37.1	-37.9	25.0	0.00e+00	0	40	0	1067450368	46	6384
2026-01-04 13:41:17.01	149.33	23.28	-37.2	-38.0	24.9	0.00e+00	0	40	0	1069547520	46	6418
2026-01-04 13:41:17.73	149.45	23.19	-37.3	-38.1	24.7	0.00e+00	0	40	0	1070596096	46	6501
2026-01-04 13:41:19.03	149.68	23.04	-37.4	-38.2	24.7	0.00e+00	0	40	0	1073741824	46	6600
2026-01-04 13:41:19.74	149.80	22.96	-37.7	-38.6	24.5	0.00e+00	0	40	0	1074790400	46	6857
2026-01-04 13:41:21.04	150.02	22.81	-37.9	-38.7	24.3	0.00e+00	0	40	0	1076887552	48	6233
2026-01-04 13:41:21.76	150.14	22.72	-37.8	-38.7	24.3	0.00e+00	0	40	0	1077936128	48	6180
2026-01-04 13:41:23.06	150.36	22.57	-37.6	-38.4	24.5	0.00e+00	0	40	0	1081081856	48	6018
2026-01-04 13:41:23.78	150.48	22.49	-37.6	-38.4	24.6	0.00e+00	0	40	0	1082130432	48	5984
2026-01-04 13:41:25.08	150.69	22.34	-37.4	-38.2	24.7	0.00e+00	0	39	0	1084227584	48	5854
2026-01-04 13:41:25.80	150.81	22.26	-37.4	-38.2	24.7	0.00e+00	0	40	0	1086324736	48	5881
2026-01-04 13:41:27.10	151.02	22.11	-37.4	-38.2	24.7	0.00e+00	0	40	0	1088421888	48	5875
2026-01-04 13:41:27.82	151.13	22.03	-37.5	-38.3	24.6	0.00e+00	0	39	0	1089470464	48	5933
2026-01-04 13:41:29.12	151.34	21.88	-37.7	-38.6	24.4	0.00e+00	0	40	0	1092616192	48	6132
2026-01-04 13:41:29.84	151.46	21.80	-38.0	-38.8	24.2	0.00e+00	0	40	0	1093664768	48	6295
2026-01-04 13:41:31.14	151.66	21.65	-38.0	-38.9	24.1	0.00e+00	0	40	0	1095761920	48	6333
2026-01-04 13:41:31.86	151.77	21.57	-38.0	-38.9	24.2	0.00e+00	0	40	0	1097859072	48	6320
2026-01-04 13:41:33.16	151.98	21.43	-38.0	-38.8	24.2	0.00e+00	0	40	0	1099956224	48	6298
2026-01-04 13:41:33.88	152.09	21.34	-38.0	-38.9	24.1	0.00e+00	0	40	0	1101004800	48	6337
2026-01-04 13:41:35.18	152.29	21.20	-37.9	-38.7	24.2	0.00e+00	0	40	0	1103101952	48	6236
2026-01-04 13:41:35.90	152.40	21.12	-38.0	-38.9	24.1	0.00e+00	0	40	0	1105199104	48	6344
2026-01-04 13:41:37.19	152.59	20.98	-37.9	-38.7	24.3	0.00e+00	0	40	0	1107296256	48	6209
2026-01-04 13:41:37.91	152.70	20.90	-38.0	-38.9	24.1	0.00e+00	0	40	0	1108344832	48	6323
2026-01-04 13:41:39.21	152.89	20.75	-38.4	-39.3	23.7	0.00e+00	0	40	0	1111490560	48	6629
2026-01-04 13:41:39.93	153.00	20.67	-38.5	-39.4	23.6	0.00e+00	0	40	0	1112539136	48	6762
2026-01-04 13:41:41.23	153.19	20.53	-39.1	-40.1	23.1	0.00e+00	0	40	0	1114636288	50	6474
2026-01-04 13:41:41.95	153.29	20.45	-39.3	-40.3	22.8	0.00e+00	0	40	0	1116733440	50	6679
2026-01-04 13:41:43.24	153.48	20.31	-39.7	-40.7	22.4	0.00e+00	0	40	0	1118830592	50	6986
2026-01-04 13:41:43.97	153.59	20.23	-39.6	-40.6	22.5	0.00e+00	0	39	0	1119879168	50	6884
2026-01-04 13:41:45.27	153.77	20.09	-39.5	-40.5	22.6	0.00e+00	0	40	0	1121976320	50	6801
2026-01-04 13:41:45.98	153.87	20.01	-39.4	-40.4	22.7	0.00e+00	0	40	0	1124073472	50	6723
2026-01-04 13:41:47.28	154.06	19.87	-39.2	-40.1	22.9	0.00e+00	0	39	0	1126170624	50	6525
2026-01-04 13:41:48.00	154.16	19.79	-39.0	-40.0	23.1	0.00e+00	0	40	0	1127219200	50	6393
2026-01-04 13:41:49.30	154.34	19.65	-38.9	-39.8	23.2	0.00e+00	0	40	0	1130364928	50	6280
2026-01-04 13:41:50.02	154.44	19.58	-39.1	-40.0	23.0	0.00e+00	0	40	0	1131413504	50	6450
2026-01-04 13:41:51.31	154.61	19.44	-39.4	-40.4	22.5	0.00e+00	0	40	0	1133510656	50	6732
2026-01-04 13:41:52.03	154.71	19.36	-39.4	-40.4	22.4	0.00e+00	0	40	0	1135607808	50	6756
2026-01-04 13:41:53.33	154.89	19.22	-39.9	-40.9	22.0	0.00e+00	0	40	0	1137704960	52	6377
2026-01-04 13:41:54.05	154.98	19.15	-40.1	-41.2	21.8	0.00e+00	0	40	0	1138753536	52	6542
2026-01-04 13:41:55.34	155.16	19.01	-40.4	-41.6	21.3	0.00e+00	0	40	0	1141899264	52	6896
2026-01-04 13:41:56.07	155.25	18.93	-40.6	-41.8	21.2	0.00e+00	0	40	0	1142947840	52	7015
2026-01-04 13:41:57.36	155.42	18.80	-40.6	-41.8	21.1	0.00e+00	0	40	0	1145044992	52	7028
2026-01-04 13:41:58.09	155.52	18.72	-40.6	-41.9	21.0	0.00e+00	0	40	0	1146093568	52	7098
2026-01-04 13:41:59.38	155.69	18.58	-40.6	-41.8	21.0	0.00e+00	0	40	0	1149239296	52	7043
2026-01-04 13:42:00.10	155.78	18.51	-40.6	-41.8	21.0	0.00e+00	0	40	0	1150287872	52	7079
2026-01-04 13:42:01.40	155.95	18.37	-40.1	-41.2	21.7	0.00e+00	0	40	0	1152385024	52	6568
2026-01-04 13:42:02.12	156.04	18.30	-39.9	-41.0	21.9	0.00e+00	0	40	0	1154482176	52	6396
2026-01-04 13:42:03.41	156.20	18.17	-39.6	-40.6	22.1	0.00e+00	0	40	0	1156579328	52	6169
2026-01-04 13:42:04.13	156.29	18.09	-39.3	-40.4	22.4	0.00e+00	0	39	0	1157627904	52	5972
2026-01-04 13:42:05.43	156.45	17.96	-39.2	-40.2	22.7	0.00e+00	0	40	0	1160773632	52	5855
2026-01-04 13:42:06.15	156.54	17.89	-38.9	-39.9	23.0	0.00e+00	0	40	0	1161822208	52	5659
2026-01-04 13:42:07.45	156.70	17.75	-38.8	-39.7	23.3	0.00e+00	0	39	0	1163919360	50	6237
2026-01-04 13:42:08.17	156.79	17.68	-38.6	-39.5	23.4	0.00e+00	0	40	0	1164967936	50	6064
2026-01-04 13:42:09.47	156.95	17.55	-38.6	-39.5	23.3	0.00e+00	0	40	0	1168113664	50	6056
2026-01-04 13:42:10.19	157.03	17.47	-38.5	-39.3	23.5	0.00e+00	0	40	0	1169162240	50	5962
2026-01-04 13:42:11.49	157.19	17.34	-38.6	-39.6	23.3	0.00e+00	0	40	0	1171259392	50	6104
2026-01-04 13:42:12.21	157.28	17.27	-38.7	-39.6	23.3	0.00e+00	0	40	0	1173356544	50	6127
2026-01-04 13:42:13.51	157.43	17.14	-38.9	-39.8	23.0	0.00e+00	0	40	0	1175453696	50	6286
2026-01-04 13:42:14.23	157.52	17.07	-39.0	-40.0	23.0	0.00e+00	0	40	0	1176502272	50	6420
2026-01-04 13:42:15.52	157.67	16.94	-38.9	-39.8	23.1	0.00e+00	0	40	0	1179648000	50	6303
2026-01-04 13:42:16.24	157.75	16.87	-38.8	-39.7	23.3	0.00e+00	0	40	0	1180696576	50	6194
2026-01-04 13:42:17.54	157.90	16.74	-38.9	-39.8	23.1	0.00e+00	0	40	0	1182793728	50	6295
2026-01-04 13:42:18.26	157.98	16.67	-38.9	-39.8	23.2	0.00e+00	0	40	0	1183842304	50	6292
2026-01-04 13:42:19.56	158.13	16.54	-39.1	-40.0	23.0	0.00e+00	0	40	0	1186988032	50	6445
2026-01-04 13:42:20.28	158.21	16.47	-39.3	-40.3	22.8	0.00e+00	0	40	0	1188036608	50	6657
2026-01-04 13:42:21.58	158.36	16.34	-38.9	-39.8	23.1	0.00e+00	0	40	0	1190133760	50	6303
2026-01-04 13:42:22.30	158.44	16.27	-39.0	-39.9	23.1	0.00e+00	0	40	0	1192230912	50	6384
2026-01-04 13:42:23.59	158.58	16.15	-39.0	-39.9	23.1	0.00e+00	0	40	0	1194328064	50	6372
2026-01-04 13:42:24.31	158.66	16.08	-39.0	-40.0	22.9	0.00e+00	0	40	0	1195376640	50	6424
2026-01-04 13:42:25.61	158.80	15.95	-39.0	-40.0	23.1	0.00e+00	0	40	0	1198522368	50	6409
2026-01-04 13:42:26.34	158.88	15.88	-39.0	-40.0	23.0	0.00e+00	0	40	0	1199570944	50	6431
2026-01-04 13:42:27.63	159.02	15.76	-39.2	-40.1	22.9	0.00e+00	0	40	0	1201668096	50	6521
2026-01-04 13:42:28.36	159.10	15.69	-39.2	-40.2	22.8	0.00e+00	0	40	0	1203765248	50	6611
2026-01-04 13:42:29.65	159.24	15.56	-39.5	-40.5	22.5	0.00e+00	0	40	0	1205862400	50	6822
2026-01-04 13:42:30.37	159.32	15.49	-39.5	-40.5	22.5	0.00e+00	0	40	0	1206910976	50	6836
2026-01-04 13:42:31.67	159.45	15.37	-39.5	-40.5	22.5	0.00e+00	0	40	0	1209008128	50	6817
2026-01-04 13:42:32.39	159.53	15.30	-39.5	-40.6	22.4	0.00e+00	0	40	0	1211105280	50	6866
2026-01-04 13:42:33.69	159.67	15.18	-39.8	-40.8	22.2	0.00e+00	0	40	0	1213202432	50	7081
2026-01-04 13:42:34.41	159.74	15.11	-39.6	-40.7	22.5	0.00e+00	0	40	0	1214251008	52	6180
2026-01-04 13:42:35.71	159.87	14.99	-39.7	-40.7	22.4	0.00e+00	0	40	0	1217396736	52	6214
2026-01-04 13:42:36.43	159.95	14.92	-39.4	-40.5	22.6	0.00e+00	0	40	0	1218445312	52	6037
