passes_logs/2026/01/04/R4.6S_Anadyr/R4.6S_Anadyr__20260104_230600_SUOMI_NPP_rec.log

#Pass ID: 20260104_230600_SUOMI NPP
#Satellite: SUOMI NPP
#Configuration: NPP
#almurnet v.1.7.20251203
#Start time: 2026-01-04 23:06:02

#Version: 2.2.20231116
#Station: R4.6S_Anadyr
#Location: 177.4865 lon 64.73178 lat
#TLE: 1 37849U 11061A   26001.07732418  .00000182  00000+0  10735-3 0  9990
#TLE: 2 37849  98.7795 303.2470 0002580  87.2016 272.9455 14.19520779734739

#Time	Az	El	Level	Level2	SNR	BER	BlckErr	Temp	State	Recorded	gain1	gain2
2026-01-04 23:06:02.49	127.19	0.11	-48.9	-61.4	3.4	1.51e+00	0	29	0	0	60	41122
2026-01-04 23:06:03.49	127.16	0.17	-49.1	-64.2	3.6	1.51e+00	0	31	104	0	60	58721
2026-01-04 23:06:04.50	127.13	0.23	-49.3	-64.5	3.6	1.51e+00	0	30	104	0	60	60694
2026-01-04 23:06:05.51	127.10	0.29	-49.2	-64.3	3.6	1.51e+00	0	31	104	0	60	59367
2026-01-04 23:06:06.53	127.07	0.35	-48.9	-64.1	3.6	1.51e+00	0	31	104	0	60	58137
2026-01-04 23:06:07.54	127.04	0.41	-48.8	-64.0	3.6	1.51e+00	0	30	104	0	60	57584
2026-01-04 23:06:08.54	127.01	0.47	-48.8	-64.0	3.6	1.51e+00	0	31	104	0	60	57347
2026-01-04 23:06:09.55	126.98	0.53	-48.7	-63.9	3.6	1.51e+00	0	31	104	0	60	56655
2026-01-04 23:06:10.56	126.95	0.59	-48.7	-63.9	3.6	1.51e+00	0	31	104	0	60	56641
2026-01-04 23:06:11.57	126.92	0.65	-48.6	-63.9	3.6	1.51e+00	0	31	104	0	60	56469
2026-01-04 23:06:12.58	126.89	0.71	-48.6	-63.8	3.6	1.51e+00	0	31	104	0	60	55997
2026-01-04 23:06:13.59	126.86	0.77	-48.5	-63.8	3.5	1.51e+00	0	31	104	0	60	55801
2026-01-04 23:06:14.60	126.83	0.83	-48.3	-63.7	3.6	1.51e+00	0	31	104	0	60	55372
2026-01-04 23:06:15.61	126.80	0.89	-48.4	-63.6	3.6	1.51e+00	0	31	104	0	60	54420
2026-01-04 23:06:16.62	126.77	0.95	-48.2	-63.4	3.6	1.51e+00	0	31	104	0	60	53403
2026-01-04 23:06:17.62	126.74	1.01	-47.6	-62.9	3.6	1.51e+00	0	31	104	0	60	50251
2026-01-04 23:06:18.63	126.71	1.07	-47.1	-62.3	3.6	1.51e+00	0	31	104	0	60	46983
2026-01-04 23:06:19.65	126.68	1.13	-47.1	-62.3	3.6	1.51e+00	0	31	104	0	60	47323
2026-01-04 23:06:20.66	126.65	1.19	-47.1	-62.3	3.6	1.51e+00	0	31	104	0	60	47153
2026-01-04 23:06:21.67	126.62	1.26	-47.1	-62.3	3.6	1.51e+00	0	31	104	0	60	47089
2026-01-04 23:06:22.68	126.58	1.32	-47.1	-62.3	3.6	1.51e+00	0	31	104	0	60	47285
2026-01-04 23:06:23.69	126.55	1.38	-47.1	-62.3	3.6	1.51e+00	0	31	104	0	60	47133
2026-01-04 23:06:24.70	126.52	1.44	-47.1	-62.3	3.6	1.51e+00	0	31	104	0	60	46981
2026-01-04 23:06:25.71	126.49	1.50	-47.1	-62.2	3.6	1.51e+00	0	31	104	0	60	46769
2026-01-04 23:06:26.72	126.46	1.57	-47.1	-62.2	3.6	1.51e+00	0	31	104	0	60	46607
2026-01-04 23:06:27.73	126.42	1.63	-47.1	-62.3	3.6	1.51e+00	0	31	104	0	60	47031
2026-01-04 23:06:28.74	126.39	1.69	-47.1	-62.3	3.5	1.51e+00	0	31	104	0	60	47182
2026-01-04 23:06:29.74	126.36	1.75	-47.1	-62.3	3.6	1.51e+00	0	31	104	0	60	47109
2026-01-04 23:06:30.75	126.33	1.81	-47.1	-62.3	3.6	1.51e+00	0	31	104	0	60	47102
2026-01-04 23:06:31.76	126.29	1.88	-47.1	-62.3	3.6	1.51e+00	0	31	104	0	60	46939
2026-01-04 23:06:32.77	126.26	1.94	-47.1	-62.0	3.6	1.51e+00	0	31	104	0	60	45700
2026-01-04 23:06:33.78	126.23	2.00	-47.1	-62.1	3.6	1.51e+00	0	31	104	0	60	46216
2026-01-04 23:06:34.79	126.20	2.07	-47.1	-62.0	3.6	1.51e+00	0	31	104	0	60	45656
2026-01-04 23:06:35.80	126.16	2.13	-47.1	-62.1	3.6	1.51e+00	0	31	104	0	60	45914
2026-01-04 23:06:36.81	126.13	2.19	-47.1	-62.2	3.6	1.51e+00	0	31	104	0	60	46559
2026-01-04 23:06:37.82	126.09	2.26	-47.1	-62.2	3.6	1.51e+00	0	31	104	0	60	46533
2026-01-04 23:06:38.83	126.06	2.32	-47.1	-62.3	3.6	1.51e+00	0	31	104	0	60	46880
2026-01-04 23:06:39.84	126.03	2.38	-47.1	-62.4	3.6	1.51e+00	0	31	104	0	60	47452
2026-01-04 23:06:40.85	125.99	2.45	-47.2	-62.3	3.6	1.51e+00	0	31	104	0	60	47313
2026-01-04 23:06:41.86	125.96	2.51	-47.1	-62.3	3.6	1.51e+00	0	31	104	0	60	47280
2026-01-04 23:06:42.87	125.92	2.57	-47.1	-62.2	3.5	1.51e+00	0	31	104	0	60	46606
2026-01-04 23:06:43.88	125.89	2.64	-47.1	-62.2	3.6	1.51e+00	0	31	104	0	60	46429
2026-01-04 23:06:44.89	125.85	2.70	-47.1	-62.1	3.6	1.51e+00	0	31	104	0	60	46262
2026-01-04 23:06:45.90	125.82	2.77	-47.1	-62.1	3.6	1.51e+00	0	31	104	0	60	45893
2026-01-04 23:06:46.91	125.78	2.83	-47.1	-61.5	3.6	1.51e+00	0	31	104	0	60	43122
2026-01-04 23:06:47.92	125.75	2.90	-47.1	-61.6	3.6	1.51e+00	0	31	104	0	60	43433
2026-01-04 23:06:48.93	125.71	2.96	-47.1	-61.4	3.6	1.51e+00	0	31	104	0	60	42556
2026-01-04 23:06:49.94	125.68	3.03	-47.1	-61.7	3.6	1.51e+00	0	31	104	0	60	43953
2026-01-04 23:06:50.95	125.64	3.09	-47.1	-62.1	3.6	1.51e+00	0	31	104	0	60	46121
2026-01-04 23:06:51.96	125.61	3.16	-47.1	-62.3	3.6	1.51e+00	0	31	104	0	60	47149
2026-01-04 23:06:52.97	125.57	3.22	-47.0	-60.6	3.6	1.51e+00	0	31	104	0	60	38571
2026-01-04 23:06:53.99	125.53	3.29	-46.9	-57.5	4.1	9.92e-01	92	31	0	0	60	27132
2026-01-04 23:06:54.99	125.50	3.36	-46.7	-56.3	5.5	1.30e+00	0	31	104	1048576	60	23581
2026-01-04 23:06:56.00	125.46	3.42	-46.1	-52.2	8.3	1.48e-01	78	31	0	1048576	60	14730
2026-01-04 23:06:57.01	125.42	3.49	-45.3	-49.9	10.9	1.84e-02	0	31	0	3145728	60	11359
2026-01-04 23:06:58.02	125.39	3.55	-44.4	-47.9	13.1	1.25e-03	92	31	0	5242880	60	8952
2026-01-04 23:06:59.03	125.35	3.62	-44.3	-47.6	13.6	1.04e-03	92	31	0	7340032	60	8683
2026-01-04 23:07:00.04	125.31	3.69	-44.3	-47.8	13.3	1.83e-05	92	31	0	9437184	60	8875
2026-01-04 23:07:01.05	125.27	3.75	-47.4	-62.2	3.6	1.02e+00	0	31	104	9437184	60	46812
2026-01-04 23:07:02.06	125.24	3.82	-47.0	-60.9	3.6	1.51e+00	0	31	104	9437184	60	39971
2026-01-04 23:07:03.07	125.20	3.89	-46.8	-57.9	4.3	4.59e-01	71	31	104	9437184	60	28262
2026-01-04 23:07:04.08	125.16	3.95	-40.1	-41.6	19.5	4.50e-06	0	31	0	10485760	54	6113
2026-01-04 23:07:05.08	125.12	4.02	-47.0	-61.7	3.6	2.24e-01	0	31	104	11534336	60	43787
2026-01-04 23:07:06.09	125.08	4.09	-40.8	-42.4	17.8	9.69e-01	0	31	104	11534336	56	5970
2026-01-04 23:07:07.10	125.04	4.16	-40.5	-42.0	19.0	0.00e+00	92	31	0	11534336	54	6460
2026-01-04 23:07:08.11	125.00	4.22	-40.9	-42.5	18.7	0.00e+00	92	31	0	13631488	54	6803
2026-01-04 23:07:09.12	124.97	4.29	-41.4	-43.2	18.2	0.00e+00	0	31	0	15728640	54	7339
2026-01-04 23:07:10.13	124.93	4.36	-40.8	-42.4	18.9	0.00e+00	92	31	0	17825792	54	6725
2026-01-04 23:07:11.14	124.89	4.43	-40.7	-42.2	19.1	0.00e+00	0	31	0	19922944	54	6584
2026-01-04 23:07:12.15	124.85	4.50	-40.9	-42.6	18.7	0.00e+00	90	31	0	20971520	54	6865
2026-01-04 23:07:13.16	124.81	4.56	-40.4	-41.9	19.4	0.00e+00	20	31	0	23068672	54	6319
2026-01-04 23:07:14.17	124.77	4.63	-40.6	-42.2	19.0	0.00e+00	90	31	0	25165824	54	6580
2026-01-04 23:07:15.18	124.73	4.70	-40.1	-41.5	19.7	0.00e+00	91	31	0	27262976	54	6099
2026-01-04 23:07:16.19	124.69	4.77	-40.2	-41.6	19.7	0.00e+00	15	31	0	29360128	54	6116
2026-01-04 23:07:17.20	124.64	4.84	-40.2	-41.7	19.7	0.00e+00	32	31	0	30408704	54	6187
2026-01-04 23:07:18.21	124.60	4.91	-40.6	-42.1	19.4	0.00e+00	0	31	0	32505856	54	6469
2026-01-04 23:07:19.22	124.56	4.98	-40.9	-42.5	18.9	0.00e+00	92	31	0	34603008	54	6813
2026-01-04 23:07:20.23	124.52	5.05	-40.7	-42.3	19.1	0.00e+00	0	31	0	36700160	54	6625
2026-01-04 23:07:21.23	124.48	5.12	-40.5	-42.1	19.2	0.00e+00	91	31	0	38797312	54	6489
2026-01-04 23:07:22.24	124.44	5.19	-40.9	-42.6	18.8	0.00e+00	20	31	0	39845888	54	6850
2026-01-04 23:07:23.25	124.40	5.26	-40.5	-42.0	19.0	0.00e+00	0	31	0	41943040	54	6459
2026-01-04 23:07:24.26	124.35	5.33	-40.4	-41.9	19.3	0.00e+00	61	31	0	44040192	54	6340
2026-01-04 23:07:25.27	124.31	5.40	-40.4	-41.9	19.0	0.00e+00	12	31	0	46137344	54	6376
2026-01-04 23:07:26.29	124.27	5.47	-40.4	-41.9	19.4	0.00e+00	91	31	0	48234496	54	6354
2026-01-04 23:07:27.29	124.23	5.54	-40.1	-41.5	19.5	0.00e+00	0	31	0	49283072	54	6061
2026-01-04 23:07:28.30	124.18	5.61	-40.0	-41.4	19.8	0.00e+00	90	31	0	51380224	54	6021
2026-01-04 23:07:29.31	124.14	5.68	-40.3	-41.8	19.5	0.00e+00	22	31	0	53477376	54	6272
2026-01-04 23:07:30.33	124.10	5.76	-40.4	-41.9	19.4	0.00e+00	50	31	0	55574528	54	6329
2026-01-04 23:07:31.33	124.05	5.83	-40.1	-41.5	19.7	0.00e+00	91	31	0	57671680	54	6064
2026-01-04 23:07:32.34	124.01	5.90	-40.1	-41.6	19.7	0.00e+00	0	31	0	58720256	54	6114
2026-01-04 23:07:33.35	123.96	5.97	-40.1	-41.5	19.9	0.00e+00	92	31	0	60817408	54	6093
2026-01-04 23:07:34.36	123.92	6.04	-40.4	-41.9	19.4	0.00e+00	0	31	0	62914560	54	6338
2026-01-04 23:07:35.37	123.87	6.12	-40.0	-41.4	20.0	0.00e+00	92	31	0	65011712	54	6033
2026-01-04 23:07:36.38	123.83	6.19	-40.2	-41.7	19.8	0.00e+00	0	31	0	67108864	54	6209
2026-01-04 23:07:37.39	123.78	6.26	-40.3	-41.8	19.7	0.00e+00	91	31	0	68157440	54	6249
2026-01-04 23:07:38.40	123.74	6.33	-40.0	-41.4	20.0	0.00e+00	91	31	0	70254592	54	5992
2026-01-04 23:07:39.41	123.69	6.41	-40.1	-41.5	19.8	0.00e+00	0	31	0	72351744	54	6081
2026-01-04 23:07:40.42	123.65	6.48	-40.2	-41.6	19.8	0.00e+00	70	31	0	74448896	54	6128
2026-01-04 23:07:41.43	123.60	6.55	-40.1	-41.4	20.0	0.00e+00	0	31	0	76546048	54	6016
2026-01-04 23:07:42.45	123.55	6.63	-40.1	-41.5	20.0	0.00e+00	91	31	0	77594624	54	6072
2026-01-04 23:07:43.46	123.51	6.70	-40.0	-41.4	20.1	0.00e+00	16	31	0	79691776	54	5966
2026-01-04 23:07:44.47	123.46	6.78	-39.9	-41.2	20.3	0.00e+00	92	31	0	81788928	54	5864
2026-01-04 23:07:45.48	123.41	6.85	-40.0	-41.3	20.2	0.00e+00	90	31	0	83886080	54	5948
2026-01-04 23:07:46.49	123.36	6.92	-40.1	-41.4	20.3	0.00e+00	0	31	0	85983232	54	6016
2026-01-04 23:07:47.50	123.32	7.00	-40.0	-41.3	20.1	0.00e+00	92	31	0	88080384	54	5931
2026-01-04 23:07:48.51	123.27	7.07	-40.0	-41.3	20.2	0.00e+00	0	31	0	89128960	54	5949
2026-01-04 23:07:49.51	123.22	7.15	-39.8	-41.1	20.3	0.00e+00	92	31	0	91226112	52	6539
2026-01-04 23:07:50.52	123.17	7.22	-39.8	-41.1	20.5	0.00e+00	0	31	0	93323264	52	6495
2026-01-04 23:07:51.53	123.12	7.30	-40.1	-41.4	20.2	0.00e+00	92	31	0	95420416	52	6758
2026-01-04 23:07:52.54	123.07	7.37	-39.7	-41.0	20.5	0.00e+00	92	31	0	97517568	52	6426
2026-01-04 23:07:53.55	123.03	7.45	-39.8	-41.0	20.5	0.00e+00	0	31	0	98566144	52	6455
2026-01-04 23:07:54.55	122.98	7.53	-39.7	-40.9	20.6	0.00e+00	54	31	0	100663296	52	6372
2026-01-04 23:07:55.56	122.93	7.60	-39.7	-41.0	20.6	0.00e+00	0	31	0	102760448	52	6394
2026-01-04 23:07:56.57	122.88	7.68	-39.5	-40.7	20.7	0.00e+00	90	31	0	104857600	52	6219
2026-01-04 23:07:57.58	122.83	7.76	-39.9	-41.2	20.3	0.00e+00	0	31	0	106954752	52	6566
2026-01-04 23:07:58.59	122.78	7.83	-39.5	-40.7	20.8	0.00e+00	91	31	0	108003328	52	6193
2026-01-04 23:07:59.60	122.72	7.91	-39.5	-40.7	20.7	0.00e+00	92	31	0	110100480	52	6239
2026-01-04 23:08:00.61	122.67	7.99	-39.5	-40.8	20.8	0.00e+00	19	31	0	112197632	52	6263
2026-01-04 23:08:01.62	122.62	8.06	-39.4	-40.6	21.0	0.00e+00	92	31	0	114294784	52	6114
2026-01-04 23:08:02.62	122.57	8.14	-39.5	-40.7	20.8	0.00e+00	0	31	0	116391936	52	6207
2026-01-04 23:08:03.64	122.52	8.22	-39.6	-40.8	20.8	0.00e+00	90	31	0	117440512	52	6256
2026-01-04 23:08:04.65	122.46	8.30	-39.5	-40.7	20.7	0.00e+00	0	31	0	119537664	52	6210
2026-01-04 23:08:05.66	122.41	8.38	-39.6	-40.8	20.9	0.00e+00	90	31	0	121634816	52	6261
2026-01-04 23:08:06.67	122.36	8.46	-39.2	-40.3	21.2	0.00e+00	18	31	0	123731968	52	5952
2026-01-04 23:08:07.68	122.31	8.53	-39.2	-40.3	21.3	0.00e+00	27	31	0	125829120	52	5944
2026-01-04 23:08:08.69	122.25	8.61	-39.2	-40.3	21.3	0.00e+00	92	31	0	126877696	52	5919
2026-01-04 23:08:09.70	122.20	8.69	-39.2	-40.4	21.3	0.00e+00	0	31	0	128974848	52	5997
2026-01-04 23:08:10.71	122.14	8.77	-40.0	-41.3	20.4	0.00e+00	60	31	0	131072000	52	6673
2026-01-04 23:08:11.72	122.09	8.85	-39.3	-40.5	21.3	0.00e+00	0	31	0	133169152	52	6056
2026-01-04 23:08:12.73	122.03	8.93	-38.6	-39.7	21.7	0.00e+00	92	31	0	135266304	50	6203
2026-01-04 23:08:13.74	121.98	9.01	-39.1	-40.2	21.5	0.00e+00	21	32	0	136314880	52	5871
2026-01-04 23:08:14.75	121.92	9.09	-38.7	-39.8	21.8	0.00e+00	92	31	0	138412032	50	6257
2026-01-04 23:08:15.76	121.87	9.17	-39.6	-40.8	20.8	0.00e+00	90	31	0	140509184	50	7071
2026-01-04 23:08:16.77	121.81	9.25	-39.6	-40.8	21.0	0.00e+00	0	31	0	142606336	52	6311
2026-01-04 23:08:17.78	121.75	9.34	-39.2	-40.3	21.3	0.00e+00	69	32	0	144703488	52	5936
2026-01-04 23:08:18.79	121.70	9.42	-39.3	-40.5	21.3	0.00e+00	0	31	0	145752064	52	6045
2026-01-04 23:08:19.80	121.64	9.50	-39.4	-40.6	21.2	0.00e+00	92	31	0	147849216	52	6151
2026-01-04 23:08:20.81	121.58	9.58	-39.3	-40.5	21.3	0.00e+00	23	32	0	149946368	52	6058
2026-01-04 23:08:21.81	121.53	9.66	-38.9	-40.0	21.7	0.00e+00	92	31	0	152043520	52	5717
2026-01-04 23:08:22.82	121.47	9.74	-39.0	-40.1	21.7	0.00e+00	92	31	0	154140672	52	5765
2026-01-04 23:08:23.83	121.41	9.83	-38.9	-40.0	21.7	0.00e+00	0	31	0	156237824	52	5736
2026-01-04 23:08:24.84	121.35	9.91	-39.1	-40.2	21.6	0.00e+00	80	31	0	157286400	52	5857
2026-01-04 23:08:25.85	121.29	9.99	-38.9	-40.0	21.8	0.00e+00	0	31	0	159383552	52	5697
2026-01-04 23:08:26.86	121.23	10.08	-39.0	-40.1	21.6	0.00e+00	90	31	0	161480704	52	5788
2026-01-04 23:08:27.87	121.17	10.16	-39.2	-40.4	21.5	0.00e+00	0	32	0	163577856	52	5965
2026-01-04 23:08:28.88	121.11	10.24	-39.2	-40.3	21.4	0.00e+00	92	31	0	165675008	52	5948
2026-01-04 23:08:29.89	121.05	10.33	-39.3	-40.4	21.4	0.00e+00	92	31	0	166723584	52	6006
2026-01-04 23:08:30.90	120.99	10.41	-39.2	-40.4	21.4	0.00e+00	0	32	0	168820736	52	5993
2026-01-04 23:08:31.91	120.93	10.50	-39.1	-40.2	21.6	0.00e+00	92	32	0	170917888	52	5888
2026-01-04 23:08:32.92	120.87	10.58	-39.1	-40.3	21.6	0.00e+00	0	32	0	173015040	52	5900
2026-01-04 23:08:33.93	120.80	10.67	-38.9	-40.0	21.8	0.00e+00	92	32	0	175112192	52	5732
2026-01-04 23:08:34.94	120.74	10.75	-38.6	-39.6	22.1	0.00e+00	0	32	0	176160768	50	6151
2026-01-04 23:08:35.95	120.68	10.84	-38.7	-39.8	21.9	0.00e+00	92	32	0	178257920	50	6278
2026-01-04 23:08:36.96	120.61	10.92	-38.7	-39.8	21.9	0.00e+00	92	31	0	180355072	50	6267
2026-01-04 23:08:37.97	120.55	11.01	-38.4	-39.5	22.3	0.00e+00	0	31	0	182452224	50	6034
2026-01-04 23:08:38.98	120.49	11.10	-38.6	-39.7	21.9	0.00e+00	92	32	0	184549376	50	6174
2026-01-04 23:08:39.99	120.42	11.18	-38.8	-39.8	22.0	0.00e+00	0	31	0	185597952	50	6313
2026-01-04 23:08:41.00	120.36	11.27	-38.7	-39.7	22.0	0.00e+00	92	31	0	187695104	50	6237
2026-01-04 23:08:42.01	120.29	11.36	-38.7	-39.7	22.0	0.00e+00	0	32	0	189792256	50	6210
2026-01-04 23:08:43.02	120.23	11.44	-38.7	-39.7	22.0	0.00e+00	92	32	0	191889408	50	6244
2026-01-04 23:08:44.03	120.16	11.53	-38.7	-39.7	22.0	0.00e+00	26	31	0	193986560	50	6230
2026-01-04 23:08:45.03	120.09	11.62	-38.6	-39.7	22.0	0.00e+00	92	32	0	195035136	50	6207
2026-01-04 23:08:46.05	120.03	11.71	-38.6	-39.6	22.1	0.00e+00	92	32	0	197132288	50	6160
2026-01-04 23:08:47.05	119.96	11.80	-38.4	-39.4	22.2	0.00e+00	0	32	0	199229440	50	5976
2026-01-04 23:08:48.06	119.89	11.88	-38.3	-39.3	22.4	0.00e+00	38	32	0	201326592	50	5961
2026-01-04 23:08:49.07	119.82	11.97	-38.2	-39.2	22.5	0.00e+00	0	32	0	203423744	50	5881
2026-01-04 23:08:50.08	119.75	12.06	-38.3	-39.3	22.4	0.00e+00	90	32	0	204472320	50	5912
2026-01-04 23:08:51.09	119.69	12.15	-38.1	-39.1	22.5	0.00e+00	7	31	0	206569472	50	5815
2026-01-04 23:08:52.10	119.62	12.24	-38.2	-39.2	22.3	0.00e+00	90	32	0	208666624	50	5886
2026-01-04 23:08:53.11	119.55	12.33	-38.5	-39.6	21.9	0.00e+00	92	32	0	210763776	50	6154
2026-01-04 23:08:54.12	119.48	12.42	-38.4	-39.4	22.2	0.00e+00	0	31	0	212860928	50	6008
2026-01-04 23:08:55.13	119.40	12.51	-38.5	-39.5	22.3	0.00e+00	82	32	0	213909504	50	6075
2026-01-04 23:08:56.14	119.33	12.61	-38.5	-39.6	22.2	0.00e+00	0	32	0	216006656	50	6156
2026-01-04 23:08:57.15	119.26	12.70	-38.4	-39.4	22.3	0.00e+00	88	32	0	218103808	50	6016
2026-01-04 23:08:58.16	119.19	12.79	-38.5	-39.6	22.3	0.00e+00	0	32	0	220200960	50	6122
2026-01-04 23:08:59.17	119.12	12.88	-38.2	-39.2	22.4	0.00e+00	92	32	0	222298112	50	5847
2026-01-04 23:09:00.18	119.04	12.97	-38.2	-39.2	22.5	0.00e+00	92	32	0	224395264	50	5843
2026-01-04 23:09:01.19	118.97	13.07	-38.3	-39.4	22.3	0.00e+00	0	32	0	225443840	50	5969
2026-01-04 23:09:02.20	118.89	13.16	-38.1	-39.1	22.6	0.00e+00	76	32	0	227540992	50	5779
2026-01-04 23:09:03.21	118.82	13.25	-38.0	-39.0	22.6	0.00e+00	9	32	0	229638144	50	5754
2026-01-04 23:09:04.22	118.74	13.35	-38.1	-39.1	22.5	0.00e+00	92	32	0	231735296	50	5768
2026-01-04 23:09:05.23	118.67	13.44	-38.4	-39.4	22.4	0.00e+00	0	32	0	233832448	50	6015
2026-01-04 23:09:06.24	118.59	13.53	-38.1	-39.1	22.5	0.00e+00	92	32	0	234881024	50	5817
2026-01-04 23:09:07.25	118.52	13.63	-38.5	-39.5	22.3	0.00e+00	90	32	0	236978176	50	6082
2026-01-04 23:09:08.25	118.44	13.72	-38.6	-39.6	22.2	0.00e+00	0	32	0	239075328	50	6170
2026-01-04 23:09:09.26	118.36	13.82	-38.5	-39.5	22.3	0.00e+00	92	31	0	241172480	50	6094
2026-01-04 23:09:10.28	118.28	13.91	-38.2	-39.2	22.4	0.00e+00	0	32	0	243269632	50	5853
2026-01-04 23:09:11.28	118.20	14.01	-38.2	-39.3	22.4	0.00e+00	92	31	0	244318208	50	5913
2026-01-04 23:09:12.29	118.13	14.11	-38.1	-39.1	22.6	0.00e+00	8	31	0	246415360	50	5787
2026-01-04 23:09:13.30	118.05	14.20	-38.0	-39.0	22.6	0.00e+00	88	32	0	248512512	50	5721
2026-01-04 23:09:14.32	117.96	14.30	-38.2	-39.3	22.4	0.00e+00	26	32	0	250609664	50	5902
2026-01-04 23:09:15.32	117.88	14.40	-38.3	-39.3	22.4	0.00e+00	0	32	0	252706816	50	5927
2026-01-04 23:09:16.33	117.80	14.49	-38.3	-39.3	22.4	0.00e+00	90	32	0	253755392	50	5939
2026-01-04 23:09:17.34	117.72	14.59	-38.5	-39.6	22.2	0.00e+00	0	32	0	255852544	50	6149
2026-01-04 23:09:18.35	117.64	14.69	-38.6	-39.7	22.1	0.00e+00	92	31	0	257949696	50	6217
2026-01-04 23:09:19.36	117.56	14.79	-39.1	-40.2	21.7	0.00e+00	0	32	0	260046848	50	6582
2026-01-04 23:09:20.37	117.47	14.89	-38.8	-39.9	22.1	0.00e+00	92	32	0	262144000	50	6319
2026-01-04 23:09:21.38	117.39	14.99	-38.9	-40.0	21.9	0.00e+00	23	32	0	263192576	50	6392
2026-01-04 23:09:22.39	117.30	15.09	-38.5	-39.5	22.1	0.00e+00	92	32	0	265289728	50	6096
2026-01-04 23:09:23.40	117.22	15.19	-38.3	-39.3	22.4	0.00e+00	92	32	0	267386880	50	5922
2026-01-04 23:09:24.41	117.13	15.29	-38.2	-39.2	22.5	0.00e+00	0	32	0	269484032	50	5872
2026-01-04 23:09:25.42	117.04	15.39	-38.3	-39.3	22.5	0.00e+00	90	32	0	271581184	50	5938
2026-01-04 23:09:26.43	116.96	15.49	-38.2	-39.2	22.4	0.00e+00	0	32	0	272629760	50	5857
2026-01-04 23:09:27.44	116.87	15.59	-38.5	-39.5	22.2	0.00e+00	90	31	0	274726912	50	6101
2026-01-04 23:09:28.45	116.78	15.69	-38.7	-39.8	22.1	0.00e+00	7	32	0	276824064	50	6267
2026-01-04 23:09:29.46	116.69	15.79	-38.5	-39.6	22.2	0.00e+00	92	32	0	278921216	50	6168
2026-01-04 23:09:30.47	116.60	15.89	-38.5	-39.7	22.2	0.00e+00	92	32	0	281018368	50	6175
2026-01-04 23:09:31.48	116.51	16.00	-38.5	-39.5	22.4	0.00e+00	0	32	0	282066944	50	6082
2026-01-04 23:09:32.49	116.42	16.10	-38.5	-39.5	22.3	0.00e+00	92	31	0	284164096	50	6086
2026-01-04 23:09:33.50	116.33	16.20	-38.3	-39.3	22.5	0.00e+00	0	31	0	286261248	50	5916
2026-01-04 23:09:34.51	116.24	16.31	-38.1	-39.1	22.6	0.00e+00	91	32	0	288358400	50	5810
2026-01-04 23:09:35.52	116.14	16.41	-38.0	-39.0	22.6	0.00e+00	17	32	0	290455552	50	5704
2026-01-04 23:09:36.53	116.05	16.52	-37.9	-38.9	22.9	0.00e+00	92	31	0	292552704	50	5631
2026-01-04 23:09:37.54	115.96	16.62	-38.0	-39.0	22.8	0.00e+00	92	32	0	293601280	50	5700
2026-01-04 23:09:38.55	115.86	16.73	-38.1	-39.1	22.7	0.00e+00	0	32	0	295698432	50	5801
2026-01-04 23:09:39.56	115.76	16.83	-38.1	-39.1	22.5	0.00e+00	90	31	0	297795584	50	5823
2026-01-04 23:09:40.57	115.67	16.94	-38.2	-39.2	22.5	0.00e+00	0	32	0	299892736	50	5887
2026-01-04 23:09:41.57	115.57	17.04	-38.4	-39.4	22.4	0.00e+00	92	32	0	301989888	50	6019
2026-01-04 23:09:42.58	115.47	17.15	-38.4	-39.5	22.4	0.00e+00	0	32	0	303038464	50	6038
2026-01-04 23:09:43.59	115.38	17.26	-38.6	-39.6	22.2	0.00e+00	92	31	0	305135616	50	6171
2026-01-04 23:09:44.60	115.28	17.36	-38.5	-39.5	22.4	0.00e+00	92	32	0	307232768	50	6065
2026-01-04 23:09:45.61	115.18	17.47	-38.3	-39.3	22.6	0.00e+00	10	32	0	309329920	50	5942
2026-01-04 23:09:46.62	115.08	17.58	-38.2	-39.2	22.6	0.00e+00	92	32	0	311427072	50	5856
2026-01-04 23:09:47.63	114.97	17.69	-38.0	-39.0	22.8	0.00e+00	0	32	0	312475648	50	5719
2026-01-04 23:09:48.64	114.87	17.80	-37.9	-38.9	22.8	0.00e+00	90	32	0	314572800	50	5643
2026-01-04 23:09:49.65	114.77	17.91	-38.3	-39.3	22.7	0.00e+00	0	32	0	316669952	50	5915
2026-01-04 23:09:50.66	114.67	18.02	-38.2	-39.2	22.7	0.00e+00	91	32	0	318767104	50	5832
2026-01-04 23:09:51.67	114.56	18.13	-38.1	-39.1	22.7	0.00e+00	92	32	0	320864256	50	5810
2026-01-04 23:09:52.68	114.46	18.24	-38.3	-39.3	22.6	0.00e+00	0	32	0	321912832	50	5923
2026-01-04 23:09:53.69	114.35	18.35	-38.1	-39.1	22.7	0.00e+00	92	32	0	324009984	50	5776
2026-01-04 23:09:54.70	114.24	18.46	-38.2	-39.2	22.6	0.00e+00	0	32	0	326107136	50	5836
2026-01-04 23:09:55.71	114.14	18.57	-38.2	-39.2	22.6	0.00e+00	92	32	0	328204288	50	5884
2026-01-04 23:09:56.72	114.03	18.68	-38.4	-39.5	22.4	0.00e+00	0	32	0	330301440	50	6040
2026-01-04 23:09:57.73	113.92	18.80	-38.3	-39.3	22.5	0.00e+00	92	31	0	331350016	50	5920
2026-01-04 23:09:58.74	113.81	18.91	-38.4	-39.4	22.5	0.00e+00	91	31	0	333447168	50	5972
2026-01-04 23:09:59.75	113.70	19.02	-38.3	-39.3	22.7	0.00e+00	92	32	0	335544320	50	5899
2026-01-04 23:10:00.76	113.58	19.13	-38.3	-39.3	22.6	0.00e+00	90	32	0	337641472	50	5898
2026-01-04 23:10:01.77	113.47	19.25	-38.3	-39.3	22.6	0.00e+00	0	32	0	339738624	50	5955
2026-01-04 23:10:02.78	113.36	19.36	-38.4	-39.4	22.4	0.00e+00	90	32	0	340787200	50	5986
2026-01-04 23:10:03.79	113.24	19.48	-38.5	-39.5	22.2	0.00e+00	0	32	0	342884352	50	6079
2026-01-04 23:10:04.79	113.13	19.59	-38.9	-39.9	22.1	0.00e+00	90	31	0	344981504	50	6357
2026-01-04 23:10:05.80	113.01	19.71	-38.7	-39.7	22.3	0.00e+00	0	32	0	347078656	50	6238
2026-01-04 23:10:06.81	112.90	19.82	-38.4	-39.4	22.2	0.00e+00	90	32	0	349175808	50	6016
2026-01-04 23:10:07.82	112.78	19.94	-38.2	-39.2	22.6	0.00e+00	92	31	0	350224384	50	5854
2026-01-04 23:10:08.83	112.66	20.06	-38.4	-39.3	22.4	0.00e+00	0	31	0	352321536	50	5960
2026-01-04 23:10:09.84	112.54	20.18	-38.4	-39.4	22.5	0.00e+00	90	32	0	354418688	50	6010
2026-01-04 23:10:10.85	112.42	20.29	-38.4	-39.4	22.5	0.00e+00	0	32	0	356515840	50	6013
2026-01-04 23:10:11.85	112.30	20.41	-37.8	-38.8	22.9	0.00e+00	90	32	0	358612992	50	5613
2026-01-04 23:10:12.86	112.18	20.53	-38.2	-39.2	22.4	0.00e+00	0	32	0	360710144	50	5876
2026-01-04 23:10:13.87	112.05	20.65	-38.6	-39.6	22.3	0.00e+00	91	32	0	361758720	50	6144
2026-01-04 23:10:14.88	111.93	20.77	-38.4	-39.4	22.5	0.00e+00	92	32	0	363855872	50	6007
2026-01-04 23:10:15.89	111.80	20.89	-37.9	-38.8	23.0	0.00e+00	0	32	0	365953024	50	5619
2026-01-04 23:10:16.90	111.67	21.01	-38.4	-39.4	22.4	0.00e+00	44	31	0	368050176	50	5992
2026-01-04 23:10:17.91	111.55	21.13	-38.4	-39.4	22.5	0.00e+00	0	31	0	370147328	50	5971
2026-01-04 23:10:18.92	111.42	21.25	-38.3	-39.4	22.5	0.00e+00	90	32	0	371195904	50	5965
2026-01-04 23:10:19.93	111.29	21.37	-38.5	-39.6	22.3	0.00e+00	0	32	0	373293056	50	6112
2026-01-04 23:10:20.94	111.16	21.49	-38.9	-40.0	22.1	0.00e+00	90	31	0	375390208	50	6431
2026-01-04 23:10:21.96	111.02	21.62	-38.8	-39.9	22.0	0.00e+00	92	32	0	377487360	50	6328
2026-01-04 23:10:22.97	110.89	21.74	-39.1	-40.2	21.8	0.00e+00	0	32	0	379584512	50	6605
2026-01-04 23:10:23.98	110.76	21.86	-38.9	-40.0	21.8	0.00e+00	52	32	0	380633088	50	6425
2026-01-04 23:10:24.99	110.62	21.99	-39.2	-40.3	21.8	0.00e+00	0	32	0	382730240	50	6667
2026-01-04 23:10:25.99	110.49	22.11	-38.9	-40.0	22.0	0.00e+00	92	32	0	384827392	50	6429
2026-01-04 23:10:27.00	110.35	22.24	-38.7	-39.8	22.3	0.00e+00	0	32	0	386924544	50	6280
2026-01-04 23:10:28.01	110.21	22.36	-38.4	-39.4	22.3	0.00e+00	92	32	0	389021696	50	6015
2026-01-04 23:10:29.02	110.07	22.49	-38.1	-39.1	22.7	0.00e+00	27	32	0	390070272	50	5799
2026-01-04 23:10:30.03	109.93	22.61	-38.5	-39.5	22.4	0.00e+00	0	32	0	392167424	50	6094
2026-01-04 23:10:31.04	109.79	22.74	-38.5	-39.5	22.3	0.00e+00	92	32	0	394264576	50	6069
2026-01-04 23:10:32.05	109.65	22.86	-38.7	-39.8	22.0	0.00e+00	0	32	0	396361728	50	6268
2026-01-04 23:10:33.07	109.50	22.99	-39.1	-40.2	21.9	0.00e+00	90	32	0	398458880	50	6603
2026-01-04 23:10:34.08	109.36	23.12	-38.8	-39.9	22.1	0.00e+00	0	32	0	399507456	50	6360
2026-01-04 23:10:35.09	109.21	23.25	-39.0	-40.1	22.0	0.00e+00	75	32	0	401604608	50	6534
2026-01-04 23:10:36.10	109.06	23.38	-39.1	-40.3	21.8	0.00e+00	0	32	0	403701760	50	6624
2026-01-04 23:10:37.11	108.91	23.51	-38.7	-39.7	22.2	0.00e+00	0	32	0	405798912	50	6229
2026-01-04 23:10:38.12	108.76	23.64	-39.0	-40.2	21.9	0.00e+00	92	32	0	407896064	50	6551
2026-01-04 23:10:39.13	108.61	23.77	-39.2	-40.3	21.7	0.00e+00	0	32	0	408944640	50	6676
2026-01-04 23:10:40.14	108.46	23.90	-39.4	-40.6	21.5	0.00e+00	80	32	0	411041792	50	6909
2026-01-04 23:10:41.15	108.30	24.03	-39.0	-40.2	22.0	0.00e+00	0	31	0	413138944	50	6542
2026-01-04 23:10:42.15	108.15	24.16	-38.8	-39.8	22.1	0.00e+00	92	32	0	415236096	50	6293
2026-01-04 23:10:43.16	107.99	24.29	-38.6	-39.7	22.2	0.00e+00	26	32	0	417333248	50	6211
2026-01-04 23:10:44.17	107.83	24.42	-38.6	-39.6	22.5	0.00e+00	90	32	0	418381824	50	6161
2026-01-04 23:10:45.18	107.67	24.55	-37.7	-38.6	23.0	0.00e+00	86	31	0	420478976	48	6136
2026-01-04 23:10:46.19	107.51	24.69	-38.3	-39.3	22.5	0.00e+00	0	32	0	422576128	48	6649
2026-01-04 23:10:47.20	107.35	24.82	-38.4	-39.5	22.4	0.00e+00	92	32	0	424673280	48	6785
2026-01-04 23:10:48.21	107.19	24.95	-38.7	-39.8	22.3	0.00e+00	0	32	0	426770432	50	6276
2026-01-04 23:10:49.22	107.02	25.09	-38.5	-39.5	22.4	0.00e+00	92	32	0	428867584	50	6054
2026-01-04 23:10:50.23	106.85	25.22	-38.7	-39.8	22.2	0.00e+00	21	32	0	429916160	50	6288
2026-01-04 23:10:51.24	106.69	25.36	-38.7	-39.8	22.3	0.00e+00	92	31	0	432013312	50	6272
2026-01-04 23:10:52.25	106.52	25.49	-38.8	-39.9	22.2	0.00e+00	81	32	0	434110464	50	6341
2026-01-04 23:10:53.26	106.35	25.63	-39.1	-40.2	21.7	0.00e+00	19	32	0	436207616	50	6553
2026-01-04 23:10:54.27	106.17	25.76	-39.2	-40.3	21.7	0.00e+00	90	32	0	438304768	50	6659
2026-01-04 23:10:55.28	106.00	25.90	-39.1	-40.2	21.8	0.00e+00	0	32	0	439353344	50	6615
2026-01-04 23:10:56.29	105.82	26.04	-39.1	-40.2	21.9	0.00e+00	90	32	0	441450496	50	6555
2026-01-04 23:10:57.30	105.65	26.17	-38.5	-39.5	22.5	0.00e+00	0	32	0	443547648	50	6075
2026-01-04 23:10:58.31	105.47	26.31	-38.3	-39.3	22.6	0.00e+00	92	32	0	445644800	50	5918
2026-01-04 23:10:59.32	105.29	26.45	-38.6	-39.7	22.2	0.00e+00	92	32	0	447741952	50	6194
2026-01-04 23:11:00.33	105.11	26.59	-38.6	-39.6	22.3	0.00e+00	5	32	0	448790528	50	6171
2026-01-04 23:11:01.34	104.92	26.73	-38.9	-39.9	22.0	0.00e+00	90	32	0	450887680	50	6373
2026-01-04 23:11:02.35	104.74	26.87	-39.0	-40.1	21.9	0.00e+00	0	32	0	452984832	50	6497
2026-01-04 23:11:03.36	104.55	27.00	-38.9	-40.0	22.1	0.00e+00	92	32	0	455081984	50	6409
2026-01-04 23:11:04.37	104.36	27.14	-39.1	-40.2	21.7	0.00e+00	0	32	0	457179136	50	6559
2026-01-04 23:11:05.38	104.17	27.28	-38.9	-40.0	22.1	0.00e+00	92	31	0	458227712	50	6406
2026-01-04 23:11:06.39	103.98	27.43	-38.9	-40.0	22.2	0.00e+00	92	32	0	460324864	50	6410
2026-01-04 23:11:07.40	103.79	27.57	-39.1	-40.2	21.9	0.00e+00	0	32	0	462422016	50	6575
2026-01-04 23:11:08.41	103.59	27.71	-39.4	-40.6	21.6	0.00e+00	92	32	0	464519168	50	6856
2026-01-04 23:11:09.42	103.40	27.85	-39.1	-40.2	21.9	0.00e+00	0	32	0	466616320	50	6586
2026-01-04 23:11:10.43	103.20	27.99	-39.0	-40.1	22.0	0.00e+00	53	32	0	467664896	50	6465
2026-01-04 23:11:11.44	103.00	28.13	-39.1	-40.2	21.9	0.00e+00	0	32	0	469762048	50	6556
2026-01-04 23:11:12.45	102.79	28.28	-39.2	-40.3	21.7	0.00e+00	92	32	0	471859200	50	6690
2026-01-04 23:11:13.46	102.59	28.42	-39.8	-41.0	21.2	0.00e+00	23	32	0	473956352	52	6433
2026-01-04 23:11:14.47	102.38	28.56	-40.4	-41.8	20.5	0.00e+00	92	32	0	476053504	52	7022
2026-01-04 23:11:15.48	102.18	28.71	-40.4	-41.7	20.8	0.00e+00	92	32	0	477102080	52	6989
2026-01-04 23:11:16.49	101.97	28.85	-40.3	-41.6	20.7	0.00e+00	0	32	0	479199232	52	6853
2026-01-04 23:11:17.50	101.75	29.00	-40.1	-41.2	21.1	0.00e+00	72	32	0	481296384	52	6606
2026-01-04 23:11:18.51	101.54	29.14	-39.9	-41.1	21.0	0.00e+00	0	32	0	483393536	52	6494
2026-01-04 23:11:19.52	101.33	29.29	-40.3	-41.5	20.3	0.00e+00	92	32	0	485490688	52	6840
2026-01-04 23:11:20.53	101.11	29.43	-41.1	-42.5	19.7	0.00e+00	40	32	0	486539264	54	6824
2026-01-04 23:11:21.54	100.89	29.58	-41.6	-43.1	19.1	0.00e+00	92	32	0	488636416	54	7332
2026-01-04 23:11:22.54	100.67	29.72	-42.2	-44.0	18.5	0.00e+00	92	32	0	490733568	56	7229
2026-01-04 23:11:23.55	100.45	29.87	-41.8	-43.4	19.1	0.00e+00	0	32	0	492830720	56	6704
2026-01-04 23:11:24.56	100.22	30.01	-41.6	-43.2	19.3	0.00e+00	43	32	0	494927872	56	6541
2026-01-04 23:11:25.57	99.99	30.16	-41.4	-42.9	19.6	0.00e+00	0	32	0	497025024	56	6331
2026-01-04 23:11:26.58	99.76	30.31	-41.4	-42.9	19.7	0.00e+00	81	32	0	498073600	56	6340
2026-01-04 23:11:27.59	99.53	30.45	-41.3	-42.7	20.2	0.00e+00	0	32	0	500170752	56	6232
2026-01-04 23:11:28.60	99.30	30.60	-41.5	-43.0	19.7	0.00e+00	92	32	0	502267904	56	6429
2026-01-04 23:11:29.61	99.06	30.75	-41.4	-42.9	19.6	0.00e+00	92	32	0	504365056	56	6344
2026-01-04 23:11:30.62	98.82	30.90	-42.0	-43.6	19.2	0.00e+00	0	32	0	506462208	56	6881
2026-01-04 23:11:31.63	98.58	31.04	-42.0	-43.6	18.9	0.00e+00	67	32	0	507510784	56	6913
2026-01-04 23:11:32.63	98.34	31.19	-42.7	-44.6	18.0	0.00e+00	0	32	0	509607936	56	7698
2026-01-04 23:11:33.65	98.09	31.34	-41.9	-43.5	19.1	0.00e+00	90	32	0	511705088	56	6837
2026-01-04 23:11:34.66	97.85	31.49	-41.5	-43.0	19.8	0.00e+00	0	32	0	513802240	56	6419
2026-01-04 23:11:35.67	97.60	31.64	-41.1	-42.4	20.0	0.00e+00	92	32	0	515899392	56	6020
2026-01-04 23:11:36.67	97.35	31.78	-40.7	-42.0	20.3	0.00e+00	92	32	0	516947968	54	6435
2026-01-04 23:11:37.68	97.09	31.93	-40.7	-42.0	20.5	0.00e+00	0	32	0	519045120	54	6457
2026-01-04 23:11:38.69	96.84	32.08	-40.9	-42.3	20.1	0.00e+00	90	32	0	521142272	54	6670
2026-01-04 23:11:39.71	96.57	32.23	-41.4	-42.9	19.7	0.00e+00	0	32	0	523239424	54	7170
2026-01-04 23:11:40.71	96.32	32.38	-41.6	-43.2	19.2	0.00e+00	92	32	0	525336576	54	7420
2026-01-04 23:11:41.72	96.05	32.53	-41.3	-42.8	19.7	0.00e+00	6	32	0	526385152	54	7037
2026-01-04 23:11:42.73	95.79	32.68	-40.9	-42.3	20.1	0.00e+00	92	32	0	528482304	54	6690
2026-01-04 23:11:43.74	95.52	32.83	-40.3	-41.6	21.0	0.00e+00	27	32	0	530579456	54	6117
2026-01-04 23:11:44.75	95.25	32.97	-39.7	-40.9	21.5	0.00e+00	0	32	0	532676608	52	6320
2026-01-04 23:11:45.75	94.97	33.12	-39.2	-40.2	22.0	0.00e+00	90	32	0	534773760	52	5870
2026-01-04 23:11:46.76	94.70	33.27	-39.0	-40.1	22.0	0.00e+00	0	32	0	535822336	52	5769
2026-01-04 23:11:47.78	94.42	33.42	-39.0	-40.1	22.0	0.00e+00	74	32	0	537919488	52	5771
2026-01-04 23:11:48.78	94.14	33.57	-39.3	-40.3	22.0	0.00e+00	0	32	0	540016640	52	5957
2026-01-04 23:11:49.79	93.85	33.72	-39.5	-40.6	21.7	0.00e+00	90	32	0	542113792	52	6151
2026-01-04 23:11:50.80	93.57	33.87	-39.7	-40.8	21.5	0.00e+00	91	32	0	544210944	52	6269
2026-01-04 23:11:51.81	93.28	34.01	-39.8	-40.9	21.3	0.00e+00	0	32	0	545259520	52	6367
2026-01-04 23:11:52.82	92.99	34.16	-40.0	-41.2	21.1	0.00e+00	92	32	0	547356672	52	6598
2026-01-04 23:11:53.83	92.69	34.31	-40.0	-41.2	21.2	0.00e+00	0	32	0	549453824	52	6570
2026-01-04 23:11:54.84	92.39	34.46	-40.0	-41.2	21.0	0.00e+00	91	32	0	551550976	52	6575
2026-01-04 23:11:55.85	92.09	34.61	-39.6	-40.7	21.6	0.00e+00	0	32	0	553648128	52	6236
2026-01-04 23:11:56.86	91.79	34.76	-39.5	-40.6	21.4	0.00e+00	92	32	0	554696704	52	6115
2026-01-04 23:11:57.87	91.48	34.90	-39.4	-40.5	21.6	0.00e+00	0	32	0	556793856	52	6075
2026-01-04 23:11:58.88	91.18	35.05	-39.7	-40.8	21.5	0.00e+00	91	32	0	558891008	52	6276
2026-01-04 23:11:59.89	90.87	35.20	-39.6	-40.7	21.5	0.00e+00	90	32	0	560988160	52	6221
2026-01-04 23:12:00.90	90.55	35.34	-39.6	-40.7	21.6	0.00e+00	0	32	0	563085312	52	6226
2026-01-04 23:12:01.91	90.23	35.49	-39.9	-41.2	21.2	0.00e+00	27	32	0	565182464	52	6542
2026-01-04 23:12:02.92	89.91	35.64	-40.2	-41.4	20.8	0.00e+00	0	32	0	566231040	52	6761
2026-01-04 23:12:03.93	89.59	35.78	-40.2	-41.4	20.9	0.00e+00	92	32	0	568328192	52	6766
2026-01-04 23:12:04.94	89.27	35.93	-39.9	-41.1	21.0	0.00e+00	29	32	0	570425344	52	6516
2026-01-04 23:12:05.95	88.94	36.07	-40.2	-41.4	20.8	0.00e+00	92	32	0	572522496	52	6755
2026-01-04 23:12:06.96	88.61	36.22	-40.7	-42.0	20.4	0.00e+00	92	32	0	574619648	52	7224
2026-01-04 23:12:07.96	88.27	36.36	-41.2	-42.6	20.0	0.00e+00	0	32	0	575668224	54	6891
2026-01-04 23:12:08.97	87.94	36.50	-41.3	-42.8	19.6	0.00e+00	77	32	0	577765376	54	7023
2026-01-04 23:12:09.99	87.59	36.65	-41.2	-42.6	19.7	0.00e+00	0	32	0	579862528	54	6883
2026-01-04 23:12:11.00	87.25	36.79	-41.2	-42.7	19.9	0.00e+00	92	32	0	581959680	54	6960
2026-01-04 23:12:12.00	86.91	36.93	-41.5	-43.0	19.5	0.00e+00	0	32	0	584056832	54	7210
2026-01-04 23:12:13.01	86.56	37.07	-41.8	-43.5	18.8	0.00e+00	92	32	0	585105408	56	6795
2026-01-04 23:12:14.02	86.21	37.21	-41.3	-42.8	19.8	0.00e+00	92	32	0	587202560	56	6274
2026-01-04 23:12:15.04	85.85	37.35	-40.9	-42.2	20.3	0.00e+00	0	32	0	589299712	56	5864
2026-01-04 23:12:16.05	85.49	37.49	-40.4	-41.7	20.6	0.00e+00	64	32	0	591396864	54	6228
2026-01-04 23:12:17.05	85.13	37.63	-40.7	-42.0	20.4	0.00e+00	0	32	0	593494016	54	6462
2026-01-04 23:12:18.06	84.76	37.77	-40.5	-41.8	20.6	0.00e+00	40	32	0	594542592	54	6293
2026-01-04 23:12:19.07	84.40	37.90	-40.1	-41.3	21.0	0.00e+00	0	32	0	596639744	54	5957
2026-01-04 23:12:20.08	84.03	38.04	-39.9	-41.1	21.2	0.00e+00	92	32	0	598736896	54	5783
2026-01-04 23:12:21.09	83.65	38.18	-39.2	-40.3	21.8	0.00e+00	0	32	0	600834048	52	5950
2026-01-04 23:12:22.10	83.27	38.31	-39.1	-40.1	22.0	0.00e+00	0	32	0	602931200	52	5809
2026-01-04 23:12:23.11	82.89	38.44	-39.6	-40.7	21.4	0.00e+00	73	32	0	603979776	52	6203
2026-01-04 23:12:24.12	82.51	38.58	-39.5	-40.7	21.6	0.00e+00	0	32	0	606076928	52	6188
2026-01-04 23:12:25.13	82.12	38.71	-39.6	-40.8	21.5	0.00e+00	89	32	0	608174080	52	6248
2026-01-04 23:12:26.14	81.73	38.84	-39.4	-40.6	21.6	0.00e+00	0	32	0	610271232	52	6145
2026-01-04 23:12:27.15	81.34	38.97	-38.8	-39.8	22.2	0.00e+00	48	32	0	612368384	52	5610
2026-01-04 23:12:28.15	80.95	39.10	-38.6	-39.7	22.3	0.00e+00	30	32	0	613416960	50	6175
2026-01-04 23:12:29.16	80.55	39.22	-38.0	-38.9	23.0	0.00e+00	0	32	0	615514112	50	5652
2026-01-04 23:12:30.17	80.15	39.35	-38.3	-39.3	22.7	0.00e+00	92	32	0	617611264	50	5922
2026-01-04 23:12:31.18	79.74	39.47	-38.3	-39.3	22.6	0.00e+00	0	32	0	619708416	50	5927
2026-01-04 23:12:32.19	79.33	39.60	-38.4	-39.4	22.5	0.00e+00	90	32	0	621805568	50	5989
2026-01-04 23:12:33.20	78.92	39.72	-38.4	-39.4	22.6	0.00e+00	0	32	0	622854144	50	5988
2026-01-04 23:12:34.21	78.51	39.84	-38.2	-39.2	22.8	0.00e+00	91	31	0	624951296	50	5875
2026-01-04 23:12:35.22	78.09	39.96	-37.9	-38.9	23.0	0.00e+00	26	32	0	627048448	50	5644
2026-01-04 23:12:36.23	77.67	40.08	-38.0	-39.0	22.9	0.00e+00	0	32	0	629145600	50	5706
2026-01-04 23:12:37.24	77.24	40.20	-38.1	-39.1	22.8	0.00e+00	92	32	0	631242752	50	5804
2026-01-04 23:12:38.25	76.82	40.32	-38.0	-39.0	22.8	0.00e+00	0	32	0	632291328	50	5703
2026-01-04 23:12:39.26	76.39	40.43	-38.0	-39.0	23.0	0.00e+00	92	32	0	634388480	50	5706
2026-01-04 23:12:40.27	75.95	40.54	-37.9	-38.9	23.0	0.00e+00	4	32	0	636485632	50	5681
2026-01-04 23:12:41.28	75.52	40.65	-38.6	-39.7	22.3	0.00e+00	92	32	0	638582784	50	6219
2026-01-04 23:12:42.29	75.08	40.76	-39.3	-40.5	21.7	0.00e+00	0	32	0	640679936	50	6814
2026-01-04 23:12:43.30	74.64	40.87	-39.3	-40.5	21.7	0.00e+00	92	32	0	641728512	50	6833
2026-01-04 23:12:44.31	74.19	40.98	-38.3	-39.4	22.5	0.00e+00	92	32	0	643825664	50	5985
2026-01-04 23:12:45.32	73.74	41.08	-37.7	-38.7	23.3	0.00e+00	0	32	0	645922816	48	6213
2026-01-04 23:12:46.33	73.29	41.19	-37.2	-38.1	23.5	0.00e+00	92	32	0	648019968	48	5800
2026-01-04 23:12:47.34	72.84	41.29	-36.9	-37.8	23.8	0.00e+00	0	32	0	650117120	48	5581
2026-01-04 23:12:48.35	72.38	41.39	-36.5	-37.4	24.1	0.00e+00	87	32	0	651165696	46	6001
2026-01-04 23:12:49.36	71.92	41.49	-36.0	-36.8	24.6	0.00e+00	0	32	0	653262848	46	5615
2026-01-04 23:12:50.36	71.46	41.58	-36.3	-37.1	24.4	0.00e+00	49	32	0	655360000	46	5773
2026-01-04 23:12:51.37	71.00	41.68	-36.0	-36.8	24.3	0.00e+00	92	32	0	657457152	46	5606
2026-01-04 23:12:52.38	70.53	41.77	-36.0	-36.8	24.6	0.00e+00	0	32	0	659554304	46	5574
2026-01-04 23:12:53.39	70.06	41.86	-36.4	-37.2	24.3	0.00e+00	49	32	0	661651456	46	5887
2026-01-04 23:12:54.40	69.59	41.95	-37.1	-38.0	23.7	0.00e+00	0	32	0	662700032	46	6423
2026-01-04 23:12:55.41	69.11	42.04	-37.6	-38.6	23.2	0.00e+00	92	32	0	664797184	46	6849
2026-01-04 23:12:56.42	68.63	42.12	-38.3	-39.4	22.5	0.00e+00	0	32	0	666894336	48	6699
2026-01-04 23:12:57.44	68.15	42.20	-38.8	-40.0	22.2	0.00e+00	90	32	0	668991488	50	6391
2026-01-04 23:12:58.45	67.66	42.28	-39.1	-40.3	21.9	0.00e+00	30	32	0	671088640	50	6624
2026-01-04 23:12:59.46	67.18	42.36	-38.5	-39.6	22.3	0.00e+00	0	32	0	672137216	50	6131
2026-01-04 23:13:00.47	66.69	42.44	-38.3	-39.3	22.7	0.00e+00	90	32	0	674234368	50	5959
2026-01-04 23:13:01.47	66.20	42.51	-38.8	-39.9	22.3	0.00e+00	0	32	0	676331520	50	6363
2026-01-04 23:13:02.48	65.71	42.58	-39.5	-40.8	21.4	0.00e+00	90	32	0	678428672	50	7009
2026-01-04 23:13:03.49	65.22	42.65	-38.7	-39.8	22.4	0.00e+00	0	32	0	680525824	50	6292
2026-01-04 23:13:04.50	64.72	42.72	-38.0	-38.9	23.0	0.00e+00	91	32	0	681574400	50	5670
2026-01-04 23:13:05.52	64.22	42.78	-37.7	-38.7	23.2	0.00e+00	24	32	0	683671552	48	6188
2026-01-04 23:13:06.53	63.72	42.85	-38.0	-39.1	22.7	0.00e+00	0	32	0	685768704	48	6468
2026-01-04 23:13:07.53	63.22	42.91	-38.5	-39.5	22.8	0.00e+00	50	32	0	687865856	48	6813
2026-01-04 23:13:08.54	62.71	42.96	-38.4	-39.5	22.8	0.00e+00	0	32	0	689963008	48	6773
2026-01-04 23:13:09.55	62.21	43.02	-38.5	-39.6	22.3	0.00e+00	92	32	0	691011584	48	6875
2026-01-04 23:13:10.56	61.70	43.07	-39.6	-40.8	21.6	0.00e+00	0	32	0	693108736	50	7009
2026-01-04 23:13:11.57	61.19	43.12	-39.0	-40.1	22.0	0.00e+00	82	32	0	695205888	50	6505
2026-01-04 23:13:12.58	60.68	43.17	-38.3	-39.2	22.6	0.00e+00	0	32	0	697303040	50	5881
2026-01-04 23:13:13.59	60.17	43.21	-37.5	-38.4	23.3	0.00e+00	0	32	0	699400192	48	5998
2026-01-04 23:13:14.60	59.65	43.26	-38.1	-39.1	22.9	0.00e+00	90	32	0	700448768	48	6466
2026-01-04 23:13:15.61	59.14	43.30	-38.3	-39.2	22.7	0.00e+00	0	32	0	702545920	48	6604
2026-01-04 23:13:16.62	58.62	43.33	-38.5	-39.5	22.4	0.00e+00	92	32	0	704643072	48	6826
2026-01-04 23:13:17.63	58.10	43.37	-38.9	-40.0	22.1	0.00e+00	0	32	0	706740224	48	7171
2026-01-04 23:13:18.64	57.59	43.40	-39.5	-40.7	21.6	0.00e+00	92	32	0	708837376	50	6936
2026-01-04 23:13:19.65	57.07	43.43	-39.4	-40.6	21.8	0.00e+00	0	32	0	709885952	50	6859
2026-01-04 23:13:20.66	56.55	43.46	-39.2	-40.4	21.7	0.00e+00	0	32	0	711983104	50	6704
2026-01-04 23:13:21.67	56.02	43.48	-39.6	-40.8	21.4	0.00e+00	92	32	0	714080256	50	7047
2026-01-04 23:13:22.68	55.50	43.50	-39.9	-41.2	21.2	0.00e+00	0	32	0	716177408	52	6570
2026-01-04 23:13:23.69	54.98	43.52	-39.6	-40.7	21.8	0.00e+00	90	32	0	718274560	52	6226
2026-01-04 23:13:24.70	54.46	43.54	-39.0	-40.1	22.0	0.00e+00	0	32	0	719323136	52	5821
2026-01-04 23:13:25.71	53.93	43.55	-39.4	-40.5	21.6	0.00e+00	92	32	0	721420288	52	6100
2026-01-04 23:13:26.72	53.41	43.57	-40.1	-41.4	20.9	0.00e+00	0	32	0	723517440	52	6704
2026-01-04 23:13:27.73	52.88	43.57	-40.4	-41.8	20.5	0.00e+00	47	32	0	725614592	52	7038
2026-01-04 23:13:28.73	52.36	43.58	-39.7	-40.9	21.3	0.00e+00	31	32	0	727711744	54	5665
2026-01-04 23:13:29.74	51.84	43.58	-38.6	-39.6	22.4	0.00e+00	0	32	0	729808896	52	5471
2026-01-04 23:13:30.75	51.31	43.58	-38.5	-39.4	22.5	0.00e+00	91	32	0	730857472	50	6032
2026-01-04 23:13:31.76	50.79	43.58	-39.0	-40.0	21.9	0.00e+00	0	32	0	732954624	50	6432
2026-01-04 23:13:32.77	50.26	43.58	-39.4	-40.6	21.5	0.00e+00	92	32	0	735051776	50	6853
2026-01-04 23:13:33.78	49.74	43.57	-39.9	-41.1	21.0	0.00e+00	0	32	0	737148928	52	6479
2026-01-04 23:13:34.79	49.21	43.56	-40.1	-41.3	21.0	0.00e+00	59	32	0	739246080	52	6687
2026-01-04 23:13:35.80	48.69	43.54	-40.5	-41.7	21.0	0.00e+00	30	32	0	740294656	54	6241
2026-01-04 23:13:36.81	48.17	43.53	-40.3	-41.6	20.6	0.00e+00	0	32	0	742391808	54	6144
2026-01-04 23:13:37.82	47.64	43.51	-40.7	-42.0	20.3	0.00e+00	27	32	0	744488960	54	6456
2026-01-04 23:13:38.83	47.12	43.49	-40.6	-42.1	19.8	0.00e+00	0	32	0	746586112	54	6474
2026-01-04 23:13:39.84	46.60	43.46	-41.1	-42.6	19.7	0.00e+00	77	32	0	748683264	54	6914
2026-01-04 23:13:40.85	46.08	43.44	-40.8	-42.2	20.0	0.00e+00	0	32	0	749731840	54	6583
2026-01-04 23:13:41.86	45.56	43.41	-40.7	-42.1	20.4	0.00e+00	71	32	0	751828992	54	6475
2026-01-04 23:13:42.86	45.05	43.38	-40.8	-42.2	20.1	0.00e+00	29	32	0	753926144	54	6596
2026-01-04 23:13:43.87	44.53	43.34	-41.1	-42.5	19.9	0.00e+00	0	32	0	756023296	54	6832
2026-01-04 23:13:44.88	44.01	43.31	-40.4	-41.7	20.8	0.00e+00	91	32	0	758120448	54	6229
2026-01-04 23:13:45.89	43.50	43.27	-40.4	-41.7	20.6	0.00e+00	0	32	0	759169024	54	6218
2026-01-04 23:13:46.90	42.98	43.23	-41.1	-42.6	19.7	0.00e+00	92	32	0	761266176	54	6887
2026-01-04 23:13:47.91	42.47	43.18	-41.7	-43.4	19.0	0.00e+00	0	32	0	763363328	54	7522
2026-01-04 23:13:48.92	41.96	43.13	-41.4	-43.0	19.1	0.00e+00	92	32	0	765460480	56	6408
2026-01-04 23:13:49.93	41.45	43.08	-41.5	-43.1	19.4	0.00e+00	9	32	0	767557632	56	6498
2026-01-04 23:13:50.94	40.94	43.03	-41.4	-42.9	19.7	0.00e+00	0	32	0	768606208	56	6384
2026-01-04 23:13:51.95	40.43	42.98	-41.9	-43.6	19.4	0.00e+00	92	32	0	770703360	56	6881
2026-01-04 23:13:52.96	39.93	42.92	-41.2	-42.7	19.7	0.00e+00	0	32	0	772800512	56	6187
2026-01-04 23:13:53.97	39.43	42.86	-41.9	-43.7	18.7	0.00e+00	88	32	0	774897664	56	6974
2026-01-04 23:13:54.97	38.93	42.80	-41.8	-43.7	18.6	0.00e+00	0	32	0	776994816	56	6954
2026-01-04 23:13:55.99	38.43	42.74	-41.9	-43.7	19.0	0.00e+00	88	32	0	778043392	58	6185
2026-01-04 23:13:57.00	37.93	42.67	-39.4	-40.5	21.6	0.00e+00	0	32	0	780140544	54	5432
2026-01-04 23:13:58.01	37.44	42.60	-38.0	-39.0	22.9	0.00e+00	0	32	0	782237696	50	5748
2026-01-04 23:13:59.02	36.95	42.53	-38.0	-39.0	22.8	0.00e+00	92	32	0	784334848	50	5738
2026-01-04 23:14:00.03	36.45	42.46	-38.6	-39.6	22.6	0.00e+00	0	32	0	786432000	50	6107
2026-01-04 23:14:01.04	35.97	42.38	-38.6	-39.6	22.5	0.00e+00	29	32	0	787480576	50	6135
2026-01-04 23:14:02.05	35.48	42.30	-38.3	-39.3	22.7	0.00e+00	0	32	0	789577728	50	5937
2026-01-04 23:14:03.06	35.00	42.22	-37.8	-38.8	23.1	0.00e+00	92	32	0	791674880	48	6262
2026-01-04 23:14:04.06	34.52	42.14	-37.1	-38.0	23.7	0.00e+00	0	32	0	793772032	48	5720
2026-01-04 23:14:05.07	34.04	42.06	-36.9	-37.8	23.7	0.00e+00	36	32	0	795869184	46	6255
2026-01-04 23:14:06.08	33.57	41.97	-37.2	-38.1	23.6	0.00e+00	92	32	0	797966336	46	6527
2026-01-04 23:14:07.09	33.10	41.89	-37.5	-38.5	23.4	0.00e+00	0	32	0	799014912	46	6798
2026-01-04 23:14:08.10	32.62	41.80	-37.4	-38.3	23.3	0.00e+00	0	32	0	801112064	46	6667
2026-01-04 23:14:09.11	32.16	41.70	-36.9	-37.7	24.0	0.00e+00	0	32	0	803209216	46	6234
2026-01-04 23:14:10.12	31.69	41.61	-36.5	-37.3	24.1	0.00e+00	16	32	0	805306368	46	5959
2026-01-04 23:14:11.13	31.23	41.51	-36.5	-37.4	24.1	0.00e+00	0	32	0	807403520	46	5987
2026-01-04 23:14:12.14	30.77	41.42	-37.2	-38.1	23.5	0.00e+00	83	32	0	808452096	46	6505
2026-01-04 23:14:13.15	30.31	41.32	-37.7	-38.6	23.2	0.00e+00	0	32	0	810549248	46	6926
2026-01-04 23:14:14.16	29.86	41.22	-38.0	-39.0	22.9	0.00e+00	27	32	0	812646400	48	6456
2026-01-04 23:14:15.17	29.41	41.11	-38.0	-39.1	22.9	0.00e+00	14	32	0	814743552	48	6466
2026-01-04 23:14:16.18	28.96	41.01	-37.2	-38.2	23.7	0.00e+00	0	32	0	816840704	48	5836
2026-01-04 23:14:17.19	28.51	40.90	-36.3	-37.1	24.3	0.00e+00	88	32	0	817889280	46	5795
2026-01-04 23:14:18.20	28.07	40.80	-35.9	-36.7	24.7	0.00e+00	0	32	0	819986432	46	5532
2026-01-04 23:14:19.21	27.63	40.69	-35.7	-36.5	24.8	0.00e+00	92	32	0	822083584	44	6069
2026-01-04 23:14:20.22	27.20	40.58	-35.2	-36.0	25.0	0.00e+00	79	32	0	824180736	44	5723
2026-01-04 23:14:21.23	26.76	40.46	-35.3	-36.1	25.1	0.00e+00	6	32	0	826277888	44	5773
2026-01-04 23:14:22.24	26.33	40.35	-36.1	-36.9	24.5	0.00e+00	92	32	0	827326464	44	6336
2026-01-04 23:14:23.25	25.91	40.23	-36.5	-37.4	24.1	0.00e+00	0	32	0	829423616	44	6697
2026-01-04 23:14:24.26	25.48	40.12	-36.0	-36.8	24.4	0.00e+00	92	32	0	831520768	44	6281
2026-01-04 23:14:25.27	25.06	40.00	-36.0	-36.8	24.6	0.00e+00	0	32	0	833617920	44	6311
2026-01-04 23:14:26.28	24.64	39.88	-35.9	-36.7	24.7	0.00e+00	92	32	0	835715072	44	6228
2026-01-04 23:14:27.29	24.23	39.76	-35.4	-36.2	24.9	0.00e+00	17	32	0	836763648	44	5842
2026-01-04 23:14:28.30	23.82	39.64	-35.1	-35.9	25.0	0.00e+00	0	32	0	838860800	44	5648
2026-01-04 23:14:29.31	23.41	39.51	-35.3	-36.1	24.9	0.00e+00	59	32	0	840957952	44	5767
2026-01-04 23:14:30.32	23.00	39.39	-36.2	-37.1	24.2	0.00e+00	0	32	0	843055104	44	6473
2026-01-04 23:14:31.33	22.60	39.26	-36.7	-37.6	24.0	0.00e+00	92	32	0	845152256	44	6887
2026-01-04 23:14:32.34	22.20	39.14	-36.0	-36.8	24.6	0.00e+00	0	32	0	846200832	44	6280
2026-01-04 23:14:33.35	21.81	39.01	-35.3	-36.1	24.8	0.00e+00	91	32	0	848297984	44	5821
2026-01-04 23:14:34.36	21.41	38.88	-35.4	-36.2	24.9	0.00e+00	0	32	0	850395136	44	5851
2026-01-04 23:14:35.37	21.02	38.75	-35.7	-36.5	24.7	0.00e+00	0	32	0	852492288	44	6083
2026-01-04 23:14:36.38	20.64	38.62	-35.7	-36.5	24.7	0.00e+00	67	32	0	854589440	44	6042
2026-01-04 23:14:37.39	20.25	38.48	-35.7	-36.5	24.7	0.00e+00	0	32	0	855638016	44	6037
2026-01-04 23:14:38.40	19.87	38.35	-36.2	-37.0	24.3	0.00e+00	77	32	0	857735168	44	6428
2026-01-04 23:14:39.41	19.50	38.22	-37.1	-38.0	23.7	0.00e+00	0	32	0	859832320	46	6441
2026-01-04 23:14:40.42	19.12	38.08	-37.8	-38.8	23.2	0.00e+00	92	32	0	861929472	48	6256
2026-01-04 23:14:41.43	18.75	37.95	-37.6	-38.6	23.4	0.00e+00	0	32	0	864026624	48	6136
2026-01-04 23:14:42.44	18.38	37.81	-37.1	-37.9	23.7	0.00e+00	0	32	0	866123776	48	5694
2026-01-04 23:14:43.45	18.02	37.67	-37.6	-38.6	23.3	0.00e+00	92	32	0	867172352	48	6132
2026-01-04 23:14:44.46	17.66	37.54	-38.2	-39.3	22.5	0.00e+00	0	32	0	869269504	48	6646
2026-01-04 23:14:45.47	17.30	37.40	-38.4	-39.5	22.4	0.00e+00	23	32	0	871366656	48	6784
2026-01-04 23:14:46.48	16.94	37.26	-37.5	-38.4	23.3	0.00e+00	0	32	0	873463808	48	6027
2026-01-04 23:14:47.49	16.59	37.12	-37.2	-38.2	23.5	0.00e+00	92	32	0	875560960	48	5856
2026-01-04 23:14:48.50	16.24	36.98	-38.0	-39.0	22.9	0.00e+00	0	32	0	876609536	48	6438
2026-01-04 23:14:49.51	15.89	36.84	-38.4	-39.5	22.6	0.00e+00	29	32	0	878706688	48	6802
2026-01-04 23:14:50.52	15.55	36.69	-37.8	-38.8	23.1	0.00e+00	90	32	0	880803840	48	6272
2026-01-04 23:14:51.53	15.21	36.55	-37.3	-38.2	23.5	0.00e+00	0	32	0	882900992	48	5879
2026-01-04 23:14:52.54	14.87	36.41	-37.5	-38.4	23.4	0.00e+00	66	32	0	884998144	48	6007
2026-01-04 23:14:53.55	14.54	36.27	-37.5	-38.5	23.3	0.00e+00	0	32	0	886046720	48	6052
2026-01-04 23:14:54.56	14.21	36.12	-37.5	-38.5	23.4	0.00e+00	85	32	0	888143872	48	6036
2026-01-04 23:14:55.57	13.88	35.98	-36.8	-37.6	23.8	0.00e+00	0	32	0	890241024	48	5472
2026-01-04 23:14:56.58	13.55	35.83	-37.0	-37.9	23.8	0.00e+00	92	32	0	892338176	48	5641
2026-01-04 23:14:57.59	13.23	35.69	-37.4	-38.3	23.4	0.00e+00	22	32	0	894435328	48	5898
2026-01-04 23:14:58.60	12.91	35.54	-37.5	-38.4	23.4	0.00e+00	0	32	0	895483904	48	6018
2026-01-04 23:14:59.61	12.60	35.40	-37.0	-37.9	23.7	0.00e+00	23	32	0	897581056	48	5652
2026-01-04 23:15:00.62	12.28	35.25	-37.0	-37.8	23.7	0.00e+00	0	32	0	899678208	48	5596
2026-01-04 23:15:01.63	11.97	35.10	-37.4	-38.3	23.2	0.00e+00	35	32	0	901775360	48	5923
2026-01-04 23:15:02.64	11.66	34.96	-38.1	-39.1	22.7	0.00e+00	0	32	0	903872512	48	6515
2026-01-04 23:15:03.64	11.36	34.81	-39.0	-40.1	22.0	0.00e+00	0	32	0	904921088	50	6496
2026-01-04 23:15:04.65	11.06	34.66	-38.6	-39.6	22.5	0.00e+00	0	32	0	907018240	50	6104
2026-01-04 23:15:05.66	10.76	34.52	-38.3	-39.2	22.7	0.00e+00	0	32	0	909115392	50	5887
2026-01-04 23:15:06.67	10.46	34.37	-37.6	-38.4	23.3	0.00e+00	65	32	0	911212544	48	6029
2026-01-04 23:15:07.68	10.16	34.22	-38.3	-39.2	22.8	0.00e+00	0	32	0	913309696	48	6569
2026-01-04 23:15:08.69	9.87	34.07	-38.7	-39.7	22.3	0.00e+00	92	32	0	914358272	50	6193
2026-01-04 23:15:09.70	9.58	33.93	-39.1	-40.1	22.0	0.00e+00	0	32	0	916455424	50	6519
2026-01-04 23:15:10.71	9.30	33.78	-39.6	-40.7	21.5	0.00e+00	0	32	0	918552576	50	6967
2026-01-04 23:15:11.72	9.01	33.63	-40.3	-41.6	20.8	0.00e+00	9	32	0	920649728	52	6861
2026-01-04 23:15:12.73	8.73	33.48	-41.9	-43.5	19.1	0.00e+00	0	32	0	922746880	56	6843
2026-01-04 23:15:13.74	8.45	33.33	-42.9	-44.8	17.9	0.00e+00	92	32	0	923795456	58	7064
2026-01-04 23:15:14.75	8.18	33.18	-42.1	-43.8	19.0	0.00e+00	0	32	0	925892608	58	6261
2026-01-04 23:15:15.76	7.90	33.04	-40.3	-41.6	20.6	0.00e+00	88	32	0	927989760	54	6142
2026-01-04 23:15:16.77	7.63	32.89	-40.2	-41.5	20.7	0.00e+00	0	32	0	930086912	54	6036
2026-01-04 23:15:17.78	7.36	32.74	-40.4	-41.7	20.6	0.00e+00	0	32	0	932184064	54	6185
2026-01-04 23:15:18.79	7.10	32.59	-41.6	-43.2	19.2	0.00e+00	0	32	0	933232640	54	7420
2026-01-04 23:15:19.80	6.83	32.44	-42.0	-43.7	19.1	0.00e+00	0	32	0	935329792	56	6975
2026-01-04 23:15:20.81	6.57	32.29	-42.0	-43.8	18.9	0.00e+00	92	32	0	937426944	56	7012
2026-01-04 23:15:21.82	6.31	32.15	-41.4	-42.9	19.6	0.00e+00	0	32	0	939524096	56	6369
2026-01-04 23:15:22.82	6.06	32.00	-41.2	-42.6	20.3	0.00e+00	55	32	0	941621248	56	6171
2026-01-04 23:15:23.84	5.80	31.85	-40.4	-41.6	20.5	0.00e+00	0	32	0	943718400	54	6167
2026-01-04 23:15:24.84	5.55	31.70	-40.3	-41.5	20.6	0.00e+00	0	32	0	944766976	54	6099
2026-01-04 23:15:25.85	5.31	31.55	-39.9	-41.1	21.2	0.00e+00	0	32	0	946864128	54	5774
2026-01-04 23:15:26.86	5.06	31.41	-39.8	-40.9	21.5	0.00e+00	0	32	0	948961280	52	6326
2026-01-04 23:15:27.87	4.81	31.26	-39.9	-41.0	21.1	0.00e+00	47	32	0	951058432	52	6460
2026-01-04 23:15:28.88	4.57	31.11	-40.3	-41.4	20.8	0.00e+00	0	32	0	953155584	52	6766
2026-01-04 23:15:29.89	4.33	30.96	-40.6	-41.9	20.4	0.00e+00	73	32	0	954204160	54	6352
2026-01-04 23:15:30.90	4.09	30.82	-40.4	-41.6	20.8	0.00e+00	0	32	0	956301312	54	6108
2026-01-04 23:15:31.91	3.86	30.67	-39.7	-40.8	21.5	0.00e+00	0	32	0	958398464	52	6305
2026-01-04 23:15:32.92	3.62	30.52	-39.5	-40.5	21.4	0.00e+00	0	32	0	960495616	52	6091
2026-01-04 23:15:33.93	3.39	30.38	-39.1	-40.1	22.0	0.00e+00	0	32	0	962592768	52	5825
2026-01-04 23:15:34.94	3.16	30.23	-39.5	-40.6	21.5	0.00e+00	25	32	0	963641344	52	6170
2026-01-04 23:15:35.95	2.93	30.08	-39.9	-41.1	21.4	0.00e+00	0	32	0	965738496	52	6524
2026-01-04 23:15:36.97	2.71	29.94	-40.6	-41.9	20.5	0.00e+00	92	32	0	967835648	52	7093
2026-01-04 23:15:37.97	2.48	29.79	-40.6	-41.9	20.5	0.00e+00	0	32	0	969932800	52	7094
2026-01-04 23:15:38.98	2.26	29.65	-40.2	-41.4	20.9	0.00e+00	0	32	0	972029952	52	6723
2026-01-04 23:15:39.99	2.04	29.50	-39.9	-41.0	21.5	0.00e+00	0	32	0	973078528	52	6435
2026-01-04 23:15:41.00	1.83	29.36	-39.4	-40.5	22.0	0.00e+00	0	32	0	975175680	52	6090
2026-01-04 23:15:42.01	1.61	29.21	-38.8	-39.8	22.3	0.00e+00	39	32	0	977272832	52	5627
2026-01-04 23:15:43.02	1.40	29.07	-38.9	-39.9	22.2	0.00e+00	0	32	0	979369984	50	6378
2026-01-04 23:15:44.03	1.19	28.93	-39.5	-40.6	21.5	0.00e+00	23	32	0	981467136	50	6874
2026-01-04 23:15:45.04	0.98	28.78	-39.0	-40.1	22.0	0.00e+00	0	32	0	982515712	50	6474
2026-01-04 23:15:46.05	0.77	28.64	-39.0	-40.1	21.9	0.00e+00	92	32	0	984612864	50	6499
2026-01-04 23:15:47.06	0.56	28.50	-39.2	-40.3	21.7	0.00e+00	0	32	0	986710016	50	6626
2026-01-04 23:15:48.07	0.36	28.35	-39.4	-40.6	21.3	0.00e+00	0	32	0	988807168	50	6875
2026-01-04 23:15:49.08	0.16	28.21	-39.1	-40.2	21.9	0.00e+00	0	32	0	990904320	50	6567
2026-01-04 23:15:50.09	359.96	28.07	-39.6	-40.7	21.5	0.00e+00	0	32	0	991952896	50	6988
2026-01-04 23:15:51.10	359.76	27.93	-39.5	-40.6	21.3	0.00e+00	47	32	0	994050048	50	6901
2026-01-04 23:15:52.11	359.56	27.78	-39.7	-40.9	21.0	0.00e+00	0	32	0	996147200	52	6332
2026-01-04 23:15:53.12	359.37	27.64	-40.1	-41.3	21.2	0.00e+00	90	32	0	998244352	52	6627
2026-01-04 23:15:54.13	359.17	27.50	-39.2	-40.3	21.8	0.00e+00	0	32	0	1000341504	52	5959
2026-01-04 23:15:55.14	358.98	27.36	-39.2	-40.3	21.6	0.00e+00	0	32	0	1001390080	52	5962
2026-01-04 23:15:56.15	358.79	27.22	-38.9	-40.0	22.2	0.00e+00	0	32	0	1003487232	52	5729
2026-01-04 23:15:57.16	358.61	27.08	-38.6	-39.7	22.3	0.00e+00	0	32	0	1005584384	50	6184
2026-01-04 23:15:58.16	358.42	26.95	-38.5	-39.5	22.5	0.00e+00	11	32	0	1007681536	50	6038
2026-01-04 23:15:59.17	358.24	26.81	-38.4	-39.3	22.6	0.00e+00	0	32	0	1009778688	50	5964
2026-01-04 23:16:00.18	358.05	26.67	-37.7	-38.7	23.0	0.00e+00	74	32	0	1011875840	48	6187
2026-01-04 23:16:01.19	357.87	26.53	-38.4	-39.3	22.6	0.00e+00	23	32	0	1012924416	48	6685
2026-01-04 23:16:02.20	357.69	26.39	-38.5	-39.5	22.3	0.00e+00	0	32	0	1015021568	48	6803
2026-01-04 23:16:03.21	357.51	26.26	-38.9	-40.0	22.0	0.00e+00	0	32	0	1017118720	50	6422
2026-01-04 23:16:04.22	357.34	26.12	-39.5	-40.7	21.4	0.00e+00	0	32	0	1019215872	50	6946
2026-01-04 23:16:05.23	357.16	25.98	-40.0	-41.3	20.8	0.00e+00	79	32	0	1021313024	52	6655
2026-01-04 23:16:06.24	356.99	25.85	-39.4	-40.5	21.5	0.00e+00	0	32	0	1022361600	52	6082
2026-01-04 23:16:07.25	356.82	25.71	-39.3	-40.5	21.7	0.00e+00	92	32	0	1024458752	52	6053
2026-01-04 23:16:08.26	356.64	25.57	-39.0	-40.0	22.0	0.00e+00	0	32	0	1026555904	52	5760
2026-01-04 23:16:09.27	356.48	25.44	-38.2	-39.2	22.6	0.00e+00	1	32	0	1028653056	50	5885
2026-01-04 23:16:10.28	356.31	25.31	-38.1	-39.1	23.1	0.00e+00	0	32	0	1030750208	50	5812
2026-01-04 23:16:11.29	356.14	25.17	-37.6	-38.5	23.1	0.00e+00	0	32	0	1031798784	48	6068
2026-01-04 23:16:12.30	355.98	25.04	-37.8	-38.8	23.1	0.00e+00	25	32	0	1033895936	48	6259
2026-01-04 23:16:13.31	355.81	24.90	-37.7	-38.6	23.1	0.00e+00	0	32	0	1035993088	48	6155
2026-01-04 23:16:14.32	355.65	24.77	-38.3	-39.2	22.6	0.00e+00	92	32	0	1038090240	48	6615
2026-01-04 23:16:15.33	355.49	24.64	-38.5	-39.5	22.4	0.00e+00	0	32	0	1040187392	48	6799
2026-01-04 23:16:16.34	355.33	24.51	-39.0	-40.1	22.0	0.00e+00	92	32	0	1041235968	50	6496
2026-01-04 23:16:17.35	355.17	24.38	-38.9	-39.9	22.1	0.00e+00	0	32	0	1043333120	50	6363
2026-01-04 23:16:18.36	355.02	24.24	-39.0	-40.1	21.9	0.00e+00	0	32	0	1045430272	50	6478
2026-01-04 23:16:19.37	354.86	24.11	-38.9	-40.0	22.0	0.00e+00	25	32	0	1047527424	50	6425
2026-01-04 23:16:20.38	354.71	23.98	-39.0	-40.1	22.0	0.00e+00	0	32	0	1049624576	50	6468
2026-01-04 23:16:21.39	354.55	23.85	-39.3	-40.5	21.4	0.00e+00	92	32	0	1050673152	50	6812
2026-01-04 23:16:22.39	354.40	23.73	-39.6	-40.8	21.4	0.00e+00	0	32	0	1052770304	50	7012
2026-01-04 23:16:23.40	354.25	23.60	-40.1	-41.4	20.8	0.00e+00	47	32	0	1054867456	52	6757
2026-01-04 23:16:24.42	354.10	23.47	-40.2	-41.5	20.7	0.00e+00	0	32	0	1056964608	52	6839
2026-01-04 23:16:25.42	353.96	23.34	-40.6	-41.9	20.2	0.00e+00	0	32	0	1059061760	52	7124
2026-01-04 23:16:26.44	353.81	23.21	-40.4	-41.7	20.5	0.00e+00	0	32	0	1060110336	52	6964
2026-01-04 23:16:27.45	353.67	23.08	-40.4	-41.7	20.5	0.00e+00	0	32	0	1062207488	52	6950
2026-01-04 23:16:28.46	353.52	22.96	-40.1	-41.3	20.9	0.00e+00	90	32	0	1064304640	52	6659
2026-01-04 23:16:29.47	353.38	22.83	-39.5	-40.6	21.5	0.00e+00	0	32	0	1066401792	52	6137
2026-01-04 23:16:30.48	353.24	22.70	-39.0	-40.1	21.9	0.00e+00	92	32	0	1068498944	52	5776
2026-01-04 23:16:31.49	353.10	22.58	-38.8	-39.8	22.0	0.00e+00	0	32	0	1069547520	52	5606
2026-01-04 23:16:32.50	352.96	22.45	-38.5	-39.5	22.4	0.00e+00	0	32	0	1071644672	50	6075
2026-01-04 23:16:33.51	352.82	22.33	-38.1	-39.0	22.7	0.00e+00	0	32	0	1073741824	50	5753
2026-01-04 23:16:34.52	352.68	22.20	-38.0	-39.0	22.9	0.00e+00	0	32	0	1075838976	50	5718
2026-01-04 23:16:35.53	352.55	22.08	-37.9	-38.9	22.9	0.00e+00	20	32	0	1077936128	50	5670
2026-01-04 23:16:36.54	352.41	21.96	-38.1	-39.0	22.8	0.00e+00	0	32	0	1080033280	50	5760
2026-01-04 23:16:37.55	352.28	21.83	-38.0	-39.0	22.8	0.00e+00	66	32	0	1081081856	50	5718
2026-01-04 23:16:38.56	352.15	21.71	-38.2	-39.2	22.6	0.00e+00	0	32	0	1083179008	50	5852
2026-01-04 23:16:39.57	352.01	21.59	-38.4	-39.5	22.6	0.00e+00	0	32	0	1085276160	50	6035
2026-01-04 23:16:40.58	351.88	21.47	-38.2	-39.3	22.4	0.00e+00	0	32	0	1087373312	50	5900
2026-01-04 23:16:41.59	351.75	21.35	-38.5	-39.5	22.3	0.00e+00	0	32	0	1089470464	50	6086
2026-01-04 23:16:42.60	351.63	21.22	-38.8	-39.9	21.9	0.00e+00	18	32	0	1090519040	50	6347
2026-01-04 23:16:43.61	351.50	21.10	-38.6	-39.7	22.2	0.00e+00	0	32	0	1092616192	50	6183
2026-01-04 23:16:44.62	351.37	20.98	-38.8	-39.9	22.2	0.00e+00	90	32	0	1094713344	50	6328
2026-01-04 23:16:45.63	351.25	20.86	-38.8	-39.8	22.1	0.00e+00	0	32	0	1096810496	50	6316
2026-01-04 23:16:46.64	351.12	20.75	-38.6	-39.7	22.3	0.00e+00	0	32	0	1098907648	50	6190
2026-01-04 23:16:47.65	351.00	20.63	-38.1	-39.1	22.5	0.00e+00	0	32	0	1099956224	50	5796
2026-01-04 23:16:48.66	350.88	20.51	-38.1	-39.1	22.8	0.00e+00	0	32	0	1102053376	50	5775
2026-01-04 23:16:49.67	350.76	20.39	-38.2	-39.2	22.6	0.00e+00	39	32	0	1104150528	50	5835
2026-01-04 23:16:50.68	350.64	20.27	-38.2	-39.3	22.5	0.00e+00	0	32	0	1106247680	50	5897
2026-01-04 23:16:51.69	350.52	20.16	-38.5	-39.5	22.4	0.00e+00	85	32	0	1108344832	50	6053
2026-01-04 23:16:52.70	350.40	20.04	-38.8	-39.9	22.0	0.00e+00	0	32	0	1109393408	50	6362
2026-01-04 23:16:53.71	350.28	19.92	-39.2	-40.3	21.5	0.00e+00	49	32	0	1111490560	50	6672
2026-01-04 23:16:54.72	350.16	19.81	-39.7	-40.9	21.1	0.00e+00	0	32	0	1113587712	50	7112
2026-01-04 23:16:55.73	350.05	19.69	-40.1	-41.4	20.7	0.00e+00	0	32	0	1115684864	52	6737
2026-01-04 23:16:56.74	349.93	19.58	-40.7	-42.1	20.0	0.00e+00	14	32	0	1117782016	52	7325
2026-01-04 23:16:57.75	349.82	19.46	-40.7	-42.1	20.1	0.00e+00	0	32	0	1118830592	54	6516
2026-01-04 23:16:58.76	349.71	19.35	-40.8	-42.2	19.9	0.00e+00	90	32	0	1120927744	54	6562
2026-01-04 23:16:59.76	349.59	19.23	-40.6	-42.0	20.2	0.00e+00	0	32	0	1123024896	54	6451
2026-01-04 23:17:00.77	349.48	19.12	-40.4	-41.8	20.3	0.00e+00	90	32	0	1125122048	54	6267
2026-01-04 23:17:01.78	349.37	19.01	-40.2	-41.5	20.6	0.00e+00	0	32	0	1127219200	54	6041
2026-01-04 23:17:02.79	349.26	18.89	-39.9	-41.2	20.9	0.00e+00	0	32	0	1128267776	54	5860
2026-01-04 23:17:03.80	349.15	18.78	-39.8	-41.1	21.0	0.00e+00	0	32	0	1130364928	54	5790
2026-01-04 23:17:04.81	349.05	18.67	-39.5	-40.7	21.3	0.00e+00	0	32	0	1132462080	52	6203
2026-01-04 23:17:05.82	348.94	18.56	-39.3	-40.5	21.5	0.00e+00	91	32	0	1134559232	52	6076
2026-01-04 23:17:06.83	348.83	18.45	-39.3	-40.5	21.5	0.00e+00	0	32	0	1136656384	52	6052
2026-01-04 23:17:07.84	348.73	18.34	-39.1	-40.2	21.7	0.00e+00	92	32	0	1137704960	52	5889
2026-01-04 23:17:08.85	348.62	18.23	-39.0	-40.1	21.9	0.00e+00	0	32	0	1139802112	52	5809
2026-01-04 23:17:09.86	348.52	18.12	-38.8	-39.9	22.0	0.00e+00	0	32	0	1141899264	50	6328
2026-01-04 23:17:10.87	348.41	18.01	-38.7	-39.7	22.0	0.00e+00	0	32	0	1143996416	50	6227
2026-01-04 23:17:11.88	348.31	17.90	-38.6	-39.6	22.1	0.00e+00	0	32	0	1146093568	50	6145
2026-01-04 23:17:12.89	348.21	17.79	-38.6	-39.6	22.1	0.00e+00	75	32	0	1148190720	50	6152
2026-01-04 23:17:13.90	348.11	17.68	-38.5	-39.6	22.1	0.00e+00	0	32	0	1149239296	50	6119
2026-01-04 23:17:14.91	348.01	17.57	-38.5	-39.5	22.1	0.00e+00	92	32	0	1151336448	50	6075
2026-01-04 23:17:15.91	347.91	17.47	-38.6	-39.6	22.1	0.00e+00	0	32	0	1153433600	50	6165
2026-01-04 23:17:16.92	347.81	17.36	-38.6	-39.6	22.2	0.00e+00	0	32	0	1155530752	50	6169
2026-01-04 23:17:17.93	347.71	17.25	-38.7	-39.7	22.1	0.00e+00	0	32	0	1157627904	50	6236
2026-01-04 23:17:18.94	347.62	17.15	-38.7	-39.8	21.8	0.00e+00	0	32	0	1158676480	50	6276
2026-01-04 23:17:19.95	347.52	17.04	-38.7	-39.8	22.0	0.00e+00	21	32	0	1160773632	50	6253
2026-01-04 23:17:20.96	347.42	16.94	-39.1	-40.2	21.6	0.00e+00	0	32	0	1162870784	50	6591
2026-01-04 23:17:21.97	347.33	16.83	-39.0	-40.1	21.7	0.00e+00	58	32	0	1164967936	50	6520
2026-01-04 23:17:22.98	347.23	16.72	-38.9	-40.0	21.8	0.00e+00	0	32	0	1167065088	50	6446
2026-01-04 23:17:23.99	347.14	16.62	-39.1	-40.2	21.7	0.00e+00	0	32	0	1168113664	50	6571
2026-01-04 23:17:25.00	347.05	16.52	-39.0	-40.1	21.7	0.00e+00	0	32	0	1170210816	50	6495
2026-01-04 23:17:26.01	346.95	16.41	-38.9	-40.0	21.8	0.00e+00	0	32	0	1172307968	50	6409
2026-01-04 23:17:27.02	346.86	16.31	-39.1	-40.2	21.6	0.00e+00	22	32	0	1174405120	50	6595
2026-01-04 23:17:28.03	346.77	16.21	-39.3	-40.4	21.6	0.00e+00	0	32	0	1176502272	50	6759
2026-01-04 23:17:29.04	346.68	16.10	-39.0	-40.1	21.7	0.00e+00	92	32	0	1177550848	50	6532
2026-01-04 23:17:30.05	346.59	16.00	-39.0	-40.1	21.8	0.00e+00	0	32	0	1179648000	50	6500
2026-01-04 23:17:31.06	346.50	15.90	-39.2	-40.3	21.6	0.00e+00	57	32	0	1181745152	50	6692
2026-01-04 23:17:32.07	346.41	15.80	-39.0	-40.2	21.6	0.00e+00	0	32	0	1183842304	50	6550
2026-01-04 23:17:33.08	346.32	15.70	-39.3	-40.4	21.5	0.00e+00	0	32	0	1185939456	50	6742
2026-01-04 23:17:34.09	346.24	15.59	-39.6	-40.8	21.1	0.00e+00	16	32	0	1186988032	50	7075
2026-01-04 23:17:35.10	346.15	15.49	-39.8	-41.1	20.9	0.00e+00	0	32	0	1189085184	52	6492
2026-01-04 23:17:36.11	346.06	15.39	-40.0	-41.2	20.7	0.00e+00	0	32	0	1191182336	52	6604
