passes_logs/2026/01/04/R4.6S_Anadyr/R4.6S_Anadyr__20260104_155124_FENGYUN_3D_rec.log

#Pass ID: 20260104_155124_FENGYUN 3D
#Satellite: FENGYUN 3D
#Configuration: FENGYUN 3D
#almurnet v.1.7.20251203
#Start time: 2026-01-04 15:51:26

#Version: 2.2.20231116
#Station: R4.6S_Anadyr
#Location: 177.4865 lon 64.73178 lat
#TLE: 1 43010U 17072A   26003.51579816  .00000092  00000+0  65324-4 0  9992
#TLE: 2 43010  98.9912 335.1548 0001916 128.4619 231.6729 14.19692074421623

#Time	Az	El	Level	Level2	SNR	BER	BlckErr	Temp	State	Recorded	gain1	gain2
2026-01-04 15:51:26.10	19.69	0.12	-49.3	-64.2	3.6	1.51e+00	0	37	0	0	60	58707
2026-01-04 15:51:27.11	19.72	0.18	-49.5	-61.6	3.6	8.45e-01	0	39	104	0	60	43389
2026-01-04 15:51:28.12	19.75	0.24	-49.3	-61.4	3.6	8.45e-01	0	39	104	0	60	42711
2026-01-04 15:51:29.13	19.79	0.30	-49.2	-61.3	3.6	8.44e-01	0	39	104	0	60	42145
2026-01-04 15:51:30.14	19.82	0.36	-49.2	-61.3	3.5	8.46e-01	0	39	104	0	60	42086
2026-01-04 15:51:31.15	19.85	0.41	-49.2	-61.3	3.6	8.46e-01	0	39	104	0	60	41944
2026-01-04 15:51:32.16	19.89	0.47	-49.2	-61.3	3.6	8.45e-01	0	39	104	0	60	41864
2026-01-04 15:51:33.17	19.92	0.53	-49.2	-61.3	3.6	8.45e-01	0	39	104	0	60	41947
2026-01-04 15:51:34.18	19.95	0.59	-49.1	-61.2	3.5	8.46e-01	0	39	104	0	60	41594
2026-01-04 15:51:35.19	19.99	0.65	-49.0	-61.1	3.6	8.45e-01	0	39	104	0	60	40975
2026-01-04 15:51:36.20	20.02	0.71	-48.9	-61.0	3.6	8.45e-01	0	39	104	0	60	40534
2026-01-04 15:51:37.21	20.05	0.77	-48.8	-60.9	3.6	8.46e-01	0	39	104	0	60	40039
2026-01-04 15:51:38.22	20.09	0.83	-48.6	-60.8	3.6	8.45e-01	0	39	104	0	60	39604
2026-01-04 15:51:39.23	20.12	0.89	-48.6	-60.7	3.6	8.44e-01	0	39	104	0	60	39138
2026-01-04 15:51:40.24	20.16	0.95	-48.3	-60.4	3.6	8.45e-01	0	39	104	0	60	38016
2026-01-04 15:51:41.25	20.19	1.01	-48.0	-60.2	3.6	8.45e-01	0	39	104	0	60	37033
2026-01-04 15:51:42.26	20.22	1.07	-47.8	-59.9	3.6	8.45e-01	0	39	104	0	60	35624
2026-01-04 15:51:43.27	20.26	1.13	-47.8	-59.9	3.6	8.44e-01	0	39	104	0	60	35569
2026-01-04 15:51:44.28	20.29	1.19	-47.8	-59.9	3.6	8.45e-01	0	39	104	0	60	35595
2026-01-04 15:51:45.29	20.33	1.25	-47.8	-59.9	3.6	8.45e-01	0	39	104	0	60	35709
2026-01-04 15:51:46.30	20.36	1.31	-47.8	-59.9	3.6	8.47e-01	0	39	104	0	60	35696
2026-01-04 15:51:47.31	20.40	1.37	-47.8	-59.8	3.5	8.44e-01	0	39	104	0	60	35377
2026-01-04 15:51:48.32	20.43	1.43	-47.8	-59.7	3.6	8.43e-01	0	39	104	0	60	35049
2026-01-04 15:51:49.33	20.47	1.50	-47.7	-59.7	3.6	8.45e-01	0	39	104	0	60	34833
2026-01-04 15:51:50.34	20.50	1.56	-47.7	-59.6	3.6	8.46e-01	0	39	104	0	60	34598
2026-01-04 15:51:51.35	20.54	1.62	-47.7	-59.7	3.6	8.46e-01	0	39	104	0	60	34778
2026-01-04 15:51:52.36	20.57	1.68	-47.7	-59.6	3.6	8.45e-01	0	39	104	0	60	34656
2026-01-04 15:51:53.37	20.61	1.74	-47.7	-59.7	3.6	8.44e-01	0	39	104	0	60	35048
2026-01-04 15:51:54.38	20.65	1.80	-47.7	-59.7	3.6	8.45e-01	0	39	104	0	60	35026
2026-01-04 15:51:55.39	20.68	1.86	-47.8	-59.8	3.6	8.45e-01	0	39	104	0	60	35141
2026-01-04 15:51:56.40	20.72	1.93	-47.8	-59.8	3.6	8.45e-01	0	39	104	0	60	35225
2026-01-04 15:51:57.41	20.75	1.99	-47.8	-59.8	3.6	8.46e-01	0	39	104	0	60	35230
2026-01-04 15:51:58.42	20.79	2.05	-47.7	-59.8	3.6	8.45e-01	0	39	104	0	60	35227
2026-01-04 15:51:59.43	20.83	2.11	-47.8	-59.8	3.6	8.45e-01	0	39	104	0	60	35320
2026-01-04 15:52:00.44	20.86	2.18	-47.8	-59.8	3.6	8.45e-01	0	39	104	0	60	35463
2026-01-04 15:52:01.45	20.90	2.24	-47.8	-59.7	3.6	8.46e-01	0	39	104	0	60	35108
2026-01-04 15:52:02.46	20.94	2.30	-47.7	-59.3	3.6	8.47e-01	0	39	104	0	60	33452
2026-01-04 15:52:03.47	20.97	2.36	-47.6	-58.5	3.6	8.45e-01	0	39	104	0	60	30396
2026-01-04 15:52:04.48	21.01	2.43	-47.6	-57.8	3.6	8.44e-01	0	39	104	0	60	28148
2026-01-04 15:52:05.48	21.05	2.49	-47.5	-56.9	3.8	8.43e-01	0	39	104	0	60	25418
2026-01-04 15:52:06.49	21.09	2.55	-47.5	-56.9	3.8	8.43e-01	0	39	104	0	60	25402
2026-01-04 15:52:07.50	21.12	2.62	-47.6	-58.0	3.6	8.45e-01	0	39	104	0	60	28630
2026-01-04 15:52:08.51	21.16	2.68	-47.6	-58.7	3.6	8.46e-01	0	39	104	0	60	31047
2026-01-04 15:52:09.52	21.20	2.74	-47.3	-56.0	4.2	8.42e-01	0	39	104	0	60	22813
2026-01-04 15:52:10.53	21.24	2.81	-46.6	-51.5	6.7	4.29e-01	0	39	0	2097152	60	13597
2026-01-04 15:52:11.54	21.28	2.87	-45.0	-48.1	10.5	8.80e-03	0	39	0	8388608	60	9171
2026-01-04 15:52:12.55	21.31	2.93	-43.1	-45.1	13.6	4.69e-05	0	39	0	13631488	60	6531
2026-01-04 15:52:13.56	21.35	3.00	-41.0	-42.4	16.7	0.00e+00	0	39	0	18874368	56	6011
2026-01-04 15:52:14.57	21.39	3.06	-39.3	-40.4	18.4	0.00e+00	0	39	0	25165824	52	5977
2026-01-04 15:52:15.58	21.43	3.13	-38.2	-39.2	19.6	0.00e+00	0	39	0	30408704	50	5829
2026-01-04 15:52:16.59	21.47	3.19	-36.8	-37.7	21.0	0.00e+00	0	39	0	36700160	46	6201
2026-01-04 15:52:17.60	21.51	3.26	-37.0	-38.0	20.6	0.00e+00	0	39	0	41943040	48	5697
2026-01-04 15:52:18.61	21.55	3.32	-37.2	-38.1	20.6	0.00e+00	0	39	0	48234496	48	5823
2026-01-04 15:52:19.63	21.59	3.39	-37.0	-37.9	20.9	0.00e+00	0	39	0	53477376	46	6330
2026-01-04 15:52:20.64	21.63	3.45	-37.6	-38.5	20.3	0.00e+00	0	39	0	58720256	46	6807
2026-01-04 15:52:21.65	21.67	3.52	-38.9	-40.0	18.8	0.00e+00	0	39	0	65011712	48	7226
2026-01-04 15:52:22.66	21.70	3.58	-40.1	-41.3	17.5	0.00e+00	0	39	0	70254592	52	6650
2026-01-04 15:52:23.67	21.74	3.65	-41.5	-43.1	15.3	0.00e+00	0	39	0	76546048	54	7297
2026-01-04 15:52:24.68	21.78	3.71	-36.9	-37.7	21.1	0.00e+00	0	39	0	81788928	48	5543
2026-01-04 15:52:25.69	21.83	3.78	-42.5	-44.5	12.3	0.00e+00	0	39	0	88080384	52	9569
2026-01-04 15:52:26.70	21.87	3.85	-42.5	-44.4	13.2	1.64e-03	0	39	0	92274688	56	7522
2026-01-04 15:52:27.71	21.91	3.91	-41.5	-42.9	16.6	2.80e-01	0	39	0	96468992	60	5029
2026-01-04 15:52:28.72	21.95	3.98	-46.7	-52.5	3.4	6.90e-03	0	39	0	101711872	58	17024
2026-01-04 15:52:29.73	21.99	4.05	-42.1	-43.8	16.8	7.80e-01	0	40	104	101711872	60	5578
2026-01-04 15:52:30.74	22.03	4.11	-38.8	-39.9	19.3	0.00e+00	0	39	0	105906176	50	6319
2026-01-04 15:52:31.75	22.07	4.18	-38.4	-39.4	19.3	0.00e+00	0	39	0	112197632	50	5985
2026-01-04 15:52:32.76	22.11	4.25	-38.5	-39.5	19.9	0.00e+00	0	39	0	117440512	50	6076
2026-01-04 15:52:33.77	22.15	4.31	-38.4	-39.4	19.8	0.00e+00	0	39	0	123731968	50	5981
2026-01-04 15:52:34.78	22.19	4.38	-37.9	-38.8	20.2	0.00e+00	0	39	0	128974848	50	5614
2026-01-04 15:52:35.79	22.24	4.45	-37.9	-38.8	20.3	0.00e+00	0	39	0	135266304	48	6277
2026-01-04 15:52:36.80	22.28	4.52	-37.5	-38.5	20.6	0.00e+00	0	39	0	140509184	48	6034
2026-01-04 15:52:37.81	22.32	4.58	-37.5	-38.4	20.7	0.00e+00	0	39	0	145752064	48	5976
2026-01-04 15:52:38.82	22.36	4.65	-36.5	-37.4	21.7	0.00e+00	0	39	0	152043520	46	5966
2026-01-04 15:52:39.82	22.41	4.72	-36.3	-37.2	21.7	0.00e+00	0	39	0	157286400	46	5840
2026-01-04 15:52:40.83	22.45	4.79	-36.7	-37.6	21.6	0.00e+00	0	39	0	163577856	46	6107
2026-01-04 15:52:41.84	22.49	4.86	-36.4	-37.2	21.7	0.00e+00	0	39	0	168820736	46	5878
2026-01-04 15:52:42.86	22.54	4.92	-36.2	-37.0	21.9	0.00e+00	0	39	0	174063616	46	5716
2026-01-04 15:52:43.86	22.58	4.99	-36.3	-37.1	22.4	0.00e+00	0	39	0	180355072	46	5790
2026-01-04 15:52:44.88	22.62	5.06	-35.6	-36.4	22.4	0.00e+00	0	39	0	185597952	44	6021
2026-01-04 15:52:45.88	22.67	5.13	-36.2	-37.0	22.4	0.00e+00	0	39	0	191889408	46	5741
2026-01-04 15:52:46.90	22.71	5.20	-35.7	-36.5	22.8	0.00e+00	0	40	0	197132288	44	6053
2026-01-04 15:52:47.91	22.75	5.27	-35.4	-36.2	22.8	0.00e+00	0	40	0	202375168	44	5858
2026-01-04 15:52:48.92	22.80	5.34	-35.4	-36.2	22.8	0.00e+00	0	39	0	208666624	44	5843
2026-01-04 15:52:49.93	22.84	5.41	-35.7	-36.4	22.6	0.00e+00	0	40	0	213909504	44	6028
2026-01-04 15:52:50.94	22.89	5.48	-35.1	-35.8	23.2	0.00e+00	0	39	0	220200960	44	5619
2026-01-04 15:52:51.95	22.93	5.55	-35.3	-36.1	23.0	0.00e+00	0	40	0	225443840	44	5772
2026-01-04 15:52:52.96	22.98	5.62	-35.6	-36.4	22.6	0.00e+00	0	39	0	231735296	44	5990
2026-01-04 15:52:53.97	23.02	5.69	-35.2	-35.9	23.0	0.00e+00	0	39	0	236978176	44	5695
2026-01-04 15:52:54.98	23.07	5.76	-35.6	-36.4	22.7	0.00e+00	0	39	0	243269632	44	6005
2026-01-04 15:52:55.98	23.11	5.83	-35.2	-36.0	23.1	0.00e+00	0	39	0	248512512	44	5721
2026-01-04 15:52:56.99	23.16	5.90	-35.3	-36.1	23.0	0.00e+00	0	40	0	253755392	44	5784
2026-01-04 15:52:58.00	23.20	5.97	-35.4	-36.2	22.9	0.00e+00	0	39	0	260046848	44	5840
2026-01-04 15:52:59.01	23.25	6.04	-35.2	-36.0	23.2	0.00e+00	0	39	0	265289728	44	5698
2026-01-04 15:53:00.03	23.30	6.12	-35.1	-35.9	23.2	0.00e+00	0	39	0	271581184	44	5651
2026-01-04 15:53:01.04	23.34	6.19	-35.1	-35.9	23.1	0.00e+00	0	39	0	276824064	44	5646
2026-01-04 15:53:02.05	23.39	6.26	-35.1	-35.9	23.2	0.00e+00	0	39	0	282066944	44	5637
2026-01-04 15:53:03.06	23.44	6.33	-35.0	-35.7	23.3	0.00e+00	0	39	0	288358400	44	5544
2026-01-04 15:53:04.06	23.48	6.40	-35.0	-35.8	23.3	0.00e+00	0	39	0	293601280	44	5590
2026-01-04 15:53:05.07	23.53	6.48	-35.0	-35.7	23.4	0.00e+00	0	39	0	299892736	44	5518
2026-01-04 15:53:06.08	23.58	6.55	-34.9	-35.7	23.4	0.00e+00	0	40	0	305135616	44	5520
2026-01-04 15:53:07.09	23.63	6.62	-35.1	-35.8	23.1	0.00e+00	0	39	0	310378496	44	5623
2026-01-04 15:53:08.10	23.68	6.69	-35.2	-35.9	23.3	0.00e+00	0	40	0	316669952	44	5695
2026-01-04 15:53:09.11	23.72	6.77	-35.2	-36.0	23.4	0.00e+00	0	40	0	321912832	44	5734
2026-01-04 15:53:10.12	23.77	6.84	-35.4	-36.1	23.0	0.00e+00	0	40	0	328204288	44	5820
2026-01-04 15:53:11.13	23.82	6.92	-35.1	-35.9	23.4	0.00e+00	0	40	0	333447168	44	5638
2026-01-04 15:53:12.14	23.87	6.99	-34.9	-35.6	23.5	0.00e+00	0	40	0	339738624	44	5498
2026-01-04 15:53:13.15	23.92	7.06	-34.9	-35.7	23.4	0.00e+00	0	40	0	344981504	44	5522
2026-01-04 15:53:14.16	23.97	7.14	-34.9	-35.6	23.5	0.00e+00	0	40	0	350224384	44	5483
2026-01-04 15:53:15.17	24.02	7.21	-34.9	-35.7	23.6	0.00e+00	0	40	0	356515840	44	5519
2026-01-04 15:53:16.18	24.07	7.29	-34.8	-35.6	23.7	0.00e+00	0	39	0	361758720	44	5473
2026-01-04 15:53:17.19	24.12	7.36	-35.0	-35.8	23.4	0.00e+00	0	40	0	368050176	42	6267
2026-01-04 15:53:18.20	24.17	7.44	-34.9	-35.7	23.5	0.00e+00	0	40	0	373293056	42	6183
2026-01-04 15:53:19.21	24.22	7.51	-35.1	-35.9	23.3	0.00e+00	0	40	0	378535936	42	6348
2026-01-04 15:53:20.22	24.27	7.59	-34.9	-35.6	23.8	0.00e+00	0	40	0	384827392	42	6133
2026-01-04 15:53:21.23	24.32	7.66	-34.7	-35.5	23.8	0.00e+00	0	40	0	390070272	42	6044
2026-01-04 15:53:22.24	24.37	7.74	-34.7	-35.4	23.7	0.00e+00	0	39	0	396361728	42	6033
2026-01-04 15:53:23.25	24.42	7.81	-34.7	-35.4	23.7	0.00e+00	0	40	0	401604608	42	6013
2026-01-04 15:53:24.26	24.48	7.89	-34.9	-35.6	23.6	0.00e+00	0	40	0	406847488	42	6165
2026-01-04 15:53:25.27	24.53	7.97	-34.9	-35.6	23.6	0.00e+00	0	40	0	413138944	42	6145
2026-01-04 15:53:26.28	24.58	8.04	-34.8	-35.5	23.9	0.00e+00	0	40	0	418381824	42	6076
2026-01-04 15:53:27.29	24.63	8.12	-34.4	-35.1	24.2	0.00e+00	0	40	0	424673280	42	5792
2026-01-04 15:53:28.30	24.69	8.20	-34.4	-35.1	24.1	0.00e+00	0	40	0	429916160	42	5799
2026-01-04 15:53:29.31	24.74	8.28	-34.7	-35.4	23.8	0.00e+00	0	40	0	436207616	42	6016
2026-01-04 15:53:30.32	24.79	8.35	-34.5	-35.3	24.1	0.00e+00	0	40	0	441450496	42	5905
2026-01-04 15:53:31.33	24.85	8.43	-34.4	-35.2	24.1	0.00e+00	0	40	0	447741952	42	5829
2026-01-04 15:53:32.34	24.90	8.51	-34.7	-35.5	23.9	0.00e+00	0	40	0	452984832	42	6048
2026-01-04 15:53:33.35	24.95	8.59	-34.7	-35.4	23.8	0.00e+00	0	40	0	458227712	42	6008
2026-01-04 15:53:34.36	25.01	8.67	-34.4	-35.1	24.2	0.00e+00	0	40	0	464519168	42	5788
2026-01-04 15:53:35.36	25.06	8.74	-34.4	-35.1	24.2	0.00e+00	0	40	0	469762048	42	5811
2026-01-04 15:53:36.38	25.12	8.82	-34.7	-35.4	23.9	0.00e+00	0	40	0	476053504	42	5999
2026-01-04 15:53:37.38	25.17	8.90	-34.6	-35.3	24.0	0.00e+00	0	40	0	481296384	42	5955
2026-01-04 15:53:38.39	25.23	8.98	-34.8	-35.5	23.9	0.00e+00	0	40	0	486539264	42	6038
2026-01-04 15:53:39.40	25.28	9.06	-34.6	-35.4	24.0	0.00e+00	0	40	0	492830720	42	5978
2026-01-04 15:53:40.41	25.34	9.14	-34.2	-34.9	24.4	0.00e+00	0	40	0	498073600	42	5695
2026-01-04 15:53:41.42	25.40	9.22	-34.3	-35.0	24.3	0.00e+00	0	40	0	504365056	42	5744
2026-01-04 15:53:42.43	25.45	9.30	-34.3	-35.0	24.4	0.00e+00	0	39	0	509607936	42	5699
2026-01-04 15:53:43.44	25.51	9.38	-34.2	-34.9	24.4	0.00e+00	0	40	0	514850816	42	5634
2026-01-04 15:53:44.45	25.57	9.46	-34.1	-34.8	24.5	0.00e+00	0	40	0	521142272	42	5603
2026-01-04 15:53:45.46	25.62	9.54	-34.1	-34.8	24.5	0.00e+00	0	40	0	526385152	42	5589
2026-01-04 15:53:46.47	25.68	9.63	-33.9	-34.6	24.7	0.00e+00	0	40	0	532676608	42	5446
2026-01-04 15:53:47.48	25.74	9.71	-34.1	-34.8	24.6	0.00e+00	0	40	0	537919488	42	5612
2026-01-04 15:53:48.49	25.80	9.79	-34.0	-34.7	24.6	0.00e+00	0	40	0	544210944	42	5531
2026-01-04 15:53:49.50	25.86	9.87	-33.9	-34.6	24.7	0.00e+00	0	40	0	549453824	42	5462
2026-01-04 15:53:50.51	25.92	9.95	-33.8	-34.5	24.8	0.00e+00	0	40	0	554696704	42	5434
2026-01-04 15:53:51.52	25.97	10.04	-33.8	-34.6	24.8	0.00e+00	0	40	0	560988160	40	6105
2026-01-04 15:53:52.53	26.03	10.12	-33.8	-34.4	24.9	0.00e+00	0	40	0	566231040	40	6024
2026-01-04 15:53:53.54	26.09	10.20	-34.0	-34.7	24.6	0.00e+00	0	40	0	572522496	40	6220
2026-01-04 15:53:54.55	26.15	10.28	-33.9	-34.6	24.7	0.00e+00	0	40	0	577765376	40	6127
2026-01-04 15:53:55.56	26.21	10.37	-33.9	-34.6	24.8	0.00e+00	0	40	0	583008256	40	6112
2026-01-04 15:53:56.57	26.28	10.45	-33.7	-34.4	24.9	0.00e+00	0	40	0	589299712	40	5997
2026-01-04 15:53:57.58	26.34	10.54	-33.7	-34.4	24.8	0.00e+00	0	40	0	594542592	40	6000
2026-01-04 15:53:58.58	26.40	10.62	-33.6	-34.3	24.9	0.00e+00	0	40	0	600834048	40	5932
2026-01-04 15:53:59.60	26.46	10.71	-33.7	-34.3	24.9	0.00e+00	0	40	0	606076928	40	5947
2026-01-04 15:54:00.61	26.52	10.79	-33.6	-34.3	24.9	0.00e+00	0	40	0	611319808	40	5929
2026-01-04 15:54:01.61	26.58	10.87	-33.5	-34.2	25.0	0.00e+00	0	40	0	617611264	40	5835
2026-01-04 15:54:02.62	26.65	10.96	-33.6	-34.3	25.0	0.00e+00	0	40	0	622854144	40	5928
2026-01-04 15:54:03.63	26.71	11.05	-33.5	-34.2	25.1	0.00e+00	0	40	0	629145600	40	5856
2026-01-04 15:54:04.64	26.77	11.13	-33.5	-34.2	25.0	0.00e+00	0	40	0	634388480	40	5850
2026-01-04 15:54:05.65	26.84	11.22	-33.6	-34.3	25.1	0.00e+00	0	40	0	640679936	40	5898
2026-01-04 15:54:06.66	26.90	11.30	-33.6	-34.2	25.1	0.00e+00	0	40	0	645922816	40	5889
2026-01-04 15:54:07.67	26.97	11.39	-33.8	-34.4	24.8	0.00e+00	0	40	0	652214272	40	6016
2026-01-04 15:54:08.69	27.03	11.48	-33.6	-34.2	24.9	0.00e+00	0	40	0	657457152	40	5889
2026-01-04 15:54:09.70	27.10	11.57	-33.7	-34.4	24.9	0.00e+00	0	40	0	662700032	40	5987
2026-01-04 15:54:10.70	27.16	11.65	-33.8	-34.5	24.9	0.00e+00	0	40	0	668991488	40	6038
2026-01-04 15:54:11.71	27.23	11.74	-33.8	-34.5	24.6	0.00e+00	0	40	0	674234368	40	6065
2026-01-04 15:54:12.72	27.29	11.83	-33.9	-34.6	24.8	0.00e+00	0	40	0	680525824	40	6111
2026-01-04 15:54:13.73	27.36	11.92	-33.8	-34.5	24.8	0.00e+00	0	40	0	685768704	40	6083
2026-01-04 15:54:14.74	27.43	12.01	-33.9	-34.6	24.7	0.00e+00	0	40	0	691011584	40	6162
2026-01-04 15:54:15.75	27.50	12.10	-34.0	-34.7	24.6	0.00e+00	0	40	0	697303040	40	6183
2026-01-04 15:54:16.76	27.56	12.19	-33.8	-34.5	24.9	0.00e+00	0	40	0	702545920	40	6058
2026-01-04 15:54:17.76	27.63	12.27	-34.0	-34.7	24.7	0.00e+00	0	40	0	708837376	40	6181
2026-01-04 15:54:18.77	27.70	12.36	-33.8	-34.5	24.9	0.00e+00	0	40	0	714080256	40	6037
2026-01-04 15:54:19.78	27.77	12.45	-33.6	-34.4	24.9	0.00e+00	0	40	0	719323136	40	5965
2026-01-04 15:54:20.79	27.84	12.54	-33.6	-34.3	25.1	0.00e+00	0	40	0	725614592	40	5928
2026-01-04 15:54:21.80	27.91	12.64	-33.6	-34.3	25.0	0.00e+00	0	40	0	730857472	40	5960
2026-01-04 15:54:22.81	27.98	12.73	-33.5	-34.2	25.1	0.00e+00	0	40	0	737148928	40	5830
2026-01-04 15:54:23.82	28.05	12.82	-33.4	-34.1	25.3	0.00e+00	0	40	0	742391808	40	5780
2026-01-04 15:54:24.83	28.12	12.91	-33.4	-34.1	25.3	0.00e+00	0	40	0	748683264	40	5773
2026-01-04 15:54:25.84	28.19	13.00	-33.4	-34.1	25.3	0.00e+00	0	40	0	753926144	40	5767
2026-01-04 15:54:26.85	28.26	13.09	-33.4	-34.1	25.3	0.00e+00	0	40	0	759169024	40	5795
2026-01-04 15:54:27.86	28.34	13.19	-33.3	-34.0	25.4	0.00e+00	0	40	0	765460480	40	5752
2026-01-04 15:54:28.87	28.41	13.28	-33.4	-34.1	25.3	0.00e+00	0	40	0	770703360	40	5780
2026-01-04 15:54:29.88	28.48	13.37	-33.3	-34.0	25.4	0.00e+00	0	40	0	776994816	40	5752
2026-01-04 15:54:30.89	28.55	13.47	-33.4	-34.0	25.3	0.00e+00	0	40	0	782237696	40	5759
2026-01-04 15:54:31.90	28.63	13.56	-33.3	-34.0	25.4	0.00e+00	0	40	0	787480576	40	5726
2026-01-04 15:54:32.91	28.70	13.66	-33.2	-33.9	25.5	0.00e+00	0	40	0	793772032	40	5644
2026-01-04 15:54:33.92	28.78	13.75	-33.1	-33.8	25.5	0.00e+00	0	40	0	799014912	40	5572
2026-01-04 15:54:34.92	28.85	13.84	-33.1	-33.8	25.6	0.00e+00	0	40	0	805306368	40	5594
2026-01-04 15:54:35.94	28.93	13.94	-33.0	-33.7	25.6	0.00e+00	0	40	0	810549248	40	5543
2026-01-04 15:54:36.94	29.00	14.04	-33.1	-33.8	25.6	0.00e+00	0	40	0	815792128	40	5599
2026-01-04 15:54:37.95	29.08	14.13	-33.0	-33.7	25.7	0.00e+00	0	40	0	822083584	40	5518
2026-01-04 15:54:38.96	29.16	14.23	-32.9	-33.6	25.7	0.00e+00	0	40	0	827326464	40	5455
2026-01-04 15:54:39.97	29.24	14.32	-33.0	-33.7	25.8	0.00e+00	0	40	0	833617920	40	5515
2026-01-04 15:54:40.98	29.31	14.42	-32.9	-33.6	25.7	0.00e+00	0	40	0	838860800	40	5472
2026-01-04 15:54:41.99	29.39	14.52	-33.1	-33.8	25.6	0.00e+00	0	40	0	845152256	40	5580
2026-01-04 15:54:43.00	29.47	14.62	-32.9	-33.5	25.7	0.00e+00	0	40	0	850395136	38	6087
2026-01-04 15:54:44.01	29.55	14.71	-32.8	-33.5	25.9	0.00e+00	0	40	0	855638016	38	6042
2026-01-04 15:54:45.02	29.63	14.81	-32.6	-33.3	26.1	0.00e+00	0	40	0	861929472	38	5928
2026-01-04 15:54:46.03	29.71	14.91	-32.7	-33.4	26.1	0.00e+00	0	40	0	867172352	38	5969
2026-01-04 15:54:47.04	29.79	15.01	-32.8	-33.5	26.0	0.00e+00	0	40	0	873463808	38	6065
2026-01-04 15:54:48.05	29.88	15.11	-32.7	-33.3	26.1	0.00e+00	0	40	0	878706688	38	5936
2026-01-04 15:54:49.06	29.96	15.21	-32.6	-33.2	26.1	0.00e+00	0	40	0	884998144	38	5881
2026-01-04 15:54:50.07	30.04	15.31	-32.7	-33.4	26.0	0.00e+00	0	40	0	890241024	38	5970
2026-01-04 15:54:51.08	30.12	15.41	-32.6	-33.2	26.0	0.00e+00	0	40	0	895483904	38	5895
2026-01-04 15:54:52.09	30.21	15.51	-32.6	-33.2	26.2	0.00e+00	0	40	0	901775360	38	5871
2026-01-04 15:54:53.10	30.29	15.61	-32.6	-33.2	26.2	0.00e+00	0	40	0	907018240	38	5886
2026-01-04 15:54:54.11	30.38	15.72	-32.5	-33.2	26.2	0.00e+00	0	40	0	912261120	38	5860
2026-01-04 15:54:55.12	30.46	15.82	-32.5	-33.2	26.2	0.00e+00	0	40	0	918552576	38	5836
2026-01-04 15:54:56.13	30.55	15.92	-32.4	-33.0	26.3	0.00e+00	0	40	0	923795456	38	5730
2026-01-04 15:54:57.14	30.63	16.02	-32.4	-33.0	26.3	0.00e+00	0	40	0	930086912	38	5753
2026-01-04 15:54:58.15	30.72	16.13	-32.5	-33.1	26.2	0.00e+00	0	40	0	935329792	38	5779
2026-01-04 15:54:59.16	30.81	16.23	-32.5	-33.1	26.2	0.00e+00	0	40	0	941621248	38	5765
2026-01-04 15:55:00.17	30.90	16.33	-32.4	-33.0	26.3	0.00e+00	0	40	0	946864128	38	5739
2026-01-04 15:55:01.18	30.99	16.44	-32.5	-33.1	26.3	0.00e+00	0	40	0	953155584	38	5811
2026-01-04 15:55:02.19	31.07	16.54	-32.3	-33.0	26.4	0.00e+00	0	40	0	958398464	38	5705
2026-01-04 15:55:03.20	31.16	16.65	-32.3	-32.9	26.4	0.00e+00	0	40	0	963641344	38	5683
2026-01-04 15:55:04.21	31.26	16.75	-32.3	-32.9	26.4	0.00e+00	0	40	0	969932800	38	5678
2026-01-04 15:55:05.22	31.35	16.86	-32.4	-33.1	26.4	0.00e+00	0	40	0	975175680	38	5763
2026-01-04 15:55:06.23	31.44	16.97	-32.4	-33.0	26.4	0.00e+00	0	40	0	981467136	38	5749
2026-01-04 15:55:07.24	31.53	17.07	-32.1	-32.7	26.6	0.00e+00	0	40	0	986710016	38	5566
2026-01-04 15:55:08.25	31.62	17.18	-32.1	-32.8	26.6	0.00e+00	0	40	0	991952896	38	5583
2026-01-04 15:55:09.26	31.72	17.29	-32.1	-32.8	26.5	0.00e+00	0	40	0	998244352	38	5576
2026-01-04 15:55:10.26	31.81	17.39	-32.0	-32.6	26.7	0.00e+00	0	40	0	1003487232	38	5476
2026-01-04 15:55:11.27	31.91	17.50	-31.9	-32.6	26.7	0.00e+00	0	40	0	1009778688	38	5441
2026-01-04 15:55:12.28	32.00	17.61	-31.9	-32.5	26.8	0.00e+00	0	40	0	1015021568	38	5419
2026-01-04 15:55:13.29	32.10	17.72	-31.6	-32.3	26.9	0.00e+00	0	40	0	1020264448	36	5927
2026-01-04 15:55:14.30	32.19	17.83	-31.8	-32.4	26.8	0.00e+00	0	40	0	1026555904	36	6019
2026-01-04 15:55:15.31	32.29	17.94	-31.7	-32.3	26.9	0.00e+00	0	40	0	1031798784	36	5938
2026-01-04 15:55:16.32	32.39	18.05	-31.9	-32.5	26.8	0.00e+00	0	40	0	1038090240	36	6075
2026-01-04 15:55:17.33	32.49	18.16	-31.7	-32.3	26.9	0.00e+00	0	40	0	1043333120	36	5917
2026-01-04 15:55:18.34	32.59	18.27	-31.8	-32.5	26.8	0.00e+00	0	40	0	1049624576	36	6065
2026-01-04 15:55:19.35	32.69	18.38	-32.0	-32.6	26.7	0.00e+00	0	40	0	1054867456	36	6162
2026-01-04 15:55:20.36	32.79	18.49	-31.8	-32.5	26.8	0.00e+00	0	40	0	1060110336	36	6043
2026-01-04 15:55:21.37	32.89	18.61	-31.8	-32.4	26.9	0.00e+00	0	40	0	1066401792	36	6026
2026-01-04 15:55:22.38	32.99	18.72	-31.9	-32.5	26.7	0.00e+00	0	40	0	1071644672	36	6075
2026-01-04 15:55:23.39	33.10	18.83	-31.8	-32.4	26.9	0.00e+00	0	40	0	1077936128	36	6003
2026-01-04 15:55:24.40	33.20	18.95	-31.7	-32.3	26.9	0.00e+00	0	40	0	1083179008	36	5936
2026-01-04 15:55:25.41	33.31	19.06	-31.6	-32.3	27.0	0.00e+00	0	40	0	1089470464	36	5904
2026-01-04 15:55:26.42	33.41	19.18	-31.8	-32.5	26.8	0.00e+00	0	40	0	1094713344	36	6073
2026-01-04 15:55:27.43	33.52	19.29	-31.6	-32.3	26.9	0.00e+00	0	40	0	1099956224	36	5912
2026-01-04 15:55:28.44	33.62	19.41	-31.5	-32.2	27.0	0.00e+00	0	40	0	1106247680	36	5862
2026-01-04 15:55:29.45	33.73	19.52	-31.6	-32.3	27.0	0.00e+00	0	40	0	1111490560	36	5906
2026-01-04 15:55:30.46	33.84	19.64	-31.6	-32.2	27.1	0.00e+00	0	40	0	1116733440	36	5848
2026-01-04 15:55:31.47	33.95	19.76	-31.5	-32.2	27.0	0.00e+00	0	40	0	1123024896	36	5844
2026-01-04 15:55:32.48	34.06	19.87	-31.6	-32.2	26.9	0.00e+00	0	40	0	1128267776	36	5889
2026-01-04 15:55:33.49	34.17	19.99	-31.6	-32.2	27.0	0.00e+00	0	40	0	1134559232	36	5879
2026-01-04 15:55:34.50	34.28	20.11	-31.6	-32.3	26.9	0.00e+00	0	40	0	1139802112	36	5900
2026-01-04 15:55:35.51	34.39	20.23	-31.6	-32.2	27.0	0.00e+00	0	40	0	1146093568	36	5868
2026-01-04 15:55:36.51	34.51	20.35	-31.7	-32.3	26.9	0.00e+00	0	40	0	1151336448	36	5932
2026-01-04 15:55:37.52	34.62	20.47	-31.9	-32.6	26.8	0.00e+00	0	40	0	1157627904	36	6106
2026-01-04 15:55:38.53	34.74	20.59	-31.9	-32.5	26.8	0.00e+00	0	40	0	1162870784	36	6080
2026-01-04 15:55:39.54	34.85	20.71	-31.8	-32.5	26.9	0.00e+00	0	40	0	1168113664	36	6075
2026-01-04 15:55:40.55	34.97	20.83	-31.7	-32.4	26.9	0.00e+00	0	40	0	1174405120	36	5967
2026-01-04 15:55:41.56	35.09	20.95	-31.7	-32.3	26.9	0.00e+00	0	40	0	1179648000	36	5963
2026-01-04 15:55:42.56	35.20	21.07	-31.8	-32.4	26.8	0.00e+00	0	40	0	1185939456	36	6014
2026-01-04 15:55:43.57	35.32	21.19	-31.7	-32.3	26.9	0.00e+00	0	40	0	1191182336	36	5932
2026-01-04 15:55:44.59	35.45	21.32	-31.5	-32.1	27.1	0.00e+00	0	40	0	1196425216	36	5819
2026-01-04 15:55:45.59	35.57	21.44	-31.4	-32.1	27.1	0.00e+00	0	40	0	1202716672	36	5763
2026-01-04 15:55:46.60	35.69	21.56	-31.4	-32.1	27.1	0.00e+00	0	40	0	1207959552	36	5778
2026-01-04 15:55:47.61	35.81	21.69	-31.4	-32.0	27.0	0.00e+00	0	40	0	1214251008	36	5761
2026-01-04 15:55:48.62	35.94	21.81	-31.4	-32.0	27.1	0.00e+00	0	40	0	1219493888	36	5752
2026-01-04 15:55:49.63	36.06	21.94	-31.4	-32.1	27.1	0.00e+00	0	40	0	1224736768	36	5784
2026-01-04 15:55:50.64	36.19	22.06	-31.5	-32.1	27.1	0.00e+00	0	40	0	1231028224	36	5808
2026-01-04 15:55:51.65	36.31	22.19	-31.2	-31.9	27.3	0.00e+00	0	40	0	1236271104	36	5662
2026-01-04 15:55:52.66	36.44	22.32	-31.3	-31.9	27.2	0.00e+00	0	40	0	1242562560	36	5663
2026-01-04 15:55:53.67	36.57	22.45	-31.1	-31.7	27.4	0.00e+00	0	40	0	1247805440	36	5532
2026-01-04 15:55:54.68	36.70	22.57	-31.0	-31.7	27.5	0.00e+00	0	40	0	1254096896	36	5505
2026-01-04 15:55:55.69	36.83	22.70	-31.0	-31.6	27.6	0.00e+00	0	40	0	1259339776	36	5480
2026-01-04 15:55:56.70	36.97	22.83	-31.0	-31.7	27.5	0.00e+00	0	40	0	1264582656	36	5525
2026-01-04 15:55:57.70	37.10	22.96	-31.1	-31.7	27.5	0.00e+00	0	40	0	1270874112	36	5556
2026-01-04 15:55:58.71	37.23	23.09	-31.0	-31.6	27.5	0.00e+00	0	40	0	1276116992	36	5488
2026-01-04 15:55:59.72	37.37	23.22	-31.0	-31.7	27.5	0.00e+00	0	40	0	1282408448	36	5507
2026-01-04 15:56:00.73	37.50	23.35	-31.0	-31.6	27.6	0.00e+00	0	40	0	1287651328	36	5500
2026-01-04 15:56:01.74	37.64	23.48	-31.0	-31.6	27.5	0.00e+00	0	40	0	1292894208	36	5492
2026-01-04 15:56:02.75	37.78	23.61	-30.9	-31.6	27.6	0.00e+00	0	40	0	1299185664	36	5440
2026-01-04 15:56:03.76	37.92	23.75	-30.9	-31.5	27.7	0.00e+00	0	40	0	1304428544	36	5424
2026-01-04 15:56:04.77	38.06	23.88	-30.8	-31.4	27.7	0.00e+00	0	40	0	1310720000	36	5345
2026-01-04 15:56:05.78	38.20	24.01	-30.7	-31.4	27.7	0.00e+00	0	40	0	1315962880	36	5329
2026-01-04 15:56:06.79	38.35	24.15	-30.6	-31.3	27.8	0.00e+00	0	40	0	1321205760	34	5908
2026-01-04 15:56:07.79	38.49	24.28	-30.5	-31.1	27.9	0.00e+00	0	40	0	1327497216	34	5797
2026-01-04 15:56:08.80	38.64	24.41	-30.5	-31.1	27.9	0.00e+00	0	40	0	1332740096	34	5799
2026-01-04 15:56:09.81	38.78	24.55	-30.4	-31.1	28.0	0.00e+00	0	40	0	1339031552	34	5767
2026-01-04 15:56:10.82	38.93	24.69	-30.3	-30.9	28.1	0.00e+00	0	40	0	1344274432	34	5638
2026-01-04 15:56:11.83	39.08	24.82	-30.3	-30.9	28.1	0.00e+00	0	40	0	1350565888	34	5672
2026-01-04 15:56:12.84	39.23	24.96	-30.4	-31.1	28.0	0.00e+00	0	40	0	1355808768	34	5767
2026-01-04 15:56:13.85	39.38	25.10	-30.5	-31.2	27.9	0.00e+00	0	40	0	1361051648	34	5836
2026-01-04 15:56:14.86	39.54	25.24	-30.5	-31.2	27.9	0.00e+00	0	40	0	1367343104	34	5831
2026-01-04 15:56:15.87	39.69	25.37	-30.5	-31.1	27.9	0.00e+00	0	40	0	1372585984	34	5799
2026-01-04 15:56:16.88	39.85	25.51	-30.5	-31.2	27.9	0.00e+00	0	40	0	1378877440	34	5832
2026-01-04 15:56:17.89	40.01	25.65	-30.7	-31.3	27.8	0.00e+00	0	40	0	1384120320	34	5915
2026-01-04 15:56:18.90	40.16	25.79	-30.6	-31.2	27.9	0.00e+00	0	40	0	1389363200	34	5864
2026-01-04 15:56:19.91	40.32	25.93	-30.7	-31.3	27.9	0.00e+00	0	40	0	1395654656	34	5927
2026-01-04 15:56:20.92	40.49	26.08	-30.6	-31.2	27.8	0.00e+00	0	40	0	1400897536	34	5893
2026-01-04 15:56:21.92	40.65	26.22	-30.6	-31.2	27.9	0.00e+00	0	40	0	1407188992	34	5881
2026-01-04 15:56:22.94	40.81	26.36	-30.5	-31.1	28.0	0.00e+00	0	40	0	1412431872	34	5810
2026-01-04 15:56:23.95	40.98	26.50	-30.5	-31.2	28.0	0.00e+00	0	40	0	1417674752	34	5841
2026-01-04 15:56:24.96	41.15	26.65	-30.4	-31.0	28.0	0.00e+00	0	40	0	1423966208	34	5761
2026-01-04 15:56:25.96	41.31	26.79	-30.2	-30.8	28.2	0.00e+00	0	40	0	1429209088	34	5605
2026-01-04 15:56:26.97	41.48	26.93	-30.2	-30.8	28.2	0.00e+00	0	40	0	1435500544	34	5602
2026-01-04 15:56:27.98	41.66	27.08	-30.1	-30.8	28.3	0.00e+00	0	40	0	1440743424	34	5574
2026-01-04 15:56:29.00	41.83	27.22	-30.3	-31.0	28.1	0.00e+00	0	40	0	1447034880	34	5711
2026-01-04 15:56:30.00	42.00	27.37	-30.2	-30.8	28.1	0.00e+00	0	40	0	1452277760	34	5622
2026-01-04 15:56:31.01	42.18	27.51	-30.1	-30.8	28.3	0.00e+00	0	40	0	1458569216	34	5568
2026-01-04 15:56:32.03	42.36	27.66	-30.2	-30.8	28.2	0.00e+00	0	40	0	1463812096	34	5621
2026-01-04 15:56:33.04	42.54	27.81	-30.4	-31.1	28.0	0.00e+00	0	40	0	1469054976	34	5771
2026-01-04 15:56:34.04	42.72	27.96	-30.4	-31.0	27.9	0.00e+00	0	40	0	1475346432	34	5756
2026-01-04 15:56:35.06	42.90	28.11	-30.6	-31.2	27.9	0.00e+00	0	40	0	1480589312	34	5836
2026-01-04 15:56:36.06	43.09	28.25	-30.5	-31.1	28.0	0.00e+00	0	40	0	1486880768	34	5823
2026-01-04 15:56:37.07	43.27	28.40	-30.3	-30.9	28.1	0.00e+00	0	40	0	1492123648	34	5675
2026-01-04 15:56:38.08	43.46	28.55	-30.4	-31.0	28.1	0.00e+00	0	40	0	1497366528	34	5732
2026-01-04 15:56:39.09	43.65	28.70	-30.2	-30.8	28.2	0.00e+00	0	40	0	1503657984	34	5618
2026-01-04 15:56:40.10	43.84	28.85	-30.2	-30.8	28.2	0.00e+00	0	40	0	1508900864	34	5599
2026-01-04 15:56:41.11	44.03	29.00	-30.4	-31.0	28.1	0.00e+00	0	40	0	1515192320	34	5723
2026-01-04 15:56:42.12	44.23	29.16	-30.1	-30.7	28.3	0.00e+00	0	40	0	1520435200	34	5535
2026-01-04 15:56:43.14	44.43	29.31	-30.2	-30.8	28.2	0.00e+00	0	40	0	1525678080	34	5578
2026-01-04 15:56:44.15	44.63	29.46	-30.1	-30.7	28.3	0.00e+00	0	40	0	1531969536	34	5526
2026-01-04 15:56:45.16	44.83	29.62	-30.2	-30.8	28.2	0.00e+00	0	40	0	1537212416	34	5630
2026-01-04 15:56:46.17	45.03	29.77	-30.1	-30.7	28.2	0.00e+00	0	40	0	1543503872	34	5541
2026-01-04 15:56:47.18	45.23	29.92	-30.3	-30.9	28.2	0.00e+00	0	40	0	1548746752	34	5641
2026-01-04 15:56:48.19	45.44	30.08	-30.2	-30.8	28.2	0.00e+00	0	40	0	1555038208	34	5622
2026-01-04 15:56:49.19	45.64	30.23	-30.1	-30.8	28.3	0.00e+00	0	40	0	1560281088	34	5585
2026-01-04 15:56:50.20	45.85	30.39	-30.5	-31.1	28.1	0.00e+00	0	40	0	1565523968	34	5777
2026-01-04 15:56:51.21	46.07	30.54	-30.8	-31.4	28.0	0.00e+00	0	40	0	1571815424	34	5991
2026-01-04 15:56:52.22	46.28	30.70	-30.4	-31.1	28.1	0.00e+00	0	40	0	1577058304	34	5765
2026-01-04 15:56:53.23	46.50	30.86	-30.4	-31.1	28.1	0.00e+00	0	40	0	1583349760	34	5788
2026-01-04 15:56:54.24	46.71	31.01	-30.3	-31.0	28.1	0.00e+00	0	40	0	1588592640	34	5710
2026-01-04 15:56:55.25	46.93	31.17	-30.5	-31.1	28.1	0.00e+00	0	40	0	1593835520	34	5771
2026-01-04 15:56:56.26	47.16	31.33	-30.5	-31.1	28.0	0.00e+00	0	40	0	1600126976	34	5815
2026-01-04 15:56:57.27	47.38	31.49	-30.2	-30.8	28.3	0.00e+00	0	40	0	1605369856	34	5618
2026-01-04 15:56:58.28	47.61	31.65	-30.0	-30.6	28.3	0.00e+00	0	40	0	1611661312	34	5471
2026-01-04 15:56:59.29	47.83	31.80	-30.2	-30.9	28.2	0.00e+00	0	40	0	1616904192	34	5647
2026-01-04 15:57:00.30	48.07	31.96	-30.0	-30.7	28.3	0.00e+00	0	40	0	1622147072	34	5512
2026-01-04 15:57:01.31	48.30	32.12	-30.1	-30.7	28.3	0.00e+00	0	40	0	1628438528	34	5519
2026-01-04 15:57:02.32	48.53	32.28	-30.1	-30.8	28.2	0.00e+00	0	40	0	1633681408	34	5582
2026-01-04 15:57:03.33	48.77	32.44	-30.2	-30.9	28.2	0.00e+00	0	40	0	1639972864	34	5646
2026-01-04 15:57:04.34	49.01	32.61	-30.3	-31.0	28.1	0.00e+00	0	40	0	1645215744	34	5711
2026-01-04 15:57:05.35	49.25	32.77	-30.3	-30.9	28.2	0.00e+00	0	40	0	1651507200	34	5659
2026-01-04 15:57:06.36	49.50	32.93	-30.1	-30.7	28.3	0.00e+00	0	40	0	1656750080	34	5566
2026-01-04 15:57:07.37	49.75	33.09	-30.0	-30.6	28.3	0.00e+00	0	40	0	1663041536	34	5459
2026-01-04 15:57:08.38	50.00	33.25	-29.9	-30.5	28.4	0.00e+00	0	40	0	1668284416	34	5408
2026-01-04 15:57:09.39	50.25	33.41	-29.7	-30.3	28.5	0.00e+00	0	40	0	1673527296	34	5312
2026-01-04 15:57:10.40	50.50	33.58	-29.9	-30.5	28.4	0.00e+00	0	40	0	1679818752	32	6074
2026-01-04 15:57:11.41	50.76	33.74	-30.0	-30.6	28.4	0.00e+00	0	40	0	1685061632	32	6173
2026-01-04 15:57:12.42	51.02	33.90	-30.0	-30.6	28.4	0.00e+00	0	40	0	1691353088	32	6171
2026-01-04 15:57:13.43	51.28	34.07	-30.2	-30.8	28.2	0.00e+00	0	40	0	1696595968	32	6273
2026-01-04 15:57:14.44	51.55	34.23	-30.1	-30.8	28.2	0.00e+00	0	40	0	1701838848	32	6253
2026-01-04 15:57:15.45	51.81	34.39	-30.1	-30.8	28.2	0.00e+00	0	40	0	1708130304	32	6248
2026-01-04 15:57:16.46	52.08	34.56	-30.1	-30.8	28.3	0.00e+00	0	40	0	1713373184	32	6251
2026-01-04 15:57:17.47	52.36	34.72	-30.1	-30.7	28.3	0.00e+00	0	40	0	1719664640	32	6232
2026-01-04 15:57:18.48	52.63	34.89	-29.9	-30.5	28.4	0.00e+00	0	40	0	1724907520	32	6045
2026-01-04 15:57:19.49	52.91	35.05	-29.8	-30.4	28.4	0.00e+00	0	40	0	1730150400	32	6020
2026-01-04 15:57:20.49	53.19	35.21	-29.8	-30.5	28.4	0.00e+00	0	40	0	1736441856	32	6046
2026-01-04 15:57:21.50	53.47	35.38	-30.0	-30.6	28.3	0.00e+00	0	40	0	1741684736	32	6166
2026-01-04 15:57:22.51	53.76	35.54	-30.1	-30.7	28.2	0.00e+00	0	40	0	1747976192	32	6206
2026-01-04 15:57:23.52	54.05	35.71	-30.0	-30.6	28.3	0.00e+00	0	40	0	1753219072	32	6160
2026-01-04 15:57:24.53	54.34	35.87	-30.0	-30.6	28.3	0.00e+00	0	40	0	1759510528	32	6146
2026-01-04 15:57:25.54	54.63	36.04	-29.7	-30.4	28.5	0.00e+00	0	40	0	1764753408	32	5984
2026-01-04 15:57:26.55	54.93	36.20	-29.8	-30.4	28.6	0.00e+00	0	40	0	1769996288	32	5984
2026-01-04 15:57:27.56	55.23	36.37	-29.7	-30.3	28.6	0.00e+00	0	40	0	1776287744	32	5900
2026-01-04 15:57:28.57	55.54	36.53	-29.6	-30.2	28.7	0.00e+00	0	40	0	1781530624	32	5868
2026-01-04 15:57:29.58	55.85	36.70	-29.7	-30.3	28.7	0.00e+00	0	40	0	1787822080	32	5935
2026-01-04 15:57:30.59	56.16	36.86	-29.7	-30.3	28.5	0.00e+00	0	40	0	1793064960	32	5957
2026-01-04 15:57:31.60	56.47	37.03	-30.0	-30.6	28.4	0.00e+00	0	40	0	1798307840	32	6117
2026-01-04 15:57:32.61	56.79	37.19	-30.0	-30.7	28.3	0.00e+00	0	40	0	1804599296	32	6180
2026-01-04 15:57:33.62	57.11	37.35	-29.8	-30.4	28.5	0.00e+00	0	40	0	1809842176	32	6005
2026-01-04 15:57:34.63	57.43	37.52	-29.7	-30.3	28.6	0.00e+00	0	40	0	1816133632	32	5933
2026-01-04 15:57:35.64	57.75	37.68	-29.7	-30.3	28.6	0.00e+00	0	40	0	1821376512	32	5935
2026-01-04 15:57:36.65	58.08	37.85	-29.7	-30.3	28.7	0.00e+00	0	40	0	1826619392	32	5912
2026-01-04 15:57:37.66	58.42	38.01	-29.8	-30.3	28.4	0.00e+00	0	40	0	1832910848	32	5959
2026-01-04 15:57:38.67	58.75	38.17	-29.6	-30.2	28.6	0.00e+00	0	40	0	1838153728	32	5888
2026-01-04 15:57:39.68	59.09	38.34	-29.7	-30.4	28.5	0.00e+00	0	40	0	1844445184	32	5967
2026-01-04 15:57:40.69	59.43	38.50	-29.8	-30.4	28.5	0.00e+00	0	40	0	1849688064	32	6010
2026-01-04 15:57:41.70	59.78	38.66	-29.9	-30.5	28.4	0.00e+00	0	40	0	1855979520	32	6078
2026-01-04 15:57:42.70	60.13	38.82	-30.0	-30.6	28.4	0.00e+00	0	40	0	1861222400	32	6123
2026-01-04 15:57:43.71	60.48	38.98	-30.0	-30.6	28.4	0.00e+00	0	40	0	1866465280	32	6115
2026-01-04 15:57:44.72	60.84	39.14	-30.0	-30.6	28.3	0.00e+00	0	40	0	1872756736	32	6162
2026-01-04 15:57:45.73	61.20	39.30	-29.9	-30.5	28.3	0.00e+00	0	40	0	1877999616	32	6071
2026-01-04 15:57:46.74	61.56	39.46	-30.0	-30.6	28.2	0.00e+00	0	40	0	1884291072	32	6171
2026-01-04 15:57:47.75	61.93	39.62	-29.8	-30.5	28.4	0.00e+00	0	40	0	1889533952	32	6054
2026-01-04 15:57:48.76	62.30	39.78	-29.9	-30.5	28.3	0.00e+00	0	40	0	1894776832	32	6077
2026-01-04 15:57:49.77	62.67	39.94	-30.0	-30.6	28.2	0.00e+00	0	40	0	1901068288	32	6148
2026-01-04 15:57:50.78	63.05	40.10	-29.8	-30.5	28.4	0.00e+00	0	40	0	1906311168	32	6041
2026-01-04 15:57:51.79	63.43	40.26	-29.9	-30.5	28.4	0.00e+00	0	40	0	1912602624	32	6071
2026-01-04 15:57:52.80	63.81	40.41	-29.8	-30.4	28.3	0.00e+00	0	40	0	1917845504	32	6025
2026-01-04 15:57:53.81	64.20	40.57	-29.9	-30.6	28.4	0.00e+00	0	40	0	1923088384	32	6123
2026-01-04 15:57:54.82	64.60	40.72	-29.8	-30.4	28.5	0.00e+00	0	40	0	1929379840	32	5987
2026-01-04 15:57:55.83	64.99	40.88	-29.7	-30.3	28.4	0.00e+00	0	40	0	1934622720	32	5923
2026-01-04 15:57:56.84	65.39	41.03	-29.6	-30.3	28.6	0.00e+00	0	40	0	1940914176	32	5907
2026-01-04 15:57:57.84	65.79	41.18	-29.7	-30.2	28.6	0.00e+00	0	40	0	1946157056	32	5894
2026-01-04 15:57:58.85	66.20	41.33	-29.6	-30.2	28.6	0.00e+00	0	40	0	1952448512	32	5866
2026-01-04 15:57:59.86	66.61	41.48	-29.6	-30.3	28.7	0.00e+00	0	40	0	1957691392	32	5916
2026-01-04 15:58:00.87	67.03	41.63	-29.7	-30.3	28.6	0.00e+00	0	40	0	1963982848	32	5897
2026-01-04 15:58:01.88	67.44	41.78	-29.8	-30.4	28.5	0.00e+00	0	40	0	1969225728	32	5981
2026-01-04 15:58:02.89	67.87	41.93	-29.8	-30.4	28.5	0.00e+00	0	40	0	1974468608	32	6021
2026-01-04 15:58:03.90	68.29	42.08	-29.7	-30.4	28.6	0.00e+00	0	40	0	1980760064	32	5973
2026-01-04 15:58:04.91	68.72	42.22	-29.7	-30.3	28.6	0.00e+00	0	40	0	1986002944	32	5913
2026-01-04 15:58:05.92	69.16	42.36	-29.8	-30.4	28.6	0.00e+00	0	40	0	1992294400	32	5988
2026-01-04 15:58:06.93	69.60	42.51	-29.8	-30.4	28.4	0.00e+00	0	40	0	1997537280	32	6030
2026-01-04 15:58:07.93	70.03	42.65	-30.1	-30.7	28.3	0.00e+00	0	40	0	2002780160	32	6187
2026-01-04 15:58:08.95	70.48	42.79	-30.0	-30.6	28.4	0.00e+00	0	40	0	2009071616	32	6171
2026-01-04 15:58:09.95	70.93	42.92	-30.1	-30.7	28.3	0.00e+00	0	40	0	2014314496	32	6237
2026-01-04 15:58:10.96	71.38	43.06	-30.1	-30.8	28.2	0.00e+00	0	40	0	2020605952	32	6260
2026-01-04 15:58:11.97	71.84	43.20	-30.2	-30.8	28.2	0.00e+00	0	40	0	2025848832	32	6283
2026-01-04 15:58:12.98	72.30	43.33	-29.9	-30.6	28.3	0.00e+00	0	40	0	2031091712	32	6107
2026-01-04 15:58:13.99	72.76	43.46	-30.0	-30.7	28.3	0.00e+00	0	40	0	2037383168	32	6188
2026-01-04 15:58:15.00	73.23	43.60	-30.3	-30.9	28.2	0.00e+00	0	40	0	2042626048	32	6387
2026-01-04 15:58:16.01	73.71	43.72	-30.6	-31.2	27.8	0.00e+00	0	40	0	2048917504	32	6596
2026-01-04 15:58:17.02	74.18	43.85	-30.8	-31.4	27.7	0.00e+00	0	40	0	2054160384	34	6028
2026-01-04 15:58:18.03	74.66	43.98	-30.7	-31.3	27.9	0.00e+00	0	40	0	2060451840	34	5924
2026-01-04 15:58:19.04	75.15	44.10	-30.4	-31.0	28.0	0.00e+00	0	40	0	2065694720	34	5740
2026-01-04 15:58:20.05	75.63	44.22	-30.2	-30.8	28.2	0.00e+00	0	40	0	2070937600	34	5581
2026-01-04 15:58:21.06	76.12	44.34	-30.2	-30.9	28.1	0.00e+00	0	40	0	2077229056	34	5640
2026-01-04 15:58:22.07	76.62	44.46	-30.0	-30.6	28.4	0.00e+00	0	40	0	2082471936	34	5486
2026-01-04 15:58:23.08	77.12	44.58	-30.0	-30.6	28.4	0.00e+00	0	40	0	2088763392	34	5477
2026-01-04 15:58:24.09	77.62	44.69	-29.9	-30.5	28.4	0.00e+00	0	40	0	2094006272	34	5429
2026-01-04 15:58:25.09	78.12	44.80	-30.0	-30.6	28.3	0.00e+00	0	40	0	2099249152	34	5471
2026-01-04 15:58:26.10	78.63	44.92	-30.1	-30.7	28.2	0.00e+00	0	40	0	2105540608	34	5539
2026-01-04 15:58:27.11	79.14	45.02	-30.3	-30.8	28.2	0.00e+00	0	40	0	2110783488	34	5627
2026-01-04 15:58:28.12	79.66	45.13	-30.2	-30.9	28.1	0.00e+00	0	40	0	2117074944	34	5649
2026-01-04 15:58:29.13	80.18	45.23	-30.5	-31.1	28.0	0.00e+00	0	40	0	2122317824	34	5819
2026-01-04 15:58:30.14	80.70	45.33	-30.4	-31.1	28.1	0.00e+00	0	40	0	2127560704	34	5775
2026-01-04 15:58:31.15	81.23	45.43	-30.2	-30.8	28.2	0.00e+00	0	40	0	2133852160	34	5601
2026-01-04 15:58:32.16	81.75	45.53	-30.1	-30.7	28.2	0.00e+00	0	40	0	2139095040	34	5558
2026-01-04 15:58:33.17	82.29	45.62	-30.1	-30.7	28.3	0.00e+00	0	40	0	2145386496	34	5551
2026-01-04 15:58:34.18	82.82	45.72	-30.1	-30.6	28.3	0.00e+00	0	40	0	2150629376	34	5502
2026-01-04 15:58:35.19	83.36	45.80	-30.2	-30.9	28.2	0.00e+00	0	40	0	2156920832	34	5634
2026-01-04 15:58:36.20	83.90	45.89	-30.5	-31.1	28.0	0.00e+00	0	40	0	2162163712	34	5807
2026-01-04 15:58:37.21	84.45	45.98	-30.4	-31.1	28.0	0.00e+00	0	40	0	2167406592	34	5766
2026-01-04 15:58:38.22	85.00	46.06	-30.1	-30.7	28.3	0.00e+00	0	40	0	2173698048	34	5561
2026-01-04 15:58:39.22	85.54	46.13	-29.9	-30.6	28.4	0.00e+00	0	40	0	2178940928	34	5456
2026-01-04 15:58:40.23	86.09	46.21	-29.9	-30.5	28.4	0.00e+00	0	40	0	2185232384	34	5412
2026-01-04 15:58:41.24	86.65	46.28	-29.8	-30.4	28.5	0.00e+00	0	40	0	2190475264	34	5372
2026-01-04 15:58:42.25	87.21	46.35	-29.9	-30.5	28.5	0.00e+00	0	40	0	2195718144	34	5385
2026-01-04 15:58:43.26	87.77	46.42	-30.1	-30.7	28.3	0.00e+00	0	40	0	2202009600	34	5504
2026-01-04 15:58:44.27	88.33	46.49	-30.2	-30.8	28.2	0.00e+00	0	40	0	2207252480	34	5616
2026-01-04 15:58:45.28	88.90	46.55	-30.3	-30.9	28.1	0.00e+00	0	40	0	2213543936	34	5685
2026-01-04 15:58:46.29	89.46	46.61	-30.2	-30.8	28.2	0.00e+00	0	40	0	2218786816	34	5610
2026-01-04 15:58:47.30	90.03	46.66	-30.0	-30.7	28.3	0.00e+00	0	40	0	2224029696	34	5510
2026-01-04 15:58:48.31	90.60	46.72	-30.1	-30.7	28.3	0.00e+00	0	40	0	2230321152	34	5546
2026-01-04 15:58:49.32	91.18	46.77	-30.2	-30.9	28.2	0.00e+00	0	40	0	2235564032	34	5633
2026-01-04 15:58:50.33	91.75	46.82	-30.4	-31.0	28.1	0.00e+00	0	40	0	2241855488	34	5747
2026-01-04 15:58:51.34	92.33	46.86	-30.1	-30.8	28.4	0.00e+00	0	40	0	2247098368	34	5571
2026-01-04 15:58:52.35	92.91	46.90	-29.9	-30.6	28.4	0.00e+00	0	40	0	2253389824	34	5462
2026-01-04 15:58:53.36	93.49	46.94	-29.9	-30.6	28.4	0.00e+00	0	40	0	2258632704	34	5443
2026-01-04 15:58:54.37	94.07	46.97	-29.9	-30.5	28.5	0.00e+00	0	40	0	2264924160	34	5391
2026-01-04 15:58:55.38	94.65	47.01	-30.1	-30.7	28.2	0.00e+00	0	40	0	2270167040	34	5531
2026-01-04 15:58:56.38	95.23	47.03	-30.2	-30.9	28.2	0.00e+00	0	40	0	2275409920	34	5632
2026-01-04 15:58:57.39	95.81	47.06	-30.1	-30.7	28.3	0.00e+00	0	40	0	2281701376	34	5543
2026-01-04 15:58:58.40	96.40	47.08	-30.1	-30.7	28.3	0.00e+00	0	40	0	2286944256	34	5531
2026-01-04 15:58:59.41	96.98	47.10	-30.2	-30.9	28.2	0.00e+00	0	40	0	2292187136	34	5649
2026-01-04 15:59:00.42	97.57	47.12	-30.3	-30.9	28.1	0.00e+00	0	40	0	2298478592	34	5636
2026-01-04 15:59:01.42	98.15	47.13	-30.0	-30.6	28.4	0.00e+00	0	40	0	2303721472	34	5450
2026-01-04 15:59:02.43	98.74	47.14	-29.8	-30.5	28.4	0.00e+00	0	40	0	2310012928	34	5383
2026-01-04 15:59:03.44	99.33	47.15	-29.9	-30.4	28.4	0.00e+00	0	40	0	2315255808	34	5368
2026-01-04 15:59:04.45	99.92	47.15	-30.0	-30.6	28.3	0.00e+00	0	40	0	2320498688	34	5484
2026-01-04 15:59:05.46	100.51	47.15	-30.0	-30.6	28.3	0.00e+00	0	40	0	2326790144	34	5486
2026-01-04 15:59:06.47	101.09	47.15	-30.1	-30.7	28.3	0.00e+00	0	40	0	2332033024	34	5514
2026-01-04 15:59:07.48	101.68	47.14	-30.1	-30.8	28.3	0.00e+00	0	40	0	2338324480	34	5571
2026-01-04 15:59:08.49	102.27	47.13	-30.1	-30.7	28.3	0.00e+00	0	40	0	2343567360	34	5521
2026-01-04 15:59:09.50	102.86	47.12	-30.1	-30.7	28.2	0.00e+00	0	40	0	2349858816	34	5504
2026-01-04 15:59:10.51	103.45	47.10	-30.1	-30.7	28.2	0.00e+00	0	40	0	2355101696	34	5526
2026-01-04 15:59:11.52	104.03	47.08	-30.1	-30.7	28.2	0.00e+00	0	40	0	2361393152	34	5541
2026-01-04 15:59:12.53	104.62	47.06	-30.1	-30.7	28.1	0.00e+00	0	40	0	2366636032	34	5536
2026-01-04 15:59:13.54	105.20	47.03	-30.2	-30.8	28.0	0.00e+00	0	40	0	2371878912	34	5572
2026-01-04 15:59:14.55	105.79	47.00	-30.2	-30.7	28.0	0.00e+00	0	40	0	2378170368	34	5566
2026-01-04 15:59:15.56	106.37	46.97	-30.3	-31.0	28.0	0.00e+00	0	40	0	2383413248	34	5711
2026-01-04 15:59:16.57	106.95	46.94	-30.1	-30.8	28.3	0.00e+00	0	40	0	2389704704	34	5587
2026-01-04 15:59:17.58	107.53	46.90	-30.2	-30.7	28.3	0.00e+00	0	40	0	2394947584	34	5560
2026-01-04 15:59:18.59	108.11	46.86	-30.4	-30.9	28.1	0.00e+00	0	40	0	2400190464	34	5677
2026-01-04 15:59:19.60	108.69	46.81	-30.1	-30.7	28.5	0.00e+00	0	40	0	2406481920	34	5539
2026-01-04 15:59:20.61	109.26	46.76	-29.9	-30.5	28.5	0.00e+00	0	40	0	2411724800	34	5387
2026-01-04 15:59:21.62	109.84	46.71	-30.0	-30.7	28.3	0.00e+00	0	40	0	2418016256	34	5511
2026-01-04 15:59:22.63	110.41	46.66	-30.3	-30.9	28.3	0.00e+00	0	40	0	2423259136	34	5658
2026-01-04 15:59:23.64	110.98	46.60	-30.2	-30.9	28.3	0.00e+00	0	40	0	2428502016	34	5636
2026-01-04 15:59:24.65	111.54	46.54	-30.2	-30.8	28.3	0.00e+00	0	40	0	2434793472	34	5584
2026-01-04 15:59:25.66	112.11	46.48	-30.1	-30.8	28.2	0.00e+00	0	40	0	2440036352	34	5591
2026-01-04 15:59:26.67	112.67	46.42	-30.4	-31.0	28.1	0.00e+00	0	40	0	2446327808	34	5732
2026-01-04 15:59:27.68	113.23	46.35	-30.5	-31.2	28.1	0.00e+00	0	40	0	2451570688	34	5836
2026-01-04 15:59:28.69	113.79	46.28	-30.4	-30.9	28.1	0.00e+00	0	40	0	2457862144	34	5695
2026-01-04 15:59:29.70	114.35	46.20	-30.4	-31.0	28.0	0.00e+00	0	40	0	2463105024	34	5744
2026-01-04 15:59:30.71	114.90	46.13	-30.4	-31.0	28.1	0.00e+00	0	40	0	2468347904	34	5705
2026-01-04 15:59:31.72	115.45	46.05	-30.6	-31.3	27.8	0.00e+00	0	40	0	2474639360	34	5928
2026-01-04 15:59:32.73	116.00	45.97	-30.4	-31.0	28.1	0.00e+00	0	40	0	2479882240	34	5742
2026-01-04 15:59:33.74	116.55	45.88	-30.6	-31.3	27.9	0.00e+00	0	40	0	2486173696	34	5934
2026-01-04 15:59:34.75	117.09	45.79	-30.9	-31.6	27.6	0.00e+00	0	40	0	2491416576	34	6161
2026-01-04 15:59:35.75	117.62	45.70	-31.0	-31.7	27.6	0.00e+00	0	40	0	2496659456	34	6198
2026-01-04 15:59:36.76	118.16	45.61	-30.9	-31.6	27.7	0.00e+00	0	40	0	2502950912	34	6117
2026-01-04 15:59:37.77	118.69	45.52	-31.0	-31.6	27.5	0.00e+00	0	40	0	2508193792	34	6142
2026-01-04 15:59:38.78	119.22	45.42	-31.2	-31.8	27.4	0.00e+00	0	40	0	2514485248	34	6272
2026-01-04 15:59:39.79	119.75	45.32	-31.0	-31.7	27.6	0.00e+00	0	40	0	2519728128	34	6212
2026-01-04 15:59:40.80	120.27	45.22	-30.2	-30.8	28.3	0.00e+00	0	40	0	2524971008	34	5578
2026-01-04 15:59:41.81	120.79	45.12	-30.4	-31.0	28.2	0.00e+00	0	40	0	2531262464	34	5735
2026-01-04 15:59:42.82	121.31	45.01	-30.3	-30.8	28.3	0.00e+00	0	40	0	2536505344	34	5617
2026-01-04 15:59:43.83	121.82	44.90	-30.3	-31.0	28.2	0.00e+00	0	40	0	2542796800	34	5758
2026-01-04 15:59:44.84	122.33	44.79	-30.5	-31.2	28.0	0.00e+00	0	40	0	2548039680	34	5890
2026-01-04 15:59:45.85	122.84	44.68	-30.7	-31.4	27.9	0.00e+00	0	40	0	2554331136	34	6003
2026-01-04 15:59:46.86	123.34	44.56	-30.6	-31.3	28.1	0.00e+00	0	40	0	2559574016	34	5909
2026-01-04 15:59:47.87	123.84	44.44	-30.7	-31.3	27.9	0.00e+00	0	40	0	2565865472	34	5956
2026-01-04 15:59:48.87	124.33	44.33	-31.2	-31.8	27.6	0.00e+00	0	40	0	2571108352	34	6255
2026-01-04 15:59:49.88	124.82	44.21	-31.5	-32.1	27.3	0.00e+00	0	40	0	2576351232	34	6515
2026-01-04 15:59:50.89	125.31	44.08	-31.2	-31.7	27.6	0.00e+00	0	40	0	2582642688	34	6228
2026-01-04 15:59:51.90	125.79	43.96	-30.4	-31.0	28.1	0.00e+00	0	40	0	2587885568	34	5702
2026-01-04 15:59:52.91	126.27	43.83	-30.2	-30.7	28.4	0.00e+00	0	40	0	2593128448	34	5553
2026-01-04 15:59:53.92	126.75	43.70	-30.2	-30.8	28.3	0.00e+00	0	40	0	2599419904	34	5575
2026-01-04 15:59:54.93	127.22	43.57	-30.4	-31.1	28.1	0.00e+00	0	40	0	2604662784	34	5788
2026-01-04 15:59:55.94	127.69	43.44	-30.3	-30.9	28.2	0.00e+00	0	40	0	2610954240	34	5638
2026-01-04 15:59:56.95	128.16	43.31	-30.2	-30.9	28.3	0.00e+00	0	40	0	2616197120	34	5644
2026-01-04 15:59:57.96	128.62	43.17	-30.1	-30.6	28.4	0.00e+00	0	40	0	2622488576	34	5479
2026-01-04 15:59:58.97	129.08	43.04	-30.2	-30.8	28.3	0.00e+00	0	40	0	2627731456	34	5628
2026-01-04 15:59:59.98	129.53	42.90	-30.6	-31.2	28.0	0.00e+00	0	40	0	2632974336	34	5830
2026-01-04 16:00:00.99	129.98	42.76	-30.5	-31.1	28.1	0.00e+00	0	40	0	2639265792	34	5815
2026-01-04 16:00:02.00	130.43	42.62	-30.3	-30.9	28.3	0.00e+00	0	40	0	2644508672	34	5644
2026-01-04 16:00:03.01	130.87	42.48	-30.1	-30.7	28.4	0.00e+00	0	40	0	2650800128	34	5555
2026-01-04 16:00:04.02	131.31	42.34	-30.0	-30.6	28.4	0.00e+00	0	40	0	2656043008	34	5447
2026-01-04 16:00:05.03	131.74	42.19	-30.1	-30.7	28.4	0.00e+00	0	40	0	2662334464	34	5510
2026-01-04 16:00:06.04	132.17	42.05	-30.1	-30.8	28.3	0.00e+00	0	40	0	2667577344	34	5567
2026-01-04 16:00:07.05	132.60	41.90	-30.2	-30.7	28.3	0.00e+00	0	40	0	2672820224	34	5566
2026-01-04 16:00:08.06	133.02	41.75	-30.2	-30.9	28.3	0.00e+00	0	40	0	2679111680	34	5638
2026-01-04 16:00:09.07	133.44	41.60	-30.1	-30.7	28.4	0.00e+00	0	40	0	2684354560	34	5523
2026-01-04 16:00:10.08	133.86	41.45	-29.9	-30.6	28.4	0.00e+00	0	40	0	2690646016	34	5440
2026-01-04 16:00:11.09	134.27	41.30	-29.9	-30.4	28.5	0.00e+00	0	40	0	2695888896	34	5355
2026-01-04 16:00:12.10	134.68	41.15	-29.9	-30.4	28.5	0.00e+00	0	40	0	2701131776	34	5371
2026-01-04 16:00:13.11	135.08	40.99	-30.1	-30.7	28.3	0.00e+00	0	40	0	2707423232	34	5551
2026-01-04 16:00:14.12	135.48	40.84	-30.1	-30.7	28.3	0.00e+00	0	40	0	2712666112	34	5532
2026-01-04 16:00:15.13	135.88	40.69	-30.2	-30.9	28.3	0.00e+00	0	40	0	2718957568	34	5636
2026-01-04 16:00:16.14	136.27	40.53	-30.2	-30.7	28.4	0.00e+00	0	40	0	2724200448	34	5566
2026-01-04 16:00:17.15	136.66	40.37	-30.1	-30.7	28.3	0.00e+00	0	40	0	2729443328	34	5531
2026-01-04 16:00:18.16	137.05	40.22	-30.1	-30.7	28.3	0.00e+00	0	40	0	2735734784	34	5543
2026-01-04 16:00:19.17	137.43	40.06	-30.1	-30.6	28.4	0.00e+00	0	40	0	2740977664	34	5491
2026-01-04 16:00:20.18	137.81	39.90	-30.1	-30.8	28.4	0.00e+00	0	40	0	2747269120	34	5582
2026-01-04 16:00:21.19	138.18	39.74	-30.0	-30.7	28.4	0.00e+00	0	40	0	2752512000	34	5509
2026-01-04 16:00:22.20	138.55	39.58	-30.0	-30.7	28.5	0.00e+00	0	40	0	2758803456	34	5561
2026-01-04 16:00:23.21	138.92	39.42	-30.1	-30.6	28.5	0.00e+00	0	40	0	2764046336	34	5481
2026-01-04 16:00:24.21	139.28	39.26	-30.0	-30.6	28.3	0.00e+00	0	40	0	2770337792	34	5445
2026-01-04 16:00:25.22	139.64	39.10	-29.9	-30.5	28.5	0.00e+00	0	40	0	2775580672	34	5387
2026-01-04 16:00:26.23	140.00	38.94	-29.9	-30.5	28.6	0.00e+00	0	40	0	2780823552	34	5432
2026-01-04 16:00:27.24	140.35	38.77	-29.7	-30.4	28.7	0.00e+00	0	40	0	2787115008	32	5967
2026-01-04 16:00:28.25	140.70	38.61	-29.6	-30.2	28.7	0.00e+00	0	40	0	2792357888	32	5844
2026-01-04 16:00:29.26	141.05	38.45	-29.7	-30.3	28.6	0.00e+00	0	40	0	2797600768	32	5905
2026-01-04 16:00:30.27	141.39	38.29	-29.7	-30.4	28.5	0.00e+00	0	40	0	2803892224	32	5993
2026-01-04 16:00:31.28	141.73	38.12	-29.6	-30.3	28.7	0.00e+00	0	40	0	2809135104	32	5948
2026-01-04 16:00:32.29	142.07	37.96	-29.7	-30.3	28.8	0.00e+00	0	40	0	2815426560	32	5952
2026-01-04 16:00:33.30	142.40	37.79	-29.7	-30.3	28.6	0.00e+00	0	40	0	2820669440	32	5920
2026-01-04 16:00:34.31	142.73	37.63	-29.6	-30.1	28.7	0.00e+00	0	40	0	2825912320	32	5816
2026-01-04 16:00:35.31	143.05	37.46	-29.6	-30.3	28.7	0.00e+00	0	40	0	2832203776	32	5922
2026-01-04 16:00:36.32	143.38	37.30	-29.7	-30.2	28.6	0.00e+00	0	40	0	2837446656	32	5863
2026-01-04 16:00:37.33	143.70	37.13	-29.7	-30.3	28.5	0.00e+00	0	40	0	2843738112	32	5952
2026-01-04 16:00:38.35	144.02	36.97	-29.8	-30.4	28.3	0.00e+00	0	40	0	2848980992	32	5992
2026-01-04 16:00:39.35	144.33	36.80	-29.9	-30.7	28.2	0.00e+00	0	40	0	2855272448	32	6174
2026-01-04 16:00:40.36	144.64	36.64	-30.2	-30.8	27.9	0.00e+00	0	40	0	2860515328	32	6307
2026-01-04 16:00:41.37	144.94	36.47	-30.1	-30.7	28.0	0.00e+00	0	40	0	2866806784	32	6174
2026-01-04 16:00:42.38	145.25	36.31	-29.9	-30.5	28.2	0.00e+00	0	40	0	2872049664	32	6079
2026-01-04 16:00:43.39	145.55	36.14	-29.8	-30.3	28.4	0.00e+00	0	40	0	2877292544	32	5959
2026-01-04 16:00:44.40	145.85	35.98	-29.7	-30.4	28.2	0.00e+00	0	40	0	2883584000	32	6014
2026-01-04 16:00:45.41	146.14	35.81	-29.7	-30.2	28.4	0.00e+00	0	40	0	2888826880	32	5871
2026-01-04 16:00:46.42	146.44	35.64	-29.7	-30.3	28.4	0.00e+00	0	40	0	2895118336	32	5913
2026-01-04 16:00:47.43	146.73	35.48	-29.7	-30.4	28.3	0.00e+00	0	40	0	2900361216	32	5973
2026-01-04 16:00:48.44	147.01	35.31	-29.9	-30.6	28.5	0.00e+00	0	40	0	2905604096	32	6112
2026-01-04 16:00:49.45	147.30	35.15	-30.2	-30.8	28.3	0.00e+00	0	40	0	2911895552	32	6256
2026-01-04 16:00:50.46	147.58	34.98	-30.0	-30.6	28.2	0.00e+00	0	40	0	2917138432	32	6110
2026-01-04 16:00:51.46	147.85	34.82	-29.9	-30.6	28.4	0.00e+00	0	40	0	2923429888	32	6141
2026-01-04 16:00:52.47	148.13	34.65	-29.8	-30.5	28.5	0.00e+00	0	40	0	2928672768	32	6095
2026-01-04 16:00:53.48	148.40	34.49	-30.0	-30.5	28.4	0.00e+00	0	40	0	2933915648	32	6071
2026-01-04 16:00:54.49	148.67	34.32	-30.0	-30.6	28.3	0.00e+00	0	40	0	2940207104	32	6152
2026-01-04 16:00:55.50	148.94	34.16	-30.1	-30.8	28.3	0.00e+00	0	40	0	2945449984	32	6310
2026-01-04 16:00:56.51	149.21	33.99	-30.0	-30.6	28.2	0.00e+00	0	40	0	2951741440	32	6127
2026-01-04 16:00:57.52	149.47	33.83	-30.2	-30.8	28.1	0.00e+00	0	40	0	2956984320	32	6297
2026-01-04 16:00:58.53	149.73	33.67	-30.1	-30.7	28.2	0.00e+00	0	40	0	2963275776	32	6211
2026-01-04 16:00:59.54	149.98	33.50	-30.1	-30.7	28.3	0.00e+00	0	40	0	2968518656	32	6175
2026-01-04 16:01:00.55	150.24	33.34	-30.0	-30.5	28.2	0.00e+00	0	40	0	2973761536	32	6086
2026-01-04 16:01:01.56	150.49	33.18	-30.0	-30.7	28.3	0.00e+00	0	40	0	2980052992	32	6209
2026-01-04 16:01:02.57	150.74	33.01	-29.9	-30.6	28.3	0.00e+00	0	40	0	2985295872	32	6118
2026-01-04 16:01:03.58	150.99	32.85	-30.0	-30.6	28.3	0.00e+00	0	40	0	2991587328	32	6140
2026-01-04 16:01:04.59	151.23	32.69	-30.0	-30.7	28.3	0.00e+00	0	40	0	2996830208	32	6209
2026-01-04 16:01:05.60	151.48	32.53	-30.0	-30.7	28.3	0.00e+00	0	40	0	3002073088	32	6221
2026-01-04 16:01:06.61	151.72	32.36	-30.0	-30.7	28.3	0.00e+00	0	40	0	3008364544	32	6227
2026-01-04 16:01:07.62	151.95	32.20	-30.0	-30.7	28.2	0.00e+00	0	40	0	3013607424	32	6215
2026-01-04 16:01:08.63	152.19	32.04	-30.0	-30.5	28.2	0.00e+00	0	40	0	3019898880	32	6096
2026-01-04 16:01:09.64	152.42	31.88	-30.0	-30.7	28.2	0.00e+00	0	40	0	3025141760	32	6199
2026-01-04 16:01:10.64	152.65	31.72	-30.0	-30.7	28.3	0.00e+00	0	40	0	3030384640	32	6214
2026-01-04 16:01:11.65	152.88	31.56	-30.1	-30.6	28.2	0.00e+00	0	40	0	3036676096	32	6135
2026-01-04 16:01:12.66	153.11	31.40	-30.1	-30.7	28.2	0.00e+00	0	40	0	3041918976	32	6179
2026-01-04 16:01:13.67	153.33	31.24	-30.2	-30.8	28.2	0.00e+00	0	40	0	3048210432	32	6259
2026-01-04 16:01:14.68	153.55	31.08	-30.0	-30.7	28.2	0.00e+00	0	40	0	3053453312	32	6241
2026-01-04 16:01:15.69	153.77	30.93	-30.0	-30.7	28.3	0.00e+00	0	40	0	3059744768	32	6237
2026-01-04 16:01:16.70	153.99	30.77	-30.1	-30.8	28.2	0.00e+00	0	40	0	3064987648	32	6276
2026-01-04 16:01:17.71	154.21	30.61	-29.9	-30.5	28.3	0.00e+00	0	40	0	3070230528	32	6062
2026-01-04 16:01:18.71	154.42	30.46	-29.9	-30.6	28.4	0.00e+00	0	40	0	3076521984	32	6147
2026-01-04 16:01:19.72	154.63	30.30	-30.0	-30.7	28.3	0.00e+00	0	40	0	3081764864	32	6177
2026-01-04 16:01:20.74	154.84	30.14	-30.0	-30.6	28.3	0.00e+00	0	40	0	3088056320	32	6170
2026-01-04 16:01:21.74	155.05	29.99	-30.0	-30.7	28.3	0.00e+00	0	40	0	3093299200	32	6187
2026-01-04 16:01:22.75	155.26	29.83	-30.0	-30.7	28.3	0.00e+00	0	40	0	3098542080	32	6220
2026-01-04 16:01:23.76	155.46	29.68	-30.3	-30.8	28.0	0.00e+00	0	40	0	3104833536	32	6301
2026-01-04 16:01:24.77	155.66	29.52	-30.2	-30.8	28.1	0.00e+00	0	40	0	3110076416	32	6261
2026-01-04 16:01:25.78	155.86	29.37	-30.4	-30.9	28.0	0.00e+00	0	40	0	3116367872	32	6384
2026-01-04 16:01:26.79	156.06	29.21	-30.5	-31.1	27.9	0.00e+00	0	40	0	3121610752	32	6480
2026-01-04 16:01:27.80	156.26	29.06	-30.6	-31.4	27.8	0.00e+00	0	40	0	3126853632	32	6702
2026-01-04 16:01:28.81	156.45	28.91	-30.6	-31.2	27.8	0.00e+00	0	40	0	3133145088	34	5843
2026-01-04 16:01:29.82	156.65	28.76	-30.7	-31.3	27.8	0.00e+00	0	40	0	3138387968	34	5912
2026-01-04 16:01:30.83	156.84	28.61	-30.7	-31.4	27.8	0.00e+00	0	40	0	3144679424	34	5975
2026-01-04 16:01:31.84	157.03	28.45	-30.5	-31.1	28.1	0.00e+00	0	40	0	3149922304	34	5826
2026-01-04 16:01:32.85	157.21	28.30	-30.2	-30.9	28.3	0.00e+00	0	40	0	3156213760	34	5640
2026-01-04 16:01:33.85	157.40	28.16	-30.1	-30.6	28.3	0.00e+00	0	40	0	3161456640	34	5485
2026-01-04 16:01:34.86	157.58	28.01	-30.1	-30.8	28.1	0.00e+00	0	40	0	3167748096	34	5602
2026-01-04 16:01:35.87	157.77	27.86	-30.1	-30.7	28.2	0.00e+00	0	40	0	3172990976	34	5525
2026-01-04 16:01:36.88	157.95	27.71	-30.2	-30.8	28.2	0.00e+00	0	40	0	3178233856	34	5575
2026-01-04 16:01:37.89	158.13	27.56	-30.0	-30.5	28.3	0.00e+00	0	40	0	3184525312	34	5424
2026-01-04 16:01:38.90	158.30	27.41	-30.1	-30.6	28.3	0.00e+00	0	40	0	3189768192	34	5476
2026-01-04 16:01:39.91	158.48	27.27	-30.1	-30.7	28.2	0.00e+00	0	40	0	3195011072	34	5515
2026-01-04 16:01:40.92	158.65	27.12	-30.1	-30.8	28.3	0.00e+00	0	40	0	3201302528	34	5593
2026-01-04 16:01:41.93	158.83	26.97	-30.3	-30.8	28.2	0.00e+00	0	40	0	3206545408	34	5616
2026-01-04 16:01:42.94	159.00	26.83	-30.2	-30.9	28.2	0.00e+00	0	40	0	3212836864	34	5678
2026-01-04 16:01:43.95	159.17	26.68	-30.3	-31.0	28.1	0.00e+00	0	40	0	3218079744	34	5719
2026-01-04 16:01:44.96	159.34	26.54	-30.3	-31.0	28.1	0.00e+00	0	40	0	3223322624	34	5725
2026-01-04 16:01:45.97	159.51	26.39	-30.3	-30.9	28.0	0.00e+00	0	40	0	3229614080	34	5668
2026-01-04 16:01:46.98	159.67	26.25	-30.3	-31.0	28.1	0.00e+00	0	40	0	3234856960	34	5732
2026-01-04 16:01:47.99	159.84	26.11	-30.5	-31.2	27.9	0.00e+00	0	40	0	3241148416	34	5854
2026-01-04 16:01:49.00	160.00	25.96	-30.4	-31.0	27.9	0.00e+00	0	40	0	3246391296	34	5738
2026-01-04 16:01:50.01	160.16	25.82	-30.5	-31.1	27.7	0.00e+00	0	40	0	3252682752	34	5773
2026-01-04 16:01:51.02	160.32	25.68	-30.4	-31.0	27.9	0.00e+00	0	40	0	3257925632	34	5733
2026-01-04 16:01:52.03	160.48	25.54	-30.3	-30.9	28.0	0.00e+00	0	40	0	3264217088	34	5657
2026-01-04 16:01:53.04	160.64	25.40	-30.3	-31.0	27.9	0.00e+00	0	40	0	3269459968	34	5727
2026-01-04 16:01:54.05	160.79	25.26	-30.3	-31.0	27.9	0.00e+00	0	40	0	3274702848	34	5744
2026-01-04 16:01:55.06	160.95	25.12	-30.3	-31.0	28.0	0.00e+00	0	40	0	3280994304	34	5724
2026-01-04 16:01:56.07	161.10	24.98	-30.5	-31.1	27.9	0.00e+00	0	40	0	3286237184	34	5772
2026-01-04 16:01:57.08	161.25	24.84	-30.4	-30.9	27.9	0.00e+00	0	40	0	3292528640	34	5663
2026-01-04 16:01:58.08	161.40	24.71	-30.3	-30.9	28.0	0.00e+00	0	40	0	3297771520	34	5654
2026-01-04 16:01:59.09	161.55	24.57	-30.4	-30.9	28.0	0.00e+00	0	40	0	3303014400	34	5670
2026-01-04 16:02:00.10	161.70	24.43	-30.5	-31.1	27.9	0.00e+00	0	40	0	3309305856	34	5766
2026-01-04 16:02:01.11	161.84	24.30	-30.5	-31.1	27.9	0.00e+00	0	40	0	3314548736	34	5784
2026-01-04 16:02:02.12	161.99	24.16	-30.5	-31.0	27.8	0.00e+00	0	40	0	3320840192	34	5759
2026-01-04 16:02:03.13	162.13	24.03	-30.5	-31.1	27.8	0.00e+00	0	40	0	3326083072	34	5795
2026-01-04 16:02:04.14	162.28	23.89	-30.6	-31.2	27.8	0.00e+00	0	40	0	3331325952	34	5851
2026-01-04 16:02:05.15	162.42	23.76	-30.6	-31.3	27.8	0.00e+00	0	40	0	3337617408	34	5904
2026-01-04 16:02:06.16	162.56	23.62	-30.6	-31.2	27.7	0.00e+00	0	40	0	3342860288	34	5845
2026-01-04 16:02:07.17	162.70	23.49	-30.8	-31.4	27.6	0.00e+00	0	40	0	3349151744	34	5976
2026-01-04 16:02:08.18	162.84	23.36	-30.8	-31.4	27.7	0.00e+00	0	40	0	3354394624	34	5983
2026-01-04 16:02:09.19	162.98	23.23	-30.8	-31.3	27.8	0.00e+00	0	40	0	3360686080	34	5943
2026-01-04 16:02:10.19	163.11	23.10	-30.9	-31.4	27.6	0.00e+00	0	40	0	3365928960	34	6014
2026-01-04 16:02:11.20	163.25	22.97	-30.9	-31.6	27.6	0.00e+00	0	40	0	3371171840	34	6141
2026-01-04 16:02:12.22	163.38	22.83	-31.0	-31.7	27.5	0.00e+00	0	40	0	3377463296	34	6208
2026-01-04 16:02:13.22	163.51	22.70	-30.9	-31.7	27.5	0.00e+00	0	40	0	3382706176	34	6175
2026-01-04 16:02:14.23	163.65	22.58	-31.0	-31.7	27.4	0.00e+00	0	40	0	3388997632	34	6237
2026-01-04 16:02:15.24	163.78	22.45	-31.1	-31.8	27.4	0.00e+00	0	40	0	3394240512	34	6262
2026-01-04 16:02:16.25	163.91	22.32	-31.1	-31.8	27.4	0.00e+00	0	40	0	3399483392	34	6273
2026-01-04 16:02:17.26	164.04	22.19	-31.2	-31.9	27.4	0.00e+00	0	40	0	3405774848	34	6335
2026-01-04 16:02:18.27	164.16	22.06	-31.2	-31.7	27.3	0.00e+00	0	40	0	3411017728	34	6236
2026-01-04 16:02:19.28	164.29	21.93	-31.4	-32.1	27.2	0.00e+00	0	40	0	3417309184	34	6533
2026-01-04 16:02:20.29	164.42	21.81	-31.8	-32.5	26.9	0.00e+00	0	40	0	3422552064	34	6835
2026-01-04 16:02:21.30	164.54	21.68	-31.4	-32.0	27.1	0.00e+00	0	40	0	3427794944	36	5706
2026-01-04 16:02:22.31	164.67	21.56	-31.3	-32.0	27.3	0.00e+00	0	40	0	3434086400	36	5752
2026-01-04 16:02:23.32	164.79	21.43	-31.3	-31.8	27.2	0.00e+00	0	40	0	3439329280	36	5626
2026-01-04 16:02:24.33	164.91	21.31	-31.2	-31.8	27.3	0.00e+00	0	40	0	3445620736	36	5592
2026-01-04 16:02:25.34	165.03	21.18	-31.3	-31.9	27.2	0.00e+00	0	40	0	3450863616	36	5653
2026-01-04 16:02:26.35	165.15	21.06	-31.2	-31.7	27.4	0.00e+00	0	40	0	3457155072	36	5544
2026-01-04 16:02:27.36	165.27	20.94	-31.2	-31.8	27.3	0.00e+00	0	40	0	3462397952	36	5595
2026-01-04 16:02:28.37	165.39	20.81	-31.3	-31.9	27.2	0.00e+00	0	40	0	3468689408	36	5640
2026-01-04 16:02:29.37	165.51	20.69	-31.2	-31.7	27.3	0.00e+00	0	40	0	3473932288	36	5549
2026-01-04 16:02:30.38	165.62	20.57	-31.3	-31.8	27.3	0.00e+00	0	40	0	3479175168	36	5620
2026-01-04 16:02:31.39	165.74	20.45	-31.3	-31.8	27.3	0.00e+00	0	40	0	3485466624	36	5623
2026-01-04 16:02:32.40	165.85	20.33	-31.3	-32.1	27.2	0.00e+00	0	40	0	3490709504	36	5762
2026-01-04 16:02:33.41	165.97	20.21	-31.3	-32.0	27.2	0.00e+00	0	40	0	3495952384	36	5758
2026-01-04 16:02:34.42	166.08	20.09	-31.4	-32.1	27.0	0.00e+00	0	40	0	3502243840	36	5800
2026-01-04 16:02:35.43	166.19	19.97	-31.5	-32.2	27.0	0.00e+00	0	40	0	3507486720	36	5861
2026-01-04 16:02:36.44	166.30	19.85	-31.5	-32.2	27.0	0.00e+00	0	40	0	3513778176	36	5880
2026-01-04 16:02:37.45	166.41	19.73	-31.6	-32.3	27.0	0.00e+00	0	40	0	3519021056	36	5913
2026-01-04 16:02:38.46	166.52	19.61	-31.7	-32.5	26.8	0.00e+00	0	40	0	3524263936	36	6053
2026-01-04 16:02:39.47	166.63	19.50	-31.8	-32.4	26.7	0.00e+00	0	40	0	3530555392	36	5977
2026-01-04 16:02:40.48	166.74	19.38	-31.6	-32.2	26.9	0.00e+00	0	40	0	3535798272	36	5868
2026-01-04 16:02:41.49	166.85	19.26	-31.5	-32.1	27.0	0.00e+00	0	40	0	3542089728	36	5775
2026-01-04 16:02:42.50	166.96	19.15	-31.6	-32.1	27.0	0.00e+00	0	40	0	3547332608	36	5825
2026-01-04 16:02:43.51	167.06	19.03	-31.6	-32.1	26.9	0.00e+00	0	40	0	3553624064	36	5825
2026-01-04 16:02:44.52	167.17	18.92	-31.6	-32.3	27.0	0.00e+00	0	40	0	3558866944	36	5940
2026-01-04 16:02:45.53	167.27	18.80	-31.8	-32.4	26.8	0.00e+00	0	40	0	3565158400	36	5994
2026-01-04 16:02:46.54	167.37	18.69	-31.9	-32.5	26.7	0.00e+00	0	40	0	3570401280	36	6056
2026-01-04 16:02:47.55	167.48	18.57	-31.7	-32.3	26.8	0.00e+00	0	40	0	3575644160	36	5928
2026-01-04 16:02:48.56	167.58	18.46	-31.7	-32.3	26.8	0.00e+00	0	40	0	3581935616	36	5911
2026-01-04 16:02:49.57	167.68	18.35	-31.8	-32.4	26.7	0.00e+00	0	40	0	3587178496	36	5995
2026-01-04 16:02:50.58	167.78	18.23	-31.9	-32.4	26.7	0.00e+00	0	40	0	3593469952	36	6016
2026-01-04 16:02:51.59	167.88	18.12	-31.9	-32.7	26.7	0.00e+00	0	40	0	3598712832	36	6181
2026-01-04 16:02:52.60	167.98	18.01	-31.8	-32.4	26.7	0.00e+00	0	40	0	3603955712	36	6004
2026-01-04 16:02:53.61	168.08	17.90	-31.9	-32.7	26.7	0.00e+00	0	40	0	3610247168	36	6178
2026-01-04 16:02:54.62	168.18	17.79	-32.0	-32.7	26.6	0.00e+00	0	40	0	3615490048	36	6191
2026-01-04 16:02:55.63	168.27	17.68	-32.1	-32.8	26.6	0.00e+00	0	40	0	3621781504	36	6285
2026-01-04 16:02:56.64	168.37	17.57	-32.1	-32.9	26.5	0.00e+00	0	40	0	3627024384	36	6339
2026-01-04 16:02:57.64	168.46	17.46	-32.2	-32.9	26.4	0.00e+00	0	40	0	3632267264	36	6366
2026-01-04 16:02:58.65	168.56	17.35	-32.2	-32.7	26.4	0.00e+00	0	40	0	3638558720	36	6244
2026-01-04 16:02:59.66	168.65	17.24	-32.3	-33.0	26.3	0.00e+00	0	40	0	3643801600	36	6444
2026-01-04 16:03:00.67	168.75	17.13	-32.1	-32.9	26.4	0.00e+00	0	40	0	3650093056	36	6336
