passes_logs/2026/01/04/R4.6S_Anadyr/R4.6S_Anadyr__20260104_124031_NOAA_21_JPSS-2_rec.log

#Pass ID: 20260104_124031_NOAA 21 (JPSS-2)
#Satellite: NOAA 21 (JPSS-2)
#Configuration: NOAA-21
#almurnet v.1.7.20251203
#Start time: 2026-01-04 12:40:32

#Version: 2.2.20231116
#Station: R4.6S_Anadyr
#Location: 177.4865 lon 64.73178 lat
#TLE: 1 54234U 22150A   26003.45311712  .00000198  00000+0  11468-3 0  9993
#TLE: 2 54234  98.7487 304.4932 0001159 347.5017  12.6130 14.19531745163172

#Time	Az	El	Level	Level2	SNR	BER	BlckErr	Temp	State	Recorded	gain1	gain2
2026-01-04 12:40:32.79	18.80	0.07	-50.7	-65.6	3.6	1.51e+00	0	37	0	0	60	69169
2026-01-04 12:40:33.79	18.87	0.12	-52.3	-65.1	3.5	1.52e+00	0	39	104	0	60	63497
2026-01-04 12:40:34.80	18.94	0.17	-50.8	-63.7	3.5	1.51e+00	0	39	104	0	60	53589
2026-01-04 12:40:35.81	19.00	0.22	-50.8	-63.7	3.5	1.52e+00	0	39	104	0	60	53626
2026-01-04 12:40:36.83	19.07	0.27	-50.3	-63.2	3.5	1.51e+00	0	39	104	0	60	50830
2026-01-04 12:40:37.83	19.13	0.33	-50.2	-63.1	3.5	1.52e+00	0	39	104	0	60	50116
2026-01-04 12:40:38.84	19.20	0.38	-50.1	-63.0	3.5	1.52e+00	0	39	104	0	60	49699
2026-01-04 12:40:39.85	19.27	0.43	-50.0	-62.9	3.5	1.52e+00	0	39	104	0	60	48898
2026-01-04 12:40:40.86	19.33	0.48	-49.9	-62.8	3.5	1.52e+00	0	39	104	0	60	48288
2026-01-04 12:40:41.87	19.40	0.53	-49.9	-62.7	3.5	1.52e+00	0	39	104	0	60	48094
2026-01-04 12:40:42.88	19.47	0.59	-49.8	-62.7	3.5	1.52e+00	0	39	104	0	60	47743
2026-01-04 12:40:43.89	19.54	0.64	-49.7	-62.5	3.5	1.52e+00	0	39	104	0	60	46998
2026-01-04 12:40:44.90	19.60	0.69	-49.6	-62.4	3.5	1.52e+00	0	39	104	0	60	46528
2026-01-04 12:40:45.91	19.67	0.75	-49.4	-62.3	3.5	1.51e+00	0	39	104	0	60	45633
2026-01-04 12:40:46.92	19.74	0.80	-49.2	-62.1	3.5	1.52e+00	0	39	104	0	60	44753
2026-01-04 12:40:47.93	19.81	0.85	-49.0	-61.8	3.5	1.52e+00	0	39	104	0	60	43226
2026-01-04 12:40:48.93	19.88	0.90	-48.3	-61.1	3.5	1.52e+00	0	39	104	0	60	39724
2026-01-04 12:40:49.95	19.95	0.96	-48.1	-60.9	3.5	1.52e+00	0	39	104	0	60	38987
2026-01-04 12:40:50.95	20.02	1.01	-48.1	-60.9	3.5	1.52e+00	0	39	104	0	60	38828
2026-01-04 12:40:51.97	20.09	1.06	-48.3	-61.1	3.5	1.52e+00	0	39	104	0	60	39612
2026-01-04 12:40:52.97	20.16	1.12	-48.2	-61.0	3.5	1.52e+00	0	39	104	0	60	39388
2026-01-04 12:40:53.99	20.23	1.17	-48.2	-60.9	3.5	1.52e+00	0	39	104	0	60	39141
2026-01-04 12:40:55.00	20.30	1.22	-48.2	-61.0	3.5	1.52e+00	0	39	104	0	60	39277
2026-01-04 12:40:56.01	20.37	1.28	-48.2	-61.0	3.5	1.52e+00	0	39	104	0	60	39390
2026-01-04 12:40:57.01	20.44	1.33	-48.1	-61.0	3.5	1.52e+00	0	39	104	0	60	39278
2026-01-04 12:40:58.02	20.51	1.38	-48.1	-61.0	3.5	1.52e+00	0	39	104	0	60	39304
2026-01-04 12:40:59.03	20.58	1.44	-48.2	-61.0	3.5	1.52e+00	0	39	104	0	60	39456
2026-01-04 12:41:00.04	20.65	1.49	-48.2	-61.0	3.5	1.52e+00	0	39	104	0	60	39560
2026-01-04 12:41:01.05	20.72	1.54	-48.2	-61.0	3.5	1.51e+00	0	39	104	0	60	39389
2026-01-04 12:41:02.06	20.79	1.60	-48.1	-61.0	3.5	1.52e+00	0	39	104	0	60	39244
2026-01-04 12:41:03.07	20.87	1.65	-48.2	-61.0	3.5	1.52e+00	0	39	104	0	60	39504
2026-01-04 12:41:04.08	20.94	1.70	-48.2	-60.9	3.5	1.52e+00	0	39	104	0	60	38807
2026-01-04 12:41:05.09	21.01	1.76	-48.2	-60.8	3.5	1.52e+00	0	39	104	0	60	38462
2026-01-04 12:41:06.10	21.08	1.81	-48.1	-60.8	3.5	1.52e+00	0	39	104	0	60	38306
2026-01-04 12:41:07.11	21.16	1.87	-48.1	-60.8	3.5	1.52e+00	0	39	104	0	60	38676
2026-01-04 12:41:08.12	21.23	1.92	-48.1	-60.9	3.5	1.52e+00	0	39	104	0	60	38911
2026-01-04 12:41:09.13	21.30	1.98	-48.1	-60.9	3.5	1.51e+00	0	40	104	0	60	38873
2026-01-04 12:41:10.14	21.38	2.03	-48.1	-60.9	3.5	1.52e+00	0	39	104	0	60	38825
2026-01-04 12:41:11.15	21.45	2.08	-48.1	-60.8	3.5	1.52e+00	0	39	104	0	60	38614
2026-01-04 12:41:12.16	21.53	2.14	-48.2	-60.8	3.5	1.52e+00	0	39	104	0	60	38612
2026-01-04 12:41:13.17	21.60	2.19	-48.1	-60.7	3.5	1.51e+00	0	39	104	0	60	37974
2026-01-04 12:41:14.18	21.67	2.25	-48.2	-60.6	3.5	1.52e+00	0	39	104	0	60	37653
2026-01-04 12:41:15.19	21.75	2.30	-48.1	-60.0	3.5	1.52e+00	0	39	104	0	60	35270
2026-01-04 12:41:16.20	21.82	2.36	-48.1	-60.0	3.5	1.52e+00	0	39	104	0	60	35119
2026-01-04 12:41:17.21	21.90	2.41	-48.1	-60.3	3.5	1.52e+00	0	39	104	0	60	36257
2026-01-04 12:41:18.22	21.98	2.47	-48.0	-59.6	3.5	1.51e+00	0	39	104	0	60	33641
2026-01-04 12:41:19.23	22.05	2.52	-47.5	-55.8	5.3	1.41e+00	0	39	104	0	60	21553
2026-01-04 12:41:20.24	22.13	2.58	-46.5	-51.1	9.0	8.28e-02	120	40	0	1048576	60	12629
2026-01-04 12:41:21.25	22.21	2.63	-44.1	-46.7	13.4	1.44e-03	123	39	0	4194304	60	7613
2026-01-04 12:41:22.26	22.28	2.69	-42.5	-44.4	15.2	0.00e+00	123	40	0	7340032	58	6563
2026-01-04 12:41:23.27	22.36	2.74	-41.6	-43.3	17.2	0.00e+00	123	39	0	10485760	56	6437
2026-01-04 12:41:24.27	22.44	2.80	-40.2	-41.7	18.3	0.00e+00	123	39	0	13631488	54	6020
2026-01-04 12:41:25.28	22.51	2.85	-39.9	-41.3	18.7	0.00e+00	122	39	0	16777216	54	5772
2026-01-04 12:41:26.29	22.59	2.91	-40.0	-41.4	18.6	0.00e+00	122	40	0	19922944	54	5839
2026-01-04 12:41:27.30	22.67	2.96	-40.7	-42.2	17.9	0.00e+00	122	40	0	23068672	52	7184
2026-01-04 12:41:28.31	22.75	3.02	-41.3	-43.0	17.0	0.00e+00	123	39	0	26214400	54	6989
2026-01-04 12:41:29.32	22.83	3.07	-43.4	-45.7	14.4	0.00e+00	123	39	0	29360128	56	8532
2026-01-04 12:41:30.33	22.91	3.13	-42.2	-44.0	16.5	3.80e-06	123	40	0	32505856	60	5545
2026-01-04 12:41:31.34	22.99	3.18	-40.9	-42.4	18.3	0.00e+00	122	40	0	35651584	54	6542
2026-01-04 12:41:32.35	23.07	3.24	-40.9	-42.5	16.6	0.00e+00	122	40	0	38797312	52	7400
2026-01-04 12:41:33.36	23.15	3.30	-47.9	-59.1	3.6	1.52e+00	0	40	104	39845888	60	31505
2026-01-04 12:41:34.37	23.23	3.35	-42.2	-44.4	17.2	3.54e-01	123	40	104	39845888	60	5795
2026-01-04 12:41:35.38	23.31	3.41	-44.8	-47.4	14.0	2.26e-03	123	40	0	41943040	60	8187
2026-01-04 12:41:36.39	23.39	3.46	-41.3	-42.8	17.8	0.00e+00	122	40	0	45088768	56	6130
2026-01-04 12:41:37.39	23.47	3.52	-40.6	-42.0	18.6	0.00e+00	120	40	0	48234496	54	6236
2026-01-04 12:41:38.41	23.55	3.58	-40.9	-42.3	18.6	0.00e+00	123	40	0	51380224	54	6472
2026-01-04 12:41:39.41	23.63	3.63	-40.6	-42.0	18.4	0.00e+00	121	40	0	54525952	54	6221
2026-01-04 12:41:40.42	23.71	3.69	-40.7	-42.1	18.2	0.00e+00	122	40	0	57671680	54	6342
2026-01-04 12:41:41.43	23.79	3.75	-40.6	-42.0	18.8	0.00e+00	120	40	0	60817408	54	6254
2026-01-04 12:41:42.44	23.88	3.80	-40.8	-42.2	18.5	0.00e+00	123	40	0	63963136	54	6379
2026-01-04 12:41:43.45	23.96	3.86	-40.3	-41.6	19.0	0.00e+00	122	40	0	67108864	54	5964
2026-01-04 12:41:44.46	24.04	3.92	-40.2	-41.6	19.0	0.00e+00	122	40	0	70254592	52	6691
2026-01-04 12:41:45.47	24.13	3.97	-40.2	-41.6	19.1	0.00e+00	123	40	0	73400320	52	6663
2026-01-04 12:41:46.48	24.21	4.03	-40.0	-41.3	19.2	0.00e+00	120	40	0	76546048	52	6476
2026-01-04 12:41:47.49	24.29	4.09	-40.1	-41.5	19.2	0.00e+00	123	40	0	79691776	54	5871
2026-01-04 12:41:48.50	24.38	4.14	-40.5	-41.9	19.0	0.00e+00	120	40	0	82837504	54	6157
2026-01-04 12:41:49.51	24.46	4.20	-40.9	-42.4	18.3	0.00e+00	123	40	0	85983232	54	6502
2026-01-04 12:41:50.52	24.55	4.26	-41.3	-42.8	17.9	0.00e+00	123	40	0	89128960	54	6842
2026-01-04 12:41:51.53	24.63	4.31	-41.1	-42.6	18.3	0.00e+00	123	40	0	92274688	54	6670
2026-01-04 12:41:52.54	24.72	4.37	-40.4	-41.8	18.9	0.00e+00	121	40	0	95420416	54	6109
2026-01-04 12:41:53.55	24.81	4.43	-40.2	-41.5	19.2	0.00e+00	123	40	0	98566144	52	6615
2026-01-04 12:41:54.56	24.89	4.49	-40.1	-41.4	19.4	0.00e+00	120	40	0	101711872	52	6501
2026-01-04 12:41:55.57	24.98	4.54	-39.8	-41.0	19.8	0.00e+00	122	40	0	104857600	52	6276
2026-01-04 12:41:56.58	25.07	4.60	-39.9	-41.1	19.5	0.00e+00	120	40	0	108003328	52	6338
2026-01-04 12:41:57.59	25.15	4.66	-39.5	-40.7	19.9	0.00e+00	120	40	0	111149056	52	6018
2026-01-04 12:41:58.60	25.24	4.72	-39.9	-41.1	19.6	0.00e+00	123	40	0	114294784	52	6331
2026-01-04 12:41:59.61	25.33	4.77	-39.5	-40.7	20.0	0.00e+00	123	40	0	117440512	52	6015
2026-01-04 12:42:00.62	25.42	4.83	-39.5	-40.7	19.8	0.00e+00	123	40	0	120586240	52	6037
2026-01-04 12:42:01.63	25.51	4.89	-39.6	-40.8	19.9	0.00e+00	122	40	0	123731968	52	6100
2026-01-04 12:42:02.64	25.59	4.95	-39.4	-40.7	20.1	0.00e+00	123	40	0	126877696	52	6007
2026-01-04 12:42:03.65	25.68	5.01	-39.3	-40.4	20.3	0.00e+00	120	40	0	130023424	52	5856
2026-01-04 12:42:04.66	25.77	5.06	-39.4	-40.6	20.2	0.00e+00	122	40	0	133169152	52	5958
2026-01-04 12:42:05.66	25.86	5.12	-39.4	-40.7	20.1	0.00e+00	120	40	0	136314880	52	5999
2026-01-04 12:42:06.67	25.95	5.18	-39.2	-40.4	20.3	0.00e+00	123	40	0	139460608	52	5805
2026-01-04 12:42:07.68	26.04	5.24	-39.4	-40.6	20.2	0.00e+00	121	40	0	142606336	52	5960
2026-01-04 12:42:08.69	26.13	5.30	-39.3	-40.5	20.3	0.00e+00	123	40	0	145752064	52	5897
2026-01-04 12:42:09.70	26.22	5.35	-39.5	-40.7	20.1	0.00e+00	120	40	0	148897792	52	6008
2026-01-04 12:42:10.71	26.32	5.41	-39.5	-40.7	20.1	0.00e+00	123	40	0	152043520	52	6030
2026-01-04 12:42:11.72	26.41	5.47	-39.7	-41.0	20.0	0.00e+00	120	40	0	155189248	52	6231
2026-01-04 12:42:12.73	26.50	5.53	-39.5	-40.7	20.2	0.00e+00	122	40	0	158334976	52	6003
2026-01-04 12:42:13.74	26.59	5.59	-39.3	-40.5	20.2	0.00e+00	120	40	0	161480704	52	5907
2026-01-04 12:42:14.75	26.69	5.65	-39.2	-40.4	20.4	0.00e+00	123	40	0	164626432	52	5827
2026-01-04 12:42:15.76	26.78	5.71	-39.2	-40.3	20.6	0.00e+00	122	40	0	167772160	52	5776
2026-01-04 12:42:16.77	26.87	5.77	-39.3	-40.5	20.4	0.00e+00	123	40	0	170917888	52	5905
2026-01-04 12:42:17.77	26.97	5.82	-39.1	-40.2	20.6	0.00e+00	123	40	0	174063616	52	5723
2026-01-04 12:42:18.78	27.06	5.88	-39.3	-40.4	20.4	0.00e+00	122	40	0	177209344	52	5855
2026-01-04 12:42:19.79	27.16	5.94	-39.3	-40.5	20.4	0.00e+00	120	40	0	180355072	52	5888
2026-01-04 12:42:20.80	27.25	6.00	-39.5	-40.7	20.2	0.00e+00	122	40	0	183500800	52	6020
2026-01-04 12:42:21.81	27.35	6.06	-38.9	-40.0	20.8	0.00e+00	122	40	0	186646528	52	5592
2026-01-04 12:42:22.82	27.44	6.12	-39.0	-40.1	20.7	0.00e+00	123	40	0	189792256	52	5642
2026-01-04 12:42:23.83	27.54	6.18	-38.9	-40.0	20.8	0.00e+00	123	40	0	192937984	52	5554
2026-01-04 12:42:24.84	27.63	6.24	-39.0	-40.2	20.7	0.00e+00	122	40	0	196083712	52	5683
2026-01-04 12:42:25.85	27.73	6.30	-39.1	-40.3	20.7	0.00e+00	123	40	0	199229440	52	5733
2026-01-04 12:42:26.86	27.83	6.36	-39.1	-40.3	20.5	0.00e+00	123	40	0	202375168	52	5752
2026-01-04 12:42:27.87	27.93	6.42	-39.0	-40.1	20.7	0.00e+00	120	40	0	205520896	52	5645
2026-01-04 12:42:28.88	28.02	6.48	-39.2	-40.4	20.6	0.00e+00	123	40	0	208666624	52	5805
2026-01-04 12:42:29.89	28.12	6.54	-39.1	-40.2	20.7	0.00e+00	122	40	0	211812352	52	5714
2026-01-04 12:42:30.90	28.22	6.60	-39.0	-40.1	20.9	0.00e+00	123	40	0	216006656	52	5629
2026-01-04 12:42:31.91	28.32	6.66	-38.9	-40.0	20.8	0.00e+00	123	40	0	219152384	52	5593
2026-01-04 12:42:32.92	28.42	6.72	-39.0	-40.2	20.9	0.00e+00	123	40	0	221249536	52	5661
2026-01-04 12:42:33.93	28.52	6.78	-38.9	-40.0	21.0	0.00e+00	121	40	0	224395264	52	5573
2026-01-04 12:42:34.94	28.62	6.84	-38.9	-40.0	20.9	0.00e+00	122	40	0	227540992	52	5551
2026-01-04 12:42:35.95	28.72	6.90	-38.7	-39.8	21.0	0.00e+00	123	40	0	231735296	50	6098
2026-01-04 12:42:36.96	28.82	6.96	-39.0	-40.1	20.8	0.00e+00	122	40	0	234881024	50	6339
2026-01-04 12:42:37.97	28.93	7.02	-39.0	-40.2	20.7	0.00e+00	123	40	0	238026752	50	6368
2026-01-04 12:42:38.98	29.03	7.08	-38.9	-40.0	21.0	0.00e+00	123	40	0	241172480	50	6230
2026-01-04 12:42:39.99	29.13	7.14	-39.0	-40.1	20.8	0.00e+00	122	40	0	243269632	50	6338
2026-01-04 12:42:41.00	29.23	7.20	-38.9	-40.1	20.7	0.00e+00	123	40	0	246415360	50	6283
2026-01-04 12:42:42.01	29.34	7.26	-39.1	-40.2	20.7	0.00e+00	123	40	0	250609664	50	6398
2026-01-04 12:42:43.02	29.44	7.32	-39.2	-40.3	20.7	0.00e+00	122	40	0	253755392	50	6483
2026-01-04 12:42:44.03	29.54	7.38	-38.9	-40.1	20.8	0.00e+00	123	40	0	256901120	50	6293
2026-01-04 12:42:45.04	29.65	7.45	-38.9	-40.0	20.9	0.00e+00	118	40	0	260046848	50	6251
2026-01-04 12:42:46.05	29.75	7.51	-38.9	-40.1	20.9	0.00e+00	122	40	0	263192576	50	6294
2026-01-04 12:42:47.06	29.86	7.57	-38.5	-39.6	21.4	0.00e+00	122	40	0	266338304	50	5967
2026-01-04 12:42:48.07	29.96	7.63	-38.5	-39.6	21.3	0.00e+00	122	40	0	269484032	50	5974
2026-01-04 12:42:49.08	30.07	7.69	-38.5	-39.6	21.4	0.00e+00	123	40	0	272629760	50	5960
2026-01-04 12:42:50.09	30.18	7.75	-38.4	-39.5	21.4	0.00e+00	123	40	0	275775488	50	5911
2026-01-04 12:42:51.10	30.28	7.81	-38.4	-39.5	21.5	0.00e+00	122	40	0	278921216	50	5878
2026-01-04 12:42:52.11	30.39	7.87	-38.2	-39.3	21.6	0.00e+00	123	40	0	282066944	50	5761
2026-01-04 12:42:53.12	30.50	7.94	-38.3	-39.3	21.6	0.00e+00	123	40	0	285212672	50	5774
2026-01-04 12:42:54.13	30.61	8.00	-38.2	-39.2	21.6	0.00e+00	121	40	0	288358400	50	5719
2026-01-04 12:42:55.14	30.72	8.06	-38.4	-39.4	21.5	0.00e+00	122	40	0	291504128	50	5851
2026-01-04 12:42:56.15	30.83	8.12	-38.2	-39.3	21.6	0.00e+00	122	40	0	294649856	50	5746
2026-01-04 12:42:57.16	30.94	8.18	-38.3	-39.4	21.5	0.00e+00	122	40	0	297795584	50	5834
2026-01-04 12:42:58.17	31.05	8.24	-38.2	-39.2	21.6	0.00e+00	123	40	0	300941312	50	5718
2026-01-04 12:42:59.18	31.16	8.31	-38.2	-39.3	21.7	0.00e+00	122	40	0	304087040	50	5764
2026-01-04 12:43:00.18	31.27	8.37	-38.1	-39.1	21.7	0.00e+00	123	40	0	307232768	50	5651
2026-01-04 12:43:01.19	31.38	8.43	-38.1	-39.2	21.8	0.00e+00	123	40	0	310378496	50	5678
2026-01-04 12:43:02.20	31.49	8.49	-37.8	-38.8	22.0	0.00e+00	122	40	0	313524224	50	5439
2026-01-04 12:43:03.21	31.60	8.55	-38.0	-39.0	21.9	0.00e+00	122	40	0	316669952	50	5585
2026-01-04 12:43:04.22	31.72	8.62	-37.8	-38.8	22.0	0.00e+00	123	40	0	319815680	50	5459
2026-01-04 12:43:05.23	31.83	8.68	-37.8	-38.9	22.0	0.00e+00	123	40	0	322961408	50	5490
2026-01-04 12:43:06.24	31.94	8.74	-37.8	-38.8	22.0	0.00e+00	122	40	0	326107136	48	6131
2026-01-04 12:43:07.25	32.06	8.80	-37.9	-39.0	21.8	0.00e+00	122	40	0	329252864	48	6215
2026-01-04 12:43:08.26	32.17	8.86	-37.8	-38.8	21.9	0.00e+00	122	40	0	332398592	48	6126
2026-01-04 12:43:09.27	32.29	8.93	-37.9	-39.0	21.9	0.00e+00	123	40	0	335544320	48	6220
2026-01-04 12:43:10.28	32.40	8.99	-37.9	-39.0	21.9	0.00e+00	123	40	0	338690048	48	6212
2026-01-04 12:43:11.29	32.52	9.05	-37.6	-38.7	22.0	0.00e+00	123	40	0	341835776	48	6004
2026-01-04 12:43:12.30	32.63	9.12	-37.6	-38.7	22.2	0.00e+00	122	40	0	344981504	48	5998
2026-01-04 12:43:13.31	32.75	9.18	-37.3	-38.3	22.5	0.00e+00	120	40	0	348127232	48	5770
2026-01-04 12:43:14.32	32.87	9.24	-37.7	-38.7	22.1	0.00e+00	123	40	0	351272960	48	6036
2026-01-04 12:43:15.33	32.99	9.30	-37.5	-38.5	22.3	0.00e+00	122	40	0	354418688	48	5873
2026-01-04 12:43:16.34	33.11	9.37	-37.7	-38.7	22.2	0.00e+00	123	40	0	357564416	48	6047
2026-01-04 12:43:17.35	33.22	9.43	-37.7	-38.7	22.1	0.00e+00	122	40	0	360710144	48	6049
2026-01-04 12:43:18.36	33.34	9.49	-37.5	-38.5	22.3	0.00e+00	120	40	0	363855872	48	5912
2026-01-04 12:43:19.37	33.46	9.56	-37.5	-38.5	22.3	0.00e+00	123	40	0	367001600	48	5908
2026-01-04 12:43:20.38	33.58	9.62	-37.6	-38.6	22.2	0.00e+00	123	40	0	370147328	48	5957
2026-01-04 12:43:21.39	33.71	9.68	-37.5	-38.5	22.4	0.00e+00	123	40	0	373293056	48	5889
2026-01-04 12:43:22.40	33.83	9.74	-37.7	-38.7	22.2	0.00e+00	123	40	0	376438784	48	6015
2026-01-04 12:43:23.41	33.95	9.81	-37.9	-38.9	22.0	0.00e+00	122	40	0	379584512	48	6161
2026-01-04 12:43:24.42	34.07	9.87	-37.5	-38.5	22.4	0.00e+00	123	40	0	382730240	48	5907
2026-01-04 12:43:25.43	34.19	9.93	-37.6	-38.6	22.5	0.00e+00	123	40	0	385875968	48	5963
2026-01-04 12:43:26.44	34.32	10.00	-37.5	-38.5	22.4	0.00e+00	122	40	0	389021696	48	5892
2026-01-04 12:43:27.44	34.44	10.06	-37.2	-38.2	22.7	0.00e+00	120	40	0	392167424	48	5701
2026-01-04 12:43:28.45	34.57	10.12	-37.3	-38.3	22.5	0.00e+00	122	40	0	395313152	48	5769
2026-01-04 12:43:29.46	34.69	10.19	-37.1	-38.1	22.7	0.00e+00	122	40	0	398458880	48	5604
2026-01-04 12:43:30.48	34.82	10.25	-37.0	-38.0	22.8	0.00e+00	123	40	0	401604608	48	5579
2026-01-04 12:43:31.49	34.94	10.32	-36.9	-37.9	22.8	0.00e+00	123	40	0	404750336	48	5505
2026-01-04 12:43:32.50	35.07	10.38	-37.0	-38.0	22.8	0.00e+00	122	40	0	407896064	48	5548
2026-01-04 12:43:33.51	35.20	10.44	-36.7	-37.7	23.0	0.00e+00	122	40	0	411041792	46	6013
2026-01-04 12:43:34.52	35.32	10.51	-36.8	-37.7	23.2	0.00e+00	123	40	0	414187520	46	6033
2026-01-04 12:43:35.53	35.45	10.57	-36.8	-37.7	23.0	0.00e+00	123	40	0	417333248	46	6062
2026-01-04 12:43:36.54	35.58	10.64	-37.1	-38.0	22.8	0.00e+00	122	40	0	420478976	46	6268
2026-01-04 12:43:37.55	35.71	10.70	-36.9	-37.9	22.8	0.00e+00	120	40	0	423624704	46	6170
2026-01-04 12:43:38.56	35.84	10.76	-37.0	-37.9	22.8	0.00e+00	123	40	0	426770432	46	6190
2026-01-04 12:43:39.57	35.97	10.83	-37.0	-38.0	22.7	0.00e+00	122	40	0	429916160	46	6231
2026-01-04 12:43:40.58	36.10	10.89	-37.0	-38.0	22.7	0.00e+00	123	40	0	433061888	46	6256
2026-01-04 12:43:41.59	36.23	10.95	-36.8	-37.8	22.9	0.00e+00	120	40	0	436207616	46	6097
2026-01-04 12:43:42.60	36.37	11.02	-36.7	-37.6	23.1	0.00e+00	122	40	0	439353344	46	5978
2026-01-04 12:43:43.61	36.50	11.08	-36.7	-37.7	23.0	0.00e+00	122	40	0	442499072	46	6015
2026-01-04 12:43:44.62	36.63	11.15	-36.6	-37.6	23.1	0.00e+00	123	40	0	445644800	46	5940
2026-01-04 12:43:45.63	36.77	11.21	-36.6	-37.6	23.1	0.00e+00	120	40	0	448790528	46	5951
2026-01-04 12:43:46.64	36.90	11.28	-36.9	-37.9	22.9	0.00e+00	122	40	0	451936256	46	6177
2026-01-04 12:43:47.65	37.03	11.34	-36.8	-37.8	23.1	0.00e+00	120	40	0	455081984	46	6068
2026-01-04 12:43:48.66	37.17	11.40	-36.8	-37.8	23.0	0.00e+00	122	40	0	458227712	46	6078
2026-01-04 12:43:49.67	37.31	11.47	-36.8	-37.8	22.9	0.00e+00	123	40	0	461373440	46	6104
2026-01-04 12:43:50.68	37.44	11.53	-36.7	-37.7	23.0	0.00e+00	123	40	0	464519168	46	6037
2026-01-04 12:43:51.69	37.58	11.60	-37.0	-38.0	22.8	0.00e+00	123	40	0	467664896	46	6209
2026-01-04 12:43:52.69	37.72	11.66	-36.8	-37.8	22.9	0.00e+00	120	40	0	470810624	46	6068
2026-01-04 12:43:53.70	37.85	11.73	-36.9	-37.8	22.9	0.00e+00	122	40	0	473956352	46	6132
2026-01-04 12:43:54.72	38.00	11.79	-36.9	-37.9	22.9	0.00e+00	122	40	0	477102080	46	6148
2026-01-04 12:43:55.73	38.13	11.86	-37.0	-38.0	22.9	0.00e+00	123	40	0	480247808	46	6218
2026-01-04 12:43:56.73	38.27	11.92	-36.9	-37.9	22.9	0.00e+00	120	40	0	483393536	46	6194
2026-01-04 12:43:57.74	38.41	11.98	-37.0	-38.0	22.9	0.00e+00	123	40	0	486539264	46	6212
2026-01-04 12:43:58.75	38.56	12.05	-37.1	-38.1	22.9	0.00e+00	121	40	0	489684992	46	6318
2026-01-04 12:43:59.76	38.70	12.11	-37.0	-38.0	22.9	0.00e+00	123	40	0	492830720	46	6221
2026-01-04 12:44:00.77	38.84	12.18	-37.1	-38.1	22.8	0.00e+00	120	40	0	495976448	46	6295
2026-01-04 12:44:01.78	38.98	12.24	-37.0	-38.0	23.0	0.00e+00	122	40	0	499122176	46	6219
2026-01-04 12:44:02.79	39.13	12.31	-36.8	-37.8	23.1	0.00e+00	120	40	0	502267904	46	6096
2026-01-04 12:44:03.80	39.27	12.37	-36.8	-37.8	23.1	0.00e+00	122	40	0	505413632	46	6101
2026-01-04 12:44:04.81	39.42	12.44	-36.6	-37.6	23.2	0.00e+00	122	40	0	508559360	46	5959
2026-01-04 12:44:05.82	39.56	12.50	-36.7	-37.6	23.2	0.00e+00	123	40	0	511705088	46	5979
2026-01-04 12:44:06.82	39.71	12.56	-36.7	-37.7	23.1	0.00e+00	123	40	0	514850816	46	6037
2026-01-04 12:44:07.83	39.85	12.63	-36.9	-37.9	22.9	0.00e+00	123	40	0	517996544	46	6177
2026-01-04 12:44:08.84	40.00	12.69	-36.6	-37.5	23.2	0.00e+00	122	40	0	521142272	46	5919
2026-01-04 12:44:09.85	40.15	12.76	-36.7	-37.6	23.2	0.00e+00	123	40	0	524288000	46	5992
2026-01-04 12:44:10.86	40.30	12.82	-36.7	-37.6	23.3	0.00e+00	120	40	0	527433728	46	5986
2026-01-04 12:44:11.87	40.45	12.89	-36.6	-37.6	23.2	0.00e+00	123	40	0	530579456	46	5969
2026-01-04 12:44:12.88	40.60	12.95	-36.5	-37.4	23.3	0.00e+00	121	40	0	533725184	46	5839
2026-01-04 12:44:13.89	40.75	13.02	-36.5	-37.5	23.3	0.00e+00	122	40	0	536870912	46	5872
2026-01-04 12:44:14.90	40.90	13.08	-36.5	-37.4	23.4	0.00e+00	122	40	0	540016640	46	5828
2026-01-04 12:44:15.91	41.05	13.15	-36.5	-37.5	23.2	0.00e+00	123	40	0	543162368	46	5897
2026-01-04 12:44:16.92	41.20	13.21	-36.4	-37.3	23.3	0.00e+00	122	40	0	546308096	46	5786
2026-01-04 12:44:17.92	41.35	13.27	-36.4	-37.4	23.3	0.00e+00	123	40	0	549453824	46	5797
2026-01-04 12:44:18.93	41.51	13.34	-36.4	-37.4	23.3	0.00e+00	123	40	0	552599552	46	5795
2026-01-04 12:44:19.94	41.66	13.40	-36.3	-37.3	23.4	0.00e+00	122	40	0	555745280	46	5747
2026-01-04 12:44:20.95	41.82	13.47	-36.2	-37.2	23.5	0.00e+00	123	40	0	559939584	46	5682
2026-01-04 12:44:21.96	41.97	13.53	-36.4	-37.3	23.3	0.00e+00	120	40	0	562036736	46	5781
2026-01-04 12:44:22.97	42.13	13.60	-36.2	-37.1	23.6	0.00e+00	123	40	0	565182464	46	5656
2026-01-04 12:44:23.98	42.29	13.66	-36.3	-37.3	23.4	0.00e+00	123	40	0	568328192	46	5731
2026-01-04 12:44:24.99	42.44	13.73	-36.5	-37.5	23.3	0.00e+00	121	40	0	571473920	46	5871
2026-01-04 12:44:26.00	42.60	13.79	-36.3	-37.3	23.4	0.00e+00	123	40	0	575668224	46	5742
2026-01-04 12:44:27.01	42.76	13.86	-36.5	-37.5	23.4	0.00e+00	120	40	0	578813952	46	5861
2026-01-04 12:44:28.02	42.92	13.92	-36.5	-37.5	23.3	0.00e+00	122	40	0	581959680	46	5869
2026-01-04 12:44:29.03	43.08	13.98	-36.2	-37.1	23.5	0.00e+00	123	40	0	584056832	46	5659
2026-01-04 12:44:30.04	43.24	14.05	-36.3	-37.2	23.4	0.00e+00	123	40	0	587202560	46	5701
2026-01-04 12:44:31.05	43.40	14.11	-36.2	-37.2	23.5	0.00e+00	122	40	0	591396864	46	5662
2026-01-04 12:44:32.06	43.57	14.18	-36.3	-37.2	23.5	0.00e+00	123	40	0	594542592	46	5681
2026-01-04 12:44:33.07	43.73	14.24	-36.2	-37.1	23.5	0.00e+00	120	40	0	597688320	46	5619
2026-01-04 12:44:34.08	43.89	14.31	-36.3	-37.3	23.3	0.00e+00	122	40	0	600834048	46	5734
2026-01-04 12:44:35.09	44.06	14.37	-36.3	-37.3	23.3	0.00e+00	120	40	0	603979776	46	5742
2026-01-04 12:44:36.10	44.22	14.43	-36.7	-37.6	23.1	0.00e+00	122	40	0	607125504	46	5992
2026-01-04 12:44:37.11	44.39	14.50	-36.4	-37.4	23.4	0.00e+00	121	40	0	610271232	46	5800
2026-01-04 12:44:38.12	44.56	14.56	-36.3	-37.2	23.5	0.00e+00	122	40	0	613416960	46	5721
2026-01-04 12:44:39.12	44.72	14.63	-36.4	-37.4	23.3	0.00e+00	122	40	0	616562688	46	5810
2026-01-04 12:44:40.13	44.89	14.69	-36.4	-37.3	23.4	0.00e+00	123	40	0	619708416	46	5766
2026-01-04 12:44:41.14	45.06	14.75	-36.4	-37.3	23.4	0.00e+00	122	40	0	622854144	46	5754
2026-01-04 12:44:42.15	45.23	14.82	-36.3	-37.2	23.4	0.00e+00	121	40	0	625999872	46	5703
2026-01-04 12:44:43.16	45.40	14.88	-36.4	-37.3	23.5	0.00e+00	122	40	0	629145600	46	5788
2026-01-04 12:44:44.17	45.57	14.94	-36.3	-37.3	23.5	0.00e+00	120	40	0	632291328	46	5726
2026-01-04 12:44:45.18	45.74	15.01	-36.3	-37.2	23.5	0.00e+00	123	40	0	635437056	46	5716
2026-01-04 12:44:46.19	45.91	15.07	-36.2	-37.2	23.6	0.00e+00	122	40	0	638582784	46	5671
2026-01-04 12:44:47.20	46.08	15.13	-36.1	-37.0	23.8	0.00e+00	121	40	0	641728512	46	5560
2026-01-04 12:44:48.21	46.26	15.20	-36.2	-37.1	23.6	0.00e+00	122	40	0	644874240	46	5651
2026-01-04 12:44:49.22	46.43	15.26	-36.1	-37.1	23.7	0.00e+00	120	40	0	648019968	46	5596
2026-01-04 12:44:50.22	46.61	15.32	-36.1	-37.0	23.6	0.00e+00	122	40	0	651165696	46	5586
2026-01-04 12:44:51.23	46.78	15.39	-36.3	-37.3	23.6	0.00e+00	123	40	0	654311424	46	5732
2026-01-04 12:44:52.24	46.96	15.45	-36.2	-37.1	23.7	0.00e+00	122	40	0	657457152	46	5620
2026-01-04 12:44:53.25	47.14	15.51	-36.4	-37.3	23.6	0.00e+00	123	40	0	660602880	46	5745
2026-01-04 12:44:54.26	47.31	15.58	-36.1	-37.0	23.8	0.00e+00	123	40	0	663748608	46	5549
2026-01-04 12:44:55.27	47.49	15.64	-36.2	-37.1	23.6	0.00e+00	122	40	0	666894336	46	5642
2026-01-04 12:44:56.28	47.67	15.70	-36.2	-37.2	23.6	0.00e+00	122	40	0	670040064	46	5672
2026-01-04 12:44:57.29	47.85	15.76	-36.4	-37.3	23.4	0.00e+00	123	40	0	673185792	46	5782
2026-01-04 12:44:58.30	48.03	15.83	-36.2	-37.2	23.4	0.00e+00	122	40	0	676331520	46	5674
2026-01-04 12:44:59.31	48.21	15.89	-36.6	-37.5	23.3	0.00e+00	122	40	0	679477248	46	5912
2026-01-04 12:45:00.32	48.40	15.95	-36.4	-37.3	23.5	0.00e+00	123	40	0	682622976	46	5767
2026-01-04 12:45:01.33	48.58	16.01	-36.5	-37.5	23.4	0.00e+00	123	40	0	685768704	46	5884
2026-01-04 12:45:02.34	48.76	16.07	-36.5	-37.5	23.4	0.00e+00	123	40	0	688914432	46	5889
2026-01-04 12:45:03.35	48.95	16.14	-36.5	-37.5	23.4	0.00e+00	120	40	0	692060160	46	5911
2026-01-04 12:45:04.36	49.13	16.20	-36.5	-37.4	23.5	0.00e+00	122	40	0	695205888	46	5816
2026-01-04 12:45:05.37	49.32	16.26	-36.4	-37.3	23.5	0.00e+00	123	40	0	698351616	46	5781
2026-01-04 12:45:06.37	49.50	16.32	-36.3	-37.3	23.7	0.00e+00	122	40	0	701497344	46	5726
2026-01-04 12:45:07.38	49.69	16.38	-36.3	-37.3	23.7	0.00e+00	123	40	0	704643072	46	5731
2026-01-04 12:45:08.39	49.88	16.44	-36.1	-37.0	23.9	0.00e+00	123	40	0	707788800	46	5594
2026-01-04 12:45:09.40	50.07	16.50	-36.2	-37.1	23.7	0.00e+00	123	40	0	710934528	46	5649
2026-01-04 12:45:10.41	50.26	16.57	-36.2	-37.2	23.7	0.00e+00	123	40	0	714080256	46	5679
2026-01-04 12:45:11.42	50.45	16.63	-36.1	-37.0	23.8	0.00e+00	123	40	0	717225984	46	5584
2026-01-04 12:45:12.43	50.64	16.69	-36.1	-37.0	23.8	0.00e+00	123	40	0	720371712	46	5549
2026-01-04 12:45:13.44	50.83	16.75	-35.9	-36.8	23.8	0.00e+00	121	40	0	723517440	46	5443
2026-01-04 12:45:14.45	51.03	16.81	-35.9	-36.8	23.8	0.00e+00	122	40	0	726663168	46	5458
2026-01-04 12:45:15.46	51.22	16.87	-36.0	-36.9	23.7	0.00e+00	123	40	0	729808896	46	5504
2026-01-04 12:45:16.47	51.41	16.93	-36.1	-37.0	23.6	0.00e+00	122	40	0	732954624	46	5587
2026-01-04 12:45:17.48	51.61	16.99	-36.1	-37.1	23.7	0.00e+00	120	40	0	736100352	46	5598
2026-01-04 12:45:18.49	51.80	17.05	-36.1	-37.1	23.7	0.00e+00	123	40	0	739246080	46	5614
2026-01-04 12:45:19.50	52.00	17.11	-36.1	-37.1	23.8	0.00e+00	122	40	0	742391808	46	5620
2026-01-04 12:45:20.51	52.20	17.17	-36.3	-37.2	23.8	0.00e+00	123	40	0	745537536	46	5694
2026-01-04 12:45:21.52	52.40	17.23	-36.3	-37.2	23.8	0.00e+00	120	40	0	748683264	46	5696
2026-01-04 12:45:22.53	52.60	17.29	-36.1	-37.1	23.8	0.00e+00	123	40	0	751828992	46	5597
2026-01-04 12:45:23.54	52.80	17.34	-36.2	-37.2	23.8	0.00e+00	123	40	0	754974720	46	5666
2026-01-04 12:45:24.55	53.00	17.40	-36.0	-36.9	23.9	0.00e+00	122	40	0	758120448	46	5521
2026-01-04 12:45:25.56	53.20	17.46	-36.0	-36.9	23.8	0.00e+00	123	40	0	761266176	46	5490
2026-01-04 12:45:26.57	53.40	17.52	-36.0	-36.9	23.8	0.00e+00	123	40	0	764411904	46	5487
2026-01-04 12:45:27.58	53.60	17.58	-36.0	-36.9	23.7	0.00e+00	122	40	0	767557632	46	5509
2026-01-04 12:45:28.59	53.80	17.64	-35.8	-36.7	23.8	0.00e+00	123	40	0	770703360	46	5395
2026-01-04 12:45:29.60	54.01	17.69	-35.9	-36.9	23.7	0.00e+00	122	40	0	773849088	46	5470
2026-01-04 12:45:30.61	54.21	17.75	-35.9	-36.8	23.8	0.00e+00	122	40	0	776994816	46	5438
2026-01-04 12:45:31.62	54.42	17.81	-35.9	-36.8	23.8	0.00e+00	123	40	0	780140544	46	5427
2026-01-04 12:45:32.63	54.63	17.86	-36.1	-37.0	23.7	0.00e+00	120	40	0	783286272	46	5555
2026-01-04 12:45:33.64	54.83	17.92	-36.2	-37.1	23.8	0.00e+00	122	40	0	786432000	46	5639
2026-01-04 12:45:34.65	55.04	17.98	-36.3	-37.2	23.7	0.00e+00	120	40	0	789577728	46	5694
2026-01-04 12:45:35.66	55.25	18.03	-36.0	-36.9	24.0	0.00e+00	123	40	0	792723456	46	5515
2026-01-04 12:45:36.67	55.46	18.09	-36.1	-37.0	23.9	0.00e+00	122	40	0	795869184	46	5574
2026-01-04 12:45:37.68	55.67	18.15	-36.1	-37.1	23.9	0.00e+00	123	40	0	799014912	46	5607
2026-01-04 12:45:38.69	55.88	18.20	-36.0	-37.0	23.9	0.00e+00	120	40	0	802160640	46	5548
2026-01-04 12:45:39.70	56.09	18.26	-35.9	-36.8	23.9	0.00e+00	123	40	0	805306368	46	5443
2026-01-04 12:45:40.72	56.31	18.31	-35.8	-36.7	24.0	0.00e+00	123	40	0	808452096	46	5401
2026-01-04 12:45:41.73	56.52	18.37	-35.7	-36.7	23.9	0.00e+00	123	40	0	811597824	44	6002
2026-01-04 12:45:42.74	56.73	18.42	-35.8	-36.8	23.7	0.00e+00	122	40	0	814743552	44	6070
2026-01-04 12:45:43.75	56.95	18.48	-36.0	-36.9	23.6	0.00e+00	122	40	0	817889280	44	6176
2026-01-04 12:45:44.76	57.16	18.53	-36.0	-37.0	23.7	0.00e+00	122	40	0	821035008	44	6221
2026-01-04 12:45:45.77	57.38	18.58	-35.7	-36.7	24.0	0.00e+00	122	40	0	824180736	44	6000
2026-01-04 12:45:46.78	57.60	18.64	-35.9	-36.9	23.9	0.00e+00	122	40	0	827326464	44	6152
2026-01-04 12:45:47.79	57.82	18.69	-35.9	-36.8	24.0	0.00e+00	123	40	0	830472192	44	6101
2026-01-04 12:45:48.80	58.03	18.74	-35.9	-36.8	24.0	0.00e+00	123	40	0	833617920	44	6124
2026-01-04 12:45:49.81	58.25	18.80	-35.7	-36.7	24.1	0.00e+00	122	40	0	836763648	44	6005
2026-01-04 12:45:50.81	58.47	18.85	-35.7	-36.6	24.1	0.00e+00	123	40	0	839909376	44	5941
2026-01-04 12:45:51.83	58.69	18.90	-35.5	-36.4	24.2	0.00e+00	123	40	0	843055104	44	5843
2026-01-04 12:45:52.84	58.92	18.95	-35.6	-36.5	24.2	0.00e+00	122	40	0	846200832	44	5864
2026-01-04 12:45:53.85	59.14	19.00	-35.6	-36.5	24.1	0.00e+00	122	40	0	849346560	44	5865
2026-01-04 12:45:54.85	59.36	19.05	-35.5	-36.4	24.2	0.00e+00	123	40	0	852492288	44	5838
2026-01-04 12:45:55.86	59.58	19.11	-35.5	-36.4	24.0	0.00e+00	122	40	0	855638016	44	5820
2026-01-04 12:45:56.87	59.81	19.16	-35.6	-36.5	24.0	0.00e+00	122	40	0	858783744	44	5883
2026-01-04 12:45:57.89	60.03	19.21	-35.6	-36.5	24.2	0.00e+00	123	40	0	861929472	44	5879
2026-01-04 12:45:58.90	60.26	19.26	-35.5	-36.4	24.2	0.00e+00	123	40	0	865075200	44	5808
2026-01-04 12:45:59.91	60.49	19.31	-35.6	-36.5	24.2	0.00e+00	123	40	0	868220928	44	5885
2026-01-04 12:46:00.92	60.71	19.35	-35.6	-36.5	24.2	0.00e+00	122	40	0	871366656	44	5884
2026-01-04 12:46:01.92	60.94	19.40	-35.4	-36.3	24.3	0.00e+00	120	40	0	874512384	44	5770
2026-01-04 12:46:02.94	61.17	19.45	-35.4	-36.3	24.3	0.00e+00	123	40	0	877658112	44	5752
2026-01-04 12:46:03.94	61.40	19.50	-35.5	-36.4	24.3	0.00e+00	122	40	0	880803840	44	5816
2026-01-04 12:46:04.95	61.63	19.55	-35.6	-36.5	24.2	0.00e+00	123	40	0	883949568	44	5885
2026-01-04 12:46:05.96	61.86	19.59	-35.5	-36.4	24.3	0.00e+00	122	40	0	887095296	44	5797
2026-01-04 12:46:06.97	62.09	19.64	-35.6	-36.5	24.2	0.00e+00	122	40	0	890241024	44	5880
2026-01-04 12:46:07.98	62.32	19.69	-35.5	-36.4	24.3	0.00e+00	120	40	0	893386752	44	5800
2026-01-04 12:46:08.99	62.56	19.73	-35.3	-36.2	24.4	0.00e+00	122	40	0	896532480	44	5695
2026-01-04 12:46:10.00	62.79	19.78	-35.2	-36.1	24.4	0.00e+00	120	40	0	900726784	44	5659
2026-01-04 12:46:11.01	63.02	19.83	-35.2	-36.1	24.5	0.00e+00	122	40	0	902823936	44	5640
2026-01-04 12:46:12.02	63.26	19.87	-35.1	-36.0	24.5	0.00e+00	123	40	0	905969664	44	5553
2026-01-04 12:46:13.03	63.49	19.92	-35.3	-36.2	24.4	0.00e+00	120	40	0	909115392	44	5661
2026-01-04 12:46:14.04	63.73	19.96	-35.4	-36.3	24.2	0.00e+00	122	40	0	912261120	44	5783
2026-01-04 12:46:15.04	63.96	20.00	-35.4	-36.4	24.2	0.00e+00	122	40	0	915406848	44	5793
2026-01-04 12:46:16.05	64.20	20.05	-35.4	-36.3	24.3	0.00e+00	122	40	0	919601152	44	5734
2026-01-04 12:46:17.06	64.44	20.09	-35.2	-36.1	24.4	0.00e+00	120	40	0	922746880	44	5651
2026-01-04 12:46:18.07	64.68	20.13	-35.3	-36.2	24.4	0.00e+00	122	40	0	924844032	44	5686
2026-01-04 12:46:19.08	64.92	20.17	-35.1	-36.0	24.6	0.00e+00	123	40	0	927989760	44	5548
2026-01-04 12:46:20.09	65.16	20.22	-35.2	-36.0	24.5	0.00e+00	123	40	0	931135488	44	5593
2026-01-04 12:46:21.10	65.40	20.26	-35.0	-35.9	24.7	0.00e+00	120	40	0	935329792	44	5474
2026-01-04 12:46:22.11	65.64	20.30	-34.9	-35.8	24.6	0.00e+00	123	40	0	938475520	44	5422
2026-01-04 12:46:23.12	65.88	20.34	-35.0	-35.9	24.6	0.00e+00	122	40	0	941621248	44	5489
2026-01-04 12:46:24.12	66.12	20.38	-35.2	-36.1	24.4	0.00e+00	122	40	0	944766976	44	5601
2026-01-04 12:46:25.13	66.37	20.42	-35.2	-36.1	24.4	0.00e+00	122	40	0	947912704	44	5656
2026-01-04 12:46:26.15	66.61	20.46	-35.1	-36.0	24.6	0.00e+00	122	40	0	950009856	44	5558
2026-01-04 12:46:27.15	66.86	20.50	-35.2	-36.1	24.6	0.00e+00	120	40	0	954204160	44	5647
2026-01-04 12:46:28.17	67.10	20.54	-35.0	-35.9	24.6	0.00e+00	123	40	0	957349888	44	5508
2026-01-04 12:46:29.18	67.35	20.57	-35.1	-36.0	24.7	0.00e+00	123	40	0	960495616	44	5555
2026-01-04 12:46:30.18	67.59	20.61	-35.4	-36.3	24.4	0.00e+00	123	40	0	963641344	44	5726
2026-01-04 12:46:31.19	67.84	20.65	-35.3	-36.2	24.4	0.00e+00	123	40	0	966787072	44	5684
2026-01-04 12:46:32.20	68.09	20.68	-35.2	-36.1	24.5	0.00e+00	120	40	0	969932800	44	5613
2026-01-04 12:46:33.21	68.34	20.72	-35.0	-35.9	24.6	0.00e+00	123	40	0	973078528	44	5481
2026-01-04 12:46:34.22	68.59	20.75	-35.3	-36.2	24.3	0.00e+00	122	40	0	976224256	44	5697
2026-01-04 12:46:35.23	68.83	20.79	-35.4	-36.3	24.2	0.00e+00	122	41	0	979369984	44	5791
2026-01-04 12:46:36.24	69.08	20.82	-35.3	-36.2	24.4	0.00e+00	122	41	0	982515712	44	5691
2026-01-04 12:46:37.25	69.34	20.86	-35.2	-36.1	24.5	0.00e+00	122	40	0	985661440	44	5609
2026-01-04 12:46:38.26	69.59	20.89	-35.3	-36.2	24.5	0.00e+00	123	40	0	988807168	44	5667
2026-01-04 12:46:39.27	69.84	20.92	-35.1	-36.0	24.6	0.00e+00	122	40	0	991952896	44	5540
2026-01-04 12:46:40.28	70.09	20.96	-35.2	-36.1	24.5	0.00e+00	123	40	0	995098624	44	5619
2026-01-04 12:46:41.29	70.34	20.99	-35.2	-36.1	24.4	0.00e+00	123	40	0	998244352	44	5654
2026-01-04 12:46:42.30	70.60	21.02	-35.3	-36.2	24.3	0.00e+00	123	40	0	1001390080	44	5692
2026-01-04 12:46:43.31	70.85	21.05	-35.6	-36.5	24.2	0.00e+00	122	40	0	1004535808	44	5896
2026-01-04 12:46:44.32	71.10	21.08	-35.5	-36.4	24.3	0.00e+00	122	40	0	1007681536	44	5820
2026-01-04 12:46:45.33	71.36	21.11	-35.4	-36.3	24.2	0.00e+00	120	40	0	1010827264	44	5775
2026-01-04 12:46:46.34	71.61	21.14	-35.3	-36.2	24.5	0.00e+00	122	40	0	1013972992	44	5673
2026-01-04 12:46:47.35	71.87	21.17	-35.4	-36.3	24.4	0.00e+00	120	41	0	1017118720	44	5753
2026-01-04 12:46:48.36	72.12	21.20	-35.1	-36.0	24.6	0.00e+00	123	41	0	1020264448	44	5563
2026-01-04 12:46:49.36	72.38	21.23	-35.1	-36.0	24.5	0.00e+00	120	40	0	1023410176	44	5569
2026-01-04 12:46:50.37	72.63	21.25	-35.2	-36.1	24.5	0.00e+00	123	40	0	1026555904	44	5596
2026-01-04 12:46:51.38	72.89	21.28	-35.3	-36.3	24.5	0.00e+00	120	40	0	1029701632	44	5729
2026-01-04 12:46:52.39	73.15	21.31	-35.5	-36.4	24.3	0.00e+00	122	40	0	1032847360	44	5848
2026-01-04 12:46:53.40	73.41	21.33	-35.5	-36.4	24.3	0.00e+00	120	40	0	1035993088	44	5808
2026-01-04 12:46:54.41	73.67	21.36	-35.5	-36.4	24.3	0.00e+00	122	41	0	1039138816	44	5824
2026-01-04 12:46:55.41	73.92	21.38	-35.1	-36.0	24.6	0.00e+00	122	40	0	1042284544	44	5566
2026-01-04 12:46:56.42	74.18	21.40	-35.2	-36.1	24.6	0.00e+00	122	41	0	1045430272	44	5601
2026-01-04 12:46:57.43	74.44	21.43	-35.4	-36.2	24.4	0.00e+00	123	40	0	1048576000	44	5724
2026-01-04 12:46:58.44	74.70	21.45	-35.1	-36.0	24.6	0.00e+00	122	41	0	1051721728	44	5555
2026-01-04 12:46:59.44	74.96	21.47	-35.1	-36.0	24.5	0.00e+00	122	40	0	1054867456	44	5577
2026-01-04 12:47:00.45	75.22	21.49	-35.1	-36.0	24.5	0.00e+00	123	40	0	1058013184	44	5583
2026-01-04 12:47:01.46	75.48	21.52	-35.1	-36.0	24.5	0.00e+00	122	41	0	1061158912	44	5581
2026-01-04 12:47:02.47	75.74	21.54	-35.4	-36.3	24.5	0.00e+00	122	40	0	1064304640	44	5735
2026-01-04 12:47:03.48	76.01	21.56	-35.1	-35.9	24.6	0.00e+00	123	40	0	1067450368	44	5521
2026-01-04 12:47:04.49	76.27	21.57	-35.4	-36.3	24.4	0.00e+00	123	41	0	1070596096	44	5730
2026-01-04 12:47:05.50	76.53	21.59	-35.3	-36.2	24.5	0.00e+00	120	40	0	1073741824	44	5688
2026-01-04 12:47:06.51	76.79	21.61	-35.3	-36.2	24.4	0.00e+00	123	40	0	1076887552	44	5703
2026-01-04 12:47:07.52	77.06	21.63	-35.3	-36.2	24.5	0.00e+00	120	41	0	1080033280	44	5662
2026-01-04 12:47:08.53	77.32	21.65	-35.3	-36.2	24.4	0.00e+00	122	41	0	1083179008	44	5713
2026-01-04 12:47:09.54	77.58	21.66	-35.1	-36.0	24.3	0.00e+00	123	41	0	1086324736	44	5566
2026-01-04 12:47:10.55	77.85	21.68	-35.3	-36.2	24.1	0.00e+00	120	40	0	1089470464	44	5678
2026-01-04 12:47:11.56	78.11	21.69	-35.4	-36.4	24.2	0.00e+00	123	40	0	1092616192	44	5795
2026-01-04 12:47:12.57	78.38	21.71	-35.2	-36.1	24.4	0.00e+00	122	41	0	1095761920	44	5599
2026-01-04 12:47:13.57	78.64	21.72	-35.3	-36.2	24.4	0.00e+00	123	41	0	1098907648	44	5687
2026-01-04 12:47:14.59	78.91	21.74	-35.1	-36.0	24.5	0.00e+00	123	41	0	1102053376	44	5545
2026-01-04 12:47:15.60	79.17	21.75	-35.1	-36.0	24.5	0.00e+00	123	41	0	1105199104	44	5577
2026-01-04 12:47:16.60	79.44	21.76	-35.0	-35.9	24.6	0.00e+00	120	41	0	1108344832	44	5516
2026-01-04 12:47:17.62	79.70	21.77	-35.0	-35.9	24.7	0.00e+00	123	40	0	1111490560	44	5469
2026-01-04 12:47:18.63	79.97	21.78	-35.0	-35.9	24.7	0.00e+00	122	41	0	1114636288	44	5470
2026-01-04 12:47:19.63	80.23	21.79	-35.0	-35.8	24.6	0.00e+00	123	40	0	1117782016	44	5450
2026-01-04 12:47:20.64	80.50	21.80	-34.9	-35.8	24.7	0.00e+00	123	40	0	1120927744	44	5433
2026-01-04 12:47:21.65	80.77	21.81	-35.0	-35.9	24.6	0.00e+00	123	41	0	1124073472	44	5508
2026-01-04 12:47:22.66	81.03	21.82	-35.0	-35.9	24.6	0.00e+00	123	41	0	1127219200	44	5492
2026-01-04 12:47:23.67	81.30	21.83	-35.1	-36.0	24.7	0.00e+00	123	40	0	1130364928	44	5540
2026-01-04 12:47:24.68	81.57	21.83	-35.1	-36.0	24.5	0.00e+00	123	40	0	1133510656	44	5546
2026-01-04 12:47:25.69	81.83	21.84	-34.9	-35.8	24.7	0.00e+00	120	41	0	1136656384	44	5427
2026-01-04 12:47:26.70	82.10	21.85	-34.9	-35.8	24.7	0.00e+00	123	41	0	1139802112	42	6090
2026-01-04 12:47:27.71	82.37	21.85	-35.2	-36.1	24.4	0.00e+00	123	41	0	1142947840	42	6315
2026-01-04 12:47:28.72	82.63	21.86	-35.3	-36.2	24.4	0.00e+00	122	41	0	1146093568	42	6368
2026-01-04 12:47:29.73	82.90	21.86	-35.3	-36.2	24.5	0.00e+00	123	41	0	1149239296	42	6392
2026-01-04 12:47:30.74	83.17	21.86	-35.3	-36.2	24.4	0.00e+00	123	40	0	1152385024	42	6375
2026-01-04 12:47:31.75	83.44	21.87	-35.2	-36.1	24.5	0.00e+00	122	40	0	1155530752	42	6302
2026-01-04 12:47:32.76	83.70	21.87	-35.2	-36.1	24.4	0.00e+00	122	40	0	1158676480	42	6309
2026-01-04 12:47:33.77	83.97	21.87	-35.1	-36.0	24.5	0.00e+00	123	41	0	1161822208	42	6258
2026-01-04 12:47:34.78	84.24	21.87	-35.3	-36.2	24.3	0.00e+00	123	40	0	1164967936	42	6385
2026-01-04 12:47:35.79	84.51	21.87	-35.2	-36.1	24.5	0.00e+00	123	41	0	1168113664	42	6305
2026-01-04 12:47:36.80	84.78	21.87	-35.2	-36.1	24.5	0.00e+00	123	41	0	1171259392	42	6304
2026-01-04 12:47:37.81	85.04	21.87	-35.3	-36.2	24.4	0.00e+00	120	40	0	1174405120	42	6378
2026-01-04 12:47:38.82	85.31	21.87	-35.3	-36.2	24.5	0.00e+00	122	41	0	1177550848	42	6368
2026-01-04 12:47:39.83	85.58	21.87	-35.0	-35.9	24.7	0.00e+00	120	41	0	1180696576	42	6147
2026-01-04 12:47:40.84	85.85	21.86	-34.9	-35.8	24.7	0.00e+00	123	40	0	1183842304	42	6084
2026-01-04 12:47:41.85	86.11	21.86	-35.0	-35.8	24.6	0.00e+00	123	40	0	1186988032	42	6127
2026-01-04 12:47:42.86	86.38	21.86	-35.1	-36.0	24.5	0.00e+00	123	40	0	1190133760	42	6228
2026-01-04 12:47:43.87	86.65	21.85	-35.1	-35.9	24.5	0.00e+00	123	41	0	1193279488	42	6198
2026-01-04 12:47:44.88	86.92	21.85	-35.1	-36.0	24.5	0.00e+00	122	40	0	1196425216	42	6257
2026-01-04 12:47:45.89	87.18	21.84	-35.1	-35.9	24.6	0.00e+00	123	40	0	1199570944	42	6198
2026-01-04 12:47:46.89	87.45	21.83	-35.1	-36.0	24.5	0.00e+00	120	40	0	1202716672	42	6257
2026-01-04 12:47:47.90	87.71	21.83	-34.8	-35.7	24.7	0.00e+00	123	41	0	1205862400	42	6037
2026-01-04 12:47:48.91	87.98	21.82	-34.9	-35.8	24.7	0.00e+00	120	41	0	1209008128	42	6065
2026-01-04 12:47:49.93	88.25	21.81	-34.9	-35.8	24.7	0.00e+00	123	40	0	1212153856	42	6066
2026-01-04 12:47:50.93	88.51	21.80	-34.9	-35.8	24.7	0.00e+00	122	41	0	1215299584	42	6086
2026-01-04 12:47:51.94	88.78	21.79	-35.3	-36.2	24.5	0.00e+00	123	40	0	1218445312	42	6380
2026-01-04 12:47:52.95	89.05	21.78	-35.1	-36.0	24.6	0.00e+00	122	40	0	1221591040	42	6208
2026-01-04 12:47:53.96	89.31	21.77	-35.2	-36.1	24.5	0.00e+00	123	41	0	1224736768	42	6347
2026-01-04 12:47:54.97	89.58	21.76	-35.1	-35.9	24.6	0.00e+00	122	40	0	1227882496	42	6196
2026-01-04 12:47:55.98	89.84	21.75	-35.3	-36.2	24.3	0.00e+00	123	40	0	1231028224	42	6401
2026-01-04 12:47:56.98	90.11	21.73	-35.1	-35.9	24.6	0.00e+00	123	40	0	1234173952	42	6198
2026-01-04 12:47:57.99	90.37	21.72	-35.1	-35.9	24.6	0.00e+00	122	40	0	1237319680	42	6205
2026-01-04 12:47:59.00	90.64	21.71	-35.2	-36.1	24.5	0.00e+00	120	40	0	1240465408	42	6311
2026-01-04 12:48:00.01	90.90	21.69	-35.2	-36.1	24.6	0.00e+00	123	40	0	1243611136	42	6294
2026-01-04 12:48:01.01	91.16	21.68	-34.9	-35.8	24.7	0.00e+00	122	41	0	1246756864	42	6104
2026-01-04 12:48:02.03	91.43	21.66	-34.9	-35.8	24.7	0.00e+00	120	41	0	1249902592	42	6117
2026-01-04 12:48:03.04	91.70	21.64	-35.2	-36.0	24.4	0.00e+00	123	40	0	1253048320	42	6271
2026-01-04 12:48:04.05	91.96	21.63	-35.1	-36.0	24.6	0.00e+00	123	40	0	1256194048	42	6216
2026-01-04 12:48:05.05	92.22	21.61	-35.3	-36.2	24.3	0.00e+00	123	40	0	1259339776	42	6400
2026-01-04 12:48:06.07	92.49	21.59	-35.2	-36.1	24.5	0.00e+00	123	40	0	1262485504	42	6318
2026-01-04 12:48:07.08	92.75	21.57	-35.2	-36.1	24.4	0.00e+00	123	40	0	1265631232	42	6346
2026-01-04 12:48:08.08	93.01	21.55	-35.2	-36.1	24.5	0.00e+00	122	41	0	1268776960	42	6323
2026-01-04 12:48:09.09	93.27	21.53	-35.1	-36.0	24.5	0.00e+00	123	40	0	1271922688	42	6260
2026-01-04 12:48:10.10	93.53	21.51	-35.2	-36.1	24.4	0.00e+00	123	40	0	1275068416	42	6302
2026-01-04 12:48:11.11	93.79	21.49	-35.2	-36.1	24.4	0.00e+00	122	41	0	1278214144	42	6339
2026-01-04 12:48:12.12	94.06	21.47	-35.3	-36.2	24.4	0.00e+00	123	40	0	1281359872	42	6371
2026-01-04 12:48:13.13	94.32	21.45	-35.0	-35.9	24.6	0.00e+00	122	40	0	1284505600	42	6184
2026-01-04 12:48:14.14	94.58	21.42	-35.0	-35.9	24.6	0.00e+00	123	40	0	1287651328	42	6171
2026-01-04 12:48:15.15	94.84	21.40	-35.0	-35.9	24.6	0.00e+00	123	40	0	1290797056	42	6192
2026-01-04 12:48:16.16	95.10	21.38	-35.1	-36.0	24.5	0.00e+00	120	40	0	1293942784	42	6234
2026-01-04 12:48:17.17	95.36	21.35	-35.1	-36.0	24.5	0.00e+00	122	40	0	1297088512	42	6265
2026-01-04 12:48:18.18	95.62	21.33	-35.2	-36.1	24.6	0.00e+00	122	40	0	1300234240	42	6283
2026-01-04 12:48:19.19	95.87	21.30	-35.0	-35.9	24.5	0.00e+00	120	40	0	1303379968	42	6194
2026-01-04 12:48:20.20	96.13	21.28	-35.1	-36.0	24.6	0.00e+00	123	41	0	1306525696	42	6230
2026-01-04 12:48:21.21	96.39	21.25	-35.0	-35.8	24.6	0.00e+00	120	40	0	1310720000	42	6127
2026-01-04 12:48:22.22	96.65	21.22	-34.9	-35.8	24.6	0.00e+00	122	41	0	1312817152	42	6120
2026-01-04 12:48:23.23	96.90	21.19	-35.1	-36.0	24.4	0.00e+00	122	40	0	1315962880	42	6260
2026-01-04 12:48:24.24	97.16	21.16	-35.0	-35.9	24.4	0.00e+00	123	41	0	1319108608	42	6196
2026-01-04 12:48:25.25	97.42	21.14	-35.1	-36.1	24.3	0.00e+00	123	40	0	1322254336	42	6280
2026-01-04 12:48:26.25	97.67	21.11	-35.3	-36.2	24.3	0.00e+00	122	40	0	1326448640	42	6389
2026-01-04 12:48:27.26	97.92	21.08	-35.3	-36.2	24.3	0.00e+00	120	40	0	1329594368	42	6388
2026-01-04 12:48:28.27	98.18	21.05	-35.1	-36.0	24.5	0.00e+00	122	41	0	1332740096	42	6238
2026-01-04 12:48:29.28	98.43	21.01	-35.2	-36.1	24.5	0.00e+00	122	41	0	1335885824	42	6285
2026-01-04 12:48:30.29	98.69	20.98	-34.9	-35.7	24.6	0.00e+00	123	40	0	1337982976	42	6062
2026-01-04 12:48:31.30	98.94	20.95	-34.8	-35.7	24.7	0.00e+00	120	40	0	1342177280	42	5998
2026-01-04 12:48:32.31	99.19	20.92	-34.9	-35.8	24.6	0.00e+00	122	40	0	1345323008	42	6065
2026-01-04 12:48:33.32	99.44	20.88	-34.9	-35.8	24.6	0.00e+00	123	40	0	1348468736	42	6117
2026-01-04 12:48:34.33	99.70	20.85	-35.0	-35.8	24.6	0.00e+00	122	40	0	1351614464	42	6129
2026-01-04 12:48:35.34	99.95	20.82	-35.1	-36.0	24.5	0.00e+00	122	40	0	1354760192	42	6219
2026-01-04 12:48:36.35	100.20	20.78	-35.2	-36.1	24.5	0.00e+00	122	40	0	1357905920	42	6280
2026-01-04 12:48:37.36	100.45	20.75	-35.1	-36.0	24.5	0.00e+00	122	40	0	1361051648	42	6240
2026-01-04 12:48:38.37	100.70	20.71	-35.1	-36.0	24.4	0.00e+00	123	40	0	1364197376	42	6276
2026-01-04 12:48:39.38	100.95	20.68	-35.2	-36.1	24.4	0.00e+00	120	41	0	1367343104	42	6285
2026-01-04 12:48:40.39	101.19	20.64	-35.5	-36.4	24.2	0.00e+00	123	40	0	1370488832	42	6549
2026-01-04 12:48:41.40	101.44	20.60	-35.5	-36.4	24.2	0.00e+00	122	40	0	1373634560	42	6517
2026-01-04 12:48:42.41	101.69	20.56	-34.9	-35.8	24.7	0.00e+00	122	40	0	1376780288	42	6100
2026-01-04 12:48:43.42	101.93	20.53	-34.9	-35.8	24.5	0.00e+00	122	40	0	1379926016	42	6120
2026-01-04 12:48:44.43	102.18	20.49	-35.0	-35.9	24.4	0.00e+00	123	40	0	1383071744	42	6183
2026-01-04 12:48:45.43	102.42	20.45	-35.0	-35.9	24.4	0.00e+00	123	40	0	1386217472	42	6191
2026-01-04 12:48:46.45	102.67	20.41	-35.0	-35.9	24.5	0.00e+00	123	41	0	1389363200	42	6181
2026-01-04 12:48:47.46	102.91	20.37	-35.2	-36.1	24.3	0.00e+00	123	41	0	1392508928	42	6313
2026-01-04 12:48:48.46	103.15	20.33	-35.2	-36.1	24.4	0.00e+00	123	41	0	1395654656	42	6302
2026-01-04 12:48:49.47	103.40	20.29	-35.5	-36.4	24.1	0.00e+00	123	40	0	1398800384	42	6524
2026-01-04 12:48:50.48	103.64	20.25	-35.3	-36.3	24.2	0.00e+00	123	41	0	1401946112	42	6429
2026-01-04 12:48:51.49	103.88	20.21	-35.2	-36.1	24.4	0.00e+00	123	40	0	1405091840	42	6315
2026-01-04 12:48:52.50	104.12	20.16	-35.1	-36.0	24.4	0.00e+00	123	40	0	1408237568	42	6230
2026-01-04 12:48:53.51	104.36	20.12	-35.1	-36.0	24.2	0.00e+00	122	40	0	1411383296	42	6272
2026-01-04 12:48:54.52	104.60	20.08	-35.4	-36.3	24.0	0.00e+00	123	40	0	1414529024	42	6448
2026-01-04 12:48:55.53	104.84	20.03	-35.2	-36.1	24.2	0.00e+00	120	41	0	1417674752	42	6349
2026-01-04 12:48:56.54	105.08	19.99	-35.2	-36.1	24.3	0.00e+00	122	40	0	1420820480	42	6290
2026-01-04 12:48:57.55	105.32	19.95	-35.3	-36.2	24.2	0.00e+00	120	41	0	1423966208	42	6414
2026-01-04 12:48:58.56	105.55	19.90	-35.1	-36.0	24.2	0.00e+00	122	41	0	1427111936	42	6254
2026-01-04 12:48:59.57	105.79	19.86	-35.2	-36.1	24.2	0.00e+00	123	40	0	1430257664	42	6288
2026-01-04 12:49:00.58	106.03	19.81	-35.2	-36.1	24.3	0.00e+00	123	40	0	1433403392	42	6319
2026-01-04 12:49:01.59	106.26	19.77	-35.2	-36.1	24.3	0.00e+00	120	41	0	1436549120	42	6317
2026-01-04 12:49:02.60	106.49	19.72	-35.2	-36.1	24.2	0.00e+00	122	40	0	1439694848	42	6290
2026-01-04 12:49:03.61	106.73	19.67	-35.2	-36.1	24.2	0.00e+00	120	40	0	1442840576	42	6303
2026-01-04 12:49:04.62	106.96	19.63	-35.3	-36.2	24.2	0.00e+00	122	40	0	1445986304	42	6363
2026-01-04 12:49:05.63	107.19	19.58	-35.3	-36.2	24.1	0.00e+00	123	40	0	1449132032	42	6416
2026-01-04 12:49:06.64	107.42	19.53	-35.2	-36.1	24.2	0.00e+00	122	40	0	1452277760	42	6335
2026-01-04 12:49:07.65	107.66	19.48	-35.3	-36.2	24.2	0.00e+00	122	40	0	1455423488	42	6363
2026-01-04 12:49:08.65	107.88	19.44	-35.3	-36.2	24.1	0.00e+00	121	40	0	1458569216	42	6406
2026-01-04 12:49:09.66	108.11	19.39	-35.5	-36.4	24.0	0.00e+00	123	40	0	1461714944	42	6550
2026-01-04 12:49:10.67	108.34	19.34	-35.7	-36.7	24.0	0.00e+00	120	40	0	1464860672	42	6737
2026-01-04 12:49:11.68	108.57	19.29	-35.6	-36.5	23.9	0.00e+00	123	40	0	1468006400	44	5911
2026-01-04 12:49:12.69	108.80	19.24	-35.5	-36.4	24.1	0.00e+00	123	40	0	1471152128	44	5845
2026-01-04 12:49:13.70	109.02	19.19	-35.5	-36.4	24.0	0.00e+00	123	40	0	1474297856	44	5817
2026-01-04 12:49:14.71	109.25	19.14	-35.4	-36.3	24.1	0.00e+00	120	40	0	1477443584	44	5763
2026-01-04 12:49:15.72	109.47	19.09	-35.2	-36.1	24.2	0.00e+00	123	40	0	1480589312	44	5638
2026-01-04 12:49:16.73	109.70	19.04	-35.2	-36.1	24.2	0.00e+00	123	40	0	1483735040	44	5627
2026-01-04 12:49:17.74	109.92	18.98	-35.2	-36.1	24.1	0.00e+00	122	40	0	1486880768	44	5645
2026-01-04 12:49:18.75	110.14	18.93	-35.3	-36.2	24.2	0.00e+00	123	40	0	1490026496	44	5660
2026-01-04 12:49:19.76	110.37	18.88	-35.3	-36.2	24.4	0.00e+00	122	40	0	1493172224	44	5675
2026-01-04 12:49:20.77	110.59	18.83	-35.3	-36.2	24.4	0.00e+00	123	40	0	1496317952	44	5671
2026-01-04 12:49:21.78	110.81	18.78	-35.0	-35.9	24.5	0.00e+00	120	40	0	1499463680	44	5503
2026-01-04 12:49:22.79	111.03	18.72	-35.2	-36.1	24.5	0.00e+00	122	40	0	1502609408	44	5615
2026-01-04 12:49:23.80	111.25	18.67	-35.2	-36.1	24.4	0.00e+00	123	40	0	1505755136	44	5640
2026-01-04 12:49:24.80	111.46	18.62	-35.3	-36.1	24.4	0.00e+00	122	40	0	1508900864	44	5653
2026-01-04 12:49:25.81	111.68	18.56	-35.4	-36.3	24.2	0.00e+00	123	40	0	1512046592	44	5748
2026-01-04 12:49:26.82	111.90	18.51	-35.5	-36.4	24.1	0.00e+00	123	40	0	1515192320	44	5824
2026-01-04 12:49:27.82	112.11	18.45	-35.6	-36.5	24.0	0.00e+00	122	40	0	1518338048	44	5876
2026-01-04 12:49:28.83	112.33	18.40	-35.7	-36.6	24.0	0.00e+00	123	40	0	1521483776	44	5946
2026-01-04 12:49:29.84	112.54	18.34	-35.6	-36.6	24.0	0.00e+00	121	40	0	1524629504	44	5936
2026-01-04 12:49:30.85	112.76	18.29	-35.6	-36.5	24.0	0.00e+00	123	40	0	1527775232	44	5862
2026-01-04 12:49:31.86	112.97	18.23	-35.6	-36.5	23.9	0.00e+00	123	40	0	1530920960	44	5879
2026-01-04 12:49:32.88	113.18	18.18	-35.4	-36.3	24.1	0.00e+00	123	40	0	1534066688	44	5775
2026-01-04 12:49:33.89	113.40	18.12	-35.6	-36.5	24.0	0.00e+00	120	40	0	1537212416	44	5915
2026-01-04 12:49:34.90	113.61	18.07	-35.5	-36.4	24.0	0.00e+00	123	40	0	1540358144	44	5848
2026-01-04 12:49:35.91	113.82	18.01	-35.4	-36.3	24.1	0.00e+00	123	40	0	1543503872	44	5770
2026-01-04 12:49:36.91	114.02	17.95	-35.6	-36.5	24.0	0.00e+00	123	40	0	1546649600	44	5871
2026-01-04 12:49:37.92	114.23	17.90	-35.5	-36.4	24.1	0.00e+00	120	40	0	1549795328	44	5848
2026-01-04 12:49:38.93	114.44	17.84	-35.7	-36.6	24.0	0.00e+00	123	40	0	1552941056	44	5961
2026-01-04 12:49:39.94	114.65	17.78	-35.7	-36.7	23.9	0.00e+00	122	40	0	1556086784	44	6002
2026-01-04 12:49:40.95	114.85	17.72	-35.8	-36.8	23.8	0.00e+00	122	40	0	1559232512	44	6076
2026-01-04 12:49:41.96	115.06	17.67	-35.9	-36.9	23.7	0.00e+00	122	40	0	1562378240	44	6146
2026-01-04 12:49:42.97	115.26	17.61	-36.0	-36.9	23.6	0.00e+00	123	40	0	1565523968	44	6200
2026-01-04 12:49:43.98	115.47	17.55	-36.0	-36.9	23.7	0.00e+00	123	40	0	1568669696	44	6201
2026-01-04 12:49:44.99	115.67	17.49	-35.9	-36.9	23.7	0.00e+00	122	40	0	1571815424	44	6155
2026-01-04 12:49:46.00	115.87	17.43	-35.9	-36.8	23.8	0.00e+00	120	40	0	1574961152	44	6084
2026-01-04 12:49:47.01	116.08	17.37	-35.7	-36.6	23.9	0.00e+00	123	40	0	1578106880	44	5946
2026-01-04 12:49:48.02	116.28	17.31	-35.7	-36.6	23.9	0.00e+00	123	40	0	1581252608	44	5977
2026-01-04 12:49:49.03	116.48	17.25	-35.7	-36.6	23.8	0.00e+00	123	40	0	1584398336	44	5994
2026-01-04 12:49:50.04	116.68	17.20	-35.6	-36.6	23.9	0.00e+00	122	40	0	1587544064	44	5936
2026-01-04 12:49:51.05	116.87	17.14	-35.5	-36.5	23.9	0.00e+00	120	40	0	1590689792	44	5865
2026-01-04 12:49:52.06	117.07	17.08	-35.6	-36.5	23.9	0.00e+00	123	40	0	1593835520	44	5923
2026-01-04 12:49:53.07	117.27	17.02	-35.8	-36.7	23.7	0.00e+00	123	40	0	1596981248	44	6052
2026-01-04 12:49:54.08	117.47	16.96	-35.7	-36.6	23.8	0.00e+00	123	40	0	1600126976	44	5945
2026-01-04 12:49:55.09	117.66	16.90	-35.8	-36.7	23.7	0.00e+00	121	40	0	1603272704	44	6061
2026-01-04 12:49:56.09	117.86	16.84	-35.9	-36.8	23.7	0.00e+00	123	40	0	1606418432	44	6112
2026-01-04 12:49:57.10	118.05	16.77	-35.9	-36.8	23.8	0.00e+00	120	40	0	1609564160	44	6131
2026-01-04 12:49:58.11	118.24	16.71	-36.0	-36.9	23.7	0.00e+00	122	40	0	1612709888	44	6194
2026-01-04 12:49:59.12	118.44	16.65	-35.9	-36.9	23.6	0.00e+00	120	40	0	1615855616	44	6157
2026-01-04 12:50:00.13	118.63	16.59	-36.0	-36.9	23.6	0.00e+00	122	40	0	1619001344	44	6199
2026-01-04 12:50:01.14	118.82	16.53	-36.2	-37.1	23.6	0.00e+00	122	40	0	1622147072	44	6314
2026-01-04 12:50:02.15	119.01	16.47	-36.0	-36.9	23.6	0.00e+00	122	40	0	1625292800	44	6179
2026-01-04 12:50:03.16	119.20	16.41	-35.8	-36.7	23.6	0.00e+00	120	40	0	1628438528	44	6045
2026-01-04 12:50:04.17	119.39	16.35	-36.2	-37.2	23.4	0.00e+00	123	40	0	1631584256	44	6361
2026-01-04 12:50:05.18	119.58	16.28	-36.4	-37.4	23.2	0.00e+00	123	40	0	1634729984	44	6523
2026-01-04 12:50:06.19	119.76	16.22	-36.0	-37.0	23.6	0.00e+00	122	40	0	1637875712	44	6216
2026-01-04 12:50:07.20	119.95	16.16	-36.0	-37.0	23.5	0.00e+00	120	40	0	1641021440	44	6240
2026-01-04 12:50:08.21	120.13	16.10	-36.1	-37.0	23.4	0.00e+00	123	40	0	1644167168	44	6260
2026-01-04 12:50:09.22	120.32	16.04	-36.0	-37.0	23.6	0.00e+00	123	40	0	1647312896	44	6229
2026-01-04 12:50:10.23	120.50	15.97	-36.0	-36.9	23.6	0.00e+00	123	40	0	1650458624	44	6197
2026-01-04 12:50:11.24	120.69	15.91	-35.9	-36.8	23.7	0.00e+00	122	40	0	1653604352	44	6127
2026-01-04 12:50:12.25	120.87	15.85	-35.8	-36.8	23.8	0.00e+00	120	40	0	1656750080	44	6075
2026-01-04 12:50:13.26	121.05	15.78	-35.9	-36.9	23.7	0.00e+00	122	40	0	1659895808	44	6155
2026-01-04 12:50:14.27	121.23	15.72	-35.8	-36.7	23.8	0.00e+00	118	40	0	1663041536	44	6048
2026-01-04 12:50:15.28	121.41	15.66	-35.8	-36.8	23.7	0.00e+00	123	40	0	1666187264	44	6080
2026-01-04 12:50:16.29	121.59	15.60	-36.2	-37.1	23.5	0.00e+00	127	40	0	1669332992	44	6325
2026-01-04 12:50:17.30	121.77	15.53	-36.4	-37.3	23.6	0.00e+00	121	40	0	1672478720	44	6496
2026-01-04 12:50:18.31	121.95	15.47	-36.2	-37.2	23.5	0.00e+00	123	41	0	1675624448	44	6372
2026-01-04 12:50:19.32	122.13	15.41	-36.2	-37.1	23.5	0.00e+00	122	40	0	1678770176	44	6331
2026-01-04 12:50:20.33	122.31	15.34	-35.9	-36.9	23.8	0.00e+00	122	40	0	1681915904	44	6158
2026-01-04 12:50:21.34	122.48	15.28	-36.2	-37.2	23.5	0.00e+00	123	40	0	1685061632	44	6375
2026-01-04 12:50:22.35	122.66	15.21	-36.0	-36.9	23.7	0.00e+00	122	40	0	1688207360	44	6189
2026-01-04 12:50:23.36	122.83	15.15	-36.3	-37.2	23.5	0.00e+00	123	40	0	1692401664	44	6421
2026-01-04 12:50:24.37	123.01	15.09	-36.2	-37.2	23.5	0.00e+00	122	40	0	1695547392	44	6359
2026-01-04 12:50:25.38	123.18	15.02	-36.0	-36.9	23.6	0.00e+00	122	40	0	1698693120	44	6188
2026-01-04 12:50:26.39	123.35	14.96	-36.2	-37.2	23.6	0.00e+00	122	40	0	1700790272	44	6367
2026-01-04 12:50:27.40	123.53	14.89	-35.9	-36.9	23.7	0.00e+00	120	40	0	1704984576	44	6150
2026-01-04 12:50:28.41	123.70	14.83	-35.8	-36.7	23.8	0.00e+00	123	40	0	1708130304	44	6018
2026-01-04 12:50:29.42	123.87	14.77	-35.8	-36.7	23.9	0.00e+00	120	40	0	1711276032	44	6012
2026-01-04 12:50:30.43	124.04	14.70	-35.6	-36.5	23.9	0.00e+00	123	40	0	1714421760	44	5917
2026-01-04 12:50:31.44	124.21	14.64	-35.7	-36.6	23.9	0.00e+00	123	40	0	1717567488	44	5972
2026-01-04 12:50:32.45	124.37	14.57	-35.8	-36.7	23.8	0.00e+00	123	40	0	1720713216	44	6033
2026-01-04 12:50:33.46	124.54	14.51	-35.8	-36.7	23.8	0.00e+00	121	41	0	1723858944	44	6033
2026-01-04 12:50:34.47	124.71	14.44	-35.8	-36.7	23.7	0.00e+00	123	40	0	1727004672	44	6033
2026-01-04 12:50:35.48	124.88	14.38	-36.0	-36.9	23.7	0.00e+00	121	40	0	1730150400	44	6205
2026-01-04 12:50:36.49	125.04	14.31	-36.1	-37.0	23.5	0.00e+00	123	40	0	1733296128	44	6251
2026-01-04 12:50:37.50	125.21	14.25	-36.3	-37.2	23.5	0.00e+00	122	41	0	1736441856	44	6403
2026-01-04 12:50:38.51	125.37	14.19	-36.1	-37.0	23.6	0.00e+00	122	40	0	1739587584	44	6270
2026-01-04 12:50:39.52	125.53	14.12	-36.4	-37.3	23.4	0.00e+00	121	40	0	1742733312	44	6468
2026-01-04 12:50:40.53	125.70	14.06	-36.5	-37.4	23.3	0.00e+00	123	40	0	1745879040	44	6556
2026-01-04 12:50:41.54	125.86	13.99	-36.4	-37.3	23.3	0.00e+00	120	40	0	1749024768	44	6490
2026-01-04 12:50:42.55	126.02	13.93	-36.5	-37.5	23.3	0.00e+00	123	40	0	1752170496	44	6594
2026-01-04 12:50:43.56	126.18	13.86	-36.7	-37.7	23.1	0.00e+00	123	41	0	1755316224	44	6734
2026-01-04 12:50:44.57	126.34	13.80	-36.7	-37.7	23.1	0.00e+00	123	40	0	1758461952	46	5995
2026-01-04 12:50:45.58	126.50	13.73	-36.7	-37.6	23.1	0.00e+00	123	40	0	1761607680	46	5991
2026-01-04 12:50:46.59	126.66	13.67	-36.5	-37.5	23.2	0.00e+00	122	40	0	1764753408	46	5888
2026-01-04 12:50:47.60	126.82	13.60	-36.6	-37.5	23.2	0.00e+00	122	41	0	1767899136	46	5916
2026-01-04 12:50:48.61	126.97	13.54	-36.5	-37.4	23.1	0.00e+00	122	40	0	1771044864	46	5839
2026-01-04 12:50:49.61	127.13	13.47	-36.6	-37.5	23.1	0.00e+00	123	41	0	1774190592	46	5920
2026-01-04 12:50:50.62	127.29	13.41	-36.6	-37.6	22.9	0.00e+00	120	41	0	1777336320	46	5955
2026-01-04 12:50:51.64	127.44	13.34	-36.7	-37.7	22.8	0.00e+00	122	40	0	1780482048	46	5995
2026-01-04 12:50:52.65	127.60	13.28	-36.8	-37.8	22.7	0.00e+00	120	41	0	1783627776	46	6130
2026-01-04 12:50:53.65	127.75	13.21	-36.9	-37.9	22.8	0.00e+00	122	41	0	1786773504	46	6170
2026-01-04 12:50:54.66	127.90	13.15	-36.9	-37.9	22.9	0.00e+00	122	40	0	1789919232	46	6152
2026-01-04 12:50:55.67	128.06	13.08	-37.1	-38.1	22.7	0.00e+00	123	41	0	1793064960	46	6296
2026-01-04 12:50:56.68	128.21	13.02	-37.0	-38.0	22.8	0.00e+00	123	41	0	1796210688	46	6212
2026-01-04 12:50:57.69	128.36	12.95	-36.8	-37.8	23.0	0.00e+00	122	40	0	1799356416	46	6110
2026-01-04 12:50:58.70	128.51	12.89	-36.7	-37.7	23.0	0.00e+00	123	40	0	1802502144	46	6009
2026-01-04 12:50:59.71	128.66	12.82	-36.6	-37.5	23.2	0.00e+00	122	40	0	1805647872	46	5920
2026-01-04 12:51:00.72	128.81	12.76	-36.6	-37.6	23.2	0.00e+00	120	40	0	1808793600	46	5960
2026-01-04 12:51:01.73	128.96	12.69	-36.6	-37.5	23.2	0.00e+00	121	40	0	1811939328	46	5917
2026-01-04 12:51:02.74	129.11	12.62	-36.5	-37.4	23.3	0.00e+00	120	40	0	1815085056	46	5827
2026-01-04 12:51:03.75	129.26	12.56	-37.0	-38.0	22.8	0.00e+00	122	41	0	1818230784	46	6213
2026-01-04 12:51:04.76	129.40	12.49	-36.6	-37.6	23.2	0.00e+00	122	40	0	1821376512	46	5972
2026-01-04 12:51:05.76	129.55	12.43	-36.5	-37.4	23.1	0.00e+00	122	41	0	1824522240	46	5853
2026-01-04 12:51:06.78	129.69	12.36	-36.9	-37.9	23.0	0.00e+00	123	40	0	1827667968	46	6143
2026-01-04 12:51:07.79	129.84	12.30	-36.7	-37.7	23.0	0.00e+00	122	41	0	1830813696	46	6006
2026-01-04 12:51:08.79	129.98	12.23	-36.7	-37.7	23.0	0.00e+00	121	40	0	1833959424	46	6016
2026-01-04 12:51:09.81	130.13	12.17	-36.9	-37.9	22.9	0.00e+00	122	40	0	1837105152	46	6153
2026-01-04 12:51:10.81	130.27	12.10	-36.9	-37.9	22.9	0.00e+00	123	40	0	1840250880	46	6183
2026-01-04 12:51:11.82	130.41	12.04	-36.9	-37.9	22.8	0.00e+00	123	40	0	1843396608	46	6168
2026-01-04 12:51:12.83	130.55	11.97	-37.0	-38.0	22.8	0.00e+00	120	40	0	1846542336	46	6208
2026-01-04 12:51:13.84	130.70	11.91	-37.1	-38.1	22.6	0.00e+00	122	41	0	1849688064	46	6297
2026-01-04 12:51:14.85	130.84	11.84	-37.0	-38.0	22.7	0.00e+00	123	40	0	1852833792	46	6233
2026-01-04 12:51:15.86	130.98	11.78	-37.1	-38.1	22.7	0.00e+00	123	40	0	1855979520	46	6322
2026-01-04 12:51:16.87	131.12	11.71	-37.3	-38.4	22.5	0.00e+00	120	40	0	1859125248	46	6503
2026-01-04 12:51:17.88	131.26	11.65	-37.2	-38.2	22.5	0.00e+00	123	40	0	1862270976	46	6422
2026-01-04 12:51:18.89	131.39	11.58	-37.1	-38.0	22.7	0.00e+00	122	40	0	1865416704	46	6273
2026-01-04 12:51:19.90	131.53	11.52	-37.2	-38.2	22.6	0.00e+00	123	40	0	1868562432	46	6360
2026-01-04 12:51:20.91	131.67	11.45	-37.1	-38.1	22.4	0.00e+00	122	40	0	1871708160	46	6334
2026-01-04 12:51:21.92	131.81	11.39	-37.1	-38.2	22.5	0.00e+00	122	40	0	1874853888	46	6351
2026-01-04 12:51:22.93	131.94	11.32	-37.2	-38.2	22.5	0.00e+00	123	40	0	1877999616	46	6373
2026-01-04 12:51:23.94	132.08	11.26	-37.6	-38.7	22.3	0.00e+00	123	40	0	1881145344	46	6748
2026-01-04 12:51:24.95	132.21	11.19	-37.3	-38.3	22.2	0.00e+00	122	40	0	1884291072	48	5781
2026-01-04 12:51:25.96	132.35	11.13	-37.5	-38.6	22.2	0.00e+00	123	41	0	1887436800	48	5941
2026-01-04 12:51:26.96	132.48	11.07	-37.6	-38.7	22.1	0.00e+00	122	40	0	1890582528	48	6022
2026-01-04 12:51:27.97	132.61	11.00	-37.6	-38.6	22.2	0.00e+00	120	40	0	1893728256	48	5960
2026-01-04 12:51:28.98	132.75	10.94	-37.9	-39.0	21.9	0.00e+00	122	40	0	1896873984	48	6238
2026-01-04 12:51:29.99	132.88	10.87	-37.7	-38.7	22.1	0.00e+00	123	40	0	1900019712	48	6026
2026-01-04 12:51:31.00	133.01	10.81	-37.2	-38.2	22.5	0.00e+00	120	40	0	1903165440	48	5724
2026-01-04 12:51:32.01	133.14	10.74	-37.3	-38.4	22.4	0.00e+00	123	40	0	1906311168	48	5792
2026-01-04 12:51:33.02	133.27	10.68	-37.5	-38.5	22.3	0.00e+00	123	40	0	1909456896	48	5923
2026-01-04 12:51:34.03	133.40	10.61	-37.4	-38.4	22.4	0.00e+00	122	40	0	1912602624	48	5834
2026-01-04 12:51:35.04	133.53	10.55	-37.2	-38.2	22.5	0.00e+00	123	40	0	1915748352	48	5724
2026-01-04 12:51:36.05	133.66	10.48	-37.3	-38.3	22.5	0.00e+00	122	40	0	1918894080	48	5770
2026-01-04 12:51:37.06	133.79	10.42	-37.7	-38.8	22.2	0.00e+00	122	41	0	1922039808	48	6084
2026-01-04 12:51:38.06	133.91	10.36	-37.5	-38.5	22.3	0.00e+00	122	40	0	1925185536	48	5905
2026-01-04 12:51:39.07	134.04	10.29	-37.5	-38.5	22.1	0.00e+00	123	40	0	1928331264	48	5920
2026-01-04 12:51:40.08	134.17	10.23	-37.5	-38.6	22.1	0.00e+00	123	40	0	1931476992	48	5931
2026-01-04 12:51:41.09	134.29	10.16	-37.5	-38.5	22.2	0.00e+00	122	41	0	1934622720	48	5889
2026-01-04 12:51:42.10	134.42	10.10	-37.5	-38.6	22.1	0.00e+00	122	40	0	1937768448	48	5936
2026-01-04 12:51:43.12	134.55	10.03	-37.3	-38.4	22.3	0.00e+00	122	40	0	1940914176	48	5800
2026-01-04 12:51:44.12	134.67	9.97	-37.6	-38.6	22.2	0.00e+00	123	40	0	1944059904	48	5949
2026-01-04 12:51:45.13	134.79	9.91	-37.3	-38.4	22.3	0.00e+00	120	40	0	1947205632	48	5804
2026-01-04 12:51:46.14	134.92	9.84	-37.4	-38.4	22.3	0.00e+00	123	41	0	1950351360	48	5814
2026-01-04 12:51:47.15	135.04	9.78	-37.1	-38.1	22.5	0.00e+00	122	40	0	1953497088	48	5656
2026-01-04 12:51:48.16	135.16	9.72	-37.4	-38.4	22.3	0.00e+00	122	40	0	1956642816	48	5822
2026-01-04 12:51:49.17	135.29	9.65	-37.3	-38.3	22.3	0.00e+00	123	40	0	1959788544	48	5780
2026-01-04 12:51:50.18	135.41	9.59	-37.1	-38.1	22.5	0.00e+00	123	40	0	1962934272	48	5628
2026-01-04 12:51:51.19	135.53	9.52	-37.1	-38.1	22.5	0.00e+00	120	40	0	1966080000	48	5646
2026-01-04 12:51:52.20	135.65	9.46	-37.1	-38.1	22.5	0.00e+00	123	40	0	1969225728	48	5642
2026-01-04 12:51:53.21	135.77	9.40	-37.1	-38.1	22.4	0.00e+00	123	40	0	1972371456	48	5653
2026-01-04 12:51:54.22	135.89	9.33	-37.2	-38.2	22.4	0.00e+00	123	40	0	1975517184	48	5714
2026-01-04 12:51:55.23	136.01	9.27	-37.2	-38.2	22.5	0.00e+00	123	40	0	1978662912	48	5681
