passes_logs/2026/01/04/R4.6S_Anadyr/R4.6S_Anadyr__20260104_142058_NOAA_21_JPSS-2_rec.log

#Pass ID: 20260104_142058_NOAA 21 (JPSS-2)
#Satellite: NOAA 21 (JPSS-2)
#Configuration: NOAA-21
#almurnet v.1.7.20251203
#Start time: 2026-01-04 14:21:00

#Version: 2.2.20231116
#Station: R4.6S_Anadyr
#Location: 177.4865 lon 64.73178 lat
#TLE: 1 54234U 22150A   26003.45311712  .00000198  00000+0  11468-3 0  9993
#TLE: 2 54234  98.7487 304.4932 0001159 347.5017  12.6130 14.19531745163172

#Time	Az	El	Level	Level2	SNR	BER	BlckErr	Temp	State	Recorded	gain1	gain2
2026-01-04 14:21:00.88	19.82	0.13	-49.8	-64.6	3.5	1.51e+00	0	37	0	0	60	61731
2026-01-04 14:21:01.89	19.84	0.19	-51.8	-64.6	3.5	1.52e+00	0	38	104	0	60	59802
2026-01-04 14:21:02.90	19.85	0.25	-51.4	-64.2	3.5	1.51e+00	0	38	104	0	60	57005
2026-01-04 14:21:03.91	19.87	0.31	-50.7	-63.6	3.5	1.52e+00	0	39	104	0	60	52893
2026-01-04 14:21:04.92	19.88	0.37	-49.9	-62.8	3.5	1.51e+00	0	39	104	0	60	48666
2026-01-04 14:21:05.93	19.90	0.43	-49.7	-62.7	3.5	1.52e+00	0	39	104	0	60	47787
2026-01-04 14:21:06.94	19.91	0.49	-49.7	-62.6	3.5	1.51e+00	0	39	104	0	60	47128
2026-01-04 14:21:07.95	19.93	0.55	-49.6	-62.5	3.5	1.52e+00	0	39	104	0	60	46994
2026-01-04 14:21:08.96	19.94	0.62	-49.5	-62.4	3.5	1.51e+00	0	39	104	0	60	46437
2026-01-04 14:21:09.96	19.96	0.68	-49.5	-62.4	3.5	1.52e+00	0	39	104	0	60	46102
2026-01-04 14:21:10.98	19.98	0.74	-49.4	-62.3	3.5	1.52e+00	0	39	104	0	60	45648
2026-01-04 14:21:11.98	19.99	0.80	-49.3	-62.2	3.5	1.52e+00	0	39	104	0	60	44980
2026-01-04 14:21:12.99	20.01	0.86	-49.1	-62.0	3.5	1.52e+00	0	39	104	0	60	43995
2026-01-04 14:21:14.00	20.02	0.92	-48.9	-61.8	3.5	1.52e+00	0	39	104	0	60	43190
2026-01-04 14:21:15.01	20.04	0.98	-48.8	-61.7	3.5	1.52e+00	0	39	104	0	60	42563
2026-01-04 14:21:16.02	20.06	1.04	-48.6	-61.3	3.5	1.51e+00	0	39	104	0	60	40945
2026-01-04 14:21:17.03	20.07	1.11	-48.2	-61.0	3.5	1.51e+00	0	39	104	0	60	39201
2026-01-04 14:21:18.04	20.09	1.17	-48.1	-60.9	3.5	1.52e+00	0	39	104	0	60	38983
2026-01-04 14:21:19.05	20.10	1.23	-48.2	-60.9	3.5	1.52e+00	0	39	104	0	60	39045
2026-01-04 14:21:20.06	20.12	1.29	-48.1	-60.9	3.5	1.52e+00	0	39	104	0	60	39066
2026-01-04 14:21:21.07	20.14	1.36	-48.1	-60.9	3.5	1.52e+00	0	39	104	0	60	39022
2026-01-04 14:21:22.08	20.15	1.42	-48.1	-60.9	3.5	1.52e+00	0	39	104	0	60	38808
2026-01-04 14:21:23.09	20.17	1.48	-48.1	-60.9	3.5	1.52e+00	0	39	104	0	60	38849
2026-01-04 14:21:24.10	20.19	1.54	-48.1	-60.8	3.5	1.52e+00	0	39	104	0	60	38478
2026-01-04 14:21:25.11	20.20	1.61	-48.1	-60.8	3.5	1.52e+00	0	39	104	0	60	38326
2026-01-04 14:21:26.12	20.22	1.67	-48.1	-60.8	3.5	1.52e+00	0	39	104	0	60	38597
2026-01-04 14:21:27.13	20.24	1.73	-48.1	-60.8	3.5	1.52e+00	0	39	104	0	60	38625
2026-01-04 14:21:28.14	20.25	1.80	-48.1	-60.9	3.5	1.52e+00	0	39	104	0	60	38944
2026-01-04 14:21:29.15	20.27	1.86	-48.1	-60.9	3.5	1.52e+00	0	39	104	0	60	39070
2026-01-04 14:21:30.15	20.29	1.92	-48.1	-60.9	3.5	1.52e+00	0	39	104	0	60	39147
2026-01-04 14:21:31.16	20.30	1.99	-48.1	-60.9	3.5	1.52e+00	0	39	104	0	60	39102
2026-01-04 14:21:32.17	20.32	2.05	-48.2	-60.9	3.5	1.52e+00	0	39	104	0	60	39121
2026-01-04 14:21:33.18	20.34	2.11	-48.1	-61.0	3.5	1.51e+00	0	39	104	0	60	39165
2026-01-04 14:21:34.19	20.35	2.18	-48.1	-61.0	3.5	1.52e+00	0	39	104	0	60	39251
2026-01-04 14:21:35.20	20.37	2.24	-48.1	-61.0	3.5	1.52e+00	0	39	104	0	60	39280
2026-01-04 14:21:36.21	20.39	2.31	-48.1	-60.9	3.5	1.52e+00	0	39	104	0	60	38843
2026-01-04 14:21:37.22	20.40	2.37	-48.1	-60.7	3.5	1.52e+00	0	39	104	0	60	37892
2026-01-04 14:21:38.23	20.42	2.44	-48.1	-60.2	3.5	1.52e+00	0	39	104	0	60	36055
2026-01-04 14:21:39.24	20.44	2.50	-48.0	-59.7	3.5	1.52e+00	0	39	104	0	60	33838
2026-01-04 14:21:40.25	20.46	2.57	-48.0	-59.0	3.5	1.51e+00	0	39	104	0	60	31291
2026-01-04 14:21:41.26	20.47	2.63	-48.0	-58.9	3.5	1.49e+00	0	39	104	0	60	30771
2026-01-04 14:21:42.27	20.49	2.70	-47.9	-58.7	3.7	1.50e+00	0	39	104	0	60	30262
2026-01-04 14:21:43.28	20.51	2.76	-48.0	-58.9	3.7	1.50e+00	0	39	104	0	60	31101
2026-01-04 14:21:44.29	20.53	2.83	-47.9	-58.6	3.6	1.51e+00	0	39	104	0	60	29743
2026-01-04 14:21:45.30	20.54	2.90	-47.8	-57.4	4.2	1.44e+00	0	39	104	0	60	25877
2026-01-04 14:21:46.31	20.56	2.96	-47.4	-54.7	5.9	7.43e-01	120	39	0	0	60	19093
2026-01-04 14:21:47.32	20.58	3.03	-46.6	-51.4	8.3	8.08e-02	122	39	0	3145728	60	12996
2026-01-04 14:21:48.33	20.60	3.09	-45.4	-48.8	11.2	3.08e-03	123	39	0	6291456	60	9698
2026-01-04 14:21:49.33	20.61	3.16	-44.6	-47.4	12.8	2.29e-04	122	39	0	9437184	60	8205
2026-01-04 14:21:50.34	20.63	3.23	-43.4	-45.7	14.7	2.20e-06	122	39	0	12582912	60	6773
2026-01-04 14:21:51.36	20.65	3.29	-41.9	-43.7	16.7	0.00e+00	123	39	0	15728640	58	6005
2026-01-04 14:21:52.37	20.67	3.36	-41.9	-43.7	16.5	0.00e+00	123	39	0	18874368	58	6040
2026-01-04 14:21:53.38	20.69	3.43	-41.5	-43.1	17.2	0.00e+00	122	39	0	22020096	56	6326
2026-01-04 14:21:54.39	20.70	3.50	-40.7	-42.2	17.8	0.00e+00	122	39	0	25165824	54	6403
2026-01-04 14:21:55.40	20.72	3.56	-40.7	-42.2	18.0	0.00e+00	120	39	0	28311552	54	6397
2026-01-04 14:21:56.41	20.74	3.63	-40.7	-42.1	18.1	0.00e+00	123	39	0	31457280	54	6339
2026-01-04 14:21:57.42	20.76	3.70	-41.3	-42.9	17.3	0.00e+00	121	39	0	34603008	54	6911
2026-01-04 14:21:58.43	20.78	3.77	-43.1	-45.3	15.0	0.00e+00	123	39	0	37748736	56	8089
2026-01-04 14:21:59.44	20.80	3.83	-42.6	-44.6	16.2	0.00e+00	123	39	0	40894464	58	6697
2026-01-04 14:22:00.45	20.81	3.90	-39.0	-40.2	20.0	0.00e+00	123	39	0	44040192	52	5685
2026-01-04 14:22:01.46	20.83	3.97	-43.5	-45.8	15.0	5.30e-06	123	39	0	47185920	60	6813
2026-01-04 14:22:02.47	20.85	4.04	-47.7	-56.2	5.1	1.46e+00	0	39	104	49283072	60	22548
2026-01-04 14:22:03.48	20.87	4.11	-41.3	-42.8	18.2	0.00e+00	123	39	0	49283072	58	5407
2026-01-04 14:22:04.49	20.89	4.18	-48.0	-60.4	3.5	1.51e+00	0	39	104	51380224	60	36779
2026-01-04 14:22:05.50	20.91	4.25	-42.1	-44.2	16.0	0.00e+00	123	39	104	51380224	58	6377
2026-01-04 14:22:06.51	20.93	4.32	-41.9	-43.6	16.2	0.00e+00	122	39	0	53477376	58	5986
2026-01-04 14:22:07.52	20.95	4.39	-42.7	-44.7	15.7	0.00e+00	123	39	0	56623104	58	6740
2026-01-04 14:22:08.53	20.97	4.45	-41.4	-43.0	17.1	0.00e+00	123	39	0	58720256	56	6214
2026-01-04 14:22:09.54	20.98	4.52	-41.7	-43.4	17.4	0.00e+00	123	39	0	61865984	56	6527
2026-01-04 14:22:10.55	21.00	4.59	-42.4	-44.2	16.4	0.00e+00	120	39	0	66060288	56	7140
2026-01-04 14:22:11.56	21.02	4.67	-42.3	-44.0	16.6	0.00e+00	121	39	0	69206016	56	7033
2026-01-04 14:22:12.57	21.04	4.74	-41.4	-43.0	17.5	0.00e+00	123	39	0	72351744	56	6235
2026-01-04 14:22:13.58	21.06	4.81	-41.7	-43.4	17.0	0.00e+00	123	39	0	75497472	56	6508
2026-01-04 14:22:14.59	21.08	4.88	-41.4	-42.9	17.2	0.00e+00	122	39	0	78643200	56	6205
2026-01-04 14:22:15.60	21.10	4.95	-41.9	-43.5	17.3	0.00e+00	122	39	0	81788928	56	6630
2026-01-04 14:22:16.61	21.12	5.02	-42.5	-44.3	15.7	0.00e+00	122	39	0	84934656	56	7247
2026-01-04 14:22:17.62	21.14	5.09	-42.7	-44.7	16.2	0.00e+00	123	39	0	88080384	58	6727
2026-01-04 14:22:18.63	21.16	5.16	-42.7	-44.6	15.9	0.00e+00	123	39	0	91226112	58	6663
2026-01-04 14:22:19.64	21.18	5.23	-42.6	-44.5	16.2	0.00e+00	120	39	0	94371840	58	6597
2026-01-04 14:22:20.65	21.20	5.31	-41.3	-42.8	17.7	0.00e+00	123	39	0	97517568	56	6100
2026-01-04 14:22:21.66	21.22	5.38	-41.4	-43.0	17.5	0.00e+00	123	39	0	100663296	56	6224
2026-01-04 14:22:22.67	21.24	5.45	-41.1	-42.6	18.2	0.00e+00	122	39	0	103809024	56	5957
2026-01-04 14:22:23.68	21.26	5.52	-40.6	-42.1	18.2	0.00e+00	120	39	0	106954752	54	6290
2026-01-04 14:22:24.69	21.28	5.60	-40.8	-42.2	18.3	0.00e+00	122	39	0	110100480	54	6418
2026-01-04 14:22:25.69	21.30	5.67	-40.7	-42.1	18.2	0.00e+00	123	39	0	113246208	54	6297
2026-01-04 14:22:26.70	21.32	5.74	-41.1	-42.6	17.9	0.00e+00	123	39	0	116391936	54	6653
2026-01-04 14:22:27.71	21.34	5.81	-40.0	-41.3	19.1	0.00e+00	123	39	0	119537664	54	5758
2026-01-04 14:22:28.72	21.36	5.89	-39.6	-40.9	19.7	0.00e+00	123	39	0	122683392	52	6137
2026-01-04 14:22:29.73	21.38	5.96	-39.9	-41.2	19.1	0.00e+00	122	39	0	125829120	52	6417
2026-01-04 14:22:30.74	21.40	6.03	-38.8	-40.0	20.5	0.00e+00	123	39	0	128974848	52	5551
2026-01-04 14:22:31.75	21.42	6.11	-38.6	-39.8	20.6	0.00e+00	123	39	0	132120576	50	6097
2026-01-04 14:22:32.76	21.44	6.18	-38.0	-39.1	21.2	0.00e+00	122	39	0	135266304	50	5648
2026-01-04 14:22:33.77	21.46	6.26	-38.2	-39.4	21.0	0.00e+00	120	39	0	138412032	50	5798
2026-01-04 14:22:34.78	21.49	6.33	-38.1	-39.2	21.2	0.00e+00	123	39	0	141557760	50	5675
2026-01-04 14:22:35.79	21.51	6.41	-38.3	-39.4	21.0	0.00e+00	120	39	0	144703488	50	5835
2026-01-04 14:22:36.80	21.53	6.48	-38.2	-39.3	20.9	0.00e+00	122	39	0	147849216	50	5727
2026-01-04 14:22:37.81	21.55	6.56	-38.3	-39.4	21.0	0.00e+00	120	39	0	150994944	50	5851
2026-01-04 14:22:38.81	21.57	6.63	-38.2	-39.3	21.1	0.00e+00	122	39	0	154140672	50	5731
2026-01-04 14:22:39.82	21.59	6.71	-38.4	-39.5	21.1	0.00e+00	123	39	0	157286400	50	5901
2026-01-04 14:22:40.83	21.61	6.79	-38.0	-39.1	21.1	0.00e+00	123	39	0	160432128	50	5644
2026-01-04 14:22:41.84	21.63	6.86	-38.2	-39.2	21.2	0.00e+00	120	39	0	163577856	50	5725
2026-01-04 14:22:42.86	21.66	6.94	-38.0	-39.1	21.2	0.00e+00	123	39	0	166723584	50	5645
2026-01-04 14:22:43.87	21.68	7.02	-38.1	-39.2	21.2	0.00e+00	120	40	0	169869312	50	5695
2026-01-04 14:22:44.87	21.70	7.09	-38.1	-39.2	21.3	0.00e+00	121	39	0	173015040	50	5723
2026-01-04 14:22:45.89	21.72	7.17	-37.9	-39.0	21.3	0.00e+00	123	40	0	176160768	50	5591
2026-01-04 14:22:46.90	21.74	7.25	-37.5	-38.5	21.7	0.00e+00	122	39	0	179306496	48	5907
2026-01-04 14:22:47.91	21.77	7.32	-37.6	-38.7	21.6	0.00e+00	122	40	0	182452224	48	6046
2026-01-04 14:22:48.92	21.79	7.40	-37.6	-38.7	21.6	0.00e+00	123	39	0	185597952	48	6026
2026-01-04 14:22:49.93	21.81	7.48	-37.6	-38.6	21.7	0.00e+00	123	40	0	188743680	48	5994
2026-01-04 14:22:50.94	21.83	7.56	-37.3	-38.3	22.0	0.00e+00	122	39	0	191889408	48	5772
2026-01-04 14:22:51.95	21.86	7.64	-37.4	-38.5	21.8	0.00e+00	123	39	0	195035136	48	5862
2026-01-04 14:22:52.96	21.88	7.72	-37.6	-38.7	21.8	0.00e+00	120	39	0	198180864	48	6001
2026-01-04 14:22:53.97	21.90	7.80	-37.8	-38.9	21.5	0.00e+00	122	39	0	201326592	48	6160
2026-01-04 14:22:54.98	21.92	7.88	-37.4	-38.5	21.8	0.00e+00	122	39	0	204472320	48	5883
2026-01-04 14:22:55.99	21.95	7.95	-37.4	-38.5	21.8	0.00e+00	123	39	0	207618048	48	5868
2026-01-04 14:22:57.00	21.97	8.03	-37.4	-38.5	21.8	0.00e+00	122	39	0	210763776	48	5902
2026-01-04 14:22:58.01	21.99	8.11	-37.5	-38.5	21.9	0.00e+00	123	39	0	213909504	48	5904
2026-01-04 14:22:59.02	22.02	8.20	-37.2	-38.2	22.1	0.00e+00	123	40	0	217055232	48	5725
2026-01-04 14:23:00.03	22.04	8.28	-37.4	-38.5	21.9	0.00e+00	123	39	0	220200960	48	5868
2026-01-04 14:23:01.04	22.06	8.36	-37.0	-38.1	22.3	0.00e+00	120	39	0	223346688	48	5600
2026-01-04 14:23:02.05	22.09	8.44	-37.4	-38.4	21.9	0.00e+00	123	39	0	226492416	48	5840
2026-01-04 14:23:03.06	22.11	8.52	-37.3	-38.3	22.0	0.00e+00	123	40	0	229638144	48	5757
2026-01-04 14:23:04.07	22.13	8.60	-37.4	-38.5	22.0	0.00e+00	122	40	0	232783872	48	5874
2026-01-04 14:23:05.07	22.16	8.68	-37.7	-38.8	21.6	0.00e+00	122	40	0	235929600	48	6086
2026-01-04 14:23:06.09	22.18	8.76	-37.1	-38.2	22.1	0.00e+00	123	40	0	239075328	48	5662
2026-01-04 14:23:07.09	22.21	8.85	-37.5	-38.6	22.1	0.00e+00	122	40	0	242221056	48	5941
2026-01-04 14:23:08.10	22.23	8.93	-37.3	-38.3	22.1	0.00e+00	122	40	0	245366784	48	5755
2026-01-04 14:23:09.11	22.25	9.01	-37.3	-38.3	22.1	0.00e+00	120	40	0	248512512	48	5785
2026-01-04 14:23:10.12	22.28	9.10	-37.2	-38.2	22.3	0.00e+00	123	40	0	251658240	48	5702
2026-01-04 14:23:11.13	22.30	9.18	-37.2	-38.2	22.2	0.00e+00	120	40	0	254803968	48	5714
2026-01-04 14:23:12.14	22.33	9.26	-36.9	-37.9	22.4	0.00e+00	122	40	0	257949696	48	5518
2026-01-04 14:23:13.15	22.35	9.35	-37.0	-38.0	22.3	0.00e+00	123	40	0	261095424	48	5583
2026-01-04 14:23:14.17	22.38	9.43	-36.9	-37.9	22.5	0.00e+00	122	40	0	264241152	48	5490
2026-01-04 14:23:15.18	22.40	9.52	-37.0	-38.0	22.3	0.00e+00	122	40	0	267386880	48	5582
2026-01-04 14:23:16.19	22.43	9.60	-36.8	-37.8	22.5	0.00e+00	122	40	0	270532608	48	5439
2026-01-04 14:23:17.20	22.45	9.69	-37.0	-38.0	22.4	0.00e+00	123	40	0	273678336	48	5562
2026-01-04 14:23:18.20	22.48	9.77	-36.9	-37.9	22.5	0.00e+00	122	40	0	276824064	48	5503
2026-01-04 14:23:19.21	22.50	9.86	-37.2	-38.2	22.2	0.00e+00	123	40	0	279969792	48	5681
2026-01-04 14:23:20.22	22.53	9.94	-36.7	-37.7	22.6	0.00e+00	123	40	0	283115520	46	6018
2026-01-04 14:23:21.23	22.55	10.03	-37.0	-38.0	22.4	0.00e+00	120	40	0	286261248	46	6229
2026-01-04 14:23:22.24	22.58	10.12	-36.7	-37.7	22.7	0.00e+00	123	40	0	289406976	46	6001
2026-01-04 14:23:23.25	22.61	10.20	-36.6	-37.6	22.7	0.00e+00	120	40	0	292552704	46	5986
2026-01-04 14:23:24.26	22.63	10.29	-36.6	-37.6	22.7	0.00e+00	123	40	0	295698432	46	5971
2026-01-04 14:23:25.27	22.66	10.38	-36.5	-37.5	22.8	0.00e+00	120	40	0	298844160	46	5865
2026-01-04 14:23:26.28	22.69	10.47	-36.6	-37.6	22.8	0.00e+00	123	40	0	301989888	46	5930
2026-01-04 14:23:27.29	22.71	10.55	-36.5	-37.5	22.8	0.00e+00	123	40	0	305135616	46	5871
2026-01-04 14:23:28.30	22.74	10.64	-36.5	-37.5	22.8	0.00e+00	122	40	0	308281344	46	5892
2026-01-04 14:23:29.31	22.77	10.73	-36.4	-37.4	22.9	0.00e+00	122	40	0	311427072	46	5858
2026-01-04 14:23:30.32	22.79	10.82	-36.4	-37.4	22.8	0.00e+00	123	40	0	314572800	46	5847
2026-01-04 14:23:31.33	22.82	10.91	-36.3	-37.3	22.9	0.00e+00	120	40	0	317718528	46	5747
2026-01-04 14:23:32.34	22.85	11.00	-36.4	-37.4	22.8	0.00e+00	122	40	0	320864256	46	5830
2026-01-04 14:23:33.35	22.87	11.09	-36.2	-37.1	23.0	0.00e+00	123	40	0	324009984	46	5650
2026-01-04 14:23:34.36	22.90	11.18	-36.2	-37.2	23.0	0.00e+00	122	40	0	327155712	46	5673
2026-01-04 14:23:35.37	22.93	11.27	-36.2	-37.2	23.0	0.00e+00	120	40	0	330301440	46	5720
2026-01-04 14:23:36.38	22.96	11.36	-36.2	-37.2	23.0	0.00e+00	122	40	0	333447168	46	5686
2026-01-04 14:23:37.39	22.98	11.45	-36.4	-37.4	22.7	0.00e+00	123	40	0	336592896	46	5841
2026-01-04 14:23:38.40	23.01	11.55	-36.6	-37.7	22.6	0.00e+00	123	40	0	339738624	46	5998
2026-01-04 14:23:39.41	23.04	11.64	-36.2	-37.2	22.9	0.00e+00	122	40	0	342884352	46	5713
2026-01-04 14:23:40.42	23.07	11.73	-36.5	-37.5	22.7	0.00e+00	123	40	0	346030080	46	5874
2026-01-04 14:23:41.43	23.10	11.82	-36.1	-37.1	23.1	0.00e+00	120	40	0	349175808	46	5597
2026-01-04 14:23:42.44	23.13	11.92	-36.1	-37.1	23.1	0.00e+00	122	40	0	352321536	46	5636
2026-01-04 14:23:43.45	23.15	12.01	-36.0	-37.0	23.2	0.00e+00	123	40	0	355467264	46	5553
2026-01-04 14:23:44.46	23.18	12.10	-36.1	-37.1	23.1	0.00e+00	122	40	0	358612992	46	5608
2026-01-04 14:23:45.47	23.21	12.20	-35.8	-36.8	23.3	0.00e+00	123	40	0	361758720	46	5438
2026-01-04 14:23:46.48	23.24	12.29	-36.0	-37.0	23.1	0.00e+00	120	40	0	364904448	46	5543
2026-01-04 14:23:47.49	23.27	12.39	-35.8	-36.8	23.2	0.00e+00	121	40	0	368050176	46	5414
2026-01-04 14:23:48.50	23.30	12.48	-35.8	-36.7	23.3	0.00e+00	123	40	0	372244480	44	6050
2026-01-04 14:23:49.51	23.33	12.58	-35.8	-36.7	23.2	0.00e+00	122	40	0	374341632	44	6045
2026-01-04 14:23:50.52	23.36	12.68	-35.6	-36.6	23.4	0.00e+00	123	40	0	377487360	44	5961
2026-01-04 14:23:51.53	23.39	12.77	-35.9	-36.8	23.2	0.00e+00	120	40	0	380633088	44	6128
2026-01-04 14:23:52.54	23.42	12.87	-35.7	-36.7	23.3	0.00e+00	123	40	0	383778816	44	6026
2026-01-04 14:23:53.55	23.45	12.97	-35.7	-36.7	23.3	0.00e+00	122	40	0	387973120	44	6007
2026-01-04 14:23:54.56	23.48	13.06	-35.7	-36.6	23.3	0.00e+00	123	40	0	391118848	44	5979
2026-01-04 14:23:55.57	23.51	13.16	-35.7	-36.7	23.4	0.00e+00	122	40	0	394264576	44	6019
2026-01-04 14:23:56.58	23.54	13.26	-35.7	-36.6	23.5	0.00e+00	123	40	0	397410304	44	5966
2026-01-04 14:23:57.59	23.57	13.36	-35.7	-36.7	23.4	0.00e+00	122	40	0	399507456	44	6013
2026-01-04 14:23:58.60	23.61	13.46	-35.7	-36.7	23.3	0.00e+00	123	40	0	403701760	44	6012
2026-01-04 14:23:59.60	23.64	13.56	-35.7	-36.6	23.5	0.00e+00	123	40	0	406847488	44	5970
2026-01-04 14:24:00.61	23.67	13.66	-35.7	-36.6	23.4	0.00e+00	123	40	0	409993216	44	5965
2026-01-04 14:24:01.62	23.70	13.76	-35.6	-36.5	23.5	0.00e+00	120	40	0	413138944	44	5912
2026-01-04 14:24:02.63	23.73	13.86	-35.7	-36.6	23.4	0.00e+00	123	40	0	416284672	44	5963
2026-01-04 14:24:03.64	23.76	13.96	-35.7	-36.6	23.4	0.00e+00	123	40	0	419430400	44	5981
2026-01-04 14:24:04.65	23.80	14.06	-35.9	-36.8	23.4	0.00e+00	123	40	0	422576128	44	6105
2026-01-04 14:24:05.66	23.83	14.16	-35.7	-36.6	23.5	0.00e+00	123	40	0	425721856	44	5972
2026-01-04 14:24:06.68	23.86	14.27	-35.9	-36.9	23.4	0.00e+00	121	40	0	428867584	44	6163
2026-01-04 14:24:07.68	23.90	14.37	-35.8	-36.7	23.5	0.00e+00	123	40	0	432013312	44	6050
2026-01-04 14:24:08.69	23.93	14.47	-35.5	-36.5	23.7	0.00e+00	123	40	0	435159040	44	5864
2026-01-04 14:24:09.70	23.96	14.58	-35.6	-36.5	23.7	0.00e+00	122	40	0	438304768	44	5897
2026-01-04 14:24:10.72	24.00	14.68	-35.7	-36.7	23.5	0.00e+00	122	40	0	441450496	44	6001
2026-01-04 14:24:11.73	24.03	14.79	-35.7	-36.6	23.6	0.00e+00	123	40	0	444596224	44	5956
2026-01-04 14:24:12.74	24.06	14.89	-35.6	-36.6	23.7	0.00e+00	123	40	0	447741952	44	5946
2026-01-04 14:24:13.74	24.10	14.99	-35.9	-36.8	23.5	0.00e+00	122	40	0	450887680	44	6098
2026-01-04 14:24:14.75	24.13	15.10	-35.7	-36.6	23.7	0.00e+00	122	40	0	454033408	44	5993
2026-01-04 14:24:15.76	24.17	15.21	-36.0	-37.0	23.6	0.00e+00	127	40	0	457179136	44	6207
2026-01-04 14:24:16.77	24.20	15.31	-36.4	-37.4	23.4	0.00e+00	123	40	0	460324864	44	6504
2026-01-04 14:24:17.78	24.24	15.42	-36.2	-37.1	23.5	0.00e+00	122	40	0	463470592	44	6329
2026-01-04 14:24:18.79	24.27	15.53	-36.0	-36.9	23.5	0.00e+00	122	40	0	466616320	44	6168
2026-01-04 14:24:19.80	24.31	15.64	-35.9	-36.8	23.5	0.00e+00	123	40	0	469762048	44	6101
2026-01-04 14:24:20.81	24.34	15.75	-35.9	-36.9	23.4	0.00e+00	123	40	0	472907776	44	6154
2026-01-04 14:24:21.82	24.38	15.86	-35.9	-36.9	23.5	0.00e+00	123	40	0	476053504	44	6136
2026-01-04 14:24:22.83	24.42	15.97	-35.9	-36.9	23.4	0.00e+00	122	40	0	479199232	44	6136
2026-01-04 14:24:23.84	24.45	16.08	-35.9	-36.8	23.4	0.00e+00	123	40	0	482344960	44	6129
2026-01-04 14:24:24.85	24.49	16.19	-35.9	-36.8	23.5	0.00e+00	123	40	0	485490688	44	6117
2026-01-04 14:24:25.86	24.53	16.30	-36.0	-36.9	23.3	0.00e+00	123	40	0	488636416	44	6190
2026-01-04 14:24:26.86	24.56	16.41	-35.8	-36.7	23.5	0.00e+00	122	40	0	491782144	44	6030
2026-01-04 14:24:27.87	24.60	16.52	-35.9	-36.8	23.3	0.00e+00	122	40	0	494927872	44	6128
2026-01-04 14:24:28.88	24.64	16.63	-35.8	-36.8	23.5	0.00e+00	123	40	0	498073600	44	6068
2026-01-04 14:24:29.89	24.67	16.75	-35.7	-36.7	23.5	0.00e+00	123	40	0	501219328	44	6010
2026-01-04 14:24:30.90	24.71	16.86	-35.9	-36.8	23.5	0.00e+00	123	40	0	504365056	44	6086
2026-01-04 14:24:31.91	24.75	16.97	-36.2	-37.1	23.2	0.00e+00	123	40	0	507510784	44	6336
2026-01-04 14:24:32.92	24.79	17.09	-36.3	-37.3	23.2	0.00e+00	122	40	0	510656512	44	6431
2026-01-04 14:24:33.93	24.83	17.20	-35.9	-36.9	23.4	0.00e+00	122	40	0	513802240	44	6147
2026-01-04 14:24:34.94	24.87	17.32	-36.0	-37.0	23.4	0.00e+00	122	40	0	516947968	44	6227
2026-01-04 14:24:35.95	24.91	17.44	-36.1	-37.0	23.2	0.00e+00	123	40	0	520093696	44	6255
2026-01-04 14:24:36.96	24.95	17.55	-35.9	-36.9	23.4	0.00e+00	122	40	0	523239424	44	6145
2026-01-04 14:24:37.97	24.99	17.67	-35.9	-36.9	23.2	0.00e+00	122	40	0	526385152	44	6149
2026-01-04 14:24:38.98	25.03	17.79	-36.0	-36.9	23.4	0.00e+00	123	40	0	529530880	44	6189
2026-01-04 14:24:39.99	25.07	17.91	-36.0	-37.0	23.3	0.00e+00	123	40	0	532676608	44	6211
2026-01-04 14:24:41.00	25.11	18.03	-35.8	-36.7	23.5	0.00e+00	120	40	0	535822336	44	6050
2026-01-04 14:24:42.01	25.15	18.15	-35.8	-36.7	23.5	0.00e+00	122	40	0	538968064	44	6063
2026-01-04 14:24:43.02	25.19	18.27	-35.5	-36.4	23.7	0.00e+00	123	40	0	542113792	44	5831
2026-01-04 14:24:44.03	25.23	18.39	-35.7	-36.6	23.6	0.00e+00	122	40	0	545259520	44	5994
2026-01-04 14:24:45.03	25.27	18.51	-35.8	-36.7	23.5	0.00e+00	123	40	0	548405248	44	6054
2026-01-04 14:24:46.04	25.32	18.63	-35.4	-36.4	23.8	0.00e+00	120	40	0	551550976	44	5800
2026-01-04 14:24:47.05	25.36	18.75	-35.5	-36.5	23.8	0.00e+00	122	40	0	554696704	44	5871
2026-01-04 14:24:48.06	25.40	18.88	-35.5	-36.4	23.7	0.00e+00	120	40	0	557842432	44	5831
2026-01-04 14:24:49.07	25.45	19.00	-35.5	-36.4	23.8	0.00e+00	123	40	0	560988160	44	5811
2026-01-04 14:24:50.08	25.49	19.13	-35.4	-36.3	23.8	0.00e+00	123	40	0	564133888	44	5763
2026-01-04 14:24:51.09	25.53	19.25	-35.4	-36.3	23.9	0.00e+00	123	40	0	567279616	44	5760
2026-01-04 14:24:52.10	25.58	19.38	-35.4	-36.3	23.9	0.00e+00	123	40	0	570425344	44	5759
2026-01-04 14:24:53.11	25.62	19.50	-35.3	-36.2	23.9	0.00e+00	123	40	0	573571072	44	5719
2026-01-04 14:24:54.12	25.67	19.63	-35.4	-36.3	23.9	0.00e+00	122	40	0	576716800	44	5773
2026-01-04 14:24:55.13	25.71	19.76	-35.4	-36.3	23.9	0.00e+00	122	40	0	579862528	44	5785
2026-01-04 14:24:56.14	25.76	19.89	-35.3	-36.3	24.0	0.00e+00	123	40	0	583008256	44	5726
2026-01-04 14:24:57.15	25.80	20.02	-35.3	-36.2	23.9	0.00e+00	122	40	0	586153984	44	5679
2026-01-04 14:24:58.16	25.85	20.14	-35.1	-36.0	24.0	0.00e+00	120	40	0	589299712	44	5592
2026-01-04 14:24:59.17	25.90	20.28	-35.1	-36.0	24.1	0.00e+00	123	40	0	592445440	44	5567
2026-01-04 14:25:00.18	25.94	20.41	-35.1	-36.0	24.0	0.00e+00	120	40	0	595591168	44	5556
2026-01-04 14:25:01.19	25.99	20.54	-35.0	-35.9	24.2	0.00e+00	120	40	0	598736896	44	5527
2026-01-04 14:25:02.20	26.04	20.67	-35.0	-35.9	24.2	0.00e+00	123	40	0	601882624	44	5515
2026-01-04 14:25:03.21	26.09	20.80	-35.0	-35.9	24.2	0.00e+00	123	40	0	605028352	44	5488
2026-01-04 14:25:04.22	26.13	20.94	-34.8	-35.7	24.4	0.00e+00	121	40	0	608174080	44	5390
2026-01-04 14:25:05.23	26.18	21.07	-35.0	-35.9	24.2	0.00e+00	122	40	0	611319808	44	5498
2026-01-04 14:25:06.24	26.23	21.21	-35.1	-36.0	24.2	0.00e+00	120	40	0	614465536	44	5538
2026-01-04 14:25:07.25	26.28	21.34	-34.8	-35.7	24.3	0.00e+00	122	40	0	617611264	44	5379
2026-01-04 14:25:08.26	26.33	21.48	-34.9	-35.7	24.3	0.00e+00	122	40	0	620756992	44	5403
2026-01-04 14:25:09.27	26.38	21.62	-34.7	-35.6	24.4	0.00e+00	122	40	0	623902720	42	5992
2026-01-04 14:25:10.28	26.43	21.75	-34.7	-35.5	24.5	0.00e+00	120	40	0	627048448	42	5914
2026-01-04 14:25:11.29	26.48	21.89	-34.6	-35.5	24.6	0.00e+00	122	40	0	630194176	42	5906
2026-01-04 14:25:12.30	26.54	22.03	-34.6	-35.5	24.5	0.00e+00	120	40	0	633339904	42	5890
2026-01-04 14:25:13.31	26.59	22.17	-34.5	-35.4	24.6	0.00e+00	123	40	0	636485632	42	5801
2026-01-04 14:25:14.32	26.64	22.31	-34.5	-35.4	24.5	0.00e+00	122	40	0	639631360	42	5803
2026-01-04 14:25:15.33	26.69	22.45	-34.7	-35.5	24.6	0.00e+00	123	40	0	642777088	42	5920
2026-01-04 14:25:16.34	26.75	22.60	-34.8	-35.7	24.5	0.00e+00	123	40	0	645922816	42	6028
2026-01-04 14:25:17.35	26.80	22.74	-34.8	-35.7	24.4	0.00e+00	123	40	0	649068544	42	6022
2026-01-04 14:25:18.36	26.86	22.88	-34.6	-35.5	24.6	0.00e+00	123	40	0	652214272	42	5881
2026-01-04 14:25:19.37	26.91	23.03	-34.3	-35.2	24.8	0.00e+00	123	40	0	655360000	42	5677
2026-01-04 14:25:20.38	26.97	23.18	-34.1	-34.9	24.9	0.00e+00	123	40	0	658505728	42	5530
2026-01-04 14:25:21.39	27.02	23.32	-34.1	-35.0	24.9	0.00e+00	123	40	0	661651456	42	5532
2026-01-04 14:25:22.41	27.08	23.47	-34.1	-35.0	24.8	0.00e+00	122	40	0	664797184	42	5562
2026-01-04 14:25:23.42	27.13	23.62	-34.1	-35.0	24.9	0.00e+00	122	40	0	667942912	42	5541
2026-01-04 14:25:24.43	27.19	23.77	-34.0	-34.9	25.0	0.00e+00	123	40	0	671088640	42	5507
2026-01-04 14:25:25.44	27.25	23.92	-34.2	-35.1	24.9	0.00e+00	123	40	0	674234368	42	5627
2026-01-04 14:25:26.45	27.31	24.07	-34.0	-34.9	24.9	0.00e+00	122	40	0	677380096	42	5468
2026-01-04 14:25:27.46	27.37	24.22	-34.0	-34.8	25.0	0.00e+00	122	40	0	680525824	42	5464
2026-01-04 14:25:28.47	27.43	24.37	-33.9	-34.7	25.1	0.00e+00	122	40	0	683671552	42	5398
2026-01-04 14:25:29.48	27.49	24.52	-34.0	-34.9	25.0	0.00e+00	122	40	0	686817280	42	5487
2026-01-04 14:25:30.49	27.55	24.68	-34.0	-34.9	25.1	0.00e+00	123	40	0	689963008	42	5471
2026-01-04 14:25:31.50	27.61	24.83	-34.4	-35.2	24.8	0.00e+00	123	40	0	693108736	42	5711
2026-01-04 14:25:32.50	27.67	24.99	-34.3	-35.1	25.0	0.00e+00	121	40	0	696254464	42	5650
2026-01-04 14:25:33.52	27.73	25.15	-34.3	-35.2	24.9	0.00e+00	122	40	0	699400192	42	5684
2026-01-04 14:25:34.53	27.79	25.30	-34.3	-35.2	25.0	0.00e+00	123	40	0	702545920	42	5664
2026-01-04 14:25:35.53	27.86	25.46	-34.6	-35.4	24.8	0.00e+00	123	40	0	705691648	42	5853
2026-01-04 14:25:36.54	27.92	25.62	-34.4	-35.3	24.8	0.00e+00	123	40	0	709885952	42	5727
2026-01-04 14:25:37.55	27.98	25.78	-34.5	-35.4	24.8	0.00e+00	122	40	0	713031680	42	5841
2026-01-04 14:25:38.56	28.05	25.94	-34.7	-35.6	24.7	0.00e+00	123	40	0	715128832	42	5978
2026-01-04 14:25:39.57	28.11	26.10	-34.9	-35.8	24.5	0.00e+00	123	40	0	718274560	42	6113
2026-01-04 14:25:40.58	28.18	26.27	-34.9	-35.8	24.6	0.00e+00	121	40	0	721420288	42	6077
2026-01-04 14:25:41.59	28.25	26.43	-35.1	-35.9	24.5	0.00e+00	123	40	0	724566016	42	6202
2026-01-04 14:25:42.60	28.31	26.60	-35.0	-35.8	24.5	0.00e+00	120	40	0	728760320	42	6131
2026-01-04 14:25:43.61	28.38	26.76	-35.1	-36.0	24.4	0.00e+00	122	40	0	731906048	42	6254
2026-01-04 14:25:44.62	28.45	26.93	-35.1	-36.0	24.3	0.00e+00	120	40	0	735051776	42	6248
2026-01-04 14:25:45.63	28.52	27.10	-35.2	-36.1	24.3	0.00e+00	122	40	0	738197504	42	6306
2026-01-04 14:25:46.64	28.59	27.27	-35.2	-36.1	24.2	0.00e+00	120	40	0	740294656	42	6334
2026-01-04 14:25:47.65	28.66	27.44	-35.3	-36.2	24.3	0.00e+00	123	40	0	744488960	42	6370
2026-01-04 14:25:48.65	28.73	27.61	-35.4	-36.3	24.2	0.00e+00	123	40	0	747634688	42	6454
2026-01-04 14:25:49.66	28.81	27.78	-35.6	-36.5	24.0	0.00e+00	123	40	0	750780416	42	6644
2026-01-04 14:25:50.67	28.88	27.95	-35.6	-36.5	24.0	0.00e+00	122	40	0	753926144	42	6618
2026-01-04 14:25:51.68	28.95	28.13	-35.7	-36.6	23.8	0.00e+00	122	40	0	757071872	44	5991
2026-01-04 14:25:52.69	29.03	28.30	-36.0	-37.0	23.7	0.00e+00	122	40	0	760217600	44	6231
2026-01-04 14:25:53.70	29.10	28.48	-36.1	-37.0	23.4	0.00e+00	123	40	0	763363328	44	6265
2026-01-04 14:25:54.71	29.18	28.66	-36.3	-37.3	23.4	0.00e+00	120	40	0	766509056	44	6427
2026-01-04 14:25:55.73	29.26	28.84	-36.3	-37.3	23.4	0.00e+00	123	40	0	769654784	44	6434
2026-01-04 14:25:56.73	29.33	29.01	-36.4	-37.4	23.2	0.00e+00	123	40	0	772800512	44	6503
2026-01-04 14:25:57.74	29.41	29.19	-36.6	-37.6	23.0	0.00e+00	122	40	0	775946240	44	6674
2026-01-04 14:25:58.75	29.49	29.38	-36.2	-37.2	23.3	0.00e+00	122	40	0	779091968	44	6367
2026-01-04 14:25:59.76	29.57	29.56	-36.1	-37.1	23.3	0.00e+00	122	40	0	782237696	44	6311
2026-01-04 14:26:00.77	29.65	29.74	-35.9	-36.9	23.5	0.00e+00	120	40	0	785383424	44	6173
2026-01-04 14:26:01.78	29.74	29.93	-35.9	-36.9	23.5	0.00e+00	123	40	0	788529152	44	6153
2026-01-04 14:26:02.79	29.82	30.11	-35.8	-36.7	23.8	0.00e+00	123	40	0	791674880	44	6027
2026-01-04 14:26:03.80	29.90	30.30	-35.6	-36.5	23.9	0.00e+00	123	40	0	794820608	44	5905
2026-01-04 14:26:04.81	29.99	30.49	-35.4	-36.3	24.1	0.00e+00	123	40	0	797966336	44	5787
2026-01-04 14:26:05.82	30.07	30.68	-35.4	-36.3	24.1	0.00e+00	123	40	0	801112064	44	5737
2026-01-04 14:26:06.83	30.16	30.87	-35.4	-36.3	24.2	0.00e+00	123	40	0	804257792	44	5762
2026-01-04 14:26:07.84	30.25	31.06	-35.0	-35.9	24.6	0.00e+00	123	40	0	807403520	44	5503
2026-01-04 14:26:08.85	30.34	31.26	-35.3	-36.2	24.4	0.00e+00	122	40	0	810549248	44	5703
2026-01-04 14:26:09.86	30.43	31.45	-35.1	-36.0	24.4	0.00e+00	123	40	0	813694976	44	5581
2026-01-04 14:26:10.87	30.52	31.65	-35.2	-36.1	24.6	0.00e+00	123	40	0	816840704	44	5617
2026-01-04 14:26:11.88	30.61	31.85	-34.9	-35.8	24.6	0.00e+00	123	40	0	819986432	44	5448
2026-01-04 14:26:12.89	30.70	32.04	-35.1	-36.0	24.5	0.00e+00	120	40	0	823132160	44	5555
2026-01-04 14:26:13.90	30.80	32.24	-35.3	-36.2	24.3	0.00e+00	123	40	0	826277888	44	5684
2026-01-04 14:26:14.91	30.89	32.45	-35.5	-36.4	24.2	0.00e+00	123	40	0	829423616	44	5822
2026-01-04 14:26:15.92	30.99	32.65	-35.3	-36.2	24.3	0.00e+00	123	40	0	832569344	44	5715
2026-01-04 14:26:16.93	31.08	32.85	-35.6	-36.5	24.0	0.00e+00	123	40	0	835715072	44	5891
2026-01-04 14:26:17.94	31.18	33.06	-35.5	-36.4	24.2	0.00e+00	123	40	0	838860800	44	5797
2026-01-04 14:26:18.95	31.28	33.26	-35.4	-36.3	24.3	0.00e+00	122	40	0	842006528	44	5752
2026-01-04 14:26:19.96	31.38	33.47	-35.6	-36.5	24.1	0.00e+00	123	40	0	845152256	44	5900
2026-01-04 14:26:20.97	31.49	33.68	-35.4	-36.4	24.3	0.00e+00	123	40	0	848297984	44	5792
2026-01-04 14:26:21.98	31.59	33.89	-35.7	-36.6	24.1	0.00e+00	123	40	0	851443712	44	5978
2026-01-04 14:26:22.99	31.69	34.10	-35.9	-36.8	23.8	0.00e+00	123	40	0	854589440	44	6088
2026-01-04 14:26:23.99	31.80	34.31	-36.0	-37.0	23.6	0.00e+00	123	40	0	857735168	44	6222
2026-01-04 14:26:25.00	31.91	34.53	-36.3	-37.3	23.6	0.00e+00	123	40	0	860880896	44	6447
2026-01-04 14:26:26.01	32.02	34.74	-36.4	-37.4	23.5	0.00e+00	123	40	0	864026624	44	6517
2026-01-04 14:26:27.02	32.13	34.96	-36.7	-37.7	23.1	0.00e+00	123	40	0	867172352	44	6764
2026-01-04 14:26:28.03	32.24	35.18	-36.5	-37.5	23.4	0.00e+00	122	40	0	870318080	44	6593
2026-01-04 14:26:29.04	32.35	35.40	-36.7	-37.7	23.2	0.00e+00	123	40	0	873463808	44	6733
2026-01-04 14:26:30.05	32.47	35.62	-37.0	-37.9	22.9	0.00e+00	120	40	0	876609536	46	6183
2026-01-04 14:26:31.06	32.58	35.84	-36.9	-37.9	23.2	0.00e+00	123	40	0	879755264	46	6156
2026-01-04 14:26:32.07	32.70	36.06	-36.7	-37.6	23.3	0.00e+00	123	40	0	882900992	46	5974
2026-01-04 14:26:33.08	32.82	36.29	-36.8	-37.8	23.3	0.00e+00	123	40	0	886046720	46	6077
2026-01-04 14:26:34.09	32.94	36.52	-36.8	-37.7	23.1	0.00e+00	123	40	0	889192448	46	6035
2026-01-04 14:26:35.10	33.06	36.75	-36.7	-37.7	23.2	0.00e+00	123	40	0	892338176	46	6015
2026-01-04 14:26:36.11	33.19	36.98	-36.7	-37.6	23.3	0.00e+00	121	40	0	895483904	46	5966
2026-01-04 14:26:37.12	33.31	37.21	-36.7	-37.7	23.2	0.00e+00	120	40	0	898629632	46	6015
2026-01-04 14:26:38.13	33.44	37.44	-36.8	-37.7	23.1	0.00e+00	122	40	0	901775360	46	6052
2026-01-04 14:26:39.14	33.57	37.67	-36.8	-37.8	23.2	0.00e+00	122	40	0	904921088	46	6085
2026-01-04 14:26:40.15	33.70	37.91	-36.9	-37.8	23.1	0.00e+00	123	40	0	908066816	46	6103
2026-01-04 14:26:41.16	33.83	38.15	-36.6	-37.5	23.4	0.00e+00	122	40	0	911212544	46	5883
2026-01-04 14:26:42.17	33.97	38.39	-36.5	-37.5	23.5	0.00e+00	123	40	0	914358272	46	5870
2026-01-04 14:26:43.18	34.10	38.63	-36.6	-37.5	23.4	0.00e+00	120	40	0	917504000	46	5918
2026-01-04 14:26:44.18	34.24	38.87	-36.5	-37.4	23.5	0.00e+00	122	40	0	920649728	46	5818
2026-01-04 14:26:45.20	34.38	39.11	-36.9	-37.8	23.3	0.00e+00	122	40	0	923795456	46	6121
2026-01-04 14:26:46.20	34.52	39.36	-36.8	-37.7	23.2	0.00e+00	120	40	0	926941184	46	6042
2026-01-04 14:26:47.22	34.67	39.61	-36.9	-37.8	23.1	0.00e+00	122	40	0	930086912	46	6107
2026-01-04 14:26:48.23	34.82	39.85	-36.8	-37.8	23.1	0.00e+00	120	40	0	933232640	46	6070
2026-01-04 14:26:49.23	34.97	40.10	-36.9	-37.9	22.9	0.00e+00	120	40	0	936378368	46	6161
2026-01-04 14:26:50.25	35.12	40.35	-37.3	-38.2	22.7	0.00e+00	122	40	0	939524096	46	6418
2026-01-04 14:26:51.26	35.27	40.61	-37.4	-38.4	22.6	0.00e+00	120	40	0	942669824	46	6573
2026-01-04 14:26:52.27	35.43	40.86	-37.5	-38.5	22.3	0.00e+00	123	40	0	945815552	48	5905
2026-01-04 14:26:53.28	35.59	41.12	-38.0	-39.1	22.1	0.00e+00	123	40	0	948961280	48	6309
2026-01-04 14:26:54.29	35.75	41.38	-38.2	-39.2	21.8	0.00e+00	123	40	0	952107008	48	6392
2026-01-04 14:26:55.29	35.91	41.63	-38.5	-39.6	21.7	0.00e+00	123	40	0	955252736	48	6655
2026-01-04 14:26:56.31	36.08	41.90	-38.6	-39.7	21.6	0.00e+00	123	40	0	958398464	48	6770
2026-01-04 14:26:57.32	36.25	42.16	-38.5	-39.6	21.6	0.00e+00	123	40	0	961544192	50	5979
2026-01-04 14:26:58.33	36.42	42.42	-38.6	-39.7	21.7	0.00e+00	122	40	0	964689920	50	6056
2026-01-04 14:26:59.34	36.60	42.69	-38.9	-40.0	21.3	0.00e+00	123	40	0	967835648	50	6230
2026-01-04 14:27:00.34	36.77	42.95	-38.7	-39.8	21.4	0.00e+00	123	40	0	970981376	50	6127
2026-01-04 14:27:01.35	36.95	43.22	-39.0	-40.1	21.3	0.00e+00	122	40	0	974127104	50	6317
2026-01-04 14:27:02.35	37.13	43.49	-38.6	-39.7	21.5	0.00e+00	123	40	0	977272832	50	6055
2026-01-04 14:27:03.36	37.32	43.76	-38.9	-40.0	21.0	0.00e+00	123	40	0	980418560	50	6263
2026-01-04 14:27:04.38	37.51	44.04	-39.1	-40.2	21.2	0.00e+00	122	40	0	983564288	50	6404
2026-01-04 14:27:05.39	37.70	44.32	-39.2	-40.3	21.0	0.00e+00	123	40	0	986710016	50	6482
2026-01-04 14:27:06.40	37.90	44.59	-38.8	-39.9	21.6	0.00e+00	120	40	0	989855744	50	6186
2026-01-04 14:27:07.41	38.10	44.87	-38.6	-39.6	21.3	0.00e+00	123	40	0	993001472	50	5975
2026-01-04 14:27:08.42	38.30	45.15	-38.9	-40.0	21.2	0.00e+00	120	40	0	996147200	50	6206
2026-01-04 14:27:09.43	38.51	45.43	-38.8	-39.9	21.0	0.00e+00	122	40	0	999292928	50	6170
2026-01-04 14:27:10.44	38.72	45.72	-38.5	-39.7	21.1	0.00e+00	120	40	0	1002438656	50	6010
2026-01-04 14:27:11.45	38.93	46.00	-38.3	-39.4	21.3	0.00e+00	123	40	0	1005584384	50	5804
2026-01-04 14:27:12.46	39.15	46.29	-38.0	-39.0	21.6	0.00e+00	123	40	0	1008730112	50	5584
2026-01-04 14:27:13.47	39.37	46.58	-37.6	-38.6	22.0	0.00e+00	123	40	0	1011875840	48	5972
2026-01-04 14:27:14.48	39.59	46.87	-37.5	-38.6	22.0	0.00e+00	122	40	0	1015021568	48	5943
2026-01-04 14:27:15.49	39.82	47.16	-37.4	-38.4	22.5	0.00e+00	123	40	0	1018167296	48	5800
2026-01-04 14:27:16.50	40.06	47.45	-37.3	-38.3	22.6	0.00e+00	123	40	0	1021313024	48	5767
2026-01-04 14:27:17.51	40.30	47.75	-37.1	-38.1	22.7	0.00e+00	123	40	0	1024458752	48	5616
2026-01-04 14:27:18.52	40.54	48.04	-36.8	-37.7	22.9	0.00e+00	123	40	0	1027604480	48	5396
2026-01-04 14:27:19.52	40.78	48.34	-36.6	-37.6	23.2	0.00e+00	122	40	0	1030750208	46	5934
2026-01-04 14:27:20.54	41.04	48.64	-36.4	-37.3	23.3	0.00e+00	122	40	0	1033895936	46	5755
2026-01-04 14:27:21.55	41.30	48.94	-36.4	-37.3	23.4	0.00e+00	123	40	0	1037041664	46	5769
2026-01-04 14:27:22.56	41.56	49.24	-36.6	-37.6	23.3	0.00e+00	123	40	0	1040187392	46	5964
2026-01-04 14:27:23.57	41.82	49.54	-37.0	-37.9	23.1	0.00e+00	122	40	0	1043333120	46	6205
2026-01-04 14:27:24.58	42.10	49.85	-37.1	-38.1	23.0	0.00e+00	122	40	0	1046478848	46	6285
2026-01-04 14:27:25.59	42.37	50.16	-37.1	-38.1	22.8	0.00e+00	122	40	0	1049624576	46	6320
2026-01-04 14:27:26.60	42.66	50.46	-37.3	-38.3	22.8	0.00e+00	123	40	0	1053818880	46	6484
2026-01-04 14:27:27.61	42.95	50.77	-37.3	-38.3	22.9	0.00e+00	122	40	0	1055916032	46	6465
2026-01-04 14:27:28.62	43.24	51.08	-37.3	-38.3	22.8	0.00e+00	120	40	0	1059061760	46	6487
2026-01-04 14:27:29.63	43.54	51.39	-37.4	-38.5	22.6	0.00e+00	123	40	0	1062207488	46	6590
2026-01-04 14:27:30.64	43.85	51.71	-37.5	-38.5	22.7	0.00e+00	121	40	0	1065353216	46	6588
2026-01-04 14:27:31.65	44.17	52.02	-37.4	-38.4	22.8	0.00e+00	123	40	0	1069547520	46	6530
2026-01-04 14:27:32.66	44.49	52.33	-36.9	-37.8	23.2	0.00e+00	122	40	0	1072693248	46	6130
2026-01-04 14:27:33.66	44.81	52.65	-36.9	-37.9	23.1	0.00e+00	122	40	0	1075838976	46	6169
2026-01-04 14:27:34.67	45.14	52.96	-36.7	-37.6	23.2	0.00e+00	120	40	0	1078984704	46	5991
2026-01-04 14:27:35.68	45.49	53.28	-36.6	-37.6	23.4	0.00e+00	122	40	0	1081081856	46	5966
2026-01-04 14:27:36.69	45.83	53.60	-36.8	-37.8	23.2	0.00e+00	123	40	0	1084227584	46	6068
2026-01-04 14:27:37.70	46.19	53.92	-36.8	-37.8	23.1	0.00e+00	122	40	0	1088421888	46	6114
2026-01-04 14:27:38.71	46.56	54.24	-36.7	-37.7	23.2	0.00e+00	123	40	0	1091567616	46	6049
2026-01-04 14:27:39.72	46.93	54.57	-36.7	-37.6	23.2	0.00e+00	122	40	0	1094713344	46	5987
2026-01-04 14:27:40.73	47.31	54.89	-36.6	-37.6	23.3	0.00e+00	123	40	0	1097859072	46	5994
2026-01-04 14:27:41.74	47.70	55.21	-36.4	-37.3	23.5	0.00e+00	120	40	0	1101004800	46	5782
2026-01-04 14:27:42.75	48.10	55.54	-36.0	-37.0	23.7	0.00e+00	123	40	0	1104150528	46	5572
2026-01-04 14:27:43.76	48.51	55.86	-36.0	-36.9	23.9	0.00e+00	123	40	0	1107296256	46	5525
2026-01-04 14:27:44.77	48.93	56.19	-36.0	-36.9	23.8	0.00e+00	123	40	0	1110441984	46	5506
2026-01-04 14:27:45.78	49.35	56.51	-35.9	-36.8	23.9	0.00e+00	122	40	0	1113587712	46	5466
2026-01-04 14:27:46.79	49.79	56.84	-35.9	-36.8	23.8	0.00e+00	123	40	0	1116733440	46	5467
2026-01-04 14:27:47.80	50.24	57.16	-35.7	-36.6	23.9	0.00e+00	122	40	0	1119879168	44	5963
2026-01-04 14:27:48.81	50.70	57.49	-35.6	-36.5	24.1	0.00e+00	123	40	0	1123024896	44	5924
2026-01-04 14:27:49.82	51.17	57.82	-35.6	-36.6	24.2	0.00e+00	123	40	0	1126170624	44	5939
2026-01-04 14:27:50.83	51.65	58.15	-35.3	-36.2	24.4	0.00e+00	123	40	0	1129316352	44	5698
2026-01-04 14:27:51.84	52.14	58.47	-35.7	-36.7	24.0	0.00e+00	122	40	0	1132462080	44	6010
2026-01-04 14:27:52.85	52.65	58.80	-35.1	-36.0	24.4	0.00e+00	122	40	0	1135607808	44	5539
2026-01-04 14:27:53.86	53.16	59.12	-35.1	-36.0	24.6	0.00e+00	122	40	0	1138753536	44	5550
2026-01-04 14:27:54.87	53.69	59.45	-34.9	-35.8	24.5	0.00e+00	123	40	0	1141899264	44	5407
2026-01-04 14:27:55.88	54.24	59.78	-35.0	-35.8	24.6	0.00e+00	122	40	0	1145044992	44	5463
2026-01-04 14:27:56.89	54.80	60.10	-34.7	-35.5	24.9	0.00e+00	120	40	0	1148190720	42	5904
2026-01-04 14:27:57.90	55.37	60.42	-34.3	-35.1	25.1	0.00e+00	122	40	0	1151336448	42	5630
2026-01-04 14:27:58.91	55.95	60.75	-34.1	-34.9	25.4	0.00e+00	123	40	0	1154482176	42	5504
2026-01-04 14:27:59.92	56.56	61.07	-34.0	-34.8	25.2	0.00e+00	122	40	0	1157627904	42	5449
2026-01-04 14:28:00.93	57.17	61.39	-34.5	-35.4	24.9	0.00e+00	122	40	0	1160773632	42	5841
2026-01-04 14:28:01.94	57.81	61.71	-34.4	-35.3	25.0	0.00e+00	122	40	0	1163919360	42	5734
2026-01-04 14:28:02.95	58.46	62.03	-34.5	-35.3	25.0	0.00e+00	123	40	0	1167065088	42	5785
2026-01-04 14:28:03.96	59.12	62.34	-34.1	-35.0	25.2	0.00e+00	122	40	0	1170210816	42	5558
2026-01-04 14:28:04.97	59.81	62.66	-34.3	-35.1	25.1	0.00e+00	123	40	0	1173356544	42	5651
2026-01-04 14:28:05.98	60.51	62.97	-34.2	-35.1	25.1	0.00e+00	123	40	0	1176502272	42	5625
2026-01-04 14:28:06.99	61.23	63.28	-34.1	-34.9	25.3	0.00e+00	120	40	0	1179648000	42	5508
2026-01-04 14:28:07.99	61.96	63.59	-34.0	-34.8	25.4	0.00e+00	123	40	0	1182793728	42	5452
2026-01-04 14:28:09.01	62.73	63.89	-34.0	-34.8	25.5	0.00e+00	123	40	0	1185939456	40	6106
2026-01-04 14:28:10.02	63.50	64.20	-33.8	-34.6	25.1	0.00e+00	123	40	0	1189085184	40	5971
2026-01-04 14:28:11.02	64.30	64.49	-34.2	-35.1	24.7	0.00e+00	122	40	0	1192230912	40	6280
2026-01-04 14:28:12.03	65.12	64.79	-33.4	-34.2	24.8	0.00e+00	123	40	0	1195376640	40	5690
2026-01-04 14:28:13.04	65.96	65.08	-33.3	-34.1	25.5	0.00e+00	123	40	0	1198522368	40	5635
2026-01-04 14:28:14.05	66.82	65.37	-33.5	-34.4	25.0	0.00e+00	123	40	0	1201668096	40	5798
2026-01-04 14:28:15.07	67.71	65.65	-33.7	-34.6	24.9	0.00e+00	123	40	0	1204813824	40	5938
2026-01-04 14:28:16.07	68.61	65.93	-33.7	-34.6	25.1	0.00e+00	120	40	0	1207959552	40	5931
2026-01-04 14:28:17.08	69.55	66.21	-33.7	-34.5	25.1	0.00e+00	122	40	0	1211105280	40	5905
2026-01-04 14:28:18.09	70.50	66.48	-33.8	-34.7	25.1	0.00e+00	122	40	0	1214251008	40	6022
2026-01-04 14:28:19.10	71.48	66.74	-34.0	-34.8	25.2	0.00e+00	123	40	0	1217396736	40	6122
2026-01-04 14:28:20.11	72.49	67.00	-34.3	-35.1	24.9	0.00e+00	123	40	0	1220542464	40	6349
2026-01-04 14:28:21.12	73.52	67.26	-34.5	-35.4	25.0	0.00e+00	122	40	0	1223688192	40	6534
2026-01-04 14:28:22.13	74.57	67.51	-35.1	-36.0	24.6	0.00e+00	125	40	0	1226833920	42	6209
2026-01-04 14:28:23.14	75.65	67.75	-33.9	-34.8	25.4	0.00e+00	120	40	0	1229979648	42	5420
2026-01-04 14:28:24.15	76.76	67.98	-34.2	-35.1	25.1	0.00e+00	122	40	0	1233125376	42	5607
2026-01-04 14:28:25.16	77.89	68.21	-34.2	-35.0	25.2	0.00e+00	122	40	0	1236271104	42	5587
2026-01-04 14:28:26.17	79.04	68.43	-33.9	-34.8	25.4	0.00e+00	120	40	0	1239416832	40	6070
2026-01-04 14:28:27.18	80.22	68.64	-33.9	-34.8	25.6	0.00e+00	122	40	0	1242562560	40	6066
2026-01-04 14:28:28.19	81.43	68.85	-33.7	-34.5	25.3	0.00e+00	121	40	0	1245708288	40	5926
2026-01-04 14:28:29.20	82.66	69.05	-33.8	-34.7	25.1	0.00e+00	121	40	0	1248854016	40	6046
2026-01-04 14:28:30.20	83.90	69.23	-34.0	-34.9	25.2	0.00e+00	120	40	0	1251999744	40	6179
2026-01-04 14:28:31.21	85.18	69.41	-33.8	-34.6	25.5	0.00e+00	122	40	0	1255145472	40	5974
2026-01-04 14:28:32.22	86.49	69.58	-33.5	-34.4	25.2	0.00e+00	123	40	0	1258291200	40	5801
2026-01-04 14:28:33.23	87.81	69.74	-33.6	-34.4	25.1	0.00e+00	123	40	0	1261436928	40	5850
2026-01-04 14:28:34.24	89.16	69.89	-33.5	-34.4	25.5	0.00e+00	123	40	0	1264582656	40	5824
2026-01-04 14:28:35.25	90.53	70.03	-33.2	-34.1	25.8	0.00e+00	122	40	0	1267728384	40	5598
2026-01-04 14:28:36.26	91.92	70.16	-33.4	-34.2	25.7	0.00e+00	123	40	0	1270874112	40	5694
2026-01-04 14:28:37.27	93.32	70.28	-33.4	-34.3	25.4	0.00e+00	123	40	0	1274019840	40	5768
2026-01-04 14:28:38.28	94.75	70.38	-33.4	-34.2	25.5	0.00e+00	122	40	0	1277165568	40	5716
2026-01-04 14:28:39.29	96.19	70.48	-33.4	-34.3	25.5	0.00e+00	122	40	0	1280311296	40	5731
2026-01-04 14:28:40.30	97.64	70.56	-33.1	-33.9	25.1	0.00e+00	120	40	0	1283457024	40	5529
2026-01-04 14:28:41.31	99.11	70.64	-33.7	-34.6	24.6	0.00e+00	123	40	0	1286602752	40	5960
2026-01-04 14:28:42.32	100.59	70.70	-33.6	-34.4	25.0	0.00e+00	123	40	0	1289748480	40	5851
2026-01-04 14:28:43.33	102.07	70.75	-33.6	-34.4	25.2	0.00e+00	122	40	0	1292894208	40	5822
2026-01-04 14:28:44.34	103.57	70.78	-33.7	-34.6	24.8	0.00e+00	123	40	0	1296039936	40	5976
2026-01-04 14:28:45.35	105.07	70.81	-34.1	-35.0	25.0	0.00e+00	122	40	0	1299185664	40	6247
2026-01-04 14:28:46.36	106.57	70.82	-34.1	-35.0	25.1	0.00e+00	120	40	0	1302331392	42	5536
2026-01-04 14:28:47.37	108.07	70.82	-34.1	-35.0	25.4	0.00e+00	122	40	0	1305477120	42	5537
2026-01-04 14:28:48.38	109.57	70.81	-33.9	-34.8	25.0	0.00e+00	124	40	0	1308622848	42	5453
2026-01-04 14:28:49.40	111.09	70.78	-34.2	-35.1	24.8	0.00e+00	122	40	0	1311768576	42	5604
2026-01-04 14:28:50.40	112.57	70.75	-34.3	-35.2	24.9	0.00e+00	122	40	0	1314914304	42	5671
2026-01-04 14:28:51.41	114.05	70.70	-34.3	-35.2	24.9	0.00e+00	120	40	0	1318060032	42	5704
2026-01-04 14:28:52.43	115.55	70.64	-34.0	-34.9	24.9	0.00e+00	122	40	0	1321205760	42	5508
2026-01-04 14:28:53.43	117.00	70.56	-33.7	-34.6	25.3	0.00e+00	123	40	0	1324351488	40	5947
2026-01-04 14:28:54.45	118.47	70.48	-33.6	-34.5	25.3	0.00e+00	122	40	0	1327497216	40	5863
2026-01-04 14:28:55.45	119.89	70.38	-33.5	-34.4	25.5	0.00e+00	120	40	0	1330642944	40	5812
2026-01-04 14:28:56.46	121.32	70.28	-33.6	-34.5	24.8	0.00e+00	123	40	0	1333788672	40	5894
2026-01-04 14:28:57.47	122.72	70.16	-33.9	-34.8	24.9	0.00e+00	122	40	0	1336934400	40	6111
2026-01-04 14:28:58.48	124.11	70.03	-34.2	-35.1	25.0	0.00e+00	122	40	0	1340080128	40	6308
2026-01-04 14:28:59.49	125.48	69.89	-34.3	-35.2	24.9	0.00e+00	120	40	0	1343225856	40	6370
2026-01-04 14:29:00.50	126.83	69.74	-34.6	-35.5	24.9	0.00e+00	123	40	0	1346371584	40	6582
2026-01-04 14:29:01.51	128.16	69.58	-34.5	-35.4	24.9	0.00e+00	123	40	0	1349517312	40	6553
2026-01-04 14:29:02.52	129.46	69.41	-34.7	-35.6	25.0	0.00e+00	122	40	0	1352663040	40	6671
2026-01-04 14:29:03.53	130.74	69.23	-34.3	-35.2	25.2	0.00e+00	120	40	0	1355808768	42	5694
2026-01-04 14:29:04.54	132.00	69.04	-34.0	-34.8	25.5	0.00e+00	123	40	0	1358954496	42	5466
2026-01-04 14:29:05.55	133.23	68.84	-33.1	-34.0	25.9	0.00e+00	121	40	0	1362100224	40	5537
2026-01-04 14:29:06.56	134.43	68.64	-32.9	-33.7	26.1	0.00e+00	120	40	0	1365245952	40	5372
2026-01-04 14:29:07.57	135.62	68.42	-33.1	-33.9	25.9	0.00e+00	123	40	0	1368391680	40	5494
2026-01-04 14:29:08.58	136.77	68.20	-33.4	-34.2	25.7	0.00e+00	123	40	0	1371537408	40	5702
2026-01-04 14:29:09.59	137.90	67.97	-33.7	-34.6	25.5	0.00e+00	123	40	0	1374683136	40	5940
2026-01-04 14:29:10.60	139.01	67.74	-33.8	-34.6	25.5	0.00e+00	123	40	0	1377828864	40	5988
2026-01-04 14:29:11.61	140.09	67.50	-33.4	-34.2	25.7	0.00e+00	123	40	0	1380974592	40	5689
2026-01-04 14:29:12.62	141.14	67.25	-33.2	-34.0	25.9	0.00e+00	123	40	0	1384120320	40	5572
2026-01-04 14:29:13.63	142.17	66.99	-32.9	-33.7	26.0	0.00e+00	123	40	0	1387266048	40	5350
2026-01-04 14:29:14.64	143.18	66.73	-33.2	-34.0	25.9	0.00e+00	120	40	0	1390411776	40	5585
2026-01-04 14:29:15.65	144.16	66.47	-34.0	-34.9	25.3	0.00e+00	123	40	0	1394606080	40	6157
2026-01-04 14:29:16.66	145.11	66.20	-34.0	-34.8	25.2	0.00e+00	120	40	0	1396703232	40	6118
2026-01-04 14:29:17.67	146.05	65.92	-33.5	-34.3	25.5	0.00e+00	122	40	0	1399848960	40	5770
2026-01-04 14:29:18.68	146.95	65.64	-33.0	-33.8	25.9	0.00e+00	122	40	0	1402994688	40	5436
2026-01-04 14:29:19.69	147.84	65.35	-33.4	-34.2	25.6	0.00e+00	122	40	0	1406140416	40	5717
2026-01-04 14:29:20.70	148.70	65.06	-34.0	-34.9	25.4	0.00e+00	123	40	0	1410334720	40	6138
2026-01-04 14:29:21.71	149.55	64.77	-34.9	-35.8	24.6	0.00e+00	122	40	0	1413480448	40	6835
2026-01-04 14:29:22.72	150.37	64.47	-35.3	-36.3	23.9	0.00e+00	123	40	0	1416626176	42	6456
2026-01-04 14:29:23.73	151.17	64.18	-35.0	-35.9	24.4	0.00e+00	122	40	0	1419771904	42	6164
2026-01-04 14:29:24.74	151.94	63.87	-33.7	-34.6	25.2	0.00e+00	122	40	0	1421869056	40	5963
2026-01-04 14:29:25.75	152.70	63.57	-33.1	-34.0	25.8	0.00e+00	122	40	0	1426063360	40	5561
2026-01-04 14:29:26.76	153.44	63.26	-33.6	-34.5	25.6	0.00e+00	123	40	0	1429209088	40	5881
2026-01-04 14:29:27.77	154.16	62.95	-34.9	-35.8	24.7	0.00e+00	123	40	0	1432354816	42	6104
2026-01-04 14:29:28.78	154.86	62.63	-36.3	-37.2	23.8	1.50e-06	122	40	0	1435500544	44	6407
2026-01-04 14:29:29.79	155.55	62.32	-36.2	-37.2	23.0	0.00e+00	121	40	0	1438646272	44	6415
2026-01-04 14:29:30.80	156.21	62.00	-35.0	-36.0	23.2	0.00e+00	122	40	0	1441792000	44	5569
2026-01-04 14:29:31.81	156.86	61.68	-34.0	-34.9	25.0	0.00e+00	122	40	0	1444937728	42	5471
2026-01-04 14:29:32.82	157.50	61.36	-33.0	-33.8	25.8	0.00e+00	123	40	0	1448083456	40	5456
2026-01-04 14:29:33.83	158.11	61.04	-34.1	-34.9	25.6	0.00e+00	120	40	0	1451229184	40	6182
2026-01-04 14:29:34.84	158.72	60.72	-35.0	-35.9	25.1	0.00e+00	123	40	0	1454374912	42	6143
2026-01-04 14:29:35.85	159.30	60.39	-35.8	-36.7	24.3	0.00e+00	123	40	0	1457520640	44	6029
2026-01-04 14:29:36.86	159.87	60.07	-36.3	-37.2	23.4	0.00e+00	122	40	0	1460666368	44	6420
2026-01-04 14:29:37.87	160.43	59.74	-35.7	-36.6	23.9	0.00e+00	123	40	0	1463812096	44	5990
2026-01-04 14:29:38.88	160.98	59.42	-34.2	-35.1	25.0	0.00e+00	123	40	0	1466957824	42	5603
2026-01-04 14:29:39.89	161.51	59.09	-34.4	-35.2	24.8	0.00e+00	123	40	0	1470103552	42	5718
2026-01-04 14:29:40.90	162.02	58.76	-33.9	-34.7	25.6	0.00e+00	123	40	0	1473249280	42	5354
2026-01-04 14:29:41.91	162.53	58.44	-35.3	-36.2	24.6	0.00e+00	123	40	0	1476395008	42	6387
2026-01-04 14:29:42.92	163.02	58.11	-36.6	-37.6	23.3	0.00e+00	122	40	0	1479540736	44	6678
2026-01-04 14:29:43.93	163.50	57.78	-37.4	-38.5	22.7	0.00e+00	120	40	0	1482686464	46	6598
2026-01-04 14:29:44.94	163.97	57.45	-36.9	-38.0	22.5	0.00e+00	123	40	0	1485832192	48	5551
2026-01-04 14:29:45.95	164.43	57.13	-36.1	-37.1	22.5	0.00e+00	123	40	0	1488977920	46	5601
2026-01-04 14:29:46.96	164.88	56.80	-36.2	-37.2	23.3	0.00e+00	123	40	0	1492123648	44	6412
2026-01-04 14:29:47.97	165.32	56.47	-34.5	-35.3	24.9	0.00e+00	123	40	0	1495269376	44	5155
2026-01-04 14:29:48.98	165.74	56.14	-34.3	-35.2	25.3	0.00e+00	120	40	0	1498415104	42	5664
2026-01-04 14:29:49.99	166.16	55.82	-35.1	-36.0	24.7	0.00e+00	120	40	0	1501560832	42	6227
2026-01-04 14:29:51.00	166.57	55.49	-37.3	-38.3	22.4	0.00e+00	122	40	0	1504706560	46	6498
2026-01-04 14:29:52.01	166.97	55.17	-38.9	-40.1	21.3	0.00e+00	123	40	0	1507852288	50	6293
2026-01-04 14:29:53.01	167.35	54.85	-39.1	-40.2	21.9	0.00e+00	123	40	0	1510998016	52	5684
2026-01-04 14:29:54.03	167.74	54.52	-38.5	-39.6	21.1	0.00e+00	123	40	0	1514143744	50	5962
2026-01-04 14:29:55.04	168.11	54.20	-36.6	-37.7	22.8	0.00e+00	123	40	0	1517289472	48	5345
2026-01-04 14:29:56.05	168.48	53.87	-35.7	-36.6	24.1	0.00e+00	122	40	0	1520435200	46	5303
2026-01-04 14:29:57.06	168.83	53.55	-35.2	-36.1	24.7	0.00e+00	122	40	0	1523580928	44	5602
2026-01-04 14:29:58.07	169.18	53.23	-37.0	-37.9	23.8	0.00e+00	123	40	0	1526726656	44	6955
2026-01-04 14:29:59.08	169.52	52.91	-36.2	-37.0	24.1	0.00e+00	122	40	0	1529872384	46	5590
2026-01-04 14:30:00.08	169.85	52.60	-37.4	-38.4	23.0	0.00e+00	123	40	0	1533018112	48	5839
2026-01-04 14:30:01.09	170.18	52.28	-38.9	-40.0	21.8	0.00e+00	123	40	0	1536163840	50	6239
2026-01-04 14:30:02.10	170.50	51.96	-39.7	-40.9	21.6	0.00e+00	123	40	0	1539309568	52	6135
2026-01-04 14:30:03.11	170.82	51.65	-39.2	-40.4	21.2	0.00e+00	122	40	0	1542455296	52	5804
2026-01-04 14:30:04.12	171.12	51.34	-38.5	-39.7	20.9	0.00e+00	122	40	0	1545601024	52	5368
2026-01-04 14:30:05.13	171.42	51.02	-37.9	-39.0	21.8	0.00e+00	123	40	0	1548746752	50	5576
2026-01-04 14:30:06.14	171.72	50.71	-37.4	-38.4	22.9	0.00e+00	123	40	0	1551892480	48	5807
2026-01-04 14:30:07.15	172.01	50.40	-36.8	-37.8	23.8	0.00e+00	122	40	0	1555038208	46	6065
2026-01-04 14:30:08.16	172.29	50.09	-36.7	-37.6	23.5	0.00e+00	120	40	0	1558183936	46	5963
2026-01-04 14:30:09.17	172.57	49.79	-37.9	-38.8	22.9	0.00e+00	122	40	0	1561329664	46	6867
2026-01-04 14:30:10.18	172.84	49.48	-38.2	-39.2	22.2	0.00e+00	122	40	0	1564475392	48	6357
2026-01-04 14:30:11.19	173.11	49.18	-38.8	-39.8	22.0	0.00e+00	122	40	0	1567621120	50	6129
2026-01-04 14:30:12.20	173.37	48.87	-39.1	-40.2	21.8	0.00e+00	123	40	0	1570766848	50	6417
2026-01-04 14:30:13.20	173.62	48.58	-39.7	-40.9	21.1	0.00e+00	123	40	0	1573912576	52	6182
2026-01-04 14:30:14.21	173.88	48.28	-40.1	-41.3	21.0	0.00e+00	123	40	0	1577058304	54	5775
2026-01-04 14:30:15.22	174.12	47.98	-38.8	-39.8	22.1	0.00e+00	123	40	0	1580204032	52	5428
2026-01-04 14:30:16.23	174.37	47.68	-37.5	-38.4	22.9	0.00e+00	121	40	0	1583349760	48	5829
2026-01-04 14:30:17.24	174.60	47.39	-37.3	-38.3	22.6	0.00e+00	123	40	0	1586495488	48	5751
2026-01-04 14:30:18.25	174.84	47.09	-37.0	-37.9	23.1	0.00e+00	122	40	0	1589641216	48	5508
2026-01-04 14:30:19.26	175.07	46.80	-37.2	-38.2	23.0	0.00e+00	123	40	0	1592786944	48	5669
2026-01-04 14:30:20.27	175.29	46.51	-37.8	-38.8	22.9	0.00e+00	123	40	0	1595932672	48	6074
2026-01-04 14:30:21.28	175.51	46.22	-37.5	-38.5	22.7	0.00e+00	123	40	0	1599078400	48	5866
2026-01-04 14:30:22.29	175.73	45.93	-38.1	-39.1	22.5	0.00e+00	120	40	0	1602224128	48	6305
2026-01-04 14:30:23.30	175.95	45.65	-38.3	-39.3	22.3	0.00e+00	118	40	0	1605369856	48	6459
2026-01-04 14:30:24.31	176.16	45.36	-38.5	-39.5	22.4	0.00e+00	120	40	0	1608515584	50	5906
2026-01-04 14:30:25.32	176.36	45.08	-38.1	-39.0	22.7	0.00e+00	122	40	0	1611661312	50	5568
2026-01-04 14:30:26.33	176.56	44.80	-38.0	-38.9	22.6	0.00e+00	123	40	0	1614807040	48	6192
2026-01-04 14:30:27.35	176.76	44.51	-39.0	-39.9	22.1	0.00e+00	122	40	0	1617952768	50	6205
2026-01-04 14:30:28.36	176.96	44.24	-40.1	-41.2	21.4	0.00e+00	123	40	0	1621098496	50	7159
2026-01-04 14:30:29.36	177.15	43.96	-40.8	-42.0	20.3	0.00e+00	123	40	0	1624244224	54	6239
2026-01-04 14:30:30.37	177.34	43.69	-40.3	-41.5	20.8	0.00e+00	123	40	0	1627389952	54	5900
2026-01-04 14:30:31.38	177.53	43.42	-40.0	-41.2	20.4	0.00e+00	123	40	0	1630535680	54	5714
2026-01-04 14:30:32.39	177.71	43.14	-39.9	-41.1	20.9	0.00e+00	122	40	0	1633681408	52	6315
2026-01-04 14:30:33.40	177.89	42.87	-40.0	-41.1	21.3	0.00e+00	120	40	0	1636827136	52	6326
2026-01-04 14:30:34.41	178.07	42.61	-39.6	-40.7	21.8	0.00e+00	123	40	0	1639972864	52	6022
2026-01-04 14:30:35.42	178.24	42.34	-39.2	-40.3	21.4	0.00e+00	120	40	0	1643118592	52	5770
2026-01-04 14:30:36.43	178.41	42.07	-40.5	-41.6	20.8	0.00e+00	123	40	0	1646264320	54	5980
2026-01-04 14:30:37.44	178.58	41.81	-39.3	-40.4	21.1	0.00e+00	123	40	0	1649410048	54	5198
2026-01-04 14:30:38.45	178.75	41.55	-40.8	-41.9	20.8	0.00e+00	123	40	0	1652555776	52	6954
2026-01-04 14:30:39.46	178.91	41.29	-39.8	-40.9	21.1	0.00e+00	123	40	0	1655701504	52	6151
2026-01-04 14:30:40.47	179.07	41.03	-39.4	-40.5	21.7	0.00e+00	123	40	0	1658847232	52	5887
2026-01-04 14:30:41.48	179.23	40.77	-39.0	-40.0	22.0	0.00e+00	122	40	0	1661992960	50	6219
2026-01-04 14:30:42.49	179.39	40.52	-38.7	-39.7	22.1	0.00e+00	122	40	0	1665138688	50	6002
2026-01-04 14:30:43.50	179.54	40.26	-39.4	-40.4	21.9	0.00e+00	120	40	0	1668284416	50	6568
2026-01-04 14:30:44.51	179.69	40.01	-38.7	-39.7	22.0	0.00e+00	122	40	0	1671430144	52	5384
2026-01-04 14:30:45.52	179.84	39.76	-40.2	-41.3	21.0	0.00e+00	121	40	0	1674575872	54	5771
2026-01-04 14:30:46.53	179.99	39.51	-39.6	-40.7	21.3	0.00e+00	123	40	0	1677721600	54	5363
2026-01-04 14:30:47.54	180.13	39.26	-39.7	-40.8	21.2	0.00e+00	122	40	0	1680867328	52	6126
2026-01-04 14:30:48.55	180.27	39.02	-39.1	-40.2	21.6	0.00e+00	122	40	0	1684013056	52	5721
2026-01-04 14:30:49.56	180.41	38.77	-38.7	-39.8	21.8	0.00e+00	122	40	0	1687158784	52	5411
2026-01-04 14:30:50.57	180.55	38.53	-38.0	-39.0	22.3	0.00e+00	120	40	0	1690304512	50	5549
2026-01-04 14:30:51.58	180.69	38.29	-37.4	-38.3	22.7	0.00e+00	120	40	0	1693450240	48	5780
2026-01-04 14:30:52.59	180.82	38.05	-37.3	-38.3	22.8	0.00e+00	122	40	0	1696595968	48	5749
2026-01-04 14:30:53.60	180.96	37.81	-37.0	-38.0	23.0	0.00e+00	123	40	0	1699741696	48	5540
2026-01-04 14:30:54.61	181.09	37.57	-37.0	-38.0	22.8	0.00e+00	122	40	0	1702887424	48	5551
2026-01-04 14:30:55.62	181.22	37.34	-36.9	-37.9	23.2	0.00e+00	123	40	0	1706033152	48	5502
2026-01-04 14:30:56.63	181.34	37.11	-38.1	-39.0	23.2	0.00e+00	123	40	0	1709178880	48	6258
2026-01-04 14:30:57.64	181.47	36.87	-37.8	-38.8	23.0	0.00e+00	122	40	0	1712324608	48	6098
2026-01-04 14:30:58.65	181.59	36.64	-37.3	-38.2	23.6	0.00e+00	123	40	0	1715470336	48	5680
2026-01-04 14:30:59.66	181.72	36.41	-37.0	-37.9	23.3	0.00e+00	123	40	0	1718616064	48	5501
2026-01-04 14:31:00.67	181.84	36.19	-38.0	-39.0	22.9	0.00e+00	120	40	0	1721761792	48	6236
2026-01-04 14:31:01.68	181.96	35.96	-37.3	-38.3	23.0	0.00e+00	122	40	0	1724907520	48	5755
2026-01-04 14:31:02.69	182.07	35.73	-37.0	-38.0	22.9	0.00e+00	123	40	0	1728053248	48	5548
2026-01-04 14:31:03.70	182.19	35.51	-37.3	-38.2	22.8	0.00e+00	123	40	0	1732247552	48	5724
2026-01-04 14:31:04.71	182.30	35.29	-37.9	-38.9	23.0	0.00e+00	123	40	0	1735393280	48	6188
2026-01-04 14:31:05.72	182.42	35.07	-37.2	-38.1	23.3	0.00e+00	123	40	0	1737490432	48	5621
2026-01-04 14:31:06.73	182.53	34.85	-37.4	-38.3	23.3	0.00e+00	122	40	0	1740636160	48	5761
2026-01-04 14:31:07.73	182.64	34.63	-37.3	-38.2	23.4	0.00e+00	120	40	0	1743781888	48	5693
2026-01-04 14:31:08.75	182.74	34.42	-37.0	-37.9	23.4	0.00e+00	123	40	0	1747976192	48	5520
2026-01-04 14:31:09.76	182.85	34.20	-37.4	-38.4	23.2	0.00e+00	120	40	0	1751121920	48	5800
2026-01-04 14:31:10.77	182.96	33.99	-37.4	-38.3	22.9	0.00e+00	122	40	0	1754267648	48	5789
2026-01-04 14:31:11.78	183.06	33.78	-37.9	-38.9	22.3	0.00e+00	122	40	0	1757413376	48	6175
2026-01-04 14:31:12.79	183.17	33.56	-38.3	-39.4	22.0	0.00e+00	123	40	0	1759510528	48	6533
2026-01-04 14:31:13.80	183.27	33.35	-38.3	-39.4	22.1	0.00e+00	123	40	0	1763704832	48	6527
2026-01-04 14:31:14.81	183.37	33.15	-37.7	-38.8	22.6	0.00e+00	123	40	0	1766850560	48	6077
2026-01-04 14:31:15.82	183.47	32.94	-37.8	-38.8	22.7	0.00e+00	123	40	0	1769996288	48	6104
2026-01-04 14:31:16.83	183.57	32.73	-37.2	-38.2	23.1	0.00e+00	123	40	0	1773142016	48	5661
2026-01-04 14:31:17.84	183.66	32.53	-37.0	-38.0	23.1	0.00e+00	123	40	0	1776287744	48	5561
2026-01-04 14:31:18.85	183.76	32.33	-36.5	-37.5	23.4	0.00e+00	123	40	0	1779433472	46	5884
2026-01-04 14:31:19.86	183.85	32.13	-36.3	-37.2	23.7	0.00e+00	123	40	0	1782579200	46	5707
2026-01-04 14:31:20.87	183.95	31.93	-36.0	-37.0	23.8	0.00e+00	123	40	0	1785724928	46	5542
2026-01-04 14:31:21.88	184.04	31.73	-36.4	-37.4	23.6	0.00e+00	122	40	0	1788870656	46	5797
2026-01-04 14:31:22.89	184.13	31.53	-36.2	-37.1	23.8	0.00e+00	123	40	0	1792016384	46	5612
2026-01-04 14:31:23.90	184.22	31.33	-36.0	-36.9	23.7	0.00e+00	123	40	0	1795162112	46	5497
2026-01-04 14:31:24.91	184.31	31.14	-35.5	-36.4	24.0	0.00e+00	123	40	0	1798307840	44	5853
2026-01-04 14:31:25.92	184.40	30.94	-35.4	-36.4	23.9	0.00e+00	122	40	0	1801453568	44	5800
2026-01-04 14:31:26.93	184.49	30.75	-36.0	-36.9	23.5	0.00e+00	123	40	0	1804599296	44	6184
2026-01-04 14:31:27.94	184.57	30.56	-35.9	-36.8	23.5	0.00e+00	123	40	0	1807745024	44	6129
2026-01-04 14:31:28.95	184.66	30.37	-36.3	-37.2	23.4	0.00e+00	123	40	0	1810890752	44	6412
2026-01-04 14:31:29.96	184.74	30.18	-36.3	-37.2	23.6	0.00e+00	122	40	0	1814036480	44	6410
2026-01-04 14:31:30.97	184.83	29.99	-36.0	-36.9	23.9	0.00e+00	122	40	0	1817182208	44	6190
2026-01-04 14:31:31.98	184.91	29.80	-36.3	-37.2	23.4	0.00e+00	123	40	0	1820327936	46	5687
2026-01-04 14:31:32.99	184.99	29.62	-36.5	-37.4	23.7	0.00e+00	120	40	0	1823473664	46	5857
2026-01-04 14:31:34.00	185.07	29.43	-35.9	-36.8	24.0	0.00e+00	123	40	0	1826619392	46	5454
2026-01-04 14:31:35.01	185.15	29.25	-35.3	-36.2	24.2	0.00e+00	123	40	0	1829765120	44	5691
2026-01-04 14:31:36.02	185.23	29.07	-35.6	-36.5	24.0	0.00e+00	123	40	0	1832910848	44	5920
2026-01-04 14:31:37.03	185.31	28.89	-35.6	-36.5	24.1	0.00e+00	120	40	0	1836056576	44	5875
2026-01-04 14:31:38.04	185.39	28.71	-35.2	-36.1	24.2	0.00e+00	122	40	0	1839202304	44	5600
2026-01-04 14:31:39.05	185.46	28.53	-35.5	-36.4	24.0	0.00e+00	122	40	0	1842348032	44	5827
2026-01-04 14:31:40.06	185.54	28.35	-35.1	-36.0	24.3	0.00e+00	123	40	0	1845493760	44	5579
2026-01-04 14:31:41.07	185.61	28.17	-35.0	-35.9	24.4	0.00e+00	123	40	0	1848639488	44	5511
2026-01-04 14:31:42.08	185.69	28.00	-35.1	-36.0	24.4	0.00e+00	120	40	0	1851785216	44	5531
2026-01-04 14:31:43.09	185.76	27.82	-35.2	-36.1	24.3	0.00e+00	122	40	0	1854930944	44	5624
2026-01-04 14:31:44.09	185.83	27.65	-35.3	-36.2	24.3	0.00e+00	123	40	0	1858076672	44	5698
2026-01-04 14:31:45.11	185.91	27.47	-34.9	-35.8	24.5	0.00e+00	123	40	0	1861222400	44	5461
2026-01-04 14:31:46.11	185.98	27.30	-35.0	-35.9	24.4	0.00e+00	122	40	0	1864368128	44	5494
2026-01-04 14:31:47.13	186.05	27.13	-35.0	-35.9	24.4	0.00e+00	123	40	0	1867513856	44	5512
2026-01-04 14:31:48.14	186.12	26.96	-35.2	-36.1	24.3	0.00e+00	120	40	0	1870659584	44	5600
2026-01-04 14:31:49.14	186.19	26.80	-35.2	-36.1	24.3	0.00e+00	123	40	0	1873805312	44	5627
2026-01-04 14:31:50.15	186.25	26.63	-35.0	-35.9	24.4	0.00e+00	123	40	0	1876951040	44	5508
2026-01-04 14:31:51.16	186.32	26.46	-35.1	-36.0	24.5	0.00e+00	123	40	0	1880096768	44	5551
2026-01-04 14:31:52.17	186.39	26.30	-35.0	-35.9	24.5	0.00e+00	123	40	0	1883242496	44	5475
2026-01-04 14:31:53.19	186.46	26.13	-34.8	-35.7	24.5	0.00e+00	123	40	0	1886388224	44	5359
2026-01-04 14:31:54.20	186.52	25.97	-34.9	-35.8	24.3	0.00e+00	123	40	0	1889533952	44	5425
2026-01-04 14:31:55.20	186.59	25.81	-34.9	-35.9	24.3	0.00e+00	123	40	0	1892679680	44	5471
2026-01-04 14:31:56.22	186.65	25.64	-35.0	-35.9	24.2	0.00e+00	123	40	0	1895825408	44	5496
2026-01-04 14:31:57.23	186.71	25.48	-35.0	-35.9	24.2	0.00e+00	122	40	0	1898971136	44	5509
2026-01-04 14:31:58.23	186.78	25.32	-35.4	-36.3	24.3	0.00e+00	122	40	0	1902116864	44	5768
2026-01-04 14:31:59.25	186.84	25.16	-35.5	-36.4	24.1	0.00e+00	122	40	0	1905262592	44	5843
2026-01-04 14:32:00.26	186.90	25.00	-35.5	-36.4	24.2	0.00e+00	123	40	0	1908408320	44	5853
2026-01-04 14:32:01.27	186.96	24.85	-35.3	-36.2	24.1	0.00e+00	122	40	0	1911554048	44	5718
2026-01-04 14:32:02.28	187.03	24.69	-35.3	-36.2	24.2	0.00e+00	120	40	0	1914699776	44	5715
2026-01-04 14:32:03.29	187.09	24.54	-35.3	-36.2	24.2	0.00e+00	122	40	0	1917845504	44	5675
2026-01-04 14:32:04.30	187.15	24.38	-35.0	-35.9	24.2	0.00e+00	123	40	0	1920991232	44	5493
2026-01-04 14:32:05.31	187.20	24.23	-34.9	-35.8	24.1	0.00e+00	122	40	0	1924136960	44	5433
2026-01-04 14:32:06.32	187.26	24.08	-35.0	-35.9	24.0	0.00e+00	122	40	0	1927282688	44	5517
2026-01-04 14:32:07.33	187.32	23.92	-35.1	-36.0	24.0	0.00e+00	123	40	0	1930428416	44	5576
2026-01-04 14:32:08.34	187.38	23.77	-35.2	-36.1	23.8	0.00e+00	120	40	0	1933574144	44	5621
2026-01-04 14:32:09.34	187.44	23.62	-35.4	-36.4	23.6	0.00e+00	123	40	0	1936719872	44	5821
2026-01-04 14:32:10.35	187.49	23.47	-35.6	-36.6	23.5	0.00e+00	122	40	0	1939865600	44	5955
2026-01-04 14:32:11.36	187.55	23.33	-36.1	-37.1	23.2	0.00e+00	125	40	0	1943011328	44	6316
2026-01-04 14:32:12.37	187.61	23.18	-35.6	-36.6	23.6	0.00e+00	123	40	0	1946157056	44	5945
2026-01-04 14:32:13.38	187.66	23.03	-35.4	-36.4	23.6	0.00e+00	123	40	0	1949302784	44	5818
2026-01-04 14:32:14.39	187.72	22.89	-35.5	-36.4	23.7	0.00e+00	121	40	0	1952448512	44	5849
2026-01-04 14:32:15.40	187.77	22.74	-35.7	-36.7	23.6	0.00e+00	122	40	0	1955594240	44	5995
2026-01-04 14:32:16.41	187.82	22.60	-35.4	-36.3	23.8	0.00e+00	123	40	0	1958739968	44	5746
2026-01-04 14:32:17.42	187.88	22.45	-35.3	-36.2	24.0	0.00e+00	123	40	0	1961885696	44	5675
2026-01-04 14:32:18.43	187.93	22.31	-35.1	-36.0	24.1	0.00e+00	122	40	0	1965031424	44	5539
2026-01-04 14:32:19.44	187.98	22.17	-35.0	-35.9	24.1	0.00e+00	120	40	0	1968177152	44	5485
2026-01-04 14:32:20.45	188.03	22.03	-34.8	-35.7	24.2	0.00e+00	122	40	0	1971322880	44	5390
2026-01-04 14:32:21.46	188.09	21.89	-34.9	-35.8	24.1	0.00e+00	122	40	0	1974468608	44	5431
2026-01-04 14:32:22.47	188.14	21.75	-34.7	-35.6	24.3	0.00e+00	122	40	0	1977614336	42	5955
