passes_logs/2026/01/04/R4.6S_Anadyr/R4.6S_Anadyr__20260104_031659_AQUA_rec.log

#Pass ID: 20260104_031659_AQUA
#Satellite: AQUA
#Configuration: AQUA
#almurnet v.1.7.20251203
#Start time: 2026-01-04 03:17:01

#Version: 2.2.20231116
#Station: R4.6S_Anadyr
#Location: 177.4865 lon 64.73178 lat
#TLE: 1 27424U 02022A   25365.92641127  .00002078  00000+0  42628-3 0  9999
#TLE: 2 27424  98.4058 327.1196 0001962  94.7781 340.6230 14.61783896258835

#Time	Az	El	Level	Level2	SNR	BER	BlckErr	Temp	State	Recorded	gain1	gain2
2026-01-04 03:17:01.33	192.80	0.09	-52.2	-67.1	3.5	1.51e+00	0	36	0	0	60	82059
2026-01-04 03:17:02.33	192.85	0.15	-53.0	-71.0	3.5	3.02e+01	0	37	104	0	60	136590
2026-01-04 03:17:03.34	192.90	0.21	-52.1	-70.1	3.5	3.02e+01	0	37	104	0	60	122462
2026-01-04 03:17:04.35	192.95	0.26	-53.0	-71.1	3.5	3.02e+01	0	37	104	0	60	137961
2026-01-04 03:17:05.36	193.00	0.32	-52.7	-70.6	3.5	3.02e+01	0	37	104	0	60	129911
2026-01-04 03:17:06.37	193.06	0.38	-52.3	-70.3	3.5	3.02e+01	0	37	104	0	60	125560
2026-01-04 03:17:07.38	193.11	0.44	-52.7	-70.7	3.5	3.02e+01	0	38	104	0	60	131921
2026-01-04 03:17:08.39	193.16	0.50	-52.2	-70.0	3.5	3.02e+01	0	38	104	0	60	121999
2026-01-04 03:17:09.40	193.21	0.56	-52.0	-69.9	3.5	3.02e+01	0	38	104	0	60	120026
2026-01-04 03:17:10.41	193.27	0.62	-52.1	-69.9	3.5	3.02e+01	0	38	104	0	60	120630
2026-01-04 03:17:11.42	193.32	0.68	-51.6	-69.5	3.5	3.02e+01	0	38	104	0	60	115021
2026-01-04 03:17:12.43	193.38	0.74	-50.9	-68.7	3.5	3.02e+01	0	38	104	0	60	105075
2026-01-04 03:17:13.44	193.43	0.80	-50.7	-68.6	3.5	3.02e+01	0	38	104	0	60	103123
2026-01-04 03:17:14.45	193.48	0.86	-50.6	-68.5	3.5	3.02e+01	0	38	104	0	60	102914
2026-01-04 03:17:15.46	193.54	0.92	-50.3	-68.2	3.5	3.02e+01	0	38	104	0	60	98521
2026-01-04 03:17:16.47	193.59	0.98	-50.1	-67.9	3.5	3.02e+01	0	38	104	0	60	95615
2026-01-04 03:17:17.48	193.65	1.04	-49.7	-67.5	3.5	3.02e+01	0	38	104	0	60	91057
2026-01-04 03:17:18.49	193.70	1.10	-50.1	-68.1	3.5	3.02e+01	0	38	104	0	60	97503
2026-01-04 03:17:19.50	193.76	1.16	-49.9	-67.7	3.5	3.02e+01	0	38	104	0	60	93540
2026-01-04 03:17:20.51	193.81	1.22	-49.6	-67.4	3.5	3.02e+01	0	38	104	0	60	89779
2026-01-04 03:17:21.53	193.87	1.28	-50.0	-67.6	3.5	3.02e+01	0	38	104	0	60	92195
2026-01-04 03:17:22.54	193.93	1.34	-49.7	-67.3	3.6	3.02e+01	0	38	104	0	60	89250
2026-01-04 03:17:23.54	193.98	1.40	-49.5	-67.0	3.5	3.02e+01	0	38	104	0	60	86558
2026-01-04 03:17:24.55	194.04	1.46	-49.7	-67.4	3.5	3.02e+01	0	38	104	0	60	89701
2026-01-04 03:17:25.56	194.10	1.53	-49.8	-67.3	3.5	3.02e+01	0	38	104	0	60	88829
2026-01-04 03:17:26.58	194.15	1.59	-50.1	-67.8	3.5	3.02e+01	0	38	104	0	60	94161
2026-01-04 03:17:27.58	194.21	1.65	-50.4	-68.1	3.5	3.02e+01	0	38	104	0	60	98242
2026-01-04 03:17:28.59	194.27	1.71	-50.3	-68.1	3.5	3.02e+01	0	38	104	0	60	97967
2026-01-04 03:17:29.60	194.33	1.77	-50.8	-68.8	3.5	3.02e+01	0	38	104	0	60	105476
2026-01-04 03:17:30.61	194.38	1.83	-50.5	-68.4	3.5	3.02e+01	0	38	104	0	60	101504
2026-01-04 03:17:31.62	194.44	1.90	-50.5	-68.4	3.5	3.02e+01	0	38	104	0	60	100733
2026-01-04 03:17:32.63	194.50	1.96	-50.4	-68.3	3.5	3.02e+01	0	38	104	0	60	100283
2026-01-04 03:17:33.64	194.56	2.02	-50.1	-68.0	3.5	3.02e+01	0	38	104	0	60	96138
2026-01-04 03:17:34.65	194.62	2.08	-50.1	-67.8	3.5	3.02e+01	0	38	104	0	60	94968
2026-01-04 03:17:35.66	194.68	2.15	-49.8	-67.5	3.5	3.02e+01	0	38	104	0	60	91458
2026-01-04 03:17:36.67	194.74	2.21	-50.7	-68.4	3.5	3.02e+01	0	38	104	0	60	101790
2026-01-04 03:17:37.68	194.80	2.27	-50.5	-68.3	3.5	3.02e+01	0	38	104	0	60	100086
2026-01-04 03:17:38.69	194.86	2.33	-50.1	-67.9	3.5	3.02e+01	0	38	104	0	60	95407
2026-01-04 03:17:39.70	194.92	2.40	-49.8	-67.7	3.5	3.02e+01	0	38	104	0	60	93749
2026-01-04 03:17:40.71	194.98	2.46	-49.7	-67.5	3.5	3.02e+01	0	38	104	0	60	91215
2026-01-04 03:17:41.72	195.04	2.52	-49.9	-67.6	3.5	3.02e+01	0	38	104	0	60	92304
2026-01-04 03:17:42.73	195.10	2.59	-50.2	-67.9	3.5	3.02e+01	0	38	104	0	60	95934
2026-01-04 03:17:43.74	195.16	2.65	-50.2	-67.8	3.5	3.02e+01	0	38	104	0	60	94134
2026-01-04 03:17:44.75	195.23	2.71	-49.9	-67.7	3.5	3.02e+01	0	38	104	0	60	93605
2026-01-04 03:17:45.76	195.29	2.78	-49.6	-66.2	3.5	3.02e+01	0	38	104	0	60	78958
2026-01-04 03:17:46.77	195.35	2.84	-49.4	-64.4	3.7	3.02e+01	0	38	104	0	60	63948
2026-01-04 03:17:47.78	195.41	2.91	-49.2	-62.8	4.8	3.02e+01	0	38	104	0	60	52962
2026-01-04 03:17:48.79	195.48	2.97	-49.2	-63.1	4.8	3.02e+01	0	38	104	0	60	54912
2026-01-04 03:17:49.80	195.54	3.04	-49.3	-63.3	4.4	3.02e+01	0	38	104	0	60	56522
2026-01-04 03:17:50.81	195.60	3.10	-49.8	-64.9	4.0	3.02e+01	0	38	104	0	60	67740
2026-01-04 03:17:51.82	195.67	3.16	-49.7	-61.9	6.9	3.02e+01	90	38	104	0	60	47714
2026-01-04 03:17:52.83	195.73	3.23	-48.8	-55.9	11.3	3.02e+01	92	38	0	1048576	60	23982
2026-01-04 03:17:53.84	195.79	3.29	-47.3	-51.9	15.1	3.02e+01	92	38	0	3145728	60	15071
2026-01-04 03:17:54.85	195.86	3.36	-45.5	-48.7	18.3	3.02e+01	92	38	0	5242880	60	10495
2026-01-04 03:17:55.85	195.92	3.42	-43.6	-45.9	20.9	3.02e+01	92	38	0	6815744	60	7613
2026-01-04 03:17:56.86	195.99	3.49	-42.7	-44.7	22.2	3.02e+01	92	38	0	8912896	60	6634
2026-01-04 03:17:57.87	196.05	3.55	-42.5	-44.4	22.5	3.02e+01	92	38	0	10485760	60	6422
2026-01-04 03:17:58.88	196.12	3.62	-42.5	-44.5	22.5	3.02e+01	92	38	0	12582912	60	6446
2026-01-04 03:17:59.88	196.18	3.69	-48.0	-53.5	9.9	3.02e+01	90	38	0	14155776	60	18173
2026-01-04 03:18:00.89	196.25	3.75	-49.6	-62.7	3.7	3.02e+01	42	38	104	16252928	60	52809
2026-01-04 03:18:01.90	196.32	3.82	-41.2	-43.1	23.3	3.02e+01	90	38	104	16252928	54	7778
2026-01-04 03:18:02.91	196.39	3.88	-48.9	-56.4	9.6	3.02e+01	90	38	0	17825792	60	25284
2026-01-04 03:18:03.92	196.45	3.95	-44.4	-46.8	19.9	3.02e+01	91	38	0	19922944	58	9490
2026-01-04 03:18:04.93	196.52	4.02	-42.2	-44.0	23.0	3.02e+01	92	38	0	21495808	60	6115
2026-01-04 03:18:05.94	196.59	4.08	-42.2	-44.0	23.1	3.02e+01	90	38	0	23592960	60	6120
2026-01-04 03:18:06.95	196.66	4.15	-42.3	-44.1	23.5	3.02e+01	92	38	0	25165824	60	6168
2026-01-04 03:18:07.96	196.73	4.22	-41.9	-43.7	23.7	3.02e+01	92	38	0	27262976	58	6577
2026-01-04 03:18:08.97	196.79	4.29	-42.2	-43.9	24.4	3.02e+01	92	38	0	29360128	58	6748
2026-01-04 03:18:09.98	196.86	4.35	-43.5	-45.2	23.5	3.02e+01	88	38	0	30932992	60	7029
2026-01-04 03:18:10.99	196.93	4.42	-42.2	-43.8	25.0	3.02e+01	88	38	0	33030144	58	6651
2026-01-04 03:18:11.99	197.00	4.49	-41.8	-43.3	25.0	3.02e+01	92	38	0	35127296	58	6334
2026-01-04 03:18:13.00	197.07	4.56	-41.8	-43.4	24.5	3.02e+01	92	38	0	36700160	58	6362
2026-01-04 03:18:14.01	197.14	4.62	-41.7	-43.3	24.9	3.02e+01	92	38	0	38797312	58	6326
2026-01-04 03:18:15.02	197.21	4.69	-41.6	-43.1	24.9	3.02e+01	90	38	0	40370176	58	6176
2026-01-04 03:18:16.03	197.29	4.76	-41.4	-43.0	25.3	3.02e+01	92	38	0	42467328	58	6085
2026-01-04 03:18:17.04	197.36	4.83	-41.4	-42.9	25.1	3.02e+01	92	38	0	44564480	58	6028
2026-01-04 03:18:18.05	197.43	4.90	-41.2	-42.7	25.2	3.02e+01	92	38	0	46137344	58	5899
2026-01-04 03:18:19.06	197.50	4.97	-40.6	-42.1	25.3	3.02e+01	91	38	0	48234496	56	6186
2026-01-04 03:18:20.07	197.57	5.04	-41.5	-43.0	24.9	3.02e+01	90	38	0	49807360	56	6873
2026-01-04 03:18:21.08	197.65	5.10	-41.1	-42.6	24.9	3.02e+01	92	38	0	51904512	56	6572
2026-01-04 03:18:22.09	197.72	5.17	-40.7	-42.2	25.2	3.02e+01	91	38	0	54001664	56	6227
2026-01-04 03:18:23.10	197.80	5.24	-41.3	-42.9	24.7	3.02e+01	92	38	0	55574528	56	6734
2026-01-04 03:18:24.11	197.87	5.31	-40.5	-41.9	25.7	3.02e+01	89	38	0	57671680	56	6060
2026-01-04 03:18:25.12	197.94	5.38	-40.8	-42.3	25.5	3.02e+01	92	38	0	59244544	56	6326
2026-01-04 03:18:26.13	198.02	5.45	-41.5	-43.1	25.1	3.02e+01	92	38	0	61341696	56	6915
2026-01-04 03:18:27.14	198.09	5.52	-41.9	-43.4	25.0	3.02e+01	92	38	0	63438848	56	7179
2026-01-04 03:18:28.15	198.17	5.59	-41.5	-43.0	25.2	3.02e+01	92	38	0	65011712	56	6851
2026-01-04 03:18:29.16	198.25	5.66	-40.5	-42.0	26.0	3.02e+01	89	38	0	67108864	56	6073
2026-01-04 03:18:30.16	198.32	5.73	-40.6	-42.1	26.0	3.02e+01	91	38	0	68681728	56	6140
2026-01-04 03:18:31.18	198.40	5.81	-40.1	-41.5	26.3	3.02e+01	92	38	0	70778880	56	5752
2026-01-04 03:18:32.19	198.48	5.88	-40.1	-41.5	26.1	3.02e+01	92	38	0	72876032	54	6468
2026-01-04 03:18:33.19	198.55	5.95	-39.6	-41.0	26.2	3.02e+01	92	38	0	74448896	54	6116
2026-01-04 03:18:34.20	198.63	6.02	-39.6	-41.0	26.3	3.02e+01	92	38	0	76546048	54	6088
2026-01-04 03:18:35.21	198.71	6.09	-39.9	-41.3	26.4	3.02e+01	92	38	0	78643200	54	6279
2026-01-04 03:18:36.22	198.79	6.16	-39.9	-41.3	26.3	3.02e+01	92	38	0	80216064	54	6322
2026-01-04 03:18:37.23	198.87	6.23	-39.5	-40.9	26.3	3.02e+01	92	38	0	82313216	54	6045
2026-01-04 03:18:38.24	198.95	6.31	-39.2	-40.6	26.5	3.02e+01	92	38	0	83886080	54	5850
2026-01-04 03:18:39.25	199.03	6.38	-39.3	-40.7	26.4	3.02e+01	90	38	0	85983232	54	5909
2026-01-04 03:18:40.26	199.11	6.45	-39.2	-40.5	26.4	3.02e+01	92	38	0	88080384	54	5791
2026-01-04 03:18:41.27	199.19	6.52	-39.6	-41.0	26.3	3.02e+01	92	38	0	89653248	54	6117
2026-01-04 03:18:42.28	199.27	6.60	-39.6	-41.0	26.3	3.02e+01	92	38	0	91750400	54	6104
2026-01-04 03:18:43.29	199.35	6.67	-40.4	-41.8	26.2	3.02e+01	92	38	0	93323264	54	6695
2026-01-04 03:18:44.30	199.43	6.74	-40.2	-41.6	26.1	3.02e+01	92	39	0	95420416	54	6565
2026-01-04 03:18:45.31	199.52	6.82	-39.4	-40.8	26.8	3.02e+01	92	38	0	97517568	54	5937
2026-01-04 03:18:46.32	199.60	6.89	-39.3	-40.7	26.8	3.02e+01	92	38	0	99090432	54	5882
2026-01-04 03:18:47.33	199.68	6.96	-39.0	-40.4	26.7	3.02e+01	92	39	0	101187584	54	5666
2026-01-04 03:18:48.34	199.77	7.04	-39.1	-40.4	26.7	3.02e+01	92	38	0	103284736	52	6411
2026-01-04 03:18:49.35	199.85	7.11	-38.8	-40.1	27.0	3.02e+01	92	38	0	104857600	52	6176
2026-01-04 03:18:50.36	199.94	7.19	-38.7	-40.0	27.0	3.02e+01	92	38	0	106954752	52	6122
2026-01-04 03:18:51.37	200.02	7.26	-38.8	-40.1	26.8	3.02e+01	92	38	0	108527616	52	6202
2026-01-04 03:18:52.38	200.11	7.34	-38.8	-40.1	26.9	3.02e+01	92	38	0	110624768	52	6199
2026-01-04 03:18:53.39	200.19	7.41	-38.6	-40.0	27.1	3.02e+01	90	38	0	112197632	52	6089
2026-01-04 03:18:54.39	200.28	7.48	-38.7	-40.0	26.9	3.02e+01	92	38	0	114294784	52	6128
2026-01-04 03:18:55.40	200.37	7.56	-39.0	-40.4	26.7	3.02e+01	90	39	0	116391936	52	6395
2026-01-04 03:18:56.41	200.45	7.64	-39.2	-40.6	26.4	3.02e+01	92	39	0	117964800	52	6562
2026-01-04 03:18:57.42	200.54	7.71	-39.8	-41.3	25.9	3.02e+01	92	38	0	120061952	52	7069
2026-01-04 03:18:58.43	200.63	7.79	-39.9	-41.4	26.1	3.02e+01	89	38	0	121634816	54	6363
2026-01-04 03:18:59.45	200.72	7.86	-40.0	-41.5	26.1	3.02e+01	92	39	0	123731968	54	6473
2026-01-04 03:19:00.46	200.81	7.94	-39.3	-40.7	26.6	3.02e+01	90	39	0	125829120	54	5894
2026-01-04 03:19:01.46	200.90	8.02	-38.7	-40.0	27.2	3.02e+01	91	39	0	127401984	52	6099
2026-01-04 03:19:02.47	200.99	8.09	-38.6	-39.9	27.1	3.02e+01	90	39	0	129499136	52	6038
2026-01-04 03:19:03.48	201.08	8.17	-38.9	-40.3	26.9	3.02e+01	92	39	0	131596288	52	6298
2026-01-04 03:19:04.49	201.17	8.25	-38.8	-40.1	27.1	3.02e+01	90	39	0	133169152	52	6199
2026-01-04 03:19:05.50	201.26	8.32	-39.1	-40.5	26.9	3.02e+01	92	39	0	135266304	52	6450
2026-01-04 03:19:06.51	201.36	8.40	-38.8	-40.2	27.1	3.02e+01	91	38	0	136839168	52	6218
2026-01-04 03:19:07.52	201.45	8.48	-38.4	-39.8	27.4	3.02e+01	90	39	0	138936320	52	5932
2026-01-04 03:19:08.53	201.54	8.56	-38.5	-39.8	27.3	3.02e+01	91	39	0	141033472	52	5994
2026-01-04 03:19:09.54	201.64	8.64	-38.6	-40.0	27.2	3.02e+01	92	38	0	142606336	52	6089
2026-01-04 03:19:10.55	201.73	8.71	-38.4	-39.7	27.4	3.02e+01	86	39	0	144703488	52	5912
2026-01-04 03:19:11.56	201.83	8.79	-38.5	-39.8	27.3	3.02e+01	92	39	0	146800640	52	5960
2026-01-04 03:19:12.57	201.92	8.87	-38.5	-39.8	27.4	3.02e+01	92	39	0	148373504	52	5963
2026-01-04 03:19:13.58	202.02	8.95	-38.4	-39.8	27.5	3.02e+01	87	39	0	150470656	52	5929
2026-01-04 03:19:14.59	202.11	9.03	-38.5	-39.8	27.4	3.02e+01	91	39	0	152043520	52	5986
2026-01-04 03:19:15.59	202.21	9.11	-38.3	-39.6	27.6	3.02e+01	91	39	0	154140672	52	5833
2026-01-04 03:19:16.60	202.31	9.19	-38.4	-39.7	27.4	3.02e+01	92	39	0	156237824	52	5868
2026-01-04 03:19:17.61	202.41	9.27	-38.4	-39.7	27.6	3.02e+01	91	39	0	157810688	52	5916
2026-01-04 03:19:18.62	202.50	9.35	-38.6	-39.9	27.5	3.02e+01	91	39	0	159907840	52	6004
2026-01-04 03:19:19.63	202.60	9.43	-38.5	-39.9	27.4	3.02e+01	91	39	0	161480704	52	5996
2026-01-04 03:19:20.64	202.70	9.51	-38.3	-39.6	27.4	3.02e+01	92	39	0	163577856	52	5848
2026-01-04 03:19:21.65	202.80	9.59	-38.4	-39.7	27.4	3.02e+01	90	39	0	165675008	52	5903
2026-01-04 03:19:22.66	202.91	9.67	-38.4	-39.7	27.4	3.02e+01	92	39	0	167247872	52	5921
2026-01-04 03:19:23.67	203.01	9.75	-38.2	-39.5	27.6	3.02e+01	92	39	0	169345024	52	5756
2026-01-04 03:19:24.68	203.11	9.83	-38.2	-39.5	27.7	3.02e+01	92	39	0	170917888	52	5730
2026-01-04 03:19:25.69	203.21	9.92	-38.2	-39.5	27.7	3.02e+01	92	39	0	173015040	52	5752
2026-01-04 03:19:26.70	203.32	10.00	-38.3	-39.6	27.7	3.02e+01	91	39	0	175112192	52	5803
2026-01-04 03:19:27.70	203.42	10.08	-38.3	-39.6	27.6	3.02e+01	92	39	0	176685056	50	6523
2026-01-04 03:19:28.71	203.52	10.16	-38.1	-39.4	27.8	3.02e+01	92	39	0	178782208	50	6360
2026-01-04 03:19:29.72	203.63	10.24	-38.1	-39.4	27.8	3.02e+01	92	39	0	180355072	50	6353
2026-01-04 03:19:30.73	203.74	10.33	-38.0	-39.3	27.8	3.02e+01	90	39	0	182452224	50	6327
2026-01-04 03:19:31.74	203.84	10.41	-38.5	-39.8	27.9	3.02e+01	92	39	0	184549376	50	6671
2026-01-04 03:19:32.75	203.95	10.49	-38.1	-39.4	27.8	3.02e+01	92	39	0	186122240	50	6415
2026-01-04 03:19:33.76	204.06	10.58	-38.5	-39.9	27.6	3.02e+01	92	39	0	188219392	50	6750
2026-01-04 03:19:34.77	204.17	10.66	-38.4	-39.6	27.7	3.02e+01	92	39	0	189792256	50	6572
2026-01-04 03:19:35.78	204.28	10.75	-38.3	-39.6	27.8	3.02e+01	90	39	0	191889408	50	6537
2026-01-04 03:19:36.79	204.38	10.83	-38.1	-39.4	28.0	3.02e+01	92	39	0	193986560	50	6364
2026-01-04 03:19:37.80	204.50	10.91	-38.0	-39.3	27.9	3.02e+01	92	39	0	195559424	50	6302
2026-01-04 03:19:38.81	204.61	11.00	-38.0	-39.2	28.2	3.02e+01	92	39	0	197656576	50	6266
2026-01-04 03:19:39.82	204.72	11.08	-38.0	-39.2	28.1	3.02e+01	92	39	0	199753728	50	6277
2026-01-04 03:19:40.82	204.83	11.17	-37.8	-39.1	28.2	3.02e+01	92	39	0	201326592	50	6174
2026-01-04 03:19:41.83	204.94	11.25	-37.6	-38.9	28.3	3.02e+01	92	39	0	203423744	50	6018
2026-01-04 03:19:42.84	205.06	11.34	-37.8	-39.1	28.0	3.02e+01	92	39	0	204996608	50	6138
2026-01-04 03:19:43.85	205.17	11.43	-37.7	-39.0	28.1	3.02e+01	92	39	0	207093760	50	6088
2026-01-04 03:19:44.86	205.29	11.51	-37.7	-39.0	28.1	3.02e+01	90	39	0	209190912	50	6092
2026-01-04 03:19:45.87	205.40	11.60	-37.6	-38.8	28.3	3.02e+01	91	39	0	210763776	50	5990
2026-01-04 03:19:46.88	205.52	11.68	-37.8	-39.0	28.3	3.02e+01	90	39	0	212860928	50	6127
2026-01-04 03:19:47.89	205.64	11.77	-37.9	-39.2	28.3	3.02e+01	91	39	0	214958080	50	6207
2026-01-04 03:19:48.90	205.75	11.86	-37.9	-39.1	28.2	3.02e+01	92	39	0	216530944	50	6194
2026-01-04 03:19:49.91	205.87	11.95	-38.0	-39.3	28.3	3.02e+01	92	39	0	218628096	50	6308
2026-01-04 03:19:50.92	205.99	12.03	-38.3	-39.6	28.2	3.02e+01	89	39	0	220200960	50	6539
2026-01-04 03:19:51.93	206.11	12.12	-37.9	-39.2	28.3	3.02e+01	91	39	0	222298112	50	6218
2026-01-04 03:19:52.94	206.23	12.21	-38.3	-39.6	28.2	3.02e+01	92	39	0	224395264	50	6547
2026-01-04 03:19:53.95	206.36	12.30	-38.5	-39.7	27.9	3.02e+01	91	39	0	225968128	50	6637
2026-01-04 03:19:54.96	206.48	12.39	-37.9	-39.1	28.3	3.02e+01	90	39	0	228065280	50	6194
2026-01-04 03:19:55.97	206.60	12.48	-38.4	-39.7	28.3	3.02e+01	92	39	0	229638144	50	6580
2026-01-04 03:19:56.98	206.73	12.56	-38.2	-39.5	28.0	3.02e+01	91	39	0	231735296	50	6438
2026-01-04 03:19:57.99	206.85	12.65	-37.9	-39.2	28.4	3.02e+01	92	39	0	233308160	50	6242
2026-01-04 03:19:59.00	206.98	12.74	-38.1	-39.4	28.4	3.02e+01	90	39	0	235405312	50	6376
2026-01-04 03:20:00.01	207.10	12.83	-37.7	-38.9	28.6	3.02e+01	92	39	0	237502464	50	6056
2026-01-04 03:20:01.01	207.23	12.92	-37.4	-38.6	28.6	3.02e+01	92	39	0	239075328	50	5843
2026-01-04 03:20:02.02	207.36	13.01	-37.5	-38.7	28.7	3.02e+01	92	39	0	241172480	50	5916
2026-01-04 03:20:03.03	207.49	13.10	-37.5	-38.8	28.6	3.02e+01	92	39	0	243269632	50	5948
2026-01-04 03:20:04.04	207.62	13.19	-37.8	-39.1	28.3	3.02e+01	92	39	0	244842496	50	6171
2026-01-04 03:20:05.05	207.75	13.29	-37.7	-38.9	28.4	3.02e+01	92	39	0	246939648	50	6037
2026-01-04 03:20:06.06	207.88	13.38	-37.7	-39.0	28.3	3.02e+01	92	39	0	248512512	50	6099
2026-01-04 03:20:07.07	208.01	13.47	-37.4	-38.6	28.7	3.02e+01	89	39	0	250609664	50	5837
2026-01-04 03:20:08.08	208.14	13.56	-37.6	-38.9	28.6	3.02e+01	91	39	0	252706816	50	6011
2026-01-04 03:20:09.08	208.27	13.65	-37.8	-39.1	28.4	3.02e+01	92	39	0	254279680	50	6145
2026-01-04 03:20:10.09	208.41	13.74	-37.4	-38.6	28.8	3.02e+01	90	39	0	256376832	50	5826
2026-01-04 03:20:11.10	208.55	13.84	-37.4	-38.6	28.8	3.02e+01	85	39	0	257949696	50	5849
2026-01-04 03:20:12.11	208.68	13.93	-37.3	-38.5	28.6	3.02e+01	89	39	0	260046848	50	5790
2026-01-04 03:20:13.12	208.82	14.02	-37.7	-38.9	28.7	3.02e+01	91	39	0	262144000	50	6036
2026-01-04 03:20:14.13	208.96	14.12	-38.2	-39.4	28.6	3.02e+01	90	39	0	263716864	50	6377
2026-01-04 03:20:15.15	209.10	14.21	-38.1	-39.4	28.8	3.02e+01	92	39	0	265814016	50	6372
2026-01-04 03:20:16.15	209.24	14.30	-38.2	-39.4	28.7	3.02e+01	91	39	0	267911168	50	6390
2026-01-04 03:20:17.16	209.38	14.40	-38.1	-39.3	28.7	3.02e+01	91	39	0	269484032	50	6325
2026-01-04 03:20:18.17	209.52	14.49	-38.1	-39.3	28.7	3.02e+01	92	39	0	271581184	50	6344
2026-01-04 03:20:19.18	209.66	14.59	-37.9	-39.1	28.8	3.02e+01	92	39	0	273154048	50	6172
2026-01-04 03:20:20.19	209.81	14.68	-37.6	-38.8	28.8	3.02e+01	91	39	0	275251200	50	5970
2026-01-04 03:20:21.20	209.95	14.78	-37.4	-38.6	29.0	3.02e+01	92	39	0	277348352	50	5808
2026-01-04 03:20:22.21	210.10	14.87	-37.4	-38.6	29.0	3.02e+01	91	39	0	278921216	50	5848
2026-01-04 03:20:23.22	210.24	14.97	-37.5	-38.8	28.9	3.02e+01	90	39	0	281018368	50	5944
2026-01-04 03:20:24.23	210.39	15.06	-37.4	-38.6	29.0	3.02e+01	92	39	0	282591232	50	5805
2026-01-04 03:20:25.24	210.54	15.16	-37.2	-38.5	28.8	3.02e+01	90	39	0	284688384	50	5734
2026-01-04 03:20:26.25	210.69	15.26	-37.3	-38.6	28.7	3.02e+01	92	39	0	286785536	50	5792
2026-01-04 03:20:27.26	210.84	15.35	-37.2	-38.4	28.8	3.02e+01	90	39	0	288358400	50	5697
2026-01-04 03:20:28.26	210.99	15.45	-37.4	-38.7	28.8	3.02e+01	91	39	0	290455552	50	5859
2026-01-04 03:20:29.27	211.14	15.55	-36.9	-38.1	29.0	3.02e+01	92	39	0	292028416	48	6171
2026-01-04 03:20:30.28	211.30	15.64	-37.1	-38.3	28.8	3.02e+01	92	39	0	294125568	48	6331
2026-01-04 03:20:31.29	211.45	15.74	-37.1	-38.3	28.9	3.02e+01	90	39	0	296222720	48	6336
2026-01-04 03:20:32.30	211.61	15.84	-37.1	-38.3	28.9	3.02e+01	92	39	0	297795584	48	6323
2026-01-04 03:20:33.31	211.76	15.94	-37.3	-38.5	28.8	3.02e+01	85	39	0	299892736	48	6459
2026-01-04 03:20:34.32	211.92	16.03	-37.3	-38.5	28.8	3.02e+01	90	39	0	301465600	48	6491
2026-01-04 03:20:35.33	212.08	16.13	-37.3	-38.6	28.9	3.02e+01	92	39	0	303562752	48	6522
2026-01-04 03:20:36.34	212.24	16.23	-37.6	-38.8	28.7	3.02e+01	92	39	0	305659904	48	6709
2026-01-04 03:20:37.35	212.40	16.33	-37.3	-38.6	28.8	3.02e+01	92	39	0	307232768	48	6504
2026-01-04 03:20:38.36	212.56	16.43	-37.3	-38.5	28.9	3.02e+01	92	39	0	309329920	48	6452
2026-01-04 03:20:39.37	212.73	16.53	-37.3	-38.5	29.0	3.02e+01	92	39	0	311427072	48	6489
2026-01-04 03:20:40.38	212.89	16.63	-37.4	-38.7	28.8	3.02e+01	88	39	0	312999936	48	6595
2026-01-04 03:20:41.39	213.06	16.73	-37.5	-38.7	28.6	3.02e+01	92	39	0	315097088	48	6612
2026-01-04 03:20:42.40	213.23	16.83	-37.2	-38.5	29.0	3.02e+01	92	39	0	316669952	48	6446
2026-01-04 03:20:43.41	213.39	16.93	-37.2	-38.4	29.0	3.02e+01	92	39	0	318767104	48	6411
2026-01-04 03:20:44.42	213.56	17.03	-37.0	-38.2	29.2	3.02e+01	92	39	0	320864256	48	6239
2026-01-04 03:20:45.43	213.73	17.13	-37.0	-38.2	29.0	3.02e+01	92	39	0	322437120	48	6255
2026-01-04 03:20:46.44	213.90	17.23	-37.1	-38.3	29.0	3.02e+01	90	39	0	324534272	48	6301
2026-01-04 03:20:47.45	214.08	17.34	-37.4	-38.6	28.9	3.02e+01	91	39	0	326107136	48	6544
2026-01-04 03:20:48.46	214.25	17.44	-37.0	-38.2	29.0	3.02e+01	92	39	0	328204288	48	6276
2026-01-04 03:20:49.47	214.43	17.54	-37.0	-38.2	28.9	3.02e+01	91	39	0	330301440	48	6243
2026-01-04 03:20:50.47	214.60	17.64	-36.9	-38.1	29.0	3.02e+01	92	39	0	331874304	48	6174
2026-01-04 03:20:51.48	214.78	17.74	-36.9	-38.1	29.1	3.02e+01	91	39	0	333971456	48	6204
2026-01-04 03:20:52.49	214.96	17.84	-37.2	-38.4	29.1	3.02e+01	87	39	0	336068608	48	6368
2026-01-04 03:20:53.50	215.14	17.95	-37.1	-38.3	29.0	3.02e+01	90	39	0	337641472	48	6331
2026-01-04 03:20:54.50	215.32	18.05	-37.1	-38.3	29.0	3.02e+01	92	39	0	339738624	48	6316
2026-01-04 03:20:55.51	215.50	18.15	-36.9	-38.1	29.1	3.02e+01	92	39	0	341311488	48	6155
2026-01-04 03:20:56.52	215.68	18.26	-36.7	-38.0	29.1	3.02e+01	90	39	0	343408640	48	6065
2026-01-04 03:20:57.53	215.87	18.36	-36.7	-38.0	29.2	3.02e+01	92	39	0	344981504	48	6077
2026-01-04 03:20:58.54	216.05	18.46	-37.0	-38.2	29.1	3.02e+01	91	39	0	347078656	48	6239
2026-01-04 03:20:59.55	216.24	18.57	-36.8	-38.1	29.1	3.02e+01	92	39	0	349175808	48	6145
2026-01-04 03:21:00.56	216.43	18.67	-36.7	-37.9	29.2	3.02e+01	91	39	0	350748672	48	6019
2026-01-04 03:21:01.57	216.62	18.78	-36.9	-38.1	29.2	3.02e+01	92	39	0	352845824	48	6158
2026-01-04 03:21:02.58	216.81	18.88	-36.9	-38.2	29.1	3.02e+01	92	39	0	354418688	48	6218
2026-01-04 03:21:03.59	217.01	18.99	-36.8	-38.0	29.1	3.02e+01	91	39	0	356515840	48	6086
2026-01-04 03:21:04.60	217.20	19.09	-36.9	-38.1	29.2	3.02e+01	92	39	0	358612992	48	6158
2026-01-04 03:21:05.61	217.40	19.20	-36.7	-37.9	29.3	3.02e+01	89	39	0	360185856	48	6045
2026-01-04 03:21:06.62	217.59	19.30	-36.8	-38.0	29.2	3.02e+01	92	39	0	362283008	48	6107
2026-01-04 03:21:07.63	217.79	19.41	-36.8	-38.0	29.3	3.02e+01	90	39	0	364380160	48	6097
2026-01-04 03:21:08.63	217.99	19.51	-37.1	-38.3	28.9	3.02e+01	91	39	0	365953024	48	6334
2026-01-04 03:21:09.64	218.19	19.62	-37.0	-38.2	29.0	3.02e+01	92	39	0	368050176	48	6273
2026-01-04 03:21:10.65	218.39	19.72	-37.1	-38.3	29.0	3.02e+01	92	39	0	369623040	48	6300
2026-01-04 03:21:11.66	218.60	19.83	-37.0	-38.2	29.1	3.02e+01	88	39	0	371720192	48	6257
2026-01-04 03:21:12.67	218.80	19.93	-36.7	-37.9	29.2	3.02e+01	92	39	0	373817344	48	6017
2026-01-04 03:21:13.68	219.01	20.04	-36.7	-37.9	29.3	3.02e+01	92	39	0	375390208	48	6045
2026-01-04 03:21:14.68	219.22	20.15	-36.7	-37.9	29.1	3.02e+01	89	39	0	377487360	48	6036
2026-01-04 03:21:15.70	219.43	20.25	-36.8	-38.1	29.1	3.02e+01	92	39	0	379584512	48	6143
2026-01-04 03:21:16.71	219.64	20.36	-36.7	-38.0	29.2	3.02e+01	92	39	0	381157376	48	6072
2026-01-04 03:21:17.71	219.85	20.47	-36.8	-38.0	29.2	3.02e+01	92	39	0	383254528	48	6117
2026-01-04 03:21:18.72	220.07	20.57	-37.1	-38.3	29.0	3.02e+01	92	39	0	384827392	48	6323
2026-01-04 03:21:19.73	220.28	20.68	-37.3	-38.5	29.0	3.02e+01	92	39	0	386924544	48	6470
2026-01-04 03:21:20.74	220.50	20.79	-37.3	-38.5	28.9	3.02e+01	92	39	0	389021696	48	6477
2026-01-04 03:21:21.75	220.72	20.90	-37.7	-38.9	29.0	3.02e+01	91	39	0	390594560	48	6783
2026-01-04 03:21:22.76	220.94	21.00	-37.3	-38.5	29.0	3.02e+01	92	39	0	392691712	48	6463
2026-01-04 03:21:23.77	221.17	21.11	-37.4	-38.6	28.8	3.02e+01	91	39	0	394264576	48	6556
2026-01-04 03:21:24.78	221.39	21.22	-37.4	-38.6	28.9	3.02e+01	91	39	0	396361728	48	6555
2026-01-04 03:21:25.79	221.62	21.33	-37.5	-38.7	28.9	3.02e+01	91	39	0	398458880	48	6583
2026-01-04 03:21:26.80	221.84	21.43	-37.3	-38.6	29.0	3.02e+01	92	39	0	400031744	48	6514
2026-01-04 03:21:27.81	222.07	21.54	-37.5	-38.7	28.8	3.02e+01	92	39	0	402128896	48	6597
2026-01-04 03:21:28.82	222.30	21.65	-37.5	-38.7	28.9	3.02e+01	95	39	0	403701760	48	6640
2026-01-04 03:21:29.83	222.54	21.76	-37.2	-38.5	29.0	3.02e+01	91	39	0	405798912	48	6436
2026-01-04 03:21:30.84	222.77	21.86	-37.2	-38.4	29.0	3.02e+01	91	39	0	407896064	48	6391
2026-01-04 03:21:31.85	223.00	21.97	-37.1	-38.3	29.0	3.02e+01	91	39	0	409468928	48	6343
2026-01-04 03:21:32.86	223.24	22.08	-37.2	-38.4	28.9	3.02e+01	92	39	0	411566080	48	6384
2026-01-04 03:21:33.87	223.48	22.19	-36.8	-38.1	29.1	3.02e+01	87	39	0	413138944	48	6135
2026-01-04 03:21:34.87	223.72	22.30	-36.9	-38.1	29.2	3.02e+01	92	39	0	415236096	48	6151
2026-01-04 03:21:35.89	223.96	22.41	-37.0	-38.2	29.1	3.02e+01	91	39	0	417333248	48	6222
2026-01-04 03:21:36.89	224.21	22.51	-37.1	-38.3	28.9	3.02e+01	89	39	0	418906112	48	6311
2026-01-04 03:21:37.90	224.45	22.62	-37.2	-38.4	28.8	3.02e+01	92	39	0	421003264	48	6368
2026-01-04 03:21:38.91	224.70	22.73	-36.9	-38.1	29.0	3.02e+01	91	39	0	422576128	48	6198
2026-01-04 03:21:39.92	224.95	22.84	-37.0	-38.2	29.0	3.02e+01	92	39	0	424673280	48	6275
2026-01-04 03:21:40.93	225.20	22.94	-37.1	-38.3	28.9	3.02e+01	91	39	0	426770432	48	6329
2026-01-04 03:21:41.94	225.45	23.05	-37.1	-38.3	29.0	3.02e+01	92	39	0	428343296	48	6320
2026-01-04 03:21:42.95	225.71	23.16	-37.0	-38.2	29.0	3.02e+01	92	39	0	430440448	48	6234
2026-01-04 03:21:43.96	225.97	23.27	-37.1	-38.4	28.9	3.02e+01	90	39	0	432537600	48	6366
2026-01-04 03:21:44.97	226.22	23.38	-37.1	-38.4	28.9	3.02e+01	92	39	0	434110464	48	6364
2026-01-04 03:21:45.98	226.48	23.48	-37.3	-38.5	28.9	3.02e+01	90	39	0	436207616	48	6457
2026-01-04 03:21:46.99	226.75	23.59	-37.2	-38.5	28.8	3.02e+01	91	39	0	437780480	48	6425
2026-01-04 03:21:48.00	227.01	23.70	-37.5	-38.7	28.7	3.02e+01	91	39	0	439877632	48	6613
2026-01-04 03:21:49.01	227.28	23.81	-37.2	-38.5	28.8	3.02e+01	91	39	0	441974784	48	6425
2026-01-04 03:21:50.02	227.54	23.91	-37.1	-38.3	28.9	3.02e+01	90	39	0	443547648	48	6331
2026-01-04 03:21:51.02	227.81	24.02	-37.3	-38.6	28.9	3.02e+01	91	39	0	445644800	48	6508
2026-01-04 03:21:52.03	228.08	24.12	-37.5	-38.7	28.9	3.02e+01	90	39	0	447217664	48	6625
2026-01-04 03:21:53.04	228.36	24.23	-37.8	-39.0	28.8	3.02e+01	87	39	0	449314816	48	6863
2026-01-04 03:21:54.05	228.63	24.34	-37.9	-39.1	28.8	3.02e+01	91	39	0	451411968	50	6174
2026-01-04 03:21:55.06	228.91	24.44	-37.9	-39.1	28.8	3.02e+01	92	39	0	452984832	50	6146
2026-01-04 03:21:56.07	229.19	24.55	-37.6	-38.8	28.8	3.02e+01	89	39	0	455081984	50	5967
2026-01-04 03:21:57.08	229.47	24.66	-37.8	-39.0	28.7	3.02e+01	92	39	0	456654848	50	6127
2026-01-04 03:21:58.09	229.75	24.76	-37.4	-38.7	28.8	3.02e+01	93	39	0	458752000	50	5871
2026-01-04 03:21:59.10	230.04	24.87	-37.4	-38.6	29.0	3.02e+01	90	39	0	460849152	50	5850
2026-01-04 03:22:00.11	230.32	24.97	-37.7	-38.9	28.7	3.02e+01	92	39	0	462422016	50	6038
2026-01-04 03:22:01.12	230.61	25.08	-37.7	-38.9	28.8	3.02e+01	92	39	0	464519168	50	6027
2026-01-04 03:22:02.13	230.90	25.18	-37.8	-39.1	28.6	3.02e+01	91	39	0	466092032	50	6158
2026-01-04 03:22:03.13	231.19	25.28	-37.8	-39.1	28.5	3.02e+01	92	39	0	468189184	50	6150
2026-01-04 03:22:04.15	231.49	25.39	-37.4	-38.7	28.7	3.02e+01	91	39	0	470286336	50	5867
2026-01-04 03:22:05.15	231.78	25.49	-37.5	-38.7	28.7	3.02e+01	91	39	0	471859200	50	5904
2026-01-04 03:22:06.16	232.08	25.60	-37.5	-38.7	28.7	3.02e+01	91	39	0	473956352	50	5904
2026-01-04 03:22:07.17	232.38	25.70	-37.5	-38.8	28.5	3.02e+01	91	39	0	476053504	50	5939
2026-01-04 03:22:08.18	232.68	25.80	-37.3	-38.5	28.9	3.02e+01	92	39	0	477626368	50	5745
2026-01-04 03:22:09.19	232.99	25.90	-37.7	-39.0	28.5	3.02e+01	92	39	0	479723520	50	6075
2026-01-04 03:22:10.20	233.29	26.00	-37.6	-38.8	28.6	3.02e+01	92	39	0	481296384	50	5968
2026-01-04 03:22:11.21	233.60	26.11	-37.8	-39.1	28.3	3.02e+01	91	39	0	483393536	50	6145
2026-01-04 03:22:12.22	233.91	26.21	-37.4	-38.7	28.6	3.02e+01	91	39	0	485490688	50	5879
2026-01-04 03:22:13.23	234.23	26.31	-37.5	-38.8	28.5	3.02e+01	91	39	0	487063552	50	5965
2026-01-04 03:22:14.24	234.54	26.41	-37.1	-38.3	29.0	3.02e+01	92	39	0	489160704	50	5635
2026-01-04 03:22:15.25	234.86	26.51	-37.2	-38.4	28.8	3.02e+01	92	39	0	490733568	50	5702
2026-01-04 03:22:16.26	235.18	26.61	-37.3	-38.6	28.7	3.02e+01	92	39	0	492830720	50	5809
2026-01-04 03:22:17.27	235.50	26.70	-37.4	-38.6	28.7	3.02e+01	91	39	0	494927872	50	5838
2026-01-04 03:22:18.28	235.82	26.80	-37.2	-38.4	28.9	3.02e+01	91	39	0	496500736	50	5673
2026-01-04 03:22:19.29	236.14	26.90	-37.6	-38.9	28.5	3.02e+01	92	39	0	498597888	50	6006
2026-01-04 03:22:20.30	236.47	27.00	-37.3	-38.5	28.8	3.02e+01	92	39	0	500695040	50	5751
2026-01-04 03:22:21.31	236.80	27.09	-37.1	-38.3	28.9	3.02e+01	92	39	0	502267904	50	5635
2026-01-04 03:22:22.32	237.13	27.19	-37.2	-38.4	28.8	3.02e+01	90	39	0	504365056	50	5716
2026-01-04 03:22:23.32	237.46	27.28	-37.3	-38.5	28.8	3.02e+01	92	39	0	505937920	50	5754
2026-01-04 03:22:24.33	237.79	27.38	-37.1	-38.4	28.9	3.02e+01	90	39	0	508035072	50	5675
2026-01-04 03:22:25.34	238.13	27.47	-37.1	-38.3	28.9	3.02e+01	92	39	0	510132224	50	5651
2026-01-04 03:22:26.35	238.47	27.56	-37.1	-38.3	28.9	3.02e+01	92	39	0	511705088	50	5635
2026-01-04 03:22:27.36	238.81	27.65	-37.1	-38.4	28.8	3.02e+01	92	39	0	513802240	50	5679
2026-01-04 03:22:28.37	239.15	27.75	-36.9	-38.2	29.0	3.02e+01	91	39	0	515375104	48	6230
2026-01-04 03:22:29.38	239.50	27.84	-37.1	-38.3	28.9	3.02e+01	91	39	0	517472256	48	6341
2026-01-04 03:22:30.39	239.84	27.93	-37.0	-38.2	29.0	3.02e+01	92	39	0	519569408	48	6259
2026-01-04 03:22:31.40	240.19	28.02	-37.2	-38.4	28.8	3.02e+01	89	39	0	521142272	48	6390
2026-01-04 03:22:32.41	240.54	28.10	-37.3	-38.5	28.7	3.02e+01	91	39	0	523239424	48	6481
2026-01-04 03:22:33.42	240.90	28.19	-37.0	-38.3	28.9	3.02e+01	92	39	0	524812288	48	6300
2026-01-04 03:22:34.43	241.25	28.28	-37.2	-38.5	28.7	3.02e+01	91	39	0	526909440	48	6436
2026-01-04 03:22:35.44	241.61	28.36	-36.9	-38.1	29.0	3.02e+01	90	39	0	529006592	48	6189
2026-01-04 03:22:36.45	241.97	28.45	-37.0	-38.3	28.9	3.02e+01	91	39	0	530579456	48	6297
2026-01-04 03:22:37.46	242.33	28.53	-37.2	-38.4	28.9	3.02e+01	92	39	0	532676608	48	6371
2026-01-04 03:22:38.46	242.68	28.62	-37.2	-38.4	28.9	3.02e+01	92	39	0	534249472	48	6357
2026-01-04 03:22:39.48	243.05	28.70	-37.5	-38.8	28.5	3.02e+01	92	39	0	536346624	48	6657
2026-01-04 03:22:40.48	243.42	28.78	-37.3	-38.6	28.8	3.02e+01	90	39	0	538443776	48	6516
2026-01-04 03:22:41.49	243.78	28.86	-37.0	-38.3	29.0	3.02e+01	92	39	0	540016640	48	6280
2026-01-04 03:22:42.50	244.15	28.94	-37.1	-38.3	28.9	3.02e+01	92	39	0	542113792	48	6321
2026-01-04 03:22:43.51	244.52	29.02	-37.3	-38.5	28.8	3.02e+01	92	39	0	544210944	48	6479
2026-01-04 03:22:44.52	244.90	29.09	-37.5	-38.7	28.6	3.02e+01	90	39	0	545783808	48	6623
2026-01-04 03:22:45.53	245.27	29.17	-37.3	-38.6	28.7	3.02e+01	92	39	0	547880960	48	6503
2026-01-04 03:22:46.54	245.65	29.25	-37.4	-38.6	28.7	3.02e+01	92	39	0	549453824	48	6518
2026-01-04 03:22:47.55	246.03	29.32	-37.6	-38.8	28.4	3.02e+01	92	39	0	551550976	48	6726
2026-01-04 03:22:48.56	246.41	29.39	-37.5	-38.7	28.7	3.02e+01	92	39	0	553648128	48	6610
2026-01-04 03:22:49.57	246.79	29.47	-36.9	-38.1	29.3	3.02e+01	90	39	0	555220992	48	6148
2026-01-04 03:22:50.58	247.18	29.54	-37.3	-38.5	28.8	3.02e+01	92	39	0	557318144	48	6453
2026-01-04 03:22:51.59	247.56	29.61	-36.9	-38.1	29.2	3.02e+01	92	39	0	558891008	48	6159
2026-01-04 03:22:52.60	247.95	29.67	-37.1	-38.3	29.1	3.02e+01	92	39	0	560988160	48	6333
2026-01-04 03:22:53.61	248.34	29.74	-37.3	-38.5	29.0	3.02e+01	88	39	0	563085312	48	6448
2026-01-04 03:22:54.62	248.73	29.81	-37.0	-38.2	29.2	3.02e+01	92	39	0	564658176	48	6248
2026-01-04 03:22:55.63	249.12	29.87	-37.3	-38.5	29.2	3.02e+01	92	39	0	566755328	48	6454
2026-01-04 03:22:56.64	249.52	29.94	-37.0	-38.2	29.1	3.02e+01	92	39	0	568852480	48	6253
2026-01-04 03:22:57.65	249.91	30.00	-36.8	-38.0	29.4	3.02e+01	91	39	0	570425344	48	6107
2026-01-04 03:22:58.66	250.31	30.06	-36.9	-38.1	29.3	3.02e+01	92	39	0	572522496	48	6160
2026-01-04 03:22:59.66	250.70	30.12	-37.1	-38.3	29.3	3.02e+01	92	39	0	574095360	48	6279
2026-01-04 03:23:00.67	251.10	30.18	-37.7	-39.0	28.8	3.02e+01	90	39	0	576192512	48	6808
2026-01-04 03:23:01.68	251.50	30.23	-36.8	-38.0	29.5	3.02e+01	91	39	0	577765376	48	6078
2026-01-04 03:23:02.69	251.91	30.29	-37.0	-38.3	29.2	3.02e+01	91	39	0	579862528	48	6279
2026-01-04 03:23:03.70	252.31	30.34	-36.9	-38.1	29.3	3.02e+01	92	39	0	581959680	48	6182
2026-01-04 03:23:04.70	252.71	30.39	-37.1	-38.2	29.3	3.02e+01	90	39	0	583532544	48	6277
2026-01-04 03:23:05.71	253.12	30.45	-37.0	-38.2	29.4	3.02e+01	92	39	0	585629696	48	6218
2026-01-04 03:23:06.72	253.53	30.50	-37.0	-38.2	29.3	3.02e+01	92	39	0	587202560	48	6234
2026-01-04 03:23:07.73	253.94	30.54	-36.5	-37.7	29.5	3.02e+01	92	39	0	589299712	48	5898
2026-01-04 03:23:08.74	254.35	30.59	-36.6	-37.8	29.5	3.02e+01	90	39	0	591396864	48	5952
2026-01-04 03:23:09.75	254.76	30.64	-36.7	-37.9	29.5	3.02e+01	92	39	0	592969728	48	6025
2026-01-04 03:23:10.76	255.17	30.68	-36.8	-38.0	29.3	3.02e+01	92	39	0	595066880	48	6102
2026-01-04 03:23:11.78	255.59	30.72	-37.0	-38.2	29.5	3.02e+01	91	39	0	597164032	48	6232
2026-01-04 03:23:12.78	256.00	30.76	-36.9	-38.1	29.6	3.02e+01	88	39	0	598736896	48	6160
2026-01-04 03:23:13.79	256.42	30.80	-37.1	-38.3	29.4	3.02e+01	91	39	0	600834048	48	6316
2026-01-04 03:23:14.80	256.83	30.84	-37.1	-38.3	29.4	3.02e+01	92	39	0	602406912	48	6332
2026-01-04 03:23:15.81	257.25	30.88	-37.1	-38.3	29.5	3.02e+01	87	39	0	604504064	48	6292
2026-01-04 03:23:16.82	257.67	30.91	-36.9	-38.1	29.5	3.02e+01	91	39	0	606601216	48	6136
2026-01-04 03:23:17.83	258.09	30.95	-36.5	-37.7	29.7	3.02e+01	92	39	0	608174080	48	5906
2026-01-04 03:23:18.84	258.51	30.98	-36.9	-38.1	29.5	3.02e+01	90	39	0	610271232	48	6143
2026-01-04 03:23:19.85	258.93	31.01	-36.6	-37.8	29.6	3.02e+01	92	39	0	612368384	48	5943
2026-01-04 03:23:20.86	259.36	31.04	-36.6	-37.8	29.6	3.02e+01	89	39	0	613941248	48	5962
2026-01-04 03:23:21.87	259.78	31.06	-36.6	-37.7	29.6	3.02e+01	90	39	0	616038400	48	5917
2026-01-04 03:23:22.88	260.20	31.09	-36.6	-37.8	29.4	3.02e+01	92	39	0	617611264	48	5967
2026-01-04 03:23:23.89	260.63	31.11	-37.6	-38.8	29.0	3.02e+01	92	39	0	619708416	48	6689
2026-01-04 03:23:24.90	261.05	31.13	-36.9	-38.1	29.3	3.02e+01	90	39	0	621805568	48	6140
2026-01-04 03:23:25.90	261.47	31.15	-36.5	-37.7	29.5	3.02e+01	88	39	0	623378432	48	5919
2026-01-04 03:23:26.91	261.90	31.17	-37.0	-38.2	29.5	3.02e+01	91	39	0	625475584	48	6222
2026-01-04 03:23:27.92	262.33	31.19	-36.7	-37.9	29.5	3.02e+01	91	39	0	627048448	48	6004
2026-01-04 03:23:28.93	262.75	31.20	-36.4	-37.5	29.8	3.02e+01	91	39	0	629145600	48	5785
2026-01-04 03:23:29.94	263.18	31.22	-36.3	-37.5	29.7	3.02e+01	91	39	0	631242752	48	5773
2026-01-04 03:23:30.95	263.61	31.23	-36.3	-37.5	29.8	3.02e+01	92	39	0	632815616	48	5732
2026-01-04 03:23:31.96	264.04	31.24	-36.2	-37.4	29.8	3.02e+01	91	39	0	634912768	48	5673
2026-01-04 03:23:32.97	264.46	31.25	-36.2	-37.4	29.8	3.02e+01	92	39	0	636485632	48	5710
2026-01-04 03:23:33.98	264.89	31.25	-36.2	-37.4	29.8	3.02e+01	89	39	0	638582784	48	5679
2026-01-04 03:23:34.99	265.32	31.26	-36.4	-37.6	29.6	3.02e+01	89	39	0	640679936	48	5804
2026-01-04 03:23:36.00	265.75	31.26	-36.3	-37.5	29.8	3.02e+01	92	39	0	642252800	48	5736
2026-01-04 03:23:37.01	266.18	31.26	-36.4	-37.6	29.8	3.02e+01	92	39	0	644349952	48	5802
2026-01-04 03:23:38.02	266.61	31.26	-36.1	-37.3	30.0	3.02e+01	92	39	0	645922816	48	5612
2026-01-04 03:23:39.03	267.03	31.26	-36.2	-37.4	30.0	3.02e+01	90	39	0	648019968	48	5692
2026-01-04 03:23:40.03	267.46	31.26	-36.5	-37.7	29.6	3.02e+01	92	39	0	650117120	48	5888
2026-01-04 03:23:41.04	267.89	31.25	-36.6	-37.8	29.9	3.02e+01	90	39	0	651689984	48	5962
2026-01-04 03:23:42.05	268.32	31.25	-36.3	-37.5	29.6	3.02e+01	91	39	0	653787136	48	5765
2026-01-04 03:23:43.06	268.74	31.24	-37.0	-38.2	29.6	3.02e+01	90	39	0	655360000	48	6258
2026-01-04 03:23:44.07	269.17	31.23	-36.5	-37.6	29.8	3.02e+01	92	39	0	657457152	48	5840
2026-01-04 03:23:45.08	269.60	31.22	-36.5	-37.7	29.8	3.02e+01	92	39	0	659554304	48	5874
2026-01-04 03:23:46.09	270.03	31.20	-36.5	-37.6	29.8	3.02e+01	91	39	0	661127168	48	5857
2026-01-04 03:23:47.11	270.46	31.19	-36.6	-37.8	29.7	3.02e+01	91	39	0	663224320	48	5931
2026-01-04 03:23:48.11	270.88	31.17	-36.5	-37.7	29.9	3.02e+01	90	39	0	665321472	48	5868
2026-01-04 03:23:49.13	271.31	31.15	-36.4	-37.5	29.7	3.02e+01	90	39	0	666894336	48	5789
2026-01-04 03:23:50.13	271.73	31.13	-35.9	-37.1	30.1	3.02e+01	91	39	0	668991488	48	5508
2026-01-04 03:23:51.14	272.15	31.11	-36.2	-37.4	29.9	3.02e+01	90	39	0	670564352	46	6404
2026-01-04 03:23:52.15	272.58	31.09	-36.0	-37.2	29.9	3.02e+01	92	39	0	672661504	46	6235
2026-01-04 03:23:53.16	273.00	31.06	-35.9	-37.0	30.1	3.02e+01	92	39	0	674758656	46	6123
2026-01-04 03:23:54.17	273.42	31.04	-36.5	-37.7	29.9	3.02e+01	87	39	0	676331520	46	6576
2026-01-04 03:23:55.18	273.85	31.01	-36.3	-37.5	30.0	3.02e+01	92	39	0	678428672	46	6449
2026-01-04 03:23:56.19	274.27	30.98	-36.0	-37.2	30.2	3.02e+01	95	39	0	680525824	46	6241
2026-01-04 03:23:57.20	274.69	30.95	-36.1	-37.3	30.0	3.02e+01	92	39	0	682098688	46	6308
2026-01-04 03:23:58.21	275.11	30.91	-36.0	-37.2	30.1	3.02e+01	92	39	0	684195840	46	6244
2026-01-04 03:23:59.22	275.53	30.88	-35.9	-37.1	30.1	3.02e+01	92	39	0	685768704	46	6146
2026-01-04 03:24:00.22	275.94	30.84	-36.1	-37.3	29.9	3.02e+01	92	39	0	687865856	46	6286
2026-01-04 03:24:01.22	276.35	30.80	-35.8	-37.0	30.0	3.02e+01	90	39	0	689438720	46	6072
2026-01-04 03:24:02.23	276.77	30.76	-36.1	-37.3	29.9	3.02e+01	92	39	0	691535872	46	6292
2026-01-04 03:24:03.24	277.18	30.72	-36.0	-37.1	30.0	3.02e+01	92	39	0	693633024	46	6200
2026-01-04 03:24:04.25	277.59	30.68	-35.9	-37.1	30.2	3.02e+01	92	39	0	695205888	46	6150
2026-01-04 03:24:05.26	278.01	30.64	-35.9	-37.0	30.0	3.02e+01	92	39	0	697303040	46	6121
2026-01-04 03:24:06.27	278.42	30.59	-35.8	-36.9	30.2	3.02e+01	92	39	0	698875904	46	6047
2026-01-04 03:24:07.28	278.83	30.55	-35.8	-37.0	30.1	3.02e+01	92	39	0	700973056	46	6091
2026-01-04 03:24:08.29	279.24	30.50	-35.9	-37.1	30.0	3.02e+01	92	39	0	703070208	46	6165
2026-01-04 03:24:09.30	279.64	30.45	-35.8	-37.0	30.1	3.02e+01	92	39	0	704643072	46	6109
2026-01-04 03:24:10.31	280.05	30.40	-35.7	-36.8	30.2	3.02e+01	92	39	0	706740224	46	5986
2026-01-04 03:24:11.32	280.45	30.34	-35.8	-36.9	30.2	3.02e+01	92	39	0	708837376	46	6059
2026-01-04 03:24:12.32	280.85	30.29	-35.7	-36.8	30.3	3.02e+01	90	39	0	710410240	46	5988
2026-01-04 03:24:13.33	281.26	30.23	-35.7	-36.8	30.1	3.02e+01	92	39	0	712507392	46	5982
2026-01-04 03:24:14.34	281.66	30.18	-35.8	-37.0	30.0	3.02e+01	92	39	0	714080256	46	6103
2026-01-04 03:24:15.35	282.06	30.12	-35.6	-36.8	30.2	3.02e+01	60	39	0	716177408	46	5946
2026-01-04 03:24:16.35	282.45	30.06	-35.9	-37.1	30.0	3.02e+01	52	39	0	718274560	46	6168
2026-01-04 03:24:17.36	282.85	30.00	-35.7	-36.9	30.3	3.02e+01	50	39	0	719847424	46	6017
2026-01-04 03:24:18.38	283.24	29.94	-35.6	-36.8	30.2	3.02e+01	59	39	0	721944576	46	5965
2026-01-04 03:24:19.39	283.64	29.87	-35.7	-36.9	30.1	3.02e+01	59	39	0	723517440	46	6005
2026-01-04 03:24:20.39	284.02	29.81	-35.5	-36.6	30.3	3.02e+01	60	39	0	725614592	46	5845
2026-01-04 03:24:21.40	284.41	29.75	-35.7	-36.9	30.2	3.02e+01	59	39	0	727711744	46	6030
2026-01-04 03:24:22.42	284.81	29.68	-36.1	-37.3	29.7	3.02e+01	56	39	0	729284608	46	6315
2026-01-04 03:24:23.43	285.19	29.61	-35.8	-36.9	30.1	3.02e+01	59	39	0	731381760	46	6045
2026-01-04 03:24:24.43	285.57	29.54	-35.7	-36.9	30.2	3.02e+01	57	39	0	732954624	46	6026
2026-01-04 03:24:25.44	285.96	29.47	-35.6	-36.8	30.3	3.02e+01	45	39	0	735051776	46	5944
2026-01-04 03:24:26.45	286.34	29.40	-35.6	-36.7	30.4	3.02e+01	59	39	0	737148928	46	5902
2026-01-04 03:24:27.46	286.72	29.33	-35.6	-36.8	30.2	3.02e+01	59	39	0	738721792	46	5966
2026-01-04 03:24:28.47	287.10	29.25	-35.7	-36.8	30.2	3.02e+01	63	39	0	740818944	46	5977
2026-01-04 03:24:29.48	287.47	29.18	-35.8	-37.0	30.0	3.02e+01	61	39	0	742391808	46	6090
2026-01-04 03:24:30.49	287.85	29.10	-35.7	-36.9	30.2	3.02e+01	55	39	0	744488960	46	6022
2026-01-04 03:24:31.50	288.22	29.02	-36.0	-37.2	30.2	3.02e+01	59	39	0	746586112	46	6221
2026-01-04 03:24:32.51	288.59	28.95	-36.0	-37.2	30.0	3.02e+01	57	39	0	748158976	46	6241
2026-01-04 03:24:33.52	288.96	28.87	-36.4	-37.6	29.6	3.02e+01	44	39	0	750256128	46	6528
2026-01-04 03:24:34.53	289.33	28.79	-35.8	-37.0	30.2	3.02e+01	58	39	0	751828992	46	6087
2026-01-04 03:24:35.54	289.69	28.71	-35.8	-37.0	30.1	3.02e+01	44	39	0	753926144	46	6110
2026-01-04 03:24:36.55	290.05	28.62	-36.0	-37.2	30.0	3.02e+01	61	39	0	756023296	46	6223
2026-01-04 03:24:37.56	290.41	28.54	-36.0	-37.2	29.9	3.02e+01	58	39	0	757596160	46	6232
2026-01-04 03:24:38.57	290.77	28.46	-35.7	-36.9	30.1	3.02e+01	53	39	0	759693312	46	6017
2026-01-04 03:24:39.58	291.13	28.37	-35.8	-36.9	30.2	3.02e+01	57	39	0	761790464	46	6049
2026-01-04 03:24:40.58	291.48	28.29	-36.3	-37.5	29.8	3.02e+01	63	39	0	763363328	46	6440
2026-01-04 03:24:41.59	291.84	28.20	-36.3	-37.4	29.9	3.02e+01	61	39	0	765460480	46	6421
2026-01-04 03:24:42.60	292.19	28.12	-36.0	-37.2	29.7	3.02e+01	60	39	0	767033344	46	6251
2026-01-04 03:24:43.62	292.54	28.03	-36.4	-37.6	29.8	3.02e+01	47	39	0	769130496	46	6499
2026-01-04 03:24:44.63	292.89	27.94	-36.8	-38.0	29.5	3.02e+01	59	39	0	771227648	48	6117
2026-01-04 03:24:45.63	293.23	27.85	-36.8	-38.0	29.5	3.02e+01	59	39	0	772800512	48	6131
2026-01-04 03:24:46.64	293.58	27.76	-36.4	-37.6	29.8	3.02e+01	45	39	0	774897664	48	5834
2026-01-04 03:24:47.65	293.92	27.67	-37.0	-38.1	29.8	3.02e+01	61	39	0	776994816	48	6184
2026-01-04 03:24:48.66	294.26	27.58	-36.9	-38.1	29.8	3.02e+01	58	39	0	778567680	48	6170
2026-01-04 03:24:49.66	294.59	27.48	-36.4	-37.6	29.9	3.02e+01	60	39	0	780664832	48	5798
2026-01-04 03:24:50.67	294.93	27.39	-36.5	-37.7	29.8	3.02e+01	59	39	0	782237696	48	5896
2026-01-04 03:24:51.68	295.26	27.30	-36.4	-37.5	29.9	3.02e+01	57	39	0	784334848	48	5790
2026-01-04 03:24:52.69	295.59	27.20	-37.2	-38.4	29.5	3.02e+01	58	39	0	785907712	48	6412
2026-01-04 03:24:53.69	295.92	27.11	-36.4	-37.6	29.8	3.02e+01	60	39	0	788004864	48	5826
2026-01-04 03:24:54.70	296.25	27.01	-36.6	-37.8	30.0	3.02e+01	50	39	0	790102016	48	5936
2026-01-04 03:24:55.71	296.57	26.92	-37.1	-38.3	29.4	3.02e+01	56	39	0	791674880	48	6316
2026-01-04 03:24:56.72	296.90	26.82	-36.4	-37.6	29.9	3.02e+01	60	39	0	793772032	48	5822
2026-01-04 03:24:57.72	297.21	26.72	-36.4	-37.6	29.8	3.02e+01	56	39	0	795344896	48	5811
2026-01-04 03:24:58.73	297.53	26.63	-36.1	-37.2	30.1	3.02e+01	56	39	0	797442048	48	5590
2026-01-04 03:24:59.74	297.85	26.53	-35.9	-37.1	30.2	3.02e+01	50	39	0	799539200	48	5507
2026-01-04 03:25:00.75	298.17	26.43	-36.3	-37.5	30.1	3.02e+01	56	39	0	801112064	46	6443
2026-01-04 03:25:01.76	298.48	26.33	-36.9	-38.1	29.7	3.02e+01	60	39	0	803209216	46	6909
2026-01-04 03:25:02.77	298.79	26.23	-36.6	-37.8	29.9	3.02e+01	44	39	0	805306368	48	5973
2026-01-04 03:25:03.78	299.10	26.13	-36.5	-37.7	29.7	3.02e+01	54	39	0	806879232	48	5882
2026-01-04 03:25:04.79	299.41	26.03	-36.5	-37.7	29.7	3.02e+01	62	39	0	808976384	48	5892
2026-01-04 03:25:05.80	299.71	25.93	-36.7	-37.9	29.6	3.02e+01	61	39	0	810549248	48	6052
2026-01-04 03:25:06.81	300.02	25.83	-36.5	-37.7	29.8	3.02e+01	58	39	0	812646400	48	5866
2026-01-04 03:25:07.82	300.32	25.73	-36.3	-37.5	29.9	3.02e+01	50	39	0	814743552	48	5744
2026-01-04 03:25:08.83	300.62	25.62	-36.2	-37.4	29.9	3.02e+01	59	39	0	816316416	48	5692
2026-01-04 03:25:09.84	300.92	25.52	-36.3	-37.4	30.0	3.02e+01	59	39	0	818413568	48	5722
2026-01-04 03:25:10.85	301.21	25.42	-36.4	-37.7	29.8	3.02e+01	55	39	0	819986432	48	5868
2026-01-04 03:25:11.86	301.51	25.31	-36.6	-37.8	29.7	3.02e+01	57	39	0	822083584	48	5965
2026-01-04 03:25:12.87	301.80	25.21	-36.5	-37.7	29.7	3.02e+01	45	39	0	824180736	48	5907
2026-01-04 03:25:13.88	302.09	25.11	-36.3	-37.5	29.8	3.02e+01	62	39	0	825753600	48	5779
2026-01-04 03:25:14.89	302.38	25.00	-36.2	-37.4	29.8	3.02e+01	57	39	0	827850752	48	5696
2026-01-04 03:25:15.90	302.66	24.90	-36.5	-37.7	29.7	3.02e+01	54	39	0	829947904	48	5890
2026-01-04 03:25:16.91	302.94	24.79	-36.9	-38.2	29.2	3.02e+01	58	39	0	831520768	48	6247
2026-01-04 03:25:17.92	303.23	24.69	-36.5	-37.7	29.5	3.02e+01	62	39	0	833617920	48	5881
2026-01-04 03:25:18.93	303.51	24.58	-36.3	-37.5	29.8	3.02e+01	59	39	0	835190784	48	5735
2026-01-04 03:25:19.94	303.79	24.48	-36.1	-37.4	29.9	3.02e+01	59	39	0	837287936	48	5660
2026-01-04 03:25:20.95	304.06	24.37	-36.3	-37.5	29.9	3.02e+01	45	39	0	839385088	48	5736
2026-01-04 03:25:21.96	304.34	24.27	-36.5	-37.8	29.7	3.02e+01	58	39	0	840957952	48	5945
2026-01-04 03:25:22.97	304.61	24.16	-36.9	-38.1	29.5	3.02e+01	60	39	0	843055104	48	6186
2026-01-04 03:25:23.98	304.88	24.05	-36.7	-37.9	29.7	3.02e+01	45	39	0	844627968	48	6012
2026-01-04 03:25:24.99	305.15	23.95	-36.6	-37.8	29.7	3.02e+01	56	39	0	846725120	48	5987
2026-01-04 03:25:26.00	305.41	23.84	-36.9	-38.1	29.5	3.02e+01	57	39	0	848822272	48	6202
2026-01-04 03:25:27.01	305.68	23.74	-36.8	-38.0	29.9	3.02e+01	59	39	0	850395136	48	6065
2026-01-04 03:25:28.02	305.94	23.63	-37.6	-38.9	29.2	3.02e+01	59	39	0	852492288	48	6734
2026-01-04 03:25:29.03	306.20	23.52	-36.9	-38.1	29.7	3.02e+01	52	39	0	854065152	48	6199
2026-01-04 03:25:30.04	306.46	23.42	-37.7	-39.0	29.0	3.02e+01	59	39	0	856162304	48	6833
2026-01-04 03:25:31.05	306.72	23.31	-37.7	-39.0	29.4	3.02e+01	60	39	0	858259456	50	6069
2026-01-04 03:25:32.06	306.98	23.20	-37.3	-38.6	29.3	3.02e+01	49	39	0	859832320	50	5793
2026-01-04 03:25:33.07	307.23	23.09	-36.9	-38.1	29.5	3.02e+01	58	39	0	861929472	48	6185
2026-01-04 03:25:34.08	307.48	22.99	-37.7	-38.9	29.1	3.02e+01	60	39	0	863502336	48	6763
2026-01-04 03:25:35.09	307.73	22.88	-37.2	-38.4	29.7	3.02e+01	60	39	0	865599488	48	6352
2026-01-04 03:25:36.10	307.98	22.77	-37.9	-39.1	29.5	3.02e+01	54	39	0	867696640	50	6175
2026-01-04 03:25:37.11	308.23	22.67	-37.7	-39.0	29.8	3.02e+01	46	39	0	869269504	50	6069
2026-01-04 03:25:38.12	308.47	22.56	-37.4	-38.6	29.2	3.02e+01	58	39	0	871366656	50	5803
2026-01-04 03:25:39.13	308.72	22.45	-38.3	-39.5	29.5	3.02e+01	58	39	0	873463808	50	6485
2026-01-04 03:25:40.14	308.96	22.34	-37.2	-38.4	30.0	3.02e+01	53	39	0	875036672	50	5702
2026-01-04 03:25:41.15	309.20	22.24	-38.3	-39.6	29.8	3.02e+01	59	39	0	877133824	50	6501
2026-01-04 03:25:42.16	309.44	22.13	-37.9	-39.2	29.8	3.02e+01	51	40	0	878706688	50	6206
2026-01-04 03:25:43.17	309.67	22.02	-37.3	-38.5	29.8	3.02e+01	58	39	0	880803840	50	5744
2026-01-04 03:25:44.17	309.91	21.91	-37.5	-38.7	29.8	3.02e+01	60	39	0	882900992	50	5867
2026-01-04 03:25:45.18	310.14	21.81	-37.7	-38.9	29.6	3.02e+01	52	39	0	884473856	50	6051
2026-01-04 03:25:46.19	310.37	21.70	-37.5	-38.7	29.7	3.02e+01	61	39	0	886571008	50	5891
2026-01-04 03:25:47.20	310.60	21.59	-37.5	-38.7	29.5	3.02e+01	59	39	0	888143872	50	5924
2026-01-04 03:25:48.21	310.83	21.49	-37.7	-38.8	29.7	3.02e+01	57	39	0	890241024	50	5990
2026-01-04 03:25:49.22	311.06	21.38	-37.5	-38.7	29.9	3.02e+01	56	39	0	892338176	50	5895
2026-01-04 03:25:50.23	311.28	21.27	-37.3	-38.5	29.9	3.02e+01	56	39	0	893911040	48	6433
2026-01-04 03:25:51.24	311.51	21.17	-37.2	-38.4	29.7	3.02e+01	59	39	0	896008192	48	6389
2026-01-04 03:25:52.25	311.73	21.06	-37.7	-38.9	29.5	3.02e+01	57	39	0	898105344	48	6737
2026-01-04 03:25:53.26	311.95	20.95	-37.5	-38.7	29.7	3.02e+01	45	39	0	899678208	50	5906
2026-01-04 03:25:54.27	312.17	20.85	-37.4	-38.6	29.7	3.02e+01	61	39	0	901775360	50	5850
2026-01-04 03:25:55.28	312.38	20.74	-36.8	-38.0	29.8	3.02e+01	59	39	0	903348224	48	6087
2026-01-04 03:25:56.29	312.60	20.63	-37.0	-38.2	29.7	3.02e+01	57	39	0	905445376	48	6228
2026-01-04 03:25:57.30	312.81	20.53	-37.8	-39.0	29.4	3.02e+01	58	39	0	907542528	48	6877
2026-01-04 03:25:58.31	313.03	20.42	-37.2	-38.4	29.8	3.02e+01	62	39	0	909115392	48	6405
2026-01-04 03:25:59.32	313.24	20.31	-37.5	-38.6	29.8	3.02e+01	59	39	0	911212544	48	6571
2026-01-04 03:26:00.33	313.45	20.21	-37.5	-38.7	29.9	3.02e+01	58	39	0	912785408	48	6581
2026-01-04 03:26:01.34	313.66	20.10	-37.1	-38.3	29.8	3.02e+01	47	39	0	914882560	48	6327
2026-01-04 03:26:02.35	313.86	20.00	-37.1	-38.3	29.8	3.02e+01	58	39	0	916979712	48	6292
2026-01-04 03:26:03.36	314.07	19.89	-36.7	-37.9	29.8	3.02e+01	60	39	0	918552576	48	6016
2026-01-04 03:26:04.36	314.27	19.79	-36.8	-38.0	29.6	3.02e+01	64	39	0	920649728	48	6077
2026-01-04 03:26:05.38	314.47	19.68	-37.7	-39.0	29.4	3.02e+01	59	39	0	922222592	48	6807
2026-01-04 03:26:06.38	314.67	19.58	-37.7	-38.9	29.7	3.02e+01	59	39	0	924319744	50	6057
2026-01-04 03:26:07.39	314.87	19.47	-37.2	-38.4	29.5	3.02e+01	61	39	0	926416896	50	5706
2026-01-04 03:26:08.40	315.07	19.37	-36.5	-37.7	30.0	3.02e+01	61	39	0	927989760	48	5926
2026-01-04 03:26:09.41	315.27	19.26	-36.6	-37.8	29.9	3.02e+01	46	39	0	930086912	48	5958
2026-01-04 03:26:10.42	315.46	19.16	-36.2	-37.4	30.0	3.02e+01	57	39	0	931659776	48	5695
2026-01-04 03:26:11.43	315.66	19.05	-36.2	-37.4	30.0	3.02e+01	59	39	0	933756928	48	5692
2026-01-04 03:26:12.44	315.85	18.95	-36.2	-37.4	30.0	3.02e+01	61	39	0	935854080	48	5666
2026-01-04 03:26:13.45	316.04	18.85	-36.3	-37.5	29.9	3.02e+01	57	39	0	937426944	48	5727
2026-01-04 03:26:14.46	316.23	18.74	-36.2	-37.4	29.9	3.02e+01	48	39	0	939524096	48	5716
2026-01-04 03:26:15.47	316.42	18.64	-36.1	-37.3	29.8	3.02e+01	62	39	0	941621248	48	5644
2026-01-04 03:26:16.48	316.61	18.54	-35.9	-37.1	29.9	3.02e+01	60	39	0	943194112	48	5507
2026-01-04 03:26:17.49	316.79	18.43	-36.2	-37.4	29.7	3.02e+01	39	39	0	945291264	46	6386
2026-01-04 03:26:18.50	316.98	18.33	-36.1	-37.2	29.9	3.02e+01	61	39	0	946864128	46	6272
2026-01-04 03:26:19.51	317.16	18.23	-35.9	-37.1	30.0	3.02e+01	52	39	0	948961280	46	6160
2026-01-04 03:26:20.52	317.34	18.12	-36.0	-37.2	30.0	3.02e+01	61	39	0	951058432	46	6240
2026-01-04 03:26:21.53	317.52	18.02	-36.0	-37.2	29.9	3.02e+01	60	39	0	952631296	46	6255
2026-01-04 03:26:22.54	317.70	17.92	-36.1	-37.3	29.9	3.02e+01	51	39	0	954728448	46	6309
2026-01-04 03:26:23.55	317.88	17.82	-36.1	-37.2	30.0	3.02e+01	60	40	0	956301312	46	6277
2026-01-04 03:26:24.56	318.06	17.72	-36.2	-37.4	29.7	3.02e+01	59	39	0	958398464	46	6361
2026-01-04 03:26:25.57	318.24	17.61	-36.3	-37.6	29.6	3.02e+01	58	40	0	960495616	46	6509
2026-01-04 03:26:26.58	318.41	17.51	-36.6	-37.8	29.4	3.02e+01	61	39	0	962068480	46	6673
2026-01-04 03:26:27.59	318.58	17.41	-36.7	-37.9	29.4	3.02e+01	50	39	0	964165632	46	6734
2026-01-04 03:26:28.59	318.75	17.31	-36.8	-38.0	29.3	3.02e+01	61	39	0	966262784	48	6112
2026-01-04 03:26:29.60	318.93	17.21	-37.1	-38.3	29.2	3.02e+01	57	39	0	967835648	48	6314
2026-01-04 03:26:30.61	319.10	17.11	-37.5	-38.7	29.5	3.02e+01	48	40	0	969932800	48	6593
2026-01-04 03:26:31.62	319.26	17.01	-36.5	-37.6	29.7	3.02e+01	60	40	0	971505664	48	5857
2026-01-04 03:26:32.63	319.43	16.91	-36.4	-37.6	29.9	3.02e+01	61	40	0	973602816	48	5830
2026-01-04 03:26:33.64	319.60	16.81	-36.2	-37.4	30.0	3.02e+01	59	40	0	975175680	48	5692
2026-01-04 03:26:34.65	319.76	16.71	-36.3	-37.4	29.9	3.02e+01	57	39	0	977272832	48	5724
2026-01-04 03:26:35.66	319.93	16.61	-36.1	-37.3	30.0	3.02e+01	57	39	0	979369984	48	5623
2026-01-04 03:26:36.66	320.09	16.52	-36.7	-37.9	29.7	3.02e+01	58	40	0	980942848	48	5999
2026-01-04 03:26:37.68	320.25	16.42	-36.7	-37.9	29.9	3.02e+01	60	40	0	983040000	48	6028
2026-01-04 03:26:38.69	320.41	16.32	-36.7	-37.9	29.8	3.02e+01	51	40	0	984612864	48	6027
2026-01-04 03:26:39.69	320.57	16.22	-36.6	-37.8	29.9	3.02e+01	59	39	0	986710016	48	5956
2026-01-04 03:26:40.70	320.73	16.12	-36.7	-37.9	29.7	3.02e+01	58	39	0	988807168	48	6033
2026-01-04 03:26:41.71	320.89	16.03	-36.4	-37.6	29.8	3.02e+01	60	39	0	990380032	48	5803
2026-01-04 03:26:42.72	321.05	15.93	-36.7	-37.9	29.7	3.02e+01	60	40	0	992477184	48	6062
2026-01-04 03:26:43.73	321.20	15.83	-36.7	-37.9	29.7	3.02e+01	51	39	0	994574336	48	6042
2026-01-04 03:26:44.74	321.36	15.73	-36.8	-38.0	29.7	3.02e+01	59	39	0	996147200	48	6098
2026-01-04 03:26:45.75	321.51	15.64	-36.7	-37.9	29.6	3.02e+01	62	40	0	998244352	48	6017
2026-01-04 03:26:46.76	321.66	15.54	-36.5	-37.7	29.8	3.02e+01	44	39	0	999817216	48	5903
2026-01-04 03:26:47.77	321.81	15.44	-36.4	-37.6	29.7	3.02e+01	58	39	0	1001914368	48	5795
2026-01-04 03:26:48.78	321.96	15.35	-36.5	-37.7	29.7	3.02e+01	61	39	0	1004011520	48	5890
2026-01-04 03:26:49.79	322.11	15.25	-36.5	-37.7	29.7	3.02e+01	60	39	0	1005584384	48	5905
2026-01-04 03:26:50.80	322.26	15.16	-36.5	-37.7	29.6	3.02e+01	59	40	0	1007681536	48	5910
2026-01-04 03:26:51.81	322.41	15.06	-37.0	-38.2	29.4	3.02e+01	55	40	0	1009778688	48	6209
2026-01-04 03:26:52.81	322.55	14.97	-37.0	-38.1	29.7	3.02e+01	57	39	0	1011351552	48	6202
2026-01-04 03:26:53.82	322.70	14.87	-36.8	-37.9	29.8	3.02e+01	57	39	0	1013448704	48	6060
2026-01-04 03:26:54.83	322.85	14.78	-36.8	-38.0	29.6	3.02e+01	44	39	0	1015021568	48	6123
2026-01-04 03:26:55.84	322.99	14.68	-36.8	-38.0	29.4	3.02e+01	54	39	0	1017118720	48	6128
2026-01-04 03:26:56.85	323.13	14.59	-36.5	-37.8	29.3	3.02e+01	61	39	0	1019215872	48	5927
2026-01-04 03:26:57.86	323.27	14.50	-36.7	-38.0	29.2	3.02e+01	61	39	0	1020788736	48	6068
2026-01-04 03:26:58.87	323.41	14.40	-36.7	-37.9	29.2	3.02e+01	60	39	0	1022885888	48	6024
2026-01-04 03:26:59.88	323.55	14.31	-36.8	-38.0	29.5	3.02e+01	53	40	0	1024458752	48	6121
2026-01-04 03:27:00.89	323.69	14.22	-36.8	-38.0	29.5	3.02e+01	63	40	0	1026555904	48	6103
2026-01-04 03:27:01.90	323.83	14.12	-37.3	-38.6	28.9	3.02e+01	61	40	0	1028653056	48	6500
2026-01-04 03:27:02.91	323.97	14.03	-37.2	-38.4	29.4	3.02e+01	56	39	0	1030225920	48	6420
2026-01-04 03:27:03.92	324.11	13.94	-36.9	-38.1	29.3	3.02e+01	59	39	0	1032323072	48	6177
2026-01-04 03:27:04.92	324.24	13.85	-37.0	-38.2	29.3	3.02e+01	46	39	0	1033895936	48	6254
2026-01-04 03:27:05.93	324.37	13.76	-36.8	-38.0	29.4	3.02e+01	61	39	0	1035993088	48	6080
2026-01-04 03:27:06.94	324.51	13.66	-37.1	-38.3	29.2	3.02e+01	59	40	0	1038090240	48	6321
2026-01-04 03:27:07.95	324.64	13.57	-36.7	-37.9	29.4	3.02e+01	44	40	0	1039663104	48	6004
2026-01-04 03:27:08.96	324.77	13.48	-36.3	-37.5	29.6	3.02e+01	58	39	0	1041760256	48	5729
2026-01-04 03:27:09.97	324.91	13.39	-36.3	-37.5	29.6	3.02e+01	60	39	0	1043333120	48	5762
2026-01-04 03:27:10.98	325.04	13.30	-36.7	-37.9	29.4	3.02e+01	57	39	0	1045430272	48	6005
2026-01-04 03:27:11.99	325.17	13.21	-36.6	-37.8	29.4	3.02e+01	60	39	0	1047527424	48	5961
2026-01-04 03:27:13.00	325.29	13.12	-36.6	-37.8	29.4	3.02e+01	59	40	0	1049100288	48	5992
2026-01-04 03:27:14.01	325.42	13.03	-36.5	-37.8	29.4	3.02e+01	59	39	0	1051197440	48	5931
2026-01-04 03:27:15.02	325.55	12.94	-36.5	-37.8	29.3	3.02e+01	55	39	0	1052770304	48	5928
2026-01-04 03:27:16.03	325.68	12.85	-36.5	-37.7	29.3	3.02e+01	46	39	0	1054867456	48	5902
2026-01-04 03:27:17.04	325.80	12.76	-36.5	-37.7	29.3	3.02e+01	58	39	0	1056964608	48	5888
2026-01-04 03:27:18.04	325.93	12.68	-36.5	-37.7	29.2	3.02e+01	56	39	0	1058537472	48	5894
2026-01-04 03:27:19.05	326.05	12.59	-36.4	-37.6	29.2	3.02e+01	65	39	0	1060634624	48	5855
2026-01-04 03:27:20.06	326.17	12.50	-36.4	-37.6	29.2	3.02e+01	61	39	0	1062731776	48	5831
2026-01-04 03:27:21.07	326.30	12.41	-36.5	-37.7	29.2	3.02e+01	61	39	0	1064304640	48	5919
2026-01-04 03:27:22.08	326.42	12.32	-36.7	-37.9	29.2	3.02e+01	59	39	0	1066401792	48	6025
2026-01-04 03:27:23.09	326.54	12.24	-36.6	-37.8	29.2	3.02e+01	60	39	0	1067974656	48	5993
2026-01-04 03:27:24.10	326.66	12.15	-36.8	-38.1	29.0	3.02e+01	48	39	0	1070071808	48	6138
2026-01-04 03:27:25.11	326.78	12.06	-37.0	-38.2	29.1	3.02e+01	60	39	0	1072168960	48	6218
2026-01-04 03:27:26.12	326.90	11.97	-36.8	-38.0	29.3	3.02e+01	61	39	0	1073741824	48	6096
2026-01-04 03:27:27.13	327.02	11.89	-36.9	-38.1	29.1	3.02e+01	64	39	0	1075838976	48	6188
2026-01-04 03:27:28.14	327.13	11.80	-36.8	-38.0	29.0	3.02e+01	60	39	0	1077411840	48	6109
2026-01-04 03:27:29.15	327.25	11.71	-36.9	-38.1	29.1	3.02e+01	50	39	0	1079508992	48	6159
2026-01-04 03:27:30.16	327.37	11.63	-36.9	-38.2	29.1	3.02e+01	60	39	0	1081606144	48	6213
2026-01-04 03:27:31.17	327.48	11.54	-36.9	-38.1	29.0	3.02e+01	59	39	0	1083179008	48	6191
2026-01-04 03:27:32.18	327.60	11.46	-37.0	-38.3	29.0	3.02e+01	44	39	0	1085276160	48	6278
2026-01-04 03:27:33.19	327.71	11.37	-37.2	-38.4	29.0	3.02e+01	60	39	0	1086849024	48	6378
2026-01-04 03:27:34.20	327.82	11.29	-37.2	-38.4	29.1	3.02e+01	55	39	0	1088946176	48	6395
2026-01-04 03:27:35.21	327.94	11.20	-37.2	-38.4	28.9	3.02e+01	58	39	0	1091043328	48	6422
2026-01-04 03:27:36.22	328.05	11.12	-37.5	-38.7	29.0	3.02e+01	61	39	0	1092616192	48	6599
2026-01-04 03:27:37.22	328.16	11.04	-37.4	-38.6	28.7	3.02e+01	49	39	0	1094713344	48	6567
2026-01-04 03:27:38.23	328.27	10.95	-37.7	-39.0	28.7	3.02e+01	60	39	0	1096286208	48	6823
2026-01-04 03:27:39.24	328.38	10.87	-37.4	-38.6	28.4	3.02e+01	59	39	0	1098383360	48	6542
2026-01-04 03:27:40.25	328.49	10.78	-37.2	-38.4	28.6	3.02e+01	61	39	0	1100480512	48	6387
2026-01-04 03:27:41.26	328.60	10.70	-37.0	-38.3	28.8	3.02e+01	60	39	0	1102053376	48	6289
2026-01-04 03:27:42.27	328.71	10.62	-37.3	-38.6	28.5	3.02e+01	44	39	0	1104150528	48	6514
2026-01-04 03:27:43.28	328.81	10.54	-37.3	-38.6	28.6	3.02e+01	58	39	0	1105723392	48	6505
2026-01-04 03:27:44.29	328.92	10.45	-37.7	-39.0	28.2	3.02e+01	59	39	0	1107820544	48	6851
2026-01-04 03:27:45.30	329.03	10.37	-37.6	-38.9	28.4	3.02e+01	44	39	0	1109917696	48	6743
2026-01-04 03:27:46.31	329.13	10.29	-37.6	-38.8	28.3	3.02e+01	60	39	0	1111490560	48	6716
2026-01-04 03:27:47.33	329.24	10.21	-37.9	-39.2	28.2	3.02e+01	58	39	0	1113587712	50	6207
2026-01-04 03:27:48.33	329.34	10.12	-38.4	-39.7	28.0	3.02e+01	60	39	0	1115684864	50	6600
2026-01-04 03:27:49.34	329.45	10.04	-38.1	-39.4	28.0	3.02e+01	57	39	0	1117257728	50	6419
2026-01-04 03:27:50.36	329.55	9.96	-37.7	-38.9	28.3	3.02e+01	58	39	0	1119354880	50	6063
2026-01-04 03:27:51.36	329.65	9.88	-37.7	-39.0	28.3	3.02e+01	57	39	0	1120927744	50	6116
2026-01-04 03:27:52.38	329.75	9.80	-37.7	-39.0	28.4	3.02e+01	61	39	0	1123024896	50	6097
2026-01-04 03:27:53.38	329.85	9.72	-37.7	-38.9	28.4	3.02e+01	52	39	0	1125122048	50	6063
2026-01-04 03:27:54.40	329.96	9.64	-37.7	-39.0	28.2	3.02e+01	61	39	0	1126694912	50	6083
2026-01-04 03:27:55.40	330.06	9.56	-37.8	-47.7	3.5	3.02e+01	0	39	104	1128267776	50	16608
2026-01-04 03:27:56.41	330.16	9.48	-38.1	-48.3	3.5	3.02e+01	0	39	104	1128267776	50	17706
2026-01-04 03:27:57.42	330.25	9.40	-38.0	-48.2	3.6	3.02e+01	0	39	104	1128267776	50	17613
2026-01-04 03:27:58.43	330.35	9.32	-38.2	-48.3	3.6	3.02e+01	0	39	104	1128267776	50	17877
2026-01-04 03:27:59.44	330.45	9.24	-38.8	-49.1	3.6	3.02e+01	0	39	104	1128267776	50	19418
2026-01-04 03:28:00.45	330.55	9.16	-38.2	-48.3	3.6	3.02e+01	0	39	104	1128267776	54	14212
2026-01-04 03:28:01.46	330.65	9.08	-48.6	-63.8	3.5	3.02e+01	0	39	104	1128267776	60	59292
2026-01-04 03:28:02.47	330.74	9.00	-41.7	-52.3	3.4	3.02e+01	0	39	104	1128267776	60	15858
2026-01-04 03:28:03.48	330.84	8.93	-40.7	-51.1	3.5	3.02e+01	0	39	104	1128267776	58	15534
2026-01-04 03:28:04.49	330.93	8.85	-39.0	-49.2	3.6	3.02e+01	0	39	104	1128267776	52	17598
2026-01-04 03:28:05.50	331.03	8.77	-38.8	-49.0	3.6	3.02e+01	0	39	104	1128267776	52	17191
2026-01-04 03:28:06.51	331.12	8.69	-38.8	-48.9	4.1	3.02e+01	0	39	104	1128267776	52	16977
2026-01-04 03:28:07.52	331.22	8.61	-38.2	-48.3	3.4	3.02e+01	0	39	104	1128267776	52	15917
2026-01-04 03:28:08.53	331.31	8.54	-38.2	-48.3	4.1	3.02e+01	0	39	104	1128267776	52	15921
2026-01-04 03:28:09.54	331.40	8.46	-39.2	-49.3	4.1	3.02e+01	0	39	104	1128267776	54	15893
2026-01-04 03:28:10.55	331.50	8.38	-49.6	-65.6	3.5	3.02e+01	0	39	104	1128267776	60	73222
2026-01-04 03:28:11.56	331.59	8.31	-44.7	-55.7	3.5	3.02e+01	0	39	104	1128267776	60	23324
2026-01-04 03:28:12.57	331.68	8.23	-42.0	-52.5	3.5	3.02e+01	0	39	104	1128267776	60	16245
2026-01-04 03:28:13.58	331.77	8.15	-41.9	-52.3	3.5	3.02e+01	0	39	104	1128267776	58	17826
2026-01-04 03:28:14.58	331.86	8.08	-41.7	-52.1	3.5	3.02e+01	0	39	104	1128267776	58	17439
2026-01-04 03:28:15.59	331.95	8.00	-41.0	-51.4	3.5	3.02e+01	0	39	104	1128267776	56	17923
2026-01-04 03:28:16.60	332.04	7.93	-42.4	-53.0	3.5	3.02e+01	0	39	104	1128267776	56	21588
2026-01-04 03:28:17.61	332.13	7.85	-41.7	-52.1	3.5	3.02e+01	0	39	104	1128267776	58	17313
2026-01-04 03:28:18.62	332.22	7.78	-42.3	-52.8	3.8	3.02e+01	0	39	104	1128267776	52	26701
2026-01-04 03:28:19.63	332.30	7.70	-49.6	-64.6	3.5	3.02e+01	0	39	104	1128267776	60	65109
2026-01-04 03:28:20.64	332.39	7.63	-39.2	-49.4	3.5	3.02e+01	0	39	104	1128267776	56	14347
2026-01-04 03:28:21.65	332.48	7.55	-41.4	-51.8	3.5	3.02e+01	0	39	104	1128267776	58	16847
2026-01-04 03:28:22.66	332.56	7.48	-40.5	-50.9	3.5	3.02e+01	0	39	104	1128267776	56	16940
2026-01-04 03:28:23.67	332.65	7.40	-40.7	-51.0	3.6	3.02e+01	0	39	104	1128267776	56	17200
2026-01-04 03:28:24.68	332.74	7.33	-41.0	-51.4	3.5	3.02e+01	0	39	104	1128267776	56	17898
2026-01-04 03:28:25.69	332.82	7.25	-40.7	-51.0	3.5	3.02e+01	0	39	104	1128267776	56	17152
2026-01-04 03:28:26.70	332.91	7.18	-42.0	-52.5	3.5	3.02e+01	0	39	104	1128267776	56	20357
2026-01-04 03:28:27.71	332.99	7.11	-43.7	-54.3	3.5	3.02e+01	0	39	104	1128267776	56	25157
