passes_logs/2026/01/04/R4.6S_Anadyr/R4.6S_Anadyr__20260104_035240_FENGYUN_3E_rec.log

#Pass ID: 20260104_035240_FENGYUN 3E
#Satellite: FENGYUN 3E
#Configuration: FENGYUN 3E
#almurnet v.1.7.20251203
#Start time: 2026-01-04 03:52:41

#Version: 2.2.20231116
#Station: R4.6S_Anadyr
#Location: 177.4865 lon 64.73178 lat
#TLE: 1 49008U 21062A   26003.51942929 -.00000034  00000+0  45519-5 0  9990
#TLE: 2 49008  98.7472   8.7829 0001426 160.7926 199.3304 14.19883272233213

#Time	Az	El	Level	Level2	SNR	BER	BlckErr	Temp	State	Recorded	gain1	gain2
2026-01-04 03:52:41.71	140.99	0.08	-50.8	-68.6	3.5	3.02e+01	0	37	0	0	60	103435
2026-01-04 03:52:42.72	140.97	0.14	-50.9	-62.2	3.6	8.44e-01	0	38	104	0	60	46322
2026-01-04 03:52:43.73	140.96	0.20	-50.6	-61.9	3.6	8.45e-01	0	38	104	0	60	45173
2026-01-04 03:52:44.74	140.94	0.26	-50.4	-61.6	3.6	8.45e-01	0	38	104	0	60	43546
2026-01-04 03:52:45.75	140.93	0.32	-50.3	-61.5	3.6	8.46e-01	0	38	104	0	60	42902
2026-01-04 03:52:46.76	140.92	0.39	-50.9	-62.2	3.6	8.44e-01	0	38	104	0	60	46502
2026-01-04 03:52:47.77	140.90	0.45	-50.7	-61.9	3.6	8.45e-01	0	38	104	0	60	44909
2026-01-04 03:52:48.78	140.89	0.51	-50.4	-61.6	3.6	8.45e-01	0	38	104	0	60	43441
2026-01-04 03:52:49.79	140.87	0.57	-50.1	-61.2	3.6	8.46e-01	0	38	104	0	60	41727
2026-01-04 03:52:50.80	140.86	0.63	-49.8	-61.1	3.6	8.46e-01	0	38	104	0	60	41110
2026-01-04 03:52:51.81	140.84	0.69	-49.9	-61.1	3.6	8.46e-01	0	38	104	0	60	41161
2026-01-04 03:52:52.82	140.83	0.75	-50.0	-61.4	3.6	8.44e-01	0	38	104	0	60	42229
2026-01-04 03:52:53.83	140.81	0.82	-49.9	-61.2	3.6	8.46e-01	0	38	104	0	60	41593
2026-01-04 03:52:54.84	140.80	0.88	-48.6	-60.3	3.6	8.46e-01	0	38	104	0	60	37324
2026-01-04 03:52:55.85	140.78	0.94	-48.6	-59.9	3.6	8.46e-01	0	38	104	0	60	35730
2026-01-04 03:52:56.86	140.77	1.00	-47.1	-59.0	3.6	8.46e-01	0	38	104	0	60	32219
2026-01-04 03:52:57.87	140.75	1.06	-47.3	-58.7	3.6	8.45e-01	0	38	104	0	60	30948
2026-01-04 03:52:58.88	140.74	1.13	-47.3	-58.4	3.6	8.44e-01	0	38	104	0	60	30033
2026-01-04 03:52:59.89	140.72	1.19	-47.3	-58.4	3.6	8.45e-01	0	38	104	0	60	30080
2026-01-04 03:53:00.90	140.71	1.25	-47.3	-58.3	3.6	8.46e-01	0	38	104	0	60	29887
2026-01-04 03:53:01.91	140.69	1.32	-47.3	-58.3	3.6	8.47e-01	0	38	104	0	60	29611
2026-01-04 03:53:02.92	140.68	1.38	-47.5	-58.5	3.6	8.44e-01	0	38	104	0	60	30508
2026-01-04 03:53:03.93	140.66	1.44	-47.4	-58.7	3.6	8.45e-01	0	38	104	0	60	31103
2026-01-04 03:53:04.94	140.65	1.50	-46.9	-58.7	3.6	8.44e-01	0	38	104	0	60	31282
2026-01-04 03:53:05.95	140.63	1.57	-47.1	-58.6	3.6	8.46e-01	0	38	104	0	60	30911
2026-01-04 03:53:06.95	140.61	1.63	-47.0	-58.6	3.5	8.46e-01	0	38	104	0	60	30858
2026-01-04 03:53:07.96	140.60	1.69	-46.7	-58.8	3.6	8.45e-01	0	39	104	0	60	31328
2026-01-04 03:53:08.97	140.58	1.76	-47.3	-58.5	3.6	8.45e-01	0	38	104	0	60	30412
2026-01-04 03:53:09.98	140.57	1.82	-47.0	-57.0	3.6	8.45e-01	0	39	104	0	60	25505
2026-01-04 03:53:10.99	140.55	1.89	-47.3	-58.0	3.6	8.45e-01	0	39	104	0	60	28772
2026-01-04 03:53:12.00	140.53	1.95	-47.3	-58.4	3.6	8.44e-01	0	39	104	0	60	29925
2026-01-04 03:53:13.01	140.52	2.02	-47.2	-58.2	3.6	8.45e-01	0	39	104	0	60	29335
2026-01-04 03:53:14.02	140.50	2.08	-47.1	-58.3	3.6	8.45e-01	0	39	104	0	60	29661
2026-01-04 03:53:15.03	140.49	2.14	-47.0	-58.1	3.6	8.46e-01	0	39	104	0	60	29033
2026-01-04 03:53:16.04	140.47	2.21	-46.5	-58.2	3.6	8.45e-01	0	39	104	0	60	29474
2026-01-04 03:53:17.05	140.45	2.27	-47.0	-58.5	3.6	8.46e-01	0	38	104	0	60	30287
2026-01-04 03:53:18.06	140.44	2.34	-47.4	-58.5	3.5	8.45e-01	0	39	104	0	60	30407
2026-01-04 03:53:19.07	140.42	2.40	-47.3	-58.4	3.6	8.46e-01	0	39	104	0	60	30075
2026-01-04 03:53:20.08	140.40	2.47	-47.3	-58.4	3.6	8.46e-01	0	39	104	0	60	29992
2026-01-04 03:53:21.09	140.38	2.54	-47.2	-58.3	3.6	8.46e-01	0	39	104	0	60	29598
2026-01-04 03:53:22.10	140.37	2.60	-47.2	-58.3	3.6	8.45e-01	0	39	104	0	60	29556
2026-01-04 03:53:23.11	140.35	2.67	-47.2	-58.3	3.6	8.44e-01	0	39	104	0	60	29560
2026-01-04 03:53:24.12	140.33	2.73	-47.3	-58.4	3.6	8.46e-01	0	39	104	0	60	30023
2026-01-04 03:53:25.13	140.32	2.80	-47.3	-58.6	3.6	8.46e-01	0	39	104	0	60	30595
2026-01-04 03:53:26.14	140.30	2.87	-47.3	-58.4	3.6	8.46e-01	0	39	104	0	60	30094
2026-01-04 03:53:27.15	140.28	2.93	-47.3	-58.2	3.6	8.46e-01	0	39	104	0	60	29431
2026-01-04 03:53:28.16	140.26	3.00	-47.4	-57.9	3.6	8.46e-01	0	39	104	0	60	28269
2026-01-04 03:53:29.16	140.25	3.07	-46.9	-55.7	3.6	8.45e-01	0	39	104	0	60	22153
2026-01-04 03:53:30.17	140.23	3.13	-47.1	-54.8	4.1	8.40e-01	0	39	104	0	60	19809
2026-01-04 03:53:31.18	140.21	3.20	-47.1	-53.3	4.5	8.13e-01	0	39	0	0	60	16675
2026-01-04 03:53:32.19	140.19	3.27	-46.6	-51.4	5.9	5.28e-01	0	39	0	1048576	60	13355
2026-01-04 03:53:33.20	140.17	3.33	-46.0	-49.9	8.3	1.10e-01	0	39	0	8388608	60	11264
2026-01-04 03:53:34.21	140.16	3.40	-45.7	-49.2	8.8	4.14e-02	0	39	0	15728640	60	10367
2026-01-04 03:53:35.22	140.14	3.47	-45.2	-48.5	9.3	1.65e-02	0	39	0	23068672	60	9564
2026-01-04 03:53:36.23	140.12	3.54	-44.4	-47.0	10.9	3.33e-03	0	39	0	30408704	60	8074
2026-01-04 03:53:37.24	140.10	3.61	-43.4	-45.5	12.1	4.84e-04	0	39	0	37748736	60	6840
2026-01-04 03:53:38.25	140.08	3.67	-43.6	-45.8	11.8	5.24e-04	0	39	0	45088768	60	7048
2026-01-04 03:53:39.26	140.06	3.74	-43.4	-45.4	11.2	1.26e-04	0	39	0	52428800	60	6762
2026-01-04 03:53:40.27	140.04	3.81	-48.2	-59.1	3.6	8.44e-01	0	39	104	53477376	60	32678
2026-01-04 03:53:41.28	140.03	3.88	-42.0	-43.8	13.7	4.69e-05	0	39	104	53477376	58	6252
2026-01-04 03:53:42.29	140.01	3.95	-44.9	-47.6	10.9	2.48e-01	0	39	0	59768832	60	8627
2026-01-04 03:53:43.30	139.99	4.02	-44.8	-47.3	11.4	4.57e-01	0	39	0	63963136	60	8390
2026-01-04 03:53:44.31	139.97	4.09	-46.4	-50.7	6.4	8.05e-01	0	39	0	69206016	60	12429
2026-01-04 03:53:45.32	139.95	4.16	-42.2	-44.0	13.5	3.40e-06	0	39	0	76546048	58	6417
2026-01-04 03:53:46.33	139.93	4.23	-41.7	-43.3	14.7	0.00e+00	0	39	0	83886080	56	6671
2026-01-04 03:53:47.34	139.91	4.30	-41.2	-42.7	15.2	0.00e+00	0	39	0	91226112	56	6211
2026-01-04 03:53:48.35	139.89	4.37	-41.6	-43.1	14.6	0.00e+00	0	39	0	98566144	56	6498
2026-01-04 03:53:49.36	139.87	4.44	-41.4	-42.9	15.2	0.00e+00	0	39	0	104857600	56	6326
2026-01-04 03:53:50.37	139.85	4.51	-40.9	-42.3	15.4	0.00e+00	0	39	0	112197632	56	5964
2026-01-04 03:53:51.38	139.83	4.58	-40.9	-42.4	15.4	0.00e+00	0	39	0	120586240	56	5979
2026-01-04 03:53:52.39	139.81	4.65	-40.7	-42.1	15.7	0.00e+00	0	39	0	126877696	56	5801
2026-01-04 03:53:53.40	139.79	4.72	-40.5	-41.8	16.0	0.00e+00	0	39	0	134217728	54	6277
2026-01-04 03:53:54.41	139.77	4.79	-40.6	-41.9	16.0	0.00e+00	0	39	0	141557760	54	6343
2026-01-04 03:53:55.42	139.75	4.86	-40.3	-41.7	16.3	0.00e+00	0	39	0	148897792	54	6188
2026-01-04 03:53:56.42	139.73	4.93	-40.2	-41.4	16.8	0.00e+00	0	39	0	156237824	54	5997
2026-01-04 03:53:57.44	139.71	5.00	-40.1	-41.3	16.7	0.00e+00	0	39	0	163577856	54	5940
2026-01-04 03:53:58.45	139.69	5.08	-40.0	-41.2	16.1	0.00e+00	0	39	0	170917888	54	5833
2026-01-04 03:53:59.45	139.67	5.15	-40.0	-41.2	15.7	0.00e+00	0	39	0	178257920	54	5852
2026-01-04 03:54:00.46	139.65	5.22	-39.9	-41.0	17.1	0.00e+00	0	39	0	185597952	52	6460
2026-01-04 03:54:01.47	139.63	5.29	-39.7	-40.7	17.6	0.00e+00	0	39	0	192937984	52	6241
2026-01-04 03:54:02.48	139.60	5.36	-39.8	-40.9	17.7	0.00e+00	0	39	0	200278016	52	6327
2026-01-04 03:54:03.49	139.58	5.44	-39.6	-40.7	17.7	0.00e+00	0	39	0	207618048	52	6213
2026-01-04 03:54:04.50	139.56	5.51	-39.2	-40.3	18.0	0.00e+00	0	39	0	214958080	52	5906
2026-01-04 03:54:05.51	139.54	5.58	-39.0	-40.1	18.2	0.00e+00	0	39	0	222298112	52	5805
2026-01-04 03:54:06.52	139.52	5.66	-39.0	-40.1	18.2	0.00e+00	0	39	0	229638144	52	5780
2026-01-04 03:54:07.53	139.50	5.73	-38.9	-39.9	18.4	0.00e+00	0	39	0	236978176	52	5672
2026-01-04 03:54:08.54	139.47	5.80	-38.7	-39.7	18.8	0.00e+00	0	39	0	244318208	50	6216
2026-01-04 03:54:09.55	139.45	5.88	-38.6	-39.6	18.9	0.00e+00	0	39	0	251658240	50	6145
2026-01-04 03:54:10.56	139.43	5.95	-38.5	-39.4	19.3	0.00e+00	0	39	0	257949696	52	5351
2026-01-04 03:54:11.57	139.41	6.03	-39.0	-39.9	19.5	0.00e+00	0	39	0	266338304	50	6337
2026-01-04 03:54:12.58	139.39	6.10	-38.7	-39.6	19.5	0.00e+00	0	39	0	273678336	50	6127
2026-01-04 03:54:13.59	139.36	6.18	-38.3	-39.2	19.9	0.00e+00	0	39	0	279969792	50	5896
2026-01-04 03:54:14.60	139.34	6.25	-38.4	-39.3	19.7	0.00e+00	0	39	0	287309824	50	5919
2026-01-04 03:54:15.61	139.32	6.33	-38.2	-39.1	20.4	0.00e+00	0	39	0	294649856	50	5778
2026-01-04 03:54:16.62	139.29	6.40	-38.6	-39.5	20.0	0.00e+00	0	39	0	301989888	50	6054
2026-01-04 03:54:17.63	139.27	6.48	-38.6	-39.5	20.3	0.00e+00	0	39	0	309329920	50	6065
2026-01-04 03:54:18.64	139.25	6.55	-37.9	-38.8	20.7	0.00e+00	0	39	0	316669952	50	5567
2026-01-04 03:54:19.65	139.22	6.63	-37.6	-38.5	20.5	0.00e+00	0	39	0	324009984	48	6063
2026-01-04 03:54:20.66	139.20	6.71	-40.2	-41.3	19.5	0.00e+00	0	39	0	331350016	54	5908
2026-01-04 03:54:21.67	139.18	6.78	-37.6	-38.4	20.7	0.00e+00	0	39	0	338690048	50	5358
2026-01-04 03:54:22.68	139.15	6.86	-37.6	-38.4	21.2	0.00e+00	0	39	0	346030080	48	5972
2026-01-04 03:54:23.69	139.13	6.94	-38.4	-39.2	20.7	0.00e+00	0	39	0	353370112	48	6566
2026-01-04 03:54:24.70	139.11	7.01	-37.6	-38.5	21.0	0.00e+00	0	39	0	360710144	48	6061
2026-01-04 03:54:25.71	139.08	7.09	-37.1	-37.9	20.8	0.00e+00	0	39	0	368050176	48	5646
2026-01-04 03:54:26.72	139.06	7.17	-36.4	-37.1	21.9	0.00e+00	0	39	0	375390208	46	5816
2026-01-04 03:54:27.73	139.03	7.25	-36.3	-37.1	22.1	0.00e+00	0	39	0	382730240	46	5783
2026-01-04 03:54:28.73	139.01	7.32	-36.2	-37.0	22.3	0.00e+00	0	39	0	390070272	46	5710
2026-01-04 03:54:29.74	138.98	7.40	-36.3	-37.1	22.1	0.00e+00	0	39	0	397410304	46	5781
2026-01-04 03:54:30.75	138.96	7.48	-36.0	-36.8	22.5	0.00e+00	0	39	0	403701760	46	5568
2026-01-04 03:54:31.76	138.93	7.56	-35.8	-36.6	22.5	0.00e+00	0	39	0	411041792	46	5460
2026-01-04 03:54:32.76	138.91	7.64	-36.4	-37.1	22.1	0.00e+00	0	39	0	418381824	46	5804
2026-01-04 03:54:33.77	138.88	7.72	-36.0	-36.7	22.5	0.00e+00	0	39	0	425721856	46	5516
2026-01-04 03:54:34.78	138.86	7.80	-35.8	-36.5	22.7	0.00e+00	0	39	0	433061888	44	6085
2026-01-04 03:54:35.79	138.83	7.88	-36.1	-36.8	22.9	0.00e+00	0	39	0	440401920	44	6284
2026-01-04 03:54:36.80	138.81	7.96	-36.1	-36.9	22.4	0.00e+00	0	39	0	447741952	44	6334
2026-01-04 03:54:37.81	138.78	8.04	-36.3	-37.0	22.2	0.00e+00	0	39	0	455081984	44	6447
2026-01-04 03:54:38.81	138.75	8.12	-36.3	-37.0	22.4	0.00e+00	0	39	0	462422016	44	6440
2026-01-04 03:54:39.82	138.73	8.20	-36.4	-37.1	22.3	0.00e+00	0	39	0	469762048	46	5796
2026-01-04 03:54:40.83	138.70	8.28	-36.3	-37.0	22.5	0.00e+00	0	39	0	477102080	46	5756
2026-01-04 03:54:41.84	138.67	8.36	-36.1	-36.9	22.4	0.00e+00	0	39	0	484442112	46	5640
2026-01-04 03:54:42.85	138.65	8.44	-35.5	-36.2	23.4	0.00e+00	0	39	0	491782144	44	5869
2026-01-04 03:54:43.86	138.62	8.52	-35.4	-36.1	23.4	0.00e+00	0	39	0	499122176	44	5763
2026-01-04 03:54:44.87	138.59	8.61	-35.0	-35.7	23.6	0.00e+00	0	39	0	506462208	44	5508
2026-01-04 03:54:45.88	138.57	8.69	-34.7	-35.4	23.8	0.00e+00	0	39	0	513802240	42	5967
2026-01-04 03:54:46.89	138.54	8.77	-34.8	-35.5	23.6	0.00e+00	0	39	0	521142272	42	6058
2026-01-04 03:54:47.90	138.51	8.85	-34.7	-35.4	23.7	0.00e+00	0	39	0	528482304	42	5967
2026-01-04 03:54:48.91	138.48	8.94	-34.8	-35.5	23.6	0.00e+00	0	39	0	534773760	42	6071
2026-01-04 03:54:49.92	138.45	9.02	-34.5	-35.1	24.0	0.00e+00	0	39	0	543162368	42	5823
2026-01-04 03:54:50.94	138.43	9.10	-34.6	-35.2	24.1	0.00e+00	0	39	0	550502400	42	5884
2026-01-04 03:54:51.94	138.40	9.19	-34.8	-35.4	23.9	0.00e+00	0	39	0	556793856	42	6030
2026-01-04 03:54:52.96	138.37	9.27	-34.4	-35.1	24.1	0.00e+00	0	39	0	564133888	42	5781
2026-01-04 03:54:53.96	138.34	9.36	-34.4	-35.0	24.3	0.00e+00	0	39	0	571473920	42	5742
2026-01-04 03:54:54.97	138.31	9.44	-34.7	-35.3	24.1	0.00e+00	0	39	0	578813952	42	5964
2026-01-04 03:54:55.98	138.28	9.53	-34.6	-35.3	24.2	0.00e+00	0	39	0	586153984	42	5915
2026-01-04 03:54:56.99	138.25	9.61	-34.8	-35.5	24.1	0.00e+00	0	39	0	593494016	42	6044
2026-01-04 03:54:58.00	138.22	9.70	-34.6	-35.3	24.0	0.00e+00	0	39	0	600834048	42	5933
2026-01-04 03:54:59.01	138.19	9.78	-34.3	-34.9	24.4	0.00e+00	0	39	0	608174080	42	5683
2026-01-04 03:55:00.02	138.16	9.87	-34.3	-35.0	24.4	0.00e+00	0	39	0	615514112	42	5711
2026-01-04 03:55:01.03	138.13	9.96	-34.2	-34.8	24.4	0.00e+00	0	39	0	622854144	42	5614
2026-01-04 03:55:02.04	138.10	10.04	-34.5	-35.1	24.3	0.00e+00	0	39	0	630194176	42	5818
2026-01-04 03:55:03.04	138.07	10.13	-34.7	-35.4	24.2	0.00e+00	0	39	0	637534208	42	5967
2026-01-04 03:55:04.05	138.04	10.22	-34.2	-34.9	24.5	0.00e+00	0	39	0	644874240	42	5643
2026-01-04 03:55:05.06	138.01	10.30	-34.3	-34.9	24.6	0.00e+00	0	39	0	652214272	42	5684
2026-01-04 03:55:06.07	137.98	10.39	-34.3	-35.0	24.5	0.00e+00	0	39	0	659554304	42	5711
2026-01-04 03:55:07.08	137.95	10.48	-34.5	-35.1	24.4	0.00e+00	0	39	0	666894336	42	5824
2026-01-04 03:55:08.10	137.92	10.57	-34.2	-34.8	24.5	0.00e+00	0	39	0	674234368	42	5628
2026-01-04 03:55:09.10	137.88	10.66	-34.4	-35.0	24.5	0.00e+00	0	39	0	680525824	42	5741
2026-01-04 03:55:10.11	137.85	10.75	-34.4	-35.0	24.5	0.00e+00	0	39	0	687865856	42	5735
2026-01-04 03:55:11.12	137.82	10.84	-34.1	-34.7	24.6	0.00e+00	0	39	0	696254464	42	5535
2026-01-04 03:55:12.13	137.79	10.93	-34.0	-34.6	24.7	0.00e+00	0	39	0	702545920	42	5501
2026-01-04 03:55:13.14	137.75	11.02	-34.1	-34.8	24.6	0.00e+00	0	39	0	709885952	42	5579
2026-01-04 03:55:14.15	137.72	11.11	-34.0	-34.6	24.7	0.00e+00	0	39	0	717225984	42	5487
2026-01-04 03:55:15.16	137.69	11.20	-33.9	-34.6	24.9	0.00e+00	0	39	0	724566016	42	5449
2026-01-04 03:55:16.17	137.66	11.29	-33.9	-34.6	24.9	0.00e+00	0	39	0	731906048	42	5455
2026-01-04 03:55:17.18	137.62	11.38	-34.1	-34.8	24.9	0.00e+00	0	39	0	739246080	42	5594
2026-01-04 03:55:18.19	137.59	11.47	-34.1	-34.8	24.7	0.00e+00	0	39	0	746586112	42	5568
2026-01-04 03:55:19.20	137.55	11.57	-34.1	-34.7	24.9	0.00e+00	0	39	0	753926144	42	5550
2026-01-04 03:55:20.21	137.52	11.66	-34.1	-34.7	24.8	0.00e+00	0	39	0	761266176	42	5536
2026-01-04 03:55:21.22	137.49	11.75	-33.9	-34.5	24.9	0.00e+00	0	39	0	768606208	42	5433
2026-01-04 03:55:22.22	137.45	11.84	-34.1	-34.7	24.8	0.00e+00	0	39	0	775946240	42	5551
2026-01-04 03:55:23.23	137.42	11.94	-34.0	-34.7	24.9	0.00e+00	0	39	0	783286272	42	5509
2026-01-04 03:55:24.25	137.38	12.03	-33.7	-34.4	25.0	0.00e+00	0	39	0	790626304	42	5329
2026-01-04 03:55:25.26	137.35	12.13	-33.6	-34.3	25.0	0.00e+00	0	39	0	797966336	40	5898
2026-01-04 03:55:26.27	137.31	12.22	-33.5	-34.2	25.1	0.00e+00	0	39	0	805306368	40	5831
2026-01-04 03:55:27.28	137.27	12.32	-33.5	-34.2	25.1	0.00e+00	0	39	0	812646400	40	5853
2026-01-04 03:55:28.29	137.24	12.41	-33.8	-34.4	25.1	0.00e+00	0	39	0	819986432	40	6018
2026-01-04 03:55:29.30	137.20	12.51	-34.4	-35.0	24.8	0.00e+00	0	39	0	827326464	40	6459
2026-01-04 03:55:30.31	137.16	12.60	-34.4	-35.0	25.0	0.00e+00	0	39	0	833617920	40	6440
2026-01-04 03:55:31.32	137.13	12.70	-33.9	-34.5	24.8	0.00e+00	0	39	0	840957952	40	6083
2026-01-04 03:55:32.32	137.09	12.80	-33.8	-34.5	25.0	0.00e+00	0	39	0	849346560	40	6041
2026-01-04 03:55:33.33	137.05	12.89	-33.6	-34.2	25.4	0.00e+00	0	39	0	855638016	40	5854
2026-01-04 03:55:34.35	137.01	12.99	-33.6	-34.2	25.4	0.00e+00	0	39	0	862978048	40	5860
2026-01-04 03:55:35.36	136.98	13.09	-33.2	-33.8	25.4	0.00e+00	0	39	0	870318080	40	5623
2026-01-04 03:55:36.36	136.94	13.19	-33.3	-34.0	25.4	0.00e+00	0	39	0	877658112	40	5697
2026-01-04 03:55:37.37	136.90	13.29	-33.6	-34.2	25.4	0.00e+00	0	39	0	884998144	40	5843
2026-01-04 03:55:38.38	136.86	13.38	-33.5	-34.1	25.5	0.00e+00	0	39	0	892338176	40	5822
2026-01-04 03:55:39.39	136.82	13.48	-33.3	-33.9	25.6	0.00e+00	0	39	0	899678208	40	5642
2026-01-04 03:55:40.40	136.78	13.58	-33.3	-33.9	25.5	0.00e+00	0	39	0	907018240	40	5666
2026-01-04 03:55:41.41	136.74	13.68	-33.3	-34.0	25.4	0.00e+00	0	39	0	914358272	40	5711
2026-01-04 03:55:42.42	136.70	13.78	-34.3	-34.9	24.8	0.00e+00	0	39	0	921698304	40	6382
2026-01-04 03:55:43.43	136.66	13.89	-33.5	-34.1	25.4	0.00e+00	0	39	0	929038336	40	5786
2026-01-04 03:55:44.44	136.62	13.99	-33.2	-33.8	25.6	0.00e+00	0	39	0	936378368	40	5613
2026-01-04 03:55:45.45	136.58	14.09	-34.3	-35.0	24.8	0.00e+00	0	39	0	943718400	40	6414
2026-01-04 03:55:46.45	136.54	14.19	-33.8	-34.4	25.2	0.00e+00	0	39	0	951058432	40	6028
2026-01-04 03:55:47.47	136.50	14.29	-33.0	-33.6	25.6	0.00e+00	0	39	0	958398464	40	5454
2026-01-04 03:55:48.47	136.46	14.40	-32.8	-33.4	25.8	0.00e+00	0	39	0	965738496	38	5993
2026-01-04 03:55:49.49	136.41	14.50	-32.7	-33.3	25.8	0.00e+00	0	39	0	973078528	38	5943
2026-01-04 03:55:50.50	136.37	14.60	-33.1	-33.7	25.8	0.00e+00	0	39	0	980418560	38	6234
2026-01-04 03:55:51.51	136.33	14.71	-32.7	-33.3	25.9	0.00e+00	0	39	0	986710016	38	5949
2026-01-04 03:55:52.52	136.29	14.81	-32.7	-33.3	25.8	0.00e+00	0	39	0	994050048	38	5932
2026-01-04 03:55:53.53	136.24	14.92	-32.7	-33.3	26.0	0.00e+00	0	39	0	1002438656	38	5956
2026-01-04 03:55:54.54	136.20	15.02	-32.5	-33.1	26.1	0.00e+00	0	39	0	1008730112	38	5824
2026-01-04 03:55:55.55	136.15	15.13	-32.7	-33.3	25.9	0.00e+00	0	39	0	1016070144	38	5920
2026-01-04 03:55:56.56	136.11	15.24	-32.5	-33.1	26.1	0.00e+00	0	39	0	1023410176	38	5769
2026-01-04 03:55:57.57	136.07	15.34	-32.6	-33.2	26.0	0.00e+00	0	39	0	1030750208	38	5883
2026-01-04 03:55:58.58	136.02	15.45	-32.7	-33.3	25.8	0.00e+00	0	39	0	1038090240	38	5908
2026-01-04 03:55:59.59	135.98	15.56	-32.3	-33.0	26.1	0.00e+00	0	39	0	1045430272	38	5702
2026-01-04 03:56:00.60	135.93	15.67	-32.8	-33.4	26.2	0.00e+00	0	39	0	1052770304	38	5968
2026-01-04 03:56:01.61	135.88	15.78	-32.8	-33.4	26.1	0.00e+00	0	39	0	1060110336	38	5981
2026-01-04 03:56:02.62	135.84	15.89	-32.8	-33.4	26.2	0.00e+00	0	39	0	1067450368	38	5979
2026-01-04 03:56:03.63	135.79	16.00	-32.9	-33.5	26.1	0.00e+00	0	39	0	1074790400	38	6086
2026-01-04 03:56:04.64	135.74	16.11	-32.7	-33.3	26.2	0.00e+00	0	39	0	1082130432	38	5914
2026-01-04 03:56:05.65	135.69	16.22	-32.7	-33.3	26.3	0.00e+00	0	39	0	1089470464	38	5929
2026-01-04 03:56:06.65	135.65	16.33	-32.8	-33.4	26.1	0.00e+00	0	39	0	1096810496	38	6011
2026-01-04 03:56:07.66	135.60	16.44	-32.5	-33.1	26.3	0.00e+00	0	39	0	1104150528	38	5773
2026-01-04 03:56:08.67	135.55	16.55	-32.4	-33.0	26.4	0.00e+00	0	39	0	1110441984	38	5699
2026-01-04 03:56:09.68	135.50	16.66	-32.3	-33.0	26.4	0.00e+00	0	39	0	1118830592	38	5696
2026-01-04 03:56:10.69	135.45	16.78	-32.2	-32.8	26.4	0.00e+00	0	39	0	1126170624	38	5625
2026-01-04 03:56:11.70	135.40	16.89	-32.6	-33.2	26.3	0.00e+00	0	39	0	1132462080	38	5868
2026-01-04 03:56:12.71	135.35	17.01	-32.3	-32.9	26.3	0.00e+00	0	39	0	1139802112	38	5659
2026-01-04 03:56:13.72	135.30	17.12	-32.8	-33.4	26.2	0.00e+00	0	39	0	1147142144	38	5987
2026-01-04 03:56:14.73	135.25	17.24	-32.3	-32.9	26.4	0.00e+00	0	39	0	1154482176	38	5645
2026-01-04 03:56:15.73	135.20	17.35	-32.7	-33.3	26.2	0.00e+00	0	39	0	1161822208	38	5923
2026-01-04 03:56:16.74	135.15	17.47	-32.7	-33.3	26.4	0.00e+00	0	40	0	1169162240	38	5956
2026-01-04 03:56:17.75	135.09	17.58	-32.7	-33.3	26.4	0.00e+00	0	39	0	1176502272	38	5952
2026-01-04 03:56:18.76	135.04	17.70	-32.6	-33.2	26.5	0.00e+00	0	39	0	1183842304	38	5862
2026-01-04 03:56:19.77	134.99	17.82	-32.3	-32.9	26.6	0.00e+00	0	39	0	1191182336	38	5659
2026-01-04 03:56:20.78	134.93	17.94	-32.5	-33.1	26.6	0.00e+00	0	39	0	1198522368	38	5797
2026-01-04 03:56:21.79	134.88	18.06	-32.5	-33.1	26.6	0.00e+00	0	39	0	1205862400	38	5822
2026-01-04 03:56:22.80	134.82	18.18	-32.6	-33.2	26.5	0.00e+00	0	39	0	1213202432	38	5869
2026-01-04 03:56:23.81	134.77	18.30	-32.5	-33.1	26.6	0.00e+00	0	39	0	1220542464	38	5769
2026-01-04 03:56:24.81	134.71	18.42	-32.4	-33.0	26.5	0.00e+00	0	39	0	1227882496	38	5724
2026-01-04 03:56:25.82	134.66	18.54	-32.4	-33.1	26.6	0.00e+00	0	39	0	1235222528	38	5767
2026-01-04 03:56:26.83	134.60	18.66	-32.2	-32.8	26.6	0.00e+00	0	39	0	1242562560	38	5604
2026-01-04 03:56:27.84	134.55	18.78	-32.4	-33.0	26.5	0.00e+00	0	39	0	1249902592	38	5756
2026-01-04 03:56:28.85	134.49	18.90	-32.5	-33.2	26.4	0.00e+00	0	39	0	1257242624	38	5843
2026-01-04 03:56:29.86	134.43	19.03	-32.4	-33.0	26.4	0.00e+00	0	39	0	1263534080	38	5761
2026-01-04 03:56:30.87	134.37	19.15	-32.6	-33.3	26.5	0.00e+00	0	39	0	1270874112	38	5904
2026-01-04 03:56:31.88	134.31	19.28	-32.6	-33.2	26.3	0.00e+00	0	39	0	1279262720	38	5861
2026-01-04 03:56:32.89	134.25	19.40	-32.2	-32.8	26.4	0.00e+00	0	39	0	1285554176	38	5619
2026-01-04 03:56:33.90	134.19	19.53	-32.4	-33.0	26.5	0.00e+00	0	39	0	1292894208	38	5705
2026-01-04 03:56:34.91	134.13	19.65	-32.4	-33.0	26.5	0.00e+00	0	39	0	1300234240	38	5700
2026-01-04 03:56:35.92	134.07	19.78	-32.0	-32.6	26.6	0.00e+00	0	39	0	1307574272	38	5488
2026-01-04 03:56:36.93	134.01	19.91	-32.1	-32.7	26.6	0.00e+00	0	40	0	1314914304	38	5504
2026-01-04 03:56:37.94	133.95	20.04	-32.3	-32.9	26.7	0.00e+00	0	40	0	1322254336	38	5633
2026-01-04 03:56:38.95	133.89	20.17	-32.2	-32.8	26.6	0.00e+00	0	39	0	1329594368	38	5595
2026-01-04 03:56:39.96	133.82	20.30	-32.3	-32.9	26.5	0.00e+00	0	39	0	1336934400	38	5638
2026-01-04 03:56:40.97	133.76	20.43	-32.1	-32.7	26.7	0.00e+00	0	39	0	1344274432	38	5536
2026-01-04 03:56:41.97	133.69	20.56	-31.8	-32.4	26.8	0.00e+00	0	39	0	1351614464	38	5342
2026-01-04 03:56:42.98	133.63	20.69	-32.0	-32.6	26.7	0.00e+00	0	40	0	1358954496	36	6111
2026-01-04 03:56:43.99	133.56	20.82	-31.8	-32.4	26.8	0.00e+00	0	40	0	1366294528	36	6000
2026-01-04 03:56:45.00	133.50	20.95	-31.7	-32.3	27.0	0.00e+00	0	39	0	1373634560	36	5928
2026-01-04 03:56:46.01	133.43	21.09	-31.5	-32.1	26.9	0.00e+00	0	39	0	1380974592	36	5817
2026-01-04 03:56:47.02	133.36	21.22	-31.9	-32.5	26.5	0.00e+00	0	40	0	1387266048	36	6040
2026-01-04 03:56:48.03	133.30	21.35	-31.8	-32.4	27.0	0.00e+00	0	39	0	1395654656	36	6003
2026-01-04 03:56:49.04	133.23	21.49	-31.6	-32.2	27.0	0.00e+00	0	39	0	1402994688	36	5859
2026-01-04 03:56:50.05	133.16	21.63	-31.8	-32.4	27.0	0.00e+00	0	39	0	1409286144	36	5980
2026-01-04 03:56:51.06	133.09	21.76	-32.0	-32.6	27.1	0.00e+00	0	40	0	1416626176	36	6140
2026-01-04 03:56:52.06	133.02	21.90	-32.0	-32.6	26.6	0.00e+00	0	39	0	1423966208	36	6160
2026-01-04 03:56:53.07	132.95	22.04	-31.7	-32.3	27.3	0.00e+00	0	40	0	1431306240	36	5924
2026-01-04 03:56:54.09	132.88	22.18	-31.8	-32.4	27.2	0.00e+00	0	39	0	1438646272	36	6001
2026-01-04 03:56:55.10	132.80	22.32	-31.7	-32.3	27.1	0.00e+00	0	39	0	1445986304	36	5938
2026-01-04 03:56:56.10	132.73	22.46	-31.4	-32.0	27.3	0.00e+00	0	39	0	1453326336	36	5750
2026-01-04 03:56:57.11	132.66	22.60	-31.4	-31.9	27.4	0.00e+00	0	39	0	1460666368	36	5686
2026-01-04 03:56:58.12	132.58	22.74	-31.5	-32.1	27.3	0.00e+00	0	39	0	1468006400	36	5764
2026-01-04 03:56:59.13	132.51	22.88	-31.8	-32.4	26.8	0.00e+00	0	39	0	1475346432	36	5969
2026-01-04 03:57:00.14	132.43	23.03	-31.6	-32.2	27.0	0.00e+00	0	40	0	1482686464	36	5884
2026-01-04 03:57:01.15	132.35	23.17	-31.4	-32.0	27.1	0.00e+00	0	39	0	1490026496	36	5741
2026-01-04 03:57:02.16	132.28	23.31	-31.6	-32.2	27.2	0.00e+00	0	40	0	1497366528	36	5886
2026-01-04 03:57:03.17	132.20	23.46	-31.0	-31.6	27.6	0.00e+00	0	39	0	1504706560	36	5468
2026-01-04 03:57:04.18	132.12	23.61	-31.3	-31.9	27.4	0.00e+00	0	40	0	1512046592	36	5639
2026-01-04 03:57:05.19	132.04	23.75	-31.5	-32.1	27.3	0.00e+00	0	40	0	1519386624	36	5787
2026-01-04 03:57:06.20	131.96	23.90	-31.4	-32.0	27.1	0.00e+00	0	40	0	1526726656	36	5739
2026-01-04 03:57:07.21	131.88	24.05	-31.8	-32.4	26.9	0.00e+00	0	40	0	1534066688	36	5984
2026-01-04 03:57:08.22	131.80	24.20	-31.7	-32.3	27.3	0.00e+00	0	40	0	1540358144	36	5951
2026-01-04 03:57:09.22	131.72	24.35	-31.3	-31.9	27.5	0.00e+00	0	39	0	1548746752	36	5657
2026-01-04 03:57:10.24	131.63	24.50	-31.1	-31.7	27.4	0.00e+00	0	40	0	1556086784	36	5549
2026-01-04 03:57:11.24	131.55	24.65	-31.5	-32.1	27.5	0.00e+00	0	40	0	1562378240	36	5769
2026-01-04 03:57:12.25	131.46	24.80	-31.2	-31.8	27.6	0.00e+00	0	39	0	1569718272	36	5625
2026-01-04 03:57:13.26	131.38	24.96	-31.0	-31.6	27.7	0.00e+00	0	40	0	1577058304	36	5493
2026-01-04 03:57:14.27	131.29	25.11	-31.0	-31.6	27.5	0.00e+00	0	40	0	1584398336	36	5475
2026-01-04 03:57:15.29	131.20	25.27	-31.5	-32.1	27.3	0.00e+00	0	40	0	1591738368	36	5807
2026-01-04 03:57:16.30	131.11	25.42	-31.0	-31.6	27.5	0.00e+00	0	40	0	1599078400	36	5480
2026-01-04 03:57:17.30	131.02	25.58	-31.0	-31.6	27.6	0.00e+00	0	40	0	1606418432	36	5489
2026-01-04 03:57:18.32	130.93	25.74	-31.2	-31.8	27.6	0.00e+00	0	39	0	1613758464	36	5627
2026-01-04 03:57:19.33	130.84	25.90	-31.1	-31.7	27.6	0.00e+00	0	40	0	1621098496	36	5550
2026-01-04 03:57:20.34	130.75	26.06	-31.3	-31.9	27.6	0.00e+00	0	39	0	1628438528	36	5680
2026-01-04 03:57:21.34	130.65	26.21	-31.3	-31.9	27.7	0.00e+00	0	39	0	1635778560	36	5660
2026-01-04 03:57:22.35	130.56	26.38	-31.2	-31.8	27.6	0.00e+00	0	40	0	1643118592	36	5571
2026-01-04 03:57:23.36	130.46	26.54	-31.3	-31.9	27.7	0.00e+00	0	40	0	1650458624	36	5645
2026-01-04 03:57:24.37	130.37	26.70	-31.3	-31.9	27.6	0.00e+00	0	40	0	1657798656	36	5679
2026-01-04 03:57:25.38	130.27	26.86	-31.4	-32.0	27.6	0.00e+00	0	39	0	1665138688	36	5698
2026-01-04 03:57:26.39	130.17	27.03	-31.3	-31.9	27.6	0.00e+00	0	40	0	1672478720	36	5683
2026-01-04 03:57:27.40	130.07	27.19	-31.4	-31.9	27.6	0.00e+00	0	40	0	1679818752	36	5693
2026-01-04 03:57:28.41	129.97	27.36	-31.7	-32.3	27.5	0.00e+00	0	40	0	1686110208	36	5904
2026-01-04 03:57:29.42	129.87	27.53	-31.9	-32.5	27.2	0.00e+00	0	40	0	1693450240	36	6087
2026-01-04 03:57:30.43	129.77	27.70	-31.7	-32.3	27.2	0.00e+00	0	40	0	1701838848	36	5960
2026-01-04 03:57:31.44	129.66	27.86	-31.9	-32.5	27.1	0.00e+00	0	39	0	1708130304	36	6062
2026-01-04 03:57:32.45	129.56	28.03	-31.9	-32.5	26.8	0.00e+00	0	40	0	1715470336	36	6083
2026-01-04 03:57:33.46	129.45	28.21	-32.4	-32.9	27.1	0.00e+00	0	40	0	1722810368	36	6388
2026-01-04 03:57:34.47	129.34	28.38	-32.4	-33.0	26.9	0.00e+00	0	40	0	1730150400	36	6435
2026-01-04 03:57:35.48	129.23	28.55	-31.9	-32.5	27.0	0.00e+00	0	40	0	1737490432	36	6074
2026-01-04 03:57:36.49	129.12	28.72	-31.9	-32.5	27.1	0.00e+00	0	40	0	1744830464	36	6044
2026-01-04 03:57:37.50	129.01	28.90	-32.0	-32.6	26.9	0.00e+00	0	40	0	1752170496	36	6164
2026-01-04 03:57:38.51	128.90	29.08	-31.8	-32.4	27.3	0.00e+00	0	40	0	1759510528	36	6000
2026-01-04 03:57:39.52	128.79	29.25	-31.1	-31.7	27.6	0.00e+00	0	40	0	1766850560	36	5525
2026-01-04 03:57:40.53	128.67	29.43	-30.9	-31.5	27.8	0.00e+00	0	40	0	1774190592	36	5399
2026-01-04 03:57:41.54	128.55	29.61	-31.2	-31.8	27.5	0.00e+00	0	39	0	1781530624	36	5623
2026-01-04 03:57:42.55	128.44	29.79	-30.9	-31.5	27.6	0.00e+00	0	39	0	1788870656	36	5392
2026-01-04 03:57:43.56	128.32	29.97	-31.5	-32.1	27.5	0.00e+00	0	39	0	1796210688	36	5767
2026-01-04 03:57:44.57	128.20	30.15	-31.0	-31.6	27.7	0.00e+00	0	40	0	1803550720	36	5464
2026-01-04 03:57:45.58	128.08	30.33	-31.0	-31.6	27.7	0.00e+00	0	40	0	1810890752	34	6156
2026-01-04 03:57:46.59	127.95	30.52	-30.6	-31.2	27.9	0.00e+00	0	39	0	1818230784	34	5862
2026-01-04 03:57:47.60	127.83	30.70	-30.3	-30.9	28.1	0.00e+00	0	40	0	1825570816	34	5650
2026-01-04 03:57:48.60	127.70	30.89	-30.2	-30.8	28.1	0.00e+00	0	40	0	1832910848	34	5583
2026-01-04 03:57:49.62	127.57	31.08	-30.2	-30.8	28.1	0.00e+00	0	39	0	1839202304	34	5606
2026-01-04 03:57:50.63	127.45	31.26	-30.3	-30.9	28.1	0.00e+00	0	40	0	1847590912	34	5648
2026-01-04 03:57:51.64	127.31	31.45	-30.3	-30.9	28.2	0.00e+00	0	40	0	1854930944	34	5640
2026-01-04 03:57:52.65	127.18	31.64	-30.3	-30.8	28.0	0.00e+00	0	39	0	1861222400	34	5628
2026-01-04 03:57:53.66	127.05	31.83	-30.3	-30.8	28.0	0.00e+00	0	40	0	1868562432	34	5621
2026-01-04 03:57:54.67	126.91	32.02	-31.1	-31.7	27.8	0.00e+00	0	40	0	1875902464	34	6199
2026-01-04 03:57:55.68	126.78	32.22	-30.6	-31.2	28.0	0.00e+00	0	40	0	1883242496	34	5875
2026-01-04 03:57:56.69	126.64	32.41	-30.8	-31.4	27.8	0.00e+00	0	40	0	1890582528	34	5996
2026-01-04 03:57:57.70	126.50	32.61	-30.8	-31.4	27.7	0.00e+00	0	40	0	1897922560	34	5999
2026-01-04 03:57:58.70	126.36	32.80	-31.2	-31.7	27.6	0.00e+00	0	40	0	1905262592	34	6238
2026-01-04 03:57:59.72	126.21	33.00	-30.8	-31.4	27.8	0.00e+00	0	40	0	1912602624	34	5987
2026-01-04 03:58:00.73	126.07	33.20	-31.3	-31.9	27.4	0.00e+00	0	40	0	1919942656	34	6343
2026-01-04 03:58:01.73	125.92	33.40	-31.0	-31.6	27.9	0.00e+00	0	40	0	1927282688	34	6118
2026-01-04 03:58:02.74	125.77	33.60	-31.4	-32.0	27.8	0.00e+00	0	40	0	1934622720	34	6409
2026-01-04 03:58:03.75	125.62	33.80	-31.1	-31.7	27.6	0.00e+00	0	40	0	1941962752	34	6176
2026-01-04 03:58:04.76	125.47	34.00	-30.7	-31.3	28.0	0.00e+00	0	40	0	1949302784	34	5944
2026-01-04 03:58:05.77	125.31	34.21	-31.1	-31.7	27.8	0.00e+00	0	40	0	1956642816	34	6207
2026-01-04 03:58:06.78	125.15	34.41	-30.7	-31.3	27.9	0.00e+00	0	40	0	1963982848	34	5922
2026-01-04 03:58:07.79	124.99	34.62	-31.1	-31.7	27.6	0.00e+00	0	40	0	1971322880	34	6179
2026-01-04 03:58:08.80	124.83	34.83	-31.0	-31.6	27.7	0.00e+00	0	40	0	1978662912	34	6143
2026-01-04 03:58:09.80	124.67	35.03	-30.7	-31.3	28.0	0.00e+00	0	40	0	1986002944	34	5903
2026-01-04 03:58:10.82	124.50	35.24	-31.5	-32.0	28.1	0.00e+00	0	40	0	1992294400	34	6439
2026-01-04 03:58:11.83	124.34	35.45	-30.8	-31.4	27.7	0.00e+00	0	40	0	2000683008	34	5990
2026-01-04 03:58:12.83	124.17	35.66	-31.0	-31.6	27.5	0.00e+00	0	40	0	2008023040	34	6159
2026-01-04 03:58:13.84	124.00	35.88	-31.6	-32.2	27.5	0.00e+00	0	40	0	2014314496	36	5892
2026-01-04 03:58:14.85	123.82	36.09	-30.7	-31.3	27.8	0.00e+00	0	40	0	2021654528	36	5291
2026-01-04 03:58:15.86	123.64	36.30	-31.8	-32.4	27.1	0.00e+00	0	40	0	2028994560	36	6015
2026-01-04 03:58:16.87	123.46	36.52	-31.8	-32.4	27.5	0.00e+00	0	40	0	2036334592	36	5980
2026-01-04 03:58:17.88	123.28	36.74	-32.0	-32.5	27.4	0.00e+00	0	40	0	2043674624	36	6083
2026-01-04 03:58:18.89	123.10	36.96	-31.9	-32.5	27.3	0.00e+00	0	40	0	2051014656	36	6088
2026-01-04 03:58:19.90	122.91	37.18	-32.1	-32.7	27.1	0.00e+00	0	40	0	2058354688	38	5537
2026-01-04 03:58:20.91	122.72	37.40	-31.4	-32.0	27.3	0.00e+00	0	40	0	2065694720	36	5749
2026-01-04 03:58:21.92	122.53	37.62	-31.6	-32.2	27.3	0.00e+00	0	39	0	2073034752	36	5887
2026-01-04 03:58:22.93	122.34	37.84	-31.5	-32.1	27.4	0.00e+00	0	40	0	2080374784	36	5814
2026-01-04 03:58:23.93	122.14	38.06	-31.5	-32.1	27.5	0.00e+00	0	40	0	2087714816	36	5796
2026-01-04 03:58:24.94	121.94	38.29	-31.0	-31.6	27.5	0.00e+00	0	40	0	2095054848	36	5468
2026-01-04 03:58:25.96	121.74	38.52	-31.0	-31.6	27.5	0.00e+00	0	40	0	2102394880	36	5455
2026-01-04 03:58:26.97	121.53	38.74	-31.6	-32.2	27.7	0.00e+00	0	40	0	2109734912	36	5841
2026-01-04 03:58:27.97	121.32	38.97	-31.2	-31.8	27.3	0.00e+00	0	40	0	2117074944	34	6308
2026-01-04 03:58:28.98	121.11	39.20	-31.8	-32.4	27.2	0.00e+00	0	40	0	2124414976	34	6768
2026-01-04 03:58:29.99	120.90	39.43	-31.2	-31.8	27.6	0.00e+00	0	40	0	2131755008	36	5568
2026-01-04 03:58:31.00	120.68	39.66	-31.1	-31.7	27.4	0.00e+00	0	40	0	2138046464	36	5565
2026-01-04 03:58:32.01	120.46	39.89	-31.1	-31.7	27.7	0.00e+00	0	40	0	2145386496	36	5515
2026-01-04 03:58:33.02	120.23	40.13	-31.4	-32.0	27.3	0.00e+00	0	40	0	2153775104	36	5706
2026-01-04 03:58:34.03	120.01	40.36	-31.3	-31.9	27.6	0.00e+00	0	40	0	2160066560	36	5664
2026-01-04 03:58:35.04	119.78	40.60	-31.7	-32.3	27.2	0.00e+00	0	40	0	2167406592	36	5938
2026-01-04 03:58:36.05	119.54	40.83	-31.9	-32.5	27.4	0.00e+00	0	40	0	2174746624	36	6047
2026-01-04 03:58:37.06	119.30	41.07	-31.5	-32.1	27.4	0.00e+00	0	40	0	2182086656	36	5815
2026-01-04 03:58:38.07	119.06	41.31	-31.7	-32.3	27.3	0.00e+00	0	40	0	2189426688	36	5902
2026-01-04 03:58:39.08	118.82	41.55	-31.8	-32.3	27.3	0.00e+00	0	40	0	2196766720	36	5964
2026-01-04 03:58:40.09	118.57	41.79	-31.0	-31.6	27.7	0.00e+00	0	40	0	2204106752	36	5455
2026-01-04 03:58:41.09	118.32	42.03	-30.8	-31.4	27.8	0.00e+00	0	40	0	2211446784	36	5347
2026-01-04 03:58:42.10	118.06	42.27	-30.7	-31.3	28.0	0.00e+00	0	40	0	2218786816	36	5295
2026-01-04 03:58:43.11	117.80	42.51	-31.1	-31.6	27.6	0.00e+00	0	40	0	2226126848	34	6171
2026-01-04 03:58:44.12	117.54	42.76	-30.8	-31.4	28.0	0.00e+00	0	40	0	2233466880	34	5967
2026-01-04 03:58:45.13	117.27	43.00	-31.1	-31.7	27.8	0.00e+00	0	40	0	2240806912	34	6184
2026-01-04 03:58:46.14	117.00	43.25	-30.9	-31.5	27.9	0.00e+00	0	40	0	2248146944	34	6089
2026-01-04 03:58:47.15	116.72	43.50	-30.8	-31.4	27.7	0.00e+00	0	40	0	2255486976	34	5968
2026-01-04 03:58:48.16	116.44	43.74	-31.0	-31.5	27.8	0.00e+00	0	40	0	2262827008	34	6098
2026-01-04 03:58:49.17	116.15	43.99	-31.2	-31.8	27.6	0.00e+00	0	40	0	2269118464	34	6297
2026-01-04 03:58:50.18	115.86	44.24	-32.1	-32.7	27.2	0.00e+00	0	40	0	2277507072	36	6179
2026-01-04 03:58:51.19	115.57	44.49	-31.7	-32.3	27.2	0.00e+00	0	40	0	2284847104	36	5902
2026-01-04 03:58:52.20	115.27	44.74	-31.5	-32.1	27.4	0.00e+00	0	40	0	2291138560	36	5764
2026-01-04 03:58:53.20	114.97	44.99	-31.3	-31.9	27.4	0.00e+00	0	40	0	2298478592	36	5682
2026-01-04 03:58:54.22	114.66	45.25	-31.4	-31.9	27.3	0.00e+00	0	40	0	2305818624	36	5690
2026-01-04 03:58:55.23	114.34	45.50	-31.3	-31.9	27.7	0.00e+00	0	40	0	2313158656	36	5654
2026-01-04 03:58:56.24	114.02	45.75	-31.3	-31.9	27.5	0.00e+00	0	40	0	2320498688	36	5676
2026-01-04 03:58:57.25	113.70	46.00	-31.3	-31.9	27.3	0.00e+00	0	40	0	2327838720	36	5671
2026-01-04 03:58:58.25	113.37	46.26	-31.8	-32.4	26.8	0.00e+00	0	40	0	2335178752	36	6011
2026-01-04 03:58:59.26	113.04	46.51	-32.7	-33.3	26.9	0.00e+00	0	40	0	2342518784	36	6651
2026-01-04 03:59:00.27	112.70	46.77	-32.0	-32.6	27.1	0.00e+00	0	40	0	2349858816	38	5483
2026-01-04 03:59:01.28	112.35	47.02	-32.2	-32.9	26.9	0.00e+00	0	40	0	2357198848	38	5635
2026-01-04 03:59:02.29	112.00	47.28	-32.3	-32.9	26.7	0.00e+00	0	40	0	2364538880	38	5659
2026-01-04 03:59:03.30	111.64	47.54	-32.6	-33.2	25.4	0.00e+00	0	40	0	2371878912	38	5873
2026-01-04 03:59:04.31	111.28	47.79	-32.6	-33.2	26.4	0.00e+00	0	40	0	2379218944	38	5876
2026-01-04 03:59:05.32	110.91	48.05	-32.7	-33.3	26.7	0.00e+00	0	40	0	2386558976	38	5907
2026-01-04 03:59:06.33	110.53	48.31	-32.8	-33.4	26.5	0.00e+00	0	40	0	2393899008	38	5999
2026-01-04 03:59:07.34	110.15	48.56	-32.8	-33.5	26.3	0.00e+00	0	40	0	2401239040	38	6043
2026-01-04 03:59:08.35	109.76	48.82	-33.1	-33.7	26.1	0.00e+00	0	40	0	2408579072	38	6214
2026-01-04 03:59:09.36	109.36	49.08	-32.6	-33.2	26.5	0.00e+00	0	40	0	2414870528	38	5891
2026-01-04 03:59:10.36	108.97	49.33	-32.5	-33.1	26.7	0.00e+00	0	40	0	2422210560	38	5791
2026-01-04 03:59:11.37	108.56	49.59	-32.0	-32.6	26.7	0.00e+00	0	40	0	2430599168	38	5493
2026-01-04 03:59:12.38	108.14	49.85	-32.3	-32.9	26.8	0.00e+00	0	40	0	2436890624	38	5648
2026-01-04 03:59:13.39	107.72	50.11	-31.8	-32.4	27.0	0.00e+00	0	40	0	2444230656	36	6001
2026-01-04 03:59:14.40	107.29	50.36	-32.1	-32.7	26.8	0.00e+00	0	40	0	2451570688	36	6193
2026-01-04 03:59:15.41	106.85	50.62	-32.3	-32.9	26.8	0.00e+00	0	40	0	2458910720	36	6385
2026-01-04 03:59:16.42	106.40	50.88	-32.2	-32.8	26.8	0.00e+00	0	40	0	2466250752	36	6302
2026-01-04 03:59:17.43	105.95	51.13	-32.3	-32.9	26.8	0.00e+00	0	40	0	2473590784	36	6335
2026-01-04 03:59:18.44	105.49	51.39	-32.1	-32.7	26.5	0.00e+00	0	40	0	2480930816	36	6223
2026-01-04 03:59:19.45	105.02	51.64	-32.6	-33.2	26.7	0.00e+00	0	40	0	2488270848	38	5854
2026-01-04 03:59:20.46	104.54	51.89	-32.4	-33.0	26.5	0.00e+00	0	40	0	2495610880	38	5728
2026-01-04 03:59:21.47	104.06	52.15	-33.0	-33.6	26.3	0.00e+00	0	40	0	2502950912	38	6148
2026-01-04 03:59:22.48	103.56	52.40	-33.0	-33.5	26.4	0.00e+00	0	40	0	2510290944	38	6101
2026-01-04 03:59:23.49	103.06	52.65	-32.3	-32.9	26.6	0.00e+00	0	40	0	2517630976	38	5643
2026-01-04 03:59:24.50	102.55	52.90	-31.8	-32.4	27.3	0.00e+00	0	40	0	2524971008	36	5980
2026-01-04 03:59:25.51	102.03	53.15	-31.5	-32.1	27.1	0.00e+00	0	40	0	2532311040	36	5786
2026-01-04 03:59:26.52	101.50	53.40	-31.8	-32.4	27.1	0.00e+00	0	40	0	2539651072	36	5988
2026-01-04 03:59:27.53	100.96	53.64	-32.5	-33.1	26.7	0.00e+00	0	40	0	2546991104	36	6495
2026-01-04 03:59:28.54	100.41	53.89	-32.5	-33.1	26.6	0.00e+00	0	40	0	2554331136	36	6495
2026-01-04 03:59:29.55	99.86	54.13	-32.9	-33.6	26.6	0.00e+00	0	40	0	2561671168	38	6111
2026-01-04 03:59:30.56	99.29	54.37	-32.6	-33.2	26.8	0.00e+00	0	40	0	2567962624	38	5883
2026-01-04 03:59:31.57	98.72	54.61	-32.4	-33.0	27.1	0.00e+00	0	40	0	2575302656	38	5760
2026-01-04 03:59:32.58	98.13	54.85	-32.0	-32.6	27.1	0.00e+00	0	40	0	2583691264	38	5483
2026-01-04 03:59:33.59	97.54	55.09	-32.2	-32.7	27.2	0.00e+00	0	40	0	2589982720	38	5560
2026-01-04 03:59:34.60	96.93	55.32	-31.9	-32.5	27.1	0.00e+00	0	40	0	2597322752	36	6040
2026-01-04 03:59:35.60	96.32	55.55	-32.6	-33.2	26.8	0.00e+00	0	40	0	2604662784	36	6596
2026-01-04 03:59:36.61	95.70	55.78	-33.3	-33.9	26.2	0.00e+00	0	40	0	2612002816	38	6372
2026-01-04 03:59:37.62	95.06	56.01	-33.3	-33.9	26.4	0.00e+00	0	40	0	2619342848	38	6329
2026-01-04 03:59:38.62	94.42	56.23	-32.8	-33.4	26.2	0.00e+00	0	40	0	2626682880	38	6022
2026-01-04 03:59:39.64	93.76	56.46	-32.2	-32.8	26.8	0.00e+00	0	40	0	2634022912	38	5579
2026-01-04 03:59:40.64	93.10	56.67	-31.8	-32.4	27.2	0.00e+00	0	40	0	2641362944	38	5336
2026-01-04 03:59:41.65	92.42	56.89	-32.3	-32.9	27.2	0.00e+00	0	40	0	2648702976	38	5632
2026-01-04 03:59:42.66	91.73	57.10	-32.5	-33.0	27.0	0.00e+00	0	40	0	2656043008	38	5755
2026-01-04 03:59:43.67	91.03	57.31	-33.3	-33.9	26.1	0.00e+00	0	40	0	2663383040	38	6320
2026-01-04 03:59:44.68	90.32	57.52	-32.8	-33.4	26.2	0.00e+00	0	40	0	2670723072	38	6027
2026-01-04 03:59:45.69	89.60	57.72	-32.6	-33.3	26.5	0.00e+00	0	40	0	2678063104	38	5897
2026-01-04 03:59:46.70	88.87	57.92	-32.6	-33.2	26.6	0.00e+00	0	40	0	2685403136	38	5884
2026-01-04 03:59:47.71	88.12	58.11	-32.8	-33.4	26.4	0.00e+00	0	40	0	2691694592	38	6001
2026-01-04 03:59:48.72	87.37	58.30	-32.9	-33.5	26.3	0.00e+00	0	40	0	2699034624	38	6073
2026-01-04 03:59:49.73	86.61	58.49	-32.5	-33.1	26.4	0.00e+00	0	40	0	2707423232	38	5816
2026-01-04 03:59:50.74	85.83	58.67	-32.7	-33.4	26.4	0.00e+00	0	40	0	2713714688	38	5970
2026-01-04 03:59:51.75	85.05	58.85	-33.0	-33.6	26.3	0.00e+00	0	40	0	2721054720	38	6110
2026-01-04 03:59:52.76	84.25	59.03	-33.1	-33.7	26.0	0.00e+00	0	40	0	2728394752	38	6203
2026-01-04 03:59:53.76	83.45	59.19	-33.4	-34.0	26.0	0.00e+00	0	40	0	2735734784	38	6456
2026-01-04 03:59:54.77	82.63	59.36	-33.3	-33.9	26.0	0.00e+00	0	40	0	2743074816	38	6383
2026-01-04 03:59:55.78	81.81	59.52	-32.8	-33.4	26.2	0.00e+00	0	40	0	2750414848	38	6032
2026-01-04 03:59:56.79	80.97	59.67	-32.8	-33.4	26.5	0.00e+00	0	40	0	2757754880	38	5976
2026-01-04 03:59:57.80	80.12	59.82	-32.5	-33.1	26.8	0.00e+00	0	40	0	2765094912	38	5775
2026-01-04 03:59:58.81	79.27	59.97	-32.6	-33.2	26.5	0.00e+00	0	40	0	2772434944	38	5848
2026-01-04 03:59:59.82	78.40	60.10	-33.0	-33.6	26.4	0.00e+00	0	40	0	2779774976	38	6131
2026-01-04 04:00:00.83	77.52	60.24	-33.1	-33.7	26.3	0.00e+00	0	40	0	2787115008	38	6242
2026-01-04 04:00:01.84	76.64	60.36	-32.4	-33.0	26.6	0.00e+00	0	40	0	2794455040	38	5727
2026-01-04 04:00:02.85	75.75	60.48	-32.6	-33.3	26.2	0.00e+00	0	40	0	2801795072	38	5907
2026-01-04 04:00:03.85	74.85	60.60	-32.3	-32.9	26.9	0.00e+00	0	40	0	2809135104	38	5648
2026-01-04 04:00:04.86	73.95	60.70	-32.9	-33.5	26.6	0.00e+00	0	40	0	2816475136	38	6070
2026-01-04 04:00:05.87	73.03	60.81	-33.1	-33.7	26.5	0.00e+00	0	40	0	2823815168	38	6205
2026-01-04 04:00:06.88	72.10	60.90	-32.6	-33.2	26.4	0.00e+00	0	40	0	2831155200	38	5829
2026-01-04 04:00:07.89	71.17	60.99	-32.9	-33.5	26.2	0.00e+00	0	40	0	2838495232	38	6072
2026-01-04 04:00:08.90	70.24	61.07	-32.9	-33.5	26.1	0.00e+00	0	40	0	2844786688	38	6095
2026-01-04 04:00:09.91	69.29	61.15	-32.5	-33.1	26.5	0.00e+00	0	40	0	2852126720	38	5807
2026-01-04 04:00:10.92	68.35	61.22	-32.4	-33.0	26.5	0.00e+00	0	40	0	2859466752	38	5716
2026-01-04 04:00:11.93	67.39	61.28	-32.2	-32.8	26.8	0.00e+00	0	40	0	2866806784	38	5601
2026-01-04 04:00:12.94	66.43	61.34	-32.8	-33.4	26.3	0.00e+00	0	40	0	2874146816	38	5991
2026-01-04 04:00:13.95	65.47	61.39	-32.9	-33.6	26.4	0.00e+00	0	40	0	2881486848	38	6106
2026-01-04 04:00:14.96	64.51	61.43	-33.4	-34.0	26.0	0.00e+00	0	40	0	2888826880	38	6443
2026-01-04 04:00:15.97	63.54	61.46	-33.0	-33.6	26.3	0.00e+00	0	40	0	2896166912	38	6173
2026-01-04 04:00:16.98	62.57	61.49	-32.7	-33.3	27.1	0.00e+00	0	40	0	2903506944	38	5932
2026-01-04 04:00:17.99	61.59	61.51	-32.9	-33.4	26.9	0.00e+00	0	40	0	2910846976	38	6018
2026-01-04 04:00:19.00	60.62	61.52	-32.2	-32.8	27.0	0.00e+00	0	40	0	2918187008	38	5611
2026-01-04 04:00:20.00	59.65	61.53	-33.3	-34.0	26.4	0.00e+00	0	40	0	2925527040	38	6398
2026-01-04 04:00:21.02	58.67	61.53	-33.1	-33.7	26.8	0.00e+00	0	40	0	2932867072	38	6222
2026-01-04 04:00:22.02	57.71	61.52	-32.9	-33.5	26.7	0.00e+00	0	40	0	2940207104	38	6056
2026-01-04 04:00:23.03	56.73	61.50	-33.0	-33.6	26.3	0.00e+00	0	40	0	2947547136	38	6130
2026-01-04 04:00:24.04	55.76	61.48	-32.4	-33.0	26.9	0.00e+00	0	40	0	2954887168	38	5755
2026-01-04 04:00:25.05	54.79	61.45	-32.3	-32.9	26.8	0.00e+00	0	40	0	2962227200	38	5676
2026-01-04 04:00:26.06	53.82	61.41	-32.8	-33.4	26.5	0.00e+00	0	40	0	2968518656	38	6004
2026-01-04 04:00:27.07	52.86	61.37	-33.2	-33.8	26.4	0.00e+00	0	40	0	2976907264	38	6272
2026-01-04 04:00:28.08	51.90	61.32	-34.1	-34.7	25.3	0.00e+00	0	40	0	2984247296	40	6238
2026-01-04 04:00:29.09	50.94	61.26	-32.8	-33.4	26.5	0.00e+00	0	40	0	2990538752	40	5330
2026-01-04 04:00:30.10	49.99	61.19	-32.5	-33.1	26.0	0.00e+00	0	40	0	2997878784	38	5824
2026-01-04 04:00:31.11	49.05	61.12	-32.1	-32.7	26.9	0.00e+00	0	40	0	3005218816	38	5536
2026-01-04 04:00:32.12	48.11	61.04	-32.4	-33.0	26.9	0.00e+00	0	40	0	3012558848	38	5759
2026-01-04 04:00:33.13	47.17	60.95	-32.6	-33.2	26.2	0.00e+00	0	40	0	3019898880	38	5836
2026-01-04 04:00:34.14	46.24	60.86	-32.8	-33.4	26.2	0.00e+00	0	40	0	3027238912	38	6001
2026-01-04 04:00:35.15	45.32	60.76	-32.6	-33.3	26.4	0.00e+00	0	40	0	3034578944	38	5903
2026-01-04 04:00:36.16	44.41	60.66	-33.1	-33.7	26.7	0.00e+00	0	40	0	3041918976	38	6236
2026-01-04 04:00:37.17	43.51	60.55	-32.2	-32.8	26.7	0.00e+00	0	40	0	3049259008	40	4992
2026-01-04 04:00:38.18	42.61	60.43	-33.4	-34.1	26.2	0.00e+00	0	40	0	3056599040	38	6466
2026-01-04 04:00:39.18	41.73	60.31	-33.6	-34.3	25.9	0.00e+00	0	40	0	3063939072	40	5897
2026-01-04 04:00:40.19	40.85	60.18	-33.1	-33.7	26.2	0.00e+00	0	40	0	3071279104	40	5552
2026-01-04 04:00:41.20	39.98	60.05	-32.9	-33.5	26.8	0.00e+00	0	40	0	3078619136	40	5398
2026-01-04 04:00:42.21	39.12	59.91	-32.8	-33.4	26.7	0.00e+00	0	40	0	3085959168	38	5998
2026-01-04 04:00:43.22	38.27	59.76	-33.2	-33.8	26.8	0.00e+00	0	40	0	3093299200	40	5584
2026-01-04 04:00:44.23	37.42	59.61	-33.5	-34.2	26.4	0.00e+00	0	40	0	3100639232	40	5841
2026-01-04 04:00:45.24	36.59	59.45	-32.9	-33.5	26.9	0.00e+00	0	40	0	3107979264	40	5428
2026-01-04 04:00:46.25	35.77	59.29	-32.7	-33.3	26.7	0.00e+00	0	40	0	3115319296	38	5915
2026-01-04 04:00:47.26	34.96	59.12	-33.1	-33.7	26.9	0.00e+00	0	40	0	3121610752	38	6208
2026-01-04 04:00:48.27	34.16	58.95	-32.6	-33.2	26.6	0.00e+00	0	40	0	3128950784	38	5838
2026-01-04 04:00:49.28	33.37	58.78	-32.2	-32.8	26.9	0.00e+00	0	40	0	3137339392	38	5626
2026-01-04 04:00:50.28	32.59	58.60	-31.7	-32.3	27.3	0.00e+00	0	40	0	3143630848	36	5930
2026-01-04 04:00:51.30	31.82	58.41	-32.0	-32.6	27.1	0.00e+00	0	40	0	3150970880	36	6134
2026-01-04 04:00:52.30	31.06	58.23	-32.1	-32.7	26.9	0.00e+00	0	40	0	3158310912	36	6225
2026-01-04 04:00:53.31	30.32	58.03	-32.3	-32.9	26.6	0.00e+00	0	40	0	3165650944	36	6340
2026-01-04 04:00:54.32	29.58	57.84	-32.1	-32.7	26.8	0.00e+00	0	40	0	3172990976	36	6238
2026-01-04 04:00:55.33	28.85	57.64	-32.9	-33.6	26.5	0.00e+00	0	40	0	3180331008	38	6104
2026-01-04 04:00:56.34	28.14	57.43	-33.0	-33.6	26.7	0.00e+00	0	40	0	3187671040	38	6153
2026-01-04 04:00:57.35	27.43	57.23	-33.5	-34.1	26.6	0.00e+00	0	40	0	3195011072	38	6483
2026-01-04 04:00:58.36	26.74	57.02	-33.0	-33.6	26.5	0.00e+00	0	40	0	3202351104	38	6136
2026-01-04 04:00:59.37	26.06	56.80	-32.7	-33.3	27.0	0.00e+00	0	40	0	3209691136	38	5939
2026-01-04 04:01:00.38	25.38	56.58	-32.7	-33.3	26.9	0.00e+00	0	40	0	3217031168	38	5943
2026-01-04 04:01:01.39	24.72	56.36	-32.4	-33.0	26.7	0.00e+00	0	40	0	3224371200	38	5734
2026-01-04 04:01:02.40	24.07	56.14	-32.1	-32.7	26.8	0.00e+00	0	40	0	3231711232	38	5565
2026-01-04 04:01:03.41	23.43	55.92	-32.1	-32.7	27.0	0.00e+00	0	40	0	3239051264	38	5516
2026-01-04 04:01:04.42	22.80	55.69	-32.0	-32.6	26.9	0.00e+00	0	40	0	3246391296	38	5471
2026-01-04 04:01:05.43	22.18	55.46	-32.1	-32.7	26.7	0.00e+00	0	40	0	3253731328	38	5563
2026-01-04 04:01:06.43	21.57	55.23	-32.5	-33.1	26.6	0.00e+00	0	40	0	3261071360	38	5801
2026-01-04 04:01:07.45	20.97	54.99	-32.1	-32.7	27.0	0.00e+00	0	40	0	3267362816	38	5536
2026-01-04 04:01:08.46	20.38	54.76	-32.0	-32.6	27.1	0.00e+00	0	40	0	3274702848	38	5456
2026-01-04 04:01:09.46	19.80	54.52	-31.9	-32.5	27.0	0.00e+00	0	40	0	3282042880	38	5392
2026-01-04 04:01:10.47	19.23	54.28	-33.8	-34.4	26.1	0.00e+00	0	40	0	3289382912	42	5331
2026-01-04 04:01:11.48	18.67	54.04	-33.2	-33.7	26.6	0.00e+00	0	40	0	3296722944	40	5561
2026-01-04 04:01:12.49	18.12	53.79	-32.7	-33.3	26.5	0.00e+00	0	40	0	3304062976	38	5935
2026-01-04 04:01:13.50	17.58	53.55	-32.3	-32.9	26.8	0.00e+00	0	40	0	3311403008	38	5643
2026-01-04 04:01:14.51	17.04	53.30	-32.9	-33.5	26.5	0.00e+00	0	40	0	3318743040	38	6045
2026-01-04 04:01:15.52	16.52	53.05	-32.8	-33.4	26.3	0.00e+00	0	40	0	3326083072	38	6024
2026-01-04 04:01:16.53	16.01	52.81	-32.8	-33.4	26.7	0.00e+00	0	40	0	3333423104	38	5997
2026-01-04 04:01:17.54	15.50	52.56	-32.4	-33.0	26.6	0.00e+00	0	40	0	3340763136	38	5753
2026-01-04 04:01:18.55	15.00	52.31	-32.2	-32.8	26.9	0.00e+00	0	40	0	3348103168	38	5617
2026-01-04 04:01:19.55	14.52	52.06	-32.7	-33.3	26.5	0.00e+00	0	40	0	3355443200	38	5921
2026-01-04 04:01:20.56	14.04	51.80	-32.0	-32.6	27.0	0.00e+00	0	40	0	3362783232	38	5491
2026-01-04 04:01:21.57	13.56	51.55	-32.1	-32.7	27.0	0.00e+00	0	40	0	3370123264	38	5512
2026-01-04 04:01:22.58	13.10	51.30	-31.9	-32.5	27.1	0.00e+00	0	40	0	3377463296	38	5406
2026-01-04 04:01:23.59	12.64	51.04	-32.3	-32.9	26.9	0.00e+00	0	40	0	3384803328	38	5691
2026-01-04 04:01:24.60	12.19	50.79	-32.3	-32.9	26.8	0.00e+00	0	40	0	3392143360	38	5684
2026-01-04 04:01:25.60	11.75	50.53	-32.6	-33.2	26.8	0.00e+00	0	40	0	3398434816	38	5880
2026-01-04 04:01:26.61	11.32	50.28	-32.4	-33.0	26.8	0.00e+00	0	40	0	3405774848	38	5714
2026-01-04 04:01:27.62	10.89	50.02	-31.8	-32.3	27.2	0.00e+00	0	40	0	3414163456	36	5953
2026-01-04 04:01:28.64	10.47	49.76	-31.9	-32.5	26.7	0.00e+00	0	40	0	3420454912	36	6040
2026-01-04 04:01:29.64	10.06	49.51	-32.0	-32.5	27.0	0.00e+00	0	40	0	3427794944	36	6082
2026-01-04 04:01:30.65	9.65	49.25	-32.3	-32.9	26.9	0.00e+00	0	40	0	3435134976	36	6331
2026-01-04 04:01:31.66	9.26	48.99	-32.2	-32.8	26.8	0.00e+00	0	40	0	3442475008	38	5576
2026-01-04 04:01:32.67	8.86	48.74	-32.7	-33.3	26.5	0.00e+00	0	40	0	3449815040	38	5930
2026-01-04 04:01:33.68	8.48	48.48	-32.1	-32.7	26.9	0.00e+00	0	40	0	3457155072	38	5533
2026-01-04 04:01:34.69	8.10	48.22	-31.7	-32.3	27.1	0.00e+00	0	40	0	3464495104	36	5926
2026-01-04 04:01:35.70	7.73	47.97	-31.4	-31.9	27.4	0.00e+00	0	40	0	3471835136	36	5686
2026-01-04 04:01:36.71	7.36	47.71	-31.6	-32.1	27.4	0.00e+00	0	40	0	3479175168	36	5808
2026-01-04 04:01:37.72	7.00	47.45	-31.4	-32.0	27.2	0.00e+00	0	40	0	3486515200	36	5733
2026-01-04 04:01:38.73	6.64	47.20	-31.4	-32.0	27.4	0.00e+00	0	40	0	3493855232	36	5724
2026-01-04 04:01:39.74	6.29	46.94	-31.6	-32.2	27.0	0.00e+00	0	40	0	3501195264	36	5876
2026-01-04 04:01:40.75	5.95	46.69	-31.7	-32.3	27.2	0.00e+00	0	40	0	3508535296	36	5916
2026-01-04 04:01:41.75	5.62	46.44	-31.3	-31.9	27.4	0.00e+00	0	40	0	3515875328	36	5680
2026-01-04 04:01:42.76	5.28	46.18	-31.3	-31.9	27.4	0.00e+00	0	40	0	3523215360	36	5644
2026-01-04 04:01:43.77	4.96	45.93	-31.3	-31.9	27.6	0.00e+00	0	40	0	3529506816	36	5635
2026-01-04 04:01:44.78	4.64	45.68	-31.3	-31.8	27.3	0.00e+00	0	40	0	3537895424	36	5619
2026-01-04 04:01:45.79	4.32	45.42	-31.1	-31.7	27.8	0.00e+00	0	40	0	3545235456	36	5535
2026-01-04 04:01:46.80	4.01	45.17	-30.9	-31.5	27.6	0.00e+00	0	40	0	3551526912	36	5431
2026-01-04 04:01:47.81	3.70	44.92	-32.2	-32.9	26.0	0.00e+00	0	40	0	3558866944	36	6325
2026-01-04 04:01:48.82	3.40	44.67	-31.8	-32.4	27.7	0.00e+00	0	40	0	3567255552	36	5982
2026-01-04 04:01:49.83	3.10	44.42	-32.0	-32.5	27.9	0.00e+00	0	40	0	3573547008	38	5436
2026-01-04 04:01:50.84	2.81	44.17	-32.8	-33.3	26.8	0.00e+00	0	40	0	3580887040	38	5963
2026-01-04 04:01:51.85	2.52	43.92	-33.6	-34.2	26.4	0.00e+00	0	40	0	3588227072	40	5845
2026-01-04 04:01:52.86	2.24	43.68	-32.8	-33.4	27.4	0.00e+00	0	40	0	3595567104	38	5979
2026-01-04 04:01:53.87	1.96	43.43	-31.6	-32.2	27.9	0.00e+00	0	40	0	3602907136	36	5840
2026-01-04 04:01:54.88	1.69	43.18	-31.4	-32.0	27.6	0.00e+00	0	40	0	3610247168	36	5715
2026-01-04 04:01:55.89	1.42	42.94	-32.5	-33.1	26.5	0.00e+00	0	40	0	3617587200	36	6529
2026-01-04 04:01:56.90	1.15	42.70	-32.8	-33.4	27.1	0.00e+00	0	40	0	3624927232	38	6009
2026-01-04 04:01:57.91	0.89	42.45	-31.7	-32.3	27.4	0.00e+00	0	40	0	3632267264	36	5935
2026-01-04 04:01:58.92	0.63	42.21	-31.1	-31.7	27.6	0.00e+00	0	40	0	3639607296	36	5510
2026-01-04 04:01:59.93	0.38	41.97	-32.4	-33.0	27.4	0.00e+00	0	40	0	3646947328	36	6437
2026-01-04 04:02:00.94	0.13	41.73	-32.6	-33.2	26.5	0.00e+00	0	40	0	3654287360	40	5220
2026-01-04 04:02:01.95	359.88	41.49	-31.8	-32.4	27.7	0.00e+00	0	40	0	3661627392	38	5356
2026-01-04 04:02:02.96	359.64	41.25	-31.7	-32.3	27.6	0.00e+00	0	40	0	3668967424	36	5920
2026-01-04 04:02:03.96	359.40	41.02	-31.9	-32.5	27.5	0.00e+00	0	40	0	3675258880	36	6098
2026-01-04 04:02:04.97	359.16	40.78	-31.4	-32.0	27.4	0.00e+00	0	40	0	3683647488	36	5750
2026-01-04 04:02:05.98	358.93	40.54	-35.0	-35.7	24.7	0.00e+00	0	40	0	3690987520	36	8734
2026-01-04 04:02:06.99	358.70	40.31	-32.1	-32.7	27.4	0.00e+00	0	40	0	3697278976	38	5532
2026-01-04 04:02:08.00	358.48	40.08	-32.6	-33.2	26.7	0.00e+00	0	40	0	3704619008	38	5850
2026-01-04 04:02:09.01	358.26	39.84	-32.4	-33.0	27.3	0.00e+00	0	40	0	3711959040	38	5709
2026-01-04 04:02:10.02	358.04	39.61	-31.6	-32.2	27.9	0.00e+00	0	40	0	3719299072	36	5855
2026-01-04 04:02:11.03	357.82	39.38	-31.6	-32.2	27.4	0.00e+00	0	40	0	3726639104	36	5859
2026-01-04 04:02:12.04	357.61	39.15	-32.1	-32.7	27.3	0.00e+00	0	40	0	3733979136	36	6177
2026-01-04 04:02:13.04	357.40	38.93	-31.9	-32.5	27.1	0.00e+00	0	40	0	3741319168	36	6044
2026-01-04 04:02:14.05	357.19	38.70	-31.7	-32.3	27.6	0.00e+00	0	40	0	3748659200	36	5916
2026-01-04 04:02:15.06	356.99	38.47	-31.2	-31.7	27.6	0.00e+00	0	40	0	3755999232	36	5562
2026-01-04 04:02:16.07	356.79	38.25	-30.9	-31.5	27.3	0.00e+00	0	40	0	3763339264	34	6061
2026-01-04 04:02:17.08	356.59	38.03	-30.8	-31.4	27.7	0.00e+00	0	40	0	3770679296	34	6017
2026-01-04 04:02:18.09	356.39	37.80	-31.0	-31.5	27.6	0.00e+00	0	40	0	3778019328	34	6102
2026-01-04 04:02:19.10	356.20	37.58	-31.2	-31.8	27.3	0.00e+00	0	40	0	3785359360	34	6289
2026-01-04 04:02:20.11	356.01	37.36	-31.5	-32.1	27.6	0.00e+00	0	40	0	3792699392	36	5798
2026-01-04 04:02:21.12	355.82	37.14	-31.5	-32.1	27.0	0.00e+00	0	40	0	3800039424	36	5794
2026-01-04 04:02:22.13	355.64	36.92	-31.4	-32.0	27.5	0.00e+00	0	40	0	3807379456	36	5715
2026-01-04 04:02:23.14	355.45	36.71	-31.2	-31.8	27.7	0.00e+00	0	40	0	3814719488	36	5599
2026-01-04 04:02:24.15	355.27	36.49	-31.6	-32.1	27.4	0.00e+00	0	40	0	3822059520	36	5823
2026-01-04 04:02:25.16	355.10	36.27	-31.7	-32.3	27.8	0.00e+00	0	40	0	3828350976	36	5907
2026-01-04 04:02:26.16	354.92	36.06	-31.8	-32.3	27.4	0.00e+00	0	40	0	3835691008	36	5955
2026-01-04 04:02:27.17	354.75	35.85	-31.0	-31.6	28.0	0.00e+00	0	40	0	3844079616	36	5449
2026-01-04 04:02:28.18	354.58	35.64	-30.7	-31.3	28.1	0.00e+00	0	40	0	3850371072	36	5268
2026-01-04 04:02:29.19	354.41	35.43	-30.9	-31.4	28.0	0.00e+00	0	40	0	3857711104	34	6017
2026-01-04 04:02:30.20	354.24	35.22	-30.7	-31.3	27.6	0.00e+00	0	40	0	3865051136	34	5923
2026-01-04 04:02:31.21	354.08	35.01	-30.8	-31.4	28.0	0.00e+00	0	40	0	3872391168	34	5999
2026-01-04 04:02:32.22	353.92	34.80	-30.7	-31.3	28.0	0.00e+00	0	40	0	3879731200	34	5900
2026-01-04 04:02:33.23	353.76	34.60	-30.9	-31.5	28.0	0.00e+00	0	40	0	3887071232	34	6063
2026-01-04 04:02:34.24	353.60	34.39	-31.1	-31.6	27.9	0.00e+00	0	40	0	3894411264	34	6155
2026-01-04 04:02:35.25	353.44	34.19	-31.4	-32.0	27.8	0.00e+00	0	40	0	3901751296	36	5732
2026-01-04 04:02:36.26	353.29	33.98	-32.4	-32.9	27.7	0.00e+00	0	40	0	3909091328	38	5682
2026-01-04 04:02:37.27	353.14	33.78	-32.4	-33.0	26.9	0.00e+00	0	40	0	3916431360	36	6408
2026-01-04 04:02:38.28	352.99	33.58	-32.0	-32.5	27.5	0.00e+00	0	40	0	3923771392	36	6101
2026-01-04 04:02:39.29	352.84	33.38	-31.3	-31.9	27.9	0.00e+00	0	40	0	3931111424	36	5635
2026-01-04 04:02:40.30	352.69	33.18	-31.4	-32.1	27.8	0.00e+00	0	40	0	3938451456	36	5762
2026-01-04 04:02:41.30	352.55	32.99	-31.7	-32.3	27.8	0.00e+00	0	40	0	3945791488	36	5918
2026-01-04 04:02:42.31	352.41	32.79	-31.2	-31.8	28.0	0.00e+00	0	40	0	3952082944	36	5593
2026-01-04 04:02:43.32	352.27	32.60	-31.4	-32.0	27.9	0.00e+00	0	40	0	3959422976	36	5738
2026-01-04 04:02:44.33	352.13	32.40	-31.5	-32.1	27.8	0.00e+00	0	40	0	3967811584	36	5775
2026-01-04 04:02:45.34	351.99	32.21	-31.3	-31.9	28.0	0.00e+00	0	40	0	3974103040	36	5635
2026-01-04 04:02:46.35	351.85	32.02	-31.0	-31.6	28.0	0.00e+00	0	40	0	3981443072	36	5454
2026-01-04 04:02:47.36	351.72	31.83	-31.1	-31.7	27.9	0.00e+00	0	40	0	3988783104	36	5547
2026-01-04 04:02:48.37	351.59	31.64	-31.1	-31.7	27.9	0.00e+00	0	40	0	3996123136	36	5548
2026-01-04 04:02:49.38	351.46	31.45	-31.2	-31.8	27.8	0.00e+00	0	40	0	4003463168	36	5612
2026-01-04 04:02:50.38	351.33	31.26	-31.8	-32.4	27.2	0.00e+00	0	40	0	4010803200	36	5971
2026-01-04 04:02:51.40	351.20	31.07	-32.2	-32.8	27.8	0.00e+00	0	40	0	4018143232	36	6303
2026-01-04 04:02:52.40	351.07	30.89	-32.4	-33.0	27.7	0.00e+00	0	40	0	4025483264	38	5705
2026-01-04 04:02:53.41	350.95	30.70	-32.2	-32.7	27.8	0.00e+00	0	40	0	4032823296	36	6222
2026-01-04 04:02:54.42	350.82	30.52	-32.3	-32.9	27.8	0.00e+00	0	40	0	4040163328	36	6380
2026-01-04 04:02:55.43	350.70	30.34	-31.7	-32.3	27.8	0.00e+00	0	40	0	4047503360	36	5927
2026-01-04 04:02:56.44	350.58	30.15	-31.8	-32.4	27.6	0.00e+00	0	40	0	4054843392	36	6016
2026-01-04 04:02:57.45	350.46	29.97	-32.7	-33.3	27.1	0.00e+00	0	40	0	4062183424	36	6649
2026-01-04 04:02:58.46	350.34	29.79	-33.0	-33.6	26.7	0.00e+00	0	40	0	4069523456	38	6137
2026-01-04 04:02:59.47	350.23	29.61	-31.9	-32.5	27.0	0.00e+00	0	40	0	4076863488	36	6070
2026-01-04 04:03:00.48	350.11	29.44	-32.1	-32.7	27.4	0.00e+00	0	40	0	4084203520	36	6223
2026-01-04 04:03:01.49	350.00	29.26	-32.1	-32.7	27.0	0.00e+00	0	40	0	4091543552	36	6217
2026-01-04 04:03:02.50	349.89	29.08	-32.0	-32.6	27.4	0.00e+00	0	40	0	4098883584	36	6139
2026-01-04 04:03:03.51	349.77	28.91	-32.4	-33.0	27.0	0.00e+00	0	40	0	4105175040	38	5718
2026-01-04 04:03:04.52	349.66	28.73	-32.4	-33.1	26.7	0.00e+00	0	40	0	4112515072	38	5762
2026-01-04 04:03:05.52	349.56	28.56	-31.8	-32.4	27.2	0.00e+00	0	40	0	4120903680	38	5359
2026-01-04 04:03:06.53	349.45	28.39	-32.9	-33.5	26.9	0.00e+00	0	40	0	4127195136	38	6039
2026-01-04 04:03:07.54	349.34	28.22	-32.9	-33.5	26.6	0.00e+00	0	40	0	4134535168	38	6084
2026-01-04 04:03:08.55	349.24	28.05	-32.9	-33.5	26.6	0.00e+00	0	40	0	4141875200	38	6099
2026-01-04 04:03:09.56	349.13	27.88	-32.2	-32.8	26.8	0.00e+00	0	40	0	4149215232	38	5621
2026-01-04 04:03:10.57	349.03	27.71	-32.4	-32.9	27.0	0.00e+00	0	40	0	4156555264	38	5690
2026-01-04 04:03:11.58	348.93	27.54	-32.8	-33.5	26.4	0.00e+00	0	40	0	4163895296	40	5385
2026-01-04 04:03:12.59	348.83	27.38	-32.7	-33.3	27.1	0.00e+00	0	40	0	4171235328	40	5269
2026-01-04 04:03:13.60	348.73	27.21	-32.7	-33.3	27.1	0.00e+00	0	40	0	4178575360	38	5897
2026-01-04 04:03:14.61	348.63	27.05	-31.7	-32.3	27.4	0.00e+00	0	40	0	4185915392	38	5264
2026-01-04 04:03:15.62	348.53	26.88	-32.5	-33.1	27.1	0.00e+00	0	40	0	4193255424	36	6535
2026-01-04 04:03:16.62	348.43	26.72	-32.6	-33.2	27.2	0.00e+00	0	40	0	4200595456	38	5882
2026-01-04 04:03:17.63	348.34	26.56	-31.6	-32.2	27.5	0.00e+00	0	40	0	4207935488	36	5831
2026-01-04 04:03:18.65	348.24	26.40	-31.7	-32.2	27.1	0.00e+00	0	40	0	4215275520	36	5889
2026-01-04 04:03:19.65	348.15	26.24	-31.5	-32.1	27.7	0.00e+00	0	40	0	4222615552	36	5794
2026-01-04 04:03:20.66	348.06	26.08	-31.0	-31.6	27.7	0.00e+00	0	40	0	4228907008	36	5468
2026-01-04 04:03:21.67	347.97	25.92	-31.0	-31.6	27.6	0.00e+00	0	40	0	4236247040	36	5460
2026-01-04 04:03:22.68	347.87	25.76	-31.0	-31.6	27.6	0.00e+00	0	40	0	4244635648	36	5447
2026-01-04 04:03:23.69	347.78	25.61	-30.9	-31.5	27.6	0.00e+00	0	40	0	4250927104	36	5413
2026-01-04 04:03:24.70	347.70	25.45	-30.8	-31.4	27.6	0.00e+00	0	40	0	4258267136	34	5974
2026-01-04 04:03:25.71	347.61	25.30	-30.7	-31.3	27.7	0.00e+00	0	40	0	4265607168	34	5927
2026-01-04 04:03:26.72	347.52	25.14	-30.9	-31.5	27.6	0.00e+00	0	40	0	4272947200	34	6083
2026-01-04 04:03:27.73	347.43	24.99	-31.1	-31.7	27.4	0.00e+00	0	40	0	4280287232	34	6201
2026-01-04 04:03:28.74	347.35	24.84	-31.3	-31.9	27.2	0.00e+00	0	40	0	4287627264	34	6346
2026-01-04 04:03:29.75	347.26	24.68	-31.3	-31.9	27.2	0.00e+00	0	40	0	4294967296	34	6321
2026-01-04 04:03:30.76	347.18	24.53	-31.3	-31.9	27.0	0.00e+00	0	40	0	4302307328	34	6362
2026-01-04 04:03:31.77	347.10	24.38	-30.9	-31.4	27.6	0.00e+00	0	40	0	4309647360	34	6030
2026-01-04 04:03:32.78	347.02	24.23	-31.1	-31.7	27.4	0.00e+00	0	40	0	4316987392	34	6215
2026-01-04 04:03:33.79	346.93	24.08	-31.1	-31.7	27.5	0.00e+00	0	40	0	4324327424	34	6176
2026-01-04 04:03:34.80	346.85	23.94	-31.1	-31.7	27.6	0.00e+00	0	40	0	4331667456	34	6198
2026-01-04 04:03:35.81	346.77	23.79	-31.2	-31.8	27.4	0.00e+00	0	40	0	4339007488	34	6287
2026-01-04 04:03:36.82	346.70	23.64	-31.8	-32.4	27.3	0.00e+00	0	40	0	4346347520	34	6727
2026-01-04 04:03:37.83	346.62	23.50	-31.6	-32.2	27.2	0.00e+00	0	40	0	4353687552	36	5884
2026-01-04 04:03:38.84	346.54	23.35	-32.0	-32.6	27.1	0.00e+00	0	40	0	4361027584	36	6123
2026-01-04 04:03:39.85	346.46	23.21	-31.8	-32.4	27.2	0.00e+00	0	40	0	4368367616	36	5977
2026-01-04 04:03:40.86	346.39	23.06	-31.7	-32.3	27.3	0.00e+00	0	40	0	4375707648	36	5941
2026-01-04 04:03:41.87	346.31	22.92	-31.7	-32.3	27.2	0.00e+00	0	40	0	4381999104	36	5929
2026-01-04 04:03:42.87	346.24	22.78	-31.8	-32.4	27.0	0.00e+00	0	40	0	4390387712	36	6021
2026-01-04 04:03:43.88	346.16	22.64	-31.3	-31.9	27.3	0.00e+00	0	40	0	4396679168	36	5639
2026-01-04 04:03:44.89	346.09	22.50	-31.4	-32.0	27.2	0.00e+00	0	40	0	4404019200	36	5720
2026-01-04 04:03:45.90	346.02	22.36	-31.3	-31.9	27.3	0.00e+00	0	40	0	4411359232	36	5670
2026-01-04 04:03:46.91	345.95	22.22	-31.3	-31.9	27.3	0.00e+00	0	40	0	4418699264	36	5670
2026-01-04 04:03:47.93	345.88	22.08	-31.5	-32.1	27.1	0.00e+00	0	40	0	4426039296	36	5774
2026-01-04 04:03:48.94	345.81	21.94	-31.6	-32.2	27.2	0.00e+00	0	40	0	4433379328	36	5854
2026-01-04 04:03:49.95	345.74	21.81	-31.5	-32.1	27.2	0.00e+00	0	40	0	4440719360	36	5771
2026-01-04 04:03:50.95	345.67	21.67	-31.6	-32.2	27.3	0.00e+00	0	40	0	4448059392	36	5858
2026-01-04 04:03:51.97	345.60	21.53	-31.8	-32.4	27.3	0.00e+00	0	40	0	4455399424	36	5987
2026-01-04 04:03:52.97	345.53	21.40	-31.9	-32.5	27.2	0.00e+00	0	40	0	4462739456	36	6052
2026-01-04 04:03:53.98	345.46	21.27	-31.8	-32.4	27.1	0.00e+00	0	40	0	4470079488	36	6018
2026-01-04 04:03:54.99	345.40	21.13	-31.8	-32.4	27.2	0.00e+00	0	40	0	4477419520	36	5993
2026-01-04 04:03:56.01	345.33	21.00	-31.9	-32.5	27.1	0.00e+00	0	40	0	4484759552	36	6101
2026-01-04 04:03:57.02	345.27	20.87	-31.8	-32.4	27.1	0.00e+00	0	40	0	4492099584	36	5978
2026-01-04 04:03:58.03	345.20	20.73	-32.1	-32.7	27.0	0.00e+00	0	40	0	4499439616	36	6226
2026-01-04 04:03:59.04	345.14	20.60	-32.2	-32.8	27.0	0.00e+00	0	40	0	4506779648	36	6270
2026-01-04 04:04:00.05	345.07	20.47	-32.2	-32.8	26.7	0.00e+00	0	40	0	4514119680	36	6283
2026-01-04 04:04:01.06	345.01	20.34	-32.3	-32.9	26.6	0.00e+00	0	40	0	4521459712	38	5678
2026-01-04 04:04:02.07	344.95	20.21	-32.5	-33.2	26.6	0.00e+00	0	40	0	4527751168	38	5830
2026-01-04 04:04:03.08	344.89	20.09	-32.8	-33.4	26.6	0.00e+00	0	40	0	4536139776	38	5991
2026-01-04 04:04:04.09	344.82	19.96	-33.5	-34.1	26.6	0.00e+00	0	40	0	4543479808	38	6515
2026-01-04 04:04:05.10	344.76	19.83	-33.0	-33.6	26.5	0.00e+00	0	40	0	4549771264	38	6143
2026-01-04 04:04:06.11	344.70	19.70	-32.8	-33.5	26.4	0.00e+00	0	40	0	4557111296	38	6034
2026-01-04 04:04:07.12	344.64	19.58	-32.7	-33.3	26.6	0.00e+00	0	40	0	4564451328	38	5928
2026-01-04 04:04:08.13	344.58	19.45	-33.0	-33.6	26.5	0.00e+00	0	40	0	4571791360	38	6124
2026-01-04 04:04:09.14	344.53	19.33	-33.0	-33.6	26.4	0.00e+00	0	40	0	4579131392	38	6131
2026-01-04 04:04:10.15	344.47	19.20	-32.9	-33.5	26.6	0.00e+00	0	40	0	4586471424	38	6091
2026-01-04 04:04:11.16	344.41	19.08	-33.0	-33.6	26.4	0.00e+00	0	40	0	4593811456	38	6126
2026-01-04 04:04:12.17	344.35	18.96	-33.0	-33.6	26.4	0.00e+00	0	40	0	4601151488	38	6148
2026-01-04 04:04:13.17	344.30	18.84	-33.5	-34.2	26.2	0.00e+00	0	40	0	4608491520	38	6541
