passes_logs/2026/01/04/R4.6S_Anadyr/R4.6S_Anadyr__20260104_200942_NOAA_20_JPSS-1_rec.log

#Pass ID: 20260104_200942_NOAA 20 (JPSS-1)
#Satellite: NOAA 20 (JPSS-1)
#Configuration: NOAA 20
#almurnet v.1.7.20251203
#Start time: 2026-01-04 20:09:43

#Version: 2.2.20231116
#Station: R4.6S_Anadyr
#Location: 177.4865 lon 64.73178 lat
#TLE: 1 43013U 17073A   26003.41800368  .00000169  00000+0  10117-3 0  9998
#TLE: 2 43013  98.7624 304.4804 0001884  56.1176 304.0179 14.19532918421092

#Time	Az	El	Level	Level2	SNR	BER	BlckErr	Temp	State	Recorded	gain1	gain2
2026-01-04 20:09:43.24	65.06	0.05	-49.0	-63.9	3.5	1.51e+00	0	27	0	0	60	56745
2026-01-04 20:09:44.24	64.98	0.10	-48.9	-64.1	3.5	1.51e+00	0	28	104	0	60	58053
2026-01-04 20:09:45.25	64.91	0.15	-49.2	-64.3	3.6	1.51e+00	0	28	104	0	60	59279
2026-01-04 20:09:46.26	64.83	0.20	-49.4	-64.6	3.6	1.51e+00	0	28	104	0	60	61045
2026-01-04 20:09:47.27	64.76	0.25	-48.9	-64.0	3.6	1.51e+00	0	28	104	0	60	57615
2026-01-04 20:09:48.28	64.68	0.30	-49.0	-64.2	3.6	1.51e+00	0	28	104	0	60	58415
2026-01-04 20:09:49.29	64.61	0.35	-48.8	-64.0	3.6	1.51e+00	0	28	104	0	60	57201
2026-01-04 20:09:50.30	64.53	0.40	-49.0	-64.2	3.6	1.51e+00	0	28	104	0	60	58833
2026-01-04 20:09:51.31	64.45	0.45	-49.2	-64.4	3.6	1.51e+00	0	28	104	0	60	59662
2026-01-04 20:09:52.32	64.38	0.50	-48.9	-64.1	3.6	1.51e+00	0	28	104	0	60	57823
2026-01-04 20:09:53.33	64.30	0.55	-48.8	-64.0	3.6	1.51e+00	0	28	104	0	60	56969
2026-01-04 20:09:54.34	64.22	0.60	-48.7	-63.9	3.6	1.51e+00	0	28	104	0	60	56677
2026-01-04 20:09:55.34	64.15	0.65	-48.6	-63.7	3.6	1.51e+00	0	28	104	0	60	55547
2026-01-04 20:09:56.35	64.07	0.70	-48.3	-63.7	3.6	1.51e+00	0	28	104	0	60	55350
2026-01-04 20:09:57.36	63.99	0.75	-48.4	-63.6	3.6	1.51e+00	0	28	104	0	60	54436
2026-01-04 20:09:58.37	63.91	0.80	-48.3	-63.4	3.6	1.51e+00	0	28	104	0	60	53487
2026-01-04 20:09:59.38	63.83	0.85	-48.0	-63.2	3.6	1.51e+00	0	29	104	0	60	51992
2026-01-04 20:10:00.39	63.75	0.90	-47.4	-62.6	3.6	1.51e+00	0	28	104	0	60	48482
2026-01-04 20:10:01.40	63.68	0.95	-47.1	-62.3	3.6	1.51e+00	0	28	104	0	60	46869
2026-01-04 20:10:02.41	63.60	1.00	-47.1	-62.3	3.6	1.51e+00	0	28	104	0	60	46924
2026-01-04 20:10:03.42	63.52	1.05	-47.1	-62.2	3.6	1.51e+00	0	29	104	0	60	46770
2026-01-04 20:10:04.43	63.44	1.10	-47.1	-62.2	3.6	1.51e+00	0	28	104	0	60	46680
2026-01-04 20:10:05.44	63.36	1.15	-47.1	-62.2	3.6	1.51e+00	0	28	104	0	60	46533
2026-01-04 20:10:06.45	63.28	1.20	-47.1	-62.2	3.6	1.51e+00	0	28	104	0	60	46477
2026-01-04 20:10:07.46	63.19	1.25	-47.1	-62.2	3.6	1.51e+00	0	28	104	0	60	46607
2026-01-04 20:10:08.47	63.11	1.30	-47.0	-62.2	3.6	1.51e+00	0	29	104	0	60	46550
2026-01-04 20:10:09.48	63.03	1.35	-47.1	-62.2	3.6	1.51e+00	0	29	104	0	60	46761
2026-01-04 20:10:10.49	62.95	1.40	-47.1	-62.3	3.6	1.51e+00	0	28	104	0	60	46938
2026-01-04 20:10:11.50	62.87	1.45	-47.1	-62.2	3.6	1.51e+00	0	28	104	0	60	46740
2026-01-04 20:10:12.51	62.79	1.50	-47.1	-62.2	3.6	1.51e+00	0	29	104	0	60	46771
2026-01-04 20:10:13.52	62.70	1.55	-47.1	-62.2	3.6	1.51e+00	0	29	104	0	60	46763
2026-01-04 20:10:14.53	62.62	1.60	-47.1	-62.2	3.6	1.51e+00	0	28	104	0	60	46670
2026-01-04 20:10:15.54	62.54	1.65	-47.1	-62.2	3.6	1.51e+00	0	29	104	0	60	46591
2026-01-04 20:10:16.55	62.45	1.70	-47.1	-62.3	3.6	1.51e+00	0	29	104	0	60	46905
2026-01-04 20:10:17.56	62.37	1.75	-47.1	-62.2	3.6	1.51e+00	0	29	104	0	60	46833
2026-01-04 20:10:18.57	62.29	1.80	-47.1	-62.2	3.6	1.51e+00	0	29	104	0	60	46568
2026-01-04 20:10:19.58	62.20	1.86	-47.1	-62.2	3.6	1.51e+00	0	29	104	0	60	46834
2026-01-04 20:10:20.59	62.12	1.91	-47.0	-62.2	3.6	1.51e+00	0	29	104	0	60	46604
2026-01-04 20:10:21.60	62.03	1.96	-47.1	-62.2	3.6	1.51e+00	0	29	104	0	60	46362
2026-01-04 20:10:22.61	61.95	2.01	-47.0	-62.1	3.6	1.51e+00	0	29	104	0	60	46026
2026-01-04 20:10:23.62	61.86	2.06	-47.0	-61.9	3.6	1.51e+00	0	29	104	0	60	44958
2026-01-04 20:10:24.62	61.78	2.11	-47.0	-62.1	3.6	1.51e+00	0	29	104	0	60	45778
2026-01-04 20:10:25.64	61.69	2.16	-47.0	-61.9	3.6	1.51e+00	0	29	104	0	60	45004
2026-01-04 20:10:26.64	61.60	2.21	-47.0	-61.9	3.6	1.51e+00	0	29	104	0	60	45119
2026-01-04 20:10:27.65	61.52	2.26	-47.1	-62.1	3.6	1.51e+00	0	29	104	0	60	46255
2026-01-04 20:10:28.66	61.43	2.31	-47.1	-62.3	3.6	1.51e+00	0	29	104	0	60	47068
2026-01-04 20:10:29.67	61.34	2.36	-47.1	-62.3	3.6	1.51e+00	0	29	104	0	60	46917
2026-01-04 20:10:30.68	61.26	2.41	-47.1	-62.2	3.6	1.51e+00	0	29	104	0	60	46750
2026-01-04 20:10:31.69	61.17	2.47	-47.0	-62.1	3.6	1.51e+00	0	29	104	0	60	46006
2026-01-04 20:10:32.70	61.08	2.52	-47.0	-62.2	3.6	1.51e+00	0	29	104	0	60	46446
2026-01-04 20:10:33.71	60.99	2.57	-47.1	-62.2	3.6	1.51e+00	0	29	104	0	60	46641
2026-01-04 20:10:34.72	60.90	2.62	-47.1	-62.0	3.6	1.51e+00	0	29	104	0	60	45685
2026-01-04 20:10:35.73	60.81	2.67	-47.0	-61.5	3.6	1.51e+00	0	29	104	0	60	42816
2026-01-04 20:10:36.74	60.72	2.72	-47.0	-61.3	3.6	1.51e+00	0	29	104	0	60	42116
2026-01-04 20:10:37.75	60.63	2.77	-47.0	-60.9	3.6	1.51e+00	0	29	104	0	60	40142
2026-01-04 20:10:38.76	60.54	2.82	-47.0	-61.9	3.6	1.51e+00	0	29	104	0	60	44990
2026-01-04 20:10:39.77	60.45	2.88	-47.0	-61.5	3.6	1.51e+00	0	29	104	0	60	43039
2026-01-04 20:10:40.78	60.36	2.93	-46.9	-59.3	3.8	1.51e+00	0	29	104	0	60	33264
2026-01-04 20:10:41.79	60.27	2.98	-46.7	-55.9	5.1	1.03e+00	92	29	0	0	60	22658
2026-01-04 20:10:42.80	60.18	3.03	-46.5	-54.6	6.3	2.71e-01	0	29	0	2097152	60	19403
2026-01-04 20:10:43.81	60.09	3.08	-47.1	-57.7	3.6	1.42e-01	54	29	0	4194304	60	27835
2026-01-04 20:10:44.82	59.99	3.13	-47.2	-62.2	3.6	1.50e+00	0	29	104	4194304	60	46569
2026-01-04 20:10:45.83	59.90	3.18	-46.5	-55.2	4.5	1.35e+00	0	29	104	4194304	60	20732
2026-01-04 20:10:46.84	59.81	3.24	-42.0	-44.0	17.4	5.79e-02	92	29	0	4194304	58	6417
2026-01-04 20:10:47.85	59.72	3.29	-46.9	-61.5	3.6	1.74e-04	0	29	104	5242880	60	43006
2026-01-04 20:10:48.86	59.62	3.34	-42.5	-44.7	16.4	1.36e+00	92	29	104	5242880	60	6232
2026-01-04 20:10:49.87	59.53	3.39	-42.4	-44.4	16.8	0.00e+00	7	29	0	5242880	58	6729
2026-01-04 20:10:50.88	59.43	3.44	-42.7	-44.9	16.6	0.00e+00	92	29	0	7340032	58	7157
2026-01-04 20:10:51.89	59.34	3.49	-42.7	-45.0	16.6	0.00e+00	0	29	0	9437184	58	7171
2026-01-04 20:10:52.90	59.25	3.54	-42.4	-44.4	17.1	0.00e+00	92	29	0	11534336	58	6767
2026-01-04 20:10:53.91	59.15	3.60	-42.9	-45.1	16.4	0.00e+00	92	29	0	12582912	58	7315
2026-01-04 20:10:54.92	59.05	3.65	-42.6	-44.8	16.7	0.00e+00	0	29	0	14680064	58	7010
2026-01-04 20:10:55.93	58.96	3.70	-42.5	-44.7	16.8	0.00e+00	92	29	0	16777216	58	6961
2026-01-04 20:10:56.94	58.86	3.75	-42.4	-44.5	16.9	0.00e+00	81	29	0	18874368	58	6816
2026-01-04 20:10:57.95	58.77	3.80	-42.7	-44.9	16.6	0.00e+00	92	29	0	20971520	58	7166
2026-01-04 20:10:58.96	58.67	3.86	-42.3	-44.3	17.3	0.00e+00	3	29	0	22020096	58	6623
2026-01-04 20:10:59.96	58.57	3.91	-41.7	-43.5	18.0	0.00e+00	60	29	0	24117248	56	6843
2026-01-04 20:11:00.97	58.47	3.96	-42.1	-44.0	17.6	0.00e+00	92	29	0	26214400	56	7190
2026-01-04 20:11:01.98	58.38	4.01	-42.0	-43.9	17.7	0.00e+00	81	29	0	28311552	56	7112
2026-01-04 20:11:02.99	58.28	4.06	-41.9	-43.7	17.9	0.00e+00	90	29	0	30408704	56	6995
2026-01-04 20:11:04.00	58.18	4.11	-42.3	-44.3	17.2	0.00e+00	81	29	0	31457280	56	7506
2026-01-04 20:11:05.01	58.08	4.17	-42.4	-44.5	17.2	0.00e+00	92	29	0	33554432	56	7615
2026-01-04 20:11:06.02	57.98	4.22	-42.8	-45.0	16.4	0.00e+00	0	29	0	35651584	58	7197
2026-01-04 20:11:07.03	57.88	4.27	-42.2	-44.2	17.1	0.00e+00	86	29	0	37748736	58	6552
2026-01-04 20:11:08.04	57.78	4.32	-42.3	-44.3	17.1	0.00e+00	92	29	0	39845888	58	6621
2026-01-04 20:11:09.04	57.68	4.37	-42.1	-44.0	17.6	0.00e+00	2	29	0	40894464	58	6449
2026-01-04 20:11:10.06	57.58	4.43	-42.5	-44.5	17.3	0.00e+00	92	29	0	42991616	58	6839
2026-01-04 20:11:11.06	57.48	4.48	-42.4	-44.4	17.4	0.00e+00	0	29	0	45088768	58	6751
2026-01-04 20:11:12.08	57.38	4.53	-42.0	-43.9	17.9	0.00e+00	92	29	0	47185920	58	6342
2026-01-04 20:11:13.08	57.27	4.58	-41.8	-43.7	18.0	0.00e+00	0	29	0	49283072	58	6178
2026-01-04 20:11:14.09	57.17	4.63	-41.9	-43.7	18.0	0.00e+00	92	29	0	50331648	58	6223
2026-01-04 20:11:15.10	57.07	4.68	-41.9	-43.6	18.0	0.00e+00	0	29	0	52428800	56	6924
2026-01-04 20:11:16.11	56.97	4.74	-42.0	-43.8	18.0	0.00e+00	81	29	0	54525952	56	7050
2026-01-04 20:11:17.12	56.86	4.79	-42.0	-43.8	18.0	0.00e+00	92	29	0	56623104	56	7037
2026-01-04 20:11:18.13	56.76	4.84	-41.8	-43.6	18.1	0.00e+00	82	29	0	58720256	56	6890
2026-01-04 20:11:19.14	56.65	4.89	-42.0	-43.8	17.9	0.00e+00	92	29	0	59768832	56	7025
2026-01-04 20:11:20.15	56.55	4.95	-41.7	-43.5	18.2	0.00e+00	81	29	0	61865984	56	6795
2026-01-04 20:11:21.16	56.44	5.00	-41.9	-43.6	18.0	0.00e+00	90	29	0	63963136	56	6911
2026-01-04 20:11:22.17	56.34	5.05	-41.2	-42.8	18.8	0.00e+00	0	29	0	66060288	56	6271
2026-01-04 20:11:23.18	56.23	5.10	-41.8	-43.6	18.3	0.00e+00	51	29	0	68157440	56	6863
2026-01-04 20:11:24.19	56.13	5.15	-41.2	-42.8	18.9	0.00e+00	92	29	0	70254592	56	6253
2026-01-04 20:11:25.20	56.02	5.21	-41.2	-42.8	19.0	0.00e+00	81	29	0	71303168	56	6270
2026-01-04 20:11:26.21	55.91	5.26	-41.4	-43.0	18.5	0.00e+00	92	29	0	73400320	56	6444
2026-01-04 20:11:27.22	55.80	5.31	-41.2	-42.8	18.8	0.00e+00	2	29	0	75497472	56	6246
2026-01-04 20:11:28.23	55.70	5.36	-41.6	-43.3	18.6	0.00e+00	92	29	0	77594624	56	6690
2026-01-04 20:11:29.24	55.59	5.42	-41.4	-43.1	18.8	0.00e+00	0	29	0	79691776	56	6482
2026-01-04 20:11:30.24	55.48	5.47	-41.5	-43.1	18.5	0.00e+00	92	29	0	80740352	56	6505
2026-01-04 20:11:31.26	55.37	5.52	-41.4	-43.1	18.6	0.00e+00	88	29	0	82837504	56	6480
2026-01-04 20:11:32.26	55.26	5.57	-41.2	-42.8	19.0	0.00e+00	0	29	0	84934656	56	6272
2026-01-04 20:11:33.27	55.15	5.62	-41.3	-42.9	18.8	0.00e+00	92	29	0	87031808	56	6346
2026-01-04 20:11:34.28	55.04	5.68	-41.3	-42.8	18.9	0.00e+00	0	29	0	89128960	56	6312
2026-01-04 20:11:35.29	54.93	5.73	-41.5	-43.2	18.6	0.00e+00	92	29	0	90177536	56	6556
2026-01-04 20:11:36.30	54.82	5.78	-41.8	-43.5	18.6	0.00e+00	0	29	0	92274688	56	6823
2026-01-04 20:11:37.31	54.71	5.83	-41.1	-42.6	19.2	0.00e+00	92	29	0	94371840	56	6135
2026-01-04 20:11:38.32	54.60	5.88	-41.1	-42.6	19.3	0.00e+00	0	29	0	96468992	56	6111
2026-01-04 20:11:39.33	54.48	5.94	-41.1	-42.6	19.2	0.00e+00	0	29	0	98566144	56	6136
2026-01-04 20:11:40.34	54.37	5.99	-40.9	-42.4	19.4	0.00e+00	92	29	0	99614720	56	6007
2026-01-04 20:11:41.35	54.26	6.04	-40.7	-42.2	19.6	0.00e+00	81	29	0	101711872	54	6568
2026-01-04 20:11:42.36	54.14	6.09	-40.6	-42.0	19.8	0.00e+00	92	29	0	103809024	54	6411
2026-01-04 20:11:43.37	54.03	6.15	-40.7	-42.1	19.5	0.00e+00	0	29	0	105906176	54	6523
2026-01-04 20:11:44.38	53.92	6.20	-40.4	-41.7	19.9	0.00e+00	92	29	0	108003328	54	6240
2026-01-04 20:11:45.39	53.80	6.25	-40.6	-42.0	19.8	0.00e+00	0	29	0	109051904	54	6399
2026-01-04 20:11:46.39	53.69	6.30	-40.4	-41.7	20.1	0.00e+00	0	29	0	111149056	54	6243
2026-01-04 20:11:47.41	53.57	6.35	-40.6	-42.0	19.8	0.00e+00	92	29	0	113246208	54	6432
2026-01-04 20:11:48.42	53.45	6.41	-40.6	-42.0	19.8	0.00e+00	0	29	0	115343360	54	6452
2026-01-04 20:11:49.42	53.34	6.46	-41.0	-42.5	19.3	0.00e+00	92	29	0	117440512	54	6808
2026-01-04 20:11:50.43	53.22	6.51	-40.6	-42.0	19.9	0.00e+00	7	29	0	118489088	54	6436
2026-01-04 20:11:51.44	53.10	6.56	-40.6	-42.0	19.9	0.00e+00	92	29	0	120586240	54	6395
2026-01-04 20:11:52.46	52.99	6.62	-40.9	-42.3	19.6	0.00e+00	0	29	0	122683392	54	6688
2026-01-04 20:11:53.46	52.87	6.67	-40.8	-42.2	19.6	0.00e+00	92	29	0	124780544	54	6572
2026-01-04 20:11:54.47	52.75	6.72	-41.4	-42.9	18.9	0.00e+00	25	29	0	126877696	54	7164
2026-01-04 20:11:55.48	52.63	6.77	-40.8	-42.3	19.5	0.00e+00	0	29	0	127926272	54	6658
2026-01-04 20:11:56.49	52.51	6.82	-40.7	-42.1	19.8	0.00e+00	92	29	0	130023424	54	6536
2026-01-04 20:11:57.50	52.39	6.88	-40.8	-42.2	19.7	0.00e+00	0	29	0	132120576	54	6604
2026-01-04 20:11:58.50	52.27	6.93	-41.2	-42.7	19.3	0.00e+00	92	29	0	134217728	54	6967
2026-01-04 20:11:59.51	52.15	6.98	-40.9	-42.4	19.5	0.00e+00	0	29	0	136314880	54	6716
2026-01-04 20:12:00.52	52.03	7.03	-40.8	-42.2	19.7	0.00e+00	92	29	0	138412032	54	6603
2026-01-04 20:12:01.53	51.91	7.08	-40.7	-42.1	19.7	0.00e+00	0	29	0	139460608	54	6521
2026-01-04 20:12:02.54	51.79	7.14	-40.8	-42.3	19.6	0.00e+00	0	29	0	141557760	54	6620
2026-01-04 20:12:03.55	51.66	7.19	-40.9	-42.4	19.6	0.00e+00	91	29	0	143654912	54	6709
2026-01-04 20:12:04.56	51.54	7.24	-40.6	-42.0	19.8	0.00e+00	85	29	0	145752064	54	6441
2026-01-04 20:12:05.57	51.42	7.29	-40.6	-42.0	19.9	0.00e+00	92	29	0	147849216	54	6403
2026-01-04 20:12:06.58	51.29	7.34	-40.6	-42.0	20.0	0.00e+00	0	29	0	148897792	54	6428
2026-01-04 20:12:07.59	51.17	7.40	-40.5	-41.9	20.0	0.00e+00	90	29	0	150994944	54	6347
2026-01-04 20:12:08.60	51.04	7.45	-40.5	-41.9	19.9	0.00e+00	86	29	0	153092096	54	6358
2026-01-04 20:12:09.61	50.92	7.50	-40.6	-42.0	19.9	0.00e+00	42	29	0	155189248	54	6416
2026-01-04 20:12:10.62	50.79	7.55	-40.6	-42.0	19.9	0.00e+00	92	29	0	157286400	54	6440
2026-01-04 20:12:11.63	50.67	7.60	-40.4	-41.7	20.2	0.00e+00	6	29	0	158334976	54	6221
2026-01-04 20:12:12.63	50.54	7.66	-40.6	-42.0	20.0	0.00e+00	92	29	0	160432128	54	6395
2026-01-04 20:12:13.65	50.41	7.71	-40.5	-41.9	20.1	0.00e+00	7	29	0	162529280	54	6334
2026-01-04 20:12:14.66	50.28	7.76	-40.5	-41.8	20.1	0.00e+00	92	29	0	164626432	54	6304
2026-01-04 20:12:15.67	50.16	7.81	-40.6	-42.0	19.8	0.00e+00	0	29	0	166723584	54	6413
2026-01-04 20:12:16.68	50.03	7.86	-40.6	-42.0	19.9	0.00e+00	90	29	0	167772160	54	6418
2026-01-04 20:12:17.69	49.90	7.91	-40.3	-41.7	20.3	0.00e+00	0	29	0	169869312	54	6178
2026-01-04 20:12:18.70	49.77	7.97	-40.3	-41.6	20.3	0.00e+00	0	29	0	171966464	54	6164
2026-01-04 20:12:19.71	49.64	8.02	-40.4	-41.7	20.1	0.00e+00	92	29	0	174063616	54	6240
2026-01-04 20:12:20.72	49.51	8.07	-40.4	-41.7	20.2	0.00e+00	0	29	0	176160768	54	6218
2026-01-04 20:12:21.73	49.38	8.12	-40.3	-41.6	20.2	0.00e+00	92	29	0	177209344	54	6111
2026-01-04 20:12:22.74	49.24	8.17	-40.7	-42.0	20.0	0.00e+00	0	29	0	179306496	54	6457
2026-01-04 20:12:23.75	49.11	8.22	-40.3	-41.6	20.4	0.00e+00	92	29	0	181403648	54	6168
2026-01-04 20:12:24.76	48.98	8.28	-40.4	-41.8	20.2	0.00e+00	79	29	0	183500800	54	6268
2026-01-04 20:12:25.77	48.85	8.33	-40.3	-41.6	20.3	0.00e+00	81	29	0	185597952	54	6170
2026-01-04 20:12:26.78	48.71	8.38	-40.4	-41.7	20.2	0.00e+00	92	29	0	186646528	54	6240
2026-01-04 20:12:27.79	48.58	8.43	-40.3	-41.6	20.3	0.00e+00	82	29	0	188743680	54	6154
2026-01-04 20:12:28.80	48.45	8.48	-40.3	-41.6	20.3	0.00e+00	92	29	0	190840832	54	6172
2026-01-04 20:12:29.81	48.31	8.53	-40.3	-41.6	20.4	0.00e+00	0	29	0	192937984	54	6113
2026-01-04 20:12:30.81	48.18	8.58	-40.2	-41.5	20.4	0.00e+00	91	29	0	195035136	54	6055
2026-01-04 20:12:31.82	48.04	8.63	-40.2	-41.5	20.4	0.00e+00	2	29	0	196083712	54	6101
2026-01-04 20:12:32.83	47.91	8.68	-40.3	-41.6	20.4	0.00e+00	58	29	0	198180864	54	6151
2026-01-04 20:12:33.84	47.77	8.74	-40.0	-41.3	20.6	0.00e+00	45	29	0	200278016	54	5923
2026-01-04 20:12:34.85	47.63	8.79	-40.1	-41.3	20.7	0.00e+00	0	29	0	202375168	54	5944
2026-01-04 20:12:35.86	47.49	8.84	-39.9	-41.1	20.8	0.00e+00	92	29	0	204472320	54	5807
2026-01-04 20:12:36.87	47.36	8.89	-39.9	-41.1	20.9	0.00e+00	2	29	0	206569472	54	5782
2026-01-04 20:12:37.88	47.22	8.94	-40.1	-41.3	20.7	0.00e+00	91	29	0	207618048	54	5956
2026-01-04 20:12:38.89	47.08	8.99	-40.0	-41.2	20.7	0.00e+00	0	29	0	209715200	54	5873
2026-01-04 20:12:39.90	46.94	9.04	-40.2	-41.5	20.6	0.00e+00	91	29	0	211812352	54	6035
2026-01-04 20:12:40.91	46.80	9.09	-40.2	-41.4	20.6	0.00e+00	88	29	0	213909504	54	6015
2026-01-04 20:12:41.92	46.66	9.14	-40.2	-41.4	20.6	0.00e+00	0	29	0	216006656	54	6022
2026-01-04 20:12:42.93	46.52	9.19	-40.3	-41.6	20.4	0.00e+00	91	29	0	217055232	54	6138
2026-01-04 20:12:43.94	46.37	9.24	-40.2	-41.4	20.6	0.00e+00	81	29	0	219152384	54	6016
2026-01-04 20:12:44.95	46.23	9.29	-40.1	-41.4	20.7	0.00e+00	92	29	0	221249536	54	5994
2026-01-04 20:12:45.96	46.09	9.34	-40.1	-41.4	20.5	0.00e+00	82	29	0	223346688	54	6002
2026-01-04 20:12:46.96	45.95	9.39	-40.1	-41.4	20.6	0.00e+00	92	29	0	225443840	54	6005
2026-01-04 20:12:47.97	45.80	9.44	-40.2	-41.4	20.4	0.00e+00	0	29	0	226492416	54	6006
2026-01-04 20:12:48.98	45.66	9.49	-40.5	-41.8	20.3	0.00e+00	0	29	0	228589568	54	6267
2026-01-04 20:12:49.99	45.51	9.54	-40.5	-41.9	20.3	0.00e+00	92	29	0	230686720	54	6324
2026-01-04 20:12:51.00	45.37	9.59	-40.2	-41.4	20.6	0.00e+00	0	29	0	232783872	54	6019
2026-01-04 20:12:52.01	45.22	9.64	-40.2	-41.5	20.5	0.00e+00	92	29	0	234881024	54	6063
2026-01-04 20:12:53.02	45.08	9.69	-40.1	-41.4	20.8	0.00e+00	0	29	0	235929600	54	5965
2026-01-04 20:12:54.03	44.93	9.74	-40.2	-41.4	20.6	0.00e+00	92	29	0	238026752	54	6022
2026-01-04 20:12:55.04	44.78	9.79	-40.0	-41.3	20.9	0.00e+00	0	29	0	240123904	54	5913
2026-01-04 20:12:56.05	44.64	9.84	-39.9	-41.1	21.0	0.00e+00	65	29	0	242221056	54	5816
2026-01-04 20:12:57.06	44.49	9.89	-39.8	-41.0	21.0	0.00e+00	90	29	0	244318208	52	6455
2026-01-04 20:12:58.07	44.34	9.94	-39.9	-41.1	20.9	0.00e+00	0	29	0	245366784	52	6531
2026-01-04 20:12:59.08	44.19	9.99	-39.8	-40.9	21.0	0.00e+00	92	29	0	247463936	52	6388
2026-01-04 20:13:00.08	44.04	10.04	-39.8	-41.0	21.1	0.00e+00	0	29	0	249561088	52	6421
2026-01-04 20:13:01.09	43.89	10.09	-39.6	-40.8	21.3	0.00e+00	12	29	0	251658240	52	6277
2026-01-04 20:13:02.10	43.74	10.14	-39.5	-40.7	21.3	0.00e+00	0	29	0	253755392	52	6178
2026-01-04 20:13:03.11	43.59	10.18	-39.4	-40.5	21.6	0.00e+00	81	29	0	254803968	52	6082
2026-01-04 20:13:04.12	43.44	10.23	-39.3	-40.4	21.7	0.00e+00	0	29	0	256901120	52	6022
2026-01-04 20:13:05.13	43.29	10.28	-39.3	-40.4	21.7	0.00e+00	82	29	0	258998272	52	6021
2026-01-04 20:13:06.14	43.13	10.33	-39.3	-40.4	21.6	0.00e+00	92	29	0	261095424	52	6022
2026-01-04 20:13:07.15	42.98	10.38	-39.2	-40.3	21.7	0.00e+00	0	29	0	263192576	52	5943
2026-01-04 20:13:08.16	42.83	10.43	-39.2	-40.3	21.7	0.00e+00	90	29	0	264241152	52	5952
2026-01-04 20:13:09.17	42.67	10.48	-39.1	-40.1	21.9	0.00e+00	81	29	0	266338304	52	5812
2026-01-04 20:13:10.18	42.52	10.52	-39.0	-40.1	22.0	0.00e+00	81	29	0	268435456	52	5776
2026-01-04 20:13:11.19	42.36	10.57	-38.9	-39.9	22.1	0.00e+00	9	29	0	270532608	52	5672
2026-01-04 20:13:12.19	42.21	10.62	-38.8	-39.8	22.2	0.00e+00	0	29	0	272629760	50	6315
2026-01-04 20:13:13.20	42.05	10.67	-38.7	-39.7	22.3	0.00e+00	91	29	0	274726912	50	6223
2026-01-04 20:13:14.21	41.89	10.71	-39.0	-40.0	22.1	0.00e+00	0	29	0	275775488	50	6455
2026-01-04 20:13:15.22	41.73	10.76	-38.8	-39.9	22.3	0.00e+00	0	29	0	277872640	50	6338
2026-01-04 20:13:16.23	41.58	10.81	-38.8	-39.9	22.2	0.00e+00	0	29	0	279969792	50	6331
2026-01-04 20:13:17.24	41.42	10.86	-38.8	-39.8	22.2	0.00e+00	0	29	0	282066944	50	6306
2026-01-04 20:13:18.25	41.26	10.90	-38.5	-39.5	22.5	0.00e+00	0	29	0	284164096	50	6086
2026-01-04 20:13:19.26	41.10	10.95	-38.6	-39.6	22.4	0.00e+00	0	29	0	285212672	50	6151
2026-01-04 20:13:20.27	40.94	11.00	-38.6	-39.6	22.4	0.00e+00	90	29	0	287309824	50	6130
2026-01-04 20:13:21.28	40.78	11.04	-38.7	-39.7	22.2	0.00e+00	0	29	0	289406976	50	6236
2026-01-04 20:13:22.29	40.62	11.09	-38.7	-39.7	22.3	0.00e+00	92	29	0	291504128	50	6240
2026-01-04 20:13:23.30	40.46	11.14	-38.7	-39.7	22.3	0.00e+00	2	29	0	292552704	50	6191
2026-01-04 20:13:24.31	40.29	11.18	-38.5	-39.5	22.6	0.00e+00	15	29	0	294649856	50	6087
2026-01-04 20:13:25.32	40.13	11.23	-38.3	-39.3	22.7	0.00e+00	81	29	0	296747008	50	5903
2026-01-04 20:13:26.33	39.97	11.28	-38.4	-39.4	22.7	0.00e+00	81	29	0	298844160	50	5989
2026-01-04 20:13:27.34	39.80	11.32	-38.5	-39.5	22.5	0.00e+00	2	29	0	300941312	50	6091
2026-01-04 20:13:28.35	39.64	11.37	-38.3	-39.3	22.7	0.00e+00	0	29	0	303038464	50	5936
2026-01-04 20:13:29.36	39.48	11.41	-38.2	-39.2	22.8	0.00e+00	91	29	0	304087040	50	5836
2026-01-04 20:13:30.37	39.31	11.46	-38.1	-39.1	23.0	0.00e+00	0	29	0	306184192	50	5769
2026-01-04 20:13:31.37	39.15	11.50	-38.2	-39.1	22.9	0.00e+00	0	29	0	308281344	50	5812
2026-01-04 20:13:32.39	38.98	11.55	-38.1	-39.1	23.0	0.00e+00	0	29	0	310378496	50	5763
2026-01-04 20:13:33.39	38.81	11.59	-38.2	-39.2	22.9	0.00e+00	0	29	0	312475648	50	5863
2026-01-04 20:13:34.40	38.64	11.64	-38.1	-39.1	23.0	0.00e+00	0	29	0	313524224	50	5765
2026-01-04 20:13:35.41	38.48	11.68	-38.2	-39.1	22.9	0.00e+00	5	29	0	315621376	50	5825
2026-01-04 20:13:36.42	38.31	11.73	-38.0	-39.0	22.9	0.00e+00	92	29	0	317718528	50	5719
2026-01-04 20:13:37.43	38.14	11.77	-38.0	-38.9	23.1	0.00e+00	0	29	0	319815680	50	5679
2026-01-04 20:13:38.44	37.97	11.82	-37.9	-38.8	23.2	0.00e+00	30	29	0	321912832	50	5600
2026-01-04 20:13:39.45	37.80	11.86	-37.8	-38.7	23.3	0.00e+00	0	29	0	322961408	50	5554
2026-01-04 20:13:40.46	37.63	11.91	-37.7	-38.7	23.2	0.00e+00	6	29	0	325058560	48	6190
2026-01-04 20:13:41.47	37.46	11.95	-37.7	-38.6	22.9	0.00e+00	0	29	0	327155712	48	6137
2026-01-04 20:13:42.48	37.29	11.99	-37.7	-38.6	23.4	0.00e+00	7	29	0	329252864	48	6128
2026-01-04 20:13:43.48	37.12	12.04	-37.7	-38.6	23.4	0.00e+00	85	29	0	331350016	48	6138
2026-01-04 20:13:44.49	36.94	12.08	-37.6	-38.5	23.4	0.00e+00	5	29	0	332398592	48	6077
2026-01-04 20:13:45.50	36.77	12.12	-37.6	-38.5	23.5	0.00e+00	92	29	0	334495744	48	6095
2026-01-04 20:13:46.51	36.60	12.17	-37.6	-38.5	23.5	0.00e+00	86	29	0	336592896	48	6079
2026-01-04 20:13:47.53	36.42	12.21	-37.6	-38.6	23.5	0.00e+00	0	29	0	338690048	48	6106
2026-01-04 20:13:48.53	36.25	12.25	-37.7	-38.6	23.4	0.00e+00	85	29	0	340787200	48	6133
2026-01-04 20:13:49.55	36.07	12.29	-37.7	-38.6	23.4	0.00e+00	86	29	0	341835776	48	6142
2026-01-04 20:13:50.56	35.90	12.34	-37.9	-38.8	23.2	0.00e+00	66	29	0	343932928	48	6270
2026-01-04 20:13:51.56	35.72	12.38	-37.9	-38.8	23.2	0.00e+00	86	29	0	346030080	48	6315
2026-01-04 20:13:52.57	35.55	12.42	-37.9	-38.8	23.2	0.00e+00	92	29	0	348127232	48	6281
2026-01-04 20:13:53.58	35.37	12.46	-38.1	-39.0	23.0	0.00e+00	0	29	0	350224384	48	6464
2026-01-04 20:13:54.59	35.19	12.50	-38.1	-39.0	23.1	0.00e+00	3	29	0	351272960	48	6456
2026-01-04 20:13:55.60	35.01	12.54	-38.2	-39.2	22.9	0.00e+00	6	29	0	353370112	48	6546
2026-01-04 20:13:56.61	34.83	12.58	-38.1	-39.1	23.0	0.00e+00	0	29	0	355467264	48	6480
2026-01-04 20:13:57.62	34.65	12.63	-38.2	-39.2	22.6	0.00e+00	0	29	0	357564416	48	6559
2026-01-04 20:13:58.63	34.47	12.67	-38.0	-38.9	23.1	0.00e+00	6	29	0	359661568	48	6376
2026-01-04 20:13:59.64	34.29	12.71	-38.1	-39.1	23.0	0.00e+00	90	29	0	360710144	48	6483
2026-01-04 20:14:00.64	34.12	12.75	-38.2	-39.2	22.9	0.00e+00	0	29	0	362807296	48	6555
2026-01-04 20:14:01.65	33.93	12.79	-38.3	-39.3	22.7	0.00e+00	91	29	0	364904448	48	6657
2026-01-04 20:14:02.66	33.75	12.83	-38.4	-39.4	22.7	0.00e+00	0	29	0	367001600	48	6723
2026-01-04 20:14:03.66	33.57	12.86	-38.3	-39.2	22.7	0.00e+00	0	29	0	369098752	48	6614
2026-01-04 20:14:04.67	33.39	12.90	-38.2	-39.1	23.0	0.00e+00	5	29	0	371195904	48	6519
2026-01-04 20:14:05.68	33.21	12.94	-38.3	-39.2	23.0	0.00e+00	0	29	0	372244480	48	6606
2026-01-04 20:14:06.69	33.02	12.98	-38.3	-39.3	22.8	0.00e+00	83	29	0	374341632	48	6627
2026-01-04 20:14:07.70	32.84	13.02	-38.2	-39.1	23.0	0.00e+00	81	29	0	376438784	48	6514
2026-01-04 20:14:08.71	32.65	13.06	-38.1	-39.1	23.0	0.00e+00	92	29	0	378535936	48	6482
2026-01-04 20:14:09.72	32.47	13.10	-38.0	-39.0	23.1	0.00e+00	81	29	0	380633088	48	6407
2026-01-04 20:14:10.73	32.28	13.13	-38.1	-39.1	22.9	0.00e+00	81	29	0	381681664	48	6471
2026-01-04 20:14:11.74	32.10	13.17	-38.1	-39.1	22.6	0.00e+00	0	29	0	383778816	48	6502
2026-01-04 20:14:12.75	31.91	13.21	-38.0	-38.9	23.0	0.00e+00	0	29	0	385875968	48	6375
2026-01-04 20:14:13.76	31.72	13.25	-38.0	-38.9	23.2	0.00e+00	0	29	0	387973120	48	6357
2026-01-04 20:14:14.77	31.54	13.28	-38.0	-39.0	23.1	0.00e+00	0	29	0	390070272	48	6411
2026-01-04 20:14:15.78	31.35	13.32	-38.0	-38.9	23.0	0.00e+00	92	29	0	391118848	48	6389
2026-01-04 20:14:16.78	31.16	13.36	-38.0	-38.9	23.2	0.00e+00	0	29	0	393216000	48	6361
2026-01-04 20:14:17.79	30.97	13.39	-38.0	-38.9	23.2	0.00e+00	92	29	0	395313152	48	6380
2026-01-04 20:14:18.80	30.78	13.43	-37.9	-38.8	23.2	0.00e+00	0	29	0	397410304	48	6300
2026-01-04 20:14:19.81	30.59	13.46	-37.8	-38.7	23.3	0.00e+00	0	29	0	399507456	48	6207
2026-01-04 20:14:20.82	30.40	13.50	-38.2	-39.1	23.3	0.00e+00	0	29	0	400556032	48	6530
2026-01-04 20:14:21.83	30.21	13.53	-37.9	-38.8	23.3	0.00e+00	0	29	0	402653184	48	6291
2026-01-04 20:14:22.84	30.02	13.57	-37.9	-38.8	23.3	0.00e+00	92	29	0	404750336	48	6290
2026-01-04 20:14:23.85	29.83	13.60	-37.9	-38.8	23.2	0.00e+00	2	29	0	406847488	48	6273
2026-01-04 20:14:24.86	29.64	13.64	-37.9	-38.9	23.4	0.00e+00	90	29	0	408944640	48	6320
2026-01-04 20:14:25.87	29.45	13.67	-37.9	-38.8	23.2	0.00e+00	0	29	0	409993216	48	6260
2026-01-04 20:14:26.88	29.25	13.71	-37.7	-38.6	23.0	0.00e+00	0	29	0	412090368	48	6104
2026-01-04 20:14:27.89	29.06	13.74	-38.1	-39.0	23.1	0.00e+00	0	29	0	414187520	48	6430
2026-01-04 20:14:28.90	28.86	13.77	-37.7	-38.6	23.4	0.00e+00	81	29	0	416284672	48	6139
2026-01-04 20:14:29.91	28.67	13.81	-37.9	-38.8	23.3	0.00e+00	91	29	0	418381824	48	6298
2026-01-04 20:14:30.92	28.48	13.84	-37.7	-38.7	23.5	0.00e+00	82	29	0	419430400	48	6183
2026-01-04 20:14:31.93	28.28	13.87	-37.5	-38.4	23.5	0.00e+00	92	29	0	421527552	48	6019
2026-01-04 20:14:32.94	28.08	13.90	-37.5	-38.4	23.6	0.00e+00	80	29	0	423624704	48	5989
2026-01-04 20:14:33.95	27.89	13.93	-37.5	-38.4	23.7	0.00e+00	82	29	0	425721856	48	6019
2026-01-04 20:14:34.95	27.69	13.96	-37.6	-38.5	23.6	0.00e+00	0	29	0	427819008	48	6057
2026-01-04 20:14:35.96	27.50	14.00	-37.5	-38.4	23.5	0.00e+00	81	29	0	428867584	48	6015
2026-01-04 20:14:36.97	27.30	14.03	-37.6	-38.5	23.5	0.00e+00	0	29	0	430964736	48	6080
2026-01-04 20:14:37.98	27.10	14.06	-37.5	-38.5	23.6	0.00e+00	0	29	0	433061888	48	6037
2026-01-04 20:14:38.99	26.90	14.09	-37.6	-38.5	23.7	0.00e+00	92	29	0	435159040	48	6051
2026-01-04 20:14:40.00	26.71	14.12	-37.4	-38.3	23.8	0.00e+00	0	29	0	437256192	48	5924
2026-01-04 20:14:41.01	26.51	14.15	-37.5	-38.4	23.6	0.00e+00	92	29	0	439353344	48	6009
2026-01-04 20:14:42.02	26.31	14.18	-37.7	-38.6	23.4	0.00e+00	0	29	0	440401920	48	6117
2026-01-04 20:14:43.03	26.11	14.21	-37.7	-38.7	23.3	0.00e+00	0	29	0	442499072	48	6184
2026-01-04 20:14:44.04	25.91	14.23	-37.6	-38.5	23.6	0.00e+00	0	29	0	444596224	48	6073
2026-01-04 20:14:45.05	25.71	14.26	-37.6	-38.5	23.6	0.00e+00	0	29	0	446693376	48	6066
2026-01-04 20:14:46.06	25.51	14.29	-37.3	-38.2	23.8	0.00e+00	90	29	0	448790528	48	5875
2026-01-04 20:14:47.06	25.31	14.32	-37.5	-38.4	23.6	0.00e+00	0	29	0	449839104	48	6012
2026-01-04 20:14:48.07	25.11	14.35	-37.7	-38.6	23.5	0.00e+00	92	29	0	451936256	48	6137
2026-01-04 20:14:49.08	24.90	14.37	-37.7	-38.7	23.4	0.00e+00	2	29	0	454033408	48	6178
2026-01-04 20:14:50.09	24.70	14.40	-37.8	-38.7	23.4	0.00e+00	0	29	0	456130560	48	6218
2026-01-04 20:14:51.10	24.50	14.43	-37.8	-38.7	23.4	0.00e+00	0	29	0	457179136	48	6199
2026-01-04 20:14:52.11	24.30	14.45	-37.8	-38.7	23.2	0.00e+00	0	29	0	459276288	48	6186
2026-01-04 20:14:53.12	24.09	14.48	-37.8	-38.7	23.4	0.00e+00	13	29	0	461373440	48	6199
2026-01-04 20:14:54.13	23.89	14.50	-38.0	-38.9	23.2	0.00e+00	81	29	0	463470592	48	6359
2026-01-04 20:14:55.13	23.69	14.53	-38.0	-38.9	23.2	0.00e+00	90	29	0	465567744	48	6353
2026-01-04 20:14:56.14	23.48	14.55	-38.0	-39.0	23.2	0.00e+00	81	29	0	467664896	48	6395
2026-01-04 20:14:57.15	23.28	14.58	-38.1	-39.0	23.1	0.00e+00	90	29	0	468713472	48	6423
2026-01-04 20:14:58.16	23.07	14.60	-38.1	-39.0	23.1	0.00e+00	0	29	0	470810624	48	6441
2026-01-04 20:14:59.17	22.87	14.63	-38.0	-38.9	23.2	0.00e+00	0	29	0	472907776	48	6342
2026-01-04 20:15:00.18	22.66	14.65	-37.9	-38.9	23.2	0.00e+00	81	29	0	475004928	48	6335
2026-01-04 20:15:01.19	22.45	14.67	-38.1	-39.0	23.2	0.00e+00	0	29	0	477102080	48	6428
2026-01-04 20:15:02.20	22.25	14.69	-38.2	-39.1	23.0	0.00e+00	92	29	0	478150656	48	6515
2026-01-04 20:15:03.21	22.04	14.72	-38.3	-39.3	22.9	0.00e+00	0	29	0	480247808	48	6654
2026-01-04 20:15:04.22	21.83	14.74	-38.5	-39.5	22.6	0.00e+00	90	29	0	482344960	48	6779
2026-01-04 20:15:05.23	21.63	14.76	-38.4	-39.4	22.7	0.00e+00	0	29	0	484442112	48	6704
2026-01-04 20:15:06.24	21.42	14.78	-38.4	-39.4	22.8	0.00e+00	0	29	0	486539264	48	6744
2026-01-04 20:15:07.25	21.21	14.80	-38.5	-39.5	22.5	0.00e+00	0	29	0	487587840	48	6800
2026-01-04 20:15:08.25	21.00	14.82	-38.6	-39.6	22.5	0.00e+00	0	29	0	489684992	50	6167
2026-01-04 20:15:09.26	20.79	14.84	-38.4	-39.4	22.8	0.00e+00	92	29	0	491782144	50	6008
2026-01-04 20:15:10.27	20.59	14.86	-38.5	-39.5	22.7	0.00e+00	0	29	0	493879296	50	6047
2026-01-04 20:15:11.28	20.38	14.88	-38.4	-39.4	22.8	0.00e+00	92	29	0	495976448	50	6025
2026-01-04 20:15:12.29	20.17	14.90	-38.3	-39.3	22.8	0.00e+00	0	29	0	497025024	50	5923
2026-01-04 20:15:13.30	19.96	14.92	-38.3	-39.3	22.9	0.00e+00	69	29	0	499122176	50	5907
2026-01-04 20:15:14.31	19.75	14.94	-38.3	-39.2	22.9	0.00e+00	0	29	0	501219328	50	5881
2026-01-04 20:15:15.32	19.54	14.96	-38.3	-39.3	22.8	0.00e+00	0	29	0	503316480	50	5924
2026-01-04 20:15:16.33	19.33	14.97	-38.3	-39.3	22.7	0.00e+00	0	29	0	505413632	50	5931
2026-01-04 20:15:17.34	19.12	14.99	-38.2	-39.2	22.8	0.00e+00	0	29	0	506462208	50	5835
2026-01-04 20:15:18.35	18.91	15.01	-38.1	-39.0	23.2	0.00e+00	92	29	0	508559360	50	5735
2026-01-04 20:15:19.36	18.69	15.02	-38.2	-39.1	23.2	0.00e+00	0	29	0	510656512	50	5793
2026-01-04 20:15:20.36	18.48	15.04	-37.9	-38.8	23.3	0.00e+00	58	29	0	512753664	50	5604
2026-01-04 20:15:21.37	18.27	15.06	-37.9	-38.8	23.3	0.00e+00	0	29	0	514850816	50	5596
2026-01-04 20:15:22.38	18.06	15.07	-37.9	-38.9	23.3	0.00e+00	0	29	0	515899392	50	5640
2026-01-04 20:15:23.39	17.85	15.09	-38.0	-38.9	23.2	0.00e+00	2	29	0	517996544	50	5688
2026-01-04 20:15:24.40	17.64	15.10	-38.0	-38.9	23.3	0.00e+00	0	29	0	520093696	50	5668
2026-01-04 20:15:25.41	17.42	15.12	-38.3	-39.3	22.9	0.00e+00	92	29	0	522190848	50	5912
2026-01-04 20:15:26.42	17.21	15.13	-38.1	-39.0	23.1	0.00e+00	0	29	0	524288000	50	5761
2026-01-04 20:15:27.43	17.00	15.14	-38.1	-39.1	23.1	0.00e+00	91	29	0	525336576	50	5774
2026-01-04 20:15:28.44	16.79	15.16	-38.3	-39.3	22.9	0.00e+00	0	29	0	527433728	50	5912
2026-01-04 20:15:29.45	16.57	15.17	-38.1	-39.0	22.8	0.00e+00	5	29	0	529530880	50	5748
2026-01-04 20:15:30.46	16.36	15.18	-38.0	-38.9	23.1	0.00e+00	6	29	0	531628032	50	5686
2026-01-04 20:15:31.47	16.14	15.19	-38.1	-39.0	23.2	0.00e+00	0	29	0	533725184	50	5721
2026-01-04 20:15:32.48	15.93	15.20	-38.1	-39.1	23.1	0.00e+00	92	29	0	535822336	50	5777
2026-01-04 20:15:33.49	15.72	15.21	-38.1	-39.1	23.1	0.00e+00	0	29	0	536870912	50	5779
2026-01-04 20:15:34.50	15.50	15.22	-38.2	-39.2	23.0	0.00e+00	92	29	0	538968064	50	5834
2026-01-04 20:15:35.51	15.29	15.24	-38.2	-39.1	23.1	0.00e+00	81	29	0	541065216	50	5812
2026-01-04 20:15:36.52	15.07	15.24	-38.4	-39.3	23.1	0.00e+00	0	29	0	543162368	50	5963
2026-01-04 20:15:37.53	14.86	15.25	-38.2	-39.1	23.1	0.00e+00	0	29	0	545259520	50	5816
2026-01-04 20:15:38.54	14.65	15.26	-38.1	-39.0	23.2	0.00e+00	0	29	0	546308096	50	5721
2026-01-04 20:15:39.55	14.43	15.27	-38.0	-39.0	23.2	0.00e+00	83	29	0	548405248	50	5701
2026-01-04 20:15:40.55	14.22	15.28	-38.2	-39.1	23.0	0.00e+00	5	29	0	550502400	50	5812
2026-01-04 20:15:41.56	14.00	15.29	-38.3	-39.3	22.8	0.00e+00	90	29	0	552599552	50	5915
2026-01-04 20:15:42.57	13.79	15.30	-38.3	-39.3	23.0	0.00e+00	82	29	0	554696704	50	5920
2026-01-04 20:15:43.58	13.57	15.30	-38.4	-39.3	22.9	0.00e+00	92	29	0	555745280	50	5963
2026-01-04 20:15:44.59	13.36	15.31	-38.3	-39.3	22.8	0.00e+00	86	29	0	557842432	50	5927
2026-01-04 20:15:45.60	13.14	15.32	-38.1	-39.1	23.2	0.00e+00	7	29	0	559939584	50	5772
2026-01-04 20:15:46.61	12.93	15.32	-38.0	-39.0	23.2	0.00e+00	0	29	0	562036736	50	5703
2026-01-04 20:15:47.62	12.71	15.33	-38.0	-38.9	23.3	0.00e+00	7	29	0	564133888	50	5690
2026-01-04 20:15:48.63	12.49	15.33	-38.0	-38.9	23.1	0.00e+00	92	29	0	565182464	50	5695
2026-01-04 20:15:49.64	12.28	15.34	-38.3	-39.3	23.0	0.00e+00	1	29	0	567279616	50	5930
2026-01-04 20:15:50.65	12.06	15.34	-38.3	-39.2	23.0	0.00e+00	92	29	0	569376768	50	5891
2026-01-04 20:15:51.66	11.85	15.34	-38.5	-39.4	22.9	0.00e+00	6	29	0	571473920	50	6028
2026-01-04 20:15:52.67	11.63	15.35	-38.3	-39.3	22.7	0.00e+00	0	29	0	573571072	50	5943
2026-01-04 20:15:53.68	11.41	15.35	-38.4	-39.4	22.7	0.00e+00	0	29	0	574619648	50	6013
2026-01-04 20:15:54.69	11.20	15.35	-38.3	-39.3	23.0	0.00e+00	7	29	0	576716800	50	5903
2026-01-04 20:15:55.70	10.98	15.35	-38.3	-39.2	23.2	0.00e+00	92	29	0	578813952	50	5868
2026-01-04 20:15:56.71	10.77	15.36	-38.1	-39.1	23.1	0.00e+00	82	29	0	580911104	50	5785
2026-01-04 20:15:57.72	10.55	15.36	-38.4	-39.4	22.8	0.00e+00	92	29	0	583008256	50	6014
2026-01-04 20:15:58.73	10.33	15.36	-38.3	-39.3	22.9	0.00e+00	0	29	0	584056832	50	5910
2026-01-04 20:15:59.74	10.12	15.36	-38.4	-39.4	22.8	0.00e+00	39	29	0	586153984	50	6016
2026-01-04 20:16:00.75	9.90	15.36	-38.6	-39.5	22.8	0.00e+00	0	29	0	588251136	50	6091
2026-01-04 20:16:01.76	9.69	15.36	-38.2	-39.1	23.0	0.00e+00	81	29	0	590348288	50	5823
2026-01-04 20:16:02.77	9.47	15.36	-38.4	-39.4	22.9	0.00e+00	0	29	0	592445440	50	5982
2026-01-04 20:16:03.78	9.25	15.36	-38.1	-39.1	23.0	0.00e+00	0	29	0	593494016	50	5776
2026-01-04 20:16:04.78	9.04	15.35	-38.1	-39.1	23.0	0.00e+00	92	29	0	595591168	50	5782
2026-01-04 20:16:05.79	8.82	15.35	-38.0	-38.9	23.1	0.00e+00	0	29	0	597688320	50	5671
2026-01-04 20:16:06.80	8.61	15.35	-38.0	-39.0	23.2	0.00e+00	92	29	0	599785472	50	5707
2026-01-04 20:16:07.81	8.39	15.35	-37.9	-38.8	23.0	0.00e+00	2	29	0	601882624	50	5625
2026-01-04 20:16:08.82	8.18	15.34	-38.2	-39.1	23.0	0.00e+00	0	29	0	603979776	50	5816
2026-01-04 20:16:09.83	7.96	15.34	-38.1	-39.1	23.0	0.00e+00	0	29	0	605028352	50	5784
2026-01-04 20:16:10.84	7.74	15.34	-38.2	-39.2	22.8	0.00e+00	0	29	0	607125504	50	5844
2026-01-04 20:16:11.85	7.53	15.33	-38.4	-39.4	22.7	0.00e+00	91	29	0	609222656	50	5993
2026-01-04 20:16:12.86	7.31	15.33	-38.5	-39.4	22.8	0.00e+00	0	29	0	611319808	50	6026
2026-01-04 20:16:13.87	7.10	15.32	-38.3	-39.3	22.8	0.00e+00	90	29	0	613416960	50	5925
2026-01-04 20:16:14.88	6.88	15.32	-38.3	-39.3	22.9	0.00e+00	0	29	0	614465536	50	5912
2026-01-04 20:16:15.89	6.67	15.31	-38.4	-39.3	22.8	0.00e+00	0	29	0	616562688	50	5947
2026-01-04 20:16:16.90	6.45	15.30	-38.4	-39.4	22.8	0.00e+00	0	29	0	618659840	50	5973
2026-01-04 20:16:17.91	6.24	15.30	-38.3	-39.3	22.9	0.00e+00	0	29	0	620756992	50	5929
2026-01-04 20:16:18.92	6.02	15.29	-38.3	-39.3	22.7	0.00e+00	92	29	0	622854144	50	5948
2026-01-04 20:16:19.93	5.81	15.28	-38.5	-39.5	22.7	0.00e+00	0	29	0	623902720	50	6045
2026-01-04 20:16:20.94	5.59	15.27	-38.2	-39.2	22.9	0.00e+00	92	29	0	625999872	50	5844
2026-01-04 20:16:21.95	5.38	15.26	-38.2	-39.2	23.0	0.00e+00	81	29	0	628097024	50	5870
2026-01-04 20:16:22.96	5.16	15.26	-38.4	-39.4	22.9	0.00e+00	0	29	0	630194176	50	5990
2026-01-04 20:16:23.96	4.95	15.25	-38.4	-39.3	23.0	0.00e+00	0	29	0	632291328	50	5947
2026-01-04 20:16:24.98	4.73	15.24	-38.1	-39.1	23.1	0.00e+00	0	29	0	633339904	50	5782
2026-01-04 20:16:25.98	4.52	15.23	-38.1	-39.1	23.1	0.00e+00	0	29	0	635437056	50	5769
2026-01-04 20:16:26.99	4.31	15.22	-38.3	-39.3	23.0	0.00e+00	4	29	0	637534208	50	5925
2026-01-04 20:16:28.00	4.09	15.21	-38.2	-39.2	22.9	0.00e+00	92	29	0	639631360	50	5857
2026-01-04 20:16:29.01	3.88	15.19	-38.4	-39.4	22.5	0.00e+00	0	29	0	641728512	50	6028
2026-01-04 20:16:30.02	3.66	15.18	-38.5	-39.5	22.7	0.00e+00	92	29	0	642777088	50	6062
2026-01-04 20:16:31.03	3.45	15.17	-38.5	-39.5	22.7	0.00e+00	0	29	0	644874240	50	6064
2026-01-04 20:16:32.04	3.24	15.16	-38.7	-39.7	22.5	0.00e+00	0	29	0	646971392	50	6232
2026-01-04 20:16:33.05	3.02	15.14	-38.4	-39.4	22.9	0.00e+00	0	29	0	649068544	50	6018
2026-01-04 20:16:34.06	2.81	15.13	-38.2	-39.2	22.9	0.00e+00	0	29	0	651165696	50	5857
2026-01-04 20:16:35.07	2.60	15.12	-38.2	-39.2	23.0	0.00e+00	92	29	0	652214272	50	5844
2026-01-04 20:16:36.07	2.39	15.10	-38.2	-39.2	22.9	0.00e+00	0	29	0	654311424	50	5862
2026-01-04 20:16:37.08	2.18	15.09	-38.2	-39.2	23.0	0.00e+00	92	29	0	656408576	50	5846
2026-01-04 20:16:38.09	1.96	15.07	-38.2	-39.2	23.0	0.00e+00	0	29	0	658505728	50	5837
2026-01-04 20:16:39.10	1.75	15.06	-37.9	-38.9	23.3	0.00e+00	0	29	0	660602880	50	5631
2026-01-04 20:16:40.11	1.54	15.04	-37.9	-38.8	23.2	0.00e+00	81	29	0	661651456	50	5620
2026-01-04 20:16:41.12	1.33	15.03	-37.9	-38.9	23.2	0.00e+00	0	29	0	663748608	50	5652
2026-01-04 20:16:42.13	1.12	15.01	-38.1	-39.0	23.0	0.00e+00	72	29	0	665845760	50	5755
2026-01-04 20:16:43.14	0.91	14.99	-37.9	-38.9	23.2	0.00e+00	0	29	0	667942912	50	5636
2026-01-04 20:16:44.15	0.70	14.98	-37.9	-38.8	23.2	0.00e+00	90	29	0	670040064	50	5625
2026-01-04 20:16:45.16	0.49	14.96	-37.8	-38.7	23.3	0.00e+00	0	29	0	672137216	50	5560
2026-01-04 20:16:46.17	0.28	14.94	-37.8	-38.7	23.4	0.00e+00	14	29	0	673185792	48	6196
2026-01-04 20:16:47.18	0.07	14.92	-37.7	-38.6	23.4	0.00e+00	82	29	0	675282944	48	6169
2026-01-04 20:16:48.19	359.86	14.91	-37.6	-38.6	23.5	0.00e+00	0	29	0	677380096	48	6113
2026-01-04 20:16:49.20	359.65	14.89	-37.9	-38.8	23.3	0.00e+00	70	29	0	679477248	48	6296
2026-01-04 20:16:50.21	359.44	14.87	-37.8	-38.7	23.4	0.00e+00	0	29	0	681574400	48	6183
2026-01-04 20:16:51.22	359.23	14.85	-37.9	-38.8	23.3	0.00e+00	90	29	0	682622976	48	6286
2026-01-04 20:16:52.23	359.02	14.83	-37.9	-38.8	23.2	0.00e+00	0	29	0	684720128	48	6286
2026-01-04 20:16:53.24	358.81	14.81	-37.9	-38.8	23.2	0.00e+00	90	29	0	686817280	48	6312
2026-01-04 20:16:54.25	358.60	14.79	-37.8	-38.7	23.2	0.00e+00	0	29	0	688914432	48	6236
2026-01-04 20:16:55.26	358.40	14.76	-37.9	-38.8	23.2	0.00e+00	2	29	0	691011584	48	6272
2026-01-04 20:16:56.27	358.19	14.74	-37.8	-38.8	23.2	0.00e+00	0	29	0	692060160	48	6267
2026-01-04 20:16:57.28	357.98	14.72	-38.0	-38.9	23.0	0.00e+00	0	29	0	694157312	48	6358
2026-01-04 20:16:58.29	357.78	14.70	-38.0	-38.9	23.2	0.00e+00	92	29	0	696254464	48	6380
2026-01-04 20:16:59.29	357.57	14.68	-38.0	-38.9	23.1	0.00e+00	0	29	0	698351616	48	6374
2026-01-04 20:17:00.30	357.36	14.65	-37.9	-38.8	23.3	0.00e+00	92	29	0	700448768	48	6306
2026-01-04 20:17:01.31	357.16	14.63	-38.0	-38.9	23.2	0.00e+00	0	29	0	701497344	48	6375
2026-01-04 20:17:02.32	356.95	14.61	-38.0	-38.9	23.2	0.00e+00	0	29	0	703594496	48	6357
2026-01-04 20:17:03.33	356.75	14.58	-38.1	-39.0	23.0	0.00e+00	82	29	0	705691648	48	6437
2026-01-04 20:17:04.34	356.54	14.56	-38.1	-39.1	23.0	0.00e+00	81	29	0	707788800	48	6506
2026-01-04 20:17:05.35	356.34	14.53	-38.2	-39.1	22.9	0.00e+00	12	29	0	709885952	48	6518
2026-01-04 20:17:06.36	356.14	14.51	-38.2	-39.2	22.8	0.00e+00	0	29	0	710934528	48	6588
2026-01-04 20:17:07.37	355.93	14.48	-38.1	-39.1	22.9	0.00e+00	92	29	0	713031680	48	6471
2026-01-04 20:17:08.38	355.73	14.46	-38.0	-39.0	23.0	0.00e+00	80	29	0	715128832	48	6401
2026-01-04 20:17:09.39	355.52	14.43	-38.0	-38.9	23.1	0.00e+00	90	29	0	717225984	48	6346
2026-01-04 20:17:10.40	355.32	14.40	-38.0	-39.0	23.0	0.00e+00	2	29	0	719323136	48	6400
2026-01-04 20:17:11.41	355.12	14.38	-38.1	-39.1	22.9	0.00e+00	1	29	0	720371712	48	6506
2026-01-04 20:17:12.42	354.92	14.35	-38.4	-39.4	22.9	0.00e+00	0	29	0	722468864	48	6745
2026-01-04 20:17:13.43	354.72	14.32	-38.3	-39.2	22.9	0.00e+00	6	29	0	724566016	48	6610
2026-01-04 20:17:14.43	354.52	14.30	-38.3	-39.2	22.8	0.00e+00	92	29	0	726663168	48	6603
2026-01-04 20:17:15.44	354.32	14.27	-38.2	-39.2	22.9	0.00e+00	0	29	0	728760320	48	6548
2026-01-04 20:17:16.45	354.12	14.24	-38.2	-39.2	22.9	0.00e+00	11	29	0	729808896	48	6549
2026-01-04 20:17:17.46	353.92	14.21	-38.1	-39.1	22.9	0.00e+00	6	29	0	731906048	48	6485
2026-01-04 20:17:18.47	353.72	14.18	-38.2	-39.1	22.9	0.00e+00	0	29	0	734003200	48	6530
2026-01-04 20:17:19.48	353.52	14.15	-38.3	-39.3	22.9	0.00e+00	0	29	0	736100352	48	6619
2026-01-04 20:17:20.49	353.32	14.12	-38.3	-39.3	22.8	0.00e+00	0	29	0	738197504	48	6652
2026-01-04 20:17:21.50	353.12	14.09	-38.3	-39.3	22.8	0.00e+00	92	29	0	740294656	48	6623
2026-01-04 20:17:22.51	352.92	14.06	-38.4	-39.5	22.6	0.00e+00	86	29	0	741343232	48	6775
2026-01-04 20:17:23.52	352.72	14.03	-38.2	-39.1	22.9	0.00e+00	91	29	0	743440384	48	6526
2026-01-04 20:17:24.53	352.53	14.00	-38.1	-39.0	23.1	0.00e+00	0	29	0	745537536	48	6452
2026-01-04 20:17:25.54	352.33	13.97	-37.9	-38.8	23.2	0.00e+00	85	29	0	747634688	48	6280
2026-01-04 20:17:26.55	352.13	13.94	-37.8	-38.7	23.3	0.00e+00	0	29	0	748683264	48	6206
2026-01-04 20:17:27.56	351.94	13.91	-37.9	-38.8	23.3	0.00e+00	7	29	0	750780416	48	6278
2026-01-04 20:17:28.57	351.74	13.88	-37.8	-38.7	23.3	0.00e+00	92	29	0	752877568	48	6201
2026-01-04 20:17:29.58	351.55	13.84	-37.8	-38.7	23.3	0.00e+00	0	29	0	754974720	48	6208
2026-01-04 20:17:30.59	351.35	13.81	-37.8	-38.8	23.2	0.00e+00	92	29	0	757071872	48	6250
2026-01-04 20:17:31.60	351.16	13.78	-37.8	-38.8	22.9	0.00e+00	83	29	0	758120448	48	6248
2026-01-04 20:17:32.60	350.97	13.75	-37.8	-38.7	23.2	0.00e+00	6	29	0	760217600	48	6235
2026-01-04 20:17:33.61	350.77	13.71	-37.9	-38.8	23.0	0.00e+00	1	29	0	762314752	48	6291
2026-01-04 20:17:34.62	350.58	13.68	-37.9	-38.9	22.8	0.00e+00	7	29	0	764411904	48	6330
2026-01-04 20:17:35.63	350.39	13.64	-38.0	-39.0	22.9	0.00e+00	0	29	0	766509056	48	6393
2026-01-04 20:17:36.64	350.20	13.61	-38.2	-39.1	22.9	0.00e+00	5	29	0	768606208	48	6521
2026-01-04 20:17:37.65	350.00	13.58	-38.0	-38.9	23.0	0.00e+00	91	29	0	769654784	48	6351
2026-01-04 20:17:38.66	349.81	13.54	-37.9	-38.9	23.2	0.00e+00	6	29	0	771751936	48	6344
2026-01-04 20:17:39.67	349.62	13.51	-37.8	-38.8	23.2	0.00e+00	28	29	0	773849088	48	6263
2026-01-04 20:17:40.68	349.43	13.47	-38.2	-39.1	23.0	0.00e+00	7	29	0	775946240	48	6500
2026-01-04 20:17:41.69	349.24	13.44	-38.4	-39.4	22.8	0.00e+00	0	29	0	778043392	48	6737
2026-01-04 20:17:42.70	349.05	13.40	-38.4	-39.3	22.7	0.00e+00	6	29	0	779091968	48	6686
2026-01-04 20:17:43.71	348.86	13.36	-38.1	-39.1	23.0	0.00e+00	0	29	0	781189120	48	6486
2026-01-04 20:17:44.72	348.68	13.33	-38.2	-39.2	22.8	0.00e+00	92	29	0	783286272	48	6547
2026-01-04 20:17:45.73	348.49	13.29	-38.1	-39.1	22.7	0.00e+00	0	29	0	785383424	48	6505
2026-01-04 20:17:46.74	348.30	13.25	-38.0	-38.9	23.1	0.00e+00	92	29	0	787480576	48	6353
2026-01-04 20:17:47.75	348.11	13.22	-38.1	-39.0	23.0	7.00e-07	0	29	0	788529152	48	6451
2026-01-04 20:17:48.76	347.93	13.18	-38.3	-39.3	22.6	0.00e+00	0	29	0	790626304	48	6626
2026-01-04 20:17:49.77	347.74	13.14	-38.1	-39.1	23.1	0.00e+00	0	29	0	792723456	50	5787
2026-01-04 20:17:50.78	347.56	13.10	-38.3	-39.3	22.9	0.00e+00	0	29	0	794820608	50	5909
2026-01-04 20:17:51.79	347.37	13.07	-38.8	-39.8	22.3	0.00e+00	85	29	0	796917760	50	6274
2026-01-04 20:17:52.80	347.19	13.03	-38.1	-39.0	23.0	0.00e+00	81	29	0	797966336	50	5755
2026-01-04 20:17:53.81	347.00	12.99	-38.4	-39.4	22.9	0.00e+00	92	29	0	800063488	50	5965
2026-01-04 20:17:54.82	346.82	12.95	-38.2	-39.1	23.0	0.00e+00	0	29	0	802160640	50	5796
2026-01-04 20:17:55.83	346.64	12.91	-37.9	-38.8	23.2	0.00e+00	0	29	0	804257792	50	5628
2026-01-04 20:17:56.84	346.45	12.87	-38.1	-39.0	23.1	0.00e+00	0	29	0	806354944	50	5730
2026-01-04 20:17:57.85	346.27	12.83	-37.9	-38.9	23.1	0.00e+00	0	29	0	807403520	50	5640
2026-01-04 20:17:58.85	346.09	12.79	-38.0	-38.9	23.1	0.00e+00	13	29	0	809500672	50	5665
2026-01-04 20:17:59.87	345.91	12.75	-38.1	-39.0	23.0	0.00e+00	0	29	0	811597824	50	5723
2026-01-04 20:18:00.87	345.73	12.71	-37.9	-38.9	23.2	0.00e+00	92	29	0	813694976	50	5638
2026-01-04 20:18:01.87	345.55	12.67	-38.3	-39.3	22.8	0.00e+00	0	29	0	815792128	50	5931
2026-01-04 20:18:02.88	345.37	12.63	-38.3	-39.2	22.8	0.00e+00	92	29	0	816840704	50	5881
2026-01-04 20:18:03.89	345.19	12.59	-38.2	-39.1	22.9	0.00e+00	2	29	0	818937856	50	5827
2026-01-04 20:18:04.90	345.01	12.55	-38.3	-39.3	22.8	0.00e+00	0	29	0	821035008	50	5919
2026-01-04 20:18:05.91	344.84	12.51	-38.6	-39.6	22.5	0.00e+00	0	29	0	823132160	50	6128
2026-01-04 20:18:06.92	344.66	12.47	-38.5	-39.5	22.5	0.00e+00	80	29	0	825229312	50	6092
2026-01-04 20:18:07.93	344.48	12.43	-38.8	-39.9	22.3	0.00e+00	92	29	0	826277888	50	6328
2026-01-04 20:18:08.94	344.31	12.39	-38.7	-39.7	22.2	0.00e+00	80	29	0	828375040	50	6245
2026-01-04 20:18:09.95	344.13	12.35	-38.9	-39.9	22.2	0.00e+00	92	29	0	830472192	50	6346
2026-01-04 20:18:10.96	343.95	12.30	-38.9	-40.0	22.2	0.00e+00	4	29	0	832569344	50	6401
2026-01-04 20:18:11.97	343.78	12.26	-38.8	-39.8	22.2	0.00e+00	0	29	0	834666496	50	6293
2026-01-04 20:18:12.97	343.61	12.22	-38.8	-39.8	22.2	0.00e+00	0	29	0	836763648	50	6301
2026-01-04 20:18:13.98	343.43	12.18	-38.9	-39.9	22.2	0.00e+00	1	29	0	837812224	50	6373
2026-01-04 20:18:15.00	343.26	12.13	-39.1	-40.2	22.0	0.00e+00	0	29	0	839909376	50	6600
2026-01-04 20:18:16.01	343.08	12.09	-39.1	-40.1	21.9	0.00e+00	0	29	0	842006528	50	6539
2026-01-04 20:18:17.02	342.91	12.05	-39.3	-40.4	21.8	0.00e+00	92	29	0	844103680	50	6719
2026-01-04 20:18:18.03	342.74	12.00	-39.6	-40.7	21.5	0.00e+00	0	29	0	846200832	52	6224
2026-01-04 20:18:19.03	342.57	11.96	-39.8	-41.0	21.2	0.00e+00	90	29	0	847249408	52	6395
2026-01-04 20:18:20.04	342.40	11.92	-39.4	-40.6	21.4	0.00e+00	0	29	0	849346560	52	6114
2026-01-04 20:18:21.05	342.23	11.87	-40.0	-41.2	21.1	0.00e+00	0	29	0	851443712	52	6599
2026-01-04 20:18:22.06	342.06	11.83	-40.4	-41.6	20.7	0.00e+00	0	29	0	853540864	52	6915
2026-01-04 20:18:23.07	341.89	11.78	-40.4	-41.7	20.5	0.00e+00	0	29	0	855638016	52	6963
2026-01-04 20:18:24.08	341.72	11.74	-40.5	-41.9	20.1	0.00e+00	92	29	0	856686592	52	7108
2026-01-04 20:18:25.09	341.55	11.70	-41.5	-43.0	19.4	0.00e+00	2	29	0	858783744	54	7250
2026-01-04 20:18:26.10	341.38	11.65	-41.8	-43.5	18.6	0.00e+00	92	29	0	860880896	54	7683
2026-01-04 20:18:27.11	341.22	11.61	-41.3	-42.8	19.5	0.00e+00	0	29	0	862978048	56	6259
2026-01-04 20:18:28.12	341.05	11.56	-40.9	-42.4	20.0	0.00e+00	81	29	0	865075200	56	5975
2026-01-04 20:18:29.13	340.88	11.52	-40.8	-42.2	19.5	0.00e+00	73	29	0	866123776	56	5864
2026-01-04 20:18:30.14	340.72	11.47	-40.5	-41.8	20.4	0.00e+00	0	29	0	868220928	54	6286
2026-01-04 20:18:31.15	340.55	11.42	-40.1	-41.4	20.7	0.00e+00	92	29	0	870318080	54	5968
2026-01-04 20:18:32.16	340.39	11.38	-40.1	-41.4	20.6	0.00e+00	80	29	0	872415232	54	5976
2026-01-04 20:18:33.17	340.22	11.33	-40.2	-41.5	20.7	0.00e+00	90	29	0	874512384	54	6042
2026-01-04 20:18:34.18	340.06	11.29	-40.1	-41.4	20.7	0.00e+00	2	29	0	875560960	54	5980
2026-01-04 20:18:35.19	339.90	11.24	-40.2	-41.4	20.7	0.00e+00	0	29	0	877658112	54	6027
2026-01-04 20:18:36.20	339.74	11.19	-40.3	-41.6	20.3	0.00e+00	81	29	0	879755264	54	6120
2026-01-04 20:18:37.21	339.57	11.15	-40.3	-41.6	20.4	0.00e+00	0	29	0	881852416	54	6143
2026-01-04 20:18:38.22	339.41	11.10	-40.7	-42.1	19.9	0.00e+00	84	29	0	883949568	54	6501
2026-01-04 20:18:39.23	339.25	11.06	-41.1	-42.6	19.5	0.00e+00	0	29	0	884998144	54	6893
2026-01-04 20:18:40.24	339.09	11.01	-40.6	-42.0	20.1	0.00e+00	92	29	0	887095296	54	6456
2026-01-04 20:18:41.25	338.93	10.96	-40.8	-42.3	19.7	0.00e+00	0	29	0	889192448	54	6631
2026-01-04 20:18:42.25	338.77	10.92	-41.0	-42.5	19.5	0.00e+00	0	29	0	891289600	54	6778
2026-01-04 20:18:43.26	338.61	10.87	-40.9	-42.3	19.8	0.00e+00	0	29	0	893386752	54	6653
2026-01-04 20:18:44.27	338.45	10.82	-40.6	-42.0	20.2	0.00e+00	0	29	0	894435328	54	6403
2026-01-04 20:18:45.28	338.30	10.77	-40.6	-42.0	20.1	0.00e+00	0	29	0	896532480	54	6419
2026-01-04 20:18:46.29	338.14	10.73	-40.5	-41.9	20.2	0.00e+00	0	29	0	898629632	54	6344
2026-01-04 20:18:47.30	337.98	10.68	-40.7	-42.1	20.0	0.00e+00	92	29	0	900726784	54	6483
2026-01-04 20:18:48.31	337.83	10.63	-40.8	-42.3	19.8	0.00e+00	0	29	0	902823936	54	6623
2026-01-04 20:18:49.32	337.67	10.58	-40.9	-42.4	19.8	0.00e+00	92	29	0	904921088	54	6712
2026-01-04 20:18:50.33	337.52	10.53	-40.8	-42.2	19.9	0.00e+00	0	29	0	905969664	54	6586
2026-01-04 20:18:51.34	337.36	10.49	-40.9	-42.4	19.7	0.00e+00	2	29	0	908066816	54	6696
2026-01-04 20:18:52.35	337.21	10.44	-41.3	-42.8	19.3	0.00e+00	0	29	0	910163968	54	7009
2026-01-04 20:18:53.36	337.05	10.39	-41.0	-42.5	19.4	7.00e-07	78	29	0	912261120	54	6810
2026-01-04 20:18:54.37	336.90	10.34	-41.0	-42.5	19.6	0.00e+00	92	29	0	914358272	54	6776
2026-01-04 20:18:55.38	336.75	10.29	-40.9	-42.4	19.6	0.00e+00	78	29	0	915406848	54	6728
2026-01-04 20:18:56.39	336.59	10.24	-41.1	-42.6	19.4	0.00e+00	90	29	0	917504000	54	6911
2026-01-04 20:18:57.40	336.44	10.20	-41.1	-42.6	19.5	0.00e+00	0	29	0	919601152	54	6908
2026-01-04 20:18:58.40	336.29	10.15	-41.2	-42.7	19.5	0.00e+00	6	29	0	921698304	54	6942
2026-01-04 20:18:59.42	336.14	10.10	-41.0	-42.5	19.6	0.00e+00	0	29	0	923795456	54	6795
2026-01-04 20:19:00.43	335.99	10.05	-40.9	-42.3	19.8	0.00e+00	7	29	0	924844032	54	6674
2026-01-04 20:19:01.44	335.84	10.00	-40.9	-42.3	19.8	0.00e+00	82	29	0	926941184	54	6628
2026-01-04 20:19:02.45	335.69	9.95	-40.9	-42.4	19.6	0.00e+00	5	29	0	929038336	54	6712
2026-01-04 20:19:03.46	335.54	9.90	-41.2	-42.7	19.3	0.00e+00	90	29	0	931135488	54	7000
2026-01-04 20:19:04.46	335.40	9.85	-41.1	-42.5	19.3	0.00e+00	0	29	0	933232640	54	6847
2026-01-04 20:19:05.47	335.25	9.80	-41.2	-42.7	19.5	0.00e+00	24	29	0	934281216	54	6934
2026-01-04 20:19:06.49	335.10	9.75	-41.4	-42.9	19.4	0.00e+00	6	29	0	936378368	56	6354
2026-01-04 20:19:07.49	334.96	9.70	-41.1	-42.5	19.7	0.00e+00	0	29	0	938475520	56	6081
2026-01-04 20:19:08.50	334.81	9.66	-41.1	-42.5	19.6	0.00e+00	0	29	0	940572672	56	6077
2026-01-04 20:19:09.51	334.66	9.61	-40.9	-42.4	19.8	0.00e+00	82	29	0	942669824	56	5965
2026-01-04 20:19:10.52	334.52	9.56	-40.9	-42.3	20.0	0.00e+00	92	29	0	943718400	56	5900
2026-01-04 20:19:11.53	334.37	9.51	-40.8	-42.2	19.8	0.00e+00	78	29	0	945815552	54	6581
2026-01-04 20:19:12.54	334.23	9.46	-40.9	-42.3	19.9	0.00e+00	92	29	0	947912704	54	6662
2026-01-04 20:19:13.55	334.09	9.41	-40.7	-42.0	20.0	0.00e+00	0	29	0	950009856	54	6464
2026-01-04 20:19:14.56	333.94	9.36	-40.5	-41.9	20.1	0.00e+00	5	29	0	952107008	54	6344
2026-01-04 20:19:15.57	333.80	9.31	-40.6	-42.0	20.2	0.00e+00	81	29	0	953155584	54	6395
2026-01-04 20:19:16.58	333.66	9.26	-40.5	-41.9	20.2	0.00e+00	5	29	0	955252736	54	6324
2026-01-04 20:19:17.59	333.52	9.20	-40.6	-42.0	20.2	0.00e+00	91	29	0	957349888	54	6395
2026-01-04 20:19:18.60	333.38	9.15	-40.6	-42.0	20.1	0.00e+00	10	29	0	959447040	54	6392
2026-01-04 20:19:19.61	333.24	9.10	-40.4	-41.7	20.2	0.00e+00	91	29	0	961544192	54	6226
2026-01-04 20:19:20.61	333.10	9.05	-40.6	-42.0	20.2	0.00e+00	8	29	0	962592768	54	6438
2026-01-04 20:19:21.62	332.96	9.00	-40.6	-41.9	20.3	0.00e+00	7	29	0	964689920	54	6363
2026-01-04 20:19:22.63	332.82	8.95	-40.4	-41.7	20.4	0.00e+00	6	29	0	966787072	54	6182
2026-01-04 20:19:23.64	332.68	8.90	-40.2	-41.5	20.5	0.00e+00	6	29	0	968884224	54	6075
2026-01-04 20:19:24.65	332.54	8.85	-40.3	-41.6	20.4	0.00e+00	0	29	0	970981376	54	6115
2026-01-04 20:19:25.66	332.41	8.80	-40.1	-41.4	20.6	0.00e+00	6	29	0	973078528	54	5996
2026-01-04 20:19:26.67	332.27	8.75	-40.1	-41.4	20.5	0.00e+00	90	29	0	974127104	54	5971
2026-01-04 20:19:27.68	332.13	8.70	-40.4	-41.7	20.2	0.00e+00	0	29	0	976224256	54	6191
2026-01-04 20:19:28.69	332.00	8.65	-40.3	-41.5	20.5	0.00e+00	90	29	0	978321408	54	6081
2026-01-04 20:19:29.69	331.86	8.60	-40.0	-41.3	20.5	0.00e+00	0	29	0	980418560	54	5926
2026-01-04 20:19:30.70	331.73	8.55	-40.0	-41.2	20.7	0.00e+00	0	29	0	981467136	54	5858
2026-01-04 20:19:31.71	331.59	8.49	-40.0	-41.2	20.7	0.00e+00	0	29	0	983564288	52	6565
2026-01-04 20:19:32.71	331.46	8.44	-39.9	-41.1	20.8	0.00e+00	0	29	0	985661440	52	6513
2026-01-04 20:19:33.73	331.32	8.39	-39.7	-40.9	21.2	0.00e+00	92	29	0	987758592	52	6367
2026-01-04 20:19:34.74	331.19	8.34	-39.6	-40.8	21.3	0.00e+00	0	29	0	989855744	52	6262
2026-01-04 20:19:35.75	331.06	8.29	-39.6	-40.7	21.3	0.00e+00	92	29	0	990904320	52	6216
2026-01-04 20:19:36.76	330.93	8.24	-39.6	-40.7	21.3	0.00e+00	78	29	0	993001472	52	6234
2026-01-04 20:19:37.77	330.79	8.19	-39.5	-40.7	21.3	0.00e+00	0	29	0	995098624	52	6195
2026-01-04 20:19:38.78	330.66	8.14	-39.3	-40.4	21.5	0.00e+00	81	29	0	997195776	52	6000
2026-01-04 20:19:39.79	330.53	8.08	-39.4	-40.5	21.5	0.00e+00	81	29	0	999292928	52	6051
2026-01-04 20:19:40.80	330.40	8.03	-39.3	-40.4	21.7	0.00e+00	84	29	0	1001390080	52	5982
2026-01-04 20:19:41.81	330.27	7.98	-39.3	-40.4	21.5	0.00e+00	0	29	0	1002438656	52	5991
2026-01-04 20:19:42.82	330.14	7.93	-39.7	-40.9	20.9	0.00e+00	91	29	0	1004535808	52	6347
2026-01-04 20:19:43.83	330.01	7.88	-39.2	-40.3	21.8	0.00e+00	5	29	0	1006632960	52	5914
2026-01-04 20:19:44.84	329.88	7.83	-39.4	-40.5	21.5	0.00e+00	8	29	0	1008730112	52	6093
2026-01-04 20:19:45.85	329.76	7.77	-39.2	-40.3	21.5	0.00e+00	0	29	0	1010827264	52	5922
2026-01-04 20:19:46.86	329.63	7.72	-39.3	-40.4	21.5	0.00e+00	0	29	0	1011875840	52	6025
2026-01-04 20:19:47.87	329.50	7.67	-38.9	-39.9	21.8	0.00e+00	0	29	0	1013972992	52	5685
2026-01-04 20:19:48.88	329.38	7.62	-38.9	-40.0	21.9	0.00e+00	0	29	0	1016070144	52	5709
2026-01-04 20:19:49.89	329.25	7.57	-38.9	-40.0	21.7	0.00e+00	92	29	0	1018167296	52	5751
2026-01-04 20:19:50.89	329.12	7.52	-38.9	-40.0	21.7	0.00e+00	0	29	0	1020264448	52	5759
2026-01-04 20:19:51.90	329.00	7.46	-39.2	-40.3	21.5	0.00e+00	92	29	0	1021313024	52	5935
2026-01-04 20:19:52.91	328.87	7.41	-38.8	-39.8	21.7	0.00e+00	0	29	0	1023410176	50	6310
2026-01-04 20:19:53.92	328.75	7.36	-39.0	-40.1	21.8	0.00e+00	81	29	0	1025507328	50	6473
2026-01-04 20:19:54.93	328.63	7.31	-38.5	-39.5	22.2	0.00e+00	0	29	0	1027604480	50	6053
2026-01-04 20:19:55.94	328.50	7.26	-38.5	-39.6	22.1	0.00e+00	0	29	0	1029701632	50	6124
2026-01-04 20:19:56.94	328.38	7.21	-39.1	-40.3	21.4	0.00e+00	92	29	0	1030750208	50	6630
2026-01-04 20:19:57.95	328.26	7.15	-39.0	-40.1	21.6	0.00e+00	0	29	0	1032847360	50	6481
2026-01-04 20:19:58.96	328.14	7.10	-38.9	-40.0	21.8	0.00e+00	92	29	0	1034944512	50	6447
2026-01-04 20:19:59.97	328.01	7.05	-38.8	-39.9	21.4	0.00e+00	78	29	0	1037041664	50	6362
2026-01-04 20:20:00.97	327.89	7.00	-38.8	-39.9	21.7	0.00e+00	1	29	0	1039138816	50	6321
2026-01-04 20:20:01.98	327.77	6.95	-38.9	-40.0	21.8	0.00e+00	0	29	0	1040187392	50	6433
2026-01-04 20:20:02.99	327.65	6.89	-38.9	-40.0	21.7	0.00e+00	0	29	0	1042284544	50	6405
2026-01-04 20:20:04.00	327.53	6.84	-39.2	-40.3	21.5	0.00e+00	0	29	0	1044381696	50	6675
2026-01-04 20:20:05.01	327.41	6.79	-38.9	-40.0	21.9	0.00e+00	0	29	0	1046478848	50	6410
2026-01-04 20:20:06.01	327.30	6.74	-38.9	-40.0	21.9	0.00e+00	91	29	0	1048576000	50	6420
2026-01-04 20:20:07.02	327.18	6.69	-38.9	-40.0	21.8	0.00e+00	4	29	0	1049624576	50	6408
2026-01-04 20:20:08.03	327.06	6.63	-39.2	-40.4	21.5	0.00e+00	91	29	0	1051721728	50	6702
2026-01-04 20:20:09.04	326.94	6.58	-38.9	-40.0	21.8	0.00e+00	0	29	0	1053818880	50	6391
2026-01-04 20:20:10.05	326.83	6.53	-38.8	-39.9	21.9	0.00e+00	0	29	0	1055916032	50	6356
2026-01-04 20:20:11.06	326.71	6.48	-39.1	-40.3	21.4	0.00e+00	0	29	0	1058013184	50	6636
2026-01-04 20:20:12.07	326.59	6.42	-39.1	-40.2	21.6	0.00e+00	0	29	0	1059061760	50	6560
2026-01-04 20:20:13.07	326.48	6.37	-39.4	-40.5	21.2	0.00e+00	90	29	0	1061158912	50	6842
2026-01-04 20:20:14.09	326.36	6.32	-39.2	-40.3	21.4	0.00e+00	2	29	0	1063256064	50	6669
2026-01-04 20:20:15.10	326.25	6.27	-39.4	-40.5	21.5	0.00e+00	92	29	0	1065353216	50	6792
2026-01-04 20:20:16.10	326.13	6.22	-39.0	-40.1	21.5	0.00e+00	78	29	0	1067450368	50	6530
2026-01-04 20:20:17.12	326.02	6.16	-39.8	-41.0	21.1	0.00e+00	81	29	0	1069547520	52	6413
2026-01-04 20:20:18.13	325.90	6.11	-39.5	-40.7	21.1	0.00e+00	0	29	0	1070596096	52	6198
2026-01-04 20:20:19.13	325.79	6.06	-39.5	-40.7	21.0	0.00e+00	0	29	0	1072693248	52	6199
2026-01-04 20:20:20.14	325.68	6.01	-39.7	-40.9	20.9	0.00e+00	92	29	0	1074790400	52	6367
2026-01-04 20:20:21.15	325.56	5.96	-39.6	-40.8	21.0	0.00e+00	81	29	0	1076887552	52	6267
2026-01-04 20:20:22.16	325.45	5.90	-39.6	-40.8	21.1	0.00e+00	92	29	0	1078984704	52	6295
2026-01-04 20:20:23.17	325.34	5.85	-39.7	-40.9	21.3	0.00e+00	0	29	0	1080033280	52	6324
2026-01-04 20:20:24.17	325.23	5.80	-39.4	-40.5	21.3	0.00e+00	81	29	0	1082130432	52	6100
2026-01-04 20:20:25.18	325.12	5.75	-39.6	-40.8	21.0	0.00e+00	0	29	0	1084227584	52	6262
2026-01-04 20:20:26.19	325.01	5.70	-39.4	-40.6	21.2	0.00e+00	0	29	0	1086324736	52	6151
2026-01-04 20:20:27.20	324.90	5.64	-39.8	-41.0	20.9	0.00e+00	0	29	0	1087373312	52	6433
2026-01-04 20:20:28.21	324.79	5.59	-39.3	-40.4	21.5	0.00e+00	0	29	0	1089470464	52	6000
2026-01-04 20:20:29.21	324.68	5.54	-39.5	-40.6	21.0	0.00e+00	90	29	0	1091567616	52	6169
2026-01-04 20:20:30.22	324.57	5.49	-39.3	-40.4	21.3	0.00e+00	0	29	0	1093664768	52	6031
2026-01-04 20:20:31.23	324.46	5.43	-39.4	-40.5	21.1	0.00e+00	90	29	0	1095761920	52	6084
2026-01-04 20:20:32.24	324.36	5.38	-39.5	-40.6	21.3	0.00e+00	0	29	0	1097859072	52	6159
2026-01-04 20:20:33.25	324.25	5.33	-39.7	-40.9	20.8	0.00e+00	2	29	0	1098907648	52	6355
2026-01-04 20:20:34.25	324.14	5.28	-40.0	-41.1	21.0	0.00e+00	0	29	0	1101004800	52	6538
2026-01-04 20:20:35.26	324.03	5.23	-39.8	-41.0	21.0	0.00e+00	0	29	0	1103101952	52	6426
2026-01-04 20:20:36.27	323.93	5.17	-40.0	-41.3	20.7	0.00e+00	92	29	0	1105199104	52	6632
2026-01-04 20:20:37.28	323.82	5.12	-39.6	-40.8	20.9	0.00e+00	0	29	0	1107296256	52	6263
2026-01-04 20:20:38.29	323.72	5.07	-40.0	-41.2	20.6	0.00e+00	92	29	0	1108344832	52	6603
2026-01-04 20:20:39.30	323.61	5.02	-40.0	-41.3	20.5	0.00e+00	0	29	0	1110441984	52	6620
2026-01-04 20:20:40.31	323.51	4.97	-40.1	-41.4	20.4	0.00e+00	0	29	0	1112539136	52	6731
2026-01-04 20:20:41.31	323.40	4.91	-40.5	-41.8	20.0	0.00e+00	70	29	0	1114636288	52	7063
2026-01-04 20:20:42.32	323.30	4.86	-40.0	-41.2	20.6	0.00e+00	0	29	0	1116733440	52	6602
2026-01-04 20:20:43.33	323.19	4.81	-40.8	-42.2	20.1	0.00e+00	88	29	0	1117782016	52	7345
2026-01-04 20:20:44.34	323.09	4.76	-40.3	-41.6	20.1	0.00e+00	79	29	0	1119879168	54	6138
2026-01-04 20:20:45.34	322.99	4.71	-40.8	-42.2	19.7	0.00e+00	90	29	0	1121976320	54	6611
2026-01-04 20:20:46.35	322.89	4.66	-41.2	-42.6	19.6	0.00e+00	1	29	0	1124073472	54	6919
2026-01-04 20:20:47.36	322.78	4.60	-40.6	-42.0	19.7	0.00e+00	0	29	0	1126170624	54	6436
2026-01-04 20:20:48.37	322.68	4.55	-40.5	-41.9	20.1	0.00e+00	80	29	0	1127219200	54	6325
2026-01-04 20:20:49.37	322.58	4.50	-40.4	-41.7	20.2	0.00e+00	1	29	0	1129316352	54	6216
2026-01-04 20:20:50.38	322.48	4.45	-40.5	-41.8	20.2	0.00e+00	2	29	0	1131413504	54	6301
2026-01-04 20:20:51.39	322.38	4.40	-40.6	-42.1	19.7	0.00e+00	0	29	0	1133510656	54	6470
2026-01-04 20:20:52.40	322.28	4.34	-40.3	-41.6	20.1	0.00e+00	92	29	0	1135607808	54	6143
2026-01-04 20:20:53.41	322.18	4.29	-40.8	-42.2	19.6	0.00e+00	0	29	0	1136656384	54	6603
2026-01-04 20:20:54.42	322.08	4.24	-40.5	-41.8	20.0	0.00e+00	92	29	0	1138753536	54	6256
2026-01-04 20:20:55.43	321.98	4.19	-40.7	-42.1	19.9	0.00e+00	2	29	0	1140850688	54	6523
2026-01-04 20:20:56.44	321.88	4.14	-40.8	-42.2	19.6	0.00e+00	6	29	0	1142947840	54	6611
2026-01-04 20:20:57.45	321.78	4.08	-41.2	-42.7	19.2	0.00e+00	3	29	0	1145044992	54	6929
2026-01-04 20:20:58.46	321.68	4.03	-40.9	-42.4	19.3	0.00e+00	6	29	0	1146093568	54	6725
2026-01-04 20:20:59.46	321.59	3.98	-41.4	-42.9	19.4	0.00e+00	92	29	0	1148190720	54	7089
2026-01-04 20:21:00.47	321.49	3.93	-41.1	-42.6	19.2	0.00e+00	0	29	0	1150287872	54	6914
2026-01-04 20:21:01.48	321.39	3.88	-40.8	-42.3	19.6	0.00e+00	91	29	0	1152385024	54	6624
2026-01-04 20:21:02.49	321.29	3.83	-40.9	-42.3	19.7	0.00e+00	7	29	0	1154482176	54	6629
2026-01-04 20:21:03.49	321.20	3.78	-41.2	-42.8	19.1	0.00e+00	0	29	0	1155530752	54	7031
2026-01-04 20:21:04.50	321.10	3.72	-41.4	-43.0	18.9	0.00e+00	0	29	0	1157627904	54	7220
2026-01-04 20:21:05.51	321.01	3.67	-41.2	-42.8	19.1	0.00e+00	5	29	0	1159725056	54	7010
2026-01-04 20:21:06.52	320.91	3.62	-41.1	-42.7	19.2	0.00e+00	76	29	0	1161822208	54	6953
2026-01-04 20:21:07.53	320.82	3.57	-41.4	-42.9	18.9	0.00e+00	0	29	0	1163919360	56	6382
2026-01-04 20:21:08.54	320.72	3.52	-41.8	-43.4	18.7	0.00e+00	92	29	0	1164967936	56	6732
2026-01-04 20:21:09.55	320.63	3.47	-41.3	-42.9	18.9	0.00e+00	11	29	0	1167065088	56	6347
2026-01-04 20:21:10.56	320.53	3.41	-41.3	-42.9	18.9	0.00e+00	31	29	0	1169162240	56	6337
2026-01-04 20:21:11.57	320.44	3.36	-41.7	-43.4	18.6	0.00e+00	14	29	0	1171259392	56	6700
2026-01-04 20:21:12.58	320.35	3.31	-41.7	-43.4	18.5	0.00e+00	73	29	0	1173356544	56	6700
2026-01-04 20:21:13.58	320.25	3.26	-41.7	-43.4	18.4	0.00e+00	0	29	0	1174405120	56	6693
2026-01-04 20:21:14.59	320.16	3.21	-41.8	-43.5	18.5	0.00e+00	76	29	0	1176502272	56	6774
2026-01-04 20:21:15.60	320.07	3.16	-41.3	-42.8	18.8	0.00e+00	92	29	0	1178599424	56	6300
2026-01-04 20:21:16.61	319.98	3.11	-41.5	-43.1	18.5	0.00e+00	7	29	0	1180696576	56	6535
2026-01-04 20:21:17.61	319.89	3.05	-41.8	-43.5	18.5	0.00e+00	92	29	0	1182793728	56	6811
2026-01-04 20:21:18.62	319.79	3.00	-47.9	-63.0	3.6	0.00e+00	0	29	104	1183842304	60	51307
2026-01-04 20:21:19.63	319.70	2.95	-48.4	-63.5	3.6	1.51e+00	0	29	104	1183842304	60	54159
2026-01-04 20:21:20.64	319.61	2.90	-48.5	-63.6	3.6	1.51e+00	0	29	104	1183842304	60	54934
2026-01-04 20:21:21.65	319.52	2.85	-48.9	-64.1	3.6	1.51e+00	0	29	104	1183842304	60	57806
