passes_logs/2026/01/04/R4.6S_Anadyr/R4.6S_Anadyr__20260104_020537_FENGYUN_3D_rec.log

#Pass ID: 20260104_020537_FENGYUN 3D
#Satellite: FENGYUN 3D
#Configuration: FENGYUN 3D
#almurnet v.1.7.20251203
#Start time: 2026-01-04 02:05:40

#Version: 2.2.20231116
#Station: R4.6S_Anadyr
#Location: 177.4865 lon 64.73178 lat
#TLE: 1 43010U 17072A   26003.51579816  .00000092  00000+0  65324-4 0  9992
#TLE: 2 43010  98.9912 335.1548 0001916 128.4619 231.6729 14.19692074421623

#Time	Az	El	Level	Level2	SNR	BER	BlckErr	Temp	State	Recorded	gain1	gain2
2026-01-04 02:05:40.15	152.55	0.18	-52.0	-62.7	3.3	8.39e-01	0	38	0	0	60	49598
2026-01-04 02:05:41.15	152.55	0.24	-51.5	-63.7	3.6	8.47e-01	0	38	104	0	60	55375
2026-01-04 02:05:42.16	152.55	0.30	-51.2	-63.3	3.6	8.45e-01	0	38	104	0	60	53021
2026-01-04 02:05:43.17	152.55	0.37	-52.3	-64.4	3.6	8.46e-01	0	38	104	0	60	60301
2026-01-04 02:05:44.18	152.55	0.43	-50.9	-63.1	3.6	8.45e-01	0	38	104	0	60	51423
2026-01-04 02:05:45.19	152.55	0.49	-50.7	-62.8	3.6	8.45e-01	0	38	104	0	60	49961
2026-01-04 02:05:46.20	152.55	0.55	-50.0	-62.3	3.6	8.44e-01	0	39	104	0	60	46925
2026-01-04 02:05:47.21	152.55	0.61	-50.7	-62.7	3.6	8.45e-01	0	38	104	0	60	49417
2026-01-04 02:05:48.22	152.55	0.67	-50.3	-62.4	3.6	8.46e-01	0	38	104	0	60	47547
2026-01-04 02:05:49.23	152.55	0.74	-49.8	-61.9	3.6	8.45e-01	0	39	104	0	60	44943
2026-01-04 02:05:50.24	152.55	0.80	-49.0	-61.1	3.6	8.46e-01	0	39	104	0	60	41218
2026-01-04 02:05:51.24	152.55	0.86	-49.2	-61.2	3.5	8.45e-01	0	39	104	0	60	41334
2026-01-04 02:05:52.25	152.55	0.92	-49.0	-61.1	3.6	8.45e-01	0	39	104	0	60	40970
2026-01-04 02:05:53.27	152.55	0.99	-49.3	-61.4	3.6	8.46e-01	0	39	104	0	60	42453
2026-01-04 02:05:54.28	152.55	1.05	-49.2	-61.3	3.6	8.45e-01	0	39	104	0	60	41890
2026-01-04 02:05:55.28	152.55	1.11	-49.2	-61.4	3.6	8.45e-01	0	39	104	0	60	42560
2026-01-04 02:05:56.30	152.55	1.17	-49.6	-61.7	3.6	8.45e-01	0	39	104	0	60	44018
2026-01-04 02:05:57.31	152.55	1.24	-49.2	-61.3	3.6	8.46e-01	0	39	104	0	60	42194
2026-01-04 02:05:58.32	152.55	1.30	-49.3	-61.4	3.6	8.45e-01	0	39	104	0	60	42502
2026-01-04 02:05:59.33	152.55	1.36	-49.3	-61.4	3.6	8.44e-01	0	39	104	0	60	42358
2026-01-04 02:06:00.34	152.55	1.43	-49.2	-61.1	3.6	8.43e-01	0	39	104	0	60	41183
2026-01-04 02:06:01.35	152.55	1.49	-48.7	-60.6	3.6	8.45e-01	0	39	104	0	60	38858
2026-01-04 02:06:02.36	152.54	1.56	-48.7	-60.4	3.6	8.47e-01	0	39	104	0	60	37808
2026-01-04 02:06:03.37	152.54	1.62	-48.6	-60.3	3.6	8.46e-01	0	39	104	0	60	37320
2026-01-04 02:06:04.38	152.54	1.68	-48.6	-60.4	3.6	8.45e-01	0	39	104	0	60	38064
2026-01-04 02:06:05.38	152.54	1.75	-48.9	-60.7	3.6	8.44e-01	0	39	104	0	60	39246
2026-01-04 02:06:06.39	152.54	1.81	-49.3	-61.2	3.6	8.46e-01	0	39	104	0	60	41552
2026-01-04 02:06:07.40	152.54	1.88	-49.1	-61.1	3.6	8.47e-01	0	39	104	0	60	40987
2026-01-04 02:06:08.41	152.54	1.94	-48.9	-60.9	3.6	8.46e-01	0	39	104	0	60	39879
2026-01-04 02:06:09.42	152.54	2.01	-48.8	-60.8	3.6	8.44e-01	0	39	104	0	60	39594
2026-01-04 02:06:10.43	152.54	2.07	-48.7	-60.7	3.6	8.45e-01	0	39	104	0	60	39105
2026-01-04 02:06:11.44	152.54	2.14	-48.9	-61.0	3.6	8.46e-01	0	39	104	0	60	40361
2026-01-04 02:06:12.45	152.54	2.20	-48.8	-60.8	3.6	8.44e-01	0	39	104	0	60	39702
2026-01-04 02:06:13.46	152.54	2.27	-48.8	-60.7	3.6	8.44e-01	0	39	104	0	60	39318
2026-01-04 02:06:14.47	152.54	2.33	-48.7	-60.6	3.6	8.45e-01	0	39	104	0	60	38834
2026-01-04 02:06:15.47	152.54	2.40	-48.8	-60.7	3.6	8.44e-01	0	39	104	0	60	39158
2026-01-04 02:06:16.49	152.54	2.46	-48.8	-60.6	3.6	8.46e-01	0	39	104	0	60	38580
2026-01-04 02:06:17.49	152.54	2.53	-48.7	-60.4	3.6	8.45e-01	0	39	104	0	60	37685
2026-01-04 02:06:18.50	152.54	2.60	-48.7	-60.0	3.6	8.44e-01	0	39	104	0	60	36089
2026-01-04 02:06:19.51	152.54	2.66	-49.1	-60.7	3.6	8.45e-01	0	39	104	0	60	39153
2026-01-04 02:06:20.52	152.54	2.73	-48.9	-60.7	3.6	8.44e-01	0	39	104	0	60	39174
2026-01-04 02:06:21.53	152.53	2.80	-48.8	-60.9	3.6	8.46e-01	0	39	104	0	60	40066
2026-01-04 02:06:22.54	152.53	2.86	-48.7	-60.7	3.6	8.45e-01	0	39	104	0	60	39036
2026-01-04 02:06:23.55	152.53	2.93	-48.5	-58.3	3.6	8.45e-01	0	39	104	0	60	29826
2026-01-04 02:06:24.56	152.53	3.00	-48.2	-56.1	4.6	8.31e-01	0	39	104	0	60	23090
2026-01-04 02:06:25.57	152.53	3.06	-47.7	-52.9	6.2	4.30e-01	0	39	0	3145728	60	16045
2026-01-04 02:06:26.58	152.53	3.13	-46.6	-50.1	8.8	1.34e-01	0	39	0	8388608	60	11572
2026-01-04 02:06:27.59	152.53	3.20	-46.3	-49.1	10.4	1.95e-02	0	39	0	13631488	60	10307
2026-01-04 02:06:28.60	152.53	3.27	-44.0	-45.8	14.0	0.00e+00	0	39	0	19922944	58	7952
2026-01-04 02:06:29.61	152.53	3.34	-43.7	-45.6	14.7	4.50e-06	0	39	0	25165824	60	6898
2026-01-04 02:06:30.62	152.53	3.40	-42.5	-44.1	15.4	0.00e+00	0	39	0	31457280	60	5767
2026-01-04 02:06:31.63	152.53	3.47	-44.4	-46.6	16.0	0.00e+00	0	39	0	36700160	56	9754
2026-01-04 02:06:32.64	152.53	3.54	-41.8	-43.2	16.9	0.00e+00	0	39	0	42991616	56	6555
2026-01-04 02:06:33.65	152.53	3.61	-41.7	-43.1	17.1	0.00e+00	0	39	0	48234496	56	6494
2026-01-04 02:06:34.66	152.52	3.68	-42.1	-43.5	16.3	0.00e+00	0	39	0	54525952	56	6833
2026-01-04 02:06:35.67	152.52	3.75	-48.8	-59.9	3.6	1.37e-01	0	39	104	58720256	60	35697
2026-01-04 02:06:36.68	152.52	3.82	-48.4	-56.2	4.7	8.45e-01	0	39	104	58720256	60	23410
2026-01-04 02:06:37.69	152.52	3.89	-47.0	-51.2	7.8	7.89e-05	0	39	0	62914560	60	13189
2026-01-04 02:06:38.70	152.52	3.95	-43.9	-45.9	6.0	8.34e-01	0	39	104	62914560	60	7164
2026-01-04 02:06:39.71	152.52	4.02	-46.2	-49.8	5.7	2.40e-02	0	39	104	62914560	60	11135
2026-01-04 02:06:40.72	152.52	4.09	-42.2	-43.6	6.0	8.30e-01	0	39	104	62914560	60	5500
2026-01-04 02:06:41.73	152.52	4.16	-40.5	-41.6	18.1	0.00e+00	0	39	0	62914560	54	6157
2026-01-04 02:06:42.74	152.52	4.23	-39.7	-40.7	19.2	0.00e+00	0	39	0	68157440	52	6227
2026-01-04 02:06:43.75	152.52	4.31	-39.4	-40.4	19.6	0.00e+00	0	39	0	73400320	52	6011
2026-01-04 02:06:44.76	152.51	4.38	-38.9	-39.9	20.0	0.00e+00	0	39	0	79691776	50	6318
2026-01-04 02:06:45.76	152.51	4.45	-38.5	-39.4	20.7	0.00e+00	0	39	0	84934656	50	6003
2026-01-04 02:06:46.78	152.51	4.52	-38.2	-39.0	20.8	0.00e+00	0	39	0	91226112	50	5755
2026-01-04 02:06:47.79	152.51	4.59	-38.1	-39.0	20.9	0.00e+00	0	39	0	96468992	50	5730
2026-01-04 02:06:48.79	152.51	4.66	-38.1	-39.0	20.9	0.00e+00	0	39	0	101711872	50	5747
2026-01-04 02:06:49.80	152.51	4.73	-38.1	-39.0	21.0	0.00e+00	0	39	0	108003328	50	5750
2026-01-04 02:06:50.81	152.51	4.80	-38.4	-39.3	20.7	0.00e+00	0	39	0	113246208	50	5910
2026-01-04 02:06:51.82	152.51	4.88	-38.2	-39.1	20.8	0.00e+00	0	39	0	119537664	50	5804
2026-01-04 02:06:52.83	152.51	4.95	-38.3	-39.2	20.7	0.00e+00	0	39	0	124780544	50	5884
2026-01-04 02:06:53.84	152.50	5.02	-38.5	-39.4	20.7	0.00e+00	0	39	0	131072000	50	5978
2026-01-04 02:06:54.85	152.50	5.09	-38.0	-38.9	20.9	0.00e+00	0	39	0	136314880	50	5650
2026-01-04 02:06:55.86	152.50	5.17	-37.9	-38.8	21.1	0.00e+00	0	39	0	142606336	50	5593
2026-01-04 02:06:56.87	152.50	5.24	-37.9	-38.8	21.1	0.00e+00	0	39	0	147849216	50	5595
2026-01-04 02:06:57.88	152.50	5.31	-37.8	-38.7	21.2	0.00e+00	0	39	0	153092096	50	5541
2026-01-04 02:06:58.89	152.50	5.38	-38.1	-39.0	21.0	0.00e+00	0	39	0	159383552	50	5696
2026-01-04 02:06:59.90	152.50	5.46	-37.8	-38.7	21.2	0.00e+00	0	39	0	164626432	50	5522
2026-01-04 02:07:00.91	152.49	5.53	-37.8	-38.6	21.3	0.00e+00	0	39	0	170917888	50	5497
2026-01-04 02:07:01.92	152.49	5.61	-38.0	-38.9	21.0	0.00e+00	0	39	0	176160768	50	5631
2026-01-04 02:07:02.93	152.49	5.68	-37.9	-38.7	21.4	0.00e+00	0	39	0	181403648	50	5545
2026-01-04 02:07:03.94	152.49	5.75	-37.6	-38.5	21.3	0.00e+00	0	39	0	187695104	48	6063
2026-01-04 02:07:04.95	152.49	5.83	-37.4	-38.3	21.6	0.00e+00	0	39	0	192937984	48	5909
2026-01-04 02:07:05.96	152.49	5.90	-37.7	-38.6	21.4	0.00e+00	0	39	0	198180864	48	6129
2026-01-04 02:07:06.97	152.49	5.98	-37.6	-38.5	21.6	0.00e+00	0	39	0	204472320	48	6051
2026-01-04 02:07:07.98	152.48	6.05	-37.5	-38.3	21.6	0.00e+00	0	39	0	209715200	48	5955
2026-01-04 02:07:08.99	152.48	6.13	-37.5	-38.3	21.7	0.00e+00	0	39	0	216006656	48	5921
2026-01-04 02:07:10.00	152.48	6.21	-37.5	-38.3	21.7	0.00e+00	0	39	0	221249536	48	5928
2026-01-04 02:07:11.01	152.48	6.28	-37.5	-38.4	21.7	0.00e+00	0	39	0	227540992	48	5980
2026-01-04 02:07:12.02	152.48	6.36	-37.5	-38.3	21.8	0.00e+00	0	39	0	232783872	48	5954
2026-01-04 02:07:13.03	152.48	6.43	-37.5	-38.3	21.8	0.00e+00	0	39	0	239075328	48	5955
2026-01-04 02:07:14.04	152.47	6.51	-37.4	-38.2	21.9	0.00e+00	0	39	0	244318208	48	5855
2026-01-04 02:07:15.05	152.47	6.59	-37.3	-38.2	21.8	0.00e+00	0	39	0	249561088	48	5840
2026-01-04 02:07:16.06	152.47	6.66	-37.2	-38.1	22.0	0.00e+00	0	39	0	255852544	48	5767
2026-01-04 02:07:17.07	152.47	6.74	-37.4	-38.2	21.9	0.00e+00	0	39	0	261095424	48	5869
2026-01-04 02:07:18.08	152.47	6.82	-37.2	-38.1	22.0	0.00e+00	0	39	0	267386880	48	5777
2026-01-04 02:07:19.09	152.46	6.90	-37.2	-38.0	22.0	0.00e+00	0	39	0	272629760	48	5728
2026-01-04 02:07:20.10	152.46	6.98	-37.1	-37.9	22.1	0.00e+00	0	39	0	277872640	48	5678
2026-01-04 02:07:21.11	152.46	7.05	-37.1	-38.0	22.1	0.00e+00	0	39	0	284164096	48	5712
2026-01-04 02:07:22.12	152.46	7.13	-37.3	-38.1	22.2	0.00e+00	0	39	0	289406976	48	5775
2026-01-04 02:07:23.12	152.46	7.21	-37.0	-37.9	22.2	0.00e+00	0	39	0	295698432	48	5639
2026-01-04 02:07:24.13	152.45	7.29	-36.9	-37.7	22.4	0.00e+00	0	39	0	300941312	48	5552
2026-01-04 02:07:25.14	152.45	7.37	-36.9	-37.7	22.5	0.00e+00	0	39	0	306184192	48	5538
2026-01-04 02:07:26.16	152.45	7.45	-36.9	-37.7	22.5	0.00e+00	0	39	0	312475648	48	5550
2026-01-04 02:07:27.17	152.45	7.53	-36.8	-37.6	22.6	0.00e+00	0	39	0	317718528	48	5477
2026-01-04 02:07:28.17	152.45	7.61	-36.8	-37.6	22.5	0.00e+00	0	39	0	324009984	48	5469
2026-01-04 02:07:29.19	152.44	7.69	-36.9	-37.6	22.5	0.00e+00	0	39	0	329252864	48	5502
2026-01-04 02:07:30.20	152.44	7.77	-36.7	-37.5	22.7	0.00e+00	0	39	0	335544320	46	6088
2026-01-04 02:07:31.21	152.44	7.85	-36.5	-37.3	22.9	0.00e+00	0	39	0	340787200	46	5932
2026-01-04 02:07:32.21	152.44	7.93	-36.5	-37.3	22.9	0.00e+00	0	39	0	347078656	46	5906
2026-01-04 02:07:33.22	152.44	8.01	-36.4	-37.2	23.0	0.00e+00	0	39	0	352321536	46	5857
2026-01-04 02:07:34.23	152.43	8.09	-36.4	-37.1	23.1	0.00e+00	0	39	0	357564416	46	5819
2026-01-04 02:07:35.24	152.43	8.17	-36.3	-37.1	23.1	0.00e+00	0	39	0	363855872	46	5790
2026-01-04 02:07:36.25	152.43	8.26	-36.4	-37.2	23.1	0.00e+00	0	39	0	369098752	46	5839
2026-01-04 02:07:37.26	152.43	8.34	-36.3	-37.0	23.2	0.00e+00	0	39	0	375390208	46	5755
2026-01-04 02:07:38.27	152.42	8.42	-36.5	-37.2	22.9	0.00e+00	0	39	0	380633088	46	5874
2026-01-04 02:07:39.28	152.42	8.50	-36.3	-37.0	23.3	0.00e+00	0	39	0	385875968	46	5743
2026-01-04 02:07:40.29	152.42	8.59	-36.3	-37.1	23.1	0.00e+00	0	39	0	392167424	46	5782
2026-01-04 02:07:41.30	152.42	8.67	-36.3	-37.0	23.3	0.00e+00	0	39	0	397410304	46	5759
2026-01-04 02:07:42.31	152.41	8.75	-36.1	-36.9	23.2	0.00e+00	0	39	0	403701760	46	5655
2026-01-04 02:07:43.32	152.41	8.84	-36.2	-36.9	23.3	0.00e+00	0	39	0	408944640	46	5692
2026-01-04 02:07:44.33	152.41	8.92	-36.2	-36.9	23.3	0.00e+00	0	39	0	414187520	46	5695
2026-01-04 02:07:45.34	152.41	9.01	-36.1	-36.8	23.3	0.00e+00	0	39	0	420478976	46	5615
2026-01-04 02:07:46.35	152.40	9.09	-36.7	-37.5	23.0	0.00e+00	0	39	0	425721856	46	6047
2026-01-04 02:07:47.36	152.40	9.18	-36.5	-37.2	23.3	0.00e+00	0	39	0	432013312	46	5884
2026-01-04 02:07:48.37	152.40	9.26	-36.2	-36.9	23.5	0.00e+00	0	39	0	437256192	46	5688
2026-01-04 02:07:49.38	152.39	9.35	-36.0	-36.8	23.6	0.00e+00	0	39	0	443547648	46	5580
2026-01-04 02:07:50.39	152.39	9.43	-36.2	-36.9	23.7	0.00e+00	0	39	0	448790528	46	5663
2026-01-04 02:07:51.40	152.39	9.52	-35.9	-36.7	23.7	0.00e+00	0	39	0	454033408	46	5515
2026-01-04 02:07:52.41	152.39	9.61	-35.9	-36.7	23.7	0.00e+00	0	39	0	460324864	46	5503
2026-01-04 02:07:53.42	152.38	9.69	-35.8	-36.5	23.8	0.00e+00	0	39	0	465567744	46	5424
2026-01-04 02:07:54.43	152.38	9.78	-36.0	-36.8	23.6	0.00e+00	0	39	0	471859200	44	6246
2026-01-04 02:07:55.43	152.38	9.87	-35.6	-36.3	23.8	0.00e+00	0	39	0	477102080	44	5962
2026-01-04 02:07:56.44	152.37	9.96	-35.9	-36.7	23.6	0.00e+00	0	39	0	482344960	44	6213
2026-01-04 02:07:57.45	152.37	10.04	-36.3	-37.1	23.6	0.00e+00	0	39	0	488636416	46	5779
2026-01-04 02:07:58.46	152.37	10.13	-36.1	-36.9	23.5	0.00e+00	0	39	0	493879296	46	5675
2026-01-04 02:07:59.47	152.36	10.22	-36.1	-36.8	23.7	0.00e+00	0	39	0	500170752	46	5580
2026-01-04 02:08:00.48	152.36	10.31	-36.0	-36.7	23.7	0.00e+00	0	39	0	505413632	46	5545
2026-01-04 02:08:01.49	152.36	10.40	-36.1	-36.8	23.7	0.00e+00	0	39	0	510656512	46	5610
2026-01-04 02:08:02.50	152.36	10.49	-36.3	-37.1	23.8	0.00e+00	0	39	0	516947968	46	5772
2026-01-04 02:08:03.50	152.35	10.58	-35.9	-36.6	23.9	0.00e+00	0	39	0	522190848	46	5470
2026-01-04 02:08:04.51	152.35	10.67	-35.8	-36.6	23.8	0.00e+00	0	39	0	528482304	46	5446
2026-01-04 02:08:05.52	152.34	10.76	-36.4	-37.1	23.2	0.00e+00	0	39	0	533725184	46	5804
2026-01-04 02:08:06.53	152.34	10.85	-36.4	-37.2	23.4	0.00e+00	0	39	0	540016640	46	5839
2026-01-04 02:08:07.54	152.34	10.94	-36.5	-37.3	23.5	0.00e+00	0	39	0	545259520	46	5906
2026-01-04 02:08:08.55	152.33	11.03	-37.0	-37.7	23.1	0.00e+00	0	39	0	550502400	46	6225
2026-01-04 02:08:09.56	152.33	11.13	-36.8	-37.5	23.0	0.00e+00	0	39	0	556793856	46	6067
2026-01-04 02:08:10.57	152.33	11.22	-37.1	-37.9	22.8	0.00e+00	0	39	0	562036736	46	6348
2026-01-04 02:08:11.58	152.32	11.31	-36.8	-37.6	23.0	0.00e+00	0	39	0	568328192	46	6114
2026-01-04 02:08:12.59	152.32	11.40	-36.8	-37.5	23.2	0.00e+00	0	39	0	573571072	46	6076
2026-01-04 02:08:13.60	152.32	11.50	-36.0	-36.7	23.8	0.00e+00	0	39	0	578813952	46	5559
2026-01-04 02:08:14.61	152.31	11.59	-35.5	-36.2	24.1	0.00e+00	0	39	0	585105408	44	5880
2026-01-04 02:08:15.62	152.31	11.69	-35.5	-36.2	24.2	0.00e+00	0	39	0	590348288	44	5832
2026-01-04 02:08:16.62	152.30	11.78	-35.7	-36.4	24.2	0.00e+00	0	39	0	596639744	44	6025
2026-01-04 02:08:17.63	152.30	11.87	-35.3	-35.9	24.4	0.00e+00	0	39	0	601882624	44	5689
2026-01-04 02:08:18.64	152.30	11.97	-35.1	-35.8	24.5	0.00e+00	0	39	0	607125504	44	5626
2026-01-04 02:08:19.65	152.29	12.06	-35.2	-35.9	24.5	0.00e+00	0	39	0	613416960	44	5694
2026-01-04 02:08:20.66	152.29	12.16	-35.0	-35.7	24.6	0.00e+00	0	39	0	618659840	44	5562
2026-01-04 02:08:21.67	152.28	12.26	-35.2	-35.9	24.6	0.00e+00	0	39	0	624951296	44	5641
2026-01-04 02:08:22.68	152.28	12.35	-35.3	-36.0	24.4	0.00e+00	0	39	0	630194176	44	5721
2026-01-04 02:08:23.69	152.28	12.45	-35.1	-35.8	24.6	0.00e+00	0	39	0	636485632	44	5569
2026-01-04 02:08:24.70	152.27	12.55	-36.1	-36.9	23.2	0.00e+00	0	39	0	641728512	44	6368
2026-01-04 02:08:25.72	152.27	12.65	-35.4	-36.1	24.5	0.00e+00	0	39	0	648019968	44	5825
2026-01-04 02:08:26.72	152.26	12.75	-35.5	-36.2	24.8	0.00e+00	0	39	0	653262848	44	5840
2026-01-04 02:08:27.73	152.26	12.84	-34.9	-35.6	24.8	0.00e+00	0	39	0	658505728	44	5481
2026-01-04 02:08:28.74	152.25	12.94	-34.7	-35.4	24.9	0.00e+00	0	39	0	664797184	42	6003
2026-01-04 02:08:29.75	152.25	13.04	-34.9	-35.6	24.7	0.00e+00	0	39	0	670040064	42	6120
2026-01-04 02:08:30.76	152.25	13.14	-34.9	-35.6	24.7	0.00e+00	0	39	0	676331520	42	6140
2026-01-04 02:08:31.77	152.24	13.24	-34.8	-35.5	24.9	0.00e+00	0	39	0	681574400	42	6068
2026-01-04 02:08:32.78	152.24	13.34	-35.1	-35.7	24.9	0.00e+00	0	39	0	686817280	42	6235
2026-01-04 02:08:33.79	152.23	13.45	-34.4	-35.1	25.3	0.00e+00	0	39	0	693108736	42	5805
2026-01-04 02:08:34.80	152.23	13.55	-34.6	-35.3	25.2	0.00e+00	0	39	0	698351616	42	5907
2026-01-04 02:08:35.81	152.22	13.65	-34.5	-35.1	25.4	0.00e+00	0	39	0	704643072	42	5820
2026-01-04 02:08:36.82	152.22	13.75	-34.2	-34.8	25.5	0.00e+00	0	39	0	709885952	42	5619
2026-01-04 02:08:37.83	152.21	13.85	-34.2	-34.8	25.4	0.00e+00	0	39	0	715128832	42	5619
2026-01-04 02:08:38.84	152.21	13.96	-34.1	-34.8	25.5	0.00e+00	0	39	0	721420288	42	5572
2026-01-04 02:08:39.85	152.20	14.06	-34.1	-34.8	25.6	0.00e+00	0	39	0	726663168	42	5593
2026-01-04 02:08:40.85	152.20	14.16	-34.1	-34.8	25.5	0.00e+00	0	39	0	732954624	42	5575
2026-01-04 02:08:41.86	152.19	14.27	-34.0	-34.7	25.7	0.00e+00	0	39	0	738197504	42	5521
2026-01-04 02:08:42.87	152.19	14.37	-34.0	-34.7	25.7	0.00e+00	0	39	0	744488960	42	5527
2026-01-04 02:08:43.89	152.18	14.48	-34.1	-34.8	25.6	0.00e+00	0	39	0	749731840	42	5588
2026-01-04 02:08:44.89	152.18	14.59	-34.0	-34.6	25.6	0.00e+00	0	39	0	754974720	42	5497
2026-01-04 02:08:45.90	152.17	14.69	-34.4	-35.1	25.4	0.00e+00	0	39	0	761266176	42	5784
2026-01-04 02:08:46.91	152.16	14.80	-34.2	-34.9	25.8	0.00e+00	0	39	0	766509056	42	5641
2026-01-04 02:08:47.92	152.16	14.91	-34.0	-34.7	25.6	0.00e+00	0	39	0	772800512	42	5549
2026-01-04 02:08:48.93	152.15	15.02	-34.4	-35.1	25.3	0.00e+00	0	39	0	778043392	42	5787
2026-01-04 02:08:49.94	152.15	15.12	-34.6	-35.3	25.3	0.00e+00	0	39	0	783286272	42	5913
2026-01-04 02:08:50.95	152.14	15.23	-34.2	-34.8	25.5	0.00e+00	0	39	0	789577728	42	5624
2026-01-04 02:08:51.96	152.14	15.34	-34.0	-34.6	25.8	0.00e+00	0	39	0	794820608	42	5477
2026-01-04 02:08:52.97	152.13	15.45	-33.9	-34.6	25.7	0.00e+00	0	39	0	801112064	42	5479
2026-01-04 02:08:53.98	152.12	15.56	-34.3	-35.0	25.5	0.00e+00	0	39	0	806354944	42	5709
2026-01-04 02:08:54.99	152.12	15.67	-34.3	-35.0	26.0	0.00e+00	0	39	0	811597824	42	5731
2026-01-04 02:08:55.99	152.11	15.78	-34.4	-35.0	25.8	0.00e+00	0	39	0	817889280	42	5725
2026-01-04 02:08:57.00	152.11	15.90	-34.1	-34.8	25.7	0.00e+00	0	39	0	823132160	42	5573
2026-01-04 02:08:58.01	152.10	16.01	-33.9	-34.6	25.8	0.00e+00	0	39	0	829423616	42	5484
2026-01-04 02:08:59.02	152.09	16.12	-34.1	-34.8	25.9	0.00e+00	0	39	0	834666496	42	5592
2026-01-04 02:09:00.03	152.09	16.23	-34.6	-35.3	25.7	0.00e+00	0	39	0	840957952	42	5917
2026-01-04 02:09:01.04	152.08	16.35	-33.7	-34.3	26.1	0.00e+00	0	39	0	846200832	40	5935
2026-01-04 02:09:02.05	152.07	16.46	-34.2	-34.9	25.7	0.00e+00	0	39	0	851443712	40	6331
2026-01-04 02:09:03.06	152.07	16.58	-33.8	-34.5	26.2	0.00e+00	0	40	0	857735168	42	5419
2026-01-04 02:09:04.07	152.06	16.69	-33.8	-34.4	26.0	0.00e+00	0	39	0	862978048	40	6015
2026-01-04 02:09:05.08	152.05	16.81	-33.9	-34.5	26.4	0.00e+00	0	39	0	869269504	40	6070
2026-01-04 02:09:06.09	152.05	16.93	-33.7	-34.3	26.4	0.00e+00	0	39	0	874512384	40	5960
2026-01-04 02:09:07.10	152.04	17.04	-33.8	-34.5	26.3	0.00e+00	0	39	0	879755264	40	6069
2026-01-04 02:09:08.11	152.03	17.16	-34.0	-34.6	26.1	0.00e+00	0	39	0	886046720	40	6127
2026-01-04 02:09:09.12	152.03	17.28	-34.4	-35.1	26.0	0.00e+00	0	39	0	891289600	40	6516
2026-01-04 02:09:10.13	152.02	17.40	-33.4	-34.1	26.7	0.00e+00	0	39	0	897581056	40	5764
2026-01-04 02:09:11.14	152.01	17.52	-33.3	-33.9	26.6	0.00e+00	0	39	0	902823936	40	5685
2026-01-04 02:09:12.15	152.01	17.64	-33.6	-34.2	26.6	0.00e+00	0	39	0	908066816	40	5871
2026-01-04 02:09:13.15	152.00	17.76	-33.4	-34.1	26.7	0.00e+00	0	39	0	914358272	40	5772
2026-01-04 02:09:14.16	151.99	17.88	-33.0	-33.7	26.8	0.00e+00	0	39	0	919601152	40	5524
2026-01-04 02:09:15.17	151.98	18.00	-33.9	-34.5	26.8	0.00e+00	0	39	0	925892608	40	6037
2026-01-04 02:09:16.18	151.98	18.13	-33.2	-33.9	26.8	0.00e+00	0	39	0	931135488	40	5641
2026-01-04 02:09:17.19	151.97	18.25	-33.1	-33.8	27.0	0.00e+00	0	39	0	937426944	40	5582
2026-01-04 02:09:18.20	151.96	18.37	-33.2	-33.8	27.0	0.00e+00	0	39	0	942669824	40	5612
2026-01-04 02:09:19.21	151.95	18.50	-33.0	-33.6	27.0	0.00e+00	0	39	0	948961280	40	5500
2026-01-04 02:09:20.22	151.94	18.62	-33.1	-33.7	26.9	0.00e+00	0	39	0	954204160	38	6229
2026-01-04 02:09:21.23	151.94	18.75	-33.4	-34.0	26.8	0.00e+00	0	39	0	959447040	40	5732
2026-01-04 02:09:22.24	151.93	18.87	-33.1	-33.7	27.1	0.00e+00	0	39	0	965738496	40	5554
2026-01-04 02:09:23.25	151.92	19.00	-32.9	-33.5	27.0	0.00e+00	0	39	0	970981376	40	5428
2026-01-04 02:09:24.26	151.91	19.13	-33.1	-33.7	27.1	0.00e+00	0	39	0	977272832	40	5547
2026-01-04 02:09:25.27	151.90	19.26	-33.2	-33.9	26.9	0.00e+00	0	39	0	982515712	40	5644
2026-01-04 02:09:26.28	151.89	19.39	-33.0	-33.6	27.0	0.00e+00	0	39	0	987758592	40	5501
2026-01-04 02:09:27.29	151.88	19.52	-32.8	-33.5	27.0	0.00e+00	0	39	0	994050048	38	6041
2026-01-04 02:09:28.30	151.88	19.65	-32.6	-33.3	27.1	0.00e+00	0	39	0	999292928	38	5904
2026-01-04 02:09:29.31	151.87	19.78	-33.0	-33.6	26.2	0.00e+00	0	39	0	1004535808	38	6138
2026-01-04 02:09:30.32	151.86	19.91	-33.0	-33.6	27.0	0.00e+00	0	39	0	1010827264	40	5469
2026-01-04 02:09:31.33	151.85	20.04	-33.4	-34.0	26.9	0.00e+00	0	39	0	1016070144	40	5749
2026-01-04 02:09:32.34	151.84	20.17	-33.3	-33.9	26.9	0.00e+00	0	39	0	1022361600	40	5676
2026-01-04 02:09:33.35	151.83	20.31	-33.3	-34.0	26.6	0.00e+00	0	39	0	1027604480	40	5704
2026-01-04 02:09:34.35	151.82	20.44	-33.2	-33.9	27.0	0.00e+00	0	39	0	1033895936	40	5647
2026-01-04 02:09:35.36	151.81	20.58	-33.1	-33.7	26.8	0.00e+00	0	39	0	1039138816	40	5525
2026-01-04 02:09:36.37	151.80	20.71	-33.0	-33.6	26.9	0.00e+00	0	39	0	1045430272	40	5502
2026-01-04 02:09:37.38	151.79	20.85	-33.0	-33.6	26.9	0.00e+00	0	39	0	1050673152	38	6163
2026-01-04 02:09:38.39	151.78	20.99	-32.9	-33.5	26.9	0.00e+00	0	39	0	1055916032	38	6095
2026-01-04 02:09:39.40	151.77	21.13	-33.0	-33.6	27.0	0.00e+00	0	39	0	1062207488	38	6150
2026-01-04 02:09:40.41	151.76	21.26	-32.9	-33.6	27.0	0.00e+00	0	39	0	1067450368	38	6151
2026-01-04 02:09:41.42	151.75	21.40	-33.2	-33.8	26.0	0.00e+00	0	39	0	1073741824	38	6299
2026-01-04 02:09:42.43	151.74	21.54	-33.5	-34.2	27.1	0.00e+00	0	39	0	1078984704	40	5858
2026-01-04 02:09:43.44	151.73	21.69	-33.6	-34.2	27.1	0.00e+00	0	39	0	1084227584	40	5867
2026-01-04 02:09:44.45	151.72	21.83	-33.5	-34.1	26.9	0.00e+00	0	39	0	1090519040	40	5825
2026-01-04 02:09:45.46	151.71	21.97	-33.7	-34.4	27.0	0.00e+00	0	39	0	1095761920	40	6003
2026-01-04 02:09:46.47	151.70	22.11	-33.6	-34.3	26.9	0.00e+00	0	39	0	1102053376	40	5937
2026-01-04 02:09:47.48	151.69	22.26	-34.8	-35.4	26.2	0.00e+00	0	39	0	1107296256	40	6703
2026-01-04 02:09:48.49	151.68	22.40	-34.0	-34.7	26.6	0.00e+00	0	39	0	1112539136	40	6180
2026-01-04 02:09:49.50	151.67	22.55	-33.8	-34.4	26.8	0.00e+00	0	39	0	1118830592	40	6011
2026-01-04 02:09:50.51	151.65	22.70	-33.8	-34.5	26.8	0.00e+00	0	39	0	1124073472	40	6050
2026-01-04 02:09:51.52	151.64	22.85	-33.8	-34.4	26.6	0.00e+00	0	39	0	1130364928	40	6021
2026-01-04 02:09:52.53	151.63	22.99	-33.6	-34.3	26.8	0.00e+00	0	39	0	1135607808	40	5954
2026-01-04 02:09:53.54	151.62	23.14	-33.5	-34.2	26.8	0.00e+00	0	39	0	1141899264	40	5831
2026-01-04 02:09:54.54	151.61	23.29	-33.9	-34.5	26.8	0.00e+00	0	39	0	1147142144	38	6811
2026-01-04 02:09:55.56	151.59	23.45	-33.3	-33.9	26.8	0.00e+00	0	39	0	1152385024	40	5695
2026-01-04 02:09:56.57	151.58	23.60	-33.0	-33.6	27.3	0.00e+00	0	39	0	1158676480	40	5479
2026-01-04 02:09:57.57	151.57	23.75	-33.2	-33.9	26.7	0.00e+00	0	39	0	1163919360	40	5643
2026-01-04 02:09:58.58	151.56	23.90	-33.4	-34.0	26.9	0.00e+00	0	39	0	1170210816	40	5737
2026-01-04 02:09:59.60	151.54	24.06	-32.8	-33.4	27.2	0.00e+00	0	39	0	1175453696	40	5356
2026-01-04 02:10:00.60	151.53	24.21	-32.9	-33.5	27.2	0.00e+00	0	39	0	1180696576	38	6099
2026-01-04 02:10:01.61	151.52	24.37	-32.5	-33.2	27.5	0.00e+00	0	39	0	1186988032	38	5841
2026-01-04 02:10:02.62	151.50	24.53	-32.0	-32.6	27.7	0.00e+00	0	39	0	1192230912	38	5474
2026-01-04 02:10:03.63	151.49	24.69	-31.9	-32.6	27.6	0.00e+00	0	39	0	1198522368	38	5460
2026-01-04 02:10:04.64	151.48	24.85	-32.0	-32.6	27.7	0.00e+00	0	39	0	1203765248	38	5467
2026-01-04 02:10:05.65	151.46	25.01	-32.1	-32.7	27.5	0.00e+00	0	39	0	1209008128	38	5542
2026-01-04 02:10:06.66	151.45	25.17	-32.1	-32.7	27.5	0.00e+00	0	39	0	1215299584	38	5563
2026-01-04 02:10:07.67	151.44	25.33	-31.9	-32.5	27.7	0.00e+00	0	39	0	1220542464	38	5439
2026-01-04 02:10:08.68	151.42	25.50	-31.9	-32.5	27.7	0.00e+00	0	39	0	1226833920	38	5405
2026-01-04 02:10:09.69	151.41	25.66	-32.1	-32.7	27.6	0.00e+00	0	39	0	1232076800	38	5548
2026-01-04 02:10:10.70	151.39	25.83	-32.2	-32.8	27.6	0.00e+00	0	39	0	1238368256	38	5617
2026-01-04 02:10:11.71	151.38	25.99	-31.7	-32.4	27.7	0.00e+00	0	39	0	1243611136	38	5344
2026-01-04 02:10:12.71	151.36	26.16	-31.5	-32.1	27.9	0.00e+00	0	39	0	1249902592	36	5788
2026-01-04 02:10:13.72	151.35	26.33	-31.6	-32.2	27.8	0.00e+00	0	39	0	1255145472	36	5890
2026-01-04 02:10:14.73	151.33	26.50	-31.4	-32.0	27.9	0.00e+00	0	39	0	1260388352	36	5756
2026-01-04 02:10:15.74	151.32	26.67	-31.2	-31.8	28.1	0.00e+00	0	39	0	1266679808	36	5628
2026-01-04 02:10:16.75	151.30	26.84	-31.3	-31.9	28.1	0.00e+00	0	39	0	1271922688	36	5691
2026-01-04 02:10:17.76	151.28	27.01	-31.2	-31.8	28.1	0.00e+00	0	39	0	1278214144	36	5623
2026-01-04 02:10:18.77	151.27	27.19	-31.2	-31.8	28.1	0.00e+00	0	39	0	1283457024	36	5599
2026-01-04 02:10:19.78	151.25	27.36	-31.2	-31.8	28.2	0.00e+00	0	39	0	1288699904	36	5608
2026-01-04 02:10:20.79	151.23	27.54	-31.2	-31.8	28.2	0.00e+00	0	40	0	1294991360	36	5593
2026-01-04 02:10:21.80	151.22	27.72	-31.4	-32.0	27.9	0.00e+00	0	40	0	1300234240	36	5727
2026-01-04 02:10:22.81	151.20	27.90	-31.4	-32.0	28.0	0.00e+00	0	39	0	1306525696	36	5700
2026-01-04 02:10:23.82	151.18	28.08	-31.4	-32.0	28.1	0.00e+00	0	39	0	1311768576	36	5705
2026-01-04 02:10:24.83	151.17	28.26	-31.4	-32.0	28.0	0.00e+00	0	39	0	1317011456	36	5702
2026-01-04 02:10:25.84	151.15	28.44	-31.5	-32.1	28.0	0.00e+00	0	39	0	1323302912	36	5802
2026-01-04 02:10:26.85	151.13	28.62	-31.4	-32.0	27.9	0.00e+00	0	39	0	1328545792	36	5741
2026-01-04 02:10:27.86	151.11	28.81	-31.4	-32.1	28.0	0.00e+00	0	39	0	1334837248	36	5769
2026-01-04 02:10:28.87	151.09	28.99	-31.6	-32.2	27.8	0.00e+00	0	39	0	1340080128	36	5876
2026-01-04 02:10:29.88	151.07	29.18	-31.5	-32.2	27.9	0.00e+00	0	39	0	1346371584	36	5846
2026-01-04 02:10:30.89	151.05	29.37	-31.6	-32.2	28.0	0.00e+00	0	39	0	1351614464	36	5881
2026-01-04 02:10:31.90	151.03	29.56	-31.5	-32.1	28.0	0.00e+00	0	39	0	1356857344	36	5819
2026-01-04 02:10:32.91	151.01	29.75	-31.6	-32.2	28.0	0.00e+00	0	39	0	1363148800	36	5878
2026-01-04 02:10:33.92	150.99	29.94	-31.4	-32.1	27.9	0.00e+00	0	39	0	1368391680	36	5766
2026-01-04 02:10:34.93	150.97	30.13	-31.6	-32.2	28.1	0.00e+00	0	40	0	1374683136	36	5859
2026-01-04 02:10:35.94	150.95	30.33	-31.4	-32.1	28.1	0.00e+00	0	40	0	1379926016	36	5771
2026-01-04 02:10:36.95	150.93	30.53	-31.5	-32.1	28.1	0.00e+00	0	40	0	1385168896	36	5770
2026-01-04 02:10:37.96	150.91	30.72	-31.4	-32.0	28.1	0.00e+00	0	40	0	1391460352	36	5746
2026-01-04 02:10:38.97	150.89	30.92	-31.3	-32.0	28.2	0.00e+00	0	39	0	1396703232	36	5703
2026-01-04 02:10:39.98	150.87	31.12	-31.3	-31.9	28.3	0.00e+00	0	39	0	1402994688	36	5655
2026-01-04 02:10:40.99	150.85	31.32	-31.0	-31.6	28.4	0.00e+00	0	40	0	1408237568	36	5484
2026-01-04 02:10:42.00	150.82	31.53	-31.0	-31.6	28.4	0.00e+00	0	39	0	1413480448	36	5460
2026-01-04 02:10:43.01	150.80	31.73	-30.9	-31.5	28.4	0.00e+00	0	39	0	1419771904	36	5436
2026-01-04 02:10:44.02	150.78	31.94	-30.8	-31.4	28.5	0.00e+00	0	39	0	1425014784	36	5373
2026-01-04 02:10:45.03	150.76	32.14	-30.8	-31.4	28.4	0.00e+00	0	39	0	1431306240	36	5343
2026-01-04 02:10:46.04	150.73	32.35	-30.8	-31.4	28.5	0.00e+00	0	39	0	1436549120	36	5344
2026-01-04 02:10:47.05	150.71	32.56	-30.9	-31.6	28.4	0.00e+00	0	39	0	1442840576	36	5451
2026-01-04 02:10:48.06	150.68	32.77	-30.9	-31.6	28.3	0.00e+00	0	39	0	1448083456	36	5440
2026-01-04 02:10:49.07	150.66	32.99	-31.1	-31.7	28.4	0.00e+00	0	39	0	1454374912	36	5543
2026-01-04 02:10:50.08	150.63	33.20	-31.2	-31.8	28.2	0.00e+00	0	39	0	1459617792	36	5596
2026-01-04 02:10:51.09	150.61	33.42	-31.2	-31.8	28.3	0.00e+00	0	40	0	1464860672	36	5594
2026-01-04 02:10:52.10	150.58	33.63	-31.1	-31.7	28.4	0.00e+00	0	39	0	1471152128	36	5530
2026-01-04 02:10:53.11	150.56	33.85	-31.1	-31.7	28.3	0.00e+00	0	40	0	1476395008	36	5530
2026-01-04 02:10:54.12	150.53	34.07	-30.9	-31.5	28.5	0.00e+00	0	39	0	1482686464	36	5408
2026-01-04 02:10:55.13	150.50	34.30	-31.6	-32.2	28.2	0.00e+00	0	39	0	1487929344	36	5836
2026-01-04 02:10:56.14	150.47	34.52	-30.9	-31.5	28.6	0.00e+00	0	40	0	1493172224	36	5417
2026-01-04 02:10:57.15	150.45	34.75	-31.0	-31.6	28.5	0.00e+00	0	40	0	1499463680	36	5464
2026-01-04 02:10:58.16	150.42	34.97	-31.1	-31.7	28.4	0.00e+00	0	40	0	1504706560	36	5560
2026-01-04 02:10:59.17	150.39	35.20	-30.9	-31.5	28.5	0.00e+00	0	39	0	1510998016	36	5434
2026-01-04 02:11:00.18	150.36	35.43	-30.9	-31.6	28.4	0.00e+00	0	40	0	1516240896	36	5452
2026-01-04 02:11:01.19	150.33	35.66	-30.9	-31.5	28.5	0.00e+00	0	39	0	1521483776	36	5410
2026-01-04 02:11:02.20	150.30	35.90	-31.0	-31.6	28.4	0.00e+00	0	40	0	1527775232	36	5463
2026-01-04 02:11:03.21	150.27	36.13	-30.7	-31.3	28.6	0.00e+00	0	39	0	1533018112	34	5948
2026-01-04 02:11:04.22	150.24	36.37	-30.7	-31.3	28.6	0.00e+00	0	40	0	1539309568	34	5946
2026-01-04 02:11:05.23	150.21	36.61	-30.8	-31.4	28.5	0.00e+00	0	40	0	1544552448	34	5984
2026-01-04 02:11:06.24	150.17	36.85	-30.8	-31.4	28.6	0.00e+00	0	40	0	1550843904	34	6032
2026-01-04 02:11:07.24	150.14	37.09	-30.9	-31.5	28.5	0.00e+00	0	40	0	1556086784	34	6054
2026-01-04 02:11:08.25	150.11	37.33	-31.0	-31.7	28.3	0.00e+00	0	39	0	1561329664	34	6177
2026-01-04 02:11:09.26	150.07	37.58	-30.9	-31.5	28.5	0.00e+00	0	40	0	1567621120	34	6039
2026-01-04 02:11:10.28	150.04	37.83	-30.8	-31.4	28.6	0.00e+00	0	39	0	1572864000	34	6015
2026-01-04 02:11:11.28	150.00	38.08	-31.0	-31.6	28.5	0.00e+00	0	40	0	1579155456	34	6135
2026-01-04 02:11:12.29	149.97	38.33	-31.2	-31.8	28.4	0.00e+00	0	39	0	1584398336	34	6295
2026-01-04 02:11:13.30	149.93	38.58	-31.3	-31.9	28.4	0.00e+00	0	40	0	1589641216	34	6357
2026-01-04 02:11:14.31	149.89	38.84	-32.2	-32.8	27.8	0.00e+00	0	39	0	1595932672	36	6297
2026-01-04 02:11:15.32	149.86	39.09	-31.8	-32.4	27.9	0.00e+00	0	40	0	1601175552	36	6021
2026-01-04 02:11:16.33	149.82	39.35	-31.6	-32.2	28.2	0.00e+00	0	39	0	1607467008	36	5840
2026-01-04 02:11:17.34	149.78	39.61	-31.7	-32.3	28.1	0.00e+00	0	39	0	1612709888	36	5903
2026-01-04 02:11:18.35	149.74	39.88	-31.9	-32.5	27.9	0.00e+00	0	40	0	1617952768	36	6085
2026-01-04 02:11:19.36	149.70	40.14	-31.8	-32.4	27.9	0.00e+00	0	39	0	1624244224	36	5997
2026-01-04 02:11:20.37	149.66	40.41	-31.9	-32.5	27.9	0.00e+00	0	40	0	1629487104	36	6083
2026-01-04 02:11:21.38	149.62	40.68	-31.9	-32.5	27.8	0.00e+00	0	39	0	1635778560	36	6065
2026-01-04 02:11:22.39	149.58	40.95	-31.6	-32.2	28.0	0.00e+00	0	40	0	1641021440	36	5895
2026-01-04 02:11:23.39	149.53	41.22	-31.8	-32.4	27.9	0.00e+00	0	39	0	1647312896	36	6014
2026-01-04 02:11:24.40	149.49	41.49	-32.0	-32.7	27.8	0.00e+00	0	39	0	1652555776	36	6184
2026-01-04 02:11:25.41	149.44	41.77	-31.8	-32.4	27.9	0.00e+00	0	39	0	1658847232	36	6033
2026-01-04 02:11:26.42	149.40	42.05	-31.9	-32.5	27.9	0.00e+00	0	40	0	1664090112	36	6055
2026-01-04 02:11:27.43	149.35	42.33	-31.6	-32.2	27.9	0.00e+00	0	39	0	1669332992	36	5895
2026-01-04 02:11:28.44	149.30	42.61	-31.3	-31.9	28.2	0.00e+00	0	40	0	1675624448	36	5662
2026-01-04 02:11:29.45	149.26	42.90	-31.8	-32.4	28.1	0.00e+00	0	40	0	1680867328	36	6000
2026-01-04 02:11:30.46	149.21	43.19	-31.6	-32.2	27.9	0.00e+00	0	39	0	1686110208	36	5881
2026-01-04 02:11:31.47	149.16	43.48	-32.0	-32.6	27.9	0.00e+00	0	40	0	1692401664	36	6156
2026-01-04 02:11:32.48	149.10	43.77	-31.5	-32.1	28.1	0.00e+00	0	40	0	1697644544	36	5816
2026-01-04 02:11:33.49	149.05	44.06	-31.3	-31.9	28.3	0.00e+00	0	40	0	1703936000	36	5670
2026-01-04 02:11:34.49	149.00	44.36	-31.5	-32.1	28.1	0.00e+00	0	40	0	1709178880	36	5826
2026-01-04 02:11:35.50	148.94	44.65	-31.5	-32.2	28.2	0.00e+00	0	40	0	1714421760	36	5846
2026-01-04 02:11:36.51	148.89	44.95	-31.2	-31.9	28.4	0.00e+00	0	40	0	1720713216	36	5644
2026-01-04 02:11:37.52	148.83	45.26	-31.2	-31.8	28.3	0.00e+00	0	39	0	1725956096	36	5607
2026-01-04 02:11:38.53	148.78	45.56	-31.5	-32.2	28.2	0.00e+00	0	40	0	1732247552	36	5832
2026-01-04 02:11:39.54	148.72	45.87	-31.8	-32.4	28.1	0.00e+00	0	39	0	1737490432	36	6009
2026-01-04 02:11:40.55	148.66	46.18	-31.6	-32.2	28.1	0.00e+00	0	40	0	1743781888	36	5886
2026-01-04 02:11:41.56	148.59	46.49	-31.7	-32.3	28.2	0.00e+00	0	40	0	1749024768	36	5915
2026-01-04 02:11:42.57	148.53	46.81	-31.6	-32.2	28.0	0.00e+00	0	40	0	1755316224	36	5856
2026-01-04 02:11:43.57	148.47	47.12	-31.6	-32.3	28.3	0.00e+00	0	40	0	1760559104	36	5904
2026-01-04 02:11:44.58	148.40	47.44	-31.9	-32.5	28.1	0.00e+00	0	40	0	1765801984	36	6069
2026-01-04 02:11:45.59	148.34	47.76	-31.5	-32.1	28.1	0.00e+00	0	40	0	1772093440	36	5811
2026-01-04 02:11:46.60	148.27	48.08	-31.8	-32.4	27.9	0.00e+00	0	40	0	1777336320	36	6031
2026-01-04 02:11:47.61	148.20	48.41	-31.9	-32.5	27.8	0.00e+00	0	40	0	1783627776	36	6062
2026-01-04 02:11:48.62	148.13	48.74	-31.8	-32.4	27.9	0.00e+00	0	40	0	1788870656	36	6028
2026-01-04 02:11:49.63	148.05	49.07	-31.4	-32.0	28.2	0.00e+00	0	39	0	1794113536	36	5759
2026-01-04 02:11:50.64	147.98	49.40	-31.8	-32.4	28.0	0.00e+00	0	40	0	1800404992	36	6004
2026-01-04 02:11:51.65	147.90	49.74	-32.2	-32.8	27.8	0.00e+00	0	39	0	1805647872	36	6297
2026-01-04 02:11:52.66	147.82	50.08	-32.3	-32.9	27.6	0.00e+00	0	40	0	1811939328	36	6385
2026-01-04 02:11:53.67	147.74	50.42	-32.5	-33.2	27.4	0.00e+00	0	40	0	1817182208	36	6550
2026-01-04 02:11:54.68	147.66	50.76	-32.9	-33.6	27.3	0.00e+00	0	39	0	1822425088	38	6104
2026-01-04 02:11:55.69	147.58	51.11	-33.2	-33.9	27.2	0.00e+00	0	39	0	1828716544	38	6334
2026-01-04 02:11:56.70	147.49	51.46	-33.1	-33.7	27.2	0.00e+00	0	39	0	1833959424	40	5532
2026-01-04 02:11:57.71	147.40	51.81	-33.2	-33.8	27.1	0.00e+00	0	39	0	1840250880	40	5603
2026-01-04 02:11:58.72	147.31	52.16	-33.4	-34.0	26.8	0.00e+00	0	39	0	1845493760	40	5759
2026-01-04 02:11:59.73	147.22	52.52	-33.1	-33.7	27.0	0.00e+00	0	39	0	1851785216	40	5542
2026-01-04 02:12:00.74	147.12	52.88	-32.8	-33.4	27.2	0.00e+00	0	39	0	1857028096	40	5374
2026-01-04 02:12:01.75	147.03	53.24	-32.3	-32.9	27.6	0.00e+00	0	39	0	1862270976	38	5660
2026-01-04 02:12:02.76	146.93	53.60	-32.4	-33.0	27.5	0.00e+00	0	39	0	1868562432	38	5751
2026-01-04 02:12:03.77	146.82	53.97	-32.8	-33.5	27.1	0.00e+00	0	40	0	1873805312	38	6058
2026-01-04 02:12:04.78	146.72	54.33	-33.2	-33.8	26.8	0.00e+00	0	40	0	1880096768	38	6275
2026-01-04 02:12:05.79	146.61	54.70	-32.8	-33.4	27.2	0.00e+00	0	40	0	1885339648	38	5980
2026-01-04 02:12:06.80	146.50	55.08	-32.9	-33.5	27.2	0.00e+00	0	40	0	1890582528	38	6064
2026-01-04 02:12:07.81	146.39	55.45	-32.6	-33.2	27.4	0.00e+00	0	39	0	1896873984	38	5847
2026-01-04 02:12:08.82	146.27	55.83	-32.8	-33.4	27.0	0.00e+00	0	39	0	1902116864	38	6027
2026-01-04 02:12:09.83	146.15	56.21	-32.9	-33.5	27.2	0.00e+00	0	39	0	1908408320	38	6093
2026-01-04 02:12:10.84	146.02	56.60	-32.4	-33.1	27.3	0.00e+00	0	40	0	1913651200	38	5809
2026-01-04 02:12:11.85	145.90	56.98	-32.6	-33.2	27.2	0.00e+00	0	40	0	1918894080	38	5894
2026-01-04 02:12:12.86	145.76	57.37	-32.2	-32.8	27.6	0.00e+00	0	39	0	1925185536	38	5604
2026-01-04 02:12:13.87	145.63	57.76	-32.1	-32.7	27.7	0.00e+00	0	39	0	1930428416	38	5524
2026-01-04 02:12:14.88	145.49	58.16	-32.3	-32.9	27.8	0.00e+00	0	40	0	1936719872	38	5666
2026-01-04 02:12:15.88	145.35	58.55	-32.1	-32.7	27.8	0.00e+00	0	40	0	1941962752	38	5539
2026-01-04 02:12:16.89	145.20	58.95	-31.9	-32.5	27.9	0.00e+00	0	39	0	1948254208	38	5436
2026-01-04 02:12:17.90	145.04	59.35	-32.0	-32.6	27.9	0.00e+00	0	40	0	1953497088	38	5500
2026-01-04 02:12:18.91	144.89	59.75	-31.3	-31.9	28.4	0.00e+00	0	39	0	1959788544	36	5653
2026-01-04 02:12:19.92	144.72	60.16	-31.3	-31.9	28.3	0.00e+00	0	39	0	1965031424	36	5690
2026-01-04 02:12:20.93	144.56	60.56	-31.5	-32.2	28.2	0.00e+00	0	39	0	1970274304	36	5831
2026-01-04 02:12:21.94	144.38	60.97	-31.6	-32.3	28.1	0.00e+00	0	40	0	1976565760	36	5935
2026-01-04 02:12:22.95	144.20	61.39	-32.0	-32.7	28.1	0.00e+00	0	40	0	1981808640	36	6189
2026-01-04 02:12:23.96	144.01	61.80	-32.2	-32.9	27.9	0.00e+00	0	39	0	1988100096	36	6337
2026-01-04 02:12:24.97	143.82	62.22	-32.3	-32.9	27.5	0.00e+00	0	40	0	1993342976	36	6354
2026-01-04 02:12:25.98	143.62	62.64	-32.3	-32.9	27.7	0.00e+00	0	40	0	1998585856	36	6387
2026-01-04 02:12:26.99	143.42	63.06	-31.5	-32.1	28.4	0.00e+00	0	40	0	2004877312	36	5775
2026-01-04 02:12:28.00	143.20	63.49	-31.1	-31.7	28.5	0.00e+00	0	40	0	2010120192	36	5514
2026-01-04 02:12:29.01	142.98	63.91	-31.5	-32.1	28.1	0.00e+00	0	40	0	2015363072	36	5812
2026-01-04 02:12:30.01	142.75	64.34	-31.3	-31.9	28.3	0.00e+00	0	40	0	2021654528	36	5692
2026-01-04 02:12:31.02	142.51	64.77	-30.7	-31.3	28.6	0.00e+00	0	40	0	2026897408	34	5908
2026-01-04 02:12:32.03	142.26	65.20	-30.9	-31.5	28.6	0.00e+00	0	40	0	2033188864	34	6046
2026-01-04 02:12:33.04	142.00	65.63	-31.8	-32.5	28.1	0.00e+00	0	40	0	2038431744	36	6040
2026-01-04 02:12:34.05	141.73	66.07	-31.4	-32.0	28.3	0.00e+00	0	40	0	2044723200	36	5738
2026-01-04 02:12:35.06	141.45	66.51	-31.4	-32.1	28.3	0.00e+00	0	40	0	2049966080	36	5774
2026-01-04 02:12:36.07	141.16	66.95	-31.6	-32.2	28.2	0.00e+00	0	40	0	2056257536	36	5887
2026-01-04 02:12:37.08	140.85	67.39	-31.4	-32.1	28.3	0.00e+00	0	40	0	2061500416	36	5770
2026-01-04 02:12:38.09	140.53	67.83	-31.2	-31.8	28.6	0.00e+00	0	40	0	2066743296	36	5601
2026-01-04 02:12:39.10	140.20	68.28	-31.3	-31.9	28.3	0.00e+00	0	39	0	2073034752	36	5683
2026-01-04 02:12:40.11	139.85	68.72	-30.6	-31.3	28.7	0.00e+00	0	40	0	2078277632	34	5907
2026-01-04 02:12:41.12	139.49	69.17	-31.5	-32.1	28.3	0.00e+00	0	40	0	2084569088	34	6494
2026-01-04 02:12:42.13	139.11	69.62	-31.0	-31.6	28.7	0.00e+00	0	40	0	2089811968	34	6155
2026-01-04 02:12:43.14	138.70	70.07	-30.9	-31.5	28.5	0.00e+00	0	40	0	2095054848	34	6073
2026-01-04 02:12:44.15	138.28	70.52	-31.0	-31.6	28.6	0.00e+00	0	39	0	2101346304	34	6135
2026-01-04 02:12:45.16	137.84	70.98	-30.7	-31.3	28.7	0.00e+00	0	40	0	2106589184	34	5925
2026-01-04 02:12:46.17	137.37	71.43	-30.9	-31.5	28.6	0.00e+00	0	40	0	2112880640	34	6045
2026-01-04 02:12:47.18	136.88	71.88	-30.9	-31.5	28.8	0.00e+00	0	40	0	2118123520	34	6098
2026-01-04 02:12:48.19	136.36	72.34	-31.1	-31.8	28.7	0.00e+00	0	40	0	2123366400	34	6248
2026-01-04 02:12:49.20	135.82	72.79	-31.0	-31.6	28.4	0.00e+00	0	40	0	2129657856	34	6170
2026-01-04 02:12:50.21	135.24	73.25	-31.4	-32.0	28.5	0.00e+00	0	40	0	2134900736	34	6432
2026-01-04 02:12:51.22	134.63	73.70	-31.5	-32.2	28.3	0.00e+00	0	40	0	2141192192	36	5835
2026-01-04 02:12:52.22	133.98	74.15	-31.7	-32.3	28.2	0.00e+00	0	39	0	2146435072	36	5942
2026-01-04 02:12:53.24	133.29	74.61	-31.4	-32.0	28.4	0.00e+00	0	39	0	2152726528	36	5726
2026-01-04 02:12:54.25	132.55	75.07	-30.6	-31.2	29.2	0.00e+00	0	40	0	2157969408	34	5885
2026-01-04 02:12:55.25	131.78	75.52	-30.5	-31.1	29.0	0.00e+00	0	40	0	2163212288	34	5818
2026-01-04 02:12:56.26	130.94	75.97	-31.0	-31.6	28.7	0.00e+00	0	40	0	2169503744	34	6129
2026-01-04 02:12:57.27	130.05	76.42	-30.1	-30.7	29.2	0.00e+00	0	40	0	2174746624	34	5519
2026-01-04 02:12:58.28	129.10	76.87	-29.5	-30.1	29.6	0.00e+00	0	40	0	2181038080	32	5802
2026-01-04 02:12:59.29	128.07	77.31	-29.4	-30.0	29.6	0.00e+00	0	40	0	2186280960	32	5747
2026-01-04 02:13:00.30	126.97	77.76	-29.8	-30.4	29.7	0.00e+00	0	40	0	2191523840	32	5967
2026-01-04 02:13:01.31	125.78	78.19	-29.5	-30.1	29.7	0.00e+00	0	40	0	2197815296	32	5778
2026-01-04 02:13:02.32	124.50	78.63	-29.1	-29.7	29.8	0.00e+00	0	40	0	2203058176	32	5515
2026-01-04 02:13:03.33	123.12	79.06	-29.5	-30.1	29.9	0.00e+00	0	40	0	2209349632	32	5776
2026-01-04 02:13:04.34	121.62	79.48	-29.0	-29.5	30.0	0.00e+00	0	40	0	2214592512	32	5433
2026-01-04 02:13:05.35	119.99	79.90	-28.5	-29.1	30.2	0.00e+00	0	40	0	2219835392	30	5767
2026-01-04 02:13:06.36	118.23	80.31	-28.7	-29.2	30.3	0.00e+00	0	40	0	2226126848	30	5880
2026-01-04 02:13:07.37	116.30	80.71	-28.8	-29.4	30.3	0.00e+00	0	40	0	2231369728	30	6020
2026-01-04 02:13:08.37	114.22	81.10	-28.5	-29.1	30.3	0.00e+00	0	40	0	2237661184	30	5823
2026-01-04 02:13:09.38	111.93	81.47	-28.4	-29.0	30.3	0.00e+00	0	40	0	2242904064	30	5752
2026-01-04 02:13:10.39	109.43	81.84	-28.2	-28.7	30.4	0.00e+00	0	40	0	2249195520	30	5556
2026-01-04 02:13:11.40	106.70	82.19	-28.4	-28.9	30.3	0.00e+00	0	40	0	2254438400	30	5687
2026-01-04 02:13:12.41	103.72	82.51	-28.5	-29.1	30.3	0.00e+00	0	40	0	2260729856	30	5767
2026-01-04 02:13:13.42	100.48	82.82	-28.6	-29.2	30.3	0.00e+00	0	40	0	2265972736	30	5872
2026-01-04 02:13:14.43	96.95	83.10	-28.8	-29.5	30.1	0.00e+00	0	40	0	2271215616	30	6044
2026-01-04 02:13:15.44	93.13	83.36	-29.2	-29.8	29.9	0.00e+00	0	40	0	2277507072	30	6258
2026-01-04 02:13:16.45	89.03	83.58	-29.4	-29.9	30.0	0.00e+00	0	40	0	2282749952	30	6375
2026-01-04 02:13:17.46	84.65	83.77	-29.8	-30.4	29.7	0.00e+00	0	40	0	2287992832	30	6703
2026-01-04 02:13:18.47	80.03	83.92	-29.9	-30.5	29.6	0.00e+00	0	40	0	2294284288	32	6076
2026-01-04 02:13:19.48	75.21	84.03	-30.0	-30.6	29.6	0.00e+00	0	40	0	2299527168	32	6134
2026-01-04 02:13:20.49	70.24	84.09	-29.8	-30.3	29.7	0.00e+00	0	40	0	2305818624	32	5951
2026-01-04 02:13:21.49	65.26	84.11	-29.5	-30.1	29.7	0.00e+00	0	40	0	2311061504	32	5815
2026-01-04 02:13:22.51	60.17	84.09	-30.1	-30.7	29.3	0.00e+00	0	40	0	2316304384	32	6221
2026-01-04 02:13:23.52	55.22	84.02	-30.0	-30.7	29.5	0.00e+00	0	40	0	2322595840	32	6182
2026-01-04 02:13:24.53	50.41	83.90	-29.7	-30.3	29.6	0.00e+00	0	40	0	2327838720	32	5956
2026-01-04 02:13:25.54	45.82	83.75	-29.6	-30.2	29.6	0.00e+00	0	40	0	2334130176	32	5834
2026-01-04 02:13:26.54	41.51	83.56	-29.1	-29.7	29.8	0.00e+00	0	40	0	2339373056	32	5530
2026-01-04 02:13:27.55	37.44	83.33	-29.4	-30.0	29.7	0.00e+00	0	40	0	2345664512	32	5749
2026-01-04 02:13:28.56	33.65	83.08	-29.1	-29.7	29.8	0.00e+00	0	40	0	2350907392	32	5542
2026-01-04 02:13:29.57	30.15	82.79	-29.3	-29.8	29.8	0.00e+00	0	40	0	2357198848	32	5628
2026-01-04 02:13:30.58	26.93	82.48	-28.7	-29.3	30.2	0.00e+00	0	40	0	2362441728	32	5255
2026-01-04 02:13:31.59	23.98	82.15	-29.1	-29.7	30.0	0.00e+00	0	40	0	2367684608	30	6239
2026-01-04 02:13:32.61	21.25	81.80	-29.4	-30.0	29.9	0.00e+00	0	40	0	2373976064	30	6444
2026-01-04 02:13:33.61	18.79	81.44	-29.0	-29.7	30.0	0.00e+00	0	40	0	2379218944	30	6179
2026-01-04 02:13:34.62	16.52	81.06	-29.0	-29.6	30.0	0.00e+00	0	40	0	2385510400	30	6117
2026-01-04 02:13:35.63	14.44	80.67	-29.0	-29.5	30.0	0.00e+00	0	39	0	2390753280	30	6078
2026-01-04 02:13:36.64	12.54	80.27	-28.9	-29.4	30.1	0.00e+00	0	40	0	2395996160	30	6027
2026-01-04 02:13:37.65	10.79	79.86	-29.1	-29.7	29.9	0.00e+00	0	40	0	2402287616	30	6224
2026-01-04 02:13:38.66	9.17	79.44	-28.9	-29.6	30.1	0.00e+00	0	40	0	2407530496	30	6127
2026-01-04 02:13:39.67	7.69	79.02	-28.9	-29.5	30.0	0.00e+00	0	39	0	2413821952	30	6036
2026-01-04 02:13:40.68	6.32	78.59	-28.7	-29.4	30.0	0.00e+00	0	39	0	2419064832	30	5995
2026-01-04 02:13:41.69	5.05	78.15	-29.6	-30.2	29.8	0.00e+00	0	39	0	2424307712	30	6607
2026-01-04 02:13:42.70	3.87	77.71	-29.3	-30.0	29.8	0.00e+00	0	40	0	2430599168	30	6408
2026-01-04 02:13:43.71	2.78	77.27	-29.4	-30.0	29.8	0.00e+00	0	40	0	2435842048	30	6439
2026-01-04 02:13:44.72	1.76	76.83	-29.6	-30.2	29.5	0.00e+00	0	40	0	2442133504	30	6602
2026-01-04 02:13:45.73	0.81	76.38	-29.7	-30.4	29.5	0.00e+00	0	40	0	2447376384	30	6745
2026-01-04 02:13:46.73	359.94	75.93	-29.5	-30.0	29.6	0.00e+00	0	40	0	2453667840	32	5759
2026-01-04 02:13:47.74	359.11	75.48	-30.2	-30.7	29.5	0.00e+00	0	40	0	2458910720	32	6231
2026-01-04 02:13:48.75	358.33	75.03	-30.0	-30.7	29.4	0.00e+00	0	40	0	2464153600	32	6224
2026-01-04 02:13:49.76	357.60	74.57	-29.9	-30.5	29.3	0.00e+00	0	40	0	2470445056	32	6066
2026-01-04 02:13:50.77	356.92	74.12	-29.6	-30.3	29.3	0.00e+00	0	40	0	2475687936	32	5926
2026-01-04 02:13:51.78	356.27	73.66	-29.9	-30.4	29.3	0.00e+00	0	40	0	2481979392	32	5986
2026-01-04 02:13:52.79	355.66	73.21	-30.5	-31.1	29.2	0.00e+00	0	40	0	2487222272	32	6494
2026-01-04 02:13:53.80	355.09	72.76	-30.8	-31.5	28.9	0.00e+00	0	40	0	2492465152	34	6075
2026-01-04 02:13:54.81	354.54	72.30	-30.4	-31.0	29.0	0.00e+00	0	40	0	2498756608	34	5749
2026-01-04 02:13:55.82	354.03	71.85	-30.3	-31.0	29.0	0.00e+00	0	40	0	2503999488	34	5711
2026-01-04 02:13:56.83	353.54	71.39	-31.0	-31.7	28.7	0.00e+00	0	40	0	2510290944	34	6212
2026-01-04 02:13:57.84	353.08	70.94	-31.3	-32.1	28.4	0.00e+00	0	40	0	2515533824	34	6465
2026-01-04 02:13:58.85	352.64	70.49	-31.0	-31.6	28.9	0.00e+00	0	40	0	2520776704	34	6134
2026-01-04 02:13:59.86	352.22	70.04	-30.9	-31.4	28.8	0.00e+00	0	40	0	2527068160	34	6013
2026-01-04 02:14:00.87	351.82	69.59	-31.9	-32.5	28.1	0.00e+00	0	40	0	2532311040	38	5399
2026-01-04 02:14:01.88	351.44	69.14	-32.7	-33.4	28.1	0.00e+00	0	40	0	2538602496	38	5992
2026-01-04 02:14:02.89	351.08	68.69	-31.5	-32.0	28.7	0.00e+00	0	40	0	2543845376	36	5740
2026-01-04 02:14:03.90	350.73	68.25	-31.5	-32.0	28.6	0.00e+00	0	40	0	2550136832	36	5724
2026-01-04 02:14:04.91	350.40	67.80	-31.6	-32.3	28.7	0.00e+00	0	40	0	2555379712	36	5907
2026-01-04 02:14:05.92	350.08	67.36	-31.1	-31.8	28.6	0.00e+00	0	39	0	2561671168	36	5601
2026-01-04 02:14:06.93	349.78	66.92	-30.7	-31.4	28.8	0.00e+00	0	40	0	2566914048	34	5972
2026-01-04 02:14:07.94	349.48	66.48	-30.5	-31.1	28.8	0.00e+00	0	40	0	2572156928	34	5828
2026-01-04 02:14:08.95	349.20	66.04	-30.6	-31.3	28.6	0.00e+00	0	40	0	2578448384	34	5926
2026-01-04 02:14:09.96	348.94	65.61	-30.4	-31.0	28.9	0.00e+00	0	40	0	2583691264	34	5759
2026-01-04 02:14:10.97	348.68	65.18	-30.0	-30.7	29.0	0.00e+00	0	40	0	2589982720	34	5535
2026-01-04 02:14:11.98	348.43	64.74	-30.3	-31.0	28.9	0.00e+00	0	40	0	2595225600	34	5717
2026-01-04 02:14:12.99	348.19	64.31	-30.8	-31.4	28.8	0.00e+00	0	40	0	2600468480	34	5987
2026-01-04 02:14:14.00	347.96	63.89	-30.8	-31.3	28.7	0.00e+00	0	40	0	2606759936	34	5948
2026-01-04 02:14:15.01	347.74	63.46	-30.9	-31.5	28.5	0.00e+00	0	40	0	2612002816	34	6056
2026-01-04 02:14:16.01	347.53	63.04	-31.8	-32.4	28.6	0.00e+00	0	40	0	2618294272	36	5967
2026-01-04 02:14:17.02	347.32	62.62	-30.9	-31.5	28.8	0.00e+00	0	40	0	2623537152	36	5393
2026-01-04 02:14:18.03	347.12	62.20	-31.6	-32.1	28.5	0.00e+00	0	40	0	2628780032	36	5815
2026-01-04 02:14:19.04	346.93	61.79	-31.9	-32.5	28.0	0.00e+00	0	40	0	2635071488	36	6051
2026-01-04 02:14:20.05	346.75	61.37	-31.7	-32.4	28.0	0.00e+00	0	40	0	2640314368	36	6009
2026-01-04 02:14:21.06	346.57	60.96	-32.0	-32.6	27.9	0.00e+00	0	40	0	2646605824	36	6158
2026-01-04 02:14:22.07	346.40	60.55	-31.2	-31.7	28.3	0.00e+00	0	40	0	2651848704	36	5534
2026-01-04 02:14:23.08	346.23	60.15	-31.2	-31.8	28.3	0.00e+00	0	40	0	2658140160	36	5583
2026-01-04 02:14:24.09	346.07	59.74	-31.0	-31.6	28.3	0.00e+00	0	40	0	2663383040	36	5443
2026-01-04 02:14:25.10	345.91	59.34	-31.2	-31.7	28.3	0.00e+00	0	40	0	2668625920	36	5556
2026-01-04 02:14:26.11	345.76	58.94	-31.5	-32.2	28.0	0.00e+00	0	40	0	2674917376	36	5838
2026-01-04 02:14:27.12	345.61	58.54	-31.6	-32.1	28.0	0.00e+00	0	40	0	2680160256	36	5824
2026-01-04 02:14:28.13	345.46	58.15	-31.3	-31.8	28.3	0.00e+00	0	40	0	2686451712	36	5618
2026-01-04 02:14:29.14	345.33	57.76	-31.8	-32.5	28.1	0.00e+00	0	40	0	2691694592	36	6057
2026-01-04 02:14:30.15	345.19	57.37	-32.2	-32.8	27.6	0.00e+00	0	40	0	2696937472	36	6260
2026-01-04 02:14:31.16	345.06	56.98	-32.6	-33.3	27.2	0.00e+00	0	40	0	2703228928	36	6616
2026-01-04 02:14:32.17	344.93	56.59	-32.8	-33.4	27.2	0.00e+00	0	40	0	2708471808	38	6014
2026-01-04 02:14:33.17	344.81	56.21	-32.5	-33.1	27.2	0.00e+00	0	40	0	2714763264	38	5828
2026-01-04 02:14:34.18	344.69	55.84	-32.5	-33.2	27.2	0.00e+00	0	40	0	2720006144	38	5850
2026-01-04 02:14:35.19	344.57	55.46	-33.0	-33.6	26.8	0.00e+00	0	40	0	2725249024	38	6104
2026-01-04 02:14:36.20	344.46	55.08	-33.3	-34.0	26.6	0.00e+00	0	40	0	2731540480	38	6393
2026-01-04 02:14:37.21	344.35	54.71	-33.2	-34.0	26.9	0.00e+00	0	40	0	2736783360	38	6398
2026-01-04 02:14:38.22	344.24	54.34	-32.8	-33.5	27.4	0.00e+00	0	40	0	2743074816	38	6038
2026-01-04 02:14:39.23	344.14	53.97	-32.5	-33.1	27.6	0.00e+00	0	40	0	2748317696	38	5762
2026-01-04 02:14:40.24	344.03	53.61	-32.4	-33.1	27.5	0.00e+00	0	40	0	2754609152	38	5809
2026-01-04 02:14:41.25	343.93	53.25	-32.4	-33.0	27.6	0.00e+00	0	40	0	2759852032	38	5716
2026-01-04 02:14:42.26	343.84	52.89	-32.6	-33.2	27.5	0.00e+00	0	40	0	2766143488	38	5832
2026-01-04 02:14:43.27	343.74	52.53	-32.5	-33.1	27.6	0.00e+00	0	40	0	2771386368	38	5779
2026-01-04 02:14:44.28	343.65	52.18	-32.2	-32.9	27.9	0.00e+00	0	40	0	2776629248	38	5678
2026-01-04 02:14:45.29	343.56	51.82	-31.9	-32.4	28.1	0.00e+00	0	40	0	2782920704	38	5358
2026-01-04 02:14:46.30	343.47	51.47	-31.4	-31.9	28.3	0.00e+00	0	40	0	2788163584	36	5647
2026-01-04 02:14:47.31	343.39	51.13	-31.5	-32.1	28.4	0.00e+00	0	40	0	2793406464	36	5795
2026-01-04 02:14:48.31	343.30	50.79	-31.8	-32.4	28.4	0.00e+00	0	40	0	2799697920	36	6029
2026-01-04 02:14:49.32	343.22	50.44	-31.7	-32.2	28.1	0.00e+00	0	40	0	2804940800	36	5873
2026-01-04 02:14:50.33	343.14	50.10	-32.2	-32.8	27.8	0.00e+00	0	40	0	2811232256	36	6285
2026-01-04 02:14:51.34	343.06	49.77	-31.7	-32.3	28.2	0.00e+00	0	40	0	2816475136	36	5906
2026-01-04 02:14:52.35	342.99	49.43	-31.7	-32.2	28.3	0.00e+00	0	40	0	2821718016	36	5870
2026-01-04 02:14:53.36	342.91	49.10	-31.5	-32.2	28.5	0.00e+00	0	40	0	2828009472	36	5885
2026-01-04 02:14:54.37	342.84	48.77	-31.4	-32.0	28.4	0.00e+00	0	40	0	2833252352	36	5724
2026-01-04 02:14:55.38	342.77	48.44	-31.7	-32.4	28.2	0.00e+00	0	40	0	2839543808	36	6007
2026-01-04 02:14:56.39	342.70	48.12	-31.6	-32.2	28.2	0.00e+00	0	40	0	2844786688	36	5892
2026-01-04 02:14:57.40	342.63	47.79	-31.9	-32.6	28.3	0.00e+00	0	40	0	2851078144	36	6135
2026-01-04 02:14:58.41	342.57	47.47	-32.1	-32.8	28.2	0.00e+00	0	40	0	2856321024	36	6300
2026-01-04 02:14:59.42	342.50	47.15	-31.9	-32.6	28.1	0.00e+00	0	40	0	2862612480	36	6113
2026-01-04 02:15:00.43	342.44	46.84	-32.0	-32.5	28.2	0.00e+00	0	40	0	2867855360	36	6096
2026-01-04 02:15:01.44	342.37	46.53	-31.7	-32.2	28.1	0.00e+00	0	40	0	2873098240	36	5890
2026-01-04 02:15:02.45	342.31	46.21	-32.0	-32.7	28.2	0.00e+00	0	40	0	2879389696	36	6191
2026-01-04 02:15:03.46	342.25	45.91	-32.0	-32.6	28.3	0.00e+00	0	40	0	2884632576	36	6104
2026-01-04 02:15:04.47	342.20	45.60	-32.0	-32.7	28.0	0.00e+00	0	40	0	2890924032	36	6220
2026-01-04 02:15:05.48	342.14	45.29	-32.4	-33.1	27.9	0.00e+00	0	40	0	2896166912	36	6476
2026-01-04 02:15:06.49	342.08	44.99	-32.1	-32.7	28.0	0.00e+00	0	40	0	2901409792	36	6187
2026-01-04 02:15:07.50	342.03	44.69	-32.4	-33.0	28.2	0.00e+00	0	40	0	2907701248	36	6409
2026-01-04 02:15:08.51	341.97	44.40	-32.0	-32.6	28.2	0.00e+00	0	40	0	2912944128	36	6113
2026-01-04 02:15:09.52	341.92	44.10	-32.0	-32.5	28.0	0.00e+00	0	40	0	2919235584	36	6087
2026-01-04 02:15:10.53	341.87	43.81	-32.2	-32.8	28.1	0.00e+00	0	40	0	2924478464	36	6252
2026-01-04 02:15:11.54	341.82	43.52	-32.0	-32.6	28.0	0.00e+00	0	40	0	2929721344	36	6131
2026-01-04 02:15:12.55	341.77	43.23	-31.9	-32.4	28.1	0.00e+00	0	40	0	2936012800	36	6021
2026-01-04 02:15:13.55	341.72	42.94	-31.8	-32.5	28.1	0.00e+00	0	40	0	2941255680	36	6084
2026-01-04 02:15:14.56	341.67	42.66	-32.0	-32.7	28.1	0.00e+00	0	40	0	2947547136	36	6245
2026-01-04 02:15:15.57	341.62	42.38	-31.8	-32.5	28.2	0.00e+00	0	40	0	2952790016	36	6052
2026-01-04 02:15:16.58	341.58	42.10	-31.4	-32.1	28.4	0.00e+00	0	40	0	2959081472	36	5799
2026-01-04 02:15:17.59	341.53	41.82	-31.7	-32.2	28.4	0.00e+00	0	40	0	2964324352	36	5875
2026-01-04 02:15:18.60	341.49	41.54	-31.4	-32.0	28.4	0.00e+00	0	40	0	2969567232	36	5720
2026-01-04 02:15:19.61	341.44	41.27	-31.3	-31.8	28.6	0.00e+00	0	40	0	2975858688	36	5603
2026-01-04 02:15:20.62	341.40	41.00	-31.1	-31.7	28.6	0.00e+00	0	40	0	2981101568	36	5514
2026-01-04 02:15:21.63	341.36	40.73	-31.2	-31.8	28.6	0.00e+00	0	40	0	2987393024	36	5588
2026-01-04 02:15:22.64	341.32	40.46	-31.1	-31.7	28.5	0.00e+00	0	40	0	2992635904	36	5520
2026-01-04 02:15:23.65	341.28	40.19	-31.1	-31.7	28.6	0.00e+00	0	40	0	2997878784	36	5558
2026-01-04 02:15:24.66	341.24	39.93	-30.9	-31.6	28.6	0.00e+00	0	40	0	3004170240	36	5455
2026-01-04 02:15:25.67	341.20	39.67	-30.7	-31.4	28.6	0.00e+00	0	40	0	3009413120	34	6004
2026-01-04 02:15:26.68	341.16	39.41	-30.9	-31.6	28.5	0.00e+00	0	40	0	3015704576	34	6115
2026-01-04 02:15:27.68	341.12	39.15	-30.8	-31.5	28.5	0.00e+00	0	40	0	3020947456	34	6079
2026-01-04 02:15:28.69	341.08	38.90	-30.6	-31.1	28.6	0.00e+00	0	40	0	3026190336	34	5808
2026-01-04 02:15:29.70	341.05	38.64	-30.5	-31.1	28.8	0.00e+00	0	40	0	3032481792	34	5770
2026-01-04 02:15:30.71	341.01	38.39	-30.6	-31.1	28.7	0.00e+00	0	40	0	3037724672	34	5818
2026-01-04 02:15:31.72	340.98	38.14	-30.7	-31.4	28.6	0.00e+00	0	40	0	3044016128	34	5983
2026-01-04 02:15:32.73	340.94	37.89	-30.3	-30.8	28.9	0.00e+00	0	40	0	3049259008	34	5615
2026-01-04 02:15:33.74	340.91	37.64	-30.4	-30.9	28.9	0.00e+00	0	40	0	3055550464	34	5659
2026-01-04 02:15:34.75	340.87	37.40	-30.8	-31.3	28.7	0.00e+00	0	40	0	3060793344	34	5938
2026-01-04 02:15:35.76	340.84	37.15	-30.8	-31.3	28.7	0.00e+00	0	40	0	3067084800	34	5962
2026-01-04 02:15:36.77	340.81	36.91	-31.0	-31.5	28.5	0.00e+00	0	40	0	3072327680	34	6067
2026-01-04 02:15:37.78	340.78	36.67	-31.2	-31.8	28.4	0.00e+00	0	40	0	3077570560	34	6275
2026-01-04 02:15:38.79	340.75	36.43	-31.1	-31.7	28.5	0.00e+00	0	40	0	3083862016	34	6187
2026-01-04 02:15:39.79	340.71	36.20	-31.1	-31.7	28.5	0.00e+00	0	40	0	3089104896	34	6194
2026-01-04 02:15:40.81	340.68	35.96	-31.0	-31.6	28.6	0.00e+00	0	40	0	3094347776	34	6123
2026-01-04 02:15:41.82	340.65	35.73	-31.1	-31.6	28.6	0.00e+00	0	40	0	3100639232	34	6147
2026-01-04 02:15:42.83	340.62	35.50	-31.0	-31.7	28.6	0.00e+00	0	40	0	3105882112	34	6183
2026-01-04 02:15:43.83	340.60	35.27	-30.9	-31.6	28.6	0.00e+00	0	40	0	3112173568	34	6154
2026-01-04 02:15:44.84	340.57	35.04	-30.9	-31.6	28.7	0.00e+00	0	40	0	3117416448	34	6132
2026-01-04 02:15:45.85	340.54	34.82	-30.8	-31.5	28.7	0.00e+00	0	40	0	3122659328	34	6055
2026-01-04 02:15:46.86	340.51	34.59	-30.6	-31.2	28.8	0.00e+00	0	40	0	3128950784	34	5830
2026-01-04 02:15:47.87	340.48	34.37	-31.3	-31.9	28.7	0.00e+00	0	40	0	3134193664	34	6324
2026-01-04 02:15:48.88	340.46	34.15	-31.1	-31.6	28.6	0.00e+00	0	40	0	3140485120	34	6122
2026-01-04 02:15:49.89	340.43	33.93	-31.1	-31.7	28.5	0.00e+00	0	40	0	3145728000	34	6179
2026-01-04 02:15:50.90	340.41	33.71	-31.1	-31.7	28.5	0.00e+00	0	40	0	3152019456	34	6178
2026-01-04 02:15:51.91	340.38	33.49	-30.9	-31.6	28.5	0.00e+00	0	40	0	3157262336	34	6151
2026-01-04 02:15:52.92	340.35	33.28	-31.1	-31.7	28.4	0.00e+00	0	40	0	3163553792	34	6237
2026-01-04 02:15:53.93	340.33	33.06	-31.1	-31.8	28.3	0.00e+00	0	40	0	3168796672	34	6263
2026-01-04 02:15:54.94	340.31	32.85	-31.3	-31.9	28.2	0.00e+00	0	40	0	3174039552	34	6384
2026-01-04 02:15:55.95	340.28	32.64	-31.3	-31.9	28.1	0.00e+00	0	40	0	3180331008	34	6335
2026-01-04 02:15:56.96	340.26	32.43	-31.4	-31.9	28.1	0.00e+00	0	40	0	3185573888	34	6368
2026-01-04 02:15:57.96	340.23	32.23	-31.5	-32.1	27.9	0.00e+00	0	40	0	3191865344	34	6467
2026-01-04 02:15:58.97	340.21	32.02	-32.7	-33.2	27.6	0.00e+00	0	40	0	3197108224	38	5872
2026-01-04 02:15:59.98	340.19	31.81	-33.2	-33.8	27.2	0.00e+00	0	40	0	3202351104	38	6308
2026-01-04 02:16:00.99	340.17	31.61	-33.6	-34.2	27.4	0.00e+00	0	40	0	3208642560	38	6543
2026-01-04 02:16:02.00	340.14	31.41	-32.4	-33.0	27.7	0.00e+00	0	40	0	3213885440	38	5731
2026-01-04 02:16:03.01	340.12	31.21	-32.6	-33.2	27.7	0.00e+00	0	40	0	3220176896	38	5843
2026-01-04 02:16:04.02	340.10	31.01	-32.9	-33.5	27.5	0.00e+00	0	40	0	3225419776	38	6040
2026-01-04 02:16:05.03	340.08	30.81	-32.5	-33.0	27.7	0.00e+00	0	40	0	3230662656	38	5736
2026-01-04 02:16:06.04	340.06	30.61	-32.8	-33.3	27.7	0.00e+00	0	40	0	3236954112	38	5954
2026-01-04 02:16:07.05	340.04	30.42	-32.2	-33.0	27.7	0.00e+00	0	40	0	3242196992	38	5699
2026-01-04 02:16:08.06	340.02	30.22	-32.2	-32.9	27.9	0.00e+00	0	40	0	3248488448	38	5657
2026-01-04 02:16:09.07	340.00	30.03	-32.6	-33.2	27.8	0.00e+00	0	40	0	3253731328	38	5836
2026-01-04 02:16:10.07	339.98	29.84	-32.5	-33.2	27.8	0.00e+00	0	40	0	3260022784	38	5861
2026-01-04 02:16:11.08	339.96	29.65	-32.1	-32.7	28.0	0.00e+00	0	40	0	3265265664	38	5526
2026-01-04 02:16:12.09	339.94	29.46	-32.6	-33.3	27.9	0.00e+00	0	40	0	3270508544	38	5940
2026-01-04 02:16:13.10	339.92	29.27	-32.5	-33.1	28.1	0.00e+00	0	40	0	3276800000	38	5816
2026-01-04 02:16:14.11	339.90	29.09	-32.3	-33.0	28.2	0.00e+00	0	40	0	3282042880	38	5720
2026-01-04 02:16:15.12	339.89	28.90	-32.5	-33.1	28.3	0.00e+00	0	40	0	3288334336	38	5789
2026-01-04 02:16:16.13	339.87	28.72	-32.2	-32.8	28.1	0.00e+00	0	40	0	3293577216	38	5584
2026-01-04 02:16:17.14	339.85	28.53	-32.6	-33.1	28.0	0.00e+00	0	40	0	3298820096	38	5816
2026-01-04 02:16:18.15	339.83	28.35	-32.3	-32.8	28.4	0.00e+00	0	40	0	3305111552	38	5605
2026-01-04 02:16:19.15	339.82	28.17	-32.7	-33.4	28.3	0.00e+00	0	40	0	3310354432	38	5973
2026-01-04 02:16:20.16	339.80	27.99	-32.2	-32.9	28.3	0.00e+00	0	40	0	3316645888	38	5665
2026-01-04 02:16:21.17	339.78	27.82	-32.6	-33.3	28.3	0.00e+00	0	40	0	3321888768	38	5900
2026-01-04 02:16:22.18	339.77	27.64	-32.7	-33.4	28.3	0.00e+00	0	40	0	3327131648	38	5974
2026-01-04 02:16:23.19	339.75	27.46	-32.1	-32.8	28.5	0.00e+00	0	40	0	3333423104	38	5597
2026-01-04 02:16:24.20	339.73	27.29	-32.1	-32.8	28.4	0.00e+00	0	40	0	3338665984	38	5599
2026-01-04 02:16:25.21	339.72	27.12	-31.8	-32.5	28.4	0.00e+00	0	40	0	3344957440	38	5387
2026-01-04 02:16:26.22	339.70	26.94	-31.8	-32.5	28.5	0.00e+00	0	40	0	3350200320	38	5409
2026-01-04 02:16:27.23	339.69	26.77	-32.6	-33.2	28.1	0.00e+00	0	40	0	3356491776	38	5894
2026-01-04 02:16:28.24	339.67	26.60	-32.5	-33.2	28.1	0.00e+00	0	40	0	3361734656	38	5861
2026-01-04 02:16:29.25	339.66	26.43	-32.1	-32.8	28.3	0.00e+00	0	40	0	3366977536	38	5591
2026-01-04 02:16:30.25	339.64	26.26	-32.5	-33.2	28.0	0.00e+00	0	40	0	3373268992	38	5892
2026-01-04 02:16:31.26	339.63	26.10	-32.5	-33.2	28.0	0.00e+00	0	40	0	3378511872	38	5854
2026-01-04 02:16:32.27	339.61	25.93	-32.6	-33.3	28.0	0.00e+00	0	40	0	3384803328	38	5907
2026-01-04 02:16:33.28	339.60	25.77	-32.7	-33.4	28.0	0.00e+00	0	40	0	3390046208	38	6013
2026-01-04 02:16:34.29	339.58	25.60	-32.4	-33.1	28.1	0.00e+00	0	40	0	3395289088	38	5806
2026-01-04 02:16:35.30	339.57	25.44	-32.5	-33.2	27.8	0.00e+00	0	40	0	3401580544	38	5851
2026-01-04 02:16:36.31	339.56	25.28	-32.8	-33.5	27.8	0.00e+00	0	40	0	3406823424	38	6075
2026-01-04 02:16:37.32	339.54	25.11	-32.6	-33.4	27.9	0.00e+00	0	40	0	3413114880	38	5984
2026-01-04 02:16:38.33	339.53	24.95	-33.1	-33.9	27.7	0.00e+00	0	40	0	3418357760	38	6321
2026-01-04 02:16:39.34	339.52	24.80	-32.8	-33.3	27.9	0.00e+00	0	40	0	3423600640	38	5951
2026-01-04 02:16:40.35	339.50	24.64	-32.6	-33.1	27.5	0.00e+00	0	40	0	3429892096	38	5825
2026-01-04 02:16:41.36	339.49	24.48	-33.1	-33.7	27.6	0.00e+00	0	40	0	3435134976	38	6188
2026-01-04 02:16:42.37	339.48	24.32	-32.8	-33.5	27.5	0.00e+00	0	40	0	3441426432	38	6039
2026-01-04 02:16:43.38	339.47	24.17	-32.1	-32.8	27.8	0.00e+00	0	40	0	3446669312	38	5627
2026-01-04 02:16:44.39	339.45	24.01	-32.5	-33.2	27.8	0.00e+00	0	40	0	3452960768	38	5846
2026-01-04 02:16:45.40	339.44	23.86	-32.8	-33.5	27.6	0.00e+00	0	40	0	3458203648	38	6069
2026-01-04 02:16:46.41	339.43	23.71	-33.4	-33.9	27.6	0.00e+00	0	40	0	3464495104	40	5667
2026-01-04 02:16:47.42	339.42	23.56	-33.1	-33.6	27.6	0.00e+00	0	40	0	3469737984	38	6160
2026-01-04 02:16:48.43	339.41	23.40	-32.9	-33.4	27.5	0.00e+00	0	40	0	3474980864	38	6004
2026-01-04 02:16:49.44	339.39	23.25	-32.5	-33.0	27.6	0.00e+00	0	40	0	3481272320	38	5755
2026-01-04 02:16:50.45	339.38	23.10	-32.5	-33.2	27.5	0.00e+00	0	40	0	3486515200	38	5873
2026-01-04 02:16:51.46	339.37	22.96	-32.3	-32.8	27.7	0.00e+00	0	40	0	3492806656	38	5612
2026-01-04 02:16:52.47	339.36	22.81	-32.6	-33.3	27.6	0.00e+00	0	40	0	3498049536	38	5950
2026-01-04 02:16:53.48	339.35	22.66	-33.2	-33.7	27.4	0.00e+00	0	40	0	3503292416	38	6231
2026-01-04 02:16:54.49	339.34	22.52	-33.0	-33.6	27.3	0.00e+00	0	40	0	3509583872	38	6138
2026-01-04 02:16:55.50	339.33	22.37	-33.0	-33.5	27.2	0.00e+00	0	40	0	3514826752	38	6076
2026-01-04 02:16:56.51	339.32	22.23	-32.9	-33.6	27.3	0.00e+00	0	40	0	3521118208	38	6110
2026-01-04 02:16:57.52	339.31	22.08	-33.2	-33.9	27.2	0.00e+00	0	40	0	3526361088	38	6321
2026-01-04 02:16:58.53	339.30	21.94	-33.5	-34.2	27.4	0.00e+00	0	40	0	3531603968	40	5853
2026-01-04 02:16:59.54	339.29	21.80	-33.3	-33.9	27.3	0.00e+00	0	40	0	3537895424	40	5653
2026-01-04 02:17:00.55	339.28	21.66	-33.1	-33.6	27.4	0.00e+00	0	40	0	3543138304	40	5482
2026-01-04 02:17:01.56	339.27	21.52	-33.0	-33.5	27.4	0.00e+00	0	40	0	3549429760	38	6093
2026-01-04 02:17:02.57	339.26	21.38	-33.3	-33.9	27.2	0.00e+00	0	40	0	3554672640	38	6364
2026-01-04 02:17:03.58	339.25	21.24	-33.5	-34.1	27.2	0.00e+00	0	40	0	3560964096	40	5763
2026-01-04 02:17:04.59	339.24	21.10	-33.2	-33.8	27.3	0.00e+00	0	40	0	3566206976	40	5586
2026-01-04 02:17:05.60	339.23	20.97	-33.1	-33.7	27.1	0.00e+00	0	40	0	3571449856	40	5511
2026-01-04 02:17:06.61	339.22	20.83	-33.1	-33.7	27.1	0.00e+00	0	40	0	3577741312	40	5526
2026-01-04 02:17:07.61	339.21	20.69	-33.4	-33.9	27.2	0.00e+00	0	40	0	3582984192	40	5690
2026-01-04 02:17:08.62	339.20	20.56	-33.7	-34.2	26.9	0.00e+00	0	40	0	3589275648	40	5883
2026-01-04 02:17:09.63	339.19	20.43	-33.5	-34.1	27.0	0.00e+00	0	40	0	3594518528	40	5782
