passes_logs/2026/01/04/R4.6S_Anadyr/R4.6S_Anadyr__20260104_145034_SUOMI_NPP_rec.log

#Pass ID: 20260104_145034_SUOMI NPP
#Satellite: SUOMI NPP
#Configuration: NPP
#almurnet v.1.7.20251203
#Start time: 2026-01-04 14:50:35

#Version: 2.2.20231116
#Station: R4.6S_Anadyr
#Location: 177.4865 lon 64.73178 lat
#TLE: 1 37849U 11061A   26001.07732418  .00000182  00000+0  10735-3 0  9990
#TLE: 2 37849  98.7795 303.2470 0002580  87.2016 272.9455 14.19520779734739

#Time	Az	El	Level	Level2	SNR	BER	BlckErr	Temp	State	Recorded	gain1	gain2
2026-01-04 14:50:35.75	20.65	0.07	-51.1	-63.7	3.4	1.52e+00	0	37	0	0	60	53793
2026-01-04 14:50:36.75	20.65	0.13	-50.9	-66.0	3.6	1.51e+00	0	38	104	0	60	72532
2026-01-04 14:50:37.77	20.65	0.19	-50.3	-65.5	3.6	1.51e+00	0	38	104	0	60	68207
2026-01-04 14:50:38.77	20.66	0.25	-49.8	-65.1	3.6	1.51e+00	0	38	104	0	60	64681
2026-01-04 14:50:39.79	20.66	0.31	-49.8	-65.0	3.6	1.51e+00	0	38	104	0	60	64063
2026-01-04 14:50:40.79	20.66	0.38	-49.7	-64.9	3.6	1.51e+00	0	38	104	0	60	63624
2026-01-04 14:50:41.80	20.67	0.44	-49.7	-64.9	3.6	1.51e+00	0	38	104	0	60	63345
2026-01-04 14:50:42.81	20.67	0.50	-49.6	-64.8	3.6	1.51e+00	0	38	104	0	60	62902
2026-01-04 14:50:43.83	20.67	0.56	-49.5	-64.7	3.6	1.51e+00	0	38	104	0	60	62450
2026-01-04 14:50:44.83	20.68	0.62	-49.5	-64.7	3.6	1.51e+00	0	38	104	0	60	61981
2026-01-04 14:50:45.85	20.68	0.68	-49.4	-64.6	3.6	1.51e+00	0	38	104	0	60	61511
2026-01-04 14:50:46.85	20.68	0.74	-49.3	-64.5	3.6	1.51e+00	0	38	104	0	60	60419
2026-01-04 14:50:47.86	20.69	0.80	-49.0	-64.2	3.6	1.51e+00	0	38	104	0	60	58325
2026-01-04 14:50:48.88	20.69	0.87	-48.8	-64.0	3.6	1.51e+00	0	38	104	0	60	57337
2026-01-04 14:50:49.88	20.69	0.93	-48.6	-63.8	3.6	1.51e+00	0	38	104	0	60	55881
2026-01-04 14:50:50.89	20.70	0.99	-48.5	-63.7	3.6	1.51e+00	0	38	104	0	60	55329
2026-01-04 14:50:51.90	20.70	1.05	-48.1	-63.3	3.6	1.51e+00	0	38	104	0	60	52585
2026-01-04 14:50:52.91	20.70	1.12	-48.1	-63.3	3.6	1.51e+00	0	38	104	0	60	52714
2026-01-04 14:50:53.93	20.71	1.18	-48.1	-63.3	3.6	1.51e+00	0	38	104	0	60	52573
2026-01-04 14:50:54.94	20.71	1.24	-48.0	-63.2	3.6	1.51e+00	0	38	104	0	60	52304
2026-01-04 14:50:55.95	20.71	1.30	-48.0	-63.3	3.6	1.51e+00	0	38	104	0	60	52584
2026-01-04 14:50:56.96	20.72	1.37	-48.1	-63.2	3.6	1.51e+00	0	38	104	0	60	52326
2026-01-04 14:50:57.97	20.72	1.43	-48.0	-63.1	3.6	1.51e+00	0	38	104	0	60	51439
2026-01-04 14:50:58.98	20.72	1.49	-48.1	-63.2	3.6	1.51e+00	0	38	104	0	60	52056
2026-01-04 14:50:59.99	20.73	1.56	-48.0	-63.1	3.6	1.51e+00	0	38	104	0	60	51757
2026-01-04 14:51:01.00	20.73	1.62	-48.0	-63.1	3.6	1.51e+00	0	38	104	0	60	51687
2026-01-04 14:51:02.00	20.73	1.68	-48.0	-63.2	3.6	1.51e+00	0	38	104	0	60	52276
2026-01-04 14:51:03.01	20.74	1.75	-48.0	-63.1	3.6	1.51e+00	0	39	104	0	60	51811
2026-01-04 14:51:04.03	20.74	1.81	-48.0	-63.2	3.6	1.51e+00	0	38	104	0	60	52122
2026-01-04 14:51:05.03	20.74	1.87	-48.0	-63.2	3.6	1.51e+00	0	38	104	0	60	52375
2026-01-04 14:51:06.04	20.74	1.94	-48.0	-63.2	3.6	1.51e+00	0	38	104	0	60	52123
2026-01-04 14:51:07.05	20.75	2.00	-48.0	-63.2	3.6	1.51e+00	0	38	104	0	60	51982
2026-01-04 14:51:08.06	20.75	2.07	-48.0	-63.2	3.6	1.51e+00	0	38	104	0	60	52218
2026-01-04 14:51:09.07	20.75	2.13	-48.0	-63.2	3.6	1.51e+00	0	38	104	0	60	52070
2026-01-04 14:51:10.08	20.76	2.20	-48.0	-63.1	3.6	1.51e+00	0	38	104	0	60	51841
2026-01-04 14:51:11.09	20.76	2.26	-48.0	-63.1	3.6	1.51e+00	0	38	104	0	60	51411
2026-01-04 14:51:12.10	20.76	2.33	-48.0	-62.7	3.6	1.51e+00	0	38	104	0	60	49595
2026-01-04 14:51:13.11	20.77	2.39	-48.0	-62.5	3.6	1.51e+00	0	38	104	0	60	48270
2026-01-04 14:51:14.12	20.77	2.46	-48.0	-62.1	3.6	1.51e+00	0	38	104	0	60	45945
2026-01-04 14:51:15.13	20.77	2.52	-48.0	-62.1	3.6	1.51e+00	0	39	104	0	60	45829
2026-01-04 14:51:16.14	20.78	2.59	-48.0	-62.0	3.6	1.51e+00	0	38	104	0	60	45750
2026-01-04 14:51:17.15	20.78	2.66	-48.0	-62.1	3.6	1.51e+00	0	38	104	0	60	45861
2026-01-04 14:51:18.16	20.78	2.72	-48.0	-61.6	3.6	1.51e+00	0	38	104	0	60	43490
2026-01-04 14:51:19.17	20.78	2.79	-48.0	-61.7	3.6	1.51e+00	0	38	104	0	60	44181
2026-01-04 14:51:20.18	20.79	2.85	-47.9	-60.3	3.9	1.49e+00	0	38	104	0	60	37542
2026-01-04 14:51:21.19	20.79	2.92	-47.7	-56.9	4.4	1.21e+00	0	38	0	1048576	60	25341
2026-01-04 14:51:22.20	20.79	2.99	-47.4	-54.8	6.2	3.24e-01	73	39	0	3145728	60	19814
2026-01-04 14:51:23.21	20.80	3.05	-47.1	-53.6	7.9	2.78e-01	0	38	0	4194304	60	17265
2026-01-04 14:51:24.22	20.80	3.12	-46.8	-52.4	9.1	2.68e-02	24	38	0	6291456	60	15086
2026-01-04 14:51:25.23	20.80	3.19	-46.1	-50.5	11.1	2.16e-03	30	39	0	8388608	60	12121
2026-01-04 14:51:26.24	20.81	3.25	-45.6	-49.5	12.1	2.41e-04	0	38	0	10485760	60	10762
2026-01-04 14:51:27.25	20.81	3.32	-45.4	-49.0	12.9	1.20e-04	0	38	0	12582912	60	10229
2026-01-04 14:51:28.26	20.81	3.39	-45.4	-49.1	13.1	3.96e-05	32	39	0	13631488	60	10319
2026-01-04 14:51:29.27	20.81	3.46	-45.4	-49.1	12.9	4.27e-05	48	38	0	15728640	60	10346
2026-01-04 14:51:30.28	20.82	3.53	-45.4	-49.0	12.9	4.57e-05	0	39	0	17825792	60	10229
2026-01-04 14:51:31.29	20.82	3.59	-45.5	-49.2	12.8	3.43e-05	91	39	0	19922944	60	10467
2026-01-04 14:51:32.29	20.82	3.66	-45.7	-49.7	12.3	7.78e-05	0	39	0	22020096	60	10984
2026-01-04 14:51:33.30	20.83	3.73	-45.7	-49.6	12.4	1.47e-03	0	39	0	23068672	60	10937
2026-01-04 14:51:34.31	20.83	3.80	-43.7	-46.1	16.4	0.00e+00	0	39	0	25165824	60	7272
2026-01-04 14:51:35.32	20.83	3.87	-44.6	-47.5	14.5	0.00e+00	0	39	0	27262976	60	8596
2026-01-04 14:51:36.33	20.83	3.94	-48.0	-60.9	3.9	1.30e+00	0	39	104	28311552	60	40061
2026-01-04 14:51:37.34	20.84	4.01	-43.5	-45.8	16.3	1.40e+00	0	39	104	28311552	60	7024
2026-01-04 14:51:38.35	20.84	4.07	-47.9	-61.9	3.6	1.51e+00	0	39	104	28311552	60	45221
2026-01-04 14:51:39.36	20.84	4.14	-43.6	-45.9	15.8	1.14e+00	0	39	104	28311552	60	7158
2026-01-04 14:51:40.37	20.85	4.21	-44.3	-47.0	15.2	0.00e+00	0	39	0	29360128	60	8096
2026-01-04 14:51:41.38	20.85	4.28	-43.9	-46.2	16.5	0.00e+00	0	39	0	30408704	60	7418
2026-01-04 14:51:42.39	20.85	4.35	-43.7	-45.9	16.2	0.00e+00	0	39	0	32505856	60	7166
2026-01-04 14:51:43.40	20.86	4.42	-44.1	-46.5	16.3	0.00e+00	51	39	0	34603008	60	7662
2026-01-04 14:51:44.41	20.86	4.49	-43.5	-45.7	16.7	0.00e+00	0	39	0	36700160	60	6976
2026-01-04 14:51:45.41	20.86	4.56	-43.0	-45.0	17.4	0.00e+00	72	39	0	38797312	60	6428
2026-01-04 14:51:46.43	20.86	4.64	-42.9	-44.9	17.5	0.00e+00	0	39	0	39845888	58	7139
2026-01-04 14:51:47.43	20.87	4.71	-42.7	-44.6	17.9	0.00e+00	0	39	0	41943040	58	6869
2026-01-04 14:51:48.44	20.87	4.78	-43.3	-45.4	16.9	0.00e+00	0	39	0	44040192	58	7561
2026-01-04 14:51:49.45	20.87	4.85	-43.3	-45.4	17.3	0.00e+00	0	39	0	46137344	58	7524
2026-01-04 14:51:50.46	20.87	4.92	-43.6	-45.8	16.8	0.00e+00	13	39	0	48234496	58	7927
2026-01-04 14:51:51.47	20.88	4.99	-43.2	-45.2	17.3	0.00e+00	0	39	0	49283072	58	7362
2026-01-04 14:51:52.48	20.88	5.06	-43.0	-45.0	17.4	0.00e+00	75	39	0	51380224	58	7190
2026-01-04 14:51:53.49	20.88	5.14	-43.3	-45.4	16.9	0.00e+00	0	39	0	53477376	58	7547
2026-01-04 14:51:54.50	20.89	5.21	-43.5	-45.6	17.0	0.00e+00	0	39	0	55574528	58	7698
2026-01-04 14:51:55.51	20.89	5.28	-43.3	-45.3	17.2	0.00e+00	0	39	0	57671680	58	7464
2026-01-04 14:51:56.52	20.89	5.35	-43.1	-45.1	17.4	0.00e+00	0	39	0	59768832	58	7297
2026-01-04 14:51:57.53	20.89	5.43	-43.1	-45.1	17.3	0.00e+00	25	39	0	60817408	58	7297
2026-01-04 14:51:58.54	20.90	5.50	-42.8	-44.7	18.0	0.00e+00	0	39	0	62914560	58	6963
2026-01-04 14:51:59.55	20.90	5.57	-42.9	-44.8	17.7	0.00e+00	41	39	0	65011712	58	7063
2026-01-04 14:52:00.56	20.90	5.65	-42.7	-44.5	18.1	0.00e+00	0	39	0	67108864	58	6781
2026-01-04 14:52:01.57	20.90	5.72	-42.7	-44.6	18.0	0.00e+00	24	39	0	69206016	58	6850
2026-01-04 14:52:02.58	20.91	5.79	-42.6	-44.4	18.0	0.00e+00	0	39	0	70254592	58	6762
2026-01-04 14:52:03.59	20.91	5.87	-42.4	-44.1	18.4	0.00e+00	0	39	0	72351744	58	6517
2026-01-04 14:52:04.60	20.91	5.94	-42.3	-43.9	18.5	0.00e+00	3	39	0	74448896	58	6371
2026-01-04 14:52:05.61	20.92	6.02	-42.3	-44.0	18.4	0.00e+00	0	39	0	76546048	58	6439
2026-01-04 14:52:06.62	20.92	6.09	-42.4	-44.1	18.3	0.00e+00	45	39	0	78643200	58	6511
2026-01-04 14:52:07.63	20.92	6.17	-42.6	-44.4	18.1	0.00e+00	0	39	0	79691776	58	6712
2026-01-04 14:52:08.64	20.92	6.24	-42.4	-44.1	18.5	0.00e+00	47	39	0	81788928	58	6470
2026-01-04 14:52:09.65	20.93	6.32	-42.3	-43.9	18.5	0.00e+00	0	39	0	83886080	58	6371
2026-01-04 14:52:10.65	20.93	6.39	-42.8	-44.6	18.0	0.00e+00	0	39	0	85983232	58	6875
2026-01-04 14:52:11.66	20.93	6.47	-42.4	-44.1	18.4	0.00e+00	0	39	0	88080384	58	6470
2026-01-04 14:52:12.68	20.93	6.55	-42.4	-44.0	18.4	0.00e+00	0	39	0	89128960	58	6464
2026-01-04 14:52:13.68	20.94	6.62	-42.4	-44.2	18.5	0.00e+00	48	39	0	91226112	58	6554
2026-01-04 14:52:14.69	20.94	6.70	-42.1	-43.7	18.7	0.00e+00	0	39	0	93323264	58	6216
2026-01-04 14:52:15.70	20.94	6.77	-42.2	-43.8	18.6	0.00e+00	92	39	0	95420416	58	6290
2026-01-04 14:52:16.72	20.94	6.85	-42.3	-44.0	18.6	0.00e+00	0	39	0	97517568	58	6392
2026-01-04 14:52:17.72	20.95	6.93	-42.3	-44.0	18.6	0.00e+00	0	39	0	98566144	58	6404
2026-01-04 14:52:18.73	20.95	7.01	-42.1	-43.8	18.8	0.00e+00	0	39	0	100663296	58	6255
2026-01-04 14:52:19.74	20.95	7.08	-42.0	-43.6	18.9	0.00e+00	0	39	0	102760448	58	6164
2026-01-04 14:52:20.75	20.95	7.16	-42.0	-43.5	18.7	0.00e+00	36	39	0	104857600	58	6100
2026-01-04 14:52:21.76	20.96	7.24	-42.0	-43.6	18.9	0.00e+00	0	39	0	106954752	58	6134
2026-01-04 14:52:22.77	20.96	7.32	-42.0	-43.6	18.9	0.00e+00	92	39	0	108003328	58	6163
2026-01-04 14:52:23.78	20.96	7.40	-42.0	-43.6	18.9	0.00e+00	0	39	0	110100480	58	6126
2026-01-04 14:52:24.79	20.96	7.48	-42.3	-44.0	18.6	0.00e+00	0	39	0	112197632	58	6440
2026-01-04 14:52:25.80	20.97	7.55	-42.3	-44.0	18.6	0.00e+00	0	39	0	114294784	58	6443
2026-01-04 14:52:26.81	20.97	7.63	-42.5	-44.2	18.4	0.00e+00	0	39	0	116391936	58	6554
2026-01-04 14:52:27.82	20.97	7.71	-42.4	-44.1	18.5	0.00e+00	22	39	0	117440512	58	6522
2026-01-04 14:52:28.83	20.97	7.79	-42.1	-43.7	18.8	0.00e+00	0	39	0	119537664	58	6210
2026-01-04 14:52:29.84	20.98	7.87	-42.1	-43.7	18.8	0.00e+00	91	39	0	121634816	58	6213
2026-01-04 14:52:30.85	20.98	7.95	-42.3	-44.0	18.6	0.00e+00	0	39	0	123731968	58	6395
2026-01-04 14:52:31.86	20.98	8.04	-42.2	-43.8	18.8	0.00e+00	80	39	0	125829120	58	6274
2026-01-04 14:52:32.87	20.98	8.12	-42.0	-43.5	19.1	0.00e+00	0	39	0	127926272	58	6086
2026-01-04 14:52:33.88	20.99	8.20	-41.8	-43.3	19.1	0.00e+00	0	39	0	128974848	56	6690
2026-01-04 14:52:34.89	20.99	8.28	-41.9	-43.4	19.2	0.00e+00	51	39	0	131072000	56	6740
2026-01-04 14:52:35.90	20.99	8.36	-42.0	-43.6	19.1	0.00e+00	0	39	0	133169152	56	6852
2026-01-04 14:52:36.91	20.99	8.44	-42.1	-43.7	19.1	0.00e+00	55	39	0	135266304	56	6947
2026-01-04 14:52:37.91	21.00	8.52	-41.8	-43.3	19.2	0.00e+00	0	39	0	137363456	56	6659
2026-01-04 14:52:38.92	21.00	8.61	-41.7	-43.1	19.5	0.00e+00	60	39	0	138412032	56	6524
2026-01-04 14:52:39.93	21.00	8.69	-41.9	-43.4	19.2	0.00e+00	0	39	0	140509184	56	6722
2026-01-04 14:52:40.94	21.00	8.77	-41.8	-43.3	19.4	0.00e+00	0	39	0	142606336	56	6628
2026-01-04 14:52:41.96	21.00	8.86	-42.2	-43.7	18.9	0.00e+00	0	39	0	144703488	56	6996
2026-01-04 14:52:42.96	21.01	8.94	-42.2	-43.8	18.8	0.00e+00	0	39	0	146800640	56	7074
2026-01-04 14:52:43.97	21.01	9.02	-41.7	-43.2	19.4	0.00e+00	37	39	0	147849216	56	6596
2026-01-04 14:52:44.99	21.01	9.11	-41.6	-43.1	19.5	0.00e+00	0	39	0	149946368	56	6492
2026-01-04 14:52:46.00	21.01	9.19	-41.7	-43.2	19.5	0.00e+00	90	39	0	152043520	56	6554
2026-01-04 14:52:47.01	21.02	9.28	-41.5	-42.9	19.8	0.00e+00	0	39	0	154140672	56	6379
2026-01-04 14:52:48.02	21.02	9.36	-41.8	-43.3	19.5	0.00e+00	0	39	0	156237824	56	6689
2026-01-04 14:52:49.03	21.02	9.45	-41.7	-43.1	19.4	0.00e+00	33	39	0	157286400	56	6535
2026-01-04 14:52:50.04	21.02	9.53	-41.6	-43.0	19.7	0.00e+00	0	39	0	159383552	56	6425
2026-01-04 14:52:51.04	21.02	9.62	-41.3	-42.7	19.9	0.00e+00	37	39	0	161480704	56	6218
2026-01-04 14:52:52.05	21.03	9.71	-41.4	-42.8	19.9	0.00e+00	0	39	0	163577856	56	6269
2026-01-04 14:52:53.06	21.03	9.79	-41.6	-43.0	19.7	0.00e+00	86	39	0	165675008	56	6449
2026-01-04 14:52:54.07	21.03	9.88	-41.5	-43.0	19.8	0.00e+00	0	39	0	166723584	56	6394
2026-01-04 14:52:55.08	21.03	9.97	-41.3	-42.7	20.0	0.00e+00	0	39	0	168820736	56	6216
2026-01-04 14:52:56.09	21.04	10.05	-41.2	-42.6	20.1	0.00e+00	0	39	0	170917888	56	6114
2026-01-04 14:52:57.10	21.04	10.14	-41.2	-42.5	20.0	0.00e+00	0	39	0	173015040	56	6102
2026-01-04 14:52:58.11	21.04	10.23	-41.2	-42.6	20.1	0.00e+00	20	39	0	175112192	56	6141
2026-01-04 14:52:59.11	21.04	10.32	-41.0	-42.4	20.2	0.00e+00	0	39	0	176160768	56	5969
2026-01-04 14:53:00.12	21.04	10.41	-41.0	-42.3	20.4	0.00e+00	31	39	0	178257920	56	5923
2026-01-04 14:53:01.13	21.05	10.49	-41.3	-42.7	20.1	0.00e+00	0	39	0	180355072	56	6192
2026-01-04 14:53:02.14	21.05	10.58	-41.0	-42.4	20.3	0.00e+00	0	39	0	182452224	56	5971
2026-01-04 14:53:03.15	21.05	10.67	-40.9	-42.2	20.4	0.00e+00	0	39	0	184549376	56	5850
2026-01-04 14:53:04.16	21.05	10.76	-41.0	-42.3	20.4	0.00e+00	0	39	0	185597952	56	5921
2026-01-04 14:53:05.17	21.05	10.85	-40.8	-42.1	20.6	0.00e+00	0	39	0	187695104	56	5772
2026-01-04 14:53:06.18	21.06	10.94	-41.0	-42.3	20.3	0.00e+00	0	39	0	189792256	56	5912
2026-01-04 14:53:07.19	21.06	11.04	-41.0	-42.4	20.3	0.00e+00	92	39	0	191889408	56	5981
2026-01-04 14:53:08.20	21.06	11.13	-40.7	-41.9	20.6	0.00e+00	0	39	0	193986560	54	6385
2026-01-04 14:53:09.21	21.06	11.22	-40.8	-42.1	20.5	0.00e+00	79	39	0	195035136	54	6479
2026-01-04 14:53:10.22	21.06	11.31	-40.5	-41.7	20.8	0.00e+00	0	39	0	197132288	54	6244
2026-01-04 14:53:11.23	21.06	11.40	-40.6	-41.8	20.8	0.00e+00	0	39	0	199229440	54	6301
2026-01-04 14:53:12.24	21.07	11.50	-40.5	-41.7	20.9	0.00e+00	0	39	0	201326592	54	6196
2026-01-04 14:53:13.25	21.07	11.59	-40.6	-41.8	20.9	0.00e+00	0	39	0	203423744	54	6277
2026-01-04 14:53:14.26	21.07	11.68	-40.6	-41.8	20.6	0.00e+00	51	39	0	204472320	54	6315
2026-01-04 14:53:15.27	21.07	11.78	-40.3	-41.5	21.0	0.00e+00	0	39	0	206569472	54	6076
2026-01-04 14:53:16.28	21.07	11.87	-40.5	-41.7	20.9	0.00e+00	83	39	0	208666624	54	6189
2026-01-04 14:53:17.29	21.08	11.96	-40.3	-41.5	21.1	0.00e+00	0	39	0	210763776	54	6067
2026-01-04 14:53:18.30	21.08	12.06	-40.4	-41.6	20.9	0.00e+00	0	39	0	212860928	54	6135
2026-01-04 14:53:19.31	21.08	12.16	-40.2	-41.4	21.2	0.00e+00	0	39	0	213909504	54	5993
2026-01-04 14:53:20.32	21.08	12.25	-40.3	-41.5	21.0	0.00e+00	0	39	0	216006656	54	6061
2026-01-04 14:53:21.32	21.08	12.35	-40.2	-41.3	21.3	0.00e+00	53	39	0	218103808	54	5956
2026-01-04 14:53:22.33	21.08	12.44	-40.2	-41.4	21.3	0.00e+00	0	39	0	220200960	54	5980
2026-01-04 14:53:23.34	21.09	12.54	-40.1	-41.2	21.4	0.00e+00	88	39	0	222298112	54	5884
2026-01-04 14:53:24.35	21.09	12.64	-40.1	-41.3	21.4	0.00e+00	0	39	0	224395264	54	5899
2026-01-04 14:53:25.36	21.09	12.73	-40.0	-41.2	21.5	0.00e+00	0	39	0	225443840	54	5835
2026-01-04 14:53:26.37	21.09	12.83	-40.0	-41.1	21.5	0.00e+00	0	39	0	227540992	54	5794
2026-01-04 14:53:27.38	21.09	12.93	-40.0	-41.1	21.4	0.00e+00	0	39	0	229638144	54	5790
2026-01-04 14:53:28.39	21.09	13.03	-39.8	-40.9	21.6	0.00e+00	19	39	0	231735296	54	5633
2026-01-04 14:53:29.40	21.10	13.13	-39.9	-41.1	21.6	0.00e+00	0	39	0	233832448	54	5775
2026-01-04 14:53:30.41	21.10	13.23	-40.1	-41.2	21.6	0.00e+00	72	39	0	234881024	52	6571
2026-01-04 14:53:31.42	21.10	13.33	-39.8	-40.9	21.6	0.00e+00	0	39	0	236978176	52	6351
2026-01-04 14:53:32.43	21.10	13.43	-39.8	-40.9	21.7	0.00e+00	0	39	0	239075328	52	6378
2026-01-04 14:53:33.44	21.10	13.53	-39.6	-40.6	21.9	0.00e+00	0	39	0	241172480	52	6142
2026-01-04 14:53:34.45	21.10	13.63	-39.8	-40.9	21.7	0.00e+00	0	39	0	243269632	52	6332
2026-01-04 14:53:35.45	21.10	13.73	-39.6	-40.7	21.8	0.00e+00	54	39	0	244318208	52	6230
2026-01-04 14:53:36.46	21.11	13.83	-39.3	-40.4	22.1	0.00e+00	0	39	0	246415360	52	5991
2026-01-04 14:53:37.47	21.11	13.94	-39.4	-40.4	22.2	0.00e+00	67	39	0	248512512	52	6013
2026-01-04 14:53:38.48	21.11	14.04	-39.3	-40.3	22.2	0.00e+00	0	39	0	250609664	52	5933
2026-01-04 14:53:39.49	21.11	14.14	-39.2	-40.3	22.2	0.00e+00	56	39	0	252706816	52	5906
2026-01-04 14:53:40.50	21.11	14.25	-39.3	-40.4	22.1	0.00e+00	0	39	0	253755392	52	5984
2026-01-04 14:53:41.51	21.11	14.35	-39.5	-40.6	22.0	0.00e+00	0	39	0	255852544	52	6119
2026-01-04 14:53:42.52	21.11	14.45	-39.4	-40.5	22.0	0.00e+00	49	39	0	257949696	52	6038
2026-01-04 14:53:43.53	21.12	14.56	-39.2	-40.2	22.4	0.00e+00	0	39	0	260046848	52	5844
2026-01-04 14:53:44.54	21.12	14.67	-39.2	-40.2	22.4	0.00e+00	47	39	0	262144000	52	5870
2026-01-04 14:53:45.55	21.12	14.77	-39.1	-40.1	22.4	0.00e+00	0	39	0	263192576	52	5784
2026-01-04 14:53:46.56	21.12	14.88	-38.7	-39.7	22.7	0.00e+00	72	39	0	265289728	52	5545
2026-01-04 14:53:47.57	21.12	14.99	-38.8	-39.8	22.6	0.00e+00	0	39	0	267386880	50	6307
2026-01-04 14:53:48.58	21.12	15.09	-39.0	-40.0	22.5	0.00e+00	0	39	0	269484032	50	6407
2026-01-04 14:53:49.59	21.12	15.20	-38.9	-39.9	22.6	0.00e+00	41	39	0	271581184	50	6340
2026-01-04 14:53:50.60	21.12	15.31	-39.0	-40.0	22.4	0.00e+00	0	39	0	272629760	50	6425
2026-01-04 14:53:51.60	21.13	15.42	-39.1	-40.1	22.4	0.00e+00	25	39	0	274726912	50	6525
2026-01-04 14:53:52.61	21.13	15.53	-38.8	-39.8	22.5	0.00e+00	0	39	0	276824064	50	6271
2026-01-04 14:53:53.62	21.13	15.64	-38.9	-39.9	22.5	0.00e+00	63	39	0	278921216	50	6344
2026-01-04 14:53:54.63	21.13	15.75	-38.9	-39.8	22.5	0.00e+00	0	39	0	281018368	50	6316
2026-01-04 14:53:55.64	21.13	15.86	-39.1	-40.1	22.1	0.00e+00	0	39	0	282066944	50	6476
2026-01-04 14:53:56.65	21.13	15.97	-38.8	-39.8	22.2	0.00e+00	0	39	0	284164096	50	6288
2026-01-04 14:53:57.66	21.13	16.08	-38.7	-39.7	22.3	0.00e+00	0	39	0	286261248	50	6211
2026-01-04 14:53:58.67	21.13	16.19	-38.7	-39.7	22.8	0.00e+00	31	39	0	288358400	50	6208
2026-01-04 14:53:59.68	21.13	16.31	-38.8	-39.8	22.4	0.00e+00	0	39	0	290455552	50	6277
2026-01-04 14:54:00.69	21.13	16.42	-38.7	-39.7	22.8	0.00e+00	80	39	0	292552704	50	6210
2026-01-04 14:54:01.70	21.14	16.53	-38.7	-39.7	22.6	0.00e+00	0	39	0	293601280	50	6236
2026-01-04 14:54:02.71	21.14	16.65	-38.6	-39.5	22.8	0.00e+00	0	39	0	295698432	50	6082
2026-01-04 14:54:03.72	21.14	16.76	-38.7	-39.7	22.8	0.00e+00	0	39	0	297795584	50	6184
2026-01-04 14:54:04.73	21.14	16.88	-38.6	-39.5	22.9	0.00e+00	0	39	0	299892736	50	6101
2026-01-04 14:54:05.73	21.14	17.00	-38.8	-39.8	22.8	0.00e+00	55	39	0	301989888	50	6261
2026-01-04 14:54:06.74	21.14	17.11	-38.8	-39.8	22.7	0.00e+00	0	39	0	303038464	50	6292
2026-01-04 14:54:07.75	21.14	17.23	-38.5	-39.5	22.9	0.00e+00	78	39	0	305135616	50	6058
2026-01-04 14:54:08.76	21.14	17.35	-38.5	-39.5	22.9	0.00e+00	0	39	0	307232768	50	6055
2026-01-04 14:54:09.76	21.14	17.46	-38.6	-39.6	22.9	0.00e+00	0	39	0	309329920	50	6105
2026-01-04 14:54:10.77	21.14	17.58	-38.5	-39.4	23.0	0.00e+00	0	39	0	311427072	50	6020
2026-01-04 14:54:11.78	21.14	17.70	-38.4	-39.4	23.0	0.00e+00	0	39	0	312475648	50	5999
2026-01-04 14:54:12.79	21.14	17.82	-38.5	-39.4	23.1	0.00e+00	0	39	0	314572800	50	6012
2026-01-04 14:54:13.80	21.14	17.94	-38.6	-39.6	23.0	0.00e+00	0	39	0	316669952	50	6113
2026-01-04 14:54:14.80	21.14	18.06	-38.6	-39.5	23.0	0.00e+00	92	39	0	318767104	50	6092
2026-01-04 14:54:15.81	21.14	18.19	-38.3	-39.2	23.3	0.00e+00	0	39	0	320864256	50	5891
2026-01-04 14:54:16.82	21.15	18.31	-38.6	-39.6	23.0	0.00e+00	92	39	0	321912832	50	6133
2026-01-04 14:54:17.83	21.15	18.43	-38.6	-39.6	22.9	0.00e+00	0	39	0	324009984	50	6112
2026-01-04 14:54:18.84	21.15	18.56	-38.7	-39.7	22.9	0.00e+00	0	39	0	326107136	50	6184
2026-01-04 14:54:19.85	21.15	18.68	-38.5	-39.5	23.0	0.00e+00	0	39	0	328204288	50	6050
2026-01-04 14:54:20.86	21.15	18.81	-38.5	-39.4	23.1	0.00e+00	0	39	0	330301440	50	6027
2026-01-04 14:54:21.87	21.15	18.93	-38.7	-39.7	22.9	0.00e+00	49	39	0	331350016	50	6184
2026-01-04 14:54:22.88	21.15	19.06	-38.8	-39.8	22.8	0.00e+00	0	39	0	333447168	50	6306
2026-01-04 14:54:23.89	21.15	19.19	-38.7	-39.7	22.8	0.00e+00	90	39	0	335544320	50	6181
2026-01-04 14:54:24.90	21.15	19.31	-38.9	-39.9	22.7	0.00e+00	0	39	0	337641472	50	6354
2026-01-04 14:54:25.91	21.15	19.44	-38.9	-39.9	22.7	0.00e+00	0	39	0	339738624	50	6343
2026-01-04 14:54:26.92	21.15	19.57	-38.6	-39.6	22.9	0.00e+00	0	39	0	340787200	50	6160
2026-01-04 14:54:27.93	21.15	19.70	-38.8	-39.9	22.8	0.00e+00	0	39	0	342884352	50	6319
2026-01-04 14:54:28.93	21.15	19.83	-38.8	-39.8	22.8	0.00e+00	56	39	0	344981504	50	6299
2026-01-04 14:54:29.94	21.15	19.96	-38.9	-40.0	22.7	0.00e+00	0	39	0	347078656	50	6404
2026-01-04 14:54:30.95	21.15	20.09	-38.8	-39.9	22.7	0.00e+00	92	39	0	349175808	50	6321
2026-01-04 14:54:31.96	21.15	20.22	-38.6	-39.6	23.0	0.00e+00	0	39	0	350224384	50	6131
2026-01-04 14:54:32.97	21.15	20.36	-38.7	-39.6	23.0	0.00e+00	0	39	0	352321536	50	6168
2026-01-04 14:54:33.98	21.15	20.49	-38.6	-39.6	22.9	0.00e+00	0	39	0	354418688	50	6163
2026-01-04 14:54:34.99	21.15	20.63	-39.0	-40.0	22.7	0.00e+00	0	39	0	356515840	50	6435
2026-01-04 14:54:36.00	21.15	20.76	-38.7	-39.7	22.9	0.00e+00	57	39	0	358612992	50	6226
2026-01-04 14:54:37.01	21.15	20.90	-38.8	-39.8	22.8	0.00e+00	0	39	0	359661568	50	6268
2026-01-04 14:54:38.02	21.15	21.04	-38.6	-39.6	22.9	0.00e+00	92	39	0	361758720	50	6125
2026-01-04 14:54:39.03	21.15	21.17	-38.7	-39.7	23.0	0.00e+00	0	39	0	363855872	50	6175
2026-01-04 14:54:40.04	21.15	21.31	-38.7	-39.6	23.1	0.00e+00	0	39	0	365953024	50	6173
2026-01-04 14:54:41.05	21.15	21.45	-38.8	-39.8	22.9	0.00e+00	0	39	0	368050176	50	6249
2026-01-04 14:54:42.06	21.15	21.59	-38.8	-39.8	22.8	0.00e+00	0	39	0	369098752	50	6307
2026-01-04 14:54:43.07	21.15	21.73	-39.1	-40.1	22.6	0.00e+00	23	39	0	371195904	50	6480
2026-01-04 14:54:44.08	21.14	21.87	-39.1	-40.1	22.6	0.00e+00	0	39	0	373293056	50	6524
2026-01-04 14:54:45.09	21.14	22.01	-38.8	-39.8	22.8	0.00e+00	41	39	0	375390208	50	6304
2026-01-04 14:54:46.10	21.14	22.16	-39.0	-40.0	22.7	0.00e+00	0	39	0	377487360	50	6454
2026-01-04 14:54:47.11	21.14	22.30	-39.0	-40.0	22.7	0.00e+00	0	39	0	378535936	50	6440
2026-01-04 14:54:48.12	21.14	22.45	-38.7	-39.7	22.9	0.00e+00	0	39	0	380633088	50	6238
2026-01-04 14:54:49.13	21.14	22.59	-38.7	-39.7	22.9	0.00e+00	0	39	0	382730240	50	6223
2026-01-04 14:54:50.14	21.14	22.74	-38.9	-40.0	22.7	0.00e+00	16	39	0	384827392	50	6396
2026-01-04 14:54:51.14	21.14	22.88	-38.7	-39.7	23.0	0.00e+00	0	39	0	386924544	50	6211
2026-01-04 14:54:52.15	21.14	23.03	-38.7	-39.6	23.0	0.00e+00	21	39	0	389021696	50	6163
2026-01-04 14:54:53.17	21.14	23.18	-38.7	-39.6	23.0	0.00e+00	0	39	0	390070272	50	6161
2026-01-04 14:54:54.18	21.14	23.33	-39.0	-40.0	22.7	0.00e+00	90	39	0	392167424	50	6454
2026-01-04 14:54:55.19	21.14	23.48	-38.7	-39.7	22.9	0.00e+00	0	39	0	394264576	50	6210
2026-01-04 14:54:56.19	21.14	23.63	-38.6	-39.6	22.9	0.00e+00	0	39	0	396361728	50	6143
2026-01-04 14:54:57.20	21.13	23.79	-38.7	-39.7	22.9	0.00e+00	0	39	0	398458880	50	6176
2026-01-04 14:54:58.21	21.13	23.94	-38.8	-39.8	22.8	0.00e+00	0	39	0	399507456	50	6265
2026-01-04 14:54:59.22	21.13	24.09	-39.0	-40.0	22.7	0.00e+00	92	39	0	401604608	50	6409
2026-01-04 14:55:00.23	21.13	24.25	-38.8	-39.8	22.9	0.00e+00	0	39	0	403701760	50	6275
2026-01-04 14:55:01.24	21.13	24.40	-38.7	-39.7	23.0	0.00e+00	66	39	0	405798912	50	6182
2026-01-04 14:55:02.25	21.13	24.56	-38.9	-39.8	22.8	0.00e+00	32	39	0	407896064	50	6311
2026-01-04 14:55:03.26	21.13	24.72	-38.8	-39.7	22.8	0.00e+00	0	39	0	408944640	50	6224
2026-01-04 14:55:04.27	21.12	24.88	-38.5	-39.5	23.1	0.00e+00	33	39	0	411041792	50	6041
2026-01-04 14:55:05.28	21.12	25.04	-38.4	-39.3	23.2	0.00e+00	0	39	0	413138944	50	5964
2026-01-04 14:55:06.29	21.12	25.20	-38.5	-39.5	23.1	0.00e+00	34	39	0	415236096	50	6050
2026-01-04 14:55:07.30	21.12	25.36	-38.3	-39.2	23.3	0.00e+00	0	39	0	417333248	50	5840
2026-01-04 14:55:08.31	21.12	25.52	-38.2	-39.0	23.4	0.00e+00	91	39	0	418381824	50	5755
2026-01-04 14:55:09.32	21.12	25.69	-38.4	-39.3	23.3	0.00e+00	0	39	0	420478976	50	5936
2026-01-04 14:55:10.33	21.11	25.85	-38.3	-39.2	23.3	0.00e+00	0	39	0	422576128	50	5870
2026-01-04 14:55:11.33	21.11	26.02	-38.3	-39.2	23.3	0.00e+00	0	39	0	424673280	50	5885
2026-01-04 14:55:12.35	21.11	26.19	-38.4	-39.3	23.2	0.00e+00	0	39	0	426770432	50	5900
2026-01-04 14:55:13.35	21.11	26.35	-38.5	-39.4	23.0	0.00e+00	31	39	0	427819008	50	6009
2026-01-04 14:55:14.36	21.11	26.52	-38.9	-39.8	22.8	0.00e+00	0	39	0	429916160	50	6292
2026-01-04 14:55:15.37	21.10	26.69	-38.9	-39.9	22.7	0.00e+00	63	39	0	432013312	50	6347
2026-01-04 14:55:16.38	21.10	26.86	-39.1	-40.1	22.7	0.00e+00	0	39	0	434110464	50	6505
2026-01-04 14:55:17.39	21.10	27.03	-39.0	-39.9	22.8	0.00e+00	0	39	0	436207616	50	6357
2026-01-04 14:55:18.40	21.10	27.21	-38.7	-39.6	23.0	0.00e+00	0	39	0	437256192	50	6139
2026-01-04 14:55:19.41	21.09	27.38	-38.6	-39.5	23.1	0.00e+00	0	39	0	439353344	50	6052
2026-01-04 14:55:20.42	21.09	27.56	-38.5	-39.4	23.1	0.00e+00	17	39	0	441450496	50	5987
2026-01-04 14:55:21.43	21.09	27.73	-38.6	-39.5	23.1	0.00e+00	0	39	0	443547648	50	6074
2026-01-04 14:55:22.44	21.09	27.91	-39.0	-40.0	22.6	0.00e+00	91	39	0	445644800	50	6411
2026-01-04 14:55:23.45	21.08	28.09	-39.2	-40.2	22.5	0.00e+00	0	39	0	446693376	50	6568
2026-01-04 14:55:24.46	21.08	28.27	-39.2	-40.2	22.5	0.00e+00	16	39	0	448790528	50	6575
2026-01-04 14:55:25.47	21.08	28.45	-39.8	-40.9	22.1	0.00e+00	0	39	0	450887680	52	6319
2026-01-04 14:55:26.48	21.08	28.64	-39.9	-41.0	21.9	0.00e+00	0	39	0	452984832	52	6435
2026-01-04 14:55:27.49	21.07	28.82	-40.0	-41.1	21.7	0.00e+00	53	39	0	455081984	52	6496
2026-01-04 14:55:28.50	21.07	29.00	-40.4	-41.5	21.5	0.00e+00	0	39	0	457179136	52	6789
2026-01-04 14:55:29.51	21.07	29.19	-40.4	-41.5	21.4	0.00e+00	54	39	0	458227712	52	6801
2026-01-04 14:55:30.52	21.06	29.38	-40.8	-42.0	20.8	0.00e+00	0	39	0	460324864	54	6420
2026-01-04 14:55:31.53	21.06	29.57	-40.6	-41.8	21.3	0.00e+00	36	39	0	462422016	54	6279
2026-01-04 14:55:32.54	21.06	29.76	-40.8	-42.0	20.9	0.00e+00	0	39	0	464519168	54	6436
2026-01-04 14:55:33.55	21.05	29.95	-41.1	-42.4	20.8	0.00e+00	0	39	0	466616320	54	6724
2026-01-04 14:55:34.56	21.05	30.14	-40.6	-41.8	21.1	0.00e+00	0	39	0	467664896	54	6291
2026-01-04 14:55:35.57	21.04	30.34	-40.8	-42.0	21.3	0.00e+00	0	39	0	469762048	54	6441
2026-01-04 14:55:36.58	21.04	30.53	-40.8	-42.1	21.1	0.00e+00	35	39	0	471859200	54	6471
2026-01-04 14:55:37.59	21.04	30.73	-40.8	-42.1	21.0	0.00e+00	0	39	0	473956352	54	6488
2026-01-04 14:55:38.60	21.03	30.92	-41.3	-42.7	20.4	0.00e+00	92	39	0	476053504	54	6931
2026-01-04 14:55:39.61	21.03	31.12	-41.0	-42.3	20.8	0.00e+00	0	39	0	477102080	54	6655
2026-01-04 14:55:40.61	21.02	31.32	-41.1	-42.4	20.8	0.00e+00	0	39	0	479199232	54	6707
2026-01-04 14:55:41.62	21.02	31.52	-41.2	-42.5	20.6	0.00e+00	0	39	0	481296384	54	6833
2026-01-04 14:55:42.63	21.02	31.73	-41.2	-42.6	20.8	0.00e+00	0	39	0	483393536	54	6853
2026-01-04 14:55:43.64	21.01	31.93	-40.7	-41.9	21.1	0.00e+00	53	39	0	485490688	54	6333
2026-01-04 14:55:44.65	21.01	32.14	-40.6	-41.7	21.3	0.00e+00	0	39	0	486539264	54	6222
2026-01-04 14:55:45.66	21.00	32.35	-40.4	-41.5	21.3	0.00e+00	76	39	0	488636416	54	6080
2026-01-04 14:55:46.67	21.00	32.56	-40.7	-41.9	21.4	0.00e+00	0	39	0	490733568	54	6319
2026-01-04 14:55:47.68	20.99	32.77	-40.6	-41.8	21.3	0.00e+00	0	39	0	492830720	54	6304
2026-01-04 14:55:48.69	20.99	32.98	-40.7	-41.9	21.2	0.00e+00	0	39	0	494927872	54	6345
2026-01-04 14:55:49.70	20.98	33.19	-41.0	-42.3	20.6	0.00e+00	0	39	0	495976448	54	6635
2026-01-04 14:55:50.71	20.98	33.41	-40.9	-42.1	20.9	0.00e+00	53	39	0	498073600	54	6528
2026-01-04 14:55:51.72	20.97	33.62	-40.5	-41.7	21.1	0.00e+00	0	39	0	500170752	54	6191
2026-01-04 14:55:52.73	20.96	33.84	-39.9	-41.0	22.0	0.00e+00	92	39	0	502267904	54	5698
2026-01-04 14:55:53.74	20.96	34.06	-39.9	-40.9	21.9	0.00e+00	0	39	0	504365056	54	5693
2026-01-04 14:55:54.75	20.95	34.28	-39.3	-40.3	22.5	0.00e+00	0	39	0	505413632	52	5943
2026-01-04 14:55:55.76	20.95	34.51	-39.4	-40.5	22.6	0.00e+00	0	39	0	507510784	52	6042
2026-01-04 14:55:56.77	20.94	34.73	-39.0	-40.0	22.6	0.00e+00	0	39	0	509607936	52	5708
2026-01-04 14:55:57.77	20.93	34.96	-39.0	-39.9	22.7	0.00e+00	57	39	0	511705088	50	6386
2026-01-04 14:55:58.78	20.93	35.18	-38.8	-39.7	22.9	0.00e+00	0	39	0	513802240	50	6229
2026-01-04 14:55:59.80	20.92	35.42	-38.4	-39.3	23.2	0.00e+00	92	39	0	514850816	50	5962
2026-01-04 14:56:00.80	20.91	35.64	-38.2	-39.1	23.3	0.00e+00	0	39	0	516947968	50	5828
2026-01-04 14:56:01.81	20.91	35.88	-38.1	-39.0	23.7	0.00e+00	53	39	0	519045120	50	5711
2026-01-04 14:56:02.82	20.90	36.11	-37.5	-38.4	24.0	0.00e+00	0	39	0	521142272	50	5324
2026-01-04 14:56:03.83	20.89	36.35	-37.6	-38.5	24.0	0.00e+00	0	39	0	523239424	48	6058
2026-01-04 14:56:04.84	20.89	36.59	-37.5	-38.3	23.9	0.00e+00	0	39	0	525336576	48	5957
2026-01-04 14:56:05.85	20.88	36.83	-37.3	-38.2	24.0	0.00e+00	0	39	0	526385152	48	5838
2026-01-04 14:56:06.86	20.87	37.07	-37.3	-38.2	24.1	0.00e+00	91	39	0	528482304	48	5851
2026-01-04 14:56:07.87	20.86	37.31	-37.1	-38.0	24.2	0.00e+00	0	39	0	530579456	48	5726
2026-01-04 14:56:08.88	20.85	37.56	-37.4	-38.3	24.0	0.00e+00	91	39	0	532676608	48	5929
2026-01-04 14:56:09.89	20.85	37.80	-37.6	-38.5	23.8	0.00e+00	0	39	0	534773760	48	6036
2026-01-04 14:56:10.89	20.84	38.05	-37.6	-38.5	23.9	0.00e+00	0	39	0	535822336	48	6037
2026-01-04 14:56:11.90	20.83	38.30	-37.4	-38.2	24.1	0.00e+00	0	39	0	537919488	48	5882
2026-01-04 14:56:12.91	20.82	38.55	-37.3	-38.1	24.2	0.00e+00	0	39	0	540016640	48	5800
2026-01-04 14:56:13.92	20.81	38.81	-37.2	-38.0	24.1	0.00e+00	61	39	0	542113792	48	5733
2026-01-04 14:56:14.93	20.80	39.06	-37.1	-37.9	24.3	0.00e+00	0	39	0	544210944	48	5640
2026-01-04 14:56:15.93	20.79	39.32	-37.0	-37.8	24.2	0.00e+00	62	39	0	545259520	48	5603
2026-01-04 14:56:16.94	20.78	39.58	-37.4	-38.3	24.0	0.00e+00	0	39	0	547356672	48	5905
2026-01-04 14:56:17.95	20.77	39.84	-37.5	-38.4	24.0	0.00e+00	0	39	0	549453824	48	5969
2026-01-04 14:56:18.96	20.76	40.11	-37.8	-38.8	23.7	0.00e+00	0	39	0	551550976	48	6253
2026-01-04 14:56:19.97	20.75	40.37	-37.6	-38.5	23.9	0.00e+00	0	39	0	553648128	48	6102
2026-01-04 14:56:20.98	20.74	40.64	-37.9	-38.9	23.5	0.00e+00	27	39	0	554696704	48	6329
2026-01-04 14:56:21.99	20.73	40.91	-37.6	-38.5	23.8	0.00e+00	0	39	0	556793856	48	6083
2026-01-04 14:56:23.00	20.72	41.18	-37.4	-38.3	23.8	0.00e+00	92	39	0	558891008	48	5927
2026-01-04 14:56:24.01	20.71	41.46	-38.0	-38.9	23.2	0.00e+00	0	39	0	560988160	48	6388
2026-01-04 14:56:25.02	20.70	41.73	-37.7	-38.6	23.6	0.00e+00	0	39	0	563085312	48	6127
2026-01-04 14:56:26.02	20.68	42.01	-37.7	-38.7	23.9	0.00e+00	0	39	0	564133888	48	6187
2026-01-04 14:56:27.03	20.67	42.29	-37.7	-38.6	23.8	0.00e+00	0	39	0	566231040	48	6169
2026-01-04 14:56:28.04	20.66	42.57	-37.8	-38.7	23.8	0.00e+00	61	39	0	568328192	48	6202
2026-01-04 14:56:29.05	20.65	42.86	-37.8	-38.8	23.5	0.00e+00	0	39	0	570425344	48	6252
2026-01-04 14:56:30.06	20.63	43.14	-37.9	-38.8	23.6	0.00e+00	35	39	0	572522496	48	6268
2026-01-04 14:56:31.07	20.62	43.43	-38.1	-39.0	23.5	0.00e+00	0	39	0	573571072	48	6455
2026-01-04 14:56:32.08	20.61	43.73	-37.4	-38.2	24.1	0.00e+00	43	39	0	575668224	48	5896
2026-01-04 14:56:33.09	20.59	44.02	-37.9	-38.8	23.7	0.00e+00	0	39	0	577765376	48	6297
2026-01-04 14:56:34.10	20.58	44.31	-38.3	-39.2	23.5	0.00e+00	0	39	0	579862528	48	6546
2026-01-04 14:56:35.11	20.56	44.61	-38.5	-39.4	23.3	0.00e+00	34	39	0	581959680	48	6719
2026-01-04 14:56:36.12	20.55	44.91	-38.9	-39.8	22.8	0.00e+00	0	39	0	583008256	50	6316
2026-01-04 14:56:37.13	20.53	45.22	-39.1	-40.1	22.4	0.00e+00	92	39	0	585105408	50	6506
2026-01-04 14:56:38.14	20.52	45.52	-40.1	-41.2	21.9	0.00e+00	0	39	0	587202560	52	6570
2026-01-04 14:56:39.15	20.50	45.83	-40.4	-41.5	21.7	0.00e+00	92	39	0	589299712	52	6821
2026-01-04 14:56:40.16	20.48	46.14	-40.6	-41.8	21.3	0.00e+00	0	39	0	591396864	54	6294
2026-01-04 14:56:41.16	20.47	46.45	-40.3	-41.5	21.6	0.00e+00	0	39	0	593494016	54	6088
2026-01-04 14:56:42.17	20.45	46.76	-40.0	-41.1	21.6	0.00e+00	62	39	0	594542592	54	5796
2026-01-04 14:56:43.18	20.43	47.08	-39.8	-40.9	22.2	0.00e+00	26	39	0	596639744	54	5678
2026-01-04 14:56:44.19	20.41	47.40	-39.9	-41.0	21.9	0.00e+00	56	39	0	598736896	52	6452
2026-01-04 14:56:45.20	20.39	47.72	-40.2	-41.3	21.5	0.00e+00	0	39	0	600834048	52	6690
2026-01-04 14:56:46.21	20.38	48.04	-40.7	-42.0	21.1	0.00e+00	90	39	0	601882624	54	6395
2026-01-04 14:56:47.22	20.36	48.37	-41.0	-42.3	20.4	0.00e+00	0	39	0	603979776	54	6627
2026-01-04 14:56:48.22	20.34	48.70	-41.3	-42.7	20.4	0.00e+00	0	39	0	606076928	54	6936
2026-01-04 14:56:49.24	20.31	49.03	-40.6	-41.8	21.3	0.00e+00	0	39	0	608174080	54	6273
2026-01-04 14:56:50.25	20.29	49.37	-39.8	-40.9	21.9	0.00e+00	0	39	0	610271232	52	6358
2026-01-04 14:56:51.26	20.27	49.70	-39.8	-41.0	22.2	0.00e+00	21	39	0	611319808	52	6393
2026-01-04 14:56:52.27	20.25	50.04	-39.6	-40.7	22.1	0.00e+00	0	39	0	613416960	52	6216
2026-01-04 14:56:53.28	20.23	50.38	-39.3	-40.3	22.6	0.00e+00	90	39	0	615514112	52	5956
2026-01-04 14:56:54.28	20.20	50.72	-38.5	-39.4	23.2	0.00e+00	0	39	0	617611264	50	6002
2026-01-04 14:56:55.29	20.18	51.07	-38.0	-38.9	23.6	0.00e+00	0	39	0	619708416	50	5676
2026-01-04 14:56:56.30	20.15	51.42	-37.5	-38.4	24.0	0.00e+00	0	39	0	621805568	48	5966
2026-01-04 14:56:57.31	20.13	51.77	-37.7	-38.6	23.8	0.00e+00	0	39	0	622854144	48	6107
2026-01-04 14:56:58.32	20.10	52.13	-37.9	-38.8	23.8	0.00e+00	62	39	0	624951296	48	6311
2026-01-04 14:56:59.33	20.07	52.48	-38.1	-39.0	23.6	0.00e+00	0	39	0	627048448	48	6450
2026-01-04 14:57:00.34	20.05	52.84	-38.1	-39.1	23.4	0.00e+00	81	39	0	629145600	48	6497
2026-01-04 14:57:01.35	20.02	53.21	-37.8	-38.7	23.6	0.00e+00	0	39	0	631242752	48	6225
2026-01-04 14:57:02.36	19.99	53.57	-36.6	-37.4	24.7	0.00e+00	0	39	0	632291328	46	5982
2026-01-04 14:57:03.37	19.96	53.94	-36.1	-36.8	25.0	0.00e+00	0	39	0	634388480	46	5617
2026-01-04 14:57:04.38	19.93	54.31	-36.3	-37.0	24.9	0.00e+00	0	39	0	636485632	46	5736
2026-01-04 14:57:05.39	19.89	54.68	-36.4	-37.1	24.7	0.00e+00	0	39	0	638582784	46	5827
2026-01-04 14:57:06.40	19.86	55.06	-36.8	-37.6	24.4	0.00e+00	0	39	0	640679936	46	6139
2026-01-04 14:57:07.41	19.83	55.44	-37.3	-38.2	24.0	0.00e+00	62	39	0	641728512	46	6572
2026-01-04 14:57:08.42	19.79	55.82	-37.2	-38.1	24.2	0.00e+00	0	39	0	643825664	46	6493
2026-01-04 14:57:09.43	19.76	56.20	-36.9	-37.8	24.4	0.00e+00	91	39	0	645922816	46	6247
2026-01-04 14:57:10.43	19.72	56.58	-37.3	-38.2	24.2	0.00e+00	0	39	0	648019968	46	6549
2026-01-04 14:57:11.44	19.68	56.97	-37.4	-38.3	24.1	0.00e+00	0	39	0	650117120	46	6660
2026-01-04 14:57:12.45	19.64	57.37	-37.4	-38.3	23.9	0.00e+00	0	39	0	651165696	46	6650
2026-01-04 14:57:13.46	19.60	57.76	-37.2	-38.1	24.1	0.00e+00	0	39	0	653262848	46	6479
2026-01-04 14:57:14.47	19.56	58.16	-37.6	-38.5	23.9	0.00e+00	90	39	0	655360000	48	6041
2026-01-04 14:57:15.48	19.51	58.56	-38.4	-39.3	23.3	0.00e+00	0	39	0	657457152	48	6682
2026-01-04 14:57:16.49	19.47	58.96	-39.3	-40.4	22.3	0.00e+00	91	39	0	659554304	50	6700
2026-01-04 14:57:17.50	19.42	59.37	-39.7	-40.9	22.0	0.00e+00	0	39	0	660602880	50	7099
2026-01-04 14:57:18.51	19.37	59.77	-39.1	-40.1	22.6	0.00e+00	0	39	0	662700032	50	6526
2026-01-04 14:57:19.52	19.32	60.18	-38.9	-39.9	22.7	0.00e+00	0	39	0	664797184	50	6341
2026-01-04 14:57:20.53	19.27	60.60	-39.0	-40.0	22.5	0.00e+00	0	39	0	666894336	50	6447
2026-01-04 14:57:21.54	19.22	61.01	-39.3	-40.3	22.7	0.00e+00	65	39	0	668991488	50	6657
2026-01-04 14:57:22.55	19.16	61.43	-38.6	-39.6	23.2	0.00e+00	0	39	0	670040064	50	6138
2026-01-04 14:57:23.56	19.10	61.85	-37.4	-38.2	24.1	0.00e+00	90	39	0	672137216	48	5851
2026-01-04 14:57:24.57	19.04	62.28	-36.9	-37.8	24.3	0.00e+00	0	39	0	674234368	48	5567
2026-01-04 14:57:25.58	18.98	62.70	-36.3	-37.1	24.7	0.00e+00	0	39	0	676331520	46	5826
2026-01-04 14:57:26.59	18.92	63.13	-35.7	-36.5	25.0	0.00e+00	0	39	0	678428672	46	5409
2026-01-04 14:57:27.60	18.85	63.57	-35.4	-36.2	25.4	0.00e+00	0	39	0	679477248	44	5833
2026-01-04 14:57:28.61	18.78	64.00	-35.6	-36.4	25.3	0.00e+00	17	39	0	681574400	44	5979
2026-01-04 14:57:29.62	18.71	64.44	-36.1	-36.9	24.8	0.00e+00	0	39	0	683671552	44	6332
2026-01-04 14:57:30.63	18.63	64.88	-36.7	-37.5	24.4	0.00e+00	91	39	0	685768704	44	6847
2026-01-04 14:57:31.64	18.55	65.32	-36.8	-37.6	24.5	0.00e+00	0	39	0	687865856	46	6164
2026-01-04 14:57:32.65	18.47	65.76	-36.5	-37.3	24.1	0.00e+00	0	39	0	689963008	46	5921
2026-01-04 14:57:33.66	18.39	66.21	-37.2	-38.0	24.2	0.00e+00	0	39	0	691011584	46	6429
2026-01-04 14:57:34.67	18.30	66.66	-38.1	-39.0	23.4	0.00e+00	0	39	0	693108736	48	6450
2026-01-04 14:57:35.68	18.20	67.11	-38.7	-39.7	23.0	0.00e+00	64	39	0	695205888	48	6965
2026-01-04 14:57:36.69	18.11	67.56	-38.3	-39.2	23.5	0.00e+00	0	39	0	697303040	48	6545
2026-01-04 14:57:37.70	18.00	68.02	-39.1	-40.1	22.5	0.00e+00	92	39	0	699400192	50	6477
2026-01-04 14:57:38.71	17.90	68.48	-40.5	-41.6	21.4	0.00e+00	0	39	0	700448768	52	6875
2026-01-04 14:57:39.72	17.78	68.94	-40.7	-41.9	21.2	0.00e+00	0	39	0	702545920	52	7111
2026-01-04 14:57:40.73	17.66	69.40	-41.7	-43.0	20.1	0.00e+00	0	39	0	704643072	54	7227
2026-01-04 14:57:41.74	17.54	69.87	-43.2	-45.0	18.3	0.00e+00	0	39	0	706740224	58	7213
2026-01-04 14:57:42.75	17.41	70.34	-44.3	-46.5	17.1	0.00e+00	0	39	0	708837376	60	7636
2026-01-04 14:57:43.76	17.27	70.81	-43.6	-45.5	18.0	0.00e+00	0	39	0	709885952	60	6792
2026-01-04 14:57:44.77	17.13	71.28	-42.2	-43.7	19.3	0.00e+00	79	39	0	711983104	58	6197
2026-01-04 14:57:45.78	16.97	71.75	-43.0	-44.7	18.8	0.00e+00	0	39	0	714080256	58	7005
2026-01-04 14:57:46.79	16.81	72.23	-43.3	-45.2	18.4	0.00e+00	92	39	0	716177408	58	7418
2026-01-04 14:57:47.80	16.64	72.71	-42.5	-44.1	19.1	0.00e+00	0	39	0	718274560	58	6497
2026-01-04 14:57:48.81	16.46	73.19	-41.4	-42.8	20.6	0.00e+00	0	39	0	719323136	56	6246
2026-01-04 14:57:49.82	16.26	73.67	-40.6	-41.8	21.0	0.00e+00	0	39	0	721420288	54	6276
2026-01-04 14:57:50.83	16.05	74.15	-40.0	-41.1	21.7	0.00e+00	0	39	0	723517440	54	5769
2026-01-04 14:57:51.83	15.84	74.64	-40.2	-41.4	21.6	0.00e+00	57	39	0	725614592	54	5987
2026-01-04 14:57:52.84	15.60	75.12	-40.8	-42.0	21.0	0.00e+00	0	39	0	727711744	54	6408
2026-01-04 14:57:53.85	15.35	75.61	-40.1	-41.2	21.8	0.00e+00	79	39	0	728760320	54	5876
2026-01-04 14:57:54.86	15.07	76.10	-40.7	-41.8	21.4	0.00e+00	0	39	0	730857472	54	6311
2026-01-04 14:57:55.87	14.78	76.59	-42.4	-43.9	19.4	0.00e+00	0	39	0	732954624	56	7140
2026-01-04 14:57:56.88	14.47	77.08	-43.3	-45.1	18.5	0.00e+00	0	39	0	735051776	58	7296
2026-01-04 14:57:57.89	14.12	77.58	-42.3	-43.7	19.6	0.00e+00	0	39	0	737148928	58	6228
2026-01-04 14:57:58.90	13.75	78.07	-43.3	-45.0	18.4	0.00e+00	22	39	0	738197504	58	7248
2026-01-04 14:57:59.91	13.35	78.57	-44.5	-46.8	16.3	0.00e+00	0	39	0	740294656	60	7943
2026-01-04 14:58:00.92	12.90	79.07	-43.2	-44.9	18.6	0.00e+00	92	39	0	742391808	60	6381
2026-01-04 14:58:01.93	12.42	79.56	-42.1	-43.5	19.9	0.00e+00	0	39	0	744488960	58	6095
2026-01-04 14:58:02.94	11.88	80.06	-41.2	-42.4	21.1	0.00e+00	0	39	0	746586112	56	6003
2026-01-04 14:58:03.95	11.29	80.56	-39.7	-40.7	22.2	0.00e+00	0	39	0	747634688	54	5504
2026-01-04 14:58:04.95	10.63	81.05	-41.0	-42.1	21.0	0.00e+00	0	39	0	749731840	54	6536
2026-01-04 14:58:05.96	9.89	81.55	-42.4	-44.0	19.5	0.00e+00	61	39	0	751828992	56	7199
2026-01-04 14:58:06.97	9.06	82.05	-41.5	-42.8	21.0	0.00e+00	0	39	0	753926144	56	6269
2026-01-04 14:58:07.98	8.11	82.55	-39.6	-40.6	22.1	0.00e+00	60	39	0	756023296	52	6156
2026-01-04 14:58:08.99	7.02	83.04	-39.4	-40.4	22.5	0.00e+00	0	39	0	758120448	52	6009
2026-01-04 14:58:10.00	5.77	83.53	-38.5	-39.4	23.3	0.00e+00	0	39	0	759169024	50	6007
2026-01-04 14:58:11.01	4.30	84.03	-37.1	-37.9	24.3	0.00e+00	0	39	0	761266176	48	5659
2026-01-04 14:58:12.02	2.58	84.51	-37.6	-38.5	24.1	0.00e+00	0	39	0	763363328	48	6037
2026-01-04 14:58:13.03	0.51	84.99	-37.7	-38.5	24.0	0.00e+00	29	39	0	765460480	48	6062
2026-01-04 14:58:14.04	358.01	85.47	-37.5	-38.3	23.8	0.00e+00	0	39	0	767557632	48	5944
2026-01-04 14:58:15.05	354.93	85.93	-37.7	-38.6	24.0	0.00e+00	59	39	0	768606208	48	6123
2026-01-04 14:58:16.06	351.07	86.38	-37.6	-38.5	23.8	0.00e+00	0	39	0	770703360	48	6035
2026-01-04 14:58:17.07	346.14	86.81	-40.1	-41.2	22.0	0.00e+00	0	39	0	772800512	52	6552
2026-01-04 14:58:18.08	339.73	87.21	-40.5	-41.6	21.7	0.00e+00	0	39	0	774897664	52	6907
2026-01-04 14:58:19.09	331.34	87.56	-41.2	-42.4	20.7	0.00e+00	0	39	0	776994816	54	6746
2026-01-04 14:58:20.09	320.55	87.84	-44.4	-46.8	16.8	0.00e+00	0	39	0	778043392	60	7909
2026-01-04 14:58:21.10	307.03	88.03	-41.6	-43.0	20.4	0.00e+00	0	39	0	780140544	56	6434
2026-01-04 14:58:22.11	291.73	88.09	-41.0	-42.3	21.2	0.00e+00	24	39	0	782237696	54	6644
2026-01-04 14:58:23.12	276.60	88.01	-42.3	-44.0	19.6	0.00e+00	0	39	0	784334848	56	7192
2026-01-04 14:58:24.13	263.46	87.80	-39.5	-40.5	22.6	0.00e+00	48	39	0	786432000	52	6072
2026-01-04 14:58:25.14	253.00	87.51	-38.8	-39.8	23.0	0.00e+00	0	39	0	787480576	50	6257
2026-01-04 14:58:26.15	244.98	87.14	-41.2	-42.4	20.8	0.00e+00	0	39	0	789577728	54	6724
2026-01-04 14:58:27.16	238.86	86.74	-40.5	-41.6	21.6	0.00e+00	6	39	0	791674880	54	6163
2026-01-04 14:58:28.17	234.13	86.31	-38.8	-39.7	22.0	0.00e+00	0	39	0	793772032	52	5527
2026-01-04 14:58:29.18	230.41	85.85	-38.4	-39.2	23.8	0.00e+00	85	39	0	795869184	50	5893
2026-01-04 14:58:30.19	227.44	85.39	-38.4	-39.3	23.4	0.00e+00	0	39	0	796917760	50	5916
2026-01-04 14:58:31.20	225.02	84.91	-38.4	-39.4	23.4	0.00e+00	92	39	0	799014912	50	5971
2026-01-04 14:58:32.21	223.02	84.43	-38.1	-39.0	23.8	0.00e+00	0	39	0	801112064	50	5755
2026-01-04 14:58:33.22	221.34	83.94	-37.3	-38.2	24.1	0.00e+00	0	39	0	803209216	48	5883
2026-01-04 14:58:34.22	219.93	83.46	-36.9	-37.8	24.5	0.00e+00	0	39	0	805306368	46	6268
2026-01-04 14:58:35.23	218.70	82.96	-37.1	-38.0	24.2	0.00e+00	0	39	0	806354944	46	6424
2026-01-04 14:58:36.24	217.64	82.47	-37.6	-38.5	24.0	0.00e+00	73	39	0	808452096	46	6781
2026-01-04 14:58:37.25	216.71	81.97	-38.2	-39.1	23.5	0.00e+00	0	39	0	810549248	48	6494
2026-01-04 14:58:38.26	215.89	81.47	-39.6	-40.7	22.3	0.00e+00	92	39	0	812646400	50	6946
2026-01-04 14:58:39.27	215.16	80.97	-38.4	-39.3	23.3	0.00e+00	0	39	0	814743552	50	5922
2026-01-04 14:58:40.28	214.51	80.47	-38.7	-39.6	23.0	0.00e+00	0	39	0	815792128	50	6165
2026-01-04 14:58:41.29	213.93	79.97	-37.7	-38.6	23.9	0.00e+00	0	39	0	817889280	50	5467
2026-01-04 14:58:42.30	213.40	79.48	-37.9	-38.7	23.7	0.00e+00	0	39	0	819986432	48	6225
2026-01-04 14:58:43.31	212.92	78.98	-39.4	-40.4	22.3	0.00e+00	41	39	0	822083584	50	6735
2026-01-04 14:58:44.32	212.49	78.48	-40.0	-41.2	21.9	0.00e+00	0	39	0	824180736	52	6540
2026-01-04 14:58:45.33	212.09	77.98	-38.9	-39.8	23.0	0.00e+00	88	39	0	826277888	52	5615
2026-01-04 14:58:46.33	211.72	77.49	-37.7	-38.6	24.0	0.00e+00	0	39	0	827326464	50	5456
2026-01-04 14:58:47.34	211.39	77.00	-37.5	-38.3	23.9	0.00e+00	0	39	0	829423616	48	5955
2026-01-04 14:58:48.35	211.07	76.51	-37.7	-38.6	23.9	0.00e+00	0	39	0	831520768	48	6125
2026-01-04 14:58:49.36	210.79	76.02	-37.9	-38.8	23.8	0.00e+00	0	39	0	833617920	48	6275
2026-01-04 14:58:50.37	210.52	75.52	-38.2	-39.1	23.4	0.00e+00	0	39	0	835715072	50	5811
2026-01-04 14:58:51.38	210.27	75.04	-39.5	-40.5	22.4	0.00e+00	0	39	0	836763648	50	6820
2026-01-04 14:58:52.39	210.03	74.55	-38.5	-39.4	23.3	0.00e+00	92	39	0	838860800	50	5984
2026-01-04 14:58:53.40	209.81	74.06	-38.5	-39.4	23.3	0.00e+00	0	39	0	840957952	50	6007
2026-01-04 14:58:54.41	209.61	73.58	-39.3	-40.2	22.6	0.00e+00	91	39	0	843055104	50	6615
2026-01-04 14:58:55.42	209.42	73.10	-40.4	-41.5	22.3	0.00e+00	0	39	0	845152256	52	6798
2026-01-04 14:58:56.43	209.24	72.62	-40.5	-41.6	21.4	0.00e+00	0	39	0	846200832	52	6922
2026-01-04 14:58:57.44	209.07	72.14	-41.5	-42.8	20.3	0.00e+00	0	39	0	848297984	54	7066
2026-01-04 14:58:58.45	208.90	71.66	-42.6	-44.3	19.0	0.00e+00	0	39	0	850395136	58	6616
2026-01-04 14:58:59.46	208.75	71.19	-43.8	-45.8	17.8	0.00e+00	58	39	0	852492288	60	7037
2026-01-04 14:59:00.47	208.61	70.71	-43.3	-45.2	18.3	0.00e+00	0	39	0	854589440	60	6552
2026-01-04 14:59:01.48	208.47	70.24	-44.9	-47.7	16.2	0.00e+00	92	39	0	855638016	60	8763
2026-01-04 14:59:02.49	208.34	69.78	-44.3	-46.5	17.3	0.00e+00	0	39	0	857735168	60	7666
2026-01-04 14:59:03.50	208.22	69.31	-41.7	-42.9	20.1	0.00e+00	0	39	0	859832320	56	6388
2026-01-04 14:59:04.50	208.10	68.85	-41.7	-43.0	20.2	0.00e+00	0	39	0	861929472	56	6426
2026-01-04 14:59:05.51	207.99	68.39	-41.8	-43.1	20.2	0.00e+00	0	39	0	864026624	56	6531
2026-01-04 14:59:06.52	207.88	67.93	-40.6	-41.7	21.5	0.00e+00	83	39	0	865075200	54	6216
2026-01-04 14:59:07.53	207.78	67.47	-40.5	-41.7	21.5	0.00e+00	0	39	0	867172352	52	6928
2026-01-04 14:59:08.54	207.68	67.02	-40.7	-41.9	21.1	0.00e+00	54	39	0	869269504	54	6350
2026-01-04 14:59:09.55	207.59	66.56	-39.8	-40.8	22.4	0.00e+00	0	39	0	871366656	52	6279
2026-01-04 14:59:10.56	207.50	66.11	-38.1	-39.0	23.3	0.00e+00	0	39	0	873463808	50	5710
2026-01-04 14:59:11.57	207.42	65.67	-38.1	-39.0	23.7	0.00e+00	0	39	0	874512384	50	5746
2026-01-04 14:59:12.58	207.34	65.22	-37.9	-38.8	24.0	0.00e+00	0	39	0	876609536	50	5597
2026-01-04 14:59:13.59	207.26	64.78	-37.5	-38.3	24.2	0.00e+00	35	39	0	878706688	48	5936
2026-01-04 14:59:14.60	207.18	64.34	-38.0	-38.8	23.8	0.00e+00	0	39	0	880803840	48	6307
2026-01-04 14:59:15.61	207.11	63.90	-38.6	-39.6	23.1	0.00e+00	92	39	0	882900992	50	6127
2026-01-04 14:59:16.62	207.04	63.47	-38.1	-39.0	23.5	0.00e+00	0	39	0	883949568	50	5739
2026-01-04 14:59:17.63	206.97	63.04	-37.9	-38.8	23.6	0.00e+00	0	39	0	886046720	48	6260
2026-01-04 14:59:18.64	206.91	62.61	-38.9	-39.9	23.2	0.00e+00	0	39	0	888143872	50	6357
2026-01-04 14:59:19.65	206.85	62.18	-38.1	-39.0	24.0	0.00e+00	0	39	0	890241024	50	5740
2026-01-04 14:59:20.66	206.79	61.75	-36.3	-37.1	25.1	0.00e+00	33	39	0	892338176	46	5791
2026-01-04 14:59:21.67	206.73	61.33	-37.6	-38.5	24.0	0.00e+00	0	39	0	893386752	46	6824
2026-01-04 14:59:22.68	206.68	60.91	-38.5	-39.5	23.1	0.00e+00	69	39	0	895483904	48	6784
2026-01-04 14:59:23.69	206.62	60.50	-39.3	-40.4	22.6	0.00e+00	0	39	0	897581056	52	5987
2026-01-04 14:59:24.70	206.57	60.08	-38.8	-39.8	22.9	0.00e+00	0	39	0	899678208	52	5621
2026-01-04 14:59:25.70	206.52	59.68	-38.8	-39.8	23.3	0.00e+00	0	39	0	901775360	50	6263
2026-01-04 14:59:26.71	206.47	59.27	-38.1	-38.9	23.6	0.00e+00	0	39	0	903872512	50	5665
2026-01-04 14:59:27.72	206.43	58.86	-38.8	-39.7	23.1	0.00e+00	24	39	0	904921088	50	6191
2026-01-04 14:59:28.73	206.38	58.46	-38.8	-39.8	22.9	0.00e+00	0	39	0	907018240	50	6257
2026-01-04 14:59:29.74	206.34	58.06	-38.2	-39.1	23.5	0.00e+00	91	39	0	909115392	50	5771
2026-01-04 14:59:30.75	206.29	57.66	-37.9	-38.7	23.8	0.00e+00	0	39	0	911212544	48	6235
2026-01-04 14:59:31.76	206.25	57.27	-37.5	-38.3	24.0	0.00e+00	92	39	0	912261120	48	5929
2026-01-04 14:59:32.77	206.21	56.87	-37.0	-37.8	24.4	0.00e+00	0	39	0	914358272	48	5612
2026-01-04 14:59:33.78	206.18	56.48	-37.0	-37.8	24.3	0.00e+00	0	39	0	916455424	48	5595
2026-01-04 14:59:34.79	206.14	56.10	-36.6	-37.4	24.6	0.00e+00	57	39	0	918552576	46	6027
2026-01-04 14:59:35.80	206.10	55.71	-35.8	-36.6	25.0	0.00e+00	0	39	0	920649728	46	5491
2026-01-04 14:59:36.81	206.07	55.33	-35.7	-36.5	25.3	0.00e+00	55	39	0	921698304	44	6058
2026-01-04 14:59:37.82	206.03	54.95	-35.9	-36.6	25.1	0.00e+00	0	39	0	923795456	44	6156
2026-01-04 14:59:38.83	206.00	54.58	-36.8	-37.6	24.4	0.00e+00	73	39	0	925892608	46	6156
2026-01-04 14:59:39.84	205.97	54.20	-38.1	-39.1	23.4	0.00e+00	0	39	0	927989760	48	6483
2026-01-04 14:59:40.85	205.94	53.83	-38.3	-39.2	23.3	0.00e+00	0	39	0	930086912	48	6608
2026-01-04 14:59:41.85	205.91	53.47	-38.3	-39.2	23.3	0.00e+00	0	39	0	932184064	48	6614
2026-01-04 14:59:42.86	205.88	53.10	-37.7	-38.6	23.8	0.00e+00	0	39	0	933232640	48	6130
2026-01-04 14:59:43.87	205.85	52.74	-38.2	-39.1	23.4	0.00e+00	15	39	0	935329792	48	6533
2026-01-04 14:59:44.88	205.82	52.38	-39.9	-41.1	21.9	0.00e+00	0	39	0	937426944	52	6487
2026-01-04 14:59:45.89	205.79	52.02	-40.7	-42.1	21.0	0.00e+00	92	39	0	939524096	54	6480
2026-01-04 14:59:46.90	205.77	51.66	-41.6	-43.2	19.9	0.00e+00	0	39	0	941621248	54	7347
2026-01-04 14:59:47.91	205.74	51.31	-41.3	-42.7	20.4	0.00e+00	0	39	0	942669824	54	6998
2026-01-04 14:59:48.92	205.71	50.96	-40.6	-41.9	21.5	0.00e+00	0	39	0	944766976	54	6336
2026-01-04 14:59:49.93	205.69	50.61	-39.7	-40.8	22.4	0.00e+00	0	39	0	946864128	52	6260
2026-01-04 14:59:50.94	205.67	50.27	-39.5	-40.6	22.4	0.00e+00	59	39	0	948961280	52	6153
2026-01-04 14:59:51.95	205.64	49.93	-40.9	-42.2	21.0	0.00e+00	0	39	0	951058432	52	7373
2026-01-04 14:59:52.96	205.62	49.59	-40.9	-42.2	21.3	0.00e+00	59	39	0	952107008	54	6596
2026-01-04 14:59:53.97	205.60	49.25	-40.4	-41.5	21.3	0.00e+00	0	39	0	954204160	54	6103
2026-01-04 14:59:54.98	205.58	48.92	-41.5	-42.9	20.3	0.00e+00	0	39	0	956301312	54	7168
2026-01-04 14:59:55.99	205.56	48.58	-43.4	-45.4	18.0	0.00e+00	0	39	0	958398464	58	7581
2026-01-04 14:59:57.00	205.54	48.25	-44.0	-46.3	18.0	0.00e+00	0	39	0	960495616	60	7467
2026-01-04 14:59:58.01	205.52	47.93	-42.4	-44.0	19.4	0.00e+00	59	39	0	961544192	58	6452
2026-01-04 14:59:59.02	205.50	47.60	-40.0	-41.1	22.0	0.00e+00	0	39	0	963641344	54	5796
2026-01-04 15:00:00.03	205.48	47.28	-39.2	-40.2	22.7	0.00e+00	71	39	0	965738496	52	5892
2026-01-04 15:00:01.04	205.46	46.96	-38.7	-39.6	23.1	0.00e+00	0	39	0	967835648	50	6148
2026-01-04 15:00:02.05	205.44	46.64	-38.9	-39.9	22.8	0.00e+00	0	39	0	969932800	50	6338
2026-01-04 15:00:03.06	205.42	46.33	-39.6	-40.6	22.2	0.00e+00	0	39	0	972029952	50	6925
2026-01-04 15:00:04.08	205.41	46.01	-40.1	-41.2	21.9	0.00e+00	0	39	0	973078528	52	6560
2026-01-04 15:00:05.09	205.39	45.70	-41.7	-43.1	20.3	0.00e+00	19	39	0	975175680	56	6515
2026-01-04 15:00:06.10	205.37	45.39	-43.5	-45.7	17.9	0.00e+00	0	39	0	977272832	58	7822
2026-01-04 15:00:07.11	205.36	45.09	-44.5	-47.3	15.8	0.00e+00	27	39	0	979369984	60	8386
2026-01-04 15:00:08.12	205.34	44.79	-44.2	-46.7	17.2	0.00e+00	0	39	0	981467136	60	7787
2026-01-04 15:00:09.13	205.33	44.49	-42.8	-44.7	18.8	0.00e+00	47	39	0	982515712	58	6940
2026-01-04 15:00:10.14	205.31	44.19	-40.8	-42.1	21.4	0.00e+00	0	39	0	984612864	56	5782
2026-01-04 15:00:11.14	205.30	43.89	-39.4	-40.5	22.4	0.00e+00	0	39	0	986710016	52	6037
2026-01-04 15:00:12.16	205.28	43.60	-39.6	-40.6	22.6	0.00e+00	0	39	0	988807168	52	6133
2026-01-04 15:00:13.17	205.27	43.30	-39.7	-40.8	22.0	0.00e+00	0	39	0	990904320	52	6261
2026-01-04 15:00:14.17	205.26	43.02	-39.4	-40.4	22.5	0.00e+00	55	39	0	991952896	52	6031
2026-01-04 15:00:15.18	205.24	42.73	-39.6	-40.7	22.2	0.00e+00	0	39	0	994050048	52	6209
2026-01-04 15:00:16.20	205.23	42.44	-40.6	-41.8	21.2	0.00e+00	92	39	0	996147200	52	7085
2026-01-04 15:00:17.21	205.22	42.16	-41.1	-42.5	20.5	0.00e+00	33	39	0	998244352	54	6832
2026-01-04 15:00:18.22	205.20	41.88	-41.8	-43.3	19.7	0.00e+00	0	39	0	1000341504	56	6624
2026-01-04 15:00:19.22	205.19	41.60	-42.5	-44.2	19.4	0.00e+00	0	39	0	1001390080	56	7339
2026-01-04 15:00:20.23	205.18	41.32	-42.1	-43.6	19.8	0.00e+00	32	39	0	1003487232	56	6916
2026-01-04 15:00:21.24	205.17	41.05	-40.6	-41.8	21.5	0.00e+00	57	39	0	1005584384	54	6282
2026-01-04 15:00:22.25	205.16	40.78	-39.7	-40.7	22.1	0.00e+00	0	39	0	1007681536	52	6239
2026-01-04 15:00:23.26	205.15	40.51	-39.3	-40.3	22.4	0.00e+00	89	39	0	1009778688	52	5948
2026-01-04 15:00:24.27	205.13	40.24	-39.1	-40.1	22.8	0.00e+00	0	39	0	1010827264	52	5788
2026-01-04 15:00:25.28	205.12	39.97	-38.9	-39.8	23.0	0.00e+00	0	39	0	1012924416	52	5623
2026-01-04 15:00:26.29	205.11	39.71	-39.3	-40.3	22.5	0.00e+00	0	39	0	1015021568	50	6675
2026-01-04 15:00:27.30	205.10	39.45	-39.6	-40.7	22.3	0.00e+00	0	39	0	1017118720	50	6938
2026-01-04 15:00:28.31	205.09	39.18	-40.1	-41.2	21.5	0.00e+00	21	39	0	1019215872	52	6612
2026-01-04 15:00:29.32	205.08	38.93	-41.6	-43.0	20.2	0.00e+00	0	39	0	1020264448	54	7242
2026-01-04 15:00:30.32	205.07	38.67	-42.4	-44.1	19.3	0.00e+00	90	39	0	1022361600	56	7258
2026-01-04 15:00:31.34	205.06	38.41	-42.7	-44.4	19.0	0.00e+00	0	39	0	1024458752	56	7585
2026-01-04 15:00:32.35	205.06	38.16	-42.6	-44.3	19.3	0.00e+00	0	39	0	1026555904	56	7438
2026-01-04 15:00:33.36	205.05	37.91	-42.1	-43.6	19.6	0.00e+00	0	40	0	1028653056	56	6916
2026-01-04 15:00:34.36	205.04	37.66	-40.8	-42.1	21.2	0.00e+00	0	39	0	1029701632	56	5777
2026-01-04 15:00:35.37	205.03	37.42	-40.5	-41.8	21.2	0.00e+00	57	39	0	1031798784	54	6252
2026-01-04 15:00:36.38	205.02	37.17	-40.1	-41.2	21.7	0.00e+00	0	39	0	1033895936	54	5895
2026-01-04 15:00:37.39	205.01	36.93	-39.7	-40.9	22.1	0.00e+00	80	39	0	1035993088	52	6323
2026-01-04 15:00:38.39	205.00	36.69	-40.2	-41.3	21.7	0.00e+00	0	39	0	1038090240	52	6675
2026-01-04 15:00:39.40	205.00	36.45	-40.1	-41.2	21.8	0.00e+00	92	39	0	1039138816	52	6565
2026-01-04 15:00:40.41	204.99	36.21	-39.8	-40.9	22.1	0.00e+00	0	39	0	1041235968	52	6329
2026-01-04 15:00:41.42	204.98	35.97	-39.5	-40.6	22.5	0.00e+00	0	39	0	1043333120	52	6120
2026-01-04 15:00:42.43	204.97	35.74	-40.0	-41.1	21.7	0.00e+00	0	39	0	1045430272	52	6518
2026-01-04 15:00:43.44	204.97	35.51	-39.5	-40.6	22.3	0.00e+00	0	39	0	1047527424	52	6134
2026-01-04 15:00:44.45	204.96	35.27	-40.1	-41.2	21.8	0.00e+00	52	39	0	1048576000	52	6604
2026-01-04 15:00:45.46	204.95	35.04	-40.9	-42.2	20.8	0.00e+00	0	39	0	1050673152	52	7397
2026-01-04 15:00:46.47	204.95	34.82	-41.8	-43.2	19.9	0.00e+00	45	39	0	1052770304	56	6580
2026-01-04 15:00:47.48	204.94	34.59	-42.9	-44.7	18.7	0.00e+00	0	39	0	1054867456	58	6974
2026-01-04 15:00:48.49	204.93	34.36	-44.6	-47.0	16.5	0.00e+00	0	39	0	1056964608	60	8116
2026-01-04 15:00:49.50	204.93	34.14	-45.6	-48.7	14.2	0.00e+00	0	39	0	1058013184	60	9824
2026-01-04 15:00:50.50	204.92	33.92	-45.2	-48.0	15.6	7.00e-07	0	39	0	1060110336	60	9064
2026-01-04 15:00:51.51	204.91	33.70	-45.1	-47.9	15.6	0.00e+00	45	39	0	1062207488	60	8961
2026-01-04 15:00:52.52	204.91	33.48	-44.3	-46.6	17.0	0.00e+00	0	39	0	1064304640	60	7728
2026-01-04 15:00:53.53	204.90	33.27	-42.8	-44.5	18.9	0.00e+00	92	39	0	1066401792	60	6077
2026-01-04 15:00:54.54	204.90	33.05	-41.5	-42.8	20.4	0.00e+00	0	40	0	1068498944	56	6282
2026-01-04 15:00:55.55	204.89	32.84	-41.2	-42.5	20.6	0.00e+00	0	39	0	1069547520	56	6099
2026-01-04 15:00:56.56	204.89	32.62	-40.2	-41.3	21.7	0.00e+00	0	39	0	1071644672	54	5916
2026-01-04 15:00:57.56	204.88	32.42	-39.9	-40.9	22.1	0.00e+00	0	39	0	1073741824	52	6390
2026-01-04 15:00:58.57	204.88	32.21	-39.7	-40.8	21.9	0.00e+00	49	39	0	1075838976	52	6261
2026-01-04 15:00:59.58	204.87	32.00	-40.2	-41.3	21.6	0.00e+00	0	39	0	1077936128	52	6643
2026-01-04 15:01:00.59	204.86	31.79	-40.7	-41.9	21.0	0.00e+00	51	39	0	1078984704	54	6336
2026-01-04 15:01:01.60	204.86	31.59	-41.2	-42.4	20.7	0.00e+00	0	39	0	1081081856	54	6767
2026-01-04 15:01:02.61	204.86	31.38	-41.1	-42.4	20.7	0.00e+00	0	39	0	1083179008	54	6717
2026-01-04 15:01:03.62	204.85	31.18	-41.1	-42.3	20.6	0.00e+00	0	39	0	1085276160	54	6684
2026-01-04 15:01:04.63	204.85	30.98	-40.8	-42.0	21.0	0.00e+00	0	39	0	1087373312	54	6428
2026-01-04 15:01:05.64	204.84	30.78	-40.6	-41.8	21.2	0.00e+00	50	39	0	1088421888	54	6279
2026-01-04 15:01:06.65	204.84	30.58	-40.4	-41.6	21.6	0.00e+00	0	39	0	1090519040	54	6110
2026-01-04 15:01:07.66	204.83	30.39	-40.4	-41.6	21.4	0.00e+00	92	39	0	1092616192	54	6129
2026-01-04 15:01:08.67	204.83	30.19	-40.7	-41.9	21.1	0.00e+00	0	39	0	1094713344	54	6351
2026-01-04 15:01:09.68	204.82	30.00	-41.0	-42.2	20.8	0.00e+00	0	39	0	1096810496	54	6574
2026-01-04 15:01:10.69	204.82	29.80	-41.6	-43.0	20.1	0.00e+00	0	39	0	1097859072	54	7173
2026-01-04 15:01:11.70	204.82	29.61	-42.3	-43.8	19.4	0.00e+00	0	39	0	1099956224	56	7059
2026-01-04 15:01:12.71	204.81	29.42	-43.2	-44.9	18.2	0.00e+00	53	39	0	1102053376	58	7166
2026-01-04 15:01:13.71	204.81	29.23	-43.3	-45.1	18.3	0.00e+00	0	39	0	1104150528	58	7328
2026-01-04 15:01:14.72	204.80	29.05	-43.3	-45.1	18.4	0.00e+00	46	39	0	1106247680	58	7272
2026-01-04 15:01:15.73	204.80	28.86	-42.6	-44.2	19.1	0.00e+00	0	39	0	1107296256	58	6581
2026-01-04 15:01:16.74	204.80	28.67	-41.7	-43.1	20.1	0.00e+00	39	39	0	1109393408	58	5764
2026-01-04 15:01:17.75	204.79	28.49	-40.6	-41.8	21.2	0.00e+00	0	39	0	1111490560	54	6275
2026-01-04 15:01:18.76	204.79	28.31	-40.2	-41.3	21.6	0.00e+00	0	39	0	1113587712	54	5935
2026-01-04 15:01:19.77	204.79	28.13	-39.3	-40.3	22.4	0.00e+00	0	39	0	1115684864	52	5933
2026-01-04 15:01:20.78	204.78	27.95	-38.5	-39.5	23.1	0.00e+00	0	39	0	1116733440	50	6050
2026-01-04 15:01:21.79	204.78	27.77	-38.3	-39.3	23.3	0.00e+00	51	39	0	1118830592	50	5916
2026-01-04 15:01:22.80	204.78	27.59	-38.1	-39.1	23.4	0.00e+00	0	39	0	1120927744	50	5772
2026-01-04 15:01:23.81	204.77	27.41	-38.0	-38.9	23.5	0.00e+00	92	39	0	1123024896	50	5638
2026-01-04 15:01:24.81	204.77	27.24	-37.7	-38.5	23.8	0.00e+00	0	39	0	1125122048	50	5419
2026-01-04 15:01:25.82	204.77	27.06	-37.7	-38.5	23.9	0.00e+00	0	39	0	1126170624	48	6084
2026-01-04 15:01:26.83	204.77	26.89	-37.9	-38.7	23.6	0.00e+00	0	39	0	1128267776	48	6234
2026-01-04 15:01:27.84	204.76	26.72	-37.8	-38.7	23.6	0.00e+00	0	39	0	1130364928	48	6209
2026-01-04 15:01:28.85	204.76	26.54	-37.8	-38.7	23.8	0.00e+00	53	39	0	1132462080	48	6176
2026-01-04 15:01:29.86	204.76	26.37	-37.7	-38.6	23.7	0.00e+00	0	39	0	1134559232	48	6140
2026-01-04 15:01:30.87	204.76	26.20	-38.0	-38.8	23.5	0.00e+00	85	39	0	1136656384	48	6311
2026-01-04 15:01:31.88	204.75	26.04	-37.9	-38.8	23.5	0.00e+00	0	39	0	1137704960	48	6278
2026-01-04 15:01:32.89	204.75	25.87	-37.9	-38.7	23.4	0.00e+00	0	39	0	1139802112	48	6221
2026-01-04 15:01:33.89	204.75	25.70	-38.4	-39.3	23.2	0.00e+00	0	39	0	1141899264	48	6647
2026-01-04 15:01:34.90	204.75	25.54	-38.4	-39.3	23.2	0.00e+00	0	39	0	1143996416	48	6676
2026-01-04 15:01:35.91	204.74	25.38	-38.6	-39.6	22.9	0.00e+00	55	39	0	1145044992	48	6888
2026-01-04 15:01:36.92	204.74	25.21	-38.6	-39.6	23.0	0.00e+00	0	39	0	1147142144	50	6111
2026-01-04 15:01:37.93	204.74	25.05	-38.6	-39.6	22.8	0.00e+00	90	39	0	1149239296	50	6123
2026-01-04 15:01:38.94	204.74	24.89	-38.5	-39.4	23.1	0.00e+00	0	39	0	1151336448	50	6025
2026-01-04 15:01:39.95	204.74	24.73	-38.2	-39.2	23.4	0.00e+00	7	39	0	1153433600	50	5832
2026-01-04 15:01:40.96	204.73	24.57	-37.9	-38.8	23.5	0.00e+00	0	39	0	1154482176	50	5597
2026-01-04 15:01:41.97	204.73	24.41	-38.0	-39.0	23.3	0.00e+00	0	39	0	1156579328	50	5711
2026-01-04 15:01:42.98	204.73	24.25	-37.9	-38.8	23.6	0.00e+00	11	39	0	1158676480	50	5629
2026-01-04 15:01:43.99	204.73	24.10	-37.8	-38.7	23.6	0.00e+00	0	39	0	1160773632	48	6221
2026-01-04 15:01:44.99	204.73	23.94	-37.8	-38.7	23.7	0.00e+00	79	39	0	1162870784	48	6227
2026-01-04 15:01:46.01	204.72	23.79	-37.7	-38.7	23.6	0.00e+00	0	39	0	1164967936	48	6174
2026-01-04 15:01:47.01	204.72	23.64	-38.1	-39.1	23.4	0.00e+00	38	39	0	1166016512	48	6499
2026-01-04 15:01:48.02	204.72	23.48	-38.2	-39.1	23.3	0.00e+00	0	39	0	1168113664	48	6517
2026-01-04 15:01:49.03	204.72	23.33	-38.5	-39.4	23.0	0.00e+00	0	39	0	1170210816	48	6768
2026-01-04 15:01:50.04	204.72	23.18	-38.9	-39.9	22.7	0.00e+00	0	39	0	1172307968	48	7109
2026-01-04 15:01:51.05	204.72	23.03	-39.2	-40.3	22.4	0.00e+00	0	39	0	1174405120	50	6627
2026-01-04 15:01:52.06	204.72	22.88	-39.2	-40.2	22.4	0.00e+00	51	39	0	1175453696	50	6607
2026-01-04 15:01:53.07	204.71	22.73	-39.6	-40.7	22.0	0.00e+00	0	39	0	1177550848	50	6954
2026-01-04 15:01:54.08	204.71	22.59	-39.6	-40.7	22.2	0.00e+00	70	39	0	1179648000	52	6182
2026-01-04 15:01:55.09	204.71	22.44	-39.0	-40.0	22.6	0.00e+00	0	39	0	1181745152	52	5759
2026-01-04 15:01:56.10	204.71	22.29	-38.9	-39.9	22.8	0.00e+00	0	39	0	1183842304	52	5679
2026-01-04 15:01:57.11	204.71	22.15	-38.7	-39.7	22.8	0.00e+00	0	39	0	1184890880	50	6208
2026-01-04 15:01:58.12	204.71	22.01	-38.5	-39.5	23.0	0.00e+00	0	39	0	1186988032	50	6059
2026-01-04 15:01:59.13	204.71	21.86	-38.2	-39.1	23.2	0.00e+00	91	39	0	1189085184	50	5808
2026-01-04 15:02:00.14	204.71	21.72	-38.3	-39.2	23.6	0.00e+00	0	39	0	1191182336	50	5840
2026-01-04 15:02:01.15	204.71	21.58	-37.9	-38.8	23.5	0.00e+00	92	39	0	1193279488	50	5584
2026-01-04 15:02:02.16	204.70	21.44	-37.7	-38.6	23.7	0.00e+00	0	39	0	1194328064	48	6152
2026-01-04 15:02:03.17	204.70	21.30	-37.9	-38.7	23.6	0.00e+00	0	39	0	1196425216	48	6245
2026-01-04 15:02:04.18	204.70	21.16	-37.5	-38.4	23.8	0.00e+00	0	40	0	1198522368	48	5993
2026-01-04 15:02:05.19	204.70	21.02	-37.8	-38.7	23.6	0.00e+00	0	39	0	1200619520	48	6241
2026-01-04 15:02:06.20	204.70	20.88	-37.8	-38.7	23.5	0.00e+00	50	39	0	1202716672	48	6243
2026-01-04 15:02:07.21	204.70	20.74	-38.0	-38.9	23.5	0.00e+00	30	39	0	1203765248	48	6344
2026-01-04 15:02:08.22	204.70	20.61	-38.2	-39.2	23.2	0.00e+00	92	39	0	1205862400	48	6543
2026-01-04 15:02:09.23	204.70	20.47	-38.2	-39.1	23.3	0.00e+00	0	39	0	1207959552	48	6519
2026-01-04 15:02:10.24	204.70	20.34	-38.0	-39.0	23.2	0.00e+00	0	40	0	1210056704	48	6392
2026-01-04 15:02:11.24	204.70	20.21	-38.4	-39.3	23.1	0.00e+00	0	39	0	1212153856	48	6672
2026-01-04 15:02:12.25	204.70	20.07	-38.4	-39.4	23.1	0.00e+00	0	39	0	1213202432	48	6732
