passes_logs/2026/01/04/R4.6S_Anadyr/R4.6S_Anadyr__20260104_191835_FENGYUN_3E_rec.log

#Pass ID: 20260104_191835_FENGYUN 3E
#Satellite: FENGYUN 3E
#Configuration: FENGYUN 3E
#almurnet v.1.7.20251203
#Start time: 2026-01-04 19:18:37

#Version: 2.2.20231116
#Station: R4.6S_Anadyr
#Location: 177.4865 lon 64.73178 lat
#TLE: 1 49008U 21062A   26003.51942929 -.00000034  00000+0  45519-5 0  9990
#TLE: 2 49008  98.7472   8.7829 0001426 160.7926 199.3304 14.19883272233213

#Time	Az	El	Level	Level2	SNR	BER	BlckErr	Temp	State	Recorded	gain1	gain2
2026-01-04 19:18:37.78	21.16	0.14	-50.4	-65.3	3.5	1.51e+00	0	27	0	0	60	66377
2026-01-04 19:18:38.79	21.16	0.20	-49.8	-61.0	3.6	8.47e-01	0	28	104	0	60	40543
2026-01-04 19:18:39.80	21.15	0.26	-49.7	-60.8	3.6	8.46e-01	0	28	104	0	60	39833
2026-01-04 19:18:40.80	21.15	0.32	-48.7	-60.0	3.6	8.45e-01	0	28	104	0	60	36343
2026-01-04 19:18:41.81	21.14	0.38	-48.8	-60.0	3.6	8.44e-01	0	28	104	0	60	36101
2026-01-04 19:18:42.82	21.14	0.44	-48.7	-59.9	3.6	8.45e-01	0	28	104	0	60	35741
2026-01-04 19:18:43.83	21.13	0.50	-48.8	-60.1	3.6	8.46e-01	0	28	104	0	60	36406
2026-01-04 19:18:44.84	21.13	0.56	-48.5	-59.8	3.6	8.45e-01	0	28	104	0	60	35523
2026-01-04 19:18:45.85	21.12	0.63	-48.5	-59.7	3.6	8.46e-01	0	28	104	0	60	35083
2026-01-04 19:18:46.86	21.12	0.69	-48.4	-59.6	3.6	8.44e-01	0	28	104	0	60	34666
2026-01-04 19:18:47.87	21.12	0.75	-48.2	-59.6	3.6	8.45e-01	0	28	104	0	60	34376
2026-01-04 19:18:48.88	21.11	0.81	-48.2	-59.4	3.6	8.45e-01	0	28	104	0	60	33878
2026-01-04 19:18:49.89	21.11	0.87	-48.0	-59.2	3.6	8.46e-01	0	28	104	0	60	33064
2026-01-04 19:18:50.90	21.10	0.93	-47.9	-59.1	3.6	8.45e-01	0	29	104	0	60	32582
2026-01-04 19:18:51.91	21.10	1.00	-47.6	-58.9	3.6	8.45e-01	0	28	104	0	60	31682
2026-01-04 19:18:52.92	21.09	1.06	-47.2	-58.5	3.6	8.45e-01	0	28	104	0	60	30427
2026-01-04 19:18:53.93	21.09	1.12	-47.2	-58.3	3.6	8.46e-01	0	29	104	0	60	29793
2026-01-04 19:18:54.94	21.08	1.18	-47.2	-58.3	3.6	8.45e-01	0	29	104	0	60	29892
2026-01-04 19:18:55.95	21.08	1.25	-47.2	-58.3	3.6	8.45e-01	0	29	104	0	60	29676
2026-01-04 19:18:56.96	21.07	1.31	-47.2	-58.2	3.6	8.45e-01	0	29	104	0	60	29502
2026-01-04 19:18:57.97	21.07	1.37	-47.2	-58.1	3.6	8.45e-01	0	29	104	0	60	29130
2026-01-04 19:18:58.98	21.06	1.43	-47.2	-58.2	3.6	8.45e-01	0	29	104	0	60	29375
2026-01-04 19:18:59.99	21.06	1.50	-47.1	-58.0	3.6	8.45e-01	0	29	104	0	60	28670
2026-01-04 19:19:00.99	21.05	1.56	-47.1	-57.4	3.6	8.44e-01	0	29	104	0	60	26787
2026-01-04 19:19:02.00	21.05	1.62	-47.1	-57.4	3.6	8.43e-01	0	29	104	0	60	26751
2026-01-04 19:19:03.01	21.04	1.69	-47.1	-57.8	3.6	8.45e-01	0	29	104	0	60	28059
2026-01-04 19:19:04.02	21.04	1.75	-47.1	-57.5	3.6	8.44e-01	0	29	104	0	60	27160
2026-01-04 19:19:05.03	21.03	1.82	-47.1	-57.9	3.6	8.46e-01	0	29	104	0	60	28230
2026-01-04 19:19:06.04	21.03	1.88	-47.1	-58.1	3.6	8.45e-01	0	29	104	0	60	28952
2026-01-04 19:19:07.05	21.02	1.94	-47.2	-58.2	3.6	8.44e-01	0	29	104	0	60	29532
2026-01-04 19:19:08.06	21.02	2.01	-47.2	-58.3	3.6	8.44e-01	0	29	104	0	60	29743
2026-01-04 19:19:09.07	21.01	2.07	-47.2	-58.3	3.6	8.45e-01	0	29	104	0	60	29682
2026-01-04 19:19:10.08	21.00	2.14	-47.2	-58.2	3.6	8.46e-01	0	29	104	0	60	29456
2026-01-04 19:19:11.08	21.00	2.20	-47.2	-58.1	3.6	8.45e-01	0	29	104	0	60	29052
2026-01-04 19:19:12.10	20.99	2.27	-47.1	-58.1	3.6	8.46e-01	0	29	104	0	60	29051
2026-01-04 19:19:13.11	20.99	2.33	-47.1	-57.6	3.6	8.46e-01	0	29	104	0	60	27526
2026-01-04 19:19:14.12	20.98	2.40	-47.1	-57.5	3.6	8.44e-01	0	29	104	0	60	27239
2026-01-04 19:19:15.13	20.98	2.46	-47.0	-56.7	3.6	8.44e-01	0	29	104	0	60	24818
2026-01-04 19:19:16.14	20.97	2.53	-46.9	-56.1	3.6	8.44e-01	0	29	104	0	60	23008
2026-01-04 19:19:17.14	20.96	2.59	-46.8	-55.6	3.8	8.43e-01	0	29	104	0	60	21882
2026-01-04 19:19:18.15	20.96	2.66	-46.7	-55.0	3.9	8.39e-01	0	29	104	0	60	20415
2026-01-04 19:19:19.16	20.95	2.72	-46.7	-54.7	4.0	8.40e-01	0	29	104	0	60	19588
2026-01-04 19:19:20.17	20.95	2.79	-46.8	-55.4	3.7	8.42e-01	0	29	104	0	60	21285
2026-01-04 19:19:21.18	20.94	2.86	-46.9	-56.0	3.6	8.43e-01	0	29	104	0	60	22736
2026-01-04 19:19:22.19	20.93	2.92	-46.7	-54.6	3.7	8.39e-01	0	29	0	0	60	19502
2026-01-04 19:19:23.20	20.93	2.99	-46.1	-52.0	5.7	7.89e-01	0	29	104	0	60	14315
2026-01-04 19:19:24.21	20.92	3.06	-45.5	-49.3	7.0	2.32e-01	0	29	0	6291456	60	10488
2026-01-04 19:19:25.22	20.92	3.12	-44.4	-47.2	10.1	2.10e-02	0	29	0	13631488	60	8257
2026-01-04 19:19:26.23	20.91	3.19	-42.6	-44.5	12.9	2.39e-04	0	29	0	20971520	56	7647
2026-01-04 19:19:27.24	20.90	3.26	-40.9	-42.2	15.0	3.40e-06	0	29	0	27262976	56	5884
2026-01-04 19:19:28.25	20.90	3.32	-39.7	-40.8	16.2	0.00e+00	0	29	0	35651584	54	5600
2026-01-04 19:19:29.26	20.89	3.39	-38.9	-39.9	17.7	0.00e+00	0	29	0	42991616	50	6371
2026-01-04 19:19:30.27	20.88	3.46	-38.9	-39.9	17.2	0.00e+00	0	29	0	49283072	50	6367
2026-01-04 19:19:31.28	20.88	3.53	-38.7	-39.7	17.5	0.00e+00	0	29	0	56623104	48	6969
2026-01-04 19:19:32.29	20.87	3.60	-38.5	-39.4	18.0	0.00e+00	0	29	0	65011712	50	6031
2026-01-04 19:19:33.30	20.86	3.66	-37.3	-38.1	19.1	0.00e+00	0	29	0	71303168	46	6529
2026-01-04 19:19:34.31	20.86	3.73	-38.4	-39.3	17.8	0.00e+00	0	29	0	78643200	50	5952
2026-01-04 19:19:35.32	20.85	3.80	-39.6	-40.7	17.6	0.00e+00	0	29	0	85983232	52	6189
2026-01-04 19:19:36.33	20.84	3.87	-39.4	-40.5	18.5	0.00e+00	0	29	0	93323264	52	6037
2026-01-04 19:19:37.34	20.84	3.94	-35.3	-35.9	21.2	0.00e+00	0	29	0	100663296	44	5675
2026-01-04 19:19:38.35	20.83	4.01	-38.8	-39.7	17.3	1.10e-06	0	29	0	108003328	52	5541
2026-01-04 19:19:39.36	20.82	4.08	-47.0	-57.1	3.7	8.45e-01	0	29	104	110100480	60	25857
2026-01-04 19:19:40.37	20.82	4.15	-37.3	-38.2	17.4	0.00e+00	0	29	104	110100480	46	6583
2026-01-04 19:19:41.38	20.81	4.22	-46.1	-51.6	8.1	8.45e-01	0	29	104	110100480	60	13743
2026-01-04 19:19:42.39	20.80	4.29	-35.3	-36.1	21.4	0.00e+00	0	29	0	113246208	46	5164
2026-01-04 19:19:43.40	20.80	4.36	-34.8	-35.6	21.9	0.00e+00	0	29	0	120586240	42	6114
2026-01-04 19:19:44.41	20.79	4.43	-35.1	-35.8	22.0	0.00e+00	0	29	0	127926272	42	6289
2026-01-04 19:19:45.42	20.78	4.50	-34.7	-35.4	21.8	0.00e+00	0	29	0	135266304	42	6027
2026-01-04 19:19:46.43	20.77	4.57	-35.1	-35.9	21.7	0.00e+00	0	29	0	142606336	42	6339
2026-01-04 19:19:47.44	20.77	4.64	-35.4	-36.1	21.4	0.00e+00	0	29	0	149946368	42	6522
2026-01-04 19:19:48.45	20.76	4.71	-35.0	-35.8	21.7	0.00e+00	0	29	0	157286400	42	6287
2026-01-04 19:19:49.46	20.75	4.78	-34.5	-35.2	22.2	0.00e+00	0	29	0	164626432	42	5883
2026-01-04 19:19:50.46	20.74	4.85	-34.5	-35.2	22.4	0.00e+00	0	29	0	171966464	42	5861
2026-01-04 19:19:51.47	20.74	4.92	-34.6	-35.4	22.0	0.00e+00	0	29	0	179306496	42	5969
2026-01-04 19:19:52.48	20.73	4.99	-34.5	-35.2	22.2	0.00e+00	0	29	0	186646528	42	5860
2026-01-04 19:19:53.50	20.72	5.07	-34.4	-35.1	22.4	0.00e+00	0	29	0	193986560	42	5792
2026-01-04 19:19:54.51	20.71	5.14	-34.3	-35.1	22.5	0.00e+00	0	29	0	201326592	42	5776
2026-01-04 19:19:55.51	20.71	5.21	-34.3	-35.0	22.5	0.00e+00	0	29	0	208666624	42	5722
2026-01-04 19:19:56.52	20.70	5.28	-34.0	-34.7	22.8	0.00e+00	0	29	0	216006656	42	5508
2026-01-04 19:19:57.53	20.69	5.35	-34.3	-35.0	22.6	0.00e+00	0	29	0	222298112	42	5749
2026-01-04 19:19:58.54	20.68	5.43	-33.8	-34.5	23.0	0.00e+00	0	29	0	229638144	42	5398
2026-01-04 19:19:59.55	20.67	5.50	-34.2	-34.9	22.6	0.00e+00	0	29	0	238026752	42	5673
2026-01-04 19:20:00.56	20.67	5.57	-33.9	-34.6	22.9	0.00e+00	0	29	0	244318208	42	5443
2026-01-04 19:20:01.57	20.66	5.65	-34.3	-35.0	22.8	0.00e+00	0	29	0	251658240	42	5720
2026-01-04 19:20:02.58	20.65	5.72	-34.5	-35.2	22.5	0.00e+00	0	29	0	258998272	42	5889
2026-01-04 19:20:03.58	20.64	5.79	-33.9	-34.5	23.2	0.00e+00	0	29	0	266338304	42	5417
2026-01-04 19:20:04.59	20.63	5.87	-34.0	-34.7	23.0	0.00e+00	0	29	0	273678336	42	5557
2026-01-04 19:20:05.60	20.62	5.94	-34.1	-34.7	22.6	0.00e+00	0	29	0	281018368	42	5566
2026-01-04 19:20:06.61	20.62	6.02	-34.0	-34.7	22.9	0.00e+00	0	29	0	288358400	42	5552
2026-01-04 19:20:07.62	20.61	6.09	-33.6	-34.3	23.3	0.00e+00	0	29	0	295698432	40	5912
2026-01-04 19:20:08.63	20.60	6.16	-33.7	-34.4	23.2	0.00e+00	0	29	0	303038464	40	5984
2026-01-04 19:20:09.64	20.59	6.24	-33.7	-34.4	23.2	0.00e+00	0	29	0	310378496	40	5997
2026-01-04 19:20:10.65	20.58	6.32	-33.9	-34.5	23.2	0.00e+00	0	29	0	317718528	40	6083
2026-01-04 19:20:11.66	20.57	6.39	-33.7	-34.4	23.2	0.00e+00	0	29	0	325058560	40	5990
2026-01-04 19:20:12.67	20.56	6.47	-33.9	-34.6	23.0	0.00e+00	0	29	0	332398592	40	6106
2026-01-04 19:20:13.68	20.55	6.54	-33.5	-34.2	23.4	0.00e+00	0	29	0	339738624	40	5849
2026-01-04 19:20:14.69	20.54	6.62	-33.9	-34.6	23.1	0.00e+00	0	29	0	347078656	40	6133
2026-01-04 19:20:15.70	20.54	6.70	-33.5	-34.2	23.5	0.00e+00	0	29	0	354418688	40	5839
2026-01-04 19:20:16.71	20.53	6.77	-33.5	-34.2	23.4	0.00e+00	0	29	0	361758720	40	5868
2026-01-04 19:20:17.71	20.52	6.85	-33.7	-34.4	23.3	0.00e+00	0	29	0	368050176	40	5990
2026-01-04 19:20:18.72	20.51	6.92	-33.6	-34.3	23.4	0.00e+00	0	29	0	375390208	40	5923
2026-01-04 19:20:19.73	20.50	7.00	-33.7	-34.4	23.3	0.00e+00	0	29	0	382730240	40	6005
2026-01-04 19:20:20.74	20.49	7.08	-33.3	-33.9	23.7	0.00e+00	0	29	0	390070272	40	5683
2026-01-04 19:20:21.75	20.48	7.16	-33.4	-34.1	23.8	0.00e+00	0	29	0	397410304	40	5765
2026-01-04 19:20:22.76	20.47	7.24	-33.2	-33.8	23.8	0.00e+00	0	29	0	404750336	40	5626
2026-01-04 19:20:23.77	20.46	7.31	-33.3	-34.0	23.7	0.00e+00	0	29	0	412090368	40	5726
2026-01-04 19:20:24.78	20.45	7.39	-33.0	-33.7	24.0	0.00e+00	0	29	0	419430400	40	5514
2026-01-04 19:20:25.79	20.44	7.47	-32.9	-33.6	24.0	0.00e+00	0	29	0	426770432	40	5462
2026-01-04 19:20:26.80	20.43	7.55	-33.0	-33.6	24.0	0.00e+00	0	29	0	434110464	40	5502
2026-01-04 19:20:27.81	20.42	7.63	-33.4	-34.0	23.8	0.00e+00	0	29	0	441450496	40	5748
2026-01-04 19:20:28.82	20.41	7.71	-33.0	-33.7	23.9	0.00e+00	0	29	0	448790528	40	5508
2026-01-04 19:20:29.82	20.40	7.79	-33.0	-33.7	24.1	0.00e+00	0	29	0	456130560	40	5521
2026-01-04 19:20:30.83	20.39	7.87	-33.0	-33.6	24.2	0.00e+00	0	29	0	463470592	40	5496
2026-01-04 19:20:31.84	20.38	7.95	-33.1	-33.8	24.1	0.00e+00	0	29	0	470810624	38	6271
2026-01-04 19:20:32.85	20.37	8.03	-32.9	-33.5	24.3	0.00e+00	0	29	0	478150656	38	6079
2026-01-04 19:20:33.86	20.36	8.11	-33.1	-33.8	24.1	0.00e+00	0	29	0	485490688	38	6288
2026-01-04 19:20:34.87	20.35	8.19	-33.1	-33.7	24.1	0.00e+00	0	29	0	492830720	38	6221
2026-01-04 19:20:35.88	20.34	8.27	-32.9	-33.5	24.4	0.00e+00	0	29	0	499122176	38	6086
2026-01-04 19:20:36.89	20.33	8.35	-32.9	-33.6	24.3	0.00e+00	0	29	0	506462208	38	6136
2026-01-04 19:20:37.90	20.32	8.43	-33.1	-33.7	24.4	0.00e+00	0	29	0	514850816	38	6212
2026-01-04 19:20:38.91	20.30	8.52	-32.9	-33.6	24.3	0.00e+00	0	29	0	521142272	38	6130
2026-01-04 19:20:39.92	20.29	8.60	-32.8	-33.4	24.5	0.00e+00	0	29	0	528482304	38	6019
2026-01-04 19:20:40.93	20.28	8.68	-33.1	-33.7	24.1	0.00e+00	0	29	0	535822336	38	6218
2026-01-04 19:20:41.94	20.27	8.76	-32.6	-33.3	24.7	0.00e+00	0	29	0	543162368	38	5901
2026-01-04 19:20:42.95	20.26	8.85	-32.7	-33.3	24.6	0.00e+00	0	29	0	550502400	38	5946
2026-01-04 19:20:43.96	20.25	8.93	-32.6	-33.2	24.6	0.00e+00	0	29	0	557842432	38	5885
2026-01-04 19:20:44.97	20.24	9.01	-32.8	-33.4	24.5	0.00e+00	0	29	0	565182464	38	6020
2026-01-04 19:20:45.98	20.23	9.10	-32.8	-33.4	24.4	0.00e+00	0	29	0	572522496	38	6003
2026-01-04 19:20:46.98	20.21	9.18	-32.5	-33.1	24.6	0.00e+00	0	29	0	579862528	38	5817
2026-01-04 19:20:47.99	20.20	9.27	-32.6	-33.2	24.5	0.00e+00	0	29	0	587202560	38	5876
2026-01-04 19:20:49.00	20.19	9.35	-32.3	-33.0	24.9	0.00e+00	0	29	0	594542592	38	5707
2026-01-04 19:20:50.01	20.18	9.44	-32.6	-33.3	24.7	0.00e+00	0	29	0	601882624	38	5899
2026-01-04 19:20:51.02	20.17	9.52	-32.9	-33.5	24.3	0.00e+00	0	29	0	609222656	38	6102
2026-01-04 19:20:52.03	20.15	9.61	-32.5	-33.1	24.7	0.00e+00	0	29	0	616562688	38	5801
2026-01-04 19:20:53.04	20.14	9.69	-32.2	-32.9	25.0	0.00e+00	0	29	0	623902720	38	5638
2026-01-04 19:20:54.05	20.13	9.78	-32.5	-33.2	24.7	0.00e+00	0	29	0	631242752	38	5851
2026-01-04 19:20:55.06	20.12	9.87	-32.4	-33.0	24.8	0.00e+00	0	29	0	638582784	38	5754
2026-01-04 19:20:56.07	20.10	9.95	-32.4	-33.1	24.7	0.00e+00	0	29	0	645922816	38	5774
2026-01-04 19:20:57.08	20.09	10.04	-32.5	-33.1	24.8	0.00e+00	0	29	0	652214272	38	5793
2026-01-04 19:20:58.09	20.08	10.13	-32.4	-33.1	24.8	0.00e+00	0	29	0	659554304	38	5763
2026-01-04 19:20:59.10	20.07	10.22	-32.5	-33.2	24.8	0.00e+00	0	29	0	667942912	38	5831
2026-01-04 19:21:00.11	20.05	10.30	-32.1	-32.8	25.0	0.00e+00	0	29	0	674234368	38	5568
2026-01-04 19:21:01.12	20.04	10.39	-32.4	-33.0	24.9	0.00e+00	0	29	0	681574400	38	5732
2026-01-04 19:21:02.12	20.03	10.48	-32.4	-33.1	24.7	0.00e+00	0	29	0	688914432	38	5793
2026-01-04 19:21:03.13	20.01	10.57	-32.5	-33.2	24.8	0.00e+00	0	29	0	696254464	38	5877
2026-01-04 19:21:04.14	20.00	10.66	-32.8	-33.4	24.5	0.00e+00	0	29	0	703594496	38	6023
2026-01-04 19:21:05.15	19.99	10.75	-32.3	-33.0	24.9	0.00e+00	0	29	0	710934528	38	5700
2026-01-04 19:21:06.16	19.97	10.84	-32.2	-32.8	25.0	0.00e+00	0	29	0	718274560	38	5602
2026-01-04 19:21:07.17	19.96	10.93	-32.2	-32.8	25.0	0.00e+00	0	29	0	725614592	38	5630
2026-01-04 19:21:08.18	19.95	11.02	-32.2	-32.9	25.0	0.00e+00	0	29	0	732954624	38	5668
2026-01-04 19:21:09.19	19.93	11.11	-32.3	-33.0	24.9	0.00e+00	0	29	0	740294656	38	5717
2026-01-04 19:21:10.20	19.92	11.20	-32.3	-32.9	25.0	0.00e+00	0	30	0	747634688	38	5692
2026-01-04 19:21:11.21	19.90	11.29	-32.1	-32.7	25.2	0.00e+00	0	29	0	754974720	38	5526
2026-01-04 19:21:12.22	19.89	11.39	-32.2	-32.9	25.1	0.00e+00	0	29	0	762314752	38	5633
2026-01-04 19:21:13.23	19.88	11.48	-32.1	-32.8	25.2	0.00e+00	0	29	0	769654784	38	5568
2026-01-04 19:21:14.24	19.86	11.57	-32.2	-32.8	25.1	0.00e+00	0	29	0	775946240	38	5595
2026-01-04 19:21:15.25	19.85	11.66	-32.1	-32.7	25.1	0.00e+00	0	29	0	784334848	38	5544
2026-01-04 19:21:16.26	19.83	11.76	-32.2	-32.8	25.0	0.00e+00	0	29	0	791674880	38	5627
2026-01-04 19:21:17.27	19.82	11.85	-32.0	-32.7	25.3	0.00e+00	0	29	0	797966336	38	5515
2026-01-04 19:21:18.28	19.80	11.94	-31.9	-32.5	25.3	0.00e+00	0	29	0	805306368	38	5412
2026-01-04 19:21:19.29	19.79	12.04	-32.0	-32.6	25.3	0.00e+00	0	29	0	812646400	38	5483
2026-01-04 19:21:20.30	19.77	12.13	-32.2	-32.9	25.0	0.00e+00	0	29	0	819986432	38	5640
2026-01-04 19:21:21.31	19.76	12.23	-31.9	-32.5	25.4	0.00e+00	0	29	0	827326464	38	5393
2026-01-04 19:21:22.32	19.74	12.32	-31.8	-32.4	25.4	0.00e+00	0	29	0	834666496	36	5992
2026-01-04 19:21:23.33	19.73	12.42	-31.7	-32.3	25.5	0.00e+00	0	29	0	842006528	36	5949
2026-01-04 19:21:24.34	19.71	12.52	-31.8	-32.4	25.5	0.00e+00	0	29	0	849346560	36	5982
2026-01-04 19:21:25.35	19.69	12.61	-31.9	-32.5	25.4	0.00e+00	0	30	0	856686592	36	6073
2026-01-04 19:21:26.36	19.68	12.71	-31.8	-32.4	25.4	0.00e+00	0	29	0	864026624	36	6006
2026-01-04 19:21:27.37	19.66	12.81	-31.7	-32.3	25.5	0.00e+00	0	30	0	871366656	36	5955
2026-01-04 19:21:28.38	19.65	12.91	-31.6	-32.2	25.6	0.00e+00	0	29	0	878706688	36	5875
2026-01-04 19:21:29.39	19.63	13.00	-31.5	-32.1	25.6	0.00e+00	0	29	0	886046720	36	5795
2026-01-04 19:21:30.40	19.61	13.10	-31.5	-32.1	25.7	0.00e+00	0	29	0	893386752	36	5793
2026-01-04 19:21:31.41	19.60	13.20	-31.6	-32.2	25.7	0.00e+00	0	29	0	900726784	36	5837
2026-01-04 19:21:32.42	19.58	13.30	-31.7	-32.3	25.7	0.00e+00	0	29	0	908066816	36	5917
2026-01-04 19:21:33.43	19.56	13.40	-31.5	-32.1	25.7	0.00e+00	0	30	0	915406848	36	5805
2026-01-04 19:21:34.44	19.55	13.50	-31.6	-32.2	25.6	0.00e+00	0	29	0	922746880	36	5879
2026-01-04 19:21:35.45	19.53	13.60	-31.7	-32.3	25.5	0.00e+00	0	30	0	930086912	36	5956
2026-01-04 19:21:36.46	19.51	13.70	-31.5	-32.1	25.7	0.00e+00	0	30	0	937426944	36	5824
2026-01-04 19:21:37.47	19.49	13.81	-31.6	-32.2	25.7	0.00e+00	0	29	0	944766976	36	5893
2026-01-04 19:21:38.48	19.48	13.91	-31.6	-32.2	25.6	0.00e+00	0	29	0	951058432	36	5851
2026-01-04 19:21:39.49	19.46	14.01	-31.3	-31.9	26.0	0.00e+00	0	29	0	958398464	36	5637
2026-01-04 19:21:40.50	19.44	14.11	-31.4	-32.0	25.9	0.00e+00	0	29	0	966787072	36	5707
2026-01-04 19:21:41.51	19.42	14.22	-31.3	-31.9	25.9	0.00e+00	0	29	0	973078528	36	5672
2026-01-04 19:21:42.51	19.40	14.32	-31.3	-31.9	25.9	0.00e+00	0	30	0	980418560	36	5683
2026-01-04 19:21:43.53	19.38	14.42	-31.3	-31.9	25.9	0.00e+00	0	29	0	987758592	36	5657
2026-01-04 19:21:44.54	19.37	14.53	-31.3	-31.9	26.0	0.00e+00	0	29	0	995098624	36	5663
2026-01-04 19:21:45.55	19.35	14.63	-31.3	-31.9	25.9	0.00e+00	0	29	0	1002438656	36	5663
2026-01-04 19:21:46.55	19.33	14.74	-31.3	-31.9	25.9	0.00e+00	0	29	0	1009778688	36	5667
2026-01-04 19:21:47.56	19.31	14.84	-31.2	-31.8	26.0	0.00e+00	0	30	0	1017118720	36	5618
2026-01-04 19:21:48.58	19.29	14.95	-31.3	-31.9	26.0	0.00e+00	0	30	0	1024458752	36	5690
2026-01-04 19:21:49.59	19.27	15.06	-31.2	-31.8	26.0	0.00e+00	0	29	0	1031798784	36	5595
2026-01-04 19:21:50.59	19.25	15.16	-31.1	-31.7	26.1	0.00e+00	0	30	0	1039138816	36	5553
2026-01-04 19:21:51.61	19.23	15.27	-31.3	-31.9	26.0	0.00e+00	0	30	0	1046478848	36	5662
2026-01-04 19:21:52.62	19.21	15.38	-31.5	-32.1	25.9	0.00e+00	0	30	0	1053818880	36	5827
2026-01-04 19:21:53.63	19.19	15.49	-31.3	-31.9	26.0	0.00e+00	0	30	0	1061158912	36	5685
2026-01-04 19:21:54.64	19.17	15.60	-31.3	-31.9	26.1	0.00e+00	0	30	0	1068498944	36	5652
2026-01-04 19:21:55.64	19.15	15.71	-31.0	-31.6	26.2	0.00e+00	0	30	0	1074790400	36	5444
2026-01-04 19:21:56.65	19.13	15.82	-31.0	-31.6	26.2	0.00e+00	0	30	0	1083179008	36	5460
2026-01-04 19:21:57.66	19.11	15.93	-31.0	-31.6	26.3	0.00e+00	0	29	0	1090519040	36	5455
2026-01-04 19:21:58.67	19.09	16.04	-30.8	-31.3	26.4	0.00e+00	0	29	0	1096810496	36	5315
2026-01-04 19:21:59.68	19.07	16.15	-30.8	-31.4	26.3	0.00e+00	0	29	0	1104150528	36	5368
2026-01-04 19:22:00.68	19.05	16.26	-30.7	-31.3	26.5	0.00e+00	0	29	0	1111490560	34	5955
2026-01-04 19:22:01.69	19.02	16.38	-30.7	-31.3	26.5	0.00e+00	0	29	0	1118830592	34	5900
2026-01-04 19:22:02.70	19.00	16.49	-30.6	-31.2	26.5	0.00e+00	0	30	0	1126170624	34	5833
2026-01-04 19:22:03.71	18.98	16.60	-30.6	-31.2	26.5	0.00e+00	0	30	0	1133510656	34	5862
2026-01-04 19:22:04.72	18.96	16.72	-30.5	-31.1	26.6	0.00e+00	0	29	0	1140850688	34	5792
2026-01-04 19:22:05.73	18.94	16.83	-30.6	-31.2	26.5	0.00e+00	0	29	0	1148190720	34	5842
2026-01-04 19:22:06.74	18.91	16.95	-30.5	-31.1	26.7	0.00e+00	0	29	0	1155530752	34	5811
2026-01-04 19:22:07.75	18.89	17.06	-30.7	-31.3	26.5	0.00e+00	0	30	0	1162870784	34	5904
2026-01-04 19:22:08.76	18.87	17.18	-30.8	-31.3	26.3	0.00e+00	0	30	0	1170210816	34	5959
2026-01-04 19:22:09.77	18.84	17.30	-30.4	-31.0	26.7	0.00e+00	0	30	0	1177550848	34	5735
2026-01-04 19:22:10.78	18.82	17.42	-30.3	-30.9	26.7	0.00e+00	0	29	0	1184890880	34	5634
2026-01-04 19:22:11.79	18.80	17.53	-30.5	-31.1	26.8	0.00e+00	0	30	0	1192230912	34	5766
2026-01-04 19:22:12.80	18.77	17.65	-30.3	-30.9	26.8	0.00e+00	0	30	0	1199570944	34	5643
2026-01-04 19:22:13.81	18.75	17.77	-30.4	-31.0	26.8	0.00e+00	0	30	0	1206910976	34	5703
2026-01-04 19:22:14.82	18.72	17.89	-30.1	-30.7	27.0	0.00e+00	0	29	0	1214251008	34	5507
2026-01-04 19:22:15.83	18.70	18.01	-30.2	-30.8	27.0	0.00e+00	0	29	0	1221591040	34	5589
2026-01-04 19:22:16.83	18.68	18.13	-30.1	-30.7	27.0	0.00e+00	0	29	0	1227882496	34	5542
2026-01-04 19:22:17.84	18.65	18.25	-30.0	-30.6	27.1	0.00e+00	0	30	0	1235222528	34	5453
2026-01-04 19:22:18.85	18.62	18.38	-29.9	-30.5	27.1	0.00e+00	0	30	0	1243611136	34	5405
2026-01-04 19:22:19.86	18.60	18.50	-29.9	-30.5	27.2	0.00e+00	0	30	0	1249902592	34	5417
2026-01-04 19:22:20.87	18.57	18.62	-30.1	-30.6	27.0	0.00e+00	0	30	0	1257242624	34	5500
2026-01-04 19:22:21.88	18.55	18.75	-29.8	-30.4	27.2	0.00e+00	0	30	0	1264582656	34	5349
2026-01-04 19:22:22.89	18.52	18.87	-30.2	-30.7	27.1	0.00e+00	0	30	0	1271922688	34	5550
2026-01-04 19:22:23.90	18.50	19.00	-30.0	-30.6	27.2	0.00e+00	0	30	0	1279262720	32	6123
2026-01-04 19:22:24.91	18.47	19.12	-30.0	-30.5	27.3	0.00e+00	0	30	0	1286602752	32	6088
2026-01-04 19:22:25.92	18.44	19.25	-29.8	-30.4	27.2	0.00e+00	0	30	0	1293942784	32	6012
2026-01-04 19:22:26.93	18.41	19.38	-29.8	-30.4	27.3	0.00e+00	0	30	0	1301282816	32	6022
2026-01-04 19:22:27.94	18.39	19.50	-30.1	-30.7	27.0	0.00e+00	0	30	0	1308622848	32	6184
2026-01-04 19:22:28.95	18.36	19.63	-30.0	-30.6	27.1	0.00e+00	0	30	0	1315962880	32	6164
2026-01-04 19:22:29.96	18.33	19.76	-30.0	-30.6	27.1	0.00e+00	0	29	0	1323302912	32	6155
2026-01-04 19:22:30.97	18.30	19.89	-30.2	-30.8	27.0	0.00e+00	0	30	0	1330642944	32	6268
2026-01-04 19:22:31.98	18.27	20.02	-30.2	-30.8	27.1	0.00e+00	0	29	0	1337982976	32	6289
2026-01-04 19:22:32.99	18.25	20.15	-30.1	-30.7	27.2	0.00e+00	0	30	0	1345323008	32	6191
2026-01-04 19:22:34.00	18.22	20.28	-30.2	-30.8	27.0	0.00e+00	0	30	0	1352663040	32	6307
2026-01-04 19:22:35.01	18.19	20.42	-30.1	-30.7	27.2	0.00e+00	0	30	0	1360003072	32	6233
2026-01-04 19:22:36.02	18.16	20.55	-30.1	-30.7	27.1	0.00e+00	0	30	0	1367343104	32	6220
2026-01-04 19:22:37.03	18.13	20.68	-30.0	-30.6	27.1	0.00e+00	0	30	0	1373634560	32	6116
2026-01-04 19:22:38.04	18.10	20.82	-30.1	-30.7	27.1	0.00e+00	0	30	0	1380974592	32	6193
2026-01-04 19:22:39.05	18.07	20.95	-30.2	-30.8	27.1	0.00e+00	0	29	0	1389363200	32	6286
2026-01-04 19:22:40.06	18.03	21.09	-30.3	-30.9	27.0	0.00e+00	0	30	0	1395654656	32	6320
2026-01-04 19:22:41.06	18.00	21.23	-30.4	-31.0	27.0	0.00e+00	0	30	0	1402994688	32	6392
2026-01-04 19:22:42.07	17.97	21.36	-30.3	-30.9	27.0	0.00e+00	0	30	0	1410334720	32	6335
2026-01-04 19:22:43.08	17.94	21.50	-30.2	-30.7	27.1	0.00e+00	0	30	0	1417674752	32	6244
2026-01-04 19:22:44.09	17.91	21.64	-30.2	-30.7	27.0	0.00e+00	0	30	0	1425014784	32	6244
2026-01-04 19:22:45.10	17.88	21.78	-30.5	-31.1	26.8	0.00e+00	0	30	0	1432354816	32	6500
2026-01-04 19:22:46.12	17.84	21.92	-30.0	-30.6	27.2	0.00e+00	0	30	0	1439694848	32	6122
2026-01-04 19:22:47.12	17.81	22.06	-30.3	-30.9	27.0	0.00e+00	0	30	0	1447034880	32	6354
2026-01-04 19:22:48.14	17.78	22.21	-30.2	-30.8	27.1	0.00e+00	0	30	0	1454374912	32	6253
2026-01-04 19:22:49.15	17.74	22.35	-30.1	-30.7	27.1	0.00e+00	0	30	0	1461714944	32	6229
2026-01-04 19:22:50.16	17.71	22.49	-30.2	-30.8	27.0	0.00e+00	0	29	0	1469054976	32	6256
2026-01-04 19:22:51.17	17.67	22.64	-30.2	-30.8	26.9	0.00e+00	0	30	0	1476395008	32	6251
2026-01-04 19:22:52.18	17.64	22.78	-30.1	-30.7	27.1	0.00e+00	0	30	0	1483735040	32	6231
2026-01-04 19:22:53.19	17.60	22.93	-30.3	-30.9	27.0	0.00e+00	0	29	0	1491075072	32	6354
2026-01-04 19:22:54.20	17.57	23.08	-30.4	-31.0	27.1	0.00e+00	0	30	0	1498415104	32	6393
2026-01-04 19:22:55.21	17.53	23.22	-30.0	-30.6	27.3	0.00e+00	0	29	0	1505755136	32	6113
2026-01-04 19:22:56.22	17.49	23.37	-30.0	-30.6	27.3	0.00e+00	0	30	0	1513095168	32	6150
2026-01-04 19:22:57.23	17.46	23.52	-30.0	-30.5	27.4	0.00e+00	0	30	0	1520435200	32	6096
2026-01-04 19:22:58.24	17.42	23.67	-29.9	-30.5	27.3	0.00e+00	0	30	0	1526726656	32	6073
2026-01-04 19:22:59.25	17.38	23.82	-29.8	-30.4	27.5	0.00e+00	0	30	0	1535115264	32	5974
2026-01-04 19:23:00.26	17.35	23.98	-30.1	-30.7	27.2	0.00e+00	0	30	0	1542455296	32	6208
2026-01-04 19:23:01.27	17.31	24.13	-29.7	-30.3	27.5	0.00e+00	0	30	0	1548746752	32	5906
2026-01-04 19:23:02.27	17.27	24.28	-29.6	-30.2	27.6	0.00e+00	0	30	0	1556086784	32	5839
2026-01-04 19:23:03.28	17.23	24.44	-29.5	-30.1	27.4	0.00e+00	0	30	0	1563426816	32	5805
2026-01-04 19:23:04.29	17.19	24.59	-29.7	-30.3	27.6	0.00e+00	0	30	0	1570766848	32	5924
2026-01-04 19:23:05.30	17.15	24.75	-29.5	-30.0	27.8	0.00e+00	0	30	0	1578106880	32	5759
2026-01-04 19:23:06.31	17.11	24.91	-29.3	-29.9	27.8	0.00e+00	0	30	0	1585446912	32	5661
2026-01-04 19:23:07.32	17.07	25.07	-29.4	-29.9	27.7	0.00e+00	0	30	0	1592786944	32	5679
2026-01-04 19:23:08.33	17.03	25.22	-29.3	-29.9	27.8	0.00e+00	0	30	0	1600126976	32	5645
2026-01-04 19:23:09.34	16.98	25.39	-29.1	-29.7	27.8	0.00e+00	0	30	0	1607467008	32	5527
2026-01-04 19:23:10.35	16.94	25.55	-29.2	-29.8	27.9	0.00e+00	0	30	0	1614807040	32	5591
2026-01-04 19:23:11.36	16.90	25.71	-29.1	-29.6	27.9	0.00e+00	0	30	0	1622147072	32	5496
2026-01-04 19:23:12.37	16.86	25.87	-29.1	-29.7	27.8	0.00e+00	0	30	0	1629487104	32	5547
2026-01-04 19:23:13.38	16.81	26.04	-28.8	-29.3	28.1	0.00e+00	0	30	0	1636827136	30	5937
2026-01-04 19:23:14.39	16.77	26.20	-28.9	-29.5	28.1	0.00e+00	0	30	0	1644167168	30	6044
2026-01-04 19:23:15.40	16.72	26.37	-28.8	-29.4	28.2	0.00e+00	0	30	0	1651507200	30	5983
2026-01-04 19:23:16.41	16.68	26.54	-28.9	-29.4	28.1	0.00e+00	0	30	0	1658847232	30	6029
2026-01-04 19:23:17.42	16.63	26.70	-28.8	-29.3	28.2	0.00e+00	0	30	0	1666187264	30	5959
2026-01-04 19:23:18.43	16.58	26.87	-28.8	-29.3	28.3	0.00e+00	0	30	0	1673527296	30	5950
2026-01-04 19:23:19.44	16.54	27.04	-28.9	-29.4	28.1	0.00e+00	0	30	0	1679818752	30	6032
2026-01-04 19:23:20.45	16.49	27.21	-29.0	-29.6	27.9	0.00e+00	0	30	0	1688207360	30	6136
2026-01-04 19:23:21.46	16.44	27.39	-29.4	-29.9	27.7	0.00e+00	0	30	0	1695547392	30	6379
2026-01-04 19:23:22.47	16.39	27.56	-29.0	-29.6	28.0	0.00e+00	0	30	0	1701838848	30	6124
2026-01-04 19:23:23.48	16.34	27.74	-29.1	-29.6	28.0	0.00e+00	0	30	0	1709178880	30	6160
2026-01-04 19:23:24.49	16.29	27.91	-29.0	-29.6	28.0	0.00e+00	0	30	0	1716518912	30	6112
2026-01-04 19:23:25.50	16.24	28.09	-29.1	-29.7	27.9	0.00e+00	0	30	0	1723858944	30	6204
2026-01-04 19:23:26.51	16.19	28.27	-29.1	-29.7	27.8	0.00e+00	0	30	0	1731198976	30	6235
2026-01-04 19:23:27.52	16.14	28.45	-29.0	-29.5	28.1	0.00e+00	0	30	0	1738539008	30	6100
2026-01-04 19:23:28.53	16.09	28.63	-29.0	-29.6	28.0	0.00e+00	0	30	0	1745879040	30	6115
2026-01-04 19:23:29.54	16.04	28.81	-29.1	-29.7	28.1	0.00e+00	0	30	0	1753219072	30	6190
2026-01-04 19:23:30.55	15.98	28.99	-28.9	-29.5	28.1	0.00e+00	0	30	0	1760559104	30	6079
2026-01-04 19:23:31.56	15.93	29.17	-28.7	-29.3	28.2	0.00e+00	0	30	0	1767899136	30	5925
2026-01-04 19:23:32.57	15.87	29.36	-28.7	-29.3	28.2	0.00e+00	0	30	0	1775239168	30	5953
2026-01-04 19:23:33.58	15.82	29.54	-28.7	-29.3	28.1	0.00e+00	0	30	0	1782579200	30	5936
2026-01-04 19:23:34.59	15.76	29.73	-28.7	-29.3	28.2	0.00e+00	0	30	0	1789919232	30	5923
2026-01-04 19:23:35.60	15.70	29.92	-28.7	-29.3	28.3	0.00e+00	0	30	0	1797259264	30	5898
2026-01-04 19:23:36.61	15.65	30.11	-28.8	-29.4	28.2	0.00e+00	0	30	0	1804599296	30	5989
2026-01-04 19:23:37.62	15.59	30.30	-28.7	-29.2	28.3	0.00e+00	0	30	0	1811939328	30	5896
2026-01-04 19:23:38.63	15.53	30.49	-28.7	-29.2	28.2	0.00e+00	0	30	0	1819279360	30	5883
2026-01-04 19:23:39.64	15.47	30.69	-28.6	-29.2	28.3	0.00e+00	0	30	0	1825570816	30	5850
2026-01-04 19:23:40.65	15.41	30.88	-28.8	-29.3	28.3	0.00e+00	0	30	0	1833959424	30	5946
2026-01-04 19:23:41.66	15.35	31.08	-28.7	-29.3	28.3	0.00e+00	0	30	0	1841299456	30	5937
2026-01-04 19:23:42.66	15.29	31.27	-28.9	-29.4	28.2	0.00e+00	0	30	0	1847590912	30	6017
2026-01-04 19:23:43.68	15.22	31.47	-28.9	-29.4	28.1	0.00e+00	0	30	0	1854930944	30	6011
2026-01-04 19:23:44.68	15.16	31.67	-29.0	-29.6	28.1	0.00e+00	0	30	0	1862270976	30	6118
2026-01-04 19:23:45.69	15.09	31.87	-28.9	-29.5	28.1	0.00e+00	0	30	0	1869611008	30	6069
2026-01-04 19:23:46.70	15.03	32.07	-28.9	-29.5	28.0	0.00e+00	0	30	0	1876951040	30	6068
2026-01-04 19:23:47.71	14.96	32.28	-29.1	-29.6	28.1	0.00e+00	0	30	0	1884291072	30	6161
2026-01-04 19:23:48.72	14.89	32.48	-29.0	-29.6	28.1	0.00e+00	0	30	0	1891631104	30	6105
2026-01-04 19:23:49.73	14.83	32.69	-29.2	-29.7	27.9	0.00e+00	0	30	0	1898971136	30	6237
2026-01-04 19:23:50.74	14.76	32.90	-29.0	-29.5	28.1	0.00e+00	0	30	0	1906311168	30	6096
2026-01-04 19:23:51.75	14.69	33.11	-29.0	-29.5	28.2	0.00e+00	0	30	0	1913651200	30	6092
2026-01-04 19:23:52.76	14.62	33.32	-28.8	-29.4	28.2	0.00e+00	0	30	0	1920991232	30	6005
2026-01-04 19:23:53.76	14.54	33.53	-29.0	-29.6	28.0	0.00e+00	0	30	0	1928331264	30	6123
2026-01-04 19:23:54.78	14.47	33.74	-28.9	-29.5	28.2	0.00e+00	0	30	0	1935671296	30	6036
2026-01-04 19:23:55.79	14.40	33.96	-29.2	-29.7	28.0	0.00e+00	0	30	0	1943011328	30	6241
2026-01-04 19:23:56.79	14.32	34.17	-29.1	-29.7	28.0	0.00e+00	0	30	0	1950351360	30	6223
2026-01-04 19:23:57.80	14.25	34.39	-29.2	-29.8	27.9	0.00e+00	0	30	0	1957691392	30	6251
2026-01-04 19:23:58.81	14.17	34.61	-29.1	-29.7	28.0	0.00e+00	0	30	0	1965031424	30	6209
2026-01-04 19:23:59.82	14.09	34.83	-28.9	-29.5	28.2	0.00e+00	0	30	0	1972371456	32	5409
2026-01-04 19:24:00.83	14.01	35.05	-29.3	-29.9	28.1	0.00e+00	0	30	0	1978662912	32	5643
2026-01-04 19:24:01.84	13.93	35.28	-29.3	-29.8	28.0	0.00e+00	0	30	0	1987051520	32	5625
2026-01-04 19:24:02.86	13.85	35.50	-28.8	-29.4	28.1	0.00e+00	0	30	0	1994391552	32	5342
2026-01-04 19:24:03.87	13.76	35.73	-28.9	-29.5	27.9	0.00e+00	0	30	0	2000683008	30	6038
2026-01-04 19:24:04.88	13.68	35.96	-30.2	-30.8	28.0	0.00e+00	0	30	0	2008023040	30	7050
2026-01-04 19:24:05.89	13.60	36.19	-29.1	-29.7	28.0	0.00e+00	0	30	0	2015363072	32	5509
2026-01-04 19:24:06.90	13.51	36.42	-29.1	-29.6	28.1	0.00e+00	0	30	0	2022703104	32	5498
2026-01-04 19:24:07.91	13.42	36.66	-29.0	-29.6	28.1	0.00e+00	0	30	0	2030043136	32	5467
2026-01-04 19:24:08.92	13.33	36.89	-28.9	-29.5	28.1	0.00e+00	0	30	0	2037383168	32	5411
2026-01-04 19:24:09.93	13.24	37.13	-29.2	-29.8	27.9	0.00e+00	0	30	0	2044723200	32	5591
2026-01-04 19:24:10.93	13.15	37.36	-29.4	-30.0	27.8	0.00e+00	0	30	0	2052063232	32	5728
2026-01-04 19:24:11.94	13.06	37.60	-30.2	-30.8	27.1	0.00e+00	0	30	0	2059403264	32	6247
2026-01-04 19:24:12.95	12.96	37.84	-29.5	-30.1	27.6	0.00e+00	0	30	0	2066743296	32	5780
2026-01-04 19:24:13.96	12.86	38.09	-29.3	-29.9	27.7	0.00e+00	0	30	0	2074083328	32	5648
2026-01-04 19:24:14.97	12.77	38.33	-30.1	-30.7	27.1	0.00e+00	0	30	0	2081423360	32	6220
2026-01-04 19:24:15.98	12.67	38.58	-31.0	-31.6	26.8	0.00e+00	0	30	0	2088763392	34	6122
2026-01-04 19:24:16.99	12.57	38.83	-30.7	-31.3	26.0	0.00e+00	0	30	0	2096103424	34	5958
2026-01-04 19:24:18.00	12.46	39.08	-29.5	-30.1	28.0	0.00e+00	0	30	0	2103443456	32	5792
2026-01-04 19:24:19.01	12.36	39.33	-29.6	-30.2	27.8	0.00e+00	0	30	0	2110783488	32	5859
2026-01-04 19:24:20.02	12.25	39.58	-29.2	-29.8	28.0	0.00e+00	0	30	0	2118123520	32	5591
2026-01-04 19:24:21.03	12.14	39.84	-29.1	-29.7	28.0	0.00e+00	0	30	0	2124414976	32	5512
2026-01-04 19:24:22.04	12.03	40.09	-29.0	-29.5	28.0	0.00e+00	0	30	0	2131755008	32	5425
2026-01-04 19:24:23.05	11.92	40.35	-29.3	-29.9	27.8	0.00e+00	0	30	0	2140143616	32	5647
2026-01-04 19:24:24.06	11.81	40.61	-29.2	-29.7	28.1	0.00e+00	0	30	0	2146435072	32	5559
2026-01-04 19:24:25.07	11.69	40.87	-29.5	-30.1	27.8	0.00e+00	0	30	0	2153775104	32	5795
2026-01-04 19:24:26.08	11.58	41.14	-29.7	-30.2	27.7	0.00e+00	0	30	0	2161115136	32	5894
2026-01-04 19:24:27.09	11.46	41.40	-29.4	-30.0	27.6	0.00e+00	0	30	0	2168455168	32	5713
2026-01-04 19:24:28.10	11.34	41.67	-29.7	-30.2	27.6	0.00e+00	0	30	0	2175795200	32	5883
2026-01-04 19:24:29.10	11.22	41.94	-29.8	-30.4	27.4	0.00e+00	0	30	0	2183135232	32	6004
2026-01-04 19:24:30.11	11.09	42.21	-29.2	-29.7	28.0	0.00e+00	0	30	0	2190475264	32	5550
2026-01-04 19:24:31.12	10.96	42.48	-29.3	-29.8	27.9	0.00e+00	0	30	0	2197815296	32	5618
2026-01-04 19:24:32.13	10.83	42.76	-29.0	-29.6	27.9	0.00e+00	0	30	0	2205155328	32	5443
2026-01-04 19:24:33.14	10.70	43.03	-29.2	-29.8	28.0	0.00e+00	0	30	0	2212495360	32	5614
2026-01-04 19:24:34.15	10.57	43.31	-29.3	-29.9	27.9	0.00e+00	0	30	0	2219835392	32	5631
2026-01-04 19:24:35.16	10.43	43.59	-29.2	-29.8	28.2	0.00e+00	0	30	0	2227175424	32	5567
2026-01-04 19:24:36.17	10.29	43.87	-29.1	-29.7	28.1	0.00e+00	0	30	0	2234515456	32	5533
2026-01-04 19:24:37.18	10.15	44.16	-29.2	-29.7	28.0	0.00e+00	0	30	0	2241855488	32	5552
2026-01-04 19:24:38.19	10.00	44.45	-29.3	-29.9	27.9	0.00e+00	0	30	0	2249195520	32	5665
2026-01-04 19:24:39.20	9.86	44.73	-29.3	-29.9	27.8	0.00e+00	0	30	0	2256535552	32	5659
2026-01-04 19:24:40.21	9.71	45.02	-29.3	-29.8	27.8	0.00e+00	0	30	0	2263875584	32	5601
2026-01-04 19:24:41.22	9.55	45.31	-29.7	-30.3	27.7	0.00e+00	0	30	0	2271215616	32	5939
2026-01-04 19:24:42.23	9.40	45.61	-29.7	-30.2	27.6	0.00e+00	0	30	0	2277507072	32	5879
2026-01-04 19:24:43.24	9.24	45.90	-29.8	-30.4	27.6	0.00e+00	0	30	0	2284847104	32	5976
2026-01-04 19:24:44.25	9.08	46.20	-30.1	-30.7	27.1	0.00e+00	0	30	0	2293235712	32	6197
2026-01-04 19:24:45.26	8.91	46.50	-29.7	-30.2	27.6	0.00e+00	0	30	0	2299527168	32	5889
2026-01-04 19:24:46.27	8.74	46.80	-30.1	-30.7	27.4	0.00e+00	0	30	0	2306867200	32	6186
2026-01-04 19:24:47.28	8.57	47.11	-30.0	-30.6	27.3	0.00e+00	0	30	0	2314207232	32	6126
2026-01-04 19:24:48.28	8.40	47.41	-30.3	-30.9	27.1	0.00e+00	0	30	0	2321547264	32	6363
2026-01-04 19:24:49.29	8.22	47.71	-29.8	-30.3	27.6	0.00e+00	0	30	0	2328887296	32	5964
2026-01-04 19:24:50.30	8.04	48.02	-29.7	-30.3	27.6	0.00e+00	0	30	0	2336227328	32	5904
2026-01-04 19:24:51.31	7.85	48.33	-29.7	-30.2	27.7	0.00e+00	0	30	0	2343567360	32	5889
2026-01-04 19:24:52.32	7.66	48.65	-29.8	-30.3	27.5	0.00e+00	0	30	0	2350907392	32	5957
2026-01-04 19:24:53.33	7.46	48.96	-29.9	-30.5	27.4	0.00e+00	0	30	0	2358247424	32	6056
2026-01-04 19:24:54.34	7.27	49.28	-29.9	-30.5	27.4	0.00e+00	0	30	0	2365587456	32	6074
2026-01-04 19:24:55.35	7.06	49.60	-30.0	-30.6	27.2	0.00e+00	0	30	0	2372927488	32	6109
2026-01-04 19:24:56.36	6.86	49.92	-30.1	-30.7	26.9	0.00e+00	0	30	0	2380267520	32	6244
2026-01-04 19:24:57.36	6.65	50.24	-30.4	-31.0	27.1	0.00e+00	0	30	0	2387607552	32	6453
2026-01-04 19:24:58.37	6.43	50.56	-30.6	-31.2	26.8	0.00e+00	0	30	0	2394947584	34	5847
2026-01-04 19:24:59.38	6.21	50.89	-30.3	-30.9	27.0	0.00e+00	0	30	0	2401239040	34	5670
2026-01-04 19:25:00.39	5.99	51.21	-30.6	-31.1	27.0	0.00e+00	0	30	0	2409627648	34	5828
2026-01-04 19:25:01.41	5.75	51.55	-30.5	-31.0	27.5	0.00e+00	0	30	0	2416967680	34	5743
2026-01-04 19:25:02.42	5.52	51.88	-30.0	-30.6	27.2	0.00e+00	0	30	0	2423259136	32	6126
2026-01-04 19:25:03.43	5.28	52.21	-29.8	-30.4	27.5	0.00e+00	0	30	0	2430599168	32	5984
2026-01-04 19:25:04.44	5.03	52.55	-29.8	-30.4	27.4	0.00e+00	0	30	0	2437939200	32	5989
2026-01-04 19:25:05.45	4.78	52.88	-29.9	-30.5	27.4	0.00e+00	0	30	0	2445279232	32	6065
2026-01-04 19:25:06.46	4.52	53.22	-30.0	-30.5	27.2	0.00e+00	0	30	0	2452619264	32	6094
2026-01-04 19:25:07.47	4.25	53.56	-30.6	-31.2	26.7	0.00e+00	0	30	0	2459959296	32	6551
2026-01-04 19:25:08.48	3.98	53.90	-31.2	-31.8	26.2	0.00e+00	0	30	0	2467299328	34	6298
2026-01-04 19:25:09.49	3.70	54.25	-31.2	-31.8	26.3	0.00e+00	0	30	0	2474639360	34	6282
2026-01-04 19:25:10.50	3.42	54.59	-31.0	-31.6	26.6	0.00e+00	0	30	0	2481979392	34	6136
2026-01-04 19:25:11.51	3.13	54.94	-30.6	-31.2	26.7	0.00e+00	0	30	0	2489319424	34	5854
2026-01-04 19:25:12.52	2.83	55.28	-30.5	-31.1	27.0	0.00e+00	0	30	0	2496659456	34	5794
2026-01-04 19:25:13.53	2.52	55.63	-30.2	-30.8	27.0	0.00e+00	0	30	0	2503999488	34	5584
2026-01-04 19:25:14.54	2.21	55.98	-30.5	-31.1	27.1	0.00e+00	0	30	0	2511339520	34	5808
2026-01-04 19:25:15.55	1.88	56.34	-30.4	-31.0	27.0	0.00e+00	0	30	0	2518679552	34	5730
2026-01-04 19:25:16.56	1.55	56.69	-31.2	-31.8	26.1	0.00e+00	0	30	0	2526019584	34	6269
2026-01-04 19:25:17.57	1.21	57.05	-31.0	-31.6	26.6	0.00e+00	0	30	0	2533359616	34	6130
2026-01-04 19:25:18.58	0.86	57.40	-30.9	-31.5	26.5	0.00e+00	0	30	0	2540699648	34	6050
2026-01-04 19:25:19.59	0.51	57.76	-30.8	-31.3	26.7	0.00e+00	0	30	0	2548039680	34	5957
2026-01-04 19:25:20.60	0.14	58.12	-30.7	-31.3	26.8	0.00e+00	0	30	0	2555379712	34	5955
2026-01-04 19:25:21.61	359.76	58.48	-30.0	-30.6	26.9	0.00e+00	0	30	0	2562719744	34	5455
2026-01-04 19:25:22.62	359.37	58.84	-30.5	-31.1	26.3	0.00e+00	0	30	0	2570059776	34	5775
2026-01-04 19:25:23.63	358.97	59.20	-30.9	-31.5	26.5	0.00e+00	0	30	0	2576351232	34	6093
2026-01-04 19:25:24.64	358.56	59.56	-31.2	-31.8	26.4	0.00e+00	0	30	0	2583691264	34	6261
2026-01-04 19:25:25.65	358.14	59.92	-30.5	-31.1	27.0	0.00e+00	0	30	0	2592079872	34	5804
2026-01-04 19:25:26.66	357.71	60.29	-29.9	-30.5	27.2	0.00e+00	0	30	0	2598371328	34	5399
2026-01-04 19:25:27.67	357.26	60.65	-30.8	-31.5	27.6	0.00e+00	0	30	0	2605711360	32	6772
2026-01-04 19:25:28.68	356.80	61.01	-29.9	-30.5	27.5	0.00e+00	0	30	0	2613051392	32	6035
2026-01-04 19:25:29.68	356.33	61.38	-30.0	-30.5	27.4	1.10e-06	0	30	0	2620391424	32	6087
2026-01-04 19:25:30.69	355.84	61.74	-30.1	-30.7	27.3	0.00e+00	0	30	0	2627731456	32	6208
2026-01-04 19:25:31.70	355.34	62.11	-30.1	-30.7	27.4	0.00e+00	0	30	0	2635071488	32	6179
2026-01-04 19:25:32.71	354.82	62.47	-29.9	-30.5	27.1	0.00e+00	0	30	0	2642411520	32	6082
2026-01-04 19:25:33.72	354.28	62.84	-29.7	-30.3	27.5	0.00e+00	0	30	0	2649751552	32	5912
2026-01-04 19:25:34.73	353.73	63.20	-29.3	-29.9	27.8	0.00e+00	0	30	0	2657091584	32	5640
2026-01-04 19:25:35.74	353.16	63.57	-29.5	-30.1	27.8	0.00e+00	0	30	0	2664431616	32	5770
2026-01-04 19:25:36.75	352.58	63.93	-29.6	-30.2	27.5	0.00e+00	0	30	0	2671771648	32	5844
2026-01-04 19:25:37.76	351.97	64.29	-29.7	-30.3	27.8	0.00e+00	0	30	0	2679111680	32	5922
2026-01-04 19:25:38.77	351.35	64.66	-29.7	-30.3	27.4	0.00e+00	0	30	0	2686451712	32	5937
2026-01-04 19:25:39.78	350.70	65.02	-29.4	-30.0	27.7	0.00e+00	0	30	0	2693791744	32	5721
2026-01-04 19:25:40.79	350.04	65.38	-29.2	-29.7	28.0	0.00e+00	0	30	0	2701131776	32	5552
2026-01-04 19:25:41.80	349.35	65.73	-29.2	-29.8	28.0	0.00e+00	0	30	0	2708471808	32	5580
2026-01-04 19:25:42.81	348.64	66.09	-28.9	-29.5	28.4	0.00e+00	0	30	0	2715811840	32	5396
2026-01-04 19:25:43.82	347.90	66.45	-29.5	-30.0	27.8	0.00e+00	0	30	0	2722103296	32	5750
2026-01-04 19:25:44.83	347.14	66.80	-29.3	-29.9	27.9	0.00e+00	0	30	0	2729443328	32	5659
2026-01-04 19:25:45.84	346.36	67.15	-29.4	-30.0	28.0	0.00e+00	0	30	0	2736783360	32	5738
2026-01-04 19:25:46.85	345.54	67.50	-29.1	-29.7	28.1	0.00e+00	0	30	0	2744123392	32	5539
2026-01-04 19:25:47.86	344.70	67.84	-29.9	-30.5	27.3	0.00e+00	0	30	0	2751463424	32	6068
2026-01-04 19:25:48.87	343.84	68.18	-29.3	-29.9	27.8	0.00e+00	0	30	0	2758803456	32	5665
2026-01-04 19:25:49.88	342.94	68.52	-29.5	-30.1	27.9	0.00e+00	0	30	0	2766143488	32	5766
2026-01-04 19:25:50.89	342.01	68.86	-29.5	-30.1	27.7	0.00e+00	0	30	0	2773483520	32	5774
2026-01-04 19:25:51.90	341.04	69.19	-29.5	-30.1	27.9	0.00e+00	0	30	0	2780823552	32	5767
2026-01-04 19:25:52.91	340.05	69.51	-29.4	-30.0	27.8	0.00e+00	0	30	0	2788163584	32	5728
2026-01-04 19:25:53.92	339.02	69.83	-29.9	-30.4	27.7	0.00e+00	0	30	0	2795503616	32	6021
2026-01-04 19:25:54.93	337.95	70.15	-30.1	-30.7	27.5	0.00e+00	0	30	0	2802843648	32	6220
2026-01-04 19:25:55.94	336.85	70.46	-29.7	-30.2	27.9	0.00e+00	0	30	0	2810183680	32	5890
2026-01-04 19:25:56.95	335.71	70.76	-29.3	-29.9	27.7	0.00e+00	0	30	0	2817523712	32	5686
2026-01-04 19:25:57.96	334.53	71.06	-29.5	-30.0	27.7	0.00e+00	0	30	0	2824863744	32	5740
2026-01-04 19:25:58.97	333.31	71.35	-29.9	-30.5	27.7	0.00e+00	0	30	0	2832203776	32	6058
2026-01-04 19:25:59.98	332.05	71.63	-30.0	-30.5	27.5	0.00e+00	0	30	0	2839543808	34	5417
2026-01-04 19:26:00.99	330.75	71.91	-30.0	-30.6	27.1	0.00e+00	0	30	0	2846883840	32	6105
2026-01-04 19:26:02.00	329.41	72.17	-29.6	-30.2	28.0	0.00e+00	0	30	0	2854223872	32	5863
2026-01-04 19:26:03.01	328.02	72.43	-29.7	-30.3	27.5	0.00e+00	0	30	0	2861563904	32	5945
2026-01-04 19:26:04.01	326.61	72.68	-29.7	-30.3	28.1	0.00e+00	0	30	0	2868903936	32	5922
2026-01-04 19:26:05.02	325.14	72.92	-30.0	-30.6	27.9	0.00e+00	0	30	0	2875195392	32	6120
2026-01-04 19:26:06.03	323.62	73.14	-29.3	-29.9	27.8	0.00e+00	0	30	0	2882535424	32	5659
2026-01-04 19:26:07.04	322.07	73.36	-29.3	-29.9	28.2	0.00e+00	0	30	0	2890924032	32	5651
2026-01-04 19:26:08.05	320.47	73.56	-29.9	-30.4	28.1	0.00e+00	0	30	0	2897215488	32	6004
2026-01-04 19:26:09.06	318.83	73.76	-30.6	-31.1	27.6	0.00e+00	0	30	0	2904555520	32	6528
2026-01-04 19:26:10.07	317.15	73.93	-30.2	-30.8	27.8	0.00e+00	0	30	0	2911895552	32	6300
2026-01-04 19:26:11.08	315.44	74.10	-29.6	-30.2	27.9	0.00e+00	0	30	0	2919235584	32	5854
2026-01-04 19:26:12.09	313.68	74.25	-30.2	-30.7	28.0	0.00e+00	0	30	0	2926575616	34	5562
2026-01-04 19:26:13.10	311.90	74.39	-30.2	-30.8	27.9	0.00e+00	0	30	0	2933915648	34	5572
2026-01-04 19:26:14.11	310.08	74.51	-30.2	-30.7	27.5	0.00e+00	0	30	0	2941255680	32	6240
2026-01-04 19:26:15.12	308.23	74.62	-29.9	-30.5	28.2	0.00e+00	0	30	0	2948595712	34	5387
2026-01-04 19:26:16.13	306.36	74.72	-30.0	-30.6	27.8	0.00e+00	0	30	0	2955935744	34	5460
2026-01-04 19:26:17.14	304.46	74.79	-29.7	-30.3	27.8	0.00e+00	0	30	0	2963275776	32	5908
2026-01-04 19:26:18.15	302.55	74.85	-29.9	-30.5	27.7	0.00e+00	0	30	0	2970615808	32	6076
2026-01-04 19:26:19.15	300.64	74.90	-29.6	-30.2	28.1	0.00e+00	0	30	0	2977955840	32	5871
2026-01-04 19:26:20.16	298.71	74.92	-29.7	-30.3	28.2	0.00e+00	0	30	0	2985295872	32	5897
2026-01-04 19:26:21.18	296.75	74.94	-29.5	-30.1	28.1	0.00e+00	0	30	0	2992635904	32	5796
2026-01-04 19:26:22.18	294.82	74.93	-30.9	-31.4	28.1	0.00e+00	0	30	0	2999975936	34	6012
2026-01-04 19:26:23.19	292.89	74.91	-29.8	-30.3	27.9	0.00e+00	0	30	0	3006267392	34	5308
2026-01-04 19:26:24.20	290.96	74.87	-30.3	-30.9	27.9	0.00e+00	0	30	0	3014656000	34	5639
2026-01-04 19:26:25.21	289.04	74.81	-30.7	-31.3	27.9	0.00e+00	0	30	0	3020947456	32	6629
2026-01-04 19:26:26.23	287.12	74.74	-29.2	-29.8	28.3	0.00e+00	0	30	0	3028287488	32	5590
2026-01-04 19:26:27.23	285.26	74.65	-29.4	-30.0	28.2	0.00e+00	0	30	0	3035627520	32	5736
2026-01-04 19:26:28.24	283.40	74.55	-29.8	-30.4	27.9	0.00e+00	0	30	0	3042967552	32	5983
2026-01-04 19:26:29.25	281.57	74.43	-29.8	-30.4	27.9	0.00e+00	0	30	0	3050307584	32	5988
2026-01-04 19:26:30.26	279.77	74.30	-29.7	-30.3	27.5	0.00e+00	0	30	0	3057647616	32	5934
2026-01-04 19:26:31.27	278.01	74.15	-29.5	-30.0	27.8	0.00e+00	0	30	0	3064987648	32	5757
2026-01-04 19:26:32.28	276.28	73.99	-29.2	-29.8	27.8	0.00e+00	0	30	0	3072327680	32	5576
2026-01-04 19:26:33.29	274.58	73.81	-29.2	-29.8	27.9	0.00e+00	0	30	0	3079667712	32	5610
2026-01-04 19:26:34.30	272.93	73.63	-28.7	-29.2	28.3	0.00e+00	0	30	0	3087007744	30	5871
2026-01-04 19:26:35.31	271.32	73.43	-29.0	-29.6	28.3	0.00e+00	0	30	0	3094347776	30	6139
2026-01-04 19:26:36.32	269.75	73.21	-30.2	-30.8	28.0	0.00e+00	0	30	0	3101687808	32	6267
2026-01-04 19:26:37.33	268.22	72.99	-30.0	-30.5	27.8	0.00e+00	0	30	0	3109027840	32	6086
2026-01-04 19:26:38.34	266.74	72.75	-30.0	-30.6	27.8	0.00e+00	0	30	0	3116367872	32	6127
2026-01-04 19:26:39.35	265.29	72.51	-29.9	-30.5	27.8	0.00e+00	0	30	0	3123707904	32	6071
2026-01-04 19:26:40.36	263.89	72.25	-30.1	-30.7	27.7	0.00e+00	0	30	0	3131047936	32	6206
2026-01-04 19:26:41.37	262.54	71.99	-30.5	-31.1	27.7	0.00e+00	0	30	0	3138387968	32	6504
2026-01-04 19:26:42.38	261.22	71.72	-30.1	-30.7	27.4	0.00e+00	0	30	0	3145728000	34	5528
2026-01-04 19:26:43.39	259.95	71.44	-30.2	-30.8	27.6	0.00e+00	0	30	0	3152019456	34	5587
2026-01-04 19:26:44.39	258.73	71.15	-30.1	-30.7	27.5	0.00e+00	0	30	0	3160408064	34	5537
2026-01-04 19:26:45.40	257.54	70.86	-29.7	-30.3	28.0	0.00e+00	0	30	0	3167748096	34	5259
2026-01-04 19:26:46.41	256.38	70.55	-30.7	-31.3	28.0	0.00e+00	0	30	0	3174039552	34	5902
2026-01-04 19:26:47.42	255.27	70.25	-30.0	-30.6	27.8	0.00e+00	0	30	0	3181379584	32	6131
2026-01-04 19:26:48.43	254.19	69.93	-30.9	-31.5	27.6	0.00e+00	0	30	0	3188719616	34	6039
2026-01-04 19:26:49.44	253.14	69.61	-30.9	-31.5	27.3	0.00e+00	0	30	0	3196059648	34	6038
2026-01-04 19:26:50.45	252.14	69.29	-31.2	-31.7	27.7	0.00e+00	0	30	0	3203399680	34	6220
2026-01-04 19:26:51.46	251.16	68.96	-30.8	-31.4	27.7	0.00e+00	0	30	0	3210739712	34	5965
2026-01-04 19:26:52.47	250.22	68.62	-29.9	-30.5	27.9	0.00e+00	0	30	0	3218079744	34	5415
2026-01-04 19:26:53.48	249.31	68.29	-30.1	-30.7	28.1	0.00e+00	0	30	0	3225419776	34	5507
2026-01-04 19:26:54.49	248.43	67.94	-29.8	-30.4	27.9	0.00e+00	0	30	0	3232759808	32	5967
2026-01-04 19:26:55.50	247.58	67.60	-30.0	-30.6	27.8	0.00e+00	0	30	0	3240099840	32	6129
2026-01-04 19:26:56.51	246.76	67.25	-30.3	-30.8	27.7	0.00e+00	0	30	0	3247439872	32	6316
2026-01-04 19:26:57.52	245.96	66.90	-29.9	-30.4	28.0	0.00e+00	0	30	0	3254779904	32	6031
2026-01-04 19:26:58.53	245.19	66.55	-29.6	-30.2	27.8	0.00e+00	0	30	0	3262119936	32	5833
2026-01-04 19:26:59.54	244.45	66.19	-30.3	-30.8	27.9	0.00e+00	0	30	0	3269459968	32	6314
2026-01-04 19:27:00.54	243.74	65.84	-30.0	-30.6	27.5	0.00e+00	0	30	0	3276800000	32	6134
2026-01-04 19:27:01.55	243.04	65.48	-30.4	-31.0	27.5	0.00e+00	0	30	0	3284140032	32	6396
2026-01-04 19:27:02.56	242.37	65.12	-30.4	-30.9	27.7	0.00e+00	0	30	0	3291480064	34	5686
2026-01-04 19:27:03.57	241.71	64.76	-29.8	-30.4	27.7	0.00e+00	0	30	0	3298820096	34	5355
2026-01-04 19:27:04.58	241.08	64.40	-30.6	-31.2	27.9	0.00e+00	0	30	0	3305111552	32	6571
2026-01-04 19:27:05.59	240.47	64.03	-30.3	-30.9	27.7	0.00e+00	0	30	0	3312451584	32	6345
2026-01-04 19:27:06.60	239.88	63.67	-31.0	-31.5	27.3	0.00e+00	0	30	0	3320840192	34	6103
2026-01-04 19:27:07.61	239.30	63.30	-31.3	-31.8	27.2	0.00e+00	0	30	0	3327131648	34	6294
2026-01-04 19:27:08.62	238.75	62.94	-30.6	-31.2	26.7	0.00e+00	0	30	0	3334471680	34	5865
2026-01-04 19:27:09.63	238.21	62.57	-31.0	-31.6	26.3	0.00e+00	0	30	0	3341811712	34	6162
2026-01-04 19:27:10.64	237.68	62.21	-31.6	-32.3	26.5	0.00e+00	0	30	0	3349151744	36	5903
2026-01-04 19:27:11.65	237.17	61.84	-32.1	-32.7	26.5	0.00e+00	0	30	0	3356491776	36	6218
2026-01-04 19:27:12.66	236.68	61.47	-31.6	-32.2	25.9	0.00e+00	0	30	0	3363831808	36	5864
2026-01-04 19:27:13.67	236.20	61.11	-32.1	-32.7	25.9	0.00e+00	0	30	0	3371171840	38	5516
2026-01-04 19:27:14.67	235.74	60.75	-32.4	-33.0	25.9	0.00e+00	0	30	0	3378511872	38	5726
2026-01-04 19:27:15.68	235.29	60.38	-32.3	-32.9	26.1	0.00e+00	0	30	0	3385851904	38	5690
2026-01-04 19:27:16.70	234.84	60.01	-31.8	-32.4	26.3	0.00e+00	0	30	0	3393191936	36	5979
2026-01-04 19:27:17.71	234.42	59.65	-32.0	-32.6	25.9	0.00e+00	0	30	0	3400531968	36	6144
2026-01-04 19:27:18.71	234.01	59.29	-32.5	-33.0	26.2	0.00e+00	0	30	0	3407872000	36	6460
2026-01-04 19:27:19.72	233.60	58.93	-31.8	-32.3	26.1	0.00e+00	0	30	0	3415212032	36	5963
2026-01-04 19:27:20.73	233.21	58.56	-31.5	-32.1	26.3	0.00e+00	0	30	0	3422552064	36	5787
2026-01-04 19:27:21.74	232.83	58.20	-31.0	-31.6	26.6	0.00e+00	0	30	0	3429892096	36	5480
2026-01-04 19:27:22.75	232.46	57.84	-30.8	-31.4	27.0	0.00e+00	0	30	0	3437232128	36	5317
2026-01-04 19:27:23.76	232.09	57.49	-31.0	-31.6	27.0	0.00e+00	0	30	0	3444572160	34	6151
2026-01-04 19:27:24.77	231.74	57.13	-31.1	-31.6	26.3	0.00e+00	0	30	0	3450863616	34	6172
2026-01-04 19:27:25.78	231.40	56.77	-31.2	-31.7	26.6	0.00e+00	0	30	0	3458203648	34	6242
2026-01-04 19:27:26.79	231.07	56.42	-31.0	-31.6	26.8	0.00e+00	0	30	0	3465543680	34	6112
2026-01-04 19:27:27.80	230.74	56.06	-31.1	-31.7	26.6	0.00e+00	0	30	0	3472883712	36	5538
2026-01-04 19:27:28.81	230.42	55.71	-30.6	-31.1	27.1	0.00e+00	0	30	0	3480223744	36	5191
2026-01-04 19:27:29.82	230.11	55.36	-30.2	-30.8	27.4	0.00e+00	0	30	0	3487563776	34	5595
2026-01-04 19:27:30.83	229.81	55.01	-30.6	-31.2	27.4	0.00e+00	0	30	0	3494903808	34	5854
2026-01-04 19:27:31.84	229.52	54.66	-30.3	-30.9	27.5	0.00e+00	0	30	0	3502243840	34	5669
2026-01-04 19:27:32.85	229.23	54.32	-30.1	-30.7	27.2	0.00e+00	0	30	0	3509583872	34	5548
2026-01-04 19:27:33.86	228.95	53.97	-30.0	-30.6	27.4	0.00e+00	0	30	0	3516923904	34	5475
2026-01-04 19:27:34.87	228.67	53.63	-29.9	-30.5	27.3	0.00e+00	0	30	0	3524263936	34	5392
2026-01-04 19:27:35.88	228.41	53.29	-29.9	-30.5	27.4	0.00e+00	0	30	0	3531603968	34	5417
2026-01-04 19:27:36.89	228.15	52.95	-30.1	-30.7	27.3	0.00e+00	0	30	0	3538944000	34	5506
2026-01-04 19:27:37.90	227.89	52.61	-30.3	-30.9	26.5	0.00e+00	0	30	0	3546284032	34	5651
2026-01-04 19:27:38.91	227.64	52.27	-30.5	-31.1	26.9	0.00e+00	0	30	0	3553624064	34	5778
2026-01-04 19:27:39.92	227.40	51.94	-30.8	-31.4	27.0	0.00e+00	0	30	0	3560964096	34	5984
2026-01-04 19:27:40.93	227.16	51.60	-30.5	-31.1	26.9	0.00e+00	0	30	0	3568304128	34	5796
2026-01-04 19:27:41.94	226.93	51.27	-30.7	-31.3	26.8	0.00e+00	0	30	0	3575644160	34	5914
2026-01-04 19:27:42.95	226.70	50.94	-30.8	-31.4	26.6	0.00e+00	0	30	0	3582984192	34	6003
2026-01-04 19:27:43.95	226.48	50.62	-31.0	-31.6	26.7	0.00e+00	0	30	0	3590324224	34	6117
2026-01-04 19:27:44.96	226.26	50.29	-30.9	-31.5	26.6	0.00e+00	0	30	0	3597664256	34	6077
2026-01-04 19:27:45.97	226.05	49.97	-31.0	-31.6	26.7	0.00e+00	0	30	0	3603955712	34	6110
2026-01-04 19:27:46.98	225.84	49.65	-30.8	-31.4	26.6	0.00e+00	0	30	0	3611295744	34	5965
2026-01-04 19:27:47.99	225.64	49.33	-30.7	-31.2	26.3	0.00e+00	0	30	0	3618635776	34	5893
2026-01-04 19:27:49.00	225.44	49.01	-30.5	-31.1	26.9	0.00e+00	0	30	0	3625975808	34	5766
2026-01-04 19:27:50.01	225.24	48.69	-30.2	-30.8	27.1	0.00e+00	0	30	0	3633315840	34	5598
2026-01-04 19:27:51.02	225.05	48.38	-30.3	-30.8	27.1	0.00e+00	0	30	0	3640655872	34	5615
2026-01-04 19:27:52.03	224.86	48.07	-30.2	-30.8	27.1	0.00e+00	0	30	0	3647995904	34	5593
2026-01-04 19:27:53.04	224.68	47.76	-30.1	-30.7	27.2	0.00e+00	0	30	0	3655335936	34	5549
2026-01-04 19:27:54.05	224.50	47.45	-29.9	-30.4	27.0	0.00e+00	0	30	0	3662675968	34	5373
2026-01-04 19:27:55.06	224.32	47.14	-29.9	-30.5	27.5	0.00e+00	0	30	0	3670016000	34	5380
2026-01-04 19:27:56.07	224.15	46.84	-29.7	-30.3	27.3	0.00e+00	0	30	0	3677356032	32	5937
2026-01-04 19:27:57.08	223.98	46.53	-29.8	-30.4	27.5	0.00e+00	0	30	0	3684696064	32	5977
2026-01-04 19:27:58.09	223.81	46.23	-29.7	-30.3	27.6	0.00e+00	0	30	0	3692036096	32	5921
2026-01-04 19:27:59.10	223.65	45.93	-29.8	-30.4	25.8	0.00e+00	0	30	0	3699376128	32	5983
2026-01-04 19:28:00.11	223.49	45.64	-29.7	-30.3	27.4	0.00e+00	0	30	0	3706716160	32	5953
2026-01-04 19:28:01.11	223.33	45.34	-29.7	-30.3	27.4	0.00e+00	0	30	0	3714056192	32	5963
2026-01-04 19:28:02.12	223.18	45.05	-29.3	-29.9	27.8	0.00e+00	0	30	0	3721396224	32	5691
2026-01-04 19:28:03.13	223.02	44.76	-29.4	-30.0	27.8	0.00e+00	0	30	0	3727687680	32	5718
2026-01-04 19:28:04.14	222.88	44.47	-29.4	-30.0	27.7	0.00e+00	0	30	0	3736076288	32	5743
2026-01-04 19:28:05.15	222.73	44.18	-29.6	-30.1	27.5	0.00e+00	0	30	0	3743416320	32	5819
2026-01-04 19:28:06.17	222.59	43.89	-29.5	-30.1	27.6	0.00e+00	0	30	0	3749707776	32	5774
2026-01-04 19:28:07.18	222.45	43.61	-29.2	-29.8	27.9	0.00e+00	0	30	0	3757047808	32	5584
2026-01-04 19:28:08.18	222.31	43.33	-29.2	-29.8	27.6	0.00e+00	0	30	0	3764387840	32	5579
2026-01-04 19:28:09.19	222.17	43.05	-29.1	-29.7	27.0	0.00e+00	0	30	0	3771727872	32	5503
2026-01-04 19:28:10.21	222.04	42.77	-29.0	-29.6	27.6	0.00e+00	0	30	0	3779067904	32	5457
2026-01-04 19:28:11.21	221.91	42.49	-28.9	-29.5	27.9	0.00e+00	0	30	0	3786407936	32	5420
2026-01-04 19:28:12.22	221.78	42.22	-29.0	-29.6	27.9	0.00e+00	0	30	0	3793747968	32	5476
2026-01-04 19:28:13.23	221.65	41.95	-29.0	-29.6	27.6	0.00e+00	0	30	0	3801088000	32	5461
2026-01-04 19:28:14.25	221.53	41.67	-28.9	-29.5	27.5	0.00e+00	0	30	0	3808428032	32	5401
2026-01-04 19:28:15.25	221.41	41.41	-29.2	-29.7	27.5	0.00e+00	0	30	0	3815768064	32	5552
2026-01-04 19:28:16.26	221.29	41.14	-29.1	-29.7	27.7	0.00e+00	0	30	0	3823108096	32	5517
2026-01-04 19:28:17.27	221.17	40.88	-29.3	-29.9	27.5	0.00e+00	0	30	0	3830448128	32	5640
2026-01-04 19:28:18.29	221.05	40.61	-29.4	-29.9	27.5	0.00e+00	0	30	0	3837788160	32	5693
2026-01-04 19:28:19.30	220.94	40.35	-29.6	-30.1	26.9	0.00e+00	0	30	0	3845128192	32	5823
2026-01-04 19:28:20.31	220.83	40.09	-29.5	-30.1	27.0	0.00e+00	0	30	0	3852468224	32	5779
2026-01-04 19:28:21.32	220.71	39.83	-29.3	-29.8	27.3	0.00e+00	0	30	0	3859808256	32	5626
2026-01-04 19:28:22.33	220.61	39.57	-29.1	-29.7	27.6	0.00e+00	0	30	0	3867148288	32	5517
2026-01-04 19:28:23.34	220.50	39.32	-29.1	-29.7	27.6	0.00e+00	0	30	0	3874488320	32	5530
2026-01-04 19:28:24.35	220.39	39.07	-29.1	-29.6	28.1	0.00e+00	0	30	0	3881828352	32	5486
2026-01-04 19:28:25.36	220.29	38.81	-29.1	-29.6	27.8	0.00e+00	0	30	0	3889168384	32	5499
2026-01-04 19:28:26.37	220.19	38.56	-29.1	-29.7	28.0	0.00e+00	0	30	0	3896508416	32	5542
2026-01-04 19:28:27.38	220.09	38.32	-29.2	-29.8	28.0	0.00e+00	0	30	0	3902799872	32	5575
2026-01-04 19:28:28.39	219.99	38.07	-29.3	-29.9	27.7	0.00e+00	0	30	0	3910139904	32	5643
2026-01-04 19:28:29.40	219.89	37.83	-29.2	-29.8	27.9	0.00e+00	0	30	0	3918528512	32	5580
2026-01-04 19:28:30.40	219.80	37.59	-29.0	-29.6	27.8	0.00e+00	0	30	0	3924819968	32	5482
2026-01-04 19:28:31.41	219.70	37.34	-29.2	-29.7	28.0	0.00e+00	0	30	0	3932160000	32	5564
2026-01-04 19:28:32.42	219.61	37.11	-29.2	-29.8	27.9	0.00e+00	0	30	0	3939500032	32	5608
2026-01-04 19:28:33.43	219.52	36.87	-29.3	-29.9	27.9	0.00e+00	0	30	0	3946840064	32	5679
2026-01-04 19:28:34.44	219.43	36.63	-29.5	-30.1	27.8	0.00e+00	0	30	0	3954180096	32	5784
2026-01-04 19:28:35.45	219.34	36.40	-29.6	-30.1	27.7	0.00e+00	0	30	0	3961520128	32	5828
2026-01-04 19:28:36.46	219.25	36.16	-29.7	-30.3	27.7	0.00e+00	0	30	0	3968860160	32	5914
2026-01-04 19:28:37.47	219.17	35.93	-29.4	-30.0	27.8	0.00e+00	0	30	0	3976200192	32	5716
2026-01-04 19:28:38.48	219.08	35.70	-29.2	-29.8	28.0	0.00e+00	0	30	0	3983540224	32	5575
2026-01-04 19:28:39.49	219.00	35.47	-29.1	-29.6	28.1	0.00e+00	0	30	0	3990880256	32	5498
2026-01-04 19:28:40.50	218.91	35.25	-28.9	-29.4	28.1	0.00e+00	0	30	0	3998220288	32	5376
2026-01-04 19:28:41.51	218.83	35.02	-28.7	-29.3	28.0	0.00e+00	0	30	0	4005560320	32	5294
2026-01-04 19:28:42.52	218.75	34.80	-28.5	-29.1	28.5	0.00e+00	0	30	0	4012900352	30	5792
2026-01-04 19:28:43.53	218.67	34.58	-28.5	-29.0	28.5	0.00e+00	0	30	0	4020240384	30	5754
2026-01-04 19:28:44.54	218.60	34.36	-28.4	-29.0	28.5	0.00e+00	0	30	0	4026531840	30	5724
2026-01-04 19:28:45.55	218.52	34.14	-28.5	-29.0	28.5	0.00e+00	0	30	0	4034920448	30	5760
2026-01-04 19:28:46.56	218.44	33.92	-28.4	-29.0	28.4	0.00e+00	0	30	0	4042260480	30	5736
2026-01-04 19:28:47.57	218.37	33.70	-28.6	-29.1	28.4	0.00e+00	0	30	0	4048551936	30	5813
2026-01-04 19:28:48.58	218.29	33.49	-28.7	-29.2	28.4	0.00e+00	0	30	0	4055891968	30	5884
2026-01-04 19:28:49.59	218.22	33.27	-28.6	-29.2	28.4	0.00e+00	0	30	0	4063232000	30	5860
2026-01-04 19:28:50.60	218.15	33.06	-28.6	-29.2	26.3	0.00e+00	0	30	0	4070572032	30	5841
2026-01-04 19:28:51.61	218.08	32.85	-28.9	-29.5	28.1	0.00e+00	0	30	0	4077912064	30	6042
2026-01-04 19:28:52.61	218.01	32.65	-28.8	-29.4	28.2	0.00e+00	0	30	0	4085252096	30	5995
2026-01-04 19:28:53.62	217.94	32.44	-28.9	-29.5	28.2	0.00e+00	0	30	0	4092592128	30	6045
2026-01-04 19:28:54.63	217.87	32.23	-28.9	-29.4	28.1	0.00e+00	0	30	0	4099932160	30	6030
2026-01-04 19:28:55.64	217.81	32.03	-29.1	-29.6	28.0	0.00e+00	0	30	0	4107272192	30	6157
2026-01-04 19:28:56.65	217.74	31.82	-29.2	-29.7	27.8	0.00e+00	0	30	0	4114612224	30	6223
2026-01-04 19:28:57.67	217.67	31.62	-29.0	-29.6	28.1	0.00e+00	0	30	0	4121952256	30	6136
2026-01-04 19:28:58.68	217.61	31.42	-28.9	-29.4	28.3	0.00e+00	0	30	0	4129292288	30	6023
2026-01-04 19:28:59.69	217.54	31.22	-29.0	-29.6	27.9	0.00e+00	0	30	0	4136632320	30	6105
2026-01-04 19:29:00.70	217.48	31.02	-28.9	-29.5	28.3	0.00e+00	0	30	0	4143972352	30	6048
2026-01-04 19:29:01.70	217.42	30.83	-28.8	-29.4	28.2	0.00e+00	0	30	0	4151312384	30	5995
2026-01-04 19:29:02.71	217.36	30.63	-29.0	-29.5	28.2	0.00e+00	0	30	0	4158652416	30	6087
2026-01-04 19:29:03.72	217.30	30.44	-28.8	-29.4	28.2	0.00e+00	0	30	0	4165992448	30	5999
2026-01-04 19:29:04.73	217.24	30.24	-28.8	-29.4	28.2	0.00e+00	0	30	0	4173332480	30	6010
2026-01-04 19:29:05.74	217.18	30.05	-28.9	-29.5	28.3	0.00e+00	0	30	0	4179623936	30	6047
2026-01-04 19:29:06.75	217.12	29.86	-28.9	-29.5	28.1	0.00e+00	0	30	0	4188012544	30	6036
2026-01-04 19:29:07.76	217.06	29.67	-29.0	-29.6	28.1	0.00e+00	0	30	0	4195352576	30	6125
2026-01-04 19:29:08.77	217.01	29.48	-29.0	-29.6	28.1	0.00e+00	0	30	0	4201644032	30	6151
2026-01-04 19:29:09.78	216.95	29.30	-29.3	-29.8	28.0	0.00e+00	0	30	0	4208984064	30	6314
2026-01-04 19:29:10.79	216.90	29.11	-29.5	-30.1	27.9	0.00e+00	0	30	0	4216324096	30	6493
2026-01-04 19:29:11.79	216.84	28.93	-29.3	-29.8	27.9	0.00e+00	0	30	0	4223664128	30	6312
2026-01-04 19:29:12.80	216.79	28.74	-29.3	-29.8	27.8	0.00e+00	0	30	0	4231004160	30	6295
2026-01-04 19:29:13.81	216.73	28.56	-29.5	-30.1	27.8	0.00e+00	0	30	0	4238344192	30	6469
2026-01-04 19:29:14.82	216.68	28.38	-29.4	-30.0	27.8	0.00e+00	0	30	0	4245684224	30	6407
2026-01-04 19:29:15.83	216.63	28.20	-29.4	-29.9	27.9	0.00e+00	0	30	0	4253024256	30	6384
2026-01-04 19:29:16.84	216.58	28.02	-29.4	-30.0	27.9	0.00e+00	0	30	0	4260364288	30	6404
2026-01-04 19:29:17.85	216.53	27.84	-29.3	-29.9	28.0	0.00e+00	0	30	0	4267704320	30	6340
2026-01-04 19:29:18.86	216.48	27.67	-29.2	-29.8	28.0	0.00e+00	0	30	0	4275044352	30	6295
2026-01-04 19:29:19.87	216.43	27.49	-29.3	-29.9	28.0	0.00e+00	0	30	0	4282384384	30	6325
2026-01-04 19:29:20.88	216.38	27.32	-29.4	-29.9	27.8	0.00e+00	0	30	0	4289724416	30	6377
2026-01-04 19:29:21.89	216.33	27.14	-29.2	-29.8	27.8	0.00e+00	0	30	0	4297064448	30	6264
2026-01-04 19:29:22.91	216.28	26.97	-29.4	-30.0	27.7	0.00e+00	0	30	0	4304404480	30	6437
2026-01-04 19:29:23.92	216.23	26.80	-29.5	-30.0	27.7	0.00e+00	0	30	0	4311744512	30	6453
2026-01-04 19:29:24.93	216.18	26.63	-29.6	-30.1	27.7	0.00e+00	0	30	0	4319084544	30	6523
2026-01-04 19:29:25.94	216.14	26.46	-29.4	-30.0	27.8	0.00e+00	0	30	0	4325376000	30	6411
2026-01-04 19:29:26.95	216.09	26.29	-29.4	-30.0	27.7	0.00e+00	0	30	0	4333764608	30	6439
2026-01-04 19:29:27.96	216.05	26.12	-29.3	-29.9	27.9	0.00e+00	0	30	0	4341104640	30	6361
2026-01-04 19:29:28.97	216.00	25.96	-29.5	-30.1	27.8	0.00e+00	0	30	0	4347396096	30	6500
2026-01-04 19:29:29.98	215.96	25.79	-29.7	-30.3	27.5	0.00e+00	0	30	0	4354736128	30	6631
2026-01-04 19:29:30.99	215.91	25.63	-29.6	-30.2	27.6	0.00e+00	0	30	0	4362076160	32	5857
2026-01-04 19:29:32.00	215.87	25.47	-29.6	-30.1	27.5	0.00e+00	0	30	0	4369416192	32	5805
2026-01-04 19:29:33.01	215.83	25.30	-29.6	-30.2	27.7	0.00e+00	0	30	0	4376756224	32	5876
2026-01-04 19:29:34.01	215.78	25.14	-29.6	-30.2	27.6	0.00e+00	0	30	0	4384096256	32	5879
2026-01-04 19:29:35.03	215.74	24.98	-29.7	-30.3	27.6	0.00e+00	0	30	0	4391436288	32	5943
2026-01-04 19:29:36.04	215.70	24.82	-29.7	-30.2	27.4	0.00e+00	0	30	0	4398776320	32	5893
2026-01-04 19:29:37.05	215.66	24.67	-29.8	-30.4	27.5	0.00e+00	0	30	0	4406116352	32	5984
2026-01-04 19:29:38.06	215.62	24.51	-29.8	-30.3	27.5	0.00e+00	0	30	0	4413456384	32	5959
2026-01-04 19:29:39.07	215.58	24.35	-29.8	-30.4	27.3	0.00e+00	0	30	0	4420796416	32	6005
2026-01-04 19:29:40.08	215.54	24.20	-29.6	-30.2	27.6	0.00e+00	0	30	0	4428136448	32	5846
2026-01-04 19:29:41.08	215.50	24.04	-29.6	-30.2	27.5	0.00e+00	0	30	0	4435476480	32	5846
2026-01-04 19:29:42.09	215.46	23.89	-29.6	-30.2	27.6	0.00e+00	0	30	0	4442816512	32	5849
2026-01-04 19:29:43.10	215.42	23.74	-29.5	-30.1	27.6	0.00e+00	0	30	0	4450156544	32	5782
2026-01-04 19:29:44.11	215.38	23.58	-29.5	-30.0	27.7	0.00e+00	0	30	0	4457496576	32	5755
2026-01-04 19:29:45.12	215.35	23.43	-29.6	-30.1	27.6	0.00e+00	0	30	0	4464836608	32	5822
2026-01-04 19:29:46.13	215.31	23.28	-29.6	-30.2	27.5	0.00e+00	0	30	0	4472176640	32	5849
2026-01-04 19:29:47.14	215.27	23.13	-29.5	-30.1	27.6	0.00e+00	0	30	0	4478468096	32	5788
2026-01-04 19:29:48.15	215.23	22.98	-29.4	-30.0	27.7	0.00e+00	0	30	0	4486856704	32	5707
2026-01-04 19:29:49.16	215.20	22.84	-29.3	-29.9	27.8	0.00e+00	0	30	0	4494196736	32	5650
2026-01-04 19:29:50.17	215.16	22.69	-29.4	-30.0	27.7	0.00e+00	0	30	0	4500488192	32	5732
2026-01-04 19:29:51.18	215.13	22.54	-29.3	-29.9	27.7	0.00e+00	0	30	0	4507828224	32	5654
2026-01-04 19:29:52.19	215.09	22.40	-29.2	-29.8	27.7	0.00e+00	0	30	0	4515168256	32	5600
2026-01-04 19:29:53.20	215.06	22.25	-29.3	-29.9	27.5	0.00e+00	0	30	0	4522508288	32	5660
2026-01-04 19:29:54.21	215.02	22.11	-29.3	-29.8	27.6	0.00e+00	0	30	0	4529848320	32	5609
2026-01-04 19:29:55.21	214.99	21.97	-29.3	-29.9	27.7	0.00e+00	0	30	0	4537188352	32	5653
2026-01-04 19:29:56.22	214.95	21.83	-29.4	-30.0	27.6	0.00e+00	0	30	0	4544528384	32	5734
2026-01-04 19:29:57.23	214.92	21.69	-29.5	-30.1	27.6	0.00e+00	0	30	0	4551868416	32	5784
2026-01-04 19:29:58.24	214.89	21.55	-29.8	-30.3	27.5	0.00e+00	0	30	0	4559208448	32	5935
2026-01-04 19:29:59.25	214.86	21.41	-29.5	-30.1	27.7	0.00e+00	0	30	0	4566548480	32	5779
2026-01-04 19:30:00.26	214.82	21.27	-29.4	-30.0	27.6	0.00e+00	0	30	0	4573888512	32	5732
2026-01-04 19:30:01.27	214.79	21.13	-29.5	-30.1	27.6	0.00e+00	0	30	0	4581228544	32	5780
2026-01-04 19:30:02.28	214.76	20.99	-29.6	-30.1	27.5	0.00e+00	0	30	0	4588568576	32	5826
2026-01-04 19:30:03.29	214.73	20.85	-29.6	-30.2	27.6	0.00e+00	0	30	0	4595908608	32	5846
2026-01-04 19:30:04.30	214.70	20.72	-29.6	-30.2	27.5	0.00e+00	0	30	0	4603248640	32	5837
2026-01-04 19:30:05.31	214.67	20.58	-29.5	-30.1	27.7	0.00e+00	0	30	0	4610588672	32	5774
2026-01-04 19:30:06.32	214.63	20.45	-29.7	-30.2	27.5	0.00e+00	0	30	0	4617928704	32	5878
2026-01-04 19:30:07.33	214.60	20.32	-29.7	-30.3	27.4	0.00e+00	0	30	0	4624220160	32	5905
2026-01-04 19:30:08.34	214.57	20.18	-29.7	-30.3	27.4	0.00e+00	0	30	0	4631560192	32	5945
2026-01-04 19:30:09.35	214.54	20.05	-29.8	-30.4	27.3	0.00e+00	0	30	0	4639948800	32	5970
2026-01-04 19:30:10.36	214.52	19.92	-29.7	-30.2	27.4	0.00e+00	0	30	0	4646240256	32	5896
2026-01-04 19:30:11.37	214.49	19.79	-29.7	-30.3	27.5	0.00e+00	0	30	0	4653580288	32	5908
