passes_logs/2026/01/04/R4.6S_Anadyr/R4.6S_Anadyr__20260104_163840_AQUA_rec.log

#Pass ID: 20260104_163840_AQUA
#Satellite: AQUA
#Configuration: AQUA
#almurnet v.1.7.20251203
#Start time: 2026-01-04 16:38:41

#Version: 2.2.20231116
#Station: R4.6S_Anadyr
#Location: 177.4865 lon 64.73178 lat
#TLE: 1 27424U 02022A   25365.92641127  .00002078  00000+0  42628-3 0  9999
#TLE: 2 27424  98.4058 327.1196 0001962  94.7781 340.6230 14.61783896258835

#Time	Az	El	Level	Level2	SNR	BER	BlckErr	Temp	State	Recorded	gain1	gain2
2026-01-04 16:38:41.89	20.10	0.10	-49.3	-60.9	3.5	8.46e-01	0	35	0	0	60	40204
2026-01-04 16:38:42.89	20.09	0.16	-51.4	-69.2	3.5	3.04e+01	0	37	104	0	60	111277
2026-01-04 16:38:43.90	20.09	0.22	-50.4	-68.3	3.5	3.04e+01	0	37	104	0	60	99990
2026-01-04 16:38:44.91	20.08	0.28	-50.5	-68.3	3.5	3.04e+01	0	37	104	0	60	100642
2026-01-04 16:38:45.93	20.08	0.35	-51.0	-69.0	3.5	3.04e+01	0	37	104	0	60	107857
2026-01-04 16:38:46.94	20.07	0.41	-49.8	-67.7	3.5	3.04e+01	0	37	104	0	60	93267
2026-01-04 16:38:47.95	20.07	0.47	-49.6	-67.4	3.5	3.04e+01	0	37	104	0	60	90686
2026-01-04 16:38:48.96	20.06	0.54	-49.7	-67.6	3.5	3.04e+01	0	37	104	0	60	92749
2026-01-04 16:38:49.97	20.06	0.60	-49.8	-67.7	3.5	3.04e+01	0	37	104	0	60	93271
2026-01-04 16:38:50.98	20.05	0.66	-49.5	-67.3	3.5	3.04e+01	0	37	104	0	60	89212
2026-01-04 16:38:51.99	20.04	0.73	-49.3	-67.1	3.5	3.04e+01	0	37	104	0	60	87648
2026-01-04 16:38:52.99	20.04	0.79	-49.1	-67.0	3.5	3.04e+01	0	37	104	0	60	85983
2026-01-04 16:38:54.00	20.03	0.85	-48.8	-66.8	3.5	3.04e+01	0	37	104	0	60	84219
2026-01-04 16:38:55.01	20.03	0.92	-48.7	-66.6	3.5	3.04e+01	0	37	104	0	60	82556
2026-01-04 16:38:56.02	20.02	0.98	-48.5	-66.4	3.5	3.04e+01	0	37	104	0	60	80073
2026-01-04 16:38:57.03	20.02	1.04	-48.3	-66.1	3.5	3.04e+01	0	37	104	0	60	77639
2026-01-04 16:38:58.04	20.01	1.11	-48.0	-65.8	3.5	3.04e+01	0	37	104	0	60	75052
2026-01-04 16:38:59.05	20.00	1.17	-48.1	-65.9	3.5	3.04e+01	0	37	104	0	60	75769
2026-01-04 16:39:00.06	20.00	1.24	-48.1	-65.9	3.5	3.04e+01	0	37	104	0	60	75640
2026-01-04 16:39:01.07	19.99	1.30	-48.0	-65.8	3.5	3.04e+01	0	37	104	0	60	75149
2026-01-04 16:39:02.08	19.99	1.37	-48.0	-65.9	3.5	3.04e+01	0	37	104	0	60	75624
2026-01-04 16:39:03.09	19.98	1.43	-48.0	-65.9	3.5	3.04e+01	0	37	104	0	60	75581
2026-01-04 16:39:04.10	19.97	1.50	-48.0	-65.9	3.5	3.04e+01	0	37	104	0	60	76051
2026-01-04 16:39:05.11	19.97	1.56	-48.0	-65.6	3.5	3.04e+01	0	37	104	0	60	73643
2026-01-04 16:39:06.12	19.96	1.63	-48.1	-65.3	3.5	3.04e+01	0	37	104	0	60	71149
2026-01-04 16:39:07.13	19.96	1.70	-48.0	-64.4	3.6	3.04e+01	0	37	104	0	60	63731
2026-01-04 16:39:08.14	19.95	1.76	-48.0	-64.4	3.5	3.04e+01	0	37	104	0	60	64109
2026-01-04 16:39:09.14	19.94	1.83	-48.0	-64.1	3.5	3.04e+01	0	37	104	0	60	61826
2026-01-04 16:39:10.15	19.94	1.89	-48.0	-64.0	3.6	3.04e+01	0	37	104	0	60	61346
2026-01-04 16:39:11.16	19.93	1.96	-48.0	-64.0	3.5	3.04e+01	0	37	104	0	60	61095
2026-01-04 16:39:12.17	19.92	2.03	-48.1	-65.0	3.5	3.04e+01	0	37	104	0	60	68384
2026-01-04 16:39:13.18	19.92	2.09	-48.0	-64.8	3.5	3.04e+01	0	37	104	0	60	67169
2026-01-04 16:39:14.20	19.91	2.16	-48.0	-65.4	3.5	3.04e+01	0	37	104	0	60	71955
2026-01-04 16:39:15.21	19.90	2.23	-48.1	-65.8	3.5	3.04e+01	0	37	104	0	60	75114
2026-01-04 16:39:16.22	19.90	2.30	-48.1	-65.8	3.5	3.04e+01	0	37	104	0	60	74913
2026-01-04 16:39:17.22	19.89	2.36	-48.0	-65.6	3.5	3.04e+01	0	37	104	0	60	73302
2026-01-04 16:39:18.24	19.88	2.43	-48.0	-65.3	3.5	3.04e+01	0	37	104	0	60	71157
2026-01-04 16:39:19.25	19.88	2.50	-48.0	-65.1	3.5	3.04e+01	0	37	104	0	60	69506
2026-01-04 16:39:20.26	19.87	2.57	-48.0	-64.1	3.5	3.04e+01	0	37	104	0	60	61587
2026-01-04 16:39:21.27	19.86	2.63	-48.0	-63.1	3.9	3.04e+01	0	37	104	0	60	54929
2026-01-04 16:39:22.28	19.85	2.70	-47.9	-61.7	3.7	3.04e+01	0	37	104	0	60	46984
2026-01-04 16:39:23.28	19.85	2.77	-47.8	-60.2	5.3	3.04e+01	0	37	104	0	60	39457
2026-01-04 16:39:24.29	19.84	2.84	-47.7	-59.9	3.9	3.04e+01	0	37	104	0	60	38123
2026-01-04 16:39:25.30	19.83	2.91	-47.8	-59.5	5.4	3.04e+01	23	37	0	0	60	36485
2026-01-04 16:39:26.31	19.82	2.98	-47.8	-60.7	4.8	3.04e+01	0	37	104	524288	60	41772
2026-01-04 16:39:27.32	19.82	3.05	-47.8	-60.7	5.0	3.04e+01	0	37	104	524288	60	41593
2026-01-04 16:39:28.33	19.81	3.12	-47.7	-59.0	7.1	3.04e+01	90	37	104	524288	60	34290
2026-01-04 16:39:29.34	19.80	3.19	-47.5	-57.0	7.2	3.04e+01	89	38	0	1572864	60	27205
2026-01-04 16:39:30.34	19.79	3.26	-46.7	-52.9	10.8	3.04e+01	61	37	0	3670016	60	16909
2026-01-04 16:39:31.35	19.79	3.33	-45.9	-50.8	14.4	3.04e+01	62	37	0	5242880	60	13391
2026-01-04 16:39:32.36	19.78	3.40	-44.7	-48.2	17.5	3.04e+01	62	37	0	7340032	60	9854
2026-01-04 16:39:33.37	19.77	3.47	-43.3	-46.0	19.7	3.04e+01	54	37	0	9437184	60	7657
2026-01-04 16:39:34.38	19.76	3.54	-42.5	-44.9	19.7	3.04e+01	59	37	0	11010048	60	6753
2026-01-04 16:39:35.39	19.76	3.61	-42.2	-44.5	20.9	3.04e+01	59	37	0	13107200	60	6440
2026-01-04 16:39:36.40	19.75	3.68	-41.4	-43.4	21.8	3.04e+01	60	37	0	14680064	58	6421
2026-01-04 16:39:37.41	19.74	3.75	-41.2	-43.2	22.1	3.04e+01	45	37	0	16777216	58	6244
2026-01-04 16:39:38.42	19.73	3.82	-41.7	-43.8	21.5	3.04e+01	60	37	0	18874368	56	7532
2026-01-04 16:39:39.43	19.72	3.89	-41.9	-44.1	20.9	3.04e+01	60	37	0	20447232	58	6887
2026-01-04 16:39:40.44	19.71	3.97	-39.7	-41.3	23.9	3.04e+01	60	37	0	22544384	58	5038
2026-01-04 16:39:41.45	19.71	4.04	-40.1	-41.8	23.2	3.04e+01	60	37	0	24117248	54	6710
2026-01-04 16:39:42.46	19.70	4.11	-41.1	-42.9	22.7	3.04e+01	59	37	0	26214400	56	6797
2026-01-04 16:39:43.47	19.69	4.18	-47.1	-55.7	11.0	3.04e+01	57	37	104	26738688	60	23391
2026-01-04 16:39:44.47	19.68	4.26	-43.2	-45.9	18.3	3.04e+01	60	37	0	27787264	56	9587
2026-01-04 16:39:45.48	19.67	4.33	-48.1	-63.9	4.5	3.04e+01	0	38	104	27787264	60	59980
2026-01-04 16:39:46.49	19.66	4.40	-41.1	-42.9	22.5	3.04e+01	63	37	0	28835840	60	5403
2026-01-04 16:39:47.50	19.65	4.48	-41.8	-43.9	21.5	3.04e+01	49	38	0	30932992	58	6771
2026-01-04 16:39:48.51	19.65	4.55	-42.3	-44.6	21.3	3.04e+01	60	37	0	32505856	58	7296
2026-01-04 16:39:49.52	19.64	4.62	-41.6	-43.6	21.6	3.04e+01	59	37	0	34603008	58	6568
2026-01-04 16:39:50.53	19.63	4.70	-42.1	-44.3	21.3	3.04e+01	47	37	0	36700160	58	7077
2026-01-04 16:39:51.54	19.62	4.77	-42.5	-44.9	21.7	3.04e+01	60	37	0	38273024	58	7570
2026-01-04 16:39:52.55	19.61	4.85	-43.1	-45.6	21.1	3.04e+01	60	38	0	40370176	60	7368
2026-01-04 16:39:53.56	19.60	4.92	-40.5	-42.3	22.7	3.04e+01	57	37	0	41943040	58	5606
2026-01-04 16:39:54.56	19.59	5.00	-41.0	-42.8	22.5	3.04e+01	61	37	0	44040192	56	6716
2026-01-04 16:39:55.58	19.58	5.07	-39.1	-40.6	24.5	3.04e+01	47	37	0	46137344	54	5838
2026-01-04 16:39:56.58	19.57	5.15	-39.0	-40.5	24.7	3.04e+01	59	37	0	47710208	52	6448
2026-01-04 16:39:57.59	19.56	5.22	-39.8	-41.5	24.1	3.04e+01	57	38	0	49807360	54	6427
2026-01-04 16:39:58.60	19.55	5.30	-39.2	-40.8	24.4	3.04e+01	54	37	0	51904512	50	7465
2026-01-04 16:39:59.61	19.54	5.37	-39.2	-40.7	24.9	3.04e+01	57	38	0	53477376	52	6623
2026-01-04 16:40:00.62	19.53	5.45	-38.7	-40.2	25.5	3.04e+01	56	38	0	55574528	52	6250
2026-01-04 16:40:01.63	19.52	5.53	-38.4	-39.8	25.7	3.04e+01	58	37	0	57147392	52	5979
2026-01-04 16:40:02.63	19.51	5.60	-38.8	-40.3	25.3	3.04e+01	56	38	0	59244544	52	6329
2026-01-04 16:40:03.64	19.50	5.68	-38.3	-39.7	25.9	3.04e+01	51	37	0	60817408	52	5905
2026-01-04 16:40:04.65	19.49	5.76	-38.2	-39.6	26.6	3.04e+01	58	37	0	62914560	50	6562
2026-01-04 16:40:05.66	19.48	5.84	-38.3	-39.8	25.8	3.04e+01	61	37	0	65011712	50	6669
2026-01-04 16:40:06.67	19.47	5.92	-38.0	-39.4	26.4	3.04e+01	44	37	0	66584576	50	6386
2026-01-04 16:40:07.68	19.46	5.99	-37.5	-38.9	26.5	3.04e+01	58	37	0	68681728	50	6024
2026-01-04 16:40:08.69	19.45	6.07	-38.1	-39.6	25.7	3.04e+01	56	37	0	70778880	50	6516
2026-01-04 16:40:09.70	19.44	6.15	-37.9	-39.3	26.1	3.04e+01	56	37	0	72351744	50	6292
2026-01-04 16:40:10.71	19.43	6.23	-38.1	-39.6	25.7	3.04e+01	60	37	0	74448896	50	6530
2026-01-04 16:40:11.72	19.42	6.31	-37.8	-39.2	27.0	3.04e+01	52	38	0	76021760	50	6256
2026-01-04 16:40:12.73	19.41	6.39	-37.4	-38.8	26.5	3.04e+01	57	37	0	78118912	50	5950
2026-01-04 16:40:13.74	19.40	6.47	-37.4	-38.8	26.8	3.04e+01	60	38	0	80216064	50	5935
2026-01-04 16:40:14.75	19.39	6.55	-37.3	-38.7	26.9	3.04e+01	44	37	0	81788928	48	6582
2026-01-04 16:40:15.76	19.38	6.63	-37.2	-38.6	27.0	3.04e+01	57	37	0	83886080	48	6526
2026-01-04 16:40:16.76	19.37	6.71	-36.9	-38.2	27.3	3.04e+01	61	38	0	85458944	48	6229
2026-01-04 16:40:17.77	19.36	6.79	-37.1	-38.4	27.2	3.04e+01	57	37	0	87556096	48	6388
2026-01-04 16:40:18.78	19.34	6.87	-37.1	-38.5	27.1	3.04e+01	59	37	0	89653248	48	6454
2026-01-04 16:40:19.79	19.33	6.95	-37.1	-38.5	27.1	3.04e+01	54	37	0	91226112	48	6433
2026-01-04 16:40:20.79	19.32	7.03	-37.1	-38.4	26.9	3.04e+01	55	38	0	93323264	48	6416
2026-01-04 16:40:21.80	19.31	7.12	-36.9	-38.3	27.3	3.04e+01	60	37	0	95420416	48	6286
2026-01-04 16:40:22.81	19.30	7.20	-37.3	-38.7	27.1	3.04e+01	50	37	0	96993280	48	6583
2026-01-04 16:40:23.82	19.29	7.28	-37.4	-38.8	26.8	3.04e+01	61	37	0	99090432	48	6677
2026-01-04 16:40:24.83	19.27	7.36	-37.1	-38.4	27.1	3.04e+01	46	38	0	100663296	48	6378
2026-01-04 16:40:25.84	19.26	7.45	-36.7	-38.0	27.5	3.04e+01	60	37	0	102760448	48	6118
2026-01-04 16:40:26.85	19.25	7.53	-36.7	-38.0	27.6	3.04e+01	62	38	0	104333312	48	6084
2026-01-04 16:40:27.86	19.24	7.62	-36.6	-37.9	27.6	3.04e+01	47	37	0	106430464	48	6049
2026-01-04 16:40:28.87	19.23	7.70	-36.9	-38.2	27.4	3.04e+01	57	38	0	108527616	48	6227
2026-01-04 16:40:29.87	19.21	7.78	-36.7	-38.1	27.5	3.04e+01	61	38	0	110100480	48	6141
2026-01-04 16:40:30.89	19.20	7.87	-36.6	-37.9	27.6	3.04e+01	58	38	0	112197632	48	6046
2026-01-04 16:40:31.90	19.19	7.95	-36.5	-37.8	27.6	3.04e+01	60	38	0	113770496	48	5990
2026-01-04 16:40:32.90	19.17	8.04	-36.6	-37.9	27.7	3.04e+01	47	38	0	115867648	48	6014
2026-01-04 16:40:33.91	19.16	8.13	-36.9	-38.2	27.4	3.04e+01	58	38	0	117964800	48	6224
2026-01-04 16:40:34.92	19.15	8.21	-36.4	-37.7	28.0	3.04e+01	59	38	0	119537664	48	5897
2026-01-04 16:40:35.93	19.14	8.30	-36.7	-38.0	27.9	3.04e+01	45	38	0	121634816	48	6086
2026-01-04 16:40:36.94	19.12	8.38	-36.6	-37.9	27.9	3.04e+01	56	38	0	123731968	48	6014
2026-01-04 16:40:37.95	19.11	8.47	-36.8	-38.1	27.4	3.04e+01	50	38	0	125304832	48	6195
2026-01-04 16:40:38.96	19.10	8.56	-36.5	-37.8	27.9	3.04e+01	59	38	0	127401984	48	5944
2026-01-04 16:40:39.97	19.08	8.65	-37.1	-38.4	27.4	3.04e+01	56	38	0	128974848	48	6398
2026-01-04 16:40:40.98	19.07	8.74	-36.7	-38.0	27.8	3.04e+01	55	38	0	131072000	48	6109
2026-01-04 16:40:41.99	19.05	8.82	-37.0	-38.4	27.3	3.04e+01	60	38	0	133169152	48	6354
2026-01-04 16:40:43.00	19.04	8.91	-37.0	-38.3	27.5	3.04e+01	58	38	0	134742016	48	6338
2026-01-04 16:40:44.01	19.03	9.00	-36.7	-38.0	27.6	3.04e+01	52	38	0	136839168	48	6094
2026-01-04 16:40:45.02	19.01	9.09	-36.6	-37.9	27.9	3.04e+01	60	38	0	138936320	48	6037
2026-01-04 16:40:46.03	19.00	9.18	-36.6	-37.9	27.6	3.04e+01	59	38	0	140509184	48	6044
2026-01-04 16:40:47.04	18.98	9.27	-36.7	-38.0	27.7	3.04e+01	58	38	0	142606336	48	6075
2026-01-04 16:40:48.05	18.97	9.36	-37.0	-38.3	27.6	3.04e+01	59	38	0	144179200	48	6327
2026-01-04 16:40:49.06	18.95	9.45	-37.4	-38.7	26.7	3.04e+01	48	38	0	146276352	48	6612
2026-01-04 16:40:50.07	18.94	9.55	-37.0	-38.3	27.6	3.04e+01	60	38	0	148373504	48	6339
2026-01-04 16:40:51.07	18.93	9.64	-37.2	-38.5	27.5	3.04e+01	58	38	0	149946368	48	6450
2026-01-04 16:40:52.08	18.91	9.73	-36.7	-37.9	27.8	3.04e+01	48	38	0	152043520	48	6057
2026-01-04 16:40:53.09	18.90	9.82	-36.8	-38.1	27.7	3.04e+01	59	37	0	153616384	48	6164
2026-01-04 16:40:54.10	18.88	9.91	-36.5	-37.8	28.0	3.04e+01	53	37	0	155713536	48	5964
2026-01-04 16:40:55.11	18.86	10.01	-36.3	-37.5	28.3	3.04e+01	58	38	0	157810688	48	5791
2026-01-04 16:40:56.12	18.85	10.10	-35.8	-37.1	28.7	3.04e+01	61	38	0	159383552	46	6140
2026-01-04 16:40:57.13	18.83	10.19	-36.0	-37.2	28.6	3.04e+01	50	38	0	161480704	46	6262
2026-01-04 16:40:58.14	18.82	10.29	-36.0	-37.3	28.3	3.04e+01	60	38	0	163053568	46	6278
2026-01-04 16:40:59.15	18.80	10.38	-35.9	-37.1	28.6	3.04e+01	59	38	0	165150720	46	6192
2026-01-04 16:41:00.16	18.78	10.48	-35.9	-37.2	28.6	3.04e+01	59	38	0	167247872	46	6216
2026-01-04 16:41:01.16	18.77	10.57	-35.8	-37.1	28.8	3.04e+01	58	38	0	168820736	46	6136
2026-01-04 16:41:02.17	18.75	10.67	-35.8	-37.1	28.7	3.04e+01	55	38	0	170917888	46	6147
2026-01-04 16:41:03.18	18.74	10.77	-35.9	-37.1	28.6	3.04e+01	59	38	0	172490752	46	6199
2026-01-04 16:41:04.19	18.72	10.86	-36.1	-37.4	28.4	3.04e+01	58	38	0	174587904	46	6367
2026-01-04 16:41:05.20	18.70	10.96	-36.0	-37.3	28.6	3.04e+01	46	38	0	176685056	46	6299
2026-01-04 16:41:06.21	18.69	11.06	-35.9	-37.1	28.8	3.04e+01	60	38	0	178257920	46	6200
2026-01-04 16:41:07.22	18.67	11.16	-35.7	-37.0	28.8	3.04e+01	56	38	0	180355072	46	6065
2026-01-04 16:41:08.23	18.65	11.26	-35.8	-37.1	28.7	3.04e+01	57	38	0	181927936	46	6141
2026-01-04 16:41:09.24	18.63	11.36	-35.8	-37.1	28.7	3.04e+01	61	38	0	184025088	46	6152
2026-01-04 16:41:10.25	18.62	11.45	-35.8	-37.0	28.8	3.04e+01	46	38	0	186122240	46	6127
2026-01-04 16:41:11.26	18.60	11.55	-35.9	-37.2	28.7	3.04e+01	56	38	0	187695104	46	6217
2026-01-04 16:41:12.27	18.58	11.66	-35.5	-36.7	29.0	3.04e+01	60	38	0	189792256	46	5918
2026-01-04 16:41:13.28	18.56	11.76	-35.6	-36.9	29.0	3.04e+01	44	38	0	191889408	46	6008
2026-01-04 16:41:14.28	18.54	11.86	-35.6	-36.8	29.0	3.04e+01	57	38	0	193462272	46	5953
2026-01-04 16:41:15.29	18.53	11.96	-35.5	-36.8	29.0	3.04e+01	60	38	0	195559424	46	5931
2026-01-04 16:41:16.30	18.51	12.06	-35.5	-36.7	29.1	3.04e+01	56	38	0	197132288	46	5911
2026-01-04 16:41:17.31	18.49	12.16	-35.5	-36.8	29.0	3.04e+01	58	38	0	199229440	46	5937
2026-01-04 16:41:18.32	18.47	12.27	-35.7	-36.9	28.9	3.04e+01	61	38	0	201326592	46	6062
2026-01-04 16:41:19.33	18.45	12.37	-35.8	-37.0	28.8	3.04e+01	58	38	0	202899456	46	6101
2026-01-04 16:41:20.34	18.43	12.47	-35.6	-36.8	29.0	3.04e+01	59	38	0	204996608	46	5971
2026-01-04 16:41:21.35	18.41	12.58	-35.6	-36.8	29.0	3.04e+01	45	38	0	207093760	46	5981
2026-01-04 16:41:22.36	18.39	12.68	-35.6	-36.8	29.2	3.04e+01	58	38	0	208666624	46	5978
2026-01-04 16:41:23.37	18.37	12.79	-35.2	-36.5	29.2	3.04e+01	60	38	0	210763776	46	5730
2026-01-04 16:41:24.38	18.35	12.90	-35.5	-36.7	29.2	3.04e+01	58	38	0	212336640	46	5893
2026-01-04 16:41:25.39	18.33	13.00	-35.4	-36.6	29.1	3.04e+01	60	38	0	214433792	46	5840
2026-01-04 16:41:26.40	18.31	13.11	-35.5	-36.8	29.0	3.04e+01	46	38	0	216006656	46	5927
2026-01-04 16:41:27.41	18.29	13.22	-35.6	-36.8	29.1	3.04e+01	58	38	0	218103808	46	5965
2026-01-04 16:41:28.41	18.27	13.33	-35.2	-36.4	29.4	3.04e+01	60	38	0	220200960	46	5720
2026-01-04 16:41:29.43	18.25	13.44	-35.2	-36.4	29.4	3.04e+01	45	38	0	221773824	46	5676
2026-01-04 16:41:30.43	18.23	13.54	-35.3	-36.5	29.4	3.04e+01	61	38	0	223870976	46	5746
2026-01-04 16:41:31.44	18.21	13.65	-35.3	-36.5	29.4	3.04e+01	58	38	0	225443840	46	5759
2026-01-04 16:41:32.45	18.18	13.76	-35.3	-36.5	29.2	3.04e+01	61	38	0	227540992	46	5769
2026-01-04 16:41:33.46	18.16	13.88	-35.2	-36.4	29.4	3.04e+01	59	38	0	229638144	46	5660
2026-01-04 16:41:34.47	18.14	13.99	-35.1	-36.3	29.4	3.04e+01	57	38	0	231211008	46	5650
2026-01-04 16:41:35.48	18.12	14.10	-35.2	-36.4	29.4	3.04e+01	59	38	0	233308160	46	5671
2026-01-04 16:41:36.49	18.09	14.21	-35.0	-36.2	29.5	3.04e+01	59	38	0	235405312	44	6269
2026-01-04 16:41:37.50	18.07	14.33	-34.8	-36.0	29.5	3.04e+01	58	38	0	236978176	44	6100
2026-01-04 16:41:38.51	18.05	14.44	-35.3	-36.5	29.4	3.04e+01	50	38	0	239075328	44	6453
2026-01-04 16:41:39.52	18.03	14.55	-35.0	-36.2	29.6	3.04e+01	50	38	0	240648192	44	6224
2026-01-04 16:41:40.53	18.00	14.67	-35.1	-36.3	29.4	3.04e+01	57	38	0	242745344	44	6346
2026-01-04 16:41:41.54	17.98	14.79	-34.8	-36.0	29.5	3.04e+01	61	38	0	244842496	44	6124
2026-01-04 16:41:42.55	17.96	14.90	-34.8	-36.0	29.6	3.04e+01	47	38	0	246415360	44	6106
2026-01-04 16:41:43.56	17.93	15.02	-34.8	-36.0	29.8	3.04e+01	57	38	0	248512512	44	6077
2026-01-04 16:41:44.57	17.91	15.14	-35.2	-36.4	29.7	3.04e+01	58	38	0	250085376	44	6363
2026-01-04 16:41:45.57	17.88	15.25	-34.8	-35.9	29.8	3.04e+01	59	38	0	252182528	44	6053
2026-01-04 16:41:46.59	17.86	15.37	-34.8	-36.0	29.8	3.04e+01	59	38	0	254279680	44	6092
2026-01-04 16:41:47.59	17.83	15.49	-34.9	-36.1	29.7	3.04e+01	45	38	0	255852544	44	6144
2026-01-04 16:41:48.60	17.81	15.61	-35.1	-36.3	29.5	3.04e+01	59	38	0	257949696	44	6282
2026-01-04 16:41:49.61	17.78	15.73	-34.9	-36.0	29.7	3.04e+01	58	38	0	260046848	44	6133
2026-01-04 16:41:50.62	17.76	15.85	-34.9	-36.1	29.7	3.04e+01	45	38	0	261619712	44	6161
2026-01-04 16:41:51.63	17.73	15.98	-35.1	-36.3	29.5	3.04e+01	58	38	0	263716864	44	6339
2026-01-04 16:41:52.64	17.70	16.10	-35.1	-36.3	29.5	3.04e+01	55	38	0	265289728	44	6332
2026-01-04 16:41:53.65	17.68	16.22	-35.1	-36.3	29.5	3.04e+01	57	38	0	267386880	44	6302
2026-01-04 16:41:54.66	17.65	16.35	-35.3	-36.5	29.2	3.04e+01	61	38	0	269484032	44	6452
2026-01-04 16:41:55.67	17.62	16.47	-35.1	-36.3	29.4	3.04e+01	52	38	0	271056896	44	6287
2026-01-04 16:41:56.68	17.60	16.60	-35.1	-36.3	29.6	3.04e+01	58	38	0	273154048	44	6291
2026-01-04 16:41:57.68	17.57	16.72	-35.2	-36.4	29.4	3.04e+01	56	38	0	274726912	44	6405
2026-01-04 16:41:58.69	17.54	16.85	-35.1	-36.3	29.4	3.04e+01	44	38	0	276824064	44	6344
2026-01-04 16:41:59.70	17.51	16.98	-35.2	-36.4	29.3	3.04e+01	59	38	0	278921216	44	6404
2026-01-04 16:42:00.71	17.48	17.10	-35.3	-36.5	29.3	3.04e+01	57	38	0	280494080	44	6435
2026-01-04 16:42:01.72	17.45	17.23	-35.3	-36.5	29.3	3.04e+01	58	38	0	282591232	44	6427
2026-01-04 16:42:02.73	17.43	17.36	-35.2	-36.4	29.4	3.04e+01	60	38	0	284164096	44	6403
2026-01-04 16:42:03.74	17.40	17.49	-35.1	-36.3	29.5	3.04e+01	52	38	0	286261248	44	6305
2026-01-04 16:42:04.75	17.37	17.62	-35.2	-36.4	29.6	3.04e+01	58	38	0	288358400	44	6370
2026-01-04 16:42:05.76	17.34	17.76	-34.9	-36.1	29.7	3.04e+01	60	38	0	289931264	44	6173
2026-01-04 16:42:06.77	17.31	17.89	-34.9	-36.1	29.7	3.04e+01	45	38	0	292028416	44	6192
2026-01-04 16:42:07.78	17.28	18.02	-34.9	-36.1	29.7	3.04e+01	59	38	0	293601280	44	6149
2026-01-04 16:42:08.79	17.24	18.16	-35.0	-36.2	29.6	3.04e+01	61	38	0	295698432	44	6261
2026-01-04 16:42:09.79	17.21	18.29	-34.9	-36.1	29.7	3.04e+01	59	38	0	297795584	44	6189
2026-01-04 16:42:10.80	17.18	18.43	-35.0	-36.2	29.5	3.04e+01	58	38	0	299368448	44	6252
2026-01-04 16:42:11.81	17.15	18.56	-35.2	-36.4	29.5	3.04e+01	50	38	0	301465600	44	6351
2026-01-04 16:42:12.82	17.12	18.70	-35.1	-36.3	29.6	3.04e+01	57	38	0	303562752	44	6325
2026-01-04 16:42:13.83	17.08	18.84	-35.2	-36.4	29.5	3.04e+01	60	38	0	305135616	44	6399
2026-01-04 16:42:14.84	17.05	18.98	-35.2	-36.4	29.5	3.04e+01	58	38	0	307232768	44	6405
2026-01-04 16:42:15.85	17.02	19.12	-35.2	-36.4	29.5	3.04e+01	63	38	0	308805632	44	6396
2026-01-04 16:42:16.86	16.98	19.26	-35.5	-36.7	29.3	3.04e+01	45	38	0	310902784	44	6593
2026-01-04 16:42:17.87	16.95	19.40	-35.5	-36.7	29.4	3.04e+01	59	38	0	312999936	44	6587
2026-01-04 16:42:18.88	16.92	19.55	-35.5	-36.7	29.1	3.04e+01	60	38	0	314572800	44	6580
2026-01-04 16:42:19.88	16.88	19.69	-35.5	-36.7	29.1	3.04e+01	44	38	0	316669952	44	6646
2026-01-04 16:42:20.89	16.85	19.83	-35.5	-36.7	29.2	3.04e+01	58	38	0	318242816	44	6643
2026-01-04 16:42:21.90	16.81	19.98	-35.5	-36.7	29.2	3.04e+01	56	38	0	320339968	44	6640
2026-01-04 16:42:22.91	16.77	20.13	-35.5	-36.7	29.3	3.04e+01	59	38	0	322437120	44	6606
2026-01-04 16:42:23.92	16.74	20.27	-35.5	-36.7	29.2	3.04e+01	59	38	0	324009984	44	6596
2026-01-04 16:42:24.93	16.70	20.42	-35.3	-36.5	29.5	3.04e+01	46	38	0	326107136	44	6490
2026-01-04 16:42:25.94	16.66	20.57	-35.4	-36.6	29.4	3.04e+01	63	38	0	327680000	44	6510
2026-01-04 16:42:26.95	16.62	20.72	-35.4	-36.6	29.2	3.04e+01	59	38	0	329777152	44	6537
2026-01-04 16:42:27.96	16.59	20.87	-35.3	-36.5	29.5	3.04e+01	47	38	0	331874304	44	6447
2026-01-04 16:42:28.97	16.55	21.03	-35.4	-36.6	29.4	3.04e+01	60	38	0	333447168	44	6502
2026-01-04 16:42:29.98	16.51	21.18	-35.4	-36.6	29.3	3.04e+01	59	38	0	335544320	44	6538
2026-01-04 16:42:30.98	16.47	21.33	-35.4	-36.6	29.4	3.04e+01	59	38	0	337117184	44	6505
2026-01-04 16:42:31.99	16.43	21.49	-35.5	-36.7	29.3	3.04e+01	58	38	0	339214336	44	6583
2026-01-04 16:42:33.00	16.39	21.64	-35.5	-36.7	29.4	3.04e+01	59	38	0	341311488	44	6613
2026-01-04 16:42:34.01	16.35	21.80	-35.6	-36.9	29.2	3.04e+01	60	38	0	342884352	44	6732
2026-01-04 16:42:35.01	16.31	21.96	-35.5	-36.8	29.3	3.04e+01	60	38	0	344981504	44	6651
2026-01-04 16:42:36.02	16.26	22.12	-35.5	-36.8	29.2	3.04e+01	46	38	0	346554368	44	6652
2026-01-04 16:42:37.03	16.22	22.28	-35.5	-36.7	29.2	3.04e+01	61	38	0	348651520	44	6646
2026-01-04 16:42:38.04	16.18	22.44	-35.4	-36.6	29.4	3.04e+01	63	38	0	350748672	44	6562
2026-01-04 16:42:39.05	16.14	22.60	-35.5	-36.7	29.3	3.04e+01	56	38	0	352321536	44	6621
2026-01-04 16:42:40.06	16.09	22.77	-35.4	-36.6	29.3	3.04e+01	62	38	0	354418688	44	6510
2026-01-04 16:42:41.07	16.05	22.93	-35.4	-36.6	29.3	3.04e+01	48	38	0	356515840	44	6543
2026-01-04 16:42:42.08	16.00	23.10	-35.6	-36.8	29.2	3.04e+01	60	38	0	358088704	44	6675
2026-01-04 16:42:43.09	15.96	23.27	-35.9	-37.2	28.8	3.04e+01	58	38	0	360185856	46	6219
2026-01-04 16:42:44.10	15.91	23.43	-36.0	-37.2	29.0	3.04e+01	45	38	0	361758720	46	6233
2026-01-04 16:42:45.11	15.86	23.60	-35.9	-37.1	28.9	3.04e+01	58	38	0	363855872	46	6164
2026-01-04 16:42:46.12	15.82	23.78	-36.0	-37.3	29.0	3.04e+01	60	38	0	365953024	46	6281
2026-01-04 16:42:47.13	15.77	23.95	-36.2	-37.4	28.7	3.04e+01	59	38	0	367525888	46	6411
2026-01-04 16:42:48.14	15.72	24.12	-36.1	-37.3	28.9	3.04e+01	60	38	0	369623040	46	6323
2026-01-04 16:42:49.15	15.67	24.30	-35.8	-37.1	29.0	3.04e+01	52	38	0	371195904	46	6140
2026-01-04 16:42:50.16	15.62	24.47	-36.1	-37.3	28.7	3.04e+01	59	38	0	373293056	46	6302
2026-01-04 16:42:51.16	15.57	24.65	-35.8	-37.0	29.1	3.04e+01	61	38	0	375390208	46	6107
2026-01-04 16:42:52.17	15.52	24.82	-35.9	-37.1	29.2	3.04e+01	56	38	0	376963072	46	6143
2026-01-04 16:42:53.18	15.47	25.00	-35.6	-36.8	29.3	3.04e+01	63	38	0	379060224	46	5979
2026-01-04 16:42:54.19	15.42	25.19	-35.5	-36.7	29.3	3.04e+01	45	38	0	380633088	46	5925
2026-01-04 16:42:55.20	15.36	25.37	-35.4	-36.6	29.4	3.04e+01	62	38	0	382730240	46	5855
2026-01-04 16:42:56.21	15.31	25.55	-35.6	-36.8	29.4	3.04e+01	57	38	0	384827392	46	5969
2026-01-04 16:42:57.22	15.25	25.74	-35.5	-36.7	29.5	3.04e+01	51	38	0	386400256	46	5892
2026-01-04 16:42:58.23	15.20	25.92	-35.3	-36.5	29.4	3.04e+01	60	38	0	388497408	46	5779
2026-01-04 16:42:59.24	15.14	26.11	-35.5	-36.7	29.5	3.04e+01	59	38	0	390070272	46	5921
2026-01-04 16:43:00.25	15.09	26.30	-35.6	-36.8	29.3	3.04e+01	57	38	0	392167424	46	5953
2026-01-04 16:43:01.26	15.03	26.49	-35.6	-36.8	29.3	3.04e+01	58	38	0	394264576	46	5976
2026-01-04 16:43:02.27	14.97	26.68	-35.5	-36.7	29.2	3.04e+01	46	38	0	395837440	46	5923
2026-01-04 16:43:03.28	14.91	26.88	-35.6	-36.8	29.3	3.04e+01	58	38	0	397934592	46	5932
2026-01-04 16:43:04.29	14.85	27.07	-35.8	-37.1	29.1	3.04e+01	60	38	0	400031744	46	6139
2026-01-04 16:43:05.30	14.79	27.27	-35.9	-37.1	29.2	3.04e+01	45	38	0	401604608	46	6144
2026-01-04 16:43:06.31	14.73	27.47	-35.8	-37.0	29.2	3.04e+01	59	38	0	403701760	46	6097
2026-01-04 16:43:07.32	14.67	27.66	-35.6	-36.8	29.1	3.04e+01	59	38	0	405274624	46	5975
2026-01-04 16:43:08.33	14.61	27.87	-35.2	-36.4	29.6	3.04e+01	59	38	0	407371776	46	5689
2026-01-04 16:43:09.34	14.54	28.07	-34.9	-36.1	29.9	3.04e+01	56	38	0	409468928	46	5513
2026-01-04 16:43:10.35	14.48	28.27	-35.1	-36.3	29.7	3.04e+01	60	38	0	411041792	44	6311
2026-01-04 16:43:11.36	14.41	28.48	-35.0	-36.2	29.9	3.04e+01	60	38	0	413138944	44	6249
2026-01-04 16:43:12.37	14.34	28.69	-34.9	-36.0	29.9	3.04e+01	62	38	0	414711808	44	6125
2026-01-04 16:43:13.38	14.28	28.89	-34.9	-36.1	29.9	3.04e+01	44	38	0	416808960	44	6179
2026-01-04 16:43:14.39	14.21	29.10	-35.2	-36.4	29.7	3.04e+01	60	38	0	418906112	44	6387
2026-01-04 16:43:15.40	14.14	29.32	-35.5	-36.7	29.5	3.04e+01	58	38	0	420478976	44	6631
2026-01-04 16:43:16.41	14.07	29.53	-35.4	-36.6	29.5	3.04e+01	62	38	0	422576128	44	6565
2026-01-04 16:43:17.42	14.00	29.75	-35.1	-36.3	29.7	3.04e+01	58	38	0	424673280	44	6320
2026-01-04 16:43:18.42	13.92	29.96	-35.2	-36.4	29.6	3.04e+01	61	38	0	426246144	44	6415
2026-01-04 16:43:19.43	13.85	30.18	-34.9	-36.1	29.8	3.04e+01	57	38	0	428343296	44	6176
2026-01-04 16:43:20.44	13.78	30.40	-34.8	-36.0	30.0	3.04e+01	57	38	0	429916160	44	6093
2026-01-04 16:43:21.45	13.70	30.62	-34.8	-36.0	29.8	3.04e+01	58	38	0	432013312	44	6069
2026-01-04 16:43:22.46	13.62	30.85	-34.7	-35.9	30.1	3.04e+01	58	38	0	434110464	44	6009
2026-01-04 16:43:23.47	13.54	31.07	-34.8	-36.0	30.2	3.04e+01	49	38	0	435683328	44	6090
2026-01-04 16:43:24.48	13.46	31.30	-35.0	-36.2	30.0	3.04e+01	57	38	0	437780480	44	6255
2026-01-04 16:43:25.49	13.38	31.53	-35.1	-36.3	29.8	3.04e+01	60	38	0	439353344	44	6279
2026-01-04 16:43:26.50	13.30	31.76	-35.1	-36.3	29.8	3.04e+01	59	38	0	441450496	44	6284
2026-01-04 16:43:27.51	13.22	32.00	-34.9	-36.1	29.9	3.04e+01	60	38	0	443547648	44	6178
2026-01-04 16:43:28.52	13.13	32.23	-34.8	-36.0	30.0	3.04e+01	60	38	0	445120512	44	6110
2026-01-04 16:43:29.53	13.05	32.47	-34.8	-36.0	30.1	3.04e+01	58	38	0	447217664	44	6104
2026-01-04 16:43:30.53	12.96	32.71	-35.1	-36.3	29.8	3.04e+01	58	38	0	448790528	44	6313
2026-01-04 16:43:31.54	12.87	32.95	-35.3	-36.5	29.6	3.04e+01	44	38	0	450887680	44	6428
2026-01-04 16:43:32.55	12.78	33.19	-35.3	-36.5	29.7	3.04e+01	59	38	0	452984832	44	6482
2026-01-04 16:43:33.56	12.69	33.44	-35.3	-36.5	29.8	3.04e+01	59	38	0	454557696	44	6466
2026-01-04 16:43:34.57	12.60	33.68	-35.5	-36.7	29.5	3.04e+01	45	38	0	456654848	44	6591
2026-01-04 16:43:35.58	12.50	33.93	-35.9	-37.1	29.2	3.04e+01	59	38	0	458227712	44	6923
2026-01-04 16:43:36.59	12.41	34.19	-36.2	-37.4	28.7	3.04e+01	56	38	0	460324864	46	6383
2026-01-04 16:43:37.60	12.31	34.44	-36.1	-37.3	29.0	3.04e+01	60	38	0	462422016	46	6318
2026-01-04 16:43:38.61	12.21	34.69	-36.1	-37.4	28.9	3.04e+01	61	38	0	463994880	46	6362
2026-01-04 16:43:39.62	12.11	34.95	-36.4	-37.6	28.5	3.04e+01	49	38	0	466092032	46	6550
2026-01-04 16:43:40.63	12.01	35.21	-36.1	-37.4	28.7	3.04e+01	58	38	0	468189184	46	6356
2026-01-04 16:43:41.63	11.90	35.47	-36.0	-37.2	29.2	3.04e+01	57	38	0	469762048	46	6271
2026-01-04 16:43:42.64	11.80	35.74	-36.4	-37.6	28.7	3.04e+01	51	38	0	471859200	46	6549
2026-01-04 16:43:43.65	11.69	36.00	-36.4	-37.6	28.6	3.04e+01	60	38	0	473432064	46	6562
2026-01-04 16:43:44.66	11.58	36.27	-37.3	-38.6	28.4	3.04e+01	61	38	0	475529216	46	7366
2026-01-04 16:43:45.67	11.46	36.54	-37.3	-38.6	27.8	3.04e+01	59	38	0	477626368	48	6515
2026-01-04 16:43:46.68	11.35	36.82	-36.9	-38.2	28.2	3.04e+01	57	38	0	479199232	48	6245
2026-01-04 16:43:47.68	11.24	37.09	-36.5	-37.8	28.6	3.04e+01	51	38	0	481296384	48	5931
2026-01-04 16:43:48.69	11.12	37.37	-36.4	-37.6	28.6	3.04e+01	60	38	0	482869248	48	5840
2026-01-04 16:43:49.70	11.00	37.65	-36.7	-38.0	28.2	3.04e+01	60	38	0	484966400	48	6081
2026-01-04 16:43:50.71	10.87	37.93	-36.8	-38.1	28.3	3.04e+01	45	38	0	487063552	48	6147
2026-01-04 16:43:51.72	10.75	38.22	-36.9	-38.2	28.2	3.04e+01	58	38	0	488636416	48	6225
2026-01-04 16:43:52.73	10.62	38.50	-36.9	-38.2	28.1	3.04e+01	61	38	0	490733568	48	6246
2026-01-04 16:43:53.74	10.49	38.79	-37.1	-38.4	28.0	3.04e+01	57	38	0	492306432	48	6359
2026-01-04 16:43:54.75	10.36	39.09	-37.1	-38.4	28.0	3.04e+01	60	38	0	494403584	48	6403
2026-01-04 16:43:55.75	10.23	39.38	-37.2	-38.5	27.9	3.04e+01	55	38	0	496500736	48	6487
2026-01-04 16:43:56.76	10.09	39.68	-37.3	-38.6	27.8	3.04e+01	65	38	0	498073600	48	6547
2026-01-04 16:43:57.77	9.95	39.98	-37.6	-38.9	27.5	3.04e+01	59	38	0	500170752	48	6769
2026-01-04 16:43:58.78	9.81	40.28	-37.4	-38.6	27.7	3.04e+01	52	38	0	501743616	48	6570
2026-01-04 16:43:59.80	9.66	40.59	-37.4	-38.7	27.8	3.04e+01	58	38	0	503840768	48	6599
2026-01-04 16:44:00.81	9.51	40.89	-37.1	-38.4	27.9	3.04e+01	46	38	0	505937920	48	6351
2026-01-04 16:44:01.82	9.36	41.20	-37.3	-38.6	27.6	3.04e+01	54	38	0	507510784	48	6553
2026-01-04 16:44:02.83	9.21	41.52	-37.5	-38.9	27.5	3.04e+01	59	38	0	509607936	48	6729
2026-01-04 16:44:03.83	9.05	41.83	-37.3	-38.6	27.7	3.04e+01	50	38	0	511180800	48	6550
2026-01-04 16:44:04.84	8.89	42.15	-36.4	-37.6	28.7	3.04e+01	59	38	0	513277952	48	5842
2026-01-04 16:44:05.85	8.73	42.47	-36.3	-37.5	28.6	3.04e+01	61	38	0	515375104	48	5783
2026-01-04 16:44:06.86	8.56	42.79	-36.3	-37.6	28.5	3.04e+01	58	38	0	516947968	48	5811
2026-01-04 16:44:07.87	8.39	43.12	-36.2	-37.5	29.1	3.04e+01	58	38	0	519045120	46	6427
2026-01-04 16:44:08.88	8.21	43.44	-35.9	-37.1	29.2	3.04e+01	45	38	0	521142272	46	6182
2026-01-04 16:44:09.89	8.04	43.78	-35.8	-37.0	29.2	3.04e+01	58	38	0	522715136	46	6119
2026-01-04 16:44:10.90	7.85	44.11	-35.7	-36.9	29.2	3.04e+01	57	38	0	524812288	46	6064
2026-01-04 16:44:11.91	7.67	44.45	-36.5	-37.7	28.8	3.04e+01	45	38	0	526385152	46	6629
2026-01-04 16:44:12.92	7.48	44.79	-36.0	-37.2	29.0	3.04e+01	58	38	0	528482304	46	6270
2026-01-04 16:44:13.93	7.28	45.13	-35.4	-36.6	29.5	3.04e+01	59	38	0	530579456	46	5839
2026-01-04 16:44:14.94	7.08	45.47	-35.9	-37.2	29.1	3.04e+01	58	38	0	532152320	46	6206
2026-01-04 16:44:15.95	6.88	45.82	-36.0	-37.2	29.0	3.04e+01	58	38	0	534249472	46	6242
2026-01-04 16:44:16.96	6.67	46.17	-36.2	-37.4	28.8	3.04e+01	60	38	0	536346624	46	6398
2026-01-04 16:44:17.97	6.46	46.52	-35.6	-36.8	29.3	3.04e+01	61	38	0	537919488	46	5935
2026-01-04 16:44:18.98	6.24	46.88	-36.1	-37.3	28.8	3.04e+01	56	38	0	540016640	46	6320
2026-01-04 16:44:19.99	6.01	47.24	-36.2	-37.5	28.6	3.04e+01	53	38	0	541589504	46	6440
2026-01-04 16:44:21.00	5.79	47.60	-36.2	-37.4	28.9	3.04e+01	53	38	0	543686656	46	6381
2026-01-04 16:44:22.01	5.55	47.96	-35.8	-37.0	29.2	3.04e+01	57	38	0	545783808	46	6113
2026-01-04 16:44:23.01	5.31	48.33	-35.7	-37.0	29.1	3.04e+01	58	38	0	547356672	46	6070
2026-01-04 16:44:24.02	5.07	48.70	-36.4	-37.6	28.6	3.04e+01	63	38	0	549453824	46	6539
2026-01-04 16:44:25.03	4.82	49.07	-36.0	-37.2	29.1	3.04e+01	47	38	0	551026688	46	6233
2026-01-04 16:44:26.04	4.56	49.44	-35.6	-36.8	29.4	3.04e+01	60	38	0	553123840	46	5927
2026-01-04 16:44:27.05	4.29	49.82	-36.2	-37.5	28.9	3.04e+01	63	38	0	555220992	46	6451
2026-01-04 16:44:28.06	4.02	50.20	-36.0	-37.2	28.9	3.04e+01	48	38	0	556793856	46	6227
2026-01-04 16:44:29.07	3.74	50.58	-35.6	-36.8	29.4	3.04e+01	58	38	0	558891008	46	5940
2026-01-04 16:44:30.08	3.45	50.97	-35.4	-36.6	29.5	3.04e+01	60	38	0	560463872	46	5844
2026-01-04 16:44:31.09	3.16	51.36	-36.0	-37.2	29.1	3.04e+01	59	38	0	562561024	46	6260
2026-01-04 16:44:32.09	2.86	51.74	-36.4	-37.6	28.7	3.04e+01	61	38	0	564658176	46	6553
2026-01-04 16:44:33.10	2.55	52.13	-35.4	-36.7	29.4	3.04e+01	58	38	0	566231040	46	5860
2026-01-04 16:44:34.11	2.23	52.53	-35.1	-36.3	29.6	3.04e+01	57	38	0	568328192	44	6333
2026-01-04 16:44:35.12	1.90	52.93	-35.3	-36.5	29.7	3.04e+01	60	38	0	569901056	44	6435
2026-01-04 16:44:36.13	1.57	53.33	-35.1	-36.3	29.9	3.04e+01	44	38	0	571998208	44	6294
2026-01-04 16:44:37.13	1.22	53.73	-34.7	-35.8	30.1	3.04e+01	57	38	0	574095360	44	5988
2026-01-04 16:44:38.14	0.87	54.13	-34.8	-36.0	30.0	3.04e+01	60	38	0	575668224	44	6065
2026-01-04 16:44:39.15	0.50	54.54	-34.5	-35.7	30.3	3.04e+01	60	38	0	577765376	44	5897
2026-01-04 16:44:40.16	0.12	54.95	-35.6	-36.8	29.4	3.04e+01	54	38	0	579338240	44	6704
2026-01-04 16:44:41.17	359.73	55.36	-35.4	-36.5	29.5	3.04e+01	54	38	0	581435392	44	6490
2026-01-04 16:44:42.18	359.33	55.77	-34.8	-35.9	30.1	3.04e+01	59	38	0	583532544	44	6038
2026-01-04 16:44:43.19	358.92	56.18	-35.6	-36.8	29.4	3.04e+01	54	38	0	585105408	44	6669
2026-01-04 16:44:44.19	358.50	56.60	-36.1	-37.3	29.1	3.04e+01	57	38	0	587202560	46	6330
2026-01-04 16:44:45.20	358.06	57.01	-35.9	-37.1	29.1	3.04e+01	63	38	0	589299712	46	6152
2026-01-04 16:44:46.21	357.61	57.43	-35.6	-36.8	29.1	3.04e+01	49	38	0	590872576	46	5971
2026-01-04 16:44:47.22	357.14	57.85	-36.5	-37.8	28.5	3.04e+01	58	38	0	592969728	46	6674
2026-01-04 16:44:48.23	356.66	58.28	-36.0	-37.2	28.8	3.04e+01	59	38	0	594542592	46	6264
2026-01-04 16:44:49.24	356.16	58.70	-36.2	-37.4	28.7	3.04e+01	46	38	0	596639744	46	6375
2026-01-04 16:44:50.25	355.65	59.12	-36.4	-37.6	28.7	3.04e+01	60	38	0	598736896	46	6554
2026-01-04 16:44:51.26	355.11	59.55	-36.6	-37.9	28.5	3.04e+01	61	38	0	600309760	46	6736
2026-01-04 16:44:52.27	354.56	59.98	-36.3	-37.5	28.7	3.04e+01	58	38	0	602406912	46	6491
2026-01-04 16:44:53.28	354.00	60.40	-36.4	-37.7	28.9	3.04e+01	58	38	0	603979776	46	6591
2026-01-04 16:44:54.29	353.41	60.83	-36.4	-37.6	28.7	3.04e+01	60	38	0	606076928	46	6531
2026-01-04 16:44:55.30	352.80	61.26	-36.9	-38.2	28.2	3.04e+01	58	38	0	607649792	46	6989
2026-01-04 16:44:56.31	352.17	61.68	-36.7	-38.0	28.2	3.04e+01	59	38	0	609746944	48	6097
2026-01-04 16:44:57.31	351.53	62.11	-37.2	-38.4	27.9	3.04e+01	49	38	0	611844096	48	6407
2026-01-04 16:44:58.32	350.85	62.53	-38.0	-39.4	27.4	3.04e+01	61	38	0	613416960	50	6362
2026-01-04 16:44:59.33	350.15	62.96	-38.4	-39.7	27.1	3.04e+01	61	38	0	615514112	52	5901
2026-01-04 16:45:00.33	349.43	63.38	-37.5	-38.8	27.5	3.04e+01	60	38	0	617611264	50	5984
2026-01-04 16:45:01.34	348.68	63.80	-38.2	-39.5	26.8	3.04e+01	59	38	0	619184128	50	6475
2026-01-04 16:45:02.35	347.90	64.22	-39.2	-40.6	26.4	3.04e+01	51	38	0	621281280	52	6550
2026-01-04 16:45:03.36	347.09	64.64	-39.1	-40.5	24.9	3.04e+01	62	38	0	622854144	52	6456
2026-01-04 16:45:04.37	346.25	65.06	-39.6	-41.1	26.1	3.04e+01	59	38	0	624951296	52	6896
2026-01-04 16:45:05.38	345.38	65.48	-39.7	-41.1	25.0	3.04e+01	51	38	0	627048448	54	6202
2026-01-04 16:45:06.39	344.48	65.89	-40.0	-41.6	25.9	3.04e+01	59	38	0	628621312	54	6503
2026-01-04 16:45:07.40	343.54	66.30	-38.7	-40.1	26.2	3.04e+01	59	38	0	630718464	54	5489
2026-01-04 16:45:08.41	342.56	66.70	-39.6	-41.0	25.9	3.04e+01	61	38	0	632815616	54	6092
2026-01-04 16:45:09.42	341.54	67.10	-39.5	-40.9	25.8	3.04e+01	61	38	0	634388480	54	6040
2026-01-04 16:45:10.43	340.49	67.50	-39.8	-41.3	25.5	3.04e+01	57	38	0	636485632	54	6329
2026-01-04 16:45:11.44	339.39	67.89	-40.8	-42.5	24.6	3.04e+01	58	38	0	638058496	54	7211
2026-01-04 16:45:12.45	338.26	68.27	-40.8	-42.4	25.0	3.04e+01	58	38	0	640155648	56	6371
2026-01-04 16:45:13.46	337.07	68.65	-40.2	-41.7	25.2	3.04e+01	59	38	0	642252800	56	5917
2026-01-04 16:45:14.47	335.85	69.02	-40.2	-41.7	25.3	3.04e+01	60	38	0	643825664	56	5877
2026-01-04 16:45:15.48	334.57	69.38	-41.0	-42.7	24.4	3.04e+01	61	38	0	645922816	56	6597
2026-01-04 16:45:16.49	333.25	69.73	-40.1	-41.6	25.2	3.04e+01	59	38	0	647495680	56	5820
2026-01-04 16:45:17.50	331.87	70.08	-41.7	-43.5	23.7	3.04e+01	59	38	0	649592832	58	6444
2026-01-04 16:45:18.51	330.45	70.41	-41.5	-43.1	24.8	3.04e+01	48	38	0	651689984	58	6183
2026-01-04 16:45:19.52	328.97	70.73	-42.3	-44.1	23.5	3.04e+01	58	38	0	653262848	58	6928
2026-01-04 16:45:20.53	327.44	71.05	-41.5	-43.2	24.8	3.04e+01	60	38	0	655360000	56	7002
2026-01-04 16:45:21.54	325.85	71.35	-41.5	-43.1	24.2	3.04e+01	55	38	0	656932864	56	6941
2026-01-04 16:45:22.55	324.22	71.63	-42.1	-43.8	24.8	3.04e+01	60	38	0	659030016	58	6710
2026-01-04 16:45:23.56	322.52	71.91	-40.9	-42.5	24.6	3.04e+01	46	38	0	661127168	56	6494
2026-01-04 16:45:24.57	320.78	72.17	-40.5	-42.1	25.0	3.04e+01	60	38	0	662700032	56	6145
2026-01-04 16:45:25.58	318.98	72.41	-40.2	-41.7	25.3	3.04e+01	60	38	0	664797184	54	6601
2026-01-04 16:45:26.59	317.13	72.64	-41.3	-42.9	24.4	3.04e+01	48	38	0	666370048	56	6788
2026-01-04 16:45:27.60	315.23	72.85	-41.2	-42.8	25.1	3.04e+01	58	38	0	668467200	56	6709
2026-01-04 16:45:28.61	313.28	73.04	-40.4	-42.0	25.1	3.04e+01	61	38	0	670564352	56	6069
2026-01-04 16:45:29.62	311.28	73.21	-40.1	-41.6	25.6	3.04e+01	58	38	0	672137216	56	5792
2026-01-04 16:45:30.63	309.25	73.36	-41.2	-42.8	24.6	3.04e+01	59	38	0	674234368	56	6678
2026-01-04 16:45:31.63	307.20	73.49	-40.0	-41.5	25.3	3.04e+01	57	38	0	675807232	54	6453
2026-01-04 16:45:32.64	305.10	73.60	-40.2	-41.7	25.6	3.04e+01	58	38	0	677904384	54	6620
2026-01-04 16:45:33.65	302.97	73.69	-41.0	-42.6	24.9	3.04e+01	59	38	0	680001536	56	6547
2026-01-04 16:45:34.66	300.82	73.76	-40.0	-41.5	25.0	3.04e+01	51	38	0	681574400	54	6457
2026-01-04 16:45:35.67	298.65	73.81	-41.3	-42.9	24.8	3.04e+01	61	38	0	683671552	56	6738
2026-01-04 16:45:36.68	296.47	73.83	-39.1	-40.5	26.4	3.04e+01	59	38	0	685768704	54	5736
2026-01-04 16:45:37.69	294.29	73.84	-40.3	-41.7	25.9	3.04e+01	57	38	0	687341568	54	6623
2026-01-04 16:45:38.70	292.11	73.82	-41.3	-42.8	25.4	3.04e+01	60	38	0	689438720	56	6654
2026-01-04 16:45:39.71	289.94	73.77	-41.4	-42.9	25.5	3.04e+01	51	38	0	691011584	56	6745
2026-01-04 16:45:40.72	287.78	73.71	-41.3	-42.9	24.5	3.04e+01	56	38	0	693108736	58	6018
2026-01-04 16:45:41.73	285.64	73.62	-41.9	-43.6	25.2	3.04e+01	59	38	0	695205888	56	7305
2026-01-04 16:45:42.74	283.54	73.51	-40.7	-42.2	25.1	3.04e+01	44	38	0	696778752	58	5570
2026-01-04 16:45:43.75	281.46	73.38	-41.2	-42.7	24.9	3.04e+01	57	38	0	698875904	58	5925
2026-01-04 16:45:44.76	279.42	73.23	-40.9	-42.3	25.7	3.04e+01	58	38	0	700973056	56	6346
2026-01-04 16:45:45.77	277.42	73.06	-40.9	-42.3	25.2	3.04e+01	62	38	0	702545920	56	6337
2026-01-04 16:45:46.78	275.46	72.88	-42.0	-43.7	24.6	3.04e+01	59	38	0	704643072	58	6597
2026-01-04 16:45:47.79	273.55	72.67	-40.3	-41.7	26.0	3.04e+01	51	38	0	706215936	54	6638
2026-01-04 16:45:48.79	271.71	72.45	-41.0	-42.7	24.7	3.04e+01	64	38	0	708313088	56	6630
2026-01-04 16:45:49.80	269.90	72.21	-40.5	-42.0	25.7	3.04e+01	60	37	0	710410240	56	6080
2026-01-04 16:45:50.81	268.15	71.95	-40.5	-42.0	25.5	3.04e+01	58	38	0	711983104	56	6072
2026-01-04 16:45:51.82	266.44	71.68	-41.1	-42.6	24.8	3.04e+01	58	38	0	714080256	56	6541
2026-01-04 16:45:52.83	264.79	71.39	-40.5	-41.9	25.3	3.04e+01	62	38	0	715653120	56	6058
2026-01-04 16:45:53.83	263.21	71.10	-41.1	-42.7	25.0	3.04e+01	62	38	0	717750272	56	6621
2026-01-04 16:45:54.85	261.66	70.79	-42.2	-43.9	23.4	3.04e+01	62	38	0	719323136	58	6730
2026-01-04 16:45:55.86	260.17	70.46	-42.9	-44.5	24.2	3.04e+01	45	38	0	721420288	58	7285
2026-01-04 16:45:56.87	258.74	70.13	-41.8	-43.4	23.9	3.04e+01	61	38	0	723517440	60	5710
2026-01-04 16:45:57.87	257.37	69.79	-41.3	-43.0	24.0	3.04e+01	62	37	0	725090304	56	6820
2026-01-04 16:45:58.88	256.03	69.44	-43.2	-45.1	23.1	3.04e+01	56	38	0	727187456	58	7807
2026-01-04 16:45:59.89	254.75	69.08	-41.9	-43.5	24.4	3.04e+01	58	38	0	729284608	56	7235
2026-01-04 16:46:00.90	253.51	68.71	-42.7	-44.5	23.5	3.04e+01	46	38	0	730857472	60	6446
2026-01-04 16:46:01.91	252.32	68.33	-41.6	-43.1	25.1	3.04e+01	58	38	0	732954624	56	6905
2026-01-04 16:46:02.92	251.17	67.95	-42.6	-44.4	23.7	3.04e+01	54	38	0	734527488	56	8045
2026-01-04 16:46:03.93	250.07	67.56	-42.3	-44.1	23.4	3.04e+01	45	38	0	736624640	60	6144
2026-01-04 16:46:04.94	249.01	67.16	-41.3	-42.9	24.5	3.04e+01	58	38	0	738721792	56	6781
2026-01-04 16:46:05.95	247.98	66.76	-42.0	-43.7	24.1	3.04e+01	63	38	0	740294656	56	7384
2026-01-04 16:46:06.96	247.00	66.36	-41.8	-43.5	23.6	3.04e+01	59	38	0	742391808	58	6453
2026-01-04 16:46:07.97	246.05	65.95	-41.8	-43.5	24.6	3.04e+01	59	38	0	743964672	58	6434
2026-01-04 16:46:08.98	245.14	65.54	-41.1	-42.6	25.2	3.04e+01	58	38	0	746061824	58	5826
2026-01-04 16:46:09.99	244.26	65.12	-41.4	-42.9	25.3	3.04e+01	59	38	0	748158976	56	6787
2026-01-04 16:46:10.99	243.43	64.71	-41.2	-42.8	25.0	3.04e+01	57	38	0	749731840	56	6692
2026-01-04 16:46:12.00	242.61	64.29	-41.1	-42.7	25.1	3.04e+01	54	38	0	751828992	56	6580
2026-01-04 16:46:13.01	241.82	63.87	-40.1	-41.5	26.5	3.04e+01	62	38	0	753926144	54	6451
2026-01-04 16:46:14.02	241.07	63.44	-38.5	-39.8	27.2	3.04e+01	63	38	0	755499008	52	5991
2026-01-04 16:46:15.03	240.34	63.02	-40.1	-41.6	26.4	3.04e+01	61	38	0	757596160	52	7312
2026-01-04 16:46:16.04	239.63	62.59	-38.8	-40.2	26.9	3.04e+01	60	38	0	759169024	54	5551
2026-01-04 16:46:17.05	238.95	62.16	-38.3	-39.6	27.5	3.04e+01	52	38	0	761266176	52	5796
2026-01-04 16:46:18.06	238.30	61.74	-38.6	-39.9	27.0	3.04e+01	58	38	0	763363328	52	6050
2026-01-04 16:46:19.07	237.66	61.31	-38.3	-39.6	27.5	3.04e+01	63	38	0	764936192	52	5797
2026-01-04 16:46:20.08	237.05	60.88	-39.3	-40.8	26.3	3.04e+01	44	38	0	767033344	52	6655
2026-01-04 16:46:21.09	236.46	60.45	-38.6	-39.9	27.3	3.04e+01	62	38	0	768606208	50	6795
2026-01-04 16:46:22.10	235.89	60.02	-38.7	-40.0	27.1	3.04e+01	52	38	0	770703360	52	6110
2026-01-04 16:46:23.11	235.33	59.60	-38.6	-40.0	26.8	3.04e+01	58	38	0	772800512	52	6103
2026-01-04 16:46:24.12	234.80	59.17	-38.3	-39.7	27.1	3.04e+01	57	38	0	774373376	52	5868
2026-01-04 16:46:25.13	234.28	58.74	-38.4	-39.7	27.3	3.04e+01	55	38	0	776470528	52	5897
2026-01-04 16:46:26.14	233.78	58.32	-37.3	-38.6	27.9	3.04e+01	59	38	0	778043392	50	5802
2026-01-04 16:46:27.15	233.29	57.90	-36.9	-38.2	27.9	3.04e+01	60	38	0	780140544	48	6224
2026-01-04 16:46:28.16	232.82	57.47	-36.8	-38.0	28.5	3.04e+01	58	38	0	782237696	48	6131
2026-01-04 16:46:29.17	232.37	57.05	-36.5	-37.7	28.8	3.04e+01	62	38	0	783810560	48	5905
2026-01-04 16:46:30.18	231.93	56.63	-36.0	-37.2	29.3	3.04e+01	46	38	0	785907712	46	6218
2026-01-04 16:46:31.19	231.50	56.22	-35.3	-36.5	29.8	3.04e+01	59	38	0	787480576	46	5774
2026-01-04 16:46:32.20	231.08	55.80	-35.1	-36.3	30.0	3.04e+01	61	38	0	789577728	46	5627
2026-01-04 16:46:33.21	230.68	55.39	-35.4	-36.6	29.8	3.04e+01	50	38	0	791674880	46	5814
2026-01-04 16:46:34.22	230.29	54.97	-35.1	-36.2	30.0	3.04e+01	60	38	0	793247744	46	5591
2026-01-04 16:46:35.23	229.91	54.56	-35.2	-36.3	29.7	3.04e+01	63	38	0	795344896	46	5652
2026-01-04 16:46:36.23	229.55	54.16	-34.4	-35.5	30.4	3.04e+01	59	38	0	797442048	44	5791
2026-01-04 16:46:37.24	229.19	53.75	-34.0	-35.1	26.8	3.04e+01	59	38	0	799014912	44	5511
2026-01-04 16:46:38.25	228.84	53.35	-34.4	-35.5	30.5	3.04e+01	45	38	0	801112064	42	6498
2026-01-04 16:46:39.26	228.50	52.95	-34.6	-35.8	30.3	3.04e+01	60	37	0	802684928	42	6688
2026-01-04 16:46:40.27	228.17	52.55	-34.7	-35.8	30.3	3.04e+01	59	38	0	804782080	42	6724
2026-01-04 16:46:41.27	227.85	52.16	-34.9	-36.0	30.0	3.04e+01	43	38	0	806879232	44	6130
2026-01-04 16:46:42.29	227.54	51.76	-34.9	-36.1	29.9	3.04e+01	60	38	0	808452096	44	6179
2026-01-04 16:46:43.29	227.24	51.37	-34.6	-35.8	30.2	3.04e+01	59	37	0	810549248	44	5933
2026-01-04 16:46:44.30	226.94	50.98	-35.6	-36.7	29.8	3.04e+01	53	38	0	812122112	44	6635
2026-01-04 16:46:45.31	226.65	50.59	-35.9	-37.0	29.8	3.04e+01	59	38	0	814219264	44	6883
2026-01-04 16:46:46.32	226.37	50.21	-36.0	-37.2	29.5	3.04e+01	52	38	0	816316416	46	6248
2026-01-04 16:46:47.33	226.10	49.83	-36.0	-37.2	29.2	3.04e+01	60	38	0	817889280	46	6256
2026-01-04 16:46:48.34	225.83	49.45	-35.2	-36.4	29.9	3.04e+01	61	37	0	819986432	46	5671
2026-01-04 16:46:49.35	225.57	49.07	-35.4	-36.6	29.5	3.04e+01	49	37	0	821559296	46	5824
2026-01-04 16:46:50.35	225.32	48.70	-35.5	-36.7	29.4	3.04e+01	59	38	0	823656448	46	5898
2026-01-04 16:46:51.36	225.07	48.33	-35.1	-36.3	29.7	3.04e+01	60	38	0	825753600	46	5616
2026-01-04 16:46:52.37	224.83	47.96	-35.1	-36.3	29.8	3.04e+01	58	38	0	827326464	46	5625
2026-01-04 16:46:53.38	224.60	47.60	-35.4	-36.6	29.5	3.04e+01	60	38	0	829423616	46	5798
2026-01-04 16:46:54.39	224.37	47.24	-35.8	-37.0	29.2	3.04e+01	48	38	0	830996480	46	6124
2026-01-04 16:46:55.40	224.14	46.88	-35.4	-36.6	29.0	3.04e+01	59	38	0	833093632	46	5832
2026-01-04 16:46:56.41	223.92	46.52	-34.9	-36.1	29.7	3.04e+01	58	38	0	835190784	44	6178
2026-01-04 16:46:57.42	223.71	46.17	-34.9	-36.1	30.0	3.04e+01	45	38	0	836763648	44	6138
2026-01-04 16:46:58.43	223.50	45.81	-35.2	-36.4	29.7	3.04e+01	60	38	0	838860800	44	6353
2026-01-04 16:46:59.44	223.29	45.46	-35.0	-36.1	29.9	3.04e+01	58	38	0	840433664	44	6200
2026-01-04 16:47:00.45	223.09	45.12	-35.3	-36.5	29.3	3.04e+01	62	38	0	842530816	44	6465
2026-01-04 16:47:01.45	222.90	44.78	-35.5	-36.7	29.5	3.04e+01	61	38	0	844627968	44	6626
2026-01-04 16:47:02.46	222.71	44.44	-35.4	-36.6	29.5	3.04e+01	59	38	0	846200832	44	6561
2026-01-04 16:47:03.47	222.52	44.10	-35.2	-36.4	29.7	3.04e+01	54	38	0	848297984	44	6405
2026-01-04 16:47:04.48	222.34	43.76	-35.5	-36.7	29.5	3.04e+01	59	38	0	850395136	44	6606
2026-01-04 16:47:05.49	222.16	43.43	-35.7	-36.9	29.3	3.04e+01	44	38	0	851968000	44	6738
2026-01-04 16:47:06.50	221.98	43.10	-35.7	-36.9	29.3	3.04e+01	56	38	0	854065152	44	6763
2026-01-04 16:47:07.51	221.81	42.77	-35.6	-36.8	29.5	3.04e+01	50	38	0	855638016	44	6694
2026-01-04 16:47:08.52	221.64	42.45	-36.3	-37.5	29.1	3.04e+01	57	38	0	857735168	46	6444
2026-01-04 16:47:09.53	221.48	42.13	-36.5	-37.8	28.7	3.04e+01	58	38	0	859832320	46	6688
2026-01-04 16:47:10.54	221.32	41.81	-36.7	-37.9	28.5	3.04e+01	46	38	0	861405184	46	6794
2026-01-04 16:47:11.55	221.16	41.49	-36.8	-38.1	28.3	3.04e+01	61	38	0	863502336	46	6891
2026-01-04 16:47:12.56	221.00	41.18	-36.9	-38.2	28.2	3.04e+01	62	38	0	865075200	48	6251
2026-01-04 16:47:13.57	220.85	40.87	-37.0	-38.3	28.2	3.04e+01	61	38	0	867172352	48	6321
2026-01-04 16:47:14.58	220.70	40.56	-36.6	-37.8	28.6	3.04e+01	60	38	0	869269504	48	5940
2026-01-04 16:47:15.59	220.56	40.25	-36.7	-37.9	28.5	3.04e+01	46	38	0	870842368	48	6043
2026-01-04 16:47:16.60	220.41	39.95	-36.9	-38.2	28.3	3.04e+01	59	38	0	872939520	48	6213
2026-01-04 16:47:17.61	220.27	39.65	-37.3	-38.5	28.0	3.04e+01	61	38	0	875036672	48	6486
2026-01-04 16:47:18.62	220.13	39.35	-37.4	-38.7	28.0	3.04e+01	50	38	0	876609536	48	6606
2026-01-04 16:47:19.63	220.00	39.05	-37.3	-38.5	27.9	3.04e+01	60	38	0	878706688	48	6495
2026-01-04 16:47:20.64	219.87	38.76	-37.4	-38.7	27.9	3.04e+01	59	37	0	880279552	48	6611
2026-01-04 16:47:21.65	219.74	38.47	-37.6	-38.9	27.5	3.04e+01	58	38	0	882376704	48	6788
2026-01-04 16:47:22.66	219.61	38.18	-37.6	-38.9	27.5	3.04e+01	58	38	0	884473856	48	6759
2026-01-04 16:47:23.66	219.48	37.89	-37.7	-39.0	27.6	3.04e+01	51	38	0	886046720	48	6865
2026-01-04 16:47:24.67	219.36	37.61	-37.4	-38.6	27.8	3.04e+01	58	37	0	888143872	50	5856
2026-01-04 16:47:25.68	219.24	37.33	-37.1	-38.3	28.1	3.04e+01	58	37	0	889716736	50	5634
2026-01-04 16:47:26.69	219.12	37.05	-36.9	-38.1	28.3	3.04e+01	46	38	0	891813888	48	6186
2026-01-04 16:47:27.70	219.00	36.77	-36.9	-38.2	28.5	3.04e+01	61	38	0	893911040	48	6208
2026-01-04 16:47:28.71	218.89	36.50	-36.8	-38.0	28.4	3.04e+01	60	37	0	895483904	48	6085
2026-01-04 16:47:29.72	218.78	36.22	-36.7	-38.0	28.6	3.04e+01	57	37	0	897581056	48	6085
2026-01-04 16:47:30.73	218.67	35.95	-36.9	-38.2	28.5	3.04e+01	56	38	0	899153920	48	6207
2026-01-04 16:47:31.74	218.56	35.69	-36.7	-37.9	28.7	3.04e+01	51	37	0	901251072	48	6026
2026-01-04 16:47:32.75	218.45	35.42	-36.7	-38.0	28.7	3.04e+01	60	38	0	903348224	48	6069
2026-01-04 16:47:33.76	218.34	35.16	-36.6	-37.8	28.8	3.04e+01	58	38	0	904921088	48	5967
2026-01-04 16:47:34.76	218.24	34.90	-36.3	-37.5	28.9	3.04e+01	45	38	0	907018240	48	5781
2026-01-04 16:47:35.78	218.14	34.64	-36.4	-37.7	28.8	3.04e+01	58	37	0	908591104	48	5874
2026-01-04 16:47:36.79	218.04	34.38	-36.1	-37.3	29.0	3.04e+01	58	37	0	910688256	48	5631
2026-01-04 16:47:37.79	217.94	34.13	-36.0	-37.2	29.1	3.04e+01	60	37	0	912785408	46	6272
2026-01-04 16:47:38.80	217.85	33.88	-35.7	-36.9	29.4	3.04e+01	60	37	0	914358272	46	6061
2026-01-04 16:47:39.81	217.75	33.63	-35.5	-36.7	29.5	3.04e+01	54	37	0	916455424	46	5882
2026-01-04 16:47:40.82	217.66	33.38	-35.6	-36.8	29.5	3.04e+01	61	37	0	918552576	46	5931
2026-01-04 16:47:41.83	217.56	33.13	-35.6	-36.8	29.5	3.04e+01	61	37	0	920125440	46	5935
2026-01-04 16:47:42.84	217.47	32.89	-35.6	-36.7	29.5	3.04e+01	59	37	0	922222592	46	5921
2026-01-04 16:47:43.85	217.38	32.65	-35.4	-36.6	29.7	3.04e+01	58	37	0	923795456	46	5811
2026-01-04 16:47:44.86	217.30	32.40	-35.3	-36.5	29.7	3.04e+01	46	37	0	925892608	46	5759
2026-01-04 16:47:45.87	217.21	32.17	-34.9	-36.1	27.5	3.04e+01	59	37	0	927989760	46	5476
2026-01-04 16:47:46.88	217.13	31.93	-34.8	-36.0	30.0	3.04e+01	58	38	0	929562624	44	6072
2026-01-04 16:47:47.89	217.04	31.70	-34.7	-35.9	30.2	3.04e+01	46	37	0	931659776	44	6000
2026-01-04 16:47:48.90	216.96	31.46	-34.7	-35.9	30.1	3.04e+01	58	38	0	933232640	44	6013
2026-01-04 16:47:49.91	216.88	31.23	-34.9	-36.1	30.0	3.04e+01	62	37	0	935329792	44	6159
2026-01-04 16:47:50.91	216.80	31.01	-34.9	-36.1	29.9	3.04e+01	58	38	0	937426944	44	6151
2026-01-04 16:47:51.93	216.72	30.78	-34.9	-36.1	29.9	3.04e+01	57	38	0	938999808	44	6180
2026-01-04 16:47:52.94	216.64	30.55	-35.2	-36.4	29.9	3.04e+01	46	38	0	941096960	44	6365
2026-01-04 16:47:53.95	216.56	30.33	-35.0	-36.2	29.8	3.04e+01	61	37	0	942669824	44	6259
2026-01-04 16:47:54.95	216.49	30.11	-35.1	-36.3	29.7	3.04e+01	60	37	0	944766976	44	6282
2026-01-04 16:47:55.96	216.42	29.89	-34.9	-36.1	30.0	3.04e+01	51	38	0	946864128	44	6160
2026-01-04 16:47:56.97	216.34	29.67	-34.9	-36.1	29.9	3.04e+01	59	38	0	948436992	44	6146
2026-01-04 16:47:57.98	216.27	29.45	-34.9	-36.1	29.9	3.04e+01	58	38	0	950534144	44	6149
2026-01-04 16:47:58.99	216.20	29.24	-35.1	-36.3	29.8	3.04e+01	62	38	0	952107008	44	6332
2026-01-04 16:48:00.00	216.13	29.03	-35.2	-36.4	29.8	3.04e+01	61	38	0	954204160	44	6414
2026-01-04 16:48:01.01	216.06	28.82	-34.9	-36.1	29.9	3.04e+01	46	38	0	956301312	44	6176
2026-01-04 16:48:02.02	215.99	28.61	-35.0	-36.1	29.7	3.04e+01	59	37	0	957874176	44	6204
2026-01-04 16:48:03.03	215.92	28.40	-35.0	-36.2	29.8	3.04e+01	58	37	0	959971328	44	6215
2026-01-04 16:48:04.04	215.86	28.19	-35.3	-36.5	29.6	3.04e+01	52	37	0	961544192	44	6448
2026-01-04 16:48:05.05	215.79	27.99	-35.5	-36.7	29.4	3.04e+01	60	37	0	963641344	44	6645
2026-01-04 16:48:06.06	215.73	27.78	-35.4	-36.6	29.4	3.04e+01	57	37	0	965738496	44	6560
2026-01-04 16:48:07.07	215.66	27.58	-35.4	-36.6	29.3	3.04e+01	57	38	0	967311360	44	6553
2026-01-04 16:48:08.08	215.60	27.38	-35.4	-36.6	29.3	3.04e+01	59	38	0	969408512	44	6511
2026-01-04 16:48:09.09	215.54	27.18	-35.1	-36.2	29.5	3.04e+01	54	37	0	971505664	44	6269
2026-01-04 16:48:10.10	215.48	26.99	-35.1	-36.3	29.6	3.04e+01	57	37	0	973078528	44	6296
2026-01-04 16:48:11.11	215.42	26.79	-35.1	-36.2	29.6	3.04e+01	59	37	0	975175680	44	6262
2026-01-04 16:48:12.12	215.36	26.60	-35.2	-36.3	29.8	3.04e+01	54	38	0	976748544	44	6344
2026-01-04 16:48:13.12	215.30	26.40	-35.3	-36.4	29.7	3.04e+01	58	37	0	978845696	44	6423
2026-01-04 16:48:14.13	215.24	26.21	-35.4	-36.6	29.5	3.04e+01	55	37	0	980942848	44	6522
2026-01-04 16:48:15.14	215.19	26.02	-35.5	-36.7	29.3	3.04e+01	58	37	0	982515712	44	6640
2026-01-04 16:48:16.15	215.13	25.84	-35.8	-37.0	29.3	3.04e+01	58	37	0	984612864	46	6105
2026-01-04 16:48:17.16	215.07	25.65	-35.6	-36.8	29.3	3.04e+01	54	37	0	986710016	46	5971
2026-01-04 16:48:18.17	215.02	25.46	-35.7	-36.9	29.2	3.04e+01	56	37	0	988282880	46	6007
2026-01-04 16:48:19.18	214.97	25.28	-35.6	-36.9	29.2	3.04e+01	57	37	0	990380032	46	6008
2026-01-04 16:48:20.19	214.91	25.10	-35.8	-37.0	29.2	3.04e+01	60	37	0	991952896	46	6097
2026-01-04 16:48:21.20	214.86	24.91	-35.7	-36.9	29.2	3.04e+01	59	37	0	994050048	46	6016
2026-01-04 16:48:22.21	214.81	24.73	-35.6	-36.8	29.4	3.04e+01	45	37	0	996147200	46	5970
2026-01-04 16:48:23.21	214.76	24.56	-35.8	-37.0	29.2	3.04e+01	60	37	0	997720064	46	6099
2026-01-04 16:48:24.23	214.70	24.38	-36.2	-37.4	28.9	3.04e+01	61	38	0	999817216	46	6383
2026-01-04 16:48:25.23	214.65	24.20	-36.1	-37.4	28.9	3.04e+01	44	37	0	1001390080	46	6363
2026-01-04 16:48:26.24	214.60	24.03	-36.3	-37.5	28.8	3.04e+01	52	37	0	1003487232	46	6488
2026-01-04 16:48:27.25	214.56	23.85	-36.2	-37.4	28.9	3.04e+01	61	37	0	1005584384	46	6422
2026-01-04 16:48:28.26	214.51	23.68	-36.0	-37.2	29.0	3.04e+01	59	37	0	1007157248	46	6253
2026-01-04 16:48:29.27	214.46	23.51	-36.1	-37.3	29.0	3.04e+01	60	37	0	1009254400	46	6341
2026-01-04 16:48:30.28	214.41	23.34	-36.0	-37.2	29.0	3.04e+01	44	37	0	1010827264	46	6239
2026-01-04 16:48:31.29	214.37	23.17	-36.1	-37.3	28.9	3.04e+01	58	37	0	1012924416	46	6322
2026-01-04 16:48:32.30	214.32	23.00	-36.3	-37.5	29.1	3.04e+01	57	37	0	1015021568	46	6453
2026-01-04 16:48:33.31	214.27	22.83	-36.1	-37.3	29.2	3.04e+01	45	37	0	1016594432	46	6349
2026-01-04 16:48:34.32	214.23	22.67	-36.0	-37.1	29.3	3.04e+01	62	37	0	1018691584	46	6202
2026-01-04 16:48:35.33	214.18	22.50	-35.9	-37.1	29.4	3.04e+01	61	37	0	1020264448	46	6197
2026-01-04 16:48:36.34	214.14	22.34	-35.9	-37.1	29.3	3.04e+01	55	37	0	1022361600	46	6187
2026-01-04 16:48:37.35	214.10	22.18	-36.0	-37.2	29.1	3.04e+01	61	37	0	1024458752	46	6232
2026-01-04 16:48:38.36	214.05	22.02	-36.2	-37.4	29.1	3.04e+01	48	37	0	1026031616	46	6363
2026-01-04 16:48:39.37	214.01	21.86	-36.4	-37.6	28.8	3.04e+01	59	37	0	1028128768	46	6546
2026-01-04 16:48:40.38	213.97	21.70	-36.3	-37.6	29.0	3.04e+01	60	37	0	1029701632	46	6512
2026-01-04 16:48:41.39	213.93	21.54	-36.2	-37.5	29.0	3.04e+01	46	37	0	1031798784	46	6449
2026-01-04 16:48:42.40	213.89	21.38	-36.2	-37.5	28.8	3.04e+01	51	37	0	1033895936	46	6425
2026-01-04 16:48:43.41	213.85	21.23	-36.2	-37.4	28.9	3.04e+01	58	37	0	1035468800	46	6390
2026-01-04 16:48:44.42	213.81	21.07	-36.2	-37.5	28.8	3.04e+01	59	37	0	1037565952	46	6436
2026-01-04 16:48:45.43	213.77	20.92	-36.0	-37.3	28.9	3.04e+01	50	37	0	1039663104	46	6291
2026-01-04 16:48:46.44	213.73	20.77	-36.1	-37.4	28.8	3.04e+01	46	37	0	1041235968	46	6374
2026-01-04 16:48:47.45	213.69	20.61	-36.0	-37.3	28.9	3.04e+01	57	37	0	1043333120	46	6295
2026-01-04 16:48:48.46	213.65	20.46	-36.3	-37.5	28.8	3.04e+01	60	37	0	1044905984	46	6495
2026-01-04 16:48:49.47	213.61	20.31	-36.3	-37.5	28.9	3.04e+01	56	37	0	1047003136	46	6488
2026-01-04 16:48:50.48	213.57	20.16	-36.4	-37.6	29.0	3.04e+01	60	37	0	1049100288	46	6545
2026-01-04 16:48:51.49	213.54	20.02	-36.7	-38.0	28.6	3.04e+01	59	37	0	1050673152	46	6841
2026-01-04 16:48:52.50	213.50	19.87	-36.6	-37.8	28.9	3.04e+01	57	37	0	1052770304	46	6725
2026-01-04 16:48:53.51	213.46	19.72	-36.5	-37.7	28.7	3.04e+01	62	37	0	1054867456	46	6634
2026-01-04 16:48:54.52	213.43	19.58	-36.3	-37.5	28.8	3.04e+01	48	37	0	1056440320	46	6462
2026-01-04 16:48:55.53	213.39	19.43	-36.2	-37.5	29.0	3.04e+01	64	37	0	1058537472	46	6442
2026-01-04 16:48:56.54	213.36	19.29	-36.2	-37.4	29.1	3.04e+01	60	37	0	1060110336	46	6389
2026-01-04 16:48:57.55	213.32	19.15	-36.1	-37.4	29.0	3.04e+01	60	37	0	1062207488	46	6358
2026-01-04 16:48:58.56	213.29	19.01	-36.0	-37.2	29.1	3.04e+01	62	37	0	1064304640	46	6247
2026-01-04 16:48:59.57	213.26	18.87	-36.0	-37.2	29.1	3.04e+01	45	37	0	1065877504	46	6259
2026-01-04 16:49:00.58	213.22	18.73	-36.0	-37.2	29.1	3.04e+01	60	37	0	1067974656	46	6263
2026-01-04 16:49:01.59	213.19	18.59	-36.1	-37.3	29.0	3.04e+01	58	37	0	1069547520	46	6306
2026-01-04 16:49:02.60	213.16	18.45	-35.8	-37.0	29.2	3.04e+01	48	37	0	1071644672	46	6129
2026-01-04 16:49:03.61	213.12	18.31	-36.1	-37.3	28.6	3.04e+01	60	37	0	1073741824	46	6296
2026-01-04 16:49:04.62	213.09	18.18	-36.4	-37.6	29.2	3.04e+01	54	37	0	1075314688	46	6526
2026-01-04 16:49:05.63	213.06	18.04	-35.9	-37.1	29.1	3.04e+01	60	37	0	1077411840	46	6176
2026-01-04 16:49:06.64	213.03	17.90	-36.0	-37.2	29.2	3.04e+01	62	37	0	1078984704	46	6226
2026-01-04 16:49:07.65	213.00	17.77	-35.9	-37.1	29.1	3.04e+01	52	37	0	1081081856	46	6199
2026-01-04 16:49:08.66	212.96	17.64	-35.6	-36.8	29.2	3.04e+01	59	37	0	1083179008	46	5940
2026-01-04 16:49:09.67	212.93	17.50	-35.8	-37.1	29.0	3.04e+01	61	37	0	1084751872	46	6137
2026-01-04 16:49:10.68	212.90	17.37	-35.7	-36.9	29.2	3.04e+01	44	37	0	1086849024	46	6064
2026-01-04 16:49:11.69	212.87	17.24	-35.5	-36.7	29.2	3.04e+01	60	37	0	1088421888	46	5891
2026-01-04 16:49:12.70	212.84	17.11	-35.6	-36.8	29.3	3.04e+01	63	37	0	1090519040	46	5968
2026-01-04 16:49:13.71	212.82	16.98	-35.8	-37.0	29.2	3.04e+01	58	37	0	1092616192	46	6132
2026-01-04 16:49:14.72	212.79	16.85	-35.9	-37.1	29.2	3.04e+01	59	37	0	1094189056	46	6195
2026-01-04 16:49:15.73	212.76	16.73	-35.7	-36.9	29.3	3.04e+01	47	37	0	1096286208	46	6030
2026-01-04 16:49:16.74	212.73	16.60	-36.1	-37.3	29.1	3.04e+01	57	37	0	1097859072	46	6297
2026-01-04 16:49:17.75	212.70	16.47	-35.9	-37.1	29.2	3.04e+01	58	37	0	1099956224	46	6137
2026-01-04 16:49:18.76	212.67	16.35	-36.0	-37.3	29.0	3.04e+01	52	37	0	1102053376	46	6280
2026-01-04 16:49:19.77	212.64	16.22	-36.3	-37.5	28.7	3.04e+01	59	37	0	1103626240	46	6485
2026-01-04 16:49:20.78	212.62	16.10	-36.5	-37.8	28.5	3.04e+01	58	37	0	1105723392	46	6668
2026-01-04 16:49:21.79	212.59	15.97	-35.9	-37.1	29.1	3.04e+01	57	37	0	1107820544	46	6192
2026-01-04 16:49:22.80	212.56	15.85	-35.9	-37.1	29.0	3.04e+01	55	37	0	1109393408	46	6155
2026-01-04 16:49:23.81	212.54	15.73	-35.7	-37.0	29.2	3.04e+01	54	37	0	1111490560	46	6071
2026-01-04 16:49:24.82	212.51	15.61	-35.9	-37.1	29.2	3.04e+01	61	37	0	1113063424	46	6169
2026-01-04 16:49:25.83	212.48	15.48	-35.8	-37.1	29.3	3.04e+01	62	37	0	1115160576	46	6139
2026-01-04 16:49:26.84	212.46	15.36	-35.6	-36.9	29.3	3.04e+01	63	37	0	1117257728	46	5998
2026-01-04 16:49:27.84	212.43	15.25	-35.7	-36.9	29.3	3.04e+01	60	37	0	1118830592	46	6026
2026-01-04 16:49:28.86	212.41	15.13	-35.9	-37.1	29.2	3.04e+01	46	37	0	1120927744	46	6175
2026-01-04 16:49:29.87	212.38	15.01	-35.7	-36.9	29.3	3.04e+01	61	37	0	1123024896	46	6004
2026-01-04 16:49:30.87	212.36	14.89	-35.8	-37.0	29.2	3.04e+01	62	37	0	1124597760	46	6092
2026-01-04 16:49:31.88	212.33	14.77	-35.8	-37.0	29.1	3.04e+01	51	37	0	1126694912	46	6112
2026-01-04 16:49:32.89	212.31	14.66	-35.8	-37.0	29.1	3.04e+01	58	37	0	1128267776	46	6120
2026-01-04 16:49:33.90	212.28	14.54	-36.2	-37.4	28.9	3.04e+01	59	37	0	1130364928	46	6380
2026-01-04 16:49:34.90	212.26	14.43	-36.1	-37.3	29.0	3.04e+01	57	37	0	1132462080	46	6325
2026-01-04 16:49:35.91	212.24	14.31	-35.8	-37.1	28.9	3.04e+01	58	37	0	1134034944	46	6137
2026-01-04 16:49:36.92	212.21	14.20	-35.7	-36.9	29.2	3.04e+01	47	37	0	1136132096	46	6040
2026-01-04 16:49:37.93	212.19	14.08	-35.6	-36.8	29.0	3.04e+01	58	37	0	1137704960	46	5961
2026-01-04 16:49:38.94	212.17	13.97	-35.6	-36.8	29.1	3.04e+01	59	37	0	1139802112	46	5963
2026-01-04 16:49:39.95	212.14	13.86	-35.8	-37.0	29.2	3.04e+01	52	37	0	1141899264	46	6091
2026-01-04 16:49:40.96	212.12	13.75	-35.7	-36.9	29.1	3.04e+01	56	37	0	1143472128	46	6044
2026-01-04 16:49:41.97	212.10	13.64	-35.7	-36.9	29.2	3.04e+01	62	37	0	1145569280	46	6055
2026-01-04 16:49:42.98	212.08	13.52	-35.8	-37.0	29.2	3.04e+01	57	37	0	1147142144	46	6068
2026-01-04 16:49:43.99	212.05	13.41	-35.6	-36.8	29.1	3.04e+01	60	37	0	1149239296	46	5975
2026-01-04 16:49:45.00	212.03	13.30	-35.5	-36.7	29.4	3.04e+01	47	37	0	1151336448	46	5910
2026-01-04 16:49:46.01	212.01	13.20	-35.5	-36.7	29.3	3.04e+01	60	37	0	1152909312	46	5908
2026-01-04 16:49:47.02	211.99	13.09	-35.7	-36.9	29.2	3.04e+01	61	37	0	1155006464	46	6015
2026-01-04 16:49:48.03	211.97	12.98	-35.7	-36.9	29.2	3.04e+01	53	37	0	1156579328	46	6063
2026-01-04 16:49:49.04	211.95	12.87	-35.7	-36.9	29.1	3.04e+01	59	37	0	1158676480	46	6015
2026-01-04 16:49:50.05	211.93	12.76	-35.8	-37.1	29.1	3.04e+01	63	37	0	1160773632	46	6149
2026-01-04 16:49:51.06	211.91	12.66	-35.8	-37.0	28.9	3.04e+01	59	37	0	1162346496	46	6092
2026-01-04 16:49:52.07	211.89	12.55	-35.7	-36.9	29.1	3.04e+01	59	37	0	1164443648	46	6037
2026-01-04 16:49:53.07	211.87	12.45	-35.7	-36.9	29.0	3.04e+01	47	37	0	1166016512	46	6043
2026-01-04 16:49:54.08	211.85	12.34	-35.8	-37.0	29.1	3.04e+01	60	37	0	1168113664	46	6080
2026-01-04 16:49:55.09	211.83	12.24	-35.9	-37.1	29.0	3.04e+01	60	37	0	1170210816	46	6165
2026-01-04 16:49:56.10	211.81	12.13	-35.9	-37.1	29.0	3.04e+01	45	37	0	1171783680	46	6204
2026-01-04 16:49:57.11	211.79	12.03	-36.3	-37.5	29.0	3.04e+01	61	37	0	1173880832	46	6447
2026-01-04 16:49:58.12	211.77	11.93	-36.1	-37.3	29.0	3.04e+01	60	37	0	1175977984	46	6341
2026-01-04 16:49:59.13	211.75	11.82	-36.1	-37.3	28.9	3.04e+01	57	37	0	1177550848	46	6335
2026-01-04 16:50:00.14	211.73	11.72	-36.1	-37.3	28.9	3.04e+01	60	37	0	1179648000	46	6321
2026-01-04 16:50:01.15	211.71	11.62	-36.1	-37.3	28.9	3.04e+01	53	37	0	1181220864	46	6334
2026-01-04 16:50:02.16	211.69	11.52	-36.0	-37.3	28.8	3.04e+01	56	37	0	1183318016	46	6284
2026-01-04 16:50:03.17	211.67	11.42	-36.2	-37.4	28.8	3.04e+01	58	37	0	1185415168	46	6385
2026-01-04 16:50:04.18	211.65	11.32	-36.4	-37.6	28.7	3.04e+01	55	37	0	1186988032	46	6544
2026-01-04 16:50:05.19	211.63	11.22	-36.3	-37.6	28.8	3.04e+01	56	37	0	1189085184	46	6514
2026-01-04 16:50:06.20	211.62	11.12	-36.3	-37.5	28.7	3.04e+01	45	37	0	1190658048	46	6482
2026-01-04 16:50:07.21	211.60	11.02	-36.0	-37.3	28.8	3.04e+01	59	37	0	1192755200	46	6281
2026-01-04 16:50:08.21	211.58	10.92	-36.0	-37.3	28.7	3.04e+01	58	37	0	1194852352	46	6302
2026-01-04 16:50:09.23	211.56	10.82	-36.2	-37.4	28.7	3.04e+01	50	37	0	1196425216	46	6389
2026-01-04 16:50:10.24	211.55	10.73	-36.0	-37.2	28.8	3.04e+01	58	37	0	1198522368	46	6240
2026-01-04 16:50:11.25	211.53	10.63	-36.0	-37.2	28.8	3.04e+01	56	37	0	1200095232	46	6271
2026-01-04 16:50:12.25	211.51	10.53	-36.2	-37.5	28.7	3.04e+01	59	37	0	1202192384	46	6438
