passes_logs/2026/01/04/R4.6S_Anadyr/R4.6S_Anadyr__20260104_205848_FENGYUN_3E_rec.log

#Pass ID: 20260104_205848_FENGYUN 3E
#Satellite: FENGYUN 3E
#Configuration: FENGYUN 3E
#almurnet v.1.7.20251203
#Start time: 2026-01-04 20:58:51

#Version: 2.2.20231116
#Station: R4.6S_Anadyr
#Location: 177.4865 lon 64.73178 lat
#TLE: 1 49008U 21062A   26003.51942929 -.00000034  00000+0  45519-5 0  9990
#TLE: 2 49008  98.7472   8.7829 0001426 160.7926 199.3304 14.19883272233213

#Time	Az	El	Level	Level2	SNR	BER	BlckErr	Temp	State	Recorded	gain1	gain2
2026-01-04 20:58:51.38	27.26	0.17	-49.1	-59.0	3.3	8.40e-01	0	29	0	0	60	32062
2026-01-04 20:58:52.38	27.22	0.23	-48.6	-59.9	3.6	8.45e-01	0	29	104	0	60	35877
2026-01-04 20:58:53.39	27.17	0.29	-48.7	-59.9	3.6	8.44e-01	0	29	104	0	60	35788
2026-01-04 20:58:54.40	27.13	0.34	-48.8	-60.1	3.6	8.46e-01	0	29	104	0	60	36508
2026-01-04 20:58:55.41	27.08	0.40	-48.5	-59.8	3.6	8.45e-01	0	29	104	0	60	35433
2026-01-04 20:58:56.42	27.03	0.46	-48.3	-59.6	3.6	8.45e-01	0	29	104	0	60	34473
2026-01-04 20:58:57.43	26.99	0.51	-48.2	-59.5	3.6	8.45e-01	0	29	104	0	60	34142
2026-01-04 20:58:58.44	26.94	0.57	-48.2	-59.4	3.6	8.45e-01	0	29	104	0	60	33628
2026-01-04 20:58:59.45	26.89	0.63	-48.0	-59.3	3.6	8.45e-01	0	29	104	0	60	33273
2026-01-04 20:59:00.46	26.84	0.69	-47.9	-59.2	3.6	8.46e-01	0	29	104	0	60	32953
2026-01-04 20:59:01.47	26.80	0.74	-47.8	-59.1	3.6	8.46e-01	0	29	104	0	60	32408
2026-01-04 20:59:02.48	26.75	0.80	-47.3	-58.4	3.6	8.46e-01	0	29	104	0	60	30016
2026-01-04 20:59:03.49	26.70	0.86	-47.3	-58.4	3.6	8.44e-01	0	29	104	0	60	30103
2026-01-04 20:59:04.50	26.65	0.92	-46.8	-58.1	3.6	8.45e-01	0	29	104	0	60	28968
2026-01-04 20:59:05.51	26.60	0.97	-46.8	-58.0	3.6	8.45e-01	0	29	104	0	60	28834
2026-01-04 20:59:06.52	26.55	1.03	-46.8	-58.0	3.6	8.46e-01	0	29	104	0	60	28824
2026-01-04 20:59:07.53	26.50	1.09	-46.8	-58.1	3.6	8.46e-01	0	29	104	0	60	28900
2026-01-04 20:59:08.53	26.46	1.15	-46.8	-58.0	3.6	8.45e-01	0	29	104	0	60	28776
2026-01-04 20:59:09.54	26.41	1.21	-46.8	-57.9	3.6	8.45e-01	0	29	104	0	60	28379
2026-01-04 20:59:10.55	26.36	1.26	-46.8	-57.9	3.6	8.45e-01	0	29	104	0	60	28523
2026-01-04 20:59:11.56	26.31	1.32	-46.8	-58.0	3.6	8.45e-01	0	29	104	0	60	28700
2026-01-04 20:59:12.57	26.26	1.38	-46.8	-57.9	3.6	8.45e-01	0	29	104	0	60	28398
2026-01-04 20:59:13.58	26.21	1.44	-46.8	-58.0	3.5	8.45e-01	0	29	104	0	60	28654
2026-01-04 20:59:14.59	26.16	1.50	-46.8	-58.0	3.6	8.45e-01	0	29	104	0	60	28828
2026-01-04 20:59:15.60	26.11	1.56	-46.8	-58.1	3.6	8.46e-01	0	29	104	0	60	28985
2026-01-04 20:59:16.61	26.05	1.62	-46.8	-58.1	3.6	8.44e-01	0	29	104	0	60	28909
2026-01-04 20:59:17.62	26.00	1.67	-46.8	-58.0	3.6	8.44e-01	0	29	104	0	60	28848
2026-01-04 20:59:18.63	25.95	1.73	-46.8	-58.1	3.6	8.45e-01	0	29	104	0	60	28878
2026-01-04 20:59:19.64	25.90	1.79	-46.8	-58.1	3.6	8.45e-01	0	29	104	0	60	28888
2026-01-04 20:59:20.65	25.85	1.85	-46.8	-58.0	3.6	8.45e-01	0	29	104	0	60	28679
2026-01-04 20:59:21.66	25.80	1.91	-46.8	-57.8	3.5	8.46e-01	0	29	104	0	60	27993
2026-01-04 20:59:22.67	25.74	1.97	-46.8	-57.8	3.6	8.45e-01	0	29	104	0	60	27932
2026-01-04 20:59:23.68	25.69	2.03	-46.8	-57.6	3.6	8.45e-01	0	29	104	0	60	27321
2026-01-04 20:59:24.69	25.64	2.09	-46.8	-57.6	3.6	8.43e-01	0	29	104	0	60	27349
2026-01-04 20:59:25.70	25.59	2.15	-46.8	-57.7	3.6	8.45e-01	0	29	104	0	60	27674
2026-01-04 20:59:26.71	25.53	2.21	-46.8	-58.0	3.6	8.45e-01	0	29	104	0	60	28602
2026-01-04 20:59:27.72	25.48	2.27	-46.8	-58.1	3.6	8.45e-01	0	29	104	0	60	29015
2026-01-04 20:59:28.73	25.43	2.33	-46.8	-58.1	3.6	8.45e-01	0	29	104	0	60	28921
2026-01-04 20:59:29.74	25.37	2.39	-46.8	-58.0	3.6	8.45e-01	0	29	104	0	60	28565
2026-01-04 20:59:30.75	25.32	2.45	-46.8	-57.9	3.6	8.45e-01	0	29	104	0	60	28484
2026-01-04 20:59:31.75	25.26	2.51	-46.8	-58.0	3.6	8.45e-01	0	29	104	0	60	28752
2026-01-04 20:59:32.76	25.21	2.57	-46.8	-58.0	3.6	8.45e-01	0	29	104	0	60	28770
2026-01-04 20:59:33.77	25.15	2.63	-46.8	-57.7	3.6	8.45e-01	0	29	104	0	60	27726
2026-01-04 20:59:34.78	25.10	2.69	-46.7	-57.2	3.6	8.44e-01	0	29	104	0	60	26285
2026-01-04 20:59:35.79	25.04	2.75	-46.6	-56.3	3.6	8.45e-01	0	30	104	0	60	23513
2026-01-04 20:59:36.80	24.99	2.81	-46.7	-57.1	3.6	8.45e-01	0	30	104	0	60	25987
2026-01-04 20:59:37.81	24.93	2.87	-46.8	-57.4	3.6	8.44e-01	0	29	104	0	60	26778
2026-01-04 20:59:38.82	24.88	2.94	-46.8	-57.9	3.6	8.46e-01	0	30	104	0	60	28481
2026-01-04 20:59:39.83	24.82	3.00	-46.8	-57.5	3.6	8.44e-01	0	29	104	0	60	27033
2026-01-04 20:59:40.84	24.76	3.06	-46.6	-55.8	3.6	8.44e-01	0	30	104	0	60	22320
2026-01-04 20:59:41.85	24.71	3.12	-45.8	-51.6	6.1	5.57e-01	0	30	0	0	60	13753
2026-01-04 20:59:42.86	24.65	3.18	-45.1	-49.0	7.7	8.08e-02	0	30	0	7340032	60	10222
2026-01-04 20:59:43.87	24.59	3.24	-44.0	-46.9	9.7	2.39e-02	0	30	0	13631488	60	8034
2026-01-04 20:59:44.88	24.53	3.30	-43.2	-45.5	10.8	3.06e-03	0	29	0	20971520	60	6825
2026-01-04 20:59:45.89	24.48	3.37	-43.2	-45.6	11.4	1.57e-03	0	29	0	29360128	60	6852
2026-01-04 20:59:46.90	24.42	3.43	-44.0	-46.9	9.7	3.80e-04	0	29	0	35651584	58	8980
2026-01-04 20:59:47.91	24.36	3.49	-46.7	-53.6	3.7	5.41e-01	0	30	0	41943040	60	17304
2026-01-04 20:59:48.92	24.30	3.55	-44.0	-47.3	9.2	1.53e-03	0	30	104	41943040	58	9434
2026-01-04 20:59:49.93	24.24	3.62	-37.9	-38.7	20.5	2.00e-03	0	30	0	46137344	52	4928
2026-01-04 20:59:50.94	24.18	3.68	-45.9	-51.8	3.6	3.00e-01	0	30	104	52428800	54	19929
2026-01-04 20:59:51.95	24.12	3.74	-37.3	-38.1	6.1	7.42e-01	0	30	104	52428800	54	4121
2026-01-04 20:59:52.96	24.06	3.80	-35.2	-35.9	21.3	0.00e+00	0	30	0	53477376	44	5678
2026-01-04 20:59:53.97	24.00	3.87	-35.3	-36.0	21.2	0.00e+00	0	30	0	60817408	42	6447
2026-01-04 20:59:54.98	23.94	3.93	-35.6	-36.4	21.2	0.00e+00	0	30	0	68157440	42	6728
2026-01-04 20:59:55.98	23.88	3.99	-35.3	-36.1	21.2	0.00e+00	0	30	0	74448896	42	6492
2026-01-04 20:59:56.99	23.82	4.05	-34.3	-35.0	22.3	0.00e+00	0	30	0	81788928	42	5715
2026-01-04 20:59:58.00	23.76	4.12	-34.9	-35.6	21.9	0.00e+00	0	30	0	89128960	42	6147
2026-01-04 20:59:59.01	23.70	4.18	-35.0	-35.8	21.8	0.00e+00	0	30	0	96468992	42	6288
2026-01-04 21:00:00.02	23.64	4.24	-34.5	-35.2	22.0	0.00e+00	0	30	0	103809024	42	5892
2026-01-04 21:00:01.03	23.58	4.31	-35.4	-36.1	21.0	0.00e+00	0	30	0	111149056	42	6526
2026-01-04 21:00:02.04	23.52	4.37	-34.5	-35.2	22.0	0.00e+00	0	30	0	118489088	42	5876
2026-01-04 21:00:03.05	23.45	4.44	-34.7	-35.4	22.0	0.00e+00	0	30	0	125829120	42	5997
2026-01-04 21:00:04.06	23.39	4.50	-34.6	-35.3	22.1	0.00e+00	0	30	0	133169152	42	5936
2026-01-04 21:00:05.07	23.33	4.56	-35.1	-35.9	21.4	0.00e+00	0	30	0	140509184	42	6346
2026-01-04 21:00:06.08	23.26	4.63	-35.1	-35.8	21.7	0.00e+00	0	30	0	147849216	42	6300
2026-01-04 21:00:07.09	23.20	4.69	-34.1	-34.8	22.5	0.00e+00	0	30	0	155189248	42	5583
2026-01-04 21:00:08.09	23.14	4.76	-34.3	-35.0	22.4	0.00e+00	0	30	0	162529280	42	5725
2026-01-04 21:00:09.10	23.07	4.82	-34.3	-35.1	22.3	0.00e+00	0	30	0	169869312	42	5765
2026-01-04 21:00:10.11	23.01	4.88	-33.9	-34.6	22.8	0.00e+00	0	30	0	177209344	40	6173
2026-01-04 21:00:11.12	22.94	4.95	-33.9	-34.5	22.9	0.00e+00	0	30	0	184549376	40	6102
2026-01-04 21:00:12.13	22.88	5.01	-35.0	-35.7	21.7	0.00e+00	0	30	0	191889408	42	6226
2026-01-04 21:00:13.14	22.81	5.08	-33.8	-34.5	22.8	0.00e+00	0	30	0	198180864	42	5412
2026-01-04 21:00:14.15	22.75	5.14	-35.1	-35.9	21.6	0.00e+00	0	30	0	206569472	42	6347
2026-01-04 21:00:15.16	22.68	5.21	-35.0	-35.8	22.0	0.00e+00	0	30	0	213909504	42	6246
2026-01-04 21:00:16.17	22.61	5.27	-34.6	-35.4	22.3	0.00e+00	0	30	0	220200960	42	5977
2026-01-04 21:00:17.18	22.55	5.34	-34.9	-35.7	21.8	0.00e+00	0	30	0	227540992	42	6202
2026-01-04 21:00:18.19	22.48	5.41	-34.8	-35.5	21.9	0.00e+00	0	30	0	234881024	42	6082
2026-01-04 21:00:19.20	22.41	5.47	-34.5	-35.2	22.0	0.00e+00	0	30	0	242221056	42	5893
2026-01-04 21:00:20.21	22.34	5.54	-34.3	-35.0	22.5	0.00e+00	0	30	0	249561088	42	5710
2026-01-04 21:00:21.22	22.28	5.60	-33.8	-34.5	22.7	0.00e+00	0	30	0	256901120	40	6097
2026-01-04 21:00:22.23	22.21	5.67	-33.9	-34.6	22.9	0.00e+00	0	30	0	264241152	40	6127
2026-01-04 21:00:23.24	22.14	5.74	-34.0	-34.7	22.7	0.00e+00	0	30	0	271581184	40	6239
2026-01-04 21:00:24.24	22.07	5.80	-34.1	-34.8	22.5	0.00e+00	0	30	0	278921216	40	6317
2026-01-04 21:00:25.25	22.00	5.87	-34.1	-34.8	22.5	0.00e+00	0	30	0	286261248	40	6312
2026-01-04 21:00:26.26	21.93	5.93	-33.9	-34.6	22.8	0.00e+00	0	30	0	293601280	40	6127
2026-01-04 21:00:27.27	21.86	6.00	-33.9	-34.6	22.8	0.00e+00	0	30	0	300941312	40	6112
2026-01-04 21:00:28.28	21.79	6.07	-33.9	-34.6	22.8	0.00e+00	0	30	0	308281344	40	6133
2026-01-04 21:00:29.29	21.72	6.14	-34.1	-34.8	22.6	0.00e+00	0	30	0	315621376	40	6312
2026-01-04 21:00:30.30	21.65	6.20	-33.5	-34.2	23.3	0.00e+00	0	30	0	322961408	40	5848
2026-01-04 21:00:31.31	21.58	6.27	-33.3	-34.0	23.3	0.00e+00	0	30	0	330301440	40	5735
2026-01-04 21:00:32.32	21.51	6.34	-33.6	-34.3	22.9	0.00e+00	0	30	0	337641472	40	5960
2026-01-04 21:00:33.33	21.43	6.40	-33.8	-34.5	22.8	0.00e+00	0	30	0	344981504	40	6076
2026-01-04 21:00:34.34	21.36	6.47	-33.6	-34.3	23.0	0.00e+00	0	30	0	351272960	40	5949
2026-01-04 21:00:35.35	21.29	6.54	-33.7	-34.4	23.1	0.00e+00	0	30	0	359661568	40	5975
2026-01-04 21:00:36.36	21.22	6.61	-33.3	-34.0	23.4	0.00e+00	0	30	0	367001600	40	5730
2026-01-04 21:00:37.37	21.14	6.68	-33.4	-34.0	23.4	0.00e+00	0	30	0	373293056	40	5736
2026-01-04 21:00:38.38	21.07	6.74	-33.7	-34.4	23.2	0.00e+00	0	30	0	380633088	40	5971
2026-01-04 21:00:39.39	20.99	6.81	-33.3	-34.0	23.3	0.00e+00	0	30	0	387973120	40	5734
2026-01-04 21:00:40.40	20.92	6.88	-33.4	-34.0	23.4	0.00e+00	0	30	0	395313152	40	5747
2026-01-04 21:00:41.40	20.84	6.95	-33.7	-34.4	23.0	0.00e+00	0	30	0	402653184	40	5998
2026-01-04 21:00:42.42	20.77	7.02	-33.5	-34.2	23.2	0.00e+00	0	30	0	409993216	40	5850
2026-01-04 21:00:43.42	20.69	7.09	-33.2	-33.9	23.5	0.00e+00	0	30	0	417333248	40	5653
2026-01-04 21:00:44.43	20.62	7.16	-33.2	-33.9	23.3	0.00e+00	0	30	0	424673280	40	5651
2026-01-04 21:00:45.44	20.54	7.22	-33.3	-33.9	23.3	0.00e+00	0	30	0	432013312	40	5688
2026-01-04 21:00:46.45	20.46	7.29	-33.4	-34.1	23.3	0.00e+00	0	30	0	439353344	40	5808
2026-01-04 21:00:47.46	20.39	7.36	-33.9	-34.7	22.8	0.00e+00	0	30	0	446693376	40	6186
2026-01-04 21:00:48.47	20.31	7.43	-33.7	-34.3	23.2	0.00e+00	0	30	0	454033408	40	5958
2026-01-04 21:00:49.48	20.23	7.50	-32.9	-33.5	23.9	0.00e+00	0	30	0	461373440	40	5424
2026-01-04 21:00:50.49	20.15	7.57	-33.3	-34.0	23.5	0.00e+00	0	30	0	468713472	38	6406
2026-01-04 21:00:51.50	20.07	7.64	-33.3	-34.0	23.5	0.00e+00	0	30	0	476053504	38	6410
2026-01-04 21:00:52.51	19.99	7.71	-33.7	-34.3	23.3	0.00e+00	0	30	0	483393536	38	6680
2026-01-04 21:00:53.52	19.91	7.78	-33.2	-33.9	23.7	0.00e+00	0	30	0	490733568	38	6359
2026-01-04 21:00:54.53	19.83	7.85	-33.2	-33.9	23.6	0.00e+00	0	30	0	497025024	38	6357
2026-01-04 21:00:55.54	19.75	7.92	-33.0	-33.7	23.9	0.00e+00	0	30	0	504365056	38	6190
2026-01-04 21:00:56.55	19.67	7.99	-33.3	-34.0	23.5	0.00e+00	0	30	0	512753664	38	6436
2026-01-04 21:00:57.56	19.59	8.07	-33.3	-34.0	23.6	0.00e+00	0	30	0	519045120	38	6409
2026-01-04 21:00:58.57	19.51	8.14	-33.3	-33.9	23.5	0.00e+00	0	30	0	526385152	38	6373
2026-01-04 21:00:59.58	19.43	8.21	-33.4	-34.0	23.5	0.00e+00	0	30	0	533725184	38	6461
2026-01-04 21:01:00.59	19.35	8.28	-33.5	-34.2	23.4	0.00e+00	0	30	0	541065216	38	6597
2026-01-04 21:01:01.60	19.26	8.35	-33.4	-34.1	23.5	0.00e+00	0	30	0	548405248	38	6526
2026-01-04 21:01:02.61	19.18	8.42	-33.4	-34.1	23.6	0.00e+00	0	30	0	555745280	38	6507
2026-01-04 21:01:03.62	19.10	8.49	-33.2	-33.9	23.8	0.00e+00	0	30	0	563085312	38	6343
2026-01-04 21:01:04.62	19.01	8.56	-33.3	-33.9	23.7	0.00e+00	0	30	0	570425344	38	6386
2026-01-04 21:01:05.63	18.93	8.64	-32.8	-33.5	24.2	0.00e+00	0	30	0	577765376	38	6063
2026-01-04 21:01:06.64	18.84	8.71	-32.9	-33.5	24.1	0.00e+00	0	30	0	585105408	38	6094
2026-01-04 21:01:07.65	18.76	8.78	-32.8	-33.4	24.1	0.00e+00	0	30	0	592445440	38	6015
2026-01-04 21:01:08.66	18.67	8.85	-32.7	-33.3	24.1	0.00e+00	0	30	0	599785472	38	5948
2026-01-04 21:01:09.67	18.58	8.93	-32.6	-33.3	24.4	0.00e+00	0	30	0	607125504	38	5905
2026-01-04 21:01:10.68	18.50	9.00	-32.8	-33.4	24.2	0.00e+00	0	30	0	614465536	38	6014
2026-01-04 21:01:11.69	18.41	9.07	-32.9	-33.6	24.2	0.00e+00	0	30	0	621805568	38	6111
2026-01-04 21:01:12.70	18.32	9.14	-32.7	-33.3	24.2	0.00e+00	0	30	0	629145600	38	5952
2026-01-04 21:01:13.71	18.23	9.22	-32.9	-33.6	24.1	0.00e+00	0	30	0	636485632	38	6113
2026-01-04 21:01:14.72	18.14	9.29	-32.8	-33.5	24.2	0.00e+00	0	30	0	643825664	38	6040
2026-01-04 21:01:15.73	18.06	9.36	-32.7	-33.3	24.3	0.00e+00	0	30	0	650117120	38	5935
2026-01-04 21:01:16.74	17.97	9.44	-32.7	-33.3	24.3	0.00e+00	0	30	0	657457152	38	5956
2026-01-04 21:01:17.75	17.88	9.51	-32.6	-33.2	24.5	0.00e+00	0	30	0	665845760	38	5894
2026-01-04 21:01:18.76	17.79	9.58	-32.9	-33.6	24.3	0.00e+00	0	30	0	672137216	38	6128
2026-01-04 21:01:19.77	17.69	9.66	-32.9	-33.5	24.3	0.00e+00	0	30	0	679477248	38	6090
2026-01-04 21:01:20.78	17.60	9.73	-32.8	-33.4	24.3	0.00e+00	0	30	0	686817280	38	5999
2026-01-04 21:01:21.79	17.51	9.81	-32.9	-33.6	24.2	0.00e+00	0	30	0	694157312	38	6111
2026-01-04 21:01:22.79	17.42	9.88	-32.9	-33.5	24.3	0.00e+00	0	30	0	701497344	38	6074
2026-01-04 21:01:23.80	17.33	9.96	-32.8	-33.4	24.4	0.00e+00	0	30	0	708837376	38	6021
2026-01-04 21:01:24.81	17.23	10.03	-32.7	-33.3	24.5	0.00e+00	0	30	0	716177408	38	5947
2026-01-04 21:01:25.82	17.14	10.11	-32.7	-33.3	24.5	0.00e+00	0	30	0	723517440	38	5945
2026-01-04 21:01:26.83	17.04	10.18	-32.7	-33.3	24.4	0.00e+00	0	30	0	730857472	38	5955
2026-01-04 21:01:27.83	16.95	10.25	-32.8	-33.4	24.4	0.00e+00	0	30	0	738197504	38	6024
2026-01-04 21:01:28.84	16.85	10.33	-32.9	-33.6	24.2	0.00e+00	0	30	0	745537536	38	6132
2026-01-04 21:01:29.85	16.76	10.41	-32.7	-33.3	24.4	0.00e+00	0	30	0	752877568	38	5946
2026-01-04 21:01:30.86	16.66	10.48	-32.8	-33.5	24.3	0.00e+00	0	30	0	760217600	38	6040
2026-01-04 21:01:31.87	16.56	10.56	-32.9	-33.6	24.4	0.00e+00	0	30	0	767557632	38	6112
2026-01-04 21:01:32.88	16.47	10.63	-32.8	-33.5	24.3	0.00e+00	0	30	0	773849088	38	6058
2026-01-04 21:01:33.89	16.37	10.71	-32.6	-33.3	24.5	0.00e+00	0	30	0	781189120	38	5912
2026-01-04 21:01:34.90	16.27	10.79	-32.6	-33.2	24.6	0.00e+00	0	30	0	789577728	38	5878
2026-01-04 21:01:35.92	16.17	10.86	-32.7	-33.3	24.6	0.00e+00	0	30	0	795869184	38	5933
2026-01-04 21:01:36.93	16.07	10.94	-32.4	-33.0	24.8	0.00e+00	0	30	0	803209216	38	5752
2026-01-04 21:01:37.94	15.97	11.02	-32.5	-33.1	24.7	0.00e+00	0	30	0	810549248	38	5798
2026-01-04 21:01:38.94	15.87	11.09	-32.6	-33.2	24.8	0.00e+00	0	30	0	817889280	38	5856
2026-01-04 21:01:39.96	15.77	11.17	-32.1	-32.7	25.1	0.00e+00	0	30	0	825229312	38	5545
2026-01-04 21:01:40.96	15.67	11.25	-32.1	-32.7	25.0	0.00e+00	0	30	0	832569344	38	5566
2026-01-04 21:01:41.98	15.56	11.32	-32.1	-32.8	25.0	0.00e+00	0	30	0	839909376	38	5571
2026-01-04 21:01:42.98	15.46	11.40	-32.2	-32.8	25.0	0.00e+00	0	30	0	847249408	38	5610
2026-01-04 21:01:43.99	15.36	11.48	-32.2	-32.9	25.0	0.00e+00	0	30	0	854589440	38	5635
2026-01-04 21:01:45.00	15.25	11.56	-32.4	-33.0	24.9	0.00e+00	0	30	0	861929472	38	5761
2026-01-04 21:01:46.01	15.15	11.63	-32.0	-32.6	25.2	0.00e+00	0	30	0	869269504	38	5473
2026-01-04 21:01:47.02	15.04	11.71	-32.1	-32.8	25.1	0.00e+00	0	30	0	876609536	38	5572
2026-01-04 21:01:48.03	14.94	11.79	-32.0	-32.6	25.2	0.00e+00	0	30	0	883949568	38	5498
2026-01-04 21:01:49.04	14.83	11.87	-32.0	-32.6	25.2	0.00e+00	0	30	0	891289600	38	5467
2026-01-04 21:01:50.05	14.72	11.95	-32.0	-32.6	25.3	0.00e+00	0	30	0	898629632	38	5446
2026-01-04 21:01:51.06	14.61	12.03	-31.8	-32.5	25.3	0.00e+00	0	30	0	905969664	36	6036
2026-01-04 21:01:52.07	14.51	12.10	-32.0	-32.6	25.2	0.00e+00	0	30	0	913309696	36	6146
2026-01-04 21:01:53.08	14.40	12.18	-31.9	-32.5	25.4	0.00e+00	0	30	0	920649728	36	6075
2026-01-04 21:01:54.09	14.29	12.26	-31.9	-32.6	25.3	0.00e+00	0	30	0	926941184	36	6105
2026-01-04 21:01:55.10	14.18	12.34	-31.9	-32.5	25.4	0.00e+00	0	30	0	935329792	36	6095
2026-01-04 21:01:56.11	14.07	12.42	-31.9	-32.5	25.2	0.00e+00	0	30	0	942669824	36	6061
2026-01-04 21:01:57.12	13.96	12.50	-32.0	-32.7	25.2	0.00e+00	0	30	0	948961280	36	6176
2026-01-04 21:01:58.13	13.84	12.58	-32.1	-32.7	25.1	0.00e+00	0	30	0	956301312	36	6227
2026-01-04 21:01:59.14	13.73	12.66	-32.0	-32.6	25.2	0.00e+00	0	30	0	963641344	36	6130
2026-01-04 21:02:00.15	13.62	12.74	-31.8	-32.4	25.4	0.00e+00	0	30	0	970981376	36	6017
2026-01-04 21:02:01.16	13.50	12.82	-31.9	-32.5	25.3	0.00e+00	0	30	0	978321408	36	6068
2026-01-04 21:02:02.17	13.39	12.90	-31.9	-32.5	25.4	0.00e+00	0	30	0	985661440	36	6079
2026-01-04 21:02:03.18	13.27	12.98	-31.8	-32.4	25.4	0.00e+00	0	30	0	993001472	36	5974
2026-01-04 21:02:04.18	13.16	13.06	-31.8	-32.5	25.4	0.00e+00	0	30	0	1000341504	36	6035
2026-01-04 21:02:05.19	13.04	13.14	-31.8	-32.4	25.4	0.00e+00	0	30	0	1007681536	36	6004
2026-01-04 21:02:06.20	12.93	13.22	-31.9	-32.5	25.2	0.00e+00	0	30	0	1015021568	36	6059
2026-01-04 21:02:07.21	12.81	13.30	-31.7	-32.3	25.5	0.00e+00	0	30	0	1022361600	36	5920
2026-01-04 21:02:08.22	12.69	13.39	-31.7	-32.3	25.4	0.00e+00	0	30	0	1029701632	36	5962
2026-01-04 21:02:09.23	12.57	13.47	-31.6	-32.2	25.6	0.00e+00	0	30	0	1037041664	36	5869
2026-01-04 21:02:10.24	12.45	13.55	-31.5	-32.1	25.7	0.00e+00	0	30	0	1044381696	36	5817
2026-01-04 21:02:11.26	12.33	13.63	-31.6	-32.2	25.7	0.00e+00	0	30	0	1051721728	36	5877
2026-01-04 21:02:12.26	12.21	13.71	-31.7	-32.3	25.4	0.00e+00	0	30	0	1059061760	36	5964
2026-01-04 21:02:13.27	12.09	13.79	-31.5	-32.1	25.7	0.00e+00	0	30	0	1066401792	36	5805
2026-01-04 21:02:14.28	11.96	13.88	-31.5	-32.1	25.7	0.00e+00	0	30	0	1072693248	36	5801
2026-01-04 21:02:15.29	11.84	13.96	-31.4	-32.0	25.8	0.00e+00	0	30	0	1080033280	36	5710
2026-01-04 21:02:16.30	11.72	14.04	-31.2	-31.8	25.7	0.00e+00	0	30	0	1088421888	36	5606
2026-01-04 21:02:17.31	11.59	14.12	-31.4	-32.0	25.8	0.00e+00	0	30	0	1094713344	36	5737
2026-01-04 21:02:18.32	11.47	14.21	-31.2	-31.8	26.0	0.00e+00	0	30	0	1102053376	36	5618
2026-01-04 21:02:19.33	11.34	14.29	-31.5	-32.1	25.7	0.00e+00	0	30	0	1109393408	36	5810
2026-01-04 21:02:20.34	11.21	14.37	-31.4	-32.0	25.8	0.00e+00	0	30	0	1116733440	36	5709
2026-01-04 21:02:21.35	11.09	14.45	-31.6	-32.2	25.6	0.00e+00	0	30	0	1124073472	36	5848
2026-01-04 21:02:22.36	10.96	14.54	-31.2	-31.8	25.9	0.00e+00	0	30	0	1131413504	36	5608
2026-01-04 21:02:23.37	10.83	14.62	-31.2	-31.9	25.9	0.00e+00	0	30	0	1138753536	36	5640
2026-01-04 21:02:24.38	10.70	14.70	-31.4	-32.0	25.7	0.00e+00	0	30	0	1146093568	36	5730
2026-01-04 21:02:25.39	10.57	14.79	-31.6	-32.2	25.8	0.00e+00	0	30	0	1153433600	36	5842
2026-01-04 21:02:26.40	10.44	14.87	-31.3	-31.9	25.8	0.00e+00	0	30	0	1160773632	36	5638
2026-01-04 21:02:27.41	10.31	14.96	-31.2	-31.8	26.0	0.00e+00	0	30	0	1168113664	36	5613
2026-01-04 21:02:28.42	10.17	15.04	-31.4	-32.0	25.8	0.00e+00	0	30	0	1175453696	36	5719
2026-01-04 21:02:29.42	10.04	15.12	-31.5	-32.1	25.9	0.00e+00	0	30	0	1182793728	36	5783
2026-01-04 21:02:30.44	9.90	15.21	-31.4	-32.0	25.8	0.00e+00	0	30	0	1190133760	36	5723
2026-01-04 21:02:31.44	9.77	15.29	-31.5	-32.1	25.7	0.00e+00	0	30	0	1197473792	36	5824
2026-01-04 21:02:32.46	9.63	15.38	-31.5	-32.1	25.6	0.00e+00	0	30	0	1204813824	36	5820
2026-01-04 21:02:33.47	9.50	15.46	-31.5	-32.1	25.8	0.00e+00	0	30	0	1212153856	36	5776
2026-01-04 21:02:34.48	9.36	15.55	-31.6	-32.2	25.8	0.00e+00	0	30	0	1219493888	36	5840
2026-01-04 21:02:35.49	9.22	15.63	-31.5	-32.1	25.6	0.00e+00	0	30	0	1225785344	36	5772
2026-01-04 21:02:36.50	9.08	15.72	-31.4	-32.0	25.8	0.00e+00	0	30	0	1234173952	36	5735
2026-01-04 21:02:37.50	8.94	15.80	-31.4	-32.0	25.8	0.00e+00	0	30	0	1241513984	36	5723
2026-01-04 21:02:38.51	8.80	15.89	-31.3	-31.9	25.8	0.00e+00	0	30	0	1247805440	36	5662
2026-01-04 21:02:39.52	8.66	15.97	-31.2	-31.8	25.9	0.00e+00	0	30	0	1255145472	36	5580
2026-01-04 21:02:40.53	8.52	16.06	-31.1	-31.7	26.1	0.00e+00	0	30	0	1262485504	36	5516
2026-01-04 21:02:41.54	8.38	16.14	-31.1	-31.7	26.2	0.00e+00	0	30	0	1269825536	36	5504
2026-01-04 21:02:42.55	8.23	16.23	-30.8	-31.5	26.2	0.00e+00	0	30	0	1277165568	34	6043
2026-01-04 21:02:43.56	8.09	16.31	-30.7	-31.3	26.4	0.00e+00	0	30	0	1284505600	34	5911
2026-01-04 21:02:44.57	7.94	16.40	-30.6	-31.2	26.4	0.00e+00	0	30	0	1291845632	34	5876
2026-01-04 21:02:45.58	7.79	16.49	-30.5	-31.1	26.6	0.00e+00	0	30	0	1299185664	34	5775
2026-01-04 21:02:46.59	7.65	16.57	-30.5	-31.1	26.5	0.00e+00	0	30	0	1306525696	34	5801
2026-01-04 21:02:47.60	7.50	16.66	-30.3	-30.9	26.5	0.00e+00	0	30	0	1313865728	34	5691
2026-01-04 21:02:48.61	7.35	16.75	-30.4	-31.0	26.6	0.00e+00	0	30	0	1321205760	34	5737
2026-01-04 21:02:49.62	7.20	16.83	-30.4	-31.0	26.6	0.00e+00	0	30	0	1328545792	34	5720
2026-01-04 21:02:50.62	7.05	16.92	-30.6	-31.1	26.5	0.00e+00	0	30	0	1335885824	34	5826
2026-01-04 21:02:51.63	6.90	17.00	-30.7	-31.3	26.3	0.00e+00	0	30	0	1343225856	34	5907
2026-01-04 21:02:52.64	6.74	17.09	-30.8	-31.4	26.3	0.00e+00	0	30	0	1350565888	34	5996
2026-01-04 21:02:53.65	6.59	17.18	-30.8	-31.4	26.2	0.00e+00	0	30	0	1357905920	34	5990
2026-01-04 21:02:54.65	6.44	17.26	-31.1	-31.7	26.2	0.00e+00	0	30	0	1365245952	34	6210
2026-01-04 21:02:55.66	6.28	17.35	-30.9	-31.5	26.3	0.00e+00	0	30	0	1372585984	34	6071
2026-01-04 21:02:56.67	6.13	17.44	-30.8	-31.4	26.2	0.00e+00	0	30	0	1378877440	34	5990
2026-01-04 21:02:57.68	5.97	17.53	-31.0	-31.6	26.3	0.00e+00	0	30	0	1386217472	34	6107
2026-01-04 21:02:58.69	5.81	17.61	-30.8	-31.4	26.4	0.00e+00	0	30	0	1393557504	34	5970
2026-01-04 21:02:59.70	5.65	17.70	-30.8	-31.4	26.3	0.00e+00	0	30	0	1400897536	34	6011
2026-01-04 21:03:00.70	5.49	17.79	-30.9	-31.5	26.3	0.00e+00	0	30	0	1408237568	34	6072
2026-01-04 21:03:01.71	5.33	17.87	-30.8	-31.4	26.3	0.00e+00	0	30	0	1415577600	34	5969
2026-01-04 21:03:02.73	5.17	17.96	-30.5	-31.0	26.6	0.00e+00	0	30	0	1422917632	34	5761
2026-01-04 21:03:03.74	5.00	18.05	-30.3	-30.9	26.8	0.00e+00	0	30	0	1430257664	34	5647
2026-01-04 21:03:04.74	4.84	18.14	-30.4	-31.0	26.7	0.00e+00	0	30	0	1437597696	34	5744
2026-01-04 21:03:05.75	4.68	18.23	-30.3	-30.9	26.7	0.00e+00	0	30	0	1444937728	34	5660
2026-01-04 21:03:06.76	4.51	18.31	-30.2	-30.8	26.7	0.00e+00	0	30	0	1452277760	34	5613
2026-01-04 21:03:07.77	4.34	18.40	-30.3	-30.9	26.8	0.00e+00	0	30	0	1459617792	34	5650
2026-01-04 21:03:08.78	4.18	18.49	-30.4	-31.0	26.7	0.00e+00	0	30	0	1466957824	34	5735
2026-01-04 21:03:09.79	4.01	18.58	-30.5	-31.1	26.7	0.00e+00	0	30	0	1474297856	34	5815
2026-01-04 21:03:10.80	3.84	18.67	-30.4	-31.0	26.7	0.00e+00	0	30	0	1481637888	34	5699
2026-01-04 21:03:11.81	3.67	18.75	-30.4	-31.0	26.6	0.00e+00	0	30	0	1488977920	34	5757
2026-01-04 21:03:12.82	3.49	18.84	-30.5	-31.1	26.6	0.00e+00	0	30	0	1496317952	34	5791
2026-01-04 21:03:13.83	3.32	18.93	-30.4	-31.0	26.8	0.00e+00	0	30	0	1502609408	34	5739
2026-01-04 21:03:14.84	3.15	19.02	-30.4	-31.0	26.6	0.00e+00	0	30	0	1509949440	34	5748
2026-01-04 21:03:15.85	2.97	19.11	-30.4	-31.0	26.7	0.00e+00	0	30	0	1518338048	34	5715
2026-01-04 21:03:16.86	2.80	19.20	-30.4	-31.0	26.8	0.00e+00	0	30	0	1524629504	34	5706
2026-01-04 21:03:17.87	2.62	19.28	-30.3	-30.9	26.8	0.00e+00	0	30	0	1531969536	34	5664
2026-01-04 21:03:18.88	2.44	19.37	-30.3	-30.8	26.9	0.00e+00	0	30	0	1539309568	34	5628
2026-01-04 21:03:19.89	2.26	19.46	-30.3	-30.9	26.7	0.00e+00	0	30	0	1546649600	34	5651
2026-01-04 21:03:20.90	2.08	19.55	-30.3	-30.9	26.8	0.00e+00	0	30	0	1553989632	34	5658
2026-01-04 21:03:21.91	1.90	19.64	-30.1	-30.7	27.0	0.00e+00	0	30	0	1561329664	34	5527
2026-01-04 21:03:22.92	1.72	19.73	-30.1	-30.6	27.0	0.00e+00	0	30	0	1568669696	34	5487
2026-01-04 21:03:23.92	1.53	19.81	-30.0	-30.6	27.0	0.00e+00	0	30	0	1576009728	34	5492
2026-01-04 21:03:24.93	1.35	19.90	-30.0	-30.6	27.0	0.00e+00	0	30	0	1583349760	34	5454
2026-01-04 21:03:25.94	1.16	19.99	-30.2	-30.8	26.8	0.00e+00	0	30	0	1590689792	34	5583
2026-01-04 21:03:26.95	0.98	20.08	-30.2	-30.8	26.7	0.00e+00	0	30	0	1598029824	34	5570
2026-01-04 21:03:27.96	0.79	20.17	-30.2	-30.8	26.8	0.00e+00	0	30	0	1605369856	34	5577
2026-01-04 21:03:28.97	0.60	20.26	-30.2	-30.8	26.9	0.00e+00	0	30	0	1612709888	34	5577
2026-01-04 21:03:29.98	0.41	20.35	-30.1	-30.7	26.8	0.00e+00	0	30	0	1620049920	34	5514
2026-01-04 21:03:30.99	0.22	20.43	-30.2	-30.7	26.9	0.00e+00	0	30	0	1627389952	34	5564
2026-01-04 21:03:32.00	0.03	20.52	-30.3	-30.9	26.7	0.00e+00	0	30	0	1634729984	34	5642
2026-01-04 21:03:33.01	359.83	20.61	-30.4	-31.0	26.6	0.00e+00	0	30	0	1642070016	34	5725
2026-01-04 21:03:34.02	359.64	20.70	-30.4	-31.0	26.7	0.00e+00	0	30	0	1649410048	34	5733
2026-01-04 21:03:35.03	359.44	20.79	-30.4	-31.0	26.7	0.00e+00	0	30	0	1655701504	34	5734
2026-01-04 21:03:36.04	359.25	20.88	-30.3	-30.9	26.7	0.00e+00	0	30	0	1663041536	34	5686
2026-01-04 21:03:37.05	359.05	20.96	-30.4	-31.0	26.7	0.00e+00	0	30	0	1671430144	34	5729
2026-01-04 21:03:38.06	358.85	21.05	-30.5	-31.1	26.6	0.00e+00	0	30	0	1677721600	34	5807
2026-01-04 21:03:39.06	358.65	21.14	-30.5	-31.1	26.5	0.00e+00	0	30	0	1685061632	34	5803
2026-01-04 21:03:40.07	358.45	21.23	-30.7	-31.2	26.5	0.00e+00	0	30	0	1692401664	34	5892
2026-01-04 21:03:41.08	358.25	21.32	-30.4	-31.0	26.6	0.00e+00	0	30	0	1699741696	34	5721
2026-01-04 21:03:42.09	358.04	21.40	-30.3	-30.9	26.7	0.00e+00	0	30	0	1707081728	34	5671
2026-01-04 21:03:43.10	357.84	21.49	-30.2	-30.7	26.9	0.00e+00	0	30	0	1714421760	34	5556
2026-01-04 21:03:44.11	357.63	21.58	-30.1	-30.7	26.9	0.00e+00	0	30	0	1721761792	34	5521
2026-01-04 21:03:45.12	357.42	21.67	-30.1	-30.7	27.0	0.00e+00	0	30	0	1729101824	34	5548
2026-01-04 21:03:46.13	357.22	21.75	-30.1	-30.7	26.8	0.00e+00	0	30	0	1736441856	34	5531
2026-01-04 21:03:47.14	357.01	21.84	-30.2	-30.8	26.8	0.00e+00	0	30	0	1743781888	34	5617
2026-01-04 21:03:48.15	356.80	21.93	-30.1	-30.7	26.6	0.00e+00	0	30	0	1751121920	34	5515
2026-01-04 21:03:49.16	356.58	22.02	-30.2	-30.8	26.7	0.00e+00	0	30	0	1758461952	34	5627
2026-01-04 21:03:50.17	356.37	22.10	-30.2	-30.8	26.6	0.00e+00	0	30	0	1765801984	34	5598
2026-01-04 21:03:51.18	356.16	22.19	-30.2	-30.8	26.7	0.00e+00	0	30	0	1773142016	34	5586
2026-01-04 21:03:52.19	355.94	22.28	-30.2	-30.8	26.8	0.00e+00	0	30	0	1779433472	34	5585
2026-01-04 21:03:53.20	355.72	22.36	-30.3	-30.9	26.7	0.00e+00	0	30	0	1787822080	34	5654
2026-01-04 21:03:54.21	355.50	22.45	-30.5	-31.1	26.7	0.00e+00	0	30	0	1795162112	34	5790
2026-01-04 21:03:55.22	355.28	22.54	-30.3	-30.8	26.8	0.00e+00	0	30	0	1801453568	34	5626
2026-01-04 21:03:56.23	355.06	22.62	-30.1	-30.7	26.9	0.00e+00	0	30	0	1808793600	34	5547
2026-01-04 21:03:57.24	354.84	22.71	-30.1	-30.7	27.0	0.00e+00	0	30	0	1816133632	34	5506
2026-01-04 21:03:58.25	354.62	22.79	-30.1	-30.7	26.9	0.00e+00	0	30	0	1823473664	34	5539
2026-01-04 21:03:59.26	354.39	22.88	-29.8	-30.4	27.2	0.00e+00	0	30	0	1830813696	34	5363
2026-01-04 21:04:00.26	354.17	22.96	-29.9	-30.5	27.2	0.00e+00	0	30	0	1838153728	32	6036
2026-01-04 21:04:01.27	353.94	23.05	-29.7	-30.3	27.4	0.00e+00	0	30	0	1845493760	32	5916
2026-01-04 21:04:02.28	353.71	23.13	-29.6	-30.2	27.5	0.00e+00	0	30	0	1852833792	32	5850
2026-01-04 21:04:03.29	353.49	23.22	-29.5	-30.1	27.5	0.00e+00	0	30	0	1860173824	32	5803
2026-01-04 21:04:04.30	353.25	23.30	-29.5	-30.1	27.5	0.00e+00	0	30	0	1867513856	32	5795
2026-01-04 21:04:05.31	353.02	23.39	-29.6	-30.1	27.4	0.00e+00	0	30	0	1874853888	32	5821
2026-01-04 21:04:06.32	352.79	23.47	-29.5	-30.0	27.5	0.00e+00	0	30	0	1882193920	32	5752
2026-01-04 21:04:07.33	352.55	23.56	-29.5	-30.1	27.4	0.00e+00	0	30	0	1889533952	32	5786
2026-01-04 21:04:08.34	352.32	23.64	-29.5	-30.0	27.5	0.00e+00	0	30	0	1896873984	32	5758
2026-01-04 21:04:09.34	352.08	23.72	-29.5	-30.1	27.5	0.00e+00	0	30	0	1904214016	32	5763
2026-01-04 21:04:10.35	351.85	23.81	-29.4	-30.0	27.5	0.00e+00	0	30	0	1911554048	32	5727
2026-01-04 21:04:11.36	351.61	23.89	-29.6	-30.2	27.4	0.00e+00	0	30	0	1918894080	32	5856
2026-01-04 21:04:12.37	351.36	23.97	-29.6	-30.2	27.4	0.00e+00	0	30	0	1926234112	32	5871
2026-01-04 21:04:13.38	351.12	24.05	-29.6	-30.2	27.3	0.00e+00	0	30	0	1932525568	32	5834
2026-01-04 21:04:14.39	350.88	24.13	-29.6	-30.2	27.4	0.00e+00	0	30	0	1940914176	32	5872
2026-01-04 21:04:15.40	350.63	24.22	-29.4	-30.0	27.5	0.00e+00	0	30	0	1948254208	32	5707
2026-01-04 21:04:16.41	350.39	24.30	-29.4	-30.0	27.6	0.00e+00	0	30	0	1954545664	32	5711
2026-01-04 21:04:17.42	350.14	24.38	-29.4	-29.9	27.6	0.00e+00	0	30	0	1961885696	32	5690
2026-01-04 21:04:18.43	349.89	24.46	-29.4	-30.0	27.6	0.00e+00	0	30	0	1969225728	32	5723
2026-01-04 21:04:19.44	349.64	24.54	-29.3	-29.9	27.6	0.00e+00	0	30	0	1976565760	32	5678
2026-01-04 21:04:20.45	349.39	24.62	-29.5	-30.1	27.4	0.00e+00	0	30	0	1983905792	32	5815
2026-01-04 21:04:21.46	349.14	24.70	-29.4	-29.9	27.7	0.00e+00	0	30	0	1991245824	32	5692
2026-01-04 21:04:22.46	348.89	24.78	-29.3	-29.9	27.6	0.00e+00	0	30	0	1998585856	32	5658
2026-01-04 21:04:23.47	348.63	24.86	-29.3	-29.9	27.6	0.00e+00	0	30	0	2005925888	32	5659
2026-01-04 21:04:24.48	348.37	24.93	-29.4	-30.0	27.5	0.00e+00	0	30	0	2013265920	32	5745
2026-01-04 21:04:25.49	348.12	25.01	-29.7	-30.3	27.4	0.00e+00	0	30	0	2020605952	32	5909
2026-01-04 21:04:26.50	347.86	25.09	-29.4	-30.0	27.5	0.00e+00	0	30	0	2027945984	32	5748
2026-01-04 21:04:27.51	347.60	25.17	-29.4	-30.0	27.5	0.00e+00	0	30	0	2035286016	32	5703
2026-01-04 21:04:28.52	347.34	25.24	-29.7	-30.2	27.5	0.00e+00	0	30	0	2042626048	32	5891
2026-01-04 21:04:29.53	347.07	25.32	-29.7	-30.2	27.3	0.00e+00	0	30	0	2049966080	32	5881
2026-01-04 21:04:30.54	346.81	25.40	-30.0	-30.6	27.2	0.00e+00	0	30	0	2056257536	32	6137
2026-01-04 21:04:31.55	346.54	25.47	-29.8	-30.4	27.2	0.00e+00	0	30	0	2064646144	32	6012
2026-01-04 21:04:32.56	346.28	25.55	-30.2	-30.8	26.9	0.00e+00	0	30	0	2071986176	32	6278
2026-01-04 21:04:33.57	346.01	25.62	-30.5	-31.1	26.8	0.00e+00	0	30	0	2078277632	34	5801
2026-01-04 21:04:34.58	345.74	25.70	-30.1	-30.7	27.1	0.00e+00	0	30	0	2085617664	34	5513
2026-01-04 21:04:35.58	345.47	25.77	-29.8	-30.4	27.2	0.00e+00	0	30	0	2092957696	34	5350
2026-01-04 21:04:36.59	345.20	25.84	-29.7	-30.3	27.4	0.00e+00	0	30	0	2100297728	32	5917
2026-01-04 21:04:37.60	344.93	25.91	-29.7	-30.3	27.3	0.00e+00	0	30	0	2107637760	32	5917
2026-01-04 21:04:38.61	344.65	25.99	-29.7	-30.3	27.3	0.00e+00	0	30	0	2114977792	32	5908
2026-01-04 21:04:39.62	344.38	26.06	-30.0	-30.6	27.3	0.00e+00	0	30	0	2122317824	32	6113
2026-01-04 21:04:40.63	344.10	26.13	-29.6	-30.2	27.5	0.00e+00	0	30	0	2129657856	32	5874
2026-01-04 21:04:41.64	343.82	26.20	-29.3	-29.8	27.7	0.00e+00	0	30	0	2136997888	32	5620
2026-01-04 21:04:42.65	343.54	26.27	-29.3	-29.9	27.7	0.00e+00	0	30	0	2144337920	32	5692
2026-01-04 21:04:43.66	343.26	26.34	-29.6	-30.1	27.5	0.00e+00	0	30	0	2151677952	32	5823
2026-01-04 21:04:44.67	342.98	26.41	-29.6	-30.2	27.4	0.00e+00	0	30	0	2159017984	32	5848
2026-01-04 21:04:45.68	342.70	26.47	-29.8	-30.3	27.2	0.00e+00	0	30	0	2166358016	32	5960
2026-01-04 21:04:46.69	342.41	26.54	-29.5	-30.0	27.5	0.00e+00	0	30	0	2173698048	32	5750
2026-01-04 21:04:47.70	342.13	26.61	-29.5	-30.1	27.5	0.00e+00	0	30	0	2181038080	32	5811
2026-01-04 21:04:48.71	341.84	26.67	-29.5	-30.1	27.5	0.00e+00	0	30	0	2188378112	32	5780
2026-01-04 21:04:49.72	341.55	26.74	-29.6	-30.2	27.5	0.00e+00	0	30	0	2195718144	32	5848
2026-01-04 21:04:50.73	341.26	26.80	-29.8	-30.4	27.3	0.00e+00	0	30	0	2203058176	32	5975
2026-01-04 21:04:51.74	340.97	26.87	-29.7	-30.3	27.4	0.00e+00	0	31	0	2209349632	32	5922
2026-01-04 21:04:52.75	340.68	26.93	-29.8	-30.3	27.4	0.00e+00	0	30	0	2217738240	32	5955
2026-01-04 21:04:53.76	340.39	26.99	-29.5	-30.1	27.6	0.00e+00	0	31	0	2225078272	32	5784
2026-01-04 21:04:54.77	340.09	27.06	-29.7	-30.3	27.4	0.00e+00	0	30	0	2231369728	32	5945
2026-01-04 21:04:55.78	339.80	27.12	-29.8	-30.4	27.3	0.00e+00	0	30	0	2238709760	32	6006
2026-01-04 21:04:56.79	339.50	27.18	-29.6	-30.2	27.5	0.00e+00	0	30	0	2246049792	32	5870
2026-01-04 21:04:57.80	339.21	27.24	-29.8	-30.4	27.4	0.00e+00	0	30	0	2253389824	32	5975
2026-01-04 21:04:58.81	338.91	27.30	-30.3	-30.9	27.0	0.00e+00	0	30	0	2260729856	32	6328
2026-01-04 21:04:59.82	338.61	27.36	-29.9	-30.5	27.1	0.00e+00	0	30	0	2268069888	32	6040
2026-01-04 21:05:00.82	338.31	27.41	-30.1	-30.7	27.0	0.00e+00	0	30	0	2275409920	32	6234
2026-01-04 21:05:01.83	338.01	27.47	-29.8	-30.4	27.1	0.00e+00	0	30	0	2282749952	32	6025
2026-01-04 21:05:02.84	337.71	27.53	-29.9	-30.4	27.3	0.00e+00	0	30	0	2290089984	32	6029
2026-01-04 21:05:03.86	337.40	27.58	-29.4	-30.0	27.7	0.00e+00	0	31	0	2297430016	32	5697
2026-01-04 21:05:04.86	337.10	27.64	-29.4	-29.9	27.7	0.00e+00	0	30	0	2304770048	32	5684
2026-01-04 21:05:05.87	336.79	27.69	-29.6	-30.2	27.4	0.00e+00	0	30	0	2312110080	32	5869
2026-01-04 21:05:06.88	336.48	27.75	-29.3	-29.9	27.7	0.00e+00	0	30	0	2319450112	32	5633
2026-01-04 21:05:07.89	336.18	27.80	-29.2	-29.8	27.7	0.00e+00	0	30	0	2326790144	32	5600
2026-01-04 21:05:08.90	335.87	27.85	-29.3	-29.9	27.7	0.00e+00	0	30	0	2334130176	32	5659
2026-01-04 21:05:09.91	335.56	27.90	-29.1	-29.7	27.9	0.00e+00	0	30	0	2341470208	32	5540
2026-01-04 21:05:10.92	335.24	27.95	-29.3	-29.8	27.7	0.00e+00	0	30	0	2348810240	32	5614
2026-01-04 21:05:11.93	334.93	28.00	-29.2	-29.8	27.7	0.00e+00	0	30	0	2355101696	32	5590
2026-01-04 21:05:12.94	334.62	28.05	-29.4	-29.9	27.7	0.00e+00	0	31	0	2363490304	32	5685
2026-01-04 21:05:13.95	334.31	28.09	-29.3	-29.9	27.6	0.00e+00	0	30	0	2370830336	32	5652
2026-01-04 21:05:14.97	333.99	28.14	-29.5	-30.1	27.6	0.00e+00	0	30	0	2377121792	32	5781
2026-01-04 21:05:15.97	333.67	28.19	-29.3	-29.8	27.7	0.00e+00	0	30	0	2384461824	32	5621
2026-01-04 21:05:16.98	333.36	28.23	-29.3	-29.9	27.8	0.00e+00	0	30	0	2391801856	32	5639
2026-01-04 21:05:18.00	333.04	28.27	-29.2	-29.8	27.8	0.00e+00	0	30	0	2399141888	32	5607
2026-01-04 21:05:19.01	332.72	28.32	-29.1	-29.6	28.0	0.00e+00	0	31	0	2406481920	32	5491
2026-01-04 21:05:20.01	332.40	28.36	-29.2	-29.7	27.9	0.00e+00	0	30	0	2413821952	32	5561
2026-01-04 21:05:21.02	332.08	28.40	-29.2	-29.8	27.8	0.00e+00	0	30	0	2421161984	32	5591
2026-01-04 21:05:22.04	331.76	28.44	-29.2	-29.8	27.8	0.00e+00	0	30	0	2428502016	32	5608
2026-01-04 21:05:23.04	331.44	28.48	-29.6	-30.2	27.7	0.00e+00	0	30	0	2435842048	32	5836
2026-01-04 21:05:24.05	331.12	28.52	-29.2	-29.8	27.8	0.00e+00	0	30	0	2443182080	32	5607
2026-01-04 21:05:25.06	330.79	28.55	-29.9	-30.5	27.4	0.00e+00	0	30	0	2450522112	32	6044
2026-01-04 21:05:26.07	330.47	28.59	-29.8	-30.4	27.3	0.00e+00	0	30	0	2457862144	32	5994
2026-01-04 21:05:27.08	330.14	28.62	-30.1	-30.7	27.0	0.00e+00	0	31	0	2465202176	32	6208
2026-01-04 21:05:28.09	329.82	28.66	-30.5	-31.0	27.0	0.00e+00	0	30	0	2472542208	32	6463
2026-01-04 21:05:29.10	329.49	28.69	-29.9	-30.5	27.1	0.00e+00	0	30	0	2479882240	32	6058
2026-01-04 21:05:30.11	329.17	28.72	-30.0	-30.6	27.3	0.00e+00	0	30	0	2487222272	32	6117
2026-01-04 21:05:31.12	328.84	28.76	-29.6	-30.2	27.4	0.00e+00	0	30	0	2494562304	32	5865
2026-01-04 21:05:32.13	328.51	28.79	-29.5	-30.0	27.7	0.00e+00	0	30	0	2501902336	32	5747
2026-01-04 21:05:33.14	328.18	28.81	-29.1	-29.7	27.8	0.00e+00	0	30	0	2508193792	32	5551
2026-01-04 21:05:34.15	327.85	28.84	-29.1	-29.7	27.9	0.00e+00	0	30	0	2516582400	32	5548
2026-01-04 21:05:35.16	327.52	28.87	-29.2	-29.8	27.8	0.00e+00	0	30	0	2523922432	32	5597
2026-01-04 21:05:36.17	327.19	28.90	-29.2	-29.8	27.7	0.00e+00	0	30	0	2530213888	32	5599
2026-01-04 21:05:37.18	326.86	28.92	-29.3	-29.9	27.6	0.00e+00	0	30	0	2537553920	32	5660
2026-01-04 21:05:38.19	326.53	28.94	-29.7	-30.3	27.5	0.00e+00	0	30	0	2544893952	32	5912
2026-01-04 21:05:39.20	326.20	28.97	-29.6	-30.2	27.5	0.00e+00	0	30	0	2552233984	32	5879
2026-01-04 21:05:40.20	325.87	28.99	-29.5	-30.1	27.5	0.00e+00	0	30	0	2559574016	32	5800
2026-01-04 21:05:41.22	325.53	29.01	-29.9	-30.4	27.3	0.00e+00	0	30	0	2566914048	32	6023
2026-01-04 21:05:42.22	325.20	29.03	-29.8	-30.3	27.4	0.00e+00	0	30	0	2574254080	32	5949
2026-01-04 21:05:43.23	324.87	29.05	-30.4	-31.0	27.1	0.00e+00	0	30	0	2581594112	32	6400
2026-01-04 21:05:44.24	324.53	29.07	-30.4	-31.0	26.9	0.00e+00	0	30	0	2588934144	32	6423
2026-01-04 21:05:45.25	324.20	29.08	-30.1	-30.7	27.2	0.00e+00	0	31	0	2596274176	32	6198
2026-01-04 21:05:46.26	323.86	29.10	-30.1	-30.7	27.3	0.00e+00	0	30	0	2603614208	32	6232
2026-01-04 21:05:47.27	323.53	29.11	-29.9	-30.4	27.4	0.00e+00	0	30	0	2610954240	32	6027
2026-01-04 21:05:48.28	323.19	29.12	-29.7	-30.2	27.7	0.00e+00	0	30	0	2618294272	32	5889
2026-01-04 21:05:49.29	322.86	29.14	-29.7	-30.3	27.5	0.00e+00	0	30	0	2625634304	32	5909
2026-01-04 21:05:50.30	322.52	29.15	-30.0	-30.6	27.6	0.00e+00	0	30	0	2632974336	32	6120
2026-01-04 21:05:51.31	322.18	29.16	-29.6	-30.1	27.6	0.00e+00	0	30	0	2640314368	32	5809
2026-01-04 21:05:52.32	321.85	29.17	-29.8	-30.4	27.4	0.00e+00	0	30	0	2647654400	32	5967
2026-01-04 21:05:53.33	321.51	29.17	-29.7	-30.3	27.7	0.00e+00	0	30	0	2653945856	32	5919
2026-01-04 21:05:54.34	321.17	29.18	-29.5	-30.1	27.7	0.00e+00	0	30	0	2661285888	32	5802
2026-01-04 21:05:55.35	320.84	29.19	-29.8	-30.4	27.6	0.00e+00	0	30	0	2669674496	32	5977
2026-01-04 21:05:56.36	320.50	29.19	-29.5	-30.1	27.7	0.00e+00	0	30	0	2675965952	32	5786
2026-01-04 21:05:57.37	320.16	29.19	-29.4	-30.0	27.7	0.00e+00	0	30	0	2683305984	32	5699
2026-01-04 21:05:58.37	319.83	29.20	-29.4	-30.0	27.8	0.00e+00	0	30	0	2690646016	32	5717
2026-01-04 21:05:59.38	319.49	29.20	-29.2	-29.8	27.9	0.00e+00	0	30	0	2697986048	32	5597
2026-01-04 21:06:00.39	319.15	29.20	-29.3	-29.9	27.8	0.00e+00	0	30	0	2705326080	32	5664
2026-01-04 21:06:01.40	318.82	29.20	-29.3	-29.9	27.7	0.00e+00	0	30	0	2712666112	32	5671
2026-01-04 21:06:02.41	318.48	29.19	-29.6	-30.1	27.7	0.00e+00	0	30	0	2720006144	32	5824
2026-01-04 21:06:03.42	318.14	29.19	-29.4	-29.9	27.9	0.00e+00	0	31	0	2727346176	32	5687
2026-01-04 21:06:04.43	317.81	29.19	-29.5	-30.1	27.9	0.00e+00	0	30	0	2734686208	32	5763
2026-01-04 21:06:05.44	317.47	29.18	-29.6	-30.2	27.6	0.00e+00	0	30	0	2742026240	32	5874
2026-01-04 21:06:06.45	317.13	29.17	-29.4	-30.0	28.0	0.00e+00	0	30	0	2749366272	32	5713
2026-01-04 21:06:07.46	316.80	29.17	-29.3	-29.9	27.7	0.00e+00	0	30	0	2756706304	32	5675
2026-01-04 21:06:08.47	316.46	29.16	-29.5	-30.1	27.6	0.00e+00	0	30	0	2764046336	32	5781
2026-01-04 21:06:09.48	316.12	29.15	-29.7	-30.3	27.7	0.00e+00	0	30	0	2771386368	32	5936
2026-01-04 21:06:10.49	315.79	29.14	-29.5	-30.0	27.7	0.00e+00	0	30	0	2778726400	32	5751
2026-01-04 21:06:11.50	315.45	29.12	-29.5	-30.1	27.7	0.00e+00	0	30	0	2786066432	32	5773
2026-01-04 21:06:12.51	315.11	29.11	-29.4	-30.0	27.7	0.00e+00	0	30	0	2793406464	32	5722
2026-01-04 21:06:13.51	314.78	29.10	-29.6	-30.2	27.5	0.00e+00	0	30	0	2800746496	32	5837
2026-01-04 21:06:14.52	314.45	29.08	-29.2	-29.8	27.7	0.00e+00	0	30	0	2807037952	32	5599
2026-01-04 21:06:15.53	314.11	29.06	-29.3	-29.8	27.7	0.00e+00	0	30	0	2814377984	32	5630
2026-01-04 21:06:16.54	313.78	29.05	-29.4	-29.9	27.5	0.00e+00	0	30	0	2821718016	32	5686
2026-01-04 21:06:17.55	313.44	29.03	-29.3	-29.8	27.5	0.00e+00	0	30	0	2829058048	32	5619
2026-01-04 21:06:18.56	313.11	29.01	-29.3	-29.9	27.7	0.00e+00	0	31	0	2836398080	32	5652
2026-01-04 21:06:19.57	312.78	28.99	-29.4	-30.0	27.7	0.00e+00	0	30	0	2843738112	32	5711
2026-01-04 21:06:20.58	312.45	28.96	-29.6	-30.2	27.6	0.00e+00	0	30	0	2851078144	32	5852
2026-01-04 21:06:21.59	312.11	28.94	-29.4	-29.9	27.7	0.00e+00	0	30	0	2858418176	32	5685
2026-01-04 21:06:22.60	311.78	28.92	-29.6	-30.1	27.8	0.00e+00	0	30	0	2865758208	32	5824
2026-01-04 21:06:23.61	311.45	28.89	-29.5	-30.1	27.9	0.00e+00	0	30	0	2873098240	32	5786
2026-01-04 21:06:24.62	311.12	28.87	-29.5	-30.1	27.8	0.00e+00	0	30	0	2880438272	32	5794
2026-01-04 21:06:25.63	310.79	28.84	-29.4	-30.0	27.9	0.00e+00	0	30	0	2887778304	32	5707
2026-01-04 21:06:26.63	310.46	28.81	-29.5	-30.1	27.8	0.00e+00	0	30	0	2895118336	32	5809
2026-01-04 21:06:27.64	310.13	28.78	-29.6	-30.1	27.9	0.00e+00	0	30	0	2902458368	32	5826
2026-01-04 21:06:28.65	309.80	28.75	-29.5	-30.1	27.8	0.00e+00	0	30	0	2909798400	32	5763
2026-01-04 21:06:29.66	309.48	28.72	-29.6	-30.2	27.6	0.00e+00	0	30	0	2917138432	32	5871
2026-01-04 21:06:30.67	309.15	28.69	-29.9	-30.5	27.5	0.00e+00	0	31	0	2924478464	32	6042
2026-01-04 21:06:31.68	308.82	28.65	-29.7	-30.2	27.6	0.00e+00	0	30	0	2931818496	32	5889
2026-01-04 21:06:32.69	308.50	28.62	-29.9	-30.5	27.4	0.00e+00	0	30	0	2938109952	32	6064
2026-01-04 21:06:33.70	308.17	28.58	-29.8	-30.4	27.6	0.00e+00	0	30	0	2946498560	32	5966
2026-01-04 21:06:34.71	307.85	28.55	-29.4	-30.0	27.7	0.00e+00	0	30	0	2953838592	32	5714
2026-01-04 21:06:35.72	307.52	28.51	-29.2	-29.7	28.0	0.00e+00	0	31	0	2960130048	32	5548
2026-01-04 21:06:36.73	307.20	28.47	-29.5	-30.0	27.9	0.00e+00	0	30	0	2967470080	32	5740
2026-01-04 21:06:37.74	306.88	28.43	-29.4	-29.9	28.0	0.00e+00	0	30	0	2974810112	32	5695
2026-01-04 21:06:38.75	306.56	28.39	-29.3	-29.9	28.0	0.00e+00	0	30	0	2982150144	32	5632
2026-01-04 21:06:39.76	306.24	28.35	-29.4	-30.0	27.7	0.00e+00	0	30	0	2989490176	32	5706
2026-01-04 21:06:40.77	305.92	28.31	-29.4	-30.0	27.9	0.00e+00	0	30	0	2996830208	32	5708
2026-01-04 21:06:41.78	305.60	28.27	-29.4	-30.0	27.9	0.00e+00	0	31	0	3004170240	32	5707
2026-01-04 21:06:42.79	305.28	28.22	-29.4	-30.0	27.8	0.00e+00	0	31	0	3011510272	32	5698
2026-01-04 21:06:43.79	304.97	28.18	-29.4	-30.0	27.8	0.00e+00	0	30	0	3018850304	32	5714
2026-01-04 21:06:44.81	304.65	28.13	-29.5	-30.1	27.8	0.00e+00	0	31	0	3026190336	32	5807
2026-01-04 21:06:45.82	304.33	28.09	-29.4	-30.0	27.8	0.00e+00	0	30	0	3033530368	32	5698
2026-01-04 21:06:46.83	304.02	28.04	-29.5	-30.1	27.8	0.00e+00	0	30	0	3040870400	32	5794
2026-01-04 21:06:47.83	303.71	27.99	-29.6	-30.2	27.7	0.00e+00	0	30	0	3048210432	32	5877
2026-01-04 21:06:48.84	303.40	27.94	-29.6	-30.2	27.8	0.00e+00	0	30	0	3055550464	32	5861
2026-01-04 21:06:49.85	303.08	27.89	-30.1	-30.7	27.3	0.00e+00	0	30	0	3062890496	32	6207
2026-01-04 21:06:50.86	302.77	27.84	-29.9	-30.4	27.7	0.00e+00	0	30	0	3070230528	32	6033
2026-01-04 21:06:51.87	302.46	27.79	-29.7	-30.2	27.7	0.00e+00	0	30	0	3077570560	32	5889
2026-01-04 21:06:52.88	302.15	27.74	-29.7	-30.3	27.5	0.00e+00	0	30	0	3083862016	32	5920
2026-01-04 21:06:53.89	301.85	27.68	-29.8	-30.3	27.7	0.00e+00	0	30	0	3091202048	32	5955
2026-01-04 21:06:54.90	301.54	27.63	-29.5	-30.1	27.7	0.00e+00	0	30	0	3099590656	32	5816
2026-01-04 21:06:55.91	301.24	27.57	-29.6	-30.2	27.8	0.00e+00	0	30	0	3105882112	32	5845
2026-01-04 21:06:56.92	300.93	27.52	-29.7	-30.3	27.7	0.00e+00	0	30	0	3113222144	32	5961
2026-01-04 21:06:57.93	300.63	27.46	-29.6	-30.2	27.9	0.00e+00	0	30	0	3120562176	32	5862
2026-01-04 21:06:58.93	300.33	27.41	-29.5	-30.1	27.8	0.00e+00	0	30	0	3127902208	32	5791
2026-01-04 21:06:59.95	300.02	27.35	-29.4	-30.0	28.0	0.00e+00	0	30	0	3135242240	32	5707
2026-01-04 21:07:00.96	299.72	27.29	-29.5	-30.0	28.0	0.00e+00	0	30	0	3142582272	32	5756
2026-01-04 21:07:01.97	299.43	27.23	-29.3	-29.9	27.9	0.00e+00	0	30	0	3149922304	32	5662
2026-01-04 21:07:02.98	299.13	27.17	-29.3	-29.9	28.0	0.00e+00	0	30	0	3157262336	32	5667
2026-01-04 21:07:03.99	298.83	27.11	-29.5	-30.1	27.8	0.00e+00	0	30	0	3164602368	32	5774
2026-01-04 21:07:05.00	298.54	27.05	-29.5	-30.1	27.8	0.00e+00	0	30	0	3171942400	32	5762
2026-01-04 21:07:06.01	298.24	26.98	-29.6	-30.2	27.8	0.00e+00	0	30	0	3179282432	32	5856
2026-01-04 21:07:07.02	297.95	26.92	-29.9	-30.5	27.7	0.00e+00	0	30	0	3186622464	32	6068
2026-01-04 21:07:08.03	297.66	26.86	-29.8	-30.4	27.6	0.00e+00	0	30	0	3193962496	32	5997
2026-01-04 21:07:09.03	297.37	26.79	-29.9	-30.5	27.6	0.00e+00	0	30	0	3201302528	32	6085
2026-01-04 21:07:10.04	297.08	26.73	-29.9	-30.4	27.6	0.00e+00	0	30	0	3208642560	32	6017
2026-01-04 21:07:11.05	296.79	26.66	-29.7	-30.2	27.9	0.00e+00	0	31	0	3215982592	32	5892
2026-01-04 21:07:12.06	296.50	26.59	-29.5	-30.0	27.8	0.00e+00	0	30	0	3223322624	32	5751
2026-01-04 21:07:13.07	296.22	26.53	-29.9	-30.4	27.7	0.00e+00	0	30	0	3230662656	32	6021
2026-01-04 21:07:14.08	295.93	26.46	-29.7	-30.3	28.0	0.00e+00	0	30	0	3236954112	32	5939
2026-01-04 21:07:15.09	295.65	26.39	-29.6	-30.1	27.9	0.00e+00	0	30	0	3244294144	32	5818
2026-01-04 21:07:16.10	295.37	26.32	-29.4	-29.9	28.0	0.00e+00	0	30	0	3252682752	32	5690
2026-01-04 21:07:17.11	295.08	26.25	-29.5	-30.0	27.9	0.00e+00	0	30	0	3258974208	32	5751
2026-01-04 21:07:18.12	294.80	26.18	-29.5	-30.0	27.8	0.00e+00	0	30	0	3266314240	32	5745
2026-01-04 21:07:19.13	294.53	26.11	-29.8	-30.4	27.8	0.00e+00	0	30	0	3273654272	32	5976
2026-01-04 21:07:20.14	294.25	26.04	-29.6	-30.2	27.8	0.00e+00	0	30	0	3280994304	32	5850
2026-01-04 21:07:21.15	293.97	25.97	-29.4	-30.0	27.9	0.00e+00	0	31	0	3288334336	32	5747
2026-01-04 21:07:22.16	293.70	25.90	-29.6	-30.2	27.9	0.00e+00	0	30	0	3295674368	32	5872
2026-01-04 21:07:23.17	293.42	25.83	-29.7	-30.3	27.9	0.00e+00	0	31	0	3303014400	32	5904
2026-01-04 21:07:24.17	293.15	25.75	-29.5	-30.0	27.8	0.00e+00	0	30	0	3310354432	32	5755
2026-01-04 21:07:25.18	292.88	25.68	-29.5	-30.1	27.9	0.00e+00	0	31	0	3317694464	32	5772
2026-01-04 21:07:26.19	292.61	25.60	-29.3	-29.8	28.0	0.00e+00	0	30	0	3325034496	32	5628
2026-01-04 21:07:27.20	292.34	25.53	-29.5	-30.0	27.9	0.00e+00	0	31	0	3332374528	32	5754
2026-01-04 21:07:28.21	292.08	25.45	-29.4	-30.0	27.8	0.00e+00	0	31	0	3339714560	32	5719
2026-01-04 21:07:29.22	291.81	25.38	-29.5	-30.0	27.8	0.00e+00	0	31	0	3347054592	32	5744
2026-01-04 21:07:30.23	291.55	25.30	-29.6	-30.2	27.7	0.00e+00	0	31	0	3354394624	32	5889
2026-01-04 21:07:31.24	291.28	25.23	-30.1	-30.7	27.6	0.00e+00	0	30	0	3360686080	32	6178
2026-01-04 21:07:32.24	291.02	25.15	-29.8	-30.4	27.6	0.00e+00	0	30	0	3369074688	32	5992
2026-01-04 21:07:33.25	290.76	25.07	-30.1	-30.7	27.6	0.00e+00	0	31	0	3376414720	32	6193
2026-01-04 21:07:34.26	290.50	24.99	-30.1	-30.7	27.7	0.00e+00	0	30	0	3382706176	32	6186
2026-01-04 21:07:35.28	290.24	24.92	-30.0	-30.6	27.6	0.00e+00	0	31	0	3390046208	32	6152
2026-01-04 21:07:36.28	289.99	24.84	-30.3	-30.9	27.6	0.00e+00	0	31	0	3397386240	32	6323
2026-01-04 21:07:37.29	289.73	24.76	-29.7	-30.2	27.8	0.00e+00	0	31	0	3404726272	32	5881
2026-01-04 21:07:38.31	289.47	24.68	-29.8	-30.4	27.7	0.00e+00	0	31	0	3412066304	32	5966
2026-01-04 21:07:39.31	289.22	24.60	-30.1	-30.6	27.7	0.00e+00	0	31	0	3419406336	32	6172
2026-01-04 21:07:40.32	288.97	24.52	-29.8	-30.4	27.7	0.00e+00	0	31	0	3426746368	32	6023
2026-01-04 21:07:41.33	288.72	24.44	-30.0	-30.5	27.7	0.00e+00	0	31	0	3434086400	32	6091
2026-01-04 21:07:42.35	288.47	24.36	-29.6	-30.4	24.1	0.00e+00	0	31	0	3441426432	32	6012
2026-01-04 21:07:43.35	288.22	24.28	-29.7	-30.5	24.1	0.00e+00	0	31	0	3448766464	32	6048
2026-01-04 21:07:44.37	287.97	24.19	-29.4	-30.1	24.2	0.00e+00	0	31	0	3456106496	32	5807
2026-01-04 21:07:45.37	287.73	24.11	-29.6	-30.3	24.2	0.00e+00	0	30	0	3463446528	32	5944
2026-01-04 21:07:46.39	287.48	24.03	-29.3	-30.1	24.3	0.00e+00	0	30	0	3470786560	32	5768
2026-01-04 21:07:47.39	287.24	23.95	-29.4	-30.1	24.2	0.00e+00	0	30	0	3478126592	32	5795
2026-01-04 21:07:48.40	287.00	23.87	-29.4	-30.1	24.1	0.00e+00	0	30	0	3485466624	32	5824
2026-01-04 21:07:49.41	286.76	23.78	-29.6	-30.3	24.0	0.00e+00	0	31	0	3492806656	32	5960
2026-01-04 21:07:50.43	286.52	23.70	-29.5	-30.3	23.8	0.00e+00	0	30	0	3500146688	32	5911
2026-01-04 21:07:51.44	286.28	23.61	-29.4	-30.1	24.0	0.00e+00	0	30	0	3507486720	32	5812
2026-01-04 21:07:52.44	286.05	23.53	-29.3	-30.1	24.1	0.00e+00	0	30	0	3514826752	32	5801
2026-01-04 21:07:53.45	285.81	23.45	-29.3	-30.1	24.1	0.00e+00	0	31	0	3522166784	32	5801
2026-01-04 21:07:54.46	285.58	23.36	-29.4	-30.2	24.0	0.00e+00	0	30	0	3529506816	32	5855
2026-01-04 21:07:55.47	285.35	23.28	-29.3	-30.1	23.9	0.00e+00	0	30	0	3535798272	32	5771
2026-01-04 21:07:56.48	285.12	23.19	-29.5	-30.3	23.9	0.00e+00	0	30	0	3543138304	32	5919
2026-01-04 21:07:57.49	284.89	23.11	-29.3	-30.1	24.0	0.00e+00	0	30	0	3550478336	32	5807
2026-01-04 21:07:58.50	284.66	23.02	-29.4	-30.2	23.9	0.00e+00	0	30	0	3557818368	32	5875
2026-01-04 21:07:59.51	284.43	22.94	-29.4	-30.2	23.9	0.00e+00	0	31	0	3565158400	32	5840
2026-01-04 21:08:00.52	284.20	22.85	-29.4	-30.2	23.8	0.00e+00	0	30	0	3572498432	32	5877
2026-01-04 21:08:01.52	283.98	22.77	-29.5	-30.3	23.8	0.00e+00	0	30	0	3579838464	32	5907
2026-01-04 21:08:02.53	283.76	22.68	-29.4	-30.1	23.8	0.00e+00	0	30	0	3587178496	32	5820
2026-01-04 21:08:03.54	283.53	22.59	-29.3	-30.1	23.8	0.00e+00	0	31	0	3594518528	32	5798
2026-01-04 21:08:04.55	283.31	22.51	-29.3	-30.1	23.8	0.00e+00	0	31	0	3601858560	32	5805
2026-01-04 21:08:05.56	283.09	22.42	-29.4	-30.1	23.8	0.00e+00	0	30	0	3609198592	32	5818
2026-01-04 21:08:06.57	282.87	22.33	-29.4	-30.2	23.7	0.00e+00	0	31	0	3616538624	32	5846
2026-01-04 21:08:07.58	282.66	22.25	-29.4	-30.2	23.7	0.00e+00	0	31	0	3623878656	32	5867
2026-01-04 21:08:08.59	282.44	22.16	-29.5	-30.2	23.7	0.00e+00	0	30	0	3631218688	32	5889
2026-01-04 21:08:09.60	282.22	22.07	-29.4	-30.1	23.8	0.00e+00	0	30	0	3638558720	32	5827
2026-01-04 21:08:10.60	282.01	21.99	-29.4	-30.1	23.9	0.00e+00	0	30	0	3645898752	32	5820
2026-01-04 21:08:11.61	281.80	21.90	-29.4	-30.1	23.9	0.00e+00	0	30	0	3653238784	32	5796
2026-01-04 21:08:12.62	281.59	21.81	-29.4	-30.1	24.1	0.00e+00	0	31	0	3659530240	32	5825
2026-01-04 21:08:13.63	281.38	21.72	-29.5	-30.2	24.0	0.00e+00	0	30	0	3666870272	32	5878
2026-01-04 21:08:14.64	281.17	21.64	-29.3	-30.0	24.2	0.00e+00	0	30	0	3674210304	32	5752
2026-01-04 21:08:15.65	280.96	21.55	-29.4	-30.2	24.2	0.00e+00	0	30	0	3681550336	32	5835
2026-01-04 21:08:16.66	280.75	21.46	-29.6	-30.3	24.1	0.00e+00	0	31	0	3688890368	32	5960
2026-01-04 21:08:17.67	280.55	21.37	-29.7	-30.4	24.2	0.00e+00	0	30	0	3696230400	32	6005
2026-01-04 21:08:18.68	280.34	21.28	-29.8	-30.6	24.0	0.00e+00	0	31	0	3703570432	32	6132
2026-01-04 21:08:19.69	280.14	21.19	-29.8	-30.5	24.0	0.00e+00	0	31	0	3710910464	32	6085
2026-01-04 21:08:20.69	279.94	21.11	-29.8	-30.6	24.0	0.00e+00	0	31	0	3718250496	32	6131
2026-01-04 21:08:21.70	279.74	21.02	-29.9	-30.6	23.9	0.00e+00	0	30	0	3725590528	32	6151
2026-01-04 21:08:22.71	279.54	20.93	-29.8	-30.6	24.1	0.00e+00	0	30	0	3732930560	32	6143
2026-01-04 21:08:23.72	279.34	20.84	-29.7	-30.4	24.1	0.00e+00	0	31	0	3740270592	32	6026
2026-01-04 21:08:24.73	279.14	20.75	-29.7	-30.5	24.1	0.00e+00	0	30	0	3747610624	32	6060
2026-01-04 21:08:25.74	278.95	20.66	-29.9	-30.6	24.1	0.00e+00	0	31	0	3754950656	32	6165
2026-01-04 21:08:26.75	278.75	20.58	-29.9	-30.6	24.0	0.00e+00	0	31	0	3762290688	32	6165
2026-01-04 21:08:27.76	278.56	20.49	-29.8	-30.5	24.0	0.00e+00	0	31	0	3769630720	32	6086
2026-01-04 21:08:28.77	278.36	20.40	-29.8	-30.5	24.0	0.00e+00	0	31	0	3776970752	32	6096
2026-01-04 21:08:29.78	278.17	20.31	-29.8	-30.6	24.0	0.00e+00	0	30	0	3784310784	32	6123
2026-01-04 21:08:30.79	277.98	20.22	-30.0	-30.7	23.9	0.00e+00	0	31	0	3790602240	32	6225
2026-01-04 21:08:31.80	277.79	20.13	-29.9	-30.7	23.9	0.00e+00	0	30	0	3798990848	32	6193
2026-01-04 21:08:32.81	277.60	20.04	-29.8	-30.6	24.1	0.00e+00	0	31	0	3806330880	32	6106
2026-01-04 21:08:33.82	277.42	19.95	-29.8	-30.6	24.1	0.00e+00	0	30	0	3812622336	32	6122
2026-01-04 21:08:34.82	277.23	19.87	-29.6	-30.3	24.1	0.00e+00	0	30	0	3819962368	32	5952
2026-01-04 21:08:35.83	277.05	19.78	-29.6	-30.3	24.1	0.00e+00	0	31	0	3827302400	32	5963
2026-01-04 21:08:36.84	276.86	19.69	-29.7	-30.4	24.0	0.00e+00	0	31	0	3834642432	32	6008
2026-01-04 21:08:37.85	276.68	19.60	-29.7	-30.4	24.0	0.00e+00	0	31	0	3841982464	32	6008
2026-01-04 21:08:38.86	276.50	19.51	-29.7	-30.5	23.9	0.00e+00	0	30	0	3849322496	32	6055
2026-01-04 21:08:39.87	276.32	19.42	-29.7	-30.5	23.8	0.00e+00	0	30	0	3856662528	32	6041
2026-01-04 21:08:40.88	276.14	19.33	-29.9	-30.7	23.7	0.00e+00	0	30	0	3864002560	32	6183
2026-01-04 21:08:41.89	275.96	19.24	-30.0	-30.7	23.7	0.00e+00	0	30	0	3871342592	32	6221
2026-01-04 21:08:42.90	275.78	19.16	-30.0	-30.8	23.7	0.00e+00	0	30	0	3878682624	32	6285
2026-01-04 21:08:43.91	275.60	19.07	-30.2	-31.0	23.7	0.00e+00	0	30	0	3886022656	32	6420
2026-01-04 21:08:44.92	275.43	18.98	-30.0	-30.8	23.7	0.00e+00	0	31	0	3893362688	32	6279
2026-01-04 21:08:45.93	275.25	18.89	-30.1	-30.9	23.8	0.00e+00	0	31	0	3900702720	32	6331
2026-01-04 21:08:46.94	275.08	18.80	-30.1	-30.9	23.8	0.00e+00	0	31	0	3908042752	32	6353
2026-01-04 21:08:47.95	274.91	18.71	-30.3	-31.1	23.8	0.00e+00	0	31	0	3915382784	32	6478
2026-01-04 21:08:48.95	274.74	18.62	-30.3	-31.0	23.8	0.00e+00	0	31	0	3922722816	32	6462
2026-01-04 21:08:49.96	274.57	18.54	-30.2	-31.0	23.8	0.00e+00	0	31	0	3930062848	32	6424
2026-01-04 21:08:50.97	274.40	18.45	-30.2	-31.0	23.7	0.00e+00	0	31	0	3936354304	32	6438
2026-01-04 21:08:51.98	274.23	18.36	-30.4	-31.2	23.5	0.00e+00	0	30	0	3943694336	32	6603
2026-01-04 21:08:52.99	274.06	18.27	-30.5	-31.3	23.5	0.00e+00	0	31	0	3951034368	32	6682
2026-01-04 21:08:54.00	273.89	18.18	-30.7	-31.5	23.4	0.00e+00	0	30	0	3958374400	32	6772
2026-01-04 21:08:55.01	273.73	18.09	-31.0	-31.8	23.3	0.00e+00	0	31	0	3965714432	34	6265
2026-01-04 21:08:56.01	273.57	18.01	-30.6	-31.4	23.4	0.00e+00	0	30	0	3973054464	34	6019
2026-01-04 21:08:57.02	273.40	17.92	-30.7	-31.5	23.5	0.00e+00	0	31	0	3980394496	34	6040
2026-01-04 21:08:58.03	273.24	17.83	-30.9	-31.7	23.3	0.00e+00	0	31	0	3987734528	34	6175
2026-01-04 21:08:59.04	273.08	17.74	-30.8	-31.5	23.4	0.00e+00	0	30	0	3995074560	34	6084
2026-01-04 21:09:00.05	272.92	17.66	-30.8	-31.6	23.4	0.00e+00	0	31	0	4002414592	34	6127
2026-01-04 21:09:01.06	272.76	17.57	-30.7	-31.5	23.4	0.00e+00	0	31	0	4009754624	34	6071
2026-01-04 21:09:02.07	272.60	17.48	-31.0	-31.7	23.3	0.00e+00	0	31	0	4017094656	34	6230
2026-01-04 21:09:03.08	272.44	17.39	-31.1	-31.8	23.2	0.00e+00	0	31	0	4024434688	34	6303
2026-01-04 21:09:04.09	272.28	17.31	-31.3	-32.1	23.2	0.00e+00	0	31	0	4031774720	34	6472
2026-01-04 21:09:05.10	272.13	17.22	-30.9	-31.6	23.5	0.00e+00	0	31	0	4039114752	34	6169
2026-01-04 21:09:06.11	271.97	17.13	-30.5	-31.3	23.7	0.00e+00	0	31	0	4046454784	34	5935
2026-01-04 21:09:07.12	271.82	17.04	-30.6	-31.4	23.5	0.00e+00	0	31	0	4053794816	34	5998
2026-01-04 21:09:08.13	271.66	16.96	-30.7	-31.4	23.6	0.00e+00	0	31	0	4061134848	34	6026
2026-01-04 21:09:09.14	271.51	16.87	-30.6	-31.4	23.7	0.00e+00	0	31	0	4067426304	34	5966
2026-01-04 21:09:10.14	271.36	16.78	-31.0	-31.7	23.6	0.00e+00	0	31	0	4075814912	34	6221
2026-01-04 21:09:11.15	271.21	16.70	-30.9	-31.6	23.4	0.00e+00	0	31	0	4083154944	34	6171
2026-01-04 21:09:12.16	271.06	16.61	-30.9	-31.7	23.5	0.00e+00	0	31	0	4089446400	34	6201
2026-01-04 21:09:13.17	270.91	16.52	-31.0	-31.8	23.2	0.00e+00	0	31	0	4096786432	34	6275
2026-01-04 21:09:14.18	270.76	16.44	-31.0	-31.7	23.5	0.00e+00	0	31	0	4104126464	34	6237
2026-01-04 21:09:15.18	270.62	16.35	-31.0	-31.7	23.3	0.00e+00	0	31	0	4111466496	34	6243
2026-01-04 21:09:16.19	270.47	16.26	-31.1	-31.8	23.4	0.00e+00	0	31	0	4118806528	34	6303
2026-01-04 21:09:17.20	270.32	16.18	-31.1	-31.9	23.2	0.00e+00	0	30	0	4126146560	34	6363
2026-01-04 21:09:18.21	270.18	16.09	-30.8	-31.6	23.5	0.00e+00	0	30	0	4133486592	34	6149
2026-01-04 21:09:19.22	270.04	16.01	-30.9	-31.6	23.4	0.00e+00	0	31	0	4140826624	34	6169
2026-01-04 21:09:20.23	269.89	15.92	-31.0	-31.8	23.0	0.00e+00	0	31	0	4148166656	34	6280
2026-01-04 21:09:21.23	269.75	15.84	-30.9	-31.7	23.3	0.00e+00	0	31	0	4155506688	34	6227
2026-01-04 21:09:22.24	269.61	15.75	-31.0	-31.8	23.3	0.00e+00	0	31	0	4162846720	34	6285
2026-01-04 21:09:23.25	269.47	15.66	-31.1	-31.9	23.2	0.00e+00	0	31	0	4170186752	34	6361
2026-01-04 21:09:24.27	269.33	15.58	-31.1	-31.9	23.1	0.00e+00	0	31	0	4177526784	34	6332
2026-01-04 21:09:25.28	269.19	15.49	-31.2	-32.0	23.0	0.00e+00	0	31	0	4184866816	34	6398
2026-01-04 21:09:26.28	269.05	15.41	-31.2	-32.0	22.9	0.00e+00	0	31	0	4191158272	34	6434
2026-01-04 21:09:27.29	268.92	15.32	-31.2	-32.0	23.1	0.00e+00	0	31	0	4199546880	34	6435
2026-01-04 21:09:28.30	268.78	15.24	-31.3	-32.1	23.0	0.00e+00	0	30	0	4206886912	34	6519
2026-01-04 21:09:29.31	268.64	15.15	-31.2	-32.0	23.1	0.00e+00	0	31	0	4213178368	34	6408
2026-01-04 21:09:30.32	268.51	15.07	-31.2	-32.0	23.1	0.00e+00	0	31	0	4220518400	34	6459
2026-01-04 21:09:31.33	268.37	14.99	-31.3	-32.1	23.0	0.00e+00	0	30	0	4227858432	34	6529
2026-01-04 21:09:32.34	268.24	14.90	-31.3	-32.1	23.0	0.00e+00	0	30	0	4235198464	34	6507
2026-01-04 21:09:33.35	268.11	14.82	-31.2	-32.0	23.2	0.00e+00	0	31	0	4242538496	34	6439
2026-01-04 21:09:34.36	267.98	14.73	-31.3	-32.1	23.1	0.00e+00	0	30	0	4249878528	34	6537
2026-01-04 21:09:35.37	267.85	14.65	-31.5	-32.3	22.9	0.00e+00	0	30	0	4257218560	34	6660
2026-01-04 21:09:36.38	267.71	14.57	-31.6	-32.4	22.9	0.00e+00	0	31	0	4264558592	34	6694
2026-01-04 21:09:37.39	267.59	14.48	-31.6	-32.4	22.8	0.00e+00	0	30	0	4271898624	34	6747
2026-01-04 21:09:38.40	267.46	14.40	-31.6	-32.4	22.7	0.00e+00	0	31	0	4279238656	34	6767
2026-01-04 21:09:39.41	267.33	14.32	-31.7	-32.5	22.7	0.00e+00	0	31	0	4286578688	34	6819
2026-01-04 21:09:40.42	267.20	14.23	-31.8	-32.6	22.7	0.00e+00	0	31	0	4293918720	36	6150
2026-01-04 21:09:41.43	267.07	14.15	-31.7	-32.6	22.8	0.00e+00	0	31	0	4301258752	36	6113
2026-01-04 21:09:42.44	266.95	14.07	-31.8	-32.7	22.7	0.00e+00	0	31	0	4308598784	36	6184
2026-01-04 21:09:43.45	266.82	13.98	-32.0	-32.8	22.7	0.00e+00	0	31	0	4315938816	36	6283
2026-01-04 21:09:44.46	266.70	13.90	-31.9	-32.7	22.6	0.00e+00	0	31	0	4323278848	36	6201
2026-01-04 21:09:45.47	266.57	13.82	-32.0	-32.8	22.6	0.00e+00	0	31	0	4330618880	36	6296
2026-01-04 21:09:46.47	266.45	13.74	-32.1	-32.9	22.7	0.00e+00	0	31	0	4337958912	36	6384
2026-01-04 21:09:47.48	266.33	13.65	-31.8	-32.6	22.8	0.00e+00	0	30	0	4344250368	36	6134
2026-01-04 21:09:48.50	266.21	13.57	-32.0	-32.8	22.6	0.00e+00	0	31	0	4352638976	36	6306
2026-01-04 21:09:49.50	266.09	13.49	-31.9	-32.7	22.7	0.00e+00	0	31	0	4359979008	36	6244
2026-01-04 21:09:50.51	265.97	13.41	-32.0	-32.8	22.7	0.00e+00	0	31	0	4366270464	36	6268
2026-01-04 21:09:51.52	265.85	13.33	-32.0	-32.9	22.8	0.00e+00	0	30	0	4373610496	36	6323
2026-01-04 21:09:52.53	265.73	13.25	-32.0	-32.8	22.7	0.00e+00	0	31	0	4380950528	36	6291
2026-01-04 21:09:53.54	265.61	13.16	-32.1	-32.9	22.7	0.00e+00	0	31	0	4388290560	36	6375
2026-01-04 21:09:54.55	265.49	13.08	-32.3	-33.1	22.8	0.00e+00	0	31	0	4395630592	36	6478
2026-01-04 21:09:55.56	265.37	13.00	-31.8	-32.6	22.9	0.00e+00	0	31	0	4402970624	36	6169
2026-01-04 21:09:56.57	265.26	12.92	-31.9	-32.7	22.9	0.00e+00	0	31	0	4410310656	36	6178
2026-01-04 21:09:57.58	265.14	12.84	-31.7	-32.5	23.0	0.00e+00	0	31	0	4417650688	36	6076
2026-01-04 21:09:58.59	265.03	12.76	-31.8	-32.6	22.9	0.00e+00	0	31	0	4424990720	36	6151
2026-01-04 21:09:59.60	264.91	12.68	-31.6	-32.4	23.0	0.00e+00	0	31	0	4432330752	36	6019
2026-01-04 21:10:00.61	264.80	12.60	-31.8	-32.6	23.0	0.00e+00	0	30	0	4439670784	36	6104
2026-01-04 21:10:01.62	264.69	12.52	-31.7	-32.5	23.0	0.00e+00	0	31	0	4447010816	36	6095
2026-01-04 21:10:02.63	264.57	12.44	-31.7	-32.5	23.1	0.00e+00	0	31	0	4454350848	36	6076
2026-01-04 21:10:03.64	264.46	12.36	-31.8	-32.6	22.9	0.00e+00	0	31	0	4461690880	36	6117
2026-01-04 21:10:04.64	264.35	12.28	-31.9	-32.7	23.0	0.00e+00	0	31	0	4469030912	36	6209
2026-01-04 21:10:05.65	264.24	12.20	-31.8	-32.6	23.0	0.00e+00	0	31	0	4476370944	36	6165
2026-01-04 21:10:06.66	264.13	12.12	-31.9	-32.7	22.9	0.00e+00	0	31	0	4483710976	36	6225
2026-01-04 21:10:07.68	264.02	12.04	-32.0	-32.8	22.8	0.00e+00	0	31	0	4490002432	36	6316
2026-01-04 21:10:08.68	263.91	11.96	-31.9	-32.7	22.9	0.00e+00	0	30	0	4497342464	36	6174
2026-01-04 21:10:09.69	263.80	11.88	-31.9	-32.7	22.8	0.00e+00	0	31	0	4505731072	36	6223
2026-01-04 21:10:10.70	263.69	11.81	-31.9	-32.8	22.8	0.00e+00	0	31	0	4512022528	36	6250
2026-01-04 21:10:11.71	263.59	11.73	-31.8	-32.6	22.9	0.00e+00	0	31	0	4519362560	36	6154
2026-01-04 21:10:12.72	263.48	11.65	-32.1	-32.9	22.7	0.00e+00	0	31	0	4526702592	36	6371
2026-01-04 21:10:13.73	263.38	11.57	-31.9	-32.7	22.9	0.00e+00	0	31	0	4534042624	36	6185
2026-01-04 21:10:14.74	263.27	11.49	-31.9	-32.7	22.7	0.00e+00	0	31	0	4541382656	36	6244
2026-01-04 21:10:15.75	263.16	11.41	-32.0	-32.8	22.7	0.00e+00	0	31	0	4548722688	36	6277
2026-01-04 21:10:16.76	263.06	11.34	-32.1	-32.9	22.6	0.00e+00	0	31	0	4556062720	36	6386
2026-01-04 21:10:17.77	262.96	11.26	-32.2	-33.0	22.6	0.00e+00	0	31	0	4563402752	36	6456
2026-01-04 21:10:18.78	262.85	11.18	-32.0	-32.8	22.6	0.00e+00	0	31	0	4570742784	36	6309
2026-01-04 21:10:19.79	262.75	11.10	-32.1	-33.0	22.5	0.00e+00	0	31	0	4578082816	36	6391
2026-01-04 21:10:20.80	262.65	11.03	-32.4	-33.2	22.4	0.00e+00	0	31	0	4585422848	36	6588
2026-01-04 21:10:21.81	262.55	10.95	-32.6	-33.4	22.2	0.00e+00	0	31	0	4592762880	36	6730
2026-01-04 21:10:22.82	262.45	10.87	-32.5	-33.4	22.3	0.00e+00	0	31	0	4600102912	36	6701
2026-01-04 21:10:23.82	262.35	10.80	-32.7	-33.6	22.1	0.00e+00	0	31	0	4607442944	38	6111
2026-01-04 21:10:24.83	262.25	10.72	-32.8	-33.7	22.1	0.00e+00	0	31	0	4614782976	38	6174
