passes_logs/2026/01/04/R4.6S_Anadyr/R4.6S_Anadyr__20260104_173147_FENGYUN_3D_rec.log

#Pass ID: 20260104_173147_FENGYUN 3D
#Satellite: FENGYUN 3D
#Configuration: FENGYUN 3D
#almurnet v.1.7.20251203
#Start time: 2026-01-04 17:31:49

#Version: 2.2.20231116
#Station: R4.6S_Anadyr
#Location: 177.4865 lon 64.73178 lat
#TLE: 1 43010U 17072A   26003.51579816  .00000092  00000+0  65324-4 0  9992
#TLE: 2 43010  98.9912 335.1548 0001916 128.4619 231.6729 14.19692074421623

#Time	Az	El	Level	Level2	SNR	BER	BlckErr	Temp	State	Recorded	gain1	gain2
2026-01-04 17:31:49.87	22.93	0.13	-50.4	-68.1	3.5	3.04e+01	0	31	0	0	60	97932
2026-01-04 17:31:50.87	22.91	0.19	-51.2	-63.3	3.6	8.46e-01	0	32	104	0	60	52749
2026-01-04 17:31:51.89	22.90	0.25	-50.2	-62.3	3.6	8.46e-01	0	32	104	0	60	47276
2026-01-04 17:31:52.90	22.88	0.31	-50.2	-62.3	3.6	8.46e-01	0	32	104	0	60	47242
2026-01-04 17:31:53.91	22.86	0.37	-49.5	-61.7	3.6	8.46e-01	0	32	104	0	60	43866
2026-01-04 17:31:54.92	22.85	0.43	-49.1	-61.3	3.6	8.45e-01	0	32	104	0	60	41947
2026-01-04 17:31:55.93	22.83	0.50	-49.0	-61.2	3.6	8.45e-01	0	32	104	0	60	41606
2026-01-04 17:31:56.94	22.82	0.56	-49.1	-61.2	3.6	8.44e-01	0	32	104	0	60	41590
2026-01-04 17:31:57.95	22.80	0.62	-49.1	-61.2	3.6	8.46e-01	0	32	104	0	60	41396
2026-01-04 17:31:58.95	22.78	0.68	-48.9	-61.1	3.6	8.46e-01	0	32	104	0	60	41030
2026-01-04 17:31:59.96	22.77	0.74	-48.9	-61.1	3.6	8.45e-01	0	32	104	0	60	40935
2026-01-04 17:32:00.97	22.75	0.80	-48.7	-60.8	3.6	8.47e-01	0	32	104	0	60	39411
2026-01-04 17:32:01.98	22.73	0.86	-48.5	-60.6	3.6	8.44e-01	0	32	104	0	60	38912
2026-01-04 17:32:02.99	22.72	0.92	-48.4	-60.5	3.6	8.45e-01	0	32	104	0	60	38255
2026-01-04 17:32:04.00	22.70	0.98	-48.3	-60.4	3.6	8.45e-01	0	32	104	0	60	37886
2026-01-04 17:32:05.01	22.68	1.05	-48.0	-60.1	3.6	8.46e-01	0	32	104	0	60	36742
2026-01-04 17:32:06.03	22.66	1.11	-47.6	-59.7	3.6	8.45e-01	0	32	104	0	60	34885
2026-01-04 17:32:07.04	22.65	1.17	-47.5	-59.6	3.6	8.45e-01	0	32	104	0	60	34371
2026-01-04 17:32:08.05	22.63	1.23	-47.5	-59.5	3.6	8.46e-01	0	32	104	0	60	34253
2026-01-04 17:32:09.06	22.61	1.30	-47.5	-59.6	3.6	8.45e-01	0	32	104	0	60	34384
2026-01-04 17:32:10.07	22.59	1.36	-47.4	-59.5	3.6	8.46e-01	0	32	104	0	60	34302
2026-01-04 17:32:11.08	22.58	1.42	-47.4	-59.6	3.6	8.46e-01	0	32	104	0	60	34408
2026-01-04 17:32:12.09	22.56	1.48	-47.4	-59.5	3.6	8.45e-01	0	32	104	0	60	34239
2026-01-04 17:32:13.10	22.54	1.55	-47.5	-59.4	3.6	8.45e-01	0	32	104	0	60	33802
2026-01-04 17:32:14.11	22.52	1.61	-47.5	-59.3	3.6	8.45e-01	0	32	104	0	60	33482
2026-01-04 17:32:15.12	22.51	1.67	-47.5	-59.2	3.6	8.45e-01	0	32	104	0	60	32910
2026-01-04 17:32:16.13	22.49	1.73	-47.5	-59.1	3.6	8.45e-01	0	32	104	0	60	32528
2026-01-04 17:32:17.14	22.47	1.80	-47.4	-58.7	3.6	8.45e-01	0	32	104	0	60	31272
2026-01-04 17:32:18.15	22.45	1.86	-47.5	-58.8	3.6	8.44e-01	0	33	104	0	60	31648
2026-01-04 17:32:19.16	22.43	1.93	-47.5	-59.0	3.6	8.45e-01	0	33	104	0	60	32239
2026-01-04 17:32:20.17	22.41	1.99	-47.5	-59.1	3.6	8.45e-01	0	32	104	0	60	32513
2026-01-04 17:32:21.18	22.40	2.05	-47.6	-59.5	3.6	8.45e-01	0	32	104	0	60	34194
2026-01-04 17:32:22.19	22.38	2.12	-47.5	-59.6	3.5	8.47e-01	0	32	104	0	60	34492
2026-01-04 17:32:23.20	22.36	2.18	-47.5	-59.6	3.6	8.44e-01	0	32	104	0	60	34409
2026-01-04 17:32:24.21	22.34	2.25	-47.5	-59.5	3.6	8.46e-01	0	32	104	0	60	34280
2026-01-04 17:32:25.22	22.32	2.31	-47.4	-59.4	3.6	8.46e-01	0	33	104	0	60	33771
2026-01-04 17:32:26.23	22.30	2.37	-47.5	-59.1	3.6	8.45e-01	0	33	104	0	60	32464
2026-01-04 17:32:27.23	22.28	2.44	-47.5	-59.1	3.6	8.46e-01	0	32	104	0	60	32567
2026-01-04 17:32:28.24	22.26	2.50	-47.5	-58.8	3.6	8.45e-01	0	32	104	0	60	31443
2026-01-04 17:32:29.25	22.24	2.57	-47.4	-58.4	3.6	8.45e-01	0	33	104	0	60	30096
2026-01-04 17:32:30.26	22.23	2.63	-47.3	-57.3	3.6	8.45e-01	0	33	104	0	60	26412
2026-01-04 17:32:31.27	22.21	2.70	-47.4	-57.6	3.6	8.44e-01	0	33	104	0	60	27294
2026-01-04 17:32:32.28	22.19	2.76	-47.3	-57.0	3.8	8.44e-01	0	33	104	0	60	25611
2026-01-04 17:32:33.29	22.17	2.83	-47.3	-56.8	3.7	8.43e-01	0	33	104	0	60	24994
2026-01-04 17:32:34.30	22.15	2.90	-47.3	-57.1	3.6	8.42e-01	0	33	104	0	60	25947
2026-01-04 17:32:35.31	22.13	2.96	-47.3	-57.5	3.6	8.43e-01	0	33	104	0	60	27116
2026-01-04 17:32:36.32	22.11	3.03	-47.3	-57.9	3.6	8.44e-01	0	33	104	0	60	28381
2026-01-04 17:32:37.33	22.09	3.09	-47.2	-56.4	4.1	8.45e-01	0	33	104	0	60	23851
2026-01-04 17:32:38.34	22.07	3.16	-46.6	-52.2	5.1	7.28e-01	0	33	0	0	60	14727
2026-01-04 17:32:39.35	22.05	3.23	-45.3	-48.8	8.3	5.43e-02	0	33	0	4194304	60	9963
2026-01-04 17:32:40.36	22.02	3.29	-44.6	-47.5	11.8	3.79e-03	0	33	0	10485760	60	8611
2026-01-04 17:32:41.37	22.00	3.36	-43.7	-46.1	13.0	2.79e-04	0	33	0	15728640	60	7317
2026-01-04 17:32:42.38	21.98	3.43	-41.6	-43.2	15.6	0.00e+00	0	33	0	22020096	56	6575
2026-01-04 17:32:43.39	21.96	3.49	-41.9	-43.6	14.5	2.20e-06	0	33	0	27262976	54	7717
2026-01-04 17:32:44.40	21.94	3.56	-40.9	-42.4	16.4	0.00e+00	0	33	0	32505856	54	6694
2026-01-04 17:32:45.41	21.92	3.63	-40.2	-41.5	17.0	0.00e+00	0	33	0	38797312	52	6786
2026-01-04 17:32:46.42	21.90	3.70	-39.8	-41.1	17.2	0.00e+00	0	33	0	44040192	54	5786
2026-01-04 17:32:47.43	21.88	3.77	-40.6	-42.0	16.5	0.00e+00	0	33	0	50331648	52	7188
2026-01-04 17:32:48.44	21.86	3.83	-44.4	-47.3	10.0	0.00e+00	0	33	0	55574528	56	10564
2026-01-04 17:32:49.45	21.83	3.90	-47.6	-59.4	3.6	8.45e-01	0	33	104	56623104	60	33805
2026-01-04 17:32:50.46	21.81	3.97	-39.9	-41.2	16.3	1.09e-02	0	33	104	56623104	54	5853
2026-01-04 17:32:51.47	21.79	4.04	-43.9	-46.6	13.6	6.69e-01	0	33	104	57671680	60	7747
2026-01-04 17:32:52.48	21.77	4.11	-38.1	-39.2	18.0	0.00e+00	0	33	0	59768832	44	8267
2026-01-04 17:32:53.49	21.75	4.18	-46.0	-51.0	6.0	8.41e-01	0	33	104	61865984	60	12837
2026-01-04 17:32:54.50	21.72	4.24	-35.9	-36.7	20.0	1.09e-02	0	33	104	61865984	44	6238
2026-01-04 17:32:55.51	21.70	4.31	-36.0	-36.9	21.7	0.00e+00	0	33	0	66060288	44	6319
2026-01-04 17:32:56.52	21.68	4.38	-35.4	-36.2	22.3	0.00e+00	0	33	0	71303168	44	5859
2026-01-04 17:32:57.53	21.66	4.45	-36.3	-37.1	21.6	0.00e+00	0	33	0	77594624	44	6487
2026-01-04 17:32:58.53	21.64	4.52	-36.0	-36.8	21.9	0.00e+00	0	33	0	82837504	44	6295
2026-01-04 17:32:59.54	21.61	4.59	-35.2	-36.0	22.6	0.00e+00	0	33	0	89128960	44	5707
2026-01-04 17:33:00.55	21.59	4.66	-35.6	-36.4	22.2	0.00e+00	0	33	0	94371840	44	5968
2026-01-04 17:33:01.56	21.57	4.73	-35.4	-36.1	22.1	0.00e+00	0	33	0	99614720	44	5814
2026-01-04 17:33:02.57	21.54	4.80	-35.8	-36.6	21.9	0.00e+00	0	33	0	105906176	44	6153
2026-01-04 17:33:03.58	21.52	4.87	-35.6	-36.3	22.1	0.00e+00	0	33	0	111149056	44	5952
2026-01-04 17:33:04.59	21.50	4.94	-35.1	-35.8	22.8	0.00e+00	0	33	0	117440512	44	5625
2026-01-04 17:33:05.60	21.47	5.01	-35.7	-36.5	22.2	0.00e+00	0	33	0	122683392	44	6047
2026-01-04 17:33:06.61	21.45	5.09	-35.5	-36.2	22.4	0.00e+00	0	33	0	127926272	44	5891
2026-01-04 17:33:07.62	21.42	5.16	-35.9	-36.7	22.0	0.00e+00	0	33	0	134217728	44	6234
2026-01-04 17:33:08.63	21.40	5.23	-36.2	-37.1	21.7	0.00e+00	0	33	0	139460608	44	6470
2026-01-04 17:33:09.63	21.38	5.30	-36.2	-37.0	21.9	0.00e+00	0	33	0	145752064	44	6454
2026-01-04 17:33:10.64	21.35	5.37	-36.6	-37.4	21.5	0.00e+00	0	33	0	150994944	44	6769
2026-01-04 17:33:11.65	21.33	5.44	-36.2	-37.1	21.4	0.00e+00	0	33	0	157286400	44	6474
2026-01-04 17:33:12.66	21.30	5.52	-36.0	-36.8	21.8	0.00e+00	0	33	0	162529280	44	6249
2026-01-04 17:33:13.67	21.28	5.59	-35.9	-36.7	21.7	0.00e+00	0	33	0	167772160	44	6200
2026-01-04 17:33:14.68	21.25	5.66	-35.7	-36.5	22.2	0.00e+00	0	33	0	174063616	44	6052
2026-01-04 17:33:15.69	21.23	5.73	-35.4	-36.2	22.3	0.00e+00	0	33	0	179306496	44	5868
2026-01-04 17:33:16.70	21.20	5.81	-36.0	-36.8	22.0	0.00e+00	0	33	0	185597952	44	6297
2026-01-04 17:33:17.71	21.18	5.88	-36.3	-37.1	21.9	0.00e+00	0	33	0	190840832	44	6525
2026-01-04 17:33:18.72	21.15	5.95	-36.2	-37.0	21.6	0.00e+00	0	33	0	196083712	44	6437
2026-01-04 17:33:19.73	21.13	6.03	-35.8	-36.5	21.9	0.00e+00	0	33	0	202375168	44	6099
2026-01-04 17:33:20.74	21.10	6.10	-36.0	-36.7	22.1	0.00e+00	0	33	0	207618048	44	6226
2026-01-04 17:33:21.75	21.08	6.17	-35.5	-36.3	22.4	0.00e+00	0	33	0	213909504	44	5917
2026-01-04 17:33:22.76	21.05	6.25	-35.3	-36.1	22.8	0.00e+00	0	33	0	219152384	44	5782
2026-01-04 17:33:23.77	21.02	6.32	-35.2	-35.9	22.8	0.00e+00	0	33	0	224395264	44	5681
2026-01-04 17:33:24.78	21.00	6.40	-35.9	-36.7	22.2	0.00e+00	0	33	0	230686720	44	6174
2026-01-04 17:33:25.79	20.97	6.47	-35.4	-36.1	22.7	0.00e+00	0	33	0	235929600	44	5813
2026-01-04 17:33:26.80	20.94	6.55	-35.5	-36.2	22.5	0.00e+00	0	33	0	242221056	44	5889
2026-01-04 17:33:27.81	20.92	6.62	-35.1	-35.9	22.7	0.00e+00	0	33	0	247463936	44	5653
2026-01-04 17:33:28.82	20.89	6.70	-35.4	-36.1	22.6	0.00e+00	0	33	0	253755392	44	5809
2026-01-04 17:33:29.83	20.86	6.77	-35.2	-35.9	23.0	0.00e+00	0	33	0	258998272	44	5669
2026-01-04 17:33:30.84	20.83	6.85	-34.8	-35.6	23.2	0.00e+00	0	33	0	265289728	42	6135
2026-01-04 17:33:31.85	20.81	6.93	-35.1	-35.9	22.8	0.00e+00	0	33	0	270532608	42	6325
2026-01-04 17:33:32.86	20.78	7.00	-35.0	-35.8	23.0	0.00e+00	0	33	0	275775488	42	6259
2026-01-04 17:33:33.87	20.75	7.08	-34.9	-35.6	23.0	0.00e+00	0	33	0	282066944	42	6127
2026-01-04 17:33:34.88	20.72	7.16	-35.0	-35.7	23.3	0.00e+00	0	33	0	287309824	42	6221
2026-01-04 17:33:35.89	20.70	7.23	-34.7	-35.4	23.4	0.00e+00	0	33	0	293601280	42	5988
2026-01-04 17:33:36.90	20.67	7.31	-34.9	-35.6	23.3	0.00e+00	0	33	0	298844160	42	6131
2026-01-04 17:33:37.91	20.64	7.39	-34.6	-35.3	23.6	0.00e+00	0	33	0	304087040	42	5941
2026-01-04 17:33:38.92	20.61	7.47	-35.0	-35.7	23.3	0.00e+00	0	33	0	310378496	42	6219
2026-01-04 17:33:39.93	20.58	7.54	-34.8	-35.5	23.5	0.00e+00	0	33	0	315621376	42	6066
2026-01-04 17:33:40.94	20.55	7.62	-34.8	-35.6	23.3	0.00e+00	0	33	0	321912832	42	6117
2026-01-04 17:33:41.95	20.52	7.70	-35.6	-36.3	23.2	0.00e+00	0	33	0	327155712	42	6686
2026-01-04 17:33:42.96	20.49	7.78	-34.7	-35.5	23.5	0.00e+00	0	33	0	332398592	42	6054
2026-01-04 17:33:43.96	20.46	7.86	-34.8	-35.6	23.5	0.00e+00	0	33	0	338690048	42	6117
2026-01-04 17:33:44.97	20.43	7.94	-34.7	-35.4	23.4	0.00e+00	0	33	0	343932928	42	6032
2026-01-04 17:33:45.98	20.40	8.02	-34.7	-35.4	23.7	0.00e+00	0	33	0	350224384	42	6033
2026-01-04 17:33:46.99	20.37	8.09	-34.6	-35.3	23.7	0.00e+00	0	33	0	355467264	42	5941
2026-01-04 17:33:48.00	20.34	8.17	-35.0	-35.7	23.5	0.00e+00	0	33	0	361758720	42	6240
2026-01-04 17:33:49.01	20.31	8.25	-34.8	-35.5	23.6	0.00e+00	0	33	0	367001600	42	6086
2026-01-04 17:33:50.02	20.28	8.33	-34.7	-35.4	23.6	0.00e+00	0	33	0	372244480	42	6020
2026-01-04 17:33:51.03	20.25	8.42	-34.7	-35.5	23.6	0.00e+00	0	33	0	378535936	42	6054
2026-01-04 17:33:52.04	20.22	8.50	-34.6	-35.4	23.6	0.00e+00	0	33	0	383778816	42	5967
2026-01-04 17:33:53.04	20.19	8.58	-34.5	-35.2	23.8	0.00e+00	0	33	0	390070272	42	5886
2026-01-04 17:33:54.05	20.16	8.66	-34.5	-35.3	23.8	0.00e+00	0	33	0	395313152	42	5899
2026-01-04 17:33:55.06	20.13	8.74	-34.3	-35.0	24.0	0.00e+00	0	33	0	400556032	42	5733
2026-01-04 17:33:56.07	20.09	8.82	-34.2	-34.9	24.1	0.00e+00	0	33	0	406847488	42	5637
2026-01-04 17:33:57.08	20.06	8.90	-34.1	-34.8	24.1	0.00e+00	0	33	0	412090368	42	5626
2026-01-04 17:33:58.09	20.03	8.99	-34.0	-34.7	24.3	0.00e+00	0	33	0	418381824	42	5550
2026-01-04 17:33:59.10	20.00	9.07	-34.4	-35.1	23.8	0.00e+00	0	33	0	423624704	42	5822
2026-01-04 17:34:00.11	19.96	9.15	-34.2	-34.9	24.0	0.00e+00	0	33	0	428867584	42	5646
2026-01-04 17:34:01.12	19.93	9.23	-34.2	-34.9	24.2	0.00e+00	0	33	0	435159040	42	5649
2026-01-04 17:34:02.13	19.90	9.32	-34.1	-34.8	24.2	0.00e+00	0	33	0	440401920	42	5599
2026-01-04 17:34:03.14	19.86	9.40	-34.2	-34.9	24.2	0.00e+00	0	33	0	446693376	42	5661
2026-01-04 17:34:04.15	19.83	9.49	-34.2	-35.0	24.1	0.00e+00	0	33	0	451936256	42	5700
2026-01-04 17:34:05.16	19.80	9.57	-33.9	-34.6	24.4	0.00e+00	0	33	0	458227712	40	6111
2026-01-04 17:34:06.17	19.76	9.65	-33.9	-34.6	24.4	0.00e+00	0	33	0	463470592	40	6122
2026-01-04 17:34:07.18	19.73	9.74	-33.8	-34.5	24.5	0.00e+00	0	33	0	468713472	40	6056
2026-01-04 17:34:08.18	19.69	9.82	-33.7	-34.4	24.6	0.00e+00	0	33	0	475004928	40	5983
2026-01-04 17:34:09.19	19.66	9.91	-33.9	-34.6	24.4	0.00e+00	0	33	0	480247808	40	6112
2026-01-04 17:34:10.20	19.62	9.99	-33.9	-34.6	24.5	0.00e+00	0	33	0	486539264	40	6163
2026-01-04 17:34:11.21	19.59	10.08	-33.9	-34.6	24.4	0.00e+00	0	33	0	491782144	40	6172
2026-01-04 17:34:12.22	19.55	10.17	-34.0	-34.7	24.4	0.00e+00	0	33	0	497025024	40	6194
2026-01-04 17:34:13.23	19.52	10.25	-33.8	-34.5	24.5	0.00e+00	0	33	0	503316480	40	6067
2026-01-04 17:34:14.24	19.48	10.34	-33.8	-34.5	24.6	0.00e+00	0	33	0	508559360	40	6051
2026-01-04 17:34:15.25	19.45	10.43	-34.0	-34.7	24.3	0.00e+00	0	33	0	514850816	40	6182
2026-01-04 17:34:16.26	19.41	10.51	-34.0	-34.7	24.4	0.00e+00	0	33	0	520093696	40	6213
2026-01-04 17:34:17.27	19.37	10.60	-34.0	-34.7	24.4	0.00e+00	0	33	0	525336576	40	6201
2026-01-04 17:34:18.28	19.34	10.69	-34.4	-35.1	23.7	0.00e+00	0	33	0	531628032	40	6533
2026-01-04 17:34:19.29	19.30	10.78	-34.1	-34.8	24.0	0.00e+00	0	33	0	536870912	42	5601
2026-01-04 17:34:20.30	19.26	10.87	-34.4	-35.1	24.1	0.00e+00	0	33	0	543162368	42	5782
2026-01-04 17:34:21.31	19.22	10.96	-34.2	-34.8	24.2	0.00e+00	0	33	0	548405248	42	5628
2026-01-04 17:34:22.32	19.19	11.04	-34.2	-34.9	24.3	0.00e+00	0	33	0	554696704	42	5684
2026-01-04 17:34:23.33	19.15	11.13	-34.0	-34.7	24.5	0.00e+00	0	33	0	559939584	42	5542
2026-01-04 17:34:24.34	19.11	11.22	-33.9	-34.6	24.5	0.00e+00	0	33	0	566231040	42	5496
2026-01-04 17:34:25.35	19.07	11.31	-34.1	-34.8	24.2	0.00e+00	0	33	0	571473920	42	5622
2026-01-04 17:34:26.36	19.03	11.40	-34.2	-34.9	24.2	0.00e+00	0	33	0	576716800	42	5658
2026-01-04 17:34:27.37	18.99	11.49	-34.0	-34.7	24.4	0.00e+00	0	33	0	583008256	42	5504
2026-01-04 17:34:28.39	18.95	11.59	-34.7	-35.4	23.7	0.00e+00	0	33	0	588251136	42	5994
2026-01-04 17:34:29.39	18.91	11.68	-34.1	-34.8	24.2	0.00e+00	0	33	0	594542592	42	5615
2026-01-04 17:34:30.41	18.87	11.77	-34.3	-35.0	24.2	0.00e+00	0	33	0	599785472	42	5744
2026-01-04 17:34:31.42	18.83	11.86	-34.0	-34.7	24.5	0.00e+00	0	33	0	605028352	42	5544
2026-01-04 17:34:32.42	18.79	11.95	-34.0	-34.7	24.6	0.00e+00	0	33	0	611319808	42	5528
2026-01-04 17:34:33.43	18.75	12.05	-34.1	-34.8	24.4	0.00e+00	0	33	0	616562688	40	6304
2026-01-04 17:34:34.44	18.71	12.14	-33.8	-34.5	24.6	0.00e+00	0	33	0	622854144	40	6076
2026-01-04 17:34:35.45	18.67	12.23	-34.2	-34.9	24.3	0.00e+00	0	33	0	628097024	40	6335
2026-01-04 17:34:36.46	18.63	12.33	-34.6	-35.3	24.2	0.00e+00	0	33	0	633339904	42	5919
2026-01-04 17:34:37.47	18.59	12.42	-34.7	-35.4	23.7	0.00e+00	0	33	0	639631360	42	5998
2026-01-04 17:34:38.48	18.54	12.52	-34.2	-34.9	24.3	0.00e+00	0	33	0	644874240	42	5646
2026-01-04 17:34:39.49	18.50	12.61	-34.4	-35.1	24.0	0.00e+00	0	33	0	651165696	42	5782
2026-01-04 17:34:40.50	18.46	12.70	-34.2	-34.9	24.2	0.00e+00	0	33	0	656408576	42	5675
2026-01-04 17:34:41.51	18.41	12.80	-34.0	-34.7	24.2	0.00e+00	0	33	0	662700032	42	5548
2026-01-04 17:34:42.52	18.37	12.90	-34.1	-34.8	24.4	0.00e+00	0	33	0	667942912	40	6290
2026-01-04 17:34:43.53	18.33	12.99	-33.7	-34.4	24.6	0.00e+00	0	33	0	674234368	40	6023
2026-01-04 17:34:44.54	18.28	13.09	-33.6	-34.3	24.7	0.00e+00	0	33	0	679477248	40	5905
2026-01-04 17:34:45.55	18.24	13.19	-33.5	-34.1	24.9	0.00e+00	0	33	0	684720128	40	5818
2026-01-04 17:34:46.56	18.19	13.28	-33.7	-34.4	24.7	0.00e+00	0	33	0	691011584	40	6007
2026-01-04 17:34:47.57	18.15	13.38	-33.8	-34.5	24.6	0.00e+00	0	33	0	696254464	40	6065
2026-01-04 17:34:48.58	18.10	13.48	-34.0	-34.7	24.2	0.00e+00	0	33	0	702545920	40	6216
2026-01-04 17:34:49.59	18.06	13.58	-34.3	-35.0	24.9	0.00e+00	0	33	0	707788800	40	6420
2026-01-04 17:34:50.60	18.01	13.68	-33.9	-34.6	24.6	0.00e+00	0	33	0	713031680	40	6121
2026-01-04 17:34:51.61	17.97	13.78	-33.6	-34.3	25.0	0.00e+00	0	33	0	719323136	40	5944
2026-01-04 17:34:52.62	17.92	13.88	-34.6	-35.3	24.1	0.00e+00	0	33	0	724566016	40	6660
2026-01-04 17:34:53.64	17.87	13.98	-34.2	-34.8	24.9	0.00e+00	0	33	0	730857472	40	6310
2026-01-04 17:34:54.64	17.82	14.08	-33.4	-34.1	25.1	0.00e+00	0	33	0	736100352	40	5787
2026-01-04 17:34:55.65	17.78	14.18	-33.3	-33.9	24.9	0.00e+00	0	33	0	741343232	40	5687
2026-01-04 17:34:56.66	17.73	14.28	-33.6	-34.3	25.0	0.00e+00	0	33	0	747634688	40	5897
2026-01-04 17:34:57.67	17.68	14.38	-34.4	-35.1	24.7	0.00e+00	0	33	0	752877568	40	6495
2026-01-04 17:34:58.68	17.63	14.48	-33.4	-34.1	25.1	0.00e+00	0	33	0	759169024	40	5807
2026-01-04 17:34:59.69	17.58	14.58	-33.0	-33.7	25.3	0.00e+00	0	33	0	764411904	40	5511
2026-01-04 17:35:00.70	17.53	14.69	-33.6	-34.2	25.0	0.00e+00	0	33	0	770703360	40	5888
2026-01-04 17:35:01.71	17.48	14.79	-33.1	-33.8	25.5	0.00e+00	0	33	0	775946240	40	5586
2026-01-04 17:35:02.72	17.43	14.89	-33.0	-33.6	25.5	0.00e+00	0	33	0	781189120	40	5500
2026-01-04 17:35:03.73	17.38	15.00	-33.2	-33.9	25.3	0.00e+00	0	33	0	787480576	40	5668
2026-01-04 17:35:04.74	17.33	15.10	-32.8	-33.5	25.7	0.00e+00	0	33	0	792723456	38	6051
2026-01-04 17:35:05.75	17.28	15.21	-32.5	-33.1	25.9	0.00e+00	0	33	0	799014912	38	5828
2026-01-04 17:35:06.75	17.23	15.31	-33.0	-33.6	25.6	0.00e+00	0	33	0	804257792	38	6163
2026-01-04 17:35:07.76	17.17	15.42	-33.1	-33.8	25.5	0.00e+00	0	33	0	809500672	38	6266
2026-01-04 17:35:08.77	17.12	15.52	-32.7	-33.3	25.9	0.00e+00	0	33	0	815792128	38	5957
2026-01-04 17:35:09.78	17.07	15.63	-32.6	-33.2	25.9	0.00e+00	0	33	0	821035008	38	5843
2026-01-04 17:35:10.78	17.02	15.74	-33.1	-33.7	25.3	0.00e+00	0	33	0	827326464	38	6211
2026-01-04 17:35:11.79	16.96	15.84	-32.5	-33.1	26.0	0.00e+00	0	33	0	832569344	38	5827
2026-01-04 17:35:12.80	16.91	15.95	-32.3	-33.0	26.0	0.00e+00	0	33	0	837812224	38	5704
2026-01-04 17:35:13.81	16.85	16.06	-32.2	-32.9	26.1	0.00e+00	0	33	0	844103680	38	5667
2026-01-04 17:35:14.82	16.80	16.17	-32.4	-33.0	26.2	0.00e+00	0	33	0	849346560	38	5744
2026-01-04 17:35:15.83	16.74	16.28	-32.2	-32.8	26.1	0.00e+00	0	33	0	855638016	38	5586
2026-01-04 17:35:16.84	16.69	16.39	-32.0	-32.6	26.4	0.00e+00	0	33	0	860880896	38	5493
2026-01-04 17:35:17.79	16.63	16.49	-32.1	-32.7	26.4	0.00e+00	0	33	0	867172352	38	5535
2026-01-04 17:35:18.80	16.58	16.60	-31.9	-32.6	26.5	0.00e+00	0	33	0	872415232	38	5440
2026-01-04 17:35:19.81	16.52	16.71	-31.9	-32.5	26.5	0.00e+00	0	33	0	877658112	38	5400
2026-01-04 17:35:20.82	16.46	16.82	-32.0	-32.6	26.2	0.00e+00	0	33	0	883949568	38	5494
2026-01-04 17:35:21.83	16.40	16.94	-31.8	-32.4	26.5	0.00e+00	0	33	0	889192448	38	5372
2026-01-04 17:35:22.84	16.34	17.05	-32.1	-32.7	26.3	0.00e+00	0	33	0	895483904	38	5554
2026-01-04 17:35:23.85	16.29	17.16	-32.1	-32.7	26.3	0.00e+00	0	33	0	900726784	38	5555
2026-01-04 17:35:24.86	16.23	17.28	-31.9	-32.6	26.4	0.00e+00	0	33	0	905969664	38	5451
2026-01-04 17:35:25.87	16.17	17.39	-31.9	-32.5	26.6	0.00e+00	0	33	0	912261120	38	5433
2026-01-04 17:35:26.88	16.10	17.50	-31.8	-32.5	26.6	0.00e+00	0	33	0	917504000	38	5406
2026-01-04 17:35:27.89	16.04	17.62	-31.9	-32.5	26.5	0.00e+00	0	33	0	923795456	38	5426
2026-01-04 17:35:28.90	15.98	17.74	-31.9	-32.6	26.4	0.00e+00	0	33	0	929038336	36	6125
2026-01-04 17:35:29.91	15.92	17.85	-31.9	-32.6	26.5	0.00e+00	0	33	0	934281216	36	6128
2026-01-04 17:35:30.92	15.86	17.97	-31.8	-32.5	26.6	0.00e+00	0	33	0	940572672	36	6043
2026-01-04 17:35:31.93	15.79	18.08	-31.9	-32.5	26.7	0.00e+00	0	33	0	945815552	36	6081
2026-01-04 17:35:32.94	15.73	18.20	-31.8	-32.4	26.7	0.00e+00	0	33	0	952107008	36	6016
2026-01-04 17:35:33.95	15.67	18.32	-31.9	-32.5	26.7	0.00e+00	0	33	0	957349888	36	6070
2026-01-04 17:35:34.96	15.60	18.44	-31.8	-32.4	26.8	0.00e+00	0	33	0	963641344	36	5993
2026-01-04 17:35:35.97	15.54	18.56	-31.8	-32.5	26.4	0.00e+00	0	33	0	968884224	36	6058
2026-01-04 17:35:36.98	15.47	18.68	-31.7	-32.3	26.7	0.00e+00	0	33	0	975175680	36	5952
2026-01-04 17:35:37.99	15.40	18.80	-31.6	-32.2	26.8	0.00e+00	0	33	0	980418560	36	5847
2026-01-04 17:35:39.00	15.34	18.92	-31.5	-32.2	26.8	0.00e+00	0	33	0	985661440	36	5840
2026-01-04 17:35:40.01	15.27	19.04	-31.4	-32.1	26.9	0.00e+00	0	33	0	991952896	36	5778
2026-01-04 17:35:41.02	15.20	19.16	-31.6	-32.2	26.8	0.00e+00	0	33	0	997195776	36	5860
2026-01-04 17:35:42.03	15.13	19.29	-31.7	-32.3	26.8	0.00e+00	0	33	0	1003487232	36	5956
2026-01-04 17:35:43.04	15.06	19.41	-31.5	-32.1	26.9	0.00e+00	0	33	0	1008730112	36	5814
2026-01-04 17:35:44.05	14.99	19.53	-31.9	-32.5	26.8	0.00e+00	0	33	0	1013972992	36	6069
2026-01-04 17:35:45.06	14.92	19.66	-31.5	-32.2	26.9	0.00e+00	0	33	0	1020264448	36	5847
2026-01-04 17:35:46.07	14.85	19.78	-31.5	-32.1	26.9	0.00e+00	0	33	0	1025507328	36	5813
2026-01-04 17:35:47.08	14.78	19.91	-31.9	-32.5	26.7	0.00e+00	0	33	0	1031798784	36	6084
2026-01-04 17:35:48.09	14.71	20.03	-31.4	-32.0	27.0	0.00e+00	0	33	0	1037041664	36	5760
2026-01-04 17:35:49.10	14.64	20.16	-31.5	-32.1	27.0	0.00e+00	0	33	0	1042284544	36	5828
2026-01-04 17:35:50.11	14.56	20.29	-31.5	-32.1	27.0	0.00e+00	0	33	0	1048576000	36	5804
2026-01-04 17:35:51.12	14.49	20.41	-31.4	-32.1	27.0	0.00e+00	0	33	0	1053818880	36	5768
2026-01-04 17:35:52.12	14.41	20.54	-31.4	-32.0	26.9	0.00e+00	0	33	0	1060110336	36	5738
2026-01-04 17:35:53.14	14.34	20.67	-31.4	-32.0	26.9	0.00e+00	0	33	0	1065353216	36	5742
2026-01-04 17:35:54.14	14.26	20.80	-31.3	-31.9	27.0	0.00e+00	0	33	0	1071644672	36	5686
2026-01-04 17:35:55.15	14.18	20.93	-31.2	-31.8	27.1	0.00e+00	0	33	0	1076887552	36	5628
2026-01-04 17:35:56.16	14.11	21.06	-31.3	-31.9	27.0	0.00e+00	0	33	0	1082130432	36	5692
2026-01-04 17:35:57.17	14.03	21.19	-31.1	-31.7	27.2	0.00e+00	0	33	0	1088421888	36	5509
2026-01-04 17:35:58.18	13.95	21.32	-31.2	-31.8	27.1	0.00e+00	0	33	0	1093664768	36	5622
2026-01-04 17:35:59.19	13.87	21.46	-31.1	-31.7	27.2	0.00e+00	0	33	0	1099956224	36	5553
2026-01-04 17:36:00.20	13.79	21.59	-31.0	-31.7	27.4	0.00e+00	0	33	0	1105199104	36	5509
2026-01-04 17:36:01.21	13.71	21.72	-31.1	-31.6	27.4	0.00e+00	0	33	0	1110441984	36	5502
2026-01-04 17:36:02.22	13.63	21.86	-31.0	-31.6	27.4	0.00e+00	0	33	0	1116733440	36	5473
2026-01-04 17:36:03.23	13.54	21.99	-31.0	-31.6	27.4	0.00e+00	0	33	0	1121976320	36	5465
2026-01-04 17:36:04.24	13.46	22.13	-30.9	-31.6	27.3	0.00e+00	0	33	0	1128267776	36	5451
2026-01-04 17:36:05.25	13.38	22.27	-30.8	-31.4	27.5	0.00e+00	0	33	0	1133510656	36	5338
2026-01-04 17:36:06.26	13.29	22.40	-30.8	-31.4	27.4	0.00e+00	0	33	0	1138753536	36	5354
2026-01-04 17:36:07.27	13.21	22.54	-30.8	-31.4	27.5	0.00e+00	0	33	0	1145044992	36	5340
2026-01-04 17:36:08.28	13.12	22.68	-30.8	-31.5	27.5	0.00e+00	0	33	0	1150287872	34	6037
2026-01-04 17:36:09.29	13.03	22.82	-30.8	-31.4	27.5	0.00e+00	0	33	0	1156579328	34	5995
2026-01-04 17:36:10.30	12.95	22.96	-30.7	-31.3	27.5	0.00e+00	0	33	0	1161822208	34	5964
2026-01-04 17:36:11.31	12.86	23.10	-30.9	-31.5	27.4	0.00e+00	0	33	0	1168113664	34	6068
2026-01-04 17:36:12.31	12.77	23.24	-30.8	-31.4	27.5	0.00e+00	0	33	0	1173356544	34	6030
2026-01-04 17:36:13.32	12.68	23.38	-30.8	-31.4	27.5	0.00e+00	0	33	0	1178599424	34	5984
2026-01-04 17:36:14.33	12.59	23.53	-30.9	-31.5	27.5	0.00e+00	0	33	0	1184890880	34	6083
2026-01-04 17:36:15.34	12.49	23.67	-30.9	-31.5	27.4	0.00e+00	0	33	0	1190133760	34	6072
2026-01-04 17:36:16.35	12.40	23.81	-30.8	-31.5	27.4	0.00e+00	0	33	0	1196425216	34	6036
2026-01-04 17:36:17.36	12.31	23.96	-31.0	-31.6	27.4	0.00e+00	0	33	0	1201668096	34	6147
2026-01-04 17:36:18.37	12.21	24.10	-30.8	-31.5	27.5	0.00e+00	0	33	0	1206910976	34	6036
2026-01-04 17:36:19.38	12.11	24.25	-30.6	-31.3	27.7	0.00e+00	0	33	0	1213202432	34	5900
2026-01-04 17:36:20.39	12.02	24.40	-30.6	-31.2	27.5	0.00e+00	0	33	0	1218445312	34	5884
2026-01-04 17:36:21.40	11.92	24.54	-30.4	-31.0	27.8	0.00e+00	0	33	0	1224736768	34	5728
2026-01-04 17:36:22.41	11.82	24.69	-30.4	-31.0	27.8	0.00e+00	0	33	0	1229979648	34	5747
2026-01-04 17:36:23.42	11.72	24.84	-30.4	-31.1	27.8	0.00e+00	0	33	0	1236271104	34	5764
2026-01-04 17:36:24.43	11.62	24.99	-30.6	-31.2	27.6	0.00e+00	0	33	0	1241513984	34	5866
2026-01-04 17:36:25.44	11.52	25.14	-30.5	-31.1	27.8	0.00e+00	0	33	0	1246756864	34	5807
2026-01-04 17:36:26.45	11.42	25.30	-30.4	-31.0	27.9	0.00e+00	0	33	0	1253048320	34	5708
2026-01-04 17:36:27.46	11.31	25.45	-30.4	-31.0	27.9	0.00e+00	0	33	0	1258291200	34	5739
2026-01-04 17:36:28.47	11.21	25.60	-30.4	-31.0	27.9	0.00e+00	0	33	0	1264582656	34	5723
2026-01-04 17:36:29.48	11.10	25.75	-30.4	-31.0	28.0	0.00e+00	0	33	0	1269825536	34	5705
2026-01-04 17:36:30.49	10.99	25.91	-30.2	-30.9	28.0	0.00e+00	0	33	0	1276116992	34	5639
2026-01-04 17:36:31.50	10.89	26.06	-30.2	-30.8	28.1	0.00e+00	0	33	0	1281359872	34	5591
2026-01-04 17:36:32.51	10.78	26.22	-30.3	-30.9	28.0	0.00e+00	0	33	0	1286602752	34	5631
2026-01-04 17:36:33.52	10.67	26.38	-30.3	-30.9	28.0	0.00e+00	0	33	0	1292894208	34	5652
2026-01-04 17:36:34.53	10.56	26.54	-30.2	-30.8	28.0	0.00e+00	0	33	0	1298137088	34	5594
2026-01-04 17:36:35.54	10.44	26.69	-30.1	-30.7	28.1	0.00e+00	0	33	0	1304428544	34	5558
2026-01-04 17:36:36.54	10.33	26.85	-30.4	-31.0	28.2	0.00e+00	0	33	0	1309671424	34	5705
2026-01-04 17:36:37.55	10.22	27.01	-30.0	-30.6	28.2	0.00e+00	0	33	0	1314914304	34	5465
2026-01-04 17:36:38.56	10.10	27.17	-29.9	-30.5	28.2	0.00e+00	0	33	0	1321205760	34	5433
2026-01-04 17:36:39.57	9.98	27.34	-30.1	-30.6	28.1	0.00e+00	0	33	0	1326448640	34	5497
2026-01-04 17:36:40.58	9.86	27.50	-30.0	-30.6	28.1	0.00e+00	0	33	0	1332740096	34	5489
2026-01-04 17:36:41.59	9.74	27.66	-29.9	-30.6	28.2	0.00e+00	0	33	0	1337982976	34	5440
2026-01-04 17:36:42.61	9.62	27.83	-30.0	-30.7	28.1	0.00e+00	0	33	0	1343225856	34	5503
2026-01-04 17:36:43.61	9.50	27.99	-30.0	-30.6	28.2	0.00e+00	0	33	0	1349517312	34	5502
2026-01-04 17:36:44.62	9.38	28.16	-30.2	-30.8	27.9	0.00e+00	0	33	0	1354760192	34	5589
2026-01-04 17:36:45.63	9.25	28.32	-30.3	-30.9	28.1	0.00e+00	0	33	0	1361051648	34	5655
2026-01-04 17:36:46.64	9.12	28.49	-30.1	-30.7	28.2	0.00e+00	0	33	0	1366294528	34	5503
2026-01-04 17:36:47.65	9.00	28.66	-30.0	-30.6	28.2	0.00e+00	0	33	0	1372585984	34	5440
2026-01-04 17:36:48.66	8.87	28.83	-30.1	-30.7	28.1	0.00e+00	0	33	0	1377828864	34	5532
2026-01-04 17:36:49.67	8.74	29.00	-29.9	-30.5	28.4	0.00e+00	0	33	0	1383071744	34	5386
2026-01-04 17:36:50.68	8.61	29.17	-29.9	-30.6	28.2	0.00e+00	0	33	0	1389363200	34	5444
2026-01-04 17:36:51.69	8.47	29.34	-29.8	-30.4	28.4	0.00e+00	0	33	0	1394606080	34	5370
2026-01-04 17:36:52.70	8.34	29.52	-29.9	-30.5	28.5	0.00e+00	0	33	0	1400897536	32	6067
2026-01-04 17:36:53.71	8.20	29.69	-30.0	-30.6	28.3	0.00e+00	0	33	0	1406140416	32	6171
2026-01-04 17:36:54.72	8.06	29.87	-29.9	-30.5	28.3	0.00e+00	0	33	0	1411383296	32	6102
2026-01-04 17:36:55.73	7.92	30.04	-29.8	-30.4	28.0	0.00e+00	0	33	0	1417674752	32	6027
2026-01-04 17:36:56.74	7.78	30.22	-30.7	-31.3	27.9	0.00e+00	0	33	0	1422917632	32	6635
2026-01-04 17:36:57.75	7.64	30.40	-30.8	-31.5	27.9	0.00e+00	0	33	0	1429209088	34	6041
2026-01-04 17:36:58.76	7.49	30.57	-30.3	-30.9	27.8	0.00e+00	0	33	0	1434451968	34	5688
2026-01-04 17:36:59.77	7.35	30.75	-30.3	-30.9	28.2	0.00e+00	0	33	0	1439694848	34	5633
2026-01-04 17:37:00.78	7.20	30.93	-29.8	-30.4	28.3	0.00e+00	0	33	0	1445986304	34	5351
2026-01-04 17:37:01.79	7.05	31.11	-30.0	-30.6	28.3	0.00e+00	0	33	0	1451229184	34	5475
2026-01-04 17:37:02.80	6.90	31.30	-30.0	-30.6	28.2	0.00e+00	0	33	0	1457520640	34	5493
2026-01-04 17:37:03.81	6.75	31.48	-30.3	-30.9	28.0	0.00e+00	0	33	0	1462763520	34	5644
2026-01-04 17:37:04.81	6.60	31.66	-29.8	-30.4	28.3	0.00e+00	0	33	0	1469054976	32	6033
2026-01-04 17:37:05.83	6.44	31.85	-29.5	-30.1	28.5	0.00e+00	0	33	0	1474297856	32	5806
2026-01-04 17:37:06.83	6.28	32.03	-29.7	-30.3	28.4	0.00e+00	0	33	0	1480589312	32	5919
2026-01-04 17:37:07.84	6.12	32.22	-30.1	-30.7	28.1	0.00e+00	0	33	0	1485832192	32	6213
2026-01-04 17:37:08.85	5.96	32.40	-30.2	-30.8	28.0	0.00e+00	0	33	0	1491075072	34	5571
2026-01-04 17:37:09.86	5.79	32.59	-30.0	-30.7	28.1	0.00e+00	0	33	0	1497366528	34	5507
2026-01-04 17:37:10.87	5.63	32.78	-30.5	-31.1	27.7	0.00e+00	0	33	0	1502609408	34	5773
2026-01-04 17:37:11.88	5.46	32.97	-30.0	-30.6	28.4	0.00e+00	0	33	0	1508900864	34	5457
2026-01-04 17:37:12.89	5.29	33.16	-29.8	-30.4	28.4	0.00e+00	0	33	0	1514143744	34	5339
2026-01-04 17:37:13.90	5.12	33.36	-29.9	-30.5	28.4	0.00e+00	0	33	0	1519386624	32	6054
2026-01-04 17:37:14.91	4.95	33.55	-29.7	-30.3	28.5	0.00e+00	0	33	0	1525678080	32	5933
2026-01-04 17:37:15.91	4.77	33.74	-29.8	-30.5	28.4	0.00e+00	0	33	0	1530920960	32	6034
2026-01-04 17:37:16.92	4.59	33.93	-29.8	-30.4	28.4	0.00e+00	0	33	0	1537212416	32	6001
2026-01-04 17:37:17.93	4.41	34.13	-29.9	-30.5	28.5	0.00e+00	0	33	0	1542455296	32	6092
2026-01-04 17:37:18.94	4.23	34.33	-29.6	-30.2	28.6	0.00e+00	0	33	0	1547698176	32	5891
2026-01-04 17:37:19.95	4.04	34.52	-29.8	-30.4	28.3	0.00e+00	0	33	0	1553989632	32	5998
2026-01-04 17:37:20.96	3.86	34.72	-29.5	-30.1	28.6	0.00e+00	0	33	0	1559232512	32	5818
2026-01-04 17:37:21.97	3.67	34.92	-29.9	-30.5	28.3	0.00e+00	0	33	0	1565523968	32	6096
2026-01-04 17:37:22.98	3.48	35.12	-29.8	-30.4	28.4	0.00e+00	0	33	0	1570766848	32	6000
2026-01-04 17:37:23.99	3.28	35.32	-30.1	-30.7	28.3	0.00e+00	0	33	0	1577058304	32	6201
2026-01-04 17:37:25.00	3.08	35.53	-30.0	-30.6	28.4	0.00e+00	0	33	0	1582301184	32	6130
2026-01-04 17:37:26.01	2.89	35.73	-29.5	-30.1	28.6	0.00e+00	0	33	0	1587544064	32	5798
2026-01-04 17:37:27.02	2.68	35.93	-29.5	-30.1	28.5	0.00e+00	0	33	0	1593835520	32	5788
2026-01-04 17:37:28.03	2.48	36.14	-30.3	-30.9	28.2	0.00e+00	0	33	0	1599078400	32	6381
2026-01-04 17:37:29.04	2.27	36.34	-30.4	-31.0	28.3	0.00e+00	0	33	0	1605369856	32	6403
2026-01-04 17:37:30.05	2.06	36.55	-30.0	-30.6	28.4	0.00e+00	0	33	0	1610612736	32	6107
2026-01-04 17:37:31.06	1.85	36.76	-29.7	-30.2	28.5	0.00e+00	0	33	0	1615855616	32	5880
2026-01-04 17:37:32.07	1.63	36.96	-30.0	-30.6	28.5	0.00e+00	0	33	0	1622147072	32	6147
2026-01-04 17:37:33.08	1.42	37.17	-30.3	-30.9	28.2	0.00e+00	0	33	0	1627389952	32	6382
2026-01-04 17:37:34.09	1.20	37.38	-30.0	-30.6	28.2	0.00e+00	0	33	0	1633681408	32	6131
2026-01-04 17:37:35.10	0.97	37.59	-30.3	-30.9	28.1	0.00e+00	0	33	0	1638924288	32	6365
2026-01-04 17:37:36.11	0.74	37.80	-30.3	-30.9	28.1	0.00e+00	0	33	0	1645215744	34	5668
2026-01-04 17:37:37.12	0.51	38.02	-30.7	-31.3	28.0	0.00e+00	0	33	0	1650458624	34	5940
2026-01-04 17:37:38.13	0.28	38.23	-30.6	-31.2	28.0	0.00e+00	0	33	0	1656750080	34	5876
2026-01-04 17:37:39.14	0.05	38.44	-29.7	-30.2	28.5	0.00e+00	0	33	0	1661992960	32	5891
2026-01-04 17:37:40.15	359.81	38.66	-29.7	-30.3	28.7	0.00e+00	0	33	0	1667235840	32	5929
2026-01-04 17:37:41.16	359.56	38.87	-30.0	-30.6	28.4	0.00e+00	0	33	0	1673527296	32	6116
2026-01-04 17:37:42.17	359.32	39.09	-29.9	-30.6	28.5	0.00e+00	0	33	0	1678770176	32	6108
2026-01-04 17:37:43.18	359.07	39.31	-30.2	-30.8	28.4	0.00e+00	0	33	0	1685061632	32	6258
2026-01-04 17:37:44.19	358.82	39.52	-30.2	-30.8	28.2	0.00e+00	0	33	0	1690304512	32	6284
2026-01-04 17:37:45.19	358.56	39.74	-29.9	-30.5	28.4	0.00e+00	0	33	0	1695547392	32	6070
2026-01-04 17:37:46.20	358.30	39.96	-29.9	-30.5	28.5	0.00e+00	0	33	0	1701838848	32	6063
2026-01-04 17:37:47.21	358.04	40.18	-29.9	-30.5	28.2	0.00e+00	0	33	0	1707081728	32	6095
2026-01-04 17:37:48.22	357.77	40.40	-30.2	-30.8	28.2	0.00e+00	0	33	0	1712324608	32	6274
2026-01-04 17:37:49.23	357.50	40.62	-30.3	-30.9	28.2	0.00e+00	0	33	0	1718616064	32	6346
2026-01-04 17:37:50.24	357.23	40.84	-30.2	-30.7	28.1	0.00e+00	0	33	0	1723858944	32	6239
2026-01-04 17:37:51.25	356.95	41.06	-30.0	-30.6	28.3	0.00e+00	0	33	0	1730150400	32	6168
2026-01-04 17:37:52.26	356.67	41.29	-30.1	-30.7	28.2	0.00e+00	0	33	0	1735393280	32	6220
2026-01-04 17:37:53.27	356.38	41.51	-30.1	-30.7	28.1	0.00e+00	0	33	0	1741684736	32	6215
2026-01-04 17:37:54.28	356.09	41.73	-30.2	-30.8	28.2	0.00e+00	0	33	0	1746927616	32	6269
2026-01-04 17:37:55.29	355.80	41.96	-30.2	-30.8	28.2	0.00e+00	0	33	0	1753219072	32	6296
2026-01-04 17:37:56.30	355.50	42.18	-30.2	-30.8	28.2	0.00e+00	0	33	0	1758461952	34	5619
2026-01-04 17:37:57.31	355.20	42.41	-30.4	-31.0	28.2	0.00e+00	0	33	0	1763704832	34	5738
2026-01-04 17:37:58.32	354.89	42.64	-30.3	-30.9	28.2	0.00e+00	0	33	0	1769996288	34	5675
2026-01-04 17:37:59.33	354.58	42.86	-30.2	-30.8	28.1	0.00e+00	0	33	0	1775239168	34	5576
2026-01-04 17:38:00.34	354.27	43.09	-30.1	-30.7	28.2	0.00e+00	0	33	0	1781530624	34	5532
2026-01-04 17:38:01.35	353.95	43.32	-30.3	-30.9	28.3	0.00e+00	0	33	0	1786773504	34	5647
2026-01-04 17:38:02.36	353.62	43.54	-31.2	-31.9	27.5	0.00e+00	0	33	0	1792016384	34	6335
2026-01-04 17:38:03.37	353.29	43.77	-30.8	-31.4	28.0	0.00e+00	0	33	0	1798307840	34	5969
2026-01-04 17:38:04.38	352.96	44.00	-30.6	-31.2	28.1	0.00e+00	0	33	0	1803550720	34	5859
2026-01-04 17:38:05.39	352.62	44.23	-30.6	-31.2	27.7	0.00e+00	0	33	0	1809842176	34	5846
2026-01-04 17:38:06.40	352.27	44.46	-30.3	-30.9	28.0	0.00e+00	0	33	0	1815085056	34	5680
2026-01-04 17:38:07.40	351.93	44.68	-30.1	-30.7	28.2	0.00e+00	0	33	0	1820327936	34	5541
2026-01-04 17:38:08.41	351.58	44.91	-30.2	-30.8	28.2	0.00e+00	0	33	0	1826619392	34	5620
2026-01-04 17:38:09.42	351.22	45.14	-30.0	-30.6	28.2	0.00e+00	0	33	0	1831862272	34	5473
2026-01-04 17:38:10.44	350.85	45.37	-29.9	-30.5	28.4	0.00e+00	0	33	0	1838153728	34	5400
2026-01-04 17:38:11.44	350.48	45.60	-30.1	-30.7	28.3	0.00e+00	0	33	0	1843396608	34	5535
2026-01-04 17:38:12.45	350.11	45.83	-30.5	-31.1	28.0	0.00e+00	0	33	0	1849688064	34	5767
2026-01-04 17:38:13.46	349.72	46.06	-30.4	-31.0	28.1	0.00e+00	0	33	0	1854930944	34	5724
2026-01-04 17:38:14.47	349.34	46.29	-30.5	-31.1	28.0	0.00e+00	0	33	0	1860173824	34	5791
2026-01-04 17:38:15.48	348.95	46.51	-30.5	-31.1	28.1	0.00e+00	0	33	0	1866465280	34	5790
2026-01-04 17:38:16.49	348.55	46.74	-30.9	-31.5	28.0	0.00e+00	0	33	0	1871708160	34	6095
2026-01-04 17:38:17.50	348.14	46.97	-30.9	-31.5	27.9	0.00e+00	0	33	0	1877999616	34	6079
2026-01-04 17:38:18.51	347.73	47.20	-31.3	-31.9	27.2	0.00e+00	0	33	0	1883242496	34	6368
2026-01-04 17:38:19.52	347.32	47.42	-31.5	-32.2	27.3	0.00e+00	0	33	0	1888485376	34	6567
2026-01-04 17:38:20.53	346.90	47.65	-31.6	-32.3	27.4	0.00e+00	0	33	0	1894776832	34	6624
2026-01-04 17:38:21.54	346.47	47.88	-31.0	-31.6	27.7	0.00e+00	0	33	0	1900019712	36	5498
2026-01-04 17:38:22.55	346.03	48.10	-30.8	-31.4	27.8	0.00e+00	0	33	0	1906311168	36	5350
2026-01-04 17:38:23.56	345.59	48.33	-31.0	-31.7	27.5	0.00e+00	0	33	0	1911554048	34	6176
2026-01-04 17:38:24.56	345.15	48.55	-30.8	-31.4	27.7	0.00e+00	0	33	0	1916796928	34	6029
2026-01-04 17:38:25.57	344.69	48.77	-31.2	-31.8	27.6	0.00e+00	0	33	0	1923088384	34	6258
2026-01-04 17:38:26.59	344.23	49.00	-31.0	-31.6	27.5	0.00e+00	0	33	0	1928331264	34	6147
2026-01-04 17:38:27.59	343.76	49.22	-31.2	-31.8	27.5	0.00e+00	0	33	0	1934622720	34	6292
2026-01-04 17:38:28.60	343.29	49.44	-31.6	-32.2	27.5	0.00e+00	0	33	0	1939865600	36	5879
2026-01-04 17:38:29.62	342.80	49.66	-32.3	-32.9	26.5	0.00e+00	0	33	0	1945108480	36	6355
2026-01-04 17:38:30.63	342.32	49.88	-32.3	-33.0	26.5	0.00e+00	0	33	0	1951399936	36	6410
2026-01-04 17:38:31.63	341.82	50.09	-31.9	-32.6	27.0	0.00e+00	0	33	0	1956642816	38	5442
2026-01-04 17:38:32.65	341.32	50.31	-32.2	-32.8	26.9	0.00e+00	0	33	0	1962934272	36	6258
2026-01-04 17:38:33.66	340.81	50.53	-31.3	-31.9	27.3	0.00e+00	0	33	0	1968177152	36	5658
2026-01-04 17:38:34.67	340.29	50.74	-33.2	-33.9	25.7	0.00e+00	0	33	0	1974468608	36	7140
2026-01-04 17:38:35.67	339.77	50.95	-31.9	-32.5	27.3	0.00e+00	0	33	0	1979711488	36	6096
2026-01-04 17:38:36.68	339.24	51.16	-31.5	-32.1	27.3	0.00e+00	0	33	0	1986002944	36	5814
2026-01-04 17:38:37.70	338.69	51.37	-31.4	-32.1	27.5	0.00e+00	0	33	0	1991245824	36	5785
2026-01-04 17:38:38.71	338.14	51.58	-31.5	-32.1	27.0	0.00e+00	0	33	0	1996488704	36	5811
2026-01-04 17:38:39.72	337.59	51.78	-31.2	-31.8	27.6	0.00e+00	0	33	0	2002780160	36	5629
2026-01-04 17:38:40.73	337.03	51.98	-31.3	-31.9	27.2	0.00e+00	0	33	0	2008023040	36	5682
2026-01-04 17:38:41.74	336.46	52.18	-31.7	-32.4	27.1	0.00e+00	0	33	0	2014314496	36	5971
2026-01-04 17:38:42.75	335.88	52.38	-32.3	-33.0	26.6	0.00e+00	0	33	0	2019557376	36	6399
2026-01-04 17:38:43.75	335.30	52.58	-32.4	-33.1	27.0	0.00e+00	0	33	0	2024800256	38	5814
2026-01-04 17:38:44.76	334.70	52.77	-31.9	-32.5	27.2	0.00e+00	0	33	0	2031091712	36	6064
2026-01-04 17:38:45.77	334.10	52.96	-31.5	-32.1	27.3	0.00e+00	0	33	0	2036334592	36	5817
2026-01-04 17:38:46.78	333.49	53.15	-31.3	-32.0	27.4	0.00e+00	0	33	0	2042626048	36	5698
2026-01-04 17:38:47.79	332.87	53.34	-31.3	-31.9	27.5	0.00e+00	0	33	0	2047868928	36	5689
2026-01-04 17:38:48.80	332.25	53.52	-31.5	-32.1	27.4	0.00e+00	0	33	0	2053111808	36	5796
2026-01-04 17:38:49.81	331.61	53.70	-31.7	-32.3	27.7	0.00e+00	0	33	0	2059403264	36	5952
2026-01-04 17:38:50.82	330.97	53.88	-31.2	-31.8	27.6	0.00e+00	0	33	0	2064646144	36	5605
2026-01-04 17:38:51.83	330.32	54.05	-31.2	-31.9	27.8	0.00e+00	0	33	0	2070937600	36	5633
2026-01-04 17:38:52.84	329.67	54.22	-31.5	-32.1	27.5	0.00e+00	0	33	0	2076180480	36	5772
2026-01-04 17:38:53.85	329.00	54.39	-31.8	-32.4	27.4	0.00e+00	0	33	0	2082471936	36	5992
2026-01-04 17:38:54.86	328.33	54.55	-31.8	-32.4	27.5	0.00e+00	0	33	0	2087714816	36	5998
2026-01-04 17:38:55.87	327.65	54.71	-31.9	-32.5	27.6	0.00e+00	0	33	0	2092957696	36	6078
2026-01-04 17:38:56.88	326.96	54.87	-31.7	-32.4	27.7	0.00e+00	0	33	0	2099249152	36	6003
2026-01-04 17:38:57.89	326.26	55.03	-31.1	-31.8	27.6	0.00e+00	0	33	0	2104492032	36	5579
2026-01-04 17:38:58.90	325.56	55.18	-31.8	-32.5	27.6	0.00e+00	0	33	0	2110783488	36	6071
2026-01-04 17:38:59.91	324.85	55.32	-31.6	-32.3	27.6	0.00e+00	0	33	0	2116026368	36	5905
2026-01-04 17:39:00.92	324.13	55.46	-30.8	-31.5	27.9	0.00e+00	0	33	0	2121269248	36	5395
2026-01-04 17:39:01.93	323.40	55.60	-30.8	-31.4	28.1	0.00e+00	0	33	0	2127560704	34	6019
2026-01-04 17:39:02.94	322.67	55.73	-30.8	-31.5	28.0	0.00e+00	0	33	0	2132803584	34	6043
2026-01-04 17:39:03.95	321.93	55.86	-30.7	-31.3	28.0	0.00e+00	0	33	0	2139095040	34	5963
2026-01-04 17:39:04.96	321.18	55.99	-31.5	-32.0	28.2	0.00e+00	0	33	0	2144337920	34	6461
2026-01-04 17:39:05.97	320.43	56.11	-32.4	-33.2	27.6	0.00e+00	0	33	0	2150629376	36	6549
2026-01-04 17:39:06.98	319.67	56.22	-32.7	-33.3	27.2	0.00e+00	0	33	0	2155872256	38	5900
2026-01-04 17:39:07.99	318.91	56.33	-31.7	-32.3	27.6	0.00e+00	0	33	0	2161115136	38	5288
2026-01-04 17:39:09.00	318.13	56.44	-31.2	-31.8	27.9	0.00e+00	0	33	0	2167406592	36	5618
2026-01-04 17:39:10.01	317.36	56.54	-31.0	-31.6	27.8	0.00e+00	0	33	0	2172649472	36	5482
2026-01-04 17:39:11.02	316.57	56.64	-30.9	-31.4	27.8	0.00e+00	0	33	0	2178940928	36	5377
2026-01-04 17:39:12.02	315.79	56.73	-31.8	-32.4	27.9	0.00e+00	0	33	0	2184183808	36	5968
2026-01-04 17:39:13.03	315.00	56.81	-31.1	-31.7	28.1	0.00e+00	0	33	0	2190475264	36	5521
2026-01-04 17:39:14.04	314.20	56.89	-30.9	-31.5	27.8	0.00e+00	0	33	0	2195718144	36	5415
2026-01-04 17:39:15.05	313.40	56.97	-31.6	-32.2	27.8	0.00e+00	0	33	0	2200961024	36	5875
2026-01-04 17:39:16.06	312.59	57.04	-32.1	-32.7	27.4	0.00e+00	0	33	0	2207252480	36	6191
2026-01-04 17:39:17.07	311.78	57.11	-32.9	-33.6	27.4	0.00e+00	0	33	0	2212495360	38	6120
2026-01-04 17:39:18.08	310.96	57.16	-31.9	-32.5	27.5	0.00e+00	0	33	0	2218786816	38	5421
2026-01-04 17:39:19.09	310.15	57.22	-31.3	-31.9	27.7	0.00e+00	0	33	0	2224029696	36	5666
2026-01-04 17:39:20.10	309.32	57.27	-31.0	-31.6	28.0	0.00e+00	0	33	0	2229272576	36	5470
2026-01-04 17:39:21.11	308.50	57.31	-31.1	-31.7	27.9	0.00e+00	0	33	0	2235564032	36	5510
2026-01-04 17:39:22.12	307.67	57.35	-31.8	-32.5	27.7	0.00e+00	0	33	0	2240806912	36	6054
2026-01-04 17:39:23.13	306.84	57.38	-32.5	-33.0	27.7	0.00e+00	0	33	0	2247098368	36	6438
2026-01-04 17:39:24.14	306.01	57.40	-32.4	-33.1	27.4	0.00e+00	0	33	0	2252341248	38	5774
2026-01-04 17:39:25.15	305.18	57.42	-31.3	-31.9	27.7	0.00e+00	0	33	0	2257584128	36	5674
2026-01-04 17:39:26.16	304.35	57.44	-32.0	-32.6	27.9	0.00e+00	0	33	0	2263875584	36	6155
2026-01-04 17:39:27.17	303.51	57.44	-32.0	-32.6	27.7	0.00e+00	0	33	0	2269118464	36	6128
2026-01-04 17:39:28.18	302.68	57.45	-31.6	-32.2	27.7	0.00e+00	0	33	0	2275409920	36	5874
2026-01-04 17:39:29.19	301.84	57.44	-31.7	-32.3	27.5	0.00e+00	0	33	0	2280652800	36	5942
2026-01-04 17:39:30.20	301.01	57.43	-32.5	-33.1	27.4	0.00e+00	0	33	0	2286944256	36	6527
2026-01-04 17:39:31.21	300.18	57.42	-31.5	-32.2	27.5	0.00e+00	0	33	0	2292187136	36	5843
2026-01-04 17:39:32.22	299.35	57.40	-31.5	-32.0	27.6	0.00e+00	0	33	0	2297430016	36	5761
2026-01-04 17:39:33.22	298.52	57.37	-31.9	-32.5	27.5	0.00e+00	0	33	0	2303721472	36	6074
2026-01-04 17:39:34.23	297.69	57.34	-32.1	-32.6	27.5	0.00e+00	0	33	0	2308964352	36	6147
2026-01-04 17:39:35.24	296.87	57.30	-31.5	-32.1	27.3	0.00e+00	0	33	0	2315255808	36	5786
2026-01-04 17:39:36.25	296.04	57.26	-31.3	-32.0	27.5	0.00e+00	0	33	0	2320498688	36	5722
2026-01-04 17:39:37.26	295.22	57.21	-31.1	-31.8	27.4	0.00e+00	0	33	0	2325741568	36	5573
2026-01-04 17:39:38.27	294.40	57.16	-31.1	-31.7	27.7	0.00e+00	0	33	0	2332033024	36	5561
2026-01-04 17:39:39.28	293.59	57.10	-30.9	-31.5	27.8	0.00e+00	0	33	0	2337275904	36	5400
2026-01-04 17:39:40.29	292.78	57.03	-31.2	-31.8	27.6	0.00e+00	0	33	0	2343567360	36	5586
2026-01-04 17:39:41.30	291.97	56.96	-31.5	-32.1	27.4	0.00e+00	0	33	0	2348810240	36	5796
2026-01-04 17:39:42.31	291.17	56.88	-31.9	-32.6	27.5	0.00e+00	0	33	0	2354053120	36	6112
2026-01-04 17:39:43.32	290.37	56.80	-31.9	-32.4	27.5	0.00e+00	0	33	0	2360344576	36	6026
2026-01-04 17:39:44.33	289.57	56.71	-31.4	-32.0	27.8	0.00e+00	0	33	0	2365587456	36	5750
2026-01-04 17:39:45.34	288.79	56.62	-31.4	-32.1	27.7	0.00e+00	0	33	0	2371878912	36	5793
2026-01-04 17:39:46.35	288.00	56.52	-31.5	-32.1	27.9	0.00e+00	0	33	0	2377121792	36	5803
2026-01-04 17:39:47.35	287.23	56.42	-31.6	-32.2	27.9	0.00e+00	0	33	0	2383413248	36	5833
2026-01-04 17:39:48.36	286.46	56.32	-32.5	-33.2	27.3	0.00e+00	0	33	0	2388656128	36	6577
2026-01-04 17:39:49.37	285.70	56.20	-31.9	-32.6	27.4	0.00e+00	0	33	0	2393899008	36	6115
2026-01-04 17:39:50.38	284.94	56.09	-32.0	-32.7	27.5	0.00e+00	0	33	0	2400190464	36	6177
2026-01-04 17:39:51.39	284.18	55.97	-31.9	-32.5	27.8	0.00e+00	0	33	0	2405433344	36	6070
2026-01-04 17:39:52.40	283.44	55.84	-32.2	-32.8	27.5	0.00e+00	0	33	0	2411724800	36	6251
2026-01-04 17:39:53.42	282.69	55.71	-32.4	-33.0	27.9	0.00e+00	0	33	0	2416967680	36	6400
2026-01-04 17:39:54.43	281.96	55.58	-31.7	-32.4	27.8	0.00e+00	0	33	0	2423259136	36	5982
2026-01-04 17:39:55.44	281.23	55.44	-31.9	-32.5	28.0	0.00e+00	0	33	0	2428502016	36	6083
2026-01-04 17:39:56.45	280.52	55.29	-30.5	-31.1	28.0	0.00e+00	0	33	0	2433744896	34	5787
2026-01-04 17:39:57.46	279.81	55.15	-32.1	-32.7	28.1	0.00e+00	0	33	0	2440036352	34	6933
2026-01-04 17:39:58.47	279.10	55.00	-31.3	-31.9	28.0	0.00e+00	0	33	0	2445279232	36	5674
2026-01-04 17:39:59.48	278.41	54.84	-31.8	-32.4	27.9	0.00e+00	0	33	0	2451570688	36	5999
2026-01-04 17:40:00.49	277.72	54.68	-30.4	-31.0	28.1	0.00e+00	0	33	0	2456813568	34	5742
2026-01-04 17:40:01.50	277.04	54.52	-31.6	-32.3	28.1	0.00e+00	0	33	0	2462056448	34	6631
2026-01-04 17:40:02.51	276.37	54.36	-31.3	-31.8	28.0	0.00e+00	0	33	0	2468347904	34	6304
2026-01-04 17:40:03.52	275.70	54.19	-31.2	-31.8	27.9	0.00e+00	0	33	0	2473590784	34	6291
2026-01-04 17:40:04.53	275.04	54.02	-31.1	-31.6	27.6	0.00e+00	0	33	0	2479882240	34	6173
2026-01-04 17:40:05.54	274.39	53.84	-31.8	-32.3	27.7	0.00e+00	0	33	0	2485125120	34	6691
2026-01-04 17:40:06.55	273.75	53.66	-31.4	-32.0	27.8	0.00e+00	0	33	0	2491416576	36	5718
2026-01-04 17:40:07.55	273.13	53.48	-31.4	-32.1	27.9	0.00e+00	0	33	0	2496659456	36	5787
2026-01-04 17:40:08.56	272.50	53.30	-32.2	-32.8	27.8	0.00e+00	0	33	0	2501902336	36	6254
2026-01-04 17:40:09.57	271.88	53.11	-30.8	-31.5	27.3	0.00e+00	0	33	0	2508193792	36	5381
2026-01-04 17:40:10.58	271.27	52.92	-30.9	-31.6	28.1	0.00e+00	0	33	0	2513436672	34	6105
2026-01-04 17:40:11.59	270.67	52.73	-30.6	-31.1	28.3	0.00e+00	0	33	0	2519728128	34	5803
2026-01-04 17:40:12.60	270.08	52.54	-30.9	-31.5	28.0	0.00e+00	0	33	0	2524971008	34	6067
2026-01-04 17:40:13.61	269.49	52.34	-31.2	-31.9	27.8	0.00e+00	0	33	0	2530213888	34	6341
2026-01-04 17:40:14.62	268.91	52.14	-31.5	-32.1	27.8	0.00e+00	0	33	0	2536505344	34	6489
2026-01-04 17:40:15.63	268.34	51.94	-31.9	-32.5	27.8	0.00e+00	0	33	0	2541748224	36	6089
2026-01-04 17:40:16.64	267.78	51.74	-31.8	-32.4	27.7	0.00e+00	0	33	0	2548039680	36	6005
2026-01-04 17:40:17.65	267.23	51.53	-31.5	-32.2	27.9	0.00e+00	0	33	0	2553282560	36	5859
2026-01-04 17:40:18.66	266.68	51.32	-32.2	-32.7	27.7	0.00e+00	0	33	0	2558525440	36	6197
2026-01-04 17:40:19.66	266.15	51.12	-31.7	-32.3	27.8	0.00e+00	0	33	0	2564816896	36	5913
2026-01-04 17:40:20.67	265.61	50.91	-32.1	-32.8	27.6	0.00e+00	0	33	0	2570059776	36	6304
2026-01-04 17:40:21.68	265.09	50.69	-31.8	-32.4	28.1	0.00e+00	0	33	0	2576351232	36	5979
2026-01-04 17:40:22.69	264.57	50.48	-31.2	-31.7	28.3	0.00e+00	0	33	0	2581594112	36	5552
2026-01-04 17:40:23.70	264.06	50.26	-31.2	-31.8	28.2	0.00e+00	0	33	0	2587885568	36	5611
2026-01-04 17:40:24.71	263.56	50.05	-31.0	-31.6	28.0	0.00e+00	0	33	0	2593128448	36	5448
2026-01-04 17:40:25.72	263.06	49.83	-30.8	-31.5	28.1	0.00e+00	0	33	0	2598371328	34	6048
2026-01-04 17:40:26.73	262.58	49.61	-30.6	-31.2	27.9	0.00e+00	0	33	0	2604662784	34	5833
2026-01-04 17:40:27.74	262.09	49.39	-30.7	-31.3	28.0	0.00e+00	0	33	0	2609905664	34	5911
2026-01-04 17:40:28.75	261.62	49.17	-30.9	-31.5	27.7	0.00e+00	0	33	0	2616197120	34	6060
2026-01-04 17:40:29.76	261.15	48.94	-31.0	-31.7	27.9	0.00e+00	0	33	0	2621440000	34	6210
2026-01-04 17:40:30.77	260.69	48.72	-30.9	-31.4	27.8	0.00e+00	0	33	0	2626682880	34	6004
2026-01-04 17:40:31.78	260.24	48.50	-30.9	-31.5	28.1	0.00e+00	0	33	0	2632974336	34	6092
2026-01-04 17:40:32.79	259.79	48.27	-30.6	-31.1	28.0	0.00e+00	0	33	0	2638217216	34	5814
2026-01-04 17:40:33.80	259.35	48.05	-31.2	-31.7	28.4	0.00e+00	0	33	0	2644508672	34	6228
2026-01-04 17:40:34.81	258.91	47.82	-30.2	-30.8	28.7	0.00e+00	0	33	0	2649751552	34	5629
2026-01-04 17:40:35.82	258.49	47.59	-30.1	-30.6	28.3	0.00e+00	0	33	0	2654994432	34	5471
2026-01-04 17:40:36.83	258.06	47.37	-30.8	-31.3	28.4	0.00e+00	0	33	0	2661285888	34	5917
2026-01-04 17:40:37.84	257.65	47.14	-30.2	-30.9	28.3	0.00e+00	0	33	0	2666528768	34	5635
2026-01-04 17:40:38.85	257.24	46.91	-29.9	-30.5	28.4	0.00e+00	0	33	0	2672820224	34	5420
2026-01-04 17:40:39.86	256.83	46.68	-30.0	-30.6	28.3	0.00e+00	0	33	0	2678063104	34	5440
2026-01-04 17:40:40.87	256.44	46.45	-30.1	-30.8	28.4	0.00e+00	0	33	0	2684354560	34	5583
2026-01-04 17:40:41.87	256.05	46.23	-30.2	-30.8	28.1	0.00e+00	0	33	0	2689597440	34	5576
2026-01-04 17:40:42.88	255.66	46.00	-30.0	-30.6	28.2	0.00e+00	0	33	0	2695888896	34	5499
2026-01-04 17:40:43.89	255.28	45.77	-30.5	-31.0	28.4	0.00e+00	0	33	0	2701131776	34	5728
2026-01-04 17:40:44.90	254.90	45.54	-29.9	-30.6	28.4	0.00e+00	0	33	0	2706374656	34	5467
2026-01-04 17:40:45.91	254.53	45.31	-29.8	-30.3	28.6	0.00e+00	0	33	0	2712666112	34	5308
2026-01-04 17:40:46.92	254.17	45.08	-30.0	-30.7	28.6	0.00e+00	0	33	0	2717908992	32	6205
2026-01-04 17:40:47.93	253.81	44.85	-29.7	-30.3	28.9	0.00e+00	0	33	0	2724200448	32	5898
2026-01-04 17:40:48.94	253.46	44.62	-30.1	-30.6	28.5	0.00e+00	0	33	0	2729443328	32	6136
2026-01-04 17:40:49.95	253.11	44.39	-30.2	-30.7	28.2	0.00e+00	0	33	0	2734686208	34	5535
2026-01-04 17:40:50.96	252.76	44.16	-31.4	-31.9	28.0	0.00e+00	0	33	0	2740977664	34	6390
2026-01-04 17:40:51.97	252.42	43.93	-30.5	-31.1	28.2	0.00e+00	0	33	0	2746220544	34	5828
2026-01-04 17:40:52.98	252.09	43.70	-30.4	-30.9	28.1	0.00e+00	0	33	0	2752512000	34	5692
2026-01-04 17:40:53.99	251.76	43.47	-29.9	-30.5	28.2	0.00e+00	0	33	0	2757754880	34	5382
2026-01-04 17:40:55.00	251.44	43.24	-29.7	-30.2	28.4	0.00e+00	0	33	0	2762997760	32	5870
2026-01-04 17:40:56.01	251.12	43.02	-29.5	-30.1	28.5	0.00e+00	0	33	0	2769289216	32	5820
2026-01-04 17:40:57.02	250.80	42.79	-29.9	-30.4	28.3	0.00e+00	0	33	0	2774532096	32	5986
2026-01-04 17:40:58.03	250.49	42.56	-29.7	-30.4	28.4	0.00e+00	0	33	0	2780823552	32	5992
2026-01-04 17:40:59.04	250.18	42.34	-29.7	-30.3	28.5	0.00e+00	0	33	0	2786066432	32	5950
2026-01-04 17:41:00.05	249.88	42.11	-29.6	-30.2	28.6	0.00e+00	0	33	0	2792357888	32	5877
2026-01-04 17:41:01.06	249.58	41.88	-29.8	-30.3	28.6	0.00e+00	0	33	0	2797600768	32	5940
2026-01-04 17:41:02.07	249.29	41.66	-29.9	-30.4	28.5	0.00e+00	0	33	0	2802843648	32	6032
2026-01-04 17:41:03.08	249.00	41.43	-29.9	-30.4	28.5	0.00e+00	0	33	0	2809135104	32	6027
2026-01-04 17:41:04.09	248.71	41.21	-29.8	-30.3	28.5	0.00e+00	0	33	0	2814377984	32	5951
2026-01-04 17:41:05.09	248.43	40.99	-29.7	-30.4	28.4	0.00e+00	0	33	0	2820669440	32	6010
2026-01-04 17:41:06.11	248.15	40.76	-29.8	-30.3	28.3	0.00e+00	0	33	0	2825912320	32	5941
2026-01-04 17:41:07.11	247.88	40.54	-29.5	-30.2	28.5	0.00e+00	0	33	0	2831155200	32	5838
2026-01-04 17:41:08.12	247.61	40.32	-29.8	-30.5	28.6	0.00e+00	0	33	0	2837446656	32	6062
2026-01-04 17:41:09.13	247.34	40.10	-29.8	-30.3	28.4	0.00e+00	0	33	0	2842689536	32	5915
2026-01-04 17:41:10.14	247.08	39.88	-29.6	-30.3	28.7	0.00e+00	0	33	0	2848980992	32	5919
2026-01-04 17:41:11.15	246.82	39.66	-29.2	-29.7	28.8	0.00e+00	0	33	0	2854223872	32	5558
2026-01-04 17:41:12.16	246.57	39.44	-29.3	-29.9	28.7	0.00e+00	0	33	0	2859466752	32	5693
2026-01-04 17:41:13.17	246.31	39.22	-29.4	-30.1	28.7	0.00e+00	0	33	0	2865758208	32	5763
2026-01-04 17:41:14.19	246.06	39.00	-29.7	-30.2	28.4	0.00e+00	0	33	0	2871001088	32	5848
2026-01-04 17:41:15.20	245.82	38.79	-30.0	-30.7	28.1	0.00e+00	0	33	0	2877292544	32	6226
2026-01-04 17:41:16.20	245.58	38.57	-29.8	-30.4	28.3	0.00e+00	0	33	0	2882535424	32	5966
2026-01-04 17:41:17.21	245.34	38.36	-29.5	-30.0	28.5	0.00e+00	0	33	0	2888826880	32	5715
2026-01-04 17:41:18.22	245.10	38.14	-29.7	-30.2	28.4	0.00e+00	0	33	0	2894069760	32	5880
2026-01-04 17:41:19.23	244.87	37.93	-30.2	-30.8	28.3	0.00e+00	0	33	0	2900361216	32	6302
2026-01-04 17:41:20.24	244.64	37.71	-30.9	-31.6	27.5	0.00e+00	0	33	0	2905604096	34	6161
2026-01-04 17:41:21.25	244.41	37.50	-30.1	-30.7	28.3	0.00e+00	0	33	0	2910846976	34	5565
2026-01-04 17:41:22.26	244.19	37.29	-30.4	-31.0	27.7	0.00e+00	0	33	0	2917138432	34	5707
2026-01-04 17:41:23.27	243.97	37.08	-30.6	-31.3	28.2	0.00e+00	0	33	0	2922381312	34	5920
2026-01-04 17:41:24.28	243.75	36.87	-30.1	-30.6	28.1	0.00e+00	0	33	0	2928672768	34	5502
2026-01-04 17:41:25.29	243.53	36.66	-29.8	-30.3	28.4	0.00e+00	0	33	0	2933915648	32	5941
2026-01-04 17:41:26.30	243.32	36.46	-29.7	-30.2	28.4	0.00e+00	0	33	0	2939158528	32	5876
2026-01-04 17:41:27.30	243.11	36.25	-30.0	-30.6	28.3	0.00e+00	0	33	0	2945449984	32	6132
2026-01-04 17:41:28.31	242.90	36.04	-29.7	-30.2	28.6	0.00e+00	0	33	0	2950692864	32	5877
2026-01-04 17:41:29.32	242.70	35.84	-29.6	-30.2	28.6	0.00e+00	0	33	0	2955935744	32	5875
2026-01-04 17:41:30.33	242.50	35.63	-29.5	-30.2	28.6	0.00e+00	0	33	0	2962227200	32	5851
2026-01-04 17:41:31.34	242.30	35.43	-29.8	-30.5	28.5	0.00e+00	0	33	0	2967470080	32	6039
2026-01-04 17:41:32.35	242.10	35.23	-29.6	-30.3	28.5	0.00e+00	0	33	0	2973761536	32	5918
2026-01-04 17:41:33.36	241.91	35.03	-29.9	-30.5	28.4	0.00e+00	0	33	0	2979004416	32	6099
2026-01-04 17:41:34.37	241.72	34.83	-29.8	-30.5	28.4	0.00e+00	0	33	0	2985295872	32	6039
2026-01-04 17:41:35.38	241.53	34.63	-29.8	-30.3	28.3	0.00e+00	0	33	0	2990538752	32	5941
2026-01-04 17:41:36.39	241.34	34.43	-29.9	-30.4	28.4	0.00e+00	0	33	0	2996830208	32	6027
2026-01-04 17:41:37.40	241.15	34.23	-29.7	-30.4	28.6	0.00e+00	0	33	0	3002073088	32	5999
2026-01-04 17:41:38.41	240.97	34.03	-29.6	-30.2	28.5	0.00e+00	0	33	0	3007315968	32	5886
2026-01-04 17:41:39.42	240.79	33.84	-29.8	-30.3	28.4	0.00e+00	0	33	0	3013607424	32	5949
2026-01-04 17:41:40.43	240.61	33.64	-29.6	-30.1	28.7	0.00e+00	0	33	0	3018850304	32	5812
2026-01-04 17:41:41.44	240.43	33.45	-29.5	-30.0	28.6	0.00e+00	0	33	0	3025141760	32	5729
2026-01-04 17:41:42.45	240.26	33.25	-29.4	-30.1	28.5	0.00e+00	0	33	0	3030384640	32	5807
2026-01-04 17:41:43.46	240.09	33.06	-29.9	-30.6	28.5	0.00e+00	0	33	0	3035627520	32	6115
2026-01-04 17:41:44.47	239.92	32.87	-29.6	-30.1	28.5	0.00e+00	0	33	0	3041918976	32	5793
2026-01-04 17:41:45.48	239.75	32.68	-29.9	-30.4	28.6	0.00e+00	0	33	0	3047161856	32	6015
2026-01-04 17:41:46.49	239.58	32.49	-30.1	-30.6	28.3	0.00e+00	0	33	0	3053453312	32	6158
2026-01-04 17:41:47.50	239.42	32.30	-30.3	-30.8	28.3	0.00e+00	0	33	0	3058696192	32	6282
2026-01-04 17:41:48.51	239.26	32.11	-30.2	-30.7	28.2	0.00e+00	0	33	0	3063939072	32	6242
2026-01-04 17:41:49.51	239.10	31.93	-30.4	-31.1	28.3	0.00e+00	0	33	0	3070230528	32	6493
2026-01-04 17:41:50.52	238.94	31.74	-29.9	-30.5	28.3	0.00e+00	0	33	0	3075473408	32	6050
2026-01-04 17:41:51.53	238.78	31.56	-30.3	-30.8	28.2	0.00e+00	0	33	0	3081764864	32	6293
2026-01-04 17:41:52.54	238.63	31.37	-30.1	-30.6	28.3	0.00e+00	0	33	0	3087007744	32	6150
2026-01-04 17:41:53.54	238.48	31.19	-29.9	-30.4	28.3	0.00e+00	0	33	0	3093299200	32	6013
2026-01-04 17:41:54.55	238.33	31.01	-30.2	-30.7	28.2	0.00e+00	0	33	0	3098542080	32	6239
2026-01-04 17:41:55.56	238.18	30.83	-30.2	-30.7	28.2	0.00e+00	0	33	0	3103784960	32	6196
2026-01-04 17:41:56.57	238.03	30.65	-30.3	-30.9	28.2	0.00e+00	0	33	0	3110076416	32	6328
2026-01-04 17:41:57.58	237.88	30.47	-30.3	-30.8	28.0	0.00e+00	0	33	0	3115319296	32	6294
2026-01-04 17:41:58.59	237.74	30.29	-30.4	-30.9	28.2	0.00e+00	0	33	0	3121610752	32	6382
2026-01-04 17:41:59.59	237.60	30.11	-30.6	-31.3	28.2	0.00e+00	0	33	0	3126853632	34	5930
2026-01-04 17:42:00.60	237.46	29.94	-30.3	-31.0	28.1	0.00e+00	0	33	0	3132096512	34	5731
2026-01-04 17:42:01.61	237.32	29.76	-30.6	-31.3	28.2	0.00e+00	0	33	0	3138387968	34	5920
2026-01-04 17:42:02.62	237.18	29.58	-30.7	-31.3	27.9	0.00e+00	0	33	0	3143630848	34	5904
2026-01-04 17:42:03.63	237.04	29.41	-31.2	-31.7	28.1	0.00e+00	0	33	0	3149922304	34	6219
2026-01-04 17:42:04.64	236.91	29.24	-31.3	-31.8	28.0	0.00e+00	0	33	0	3155165184	34	6276
2026-01-04 17:42:05.64	236.77	29.07	-30.6	-31.2	27.7	0.00e+00	0	33	0	3160408064	34	5849
2026-01-04 17:42:06.65	236.64	28.89	-30.5	-31.0	27.8	0.00e+00	0	33	0	3166699520	34	5742
2026-01-04 17:42:07.67	236.51	28.72	-30.3	-30.9	27.8	0.00e+00	0	33	0	3171942400	34	5654
2026-01-04 17:42:08.67	236.38	28.55	-30.2	-30.7	27.9	0.00e+00	0	33	0	3178233856	34	5559
2026-01-04 17:42:09.69	236.25	28.38	-30.4	-30.9	27.8	0.00e+00	0	33	0	3183476736	34	5660
2026-01-04 17:42:10.70	236.12	28.21	-30.2	-30.7	27.9	0.00e+00	0	33	0	3189768192	34	5534
2026-01-04 17:42:11.71	236.00	28.05	-30.2	-30.7	28.0	0.00e+00	0	33	0	3195011072	34	5526
2026-01-04 17:42:12.72	235.88	27.88	-30.3	-30.9	27.9	0.00e+00	0	33	0	3200253952	34	5651
2026-01-04 17:42:13.73	235.75	27.71	-30.3	-30.9	27.9	0.00e+00	0	33	0	3206545408	34	5645
2026-01-04 17:42:14.74	235.63	27.55	-30.2	-30.7	28.0	0.00e+00	0	33	0	3211788288	34	5531
2026-01-04 17:42:15.75	235.51	27.39	-30.5	-31.0	27.7	0.00e+00	0	33	0	3218079744	34	5748
2026-01-04 17:42:16.76	235.39	27.22	-30.5	-31.0	27.7	0.00e+00	0	33	0	3223322624	34	5744
2026-01-04 17:42:17.77	235.27	27.06	-30.1	-30.7	27.9	0.00e+00	0	33	0	3228565504	34	5508
2026-01-04 17:42:18.78	235.16	26.90	-30.2	-30.8	27.8	0.00e+00	0	33	0	3234856960	34	5583
2026-01-04 17:42:19.79	235.04	26.74	-30.2	-30.7	27.8	0.00e+00	0	33	0	3240099840	34	5542
2026-01-04 17:42:20.80	234.93	26.58	-30.3	-30.9	27.7	0.00e+00	0	33	0	3246391296	34	5654
2026-01-04 17:42:21.80	234.82	26.42	-30.4	-30.9	27.8	0.00e+00	0	33	0	3251634176	34	5694
2026-01-04 17:42:22.81	234.71	26.26	-30.2	-30.7	27.8	0.00e+00	0	33	0	3256877056	34	5563
2026-01-04 17:42:23.82	234.59	26.10	-30.3	-30.8	27.8	0.00e+00	0	33	0	3263168512	34	5607
2026-01-04 17:42:24.83	234.49	25.95	-30.1	-30.6	27.9	0.00e+00	0	33	0	3268411392	34	5468
2026-01-04 17:42:25.84	234.38	25.79	-30.1	-30.6	27.9	0.00e+00	0	33	0	3274702848	34	5500
2026-01-04 17:42:26.85	234.27	25.64	-30.1	-30.7	28.0	0.00e+00	0	33	0	3279945728	34	5546
2026-01-04 17:42:27.86	234.16	25.48	-30.1	-30.7	27.9	0.00e+00	0	33	0	3286237184	34	5556
2026-01-04 17:42:28.87	234.06	25.33	-30.3	-30.9	27.9	0.00e+00	0	33	0	3291480064	34	5688
2026-01-04 17:42:29.88	233.95	25.18	-30.5	-31.1	27.8	0.00e+00	0	33	0	3297771520	34	5813
2026-01-04 17:42:30.89	233.85	25.02	-30.1	-30.6	27.9	0.00e+00	0	33	0	3303014400	34	5496
2026-01-04 17:42:31.90	233.75	24.87	-30.2	-30.7	27.8	0.00e+00	0	33	0	3308257280	34	5525
2026-01-04 17:42:32.91	233.65	24.72	-30.4	-31.0	27.7	0.00e+00	0	33	0	3314548736	34	5717
2026-01-04 17:42:33.92	233.55	24.57	-30.2	-30.7	27.8	0.00e+00	0	33	0	3319791616	34	5552
2026-01-04 17:42:34.93	233.45	24.42	-30.2	-30.8	27.8	0.00e+00	0	33	0	3326083072	34	5570
2026-01-04 17:42:35.94	233.35	24.28	-30.4	-31.1	27.7	0.00e+00	0	33	0	3331325952	34	5808
2026-01-04 17:42:36.94	233.25	24.13	-30.7	-31.4	27.6	0.00e+00	0	33	0	3336568832	34	5999
2026-01-04 17:42:37.95	233.16	23.98	-30.5	-31.2	27.5	0.00e+00	0	33	0	3342860288	34	5853
2026-01-04 17:42:38.97	233.06	23.84	-31.0	-31.7	27.3	0.00e+00	0	33	0	3348103168	34	6235
2026-01-04 17:42:39.98	232.97	23.69	-30.8	-31.4	27.4	0.00e+00	0	33	0	3354394624	34	5972
2026-01-04 17:42:40.98	232.87	23.55	-30.8	-31.4	27.4	0.00e+00	0	33	0	3359637504	34	5967
2026-01-04 17:42:41.99	232.78	23.40	-30.8	-31.5	27.4	0.00e+00	0	33	0	3364880384	34	6035
2026-01-04 17:42:43.00	232.69	23.26	-30.7	-31.4	27.3	0.00e+00	0	33	0	3371171840	34	5979
2026-01-04 17:42:44.02	232.60	23.12	-31.0	-31.7	27.5	0.00e+00	0	33	0	3376414720	34	6188
2026-01-04 17:42:45.03	232.51	22.98	-30.8	-31.4	27.4	0.00e+00	0	33	0	3382706176	34	5971
2026-01-04 17:42:46.04	232.42	22.83	-30.7	-31.2	27.4	0.00e+00	0	33	0	3387949056	34	5873
2026-01-04 17:42:47.05	232.33	22.69	-30.4	-30.9	27.6	0.00e+00	0	33	0	3394240512	34	5670
2026-01-04 17:42:48.06	232.24	22.55	-30.5	-31.1	27.5	0.00e+00	0	33	0	3399483392	34	5788
2026-01-04 17:42:49.07	232.15	22.42	-30.7	-31.4	27.4	0.00e+00	0	33	0	3404726272	34	5983
2026-01-04 17:42:50.08	232.07	22.28	-30.5	-31.2	27.6	0.00e+00	0	33	0	3411017728	34	5859
2026-01-04 17:42:51.09	231.98	22.14	-30.8	-31.4	27.4	0.00e+00	0	33	0	3416260608	34	5998
2026-01-04 17:42:52.10	231.90	22.00	-30.9	-31.6	27.2	0.00e+00	0	33	0	3422552064	34	6145
2026-01-04 17:42:53.11	231.82	21.87	-31.2	-31.8	27.2	0.00e+00	0	33	0	3427794944	34	6273
2026-01-04 17:42:54.11	231.73	21.73	-31.0	-31.6	27.3	0.00e+00	0	33	0	3433037824	34	6117
2026-01-04 17:42:55.12	231.65	21.60	-30.9	-31.5	27.2	0.00e+00	0	33	0	3439329280	34	6064
2026-01-04 17:42:56.13	231.57	21.46	-30.8	-31.3	27.3	0.00e+00	0	33	0	3444572160	34	5962
2026-01-04 17:42:57.14	231.49	21.33	-30.8	-31.3	27.4	0.00e+00	0	33	0	3450863616	34	5953
2026-01-04 17:42:58.15	231.41	21.20	-30.6	-31.2	27.5	0.00e+00	0	33	0	3456106496	34	5840
2026-01-04 17:42:59.16	231.33	21.06	-30.8	-31.5	27.3	0.00e+00	0	33	0	3461349376	34	6061
2026-01-04 17:43:00.17	231.25	20.93	-30.8	-31.5	27.6	0.00e+00	0	33	0	3467640832	34	6035
2026-01-04 17:43:01.18	231.17	20.80	-30.8	-31.5	27.5	0.00e+00	0	33	0	3472883712	34	6039
2026-01-04 17:43:02.19	231.10	20.67	-30.9	-31.5	27.4	0.00e+00	0	33	0	3479175168	34	6049
2026-01-04 17:43:03.20	231.02	20.54	-30.8	-31.3	27.5	0.00e+00	0	33	0	3484418048	34	5933
2026-01-04 17:43:04.21	230.94	20.41	-30.8	-31.4	27.4	0.00e+00	0	33	0	3490709504	34	5969
2026-01-04 17:43:05.22	230.87	20.28	-31.0	-31.5	27.3	0.00e+00	0	33	0	3495952384	34	6079
2026-01-04 17:43:06.23	230.79	20.16	-30.9	-31.4	27.3	0.00e+00	0	33	0	3502243840	34	6020
2026-01-04 17:43:07.24	230.72	20.03	-31.0	-31.6	27.3	0.00e+00	0	33	0	3507486720	34	6164
2026-01-04 17:43:08.25	230.65	19.90	-31.0	-31.5	27.3	0.00e+00	0	33	0	3512729600	34	6102
2026-01-04 17:43:09.26	230.57	19.78	-31.1	-31.6	27.2	0.00e+00	0	33	0	3519021056	34	6135
2026-01-04 17:43:10.27	230.50	19.65	-31.2	-31.8	27.0	0.00e+00	0	33	0	3524263936	34	6270
2026-01-04 17:43:11.28	230.43	19.52	-31.1	-31.6	27.1	0.00e+00	0	33	0	3530555392	34	6140
2026-01-04 17:43:12.28	230.36	19.40	-31.3	-31.8	26.9	0.00e+00	0	33	0	3535798272	34	6310
2026-01-04 17:43:13.30	230.29	19.28	-31.5	-32.0	26.9	0.00e+00	0	33	0	3541041152	34	6439
2026-01-04 17:43:14.30	230.22	19.15	-31.8	-32.3	26.6	0.00e+00	0	33	0	3547332608	36	5954
2026-01-04 17:43:15.31	230.15	19.03	-31.8	-32.3	26.8	0.00e+00	0	33	0	3552575488	36	5951
2026-01-04 17:43:16.32	230.08	18.91	-31.5	-32.1	26.7	0.00e+00	0	33	0	3557818368	36	5767
2026-01-04 17:43:17.33	230.01	18.79	-31.9	-32.5	26.6	0.00e+00	0	33	0	3564109824	36	6044
2026-01-04 17:43:18.34	229.95	18.67	-32.1	-32.7	26.5	0.00e+00	0	33	0	3569352704	36	6186
2026-01-04 17:43:19.35	229.88	18.55	-32.0	-32.6	26.6	0.00e+00	0	33	0	3575644160	36	6125
2026-01-04 17:43:20.36	229.81	18.43	-32.2	-32.7	26.4	0.00e+00	0	33	0	3580887040	36	6236
2026-01-04 17:43:21.37	229.75	18.31	-32.1	-32.7	26.5	0.00e+00	0	33	0	3587178496	36	6189
2026-01-04 17:43:22.38	229.68	18.19	-31.9	-32.4	26.6	0.00e+00	0	33	0	3592421376	36	6030
2026-01-04 17:43:23.39	229.62	18.07	-31.9	-32.5	26.5	0.00e+00	0	33	0	3598712832	36	6074
2026-01-04 17:43:24.40	229.55	17.95	-32.2	-32.8	26.4	0.00e+00	0	33	0	3603955712	36	6267
