passes_logs/2026/01/04/R4.6S_Anadyr/R4.6S_Anadyr__20260104_181608_AQUA_rec.log

#Pass ID: 20260104_181608_AQUA
#Satellite: AQUA
#Configuration: AQUA
#almurnet v.1.7.20251203
#Start time: 2026-01-04 18:16:10

#Version: 2.2.20231116
#Station: R4.6S_Anadyr
#Location: 177.4865 lon 64.73178 lat
#TLE: 1 27424U 02022A   25365.92641127  .00002078  00000+0  42628-3 0  9999
#TLE: 2 27424  98.4058 327.1196 0001962  94.7781 340.6230 14.61783896258835

#Time	Az	El	Level	Level2	SNR	BER	BlckErr	Temp	State	Recorded	gain1	gain2
2026-01-04 18:16:10.30	24.03	0.09	-49.8	-61.5	3.5	8.46e-01	0	29	0	0	60	43047
2026-01-04 18:16:11.31	23.97	0.14	-49.7	-67.6	3.5	3.04e+01	0	30	104	0	60	91907
2026-01-04 18:16:12.32	23.92	0.20	-49.3	-67.1	3.5	3.04e+01	0	30	104	0	60	87543
2026-01-04 18:16:13.33	23.86	0.26	-49.9	-67.6	3.5	3.04e+01	0	30	104	0	60	92780
2026-01-04 18:16:14.34	23.81	0.32	-50.0	-67.9	3.5	3.04e+01	0	30	104	0	60	95120
2026-01-04 18:16:15.34	23.75	0.37	-49.5	-67.4	3.5	3.04e+01	0	30	104	0	60	90582
2026-01-04 18:16:16.35	23.70	0.43	-49.5	-67.6	3.5	3.04e+01	0	30	104	0	60	92329
2026-01-04 18:16:17.36	23.64	0.49	-49.7	-67.5	3.5	3.04e+01	0	30	104	0	60	91779
2026-01-04 18:16:18.37	23.58	0.55	-49.2	-67.2	3.5	3.04e+01	0	30	104	0	60	87772
2026-01-04 18:16:19.38	23.53	0.61	-49.1	-66.9	3.5	3.04e+01	0	30	104	0	60	84934
2026-01-04 18:16:20.39	23.47	0.66	-48.6	-66.9	3.5	3.04e+01	0	30	104	0	60	84891
2026-01-04 18:16:21.40	23.41	0.72	-48.7	-66.5	3.5	3.04e+01	0	30	104	0	60	81375
2026-01-04 18:16:22.41	23.36	0.78	-48.0	-66.4	3.5	3.04e+01	0	30	104	0	60	80132
2026-01-04 18:16:23.42	23.30	0.84	-48.4	-66.2	3.5	3.04e+01	0	30	104	0	60	78874
2026-01-04 18:16:24.43	23.24	0.90	-48.3	-66.2	3.5	3.04e+01	0	30	104	0	60	78637
2026-01-04 18:16:25.44	23.18	0.96	-48.0	-65.8	3.5	3.04e+01	0	30	104	0	60	75182
2026-01-04 18:16:26.45	23.12	1.02	-47.8	-65.7	3.5	3.04e+01	0	30	104	0	60	74008
2026-01-04 18:16:27.46	23.06	1.08	-47.8	-65.6	3.5	3.04e+01	0	30	104	0	60	73567
2026-01-04 18:16:28.47	23.01	1.14	-47.7	-65.6	3.5	3.04e+01	0	30	104	0	60	73157
2026-01-04 18:16:29.48	22.95	1.20	-47.8	-65.6	3.5	3.04e+01	0	30	104	0	60	73511
2026-01-04 18:16:30.49	22.89	1.25	-47.8	-65.6	3.5	3.04e+01	0	30	104	0	60	73155
2026-01-04 18:16:31.50	22.83	1.31	-47.8	-65.6	3.5	3.04e+01	0	30	104	0	60	73467
2026-01-04 18:16:32.51	22.77	1.37	-47.7	-65.5	3.5	3.04e+01	0	30	104	0	60	72674
2026-01-04 18:16:33.52	22.71	1.43	-47.7	-65.6	3.5	3.04e+01	0	30	104	0	60	72934
2026-01-04 18:16:34.53	22.65	1.49	-47.7	-65.6	3.5	3.04e+01	0	30	104	0	60	73443
2026-01-04 18:16:35.54	22.59	1.55	-47.8	-65.7	3.5	3.04e+01	0	30	104	0	60	74079
2026-01-04 18:16:36.55	22.52	1.61	-47.7	-65.6	3.5	3.04e+01	0	30	104	0	60	73100
2026-01-04 18:16:37.56	22.46	1.67	-47.8	-65.7	3.5	3.04e+01	0	30	104	0	60	73844
2026-01-04 18:16:38.57	22.40	1.73	-47.7	-65.7	3.5	3.04e+01	0	30	104	0	60	73814
2026-01-04 18:16:39.58	22.34	1.79	-47.7	-65.6	3.5	3.04e+01	0	31	104	0	60	73003
2026-01-04 18:16:40.59	22.28	1.86	-47.7	-65.6	3.5	3.04e+01	0	30	104	0	60	73157
2026-01-04 18:16:41.59	22.21	1.92	-47.7	-65.6	3.5	3.04e+01	0	30	104	0	60	73146
2026-01-04 18:16:42.60	22.15	1.98	-47.7	-65.5	3.5	3.04e+01	0	30	104	0	60	72833
2026-01-04 18:16:43.61	22.09	2.04	-47.8	-65.5	3.5	3.04e+01	0	30	104	0	60	72890
2026-01-04 18:16:44.62	22.02	2.10	-47.7	-65.6	3.5	3.04e+01	0	30	104	0	60	73294
2026-01-04 18:16:45.63	21.96	2.16	-47.8	-65.6	3.5	3.04e+01	0	30	104	0	60	72954
2026-01-04 18:16:46.64	21.90	2.22	-47.8	-65.5	3.5	3.04e+01	0	30	104	0	60	72281
2026-01-04 18:16:47.65	21.83	2.28	-47.7	-65.5	3.5	3.04e+01	0	30	104	0	60	72229
2026-01-04 18:16:48.66	21.77	2.34	-47.7	-65.4	3.5	3.04e+01	0	30	104	0	60	71613
2026-01-04 18:16:49.67	21.70	2.40	-47.7	-65.5	3.5	3.04e+01	0	30	104	0	60	72637
2026-01-04 18:16:50.68	21.64	2.47	-47.7	-65.6	3.5	3.04e+01	0	30	104	0	60	73166
2026-01-04 18:16:51.69	21.57	2.53	-47.8	-65.6	3.5	3.04e+01	0	30	104	0	60	73660
2026-01-04 18:16:52.70	21.50	2.59	-47.8	-65.7	3.5	3.04e+01	0	30	104	0	60	73919
2026-01-04 18:16:53.71	21.44	2.65	-47.8	-65.7	3.5	3.04e+01	0	31	104	0	60	73907
2026-01-04 18:16:54.71	21.37	2.71	-47.8	-65.7	3.5	3.04e+01	0	31	104	0	60	73819
2026-01-04 18:16:55.72	21.30	2.78	-47.9	-65.7	3.5	3.04e+01	0	31	104	0	60	74427
2026-01-04 18:16:56.72	21.24	2.84	-47.8	-65.5	3.5	3.04e+01	0	31	104	0	60	72430
2026-01-04 18:16:57.73	21.17	2.90	-47.8	-65.3	3.5	3.04e+01	0	31	104	0	60	70702
2026-01-04 18:16:58.74	21.10	2.96	-47.6	-64.7	3.5	3.04e+01	0	31	104	0	60	66289
2026-01-04 18:16:59.75	21.03	3.03	-47.7	-64.8	3.5	3.04e+01	0	31	104	0	60	67130
2026-01-04 18:17:00.76	20.97	3.09	-47.8	-65.5	3.5	3.04e+01	0	31	104	0	60	72411
2026-01-04 18:17:01.77	20.90	3.15	-47.9	-65.6	3.5	3.04e+01	0	31	104	0	60	73682
2026-01-04 18:17:02.78	20.83	3.21	-47.4	-63.4	3.5	3.04e+01	0	31	104	0	60	56719
2026-01-04 18:17:03.79	20.76	3.28	-47.1	-62.3	3.6	3.04e+01	0	31	104	0	60	49924
2026-01-04 18:17:04.80	20.69	3.34	-46.4	-60.2	3.5	3.04e+01	0	31	104	0	60	39485
2026-01-04 18:17:05.81	20.62	3.40	-44.2	-56.2	3.5	3.04e+01	0	31	104	0	60	24881
2026-01-04 18:17:06.82	20.55	3.47	-45.8	-59.1	3.5	3.04e+01	0	31	104	0	60	34505
2026-01-04 18:17:07.83	20.47	3.53	-46.3	-60.1	3.6	3.04e+01	0	31	104	0	60	38914
2026-01-04 18:17:08.84	20.40	3.60	-47.8	-65.0	3.5	3.04e+01	0	31	104	0	60	68194
2026-01-04 18:17:09.85	20.33	3.66	-39.1	-49.6	3.5	3.04e+01	0	31	104	0	54	16428
2026-01-04 18:17:10.86	20.26	3.72	-47.8	-65.4	3.5	3.04e+01	0	31	104	0	60	71424
2026-01-04 18:17:11.87	20.19	3.79	-46.4	-60.0	3.5	3.04e+01	0	31	104	0	60	38278
2026-01-04 18:17:12.88	20.11	3.85	-42.3	-53.4	3.5	3.04e+01	0	31	104	0	56	22685
2026-01-04 18:17:13.89	20.04	3.92	-39.5	-50.1	3.5	3.04e+01	0	31	104	0	54	17334
2026-01-04 18:17:14.90	19.97	3.98	-38.5	-49.0	3.5	3.04e+01	0	31	104	0	52	17199
2026-01-04 18:17:15.91	19.89	4.05	-39.3	-49.8	3.5	3.04e+01	0	31	104	0	52	18821
2026-01-04 18:17:16.92	19.82	4.11	-39.1	-49.5	3.5	3.04e+01	0	31	104	0	52	18283
2026-01-04 18:17:17.92	19.74	4.17	-38.6	-49.0	3.5	3.04e+01	0	31	104	0	52	17222
2026-01-04 18:17:18.93	19.67	4.24	-38.2	-48.7	3.5	3.04e+01	0	31	104	0	52	16556
2026-01-04 18:17:19.95	19.59	4.31	-48.0	-65.7	3.5	3.04e+01	0	31	104	0	60	74049
2026-01-04 18:17:20.95	19.52	4.37	-45.2	-57.7	3.5	3.04e+01	0	31	104	0	60	29520
2026-01-04 18:17:21.96	19.44	4.44	-43.3	-54.8	3.5	3.04e+01	0	31	104	0	58	23762
2026-01-04 18:17:22.97	19.36	4.50	-40.8	-51.6	3.5	3.04e+01	0	31	104	0	56	18355
2026-01-04 18:17:23.98	19.29	4.57	-40.4	-51.1	3.5	3.04e+01	0	31	104	0	56	17309
2026-01-04 18:17:24.99	19.21	4.63	-40.2	-50.8	3.5	3.04e+01	0	31	104	0	54	18837
2026-01-04 18:17:26.00	19.13	4.70	-40.2	-50.9	3.5	3.04e+01	0	31	104	0	54	18981
2026-01-04 18:17:27.01	19.05	4.77	-38.9	-49.4	3.5	3.04e+01	0	31	104	0	50	20156
2026-01-04 18:17:28.02	18.97	4.83	-38.5	-48.9	3.5	3.04e+01	0	31	104	0	50	19086
2026-01-04 18:17:29.03	18.89	4.90	-48.0	-65.7	3.5	3.04e+01	0	31	104	0	60	73849
2026-01-04 18:17:30.04	18.81	4.96	-45.4	-57.9	3.5	3.04e+01	0	31	104	0	60	30240
2026-01-04 18:17:31.04	18.73	5.03	-45.9	-59.2	3.5	3.04e+01	0	31	104	0	60	34923
2026-01-04 18:17:32.05	18.65	5.10	-40.5	-51.2	3.5	3.04e+01	0	31	104	0	58	15718
2026-01-04 18:17:33.06	18.57	5.16	-42.2	-53.3	3.5	3.04e+01	0	31	104	0	58	19875
2026-01-04 18:17:34.07	18.49	5.23	-40.7	-51.3	3.5	3.04e+01	0	31	104	0	60	14188
2026-01-04 18:17:35.08	18.41	5.30	-41.1	-51.9	3.5	3.04e+01	0	31	104	0	56	19113
2026-01-04 18:17:36.09	18.33	5.37	-47.3	-62.5	3.5	3.04e+01	0	31	104	0	60	51381
2026-01-04 18:17:37.10	18.24	5.43	-47.8	-63.9	3.5	3.04e+01	0	31	104	0	60	60420
2026-01-04 18:17:38.11	18.16	5.50	-47.2	-62.0	3.5	3.04e+01	0	31	104	0	60	48526
2026-01-04 18:17:39.12	18.08	5.57	-42.1	-53.2	3.5	3.04e+01	0	31	104	0	58	19640
2026-01-04 18:17:40.13	17.99	5.64	-48.1	-65.7	3.5	3.04e+01	0	31	104	0	60	73951
2026-01-04 18:17:41.14	17.91	5.71	-44.5	-56.4	3.5	3.04e+01	0	31	104	0	60	25309
2026-01-04 18:17:42.15	17.82	5.77	-44.2	-55.9	3.5	3.04e+01	0	31	104	0	60	23873
2026-01-04 18:17:43.16	17.74	5.84	-43.7	-55.2	3.5	3.04e+01	0	31	104	0	60	22130
2026-01-04 18:17:44.17	17.65	5.91	-42.2	-53.2	3.5	3.04e+01	0	31	104	0	56	22126
2026-01-04 18:17:45.18	17.57	5.98	-48.0	-65.0	3.5	3.04e+01	0	31	104	0	60	68126
2026-01-04 18:17:46.19	17.48	6.05	-46.5	-59.9	3.5	3.04e+01	0	31	104	0	60	38171
2026-01-04 18:17:47.20	17.39	6.12	-47.3	-62.2	3.5	3.04e+01	0	31	104	0	60	49656
2026-01-04 18:17:48.21	17.31	6.19	-37.3	-47.7	3.5	3.04e+01	0	31	104	0	50	16553
2026-01-04 18:17:49.22	17.22	6.25	-48.1	-65.7	3.5	3.04e+01	0	31	104	0	60	73881
2026-01-04 18:17:50.23	17.13	6.32	-36.9	-47.2	3.5	3.04e+01	0	31	104	0	48	17652
2026-01-04 18:17:51.23	17.04	6.39	-37.5	-47.8	3.5	3.04e+01	0	31	104	0	48	18957
2026-01-04 18:17:52.24	16.95	6.46	-37.2	-47.5	3.5	3.04e+01	0	31	104	0	48	18234
2026-01-04 18:17:53.25	16.86	6.53	-37.5	-47.8	3.5	3.04e+01	0	31	104	0	48	18849
2026-01-04 18:17:54.26	16.77	6.60	-47.8	-63.8	3.5	3.04e+01	0	31	104	0	60	59313
2026-01-04 18:17:55.27	16.68	6.67	-37.0	-47.3	3.5	3.04e+01	0	31	104	0	50	15897
2026-01-04 18:17:56.28	16.59	6.74	-48.2	-65.6	3.5	3.04e+01	0	31	104	0	60	73031
2026-01-04 18:17:57.29	16.50	6.81	-44.5	-56.3	3.6	3.04e+01	0	31	104	0	60	25016
2026-01-04 18:17:58.30	16.40	6.88	-45.5	-58.0	3.6	3.04e+01	0	31	104	0	60	30668
2026-01-04 18:17:59.31	16.31	6.95	-40.2	-50.7	3.5	3.04e+01	0	31	104	0	56	16654
2026-01-04 18:18:00.31	16.22	7.02	-40.0	-50.6	3.5	3.04e+01	0	31	104	0	54	18474
2026-01-04 18:18:01.33	16.12	7.10	-39.4	-50.0	3.5	3.04e+01	0	31	104	0	54	17149
2026-01-04 18:18:02.33	16.03	7.17	-40.0	-50.6	3.5	3.04e+01	0	31	104	0	54	18318
2026-01-04 18:18:03.35	15.93	7.24	-41.6	-52.5	3.5	3.04e+01	0	31	104	0	56	20341
2026-01-04 18:18:04.35	15.84	7.31	-47.0	-61.3	3.5	3.04e+01	0	31	104	0	60	44767
2026-01-04 18:18:05.36	15.74	7.38	-44.3	-56.0	3.5	3.04e+01	0	31	104	0	60	24415
2026-01-04 18:18:06.37	15.65	7.45	-38.1	-48.4	3.5	3.04e+01	0	31	104	0	50	18099
2026-01-04 18:18:07.38	15.55	7.52	-48.2	-65.5	3.5	3.04e+01	0	31	104	0	60	72867
2026-01-04 18:18:08.39	15.45	7.60	-40.6	-51.2	3.5	3.04e+01	0	31	104	0	54	19656
2026-01-04 18:18:09.40	15.35	7.67	-40.2	-50.8	3.5	3.04e+01	0	31	104	0	54	18902
2026-01-04 18:18:10.41	15.25	7.74	-39.7	-50.2	3.5	3.04e+01	0	31	104	0	54	17538
2026-01-04 18:18:11.42	15.15	7.81	-41.4	-52.2	3.5	3.04e+01	0	31	104	0	54	22273
2026-01-04 18:18:12.42	15.05	7.88	-44.1	-55.9	3.5	3.04e+01	0	31	104	0	60	24064
2026-01-04 18:18:13.43	14.95	7.96	-39.5	-50.0	3.5	3.04e+01	0	31	104	0	48	24348
2026-01-04 18:18:14.44	14.85	8.03	-48.3	-66.0	3.6	3.04e+01	0	31	104	0	60	76380
2026-01-04 18:18:15.45	14.75	8.10	-38.6	-49.1	3.5	3.04e+01	0	31	104	0	56	13815
2026-01-04 18:18:16.46	14.65	8.18	-39.9	-50.5	3.5	3.04e+01	0	31	104	0	56	16163
2026-01-04 18:18:17.47	14.55	8.25	-36.8	-47.1	3.5	3.04e+01	0	31	104	0	48	17436
2026-01-04 18:18:18.47	14.44	8.32	-37.0	-47.3	3.5	3.04e+01	0	31	104	0	48	17709
2026-01-04 18:18:19.49	14.34	8.40	-36.6	-46.9	3.5	3.04e+01	0	31	104	0	48	17057
2026-01-04 18:18:20.49	14.23	8.47	-37.3	-47.6	3.6	3.04e+01	0	31	104	0	48	18327
2026-01-04 18:18:21.50	14.13	8.54	-37.5	-47.8	3.5	3.04e+01	0	31	104	0	50	16890
2026-01-04 18:18:22.51	14.02	8.62	-38.8	-49.2	3.4	3.04e+01	0	31	104	0	48	22034
2026-01-04 18:18:23.52	13.92	8.69	-46.7	-60.1	3.6	3.04e+01	0	31	104	0	60	39090
2026-01-04 18:18:24.53	13.81	8.77	-37.0	-47.3	3.5	3.04e+01	0	31	104	0	48	17742
2026-01-04 18:18:25.54	13.70	8.84	-41.6	-52.4	3.5	3.04e+01	0	31	104	0	60	16012
2026-01-04 18:18:26.55	13.59	8.92	-40.3	-50.9	3.5	3.04e+01	0	31	104	0	54	19175
2026-01-04 18:18:27.56	13.49	8.99	-38.9	-49.3	3.5	3.04e+01	0	31	104	0	54	15882
2026-01-04 18:18:28.57	13.38	9.07	-39.6	-50.2	3.5	3.04e+01	0	31	104	0	52	19631
2026-01-04 18:18:29.58	13.27	9.14	-37.0	-47.3	3.6	3.04e+01	0	31	104	0	50	15836
2026-01-04 18:18:30.59	13.15	9.22	-42.6	-53.6	3.5	3.04e+01	0	31	104	0	54	26121
2026-01-04 18:18:31.60	13.04	9.29	-41.8	-52.6	3.5	3.04e+01	0	31	104	0	58	18339
2026-01-04 18:18:32.61	12.93	9.37	-42.3	-53.3	3.5	3.04e+01	0	31	104	0	60	17774
2026-01-04 18:18:33.62	12.82	9.44	-48.0	-63.6	3.5	3.04e+01	0	31	104	0	60	58415
2026-01-04 18:18:34.63	12.70	9.52	-48.3	-65.1	3.6	3.04e+01	0	31	104	0	60	69210
2026-01-04 18:18:35.64	12.59	9.60	-45.8	-58.3	3.5	3.04e+01	0	31	104	0	60	31468
2026-01-04 18:18:36.65	12.48	9.67	-43.8	-55.2	3.5	3.04e+01	0	31	104	0	60	22097
2026-01-04 18:18:37.65	12.36	9.75	-44.4	-56.1	3.6	3.04e+01	0	31	104	0	60	24485
2026-01-04 18:18:38.66	12.25	9.82	-48.3	-66.2	3.5	3.04e+01	0	31	104	0	60	78672
2026-01-04 18:18:39.67	12.13	9.90	-48.0	-64.3	3.6	3.04e+01	0	31	104	0	60	63128
2026-01-04 18:18:40.68	12.01	9.98	-43.3	-54.4	3.5	3.04e+01	0	31	104	0	60	20295
2026-01-04 18:18:41.69	11.89	10.05	-36.2	-46.5	3.5	3.04e+01	0	31	104	0	48	16245
2026-01-04 18:18:42.70	11.77	10.13	-48.5	-66.2	3.5	3.04e+01	0	31	104	0	60	78392
2026-01-04 18:18:43.71	11.65	10.21	-37.5	-47.9	3.6	3.04e+01	0	31	104	0	54	13435
2026-01-04 18:18:44.72	11.53	10.29	-36.4	-46.7	3.6	3.04e+01	0	31	104	0	48	16607
2026-01-04 18:18:45.73	11.41	10.36	-36.3	-46.6	3.5	3.04e+01	0	31	104	0	48	16328
2026-01-04 18:18:46.74	11.29	10.44	-36.7	-46.9	3.5	3.04e+01	0	31	104	0	48	17055
2026-01-04 18:18:47.75	11.17	10.52	-45.7	-58.1	3.5	3.04e+01	0	31	104	0	60	31047
2026-01-04 18:18:48.76	11.05	10.60	-37.5	-47.8	3.5	3.04e+01	0	31	104	0	50	16879
2026-01-04 18:18:49.77	10.92	10.68	-48.4	-66.2	3.4	3.04e+01	0	31	104	0	60	78984
2026-01-04 18:18:50.78	10.80	10.76	-43.6	-54.9	3.5	3.04e+01	0	31	104	0	60	21471
2026-01-04 18:18:51.79	10.67	10.83	-40.7	-51.4	3.5	3.04e+01	0	31	104	0	52	22711
2026-01-04 18:18:52.79	10.55	10.91	-39.7	-50.2	3.5	3.04e+01	0	31	104	0	56	15694
2026-01-04 18:18:53.80	10.42	10.99	-39.7	-50.2	3.5	3.04e+01	0	31	104	0	54	17692
2026-01-04 18:18:54.81	10.29	11.07	-39.8	-50.4	3.5	3.04e+01	0	31	104	0	54	17900
2026-01-04 18:18:55.82	10.17	11.15	-39.0	-49.4	3.5	3.04e+01	0	31	104	0	52	17966
2026-01-04 18:18:56.83	10.04	11.23	-36.5	-46.8	3.5	3.04e+01	0	31	104	0	48	16741
2026-01-04 18:18:57.84	9.91	11.31	-47.1	-61.0	3.5	3.04e+01	0	31	104	0	60	43310
2026-01-04 18:18:58.85	9.78	11.39	-42.6	-53.6	3.5	3.04e+01	0	31	104	0	56	23098
2026-01-04 18:18:59.86	9.64	11.47	-40.9	-51.7	3.5	3.04e+01	0	31	104	0	56	18605
2026-01-04 18:19:00.87	9.51	11.55	-48.2	-64.4	3.5	3.04e+01	0	31	104	0	60	63642
2026-01-04 18:19:01.88	9.38	11.63	-39.5	-50.0	3.5	3.04e+01	0	31	104	0	52	19297
2026-01-04 18:19:02.89	9.24	11.71	-37.6	-47.8	3.5	3.04e+01	0	31	104	0	48	18951
2026-01-04 18:19:03.90	9.11	11.79	-37.4	-47.7	3.5	3.04e+01	0	31	104	0	50	16552
2026-01-04 18:19:04.91	8.97	11.87	-37.2	-47.5	3.5	3.04e+01	0	31	104	0	50	16229
2026-01-04 18:19:05.92	8.84	11.95	-47.9	-63.5	3.5	3.04e+01	0	31	104	0	60	57548
2026-01-04 18:19:06.92	8.70	12.03	-44.8	-56.6	3.5	3.04e+01	0	31	104	0	60	26063
2026-01-04 18:19:07.93	8.56	12.11	-46.0	-58.7	3.5	3.04e+01	0	31	104	0	60	33251
2026-01-04 18:19:08.94	8.43	12.19	-40.0	-50.4	3.5	3.04e+01	0	31	104	0	52	20307
2026-01-04 18:19:09.95	8.29	12.27	-48.4	-65.3	3.5	3.04e+01	0	31	104	0	60	70622
2026-01-04 18:19:10.96	8.15	12.35	-37.8	-48.1	3.5	3.04e+01	0	31	104	0	52	15469
2026-01-04 18:19:11.97	8.00	12.43	-36.9	-47.1	3.5	3.04e+01	0	31	104	0	50	15515
2026-01-04 18:19:12.98	7.86	12.52	-36.9	-47.2	3.5	3.04e+01	0	31	104	0	48	17621
2026-01-04 18:19:13.99	7.72	12.60	-36.4	-46.6	3.5	3.04e+01	0	31	104	0	48	16508
2026-01-04 18:19:15.00	7.57	12.68	-45.5	-57.8	3.5	3.04e+01	0	31	104	0	60	29994
2026-01-04 18:19:16.01	7.43	12.76	-37.7	-48.0	3.5	3.04e+01	0	31	104	0	50	17100
2026-01-04 18:19:17.02	7.28	12.84	-48.4	-64.9	3.5	3.04e+01	0	31	104	0	60	67679
2026-01-04 18:19:18.03	7.14	12.93	-44.4	-56.1	3.5	3.04e+01	0	31	104	0	60	24444
2026-01-04 18:19:19.04	6.99	13.01	-47.1	-61.1	3.5	3.04e+01	0	31	104	0	60	43606
2026-01-04 18:19:20.05	6.84	13.09	-40.3	-50.9	3.5	3.04e+01	0	31	104	0	56	16924
2026-01-04 18:19:21.06	6.69	13.17	-40.4	-51.0	3.6	3.04e+01	0	31	104	0	56	17118
2026-01-04 18:19:22.07	6.54	13.26	-40.1	-50.7	3.5	3.04e+01	0	31	104	0	56	16646
2026-01-04 18:19:23.08	6.39	13.34	-42.3	-53.3	3.5	3.04e+01	0	31	104	0	58	19910
2026-01-04 18:19:24.09	6.24	13.42	-37.8	-48.1	3.5	3.04e+01	0	31	104	0	50	17400
2026-01-04 18:19:25.10	6.09	13.51	-46.9	-60.6	3.5	3.04e+01	0	31	104	0	60	41301
2026-01-04 18:19:26.11	5.93	13.59	-44.2	-55.7	3.5	3.04e+01	0	31	104	0	60	23393
2026-01-04 18:19:27.12	5.78	13.67	-40.3	-50.9	3.6	3.04e+01	0	31	104	0	58	15098
2026-01-04 18:19:28.12	5.62	13.76	-48.1	-64.2	3.5	3.04e+01	0	31	104	0	60	62187
2026-01-04 18:19:29.14	5.46	13.84	-39.5	-41.4	5.2	3.04e+01	0	31	104	0	54	6372
2026-01-04 18:19:30.15	5.31	13.92	-39.1	-40.9	22.7	3.04e+01	59	31	104	0	54	6011
2026-01-04 18:19:31.15	5.15	14.01	-37.2	-38.6	27.6	3.04e+01	62	31	0	1048576	50	5800
2026-01-04 18:19:32.16	4.99	14.09	-38.4	-39.8	25.0	3.04e+01	53	31	0	3145728	54	5323
2026-01-04 18:19:33.17	4.83	14.18	-38.3	-39.7	27.0	3.04e+01	61	31	0	5242880	50	6596
2026-01-04 18:19:34.18	4.67	14.26	-37.6	-38.9	26.9	3.04e+01	44	31	0	6815744	52	5396
2026-01-04 18:19:35.19	4.50	14.34	-37.5	-38.9	26.6	3.04e+01	58	31	0	8912896	50	6006
2026-01-04 18:19:36.20	4.34	14.43	-39.6	-41.2	24.7	3.04e+01	59	31	0	10485760	54	6223
2026-01-04 18:19:37.21	4.17	14.51	-38.1	-39.5	26.3	3.04e+01	53	31	0	12582912	52	5759
2026-01-04 18:19:38.22	4.01	14.60	-36.5	-37.8	28.2	3.04e+01	57	31	0	14680064	48	5961
2026-01-04 18:19:39.23	3.84	14.68	-36.8	-38.1	28.5	3.04e+01	61	31	0	16252928	46	6947
2026-01-04 18:19:40.23	3.68	14.77	-36.8	-38.1	27.6	3.04e+01	58	31	0	18350080	48	6165
2026-01-04 18:19:41.25	3.50	14.85	-37.3	-38.6	27.6	3.04e+01	57	31	0	19922944	50	5818
2026-01-04 18:19:42.25	3.34	14.94	-37.1	-38.4	26.9	3.04e+01	61	31	0	22020096	50	5673
2026-01-04 18:19:43.26	3.16	15.02	-37.4	-38.8	27.3	3.04e+01	62	31	0	24117248	48	6680
2026-01-04 18:19:44.27	2.99	15.11	-36.9	-38.2	27.3	3.04e+01	57	31	0	25690112	50	5539
2026-01-04 18:19:45.28	2.82	15.19	-37.1	-38.4	27.2	3.04e+01	56	31	0	27787264	48	6362
2026-01-04 18:19:46.29	2.65	15.28	-37.7	-39.1	27.3	3.04e+01	61	31	0	29360128	48	6902
2026-01-04 18:19:47.30	2.47	15.36	-37.2	-38.6	27.4	3.04e+01	61	31	0	31457280	48	6510
2026-01-04 18:19:48.31	2.29	15.45	-36.3	-37.5	27.7	3.04e+01	59	31	0	33554432	48	5780
2026-01-04 18:19:49.32	2.12	15.53	-37.8	-39.1	26.4	3.04e+01	62	31	0	35127296	52	5515
2026-01-04 18:19:50.33	1.94	15.62	-37.9	-39.3	26.8	3.04e+01	49	31	0	37224448	50	6286
2026-01-04 18:19:51.34	1.76	15.70	-37.2	-38.5	27.3	3.04e+01	60	31	0	39321600	48	6450
2026-01-04 18:19:52.34	1.58	15.79	-37.5	-38.8	27.1	3.04e+01	59	31	0	40894464	50	5977
2026-01-04 18:19:53.35	1.40	15.87	-37.4	-38.8	26.7	3.04e+01	52	31	0	42991616	50	5947
2026-01-04 18:19:54.36	1.21	15.96	-38.7	-40.1	26.6	3.04e+01	59	31	0	44564480	50	6955
2026-01-04 18:19:55.37	1.03	16.05	-37.4	-38.7	27.0	3.04e+01	61	31	0	46661632	52	5242
2026-01-04 18:19:56.38	0.84	16.13	-37.9	-39.3	26.2	3.04e+01	59	31	0	48758784	50	6281
2026-01-04 18:19:57.39	0.66	16.22	-38.1	-39.5	26.3	3.04e+01	56	31	0	50331648	50	6454
2026-01-04 18:19:58.40	0.47	16.30	-38.5	-40.0	26.4	3.04e+01	49	31	0	52428800	50	6828
2026-01-04 18:19:59.41	0.28	16.39	-36.1	-37.4	28.2	3.04e+01	57	31	0	54001664	46	6354
2026-01-04 18:20:00.42	0.09	16.48	-37.2	-38.6	26.2	3.04e+01	56	31	0	56098816	48	6513
2026-01-04 18:20:01.42	359.90	16.56	-36.8	-38.1	27.8	3.04e+01	56	31	0	58195968	48	6145
2026-01-04 18:20:02.43	359.71	16.65	-37.3	-38.7	27.9	3.04e+01	62	31	0	59768832	46	7377
2026-01-04 18:20:03.44	359.51	16.73	-37.5	-38.8	27.6	3.04e+01	52	31	0	61865984	48	6706
2026-01-04 18:20:04.45	359.32	16.82	-37.0	-38.3	27.4	3.04e+01	60	31	0	63438848	48	6338
2026-01-04 18:20:05.46	359.12	16.90	-37.1	-38.4	27.5	3.04e+01	59	31	0	65536000	48	6400
2026-01-04 18:20:06.47	358.93	16.99	-35.7	-37.0	28.5	3.04e+01	52	31	0	67633152	46	6074
2026-01-04 18:20:07.48	358.73	17.08	-35.5	-36.7	28.7	3.04e+01	62	31	0	69206016	46	5913
2026-01-04 18:20:08.49	358.53	17.16	-36.0	-37.2	28.6	3.04e+01	62	31	0	71303168	46	6249
2026-01-04 18:20:09.50	358.33	17.25	-36.7	-38.0	28.4	3.04e+01	57	31	0	72876032	46	6857
2026-01-04 18:20:10.51	358.12	17.33	-36.1	-37.4	28.2	3.04e+01	62	31	0	74973184	46	6360
2026-01-04 18:20:11.52	357.92	17.42	-35.3	-36.5	28.7	3.04e+01	50	31	0	77070336	46	5748
2026-01-04 18:20:12.53	357.72	17.51	-35.7	-36.9	28.5	3.04e+01	60	31	0	78643200	46	6057
2026-01-04 18:20:13.54	357.51	17.59	-36.1	-37.3	28.4	3.04e+01	60	31	0	80740352	46	6344
2026-01-04 18:20:14.55	357.30	17.68	-35.2	-36.4	29.1	3.04e+01	45	31	0	82313216	46	5703
2026-01-04 18:20:15.56	357.09	17.76	-35.4	-36.6	28.8	3.04e+01	60	31	0	84410368	46	5802
2026-01-04 18:20:16.57	356.88	17.85	-36.4	-37.7	28.8	3.04e+01	60	31	0	86507520	46	6574
2026-01-04 18:20:17.57	356.67	17.94	-35.9	-37.1	28.8	3.04e+01	59	31	0	88080384	46	6188
2026-01-04 18:20:18.59	356.46	18.02	-35.3	-36.5	29.1	3.04e+01	57	31	0	90177536	46	5779
2026-01-04 18:20:19.59	356.25	18.11	-35.8	-37.0	28.7	3.04e+01	56	31	0	92274688	46	6131
2026-01-04 18:20:20.60	356.03	18.19	-35.5	-36.7	29.0	3.04e+01	60	31	0	93847552	46	5891
2026-01-04 18:20:21.61	355.82	18.28	-35.0	-36.2	29.3	3.04e+01	56	31	0	95944704	46	5560
2026-01-04 18:20:22.62	355.60	18.36	-35.2	-36.4	29.4	3.04e+01	47	31	0	97517568	46	5704
2026-01-04 18:20:23.63	355.38	18.45	-35.7	-36.9	28.4	3.04e+01	59	31	0	99614720	46	6043
2026-01-04 18:20:24.64	355.16	18.53	-36.2	-37.5	28.6	3.04e+01	59	31	0	101711872	46	6424
2026-01-04 18:20:25.65	354.94	18.62	-36.2	-37.4	29.3	3.04e+01	57	31	0	103284736	46	6397
2026-01-04 18:20:26.66	354.72	18.70	-36.4	-37.6	28.4	3.04e+01	60	31	0	105381888	46	6547
2026-01-04 18:20:27.67	354.49	18.79	-35.4	-36.6	29.1	3.04e+01	52	31	0	107479040	46	5808
2026-01-04 18:20:28.67	354.27	18.87	-35.7	-37.0	28.7	3.04e+01	56	31	0	109051904	46	6084
2026-01-04 18:20:29.68	354.04	18.96	-35.3	-36.6	29.2	3.04e+01	59	31	0	111149056	46	5793
2026-01-04 18:20:30.69	353.81	19.04	-35.1	-36.3	29.2	3.04e+01	46	31	0	112721920	46	5649
2026-01-04 18:20:31.70	353.58	19.13	-35.3	-36.5	29.0	3.04e+01	60	31	0	114819072	46	5787
2026-01-04 18:20:32.71	353.35	19.21	-35.3	-36.6	28.9	3.04e+01	60	31	0	116391936	46	5793
2026-01-04 18:20:33.72	353.12	19.29	-35.4	-36.6	29.0	3.04e+01	54	31	0	118489088	46	5817
2026-01-04 18:20:34.73	352.89	19.38	-35.1	-36.3	29.2	3.04e+01	59	31	0	120586240	46	5656
2026-01-04 18:20:35.74	352.65	19.46	-35.1	-36.3	29.3	3.04e+01	55	31	0	122159104	46	5621
2026-01-04 18:20:36.75	352.42	19.55	-35.1	-36.3	29.1	3.04e+01	57	31	0	124256256	44	6341
2026-01-04 18:20:37.76	352.18	19.63	-35.1	-36.3	29.1	3.04e+01	61	31	0	125829120	44	6302
2026-01-04 18:20:38.77	351.94	19.71	-35.5	-36.7	28.9	3.04e+01	49	31	0	127926272	44	6634
2026-01-04 18:20:39.78	351.70	19.80	-35.4	-36.6	28.9	3.04e+01	58	31	0	130023424	44	6542
2026-01-04 18:20:40.79	351.46	19.88	-35.8	-37.0	28.7	3.04e+01	49	31	0	131596288	44	6844
2026-01-04 18:20:41.80	351.21	19.96	-35.7	-37.0	28.4	3.04e+01	60	31	0	133693440	46	6070
2026-01-04 18:20:42.81	350.97	20.04	-36.0	-37.2	28.4	3.04e+01	60	31	0	135790592	46	6255
2026-01-04 18:20:43.82	350.72	20.13	-36.5	-37.8	28.1	3.04e+01	52	31	0	137363456	46	6671
2026-01-04 18:20:44.83	350.47	20.21	-37.2	-38.5	27.6	3.04e+01	61	31	0	139460608	48	6436
2026-01-04 18:20:45.83	350.23	20.29	-36.1	-37.4	28.5	3.04e+01	58	31	0	141033472	48	5669
2026-01-04 18:20:46.84	349.98	20.37	-36.2	-37.4	28.4	3.04e+01	57	31	0	143130624	46	6398
2026-01-04 18:20:47.85	349.72	20.45	-36.2	-37.5	28.3	3.04e+01	59	31	0	145227776	46	6452
2026-01-04 18:20:48.86	349.47	20.53	-36.0	-37.3	28.7	3.04e+01	46	31	0	146800640	46	6304
2026-01-04 18:20:49.86	349.22	20.61	-36.3	-37.5	28.1	3.04e+01	60	31	0	148897792	48	5771
2026-01-04 18:20:50.87	348.96	20.69	-36.6	-37.9	27.9	3.04e+01	61	31	0	150470656	48	6004
2026-01-04 18:20:51.88	348.71	20.77	-36.0	-37.2	28.4	3.04e+01	46	31	0	152567808	48	5583
2026-01-04 18:20:52.89	348.45	20.85	-36.0	-37.2	28.5	3.04e+01	59	31	0	154664960	46	6270
2026-01-04 18:20:53.90	348.19	20.93	-36.8	-38.1	27.6	3.04e+01	58	31	0	156237824	48	6174
2026-01-04 18:20:54.91	347.92	21.01	-37.6	-38.9	27.3	3.04e+01	57	31	0	158334976	48	6773
2026-01-04 18:20:55.92	347.66	21.09	-37.2	-38.5	27.5	3.04e+01	61	31	0	160432128	50	5754
2026-01-04 18:20:56.93	347.40	21.17	-37.2	-38.5	27.8	3.04e+01	60	31	0	162004992	48	6491
2026-01-04 18:20:57.94	347.13	21.24	-36.2	-37.5	28.3	3.04e+01	58	31	0	164102144	46	6454
2026-01-04 18:20:58.95	346.86	21.32	-36.3	-37.6	28.2	3.04e+01	60	31	0	165675008	46	6526
2026-01-04 18:20:59.95	346.60	21.40	-37.0	-38.2	28.7	3.04e+01	45	31	0	167772160	48	6271
2026-01-04 18:21:00.96	346.33	21.47	-36.0	-37.2	28.3	3.04e+01	59	31	0	169345024	46	6239
2026-01-04 18:21:01.97	346.05	21.55	-36.1	-37.3	28.6	3.04e+01	58	31	0	171442176	46	6319
2026-01-04 18:21:02.98	345.78	21.63	-36.8	-38.0	27.8	3.04e+01	60	31	0	173539328	46	6866
2026-01-04 18:21:03.99	345.51	21.70	-36.6	-37.8	28.2	3.04e+01	60	31	0	175112192	46	6713
2026-01-04 18:21:04.99	345.23	21.78	-36.1	-37.3	28.2	3.04e+01	58	31	0	177209344	46	6348
2026-01-04 18:21:06.00	344.95	21.85	-36.4	-37.6	28.1	3.04e+01	58	31	0	179306496	46	6566
2026-01-04 18:21:07.01	344.68	21.92	-35.6	-36.8	28.7	3.04e+01	56	31	0	180879360	46	5984
2026-01-04 18:21:08.02	344.40	22.00	-37.2	-38.5	27.7	3.04e+01	46	31	0	182976512	48	6442
2026-01-04 18:21:09.03	344.11	22.07	-36.8	-38.1	27.9	3.04e+01	61	31	0	184549376	48	6196
2026-01-04 18:21:10.04	343.83	22.14	-36.5	-37.7	28.4	3.04e+01	61	31	0	186646528	48	5905
2026-01-04 18:21:11.05	343.55	22.22	-36.5	-37.7	28.4	3.04e+01	62	31	0	188743680	48	5924
2026-01-04 18:21:12.06	343.26	22.29	-36.3	-37.6	28.3	3.04e+01	61	31	0	190316544	48	5792
2026-01-04 18:21:13.07	342.97	22.36	-36.9	-38.2	27.7	3.04e+01	52	31	0	192413696	48	6242
2026-01-04 18:21:14.08	342.68	22.43	-37.0	-38.3	28.3	3.04e+01	60	31	0	193986560	48	6295
2026-01-04 18:21:15.09	342.39	22.50	-36.5	-37.7	28.1	3.04e+01	58	31	0	196083712	48	5902
2026-01-04 18:21:16.10	342.10	22.57	-36.9	-38.2	28.3	3.04e+01	44	31	0	198180864	48	6249
2026-01-04 18:21:17.11	341.81	22.64	-36.1	-37.3	28.6	3.04e+01	60	31	0	199753728	48	5648
2026-01-04 18:21:18.12	341.52	22.71	-35.9	-37.1	28.2	3.04e+01	47	31	0	201850880	46	6182
2026-01-04 18:21:19.12	341.22	22.77	-35.9	-37.1	28.6	3.04e+01	61	31	0	203948032	46	6152
2026-01-04 18:21:20.13	340.93	22.84	-36.4	-37.7	28.4	3.04e+01	59	31	0	205520896	46	6578
2026-01-04 18:21:21.14	340.63	22.91	-35.7	-36.9	29.0	3.04e+01	52	31	0	207618048	46	6015
2026-01-04 18:21:22.15	340.33	22.97	-35.4	-36.7	29.1	3.04e+01	60	31	0	209190912	46	5862
2026-01-04 18:21:23.16	340.03	23.04	-35.4	-36.6	28.7	3.04e+01	61	31	0	211288064	46	5842
2026-01-04 18:21:24.17	339.72	23.10	-35.6	-36.8	29.1	3.04e+01	61	31	0	213385216	46	5947
2026-01-04 18:21:25.18	339.42	23.17	-35.9	-37.1	28.7	3.04e+01	52	31	0	214958080	46	6186
2026-01-04 18:21:26.19	339.12	23.23	-35.8	-37.0	28.7	3.04e+01	46	31	0	217055232	46	6078
2026-01-04 18:21:27.20	338.81	23.30	-35.5	-36.7	29.2	3.04e+01	59	31	0	218628096	46	5904
2026-01-04 18:21:28.21	338.50	23.36	-35.4	-36.7	28.9	3.04e+01	50	31	0	220725248	46	5859
2026-01-04 18:21:29.22	338.19	23.42	-35.4	-36.6	28.9	3.04e+01	47	31	0	222822400	46	5846
2026-01-04 18:21:30.22	337.89	23.48	-35.9	-37.1	29.1	3.04e+01	59	31	0	224395264	46	6205
2026-01-04 18:21:31.23	337.57	23.54	-35.8	-37.0	28.7	3.04e+01	55	31	0	226492416	46	6078
2026-01-04 18:21:32.24	337.26	23.60	-36.3	-37.5	28.9	3.04e+01	57	31	0	228065280	46	6480
2026-01-04 18:21:33.25	336.95	23.66	-36.0	-37.2	29.0	3.04e+01	62	31	0	230162432	46	6247
2026-01-04 18:21:34.26	336.63	23.71	-36.3	-37.5	28.9	3.04e+01	57	31	0	232259584	46	6438
2026-01-04 18:21:35.27	336.32	23.77	-36.2	-37.5	28.5	3.04e+01	58	31	0	233832448	46	6466
2026-01-04 18:21:36.27	336.00	23.83	-36.0	-37.3	28.8	3.04e+01	59	31	0	235929600	46	6299
2026-01-04 18:21:37.28	335.68	23.88	-36.2	-37.4	28.1	3.04e+01	46	31	0	237502464	46	6417
2026-01-04 18:21:38.29	335.36	23.94	-36.8	-38.1	28.5	3.04e+01	60	31	0	239599616	48	6138
2026-01-04 18:21:39.30	335.04	23.99	-36.3	-37.5	28.6	3.04e+01	59	31	0	241696768	46	6466
2026-01-04 18:21:40.30	334.72	24.04	-35.9	-37.1	28.7	3.04e+01	58	31	0	243269632	48	5485
2026-01-04 18:21:41.31	334.40	24.09	-35.8	-37.0	28.9	3.04e+01	62	31	0	245366784	46	6113
2026-01-04 18:21:42.32	334.07	24.15	-36.2	-37.5	28.9	3.04e+01	58	31	0	246939648	46	6439
2026-01-04 18:21:43.33	333.75	24.20	-36.2	-37.4	28.6	3.04e+01	62	31	0	249036800	46	6398
2026-01-04 18:21:44.34	333.42	24.25	-36.4	-37.7	28.6	3.04e+01	61	31	0	251133952	46	6602
2026-01-04 18:21:45.35	333.09	24.29	-36.1	-37.4	28.4	3.04e+01	46	31	0	252706816	46	6365
2026-01-04 18:21:46.36	332.77	24.34	-36.4	-37.7	28.6	3.04e+01	58	31	0	254803968	46	6608
2026-01-04 18:21:47.37	332.44	24.39	-36.3	-37.6	28.1	3.04e+01	61	31	0	256901120	46	6537
2026-01-04 18:21:48.38	332.10	24.43	-36.8	-38.1	28.4	3.04e+01	60	31	0	258473984	46	6934
2026-01-04 18:21:49.39	331.77	24.48	-36.6	-37.8	28.4	3.04e+01	57	31	0	260571136	48	5966
2026-01-04 18:21:50.40	331.44	24.52	-36.8	-38.1	28.0	3.04e+01	58	31	0	262144000	48	6147
2026-01-04 18:21:51.41	331.11	24.57	-36.9	-38.2	27.8	3.04e+01	57	31	0	264241152	48	6222
2026-01-04 18:21:52.42	330.77	24.61	-37.2	-38.5	27.8	3.04e+01	63	31	0	266338304	48	6469
2026-01-04 18:21:53.43	330.43	24.65	-36.5	-37.7	28.2	3.04e+01	49	31	0	267911168	48	5897
2026-01-04 18:21:54.44	330.10	24.69	-36.1	-37.3	28.3	3.04e+01	59	31	0	270008320	48	5656
2026-01-04 18:21:55.45	329.76	24.73	-37.1	-38.4	27.6	3.04e+01	51	31	0	271581184	48	6362
2026-01-04 18:21:56.46	329.42	24.77	-36.8	-38.1	28.2	3.04e+01	61	31	0	273678336	48	6165
2026-01-04 18:21:57.46	329.09	24.80	-36.4	-37.7	28.5	3.04e+01	60	31	0	275775488	48	5869
2026-01-04 18:21:58.47	328.75	24.84	-36.9	-38.1	28.3	3.04e+01	47	31	0	277348352	48	6193
2026-01-04 18:21:59.48	328.40	24.88	-36.0	-37.3	28.5	3.04e+01	59	31	0	279445504	46	6293
2026-01-04 18:22:00.49	328.06	24.91	-36.6	-37.8	28.2	3.04e+01	60	31	0	281018368	46	6708
2026-01-04 18:22:01.50	327.72	24.94	-37.2	-38.5	28.4	3.04e+01	58	31	0	283115520	48	6460
2026-01-04 18:22:02.51	327.38	24.98	-37.3	-38.6	27.8	3.04e+01	60	31	0	285212672	48	6556
2026-01-04 18:22:03.52	327.03	25.01	-37.4	-38.7	27.8	3.04e+01	45	31	0	286785536	48	6619
2026-01-04 18:22:04.53	326.69	25.04	-37.3	-38.5	28.2	3.04e+01	59	31	0	288882688	48	6471
2026-01-04 18:22:05.54	326.34	25.07	-36.2	-37.5	28.8	3.04e+01	60	31	0	290455552	48	5742
2026-01-04 18:22:06.55	326.00	25.09	-36.6	-37.8	28.4	3.04e+01	46	31	0	292552704	48	5981
2026-01-04 18:22:07.55	325.65	25.12	-36.4	-37.6	28.7	3.04e+01	57	31	0	294649856	48	5849
2026-01-04 18:22:08.56	325.31	25.15	-36.2	-37.4	28.7	3.04e+01	59	31	0	296222720	48	5709
2026-01-04 18:22:09.57	324.96	25.17	-35.7	-36.9	29.2	3.04e+01	58	31	0	298319872	48	5369
2026-01-04 18:22:10.58	324.61	25.20	-36.6	-37.8	29.3	3.04e+01	61	31	0	300417024	46	6710
2026-01-04 18:22:11.59	324.26	25.22	-36.1	-37.4	28.9	3.04e+01	59	31	0	301989888	46	6370
2026-01-04 18:22:12.60	323.91	25.24	-36.5	-37.7	29.0	3.04e+01	59	31	0	304087040	46	6585
2026-01-04 18:22:13.61	323.56	25.26	-36.4	-37.7	28.9	3.04e+01	58	31	0	305659904	46	6588
2026-01-04 18:22:14.62	323.21	25.28	-37.3	-38.6	28.0	3.04e+01	46	31	0	307757056	48	6517
2026-01-04 18:22:15.63	322.86	25.30	-37.1	-38.3	29.0	3.04e+01	59	31	0	309854208	50	5628
2026-01-04 18:22:16.64	322.51	25.31	-36.3	-37.6	28.4	3.04e+01	59	31	0	311427072	46	6515
2026-01-04 18:22:17.65	322.15	25.33	-37.1	-38.3	28.4	3.04e+01	57	31	0	313524224	48	6301
2026-01-04 18:22:18.66	321.80	25.34	-36.2	-37.5	29.1	3.04e+01	57	31	0	315097088	48	5738
2026-01-04 18:22:19.67	321.45	25.36	-36.7	-37.9	28.7	3.04e+01	46	31	0	317194240	48	6045
2026-01-04 18:22:20.68	321.10	25.37	-37.4	-38.7	28.2	3.04e+01	55	31	0	319291392	48	6607
2026-01-04 18:22:21.69	320.74	25.38	-37.0	-38.2	28.8	3.04e+01	59	31	0	320864256	48	6255
2026-01-04 18:22:22.70	320.39	25.39	-36.1	-37.3	29.0	3.04e+01	45	31	0	322961408	46	6309
2026-01-04 18:22:23.71	320.04	25.40	-36.8	-38.1	28.7	3.04e+01	59	31	0	324534272	48	6145
2026-01-04 18:22:24.72	319.68	25.41	-36.7	-38.0	28.9	3.04e+01	59	31	0	326631424	48	6083
2026-01-04 18:22:25.73	319.33	25.42	-36.9	-38.2	28.5	3.04e+01	57	31	0	328728576	48	6227
2026-01-04 18:22:26.74	318.98	25.42	-36.4	-37.6	28.9	3.04e+01	59	31	0	330301440	48	5813
2026-01-04 18:22:27.74	318.62	25.43	-36.4	-37.6	29.0	3.04e+01	48	31	0	332398592	48	5834
2026-01-04 18:22:28.75	318.27	25.43	-37.4	-38.7	29.0	3.04e+01	60	31	0	333971456	48	6579
2026-01-04 18:22:29.76	317.92	25.43	-36.6	-37.8	28.4	3.04e+01	59	31	0	336068608	48	5991
2026-01-04 18:22:30.77	317.56	25.43	-37.0	-38.2	28.8	3.04e+01	61	31	0	338165760	48	6259
2026-01-04 18:22:31.78	317.21	25.43	-36.5	-37.8	29.1	3.04e+01	62	31	0	339738624	48	5938
2026-01-04 18:22:32.79	316.85	25.43	-36.6	-37.9	29.2	3.04e+01	59	31	0	341835776	48	6018
2026-01-04 18:22:33.80	316.50	25.43	-37.3	-38.6	27.9	3.04e+01	61	31	0	343408640	48	6504
2026-01-04 18:22:34.81	316.14	25.42	-37.3	-38.6	28.5	3.04e+01	60	31	0	345505792	48	6513
2026-01-04 18:22:35.82	315.79	25.42	-36.4	-37.6	29.0	3.04e+01	52	31	0	347602944	48	5806
2026-01-04 18:22:36.82	315.44	25.41	-37.0	-38.3	28.8	3.04e+01	61	31	0	349175808	48	6301
2026-01-04 18:22:37.83	315.08	25.41	-36.5	-37.7	28.6	3.04e+01	57	31	0	351272960	48	5878
2026-01-04 18:22:38.84	314.73	25.40	-37.0	-38.3	28.6	3.04e+01	60	31	0	353370112	46	7086
2026-01-04 18:22:39.86	314.37	25.39	-37.0	-38.3	27.7	3.04e+01	60	31	0	354942976	48	6302
2026-01-04 18:22:40.87	314.02	25.38	-37.4	-38.6	28.5	3.04e+01	53	31	0	357040128	50	5812
2026-01-04 18:22:41.88	313.67	25.37	-38.1	-39.5	27.8	3.04e+01	61	31	0	358612992	50	6446
2026-01-04 18:22:42.89	313.31	25.35	-37.2	-38.5	28.3	3.04e+01	61	31	0	360710144	48	6465
2026-01-04 18:22:43.90	312.96	25.34	-37.3	-38.6	28.4	3.04e+01	45	31	0	362807296	48	6500
2026-01-04 18:22:44.91	312.61	25.32	-37.3	-38.6	28.4	3.04e+01	59	31	0	364380160	50	5800
2026-01-04 18:22:45.92	312.26	25.31	-36.9	-38.2	28.6	3.04e+01	60	31	0	366477312	48	6213
2026-01-04 18:22:46.92	311.91	25.29	-37.5	-38.8	28.6	3.04e+01	62	31	0	368574464	50	5965
2026-01-04 18:22:47.93	311.56	25.27	-36.7	-37.9	28.9	3.04e+01	56	31	0	370147328	48	6018
2026-01-04 18:22:48.94	311.21	25.25	-37.4	-38.7	28.7	3.04e+01	59	31	0	372244480	48	6601
2026-01-04 18:22:49.95	310.86	25.23	-36.9	-38.1	28.6	3.04e+01	59	31	0	373817344	48	6200
2026-01-04 18:22:50.96	310.51	25.21	-37.6	-38.9	28.1	3.04e+01	58	31	0	375914496	48	6785
2026-01-04 18:22:51.97	310.16	25.19	-38.1	-39.5	27.5	3.04e+01	51	31	0	378011648	48	7253
2026-01-04 18:22:52.98	309.81	25.16	-37.0	-38.3	27.6	3.04e+01	62	31	0	379584512	48	6282
2026-01-04 18:22:53.99	309.46	25.14	-37.3	-38.6	26.7	3.04e+01	60	31	0	381681664	50	5806
2026-01-04 18:22:55.00	309.11	25.11	-39.2	-40.6	27.2	3.04e+01	62	31	0	383254528	52	6527
2026-01-04 18:22:56.01	308.77	25.08	-37.4	-38.6	28.4	3.04e+01	60	31	0	385351680	48	6527
2026-01-04 18:22:57.02	308.42	25.06	-37.6	-38.9	27.6	3.04e+01	50	31	0	387448832	52	5390
2026-01-04 18:22:58.02	308.08	25.03	-38.7	-40.2	26.9	3.04e+01	59	31	0	389021696	54	5543
2026-01-04 18:22:59.03	307.73	25.00	-37.6	-38.8	27.9	3.04e+01	59	31	0	391118848	50	5986
2026-01-04 18:23:00.04	307.39	24.96	-37.5	-38.8	27.6	3.04e+01	45	31	0	392691712	50	5932
2026-01-04 18:23:01.05	307.05	24.93	-37.9	-39.2	27.6	3.04e+01	62	31	0	394788864	50	6246
2026-01-04 18:23:02.06	306.70	24.90	-36.7	-37.9	28.7	3.04e+01	61	31	0	396886016	48	6050
2026-01-04 18:23:03.06	306.37	24.86	-37.9	-39.2	28.1	3.04e+01	60	31	0	398458880	48	7010
2026-01-04 18:23:04.07	306.02	24.83	-37.2	-38.5	28.3	3.04e+01	60	31	0	400556032	48	6437
2026-01-04 18:23:05.09	305.68	24.79	-35.9	-37.0	29.5	3.04e+01	49	31	0	402128896	48	5446
2026-01-04 18:23:06.09	305.34	24.75	-37.9	-39.3	27.3	3.04e+01	60	31	0	404226048	50	6342
2026-01-04 18:23:07.10	305.01	24.71	-36.8	-38.0	28.5	3.04e+01	57	31	0	406323200	48	6119
2026-01-04 18:23:08.11	304.67	24.67	-36.6	-37.9	28.8	3.04e+01	44	31	0	407896064	48	5995
2026-01-04 18:23:09.12	304.33	24.63	-37.9	-39.2	28.7	3.04e+01	59	31	0	409993216	48	7043
2026-01-04 18:23:10.13	303.99	24.59	-37.3	-38.5	28.6	3.04e+01	55	31	0	411566080	52	5141
2026-01-04 18:23:11.14	303.66	24.55	-37.5	-38.9	27.7	3.04e+01	57	31	0	413663232	50	6033
2026-01-04 18:23:12.15	303.33	24.51	-37.0	-38.3	28.2	3.04e+01	58	31	0	415760384	48	6290
2026-01-04 18:23:13.16	302.99	24.46	-37.4	-38.7	28.6	3.04e+01	51	31	0	417333248	50	5874
2026-01-04 18:23:14.17	302.66	24.42	-36.9	-38.2	28.4	3.04e+01	59	31	0	419430400	48	6208
2026-01-04 18:23:15.18	302.33	24.37	-38.1	-39.4	28.0	3.04e+01	59	31	0	421527552	50	6397
2026-01-04 18:23:16.19	302.00	24.32	-37.9	-39.3	27.7	3.04e+01	59	31	0	423100416	50	6311
2026-01-04 18:23:17.20	301.67	24.27	-35.5	-36.7	29.3	3.04e+01	60	31	0	425197568	46	5877
2026-01-04 18:23:18.21	301.34	24.23	-36.6	-37.9	28.1	3.04e+01	45	31	0	426770432	46	6755
2026-01-04 18:23:19.21	301.02	24.18	-36.3	-37.6	28.8	3.04e+01	58	31	0	428867584	46	6503
2026-01-04 18:23:20.22	300.69	24.13	-36.6	-37.9	28.4	3.04e+01	60	31	0	430964736	46	6730
2026-01-04 18:23:21.23	300.37	24.07	-37.2	-38.5	28.2	3.04e+01	46	31	0	432537600	46	7215
2026-01-04 18:23:22.24	300.04	24.02	-37.6	-38.9	28.0	3.04e+01	59	31	0	434634752	48	6801
2026-01-04 18:23:23.25	299.72	23.97	-37.5	-38.7	28.2	3.04e+01	59	31	0	436207616	50	5916
2026-01-04 18:23:24.26	299.40	23.91	-36.9	-38.1	28.5	3.04e+01	61	31	0	438304768	50	5522
2026-01-04 18:23:25.27	299.08	23.86	-37.2	-38.5	28.2	3.04e+01	62	31	0	440401920	48	6447
2026-01-04 18:23:26.28	298.76	23.80	-37.3	-38.5	28.6	3.04e+01	51	31	0	441974784	48	6490
2026-01-04 18:23:27.29	298.44	23.75	-37.2	-38.5	28.4	3.04e+01	61	31	0	444071936	48	6433
2026-01-04 18:23:28.30	298.13	23.69	-36.0	-37.2	28.9	3.04e+01	61	31	0	445644800	46	6255
2026-01-04 18:23:29.30	297.82	23.63	-37.4	-38.8	27.3	3.04e+01	46	31	0	447741952	48	6719
2026-01-04 18:23:30.31	297.50	23.57	-35.8	-37.0	28.8	3.04e+01	60	31	0	449839104	46	6115
2026-01-04 18:23:31.32	297.19	23.51	-36.9	-38.2	28.3	3.04e+01	61	31	0	451411968	48	6241
2026-01-04 18:23:32.33	296.88	23.45	-38.2	-39.5	25.4	3.04e+01	58	31	0	453509120	48	7287
2026-01-04 18:23:33.34	296.57	23.39	-37.4	-38.6	28.0	3.04e+01	63	31	0	455081984	50	5838
2026-01-04 18:23:34.35	296.26	23.33	-38.2	-39.5	28.4	3.04e+01	49	31	0	457179136	48	7269
2026-01-04 18:23:35.36	295.95	23.27	-36.2	-37.4	28.9	3.04e+01	58	31	0	459276288	48	5699
2026-01-04 18:23:36.37	295.64	23.20	-37.1	-38.4	27.8	3.04e+01	61	31	0	460849152	48	6370
2026-01-04 18:23:37.38	295.34	23.14	-37.1	-38.3	27.9	3.04e+01	44	31	0	462946304	48	6334
2026-01-04 18:23:38.39	295.03	23.08	-36.6	-37.8	27.7	3.04e+01	60	31	0	465043456	50	5332
2026-01-04 18:23:39.40	294.73	23.01	-36.6	-37.9	27.9	3.04e+01	60	31	0	466616320	46	6749
2026-01-04 18:23:40.41	294.43	22.94	-36.2	-37.4	28.6	3.04e+01	61	31	0	468713472	48	5699
2026-01-04 18:23:41.42	294.13	22.88	-37.2	-38.6	27.6	3.04e+01	60	31	0	470286336	48	6512
2026-01-04 18:23:42.42	293.83	22.81	-36.2	-37.4	28.9	3.04e+01	54	31	0	472383488	48	5679
2026-01-04 18:23:43.43	293.54	22.74	-37.4	-38.7	28.0	3.04e+01	59	31	0	474480640	48	6592
2026-01-04 18:23:44.44	293.24	22.68	-36.5	-37.7	29.0	3.04e+01	57	31	0	476053504	48	5912
2026-01-04 18:23:45.45	292.95	22.61	-37.3	-38.7	27.6	3.04e+01	59	31	0	478150656	48	6609
2026-01-04 18:23:46.46	292.65	22.54	-36.0	-37.2	29.0	3.04e+01	59	31	0	479723520	48	5543
2026-01-04 18:23:47.47	292.36	22.47	-36.8	-38.1	28.2	3.04e+01	46	31	0	481820672	48	6190
2026-01-04 18:23:48.48	292.07	22.40	-36.2	-37.4	28.9	3.04e+01	51	31	0	483917824	48	5717
2026-01-04 18:23:49.49	291.78	22.33	-36.6	-37.9	28.1	3.04e+01	59	31	0	485490688	46	6768
2026-01-04 18:23:50.50	291.50	22.25	-36.0	-37.2	28.7	3.04e+01	46	31	0	487587840	46	6266
2026-01-04 18:23:51.51	291.21	22.18	-37.2	-38.6	27.3	3.04e+01	53	31	0	489160704	48	6534
2026-01-04 18:23:52.52	290.92	22.11	-36.3	-37.5	28.7	3.04e+01	60	31	0	491257856	48	5747
2026-01-04 18:23:53.52	290.64	22.04	-37.3	-38.6	27.8	3.04e+01	62	31	0	493355008	48	6549
2026-01-04 18:23:54.54	290.36	21.96	-36.6	-37.9	28.1	3.04e+01	60	31	0	494927872	48	6023
2026-01-04 18:23:55.55	290.08	21.89	-36.6	-37.9	28.7	3.04e+01	50	31	0	497025024	48	6001
2026-01-04 18:23:56.56	289.80	21.81	-36.6	-37.8	28.6	3.04e+01	58	31	0	498597888	48	5987
2026-01-04 18:23:57.57	289.52	21.74	-36.7	-38.0	28.3	3.04e+01	57	31	0	500695040	48	6086
2026-01-04 18:23:58.57	289.25	21.66	-36.8	-38.0	28.4	3.04e+01	47	31	0	502792192	48	6117
2026-01-04 18:23:59.58	288.97	21.59	-36.3	-37.5	28.8	3.04e+01	60	31	0	504365056	48	5790
2026-01-04 18:24:00.59	288.70	21.51	-36.8	-38.0	28.4	3.04e+01	60	31	0	506462208	48	6132
2026-01-04 18:24:01.61	288.43	21.44	-36.1	-37.3	28.9	3.04e+01	56	31	0	508035072	48	5618
2026-01-04 18:24:02.62	288.15	21.36	-36.3	-37.5	28.5	3.04e+01	59	31	0	510132224	46	6474
2026-01-04 18:24:03.62	287.89	21.28	-36.4	-37.7	28.3	3.04e+01	59	31	0	512229376	46	6616
2026-01-04 18:24:04.63	287.62	21.20	-36.2	-37.4	28.9	3.04e+01	58	31	0	513802240	46	6416
2026-01-04 18:24:05.64	287.35	21.13	-36.3	-37.5	28.8	3.04e+01	58	31	0	515899392	46	6462
2026-01-04 18:24:06.65	287.09	21.05	-36.8	-38.1	28.3	3.04e+01	46	31	0	517996544	46	6912
2026-01-04 18:24:07.66	286.83	20.97	-36.5	-37.7	28.1	3.04e+01	58	31	0	519569408	48	5910
2026-01-04 18:24:08.67	286.56	20.89	-35.8	-37.0	29.3	3.04e+01	58	31	0	521666560	46	6107
2026-01-04 18:24:09.68	286.30	20.81	-36.2	-37.4	28.8	3.04e+01	56	31	0	523239424	46	6417
2026-01-04 18:24:10.69	286.04	20.73	-36.4	-37.7	28.5	3.04e+01	57	31	0	525336576	46	6612
2026-01-04 18:24:11.70	285.79	20.65	-35.9	-37.1	29.2	3.04e+01	50	31	0	527433728	46	6141
2026-01-04 18:24:12.71	285.53	20.57	-36.2	-37.4	28.9	3.04e+01	60	31	0	529006592	46	6367
2026-01-04 18:24:13.72	285.27	20.49	-36.3	-37.5	28.6	3.04e+01	60	31	0	531103744	46	6492
2026-01-04 18:24:14.73	285.02	20.41	-35.9	-37.1	29.0	3.04e+01	49	31	0	533200896	46	6194
2026-01-04 18:24:15.74	284.77	20.32	-36.2	-37.4	28.6	3.04e+01	62	31	0	534773760	46	6417
2026-01-04 18:24:16.75	284.52	20.24	-36.6	-37.8	28.6	3.04e+01	61	31	0	536870912	46	6703
2026-01-04 18:24:17.75	284.27	20.16	-36.2	-37.4	28.6	3.04e+01	58	31	0	538443776	46	6375
2026-01-04 18:24:18.76	284.02	20.08	-36.4	-37.6	29.1	3.04e+01	59	31	0	540540928	46	6549
2026-01-04 18:24:19.78	283.77	20.00	-36.2	-37.5	28.9	3.04e+01	53	31	0	542638080	46	6437
2026-01-04 18:24:20.78	283.53	19.91	-36.4	-37.7	28.6	3.04e+01	62	31	0	544210944	46	6581
2026-01-04 18:24:21.79	283.29	19.83	-36.5	-37.7	28.6	3.04e+01	59	31	0	546308096	46	6611
2026-01-04 18:24:22.81	283.04	19.75	-36.3	-37.6	28.5	3.04e+01	60	31	0	547880960	46	6502
2026-01-04 18:24:23.81	282.81	19.66	-36.3	-37.5	28.6	3.04e+01	59	31	0	549978112	48	5761
2026-01-04 18:24:24.82	282.57	19.58	-36.5	-37.8	28.5	3.04e+01	45	31	0	552075264	48	5947
2026-01-04 18:24:25.83	282.33	19.50	-36.1	-37.4	28.9	3.04e+01	58	31	0	553648128	48	5675
2026-01-04 18:24:26.84	282.09	19.41	-36.3	-37.5	28.7	3.04e+01	58	31	0	555745280	48	5783
2026-01-04 18:24:27.85	281.86	19.33	-36.3	-37.5	28.6	3.04e+01	52	31	0	557318144	48	5767
2026-01-04 18:24:28.86	281.62	19.24	-36.2	-37.4	28.8	3.04e+01	61	31	0	559415296	48	5697
2026-01-04 18:24:29.87	281.39	19.16	-36.7	-37.9	28.9	3.04e+01	60	31	0	561512448	48	6027
2026-01-04 18:24:30.88	281.16	19.08	-36.4	-37.6	28.9	3.04e+01	58	31	0	563085312	48	5835
2026-01-04 18:24:31.89	280.93	18.99	-36.4	-37.6	28.9	3.04e+01	61	31	0	565182464	48	5830
2026-01-04 18:24:32.90	280.70	18.91	-36.2	-37.4	29.1	3.04e+01	44	31	0	566755328	48	5691
2026-01-04 18:24:33.91	280.47	18.82	-35.9	-37.1	29.1	3.04e+01	59	31	0	568852480	46	6149
2026-01-04 18:24:34.92	280.25	18.74	-36.3	-37.5	28.6	3.04e+01	59	31	0	570949632	46	6488
2026-01-04 18:24:35.93	280.02	18.65	-36.4	-37.6	28.7	3.04e+01	46	31	0	572522496	46	6547
2026-01-04 18:24:36.94	279.80	18.57	-35.9	-37.1	28.9	3.04e+01	60	31	0	574619648	46	6194
2026-01-04 18:24:37.94	279.58	18.48	-35.6	-36.8	29.2	3.04e+01	57	31	0	576192512	46	5979
2026-01-04 18:24:38.95	279.36	18.40	-35.7	-36.9	29.0	3.04e+01	58	31	0	578289664	46	6058
2026-01-04 18:24:39.96	279.14	18.31	-36.0	-37.2	28.8	3.04e+01	61	31	0	580386816	46	6239
2026-01-04 18:24:40.97	278.92	18.22	-36.2	-37.5	28.7	3.04e+01	50	31	0	581959680	46	6437
2026-01-04 18:24:41.98	278.71	18.14	-36.3	-37.6	28.8	3.04e+01	59	31	0	584056832	46	6534
2026-01-04 18:24:42.99	278.49	18.05	-36.0	-37.2	29.0	3.04e+01	59	31	0	586153984	46	6254
2026-01-04 18:24:44.00	278.28	17.97	-35.9	-37.0	29.1	3.04e+01	48	31	0	587726848	46	6132
2026-01-04 18:24:45.01	278.06	17.88	-36.0	-37.3	29.0	3.04e+01	57	31	0	589824000	46	6294
2026-01-04 18:24:46.02	277.85	17.79	-36.2	-37.4	28.7	3.04e+01	60	31	0	591396864	46	6407
2026-01-04 18:24:47.03	277.64	17.71	-36.1	-37.4	28.8	3.04e+01	60	31	0	593494016	46	6351
2026-01-04 18:24:48.04	277.43	17.62	-36.2	-37.4	28.5	3.04e+01	59	31	0	595591168	46	6386
2026-01-04 18:24:49.05	277.23	17.54	-36.7	-37.9	28.7	3.04e+01	49	31	0	597164032	46	6768
2026-01-04 18:24:50.06	277.02	17.45	-36.5	-37.7	28.8	3.04e+01	60	31	0	599261184	46	6638
2026-01-04 18:24:51.06	276.82	17.36	-36.7	-38.0	28.3	3.04e+01	55	31	0	601358336	48	6087
2026-01-04 18:24:52.07	276.61	17.28	-36.8	-38.1	28.3	3.04e+01	44	31	0	602931200	48	6154
2026-01-04 18:24:53.08	276.41	17.19	-36.1	-37.3	28.9	3.04e+01	62	31	0	605028352	48	5639
2026-01-04 18:24:54.09	276.21	17.11	-36.2	-37.4	29.0	3.04e+01	57	31	0	606601216	46	6412
2026-01-04 18:24:55.11	276.01	17.02	-36.0	-37.1	28.8	3.04e+01	58	31	0	608698368	48	5528
2026-01-04 18:24:56.12	275.81	16.93	-37.2	-38.5	28.7	3.04e+01	61	31	0	610795520	48	6435
2026-01-04 18:24:57.13	275.61	16.85	-36.5	-37.8	28.4	3.04e+01	51	31	0	612368384	48	5942
2026-01-04 18:24:58.14	275.41	16.76	-36.0	-37.2	27.2	3.04e+01	58	31	0	614465536	48	5552
2026-01-04 18:24:59.14	275.22	16.67	-35.9	-37.1	29.0	3.04e+01	59	31	0	616038400	46	6203
2026-01-04 18:25:00.15	275.03	16.59	-35.9	-37.2	29.2	3.04e+01	52	31	0	618135552	46	6211
2026-01-04 18:25:01.16	274.83	16.50	-35.9	-37.1	28.9	3.04e+01	62	31	0	619708416	46	6203
2026-01-04 18:25:02.17	274.64	16.41	-36.1	-37.3	28.9	3.04e+01	44	31	0	621805568	46	6334
2026-01-04 18:25:03.18	274.45	16.33	-37.0	-38.3	28.1	3.04e+01	59	31	0	623902720	46	7088
2026-01-04 18:25:04.19	274.26	16.24	-36.3	-37.5	28.7	3.04e+01	56	31	0	625475584	48	5783
2026-01-04 18:25:05.20	274.07	16.16	-35.9	-37.1	28.9	3.04e+01	50	31	0	627572736	48	5511
2026-01-04 18:25:06.21	273.89	16.07	-35.9	-37.1	28.9	3.04e+01	60	31	0	629669888	46	6200
2026-01-04 18:25:07.21	273.70	15.98	-36.1	-37.3	28.8	3.04e+01	59	31	0	631242752	46	6322
2026-01-04 18:25:08.22	273.52	15.90	-36.3	-37.5	28.5	3.04e+01	61	31	0	633339904	46	6496
2026-01-04 18:25:09.23	273.34	15.81	-36.3	-37.5	28.3	3.04e+01	56	31	0	634912768	46	6469
2026-01-04 18:25:10.25	273.15	15.73	-36.3	-37.5	28.7	3.04e+01	46	31	0	637009920	46	6490
2026-01-04 18:25:11.25	272.97	15.64	-36.0	-37.3	28.8	3.04e+01	59	31	0	639107072	46	6283
2026-01-04 18:25:12.26	272.79	15.55	-36.2	-37.5	28.6	3.04e+01	56	31	0	640679936	46	6432
2026-01-04 18:25:13.27	272.61	15.47	-36.3	-37.5	28.3	3.04e+01	53	31	0	642777088	46	6497
2026-01-04 18:25:14.28	272.44	15.38	-36.6	-37.9	28.2	3.04e+01	62	31	0	644349952	46	6737
2026-01-04 18:25:15.29	272.26	15.30	-36.6	-37.9	28.4	3.04e+01	62	31	0	646447104	46	6737
2026-01-04 18:25:16.29	272.08	15.21	-36.4	-37.7	28.5	3.04e+01	60	31	0	648544256	46	6608
2026-01-04 18:25:17.30	271.91	15.13	-36.4	-37.7	28.4	3.04e+01	60	31	0	650117120	46	6594
2026-01-04 18:25:18.31	271.74	15.04	-36.4	-37.6	28.5	3.04e+01	57	31	0	652214272	46	6563
2026-01-04 18:25:19.32	271.56	14.96	-36.2	-37.4	28.6	3.04e+01	60	31	0	654311424	46	6414
2026-01-04 18:25:20.33	271.39	14.87	-36.3	-37.6	28.4	3.04e+01	62	31	0	655884288	46	6522
2026-01-04 18:25:21.34	271.22	14.79	-36.5	-37.8	28.4	3.04e+01	51	31	0	657981440	46	6668
2026-01-04 18:25:22.35	271.05	14.70	-36.5	-37.7	28.5	3.04e+01	63	31	0	659554304	48	5908
2026-01-04 18:25:23.36	270.88	14.62	-36.1	-37.4	28.7	3.04e+01	62	31	0	661651456	48	5667
2026-01-04 18:25:24.37	270.72	14.53	-36.2	-37.4	28.6	3.04e+01	56	31	0	663748608	48	5717
2026-01-04 18:25:25.38	270.55	14.45	-36.2	-37.4	28.7	3.04e+01	58	31	0	665321472	48	5704
2026-01-04 18:25:26.39	270.39	14.36	-36.2	-37.5	28.6	3.04e+01	50	31	0	667418624	48	5731
2026-01-04 18:25:27.40	270.22	14.28	-36.6	-37.8	28.4	3.04e+01	63	31	0	668991488	48	5965
2026-01-04 18:25:28.41	270.06	14.19	-36.4	-37.6	28.4	3.04e+01	57	31	0	671088640	48	5838
2026-01-04 18:25:29.42	269.90	14.11	-36.1	-37.4	28.5	3.04e+01	47	31	0	673185792	48	5680
2026-01-04 18:25:30.43	269.73	14.02	-36.3	-37.5	28.5	3.04e+01	54	31	0	674758656	48	5786
2026-01-04 18:25:31.44	269.57	13.94	-36.4	-37.6	28.5	3.04e+01	52	31	0	676855808	48	5834
2026-01-04 18:25:32.45	269.42	13.85	-36.6	-37.9	28.5	3.04e+01	60	31	0	678428672	48	6001
2026-01-04 18:25:33.45	269.26	13.77	-36.6	-37.8	28.3	3.04e+01	60	31	0	680525824	48	5979
2026-01-04 18:25:34.46	269.10	13.69	-36.6	-37.9	28.4	3.04e+01	51	31	0	682622976	48	6010
2026-01-04 18:25:35.47	268.95	13.60	-36.4	-37.7	28.5	3.04e+01	59	31	0	684195840	48	5861
2026-01-04 18:25:36.48	268.79	13.52	-36.4	-37.6	28.5	3.04e+01	58	31	0	686292992	48	5827
2026-01-04 18:25:37.49	268.64	13.44	-36.2	-37.4	28.6	3.04e+01	55	31	0	687865856	48	5717
2026-01-04 18:25:38.50	268.48	13.35	-36.4	-37.7	28.4	3.04e+01	59	31	0	689963008	48	5893
2026-01-04 18:25:39.51	268.33	13.27	-36.3	-37.6	28.5	3.04e+01	45	31	0	692060160	48	5816
2026-01-04 18:25:40.52	268.18	13.19	-36.3	-37.6	28.4	3.04e+01	58	31	0	693633024	48	5796
2026-01-04 18:25:41.53	268.03	13.10	-36.4	-37.7	28.3	3.04e+01	61	31	0	695730176	48	5861
2026-01-04 18:25:42.54	267.88	13.02	-36.5	-37.8	28.4	3.04e+01	44	31	0	697827328	48	5931
2026-01-04 18:25:43.55	267.73	12.94	-36.6	-37.9	28.0	3.04e+01	58	31	0	699400192	48	5998
2026-01-04 18:25:44.56	267.58	12.86	-36.5	-37.7	28.3	3.04e+01	61	31	0	701497344	48	5907
2026-01-04 18:25:45.57	267.43	12.77	-36.6	-37.9	28.3	3.04e+01	61	31	0	703070208	48	6017
2026-01-04 18:25:46.58	267.29	12.69	-36.6	-37.8	28.3	3.04e+01	59	31	0	705167360	48	5960
2026-01-04 18:25:47.59	267.14	12.61	-36.4	-37.6	28.3	3.04e+01	50	31	0	707264512	48	5827
2026-01-04 18:25:48.60	267.00	12.53	-36.6	-37.8	28.4	3.04e+01	60	31	0	708837376	48	5975
2026-01-04 18:25:49.61	266.85	12.44	-36.8	-38.1	28.1	3.04e+01	52	31	0	710934528	48	6159
2026-01-04 18:25:50.62	266.71	12.36	-36.8	-38.1	28.2	3.04e+01	48	31	0	712507392	48	6136
2026-01-04 18:25:51.63	266.57	12.28	-36.8	-38.1	28.0	3.04e+01	58	31	0	714604544	48	6145
2026-01-04 18:25:52.63	266.43	12.20	-36.7	-38.0	27.9	3.04e+01	58	31	0	716701696	48	6096
2026-01-04 18:25:53.64	266.29	12.12	-36.7	-38.0	28.1	3.04e+01	58	31	0	718274560	48	6108
2026-01-04 18:25:54.65	266.15	12.04	-36.5	-37.8	28.2	3.04e+01	58	31	0	720371712	48	5944
2026-01-04 18:25:55.66	266.01	11.96	-36.4	-37.7	27.5	3.04e+01	53	31	0	721944576	48	5896
2026-01-04 18:25:56.67	265.88	11.88	-37.0	-38.3	27.9	3.04e+01	59	31	0	724041728	48	6292
2026-01-04 18:25:57.68	265.74	11.79	-36.5	-37.7	28.2	3.04e+01	61	31	0	726138880	48	5925
2026-01-04 18:25:58.69	265.60	11.71	-36.6	-37.8	28.2	3.04e+01	47	31	0	727711744	48	5977
2026-01-04 18:25:59.70	265.47	11.63	-36.5	-37.8	28.1	3.04e+01	59	31	0	729808896	48	5968
2026-01-04 18:26:00.71	265.33	11.55	-36.8	-38.1	27.9	3.04e+01	58	31	0	731381760	48	6168
2026-01-04 18:26:01.72	265.20	11.47	-36.8	-38.1	27.7	3.04e+01	59	31	0	733478912	48	6185
2026-01-04 18:26:02.73	265.07	11.39	-37.1	-38.4	27.8	3.04e+01	60	31	0	735576064	48	6359
2026-01-04 18:26:03.74	264.94	11.31	-36.8	-38.2	27.7	3.04e+01	47	31	0	737148928	48	6206
2026-01-04 18:26:04.75	264.81	11.23	-36.4	-37.7	27.9	3.04e+01	54	31	0	739246080	48	5902
2026-01-04 18:26:05.75	264.68	11.15	-36.5	-37.8	27.9	3.04e+01	60	31	0	740818944	48	5961
2026-01-04 18:26:06.76	264.55	11.07	-36.4	-37.7	28.0	3.04e+01	48	31	0	742916096	48	5874
2026-01-04 18:26:07.77	264.42	10.99	-38.1	-39.5	28.2	3.04e+01	62	31	0	745013248	48	7286
2026-01-04 18:26:08.78	264.29	10.92	-36.6	-37.9	28.1	3.04e+01	66	31	0	746586112	48	6015
2026-01-04 18:26:09.79	264.16	10.84	-36.6	-37.8	28.1	3.04e+01	63	31	0	748683264	48	5988
2026-01-04 18:26:10.80	264.04	10.76	-36.8	-38.1	28.0	3.04e+01	59	31	0	750780416	48	6157
2026-01-04 18:26:11.81	263.91	10.68	-36.9	-38.2	27.9	3.04e+01	54	31	0	752353280	48	6213
2026-01-04 18:26:12.82	263.79	10.60	-36.9	-38.2	27.9	3.04e+01	62	31	0	754450432	48	6220
2026-01-04 18:26:13.83	263.66	10.52	-37.0	-38.2	27.7	3.04e+01	56	31	0	756023296	48	6275
2026-01-04 18:26:14.84	263.54	10.44	-36.9	-38.2	27.8	3.04e+01	63	31	0	758120448	48	6214
2026-01-04 18:26:15.85	263.41	10.37	-36.7	-38.0	27.8	3.04e+01	59	31	0	760217600	48	6100
2026-01-04 18:26:16.86	263.29	10.29	-36.6	-37.9	27.8	3.04e+01	50	31	0	761790464	48	6048
2026-01-04 18:26:17.87	263.17	10.21	-36.6	-37.9	27.8	3.04e+01	60	31	0	763887616	48	6051
2026-01-04 18:26:18.88	263.05	10.13	-36.8	-38.1	27.9	3.04e+01	59	31	0	765984768	48	6148
2026-01-04 18:26:19.89	262.93	10.05	-37.0	-38.2	27.9	3.04e+01	45	31	0	767557632	48	6269
2026-01-04 18:26:20.90	262.81	9.98	-37.4	-38.7	27.5	3.04e+01	59	31	0	769654784	48	6626
2026-01-04 18:26:21.90	262.69	9.90	-37.2	-38.5	27.6	3.04e+01	56	31	0	771227648	48	6435
2026-01-04 18:26:22.91	262.58	9.82	-37.0	-38.3	27.7	3.04e+01	61	31	0	773324800	48	6286
2026-01-04 18:26:23.93	262.46	9.75	-37.3	-38.6	27.5	3.04e+01	63	31	0	775421952	48	6548
2026-01-04 18:26:24.94	262.34	9.67	-37.0	-38.3	27.5	3.04e+01	63	31	0	776994816	48	6333
2026-01-04 18:26:25.94	262.23	9.59	-36.9	-38.2	27.6	3.04e+01	57	31	0	779091968	48	6254
2026-01-04 18:26:26.95	262.11	9.52	-37.1	-38.4	27.5	3.04e+01	59	31	0	780664832	48	6376
2026-01-04 18:26:27.96	262.00	9.44	-37.1	-38.4	27.4	3.04e+01	44	31	0	782761984	48	6420
2026-01-04 18:26:28.97	261.88	9.36	-37.2	-38.5	27.4	3.04e+01	60	31	0	784859136	48	6456
2026-01-04 18:26:29.98	261.77	9.29	-36.9	-38.2	27.4	3.04e+01	59	31	0	786432000	48	6254
2026-01-04 18:26:30.98	261.66	9.21	-36.9	-38.2	27.4	3.04e+01	61	31	0	788529152	48	6265
2026-01-04 18:26:31.99	261.55	9.14	-37.1	-38.4	27.1	3.04e+01	59	31	0	790102016	48	6420
2026-01-04 18:26:33.00	261.44	9.06	-37.0	-38.3	27.3	3.04e+01	52	31	0	792199168	48	6292
2026-01-04 18:26:34.01	261.33	8.99	-37.0	-38.3	27.5	3.04e+01	62	31	0	794296320	48	6329
2026-01-04 18:26:35.01	261.22	8.91	-36.7	-38.0	27.6	3.04e+01	59	31	0	795869184	48	6122
2026-01-04 18:26:36.02	261.11	8.84	-36.8	-38.1	27.5	3.04e+01	49	31	0	797966336	48	6167
2026-01-04 18:26:37.03	261.00	8.76	-36.7	-38.0	27.5	3.04e+01	58	31	0	799539200	48	6129
2026-01-04 18:26:38.04	260.89	8.69	-36.8	-38.1	27.5	3.04e+01	60	31	0	801636352	48	6152
2026-01-04 18:26:39.05	260.78	8.61	-36.9	-38.2	27.3	3.04e+01	58	31	0	803733504	48	6243
2026-01-04 18:26:40.06	260.68	8.54	-36.9	-38.3	27.3	3.04e+01	59	31	0	805306368	48	6279
2026-01-04 18:26:41.07	260.57	8.46	-37.2	-38.5	27.1	3.04e+01	52	31	0	807403520	48	6482
2026-01-04 18:26:42.08	260.46	8.39	-36.8	-38.1	27.3	3.04e+01	61	31	0	808976384	48	6204
2026-01-04 18:26:43.09	260.36	8.32	-37.0	-38.3	27.1	3.04e+01	59	31	0	811073536	48	6327
2026-01-04 18:26:44.10	260.25	8.24	-37.1	-38.4	27.1	3.04e+01	52	31	0	813170688	48	6383
2026-01-04 18:26:45.11	260.15	8.17	-36.9	-38.2	27.3	3.04e+01	58	31	0	814743552	48	6237
2026-01-04 18:26:46.12	260.05	8.10	-37.0	-38.3	27.3	3.04e+01	47	31	0	816840704	48	6290
2026-01-04 18:26:47.12	259.94	8.02	-37.2	-38.5	27.1	3.04e+01	57	31	0	818937856	48	6458
2026-01-04 18:26:48.13	259.84	7.95	-37.1	-38.4	27.2	3.04e+01	59	31	0	820510720	48	6382
2026-01-04 18:26:49.14	259.74	7.88	-37.2	-38.5	27.2	3.04e+01	51	31	0	822607872	48	6497
2026-01-04 18:26:50.14	259.64	7.80	-37.2	-38.5	27.2	3.04e+01	54	31	0	824180736	48	6493
2026-01-04 18:26:51.15	259.54	7.73	-37.7	-39.1	26.9	3.04e+01	60	31	0	826277888	48	6908
2026-01-04 18:26:52.16	259.44	7.66	-37.6	-39.0	26.7	3.04e+01	58	31	0	828375040	48	6828
2026-01-04 18:26:53.17	259.34	7.59	-37.5	-38.8	27.0	3.04e+01	58	31	0	829947904	48	6717
2026-01-04 18:26:54.18	259.24	7.51	-37.7	-39.1	26.8	3.04e+01	45	31	0	832045056	50	6158
2026-01-04 18:26:55.19	259.14	7.44	-37.9	-39.2	26.9	3.04e+01	57	31	0	833617920	50	6272
2026-01-04 18:26:56.20	259.05	7.37	-37.9	-39.3	26.7	3.04e+01	57	31	0	835715072	50	6322
2026-01-04 18:26:57.20	258.95	7.30	-37.6	-39.0	26.8	3.04e+01	44	31	0	837287936	50	6097
2026-01-04 18:26:58.21	258.85	7.23	-37.7	-39.1	26.7	3.04e+01	59	31	0	839385088	50	6147
2026-01-04 18:26:59.22	258.76	7.16	-37.4	-38.8	26.8	3.04e+01	61	31	0	841482240	50	5935
2026-01-04 18:27:00.22	258.66	7.09	-37.5	-38.9	26.8	3.04e+01	60	31	0	843055104	50	6012
2026-01-04 18:27:01.23	258.57	7.01	-37.5	-38.9	26.8	3.04e+01	55	31	0	845152256	50	6043
2026-01-04 18:27:02.24	258.47	6.94	-37.7	-39.1	26.5	3.04e+01	46	31	0	847249408	50	6157
2026-01-04 18:27:03.24	258.38	6.87	-37.6	-39.0	26.7	3.04e+01	59	31	0	848822272	50	6105
2026-01-04 18:27:04.25	258.29	6.80	-37.9	-39.3	26.3	3.04e+01	58	31	0	850919424	50	6322
2026-01-04 18:27:05.26	258.19	6.73	-37.9	-39.3	26.3	3.04e+01	47	31	0	852492288	50	6307
2026-01-04 18:27:06.27	258.10	6.66	-37.9	-39.3	26.3	3.04e+01	58	31	0	854589440	50	6305
2026-01-04 18:27:07.28	258.01	6.59	-38.2	-39.6	26.3	3.04e+01	57	31	0	856686592	50	6540
2026-01-04 18:27:08.28	257.92	6.52	-38.1	-39.6	26.4	3.04e+01	60	30	0	858259456	50	6500
2026-01-04 18:27:09.29	257.83	6.45	-38.1	-39.5	26.3	3.04e+01	62	31	0	860356608	50	6498
2026-01-04 18:27:10.30	257.74	6.38	-37.7	-39.2	26.4	3.04e+01	59	31	0	861929472	50	6211
2026-01-04 18:27:11.31	257.65	6.31	-37.9	-39.3	26.1	3.04e+01	60	31	0	864026624	50	6341
2026-01-04 18:27:12.32	257.56	6.24	-38.1	-39.5	26.3	3.04e+01	62	31	0	866123776	50	6440
2026-01-04 18:27:13.33	257.47	6.17	-37.9	-39.2	26.5	3.04e+01	46	31	0	867696640	50	6270
2026-01-04 18:27:14.34	257.38	6.10	-37.8	-39.2	26.5	3.04e+01	59	31	0	869793792	50	6246
2026-01-04 18:27:15.35	257.29	6.03	-37.8	-39.1	26.6	3.04e+01	50	31	0	871366656	50	6204
2026-01-04 18:27:16.36	257.20	5.97	-38.0	-39.4	26.3	3.04e+01	62	31	0	873463808	50	6384
2026-01-04 18:27:17.36	257.12	5.90	-38.6	-40.1	26.3	3.04e+01	62	31	0	875560960	52	6149
2026-01-04 18:27:18.37	257.03	5.83	-38.1	-39.5	26.1	3.04e+01	48	31	0	877133824	52	5760
2026-01-04 18:27:19.38	256.94	5.76	-38.6	-40.1	25.6	3.04e+01	60	31	0	879230976	52	6141
2026-01-04 18:27:20.39	256.86	5.69	-38.4	-39.8	25.9	3.04e+01	58	31	0	880803840	52	5959
2026-01-04 18:27:21.40	256.77	5.62	-38.5	-40.0	25.5	3.04e+01	43	31	0	882900992	52	6134
2026-01-04 18:27:22.41	256.69	5.55	-38.6	-40.1	25.5	3.04e+01	58	31	0	884998144	52	6169
2026-01-04 18:27:23.41	256.60	5.49	-38.9	-40.4	25.3	3.04e+01	60	31	0	886571008	52	6383
2026-01-04 18:27:24.42	256.52	5.42	-39.0	-40.6	24.8	3.04e+01	59	31	0	888668160	52	6518
2026-01-04 18:27:25.44	256.43	5.35	-39.3	-40.8	25.0	3.04e+01	59	31	0	890765312	52	6719
2026-01-04 18:27:26.44	256.35	5.28	-38.9	-40.5	24.9	3.04e+01	53	31	0	892338176	52	6437
2026-01-04 18:27:27.45	256.27	5.22	-39.0	-40.5	24.8	3.04e+01	58	31	0	894435328	52	6480
2026-01-04 18:27:28.46	256.19	5.15	-39.3	-40.8	24.8	3.04e+01	56	31	0	896008192	52	6726
2026-01-04 18:27:29.47	256.11	5.08	-39.3	-40.9	25.0	3.04e+01	55	31	0	898105344	52	6729
2026-01-04 18:27:30.48	256.02	5.02	-39.5	-41.1	24.5	3.04e+01	58	31	0	900202496	54	6185
2026-01-04 18:27:31.50	255.94	4.95	-39.3	-40.9	23.9	3.04e+01	53	31	0	901775360	54	6021
2026-01-04 18:27:32.50	255.86	4.88	-39.9	-41.5	24.4	3.04e+01	60	31	0	903872512	54	6463
2026-01-04 18:27:33.51	255.78	4.81	-39.4	-41.0	24.4	3.04e+01	62	31	0	905445376	54	6076
2026-01-04 18:27:34.52	255.70	4.75	-39.2	-40.8	24.7	3.04e+01	47	31	0	907542528	54	5964
2026-01-04 18:27:35.53	255.62	4.68	-38.6	-40.1	25.2	3.04e+01	58	31	0	909639680	52	6191
2026-01-04 18:27:36.54	255.54	4.62	-39.0	-40.5	25.0	3.04e+01	62	31	0	911212544	52	6461
2026-01-04 18:27:37.55	255.47	4.55	-38.3	-39.8	25.5	3.04e+01	61	31	0	913309696	52	5992
2026-01-04 18:27:38.56	255.39	4.48	-38.8	-40.3	24.9	3.04e+01	58	31	0	914882560	52	6316
2026-01-04 18:27:39.57	255.31	4.42	-39.0	-40.5	25.1	3.04e+01	50	31	0	916979712	52	6469
2026-01-04 18:27:40.58	255.23	4.35	-38.4	-39.9	25.5	3.04e+01	58	31	0	919076864	52	6021
2026-01-04 18:27:41.59	255.15	4.29	-39.1	-40.7	24.8	3.04e+01	61	31	0	920649728	52	6630
2026-01-04 18:27:42.60	255.08	4.22	-38.5	-40.0	25.4	3.04e+01	47	31	0	922746880	52	6087
2026-01-04 18:27:43.60	255.00	4.16	-38.0	-39.4	25.7	3.04e+01	58	31	0	924319744	52	5707
2026-01-04 18:27:44.61	254.93	4.09	-38.1	-39.5	25.8	3.04e+01	60	31	0	926416896	52	5774
2026-01-04 18:27:45.62	254.85	4.03	-38.4	-39.9	25.2	3.04e+01	60	31	0	928514048	52	6033
2026-01-04 18:27:46.63	254.78	3.96	-38.5	-40.0	25.3	3.04e+01	56	31	0	930086912	52	6128
2026-01-04 18:27:47.64	254.70	3.90	-39.1	-40.6	25.1	3.04e+01	60	31	0	932184064	52	6572
2026-01-04 18:27:48.65	254.63	3.83	-38.5	-40.0	25.4	3.04e+01	56	31	0	933756928	52	6081
2026-01-04 18:27:49.65	254.55	3.77	-39.3	-40.8	24.8	3.04e+01	57	30	0	935854080	52	6725
2026-01-04 18:27:50.66	254.48	3.70	-38.8	-40.4	25.0	3.04e+01	47	31	0	937951232	52	6359
2026-01-04 18:27:51.67	254.41	3.64	-39.1	-40.7	24.7	3.04e+01	60	31	0	939524096	52	6639
2026-01-04 18:27:52.68	254.33	3.58	-38.6	-40.1	25.4	3.04e+01	57	31	0	941621248	52	6203
2026-01-04 18:27:53.68	254.26	3.51	-39.2	-40.7	24.8	3.04e+01	51	30	0	943718400	52	6633
2026-01-04 18:27:54.69	254.19	3.45	-39.0	-40.5	25.0	3.04e+01	59	30	0	945291264	52	6496
