passes_logs/2026/01/04/R4.6S_Anadyr/R4.6S_Anadyr__20260104_151122_NOAA_20_JPSS-1_rec.log

#Pass ID: 20260104_151122_NOAA 20 (JPSS-1)
#Satellite: NOAA 20 (JPSS-1)
#Configuration: NOAA 20
#almurnet v.1.7.20251203
#Start time: 2026-01-04 15:11:25

#Version: 2.2.20231116
#Station: R4.6S_Anadyr
#Location: 177.4865 lon 64.73178 lat
#TLE: 1 43013U 17073A   26003.41800368  .00000169  00000+0  10117-3 0  9998
#TLE: 2 43013  98.7624 304.4804 0001884  56.1176 304.0179 14.19532918421092

#Time	Az	El	Level	Level2	SNR	BER	BlckErr	Temp	State	Recorded	gain1	gain2
2026-01-04 15:11:25.72	21.59	0.19	-49.7	-63.4	3.3	1.54e+00	0	38	0	0	60	53599
2026-01-04 15:11:26.73	21.58	0.25	-49.8	-65.0	3.6	1.51e+00	0	38	104	0	60	64515
2026-01-04 15:11:27.74	21.57	0.31	-49.8	-65.0	3.6	1.51e+00	0	38	104	0	60	64098
2026-01-04 15:11:28.75	21.56	0.37	-49.7	-64.9	3.6	1.51e+00	0	38	104	0	60	63800
2026-01-04 15:11:29.76	21.55	0.43	-49.5	-64.7	3.6	1.51e+00	0	38	104	0	60	61917
2026-01-04 15:11:30.77	21.54	0.49	-49.4	-64.6	3.6	1.51e+00	0	38	104	0	60	61641
2026-01-04 15:11:31.78	21.53	0.55	-49.4	-64.6	3.6	1.51e+00	0	39	104	0	60	61290
2026-01-04 15:11:32.79	21.52	0.61	-49.3	-64.5	3.6	1.51e+00	0	39	104	0	60	61026
2026-01-04 15:11:33.80	21.51	0.68	-49.3	-64.5	3.6	1.51e+00	0	39	104	0	60	60529
2026-01-04 15:11:34.81	21.51	0.74	-49.2	-64.4	3.6	1.51e+00	0	39	104	0	60	60150
2026-01-04 15:11:35.82	21.50	0.80	-49.2	-64.3	3.6	1.51e+00	0	39	104	0	60	59608
2026-01-04 15:11:36.83	21.49	0.86	-49.1	-64.3	3.6	1.51e+00	0	39	104	0	60	59155
2026-01-04 15:11:37.84	21.48	0.92	-49.0	-64.1	3.6	1.51e+00	0	39	104	0	60	58165
2026-01-04 15:11:38.84	21.47	0.98	-48.7	-63.9	3.6	1.51e+00	0	39	104	0	60	56547
2026-01-04 15:11:39.85	21.46	1.05	-48.6	-63.8	3.6	1.51e+00	0	39	104	0	60	55892
2026-01-04 15:11:40.86	21.45	1.11	-48.4	-63.6	3.6	1.51e+00	0	39	104	0	60	54817
2026-01-04 15:11:41.87	21.44	1.17	-48.2	-63.5	3.6	1.51e+00	0	39	104	0	60	53781
2026-01-04 15:11:42.88	21.43	1.23	-47.8	-63.0	3.6	1.51e+00	0	39	104	0	60	50863
2026-01-04 15:11:43.89	21.42	1.30	-47.8	-62.8	3.6	1.51e+00	0	39	104	0	60	49922
2026-01-04 15:11:44.90	21.41	1.36	-47.8	-62.8	3.6	1.51e+00	0	39	104	0	60	49893
2026-01-04 15:11:45.91	21.40	1.42	-47.8	-62.8	3.6	1.51e+00	0	39	104	0	60	49612
2026-01-04 15:11:46.92	21.39	1.48	-47.8	-62.7	3.6	1.51e+00	0	39	104	0	60	49344
2026-01-04 15:11:47.93	21.38	1.55	-47.8	-62.6	3.6	1.51e+00	0	39	104	0	60	48526
2026-01-04 15:11:48.94	21.37	1.61	-47.8	-62.6	3.6	1.51e+00	0	39	104	0	60	48832
2026-01-04 15:11:49.95	21.36	1.67	-47.8	-62.8	3.6	1.51e+00	0	39	104	0	60	50091
2026-01-04 15:11:50.96	21.35	1.74	-47.8	-62.9	3.6	1.51e+00	0	39	104	0	60	50386
2026-01-04 15:11:51.97	21.34	1.80	-47.8	-62.9	3.6	1.51e+00	0	39	104	0	60	50720
2026-01-04 15:11:52.98	21.33	1.87	-47.8	-63.0	3.6	1.51e+00	0	39	104	0	60	50941
2026-01-04 15:11:53.99	21.32	1.93	-47.8	-63.0	3.6	1.51e+00	0	39	104	0	60	51200
2026-01-04 15:11:55.00	21.31	1.99	-47.8	-63.0	3.6	1.51e+00	0	39	104	0	60	50797
2026-01-04 15:11:56.01	21.30	2.06	-47.8	-62.9	3.6	1.51e+00	0	39	104	0	60	50616
2026-01-04 15:11:57.02	21.29	2.12	-47.8	-62.8	3.6	1.51e+00	0	39	104	0	60	50119
2026-01-04 15:11:58.03	21.28	2.19	-47.8	-62.8	3.6	1.51e+00	0	39	104	0	60	50037
2026-01-04 15:11:59.04	21.27	2.25	-47.8	-62.6	3.6	1.51e+00	0	39	104	0	60	49003
2026-01-04 15:12:00.05	21.26	2.32	-47.8	-62.4	3.6	1.51e+00	0	39	104	0	60	47469
2026-01-04 15:12:01.06	21.25	2.38	-47.8	-62.1	3.6	1.51e+00	0	39	104	0	60	46027
2026-01-04 15:12:02.07	21.23	2.45	-47.8	-62.1	3.6	1.51e+00	0	39	104	0	60	45795
2026-01-04 15:12:03.08	21.22	2.51	-47.8	-61.8	3.6	1.51e+00	0	39	104	0	60	44613
2026-01-04 15:12:04.09	21.21	2.58	-47.8	-61.9	3.6	1.51e+00	0	39	104	0	60	44957
2026-01-04 15:12:05.10	21.20	2.64	-47.8	-61.9	3.6	1.51e+00	0	39	104	0	60	44857
2026-01-04 15:12:06.11	21.19	2.71	-47.8	-62.3	3.6	1.51e+00	0	39	104	0	60	46917
2026-01-04 15:12:07.11	21.18	2.77	-47.8	-62.2	3.6	1.51e+00	0	39	104	0	60	46339
2026-01-04 15:12:08.12	21.17	2.84	-47.7	-61.3	3.6	1.51e+00	0	39	104	0	60	42127
2026-01-04 15:12:09.14	21.16	2.91	-47.6	-59.5	4.2	1.49e+00	0	39	104	0	60	34068
2026-01-04 15:12:10.14	21.15	2.97	-47.4	-55.9	5.1	8.61e-01	0	39	0	1048576	60	22637
2026-01-04 15:12:11.15	21.13	3.04	-47.1	-54.2	6.8	2.74e-01	0	39	0	3145728	60	18497
2026-01-04 15:12:12.16	21.12	3.11	-46.7	-52.7	8.7	6.57e-02	7	39	0	4194304	60	15571
2026-01-04 15:12:13.18	21.11	3.17	-46.6	-52.1	9.4	3.61e-02	12	39	0	6291456	60	14632
2026-01-04 15:12:14.19	21.10	3.24	-46.1	-51.0	10.9	5.15e-03	1	39	0	8388608	60	12774
2026-01-04 15:12:15.20	21.09	3.31	-45.9	-50.4	11.4	1.05e-03	11	39	0	10485760	60	11973
2026-01-04 15:12:16.20	21.08	3.38	-45.7	-50.0	11.8	4.38e-04	92	39	0	12582912	60	11386
2026-01-04 15:12:17.22	21.06	3.44	-45.6	-49.7	12.2	4.61e-04	11	39	0	13631488	60	11013
2026-01-04 15:12:18.22	21.05	3.51	-45.8	-50.2	11.9	3.38e-04	92	39	0	15728640	60	11662
2026-01-04 15:12:19.23	21.04	3.58	-45.9	-50.4	11.3	9.06e-04	0	39	0	17825792	60	11991
2026-01-04 15:12:20.24	21.03	3.65	-46.6	-52.2	9.2	6.45e-03	69	39	0	19922944	60	14782
2026-01-04 15:12:21.25	21.02	3.71	-47.7	-57.7	4.1	1.11e+00	56	39	0	20971520	60	27720
2026-01-04 15:12:22.26	21.00	3.78	-46.6	-51.4	10.0	2.74e-01	0	39	0	23068672	60	13496
2026-01-04 15:12:23.27	20.99	3.85	-47.7	-62.5	3.6	8.87e-01	0	39	104	24117248	60	48170
2026-01-04 15:12:24.28	20.98	3.92	-41.9	-43.7	17.3	4.23e-01	68	39	104	24117248	58	6177
2026-01-04 15:12:25.29	20.97	3.99	-47.9	-62.6	3.6	1.47e+00	0	39	104	24117248	60	48958
2026-01-04 15:12:26.29	20.95	4.06	-41.9	-43.6	17.7	1.05e+00	0	39	104	24117248	58	6160
2026-01-04 15:12:27.30	20.94	4.13	-42.1	-43.8	18.5	0.00e+00	0	39	0	25165824	58	6306
2026-01-04 15:12:28.31	20.93	4.20	-41.9	-43.6	18.5	0.00e+00	0	39	0	26214400	58	6152
2026-01-04 15:12:29.32	20.92	4.27	-42.1	-43.8	18.4	0.00e+00	0	39	0	28311552	58	6316
2026-01-04 15:12:30.33	20.90	4.33	-42.0	-43.7	18.6	0.00e+00	0	39	0	30408704	58	6183
2026-01-04 15:12:31.34	20.89	4.40	-41.7	-43.4	18.9	0.00e+00	12	39	0	32505856	58	5967
2026-01-04 15:12:32.35	20.88	4.48	-42.0	-43.7	18.7	0.00e+00	90	39	0	34603008	56	6979
2026-01-04 15:12:33.36	20.86	4.55	-42.2	-43.9	18.7	0.00e+00	11	39	0	35651584	56	7108
2026-01-04 15:12:34.37	20.85	4.62	-42.0	-43.7	18.5	0.00e+00	2	39	0	37748736	56	6982
2026-01-04 15:12:35.38	20.84	4.69	-42.1	-43.8	18.4	0.00e+00	0	39	0	39845888	56	7064
2026-01-04 15:12:36.38	20.82	4.76	-42.5	-44.3	18.1	0.00e+00	7	39	0	41943040	56	7504
2026-01-04 15:12:37.39	20.81	4.83	-42.3	-44.0	18.3	0.00e+00	0	39	0	44040192	56	7248
2026-01-04 15:12:38.40	20.80	4.90	-42.7	-44.5	18.3	0.00e+00	6	39	0	45088768	56	7649
2026-01-04 15:12:39.41	20.78	4.97	-42.0	-43.6	18.5	0.00e+00	92	39	0	47185920	56	6905
2026-01-04 15:12:40.42	20.77	5.04	-42.2	-43.8	18.5	0.00e+00	8	39	0	49283072	56	7078
2026-01-04 15:12:41.43	20.75	5.11	-42.1	-43.7	18.8	0.00e+00	92	39	0	51380224	56	6977
2026-01-04 15:12:42.44	20.74	5.19	-41.6	-43.1	19.3	0.00e+00	0	39	0	53477376	56	6509
2026-01-04 15:12:43.45	20.73	5.26	-41.7	-43.2	19.1	0.00e+00	0	39	0	55574528	56	6596
2026-01-04 15:12:44.46	20.71	5.33	-42.0	-43.6	18.8	0.00e+00	0	39	0	56623104	56	6890
2026-01-04 15:12:45.47	20.70	5.40	-41.8	-43.3	18.9	0.00e+00	69	39	0	58720256	56	6685
2026-01-04 15:12:46.48	20.68	5.48	-42.1	-43.7	18.9	0.00e+00	79	39	0	60817408	56	6971
2026-01-04 15:12:47.49	20.67	5.55	-41.8	-43.3	18.8	0.00e+00	6	39	0	62914560	56	6679
2026-01-04 15:12:48.50	20.65	5.62	-41.6	-43.1	19.4	0.00e+00	90	39	0	65011712	56	6482
2026-01-04 15:12:49.51	20.64	5.69	-41.5	-43.0	19.6	0.00e+00	0	39	0	66060288	56	6412
2026-01-04 15:12:50.52	20.63	5.77	-41.5	-43.0	19.3	0.00e+00	5	39	0	68157440	56	6405
2026-01-04 15:12:51.53	20.61	5.84	-41.2	-42.6	20.0	0.00e+00	0	39	0	70254592	56	6144
2026-01-04 15:12:52.54	20.60	5.92	-41.3	-42.7	19.6	0.00e+00	14	39	0	72351744	56	6229
2026-01-04 15:12:53.55	20.58	5.99	-41.0	-42.4	20.0	0.00e+00	0	39	0	74448896	56	5998
2026-01-04 15:12:54.55	20.57	6.06	-41.4	-42.8	19.8	0.00e+00	13	39	0	75497472	56	6316
2026-01-04 15:12:55.57	20.55	6.14	-41.0	-42.3	20.2	0.00e+00	92	39	0	77594624	56	5943
2026-01-04 15:12:56.57	20.54	6.21	-41.4	-42.8	19.7	0.00e+00	5	39	0	79691776	56	6291
2026-01-04 15:12:57.58	20.52	6.29	-41.5	-42.9	19.6	0.00e+00	91	39	0	81788928	56	6370
2026-01-04 15:12:58.59	20.50	6.36	-41.2	-42.6	19.9	0.00e+00	13	39	0	83886080	56	6135
2026-01-04 15:12:59.60	20.49	6.44	-41.2	-42.6	20.0	0.00e+00	73	39	0	84934656	56	6115
2026-01-04 15:13:00.61	20.47	6.51	-41.2	-42.6	20.1	0.00e+00	0	39	0	87031808	56	6140
2026-01-04 15:13:01.62	20.46	6.59	-41.2	-42.5	20.1	0.00e+00	72	39	0	89128960	56	6089
2026-01-04 15:13:02.63	20.44	6.67	-41.1	-42.5	20.1	0.00e+00	92	39	0	91226112	56	6050
2026-01-04 15:13:03.64	20.43	6.74	-41.0	-42.4	20.2	0.00e+00	73	39	0	93323264	56	5970
2026-01-04 15:13:04.65	20.41	6.82	-41.2	-42.5	20.3	0.00e+00	92	39	0	94371840	56	6091
2026-01-04 15:13:05.66	20.39	6.90	-41.3	-42.6	20.0	0.00e+00	0	39	0	96468992	56	6173
2026-01-04 15:13:06.66	20.38	6.97	-41.1	-42.5	20.1	0.00e+00	0	39	0	98566144	56	6048
2026-01-04 15:13:07.67	20.36	7.05	-41.0	-42.4	20.2	0.00e+00	1	39	0	100663296	56	5966
2026-01-04 15:13:08.68	20.34	7.13	-40.8	-42.1	20.5	0.00e+00	72	39	0	102760448	56	5799
2026-01-04 15:13:09.69	20.33	7.20	-40.8	-42.1	20.4	0.00e+00	75	39	0	103809024	54	6522
2026-01-04 15:13:10.70	20.31	7.28	-40.8	-42.1	20.4	0.00e+00	0	39	0	105906176	54	6470
2026-01-04 15:13:11.71	20.29	7.36	-40.8	-42.1	20.3	0.00e+00	92	39	0	108003328	54	6521
2026-01-04 15:13:12.72	20.28	7.44	-40.6	-41.9	20.5	0.00e+00	0	39	0	110100480	54	6365
2026-01-04 15:13:13.73	20.26	7.52	-40.7	-42.0	20.5	0.00e+00	77	39	0	112197632	54	6441
2026-01-04 15:13:14.74	20.24	7.60	-40.7	-41.9	20.5	0.00e+00	6	39	0	113246208	54	6382
2026-01-04 15:13:15.75	20.22	7.68	-40.7	-42.0	20.5	0.00e+00	15	39	0	115343360	54	6433
2026-01-04 15:13:16.76	20.21	7.75	-40.6	-41.9	20.6	0.00e+00	0	39	0	117440512	54	6337
2026-01-04 15:13:17.76	20.19	7.83	-40.7	-42.0	20.4	0.00e+00	14	39	0	119537664	54	6451
2026-01-04 15:13:18.77	20.17	7.91	-41.0	-42.3	20.1	0.00e+00	92	39	0	121634816	54	6687
2026-01-04 15:13:19.78	20.15	7.99	-40.5	-41.7	20.6	0.00e+00	14	39	0	122683392	54	6230
2026-01-04 15:13:20.79	20.14	8.07	-40.5	-41.7	20.7	0.00e+00	92	39	0	124780544	54	6236
2026-01-04 15:13:21.80	20.12	8.15	-40.8	-42.1	20.3	0.00e+00	10	39	0	126877696	54	6536
2026-01-04 15:13:22.81	20.10	8.24	-40.2	-41.5	21.0	0.00e+00	10	39	0	128974848	54	6035
2026-01-04 15:13:23.82	20.08	8.32	-40.5	-41.7	20.8	0.00e+00	13	39	0	131072000	54	6212
2026-01-04 15:13:24.83	20.06	8.40	-40.5	-41.7	20.7	0.00e+00	68	39	0	132120576	54	6225
2026-01-04 15:13:25.84	20.04	8.48	-40.6	-41.8	20.6	0.00e+00	92	39	0	134217728	54	6299
2026-01-04 15:13:26.85	20.03	8.56	-40.5	-41.8	20.8	0.00e+00	67	39	0	136314880	54	6268
2026-01-04 15:13:27.86	20.01	8.64	-40.4	-41.7	20.9	0.00e+00	92	39	0	138412032	54	6185
2026-01-04 15:13:28.87	19.99	8.73	-40.4	-41.6	21.0	0.00e+00	0	39	0	140509184	54	6121
2026-01-04 15:13:29.88	19.97	8.81	-39.9	-41.1	21.4	0.00e+00	76	39	0	141557760	54	5782
2026-01-04 15:13:30.88	19.95	8.89	-40.2	-41.4	21.1	0.00e+00	0	39	0	143654912	54	6022
2026-01-04 15:13:31.89	19.93	8.97	-40.1	-41.3	21.3	0.00e+00	0	39	0	145752064	54	5905
2026-01-04 15:13:32.90	19.91	9.06	-40.1	-41.3	21.2	0.00e+00	71	39	0	147849216	54	5919
2026-01-04 15:13:33.91	19.89	9.14	-40.2	-41.4	21.2	0.00e+00	2	39	0	149946368	54	5982
2026-01-04 15:13:34.92	19.87	9.23	-40.2	-41.3	21.2	0.00e+00	92	39	0	152043520	54	5954
2026-01-04 15:13:35.93	19.85	9.31	-40.2	-41.4	21.2	0.00e+00	0	39	0	153092096	54	5969
2026-01-04 15:13:36.94	19.83	9.39	-40.1	-41.3	21.3	0.00e+00	27	39	0	155189248	54	5916
2026-01-04 15:13:37.95	19.81	9.48	-40.1	-41.3	21.3	0.00e+00	0	39	0	157286400	52	6640
2026-01-04 15:13:38.96	19.79	9.56	-40.0	-41.2	21.4	0.00e+00	3	39	0	159383552	52	6572
2026-01-04 15:13:39.97	19.77	9.65	-39.6	-40.7	21.9	0.00e+00	0	39	0	161480704	52	6230
2026-01-04 15:13:40.98	19.75	9.74	-39.9	-41.0	21.6	0.00e+00	0	39	0	162529280	52	6442
2026-01-04 15:13:41.99	19.73	9.82	-40.2	-41.4	21.3	0.00e+00	92	39	0	164626432	52	6698
2026-01-04 15:13:42.99	19.71	9.91	-40.1	-41.3	21.4	0.00e+00	15	39	0	166723584	52	6631
2026-01-04 15:13:44.00	19.69	9.99	-40.0	-41.2	21.4	0.00e+00	92	39	0	168820736	52	6555
2026-01-04 15:13:45.01	19.67	10.08	-40.0	-41.2	21.5	0.00e+00	78	39	0	170917888	52	6547
2026-01-04 15:13:46.02	19.64	10.17	-40.0	-41.1	21.5	0.00e+00	72	39	0	171966464	52	6519
2026-01-04 15:13:47.03	19.62	10.26	-39.8	-40.9	21.7	0.00e+00	3	39	0	174063616	52	6364
2026-01-04 15:13:48.04	19.60	10.34	-39.8	-40.9	21.8	0.00e+00	67	39	0	176160768	52	6364
2026-01-04 15:13:49.05	19.58	10.43	-39.7	-40.8	21.9	0.00e+00	92	39	0	178257920	52	6258
2026-01-04 15:13:50.06	19.56	10.52	-39.9	-41.0	21.7	0.00e+00	0	39	0	180355072	52	6432
2026-01-04 15:13:51.07	19.53	10.61	-39.6	-40.7	21.9	0.00e+00	90	39	0	181403648	52	6219
2026-01-04 15:13:52.08	19.51	10.70	-39.7	-40.8	21.9	0.00e+00	0	39	0	183500800	52	6246
2026-01-04 15:13:53.09	19.49	10.79	-39.6	-40.7	21.9	0.00e+00	21	39	0	185597952	52	6224
2026-01-04 15:13:54.10	19.47	10.88	-39.8	-40.9	21.9	0.00e+00	2	39	0	187695104	52	6340
2026-01-04 15:13:55.11	19.44	10.97	-39.5	-40.6	22.0	0.00e+00	0	39	0	189792256	52	6131
2026-01-04 15:13:56.12	19.42	11.06	-39.5	-40.6	22.1	0.00e+00	92	39	0	190840832	52	6135
2026-01-04 15:13:57.13	19.40	11.15	-39.6	-40.7	22.0	0.00e+00	2	39	0	192937984	52	6191
2026-01-04 15:13:58.14	19.37	11.24	-39.6	-40.6	22.1	0.00e+00	91	39	0	195035136	52	6160
2026-01-04 15:13:59.14	19.35	11.33	-39.4	-40.4	22.2	0.00e+00	15	39	0	197132288	52	5999
2026-01-04 15:14:00.15	19.33	11.42	-39.5	-40.5	22.2	0.00e+00	74	39	0	199229440	52	6078
2026-01-04 15:14:01.16	19.30	11.51	-39.6	-40.6	22.0	0.00e+00	11	39	0	200278016	52	6146
2026-01-04 15:14:02.17	19.28	11.61	-39.3	-40.4	22.4	0.00e+00	2	39	0	202375168	52	5977
2026-01-04 15:14:03.18	19.26	11.70	-39.4	-40.4	22.4	0.00e+00	0	39	0	204472320	52	6003
2026-01-04 15:14:04.19	19.23	11.79	-39.4	-40.5	22.3	0.00e+00	17	39	0	206569472	52	6053
2026-01-04 15:14:05.20	19.21	11.89	-39.4	-40.4	22.2	0.00e+00	92	39	0	208666624	52	6026
2026-01-04 15:14:06.21	19.18	11.98	-39.4	-40.4	22.4	0.00e+00	63	39	0	209715200	52	6030
2026-01-04 15:14:07.22	19.16	12.07	-39.3	-40.3	22.5	0.00e+00	92	39	0	211812352	52	5947
2026-01-04 15:14:08.22	19.13	12.17	-39.2	-40.2	22.5	0.00e+00	15	39	0	213909504	52	5850
2026-01-04 15:14:09.23	19.11	12.26	-39.2	-40.2	22.6	0.00e+00	71	39	0	216006656	52	5877
2026-01-04 15:14:10.24	19.08	12.36	-39.2	-40.2	22.6	0.00e+00	0	39	0	218103808	52	5874
2026-01-04 15:14:11.25	19.06	12.45	-39.3	-40.3	22.5	0.00e+00	0	39	0	220200960	52	5930
2026-01-04 15:14:12.26	19.03	12.55	-39.2	-40.2	22.6	0.00e+00	91	39	0	221249536	52	5840
2026-01-04 15:14:13.27	19.00	12.64	-39.2	-40.2	22.6	0.00e+00	65	39	0	223346688	52	5843
2026-01-04 15:14:14.28	18.98	12.74	-39.1	-40.1	22.6	0.00e+00	92	39	0	225443840	52	5824
2026-01-04 15:14:15.29	18.95	12.84	-39.1	-40.1	22.7	0.00e+00	2	39	0	227540992	52	5806
2026-01-04 15:14:16.30	18.92	12.94	-38.8	-39.8	23.0	0.00e+00	36	39	0	229638144	52	5571
2026-01-04 15:14:17.31	18.90	13.03	-38.9	-39.9	22.8	0.00e+00	2	40	0	230686720	52	5648
2026-01-04 15:14:18.32	18.87	13.13	-38.8	-39.8	23.0	0.00e+00	2	39	0	232783872	52	5592
2026-01-04 15:14:19.33	18.84	13.23	-39.0	-40.0	22.8	0.00e+00	0	39	0	234881024	52	5698
2026-01-04 15:14:20.34	18.82	13.33	-39.0	-40.0	22.7	0.00e+00	1	39	0	236978176	52	5720
2026-01-04 15:14:21.35	18.79	13.43	-39.2	-40.3	22.6	0.00e+00	92	39	0	239075328	52	5900
2026-01-04 15:14:22.37	18.76	13.53	-39.2	-40.2	22.7	0.00e+00	14	39	0	240123904	52	5833
2026-01-04 15:14:23.37	18.73	13.63	-39.0	-40.0	22.8	0.00e+00	91	39	0	242221056	52	5701
2026-01-04 15:14:24.38	18.70	13.73	-39.0	-40.0	22.8	0.00e+00	3	39	0	244318208	52	5740
2026-01-04 15:14:25.39	18.67	13.83	-38.4	-39.3	23.4	0.00e+00	71	39	0	246415360	50	5963
2026-01-04 15:14:26.40	18.65	13.93	-38.6	-39.6	23.2	0.00e+00	0	39	0	248512512	50	6108
2026-01-04 15:14:27.41	18.62	14.03	-38.5	-39.5	23.2	0.00e+00	0	39	0	249561088	50	6051
2026-01-04 15:14:28.42	18.59	14.14	-38.6	-39.6	23.1	0.00e+00	92	39	0	251658240	50	6123
2026-01-04 15:14:29.43	18.56	14.24	-38.9	-39.8	23.1	0.00e+00	66	40	0	253755392	50	6289
2026-01-04 15:14:30.44	18.53	14.34	-38.9	-39.8	22.8	0.00e+00	92	39	0	255852544	50	6301
2026-01-04 15:14:31.45	18.50	14.45	-38.9	-39.9	22.9	0.00e+00	0	39	0	257949696	50	6319
2026-01-04 15:14:32.45	18.47	14.55	-38.7	-39.7	23.1	0.00e+00	70	39	0	258998272	50	6174
2026-01-04 15:14:33.46	18.44	14.65	-38.3	-39.2	23.6	0.00e+00	71	39	0	261095424	50	5831
2026-01-04 15:14:34.47	18.41	14.76	-38.3	-39.2	23.4	0.00e+00	0	39	0	263192576	50	5895
2026-01-04 15:14:35.48	18.38	14.86	-38.2	-39.1	23.6	0.00e+00	15	39	0	265289728	50	5790
2026-01-04 15:14:36.48	18.34	14.97	-38.3	-39.2	23.6	0.00e+00	0	39	0	267386880	50	5852
2026-01-04 15:14:37.49	18.31	15.07	-38.2	-39.1	23.6	0.00e+00	92	39	0	268435456	50	5775
2026-01-04 15:14:38.50	18.28	15.18	-38.1	-39.0	23.7	0.00e+00	1	39	0	270532608	50	5700
2026-01-04 15:14:39.51	18.25	15.29	-38.2	-39.1	23.6	0.00e+00	6	39	0	272629760	50	5781
2026-01-04 15:14:40.52	18.22	15.40	-38.1	-39.0	23.8	0.00e+00	6	39	0	274726912	50	5713
2026-01-04 15:14:41.52	18.19	15.50	-38.1	-39.0	23.8	0.00e+00	0	39	0	276824064	50	5742
2026-01-04 15:14:42.53	18.15	15.61	-38.0	-38.9	23.8	0.00e+00	0	39	0	277872640	50	5665
2026-01-04 15:14:43.54	18.12	15.72	-37.9	-38.8	23.9	0.00e+00	16	39	0	279969792	50	5595
2026-01-04 15:14:44.55	18.09	15.83	-38.0	-38.9	23.8	0.00e+00	92	39	0	282066944	50	5687
2026-01-04 15:14:45.56	18.05	15.94	-38.1	-39.0	23.6	0.00e+00	17	39	0	284164096	50	5702
2026-01-04 15:14:46.57	18.02	16.05	-38.1	-39.0	23.8	0.00e+00	90	39	0	286261248	50	5739
2026-01-04 15:14:47.58	17.98	16.16	-38.0	-38.9	23.7	0.00e+00	5	39	0	287309824	50	5664
2026-01-04 15:14:48.59	17.95	16.27	-37.7	-38.6	24.1	0.00e+00	12	39	0	289406976	50	5477
2026-01-04 15:14:49.59	17.92	16.38	-37.8	-38.6	24.0	0.00e+00	7	39	0	291504128	48	6154
2026-01-04 15:14:50.60	17.88	16.50	-37.8	-38.6	24.0	0.00e+00	13	39	0	293601280	48	6173
2026-01-04 15:14:51.61	17.85	16.61	-37.8	-38.6	24.0	0.00e+00	92	40	0	295698432	48	6155
2026-01-04 15:14:52.62	17.81	16.72	-37.7	-38.6	24.1	0.00e+00	17	39	0	296747008	48	6157
2026-01-04 15:14:53.63	17.77	16.84	-37.8	-38.7	24.0	0.00e+00	92	39	0	298844160	48	6185
2026-01-04 15:14:54.64	17.74	16.95	-37.7	-38.5	24.2	0.00e+00	69	39	0	300941312	48	6076
2026-01-04 15:14:55.65	17.70	17.07	-37.8	-38.6	24.1	0.00e+00	3	39	0	303038464	48	6151
2026-01-04 15:14:56.66	17.66	17.18	-37.5	-38.3	24.3	0.00e+00	74	39	0	305135616	48	5961
2026-01-04 15:14:57.67	17.63	17.30	-37.6	-38.5	24.2	0.00e+00	0	39	0	306184192	48	6062
2026-01-04 15:14:58.68	17.59	17.41	-37.7	-38.5	24.0	0.00e+00	2	39	0	308281344	48	6089
2026-01-04 15:14:59.69	17.55	17.53	-37.6	-38.4	24.3	0.00e+00	5	39	0	310378496	48	6000
2026-01-04 15:15:00.70	17.51	17.65	-37.6	-38.4	24.2	0.00e+00	92	39	0	312475648	48	6018
2026-01-04 15:15:01.71	17.48	17.77	-37.5	-38.3	24.4	0.00e+00	4	39	0	314572800	48	5946
2026-01-04 15:15:02.72	17.44	17.89	-37.4	-38.2	24.4	0.00e+00	92	39	0	316669952	48	5882
2026-01-04 15:15:03.73	17.40	18.01	-37.4	-38.3	24.4	0.00e+00	0	39	0	317718528	48	5898
2026-01-04 15:15:04.74	17.36	18.13	-37.3	-38.2	24.4	0.00e+00	13	39	0	319815680	48	5838
2026-01-04 15:15:05.75	17.32	18.25	-37.4	-38.2	24.4	0.00e+00	17	39	0	321912832	48	5884
2026-01-04 15:15:06.76	17.28	18.37	-37.2	-38.1	24.5	0.00e+00	6	39	0	324009984	48	5771
2026-01-04 15:15:07.76	17.24	18.49	-37.4	-38.3	24.4	0.00e+00	92	39	0	326107136	48	5908
2026-01-04 15:15:08.77	17.20	18.61	-37.2	-38.1	24.5	0.00e+00	4	39	0	327155712	48	5776
2026-01-04 15:15:09.78	17.16	18.73	-37.4	-38.2	24.4	0.00e+00	92	39	0	329252864	48	5867
2026-01-04 15:15:10.79	17.11	18.86	-37.4	-38.3	24.4	0.00e+00	68	39	0	331350016	48	5915
2026-01-04 15:15:11.79	17.07	18.98	-37.5	-38.3	24.4	0.00e+00	18	39	0	333447168	48	5963
2026-01-04 15:15:12.80	17.03	19.10	-37.1	-38.0	24.7	0.00e+00	77	39	0	335544320	48	5696
2026-01-04 15:15:13.81	16.99	19.23	-37.3	-38.1	24.6	0.00e+00	12	39	0	336592896	48	5824
2026-01-04 15:15:14.82	16.94	19.36	-37.2	-38.1	24.5	0.00e+00	78	39	0	338690048	48	5774
2026-01-04 15:15:15.83	16.90	19.48	-37.3	-38.1	24.6	0.00e+00	17	40	0	340787200	48	5797
2026-01-04 15:15:16.84	16.86	19.61	-37.2	-38.0	24.6	0.00e+00	92	39	0	342884352	48	5713
2026-01-04 15:15:17.85	16.81	19.74	-37.1	-38.0	24.7	0.00e+00	0	39	0	344981504	48	5701
2026-01-04 15:15:18.86	16.77	19.87	-37.1	-38.0	24.6	0.00e+00	0	39	0	346030080	48	5699
2026-01-04 15:15:19.87	16.72	19.99	-37.3	-38.2	24.6	0.00e+00	0	39	0	348127232	48	5834
2026-01-04 15:15:20.88	16.68	20.12	-37.2	-38.0	24.7	0.00e+00	0	39	0	350224384	48	5737
2026-01-04 15:15:21.89	16.63	20.26	-37.0	-37.9	24.7	0.00e+00	87	40	0	352321536	48	5633
2026-01-04 15:15:22.90	16.59	20.39	-37.1	-37.9	24.8	0.00e+00	0	39	0	354418688	48	5643
2026-01-04 15:15:23.91	16.54	20.52	-37.1	-38.0	24.7	0.00e+00	92	39	0	355467264	48	5699
2026-01-04 15:15:24.92	16.49	20.65	-37.0	-37.8	24.8	0.00e+00	0	40	0	357564416	48	5603
2026-01-04 15:15:25.92	16.44	20.78	-37.2	-38.0	24.7	0.00e+00	83	39	0	359661568	48	5740
2026-01-04 15:15:26.93	16.40	20.92	-36.9	-37.7	24.8	0.00e+00	2	39	0	361758720	48	5547
2026-01-04 15:15:27.94	16.35	21.05	-37.0	-37.8	24.8	0.00e+00	1	40	0	363855872	48	5615
2026-01-04 15:15:28.95	16.30	21.19	-37.2	-38.0	24.3	0.00e+00	0	39	0	364904448	48	5744
2026-01-04 15:15:29.96	16.25	21.32	-37.3	-38.1	24.6	0.00e+00	0	39	0	367001600	48	5798
2026-01-04 15:15:30.97	16.20	21.46	-36.9	-37.6	24.9	0.00e+00	92	39	0	369098752	48	5500
2026-01-04 15:15:31.98	16.15	21.60	-36.9	-37.7	24.8	0.00e+00	0	40	0	371195904	48	5562
2026-01-04 15:15:32.99	16.10	21.73	-36.9	-37.7	24.9	0.00e+00	92	39	0	373293056	48	5535
2026-01-04 15:15:34.00	16.05	21.87	-36.8	-37.6	25.0	0.00e+00	62	40	0	374341632	48	5450
2026-01-04 15:15:35.01	15.99	22.01	-36.7	-37.5	25.1	0.00e+00	62	40	0	376438784	46	6067
2026-01-04 15:15:36.02	15.94	22.15	-36.9	-37.6	25.1	0.00e+00	69	39	0	378535936	46	6168
2026-01-04 15:15:37.03	15.89	22.29	-37.0	-37.8	24.9	0.00e+00	69	39	0	380633088	46	6259
2026-01-04 15:15:38.04	15.84	22.43	-36.9	-37.7	25.0	0.00e+00	90	40	0	382730240	46	6194
2026-01-04 15:15:39.05	15.78	22.58	-36.7	-37.5	25.1	0.00e+00	0	40	0	384827392	46	6068
2026-01-04 15:15:40.06	15.73	22.72	-36.9	-37.7	24.9	0.00e+00	92	40	0	385875968	46	6181
2026-01-04 15:15:41.07	15.67	22.86	-36.8	-37.6	25.1	0.00e+00	64	39	0	387973120	46	6116
2026-01-04 15:15:42.08	15.62	23.01	-36.8	-37.6	25.1	0.00e+00	91	39	0	390070272	46	6115
2026-01-04 15:15:43.09	15.56	23.15	-36.7	-37.5	25.2	0.00e+00	0	40	0	392167424	46	6067
2026-01-04 15:15:44.09	15.50	23.30	-36.8	-37.6	25.0	0.00e+00	0	40	0	394264576	46	6152
2026-01-04 15:15:45.10	15.45	23.45	-36.9	-37.7	25.0	0.00e+00	90	40	0	395313152	46	6208
2026-01-04 15:15:46.11	15.39	23.59	-36.8	-37.6	25.1	0.00e+00	0	40	0	397410304	46	6105
2026-01-04 15:15:47.12	15.33	23.74	-36.8	-37.6	25.1	0.00e+00	92	39	0	399507456	46	6126
2026-01-04 15:15:48.13	15.27	23.89	-36.9	-37.7	25.0	0.00e+00	0	39	0	401604608	46	6190
2026-01-04 15:15:49.14	15.21	24.04	-36.9	-37.8	24.9	0.00e+00	92	39	0	403701760	46	6246
2026-01-04 15:15:50.14	15.15	24.19	-36.9	-37.7	24.9	0.00e+00	20	40	0	404750336	46	6196
2026-01-04 15:15:51.15	15.09	24.35	-37.0	-37.8	24.8	0.00e+00	0	40	0	406847488	46	6294
2026-01-04 15:15:52.16	15.03	24.50	-37.1	-37.9	24.8	0.00e+00	0	40	0	408944640	46	6349
2026-01-04 15:15:53.17	14.97	24.65	-37.3	-38.1	24.6	0.00e+00	0	40	0	411041792	46	6484
2026-01-04 15:15:54.18	14.91	24.81	-37.3	-38.1	24.6	0.00e+00	91	39	0	413138944	46	6517
2026-01-04 15:15:55.19	14.84	24.96	-37.3	-38.2	24.6	0.00e+00	0	40	0	414187520	46	6550
2026-01-04 15:15:56.20	14.78	25.12	-37.4	-38.3	24.4	0.00e+00	92	40	0	416284672	46	6619
2026-01-04 15:15:57.21	14.71	25.28	-37.6	-38.5	24.4	0.00e+00	18	40	0	418381824	46	6804
2026-01-04 15:15:58.22	14.65	25.44	-37.6	-38.5	24.3	0.00e+00	60	40	0	420478976	46	6780
2026-01-04 15:15:59.23	14.58	25.59	-37.7	-38.6	24.2	0.00e+00	62	40	0	422576128	48	6122
2026-01-04 15:16:00.24	14.51	25.75	-37.9	-38.7	24.1	0.00e+00	0	40	0	423624704	48	6222
2026-01-04 15:16:01.25	14.45	25.92	-38.0	-38.8	23.9	0.00e+00	91	39	0	425721856	48	6307
2026-01-04 15:16:02.26	14.38	26.08	-38.1	-39.0	23.8	0.00e+00	0	40	0	427819008	48	6418
2026-01-04 15:16:03.27	14.31	26.24	-38.1	-39.0	23.9	0.00e+00	92	40	0	429916160	48	6396
2026-01-04 15:16:04.28	14.24	26.40	-38.2	-39.1	23.6	0.00e+00	0	39	0	432013312	48	6506
2026-01-04 15:16:05.28	14.17	26.57	-38.3	-39.2	23.6	0.00e+00	0	40	0	433061888	48	6601
2026-01-04 15:16:06.30	14.10	26.73	-38.4	-39.3	23.5	0.00e+00	0	40	0	435159040	48	6651
2026-01-04 15:16:07.30	14.03	26.90	-38.6	-39.5	23.4	0.00e+00	0	40	0	437256192	48	6794
2026-01-04 15:16:08.31	13.95	27.07	-38.6	-39.5	23.4	0.00e+00	0	40	0	439353344	48	6826
2026-01-04 15:16:09.32	13.88	27.24	-38.7	-39.7	23.3	0.00e+00	0	40	0	441450496	50	6192
2026-01-04 15:16:10.33	13.80	27.41	-38.9	-39.8	23.1	0.00e+00	92	40	0	442499072	50	6295
2026-01-04 15:16:11.34	13.73	27.58	-38.9	-39.8	23.1	0.00e+00	0	40	0	444596224	50	6292
2026-01-04 15:16:12.35	13.65	27.75	-39.1	-40.1	22.9	0.00e+00	25	40	0	446693376	50	6472
2026-01-04 15:16:13.35	13.58	27.92	-39.2	-40.2	22.8	0.00e+00	19	40	0	448790528	50	6570
2026-01-04 15:16:14.37	13.50	28.09	-39.4	-40.4	22.6	0.00e+00	0	40	0	450887680	50	6707
2026-01-04 15:16:15.38	13.42	28.27	-39.6	-40.7	22.5	0.00e+00	0	40	0	451936256	50	6932
2026-01-04 15:16:16.38	13.34	28.44	-39.8	-40.8	22.3	0.00e+00	20	40	0	454033408	52	6296
2026-01-04 15:16:17.39	13.26	28.62	-39.9	-41.0	22.1	0.00e+00	90	40	0	456130560	52	6407
2026-01-04 15:16:18.40	13.18	28.80	-40.3	-41.4	21.7	0.00e+00	2	40	0	458227712	52	6755
2026-01-04 15:16:19.41	13.09	28.98	-40.4	-41.5	21.6	0.00e+00	43	40	0	460324864	52	6830
2026-01-04 15:16:20.42	13.01	29.16	-40.3	-41.4	21.7	0.00e+00	62	40	0	461373440	52	6715
2026-01-04 15:16:21.43	12.93	29.34	-40.5	-41.6	21.7	0.00e+00	61	40	0	463470592	52	6887
2026-01-04 15:16:22.44	12.84	29.52	-40.6	-41.8	21.4	0.00e+00	64	40	0	465567744	52	7023
2026-01-04 15:16:23.45	12.75	29.70	-40.7	-41.8	21.4	0.00e+00	68	40	0	467664896	52	7076
2026-01-04 15:16:24.46	12.67	29.89	-40.8	-42.0	21.2	0.00e+00	92	40	0	469762048	54	6435
2026-01-04 15:16:25.47	12.58	30.07	-40.8	-42.0	21.2	0.00e+00	63	40	0	470810624	54	6419
2026-01-04 15:16:26.48	12.49	30.26	-40.9	-42.1	21.0	0.00e+00	90	40	0	472907776	54	6510
2026-01-04 15:16:27.49	12.40	30.45	-41.0	-42.2	21.0	0.00e+00	3	40	0	475004928	54	6552
2026-01-04 15:16:28.50	12.30	30.64	-41.1	-42.3	20.7	0.00e+00	68	40	0	477102080	54	6643
2026-01-04 15:16:29.51	12.21	30.83	-41.0	-42.2	20.9	0.00e+00	1	40	0	479199232	54	6544
2026-01-04 15:16:30.52	12.12	31.02	-41.0	-42.2	20.9	0.00e+00	2	40	0	481296384	54	6609
2026-01-04 15:16:31.53	12.02	31.21	-41.0	-42.2	20.9	0.00e+00	0	40	0	482344960	54	6603
2026-01-04 15:16:32.54	11.92	31.40	-41.1	-42.4	20.8	0.00e+00	2	40	0	484442112	54	6716
2026-01-04 15:16:33.55	11.83	31.60	-41.3	-42.5	20.7	0.00e+00	92	40	0	486539264	54	6837
2026-01-04 15:16:34.56	11.73	31.80	-41.4	-42.7	20.4	0.00e+00	14	40	0	488636416	54	6999
2026-01-04 15:16:35.57	11.63	31.99	-41.7	-43.0	20.2	0.00e+00	13	40	0	490733568	54	7236
2026-01-04 15:16:36.58	11.53	32.19	-41.9	-43.2	20.1	0.00e+00	5	40	0	491782144	56	6607
2026-01-04 15:16:37.59	11.42	32.39	-42.0	-43.4	19.8	0.00e+00	15	40	0	493879296	56	6737
2026-01-04 15:16:38.60	11.32	32.59	-42.1	-43.6	19.8	0.00e+00	2	40	0	495976448	56	6859
2026-01-04 15:16:39.61	11.21	32.79	-42.2	-43.7	19.7	0.00e+00	14	40	0	498073600	56	6955
2026-01-04 15:16:40.62	11.11	33.00	-42.2	-43.7	19.7	0.00e+00	91	40	0	500170752	56	6933
2026-01-04 15:16:41.63	11.00	33.20	-42.3	-43.7	19.7	0.00e+00	0	40	0	501219328	56	7000
2026-01-04 15:16:42.64	10.89	33.41	-42.3	-43.8	19.6	0.00e+00	91	40	0	503316480	56	7041
2026-01-04 15:16:43.65	10.78	33.62	-42.6	-44.1	19.3	0.00e+00	68	40	0	505413632	56	7311
2026-01-04 15:16:44.66	10.66	33.82	-42.3	-43.8	19.6	0.00e+00	64	40	0	507510784	56	7038
2026-01-04 15:16:45.67	10.55	34.03	-42.3	-43.8	19.6	0.00e+00	66	40	0	509607936	56	7061
2026-01-04 15:16:46.68	10.43	34.24	-42.2	-43.6	19.6	0.00e+00	5	40	0	510656512	56	6925
2026-01-04 15:16:47.69	10.32	34.46	-42.1	-43.5	19.8	0.00e+00	87	40	0	512753664	56	6839
2026-01-04 15:16:48.70	10.20	34.67	-41.8	-43.1	20.2	0.00e+00	0	40	0	514850816	56	6520
2026-01-04 15:16:49.70	10.08	34.88	-41.9	-43.2	20.0	0.00e+00	90	39	0	516947968	56	6599
2026-01-04 15:16:50.71	9.96	35.10	-41.6	-42.9	20.6	0.00e+00	0	40	0	519045120	56	6351
2026-01-04 15:16:51.72	9.83	35.32	-41.4	-42.7	20.6	0.00e+00	7	40	0	520093696	56	6226
2026-01-04 15:16:52.73	9.71	35.54	-41.5	-42.8	20.6	0.00e+00	0	40	0	522190848	56	6285
2026-01-04 15:16:53.74	9.58	35.76	-41.5	-42.8	20.5	0.00e+00	0	40	0	524288000	56	6288
2026-01-04 15:16:54.75	9.45	35.98	-41.7	-43.0	20.3	0.00e+00	0	40	0	526385152	56	6464
2026-01-04 15:16:55.76	9.32	36.20	-41.6	-43.0	20.4	0.00e+00	1	40	0	528482304	56	6416
2026-01-04 15:16:56.77	9.19	36.43	-41.4	-42.7	20.6	0.00e+00	91	40	0	529530880	56	6197
2026-01-04 15:16:57.78	9.05	36.65	-41.5	-42.8	20.5	0.00e+00	20	40	0	531628032	56	6272
2026-01-04 15:16:58.79	8.91	36.88	-41.7	-43.1	20.2	0.00e+00	91	40	0	533725184	56	6471
2026-01-04 15:16:59.80	8.78	37.11	-42.1	-43.5	19.8	0.00e+00	20	40	0	535822336	56	6800
2026-01-04 15:17:00.81	8.63	37.34	-42.3	-43.8	19.6	0.00e+00	21	40	0	537919488	56	7009
2026-01-04 15:17:01.82	8.49	37.57	-42.2	-43.7	19.7	0.00e+00	82	40	0	538968064	56	6959
2026-01-04 15:17:02.83	8.35	37.80	-42.1	-43.6	19.6	0.00e+00	59	40	0	541065216	56	6869
2026-01-04 15:17:03.84	8.20	38.04	-42.0	-43.5	19.7	0.00e+00	92	40	0	543162368	56	6776
2026-01-04 15:17:04.84	8.05	38.27	-42.3	-43.8	19.6	0.00e+00	65	40	0	545259520	56	7052
2026-01-04 15:17:05.85	7.90	38.51	-42.3	-43.7	19.5	0.00e+00	92	40	0	547356672	56	6997
2026-01-04 15:17:06.86	7.75	38.75	-42.3	-43.7	19.7	0.00e+00	0	40	0	549453824	56	7001
2026-01-04 15:17:07.87	7.59	38.99	-42.4	-43.8	19.5	0.00e+00	66	40	0	550502400	56	7079
2026-01-04 15:17:08.88	7.43	39.23	-42.3	-43.7	19.7	0.00e+00	64	40	0	552599552	56	7000
2026-01-04 15:17:09.89	7.27	39.47	-42.2	-43.6	19.8	0.00e+00	0	40	0	554696704	56	6896
2026-01-04 15:17:10.90	7.11	39.72	-41.8	-43.2	20.2	0.00e+00	91	40	0	556793856	56	6581
2026-01-04 15:17:11.91	6.94	39.96	-41.8	-43.2	20.2	0.00e+00	0	40	0	558891008	56	6580
2026-01-04 15:17:12.92	6.77	40.21	-41.7	-43.0	20.4	0.00e+00	92	40	0	559939584	56	6454
2026-01-04 15:17:13.93	6.60	40.46	-41.7	-43.0	20.4	0.00e+00	0	40	0	562036736	56	6454
2026-01-04 15:17:14.94	6.43	40.71	-41.6	-42.9	20.5	0.00e+00	32	40	0	564133888	56	6327
2026-01-04 15:17:15.95	6.25	40.96	-41.1	-42.3	21.0	0.00e+00	0	40	0	566231040	56	5964
2026-01-04 15:17:16.96	6.07	41.21	-41.0	-42.2	21.1	0.00e+00	0	40	0	568328192	56	5879
2026-01-04 15:17:17.96	5.89	41.46	-40.9	-42.1	21.1	0.00e+00	23	40	0	569376768	56	5793
2026-01-04 15:17:18.97	5.71	41.72	-40.9	-42.1	21.2	0.00e+00	0	40	0	571473920	56	5802
2026-01-04 15:17:19.98	5.52	41.98	-40.8	-42.0	21.3	0.00e+00	92	40	0	573571072	56	5710
2026-01-04 15:17:20.99	5.33	42.24	-40.5	-41.6	21.5	0.00e+00	59	40	0	575668224	54	6145
2026-01-04 15:17:22.00	5.13	42.50	-40.2	-41.3	21.8	0.00e+00	92	40	0	577765376	54	5941
2026-01-04 15:17:23.01	4.94	42.76	-40.1	-41.2	22.0	0.00e+00	0	40	0	578813952	54	5843
2026-01-04 15:17:24.02	4.73	43.02	-40.2	-41.3	21.8	0.00e+00	22	40	0	580911104	54	5951
2026-01-04 15:17:25.03	4.53	43.29	-40.4	-41.5	21.6	0.00e+00	9	40	0	583008256	54	6087
2026-01-04 15:17:26.04	4.32	43.55	-40.2	-41.3	21.9	0.00e+00	0	40	0	585105408	54	5921
2026-01-04 15:17:27.05	4.11	43.82	-39.8	-40.9	22.3	0.00e+00	92	40	0	587202560	54	5644
2026-01-04 15:17:28.06	3.90	44.09	-39.5	-40.5	22.6	0.00e+00	0	40	0	588251136	52	6058
2026-01-04 15:17:29.06	3.68	44.36	-39.3	-40.3	22.8	0.00e+00	92	40	0	590348288	52	5914
2026-01-04 15:17:30.07	3.46	44.63	-39.4	-40.4	22.7	0.00e+00	0	40	0	592445440	52	6006
2026-01-04 15:17:31.08	3.23	44.90	-39.5	-40.5	22.8	0.00e+00	22	40	0	594542592	52	6071
2026-01-04 15:17:32.09	3.00	45.17	-39.1	-40.1	22.9	0.00e+00	0	40	0	596639744	52	5805
2026-01-04 15:17:33.10	2.76	45.45	-39.0	-40.0	23.1	0.00e+00	0	40	0	597688320	52	5700
2026-01-04 15:17:34.11	2.53	45.73	-38.8	-39.8	23.3	0.00e+00	90	40	0	599785472	52	5568
2026-01-04 15:17:35.12	2.28	46.01	-39.0	-40.0	23.0	0.00e+00	0	40	0	601882624	52	5711
2026-01-04 15:17:36.13	2.04	46.29	-38.9	-39.9	23.1	0.00e+00	92	40	0	603979776	52	5644
2026-01-04 15:17:37.14	1.78	46.57	-38.7	-39.7	23.4	0.00e+00	0	40	0	606076928	50	6176
2026-01-04 15:17:38.15	1.53	46.85	-38.5	-39.5	23.5	0.00e+00	1	40	0	607125504	50	6043
2026-01-04 15:17:39.16	1.26	47.13	-38.6	-39.5	23.4	0.00e+00	0	40	0	609222656	50	6084
2026-01-04 15:17:40.17	1.00	47.42	-38.8	-39.7	23.2	0.00e+00	17	40	0	611319808	50	6196
2026-01-04 15:17:41.18	0.73	47.70	-39.0	-39.9	23.0	0.00e+00	0	40	0	613416960	50	6368
2026-01-04 15:17:42.18	0.45	47.99	-39.1	-40.0	22.9	0.00e+00	17	40	0	615514112	50	6460
2026-01-04 15:17:43.19	0.17	48.28	-39.2	-40.2	23.0	0.00e+00	92	40	0	617611264	50	6551
2026-01-04 15:17:44.20	359.88	48.57	-39.1	-40.1	23.0	0.00e+00	24	40	0	618659840	50	6502
2026-01-04 15:17:45.21	359.59	48.86	-39.2	-40.1	22.9	0.00e+00	92	40	0	620756992	50	6524
2026-01-04 15:17:46.22	359.29	49.15	-39.1	-40.1	22.8	0.00e+00	0	40	0	622854144	50	6483
2026-01-04 15:17:47.23	358.99	49.44	-39.2	-40.1	23.0	0.00e+00	0	40	0	624951296	50	6529
2026-01-04 15:17:48.24	358.68	49.74	-39.2	-40.2	23.0	0.00e+00	58	40	0	627048448	50	6567
2026-01-04 15:17:49.24	358.37	50.03	-38.5	-39.4	23.5	0.00e+00	2	40	0	628097024	50	6022
2026-01-04 15:17:50.25	358.04	50.32	-38.3	-39.2	23.8	0.00e+00	90	40	0	630194176	50	5843
2026-01-04 15:17:51.26	357.72	50.62	-38.2	-39.1	23.8	0.00e+00	2	40	0	632291328	50	5798
2026-01-04 15:17:52.27	357.38	50.92	-37.8	-38.7	24.3	0.00e+00	92	40	0	634388480	50	5531
2026-01-04 15:17:53.28	357.04	51.22	-37.3	-38.2	24.6	0.00e+00	0	40	0	635437056	48	5841
2026-01-04 15:17:54.28	356.69	51.51	-37.2	-38.0	24.6	0.00e+00	0	40	0	637534208	48	5744
2026-01-04 15:17:55.29	356.34	51.81	-37.1	-37.8	25.0	0.00e+00	0	40	0	639631360	48	5623
2026-01-04 15:17:56.30	355.97	52.11	-36.8	-37.6	25.1	0.00e+00	0	40	0	641728512	48	5444
2026-01-04 15:17:57.31	355.60	52.42	-36.8	-37.6	25.1	0.00e+00	76	40	0	643825664	48	5455
2026-01-04 15:17:58.32	355.22	52.72	-37.1	-37.9	24.9	0.00e+00	0	40	0	645922816	48	5684
2026-01-04 15:17:59.33	354.84	53.02	-37.2	-38.1	24.7	0.00e+00	92	40	0	646971392	48	5770
2026-01-04 15:18:00.34	354.44	53.32	-37.1	-37.9	24.9	0.00e+00	0	40	0	649068544	48	5679
2026-01-04 15:18:01.35	354.04	53.63	-37.1	-37.9	24.8	0.00e+00	92	40	0	651165696	48	5638
2026-01-04 15:18:02.36	353.63	53.93	-37.3	-38.1	24.6	0.00e+00	0	40	0	653262848	48	5796
2026-01-04 15:18:03.37	353.20	54.23	-37.6	-38.4	24.4	0.00e+00	0	40	0	655360000	48	6026
2026-01-04 15:18:04.38	352.77	54.54	-37.7	-38.5	24.4	0.00e+00	0	40	0	656408576	48	6080
2026-01-04 15:18:05.39	352.34	54.84	-37.8	-38.7	24.2	0.00e+00	65	40	0	658505728	48	6207
2026-01-04 15:18:06.40	351.89	55.15	-38.3	-39.2	23.7	0.00e+00	92	40	0	660602880	48	6584
2026-01-04 15:18:07.41	351.43	55.45	-39.0	-39.9	23.2	0.00e+00	65	40	0	662700032	50	6375
2026-01-04 15:18:08.42	350.96	55.76	-39.3	-40.3	22.7	0.00e+00	92	40	0	664797184	50	6620
2026-01-04 15:18:09.42	350.48	56.06	-40.2	-41.3	21.8	0.00e+00	15	40	0	665845760	52	6650
2026-01-04 15:18:10.43	349.99	56.36	-40.9	-42.1	20.9	0.00e+00	0	40	0	667942912	54	6488
2026-01-04 15:18:11.44	349.49	56.66	-42.2	-43.7	19.7	0.00e+00	0	40	0	670040064	56	6968
2026-01-04 15:18:12.45	348.98	56.97	-42.8	-44.4	19.1	0.00e+00	66	40	0	672137216	56	7510
2026-01-04 15:18:13.46	348.46	57.27	-43.1	-44.8	18.3	0.00e+00	92	40	0	674234368	58	7067
2026-01-04 15:18:14.47	347.92	57.57	-43.2	-45.0	18.6	0.00e+00	3	40	0	675282944	58	7194
2026-01-04 15:18:15.48	347.38	57.87	-42.6	-44.2	19.2	0.00e+00	91	40	0	677380096	58	6557
2026-01-04 15:18:16.49	346.82	58.17	-41.9	-43.2	19.9	0.00e+00	1	40	0	679477248	58	5894
2026-01-04 15:18:17.50	346.24	58.47	-41.3	-42.5	20.9	0.00e+00	0	40	0	681574400	56	6092
2026-01-04 15:18:18.51	345.66	58.76	-40.7	-41.8	21.3	0.00e+00	6	40	0	683671552	56	5621
2026-01-04 15:18:19.52	345.06	59.06	-40.3	-41.4	21.8	0.00e+00	5	40	0	684720128	54	5992
2026-01-04 15:18:20.53	344.45	59.35	-39.8	-40.9	22.1	0.00e+00	0	40	0	686817280	54	5659
2026-01-04 15:18:21.54	343.82	59.65	-40.0	-41.1	22.0	0.00e+00	21	40	0	688914432	54	5799
2026-01-04 15:18:22.55	343.18	59.94	-40.0	-41.0	22.0	0.00e+00	92	40	0	691011584	54	5760
2026-01-04 15:18:23.56	342.53	60.23	-39.4	-40.4	22.7	0.00e+00	0	40	0	693108736	52	6016
2026-01-04 15:18:24.57	341.85	60.51	-38.6	-39.5	23.5	0.00e+00	22	40	0	694157312	52	5413
2026-01-04 15:18:25.58	341.17	60.80	-38.1	-39.0	24.0	0.00e+00	0	40	0	696254464	50	5696
2026-01-04 15:18:26.59	340.47	61.08	-37.3	-38.1	24.5	0.00e+00	23	40	0	698351616	48	5799
2026-01-04 15:18:27.60	339.75	61.36	-36.7	-37.4	25.1	0.00e+00	0	40	0	700448768	46	6028
2026-01-04 15:18:28.60	339.02	61.63	-36.4	-37.1	25.5	0.00e+00	22	40	0	702545920	46	5802
2026-01-04 15:18:29.61	338.27	61.90	-36.3	-37.1	25.3	0.00e+00	92	40	0	703594496	46	5805
2026-01-04 15:18:30.62	337.51	62.17	-36.4	-37.1	25.5	0.00e+00	21	40	0	705691648	46	5807
2026-01-04 15:18:31.63	336.72	62.44	-35.8	-36.6	25.9	0.00e+00	92	40	0	707788800	46	5448
2026-01-04 15:18:32.64	335.92	62.70	-36.1	-36.8	25.6	0.00e+00	6	40	0	709885952	44	6316
2026-01-04 15:18:33.65	335.10	62.96	-36.3	-37.0	25.4	0.00e+00	0	40	0	711983104	44	6463
2026-01-04 15:18:34.66	334.27	63.22	-36.6	-37.4	25.1	0.00e+00	0	40	0	714080256	44	6744
2026-01-04 15:18:35.67	333.41	63.47	-36.8	-37.6	25.1	0.00e+00	73	40	0	715128832	46	6126
2026-01-04 15:18:36.68	332.54	63.71	-36.8	-37.6	25.0	0.00e+00	90	40	0	717225984	46	6106
2026-01-04 15:18:37.69	331.65	63.96	-36.9	-37.7	25.0	0.00e+00	4	40	0	719323136	46	6236
2026-01-04 15:18:38.70	330.73	64.19	-36.8	-37.6	25.1	0.00e+00	92	40	0	721420288	46	6109
2026-01-04 15:18:39.71	329.81	64.42	-36.9	-37.7	25.0	0.00e+00	5	40	0	723517440	46	6218
2026-01-04 15:18:40.72	328.86	64.65	-37.1	-37.9	25.0	0.00e+00	3	40	0	724566016	46	6327
2026-01-04 15:18:41.72	327.90	64.87	-37.3	-38.1	24.7	0.00e+00	3	40	0	726663168	46	6538
2026-01-04 15:18:42.73	326.91	65.08	-37.3	-38.2	24.7	0.00e+00	6	40	0	728760320	46	6544
2026-01-04 15:18:43.74	325.91	65.29	-37.6	-38.4	24.4	0.00e+00	0	40	0	730857472	46	6733
2026-01-04 15:18:44.75	324.89	65.49	-37.6	-38.4	24.4	0.00e+00	24	40	0	732954624	46	6707
2026-01-04 15:18:45.76	323.84	65.68	-38.0	-38.9	24.1	0.00e+00	92	40	0	734003200	48	6324
2026-01-04 15:18:46.77	322.78	65.87	-38.8	-39.7	23.3	0.00e+00	22	40	0	736100352	50	6207
2026-01-04 15:18:47.78	321.71	66.05	-39.4	-40.4	22.7	0.00e+00	92	40	0	738197504	50	6737
2026-01-04 15:18:48.79	320.61	66.23	-40.1	-41.2	21.7	0.00e+00	58	40	0	740294656	52	6565
2026-01-04 15:18:49.80	319.50	66.39	-39.9	-40.9	22.4	0.00e+00	59	40	0	742391808	52	6359
2026-01-04 15:18:50.81	318.37	66.55	-39.4	-40.4	22.7	0.00e+00	0	40	0	743440384	52	5969
2026-01-04 15:18:51.82	317.22	66.70	-39.5	-40.5	22.7	0.00e+00	23	40	0	745537536	52	6079
2026-01-04 15:18:52.83	316.06	66.84	-39.6	-40.6	22.4	0.00e+00	92	40	0	747634688	52	6147
2026-01-04 15:18:53.84	314.88	66.97	-39.9	-40.9	22.1	0.00e+00	58	40	0	749731840	52	6378
2026-01-04 15:18:54.85	313.69	67.09	-40.0	-41.1	22.1	0.00e+00	92	40	0	751828992	52	6485
2026-01-04 15:18:55.86	312.48	67.21	-40.3	-41.4	21.9	0.00e+00	58	40	0	752877568	52	6719
2026-01-04 15:18:56.87	311.26	67.31	-40.4	-41.5	21.7	0.00e+00	0	40	0	754974720	52	6827
2026-01-04 15:18:57.87	310.05	67.41	-40.5	-41.6	21.7	0.00e+00	0	40	0	757071872	52	6897
2026-01-04 15:18:58.88	308.80	67.49	-40.1	-41.2	22.1	0.00e+00	58	40	0	759169024	52	6567
2026-01-04 15:18:59.89	307.55	67.57	-40.0	-41.1	22.1	0.00e+00	92	40	0	761266176	52	6498
2026-01-04 15:19:00.90	306.29	67.64	-39.9	-40.9	22.3	0.00e+00	2	40	0	762314752	52	6357
2026-01-04 15:19:01.91	305.03	67.69	-39.9	-41.0	22.2	0.00e+00	92	40	0	764411904	52	6405
2026-01-04 15:19:02.92	303.75	67.74	-40.1	-41.2	22.1	0.00e+00	0	40	0	766509056	52	6573
2026-01-04 15:19:03.93	302.47	67.77	-40.3	-41.4	21.8	0.00e+00	0	40	0	768606208	52	6761
2026-01-04 15:19:04.94	301.19	67.80	-40.3	-41.4	21.9	0.00e+00	16	40	0	770703360	52	6708
2026-01-04 15:19:05.95	299.90	67.82	-40.1	-41.2	22.0	0.00e+00	17	40	0	771751936	52	6578
2026-01-04 15:19:06.96	298.62	67.82	-40.3	-41.4	22.2	0.00e+00	17	40	0	773849088	52	6728
2026-01-04 15:19:07.97	297.33	67.82	-39.9	-41.0	22.2	0.00e+00	17	40	0	775946240	52	6419
2026-01-04 15:19:08.98	296.04	67.80	-40.4	-41.5	21.8	0.00e+00	92	40	0	778043392	52	6787
2026-01-04 15:19:09.99	294.76	67.78	-40.8	-41.9	21.4	0.00e+00	63	40	0	780140544	54	6387
2026-01-04 15:19:11.00	293.48	67.74	-41.2	-42.4	20.9	0.00e+00	89	40	0	782237696	54	6748
2026-01-04 15:19:12.01	292.21	67.69	-41.1	-42.3	21.0	0.00e+00	65	40	0	783286272	54	6686
2026-01-04 15:19:13.02	290.94	67.64	-41.0	-42.2	21.2	0.00e+00	23	40	0	785383424	54	6546
2026-01-04 15:19:14.03	289.68	67.57	-40.4	-41.5	22.0	0.00e+00	78	40	0	787480576	54	6077
2026-01-04 15:19:15.04	288.43	67.49	-39.7	-40.7	22.6	0.00e+00	0	40	0	789577728	52	6233
2026-01-04 15:19:16.05	287.19	67.41	-39.7	-40.8	22.5	0.00e+00	92	40	0	791674880	52	6263
2026-01-04 15:19:17.06	285.96	67.31	-39.8	-40.8	22.4	0.00e+00	60	40	0	792723456	52	6287
2026-01-04 15:19:18.07	284.74	67.21	-39.8	-40.8	22.4	0.00e+00	92	40	0	794820608	52	6313
2026-01-04 15:19:19.07	283.54	67.10	-39.7	-40.7	22.4	0.00e+00	59	40	0	796917760	52	6202
2026-01-04 15:19:20.08	282.35	66.97	-39.4	-40.3	22.8	0.00e+00	0	40	0	799014912	52	5946
2026-01-04 15:19:21.09	281.17	66.84	-39.4	-40.3	22.9	0.00e+00	0	40	0	801112064	52	5959
2026-01-04 15:19:22.10	280.01	66.70	-39.3	-40.3	22.9	0.00e+00	0	40	0	802160640	52	5921
2026-01-04 15:19:23.11	278.86	66.55	-39.6	-40.6	22.6	0.00e+00	92	40	0	804257792	52	6131
2026-01-04 15:19:24.12	277.73	66.39	-39.7	-40.7	22.6	0.00e+00	2	40	0	806354944	52	6213
2026-01-04 15:19:25.13	276.61	66.23	-39.0	-40.0	23.2	0.00e+00	90	40	0	808452096	52	5702
2026-01-04 15:19:26.14	275.52	66.06	-39.2	-40.1	23.2	0.00e+00	24	40	0	810549248	52	5817
2026-01-04 15:19:27.15	274.44	65.87	-38.8	-39.7	23.6	0.00e+00	39	40	0	811597824	52	5525
2026-01-04 15:19:28.16	273.37	65.69	-38.1	-39.0	24.2	0.00e+00	18	40	0	813694976	50	5728
2026-01-04 15:19:29.17	272.33	65.49	-37.4	-38.2	24.5	0.00e+00	22	40	0	815792128	48	5876
2026-01-04 15:19:30.18	271.31	65.29	-37.8	-38.7	24.3	0.00e+00	0	40	0	817889280	48	6176
2026-01-04 15:19:31.19	270.30	65.08	-37.6	-38.4	24.6	0.00e+00	0	40	0	819986432	48	5992
2026-01-04 15:19:32.19	269.32	64.87	-37.3	-38.1	24.8	0.00e+00	92	40	0	821035008	48	5796
2026-01-04 15:19:33.21	268.35	64.65	-36.7	-37.5	25.3	0.00e+00	60	40	0	823132160	48	5378
2026-01-04 15:19:34.21	267.41	64.42	-36.9	-37.7	25.4	0.00e+00	92	40	0	825229312	46	6183
2026-01-04 15:19:35.22	266.48	64.19	-36.6	-37.3	25.5	0.00e+00	16	40	0	827326464	46	5943
2026-01-04 15:19:36.23	265.56	63.96	-36.6	-37.4	25.4	0.00e+00	0	40	0	829423616	46	5978
2026-01-04 15:19:37.24	264.67	63.72	-36.8	-37.6	25.2	0.00e+00	0	40	0	830472192	46	6116
2026-01-04 15:19:38.25	263.80	63.47	-36.9	-37.7	25.3	0.00e+00	0	40	0	832569344	46	6193
2026-01-04 15:19:39.26	262.94	63.22	-36.8	-37.5	25.3	0.00e+00	92	40	0	834666496	46	6081
2026-01-04 15:19:40.27	262.10	62.96	-37.2	-38.0	24.8	0.00e+00	65	40	0	836763648	46	6419
2026-01-04 15:19:41.27	261.29	62.71	-38.0	-38.9	24.0	0.00e+00	90	40	0	838860800	48	6356
2026-01-04 15:19:42.28	260.49	62.44	-38.9	-39.9	23.2	0.00e+00	64	40	0	839909376	48	7117
2026-01-04 15:19:43.29	259.70	62.18	-39.3	-40.3	22.8	0.00e+00	3	40	0	842006528	50	6627
2026-01-04 15:19:44.30	258.93	61.91	-39.7	-40.7	22.6	0.00e+00	0	40	0	844103680	50	6965
2026-01-04 15:19:45.30	258.19	61.63	-39.8	-40.8	22.4	0.00e+00	2	40	0	846200832	52	6305
2026-01-04 15:19:46.31	257.45	61.36	-39.7	-40.6	22.6	0.00e+00	22	40	0	848297984	52	6168
2026-01-04 15:19:47.32	256.73	61.08	-39.4	-40.3	22.6	0.00e+00	0	40	0	849346560	52	5951
2026-01-04 15:19:48.33	256.03	60.80	-39.8	-40.8	22.5	0.00e+00	92	40	0	851443712	52	6248
2026-01-04 15:19:49.34	255.34	60.51	-40.7	-41.8	20.9	0.00e+00	0	40	0	853540864	52	7080
2026-01-04 15:19:50.35	254.67	60.22	-41.4	-42.6	20.6	0.00e+00	92	40	0	855638016	54	6906
2026-01-04 15:19:51.36	254.02	59.94	-41.9	-43.2	20.2	0.00e+00	19	40	0	857735168	56	6595
2026-01-04 15:19:52.36	253.38	59.65	-42.2	-43.5	19.9	0.00e+00	22	40	0	858783744	56	6847
2026-01-04 15:19:53.37	252.75	59.35	-42.2	-43.6	19.9	0.00e+00	0	40	0	860880896	56	6873
2026-01-04 15:19:54.38	252.14	59.06	-42.0	-43.3	20.3	0.00e+00	0	40	0	862978048	56	6690
2026-01-04 15:19:55.39	251.54	58.76	-41.4	-42.6	20.9	0.00e+00	92	40	0	865075200	56	6127
2026-01-04 15:19:56.40	250.95	58.47	-41.4	-42.7	20.9	0.00e+00	19	40	0	867172352	56	6212
2026-01-04 15:19:57.41	250.38	58.17	-41.3	-42.5	21.1	0.00e+00	92	40	0	868220928	56	6044
2026-01-04 15:19:58.42	249.82	57.87	-40.7	-41.8	21.5	0.00e+00	21	40	0	870318080	54	6309
2026-01-04 15:19:59.43	249.27	57.57	-40.6	-41.8	21.7	0.00e+00	18	40	0	872415232	54	6247
2026-01-04 15:20:00.44	248.73	57.26	-40.1	-41.1	22.3	0.00e+00	59	40	0	874512384	54	5809
2026-01-04 15:20:01.45	248.21	56.96	-39.5	-40.5	22.9	0.00e+00	63	40	0	876609536	52	6056
2026-01-04 15:20:02.46	247.70	56.66	-39.2	-40.1	23.0	0.00e+00	90	40	0	878706688	52	5824
2026-01-04 15:20:03.47	247.19	56.35	-38.6	-39.5	23.5	0.00e+00	0	40	0	879755264	52	5425
2026-01-04 15:20:04.48	246.70	56.05	-38.7	-39.6	23.5	0.00e+00	90	40	0	881852416	50	6107
2026-01-04 15:20:05.49	246.22	55.75	-38.7	-39.6	23.6	0.00e+00	1	40	0	883949568	50	6164
2026-01-04 15:20:06.50	245.75	55.44	-38.5	-39.4	23.6	0.00e+00	5	40	0	886046720	50	6015
2026-01-04 15:20:07.50	245.30	55.14	-38.3	-39.2	23.9	0.00e+00	4	40	0	888143872	50	5831
2026-01-04 15:20:08.52	244.84	54.83	-38.2	-39.1	23.8	0.00e+00	1	40	0	889192448	50	5806
2026-01-04 15:20:09.53	244.40	54.53	-38.2	-39.1	23.8	0.00e+00	74	40	0	891289600	50	5798
2026-01-04 15:20:10.54	243.97	54.22	-38.2	-39.1	23.9	0.00e+00	5	40	0	893386752	50	5786
2026-01-04 15:20:11.54	243.56	53.92	-38.1	-39.0	23.9	0.00e+00	92	40	0	895483904	50	5731
2026-01-04 15:20:12.55	243.14	53.61	-38.3	-39.2	23.7	0.00e+00	6	40	0	897581056	50	5845
2026-01-04 15:20:13.56	242.74	53.31	-38.5	-39.4	23.5	0.00e+00	92	40	0	898629632	50	6022
2026-01-04 15:20:14.58	242.34	53.00	-38.6	-39.5	23.5	0.00e+00	18	40	0	900726784	50	6063
2026-01-04 15:20:15.58	241.96	52.70	-38.8	-39.7	23.4	0.00e+00	20	40	0	902823936	50	6210
2026-01-04 15:20:16.60	241.57	52.40	-38.9	-39.9	23.1	0.00e+00	1	40	0	904921088	50	6350
2026-01-04 15:20:17.61	241.20	52.09	-39.1	-40.0	23.1	0.00e+00	6	40	0	907018240	50	6461
2026-01-04 15:20:18.62	240.84	51.79	-39.1	-40.1	22.9	0.00e+00	90	40	0	908066816	50	6505
2026-01-04 15:20:19.62	240.48	51.50	-38.7	-39.6	23.4	0.00e+00	67	40	0	910163968	50	6145
2026-01-04 15:20:20.63	240.13	51.20	-39.0	-40.0	23.0	0.00e+00	91	40	0	912261120	50	6402
2026-01-04 15:20:21.64	239.79	50.90	-39.1	-40.0	22.9	0.00e+00	66	40	0	914358272	50	6454
2026-01-04 15:20:22.65	239.45	50.60	-39.4	-40.4	22.7	0.00e+00	3	40	0	916455424	50	6728
2026-01-04 15:20:23.66	239.12	50.30	-39.8	-40.8	22.3	0.00e+00	0	40	0	917504000	50	7067
2026-01-04 15:20:24.67	238.80	50.00	-40.1	-41.1	22.1	0.00e+00	64	40	0	919601152	52	6530
2026-01-04 15:20:25.68	238.48	49.71	-39.8	-40.8	22.3	0.00e+00	91	40	0	921698304	52	6313
2026-01-04 15:20:26.69	238.17	49.41	-39.7	-40.7	22.3	0.00e+00	6	40	0	923795456	52	6236
2026-01-04 15:20:27.70	237.87	49.12	-39.6	-40.6	22.4	0.00e+00	92	40	0	925892608	52	6134
2026-01-04 15:20:28.71	237.57	48.83	-39.8	-40.8	22.2	0.00e+00	0	40	0	926941184	52	6278
2026-01-04 15:20:29.71	237.28	48.54	-39.9	-40.9	22.1	0.00e+00	0	40	0	929038336	52	6372
2026-01-04 15:20:30.72	236.99	48.25	-40.1	-41.1	22.0	0.00e+00	0	40	0	931135488	52	6532
2026-01-04 15:20:31.73	236.71	47.96	-40.0	-41.1	22.0	0.00e+00	21	40	0	933232640	52	6505
2026-01-04 15:20:32.75	236.43	47.67	-39.8	-40.9	22.2	0.00e+00	0	40	0	935329792	52	6341
2026-01-04 15:20:33.75	236.16	47.38	-39.7	-40.7	22.4	0.00e+00	2	40	0	936378368	52	6223
2026-01-04 15:20:34.76	235.89	47.10	-39.7	-40.7	22.4	0.00e+00	90	40	0	938475520	52	6243
2026-01-04 15:20:35.77	235.63	46.81	-39.7	-40.7	22.3	0.00e+00	15	40	0	940572672	52	6227
2026-01-04 15:20:36.78	235.38	46.53	-39.7	-40.8	22.3	0.00e+00	40	40	0	942669824	52	6260
2026-01-04 15:20:37.79	235.12	46.25	-39.6	-40.6	22.6	0.00e+00	66	40	0	944766976	52	6121
2026-01-04 15:20:38.80	234.87	45.97	-39.7	-40.7	22.3	0.00e+00	66	40	0	946864128	52	6239
2026-01-04 15:20:39.81	234.63	45.69	-40.2	-41.3	21.8	0.00e+00	0	40	0	947912704	52	6617
2026-01-04 15:20:40.82	234.39	45.41	-40.5	-41.7	21.4	0.00e+00	71	40	0	950009856	52	6937
2026-01-04 15:20:41.83	234.16	45.13	-40.5	-41.6	21.4	0.00e+00	92	40	0	952107008	52	6917
2026-01-04 15:20:42.84	233.93	44.86	-40.8	-42.0	21.2	0.00e+00	66	40	0	954204160	52	7193
2026-01-04 15:20:43.85	233.70	44.58	-40.6	-41.8	21.3	0.00e+00	90	40	0	956301312	54	6314
2026-01-04 15:20:44.86	233.48	44.31	-40.4	-41.6	21.3	0.00e+00	0	40	0	957349888	54	6150
2026-01-04 15:20:45.86	233.26	44.04	-40.4	-41.6	21.5	0.00e+00	0	40	0	959447040	54	6117
2026-01-04 15:20:46.87	233.04	43.77	-40.4	-41.6	21.2	0.00e+00	0	40	0	961544192	54	6127
2026-01-04 15:20:47.88	232.83	43.51	-40.7	-42.0	21.1	0.00e+00	61	40	0	963641344	54	6392
2026-01-04 15:20:48.89	232.62	43.24	-41.1	-42.3	20.8	0.00e+00	85	40	0	965738496	54	6661
2026-01-04 15:20:49.90	232.42	42.97	-40.8	-42.0	21.0	0.00e+00	2	40	0	966787072	54	6455
2026-01-04 15:20:50.91	232.22	42.71	-41.4	-42.7	20.6	0.00e+00	92	40	0	968884224	54	6955
2026-01-04 15:20:51.91	232.02	42.45	-41.5	-42.9	20.2	0.00e+00	0	40	0	970981376	54	7105
2026-01-04 15:20:52.92	231.82	42.19	-42.1	-43.6	19.7	0.00e+00	92	40	0	973078528	56	6855
2026-01-04 15:20:53.93	231.63	41.93	-42.3	-43.8	19.5	0.00e+00	0	40	0	975175680	56	7078
2026-01-04 15:20:54.94	231.44	41.67	-42.4	-44.0	19.2	0.00e+00	20	40	0	976224256	56	7225
2026-01-04 15:20:55.95	231.26	41.41	-42.6	-44.2	18.9	0.00e+00	0	40	0	978321408	56	7393
2026-01-04 15:20:56.96	231.08	41.16	-42.8	-44.5	18.8	0.00e+00	19	40	0	980418560	58	6796
2026-01-04 15:20:57.97	230.90	40.91	-42.8	-44.5	18.5	0.00e+00	90	40	0	982515712	58	6841
2026-01-04 15:20:58.98	230.72	40.65	-43.1	-44.9	18.3	0.00e+00	4	40	0	984612864	58	7137
2026-01-04 15:20:59.99	230.54	40.40	-42.9	-44.7	18.5	0.00e+00	91	40	0	985661440	58	6951
2026-01-04 15:21:01.00	230.37	40.15	-42.6	-44.2	19.1	0.00e+00	60	40	0	987758592	58	6582
2026-01-04 15:21:02.01	230.20	39.90	-42.7	-44.4	18.8	0.00e+00	61	40	0	989855744	58	6753
2026-01-04 15:21:03.02	230.04	39.66	-42.7	-44.4	19.0	0.00e+00	0	40	0	991952896	58	6693
2026-01-04 15:21:04.03	229.87	39.41	-42.2	-43.8	19.3	0.00e+00	62	40	0	994050048	58	6280
2026-01-04 15:21:05.04	229.71	39.17	-42.2	-43.7	19.5	0.00e+00	92	40	0	995098624	58	6209
2026-01-04 15:21:06.05	229.55	38.93	-41.9	-43.3	19.9	0.00e+00	69	40	0	997195776	58	5939
2026-01-04 15:21:07.06	229.40	38.69	-41.4	-42.7	20.4	0.00e+00	92	40	0	999292928	56	6227
2026-01-04 15:21:08.07	229.24	38.45	-41.4	-42.8	20.4	0.00e+00	0	40	0	1001390080	56	6264
2026-01-04 15:21:09.08	229.09	38.21	-41.0	-42.3	20.8	0.00e+00	0	40	0	1003487232	56	5951
2026-01-04 15:21:10.08	228.94	37.98	-41.2	-42.5	20.7	0.00e+00	67	40	0	1004535808	56	6102
2026-01-04 15:21:11.09	228.80	37.74	-41.2	-42.5	20.6	0.00e+00	0	40	0	1006632960	56	6099
2026-01-04 15:21:12.10	228.65	37.51	-41.2	-42.5	20.7	0.00e+00	92	40	0	1008730112	56	6095
2026-01-04 15:21:13.11	228.51	37.27	-41.3	-42.7	20.7	0.00e+00	2	40	0	1010827264	56	6215
2026-01-04 15:21:14.12	228.37	37.04	-41.1	-42.4	20.8	0.00e+00	90	40	0	1012924416	56	6028
2026-01-04 15:21:15.13	228.23	36.81	-40.9	-42.2	21.0	0.00e+00	0	40	0	1013972992	56	5863
2026-01-04 15:21:16.14	228.09	36.59	-40.9	-42.2	21.0	0.00e+00	59	40	0	1016070144	56	5847
2026-01-04 15:21:17.14	227.96	36.36	-41.1	-42.4	20.8	0.00e+00	20	40	0	1018167296	56	5977
2026-01-04 15:21:18.15	227.82	36.14	-40.9	-42.1	21.0	0.00e+00	21	40	0	1020264448	56	5815
2026-01-04 15:21:19.16	227.69	35.91	-41.0	-42.3	20.9	0.00e+00	0	40	0	1022361600	56	5950
2026-01-04 15:21:20.17	227.56	35.69	-41.0	-42.3	20.7	0.00e+00	0	40	0	1023410176	56	5921
2026-01-04 15:21:21.18	227.43	35.47	-41.1	-42.4	20.7	0.00e+00	92	40	0	1025507328	56	6030
2026-01-04 15:21:22.19	227.31	35.25	-40.9	-42.3	20.8	0.00e+00	0	40	0	1027604480	56	5901
2026-01-04 15:21:23.20	227.18	35.03	-41.0	-42.4	20.9	0.00e+00	90	40	0	1029701632	56	5975
2026-01-04 15:21:24.21	227.06	34.81	-41.1	-42.5	20.7	0.00e+00	20	40	0	1031798784	56	6036
2026-01-04 15:21:25.23	226.94	34.60	-41.1	-42.5	20.7	0.00e+00	20	40	0	1032847360	56	6042
2026-01-04 15:21:26.24	226.82	34.38	-41.0	-42.3	20.9	0.00e+00	0	40	0	1034944512	56	5921
2026-01-04 15:21:27.24	226.70	34.17	-41.0	-42.3	20.8	0.00e+00	63	40	0	1037041664	56	5931
2026-01-04 15:21:28.25	226.59	33.96	-41.2	-42.5	20.8	0.00e+00	92	40	0	1039138816	56	6086
2026-01-04 15:21:29.26	226.47	33.75	-41.0	-42.2	20.9	0.00e+00	63	40	0	1041235968	56	5894
2026-01-04 15:21:30.27	226.36	33.54	-41.1	-42.4	20.8	0.00e+00	92	40	0	1043333120	56	5993
2026-01-04 15:21:31.28	226.25	33.33	-40.8	-42.0	21.0	0.00e+00	0	40	0	1044381696	56	5759
2026-01-04 15:21:32.29	226.14	33.13	-40.7	-41.9	21.1	0.00e+00	0	40	0	1046478848	54	6353
2026-01-04 15:21:33.30	226.03	32.92	-40.7	-41.9	21.1	0.00e+00	0	40	0	1048576000	54	6366
2026-01-04 15:21:34.31	225.92	32.72	-40.5	-41.7	21.3	0.00e+00	0	40	0	1050673152	54	6226
2026-01-04 15:21:35.32	225.82	32.51	-40.7	-41.9	21.1	0.00e+00	77	40	0	1052770304	54	6328
2026-01-04 15:21:36.33	225.71	32.31	-40.8	-42.0	20.9	0.00e+00	0	40	0	1053818880	54	6462
2026-01-04 15:21:37.33	225.61	32.11	-40.9	-42.2	20.8	0.00e+00	92	40	0	1055916032	54	6567
2026-01-04 15:21:38.34	225.51	31.92	-41.3	-42.6	20.4	0.00e+00	0	40	0	1058013184	54	6889
2026-01-04 15:21:39.35	225.41	31.72	-41.1	-42.4	20.5	0.00e+00	2	40	0	1060110336	54	6737
2026-01-04 15:21:40.36	225.31	31.52	-41.3	-42.6	20.4	0.00e+00	0	40	0	1062207488	54	6899
2026-01-04 15:21:41.37	225.21	31.33	-41.4	-42.7	20.3	0.00e+00	0	40	0	1063256064	54	6960
2026-01-04 15:21:42.38	225.11	31.13	-41.5	-42.8	20.2	0.00e+00	0	40	0	1065353216	54	7086
2026-01-04 15:21:43.39	225.01	30.94	-41.5	-42.9	20.2	0.00e+00	63	40	0	1067450368	54	7124
2026-01-04 15:21:44.40	224.92	30.75	-41.6	-42.9	20.1	0.00e+00	92	40	0	1069547520	54	7164
2026-01-04 15:21:45.40	224.83	30.56	-41.7	-43.1	20.0	0.00e+00	63	40	0	1071644672	56	6524
2026-01-04 15:21:46.41	224.73	30.37	-41.9	-43.3	19.9	0.00e+00	25	40	0	1072693248	56	6686
2026-01-04 15:21:47.42	224.64	30.18	-41.8	-43.2	20.0	0.00e+00	0	40	0	1074790400	56	6550
2026-01-04 15:21:48.43	224.55	29.99	-41.9	-43.4	19.8	0.00e+00	63	40	0	1076887552	56	6712
2026-01-04 15:21:49.44	224.46	29.81	-42.2	-43.6	19.5	0.00e+00	0	40	0	1078984704	56	6925
2026-01-04 15:21:50.44	224.38	29.62	-42.3	-43.8	19.5	0.00e+00	0	40	0	1081081856	56	7074
2026-01-04 15:21:51.45	224.29	29.44	-42.3	-43.9	19.3	0.00e+00	92	40	0	1082130432	56	7095
2026-01-04 15:21:52.46	224.20	29.26	-42.4	-44.0	19.1	0.00e+00	62	40	0	1084227584	56	7240
2026-01-04 15:21:53.46	224.12	29.08	-42.6	-44.2	19.0	0.00e+00	90	40	0	1086324736	56	7396
2026-01-04 15:21:54.47	224.03	28.90	-42.5	-44.0	19.1	0.00e+00	0	40	0	1088421888	56	7237
2026-01-04 15:21:55.48	223.95	28.72	-42.5	-44.1	19.1	0.00e+00	1	40	0	1090519040	56	7275
2026-01-04 15:21:56.49	223.87	28.54	-42.3	-43.8	19.3	0.00e+00	0	40	0	1091567616	56	7071
2026-01-04 15:21:57.50	223.79	28.36	-42.3	-43.8	19.3	0.00e+00	1	40	0	1093664768	56	7081
2026-01-04 15:21:58.51	223.71	28.18	-42.2	-43.7	19.4	0.00e+00	72	40	0	1095761920	56	6946
2026-01-04 15:21:59.52	223.63	28.01	-42.3	-43.8	19.4	0.00e+00	0	40	0	1097859072	56	7080
2026-01-04 15:22:00.53	223.55	27.84	-42.0	-43.4	19.7	0.00e+00	92	40	0	1099956224	56	6750
2026-01-04 15:22:01.54	223.47	27.66	-41.8	-43.2	19.9	0.00e+00	5	40	0	1101004800	56	6555
2026-01-04 15:22:02.55	223.40	27.49	-41.8	-43.2	19.9	0.00e+00	17	40	0	1103101952	56	6561
2026-01-04 15:22:03.56	223.32	27.32	-41.5	-42.8	20.3	0.00e+00	15	40	0	1105199104	56	6291
2026-01-04 15:22:04.57	223.24	27.15	-41.6	-43.0	20.1	0.00e+00	5	40	0	1107296256	56	6401
2026-01-04 15:22:05.58	223.17	26.98	-41.4	-42.7	20.4	0.00e+00	6	40	0	1109393408	56	6206
2026-01-04 15:22:06.59	223.10	26.81	-41.5	-42.9	20.2	0.00e+00	4	40	0	1111490560	56	6334
2026-01-04 15:22:07.60	223.02	26.64	-41.6	-43.0	20.0	0.00e+00	91	40	0	1112539136	56	6450
2026-01-04 15:22:08.61	222.95	26.48	-41.5	-42.8	20.3	0.00e+00	12	40	0	1114636288	56	6315
2026-01-04 15:22:09.62	222.88	26.31	-41.4	-42.8	20.3	0.00e+00	92	40	0	1116733440	56	6269
2026-01-04 15:22:10.62	222.81	26.15	-41.6	-42.9	20.2	0.00e+00	15	40	0	1118830592	56	6365
2026-01-04 15:22:11.63	222.74	25.99	-41.5	-42.8	20.2	0.00e+00	8	40	0	1119879168	56	6303
2026-01-04 15:22:12.64	222.67	25.82	-41.2	-42.5	20.6	0.00e+00	74	40	0	1121976320	56	6069
2026-01-04 15:22:13.65	222.60	25.66	-41.1	-42.3	20.7	0.00e+00	3	40	0	1124073472	56	5961
2026-01-04 15:22:14.65	222.54	25.50	-41.0	-42.2	20.9	0.00e+00	91	40	0	1126170624	56	5847
2026-01-04 15:22:15.66	222.47	25.34	-40.8	-42.1	21.0	0.00e+00	2	40	0	1128267776	56	5769
2026-01-04 15:22:16.67	222.41	25.19	-40.8	-42.0	21.0	0.00e+00	92	40	0	1129316352	56	5755
2026-01-04 15:22:17.68	222.34	25.03	-40.9	-42.1	21.0	0.00e+00	0	40	0	1131413504	56	5775
2026-01-04 15:22:18.68	222.28	24.87	-40.5	-41.7	21.2	0.00e+00	3	40	0	1133510656	54	6219
2026-01-04 15:22:19.69	222.21	24.72	-40.6	-41.8	21.2	0.00e+00	2	40	0	1135607808	54	6254
2026-01-04 15:22:20.70	222.15	24.56	-40.6	-41.7	21.2	0.00e+00	3	40	0	1137704960	54	6225
2026-01-04 15:22:21.71	222.09	24.41	-40.4	-41.6	21.4	0.00e+00	0	40	0	1139802112	54	6116
2026-01-04 15:22:22.72	222.02	24.25	-40.4	-41.5	21.4	0.00e+00	3	40	0	1140850688	54	6066
2026-01-04 15:22:23.73	221.96	24.10	-40.3	-41.4	21.5	0.00e+00	92	40	0	1142947840	54	6020
2026-01-04 15:22:24.74	221.90	23.95	-40.1	-41.2	21.6	0.00e+00	3	40	0	1145044992	54	5884
2026-01-04 15:22:25.75	221.84	23.80	-40.1	-41.2	21.6	0.00e+00	69	40	0	1147142144	54	5889
2026-01-04 15:22:26.76	221.78	23.65	-40.1	-41.2	21.7	0.00e+00	4	40	0	1149239296	54	5849
2026-01-04 15:22:27.77	221.72	23.50	-40.1	-41.2	21.7	0.00e+00	6	40	0	1150287872	54	5890
2026-01-04 15:22:28.77	221.67	23.35	-40.1	-41.2	21.7	0.00e+00	0	40	0	1152385024	54	5831
2026-01-04 15:22:29.78	221.61	23.20	-39.9	-41.0	21.8	0.00e+00	17	40	0	1154482176	54	5754
2026-01-04 15:22:30.79	221.55	23.06	-39.8	-40.9	22.0	0.00e+00	92	40	0	1156579328	54	5679
2026-01-04 15:22:31.80	221.49	22.91	-39.9	-40.9	22.0	0.00e+00	66	40	0	1158676480	52	6378
2026-01-04 15:22:32.81	221.44	22.77	-39.9	-41.0	21.9	0.00e+00	92	40	0	1159725056	52	6427
2026-01-04 15:22:33.82	221.38	22.62	-39.8	-40.9	21.9	0.00e+00	16	40	0	1161822208	52	6323
2026-01-04 15:22:34.83	221.33	22.48	-39.6	-40.6	22.2	0.00e+00	70	40	0	1163919360	52	6152
2026-01-04 15:22:35.84	221.27	22.34	-39.6	-40.6	22.2	0.00e+00	0	40	0	1166016512	52	6144
2026-01-04 15:22:36.85	221.22	22.19	-39.6	-40.6	22.3	0.00e+00	0	40	0	1168113664	52	6142
2026-01-04 15:22:37.86	221.17	22.05	-39.7	-40.8	22.1	0.00e+00	90	40	0	1169162240	52	6273
2026-01-04 15:22:38.87	221.11	21.91	-39.6	-40.6	22.2	0.00e+00	73	40	0	1171259392	52	6121
2026-01-04 15:22:39.88	221.06	21.77	-39.2	-40.2	22.6	0.00e+00	92	40	0	1173356544	52	5839
2026-01-04 15:22:40.89	221.01	21.63	-39.4	-40.4	22.4	0.00e+00	0	40	0	1175453696	52	6005
2026-01-04 15:22:41.90	220.96	21.49	-39.2	-40.2	22.5	0.00e+00	55	40	0	1177550848	52	5872
2026-01-04 15:22:42.91	220.91	21.36	-39.3	-40.3	22.3	0.00e+00	0	40	0	1178599424	52	5945
2026-01-04 15:22:43.92	220.85	21.22	-39.2	-40.1	22.4	0.00e+00	0	40	0	1180696576	52	5821
2026-01-04 15:22:44.92	220.81	21.09	-39.2	-40.2	22.6	0.00e+00	0	40	0	1182793728	52	5833
2026-01-04 15:22:45.93	220.76	20.95	-39.2	-40.2	22.5	0.00e+00	0	40	0	1184890880	52	5891
2026-01-04 15:22:46.94	220.71	20.81	-39.2	-40.2	22.6	0.00e+00	91	40	0	1186988032	52	5877
2026-01-04 15:22:47.95	220.66	20.68	-39.1	-40.1	22.7	0.00e+00	16	40	0	1188036608	52	5803
2026-01-04 15:22:48.96	220.61	20.55	-39.0	-40.0	22.8	0.00e+00	91	40	0	1190133760	52	5733
2026-01-04 15:22:49.97	220.56	20.41	-39.1	-40.1	22.7	0.00e+00	2	40	0	1192230912	52	5772
2026-01-04 15:22:50.98	220.51	20.28	-39.1	-40.1	22.7	0.00e+00	4	40	0	1194328064	52	5803
2026-01-04 15:22:51.99	220.47	20.15	-39.1	-40.1	22.7	0.00e+00	0	40	0	1196425216	52	5763
2026-01-04 15:22:53.00	220.42	20.02	-39.1	-40.1	22.7	0.00e+00	65	40	0	1197473792	52	5821
2026-01-04 15:22:54.01	220.38	19.89	-39.3	-40.3	22.4	0.00e+00	92	40	0	1199570944	52	5934
2026-01-04 15:22:55.02	220.33	19.76	-39.2	-40.2	22.7	0.00e+00	15	40	0	1201668096	52	5833
2026-01-04 15:22:56.03	220.28	19.63	-39.2	-40.3	22.5	0.00e+00	92	40	0	1203765248	52	5900
2026-01-04 15:22:57.04	220.24	19.50	-39.2	-40.2	22.6	0.00e+00	66	40	0	1205862400	52	5856
2026-01-04 15:22:58.04	220.20	19.38	-39.3	-40.3	22.5	0.00e+00	0	40	0	1207959552	52	5924
2026-01-04 15:22:59.05	220.15	19.25	-39.4	-40.4	22.4	0.00e+00	0	40	0	1209008128	52	5978
2026-01-04 15:23:00.06	220.11	19.12	-39.3	-40.4	22.4	0.00e+00	0	40	0	1211105280	52	5977
