passes_logs/2026/01/04/R4.6S_Anadyr/R4.6S_Anadyr__20260104_003506_NOAA_21_JPSS-2_rec.log

#Pass ID: 20260104_003506_NOAA 21 (JPSS-2)
#Satellite: NOAA 21 (JPSS-2)
#Configuration: NOAA-21
#almurnet v.1.7.20251203
#Start time: 2026-01-04 00:35:07

#Version: 2.2.20231116
#Station: R4.6S_Anadyr
#Location: 177.4865 lon 64.73178 lat
#TLE: 1 54234U 22150A   26003.45311712  .00000198  00000+0  11468-3 0  9993
#TLE: 2 54234  98.7487 304.4932 0001159 347.5017  12.6130 14.19531745163172

#Time	Az	El	Level	Level2	SNR	BER	BlckErr	Temp	State	Recorded	gain1	gain2
2026-01-04 00:35:07.97	165.53	0.09	-48.9	-58.7	3.3	2.27e+00	0	38	0	0	60	31128
2026-01-04 00:35:08.98	165.54	0.15	-50.9	-63.7	3.5	1.52e+00	0	39	104	0	60	54036
2026-01-04 00:35:09.99	165.56	0.21	-51.3	-64.1	3.5	1.52e+00	0	39	104	0	60	56230
2026-01-04 00:35:11.00	165.57	0.27	-50.6	-63.4	3.5	1.52e+00	0	39	104	0	60	52160
2026-01-04 00:35:12.01	165.59	0.33	-50.6	-63.5	3.5	1.52e+00	0	39	104	0	60	52770
2026-01-04 00:35:13.01	165.60	0.39	-50.3	-63.2	3.5	1.52e+00	0	39	104	0	60	50507
2026-01-04 00:35:14.02	165.61	0.46	-50.2	-63.0	3.5	1.52e+00	0	39	104	0	60	49833
2026-01-04 00:35:15.03	165.63	0.52	-50.5	-63.4	3.6	1.52e+00	0	39	104	0	60	51665
2026-01-04 00:35:16.35	165.65	0.60	-50.3	-63.2	3.5	1.52e+00	0	39	104	0	60	50806
2026-01-04 00:35:17.07	165.66	0.64	-50.8	-63.6	3.5	1.52e+00	0	39	104	0	60	53294
2026-01-04 00:35:18.36	165.68	0.72	-50.1	-63.0	3.5	1.52e+00	0	39	104	0	60	49656
2026-01-04 00:35:19.08	165.69	0.76	-50.0	-62.9	3.5	1.52e+00	0	39	104	0	60	48992
2026-01-04 00:35:20.38	165.71	0.84	-50.2	-63.0	3.5	1.52e+00	0	39	104	0	60	49810
2026-01-04 00:35:21.10	165.72	0.89	-49.9	-62.7	3.5	1.52e+00	0	39	104	0	60	48089
2026-01-04 00:35:22.40	165.74	0.97	-48.6	-61.4	3.5	1.52e+00	0	39	104	0	60	41243
2026-01-04 00:35:23.12	165.75	1.01	-49.5	-62.3	3.5	1.52e+00	0	40	104	0	60	45588
2026-01-04 00:35:24.42	165.77	1.09	-49.8	-62.6	3.5	1.52e+00	0	40	104	0	60	47541
2026-01-04 00:35:25.14	165.78	1.14	-49.5	-62.3	3.5	1.52e+00	0	39	104	0	60	45945
2026-01-04 00:35:26.44	165.80	1.22	-49.8	-62.6	3.5	1.52e+00	0	40	104	0	60	47318
2026-01-04 00:35:27.16	165.81	1.26	-49.5	-62.2	3.5	1.52e+00	0	39	104	0	60	45429
2026-01-04 00:35:28.46	165.83	1.34	-49.3	-62.1	3.5	1.52e+00	0	39	104	0	60	44613
2026-01-04 00:35:29.18	165.84	1.39	-49.5	-62.2	3.5	1.52e+00	0	40	104	0	60	45251
2026-01-04 00:35:30.48	165.86	1.47	-49.3	-62.0	3.5	1.52e+00	0	40	104	0	60	43940
2026-01-04 00:35:31.20	165.87	1.52	-49.2	-61.9	3.5	1.52e+00	0	39	104	0	60	43627
2026-01-04 00:35:32.50	165.89	1.60	-50.0	-62.8	3.5	1.52e+00	0	40	104	0	60	48265
2026-01-04 00:35:33.22	165.90	1.64	-49.7	-62.4	3.5	1.52e+00	0	40	104	0	60	46535
2026-01-04 00:35:34.52	165.93	1.72	-49.6	-62.4	3.5	1.52e+00	0	39	104	0	60	46404
2026-01-04 00:35:35.24	165.94	1.77	-50.2	-63.0	3.5	1.52e+00	0	40	104	0	60	49592
2026-01-04 00:35:36.53	165.96	1.85	-49.1	-61.9	3.5	1.52e+00	0	40	104	0	60	43696
2026-01-04 00:35:37.26	165.97	1.90	-49.0	-61.8	3.5	1.52e+00	0	40	104	0	60	43096
2026-01-04 00:35:38.55	165.99	1.98	-49.4	-62.1	3.5	1.52e+00	0	40	104	0	60	44670
2026-01-04 00:35:39.28	166.00	2.03	-49.4	-62.1	3.5	1.52e+00	0	40	104	0	60	44614
2026-01-04 00:35:40.57	166.02	2.11	-49.8	-62.4	3.5	1.52e+00	0	40	104	0	60	46275
2026-01-04 00:35:41.29	166.03	2.16	-49.7	-62.3	3.5	1.52e+00	0	40	104	0	60	45700
2026-01-04 00:35:42.59	166.05	2.24	-49.3	-61.9	3.5	1.52e+00	0	40	104	0	60	43448
2026-01-04 00:35:43.32	166.07	2.29	-49.1	-61.6	3.5	1.52e+00	0	40	104	0	60	42055
2026-01-04 00:35:44.62	166.09	2.37	-49.2	-61.5	3.5	1.52e+00	0	40	104	0	60	41870
2026-01-04 00:35:45.34	166.10	2.42	-49.2	-61.5	3.5	1.52e+00	0	40	104	0	60	41580
2026-01-04 00:35:46.64	166.12	2.50	-49.3	-61.5	3.5	1.51e+00	0	40	104	0	60	41789
2026-01-04 00:35:47.36	166.13	2.55	-49.2	-61.2	3.5	1.52e+00	0	40	104	0	60	40135
2026-01-04 00:35:48.65	166.15	2.63	-48.9	-60.9	3.5	1.51e+00	0	40	104	0	60	38756
2026-01-04 00:35:49.38	166.16	2.68	-48.8	-60.6	3.5	1.51e+00	0	40	104	0	60	37663
2026-01-04 00:35:50.68	166.19	2.77	-48.8	-60.8	3.5	1.51e+00	0	40	104	0	60	38348
2026-01-04 00:35:51.39	166.20	2.81	-48.9	-61.1	3.5	1.52e+00	0	40	104	0	60	39722
2026-01-04 00:35:52.69	166.22	2.90	-49.3	-61.7	3.5	1.52e+00	0	40	104	0	60	42741
2026-01-04 00:35:53.41	166.23	2.95	-49.1	-60.2	3.5	1.51e+00	0	40	104	0	60	35886
2026-01-04 00:35:54.71	166.25	3.03	-48.5	-57.4	4.4	8.66e-01	0	40	104	0	60	25965
2026-01-04 00:35:55.43	166.27	3.08	-48.1	-55.5	6.4	1.34e+00	123	40	0	0	60	20797
2026-01-04 00:35:56.73	166.29	3.17	-46.5	-51.1	9.7	4.10e-02	123	40	104	1048576	60	12664
2026-01-04 00:35:57.45	166.30	3.21	-45.7	-48.9	11.9	4.96e-04	122	40	0	3145728	60	9737
2026-01-04 00:35:58.75	166.32	3.30	-44.4	-46.8	13.8	5.30e-06	122	40	0	6291456	60	7686
2026-01-04 00:35:59.47	166.33	3.35	-43.8	-46.0	15.2	7.00e-07	123	40	0	8388608	60	6977
2026-01-04 00:36:00.76	166.36	3.43	-42.4	-44.2	16.4	0.00e+00	122	40	0	12582912	58	6388
2026-01-04 00:36:01.49	166.37	3.48	-42.1	-43.8	16.9	0.00e+00	122	40	0	15728640	58	6100
2026-01-04 00:36:02.78	166.39	3.57	-41.2	-42.7	18.0	0.00e+00	123	40	0	18874368	56	6047
2026-01-04 00:36:03.51	166.40	3.62	-41.4	-42.9	17.8	0.00e+00	123	40	0	22020096	56	6175
2026-01-04 00:36:04.80	166.43	3.71	-41.3	-42.8	17.9	0.00e+00	123	40	0	25165824	56	6123
2026-01-04 00:36:05.52	166.44	3.76	-41.8	-43.4	17.3	0.00e+00	122	40	0	28311552	56	6542
2026-01-04 00:36:06.82	166.46	3.85	-43.1	-45.1	15.4	0.00e+00	122	40	0	31457280	58	7109
2026-01-04 00:36:07.55	166.48	3.89	-43.8	-45.9	15.7	6.10e-06	123	40	0	34603008	60	6913
2026-01-04 00:36:08.84	166.50	3.98	-42.3	-44.1	15.4	0.00e+00	122	40	0	37748736	56	7055
2026-01-04 00:36:09.56	166.51	4.03	-47.7	-53.8	4.5	9.83e-01	0	40	104	39845888	60	17146
2026-01-04 00:36:10.86	166.53	4.12	-43.9	-46.1	13.7	0.00e+00	122	40	0	40894464	54	9992
2026-01-04 00:36:11.59	166.55	4.17	-48.8	-58.7	5.4	1.50e+00	49	40	104	41943040	60	30062
2026-01-04 00:36:12.88	166.57	4.26	-41.4	-42.9	18.8	0.00e+00	121	40	0	44040192	56	6147
2026-01-04 00:36:13.60	166.58	4.31	-41.0	-42.4	18.5	0.00e+00	123	40	0	46137344	56	5795
2026-01-04 00:36:14.90	166.61	4.40	-41.1	-42.5	18.9	0.00e+00	123	40	0	50331648	56	5874
2026-01-04 00:36:15.62	166.62	4.45	-40.7	-42.0	18.8	0.00e+00	123	40	0	52428800	56	5574
2026-01-04 00:36:16.92	166.64	4.54	-41.1	-42.5	19.1	0.00e+00	123	40	0	56623104	54	6602
2026-01-04 00:36:17.64	166.66	4.59	-40.6	-41.9	19.4	0.00e+00	122	40	0	58720256	54	6181
2026-01-04 00:36:18.94	166.68	4.68	-40.1	-41.3	19.9	0.00e+00	121	40	0	62914560	54	5768
2026-01-04 00:36:19.66	166.69	4.74	-40.2	-41.4	19.8	0.00e+00	121	40	0	65011712	54	5835
2026-01-04 00:36:20.95	166.72	4.83	-39.9	-41.2	20.0	0.00e+00	122	40	0	69206016	54	5670
2026-01-04 00:36:21.67	166.73	4.88	-39.8	-41.0	20.0	0.00e+00	123	40	0	71303168	54	5536
2026-01-04 00:36:22.97	166.76	4.97	-39.9	-41.1	20.2	0.00e+00	122	40	0	75497472	52	6318
2026-01-04 00:36:23.69	166.77	5.02	-39.6	-40.8	20.3	0.00e+00	122	40	0	77594624	52	6123
2026-01-04 00:36:24.99	166.79	5.11	-39.5	-40.7	20.4	0.00e+00	122	40	0	81788928	52	6008
2026-01-04 00:36:25.71	166.81	5.17	-39.6	-40.8	20.6	0.00e+00	123	40	0	83886080	52	6070
2026-01-04 00:36:27.01	166.83	5.26	-39.8	-41.0	20.4	0.00e+00	123	40	0	88080384	52	6231
2026-01-04 00:36:27.73	166.85	5.31	-39.6	-40.8	20.4	0.00e+00	123	40	0	90177536	52	6106
2026-01-04 00:36:29.03	166.87	5.40	-39.7	-40.9	20.4	0.00e+00	123	40	0	94371840	52	6191
2026-01-04 00:36:29.75	166.89	5.46	-39.6	-40.8	20.8	0.00e+00	123	40	0	96468992	52	6109
2026-01-04 00:36:31.05	166.91	5.55	-39.6	-40.7	20.4	0.00e+00	123	40	0	100663296	52	6060
2026-01-04 00:36:31.77	166.92	5.60	-40.2	-41.4	20.3	0.00e+00	122	40	0	102760448	52	6573
2026-01-04 00:36:33.06	166.95	5.70	-39.4	-40.6	20.5	0.00e+00	123	40	0	106954752	52	5968
2026-01-04 00:36:33.78	166.96	5.75	-39.1	-40.2	20.9	0.00e+00	122	40	0	109051904	52	5689
2026-01-04 00:36:35.08	166.99	5.84	-39.2	-40.4	20.7	0.00e+00	122	40	0	113246208	52	5801
2026-01-04 00:36:35.80	167.00	5.90	-39.2	-40.3	20.4	0.00e+00	120	40	0	115343360	52	5772
2026-01-04 00:36:37.10	167.03	5.99	-39.0	-40.2	21.0	0.00e+00	123	40	0	119537664	52	5693
2026-01-04 00:36:37.82	167.04	6.05	-39.3	-40.5	20.7	0.00e+00	123	40	0	121634816	52	5888
2026-01-04 00:36:39.12	167.07	6.14	-39.2	-40.4	20.8	0.00e+00	122	40	0	125829120	52	5822
2026-01-04 00:36:39.84	167.08	6.20	-39.2	-40.4	20.7	0.00e+00	123	40	0	127926272	52	5800
2026-01-04 00:36:41.14	167.11	6.29	-38.9	-40.1	21.0	0.00e+00	123	40	0	132120576	52	5614
2026-01-04 00:36:41.86	167.13	6.35	-38.9	-40.1	20.9	0.00e+00	123	40	0	134217728	52	5605
2026-01-04 00:36:43.16	167.15	6.45	-39.2	-40.3	20.9	0.00e+00	123	40	0	138412032	52	5780
2026-01-04 00:36:43.88	167.17	6.50	-39.0	-40.1	21.2	0.00e+00	123	40	0	140509184	52	5603
2026-01-04 00:36:45.18	167.19	6.60	-39.1	-40.2	21.1	0.00e+00	122	40	0	144703488	52	5686
2026-01-04 00:36:45.90	167.21	6.65	-39.0	-40.1	21.1	0.00e+00	122	40	0	146800640	52	5616
2026-01-04 00:36:47.20	167.24	6.75	-38.8	-39.9	21.2	0.00e+00	121	40	0	150994944	50	6143
2026-01-04 00:36:47.92	167.25	6.81	-38.8	-39.9	21.3	0.00e+00	123	40	0	153092096	50	6140
2026-01-04 00:36:49.22	167.28	6.91	-38.5	-39.6	21.4	0.00e+00	123	40	0	157286400	50	5930
2026-01-04 00:36:49.94	167.29	6.96	-38.6	-39.7	21.4	0.00e+00	123	40	0	159383552	50	6015
2026-01-04 00:36:51.24	167.32	7.06	-38.5	-39.5	21.6	0.00e+00	120	40	0	163577856	50	5909
2026-01-04 00:36:51.96	167.34	7.12	-38.6	-39.7	21.5	0.00e+00	123	40	0	165675008	50	6023
2026-01-04 00:36:53.26	167.36	7.22	-38.7	-39.8	21.2	0.00e+00	120	40	0	169869312	50	6107
2026-01-04 00:36:53.98	167.38	7.27	-38.4	-39.4	21.7	0.00e+00	123	40	0	171966464	50	5845
2026-01-04 00:36:55.28	167.41	7.37	-38.5	-39.5	21.6	0.00e+00	120	40	0	176160768	50	5920
2026-01-04 00:36:56.00	167.42	7.43	-38.3	-39.4	21.6	0.00e+00	123	40	0	178257920	50	5833
2026-01-04 00:36:57.30	167.45	7.53	-38.6	-39.7	21.6	0.00e+00	122	40	0	182452224	50	6040
2026-01-04 00:36:58.02	167.47	7.59	-38.7	-39.8	21.7	0.00e+00	123	40	0	184549376	50	6065
2026-01-04 00:36:59.31	167.49	7.69	-38.9	-39.9	21.5	0.00e+00	120	40	0	188743680	50	6180
2026-01-04 00:37:00.03	167.51	7.75	-39.3	-40.4	21.5	0.00e+00	122	40	0	190840832	52	5822
2026-01-04 00:37:01.33	167.54	7.85	-39.4	-40.5	21.4	0.00e+00	120	40	0	195035136	52	5871
2026-01-04 00:37:02.05	167.56	7.91	-38.9	-40.0	21.6	0.00e+00	122	40	0	197132288	52	5532
2026-01-04 00:37:03.35	167.58	8.01	-39.2	-40.3	21.1	0.00e+00	123	40	0	201326592	52	5746
2026-01-04 00:37:04.07	167.60	8.07	-38.4	-39.5	21.9	0.00e+00	123	40	0	203423744	50	5879
2026-01-04 00:37:05.37	167.63	8.17	-38.3	-39.4	21.9	0.00e+00	122	40	0	207618048	50	5817
2026-01-04 00:37:06.09	167.65	8.23	-38.3	-39.3	22.0	0.00e+00	123	40	0	209715200	50	5788
2026-01-04 00:37:07.39	167.68	8.33	-38.3	-39.4	22.0	0.00e+00	121	40	0	213909504	50	5806
2026-01-04 00:37:08.11	167.69	8.39	-38.3	-39.3	22.0	0.00e+00	123	40	0	216006656	50	5766
2026-01-04 00:37:09.41	167.72	8.50	-38.1	-39.1	22.1	0.00e+00	120	40	0	220200960	50	5645
2026-01-04 00:37:10.13	167.74	8.56	-38.1	-39.1	22.1	0.00e+00	123	40	0	222298112	50	5617
2026-01-04 00:37:11.43	167.77	8.66	-38.5	-39.5	22.2	0.00e+00	120	40	0	226492416	50	5883
2026-01-04 00:37:12.15	167.79	8.72	-38.3	-39.3	22.1	0.00e+00	120	40	0	228589568	50	5747
2026-01-04 00:37:13.44	167.82	8.83	-38.2	-39.2	22.1	0.00e+00	120	40	0	232783872	50	5697
2026-01-04 00:37:14.16	167.83	8.89	-38.0	-39.0	22.3	0.00e+00	123	40	0	234881024	50	5570
2026-01-04 00:37:15.46	167.86	9.00	-38.1	-39.1	22.2	0.00e+00	123	40	0	239075328	50	5617
2026-01-04 00:37:16.19	167.88	9.06	-38.0	-39.1	22.3	0.00e+00	123	40	0	241172480	50	5600
2026-01-04 00:37:17.48	167.91	9.16	-38.0	-39.1	22.4	0.00e+00	123	40	0	245366784	50	5596
2026-01-04 00:37:18.20	167.93	9.22	-37.9	-39.0	22.3	0.00e+00	122	40	0	247463936	50	5533
2026-01-04 00:37:19.50	167.96	9.33	-37.7	-38.7	22.5	0.00e+00	122	40	0	251658240	48	6057
2026-01-04 00:37:20.22	167.98	9.39	-37.8	-38.8	22.5	0.00e+00	120	40	0	253755392	48	6079
2026-01-04 00:37:21.52	168.01	9.50	-37.6	-38.6	22.6	0.00e+00	123	40	0	257949696	48	5953
2026-01-04 00:37:22.24	168.03	9.57	-37.7	-38.7	22.5	0.00e+00	122	40	0	261095424	48	6033
2026-01-04 00:37:23.54	168.06	9.68	-37.7	-38.7	22.4	0.00e+00	123	40	0	264241152	48	5997
2026-01-04 00:37:24.26	168.08	9.74	-37.5	-38.6	22.5	0.00e+00	120	40	0	266338304	48	5928
2026-01-04 00:37:25.56	168.11	9.85	-37.5	-38.5	22.5	0.00e+00	122	40	0	270532608	48	5876
2026-01-04 00:37:26.28	168.13	9.91	-37.3	-38.3	22.6	0.00e+00	120	40	0	272629760	48	5741
2026-01-04 00:37:27.58	168.16	10.02	-37.1	-38.1	22.7	0.00e+00	122	40	0	276824064	48	5609
2026-01-04 00:37:28.30	168.18	10.09	-37.2	-38.2	22.7	0.00e+00	120	40	0	279969792	48	5665
2026-01-04 00:37:29.59	168.21	10.20	-37.4	-38.4	22.6	0.00e+00	123	40	0	283115520	48	5827
2026-01-04 00:37:30.32	168.23	10.26	-37.2	-38.2	22.7	0.00e+00	123	40	0	285212672	48	5688
2026-01-04 00:37:31.61	168.26	10.37	-37.2	-38.2	22.7	0.00e+00	123	40	0	289406976	48	5663
2026-01-04 00:37:32.33	168.28	10.44	-37.4	-38.4	22.7	0.00e+00	121	40	0	291504128	48	5798
2026-01-04 00:37:33.63	168.32	10.55	-37.4	-38.4	22.7	0.00e+00	120	40	0	295698432	48	5800
2026-01-04 00:37:34.35	168.33	10.62	-37.3	-38.2	22.8	0.00e+00	123	40	0	298844160	48	5725
2026-01-04 00:37:35.65	168.37	10.73	-37.0	-38.0	22.8	0.00e+00	123	40	0	301989888	48	5567
2026-01-04 00:37:36.37	168.39	10.80	-36.9	-37.9	22.9	0.00e+00	123	40	0	305135616	48	5499
2026-01-04 00:37:37.67	168.42	10.91	-37.0	-38.0	23.0	0.00e+00	120	40	0	308281344	48	5560
2026-01-04 00:37:38.39	168.44	10.98	-37.0	-38.0	22.9	0.00e+00	122	40	0	311427072	48	5564
2026-01-04 00:37:39.69	168.48	11.09	-37.1	-38.0	23.0	0.00e+00	120	40	0	315621376	48	5580
2026-01-04 00:37:40.41	168.49	11.16	-37.4	-38.4	22.9	0.00e+00	123	40	0	317718528	48	5803
2026-01-04 00:37:41.71	168.53	11.28	-37.2	-38.1	22.9	0.00e+00	122	40	0	320864256	48	5657
2026-01-04 00:37:42.43	168.55	11.34	-37.2	-38.1	23.1	0.00e+00	123	40	0	324009984	48	5631
2026-01-04 00:37:43.73	168.59	11.46	-37.1	-38.0	23.1	0.00e+00	122	40	0	327155712	48	5580
2026-01-04 00:37:44.45	168.61	11.53	-37.0	-37.9	23.1	0.00e+00	123	40	0	330301440	48	5520
2026-01-04 00:37:45.75	168.64	11.65	-37.2	-38.2	23.1	0.00e+00	123	40	0	334495744	48	5691
2026-01-04 00:37:46.47	168.66	11.71	-37.1	-38.0	23.1	0.00e+00	122	40	0	336592896	48	5591
2026-01-04 00:37:47.77	168.70	11.83	-37.3	-38.3	23.1	0.00e+00	122	40	0	340787200	48	5769
2026-01-04 00:37:48.48	168.72	11.90	-37.0	-37.9	23.2	0.00e+00	120	40	0	342884352	48	5514
2026-01-04 00:37:49.78	168.75	12.02	-37.4	-38.3	23.1	0.00e+00	121	40	0	346030080	48	5783
2026-01-04 00:37:50.50	168.77	12.09	-37.1	-38.1	23.2	0.00e+00	122	40	0	349175808	48	5596
2026-01-04 00:37:51.80	168.81	12.21	-37.3	-38.3	23.2	0.00e+00	123	40	0	353370112	48	5738
2026-01-04 00:37:52.51	168.83	12.28	-37.3	-38.2	23.2	0.00e+00	122	40	0	355467264	48	5720
2026-01-04 00:37:53.81	168.87	12.40	-36.8	-37.8	23.3	0.00e+00	122	40	0	359661568	48	5418
2026-01-04 00:37:54.53	168.89	12.47	-36.8	-37.8	23.2	0.00e+00	123	40	0	361758720	48	5441
2026-01-04 00:37:55.83	168.93	12.60	-36.9	-37.9	23.3	0.00e+00	122	40	0	364904448	48	5477
2026-01-04 00:37:56.55	168.95	12.67	-36.9	-37.8	23.3	0.00e+00	120	40	0	368050176	48	5451
2026-01-04 00:37:57.85	168.99	12.79	-36.9	-37.9	23.2	0.00e+00	123	40	0	372244480	48	5497
2026-01-04 00:37:58.57	169.01	12.86	-36.8	-37.8	23.4	0.00e+00	122	40	0	374341632	48	5429
2026-01-04 00:37:59.87	169.05	12.99	-37.0	-37.9	23.1	0.00e+00	123	40	0	378535936	48	5501
2026-01-04 00:38:00.60	169.07	13.06	-36.7	-37.7	23.4	0.00e+00	120	40	0	380633088	48	5370
2026-01-04 00:38:01.89	169.11	13.18	-36.8	-37.8	23.4	0.00e+00	122	40	0	384827392	46	6098
2026-01-04 00:38:02.61	169.13	13.26	-36.8	-37.7	23.3	0.00e+00	122	40	0	386924544	46	6056
2026-01-04 00:38:03.91	169.17	13.38	-37.0	-37.9	23.3	0.00e+00	122	40	0	391118848	46	6200
2026-01-04 00:38:04.64	169.20	13.46	-36.8	-37.8	23.4	0.00e+00	120	40	0	393216000	46	6095
2026-01-04 00:38:05.93	169.24	13.59	-36.9	-37.9	23.3	0.00e+00	123	40	0	397410304	46	6158
2026-01-04 00:38:06.65	169.26	13.66	-36.6	-37.6	23.4	0.00e+00	123	40	0	399507456	46	5931
2026-01-04 00:38:07.95	169.30	13.79	-36.6	-37.5	23.4	0.00e+00	120	40	0	403701760	46	5892
2026-01-04 00:38:08.67	169.32	13.86	-36.5	-37.5	23.5	0.00e+00	122	40	0	405798912	46	5861
2026-01-04 00:38:09.97	169.36	13.99	-36.4	-37.4	23.5	0.00e+00	122	40	0	409993216	46	5797
2026-01-04 00:38:10.69	169.39	14.07	-36.4	-37.4	23.6	0.00e+00	122	40	0	412090368	46	5811
2026-01-04 00:38:11.99	169.43	14.20	-36.4	-37.3	23.5	0.00e+00	123	40	0	416284672	46	5789
2026-01-04 00:38:12.71	169.45	14.27	-36.4	-37.3	23.6	0.00e+00	122	40	0	418381824	46	5772
2026-01-04 00:38:14.01	169.49	14.41	-36.2	-37.1	23.7	0.00e+00	122	40	0	422576128	46	5624
2026-01-04 00:38:14.73	169.52	14.48	-36.3	-37.2	23.7	0.00e+00	121	40	0	424673280	46	5699
2026-01-04 00:38:16.02	169.56	14.61	-36.2	-37.1	23.8	0.00e+00	122	40	0	428867584	46	5628
2026-01-04 00:38:16.74	169.58	14.69	-36.1	-37.1	23.7	0.00e+00	123	40	0	430964736	46	5612
2026-01-04 00:38:18.04	169.63	14.83	-36.2	-37.1	23.7	0.00e+00	122	40	0	435159040	46	5621
2026-01-04 00:38:18.76	169.65	14.90	-36.3	-37.2	23.7	0.00e+00	123	40	0	437256192	46	5703
2026-01-04 00:38:20.06	169.70	15.04	-36.5	-37.4	23.8	0.00e+00	123	40	0	441450496	46	5826
2026-01-04 00:38:20.78	169.72	15.11	-36.3	-37.2	23.7	0.00e+00	120	40	0	443547648	46	5700
2026-01-04 00:38:22.08	169.77	15.25	-36.4	-37.3	23.9	0.00e+00	122	40	0	447741952	46	5765
2026-01-04 00:38:22.80	169.79	15.33	-36.2	-37.1	23.9	0.00e+00	123	40	0	449839104	46	5656
2026-01-04 00:38:24.10	169.84	15.47	-36.3	-37.2	23.9	0.00e+00	123	40	0	454033408	46	5690
2026-01-04 00:38:24.82	169.86	15.55	-36.2	-37.1	23.8	0.00e+00	122	40	0	456130560	46	5632
2026-01-04 00:38:26.12	169.91	15.69	-36.5	-37.4	23.8	0.00e+00	122	40	0	460324864	46	5812
2026-01-04 00:38:26.84	169.93	15.77	-36.4	-37.3	23.8	0.00e+00	123	40	0	462422016	46	5753
2026-01-04 00:38:28.14	169.98	15.91	-36.2	-37.1	24.0	0.00e+00	123	40	0	466616320	46	5622
2026-01-04 00:38:28.86	170.00	15.99	-36.2	-37.1	24.0	0.00e+00	122	40	0	468713472	46	5640
2026-01-04 00:38:30.15	170.05	16.13	-36.1	-37.0	23.9	0.00e+00	122	40	0	472907776	46	5586
2026-01-04 00:38:30.87	170.08	16.21	-36.1	-37.0	24.0	0.00e+00	123	40	0	475004928	46	5582
2026-01-04 00:38:32.17	170.12	16.36	-36.1	-37.0	23.9	0.00e+00	123	40	0	479199232	46	5570
2026-01-04 00:38:32.89	170.15	16.44	-36.1	-37.0	24.0	0.00e+00	122	40	0	481296384	46	5540
2026-01-04 00:38:34.18	170.20	16.58	-36.2	-37.1	23.9	0.00e+00	123	40	0	485490688	46	5618
2026-01-04 00:38:34.90	170.23	16.66	-36.3	-37.2	23.8	0.00e+00	120	40	0	487587840	46	5699
2026-01-04 00:38:36.20	170.28	16.81	-36.5	-37.4	23.9	0.00e+00	122	40	0	491782144	46	5812
2026-01-04 00:38:36.92	170.30	16.89	-36.5	-37.4	23.8	0.00e+00	120	40	0	493879296	46	5810
2026-01-04 00:38:38.22	170.35	17.04	-36.2	-37.2	23.8	0.00e+00	123	40	0	498073600	46	5664
2026-01-04 00:38:38.94	170.38	17.12	-36.2	-37.1	23.9	0.00e+00	122	40	0	500170752	46	5658
2026-01-04 00:38:40.24	170.43	17.27	-36.2	-37.1	23.9	0.00e+00	123	40	0	504365056	46	5634
2026-01-04 00:38:40.96	170.46	17.36	-36.0	-36.9	23.9	0.00e+00	123	40	0	506462208	46	5504
2026-01-04 00:38:42.25	170.51	17.51	-36.3	-37.2	23.9	0.00e+00	121	40	0	510656512	46	5675
2026-01-04 00:38:42.98	170.54	17.59	-36.5	-37.4	23.9	0.00e+00	123	40	0	512753664	46	5819
2026-01-04 00:38:44.27	170.59	17.75	-36.1	-37.0	24.1	0.00e+00	123	40	0	516947968	46	5550
2026-01-04 00:38:44.99	170.62	17.83	-36.0	-36.9	24.0	0.00e+00	123	40	0	519045120	46	5530
2026-01-04 00:38:46.29	170.67	17.99	-36.0	-36.9	24.0	0.00e+00	122	40	0	523239424	46	5530
2026-01-04 00:38:47.01	170.70	18.07	-36.1	-37.0	23.9	0.00e+00	123	40	0	525336576	46	5539
2026-01-04 00:38:48.31	170.75	18.23	-36.1	-37.0	23.9	0.00e+00	122	40	0	529530880	46	5541
2026-01-04 00:38:49.03	170.78	18.31	-36.0	-36.9	24.0	0.00e+00	122	40	0	531628032	46	5519
2026-01-04 00:38:50.33	170.84	18.47	-36.1	-37.0	24.1	0.00e+00	120	40	0	535822336	46	5535
2026-01-04 00:38:51.05	170.87	18.56	-35.9	-36.8	24.1	0.00e+00	123	40	0	537919488	46	5467
2026-01-04 00:38:52.35	170.92	18.72	-36.0	-36.9	24.0	0.00e+00	123	40	0	542113792	46	5472
2026-01-04 00:38:53.07	170.95	18.81	-36.0	-36.9	24.0	0.00e+00	123	40	0	544210944	46	5493
2026-01-04 00:38:54.37	171.01	18.97	-36.0	-36.9	24.0	0.00e+00	122	40	0	548405248	46	5495
2026-01-04 00:38:55.09	171.04	19.06	-36.1	-36.9	24.0	0.00e+00	122	40	0	550502400	46	5528
2026-01-04 00:38:56.39	171.10	19.22	-36.1	-37.0	24.0	0.00e+00	122	40	0	554696704	46	5569
2026-01-04 00:38:57.11	171.13	19.31	-36.2	-37.1	23.9	0.00e+00	123	40	0	556793856	46	5628
2026-01-04 00:38:58.41	171.19	19.47	-36.0	-36.9	24.0	0.00e+00	123	40	0	560988160	46	5489
2026-01-04 00:38:59.13	171.22	19.56	-36.2	-37.1	24.1	0.00e+00	123	40	0	563085312	46	5625
2026-01-04 00:39:00.42	171.28	19.73	-35.9	-36.8	24.2	0.00e+00	123	40	0	567279616	46	5453
2026-01-04 00:39:01.15	171.31	19.82	-36.1	-37.0	24.0	0.00e+00	123	40	0	569376768	46	5551
2026-01-04 00:39:02.44	171.37	19.99	-35.9	-36.8	24.2	0.00e+00	122	40	0	573571072	46	5412
2026-01-04 00:39:03.16	171.40	20.08	-35.8	-36.7	24.3	0.00e+00	122	40	0	575668224	46	5379
2026-01-04 00:39:04.46	171.46	20.25	-36.2	-37.1	24.2	0.00e+00	123	40	0	579862528	46	5626
2026-01-04 00:39:05.18	171.50	20.34	-36.0	-36.9	24.2	0.00e+00	123	40	0	581959680	46	5492
2026-01-04 00:39:06.48	171.56	20.52	-35.9	-36.8	24.4	0.00e+00	122	40	0	586153984	46	5435
2026-01-04 00:39:07.20	171.59	20.61	-35.8	-36.7	24.5	0.00e+00	123	40	0	588251136	46	5356
2026-01-04 00:39:08.50	171.65	20.78	-35.7	-36.6	24.5	0.00e+00	123	40	0	592445440	44	5943
2026-01-04 00:39:09.22	171.69	20.88	-35.8	-36.7	24.4	0.00e+00	123	40	0	594542592	44	6016
2026-01-04 00:39:10.51	171.75	21.05	-36.0	-36.9	24.4	0.00e+00	123	40	0	598736896	44	6172
2026-01-04 00:39:11.23	171.79	21.15	-36.5	-37.4	24.4	0.00e+00	122	40	0	600834048	44	6499
2026-01-04 00:39:12.53	171.85	21.32	-36.2	-37.1	24.4	0.00e+00	123	40	0	605028352	44	6281
2026-01-04 00:39:13.25	171.89	21.42	-36.4	-37.3	24.5	0.00e+00	123	40	0	607125504	44	6475
2026-01-04 00:39:14.55	171.95	21.60	-36.2	-37.1	24.3	0.00e+00	123	40	0	611319808	44	6289
2026-01-04 00:39:15.27	171.99	21.70	-36.1	-37.0	24.5	0.00e+00	123	40	0	613416960	44	6249
2026-01-04 00:39:16.57	172.05	21.88	-35.8	-36.7	24.6	0.00e+00	122	40	0	617611264	44	6003
2026-01-04 00:39:17.29	172.09	21.98	-35.8	-36.8	24.5	0.00e+00	123	40	0	619708416	44	6068
2026-01-04 00:39:18.59	172.16	22.16	-35.4	-36.3	24.7	0.00e+00	120	40	0	623902720	44	5750
2026-01-04 00:39:19.31	172.20	22.26	-35.3	-36.2	24.7	0.00e+00	122	40	0	625999872	44	5671
2026-01-04 00:39:20.61	172.26	22.45	-35.6	-36.5	24.8	0.00e+00	123	40	0	630194176	44	5863
2026-01-04 00:39:21.33	172.30	22.55	-35.3	-36.2	24.8	0.00e+00	122	40	0	632291328	44	5674
2026-01-04 00:39:22.62	172.37	22.73	-35.2	-36.0	24.8	0.00e+00	123	40	0	636485632	44	5593
2026-01-04 00:39:23.35	172.41	22.84	-35.2	-36.0	24.8	0.00e+00	122	40	0	638582784	44	5593
2026-01-04 00:39:24.64	172.48	23.03	-35.5	-36.3	24.9	0.00e+00	122	40	0	642777088	44	5782
2026-01-04 00:39:25.36	172.52	23.13	-35.2	-36.1	24.9	0.00e+00	120	40	0	644874240	44	5619
2026-01-04 00:39:26.66	172.59	23.32	-35.0	-35.9	25.0	0.00e+00	122	40	0	649068544	44	5476
2026-01-04 00:39:27.38	172.63	23.43	-35.2	-36.1	24.9	0.00e+00	123	40	0	651165696	44	5650
2026-01-04 00:39:28.68	172.71	23.62	-34.8	-35.6	25.2	0.00e+00	123	40	0	655360000	42	5983
2026-01-04 00:39:29.40	172.75	23.72	-35.0	-35.8	25.1	0.00e+00	123	40	0	657457152	42	6117
2026-01-04 00:39:30.69	172.82	23.92	-34.8	-35.6	25.2	0.00e+00	122	40	0	661651456	42	5965
2026-01-04 00:39:31.41	172.87	24.03	-34.8	-35.7	25.1	0.00e+00	123	40	0	663748608	42	6000
2026-01-04 00:39:32.71	172.94	24.22	-34.6	-35.4	25.3	0.00e+00	122	40	0	667942912	42	5841
2026-01-04 00:39:33.43	172.98	24.33	-34.6	-35.5	25.3	0.00e+00	123	40	0	670040064	42	5889
2026-01-04 00:39:34.73	173.06	24.53	-34.7	-35.6	25.0	0.00e+00	120	40	0	674234368	42	5963
2026-01-04 00:39:35.46	173.11	24.64	-34.6	-35.5	25.1	0.00e+00	123	40	0	676331520	42	5881
2026-01-04 00:39:36.76	173.19	24.84	-34.8	-35.6	25.1	0.00e+00	123	40	0	680525824	42	5960
2026-01-04 00:39:37.48	173.23	24.96	-34.7	-35.5	25.1	0.00e+00	123	40	0	682622976	42	5923
2026-01-04 00:39:38.77	173.31	25.16	-34.8	-35.7	25.0	0.00e+00	122	40	0	686817280	42	6026
2026-01-04 00:39:39.49	173.35	25.27	-35.2	-36.0	24.9	0.00e+00	123	40	0	689963008	42	6251
2026-01-04 00:39:40.79	173.44	25.48	-35.3	-36.1	24.8	0.00e+00	120	40	0	693108736	42	6323
2026-01-04 00:39:41.51	173.48	25.59	-35.1	-36.0	24.9	0.00e+00	122	40	0	696254464	42	6259
2026-01-04 00:39:42.81	173.57	25.80	-35.3	-36.1	24.9	0.00e+00	123	40	0	699400192	42	6334
2026-01-04 00:39:43.53	173.61	25.91	-35.5	-36.3	24.7	0.00e+00	122	40	0	701497344	42	6491
2026-01-04 00:39:44.83	173.70	26.13	-35.4	-36.3	24.7	0.00e+00	122	40	0	705691648	42	6455
2026-01-04 00:39:45.55	173.75	26.24	-35.5	-36.4	24.7	0.00e+00	122	40	0	708837376	42	6518
2026-01-04 00:39:46.85	173.83	26.46	-35.7	-36.6	24.5	0.00e+00	116	40	0	711983104	42	6696
2026-01-04 00:39:47.57	173.88	26.57	-35.9	-36.8	24.3	0.00e+00	123	40	0	715128832	44	6081
2026-01-04 00:39:48.86	173.97	26.79	-35.6	-36.5	24.4	0.00e+00	123	40	0	718274560	44	5918
2026-01-04 00:39:49.58	174.02	26.91	-35.7	-36.5	24.5	0.00e+00	122	40	0	721420288	44	5913
2026-01-04 00:39:50.88	174.11	27.13	-35.8	-36.7	24.3	0.00e+00	123	40	0	724566016	44	6030
2026-01-04 00:39:51.60	174.16	27.25	-35.8	-36.7	24.3	0.00e+00	120	40	0	727711744	44	6018
2026-01-04 00:39:52.89	174.25	27.47	-35.9	-36.8	24.3	0.00e+00	122	40	0	730857472	44	6123
2026-01-04 00:39:53.61	174.30	27.59	-36.2	-37.1	24.1	0.00e+00	123	40	0	734003200	44	6306
2026-01-04 00:39:54.91	174.40	27.81	-36.6	-37.5	23.8	0.00e+00	122	40	0	737148928	44	6643
2026-01-04 00:39:55.63	174.45	27.94	-36.7	-37.6	23.8	0.00e+00	125	40	0	740294656	44	6664
2026-01-04 00:39:56.93	174.55	28.16	-36.8	-37.8	23.5	0.00e+00	122	40	0	743440384	46	6074
2026-01-04 00:39:57.65	174.60	28.29	-36.7	-37.7	23.7	0.00e+00	120	40	0	746586112	46	6001
2026-01-04 00:39:58.95	174.70	28.52	-36.5	-37.4	23.9	0.00e+00	122	40	0	750780416	46	5830
2026-01-04 00:39:59.67	174.76	28.65	-36.5	-37.4	23.8	0.00e+00	122	40	0	752877568	46	5833
2026-01-04 00:40:00.97	174.86	28.88	-36.3	-37.2	24.0	0.00e+00	123	40	0	756023296	46	5683
2026-01-04 00:40:01.69	174.91	29.01	-36.2	-37.1	24.0	0.00e+00	123	40	0	759169024	46	5648
2026-01-04 00:40:02.98	175.01	29.24	-36.1	-37.0	23.9	0.00e+00	123	40	0	762314752	46	5583
2026-01-04 00:40:03.71	175.07	29.37	-36.1	-37.0	23.8	0.00e+00	123	40	0	765460480	46	5571
2026-01-04 00:40:05.00	175.18	29.61	-35.9	-36.8	24.1	0.00e+00	123	40	0	769654784	46	5439
2026-01-04 00:40:05.72	175.23	29.74	-35.9	-36.9	24.0	0.00e+00	123	40	0	771751936	46	5478
2026-01-04 00:40:07.02	175.34	29.98	-35.5	-36.4	24.3	0.00e+00	122	40	0	775946240	44	5850
2026-01-04 00:40:07.74	175.40	30.12	-35.6	-36.5	24.3	0.00e+00	122	40	0	778043392	44	5862
2026-01-04 00:40:09.04	175.51	30.36	-35.5	-36.4	24.3	0.00e+00	123	40	0	782237696	44	5835
2026-01-04 00:40:09.76	175.57	30.50	-35.6	-36.5	24.4	0.00e+00	120	40	0	784334848	44	5872
2026-01-04 00:40:11.06	175.68	30.74	-35.9	-36.8	24.1	0.00e+00	122	40	0	788529152	44	6074
2026-01-04 00:40:11.78	175.75	30.88	-36.0	-37.0	24.1	0.00e+00	122	40	0	790626304	44	6216
2026-01-04 00:40:13.08	175.86	31.13	-35.9	-36.9	24.0	0.00e+00	123	40	0	794820608	44	6135
2026-01-04 00:40:13.80	175.93	31.27	-35.9	-36.8	24.1	0.00e+00	123	40	0	796917760	44	6121
2026-01-04 00:40:15.10	176.04	31.52	-36.1	-37.0	24.0	0.00e+00	122	40	0	801112064	44	6243
2026-01-04 00:40:15.82	176.11	31.66	-35.9	-36.8	24.1	0.00e+00	123	40	0	803209216	44	6089
2026-01-04 00:40:17.11	176.23	31.92	-35.9	-36.8	24.1	0.00e+00	121	40	0	807403520	44	6088
2026-01-04 00:40:17.84	176.30	32.06	-35.9	-36.8	24.0	0.00e+00	122	40	0	809500672	44	6128
2026-01-04 00:40:19.13	176.42	32.32	-36.2	-37.2	24.0	0.00e+00	122	40	0	813694976	44	6370
2026-01-04 00:40:19.86	176.49	32.46	-36.2	-37.2	23.9	0.00e+00	122	40	0	815792128	44	6366
2026-01-04 00:40:21.15	176.61	32.73	-36.2	-37.2	23.9	0.00e+00	121	40	0	819986432	44	6374
2026-01-04 00:40:21.87	176.68	32.87	-36.2	-37.1	24.0	0.00e+00	123	40	0	822083584	44	6311
2026-01-04 00:40:23.17	176.81	33.14	-36.1	-37.0	24.0	0.00e+00	123	40	0	826277888	44	6270
2026-01-04 00:40:23.89	176.89	33.29	-36.2	-37.1	24.0	0.00e+00	122	40	0	828375040	44	6336
2026-01-04 00:40:25.19	177.02	33.56	-36.7	-37.7	23.8	0.00e+00	122	40	0	832569344	44	6751
2026-01-04 00:40:25.91	177.09	33.71	-36.9	-37.9	23.7	0.00e+00	123	40	0	834666496	46	6163
2026-01-04 00:40:27.21	177.23	33.98	-37.1	-38.0	23.5	0.00e+00	123	40	0	838860800	46	6252
2026-01-04 00:40:27.93	177.30	34.13	-37.1	-38.1	23.4	0.00e+00	123	40	0	840957952	46	6290
2026-01-04 00:40:29.23	177.44	34.41	-37.2	-38.2	23.3	0.00e+00	123	40	0	845152256	46	6352
2026-01-04 00:40:29.95	177.52	34.56	-37.3	-38.3	23.3	0.00e+00	123	40	0	847249408	46	6448
2026-01-04 00:40:31.25	177.66	34.84	-37.4	-38.3	23.3	0.00e+00	122	40	0	851443712	46	6490
2026-01-04 00:40:31.97	177.74	35.00	-37.6	-38.6	23.0	0.00e+00	123	40	0	853540864	46	6682
2026-01-04 00:40:33.26	177.89	35.28	-37.8	-38.9	22.8	0.00e+00	123	40	0	857735168	48	6135
2026-01-04 00:40:33.98	177.97	35.44	-37.9	-38.9	22.8	0.00e+00	122	40	0	859832320	48	6151
2026-01-04 00:40:35.28	178.12	35.72	-37.7	-38.7	22.8	0.00e+00	120	40	0	864026624	48	6031
2026-01-04 00:40:36.00	178.20	35.88	-37.8	-38.8	22.7	0.00e+00	123	40	0	866123776	48	6107
2026-01-04 00:40:37.30	178.36	36.18	-38.0	-39.0	22.7	0.00e+00	121	40	0	870318080	48	6222
2026-01-04 00:40:38.02	178.44	36.34	-38.2	-39.2	22.8	0.00e+00	123	40	0	872415232	48	6384
2026-01-04 00:40:39.32	178.60	36.63	-38.6	-39.6	22.5	0.00e+00	123	40	0	876609536	48	6698
2026-01-04 00:40:40.04	178.69	36.80	-38.2	-39.2	22.5	0.00e+00	123	40	0	878706688	48	6407
2026-01-04 00:40:41.34	178.85	37.09	-38.5	-39.5	22.6	0.00e+00	122	40	0	882900992	48	6610
2026-01-04 00:40:42.06	178.95	37.26	-38.1	-39.1	22.8	0.00e+00	123	40	0	884998144	48	6324
2026-01-04 00:40:43.36	179.11	37.56	-38.1	-39.0	22.9	0.00e+00	120	40	0	889192448	48	6270
2026-01-04 00:40:44.08	179.21	37.73	-38.2	-39.2	22.6	0.00e+00	123	40	0	891289600	48	6370
2026-01-04 00:40:45.38	179.38	38.04	-38.3	-39.3	22.6	0.00e+00	120	40	0	895483904	48	6432
2026-01-04 00:40:46.10	179.48	38.21	-38.5	-39.5	22.5	0.00e+00	122	40	0	897581056	48	6629
2026-01-04 00:40:47.40	179.65	38.52	-38.4	-39.3	22.6	0.00e+00	123	40	0	901775360	48	6496
2026-01-04 00:40:48.11	179.75	38.69	-38.8	-39.8	22.6	0.00e+00	123	40	0	903872512	50	6083
2026-01-04 00:40:49.41	179.93	39.00	-38.5	-39.6	22.4	0.00e+00	123	40	0	908066816	50	5937
2026-01-04 00:40:50.13	180.04	39.18	-38.7	-39.7	22.4	0.00e+00	120	40	0	910163968	50	5997
2026-01-04 00:40:51.43	180.22	39.50	-38.4	-39.4	22.6	0.00e+00	122	40	0	914358272	50	5854
2026-01-04 00:40:52.15	180.33	39.68	-38.8	-39.8	22.4	0.00e+00	120	40	0	916455424	50	6098
2026-01-04 00:40:53.45	180.52	40.00	-38.4	-39.4	22.6	0.00e+00	122	40	0	920649728	50	5819
2026-01-04 00:40:54.17	180.63	40.18	-38.2	-39.2	22.6	0.00e+00	123	40	0	922746880	50	5702
2026-01-04 00:40:55.47	180.83	40.50	-38.3	-39.3	22.7	0.00e+00	123	40	0	926941184	50	5767
2026-01-04 00:40:56.19	180.94	40.69	-38.5	-39.5	22.7	0.00e+00	122	40	0	929038336	50	5879
2026-01-04 00:40:57.49	181.15	41.02	-38.2	-39.2	22.7	0.00e+00	121	40	0	933232640	50	5694
2026-01-04 00:40:58.21	181.26	41.20	-38.5	-39.5	22.4	0.00e+00	123	40	0	935329792	50	5900
2026-01-04 00:40:59.51	181.48	41.53	-38.6	-39.6	22.3	0.00e+00	123	40	0	939524096	50	5959
2026-01-04 00:41:00.23	181.59	41.72	-38.0	-38.9	22.8	0.00e+00	120	40	0	941621248	50	5520
2026-01-04 00:41:01.53	181.81	42.06	-38.1	-39.1	22.8	0.00e+00	122	40	0	945815552	50	5613
2026-01-04 00:41:02.25	181.94	42.25	-38.3	-39.3	22.6	0.00e+00	122	40	0	947912704	50	5756
2026-01-04 00:41:03.54	182.16	42.59	-38.5	-39.5	22.6	0.00e+00	123	40	0	952107008	50	5895
2026-01-04 00:41:04.26	182.29	42.78	-38.5	-39.5	22.5	0.00e+00	123	40	0	954204160	50	5909
2026-01-04 00:41:05.56	182.52	43.13	-38.8	-39.8	22.3	0.00e+00	122	40	0	958398464	50	6081
2026-01-04 00:41:06.28	182.65	43.32	-38.9	-40.0	22.1	0.00e+00	122	40	0	960495616	50	6228
2026-01-04 00:41:07.58	182.89	43.67	-38.9	-39.9	22.2	0.00e+00	120	40	0	964689920	50	6153
2026-01-04 00:41:08.30	183.03	43.87	-38.6	-39.6	22.3	0.00e+00	122	40	0	966787072	50	5945
2026-01-04 00:41:09.60	183.28	44.22	-38.6	-39.6	22.1	0.00e+00	120	40	0	970981376	50	5969
2026-01-04 00:41:10.32	183.42	44.42	-38.5	-39.5	22.0	0.00e+00	123	40	0	973078528	50	5888
2026-01-04 00:41:11.62	183.68	44.78	-38.7	-39.8	21.6	0.00e+00	123	40	0	977272832	50	6094
2026-01-04 00:41:12.34	183.82	44.98	-38.9	-40.0	21.4	0.00e+00	123	40	0	979369984	50	6208
2026-01-04 00:41:13.64	184.09	45.34	-39.1	-40.2	21.3	0.00e+00	120	40	0	983564288	50	6376
2026-01-04 00:41:14.36	184.24	45.54	-39.2	-40.3	21.5	0.00e+00	123	40	0	985661440	50	6473
2026-01-04 00:41:15.66	184.52	45.91	-39.2	-40.3	21.6	0.00e+00	121	40	0	989855744	50	6454
2026-01-04 00:41:16.38	184.67	46.12	-39.3	-40.3	21.4	0.00e+00	123	40	0	991952896	50	6492
2026-01-04 00:41:17.67	184.96	46.49	-38.7	-39.7	21.8	0.00e+00	123	40	0	996147200	50	6027
2026-01-04 00:41:18.39	185.12	46.69	-38.5	-39.5	21.9	0.00e+00	122	40	0	998244352	50	5906
2026-01-04 00:41:19.69	185.42	47.07	-38.4	-39.5	22.2	0.00e+00	120	40	0	1002438656	50	5874
2026-01-04 00:41:20.41	185.58	47.28	-38.5	-39.5	22.2	0.00e+00	123	40	0	1004535808	50	5889
2026-01-04 00:41:21.71	185.89	47.66	-38.2	-39.2	22.4	0.00e+00	120	40	0	1008730112	50	5704
2026-01-04 00:41:22.43	186.07	47.87	-38.0	-39.0	22.6	0.00e+00	123	41	0	1010827264	50	5586
2026-01-04 00:41:23.73	186.39	48.25	-38.2	-39.2	22.6	0.00e+00	123	41	0	1015021568	50	5713
2026-01-04 00:41:24.45	186.57	48.47	-38.3	-39.3	22.5	0.00e+00	123	40	0	1017118720	50	5727
2026-01-04 00:41:25.75	186.90	48.85	-38.2	-39.2	22.6	0.00e+00	122	40	0	1021313024	50	5681
2026-01-04 00:41:26.47	187.09	49.07	-37.9	-38.9	22.8	0.00e+00	120	40	0	1023410176	50	5506
2026-01-04 00:41:27.77	187.43	49.46	-38.0	-39.0	22.7	0.00e+00	122	40	0	1027604480	50	5545
2026-01-04 00:41:28.49	187.63	49.68	-38.0	-39.0	22.6	0.00e+00	120	40	0	1029701632	50	5584
2026-01-04 00:41:29.79	187.99	50.07	-38.0	-39.0	22.7	0.00e+00	123	40	0	1033895936	50	5541
2026-01-04 00:41:30.51	188.19	50.29	-38.3	-39.3	22.6	0.00e+00	120	40	0	1035993088	50	5778
2026-01-04 00:41:31.81	188.56	50.69	-38.8	-39.8	22.4	0.00e+00	123	40	0	1040187392	50	6118
2026-01-04 00:41:32.52	188.77	50.91	-38.4	-39.4	22.6	0.00e+00	120	40	0	1042284544	50	5818
2026-01-04 00:41:33.82	189.16	51.31	-38.3	-39.3	22.5	0.00e+00	122	40	0	1046478848	50	5737
2026-01-04 00:41:34.54	189.38	51.53	-38.4	-39.4	22.5	0.00e+00	123	40	0	1048576000	50	5825
2026-01-04 00:41:35.84	189.79	51.94	-37.7	-38.7	23.0	0.00e+00	122	40	0	1052770304	48	6023
2026-01-04 00:41:36.56	190.02	52.16	-37.5	-38.4	23.1	0.00e+00	123	40	0	1054867456	48	5845
2026-01-04 00:41:37.86	190.44	52.57	-37.3	-38.3	23.2	0.00e+00	123	40	0	1059061760	48	5757
2026-01-04 00:41:38.58	190.68	52.79	-37.3	-38.3	23.2	0.00e+00	122	40	0	1061158912	48	5760
2026-01-04 00:41:39.88	191.12	53.20	-37.4	-38.4	22.9	0.00e+00	123	40	0	1065353216	48	5799
2026-01-04 00:41:40.60	191.37	53.43	-37.1	-38.0	23.0	0.00e+00	120	40	0	1067450368	48	5594
2026-01-04 00:41:41.89	191.83	53.84	-36.8	-37.7	23.4	0.00e+00	122	40	0	1071644672	46	6037
2026-01-04 00:41:42.61	192.09	54.07	-36.8	-37.8	23.5	0.00e+00	120	40	0	1073741824	46	6095
2026-01-04 00:41:43.91	192.58	54.48	-37.5	-38.4	23.1	0.00e+00	123	40	0	1077936128	46	6569
2026-01-04 00:41:44.63	192.85	54.71	-37.6	-38.6	23.0	0.00e+00	122	41	0	1080033280	46	6720
2026-01-04 00:41:45.93	193.35	55.13	-37.4	-38.4	23.3	0.00e+00	122	40	0	1084227584	48	5858
2026-01-04 00:41:46.65	193.64	55.36	-36.7	-37.6	23.9	0.00e+00	122	40	0	1086324736	48	5338
2026-01-04 00:41:47.95	194.17	55.78	-36.7	-37.6	24.1	0.00e+00	122	40	0	1090519040	46	5948
2026-01-04 00:41:48.67	194.46	56.01	-36.3	-37.2	24.3	0.00e+00	123	40	0	1092616192	46	5698
2026-01-04 00:41:49.97	195.02	56.43	-36.3	-37.3	24.2	0.00e+00	122	40	0	1096810496	46	5726
2026-01-04 00:41:50.69	195.33	56.66	-36.3	-37.2	24.2	0.00e+00	123	40	0	1099956224	46	5708
2026-01-04 00:41:51.99	195.91	57.08	-36.0	-36.9	24.4	0.00e+00	120	40	0	1103101952	46	5528
2026-01-04 00:41:52.71	196.24	57.32	-35.9	-36.8	24.4	0.00e+00	122	40	0	1106247680	46	5413
2026-01-04 00:41:54.01	196.84	57.74	-35.7	-36.5	24.6	0.00e+00	120	40	0	1109393408	44	5917
2026-01-04 00:41:54.73	197.19	57.97	-35.9	-36.8	24.4	0.00e+00	123	40	0	1111490560	44	6077
2026-01-04 00:41:56.02	197.82	58.39	-35.9	-36.8	24.5	0.00e+00	120	40	0	1115684864	44	6083
2026-01-04 00:41:56.75	198.19	58.62	-35.9	-36.8	24.4	0.00e+00	122	41	0	1118830592	44	6127
2026-01-04 00:41:58.05	198.85	59.04	-35.9	-36.9	24.2	0.00e+00	122	41	0	1121976320	44	6141
2026-01-04 00:41:58.77	199.23	59.27	-36.0	-36.9	24.1	0.00e+00	122	41	0	1125122048	44	6161
2026-01-04 00:42:00.07	199.94	59.69	-36.2	-37.1	23.9	0.00e+00	120	41	0	1128267776	44	6327
2026-01-04 00:42:00.79	200.33	59.92	-36.3	-37.3	24.0	0.00e+00	123	40	0	1131413504	44	6428
2026-01-04 00:42:02.08	201.07	60.34	-36.2	-37.2	24.3	0.00e+00	123	40	0	1134559232	46	5667
2026-01-04 00:42:02.81	201.49	60.57	-35.9	-36.9	24.6	0.00e+00	123	40	0	1137704960	46	5487
2026-01-04 00:42:04.10	202.26	60.98	-36.0	-36.9	24.8	0.00e+00	122	40	0	1141899264	46	5492
2026-01-04 00:42:04.83	202.71	61.21	-36.0	-36.9	24.8	0.00e+00	122	40	0	1143996416	44	6176
2026-01-04 00:42:06.12	203.52	61.62	-35.5	-36.3	25.2	0.00e+00	123	41	0	1147142144	44	5769
2026-01-04 00:42:06.84	203.98	61.85	-35.3	-36.2	25.2	0.00e+00	122	40	0	1150287872	44	5667
2026-01-04 00:42:08.14	204.84	62.25	-35.5	-36.3	25.3	0.00e+00	123	40	0	1154482176	44	5776
2026-01-04 00:42:08.86	205.33	62.48	-35.3	-36.2	25.3	0.00e+00	123	41	0	1156579328	44	5674
2026-01-04 00:42:10.16	206.23	62.88	-35.1	-35.9	25.4	0.00e+00	123	40	0	1160773632	44	5517
2026-01-04 00:42:10.88	206.75	63.10	-35.2	-36.0	25.4	0.00e+00	121	40	0	1162870784	44	5589
2026-01-04 00:42:12.18	207.70	63.49	-34.9	-35.7	25.3	0.00e+00	123	40	0	1166016512	44	5396
2026-01-04 00:42:12.90	208.24	63.71	-35.0	-35.8	25.1	0.00e+00	122	41	0	1169162240	44	5441
2026-01-04 00:42:14.20	209.24	64.10	-34.9	-35.7	25.1	0.00e+00	123	40	0	1173356544	44	5401
2026-01-04 00:42:14.92	209.81	64.31	-34.9	-35.8	25.2	0.00e+00	123	40	0	1175453696	44	5422
2026-01-04 00:42:16.22	210.87	64.69	-35.0	-35.8	25.2	0.00e+00	123	40	0	1179648000	44	5432
2026-01-04 00:42:16.94	211.47	64.90	-35.1	-35.9	25.2	0.00e+00	123	41	0	1181745152	44	5523
2026-01-04 00:42:18.23	212.57	65.27	-34.7	-35.6	25.6	0.00e+00	123	40	0	1185939456	42	5929
2026-01-04 00:42:18.95	213.20	65.47	-34.6	-35.5	25.5	0.00e+00	122	40	0	1188036608	42	5879
2026-01-04 00:42:20.25	214.37	65.83	-34.6	-35.5	25.2	0.00e+00	122	40	0	1192230912	42	5884
2026-01-04 00:42:20.97	215.03	66.02	-35.5	-36.4	25.1	0.00e+00	123	40	0	1194328064	42	6500
2026-01-04 00:42:22.27	216.26	66.37	-35.2	-36.1	25.2	0.00e+00	122	40	0	1198522368	42	6304
2026-01-04 00:42:22.99	216.96	66.56	-34.8	-35.7	25.4	0.00e+00	123	40	0	1200619520	42	6001
2026-01-04 00:42:24.29	218.25	66.89	-34.6	-35.4	25.4	0.00e+00	122	40	0	1204813824	42	5830
2026-01-04 00:42:25.01	218.98	67.07	-34.8	-35.7	25.5	0.00e+00	123	40	0	1206910976	42	6002
2026-01-04 00:42:26.31	220.33	67.39	-35.1	-36.0	25.3	0.00e+00	120	40	0	1211105280	42	6210
2026-01-04 00:42:27.03	221.10	67.56	-35.1	-35.9	25.2	0.00e+00	123	41	0	1213202432	42	6203
2026-01-04 00:42:28.32	222.50	67.86	-34.8	-35.6	25.4	0.00e+00	120	40	0	1217396736	42	5970
2026-01-04 00:42:29.05	223.32	68.02	-34.6	-35.4	25.6	0.00e+00	123	40	0	1219493888	42	5854
2026-01-04 00:42:30.34	224.79	68.30	-34.6	-35.5	25.5	0.00e+00	120	40	0	1223688192	42	5887
2026-01-04 00:42:31.06	225.63	68.45	-34.4	-35.3	25.6	0.00e+00	123	41	0	1225785344	42	5746
2026-01-04 00:42:32.36	227.17	68.72	-34.5	-35.4	25.8	0.00e+00	120	40	0	1229979648	42	5792
2026-01-04 00:42:33.08	228.04	68.86	-34.4	-35.2	25.8	0.00e+00	122	41	0	1232076800	42	5705
2026-01-04 00:42:34.38	229.65	69.10	-34.5	-35.4	25.2	0.00e+00	120	40	0	1236271104	42	5797
2026-01-04 00:42:35.10	230.56	69.22	-35.1	-36.0	25.1	0.00e+00	123	40	0	1238368256	42	6236
2026-01-04 00:42:36.40	232.23	69.44	-35.3	-36.2	25.1	0.00e+00	123	40	0	1242562560	42	6393
2026-01-04 00:42:37.12	233.16	69.55	-35.3	-36.2	25.1	0.00e+00	123	40	0	1244659712	42	6396
2026-01-04 00:42:38.42	234.89	69.75	-35.5	-36.3	25.1	0.00e+00	120	40	0	1248854016	42	6462
2026-01-04 00:42:39.14	235.86	69.85	-36.3	-37.2	24.7	0.00e+00	123	40	0	1250951168	44	6415
2026-01-04 00:42:40.43	237.62	70.01	-36.1	-37.0	25.4	0.00e+00	122	40	0	1255145472	44	6231
2026-01-04 00:42:41.15	238.61	70.09	-35.5	-36.3	25.7	0.00e+00	123	40	0	1257242624	44	5733
2026-01-04 00:42:42.45	240.43	70.23	-34.9	-35.7	25.7	0.00e+00	123	41	0	1261436928	44	5393
2026-01-04 00:42:43.18	241.47	70.30	-34.8	-35.6	25.3	0.00e+00	120	40	0	1263534080	44	5332
2026-01-04 00:42:44.47	243.31	70.41	-34.6	-35.4	25.6	0.00e+00	122	40	0	1267728384	42	5848
2026-01-04 00:42:45.19	244.35	70.46	-35.9	-36.7	25.5	0.00e+00	120	41	0	1269825536	42	6781
2026-01-04 00:42:46.48	246.22	70.54	-35.0	-35.8	25.2	0.00e+00	122	41	0	1274019840	44	5442
2026-01-04 00:42:47.20	247.27	70.57	-35.5	-36.3	24.5	0.00e+00	120	40	0	1276116992	44	5785
2026-01-04 00:42:48.50	249.18	70.62	-36.7	-37.5	24.8	0.00e+00	123	40	0	1280311296	44	6646
2026-01-04 00:42:49.22	250.24	70.64	-35.4	-36.3	25.2	0.00e+00	123	41	0	1282408448	44	5744
2026-01-04 00:42:50.52	252.15	70.65	-35.5	-36.4	25.0	0.00e+00	123	40	0	1286602752	44	5804
2026-01-04 00:42:51.24	253.22	70.65	-35.5	-36.4	24.9	0.00e+00	120	40	0	1288699904	44	5805
2026-01-04 00:42:52.54	255.13	70.64	-36.0	-36.9	25.0	0.00e+00	120	40	0	1292894208	44	6141
2026-01-04 00:42:53.26	256.19	70.62	-35.6	-36.5	25.0	0.00e+00	122	40	0	1294991360	44	5905
2026-01-04 00:42:54.56	258.10	70.57	-35.6	-36.5	24.8	0.00e+00	122	40	0	1299185664	44	5873
2026-01-04 00:42:55.28	259.15	70.54	-35.9	-36.9	24.7	0.00e+00	122	41	0	1301282816	44	6143
2026-01-04 00:42:56.58	261.04	70.46	-36.2	-37.1	24.7	0.00e+00	123	41	0	1305477120	44	6337
2026-01-04 00:42:57.29	262.06	70.41	-36.2	-37.2	24.8	0.00e+00	123	40	0	1307574272	44	6361
2026-01-04 00:42:58.59	263.92	70.31	-35.8	-36.7	24.9	0.00e+00	123	41	0	1311768576	44	6044
2026-01-04 00:42:59.32	264.95	70.24	-36.0	-36.9	25.1	0.00e+00	123	40	0	1313865728	44	6191
2026-01-04 00:43:00.62	266.77	70.10	-35.3	-36.2	25.2	0.00e+00	122	41	0	1318060032	44	5685
2026-01-04 00:43:01.34	267.77	70.02	-35.1	-35.9	25.4	0.00e+00	123	40	0	1320157184	44	5517
2026-01-04 00:43:02.63	269.53	69.85	-35.6	-36.5	24.7	0.00e+00	123	41	0	1324351488	44	5862
2026-01-04 00:43:03.36	270.51	69.75	-36.2	-37.2	24.2	0.00e+00	123	41	0	1326448640	44	6356
2026-01-04 00:43:04.65	272.22	69.56	-37.1	-38.0	24.5	0.00e+00	123	40	0	1330642944	46	6222
2026-01-04 00:43:05.38	273.18	69.45	-37.1	-38.1	24.0	0.00e+00	123	40	0	1332740096	46	6305
2026-01-04 00:43:06.67	274.83	69.24	-35.9	-36.8	24.8	0.00e+00	122	40	0	1336934400	46	5420
2026-01-04 00:43:07.40	275.75	69.11	-35.7	-36.5	25.1	0.00e+00	123	40	0	1339031552	44	5912
2026-01-04 00:43:08.70	277.36	68.87	-35.8	-36.7	24.9	0.00e+00	122	40	0	1343225856	44	6053
2026-01-04 00:43:09.42	278.23	68.73	-35.7	-36.6	25.0	0.00e+00	122	40	0	1345323008	44	5940
2026-01-04 00:43:10.72	279.78	68.47	-35.4	-36.3	25.1	0.00e+00	123	41	0	1349517312	44	5752
2026-01-04 00:43:11.44	280.62	68.32	-35.1	-36.0	25.3	0.00e+00	123	41	0	1351614464	44	5542
2026-01-04 00:43:12.73	282.09	68.04	-35.0	-35.8	25.6	0.00e+00	123	40	0	1355808768	44	5463
2026-01-04 00:43:13.45	282.89	67.88	-35.1	-36.0	25.4	0.00e+00	123	41	0	1357905920	44	5535
2026-01-04 00:43:14.75	284.31	67.58	-34.7	-35.6	25.7	0.00e+00	122	41	0	1362100224	42	5927
2026-01-04 00:43:15.47	285.07	67.41	-34.8	-35.7	25.5	0.00e+00	127	41	0	1364197376	42	6022
2026-01-04 00:43:16.77	286.43	67.09	-35.4	-36.3	25.0	0.00e+00	123	40	0	1368391680	42	6489
2026-01-04 00:43:17.49	287.16	66.91	-35.4	-36.3	25.0	0.00e+00	122	41	0	1370488832	42	6445
2026-01-04 00:43:18.79	288.45	66.58	-35.2	-36.0	25.2	0.00e+00	120	41	0	1374683136	42	6264
2026-01-04 00:43:19.51	289.15	66.39	-34.8	-35.6	25.6	0.00e+00	123	41	0	1376780288	42	5977
2026-01-04 00:43:20.81	290.37	66.04	-34.3	-35.2	25.7	0.00e+00	122	41	0	1380974592	42	5685
2026-01-04 00:43:21.53	291.04	65.85	-34.4	-35.2	25.7	0.00e+00	122	40	0	1383071744	42	5697
2026-01-04 00:43:22.83	292.21	65.49	-34.8	-35.7	25.1	0.00e+00	123	41	0	1387266048	42	5999
2026-01-04 00:43:23.55	292.84	65.29	-35.3	-36.2	25.0	0.00e+00	122	41	0	1389363200	42	6361
2026-01-04 00:43:24.85	293.95	64.92	-35.2	-36.1	25.0	0.00e+00	123	41	0	1393557504	42	6308
2026-01-04 00:43:25.57	294.55	64.71	-34.4	-35.2	25.4	0.00e+00	122	41	0	1395654656	42	5712
2026-01-04 00:43:26.87	295.60	64.33	-34.4	-35.2	25.8	0.00e+00	122	41	0	1399848960	42	5709
2026-01-04 00:43:27.59	296.17	64.12	-34.7	-35.6	25.6	0.00e+00	123	41	0	1401946112	42	5935
2026-01-04 00:43:28.89	297.17	63.74	-35.2	-36.1	24.8	0.00e+00	122	41	0	1406140416	42	6304
2026-01-04 00:43:29.61	297.72	63.52	-35.9	-36.8	24.4	0.00e+00	122	41	0	1408237568	42	6879
2026-01-04 00:43:30.91	298.67	63.13	-35.8	-36.7	24.1	0.00e+00	123	41	0	1412431872	44	6043
2026-01-04 00:43:31.63	299.18	62.91	-35.2	-36.1	24.4	0.00e+00	123	41	0	1414529024	44	5600
2026-01-04 00:43:32.92	300.08	62.51	-34.8	-35.7	25.2	0.00e+00	123	41	0	1418723328	42	6001
2026-01-04 00:43:33.65	300.57	62.28	-34.9	-35.8	25.3	0.00e+00	122	41	0	1420820480	42	6073
2026-01-04 00:43:34.94	301.43	61.88	-35.3	-36.1	25.0	0.00e+00	122	41	0	1425014784	42	6343
2026-01-04 00:43:35.66	301.89	61.65	-35.8	-36.8	24.5	0.00e+00	120	41	0	1427111936	44	6066
2026-01-04 00:43:36.96	302.71	61.25	-36.7	-37.6	24.0	0.00e+00	122	41	0	1431306240	46	5984
2026-01-04 00:43:37.68	303.15	61.02	-36.5	-37.5	23.8	0.00e+00	122	41	0	1433403392	46	5863
2026-01-04 00:43:38.98	303.92	60.61	-35.6	-36.5	24.5	0.00e+00	123	40	0	1437597696	46	5272
2026-01-04 00:43:39.70	304.34	60.38	-35.4	-36.2	24.8	0.00e+00	122	41	0	1439694848	44	5717
2026-01-04 00:43:40.99	305.07	59.96	-35.9	-36.8	25.0	0.00e+00	122	41	0	1443889152	44	6119
2026-01-04 00:43:41.71	305.47	59.73	-35.8	-36.7	24.8	0.00e+00	122	41	0	1445986304	44	6006
2026-01-04 00:43:43.01	306.18	59.32	-36.4	-37.3	24.1	0.00e+00	122	41	0	1450180608	44	6475
2026-01-04 00:43:43.73	306.56	59.09	-37.4	-38.4	23.5	0.00e+00	123	41	0	1452277760	46	6510
2026-01-04 00:43:45.03	307.22	58.67	-38.3	-39.4	22.4	0.00e+00	123	41	0	1456472064	48	6522
2026-01-04 00:43:45.75	307.59	58.44	-37.3	-38.3	22.5	0.00e+00	120	41	0	1458569216	48	5775
2026-01-04 00:43:47.05	308.22	58.02	-35.8	-36.8	23.3	0.00e+00	123	41	0	1462763520	46	5409
2026-01-04 00:43:47.77	308.57	57.78	-35.7	-36.6	24.0	0.00e+00	123	41	0	1464860672	44	5989
2026-01-04 00:43:49.07	309.17	57.36	-35.1	-35.9	25.3	0.00e+00	122	41	0	1469054976	44	5507
2026-01-04 00:43:49.79	309.50	57.13	-35.2	-36.1	25.3	0.00e+00	122	41	0	1472200704	44	5625
2026-01-04 00:43:51.09	310.08	56.71	-37.1	-38.0	24.1	0.00e+00	123	40	0	1475346432	46	6248
2026-01-04 00:43:51.81	310.39	56.48	-36.9	-37.8	23.9	0.00e+00	122	41	0	1477443584	46	6126
2026-01-04 00:43:53.11	310.95	56.06	-37.3	-38.3	22.8	0.00e+00	122	41	0	1481637888	46	6484
2026-01-04 00:43:53.83	311.25	55.83	-37.2	-38.3	21.9	0.00e+00	123	41	0	1483735040	46	6457
2026-01-04 00:43:55.13	311.77	55.42	-37.0	-38.1	22.3	0.00e+00	123	41	0	1487929344	46	6327
2026-01-04 00:43:55.85	312.06	55.19	-36.7	-37.6	23.1	0.00e+00	123	41	0	1491075072	46	5988
2026-01-04 00:43:57.15	312.56	54.77	-35.5	-36.4	24.2	0.00e+00	122	41	0	1494220800	44	5824
2026-01-04 00:43:57.87	312.84	54.54	-35.9	-36.7	24.6	0.00e+00	122	40	0	1497366528	44	6064
2026-01-04 00:43:59.16	313.32	54.13	-37.0	-37.9	24.0	0.00e+00	122	41	0	1500512256	46	6194
2026-01-04 00:43:59.88	313.58	53.90	-37.7	-38.7	23.3	0.00e+00	123	40	0	1502609408	46	6743
2026-01-04 00:44:01.18	314.04	53.49	-38.5	-39.5	22.6	0.00e+00	123	40	0	1506803712	48	6637
2026-01-04 00:44:01.90	314.29	53.27	-38.5	-39.6	21.8	0.00e+00	122	40	0	1509949440	48	6674
2026-01-04 00:44:03.20	314.73	52.86	-38.4	-39.6	21.0	0.00e+00	122	41	0	1513095168	50	5979
2026-01-04 00:44:03.92	314.97	52.63	-37.9	-39.1	21.5	0.00e+00	123	41	0	1516240896	50	5621
2026-01-04 00:44:05.22	315.39	52.23	-36.9	-37.9	23.4	0.00e+00	122	41	0	1519386624	48	5483
2026-01-04 00:44:05.94	315.62	52.00	-36.3	-37.3	23.9	0.00e+00	123	41	0	1522532352	46	5730
2026-01-04 00:44:07.24	316.03	51.60	-36.8	-37.7	23.8	0.00e+00	122	41	0	1526726656	46	6053
2026-01-04 00:44:07.96	316.25	51.38	-36.9	-37.9	23.7	0.00e+00	123	41	0	1528823808	46	6166
2026-01-04 00:44:09.26	316.64	50.98	-38.0	-39.0	22.9	0.00e+00	123	41	0	1531969536	48	6221
2026-01-04 00:44:09.98	316.85	50.76	-38.8	-39.9	22.3	0.00e+00	122	41	0	1535115264	48	6893
2026-01-04 00:44:11.27	317.22	50.36	-40.2	-41.5	20.7	0.00e+00	122	41	0	1538260992	52	6606
2026-01-04 00:44:12.00	317.43	50.14	-40.6	-41.9	20.2	0.00e+00	123	41	0	1541406720	52	6960
2026-01-04 00:44:13.29	317.79	49.75	-40.6	-41.9	19.9	0.00e+00	123	41	0	1545601024	54	6185
2026-01-04 00:44:14.02	317.99	49.53	-40.4	-41.8	19.7	0.00e+00	123	40	0	1547698176	54	6081
2026-01-04 00:44:15.31	318.33	49.14	-38.7	-39.8	21.7	0.00e+00	123	41	0	1551892480	50	6112
2026-01-04 00:44:16.04	318.52	48.93	-38.4	-39.4	22.1	0.00e+00	121	41	0	1553989632	50	5841
2026-01-04 00:44:17.33	318.85	48.54	-38.0	-39.0	22.5	0.00e+00	122	41	0	1557135360	50	5551
2026-01-04 00:44:18.06	319.03	48.33	-38.2	-39.2	22.8	0.00e+00	122	41	0	1560281088	50	5719
2026-01-04 00:44:19.35	319.35	47.95	-37.9	-38.8	23.2	0.00e+00	123	41	0	1564475392	50	5447
2026-01-04 00:44:20.08	319.53	47.74	-37.6	-38.5	23.3	0.00e+00	123	40	0	1566572544	48	5923
2026-01-04 00:44:21.37	319.83	47.36	-38.2	-39.2	22.8	0.00e+00	122	41	0	1570766848	48	6367
2026-01-04 00:44:22.10	320.00	47.15	-38.5	-39.5	22.6	0.00e+00	123	41	0	1572864000	48	6599
2026-01-04 00:44:23.39	320.30	46.78	-39.4	-40.5	21.7	0.00e+00	122	41	0	1577058304	50	6603
2026-01-04 00:44:24.12	320.46	46.57	-39.4	-40.6	21.7	0.00e+00	123	40	0	1579155456	50	6650
2026-01-04 00:44:25.41	320.75	46.20	-39.4	-40.6	21.5	0.00e+00	123	41	0	1583349760	50	6660
2026-01-04 00:44:26.14	320.91	45.99	-39.1	-40.2	21.7	0.00e+00	122	41	0	1585446912	50	6407
2026-01-04 00:44:27.43	321.18	45.63	-39.0	-40.0	21.9	0.00e+00	122	41	0	1589641216	50	6248
2026-01-04 00:44:28.15	321.33	45.43	-38.8	-39.8	22.0	0.00e+00	122	41	0	1591738368	50	6133
2026-01-04 00:44:29.45	321.60	45.07	-38.7	-39.7	22.0	0.00e+00	123	41	0	1595932672	50	6043
2026-01-04 00:44:30.18	321.75	44.86	-38.7	-39.7	22.2	0.00e+00	123	40	0	1598029824	50	6019
2026-01-04 00:44:31.48	322.00	44.51	-39.0	-40.0	21.8	0.00e+00	122	41	0	1602224128	50	6235
2026-01-04 00:44:32.20	322.15	44.31	-39.3	-40.4	21.3	0.00e+00	123	41	0	1604321280	50	6534
2026-01-04 00:44:33.49	322.39	43.96	-40.1	-41.3	20.8	0.00e+00	122	41	0	1608515584	52	6444
2026-01-04 00:44:34.22	322.53	43.76	-40.3	-41.5	20.9	0.00e+00	123	41	0	1610612736	52	6586
2026-01-04 00:44:35.51	322.77	43.41	-39.9	-41.0	21.3	0.00e+00	123	41	0	1614807040	52	6269
2026-01-04 00:44:36.24	322.90	43.22	-39.5	-40.6	21.6	0.00e+00	123	41	0	1616904192	52	5937
2026-01-04 00:44:37.53	323.14	42.87	-38.6	-39.6	22.3	0.00e+00	123	41	0	1621098496	50	5958
2026-01-04 00:44:38.25	323.26	42.68	-38.9	-39.9	22.4	0.00e+00	122	40	0	1623195648	50	6150
2026-01-04 00:44:39.55	323.49	42.34	-39.0	-40.1	22.2	0.00e+00	123	41	0	1627389952	50	6297
2026-01-04 00:44:40.27	323.61	42.15	-40.3	-41.3	21.7	0.00e+00	123	41	0	1629487104	52	6484
2026-01-04 00:44:41.57	323.83	41.82	-40.0	-41.1	21.7	0.00e+00	123	41	0	1633681408	52	6288
2026-01-04 00:44:42.29	323.95	41.63	-39.5	-40.6	22.0	0.00e+00	122	41	0	1635778560	52	5950
2026-01-04 00:44:43.58	324.16	41.30	-39.3	-40.4	21.8	0.00e+00	122	41	0	1639972864	52	5817
2026-01-04 00:44:44.31	324.28	41.11	-39.7	-40.8	21.9	0.00e+00	122	41	0	1642070016	52	6094
2026-01-04 00:44:45.60	324.48	40.79	-40.5	-41.6	22.1	0.00e+00	123	41	0	1646264320	52	6677
2026-01-04 00:44:46.33	324.60	40.60	-41.2	-42.3	21.0	0.00e+00	123	40	0	1648361472	54	6474
2026-01-04 00:44:47.63	324.80	40.28	-40.9	-42.1	21.3	0.00e+00	123	41	0	1652555776	54	6281
2026-01-04 00:44:48.35	324.90	40.10	-41.3	-42.5	20.8	0.00e+00	118	41	0	1654652928	56	5889
2026-01-04 00:44:49.65	325.10	39.78	-40.4	-41.5	21.6	0.00e+00	123	41	0	1658847232	54	5895
2026-01-04 00:44:50.37	325.20	39.60	-40.3	-41.5	21.4	0.00e+00	122	40	0	1660944384	54	5874
2026-01-04 00:44:51.66	325.39	39.29	-40.6	-41.6	21.3	0.00e+00	123	41	0	1665138688	54	5988
2026-01-04 00:44:52.38	325.49	39.11	-40.3	-41.4	21.4	0.00e+00	123	41	0	1667235840	54	5853
2026-01-04 00:44:53.68	325.68	38.80	-39.8	-40.9	22.1	0.00e+00	123	41	0	1671430144	52	6166
2026-01-04 00:44:54.40	325.78	38.63	-39.3	-40.3	22.4	0.00e+00	122	40	0	1673527296	52	5733
2026-01-04 00:44:55.69	325.95	38.32	-38.9	-39.9	23.0	0.00e+00	122	41	0	1677721600	52	5489
2026-01-04 00:44:56.41	326.05	38.15	-38.6	-39.5	23.0	0.00e+00	123	41	0	1679818752	50	5892
2026-01-04 00:44:57.71	326.22	37.85	-38.2	-39.2	23.2	0.00e+00	123	41	0	1684013056	50	5684
2026-01-04 00:44:58.43	326.32	37.68	-37.9	-38.8	23.3	0.00e+00	122	41	0	1686110208	50	5442
2026-01-04 00:44:59.73	326.48	37.38	-38.1	-39.1	23.0	0.00e+00	120	41	0	1690304512	50	5628
2026-01-04 00:45:00.45	326.57	37.21	-38.4	-39.4	22.7	0.00e+00	122	41	0	1692401664	50	5818
2026-01-04 00:45:01.75	326.74	36.91	-38.4	-39.4	23.1	0.00e+00	122	41	0	1696595968	50	5795
2026-01-04 00:45:02.47	326.83	36.75	-38.0	-38.9	23.3	0.00e+00	120	41	0	1698693120	50	5506
2026-01-04 00:45:03.77	326.99	36.46	-37.9	-38.8	23.5	0.00e+00	122	41	0	1702887424	48	6120
2026-01-04 00:45:04.49	327.07	36.29	-37.8	-38.7	23.5	0.00e+00	123	41	0	1704984576	48	6064
2026-01-04 00:45:05.79	327.23	36.00	-37.8	-38.8	23.2	0.00e+00	122	41	0	1709178880	48	6087
2026-01-04 00:45:06.51	327.31	35.84	-37.8	-38.7	23.3	0.00e+00	122	41	0	1711276032	48	6037
2026-01-04 00:45:07.80	327.46	35.56	-38.0	-38.9	23.1	0.00e+00	123	41	0	1715470336	48	6187
2026-01-04 00:45:08.53	327.54	35.40	-37.9	-38.9	23.1	0.00e+00	123	41	0	1717567488	48	6141
2026-01-04 00:45:09.82	327.69	35.12	-38.1	-39.1	22.6	0.00e+00	123	41	0	1721761792	48	6325
2026-01-04 00:45:10.55	327.77	34.96	-38.4	-39.4	22.6	0.00e+00	123	41	0	1723858944	48	6522
2026-01-04 00:45:11.84	327.91	34.69	-38.8	-39.9	21.7	0.00e+00	123	41	0	1728053248	48	6888
2026-01-04 00:45:12.57	327.99	34.53	-39.2	-40.4	21.7	0.00e+00	122	41	0	1730150400	50	6499
2026-01-04 00:45:13.86	328.13	34.26	-39.3	-40.3	20.8	0.00e+00	123	41	0	1734344704	50	6498
2026-01-04 00:45:14.58	328.21	34.10	-39.2	-40.2	20.9	0.00e+00	123	41	0	1736441856	50	6406
2026-01-04 00:45:15.88	328.34	33.83	-38.6	-39.6	21.5	0.00e+00	120	41	0	1740636160	50	5964
2026-01-04 00:45:16.60	328.42	33.68	-37.9	-38.9	22.4	0.00e+00	123	41	0	1742733312	50	5494
2026-01-04 00:45:17.90	328.55	33.41	-37.5	-38.5	22.8	0.00e+00	120	41	0	1746927616	48	5895
2026-01-04 00:45:18.62	328.62	33.27	-37.6	-38.5	23.0	0.00e+00	123	41	0	1749024768	48	5912
2026-01-04 00:45:19.91	328.75	33.00	-36.9	-37.8	23.5	0.00e+00	120	41	0	1753219072	48	5432
2026-01-04 00:45:20.63	328.82	32.86	-37.3	-38.2	23.9	0.00e+00	123	41	0	1755316224	46	6376
2026-01-04 00:45:21.93	328.95	32.60	-36.9	-37.8	23.4	0.00e+00	120	41	0	1759510528	46	6077
2026-01-04 00:45:22.65	329.02	32.45	-37.0	-37.9	23.5	0.00e+00	122	41	0	1761607680	46	6159
2026-01-04 00:45:23.95	329.14	32.19	-36.8	-37.7	24.3	0.00e+00	120	41	0	1765801984	46	6027
2026-01-04 00:45:24.68	329.21	32.05	-37.0	-37.9	24.4	0.00e+00	123	41	0	1767899136	46	6180
2026-01-04 00:45:25.98	329.33	31.79	-37.1	-38.1	24.5	0.00e+00	120	41	0	1772093440	46	6280
2026-01-04 00:45:26.70	329.40	31.65	-37.2	-38.1	24.5	0.00e+00	123	40	0	1774190592	46	6290
2026-01-04 00:45:27.99	329.51	31.40	-37.4	-38.3	24.5	0.00e+00	120	41	0	1778384896	46	6457
2026-01-04 00:45:28.71	329.58	31.27	-36.8	-37.7	24.3	0.00e+00	123	41	0	1780482048	46	6011
2026-01-04 00:45:30.01	329.69	31.02	-36.8	-37.7	24.2	0.00e+00	123	41	0	1784676352	46	6041
2026-01-04 00:45:30.73	329.76	30.88	-37.4	-38.2	24.3	0.00e+00	123	41	0	1786773504	46	6423
2026-01-04 00:45:32.03	329.87	30.63	-37.6	-38.5	24.2	0.00e+00	123	41	0	1790967808	46	6581
2026-01-04 00:45:32.75	329.93	30.50	-37.7	-38.6	24.1	0.00e+00	122	41	0	1793064960	48	5939
2026-01-04 00:45:34.05	330.04	30.26	-37.6	-38.5	23.9	0.00e+00	122	41	0	1797259264	48	5905
2026-01-04 00:45:34.77	330.10	30.12	-37.8	-38.7	23.8	0.00e+00	120	41	0	1799356416	48	6051
2026-01-04 00:45:36.07	330.21	29.88	-38.0	-39.0	23.5	0.00e+00	123	41	0	1803550720	48	6230
2026-01-04 00:45:36.79	330.27	29.75	-37.7	-38.7	23.5	0.00e+00	122	41	0	1805647872	48	6016
2026-01-04 00:45:38.09	330.37	29.51	-38.0	-39.0	23.4	0.00e+00	123	41	0	1809842176	48	6235
2026-01-04 00:45:38.81	330.43	29.38	-37.3	-38.3	23.8	0.00e+00	123	41	0	1811939328	48	5736
2026-01-04 00:45:40.10	330.53	29.15	-37.7	-38.7	23.7	0.00e+00	123	41	0	1816133632	48	6003
2026-01-04 00:45:40.83	330.59	29.02	-38.2	-39.1	23.5	0.00e+00	123	41	0	1818230784	48	6347
2026-01-04 00:45:42.12	330.69	28.79	-37.9	-38.8	23.5	0.00e+00	120	41	0	1822425088	48	6132
2026-01-04 00:45:42.85	330.75	28.66	-37.9	-38.9	23.6	0.00e+00	123	41	0	1824522240	48	6182
2026-01-04 00:45:44.14	330.84	28.44	-37.4	-38.4	23.6	0.00e+00	122	41	0	1828716544	48	5823
2026-01-04 00:45:44.86	330.90	28.31	-37.4	-38.3	23.7	0.00e+00	123	41	0	1830813696	48	5774
2026-01-04 00:45:46.16	330.99	28.08	-37.5	-38.5	23.7	0.00e+00	123	41	0	1835008000	48	5898
2026-01-04 00:45:46.88	331.05	27.96	-37.0	-38.0	23.8	0.00e+00	122	40	0	1837105152	48	5540
2026-01-04 00:45:48.18	331.14	27.74	-36.9	-37.9	23.8	0.00e+00	123	41	0	1841299456	48	5491
2026-01-04 00:45:48.90	331.19	27.62	-37.3	-38.2	23.8	0.00e+00	122	40	0	1843396608	48	5700
2026-01-04 00:45:50.20	331.29	27.40	-37.4	-38.3	23.7	0.00e+00	123	41	0	1847590912	48	5776
2026-01-04 00:45:50.92	331.34	27.27	-37.3	-38.2	24.1	0.00e+00	123	41	0	1849688064	48	5703
2026-01-04 00:45:52.22	331.43	27.06	-36.7	-37.6	24.2	0.00e+00	120	40	0	1853882368	46	5956
2026-01-04 00:45:52.94	331.48	26.94	-36.8	-37.7	24.1	0.00e+00	122	41	0	1855979520	46	6041
2026-01-04 00:45:54.23	331.57	26.72	-36.7	-37.5	24.6	0.00e+00	123	41	0	1860173824	46	5905
2026-01-04 00:45:54.95	331.62	26.61	-36.2	-37.0	24.6	0.00e+00	122	41	0	1862270976	46	5587
2026-01-04 00:45:56.25	331.70	26.39	-35.8	-36.6	24.7	0.00e+00	123	41	0	1866465280	46	5333
2026-01-04 00:45:56.98	331.75	26.27	-35.6	-36.5	24.8	0.00e+00	123	41	0	1868562432	44	5888
2026-01-04 00:45:58.27	331.84	26.07	-35.3	-36.1	24.9	0.00e+00	120	40	0	1872756736	44	5648
2026-01-04 00:45:58.99	331.89	25.95	-35.3	-36.1	24.9	0.00e+00	123	41	0	1875902464	44	5647
2026-01-04 00:46:00.29	331.97	25.74	-35.1	-36.0	25.0	0.00e+00	123	41	0	1879048192	44	5546
2026-01-04 00:46:01.01	332.02	25.63	-35.3	-36.1	25.0	0.00e+00	122	41	0	1882193920	44	5651
2026-01-04 00:46:02.31	332.10	25.42	-35.5	-36.3	24.9	0.00e+00	122	41	0	1885339648	44	5768
2026-01-04 00:46:03.03	332.14	25.31	-35.8	-36.7	24.9	0.00e+00	120	41	0	1887436800	44	6011
2026-01-04 00:46:04.33	332.23	25.11	-35.9	-36.7	24.7	0.00e+00	123	41	0	1891631104	44	6060
2026-01-04 00:46:05.05	332.27	25.00	-36.0	-36.8	24.8	0.00e+00	120	41	0	1894776832	44	6134
2026-01-04 00:46:06.35	332.35	24.80	-36.1	-36.9	24.8	0.00e+00	123	41	0	1897922560	44	6191
2026-01-04 00:46:07.07	332.39	24.69	-35.8	-36.7	24.7	0.00e+00	121	41	0	1901068288	44	6043
2026-01-04 00:46:08.37	332.47	24.49	-35.9	-36.8	24.7	0.00e+00	123	41	0	1904214016	44	6089
2026-01-04 00:46:09.09	332.51	24.38	-36.5	-37.4	24.7	0.00e+00	120	41	0	1907359744	44	6515
2026-01-04 00:46:10.39	332.59	24.18	-36.0	-36.9	24.8	0.00e+00	123	41	0	1911554048	44	6135
2026-01-04 00:46:11.11	332.63	24.08	-35.8	-36.7	24.8	0.00e+00	120	41	0	1913651200	44	6043
2026-01-04 00:46:12.41	332.71	23.88	-35.8	-36.7	24.7	0.00e+00	123	41	0	1916796928	44	6044
2026-01-04 00:46:13.13	332.75	23.77	-35.9	-36.7	24.7	0.00e+00	123	41	0	1919942656	44	6060
2026-01-04 00:46:14.43	332.83	23.58	-36.0	-36.9	24.7	0.00e+00	122	41	0	1923088384	44	6157
2026-01-04 00:46:15.15	332.87	23.48	-36.0	-36.8	24.5	0.00e+00	123	41	0	1926234112	44	6123
2026-01-04 00:46:16.45	332.94	23.29	-36.3	-37.2	24.4	0.00e+00	122	41	0	1930428416	44	6369
2026-01-04 00:46:17.17	332.98	23.18	-36.2	-37.1	24.5	0.00e+00	121	41	0	1932525568	44	6301
2026-01-04 00:46:18.47	333.05	23.00	-36.6	-37.5	24.4	0.00e+00	123	41	0	1936719872	44	6576
2026-01-04 00:46:19.19	333.09	22.89	-36.2	-37.1	24.3	0.00e+00	121	41	0	1938817024	44	6340
2026-01-04 00:46:20.48	333.16	22.71	-36.4	-37.3	24.2	0.00e+00	122	41	0	1941962752	44	6470
2026-01-04 00:46:21.20	333.20	22.61	-36.3	-37.2	24.4	0.00e+00	123	41	0	1945108480	44	6368
2026-01-04 00:46:22.50	333.27	22.42	-36.2	-37.1	24.2	0.00e+00	122	41	0	1949302784	44	6295
2026-01-04 00:46:23.23	333.31	22.32	-36.1	-37.0	24.3	0.00e+00	121	41	0	1951399936	44	6218
2026-01-04 00:46:24.52	333.37	22.14	-36.1	-37.0	24.3	0.00e+00	123	41	0	1955594240	44	6233
