passes_logs/2026/01/04/R4.6S_Anadyr/R4.6S_Anadyr__20260104_013852_AQUA_rec.log

#Pass ID: 20260104_013852_AQUA
#Satellite: AQUA
#Configuration: AQUA
#almurnet v.1.7.20251203
#Start time: 2026-01-04 01:38:56

#Version: 2.2.20231116
#Station: R4.6S_Anadyr
#Location: 177.4865 lon 64.73178 lat
#TLE: 1 27424U 02022A   25365.92641127  .00002078  00000+0  42628-3 0  9999
#TLE: 2 27424  98.4058 327.1196 0001962  94.7781 340.6230 14.61783896258835

#Time	Az	El	Level	Level2	SNR	BER	BlckErr	Temp	State	Recorded	gain1	gain2
2026-01-04 01:38:56.17	149.14	0.22	-51.5	-67.8	3.3	3.02e+01	0	38	0	0	60	94658
2026-01-04 01:38:57.17	149.13	0.28	-50.8	-68.6	3.5	3.02e+01	0	39	104	0	60	103325
2026-01-04 01:38:58.18	149.12	0.34	-50.8	-68.6	3.5	3.02e+01	0	39	104	0	60	103708
2026-01-04 01:38:59.19	149.12	0.40	-50.6	-68.5	3.5	3.02e+01	0	39	104	0	60	102218
2026-01-04 01:39:00.20	149.11	0.47	-50.5	-68.4	3.5	3.02e+01	0	39	104	0	60	100850
2026-01-04 01:39:01.21	149.10	0.53	-50.4	-68.3	3.5	3.02e+01	0	39	104	0	60	100012
2026-01-04 01:39:02.22	149.09	0.59	-50.0	-68.1	3.5	3.02e+01	0	39	104	0	60	98184
2026-01-04 01:39:03.23	149.09	0.66	-50.0	-67.9	3.5	3.02e+01	0	39	104	0	60	96034
2026-01-04 01:39:04.24	149.08	0.72	-49.9	-67.8	3.5	3.02e+01	0	39	104	0	60	94590
2026-01-04 01:39:05.25	149.07	0.79	-49.7	-67.6	3.5	3.02e+01	0	39	104	0	60	92380
2026-01-04 01:39:06.26	149.06	0.85	-49.7	-67.6	3.5	3.02e+01	0	39	104	0	60	92075
2026-01-04 01:39:07.27	149.06	0.91	-49.5	-67.5	3.5	3.02e+01	0	39	104	0	60	91061
2026-01-04 01:39:08.28	149.05	0.98	-49.0	-66.9	3.5	3.02e+01	0	39	104	0	60	85297
2026-01-04 01:39:09.29	149.04	1.04	-48.7	-66.7	3.5	3.02e+01	0	39	104	0	60	83583
2026-01-04 01:39:10.29	149.03	1.11	-48.7	-66.7	3.5	3.02e+01	0	39	104	0	60	83609
2026-01-04 01:39:11.30	149.02	1.17	-48.7	-66.7	3.5	3.02e+01	0	39	104	0	60	83294
2026-01-04 01:39:12.32	149.02	1.24	-48.7	-66.7	3.5	3.02e+01	0	39	104	0	60	83169
2026-01-04 01:39:13.33	149.01	1.30	-48.7	-66.6	3.5	3.02e+01	0	39	104	0	60	82318
2026-01-04 01:39:14.33	149.00	1.37	-48.7	-66.4	3.5	3.02e+01	0	39	104	0	60	80719
2026-01-04 01:39:15.34	148.99	1.44	-48.7	-66.3	3.5	3.02e+01	0	39	104	0	60	79729
2026-01-04 01:39:16.35	148.98	1.50	-48.7	-66.2	3.5	3.02e+01	0	39	104	0	60	78770
2026-01-04 01:39:17.36	148.97	1.57	-48.7	-66.1	3.5	3.02e+01	0	39	104	0	60	78069
2026-01-04 01:39:18.37	148.97	1.63	-48.7	-66.1	3.5	3.02e+01	0	39	104	0	60	77955
2026-01-04 01:39:19.38	148.96	1.70	-48.7	-66.0	3.5	3.02e+01	0	39	104	0	60	76803
2026-01-04 01:39:20.39	148.95	1.77	-48.7	-66.0	3.5	3.02e+01	0	39	104	0	60	76546
2026-01-04 01:39:21.40	148.94	1.83	-48.7	-65.9	3.5	3.02e+01	0	39	104	0	60	76326
2026-01-04 01:39:22.41	148.93	1.90	-48.7	-65.8	3.5	3.02e+01	0	39	104	0	60	75060
2026-01-04 01:39:23.42	148.92	1.97	-48.7	-65.9	3.5	3.02e+01	0	39	104	0	60	76058
2026-01-04 01:39:24.43	148.91	2.03	-48.7	-66.5	3.5	3.02e+01	0	39	104	0	60	81787
2026-01-04 01:39:25.44	148.90	2.10	-48.7	-66.7	3.5	3.02e+01	0	39	104	0	60	83155
2026-01-04 01:39:26.45	148.90	2.17	-48.7	-66.8	3.5	3.02e+01	0	39	104	0	60	83741
2026-01-04 01:39:27.46	148.89	2.24	-48.8	-66.9	3.5	3.02e+01	0	39	104	0	60	85062
2026-01-04 01:39:28.47	148.88	2.30	-48.8	-66.7	3.5	3.02e+01	0	39	104	0	60	83371
2026-01-04 01:39:29.48	148.87	2.37	-48.8	-66.7	3.5	3.02e+01	0	39	104	0	60	82795
2026-01-04 01:39:30.49	148.86	2.44	-48.8	-66.6	3.5	3.02e+01	0	39	104	0	60	82209
2026-01-04 01:39:31.50	148.85	2.51	-48.7	-66.4	3.5	3.02e+01	0	39	104	0	60	80094
2026-01-04 01:39:32.51	148.84	2.58	-48.7	-66.2	3.5	3.02e+01	0	39	104	0	60	78955
2026-01-04 01:39:33.52	148.83	2.65	-48.7	-66.3	3.5	3.02e+01	0	39	104	0	60	79043
2026-01-04 01:39:34.53	148.82	2.72	-48.6	-66.1	3.5	3.02e+01	0	39	104	0	60	77650
2026-01-04 01:39:35.54	148.81	2.78	-48.6	-65.8	3.5	3.02e+01	0	39	104	0	60	75373
2026-01-04 01:39:36.55	148.80	2.85	-48.6	-65.6	3.5	3.02e+01	0	39	104	0	60	73264
2026-01-04 01:39:37.56	148.79	2.92	-48.7	-65.7	3.5	3.02e+01	0	39	104	0	60	74103
2026-01-04 01:39:38.57	148.78	2.99	-48.6	-65.7	3.5	3.02e+01	0	39	104	0	60	74358
2026-01-04 01:39:39.59	148.77	3.06	-48.6	-65.6	3.5	3.02e+01	0	39	104	0	60	73535
2026-01-04 01:39:40.59	148.76	3.13	-48.6	-65.5	3.5	3.02e+01	0	39	104	0	60	72194
2026-01-04 01:39:41.60	148.75	3.20	-48.6	-64.0	3.7	3.02e+01	0	39	104	0	60	60976
2026-01-04 01:39:42.61	148.74	3.27	-48.4	-60.5	5.8	3.02e+01	0	39	104	0	60	40606
2026-01-04 01:39:43.62	148.73	3.34	-48.2	-58.1	7.8	3.02e+01	91	39	0	524288	60	30841
2026-01-04 01:39:44.63	148.72	3.42	-47.3	-53.5	11.3	3.02e+01	0	39	0	2097152	60	18211
2026-01-04 01:39:45.64	148.71	3.49	-45.8	-49.9	16.8	3.02e+01	0	39	0	4194304	60	11964
2026-01-04 01:39:46.65	148.70	3.56	-45.1	-48.4	16.6	3.02e+01	0	39	0	6291456	60	10119
2026-01-04 01:39:47.66	148.69	3.63	-44.1	-46.9	19.7	3.02e+01	0	39	0	7864320	60	8506
2026-01-04 01:39:48.67	148.68	3.70	-43.2	-45.5	20.8	3.02e+01	0	39	0	9961472	60	7288
2026-01-04 01:39:49.68	148.67	3.77	-42.7	-44.9	21.1	3.02e+01	0	39	0	11534336	60	6796
2026-01-04 01:39:50.69	148.66	3.85	-43.3	-45.7	20.7	3.02e+01	0	39	0	13631488	60	7414
2026-01-04 01:39:51.70	148.65	3.92	-44.2	-47.0	19.2	3.02e+01	0	39	0	15728640	60	8635
2026-01-04 01:39:52.71	148.64	3.99	-39.3	-40.8	25.4	3.02e+01	0	39	0	17301504	54	5972
2026-01-04 01:39:53.72	148.63	4.06	-48.4	-60.9	4.7	3.02e+01	55	39	0	19398656	60	42451
2026-01-04 01:39:54.73	148.62	4.14	-46.1	-50.2	15.2	3.02e+01	0	39	104	19398656	60	12492
2026-01-04 01:39:55.74	148.61	4.21	-41.7	-43.6	21.4	3.02e+01	0	39	0	20971520	52	9279
2026-01-04 01:39:56.75	148.60	4.28	-40.9	-42.7	24.1	3.02e+01	0	39	0	23068672	56	6591
2026-01-04 01:39:57.76	148.59	4.36	-39.6	-41.2	25.2	3.02e+01	0	39	0	24641536	54	6241
2026-01-04 01:39:58.76	148.57	4.43	-39.4	-41.0	25.5	3.02e+01	0	39	0	26738688	54	6068
2026-01-04 01:39:59.77	148.56	4.50	-38.9	-40.3	26.1	3.02e+01	0	39	0	28311552	52	6331
2026-01-04 01:40:00.78	148.55	4.58	-39.1	-40.6	25.7	3.02e+01	0	39	0	30408704	52	6539
2026-01-04 01:40:01.79	148.54	4.65	-39.0	-40.5	25.9	3.02e+01	0	39	0	32505856	52	6451
2026-01-04 01:40:02.80	148.53	4.73	-38.9	-40.4	26.0	3.02e+01	0	39	0	34078720	52	6358
2026-01-04 01:40:03.81	148.52	4.80	-38.7	-40.1	26.4	3.02e+01	0	39	0	36175872	52	6136
2026-01-04 01:40:04.82	148.51	4.88	-38.7	-40.2	26.3	3.02e+01	0	39	0	37748736	52	6219
2026-01-04 01:40:05.83	148.49	4.95	-38.9	-40.3	26.2	3.02e+01	0	39	0	39845888	52	6311
2026-01-04 01:40:06.84	148.48	5.03	-38.6	-40.0	26.5	3.02e+01	0	39	0	41943040	52	6070
2026-01-04 01:40:07.85	148.47	5.11	-38.6	-40.0	26.4	3.02e+01	0	39	0	43515904	52	6087
2026-01-04 01:40:08.86	148.46	5.18	-38.6	-40.1	26.4	3.02e+01	0	39	0	45613056	52	6139
2026-01-04 01:40:09.87	148.45	5.26	-38.9	-40.3	26.2	3.02e+01	0	39	0	47185920	52	6304
2026-01-04 01:40:10.88	148.43	5.34	-38.9	-40.3	26.3	3.02e+01	0	39	0	49283072	52	6295
2026-01-04 01:40:11.89	148.42	5.41	-39.2	-40.6	26.0	3.02e+01	0	39	0	51380224	52	6557
2026-01-04 01:40:12.90	148.41	5.49	-38.6	-40.0	26.4	3.02e+01	0	39	0	52953088	52	6116
2026-01-04 01:40:13.91	148.40	5.57	-38.6	-40.0	26.5	3.02e+01	0	39	0	55050240	52	6125
2026-01-04 01:40:14.91	148.39	5.64	-38.4	-39.7	26.8	3.02e+01	0	39	0	56623104	52	5910
2026-01-04 01:40:15.92	148.37	5.72	-38.8	-40.2	26.4	3.02e+01	0	39	0	58720256	52	6230
2026-01-04 01:40:16.93	148.36	5.80	-38.1	-39.5	27.0	3.02e+01	0	39	0	60817408	52	5735
2026-01-04 01:40:17.94	148.35	5.88	-38.2	-39.5	26.9	3.02e+01	0	39	0	62390272	52	5776
2026-01-04 01:40:18.95	148.33	5.96	-38.1	-39.4	27.1	3.02e+01	0	39	0	64487424	52	5716
2026-01-04 01:40:19.96	148.32	6.04	-38.1	-39.4	27.0	3.02e+01	0	39	0	66584576	50	6405
2026-01-04 01:40:20.97	148.31	6.12	-38.0	-39.4	27.0	3.02e+01	0	39	0	68157440	50	6369
2026-01-04 01:40:21.98	148.30	6.20	-37.9	-39.2	27.3	3.02e+01	0	39	0	70254592	50	6252
2026-01-04 01:40:22.99	148.28	6.28	-37.9	-39.2	27.3	3.02e+01	0	39	0	71827456	50	6246
2026-01-04 01:40:24.00	148.27	6.36	-37.9	-39.2	27.4	3.02e+01	0	39	0	73924608	50	6261
2026-01-04 01:40:25.01	148.26	6.44	-38.0	-39.4	27.1	3.02e+01	0	39	0	76021760	50	6362
2026-01-04 01:40:26.02	148.24	6.52	-38.1	-39.4	27.4	3.02e+01	0	39	0	77594624	50	6375
2026-01-04 01:40:27.02	148.23	6.60	-38.0	-39.3	27.2	3.02e+01	0	39	0	79691776	50	6294
2026-01-04 01:40:28.03	148.21	6.68	-37.7	-39.0	27.5	3.02e+01	0	39	0	81788928	50	6111
2026-01-04 01:40:29.04	148.20	6.76	-37.6	-39.0	27.6	3.02e+01	0	39	0	83361792	50	6066
2026-01-04 01:40:30.05	148.19	6.84	-37.7	-39.0	27.5	3.02e+01	0	39	0	85458944	50	6100
2026-01-04 01:40:31.06	148.17	6.92	-37.6	-38.9	27.6	3.02e+01	0	39	0	87031808	50	6062
2026-01-04 01:40:32.07	148.16	7.01	-37.7	-39.0	27.6	3.02e+01	0	39	0	89128960	50	6108
2026-01-04 01:40:33.08	148.14	7.09	-37.5	-38.8	27.7	3.02e+01	0	39	0	91226112	50	5967
2026-01-04 01:40:34.09	148.13	7.17	-37.6	-38.9	27.8	3.02e+01	0	39	0	92798976	50	6034
2026-01-04 01:40:35.10	148.12	7.25	-37.6	-38.9	27.6	3.02e+01	0	39	0	94896128	50	6059
2026-01-04 01:40:36.11	148.10	7.34	-37.4	-38.7	27.8	3.02e+01	0	39	0	96468992	50	5886
2026-01-04 01:40:37.12	148.09	7.42	-37.4	-38.7	27.8	3.02e+01	0	39	0	98566144	50	5910
2026-01-04 01:40:38.13	148.07	7.51	-37.5	-38.8	27.7	3.02e+01	0	39	0	100663296	50	5985
2026-01-04 01:40:39.14	148.06	7.59	-37.3	-38.6	27.9	3.02e+01	0	39	0	102236160	50	5842
2026-01-04 01:40:40.15	148.04	7.68	-37.4	-38.6	27.9	3.02e+01	0	39	0	104333312	50	5856
2026-01-04 01:40:41.16	148.03	7.76	-37.4	-38.7	28.0	3.02e+01	0	39	0	105906176	50	5867
2026-01-04 01:40:42.17	148.01	7.85	-37.3	-38.6	28.0	3.02e+01	0	39	0	108003328	50	5825
2026-01-04 01:40:43.17	148.00	7.93	-37.3	-38.6	28.0	3.02e+01	0	39	0	110100480	50	5800
2026-01-04 01:40:44.18	147.98	8.02	-37.4	-38.7	28.0	3.02e+01	0	39	0	111673344	50	5882
2026-01-04 01:40:45.19	147.96	8.10	-37.6	-38.9	28.0	3.02e+01	0	39	0	113770496	50	6018
2026-01-04 01:40:46.20	147.95	8.19	-37.5	-38.7	28.1	3.02e+01	0	39	0	115343360	50	5922
2026-01-04 01:40:47.21	147.93	8.28	-37.6	-38.9	27.9	3.02e+01	0	39	0	117440512	50	6049
2026-01-04 01:40:48.22	147.92	8.37	-37.3	-38.5	28.2	3.02e+01	0	39	0	119537664	50	5786
2026-01-04 01:40:49.23	147.90	8.45	-37.2	-38.5	28.2	3.02e+01	0	39	0	121110528	50	5729
2026-01-04 01:40:50.24	147.88	8.54	-37.2	-38.5	28.4	3.02e+01	0	39	0	123207680	50	5749
2026-01-04 01:40:51.25	147.87	8.63	-37.2	-38.5	28.2	3.02e+01	0	39	0	124780544	50	5753
2026-01-04 01:40:52.26	147.85	8.72	-37.4	-38.7	28.2	3.02e+01	0	39	0	126877696	50	5867
2026-01-04 01:40:53.27	147.83	8.81	-37.0	-38.3	28.3	3.02e+01	0	39	0	128974848	50	5608
2026-01-04 01:40:54.27	147.82	8.90	-37.0	-38.2	28.4	3.02e+01	0	39	0	130547712	48	6264
2026-01-04 01:40:55.29	147.80	8.99	-37.3	-38.5	28.3	3.02e+01	0	39	0	132644864	48	6491
2026-01-04 01:40:56.29	147.78	9.08	-37.5	-38.8	28.1	3.02e+01	0	39	0	134742016	48	6673
2026-01-04 01:40:57.31	147.77	9.17	-37.1	-38.4	28.3	3.02e+01	0	39	0	136314880	48	6376
2026-01-04 01:40:58.31	147.75	9.26	-36.8	-38.1	28.6	3.02e+01	0	39	0	138412032	48	6154
2026-01-04 01:40:59.32	147.73	9.35	-37.0	-38.2	28.5	3.02e+01	0	39	0	139984896	48	6263
2026-01-04 01:41:00.33	147.71	9.44	-36.9	-38.2	28.5	3.02e+01	0	39	0	142082048	48	6216
2026-01-04 01:41:01.34	147.70	9.53	-36.9	-38.1	28.6	3.02e+01	0	39	0	144179200	48	6184
2026-01-04 01:41:02.35	147.68	9.63	-37.0	-38.2	28.5	3.02e+01	0	39	0	145752064	48	6261
2026-01-04 01:41:03.36	147.66	9.72	-36.8	-38.0	28.6	3.02e+01	0	39	0	147849216	48	6133
2026-01-04 01:41:04.37	147.64	9.81	-36.8	-38.1	28.7	3.02e+01	0	39	0	149422080	48	6150
2026-01-04 01:41:05.38	147.62	9.90	-36.7	-37.9	28.6	3.02e+01	0	39	0	151519232	48	6052
2026-01-04 01:41:06.39	147.61	10.00	-36.9	-38.1	28.4	3.02e+01	0	39	0	153616384	48	6177
2026-01-04 01:41:07.39	147.59	10.09	-37.1	-38.3	28.4	3.02e+01	0	39	0	155189248	48	6333
2026-01-04 01:41:08.40	147.57	10.19	-37.2	-38.4	28.4	3.02e+01	0	39	0	157286400	48	6411
2026-01-04 01:41:09.41	147.55	10.28	-36.9	-38.2	28.5	3.02e+01	0	39	0	158859264	48	6207
2026-01-04 01:41:10.42	147.53	10.38	-36.7	-37.9	28.6	3.02e+01	0	39	0	160956416	48	6061
2026-01-04 01:41:11.43	147.51	10.47	-36.7	-38.0	28.6	3.02e+01	0	39	0	163053568	48	6076
2026-01-04 01:41:12.44	147.49	10.57	-36.7	-38.0	28.7	3.02e+01	0	39	0	164626432	48	6069
2026-01-04 01:41:13.45	147.47	10.67	-37.1	-38.4	28.4	3.02e+01	0	39	0	166723584	48	6357
2026-01-04 01:41:14.46	147.45	10.76	-37.0	-38.2	28.6	3.02e+01	0	39	0	168296448	48	6257
2026-01-04 01:41:15.47	147.43	10.86	-36.8	-38.0	28.6	3.02e+01	0	39	0	170393600	48	6120
2026-01-04 01:41:16.48	147.41	10.96	-36.7	-37.9	28.8	3.02e+01	0	39	0	172490752	48	6021
2026-01-04 01:41:17.49	147.39	11.06	-36.6	-37.8	28.8	3.02e+01	0	39	0	174063616	48	5983
2026-01-04 01:41:18.50	147.37	11.16	-36.8	-38.0	28.7	3.02e+01	0	39	0	176160768	48	6113
2026-01-04 01:41:19.50	147.35	11.26	-36.6	-37.9	28.8	3.02e+01	0	39	0	178257920	48	5995
2026-01-04 01:41:20.51	147.33	11.36	-36.7	-37.9	28.8	3.02e+01	0	39	0	179830784	48	6064
2026-01-04 01:41:21.52	147.31	11.46	-36.6	-37.8	28.8	3.02e+01	0	39	0	181927936	48	5945
2026-01-04 01:41:22.53	147.29	11.56	-36.7	-37.9	28.7	3.02e+01	0	40	0	183500800	48	6033
2026-01-04 01:41:23.54	147.27	11.66	-36.6	-37.8	28.8	3.02e+01	0	40	0	185597952	48	5965
2026-01-04 01:41:24.55	147.25	11.76	-36.5	-37.7	28.9	3.02e+01	0	39	0	187695104	48	5888
2026-01-04 01:41:25.56	147.22	11.86	-36.5	-37.7	28.8	3.02e+01	0	39	0	189267968	48	5921
2026-01-04 01:41:26.56	147.20	11.96	-36.6	-37.8	28.9	3.02e+01	0	39	0	191365120	48	5964
2026-01-04 01:41:27.57	147.18	12.07	-36.7	-38.0	28.7	3.02e+01	0	39	0	192937984	48	6070
2026-01-04 01:41:28.58	147.16	12.17	-36.5	-37.7	28.9	3.02e+01	0	39	0	195035136	48	5916
2026-01-04 01:41:29.59	147.14	12.27	-36.4	-37.7	29.0	3.02e+01	0	40	0	197132288	48	5866
2026-01-04 01:41:30.60	147.11	12.38	-36.5	-37.7	28.9	3.02e+01	0	39	0	198705152	48	5909
2026-01-04 01:41:31.61	147.09	12.48	-36.5	-37.7	29.0	3.02e+01	0	40	0	200802304	48	5893
2026-01-04 01:41:32.62	147.07	12.59	-36.4	-37.6	29.0	3.02e+01	0	40	0	202375168	48	5821
2026-01-04 01:41:33.63	147.04	12.70	-36.3	-37.5	29.1	3.02e+01	0	40	0	204472320	48	5780
2026-01-04 01:41:34.64	147.02	12.80	-36.3	-37.5	29.1	3.02e+01	0	39	0	206569472	48	5770
2026-01-04 01:41:35.65	147.00	12.91	-36.2	-37.4	29.3	3.02e+01	0	40	0	208142336	48	5721
2026-01-04 01:41:36.65	146.97	13.02	-36.3	-37.5	29.2	3.02e+01	0	39	0	210239488	48	5782
2026-01-04 01:41:37.66	146.95	13.12	-36.3	-37.5	29.1	3.02e+01	0	40	0	211812352	48	5750
2026-01-04 01:41:38.68	146.93	13.23	-36.1	-37.3	29.2	3.02e+01	0	39	0	213909504	48	5656
2026-01-04 01:41:39.68	146.90	13.34	-36.1	-37.3	29.3	3.02e+01	0	39	0	216006656	48	5648
2026-01-04 01:41:40.69	146.88	13.45	-36.1	-37.3	29.3	3.02e+01	0	39	0	217579520	48	5637
2026-01-04 01:41:41.70	146.85	13.56	-36.5	-37.7	28.9	3.02e+01	0	40	0	219676672	48	5907
2026-01-04 01:41:42.71	146.83	13.67	-36.6	-37.9	28.9	3.02e+01	0	40	0	221249536	48	5997
2026-01-04 01:41:43.72	146.80	13.78	-36.2	-37.4	29.4	3.02e+01	0	39	0	223346688	48	5663
2026-01-04 01:41:44.73	146.78	13.90	-36.0	-37.2	29.4	3.02e+01	0	39	0	225443840	48	5588
2026-01-04 01:41:45.74	146.75	14.01	-36.1	-37.4	29.3	3.02e+01	0	40	0	227016704	48	5664
2026-01-04 01:41:46.75	146.72	14.12	-36.0	-37.2	29.4	3.02e+01	0	39	0	229113856	46	6232
2026-01-04 01:41:47.76	146.70	14.24	-36.1	-37.4	29.2	3.02e+01	0	39	0	231211008	46	6357
2026-01-04 01:41:48.77	146.67	14.35	-36.1	-37.3	29.3	3.02e+01	0	40	0	232783872	46	6347
2026-01-04 01:41:49.78	146.64	14.46	-36.0	-37.2	29.4	3.02e+01	0	39	0	234881024	46	6232
2026-01-04 01:41:50.79	146.62	14.58	-36.3	-37.5	29.2	3.02e+01	0	39	0	236453888	46	6475
2026-01-04 01:41:51.79	146.59	14.70	-36.1	-37.3	29.4	3.02e+01	0	39	0	238551040	46	6287
2026-01-04 01:41:52.80	146.56	14.81	-36.3	-37.5	29.2	3.02e+01	0	40	0	240648192	46	6446
2026-01-04 01:41:53.81	146.53	14.93	-36.5	-37.7	28.8	3.02e+01	0	39	0	242221056	46	6610
2026-01-04 01:41:54.82	146.51	15.05	-36.1	-37.3	29.3	3.02e+01	0	40	0	244318208	46	6283
2026-01-04 01:41:55.83	146.48	15.17	-36.4	-37.6	29.0	3.02e+01	0	40	0	246415360	46	6538
2026-01-04 01:41:56.84	146.45	15.28	-36.3	-37.5	29.2	3.02e+01	0	39	0	247988224	46	6450
2026-01-04 01:41:57.85	146.42	15.40	-36.5	-37.8	28.9	3.02e+01	0	40	0	250085376	46	6668
2026-01-04 01:41:58.86	146.39	15.53	-36.2	-37.4	29.2	3.02e+01	0	39	0	251658240	46	6403
2026-01-04 01:41:59.87	146.36	15.65	-36.1	-37.3	29.4	3.02e+01	0	39	0	253755392	46	6284
2026-01-04 01:42:00.87	146.33	15.77	-36.2	-37.4	29.3	3.02e+01	0	40	0	255328256	46	6394
2026-01-04 01:42:01.88	146.30	15.89	-36.0	-37.2	29.4	3.02e+01	0	39	0	257425408	46	6252
2026-01-04 01:42:02.89	146.27	16.01	-36.2	-37.4	29.2	3.02e+01	0	39	0	259522560	46	6389
2026-01-04 01:42:03.90	146.24	16.14	-36.1	-37.3	29.4	3.02e+01	0	39	0	261095424	46	6290
2026-01-04 01:42:04.91	146.21	16.26	-36.7	-37.9	28.7	3.02e+01	0	40	0	263192576	46	6787
2026-01-04 01:42:05.92	146.18	16.39	-36.6	-37.8	29.0	3.02e+01	0	39	0	264765440	48	5983
2026-01-04 01:42:06.93	146.15	16.51	-36.3	-37.5	29.2	3.02e+01	0	39	0	266862592	48	5752
2026-01-04 01:42:07.94	146.12	16.64	-36.2	-37.4	29.2	3.02e+01	0	40	0	268959744	48	5676
2026-01-04 01:42:08.95	146.08	16.77	-36.0	-37.2	29.4	3.02e+01	0	39	0	270532608	48	5567
2026-01-04 01:42:09.96	146.05	16.89	-36.0	-37.2	29.5	3.02e+01	0	40	0	272629760	46	6267
2026-01-04 01:42:10.97	146.02	17.02	-36.0	-37.2	29.5	3.02e+01	0	40	0	274726912	46	6246
2026-01-04 01:42:11.98	145.99	17.15	-36.2	-37.4	29.5	3.02e+01	0	40	0	276299776	46	6376
2026-01-04 01:42:12.99	145.95	17.28	-36.1	-37.3	29.4	3.02e+01	0	40	0	278396928	46	6289
2026-01-04 01:42:14.00	145.92	17.41	-36.0	-37.2	29.5	3.02e+01	0	39	0	279969792	46	6257
2026-01-04 01:42:15.00	145.89	17.54	-35.9	-37.1	29.5	3.02e+01	0	40	0	282066944	46	6193
2026-01-04 01:42:16.01	145.85	17.68	-35.9	-37.1	29.5	3.02e+01	0	40	0	284164096	46	6190
2026-01-04 01:42:17.02	145.82	17.81	-36.2	-37.4	29.5	3.02e+01	0	40	0	285736960	46	6359
2026-01-04 01:42:18.03	145.78	17.94	-36.3	-37.5	29.3	3.02e+01	0	40	0	287834112	46	6446
2026-01-04 01:42:19.04	145.75	18.08	-36.9	-38.1	28.7	3.02e+01	0	40	0	289406976	46	6955
2026-01-04 01:42:20.05	145.71	18.21	-36.1	-37.3	29.5	3.02e+01	0	39	0	291504128	46	6297
2026-01-04 01:42:21.06	145.67	18.35	-36.2	-37.4	29.4	3.02e+01	0	39	0	293601280	46	6357
2026-01-04 01:42:22.07	145.64	18.49	-36.1	-37.3	29.6	3.02e+01	0	40	0	295174144	46	6294
2026-01-04 01:42:23.08	145.60	18.63	-36.2	-37.4	29.6	3.02e+01	0	40	0	297271296	46	6400
2026-01-04 01:42:24.09	145.56	18.77	-36.2	-37.4	29.4	3.02e+01	0	40	0	299368448	46	6408
2026-01-04 01:42:25.09	145.52	18.90	-36.2	-37.4	29.5	3.02e+01	0	40	0	300941312	46	6356
2026-01-04 01:42:26.10	145.49	19.04	-36.3	-37.5	29.4	3.02e+01	0	40	0	303038464	46	6469
2026-01-04 01:42:27.11	145.45	19.19	-36.5	-37.7	29.3	3.02e+01	0	40	0	304611328	48	5909
2026-01-04 01:42:28.12	145.41	19.33	-36.2	-37.5	29.5	3.02e+01	0	40	0	306708480	48	5729
2026-01-04 01:42:29.13	145.37	19.47	-37.0	-38.2	29.0	3.02e+01	0	40	0	308805632	48	6270
2026-01-04 01:42:30.14	145.33	19.62	-36.6	-37.8	29.1	3.02e+01	0	40	0	310378496	48	5987
2026-01-04 01:42:31.15	145.29	19.76	-36.5	-37.7	29.3	3.02e+01	0	40	0	312475648	48	5913
2026-01-04 01:42:32.16	145.25	19.91	-36.4	-37.6	29.4	3.02e+01	0	40	0	314048512	48	5798
2026-01-04 01:42:33.17	145.21	20.05	-36.2	-37.4	29.5	3.02e+01	0	40	0	316145664	48	5705
2026-01-04 01:42:34.18	145.17	20.20	-36.2	-37.4	29.4	3.02e+01	0	40	0	318242816	48	5714
2026-01-04 01:42:35.19	145.12	20.35	-36.3	-37.5	29.4	3.02e+01	0	40	0	319815680	48	5733
2026-01-04 01:42:36.20	145.08	20.50	-36.3	-37.5	29.5	3.02e+01	0	40	0	321912832	48	5758
2026-01-04 01:42:37.21	145.04	20.65	-36.6	-37.8	29.2	3.02e+01	0	40	0	323485696	48	5946
2026-01-04 01:42:38.22	144.99	20.80	-36.3	-37.5	29.5	3.02e+01	0	40	0	325582848	48	5770
2026-01-04 01:42:39.23	144.95	20.96	-36.2	-37.4	29.5	3.02e+01	0	40	0	327680000	48	5695
2026-01-04 01:42:40.24	144.91	21.11	-36.1	-37.3	29.6	3.02e+01	0	40	0	329252864	48	5614
2026-01-04 01:42:41.25	144.86	21.26	-36.3	-37.5	29.6	3.02e+01	0	40	0	331350016	48	5789
2026-01-04 01:42:42.26	144.82	21.42	-36.3	-37.5	29.5	3.02e+01	0	40	0	332922880	48	5729
2026-01-04 01:42:43.27	144.77	21.58	-36.4	-37.6	29.5	3.02e+01	0	40	0	335020032	48	5828
2026-01-04 01:42:44.28	144.72	21.74	-36.3	-37.5	29.5	3.02e+01	0	40	0	337117184	48	5790
2026-01-04 01:42:45.28	144.68	21.89	-37.1	-38.3	29.3	3.02e+01	0	40	0	338690048	48	6338
2026-01-04 01:42:46.30	144.63	22.05	-36.4	-37.6	29.5	3.02e+01	0	40	0	340787200	48	5840
2026-01-04 01:42:47.31	144.58	22.22	-36.1	-37.3	29.6	3.02e+01	0	40	0	342884352	48	5624
2026-01-04 01:42:48.31	144.53	22.38	-36.1	-37.3	29.5	3.02e+01	0	40	0	344457216	48	5641
2026-01-04 01:42:49.32	144.48	22.54	-36.2	-37.4	29.4	3.02e+01	0	40	0	346554368	48	5679
2026-01-04 01:42:50.33	144.43	22.70	-36.2	-37.4	29.5	3.02e+01	0	40	0	348127232	48	5663
2026-01-04 01:42:51.34	144.38	22.87	-36.1	-37.3	29.5	3.02e+01	0	40	0	350224384	48	5623
2026-01-04 01:42:52.35	144.33	23.04	-36.5	-37.7	29.2	3.02e+01	0	40	0	352321536	48	5911
2026-01-04 01:42:53.36	144.28	23.20	-36.3	-37.5	29.5	3.02e+01	0	40	0	353894400	48	5743
2026-01-04 01:42:54.37	144.23	23.37	-36.4	-37.6	29.3	3.02e+01	0	40	0	355991552	48	5802
2026-01-04 01:42:55.38	144.17	23.54	-36.4	-37.7	29.2	3.02e+01	0	40	0	357564416	48	5864
2026-01-04 01:42:56.39	144.12	23.71	-36.6	-37.8	29.1	3.02e+01	0	40	0	359661568	48	5967
2026-01-04 01:42:57.40	144.07	23.89	-36.9	-38.1	28.8	3.02e+01	0	40	0	361758720	48	6173
2026-01-04 01:42:58.41	144.01	24.06	-36.3	-37.5	29.3	3.02e+01	0	40	0	363331584	48	5751
2026-01-04 01:42:59.41	143.96	24.23	-36.4	-37.6	29.3	3.02e+01	0	40	0	365428736	48	5819
2026-01-04 01:43:00.42	143.90	24.41	-36.3	-37.5	29.2	3.02e+01	0	40	0	367001600	48	5778
2026-01-04 01:43:01.43	143.84	24.59	-36.5	-37.7	29.3	3.02e+01	0	40	0	369098752	48	5885
2026-01-04 01:43:02.44	143.79	24.77	-36.6	-37.8	29.0	3.02e+01	0	40	0	371195904	48	5938
2026-01-04 01:43:03.45	143.73	24.95	-36.4	-37.7	29.4	3.02e+01	0	40	0	372768768	48	5865
2026-01-04 01:43:04.46	143.67	25.13	-36.3	-37.5	29.3	3.02e+01	0	40	0	374865920	48	5776
2026-01-04 01:43:05.47	143.61	25.31	-36.3	-37.5	29.4	3.02e+01	0	40	0	376438784	48	5760
2026-01-04 01:43:06.48	143.55	25.49	-36.0	-37.2	29.5	3.02e+01	0	40	0	378535936	48	5581
2026-01-04 01:43:07.49	143.49	25.68	-36.1	-37.3	29.6	3.02e+01	0	40	0	380633088	48	5595
2026-01-04 01:43:08.50	143.42	25.87	-36.1	-37.2	29.6	3.02e+01	0	40	0	382205952	48	5584
2026-01-04 01:43:09.51	143.36	26.05	-36.1	-37.3	29.6	3.02e+01	0	40	0	384303104	48	5614
2026-01-04 01:43:10.52	143.30	26.24	-36.1	-37.3	29.5	3.02e+01	0	40	0	385875968	48	5630
2026-01-04 01:43:11.53	143.23	26.43	-36.2	-37.4	29.6	3.02e+01	0	40	0	387973120	48	5660
2026-01-04 01:43:12.54	143.17	26.63	-36.0	-37.2	29.6	3.02e+01	0	40	0	390070272	48	5559
2026-01-04 01:43:13.55	143.10	26.82	-35.9	-37.1	29.8	3.02e+01	0	40	0	391643136	46	6189
2026-01-04 01:43:14.56	143.03	27.02	-36.0	-37.1	29.7	3.02e+01	0	40	0	393740288	46	6195
2026-01-04 01:43:15.56	142.97	27.21	-35.8	-37.0	29.8	3.02e+01	0	40	0	395837440	46	6072
2026-01-04 01:43:16.57	142.90	27.41	-35.8	-36.9	29.9	3.02e+01	0	40	0	397410304	46	6056
2026-01-04 01:43:17.58	142.83	27.61	-35.7	-36.9	30.0	3.02e+01	0	40	0	399507456	46	5998
2026-01-04 01:43:18.59	142.75	27.81	-35.7	-36.8	30.0	3.02e+01	0	40	0	401080320	46	5985
2026-01-04 01:43:19.60	142.68	28.01	-35.6	-36.8	30.0	3.02e+01	0	40	0	403177472	46	5974
2026-01-04 01:43:20.61	142.61	28.22	-35.7	-36.9	29.9	3.02e+01	0	40	0	405274624	46	6034
2026-01-04 01:43:21.62	142.54	28.42	-35.7	-36.9	29.9	3.02e+01	0	40	0	406847488	46	6034
2026-01-04 01:43:22.63	142.46	28.63	-35.8	-37.0	29.7	3.02e+01	0	40	0	408944640	46	6093
2026-01-04 01:43:23.64	142.38	28.84	-35.9	-37.0	29.9	3.02e+01	0	40	0	411041792	46	6127
2026-01-04 01:43:24.65	142.31	29.05	-35.8	-37.0	29.8	3.02e+01	0	40	0	412614656	46	6080
2026-01-04 01:43:25.66	142.23	29.26	-35.6	-36.7	30.1	3.02e+01	0	40	0	414711808	46	5920
2026-01-04 01:43:26.67	142.15	29.48	-35.4	-36.6	29.6	3.02e+01	0	40	0	416284672	46	5809
2026-01-04 01:43:27.68	142.07	29.69	-35.4	-36.5	30.3	3.02e+01	0	40	0	418381824	46	5778
2026-01-04 01:43:28.69	141.99	29.91	-35.7	-36.9	30.1	3.02e+01	0	40	0	420478976	46	6020
2026-01-04 01:43:29.70	141.90	30.13	-35.4	-36.6	30.3	3.02e+01	0	40	0	422051840	46	5829
2026-01-04 01:43:30.71	141.82	30.35	-35.7	-36.9	30.0	3.02e+01	0	40	0	424148992	46	6021
2026-01-04 01:43:31.72	141.73	30.57	-35.5	-36.7	30.2	3.02e+01	0	40	0	425721856	46	5863
2026-01-04 01:43:32.72	141.65	30.79	-35.6	-36.7	30.1	3.02e+01	0	40	0	427819008	46	5917
2026-01-04 01:43:33.73	141.56	31.02	-35.6	-36.8	30.0	3.02e+01	0	40	0	429916160	46	5968
2026-01-04 01:43:34.74	141.47	31.25	-35.8	-36.9	30.0	3.02e+01	0	40	0	431489024	46	6050
2026-01-04 01:43:35.75	141.38	31.48	-35.9	-37.1	29.9	3.02e+01	0	40	0	433586176	46	6167
2026-01-04 01:43:36.76	141.29	31.71	-36.5	-37.7	29.8	3.02e+01	0	40	0	435159040	46	6591
2026-01-04 01:43:37.77	141.20	31.94	-36.0	-37.2	29.8	3.02e+01	0	40	0	437256192	46	6211
2026-01-04 01:43:38.78	141.10	32.18	-35.8	-37.0	29.9	3.02e+01	0	40	0	439353344	46	6088
2026-01-04 01:43:39.79	141.00	32.42	-35.9	-37.1	30.0	3.02e+01	0	40	0	440926208	46	6161
2026-01-04 01:43:40.80	140.91	32.66	-35.8	-36.9	30.0	3.02e+01	0	40	0	443023360	46	6062
2026-01-04 01:43:41.81	140.81	32.90	-35.8	-37.0	29.8	3.02e+01	0	40	0	444596224	46	6113
2026-01-04 01:43:42.82	140.71	33.14	-36.1	-37.3	29.7	3.02e+01	0	40	0	446693376	46	6294
2026-01-04 01:43:43.83	140.60	33.39	-36.1	-37.3	29.8	3.02e+01	0	40	0	448790528	46	6301
2026-01-04 01:43:44.84	140.50	33.63	-36.2	-37.4	29.6	3.02e+01	0	40	0	450363392	46	6395
2026-01-04 01:43:45.85	140.39	33.88	-36.2	-37.4	29.6	3.02e+01	0	40	0	452460544	46	6362
2026-01-04 01:43:46.86	140.29	34.13	-36.2	-37.4	29.5	3.02e+01	0	40	0	454033408	46	6406
2026-01-04 01:43:47.87	140.18	34.39	-36.3	-37.5	29.5	3.02e+01	0	40	0	456130560	46	6444
2026-01-04 01:43:48.87	140.07	34.64	-36.3	-37.5	29.5	3.02e+01	0	40	0	458227712	46	6468
2026-01-04 01:43:49.89	139.95	34.90	-36.4	-37.6	29.4	3.02e+01	0	40	0	459800576	46	6558
2026-01-04 01:43:50.89	139.84	35.16	-37.1	-38.3	28.4	3.02e+01	0	40	0	461897728	48	6305
2026-01-04 01:43:51.90	139.72	35.42	-36.9	-38.1	29.1	3.02e+01	0	40	0	463994880	48	6163
2026-01-04 01:43:52.91	139.60	35.68	-37.5	-38.8	28.6	3.02e+01	0	40	0	465567744	50	5931
2026-01-04 01:43:53.92	139.48	35.95	-37.5	-38.7	28.5	3.02e+01	0	40	0	467664896	50	5912
2026-01-04 01:43:54.93	139.36	36.22	-37.8	-39.0	28.4	3.02e+01	0	40	0	469237760	50	6104
2026-01-04 01:43:55.94	139.23	36.49	-37.6	-38.9	28.5	3.02e+01	0	40	0	471334912	50	6005
2026-01-04 01:43:56.95	139.10	36.76	-37.4	-38.7	28.7	3.02e+01	0	40	0	473432064	50	5864
2026-01-04 01:43:57.95	138.98	37.03	-37.6	-38.8	28.5	3.02e+01	0	40	0	475004928	50	5968
2026-01-04 01:43:58.96	138.84	37.31	-37.6	-38.9	28.5	3.02e+01	0	40	0	477102080	50	6009
2026-01-04 01:43:59.97	138.71	37.59	-38.1	-39.3	28.0	3.02e+01	0	40	0	478674944	50	6344
2026-01-04 01:44:00.98	138.57	37.87	-38.5	-39.8	27.6	3.02e+01	0	40	0	480772096	50	6683
2026-01-04 01:44:01.99	138.43	38.16	-38.7	-40.0	27.4	3.02e+01	0	40	0	482869248	50	6835
2026-01-04 01:44:03.00	138.29	38.44	-38.4	-39.7	27.6	3.02e+01	0	40	0	484442112	50	6612
2026-01-04 01:44:04.01	138.15	38.73	-38.1	-39.4	28.1	3.02e+01	0	40	0	486539264	50	6383
2026-01-04 01:44:05.02	138.00	39.02	-37.6	-38.9	28.4	3.02e+01	0	40	0	488112128	50	5999
2026-01-04 01:44:06.03	137.85	39.32	-37.8	-39.1	28.1	3.02e+01	0	40	0	490209280	50	6172
2026-01-04 01:44:07.04	137.70	39.61	-38.6	-39.9	27.3	3.02e+01	0	40	0	492306432	50	6748
2026-01-04 01:44:08.04	137.54	39.91	-38.6	-39.9	27.6	3.02e+01	0	40	0	493879296	52	6020
2026-01-04 01:44:09.06	137.38	40.21	-38.3	-39.6	27.6	3.02e+01	0	40	0	495976448	52	5804
2026-01-04 01:44:10.07	137.22	40.52	-37.4	-38.6	28.5	3.02e+01	0	40	0	497549312	50	5853
2026-01-04 01:44:11.08	137.05	40.82	-37.5	-38.7	28.4	3.02e+01	0	40	0	499646464	50	5906
2026-01-04 01:44:12.09	136.88	41.13	-37.6	-38.9	28.3	3.02e+01	0	40	0	501743616	50	6036
2026-01-04 01:44:13.09	136.71	41.44	-37.5	-38.7	28.5	3.02e+01	0	40	0	503316480	50	5924
2026-01-04 01:44:14.10	136.54	41.75	-37.4	-38.7	28.5	3.02e+01	0	40	0	505413632	50	5871
2026-01-04 01:44:15.11	136.36	42.07	-37.8	-39.1	27.9	3.02e+01	0	40	0	507510784	50	6169
2026-01-04 01:44:16.12	136.18	42.39	-38.6	-40.0	27.9	3.02e+01	0	40	0	509083648	50	6822
2026-01-04 01:44:17.13	135.99	42.71	-38.1	-39.3	28.1	3.02e+01	0	40	0	511180800	50	6322
2026-01-04 01:44:18.14	135.80	43.03	-37.7	-39.0	27.9	3.02e+01	0	40	0	512753664	50	6070
2026-01-04 01:44:19.15	135.61	43.36	-38.0	-39.3	28.6	3.02e+01	0	40	0	514850816	50	6278
2026-01-04 01:44:20.16	135.41	43.69	-37.6	-38.8	28.5	3.02e+01	0	40	0	516947968	50	5963
2026-01-04 01:44:21.17	135.21	44.02	-37.3	-38.6	28.7	3.02e+01	0	40	0	518520832	50	5820
2026-01-04 01:44:22.18	135.00	44.35	-37.0	-38.2	29.0	3.02e+01	0	40	0	520617984	50	5572
2026-01-04 01:44:23.19	134.79	44.69	-36.4	-37.6	29.4	3.02e+01	0	40	0	522190848	48	5847
2026-01-04 01:44:24.20	134.57	45.03	-36.5	-37.7	29.4	3.02e+01	0	40	0	524288000	48	5882
2026-01-04 01:44:25.21	134.35	45.37	-37.3	-38.5	28.7	3.02e+01	0	40	0	526385152	48	6450
2026-01-04 01:44:26.22	134.12	45.71	-36.7	-37.9	29.2	3.02e+01	0	40	0	527958016	48	6032
2026-01-04 01:44:27.23	133.89	46.06	-36.7	-37.9	29.1	3.02e+01	0	39	0	530055168	48	6046
2026-01-04 01:44:28.24	133.66	46.41	-36.7	-37.9	29.1	3.02e+01	0	40	0	532152320	48	6040
2026-01-04 01:44:29.25	133.41	46.76	-36.7	-37.9	29.3	3.02e+01	0	40	0	533725184	48	6048
2026-01-04 01:44:30.26	133.17	47.11	-36.6	-37.8	29.4	3.02e+01	0	40	0	535822336	48	5938
2026-01-04 01:44:31.27	132.91	47.47	-37.3	-38.5	28.4	3.02e+01	0	40	0	537395200	48	6473
2026-01-04 01:44:32.27	132.66	47.83	-38.1	-39.4	28.1	3.02e+01	0	40	0	539492352	50	6353
2026-01-04 01:44:33.28	132.39	48.19	-37.0	-38.2	28.9	3.02e+01	0	40	0	541589504	50	5578
2026-01-04 01:44:34.29	132.12	48.55	-36.3	-37.4	29.5	3.02e+01	0	40	0	543162368	48	5710
2026-01-04 01:44:35.30	131.84	48.92	-36.6	-37.8	29.3	3.02e+01	0	40	0	545259520	48	5984
2026-01-04 01:44:36.31	131.55	49.29	-37.1	-38.3	28.8	3.02e+01	0	40	0	546832384	48	6325
2026-01-04 01:44:37.32	131.26	49.66	-36.7	-37.9	29.2	3.02e+01	0	40	0	548929536	48	6001
2026-01-04 01:44:38.33	130.96	50.04	-36.0	-37.1	29.8	3.02e+01	0	40	0	551026688	48	5529
2026-01-04 01:44:39.34	130.65	50.41	-36.3	-37.5	29.5	3.02e+01	0	40	0	552599552	48	5767
2026-01-04 01:44:40.35	130.34	50.79	-36.5	-37.8	29.3	3.02e+01	0	40	0	554696704	48	5929
2026-01-04 01:44:41.36	130.01	51.17	-36.2	-37.4	29.5	3.02e+01	0	40	0	556269568	48	5708
2026-01-04 01:44:42.37	129.68	51.55	-35.6	-36.7	30.1	3.02e+01	0	40	0	558366720	46	5920
2026-01-04 01:44:43.38	129.34	51.94	-35.6	-36.7	30.1	3.02e+01	0	40	0	560463872	46	5917
2026-01-04 01:44:44.39	128.99	52.33	-35.9	-37.0	29.8	3.02e+01	0	40	0	562036736	46	6132
2026-01-04 01:44:45.40	128.63	52.72	-35.8	-37.0	30.0	3.02e+01	0	40	0	564133888	46	6065
2026-01-04 01:44:46.40	128.26	53.11	-35.8	-37.0	30.0	3.02e+01	0	40	0	565706752	46	6076
2026-01-04 01:44:47.41	127.88	53.50	-35.5	-36.6	30.2	3.02e+01	0	39	0	567803904	46	5834
2026-01-04 01:44:48.42	127.49	53.89	-35.9	-37.0	29.8	3.02e+01	0	40	0	569901056	46	6122
2026-01-04 01:44:49.43	127.09	54.29	-36.1	-37.3	29.7	3.02e+01	0	40	0	571473920	46	6297
2026-01-04 01:44:50.44	126.67	54.69	-35.6	-36.8	30.1	3.02e+01	0	40	0	573571072	46	5927
2026-01-04 01:44:51.45	126.25	55.09	-35.9	-37.1	29.7	3.02e+01	0	40	0	575668224	46	6176
2026-01-04 01:44:52.46	125.81	55.49	-36.7	-37.9	28.9	3.02e+01	0	40	0	577241088	46	6798
2026-01-04 01:44:53.47	125.36	55.90	-36.7	-38.0	29.1	3.02e+01	0	40	0	579338240	46	6807
2026-01-04 01:44:54.48	124.90	56.30	-36.5	-37.7	29.3	3.02e+01	0	40	0	580911104	46	6592
2026-01-04 01:44:55.49	124.42	56.71	-36.7	-37.9	29.1	3.02e+01	0	40	0	583008256	46	6796
2026-01-04 01:44:56.50	123.93	57.12	-36.6	-37.8	29.2	3.02e+01	0	40	0	585105408	46	6651
2026-01-04 01:44:57.51	123.42	57.52	-37.1	-38.3	27.4	3.02e+01	0	40	0	586678272	46	7092
2026-01-04 01:44:58.52	122.90	57.93	-37.1	-38.4	28.7	3.02e+01	0	40	0	588775424	48	6354
2026-01-04 01:44:59.52	122.36	58.34	-36.8	-38.0	29.0	3.02e+01	0	40	0	590348288	48	6124
2026-01-04 01:45:00.53	121.80	58.75	-37.4	-38.6	28.3	3.02e+01	0	40	0	592445440	48	6553
2026-01-04 01:45:01.54	121.23	59.16	-37.2	-38.4	28.8	3.02e+01	0	40	0	594542592	48	6376
2026-01-04 01:45:02.55	120.64	59.57	-37.0	-38.2	28.9	3.02e+01	0	40	0	596115456	48	6252
2026-01-04 01:45:03.56	120.03	59.98	-37.4	-38.6	28.4	3.02e+01	0	40	0	598212608	48	6566
2026-01-04 01:45:04.57	119.39	60.39	-37.2	-38.4	28.6	3.02e+01	0	40	0	599785472	48	6419
2026-01-04 01:45:05.58	118.74	60.80	-37.2	-38.5	28.5	3.02e+01	0	40	0	601882624	48	6439
2026-01-04 01:45:06.59	118.07	61.21	-37.3	-38.5	28.5	3.02e+01	0	40	0	603979776	48	6475
2026-01-04 01:45:07.60	117.37	61.62	-37.8	-39.1	28.2	3.02e+01	0	40	0	605552640	48	6935
2026-01-04 01:45:08.61	116.65	62.02	-37.6	-38.8	28.3	3.02e+01	0	40	0	607649792	48	6714
2026-01-04 01:45:09.62	115.90	62.43	-38.8	-40.1	27.5	3.02e+01	0	40	0	609222656	50	6929
2026-01-04 01:45:10.62	115.14	62.83	-37.8	-39.0	28.2	3.02e+01	0	40	0	611319808	50	6105
2026-01-04 01:45:11.63	114.34	63.23	-38.4	-39.7	27.5	3.02e+01	0	40	0	613416960	50	6620
2026-01-04 01:45:12.64	113.52	63.63	-38.5	-39.8	27.4	3.02e+01	0	40	0	614989824	50	6710
2026-01-04 01:45:13.65	112.67	64.02	-38.5	-39.8	27.7	3.02e+01	0	40	0	617086976	50	6669
2026-01-04 01:45:14.66	111.78	64.42	-39.3	-40.7	26.8	3.02e+01	0	40	0	618659840	52	6635
2026-01-04 01:45:15.67	110.87	64.81	-39.1	-40.5	27.1	3.02e+01	0	40	0	620756992	52	6439
2026-01-04 01:45:16.68	109.92	65.19	-39.2	-40.5	27.0	3.02e+01	0	40	0	622854144	52	6480
2026-01-04 01:45:17.70	108.94	65.58	-40.0	-41.4	25.9	3.02e+01	0	40	0	624427008	54	6390
2026-01-04 01:45:18.71	107.92	65.95	-39.8	-41.2	26.1	3.02e+01	0	40	0	626524160	54	6261
2026-01-04 01:45:19.72	106.87	66.32	-40.0	-41.4	25.9	3.02e+01	0	40	0	628621312	54	6420
2026-01-04 01:45:20.72	105.80	66.68	-41.5	-43.1	24.5	3.02e+01	0	40	0	630194176	56	6934
2026-01-04 01:45:21.73	104.67	67.04	-40.5	-41.9	25.5	3.02e+01	0	40	0	632291328	56	6060
2026-01-04 01:45:22.74	103.51	67.40	-40.8	-42.3	25.4	3.02e+01	0	40	0	633864192	56	6333
2026-01-04 01:45:23.75	102.31	67.74	-41.3	-42.9	25.0	3.02e+01	0	40	0	635961344	56	6735
2026-01-04 01:45:24.76	101.07	68.08	-40.2	-41.7	26.0	3.02e+01	0	40	0	638058496	56	5861
2026-01-04 01:45:25.77	99.78	68.41	-41.2	-42.7	24.9	3.02e+01	0	40	0	639631360	56	6645
2026-01-04 01:45:26.78	98.45	68.72	-40.2	-41.7	26.1	3.02e+01	0	40	0	641728512	56	5870
2026-01-04 01:45:27.79	97.08	69.03	-40.2	-41.7	26.0	3.02e+01	0	40	0	643825664	54	6585
2026-01-04 01:45:28.80	95.67	69.33	-40.7	-42.2	25.5	3.02e+01	0	40	0	645398528	54	6996
2026-01-04 01:45:29.81	94.21	69.62	-40.0	-41.4	26.0	3.02e+01	0	40	0	647495680	54	6400
2026-01-04 01:45:30.82	92.71	69.90	-40.5	-42.0	25.5	3.02e+01	0	40	0	649068544	54	6842
2026-01-04 01:45:31.83	91.16	70.16	-40.1	-41.5	26.0	3.02e+01	0	40	0	651165696	54	6482
2026-01-04 01:45:32.84	89.57	70.41	-40.8	-42.3	25.3	3.02e+01	0	40	0	653262848	56	6290
2026-01-04 01:45:33.85	87.94	70.64	-40.2	-41.6	26.0	3.02e+01	0	40	0	654835712	56	5818
2026-01-04 01:45:34.85	86.28	70.86	-41.3	-42.9	24.9	3.02e+01	0	40	0	656932864	56	6765
2026-01-04 01:45:35.87	84.55	71.07	-40.4	-41.8	25.7	3.02e+01	0	40	0	658505728	56	5984
2026-01-04 01:45:36.88	82.80	71.26	-41.4	-42.9	24.9	3.02e+01	0	40	0	660602880	56	6783
2026-01-04 01:45:37.89	81.01	71.44	-40.6	-42.0	25.2	3.02e+01	0	40	0	662700032	56	6125
2026-01-04 01:45:38.90	79.18	71.59	-41.5	-43.2	24.7	3.02e+01	0	40	0	664272896	56	7010
2026-01-04 01:45:39.91	77.33	71.73	-39.4	-40.8	26.7	3.02e+01	0	40	0	666370048	54	5947
2026-01-04 01:45:40.92	75.44	71.85	-40.2	-41.7	25.8	3.02e+01	0	40	0	667942912	54	6621
2026-01-04 01:45:41.92	73.55	71.95	-40.2	-41.7	25.8	3.02e+01	0	40	0	670040064	54	6581
2026-01-04 01:45:42.93	71.62	72.03	-39.9	-41.3	26.2	3.02e+01	0	40	0	672137216	54	6332
2026-01-04 01:45:43.94	69.68	72.10	-40.2	-41.7	25.8	3.02e+01	0	40	0	673710080	54	6611
2026-01-04 01:45:44.95	67.72	72.14	-40.4	-41.9	25.6	3.02e+01	0	40	0	675807232	54	6776
2026-01-04 01:45:45.96	65.76	72.17	-40.7	-42.2	25.2	3.02e+01	0	40	0	677380096	56	6235
2026-01-04 01:45:46.97	63.79	72.17	-40.9	-42.4	25.7	3.02e+01	0	40	0	679477248	56	6357
2026-01-04 01:45:47.98	61.82	72.15	-41.1	-42.6	25.0	3.02e+01	0	40	0	681574400	56	6550
2026-01-04 01:45:48.99	59.86	72.12	-40.6	-42.0	25.6	3.02e+01	0	40	0	683147264	56	6128
2026-01-04 01:45:50.00	57.91	72.06	-40.6	-42.1	25.6	3.02e+01	0	40	0	685244416	56	6161
2026-01-04 01:45:51.01	55.98	71.99	-40.8	-42.3	25.4	3.02e+01	0	40	0	686817280	56	6317
2026-01-04 01:45:52.02	54.06	71.89	-40.6	-42.1	25.6	3.02e+01	0	40	0	688914432	56	6171
2026-01-04 01:45:53.03	52.17	71.78	-40.2	-41.6	25.9	3.02e+01	0	40	0	691011584	56	5822
2026-01-04 01:45:54.04	50.30	71.65	-41.3	-42.8	24.7	3.02e+01	0	40	0	692584448	56	6717
2026-01-04 01:45:55.05	48.47	71.50	-40.3	-41.7	25.9	3.02e+01	0	40	0	694681600	56	5916
2026-01-04 01:45:56.06	46.66	71.33	-40.3	-41.8	25.8	3.02e+01	0	40	0	696778752	56	5971
2026-01-04 01:45:57.07	44.90	71.15	-42.0	-43.7	23.8	3.02e+01	0	40	0	698351616	58	6634
2026-01-04 01:45:58.08	43.17	70.95	-40.9	-42.4	25.2	3.02e+01	0	40	0	700448768	58	5697
2026-01-04 01:45:59.09	41.48	70.73	-40.8	-42.3	25.0	3.02e+01	0	40	0	702021632	56	6289
2026-01-04 01:46:00.10	39.83	70.50	-42.3	-44.0	23.7	3.02e+01	0	40	0	704118784	58	6876
2026-01-04 01:46:01.10	38.24	70.26	-41.8	-43.5	24.4	3.02e+01	0	40	0	706215936	58	6473
2026-01-04 01:46:02.11	36.68	70.00	-41.5	-43.0	24.5	3.02e+01	0	40	0	707788800	58	6106
2026-01-04 01:46:03.12	35.16	69.73	-41.8	-43.4	24.3	3.02e+01	0	40	0	709885952	58	6418
2026-01-04 01:46:04.13	33.69	69.45	-41.9	-43.6	24.1	3.02e+01	0	40	0	711983104	58	6527
2026-01-04 01:46:05.14	32.26	69.15	-41.8	-43.4	24.3	3.02e+01	0	40	0	713555968	58	6395
2026-01-04 01:46:06.15	30.87	68.85	-41.3	-42.9	24.8	3.02e+01	0	40	0	715653120	58	6017
2026-01-04 01:46:07.16	29.53	68.53	-42.3	-44.0	23.6	3.02e+01	0	40	0	717225984	58	6874
2026-01-04 01:46:08.17	28.23	68.21	-41.9	-43.5	24.3	3.02e+01	0	40	0	719323136	58	6461
2026-01-04 01:46:09.18	26.97	67.88	-42.9	-44.7	23.5	3.02e+01	0	40	0	720896000	60	6620
2026-01-04 01:46:10.19	25.75	67.53	-41.6	-43.2	24.5	3.02e+01	0	40	0	722993152	58	6238
2026-01-04 01:46:11.20	24.58	67.19	-42.1	-43.8	23.8	3.02e+01	0	40	0	725090304	58	6705
2026-01-04 01:46:12.21	23.44	66.83	-42.0	-43.8	23.8	3.02e+01	0	40	0	726663168	58	6650
2026-01-04 01:46:13.22	22.34	66.47	-41.7	-43.3	24.3	3.02e+01	0	40	0	728760320	58	6317
2026-01-04 01:46:14.23	21.28	66.10	-40.9	-42.4	25.1	3.02e+01	0	40	0	730333184	58	5694
2026-01-04 01:46:15.23	20.26	65.73	-41.2	-42.8	24.8	3.02e+01	0	40	0	732430336	56	6698
2026-01-04 01:46:16.24	19.27	65.35	-41.7	-43.4	24.2	3.02e+01	0	40	0	734527488	56	7165
2026-01-04 01:46:17.25	18.31	64.97	-40.3	-41.8	25.9	3.02e+01	0	40	0	736100352	56	5950
2026-01-04 01:46:18.26	17.39	64.58	-40.2	-41.7	25.8	3.02e+01	0	40	0	738197504	56	5872
2026-01-04 01:46:19.27	16.50	64.19	-40.6	-42.1	25.5	3.02e+01	0	40	0	740294656	56	6173
2026-01-04 01:46:20.28	15.63	63.80	-39.6	-41.0	26.5	3.02e+01	0	40	0	741867520	54	6079
2026-01-04 01:46:21.29	14.80	63.40	-38.9	-40.2	25.7	3.02e+01	0	40	0	743964672	54	5576
2026-01-04 01:46:22.30	13.99	63.00	-39.3	-40.6	26.9	3.02e+01	0	40	0	745537536	52	6566
2026-01-04 01:46:23.31	13.21	62.60	-39.2	-40.6	26.9	3.02e+01	0	40	0	747634688	52	6509
2026-01-04 01:46:24.32	12.46	62.19	-38.9	-40.3	27.1	3.02e+01	0	40	0	749731840	52	6312
2026-01-04 01:46:25.33	11.73	61.79	-38.4	-39.7	27.6	3.02e+01	0	40	0	751304704	52	5919
2026-01-04 01:46:26.34	11.02	61.38	-38.2	-39.5	27.8	3.02e+01	0	40	0	753401856	52	5774
2026-01-04 01:46:27.35	10.34	60.97	-38.4	-39.7	27.6	3.02e+01	0	40	0	754974720	52	5922
2026-01-04 01:46:28.36	9.68	60.57	-38.4	-39.7	27.4	3.02e+01	0	40	0	757071872	52	5888
2026-01-04 01:46:29.37	9.04	60.16	-37.8	-39.1	28.1	3.02e+01	0	40	0	759169024	50	6158
2026-01-04 01:46:30.37	8.43	59.75	-37.7	-39.0	28.3	3.02e+01	0	40	0	760741888	50	6074
2026-01-04 01:46:31.38	7.83	59.34	-38.2	-39.5	27.9	3.02e+01	0	40	0	762839040	50	6463
2026-01-04 01:46:32.39	7.25	58.93	-37.7	-38.9	28.3	3.02e+01	0	40	0	764936192	50	6052
2026-01-04 01:46:33.40	6.68	58.52	-37.8	-39.1	28.2	3.02e+01	0	40	0	766509056	50	6172
2026-01-04 01:46:34.41	6.14	58.12	-37.3	-38.5	28.5	3.02e+01	0	40	0	768606208	50	5770
2026-01-04 01:46:35.41	5.61	57.71	-36.8	-38.0	29.2	3.02e+01	0	40	0	770179072	48	6122
2026-01-04 01:46:36.42	5.10	57.30	-37.1	-38.3	28.9	3.02e+01	0	40	0	772276224	48	6304
2026-01-04 01:46:37.43	4.60	56.90	-36.9	-38.2	29.0	3.02e+01	0	40	0	774373376	48	6214
2026-01-04 01:46:38.44	4.12	56.49	-36.3	-37.5	29.5	3.02e+01	0	40	0	775946240	48	5731
2026-01-04 01:46:39.45	3.65	56.09	-36.1	-37.2	29.9	3.02e+01	0	40	0	778043392	48	5594
2026-01-04 01:46:40.46	3.20	55.68	-35.8	-37.0	29.8	3.02e+01	0	40	0	779616256	46	6095
2026-01-04 01:46:41.47	2.75	55.28	-35.8	-36.9	30.0	3.02e+01	0	40	0	781713408	46	6054
2026-01-04 01:46:42.48	2.32	54.88	-35.8	-37.0	30.0	3.02e+01	0	40	0	783810560	46	6106
2026-01-04 01:46:43.49	1.91	54.48	-35.2	-36.4	30.3	3.02e+01	0	40	0	785383424	46	5682
2026-01-04 01:46:44.50	1.50	54.09	-34.9	-36.0	30.7	3.02e+01	0	40	0	787480576	44	6093
2026-01-04 01:46:45.51	1.10	53.69	-35.6	-36.7	30.2	3.02e+01	0	40	0	789053440	44	6646
2026-01-04 01:46:46.52	0.72	53.30	-35.7	-36.9	30.1	3.02e+01	0	40	0	791150592	46	6036
2026-01-04 01:46:47.53	0.35	52.91	-35.8	-37.0	30.0	3.02e+01	0	40	0	793247744	46	6067
2026-01-04 01:46:48.54	359.98	52.52	-35.8	-36.9	30.1	3.02e+01	0	40	0	794820608	46	6056
2026-01-04 01:46:49.55	359.63	52.13	-35.7	-36.9	30.0	3.02e+01	0	40	0	796917760	46	6027
2026-01-04 01:46:50.56	359.29	51.75	-35.7	-36.8	30.2	3.02e+01	0	40	0	798490624	46	5984
2026-01-04 01:46:51.57	358.95	51.36	-35.3	-36.4	30.4	3.02e+01	0	40	0	800587776	46	5714
2026-01-04 01:46:52.57	358.63	50.99	-36.1	-37.3	29.9	3.02e+01	0	40	0	802684928	46	6326
2026-01-04 01:46:53.58	358.31	50.61	-36.5	-37.8	29.4	3.02e+01	0	40	0	804257792	46	6652
2026-01-04 01:46:54.59	358.00	50.23	-37.3	-38.5	29.4	3.02e+01	0	40	0	806354944	46	7259
2026-01-04 01:46:55.60	357.69	49.86	-36.6	-37.8	29.3	3.02e+01	0	40	0	808452096	48	5937
2026-01-04 01:46:56.61	357.40	49.49	-36.7	-37.9	29.4	3.02e+01	0	40	0	810024960	48	6015
2026-01-04 01:46:57.62	357.11	49.12	-36.7	-37.9	29.3	3.02e+01	0	40	0	812122112	48	6010
2026-01-04 01:46:58.62	356.83	48.75	-36.5	-37.7	29.6	3.02e+01	0	40	0	813694976	48	5863
2026-01-04 01:46:59.63	356.56	48.39	-36.9	-38.1	29.3	3.02e+01	0	40	0	815792128	48	6188
2026-01-04 01:47:00.64	356.29	48.03	-37.2	-38.4	29.0	3.02e+01	0	40	0	817889280	48	6406
2026-01-04 01:47:01.65	356.03	47.67	-36.4	-37.6	29.4	3.02e+01	0	40	0	819462144	48	5847
2026-01-04 01:47:02.66	355.77	47.31	-36.2	-37.4	29.7	3.02e+01	0	40	0	821559296	48	5672
2026-01-04 01:47:03.67	355.52	46.96	-36.3	-37.5	29.5	3.02e+01	0	40	0	823132160	48	5780
2026-01-04 01:47:04.68	355.28	46.60	-36.3	-37.5	29.6	3.02e+01	0	40	0	825229312	48	5744
2026-01-04 01:47:05.69	355.04	46.26	-36.1	-37.2	29.8	3.02e+01	0	40	0	827326464	48	5576
2026-01-04 01:47:06.70	354.81	45.91	-36.1	-37.3	29.8	3.02e+01	0	40	0	828899328	46	6308
2026-01-04 01:47:07.71	354.58	45.56	-36.5	-37.7	29.5	3.02e+01	0	40	0	830996480	46	6610
2026-01-04 01:47:08.72	354.36	45.22	-36.4	-37.7	29.5	3.02e+01	0	40	0	832569344	46	6575
2026-01-04 01:47:09.73	354.14	44.88	-36.4	-37.6	29.4	3.02e+01	0	40	0	834666496	46	6519
2026-01-04 01:47:10.74	353.93	44.55	-36.4	-37.6	29.6	3.02e+01	0	40	0	836763648	46	6505
2026-01-04 01:47:11.74	353.72	44.22	-36.4	-37.6	29.5	3.02e+01	0	40	0	838336512	46	6510
2026-01-04 01:47:12.75	353.51	43.89	-36.4	-37.5	29.7	3.02e+01	0	40	0	840433664	46	6488
2026-01-04 01:47:13.76	353.32	43.56	-36.6	-37.7	29.5	3.02e+01	0	40	0	842006528	46	6637
2026-01-04 01:47:14.78	353.12	43.23	-37.0	-38.2	29.1	3.02e+01	0	40	0	844103680	46	7014
2026-01-04 01:47:15.78	352.93	42.91	-37.1	-38.4	28.8	3.02e+01	0	40	0	846200832	48	6356
2026-01-04 01:47:16.79	352.74	42.59	-37.1	-38.4	28.9	3.02e+01	0	40	0	847773696	48	6366
2026-01-04 01:47:17.80	352.56	42.27	-37.2	-38.5	28.8	3.02e+01	0	40	0	849870848	48	6453
2026-01-04 01:47:18.81	352.38	41.95	-37.4	-38.6	28.7	3.02e+01	0	40	0	851443712	48	6550
2026-01-04 01:47:19.82	352.20	41.64	-37.5	-38.8	28.7	3.02e+01	0	40	0	853540864	48	6665
2026-01-04 01:47:20.83	352.03	41.33	-37.3	-38.5	28.8	3.02e+01	0	40	0	855638016	48	6463
2026-01-04 01:47:21.84	351.86	41.02	-37.3	-38.5	28.8	3.02e+01	0	40	0	857210880	48	6476
2026-01-04 01:47:22.85	351.69	40.71	-37.7	-39.0	28.7	3.02e+01	0	40	0	859308032	48	6815
2026-01-04 01:47:23.86	351.53	40.41	-37.9	-39.1	28.5	3.02e+01	0	40	0	861405184	50	6163
2026-01-04 01:47:24.87	351.37	40.11	-38.1	-39.4	28.1	3.02e+01	0	40	0	862978048	50	6383
2026-01-04 01:47:25.88	351.21	39.81	-38.3	-39.6	27.8	3.02e+01	0	40	0	865075200	50	6508
2026-01-04 01:47:26.89	351.06	39.51	-38.6	-39.9	27.8	3.02e+01	0	40	0	866648064	50	6768
2026-01-04 01:47:27.90	350.91	39.22	-38.4	-39.7	27.9	3.02e+01	0	40	0	868745216	50	6574
2026-01-04 01:47:28.91	350.76	38.93	-38.3	-39.5	28.1	3.02e+01	0	40	0	870842368	50	6479
2026-01-04 01:47:29.92	350.61	38.64	-37.9	-39.2	28.3	3.02e+01	0	40	0	872415232	50	6221
2026-01-04 01:47:30.92	350.47	38.35	-38.2	-39.4	28.3	3.02e+01	0	40	0	874512384	50	6401
2026-01-04 01:47:31.93	350.33	38.07	-38.3	-39.6	27.8	3.02e+01	0	40	0	876609536	50	6510
2026-01-04 01:47:32.94	350.19	37.79	-38.4	-39.7	28.0	3.02e+01	0	40	0	878182400	50	6585
2026-01-04 01:47:33.95	350.06	37.51	-38.6	-39.9	28.0	3.02e+01	0	40	0	880279552	50	6741
2026-01-04 01:47:34.96	349.93	37.23	-38.1	-39.4	28.2	3.02e+01	0	40	0	881852416	50	6404
2026-01-04 01:47:35.97	349.80	36.96	-38.0	-39.2	28.3	3.02e+01	0	40	0	883949568	50	6248
2026-01-04 01:47:36.98	349.67	36.68	-37.6	-38.8	28.6	3.02e+01	0	40	0	886046720	50	5982
2026-01-04 01:47:37.99	349.54	36.41	-37.4	-38.6	28.9	3.02e+01	0	40	0	887619584	50	5847
2026-01-04 01:47:39.00	349.42	36.14	-37.5	-38.7	28.9	3.02e+01	0	40	0	889716736	50	5883
2026-01-04 01:47:40.01	349.30	35.88	-37.7	-38.9	28.8	3.02e+01	0	40	0	891289600	50	6024
2026-01-04 01:47:41.02	349.18	35.61	-37.6	-38.9	28.8	3.02e+01	0	40	0	893386752	50	6007
2026-01-04 01:47:42.03	349.06	35.35	-37.4	-38.6	28.9	3.02e+01	0	40	0	895483904	50	5833
2026-01-04 01:47:43.04	348.94	35.09	-37.3	-38.5	29.1	3.02e+01	0	40	0	897056768	50	5767
2026-01-04 01:47:44.05	348.83	34.83	-37.3	-38.5	29.2	3.02e+01	0	40	0	899153920	50	5771
2026-01-04 01:47:45.06	348.72	34.58	-37.5	-38.7	29.1	3.02e+01	0	40	0	900726784	50	5885
2026-01-04 01:47:46.07	348.61	34.33	-36.9	-38.1	29.4	3.02e+01	0	40	0	902823936	48	6205
2026-01-04 01:47:47.08	348.50	34.07	-36.6	-37.8	29.6	3.02e+01	0	40	0	904921088	48	5928
2026-01-04 01:47:48.09	348.39	33.83	-36.5	-37.7	29.5	3.02e+01	0	40	0	906493952	48	5895
2026-01-04 01:47:49.10	348.29	33.58	-36.7	-37.9	29.5	3.02e+01	0	40	0	908591104	48	6026
2026-01-04 01:47:50.11	348.19	33.33	-36.2	-37.3	29.8	3.02e+01	0	40	0	910163968	48	5655
2026-01-04 01:47:51.11	348.09	33.09	-36.1	-37.3	30.0	3.02e+01	0	40	0	912261120	46	6283
2026-01-04 01:47:52.12	347.99	32.85	-36.1	-37.3	30.0	3.02e+01	0	40	0	914358272	46	6287
2026-01-04 01:47:53.13	347.89	32.61	-36.0	-37.2	29.9	3.02e+01	0	40	0	915931136	46	6227
2026-01-04 01:47:54.14	347.79	32.37	-36.1	-37.3	29.9	3.02e+01	0	40	0	918028288	46	6303
2026-01-04 01:47:55.15	347.70	32.14	-36.0	-37.1	30.0	3.02e+01	0	40	0	919601152	46	6200
2026-01-04 01:47:56.16	347.60	31.90	-36.0	-37.2	30.1	3.02e+01	0	40	0	921698304	46	6223
2026-01-04 01:47:57.17	347.51	31.67	-36.1	-37.3	30.0	3.02e+01	0	40	0	923795456	46	6297
2026-01-04 01:47:58.18	347.42	31.44	-36.3	-37.5	30.0	3.02e+01	0	40	0	925368320	46	6434
2026-01-04 01:47:59.19	347.33	31.21	-36.1	-37.3	30.1	3.02e+01	0	40	0	927465472	46	6280
2026-01-04 01:48:00.20	347.24	30.99	-36.2	-37.4	29.9	3.02e+01	0	40	0	929562624	46	6391
2026-01-04 01:48:01.21	347.16	30.76	-36.3	-37.5	29.9	3.02e+01	0	40	0	931135488	46	6476
2026-01-04 01:48:02.22	347.07	30.54	-36.2	-37.4	30.0	3.02e+01	0	40	0	933232640	46	6362
2026-01-04 01:48:03.23	346.99	30.32	-36.2	-37.4	29.9	3.02e+01	0	40	0	934805504	46	6364
2026-01-04 01:48:04.24	346.90	30.10	-36.2	-37.4	29.9	3.02e+01	0	40	0	936902656	46	6376
2026-01-04 01:48:05.24	346.82	29.89	-36.1	-37.3	29.9	3.02e+01	0	40	0	938999808	46	6323
2026-01-04 01:48:06.25	346.74	29.67	-36.0	-37.1	30.0	3.02e+01	0	40	0	940572672	46	6182
2026-01-04 01:48:07.26	346.66	29.46	-35.8	-37.0	30.1	3.02e+01	0	40	0	942669824	46	6082
2026-01-04 01:48:08.27	346.58	29.24	-35.7	-36.8	30.1	3.02e+01	0	40	0	944242688	46	5989
2026-01-04 01:48:09.28	346.51	29.03	-35.8	-36.9	30.1	3.02e+01	0	40	0	946339840	46	6058
2026-01-04 01:48:10.29	346.43	28.82	-35.9	-37.0	30.1	3.02e+01	0	40	0	948436992	46	6123
2026-01-04 01:48:11.30	346.35	28.62	-36.3	-37.4	30.0	3.02e+01	0	40	0	950009856	46	6396
2026-01-04 01:48:12.31	346.28	28.41	-36.4	-37.6	29.8	3.02e+01	0	40	0	952107008	46	6522
2026-01-04 01:48:13.32	346.21	28.21	-36.1	-37.3	30.0	3.02e+01	0	40	0	953679872	46	6298
2026-01-04 01:48:14.33	346.14	28.00	-36.2	-37.4	29.9	3.02e+01	0	40	0	955777024	46	6384
2026-01-04 01:48:15.34	346.06	27.80	-37.6	-38.8	28.5	3.02e+01	0	40	0	957874176	48	6716
2026-01-04 01:48:16.34	345.99	27.60	-36.6	-37.7	29.9	3.02e+01	0	40	0	959447040	48	5905
2026-01-04 01:48:17.36	345.92	27.40	-36.5	-37.6	30.0	3.02e+01	0	40	0	961544192	48	5848
2026-01-04 01:48:18.37	345.86	27.21	-36.7	-37.9	29.9	3.02e+01	0	40	0	963117056	48	6046
2026-01-04 01:48:19.38	345.79	27.01	-36.5	-37.7	29.9	3.02e+01	0	40	0	965214208	48	5875
2026-01-04 01:48:20.39	345.72	26.82	-36.8	-38.0	29.9	3.02e+01	0	40	0	967311360	48	6084
2026-01-04 01:48:21.39	345.66	26.63	-36.5	-37.7	29.6	3.02e+01	0	40	0	968884224	48	5895
2026-01-04 01:48:22.41	345.59	26.43	-37.0	-38.2	29.5	3.02e+01	0	40	0	970981376	48	6206
2026-01-04 01:48:23.41	345.53	26.25	-37.2	-38.4	29.3	3.02e+01	0	40	0	973078528	48	6384
2026-01-04 01:48:24.42	345.47	26.06	-37.5	-38.7	29.4	3.02e+01	0	40	0	974651392	48	6611
2026-01-04 01:48:25.43	345.40	25.87	-37.3	-38.5	29.4	3.02e+01	0	40	0	976748544	48	6494
2026-01-04 01:48:26.44	345.34	25.69	-37.3	-38.5	29.3	3.02e+01	0	40	0	978321408	48	6465
2026-01-04 01:48:27.44	345.28	25.50	-37.3	-38.5	29.3	3.02e+01	0	40	0	980418560	48	6454
2026-01-04 01:48:28.45	345.22	25.32	-37.2	-38.4	29.2	3.02e+01	0	40	0	982515712	48	6385
2026-01-04 01:48:29.46	345.16	25.14	-36.8	-38.0	29.2	3.02e+01	0	40	0	984088576	48	6121
2026-01-04 01:48:30.47	345.11	24.96	-37.0	-38.3	29.1	3.02e+01	0	40	0	986185728	48	6290
2026-01-04 01:48:31.48	345.05	24.78	-37.3	-38.5	29.0	3.02e+01	0	40	0	987758592	48	6473
2026-01-04 01:48:32.49	344.99	24.60	-37.2	-38.4	29.0	3.02e+01	0	40	0	989855744	48	6375
2026-01-04 01:48:33.50	344.94	24.43	-38.1	-39.3	28.8	3.02e+01	0	40	0	991952896	50	6342
2026-01-04 01:48:34.50	344.88	24.25	-37.8	-39.0	28.6	3.02e+01	0	40	0	993525760	50	6109
2026-01-04 01:48:35.51	344.83	24.08	-37.5	-38.8	28.9	3.02e+01	0	40	0	995622912	50	5930
2026-01-04 01:48:36.52	344.77	23.91	-37.1	-38.3	29.2	3.02e+01	0	40	0	997195776	50	5616
2026-01-04 01:48:37.53	344.72	23.73	-37.1	-38.4	29.3	3.02e+01	0	40	0	999292928	50	5661
2026-01-04 01:48:38.54	344.67	23.56	-37.2	-38.4	29.2	3.02e+01	0	40	0	1001390080	50	5710
2026-01-04 01:48:39.55	344.61	23.40	-37.1	-38.3	29.1	3.02e+01	0	40	0	1002962944	48	6314
2026-01-04 01:48:40.56	344.56	23.23	-37.2	-38.4	28.8	3.02e+01	0	40	0	1005060096	48	6411
2026-01-04 01:48:41.57	344.51	23.06	-37.0	-38.2	29.1	3.02e+01	0	40	0	1006632960	48	6267
2026-01-04 01:48:42.58	344.46	22.90	-37.2	-38.4	29.0	3.02e+01	0	40	0	1008730112	48	6366
2026-01-04 01:48:43.59	344.41	22.73	-37.1	-38.3	29.0	3.02e+01	0	40	0	1010827264	48	6343
2026-01-04 01:48:44.60	344.36	22.57	-36.9	-38.2	29.0	3.02e+01	0	40	0	1012400128	48	6206
2026-01-04 01:48:45.61	344.31	22.41	-36.9	-38.2	28.9	3.02e+01	0	40	0	1014497280	48	6219
2026-01-04 01:48:46.62	344.26	22.24	-37.1	-38.3	29.0	3.02e+01	0	40	0	1016070144	48	6298
2026-01-04 01:48:47.63	344.22	22.08	-37.0	-38.2	28.8	3.02e+01	0	40	0	1018167296	48	6265
2026-01-04 01:48:48.64	344.17	21.93	-37.0	-38.3	28.9	3.02e+01	0	40	0	1020264448	48	6299
2026-01-04 01:48:49.65	344.12	21.77	-36.9	-38.2	28.9	3.02e+01	0	40	0	1021837312	48	6220
2026-01-04 01:48:50.66	344.08	21.61	-37.1	-38.3	28.7	3.02e+01	0	40	0	1023934464	48	6322
2026-01-04 01:48:51.67	344.03	21.45	-37.0	-38.2	28.9	3.02e+01	0	40	0	1026031616	48	6228
2026-01-04 01:48:52.68	343.99	21.30	-36.8	-38.0	29.0	3.02e+01	0	40	0	1027604480	48	6130
2026-01-04 01:48:53.69	343.94	21.15	-36.9	-38.2	29.1	3.02e+01	0	40	0	1029701632	48	6208
2026-01-04 01:48:54.70	343.90	20.99	-37.0	-38.2	28.8	3.02e+01	0	40	0	1031274496	48	6271
2026-01-04 01:48:55.71	343.86	20.84	-36.8	-38.0	29.1	3.02e+01	0	40	0	1033371648	48	6084
2026-01-04 01:48:56.72	343.81	20.69	-36.7	-37.9	29.0	3.02e+01	0	40	0	1035468800	48	6038
2026-01-04 01:48:57.73	343.77	20.54	-36.7	-38.0	29.1	3.02e+01	0	40	0	1037041664	48	6071
2026-01-04 01:48:58.73	343.73	20.39	-36.8	-38.0	29.0	3.02e+01	0	40	0	1039138816	48	6116
2026-01-04 01:48:59.74	343.69	20.25	-36.7	-38.0	29.0	3.02e+01	0	40	0	1041235968	48	6084
2026-01-04 01:49:00.75	343.65	20.10	-36.7	-37.9	29.2	3.02e+01	0	40	0	1042808832	48	6036
2026-01-04 01:49:01.76	343.61	19.95	-36.6	-37.8	29.2	3.02e+01	0	40	0	1044905984	48	5989
2026-01-04 01:49:02.77	343.57	19.81	-36.8	-38.0	29.1	3.02e+01	0	40	0	1046478848	48	6082
2026-01-04 01:49:03.78	343.53	19.66	-36.6	-37.8	29.1	3.02e+01	0	40	0	1048576000	48	5949
2026-01-04 01:49:04.79	343.49	19.52	-36.5	-37.7	29.4	3.02e+01	0	40	0	1050673152	48	5918
2026-01-04 01:49:05.80	343.45	19.38	-36.7	-37.9	29.3	3.02e+01	0	40	0	1052246016	48	6059
2026-01-04 01:49:06.81	343.41	19.24	-36.6	-37.8	29.3	3.02e+01	0	40	0	1054343168	48	5956
2026-01-04 01:49:07.82	343.37	19.09	-37.1	-38.3	29.4	3.02e+01	0	40	0	1055916032	48	6296
2026-01-04 01:49:08.83	343.34	18.95	-36.8	-38.0	29.4	3.02e+01	0	40	0	1058013184	48	6093
2026-01-04 01:49:09.83	343.30	18.82	-36.5	-37.7	29.4	3.02e+01	0	40	0	1060110336	48	5889
2026-01-04 01:49:10.85	343.26	18.68	-36.8	-38.0	29.3	3.02e+01	0	40	0	1061683200	48	6089
2026-01-04 01:49:11.86	343.23	18.54	-37.0	-38.2	29.3	3.02e+01	0	40	0	1063780352	48	6214
2026-01-04 01:49:12.87	343.19	18.40	-36.8	-38.0	29.3	3.02e+01	0	40	0	1065353216	48	6113
2026-01-04 01:49:13.88	343.16	18.27	-36.7	-37.9	29.3	3.02e+01	0	40	0	1067450368	48	6050
2026-01-04 01:49:14.88	343.12	18.13	-36.8	-38.0	29.4	3.02e+01	0	40	0	1069547520	48	6120
2026-01-04 01:49:15.89	343.09	18.00	-36.8	-38.0	29.4	3.02e+01	0	40	0	1071120384	48	6126
2026-01-04 01:49:16.90	343.05	17.87	-36.7	-37.9	29.3	3.02e+01	0	40	0	1073217536	48	6044
2026-01-04 01:49:17.91	343.02	17.73	-36.6	-37.8	29.3	3.02e+01	0	40	0	1074790400	48	5964
2026-01-04 01:49:18.92	342.98	17.60	-36.6	-37.8	29.3	3.02e+01	0	40	0	1076887552	48	5954
2026-01-04 01:49:19.93	342.95	17.47	-36.6	-37.8	29.4	3.02e+01	0	40	0	1078984704	48	5934
2026-01-04 01:49:20.94	342.92	17.34	-36.5	-37.7	29.3	3.02e+01	0	40	0	1080557568	48	5923
2026-01-04 01:49:21.95	342.88	17.21	-36.8	-38.0	29.2	3.02e+01	0	40	0	1082654720	48	6083
2026-01-04 01:49:22.96	342.85	17.08	-36.8	-38.0	29.2	3.02e+01	0	40	0	1084227584	48	6081
2026-01-04 01:49:23.97	342.82	16.95	-36.5	-37.7	29.2	3.02e+01	0	40	0	1086324736	48	5907
2026-01-04 01:49:24.98	342.79	16.83	-36.7	-37.9	29.3	3.02e+01	0	40	0	1088421888	48	6029
2026-01-04 01:49:25.99	342.76	16.70	-36.7	-37.9	29.3	3.02e+01	0	40	0	1089994752	48	6022
2026-01-04 01:49:27.00	342.73	16.57	-36.7	-37.9	29.2	3.02e+01	0	40	0	1092091904	48	6000
2026-01-04 01:49:28.01	342.70	16.45	-36.6	-37.8	29.2	3.02e+01	0	40	0	1094189056	48	5972
2026-01-04 01:49:29.02	342.66	16.33	-36.5	-37.8	29.3	3.02e+01	0	40	0	1095761920	48	5931
2026-01-04 01:49:30.02	342.63	16.20	-36.6	-37.9	29.2	3.02e+01	0	40	0	1097859072	48	6001
2026-01-04 01:49:31.03	342.60	16.08	-36.7	-37.9	29.1	3.02e+01	0	40	0	1099431936	48	6060
2026-01-04 01:49:32.04	342.58	15.96	-36.9	-38.1	29.1	3.02e+01	0	40	0	1101529088	48	6170
2026-01-04 01:49:33.05	342.55	15.84	-37.1	-38.3	28.8	3.02e+01	0	40	0	1103626240	48	6308
2026-01-04 01:49:34.06	342.52	15.71	-37.0	-38.2	29.1	3.02e+01	0	40	0	1105199104	48	6272
2026-01-04 01:49:35.07	342.49	15.59	-37.0	-38.2	29.1	3.02e+01	0	40	0	1107296256	48	6242
2026-01-04 01:49:36.08	342.46	15.47	-37.0	-38.2	28.8	3.02e+01	0	40	0	1108869120	48	6249
2026-01-04 01:49:37.09	342.43	15.35	-37.3	-38.5	29.1	3.02e+01	0	40	0	1110966272	48	6495
2026-01-04 01:49:38.10	342.40	15.24	-37.4	-38.6	28.8	3.02e+01	0	40	0	1113063424	48	6563
2026-01-04 01:49:39.11	342.38	15.12	-37.4	-38.7	28.9	3.02e+01	0	40	0	1114636288	48	6601
2026-01-04 01:49:40.12	342.35	15.00	-37.3	-38.6	29.0	3.02e+01	0	40	0	1116733440	48	6509
2026-01-04 01:49:41.13	342.32	14.88	-36.9	-38.1	29.0	3.02e+01	0	40	0	1118830592	48	6185
2026-01-04 01:49:42.14	342.29	14.77	-37.0	-38.2	29.0	3.02e+01	0	40	0	1120403456	48	6262
2026-01-04 01:49:43.15	342.27	14.65	-36.8	-38.0	29.0	3.02e+01	0	40	0	1122500608	48	6121
2026-01-04 01:49:44.16	342.24	14.54	-36.8	-38.0	29.0	3.02e+01	0	40	0	1124073472	48	6101
2026-01-04 01:49:45.16	342.22	14.42	-36.9	-38.1	29.0	3.02e+01	0	40	0	1126170624	48	6164
2026-01-04 01:49:46.17	342.19	14.31	-36.7	-37.9	29.0	3.02e+01	0	40	0	1127743488	48	6051
2026-01-04 01:49:47.18	342.16	14.20	-36.9	-38.1	29.0	3.02e+01	0	40	0	1129840640	48	6175
2026-01-04 01:49:48.19	342.14	14.09	-36.6	-37.8	29.1	3.02e+01	0	40	0	1131937792	48	5992
2026-01-04 01:49:49.20	342.11	13.97	-37.4	-38.6	29.1	3.02e+01	0	40	0	1133510656	48	6542
2026-01-04 01:49:50.21	342.09	13.86	-37.1	-38.3	29.1	3.02e+01	0	40	0	1135607808	48	6302
2026-01-04 01:49:51.23	342.06	13.75	-37.3	-38.5	29.2	3.02e+01	0	40	0	1137180672	48	6449
2026-01-04 01:49:52.24	342.04	13.64	-37.1	-38.3	29.1	3.02e+01	0	40	0	1139277824	48	6348
2026-01-04 01:49:53.25	342.02	13.53	-37.4	-38.7	29.1	3.02e+01	0	40	0	1141374976	48	6587
2026-01-04 01:49:54.26	341.99	13.42	-37.3	-38.5	29.1	3.02e+01	0	40	0	1142947840	48	6449
2026-01-04 01:49:55.26	341.97	13.31	-36.9	-38.1	29.1	3.02e+01	0	40	0	1145044992	48	6159
2026-01-04 01:49:56.27	341.94	13.20	-37.2	-38.4	28.9	3.02e+01	0	40	0	1147142144	48	6384
2026-01-04 01:49:57.28	341.92	13.10	-37.2	-38.4	28.9	3.02e+01	0	40	0	1148715008	48	6407
2026-01-04 01:49:58.29	341.90	12.99	-36.9	-38.2	28.9	3.02e+01	0	40	0	1150812160	48	6222
2026-01-04 01:49:59.30	341.88	12.88	-37.4	-38.7	28.7	3.02e+01	0	40	0	1152385024	48	6618
2026-01-04 01:50:00.31	341.85	12.78	-37.1	-38.4	28.9	3.02e+01	0	40	0	1154482176	48	6369
2026-01-04 01:50:01.32	341.83	12.67	-37.1	-38.4	28.8	3.02e+01	0	40	0	1156579328	48	6372
2026-01-04 01:50:02.32	341.81	12.57	-37.1	-38.4	28.8	3.02e+01	0	40	0	1158152192	48	6355
2026-01-04 01:50:03.33	341.79	12.46	-37.3	-38.5	28.8	3.02e+01	0	40	0	1160249344	48	6493
2026-01-04 01:50:04.34	341.76	12.36	-37.2	-38.4	28.8	3.02e+01	0	40	0	1162346496	48	6385
2026-01-04 01:50:05.35	341.74	12.26	-37.4	-38.6	28.9	3.02e+01	0	40	0	1163919360	50	5854
2026-01-04 01:50:06.36	341.72	12.15	-37.5	-38.8	28.8	3.02e+01	0	40	0	1166016512	50	5941
2026-01-04 01:50:07.37	341.70	12.05	-37.8	-48.0	3.4	3.02e+01	0	40	104	1167589376	50	17199
2026-01-04 01:50:08.38	341.68	11.95	-38.0	-48.1	3.4	3.02e+01	0	40	104	1167589376	50	17426
2026-01-04 01:50:09.39	341.66	11.85	-38.0	-48.2	3.6	3.02e+01	0	40	104	1167589376	50	17533
2026-01-04 01:50:10.40	341.64	11.74	-38.0	-48.1	3.6	3.02e+01	0	40	104	1167589376	50	17326
2026-01-04 01:50:11.40	341.62	11.64	-37.9	-48.0	3.6	3.02e+01	0	40	104	1167589376	50	17274
2026-01-04 01:50:12.42	341.60	11.54	-37.8	-47.9	3.6	3.02e+01	0	40	104	1167589376	52	15128
2026-01-04 01:50:13.43	341.58	11.44	-49.5	-63.7	3.6	3.02e+01	0	40	104	1167589376	60	58947
2026-01-04 01:50:14.43	341.56	11.35	-38.3	-48.3	3.6	3.02e+01	0	40	104	1167589376	52	15931
2026-01-04 01:50:15.44	341.54	11.25	-43.8	-54.4	3.6	3.02e+01	0	40	104	1167589376	60	20143
2026-01-04 01:50:16.45	341.52	11.15	-37.9	-47.9	3.6	3.02e+01	0	40	104	1167589376	50	16986
2026-01-04 01:50:17.46	341.50	11.05	-38.3	-48.3	3.6	3.02e+01	0	40	104	1167589376	50	17841
2026-01-04 01:50:18.47	341.48	10.95	-38.1	-48.1	3.6	3.02e+01	0	40	104	1167589376	50	17352
2026-01-04 01:50:19.48	341.46	10.85	-39.9	-50.2	3.4	3.02e+01	0	40	104	1167589376	52	19641
2026-01-04 01:50:20.49	341.44	10.76	-38.5	-48.5	3.6	3.02e+01	0	40	104	1167589376	56	12914
2026-01-04 01:50:21.50	341.42	10.66	-38.6	-48.6	3.6	3.02e+01	0	40	104	1167589376	50	18427
2026-01-04 01:50:22.51	341.40	10.57	-47.2	-59.2	3.5	3.02e+01	0	40	104	1167589376	60	35060
2026-01-04 01:50:23.52	341.38	10.47	-39.0	-49.0	4.1	3.02e+01	0	40	104	1167589376	54	15241
2026-01-04 01:50:24.53	341.37	10.37	-43.8	-54.4	3.4	3.02e+01	0	40	104	1167589376	60	20154
2026-01-04 01:50:25.54	341.35	10.28	-40.6	-50.7	4.0	3.02e+01	0	40	104	1167589376	56	16584
2026-01-04 01:50:26.55	341.33	10.19	-40.7	-50.8	4.1	3.02e+01	0	40	104	1167589376	54	18790
2026-01-04 01:50:27.56	341.31	10.09	-40.0	-50.1	4.1	3.02e+01	0	40	104	1167589376	54	17292
2026-01-04 01:50:28.57	341.29	10.00	-39.0	-49.0	4.1	3.02e+01	0	40	104	1167589376	54	15282
2026-01-04 01:50:29.58	341.28	9.90	-41.5	-51.8	3.4	3.02e+01	0	40	104	1167589376	52	23647
2026-01-04 01:50:30.59	341.26	9.81	-39.9	-50.1	3.5	3.02e+01	0	40	104	1167589376	58	13736
