passes_logs/2026/01/14/R2.0S_Moscow/R2.0S_Moscow__20260114_014515_AQUA_rec.log

#Pass ID: 20260114_014515_AQUA
#Satellite: AQUA
#Configuration: AQUA
#almurnet v.1.7.20251203
#Start time: 2026-01-14 01:46:08

#Version: 2.2.20231116
#Station: R2.0S_Moscow
#Location: 37.707566 lon 55.798166 lat
#TLE: 1 27424U 02022A   26013.25278823  .00000890  00000+0  18808-3 0  9998
#TLE: 2 27424  98.4079 339.6508 0002047  80.3961  24.1839 14.61818714260637

#Time	Az	El	Level	Level2	SNR	BER	BlckErr	Temp	State	Recorded	gain1	gain2
2026-01-14 01:46:08.98	12.07	5.76	-45.1	-59.5	3.8	1.49e+00	0	60	0	0	61	19293
2026-01-14 01:46:09.99	12.04	5.83	-46.5	-65.1	3.8	7.41e-01	0	61	104	0	63	32881
2026-01-14 01:46:11.00	12.02	5.91	-46.5	-65.1	3.8	7.45e-01	0	60	104	0	63	32827
2026-01-14 01:46:12.01	11.99	5.99	-46.4	-65.1	3.8	7.44e-01	0	61	104	0	63	32622
2026-01-14 01:46:13.02	11.97	6.07	-46.3	-65.0	3.8	7.47e-01	0	61	104	0	63	32352
2026-01-14 01:46:14.03	11.94	6.14	-46.2	-64.9	3.8	7.46e-01	0	61	104	0	63	31980
2026-01-14 01:46:15.04	11.91	6.22	-46.1	-64.8	3.8	7.43e-01	0	61	104	0	63	31447
2026-01-14 01:46:16.05	11.89	6.30	-45.9	-64.6	3.8	7.42e-01	0	61	104	0	63	30773
2026-01-14 01:46:17.06	11.86	6.38	-45.4	-63.7	3.8	7.45e-01	0	61	104	0	62	29358
2026-01-14 01:46:18.07	11.83	6.46	-44.5	-63.1	3.8	7.49e-01	0	61	104	0	61	29113
2026-01-14 01:46:19.09	11.81	6.54	-42.6	-60.5	3.8	7.46e-01	0	61	104	0	57	27290
2026-01-14 01:46:20.10	11.78	6.62	-42.6	-60.7	3.8	7.42e-01	0	61	104	0	57	27812
2026-01-14 01:46:21.11	11.75	6.70	-42.6	-60.5	3.8	7.46e-01	0	61	104	0	57	27278
2026-01-14 01:46:22.12	11.72	6.78	-42.6	-60.5	3.8	7.45e-01	0	61	104	0	57	27258
2026-01-14 01:46:23.13	11.70	6.86	-42.6	-60.9	3.8	7.44e-01	0	61	104	0	57	28600
2026-01-14 01:46:24.14	11.67	6.94	-42.6	-61.3	3.8	7.42e-01	0	61	104	0	57	29708
2026-01-14 01:46:25.15	11.64	7.02	-42.6	-61.1	3.8	7.48e-01	0	61	104	0	57	29211
2026-01-14 01:46:26.16	11.61	7.10	-42.6	-61.1	3.8	7.42e-01	0	61	104	0	57	29025
2026-01-14 01:46:27.17	11.58	7.18	-42.6	-61.3	3.8	7.44e-01	0	61	104	0	57	29825
2026-01-14 01:46:28.18	11.55	7.27	-42.6	-61.5	3.8	7.44e-01	0	61	104	0	57	30469
2026-01-14 01:46:29.19	11.53	7.35	-42.6	-61.5	3.8	7.45e-01	0	61	104	0	57	30428
2026-01-14 01:46:30.20	11.50	7.43	-42.6	-61.5	3.8	7.45e-01	0	61	104	0	57	30408
2026-01-14 01:46:31.21	11.47	7.51	-42.6	-61.5	3.8	7.45e-01	0	61	104	0	57	30381
2026-01-14 01:46:32.22	11.44	7.60	-42.6	-61.1	3.8	7.45e-01	0	61	104	0	57	29245
2026-01-14 01:46:33.24	11.41	7.68	-42.6	-60.4	3.8	7.44e-01	0	61	104	0	57	27042
2026-01-14 01:46:34.24	11.38	7.76	-42.5	-59.9	3.8	7.39e-01	0	61	104	0	57	25454
2026-01-14 01:46:35.25	11.35	7.85	-42.5	-59.9	3.8	7.49e-01	0	61	104	0	57	25299
2026-01-14 01:46:36.27	11.32	7.93	-42.5	-59.8	3.8	7.44e-01	0	61	104	0	57	25207
2026-01-14 01:46:37.27	11.29	8.02	-42.5	-59.7	3.8	7.46e-01	0	61	104	0	57	24747
2026-01-14 01:46:38.29	11.26	8.10	-42.5	-58.9	3.9	7.40e-01	0	61	104	0	57	22674
2026-01-14 01:46:39.30	11.22	8.19	-42.5	-58.8	4.0	7.43e-01	0	61	104	0	57	22340
2026-01-14 01:46:40.31	11.19	8.27	-42.5	-57.7	4.3	7.30e-01	0	61	104	0	56	20974
2026-01-14 01:46:41.32	11.16	8.36	-42.4	-57.7	4.3	7.40e-01	0	61	104	0	56	20859
2026-01-14 01:46:42.33	11.13	8.45	-42.4	-57.0	4.5	7.23e-01	0	61	104	0	56	19361
2026-01-14 01:46:43.34	11.10	8.53	-42.5	-58.1	3.8	7.43e-01	0	61	104	0	56	21989
2026-01-14 01:46:44.35	11.07	8.62	-42.5	-58.4	4.1	7.34e-01	0	61	104	0	56	22766
2026-01-14 01:46:45.36	11.03	8.71	-42.5	-59.6	3.8	7.43e-01	0	61	104	0	56	25950
2026-01-14 01:46:46.37	11.00	8.79	-42.5	-60.0	3.8	7.45e-01	0	61	104	0	56	27312
2026-01-14 01:46:47.38	10.97	8.88	-42.5	-60.7	3.8	7.42e-01	0	61	104	0	56	29426
2026-01-14 01:46:48.40	10.93	8.97	-42.5	-60.8	3.8	7.44e-01	0	61	104	0	56	29716
2026-01-14 01:46:49.41	10.90	9.06	-42.5	-59.9	3.8	7.47e-01	0	61	104	0	56	27022
2026-01-14 01:46:50.42	10.87	9.15	-42.5	-59.2	3.9	7.43e-01	0	61	104	0	56	24799
2026-01-14 01:46:51.43	10.83	9.24	-42.5	-58.6	3.9	7.42e-01	0	61	104	0	56	23056
2026-01-14 01:46:52.44	10.80	9.33	-42.4	-57.4	4.4	7.28e-01	0	61	104	0	56	20112
2026-01-14 01:46:53.45	10.77	9.42	-42.4	-56.7	4.2	7.21e-01	0	61	104	0	56	18574
2026-01-14 01:46:54.46	10.73	9.51	-42.4	-55.8	5.1	7.12e-01	0	61	0	0	56	16788
2026-01-14 01:46:55.47	10.70	9.60	-42.3	-55.0	5.5	6.95e-01	0	61	0	0	56	15346
2026-01-14 01:46:56.48	10.66	9.69	-42.3	-54.5	5.9	6.87e-01	90	61	0	1048576	56	14401
2026-01-14 01:46:57.49	10.62	9.78	-42.3	-54.5	5.9	6.90e-01	92	61	0	2621440	56	14496
2026-01-14 01:46:58.50	10.59	9.87	-42.3	-54.9	5.7	6.92e-01	84	61	0	4194304	56	15121
2026-01-14 01:46:59.51	10.55	9.96	-42.3	-55.0	5.5	6.96e-01	9	61	0	4718592	56	15385
2026-01-14 01:47:00.53	10.52	10.06	-42.3	-55.1	5.5	6.95e-01	0	61	0	5242880	56	15549
2026-01-14 01:47:01.54	10.48	10.15	-42.3	-54.9	5.6	6.94e-01	9	61	0	5767168	56	15142
2026-01-14 01:47:02.55	10.44	10.24	-42.3	-54.4	6.0	6.86e-01	75	61	104	6291456	56	14276
2026-01-14 01:47:03.56	10.41	10.33	-42.4	-53.0	7.3	6.57e-01	90	61	0	7340032	56	12184
2026-01-14 01:47:04.57	10.37	10.43	-42.6	-54.4	6.6	6.78e-01	92	61	0	9437184	56	14296
2026-01-14 01:47:05.57	10.33	10.52	-42.2	-53.4	7.4	6.64e-01	92	61	0	9437184	56	12794
2026-01-14 01:47:06.59	10.29	10.62	-42.8	-54.3	6.0	6.75e-01	37	61	104	9437184	56	14125
2026-01-14 01:47:07.59	10.26	10.71	-42.1	-54.0	6.9	6.78e-01	92	61	0	11010048	56	13691
2026-01-14 01:47:08.61	10.22	10.81	-42.0	-54.7	5.3	6.98e-01	43	61	104	11010048	55	15662
2026-01-14 01:47:09.62	10.18	10.90	-42.5	-52.5	8.0	6.46e-01	85	61	0	12582912	55	12194
2026-01-14 01:47:10.63	10.14	11.00	-42.4	-52.6	8.0	6.48e-01	81	61	0	14155776	55	12282
2026-01-14 01:47:11.64	10.10	11.10	-42.5	-52.1	8.5	6.38e-01	7	61	0	16252928	55	11663
2026-01-14 01:47:12.65	10.06	11.19	-42.4	-50.9	10.0	6.22e-01	0	61	0	17825792	55	10061
2026-01-14 01:47:13.66	10.02	11.29	-42.3	-49.9	11.1	6.14e-01	0	61	0	19922944	55	9033
2026-01-14 01:47:14.67	9.98	11.39	-42.4	-49.4	11.9	6.08e-01	0	61	0	22020096	55	8509
2026-01-14 01:47:15.68	9.94	11.49	-42.4	-49.0	12.4	6.07e-01	0	61	0	23592960	55	8166
2026-01-14 01:47:16.70	9.90	11.59	-42.3	-48.5	13.0	6.07e-01	0	61	0	25690112	55	7716
2026-01-14 01:47:17.70	9.86	11.69	-42.1	-47.8	13.7	6.05e-01	0	61	0	27262976	55	7071
2026-01-14 01:47:18.71	9.81	11.78	-41.8	-47.1	14.5	6.02e-01	0	61	0	29360128	55	6500
2026-01-14 01:47:19.72	9.77	11.88	-41.6	-46.5	15.1	6.02e-01	0	61	0	31457280	55	6094
2026-01-14 01:47:20.74	9.73	11.99	-41.0	-45.8	15.4	6.02e-01	0	61	0	33030144	54	5930
2026-01-14 01:47:21.74	9.69	12.09	-41.4	-46.0	15.6	6.06e-01	0	61	0	35127296	54	6121
2026-01-14 01:47:22.76	9.64	12.19	-41.1	-45.4	16.3	6.01e-01	0	61	0	37224448	54	5720
2026-01-14 01:47:23.77	9.60	12.29	-41.0	-45.1	16.7	6.02e-01	0	61	0	38797312	54	5477
2026-01-14 01:47:24.78	9.56	12.39	-41.1	-45.2	16.5	6.04e-01	0	61	0	40894464	54	5565
2026-01-14 01:47:25.79	9.51	12.50	-41.1	-45.2	16.7	6.04e-01	0	61	0	42467328	54	5532
2026-01-14 01:47:26.80	9.47	12.60	-41.1	-45.2	16.7	6.02e-01	0	61	0	44564480	54	5537
2026-01-14 01:47:27.81	9.42	12.70	-41.1	-45.1	16.9	6.04e-01	0	61	0	46661632	54	5492
2026-01-14 01:47:28.81	9.38	12.81	-41.2	-45.2	16.8	6.03e-01	0	61	0	48234496	54	5572
2026-01-14 01:47:29.82	9.33	12.91	-41.2	-45.1	17.0	6.04e-01	0	61	0	50331648	54	5525
2026-01-14 01:47:30.83	9.29	13.02	-41.1	-44.9	17.3	6.03e-01	0	61	0	52428800	54	5352
2026-01-14 01:47:31.84	9.24	13.12	-40.9	-44.5	17.7	6.02e-01	0	61	0	54001664	53	5439
2026-01-14 01:47:32.85	9.19	13.23	-40.9	-44.3	17.9	6.04e-01	0	61	0	56098816	53	5333
2026-01-14 01:47:33.86	9.15	13.33	-41.0	-44.6	17.8	6.04e-01	0	61	0	57671680	53	5471
2026-01-14 01:47:34.87	9.10	13.44	-41.2	-44.9	17.5	6.03e-01	0	61	0	59768832	53	5671
2026-01-14 01:47:35.88	9.05	13.55	-41.2	-44.8	17.6	6.03e-01	0	61	0	61865984	53	5649
2026-01-14 01:47:36.89	9.00	13.66	-41.2	-44.7	17.8	6.05e-01	0	61	0	63438848	53	5545
2026-01-14 01:47:37.90	8.95	13.77	-41.0	-44.4	18.2	6.04e-01	0	61	0	65536000	53	5349
2026-01-14 01:47:38.91	8.90	13.87	-41.0	-44.3	18.2	6.05e-01	0	61	0	67108864	53	5332
2026-01-14 01:47:39.92	8.85	13.98	-41.0	-44.4	18.2	6.04e-01	0	61	0	69206016	53	5352
2026-01-14 01:47:40.93	8.80	14.09	-41.0	-44.4	18.2	6.04e-01	0	61	0	71303168	53	5361
2026-01-14 01:47:41.94	8.75	14.21	-41.0	-44.3	18.2	6.03e-01	0	61	0	72876032	53	5340
2026-01-14 01:47:42.95	8.70	14.32	-41.0	-44.3	18.4	6.03e-01	0	61	0	74973184	53	5282
2026-01-14 01:47:43.96	8.65	14.43	-41.0	-44.3	18.4	6.06e-01	0	61	0	76546048	53	5296
2026-01-14 01:47:44.97	8.60	14.54	-41.0	-44.3	18.4	6.02e-01	0	61	0	78643200	53	5312
2026-01-14 01:47:45.98	8.55	14.65	-41.0	-44.2	18.5	6.04e-01	0	61	0	80740352	53	5236
2026-01-14 01:47:46.99	8.49	14.77	-41.0	-44.2	18.5	6.04e-01	0	61	0	82313216	53	5257
2026-01-14 01:47:48.00	8.44	14.88	-41.0	-44.2	18.5	6.03e-01	0	61	0	84410368	53	5266
2026-01-14 01:47:49.01	8.39	15.00	-41.0	-44.1	18.7	6.02e-01	0	61	0	85983232	53	5191
2026-01-14 01:47:50.02	8.33	15.11	-40.9	-44.0	18.8	6.04e-01	0	61	0	88080384	53	5145
2026-01-14 01:47:51.03	8.28	15.23	-40.9	-44.0	18.8	6.02e-01	0	61	0	90177536	53	5148
2026-01-14 01:47:52.04	8.22	15.34	-40.9	-44.0	18.9	6.02e-01	0	61	0	91750400	53	5117
2026-01-14 01:47:53.05	8.17	15.46	-41.0	-44.1	18.8	6.03e-01	0	61	0	93847552	53	5172
2026-01-14 01:47:54.06	8.11	15.58	-41.0	-44.1	18.8	6.07e-01	0	61	0	95420416	53	5205
2026-01-14 01:47:55.07	8.06	15.70	-40.9	-43.9	19.0	6.04e-01	0	61	0	97517568	53	5095
2026-01-14 01:47:56.08	8.00	15.81	-40.9	-43.9	19.0	6.02e-01	0	61	0	99614720	53	5071
2026-01-14 01:47:57.09	7.94	15.93	-40.8	-43.8	19.1	6.05e-01	0	61	0	101187584	53	5013
2026-01-14 01:47:58.10	7.88	16.05	-40.9	-43.9	19.1	6.03e-01	0	61	0	103284736	53	5047
2026-01-14 01:47:59.11	7.82	16.17	-40.8	-43.8	19.2	6.04e-01	0	61	0	105381888	53	5001
2026-01-14 01:48:00.12	7.76	16.30	-40.9	-43.8	19.3	6.04e-01	0	61	0	106954752	53	5009
2026-01-14 01:48:01.13	7.71	16.42	-40.9	-43.8	19.2	6.03e-01	0	61	0	109051904	53	5022
2026-01-14 01:48:02.14	7.64	16.54	-40.9	-43.8	19.2	6.03e-01	0	61	0	110624768	53	5029
2026-01-14 01:48:03.15	7.58	16.66	-40.9	-43.8	19.2	6.03e-01	0	61	0	112721920	53	5025
2026-01-14 01:48:04.16	7.52	16.79	-40.9	-43.8	19.2	6.03e-01	0	61	0	114819072	53	5033
2026-01-14 01:48:05.17	7.46	16.91	-41.0	-43.9	19.2	6.02e-01	0	61	0	116391936	53	5098
2026-01-14 01:48:06.18	7.40	17.04	-41.0	-43.9	19.1	6.03e-01	0	61	0	118489088	53	5081
2026-01-14 01:48:07.19	7.33	17.16	-41.0	-43.9	19.2	6.06e-01	0	61	0	120586240	53	5093
2026-01-14 01:48:08.20	7.27	17.29	-41.0	-44.0	19.1	6.05e-01	0	61	0	122159104	53	5130
2026-01-14 01:48:09.20	7.21	17.42	-41.1	-44.0	19.1	6.04e-01	0	61	0	124256256	53	5148
2026-01-14 01:48:10.21	7.14	17.54	-41.1	-44.0	19.2	6.05e-01	0	61	0	125829120	53	5142
2026-01-14 01:48:11.22	7.08	17.67	-41.1	-44.0	19.2	6.04e-01	0	61	0	127926272	53	5145
2026-01-14 01:48:12.23	7.01	17.80	-41.1	-44.1	19.1	6.04e-01	0	61	0	130023424	53	5191
2026-01-14 01:48:13.24	6.94	17.93	-41.2	-44.2	19.1	6.03e-01	0	61	0	131596288	53	5239
2026-01-14 01:48:14.25	6.88	18.06	-41.2	-44.2	19.1	6.02e-01	0	61	0	133693440	53	5227
2026-01-14 01:48:15.26	6.81	18.19	-41.2	-44.2	19.1	6.00e-01	0	61	0	135266304	53	5245
2026-01-14 01:48:16.27	6.74	18.33	-41.2	-44.2	19.1	6.03e-01	0	61	0	137363456	53	5228
2026-01-14 01:48:17.28	6.67	18.46	-41.1	-44.1	19.2	6.03e-01	0	61	0	138936320	53	5178
2026-01-14 01:48:18.29	6.60	18.59	-41.0	-43.9	19.4	6.05e-01	0	61	0	141033472	53	5073
2026-01-14 01:48:19.30	6.53	18.73	-41.0	-43.9	19.4	6.04e-01	0	61	0	143130624	53	5072
2026-01-14 01:48:20.31	6.46	18.86	-41.0	-43.9	19.4	6.03e-01	0	61	0	144703488	53	5059
2026-01-14 01:48:21.32	6.38	19.00	-41.0	-43.8	19.5	6.04e-01	0	61	0	146800640	53	5000
2026-01-14 01:48:22.33	6.31	19.14	-41.0	-43.8	19.6	6.06e-01	0	61	0	148897792	53	4996
2026-01-14 01:48:23.34	6.24	19.27	-40.9	-43.7	19.6	6.04e-01	0	61	0	150470656	53	4970
2026-01-14 01:48:24.35	6.16	19.41	-40.9	-43.7	19.7	6.03e-01	0	61	0	152567808	53	4939
2026-01-14 01:48:25.36	6.09	19.55	-40.9	-43.7	19.7	6.03e-01	0	61	0	154140672	53	4938
2026-01-14 01:48:26.37	6.01	19.69	-40.9	-43.7	19.6	6.03e-01	0	61	0	156237824	53	4977
2026-01-14 01:48:27.37	5.94	19.83	-41.0	-43.8	19.6	5.99e-01	0	61	0	158334976	53	4995
2026-01-14 01:48:28.38	5.86	19.97	-41.0	-43.8	19.6	6.01e-01	0	61	0	159907840	53	5017
2026-01-14 01:48:29.39	5.78	20.11	-41.0	-43.8	19.6	6.02e-01	0	61	0	162004992	53	5038
2026-01-14 01:48:30.40	5.70	20.26	-41.1	-44.0	19.5	6.03e-01	0	61	0	163577856	53	5101
2026-01-14 01:48:31.41	5.62	20.40	-41.2	-44.0	19.4	6.02e-01	0	61	0	165675008	53	5147
2026-01-14 01:48:32.42	5.54	20.55	-41.1	-44.0	19.4	6.04e-01	0	61	0	167772160	53	5132
2026-01-14 01:48:33.43	5.46	20.69	-41.2	-44.0	19.4	6.01e-01	0	61	0	169345024	53	5148
2026-01-14 01:48:34.44	5.38	20.84	-41.3	-44.2	19.3	6.04e-01	0	61	0	171442176	53	5223
2026-01-14 01:48:35.45	5.29	20.99	-41.2	-44.1	19.3	6.05e-01	0	61	0	173539328	53	5187
2026-01-14 01:48:36.46	5.21	21.14	-41.2	-44.1	19.3	6.03e-01	0	61	0	175112192	53	5202
2026-01-14 01:48:37.46	5.12	21.28	-41.3	-44.2	19.3	6.04e-01	0	61	0	177209344	53	5224
2026-01-14 01:48:38.47	5.04	21.43	-41.3	-44.2	19.2	6.03e-01	0	61	0	178782208	53	5273
2026-01-14 01:48:39.48	4.95	21.59	-41.3	-44.2	19.2	6.04e-01	0	61	0	180879360	53	5274
2026-01-14 01:48:40.50	4.86	21.74	-41.4	-44.4	19.1	6.03e-01	0	61	0	182976512	53	5353
2026-01-14 01:48:41.51	4.77	21.89	-41.4	-44.4	19.1	6.01e-01	0	61	0	184549376	53	5376
2026-01-14 01:48:42.52	4.68	22.05	-41.4	-44.4	19.1	6.03e-01	0	61	0	186646528	53	5383
2026-01-14 01:48:43.53	4.59	22.20	-41.4	-44.3	19.2	6.02e-01	0	61	0	188219392	53	5334
2026-01-14 01:48:44.54	4.50	22.36	-41.3	-44.3	19.3	6.04e-01	0	61	0	190316544	53	5280
2026-01-14 01:48:45.55	4.41	22.51	-41.3	-44.2	19.3	6.04e-01	0	61	0	192413696	53	5254
2026-01-14 01:48:46.56	4.31	22.67	-41.3	-44.2	19.3	6.04e-01	0	61	0	193986560	53	5233
2026-01-14 01:48:47.57	4.22	22.83	-41.3	-44.2	19.4	6.04e-01	0	61	0	196083712	53	5245
2026-01-14 01:48:48.58	4.12	22.99	-41.4	-44.3	19.3	6.02e-01	0	61	0	198180864	53	5303
2026-01-14 01:48:49.59	4.02	23.15	-41.4	-44.3	19.2	6.04e-01	0	61	0	199753728	53	5324
2026-01-14 01:48:50.60	3.93	23.31	-41.4	-44.4	19.2	6.04e-01	0	61	0	201850880	53	5375
2026-01-14 01:48:51.61	3.83	23.48	-41.4	-44.4	19.2	6.02e-01	0	61	0	203423744	53	5371
2026-01-14 01:48:52.62	3.73	23.64	-41.5	-44.5	19.1	6.01e-01	0	61	0	205520896	53	5416
2026-01-14 01:48:53.63	3.62	23.81	-41.5	-44.5	19.1	6.03e-01	0	61	0	207618048	53	5405
2026-01-14 01:48:54.64	3.52	23.97	-41.4	-44.4	19.2	6.03e-01	0	61	0	209190912	53	5357
2026-01-14 01:48:55.65	3.42	24.14	-41.4	-44.3	19.3	6.05e-01	0	61	0	211288064	53	5294
2026-01-14 01:48:56.66	3.31	24.31	-41.3	-44.2	19.4	6.02e-01	0	61	0	212860928	53	5255
2026-01-14 01:48:57.67	3.21	24.48	-41.2	-44.0	19.6	6.03e-01	0	61	0	214958080	53	5137
2026-01-14 01:48:58.68	3.10	24.65	-41.2	-43.9	19.7	6.03e-01	0	61	0	217055232	53	5094
2026-01-14 01:48:59.69	2.99	24.82	-41.2	-44.0	19.6	6.02e-01	0	61	0	218628096	53	5132
2026-01-14 01:49:00.70	2.88	24.99	-41.2	-44.0	19.6	6.03e-01	0	61	0	220725248	53	5137
2026-01-14 01:49:01.71	2.77	25.16	-41.2	-44.1	19.5	6.04e-01	0	61	0	222298112	53	5179
2026-01-14 01:49:02.72	2.66	25.34	-41.4	-44.3	19.4	6.04e-01	0	61	0	224395264	53	5283
2026-01-14 01:49:03.73	2.54	25.51	-41.5	-44.4	19.2	6.01e-01	0	61	0	226492416	53	5361
2026-01-14 01:49:04.73	2.43	25.69	-41.5	-44.5	19.1	6.03e-01	0	61	0	228065280	53	5448
2026-01-14 01:49:05.74	2.31	25.87	-41.6	-44.6	19.1	6.04e-01	0	61	0	230162432	53	5468
2026-01-14 01:49:06.75	2.19	26.05	-41.5	-44.4	19.2	6.04e-01	0	61	0	231735296	53	5386
2026-01-14 01:49:07.76	2.07	26.23	-41.4	-44.3	19.4	6.03e-01	0	60	0	233832448	53	5300
2026-01-14 01:49:08.77	1.95	26.41	-41.3	-44.2	19.5	6.02e-01	0	61	0	235929600	53	5224
2026-01-14 01:49:09.78	1.83	26.59	-41.3	-44.1	19.6	6.02e-01	0	61	0	237502464	53	5193
2026-01-14 01:49:10.79	1.70	26.78	-41.3	-44.0	19.7	6.02e-01	0	61	0	239599616	53	5158
2026-01-14 01:49:11.80	1.58	26.96	-41.2	-44.0	19.7	6.02e-01	0	61	0	241696768	53	5110
2026-01-14 01:49:12.81	1.45	27.15	-41.1	-43.9	19.8	6.03e-01	0	61	0	243269632	53	5052
2026-01-14 01:49:13.82	1.32	27.34	-41.1	-43.8	19.9	6.05e-01	0	61	0	245366784	53	5034
2026-01-14 01:49:14.83	1.19	27.53	-41.0	-43.7	20.0	6.04e-01	0	61	0	246939648	53	4948
2026-01-14 01:49:15.84	1.06	27.72	-41.1	-43.8	19.9	5.99e-01	0	61	0	249036800	53	5019
2026-01-14 01:49:16.85	0.92	27.91	-41.1	-43.8	19.9	6.03e-01	0	61	0	251133952	53	5032
2026-01-14 01:49:17.86	0.79	28.10	-41.2	-44.0	19.7	6.04e-01	0	61	0	252706816	53	5122
2026-01-14 01:49:18.86	0.65	28.29	-41.3	-44.1	19.6	6.02e-01	0	61	0	254803968	53	5215
2026-01-14 01:49:19.88	0.51	28.49	-41.4	-44.2	19.6	6.03e-01	0	61	0	256376832	53	5221
2026-01-14 01:49:20.89	0.37	28.69	-41.4	-44.2	19.5	6.03e-01	0	61	0	258473984	53	5277
2026-01-14 01:49:21.90	0.23	28.88	-41.4	-44.2	19.5	6.06e-01	0	61	0	260571136	53	5223
2026-01-14 01:49:22.91	0.08	29.08	-41.1	-43.8	19.9	6.04e-01	0	61	0	262144000	53	5033
2026-01-14 01:49:23.92	359.94	29.28	-41.0	-43.6	20.2	6.03e-01	0	61	0	264241152	53	4894
2026-01-14 01:49:24.93	359.79	29.49	-40.8	-43.3	20.4	6.02e-01	0	61	0	266338304	53	4755
2026-01-14 01:49:25.94	359.64	29.69	-40.7	-43.2	20.5	6.05e-01	0	61	0	267911168	53	4669
2026-01-14 01:49:26.95	359.48	29.89	-40.8	-43.3	20.5	6.02e-01	0	61	0	270008320	53	4718
2026-01-14 01:49:27.96	359.33	30.10	-40.9	-43.4	20.4	6.03e-01	0	61	0	271581184	53	4793
2026-01-14 01:49:28.97	359.17	30.31	-40.9	-43.5	20.3	6.05e-01	0	61	0	273678336	53	4862
2026-01-14 01:49:29.98	359.01	30.52	-41.0	-43.6	20.2	6.03e-01	0	61	0	275775488	53	4873
2026-01-14 01:49:30.99	358.85	30.73	-40.9	-43.5	20.3	6.02e-01	0	61	0	277348352	53	4838
2026-01-14 01:49:32.00	358.69	30.94	-40.9	-43.4	20.4	6.02e-01	0	61	0	279445504	53	4783
2026-01-14 01:49:33.01	358.52	31.15	-40.8	-43.3	20.5	6.03e-01	0	61	0	281018368	53	4742
2026-01-14 01:49:34.02	358.35	31.36	-40.8	-43.4	20.5	6.04e-01	0	61	0	283115520	53	4761
2026-01-14 01:49:35.02	358.19	31.58	-40.9	-43.4	20.4	6.01e-01	0	61	0	285212672	53	4798
2026-01-14 01:49:36.03	358.01	31.80	-40.9	-43.5	20.3	6.04e-01	0	61	0	286785536	53	4841
2026-01-14 01:49:37.04	357.84	32.01	-41.0	-43.6	20.2	6.02e-01	0	61	0	288882688	53	4895
2026-01-14 01:49:38.05	357.66	32.23	-41.0	-43.7	20.2	6.01e-01	0	61	0	290455552	53	4935
2026-01-14 01:49:39.06	357.48	32.46	-41.1	-43.7	20.1	6.03e-01	0	61	0	292552704	53	4981
2026-01-14 01:49:40.07	357.30	32.68	-41.1	-43.8	20.1	6.02e-01	0	61	0	294649856	53	4991
2026-01-14 01:49:41.08	357.11	32.90	-41.1	-43.7	20.1	6.03e-01	0	61	0	296222720	53	4960
2026-01-14 01:49:42.09	356.92	33.13	-41.1	-43.7	20.2	6.02e-01	0	61	0	298319872	53	4941
2026-01-14 01:49:43.10	356.73	33.36	-41.1	-43.7	20.1	6.04e-01	0	61	0	299892736	53	4970
2026-01-14 01:49:44.11	356.54	33.58	-41.3	-44.0	19.9	6.04e-01	0	61	0	301989888	53	5105
2026-01-14 01:49:45.12	356.34	33.81	-41.5	-44.3	19.6	6.04e-01	0	61	0	304087040	53	5298
2026-01-14 01:49:46.13	356.14	34.05	-41.6	-44.5	19.4	6.05e-01	0	61	0	305659904	53	5438
2026-01-14 01:49:47.14	355.94	34.28	-41.6	-44.5	19.4	5.99e-01	0	61	0	307757056	53	5413
2026-01-14 01:49:48.15	355.73	34.51	-41.5	-44.4	19.5	6.03e-01	0	61	0	309854208	53	5361
2026-01-14 01:49:49.16	355.52	34.75	-41.6	-44.5	19.5	6.03e-01	0	61	0	311427072	53	5410
2026-01-14 01:49:50.17	355.31	34.99	-41.7	-44.5	19.4	6.03e-01	0	61	0	313524224	53	5459
2026-01-14 01:49:51.18	355.10	35.23	-41.8	-44.8	19.2	6.04e-01	0	61	0	315097088	54	5297
2026-01-14 01:49:52.19	354.88	35.47	-41.8	-44.7	19.2	6.05e-01	0	61	0	317194240	54	5279
2026-01-14 01:49:53.20	354.66	35.71	-41.8	-44.7	19.2	6.04e-01	0	61	0	319291392	54	5258
2026-01-14 01:49:54.21	354.43	35.95	-41.9	-44.9	19.0	6.03e-01	0	61	0	320864256	54	5382
2026-01-14 01:49:55.22	354.20	36.20	-42.1	-45.3	18.7	6.02e-01	0	61	0	322961408	54	5608
2026-01-14 01:49:56.23	353.97	36.44	-42.3	-45.5	18.4	6.02e-01	0	61	0	325058560	55	5455
2026-01-14 01:49:57.24	353.73	36.69	-42.5	-45.8	18.1	6.03e-01	0	61	0	326631424	55	5655
2026-01-14 01:49:58.25	353.49	36.94	-42.4	-45.6	18.4	6.01e-01	0	61	0	328728576	55	5520
2026-01-14 01:49:59.26	353.25	37.19	-42.4	-45.7	18.3	6.04e-01	0	61	0	330301440	55	5553
2026-01-14 01:50:00.26	353.00	37.44	-42.3	-45.6	18.4	6.04e-01	0	61	0	332398592	55	5481
2026-01-14 01:50:01.27	352.75	37.69	-42.3	-45.5	18.5	6.04e-01	0	61	0	333971456	55	5406
2026-01-14 01:50:02.28	352.50	37.95	-42.5	-45.8	18.2	6.03e-01	0	61	0	336068608	55	5624
2026-01-14 01:50:03.29	352.23	38.20	-42.9	-46.6	17.5	6.03e-01	0	61	0	338165760	56	5810
2026-01-14 01:50:04.30	351.97	38.46	-43.0	-46.7	17.3	6.02e-01	0	61	0	339738624	56	5915
2026-01-14 01:50:05.31	351.70	38.72	-42.7	-46.2	17.9	6.05e-01	0	61	0	341835776	56	5553
2026-01-14 01:50:06.32	351.43	38.98	-42.5	-45.8	18.3	6.03e-01	0	61	0	343408640	56	5310
2026-01-14 01:50:07.33	351.15	39.24	-42.7	-46.1	18.0	6.01e-01	0	61	0	345505792	56	5515
2026-01-14 01:50:08.34	350.87	39.51	-42.9	-46.4	17.7	6.02e-01	0	61	0	347602944	56	5683
2026-01-14 01:50:09.35	350.58	39.77	-42.9	-46.4	17.7	6.02e-01	0	61	0	349175808	56	5685
2026-01-14 01:50:10.36	350.29	40.04	-42.8	-46.4	17.7	6.03e-01	0	61	0	351272960	56	5678
2026-01-14 01:50:11.37	349.99	40.30	-43.0	-46.7	17.4	6.03e-01	0	61	0	353370112	56	5861
2026-01-14 01:50:12.38	349.69	40.57	-43.1	-46.8	17.3	6.02e-01	0	61	0	354942976	56	5950
2026-01-14 01:50:13.39	349.38	40.84	-43.0	-46.7	17.4	6.01e-01	0	61	0	357040128	56	5863
2026-01-14 01:50:14.40	349.07	41.11	-42.7	-46.0	18.1	6.03e-01	0	61	0	358612992	56	5458
2026-01-14 01:50:15.41	348.75	41.38	-42.7	-46.1	18.0	6.01e-01	0	61	0	360710144	56	5492
2026-01-14 01:50:16.42	348.43	41.66	-42.7	-46.2	17.9	6.04e-01	0	61	0	362807296	56	5538
2026-01-14 01:50:17.42	348.10	41.93	-42.7	-46.2	18.0	6.03e-01	0	61	0	364380160	56	5541
2026-01-14 01:50:18.43	347.77	42.20	-42.9	-46.4	17.7	6.02e-01	0	61	0	366477312	56	5680
2026-01-14 01:50:19.44	347.42	42.48	-42.8	-46.3	17.9	6.04e-01	0	61	0	368050176	56	5611
2026-01-14 01:50:20.45	347.08	42.76	-42.4	-45.5	18.6	6.02e-01	0	61	0	370147328	56	5132
2026-01-14 01:50:21.46	346.72	43.03	-42.1	-45.1	19.0	6.03e-01	0	61	0	372244480	56	4901
2026-01-14 01:50:22.48	346.36	43.32	-42.1	-45.1	19.0	6.03e-01	0	61	0	373817344	56	4921
2026-01-14 01:50:23.48	346.00	43.59	-42.0	-44.9	19.2	6.03e-01	0	61	0	375914496	56	4797
2026-01-14 01:50:24.50	345.62	43.88	-42.1	-45.1	19.0	6.02e-01	0	61	0	378011648	56	4926
2026-01-14 01:50:25.51	345.24	44.16	-42.4	-45.5	18.6	6.05e-01	0	61	0	379584512	56	5149
2026-01-14 01:50:26.52	344.85	44.44	-42.0	-45.0	19.2	6.01e-01	0	61	0	381681664	56	4835
2026-01-14 01:50:27.52	344.46	44.72	-41.8	-44.6	19.4	6.03e-01	0	61	0	383254528	55	4920
2026-01-14 01:50:28.54	344.06	45.01	-41.8	-44.7	19.4	6.03e-01	0	61	0	385351680	55	4950
2026-01-14 01:50:29.55	343.65	45.29	-42.0	-45.0	19.1	6.02e-01	0	61	0	387448832	55	5145
2026-01-14 01:50:30.56	343.23	45.58	-42.2	-45.3	18.8	6.02e-01	0	61	0	389021696	55	5291
2026-01-14 01:50:31.57	342.81	45.86	-41.9	-44.8	19.3	6.03e-01	0	61	0	391118848	55	5005
2026-01-14 01:50:32.58	342.38	46.15	-41.9	-44.9	19.2	6.03e-01	0	61	0	392691712	55	5044
2026-01-14 01:50:33.58	341.94	46.43	-42.0	-45.0	19.1	6.02e-01	0	61	0	394788864	55	5148
2026-01-14 01:50:34.59	341.49	46.72	-41.9	-44.8	19.3	6.04e-01	0	61	0	396886016	55	5000
2026-01-14 01:50:35.60	341.04	47.00	-42.0	-45.0	19.1	6.01e-01	0	61	0	398458880	55	5157
2026-01-14 01:50:36.61	340.57	47.29	-42.1	-45.2	19.0	6.05e-01	0	61	0	400556032	55	5236
2026-01-14 01:50:37.62	340.10	47.58	-42.1	-45.2	18.9	6.01e-01	0	61	0	402128896	55	5238
2026-01-14 01:50:38.63	339.62	47.86	-42.1	-45.2	18.9	6.04e-01	0	61	0	404226048	55	5237
2026-01-14 01:50:39.64	339.12	48.15	-42.1	-45.1	19.0	6.05e-01	0	61	0	406323200	55	5208
2026-01-14 01:50:40.65	338.62	48.43	-42.0	-45.0	19.1	6.04e-01	0	61	0	407896064	55	5128
2026-01-14 01:50:41.66	338.11	48.72	-42.2	-45.4	18.8	6.03e-01	0	61	0	409993216	55	5354
2026-01-14 01:50:42.67	337.59	49.00	-42.0	-44.9	19.2	6.01e-01	0	61	0	411566080	55	5098
2026-01-14 01:50:43.68	337.06	49.29	-41.9	-44.8	19.3	6.05e-01	0	61	0	413663232	55	5025
2026-01-14 01:50:44.69	336.52	49.57	-41.9	-44.9	19.3	6.03e-01	0	61	0	415760384	55	5057
2026-01-14 01:50:45.69	335.98	49.85	-42.1	-45.1	19.1	6.02e-01	0	60	0	417333248	55	5171
2026-01-14 01:50:46.70	335.41	50.13	-41.9	-44.9	19.2	6.02e-01	0	61	0	419430400	55	5066
2026-01-14 01:50:47.71	334.84	50.41	-41.8	-44.7	19.5	6.03e-01	0	61	0	421527552	55	4934
2026-01-14 01:50:48.72	334.26	50.69	-41.8	-44.7	19.5	6.03e-01	0	61	0	423100416	55	4939
2026-01-14 01:50:49.73	333.67	50.96	-41.8	-44.7	19.5	6.04e-01	0	61	0	425197568	55	4935
2026-01-14 01:50:50.74	333.06	51.24	-41.5	-44.3	19.9	6.04e-01	0	61	0	426770432	55	4712
2026-01-14 01:50:51.75	332.44	51.51	-41.7	-44.6	19.6	6.03e-01	0	61	0	428867584	55	4884
2026-01-14 01:50:52.76	331.82	51.79	-41.5	-44.3	19.9	6.03e-01	0	61	0	430964736	55	4713
2026-01-14 01:50:53.77	331.18	52.06	-41.5	-44.2	19.9	6.06e-01	0	61	0	432537600	54	4928
2026-01-14 01:50:54.78	330.53	52.32	-41.6	-44.4	19.8	6.04e-01	0	61	0	434634752	54	5045
2026-01-14 01:50:55.79	329.86	52.59	-41.6	-44.3	19.8	6.04e-01	0	61	0	436207616	54	5037
2026-01-14 01:50:56.80	329.19	52.85	-41.3	-43.9	20.2	6.02e-01	0	61	0	438304768	54	4798
2026-01-14 01:50:57.81	328.50	53.11	-41.5	-44.2	19.9	6.01e-01	0	61	0	440401920	54	4978
2026-01-14 01:50:58.82	327.80	53.37	-41.6	-44.4	19.7	6.04e-01	0	61	0	441974784	54	5048
2026-01-14 01:50:59.83	327.08	53.62	-41.4	-44.0	20.0	6.04e-01	0	61	0	444071936	54	4867
2026-01-14 01:51:00.84	326.36	53.88	-41.4	-44.0	20.1	6.04e-01	0	61	0	446169088	54	4845
2026-01-14 01:51:01.85	325.62	54.12	-41.6	-44.4	19.7	6.04e-01	0	61	0	447741952	54	5088
2026-01-14 01:51:02.86	324.87	54.37	-41.5	-44.2	19.9	6.04e-01	0	60	0	449839104	54	4974
2026-01-14 01:51:03.87	324.10	54.61	-41.4	-44.0	20.1	6.05e-01	0	61	0	451411968	54	4859
2026-01-14 01:51:04.88	323.32	54.84	-41.6	-44.4	19.7	6.03e-01	0	61	0	453509120	54	5088
2026-01-14 01:51:05.89	322.53	55.08	-41.8	-44.7	19.4	6.02e-01	0	61	0	455606272	54	5253
2026-01-14 01:51:06.90	321.73	55.30	-41.6	-44.4	19.7	6.03e-01	0	61	0	457179136	54	5065
2026-01-14 01:51:07.91	320.91	55.53	-41.9	-44.8	19.4	6.02e-01	0	61	0	459276288	54	5300
2026-01-14 01:51:08.92	320.08	55.74	-41.8	-44.7	19.4	6.04e-01	0	61	0	460849152	54	5256
2026-01-14 01:51:09.93	319.24	55.96	-41.9	-44.8	19.4	6.05e-01	0	61	0	462946304	54	5298
2026-01-14 01:51:10.94	318.38	56.16	-41.8	-44.6	19.5	6.03e-01	0	61	0	465043456	54	5211
2026-01-14 01:51:11.95	317.52	56.37	-41.8	-44.7	19.5	6.05e-01	0	61	0	466616320	54	5231
2026-01-14 01:51:12.96	316.63	56.56	-42.0	-45.0	19.2	6.04e-01	0	61	0	468713472	54	5411
2026-01-14 01:51:13.97	315.74	56.75	-42.1	-45.1	19.0	6.06e-01	0	61	0	470286336	54	5491
2026-01-14 01:51:14.98	314.83	56.94	-42.0	-45.0	19.1	6.05e-01	0	61	0	472383488	54	5440
2026-01-14 01:51:15.99	313.91	57.12	-42.2	-45.2	18.9	6.02e-01	0	61	0	474480640	54	5590
2026-01-14 01:51:17.00	312.98	57.29	-42.1	-45.2	19.0	6.02e-01	0	61	0	476053504	55	5225
2026-01-14 01:51:18.01	312.04	57.45	-42.1	-45.2	19.0	6.04e-01	0	61	0	478150656	55	5223
2026-01-14 01:51:19.02	311.09	57.61	-42.2	-45.4	18.8	6.03e-01	0	61	0	479723520	55	5349
2026-01-14 01:51:20.03	310.12	57.76	-42.5	-45.8	18.3	6.02e-01	0	61	0	481820672	55	5631
2026-01-14 01:51:21.04	309.15	57.90	-42.2	-45.2	18.8	6.01e-01	0	61	0	483917824	55	5256
2026-01-14 01:51:22.05	308.16	58.04	-42.5	-45.7	18.4	6.02e-01	0	61	0	485490688	55	5574
2026-01-14 01:51:23.05	307.17	58.17	-42.7	-46.0	18.3	6.06e-01	0	61	0	487587840	56	5443
2026-01-14 01:51:24.06	306.17	58.29	-42.8	-46.2	18.1	6.04e-01	0	61	0	489684992	56	5543
2026-01-14 01:51:25.07	305.15	58.40	-42.8	-46.3	17.9	6.03e-01	0	61	0	491257856	56	5604
2026-01-14 01:51:26.08	304.13	58.50	-42.4	-45.4	18.7	6.03e-01	0	61	0	493355008	56	5098
2026-01-14 01:51:27.09	303.10	58.60	-42.8	-46.2	18.2	6.05e-01	0	61	0	494927872	56	5543
2026-01-14 01:51:28.10	302.06	58.69	-42.9	-46.4	17.8	6.05e-01	0	61	0	497025024	56	5712
2026-01-14 01:51:29.11	301.02	58.76	-42.9	-46.4	17.9	6.03e-01	0	61	0	499122176	56	5668
2026-01-14 01:51:30.12	299.97	58.83	-42.9	-46.5	17.8	6.03e-01	0	61	0	500695040	56	5729
2026-01-14 01:51:31.13	298.91	58.90	-42.6	-45.9	18.1	6.05e-01	0	61	0	502792192	56	5388
2026-01-14 01:51:32.14	297.85	58.95	-42.7	-46.0	18.1	6.03e-01	0	61	0	504365056	56	5456
2026-01-14 01:51:33.15	296.79	58.99	-42.5	-45.7	18.6	6.05e-01	0	61	0	506462208	56	5259
2026-01-14 01:51:34.16	295.72	59.03	-42.7	-46.2	18.2	6.06e-01	0	61	0	508559360	56	5529
2026-01-14 01:51:35.17	294.65	59.05	-42.9	-46.5	17.8	6.03e-01	0	61	0	510132224	56	5735
2026-01-14 01:51:36.18	293.58	59.07	-42.7	-46.0	18.2	6.05e-01	0	61	0	512229376	56	5458
2026-01-14 01:51:37.19	292.51	59.07	-42.8	-46.3	18.0	6.02e-01	0	61	0	514326528	56	5606
2026-01-14 01:51:38.20	291.44	59.07	-42.9	-46.4	17.8	6.03e-01	0	61	0	515899392	56	5680
2026-01-14 01:51:39.21	290.37	59.06	-42.8	-46.4	17.9	6.04e-01	0	61	0	517996544	56	5670
2026-01-14 01:51:40.22	289.30	59.04	-42.8	-46.2	18.0	6.02e-01	0	61	0	519569408	56	5581
2026-01-14 01:51:41.22	288.24	59.01	-42.5	-45.8	18.4	6.04e-01	0	61	0	521666560	56	5285
2026-01-14 01:51:42.23	287.17	58.97	-42.8	-46.3	17.9	6.04e-01	0	61	0	523763712	56	5652
2026-01-14 01:51:43.24	286.11	58.92	-42.9	-46.4	17.7	6.04e-01	0	61	0	525336576	56	5699
2026-01-14 01:51:44.25	285.05	58.86	-42.6	-45.8	18.4	6.04e-01	0	61	0	527433728	56	5340
2026-01-14 01:51:45.26	284.00	58.80	-42.9	-46.4	17.9	6.02e-01	0	61	0	529006592	56	5684
2026-01-14 01:51:46.27	282.95	58.72	-42.8	-46.2	18.0	6.04e-01	0	61	0	531103744	56	5574
2026-01-14 01:51:47.28	281.91	58.64	-42.5	-45.7	18.5	6.03e-01	0	61	0	533200896	56	5250
2026-01-14 01:51:48.29	280.87	58.55	-42.7	-46.2	18.1	6.01e-01	0	61	0	534773760	56	5535
2026-01-14 01:51:49.30	279.85	58.45	-42.8	-46.2	18.0	6.01e-01	0	61	0	536870912	56	5556
2026-01-14 01:51:50.31	278.83	58.34	-42.6	-45.8	18.4	6.02e-01	0	61	0	538443776	56	5331
2026-01-14 01:51:51.32	277.82	58.22	-42.7	-46.0	18.2	6.04e-01	0	61	0	540540928	56	5454
2026-01-14 01:51:52.33	276.82	58.10	-42.9	-46.5	17.7	6.04e-01	0	61	0	542638080	56	5746
2026-01-14 01:51:53.34	275.83	57.97	-42.7	-46.1	18.1	6.03e-01	0	61	0	544210944	56	5523
2026-01-14 01:51:54.35	274.84	57.83	-42.9	-46.5	17.7	6.03e-01	0	61	0	546308096	56	5732
2026-01-14 01:51:55.36	273.87	57.68	-42.8	-46.2	18.0	6.04e-01	0	61	0	547880960	56	5583
2026-01-14 01:51:56.37	272.91	57.52	-42.7	-46.0	18.1	6.02e-01	0	60	0	549978112	56	5462
2026-01-14 01:51:57.38	271.96	57.36	-42.5	-45.8	18.4	6.04e-01	0	61	0	552075264	56	5284
2026-01-14 01:51:58.39	271.03	57.19	-42.3	-45.4	18.8	6.04e-01	0	61	0	553648128	56	5092
2026-01-14 01:51:59.40	270.10	57.02	-42.4	-45.5	18.7	6.01e-01	0	61	0	555745280	56	5151
2026-01-14 01:52:00.40	269.20	56.84	-42.4	-45.7	18.6	6.02e-01	0	61	0	557842432	56	5221
2026-01-14 01:52:01.42	268.29	56.65	-42.0	-44.9	19.3	6.01e-01	0	60	0	559415296	56	4792
2026-01-14 01:52:02.42	267.41	56.46	-41.9	-44.8	19.3	6.02e-01	0	61	0	561512448	55	4990
2026-01-14 01:52:03.43	266.53	56.26	-42.3	-45.4	18.7	6.05e-01	0	61	0	563085312	55	5399
2026-01-14 01:52:04.44	265.67	56.05	-42.2	-45.3	18.8	6.04e-01	0	61	0	565182464	55	5298
2026-01-14 01:52:05.45	264.82	55.84	-41.8	-44.8	19.3	6.04e-01	0	61	0	567279616	55	4991
2026-01-14 01:52:06.46	263.98	55.62	-41.8	-44.7	19.4	6.02e-01	0	61	0	568852480	55	4969
2026-01-14 01:52:07.47	263.15	55.40	-42.2	-45.4	18.8	6.04e-01	0	61	0	570949632	55	5344
2026-01-14 01:52:08.48	262.34	55.18	-42.0	-45.0	19.2	6.03e-01	0	61	0	572522496	55	5102
2026-01-14 01:52:09.49	261.54	54.95	-41.4	-44.0	20.0	6.02e-01	0	61	0	574619648	54	4861
2026-01-14 01:52:10.50	260.76	54.71	-41.9	-44.8	19.3	6.02e-01	0	61	0	576716800	54	5323
2026-01-14 01:52:11.51	259.99	54.47	-41.6	-44.4	19.7	6.02e-01	0	61	0	578289664	54	5087
2026-01-14 01:52:12.52	259.23	54.23	-41.2	-43.8	20.3	6.04e-01	0	61	0	580386816	54	4719
2026-01-14 01:52:13.53	258.48	53.98	-41.4	-44.1	20.1	6.03e-01	0	61	0	582483968	54	4892
2026-01-14 01:52:14.54	257.75	53.73	-41.3	-43.9	20.2	6.02e-01	0	61	0	584056832	54	4781
2026-01-14 01:52:15.55	257.03	53.48	-41.3	-43.9	20.1	6.06e-01	0	61	0	586153984	54	4780
2026-01-14 01:52:16.56	256.32	53.22	-41.1	-43.6	20.5	6.04e-01	0	61	0	587726848	53	4900
2026-01-14 01:52:17.57	255.63	52.96	-41.0	-43.6	20.5	6.06e-01	0	61	0	589824000	53	4890
2026-01-14 01:52:18.58	254.94	52.70	-41.2	-43.8	20.3	6.05e-01	0	61	0	591921152	53	5007
2026-01-14 01:52:19.59	254.27	52.43	-41.0	-43.5	20.6	6.02e-01	0	61	0	593494016	53	4845
2026-01-14 01:52:20.60	253.61	52.17	-41.2	-43.8	20.3	6.02e-01	0	61	0	595591168	53	5032
2026-01-14 01:52:21.61	252.97	51.90	-41.3	-44.0	20.1	6.04e-01	0	61	0	597164032	53	5134
2026-01-14 01:52:22.62	252.33	51.63	-41.3	-44.0	20.1	6.03e-01	0	61	0	599261184	53	5119
2026-01-14 01:52:23.63	251.71	51.35	-41.4	-44.1	20.0	6.02e-01	0	61	0	600834048	53	5209
2026-01-14 01:52:24.63	251.10	51.08	-41.5	-44.3	19.8	6.02e-01	0	61	0	602931200	53	5318
2026-01-14 01:52:25.64	250.50	50.80	-41.4	-44.1	20.0	6.03e-01	0	61	0	605028352	53	5206
2026-01-14 01:52:26.65	249.91	50.52	-41.4	-44.0	20.1	6.02e-01	0	61	0	606601216	53	5145
2026-01-14 01:52:27.66	249.34	50.24	-41.8	-44.8	19.4	6.03e-01	0	61	0	608698368	54	5280
2026-01-14 01:52:28.67	248.77	49.96	-41.5	-44.3	19.8	6.07e-01	0	61	0	610795520	54	5011
2026-01-14 01:52:29.68	248.21	49.68	-41.6	-44.4	19.7	6.04e-01	0	61	0	612368384	54	5076
2026-01-14 01:52:30.69	247.66	49.39	-41.7	-44.5	19.6	6.02e-01	0	61	0	614465536	54	5155
2026-01-14 01:52:31.70	247.13	49.11	-41.7	-44.5	19.6	6.04e-01	0	61	0	616038400	54	5123
2026-01-14 01:52:32.71	246.60	48.82	-41.7	-44.5	19.7	6.05e-01	0	61	0	618135552	54	5117
2026-01-14 01:52:33.72	246.09	48.54	-41.5	-44.2	19.9	6.05e-01	0	61	0	620232704	54	4934
2026-01-14 01:52:34.73	245.58	48.25	-41.1	-43.7	20.4	6.03e-01	0	61	0	621805568	54	4675
2026-01-14 01:52:35.74	245.08	47.97	-41.2	-43.8	20.3	6.04e-01	0	61	0	623902720	54	4731
2026-01-14 01:52:36.75	244.59	47.68	-41.4	-44.1	20.0	6.02e-01	0	61	0	625475584	54	4916
2026-01-14 01:52:37.76	244.11	47.39	-41.4	-44.2	19.9	6.01e-01	0	61	0	627572736	54	4930
2026-01-14 01:52:38.76	243.65	47.11	-41.3	-43.9	20.2	6.03e-01	0	61	0	629669888	54	4795
2026-01-14 01:52:39.77	243.19	46.82	-41.3	-43.9	20.2	6.02e-01	0	61	0	631242752	54	4806
2026-01-14 01:52:40.78	242.73	46.53	-41.2	-43.9	20.2	6.03e-01	0	61	0	633339904	54	4770
2026-01-14 01:52:41.79	242.29	46.25	-41.1	-43.6	20.5	6.02e-01	0	61	0	635437056	54	4637
2026-01-14 01:52:42.80	241.85	45.96	-41.3	-43.9	20.2	6.04e-01	0	61	0	637009920	54	4790
2026-01-14 01:52:43.81	241.42	45.67	-41.5	-44.3	19.8	6.02e-01	0	61	0	639107072	54	5019
2026-01-14 01:52:44.82	241.00	45.39	-41.3	-44.0	20.1	6.03e-01	0	61	0	640679936	54	4837
2026-01-14 01:52:45.83	240.59	45.10	-41.3	-43.9	20.2	6.05e-01	0	61	0	642777088	54	4806
2026-01-14 01:52:46.84	240.18	44.82	-41.4	-44.2	19.9	6.03e-01	0	61	0	644874240	54	4927
2026-01-14 01:52:47.85	239.79	44.53	-41.4	-44.1	20.0	6.02e-01	0	61	0	646447104	54	4914
2026-01-14 01:52:48.86	239.40	44.25	-41.5	-44.2	19.8	6.03e-01	0	61	0	648544256	54	4978
2026-01-14 01:52:49.87	239.01	43.96	-41.6	-44.4	19.7	6.04e-01	0	61	0	650117120	54	5076
2026-01-14 01:52:50.88	238.63	43.68	-41.7	-44.5	19.6	6.02e-01	0	61	0	652214272	54	5139
2026-01-14 01:52:51.89	238.26	43.40	-41.6	-44.4	19.7	6.01e-01	0	61	0	654311424	54	5049
2026-01-14 01:52:52.90	237.90	43.12	-41.6	-44.4	19.7	6.03e-01	0	61	0	655884288	54	5094
2026-01-14 01:52:53.90	237.55	42.84	-41.5	-44.2	19.2	6.02e-01	0	61	0	657981440	54	4934
2026-01-14 01:52:54.92	237.19	42.56	-41.8	-44.7	19.4	6.01e-01	0	61	0	659554304	54	5242
2026-01-14 01:52:55.93	236.85	42.28	-42.1	-45.3	18.8	6.02e-01	0	61	0	661651456	54	5598
2026-01-14 01:52:56.94	236.51	42.01	-42.0	-45.0	19.1	6.04e-01	0	61	0	663748608	54	5417
2026-01-14 01:52:57.95	236.18	41.73	-41.9	-44.8	19.3	6.01e-01	0	61	0	665321472	54	5310
2026-01-14 01:52:58.96	235.85	41.46	-42.0	-45.0	19.1	6.03e-01	0	61	0	667418624	54	5455
2026-01-14 01:52:59.96	235.53	41.19	-42.2	-45.4	18.7	6.01e-01	0	61	0	668991488	55	5380
2026-01-14 01:53:00.97	235.21	40.91	-42.1	-45.2	18.9	6.05e-01	0	61	0	671088640	55	5227
2026-01-14 01:53:01.98	234.90	40.64	-42.0	-45.0	19.1	6.04e-01	0	61	0	673185792	55	5107
2026-01-14 01:53:02.99	234.60	40.37	-42.3	-45.6	18.5	6.03e-01	0	61	0	674758656	55	5486
2026-01-14 01:53:04.00	234.30	40.10	-42.6	-46.1	18.0	6.05e-01	0	61	0	676855808	55	5822
2026-01-14 01:53:05.01	234.00	39.84	-42.3	-45.5	18.5	6.04e-01	0	61	0	678952960	55	5455
2026-01-14 01:53:06.02	233.71	39.57	-42.2	-45.4	18.7	6.02e-01	0	61	0	680525824	55	5360
2026-01-14 01:53:07.03	233.43	39.30	-42.5	-45.9	18.2	6.04e-01	0	61	0	682622976	55	5658
2026-01-14 01:53:08.04	233.14	39.04	-43.0	-46.7	17.5	6.03e-01	0	61	0	684195840	56	5864
2026-01-14 01:53:09.04	232.87	38.78	-42.8	-46.4	17.8	6.03e-01	0	61	0	686292992	56	5687
2026-01-14 01:53:10.05	232.60	38.52	-42.7	-46.1	18.1	6.04e-01	0	61	0	688390144	56	5473
2026-01-14 01:53:11.06	232.33	38.26	-42.7	-46.1	18.0	6.02e-01	0	61	0	689963008	56	5526
2026-01-14 01:53:12.07	232.07	38.00	-42.8	-46.3	17.9	6.04e-01	0	61	0	692060160	56	5606
2026-01-14 01:53:13.08	231.81	37.75	-42.8	-46.2	17.9	6.04e-01	0	61	0	693633024	56	5589
2026-01-14 01:53:14.09	231.56	37.49	-42.6	-45.9	18.2	6.03e-01	0	61	0	695730176	56	5363
2026-01-14 01:53:15.10	231.31	37.24	-42.5	-45.9	18.3	6.03e-01	0	61	0	697827328	56	5353
2026-01-14 01:53:16.11	231.06	36.99	-42.6	-46.0	18.2	6.03e-01	0	61	0	699400192	56	5403
2026-01-14 01:53:17.12	230.82	36.74	-42.5	-45.8	18.4	6.03e-01	0	61	0	701497344	56	5284
2026-01-14 01:53:18.13	230.58	36.49	-42.5	-45.8	18.3	6.02e-01	0	61	0	703594496	56	5321
2026-01-14 01:53:19.14	230.34	36.24	-42.7	-46.2	18.0	6.04e-01	0	61	0	705167360	56	5540
2026-01-14 01:53:20.15	230.11	35.99	-42.8	-46.4	17.8	6.04e-01	0	61	0	707264512	56	5678
2026-01-14 01:53:21.16	229.88	35.75	-42.6	-46.0	18.1	6.02e-01	0	61	0	708837376	56	5444
2026-01-14 01:53:22.17	229.66	35.50	-42.3	-45.4	18.7	6.04e-01	0	61	0	710934528	56	5091
2026-01-14 01:53:23.18	229.44	35.26	-42.2	-45.3	18.8	6.03e-01	0	61	0	712507392	56	4996
2026-01-14 01:53:24.19	229.22	35.02	-42.3	-45.4	18.7	6.03e-01	0	61	0	714604544	56	5067
2026-01-14 01:53:25.20	229.01	34.78	-42.5	-45.7	18.4	6.03e-01	0	61	0	716701696	56	5265
2026-01-14 01:53:26.20	228.80	34.55	-42.5	-45.9	18.2	6.03e-01	0	61	0	718274560	56	5375
2026-01-14 01:53:27.21	228.59	34.31	-42.3	-45.5	18.6	6.05e-01	0	61	0	720371712	56	5109
2026-01-14 01:53:28.22	228.38	34.08	-42.1	-45.2	18.9	6.04e-01	0	61	0	721944576	56	4949
2026-01-14 01:53:29.23	228.18	33.84	-42.1	-45.2	18.9	6.04e-01	0	61	0	724041728	56	4971
2026-01-14 01:53:30.24	227.98	33.61	-42.0	-45.0	19.1	6.05e-01	0	61	0	726138880	56	4856
2026-01-14 01:53:31.25	227.79	33.38	-41.8	-44.8	19.2	6.04e-01	0	61	0	727711744	55	5016
2026-01-14 01:53:32.26	227.60	33.15	-41.7	-44.6	19.4	6.04e-01	0	61	0	729808896	55	4876
2026-01-14 01:53:33.27	227.41	32.92	-41.6	-44.4	19.6	6.04e-01	0	61	0	731906048	55	4789
2026-01-14 01:53:34.28	227.22	32.70	-41.7	-44.5	19.4	6.01e-01	0	61	0	733478912	55	4866
2026-01-14 01:53:35.29	227.03	32.47	-41.5	-44.3	19.7	6.03e-01	0	61	0	735576064	55	4723
2026-01-14 01:53:36.30	226.85	32.25	-41.4	-44.2	19.8	6.03e-01	0	61	0	737148928	54	4927
2026-01-14 01:53:37.31	226.67	32.03	-41.3	-44.0	20.0	6.04e-01	0	61	0	739246080	54	4853
2026-01-14 01:53:38.32	226.49	31.81	-41.3	-44.0	19.9	6.02e-01	0	61	0	741343232	54	4862
2026-01-14 01:53:39.33	226.32	31.59	-41.2	-43.9	20.1	6.04e-01	0	61	0	742916096	54	4774
2026-01-14 01:53:40.34	226.15	31.37	-41.2	-43.9	20.1	6.03e-01	0	61	0	745013248	54	4794
2026-01-14 01:53:41.34	225.98	31.16	-41.3	-44.0	20.0	6.03e-01	0	61	0	747110400	54	4853
2026-01-14 01:53:42.35	225.81	30.95	-41.5	-44.2	19.8	6.04e-01	0	61	0	748683264	54	4977
2026-01-14 01:53:43.36	225.65	30.73	-41.4	-44.1	19.9	6.03e-01	0	61	0	750780416	54	4883
2026-01-14 01:53:44.37	225.48	30.52	-41.2	-43.8	20.2	6.02e-01	0	61	0	752353280	54	4750
2026-01-14 01:53:45.38	225.32	30.31	-41.2	-43.8	20.1	6.02e-01	0	61	0	754450432	54	4750
2026-01-14 01:53:46.39	225.16	30.10	-41.3	-44.0	20.0	6.05e-01	0	61	0	756547584	54	4818
2026-01-14 01:53:47.40	225.01	29.89	-41.3	-44.0	19.9	6.02e-01	0	61	0	758120448	54	4866
2026-01-14 01:53:48.41	224.85	29.69	-41.2	-43.9	20.1	6.04e-01	0	61	0	760217600	54	4779
2026-01-14 01:53:49.42	224.70	29.48	-41.2	-43.8	20.2	6.04e-01	0	61	0	761790464	54	4737
2026-01-14 01:53:50.43	224.55	29.28	-41.1	-43.7	20.3	6.03e-01	0	61	0	763887616	54	4695
2026-01-14 01:53:51.44	224.40	29.08	-41.1	-43.7	20.3	6.03e-01	0	61	0	765984768	54	4669
2026-01-14 01:53:52.45	224.26	28.88	-41.1	-43.8	20.2	6.04e-01	0	61	0	767557632	54	4726
2026-01-14 01:53:53.46	224.11	28.68	-41.2	-43.9	20.1	6.02e-01	0	61	0	769654784	54	4794
2026-01-14 01:53:54.47	223.97	28.48	-41.3	-44.1	19.9	6.03e-01	0	61	0	771227648	54	4876
2026-01-14 01:53:55.48	223.83	28.28	-41.3	-43.9	20.0	6.01e-01	0	61	0	773324800	54	4811
2026-01-14 01:53:56.49	223.69	28.09	-41.2	-43.9	20.0	6.03e-01	0	61	0	775421952	54	4807
2026-01-14 01:53:57.50	223.55	27.89	-41.3	-44.0	19.9	6.03e-01	0	61	0	776994816	54	4846
2026-01-14 01:53:58.50	223.42	27.70	-41.3	-44.0	19.9	6.04e-01	0	61	0	779091968	54	4850
2026-01-14 01:53:59.51	223.28	27.51	-41.4	-44.1	19.8	6.04e-01	0	61	0	780664832	54	4926
2026-01-14 01:54:00.52	223.15	27.32	-41.4	-44.2	19.8	6.02e-01	0	61	0	782761984	54	4928
2026-01-14 01:54:01.53	223.02	27.13	-41.5	-44.3	19.7	6.02e-01	0	61	0	784859136	54	4984
2026-01-14 01:54:02.54	222.89	26.94	-41.4	-44.2	19.8	6.02e-01	0	61	0	786432000	54	4932
2026-01-14 01:54:03.55	222.77	26.76	-41.5	-44.3	19.7	6.04e-01	0	61	0	788529152	54	4990
2026-01-14 01:54:04.56	222.64	26.57	-41.4	-44.1	19.8	6.05e-01	0	61	0	790102016	54	4926
2026-01-14 01:54:05.57	222.52	26.39	-41.3	-44.1	19.8	6.02e-01	0	61	0	792199168	54	4892
2026-01-14 01:54:06.58	222.39	26.21	-41.4	-44.2	19.7	6.04e-01	0	61	0	794296320	54	4942
2026-01-14 01:54:07.59	222.27	26.02	-41.5	-44.3	19.6	6.02e-01	0	61	0	795869184	54	4996
2026-01-14 01:54:08.60	222.15	25.84	-41.5	-44.3	19.6	6.05e-01	0	61	0	797966336	54	5013
2026-01-14 01:54:09.61	222.03	25.66	-41.5	-44.4	19.6	6.04e-01	0	61	0	800063488	54	5043
2026-01-14 01:54:10.62	221.92	25.49	-41.6	-44.4	19.5	6.02e-01	0	61	0	801636352	54	5089
2026-01-14 01:54:11.63	221.80	25.31	-41.6	-44.5	19.4	6.02e-01	0	61	0	803733504	54	5132
2026-01-14 01:54:12.64	221.69	25.13	-41.6	-44.5	19.4	6.03e-01	0	61	0	805306368	54	5130
2026-01-14 01:54:13.65	221.57	24.96	-41.7	-44.6	19.3	6.03e-01	0	61	0	807403520	54	5164
2026-01-14 01:54:14.66	221.46	24.78	-41.7	-44.7	19.2	6.02e-01	0	61	0	809500672	54	5226
2026-01-14 01:54:15.67	221.35	24.61	-41.9	-44.9	19.0	6.03e-01	0	61	0	811073536	54	5373
2026-01-14 01:54:16.68	221.24	24.44	-42.0	-45.1	18.8	6.01e-01	0	61	0	813170688	54	5493
2026-01-14 01:54:17.69	221.14	24.27	-42.0	-45.1	18.8	6.01e-01	0	61	0	815267840	54	5514
2026-01-14 01:54:18.70	221.03	24.10	-42.0	-45.1	18.8	6.05e-01	0	61	0	816840704	54	5473
2026-01-14 01:54:19.71	220.93	23.93	-42.0	-45.1	18.8	6.03e-01	0	61	0	818937856	54	5515
2026-01-14 01:54:20.72	220.82	23.76	-41.9	-44.9	19.0	6.03e-01	0	61	0	820510720	54	5388
2026-01-14 01:54:21.73	220.72	23.60	-41.8	-44.8	19.1	6.03e-01	0	61	0	822607872	54	5313
2026-01-14 01:54:22.74	220.62	23.43	-41.8	-44.8	19.1	6.03e-01	0	61	0	824705024	54	5280
2026-01-14 01:54:23.75	220.52	23.27	-41.7	-44.7	19.2	6.04e-01	0	61	0	826277888	54	5227
2026-01-14 01:54:24.76	220.42	23.11	-41.7	-44.7	19.2	6.04e-01	0	61	0	828375040	54	5235
2026-01-14 01:54:25.77	220.32	22.95	-41.7	-44.7	19.1	6.04e-01	0	61	0	829947904	54	5243
2026-01-14 01:54:26.78	220.22	22.78	-41.8	-44.8	19.1	6.04e-01	0	61	0	832045056	54	5284
2026-01-14 01:54:27.79	220.13	22.62	-41.7	-44.7	19.1	6.03e-01	0	61	0	834142208	54	5270
2026-01-14 01:54:28.80	220.03	22.47	-41.7	-44.7	19.1	6.04e-01	0	61	0	835715072	54	5264
2026-01-14 01:54:29.81	219.94	22.31	-41.7	-44.7	18.9	6.03e-01	0	61	0	837812224	54	5279
2026-01-14 01:54:30.82	219.84	22.15	-41.7	-44.6	19.2	6.04e-01	0	61	0	839385088	54	5196
2026-01-14 01:54:31.83	219.75	21.99	-41.7	-44.7	19.2	6.04e-01	0	61	0	841482240	54	5226
2026-01-14 01:54:32.84	219.66	21.84	-41.7	-44.6	19.2	6.02e-01	0	61	0	843579392	54	5208
2026-01-14 01:54:33.85	219.57	21.69	-41.7	-44.7	19.1	6.04e-01	0	61	0	845152256	54	5263
2026-01-14 01:54:34.85	219.48	21.53	-41.8	-44.8	19.0	6.04e-01	0	61	0	847249408	54	5310
2026-01-14 01:54:35.87	219.39	21.38	-41.8	-44.8	19.0	6.03e-01	0	61	0	848822272	54	5311
2026-01-14 01:54:36.87	219.31	21.23	-41.7	-44.7	19.1	6.05e-01	0	61	0	850919424	54	5220
2026-01-14 01:54:37.88	219.22	21.08	-41.7	-44.7	19.2	6.05e-01	0	61	0	853016576	54	5219
2026-01-14 01:54:38.89	219.13	20.93	-41.7	-44.7	19.1	6.04e-01	0	61	0	854589440	54	5271
2026-01-14 01:54:39.90	219.05	20.78	-41.7	-44.8	19.0	6.02e-01	0	61	0	856686592	54	5301
2026-01-14 01:54:40.92	218.97	20.63	-41.8	-44.8	19.0	6.02e-01	0	61	0	858259456	54	5316
2026-01-14 01:54:41.93	218.88	20.49	-41.8	-44.9	18.9	6.01e-01	0	61	0	860356608	54	5356
2026-01-14 01:54:42.93	218.80	20.34	-41.7	-44.7	19.1	6.01e-01	0	61	0	862453760	54	5268
2026-01-14 01:54:43.94	218.72	20.20	-41.7	-44.7	19.1	6.00e-01	0	61	0	864026624	54	5246
2026-01-14 01:54:44.95	218.64	20.05	-41.7	-44.7	19.1	6.02e-01	0	61	0	866123776	54	5264
2026-01-14 01:54:45.97	218.56	19.91	-41.7	-44.6	19.1	6.03e-01	0	61	0	868220928	54	5209
2026-01-14 01:54:46.97	218.48	19.77	-41.6	-44.6	19.2	6.03e-01	0	61	0	869793792	54	5168
2026-01-14 01:54:47.98	218.40	19.63	-41.6	-44.5	19.2	6.04e-01	0	61	0	871890944	54	5135
2026-01-14 01:54:48.99	218.33	19.48	-41.6	-44.5	19.3	6.04e-01	0	61	0	873463808	54	5124
2026-01-14 01:54:50.00	218.25	19.34	-41.6	-44.5	19.2	6.03e-01	0	61	0	875560960	54	5144
2026-01-14 01:54:51.01	218.18	19.20	-41.6	-44.6	19.1	6.04e-01	0	61	0	877658112	54	5186
2026-01-14 01:54:52.02	218.10	19.07	-41.7	-44.6	19.1	6.04e-01	0	61	0	879230976	54	5217
2026-01-14 01:54:53.03	218.03	18.93	-41.6	-44.6	19.2	6.01e-01	0	61	0	881328128	54	5181
2026-01-14 01:54:54.04	217.95	18.79	-41.6	-44.6	19.1	6.03e-01	0	61	0	883425280	54	5199
2026-01-14 01:54:55.05	217.88	18.66	-41.6	-44.6	19.2	6.03e-01	0	61	0	884998144	54	5163
2026-01-14 01:54:56.06	217.81	18.52	-41.7	-44.7	19.1	6.04e-01	0	61	0	887095296	54	5233
2026-01-14 01:54:57.07	217.74	18.39	-41.7	-44.7	19.1	6.03e-01	0	61	0	888668160	54	5225
2026-01-14 01:54:58.08	217.67	18.25	-41.7	-44.8	19.0	6.03e-01	0	61	0	890765312	54	5288
2026-01-14 01:54:59.09	217.60	18.12	-41.8	-44.9	18.8	6.04e-01	0	61	0	892862464	54	5393
2026-01-14 01:55:00.10	217.53	17.99	-41.7	-44.7	19.0	6.03e-01	0	61	0	894435328	54	5267
2026-01-14 01:55:01.11	217.46	17.86	-41.8	-44.8	18.9	6.05e-01	0	61	0	896532480	54	5339
2026-01-14 01:55:02.12	217.39	17.72	-41.8	-44.8	18.8	6.05e-01	0	61	0	898105344	54	5334
2026-01-14 01:55:03.13	217.32	17.59	-41.8	-44.8	18.9	6.02e-01	0	61	0	900202496	54	5336
2026-01-14 01:55:04.14	217.26	17.47	-41.7	-44.7	19.0	6.03e-01	0	61	0	902299648	54	5255
2026-01-14 01:55:05.15	217.19	17.34	-41.6	-44.6	19.1	6.04e-01	0	61	0	903872512	54	5178
2026-01-14 01:55:06.16	217.13	17.21	-41.5	-44.5	19.2	6.06e-01	0	61	0	905969664	54	5138
2026-01-14 01:55:07.17	217.06	17.08	-41.5	-44.5	19.2	6.03e-01	0	61	0	907542528	54	5120
2026-01-14 01:55:08.17	217.00	16.96	-41.6	-44.5	19.1	6.04e-01	0	61	0	909639680	54	5158
2026-01-14 01:55:09.18	216.93	16.83	-41.6	-44.6	19.1	6.02e-01	0	61	0	911736832	54	5170
2026-01-14 01:55:10.19	216.87	16.71	-41.6	-44.6	19.0	6.02e-01	0	61	0	913309696	54	5207
2026-01-14 01:55:11.20	216.81	16.58	-41.6	-44.6	19.0	6.03e-01	0	61	0	915406848	54	5206
2026-01-14 01:55:12.21	216.75	16.46	-41.7	-44.7	18.9	6.04e-01	0	61	0	916979712	54	5279
2026-01-14 01:55:13.22	216.69	16.33	-41.7	-44.8	18.9	6.05e-01	0	61	0	919076864	54	5283
2026-01-14 01:55:14.23	216.62	16.21	-41.7	-44.8	18.9	6.05e-01	0	61	0	921174016	54	5288
2026-01-14 01:55:15.24	216.56	16.09	-41.6	-44.7	18.9	6.03e-01	0	61	0	922746880	54	5252
2026-01-14 01:55:16.25	216.50	15.97	-41.6	-44.7	18.9	6.04e-01	0	61	0	924844032	54	5259
2026-01-14 01:55:17.26	216.45	15.85	-41.6	-44.7	18.9	6.04e-01	0	61	0	926416896	54	5250
2026-01-14 01:55:18.27	216.39	15.73	-41.6	-44.7	19.0	6.05e-01	0	61	0	928514048	54	5222
2026-01-14 01:55:19.28	216.33	15.61	-41.6	-44.7	19.0	6.04e-01	0	61	0	930611200	54	5234
2026-01-14 01:55:20.29	216.27	15.49	-41.6	-44.7	18.9	6.03e-01	0	61	0	932184064	54	5264
2026-01-14 01:55:21.30	216.21	15.37	-41.6	-44.7	18.9	6.01e-01	0	61	0	934281216	54	5243
2026-01-14 01:55:22.31	216.16	15.25	-41.6	-44.6	19.0	6.04e-01	0	61	0	936378368	54	5190
2026-01-14 01:55:23.32	216.10	15.14	-41.6	-44.7	18.9	6.03e-01	0	61	0	937951232	54	5228
2026-01-14 01:55:24.32	216.05	15.02	-41.6	-44.6	19.0	6.04e-01	0	61	0	940048384	54	5179
2026-01-14 01:55:25.33	215.99	14.90	-41.6	-44.6	18.9	6.04e-01	0	61	0	941621248	54	5215
2026-01-14 01:55:26.34	215.94	14.79	-41.5	-44.6	19.0	6.03e-01	0	61	0	943718400	54	5163
2026-01-14 01:55:27.35	215.88	14.67	-41.6	-44.7	18.9	6.04e-01	0	61	0	945815552	54	5219
2026-01-14 01:55:28.36	215.83	14.56	-41.6	-44.7	18.9	6.03e-01	0	61	0	947388416	54	5221
2026-01-14 01:55:29.37	215.78	14.45	-41.6	-44.6	18.9	6.02e-01	0	61	0	949485568	54	5213
2026-01-14 01:55:30.38	215.72	14.33	-41.6	-44.7	18.8	6.02e-01	0	61	0	951582720	54	5248
2026-01-14 01:55:31.39	215.67	14.22	-41.6	-44.7	18.8	6.03e-01	0	61	0	953155584	54	5245
2026-01-14 01:55:32.40	215.62	14.11	-41.6	-44.6	18.9	6.03e-01	0	61	0	955252736	54	5203
2026-01-14 01:55:33.41	215.57	14.00	-41.6	-44.6	18.9	6.03e-01	0	61	0	956825600	54	5209
2026-01-14 01:55:34.42	215.52	13.89	-41.5	-44.5	18.9	6.02e-01	0	61	0	958922752	54	5154
2026-01-14 01:55:35.43	215.47	13.78	-41.6	-44.6	18.8	6.05e-01	0	61	0	961019904	54	5215
2026-01-14 01:55:36.44	215.42	13.67	-41.6	-44.6	18.9	6.02e-01	0	61	0	962592768	54	5205
2026-01-14 01:55:37.45	215.37	13.56	-41.6	-44.6	18.9	6.02e-01	0	61	0	964689920	54	5207
2026-01-14 01:55:38.46	215.32	13.45	-41.6	-44.7	18.8	6.03e-01	0	61	0	966262784	54	5228
2026-01-14 01:55:39.47	215.27	13.34	-41.6	-44.7	18.8	6.04e-01	0	61	0	968359936	54	5237
2026-01-14 01:55:40.48	215.22	13.23	-41.6	-44.7	18.8	6.04e-01	0	61	0	970457088	54	5265
2026-01-14 01:55:41.49	215.17	13.13	-41.6	-44.7	18.7	6.04e-01	0	61	0	972029952	54	5276
2026-01-14 01:55:42.50	215.12	13.02	-41.6	-44.7	18.8	6.05e-01	0	61	0	974127104	54	5219
2026-01-14 01:55:43.51	215.08	12.91	-41.5	-44.6	18.8	6.03e-01	0	61	0	975699968	54	5217
2026-01-14 01:55:44.52	215.03	12.81	-41.5	-44.6	18.8	6.02e-01	0	61	0	977797120	54	5213
2026-01-14 01:55:45.53	214.98	12.70	-41.6	-44.7	18.8	6.02e-01	0	61	0	979894272	54	5232
2026-01-14 01:55:46.54	214.94	12.60	-41.6	-44.7	18.7	6.04e-01	0	61	0	981467136	54	5230
2026-01-14 01:55:47.55	214.89	12.49	-41.6	-44.7	18.7	6.01e-01	0	61	0	983564288	54	5258
2026-01-14 01:55:48.56	214.84	12.39	-41.6	-44.8	18.7	6.04e-01	0	61	0	985137152	54	5280
2026-01-14 01:55:49.58	214.80	12.29	-41.7	-44.9	18.5	6.03e-01	0	61	0	987234304	54	5386
2026-01-14 01:55:50.59	214.75	12.18	-41.6	-44.8	18.6	6.03e-01	0	61	0	989331456	54	5314
2026-01-14 01:55:51.60	214.71	12.08	-41.6	-44.8	18.6	6.05e-01	0	61	0	990904320	54	5306
2026-01-14 01:55:52.61	214.67	11.98	-41.7	-44.9	18.4	6.02e-01	0	61	0	993001472	54	5385
2026-01-14 01:55:53.62	214.62	11.88	-41.8	-45.1	18.3	6.03e-01	0	61	0	994574336	54	5491
2026-01-14 01:55:54.63	214.58	11.78	-41.8	-45.2	18.2	6.02e-01	0	61	0	996671488	54	5531
2026-01-14 01:55:55.64	214.54	11.68	-41.7	-45.1	18.3	6.02e-01	0	61	0	998768640	54	5485
2026-01-14 01:55:56.65	214.49	11.58	-41.8	-45.2	18.2	6.04e-01	0	61	0	1000341504	54	5546
2026-01-14 01:55:57.65	214.45	11.48	-41.8	-45.2	18.1	6.04e-01	0	61	0	1002438656	54	5558
2026-01-14 01:55:58.66	214.41	11.38	-41.8	-45.3	18.1	6.04e-01	0	61	0	1004535808	54	5597
2026-01-14 01:55:59.68	214.37	11.28	-41.9	-45.4	18.0	6.03e-01	0	61	0	1006108672	54	5667
2026-01-14 01:56:00.69	214.32	11.18	-41.9	-45.5	17.8	6.05e-01	0	61	0	1008205824	54	5732
2026-01-14 01:56:01.70	214.28	11.08	-42.0	-45.5	17.8	6.05e-01	0	61	0	1009778688	54	5741
2026-01-14 01:56:02.70	214.24	10.99	-41.9	-45.4	17.9	6.04e-01	0	61	0	1011875840	54	5695
2026-01-14 01:56:03.71	214.20	10.89	-41.9	-45.4	17.8	6.03e-01	0	60	0	1013972992	54	5713
2026-01-14 01:56:04.72	214.16	10.79	-41.9	-45.4	17.8	6.04e-01	0	61	0	1015545856	54	5715
2026-01-14 01:56:05.73	214.12	10.70	-42.0	-45.5	17.7	6.04e-01	0	61	0	1017643008	54	5774
2026-01-14 01:56:06.75	214.08	10.60	-42.0	-45.6	17.7	6.03e-01	0	61	0	1019740160	54	5799
2026-01-14 01:56:07.76	214.04	10.50	-41.9	-45.4	17.8	6.04e-01	0	61	0	1021313024	54	5691
2026-01-14 01:56:08.77	214.00	10.41	-41.9	-45.4	17.8	6.04e-01	0	61	0	1023410176	54	5712
2026-01-14 01:56:09.77	213.97	10.32	-42.0	-45.5	17.7	6.02e-01	0	61	0	1024983040	54	5781
2026-01-14 01:56:10.78	213.93	10.22	-41.9	-45.5	17.7	6.03e-01	0	61	0	1027080192	54	5770
2026-01-14 01:56:11.80	213.89	10.13	-41.9	-45.5	17.7	6.04e-01	0	61	0	1029177344	54	5738
2026-01-14 01:56:12.81	213.85	10.03	-41.9	-45.5	17.8	6.02e-01	0	61	0	1030750208	54	5733
2026-01-14 01:56:13.81	213.81	9.94	-41.9	-45.4	17.8	6.03e-01	0	61	0	1032847360	54	5713
2026-01-14 01:56:14.82	213.78	9.85	-41.9	-45.5	17.7	6.03e-01	0	61	0	1034420224	54	5741
2026-01-14 01:56:15.83	213.74	9.76	-42.0	-45.6	17.5	6.04e-01	0	61	0	1036517376	54	5843
2026-01-14 01:56:16.84	213.70	9.66	-42.0	-45.7	17.5	6.03e-01	0	61	0	1038614528	54	5868
2026-01-14 01:56:17.85	213.67	9.57	-42.0	-45.7	17.4	6.02e-01	0	61	0	1040187392	54	5890
2026-01-14 01:56:18.86	213.63	9.48	-42.0	-45.6	17.6	6.04e-01	0	61	0	1042284544	54	5800
2026-01-14 01:56:19.87	213.59	9.39	-41.9	-45.6	17.6	6.03e-01	0	61	0	1043857408	54	5799
2026-01-14 01:56:20.88	213.56	9.30	-42.0	-45.7	17.5	6.04e-01	0	61	0	1045954560	54	5870
2026-01-14 01:56:21.89	213.52	9.21	-41.9	-45.6	17.5	6.03e-01	0	61	0	1048051712	54	5808
2026-01-14 01:56:22.90	213.49	9.12	-41.9	-45.6	17.5	6.02e-01	0	61	0	1049624576	54	5798
2026-01-14 01:56:23.91	213.45	9.03	-41.9	-45.5	17.6	6.04e-01	0	61	0	1051721728	54	5742
2026-01-14 01:56:24.91	213.42	8.94	-41.9	-45.5	17.6	6.03e-01	0	61	0	1053294592	54	5752
2026-01-14 01:56:25.92	213.38	8.85	-41.9	-45.6	17.4	6.03e-01	0	61	0	1055391744	54	5849
2026-01-14 01:56:26.93	213.35	8.76	-41.9	-45.6	17.5	6.04e-01	0	61	0	1057488896	54	5832
2026-01-14 01:56:27.94	213.32	8.68	-41.9	-45.6	17.4	6.04e-01	0	61	0	1059061760	54	5845
2026-01-14 01:56:28.95	213.28	8.59	-42.0	-45.7	17.3	6.05e-01	0	61	0	1061158912	54	5917
2026-01-14 01:56:29.96	213.25	8.50	-42.0	-45.8	17.2	6.04e-01	0	61	0	1062731776	54	5987
2026-01-14 01:56:30.97	213.22	8.41	-42.0	-45.8	17.2	6.01e-01	0	61	0	1064828928	54	5941
2026-01-14 01:56:31.98	213.18	8.33	-41.9	-45.7	17.3	6.04e-01	0	61	0	1066926080	54	5882
2026-01-14 01:56:32.99	213.15	8.24	-42.0	-45.8	17.1	6.03e-01	0	61	0	1068498944	54	5943
2026-01-14 01:56:34.00	213.12	8.15	-42.0	-45.9	17.1	6.03e-01	0	61	0	1070596096	54	6052
2026-01-14 01:56:35.01	213.08	8.07	-42.1	-46.0	16.9	6.04e-01	0	61	0	1072693248	54	6116
2026-01-14 01:56:36.02	213.05	7.98	-45.2	-62.0	3.8	7.47e-01	0	61	104	1074266112	60	27196
2026-01-14 01:56:37.03	213.02	7.90	-45.7	-64.4	3.8	7.47e-01	0	61	104	1074266112	61	33721
2026-01-14 01:56:38.04	212.99	7.81	-45.9	-64.6	3.8	7.44e-01	0	61	104	1074266112	62	32784
2026-01-14 01:56:39.05	212.96	7.73	-46.0	-64.8	3.8	7.45e-01	0	61	104	1074266112	62	33409
2026-01-14 01:56:40.06	212.93	7.64	-46.2	-64.9	3.8	7.44e-01	0	61	104	1074266112	62	33745
2026-01-14 01:56:41.07	212.90	7.56	-46.2	-64.9	3.9	7.46e-01	0	61	104	1074266112	63	32152
2026-01-14 01:56:42.08	212.86	7.48	-46.3	-65.0	3.8	7.46e-01	0	61	104	1074266112	63	32382
2026-01-14 01:56:43.09	212.83	7.39	-46.3	-65.0	3.8	7.45e-01	0	61	104	1074266112	63	32514
2026-01-14 01:56:44.10	212.80	7.31	-46.3	-65.0	3.8	7.43e-01	0	61	104	1074266112	63	32493
2026-01-14 01:56:45.11	212.77	7.23	-46.3	-65.0	3.8	7.44e-01	0	61	104	1074266112	63	32345
2026-01-14 01:56:46.12	212.74	7.14	-46.3	-65.0	3.8	7.45e-01	0	61	104	1074266112	63	32197
2026-01-14 01:56:47.13	212.71	7.06	-46.2	-64.9	3.8	7.44e-01	0	61	104	1074266112	63	32083
2026-01-14 01:56:48.14	212.68	6.98	-46.2	-64.9	3.8	7.43e-01	0	61	104	1074266112	63	32096
2026-01-14 01:56:49.15	212.65	6.90	-46.2	-64.9	3.8	7.46e-01	0	61	104	1074266112	63	32009
2026-01-14 01:56:50.16	212.62	6.82	-46.2	-64.9	3.8	7.43e-01	0	61	104	1074266112	63	32106
2026-01-14 01:56:51.17	212.60	6.74	-46.3	-64.9	3.8	7.45e-01	0	61	104	1074266112	63	32110
2026-01-14 01:56:52.18	212.57	6.66	-46.2	-64.9	3.8	7.46e-01	0	61	104	1074266112	63	32119
2026-01-14 01:56:53.19	212.54	6.58	-46.2	-64.9	3.8	7.48e-01	0	61	104	1074266112	63	32047
2026-01-14 01:56:54.20	212.51	6.49	-46.2	-64.9	3.8	7.46e-01	0	61	104	1074266112	63	32035
2026-01-14 01:56:55.21	212.48	6.41	-46.2	-64.9	3.8	7.46e-01	0	61	104	1074266112	63	32019
2026-01-14 01:56:56.22	212.45	6.34	-46.2	-64.9	3.8	7.46e-01	0	61	104	1074266112	63	31916
2026-01-14 01:56:57.23	212.43	6.26	-46.2	-64.9	3.8	7.41e-01	0	61	104	1074266112	63	31941
2026-01-14 01:56:58.24	212.40	6.18	-46.2	-64.9	3.8	7.46e-01	0	61	104	1074266112	63	31981
2026-01-14 01:56:59.26	212.37	6.10	-46.2	-64.9	3.8	7.43e-01	0	61	104	1074266112	63	31988
2026-01-14 01:57:00.27	212.34	6.02	-46.2	-64.9	3.8	7.46e-01	0	61	104	1074266112	63	32018
2026-01-14 01:57:01.28	212.32	5.94	-46.2	-64.9	3.8	7.46e-01	0	61	104	1074266112	63	31996
2026-01-14 01:57:02.29	212.29	5.86	-46.2	-64.9	3.8	7.46e-01	0	61	104	1074266112	63	31933
2026-01-14 01:57:03.30	212.26	5.78	-46.2	-64.9	3.8	7.44e-01	0	61	104	1074266112	63	31935
2026-01-14 01:57:04.31	212.23	5.71	-46.2	-64.9	3.8	7.40e-01	0	61	104	1074266112	63	31954
2026-01-14 01:57:05.32	212.21	5.63	-46.2	-64.9	3.8	7.44e-01	0	61	104	1074266112	63	31884
2026-01-14 01:57:06.33	212.18	5.55	-46.2	-64.9	3.8	7.48e-01	0	61	104	1074266112	63	31910
2026-01-14 01:57:07.35	212.16	5.47	-46.2	-64.9	3.8	7.47e-01	0	61	104	1074266112	63	31918
2026-01-14 01:57:08.36	212.13	5.40	-46.2	-64.9	3.8	7.41e-01	0	61	104	1074266112	63	31902
2026-01-14 01:57:09.37	212.10	5.32	-46.2	-64.9	3.8	7.44e-01	0	61	104	1074266112	63	31861
2026-01-14 01:57:10.38	212.08	5.24	-46.2	-64.9	3.8	7.45e-01	0	61	104	1074266112	63	31885
2026-01-14 01:57:11.39	212.05	5.17	-46.2	-64.9	3.8	7.43e-01	0	61	104	1074266112	63	31898
2026-01-14 01:57:12.40	212.03	5.09	-46.2	-64.9	3.8	7.49e-01	0	61	104	1074266112	63	31856
2026-01-14 01:57:13.41	212.00	5.02	-46.2	-64.9	3.8	7.45e-01	0	61	104	1074266112	63	31878
2026-01-14 01:57:14.42	211.98	4.94	-46.2	-64.9	3.8	7.49e-01	0	61	104	1074266112	63	31865
2026-01-14 01:57:15.43	211.95	4.87	-46.2	-64.9	3.8	7.46e-01	0	61	104	1074266112	63	31902
2026-01-14 01:57:16.44	211.93	4.79	-46.2	-64.8	3.8	7.46e-01	0	61	104	1074266112	63	31790
2026-01-14 01:57:17.45	211.90	4.72	-46.1	-64.9	3.8	7.45e-01	0	61	104	1074266112	63	31820
2026-01-14 01:57:18.47	211.88	4.64	-46.2	-64.9	3.8	7.46e-01	0	61	104	1074266112	63	31832
2026-01-14 01:57:19.48	211.85	4.57	-46.2	-64.9	3.8	7.42e-01	0	61	104	1074266112	63	31861
2026-01-14 01:57:20.49	211.83	4.50	-46.2	-64.9	3.8	7.45e-01	0	61	104	1074266112	63	31831
2026-01-14 01:57:21.50	211.81	4.42	-46.1	-64.9	3.8	7.47e-01	0	61	104	1074266112	63	31820
2026-01-14 01:57:22.51	211.78	4.35	-46.1	-64.8	3.8	7.48e-01	0	61	104	1074266112	63	31777
2026-01-14 01:57:23.52	211.76	4.28	-46.1	-64.8	3.8	7.47e-01	0	61	104	1074266112	63	31807
2026-01-14 01:57:24.53	211.73	4.20	-46.1	-64.8	3.8	7.45e-01	0	61	104	1074266112	63	31807
2026-01-14 01:57:25.54	211.71	4.13	-46.1	-64.9	3.8	7.49e-01	0	61	104	1074266112	63	31878
2026-01-14 01:57:26.55	211.69	4.06	-46.1	-64.8	3.8	7.45e-01	0	61	104	1074266112	63	31781
2026-01-14 01:57:27.57	211.66	3.98	-46.1	-64.9	3.8	7.44e-01	0	61	104	1074266112	63	31822
2026-01-14 01:57:28.58	211.64	3.91	-46.1	-64.8	3.8	7.43e-01	0	61	104	1074266112	63	31794
2026-01-14 01:57:29.59	211.62	3.84	-46.1	-64.8	3.8	7.46e-01	0	61	104	1074266112	63	31779
2026-01-14 01:57:30.60	211.60	3.77	-46.1	-64.8	3.8	7.44e-01	0	61	104	1074266112	63	31698
2026-01-14 01:57:31.61	211.57	3.70	-46.1	-64.8	3.8	7.43e-01	0	61	104	1074266112	63	31790
2026-01-14 01:57:32.62	211.55	3.63	-46.1	-64.9	3.8	7.47e-01	0	61	104	1074266112	63	31863
2026-01-14 01:57:33.63	211.53	3.55	-46.1	-64.8	3.8	7.47e-01	0	61	104	1074266112	63	31727
2026-01-14 01:57:34.64	211.51	3.48	-46.1	-64.8	3.8	7.47e-01	0	61	104	1074266112	63	31771
2026-01-14 01:57:35.65	211.48	3.41	-46.1	-64.9	3.8	7.43e-01	0	61	104	1074266112	63	31821
2026-01-14 01:57:36.67	211.46	3.34	-46.1	-64.8	3.8	7.47e-01	0	61	104	1074266112	63	31730
2026-01-14 01:57:37.68	211.44	3.27	-46.1	-64.8	3.8	7.45e-01	0	61	104	1074266112	63	31743
2026-01-14 01:57:38.69	211.42	3.20	-46.1	-64.8	3.8	7.45e-01	0	61	104	1074266112	63	31780
2026-01-14 01:57:39.70	211.40	3.13	-46.1	-64.8	3.8	7.49e-01	0	61	104	1074266112	63	31712
2026-01-14 01:57:40.71	211.37	3.06	-46.1	-64.8	3.8	7.43e-01	0	61	104	1074266112	63	31771
2026-01-14 01:57:41.72	211.35	2.99	-46.1	-64.8	3.8	7.47e-01	0	61	104	1074266112	63	31780
2026-01-14 01:57:42.73	211.33	2.92	-46.1	-64.8	3.8	7.45e-01	0	61	104	1074266112	63	31776
2026-01-14 01:57:43.74	211.31	2.85	-46.1	-64.8	3.8	7.46e-01	0	61	104	1074266112	63	31731
2026-01-14 01:57:44.75	211.29	2.78	-46.1	-64.8	3.8	7.44e-01	0	61	104	1074266112	63	31737
