passes_logs/2026/01/14/R2.0S_Moscow/R2.0S_Moscow__20260114_000756_AQUA_rec.log

#Pass ID: 20260114_000756_AQUA
#Satellite: AQUA
#Configuration: AQUA
#almurnet v.1.7.20251203
#Start time: 2026-01-14 00:07:58

#Version: 2.2.20231116
#Station: R2.0S_Moscow
#Location: 37.707566 lon 55.798166 lat
#TLE: 1 27424U 02022A   26013.25278823  .00000890  00000+0  18808-3 0  9998
#TLE: 2 27424  98.4079 339.6508 0002047  80.3961  24.1839 14.61818714260637

#Time	Az	El	Level	Level2	SNR	BER	BlckErr	Temp	State	Recorded	gain1	gain2
2026-01-14 00:07:58.12	25.10	2.10	-39.2	-60.7	3.8	7.45e-01	0	61	0	0	50	41894
2026-01-14 00:07:59.12	25.17	2.16	-40.5	-61.9	3.8	7.48e-01	0	61	104	0	51	45065
2026-01-14 00:08:00.13	25.24	2.22	-40.9	-62.2	3.8	7.45e-01	0	61	104	0	52	44307
2026-01-14 00:08:01.14	25.31	2.28	-41.1	-62.3	3.8	7.44e-01	0	61	104	0	52	44873
2026-01-14 00:08:02.15	25.38	2.34	-41.4	-62.5	3.8	7.46e-01	0	61	104	0	53	43100
2026-01-14 00:08:03.16	25.46	2.40	-41.5	-62.5	3.8	7.45e-01	0	61	104	0	53	43188
2026-01-14 00:08:04.17	25.53	2.46	-41.6	-62.5	3.8	7.44e-01	0	61	104	0	53	43296
2026-01-14 00:08:05.18	25.60	2.52	-41.5	-62.5	3.8	7.46e-01	0	61	104	0	53	43369
2026-01-14 00:08:06.19	25.68	2.58	-41.6	-62.6	3.8	7.44e-01	0	61	104	0	53	43465
2026-01-14 00:08:07.20	25.75	2.64	-41.6	-62.5	3.8	7.44e-01	0	61	104	0	53	43140
2026-01-14 00:08:08.21	25.82	2.70	-41.5	-62.5	3.8	7.44e-01	0	61	104	0	53	43080
2026-01-14 00:08:09.22	25.90	2.76	-41.4	-62.4	3.8	7.48e-01	0	61	104	0	53	42711
2026-01-14 00:08:10.23	25.97	2.82	-41.4	-62.4	3.8	7.43e-01	0	61	104	0	53	42576
2026-01-14 00:08:11.23	26.05	2.88	-41.3	-62.4	3.8	7.50e-01	0	61	104	0	53	42770
2026-01-14 00:08:12.24	26.12	2.94	-41.4	-62.4	3.8	7.48e-01	0	61	104	0	53	42773
2026-01-14 00:08:13.25	26.20	3.00	-41.4	-62.4	3.8	7.48e-01	0	61	104	0	53	42856
2026-01-14 00:08:14.27	26.28	3.07	-41.3	-62.5	3.8	7.45e-01	0	61	104	0	53	43033
2026-01-14 00:08:15.27	26.35	3.13	-41.5	-62.5	3.8	7.48e-01	0	61	104	0	53	43147
2026-01-14 00:08:16.29	26.43	3.19	-41.4	-62.5	3.8	7.45e-01	0	61	104	0	53	43187
2026-01-14 00:08:17.30	26.51	3.25	-41.5	-62.5	3.8	7.47e-01	0	61	104	0	53	43281
2026-01-14 00:08:18.31	26.58	3.31	-41.5	-62.5	3.8	7.49e-01	0	61	104	0	53	43310
2026-01-14 00:08:19.32	26.66	3.37	-41.5	-62.5	3.8	7.46e-01	0	61	104	0	53	43201
2026-01-14 00:08:20.32	26.74	3.43	-41.5	-62.5	3.8	7.45e-01	0	61	104	0	53	43255
2026-01-14 00:08:21.34	26.82	3.50	-41.6	-62.5	3.8	7.45e-01	0	61	104	0	53	43394
2026-01-14 00:08:22.35	26.90	3.56	-41.6	-62.6	3.8	7.41e-01	0	61	104	0	53	43481
2026-01-14 00:08:23.36	26.98	3.62	-41.5	-62.6	3.8	7.45e-01	0	61	104	0	53	43493
2026-01-14 00:08:24.37	27.05	3.68	-41.6	-62.6	3.8	7.47e-01	0	61	104	0	53	43487
2026-01-14 00:08:25.38	27.13	3.74	-41.6	-62.6	3.8	7.46e-01	0	61	104	0	53	43541
2026-01-14 00:08:26.39	27.21	3.81	-41.6	-62.6	3.8	7.46e-01	0	61	104	0	53	43495
2026-01-14 00:08:27.40	27.30	3.87	-41.6	-62.6	3.8	7.45e-01	0	61	104	0	53	43517
2026-01-14 00:08:28.41	27.38	3.93	-41.6	-62.5	3.8	7.46e-01	0	61	104	0	53	43405
2026-01-14 00:08:29.42	27.46	4.00	-41.6	-62.6	3.8	7.43e-01	0	61	104	0	53	43494
2026-01-14 00:08:30.44	27.54	4.06	-41.6	-62.6	3.8	7.43e-01	0	61	104	0	53	43460
2026-01-14 00:08:31.45	27.62	4.12	-41.6	-62.6	3.8	7.44e-01	0	61	104	0	53	43508
2026-01-14 00:08:32.46	27.70	4.19	-41.6	-62.6	3.8	7.43e-01	0	61	104	0	53	43455
2026-01-14 00:08:33.47	27.79	4.25	-41.5	-62.6	3.8	7.47e-01	0	61	104	0	53	43526
2026-01-14 00:08:34.48	27.87	4.31	-41.5	-62.6	3.8	7.43e-01	0	61	104	0	53	43569
2026-01-14 00:08:35.49	27.95	4.38	-41.6	-62.6	3.8	7.44e-01	0	61	104	0	53	43469
2026-01-14 00:08:36.50	28.04	4.44	-41.6	-62.6	3.8	7.48e-01	0	61	104	0	53	43475
2026-01-14 00:08:37.51	28.12	4.50	-41.6	-62.6	3.8	7.45e-01	0	61	104	0	53	43504
2026-01-14 00:08:38.53	28.21	4.57	-41.6	-62.6	3.8	7.48e-01	0	61	104	0	53	43417
2026-01-14 00:08:39.54	28.29	4.63	-41.7	-62.6	3.8	7.45e-01	0	61	104	0	53	43532
2026-01-14 00:08:40.55	28.38	4.70	-41.6	-62.6	3.8	7.48e-01	0	61	104	0	53	43507
2026-01-14 00:08:41.56	28.46	4.76	-41.6	-62.6	3.8	7.47e-01	0	61	104	0	53	43537
2026-01-14 00:08:42.57	28.55	4.83	-41.6	-62.6	3.8	7.47e-01	0	61	104	0	53	43457
2026-01-14 00:08:43.58	28.64	4.89	-41.7	-62.6	3.8	7.46e-01	0	61	104	0	53	43435
2026-01-14 00:08:44.59	28.72	4.95	-41.7	-62.6	3.8	7.42e-01	0	61	104	0	53	43608
2026-01-14 00:08:45.60	28.81	5.02	-41.6	-62.6	3.8	7.43e-01	0	61	104	0	53	43462
2026-01-14 00:08:46.62	28.90	5.09	-41.6	-62.6	3.8	7.44e-01	0	61	104	0	53	43510
2026-01-14 00:08:47.63	28.99	5.15	-41.6	-62.6	3.8	7.44e-01	0	61	104	0	53	43495
2026-01-14 00:08:48.64	29.07	5.22	-41.5	-62.6	3.8	7.46e-01	0	61	104	0	53	43473
2026-01-14 00:08:49.65	29.16	5.28	-41.7	-62.6	3.8	7.44e-01	0	61	104	0	53	43416
2026-01-14 00:08:50.66	29.25	5.35	-41.5	-62.6	3.8	7.45e-01	0	61	104	0	53	43492
2026-01-14 00:08:51.67	29.34	5.41	-41.5	-62.6	3.8	7.45e-01	0	61	104	0	53	43451
2026-01-14 00:08:52.68	29.43	5.48	-41.7	-62.5	3.8	7.45e-01	0	61	104	0	53	43407
2026-01-14 00:08:53.69	29.52	5.54	-41.6	-62.6	3.8	7.44e-01	0	61	104	0	53	43458
2026-01-14 00:08:54.70	29.61	5.61	-41.6	-62.6	3.8	7.44e-01	0	61	104	0	53	43481
2026-01-14 00:08:55.71	29.71	5.68	-41.5	-62.6	3.8	7.44e-01	0	61	104	0	53	43444
2026-01-14 00:08:56.72	29.80	5.74	-41.6	-62.6	3.8	7.42e-01	0	61	104	0	53	43520
2026-01-14 00:08:57.73	29.89	5.81	-41.6	-62.5	3.8	7.46e-01	0	61	104	0	53	43406
2026-01-14 00:08:58.74	29.98	5.87	-41.6	-62.5	3.8	7.49e-01	0	61	104	0	53	43386
2026-01-14 00:08:59.75	30.08	5.94	-41.5	-62.5	3.8	7.45e-01	0	61	104	0	53	43374
2026-01-14 00:09:00.77	30.17	6.01	-41.6	-62.5	3.8	7.43e-01	0	61	104	0	53	43343
2026-01-14 00:09:01.78	30.27	6.08	-41.5	-62.5	3.8	7.46e-01	0	61	104	0	53	43073
2026-01-14 00:09:02.79	30.36	6.14	-41.6	-62.5	3.8	7.45e-01	0	61	104	0	53	43243
2026-01-14 00:09:03.80	30.45	6.21	-41.6	-62.5	3.8	7.46e-01	0	61	104	0	53	43393
2026-01-14 00:09:04.81	30.55	6.28	-41.6	-62.5	3.8	7.45e-01	0	61	104	0	53	43290
2026-01-14 00:09:05.82	30.65	6.35	-41.7	-62.5	3.8	7.50e-01	0	61	104	0	53	43147
2026-01-14 00:09:06.83	30.74	6.41	-41.5	-62.3	3.8	7.48e-01	0	61	104	0	53	42200
2026-01-14 00:09:07.84	30.84	6.48	-41.6	-62.2	3.8	7.42e-01	0	61	104	0	53	41851
2026-01-14 00:09:08.85	30.94	6.55	-41.6	-61.9	3.8	7.45e-01	0	61	104	0	53	40126
2026-01-14 00:09:09.86	31.03	6.62	-41.5	-61.4	3.8	7.46e-01	0	61	104	0	53	38048
2026-01-14 00:09:10.87	31.13	6.68	-41.6	-60.9	3.9	7.47e-01	0	61	104	0	53	35957
2026-01-14 00:09:11.89	31.23	6.75	-41.5	-61.2	3.8	7.43e-01	0	61	104	0	53	37174
2026-01-14 00:09:12.89	31.33	6.82	-41.5	-61.4	3.8	7.44e-01	0	61	104	0	53	37893
2026-01-14 00:09:13.90	31.43	6.89	-41.6	-61.9	3.8	7.42e-01	0	61	104	0	53	40438
2026-01-14 00:09:14.91	31.53	6.96	-41.5	-61.2	3.8	7.47e-01	0	61	104	0	53	37312
2026-01-14 00:09:15.92	31.63	7.03	-41.6	-59.9	3.9	7.46e-01	0	61	104	0	53	31872
2026-01-14 00:09:16.93	31.73	7.10	-41.6	-59.6	3.9	7.40e-01	0	61	104	0	53	30756
2026-01-14 00:09:17.94	31.83	7.17	-41.5	-61.5	3.8	7.48e-01	0	61	104	0	53	38565
2026-01-14 00:09:18.95	31.94	7.23	-41.6	-62.3	3.8	7.47e-01	0	61	104	0	53	42025
2026-01-14 00:09:19.96	32.04	7.30	-41.5	-62.5	3.8	7.41e-01	0	61	104	0	53	43128
2026-01-14 00:09:20.97	32.14	7.37	-41.6	-62.3	3.8	7.46e-01	0	61	104	0	53	42209
2026-01-14 00:09:21.99	32.25	7.44	-41.6	-62.2	3.8	7.43e-01	0	61	104	0	53	41606
2026-01-14 00:09:23.00	32.35	7.51	-41.6	-59.4	3.9	7.36e-01	0	61	104	0	53	30115
2026-01-14 00:09:24.01	32.46	7.58	-41.4	-55.7	5.7	6.89e-01	49	61	0	0	53	19787
2026-01-14 00:09:25.02	32.56	7.65	-41.1	-52.0	9.1	6.29e-01	0	61	0	1572864	53	12943
2026-01-14 00:09:26.03	32.67	7.72	-40.9	-49.7	11.6	6.07e-01	0	61	0	3670016	53	9912
2026-01-14 00:09:27.04	32.77	7.79	-40.6	-48.3	13.1	6.03e-01	0	61	0	5767168	53	8382
2026-01-14 00:09:28.05	32.88	7.87	-40.5	-47.7	13.8	6.03e-01	0	61	0	7340032	52	8279
2026-01-14 00:09:29.06	32.99	7.94	-40.4	-47.5	14.0	6.03e-01	0	61	0	9437184	52	8172
2026-01-14 00:09:30.07	33.10	8.01	-40.4	-47.1	14.4	6.04e-01	0	61	0	11534336	52	7761
2026-01-14 00:09:31.08	33.20	8.08	-43.6	-53.9	7.9	6.42e-01	76	61	0	13107200	58	12073
2026-01-14 00:09:32.09	33.31	8.15	-40.5	-61.2	3.7	7.44e-01	0	61	104	14680064	52	39558
2026-01-14 00:09:33.10	33.42	8.22	-43.4	-52.7	9.8	6.32e-01	0	61	0	14680064	57	11085
2026-01-14 00:09:34.11	33.53	8.29	-43.1	-51.5	10.0	6.16e-01	0	61	0	16777216	57	9629
2026-01-14 00:09:35.12	33.64	8.36	-41.1	-48.8	12.7	6.08e-01	0	61	0	18874368	53	8911
2026-01-14 00:09:36.14	33.76	8.44	-41.2	-46.3	15.5	6.05e-01	0	61	0	20447232	53	6700
2026-01-14 00:09:37.15	33.87	8.51	-41.2	-46.2	15.7	6.05e-01	0	61	0	22544384	53	6619
2026-01-14 00:09:38.16	33.98	8.58	-41.4	-46.4	15.6	6.04e-01	0	61	0	24117248	53	6738
2026-01-14 00:09:39.17	34.09	8.65	-41.3	-46.0	16.1	6.04e-01	0	61	0	26214400	53	6482
2026-01-14 00:09:40.18	34.21	8.72	-41.6	-46.5	15.6	6.04e-01	0	61	0	28311552	53	6847
2026-01-14 00:09:41.18	34.32	8.80	-41.5	-46.3	15.8	6.07e-01	0	61	0	29884416	53	6701
2026-01-14 00:09:42.19	34.44	8.87	-41.4	-46.2	16.0	6.02e-01	0	61	0	31981568	53	6599
2026-01-14 00:09:43.20	34.55	8.94	-41.3	-46.2	15.9	6.02e-01	0	61	0	33554432	53	6628
2026-01-14 00:09:44.21	34.67	9.01	-41.4	-46.5	15.7	6.04e-01	0	61	0	35651584	53	6832
2026-01-14 00:09:45.22	34.78	9.09	-41.5	-46.7	15.5	6.04e-01	0	61	0	37748736	53	6990
2026-01-14 00:09:46.23	34.90	9.16	-41.5	-46.5	15.7	6.04e-01	0	61	0	39321600	53	6872
2026-01-14 00:09:47.24	35.02	9.23	-41.4	-46.4	16.0	6.02e-01	0	61	0	41418752	53	6727
2026-01-14 00:09:48.25	35.14	9.31	-41.6	-46.5	15.8	6.04e-01	0	61	0	43515904	53	6868
2026-01-14 00:09:49.26	35.26	9.38	-41.6	-46.3	16.2	6.02e-01	0	61	0	45088768	53	6661
2026-01-14 00:09:50.27	35.38	9.45	-41.7	-46.2	16.3	6.05e-01	0	61	0	47185920	53	6598
2026-01-14 00:09:51.28	35.50	9.53	-41.7	-46.0	16.5	6.05e-01	0	61	0	48758784	54	6110
2026-01-14 00:09:52.29	35.62	9.60	-41.7	-46.1	16.4	6.05e-01	0	61	0	50855936	54	6182
2026-01-14 00:09:53.30	35.74	9.68	-41.7	-46.1	16.4	6.02e-01	0	61	0	52953088	54	6193
2026-01-14 00:09:54.30	35.86	9.75	-41.8	-46.3	16.3	6.04e-01	0	61	0	54525952	54	6285
2026-01-14 00:09:55.31	35.98	9.82	-41.9	-46.4	16.2	6.04e-01	0	61	0	56623104	54	6378
2026-01-14 00:09:56.32	36.11	9.90	-41.9	-46.2	16.4	6.05e-01	0	61	0	58720256	54	6250
2026-01-14 00:09:57.33	36.23	9.97	-41.9	-46.2	16.5	6.04e-01	0	61	0	60293120	54	6213
2026-01-14 00:09:58.34	36.36	10.05	-41.7	-45.8	16.9	6.04e-01	0	61	0	62390272	54	5931
2026-01-14 00:09:59.35	36.48	10.12	-41.7	-45.8	16.9	6.02e-01	0	61	0	63963136	54	5940
2026-01-14 00:10:00.36	36.61	10.20	-41.8	-45.8	16.9	6.04e-01	0	61	0	66060288	54	5957
2026-01-14 00:10:01.37	36.74	10.27	-41.9	-46.0	16.7	6.00e-01	0	61	0	68157440	54	6091
2026-01-14 00:10:02.38	36.86	10.35	-41.8	-45.8	16.9	6.04e-01	0	61	0	69730304	54	5991
2026-01-14 00:10:03.39	36.99	10.42	-41.9	-45.9	16.9	6.02e-01	0	61	0	71827456	54	6021
2026-01-14 00:10:04.40	37.12	10.50	-42.0	-46.0	16.7	6.03e-01	0	61	0	73400320	54	6119
2026-01-14 00:10:05.41	37.25	10.57	-42.0	-46.1	16.7	6.05e-01	0	61	0	75497472	54	6178
2026-01-14 00:10:06.42	37.38	10.65	-42.0	-46.1	16.6	6.04e-01	0	61	0	77594624	54	6193
2026-01-14 00:10:07.43	37.51	10.73	-41.8	-45.8	17.0	6.04e-01	0	61	0	79167488	54	5932
2026-01-14 00:10:08.44	37.64	10.80	-41.8	-45.7	17.2	6.04e-01	0	61	0	81264640	54	5864
2026-01-14 00:10:09.45	37.78	10.88	-41.9	-45.8	17.1	6.02e-01	0	61	0	82837504	54	5970
2026-01-14 00:10:10.46	37.91	10.96	-41.9	-45.8	17.1	6.03e-01	0	61	0	84934656	54	5958
2026-01-14 00:10:11.47	38.04	11.03	-42.0	-45.9	17.0	6.04e-01	0	61	0	87031808	54	6032
2026-01-14 00:10:12.48	38.18	11.11	-42.0	-46.0	17.0	6.06e-01	0	61	0	88604672	54	6072
2026-01-14 00:10:13.49	38.31	11.19	-41.9	-45.8	17.1	6.03e-01	0	61	0	90701824	54	5975
2026-01-14 00:10:14.50	38.45	11.26	-42.0	-45.8	17.1	6.02e-01	0	61	0	92274688	54	5974
2026-01-14 00:10:15.51	38.59	11.34	-41.8	-45.6	17.4	6.03e-01	0	61	0	94371840	54	5798
2026-01-14 00:10:16.52	38.72	11.42	-41.9	-45.7	17.2	6.05e-01	0	61	0	96468992	54	5880
2026-01-14 00:10:17.53	38.86	11.50	-41.9	-45.7	17.2	6.03e-01	0	61	0	98041856	54	5904
2026-01-14 00:10:18.54	39.00	11.57	-41.9	-45.8	17.2	6.03e-01	0	61	0	100139008	54	5946
2026-01-14 00:10:19.55	39.14	11.65	-41.9	-45.6	17.3	6.03e-01	0	61	0	101711872	54	5854
2026-01-14 00:10:20.56	39.28	11.73	-41.8	-45.5	17.4	6.03e-01	0	61	0	103809024	54	5779
2026-01-14 00:10:21.57	39.42	11.81	-41.8	-45.5	17.5	6.03e-01	0	61	0	105906176	54	5747
2026-01-14 00:10:22.58	39.57	11.89	-41.9	-45.5	17.5	6.02e-01	0	61	0	107479040	54	5780
2026-01-14 00:10:23.58	39.71	11.96	-41.9	-45.6	17.4	6.02e-01	0	61	0	109576192	54	5854
2026-01-14 00:10:24.60	39.85	12.04	-41.9	-45.6	17.5	6.05e-01	0	61	0	111673344	54	5793
2026-01-14 00:10:25.61	40.00	12.12	-41.8	-45.4	17.6	6.04e-01	0	61	0	113246208	54	5679
2026-01-14 00:10:26.62	40.14	12.20	-41.8	-45.4	17.6	6.05e-01	0	61	0	115343360	54	5704
2026-01-14 00:10:27.63	40.29	12.28	-41.8	-45.4	17.7	6.05e-01	0	61	0	116916224	54	5691
2026-01-14 00:10:28.64	40.44	12.36	-41.8	-45.3	17.8	6.03e-01	0	61	0	119013376	54	5637
2026-01-14 00:10:29.65	40.59	12.44	-41.7	-45.2	17.9	6.03e-01	0	61	0	121110528	54	5591
2026-01-14 00:10:30.66	40.73	12.52	-41.8	-45.3	17.8	5.99e-01	0	61	0	122683392	54	5651
2026-01-14 00:10:31.67	40.88	12.59	-41.8	-45.4	17.7	6.04e-01	0	61	0	124780544	54	5669
2026-01-14 00:10:32.67	41.03	12.67	-41.8	-45.4	17.7	6.05e-01	0	61	0	126877696	54	5669
2026-01-14 00:10:33.69	41.19	12.75	-41.8	-45.4	17.8	6.04e-01	0	61	0	128450560	54	5668
2026-01-14 00:10:34.69	41.34	12.83	-41.8	-45.4	17.8	6.03e-01	0	61	0	130547712	54	5662
2026-01-14 00:10:35.71	41.49	12.91	-41.7	-45.2	17.9	6.03e-01	0	61	0	132120576	54	5567
2026-01-14 00:10:36.72	41.65	12.99	-41.7	-45.1	18.0	6.04e-01	0	61	0	134217728	54	5483
2026-01-14 00:10:37.73	41.80	13.07	-41.7	-45.1	18.0	6.05e-01	0	61	0	136314880	54	5499
2026-01-14 00:10:38.74	41.96	13.15	-41.7	-45.1	18.0	6.04e-01	0	61	0	137887744	54	5525
2026-01-14 00:10:39.75	42.11	13.23	-41.7	-45.2	17.9	6.03e-01	0	61	0	139984896	54	5583
2026-01-14 00:10:40.75	42.27	13.31	-41.7	-45.2	18.0	6.04e-01	0	61	0	141557760	54	5576
2026-01-14 00:10:41.77	42.43	13.39	-41.8	-45.2	18.0	6.05e-01	0	61	0	143654912	54	5580
2026-01-14 00:10:42.77	42.59	13.47	-41.7	-45.2	18.0	6.05e-01	0	61	0	145752064	54	5563
2026-01-14 00:10:43.79	42.75	13.56	-41.8	-45.3	17.9	6.05e-01	0	61	0	147324928	54	5654
2026-01-14 00:10:44.80	42.91	13.64	-41.9	-45.5	17.7	6.04e-01	0	61	0	149422080	54	5755
2026-01-14 00:10:45.81	43.07	13.72	-41.9	-45.4	17.8	6.04e-01	0	61	0	150994944	54	5677
2026-01-14 00:10:46.82	43.23	13.80	-41.8	-45.2	18.1	6.01e-01	0	61	0	153092096	54	5539
2026-01-14 00:10:47.82	43.40	13.88	-41.7	-45.1	18.2	6.04e-01	0	61	0	155189248	54	5469
2026-01-14 00:10:48.83	43.56	13.96	-41.7	-45.0	18.2	6.03e-01	0	61	0	156762112	54	5458
2026-01-14 00:10:49.84	43.73	14.04	-41.7	-45.0	18.3	6.02e-01	0	61	0	158859264	54	5436
2026-01-14 00:10:50.85	43.89	14.12	-41.7	-45.1	18.2	6.02e-01	0	61	0	160432128	54	5489
2026-01-14 00:10:51.86	44.06	14.20	-41.6	-44.9	18.3	6.01e-01	0	61	0	162529280	54	5373
2026-01-14 00:10:52.87	44.23	14.29	-41.7	-45.0	18.3	6.01e-01	0	61	0	164626432	54	5408
2026-01-14 00:10:53.88	44.40	14.37	-41.6	-44.9	18.4	6.02e-01	0	61	0	166199296	54	5380
2026-01-14 00:10:54.89	44.57	14.45	-41.7	-45.0	18.3	6.02e-01	0	61	0	168296448	54	5435
2026-01-14 00:10:55.90	44.74	14.53	-41.6	-44.9	18.4	6.02e-01	0	61	0	169869312	54	5371
2026-01-14 00:10:56.91	44.91	14.61	-41.6	-44.8	18.5	6.02e-01	0	61	0	171966464	54	5309
2026-01-14 00:10:57.92	45.09	14.69	-41.6	-44.8	18.5	6.04e-01	0	61	0	174063616	54	5319
2026-01-14 00:10:58.93	45.26	14.78	-41.6	-44.8	18.5	6.03e-01	0	61	0	175636480	54	5333
2026-01-14 00:10:59.94	45.44	14.86	-41.6	-44.9	18.5	6.03e-01	0	61	0	177733632	54	5357
2026-01-14 00:11:00.95	45.61	14.94	-41.6	-44.9	18.4	6.06e-01	0	61	0	179830784	54	5384
2026-01-14 00:11:01.96	45.79	15.02	-41.6	-44.8	18.0	6.04e-01	0	61	0	181403648	54	5323
2026-01-14 00:11:02.97	45.97	15.11	-41.5	-44.7	18.6	6.04e-01	0	61	0	183500800	54	5277
2026-01-14 00:11:03.98	46.15	15.19	-41.6	-44.8	18.6	6.05e-01	0	61	0	185073664	54	5281
2026-01-14 00:11:04.99	46.33	15.27	-41.6	-44.8	18.6	6.02e-01	0	61	0	187170816	54	5296
2026-01-14 00:11:05.99	46.51	15.35	-41.6	-44.7	18.6	6.04e-01	0	61	0	189267968	54	5276
2026-01-14 00:11:07.00	46.69	15.43	-41.6	-44.8	18.6	6.04e-01	0	61	0	190840832	54	5298
2026-01-14 00:11:08.01	46.88	15.52	-41.6	-44.8	18.6	6.01e-01	0	61	0	192937984	54	5309
2026-01-14 00:11:09.02	47.06	15.60	-41.6	-44.8	18.6	6.03e-01	0	61	0	195035136	54	5320
2026-01-14 00:11:10.03	47.25	15.68	-41.6	-44.9	18.5	6.04e-01	0	61	0	196608000	54	5349
2026-01-14 00:11:11.04	47.44	15.76	-41.6	-44.8	18.6	6.04e-01	0	61	0	198705152	54	5318
2026-01-14 00:11:12.05	47.62	15.85	-41.6	-44.8	18.6	6.05e-01	0	61	0	200278016	54	5293
2026-01-14 00:11:13.06	47.81	15.93	-41.6	-44.7	18.7	6.02e-01	0	61	0	202375168	54	5261
2026-01-14 00:11:14.06	48.00	16.01	-41.5	-44.7	18.7	6.04e-01	0	61	0	204472320	54	5249
2026-01-14 00:11:15.07	48.19	16.10	-41.6	-44.7	18.7	6.06e-01	0	61	0	206045184	54	5278
2026-01-14 00:11:16.08	48.38	16.18	-41.6	-44.7	18.7	6.02e-01	0	61	0	208142336	54	5266
2026-01-14 00:11:17.09	48.58	16.26	-41.5	-44.7	18.7	6.04e-01	0	61	0	209715200	54	5241
2026-01-14 00:11:18.10	48.77	16.34	-41.5	-44.6	18.8	6.05e-01	0	61	0	211812352	54	5214
2026-01-14 00:11:19.11	48.97	16.43	-41.5	-44.6	18.8	6.06e-01	0	61	0	213909504	54	5218
2026-01-14 00:11:20.12	49.17	16.51	-41.6	-44.7	18.7	6.05e-01	0	61	0	215482368	54	5239
2026-01-14 00:11:21.13	49.36	16.59	-41.5	-44.6	18.8	6.02e-01	0	61	0	217579520	54	5214
2026-01-14 00:11:22.14	49.56	16.68	-41.5	-44.6	18.8	6.04e-01	0	61	0	219152384	54	5208
2026-01-14 00:11:23.15	49.76	16.76	-41.5	-44.7	18.8	6.03e-01	0	61	0	221249536	54	5233
2026-01-14 00:11:24.16	49.97	16.84	-41.5	-44.7	18.8	6.04e-01	0	61	0	223346688	54	5235
2026-01-14 00:11:25.17	50.17	16.93	-41.5	-44.7	18.8	6.05e-01	0	61	0	224919552	54	5234
2026-01-14 00:11:26.18	50.37	17.01	-41.5	-44.7	18.7	6.03e-01	0	61	0	227016704	54	5244
2026-01-14 00:11:27.19	50.58	17.09	-41.5	-44.7	18.8	6.04e-01	0	61	0	228589568	54	5231
2026-01-14 00:11:28.20	50.78	17.17	-41.6	-44.7	18.8	6.04e-01	0	61	0	230686720	54	5235
2026-01-14 00:11:29.21	50.99	17.26	-41.5	-44.6	18.8	6.05e-01	0	61	0	232783872	54	5189
2026-01-14 00:11:30.22	51.20	17.34	-41.5	-44.6	18.9	6.02e-01	0	61	0	234356736	54	5169
2026-01-14 00:11:31.23	51.41	17.42	-41.6	-44.7	18.8	6.03e-01	0	61	0	236453888	54	5244
2026-01-14 00:11:32.24	51.62	17.51	-41.6	-44.7	18.7	6.02e-01	0	61	0	238026752	54	5245
2026-01-14 00:11:33.25	51.83	17.59	-41.5	-44.6	18.8	6.01e-01	0	61	0	240123904	54	5205
2026-01-14 00:11:34.26	52.04	17.67	-41.5	-44.6	18.9	6.04e-01	0	61	0	242221056	54	5176
2026-01-14 00:11:35.27	52.26	17.75	-41.5	-44.6	18.9	6.03e-01	0	61	0	243793920	54	5191
2026-01-14 00:11:36.28	52.48	17.84	-41.6	-44.7	18.8	6.04e-01	0	61	0	245891072	54	5253
2026-01-14 00:11:37.29	52.69	17.92	-41.6	-44.7	18.8	6.05e-01	0	61	0	247988224	54	5237
2026-01-14 00:11:38.30	52.91	18.00	-41.5	-44.6	18.9	6.03e-01	0	61	0	249561088	54	5188
2026-01-14 00:11:39.31	53.13	18.08	-41.5	-44.6	18.9	6.06e-01	0	61	0	251658240	54	5173
2026-01-14 00:11:40.31	53.35	18.16	-41.5	-44.5	19.0	6.03e-01	0	61	0	253231104	54	5150
2026-01-14 00:11:41.32	53.57	18.25	-41.6	-44.7	18.8	6.03e-01	0	61	0	255328256	54	5230
2026-01-14 00:11:42.33	53.79	18.33	-41.5	-44.6	18.8	6.02e-01	0	61	0	257425408	54	5217
2026-01-14 00:11:43.34	54.02	18.41	-41.5	-44.7	18.8	6.04e-01	0	61	0	258998272	54	5230
2026-01-14 00:11:44.35	54.24	18.49	-41.5	-44.6	18.9	6.04e-01	0	61	0	261095424	54	5195
2026-01-14 00:11:45.36	54.47	18.57	-41.6	-44.7	18.8	6.03e-01	0	61	0	262668288	54	5245
2026-01-14 00:11:46.37	54.70	18.66	-41.6	-44.7	18.7	6.02e-01	0	61	0	264765440	54	5279
2026-01-14 00:11:47.38	54.93	18.74	-41.6	-44.7	18.8	6.05e-01	0	61	0	266862592	54	5234
2026-01-14 00:11:48.39	55.16	18.82	-41.5	-44.6	18.9	6.03e-01	0	61	0	268435456	54	5185
2026-01-14 00:11:49.40	55.39	18.90	-41.6	-44.7	18.8	6.05e-01	0	61	0	270532608	54	5222
2026-01-14 00:11:50.40	55.62	18.98	-41.5	-44.6	18.9	6.01e-01	0	61	0	272105472	54	5200
2026-01-14 00:11:51.41	55.86	19.06	-41.5	-44.6	18.9	6.05e-01	0	61	0	274202624	54	5203
2026-01-14 00:11:52.42	56.09	19.14	-41.6	-44.7	18.8	6.05e-01	0	61	0	276299776	54	5250
2026-01-14 00:11:53.43	56.33	19.22	-41.6	-44.7	18.8	6.02e-01	0	61	0	277872640	54	5259
2026-01-14 00:11:54.44	56.57	19.30	-41.6	-44.7	18.8	6.04e-01	0	61	0	279969792	54	5246
2026-01-14 00:11:55.45	56.81	19.38	-41.5	-44.6	18.9	6.03e-01	0	61	0	281542656	54	5201
2026-01-14 00:11:56.46	57.05	19.46	-41.6	-44.7	18.9	6.03e-01	0	61	0	283639808	54	5219
2026-01-14 00:11:57.47	57.29	19.54	-41.6	-44.7	18.8	6.04e-01	0	61	0	285736960	54	5270
2026-01-14 00:11:58.48	57.54	19.62	-41.6	-44.7	18.8	6.02e-01	0	61	0	287309824	54	5278
2026-01-14 00:11:59.49	57.78	19.70	-41.6	-44.7	18.8	6.01e-01	0	61	0	289406976	54	5242
2026-01-14 00:12:00.50	58.03	19.78	-41.6	-44.7	18.9	6.05e-01	0	61	0	291504128	54	5235
2026-01-14 00:12:01.51	58.28	19.86	-41.6	-44.7	18.8	6.05e-01	0	61	0	293076992	54	5273
2026-01-14 00:12:02.52	58.53	19.94	-41.7	-44.8	18.7	6.04e-01	0	61	0	295174144	54	5306
2026-01-14 00:12:03.53	58.78	20.02	-41.7	-44.8	18.7	6.03e-01	0	61	0	296747008	54	5318
2026-01-14 00:12:04.54	59.03	20.10	-41.7	-44.8	18.7	6.02e-01	0	61	0	298844160	54	5321
2026-01-14 00:12:05.55	59.28	20.17	-41.7	-44.9	18.7	6.03e-01	0	61	0	300941312	54	5360
2026-01-14 00:12:06.56	59.54	20.25	-41.7	-44.8	18.7	6.02e-01	0	61	0	302514176	54	5332
2026-01-14 00:12:07.57	59.79	20.33	-41.7	-44.8	18.7	6.04e-01	0	61	0	304611328	54	5319
2026-01-14 00:12:08.58	60.05	20.41	-41.7	-44.8	18.7	6.02e-01	0	61	0	306184192	54	5326
2026-01-14 00:12:09.59	60.31	20.48	-41.7	-44.9	18.6	6.04e-01	0	61	0	308281344	54	5377
2026-01-14 00:12:10.60	60.57	20.56	-41.8	-45.1	18.5	6.04e-01	0	61	0	310378496	54	5466
2026-01-14 00:12:11.61	60.83	20.64	-41.7	-44.8	18.7	6.02e-01	0	61	0	311951360	54	5304
2026-01-14 00:12:12.62	61.09	20.71	-41.7	-44.9	18.7	6.05e-01	0	61	0	314048512	54	5350
2026-01-14 00:12:13.63	61.35	20.79	-41.7	-44.9	18.6	6.03e-01	0	61	0	316145664	54	5351
2026-01-14 00:12:14.64	61.62	20.86	-41.7	-44.9	18.7	6.02e-01	0	61	0	317718528	54	5343
2026-01-14 00:12:15.65	61.89	20.94	-41.7	-44.8	18.7	6.05e-01	0	61	0	319815680	54	5308
2026-01-14 00:12:16.66	62.15	21.01	-41.7	-44.8	18.7	6.05e-01	0	61	0	321388544	54	5311
2026-01-14 00:12:17.67	62.42	21.09	-41.7	-44.9	18.7	6.04e-01	0	61	0	323485696	54	5344
2026-01-14 00:12:18.68	62.69	21.16	-41.7	-44.9	18.7	6.01e-01	0	61	0	325582848	54	5348
2026-01-14 00:12:19.69	62.97	21.23	-41.8	-44.9	18.6	6.01e-01	0	61	0	327155712	54	5402
2026-01-14 00:12:20.70	63.24	21.31	-41.7	-44.9	18.6	6.03e-01	0	61	0	329252864	54	5380
2026-01-14 00:12:21.71	63.51	21.38	-41.7	-44.8	18.7	6.02e-01	0	61	0	331350016	54	5327
2026-01-14 00:12:22.72	63.79	21.45	-41.7	-44.8	18.7	6.03e-01	0	61	0	332922880	54	5299
2026-01-14 00:12:23.73	64.07	21.52	-41.7	-44.9	18.6	6.04e-01	0	61	0	335020032	54	5387
2026-01-14 00:12:24.74	64.35	21.60	-41.7	-44.9	18.6	6.05e-01	0	61	0	336592896	54	5373
2026-01-14 00:12:25.75	64.63	21.67	-41.7	-44.9	18.6	6.02e-01	0	61	0	338690048	54	5370
2026-01-14 00:12:26.76	64.91	21.74	-41.8	-44.9	18.6	6.06e-01	0	61	0	340262912	54	5402
2026-01-14 00:12:27.76	65.19	21.81	-41.8	-45.0	18.5	6.04e-01	0	61	0	342360064	54	5440
2026-01-14 00:12:28.77	65.47	21.88	-41.7	-44.9	18.6	6.03e-01	0	61	0	344457216	54	5351
2026-01-14 00:12:29.78	65.76	21.94	-41.7	-44.9	18.7	6.04e-01	0	61	0	346030080	54	5343
2026-01-14 00:12:30.79	66.04	22.01	-41.8	-45.1	18.4	6.04e-01	0	61	0	348127232	54	5495
2026-01-14 00:12:31.80	66.33	22.08	-41.8	-45.1	18.4	6.04e-01	0	61	0	349700096	54	5467
2026-01-14 00:12:32.81	66.62	22.15	-41.7	-44.9	18.6	6.02e-01	0	61	0	351797248	54	5363
2026-01-14 00:12:33.82	66.91	22.22	-41.8	-45.0	18.5	6.03e-01	0	61	0	353894400	54	5460
2026-01-14 00:12:34.83	67.20	22.28	-41.9	-45.1	18.4	6.03e-01	0	61	0	355467264	54	5525
2026-01-14 00:12:35.84	67.50	22.35	-41.7	-45.0	18.5	6.04e-01	0	61	0	357564416	54	5416
2026-01-14 00:12:36.85	67.79	22.41	-41.7	-44.9	18.5	6.04e-01	0	61	0	359661568	54	5385
2026-01-14 00:12:37.86	68.09	22.48	-41.8	-45.0	18.3	6.04e-01	0	61	0	361234432	54	5457
2026-01-14 00:12:38.87	68.38	22.54	-41.8	-45.1	18.3	6.02e-01	0	61	0	363331584	54	5503
2026-01-14 00:12:39.88	68.68	22.61	-41.9	-45.3	18.1	6.01e-01	0	61	0	364904448	54	5610
2026-01-14 00:12:40.89	68.98	22.67	-41.9	-45.3	18.1	6.04e-01	0	61	0	367001600	54	5624
2026-01-14 00:12:41.90	69.28	22.73	-41.8	-45.1	18.3	6.02e-01	0	61	0	369098752	54	5503
2026-01-14 00:12:42.91	69.58	22.80	-41.8	-45.0	18.4	6.03e-01	0	61	0	370671616	54	5455
2026-01-14 00:12:43.92	69.89	22.86	-41.8	-45.2	18.2	6.03e-01	0	61	0	372768768	54	5538
2026-01-14 00:12:44.93	70.19	22.92	-41.9	-45.3	18.1	6.05e-01	0	61	0	374341632	54	5613
2026-01-14 00:12:45.94	70.50	22.98	-41.9	-45.2	18.2	6.01e-01	0	61	0	376438784	54	5570
2026-01-14 00:12:46.95	70.80	23.04	-41.9	-45.3	18.1	6.03e-01	0	61	0	378535936	54	5631
2026-01-14 00:12:47.96	71.11	23.10	-42.0	-45.4	18.0	6.03e-01	0	61	0	380108800	54	5675
2026-01-14 00:12:48.96	71.42	23.15	-41.8	-45.2	18.2	6.05e-01	0	61	0	382205952	54	5560
2026-01-14 00:12:49.97	71.73	23.21	-41.9	-45.2	18.1	6.03e-01	0	61	0	384303104	54	5589
2026-01-14 00:12:50.98	72.04	23.27	-41.9	-45.3	18.0	6.04e-01	0	61	0	385875968	54	5630
2026-01-14 00:12:51.99	72.35	23.32	-41.8	-45.2	18.1	6.03e-01	0	61	0	387973120	54	5589
2026-01-14 00:12:53.00	72.67	23.38	-41.8	-45.2	18.1	6.04e-01	0	61	0	389545984	54	5570
2026-01-14 00:12:54.01	72.98	23.43	-42.0	-45.4	17.9	6.04e-01	0	61	0	391643136	54	5706
2026-01-14 00:12:55.02	73.30	23.49	-41.9	-45.4	17.9	6.03e-01	0	61	0	393740288	54	5683
2026-01-14 00:12:56.03	73.61	23.54	-42.0	-45.4	17.9	6.04e-01	0	61	0	395313152	54	5722
2026-01-14 00:12:57.04	73.93	23.59	-42.0	-45.5	17.9	6.02e-01	0	61	0	397410304	54	5755
2026-01-14 00:12:58.05	74.25	23.64	-42.0	-45.5	17.9	6.05e-01	0	61	0	398983168	54	5737
2026-01-14 00:12:59.06	74.57	23.70	-41.9	-45.2	18.2	6.03e-01	0	61	0	401080320	54	5539
2026-01-14 00:13:00.07	74.90	23.75	-41.9	-45.3	18.2	6.04e-01	0	61	0	403177472	54	5593
2026-01-14 00:13:01.08	75.22	23.79	-42.0	-45.4	18.1	6.03e-01	0	61	0	404750336	54	5661
2026-01-14 00:13:02.09	75.54	23.84	-41.9	-45.3	18.1	6.02e-01	0	61	0	406847488	54	5645
2026-01-14 00:13:03.10	75.87	23.89	-42.0	-45.4	18.0	6.02e-01	0	61	0	408420352	54	5698
2026-01-14 00:13:04.11	76.19	23.94	-42.0	-45.4	18.0	6.04e-01	0	61	0	410517504	54	5682
2026-01-14 00:13:05.12	76.52	23.98	-41.9	-45.2	18.2	6.01e-01	0	61	0	412614656	54	5565
2026-01-14 00:13:06.13	76.85	24.03	-41.9	-45.3	18.1	6.04e-01	0	61	0	414187520	54	5634
2026-01-14 00:13:07.14	77.18	24.07	-41.9	-45.3	18.1	6.04e-01	0	61	0	416284672	54	5616
2026-01-14 00:13:08.15	77.51	24.12	-41.9	-45.2	18.2	6.04e-01	0	61	0	417857536	54	5555
2026-01-14 00:13:09.16	77.84	24.16	-41.9	-45.3	18.2	6.05e-01	0	61	0	419954688	54	5607
2026-01-14 00:13:10.17	78.17	24.20	-41.9	-45.3	18.2	6.04e-01	0	61	0	422051840	54	5597
2026-01-14 00:13:11.18	78.50	24.24	-41.9	-45.2	18.3	6.02e-01	0	61	0	423624704	54	5555
2026-01-14 00:13:12.19	78.84	24.28	-41.9	-45.2	18.3	6.03e-01	0	61	0	425721856	54	5532
2026-01-14 00:13:13.20	79.17	24.32	-41.9	-45.2	18.3	6.01e-01	0	61	0	427819008	54	5570
2026-01-14 00:13:14.21	79.50	24.36	-41.8	-45.1	18.4	6.03e-01	0	61	0	429391872	54	5495
2026-01-14 00:13:15.22	79.84	24.39	-41.8	-45.1	18.4	6.02e-01	0	61	0	431489024	54	5492
2026-01-14 00:13:16.23	80.18	24.43	-41.9	-45.2	18.2	6.01e-01	0	61	0	433061888	54	5588
2026-01-14 00:13:17.24	80.52	24.47	-42.0	-45.3	18.3	6.04e-01	0	61	0	435159040	54	5612
2026-01-14 00:13:18.25	80.85	24.50	-42.0	-45.3	18.2	6.05e-01	0	61	0	437256192	54	5620
2026-01-14 00:13:19.26	81.19	24.53	-42.0	-45.3	18.2	6.03e-01	0	61	0	438829056	54	5639
2026-01-14 00:13:20.27	81.53	24.57	-42.0	-45.3	18.2	6.02e-01	0	61	0	440926208	54	5635
2026-01-14 00:13:21.28	81.87	24.60	-42.0	-45.3	18.3	6.02e-01	0	61	0	442499072	54	5595
2026-01-14 00:13:22.29	82.21	24.63	-42.1	-45.5	18.0	6.07e-01	0	61	0	444596224	54	5744
2026-01-14 00:13:23.29	82.55	24.66	-42.1	-45.4	18.0	6.03e-01	0	61	0	446693376	54	5708
2026-01-14 00:13:24.30	82.90	24.69	-41.9	-45.1	18.4	6.03e-01	0	61	0	448266240	54	5523
2026-01-14 00:13:25.31	83.24	24.71	-41.9	-45.3	18.2	6.03e-01	0	61	0	450363392	54	5593
2026-01-14 00:13:26.32	83.58	24.74	-41.9	-45.2	18.4	6.02e-01	0	61	0	452460544	54	5543
2026-01-14 00:13:27.33	83.93	24.76	-42.0	-45.3	18.3	6.03e-01	0	61	0	454033408	54	5609
2026-01-14 00:13:28.34	84.27	24.79	-42.0	-45.3	18.2	6.03e-01	0	61	0	456130560	54	5647
2026-01-14 00:13:29.35	84.62	24.81	-42.0	-45.3	18.2	6.04e-01	0	61	0	457703424	54	5632
2026-01-14 00:13:30.36	84.96	24.84	-42.0	-45.3	18.2	6.04e-01	0	61	0	459800576	54	5619
2026-01-14 00:13:31.37	85.31	24.86	-42.0	-45.4	18.2	6.03e-01	0	61	0	461897728	54	5667
2026-01-14 00:13:32.38	85.66	24.88	-42.0	-45.3	18.2	6.04e-01	0	61	0	463470592	54	5652
2026-01-14 00:13:33.39	86.01	24.90	-42.1	-45.5	18.1	6.03e-01	0	61	0	465567744	54	5736
2026-01-14 00:13:34.40	86.35	24.91	-42.2	-45.7	17.8	6.01e-01	0	61	0	467140608	54	5900
2026-01-14 00:13:35.41	86.70	24.93	-42.1	-45.6	18.0	6.03e-01	0	61	0	469237760	55	5475
2026-01-14 00:13:36.42	87.05	24.95	-41.9	-45.2	18.4	6.05e-01	0	61	0	471334912	55	5222
2026-01-14 00:13:37.43	87.40	24.96	-41.9	-45.1	18.4	6.03e-01	0	61	0	472907776	55	5209
2026-01-14 00:13:38.44	87.75	24.98	-42.0	-45.3	18.3	6.02e-01	0	61	0	475004928	55	5293
2026-01-14 00:13:39.45	88.10	24.99	-42.0	-45.3	18.3	6.03e-01	0	61	0	476577792	55	5313
2026-01-14 00:13:40.45	88.45	25.00	-42.1	-45.5	18.0	6.03e-01	0	61	0	478674944	55	5435
2026-01-14 00:13:41.46	88.80	25.01	-42.0	-45.3	18.3	6.02e-01	0	61	0	480772096	55	5310
2026-01-14 00:13:42.48	89.15	25.02	-41.8	-45.0	18.6	6.04e-01	0	61	0	482344960	55	5131
2026-01-14 00:13:43.48	89.50	25.03	-41.9	-45.1	18.5	6.04e-01	0	61	0	484442112	55	5183
2026-01-14 00:13:44.49	89.85	25.04	-42.0	-45.3	18.3	6.03e-01	0	61	0	486014976	55	5336
2026-01-14 00:13:45.50	90.20	25.04	-42.1	-45.5	18.1	6.05e-01	0	61	0	488112128	55	5444
2026-01-14 00:13:46.51	90.55	25.05	-42.1	-45.4	18.2	6.04e-01	0	61	0	490209280	55	5379
2026-01-14 00:13:47.52	90.90	25.05	-42.0	-45.2	18.4	6.02e-01	0	61	0	491782144	55	5270
2026-01-14 00:13:48.53	91.26	25.06	-41.9	-45.1	18.5	6.04e-01	0	61	0	493879296	55	5184
2026-01-14 00:13:49.54	91.61	25.06	-42.0	-45.2	18.4	6.03e-01	0	61	0	495976448	55	5266
2026-01-14 00:13:50.55	91.96	25.06	-41.9	-45.2	18.5	6.03e-01	0	61	0	497549312	55	5232
2026-01-14 00:13:51.56	92.31	25.06	-42.0	-45.3	18.4	6.03e-01	0	61	0	499646464	55	5299
2026-01-14 00:13:52.57	92.66	25.06	-42.0	-45.2	18.4	6.03e-01	0	61	0	501219328	55	5256
2026-01-14 00:13:53.58	93.01	25.06	-42.0	-45.2	18.4	6.05e-01	0	61	0	503316480	55	5278
2026-01-14 00:13:54.59	93.37	25.05	-42.0	-45.3	18.4	6.04e-01	0	61	0	505413632	55	5295
2026-01-14 00:13:55.60	93.72	25.05	-41.9	-45.1	18.5	6.03e-01	0	61	0	506986496	55	5205
2026-01-14 00:13:56.61	94.07	25.04	-42.1	-45.3	18.3	6.05e-01	0	61	0	509083648	55	5339
2026-01-14 00:13:57.61	94.42	25.04	-42.1	-45.4	18.3	6.03e-01	0	61	0	510656512	55	5363
2026-01-14 00:13:58.62	94.77	25.03	-42.0	-45.1	18.6	6.01e-01	0	61	0	512753664	55	5218
2026-01-14 00:13:59.63	95.12	25.02	-42.0	-45.3	18.5	6.04e-01	0	61	0	514850816	55	5281
2026-01-14 00:14:00.63	95.47	25.01	-41.9	-45.1	18.6	6.02e-01	0	61	0	516423680	55	5182
2026-01-14 00:14:01.64	95.82	25.00	-41.8	-44.9	18.8	6.03e-01	0	61	0	518520832	55	5051
2026-01-14 00:14:02.65	96.17	24.99	-41.9	-45.0	18.7	6.02e-01	0	61	0	520093696	55	5120
2026-01-14 00:14:03.66	96.52	24.97	-41.9	-45.2	18.5	6.05e-01	0	61	0	522190848	55	5223
2026-01-14 00:14:04.67	96.87	24.96	-41.9	-45.1	18.6	6.03e-01	0	61	0	524288000	55	5174
2026-01-14 00:14:05.67	97.21	24.94	-42.0	-45.3	18.4	6.04e-01	0	61	0	525860864	55	5306
2026-01-14 00:14:06.68	97.56	24.93	-42.1	-45.4	18.3	6.01e-01	0	61	0	527958016	55	5398
2026-01-14 00:14:07.69	97.91	24.91	-42.0	-45.2	18.5	6.02e-01	0	61	0	529530880	55	5234
2026-01-14 00:14:08.70	98.26	24.89	-41.9	-45.0	18.7	6.02e-01	0	61	0	531628032	55	5118
2026-01-14 00:14:09.71	98.61	24.87	-41.9	-45.0	18.7	6.04e-01	0	61	0	533725184	55	5139
2026-01-14 00:14:10.72	98.96	24.85	-41.9	-45.0	18.7	6.03e-01	0	61	0	535298048	55	5136
2026-01-14 00:14:11.73	99.30	24.83	-41.9	-45.0	18.8	6.03e-01	0	61	0	537395200	55	5110
2026-01-14 00:14:12.74	99.65	24.81	-41.9	-45.1	18.7	6.02e-01	0	61	0	538968064	55	5167
2026-01-14 00:14:13.75	100.00	24.79	-42.0	-45.3	18.5	6.01e-01	0	61	0	541065216	55	5291
2026-01-14 00:14:14.75	100.34	24.76	-41.9	-45.0	18.7	6.03e-01	0	61	0	543162368	55	5156
2026-01-14 00:14:15.76	100.68	24.74	-41.8	-44.9	18.9	6.01e-01	0	61	0	544735232	55	5053
2026-01-14 00:14:16.77	101.03	24.71	-41.9	-45.0	18.8	6.05e-01	0	61	0	546832384	55	5114
2026-01-14 00:14:17.78	101.37	24.68	-41.9	-45.0	18.8	6.01e-01	0	61	0	548929536	55	5132
2026-01-14 00:14:18.79	101.71	24.65	-41.9	-45.1	18.7	6.03e-01	0	61	0	550502400	55	5190
2026-01-14 00:14:19.80	102.06	24.62	-42.0	-45.3	18.5	6.05e-01	0	61	0	552599552	55	5287
2026-01-14 00:14:20.81	102.40	24.59	-42.1	-45.4	18.4	6.04e-01	0	61	0	554172416	55	5375
2026-01-14 00:14:21.82	102.74	24.56	-42.1	-45.4	18.4	6.04e-01	0	61	0	556269568	55	5371
2026-01-14 00:14:22.83	103.08	24.53	-42.0	-45.2	18.6	6.02e-01	0	61	0	558366720	55	5263
2026-01-14 00:14:23.84	103.42	24.49	-42.0	-45.2	18.5	6.03e-01	0	61	0	559939584	55	5262
2026-01-14 00:14:24.85	103.76	24.46	-42.1	-45.4	18.4	6.05e-01	0	61	0	562036736	55	5341
2026-01-14 00:14:25.86	104.10	24.42	-42.2	-45.6	18.2	6.03e-01	0	61	0	563609600	55	5502
2026-01-14 00:14:26.87	104.43	24.39	-42.0	-45.2	18.5	6.02e-01	0	61	0	565706752	55	5275
2026-01-14 00:14:27.88	104.77	24.35	-41.8	-44.9	18.8	6.02e-01	0	61	0	567803904	55	5082
2026-01-14 00:14:28.89	105.11	24.31	-41.9	-45.0	18.8	6.01e-01	0	61	0	569376768	55	5123
2026-01-14 00:14:29.90	105.44	24.27	-41.9	-45.0	18.8	6.03e-01	0	61	0	571473920	55	5104
2026-01-14 00:14:30.91	105.78	24.23	-41.9	-45.0	18.8	6.04e-01	0	61	0	573046784	55	5105
2026-01-14 00:14:31.91	106.11	24.19	-42.0	-45.2	18.6	6.03e-01	0	61	0	575143936	55	5245
2026-01-14 00:14:32.92	106.44	24.15	-41.9	-45.1	18.7	6.03e-01	0	61	0	577241088	55	5187
2026-01-14 00:14:33.93	106.77	24.11	-41.9	-45.1	18.7	6.02e-01	0	61	0	578813952	55	5186
2026-01-14 00:14:34.94	107.10	24.06	-42.0	-45.3	18.5	6.03e-01	0	61	0	580911104	55	5286
2026-01-14 00:14:35.95	107.43	24.02	-42.1	-45.5	18.3	6.01e-01	0	61	0	582483968	55	5411
2026-01-14 00:14:36.96	107.76	23.97	-41.9	-45.0	18.7	6.05e-01	0	61	0	584581120	55	5154
2026-01-14 00:14:37.97	108.09	23.93	-41.7	-44.7	19.0	6.02e-01	0	61	0	586678272	55	4972
2026-01-14 00:14:38.98	108.41	23.88	-41.8	-44.9	18.9	6.04e-01	0	61	0	588251136	55	5075
2026-01-14 00:14:39.99	108.74	23.83	-41.9	-45.1	18.7	6.02e-01	0	61	0	590348288	55	5179
2026-01-14 00:14:41.00	109.06	23.78	-41.9	-45.1	18.7	6.04e-01	0	61	0	592445440	55	5189
2026-01-14 00:14:42.01	109.39	23.73	-41.9	-44.9	18.8	6.03e-01	0	61	0	594018304	55	5096
2026-01-14 00:14:43.02	109.71	23.68	-41.9	-45.1	18.7	6.05e-01	0	61	0	596115456	55	5162
2026-01-14 00:14:44.03	110.03	23.63	-41.8	-44.9	18.8	6.04e-01	0	61	0	597688320	55	5096
2026-01-14 00:14:45.04	110.35	23.58	-41.7	-44.7	19.1	6.04e-01	0	61	0	599785472	55	4938
2026-01-14 00:14:46.05	110.67	23.53	-41.7	-44.6	19.1	6.03e-01	0	61	0	601882624	55	4916
2026-01-14 00:14:47.05	110.99	23.48	-41.7	-44.7	19.0	6.03e-01	0	61	0	603455488	55	4960
2026-01-14 00:14:48.06	111.30	23.42	-41.8	-44.9	18.9	6.04e-01	0	61	0	605552640	55	5070
2026-01-14 00:14:49.07	111.62	23.37	-41.8	-44.9	18.8	6.03e-01	0	61	0	607125504	55	5093
2026-01-14 00:14:50.08	111.93	23.31	-41.8	-44.8	19.0	6.03e-01	0	61	0	609222656	55	5007
2026-01-14 00:14:51.09	112.25	23.25	-41.7	-44.7	19.1	6.04e-01	0	61	0	611319808	55	4938
2026-01-14 00:14:52.10	112.56	23.20	-41.8	-44.9	18.9	6.03e-01	0	61	0	612892672	55	5049
2026-01-14 00:14:53.11	112.87	23.14	-41.8	-44.8	18.9	6.04e-01	0	61	0	614989824	55	5028
2026-01-14 00:14:54.12	113.18	23.08	-41.7	-44.7	19.1	6.03e-01	0	61	0	617086976	55	4962
2026-01-14 00:14:55.13	113.49	23.02	-41.7	-44.8	19.0	6.03e-01	0	61	0	618659840	55	4987
2026-01-14 00:14:56.14	113.80	22.96	-41.9	-45.0	18.7	6.02e-01	0	61	0	620756992	55	5139
2026-01-14 00:14:57.15	114.11	22.90	-42.0	-45.2	18.6	6.04e-01	0	61	0	622329856	55	5235
2026-01-14 00:14:58.16	114.41	22.84	-41.9	-45.1	18.7	6.02e-01	0	61	0	624427008	55	5183
2026-01-14 00:14:59.17	114.71	22.78	-41.8	-44.9	18.9	6.03e-01	0	61	0	626524160	55	5073
2026-01-14 00:15:00.18	115.02	22.72	-41.8	-44.9	18.9	6.05e-01	0	61	0	628097024	55	5052
2026-01-14 00:15:01.19	115.32	22.65	-41.7	-44.7	19.0	6.05e-01	0	61	0	630194176	55	4974
2026-01-14 00:15:02.20	115.62	22.59	-41.7	-44.6	19.1	6.03e-01	0	61	0	631767040	55	4919
2026-01-14 00:15:03.21	115.92	22.52	-41.7	-44.7	19.1	6.04e-01	0	61	0	633864192	55	4952
2026-01-14 00:15:04.21	116.21	22.46	-41.8	-44.8	18.9	6.05e-01	0	61	0	635961344	55	5025
2026-01-14 00:15:05.23	116.51	22.39	-41.9	-45.0	18.8	6.02e-01	0	61	0	637534208	55	5146
2026-01-14 00:15:06.24	116.81	22.33	-42.0	-45.2	18.6	6.03e-01	0	61	0	639631360	55	5226
2026-01-14 00:15:07.25	117.10	22.26	-42.1	-45.4	18.4	6.03e-01	0	61	0	641204224	55	5350
2026-01-14 00:15:08.25	117.39	22.19	-41.9	-45.0	18.7	6.04e-01	0	61	0	643301376	55	5141
2026-01-14 00:15:09.26	117.68	22.13	-41.7	-44.7	19.0	6.05e-01	0	61	0	645398528	55	4983
2026-01-14 00:15:10.27	117.97	22.06	-41.7	-44.7	19.0	6.01e-01	0	61	0	646971392	55	4964
2026-01-14 00:15:11.28	118.26	21.99	-41.7	-44.7	19.1	6.02e-01	0	61	0	649068544	55	4942
2026-01-14 00:15:12.29	118.55	21.92	-41.7	-44.7	19.0	6.04e-01	0	61	0	650641408	55	4955
2026-01-14 00:15:13.30	118.84	21.85	-41.7	-44.8	19.0	6.03e-01	0	61	0	652738560	55	4989
2026-01-14 00:15:14.31	119.12	21.78	-41.6	-44.6	19.1	6.04e-01	0	61	0	654835712	55	4910
2026-01-14 00:15:15.32	119.41	21.71	-41.7	-44.7	19.0	6.02e-01	0	61	0	656408576	55	4935
2026-01-14 00:15:16.33	119.69	21.64	-41.7	-44.8	18.9	6.04e-01	0	61	0	658505728	55	5006
2026-01-14 00:15:17.34	119.97	21.57	-41.7	-44.8	18.9	6.06e-01	0	61	0	660602880	55	4991
2026-01-14 00:15:18.35	120.25	21.50	-41.7	-44.7	19.0	6.03e-01	0	61	0	662175744	55	4948
2026-01-14 00:15:19.36	120.53	21.42	-41.7	-44.7	19.0	6.04e-01	0	61	0	664272896	55	4963
2026-01-14 00:15:20.37	120.80	21.35	-41.8	-44.9	18.8	6.04e-01	0	61	0	665845760	55	5073
2026-01-14 00:15:21.38	121.08	21.28	-41.8	-45.0	18.7	6.02e-01	0	61	0	667942912	55	5118
2026-01-14 00:15:22.39	121.35	21.20	-41.8	-44.9	18.7	6.03e-01	0	61	0	670040064	55	5100
2026-01-14 00:15:23.40	121.63	21.13	-41.7	-44.8	18.9	6.03e-01	0	61	0	671612928	55	5031
2026-01-14 00:15:24.41	121.90	21.06	-41.7	-44.7	19.0	6.03e-01	0	61	0	673710080	55	4965
2026-01-14 00:15:25.42	122.17	20.98	-41.6	-44.6	19.1	6.04e-01	0	61	0	675282944	55	4883
2026-01-14 00:15:26.43	122.44	20.91	-41.7	-44.7	19.0	6.04e-01	0	61	0	677380096	55	4943
2026-01-14 00:15:27.44	122.70	20.83	-41.7	-44.7	19.0	6.03e-01	0	61	0	679477248	55	4947
2026-01-14 00:15:28.45	122.97	20.75	-41.7	-44.8	18.9	6.01e-01	0	61	0	681050112	55	4987
2026-01-14 00:15:29.45	123.23	20.68	-41.7	-44.8	18.9	6.04e-01	0	61	0	683147264	55	5003
2026-01-14 00:15:30.46	123.50	20.60	-41.7	-44.8	18.9	6.02e-01	0	61	0	685244416	55	5005
2026-01-14 00:15:31.47	123.76	20.52	-41.7	-44.8	18.9	6.06e-01	0	61	0	686817280	55	4996
2026-01-14 00:15:32.48	124.02	20.45	-41.7	-44.8	18.9	6.01e-01	0	61	0	688914432	55	4993
2026-01-14 00:15:33.49	124.28	20.37	-41.6	-44.6	19.0	6.04e-01	0	61	0	690487296	55	4914
2026-01-14 00:15:34.50	124.54	20.29	-41.6	-44.6	19.1	6.04e-01	0	61	0	692584448	55	4878
2026-01-14 00:15:35.51	124.79	20.21	-41.6	-44.6	19.1	6.04e-01	0	61	0	694681600	55	4885
2026-01-14 00:15:36.52	125.05	20.14	-41.5	-44.5	19.2	6.04e-01	0	61	0	696254464	55	4833
2026-01-14 00:15:37.53	125.30	20.06	-41.5	-44.4	19.2	6.05e-01	0	61	0	698351616	54	5087
2026-01-14 00:15:38.54	125.55	19.98	-41.5	-44.4	19.2	6.03e-01	0	61	0	699924480	54	5094
2026-01-14 00:15:39.55	125.81	19.90	-41.5	-44.5	19.2	6.05e-01	0	61	0	702021632	54	5120
2026-01-14 00:15:40.56	126.06	19.82	-41.6	-44.6	19.0	6.03e-01	0	61	0	704118784	54	5197
2026-01-14 00:15:41.57	126.30	19.74	-41.6	-44.6	19.0	6.03e-01	0	61	0	705691648	54	5202
2026-01-14 00:15:42.58	126.55	19.66	-41.6	-44.6	19.0	6.03e-01	0	61	0	707788800	54	5213
2026-01-14 00:15:43.59	126.80	19.58	-41.5	-44.5	19.1	6.00e-01	0	61	0	709361664	54	5118
2026-01-14 00:15:44.60	127.04	19.50	-41.5	-44.4	19.2	6.02e-01	0	61	0	711458816	54	5099
2026-01-14 00:15:45.61	127.29	19.42	-41.5	-44.6	18.7	6.06e-01	0	61	0	713555968	54	5168
2026-01-14 00:15:46.61	127.53	19.34	-41.6	-44.7	19.0	6.04e-01	0	61	0	715128832	54	5234
2026-01-14 00:15:47.62	127.77	19.26	-41.6	-44.7	18.9	6.02e-01	0	61	0	717225984	54	5231
2026-01-14 00:15:48.63	128.01	19.18	-41.6	-44.7	18.9	6.03e-01	0	61	0	718798848	54	5246
2026-01-14 00:15:49.64	128.24	19.10	-41.7	-44.7	18.9	6.01e-01	0	61	0	720896000	54	5263
2026-01-14 00:15:50.65	128.48	19.01	-41.5	-44.5	19.1	6.05e-01	0	61	0	722993152	54	5101
2026-01-14 00:15:51.66	128.72	18.93	-41.5	-44.5	19.1	6.04e-01	0	61	0	724566016	54	5118
2026-01-14 00:15:52.67	128.95	18.85	-41.5	-44.5	19.1	6.03e-01	0	61	0	726663168	54	5157
2026-01-14 00:15:53.68	129.18	18.77	-41.4	-44.5	19.0	6.03e-01	0	61	0	728760320	54	5158
2026-01-14 00:15:54.69	129.41	18.69	-41.4	-44.5	19.0	6.01e-01	0	61	0	730333184	54	5139
2026-01-14 00:15:55.70	129.64	18.61	-41.5	-44.4	19.1	6.03e-01	0	61	0	732430336	54	5097
2026-01-14 00:15:56.71	129.87	18.52	-41.5	-44.5	19.1	6.02e-01	0	61	0	734003200	54	5126
2026-01-14 00:15:57.72	130.10	18.44	-41.5	-44.6	19.0	6.03e-01	0	61	0	736100352	54	5172
2026-01-14 00:15:58.73	130.33	18.36	-41.5	-44.5	19.1	6.04e-01	0	61	0	738197504	54	5121
2026-01-14 00:15:59.74	130.55	18.28	-41.4	-44.4	19.2	6.05e-01	0	61	0	739770368	54	5056
2026-01-14 00:16:00.74	130.78	18.19	-41.4	-44.3	19.2	6.05e-01	0	61	0	741867520	54	5033
2026-01-14 00:16:01.75	131.00	18.11	-41.4	-44.4	19.1	6.02e-01	0	61	0	743440384	54	5060
2026-01-14 00:16:02.76	131.22	18.03	-41.4	-44.4	19.1	6.03e-01	0	61	0	745537536	53	5366
2026-01-14 00:16:03.77	131.44	17.94	-41.4	-44.4	19.1	6.02e-01	0	61	0	747634688	53	5344
2026-01-14 00:16:04.78	131.66	17.86	-41.4	-44.4	19.0	6.03e-01	0	61	0	749207552	53	5363
2026-01-14 00:16:05.79	131.88	17.78	-41.4	-44.4	19.0	6.05e-01	0	61	0	751304704	53	5375
2026-01-14 00:16:06.79	132.09	17.70	-41.4	-44.5	19.0	6.04e-01	0	61	0	752877568	53	5416
2026-01-14 00:16:07.80	132.31	17.61	-41.4	-44.5	18.9	6.02e-01	0	61	0	754974720	53	5440
2026-01-14 00:16:08.81	132.52	17.53	-41.3	-44.5	18.8	6.02e-01	0	61	0	757071872	53	5454
2026-01-14 00:16:09.82	132.73	17.45	-41.3	-44.4	18.9	6.04e-01	0	61	0	758644736	53	5387
2026-01-14 00:16:10.83	132.94	17.36	-41.3	-44.5	18.9	6.04e-01	0	61	0	760741888	53	5409
2026-01-14 00:16:11.84	133.15	17.28	-41.2	-44.4	18.8	6.04e-01	0	61	0	762314752	53	5364
2026-01-14 00:16:12.85	133.36	17.19	-41.2	-44.7	18.6	6.03e-01	0	61	0	764411904	52	5877
2026-01-14 00:16:13.86	133.57	17.11	-41.2	-44.5	18.7	6.02e-01	0	61	0	766509056	52	5772
2026-01-14 00:16:14.87	133.78	17.03	-41.0	-44.5	18.7	6.04e-01	0	61	0	768081920	52	5748
2026-01-14 00:16:15.88	133.98	16.94	-41.2	-44.5	18.7	6.03e-01	0	61	0	770179072	52	5760
2026-01-14 00:16:16.89	134.19	16.86	-41.1	-44.5	18.7	6.04e-01	0	61	0	771751936	52	5756
2026-01-14 00:16:17.90	134.39	16.78	-40.2	-44.5	18.5	6.04e-01	0	61	0	773849088	52	5732
2026-01-14 00:16:18.91	134.59	16.69	-40.9	-44.3	18.5	6.07e-01	0	61	0	775946240	52	5653
2026-01-14 00:16:19.92	134.80	16.61	-41.0	-44.3	18.5	6.02e-01	0	61	0	777519104	52	5646
2026-01-14 00:16:20.93	135.00	16.53	-39.9	-44.3	18.4	6.06e-01	0	61	0	779616256	52	5639
2026-01-14 00:16:21.94	135.19	16.44	-41.0	-44.4	18.7	6.02e-01	0	61	0	781713408	52	5691
2026-01-14 00:16:22.95	135.39	16.36	-41.0	-44.4	18.6	6.05e-01	0	61	0	783286272	52	5686
2026-01-14 00:16:23.96	135.59	16.27	-41.0	-44.4	18.7	6.05e-01	0	61	0	785383424	52	5714
2026-01-14 00:16:24.97	135.78	16.19	-40.6	-44.5	18.4	6.03e-01	0	61	0	786956288	52	5747
2026-01-14 00:16:25.98	135.98	16.11	-41.1	-44.6	18.4	6.02e-01	0	61	0	789053440	52	5845
2026-01-14 00:16:26.99	136.17	16.02	-41.1	-44.8	18.0	6.04e-01	0	61	0	791150592	52	5941
2026-01-14 00:16:28.00	136.36	15.94	-41.2	-44.5	16.4	6.03e-01	11	61	0	792723456	48	7256
2026-01-14 00:16:29.01	136.55	15.86	-41.3	-44.7	17.8	6.05e-01	0	61	0	794820608	53	5590
2026-01-14 00:16:30.02	136.74	15.77	-41.2	-44.5	18.0	6.02e-01	0	61	0	796393472	52	5783
2026-01-14 00:16:31.02	136.93	15.69	-41.3	-44.6	17.3	6.04e-01	1	61	0	798490624	51	6171
2026-01-14 00:16:32.04	137.12	15.61	-41.2	-44.6	17.7	6.04e-01	0	61	0	800587776	53	5521
2026-01-14 00:16:33.04	137.30	15.52	-41.3	-44.6	18.0	6.03e-01	0	61	0	802160640	53	5521
2026-01-14 00:16:34.05	137.49	15.44	-40.7	-45.1	18.2	6.05e-01	0	61	0	804257792	53	5839
2026-01-14 00:16:35.06	137.67	15.36	-41.6	-44.9	17.6	6.05e-01	0	61	0	806354944	53	5700
2026-01-14 00:16:36.07	137.86	15.27	-41.6	-44.9	18.0	6.05e-01	0	61	0	807927808	53	5713
2026-01-14 00:16:37.08	138.04	15.19	-39.6	-44.8	18.2	6.03e-01	0	61	0	810024960	53	5603
2026-01-14 00:16:38.09	138.22	15.11	-40.2	-45.0	17.9	6.05e-01	0	61	0	811597824	53	5768
2026-01-14 00:16:39.10	138.40	15.02	-40.8	-45.1	17.8	6.03e-01	0	61	0	813694976	54	5518
2026-01-14 00:16:40.11	138.58	14.94	-40.8	-44.9	18.2	6.01e-01	0	61	0	815792128	53	5671
2026-01-14 00:16:41.12	138.76	14.86	-41.5	-44.6	18.5	6.04e-01	0	61	0	817364992	53	5510
2026-01-14 00:16:42.13	138.93	14.77	-41.4	-44.4	18.7	6.04e-01	0	61	0	819462144	53	5401
2026-01-14 00:16:43.14	139.11	14.69	-41.4	-44.5	18.7	6.01e-01	0	61	0	821035008	53	5443
2026-01-14 00:16:44.15	139.28	14.61	-41.5	-44.7	18.5	6.03e-01	0	61	0	823132160	53	5568
2026-01-14 00:16:45.16	139.46	14.53	-41.6	-44.8	18.4	6.03e-01	0	61	0	825229312	53	5632
2026-01-14 00:16:46.17	139.63	14.44	-41.6	-45.0	18.3	6.01e-01	0	61	0	826802176	53	5733
2026-01-14 00:16:47.19	139.80	14.36	-41.5	-44.6	18.6	6.04e-01	0	61	0	828899328	53	5522
2026-01-14 00:16:48.19	139.97	14.28	-41.4	-44.6	18.7	6.02e-01	0	61	0	830472192	53	5473
2026-01-14 00:16:49.20	140.14	14.20	-41.5	-44.6	18.7	6.03e-01	0	61	0	832569344	53	5506
2026-01-14 00:16:50.21	140.31	14.11	-41.4	-44.5	18.7	6.05e-01	0	61	0	834666496	53	5426
2026-01-14 00:16:51.22	140.48	14.03	-41.4	-44.5	18.7	6.04e-01	0	61	0	836239360	53	5439
2026-01-14 00:16:52.23	140.65	13.95	-41.5	-44.7	18.6	6.03e-01	0	61	0	838336512	53	5545
2026-01-14 00:16:53.24	140.81	13.87	-41.6	-44.8	18.5	6.02e-01	0	61	0	839909376	53	5622
2026-01-14 00:16:54.25	140.98	13.79	-41.4	-44.9	18.3	6.04e-01	0	61	0	842006528	53	5686
2026-01-14 00:16:55.26	141.14	13.70	-41.6	-44.9	18.3	6.02e-01	0	61	0	844103680	53	5672
2026-01-14 00:16:56.27	141.31	13.62	-41.6	-44.9	18.3	6.04e-01	0	61	0	845676544	53	5696
2026-01-14 00:16:57.27	141.47	13.54	-41.5	-44.7	18.5	6.04e-01	0	61	0	847773696	53	5563
2026-01-14 00:16:58.28	141.63	13.46	-41.5	-44.7	18.6	6.03e-01	0	61	0	849870848	53	5543
2026-01-14 00:16:59.29	141.79	13.38	-41.5	-44.8	18.4	6.04e-01	0	61	0	851443712	53	5609
2026-01-14 00:17:00.30	141.95	13.30	-41.5	-44.7	18.5	6.03e-01	0	61	0	853540864	53	5570
2026-01-14 00:17:01.31	142.11	13.22	-41.5	-44.7	18.5	6.01e-01	0	61	0	855113728	53	5550
2026-01-14 00:17:02.32	142.26	13.13	-41.5	-44.8	18.4	6.04e-01	0	61	0	857210880	53	5600
2026-01-14 00:17:03.33	142.42	13.05	-41.6	-44.8	18.4	6.03e-01	0	61	0	859308032	53	5632
2026-01-14 00:17:04.34	142.58	12.97	-41.6	-44.9	18.3	6.01e-01	0	61	0	860880896	53	5673
2026-01-14 00:17:05.35	142.73	12.89	-41.5	-44.7	18.5	6.03e-01	0	61	0	862978048	53	5549
2026-01-14 00:17:06.36	142.88	12.81	-41.4	-44.6	18.5	6.01e-01	0	61	0	864550912	53	5510
2026-01-14 00:17:07.37	143.04	12.73	-41.5	-44.7	18.4	6.03e-01	0	61	0	866648064	53	5570
2026-01-14 00:17:08.38	143.19	12.65	-41.5	-44.8	18.3	6.04e-01	0	61	0	868745216	53	5618
2026-01-14 00:17:09.39	143.34	12.57	-41.6	-44.9	18.3	6.06e-01	0	61	0	870318080	53	5659
2026-01-14 00:17:10.40	143.49	12.49	-41.6	-44.8	18.3	6.02e-01	0	61	0	872415232	53	5652
2026-01-14 00:17:11.41	143.64	12.41	-41.6	-45.0	18.2	6.05e-01	0	61	0	873988096	53	5736
2026-01-14 00:17:12.42	143.79	12.33	-41.6	-45.0	18.1	6.04e-01	0	61	0	876085248	53	5742
2026-01-14 00:17:13.43	143.94	12.25	-41.7	-45.1	18.0	6.03e-01	0	61	0	878182400	53	5832
2026-01-14 00:17:14.43	144.09	12.17	-41.8	-45.4	17.8	6.05e-01	0	61	0	879755264	54	5658
2026-01-14 00:17:15.44	144.23	12.09	-41.7	-45.2	17.9	6.01e-01	0	61	0	881852416	54	5539
2026-01-14 00:17:16.45	144.38	12.01	-41.7	-45.1	17.9	6.05e-01	0	61	0	883425280	54	5507
2026-01-14 00:17:17.46	144.52	11.93	-41.7	-45.1	17.9	6.04e-01	0	61	0	885522432	54	5521
2026-01-14 00:17:18.47	144.67	11.86	-41.7	-45.1	18.0	6.03e-01	0	61	0	887619584	54	5485
2026-01-14 00:17:19.48	144.81	11.78	-41.7	-45.1	17.9	6.03e-01	0	61	0	889192448	54	5526
2026-01-14 00:17:20.49	144.95	11.70	-41.7	-45.1	17.9	6.03e-01	0	61	0	891289600	54	5508
2026-01-14 00:17:21.50	145.09	11.62	-41.7	-45.1	18.0	6.02e-01	0	61	0	892862464	54	5508
2026-01-14 00:17:22.51	145.23	11.54	-41.6	-45.0	18.0	6.04e-01	0	61	0	894959616	54	5464
2026-01-14 00:17:23.52	145.37	11.46	-41.7	-45.2	17.8	6.03e-01	0	61	0	897056768	54	5541
2026-01-14 00:17:24.53	145.51	11.38	-41.6	-45.0	17.9	6.03e-01	0	61	0	898629632	54	5462
2026-01-14 00:17:25.54	145.65	11.31	-41.7	-45.1	17.9	6.04e-01	0	61	0	900726784	54	5507
2026-01-14 00:17:26.55	145.79	11.23	-41.7	-45.2	17.8	6.03e-01	0	61	0	902823936	54	5561
2026-01-14 00:17:27.56	145.93	11.15	-41.7	-45.2	17.8	6.03e-01	0	61	0	904396800	54	5575
2026-01-14 00:17:28.57	146.06	11.07	-41.7	-45.2	17.8	6.02e-01	0	61	0	906493952	54	5542
2026-01-14 00:17:29.58	146.20	10.99	-41.7	-45.2	17.8	6.03e-01	0	61	0	908066816	54	5539
2026-01-14 00:17:30.59	146.33	10.92	-41.8	-45.3	17.6	6.03e-01	0	61	0	910163968	54	5635
2026-01-14 00:17:31.60	146.47	10.84	-41.8	-45.3	17.6	6.05e-01	0	61	0	912261120	54	5654
2026-01-14 00:17:32.61	146.60	10.76	-41.8	-45.3	17.6	6.02e-01	0	61	0	913833984	54	5645
2026-01-14 00:17:33.62	146.73	10.68	-41.8	-45.4	17.5	6.05e-01	0	61	0	915931136	54	5657
2026-01-14 00:17:34.63	146.86	10.61	-41.8	-45.4	17.5	6.03e-01	0	61	0	918028288	54	5677
2026-01-14 00:17:35.64	147.00	10.53	-41.8	-45.5	17.4	6.02e-01	0	61	0	919601152	54	5730
2026-01-14 00:17:36.65	147.13	10.45	-41.7	-45.3	17.5	6.05e-01	0	61	0	921698304	54	5635
2026-01-14 00:17:37.66	147.26	10.38	-41.7	-45.3	17.5	6.03e-01	0	61	0	923271168	54	5634
2026-01-14 00:17:38.67	147.38	10.30	-41.7	-45.3	17.6	6.04e-01	0	61	0	925368320	54	5615
2026-01-14 00:17:39.68	147.51	10.23	-41.7	-45.3	17.5	6.05e-01	0	61	0	927465472	53	5961
2026-01-14 00:17:40.69	147.64	10.15	-41.7	-45.2	17.6	6.05e-01	0	61	0	929038336	53	5923
2026-01-14 00:17:41.70	147.77	10.07	-41.7	-45.2	17.6	6.02e-01	0	61	0	931135488	53	5922
2026-01-14 00:17:42.71	147.89	10.00	-41.7	-45.3	17.5	6.03e-01	0	61	0	932708352	54	5596
2026-01-14 00:17:43.72	148.02	9.92	-41.7	-45.3	17.5	6.03e-01	0	61	0	934805504	54	5632
2026-01-14 00:17:44.73	148.14	9.85	-41.7	-45.3	17.5	6.05e-01	0	61	0	936902656	54	5656
2026-01-14 00:17:45.74	148.27	9.77	-41.8	-45.5	17.3	6.05e-01	0	61	0	938475520	54	5735
2026-01-14 00:17:46.75	148.39	9.70	-41.7	-45.4	17.4	6.01e-01	0	61	0	940572672	54	5695
2026-01-14 00:17:47.76	148.51	9.62	-41.7	-45.4	17.3	6.04e-01	0	61	0	942145536	54	5694
2026-01-14 00:17:48.77	148.64	9.55	-41.8	-45.5	17.2	6.05e-01	0	61	0	944242688	54	5777
2026-01-14 00:17:49.78	148.76	9.47	-41.8	-45.5	17.1	6.02e-01	0	61	0	946339840	54	5781
2026-01-14 00:17:50.79	148.88	9.40	-41.8	-45.5	17.2	6.02e-01	0	61	0	947912704	54	5770
2026-01-14 00:17:51.79	149.00	9.32	-41.8	-45.6	17.0	6.04e-01	0	61	0	950009856	54	5817
2026-01-14 00:17:52.80	149.12	9.25	-41.8	-45.6	17.1	6.03e-01	0	61	0	951582720	54	5833
2026-01-14 00:17:53.81	149.23	9.18	-41.8	-45.7	17.0	6.06e-01	0	61	0	953679872	54	5859
2026-01-14 00:17:54.82	149.35	9.10	-41.8	-45.7	16.9	6.04e-01	0	61	0	955777024	54	5901
2026-01-14 00:17:55.83	149.47	9.03	-41.8	-45.7	16.9	6.02e-01	0	61	0	957349888	54	5916
2026-01-14 00:17:56.84	149.59	8.95	-41.9	-45.9	16.7	6.03e-01	0	61	0	959447040	54	6026
2026-01-14 00:17:57.85	149.70	8.88	-41.9	-45.9	16.7	6.04e-01	0	61	0	961019904	54	6046
2026-01-14 00:17:58.86	149.82	8.81	-42.0	-46.0	16.6	6.04e-01	0	61	0	963117056	54	6120
2026-01-14 00:17:59.87	149.94	8.73	-41.9	-45.9	16.6	6.02e-01	0	61	0	965214208	54	6044
2026-01-14 00:18:00.88	150.05	8.66	-41.9	-46.0	16.6	6.01e-01	0	61	0	966787072	54	6103
2026-01-14 00:18:01.89	150.16	8.59	-42.0	-46.1	16.5	6.04e-01	0	61	0	968884224	54	6142
2026-01-14 00:18:02.90	150.28	8.51	-42.0	-46.2	16.3	6.06e-01	0	61	0	970981376	54	6258
2026-01-14 00:18:03.91	150.39	8.44	-42.1	-46.3	16.2	6.00e-01	0	61	0	972554240	54	6324
2026-01-14 00:18:04.92	150.50	8.37	-42.0	-46.1	16.4	6.05e-01	0	61	0	974651392	54	6174
2026-01-14 00:18:05.93	150.61	8.30	-42.0	-46.1	16.4	6.04e-01	0	61	0	976224256	54	6184
2026-01-14 00:18:06.94	150.72	8.22	-41.9	-46.1	16.4	6.04e-01	0	61	0	978321408	54	6146
2026-01-14 00:18:07.95	150.84	8.15	-42.0	-46.1	16.3	6.04e-01	0	61	0	980418560	54	6200
2026-01-14 00:18:08.96	150.94	8.08	-41.9	-46.1	16.4	6.02e-01	0	61	0	981991424	54	6150
2026-01-14 00:18:09.97	151.05	8.01	-41.9	-46.1	16.4	6.02e-01	0	61	0	984088576	54	6152
2026-01-14 00:18:10.98	151.16	7.94	-44.6	-54.8	8.7	6.46e-01	51	61	0	986185728	60	11888
2026-01-14 00:18:11.99	151.27	7.87	-45.5	-63.1	3.9	7.44e-01	0	61	104	986185728	61	29245
2026-01-14 00:18:13.00	151.38	7.79	-45.9	-64.4	3.8	7.47e-01	0	61	104	986185728	62	31820
2026-01-14 00:18:14.01	151.49	7.72	-46.1	-64.7	3.8	7.48e-01	0	61	104	986185728	62	33120
2026-01-14 00:18:15.02	151.59	7.65	-46.3	-64.9	3.8	7.47e-01	0	61	104	986185728	63	31977
2026-01-14 00:18:16.03	151.70	7.58	-46.4	-65.0	3.8	7.44e-01	0	61	104	986185728	63	32333
2026-01-14 00:18:17.04	151.80	7.51	-46.5	-65.1	3.8	7.45e-01	0	61	104	986185728	63	32696
2026-01-14 00:18:18.05	151.91	7.44	-46.5	-65.2	3.8	7.47e-01	0	61	104	986185728	63	32934
2026-01-14 00:18:19.06	152.01	7.37	-46.5	-65.2	3.8	7.47e-01	0	61	104	986185728	63	33109
2026-01-14 00:18:20.07	152.12	7.30	-46.5	-65.2	3.8	7.44e-01	0	61	104	986185728	63	33025
2026-01-14 00:18:21.08	152.22	7.23	-46.4	-65.1	3.8	7.46e-01	0	61	104	986185728	63	32851
2026-01-14 00:18:22.09	152.32	7.16	-46.4	-65.1	3.8	7.43e-01	0	61	104	986185728	63	32720
2026-01-14 00:18:23.10	152.43	7.09	-46.4	-65.1	3.8	7.48e-01	0	61	104	986185728	63	32755
2026-01-14 00:18:24.12	152.53	7.02	-46.4	-65.1	3.8	7.44e-01	0	61	104	986185728	63	32771
2026-01-14 00:18:25.13	152.63	6.95	-46.3	-65.1	3.8	7.47e-01	0	61	104	986185728	63	32578
2026-01-14 00:18:26.14	152.73	6.88	-46.3	-65.0	3.8	7.44e-01	0	61	104	986185728	63	32463
2026-01-14 00:18:27.15	152.83	6.81	-46.3	-65.0	3.8	7.46e-01	0	61	104	986185728	63	32480
2026-01-14 00:18:28.16	152.93	6.74	-46.3	-65.0	3.8	7.46e-01	0	61	104	986185728	63	32438
2026-01-14 00:18:29.17	153.03	6.67	-46.3	-65.0	3.8	7.46e-01	0	61	104	986185728	63	32454
2026-01-14 00:18:30.18	153.13	6.60	-46.3	-65.0	3.8	7.44e-01	0	61	104	986185728	63	32428
2026-01-14 00:18:31.19	153.23	6.53	-46.3	-65.0	3.8	7.46e-01	0	61	104	986185728	63	32376
2026-01-14 00:18:32.20	153.32	6.46	-46.3	-65.0	3.8	7.43e-01	0	61	104	986185728	63	32328
2026-01-14 00:18:33.22	153.42	6.39	-46.3	-65.0	3.8	7.43e-01	0	61	104	986185728	63	32311
2026-01-14 00:18:34.23	153.52	6.33	-46.3	-65.0	3.8	7.45e-01	0	61	104	986185728	63	32388
2026-01-14 00:18:35.24	153.62	6.26	-46.3	-65.0	3.8	7.47e-01	0	61	104	986185728	63	32328
2026-01-14 00:18:36.25	153.71	6.19	-46.3	-65.0	3.8	7.45e-01	0	61	104	986185728	63	32293
2026-01-14 00:18:37.26	153.81	6.12	-46.3	-65.0	3.8	7.47e-01	0	61	104	986185728	63	32319
2026-01-14 00:18:38.27	153.90	6.05	-46.3	-65.0	3.8	7.47e-01	0	61	104	986185728	63	32302
2026-01-14 00:18:39.28	154.00	5.99	-46.3	-65.0	3.8	7.45e-01	0	61	104	986185728	63	32344
2026-01-14 00:18:40.29	154.09	5.92	-46.3	-65.0	3.8	7.47e-01	0	61	104	986185728	63	32316
2026-01-14 00:18:41.30	154.18	5.85	-46.3	-65.0	3.8	7.46e-01	0	61	104	986185728	63	32328
2026-01-14 00:18:42.31	154.28	5.78	-46.2	-65.0	3.8	7.45e-01	0	61	104	986185728	63	32367
2026-01-14 00:18:43.32	154.37	5.72	-46.3	-65.0	3.8	7.45e-01	0	61	104	986185728	63	32257
2026-01-14 00:18:44.33	154.46	5.65	-46.2	-65.0	3.8	7.44e-01	0	61	104	986185728	63	32321
2026-01-14 00:18:45.34	154.55	5.58	-46.2	-65.0	3.8	7.44e-01	0	61	104	986185728	63	32282
2026-01-14 00:18:46.35	154.64	5.52	-46.2	-65.0	3.8	7.46e-01	0	61	104	986185728	63	32278
2026-01-14 00:18:47.37	154.74	5.45	-46.3	-65.0	3.8	7.45e-01	0	61	104	986185728	63	32260
2026-01-14 00:18:48.38	154.83	5.38	-46.2	-65.0	3.8	7.44e-01	0	61	104	986185728	63	32201
2026-01-14 00:18:49.39	154.92	5.32	-46.2	-65.0	3.8	7.45e-01	0	61	104	986185728	63	32266
2026-01-14 00:18:50.40	155.01	5.25	-46.2	-65.0	3.8	7.46e-01	0	61	104	986185728	63	32237
2026-01-14 00:18:51.41	155.10	5.18	-46.2	-65.0	3.8	7.44e-01	0	61	104	986185728	63	32291
2026-01-14 00:18:52.42	155.18	5.12	-46.2	-65.0	3.8	7.44e-01	0	61	104	986185728	63	32315
2026-01-14 00:18:53.43	155.27	5.05	-46.2	-65.0	3.8	7.47e-01	0	61	104	986185728	63	32264
2026-01-14 00:18:54.44	155.36	4.99	-46.2	-65.0	3.8	7.44e-01	0	61	104	986185728	63	32295
2026-01-14 00:18:55.45	155.45	4.92	-46.2	-65.0	3.8	7.45e-01	0	61	104	986185728	63	32185
2026-01-14 00:18:56.46	155.53	4.85	-46.2	-65.0	3.8	7.43e-01	0	61	104	986185728	63	32253
2026-01-14 00:18:57.48	155.62	4.79	-46.2	-65.0	3.8	7.48e-01	0	61	104	986185728	63	32197
2026-01-14 00:18:58.49	155.71	4.72	-46.2	-65.0	3.8	7.44e-01	0	61	104	986185728	63	32207
2026-01-14 00:18:59.50	155.79	4.66	-46.2	-65.0	3.8	7.45e-01	0	61	104	986185728	63	32214
2026-01-14 00:19:00.51	155.88	4.59	-46.2	-65.0	3.8	7.45e-01	0	61	104	986185728	63	32224
2026-01-14 00:19:01.52	155.96	4.53	-46.2	-65.0	3.8	7.44e-01	0	61	104	986185728	63	32191
2026-01-14 00:19:02.53	156.05	4.46	-46.2	-65.0	3.8	7.45e-01	0	61	104	986185728	63	32274
2026-01-14 00:19:03.54	156.13	4.40	-46.2	-65.0	3.8	7.44e-01	0	61	104	986185728	63	32187
2026-01-14 00:19:04.55	156.22	4.33	-46.2	-64.9	3.8	7.45e-01	0	61	104	986185728	63	32127
2026-01-14 00:19:05.57	156.30	4.27	-46.2	-65.0	3.8	7.44e-01	0	61	104	986185728	63	32189
2026-01-14 00:19:06.58	156.38	4.21	-46.2	-65.0	3.8	7.45e-01	0	61	104	986185728	63	32190
2026-01-14 00:19:07.59	156.47	4.14	-46.2	-64.9	3.8	7.48e-01	0	61	104	986185728	63	32167
2026-01-14 00:19:08.60	156.55	4.08	-46.2	-65.0	3.8	7.46e-01	0	61	104	986185728	63	32186
2026-01-14 00:19:09.61	156.63	4.01	-46.2	-65.0	3.8	7.47e-01	0	61	104	986185728	63	32212
2026-01-14 00:19:10.62	156.71	3.95	-46.2	-64.9	3.8	7.46e-01	0	61	104	986185728	63	32175
2026-01-14 00:19:11.63	156.79	3.89	-46.2	-65.0	3.8	7.42e-01	0	61	104	986185728	63	32211
2026-01-14 00:19:12.64	156.88	3.82	-46.2	-64.9	3.8	7.46e-01	0	61	104	986185728	63	32129
2026-01-14 00:19:13.66	156.96	3.76	-46.2	-65.0	3.8	7.49e-01	0	61	104	986185728	63	32211
2026-01-14 00:19:14.67	157.04	3.70	-46.2	-64.9	3.8	7.47e-01	0	61	104	986185728	63	32166
2026-01-14 00:19:15.68	157.12	3.63	-46.2	-64.9	3.8	7.46e-01	0	61	104	986185728	63	32165
2026-01-14 00:19:16.69	157.20	3.57	-46.2	-64.9	3.8	7.44e-01	0	61	104	986185728	63	32095
2026-01-14 00:19:17.70	157.27	3.51	-46.2	-64.9	3.8	7.44e-01	0	61	104	986185728	63	32129
2026-01-14 00:19:18.71	157.35	3.44	-46.2	-64.9	3.8	7.46e-01	0	61	104	986185728	63	32113
2026-01-14 00:19:19.72	157.43	3.38	-46.2	-64.9	3.8	7.47e-01	0	61	104	986185728	63	32170
2026-01-14 00:19:20.73	157.51	3.32	-46.2	-64.9	3.8	7.45e-01	0	61	104	986185728	63	32166
2026-01-14 00:19:21.74	157.59	3.26	-46.2	-64.9	3.8	7.48e-01	0	61	104	986185728	63	32162
2026-01-14 00:19:22.75	157.66	3.19	-46.2	-64.9	3.8	7.47e-01	0	61	104	986185728	63	32175
2026-01-14 00:19:23.77	157.74	3.13	-46.2	-64.9	3.8	7.46e-01	0	61	104	986185728	63	32066
2026-01-14 00:19:24.78	157.82	3.07	-46.2	-64.9	3.8	7.43e-01	0	61	104	986185728	63	32129
2026-01-14 00:19:25.79	157.90	3.01	-46.2	-64.9	3.8	7.46e-01	0	61	104	986185728	63	32169
2026-01-14 00:19:26.80	157.97	2.95	-46.2	-64.9	3.8	7.45e-01	0	61	104	986185728	63	32120
2026-01-14 00:19:27.81	158.05	2.88	-46.2	-64.9	3.8	7.48e-01	0	61	104	986185728	63	32091
2026-01-14 00:19:28.82	158.12	2.82	-46.2	-64.9	3.8	7.43e-01	0	61	104	986185728	63	32134
2026-01-14 00:19:29.83	158.20	2.76	-46.2	-64.9	3.8	7.47e-01	0	61	104	986185728	63	32141
2026-01-14 00:19:30.84	158.27	2.70	-46.2	-64.9	3.8	7.46e-01	0	61	104	986185728	63	32111
2026-01-14 00:19:31.85	158.35	2.64	-46.2	-64.9	3.8	7.47e-01	0	61	104	986185728	63	32092
2026-01-14 00:19:32.86	158.42	2.58	-46.2	-64.9	3.8	7.43e-01	0	61	104	986185728	63	32099
2026-01-14 00:19:33.87	158.49	2.52	-46.2	-64.9	3.8	7.46e-01	0	61	104	986185728	63	32156
2026-01-14 00:19:34.89	158.57	2.45	-46.2	-64.9	3.8	7.45e-01	0	61	104	986185728	63	32080
2026-01-14 00:19:35.90	158.64	2.39	-46.2	-64.9	3.8	7.47e-01	0	61	104	986185728	63	32107
2026-01-14 00:19:36.91	158.71	2.33	-46.2	-64.9	3.8	7.46e-01	0	61	104	986185728	63	32089
2026-01-14 00:19:37.92	158.79	2.27	-46.2	-64.9	3.8	7.42e-01	0	61	104	986185728	63	32168
2026-01-14 00:19:38.93	158.86	2.21	-46.2	-64.9	3.8	7.47e-01	0	61	104	986185728	63	32081
2026-01-14 00:19:39.94	158.93	2.15	-46.2	-64.9	3.8	7.45e-01	0	61	104	986185728	63	32145
