passes_logs/2026/01/14/R2.0S_Moscow/R2.0S_Moscow__20260114_111900_AQUA_rec.log

#Pass ID: 20260114_111900_AQUA
#Satellite: AQUA
#Configuration: AQUA
#almurnet v.1.7.20251203
#Start time: 2026-01-14 11:19:01

#Version: 2.2.20231116
#Station: R2.0S_Moscow
#Location: 37.707566 lon 55.798166 lat
#TLE: 1 27424U 02022A   26013.25278823  .00000890  00000+0  18808-3 0  9998
#TLE: 2 27424  98.4079 339.6508 0002047  80.3961  24.1839 14.61818714260637

#Time	Az	El	Level	Level2	SNR	BER	BlckErr	Temp	State	Recorded	gain1	gain2
2026-01-14 11:19:01.12	150.51	2.02	-44.7	-63.4	3.8	7.46e-01	0	51	0	0	60	31948
2026-01-14 11:19:02.13	150.50	2.08	-44.7	-63.4	3.8	7.41e-01	0	51	104	0	60	31949
2026-01-14 11:19:03.14	150.48	2.15	-44.7	-63.4	3.8	7.44e-01	0	51	104	0	60	31943
2026-01-14 11:19:04.15	150.46	2.22	-44.7	-63.4	3.8	7.47e-01	0	51	104	0	60	31948
2026-01-14 11:19:05.16	150.44	2.29	-44.7	-63.4	3.8	7.47e-01	0	51	104	0	60	31939
2026-01-14 11:19:06.17	150.43	2.35	-44.7	-63.4	3.8	7.46e-01	0	51	104	0	60	31992
2026-01-14 11:19:07.18	150.41	2.42	-44.7	-63.4	3.8	7.43e-01	0	51	104	0	60	31901
2026-01-14 11:19:08.19	150.39	2.49	-44.7	-63.4	3.8	7.42e-01	0	51	104	0	60	31964
2026-01-14 11:19:09.20	150.37	2.56	-44.7	-63.4	3.8	7.45e-01	0	51	104	0	60	31947
2026-01-14 11:19:10.21	150.36	2.63	-44.7	-63.4	3.8	7.45e-01	0	52	104	0	60	31960
2026-01-14 11:19:11.22	150.34	2.70	-44.7	-63.4	3.8	7.43e-01	0	52	104	0	60	31964
2026-01-14 11:19:12.23	150.32	2.76	-44.7	-63.4	3.8	7.46e-01	0	52	104	0	60	31839
2026-01-14 11:19:13.24	150.30	2.83	-44.6	-63.2	3.8	7.45e-01	0	52	104	0	60	31391
2026-01-14 11:19:14.25	150.28	2.90	-44.7	-63.3	3.8	7.44e-01	0	52	104	0	60	31466
2026-01-14 11:19:15.26	150.27	2.97	-44.7	-63.3	3.8	7.44e-01	0	52	104	0	60	31574
2026-01-14 11:19:16.27	150.25	3.04	-44.7	-63.4	3.8	7.45e-01	0	52	104	0	60	31958
2026-01-14 11:19:17.28	150.23	3.11	-44.7	-63.4	3.8	7.43e-01	0	52	104	0	60	31865
2026-01-14 11:19:18.29	150.21	3.18	-44.7	-63.4	3.8	7.45e-01	0	52	104	0	60	31899
2026-01-14 11:19:19.30	150.19	3.25	-44.7	-63.4	3.8	7.44e-01	0	52	104	0	60	31880
2026-01-14 11:19:20.31	150.17	3.32	-44.7	-63.4	3.8	7.45e-01	0	52	104	0	60	31952
2026-01-14 11:19:21.32	150.15	3.39	-44.7	-63.4	3.8	7.48e-01	0	52	104	0	60	31827
2026-01-14 11:19:22.33	150.14	3.46	-44.7	-63.3	3.8	7.47e-01	0	52	104	0	60	31800
2026-01-14 11:19:23.34	150.12	3.54	-44.7	-63.4	3.8	7.44e-01	0	52	104	0	60	31894
2026-01-14 11:19:24.35	150.10	3.61	-44.7	-63.3	3.8	7.46e-01	0	53	104	0	60	31704
2026-01-14 11:19:25.36	150.08	3.68	-44.7	-63.4	3.8	7.46e-01	0	52	104	0	60	31849
2026-01-14 11:19:26.37	150.06	3.75	-44.7	-63.3	3.8	7.48e-01	0	53	104	0	60	31683
2026-01-14 11:19:27.38	150.04	3.82	-44.4	-63.2	3.8	7.45e-01	0	53	104	0	60	31443
2026-01-14 11:19:28.39	150.02	3.89	-44.6	-63.3	3.8	7.42e-01	0	53	104	0	60	31648
2026-01-14 11:19:29.40	150.00	3.97	-44.6	-63.3	3.8	7.41e-01	0	53	104	0	60	31808
2026-01-14 11:19:30.41	149.98	4.04	-44.7	-63.3	3.8	7.46e-01	0	53	104	0	60	31732
2026-01-14 11:19:31.42	149.96	4.11	-44.7	-63.4	3.8	7.45e-01	0	53	104	0	60	31946
2026-01-14 11:19:32.44	149.94	4.18	-44.7	-63.4	3.8	7.46e-01	0	53	104	0	60	31936
2026-01-14 11:19:33.45	149.92	4.26	-44.7	-63.4	3.8	7.45e-01	0	53	104	0	60	31813
2026-01-14 11:19:34.46	149.90	4.33	-44.7	-63.4	3.8	7.43e-01	0	53	104	0	60	31850
2026-01-14 11:19:35.47	149.88	4.40	-44.7	-63.4	3.8	7.47e-01	0	53	104	0	60	31892
2026-01-14 11:19:36.48	149.86	4.48	-44.5	-63.3	3.8	7.46e-01	0	53	104	0	60	31583
2026-01-14 11:19:37.49	149.84	4.55	-44.7	-63.4	3.8	7.46e-01	0	53	104	0	60	31828
2026-01-14 11:19:38.50	149.82	4.63	-44.7	-63.4	3.8	7.47e-01	0	53	104	0	60	31850
2026-01-14 11:19:39.51	149.79	4.70	-44.7	-63.4	3.8	7.44e-01	0	53	104	0	60	31901
2026-01-14 11:19:40.52	149.77	4.78	-44.7	-63.4	3.8	7.49e-01	0	53	104	0	60	31922
2026-01-14 11:19:41.53	149.75	4.85	-44.7	-63.4	3.8	7.44e-01	0	54	104	0	60	31851
2026-01-14 11:19:42.54	149.73	4.93	-44.7	-63.4	3.8	7.43e-01	0	53	104	0	60	31849
2026-01-14 11:19:43.55	149.71	5.00	-44.7	-63.3	3.8	7.45e-01	0	54	104	0	60	31720
2026-01-14 11:19:44.56	149.69	5.08	-44.7	-63.3	3.8	7.46e-01	0	54	104	0	60	31795
2026-01-14 11:19:45.57	149.66	5.15	-44.7	-63.4	3.8	7.46e-01	0	54	104	0	60	31816
2026-01-14 11:19:46.58	149.64	5.23	-44.7	-63.3	3.8	7.45e-01	0	54	104	0	60	31518
2026-01-14 11:19:47.60	149.62	5.31	-44.7	-63.2	3.8	7.45e-01	0	54	104	0	60	31339
2026-01-14 11:19:48.61	149.60	5.38	-44.7	-63.3	3.8	7.45e-01	0	54	104	0	60	31707
2026-01-14 11:19:49.62	149.58	5.46	-44.7	-63.3	3.8	7.45e-01	0	54	104	0	60	31726
2026-01-14 11:19:50.63	149.55	5.54	-44.7	-63.3	3.8	7.48e-01	0	54	104	0	60	31484
2026-01-14 11:19:51.64	149.53	5.61	-44.7	-63.2	3.8	7.45e-01	0	54	104	0	60	31106
2026-01-14 11:19:52.65	149.51	5.69	-44.7	-63.1	3.8	7.45e-01	0	54	104	0	60	30845
2026-01-14 11:19:53.66	149.48	5.77	-44.7	-62.9	3.8	7.44e-01	0	54	104	0	60	30303
2026-01-14 11:19:54.67	149.46	5.85	-44.7	-62.6	3.8	7.46e-01	0	54	104	0	60	29284
2026-01-14 11:19:55.68	149.44	5.93	-44.7	-62.2	3.8	7.46e-01	0	54	104	0	60	27939
2026-01-14 11:19:56.69	149.41	6.00	-44.6	-61.4	3.8	7.45e-01	0	55	104	0	60	25364
2026-01-14 11:19:57.70	149.39	6.08	-44.6	-60.2	4.1	7.37e-01	0	54	104	0	60	22026
2026-01-14 11:19:58.71	149.37	6.16	-44.5	-59.8	3.9	7.39e-01	0	55	104	0	60	21204
2026-01-14 11:19:59.72	149.34	6.24	-44.6	-58.6	4.7	7.18e-01	0	54	104	0	60	18329
2026-01-14 11:20:00.73	149.32	6.32	-44.5	-57.9	4.9	7.10e-01	0	54	0	0	60	17033
2026-01-14 11:20:01.74	149.29	6.40	-44.5	-57.2	5.3	7.03e-01	0	54	0	0	60	15750
2026-01-14 11:20:02.75	149.27	6.48	-44.4	-56.7	5.6	6.89e-01	21	54	0	0	60	14867
2026-01-14 11:20:03.76	149.24	6.56	-44.4	-56.6	5.7	6.95e-01	42	55	0	1048576	60	14706
2026-01-14 11:20:04.77	149.22	6.64	-44.3	-56.7	5.6	6.90e-01	92	55	0	1572864	60	14819
2026-01-14 11:20:05.78	149.20	6.72	-44.5	-56.8	5.6	6.92e-01	0	55	0	2621440	60	14966
2026-01-14 11:20:06.79	149.17	6.81	-44.4	-58.0	4.9	7.33e-01	0	55	0	3145728	60	17125
2026-01-14 11:20:07.80	149.14	6.89	-44.5	-58.9	4.0	7.36e-01	0	55	104	3145728	60	19103
2026-01-14 11:20:08.82	149.12	6.97	-44.6	-60.1	3.9	7.40e-01	0	55	104	3145728	60	21933
2026-01-14 11:20:09.83	149.09	7.05	-44.7	-61.2	3.9	7.43e-01	0	55	104	3145728	60	24875
2026-01-14 11:20:10.84	149.07	7.13	-44.7	-62.7	3.8	7.46e-01	0	55	104	3145728	60	29481
2026-01-14 11:20:11.85	149.04	7.22	-44.7	-62.6	3.8	7.45e-01	0	55	104	3145728	60	29106
2026-01-14 11:20:12.86	149.02	7.30	-44.6	-60.0	4.0	7.36e-01	0	55	104	3145728	60	21748
2026-01-14 11:20:13.86	148.99	7.38	-44.5	-57.9	4.9	7.08e-01	0	55	104	3145728	60	16959
2026-01-14 11:20:14.88	148.96	7.47	-44.3	-55.2	6.8	6.68e-01	92	55	0	3670016	60	12475
2026-01-14 11:20:15.89	148.94	7.55	-44.4	-54.0	8.4	6.42e-01	17	55	0	5767168	59	11420
2026-01-14 11:20:16.90	148.91	7.64	-44.1	-52.3	10.2	6.20e-01	0	55	0	7864320	59	9393
2026-01-14 11:20:17.91	148.88	7.72	-43.8	-50.9	11.5	6.14e-01	0	55	0	9437184	59	8078
2026-01-14 11:20:18.92	148.85	7.80	-43.6	-50.2	12.4	6.12e-01	0	55	0	11534336	59	7377
2026-01-14 11:20:19.93	148.83	7.89	-43.3	-49.2	13.4	6.09e-01	0	55	0	13631488	58	7033
2026-01-14 11:20:20.94	148.80	7.98	-43.1	-48.7	13.9	6.09e-01	0	55	0	15204352	58	6599
2026-01-14 11:20:21.95	148.77	8.06	-43.1	-48.4	14.3	6.09e-01	0	55	0	17301504	57	6763
2026-01-14 11:20:22.96	148.74	8.15	-43.3	-49.2	13.6	6.09e-01	0	55	0	18874368	57	7423
2026-01-14 11:20:23.97	148.72	8.23	-44.9	-63.1	3.7	7.45e-01	0	55	104	20447232	60	30861
2026-01-14 11:20:24.98	148.69	8.32	-44.5	-56.4	6.4	6.80e-01	92	55	0	20971520	59	15217
2026-01-14 11:20:25.99	148.66	8.41	-44.6	-56.7	5.8	6.92e-01	83	55	0	22020096	60	14850
2026-01-14 11:20:27.00	148.63	8.50	-43.1	-48.9	13.5	6.09e-01	0	55	0	24117248	57	7137
2026-01-14 11:20:28.01	148.60	8.58	-42.9	-48.4	14.1	6.08e-01	0	55	0	25690112	57	6728
2026-01-14 11:20:29.02	148.57	8.67	-42.7	-47.6	14.8	6.06e-01	0	56	0	27787264	56	6567
2026-01-14 11:20:30.03	148.54	8.76	-42.5	-47.2	15.5	6.07e-01	0	56	0	29884416	56	6210
2026-01-14 11:20:31.04	148.51	8.85	-42.6	-47.2	15.4	6.07e-01	0	56	0	31457280	56	6222
2026-01-14 11:20:32.05	148.48	8.94	-42.4	-47.1	15.3	6.07e-01	0	56	0	33554432	56	6175
2026-01-14 11:20:33.05	148.45	9.03	-42.4	-46.9	15.0	6.09e-01	0	56	0	35127296	56	6013
2026-01-14 11:20:34.06	148.42	9.12	-42.2	-46.6	15.6	6.05e-01	0	56	0	37224448	55	6142
2026-01-14 11:20:35.07	148.39	9.21	-42.3	-46.6	15.2	6.08e-01	0	56	0	39321600	55	6186
2026-01-14 11:20:36.08	148.36	9.30	-42.1	-46.4	16.1	6.06e-01	0	56	0	40894464	55	6051
2026-01-14 11:20:37.09	148.33	9.39	-42.2	-46.4	16.2	6.06e-01	0	56	0	42991616	54	6371
2026-01-14 11:20:38.10	148.30	9.48	-42.1	-46.3	15.8	6.09e-01	0	56	0	44564480	54	6300
2026-01-14 11:20:39.11	148.27	9.57	-42.1	-46.3	16.4	6.08e-01	0	56	0	46661632	54	6289
2026-01-14 11:20:40.12	148.24	9.66	-42.0	-46.1	16.4	6.04e-01	0	56	0	48758784	54	6196
2026-01-14 11:20:41.13	148.20	9.76	-42.0	-46.2	15.2	6.06e-01	0	56	0	50331648	54	6270
2026-01-14 11:20:42.14	148.17	9.85	-40.0	-45.6	15.0	6.07e-01	2	56	0	52428800	53	6193
2026-01-14 11:20:43.15	148.14	9.94	-42.0	-46.0	16.8	6.09e-01	0	56	0	54525952	54	6104
2026-01-14 11:20:44.16	148.11	10.03	-42.1	-46.0	16.5	6.05e-01	0	56	0	56098816	54	6076
2026-01-14 11:20:45.17	148.07	10.13	-41.9	-45.8	16.3	6.06e-01	0	56	0	58195968	54	5990
2026-01-14 11:20:46.18	148.04	10.22	-41.6	-45.8	16.4	6.06e-01	0	56	0	59768832	54	5977
2026-01-14 11:20:47.19	148.01	10.32	-42.4	-46.1	15.8	6.08e-01	4	56	0	61865984	54	6197
2026-01-14 11:20:48.20	147.97	10.41	-42.0	-45.8	16.6	6.05e-01	0	56	0	63963136	54	5968
2026-01-14 11:20:49.21	147.94	10.51	-42.4	-46.2	13.8	6.08e-01	10	56	0	65536000	54	6254
2026-01-14 11:20:50.22	147.91	10.60	-42.0	-45.8	16.7	6.08e-01	0	56	0	67633152	54	5944
2026-01-14 11:20:51.23	147.87	10.70	-42.0	-45.7	16.9	6.05e-01	0	56	0	69730304	54	5894
2026-01-14 11:20:52.24	147.84	10.80	-42.1	-45.9	16.3	6.07e-01	1	56	0	71303168	54	5995
2026-01-14 11:20:53.25	147.80	10.89	-42.0	-45.8	17.0	6.08e-01	0	56	0	73400320	54	5964
2026-01-14 11:20:54.26	147.77	10.99	-42.0	-45.8	17.2	6.06e-01	0	56	0	74973184	54	5941
2026-01-14 11:20:55.27	147.73	11.09	-41.9	-45.8	17.0	6.06e-01	0	56	0	77070336	54	5952
2026-01-14 11:20:56.28	147.69	11.19	-42.1	-45.8	17.1	6.06e-01	0	56	0	79167488	54	5976
2026-01-14 11:20:57.29	147.66	11.29	-42.0	-45.8	17.0	6.05e-01	0	56	0	80740352	54	5966
2026-01-14 11:20:58.30	147.62	11.39	-42.0	-45.8	16.5	6.07e-01	0	56	0	82837504	54	5939
2026-01-14 11:20:59.31	147.59	11.49	-41.9	-45.6	16.7	6.06e-01	1	57	0	84410368	54	5814
2026-01-14 11:21:00.32	147.55	11.59	-41.5	-45.6	15.6	6.08e-01	0	57	0	86507520	54	5832
2026-01-14 11:21:01.33	147.51	11.69	-41.4	-45.9	13.5	6.13e-01	1	56	0	88604672	52	6754
2026-01-14 11:21:02.34	147.47	11.79	-41.2	-45.6	14.6	6.07e-01	0	57	0	90177536	54	5832
2026-01-14 11:21:03.34	147.44	11.89	-41.5	-45.5	15.8	6.12e-01	4	57	0	92274688	53	6097
2026-01-14 11:21:04.35	147.40	11.99	-40.8	-45.4	15.1	6.07e-01	0	57	0	93847552	53	6034
2026-01-14 11:21:05.37	147.36	12.09	-41.8	-45.5	16.2	6.06e-01	0	56	0	95944704	54	5750
2026-01-14 11:21:06.38	147.32	12.20	-39.8	-45.0	16.0	6.06e-01	7	57	0	98041856	52	6085
2026-01-14 11:21:07.39	147.28	12.30	-41.6	-45.5	16.5	6.06e-01	0	57	0	99614720	54	5747
2026-01-14 11:21:08.40	147.24	12.40	-41.8	-45.6	16.4	6.06e-01	0	57	0	101711872	54	5804
2026-01-14 11:21:09.40	147.20	12.51	-42.4	-45.9	16.9	6.06e-01	1	57	0	103284736	54	6011
2026-01-14 11:21:10.41	147.16	12.61	-41.8	-45.5	16.9	6.06e-01	0	57	0	105381888	54	5776
2026-01-14 11:21:11.42	147.12	12.72	-41.8	-45.5	17.4	6.05e-01	1	57	0	107479040	54	5760
2026-01-14 11:21:12.43	147.08	12.82	-41.9	-45.5	17.7	6.09e-01	0	57	0	109051904	54	5726
2026-01-14 11:21:13.44	147.04	12.93	-41.9	-45.4	17.7	6.05e-01	0	57	0	111149056	54	5695
2026-01-14 11:21:14.45	147.00	13.04	-41.9	-45.5	17.3	6.07e-01	0	57	0	112721920	54	5749
2026-01-14 11:21:15.46	146.96	13.14	-41.9	-45.5	17.3	6.05e-01	0	57	0	114819072	54	5738
2026-01-14 11:21:16.47	146.92	13.25	-42.0	-45.5	14.8	6.12e-01	2	57	0	116916224	54	5783
2026-01-14 11:21:17.48	146.87	13.36	-40.7	-45.4	17.4	6.09e-01	0	57	0	118489088	52	6381
2026-01-14 11:21:18.49	146.83	13.47	-42.0	-45.5	17.5	6.06e-01	0	57	0	120586240	54	5787
2026-01-14 11:21:19.49	146.79	13.58	-42.0	-45.6	17.5	6.05e-01	0	57	0	122683392	54	5835
2026-01-14 11:21:20.50	146.75	13.69	-42.0	-45.6	17.5	6.07e-01	0	57	0	124256256	54	5833
2026-01-14 11:21:21.52	146.70	13.80	-42.1	-45.7	17.3	6.06e-01	0	57	0	126353408	54	5865
2026-01-14 11:21:22.53	146.66	13.91	-41.9	-45.6	17.3	6.07e-01	0	57	0	127926272	54	5843
2026-01-14 11:21:23.53	146.61	14.02	-42.0	-45.6	16.9	6.04e-01	0	57	0	130023424	54	5823
2026-01-14 11:21:24.54	146.57	14.13	-42.0	-45.6	16.8	6.09e-01	0	57	0	132120576	54	5802
2026-01-14 11:21:25.55	146.52	14.25	-42.1	-45.6	17.7	6.06e-01	0	57	0	133693440	54	5824
2026-01-14 11:21:26.56	146.48	14.36	-42.0	-45.6	17.4	6.06e-01	0	57	0	135790592	54	5793
2026-01-14 11:21:27.57	146.43	14.47	-42.1	-45.6	17.7	6.05e-01	0	57	0	137363456	54	5820
2026-01-14 11:21:28.58	146.38	14.59	-42.0	-45.5	17.8	6.06e-01	0	57	0	139460608	54	5754
2026-01-14 11:21:29.60	146.34	14.70	-35.9	-44.7	9.8	6.40e-01	86	57	0	141557760	44	9321
2026-01-14 11:21:30.61	146.29	14.82	-41.2	-45.2	10.8	6.23e-01	39	57	0	143130624	52	6228
2026-01-14 11:21:31.62	146.24	14.93	-37.9	-44.9	9.3	6.37e-01	89	58	0	145227776	43	10062
2026-01-14 11:21:32.63	146.19	15.05	-41.9	-45.3	18.0	6.07e-01	0	57	0	146800640	54	5618
2026-01-14 11:21:33.64	146.15	15.17	-39.1	-45.3	17.1	6.08e-01	0	57	0	148897792	54	5596
2026-01-14 11:21:34.65	146.10	15.29	-41.2	-45.1	17.2	6.05e-01	0	57	0	150470656	52	6173
2026-01-14 11:21:35.65	146.05	15.40	-38.9	-45.2	13.6	6.13e-01	1	57	0	152567808	49	7405
2026-01-14 11:21:36.66	146.00	15.52	-41.9	-45.2	18.2	6.07e-01	0	57	0	154664960	54	5529
2026-01-14 11:21:37.67	145.95	15.64	-41.8	-45.1	18.2	6.07e-01	0	57	0	156237824	54	5498
2026-01-14 11:21:38.68	145.90	15.76	-41.7	-45.0	18.3	6.06e-01	0	57	0	158334976	54	5436
2026-01-14 11:21:39.69	145.85	15.88	-41.7	-45.0	18.4	6.07e-01	0	57	0	160432128	54	5419
2026-01-14 11:21:40.70	145.79	16.01	-41.5	-44.9	17.9	6.09e-01	0	57	0	162004992	53	5682
2026-01-14 11:21:41.71	145.74	16.13	-39.3	-44.7	17.2	6.06e-01	0	57	0	164102144	52	5893
2026-01-14 11:21:42.72	145.69	16.25	-41.6	-44.7	18.0	6.08e-01	0	57	0	165675008	53	5576
2026-01-14 11:21:43.73	145.64	16.38	-41.6	-44.8	18.7	6.07e-01	0	57	0	167772160	53	5596
2026-01-14 11:21:44.74	145.58	16.50	-41.6	-44.7	18.5	6.07e-01	0	58	0	169869312	53	5556
2026-01-14 11:21:45.75	145.53	16.63	-41.5	-44.7	15.6	6.06e-01	0	58	0	171442176	53	5569
2026-01-14 11:21:46.76	145.47	16.75	-41.6	-44.7	18.6	6.07e-01	0	58	0	173539328	53	5566
2026-01-14 11:21:47.77	145.42	16.88	-39.3	-45.0	15.1	6.07e-01	0	57	0	175112192	52	6073
2026-01-14 11:21:48.77	145.36	17.00	-41.8	-44.9	18.5	6.08e-01	0	58	0	177209344	54	5397
2026-01-14 11:21:49.79	145.31	17.13	-41.8	-45.0	17.8	6.06e-01	0	58	0	179306496	54	5433
2026-01-14 11:21:50.80	145.25	17.26	-41.5	-45.1	14.5	6.07e-01	1	57	0	180879360	54	5476
2026-01-14 11:21:51.81	145.19	17.39	-39.1	-44.6	14.7	6.20e-01	28	58	0	182976512	48	7288
2026-01-14 11:21:52.82	145.13	17.52	-41.9	-45.2	18.1	6.07e-01	0	58	0	184549376	54	5587
2026-01-14 11:21:53.83	145.08	17.65	-42.0	-45.3	18.1	6.07e-01	0	58	0	186646528	54	5595
2026-01-14 11:21:54.84	145.02	17.78	-42.0	-45.3	18.2	6.07e-01	0	58	0	188743680	54	5611
2026-01-14 11:21:55.85	144.96	17.91	-42.0	-45.3	18.1	6.08e-01	0	58	0	190316544	54	5619
2026-01-14 11:21:56.86	144.90	18.05	-42.0	-45.3	17.8	6.07e-01	0	58	0	192413696	54	5628
2026-01-14 11:21:57.87	144.84	18.18	-42.0	-45.4	17.1	6.07e-01	0	58	0	193986560	54	5672
2026-01-14 11:21:58.87	144.78	18.31	-42.0	-45.3	15.1	6.08e-01	5	58	0	196083712	54	5639
2026-01-14 11:21:59.88	144.71	18.45	-42.0	-45.4	16.0	6.11e-01	4	58	0	198180864	54	5667
2026-01-14 11:22:00.89	144.65	18.59	-42.0	-45.4	17.9	6.06e-01	0	58	0	199753728	54	5664
2026-01-14 11:22:01.90	144.59	18.72	-42.0	-45.4	18.0	6.07e-01	0	58	0	201850880	54	5684
2026-01-14 11:22:02.91	144.53	18.86	-42.1	-45.4	18.0	6.05e-01	0	58	0	203423744	54	5685
2026-01-14 11:22:03.92	144.46	19.00	-42.0	-45.3	18.0	6.06e-01	0	58	0	205520896	54	5642
2026-01-14 11:22:04.93	144.40	19.14	-40.6	-44.9	17.0	6.08e-01	1	58	0	207618048	53	5715
2026-01-14 11:22:05.94	144.33	19.28	-41.5	-45.2	17.7	6.08e-01	0	58	0	209190912	54	5582
2026-01-14 11:22:06.95	144.26	19.42	-41.9	-45.2	18.4	6.06e-01	0	58	0	211288064	54	5558
2026-01-14 11:22:07.96	144.20	19.56	-41.9	-45.2	18.3	6.07e-01	0	58	0	213385216	54	5536
2026-01-14 11:22:08.97	144.13	19.70	-41.9	-45.3	18.2	6.04e-01	0	58	0	214958080	54	5608
2026-01-14 11:22:09.98	144.06	19.85	-42.0	-45.2	17.8	6.06e-01	0	58	0	217055232	54	5592
2026-01-14 11:22:10.99	143.99	19.99	-40.7	-45.0	15.5	6.10e-01	9	58	0	218628096	53	5734
2026-01-14 11:22:12.00	143.92	20.14	-42.1	-45.4	18.1	6.07e-01	0	58	0	220725248	54	5658
2026-01-14 11:22:13.01	143.85	20.28	-42.1	-45.4	18.1	6.05e-01	0	58	0	222822400	54	5705
2026-01-14 11:22:14.02	143.78	20.43	-41.8	-45.5	17.5	6.08e-01	0	58	0	224395264	54	5756
2026-01-14 11:22:15.03	143.71	20.58	-42.2	-45.5	18.1	6.06e-01	0	58	0	226492416	54	5775
2026-01-14 11:22:16.04	143.64	20.73	-42.2	-45.6	16.0	6.07e-01	0	58	0	228589568	53	6139
2026-01-14 11:22:17.05	143.56	20.88	-42.2	-45.5	18.0	6.06e-01	0	58	0	230162432	54	5786
2026-01-14 11:22:18.06	143.49	21.03	-42.3	-45.6	16.7	6.06e-01	2	58	0	232259584	54	5798
2026-01-14 11:22:19.07	143.41	21.18	-42.3	-45.8	17.6	6.08e-01	0	58	0	233832448	55	5593
2026-01-14 11:22:20.08	143.34	21.33	-42.3	-45.8	17.7	6.04e-01	0	58	0	235929600	55	5627
2026-01-14 11:22:21.09	143.26	21.48	-42.1	-45.9	17.6	6.08e-01	0	58	0	238026752	55	5662
2026-01-14 11:22:22.10	143.18	21.64	-42.2	-45.7	17.3	6.06e-01	0	58	0	239599616	55	5589
2026-01-14 11:22:23.11	143.10	21.79	-42.3	-45.6	17.8	6.06e-01	0	58	0	241696768	55	5515
2026-01-14 11:22:24.12	143.02	21.95	-41.9	-45.6	17.2	6.06e-01	0	58	0	243269632	54	5801
2026-01-14 11:22:25.13	142.94	22.11	-42.2	-45.5	18.1	6.06e-01	0	58	0	245366784	55	5412
2026-01-14 11:22:26.14	142.86	22.27	-42.2	-45.4	17.6	6.06e-01	0	58	0	247463936	54	5701
2026-01-14 11:22:27.15	142.78	22.43	-42.1	-45.4	18.3	6.06e-01	0	58	0	249036800	54	5672
2026-01-14 11:22:28.16	142.70	22.59	-41.5	-45.4	18.1	6.06e-01	0	58	0	251133952	54	5658
2026-01-14 11:22:29.17	142.61	22.75	-42.1	-45.4	18.0	6.05e-01	0	58	0	252706816	54	5720
2026-01-14 11:22:30.18	142.53	22.91	-41.8	-45.5	18.2	6.07e-01	0	58	0	254803968	54	5735
2026-01-14 11:22:31.19	142.44	23.07	-42.2	-45.6	18.1	6.07e-01	0	58	0	256901120	55	5474
2026-01-14 11:22:32.20	142.36	23.24	-42.4	-45.8	18.0	6.06e-01	0	58	0	258473984	55	5595
2026-01-14 11:22:33.21	142.27	23.40	-42.4	-45.8	17.9	6.05e-01	0	58	0	260571136	55	5640
2026-01-14 11:22:34.22	142.18	23.57	-42.5	-45.9	17.8	6.07e-01	0	58	0	262144000	55	5698
2026-01-14 11:22:35.23	142.09	23.74	-42.4	-45.9	17.5	6.07e-01	0	58	0	264241152	55	5684
2026-01-14 11:22:36.24	142.00	23.91	-42.4	-45.8	17.9	6.07e-01	0	58	0	266338304	55	5637
2026-01-14 11:22:37.25	141.91	24.08	-42.4	-45.7	17.9	6.06e-01	0	58	0	267911168	55	5589
2026-01-14 11:22:38.26	141.82	24.25	-42.3	-45.7	18.1	6.06e-01	0	58	0	270008320	55	5544
2026-01-14 11:22:39.27	141.72	24.42	-42.2	-45.6	17.7	6.07e-01	0	58	0	271581184	55	5466
2026-01-14 11:22:40.28	141.63	24.60	-42.2	-45.5	18.3	6.06e-01	0	58	0	273678336	55	5460
2026-01-14 11:22:41.28	141.53	24.77	-42.2	-45.5	18.4	6.05e-01	0	58	0	275775488	55	5416
2026-01-14 11:22:42.30	141.43	24.95	-42.2	-45.5	18.3	6.06e-01	0	58	0	277348352	55	5451
2026-01-14 11:22:43.31	141.33	25.12	-42.2	-45.4	18.4	6.07e-01	0	58	0	279445504	55	5383
2026-01-14 11:22:44.32	141.23	25.30	-42.2	-45.4	18.4	6.07e-01	0	58	0	281542656	55	5378
2026-01-14 11:22:45.33	141.13	25.48	-42.2	-45.5	18.4	6.08e-01	0	59	0	283115520	55	5412
2026-01-14 11:22:46.34	141.03	25.66	-42.3	-45.5	18.3	6.04e-01	0	58	0	285212672	55	5449
2026-01-14 11:22:47.35	140.93	25.85	-42.3	-45.6	18.3	6.05e-01	0	58	0	286785536	55	5479
2026-01-14 11:22:48.36	140.82	26.03	-42.3	-45.6	18.2	6.11e-01	0	58	0	288882688	55	5519
2026-01-14 11:22:49.37	140.72	26.21	-42.4	-45.7	18.2	6.05e-01	0	58	0	290979840	55	5555
2026-01-14 11:22:50.37	140.61	26.40	-42.4	-45.7	18.1	6.07e-01	0	59	0	292552704	55	5590
2026-01-14 11:22:51.38	140.50	26.58	-42.3	-45.7	18.2	6.07e-01	0	58	0	294649856	55	5540
2026-01-14 11:22:52.39	140.39	26.77	-42.3	-45.6	18.2	6.07e-01	0	58	0	296747008	55	5499
2026-01-14 11:22:53.40	140.28	26.96	-42.2	-45.5	18.4	6.07e-01	0	58	0	298319872	55	5406
2026-01-14 11:22:54.41	140.17	27.15	-42.1	-45.3	18.6	6.05e-01	0	58	0	300417024	55	5302
2026-01-14 11:22:55.42	140.05	27.35	-42.0	-45.2	18.8	6.07e-01	0	58	0	301989888	55	5229
2026-01-14 11:22:56.43	139.94	27.54	-42.0	-45.1	18.8	6.07e-01	0	58	0	304087040	55	5171
2026-01-14 11:22:57.44	139.82	27.73	-42.0	-45.1	18.8	6.05e-01	0	58	0	306184192	55	5177
2026-01-14 11:22:58.45	139.70	27.93	-42.1	-45.2	18.7	6.05e-01	0	59	0	307757056	55	5248
2026-01-14 11:22:59.46	139.58	28.13	-42.2	-45.3	18.6	6.08e-01	0	58	0	309854208	55	5330
2026-01-14 11:23:00.47	139.46	28.33	-42.2	-45.4	18.6	6.05e-01	0	59	0	311427072	55	5352
2026-01-14 11:23:01.48	139.33	28.53	-42.1	-45.2	18.7	6.06e-01	0	59	0	313524224	55	5248
2026-01-14 11:23:02.49	139.21	28.73	-41.9	-45.0	19.0	6.08e-01	0	59	0	315621376	55	5112
2026-01-14 11:23:03.50	139.08	28.93	-41.8	-44.7	19.2	6.07e-01	0	58	0	317194240	55	4977
2026-01-14 11:23:04.51	138.95	29.14	-41.8	-44.7	19.2	6.06e-01	0	58	0	319291392	55	4937
2026-01-14 11:23:05.52	138.82	29.34	-41.8	-44.7	19.3	6.06e-01	0	59	0	320864256	55	4955
2026-01-14 11:23:06.53	138.69	29.55	-41.9	-44.9	19.1	6.07e-01	0	59	0	322961408	55	5056
2026-01-14 11:23:07.53	138.56	29.76	-41.8	-45.0	18.9	6.05e-01	0	58	0	325058560	55	5130
2026-01-14 11:23:08.54	138.42	29.97	-41.9	-45.0	19.0	6.05e-01	0	58	0	326631424	55	5103
2026-01-14 11:23:09.55	138.28	30.18	-41.8	-44.8	19.1	6.08e-01	0	59	0	328728576	55	5019
2026-01-14 11:23:10.56	138.14	30.40	-41.7	-44.6	19.3	6.04e-01	0	59	0	330301440	55	4886
2026-01-14 11:23:11.57	138.00	30.61	-41.6	-44.5	19.5	6.08e-01	0	58	0	332398592	55	4822
2026-01-14 11:23:12.58	137.86	30.83	-41.7	-44.5	19.5	6.08e-01	0	58	0	334495744	55	4858
2026-01-14 11:23:13.59	137.71	31.05	-41.7	-44.6	19.3	6.06e-01	0	59	0	336068608	55	4922
2026-01-14 11:23:14.60	137.57	31.27	-41.8	-44.8	19.2	6.06e-01	0	59	0	338165760	55	4985
2026-01-14 11:23:15.61	137.42	31.49	-41.9	-44.8	19.2	6.09e-01	0	59	0	339738624	55	5038
2026-01-14 11:23:16.62	137.26	31.71	-41.9	-44.8	19.2	6.07e-01	0	59	0	341835776	55	5040
2026-01-14 11:23:17.63	137.11	31.93	-42.0	-45.0	19.0	6.08e-01	0	59	0	343932928	55	5154
2026-01-14 11:23:18.64	136.95	32.16	-42.1	-45.1	18.5	6.06e-01	0	59	0	345505792	55	5208
2026-01-14 11:23:19.65	136.80	32.39	-42.0	-45.0	18.9	6.05e-01	0	59	0	347602944	55	5158
2026-01-14 11:23:20.66	136.63	32.62	-41.9	-44.9	19.1	6.06e-01	0	59	0	349700096	55	5056
2026-01-14 11:23:21.67	136.47	32.85	-41.9	-44.9	19.2	6.06e-01	0	59	0	351272960	55	5054
2026-01-14 11:23:22.68	136.30	33.08	-42.0	-45.1	19.0	6.08e-01	0	59	0	353370112	55	5161
2026-01-14 11:23:23.69	136.14	33.31	-42.2	-45.4	18.7	6.06e-01	0	59	0	354942976	55	5350
2026-01-14 11:23:24.70	135.97	33.55	-42.3	-45.5	18.5	6.06e-01	0	59	0	357040128	55	5440
2026-01-14 11:23:25.71	135.79	33.79	-42.4	-45.6	18.5	6.07e-01	0	59	0	359137280	55	5483
2026-01-14 11:23:26.72	135.62	34.03	-42.3	-45.4	18.6	6.04e-01	0	59	0	360710144	55	5392
2026-01-14 11:23:27.73	135.44	34.27	-42.3	-45.5	18.6	6.06e-01	0	59	0	362807296	55	5411
2026-01-14 11:23:28.73	135.26	34.51	-42.4	-45.6	18.5	6.04e-01	0	59	0	364904448	55	5491
2026-01-14 11:23:29.74	135.07	34.75	-42.5	-45.8	18.2	6.06e-01	0	59	0	366477312	55	5653
2026-01-14 11:23:30.75	134.88	35.00	-42.6	-45.9	18.1	6.07e-01	0	59	0	368574464	55	5687
2026-01-14 11:23:31.76	134.69	35.25	-42.5	-45.8	18.3	6.06e-01	0	59	0	370147328	55	5627
2026-01-14 11:23:32.77	134.50	35.49	-42.6	-45.9	18.2	6.10e-01	0	59	0	372244480	55	5702
2026-01-14 11:23:33.78	134.30	35.75	-42.7	-46.1	18.0	6.06e-01	0	59	0	374341632	55	5831
2026-01-14 11:23:34.79	134.10	36.00	-42.9	-46.5	17.3	6.06e-01	0	59	0	375914496	56	5726
2026-01-14 11:23:35.80	133.90	36.25	-43.1	-46.7	17.5	6.05e-01	0	59	0	378011648	56	5892
2026-01-14 11:23:36.81	133.69	36.51	-43.0	-46.7	17.5	6.05e-01	0	59	0	379584512	56	5881
2026-01-14 11:23:37.82	133.48	36.77	-43.2	-46.9	17.3	6.04e-01	0	59	0	381681664	56	6041
2026-01-14 11:23:38.83	133.27	37.03	-43.1	-46.9	17.3	6.05e-01	0	59	0	383778816	56	5996
2026-01-14 11:23:39.84	133.05	37.29	-43.0	-46.6	17.5	6.08e-01	0	59	0	385351680	56	5847
2026-01-14 11:23:40.85	132.83	37.55	-43.1	-46.7	17.5	6.06e-01	0	59	0	387448832	56	5913
2026-01-14 11:23:41.86	132.61	37.81	-43.4	-47.3	16.9	6.06e-01	0	59	0	389021696	57	5986
2026-01-14 11:23:42.87	132.38	38.08	-43.6	-47.8	16.4	6.06e-01	0	59	0	391118848	57	6291
2026-01-14 11:23:43.88	132.15	38.35	-43.3	-47.2	16.9	6.05e-01	0	59	0	393216000	57	5917
2026-01-14 11:23:44.89	131.92	38.62	-43.2	-46.9	17.3	6.05e-01	0	59	0	394788864	57	5666
2026-01-14 11:23:45.90	131.68	38.89	-43.3	-47.1	17.1	6.07e-01	0	59	0	396886016	57	5815
2026-01-14 11:23:46.91	131.43	39.16	-43.5	-47.5	16.7	6.08e-01	0	59	0	398458880	57	6074
2026-01-14 11:23:47.92	131.18	39.44	-43.4	-47.2	16.9	6.04e-01	0	59	0	400556032	57	5908
2026-01-14 11:23:48.93	130.93	39.72	-43.2	-46.9	17.3	6.06e-01	0	59	0	402653184	57	5704
2026-01-14 11:23:49.94	130.67	39.99	-43.3	-47.2	17.0	6.09e-01	0	59	0	404226048	57	5875
2026-01-14 11:23:50.94	130.41	40.27	-43.6	-47.6	16.5	6.06e-01	0	59	0	406323200	57	6201
2026-01-14 11:23:51.95	130.15	40.55	-43.4	-47.3	16.8	6.08e-01	0	59	0	407896064	57	5963
2026-01-14 11:23:52.96	129.88	40.84	-43.0	-46.6	17.6	6.08e-01	0	59	0	409993216	57	5509
2026-01-14 11:23:53.97	129.60	41.12	-43.0	-46.6	17.6	6.07e-01	0	59	0	412090368	57	5505
2026-01-14 11:23:54.98	129.32	41.41	-43.3	-47.1	17.1	6.06e-01	0	59	0	413663232	57	5805
2026-01-14 11:23:55.99	129.03	41.70	-43.2	-46.9	17.3	6.04e-01	0	59	0	415760384	57	5717
2026-01-14 11:23:57.00	128.74	41.98	-43.2	-47.0	17.2	6.07e-01	0	59	0	417857536	57	5765
2026-01-14 11:23:58.01	128.44	42.28	-43.2	-47.0	17.2	6.08e-01	0	59	0	419430400	57	5745
2026-01-14 11:23:59.02	128.14	42.57	-42.9	-46.3	17.9	6.07e-01	0	59	0	421527552	57	5315
2026-01-14 11:24:00.03	127.83	42.86	-42.7	-46.1	18.1	6.06e-01	0	59	0	423100416	57	5188
2026-01-14 11:24:01.04	127.52	43.16	-43.0	-46.5	17.7	6.05e-01	0	59	0	425197568	57	5455
2026-01-14 11:24:02.05	127.20	43.46	-42.9	-46.5	17.7	6.05e-01	0	59	0	427294720	57	5411
2026-01-14 11:24:03.06	126.87	43.75	-42.9	-46.5	17.7	6.06e-01	0	59	0	428867584	57	5411
2026-01-14 11:24:04.07	126.54	44.05	-43.1	-46.7	17.5	6.06e-01	0	59	0	430964736	57	5545
2026-01-14 11:24:05.08	126.20	44.36	-42.7	-46.1	18.1	6.08e-01	0	59	0	433061888	57	5167
2026-01-14 11:24:06.09	125.86	44.66	-42.7	-46.0	18.2	6.08e-01	0	59	0	434634752	57	5117
2026-01-14 11:24:07.10	125.50	44.96	-42.8	-46.2	18.0	6.07e-01	0	59	0	436731904	57	5263
2026-01-14 11:24:08.11	125.14	45.27	-43.0	-46.6	17.6	6.05e-01	0	59	0	438304768	57	5499
2026-01-14 11:24:09.12	124.78	45.57	-43.1	-46.7	17.5	6.08e-01	0	59	0	440401920	57	5568
2026-01-14 11:24:10.13	124.40	45.88	-42.7	-46.1	18.1	6.05e-01	0	59	0	442499072	57	5198
2026-01-14 11:24:11.14	124.02	46.19	-42.9	-46.3	17.9	6.07e-01	0	59	0	444071936	57	5339
2026-01-14 11:24:12.15	123.63	46.50	-43.1	-46.7	17.6	6.07e-01	0	59	0	446169088	57	5550
2026-01-14 11:24:13.16	123.24	46.81	-43.1	-46.8	17.4	6.07e-01	0	59	0	447741952	57	5622
2026-01-14 11:24:14.17	122.83	47.12	-43.0	-46.6	17.6	6.06e-01	0	59	0	449839104	57	5493
2026-01-14 11:24:15.18	122.42	47.43	-43.1	-46.8	17.4	6.07e-01	0	59	0	451936256	57	5632
2026-01-14 11:24:16.19	122.00	47.75	-43.0	-46.6	17.6	6.09e-01	0	59	0	453509120	57	5493
2026-01-14 11:24:17.20	121.57	48.06	-42.9	-46.4	17.8	6.06e-01	0	59	0	455606272	57	5367
2026-01-14 11:24:18.21	121.13	48.37	-43.1	-46.6	17.6	6.07e-01	0	59	0	457179136	57	5523
2026-01-14 11:24:19.22	120.68	48.69	-43.0	-46.6	17.7	6.06e-01	0	59	0	459276288	57	5480
2026-01-14 11:24:20.23	120.22	49.00	-43.0	-46.6	17.6	6.04e-01	0	59	0	461373440	57	5501
2026-01-14 11:24:21.24	119.75	49.32	-42.9	-46.3	17.9	6.07e-01	0	59	0	462946304	57	5317
2026-01-14 11:24:22.25	119.27	49.63	-43.1	-46.8	17.5	6.07e-01	0	59	0	465043456	57	5628
2026-01-14 11:24:23.26	118.79	49.95	-43.1	-46.7	17.5	6.05e-01	0	59	0	466616320	57	5569
2026-01-14 11:24:24.27	118.29	50.27	-42.8	-46.2	18.0	6.08e-01	0	59	0	468713472	57	5252
2026-01-14 11:24:25.28	117.78	50.58	-42.5	-45.7	18.5	6.08e-01	0	59	0	470810624	57	4977
2026-01-14 11:24:26.29	117.26	50.90	-42.6	-45.9	18.4	6.07e-01	0	59	0	472383488	57	5057
2026-01-14 11:24:27.30	116.73	51.21	-42.9	-46.3	18.0	6.06e-01	0	59	0	474480640	57	5324
2026-01-14 11:24:28.31	116.18	51.53	-42.5	-45.7	18.6	6.08e-01	0	59	0	476053504	57	4932
2026-01-14 11:24:29.32	115.63	51.84	-42.3	-45.3	19.0	6.07e-01	0	59	0	478150656	56	5011
2026-01-14 11:24:30.33	115.06	52.16	-42.6	-45.9	18.4	6.07e-01	0	59	0	480247808	56	5363
2026-01-14 11:24:31.34	114.49	52.47	-42.4	-45.6	18.7	6.07e-01	0	59	0	481820672	56	5179
2026-01-14 11:24:32.35	113.89	52.78	-42.3	-45.4	18.9	6.06e-01	0	59	0	483917824	56	5063
2026-01-14 11:24:33.36	113.29	53.09	-42.3	-45.3	19.0	6.07e-01	0	59	0	486014976	56	4998
2026-01-14 11:24:34.37	112.67	53.40	-42.5	-45.7	18.5	6.06e-01	0	59	0	487587840	56	5269
2026-01-14 11:24:35.37	112.05	53.70	-42.4	-45.5	18.9	6.08e-01	0	59	0	489684992	56	5108
2026-01-14 11:24:36.38	111.41	54.01	-42.4	-45.5	18.8	6.08e-01	0	59	0	491257856	56	5134
2026-01-14 11:24:37.39	110.75	54.31	-42.6	-45.8	18.6	6.05e-01	0	59	0	493355008	56	5294
2026-01-14 11:24:38.40	110.08	54.62	-42.3	-45.3	18.9	6.07e-01	0	59	0	495452160	56	5041
2026-01-14 11:24:39.41	109.39	54.92	-42.4	-45.5	18.8	6.07e-01	0	59	0	497025024	56	5102
2026-01-14 11:24:40.42	108.69	55.21	-42.5	-45.7	18.6	6.07e-01	0	59	0	499122176	56	5265
2026-01-14 11:24:41.43	107.97	55.51	-42.4	-45.5	18.8	6.05e-01	0	59	0	501219328	56	5131
2026-01-14 11:24:42.44	107.24	55.80	-42.7	-46.0	18.3	6.07e-01	0	59	0	502792192	56	5440
2026-01-14 11:24:43.45	106.49	56.09	-42.5	-45.6	18.7	6.06e-01	0	59	0	504889344	56	5166
2026-01-14 11:24:44.46	105.73	56.38	-42.7	-46.1	18.3	6.06e-01	0	59	0	506462208	56	5468
2026-01-14 11:24:45.47	104.95	56.66	-42.8	-46.2	18.1	6.07e-01	0	59	0	508559360	56	5581
2026-01-14 11:24:46.48	104.16	56.94	-42.8	-46.1	18.2	6.07e-01	0	59	0	510656512	56	5514
2026-01-14 11:24:47.49	103.35	57.21	-43.0	-46.5	17.8	6.06e-01	0	59	0	512229376	56	5753
2026-01-14 11:24:48.50	102.52	57.48	-43.1	-46.7	17.5	6.06e-01	0	59	0	514326528	56	5914
2026-01-14 11:24:49.50	101.68	57.75	-42.9	-46.3	18.0	6.07e-01	0	59	0	515899392	56	5609
2026-01-14 11:24:50.51	100.82	58.01	-43.2	-46.9	17.4	6.06e-01	0	59	0	517996544	56	6000
2026-01-14 11:24:51.52	99.95	58.26	-43.2	-46.8	17.5	6.07e-01	0	59	0	519569408	56	5958
2026-01-14 11:24:52.53	99.05	58.52	-43.1	-46.7	17.6	6.05e-01	0	59	0	521666560	57	5540
2026-01-14 11:24:53.54	98.14	58.76	-43.0	-46.6	17.8	6.04e-01	0	59	0	523763712	57	5475
2026-01-14 11:24:54.55	97.21	59.00	-43.2	-46.9	17.3	6.06e-01	0	59	0	525336576	57	5717
2026-01-14 11:24:55.56	96.27	59.23	-43.0	-46.5	17.9	6.05e-01	0	59	0	527433728	57	5419
2026-01-14 11:24:56.57	95.30	59.46	-43.2	-46.9	17.5	6.05e-01	0	59	0	529530880	57	5680
2026-01-14 11:24:57.58	94.32	59.68	-43.3	-47.0	17.4	6.07e-01	0	59	0	531103744	57	5729
2026-01-14 11:24:58.59	93.33	59.90	-43.3	-47.0	17.4	6.07e-01	0	59	0	533200896	57	5740
2026-01-14 11:24:59.60	92.32	60.10	-43.3	-47.0	17.3	6.06e-01	0	59	0	534773760	57	5761
2026-01-14 11:25:00.61	91.29	60.30	-43.5	-47.4	16.9	6.03e-01	0	59	0	536870912	57	6037
2026-01-14 11:25:01.62	90.24	60.49	-43.3	-47.0	17.3	6.06e-01	0	60	0	538968064	57	5736
2026-01-14 11:25:02.62	89.19	60.67	-43.6	-47.6	16.8	6.07e-01	0	59	0	540540928	57	6136
2026-01-14 11:25:03.63	88.12	60.85	-43.6	-47.6	16.7	6.08e-01	0	59	0	542638080	58	5817
2026-01-14 11:25:04.64	87.03	61.02	-43.5	-47.3	17.0	6.06e-01	0	59	0	544210944	58	5656
2026-01-14 11:25:05.65	85.92	61.17	-43.5	-47.5	16.9	6.06e-01	0	59	0	546308096	58	5739
2026-01-14 11:25:06.66	84.81	61.32	-43.5	-47.3	17.0	6.06e-01	0	59	0	548405248	58	5638
2026-01-14 11:25:07.67	83.68	61.46	-43.6	-47.7	16.7	6.07e-01	0	59	0	549978112	58	5879
2026-01-14 11:25:08.68	82.53	61.59	-43.5	-47.3	17.0	6.07e-01	0	59	0	552075264	58	5602
2026-01-14 11:25:09.69	81.38	61.71	-43.7	-47.9	16.5	6.07e-01	0	59	0	554172416	58	6011
2026-01-14 11:25:10.70	80.21	61.82	-43.5	-47.4	16.9	6.05e-01	0	59	0	555745280	58	5694
2026-01-14 11:25:11.71	79.04	61.92	-43.7	-47.8	16.5	6.06e-01	0	59	0	557842432	58	5967
2026-01-14 11:25:12.72	77.85	62.01	-43.7	-47.9	16.5	6.07e-01	0	59	0	559415296	58	5994
2026-01-14 11:25:13.73	76.66	62.09	-43.6	-47.6	16.7	6.06e-01	0	59	0	561512448	58	5851
2026-01-14 11:25:14.74	75.46	62.16	-43.7	-47.9	16.5	6.08e-01	0	59	0	563609600	58	6012
2026-01-14 11:25:15.75	74.25	62.22	-43.9	-48.2	16.1	6.07e-01	0	59	0	565182464	58	6259
2026-01-14 11:25:16.76	73.04	62.27	-44.0	-48.3	16.0	6.06e-01	0	59	0	567279616	58	6311
2026-01-14 11:25:17.77	71.82	62.30	-43.8	-48.1	16.3	6.06e-01	0	59	0	568852480	58	6156
2026-01-14 11:25:18.78	70.60	62.33	-43.9	-48.3	16.1	6.06e-01	0	59	0	570949632	58	6286
2026-01-14 11:25:19.79	69.38	62.34	-44.0	-48.5	15.8	6.06e-01	0	59	0	573046784	58	6476
2026-01-14 11:25:20.80	68.16	62.35	-43.6	-47.7	16.7	6.05e-01	0	59	0	574619648	58	5873
2026-01-14 11:25:21.81	66.94	62.34	-44.0	-48.5	15.9	6.07e-01	0	59	0	576716800	58	6435
2026-01-14 11:25:22.82	65.72	62.32	-43.7	-47.8	16.5	6.06e-01	0	59	0	578289664	58	5967
2026-01-14 11:25:23.83	64.50	62.29	-43.6	-47.7	16.7	6.07e-01	0	59	0	580386816	58	5866
2026-01-14 11:25:24.84	63.28	62.25	-43.8	-48.0	16.3	6.06e-01	0	59	0	582483968	58	6108
2026-01-14 11:25:25.85	62.07	62.20	-43.7	-47.7	16.6	6.05e-01	0	59	0	584056832	58	5921
2026-01-14 11:25:26.86	60.87	62.14	-43.7	-47.9	16.5	6.08e-01	0	60	0	586153984	58	6009
2026-01-14 11:25:27.87	59.67	62.07	-44.0	-48.5	15.9	6.05e-01	0	59	0	587726848	58	6423
2026-01-14 11:25:28.88	58.48	61.98	-44.0	-48.3	15.9	6.05e-01	0	59	0	589824000	58	6341
2026-01-14 11:25:29.89	57.30	61.89	-44.0	-48.5	15.9	6.08e-01	0	59	0	591921152	58	6453
2026-01-14 11:25:30.90	56.13	61.79	-44.0	-48.5	15.8	6.08e-01	0	59	0	593494016	58	6431
2026-01-14 11:25:31.91	54.97	61.67	-44.0	-48.5	15.7	6.07e-01	0	60	0	595591168	58	6481
2026-01-14 11:25:32.92	53.82	61.55	-43.7	-47.8	16.5	6.07e-01	0	59	0	597688320	58	5969
2026-01-14 11:25:33.93	52.68	61.41	-44.0	-48.4	15.9	6.06e-01	0	59	0	599261184	58	6365
2026-01-14 11:25:34.94	51.56	61.27	-43.8	-48.1	16.1	6.08e-01	0	60	0	601358336	58	6163
2026-01-14 11:25:35.95	50.44	61.12	-43.6	-47.6	16.7	6.06e-01	0	59	0	602931200	58	5833
2026-01-14 11:25:36.96	49.35	60.96	-43.7	-47.8	16.6	6.05e-01	0	59	0	605028352	58	5925
2026-01-14 11:25:37.97	48.26	60.79	-43.7	-47.8	16.6	6.07e-01	0	59	0	607125504	58	5927
2026-01-14 11:25:38.98	47.19	60.61	-43.6	-47.7	16.6	6.08e-01	0	59	0	608698368	58	5867
2026-01-14 11:25:39.98	46.15	60.43	-43.6	-47.7	16.6	6.06e-01	0	59	0	610795520	58	5887
2026-01-14 11:25:40.99	45.11	60.23	-43.9	-48.2	16.1	6.08e-01	0	59	0	612368384	58	6247
2026-01-14 11:25:42.00	44.09	60.03	-43.8	-48.0	16.3	6.03e-01	0	59	0	614465536	58	6085
2026-01-14 11:25:43.01	43.09	59.82	-43.7	-47.8	16.4	6.07e-01	0	60	0	616562688	58	5963
2026-01-14 11:25:44.02	42.10	59.61	-43.6	-47.5	16.8	6.07e-01	0	59	0	618135552	58	5770
2026-01-14 11:25:45.03	41.13	59.39	-43.8	-48.0	16.4	6.05e-01	0	59	0	620232704	58	6062
2026-01-14 11:25:46.04	40.17	59.16	-43.7	-47.9	16.4	6.07e-01	0	59	0	622329856	58	6036
2026-01-14 11:25:47.05	39.23	58.92	-43.5	-47.4	16.9	6.08e-01	0	59	0	623902720	58	5697
2026-01-14 11:25:48.06	38.31	58.68	-43.8	-47.9	16.4	6.04e-01	0	60	0	625999872	58	6049
2026-01-14 11:25:49.07	37.41	58.43	-43.8	-48.0	16.3	6.04e-01	0	59	0	627572736	58	6084
2026-01-14 11:25:50.08	36.52	58.18	-43.3	-47.1	17.2	6.07e-01	0	59	0	629669888	58	5510
2026-01-14 11:25:51.09	35.65	57.92	-43.3	-47.0	17.4	6.04e-01	0	59	0	631767040	58	5410
2026-01-14 11:25:52.10	34.80	57.66	-43.5	-47.5	16.8	6.05e-01	0	59	0	633339904	58	5780
2026-01-14 11:25:53.11	33.96	57.40	-43.3	-47.1	17.2	6.06e-01	0	59	0	635437056	58	5472
2026-01-14 11:25:54.12	33.14	57.12	-42.9	-46.3	18.1	6.08e-01	0	59	0	637009920	57	5281
2026-01-14 11:25:55.13	32.34	56.85	-43.0	-46.6	17.7	6.07e-01	0	60	0	639107072	57	5484
2026-01-14 11:25:56.14	31.55	56.57	-43.1	-46.7	17.6	6.07e-01	0	60	0	641204224	57	5582
2026-01-14 11:25:57.15	30.78	56.29	-42.6	-45.8	18.5	6.07e-01	0	59	0	642777088	57	5028
2026-01-14 11:25:58.16	30.02	56.00	-42.5	-45.7	18.6	6.05e-01	0	59	0	644874240	56	5250
2026-01-14 11:25:59.17	29.28	55.71	-42.4	-45.5	18.8	6.05e-01	0	59	0	646447104	56	5151
2026-01-14 11:26:00.18	28.56	55.42	-42.5	-45.6	18.7	6.07e-01	0	59	0	648544256	56	5211
2026-01-14 11:26:01.19	27.85	55.12	-42.2	-45.1	19.1	6.05e-01	0	59	0	650641408	56	4922
2026-01-14 11:26:02.20	27.15	54.83	-41.8	-44.7	19.5	6.08e-01	0	59	0	652214272	55	4952
2026-01-14 11:26:03.21	26.47	54.53	-41.9	-44.9	19.4	6.06e-01	0	59	0	654311424	55	5054
2026-01-14 11:26:04.22	25.81	54.22	-42.0	-45.0	19.2	6.07e-01	0	60	0	655884288	55	5122
2026-01-14 11:26:05.23	25.16	53.92	-41.8	-44.6	19.5	6.07e-01	0	59	0	657981440	55	4904
2026-01-14 11:26:06.24	24.52	53.61	-41.7	-44.5	19.6	6.06e-01	0	59	0	660078592	55	4863
2026-01-14 11:26:07.25	23.89	53.31	-41.9	-44.9	19.4	6.09e-01	0	59	0	661651456	55	5045
2026-01-14 11:26:08.26	23.28	53.00	-42.2	-45.3	18.8	6.07e-01	0	59	0	663748608	55	5330
2026-01-14 11:26:09.27	22.68	52.69	-41.8	-44.7	19.5	6.07e-01	0	59	0	665845760	55	4952
2026-01-14 11:26:10.28	22.10	52.38	-41.7	-44.5	19.6	6.04e-01	0	59	0	667418624	55	4867
2026-01-14 11:26:11.29	21.53	52.07	-41.8	-44.7	19.5	6.07e-01	0	60	0	669515776	55	4980
2026-01-14 11:26:12.29	20.97	51.76	-42.0	-45.0	19.2	6.07e-01	0	60	0	671088640	55	5108
2026-01-14 11:26:13.30	20.42	51.44	-41.9	-44.9	19.3	6.05e-01	0	60	0	673185792	55	5043
2026-01-14 11:26:14.31	19.89	51.13	-41.9	-44.8	19.4	6.07e-01	0	60	0	675282944	55	4989
2026-01-14 11:26:15.32	19.36	50.81	-42.1	-45.2	19.0	6.07e-01	0	60	0	676855808	55	5220
2026-01-14 11:26:16.33	18.84	50.50	-41.9	-44.7	19.4	6.07e-01	0	59	0	678952960	55	4965
2026-01-14 11:26:17.34	18.34	50.19	-41.8	-44.7	19.4	6.03e-01	0	60	0	680525824	55	4934
2026-01-14 11:26:18.35	17.85	49.87	-42.4	-45.5	18.7	6.08e-01	0	60	0	682622976	55	5461
2026-01-14 11:26:19.36	17.36	49.56	-42.4	-45.6	18.6	6.07e-01	0	59	0	684720128	55	5515
2026-01-14 11:26:20.37	16.89	49.24	-41.9	-44.8	19.2	6.08e-01	0	59	0	686292992	55	5035
2026-01-14 11:26:21.38	16.43	48.93	-42.0	-45.0	19.2	6.06e-01	0	59	0	688390144	55	5137
2026-01-14 11:26:22.39	15.97	48.61	-42.3	-45.4	18.7	6.10e-01	0	60	0	690487296	55	5372
2026-01-14 11:26:23.40	15.53	48.30	-42.1	-45.3	18.8	6.05e-01	0	60	0	692060160	55	5301
2026-01-14 11:26:24.41	15.09	47.99	-42.4	-45.7	18.5	6.06e-01	0	59	0	694157312	55	5538
2026-01-14 11:26:25.42	14.67	47.68	-42.0	-45.0	19.0	6.07e-01	0	59	0	695730176	55	5156
2026-01-14 11:26:26.43	14.25	47.36	-41.8	-44.7	19.3	6.07e-01	0	59	0	697827328	55	4966
2026-01-14 11:26:27.44	13.84	47.05	-41.8	-44.7	19.4	6.02e-01	0	59	0	699924480	55	4953
2026-01-14 11:26:28.45	13.44	46.74	-42.3	-45.5	18.7	6.08e-01	0	59	0	701497344	55	5412
2026-01-14 11:26:29.46	13.04	46.43	-42.4	-45.7	18.3	6.06e-01	0	59	0	703594496	55	5570
2026-01-14 11:26:30.46	12.66	46.13	-42.2	-45.3	18.7	6.06e-01	0	59	0	705167360	55	5332
2026-01-14 11:26:31.47	12.28	45.82	-42.2	-45.3	18.9	6.07e-01	0	59	0	707264512	55	5284
2026-01-14 11:26:32.48	11.91	45.52	-41.9	-44.8	19.3	6.07e-01	0	60	0	709361664	55	5002
2026-01-14 11:26:33.49	11.55	45.21	-41.7	-44.8	18.7	6.08e-01	0	59	0	710934528	55	5032
2026-01-14 11:26:34.50	11.19	44.91	-42.2	-45.3	18.7	6.07e-01	0	59	0	713031680	55	5295
2026-01-14 11:26:35.51	10.85	44.61	-42.3	-45.4	18.6	6.06e-01	0	59	0	714604544	55	5388
2026-01-14 11:26:36.52	10.50	44.31	-42.3	-45.6	18.4	6.07e-01	0	59	0	716701696	55	5468
2026-01-14 11:26:37.53	10.17	44.01	-42.1	-45.3	18.2	6.07e-01	0	59	0	718798848	55	5296
2026-01-14 11:26:38.54	9.84	43.71	-42.2	-45.4	18.7	6.05e-01	0	60	0	720371712	55	5347
2026-01-14 11:26:39.55	9.51	43.41	-42.3	-45.5	18.5	6.05e-01	0	60	0	722468864	55	5451
2026-01-14 11:26:40.56	9.20	43.12	-42.3	-45.5	18.4	6.07e-01	0	59	0	724041728	55	5405
2026-01-14 11:26:41.57	8.89	42.82	-42.4	-45.6	18.4	6.03e-01	0	59	0	726138880	55	5524
2026-01-14 11:26:42.58	8.58	42.53	-42.6	-46.0	18.1	6.07e-01	0	59	0	728236032	55	5755
2026-01-14 11:26:43.59	8.28	42.24	-43.0	-46.6	17.6	6.06e-01	0	59	0	729808896	56	5815
2026-01-14 11:26:44.60	7.99	41.95	-43.1	-46.8	17.5	6.08e-01	0	60	0	731906048	56	5927
2026-01-14 11:26:45.61	7.70	41.66	-42.9	-46.5	17.7	6.06e-01	0	60	0	734003200	56	5770
2026-01-14 11:26:46.62	7.41	41.37	-42.9	-46.4	17.7	6.04e-01	0	60	0	735576064	56	5677
2026-01-14 11:26:47.62	7.14	41.09	-43.0	-46.6	17.5	6.07e-01	0	59	0	737673216	56	5845
2026-01-14 11:26:48.64	6.86	40.81	-43.1	-46.9	17.2	6.04e-01	0	59	0	739246080	56	5999
2026-01-14 11:26:49.65	6.59	40.52	-43.2	-47.0	17.1	6.07e-01	0	59	0	741343232	57	5767
2026-01-14 11:26:50.66	6.33	40.24	-43.2	-47.0	17.2	6.07e-01	0	59	0	743440384	57	5770
2026-01-14 11:26:51.66	6.07	39.97	-43.2	-47.1	17.1	6.07e-01	0	60	0	745013248	57	5808
2026-01-14 11:26:52.68	5.81	39.69	-43.2	-47.3	16.7	6.05e-01	0	59	0	747110400	57	5953
2026-01-14 11:26:53.69	5.56	39.42	-43.4	-47.3	16.7	6.07e-01	0	59	0	748683264	57	5970
2026-01-14 11:26:54.70	5.32	39.14	-43.3	-47.2	16.9	6.06e-01	0	60	0	750780416	57	5918
2026-01-14 11:26:55.70	5.08	38.87	-43.3	-47.3	16.7	6.06e-01	0	59	0	752877568	57	5947
2026-01-14 11:26:56.71	4.84	38.60	-43.5	-47.6	16.7	6.06e-01	0	59	0	754450432	57	6146
2026-01-14 11:26:57.72	4.61	38.34	-43.7	-48.1	16.1	6.08e-01	0	60	0	756547584	57	6512
2026-01-14 11:26:58.73	4.38	38.07	-43.8	-48.2	15.9	6.07e-01	0	60	0	758644736	58	6237
2026-01-14 11:26:59.74	4.15	37.80	-43.7	-48.0	16.1	6.08e-01	0	59	0	760217600	58	6077
2026-01-14 11:27:00.75	3.93	37.54	-43.3	-47.3	16.8	6.06e-01	0	60	0	762314752	58	5618
2026-01-14 11:27:01.76	3.71	37.28	-43.2	-47.0	17.1	6.07e-01	0	60	0	763887616	58	5448
2026-01-14 11:27:02.77	3.49	37.02	-43.3	-47.1	17.0	6.06e-01	0	60	0	765984768	58	5517
2026-01-14 11:27:03.78	3.28	36.76	-43.3	-47.2	17.0	6.04e-01	0	59	0	768081920	58	5540
2026-01-14 11:27:04.79	3.08	36.51	-43.1	-46.9	17.2	6.06e-01	0	60	0	769654784	58	5346
2026-01-14 11:27:05.80	2.87	36.25	-43.0	-46.6	17.5	6.08e-01	0	59	0	771751936	57	5476
2026-01-14 11:27:06.81	2.67	36.00	-42.9	-46.4	17.7	6.05e-01	0	60	0	773324800	57	5360
2026-01-14 11:27:07.82	2.47	35.75	-42.8	-46.3	17.8	6.05e-01	0	60	0	775421952	57	5324
2026-01-14 11:27:08.83	2.28	35.50	-42.9	-46.4	17.7	6.06e-01	0	60	0	777519104	57	5382
2026-01-14 11:27:09.84	2.08	35.25	-42.8	-46.3	17.8	6.06e-01	0	60	0	779091968	57	5335
2026-01-14 11:27:10.85	1.90	35.00	-42.8	-46.4	17.7	6.06e-01	0	59	0	781189120	57	5349
2026-01-14 11:27:11.86	1.71	34.76	-42.7	-46.2	17.8	6.05e-01	0	60	0	782761984	57	5234
2026-01-14 11:27:12.86	1.53	34.52	-42.6	-46.0	18.0	6.05e-01	0	59	0	784859136	56	5439
2026-01-14 11:27:13.87	1.35	34.28	-42.4	-45.6	18.4	6.05e-01	0	60	0	786956288	56	5215
2026-01-14 11:27:14.88	1.17	34.04	-42.2	-45.4	18.7	6.07e-01	0	59	0	788529152	56	5048
2026-01-14 11:27:15.89	1.00	33.80	-42.2	-45.4	18.6	6.04e-01	0	59	0	790626304	56	5057
2026-01-14 11:27:16.90	0.82	33.57	-42.2	-45.4	18.6	6.09e-01	0	60	0	792199168	56	5053
2026-01-14 11:27:17.91	0.65	33.33	-42.2	-45.3	18.7	6.07e-01	0	60	0	794296320	56	5032
2026-01-14 11:27:18.92	0.49	33.10	-42.0	-45.1	18.9	6.06e-01	0	59	0	796393472	55	5163
2026-01-14 11:27:19.93	0.32	32.87	-42.0	-45.1	18.8	6.06e-01	0	59	0	797966336	55	5218
2026-01-14 11:27:20.94	0.16	32.64	-41.9	-45.1	18.8	6.06e-01	0	60	0	800063488	55	5187
2026-01-14 11:27:21.95	0.00	32.41	-42.0	-45.1	18.7	6.07e-01	0	60	0	802160640	55	5168
2026-01-14 11:27:22.96	359.84	32.19	-41.9	-45.0	18.9	6.08e-01	0	60	0	803733504	55	5148
2026-01-14 11:27:23.97	359.69	31.96	-41.9	-45.0	18.6	6.06e-01	0	60	0	805830656	55	5115
2026-01-14 11:27:24.98	359.54	31.74	-41.9	-45.0	18.8	6.06e-01	0	60	0	807403520	55	5106
2026-01-14 11:27:25.99	359.38	31.52	-41.9	-45.0	18.8	6.06e-01	0	59	0	809500672	55	5113
2026-01-14 11:27:27.00	359.24	31.30	-41.8	-44.8	19.1	6.06e-01	0	60	0	811597824	55	5023
2026-01-14 11:27:28.01	359.09	31.08	-41.7	-44.7	19.2	6.09e-01	0	59	0	813170688	55	4942
2026-01-14 11:27:29.02	358.95	30.86	-41.7	-44.6	19.3	6.07e-01	0	59	0	815267840	55	4912
2026-01-14 11:27:30.03	358.80	30.65	-41.5	-44.6	19.3	6.07e-01	0	60	0	816840704	55	4886
2026-01-14 11:27:31.03	358.66	30.43	-41.7	-44.6	19.3	6.08e-01	0	60	0	818937856	55	4913
2026-01-14 11:27:32.04	358.53	30.22	-41.8	-44.8	19.1	6.07e-01	0	59	0	821035008	55	5010
2026-01-14 11:27:33.05	358.39	30.01	-41.8	-44.8	19.0	6.08e-01	0	59	0	822607872	55	5029
2026-01-14 11:27:34.06	358.25	29.80	-41.8	-44.9	19.0	6.06e-01	0	60	0	824705024	55	5063
2026-01-14 11:27:35.07	358.12	29.59	-41.8	-44.9	19.0	6.07e-01	0	59	0	826277888	55	5076
2026-01-14 11:27:36.08	357.99	29.39	-41.8	-44.9	19.0	6.06e-01	0	60	0	828375040	55	5074
2026-01-14 11:27:37.09	357.86	29.18	-41.8	-44.9	18.9	6.06e-01	0	59	0	830472192	55	5094
2026-01-14 11:27:38.10	357.73	28.98	-41.9	-45.0	18.9	6.08e-01	0	60	0	832045056	55	5120
2026-01-14 11:27:39.11	357.61	28.78	-41.9	-45.1	18.8	6.07e-01	0	60	0	834142208	55	5171
2026-01-14 11:27:40.12	357.48	28.58	-41.9	-45.0	18.8	6.05e-01	0	60	0	835715072	55	5155
2026-01-14 11:27:41.13	357.36	28.38	-41.9	-45.0	18.8	6.07e-01	0	60	0	837812224	55	5141
2026-01-14 11:27:42.14	357.24	28.18	-41.8	-44.9	18.9	6.06e-01	0	60	0	839909376	55	5076
2026-01-14 11:27:43.15	357.12	27.98	-41.8	-44.8	18.9	6.06e-01	0	60	0	841482240	55	5032
2026-01-14 11:27:44.16	357.00	27.79	-41.8	-44.9	18.9	6.05e-01	0	60	0	843579392	55	5042
2026-01-14 11:27:45.17	356.89	27.59	-41.9	-45.1	18.7	6.06e-01	0	60	0	845152256	55	5162
2026-01-14 11:27:46.18	356.77	27.40	-42.0	-45.2	18.6	6.07e-01	0	59	0	847249408	55	5233
2026-01-14 11:27:47.19	356.66	27.21	-42.0	-45.3	18.5	6.06e-01	0	60	0	849346560	55	5296
2026-01-14 11:27:48.20	356.55	27.02	-42.0	-45.3	18.4	6.05e-01	0	59	0	850919424	55	5299
2026-01-14 11:27:49.21	356.44	26.83	-42.0	-45.2	18.5	6.05e-01	0	59	0	853016576	55	5270
2026-01-14 11:27:50.22	356.33	26.64	-42.0	-45.2	18.5	6.04e-01	0	60	0	855113728	55	5238
2026-01-14 11:27:51.23	356.22	26.46	-42.0	-45.3	18.4	6.06e-01	0	59	0	856686592	55	5308
2026-01-14 11:27:52.24	356.11	26.27	-42.0	-45.3	18.4	6.08e-01	0	59	0	858783744	55	5307
2026-01-14 11:27:53.25	356.01	26.09	-42.1	-45.4	18.2	6.04e-01	0	60	0	860356608	55	5394
2026-01-14 11:27:54.26	355.91	25.91	-42.2	-45.6	18.1	6.06e-01	0	60	0	862453760	55	5485
2026-01-14 11:27:55.27	355.80	25.73	-42.2	-45.7	17.9	6.08e-01	0	59	0	864550912	55	5560
2026-01-14 11:27:56.28	355.70	25.55	-42.2	-45.7	17.9	6.07e-01	0	60	0	866123776	55	5574
2026-01-14 11:27:57.29	355.60	25.37	-42.3	-45.8	17.8	6.06e-01	0	59	0	868220928	55	5623
2026-01-14 11:27:58.30	355.50	25.19	-42.2	-45.8	17.8	6.08e-01	0	60	0	870318080	55	5626
2026-01-14 11:27:59.31	355.41	25.01	-42.2	-45.8	17.7	6.05e-01	0	60	0	871890944	55	5640
2026-01-14 11:28:00.32	355.31	24.84	-42.2	-45.7	17.8	6.08e-01	0	60	0	873988096	55	5570
2026-01-14 11:28:01.33	355.21	24.67	-42.2	-45.7	17.8	6.04e-01	0	60	0	875560960	55	5582
2026-01-14 11:28:02.34	355.12	24.49	-42.2	-45.8	17.7	6.06e-01	0	60	0	877658112	55	5595
2026-01-14 11:28:03.35	355.03	24.32	-42.2	-45.8	17.6	6.05e-01	0	60	0	879755264	55	5636
2026-01-14 11:28:04.35	354.94	24.15	-42.2	-45.8	17.7	6.05e-01	0	60	0	881328128	55	5607
2026-01-14 11:28:05.36	354.84	23.98	-42.1	-45.7	17.7	6.05e-01	0	60	0	883425280	55	5560
2026-01-14 11:28:06.37	354.75	23.82	-42.1	-45.7	17.7	6.05e-01	0	60	0	884998144	55	5546
2026-01-14 11:28:07.38	354.67	23.65	-42.1	-45.6	17.7	6.09e-01	0	59	0	887095296	55	5521
2026-01-14 11:28:08.39	354.58	23.48	-42.0	-45.5	17.9	6.06e-01	0	60	0	889192448	55	5418
2026-01-14 11:28:09.40	354.49	23.32	-41.9	-45.5	17.8	6.06e-01	0	59	0	890765312	55	5417
2026-01-14 11:28:10.41	354.41	23.15	-42.0	-45.6	17.7	6.08e-01	0	60	0	892862464	55	5484
2026-01-14 11:28:11.42	354.32	22.99	-41.8	-45.4	17.8	6.08e-01	0	60	0	894435328	55	5366
2026-01-14 11:28:12.43	354.24	22.83	-41.9	-45.5	17.6	6.07e-01	0	60	0	896532480	55	5455
2026-01-14 11:28:13.44	354.15	22.67	-42.1	-46.1	17.0	6.07e-01	0	60	0	898629632	55	5800
2026-01-14 11:28:14.45	354.07	22.51	-41.9	-45.9	17.0	6.07e-01	0	60	0	900202496	55	5690
2026-01-14 11:28:15.46	353.99	22.35	-41.7	-45.5	17.3	6.07e-01	0	60	0	902299648	55	5451
2026-01-14 11:28:16.47	353.91	22.19	-41.6	-45.6	17.1	6.08e-01	0	60	0	903872512	55	5478
2026-01-14 11:28:17.48	353.83	22.04	-41.8	-46.0	16.5	6.06e-01	0	60	0	905969664	55	5777
2026-01-14 11:28:18.49	353.75	21.88	-41.7	-46.1	16.2	6.08e-01	0	60	0	908066816	55	5845
2026-01-14 11:28:19.50	353.68	21.73	-41.5	-45.8	16.4	6.03e-01	0	60	0	909639680	55	5614
2026-01-14 11:28:20.51	353.60	21.57	-41.4	-45.6	16.5	6.06e-01	0	60	0	911736832	54	5848
2026-01-14 11:28:21.52	353.52	21.42	-41.5	-46.0	16.0	6.06e-01	0	60	0	913309696	54	6100
2026-01-14 11:28:22.52	353.45	21.27	-41.7	-46.7	15.1	6.06e-01	0	60	0	915406848	54	6617
2026-01-14 11:28:23.53	353.38	21.12	-42.1	-47.9	13.8	6.04e-01	0	60	0	917504000	54	7622
2026-01-14 11:28:24.54	353.30	20.97	-42.3	-49.3	12.1	6.07e-01	0	60	0	919076864	55	8433
2026-01-14 11:28:25.55	353.23	20.82	-42.5	-50.8	10.4	6.20e-01	0	60	0	921174016	55	10052
2026-01-14 11:28:26.56	353.16	20.67	-42.6	-52.7	8.3	6.43e-01	51	60	0	923271168	55	12380
2026-01-14 11:28:27.57	353.09	20.53	-42.6	-54.4	6.5	6.73e-01	90	60	0	924844032	55	15144
2026-01-14 11:28:28.58	353.02	20.38	-42.6	-57.2	4.4	7.38e-01	0	60	104	925892608	55	20980
2026-01-14 11:28:29.59	352.95	20.23	-42.6	-58.7	4.1	7.45e-01	0	60	104	925892608	55	24885
2026-01-14 11:28:30.60	352.88	20.09	-42.5	-59.9	3.9	7.42e-01	0	60	104	925892608	55	28546
2026-01-14 11:28:31.61	352.81	19.95	-42.5	-60.9	3.8	7.45e-01	0	60	104	925892608	55	31913
2026-01-14 11:28:32.62	352.74	19.80	-42.4	-61.4	3.8	7.44e-01	0	60	104	925892608	55	33922
2026-01-14 11:28:33.63	352.67	19.66	-42.4	-61.2	3.8	7.43e-01	0	59	104	925892608	55	33135
2026-01-14 11:28:34.64	352.61	19.52	-41.8	-60.7	3.8	7.48e-01	0	60	104	925892608	55	31115
2026-01-14 11:28:35.65	352.54	19.38	-42.2	-61.2	3.8	7.43e-01	0	60	104	925892608	55	33050
2026-01-14 11:28:36.66	352.48	19.24	-42.0	-61.0	3.8	7.39e-01	0	60	104	925892608	55	32402
2026-01-14 11:28:37.67	352.41	19.10	-41.7	-60.8	3.8	7.45e-01	0	60	104	925892608	55	31760
2026-01-14 11:28:38.67	352.35	18.97	-41.6	-60.9	3.8	7.47e-01	0	60	104	925892608	55	31894
2026-01-14 11:28:39.68	352.29	18.83	-41.2	-61.0	3.7	7.46e-01	0	60	104	925892608	54	34155
2026-01-14 11:28:40.69	352.23	18.69	-41.6	-61.0	3.8	7.44e-01	0	60	104	925892608	53	36201
2026-01-14 11:28:41.70	352.16	18.56	-41.7	-61.0	3.8	7.45e-01	0	60	104	925892608	53	36417
2026-01-14 11:28:42.71	352.10	18.42	-41.6	-60.9	3.8	7.47e-01	0	60	104	925892608	53	35934
2026-01-14 11:28:43.72	352.04	18.29	-41.8	-61.3	3.8	7.46e-01	0	60	104	925892608	54	35445
2026-01-14 11:28:44.73	351.98	18.15	-41.6	-60.9	3.8	7.45e-01	0	60	104	925892608	54	34004
2026-01-14 11:28:45.74	351.92	18.02	-41.6	-60.9	3.8	7.44e-01	0	60	104	925892608	54	33844
2026-01-14 11:28:46.75	351.87	17.89	-41.5	-60.9	3.8	7.44e-01	0	60	104	925892608	54	33918
2026-01-14 11:28:47.76	351.81	17.76	-41.8	-61.0	3.8	7.44e-01	0	60	104	925892608	54	34347
2026-01-14 11:28:48.77	351.75	17.63	-41.7	-60.9	3.8	7.45e-01	0	60	104	925892608	54	34049
2026-01-14 11:28:49.78	351.69	17.50	-41.9	-61.0	3.8	7.44e-01	0	60	104	925892608	54	34348
2026-01-14 11:28:50.79	351.64	17.37	-40.0	-60.9	3.8	7.51e-01	0	60	104	925892608	51	40199
2026-01-14 11:28:51.80	351.58	17.24	-41.6	-60.9	3.8	7.43e-01	0	60	104	925892608	53	35887
2026-01-14 11:28:52.81	351.53	17.12	-39.6	-61.0	3.8	7.44e-01	0	60	104	925892608	51	40933
2026-01-14 11:28:53.82	351.47	16.99	-41.5	-60.9	3.8	7.45e-01	0	60	104	925892608	53	35935
2026-01-14 11:28:54.83	351.42	16.86	-41.0	-61.2	3.8	7.47e-01	0	60	104	925892608	53	37004
2026-01-14 11:28:55.84	351.36	16.74	-41.2	-61.1	3.8	7.47e-01	0	60	104	925892608	53	36805
2026-01-14 11:28:56.85	351.31	16.61	-40.0	-61.2	3.8	7.44e-01	0	60	104	925892608	51	41932
2026-01-14 11:28:57.86	351.26	16.49	-40.9	-60.9	3.9	7.45e-01	0	60	104	925892608	52	37837
2026-01-14 11:28:58.87	351.20	16.37	-40.9	-61.2	3.8	7.48e-01	0	60	104	925892608	52	39166
2026-01-14 11:28:59.87	351.15	16.25	-40.4	-61.0	3.8	7.44e-01	0	60	104	925892608	51	40940
2026-01-14 11:29:00.88	351.10	16.12	-41.4	-61.2	3.9	7.45e-01	0	60	104	925892608	53	37362
2026-01-14 11:29:01.89	351.05	16.00	-40.1	-61.0	3.8	7.46e-01	0	60	104	925892608	51	40880
2026-01-14 11:29:02.90	351.00	15.88	-40.1	-61.0	3.8	7.47e-01	0	60	104	925892608	50	43283
2026-01-14 11:29:03.91	350.95	15.76	-40.6	-61.0	3.8	7.45e-01	0	60	104	925892608	51	40877
2026-01-14 11:29:04.92	350.90	15.64	-40.9	-61.0	3.8	7.48e-01	0	60	104	925892608	52	38393
2026-01-14 11:29:05.93	350.85	15.53	-40.5	-61.0	3.8	7.46e-01	0	60	104	925892608	52	38350
2026-01-14 11:29:06.94	350.80	15.41	-41.4	-61.0	3.8	7.45e-01	0	60	104	925892608	53	36324
2026-01-14 11:29:07.95	350.76	15.29	-39.7	-61.0	3.8	7.46e-01	0	60	104	925892608	51	40956
2026-01-14 11:29:08.96	350.71	15.17	-41.4	-60.9	3.8	7.45e-01	0	60	104	925892608	53	36057
2026-01-14 11:29:09.97	350.66	15.06	-40.2	-61.0	3.7	7.45e-01	0	60	104	925892608	52	38560
2026-01-14 11:29:10.98	350.61	14.94	-41.6	-61.2	3.8	7.46e-01	0	60	104	925892608	54	35095
2026-01-14 11:29:11.99	350.57	14.83	-41.0	-60.9	3.8	7.45e-01	0	60	104	925892608	54	33978
2026-01-14 11:29:13.00	350.52	14.71	-41.2	-61.2	3.8	7.47e-01	0	60	104	925892608	54	35179
2026-01-14 11:29:14.01	350.48	14.60	-41.2	-60.9	3.8	7.45e-01	0	60	104	925892608	54	33938
2026-01-14 11:29:15.02	350.43	14.48	-41.8	-61.0	3.8	7.45e-01	0	60	104	925892608	54	34148
2026-01-14 11:29:16.03	350.39	14.37	-41.5	-61.2	3.8	7.44e-01	0	60	104	925892608	54	35128
2026-01-14 11:29:17.04	350.34	14.26	-41.8	-61.0	3.8	7.46e-01	0	60	104	925892608	54	34271
2026-01-14 11:29:18.05	350.30	14.15	-41.5	-61.2	3.8	7.45e-01	0	60	104	925892608	54	35006
2026-01-14 11:29:19.06	350.25	14.04	-41.2	-61.1	3.8	7.46e-01	0	60	104	925892608	54	34634
2026-01-14 11:29:20.07	350.21	13.93	-41.9	-61.1	3.8	7.45e-01	0	60	104	925892608	54	34601
2026-01-14 11:29:21.08	350.17	13.82	-41.5	-61.1	3.8	7.43e-01	0	60	104	925892608	54	34640
2026-01-14 11:29:22.09	350.13	13.71	-42.0	-61.1	3.8	7.44e-01	0	60	104	925892608	54	34635
2026-01-14 11:29:23.10	350.08	13.60	-41.5	-60.9	3.8	7.46e-01	0	60	104	925892608	54	33864
2026-01-14 11:29:24.11	350.04	13.49	-41.4	-60.9	3.8	7.45e-01	0	60	104	925892608	54	33977
2026-01-14 11:29:25.12	350.00	13.38	-41.5	-60.9	3.8	7.45e-01	0	60	104	925892608	54	33721
2026-01-14 11:29:26.13	349.96	13.27	-41.5	-60.9	3.8	7.46e-01	0	60	104	925892608	54	33842
2026-01-14 11:29:27.14	349.92	13.17	-41.8	-61.1	3.8	7.43e-01	0	60	104	925892608	54	34642
2026-01-14 11:29:28.15	349.88	13.06	-41.8	-60.9	3.8	7.44e-01	0	60	104	925892608	54	33882
2026-01-14 11:29:29.16	349.84	12.95	-41.8	-61.1	3.8	7.45e-01	0	60	104	925892608	54	34790
2026-01-14 11:29:30.17	349.80	12.85	-41.7	-60.8	3.8	7.45e-01	0	60	104	925892608	54	33456
2026-01-14 11:29:31.18	349.76	12.74	-41.5	-60.9	3.8	7.43e-01	0	60	104	925892608	54	33711
2026-01-14 11:29:32.19	349.72	12.64	-41.8	-61.0	3.8	7.45e-01	0	60	104	925892608	54	34119
2026-01-14 11:29:33.20	349.68	12.54	-41.5	-60.9	3.8	7.46e-01	0	60	104	925892608	54	33823
2026-01-14 11:29:34.21	349.64	12.43	-41.7	-60.9	3.8	7.46e-01	0	60	104	925892608	54	34082
2026-01-14 11:29:35.22	349.60	12.33	-41.8	-61.2	3.8	7.45e-01	0	60	104	925892608	54	34942
2026-01-14 11:29:36.23	349.57	12.23	-41.7	-60.8	3.8	7.42e-01	0	60	104	925892608	54	33441
2026-01-14 11:29:37.24	349.53	12.12	-41.6	-60.8	3.8	7.45e-01	0	60	104	925892608	54	33467
2026-01-14 11:29:38.25	349.49	12.02	-41.6	-60.8	3.8	7.46e-01	0	60	104	925892608	54	33447
2026-01-14 11:29:39.26	349.46	11.92	-41.6	-60.8	3.8	7.49e-01	0	60	104	925892608	54	33459
2026-01-14 11:29:40.27	349.42	11.82	-41.7	-60.8	3.8	7.46e-01	0	60	104	925892608	54	33584
2026-01-14 11:29:41.28	349.38	11.72	-41.7	-60.8	3.8	7.42e-01	0	60	104	925892608	54	33569
2026-01-14 11:29:42.29	349.35	11.62	-41.5	-61.1	3.8	7.45e-01	0	60	104	925892608	54	34580
2026-01-14 11:29:43.30	349.31	11.52	-41.4	-61.0	3.8	7.46e-01	0	60	104	925892608	54	34397
2026-01-14 11:29:44.31	349.28	11.42	-41.5	-60.8	3.8	7.45e-01	0	60	104	925892608	54	33688
2026-01-14 11:29:45.32	349.24	11.32	-41.4	-61.0	3.8	7.44e-01	0	60	104	925892608	54	34360
2026-01-14 11:29:46.33	349.21	11.23	-41.5	-60.9	3.8	7.46e-01	0	60	104	925892608	54	33897
2026-01-14 11:29:47.34	349.17	11.13	-41.4	-61.1	3.8	7.47e-01	0	60	104	925892608	54	34549
2026-01-14 11:29:48.35	349.14	11.03	-41.4	-60.9	3.8	7.46e-01	0	60	104	925892608	54	33702
2026-01-14 11:29:49.36	349.10	10.93	-41.4	-61.1	3.8	7.44e-01	0	60	104	925892608	54	34669
2026-01-14 11:29:50.37	349.07	10.84	-41.4	-60.8	3.8	7.43e-01	0	60	104	925892608	54	33387
2026-01-14 11:29:51.38	349.04	10.74	-41.5	-61.0	3.8	7.43e-01	0	60	104	925892608	54	34439
2026-01-14 11:29:52.39	349.00	10.65	-41.4	-61.0	3.8	7.45e-01	0	60	104	925892608	54	34327
2026-01-14 11:29:53.40	348.97	10.55	-41.6	-61.0	3.8	7.45e-01	0	60	104	925892608	54	34417
2026-01-14 11:29:54.41	348.94	10.46	-41.4	-61.0	3.8	7.41e-01	0	60	104	925892608	54	34431
2026-01-14 11:29:55.41	348.91	10.36	-41.5	-61.1	3.8	7.45e-01	0	60	104	925892608	54	34501
2026-01-14 11:29:56.42	348.87	10.27	-41.5	-60.9	3.8	7.44e-01	0	60	104	925892608	54	33835
2026-01-14 11:29:57.43	348.84	10.18	-41.6	-61.0	3.8	7.45e-01	0	60	104	925892608	54	34467
2026-01-14 11:29:58.45	348.81	10.08	-41.8	-61.0	3.8	7.44e-01	0	60	104	925892608	54	34106
2026-01-14 11:29:59.46	348.78	9.99	-41.8	-61.1	3.8	7.45e-01	0	60	104	925892608	54	34586
2026-01-14 11:30:00.47	348.75	9.90	-41.6	-61.0	3.8	7.44e-01	0	60	104	925892608	54	34310
2026-01-14 11:30:01.47	348.72	9.81	-41.9	-61.1	3.8	7.43e-01	0	60	104	925892608	54	34592
2026-01-14 11:30:02.48	348.69	9.71	-41.6	-61.0	3.8	7.46e-01	0	60	104	925892608	54	34431
2026-01-14 11:30:03.49	348.65	9.62	-41.9	-61.1	3.8	7.46e-01	0	60	104	925892608	54	34615
2026-01-14 11:30:04.50	348.62	9.53	-41.9	-61.2	3.8	7.48e-01	0	60	104	925892608	54	35111
2026-01-14 11:30:05.51	348.59	9.44	-41.9	-61.1	3.8	7.47e-01	0	60	104	925892608	54	34627
2026-01-14 11:30:06.52	348.56	9.35	-41.9	-61.0	3.8	7.46e-01	0	60	104	925892608	54	34385
2026-01-14 11:30:07.53	348.54	9.26	-41.9	-61.1	3.8	7.45e-01	0	60	104	925892608	54	34636
2026-01-14 11:30:08.54	348.51	9.17	-42.0	-61.1	3.8	7.46e-01	0	60	104	925892608	54	34532
2026-01-14 11:30:09.55	348.48	9.08	-42.0	-61.1	3.8	7.45e-01	0	60	104	925892608	54	34536
2026-01-14 11:30:10.57	348.45	8.99	-41.9	-61.0	3.8	7.46e-01	0	60	104	925892608	54	34391
2026-01-14 11:30:11.58	348.42	8.90	-42.0	-61.0	3.8	7.47e-01	0	60	104	925892608	54	34453
2026-01-14 11:30:12.59	348.39	8.82	-41.9	-61.0	3.8	7.44e-01	0	60	104	925892608	54	34374
2026-01-14 11:30:13.60	348.36	8.73	-41.9	-61.0	3.8	7.49e-01	0	60	104	925892608	54	34382
2026-01-14 11:30:14.61	348.33	8.64	-41.9	-61.0	3.8	7.48e-01	0	60	104	925892608	54	34329
2026-01-14 11:30:15.62	348.31	8.55	-41.9	-61.0	3.8	7.44e-01	0	60	104	925892608	54	34291
2026-01-14 11:30:16.63	348.28	8.47	-41.9	-61.0	3.8	7.45e-01	0	60	104	925892608	54	34224
2026-01-14 11:30:17.63	348.25	8.38	-41.9	-61.0	3.8	7.43e-01	0	60	104	925892608	54	34293
2026-01-14 11:30:18.64	348.22	8.29	-42.0	-61.0	3.8	7.44e-01	0	60	104	925892608	54	34400
2026-01-14 11:30:19.65	348.20	8.21	-41.9	-61.0	3.8	7.47e-01	0	60	104	925892608	54	34384
2026-01-14 11:30:20.66	348.17	8.12	-41.9	-61.0	3.8	7.45e-01	0	60	104	925892608	54	34152
2026-01-14 11:30:21.67	348.14	8.04	-42.0	-61.0	3.8	7.45e-01	0	60	104	925892608	54	34465
2026-01-14 11:30:22.68	348.12	7.95	-41.9	-61.0	3.8	7.43e-01	0	60	104	925892608	54	34458
2026-01-14 11:30:23.69	348.09	7.87	-41.9	-61.1	3.8	7.45e-01	0	60	104	925892608	54	34732
2026-01-14 11:30:24.70	348.07	7.78	-42.0	-61.2	3.8	7.47e-01	0	60	104	925892608	54	34929
2026-01-14 11:30:25.71	348.04	7.70	-45.0	-63.8	3.8	7.43e-01	0	60	104	925892608	60	33497
2026-01-14 11:30:26.72	348.01	7.62	-45.8	-64.5	3.9	7.46e-01	0	60	104	925892608	62	32311
2026-01-14 11:30:27.73	347.99	7.53	-46.0	-64.7	3.8	7.49e-01	0	60	104	925892608	62	33112
2026-01-14 11:30:28.74	347.96	7.45	-46.1	-64.8	3.8	7.45e-01	0	60	104	925892608	62	33420
2026-01-14 11:30:29.75	347.94	7.37	-46.1	-64.7	3.8	7.46e-01	0	60	104	925892608	62	33227
2026-01-14 11:30:30.76	347.91	7.28	-46.2	-64.9	3.8	7.46e-01	0	60	104	925892608	62	33784
2026-01-14 11:30:31.77	347.89	7.20	-46.1	-64.9	3.7	7.39e-01	0	60	104	925892608	63	31862
2026-01-14 11:30:32.78	347.86	7.12	-46.2	-64.9	3.7	7.47e-01	0	60	104	925892608	63	32057
2026-01-14 11:30:33.79	347.84	7.04	-45.8	-63.7	3.9	7.52e-01	0	60	104	925892608	61	31282
2026-01-14 11:30:34.80	347.82	6.96	-46.2	-64.8	3.8	7.46e-01	0	60	104	925892608	63	31800
2026-01-14 11:30:35.81	347.79	6.88	-46.2	-64.8	3.8	7.44e-01	0	60	104	925892608	63	31739
2026-01-14 11:30:36.82	347.77	6.80	-46.2	-64.9	3.8	7.45e-01	0	60	104	925892608	63	31869
