passes_logs/2026/01/14/R2.0S_Moscow/R2.0S_Moscow__20260114_023245_FENGYUN_3D_rec.log

#Pass ID: 20260114_023245_FENGYUN 3D
#Satellite: FENGYUN 3D
#Configuration: FENGYUN 3D
#almurnet v.1.7.20251203
#Start time: 2026-01-14 02:32:46

#Version: 2.2.20231116
#Station: R2.0S_Moscow
#Location: 37.707566 lon 55.798166 lat
#TLE: 1 43010U 17072A   26013.31211337  .00000452  00000+0  23563-3 0  9990
#TLE: 2 43010  98.9934 345.1024 0002270 111.0315 249.1103 14.19696845423017

#Time	Az	El	Level	Level2	SNR	BER	BlckErr	Temp	State	Recorded	gain1	gain2
2026-01-14 02:32:46.70	13.43	2.06	-40.6	-52.3	3.8	8.46e-01	0	51	0	0	53	13378
2026-01-14 02:32:47.71	13.40	2.13	-40.6	-52.3	3.8	8.46e-01	0	51	104	0	52	14186
2026-01-14 02:32:48.72	13.37	2.19	-40.6	-52.3	3.8	8.45e-01	0	51	104	0	52	14162
2026-01-14 02:32:49.73	13.34	2.25	-40.6	-52.3	3.8	8.46e-01	0	51	104	0	52	14207
2026-01-14 02:32:50.74	13.31	2.31	-40.6	-52.3	3.8	8.46e-01	0	52	104	0	52	14198
2026-01-14 02:32:51.75	13.28	2.38	-40.6	-52.4	3.8	8.47e-01	0	52	104	0	52	14215
2026-01-14 02:32:52.76	13.25	2.44	-40.6	-52.3	3.8	8.45e-01	0	52	104	0	52	14200
2026-01-14 02:32:53.77	13.22	2.51	-40.6	-52.3	3.8	8.46e-01	0	52	104	0	52	14173
2026-01-14 02:32:54.78	13.19	2.57	-40.6	-52.4	3.8	8.46e-01	0	52	104	0	52	14227
2026-01-14 02:32:55.79	13.15	2.63	-40.6	-52.3	3.8	8.46e-01	0	52	104	0	52	14199
2026-01-14 02:32:56.81	13.12	2.70	-40.6	-52.3	3.8	8.47e-01	0	52	104	0	52	14181
2026-01-14 02:32:57.82	13.09	2.76	-40.6	-52.3	3.8	8.45e-01	0	52	104	0	52	14168
2026-01-14 02:32:58.83	13.06	2.83	-40.6	-52.3	3.8	8.46e-01	0	52	104	0	52	14160
2026-01-14 02:32:59.84	13.03	2.89	-40.6	-52.3	3.8	8.46e-01	0	52	104	0	52	14197
2026-01-14 02:33:00.85	12.99	2.96	-40.6	-52.3	3.8	8.47e-01	0	52	104	0	52	14176
2026-01-14 02:33:01.86	12.96	3.02	-40.6	-52.3	3.8	8.46e-01	0	52	104	0	52	14183
2026-01-14 02:33:02.87	12.93	3.09	-40.6	-52.3	3.8	8.45e-01	0	52	104	0	52	14177
2026-01-14 02:33:03.89	12.89	3.15	-40.6	-52.3	3.8	8.46e-01	0	53	104	0	52	14117
2026-01-14 02:33:04.90	12.86	3.22	-40.6	-52.3	3.8	8.47e-01	0	53	104	0	52	14173
2026-01-14 02:33:05.91	12.83	3.28	-40.6	-52.3	3.8	8.45e-01	0	53	104	0	52	14122
2026-01-14 02:33:06.92	12.79	3.35	-40.5	-52.3	3.8	8.47e-01	0	53	104	0	52	14124
2026-01-14 02:33:07.93	12.76	3.42	-40.6	-52.3	3.8	8.46e-01	0	53	104	0	52	14154
2026-01-14 02:33:08.94	12.73	3.48	-40.5	-52.3	3.8	8.47e-01	0	53	104	0	52	14092
2026-01-14 02:33:09.95	12.69	3.55	-40.5	-52.2	3.8	8.48e-01	0	53	104	0	52	13991
2026-01-14 02:33:10.96	12.66	3.61	-40.5	-52.2	3.8	8.46e-01	0	53	104	0	52	14039
2026-01-14 02:33:11.97	12.62	3.68	-40.5	-52.2	3.8	8.46e-01	0	53	104	0	52	13971
2026-01-14 02:33:12.98	12.59	3.75	-40.5	-52.1	3.8	8.46e-01	0	53	104	0	52	13852
2026-01-14 02:33:13.99	12.55	3.81	-40.5	-52.1	3.8	8.46e-01	0	53	104	0	52	13763
2026-01-14 02:33:15.00	12.52	3.88	-40.5	-52.0	3.8	8.46e-01	0	54	104	0	52	13711
2026-01-14 02:33:16.02	12.48	3.95	-40.5	-52.0	3.8	8.46e-01	0	54	104	0	52	13723
2026-01-14 02:33:17.03	12.45	4.02	-40.5	-52.0	3.8	8.46e-01	0	53	104	0	52	13673
2026-01-14 02:33:18.04	12.41	4.08	-40.5	-52.0	3.8	8.46e-01	0	54	104	0	52	13652
2026-01-14 02:33:19.05	12.38	4.15	-40.5	-51.9	3.8	8.45e-01	0	54	104	0	52	13495
2026-01-14 02:33:20.06	12.34	4.22	-40.5	-51.9	3.8	8.45e-01	0	54	104	0	52	13493
2026-01-14 02:33:21.07	12.30	4.29	-40.5	-52.0	3.8	8.46e-01	0	54	104	0	52	13582
2026-01-14 02:33:22.08	12.27	4.35	-40.5	-52.0	3.8	8.46e-01	0	54	104	0	52	13647
2026-01-14 02:33:23.10	12.23	4.42	-40.5	-52.0	3.8	8.47e-01	0	54	104	0	52	13585
2026-01-14 02:33:24.11	12.19	4.49	-40.5	-52.0	3.8	8.46e-01	0	54	104	0	52	13628
2026-01-14 02:33:25.12	12.16	4.56	-40.5	-52.0	3.8	8.47e-01	0	54	104	0	52	13709
2026-01-14 02:33:26.13	12.12	4.63	-40.5	-52.0	3.8	8.46e-01	0	54	104	0	52	13696
2026-01-14 02:33:27.14	12.08	4.70	-40.5	-52.2	3.8	8.46e-01	0	54	104	0	52	13915
2026-01-14 02:33:28.15	12.05	4.77	-40.5	-52.2	3.8	8.46e-01	0	54	104	0	52	14005
2026-01-14 02:33:29.16	12.01	4.83	-40.5	-52.2	3.8	8.45e-01	0	54	104	0	52	14010
2026-01-14 02:33:30.17	11.97	4.90	-40.5	-52.2	3.8	8.46e-01	0	54	104	0	52	14042
2026-01-14 02:33:31.18	11.93	4.97	-40.5	-52.3	3.8	8.47e-01	0	54	104	0	52	14169
2026-01-14 02:33:32.19	11.89	5.04	-40.6	-52.3	3.8	8.46e-01	0	54	104	0	52	14178
2026-01-14 02:33:33.20	11.86	5.11	-40.5	-52.3	3.8	8.45e-01	0	54	104	0	52	14087
2026-01-14 02:33:34.21	11.82	5.18	-40.5	-52.3	3.8	8.47e-01	0	54	104	0	52	14066
2026-01-14 02:33:35.22	11.78	5.25	-40.5	-52.2	3.8	8.47e-01	0	54	104	0	52	13924
2026-01-14 02:33:36.23	11.74	5.32	-40.5	-52.1	3.8	8.45e-01	0	55	104	0	52	13732
2026-01-14 02:33:37.25	11.70	5.39	-40.5	-52.0	3.8	8.45e-01	0	55	104	0	52	13603
2026-01-14 02:33:38.26	11.66	5.46	-40.5	-51.8	3.8	8.46e-01	0	55	104	0	52	13400
2026-01-14 02:33:39.27	11.62	5.54	-40.5	-51.7	3.8	8.45e-01	0	55	104	0	52	13139
2026-01-14 02:33:40.28	11.58	5.61	-40.4	-51.4	3.8	8.46e-01	0	55	104	0	52	12731
2026-01-14 02:33:41.29	11.54	5.68	-40.4	-51.2	3.8	8.46e-01	0	55	104	0	52	12478
2026-01-14 02:33:42.30	11.50	5.75	-40.4	-51.2	3.8	8.46e-01	0	55	104	0	52	12383
2026-01-14 02:33:43.31	11.46	5.82	-40.4	-51.0	3.8	8.46e-01	0	55	104	0	52	12106
2026-01-14 02:33:44.32	11.42	5.89	-40.4	-50.8	3.8	8.47e-01	0	55	104	0	52	11916
2026-01-14 02:33:45.33	11.38	5.96	-40.4	-50.8	3.8	8.45e-01	0	55	104	0	52	11909
2026-01-14 02:33:46.34	11.34	6.04	-40.4	-50.8	3.8	8.45e-01	0	55	104	0	52	11902
2026-01-14 02:33:47.35	11.30	6.11	-40.4	-50.8	3.8	8.46e-01	0	55	104	0	52	11884
2026-01-14 02:33:48.36	11.25	6.18	-40.4	-50.8	3.8	8.46e-01	0	55	104	0	52	11851
2026-01-14 02:33:49.37	11.21	6.25	-40.4	-51.0	3.8	8.46e-01	0	55	104	0	52	12203
2026-01-14 02:33:50.38	11.17	6.33	-40.5	-51.3	3.8	8.46e-01	0	55	104	0	52	12522
2026-01-14 02:33:51.40	11.13	6.40	-40.5	-51.4	3.8	8.46e-01	0	55	104	0	52	12744
2026-01-14 02:33:52.41	11.08	6.47	-40.5	-51.5	3.8	8.46e-01	0	55	104	0	52	12901
2026-01-14 02:33:53.42	11.04	6.55	-40.5	-51.7	3.8	8.45e-01	0	55	104	0	52	13201
2026-01-14 02:33:54.43	11.00	6.62	-40.5	-51.9	3.8	8.46e-01	0	55	104	0	52	13467
2026-01-14 02:33:55.44	10.96	6.69	-40.5	-52.0	3.8	8.46e-01	0	56	104	0	52	13660
2026-01-14 02:33:56.45	10.91	6.77	-40.5	-52.1	3.8	8.45e-01	0	56	104	0	52	13754
2026-01-14 02:33:57.46	10.87	6.84	-40.5	-52.2	3.8	8.47e-01	0	55	104	0	52	13924
2026-01-14 02:33:58.47	10.82	6.92	-40.5	-52.3	3.8	8.45e-01	0	56	104	0	52	14064
2026-01-14 02:33:59.49	10.78	6.99	-40.5	-52.2	3.8	8.46e-01	0	56	104	0	52	14029
2026-01-14 02:34:00.49	10.74	7.07	-40.5	-52.2	3.8	8.47e-01	0	56	104	0	52	14004
2026-01-14 02:34:01.51	10.69	7.14	-40.5	-52.2	3.8	8.46e-01	0	56	104	0	52	13945
2026-01-14 02:34:02.52	10.64	7.22	-40.5	-52.2	3.8	8.46e-01	0	56	104	0	52	13965
2026-01-14 02:34:03.53	10.60	7.29	-40.5	-52.2	3.8	8.46e-01	0	56	104	0	52	13933
2026-01-14 02:34:04.54	10.55	7.37	-40.5	-52.1	3.8	8.46e-01	0	56	104	0	52	13877
2026-01-14 02:34:05.55	10.51	7.44	-40.5	-52.1	3.8	8.47e-01	0	56	104	0	52	13780
2026-01-14 02:34:06.56	10.46	7.52	-40.5	-52.0	3.8	8.46e-01	0	56	104	0	52	13703
2026-01-14 02:34:07.57	10.42	7.59	-40.5	-52.0	3.8	8.46e-01	0	56	104	0	52	13705
2026-01-14 02:34:08.58	10.37	7.67	-40.5	-52.1	3.8	8.46e-01	0	56	104	0	52	13795
2026-01-14 02:34:09.60	10.32	7.75	-40.5	-52.1	3.8	8.47e-01	0	56	104	0	52	13823
2026-01-14 02:34:10.61	10.27	7.83	-40.5	-52.1	3.8	8.46e-01	0	56	104	0	52	13758
2026-01-14 02:34:11.62	10.23	7.90	-40.5	-52.1	3.8	8.46e-01	0	56	104	0	52	13733
2026-01-14 02:34:12.63	10.18	7.98	-40.5	-52.0	3.8	8.47e-01	0	56	104	0	52	13671
2026-01-14 02:34:13.64	10.13	8.06	-40.4	-52.2	3.8	8.46e-01	0	56	104	0	52	13969
2026-01-14 02:34:14.65	10.08	8.13	-40.5	-52.3	3.8	8.46e-01	0	56	104	0	52	14135
2026-01-14 02:34:15.66	10.03	8.21	-40.7	-52.3	3.8	8.46e-01	0	56	104	0	52	14079
2026-01-14 02:34:16.67	9.99	8.29	-41.0	-52.4	3.8	8.47e-01	0	56	104	0	52	14255
2026-01-14 02:34:17.68	9.94	8.37	-40.4	-52.2	3.8	8.46e-01	0	56	104	0	52	13973
2026-01-14 02:34:18.69	9.89	8.45	-40.3	-52.0	3.8	8.46e-01	0	56	104	0	52	13691
2026-01-14 02:34:19.70	9.84	8.53	-40.3	-52.0	3.8	8.46e-01	0	57	104	0	52	13638
2026-01-14 02:34:20.71	9.79	8.61	-40.2	-52.0	3.8	8.45e-01	0	56	104	0	52	13570
2026-01-14 02:34:21.72	9.74	8.68	-40.2	-51.9	3.8	8.46e-01	0	57	104	0	52	13438
2026-01-14 02:34:22.73	9.69	8.76	-40.2	-51.9	3.8	8.47e-01	0	57	104	0	52	13517
2026-01-14 02:34:23.74	9.64	8.84	-40.7	-52.3	3.8	8.45e-01	0	57	104	0	52	14154
2026-01-14 02:34:24.75	9.59	8.92	-40.6	-52.5	3.8	8.46e-01	0	57	104	0	52	14399
2026-01-14 02:34:25.75	9.53	9.00	-40.5	-52.3	3.8	8.46e-01	0	57	104	0	52	14070
2026-01-14 02:34:26.76	9.48	9.08	-40.6	-52.4	3.8	8.46e-01	0	57	104	0	52	14314
2026-01-14 02:34:27.78	9.43	9.17	-40.5	-52.2	3.8	8.46e-01	0	57	104	0	52	13955
2026-01-14 02:34:28.78	9.38	9.25	-40.8	-52.6	3.8	8.46e-01	0	57	104	0	52	14646
2026-01-14 02:34:29.80	9.33	9.33	-40.3	-52.1	3.8	8.46e-01	0	57	104	0	52	13798
2026-01-14 02:34:30.81	9.27	9.41	-40.2	-52.0	3.8	8.46e-01	0	57	104	0	52	13609
2026-01-14 02:34:31.82	9.22	9.49	-40.2	-52.0	3.8	8.47e-01	0	57	104	0	52	13595
2026-01-14 02:34:32.82	9.17	9.57	-40.2	-52.0	3.8	8.46e-01	0	57	104	0	52	13600
2026-01-14 02:34:33.83	9.11	9.65	-40.2	-52.0	3.8	8.46e-01	0	57	104	0	52	13627
2026-01-14 02:34:34.84	9.06	9.74	-40.1	-51.7	3.8	8.46e-01	0	57	104	0	52	13198
2026-01-14 02:34:35.85	9.00	9.82	-40.8	-52.6	3.8	8.46e-01	0	57	104	0	52	14667
2026-01-14 02:34:36.86	8.95	9.90	-40.4	-52.3	3.8	8.46e-01	0	57	104	0	52	14056
2026-01-14 02:34:37.87	8.89	9.98	-40.3	-52.1	3.8	8.45e-01	0	57	104	0	52	13736
2026-01-14 02:34:38.88	8.84	10.07	-40.2	-51.8	3.8	8.46e-01	0	57	104	0	52	13353
2026-01-14 02:34:39.89	8.78	10.15	-40.2	-51.7	3.8	8.46e-01	0	57	104	0	52	13144
2026-01-14 02:34:40.90	8.72	10.23	-40.3	-51.8	3.8	8.47e-01	0	57	104	0	52	13268
2026-01-14 02:34:41.91	8.67	10.32	-40.5	-52.3	3.8	8.45e-01	0	57	104	0	52	14150
2026-01-14 02:34:42.92	8.61	10.40	-40.5	-52.3	3.8	8.46e-01	0	57	104	0	52	14161
2026-01-14 02:34:43.93	8.55	10.49	-41.0	-51.7	3.8	8.45e-01	0	57	104	0	52	13133
2026-01-14 02:34:44.94	8.50	10.57	-42.1	-52.7	3.8	8.46e-01	0	57	104	0	54	13188
2026-01-14 02:34:45.95	8.44	10.66	-40.6	-52.0	3.8	8.46e-01	0	57	104	0	53	12957
2026-01-14 02:34:46.96	8.38	10.74	-41.2	-51.6	3.8	8.45e-01	0	57	104	0	53	12289
2026-01-14 02:34:47.97	8.32	10.83	-41.3	-51.3	3.8	8.46e-01	0	57	104	0	53	11936
2026-01-14 02:34:48.98	8.26	10.91	-41.2	-50.9	3.8	8.44e-01	0	57	104	0	53	11356
2026-01-14 02:34:49.99	8.20	11.00	-41.2	-50.4	3.9	8.44e-01	0	58	104	0	53	10737
2026-01-14 02:34:51.00	8.14	11.09	-41.3	-50.1	4.1	8.39e-01	0	57	0	0	53	10382
2026-01-14 02:34:52.01	8.08	11.17	-41.2	-49.4	4.3	8.33e-01	0	57	0	0	53	9538
2026-01-14 02:34:53.01	8.02	11.26	-41.0	-48.4	4.7	8.12e-01	0	58	0	0	53	8492
2026-01-14 02:34:54.03	7.96	11.35	-40.8	-47.4	5.3	7.65e-01	0	58	0	0	53	7601
2026-01-14 02:34:55.03	7.90	11.44	-40.6	-46.5	6.0	4.48e-01	0	58	0	2097152	53	6805
2026-01-14 02:34:56.05	7.84	11.52	-40.3	-45.7	6.6	2.82e-01	0	58	0	7340032	52	6585
2026-01-14 02:34:57.06	7.77	11.61	-40.1	-45.0	7.2	1.64e-01	0	58	0	13631488	52	6070
2026-01-14 02:34:58.07	7.71	11.70	-39.8	-44.2	8.1	9.64e-02	0	58	0	18874368	51	5906
2026-01-14 02:34:59.07	7.65	11.79	-39.5	-43.6	8.7	4.50e-02	0	58	0	25165824	51	5481
2026-01-14 02:35:00.08	7.59	11.88	-39.3	-43.1	9.3	2.75e-02	0	58	0	30408704	50	5495
2026-01-14 02:35:01.09	7.52	11.97	-39.0	-42.6	9.8	1.37e-02	0	58	0	36700160	50	5169
2026-01-14 02:35:02.11	7.46	12.06	-38.8	-42.2	10.2	8.20e-03	0	58	0	41943040	49	5219
2026-01-14 02:35:03.12	7.39	12.15	-38.7	-41.8	10.6	5.48e-03	0	58	0	48234496	49	5041
2026-01-14 02:35:04.13	7.33	12.24	-38.5	-41.5	11.1	2.71e-03	0	58	0	53477376	49	4862
2026-01-14 02:35:05.14	7.26	12.33	-38.4	-41.2	11.5	1.18e-03	0	58	0	58720256	48	4951
2026-01-14 02:35:06.15	7.20	12.42	-38.3	-41.0	11.9	6.68e-04	0	58	0	65011712	48	4815
2026-01-14 02:35:07.16	7.13	12.51	-38.4	-41.2	11.7	7.04e-04	0	58	0	70254592	48	4929
2026-01-14 02:35:08.17	7.06	12.60	-38.5	-41.3	11.6	1.01e-03	0	58	0	76546048	48	5016
2026-01-14 02:35:09.18	7.00	12.69	-38.5	-41.3	11.7	9.06e-04	0	58	0	81788928	48	4987
2026-01-14 02:35:10.19	6.93	12.78	-38.5	-41.2	11.8	6.63e-04	0	58	0	87031808	48	4944
2026-01-14 02:35:11.20	6.86	12.88	-38.7	-41.5	11.5	8.34e-04	0	58	0	93323264	48	5130
2026-01-14 02:35:12.21	6.79	12.97	-39.0	-42.0	11.0	1.91e-03	0	58	0	98566144	48	5421
2026-01-14 02:35:13.22	6.72	13.06	-39.1	-42.1	10.9	2.94e-03	0	58	0	104857600	48	5528
2026-01-14 02:35:14.23	6.65	13.16	-39.0	-42.0	11.2	2.02e-03	0	58	0	110100480	48	5422
2026-01-14 02:35:15.24	6.58	13.25	-38.9	-41.7	11.6	1.30e-03	0	58	0	115343360	48	5245
2026-01-14 02:35:16.25	6.51	13.34	-38.7	-41.3	12.0	5.89e-04	0	58	0	121634816	48	5039
2026-01-14 02:35:17.26	6.44	13.44	-38.6	-41.2	12.2	4.12e-04	0	58	0	126877696	48	4929
2026-01-14 02:35:18.27	6.37	13.53	-38.6	-41.2	12.2	3.46e-04	0	58	0	133169152	48	4954
2026-01-14 02:35:19.28	6.30	13.63	-38.8	-41.4	12.0	4.47e-04	0	58	0	138412032	48	5088
2026-01-14 02:35:20.29	6.23	13.72	-39.0	-41.6	11.8	5.74e-04	0	58	0	144703488	48	5216
2026-01-14 02:35:21.30	6.15	13.82	-38.8	-41.4	12.1	4.49e-04	0	58	0	149946368	48	5078
2026-01-14 02:35:22.31	6.08	13.91	-38.8	-41.3	12.3	2.82e-04	0	58	0	156237824	48	5022
2026-01-14 02:35:23.32	6.01	14.01	-38.7	-41.2	12.5	2.02e-04	0	58	0	161480704	48	4971
2026-01-14 02:35:24.33	5.93	14.11	-38.8	-41.3	12.5	1.79e-04	0	58	0	166723584	48	5004
2026-01-14 02:35:25.34	5.86	14.20	-38.9	-41.4	12.4	2.32e-04	0	58	0	173015040	48	5085
2026-01-14 02:35:26.35	5.78	14.30	-38.8	-41.3	12.6	1.96e-04	0	58	0	178257920	48	5010
2026-01-14 02:35:27.36	5.70	14.40	-38.7	-41.1	12.8	1.17e-04	0	58	0	184549376	48	4887
2026-01-14 02:35:28.37	5.63	14.49	-38.8	-41.2	12.7	1.23e-04	0	58	0	189792256	48	4969
2026-01-14 02:35:29.38	5.55	14.59	-38.9	-41.3	12.5	1.46e-04	0	58	0	195035136	48	5041
2026-01-14 02:35:30.39	5.47	14.69	-38.7	-41.1	12.9	9.26e-05	0	58	0	201326592	48	4908
2026-01-14 02:35:31.41	5.39	14.79	-38.6	-40.9	13.0	6.06e-05	0	59	0	206569472	48	4812
2026-01-14 02:35:32.42	5.32	14.89	-38.5	-40.9	13.2	6.17e-05	0	58	0	212860928	48	4764
2026-01-14 02:35:33.43	5.24	14.99	-38.6	-40.9	13.1	2.97e-05	0	58	0	218103808	48	4786
2026-01-14 02:35:34.44	5.16	15.09	-38.6	-40.9	13.1	3.89e-05	0	58	0	223346688	48	4797
2026-01-14 02:35:35.45	5.08	15.19	-38.5	-40.8	13.3	2.86e-05	0	58	0	229638144	48	4722
2026-01-14 02:35:36.46	5.00	15.29	-38.4	-40.6	13.6	2.17e-05	0	58	0	234881024	48	4628
2026-01-14 02:35:37.47	4.91	15.39	-38.5	-40.7	13.5	1.71e-05	0	59	0	241172480	48	4666
2026-01-14 02:35:38.48	4.83	15.49	-38.5	-40.7	13.5	1.37e-05	0	58	0	246415360	48	4654
2026-01-14 02:35:39.49	4.75	15.59	-38.5	-40.6	13.6	1.83e-05	0	58	0	252706816	48	4641
2026-01-14 02:35:40.50	4.67	15.70	-38.3	-40.5	13.7	1.14e-05	0	58	0	257949696	48	4563
2026-01-14 02:35:41.51	4.58	15.80	-38.5	-40.6	13.6	1.48e-05	0	58	0	264241152	48	4645
2026-01-14 02:35:42.52	4.50	15.90	-38.4	-40.6	13.7	8.00e-06	0	59	0	269484032	48	4634
2026-01-14 02:35:43.53	4.41	16.00	-38.4	-40.5	13.8	5.70e-06	0	59	0	274726912	48	4595
2026-01-14 02:35:44.53	4.33	16.11	-38.4	-40.6	13.8	6.80e-06	0	58	0	281018368	48	4602
2026-01-14 02:35:45.54	4.24	16.21	-38.5	-40.6	13.7	2.20e-06	0	58	0	286261248	48	4646
2026-01-14 02:35:46.55	4.16	16.32	-38.4	-40.5	13.8	5.70e-06	0	59	0	292552704	48	4569
2026-01-14 02:35:47.56	4.07	16.42	-38.4	-40.5	13.8	6.80e-06	0	59	0	297795584	48	4595
2026-01-14 02:35:48.57	3.98	16.52	-38.4	-40.6	13.8	1.37e-05	0	59	0	303038464	48	4599
2026-01-14 02:35:49.59	3.89	16.63	-38.4	-40.5	13.9	2.20e-06	0	59	0	309329920	48	4561
2026-01-14 02:35:50.59	3.80	16.74	-38.5	-40.6	13.7	5.70e-06	0	59	0	314572800	48	4624
2026-01-14 02:35:51.60	3.71	16.84	-38.3	-40.3	14.1	5.70e-06	0	59	0	320864256	48	4484
2026-01-14 02:35:52.61	3.62	16.95	-38.4	-40.5	13.9	9.10e-06	0	59	0	326107136	48	4584
2026-01-14 02:35:53.62	3.53	17.06	-38.3	-40.3	14.1	2.20e-06	0	59	0	331350016	48	4476
2026-01-14 02:35:54.63	3.44	17.16	-38.4	-40.5	14.0	1.02e-05	0	59	0	337641472	48	4580
2026-01-14 02:35:55.64	3.35	17.27	-38.3	-40.3	14.1	4.50e-06	0	59	0	342884352	48	4489
2026-01-14 02:35:56.65	3.25	17.38	-38.4	-40.4	14.1	4.50e-06	0	59	0	349175808	48	4530
2026-01-14 02:35:57.66	3.16	17.49	-38.2	-40.2	14.3	2.20e-06	0	59	0	354418688	48	4434
2026-01-14 02:35:58.67	3.06	17.60	-38.3	-40.3	14.3	0.00e+00	0	59	0	360710144	48	4452
2026-01-14 02:35:59.68	2.97	17.71	-38.2	-40.2	14.4	0.00e+00	0	59	0	365953024	48	4430
2026-01-14 02:36:00.68	2.87	17.81	-38.2	-40.2	14.5	1.10e-06	0	59	0	371195904	48	4393
2026-01-14 02:36:01.69	2.77	17.92	-38.2	-40.2	14.5	0.00e+00	0	59	0	377487360	48	4400
2026-01-14 02:36:02.70	2.68	18.03	-38.1	-40.1	14.6	1.10e-06	0	59	0	382730240	48	4353
2026-01-14 02:36:03.71	2.58	18.15	-38.1	-40.1	14.6	2.20e-06	0	59	0	389021696	48	4362
2026-01-14 02:36:04.73	2.48	18.26	-38.1	-40.1	14.6	0.00e+00	0	59	0	394264576	48	4343
2026-01-14 02:36:05.73	2.38	18.37	-38.2	-40.1	14.5	0.00e+00	0	59	0	399507456	48	4372
2026-01-14 02:36:06.75	2.28	18.48	-38.2	-40.1	14.6	0.00e+00	0	59	0	405798912	48	4367
2026-01-14 02:36:07.76	2.18	18.59	-38.2	-40.1	14.6	1.10e-06	0	59	0	411041792	48	4379
2026-01-14 02:36:08.77	2.07	18.71	-38.2	-40.1	14.6	0.00e+00	0	59	0	417333248	48	4370
2026-01-14 02:36:09.77	1.97	18.82	-38.2	-40.1	14.6	1.10e-06	0	59	0	422576128	48	4359
2026-01-14 02:36:10.78	1.87	18.93	-38.2	-40.1	14.6	0.00e+00	0	59	0	427819008	48	4369
2026-01-14 02:36:11.79	1.76	19.05	-38.2	-40.1	14.6	1.10e-06	0	59	0	434110464	48	4388
2026-01-14 02:36:12.80	1.66	19.16	-38.2	-40.1	14.6	0.00e+00	0	59	0	439353344	48	4387
2026-01-14 02:36:13.81	1.55	19.28	-38.1	-40.0	14.7	0.00e+00	0	59	0	445644800	48	4339
2026-01-14 02:36:14.82	1.44	19.39	-38.1	-40.1	14.7	2.20e-06	0	59	0	450887680	48	4343
2026-01-14 02:36:15.83	1.34	19.51	-38.1	-40.0	14.8	0.00e+00	0	59	0	457179136	48	4310
2026-01-14 02:36:16.84	1.23	19.63	-38.0	-39.9	14.9	0.00e+00	0	59	0	462422016	48	4289
2026-01-14 02:36:17.85	1.12	19.74	-37.9	-39.8	14.9	0.00e+00	0	59	0	467664896	47	4443
2026-01-14 02:36:18.86	1.01	19.86	-37.8	-39.7	15.0	1.10e-06	0	59	0	473956352	47	4395
2026-01-14 02:36:19.86	0.90	19.98	-37.8	-39.6	15.1	1.10e-06	0	59	0	479199232	47	4373
2026-01-14 02:36:20.87	0.78	20.10	-37.8	-39.6	15.1	0.00e+00	0	59	0	485490688	47	4368
2026-01-14 02:36:21.89	0.67	20.22	-37.7	-39.6	15.2	0.00e+00	0	59	0	490733568	47	4346
2026-01-14 02:36:22.89	0.56	20.33	-37.7	-39.5	15.3	0.00e+00	0	59	0	495976448	47	4305
2026-01-14 02:36:23.90	0.44	20.45	-37.6	-39.4	15.3	0.00e+00	0	59	0	502267904	47	4271
2026-01-14 02:36:24.92	0.32	20.57	-37.6	-39.4	15.3	0.00e+00	0	59	0	507510784	47	4267
2026-01-14 02:36:25.93	0.21	20.69	-37.6	-39.4	15.3	0.00e+00	0	59	0	513802240	47	4280
2026-01-14 02:36:26.94	0.09	20.82	-37.6	-39.4	15.4	0.00e+00	0	59	0	519045120	47	4262
2026-01-14 02:36:27.95	359.97	20.94	-37.6	-39.4	15.4	0.00e+00	0	59	0	524288000	47	4249
2026-01-14 02:36:28.96	359.85	21.06	-37.6	-39.3	15.4	0.00e+00	0	59	0	530579456	47	4234
2026-01-14 02:36:29.97	359.73	21.18	-37.6	-39.4	15.3	0.00e+00	0	59	0	535822336	47	4271
2026-01-14 02:36:30.98	359.61	21.30	-37.6	-39.4	15.4	1.10e-06	0	59	0	542113792	47	4272
2026-01-14 02:36:31.99	359.48	21.43	-37.6	-39.4	15.4	0.00e+00	0	59	0	547356672	47	4274
2026-01-14 02:36:33.00	359.36	21.55	-37.6	-39.4	15.3	0.00e+00	0	59	0	553648128	47	4261
2026-01-14 02:36:34.01	359.24	21.67	-37.5	-39.3	15.4	0.00e+00	0	59	0	558891008	47	4230
2026-01-14 02:36:35.02	359.11	21.80	-37.5	-39.3	15.4	0.00e+00	0	59	0	565182464	47	4242
2026-01-14 02:36:36.03	358.98	21.92	-37.5	-39.3	15.5	0.00e+00	0	59	0	570425344	47	4214
2026-01-14 02:36:37.04	358.85	22.05	-37.4	-39.2	15.6	0.00e+00	0	59	0	575668224	46	4415
2026-01-14 02:36:38.05	358.72	22.18	-37.4	-39.1	15.6	0.00e+00	0	59	0	581959680	46	4373
2026-01-14 02:36:39.06	358.59	22.30	-37.3	-39.1	15.7	0.00e+00	0	59	0	587202560	46	4351
2026-01-14 02:36:40.07	358.46	22.43	-37.3	-39.0	15.8	0.00e+00	0	59	0	593494016	46	4315
2026-01-14 02:36:41.08	358.33	22.56	-37.2	-38.9	15.8	0.00e+00	0	59	0	598736896	46	4291
2026-01-14 02:36:42.09	358.20	22.68	-37.2	-38.9	15.9	0.00e+00	0	59	0	603979776	46	4254
2026-01-14 02:36:43.10	358.06	22.81	-37.2	-38.9	15.9	0.00e+00	0	59	0	610271232	46	4256
2026-01-14 02:36:44.11	357.93	22.94	-37.1	-38.8	16.0	0.00e+00	0	59	0	615514112	46	4214
2026-01-14 02:36:45.12	357.79	23.07	-37.1	-38.7	16.0	0.00e+00	0	59	0	621805568	46	4192
2026-01-14 02:36:46.13	357.65	23.20	-37.0	-38.7	16.1	0.00e+00	0	59	0	627048448	46	4187
2026-01-14 02:36:47.14	357.51	23.33	-37.1	-38.8	16.0	0.00e+00	0	59	0	632291328	46	4207
2026-01-14 02:36:48.15	357.37	23.46	-37.1	-38.8	16.0	0.00e+00	0	59	0	638582784	46	4218
2026-01-14 02:36:49.16	357.23	23.59	-37.1	-38.8	16.0	0.00e+00	0	59	0	643825664	46	4217
2026-01-14 02:36:50.17	357.09	23.72	-37.1	-38.8	16.0	0.00e+00	0	59	0	650117120	46	4233
2026-01-14 02:36:51.18	356.94	23.86	-37.1	-38.8	15.9	0.00e+00	0	60	0	655360000	46	4240
2026-01-14 02:36:52.19	356.80	23.99	-37.1	-38.8	16.0	0.00e+00	0	59	0	661651456	46	4225
2026-01-14 02:36:53.20	356.65	24.12	-37.1	-38.7	16.1	0.00e+00	0	59	0	666894336	46	4189
2026-01-14 02:36:54.21	356.50	24.26	-37.0	-38.7	16.1	0.00e+00	0	59	0	673185792	46	4172
2026-01-14 02:36:55.22	356.35	24.39	-36.9	-38.6	16.2	0.00e+00	0	60	0	678428672	45	4353
2026-01-14 02:36:56.23	356.20	24.52	-36.9	-38.5	16.3	0.00e+00	0	60	0	683671552	45	4326
2026-01-14 02:36:57.24	356.05	24.66	-36.9	-38.5	16.3	0.00e+00	0	60	0	689963008	45	4310
2026-01-14 02:36:58.25	355.90	24.79	-36.8	-38.4	16.4	0.00e+00	0	59	0	695205888	45	4279
2026-01-14 02:36:59.26	355.74	24.93	-36.8	-38.4	16.4	0.00e+00	0	59	0	701497344	45	4282
2026-01-14 02:37:00.27	355.59	25.07	-36.8	-38.5	16.4	0.00e+00	0	59	0	706740224	45	4303
2026-01-14 02:37:01.28	355.43	25.20	-36.9	-38.6	16.3	0.00e+00	0	59	0	711983104	45	4344
2026-01-14 02:37:02.29	355.27	25.34	-36.9	-38.6	16.3	0.00e+00	0	60	0	718274560	45	4360
2026-01-14 02:37:03.30	355.11	25.48	-37.0	-38.6	16.2	0.00e+00	0	60	0	723517440	45	4383
2026-01-14 02:37:04.31	354.95	25.62	-36.9	-38.6	16.3	0.00e+00	0	60	0	729808896	45	4362
2026-01-14 02:37:05.33	354.78	25.76	-36.9	-38.5	16.3	0.00e+00	0	60	0	735051776	45	4340
2026-01-14 02:37:06.34	354.62	25.90	-36.9	-38.5	16.4	0.00e+00	0	59	0	740294656	45	4322
2026-01-14 02:37:07.35	354.45	26.04	-36.7	-38.3	16.6	0.00e+00	0	60	0	746586112	45	4216
2026-01-14 02:37:08.36	354.29	26.18	-36.6	-38.2	16.7	0.00e+00	0	60	0	751828992	45	4177
2026-01-14 02:37:09.37	354.12	26.32	-36.6	-38.2	16.8	0.00e+00	0	60	0	758120448	45	4147
2026-01-14 02:37:10.38	353.95	26.46	-36.5	-38.1	16.8	0.00e+00	0	59	0	763363328	45	4110
2026-01-14 02:37:11.39	353.78	26.60	-36.6	-38.1	16.8	0.00e+00	0	60	0	769654784	45	4128
2026-01-14 02:37:12.40	353.60	26.74	-36.6	-38.2	16.8	0.00e+00	0	60	0	774897664	45	4149
2026-01-14 02:37:13.41	353.43	26.88	-36.6	-38.2	16.8	0.00e+00	0	60	0	781189120	45	4175
2026-01-14 02:37:14.42	353.25	27.03	-36.6	-38.2	16.7	0.00e+00	0	60	0	786432000	45	4187
2026-01-14 02:37:15.43	353.07	27.17	-36.7	-38.3	16.7	0.00e+00	0	60	0	791674880	45	4203
2026-01-14 02:37:16.44	352.89	27.31	-36.7	-38.3	16.7	0.00e+00	0	60	0	797966336	45	4222
2026-01-14 02:37:17.45	352.71	27.46	-36.8	-38.4	16.6	0.00e+00	0	60	0	803209216	45	4250
2026-01-14 02:37:18.46	352.53	27.60	-36.8	-38.3	16.7	0.00e+00	0	60	0	809500672	45	4239
2026-01-14 02:37:19.46	352.34	27.74	-36.7	-38.2	16.8	0.00e+00	0	60	0	814743552	45	4179
2026-01-14 02:37:20.47	352.15	27.89	-36.7	-38.2	16.8	0.00e+00	0	60	0	819986432	45	4184
2026-01-14 02:37:21.48	351.97	28.04	-36.6	-38.2	16.8	0.00e+00	0	60	0	826277888	45	4159
2026-01-14 02:37:22.50	351.77	28.18	-36.5	-38.1	16.9	0.00e+00	0	60	0	831520768	45	4111
2026-01-14 02:37:23.50	351.58	28.33	-36.4	-37.9	17.1	0.00e+00	0	60	0	837812224	44	4276
2026-01-14 02:37:24.52	351.39	28.48	-36.3	-37.9	17.2	0.00e+00	0	60	0	843055104	44	4249
2026-01-14 02:37:25.53	351.19	28.63	-36.4	-37.9	17.1	0.00e+00	0	60	0	848297984	44	4284
2026-01-14 02:37:26.54	350.99	28.77	-36.5	-38.0	17.0	0.00e+00	0	60	0	854589440	44	4331
2026-01-14 02:37:27.54	350.80	28.92	-36.6	-38.2	16.9	0.00e+00	0	60	0	859832320	44	4397
2026-01-14 02:37:28.55	350.59	29.07	-36.7	-38.3	16.8	0.00e+00	0	60	0	866123776	44	4455
2026-01-14 02:37:29.57	350.39	29.22	-36.8	-38.4	16.7	0.00e+00	0	60	0	871366656	44	4495
2026-01-14 02:37:30.58	350.18	29.37	-36.8	-38.4	16.7	0.00e+00	0	60	0	877658112	44	4506
2026-01-14 02:37:31.59	349.98	29.52	-36.8	-38.4	16.7	0.00e+00	0	60	0	882900992	44	4509
2026-01-14 02:37:32.60	349.77	29.67	-36.7	-38.3	16.8	0.00e+00	0	60	0	888143872	44	4458
2026-01-14 02:37:33.61	349.56	29.82	-36.7	-38.2	16.9	0.00e+00	0	60	0	894435328	44	4417
2026-01-14 02:37:34.62	349.34	29.97	-36.6	-38.1	17.0	0.00e+00	0	60	0	899678208	44	4378
2026-01-14 02:37:35.62	349.13	30.12	-36.6	-38.1	17.0	0.00e+00	0	60	0	905969664	44	4361
2026-01-14 02:37:36.63	348.91	30.27	-36.6	-38.1	17.0	0.00e+00	0	60	0	911212544	44	4370
2026-01-14 02:37:37.64	348.69	30.42	-36.6	-38.1	17.0	0.00e+00	0	60	0	916455424	44	4359
2026-01-14 02:37:38.65	348.47	30.58	-36.6	-38.1	17.0	0.00e+00	0	60	0	922746880	44	4383
2026-01-14 02:37:39.66	348.25	30.73	-36.6	-38.1	17.1	0.00e+00	0	60	0	927989760	44	4358
2026-01-14 02:37:40.67	348.02	30.88	-36.4	-37.9	17.2	0.00e+00	0	60	0	934281216	44	4285
2026-01-14 02:37:41.68	347.79	31.03	-36.3	-37.8	17.4	0.00e+00	0	60	0	939524096	44	4226
2026-01-14 02:37:42.69	347.56	31.19	-36.2	-37.7	17.5	0.00e+00	0	60	0	944766976	44	4162
2026-01-14 02:37:43.70	347.33	31.34	-36.1	-37.6	17.6	0.00e+00	0	60	0	951058432	44	4116
2026-01-14 02:37:44.71	347.10	31.50	-36.2	-37.7	17.5	0.00e+00	0	60	0	956301312	44	4153
2026-01-14 02:37:45.72	346.86	31.65	-36.3	-37.8	17.4	0.00e+00	0	60	0	962592768	44	4225
2026-01-14 02:37:46.73	346.62	31.81	-36.4	-37.9	17.3	0.00e+00	0	60	0	967835648	44	4271
2026-01-14 02:37:47.74	346.38	31.96	-36.4	-37.9	17.3	0.00e+00	0	60	0	974127104	44	4271
2026-01-14 02:37:48.75	346.14	32.12	-36.4	-37.9	17.3	0.00e+00	0	60	0	979369984	44	4264
2026-01-14 02:37:49.76	345.89	32.27	-36.4	-37.8	17.3	0.00e+00	0	60	0	985661440	44	4241
2026-01-14 02:37:50.77	345.64	32.43	-36.3	-37.8	17.4	0.00e+00	0	60	0	990904320	44	4225
2026-01-14 02:37:51.78	345.39	32.58	-36.3	-37.8	17.4	0.00e+00	0	60	0	996147200	44	4204
2026-01-14 02:37:52.79	345.14	32.74	-36.3	-37.7	17.4	0.00e+00	0	60	0	1002438656	44	4190
2026-01-14 02:37:53.80	344.88	32.89	-36.2	-37.7	17.5	0.00e+00	0	60	0	1007681536	44	4172
2026-01-14 02:37:54.81	344.62	33.05	-36.3	-37.8	17.4	0.00e+00	0	60	0	1013972992	44	4200
2026-01-14 02:37:55.82	344.36	33.21	-36.4	-37.9	17.3	0.00e+00	0	60	0	1019215872	44	4243
2026-01-14 02:37:56.83	344.10	33.36	-36.4	-37.9	17.3	0.00e+00	0	60	0	1024458752	44	4287
2026-01-14 02:37:57.84	343.83	33.52	-36.4	-37.9	17.3	0.00e+00	0	60	0	1030750208	44	4268
2026-01-14 02:37:58.85	343.56	33.68	-36.4	-37.9	17.4	0.00e+00	0	60	0	1035993088	44	4248
2026-01-14 02:37:59.86	343.29	33.83	-36.4	-37.8	17.4	0.00e+00	0	60	0	1042284544	44	4232
2026-01-14 02:38:00.86	343.02	33.99	-36.4	-37.9	17.4	0.00e+00	0	60	0	1047527424	44	4253
2026-01-14 02:38:01.87	342.74	34.14	-36.4	-37.9	17.3	0.00e+00	0	60	0	1052770304	44	4265
2026-01-14 02:38:02.89	342.46	34.30	-36.5	-38.0	17.2	0.00e+00	0	60	0	1059061760	44	4312
2026-01-14 02:38:03.89	342.18	34.46	-36.5	-38.0	17.3	0.00e+00	0	60	0	1064304640	44	4299
2026-01-14 02:38:04.90	341.90	34.61	-36.4	-37.9	17.4	0.00e+00	0	60	0	1070596096	44	4269
2026-01-14 02:38:05.91	341.61	34.77	-36.3	-37.8	17.4	0.00e+00	0	60	0	1075838976	44	4222
2026-01-14 02:38:06.92	341.32	34.93	-36.3	-37.8	17.5	0.00e+00	0	60	0	1082130432	44	4199
2026-01-14 02:38:07.93	341.02	35.08	-36.2	-37.7	17.6	0.00e+00	0	60	0	1087373312	44	4168
2026-01-14 02:38:08.94	340.73	35.24	-36.2	-37.6	17.6	0.00e+00	0	60	0	1092616192	44	4140
2026-01-14 02:38:09.96	340.43	35.40	-36.2	-37.6	17.6	0.00e+00	0	60	0	1098907648	44	4134
2026-01-14 02:38:10.96	340.13	35.55	-36.3	-37.7	17.6	0.00e+00	0	60	0	1104150528	44	4176
2026-01-14 02:38:11.97	339.82	35.71	-36.3	-37.8	17.5	0.00e+00	0	60	0	1110441984	44	4207
2026-01-14 02:38:12.98	339.51	35.87	-36.3	-37.8	17.5	0.00e+00	0	60	0	1115684864	44	4202
2026-01-14 02:38:13.99	339.20	36.02	-36.2	-37.7	17.6	0.00e+00	0	60	0	1120927744	44	4162
2026-01-14 02:38:15.00	338.89	36.18	-36.1	-37.6	17.7	0.00e+00	0	60	0	1127219200	44	4102
2026-01-14 02:38:16.00	338.58	36.33	-36.2	-37.6	17.7	0.00e+00	0	60	0	1132462080	44	4123
2026-01-14 02:38:17.01	338.26	36.49	-36.3	-37.7	17.6	0.00e+00	0	60	0	1138753536	44	4179
2026-01-14 02:38:18.03	337.93	36.64	-36.3	-37.8	17.5	0.00e+00	0	60	0	1143996416	44	4221
2026-01-14 02:38:19.04	337.60	36.80	-36.3	-37.8	17.5	0.00e+00	0	60	0	1149239296	44	4217
2026-01-14 02:38:20.05	337.27	36.95	-36.3	-37.7	17.6	0.00e+00	0	60	0	1155530752	44	4183
2026-01-14 02:38:21.06	336.94	37.11	-36.3	-37.7	17.6	0.00e+00	0	60	0	1160773632	44	4169
2026-01-14 02:38:22.07	336.60	37.26	-36.2	-37.6	17.7	0.00e+00	0	60	0	1167065088	44	4132
2026-01-14 02:38:23.08	336.27	37.41	-36.2	-37.6	17.7	0.00e+00	0	60	0	1172307968	44	4118
2026-01-14 02:38:24.09	335.92	37.56	-36.2	-37.6	17.7	0.00e+00	0	60	0	1178599424	44	4135
2026-01-14 02:38:25.10	335.58	37.72	-36.3	-37.7	17.6	0.00e+00	0	60	0	1183842304	44	4172
2026-01-14 02:38:26.11	335.23	37.87	-36.4	-37.8	17.5	0.00e+00	0	60	0	1190133760	44	4241
2026-01-14 02:38:27.12	334.88	38.02	-36.4	-37.8	17.5	0.00e+00	0	60	0	1195376640	44	4232
2026-01-14 02:38:28.13	334.52	38.17	-36.4	-37.8	17.5	0.00e+00	0	60	0	1200619520	44	4223
2026-01-14 02:38:29.14	334.16	38.32	-36.3	-37.7	17.6	0.00e+00	0	60	0	1206910976	44	4183
2026-01-14 02:38:30.15	333.80	38.47	-36.3	-37.7	17.6	0.00e+00	0	60	0	1212153856	44	4184
2026-01-14 02:38:31.16	333.44	38.62	-36.4	-37.8	17.5	0.00e+00	0	60	0	1218445312	44	4241
2026-01-14 02:38:32.17	333.07	38.76	-36.5	-37.9	17.4	0.00e+00	0	60	0	1223688192	44	4281
2026-01-14 02:38:33.18	332.70	38.91	-36.5	-37.9	17.3	0.00e+00	0	60	0	1228931072	44	4288
2026-01-14 02:38:34.19	332.32	39.06	-36.4	-37.9	17.4	0.00e+00	0	60	0	1235222528	44	4255
2026-01-14 02:38:35.20	331.94	39.20	-36.5	-38.0	17.3	0.00e+00	0	60	0	1240465408	44	4303
2026-01-14 02:38:36.21	331.56	39.35	-36.5	-38.0	17.3	0.00e+00	0	60	0	1246756864	44	4317
2026-01-14 02:38:37.22	331.17	39.49	-36.5	-38.0	17.3	0.00e+00	0	60	0	1251999744	44	4310
2026-01-14 02:38:38.22	330.79	39.63	-36.5	-38.0	17.3	0.00e+00	0	60	0	1257242624	44	4298
2026-01-14 02:38:39.23	330.39	39.78	-36.5	-37.9	17.3	0.00e+00	0	60	0	1263534080	44	4278
2026-01-14 02:38:40.24	330.00	39.92	-36.4	-37.9	17.4	0.00e+00	0	60	0	1268776960	44	4279
2026-01-14 02:38:41.25	329.60	40.06	-36.4	-37.9	17.4	0.00e+00	0	60	0	1275068416	44	4247
2026-01-14 02:38:42.26	329.20	40.20	-36.5	-37.9	17.4	0.00e+00	0	60	0	1280311296	44	4283
2026-01-14 02:38:43.28	328.79	40.34	-36.5	-37.9	17.4	0.00e+00	0	60	0	1286602752	44	4279
2026-01-14 02:38:44.29	328.38	40.47	-36.4	-37.9	17.4	0.00e+00	0	60	0	1291845632	44	4280
2026-01-14 02:38:45.30	327.96	40.61	-36.4	-37.8	17.5	0.00e+00	0	60	0	1298137088	44	4237
2026-01-14 02:38:46.31	327.54	40.74	-36.3	-37.8	17.5	0.00e+00	0	60	0	1303379968	44	4204
2026-01-14 02:38:47.32	327.12	40.88	-36.3	-37.8	17.5	0.00e+00	0	60	0	1308622848	44	4217
2026-01-14 02:38:48.33	326.70	41.01	-36.2	-37.7	17.6	0.00e+00	0	60	0	1314914304	44	4163
2026-01-14 02:38:49.34	326.27	41.14	-36.1	-37.6	17.7	0.00e+00	0	60	0	1320157184	44	4112
2026-01-14 02:38:50.35	325.84	41.27	-36.1	-37.5	17.8	0.00e+00	0	60	0	1326448640	44	4077
2026-01-14 02:38:51.36	325.41	41.40	-36.1	-37.5	17.8	0.00e+00	0	60	0	1331691520	44	4079
2026-01-14 02:38:52.37	324.97	41.52	-36.0	-37.4	17.9	0.00e+00	0	60	0	1336934400	44	4049
2026-01-14 02:38:53.38	324.53	41.65	-36.1	-37.5	17.8	0.00e+00	0	60	0	1343225856	44	4080
2026-01-14 02:38:54.39	324.08	41.77	-36.2	-37.6	17.6	0.00e+00	0	60	0	1348468736	44	4135
2026-01-14 02:38:55.40	323.63	41.89	-36.2	-37.7	17.6	0.00e+00	0	60	0	1354760192	44	4154
2026-01-14 02:38:56.41	323.18	42.01	-36.1	-37.5	17.8	0.00e+00	0	60	0	1360003072	44	4085
2026-01-14 02:38:57.42	322.73	42.13	-36.0	-37.5	17.8	0.00e+00	0	60	0	1365245952	44	4057
2026-01-14 02:38:58.43	322.27	42.25	-36.2	-37.6	17.7	0.00e+00	0	60	0	1371537408	44	4137
2026-01-14 02:38:59.44	321.81	42.36	-36.3	-37.7	17.5	0.00e+00	0	60	0	1376780288	44	4193
2026-01-14 02:39:00.45	321.34	42.48	-36.2	-37.7	17.6	0.00e+00	0	60	0	1383071744	44	4154
2026-01-14 02:39:01.46	320.87	42.59	-36.2	-37.6	17.6	0.00e+00	0	60	0	1388314624	44	4139
2026-01-14 02:39:02.47	320.40	42.70	-36.2	-37.6	17.7	0.00e+00	0	60	0	1394606080	44	4116
2026-01-14 02:39:03.48	319.93	42.81	-36.0	-37.4	17.9	0.00e+00	0	60	0	1399848960	44	4010
2026-01-14 02:39:04.49	319.45	42.91	-35.7	-37.1	18.0	0.00e+00	0	60	0	1405091840	43	4120
2026-01-14 02:39:05.50	318.97	43.02	-35.7	-37.0	18.1	0.00e+00	0	60	0	1411383296	43	4095
2026-01-14 02:39:06.51	318.48	43.12	-35.7	-37.1	18.0	0.00e+00	0	60	0	1416626176	43	4134
2026-01-14 02:39:07.52	318.00	43.22	-35.7	-37.1	18.0	0.00e+00	0	60	0	1422917632	43	4122
2026-01-14 02:39:08.53	317.50	43.32	-35.7	-37.1	18.0	0.00e+00	0	60	0	1428160512	43	4113
2026-01-14 02:39:09.54	317.01	43.41	-35.8	-37.2	17.9	0.00e+00	0	60	0	1433403392	43	4183
2026-01-14 02:39:10.55	316.51	43.51	-36.0	-37.4	17.7	0.00e+00	0	60	0	1439694848	43	4275
2026-01-14 02:39:11.56	316.02	43.60	-36.1	-37.5	17.6	0.00e+00	0	60	0	1444937728	43	4324
2026-01-14 02:39:12.57	315.51	43.69	-36.0	-37.4	17.7	0.00e+00	0	60	0	1451229184	43	4290
2026-01-14 02:39:13.58	315.01	43.77	-35.9	-37.3	17.8	0.00e+00	0	60	0	1456472064	43	4233
2026-01-14 02:39:14.59	314.50	43.86	-35.8	-37.2	17.9	0.00e+00	0	60	0	1461714944	43	4156
2026-01-14 02:39:15.60	313.99	43.94	-35.8	-37.2	18.0	0.00e+00	0	61	0	1468006400	43	4147
2026-01-14 02:39:16.61	313.48	44.02	-35.8	-37.1	18.0	0.00e+00	0	61	0	1473249280	43	4144
2026-01-14 02:39:17.62	312.96	44.10	-35.8	-37.2	17.9	0.00e+00	0	60	0	1479540736	43	4174
2026-01-14 02:39:18.62	312.45	44.17	-35.9	-37.3	17.8	0.00e+00	0	60	0	1484783616	43	4198
2026-01-14 02:39:19.63	311.93	44.24	-35.9	-37.4	17.8	0.00e+00	0	60	0	1491075072	43	4244
2026-01-14 02:39:20.64	311.40	44.31	-36.0	-37.5	17.6	0.00e+00	0	60	0	1496317952	43	4301
2026-01-14 02:39:21.65	310.88	44.38	-36.2	-37.6	17.5	0.00e+00	0	60	0	1502609408	43	4383
2026-01-14 02:39:22.66	310.35	44.45	-36.3	-37.7	17.4	0.00e+00	0	60	0	1507852288	43	4429
2026-01-14 02:39:23.67	309.82	44.51	-36.2	-37.7	17.4	0.00e+00	0	60	0	1513095168	43	4399
2026-01-14 02:39:24.68	309.29	44.57	-36.1	-37.5	17.6	0.00e+00	0	60	0	1519386624	43	4333
2026-01-14 02:39:25.69	308.76	44.63	-36.1	-37.5	17.6	0.00e+00	0	60	0	1524629504	43	4308
2026-01-14 02:39:26.70	308.22	44.68	-36.1	-37.6	17.5	0.00e+00	0	60	0	1530920960	43	4372
2026-01-14 02:39:27.71	307.68	44.73	-36.1	-37.5	17.5	0.00e+00	0	61	0	1536163840	43	4337
2026-01-14 02:39:28.72	307.14	44.78	-36.0	-37.5	17.6	0.00e+00	0	61	0	1541406720	43	4294
2026-01-14 02:39:29.74	306.60	44.83	-36.0	-37.5	17.6	0.00e+00	0	60	0	1547698176	43	4313
2026-01-14 02:39:30.74	306.06	44.87	-36.1	-37.6	17.5	0.00e+00	0	60	0	1552941056	43	4363
2026-01-14 02:39:31.75	305.52	44.91	-36.1	-37.5	17.6	0.00e+00	0	61	0	1559232512	43	4318
2026-01-14 02:39:32.76	304.97	44.95	-36.0	-37.4	17.7	0.00e+00	0	60	0	1564475392	43	4275
2026-01-14 02:39:33.77	304.43	44.98	-35.9	-37.3	17.8	0.00e+00	0	60	0	1569718272	43	4233
2026-01-14 02:39:34.79	303.87	45.01	-36.0	-37.4	17.6	0.00e+00	0	61	0	1576009728	43	4285
2026-01-14 02:39:35.79	303.33	45.04	-36.1	-37.5	17.6	0.00e+00	0	60	0	1581252608	43	4318
2026-01-14 02:39:36.80	302.78	45.07	-36.0	-37.5	17.6	0.00e+00	0	60	0	1587544064	43	4304
2026-01-14 02:39:37.81	302.23	45.09	-35.9	-37.4	17.7	0.00e+00	0	61	0	1592786944	43	4257
2026-01-14 02:39:38.82	301.68	45.11	-35.9	-37.3	17.7	0.00e+00	0	60	0	1599078400	43	4229
2026-01-14 02:39:39.83	301.13	45.13	-35.9	-37.4	17.7	0.00e+00	0	60	0	1604321280	43	4244
2026-01-14 02:39:40.84	300.57	45.14	-35.9	-37.4	17.7	0.00e+00	0	61	0	1609564160	43	4254
2026-01-14 02:39:41.85	300.02	45.16	-36.0	-37.4	17.6	0.00e+00	0	60	0	1615855616	43	4277
2026-01-14 02:39:42.86	299.47	45.16	-36.1	-37.5	17.6	0.00e+00	0	60	0	1621098496	43	4317
2026-01-14 02:39:43.87	298.92	45.17	-36.0	-37.4	17.6	0.00e+00	0	60	0	1627389952	43	4273
2026-01-14 02:39:44.88	298.36	45.17	-35.9	-37.3	17.8	0.00e+00	0	61	0	1632632832	43	4214
2026-01-14 02:39:45.89	297.81	45.17	-35.8	-37.2	17.8	0.00e+00	0	60	0	1637875712	43	4186
2026-01-14 02:39:46.90	297.25	45.17	-35.8	-37.2	17.9	0.00e+00	0	60	0	1644167168	43	4153
2026-01-14 02:39:47.91	296.70	45.16	-35.7	-37.1	18.0	0.00e+00	0	60	0	1649410048	43	4102
2026-01-14 02:39:48.92	296.15	45.15	-35.7	-37.1	18.0	0.00e+00	0	60	0	1655701504	43	4128
2026-01-14 02:39:49.93	295.59	45.14	-35.9	-37.4	17.7	0.00e+00	0	60	0	1660944384	43	4255
2026-01-14 02:39:50.94	295.04	45.12	-35.9	-37.3	17.7	0.00e+00	0	60	0	1666187264	43	4239
2026-01-14 02:39:51.95	294.49	45.11	-35.7	-37.1	18.0	0.00e+00	0	61	0	1672478720	43	4113
2026-01-14 02:39:52.96	293.94	45.09	-35.7	-37.0	18.0	0.00e+00	0	60	0	1677721600	43	4089
2026-01-14 02:39:53.97	293.39	45.06	-35.9	-37.3	17.7	0.00e+00	0	60	0	1684013056	43	4225
2026-01-14 02:39:54.98	292.84	45.03	-36.0	-37.5	17.6	0.00e+00	0	60	0	1689255936	43	4314
2026-01-14 02:39:55.98	292.30	45.00	-35.8	-37.2	17.9	0.00e+00	0	60	0	1695547392	43	4161
2026-01-14 02:39:56.99	291.75	44.97	-35.6	-37.0	18.1	0.00e+00	0	61	0	1700790272	43	4054
2026-01-14 02:39:58.00	291.20	44.94	-35.5	-36.8	18.3	0.00e+00	0	61	0	1707081728	42	4219
2026-01-14 02:39:59.01	290.66	44.90	-35.5	-36.9	18.2	0.00e+00	0	60	0	1712324608	42	4257
2026-01-14 02:40:00.02	290.11	44.86	-35.5	-36.9	18.2	0.00e+00	0	61	0	1717567488	42	4257
2026-01-14 02:40:01.03	289.57	44.81	-35.5	-36.8	18.2	0.00e+00	0	61	0	1723858944	42	4234
2026-01-14 02:40:02.04	289.03	44.76	-35.8	-37.2	17.9	0.00e+00	0	61	0	1729101824	42	4417
2026-01-14 02:40:03.05	288.49	44.71	-36.0	-37.4	17.6	0.00e+00	0	60	0	1735393280	42	4536
2026-01-14 02:40:04.06	287.96	44.66	-35.8	-37.2	17.8	0.00e+00	0	60	0	1740636160	42	4425
2026-01-14 02:40:05.07	287.42	44.61	-35.7	-37.0	18.0	0.00e+00	0	61	0	1745879040	42	4328
2026-01-14 02:40:06.08	286.89	44.55	-35.7	-37.1	17.9	0.00e+00	0	60	0	1752170496	42	4369
2026-01-14 02:40:07.09	286.35	44.49	-35.9	-37.3	17.7	0.00e+00	0	60	0	1757413376	42	4486
2026-01-14 02:40:08.10	285.82	44.43	-35.9	-37.4	17.6	0.00e+00	0	61	0	1763704832	42	4516
2026-01-14 02:40:09.11	285.30	44.36	-35.9	-37.4	17.7	0.00e+00	0	61	0	1768947712	42	4503
2026-01-14 02:40:10.12	284.77	44.29	-35.9	-37.3	17.7	0.00e+00	0	60	0	1774190592	42	4458
2026-01-14 02:40:11.13	284.25	44.22	-35.8	-37.2	17.8	0.00e+00	0	61	0	1780482048	42	4425
2026-01-14 02:40:12.14	283.73	44.15	-35.7	-37.1	17.9	0.00e+00	0	60	0	1785724928	42	4376
2026-01-14 02:40:13.15	283.21	44.07	-35.7	-37.1	18.0	0.00e+00	0	60	0	1792016384	42	4347
2026-01-14 02:40:14.16	282.70	43.99	-35.7	-37.1	17.9	0.00e+00	0	61	0	1797259264	42	4377
2026-01-14 02:40:15.17	282.18	43.91	-35.6	-37.0	18.0	0.00e+00	0	61	0	1803550720	42	4325
2026-01-14 02:40:16.18	281.67	43.83	-35.7	-37.0	18.0	0.00e+00	0	61	0	1808793600	42	4334
2026-01-14 02:40:17.19	281.16	43.74	-35.8	-37.2	17.8	0.00e+00	0	61	0	1814036480	42	4409
2026-01-14 02:40:18.20	280.66	43.65	-35.9	-37.4	17.7	0.00e+00	0	61	0	1820327936	42	4494
2026-01-14 02:40:19.21	280.16	43.56	-35.8	-37.2	17.8	0.00e+00	0	60	0	1825570816	42	4441
2026-01-14 02:40:20.22	279.66	43.47	-35.7	-37.1	18.0	0.00e+00	0	60	0	1831862272	42	4341
2026-01-14 02:40:21.23	279.16	43.38	-35.7	-37.0	18.0	0.00e+00	0	61	0	1837105152	42	4334
2026-01-14 02:40:22.24	278.67	43.28	-35.7	-37.1	18.0	0.00e+00	0	61	0	1842348032	42	4349
2026-01-14 02:40:23.25	278.18	43.18	-35.7	-37.1	17.9	0.00e+00	0	61	0	1848639488	42	4373
2026-01-14 02:40:24.26	277.69	43.08	-35.7	-37.1	17.9	0.00e+00	0	61	0	1853882368	42	4366
2026-01-14 02:40:25.27	277.21	42.98	-35.7	-37.0	18.0	0.00e+00	0	61	0	1860173824	42	4340
2026-01-14 02:40:26.28	276.72	42.87	-35.6	-36.9	18.1	0.00e+00	0	61	0	1865416704	42	4282
2026-01-14 02:40:27.29	276.25	42.77	-35.6	-36.9	18.1	0.00e+00	0	61	0	1870659584	42	4280
2026-01-14 02:40:28.30	275.77	42.66	-35.6	-37.0	18.1	0.00e+00	0	61	0	1876951040	42	4305
2026-01-14 02:40:29.31	275.30	42.55	-35.6	-37.0	18.0	0.00e+00	0	61	0	1882193920	42	4324
2026-01-14 02:40:30.32	274.83	42.43	-35.6	-37.0	18.0	0.00e+00	0	61	0	1888485376	42	4319
2026-01-14 02:40:31.33	274.37	42.32	-35.6	-37.0	18.0	0.00e+00	0	61	0	1893728256	42	4332
2026-01-14 02:40:32.34	273.90	42.20	-35.7	-37.1	17.9	0.00e+00	0	61	0	1900019712	42	4361
2026-01-14 02:40:33.34	273.45	42.09	-35.8	-37.2	17.9	0.00e+00	0	61	0	1905262592	42	4396
2026-01-14 02:40:34.35	273.00	41.97	-35.8	-37.2	17.8	0.00e+00	0	60	0	1911554048	42	4399
2026-01-14 02:40:35.37	272.54	41.84	-35.7	-37.1	17.9	0.00e+00	0	61	0	1916796928	42	4377
2026-01-14 02:40:36.37	272.10	41.72	-35.7	-37.1	18.0	0.00e+00	0	60	0	1922039808	42	4343
2026-01-14 02:40:37.38	271.65	41.60	-35.6	-37.0	18.0	0.00e+00	0	60	0	1928331264	42	4299
2026-01-14 02:40:38.39	271.21	41.47	-35.5	-36.8	18.2	0.00e+00	0	61	0	1933574144	42	4233
2026-01-14 02:40:39.40	270.77	41.34	-35.6	-36.9	18.1	0.00e+00	0	61	0	1939865600	42	4274
2026-01-14 02:40:40.41	270.34	41.22	-35.7	-37.1	18.0	0.00e+00	0	61	0	1945108480	42	4354
2026-01-14 02:40:41.42	269.91	41.09	-35.7	-37.1	17.9	0.00e+00	0	61	0	1950351360	42	4380
2026-01-14 02:40:42.43	269.48	40.95	-35.6	-37.0	18.0	0.00e+00	0	61	0	1956642816	42	4294
2026-01-14 02:40:43.44	269.06	40.82	-35.6	-37.0	18.0	0.00e+00	0	60	0	1961885696	42	4322
2026-01-14 02:40:44.45	268.63	40.69	-35.7	-37.1	18.0	0.00e+00	0	61	0	1968177152	42	4345
2026-01-14 02:40:45.46	268.22	40.55	-35.7	-37.1	17.9	0.00e+00	0	60	0	1973420032	42	4351
2026-01-14 02:40:46.47	267.80	40.42	-35.6	-37.0	18.0	0.00e+00	0	61	0	1978662912	42	4328
2026-01-14 02:40:47.48	267.39	40.28	-35.6	-37.0	18.0	0.00e+00	0	60	0	1984954368	42	4301
2026-01-14 02:40:48.49	266.99	40.14	-35.7	-37.1	18.0	0.00e+00	0	60	0	1990197248	42	4343
2026-01-14 02:40:49.50	266.58	40.00	-35.8	-37.2	17.8	0.00e+00	0	60	0	1996488704	42	4430
2026-01-14 02:40:50.51	266.18	39.86	-35.8	-37.2	17.8	0.00e+00	0	61	0	2001731584	42	4402
2026-01-14 02:40:51.52	265.79	39.72	-35.6	-37.0	18.0	0.00e+00	0	60	0	2008023040	42	4330
2026-01-14 02:40:52.53	265.40	39.57	-35.6	-36.9	18.1	0.00e+00	0	61	0	2013265920	42	4288
2026-01-14 02:40:53.54	265.01	39.43	-35.6	-36.9	18.0	0.00e+00	0	61	0	2019557376	42	4287
2026-01-14 02:40:54.55	264.62	39.28	-35.5	-36.9	18.1	0.00e+00	0	61	0	2024800256	42	4259
2026-01-14 02:40:55.56	264.24	39.14	-35.5	-36.9	18.1	0.00e+00	0	61	0	2030043136	42	4262
2026-01-14 02:40:56.57	263.86	38.99	-35.6	-37.0	18.0	0.00e+00	0	61	0	2036334592	42	4333
2026-01-14 02:40:57.58	263.48	38.85	-35.7	-37.0	18.0	0.00e+00	0	61	0	2041577472	42	4334
2026-01-14 02:40:58.59	263.11	38.70	-35.7	-37.1	17.9	0.00e+00	0	61	0	2047868928	42	4358
2026-01-14 02:40:59.60	262.74	38.55	-35.8	-37.2	17.8	0.00e+00	0	61	0	2053111808	42	4413
2026-01-14 02:41:00.61	262.38	38.40	-35.8	-37.2	17.8	0.00e+00	0	61	0	2058354688	42	4426
2026-01-14 02:41:01.62	262.02	38.25	-35.7	-37.1	17.9	0.00e+00	0	61	0	2064646144	42	4354
2026-01-14 02:41:02.64	261.65	38.10	-35.7	-37.0	18.0	0.00e+00	0	61	0	2069889024	42	4337
2026-01-14 02:41:03.64	261.30	37.95	-35.7	-37.1	17.9	0.00e+00	0	61	0	2076180480	42	4371
2026-01-14 02:41:04.66	260.95	37.79	-35.7	-37.1	17.8	0.00e+00	0	61	0	2081423360	42	4386
2026-01-14 02:41:05.67	260.60	37.64	-35.8	-37.2	17.8	0.00e+00	0	61	0	2086666240	42	4410
2026-01-14 02:41:06.68	260.25	37.49	-35.7	-37.1	17.9	0.00e+00	0	60	0	2092957696	42	4374
2026-01-14 02:41:07.69	259.91	37.34	-35.8	-37.2	17.9	0.00e+00	0	61	0	2098200576	42	4395
2026-01-14 02:41:08.70	259.57	37.18	-35.8	-37.2	17.8	0.00e+00	0	61	0	2104492032	42	4417
2026-01-14 02:41:09.71	259.24	37.03	-35.7	-37.1	17.8	0.00e+00	0	61	0	2109734912	42	4390
2026-01-14 02:41:10.72	258.90	36.87	-35.6	-37.0	18.0	0.00e+00	0	61	0	2116026368	42	4320
2026-01-14 02:41:11.73	258.57	36.72	-35.5	-36.9	18.1	0.00e+00	0	61	0	2121269248	42	4262
2026-01-14 02:41:12.74	258.25	36.56	-35.5	-36.9	18.1	0.00e+00	0	60	0	2126512128	42	4245
2026-01-14 02:41:13.75	257.92	36.41	-35.5	-36.9	18.1	0.00e+00	0	61	0	2132803584	42	4251
2026-01-14 02:41:14.76	257.60	36.25	-35.5	-36.9	18.1	0.00e+00	0	61	0	2138046464	42	4256
2026-01-14 02:41:15.77	257.29	36.10	-35.6	-37.0	18.0	0.00e+00	0	61	0	2144337920	42	4292
2026-01-14 02:41:16.78	256.97	35.94	-35.6	-37.0	18.0	0.00e+00	0	61	0	2149580800	42	4326
2026-01-14 02:41:17.79	256.66	35.78	-35.7	-37.1	17.9	0.00e+00	0	61	0	2154823680	42	4350
2026-01-14 02:41:18.80	256.35	35.63	-35.6	-37.0	18.0	0.00e+00	0	61	0	2161115136	42	4310
2026-01-14 02:41:19.81	256.05	35.47	-35.5	-36.9	18.1	0.00e+00	0	61	0	2166358016	42	4274
2026-01-14 02:41:20.82	255.75	35.31	-35.5	-36.8	18.1	0.00e+00	0	61	0	2172649472	42	4238
2026-01-14 02:41:21.83	255.45	35.16	-35.5	-36.9	18.1	0.00e+00	0	61	0	2177892352	42	4247
2026-01-14 02:41:22.84	255.15	35.00	-35.5	-36.9	18.1	0.00e+00	0	61	0	2183135232	42	4274
2026-01-14 02:41:23.85	254.86	34.84	-35.5	-36.9	18.1	0.00e+00	0	61	0	2189426688	42	4277
2026-01-14 02:41:24.86	254.57	34.68	-35.5	-36.9	18.1	0.00e+00	0	61	0	2194669568	42	4246
2026-01-14 02:41:25.87	254.28	34.53	-35.5	-36.9	18.1	0.00e+00	0	61	0	2200961024	42	4244
2026-01-14 02:41:26.88	253.99	34.37	-35.4	-36.8	18.1	0.00e+00	0	61	0	2206203904	42	4219
2026-01-14 02:41:27.89	253.71	34.21	-35.4	-36.7	18.2	0.00e+00	0	61	0	2212495360	42	4193
2026-01-14 02:41:28.90	253.43	34.05	-35.4	-36.8	18.2	0.00e+00	0	61	0	2217738240	42	4202
2026-01-14 02:41:29.91	253.16	33.90	-35.5	-36.8	18.1	0.00e+00	0	61	0	2224029696	42	4237
2026-01-14 02:41:30.92	252.88	33.74	-35.5	-36.9	18.1	0.00e+00	0	61	0	2229272576	42	4259
2026-01-14 02:41:31.93	252.61	33.58	-35.6	-37.0	18.0	0.00e+00	0	61	0	2234515456	42	4314
2026-01-14 02:41:32.94	252.34	33.42	-35.7	-37.1	17.9	0.00e+00	0	61	0	2240806912	42	4360
2026-01-14 02:41:33.95	252.08	33.27	-35.7	-37.1	17.8	0.00e+00	0	61	0	2246049792	42	4387
2026-01-14 02:41:34.96	251.81	33.11	-35.7	-37.1	17.8	0.00e+00	0	61	0	2252341248	42	4391
2026-01-14 02:41:35.97	251.55	32.95	-35.7	-37.1	17.9	0.00e+00	0	61	0	2257584128	42	4348
2026-01-14 02:41:36.98	251.29	32.80	-35.6	-37.0	18.0	0.00e+00	0	61	0	2262827008	42	4302
2026-01-14 02:41:37.99	251.04	32.64	-35.5	-36.9	18.0	0.00e+00	0	61	0	2269118464	42	4266
2026-01-14 02:41:39.00	250.78	32.48	-35.5	-36.9	18.0	0.00e+00	0	61	0	2274361344	42	4264
2026-01-14 02:41:40.02	250.53	32.32	-35.5	-36.9	18.1	0.00e+00	0	61	0	2280652800	42	4271
2026-01-14 02:41:41.02	250.28	32.17	-35.6	-37.0	18.0	0.00e+00	0	61	0	2285895680	42	4323
2026-01-14 02:41:42.03	250.04	32.01	-35.7	-37.1	17.9	0.00e+00	0	61	0	2291138560	42	4367
2026-01-14 02:41:43.04	249.79	31.86	-35.7	-37.1	17.9	0.00e+00	0	61	0	2297430016	42	4354
2026-01-14 02:41:44.05	249.55	31.70	-35.6	-37.0	17.9	0.00e+00	0	61	0	2302672896	42	4317
2026-01-14 02:41:45.06	249.31	31.55	-35.6	-37.0	18.0	0.00e+00	0	61	0	2308964352	42	4293
2026-01-14 02:41:46.07	249.07	31.39	-35.6	-37.0	18.0	0.00e+00	0	61	0	2314207232	42	4303
2026-01-14 02:41:47.08	248.84	31.24	-35.7	-37.1	17.9	0.00e+00	0	61	0	2320498688	42	4342
2026-01-14 02:41:48.09	248.61	31.08	-35.8	-37.2	17.8	0.00e+00	0	61	0	2325741568	42	4420
2026-01-14 02:41:49.10	248.38	30.93	-35.9	-37.3	17.6	0.00e+00	0	61	0	2332033024	42	4487
2026-01-14 02:41:50.11	248.15	30.78	-36.0	-37.4	17.5	0.00e+00	0	61	0	2337275904	42	4543
2026-01-14 02:41:51.12	247.92	30.62	-36.0	-37.5	17.5	0.00e+00	0	61	0	2342518784	42	4558
2026-01-14 02:41:52.13	247.70	30.47	-36.0	-37.5	17.4	0.00e+00	0	61	0	2348810240	42	4575
2026-01-14 02:41:53.14	247.48	30.32	-36.1	-37.5	17.4	0.00e+00	0	61	0	2354053120	42	4590
2026-01-14 02:41:54.15	247.26	30.16	-36.0	-37.5	17.4	0.00e+00	0	61	0	2360344576	42	4585
2026-01-14 02:41:55.16	247.04	30.01	-35.9	-37.4	17.5	0.00e+00	0	61	0	2365587456	42	4515
2026-01-14 02:41:56.17	246.82	29.86	-35.9	-37.3	17.6	0.00e+00	0	61	0	2370830336	42	4481
2026-01-14 02:41:57.18	246.61	29.71	-35.8	-37.2	17.8	0.00e+00	0	61	0	2377121792	42	4415
2026-01-14 02:41:58.19	246.40	29.56	-35.7	-37.1	17.8	0.00e+00	0	61	0	2382364672	42	4376
2026-01-14 02:41:59.20	246.19	29.41	-35.8	-37.2	17.8	0.00e+00	0	61	0	2388656128	42	4397
2026-01-14 02:42:00.21	245.98	29.26	-35.8	-37.2	17.8	0.00e+00	0	61	0	2393899008	42	4402
2026-01-14 02:42:01.22	245.78	29.11	-35.8	-37.2	17.8	0.00e+00	0	61	0	2399141888	42	4392
2026-01-14 02:42:02.23	245.57	28.96	-35.8	-37.2	17.7	0.00e+00	0	61	0	2405433344	42	4439
2026-01-14 02:42:03.24	245.37	28.81	-35.9	-37.3	17.7	0.00e+00	0	61	0	2410676224	42	4457
2026-01-14 02:42:04.25	245.17	28.66	-35.9	-37.4	17.6	0.00e+00	0	61	0	2416967680	42	4497
2026-01-14 02:42:05.26	244.97	28.51	-36.1	-37.5	17.4	0.00e+00	0	61	0	2422210560	42	4581
2026-01-14 02:42:06.27	244.78	28.36	-36.1	-37.6	17.4	0.00e+00	0	61	0	2428502016	42	4604
2026-01-14 02:42:07.28	244.58	28.21	-36.1	-37.6	17.3	0.00e+00	0	61	0	2433744896	42	4626
2026-01-14 02:42:08.29	244.39	28.07	-36.2	-37.7	17.3	0.00e+00	0	61	0	2438987776	42	4652
2026-01-14 02:42:09.30	244.20	27.92	-36.1	-37.6	17.3	0.00e+00	0	61	0	2445279232	42	4627
2026-01-14 02:42:10.31	244.01	27.77	-36.1	-37.6	17.4	0.00e+00	0	61	0	2450522112	42	4608
2026-01-14 02:42:11.32	243.82	27.63	-36.1	-37.5	17.4	0.00e+00	0	61	0	2456813568	42	4592
2026-01-14 02:42:12.33	243.64	27.48	-36.1	-37.5	17.4	0.00e+00	0	61	0	2462056448	42	4598
2026-01-14 02:42:13.34	243.46	27.34	-36.2	-37.7	17.3	0.00e+00	0	61	0	2467299328	42	4654
2026-01-14 02:42:14.35	243.27	27.19	-36.3	-37.8	17.2	0.00e+00	0	61	0	2473590784	43	4448
2026-01-14 02:42:15.36	243.09	27.05	-36.4	-37.9	17.0	0.00e+00	0	61	0	2478833664	43	4506
2026-01-14 02:42:16.37	242.91	26.90	-36.4	-37.9	17.0	0.00e+00	0	61	0	2485125120	43	4515
2026-01-14 02:42:17.38	242.74	26.76	-36.4	-37.9	17.0	0.00e+00	0	61	0	2490368000	43	4513
2026-01-14 02:42:18.39	242.56	26.62	-36.4	-37.9	17.0	0.00e+00	0	61	0	2495610880	43	4543
2026-01-14 02:42:19.40	242.39	26.48	-36.4	-37.9	17.0	0.00e+00	0	61	0	2501902336	43	4528
2026-01-14 02:42:20.41	242.21	26.33	-36.4	-37.9	17.0	0.00e+00	0	61	0	2507145216	43	4512
2026-01-14 02:42:21.42	242.04	26.19	-36.4	-37.9	17.0	0.00e+00	0	61	0	2513436672	43	4518
2026-01-14 02:42:22.42	241.88	26.05	-36.4	-38.0	16.9	0.00e+00	0	61	0	2518679552	43	4554
2026-01-14 02:42:23.43	241.71	25.91	-36.4	-37.9	17.0	0.00e+00	0	61	0	2524971008	43	4529
2026-01-14 02:42:24.44	241.54	25.77	-36.4	-37.9	17.0	0.00e+00	0	61	0	2530213888	43	4506
2026-01-14 02:42:25.45	241.38	25.63	-36.4	-37.9	17.0	0.00e+00	0	61	0	2536505344	43	4516
2026-01-14 02:42:26.46	241.21	25.49	-36.4	-37.9	17.0	0.00e+00	0	61	0	2541748224	43	4520
2026-01-14 02:42:27.47	241.05	25.36	-36.3	-37.8	17.0	0.00e+00	0	61	0	2546991104	43	4486
2026-01-14 02:42:28.48	240.89	25.22	-36.4	-37.8	17.0	0.00e+00	0	61	0	2553282560	43	4488
2026-01-14 02:42:29.49	240.73	25.08	-36.4	-37.9	17.0	0.00e+00	0	61	0	2558525440	43	4518
2026-01-14 02:42:30.50	240.57	24.94	-36.3	-37.9	17.0	0.00e+00	0	61	0	2564816896	43	4494
2026-01-14 02:42:31.51	240.42	24.81	-36.3	-37.8	17.0	0.00e+00	0	61	0	2570059776	43	4479
2026-01-14 02:42:32.52	240.26	24.67	-36.4	-37.9	17.0	0.00e+00	0	61	0	2575302656	43	4513
2026-01-14 02:42:33.53	240.11	24.53	-36.3	-37.8	17.0	0.00e+00	0	61	0	2581594112	43	4482
2026-01-14 02:42:34.54	239.96	24.40	-36.3	-37.8	17.1	0.00e+00	0	61	0	2586836992	43	4484
2026-01-14 02:42:35.55	239.81	24.26	-36.3	-37.8	17.1	0.00e+00	0	61	0	2593128448	43	4485
2026-01-14 02:42:36.56	239.66	24.13	-36.3	-37.8	17.1	0.00e+00	0	61	0	2598371328	43	4477
2026-01-14 02:42:37.57	239.51	23.99	-36.3	-37.8	17.1	0.00e+00	0	61	0	2603614208	43	4469
2026-01-14 02:42:38.58	239.36	23.86	-36.3	-37.8	17.1	0.00e+00	0	61	0	2609905664	43	4448
2026-01-14 02:42:39.59	239.22	23.73	-36.3	-37.8	17.1	0.00e+00	0	61	0	2615148544	43	4453
2026-01-14 02:42:40.60	239.07	23.60	-36.3	-37.8	17.1	0.00e+00	0	61	0	2621440000	43	4464
2026-01-14 02:42:41.61	238.93	23.46	-36.3	-37.8	17.0	0.00e+00	0	61	0	2626682880	43	4481
2026-01-14 02:42:42.62	238.78	23.33	-36.3	-37.8	17.1	0.00e+00	0	61	0	2632974336	43	4478
2026-01-14 02:42:43.63	238.64	23.20	-36.4	-37.9	17.0	0.00e+00	0	61	0	2638217216	43	4496
2026-01-14 02:42:44.64	238.50	23.07	-36.4	-37.9	16.9	0.00e+00	0	61	0	2643460096	43	4538
2026-01-14 02:42:45.65	238.37	22.94	-36.5	-38.0	16.8	0.00e+00	0	61	0	2649751552	43	4569
2026-01-14 02:42:46.66	238.23	22.81	-36.6	-38.1	16.8	0.00e+00	0	61	0	2654994432	43	4617
2026-01-14 02:42:47.66	238.09	22.68	-36.6	-38.1	16.7	0.00e+00	0	61	0	2661285888	43	4643
2026-01-14 02:42:48.67	237.96	22.55	-36.7	-38.2	16.6	0.00e+00	0	61	0	2666528768	43	4705
2026-01-14 02:42:49.68	237.82	22.43	-36.9	-38.5	16.5	0.00e+00	0	61	0	2671771648	44	4569
2026-01-14 02:42:50.69	237.69	22.30	-36.9	-38.5	16.5	0.00e+00	0	61	0	2678063104	44	4575
2026-01-14 02:42:51.71	237.56	22.17	-36.9	-38.5	16.5	0.00e+00	0	61	0	2683305984	44	4592
2026-01-14 02:42:52.71	237.43	22.04	-37.0	-38.6	16.4	0.00e+00	0	61	0	2689597440	44	4621
2026-01-14 02:42:53.72	237.30	21.92	-37.0	-38.6	16.4	0.00e+00	0	61	0	2694840320	44	4629
2026-01-14 02:42:54.74	237.17	21.79	-37.0	-38.6	16.4	0.00e+00	0	61	0	2700083200	44	4622
2026-01-14 02:42:55.74	237.04	21.67	-37.0	-38.6	16.4	0.00e+00	0	61	0	2706374656	44	4644
2026-01-14 02:42:56.76	236.92	21.54	-37.0	-38.6	16.4	0.00e+00	0	61	0	2711617536	44	4645
2026-01-14 02:42:57.77	236.79	21.42	-37.0	-38.7	16.4	0.00e+00	0	61	0	2717908992	44	4652
2026-01-14 02:42:58.78	236.67	21.29	-37.1	-38.7	16.4	0.00e+00	0	61	0	2723151872	44	4665
2026-01-14 02:42:59.79	236.54	21.17	-37.0	-38.6	16.4	0.00e+00	0	60	0	2729443328	44	4649
2026-01-14 02:43:00.80	236.42	21.05	-37.0	-38.6	16.4	0.00e+00	0	61	0	2734686208	44	4646
2026-01-14 02:43:01.81	236.30	20.92	-37.0	-38.6	16.4	0.00e+00	0	61	0	2740977664	44	4618
2026-01-14 02:43:02.82	236.18	20.80	-36.9	-38.5	16.5	0.00e+00	0	61	0	2746220544	44	4595
2026-01-14 02:43:03.82	236.06	20.68	-37.0	-38.6	16.5	0.00e+00	0	61	0	2751463424	44	4599
2026-01-14 02:43:04.83	235.94	20.56	-37.0	-38.6	16.4	0.00e+00	0	61	0	2757754880	44	4600
2026-01-14 02:43:05.84	235.82	20.44	-37.0	-38.5	16.4	0.00e+00	0	61	0	2762997760	44	4592
2026-01-14 02:43:06.85	235.71	20.32	-37.0	-38.6	16.4	0.00e+00	0	61	0	2769289216	44	4624
2026-01-14 02:43:07.86	235.59	20.20	-37.1	-38.7	16.3	0.00e+00	0	61	0	2774532096	44	4657
2026-01-14 02:43:08.87	235.48	20.08	-37.1	-38.7	16.2	0.00e+00	0	61	0	2779774976	44	4700
2026-01-14 02:43:09.88	235.36	19.96	-37.2	-38.8	16.2	0.00e+00	0	61	0	2786066432	44	4752
2026-01-14 02:43:10.89	235.25	19.84	-37.3	-38.9	16.0	0.00e+00	0	61	0	2791309312	45	4542
2026-01-14 02:43:11.90	235.14	19.72	-37.3	-39.0	16.0	0.00e+00	0	61	0	2797600768	45	4568
2026-01-14 02:43:12.91	235.03	19.61	-37.4	-39.1	15.9	0.00e+00	0	61	0	2802843648	45	4600
2026-01-14 02:43:13.93	234.92	19.49	-37.4	-39.1	15.9	0.00e+00	0	61	0	2808086528	45	4633
2026-01-14 02:43:14.94	234.81	19.37	-37.4	-39.1	15.8	0.00e+00	0	61	0	2814377984	45	4644
2026-01-14 02:43:15.95	234.70	19.25	-37.5	-39.2	15.7	0.00e+00	0	61	0	2819620864	45	4685
2026-01-14 02:43:16.96	234.59	19.14	-37.5	-39.2	15.7	0.00e+00	0	61	0	2825912320	45	4703
2026-01-14 02:43:17.97	234.48	19.02	-37.6	-39.3	15.7	0.00e+00	0	61	0	2831155200	45	4728
2026-01-14 02:43:18.98	234.38	18.91	-37.5	-39.2	15.7	0.00e+00	0	61	0	2837446656	45	4702
2026-01-14 02:43:19.99	234.27	18.79	-37.5	-39.3	15.7	0.00e+00	0	61	0	2842689536	45	4711
2026-01-14 02:43:21.00	234.17	18.68	-37.5	-39.3	15.7	0.00e+00	0	61	0	2848980992	45	4714
2026-01-14 02:43:22.01	234.06	18.56	-37.6	-39.3	15.6	0.00e+00	0	61	0	2854223872	45	4753
2026-01-14 02:43:23.02	233.96	18.45	-37.7	-39.4	15.5	0.00e+00	0	61	0	2859466752	45	4790
2026-01-14 02:43:24.03	233.86	18.34	-37.7	-39.4	15.5	0.00e+00	0	61	0	2865758208	45	4794
2026-01-14 02:43:25.04	233.76	18.23	-37.7	-39.5	15.5	0.00e+00	0	61	0	2871001088	45	4816
2026-01-14 02:43:26.05	233.66	18.11	-37.8	-39.5	15.4	0.00e+00	0	61	0	2877292544	46	4582
2026-01-14 02:43:27.06	233.56	18.00	-37.8	-39.5	15.4	0.00e+00	0	61	0	2882535424	46	4593
2026-01-14 02:43:28.07	233.46	17.89	-37.8	-39.6	15.3	0.00e+00	0	61	0	2887778304	46	4619
2026-01-14 02:43:29.08	233.36	17.78	-37.8	-39.6	15.3	0.00e+00	0	61	0	2894069760	46	4648
2026-01-14 02:43:30.09	233.26	17.67	-37.9	-39.7	15.2	0.00e+00	0	61	0	2899312640	46	4673
2026-01-14 02:43:31.10	233.16	17.56	-37.9	-39.7	15.2	0.00e+00	0	61	0	2905604096	46	4670
2026-01-14 02:43:32.11	233.07	17.45	-37.9	-39.7	15.2	1.10e-06	0	61	0	2910846976	46	4663
2026-01-14 02:43:33.12	232.97	17.34	-37.9	-39.7	15.2	0.00e+00	0	61	0	2916089856	46	4667
2026-01-14 02:43:34.13	232.88	17.23	-37.9	-39.7	15.2	0.00e+00	0	61	0	2922381312	46	4664
2026-01-14 02:43:35.14	232.78	17.12	-37.9	-39.8	15.1	0.00e+00	0	61	0	2927624192	46	4710
2026-01-14 02:43:36.15	232.69	17.02	-37.9	-39.8	15.1	0.00e+00	0	61	0	2933915648	46	4710
2026-01-14 02:43:37.16	232.60	16.91	-38.0	-39.8	15.1	0.00e+00	0	61	0	2939158528	46	4722
2026-01-14 02:43:38.17	232.51	16.80	-37.9	-39.7	15.2	0.00e+00	0	61	0	2944401408	46	4696
2026-01-14 02:43:39.18	232.41	16.69	-37.9	-39.7	15.2	0.00e+00	0	61	0	2950692864	46	4688
2026-01-14 02:43:40.19	232.32	16.59	-37.9	-39.7	15.2	0.00e+00	0	61	0	2955935744	46	4683
2026-01-14 02:43:41.20	232.23	16.48	-37.9	-39.7	15.2	0.00e+00	0	61	0	2962227200	46	4683
2026-01-14 02:43:42.21	232.14	16.38	-38.0	-39.8	15.1	0.00e+00	0	61	0	2967470080	46	4729
2026-01-14 02:43:43.22	232.06	16.27	-38.0	-39.8	15.1	0.00e+00	0	61	0	2973761536	46	4723
2026-01-14 02:43:44.23	231.97	16.17	-38.0	-39.8	15.0	0.00e+00	0	61	0	2979004416	46	4754
2026-01-14 02:43:45.24	231.88	16.06	-38.0	-39.8	15.0	0.00e+00	0	61	0	2984247296	46	4749
2026-01-14 02:43:46.25	231.79	15.96	-38.0	-39.9	15.0	0.00e+00	0	61	0	2990538752	46	4766
2026-01-14 02:43:47.26	231.71	15.85	-38.1	-39.9	14.9	0.00e+00	0	61	0	2995781632	46	4812
2026-01-14 02:43:48.27	231.62	15.75	-38.1	-39.9	14.9	0.00e+00	0	61	0	3002073088	46	4806
2026-01-14 02:43:49.28	231.54	15.65	-38.1	-39.9	14.9	1.10e-06	0	61	0	3007315968	46	4804
2026-01-14 02:43:50.29	231.45	15.55	-38.1	-40.0	14.9	1.10e-06	0	61	0	3012558848	46	4819
2026-01-14 02:43:51.30	231.37	15.44	-38.1	-40.0	14.8	1.10e-06	0	61	0	3018850304	46	4843
2026-01-14 02:43:52.31	231.28	15.34	-38.1	-40.0	14.8	0.00e+00	0	61	0	3024093184	46	4854
2026-01-14 02:43:53.32	231.20	15.24	-38.2	-40.1	14.7	0.00e+00	0	61	0	3030384640	46	4888
2026-01-14 02:43:54.33	231.12	15.14	-38.2	-40.1	14.7	1.10e-06	0	61	0	3035627520	46	4881
2026-01-14 02:43:55.34	231.04	15.04	-38.2	-40.1	14.7	1.10e-06	0	61	0	3041918976	46	4897
2026-01-14 02:43:56.35	230.96	14.94	-38.2	-40.1	14.7	0.00e+00	0	61	0	3047161856	46	4894
2026-01-14 02:43:57.36	230.88	14.84	-38.2	-40.1	14.7	0.00e+00	0	61	0	3052404736	47	4635
2026-01-14 02:43:58.37	230.80	14.74	-38.3	-40.2	14.6	2.20e-06	0	61	0	3058696192	47	4665
2026-01-14 02:43:59.38	230.72	14.64	-38.3	-40.2	14.5	1.10e-06	0	61	0	3063939072	47	4687
2026-01-14 02:44:00.39	230.64	14.54	-38.4	-40.3	14.5	1.10e-06	0	61	0	3070230528	47	4747
2026-01-14 02:44:01.40	230.56	14.44	-38.4	-40.3	14.5	1.10e-06	0	61	0	3075473408	47	4743
2026-01-14 02:44:02.41	230.48	14.34	-38.4	-40.4	14.4	2.20e-06	0	61	0	3081764864	47	4777
2026-01-14 02:44:03.43	230.41	14.24	-38.5	-40.4	14.3	1.10e-06	0	61	0	3087007744	47	4812
2026-01-14 02:44:04.43	230.33	14.15	-38.5	-40.5	14.3	2.20e-06	0	61	0	3092250624	47	4830
2026-01-14 02:44:05.44	230.25	14.05	-38.5	-40.5	14.2	1.10e-06	0	61	0	3098542080	47	4846
2026-01-14 02:44:06.45	230.18	13.95	-38.5	-40.6	14.2	1.10e-06	0	61	0	3103784960	47	4878
2026-01-14 02:44:07.47	230.10	13.85	-38.5	-40.5	14.2	2.20e-06	0	61	0	3110076416	47	4865
2026-01-14 02:44:08.47	230.03	13.76	-38.6	-40.6	14.2	3.40e-06	0	61	0	3115319296	47	4889
2026-01-14 02:44:09.48	229.95	13.66	-38.6	-40.6	14.1	0.00e+00	0	61	0	3120562176	47	4906
2026-01-14 02:44:10.50	229.88	13.57	-38.6	-40.6	14.1	3.40e-06	0	61	0	3126853632	47	4920
2026-01-14 02:44:11.51	229.81	13.47	-38.6	-40.7	14.0	3.40e-06	0	61	0	3132096512	47	4955
2026-01-14 02:44:12.51	229.73	13.38	-38.6	-40.7	14.0	2.20e-06	0	61	0	3138387968	47	4938
2026-01-14 02:44:13.52	229.66	13.28	-38.6	-40.7	14.0	3.40e-06	0	61	0	3143630848	47	4937
2026-01-14 02:44:14.53	229.59	13.19	-38.6	-40.7	14.0	4.50e-06	0	61	0	3148873728	47	4941
2026-01-14 02:44:15.54	229.52	13.09	-38.6	-40.7	14.0	2.20e-06	0	61	0	3155165184	47	4945
2026-01-14 02:44:16.55	229.45	13.00	-38.6	-40.6	14.0	6.80e-06	0	61	0	3160408064	47	4907
2026-01-14 02:44:17.56	229.38	12.91	-38.6	-40.6	14.0	0.00e+00	0	61	0	3166699520	47	4907
2026-01-14 02:44:18.58	229.31	12.81	-38.6	-40.7	14.0	6.80e-06	0	61	0	3171942400	47	4944
2026-01-14 02:44:19.59	229.24	12.72	-38.6	-40.7	14.0	5.70e-06	0	61	0	3178233856	47	4956
2026-01-14 02:44:20.60	229.17	12.63	-38.7	-40.8	13.9	4.50e-06	0	61	0	3183476736	47	4998
2026-01-14 02:44:21.61	229.10	12.54	-38.7	-40.8	13.8	0.00e+00	0	61	0	3189768192	47	5015
2026-01-14 02:44:22.62	229.03	12.44	-38.8	-40.9	13.8	5.70e-06	0	61	0	3195011072	48	4793
2026-01-14 02:44:23.63	228.97	12.35	-38.8	-40.9	13.8	5.70e-06	0	61	0	3200253952	48	4797
2026-01-14 02:44:24.64	228.90	12.26	-38.8	-40.9	13.8	1.71e-05	0	61	0	3206545408	48	4801
2026-01-14 02:44:25.65	228.83	12.17	-38.9	-40.9	13.8	1.14e-05	0	61	0	3211788288	48	4810
2026-01-14 02:44:26.66	228.77	12.08	-38.9	-41.0	13.7	1.14e-05	0	61	0	3218079744	48	4842
