passes_logs/2026/01/14/R2.0S_Moscow/R2.0S_Moscow__20260114_004914_FENGYUN_3G_rec.log

#Pass ID: 20260114_004914_FENGYUN 3G
#Satellite: FENGYUN 3G
#Configuration: FENGYUN 3G
#almurnet v.1.7.20251203
#Start time: 2026-01-14 00:49:14

#Version: 2.2.20231116
#Station: R2.0S_Moscow
#Location: 37.707566 lon 55.798166 lat
#TLE: 1 56232U 23055A   26013.24803668  .00022566  00000+0  35531-3 0  9992
#TLE: 2 56232  49.9941  64.9712 0004217  19.4523 340.6605 15.53433909155921

#Time	Az	El	Level	Level2	SNR	BER	BlckErr	Temp	State	Recorded	gain1	gain2
2026-01-14 00:49:14.25	260.21	1.99	-44.2	-62.1	3.8	8.45e-01	0	51	0	0	60	27501
2026-01-14 00:49:15.26	260.14	2.05	-44.2	-62.1	3.8	8.42e-01	0	51	104	0	60	27513
2026-01-14 00:49:16.27	260.07	2.12	-44.1	-62.1	3.8	8.45e-01	0	51	104	0	60	27449
2026-01-14 00:49:17.28	260.00	2.18	-44.1	-62.1	3.8	8.46e-01	0	51	104	0	60	27493
2026-01-14 00:49:18.29	259.93	2.25	-44.1	-62.1	3.8	8.46e-01	0	51	104	0	60	27558
2026-01-14 00:49:19.31	259.86	2.32	-44.1	-62.1	3.8	8.46e-01	0	51	104	0	60	27656
2026-01-14 00:49:20.32	259.79	2.38	-44.2	-62.2	3.8	8.46e-01	0	51	104	0	60	27907
2026-01-14 00:49:21.33	259.72	2.45	-44.1	-62.1	3.8	8.46e-01	0	51	104	0	60	27674
2026-01-14 00:49:22.34	259.64	2.51	-44.1	-62.1	3.8	8.46e-01	0	52	104	0	60	27627
2026-01-14 00:49:23.35	259.57	2.58	-44.1	-62.2	3.8	8.46e-01	0	52	104	0	60	27772
2026-01-14 00:49:24.36	259.50	2.65	-44.2	-62.1	3.8	8.46e-01	0	52	104	0	60	27639
2026-01-14 00:49:25.37	259.42	2.72	-44.1	-62.1	3.8	8.45e-01	0	52	104	0	60	27607
2026-01-14 00:49:26.38	259.35	2.78	-44.1	-62.2	3.8	8.47e-01	0	52	104	0	60	27764
2026-01-14 00:49:27.39	259.27	2.85	-44.1	-62.2	3.8	8.47e-01	0	52	104	0	60	27772
2026-01-14 00:49:28.40	259.20	2.92	-44.1	-62.2	3.8	8.46e-01	0	52	104	0	60	28014
2026-01-14 00:49:29.41	259.12	2.99	-44.1	-62.3	3.8	8.46e-01	0	52	104	0	60	28096
2026-01-14 00:49:30.43	259.05	3.06	-44.2	-62.3	3.8	8.46e-01	0	52	104	0	60	28065
2026-01-14 00:49:31.44	258.97	3.12	-44.1	-62.2	3.8	8.46e-01	0	52	104	0	60	27982
2026-01-14 00:49:32.45	258.89	3.19	-44.1	-62.2	3.8	8.46e-01	0	52	104	0	60	27760
2026-01-14 00:49:33.46	258.81	3.26	-44.2	-62.2	3.8	8.46e-01	0	53	104	0	60	27724
2026-01-14 00:49:34.47	258.74	3.33	-44.2	-62.1	3.8	8.46e-01	0	53	104	0	60	27412
2026-01-14 00:49:35.48	258.66	3.40	-44.1	-62.0	3.8	8.46e-01	0	52	104	0	60	27304
2026-01-14 00:49:36.49	258.58	3.47	-44.1	-62.0	3.8	8.46e-01	0	53	104	0	60	27371
2026-01-14 00:49:37.50	258.50	3.54	-44.1	-62.0	3.8	8.46e-01	0	53	104	0	60	27365
2026-01-14 00:49:38.51	258.42	3.61	-44.1	-62.0	3.8	8.45e-01	0	53	104	0	60	27365
2026-01-14 00:49:39.52	258.34	3.68	-44.1	-62.0	3.8	8.46e-01	0	53	104	0	60	27163
2026-01-14 00:49:40.54	258.25	3.75	-44.1	-62.0	3.8	8.46e-01	0	53	104	0	60	27236
2026-01-14 00:49:41.55	258.17	3.82	-44.1	-62.0	3.8	8.46e-01	0	53	104	0	60	27133
2026-01-14 00:49:42.56	258.09	3.89	-44.1	-62.0	3.8	8.47e-01	0	53	104	0	60	27314
2026-01-14 00:49:43.57	258.00	3.96	-44.1	-62.1	3.8	8.45e-01	0	53	104	0	60	27413
2026-01-14 00:49:44.58	257.92	4.04	-44.1	-62.1	3.8	8.45e-01	0	53	104	0	60	27581
2026-01-14 00:49:45.59	257.84	4.11	-44.1	-62.1	3.8	8.46e-01	0	53	104	0	60	27672
2026-01-14 00:49:46.60	257.75	4.18	-44.1	-62.1	3.8	8.45e-01	0	53	104	0	60	27657
2026-01-14 00:49:47.61	257.66	4.25	-44.1	-62.1	3.8	8.45e-01	0	53	104	0	60	27544
2026-01-14 00:49:48.62	257.58	4.32	-44.1	-62.1	3.8	8.46e-01	0	54	104	0	60	27584
2026-01-14 00:49:49.64	257.49	4.40	-44.1	-62.1	3.8	8.45e-01	0	54	104	0	60	27589
2026-01-14 00:49:50.65	257.40	4.47	-44.1	-62.1	3.8	8.45e-01	0	54	104	0	60	27462
2026-01-14 00:49:51.66	257.31	4.54	-44.1	-62.1	3.8	8.46e-01	0	54	104	0	60	27481
2026-01-14 00:49:52.67	257.22	4.62	-44.1	-62.0	3.8	8.46e-01	0	53	104	0	60	27235
2026-01-14 00:49:53.68	257.14	4.69	-44.1	-61.9	3.8	8.46e-01	0	54	104	0	60	26958
2026-01-14 00:49:54.69	257.04	4.76	-44.1	-61.8	3.8	8.46e-01	0	54	104	0	60	26694
2026-01-14 00:49:55.70	256.95	4.84	-44.1	-61.8	3.8	8.47e-01	0	54	104	0	60	26660
2026-01-14 00:49:56.71	256.86	4.91	-44.1	-61.7	3.8	8.46e-01	0	54	104	0	60	26242
2026-01-14 00:49:57.72	256.77	4.99	-44.1	-61.7	3.8	8.46e-01	0	54	104	0	60	26323
2026-01-14 00:49:58.73	256.68	5.06	-44.1	-61.7	3.8	8.45e-01	0	54	104	0	60	26452
2026-01-14 00:49:59.75	256.58	5.14	-44.1	-61.8	3.8	8.46e-01	0	54	104	0	60	26669
2026-01-14 00:50:00.76	256.49	5.21	-44.1	-61.7	3.8	8.46e-01	0	54	104	0	60	26305
2026-01-14 00:50:01.77	256.39	5.29	-44.1	-61.5	3.8	8.46e-01	0	54	104	0	60	25773
2026-01-14 00:50:02.78	256.30	5.37	-44.1	-61.1	3.8	8.46e-01	0	54	104	0	60	24519
2026-01-14 00:50:03.79	256.20	5.44	-44.1	-60.5	3.8	8.46e-01	0	54	104	0	60	22974
2026-01-14 00:50:04.80	256.10	5.52	-44.1	-60.2	3.8	8.46e-01	0	54	104	0	60	22071
2026-01-14 00:50:05.81	256.00	5.60	-44.1	-59.7	3.9	8.45e-01	0	54	104	0	60	20912
2026-01-14 00:50:06.82	255.90	5.67	-44.1	-59.5	4.0	8.44e-01	0	54	104	0	60	20506
2026-01-14 00:50:07.83	255.80	5.75	-44.1	-59.1	4.1	8.44e-01	0	54	0	0	60	19481
2026-01-14 00:50:08.84	255.70	5.83	-44.1	-59.1	4.1	8.41e-01	0	54	0	0	60	19427
2026-01-14 00:50:09.85	255.60	5.91	-44.0	-58.8	4.1	8.39e-01	0	54	0	0	60	18914
2026-01-14 00:50:10.87	255.50	5.99	-44.1	-58.9	4.2	8.39e-01	0	55	0	0	60	19030
2026-01-14 00:50:11.88	255.40	6.06	-44.0	-59.1	4.1	8.37e-01	0	55	0	0	60	19488
2026-01-14 00:50:12.89	255.29	6.14	-44.0	-58.6	4.2	8.39e-01	0	55	0	0	60	18383
2026-01-14 00:50:13.90	255.19	6.22	-44.0	-58.1	4.4	8.39e-01	0	55	0	0	60	17309
2026-01-14 00:50:14.91	255.08	6.30	-44.0	-56.7	5.0	8.33e-01	0	55	0	0	59	15747
2026-01-14 00:50:15.92	254.98	6.38	-43.9	-55.8	5.6	7.86e-01	0	55	0	0	59	14124
2026-01-14 00:50:16.93	254.87	6.46	-43.8	-54.6	6.4	7.86e-01	0	55	0	1048576	59	12319
2026-01-14 00:50:17.94	254.76	6.54	-43.7	-53.2	7.8	4.81e-01	0	55	0	2097152	59	10482
2026-01-14 00:50:18.95	254.65	6.62	-43.5	-52.2	8.8	1.42e-01	0	55	0	3145728	59	9319
2026-01-14 00:50:19.96	254.55	6.70	-43.4	-51.4	9.6	3.60e-02	0	55	0	4194304	58	9035
2026-01-14 00:50:20.98	254.43	6.79	-43.3	-50.9	10.2	3.60e-02	0	55	0	5242880	58	8519
2026-01-14 00:50:21.99	254.32	6.87	-43.2	-50.8	10.2	1.13e-02	0	55	0	6291456	58	8420
2026-01-14 00:50:23.00	254.21	6.95	-43.3	-51.2	9.9	7.80e-03	0	55	0	7864320	58	8769
2026-01-14 00:50:24.01	254.10	7.03	-43.4	-51.7	9.4	7.80e-03	0	55	0	8912896	58	9324
2026-01-14 00:50:25.02	253.98	7.12	-43.6	-52.9	8.2	1.48e-02	0	55	0	9961472	58	10707
2026-01-14 00:50:26.03	253.87	7.20	-43.9	-54.8	6.3	7.44e-02	0	55	0	11010048	58	13393
2026-01-14 00:50:27.04	253.75	7.28	-44.1	-57.6	4.6	7.44e-02	0	55	0	11534336	58	18349
2026-01-14 00:50:28.05	253.64	7.37	-44.2	-59.9	3.8	5.29e-01	0	55	104	11534336	58	24019
2026-01-14 00:50:29.06	253.52	7.45	-44.1	-58.2	4.3	8.40e-01	0	55	0	11534336	58	19707
2026-01-14 00:50:30.07	253.40	7.53	-43.8	-54.4	6.6	6.91e-01	0	55	0	11534336	58	12777
2026-01-14 00:50:31.08	253.28	7.62	-43.4	-51.6	9.4	6.91e-01	0	55	0	12582912	58	9204
2026-01-14 00:50:32.09	253.16	7.70	-42.9	-49.5	11.6	7.10e-02	0	56	0	14155776	57	7663
2026-01-14 00:50:33.10	253.04	7.79	-42.4	-48.0	13.1	1.50e-03	0	56	0	15204352	56	6837
2026-01-14 00:50:34.11	252.92	7.87	-42.1	-47.2	14.0	1.50e-03	0	56	0	16252928	56	6209
2026-01-14 00:50:35.12	252.79	7.96	-41.8	-46.6	14.5	1.94e-05	0	56	0	17301504	55	6166
2026-01-14 00:50:36.13	252.67	8.05	-41.8	-46.7	14.4	1.10e-06	0	56	0	18350080	55	6206
2026-01-14 00:50:37.14	252.54	8.13	-42.3	-47.7	13.2	1.10e-06	0	56	0	19398656	55	7002
2026-01-14 00:50:38.15	252.42	8.22	-41.0	-44.8	16.2	1.14e-05	0	56	0	20971520	54	5285
2026-01-14 00:50:39.16	252.29	8.31	-43.7	-54.1	7.0	5.86e-03	0	56	0	22020096	58	12357
2026-01-14 00:50:40.17	252.16	8.39	-42.9	-49.3	10.8	5.86e-03	0	56	0	23068672	57	7497
2026-01-14 00:50:41.18	252.03	8.48	-43.1	-50.3	10.6	8.52e-02	0	56	0	24117248	57	8446
2026-01-14 00:50:42.19	251.90	8.57	-40.8	-44.6	16.4	8.51e-04	0	56	0	25165824	53	5468
2026-01-14 00:50:43.20	251.77	8.66	-40.8	-44.5	16.7	0.00e+00	0	56	0	26214400	53	5436
2026-01-14 00:50:44.21	251.63	8.75	-40.6	-44.1	17.1	0.00e+00	0	56	0	27787264	53	5167
2026-01-14 00:50:45.22	251.50	8.84	-40.4	-43.8	17.4	0.00e+00	0	56	0	28835840	52	5312
2026-01-14 00:50:46.23	251.36	8.93	-40.5	-43.9	17.3	0.00e+00	0	56	0	29884416	52	5362
2026-01-14 00:50:47.24	251.23	9.02	-40.5	-44.0	17.3	0.00e+00	0	56	0	30932992	52	5408
2026-01-14 00:50:48.25	251.09	9.11	-40.5	-43.9	17.3	0.00e+00	0	56	0	31981568	52	5390
2026-01-14 00:50:49.26	250.95	9.20	-40.5	-43.9	17.4	0.00e+00	0	56	0	33030144	52	5351
2026-01-14 00:50:50.27	250.81	9.29	-40.4	-43.7	17.6	0.00e+00	0	56	0	34603008	52	5246
2026-01-14 00:50:51.27	250.67	9.38	-40.4	-43.6	17.7	0.00e+00	0	56	0	35651584	52	5214
2026-01-14 00:50:52.28	250.53	9.47	-40.3	-43.6	17.7	0.00e+00	0	56	0	36700160	52	5183
2026-01-14 00:50:53.29	250.38	9.57	-40.3	-43.5	17.9	0.00e+00	0	56	0	37748736	52	5110
2026-01-14 00:50:54.30	250.24	9.66	-40.3	-43.5	17.9	0.00e+00	0	56	0	38797312	52	5111
2026-01-14 00:50:55.31	250.09	9.75	-40.2	-43.4	17.9	0.00e+00	0	56	0	39845888	52	5075
2026-01-14 00:50:56.32	249.94	9.85	-40.2	-43.4	17.9	0.00e+00	0	56	0	41418752	52	5084
2026-01-14 00:50:57.33	249.80	9.94	-40.4	-43.7	17.7	0.00e+00	0	56	0	42467328	52	5241
2026-01-14 00:50:58.34	249.64	10.04	-40.3	-43.5	17.8	0.00e+00	0	56	0	43515904	52	5139
2026-01-14 00:50:59.35	249.49	10.13	-40.4	-43.7	17.7	0.00e+00	0	56	0	44564480	52	5239
2026-01-14 00:51:00.36	249.34	10.23	-40.4	-43.7	17.6	0.00e+00	0	56	0	45613056	52	5267
2026-01-14 00:51:01.37	249.19	10.32	-40.5	-43.8	17.6	0.00e+00	0	57	0	46661632	52	5285
2026-01-14 00:51:02.38	249.03	10.42	-40.5	-43.8	17.6	0.00e+00	0	57	0	48234496	52	5286
2026-01-14 00:51:03.40	248.87	10.51	-40.4	-43.6	17.7	0.00e+00	0	57	0	49283072	52	5208
2026-01-14 00:51:04.41	248.71	10.61	-40.3	-43.5	17.9	0.00e+00	0	57	0	50331648	52	5106
2026-01-14 00:51:05.41	248.55	10.71	-40.2	-43.3	18.1	0.00e+00	0	57	0	51380224	52	5013
2026-01-14 00:51:06.42	248.39	10.81	-40.1	-43.1	18.4	0.00e+00	0	57	0	52428800	52	4889
2026-01-14 00:51:07.43	248.23	10.90	-40.1	-43.1	18.4	0.00e+00	0	57	0	53477376	51	5163
2026-01-14 00:51:08.44	248.07	11.00	-40.0	-42.9	18.6	0.00e+00	0	57	0	55050240	51	5073
2026-01-14 00:51:09.46	247.90	11.10	-39.9	-42.9	18.6	0.00e+00	0	57	0	56098816	51	5054
2026-01-14 00:51:10.47	247.73	11.20	-40.0	-43.0	18.5	0.00e+00	0	57	0	57147392	51	5131
2026-01-14 00:51:11.47	247.56	11.30	-40.1	-43.0	18.5	0.00e+00	0	57	0	58195968	51	5142
2026-01-14 00:51:12.48	247.39	11.40	-40.1	-43.2	18.4	0.00e+00	0	57	0	59244544	51	5221
2026-01-14 00:51:13.49	247.22	11.50	-40.2	-43.2	18.4	0.00e+00	0	57	0	60293120	51	5227
2026-01-14 00:51:14.51	247.05	11.60	-40.1	-43.1	18.4	0.00e+00	0	57	0	61865984	51	5199
2026-01-14 00:51:15.51	246.87	11.70	-40.2	-43.2	18.3	0.00e+00	0	57	0	62914560	51	5279
2026-01-14 00:51:16.52	246.70	11.80	-40.1	-43.1	18.5	0.00e+00	0	57	0	63963136	51	5168
2026-01-14 00:51:17.53	246.52	11.91	-40.2	-43.2	18.4	0.00e+00	0	57	0	65011712	51	5231
2026-01-14 00:51:18.55	246.34	12.01	-40.0	-42.9	18.7	0.00e+00	0	57	0	66060288	51	5067
2026-01-14 00:51:19.56	246.15	12.11	-40.1	-43.0	18.6	0.00e+00	0	57	0	67108864	51	5142
2026-01-14 00:51:20.57	245.97	12.22	-39.8	-42.6	18.9	0.00e+00	0	57	0	68681728	51	4925
2026-01-14 00:51:21.57	245.79	12.32	-39.6	-42.3	19.3	0.00e+00	0	57	0	69730304	51	4731
2026-01-14 00:51:22.59	245.60	12.43	-39.5	-42.2	19.4	0.00e+00	0	57	0	70778880	51	4682
2026-01-14 00:51:23.59	245.41	12.53	-39.5	-42.1	19.5	0.00e+00	0	57	0	71827456	50	4915
2026-01-14 00:51:24.61	245.22	12.63	-39.7	-42.4	19.2	0.00e+00	0	57	0	72876032	50	5059
2026-01-14 00:51:25.62	245.03	12.74	-39.5	-42.2	19.4	0.00e+00	0	57	0	73924608	50	4948
2026-01-14 00:51:26.63	244.83	12.85	-39.5	-42.1	19.5	0.00e+00	0	57	0	75497472	50	4917
2026-01-14 00:51:27.64	244.64	12.95	-39.5	-42.2	19.4	0.00e+00	0	57	0	76546048	50	4954
2026-01-14 00:51:28.65	244.44	13.06	-39.5	-42.2	19.4	0.00e+00	0	57	0	77594624	50	4960
2026-01-14 00:51:29.66	244.24	13.17	-39.6	-42.3	19.4	0.00e+00	0	57	0	78643200	50	5010
2026-01-14 00:51:30.67	244.04	13.27	-39.5	-42.1	19.5	0.00e+00	0	57	0	79691776	50	4910
2026-01-14 00:51:31.68	243.83	13.38	-39.4	-42.0	19.6	0.00e+00	0	57	0	80740352	50	4868
2026-01-14 00:51:32.69	243.63	13.49	-39.3	-41.8	19.8	0.00e+00	0	57	0	82313216	50	4759
2026-01-14 00:51:33.70	243.42	13.60	-39.2	-41.7	20.0	0.00e+00	0	57	0	83361792	50	4667
2026-01-14 00:51:34.71	243.21	13.71	-39.1	-41.6	20.1	0.00e+00	0	57	0	84410368	50	4606
2026-01-14 00:51:35.71	243.00	13.82	-39.1	-41.5	20.2	0.00e+00	0	57	0	85458944	50	4577
2026-01-14 00:51:36.72	242.79	13.93	-39.0	-41.4	20.3	0.00e+00	0	57	0	86507520	50	4528
2026-01-14 00:51:37.73	242.57	14.04	-39.1	-41.5	20.2	0.00e+00	0	57	0	87556096	50	4586
2026-01-14 00:51:38.74	242.36	14.15	-39.3	-41.8	19.9	0.00e+00	0	57	0	89128960	50	4713
2026-01-14 00:51:39.75	242.14	14.26	-39.2	-41.7	20.0	0.00e+00	0	57	0	90177536	50	4674
2026-01-14 00:51:40.76	241.91	14.37	-39.3	-41.8	19.9	0.00e+00	0	57	0	91226112	50	4740
2026-01-14 00:51:41.77	241.69	14.48	-39.1	-41.6	20.1	0.00e+00	0	57	0	92274688	50	4608
2026-01-14 00:51:42.78	241.46	14.60	-39.2	-41.8	20.0	0.00e+00	0	58	0	93323264	50	4706
2026-01-14 00:51:43.79	241.23	14.71	-39.2	-41.6	20.1	0.00e+00	0	57	0	94371840	50	4642
2026-01-14 00:51:44.80	241.00	14.82	-39.1	-41.5	20.2	0.00e+00	0	57	0	95944704	50	4554
2026-01-14 00:51:45.80	240.77	14.94	-38.8	-41.1	20.6	0.00e+00	0	57	0	96993280	49	4614
2026-01-14 00:51:46.81	240.54	15.05	-38.7	-41.0	20.7	0.00e+00	0	58	0	98041856	49	4574
2026-01-14 00:51:47.82	240.30	15.16	-38.8	-41.2	20.6	0.00e+00	0	57	0	99090432	49	4660
2026-01-14 00:51:48.83	240.06	15.28	-38.7	-41.0	20.7	0.00e+00	0	58	0	100139008	49	4567
2026-01-14 00:51:49.84	239.82	15.39	-38.6	-40.9	20.8	0.00e+00	0	58	0	101187584	49	4504
2026-01-14 00:51:50.85	239.57	15.51	-38.7	-40.9	20.8	0.00e+00	0	58	0	102760448	49	4538
2026-01-14 00:51:51.86	239.33	15.62	-38.9	-41.3	20.4	0.00e+00	0	58	0	103809024	49	4729
2026-01-14 00:51:52.87	239.08	15.74	-38.9	-41.3	20.4	0.00e+00	0	58	0	104857600	49	4741
2026-01-14 00:51:53.88	238.82	15.86	-39.0	-41.3	20.4	0.00e+00	0	58	0	105906176	49	4755
2026-01-14 00:51:54.89	238.57	15.97	-38.9	-41.3	20.4	0.00e+00	0	58	0	106954752	49	4717
2026-01-14 00:51:55.90	238.31	16.09	-38.7	-41.0	20.8	0.00e+00	0	58	0	108003328	49	4558
2026-01-14 00:51:56.91	238.05	16.21	-38.5	-40.7	21.0	0.00e+00	0	58	0	109576192	49	4438
2026-01-14 00:51:57.92	237.79	16.33	-38.5	-40.7	21.1	0.00e+00	0	58	0	110624768	48	4666
2026-01-14 00:51:58.93	237.53	16.44	-38.0	-40.1	21.7	0.00e+00	0	58	0	111673344	48	4367
2026-01-14 00:51:59.94	237.26	16.56	-38.1	-40.2	21.5	0.00e+00	0	58	0	112721920	47	4682
2026-01-14 00:52:00.95	236.99	16.68	-38.2	-40.3	21.4	0.00e+00	0	58	0	113770496	47	4757
2026-01-14 00:52:01.96	236.72	16.80	-38.5	-40.7	21.0	0.00e+00	0	58	0	114819072	47	4950
2026-01-14 00:52:02.97	236.44	16.92	-38.4	-40.6	21.1	0.00e+00	0	58	0	116391936	47	4923
2026-01-14 00:52:03.98	236.16	17.04	-38.4	-40.7	21.1	0.00e+00	0	58	0	117440512	47	4939
2026-01-14 00:52:04.99	235.88	17.16	-38.6	-40.8	20.9	0.00e+00	0	58	0	118489088	47	5026
2026-01-14 00:52:06.00	235.60	17.28	-38.6	-40.8	20.9	0.00e+00	0	58	0	119537664	47	5021
2026-01-14 00:52:07.01	235.31	17.40	-38.6	-40.8	20.9	0.00e+00	0	58	0	120586240	47	5028
2026-01-14 00:52:08.02	235.02	17.52	-38.4	-40.6	21.2	0.00e+00	0	58	0	121634816	47	4882
2026-01-14 00:52:09.03	234.73	17.64	-38.3	-40.4	21.3	0.00e+00	0	58	0	123207680	47	4804
2026-01-14 00:52:10.04	234.43	17.76	-38.2	-40.3	21.5	0.00e+00	0	58	0	124256256	47	4724
2026-01-14 00:52:11.04	234.14	17.88	-38.2	-40.4	21.4	0.00e+00	0	58	0	125304832	47	4777
2026-01-14 00:52:12.06	233.83	18.00	-38.2	-40.3	21.5	0.00e+00	0	58	0	126353408	47	4720
2026-01-14 00:52:13.07	233.53	18.13	-38.2	-40.4	21.4	0.00e+00	0	58	0	127401984	47	4789
2026-01-14 00:52:14.07	233.22	18.25	-38.3	-40.5	21.3	0.00e+00	0	58	0	128450560	47	4830
2026-01-14 00:52:15.08	232.91	18.37	-38.4	-40.6	21.1	0.00e+00	0	58	0	130023424	47	4923
2026-01-14 00:52:16.09	232.60	18.49	-38.3	-40.5	21.3	0.00e+00	0	58	0	131072000	47	4832
2026-01-14 00:52:17.10	232.28	18.61	-38.5	-40.7	21.1	0.00e+00	0	58	0	132120576	47	4943
2026-01-14 00:52:18.11	231.96	18.73	-38.3	-40.5	21.3	0.00e+00	0	58	0	133169152	47	4862
2026-01-14 00:52:19.12	231.64	18.85	-38.2	-40.3	21.5	0.00e+00	0	58	0	134217728	47	4733
2026-01-14 00:52:20.13	231.32	18.98	-37.9	-39.9	21.8	0.00e+00	0	58	0	135266304	47	4541
2026-01-14 00:52:21.14	230.99	19.10	-37.9	-40.0	21.8	0.00e+00	0	58	0	136839168	47	4569
2026-01-14 00:52:22.15	230.65	19.22	-37.7	-39.7	22.2	0.00e+00	0	58	0	137887744	47	4393
2026-01-14 00:52:23.16	230.32	19.34	-37.6	-39.6	22.2	0.00e+00	0	58	0	138936320	47	4388
2026-01-14 00:52:24.17	229.98	19.46	-37.6	-39.6	22.2	0.00e+00	0	58	0	139984896	47	4354
2026-01-14 00:52:25.18	229.64	19.59	-37.6	-39.5	22.3	0.00e+00	0	58	0	141033472	47	4321
2026-01-14 00:52:26.19	229.29	19.71	-37.9	-39.9	22.0	0.00e+00	0	58	0	142082048	47	4521
2026-01-14 00:52:27.20	228.94	19.83	-38.0	-40.1	21.8	0.00e+00	0	58	0	143654912	47	4599
2026-01-14 00:52:28.21	228.59	19.95	-38.1	-40.2	21.6	0.00e+00	0	58	0	144703488	47	4696
2026-01-14 00:52:29.22	228.23	20.07	-38.1	-40.1	21.7	0.00e+00	0	58	0	145752064	47	4646
2026-01-14 00:52:30.23	227.88	20.19	-38.0	-40.1	21.7	0.00e+00	0	58	0	146800640	47	4640
2026-01-14 00:52:31.24	227.51	20.31	-37.9	-39.9	21.9	0.00e+00	0	58	0	147849216	47	4528
2026-01-14 00:52:32.25	227.15	20.43	-37.9	-39.9	21.9	0.00e+00	0	58	0	148897792	47	4524
2026-01-14 00:52:33.26	226.78	20.55	-37.5	-39.4	22.4	0.00e+00	0	58	0	150470656	47	4284
2026-01-14 00:52:34.26	226.41	20.67	-37.4	-39.3	22.6	0.00e+00	0	58	0	151519232	46	4450
2026-01-14 00:52:35.27	226.03	20.79	-37.4	-39.3	22.6	0.00e+00	0	58	0	152567808	46	4462
2026-01-14 00:52:36.28	225.65	20.91	-37.5	-39.5	22.4	0.00e+00	0	58	0	153616384	46	4551
2026-01-14 00:52:37.29	225.27	21.03	-37.4	-39.3	22.5	0.00e+00	0	58	0	154664960	46	4490
2026-01-14 00:52:38.30	224.88	21.15	-37.5	-39.4	22.4	0.00e+00	0	58	0	155713536	46	4542
2026-01-14 00:52:39.31	224.49	21.27	-37.7	-39.7	22.2	0.00e+00	0	58	0	157286400	46	4674
2026-01-14 00:52:40.32	224.10	21.39	-37.8	-39.9	22.0	0.00e+00	0	58	0	158334976	46	4764
2026-01-14 00:52:41.33	223.70	21.50	-37.9	-39.9	22.0	0.00e+00	0	58	0	159383552	46	4786
2026-01-14 00:52:42.34	223.30	21.62	-37.9	-39.9	22.0	0.00e+00	0	58	0	160432128	46	4805
2026-01-14 00:52:43.35	222.89	21.74	-37.8	-39.8	22.1	0.00e+00	0	58	0	161480704	46	4731
2026-01-14 00:52:44.36	222.48	21.85	-37.6	-39.6	22.3	0.00e+00	0	59	0	162529280	46	4628
2026-01-14 00:52:45.37	222.07	21.97	-37.6	-39.5	22.4	0.00e+00	0	58	0	164102144	46	4578
2026-01-14 00:52:46.38	221.65	22.08	-37.4	-39.3	22.6	0.00e+00	0	58	0	165150720	46	4465
2026-01-14 00:52:47.39	221.23	22.19	-37.5	-39.4	22.5	0.00e+00	0	58	0	166199296	46	4533
2026-01-14 00:52:48.40	220.81	22.31	-37.3	-39.2	22.7	0.00e+00	0	58	0	167247872	46	4398
2026-01-14 00:52:49.40	220.39	22.42	-37.2	-39.0	22.9	0.00e+00	0	59	0	168296448	46	4338
2026-01-14 00:52:50.42	219.95	22.53	-37.1	-38.9	23.0	0.00e+00	0	58	0	169345024	46	4283
2026-01-14 00:52:51.42	219.52	22.64	-37.0	-38.8	23.1	0.00e+00	0	58	0	170917888	46	4222
2026-01-14 00:52:52.43	219.09	22.75	-37.1	-38.9	23.0	0.00e+00	0	58	0	171966464	45	4521
2026-01-14 00:52:53.44	218.64	22.86	-37.1	-39.0	22.9	0.00e+00	0	59	0	173015040	45	4555
2026-01-14 00:52:54.45	218.20	22.97	-37.3	-39.1	22.8	0.00e+00	0	58	0	174063616	45	4651
2026-01-14 00:52:55.46	217.75	23.07	-37.2	-39.1	22.8	0.00e+00	0	58	0	175112192	45	4627
2026-01-14 00:52:56.47	217.30	23.18	-37.4	-39.3	22.7	0.00e+00	0	58	0	176160768	45	4707
2026-01-14 00:52:57.48	216.84	23.28	-37.4	-39.3	22.6	0.00e+00	0	58	0	177733632	45	4749
2026-01-14 00:52:58.49	216.38	23.38	-37.2	-39.1	22.9	0.00e+00	0	58	0	178782208	45	4616
2026-01-14 00:52:59.50	215.92	23.49	-37.3	-39.1	22.8	0.00e+00	0	59	0	179830784	45	4651
2026-01-14 00:53:00.51	215.45	23.59	-37.3	-39.2	22.7	0.00e+00	0	59	0	180879360	45	4685
2026-01-14 00:53:01.52	214.98	23.69	-37.4	-39.4	22.6	0.00e+00	0	59	0	181927936	45	4760
2026-01-14 00:53:02.53	214.51	23.78	-37.5	-39.4	22.5	0.00e+00	0	59	0	182976512	45	4810
2026-01-14 00:53:03.53	214.04	23.88	-37.5	-39.4	22.6	0.00e+00	0	59	0	184549376	45	4774
2026-01-14 00:53:04.54	213.56	23.98	-37.4	-39.3	22.6	0.00e+00	0	58	0	185597952	45	4756
2026-01-14 00:53:05.55	213.07	24.07	-37.3	-39.2	22.8	0.00e+00	0	59	0	186646528	45	4672
2026-01-14 00:53:06.57	212.58	24.16	-37.2	-39.1	22.9	0.00e+00	0	59	0	187695104	45	4600
2026-01-14 00:53:07.57	212.10	24.25	-37.2	-39.1	22.8	0.00e+00	0	59	0	188743680	45	4613
2026-01-14 00:53:08.58	211.60	24.34	-37.2	-39.1	22.8	0.00e+00	0	59	0	189792256	45	4605
2026-01-14 00:53:09.59	211.11	24.43	-37.1	-39.0	22.9	0.00e+00	0	59	0	191365120	45	4569
2026-01-14 00:53:10.60	210.61	24.52	-37.3	-39.1	22.8	0.00e+00	0	59	0	192413696	45	4645
2026-01-14 00:53:11.61	210.10	24.60	-37.2	-39.1	22.8	0.00e+00	0	59	0	193462272	45	4629
2026-01-14 00:53:12.62	209.60	24.68	-37.2	-39.0	22.9	0.00e+00	0	59	0	194510848	45	4576
2026-01-14 00:53:13.63	209.09	24.76	-37.0	-38.9	23.1	0.00e+00	0	59	0	195559424	45	4494
2026-01-14 00:53:14.64	208.57	24.84	-36.8	-38.6	23.3	0.00e+00	0	59	0	196608000	45	4353
2026-01-14 00:53:15.65	208.06	24.92	-36.9	-38.7	23.3	0.00e+00	0	59	0	198180864	45	4395
2026-01-14 00:53:16.66	207.54	24.99	-36.9	-38.7	23.3	0.00e+00	0	59	0	199229440	45	4394
2026-01-14 00:53:17.67	207.02	25.07	-37.0	-38.8	23.1	0.00e+00	0	59	0	200278016	45	4478
2026-01-14 00:53:18.68	206.50	25.14	-37.0	-38.9	23.1	0.00e+00	0	59	0	201326592	45	4501
2026-01-14 00:53:19.69	205.97	25.21	-37.0	-38.9	23.1	0.00e+00	0	59	0	202375168	45	4500
2026-01-14 00:53:20.70	205.44	25.27	-37.0	-38.9	23.0	0.00e+00	0	59	0	203423744	45	4514
2026-01-14 00:53:21.71	204.91	25.34	-37.1	-38.9	22.9	0.00e+00	0	59	0	204996608	45	4542
2026-01-14 00:53:22.72	204.37	25.40	-37.2	-39.0	22.9	0.00e+00	0	59	0	206045184	45	4590
2026-01-14 00:53:23.73	203.84	25.46	-37.3	-39.2	22.8	0.00e+00	0	59	0	207093760	45	4684
2026-01-14 00:53:24.74	203.30	25.52	-37.2	-39.1	22.9	0.00e+00	0	59	0	208142336	45	4600
2026-01-14 00:53:25.74	202.76	25.57	-37.0	-38.8	23.1	0.00e+00	0	59	0	209190912	45	4452
2026-01-14 00:53:26.75	202.22	25.63	-36.9	-38.6	23.3	0.00e+00	0	59	0	210239488	45	4391
2026-01-14 00:53:27.76	201.68	25.68	-36.6	-38.3	23.6	0.00e+00	0	59	0	211812352	45	4221
2026-01-14 00:53:28.77	201.13	25.73	-36.6	-38.4	23.5	0.00e+00	0	59	0	212860928	45	4260
2026-01-14 00:53:29.78	200.58	25.77	-36.6	-38.3	23.6	0.00e+00	0	59	0	213909504	45	4227
2026-01-14 00:53:30.79	200.03	25.82	-36.8	-38.5	23.4	0.00e+00	0	59	0	214958080	45	4336
2026-01-14 00:53:31.80	199.48	25.86	-36.6	-38.3	23.6	0.00e+00	0	59	0	216006656	45	4242
2026-01-14 00:53:32.81	198.92	25.90	-36.5	-38.3	23.6	0.00e+00	0	59	0	217055232	45	4214
2026-01-14 00:53:33.82	198.37	25.93	-36.4	-38.2	23.7	0.00e+00	0	59	0	218628096	44	4404
2026-01-14 00:53:34.83	197.81	25.97	-36.4	-38.2	23.8	0.00e+00	0	59	0	219676672	44	4394
2026-01-14 00:53:35.84	197.25	26.00	-36.5	-38.3	23.7	0.00e+00	0	59	0	220725248	44	4443
2026-01-14 00:53:36.85	196.69	26.03	-36.4	-38.1	23.8	0.00e+00	0	59	0	221773824	44	4353
2026-01-14 00:53:37.86	196.13	26.05	-36.5	-38.2	23.7	0.00e+00	0	59	0	222822400	44	4439
2026-01-14 00:53:38.87	195.57	26.07	-36.5	-38.3	23.6	0.00e+00	0	59	0	223870976	44	4453
2026-01-14 00:53:39.88	195.01	26.09	-36.4	-38.1	23.8	0.00e+00	0	59	0	225443840	44	4367
2026-01-14 00:53:40.89	194.44	26.11	-36.3	-38.0	23.9	0.00e+00	0	59	0	226492416	44	4303
2026-01-14 00:53:41.89	193.88	26.13	-36.3	-38.1	23.8	0.00e+00	0	59	0	227540992	44	4341
2026-01-14 00:53:42.90	193.32	26.14	-36.4	-38.2	23.7	0.00e+00	0	59	0	228589568	44	4394
2026-01-14 00:53:43.91	192.75	26.15	-36.6	-38.4	23.5	0.00e+00	0	59	0	229638144	44	4496
2026-01-14 00:53:44.92	192.19	26.16	-36.5	-38.3	23.6	0.00e+00	0	59	0	230686720	44	4452
2026-01-14 00:53:45.93	191.62	26.16	-36.4	-38.1	23.8	0.00e+00	0	59	0	231735296	44	4351
2026-01-14 00:53:46.94	191.06	26.16	-36.3	-38.0	23.9	0.00e+00	0	59	0	233308160	44	4304
2026-01-14 00:53:47.95	190.49	26.16	-36.3	-38.0	23.9	0.00e+00	0	59	0	234356736	44	4301
2026-01-14 00:53:48.96	189.92	26.16	-36.2	-37.9	23.9	0.00e+00	0	59	0	235405312	44	4277
2026-01-14 00:53:49.97	189.36	26.15	-36.2	-37.8	24.0	0.00e+00	0	59	0	236453888	44	4239
2026-01-14 00:53:50.98	188.79	26.14	-36.1	-37.8	24.1	0.00e+00	0	59	0	237502464	44	4221
2026-01-14 00:53:51.99	188.23	26.13	-35.7	-37.3	24.3	0.00e+00	0	59	0	238551040	43	4220
2026-01-14 00:53:53.00	187.66	26.12	-35.8	-37.5	24.1	0.00e+00	0	59	0	240123904	43	4297
2026-01-14 00:53:54.01	187.10	26.10	-36.2	-37.9	23.7	0.00e+00	0	59	0	241172480	43	4533
2026-01-14 00:53:55.02	186.54	26.08	-36.6	-38.4	23.3	0.00e+00	0	59	0	242221056	43	4781
2026-01-14 00:53:56.03	185.98	26.06	-36.7	-38.4	23.2	0.00e+00	0	59	0	243269632	43	4811
2026-01-14 00:53:57.04	185.42	26.03	-37.0	-38.8	23.0	0.00e+00	0	59	0	244318208	44	4744
2026-01-14 00:53:58.05	184.86	26.01	-36.8	-38.5	23.3	0.00e+00	0	59	0	245891072	44	4591
2026-01-14 00:53:59.06	184.30	25.98	-36.6	-38.4	23.4	0.00e+00	0	59	0	246939648	44	4509
2026-01-14 00:54:00.07	183.74	25.94	-36.4	-38.1	23.7	0.00e+00	0	59	0	247988224	44	4377
2026-01-14 00:54:01.08	183.18	25.91	-36.6	-38.3	23.5	0.00e+00	0	59	0	249036800	44	4463
2026-01-14 00:54:02.09	182.63	25.87	-36.7	-38.5	23.3	0.00e+00	0	59	0	250085376	44	4565
2026-01-14 00:54:03.10	182.08	25.83	-36.8	-38.6	23.2	0.00e+00	0	59	0	251133952	44	4648
2026-01-14 00:54:04.11	181.52	25.79	-37.0	-38.8	23.0	0.00e+00	0	59	0	252706816	44	4738
2026-01-14 00:54:05.12	180.97	25.74	-36.8	-38.5	23.3	0.00e+00	0	59	0	253755392	44	4591
2026-01-14 00:54:06.13	180.43	25.69	-36.4	-38.1	23.7	0.00e+00	0	59	0	254803968	44	4368
2026-01-14 00:54:07.14	179.88	25.64	-36.4	-38.2	23.7	0.00e+00	0	59	0	255852544	44	4406
2026-01-14 00:54:08.15	179.34	25.59	-37.0	-38.8	23.1	0.00e+00	0	59	0	256901120	44	4754
2026-01-14 00:54:09.16	178.80	25.53	-37.1	-38.9	22.9	0.00e+00	0	59	0	257949696	44	4801
2026-01-14 00:54:10.17	178.26	25.48	-37.3	-39.2	22.6	0.00e+00	0	59	0	259522560	45	4676
2026-01-14 00:54:11.17	177.72	25.42	-36.9	-38.7	23.1	0.00e+00	0	59	0	260571136	45	4405
2026-01-14 00:54:12.18	177.19	25.36	-36.7	-38.5	23.3	0.00e+00	0	59	0	261619712	45	4314
2026-01-14 00:54:13.19	176.66	25.29	-36.8	-38.6	23.2	0.00e+00	0	59	0	262668288	45	4375
2026-01-14 00:54:14.20	176.13	25.23	-37.1	-38.9	23.0	0.00e+00	0	59	0	263716864	45	4528
2026-01-14 00:54:15.21	175.60	25.16	-37.5	-39.4	22.7	0.00e+00	0	59	0	264765440	45	4771
2026-01-14 00:54:16.22	175.08	25.09	-37.4	-39.4	22.6	0.00e+00	0	59	0	266338304	45	4763
2026-01-14 00:54:17.23	174.55	25.02	-37.3	-39.2	22.7	0.00e+00	0	59	0	267386880	45	4688
2026-01-14 00:54:18.24	174.03	24.94	-37.2	-39.1	22.8	0.00e+00	0	59	0	268435456	45	4634
2026-01-14 00:54:19.25	173.52	24.86	-37.0	-38.9	23.0	0.00e+00	0	59	0	269484032	45	4512
2026-01-14 00:54:20.26	173.01	24.79	-37.0	-38.9	23.0	0.00e+00	0	59	0	270532608	45	4495
2026-01-14 00:54:21.27	172.49	24.71	-37.1	-39.0	22.9	0.00e+00	0	59	0	271581184	45	4553
2026-01-14 00:54:22.28	171.99	24.62	-37.2	-39.1	22.8	0.00e+00	0	59	0	272629760	45	4616
2026-01-14 00:54:23.29	171.48	24.54	-37.3	-39.3	22.6	0.00e+00	0	59	0	274202624	45	4718
2026-01-14 00:54:24.30	170.98	24.46	-37.6	-39.6	22.3	0.00e+00	0	59	0	275251200	45	4880
2026-01-14 00:54:25.31	170.48	24.37	-37.7	-39.7	22.2	0.00e+00	0	59	0	276299776	45	4941
2026-01-14 00:54:26.32	169.99	24.28	-37.6	-39.6	22.3	0.00e+00	0	59	0	277348352	45	4901
2026-01-14 00:54:27.32	169.50	24.19	-37.3	-39.2	22.7	0.00e+00	0	59	0	278396928	45	4652
2026-01-14 00:54:28.34	169.01	24.10	-37.3	-39.3	22.6	0.00e+00	0	59	0	279445504	45	4709
2026-01-14 00:54:29.34	168.53	24.01	-37.2	-39.1	22.8	0.00e+00	0	59	0	281018368	45	4628
2026-01-14 00:54:30.35	168.05	23.91	-37.2	-39.1	22.9	0.00e+00	0	59	0	282066944	45	4607
2026-01-14 00:54:31.36	167.57	23.81	-37.2	-39.1	22.9	0.00e+00	0	59	0	283115520	45	4619
2026-01-14 00:54:32.37	167.10	23.72	-37.3	-39.2	22.8	0.00e+00	0	59	0	284164096	45	4671
2026-01-14 00:54:33.38	166.63	23.62	-37.3	-39.2	22.8	0.00e+00	0	59	0	285212672	45	4685
2026-01-14 00:54:34.39	166.16	23.52	-37.3	-39.2	22.8	0.00e+00	0	59	0	286261248	45	4664
2026-01-14 00:54:35.40	165.69	23.42	-37.0	-38.8	23.1	0.00e+00	0	59	0	287834112	45	4458
2026-01-14 00:54:36.41	165.23	23.31	-36.8	-38.6	23.3	0.00e+00	0	59	0	288882688	45	4357
2026-01-14 00:54:37.42	164.78	23.21	-36.7	-38.5	23.5	0.00e+00	0	59	0	289931264	45	4317
2026-01-14 00:54:38.43	164.32	23.10	-36.7	-38.5	23.4	0.00e+00	0	59	0	290979840	45	4322
2026-01-14 00:54:39.44	163.87	23.00	-37.0	-38.9	23.2	0.00e+00	0	59	0	292028416	45	4495
2026-01-14 00:54:40.45	163.43	22.89	-37.3	-39.2	22.7	0.00e+00	0	59	0	293601280	45	4674
2026-01-14 00:54:41.46	162.99	22.78	-37.5	-39.4	22.5	0.00e+00	0	59	0	294649856	45	4814
2026-01-14 00:54:42.47	162.55	22.67	-37.5	-39.4	22.6	0.00e+00	0	59	0	295698432	45	4811
2026-01-14 00:54:43.48	162.11	22.56	-37.5	-39.4	22.5	0.00e+00	0	59	0	296747008	45	4804
2026-01-14 00:54:44.49	161.68	22.45	-37.6	-39.6	22.5	0.00e+00	0	59	0	297795584	45	4877
2026-01-14 00:54:45.50	161.25	22.34	-37.1	-38.9	23.1	0.00e+00	0	59	0	298844160	45	4513
2026-01-14 00:54:46.51	160.83	22.23	-36.8	-38.6	23.3	0.00e+00	0	59	0	300417024	45	4352
2026-01-14 00:54:47.51	160.41	22.12	-37.0	-38.8	23.1	0.00e+00	0	59	0	301465600	45	4485
2026-01-14 00:54:48.52	159.99	22.00	-37.2	-39.0	22.9	0.00e+00	0	59	0	302514176	45	4596
2026-01-14 00:54:49.53	159.58	21.89	-37.7	-39.7	22.3	0.00e+00	0	59	0	303562752	46	4702
2026-01-14 00:54:50.54	159.17	21.77	-37.9	-39.9	22.2	0.00e+00	0	59	0	304611328	46	4782
2026-01-14 00:54:51.55	158.77	21.66	-38.0	-40.1	21.9	0.00e+00	0	60	0	305659904	46	4891
2026-01-14 00:54:52.56	158.36	21.54	-37.8	-39.8	22.2	0.00e+00	0	59	0	307232768	46	4734
2026-01-14 00:54:53.57	157.96	21.42	-37.8	-39.8	22.2	0.00e+00	0	59	0	308281344	46	4741
2026-01-14 00:54:54.58	157.57	21.31	-37.7	-39.7	22.3	0.00e+00	0	59	0	309329920	46	4689
2026-01-14 00:54:55.59	157.18	21.19	-37.5	-39.5	22.5	0.00e+00	0	59	0	310378496	46	4553
2026-01-14 00:54:56.60	156.79	21.07	-37.4	-39.3	22.7	0.00e+00	0	59	0	311427072	46	4480
2026-01-14 00:54:57.61	156.40	20.95	-37.5	-39.5	22.5	0.00e+00	0	59	0	312475648	46	4550
2026-01-14 00:54:58.62	156.02	20.83	-37.7	-39.7	22.3	0.00e+00	0	59	0	313524224	46	4683
2026-01-14 00:54:59.63	155.65	20.71	-37.8	-39.8	22.2	0.00e+00	0	59	0	315097088	46	4740
2026-01-14 00:55:00.63	155.28	20.59	-37.8	-39.8	22.2	0.00e+00	0	59	0	316145664	46	4724
2026-01-14 00:55:01.64	154.90	20.47	-37.8	-39.8	22.2	0.00e+00	0	59	0	317194240	46	4745
2026-01-14 00:55:02.65	154.54	20.35	-37.8	-39.8	22.2	0.00e+00	0	59	0	318242816	46	4709
2026-01-14 00:55:03.67	154.17	20.23	-37.8	-39.9	22.1	0.00e+00	0	60	0	319291392	46	4761
2026-01-14 00:55:04.67	153.81	20.11	-37.9	-40.0	22.0	0.00e+00	0	59	0	320339968	46	4834
2026-01-14 00:55:05.69	153.45	19.99	-38.0	-40.0	22.0	0.00e+00	0	59	0	321912832	46	4847
2026-01-14 00:55:06.70	153.10	19.87	-37.9	-39.9	22.1	0.00e+00	0	59	0	322961408	46	4814
2026-01-14 00:55:07.71	152.75	19.74	-37.8	-39.9	22.1	0.00e+00	0	59	0	324009984	46	4767
2026-01-14 00:55:08.72	152.40	19.62	-37.9	-39.9	22.1	0.00e+00	0	60	0	325058560	46	4783
2026-01-14 00:55:09.73	152.06	19.50	-38.0	-40.0	22.0	0.00e+00	0	59	0	326107136	46	4866
2026-01-14 00:55:10.74	151.72	19.38	-38.0	-40.1	21.9	0.00e+00	0	59	0	327155712	46	4901
2026-01-14 00:55:11.75	151.38	19.26	-38.0	-40.0	21.9	0.00e+00	0	59	0	328728576	46	4866
2026-01-14 00:55:12.76	151.05	19.14	-38.0	-40.1	21.8	0.00e+00	0	59	0	329777152	46	4920
2026-01-14 00:55:13.77	150.72	19.01	-38.0	-40.1	21.9	0.00e+00	0	59	0	330825728	46	4875
2026-01-14 00:55:14.78	150.39	18.89	-38.0	-40.1	21.8	0.00e+00	0	59	0	331874304	46	4916
2026-01-14 00:55:15.79	150.07	18.77	-38.0	-40.1	21.8	0.00e+00	0	59	0	332922880	46	4909
2026-01-14 00:55:16.80	149.75	18.65	-38.1	-40.3	21.7	0.00e+00	0	60	0	334495744	46	4984
2026-01-14 00:55:17.81	149.43	18.53	-38.0	-40.1	21.8	0.00e+00	0	60	0	335544320	46	4904
2026-01-14 00:55:18.82	149.12	18.40	-37.9	-40.0	21.9	0.00e+00	0	59	0	336592896	46	4819
2026-01-14 00:55:19.83	148.81	18.28	-37.8	-39.9	22.0	0.00e+00	0	59	0	337641472	46	4761
2026-01-14 00:55:20.83	148.50	18.16	-38.0	-40.1	21.8	0.00e+00	0	59	0	338690048	46	4889
2026-01-14 00:55:21.84	148.20	18.04	-38.1	-40.2	21.6	0.00e+00	0	60	0	339738624	46	4980
2026-01-14 00:55:22.85	147.89	17.92	-38.3	-40.4	21.4	0.00e+00	0	59	0	341311488	47	4813
2026-01-14 00:55:23.86	147.60	17.80	-38.2	-40.4	21.4	0.00e+00	0	59	0	342360064	47	4782
2026-01-14 00:55:24.87	147.30	17.68	-38.3	-40.5	21.3	0.00e+00	0	59	0	343408640	47	4819
2026-01-14 00:55:25.88	147.01	17.56	-38.2	-40.4	21.4	0.00e+00	0	59	0	344457216	47	4772
2026-01-14 00:55:26.89	146.72	17.44	-38.2	-40.4	21.4	0.00e+00	0	59	0	345505792	47	4764
2026-01-14 00:55:27.90	146.43	17.32	-38.2	-40.4	21.4	0.00e+00	0	59	0	346554368	47	4778
2026-01-14 00:55:28.91	146.14	17.20	-38.2	-40.4	21.4	0.00e+00	0	59	0	348127232	47	4760
2026-01-14 00:55:29.92	145.86	17.08	-38.3	-40.5	21.2	0.00e+00	0	59	0	349175808	47	4869
2026-01-14 00:55:30.93	145.58	16.96	-38.2	-40.4	21.4	0.00e+00	0	59	0	350224384	47	4780
2026-01-14 00:55:31.94	145.31	16.84	-38.3	-40.4	21.3	0.00e+00	0	60	0	351272960	47	4811
2026-01-14 00:55:32.95	145.03	16.72	-38.2	-40.4	21.3	0.00e+00	0	59	0	352321536	47	4772
2026-01-14 00:55:33.96	144.76	16.60	-38.2	-40.4	21.4	0.00e+00	0	59	0	353370112	47	4766
2026-01-14 00:55:34.97	144.49	16.48	-38.3	-40.5	21.3	0.00e+00	0	59	0	354418688	47	4821
2026-01-14 00:55:35.98	144.23	16.36	-38.3	-40.5	21.2	0.00e+00	0	60	0	355991552	47	4843
2026-01-14 00:55:36.99	143.96	16.25	-38.5	-40.7	21.0	0.00e+00	0	60	0	357040128	47	4978
2026-01-14 00:55:38.00	143.70	16.13	-38.6	-41.0	20.7	0.00e+00	0	60	0	358088704	47	5109
2026-01-14 00:55:39.01	143.45	16.01	-38.6	-40.9	20.8	0.00e+00	0	59	0	359137280	47	5083
2026-01-14 00:55:40.02	143.19	15.89	-38.6	-40.8	20.9	0.00e+00	0	59	0	360185856	47	5039
2026-01-14 00:55:41.03	142.94	15.78	-38.5	-40.8	20.9	0.00e+00	0	60	0	361234432	47	5021
2026-01-14 00:55:42.04	142.69	15.66	-38.5	-40.8	20.9	0.00e+00	0	60	0	362807296	47	5016
2026-01-14 00:55:43.05	142.44	15.55	-38.6	-40.9	20.8	0.00e+00	0	60	0	363855872	47	5053
2026-01-14 00:55:44.06	142.19	15.43	-38.6	-40.9	20.7	0.00e+00	0	60	0	364904448	47	5073
2026-01-14 00:55:45.07	141.95	15.31	-38.6	-40.9	20.7	0.00e+00	0	60	0	365953024	47	5081
2026-01-14 00:55:46.08	141.71	15.20	-38.9	-41.3	20.4	0.00e+00	0	59	0	367001600	48	4992
2026-01-14 00:55:47.09	141.47	15.09	-38.9	-41.4	20.3	0.00e+00	0	60	0	368050176	48	5048
2026-01-14 00:55:48.10	141.24	14.97	-39.0	-41.5	20.2	0.00e+00	0	60	0	369623040	48	5116
2026-01-14 00:55:49.10	141.00	14.86	-39.1	-41.5	20.1	0.00e+00	0	60	0	370671616	48	5141
2026-01-14 00:55:50.11	140.77	14.75	-39.0	-41.5	20.1	0.00e+00	0	59	0	371720192	48	5125
2026-01-14 00:55:51.12	140.54	14.63	-39.1	-41.6	19.9	0.00e+00	0	59	0	372768768	48	5218
2026-01-14 00:55:52.13	140.32	14.52	-39.1	-41.6	20.0	0.00e+00	0	60	0	373817344	48	5186
2026-01-14 00:55:53.14	140.09	14.41	-39.1	-41.5	20.0	0.00e+00	0	59	0	375390208	48	5144
2026-01-14 00:55:54.15	139.87	14.30	-39.0	-41.4	20.1	0.00e+00	0	59	0	376438784	48	5067
2026-01-14 00:55:55.16	139.65	14.18	-38.8	-41.2	20.3	0.00e+00	0	60	0	377487360	48	4975
2026-01-14 00:55:56.17	139.43	14.07	-38.9	-41.4	20.1	0.00e+00	0	60	0	378535936	48	5063
2026-01-14 00:55:57.18	139.21	13.96	-39.1	-41.6	19.9	0.00e+00	0	60	0	379584512	48	5170
2026-01-14 00:55:58.19	139.00	13.85	-39.2	-41.7	19.8	0.00e+00	0	59	0	380633088	48	5268
2026-01-14 00:55:59.20	138.79	13.74	-39.3	-41.9	19.5	0.00e+00	0	60	0	382205952	49	5098
2026-01-14 00:56:00.21	138.58	13.63	-39.4	-42.1	19.3	0.00e+00	0	60	0	383254528	49	5174
2026-01-14 00:56:01.22	138.37	13.53	-39.3	-42.7	18.9	3.43e-05	0	60	0	384303104	48	5888
2026-01-14 00:56:02.23	138.16	13.42	-39.1	-42.2	19.0	2.55e-04	0	59	0	385351680	49	5277
2026-01-14 00:56:03.23	137.96	13.31	-39.4	-42.2	19.1	2.55e-04	0	60	0	386400256	49	5235
2026-01-14 00:56:04.24	137.76	13.20	-39.3	-42.1	18.9	5.26e-05	0	60	0	387448832	49	5205
2026-01-14 00:56:05.25	137.56	13.09	-39.2	-42.0	18.9	1.53e-04	0	59	0	388497408	48	5423
2026-01-14 00:56:06.26	137.36	12.99	-39.2	-42.2	18.7	1.53e-04	0	60	0	390070272	49	5235
2026-01-14 00:56:07.27	137.16	12.88	-39.5	-42.5	18.7	3.89e-04	0	60	0	391118848	49	5464
2026-01-14 00:56:08.28	136.97	12.78	-38.4	-42.2	18.5	8.38e-04	0	60	0	392167424	48	5576
2026-01-14 00:56:09.29	136.78	12.67	-39.2	-42.4	18.1	8.38e-04	0	60	0	393216000	48	5692
2026-01-14 00:56:10.30	136.59	12.56	-39.2	-42.4	17.7	1.43e-03	0	60	0	394264576	49	5397
2026-01-14 00:56:11.31	136.40	12.46	-39.3	-42.6	17.1	1.97e-03	0	60	0	395313152	48	5855
2026-01-14 00:56:12.32	136.21	12.36	-39.3	-42.8	17.3	2.83e-03	0	60	0	396886016	49	5615
2026-01-14 00:56:13.33	136.02	12.25	-39.2	-42.5	17.7	2.83e-03	0	60	0	397934592	48	5784
2026-01-14 00:56:14.34	135.84	12.15	-39.3	-42.7	17.5	1.79e-03	0	60	0	398983168	49	5555
2026-01-14 00:56:15.35	135.66	12.04	-39.0	-42.5	17.2	2.17e-03	0	60	0	400031744	48	5765
2026-01-14 00:56:16.36	135.48	11.94	-39.0	-42.5	17.1	2.17e-03	0	60	0	401080320	48	5733
2026-01-14 00:56:17.37	135.30	11.84	-39.3	-42.8	16.6	4.17e-03	0	60	0	402128896	49	5622
2026-01-14 00:56:18.38	135.12	11.74	-37.9	-42.6	17.1	5.69e-03	0	60	0	403701760	48	5839
2026-01-14 00:56:19.39	134.94	11.64	-37.8	-42.7	15.9	5.69e-03	0	60	0	404750336	46	6584
2026-01-14 00:56:20.39	134.77	11.54	-38.6	-42.8	15.0	9.67e-03	0	60	0	405798912	47	6342
2026-01-14 00:56:21.40	134.60	11.44	-32.3	-42.5	14.4	1.30e-02	0	60	0	406847488	42	8152
2026-01-14 00:56:22.41	134.43	11.34	-32.7	-42.9	12.8	1.30e-02	0	60	0	407896064	41	8979
2026-01-14 00:56:23.42	134.26	11.24	-36.0	-42.8	12.1	2.62e-02	0	59	0	408944640	38	10587
2026-01-14 00:56:24.43	134.09	11.14	-27.4	-41.4	12.0	6.71e-02	0	59	0	410517504	33	11980
2026-01-14 00:56:25.45	133.92	11.04	-33.5	-42.1	10.3	1.03e-01	0	59	0	411566080	31	14622
2026-01-14 00:56:26.46	133.76	10.94	-32.1	-42.8	9.4	1.03e-01	0	60	0	412090368	32	14902
2026-01-14 00:56:27.47	133.60	10.84	-28.4	-43.3	7.8	2.61e-01	0	60	0	413138944	26	22441
2026-01-14 00:56:28.48	133.43	10.74	-29.1	-45.6	6.6	4.92e-01	0	60	0	413663232	26	29201
2026-01-14 00:56:29.48	133.27	10.65	-27.0	-46.1	6.8	4.92e-01	0	60	0	413663232	27	29224
2026-01-14 00:56:30.49	133.12	10.55	-24.3	-48.3	5.5	6.08e-01	0	60	0	414187520	23	47168
2026-01-14 00:56:31.50	132.96	10.45	-28.8	-49.6	4.5	7.47e-01	0	60	104	414187520	25	49190
2026-01-14 00:56:32.51	132.80	10.36	-26.0	-49.3	4.4	7.47e-01	0	60	104	414187520	24	50301
2026-01-14 00:56:33.52	132.65	10.26	-25.5	-50.7	4.3	8.27e-01	0	60	104	414187520	25	55501
2026-01-14 00:56:34.53	132.49	10.17	-26.1	-46.4	4.0	8.17e-01	0	60	104	414187520	17	53797
2026-01-14 00:56:35.54	132.34	10.07	-23.0	-45.9	3.8	8.17e-01	0	60	104	414187520	17	50977
2026-01-14 00:56:36.55	132.19	9.98	-25.8	-47.5	3.6	8.03e-01	0	60	104	414187520	20	51010
2026-01-14 00:56:37.56	132.04	9.88	-23.3	-46.5	3.7	7.92e-01	0	60	104	414187520	19	48394
2026-01-14 00:56:38.57	131.89	9.79	-27.0	-48.1	3.5	7.96e-01	0	60	104	414187520	20	54932
2026-01-14 00:56:39.58	131.75	9.69	-24.4	-45.1	3.6	7.96e-01	0	60	104	414187520	16	49040
2026-01-14 00:56:40.59	131.60	9.60	-22.5	-43.4	3.5	7.88e-01	0	60	104	414187520	13	47724
2026-01-14 00:56:41.60	131.46	9.51	-20.5	-43.3	3.2	7.80e-01	0	60	104	414187520	16	39791
2026-01-14 00:56:42.61	131.31	9.42	-24.0	-42.9	3.3	7.80e-01	0	60	104	414187520	16	38068
2026-01-14 00:56:43.62	131.17	9.33	-20.1	-42.0	3.2	7.79e-01	0	60	0	414187520	14	38260
2026-01-14 00:56:44.63	131.03	9.23	-24.1	-42.6	3.4	7.73e-01	0	60	104	414187520	15	38724
2026-01-14 00:56:45.64	130.89	9.14	-22.7	-45.1	3.4	7.73e-01	0	60	104	414187520	18	43807
2026-01-14 00:56:46.64	130.75	9.05	-19.0	-44.8	3.5	7.75e-01	0	60	104	414187520	18	42405
2026-01-14 00:56:47.65	130.62	8.96	-21.8	-43.3	3.3	7.74e-01	0	60	104	414187520	16	40011
2026-01-14 00:56:48.66	130.48	8.87	-20.0	-41.6	3.3	7.74e-01	0	60	104	414187520	15	34774
2026-01-14 00:56:49.67	130.35	8.78	-20.7	-42.4	3.1	7.74e-01	0	60	104	414187520	14	40106
2026-01-14 00:56:50.68	130.21	8.69	-18.8	-39.5	3.2	7.67e-01	0	60	104	414187520	11	34274
2026-01-14 00:56:51.70	130.08	8.60	-22.6	-42.9	3.5	7.74e-01	0	60	104	414187520	15	40183
2026-01-14 00:56:52.70	129.95	8.52	-20.6	-41.7	3.3	7.74e-01	0	60	104	414187520	13	39359
2026-01-14 00:56:53.71	129.82	8.43	-21.5	-40.4	3.3	7.76e-01	0	60	0	414187520	12	35836
2026-01-14 00:56:54.72	129.69	8.34	-21.9	-41.4	3.2	7.66e-01	0	60	104	414187520	13	37928
2026-01-14 00:56:55.73	129.56	8.25	-23.5	-41.6	3.7	7.66e-01	0	60	104	414187520	13	39034
2026-01-14 00:56:56.74	129.43	8.17	-18.5	-41.3	3.2	7.67e-01	0	60	104	414187520	13	37527
2026-01-14 00:56:57.75	129.31	8.08	-19.2	-40.1	3.2	7.57e-01	0	60	0	414187520	12	34773
2026-01-14 00:56:58.76	129.18	7.99	-23.2	-44.0	3.3	7.57e-01	0	60	104	414187520	17	40524
2026-01-14 00:56:59.77	129.06	7.91	-39.5	-61.4	3.2	7.62e-01	0	60	104	414187520	48	50871
2026-01-14 00:57:00.78	128.94	7.82	-44.8	-62.9	3.8	8.35e-01	0	60	104	414187520	60	30326
2026-01-14 00:57:01.79	128.81	7.74	-45.1	-63.2	3.8	8.35e-01	0	60	104	414187520	60	31417
2026-01-14 00:57:02.80	128.69	7.65	-45.3	-63.4	3.8	8.46e-01	0	60	104	414187520	61	30140
2026-01-14 00:57:03.81	128.57	7.57	-45.4	-63.5	3.8	8.46e-01	0	60	104	414187520	61	30596
2026-01-14 00:57:04.82	128.45	7.48	-45.5	-63.6	3.8	8.46e-01	0	60	104	414187520	61	31007
2026-01-14 00:57:05.83	128.34	7.40	-45.6	-63.7	3.8	8.46e-01	0	60	104	414187520	61	31394
2026-01-14 00:57:06.84	128.22	7.31	-45.7	-63.8	3.8	8.46e-01	0	60	104	414187520	61	31735
2026-01-14 00:57:07.85	128.10	7.23	-45.7	-63.9	3.8	8.45e-01	0	60	104	414187520	62	30243
2026-01-14 00:57:08.86	127.99	7.15	-45.7	-63.9	3.8	8.45e-01	0	60	104	414187520	62	30148
2026-01-14 00:57:09.88	127.87	7.06	-45.6	-63.8	3.8	8.46e-01	0	60	104	414187520	62	30024
2026-01-14 00:57:10.89	127.76	6.98	-45.5	-63.8	3.8	8.45e-01	0	60	104	414187520	62	29809
2026-01-14 00:57:11.90	127.65	6.90	-45.5	-63.7	3.8	8.45e-01	0	60	104	414187520	62	29622
2026-01-14 00:57:12.91	127.54	6.82	-45.5	-63.7	3.8	8.46e-01	0	60	104	414187520	62	29609
2026-01-14 00:57:13.92	127.42	6.74	-45.5	-63.7	3.8	8.45e-01	0	60	104	414187520	62	29614
2026-01-14 00:57:14.93	127.31	6.65	-45.4	-63.6	3.8	8.48e-01	0	60	104	414187520	62	29306
2026-01-14 00:57:15.94	127.21	6.57	-45.4	-63.6	3.8	8.48e-01	0	60	104	414187520	62	29299
2026-01-14 00:57:16.95	127.10	6.49	-45.4	-63.6	3.8	8.47e-01	0	60	104	414187520	62	29310
2026-01-14 00:57:17.96	126.99	6.41	-45.4	-63.6	3.8	8.46e-01	0	60	104	414187520	62	29300
2026-01-14 00:57:18.98	126.88	6.33	-45.4	-63.7	3.8	8.46e-01	0	60	104	414187520	62	29365
2026-01-14 00:57:19.99	126.78	6.25	-45.4	-63.6	3.8	8.45e-01	0	60	104	414187520	62	29296
2026-01-14 00:57:21.00	126.67	6.17	-45.4	-63.6	3.8	8.47e-01	0	60	104	414187520	62	29311
2026-01-14 00:57:22.01	126.57	6.09	-45.4	-63.6	3.8	8.47e-01	0	60	104	414187520	62	29246
2026-01-14 00:57:23.02	126.47	6.02	-45.4	-63.6	3.8	8.47e-01	0	60	104	414187520	62	29213
2026-01-14 00:57:24.03	126.36	5.94	-45.4	-63.6	3.8	8.46e-01	0	60	104	414187520	62	29287
2026-01-14 00:57:25.04	126.26	5.86	-45.4	-63.6	3.8	8.46e-01	0	60	104	414187520	62	29255
2026-01-14 00:57:26.05	126.16	5.78	-45.4	-63.6	3.8	8.45e-01	0	60	104	414187520	62	29277
2026-01-14 00:57:27.07	126.06	5.70	-45.4	-63.6	3.8	8.46e-01	0	60	104	414187520	62	29267
2026-01-14 00:57:28.08	125.96	5.63	-45.4	-63.6	3.8	8.47e-01	0	60	104	414187520	62	29236
2026-01-14 00:57:29.09	125.86	5.55	-45.4	-63.6	3.8	8.47e-01	0	60	104	414187520	62	29223
2026-01-14 00:57:30.10	125.76	5.47	-45.4	-63.6	3.8	8.47e-01	0	60	104	414187520	62	29209
2026-01-14 00:57:31.11	125.67	5.40	-45.4	-63.6	3.8	8.45e-01	0	60	104	414187520	62	29223
2026-01-14 00:57:32.12	125.57	5.32	-45.4	-63.6	3.8	8.45e-01	0	60	104	414187520	62	29182
2026-01-14 00:57:33.13	125.47	5.24	-45.4	-63.6	3.8	8.47e-01	0	60	104	414187520	62	29157
2026-01-14 00:57:34.14	125.38	5.17	-45.4	-63.6	3.8	8.47e-01	0	60	104	414187520	62	29287
2026-01-14 00:57:35.15	125.29	5.09	-45.4	-63.6	3.8	8.47e-01	0	60	104	414187520	62	29168
2026-01-14 00:57:36.16	125.19	5.02	-45.3	-63.6	3.8	8.46e-01	0	60	104	414187520	62	29204
2026-01-14 00:57:37.17	125.10	4.94	-45.3	-63.6	3.8	8.46e-01	0	60	104	414187520	62	29246
2026-01-14 00:57:38.18	125.01	4.87	-45.3	-63.6	3.8	8.46e-01	0	60	104	414187520	62	29140
2026-01-14 00:57:39.19	124.92	4.79	-45.3	-63.6	3.8	8.46e-01	0	60	104	414187520	62	29225
2026-01-14 00:57:40.21	124.82	4.72	-45.3	-63.6	3.8	8.46e-01	0	60	104	414187520	62	29163
2026-01-14 00:57:41.22	124.73	4.65	-45.3	-63.6	3.8	8.45e-01	0	60	104	414187520	62	29177
2026-01-14 00:57:42.23	124.64	4.57	-45.3	-63.6	3.8	8.45e-01	0	60	104	414187520	62	29152
2026-01-14 00:57:43.24	124.56	4.50	-45.3	-63.6	3.8	8.47e-01	0	60	104	414187520	62	29200
2026-01-14 00:57:44.25	124.47	4.43	-45.4	-63.6	3.8	8.47e-01	0	60	104	414187520	62	29122
2026-01-14 00:57:45.26	124.38	4.35	-45.3	-63.6	3.8	8.47e-01	0	60	104	414187520	62	29117
2026-01-14 00:57:46.27	124.29	4.28	-45.3	-63.6	3.8	8.45e-01	0	60	104	414187520	62	29188
2026-01-14 00:57:47.28	124.21	4.21	-45.3	-63.6	3.8	8.46e-01	0	60	104	414187520	62	29119
2026-01-14 00:57:48.29	124.12	4.14	-45.3	-63.6	3.8	8.46e-01	0	60	104	414187520	62	29198
2026-01-14 00:57:49.30	124.04	4.06	-45.3	-63.6	3.8	8.45e-01	0	60	104	414187520	62	29139
2026-01-14 00:57:50.31	123.95	3.99	-45.3	-63.6	3.8	8.46e-01	0	60	104	414187520	62	29194
2026-01-14 00:57:51.32	123.87	3.92	-45.3	-63.6	3.8	8.46e-01	0	60	104	414187520	62	29084
2026-01-14 00:57:52.33	123.78	3.85	-45.3	-63.6	3.8	8.46e-01	0	60	104	414187520	62	29121
2026-01-14 00:57:53.34	123.70	3.78	-45.3	-63.6	3.8	8.46e-01	0	60	104	414187520	62	29072
2026-01-14 00:57:54.35	123.62	3.71	-45.3	-63.6	3.8	8.46e-01	0	60	104	414187520	62	29154
2026-01-14 00:57:55.36	123.54	3.64	-45.3	-63.6	3.8	8.46e-01	0	60	104	414187520	62	29118
2026-01-14 00:57:56.38	123.46	3.57	-45.3	-63.6	3.8	8.45e-01	0	60	104	414187520	62	29124
2026-01-14 00:57:57.39	123.38	3.50	-45.3	-63.6	3.8	8.46e-01	0	60	104	414187520	62	29082
2026-01-14 00:57:58.40	123.30	3.43	-45.3	-63.6	3.8	8.46e-01	0	60	104	414187520	62	29153
2026-01-14 00:57:59.41	123.22	3.36	-45.3	-63.6	3.8	8.46e-01	0	60	104	414187520	62	29126
2026-01-14 00:58:00.42	123.14	3.29	-45.3	-63.6	3.8	8.46e-01	0	60	104	414187520	62	29157
2026-01-14 00:58:01.43	123.06	3.22	-45.3	-63.6	3.8	8.46e-01	0	60	104	414187520	62	29109
2026-01-14 00:58:02.44	122.98	3.15	-45.3	-63.6	3.8	8.45e-01	0	60	104	414187520	62	29115
2026-01-14 00:58:03.45	122.91	3.08	-45.3	-63.6	3.8	8.47e-01	0	60	104	414187520	62	29059
2026-01-14 00:58:04.46	122.83	3.02	-45.3	-63.6	3.8	8.47e-01	0	60	104	414187520	62	29079
2026-01-14 00:58:05.47	122.75	2.95	-45.3	-63.6	3.8	8.47e-01	0	60	104	414187520	62	29094
2026-01-14 00:58:06.48	122.68	2.88	-45.3	-63.6	3.8	8.45e-01	0	60	104	414187520	62	29066
2026-01-14 00:58:07.49	122.60	2.81	-45.3	-63.6	3.8	8.45e-01	0	60	104	414187520	62	29029
2026-01-14 00:58:08.50	122.53	2.74	-45.3	-63.6	3.8	8.45e-01	0	60	104	414187520	62	29084
2026-01-14 00:58:09.51	122.45	2.68	-45.3	-63.6	3.8	8.47e-01	0	60	104	414187520	62	29057
2026-01-14 00:58:10.52	122.38	2.61	-45.3	-63.6	3.8	8.47e-01	0	60	104	414187520	62	29043
2026-01-14 00:58:11.54	122.31	2.54	-45.3	-63.6	3.8	8.47e-01	0	60	104	414187520	62	29090
2026-01-14 00:58:12.55	122.23	2.48	-45.3	-63.6	3.8	8.46e-01	0	60	104	414187520	62	29027
2026-01-14 00:58:13.56	122.16	2.41	-45.3	-63.6	3.8	8.46e-01	0	60	104	414187520	62	29078
2026-01-14 00:58:14.57	122.09	2.34	-45.3	-63.6	3.8	8.46e-01	0	60	104	414187520	62	29023
2026-01-14 00:58:15.58	122.02	2.28	-45.3	-63.6	3.8	8.46e-01	0	60	104	414187520	62	29081
2026-01-14 00:58:16.59	121.95	2.21	-45.3	-63.6	3.8	8.46e-01	0	60	104	414187520	62	29109
2026-01-14 00:58:17.60	121.88	2.15	-45.3	-63.6	3.8	8.46e-01	0	60	104	414187520	62	29052
2026-01-14 00:58:18.61	121.81	2.08	-45.3	-63.5	3.8	8.46e-01	0	60	104	414187520	62	29006
2026-01-14 00:58:19.62	121.74	2.02	-45.3	-63.6	3.8	8.47e-01	0	60	104	414187520	62	29074
2026-01-14 00:58:20.64	121.67	1.95	-45.3	-63.6	3.8	8.45e-01	0	60	104	414187520	62	29064
2026-01-14 00:58:21.65	121.60	1.88	-45.3	-63.6	3.8	8.45e-01	0	60	104	414187520	62	29053

#Closed at: 2026-01-14 00:58:21
#Recorded file [414 MB]: D:/lorett/data/31039_260114_034914.dat