passes_logs/2026/01/14/R2.0S_Moscow/R2.0S_Moscow__20260114_140811_FENGYUN_3E_rec.log

#Pass ID: 20260114_140811_FENGYUN 3E
#Satellite: FENGYUN 3E
#Configuration: FENGYUN 3E
#almurnet v.1.7.20251203
#Start time: 2026-01-14 14:08:12

#Version: 2.2.20231116
#Station: R2.0S_Moscow
#Location: 37.707566 lon 55.798166 lat
#TLE: 1 49008U 21062A   26013.59634448 -.00000226  00000+0 -85925-4 0  9991
#TLE: 2 49008  98.7491  18.7414 0001953 139.1941 220.9382 14.19884160234649

#Time	Az	El	Level	Level2	SNR	BER	BlckErr	Temp	State	Recorded	gain1	gain2
2026-01-14 14:08:12.48	158.71	2.08	-44.3	-55.3	3.8	8.46e-01	0	50	0	0	59	12574
2026-01-14 14:08:13.49	158.71	2.14	-44.3	-55.3	3.8	8.46e-01	0	50	104	0	59	12577
2026-01-14 14:08:14.50	158.71	2.21	-44.3	-55.3	3.8	8.47e-01	0	50	104	0	59	12599
2026-01-14 14:08:15.51	158.71	2.28	-44.3	-55.3	3.8	8.46e-01	0	50	104	0	59	12539
2026-01-14 14:08:16.52	158.71	2.34	-44.3	-55.3	3.8	8.46e-01	0	50	104	0	59	12627
2026-01-14 14:08:17.53	158.71	2.41	-44.3	-55.3	3.8	8.47e-01	0	50	104	0	59	12570
2026-01-14 14:08:18.55	158.71	2.47	-44.3	-55.3	3.8	8.47e-01	0	50	104	0	59	12556
2026-01-14 14:08:19.55	158.71	2.54	-44.3	-55.3	3.8	8.46e-01	0	51	104	0	59	12529
2026-01-14 14:08:20.56	158.71	2.61	-44.3	-55.3	3.8	8.46e-01	0	50	104	0	59	12566
2026-01-14 14:08:21.57	158.71	2.67	-44.3	-55.3	3.8	8.46e-01	0	50	104	0	59	12566
2026-01-14 14:08:22.58	158.71	2.74	-44.3	-55.3	3.8	8.47e-01	0	51	104	0	59	12527
2026-01-14 14:08:23.60	158.71	2.81	-44.3	-55.3	3.8	8.46e-01	0	51	104	0	59	12535
2026-01-14 14:08:24.60	158.71	2.87	-44.3	-55.2	3.8	8.46e-01	0	51	104	0	59	12498
2026-01-14 14:08:25.62	158.71	2.94	-44.3	-55.3	3.8	8.46e-01	0	51	104	0	59	12539
2026-01-14 14:08:26.63	158.71	3.01	-44.3	-55.3	3.8	8.45e-01	0	51	104	0	59	12586
2026-01-14 14:08:27.64	158.70	3.07	-44.3	-55.3	3.8	8.45e-01	0	51	104	0	59	12531
2026-01-14 14:08:28.65	158.70	3.14	-44.3	-55.3	3.8	8.46e-01	0	51	104	0	59	12601
2026-01-14 14:08:29.66	158.70	3.21	-44.3	-55.2	3.8	8.46e-01	0	51	104	0	59	12510
2026-01-14 14:08:30.67	158.70	3.28	-44.3	-55.2	3.8	8.46e-01	0	52	104	0	59	12483
2026-01-14 14:08:31.68	158.70	3.35	-44.3	-55.2	3.8	8.46e-01	0	51	104	0	59	12495
2026-01-14 14:08:32.69	158.70	3.41	-44.3	-55.2	3.8	8.45e-01	0	52	104	0	59	12519
2026-01-14 14:08:33.70	158.70	3.48	-44.3	-55.2	3.8	8.46e-01	0	51	104	0	59	12517
2026-01-14 14:08:34.71	158.70	3.55	-44.3	-55.2	3.8	8.46e-01	0	52	104	0	59	12498
2026-01-14 14:08:35.72	158.70	3.62	-44.3	-55.2	3.8	8.46e-01	0	52	104	0	59	12516
2026-01-14 14:08:36.73	158.70	3.69	-44.3	-55.3	3.8	8.46e-01	0	52	104	0	59	12530
2026-01-14 14:08:37.74	158.70	3.76	-44.3	-55.3	3.8	8.46e-01	0	52	104	0	59	12543
2026-01-14 14:08:38.75	158.70	3.83	-44.3	-55.2	3.8	8.45e-01	0	52	104	0	59	12507
2026-01-14 14:08:39.76	158.70	3.90	-44.3	-55.3	3.8	8.47e-01	0	52	104	0	59	12531
2026-01-14 14:08:40.77	158.69	3.97	-44.3	-55.3	3.8	8.47e-01	0	52	104	0	59	12526
2026-01-14 14:08:41.78	158.69	4.04	-44.2	-55.3	3.8	8.45e-01	0	52	104	0	59	12529
2026-01-14 14:08:42.79	158.69	4.11	-44.3	-55.2	3.8	8.46e-01	0	52	104	0	59	12501
2026-01-14 14:08:43.80	158.69	4.18	-44.3	-55.2	3.8	8.47e-01	0	52	104	0	59	12501
2026-01-14 14:08:44.81	158.69	4.25	-44.3	-55.2	3.8	8.47e-01	0	53	104	0	59	12502
2026-01-14 14:08:45.82	158.69	4.32	-44.3	-55.3	3.8	8.46e-01	0	52	104	0	59	12531
2026-01-14 14:08:46.83	158.69	4.39	-44.2	-55.2	3.8	8.46e-01	0	53	104	0	59	12472
2026-01-14 14:08:47.84	158.69	4.46	-44.2	-55.2	3.8	8.47e-01	0	52	104	0	59	12502
2026-01-14 14:08:48.85	158.69	4.53	-44.2	-55.3	3.8	8.46e-01	0	52	104	0	59	12523
2026-01-14 14:08:49.86	158.69	4.60	-44.2	-55.2	3.8	8.47e-01	0	53	104	0	59	12496
2026-01-14 14:08:50.87	158.68	4.67	-44.2	-55.2	3.8	8.45e-01	0	53	104	0	59	12449
2026-01-14 14:08:51.88	158.68	4.75	-44.2	-55.2	3.8	8.47e-01	0	53	104	0	59	12424
2026-01-14 14:08:52.89	158.68	4.82	-44.2	-55.2	3.8	8.46e-01	0	53	104	0	59	12431
2026-01-14 14:08:53.90	158.68	4.89	-44.2	-55.2	3.8	8.46e-01	0	53	104	0	59	12451
2026-01-14 14:08:54.91	158.68	4.96	-44.2	-55.2	3.8	8.47e-01	0	53	104	0	59	12413
2026-01-14 14:08:55.92	158.68	5.03	-44.2	-55.1	3.8	8.46e-01	0	53	104	0	59	12312
2026-01-14 14:08:56.93	158.68	5.11	-44.2	-55.1	3.8	8.47e-01	0	53	104	0	59	12282
2026-01-14 14:08:57.94	158.68	5.18	-44.2	-55.1	3.8	8.45e-01	0	53	104	0	59	12302
2026-01-14 14:08:58.96	158.67	5.25	-44.2	-55.0	3.8	8.45e-01	0	53	104	0	59	12219
2026-01-14 14:08:59.97	158.67	5.33	-44.2	-55.0	3.8	8.46e-01	0	53	104	0	59	12112
2026-01-14 14:09:00.98	158.67	5.40	-44.2	-54.8	3.8	8.46e-01	0	53	104	0	59	11862
2026-01-14 14:09:01.99	158.67	5.47	-44.2	-54.6	3.8	8.46e-01	0	53	104	0	59	11668
2026-01-14 14:09:03.00	158.67	5.55	-44.1	-54.3	3.8	8.46e-01	0	53	104	0	59	11167
2026-01-14 14:09:04.01	158.67	5.62	-44.1	-53.7	3.8	8.47e-01	0	53	104	0	59	10510
2026-01-14 14:09:05.02	158.67	5.70	-43.9	-53.0	3.8	8.45e-01	0	53	104	0	58	10289
2026-01-14 14:09:06.03	158.67	5.77	-43.9	-52.8	4.0	8.45e-01	0	54	104	0	58	9980
2026-01-14 14:09:07.04	158.66	5.85	-43.8	-52.4	3.9	8.44e-01	0	54	104	0	58	9564
2026-01-14 14:09:08.05	158.66	5.92	-43.7	-51.7	4.2	8.40e-01	0	54	0	0	58	8774
2026-01-14 14:09:09.06	158.66	6.00	-43.6	-51.3	4.3	8.34e-01	0	54	0	0	58	8427
2026-01-14 14:09:10.07	158.66	6.07	-43.6	-51.0	4.4	8.26e-01	0	54	0	0	58	8108
2026-01-14 14:09:11.08	158.66	6.15	-43.5	-50.8	4.5	8.24e-01	0	54	0	0	58	7969
2026-01-14 14:09:12.10	158.66	6.22	-43.5	-50.8	4.5	8.22e-01	0	54	0	0	58	7902
2026-01-14 14:09:13.11	158.66	6.30	-43.5	-50.8	4.5	8.22e-01	0	54	0	0	57	8413
2026-01-14 14:09:14.12	158.65	6.38	-43.4	-50.7	4.5	8.21e-01	0	54	0	0	57	8290
2026-01-14 14:09:15.13	158.65	6.45	-43.5	-50.8	4.5	8.23e-01	0	54	0	0	57	8410
2026-01-14 14:09:16.14	158.65	6.53	-43.5	-51.2	4.3	8.29e-01	0	54	0	0	57	8770
2026-01-14 14:09:17.15	158.65	6.61	-43.6	-51.6	4.2	8.36e-01	0	54	0	0	57	9208
2026-01-14 14:09:18.16	158.65	6.68	-43.8	-52.5	3.9	8.40e-01	0	54	104	0	57	10239
2026-01-14 14:09:19.17	158.65	6.76	-43.9	-53.3	3.8	8.45e-01	0	54	104	0	57	11266
2026-01-14 14:09:20.18	158.64	6.84	-44.0	-53.9	3.8	8.45e-01	0	54	104	0	57	11956
2026-01-14 14:09:21.19	158.64	6.92	-44.1	-54.3	3.8	8.46e-01	0	54	104	0	57	12532
2026-01-14 14:09:22.20	158.64	7.00	-44.1	-54.3	3.8	8.45e-01	0	54	104	0	57	12529
2026-01-14 14:09:23.21	158.64	7.07	-44.0	-53.5	3.8	8.47e-01	0	54	104	0	57	11431
2026-01-14 14:09:24.22	158.64	7.15	-43.7	-51.9	4.1	8.42e-01	0	55	0	0	57	9541
2026-01-14 14:09:25.24	158.64	7.23	-43.4	-50.3	4.6	8.22e-01	0	55	0	0	57	7987
2026-01-14 14:09:26.25	158.63	7.31	-43.0	-48.8	5.5	7.18e-01	0	55	0	0	56	7091
2026-01-14 14:09:27.26	158.63	7.39	-42.5	-47.6	6.4	2.82e-01	0	54	0	5242880	56	6194
2026-01-14 14:09:28.27	158.63	7.47	-41.8	-46.2	7.6	1.31e-01	0	55	0	12582912	54	5892
2026-01-14 14:09:29.28	158.63	7.55	-41.3	-45.2	8.5	5.31e-02	0	55	0	19922944	53	5555
2026-01-14 14:09:30.29	158.63	7.63	-40.9	-44.5	9.2	2.21e-02	0	55	0	27262976	52	5432
2026-01-14 14:09:31.30	158.62	7.71	-40.4	-43.7	10.1	7.52e-03	0	55	0	34603008	51	5242
2026-01-14 14:09:32.31	158.62	7.79	-40.0	-43.1	10.7	3.82e-03	0	55	0	41943040	51	4920
2026-01-14 14:09:33.32	158.62	7.87	-39.7	-42.7	11.2	1.18e-03	0	55	0	48234496	50	4942
2026-01-14 14:09:34.33	158.62	7.95	-39.5	-42.3	11.6	8.08e-04	0	55	0	55574528	50	4738
2026-01-14 14:09:35.34	158.62	8.04	-39.3	-42.1	11.8	4.28e-04	0	55	0	63963136	49	4901
2026-01-14 14:09:36.35	158.61	8.12	-40.4	-43.6	10.4	7.23e-04	0	55	0	70254592	50	5470
2026-01-14 14:09:37.36	158.61	8.20	-41.6	-45.7	8.1	8.46e-01	0	55	104	72351744	54	5556
2026-01-14 14:09:38.37	158.61	8.28	-42.8	-48.7	5.5	7.89e-01	0	55	0	75497472	55	7415
2026-01-14 14:09:39.38	158.61	8.36	-41.4	-46.1	7.3	8.14e-01	0	55	0	77594624	54	5808
2026-01-14 14:09:40.39	158.61	8.45	-38.4	-40.9	12.8	6.63e-05	0	55	0	84934656	47	4778
2026-01-14 14:09:41.39	158.60	8.53	-38.2	-40.7	13.0	8.81e-05	0	55	0	92274688	47	4680
2026-01-14 14:09:42.40	158.60	8.61	-38.2	-40.6	13.1	2.40e-05	0	55	0	99614720	46	4918
2026-01-14 14:09:43.41	158.60	8.70	-38.1	-40.5	13.2	2.28e-05	0	55	0	106954752	46	4860
2026-01-14 14:09:44.42	158.60	8.78	-38.0	-40.5	13.3	1.94e-05	0	55	0	114294784	46	4823
2026-01-14 14:09:45.43	158.59	8.86	-38.0	-40.4	13.4	1.37e-05	0	55	0	121634816	46	4789
2026-01-14 14:09:46.44	158.59	8.95	-37.9	-40.4	13.4	1.14e-05	0	55	0	128974848	46	4767
2026-01-14 14:09:47.45	158.59	9.03	-38.0	-40.4	13.4	1.02e-05	0	55	0	136314880	46	4779
2026-01-14 14:09:48.46	158.59	9.12	-38.0	-40.4	13.4	1.37e-05	0	55	0	143654912	46	4804
2026-01-14 14:09:49.47	158.58	9.20	-37.9	-40.3	13.6	9.10e-06	0	55	0	149946368	46	4710
2026-01-14 14:09:50.48	158.58	9.29	-37.9	-40.3	13.5	5.70e-06	0	55	0	157286400	46	4708
2026-01-14 14:09:51.49	158.58	9.37	-37.9	-40.3	13.5	6.80e-06	0	55	0	165675008	46	4745
2026-01-14 14:09:52.50	158.58	9.46	-37.9	-40.3	13.5	1.37e-05	0	55	0	171966464	46	4732
2026-01-14 14:09:53.51	158.58	9.55	-37.9	-40.3	13.6	1.02e-05	0	56	0	179306496	46	4718
2026-01-14 14:09:54.52	158.57	9.63	-37.9	-40.2	13.7	5.70e-06	0	55	0	186646528	46	4700
2026-01-14 14:09:55.53	158.57	9.72	-37.9	-40.3	13.6	4.50e-06	0	55	0	193986560	46	4725
2026-01-14 14:09:56.54	158.57	9.81	-37.8	-40.1	13.8	4.50e-06	0	55	0	201326592	46	4608
2026-01-14 14:09:57.55	158.56	9.90	-37.9	-40.2	13.7	8.00e-06	0	56	0	208666624	46	4687
2026-01-14 14:09:58.56	158.56	9.98	-37.9	-40.3	13.7	2.20e-06	0	56	0	216006656	46	4715
2026-01-14 14:09:59.56	158.56	10.07	-37.8	-40.1	13.9	8.00e-06	0	56	0	223346688	46	4622
2026-01-14 14:10:00.57	158.56	10.16	-37.8	-40.2	13.8	8.00e-06	0	56	0	230686720	46	4652
2026-01-14 14:10:01.58	158.55	10.25	-37.8	-40.1	13.9	6.80e-06	0	56	0	238026752	46	4607
2026-01-14 14:10:02.59	158.55	10.34	-37.8	-40.0	14.0	2.20e-06	0	56	0	245366784	46	4585
2026-01-14 14:10:03.60	158.55	10.43	-37.8	-40.0	13.9	3.40e-06	0	56	0	252706816	46	4595
2026-01-14 14:10:04.61	158.54	10.52	-37.8	-40.1	14.0	2.20e-06	0	56	0	260046848	46	4599
2026-01-14 14:10:05.62	158.54	10.61	-37.8	-40.1	13.9	4.50e-06	0	56	0	267386880	46	4651
2026-01-14 14:10:06.63	158.54	10.70	-37.7	-40.1	14.0	2.20e-06	0	56	0	274726912	46	4603
2026-01-14 14:10:07.64	158.54	10.79	-37.7	-39.9	14.1	0.00e+00	0	56	0	282066944	46	4538
2026-01-14 14:10:08.65	158.53	10.88	-37.7	-40.0	14.1	3.40e-06	0	56	0	289406976	46	4553
2026-01-14 14:10:09.66	158.53	10.97	-37.7	-39.9	14.2	2.20e-06	0	56	0	295698432	46	4504
2026-01-14 14:10:10.68	158.53	11.07	-37.7	-39.9	14.2	2.20e-06	0	56	0	303038464	46	4529
2026-01-14 14:10:11.68	158.52	11.16	-37.8	-40.0	14.1	2.20e-06	0	56	0	311427072	46	4587
2026-01-14 14:10:12.70	158.52	11.25	-37.5	-39.7	14.4	1.10e-06	0	56	0	317718528	46	4401
2026-01-14 14:10:13.71	158.52	11.35	-37.7	-39.9	14.2	0.00e+00	0	56	0	325058560	46	4520
2026-01-14 14:10:14.72	158.51	11.44	-37.6	-39.8	14.3	0.00e+00	0	56	0	332398592	46	4474
2026-01-14 14:10:15.73	158.51	11.53	-37.6	-39.9	14.3	1.10e-06	0	56	0	339738624	46	4499
2026-01-14 14:10:16.74	158.51	11.63	-37.5	-39.6	14.5	3.40e-06	0	56	0	347078656	45	4632
2026-01-14 14:10:17.75	158.50	11.72	-37.6	-39.8	14.4	0.00e+00	0	56	0	354418688	45	4730
2026-01-14 14:10:18.76	158.50	11.82	-37.5	-39.7	14.5	0.00e+00	0	56	0	361758720	45	4664
2026-01-14 14:10:19.76	158.50	11.91	-37.4	-39.5	14.7	0.00e+00	0	56	0	369098752	45	4574
2026-01-14 14:10:20.77	158.49	12.01	-37.3	-39.5	14.7	0.00e+00	0	56	0	376438784	45	4547
2026-01-14 14:10:21.79	158.49	12.10	-37.4	-39.5	14.7	1.10e-06	0	56	0	383778816	45	4586
2026-01-14 14:10:22.79	158.49	12.20	-37.4	-39.5	14.7	0.00e+00	0	56	0	391118848	45	4579
2026-01-14 14:10:23.80	158.48	12.29	-37.3	-39.4	14.8	0.00e+00	0	56	0	398458880	45	4528
2026-01-14 14:10:24.81	158.48	12.39	-37.3	-39.4	14.8	0.00e+00	0	56	0	405798912	45	4511
2026-01-14 14:10:25.82	158.48	12.49	-37.3	-39.3	14.9	0.00e+00	0	56	0	413138944	45	4487
2026-01-14 14:10:26.83	158.47	12.59	-37.2	-39.3	14.9	0.00e+00	0	56	0	420478976	45	4462
2026-01-14 14:10:27.84	158.47	12.69	-37.3	-39.3	14.9	1.10e-06	0	56	0	427819008	45	4473
2026-01-14 14:10:28.85	158.46	12.78	-37.3	-39.4	14.9	1.10e-06	0	56	0	435159040	45	4517
2026-01-14 14:10:29.86	158.46	12.88	-37.3	-39.4	14.9	0.00e+00	0	56	0	442499072	45	4515
2026-01-14 14:10:30.87	158.46	12.98	-37.2	-39.3	15.0	0.00e+00	0	56	0	448790528	45	4459
2026-01-14 14:10:31.88	158.45	13.08	-37.2	-39.2	15.1	0.00e+00	0	57	0	456130560	45	4430
2026-01-14 14:10:32.89	158.45	13.18	-37.1	-39.1	15.2	0.00e+00	0	57	0	464519168	45	4365
2026-01-14 14:10:33.90	158.44	13.28	-37.2	-39.2	15.1	0.00e+00	0	57	0	470810624	45	4420
2026-01-14 14:10:34.91	158.44	13.39	-37.2	-39.2	15.1	0.00e+00	0	57	0	478150656	45	4426
2026-01-14 14:10:35.92	158.44	13.49	-37.1	-39.1	15.2	0.00e+00	0	57	0	485490688	45	4372
2026-01-14 14:10:36.92	158.43	13.59	-37.0	-39.0	15.3	0.00e+00	0	56	0	492830720	45	4315
2026-01-14 14:10:37.93	158.43	13.69	-37.2	-39.2	15.1	0.00e+00	0	57	0	500170752	44	4684
2026-01-14 14:10:38.94	158.42	13.79	-37.0	-39.0	15.4	0.00e+00	0	57	0	507510784	44	4550
2026-01-14 14:10:39.96	158.42	13.90	-37.0	-39.0	15.4	0.00e+00	0	56	0	514850816	44	4560
2026-01-14 14:10:40.97	158.41	14.00	-37.0	-39.0	15.3	0.00e+00	0	57	0	522190848	44	4591
2026-01-14 14:10:41.98	158.41	14.11	-36.9	-38.9	15.5	0.00e+00	0	57	0	529530880	44	4505
2026-01-14 14:10:42.99	158.41	14.21	-36.9	-38.9	15.5	0.00e+00	0	57	0	536870912	44	4524
2026-01-14 14:10:44.00	158.40	14.32	-36.9	-38.8	15.6	0.00e+00	0	57	0	544210944	44	4473
2026-01-14 14:10:45.01	158.40	14.42	-37.0	-39.0	15.5	0.00e+00	0	57	0	551550976	44	4549
2026-01-14 14:10:46.02	158.39	14.53	-36.9	-38.9	15.5	0.00e+00	0	57	0	558891008	44	4503
2026-01-14 14:10:47.03	158.39	14.63	-36.9	-38.8	15.6	0.00e+00	0	57	0	566231040	44	4469
2026-01-14 14:10:48.04	158.38	14.74	-36.8	-38.8	15.6	0.00e+00	0	57	0	573571072	44	4457
2026-01-14 14:10:49.05	158.38	14.85	-36.9	-38.9	15.5	0.00e+00	0	57	0	580911104	44	4511
2026-01-14 14:10:50.06	158.37	14.96	-36.8	-38.8	15.7	0.00e+00	0	57	0	588251136	44	4445
2026-01-14 14:10:51.07	158.37	15.06	-36.8	-38.7	15.7	0.00e+00	0	57	0	594542592	44	4419
2026-01-14 14:10:52.08	158.36	15.17	-36.7	-38.6	15.8	0.00e+00	0	57	0	602931200	44	4380
2026-01-14 14:10:53.09	158.36	15.28	-36.8	-38.7	15.7	0.00e+00	0	57	0	610271232	44	4437
2026-01-14 14:10:54.10	158.35	15.39	-36.7	-38.6	15.8	0.00e+00	0	57	0	616562688	44	4375
2026-01-14 14:10:55.11	158.35	15.50	-36.7	-38.6	15.9	0.00e+00	0	57	0	623902720	44	4364
2026-01-14 14:10:56.12	158.34	15.61	-36.7	-38.6	15.9	0.00e+00	0	57	0	631242752	44	4353
2026-01-14 14:10:57.13	158.34	15.73	-36.6	-38.4	16.0	0.00e+00	0	57	0	638582784	44	4276
2026-01-14 14:10:58.14	158.33	15.84	-36.5	-38.4	16.1	0.00e+00	0	57	0	645922816	44	4257
2026-01-14 14:10:59.15	158.33	15.95	-36.3	-38.1	16.2	0.00e+00	0	57	0	653262848	43	4385
2026-01-14 14:11:00.15	158.32	16.06	-36.4	-38.3	16.0	0.00e+00	0	57	0	660602880	43	4469
2026-01-14 14:11:01.16	158.32	16.18	-36.3	-38.2	16.1	0.00e+00	0	57	0	667942912	43	4406
2026-01-14 14:11:02.17	158.31	16.29	-36.3	-38.1	16.2	0.00e+00	0	57	0	675282944	43	4371
2026-01-14 14:11:03.18	158.30	16.40	-36.2	-38.0	16.3	0.00e+00	0	57	0	682622976	43	4307
2026-01-14 14:11:04.19	158.30	16.52	-36.1	-37.9	16.4	0.00e+00	0	57	0	689963008	43	4282
2026-01-14 14:11:05.20	158.29	16.63	-36.2	-38.0	16.4	0.00e+00	0	57	0	697303040	43	4293
2026-01-14 14:11:06.21	158.29	16.75	-36.1	-37.8	16.5	0.00e+00	0	57	0	704643072	43	4241
2026-01-14 14:11:07.22	158.28	16.87	-36.0	-37.8	16.5	0.00e+00	0	57	0	711983104	43	4204
2026-01-14 14:11:08.23	158.28	16.98	-36.0	-37.8	16.5	0.00e+00	0	57	0	719323136	43	4222
2026-01-14 14:11:09.24	158.27	17.10	-36.1	-37.9	16.5	0.00e+00	0	57	0	726663168	43	4264
2026-01-14 14:11:10.25	158.26	17.22	-36.1	-37.8	16.5	0.00e+00	0	57	0	734003200	43	4227
2026-01-14 14:11:11.26	158.26	17.34	-36.0	-37.7	16.7	0.00e+00	0	57	0	741343232	42	4418
2026-01-14 14:11:12.27	158.25	17.46	-35.9	-37.7	16.7	0.00e+00	0	57	0	747634688	42	4394
2026-01-14 14:11:13.28	158.24	17.58	-35.9	-37.6	16.7	0.00e+00	0	57	0	754974720	42	4384
2026-01-14 14:11:14.29	158.24	17.70	-35.9	-37.6	16.7	0.00e+00	0	57	0	763363328	42	4383
2026-01-14 14:11:15.30	158.23	17.82	-36.0	-37.8	16.6	0.00e+00	0	57	0	769654784	42	4470
2026-01-14 14:11:16.31	158.22	17.94	-35.8	-37.6	16.8	0.00e+00	0	57	0	776994816	42	4351
2026-01-14 14:11:17.32	158.22	18.07	-35.9	-37.6	16.8	0.00e+00	0	57	0	784334848	42	4390
2026-01-14 14:11:18.33	158.21	18.19	-35.9	-37.6	16.8	0.00e+00	0	57	0	791674880	42	4355
2026-01-14 14:11:19.34	158.20	18.31	-35.7	-37.4	17.0	0.00e+00	0	57	0	799014912	42	4273
2026-01-14 14:11:20.35	158.20	18.44	-35.7	-37.4	17.0	0.00e+00	0	57	0	806354944	42	4267
2026-01-14 14:11:21.36	158.19	18.56	-35.8	-37.5	16.9	0.00e+00	0	57	0	813694976	42	4299
2026-01-14 14:11:22.37	158.18	18.69	-35.8	-37.5	16.9	0.00e+00	0	57	0	821035008	42	4327
2026-01-14 14:11:23.38	158.18	18.81	-35.8	-37.5	16.9	0.00e+00	0	57	0	828375040	42	4326
2026-01-14 14:11:24.39	158.17	18.94	-35.7	-37.4	17.0	0.00e+00	0	57	0	835715072	42	4271
2026-01-14 14:11:25.40	158.16	19.07	-35.7	-37.4	17.0	0.00e+00	0	57	0	843055104	42	4287
2026-01-14 14:11:26.41	158.15	19.20	-35.7	-37.4	17.0	0.00e+00	0	57	0	850395136	42	4258
2026-01-14 14:11:27.42	158.15	19.33	-35.7	-37.5	17.0	0.00e+00	0	58	0	857735168	42	4292
2026-01-14 14:11:28.43	158.14	19.46	-35.8	-37.6	16.9	0.00e+00	0	58	0	865075200	42	4344
2026-01-14 14:11:29.43	158.13	19.59	-35.8	-37.6	16.9	0.00e+00	0	58	0	872415232	42	4344
2026-01-14 14:11:30.45	158.12	19.72	-35.7	-37.4	17.0	0.00e+00	0	57	0	879755264	42	4281
2026-01-14 14:11:31.46	158.12	19.85	-35.7	-37.4	17.0	0.00e+00	0	58	0	887095296	42	4261
2026-01-14 14:11:32.47	158.11	19.98	-35.8	-37.5	16.9	0.00e+00	0	57	0	893386752	42	4330
2026-01-14 14:11:33.48	158.10	20.12	-35.8	-37.6	16.9	0.00e+00	0	57	0	900726784	42	4351
2026-01-14 14:11:34.49	158.09	20.25	-35.8	-37.6	16.9	0.00e+00	0	58	0	909115392	42	4354
2026-01-14 14:11:35.50	158.08	20.38	-35.7	-37.5	16.9	0.00e+00	0	58	0	915406848	42	4312
2026-01-14 14:11:36.51	158.08	20.52	-35.8	-37.6	16.9	0.00e+00	0	58	0	922746880	42	4363
2026-01-14 14:11:37.52	158.07	20.66	-35.8	-37.6	16.9	0.00e+00	0	58	0	930086912	42	4362
2026-01-14 14:11:38.53	158.06	20.79	-35.8	-37.6	16.9	0.00e+00	0	58	0	937426944	42	4357
2026-01-14 14:11:39.54	158.05	20.93	-35.8	-37.6	16.9	0.00e+00	0	58	0	944766976	42	4346
2026-01-14 14:11:40.55	158.04	21.07	-35.9	-37.7	16.8	0.00e+00	0	58	0	952107008	42	4393
2026-01-14 14:11:41.56	158.03	21.21	-35.8	-37.6	16.9	0.00e+00	0	58	0	959447040	42	4343
2026-01-14 14:11:42.57	158.02	21.35	-35.8	-37.6	16.9	0.00e+00	0	58	0	966787072	42	4364
2026-01-14 14:11:43.58	158.02	21.49	-35.9	-37.6	16.8	0.00e+00	0	58	0	974127104	42	4384
2026-01-14 14:11:44.59	158.01	21.63	-35.9	-37.7	16.8	0.00e+00	0	58	0	981467136	42	4413
2026-01-14 14:11:45.59	158.00	21.77	-35.9	-37.7	16.8	0.00e+00	0	58	0	988807168	42	4410
2026-01-14 14:11:46.60	157.99	21.91	-36.0	-37.8	16.7	0.00e+00	0	58	0	996147200	42	4456
2026-01-14 14:11:47.61	157.98	22.06	-35.7	-37.5	17.0	0.00e+00	0	58	0	1003487232	42	4314
2026-01-14 14:11:48.62	157.97	22.20	-35.8	-37.6	16.9	0.00e+00	0	58	0	1010827264	42	4346
2026-01-14 14:11:49.63	157.96	22.35	-35.8	-37.6	16.9	0.00e+00	0	58	0	1018167296	42	4359
2026-01-14 14:11:50.64	157.95	22.49	-35.7	-37.4	17.0	0.00e+00	0	58	0	1025507328	42	4286
2026-01-14 14:11:51.65	157.94	22.64	-35.7	-37.5	17.0	0.00e+00	0	58	0	1032847360	42	4300
2026-01-14 14:11:52.66	157.93	22.79	-35.6	-37.4	17.1	0.00e+00	0	58	0	1040187392	42	4261
2026-01-14 14:11:53.67	157.92	22.94	-35.6	-37.4	17.1	0.00e+00	0	58	0	1046478848	42	4248
2026-01-14 14:11:54.68	157.91	23.09	-35.6	-37.3	17.2	0.00e+00	0	58	0	1053818880	42	4230
2026-01-14 14:11:55.69	157.90	23.24	-35.5	-37.3	17.2	0.00e+00	0	58	0	1062207488	42	4199
2026-01-14 14:11:56.70	157.89	23.39	-35.5	-37.3	17.2	0.00e+00	0	58	0	1068498944	41	4459
2026-01-14 14:11:57.71	157.88	23.54	-35.3	-37.0	17.4	0.00e+00	0	58	0	1075838976	41	4320
2026-01-14 14:11:58.72	157.87	23.69	-35.2	-37.0	17.4	0.00e+00	0	58	0	1083179008	41	4313
2026-01-14 14:11:59.73	157.86	23.85	-35.2	-36.9	17.5	0.00e+00	0	58	0	1090519040	41	4289
2026-01-14 14:12:00.74	157.84	24.00	-35.2	-36.9	17.5	0.00e+00	0	58	0	1097859072	41	4276
2026-01-14 14:12:01.75	157.83	24.16	-35.1	-36.9	17.5	0.00e+00	0	58	0	1105199104	41	4247
2026-01-14 14:12:02.76	157.82	24.32	-35.2	-36.9	17.5	0.00e+00	0	58	0	1112539136	41	4284
2026-01-14 14:12:03.77	157.81	24.47	-35.1	-36.8	17.6	0.00e+00	0	58	0	1119879168	41	4225
2026-01-14 14:12:04.78	157.80	24.63	-35.1	-36.9	17.5	0.00e+00	0	58	0	1127219200	41	4254
2026-01-14 14:12:05.79	157.79	24.79	-35.1	-36.9	17.5	0.00e+00	0	58	0	1134559232	41	4249
2026-01-14 14:12:06.80	157.78	24.95	-35.1	-36.8	17.6	0.00e+00	0	58	0	1141899264	41	4222
2026-01-14 14:12:07.81	157.76	25.11	-35.0	-36.7	17.7	0.00e+00	0	58	0	1149239296	41	4183
2026-01-14 14:12:08.82	157.75	25.28	-35.0	-36.7	17.6	0.00e+00	0	58	0	1156579328	41	4189
2026-01-14 14:12:09.83	157.74	25.44	-35.1	-36.9	17.5	0.00e+00	0	58	0	1163919360	41	4244
2026-01-14 14:12:10.84	157.73	25.61	-35.1	-36.8	17.6	0.00e+00	0	58	0	1171259392	41	4225
2026-01-14 14:12:11.85	157.71	25.77	-35.0	-36.7	17.6	0.00e+00	0	58	0	1178599424	41	4189
2026-01-14 14:12:12.86	157.70	25.94	-35.0	-36.7	17.7	0.00e+00	0	58	0	1185939456	41	4171
2026-01-14 14:12:13.87	157.69	26.11	-35.1	-36.8	17.5	0.00e+00	0	58	0	1193279488	41	4225
2026-01-14 14:12:14.88	157.67	26.27	-35.1	-36.8	17.5	0.00e+00	0	58	0	1200619520	41	4237
2026-01-14 14:12:15.89	157.66	26.44	-35.0	-36.8	17.6	0.00e+00	0	58	0	1207959552	41	4209
2026-01-14 14:12:16.90	157.65	26.62	-35.1	-36.8	17.6	0.00e+00	0	58	0	1215299584	41	4221
2026-01-14 14:12:17.92	157.63	26.79	-35.1	-36.9	17.5	0.00e+00	0	58	0	1221591040	41	4250
2026-01-14 14:12:18.93	157.62	26.96	-35.1	-36.8	17.5	0.00e+00	0	58	0	1228931072	40	4491
2026-01-14 14:12:19.93	157.61	27.14	-35.1	-36.9	17.5	0.00e+00	0	58	0	1237319680	40	4518
2026-01-14 14:12:20.94	157.59	27.31	-35.1	-36.9	17.5	0.00e+00	0	58	0	1243611136	40	4502
2026-01-14 14:12:21.95	157.58	27.49	-35.1	-36.9	17.5	0.00e+00	0	58	0	1250951168	40	4524
2026-01-14 14:12:22.96	157.56	27.67	-35.1	-36.9	17.5	0.00e+00	0	58	0	1258291200	40	4511
2026-01-14 14:12:23.97	157.55	27.84	-35.1	-36.9	17.5	0.00e+00	0	58	0	1265631232	40	4510
2026-01-14 14:12:24.98	157.53	28.02	-35.1	-36.9	17.5	0.00e+00	0	58	0	1272971264	40	4500
2026-01-14 14:12:25.99	157.52	28.21	-35.1	-36.8	17.6	0.00e+00	0	58	0	1280311296	40	4476
2026-01-14 14:12:27.00	157.50	28.39	-34.9	-36.6	17.8	0.00e+00	0	58	0	1287651328	40	4355
2026-01-14 14:12:28.01	157.49	28.57	-34.9	-36.6	17.8	0.00e+00	0	58	0	1294991360	40	4386
2026-01-14 14:12:29.02	157.47	28.76	-34.8	-36.5	17.8	0.00e+00	0	58	0	1302331392	40	4339
2026-01-14 14:12:30.03	157.45	28.94	-34.8	-36.5	17.9	0.00e+00	0	58	0	1309671424	40	4311
2026-01-14 14:12:31.04	157.44	29.13	-34.8	-36.5	17.9	0.00e+00	0	58	0	1317011456	40	4296
2026-01-14 14:12:32.05	157.42	29.32	-34.7	-36.4	18.1	0.00e+00	0	58	0	1324351488	40	4251
2026-01-14 14:12:33.06	157.40	29.51	-34.8	-36.4	18.0	0.00e+00	0	58	0	1331691520	40	4279
2026-01-14 14:12:34.07	157.39	29.70	-34.7	-36.3	18.1	0.00e+00	0	58	0	1339031552	40	4228
2026-01-14 14:12:35.08	157.37	29.89	-34.8	-36.4	18.0	0.00e+00	0	58	0	1345323008	40	4258
2026-01-14 14:12:36.09	157.35	30.09	-34.8	-36.4	18.1	0.00e+00	0	58	0	1353711616	40	4283
2026-01-14 14:12:37.10	157.33	30.28	-34.8	-36.4	18.0	0.00e+00	0	58	0	1361051648	40	4287
2026-01-14 14:12:38.11	157.32	30.48	-34.8	-36.5	18.0	0.00e+00	0	58	0	1367343104	40	4317
2026-01-14 14:12:39.12	157.30	30.67	-34.9	-36.6	17.9	0.00e+00	0	58	0	1374683136	40	4370
2026-01-14 14:12:40.13	157.28	30.87	-34.9	-36.6	17.9	0.00e+00	0	58	0	1382023168	40	4364
2026-01-14 14:12:41.14	157.26	31.07	-35.0	-36.7	17.8	0.00e+00	0	58	0	1389363200	40	4425
2026-01-14 14:12:42.15	157.24	31.28	-35.0	-36.7	17.8	0.00e+00	0	58	0	1396703232	40	4435
2026-01-14 14:12:43.16	157.22	31.48	-35.1	-36.8	17.8	0.00e+00	0	58	0	1404043264	40	4472
2026-01-14 14:12:44.17	157.20	31.68	-35.1	-36.8	17.8	0.00e+00	0	58	0	1411383296	40	4458
2026-01-14 14:12:45.18	157.18	31.89	-35.1	-36.8	17.7	0.00e+00	0	58	0	1418723328	40	4462
2026-01-14 14:12:46.19	157.16	32.10	-35.1	-36.8	17.8	0.00e+00	0	58	0	1426063360	40	4456
2026-01-14 14:12:47.20	157.14	32.31	-35.0	-36.7	17.9	0.00e+00	0	58	0	1433403392	40	4397
2026-01-14 14:12:48.21	157.12	32.52	-35.0	-36.7	17.8	0.00e+00	0	58	0	1440743424	40	4420
2026-01-14 14:12:49.22	157.10	32.73	-34.9	-36.6	18.0	0.00e+00	0	58	0	1448083456	40	4350
2026-01-14 14:12:50.23	157.08	32.94	-34.9	-36.6	18.0	0.00e+00	0	58	0	1455423488	40	4372
2026-01-14 14:12:51.24	157.06	33.16	-34.9	-36.5	18.0	0.00e+00	0	59	0	1462763520	40	4331
2026-01-14 14:12:52.25	157.03	33.37	-34.8	-36.4	18.1	0.00e+00	0	58	0	1470103552	40	4286
2026-01-14 14:12:53.26	157.01	33.59	-34.8	-36.4	18.1	0.00e+00	0	59	0	1477443584	40	4290
2026-01-14 14:12:54.27	156.99	33.81	-34.8	-36.5	18.0	0.00e+00	0	59	0	1484783616	40	4328
2026-01-14 14:12:55.29	156.96	34.03	-34.8	-36.4	18.1	0.00e+00	0	58	0	1492123648	40	4277
2026-01-14 14:12:56.30	156.94	34.26	-34.7	-36.4	18.2	0.00e+00	0	58	0	1499463680	40	4252
2026-01-14 14:12:57.31	156.92	34.48	-34.7	-36.3	18.2	0.00e+00	0	59	0	1506803712	40	4236
2026-01-14 14:12:58.32	156.89	34.71	-34.7	-36.3	18.2	0.00e+00	0	59	0	1514143744	40	4226
2026-01-14 14:12:59.33	156.87	34.93	-34.7	-36.4	18.2	0.00e+00	0	58	0	1520435200	40	4264
2026-01-14 14:13:00.34	156.84	35.16	-34.7	-36.4	18.2	0.00e+00	0	59	0	1528823808	40	4261
2026-01-14 14:13:01.35	156.82	35.39	-34.8	-36.4	18.1	0.00e+00	0	58	0	1536163840	40	4291
2026-01-14 14:13:02.36	156.79	35.63	-34.8	-36.5	18.1	0.00e+00	0	59	0	1542455296	40	4299
2026-01-14 14:13:03.37	156.76	35.86	-34.9	-36.6	18.0	0.00e+00	0	58	0	1549795328	40	4347
2026-01-14 14:13:04.38	156.74	36.10	-34.8	-36.4	18.1	0.00e+00	0	59	0	1558183936	40	4287
2026-01-14 14:13:05.39	156.71	36.33	-34.8	-36.4	18.1	0.00e+00	0	59	0	1564475392	40	4277
2026-01-14 14:13:06.40	156.68	36.57	-34.8	-36.5	18.1	0.00e+00	0	58	0	1571815424	40	4321
2026-01-14 14:13:07.41	156.66	36.81	-34.9	-36.6	18.0	0.00e+00	0	59	0	1579155456	40	4347
2026-01-14 14:13:08.42	156.63	37.06	-34.8	-36.5	18.1	0.00e+00	0	58	0	1586495488	40	4327
2026-01-14 14:13:09.43	156.60	37.30	-34.8	-36.5	18.0	0.00e+00	0	59	0	1593835520	40	4335
2026-01-14 14:13:10.44	156.57	37.55	-34.8	-36.4	18.1	0.00e+00	0	59	0	1601175552	40	4279
2026-01-14 14:13:11.44	156.54	37.79	-34.9	-36.5	18.1	0.00e+00	0	58	0	1608515584	40	4335
2026-01-14 14:13:12.45	156.51	38.04	-34.9	-36.6	18.0	0.00e+00	0	59	0	1615855616	40	4364
2026-01-14 14:13:13.47	156.48	38.30	-35.0	-36.7	17.9	0.00e+00	0	59	0	1623195648	40	4419
2026-01-14 14:13:14.48	156.45	38.55	-35.1	-36.8	17.8	0.00e+00	0	59	0	1630535680	40	4482
2026-01-14 14:13:15.48	156.41	38.81	-35.2	-36.9	17.7	0.00e+00	0	59	0	1637875712	40	4516
2026-01-14 14:13:16.49	156.38	39.06	-35.3	-37.0	17.6	0.00e+00	0	59	0	1645215744	40	4571
2026-01-14 14:13:17.50	156.35	39.32	-35.3	-37.0	17.6	0.00e+00	0	59	0	1652555776	40	4594
2026-01-14 14:13:18.51	156.31	39.59	-35.4	-37.1	17.5	0.00e+00	0	59	0	1659895808	40	4637
2026-01-14 14:13:19.52	156.28	39.85	-35.3	-37.0	17.6	0.00e+00	0	59	0	1666187264	40	4581
2026-01-14 14:13:20.53	156.24	40.12	-35.4	-37.1	17.6	0.00e+00	0	59	0	1674575872	40	4608
2026-01-14 14:13:21.54	156.21	40.38	-35.4	-37.2	17.5	0.00e+00	0	59	0	1681915904	40	4653
2026-01-14 14:13:22.56	156.17	40.66	-35.2	-36.8	17.8	0.00e+00	0	59	0	1688207360	40	4489
2026-01-14 14:13:23.57	156.13	40.93	-35.2	-36.8	17.8	0.00e+00	0	59	0	1695547392	40	4491
2026-01-14 14:13:24.58	156.10	41.20	-35.0	-36.7	17.9	0.00e+00	0	59	0	1702887424	40	4408
2026-01-14 14:13:25.59	156.06	41.48	-34.8	-36.4	18.2	0.00e+00	0	59	0	1710227456	40	4290
2026-01-14 14:13:26.60	156.02	41.75	-35.0	-36.6	18.0	0.00e+00	0	59	0	1717567488	40	4379
2026-01-14 14:13:27.60	155.98	42.03	-35.0	-36.7	18.0	0.00e+00	0	59	0	1724907520	40	4394
2026-01-14 14:13:28.61	155.94	42.31	-35.6	-36.8	18.3	0.00e+00	0	59	0	1732247552	40	4479
2026-01-14 14:13:29.62	155.90	42.60	-35.7	-36.9	18.3	0.00e+00	0	59	0	1739587584	40	4499
2026-01-14 14:13:30.63	155.86	42.88	-35.7	-36.9	18.2	0.00e+00	0	59	0	1746927616	41	4258
2026-01-14 14:13:31.64	155.81	43.17	-35.9	-37.0	18.1	0.00e+00	0	59	0	1754267648	41	4337
2026-01-14 14:13:32.65	155.77	43.46	-35.8	-37.0	18.1	0.00e+00	0	59	0	1761607680	41	4332
2026-01-14 14:13:33.66	155.73	43.76	-35.9	-37.1	18.0	0.00e+00	0	59	0	1768947712	41	4391
2026-01-14 14:13:34.67	155.68	44.05	-35.9	-37.1	18.0	0.00e+00	0	59	0	1776287744	41	4387
2026-01-14 14:13:35.68	155.63	44.35	-36.0	-37.2	17.9	0.00e+00	0	59	0	1783627776	41	4427
2026-01-14 14:13:36.69	155.59	44.65	-36.1	-37.3	17.8	0.00e+00	0	59	0	1790967808	41	4457
2026-01-14 14:13:37.70	155.54	44.95	-36.1	-37.3	17.8	0.00e+00	0	59	0	1798307840	41	4489
2026-01-14 14:13:38.71	155.49	45.25	-36.0	-37.2	18.0	0.00e+00	0	59	0	1805647872	41	4418
2026-01-14 14:13:39.72	155.44	45.56	-36.1	-37.3	17.8	0.00e+00	0	59	0	1812987904	41	4480
2026-01-14 14:13:40.73	155.39	45.87	-36.2	-37.4	17.8	0.00e+00	0	59	0	1819279360	42	4271
2026-01-14 14:13:41.74	155.33	46.18	-36.0	-37.2	17.9	0.00e+00	0	59	0	1827667968	42	4184
2026-01-14 14:13:42.75	155.28	46.49	-36.2	-37.4	17.8	0.00e+00	0	59	0	1835008000	42	4261
2026-01-14 14:13:43.76	155.23	46.81	-36.1	-37.4	17.8	0.00e+00	0	59	0	1841299456	42	4250
2026-01-14 14:13:44.77	155.17	47.13	-36.2	-37.5	17.7	0.00e+00	0	59	0	1848639488	42	4293
2026-01-14 14:13:45.78	155.11	47.45	-36.2	-37.5	17.7	0.00e+00	0	59	0	1857028096	42	4307
2026-01-14 14:13:46.79	155.05	47.77	-36.2	-37.4	17.8	0.00e+00	0	59	0	1863319552	42	4274
2026-01-14 14:13:47.80	154.99	48.10	-36.3	-37.6	17.6	0.00e+00	0	59	0	1870659584	42	4343
2026-01-14 14:13:48.81	154.93	48.42	-36.5	-37.8	17.4	0.00e+00	0	59	0	1877999616	42	4472
2026-01-14 14:13:49.82	154.87	48.75	-36.7	-38.0	17.2	0.00e+00	0	59	0	1885339648	43	4305
2026-01-14 14:13:50.83	154.81	49.09	-36.7	-37.9	17.2	0.00e+00	0	59	0	1892679680	43	4290
2026-01-14 14:13:51.84	154.74	49.42	-36.7	-38.0	17.2	0.00e+00	0	59	0	1900019712	43	4322
2026-01-14 14:13:52.85	154.68	49.76	-36.7	-38.0	17.2	0.00e+00	0	59	0	1907359744	43	4330
2026-01-14 14:13:53.86	154.61	50.10	-36.6	-37.9	17.3	0.00e+00	0	59	0	1914699776	43	4264
2026-01-14 14:13:54.87	154.54	50.44	-36.6	-37.8	17.3	0.00e+00	0	59	0	1922039808	43	4232
2026-01-14 14:13:55.88	154.47	50.79	-36.4	-37.7	17.5	0.00e+00	0	59	0	1929379840	43	4168
2026-01-14 14:13:56.89	154.39	51.14	-36.7	-38.0	17.2	0.00e+00	0	59	0	1936719872	43	4296
2026-01-14 14:13:57.90	154.32	51.49	-37.4	-38.8	16.4	0.00e+00	0	59	0	1944059904	44	4485
2026-01-14 14:13:58.91	154.24	51.84	-37.3	-38.7	16.6	0.00e+00	0	59	0	1951399936	44	4437
2026-01-14 14:13:59.92	154.16	52.19	-37.4	-38.8	16.5	0.00e+00	0	59	0	1958739968	44	4477
2026-01-14 14:14:00.92	154.08	52.55	-37.4	-38.8	16.5	0.00e+00	0	59	0	1965031424	44	4488
2026-01-14 14:14:01.93	154.00	52.91	-37.4	-38.8	16.5	0.00e+00	0	59	0	1972371456	44	4485
2026-01-14 14:14:02.94	153.91	53.27	-37.0	-38.3	17.0	0.00e+00	0	59	0	1980760064	44	4235
2026-01-14 14:14:03.95	153.82	53.64	-36.9	-38.2	17.1	0.00e+00	0	59	0	1987051520	44	4189
2026-01-14 14:14:04.95	153.74	54.00	-36.9	-38.2	17.1	0.00e+00	0	59	0	1994391552	44	4175
2026-01-14 14:14:05.96	153.64	54.37	-37.1	-38.4	16.9	0.00e+00	0	59	0	2001731584	44	4270
2026-01-14 14:14:06.98	153.55	54.75	-37.2	-38.6	16.8	0.00e+00	0	59	0	2009071616	44	4359
2026-01-14 14:14:07.99	153.45	55.12	-37.9	-39.4	16.0	0.00e+00	0	59	0	2016411648	45	4507
2026-01-14 14:14:09.00	153.35	55.50	-37.6	-39.0	16.3	0.00e+00	0	59	0	2023751680	45	4316
2026-01-14 14:14:10.00	153.25	55.88	-37.5	-38.9	16.4	0.00e+00	0	59	0	2031091712	45	4268
2026-01-14 14:14:11.01	153.14	56.26	-37.2	-38.5	16.8	0.00e+00	0	59	0	2038431744	45	4095
2026-01-14 14:14:12.02	153.03	56.65	-37.0	-38.3	17.1	0.00e+00	0	59	0	2045771776	44	4211
2026-01-14 14:14:13.03	152.92	57.04	-37.0	-38.4	17.0	0.00e+00	0	59	0	2053111808	44	4248
2026-01-14 14:14:14.04	152.81	57.43	-37.0	-38.4	17.0	0.00e+00	0	59	0	2060451840	44	4245
2026-01-14 14:14:15.05	152.69	57.82	-37.3	-38.7	16.7	0.00e+00	0	59	0	2067791872	44	4393
2026-01-14 14:14:16.06	152.57	58.22	-37.2	-38.6	16.7	0.00e+00	0	59	0	2075131904	44	4372
2026-01-14 14:14:17.07	152.44	58.62	-37.1	-38.5	16.9	0.00e+00	0	59	0	2082471936	44	4310
2026-01-14 14:14:18.08	152.31	59.02	-37.1	-38.5	16.8	0.00e+00	0	59	0	2089811968	44	4310
2026-01-14 14:14:19.09	152.17	59.42	-36.9	-38.2	17.1	0.00e+00	0	59	0	2097152000	44	4183
2026-01-14 14:14:20.10	152.04	59.83	-36.8	-38.1	17.3	0.00e+00	0	59	0	2104492032	44	4123
2026-01-14 14:14:21.11	151.89	60.24	-36.7	-38.0	17.3	0.00e+00	0	59	0	2111832064	44	4095
2026-01-14 14:14:22.12	151.75	60.65	-36.9	-38.2	17.2	0.00e+00	0	59	0	2118123520	44	4168
2026-01-14 14:14:23.13	151.59	61.06	-37.0	-38.4	16.9	0.00e+00	0	59	0	2126512128	44	4255
2026-01-14 14:14:24.14	151.43	61.48	-36.5	-37.8	17.4	0.00e+00	0	59	0	2133852160	43	4194
2026-01-14 14:14:25.15	151.27	61.90	-36.2	-37.5	17.7	0.00e+00	0	59	0	2140143616	43	4057
2026-01-14 14:14:26.16	151.10	62.32	-36.2	-37.4	17.8	0.00e+00	0	59	0	2147483648	43	4029
2026-01-14 14:14:27.17	150.93	62.74	-36.0	-37.2	17.9	0.00e+00	0	59	0	2154823680	43	3956
2026-01-14 14:14:28.18	150.74	63.17	-36.0	-37.2	18.0	0.00e+00	0	59	0	2162163712	42	4155
2026-01-14 14:14:29.19	150.55	63.60	-35.6	-36.7	18.4	0.00e+00	0	59	0	2169503744	41	4176
2026-01-14 14:14:30.20	150.36	64.03	-35.8	-37.0	18.2	0.00e+00	0	59	0	2176843776	42	4063
2026-01-14 14:14:31.21	150.15	64.46	-35.7	-36.9	18.3	0.00e+00	0	59	0	2184183808	42	4011
2026-01-14 14:14:32.22	149.94	64.89	-35.7	-36.8	18.3	0.00e+00	0	59	0	2191523840	42	4000
2026-01-14 14:14:33.23	149.72	65.33	-35.7	-36.8	18.3	0.00e+00	0	59	0	2198863872	42	4002
2026-01-14 14:14:34.24	149.49	65.77	-35.5	-36.6	18.4	0.00e+00	0	59	0	2206203904	41	4136
2026-01-14 14:14:35.25	149.26	66.21	-35.5	-36.7	18.4	0.00e+00	0	59	0	2213543936	41	4177
2026-01-14 14:14:36.26	149.01	66.65	-35.4	-36.6	18.5	0.00e+00	0	59	0	2220883968	41	4119
2026-01-14 14:14:37.26	148.75	67.10	-35.4	-36.5	18.6	0.00e+00	0	59	0	2228224000	41	4073
2026-01-14 14:14:38.27	148.48	67.54	-35.3	-36.5	18.6	0.00e+00	0	59	0	2235564032	41	4063
2026-01-14 14:14:39.28	148.20	67.99	-35.9	-37.1	17.9	0.00e+00	0	59	0	2242904064	41	4386
2026-01-14 14:14:40.29	147.90	68.44	-35.3	-36.5	18.6	0.00e+00	0	59	0	2250244096	40	4309
2026-01-14 14:14:41.30	147.59	68.89	-35.5	-36.7	18.4	0.00e+00	0	59	0	2257584128	40	4408
2026-01-14 14:14:42.31	147.27	69.35	-35.7	-36.8	18.3	0.00e+00	0	59	0	2263875584	41	4238
2026-01-14 14:14:43.32	146.93	69.80	-35.6	-36.8	18.3	0.00e+00	0	59	0	2271215616	41	4218
2026-01-14 14:14:44.33	146.57	70.26	-35.4	-36.5	18.5	0.00e+00	0	59	0	2279604224	41	4069
2026-01-14 14:14:45.35	146.19	70.72	-35.2	-36.3	18.8	0.00e+00	0	59	0	2285895680	41	3973
2026-01-14 14:14:46.36	145.79	71.18	-35.4	-36.5	18.5	0.00e+00	0	59	0	2293235712	41	4077
2026-01-14 14:14:47.36	145.38	71.64	-35.6	-36.8	18.2	0.00e+00	0	59	0	2300575744	41	4230
2026-01-14 14:14:48.37	144.94	72.10	-35.8	-37.0	18.1	0.00e+00	0	59	0	2307915776	41	4315
2026-01-14 14:14:49.39	144.47	72.57	-35.9	-37.1	17.8	0.00e+00	0	59	0	2315255808	41	4382
2026-01-14 14:14:50.39	143.99	73.03	-35.9	-37.1	18.0	0.00e+00	0	59	0	2322595840	42	4127
2026-01-14 14:14:51.40	143.47	73.49	-35.7	-36.9	18.2	0.00e+00	0	59	0	2329935872	42	4031
2026-01-14 14:14:52.41	142.91	73.96	-35.5	-36.7	18.4	0.00e+00	0	59	0	2337275904	41	4158
2026-01-14 14:14:53.42	142.33	74.42	-35.4	-36.6	18.5	0.00e+00	0	59	0	2344615936	41	4107
2026-01-14 14:14:54.43	141.70	74.88	-35.1	-36.2	18.8	0.00e+00	0	59	0	2351955968	41	3952
2026-01-14 14:14:55.44	141.04	75.35	-35.3	-36.5	18.6	0.00e+00	0	59	0	2359296000	40	4302
2026-01-14 14:14:56.45	140.33	75.81	-35.0	-36.2	18.8	0.00e+00	0	59	0	2366636032	40	4153
2026-01-14 14:14:57.46	139.56	76.28	-34.7	-35.8	19.2	0.00e+00	0	59	0	2373976064	40	4001
2026-01-14 14:14:58.47	138.75	76.74	-34.4	-35.5	19.6	0.00e+00	0	59	0	2381316096	39	4075
2026-01-14 14:14:59.48	137.87	77.20	-34.4	-35.4	19.7	0.00e+00	0	59	0	2388656128	39	4034
2026-01-14 14:15:00.49	136.92	77.66	-34.3	-35.3	19.6	0.00e+00	0	59	0	2395996160	39	3985
2026-01-14 14:15:01.50	135.90	78.12	-34.4	-35.5	19.6	0.00e+00	0	59	0	2403336192	39	4067
2026-01-14 14:15:02.51	134.80	78.57	-34.4	-35.5	19.6	0.00e+00	0	59	0	2410676224	39	4075
2026-01-14 14:15:03.52	133.60	79.02	-34.2	-35.3	19.8	0.00e+00	0	59	0	2416967680	39	3962
2026-01-14 14:15:04.53	132.30	79.47	-34.0	-35.0	20.1	0.00e+00	0	59	0	2425356288	38	4089
2026-01-14 14:15:05.54	130.88	79.91	-34.1	-35.1	20.0	0.00e+00	0	59	0	2432696320	38	4109
2026-01-14 14:15:06.55	129.33	80.34	-34.0	-35.0	20.1	0.00e+00	0	59	0	2438987776	38	4071
2026-01-14 14:15:07.56	127.63	80.77	-34.3	-35.4	19.7	0.00e+00	0	59	0	2446327808	38	4260
2026-01-14 14:15:08.57	125.77	81.20	-34.5	-35.5	19.6	0.00e+00	0	59	0	2453667840	38	4323
2026-01-14 14:15:09.58	123.71	81.61	-34.5	-35.6	19.5	0.00e+00	0	59	0	2461007872	38	4350
2026-01-14 14:15:10.59	121.45	82.01	-34.2	-35.2	19.9	0.00e+00	0	59	0	2468347904	38	4173
2026-01-14 14:15:11.60	118.94	82.40	-34.1	-35.1	20.0	0.00e+00	0	59	0	2475687936	38	4130
2026-01-14 14:15:12.61	116.17	82.77	-34.2	-35.3	19.8	0.00e+00	0	59	0	2483027968	38	4205
2026-01-14 14:15:13.62	113.11	83.12	-34.5	-35.5	19.5	0.00e+00	0	59	0	2490368000	38	4332
2026-01-14 14:15:14.63	109.72	83.46	-34.7	-35.8	19.4	0.00e+00	0	59	0	2497708032	39	4194
2026-01-14 14:15:15.64	105.97	83.76	-34.5	-35.6	19.5	0.00e+00	0	59	0	2505048064	39	4105
2026-01-14 14:15:16.64	101.90	84.04	-34.5	-35.5	19.6	0.00e+00	0	59	0	2512388096	39	4080
2026-01-14 14:15:17.66	97.36	84.29	-34.5	-35.6	19.5	0.00e+00	0	59	0	2519728128	39	4105
2026-01-14 14:15:18.67	92.48	84.50	-34.7	-35.8	19.2	0.00e+00	0	59	0	2527068160	39	4235
2026-01-14 14:15:19.68	87.27	84.66	-34.6	-35.6	19.4	0.00e+00	0	59	0	2534408192	39	4144
2026-01-14 14:15:20.68	81.82	84.78	-34.7	-35.8	19.3	0.00e+00	0	59	0	2541748224	39	4208
2026-01-14 14:15:21.69	76.12	84.85	-34.9	-35.9	19.1	0.00e+00	0	59	0	2549088256	39	4290
2026-01-14 14:15:22.70	70.31	84.87	-34.9	-36.0	19.1	0.00e+00	0	59	0	2556428288	39	4316
2026-01-14 14:15:23.71	64.53	84.83	-34.7	-35.8	19.3	0.00e+00	0	59	0	2563768320	39	4219
2026-01-14 14:15:24.72	58.89	84.75	-34.6	-35.6	19.4	0.00e+00	0	59	0	2570059776	39	4145
2026-01-14 14:15:25.73	53.47	84.61	-34.7	-35.7	19.4	0.00e+00	0	59	0	2578448384	39	4192
2026-01-14 14:15:26.74	48.37	84.43	-34.6	-35.7	19.4	0.00e+00	0	59	0	2584739840	39	4166
2026-01-14 14:15:27.75	43.63	84.21	-34.5	-35.6	19.5	0.00e+00	0	59	0	2592079872	39	4124
2026-01-14 14:15:28.76	39.26	83.95	-34.5	-35.5	19.5	0.00e+00	0	59	0	2599419904	39	4094
2026-01-14 14:15:29.77	35.27	83.66	-34.4	-35.4	19.6	0.00e+00	0	59	0	2606759936	39	4045
2026-01-14 14:15:30.78	31.65	83.35	-34.4	-35.5	19.6	0.00e+00	0	59	0	2614099968	39	4066
2026-01-14 14:15:31.79	28.38	83.00	-34.3	-35.4	19.7	0.00e+00	0	59	0	2621440000	39	4012
2026-01-14 14:15:32.79	25.45	82.65	-34.2	-35.3	19.8	0.00e+00	0	59	0	2628780032	39	3978
2026-01-14 14:15:33.80	22.77	82.27	-34.2	-35.2	19.8	0.00e+00	0	59	0	2636120064	39	3955
2026-01-14 14:15:34.81	20.35	81.88	-34.2	-35.3	19.8	0.00e+00	0	59	0	2643460096	39	3960
2026-01-14 14:15:35.82	18.16	81.47	-34.4	-35.4	19.6	0.00e+00	0	59	0	2650800128	39	4043
2026-01-14 14:15:36.83	16.17	81.06	-34.3	-35.4	19.6	0.00e+00	0	59	0	2658140160	39	4020
2026-01-14 14:15:37.84	14.36	80.63	-34.6	-35.6	19.5	0.00e+00	0	59	0	2665480192	39	4141
2026-01-14 14:15:38.85	12.71	80.20	-34.6	-35.7	19.5	0.00e+00	0	59	0	2672820224	39	4151
2026-01-14 14:15:39.86	11.21	79.77	-34.4	-35.4	19.7	0.00e+00	0	59	0	2680160256	39	4045
2026-01-14 14:15:40.87	9.83	79.32	-34.1	-35.1	20.0	0.00e+00	0	59	0	2687500288	39	3899
2026-01-14 14:15:41.88	8.57	78.87	-34.3	-35.4	19.7	0.00e+00	0	59	0	2694840320	39	4014
2026-01-14 14:15:42.89	7.40	78.42	-34.5	-35.6	19.5	0.00e+00	0	59	0	2702180352	39	4125
2026-01-14 14:15:43.90	6.33	77.97	-34.5	-35.6	19.5	0.00e+00	0	59	0	2709520384	39	4115
2026-01-14 14:15:44.91	5.33	77.51	-34.4	-35.5	19.6	0.00e+00	0	59	0	2715811840	39	4061
2026-01-14 14:15:45.92	4.41	77.05	-34.7	-35.7	19.3	0.00e+00	0	59	0	2723151872	39	4178
2026-01-14 14:15:46.93	3.56	76.59	-34.8	-35.9	19.3	0.00e+00	0	59	0	2731540480	39	4254
2026-01-14 14:15:47.94	2.76	76.13	-35.2	-36.3	18.8	0.00e+00	0	59	0	2737831936	39	4461
2026-01-14 14:15:48.95	2.01	75.67	-35.3	-36.4	18.7	0.00e+00	0	59	0	2745171968	40	4273
2026-01-14 14:15:49.96	1.32	75.20	-35.4	-36.5	18.5	0.00e+00	0	59	0	2752512000	40	4327
2026-01-14 14:15:50.97	0.67	74.74	-35.8	-37.0	18.1	0.00e+00	0	59	0	2759852032	41	4297
2026-01-14 14:15:51.98	0.05	74.28	-35.8	-37.0	18.1	0.00e+00	0	59	0	2767192064	41	4319
2026-01-14 14:15:52.99	359.48	73.81	-35.8	-37.0	18.1	0.00e+00	0	59	0	2774532096	41	4319
2026-01-14 14:15:54.00	358.94	73.35	-36.0	-37.2	17.9	0.00e+00	0	59	0	2781872128	41	4417
2026-01-14 14:15:55.01	358.43	72.89	-36.3	-37.6	17.6	0.00e+00	0	59	0	2789212160	42	4371
2026-01-14 14:15:56.02	357.95	72.42	-36.4	-37.6	17.4	0.00e+00	0	59	0	2796552192	42	4382
2026-01-14 14:15:57.03	357.49	71.96	-36.2	-37.5	17.7	0.00e+00	0	59	0	2803892224	42	4302
2026-01-14 14:15:58.04	357.06	71.50	-35.9	-37.1	18.0	0.00e+00	0	59	0	2811232256	42	4125
2026-01-14 14:15:59.05	356.65	71.04	-35.7	-36.9	18.2	0.00e+00	0	59	0	2818572288	42	4023
2026-01-14 14:16:00.06	356.26	70.58	-35.9	-37.1	18.1	0.00e+00	0	59	0	2825912320	42	4116
2026-01-14 14:16:01.06	355.90	70.13	-36.0	-37.2	17.8	0.00e+00	0	59	0	2833252352	42	4167
2026-01-14 14:16:02.07	355.55	69.68	-35.7	-36.9	18.2	0.00e+00	0	59	0	2840592384	42	4034
2026-01-14 14:16:03.08	355.21	69.22	-35.7	-36.9	18.2	0.00e+00	0	60	0	2846883840	42	4022
2026-01-14 14:16:04.09	354.89	68.77	-35.5	-36.7	18.4	2.20e-06	0	59	0	2855272448	42	3914
2026-01-14 14:16:05.10	354.59	68.32	-35.4	-36.5	18.6	4.50e-06	0	60	0	2862612480	41	4077
2026-01-14 14:16:06.11	354.29	67.87	-35.3	-36.4	18.8	2.20e-06	0	59	0	2868903936	41	4014
2026-01-14 14:16:07.12	354.02	67.42	-35.2	-36.4	18.8	0.00e+00	0	59	0	2876243968	41	4009
2026-01-14 14:16:08.13	353.75	66.98	-35.4	-36.6	18.6	0.00e+00	0	59	0	2883584000	41	4106
2026-01-14 14:16:09.14	353.49	66.53	-35.6	-36.7	18.4	0.00e+00	0	59	0	2890924032	41	4190
2026-01-14 14:16:10.15	353.25	66.09	-35.7	-36.9	18.2	0.00e+00	0	59	0	2898264064	41	4252
2026-01-14 14:16:11.16	353.01	65.65	-35.7	-36.9	18.2	2.20e-06	0	59	0	2905604096	41	4261
2026-01-14 14:16:12.17	352.79	65.21	-35.8	-36.9	18.1	3.40e-06	0	59	0	2912944128	41	4286
2026-01-14 14:16:13.19	352.57	64.78	-35.8	-36.9	18.2	1.10e-06	0	59	0	2920284160	41	4277
2026-01-14 14:16:14.19	352.36	64.35	-36.1	-37.4	17.6	0.00e+00	0	59	0	2927624192	41	4525
2026-01-14 14:16:15.20	352.16	63.92	-36.3	-37.6	17.6	5.83e-05	0	59	0	2934964224	42	4368
2026-01-14 14:16:16.21	351.97	63.49	-36.5	-37.8	17.3	0.00e+00	0	59	0	2942304256	42	4453
2026-01-14 14:16:17.22	351.78	63.06	-36.4	-37.7	17.5	0.00e+00	0	59	0	2949644288	42	4392
2026-01-14 14:16:18.23	351.60	62.64	-36.5	-37.8	17.4	0.00e+00	0	59	0	2956984320	42	4445
2026-01-14 14:16:19.24	351.43	62.22	-36.6	-37.9	17.3	0.00e+00	0	59	0	2964324352	42	4537
2026-01-14 14:16:20.25	351.26	61.80	-36.9	-38.3	16.9	6.80e-06	0	59	0	2971664384	43	4451
2026-01-14 14:16:21.26	351.10	61.38	-37.0	-38.4	16.8	4.50e-06	0	59	0	2979004416	43	4515
2026-01-14 14:16:22.27	350.94	60.96	-37.1	-38.4	16.8	1.83e-05	0	59	0	2986344448	43	4531
2026-01-14 14:16:23.28	350.79	60.55	-36.9	-38.2	17.0	0.00e+00	0	59	0	2992635904	43	4407
2026-01-14 14:16:24.29	350.65	60.14	-36.6	-37.9	17.1	8.00e-06	0	59	0	3001024512	43	4276
2026-01-14 14:16:25.30	350.50	59.74	-36.7	-38.0	16.9	8.00e-06	0	59	0	3008364544	43	4304
2026-01-14 14:16:26.31	350.37	59.33	-36.8	-38.2	17.0	2.59e-04	0	60	0	3014656000	43	4396
2026-01-14 14:16:27.32	350.24	58.93	-37.0	-38.4	16.8	1.60e-05	0	60	0	3021996032	43	4507
2026-01-14 14:16:28.33	350.11	58.53	-37.1	-38.5	16.6	8.00e-06	0	59	0	3029336064	43	4591
2026-01-14 14:16:29.34	349.98	58.13	-37.4	-38.8	16.5	3.31e-05	0	60	0	3036676096	44	4482
2026-01-14 14:16:30.35	349.86	57.74	-37.4	-38.8	16.6	0.00e+00	0	59	0	3044016128	44	4469
2026-01-14 14:16:31.36	349.74	57.35	-37.3	-38.7	16.6	0.00e+00	0	59	0	3051356160	44	4407
2026-01-14 14:16:32.37	349.63	56.96	-37.3	-38.7	16.7	1.10e-06	0	59	0	3058696192	44	4409
2026-01-14 14:16:33.38	349.52	56.57	-37.3	-38.7	16.7	0.00e+00	0	60	0	3066036224	44	4399
2026-01-14 14:16:34.39	349.41	56.19	-37.3	-38.7	16.7	3.40e-06	0	59	0	3073376256	44	4408
2026-01-14 14:16:35.40	349.31	55.81	-37.2	-38.5	16.8	0.00e+00	0	59	0	3080716288	44	4319
2026-01-14 14:16:36.41	349.21	55.43	-37.1	-38.4	16.9	9.10e-06	0	59	0	3088056320	44	4277
2026-01-14 14:16:37.42	349.11	55.05	-37.0	-38.3	17.0	1.10e-06	0	60	0	3095396352	44	4236
2026-01-14 14:16:38.43	349.01	54.68	-37.0	-38.3	17.0	0.00e+00	0	59	0	3102736384	44	4215
2026-01-14 14:16:39.44	348.92	54.31	-36.9	-38.2	17.2	0.00e+00	0	59	0	3110076416	44	4148
2026-01-14 14:16:40.46	348.82	53.93	-36.8	-38.1	17.2	3.40e-06	0	60	0	3117416448	44	4112
2026-01-14 14:16:41.47	348.74	53.57	-36.8	-38.1	17.2	0.00e+00	0	60	0	3124756480	44	4135
2026-01-14 14:16:42.48	348.65	53.20	-37.0	-38.3	17.0	0.00e+00	0	60	0	3132096512	44	4218
2026-01-14 14:16:43.49	348.57	52.84	-37.1	-38.5	16.9	0.00e+00	0	59	0	3139436544	44	4293
2026-01-14 14:16:44.50	348.48	52.49	-37.2	-38.5	16.9	0.00e+00	0	59	0	3146776576	44	4317
2026-01-14 14:16:45.51	348.40	52.13	-37.2	-38.6	16.8	0.00e+00	0	59	0	3154116608	44	4343
2026-01-14 14:16:46.52	348.33	51.78	-37.2	-38.5	16.8	0.00e+00	0	60	0	3161456640	44	4329
2026-01-14 14:16:47.53	348.25	51.43	-37.2	-38.5	16.8	0.00e+00	0	59	0	3167748096	44	4317
2026-01-14 14:16:48.54	348.17	51.08	-37.2	-38.5	16.8	0.00e+00	0	59	0	3176136704	44	4317
2026-01-14 14:16:49.55	348.10	50.73	-37.1	-38.4	16.9	0.00e+00	0	59	0	3183476736	44	4277
2026-01-14 14:16:50.56	348.03	50.39	-37.1	-38.5	16.7	0.00e+00	0	59	0	3189768192	44	4298
2026-01-14 14:16:51.57	347.96	50.05	-36.9	-38.2	17.1	0.00e+00	0	59	0	3197108224	44	4180
2026-01-14 14:16:52.58	347.89	49.71	-36.7	-38.0	17.4	0.00e+00	0	59	0	3204448256	44	4063
2026-01-14 14:16:53.59	347.83	49.37	-36.5	-37.8	17.5	0.00e+00	0	59	0	3211788288	44	3966
2026-01-14 14:16:54.59	347.76	49.04	-36.3	-37.5	17.7	0.00e+00	0	59	0	3219128320	43	4070
2026-01-14 14:16:55.60	347.70	48.71	-36.2	-37.4	17.6	0.00e+00	0	59	0	3226468352	43	4047
2026-01-14 14:16:56.61	347.64	48.38	-36.3	-37.6	17.5	0.00e+00	0	59	0	3233808384	43	4114
2026-01-14 14:16:57.62	347.58	48.06	-36.3	-37.6	17.6	0.00e+00	0	60	0	3241148416	43	4100
2026-01-14 14:16:58.63	347.52	47.74	-36.4	-37.6	17.5	0.00e+00	0	59	0	3248488448	43	4134
2026-01-14 14:16:59.64	347.46	47.41	-36.2	-37.5	17.7	0.00e+00	0	59	0	3255828480	43	4056
2026-01-14 14:17:00.65	347.41	47.10	-36.0	-37.2	17.8	0.00e+00	0	60	0	3263168512	43	3918
2026-01-14 14:17:01.66	347.35	46.78	-35.9	-37.1	18.0	0.00e+00	0	59	0	3270508544	42	4135
2026-01-14 14:17:02.67	347.30	46.46	-35.8	-36.9	18.1	0.00e+00	0	59	0	3277848576	42	4036
2026-01-14 14:17:03.67	347.25	46.16	-35.8	-37.0	18.1	0.00e+00	0	59	0	3285188608	42	4059
2026-01-14 14:17:04.69	347.19	45.84	-35.9	-37.1	18.0	0.00e+00	0	59	0	3292528640	42	4139
2026-01-14 14:17:05.70	347.14	45.54	-36.0	-37.2	17.9	0.00e+00	0	59	0	3299868672	42	4181
2026-01-14 14:17:06.70	347.09	45.24	-36.1	-37.3	17.8	0.00e+00	0	59	0	3307208704	42	4202
2026-01-14 14:17:07.71	347.04	44.93	-36.1	-37.3	17.8	0.00e+00	0	59	0	3313500160	42	4237
2026-01-14 14:17:08.72	347.00	44.63	-36.0	-37.2	17.9	0.00e+00	0	59	0	3320840192	42	4172
2026-01-14 14:17:09.73	346.95	44.33	-35.9	-37.1	18.1	0.00e+00	0	60	0	3329228800	42	4108
2026-01-14 14:17:10.74	346.90	44.04	-35.9	-37.1	18.1	0.00e+00	0	59	0	3335520256	42	4109
2026-01-14 14:17:11.75	346.86	43.75	-35.9	-37.0	17.8	0.00e+00	0	59	0	3342860288	42	4090
2026-01-14 14:17:12.76	346.82	43.45	-35.9	-37.1	18.0	0.00e+00	0	59	0	3350200320	42	4118
2026-01-14 14:17:13.77	346.77	43.17	-36.0	-37.2	17.9	0.00e+00	0	59	0	3357540352	42	4155
2026-01-14 14:17:14.78	346.73	42.88	-36.1	-37.3	17.8	0.00e+00	0	59	0	3364880384	42	4228
2026-01-14 14:17:15.79	346.69	42.59	-36.1	-37.3	17.7	0.00e+00	0	59	0	3372220416	42	4238
2026-01-14 14:17:16.80	346.65	42.31	-36.2	-37.4	17.7	0.00e+00	0	60	0	3379560448	42	4256
2026-01-14 14:17:17.81	346.61	42.03	-36.2	-37.4	17.7	0.00e+00	0	59	0	3386900480	42	4270
2026-01-14 14:17:18.82	346.57	41.75	-36.1	-37.4	17.7	0.00e+00	0	59	0	3394240512	42	4256
2026-01-14 14:17:19.83	346.53	41.48	-36.1	-37.3	17.7	0.00e+00	0	59	0	3401580544	42	4203
2026-01-14 14:17:20.84	346.49	41.20	-36.0	-37.2	17.8	0.00e+00	0	60	0	3408920576	42	4192
2026-01-14 14:17:21.84	346.46	40.93	-35.9	-37.1	17.8	0.00e+00	0	59	0	3416260608	42	4139
2026-01-14 14:17:22.86	346.42	40.66	-35.9	-37.1	18.0	0.00e+00	0	59	0	3423600640	42	4129
2026-01-14 14:17:23.87	346.38	40.39	-35.9	-37.1	18.0	0.00e+00	0	59	0	3430940672	42	4114
2026-01-14 14:17:24.88	346.35	40.13	-35.9	-37.1	18.0	0.00e+00	0	59	0	3438280704	42	4117
2026-01-14 14:17:25.89	346.31	39.86	-35.9	-37.1	17.9	0.00e+00	0	59	0	3445620736	42	4137
2026-01-14 14:17:26.90	346.28	39.60	-35.8	-37.0	17.9	0.00e+00	0	59	0	3452960768	42	4089
2026-01-14 14:17:27.91	346.25	39.34	-35.9	-37.1	17.9	0.00e+00	0	59	0	3460300800	42	4136
2026-01-14 14:17:28.92	346.21	39.08	-35.9	-37.1	17.9	0.00e+00	0	59	0	3466592256	42	4133
2026-01-14 14:17:29.92	346.18	38.83	-35.9	-37.1	17.9	0.00e+00	0	59	0	3473932288	42	4112
2026-01-14 14:17:30.93	346.15	38.57	-35.8	-37.0	18.0	0.00e+00	0	59	0	3482320896	42	4096
2026-01-14 14:17:31.94	346.12	38.32	-35.7	-36.9	18.1	0.00e+00	0	59	0	3488612352	42	4036
2026-01-14 14:17:32.95	346.09	38.07	-35.6	-36.8	18.2	0.00e+00	0	59	0	3495952384	42	3982
2026-01-14 14:17:33.96	346.06	37.82	-35.5	-36.6	18.4	0.00e+00	0	60	0	3503292416	41	4118
2026-01-14 14:17:34.97	346.03	37.57	-35.3	-36.4	18.6	0.00e+00	0	60	0	3510632448	41	4042
2026-01-14 14:17:35.98	346.00	37.33	-35.3	-36.4	18.6	0.00e+00	0	59	0	3517972480	41	4030
2026-01-14 14:17:36.99	345.97	37.09	-35.2	-36.3	18.7	0.00e+00	0	60	0	3525312512	41	3963
2026-01-14 14:17:38.00	345.95	36.84	-35.1	-36.2	18.8	0.00e+00	0	60	0	3532652544	41	3933
2026-01-14 14:17:39.01	345.92	36.60	-35.1	-36.2	18.8	0.00e+00	0	59	0	3539992576	41	3927
2026-01-14 14:17:40.02	345.89	36.37	-35.0	-36.1	18.8	0.00e+00	0	59	0	3547332608	41	3913
2026-01-14 14:17:41.03	345.86	36.13	-35.1	-36.2	18.8	0.00e+00	0	60	0	3554672640	41	3920
2026-01-14 14:17:42.04	345.84	35.89	-35.1	-36.2	18.7	0.00e+00	0	60	0	3562012672	41	3935
2026-01-14 14:17:43.05	345.81	35.66	-35.1	-36.2	18.7	0.00e+00	0	60	0	3569352704	41	3955
2026-01-14 14:17:44.06	345.79	35.43	-35.2	-36.3	18.7	0.00e+00	0	60	0	3576692736	41	3977
2026-01-14 14:17:45.07	345.76	35.20	-35.2	-36.4	18.6	0.00e+00	0	60	0	3584032768	41	4018
2026-01-14 14:17:46.08	345.74	34.97	-35.3	-36.4	18.5	0.00e+00	0	60	0	3590324224	41	4047
2026-01-14 14:17:47.09	345.71	34.75	-35.4	-36.5	18.5	0.00e+00	0	60	0	3598712832	41	4078
2026-01-14 14:17:48.10	345.69	34.52	-35.4	-36.5	18.4	0.00e+00	0	60	0	3606052864	41	4087
2026-01-14 14:17:49.11	345.67	34.30	-35.4	-36.6	18.4	0.00e+00	0	60	0	3612344320	41	4103
2026-01-14 14:17:50.11	345.64	34.08	-35.4	-36.6	18.4	0.00e+00	0	59	0	3619684352	41	4099
2026-01-14 14:17:51.12	345.62	33.86	-35.4	-36.5	18.3	0.00e+00	0	60	0	3627024384	41	4087
2026-01-14 14:17:52.13	345.60	33.64	-35.4	-36.6	18.4	0.00e+00	0	60	0	3634364416	41	4101
2026-01-14 14:17:53.14	345.58	33.43	-35.4	-36.5	18.4	0.00e+00	0	60	0	3641704448	41	4089
2026-01-14 14:17:54.16	345.56	33.21	-35.3	-36.4	18.4	0.00e+00	0	59	0	3649044480	41	4042
2026-01-14 14:17:55.16	345.53	33.00	-35.3	-36.5	18.5	0.00e+00	0	60	0	3656384512	41	4059
2026-01-14 14:17:56.17	345.51	32.78	-35.3	-36.4	18.5	0.00e+00	0	60	0	3663724544	41	4032
2026-01-14 14:17:57.18	345.49	32.57	-35.2	-36.3	18.6	0.00e+00	0	59	0	3671064576	41	3999
2026-01-14 14:17:58.19	345.47	32.36	-35.2	-36.4	18.5	0.00e+00	0	60	0	3678404608	41	4010
2026-01-14 14:17:59.20	345.45	32.16	-35.1	-36.3	18.6	0.00e+00	0	60	0	3685744640	41	3966
2026-01-14 14:18:00.21	345.43	31.95	-35.1	-36.2	18.7	0.00e+00	0	59	0	3693084672	41	3928
2026-01-14 14:18:01.22	345.41	31.74	-35.0	-36.1	18.7	0.00e+00	0	59	0	3700424704	41	3898
2026-01-14 14:18:02.23	345.39	31.54	-35.0	-36.1	18.8	0.00e+00	0	60	0	3707764736	40	4118
2026-01-14 14:18:03.24	345.38	31.34	-34.9	-36.0	18.8	0.00e+00	0	60	0	3715104768	40	4091
2026-01-14 14:18:04.24	345.36	31.14	-34.9	-36.0	18.8	0.00e+00	0	60	0	3722444800	40	4096
2026-01-14 14:18:05.26	345.34	30.94	-34.9	-36.0	18.8	0.00e+00	0	60	0	3729784832	40	4086
2026-01-14 14:18:06.27	345.32	30.74	-34.9	-36.0	18.8	0.00e+00	0	60	0	3737124864	40	4089
2026-01-14 14:18:07.28	345.30	30.54	-34.9	-36.0	18.8	0.00e+00	0	60	0	3743416320	40	4098
2026-01-14 14:18:08.29	345.29	30.35	-35.0	-36.1	18.7	0.00e+00	0	60	0	3751804928	40	4116
2026-01-14 14:18:09.30	345.27	30.15	-35.0	-36.1	18.7	0.00e+00	0	60	0	3759144960	40	4130
2026-01-14 14:18:10.31	345.25	29.96	-35.1	-36.3	18.6	0.00e+00	0	59	0	3765436416	40	4202
2026-01-14 14:18:11.32	345.23	29.77	-35.2	-36.3	18.5	0.00e+00	0	59	0	3772776448	40	4242
2026-01-14 14:18:12.32	345.22	29.58	-35.3	-36.4	18.4	0.00e+00	0	60	0	3780116480	40	4274
2026-01-14 14:18:13.33	345.20	29.39	-35.4	-36.6	18.2	0.00e+00	0	60	0	3787456512	40	4341
2026-01-14 14:18:14.34	345.19	29.21	-35.5	-36.7	18.1	0.00e+00	0	59	0	3794796544	40	4392
2026-01-14 14:18:15.35	345.17	29.02	-35.5	-36.7	18.1	0.00e+00	0	60	0	3802136576	40	4431
2026-01-14 14:18:16.36	345.15	28.83	-35.6	-36.8	18.0	0.00e+00	0	60	0	3809476608	40	4477
2026-01-14 14:18:17.37	345.14	28.65	-35.6	-36.8	18.0	0.00e+00	0	60	0	3816816640	40	4487
2026-01-14 14:18:18.38	345.12	28.47	-35.7	-36.9	17.9	0.00e+00	0	60	0	3824156672	40	4512
2026-01-14 14:18:19.39	345.11	28.29	-35.7	-36.9	17.8	0.00e+00	0	60	0	3831496704	41	4289
2026-01-14 14:18:20.40	345.09	28.11	-35.8	-37.0	17.8	0.00e+00	0	59	0	3838836736	41	4309
2026-01-14 14:18:21.41	345.08	27.93	-35.8	-37.0	17.7	0.00e+00	0	60	0	3846176768	41	4310
2026-01-14 14:18:22.41	345.07	27.75	-35.7	-36.9	17.7	0.00e+00	0	60	0	3853516800	41	4289
2026-01-14 14:18:23.42	345.05	27.57	-35.8	-37.0	17.7	0.00e+00	0	60	0	3860856832	41	4326
2026-01-14 14:18:24.43	345.04	27.40	-35.8	-37.0	17.6	0.00e+00	0	60	0	3868196864	41	4323
2026-01-14 14:18:25.44	345.02	27.22	-35.7	-37.0	17.7	0.00e+00	0	60	0	3875536896	41	4310
2026-01-14 14:18:26.45	345.01	27.05	-35.7	-37.0	17.6	0.00e+00	0	60	0	3882876928	41	4315
2026-01-14 14:18:27.46	345.00	26.88	-35.8	-37.0	17.6	0.00e+00	0	60	0	3889168384	41	4309
2026-01-14 14:18:28.47	344.98	26.71	-35.8	-37.0	17.6	0.00e+00	0	60	0	3896508416	41	4327
2026-01-14 14:18:29.48	344.97	26.54	-35.8	-37.0	17.5	0.00e+00	0	59	0	3904897024	41	4318
2026-01-14 14:18:30.49	344.96	26.37	-35.8	-37.0	17.5	0.00e+00	0	60	0	3911188480	41	4319
2026-01-14 14:18:31.50	344.95	26.20	-35.8	-37.1	17.5	0.00e+00	0	59	0	3918528512	41	4350
2026-01-14 14:18:32.52	344.93	26.03	-35.9	-37.1	17.4	0.00e+00	0	60	0	3925868544	41	4370
2026-01-14 14:18:33.52	344.92	25.86	-35.8	-37.1	17.4	0.00e+00	0	59	0	3933208576	41	4374
2026-01-14 14:18:34.53	344.91	25.70	-35.9	-37.2	17.3	0.00e+00	0	59	0	3940548608	41	4396
2026-01-14 14:18:35.54	344.90	25.54	-35.9	-37.2	17.2	0.00e+00	0	59	0	3947888640	41	4411
2026-01-14 14:18:36.56	344.89	25.37	-35.9	-37.2	17.2	0.00e+00	0	60	0	3955228672	41	4428
2026-01-14 14:18:37.57	344.87	25.21	-36.0	-37.3	17.1	0.00e+00	0	60	0	3962568704	41	4461
2026-01-14 14:18:38.57	344.86	25.05	-36.0	-37.3	17.1	0.00e+00	0	59	0	3969908736	41	4449
2026-01-14 14:18:39.58	344.85	24.89	-36.0	-37.3	17.0	0.00e+00	0	59	0	3977248768	41	4470
2026-01-14 14:18:40.59	344.84	24.73	-36.0	-37.3	17.0	0.00e+00	0	60	0	3984588800	41	4455
2026-01-14 14:18:41.60	344.83	24.57	-36.0	-37.3	17.0	0.00e+00	0	60	0	3991928832	41	4473
2026-01-14 14:18:42.61	344.82	24.42	-36.1	-37.4	16.9	0.00e+00	0	60	0	3999268864	41	4507
2026-01-14 14:18:43.62	344.81	24.26	-35.9	-37.3	17.0	0.00e+00	0	60	0	4006608896	41	4452
2026-01-14 14:18:44.63	344.80	24.10	-36.0	-37.3	16.9	0.00e+00	0	60	0	4013948928	41	4461
2026-01-14 14:18:45.64	344.79	23.95	-36.1	-37.4	16.8	0.00e+00	0	60	0	4021288960	41	4518
2026-01-14 14:18:46.66	344.78	23.79	-35.9	-37.2	16.9	0.00e+00	0	59	0	4028628992	41	4426
2026-01-14 14:18:47.67	344.77	23.64	-36.0	-37.3	16.7	0.00e+00	0	60	0	4035969024	41	4464
2026-01-14 14:18:48.68	344.76	23.49	-36.2	-37.6	16.4	0.00e+00	0	60	0	4042260480	41	4605
2026-01-14 14:18:49.68	344.75	23.34	-35.8	-37.1	16.7	0.00e+00	0	60	0	4050649088	41	4372
2026-01-14 14:18:50.69	344.74	23.19	-35.6	-37.0	16.7	0.00e+00	0	60	0	4057989120	41	4310
2026-01-14 14:18:51.70	344.73	23.04	-36.0	-37.5	16.1	0.00e+00	0	60	0	4064280576	41	4557
2026-01-14 14:18:52.71	344.72	22.89	-36.1	-37.7	15.8	0.00e+00	0	60	0	4071620608	41	4654
2026-01-14 14:18:53.72	344.71	22.75	-35.8	-37.3	16.0	0.00e+00	0	60	0	4078960640	41	4472
2026-01-14 14:18:54.73	344.70	22.60	-35.5	-37.0	16.1	0.00e+00	0	60	0	4086300672	41	4301
2026-01-14 14:18:55.74	344.69	22.45	-35.6	-37.1	15.9	0.00e+00	0	60	0	4093640704	41	4372
2026-01-14 14:18:56.75	344.68	22.31	-35.8	-37.4	15.5	0.00e+00	0	59	0	4100980736	41	4501
2026-01-14 14:18:57.76	344.67	22.17	-35.9	-37.4	15.4	0.00e+00	0	60	0	4108320768	41	4542
2026-01-14 14:18:58.77	344.66	22.02	-35.8	-37.4	15.4	0.00e+00	0	60	0	4115660800	41	4500
2026-01-14 14:18:59.78	344.65	21.88	-35.6	-37.2	15.5	0.00e+00	0	60	0	4123000832	41	4399
2026-01-14 14:19:00.79	344.65	21.74	-35.9	-37.5	15.2	0.00e+00	0	60	0	4130340864	41	4556
2026-01-14 14:19:01.80	344.64	21.60	-36.4	-38.1	14.4	0.00e+00	0	60	0	4137680896	42	4648
2026-01-14 14:19:02.81	344.63	21.46	-37.1	-39.0	13.3	1.02e-05	0	60	0	4145020928	43	4870
2026-01-14 14:19:03.82	344.62	21.32	-38.1	-40.4	11.9	1.93e-04	0	60	0	4152360960	45	5080
2026-01-14 14:19:04.83	344.61	21.18	-38.9	-41.8	10.2	4.44e-03	0	60	0	4159700992	47	5310
2026-01-14 14:19:05.84	344.61	21.04	-39.8	-43.5	8.4	3.16e-02	0	60	0	4167041024	49	5756
2026-01-14 14:19:06.85	344.60	20.91	-40.5	-45.2	6.6	1.80e-01	0	60	0	4174381056	50	6627
2026-01-14 14:19:07.86	344.59	20.77	-40.9	-46.8	5.3	6.57e-01	0	60	0	4179623936	51	7477
2026-01-14 14:19:08.87	344.58	20.63	-41.2	-48.5	4.4	8.11e-01	0	60	0	4180672512	52	8562
2026-01-14 14:19:09.88	344.57	20.50	-41.4	-50.1	3.9	8.44e-01	0	60	104	4180672512	52	10305
2026-01-14 14:19:10.89	344.57	20.37	-41.5	-51.2	3.8	8.46e-01	0	60	104	4180672512	52	11705
2026-01-14 14:19:11.90	344.56	20.23	-41.5	-51.8	3.8	8.46e-01	0	60	104	4180672512	52	12522
2026-01-14 14:19:12.91	344.55	20.10	-41.6	-52.1	3.8	8.46e-01	0	60	104	4180672512	52	13088
2026-01-14 14:19:13.92	344.55	19.97	-41.6	-52.3	3.8	8.45e-01	0	60	104	4180672512	52	13335
2026-01-14 14:19:14.93	344.54	19.84	-41.6	-52.3	3.8	8.46e-01	0	60	104	4180672512	52	13324
2026-01-14 14:19:15.94	344.53	19.71	-41.6	-52.4	3.8	8.45e-01	0	59	104	4180672512	52	13430
2026-01-14 14:19:16.95	344.52	19.58	-41.6	-52.4	3.8	8.46e-01	0	60	104	4180672512	52	13495
2026-01-14 14:19:17.96	344.52	19.45	-41.2	-51.9	3.8	8.46e-01	0	60	104	4180672512	52	12678
2026-01-14 14:19:18.97	344.51	19.32	-41.6	-52.3	3.8	8.45e-01	0	60	104	4180672512	52	13312
2026-01-14 14:19:19.98	344.50	19.19	-41.2	-51.9	3.8	8.46e-01	0	60	104	4180672512	52	12802
2026-01-14 14:19:20.98	344.50	19.06	-41.6	-52.4	3.8	8.46e-01	0	60	104	4180672512	52	13503
2026-01-14 14:19:22.00	344.49	18.94	-41.3	-52.2	3.8	8.47e-01	0	60	104	4180672512	52	13121
2026-01-14 14:19:23.00	344.49	18.81	-41.3	-52.1	3.8	8.47e-01	0	60	104	4180672512	52	13057
2026-01-14 14:19:24.01	344.48	18.69	-41.2	-52.0	3.8	8.46e-01	0	60	104	4180672512	52	12914
2026-01-14 14:19:25.02	344.47	18.56	-41.2	-52.0	3.8	8.45e-01	0	60	104	4180672512	52	12927
2026-01-14 14:19:26.03	344.47	18.44	-41.1	-52.2	3.8	8.45e-01	0	60	104	4180672512	52	13252
2026-01-14 14:19:27.04	344.46	18.32	-41.5	-52.4	3.8	8.46e-01	0	60	104	4180672512	52	13421
2026-01-14 14:19:28.05	344.46	18.19	-40.9	-52.2	3.8	8.45e-01	0	60	104	4180672512	52	13193
2026-01-14 14:19:29.06	344.45	18.07	-41.3	-52.2	3.8	8.47e-01	0	60	104	4180672512	52	13141
2026-01-14 14:19:30.07	344.44	17.95	-40.8	-51.9	3.8	8.46e-01	0	60	104	4180672512	52	12800
2026-01-14 14:19:31.08	344.44	17.83	-41.2	-52.3	3.8	8.45e-01	0	60	104	4180672512	52	13274
2026-01-14 14:19:32.09	344.43	17.71	-40.7	-52.0	3.8	8.45e-01	0	60	104	4180672512	52	12861
2026-01-14 14:19:33.09	344.43	17.59	-41.3	-52.3	3.8	8.46e-01	0	60	104	4180672512	52	13365
2026-01-14 14:19:34.10	344.42	17.47	-40.6	-52.0	3.8	8.45e-01	0	60	104	4180672512	52	12822
2026-01-14 14:19:35.11	344.42	17.35	-41.2	-52.0	3.8	8.46e-01	0	60	104	4180672512	52	12855
2026-01-14 14:19:36.12	344.41	17.23	-40.6	-52.0	3.8	8.46e-01	0	60	104	4180672512	52	12836
2026-01-14 14:19:37.13	344.41	17.12	-41.1	-52.1	3.8	8.46e-01	0	60	104	4180672512	52	12968
2026-01-14 14:19:38.14	344.40	17.00	-40.4	-52.1	3.8	8.46e-01	0	60	104	4180672512	51	13741
2026-01-14 14:19:39.15	344.40	16.88	-41.3	-52.2	3.8	8.46e-01	0	60	104	4180672512	52	13198
2026-01-14 14:19:40.15	344.39	16.77	-40.3	-52.0	3.8	8.46e-01	0	60	104	4180672512	51	13642
2026-01-14 14:19:41.17	344.39	16.65	-41.2	-52.1	3.8	8.46e-01	0	60	104	4180672512	52	13055
2026-01-14 14:19:42.18	344.38	16.54	-41.2	-52.2	3.8	8.46e-01	0	60	104	4180672512	52	13207
2026-01-14 14:19:43.19	344.38	16.42	-40.9	-52.2	3.8	8.47e-01	0	60	104	4180672512	52	13217
