passes_logs/2026/01/14/R2.0S_Moscow/R2.0S_Moscow__20260114_100423_NOAA_20_JPSS-1_rec.log

#Pass ID: 20260114_100423_NOAA 20 (JPSS-1)
#Satellite: NOAA 20 (JPSS-1)
#Configuration: NOAA 20
#almurnet v.1.7.20251203
#Start time: 2026-01-14 10:04:24

#Version: 2.2.20231116
#Station: R2.0S_Moscow
#Location: 37.707566 lon 55.798166 lat
#TLE: 1 43013U 17073A   26013.21545503  .00000073  00000+0  55630-4 0  9998
#TLE: 2 43013  98.7633 314.1737 0001580  41.9966 318.1331 14.19535680422486

#Time	Az	El	Level	Level2	SNR	BER	BlckErr	Temp	State	Recorded	gain1	gain2
2026-01-14 10:04:24.35	165.04	2.06	-44.0	-58.3	3.8	1.49e+00	0	52	0	0	59	18801
2026-01-14 10:04:25.35	165.05	2.12	-43.9	-58.3	3.8	1.49e+00	0	52	104	0	59	18859
2026-01-14 10:04:26.36	165.06	2.19	-43.9	-58.3	3.8	1.49e+00	0	52	104	0	59	18826
2026-01-14 10:04:27.37	165.07	2.26	-43.9	-58.3	3.8	1.49e+00	0	52	104	0	59	18814
2026-01-14 10:04:28.38	165.08	2.32	-43.9	-58.3	3.8	1.49e+00	0	52	104	0	59	18830
2026-01-14 10:04:29.39	165.09	2.39	-43.9	-58.3	3.8	1.49e+00	0	52	104	0	59	18875
2026-01-14 10:04:30.40	165.10	2.45	-43.9	-58.3	3.8	1.49e+00	0	52	104	0	59	18837
2026-01-14 10:04:31.41	165.11	2.52	-43.9	-58.3	3.8	1.49e+00	0	52	104	0	59	18738
2026-01-14 10:04:32.42	165.12	2.58	-43.9	-58.3	3.8	1.49e+00	0	52	104	0	59	18789
2026-01-14 10:04:33.43	165.13	2.65	-43.9	-58.3	3.8	1.49e+00	0	52	104	0	59	18748
2026-01-14 10:04:34.44	165.14	2.72	-43.9	-58.3	3.8	1.49e+00	0	52	104	0	59	18778
2026-01-14 10:04:35.45	165.15	2.78	-43.9	-58.3	3.8	1.49e+00	0	52	104	0	59	18853
2026-01-14 10:04:36.46	165.16	2.85	-43.9	-58.3	3.8	1.49e+00	0	52	104	0	59	18803
2026-01-14 10:04:37.47	165.17	2.92	-43.9	-58.3	3.8	1.49e+00	0	52	104	0	59	18790
2026-01-14 10:04:38.48	165.18	2.98	-43.9	-58.3	3.8	1.49e+00	0	52	104	0	59	18824
2026-01-14 10:04:39.49	165.19	3.05	-43.9	-58.3	3.8	1.49e+00	0	53	104	0	59	18798
2026-01-14 10:04:40.50	165.20	3.12	-43.9	-58.3	3.8	1.49e+00	0	53	104	0	59	18810
2026-01-14 10:04:41.51	165.21	3.19	-43.9	-58.3	3.8	1.49e+00	0	53	104	0	59	18806
2026-01-14 10:04:42.52	165.22	3.25	-43.9	-58.3	3.8	1.49e+00	0	53	104	0	59	18831
2026-01-14 10:04:43.53	165.23	3.32	-43.9	-58.3	3.8	1.49e+00	0	53	104	0	59	18863
2026-01-14 10:04:44.55	165.24	3.39	-43.9	-58.2	3.8	1.49e+00	0	53	104	0	59	18729
2026-01-14 10:04:45.56	165.25	3.46	-43.9	-58.3	3.8	1.49e+00	0	53	104	0	59	18806
2026-01-14 10:04:46.57	165.26	3.53	-43.9	-58.3	3.8	1.49e+00	0	53	104	0	59	18809
2026-01-14 10:04:47.58	165.27	3.60	-43.9	-58.3	3.8	1.49e+00	0	53	104	0	59	18789
2026-01-14 10:04:48.59	165.28	3.67	-43.9	-58.3	3.8	1.49e+00	0	53	104	0	59	18812
2026-01-14 10:04:49.60	165.29	3.73	-43.9	-58.3	3.8	1.49e+00	0	53	104	0	59	18751
2026-01-14 10:04:50.61	165.30	3.80	-43.9	-58.3	3.8	1.49e+00	0	53	104	0	59	18828
2026-01-14 10:04:51.62	165.31	3.87	-43.9	-58.3	3.8	1.49e+00	0	53	104	0	59	18845
2026-01-14 10:04:52.63	165.32	3.94	-43.9	-58.3	3.8	1.49e+00	0	54	104	0	59	18800
2026-01-14 10:04:53.64	165.33	4.01	-43.9	-58.3	3.8	1.49e+00	0	53	104	0	59	18835
2026-01-14 10:04:54.65	165.34	4.08	-43.9	-58.3	3.8	1.49e+00	0	54	104	0	59	18808
2026-01-14 10:04:55.66	165.35	4.15	-43.9	-58.3	3.8	1.49e+00	0	54	104	0	59	18801
2026-01-14 10:04:56.67	165.36	4.22	-43.9	-58.3	3.8	1.49e+00	0	54	104	0	59	18747
2026-01-14 10:04:57.68	165.37	4.29	-43.9	-58.3	3.8	1.49e+00	0	54	104	0	59	18771
2026-01-14 10:04:58.69	165.38	4.36	-43.9	-58.3	3.8	1.49e+00	0	54	104	0	59	18788
2026-01-14 10:04:59.70	165.39	4.43	-43.9	-58.2	3.8	1.49e+00	0	54	104	0	59	18699
2026-01-14 10:05:00.71	165.40	4.51	-43.9	-58.2	3.8	1.49e+00	0	54	104	0	59	18721
2026-01-14 10:05:01.72	165.41	4.58	-43.9	-58.3	3.8	1.49e+00	0	54	104	0	59	18823
2026-01-14 10:05:02.73	165.42	4.65	-43.9	-58.3	3.8	1.49e+00	0	54	104	0	59	18765
2026-01-14 10:05:03.74	165.43	4.72	-43.9	-58.2	3.8	1.49e+00	0	54	104	0	59	18729
2026-01-14 10:05:04.75	165.44	4.79	-43.9	-58.3	3.8	1.49e+00	0	54	104	0	59	18766
2026-01-14 10:05:05.76	165.46	4.86	-43.9	-58.3	3.8	1.49e+00	0	54	104	0	59	18795
2026-01-14 10:05:06.77	165.47	4.94	-43.9	-58.2	3.8	1.49e+00	0	54	104	0	59	18676
2026-01-14 10:05:07.78	165.48	5.01	-43.9	-58.2	3.8	1.49e+00	0	54	104	0	59	18695
2026-01-14 10:05:08.79	165.49	5.08	-43.9	-58.2	3.8	1.49e+00	0	54	104	0	59	18567
2026-01-14 10:05:09.79	165.50	5.15	-43.9	-58.1	3.8	1.49e+00	0	55	104	0	59	18507
2026-01-14 10:05:10.81	165.51	5.23	-43.9	-58.0	3.8	1.49e+00	0	55	104	0	59	18297
2026-01-14 10:05:11.82	165.52	5.30	-43.9	-57.9	3.8	1.49e+00	0	54	104	0	59	17943
2026-01-14 10:05:12.82	165.53	5.37	-43.9	-57.7	3.8	1.49e+00	0	54	104	0	59	17538
2026-01-14 10:05:13.84	165.54	5.45	-43.9	-57.4	3.8	1.49e+00	0	55	104	0	59	16986
2026-01-14 10:05:14.85	165.55	5.52	-43.9	-57.1	3.8	1.49e+00	0	54	104	0	59	16331
2026-01-14 10:05:15.86	165.57	5.59	-43.8	-56.5	3.8	1.49e+00	0	55	104	0	59	15288
2026-01-14 10:05:16.87	165.58	5.67	-43.8	-56.1	3.8	1.49e+00	0	55	104	0	59	14663
2026-01-14 10:05:17.88	165.59	5.74	-43.8	-55.7	4.0	1.48e+00	0	55	104	0	59	13930
2026-01-14 10:05:18.88	165.60	5.82	-43.8	-55.5	4.0	1.48e+00	0	55	0	0	59	13698
2026-01-14 10:05:19.89	165.61	5.89	-43.8	-55.7	4.0	1.47e+00	0	55	104	0	59	14003
2026-01-14 10:05:20.90	165.62	5.97	-43.8	-56.4	3.8	1.48e+00	0	55	104	0	59	15102
2026-01-14 10:05:21.91	165.63	6.04	-43.8	-56.8	3.8	1.49e+00	0	55	104	0	59	15761
2026-01-14 10:05:22.92	165.64	6.12	-43.8	-56.5	3.8	1.49e+00	0	55	104	0	59	15261
2026-01-14 10:05:23.93	165.66	6.19	-43.8	-56.0	3.8	1.49e+00	0	55	104	0	59	14456
2026-01-14 10:05:24.94	165.67	6.27	-43.8	-55.8	3.8	1.48e+00	0	55	104	0	59	14193
2026-01-14 10:05:25.95	165.68	6.34	-43.8	-56.4	3.8	1.49e+00	0	55	104	0	59	15069
2026-01-14 10:05:26.96	165.69	6.42	-43.9	-57.0	3.8	1.49e+00	0	55	104	0	59	16201
2026-01-14 10:05:27.97	165.70	6.50	-43.8	-56.9	3.8	1.49e+00	0	55	104	0	59	15998
2026-01-14 10:05:28.98	165.72	6.57	-43.8	-56.9	3.8	1.49e+00	0	55	104	0	59	15983
2026-01-14 10:05:29.99	165.73	6.65	-43.9	-57.5	3.8	1.49e+00	0	55	104	0	59	17187
2026-01-14 10:05:31.00	165.74	6.73	-43.9	-57.9	3.8	1.49e+00	0	55	104	0	59	18073
2026-01-14 10:05:32.01	165.75	6.80	-43.9	-58.0	3.8	1.49e+00	0	55	104	0	59	18222
2026-01-14 10:05:33.02	165.76	6.88	-43.9	-58.2	3.8	1.49e+00	0	56	104	0	59	18640
2026-01-14 10:05:34.03	165.77	6.96	-43.9	-58.2	3.8	1.49e+00	0	56	104	0	59	18674
2026-01-14 10:05:35.03	165.79	7.04	-43.9	-58.0	3.8	1.49e+00	0	56	104	0	59	18131
2026-01-14 10:05:36.04	165.80	7.12	-43.9	-57.7	3.8	1.49e+00	0	56	104	0	59	17565
2026-01-14 10:05:37.05	165.81	7.19	-43.9	-56.9	3.8	1.49e+00	0	55	104	0	59	16097
2026-01-14 10:05:38.06	165.82	7.27	-43.8	-55.9	3.8	1.49e+00	0	56	104	0	59	14266
2026-01-14 10:05:39.07	165.84	7.35	-43.7	-55.1	4.1	1.44e+00	0	56	0	0	59	13032
2026-01-14 10:05:40.08	165.85	7.43	-43.6	-54.3	4.3	1.42e+00	0	56	0	0	59	11836
2026-01-14 10:05:41.09	165.86	7.51	-43.5	-53.2	4.8	8.86e-01	0	56	0	1048576	59	10435
2026-01-14 10:05:42.10	165.87	7.59	-43.4	-52.6	5.1	7.61e-01	0	56	0	3145728	58	10378
2026-01-14 10:05:43.12	165.89	7.67	-43.3	-52.0	5.4	6.15e-01	0	56	0	5242880	58	9641
2026-01-14 10:05:44.13	165.90	7.75	-43.3	-51.4	5.9	3.70e-01	0	56	0	7340032	58	9025
2026-01-14 10:05:45.14	165.91	7.83	-43.2	-51.3	5.9	3.79e-01	0	56	0	8388608	58	8916
2026-01-14 10:05:46.15	165.92	7.91	-43.2	-50.9	6.2	2.90e-01	0	56	0	10485760	58	8492
2026-01-14 10:05:47.16	165.94	8.00	-43.1	-50.8	6.4	2.42e-01	0	56	0	12582912	58	8430
2026-01-14 10:05:48.17	165.95	8.08	-43.1	-50.5	6.6	2.72e-01	0	56	0	14680064	58	8102
2026-01-14 10:05:49.18	165.96	8.16	-44.2	-58.3	3.8	1.03e+00	0	56	104	15728640	59	18847
2026-01-14 10:05:50.19	165.97	8.24	-44.1	-56.7	3.8	1.49e+00	0	56	104	15728640	59	15748
2026-01-14 10:05:51.20	165.99	8.32	-43.6	-57.6	3.8	1.27e+00	0	56	104	15728640	58	18385
2026-01-14 10:05:52.20	166.00	8.40	-43.8	-55.1	4.1	1.48e+00	0	56	0	15728640	58	13764
2026-01-14 10:05:53.21	166.01	8.49	-43.0	-49.2	8.0	7.11e-02	0	56	0	16777216	57	7438
2026-01-14 10:05:54.22	166.03	8.57	-42.8	-49.1	8.2	6.20e-02	0	56	0	18874368	57	7316
2026-01-14 10:05:55.23	166.04	8.65	-42.9	-49.1	8.1	5.88e-02	0	56	0	20971520	57	7335
2026-01-14 10:05:56.24	166.05	8.74	-42.9	-49.1	8.1	6.13e-02	0	56	0	22020096	57	7346
2026-01-14 10:05:57.25	166.07	8.82	-42.9	-49.1	8.1	5.96e-02	0	56	0	24117248	57	7344
2026-01-14 10:05:58.26	166.08	8.90	-42.8	-49.0	8.2	5.04e-02	0	56	0	26214400	57	7265
2026-01-14 10:05:59.27	166.09	8.99	-42.9	-49.0	8.3	4.97e-02	0	56	0	28311552	57	7230
2026-01-14 10:06:00.28	166.11	9.07	-42.9	-48.9	8.3	4.94e-02	0	56	0	30408704	57	7201
2026-01-14 10:06:01.29	166.12	9.16	-42.9	-49.0	8.3	4.95e-02	0	56	0	32505856	57	7262
2026-01-14 10:06:02.30	166.13	9.24	-42.9	-49.1	8.2	5.39e-02	0	56	0	33554432	57	7309
2026-01-14 10:06:03.31	166.15	9.33	-42.9	-49.1	8.2	5.51e-02	0	56	0	35651584	57	7319
2026-01-14 10:06:04.32	166.16	9.42	-42.9	-49.0	8.4	5.91e-02	0	57	0	37748736	57	7219
2026-01-14 10:06:05.33	166.18	9.50	-42.9	-49.0	8.3	4.87e-02	0	57	0	39845888	57	7241
2026-01-14 10:06:06.34	166.19	9.59	-42.9	-48.9	8.4	4.60e-02	0	56	0	41943040	57	7190
2026-01-14 10:06:07.35	166.20	9.68	-42.9	-48.9	8.4	4.27e-02	0	57	0	42991616	57	7146
2026-01-14 10:06:08.35	166.22	9.76	-42.9	-48.9	8.5	4.59e-02	0	57	0	45088768	57	7128
2026-01-14 10:06:09.36	166.23	9.85	-42.9	-48.8	8.6	3.94e-02	0	57	0	47185920	57	7061
2026-01-14 10:06:10.37	166.25	9.94	-42.9	-48.7	8.7	3.54e-02	0	57	0	49283072	57	6990
2026-01-14 10:06:11.38	166.26	10.02	-42.9	-48.6	8.7	3.39e-02	0	57	0	51380224	57	6955
2026-01-14 10:06:12.39	166.27	10.11	-42.9	-48.6	8.8	3.23e-02	0	57	0	52428800	57	6945
2026-01-14 10:06:13.40	166.29	10.20	-42.8	-48.5	8.8	2.93e-02	0	57	0	54525952	57	6876
2026-01-14 10:06:14.41	166.30	10.29	-42.8	-48.5	8.9	2.91e-02	0	57	0	56623104	57	6850
2026-01-14 10:06:15.42	166.32	10.38	-42.8	-48.5	8.9	2.88e-02	0	57	0	58720256	57	6820
2026-01-14 10:06:16.43	166.33	10.47	-42.8	-48.4	9.0	2.67e-02	0	57	0	60817408	57	6790
2026-01-14 10:06:17.44	166.35	10.56	-42.9	-48.5	8.9	2.69e-02	0	57	0	61865984	57	6825
2026-01-14 10:06:18.45	166.36	10.65	-42.8	-48.4	9.0	2.45e-02	0	57	0	63963136	57	6756
2026-01-14 10:06:19.46	166.38	10.74	-42.8	-48.4	9.1	2.34e-02	0	57	0	66060288	57	6736
2026-01-14 10:06:20.47	166.39	10.83	-42.8	-48.4	9.1	2.35e-02	0	57	0	68157440	57	6745
2026-01-14 10:06:21.48	166.41	10.92	-42.8	-48.3	9.2	2.11e-02	0	57	0	70254592	57	6716
2026-01-14 10:06:22.49	166.42	11.01	-42.8	-48.3	9.2	2.04e-02	0	57	0	71303168	57	6691
2026-01-14 10:06:23.50	166.44	11.11	-42.8	-48.3	9.2	2.07e-02	0	57	0	73400320	57	6705
2026-01-14 10:06:24.51	166.45	11.20	-42.8	-48.3	9.2	1.99e-02	0	57	0	75497472	57	6675
2026-01-14 10:06:25.52	166.47	11.29	-42.8	-48.3	9.2	2.03e-02	0	57	0	77594624	57	6710
2026-01-14 10:06:26.52	166.48	11.38	-42.8	-48.2	9.3	1.97e-02	0	57	0	79691776	57	6636
2026-01-14 10:06:27.53	166.50	11.48	-42.8	-48.2	9.3	1.83e-02	0	57	0	80740352	57	6642
2026-01-14 10:06:28.54	166.51	11.57	-42.8	-48.2	9.3	1.93e-02	0	57	0	82837504	57	6639
2026-01-14 10:06:29.55	166.53	11.66	-42.8	-48.2	9.3	1.63e-02	0	57	0	84934656	57	6607
2026-01-14 10:06:30.56	166.54	11.76	-42.8	-48.2	9.4	1.61e-02	0	57	0	87031808	57	6602
2026-01-14 10:06:31.57	166.56	11.85	-42.8	-48.1	9.4	1.61e-02	0	57	0	89128960	57	6570
2026-01-14 10:06:32.58	166.58	11.95	-42.8	-48.0	9.5	1.52e-02	0	57	0	90177536	57	6492
2026-01-14 10:06:33.59	166.59	12.04	-42.8	-48.1	9.5	1.32e-02	0	57	0	92274688	57	6505
2026-01-14 10:06:34.60	166.61	12.14	-42.8	-48.0	9.6	1.38e-02	0	57	0	94371840	57	6488
2026-01-14 10:06:35.61	166.62	12.24	-42.8	-48.1	9.6	1.25e-02	0	57	0	96468992	57	6497
2026-01-14 10:06:36.62	166.64	12.33	-42.8	-47.9	9.7	1.26e-02	0	57	0	98566144	57	6393
2026-01-14 10:06:37.63	166.66	12.43	-42.8	-47.9	9.7	1.09e-02	0	57	0	100663296	57	6390
2026-01-14 10:06:38.64	166.67	12.53	-42.7	-47.8	9.8	9.94e-03	0	57	0	101711872	57	6329
2026-01-14 10:06:39.65	166.69	12.62	-42.7	-47.8	9.8	1.00e-02	0	57	0	103809024	57	6342
2026-01-14 10:06:40.66	166.70	12.72	-42.7	-47.7	9.9	9.99e-03	0	58	0	105906176	57	6242
2026-01-14 10:06:41.67	166.72	12.82	-42.7	-47.7	9.9	8.85e-03	0	57	0	108003328	57	6274
2026-01-14 10:06:42.68	166.74	12.92	-42.7	-47.7	9.9	8.06e-03	0	57	0	110100480	57	6261
2026-01-14 10:06:43.69	166.75	13.02	-42.7	-47.6	10.1	7.18e-03	0	57	0	111149056	57	6190
2026-01-14 10:06:44.70	166.77	13.12	-42.7	-47.6	10.1	7.05e-03	0	58	0	113246208	57	6143
2026-01-14 10:06:45.71	166.79	13.22	-42.6	-47.5	10.2	6.15e-03	0	58	0	115343360	57	6115
2026-01-14 10:06:46.71	166.81	13.32	-42.6	-47.5	10.2	5.65e-03	0	58	0	117440512	57	6066
2026-01-14 10:06:47.72	166.82	13.42	-42.6	-47.5	10.2	5.65e-03	0	58	0	119537664	57	6077
2026-01-14 10:06:48.73	166.84	13.52	-42.6	-47.4	10.4	4.95e-03	0	58	0	120586240	57	6006
2026-01-14 10:06:49.74	166.86	13.62	-42.6	-47.3	10.4	5.14e-03	0	58	0	122683392	57	5986
2026-01-14 10:06:50.75	166.88	13.73	-42.6	-47.3	10.5	4.61e-03	0	58	0	124780544	57	5957
2026-01-14 10:06:51.76	166.89	13.83	-42.6	-47.3	10.5	3.96e-03	0	58	0	126877696	57	5944
2026-01-14 10:06:52.77	166.91	13.93	-42.5	-47.2	10.6	3.80e-03	0	58	0	128974848	57	5862
2026-01-14 10:06:53.78	166.93	14.04	-42.5	-47.1	10.7	3.10e-03	0	58	0	130023424	57	5836
2026-01-14 10:06:54.79	166.95	14.14	-42.5	-47.1	10.7	3.01e-03	0	58	0	132120576	57	5823
2026-01-14 10:06:55.80	166.96	14.24	-42.5	-47.1	10.7	2.86e-03	0	58	0	134217728	57	5790
2026-01-14 10:06:56.81	166.98	14.35	-42.5	-47.0	10.8	2.56e-03	0	58	0	136314880	56	6106
2026-01-14 10:06:57.82	167.00	14.46	-42.5	-47.0	10.8	2.52e-03	0	58	0	138412032	56	6085
2026-01-14 10:06:58.83	167.02	14.56	-42.4	-46.9	11.0	2.17e-03	0	58	0	139460608	56	6002
2026-01-14 10:06:59.84	167.04	14.67	-42.4	-46.9	11.0	1.86e-03	0	58	0	141557760	56	5997
2026-01-14 10:07:00.85	167.06	14.77	-42.4	-46.8	11.0	1.91e-03	0	58	0	143654912	56	5951
2026-01-14 10:07:01.86	167.07	14.88	-42.4	-46.8	11.1	1.55e-03	0	58	0	145752064	56	5948
2026-01-14 10:07:02.87	167.09	14.99	-42.4	-46.8	11.1	1.62e-03	0	58	0	147849216	56	5925
2026-01-14 10:07:03.88	167.11	15.10	-42.4	-46.8	11.1	1.63e-03	0	58	0	148897792	56	5967
2026-01-14 10:07:04.89	167.13	15.21	-42.4	-46.8	11.1	1.65e-03	0	58	0	150994944	56	5927
2026-01-14 10:07:05.89	167.15	15.31	-42.4	-46.8	11.0	1.80e-03	0	58	0	153092096	56	5982
2026-01-14 10:07:06.90	167.17	15.42	-42.4	-46.8	11.1	1.77e-03	0	58	0	155189248	56	5938
2026-01-14 10:07:07.91	167.19	15.53	-42.5	-46.9	11.0	1.79e-03	0	58	0	157286400	56	6015
2026-01-14 10:07:08.93	167.21	15.65	-42.5	-46.9	11.0	1.83e-03	0	58	0	158334976	56	6011
2026-01-14 10:07:09.93	167.23	15.76	-42.4	-46.9	11.0	1.64e-03	0	58	0	160432128	56	6009
2026-01-14 10:07:10.94	167.25	15.87	-42.5	-46.9	11.0	1.79e-03	0	58	0	162529280	56	6029
2026-01-14 10:07:11.95	167.27	15.98	-42.5	-46.9	11.0	1.89e-03	0	58	0	164626432	56	6038
2026-01-14 10:07:12.96	167.29	16.09	-42.5	-46.9	11.0	1.76e-03	0	58	0	166723584	56	6023
2026-01-14 10:07:13.97	167.31	16.21	-42.5	-46.9	11.0	1.86e-03	0	58	0	168820736	56	6011
2026-01-14 10:07:14.98	167.33	16.32	-42.5	-46.8	11.1	1.83e-03	0	58	0	169869312	56	5967
2026-01-14 10:07:15.99	167.35	16.43	-42.5	-46.9	11.1	1.63e-03	0	58	0	171966464	56	6002
2026-01-14 10:07:17.00	167.37	16.55	-42.5	-46.8	11.1	1.62e-03	0	58	0	174063616	56	5983
2026-01-14 10:07:18.01	167.39	16.66	-42.4	-46.7	11.2	1.35e-03	0	58	0	176160768	56	5919
2026-01-14 10:07:19.02	167.41	16.78	-42.4	-46.8	11.1	1.43e-03	0	58	0	178257920	56	5955
2026-01-14 10:07:20.03	167.43	16.90	-42.4	-46.7	11.2	1.43e-03	0	58	0	179306496	56	5920
2026-01-14 10:07:21.04	167.45	17.01	-42.4	-46.7	11.2	1.34e-03	0	58	0	181403648	56	5907
2026-01-14 10:07:22.04	167.47	17.13	-42.5	-46.8	11.2	1.35e-03	0	58	0	183500800	56	5941
2026-01-14 10:07:23.06	167.49	17.25	-42.4	-46.7	11.3	1.21e-03	0	58	0	185597952	56	5865
2026-01-14 10:07:24.06	167.52	17.37	-42.4	-46.7	11.2	1.14e-03	0	58	0	187695104	56	5915
2026-01-14 10:07:25.07	167.54	17.49	-42.4	-46.6	11.3	1.08e-03	0	58	0	188743680	56	5855
2026-01-14 10:07:26.08	167.56	17.61	-42.4	-46.6	11.4	1.02e-03	0	58	0	190840832	56	5820
2026-01-14 10:07:27.09	167.58	17.73	-42.4	-46.6	11.4	9.62e-04	0	58	0	192937984	56	5822
2026-01-14 10:07:28.10	167.60	17.85	-42.4	-46.6	11.4	9.54e-04	0	58	0	195035136	56	5816
2026-01-14 10:07:29.11	167.63	17.97	-42.4	-46.5	11.5	8.71e-04	0	58	0	197132288	56	5765
2026-01-14 10:07:30.12	167.65	18.09	-42.4	-46.5	11.5	8.74e-04	0	58	0	198180864	56	5774
2026-01-14 10:07:31.13	167.67	18.22	-42.3	-46.5	11.6	8.15e-04	0	58	0	200278016	56	5745
2026-01-14 10:07:32.14	167.69	18.34	-42.4	-46.5	11.5	7.90e-04	0	58	0	202375168	56	5768
2026-01-14 10:07:33.15	167.72	18.46	-42.3	-46.4	11.6	7.51e-04	0	58	0	204472320	56	5719
2026-01-14 10:07:34.16	167.74	18.59	-42.3	-46.5	11.6	7.68e-04	0	59	0	206569472	56	5746
2026-01-14 10:07:35.17	167.76	18.71	-42.3	-46.4	11.7	6.28e-04	0	58	0	207618048	56	5666
2026-01-14 10:07:36.18	167.79	18.84	-42.3	-46.4	11.6	5.93e-04	0	58	0	209715200	56	5709
2026-01-14 10:07:37.19	167.81	18.97	-42.3	-46.3	11.8	4.78e-04	0	58	0	211812352	56	5607
2026-01-14 10:07:38.20	167.83	19.09	-42.3	-46.3	11.8	4.91e-04	0	58	0	213909504	56	5619
2026-01-14 10:07:39.21	167.86	19.22	-42.2	-46.2	11.9	4.91e-04	0	58	0	216006656	56	5572
2026-01-14 10:07:40.21	167.88	19.35	-42.2	-46.2	11.8	4.41e-04	0	58	0	217055232	56	5575
2026-01-14 10:07:41.22	167.90	19.48	-42.2	-46.1	12.0	3.95e-04	0	59	0	219152384	56	5522
2026-01-14 10:07:42.23	167.93	19.61	-42.2	-46.1	12.0	3.69e-04	0	59	0	221249536	56	5498
2026-01-14 10:07:43.24	167.95	19.74	-42.2	-46.1	12.0	3.00e-04	0	59	0	223346688	56	5485
2026-01-14 10:07:44.25	167.98	19.87	-42.2	-46.2	11.9	2.97e-04	0	58	0	225443840	56	5535
2026-01-14 10:07:45.26	168.00	20.00	-42.2	-46.2	11.9	3.71e-04	0	58	0	226492416	56	5531
2026-01-14 10:07:46.27	168.03	20.13	-42.2	-46.2	11.9	3.56e-04	0	59	0	228589568	56	5557
2026-01-14 10:07:47.28	168.05	20.27	-42.3	-46.2	11.9	4.39e-04	0	59	0	230686720	56	5583
2026-01-14 10:07:48.29	168.08	20.40	-42.3	-46.3	11.8	5.11e-04	0	58	0	232783872	56	5627
2026-01-14 10:07:49.30	168.10	20.54	-42.3	-46.3	11.8	4.95e-04	0	59	0	234881024	56	5612
2026-01-14 10:07:50.31	168.13	20.67	-42.3	-46.3	11.7	5.85e-04	0	58	0	236978176	56	5646
2026-01-14 10:07:51.32	168.16	20.81	-42.3	-46.4	11.8	5.33e-04	0	59	0	238026752	56	5671
2026-01-14 10:07:52.33	168.18	20.95	-42.4	-46.5	11.6	5.97e-04	0	58	0	240123904	56	5756
2026-01-14 10:07:53.34	168.21	21.08	-42.4	-46.5	11.6	6.97e-04	0	59	0	242221056	56	5750
2026-01-14 10:07:54.34	168.24	21.22	-42.4	-46.5	11.6	7.03e-04	0	59	0	244318208	56	5785
2026-01-14 10:07:55.35	168.26	21.36	-42.4	-46.6	11.5	6.73e-04	0	59	0	246415360	56	5795
2026-01-14 10:07:56.36	168.29	21.50	-42.4	-46.5	11.6	7.26e-04	0	59	0	247463936	56	5775
2026-01-14 10:07:57.37	168.32	21.64	-42.4	-46.5	11.6	6.69e-04	0	59	0	249561088	56	5768
2026-01-14 10:07:58.38	168.35	21.78	-42.4	-46.5	11.6	7.36e-04	0	59	0	251658240	56	5765
2026-01-14 10:07:59.39	168.37	21.93	-42.4	-46.6	11.6	7.36e-04	0	59	0	253755392	56	5805
2026-01-14 10:08:00.40	168.40	22.07	-42.4	-46.6	11.6	7.80e-04	0	59	0	255852544	56	5810
2026-01-14 10:08:01.41	168.43	22.21	-42.4	-46.5	11.6	8.19e-04	0	59	0	256901120	56	5780
2026-01-14 10:08:02.42	168.46	22.36	-42.4	-46.6	11.6	7.63e-04	0	59	0	258998272	56	5791
2026-01-14 10:08:03.43	168.49	22.50	-42.4	-46.6	11.6	7.17e-04	0	59	0	261095424	56	5798
2026-01-14 10:08:04.44	168.52	22.65	-42.5	-46.6	11.5	8.09e-04	0	59	0	263192576	56	5843
2026-01-14 10:08:05.45	168.55	22.80	-42.4	-46.5	11.6	7.88e-04	0	59	0	265289728	56	5788
2026-01-14 10:08:06.46	168.57	22.95	-42.5	-46.6	11.5	7.97e-04	0	59	0	266338304	56	5834
2026-01-14 10:08:07.47	168.60	23.09	-42.4	-46.6	11.5	8.34e-04	0	59	0	268435456	56	5831
2026-01-14 10:08:08.48	168.63	23.24	-42.4	-46.6	11.5	8.87e-04	0	59	0	270532608	56	5826
2026-01-14 10:08:09.49	168.66	23.40	-42.5	-46.7	11.4	8.41e-04	0	59	0	272629760	56	5896
2026-01-14 10:08:10.49	168.70	23.55	-42.5	-46.8	11.4	9.86e-04	0	59	0	274726912	56	5930
2026-01-14 10:08:11.49	168.73	23.70	-42.5	-46.7	11.5	8.31e-04	0	59	0	275775488	56	5864
2026-01-14 10:08:12.50	168.76	23.85	-42.5	-46.8	11.3	9.98e-04	0	59	0	277872640	56	5951
2026-01-14 10:08:13.51	168.79	24.00	-42.5	-46.7	11.4	1.07e-03	0	59	0	279969792	56	5897
2026-01-14 10:08:14.52	168.82	24.16	-42.5	-46.7	11.4	8.67e-04	0	59	0	282066944	56	5907
2026-01-14 10:08:15.53	168.85	24.32	-42.6	-46.8	11.3	1.12e-03	0	59	0	284164096	56	5991
2026-01-14 10:08:16.54	168.88	24.47	-42.5	-46.8	11.4	1.08e-03	0	59	0	285212672	56	5940
2026-01-14 10:08:17.55	168.92	24.63	-42.6	-46.9	11.2	1.24e-03	0	59	0	287309824	56	6033
2026-01-14 10:08:18.56	168.95	24.79	-42.6	-46.9	11.3	1.37e-03	0	59	0	289406976	56	6013
2026-01-14 10:08:19.57	168.98	24.95	-42.6	-46.8	11.3	1.06e-03	0	59	0	291504128	56	5982
2026-01-14 10:08:20.58	169.02	25.11	-42.6	-46.9	11.3	1.19e-03	0	59	0	293601280	56	6006
2026-01-14 10:08:21.59	169.05	25.27	-42.6	-46.8	11.4	1.10e-03	0	59	0	294649856	56	5969
2026-01-14 10:08:22.60	169.08	25.44	-42.5	-46.8	11.4	9.10e-04	0	59	0	296747008	56	5943
2026-01-14 10:08:23.61	169.12	25.60	-42.6	-46.8	11.4	1.02e-03	0	59	0	298844160	56	5941
2026-01-14 10:08:24.61	169.15	25.76	-42.6	-46.8	11.4	1.03e-03	0	59	0	300941312	56	5942
2026-01-14 10:08:25.62	169.19	25.93	-42.6	-46.8	11.4	1.02e-03	0	59	0	303038464	56	5940
2026-01-14 10:08:26.63	169.22	26.10	-42.6	-46.9	11.3	1.11e-03	0	59	0	304087040	56	6012
2026-01-14 10:08:27.64	169.26	26.26	-42.6	-46.9	11.2	1.20e-03	0	59	0	306184192	56	6051
2026-01-14 10:08:28.65	169.29	26.43	-42.7	-47.0	11.1	1.53e-03	0	59	0	308281344	56	6100
2026-01-14 10:08:29.66	169.33	26.60	-42.7	-47.1	11.0	1.68e-03	0	59	0	310378496	56	6202
2026-01-14 10:08:30.67	169.37	26.77	-42.7	-47.1	11.0	1.81e-03	0	59	0	312475648	56	6179
2026-01-14 10:08:31.68	169.40	26.95	-42.8	-47.2	10.9	2.02e-03	0	59	0	313524224	56	6256
2026-01-14 10:08:32.69	169.44	27.12	-42.9	-47.5	10.7	2.93e-03	0	59	0	315621376	56	6438
2026-01-14 10:08:33.70	169.48	27.29	-42.9	-47.5	10.7	2.78e-03	0	59	0	317718528	56	6428
2026-01-14 10:08:34.71	169.52	27.47	-42.9	-47.5	10.6	2.91e-03	0	59	0	319815680	56	6480
2026-01-14 10:08:35.72	169.56	27.65	-42.9	-47.5	10.6	3.54e-03	0	59	0	321912832	56	6472
2026-01-14 10:08:36.73	169.60	27.82	-42.9	-47.6	10.5	3.77e-03	0	59	0	322961408	56	6526
2026-01-14 10:08:37.74	169.63	28.00	-43.0	-47.8	10.4	3.68e-03	0	59	0	325058560	56	6652
2026-01-14 10:08:38.75	169.67	28.18	-43.0	-47.7	10.4	4.04e-03	0	59	0	327155712	56	6623
2026-01-14 10:08:39.76	169.71	28.36	-43.0	-47.8	10.4	4.73e-03	0	59	0	329252864	56	6668
2026-01-14 10:08:40.77	169.76	28.55	-43.1	-48.0	10.1	5.79e-03	0	59	0	331350016	56	6849
2026-01-14 10:08:41.78	169.80	28.73	-43.1	-48.0	10.2	6.11e-03	0	59	0	333447168	56	6815
2026-01-14 10:08:42.79	169.84	28.91	-43.2	-48.1	10.0	6.85e-03	0	59	0	334495744	56	6939
2026-01-14 10:08:43.80	169.88	29.10	-43.2	-48.2	9.9	7.40e-03	0	59	0	336592896	56	7026
2026-01-14 10:08:44.81	169.92	29.29	-43.2	-48.3	9.8	8.92e-03	0	59	0	338690048	57	6688
2026-01-14 10:08:45.82	169.97	29.48	-43.2	-48.3	9.8	1.02e-02	0	59	0	340787200	57	6682
2026-01-14 10:08:46.83	170.01	29.67	-43.2	-48.3	9.8	8.90e-03	0	59	0	342884352	57	6711
2026-01-14 10:08:47.83	170.05	29.85	-43.3	-48.5	9.6	1.20e-02	0	59	0	343932928	57	6852
2026-01-14 10:08:48.85	170.10	30.05	-43.3	-48.5	9.6	1.26e-02	0	59	0	346030080	57	6859
2026-01-14 10:08:49.86	170.14	30.24	-43.3	-48.5	9.6	1.37e-02	0	59	0	348127232	57	6852
2026-01-14 10:08:50.87	170.19	30.44	-43.3	-48.5	9.7	1.39e-02	0	59	0	350224384	57	6809
2026-01-14 10:08:51.87	170.23	30.63	-43.4	-48.7	9.4	1.20e-02	0	59	0	352321536	57	7011
2026-01-14 10:08:52.89	170.28	30.83	-43.4	-48.7	9.4	1.59e-02	0	59	0	353370112	57	6974
2026-01-14 10:08:53.89	170.32	31.03	-43.3	-48.6	9.5	1.60e-02	0	59	0	355467264	57	6924
2026-01-14 10:08:54.90	170.37	31.23	-43.4	-48.7	9.4	1.34e-02	0	59	0	357564416	57	7005
2026-01-14 10:08:55.91	170.42	31.43	-43.4	-48.8	9.3	1.65e-02	0	59	0	359661568	57	7075
2026-01-14 10:08:56.92	170.47	31.63	-43.4	-48.8	9.3	1.76e-02	0	59	0	361758720	57	7097
2026-01-14 10:08:57.93	170.52	31.84	-43.4	-48.8	9.3	1.83e-02	0	59	0	362807296	57	7066
2026-01-14 10:08:58.94	170.57	32.04	-43.5	-48.9	9.2	2.04e-02	0	59	0	364904448	57	7188
2026-01-14 10:08:59.95	170.62	32.25	-43.5	-49.2	9.0	2.20e-02	0	59	0	367001600	57	7375
2026-01-14 10:09:00.96	170.67	32.46	-43.5	-49.2	8.9	2.63e-02	0	59	0	369098752	57	7416
2026-01-14 10:09:01.97	170.72	32.67	-43.5	-49.1	9.0	2.75e-02	0	59	0	371195904	57	7339
2026-01-14 10:09:02.98	170.77	32.88	-43.5	-49.0	9.1	2.16e-02	0	59	0	372244480	57	7287
2026-01-14 10:09:03.99	170.82	33.09	-43.4	-48.9	9.3	2.12e-02	0	59	0	374341632	57	7154
2026-01-14 10:09:05.00	170.88	33.31	-43.4	-48.7	9.4	1.69e-02	0	59	0	376438784	57	7011
2026-01-14 10:09:06.01	170.93	33.52	-43.3	-48.4	9.7	1.27e-02	0	59	0	378535936	57	6788
2026-01-14 10:09:07.02	170.99	33.74	-43.2	-48.1	10.1	8.43e-03	0	59	0	380633088	57	6525
2026-01-14 10:09:08.02	171.04	33.95	-43.1	-47.9	10.3	6.35e-03	0	59	0	381681664	57	6378
2026-01-14 10:09:09.03	171.10	34.18	-43.0	-47.6	10.6	3.88e-03	0	59	0	383778816	57	6145
2026-01-14 10:09:10.04	171.15	34.40	-42.8	-47.2	11.0	2.74e-03	0	59	0	385875968	57	5886
2026-01-14 10:09:11.05	171.21	34.62	-42.8	-47.0	11.2	1.57e-03	0	59	0	387973120	57	5776
2026-01-14 10:09:12.06	171.27	34.85	-42.7	-46.9	11.4	9.51e-04	0	59	0	390070272	57	5657
2026-01-14 10:09:13.07	171.33	35.07	-42.6	-46.7	11.6	8.96e-04	0	59	0	391118848	57	5535
2026-01-14 10:09:14.08	171.39	35.30	-42.5	-46.6	11.7	6.10e-04	0	59	0	393216000	57	5474
2026-01-14 10:09:15.09	171.45	35.53	-42.5	-46.5	11.7	4.80e-04	0	59	0	395313152	56	5788
2026-01-14 10:09:16.10	171.51	35.76	-42.5	-46.4	11.8	4.96e-04	0	59	0	397410304	56	5710
2026-01-14 10:09:17.11	171.57	35.99	-42.5	-46.4	11.9	4.42e-04	0	59	0	399507456	56	5705
2026-01-14 10:09:18.12	171.64	36.23	-42.4	-46.3	12.0	3.39e-04	0	59	0	401604608	56	5650
2026-01-14 10:09:19.13	171.70	36.47	-42.3	-46.2	12.2	3.20e-04	0	59	0	402653184	56	5529
2026-01-14 10:09:20.14	171.77	36.70	-42.2	-46.0	12.4	1.73e-04	0	59	0	404750336	56	5407
2026-01-14 10:09:21.15	171.83	36.94	-42.1	-45.8	12.6	1.08e-04	0	59	0	406847488	56	5292
2026-01-14 10:09:22.16	171.90	37.19	-42.1	-45.6	12.7	6.94e-05	0	59	0	408944640	56	5197
2026-01-14 10:09:23.17	171.97	37.43	-42.0	-45.5	12.8	4.95e-05	0	59	0	411041792	56	5146
2026-01-14 10:09:24.18	172.03	37.67	-41.8	-45.2	12.9	4.73e-05	0	59	0	412090368	55	5279
2026-01-14 10:09:25.19	172.10	37.92	-41.9	-45.4	12.8	4.80e-05	0	59	0	414187520	55	5349
2026-01-14 10:09:26.20	172.17	38.17	-41.8	-45.3	12.9	5.26e-05	0	59	0	416284672	55	5326
2026-01-14 10:09:27.21	172.25	38.42	-41.9	-45.4	12.8	7.93e-05	0	59	0	418381824	55	5371
2026-01-14 10:09:28.22	172.32	38.67	-42.0	-45.6	12.6	7.78e-05	0	59	0	420478976	55	5477
2026-01-14 10:09:29.23	172.39	38.93	-42.1	-45.8	12.4	9.07e-05	0	59	0	421527552	55	5630
2026-01-14 10:09:30.24	172.47	39.18	-42.2	-46.0	12.2	1.63e-04	0	59	0	423624704	55	5739
2026-01-14 10:09:31.25	172.54	39.44	-42.2	-46.1	12.1	3.00e-04	0	60	0	425721856	55	5801
2026-01-14 10:09:32.25	172.62	39.70	-42.2	-46.0	12.1	2.40e-04	0	59	0	427819008	55	5783
2026-01-14 10:09:33.26	172.70	39.96	-42.2	-46.0	12.2	2.73e-04	0	60	0	429916160	55	5737
2026-01-14 10:09:34.27	172.78	40.22	-42.2	-45.9	12.3	1.86e-04	0	59	0	430964736	55	5716
2026-01-14 10:09:35.28	172.86	40.49	-42.1	-45.9	12.2	1.94e-04	0	60	0	433061888	55	5699
2026-01-14 10:09:36.29	172.94	40.75	-42.2	-46.1	12.1	2.17e-04	0	60	0	435159040	55	5806
2026-01-14 10:09:37.30	173.02	41.02	-42.4	-46.4	11.8	4.72e-04	0	60	0	437256192	55	6029
2026-01-14 10:09:38.31	173.11	41.30	-42.5	-46.6	11.5	6.42e-04	0	59	0	439353344	55	6199
2026-01-14 10:09:39.32	173.20	41.57	-42.6	-46.9	11.3	1.05e-03	0	60	0	440401920	55	6368
2026-01-14 10:09:40.33	173.28	41.84	-42.7	-47.0	11.2	1.11e-03	0	59	0	442499072	55	6445
2026-01-14 10:09:41.34	173.37	42.12	-43.0	-47.4	10.9	1.93e-03	0	59	0	444596224	56	6407
2026-01-14 10:09:42.35	173.46	42.40	-43.0	-47.5	10.7	2.19e-03	0	59	0	446693376	56	6478
2026-01-14 10:09:43.36	173.55	42.68	-42.9	-47.4	10.9	2.75e-03	0	59	0	448790528	56	6370
2026-01-14 10:09:44.37	173.65	42.96	-42.9	-47.4	10.9	2.01e-03	0	60	0	449839104	56	6360
2026-01-14 10:09:45.38	173.74	43.25	-42.8	-47.2	11.2	1.40e-03	0	59	0	451936256	56	6204
2026-01-14 10:09:46.39	173.84	43.54	-42.8	-47.0	11.3	1.22e-03	0	60	0	454033408	56	6086
2026-01-14 10:09:47.40	173.94	43.83	-42.7	-46.8	11.5	8.68e-04	0	59	0	456130560	56	5954
2026-01-14 10:09:48.41	174.04	44.12	-42.8	-47.0	11.3	9.28e-04	0	60	0	458227712	56	6130
2026-01-14 10:09:49.42	174.14	44.41	-42.8	-47.2	11.2	1.43e-03	0	59	0	459276288	56	6222
2026-01-14 10:09:50.42	174.24	44.70	-43.0	-47.6	10.7	2.71e-03	0	59	0	461373440	56	6565
2026-01-14 10:09:51.43	174.35	45.00	-43.2	-47.9	10.3	4.33e-03	0	60	0	463470592	56	6784
2026-01-14 10:09:52.44	174.46	45.30	-43.2	-48.1	10.2	5.46e-03	0	59	0	465567744	56	6899
2026-01-14 10:09:53.45	174.57	45.60	-43.3	-48.2	10.0	6.93e-03	0	60	0	467664896	57	6625
2026-01-14 10:09:54.46	174.68	45.91	-43.4	-48.6	9.7	1.07e-02	0	60	0	469762048	57	6914
2026-01-14 10:09:55.47	174.79	46.22	-43.5	-48.7	9.5	1.15e-02	0	59	0	470810624	57	7038
2026-01-14 10:09:56.48	174.91	46.52	-43.5	-48.7	9.5	1.53e-02	0	59	0	472907776	57	7011
2026-01-14 10:09:57.49	175.03	46.83	-43.4	-48.6	9.6	1.33e-02	0	60	0	475004928	57	6920
2026-01-14 10:09:58.50	175.15	47.15	-43.6	-49.0	9.2	1.80e-02	0	60	0	477102080	57	7267
2026-01-14 10:09:59.51	175.27	47.46	-43.6	-49.2	9.1	2.26e-02	0	59	0	479199232	57	7411
2026-01-14 10:10:00.52	175.40	47.78	-43.6	-49.2	9.0	2.75e-02	0	60	0	480247808	57	7403
2026-01-14 10:10:01.53	175.53	48.10	-43.5	-48.9	9.3	2.28e-02	0	60	0	482344960	57	7171
2026-01-14 10:10:02.54	175.66	48.42	-43.4	-48.4	9.8	1.44e-02	0	60	0	484442112	57	6795
2026-01-14 10:10:03.55	175.79	48.75	-43.2	-48.1	10.2	5.93e-03	0	60	0	486539264	57	6510
2026-01-14 10:10:04.56	175.93	49.07	-43.1	-47.9	10.4	5.56e-03	0	60	0	488636416	57	6384
2026-01-14 10:10:05.57	176.06	49.40	-42.9	-47.2	11.1	2.43e-03	0	60	0	489684992	57	5919
2026-01-14 10:10:06.58	176.21	49.73	-42.8	-47.2	11.2	1.73e-03	0	60	0	491782144	57	5862
2026-01-14 10:10:07.59	176.35	50.07	-42.9	-47.2	11.1	1.62e-03	0	60	0	493879296	57	5923
2026-01-14 10:10:08.60	176.50	50.40	-42.8	-47.2	11.2	1.34e-03	0	60	0	495976448	57	5890
2026-01-14 10:10:09.61	176.65	50.74	-42.6	-46.7	11.6	1.26e-03	0	60	0	498073600	57	5590
2026-01-14 10:10:10.62	176.81	51.08	-42.4	-46.1	12.2	3.17e-04	0	59	0	499122176	56	5524
2026-01-14 10:10:11.63	176.96	51.42	-42.2	-45.7	12.7	1.41e-04	0	60	0	501219328	56	5270
2026-01-14 10:10:12.63	177.12	51.76	-41.8	-45.2	13.0	5.03e-05	0	60	0	503316480	55	5254
2026-01-14 10:10:13.64	177.29	52.11	-41.4	-44.5	13.8	4.50e-06	0	60	0	505413632	54	5133
2026-01-14 10:10:14.65	177.46	52.46	-41.2	-44.2	14.1	3.80e-06	0	59	0	507510784	54	4962
2026-01-14 10:10:15.66	177.63	52.81	-41.1	-44.1	14.2	3.00e-06	0	59	0	508559360	54	4883
2026-01-14 10:10:16.67	177.81	53.16	-41.1	-44.0	14.3	0.00e+00	0	60	0	510656512	54	4818
2026-01-14 10:10:17.68	177.99	53.52	-41.1	-44.1	14.2	1.50e-06	0	59	0	512753664	54	4873
2026-01-14 10:10:18.69	178.18	53.87	-41.0	-43.9	14.4	7.00e-07	0	59	0	514850816	54	4808
2026-01-14 10:10:19.70	178.37	54.23	-40.9	-43.8	14.5	0.00e+00	0	60	0	516947968	53	4990
2026-01-14 10:10:20.71	178.56	54.60	-40.8	-43.6	14.7	0.00e+00	0	60	0	517996544	53	4887
2026-01-14 10:10:21.72	178.76	54.96	-40.8	-43.5	14.7	7.00e-07	0	60	0	520093696	53	4870
2026-01-14 10:10:22.73	178.97	55.33	-40.8	-43.5	14.7	0.00e+00	0	60	0	522190848	53	4859
2026-01-14 10:10:23.74	179.18	55.70	-40.9	-43.7	14.6	0.00e+00	0	60	0	524288000	53	4929
2026-01-14 10:10:24.75	179.40	56.07	-41.2	-44.2	14.1	0.00e+00	0	60	0	526385152	53	5247
2026-01-14 10:10:25.75	179.62	56.44	-41.5	-44.7	13.5	3.80e-06	0	60	0	527433728	53	5549
2026-01-14 10:10:26.76	179.84	56.81	-41.6	-44.9	13.4	7.60e-06	0	60	0	529530880	53	5686
2026-01-14 10:10:27.77	180.08	57.19	-41.6	-44.8	13.4	1.67e-05	0	60	0	531628032	53	5628
2026-01-14 10:10:28.78	180.32	57.57	-41.5	-44.8	13.5	1.52e-05	0	60	0	533725184	53	5622
2026-01-14 10:10:29.79	180.57	57.95	-41.5	-44.7	13.5	1.14e-05	0	60	0	535822336	53	5571
2026-01-14 10:10:30.80	180.82	58.33	-41.5	-44.7	13.5	7.60e-06	0	60	0	537919488	53	5573
2026-01-14 10:10:31.81	181.08	58.72	-41.6	-44.9	13.4	1.14e-05	0	60	0	538968064	53	5683
2026-01-14 10:10:32.82	181.35	59.11	-41.5	-44.8	13.4	1.90e-05	0	60	0	541065216	53	5615
2026-01-14 10:10:33.83	181.63	59.49	-41.4	-44.6	13.7	1.14e-05	0	60	0	543162368	53	5481
2026-01-14 10:10:34.83	181.91	59.88	-41.4	-44.5	13.7	6.10e-06	0	60	0	545259520	53	5433
2026-01-14 10:10:35.84	182.21	60.27	-41.4	-44.6	13.7	5.30e-06	0	60	0	547356672	53	5477
2026-01-14 10:10:36.85	182.51	60.67	-41.4	-44.6	13.6	6.80e-06	0	60	0	548405248	53	5507
2026-01-14 10:10:37.86	182.82	61.06	-41.3	-44.5	13.8	5.30e-06	0	60	0	550502400	53	5407
2026-01-14 10:10:38.87	183.15	61.46	-41.0	-43.9	14.4	2.20e-06	0	60	0	552599552	53	5053
2026-01-14 10:10:39.88	183.48	61.86	-40.9	-43.6	14.6	0.00e+00	0	60	0	554696704	53	4923
2026-01-14 10:10:40.89	183.82	62.26	-40.9	-43.6	14.7	0.00e+00	0	60	0	556793856	53	4898
2026-01-14 10:10:41.90	184.18	62.66	-41.1	-44.0	14.3	7.00e-07	0	60	0	557842432	53	5118
2026-01-14 10:10:42.91	184.55	63.07	-41.3	-44.4	13.9	2.20e-06	0	60	0	559939584	53	5349
2026-01-14 10:10:43.92	184.93	63.47	-41.6	-44.9	13.4	6.80e-06	0	60	0	562036736	53	5657
2026-01-14 10:10:44.93	185.32	63.88	-42.0	-45.6	12.6	3.73e-05	0	60	0	564133888	54	5818
2026-01-14 10:10:45.94	185.73	64.29	-42.2	-45.9	12.3	2.03e-04	0	60	0	566231040	54	6046
2026-01-14 10:10:46.95	186.15	64.70	-42.3	-46.1	12.0	2.88e-04	0	60	0	567279616	55	5846
2026-01-14 10:10:47.96	186.59	65.11	-42.3	-46.3	11.9	3.81e-04	0	60	0	569376768	55	5946
2026-01-14 10:10:48.97	187.04	65.52	-42.3	-46.3	11.9	5.24e-04	0	60	0	571473920	55	5936
2026-01-14 10:10:49.98	187.51	65.93	-42.5	-46.5	11.6	7.72e-04	0	60	0	573571072	55	6126
2026-01-14 10:10:50.99	188.00	66.34	-42.7	-47.1	11.1	1.01e-03	0	60	0	575668224	55	6534
2026-01-14 10:10:52.00	188.50	66.75	-43.1	-47.8	10.5	2.21e-03	0	60	0	576716800	56	6652
2026-01-14 10:10:53.00	189.03	67.16	-43.1	-47.9	10.4	4.27e-03	0	60	0	578813952	56	6728
2026-01-14 10:10:54.01	189.57	67.57	-43.1	-47.8	10.5	3.92e-03	0	60	0	580911104	56	6686
2026-01-14 10:10:55.02	190.14	67.98	-43.0	-47.5	10.8	4.51e-03	0	60	0	583008256	56	6476
2026-01-14 10:10:56.03	190.74	68.40	-42.9	-47.3	10.9	1.98e-03	0	60	0	585105408	56	6327
2026-01-14 10:10:57.04	191.36	68.81	-42.9	-47.2	10.9	2.18e-03	0	60	0	586153984	56	6273
2026-01-14 10:10:58.05	192.00	69.22	-42.6	-46.8	11.4	1.52e-03	0	60	0	588251136	56	5976
2026-01-14 10:10:59.06	192.67	69.63	-42.7	-46.8	11.5	8.38e-04	0	60	0	590348288	56	5967
2026-01-14 10:11:00.07	193.38	70.04	-42.7	-47.0	11.3	1.06e-03	0	60	0	592445440	56	6086
2026-01-14 10:11:01.08	194.11	70.45	-42.7	-46.8	11.5	1.12e-03	0	60	0	594542592	56	5987
2026-01-14 10:11:02.09	194.88	70.86	-42.8	-47.2	11.1	1.16e-03	0	60	0	595591168	56	6214
2026-01-14 10:11:03.10	195.68	71.26	-42.9	-47.4	10.8	1.76e-03	0	60	0	597688320	56	6383
2026-01-14 10:11:04.11	196.52	71.67	-43.0	-47.6	10.6	3.36e-03	0	60	0	599785472	56	6542
2026-01-14 10:11:05.12	197.40	72.07	-42.8	-47.1	11.1	2.55e-03	0	60	0	601882624	56	6201
2026-01-14 10:11:06.13	198.32	72.47	-42.6	-46.8	11.5	1.11e-03	0	60	0	603979776	56	5941
2026-01-14 10:11:07.14	199.29	72.86	-42.8	-47.2	11.0	9.01e-04	0	60	0	605028352	56	6244
2026-01-14 10:11:08.15	200.30	73.26	-43.3	-48.3	9.9	2.95e-03	0	60	0	607125504	57	6705
2026-01-14 10:11:09.16	201.36	73.65	-43.8	-49.8	8.4	3.25e-02	0	60	0	609222656	58	7481
2026-01-14 10:11:10.16	202.47	74.03	-43.8	-49.7	8.4	5.77e-02	0	60	0	611319808	58	7414
2026-01-14 10:11:11.17	203.65	74.40	-43.4	-48.7	9.4	3.20e-02	0	60	0	613416960	58	6611
2026-01-14 10:11:12.18	204.88	74.78	-43.2	-48.3	9.7	9.91e-03	0	60	0	614465536	57	6680
2026-01-14 10:11:13.19	206.18	75.15	-43.4	-48.7	9.4	1.13e-02	0	60	0	616562688	57	7024
2026-01-14 10:11:14.20	207.55	75.51	-43.7	-49.5	8.6	2.46e-02	0	60	0	618659840	57	7658
2026-01-14 10:11:15.21	208.99	75.86	-43.7	-49.6	8.5	4.82e-02	0	60	0	620756992	58	7313
2026-01-14 10:11:16.22	210.50	76.21	-43.9	-50.3	7.8	7.84e-02	0	60	0	622854144	58	7976
2026-01-14 10:11:17.23	212.09	76.54	-43.9	-50.2	8.0	8.19e-02	0	60	0	623902720	58	7838
2026-01-14 10:11:18.24	213.77	76.87	-43.6	-49.6	8.6	5.09e-02	0	60	0	625999872	58	7290
2026-01-14 10:11:19.25	215.53	77.18	-43.3	-49.1	9.1	3.08e-02	0	60	0	628097024	58	6903
2026-01-14 10:11:20.26	217.38	77.49	-43.5	-48.7	9.4	2.20e-02	0	60	0	630194176	58	6643
2026-01-14 10:11:21.27	219.32	77.78	-43.5	-49.0	9.1	1.76e-02	0	60	0	632291328	58	6810
2026-01-14 10:11:22.28	221.36	78.06	-43.3	-48.5	9.7	1.28e-02	0	60	0	634388480	58	6422
2026-01-14 10:11:23.29	223.50	78.32	-42.9	-47.7	10.6	6.40e-03	0	60	0	635437056	57	6220
2026-01-14 10:11:24.30	225.73	78.57	-43.0	-47.7	10.5	4.00e-03	0	60	0	637534208	57	6212
2026-01-14 10:11:25.31	228.06	78.80	-42.8	-47.1	11.0	2.06e-03	0	60	0	639631360	57	5850
2026-01-14 10:11:26.32	230.48	79.01	-42.6	-46.7	11.5	1.10e-03	0	60	0	641728512	57	5581
2026-01-14 10:11:27.33	233.00	79.20	-42.5	-46.7	11.5	8.57e-04	0	60	0	643825664	56	5918
2026-01-14 10:11:28.33	235.57	79.37	-42.5	-46.5	11.7	6.74e-04	0	60	0	644874240	56	5733
2026-01-14 10:11:29.34	238.26	79.51	-42.5	-46.5	11.7	4.20e-04	0	60	0	646971392	56	5756
2026-01-14 10:11:30.35	241.01	79.64	-42.8	-47.1	11.1	9.32e-04	0	60	0	649068544	56	6198
2026-01-14 10:11:31.36	243.83	79.74	-42.8	-47.1	11.1	1.79e-03	0	60	0	651165696	56	6169
2026-01-14 10:11:32.37	246.69	79.82	-42.6	-46.8	11.4	1.09e-03	0	60	0	653262848	56	5937
2026-01-14 10:11:33.38	249.59	79.87	-42.6	-46.6	11.6	7.39e-04	0	60	0	654311424	56	5834
2026-01-14 10:11:34.39	252.52	79.89	-42.5	-46.6	11.7	8.21e-04	0	60	0	656408576	56	5805
2026-01-14 10:11:35.40	255.45	79.89	-42.6	-46.6	11.5	6.79e-04	0	60	0	658505728	56	5848
2026-01-14 10:11:36.41	258.38	79.87	-42.8	-47.1	11.1	1.28e-03	0	60	0	660602880	56	6151
2026-01-14 10:11:37.41	261.25	79.82	-42.9	-47.4	10.8	2.55e-03	0	60	0	662700032	56	6400
2026-01-14 10:11:38.42	264.11	79.74	-42.6	-46.8	11.3	1.46e-03	0	60	0	663748608	56	5981
2026-01-14 10:11:39.43	266.93	79.64	-42.7	-47.0	11.3	9.05e-04	0	60	0	665845760	56	6085
2026-01-14 10:11:40.44	269.68	79.51	-42.9	-47.5	10.7	1.60e-03	0	60	0	667942912	56	6457
2026-01-14 10:11:41.45	272.36	79.36	-43.2	-48.2	10.0	7.07e-03	0	60	0	670040064	57	6634
2026-01-14 10:11:42.46	274.96	79.19	-43.1	-48.1	9.9	9.14e-03	0	60	0	672137216	57	6554
2026-01-14 10:11:43.47	277.47	79.00	-42.8	-47.4	10.8	4.36e-03	0	60	0	673185792	57	5998
2026-01-14 10:11:44.48	279.89	78.79	-42.8	-47.2	10.9	2.02e-03	0	60	0	675282944	57	5910
2026-01-14 10:11:45.49	282.21	78.56	-43.2	-48.2	9.9	4.48e-03	0	60	0	677380096	57	6637
2026-01-14 10:11:46.50	284.44	78.31	-43.3	-48.5	9.6	1.34e-02	0	60	0	679477248	57	6817
2026-01-14 10:11:47.51	286.57	78.05	-43.2	-48.0	10.0	9.53e-03	0	60	0	681574400	57	6493
2026-01-14 10:11:48.52	288.61	77.77	-43.3	-48.4	9.7	8.15e-03	0	60	0	682622976	57	6732
2026-01-14 10:11:49.53	290.55	77.48	-43.6	-49.2	8.8	1.89e-02	0	60	0	684720128	57	7420
2026-01-14 10:11:50.54	292.40	77.18	-43.8	-49.8	8.2	4.35e-02	0	60	0	686817280	58	7541
2026-01-14 10:11:51.55	294.15	76.86	-43.8	-49.9	8.2	6.27e-02	0	60	0	688914432	58	7552
2026-01-14 10:11:52.56	295.83	76.54	-43.7	-49.5	8.6	4.18e-02	0	60	0	691011584	58	7205
2026-01-14 10:11:53.57	297.42	76.20	-43.9	-50.4	7.8	4.41e-02	0	60	0	692060160	58	8027
2026-01-14 10:11:54.58	298.93	75.86	-44.2	-51.6	6.6	1.76e-01	0	60	0	694157312	59	8689
2026-01-14 10:11:55.59	300.36	75.50	-43.9	-50.2	7.8	1.45e-01	0	60	0	696254464	59	7426
2026-01-14 10:11:56.60	301.73	75.14	-43.7	-49.9	8.3	5.18e-02	0	60	0	698351616	59	7202
2026-01-14 10:11:57.61	303.02	74.77	-43.7	-49.8	8.2	6.04e-02	0	60	0	700448768	59	7047
2026-01-14 10:11:58.62	304.26	74.40	-43.4	-49.2	8.9	3.72e-02	0	60	0	702545920	58	7023
2026-01-14 10:11:59.63	305.43	74.02	-43.6	-49.1	9.1	2.28e-02	0	60	0	703594496	57	7306
2026-01-14 10:12:00.63	306.53	73.64	-43.7	-49.6	8.5	4.11e-02	0	60	0	705691648	58	7363
2026-01-14 10:12:01.64	307.60	73.26	-43.6	-49.3	8.8	3.62e-02	0	60	0	707788800	57	7485
2026-01-14 10:12:02.65	308.61	72.86	-43.5	-49.1	9.0	2.56e-02	0	60	0	709885952	57	7330
2026-01-14 10:12:03.66	309.57	72.47	-43.3	-48.6	9.6	1.65e-02	0	60	0	711983104	57	6889
2026-01-14 10:12:04.67	310.49	72.07	-42.6	-47.0	11.1	3.47e-03	0	60	0	713031680	55	6490
2026-01-14 10:12:05.68	311.37	71.67	-42.2	-46.0	12.1	5.18e-04	0	60	0	715128832	55	5774
2026-01-14 10:12:06.69	312.21	71.27	-42.3	-46.2	11.9	3.42e-04	0	60	0	717225984	55	5883
2026-01-14 10:12:07.70	313.01	70.86	-42.6	-47.0	11.1	1.09e-03	0	60	0	719323136	55	6424
2026-01-14 10:12:08.71	313.78	70.46	-43.0	-47.7	10.4	3.31e-03	0	60	0	721420288	56	6631
2026-01-14 10:12:09.72	314.51	70.05	-43.2	-48.3	10.0	6.53e-03	0	60	0	722468864	57	6650
2026-01-14 10:12:10.73	315.21	69.64	-43.3	-48.2	9.9	9.04e-03	0	60	0	724566016	57	6607
2026-01-14 10:12:11.74	315.88	69.23	-43.3	-48.4	9.8	8.67e-03	0	60	0	726663168	57	6733
2026-01-14 10:12:12.75	316.52	68.82	-43.6	-49.1	9.0	1.48e-02	0	60	0	728760320	57	7353
2026-01-14 10:12:13.76	317.14	68.41	-43.6	-49.5	8.6	3.88e-02	0	60	0	730857472	58	7248
2026-01-14 10:12:14.77	317.73	67.99	-43.2	-48.2	10.0	1.46e-02	0	60	0	731906048	57	6576
2026-01-14 10:12:15.78	318.30	67.58	-43.2	-48.0	10.2	6.03e-03	0	60	0	734003200	57	6479
2026-01-14 10:12:16.79	318.85	67.17	-43.3	-48.5	9.7	8.34e-03	0	60	0	736100352	57	6866
2026-01-14 10:12:17.80	319.38	66.76	-43.1	-47.8	10.4	8.46e-03	0	60	0	738197504	57	6318
2026-01-14 10:12:18.81	319.88	66.35	-42.7	-46.9	11.4	2.23e-03	0	60	0	740294656	56	6036
2026-01-14 10:12:19.82	320.37	65.94	-42.6	-46.7	11.7	8.88e-04	0	60	0	741343232	56	5878
2026-01-14 10:12:20.83	320.84	65.53	-42.1	-45.9	12.2	4.38e-04	0	60	0	743440384	55	5720
2026-01-14 10:12:21.84	321.29	65.12	-41.8	-45.3	12.8	9.00e-05	0	60	0	745537536	54	5645
2026-01-14 10:12:22.85	321.73	64.71	-41.8	-45.2	13.1	6.17e-05	0	60	0	747634688	54	5537
2026-01-14 10:12:23.86	322.15	64.30	-41.4	-44.5	13.7	1.22e-05	0	60	0	749731840	54	5127
2026-01-14 10:12:24.86	322.55	63.90	-40.7	-43.4	14.8	7.00e-07	0	60	0	750780416	53	4802
2026-01-14 10:12:25.87	322.95	63.50	-40.8	-43.6	14.7	0.00e+00	0	60	0	752877568	52	5160
2026-01-14 10:12:26.88	323.33	63.09	-41.2	-44.2	14.0	3.80e-06	0	60	0	754974720	53	5231
2026-01-14 10:12:27.89	323.69	62.69	-41.5	-44.6	13.6	6.80e-06	0	60	0	757071872	53	5496
2026-01-14 10:12:28.90	324.05	62.29	-41.2	-44.1	14.1	8.30e-06	0	60	0	759169024	53	5194
2026-01-14 10:12:29.91	324.39	61.89	-41.1	-44.0	14.2	2.20e-06	0	60	0	760217600	52	5431
2026-01-14 10:12:30.92	324.73	61.49	-41.1	-44.1	14.2	2.20e-06	0	60	0	762314752	52	5469
2026-01-14 10:12:31.93	325.05	61.10	-41.4	-44.4	13.8	0.00e+00	0	60	0	764411904	53	5381
2026-01-14 10:12:32.94	325.36	60.70	-42.0	-45.6	12.6	4.34e-05	0	60	0	766509056	54	5828
2026-01-14 10:12:33.95	325.66	60.31	-43.1	-47.8	10.5	1.35e-03	0	60	0	768606208	56	6702
2026-01-14 10:12:34.96	325.96	59.92	-43.5	-48.7	9.5	1.17e-02	0	60	0	770703360	57	6965
2026-01-14 10:12:35.97	326.24	59.53	-43.0	-47.4	10.9	9.66e-03	0	60	0	771751936	57	6036
2026-01-14 10:12:36.98	326.52	59.14	-42.6	-46.5	11.8	6.03e-04	0	60	0	773849088	57	5441
2026-01-14 10:12:37.99	326.79	58.75	-42.8	-47.0	11.3	7.01e-04	0	60	0	775946240	57	5776
2026-01-14 10:12:39.00	327.05	58.37	-43.5	-48.6	9.7	3.67e-03	0	60	0	778043392	57	6914
2026-01-14 10:12:40.01	327.31	57.99	-43.6	-49.0	9.1	2.23e-02	0	60	0	780140544	57	7260
2026-01-14 10:12:41.02	327.55	57.61	-43.3	-48.1	10.1	1.21e-02	0	60	0	781189120	57	6546
2026-01-14 10:12:42.03	327.79	57.23	-42.9	-47.3	11.0	4.27e-03	0	60	0	783286272	57	5953
2026-01-14 10:12:43.04	328.03	56.85	-42.6	-46.6	11.7	6.35e-04	0	60	0	785383424	57	5474
2026-01-14 10:12:44.05	328.26	56.48	-42.2	-45.8	12.5	1.61e-04	0	60	0	787480576	56	5305
2026-01-14 10:12:45.06	328.48	56.11	-42.0	-45.4	13.0	6.79e-05	0	60	0	789577728	56	5077
2026-01-14 10:12:46.07	328.69	55.74	-41.9	-45.4	12.9	3.12e-05	0	60	0	790626304	55	5376
2026-01-14 10:12:47.08	328.90	55.37	-42.2	-45.9	12.3	1.35e-04	0	60	0	792723456	55	5705
2026-01-14 10:12:48.09	329.11	55.01	-42.1	-45.7	12.5	1.89e-04	0	60	0	794820608	55	5577
2026-01-14 10:12:49.10	329.31	54.64	-41.5	-44.7	13.5	1.14e-05	0	60	0	796917760	55	4968
2026-01-14 10:12:50.11	329.51	54.28	-41.4	-44.5	13.7	6.80e-06	0	60	0	799014912	54	5135
2026-01-14 10:12:51.11	329.69	53.93	-41.5	-44.6	13.7	6.80e-06	0	60	0	800063488	54	5183
2026-01-14 10:12:52.13	329.88	53.57	-41.9	-45.3	12.9	1.44e-05	0	60	0	802160640	54	5638
2026-01-14 10:12:53.13	330.06	53.22	-42.2	-46.0	12.3	1.44e-04	0	60	0	804257792	55	5725
2026-01-14 10:12:54.14	330.24	52.87	-42.3	-46.2	12.0	2.66e-04	0	60	0	806354944	55	5901
2026-01-14 10:12:55.15	330.41	52.52	-42.6	-46.7	11.5	4.87e-04	0	60	0	808452096	55	6205
2026-01-14 10:12:56.16	330.58	52.17	-43.1	-47.7	10.6	2.21e-03	0	60	0	809500672	56	6626
2026-01-14 10:12:57.17	330.75	51.82	-43.4	-48.5	9.7	7.17e-03	0	60	0	811597824	57	6829
2026-01-14 10:12:58.18	330.91	51.48	-43.7	-49.3	8.9	1.87e-02	0	60	0	813694976	57	7481
2026-01-14 10:12:59.19	331.07	51.14	-44.0	-50.1	8.1	4.71e-02	0	60	0	815792128	58	7742
2026-01-14 10:13:00.20	331.22	50.80	-44.2	-50.8	7.4	9.88e-02	0	60	0	817889280	58	8423
2026-01-14 10:13:01.21	331.37	50.46	-44.5	-52.5	6.0	1.90e-01	0	60	0	818937856	59	9615
2026-01-14 10:13:02.22	331.52	50.13	-44.7	-53.5	5.3	5.69e-01	0	60	0	821035008	59	10797
2026-01-14 10:13:03.23	331.67	49.80	-44.6	-53.1	5.5	5.40e-01	0	60	0	823132160	59	10309
2026-01-14 10:13:04.24	331.81	49.47	-44.6	-52.8	5.7	4.11e-01	0	60	0	825229312	59	9947
2026-01-14 10:13:05.25	331.95	49.14	-44.4	-52.0	6.3	3.08e-01	0	60	0	827326464	59	9109
2026-01-14 10:13:06.26	332.08	48.82	-44.5	-52.3	6.1	2.99e-01	0	60	0	828375040	59	9392
2026-01-14 10:13:07.27	332.22	48.49	-44.4	-51.9	6.4	2.96e-01	0	60	0	830472192	59	8990
2026-01-14 10:13:08.28	332.35	48.17	-44.1	-50.4	7.8	1.67e-01	0	60	0	832569344	59	7621
2026-01-14 10:13:09.29	332.48	47.85	-43.5	-48.6	9.7	2.03e-02	0	60	0	834666496	58	6511
2026-01-14 10:13:10.30	332.60	47.54	-43.2	-47.9	10.4	5.98e-03	0	60	0	836763648	58	6049
2026-01-14 10:13:11.31	332.73	47.22	-43.1	-47.6	10.7	3.32e-03	0	60	0	838860800	58	5836
2026-01-14 10:13:12.32	332.85	46.91	-43.2	-47.9	10.5	3.63e-03	0	60	0	839909376	58	6001
2026-01-14 10:13:13.33	332.97	46.60	-43.5	-48.7	9.5	8.97e-03	0	60	0	842006528	58	6612
2026-01-14 10:13:14.34	333.08	46.30	-43.7	-49.2	9.0	2.13e-02	0	60	0	844103680	58	7005
2026-01-14 10:13:15.35	333.20	45.99	-43.3	-48.2	10.0	9.53e-03	0	60	0	846200832	58	6216
2026-01-14 10:13:16.36	333.31	45.69	-42.9	-47.3	11.0	2.95e-03	0	60	0	848297984	57	5935
2026-01-14 10:13:17.37	333.42	45.39	-42.6	-46.6	11.8	8.58e-04	0	60	0	849346560	57	5472
2026-01-14 10:13:18.38	333.53	45.09	-42.4	-46.3	12.1	3.70e-04	0	60	0	851443712	56	5600
2026-01-14 10:13:19.39	333.63	44.79	-42.3	-45.9	12.5	1.64e-04	0	60	0	853540864	56	5369
2026-01-14 10:13:20.39	333.73	44.50	-42.1	-45.6	12.8	9.38e-05	0	60	0	855638016	56	5210
2026-01-14 10:13:21.40	333.84	44.21	-42.0	-45.5	12.9	4.50e-05	0	60	0	857735168	56	5104
2026-01-14 10:13:22.41	333.94	43.92	-41.7	-45.0	13.2	1.52e-05	0	60	0	858783744	55	5133
2026-01-14 10:13:23.42	334.04	43.63	-41.9	-45.3	12.9	3.20e-05	0	60	0	860880896	55	5312
2026-01-14 10:13:24.43	334.13	43.34	-42.3	-46.2	12.0	8.85e-05	0	60	0	862978048	55	5881
2026-01-14 10:13:25.44	334.23	43.06	-43.0	-47.6	10.7	1.68e-03	0	60	0	865075200	56	6503
2026-01-14 10:13:26.45	334.32	42.78	-43.3	-48.4	9.8	7.47e-03	0	60	0	867172352	57	6790
2026-01-14 10:13:27.46	334.42	42.50	-43.4	-48.7	9.5	1.44e-02	0	60	0	868220928	57	7030
2026-01-14 10:13:28.47	334.51	42.22	-43.0	-47.5	10.8	4.54e-03	0	60	0	870318080	57	6078
2026-01-14 10:13:29.47	334.59	41.95	-42.4	-46.2	12.1	5.84e-04	0	60	0	872415232	56	5581
2026-01-14 10:13:30.49	334.68	41.67	-41.8	-45.2	13.0	7.40e-05	0	60	0	874512384	55	5253
2026-01-14 10:13:31.50	334.77	41.40	-41.5	-44.7	13.5	1.14e-05	0	60	0	876609536	55	4969
2026-01-14 10:13:32.51	334.86	41.13	-41.6	-44.7	13.5	9.90e-06	0	60	0	877658112	55	4979
2026-01-14 10:13:33.52	334.94	40.86	-41.8	-45.1	13.1	1.67e-05	0	60	0	879755264	55	5209
2026-01-14 10:13:34.53	335.02	40.59	-42.3	-46.1	12.1	9.00e-05	0	60	0	881852416	55	5792
2026-01-14 10:13:35.54	335.10	40.33	-42.6	-46.9	11.2	8.07e-04	0	60	0	883949568	55	6375
2026-01-14 10:13:36.55	335.18	40.07	-43.2	-48.2	10.0	3.39e-03	0	60	0	886046720	57	6592
2026-01-14 10:13:37.56	335.26	39.81	-43.6	-49.1	9.1	1.27e-02	0	60	0	887095296	57	7360
2026-01-14 10:13:38.57	335.34	39.55	-43.8	-49.8	8.4	4.06e-02	0	60	0	889192448	58	7505
2026-01-14 10:13:39.58	335.42	39.29	-43.7	-49.6	8.6	3.85e-02	0	60	0	891289600	58	7319
2026-01-14 10:13:40.59	335.49	39.04	-43.7	-49.4	8.8	3.64e-02	0	60	0	893386752	58	7180
2026-01-14 10:13:41.60	335.56	38.78	-43.4	-48.6	9.6	1.72e-02	0	60	0	895483904	58	6512
2026-01-14 10:13:42.61	335.64	38.53	-43.1	-47.8	10.5	6.04e-03	0	60	0	896532480	58	5946
2026-01-14 10:13:43.62	335.71	38.28	-43.0	-47.6	10.7	3.52e-03	0	60	0	898629632	58	5795
2026-01-14 10:13:44.63	335.78	38.03	-42.8	-47.1	11.2	1.83e-03	0	60	0	900726784	57	5813
2026-01-14 10:13:45.64	335.85	37.79	-42.7	-46.9	11.3	8.88e-04	0	60	0	902823936	57	5706
2026-01-14 10:13:46.65	335.92	37.54	-42.8	-47.2	11.1	1.10e-03	0	60	0	904921088	57	5896
2026-01-14 10:13:47.66	335.99	37.30	-43.1	-47.9	10.3	4.31e-03	0	60	0	907018240	57	6412
2026-01-14 10:13:48.66	336.05	37.06	-43.3	-48.4	9.8	9.02e-03	0	60	0	908066816	57	6753
2026-01-14 10:13:49.67	336.12	36.83	-43.6	-49.1	9.0	1.72e-02	0	60	0	910163968	57	7343
2026-01-14 10:13:50.68	336.19	36.59	-43.6	-49.4	8.8	3.03e-02	0	60	0	912261120	57	7544
2026-01-14 10:13:51.69	336.25	36.35	-43.6	-49.4	8.7	3.37e-02	0	60	0	914358272	57	7610
2026-01-14 10:13:52.70	336.31	36.12	-43.6	-49.1	9.1	2.67e-02	0	60	0	916455424	57	7338
2026-01-14 10:13:53.71	336.38	35.89	-43.4	-48.7	9.4	2.39e-02	0	60	0	917504000	57	7017
2026-01-14 10:13:54.72	336.44	35.66	-43.2	-48.2	9.9	1.13e-02	0	60	0	919601152	57	6640
2026-01-14 10:13:55.73	336.50	35.43	-43.1	-48.0	10.1	7.69e-03	0	60	0	921698304	57	6449
2026-01-14 10:13:56.74	336.56	35.20	-43.0	-47.7	10.4	4.87e-03	0	60	0	923795456	57	6263
2026-01-14 10:13:57.75	336.62	34.97	-42.9	-47.4	10.8	3.51e-03	0	60	0	925892608	57	6024
2026-01-14 10:13:58.75	336.68	34.75	-42.9	-47.4	10.8	2.50e-03	0	60	0	926941184	57	6005
2026-01-14 10:13:59.76	336.73	34.53	-42.8	-47.1	11.1	2.20e-03	0	60	0	929038336	57	5804
2026-01-14 10:14:00.75	336.79	34.31	-42.8	-47.1	11.0	1.60e-03	0	60	0	931135488	57	5835
2026-01-14 10:14:01.76	336.85	34.09	-42.9	-47.4	10.8	2.34e-03	0	60	0	933232640	57	5993
2026-01-14 10:14:02.77	336.90	33.88	-43.1	-47.9	10.3	3.74e-03	0	60	0	935329792	57	6350
2026-01-14 10:14:03.78	336.96	33.66	-43.3	-48.3	9.8	7.92e-03	0	60	0	936378368	57	6706
2026-01-14 10:14:04.79	337.01	33.44	-43.5	-48.9	9.2	1.71e-02	0	60	0	938475520	57	7159
2026-01-14 10:14:05.80	337.07	33.23	-43.6	-49.3	8.7	2.64e-02	0	60	0	940572672	57	7522
2026-01-14 10:14:06.81	337.12	33.02	-43.6	-49.4	8.6	3.48e-02	0	60	0	942669824	57	7616
2026-01-14 10:14:07.82	337.17	32.81	-43.6	-49.5	8.5	3.92e-02	0	60	0	944766976	57	7705
2026-01-14 10:14:08.82	337.22	32.60	-43.6	-49.4	8.6	3.97e-02	0	60	0	945815552	57	7625
2026-01-14 10:14:09.83	337.27	32.39	-43.6	-49.4	8.7	3.36e-02	0	60	0	947912704	57	7547
2026-01-14 10:14:10.84	337.33	32.19	-43.5	-49.2	8.8	3.04e-02	0	60	0	950009856	57	7399
2026-01-14 10:14:11.85	337.38	31.98	-43.5	-49.1	9.0	2.93e-02	0	60	0	952107008	57	7299
2026-01-14 10:14:12.86	337.42	31.78	-43.5	-49.1	8.9	2.60e-02	0	60	0	954204160	57	7366
2026-01-14 10:14:13.87	337.47	31.58	-43.5	-49.1	9.0	2.84e-02	0	60	0	955252736	57	7298
2026-01-14 10:14:14.88	337.52	31.38	-43.5	-49.1	8.9	2.43e-02	0	60	0	957349888	57	7319
2026-01-14 10:14:15.89	337.57	31.18	-43.5	-49.0	9.0	2.65e-02	0	60	0	959447040	57	7256
2026-01-14 10:14:16.90	337.62	30.98	-43.4	-48.9	9.2	2.12e-02	0	60	0	961544192	57	7139
2026-01-14 10:14:17.91	337.66	30.78	-43.3	-48.7	9.3	1.84e-02	0	60	0	963641344	57	6977
2026-01-14 10:14:18.92	337.71	30.59	-43.3	-48.6	9.4	1.59e-02	0	60	0	964689920	57	6916
2026-01-14 10:14:19.93	337.76	30.39	-43.2	-48.3	9.8	1.25e-02	0	60	0	966787072	57	6703
2026-01-14 10:14:20.94	337.80	30.20	-43.1	-48.1	9.9	8.41e-03	0	60	0	968884224	57	6551
2026-01-14 10:14:21.95	337.85	30.01	-42.9	-47.6	10.5	6.21e-03	0	60	0	970981376	57	6183
2026-01-14 10:14:22.95	337.89	29.82	-42.9	-47.4	10.6	4.06e-03	0	60	0	973078528	57	6045
2026-01-14 10:14:23.96	337.93	29.63	-42.7	-47.2	10.9	2.33e-03	0	60	0	974127104	57	5863
2026-01-14 10:14:24.97	337.98	29.44	-42.7	-47.0	11.1	1.87e-03	0	60	0	976224256	57	5771
2026-01-14 10:14:25.98	338.02	29.26	-42.6	-46.9	11.2	1.62e-03	0	60	0	978321408	57	5659
2026-01-14 10:14:26.99	338.06	29.07	-42.6	-46.8	11.2	1.16e-03	0	60	0	980418560	57	5639
2026-01-14 10:14:28.00	338.10	28.89	-42.5	-46.7	11.3	1.22e-03	0	60	0	982515712	57	5571
2026-01-14 10:14:29.01	338.15	28.71	-42.5	-46.8	11.3	1.04e-03	0	60	0	983564288	57	5610
2026-01-14 10:14:30.02	338.19	28.52	-42.5	-46.7	11.4	1.12e-03	0	60	0	985661440	57	5557
2026-01-14 10:14:31.03	338.23	28.34	-42.5	-46.7	11.3	1.12e-03	0	60	0	987758592	57	5592
2026-01-14 10:14:32.04	338.27	28.16	-42.5	-46.8	11.3	1.14e-03	0	60	0	989855744	57	5604
2026-01-14 10:14:33.05	338.31	27.99	-42.5	-46.7	11.3	1.13e-03	0	60	0	991952896	57	5564
2026-01-14 10:14:34.06	338.35	27.81	-42.5	-46.7	11.3	1.07e-03	0	60	0	993001472	56	5886
2026-01-14 10:14:35.07	338.39	27.63	-42.4	-46.6	11.4	1.12e-03	0	60	0	995098624	56	5817
2026-01-14 10:14:36.08	338.43	27.46	-42.4	-46.5	11.5	8.10e-04	0	60	0	997195776	56	5742
2026-01-14 10:14:37.09	338.46	27.28	-42.4	-46.5	11.5	7.38e-04	0	60	0	999292928	56	5755
2026-01-14 10:14:38.10	338.50	27.11	-42.3	-46.4	11.6	7.28e-04	0	60	0	1001390080	56	5707
2026-01-14 10:14:39.11	338.54	26.94	-42.4	-46.5	11.5	7.01e-04	0	60	0	1003487232	56	5746
2026-01-14 10:14:40.12	338.58	26.77	-42.3	-46.4	11.6	7.07e-04	0	60	0	1004535808	56	5675
2026-01-14 10:14:41.13	338.61	26.60	-42.3	-46.4	11.6	7.01e-04	0	60	0	1006632960	56	5667
2026-01-14 10:14:42.14	338.65	26.43	-42.2	-46.3	11.7	6.28e-04	0	60	0	1008730112	56	5613
2026-01-14 10:14:43.15	338.69	26.26	-42.2	-46.3	11.7	6.61e-04	0	60	0	1010827264	56	5627
2026-01-14 10:14:44.16	338.72	26.10	-42.2	-46.3	11.7	5.81e-04	0	60	0	1012924416	56	5604
2026-01-14 10:14:45.17	338.76	25.93	-42.2	-46.2	11.7	5.64e-04	0	60	0	1013972992	56	5567
2026-01-14 10:14:46.18	338.79	25.77	-42.2	-46.3	11.6	6.54e-04	0	60	0	1016070144	56	5629
2026-01-14 10:14:47.19	338.83	25.60	-42.2	-46.2	11.7	5.93e-04	0	60	0	1018167296	56	5552
2026-01-14 10:14:48.20	338.86	25.44	-42.2	-46.2	11.7	5.00e-04	0	60	0	1020264448	56	5557
2026-01-14 10:14:49.21	338.90	25.28	-42.1	-46.1	11.8	5.67e-04	0	60	0	1022361600	56	5486
2026-01-14 10:14:50.22	338.93	25.12	-42.0	-45.9	11.9	3.99e-04	0	60	0	1023410176	56	5375
2026-01-14 10:14:51.22	338.97	24.96	-41.7	-45.6	12.1	3.11e-04	0	60	0	1025507328	55	5477
2026-01-14 10:14:52.23	339.00	24.80	-41.7	-45.6	12.1	3.00e-04	0	60	0	1027604480	55	5498
2026-01-14 10:14:53.24	339.03	24.65	-41.7	-45.5	12.2	2.42e-04	0	60	0	1029701632	55	5413
2026-01-14 10:14:54.25	339.06	24.49	-41.6	-45.5	12.1	1.93e-04	0	60	0	1031798784	55	5410
2026-01-14 10:14:55.26	339.10	24.33	-41.6	-45.5	12.1	2.97e-04	0	60	0	1032847360	55	5422
2026-01-14 10:14:56.27	339.13	24.18	-41.6	-45.4	12.2	2.20e-04	0	60	0	1034944512	55	5379
2026-01-14 10:14:57.28	339.16	24.03	-41.6	-45.5	12.1	2.43e-04	0	60	0	1037041664	55	5405
2026-01-14 10:14:58.29	339.19	23.87	-41.5	-45.3	12.2	2.42e-04	0	60	0	1039138816	55	5337
2026-01-14 10:14:59.30	339.22	23.72	-41.5	-45.3	12.2	2.20e-04	0	60	0	1041235968	55	5284
2026-01-14 10:15:00.31	339.26	23.57	-41.5	-45.4	12.1	2.23e-04	0	60	0	1042284544	54	5659
2026-01-14 10:15:01.32	339.29	23.42	-41.5	-45.4	12.1	2.88e-04	0	60	0	1044381696	54	5661
2026-01-14 10:15:02.33	339.32	23.27	-41.4	-45.2	12.2	2.14e-04	0	60	0	1046478848	54	5564
2026-01-14 10:15:03.34	339.35	23.12	-41.5	-45.3	12.1	2.40e-04	0	60	0	1048576000	54	5627
2026-01-14 10:15:04.35	339.38	22.97	-41.3	-45.0	12.3	2.37e-04	0	60	0	1050673152	54	5447
2026-01-14 10:15:05.36	339.41	22.83	-41.3	-45.0	12.3	1.85e-04	0	60	0	1051721728	54	5430
2026-01-14 10:15:06.36	339.44	22.68	-41.3	-45.1	12.1	2.75e-04	0	60	0	1053818880	54	5500
2026-01-14 10:15:07.37	339.47	22.54	-41.1	-44.8	12.3	1.81e-04	0	60	0	1055916032	54	5317
2026-01-14 10:15:08.38	339.50	22.39	-41.0	-44.7	12.4	1.33e-04	0	60	0	1058013184	54	5253
2026-01-14 10:15:09.39	339.52	22.25	-41.1	-45.0	11.9	2.97e-04	0	60	0	1060110336	54	5440
2026-01-14 10:15:10.40	339.55	22.11	-41.1	-45.1	11.7	5.03e-04	0	60	0	1061158912	54	5478
2026-01-14 10:15:11.41	339.58	21.96	-40.9	-44.8	11.8	4.68e-04	0	60	0	1063256064	53	5645
2026-01-14 10:15:12.42	339.61	21.82	-40.7	-44.5	12.1	4.03e-04	0	60	0	1065353216	53	5445
2026-01-14 10:15:13.43	339.64	21.68	-40.7	-44.6	11.9	2.91e-04	0	60	0	1067450368	53	5511
2026-01-14 10:15:14.44	339.67	21.54	-40.7	-44.9	11.5	6.18e-04	0	60	0	1069547520	53	5679
2026-01-14 10:15:15.45	339.69	21.40	-40.8	-45.1	11.2	1.08e-03	0	60	0	1071644672	53	5813
2026-01-14 10:15:16.46	339.72	21.27	-40.7	-45.0	11.3	1.37e-03	0	60	0	1072693248	53	5782
2026-01-14 10:15:17.47	339.75	21.13	-40.7	-45.1	11.2	1.25e-03	0	60	0	1074790400	53	5810
2026-01-14 10:15:18.48	339.78	20.99	-40.7	-45.1	11.2	1.31e-03	0	60	0	1076887552	53	5793
2026-01-14 10:15:19.49	339.80	20.86	-40.8	-45.4	10.7	2.24e-03	0	60	0	1078984704	53	6045
2026-01-14 10:15:20.50	339.83	20.72	-40.9	-45.9	10.1	4.37e-03	0	60	0	1081081856	53	6413
2026-01-14 10:15:21.51	339.86	20.59	-41.1	-46.7	9.2	1.11e-02	0	60	0	1082130432	53	7013
2026-01-14 10:15:22.52	339.88	20.45	-41.2	-47.6	8.1	4.62e-02	0	60	0	1084227584	53	7756
2026-01-14 10:15:23.52	339.91	20.32	-41.3	-48.6	7.1	1.04e-01	0	60	0	1086324736	53	8723
2026-01-14 10:15:24.53	339.93	20.19	-41.4	-49.6	6.1	2.22e-01	0	60	0	1088421888	53	9751
2026-01-14 10:15:25.55	339.96	20.06	-41.4	-50.6	5.3	4.78e-01	0	60	0	1090519040	53	10984
2026-01-14 10:15:26.55	339.98	19.93	-41.4	-51.3	4.8	6.99e-01	0	60	0	1091567616	53	11950
2026-01-14 10:15:27.56	340.01	19.80	-41.4	-52.2	4.5	9.37e-01	26	60	0	1093664768	53	13143
2026-01-14 10:15:28.57	340.04	19.67	-41.4	-52.9	4.2	1.29e+00	0	60	0	1094713344	53	14306
2026-01-14 10:15:29.58	340.06	19.54	-41.4	-53.8	3.8	1.45e+00	0	60	104	1094713344	53	15867
2026-01-14 10:15:30.59	340.08	19.41	-41.4	-54.6	3.8	1.48e+00	0	60	104	1094713344	53	17287
2026-01-14 10:15:31.60	340.11	19.28	-41.4	-55.3	3.8	1.49e+00	0	60	104	1094713344	53	18859
2026-01-14 10:15:32.61	340.13	19.15	-41.4	-55.8	3.8	1.49e+00	0	60	104	1094713344	53	19878
2026-01-14 10:15:33.62	340.16	19.03	-41.4	-56.0	3.8	1.49e+00	0	60	104	1094713344	53	20360
2026-01-14 10:15:34.63	340.18	18.90	-41.4	-55.9	3.8	1.49e+00	0	60	104	1094713344	53	20242
2026-01-14 10:15:35.64	340.21	18.78	-41.3	-55.9	3.8	1.49e+00	0	60	104	1094713344	53	20154
2026-01-14 10:15:36.64	340.23	18.65	-41.6	-55.1	3.8	1.49e+00	0	60	104	1094713344	53	18448
2026-01-14 10:15:37.65	340.25	18.53	-41.8	-55.9	3.8	1.49e+00	0	60	104	1094713344	54	19057
2026-01-14 10:15:38.66	340.28	18.41	-42.1	-55.9	3.8	1.49e+00	0	60	104	1094713344	54	19087
2026-01-14 10:15:39.67	340.30	18.29	-42.1	-56.0	3.8	1.49e+00	0	60	104	1094713344	55	18197
2026-01-14 10:15:40.68	340.32	18.16	-41.9	-55.6	3.8	1.49e+00	0	60	104	1094713344	55	17427
2026-01-14 10:15:41.69	340.35	18.04	-41.9	-55.3	3.8	1.49e+00	0	60	104	1094713344	55	16839
2026-01-14 10:15:42.70	340.37	17.92	-41.9	-55.3	3.8	1.49e+00	0	60	104	1094713344	55	16861
2026-01-14 10:15:43.71	340.39	17.80	-41.9	-55.7	3.8	1.49e+00	0	60	104	1094713344	55	17615
2026-01-14 10:15:44.72	340.41	17.68	-41.9	-56.0	3.8	1.49e+00	0	60	104	1094713344	55	18173
2026-01-14 10:15:45.72	340.44	17.56	-41.9	-55.8	3.8	1.49e+00	0	60	104	1094713344	55	17782
2026-01-14 10:15:46.73	340.46	17.45	-41.9	-55.5	3.8	1.49e+00	0	61	104	1094713344	55	17112
2026-01-14 10:15:47.74	340.48	17.33	-41.8	-55.6	3.8	1.49e+00	0	60	104	1094713344	55	17311
2026-01-14 10:15:48.75	340.50	17.21	-41.8	-56.0	3.8	1.49e+00	0	60	104	1094713344	55	18115
2026-01-14 10:15:49.76	340.52	17.09	-41.8	-55.8	3.8	1.49e+00	0	60	104	1094713344	55	17872
2026-01-14 10:15:50.77	340.55	16.98	-41.7	-55.6	3.8	1.49e+00	0	60	104	1094713344	55	17416
2026-01-14 10:15:51.78	340.57	16.86	-41.6	-55.7	3.8	1.49e+00	0	60	104	1094713344	55	17538
2026-01-14 10:15:52.79	340.59	16.75	-41.6	-55.8	3.8	1.49e+00	0	60	104	1094713344	55	17763
2026-01-14 10:15:53.80	340.61	16.63	-41.5	-55.7	3.8	1.49e+00	0	60	104	1094713344	55	17580
2026-01-14 10:15:54.81	340.63	16.52	-41.5	-55.8	3.8	1.49e+00	0	60	104	1094713344	54	18770
2026-01-14 10:15:55.81	340.65	16.41	-41.6	-55.9	3.8	1.49e+00	0	60	104	1094713344	54	19062
2026-01-14 10:15:56.82	340.67	16.29	-41.1	-55.7	3.8	1.49e+00	0	60	104	1094713344	54	18688
2026-01-14 10:15:57.83	340.69	16.18	-40.6	-55.5	3.8	1.49e+00	0	60	104	1094713344	53	19325
2026-01-14 10:15:58.84	340.72	16.07	-41.2	-55.8	3.8	1.49e+00	0	60	104	1094713344	53	20038
2026-01-14 10:15:59.85	340.74	15.96	-40.5	-55.4	3.8	1.49e+00	0	60	104	1094713344	53	18996
2026-01-14 10:16:00.85	340.76	15.85	-41.1	-55.8	3.8	1.49e+00	0	60	104	1094713344	53	19892
