passes_logs/2026/01/14/R2.0S_Moscow/R2.0S_Moscow__20260114_154959_FENGYUN_3E_rec.log

#Pass ID: 20260114_154959_FENGYUN 3E
#Satellite: FENGYUN 3E
#Configuration: FENGYUN 3E
#almurnet v.1.7.20251203
#Start time: 2026-01-14 15:49:58

#Version: 2.2.20231116
#Station: R2.0S_Moscow
#Location: 37.707566 lon 55.798166 lat
#TLE: 1 49008U 21062A   26013.59634448 -.00000226  00000+0 -85925-4 0  9991
#TLE: 2 49008  98.7491  18.7414 0001953 139.1941 220.9382 14.19884160234649

#Time	Az	El	Level	Level2	SNR	BER	BlckErr	Temp	State	Recorded	gain1	gain2
2026-01-14 15:49:58.79	210.33	1.98	-44.3	-55.6	3.8	8.47e-01	0	50	0	0	59	12975
2026-01-14 15:49:59.79	210.40	2.04	-44.3	-55.6	3.8	8.45e-01	0	50	104	0	59	13024
2026-01-14 15:50:00.80	210.48	2.09	-44.3	-55.6	3.8	8.45e-01	0	51	104	0	59	12968
2026-01-14 15:50:01.81	210.56	2.15	-44.3	-55.6	3.8	8.46e-01	0	51	104	0	59	13029
2026-01-14 15:50:02.82	210.63	2.20	-44.3	-55.6	3.8	8.45e-01	0	51	104	0	59	12986
2026-01-14 15:50:03.84	210.71	2.26	-44.3	-55.6	3.8	8.46e-01	0	51	104	0	59	12984
2026-01-14 15:50:04.84	210.79	2.31	-44.3	-55.6	3.8	8.46e-01	0	51	104	0	59	12993
2026-01-14 15:50:05.85	210.87	2.36	-44.3	-55.6	3.8	8.46e-01	0	51	104	0	59	12993
2026-01-14 15:50:06.86	210.95	2.42	-44.3	-55.5	3.8	8.46e-01	0	51	104	0	59	12932
2026-01-14 15:50:07.87	211.02	2.47	-44.3	-55.5	3.8	8.45e-01	0	51	104	0	59	12957
2026-01-14 15:50:08.88	211.10	2.53	-44.3	-55.6	3.8	8.46e-01	0	51	104	0	59	12967
2026-01-14 15:50:09.90	211.18	2.59	-44.3	-55.5	3.8	8.46e-01	0	51	104	0	59	12955
2026-01-14 15:50:10.91	211.26	2.64	-44.3	-55.6	3.8	8.46e-01	0	52	104	0	59	12983
2026-01-14 15:50:11.92	211.34	2.70	-44.3	-55.5	3.8	8.46e-01	0	52	104	0	59	12932
2026-01-14 15:50:12.93	211.42	2.75	-44.3	-55.6	3.8	8.46e-01	0	52	104	0	59	12993
2026-01-14 15:50:13.94	211.50	2.81	-44.3	-55.6	3.8	8.46e-01	0	52	104	0	59	12997
2026-01-14 15:50:14.94	211.58	2.86	-44.3	-55.6	3.8	8.46e-01	0	52	104	0	59	12999
2026-01-14 15:50:15.95	211.66	2.92	-44.3	-55.5	3.8	8.46e-01	0	52	104	0	59	12924
2026-01-14 15:50:16.96	211.74	2.97	-44.3	-55.6	3.8	8.45e-01	0	52	104	0	59	13034
2026-01-14 15:50:17.97	211.82	3.03	-44.3	-55.6	3.8	8.46e-01	0	52	104	0	59	13006
2026-01-14 15:50:18.98	211.91	3.08	-44.3	-55.5	3.8	8.47e-01	0	52	104	0	59	12925
2026-01-14 15:50:19.99	211.99	3.14	-44.3	-55.6	3.8	8.47e-01	0	52	104	0	59	12984
2026-01-14 15:50:21.00	212.07	3.19	-44.3	-55.6	3.8	8.46e-01	0	52	104	0	59	12991
2026-01-14 15:50:22.01	212.15	3.25	-44.3	-55.6	3.8	8.46e-01	0	52	104	0	59	12964
2026-01-14 15:50:23.02	212.24	3.31	-44.3	-55.5	3.8	8.46e-01	0	53	104	0	59	12948
2026-01-14 15:50:24.03	212.32	3.36	-44.3	-55.6	3.8	8.46e-01	0	52	104	0	59	12962
2026-01-14 15:50:25.04	212.40	3.42	-44.3	-55.6	3.8	8.48e-01	0	52	104	0	59	12975
2026-01-14 15:50:26.05	212.49	3.47	-44.3	-55.5	3.8	8.48e-01	0	53	104	0	59	12943
2026-01-14 15:50:27.06	212.57	3.53	-44.3	-55.6	3.8	8.45e-01	0	52	104	0	59	12988
2026-01-14 15:50:28.07	212.65	3.59	-44.3	-55.6	3.8	8.47e-01	0	53	104	0	59	12996
2026-01-14 15:50:29.08	212.74	3.64	-44.3	-55.6	3.8	8.45e-01	0	53	104	0	59	12972
2026-01-14 15:50:30.09	212.82	3.70	-44.3	-55.6	3.8	8.45e-01	0	53	104	0	59	12990
2026-01-14 15:50:31.10	212.91	3.76	-44.3	-55.6	3.8	8.45e-01	0	53	104	0	59	12972
2026-01-14 15:50:32.11	212.99	3.81	-44.3	-55.6	3.8	8.45e-01	0	53	104	0	59	12978
2026-01-14 15:50:33.12	213.08	3.87	-44.3	-55.6	3.8	8.47e-01	0	53	104	0	59	12979
2026-01-14 15:50:34.13	213.17	3.92	-44.3	-55.6	3.8	8.46e-01	0	53	104	0	59	12962
2026-01-14 15:50:35.14	213.25	3.98	-44.3	-55.5	3.8	8.46e-01	0	53	104	0	59	12953
2026-01-14 15:50:36.15	213.34	4.04	-44.3	-55.6	3.8	8.46e-01	0	53	104	0	59	12984
2026-01-14 15:50:37.16	213.43	4.09	-44.3	-55.6	3.8	8.46e-01	0	53	104	0	59	12996
2026-01-14 15:50:38.17	213.51	4.15	-44.3	-55.6	3.8	8.45e-01	0	53	104	0	59	13004
2026-01-14 15:50:39.18	213.60	4.21	-44.3	-55.6	3.8	8.46e-01	0	53	104	0	59	12976
2026-01-14 15:50:40.19	213.69	4.27	-44.3	-55.6	3.8	8.46e-01	0	54	104	0	59	13005
2026-01-14 15:50:41.20	213.78	4.32	-44.3	-55.6	3.8	8.46e-01	0	54	104	0	59	13014
2026-01-14 15:50:42.21	213.87	4.38	-44.3	-55.6	3.8	8.45e-01	0	54	104	0	59	12986
2026-01-14 15:50:43.21	213.96	4.44	-44.3	-55.6	3.8	8.46e-01	0	53	104	0	59	12967
2026-01-14 15:50:44.22	214.05	4.49	-44.3	-55.6	3.8	8.46e-01	0	54	104	0	59	12971
2026-01-14 15:50:45.23	214.14	4.55	-44.3	-55.6	3.8	8.47e-01	0	54	104	0	59	12961
2026-01-14 15:50:46.24	214.23	4.61	-44.3	-55.6	3.8	8.46e-01	0	54	104	0	59	12995
2026-01-14 15:50:47.25	214.32	4.67	-44.3	-55.5	3.8	8.47e-01	0	54	104	0	59	12931
2026-01-14 15:50:48.26	214.41	4.72	-44.3	-55.6	3.8	8.45e-01	0	54	104	0	59	13003
2026-01-14 15:50:49.27	214.50	4.78	-44.3	-55.5	3.8	8.46e-01	0	54	104	0	59	12955
2026-01-14 15:50:50.28	214.59	4.84	-44.3	-55.6	3.8	8.46e-01	0	54	104	0	59	12982
2026-01-14 15:50:51.29	214.68	4.90	-44.3	-55.6	3.8	8.46e-01	0	54	104	0	59	12970
2026-01-14 15:50:52.30	214.77	4.95	-44.3	-55.6	3.8	8.46e-01	0	54	104	0	59	13005
2026-01-14 15:50:53.31	214.87	5.01	-44.3	-55.5	3.8	8.47e-01	0	54	104	0	59	12953
2026-01-14 15:50:54.32	214.96	5.07	-44.3	-55.5	3.8	8.47e-01	0	54	104	0	59	12929
2026-01-14 15:50:55.33	215.05	5.13	-44.3	-55.6	3.8	8.46e-01	0	54	104	0	59	13058
2026-01-14 15:50:56.34	215.15	5.19	-44.3	-55.6	3.8	8.46e-01	0	54	104	0	59	12962
2026-01-14 15:50:57.35	215.24	5.24	-44.3	-55.6	3.8	8.47e-01	0	55	104	0	59	12986
2026-01-14 15:50:58.36	215.34	5.30	-44.3	-55.6	3.8	8.47e-01	0	54	104	0	59	12966
2026-01-14 15:50:59.37	215.43	5.36	-44.3	-55.5	3.8	8.46e-01	0	54	104	0	59	12958
2026-01-14 15:51:00.38	215.52	5.42	-44.3	-55.5	3.8	8.47e-01	0	55	104	0	59	12918
2026-01-14 15:51:01.39	215.62	5.48	-44.3	-55.5	3.8	8.47e-01	0	55	104	0	59	12888
2026-01-14 15:51:02.40	215.72	5.54	-44.3	-55.4	3.8	8.45e-01	0	55	104	0	59	12753
2026-01-14 15:51:03.41	215.81	5.59	-44.3	-55.4	3.8	8.46e-01	0	54	104	0	59	12786
2026-01-14 15:51:04.42	215.91	5.65	-44.3	-55.4	3.8	8.46e-01	0	55	104	0	59	12711
2026-01-14 15:51:05.43	216.01	5.71	-44.3	-55.4	3.8	8.46e-01	0	55	104	0	59	12746
2026-01-14 15:51:06.44	216.10	5.77	-44.3	-55.4	3.8	8.47e-01	0	55	104	0	59	12667
2026-01-14 15:51:07.45	216.20	5.83	-44.3	-55.4	3.8	8.46e-01	0	55	104	0	59	12709
2026-01-14 15:51:08.46	216.30	5.89	-44.3	-55.4	3.8	8.45e-01	0	55	104	0	59	12670
2026-01-14 15:51:09.47	216.40	5.95	-44.3	-55.3	3.8	8.47e-01	0	55	104	0	59	12659
2026-01-14 15:51:10.48	216.50	6.01	-44.3	-55.1	3.8	8.47e-01	0	55	104	0	59	12360
2026-01-14 15:51:11.49	216.60	6.06	-44.2	-54.8	3.8	8.46e-01	0	55	104	0	59	11949
2026-01-14 15:51:12.50	216.70	6.12	-44.2	-54.6	3.8	8.46e-01	0	55	104	0	59	11574
2026-01-14 15:51:13.51	216.80	6.18	-44.1	-54.1	3.8	8.46e-01	0	55	104	0	59	10938
2026-01-14 15:51:14.52	216.90	6.24	-44.1	-53.5	3.9	8.46e-01	0	55	104	0	59	10246
2026-01-14 15:51:15.53	217.00	6.30	-44.0	-53.0	4.0	8.45e-01	0	55	104	0	59	9715
2026-01-14 15:51:16.54	217.10	6.36	-43.9	-52.3	4.1	8.43e-01	0	55	104	0	58	9487
2026-01-14 15:51:17.55	217.20	6.42	-43.8	-51.9	4.2	8.36e-01	0	55	0	0	58	8998
2026-01-14 15:51:18.56	217.30	6.48	-43.7	-51.1	4.5	8.28e-01	0	56	0	0	58	8270
2026-01-14 15:51:19.57	217.40	6.54	-43.5	-50.4	4.8	8.06e-01	0	56	0	0	58	7552
2026-01-14 15:51:20.58	217.51	6.60	-43.4	-49.8	5.1	7.63e-01	0	55	0	0	57	7480
2026-01-14 15:51:21.59	217.61	6.66	-43.3	-49.5	5.3	7.33e-01	0	55	0	0	57	7219
2026-01-14 15:51:22.61	217.72	6.72	-43.1	-49.0	5.6	6.47e-01	0	56	0	0	57	6839
2026-01-14 15:51:23.62	217.82	6.78	-43.0	-48.5	5.9	3.74e-01	0	56	0	6291456	57	6483
2026-01-14 15:51:24.63	217.92	6.84	-42.9	-48.3	6.2	3.04e-01	0	55	0	13631488	56	6661
2026-01-14 15:51:25.64	218.03	6.90	-42.8	-48.0	6.4	2.51e-01	0	56	0	20971520	56	6436
2026-01-14 15:51:26.65	218.13	6.96	-42.7	-47.7	6.6	2.14e-01	0	55	0	28311552	56	6259
2026-01-14 15:51:27.66	218.24	7.02	-42.7	-47.6	6.7	2.05e-01	0	56	0	35651584	56	6196
2026-01-14 15:51:28.67	218.35	7.08	-42.7	-47.6	6.7	2.09e-01	0	56	0	42991616	56	6171
2026-01-14 15:51:29.68	218.45	7.14	-42.6	-47.6	6.8	1.94e-01	0	56	0	50331648	56	6143
2026-01-14 15:51:30.69	218.56	7.20	-42.7	-47.6	6.7	2.08e-01	0	56	0	57671680	56	6165
2026-01-14 15:51:31.70	218.67	7.26	-42.7	-47.6	6.7	2.03e-01	0	56	0	65011712	56	6185
2026-01-14 15:51:32.71	218.77	7.32	-42.6	-47.4	6.9	1.89e-01	0	56	0	72351744	56	6000
2026-01-14 15:51:33.72	218.88	7.38	-42.2	-46.6	7.6	1.16e-01	0	56	0	79691776	55	5800
2026-01-14 15:51:34.73	218.99	7.44	-41.8	-45.8	8.3	6.48e-02	0	56	0	87031808	54	5617
2026-01-14 15:51:35.74	219.10	7.50	-41.3	-44.8	9.3	2.19e-02	0	56	0	94371840	53	5298
2026-01-14 15:51:36.75	219.21	7.56	-40.9	-43.9	10.2	7.73e-03	0	56	0	101711872	52	5090
2026-01-14 15:51:37.76	219.32	7.62	-40.5	-43.3	11.0	2.24e-03	0	56	0	109051904	51	5012
2026-01-14 15:51:38.78	219.43	7.68	-40.1	-42.7	11.7	8.97e-04	0	56	0	115343360	51	4655
2026-01-14 15:51:39.79	219.54	7.74	-39.8	-42.2	12.2	2.95e-04	0	56	0	122683392	50	4661
2026-01-14 15:51:40.80	219.65	7.80	-39.5	-41.7	12.6	1.34e-04	0	56	0	131072000	50	4440
2026-01-14 15:51:41.81	219.77	7.86	-39.3	-41.4	12.9	5.14e-05	0	56	0	137363456	49	4526
2026-01-14 15:51:42.82	219.88	7.92	-39.3	-41.5	12.9	5.60e-05	0	56	0	144703488	49	4551
2026-01-14 15:51:43.83	219.99	7.98	-39.4	-41.7	12.7	8.69e-05	0	56	0	152043520	49	4670
2026-01-14 15:51:44.84	220.10	8.05	-39.8	-42.2	12.2	2.15e-04	0	57	0	159383552	49	4955
2026-01-14 15:51:45.85	220.22	8.11	-43.9	-54.2	3.9	7.96e-01	0	56	104	164626432	57	12448
2026-01-14 15:51:46.86	220.33	8.17	-42.9	-48.9	5.7	1.83e-02	0	56	0	166723584	55	7605
2026-01-14 15:51:47.87	220.45	8.23	-40.5	-43.2	11.4	2.25e-04	0	56	0	169869312	50	5249
2026-01-14 15:51:48.88	220.56	8.29	-40.4	-43.0	11.6	8.41e-04	0	57	0	177209344	51	4835
2026-01-14 15:51:49.89	220.68	8.35	-43.8	-49.5	5.5	9.99e-03	0	57	0	184549376	56	7691
2026-01-14 15:51:50.90	220.79	8.41	-40.1	-42.5	12.0	1.69e-02	0	56	0	189792256	51	4552
2026-01-14 15:51:51.91	220.91	8.47	-39.7	-41.9	12.6	1.09e-04	0	57	0	197132288	50	4509
2026-01-14 15:51:52.92	221.03	8.53	-39.6	-41.8	12.8	1.12e-04	0	57	0	203423744	50	4454
2026-01-14 15:51:53.93	221.14	8.60	-39.5	-41.6	13.0	6.75e-05	0	56	0	210763776	49	4625
2026-01-14 15:51:54.95	221.26	8.66	-39.5	-41.6	12.9	5.49e-05	0	57	0	219152384	49	4638
2026-01-14 15:51:55.96	221.38	8.72	-39.4	-41.5	13.1	4.46e-05	0	57	0	225443840	49	4569
2026-01-14 15:51:56.97	221.50	8.78	-39.5	-41.6	12.9	3.20e-05	0	57	0	232783872	49	4646
2026-01-14 15:51:57.98	221.62	8.84	-39.4	-41.6	13.0	5.72e-05	0	57	0	240123904	49	4603
2026-01-14 15:51:58.99	221.74	8.90	-39.5	-41.6	13.0	4.57e-05	0	57	0	247463936	49	4610
2026-01-14 15:52:00.00	221.86	8.97	-39.2	-41.3	13.3	2.40e-05	0	57	0	254803968	49	4442
2026-01-14 15:52:01.01	221.98	9.03	-39.2	-41.2	13.4	2.05e-05	0	57	0	262144000	49	4429
2026-01-14 15:52:02.02	222.10	9.09	-39.1	-41.0	13.6	1.02e-05	0	57	0	269484032	49	4340
2026-01-14 15:52:03.03	222.22	9.15	-39.0	-41.0	13.7	8.00e-06	0	57	0	276824064	48	4562
2026-01-14 15:52:04.04	222.35	9.21	-39.0	-40.9	13.8	5.70e-06	0	57	0	284164096	48	4518
2026-01-14 15:52:05.05	222.47	9.27	-39.0	-40.9	13.7	2.20e-06	0	57	0	291504128	48	4544
2026-01-14 15:52:06.06	222.59	9.34	-38.9	-40.8	13.9	4.50e-06	0	57	0	298844160	48	4446
2026-01-14 15:52:07.07	222.72	9.40	-38.9	-40.8	13.9	4.50e-06	0	57	0	306184192	48	4471
2026-01-14 15:52:08.08	222.84	9.46	-38.9	-40.7	13.9	3.40e-06	0	57	0	313524224	48	4433
2026-01-14 15:52:09.09	222.96	9.52	-38.8	-40.8	13.9	6.80e-06	0	57	0	320864256	48	4446
2026-01-14 15:52:10.10	223.09	9.58	-38.8	-40.7	14.0	2.20e-06	0	57	0	328204288	48	4397
2026-01-14 15:52:11.11	223.22	9.65	-38.6	-40.4	14.3	3.40e-06	0	57	0	335544320	48	4261
2026-01-14 15:52:12.12	223.34	9.71	-38.6	-40.4	14.3	2.20e-06	0	57	0	342884352	48	4289
2026-01-14 15:52:13.13	223.47	9.77	-38.6	-40.5	14.3	0.00e+00	0	57	0	350224384	48	4293
2026-01-14 15:52:14.14	223.60	9.83	-38.7	-40.5	14.2	1.10e-06	0	57	0	357564416	48	4312
2026-01-14 15:52:15.15	223.72	9.90	-38.6	-40.4	14.3	1.10e-06	0	57	0	364904448	48	4275
2026-01-14 15:52:16.16	223.85	9.96	-38.8	-40.6	14.1	2.20e-06	0	57	0	372244480	48	4382
2026-01-14 15:52:17.17	223.98	10.02	-38.7	-40.5	14.2	1.10e-06	0	57	0	378535936	48	4317
2026-01-14 15:52:18.18	224.11	10.08	-38.7	-40.5	14.3	2.20e-06	0	57	0	385875968	48	4296
2026-01-14 15:52:19.19	224.24	10.14	-38.7	-40.6	14.2	3.40e-06	0	57	0	393216000	48	4347
2026-01-14 15:52:20.20	224.37	10.21	-38.6	-40.4	14.3	1.10e-06	0	57	0	400556032	48	4290
2026-01-14 15:52:21.21	224.50	10.27	-38.7	-40.5	14.3	0.00e+00	0	58	0	407896064	48	4323
2026-01-14 15:52:22.22	224.63	10.33	-38.8	-40.7	14.1	0.00e+00	0	57	0	415236096	48	4394
2026-01-14 15:52:23.23	224.77	10.39	-38.8	-40.7	14.1	0.00e+00	0	57	0	422576128	48	4397
2026-01-14 15:52:24.23	224.90	10.46	-38.8	-40.6	14.1	5.70e-06	0	58	0	429916160	48	4374
2026-01-14 15:52:25.24	225.03	10.52	-38.8	-40.6	14.2	0.00e+00	0	57	0	437256192	48	4356
2026-01-14 15:52:26.25	225.17	10.58	-38.7	-40.4	14.4	0.00e+00	0	57	0	444596224	48	4288
2026-01-14 15:52:27.26	225.30	10.64	-38.7	-40.5	14.3	1.10e-06	0	58	0	451936256	48	4324
2026-01-14 15:52:28.27	225.44	10.71	-38.8	-40.6	14.3	0.00e+00	0	57	0	459276288	48	4341
2026-01-14 15:52:29.28	225.57	10.77	-38.7	-40.5	14.3	3.40e-06	0	58	0	466616320	48	4332
2026-01-14 15:52:30.29	225.71	10.83	-38.8	-40.6	14.2	0.00e+00	0	58	0	473956352	48	4358
2026-01-14 15:52:31.30	225.84	10.89	-38.7	-40.4	14.4	2.20e-06	0	58	0	481296384	48	4289
2026-01-14 15:52:32.31	225.98	10.96	-38.6	-40.4	14.4	2.20e-06	0	57	0	488636416	48	4272
2026-01-14 15:52:33.32	226.12	11.02	-38.6	-40.4	14.4	2.20e-06	0	58	0	495976448	48	4268
2026-01-14 15:52:34.33	226.26	11.08	-38.6	-40.4	14.5	1.10e-06	0	58	0	503316480	48	4252
2026-01-14 15:52:35.34	226.40	11.14	-38.5	-40.3	14.5	0.00e+00	0	58	0	510656512	48	4215
2026-01-14 15:52:36.36	226.54	11.21	-38.5	-40.3	14.6	0.00e+00	0	58	0	517996544	48	4211
2026-01-14 15:52:37.37	226.68	11.27	-38.7	-40.4	14.4	1.10e-06	0	58	0	524288000	48	4286
2026-01-14 15:52:38.38	226.82	11.33	-38.6	-40.3	14.5	0.00e+00	0	58	0	531628032	48	4214
2026-01-14 15:52:39.39	226.96	11.40	-38.6	-40.3	14.5	1.10e-06	0	58	0	538968064	48	4238
2026-01-14 15:52:40.39	227.10	11.46	-38.3	-40.0	14.7	0.00e+00	0	58	0	546308096	47	4308
2026-01-14 15:52:41.40	227.24	11.52	-38.3	-40.0	14.7	0.00e+00	0	58	0	553648128	47	4305
2026-01-14 15:52:42.41	227.38	11.58	-38.3	-40.0	14.7	1.10e-06	0	58	0	560988160	47	4297
2026-01-14 15:52:43.43	227.53	11.65	-38.3	-40.0	14.7	0.00e+00	0	58	0	568328192	47	4320
2026-01-14 15:52:44.44	227.67	11.71	-38.4	-40.1	14.6	0.00e+00	0	58	0	575668224	47	4358
2026-01-14 15:52:45.45	227.82	11.77	-38.4	-40.1	14.6	0.00e+00	0	58	0	583008256	47	4366
2026-01-14 15:52:46.46	227.96	11.83	-38.4	-40.1	14.6	0.00e+00	0	58	0	590348288	47	4384
2026-01-14 15:52:47.47	228.11	11.90	-38.4	-40.2	14.5	0.00e+00	0	58	0	597688320	47	4417
2026-01-14 15:52:48.48	228.26	11.96	-38.2	-39.9	14.8	0.00e+00	0	58	0	605028352	47	4262
2026-01-14 15:52:49.49	228.40	12.02	-38.2	-39.8	14.9	2.20e-06	0	58	0	612368384	47	4236
2026-01-14 15:52:50.50	228.55	12.09	-38.2	-39.8	14.9	0.00e+00	0	58	0	619708416	47	4227
2026-01-14 15:52:51.51	228.70	12.15	-38.2	-39.9	14.8	0.00e+00	0	58	0	627048448	47	4269
2026-01-14 15:52:52.52	228.85	12.21	-38.1	-39.8	15.0	0.00e+00	0	58	0	634388480	47	4213
2026-01-14 15:52:53.53	229.00	12.27	-38.1	-39.8	15.0	0.00e+00	0	58	0	641728512	47	4214
2026-01-14 15:52:54.54	229.15	12.34	-38.1	-39.8	15.0	0.00e+00	0	58	0	649068544	46	4443
2026-01-14 15:52:55.55	229.30	12.40	-38.1	-39.8	15.0	0.00e+00	0	58	0	656408576	46	4453
2026-01-14 15:52:56.56	229.45	12.46	-38.2	-39.9	14.9	0.00e+00	0	58	0	663748608	46	4495
2026-01-14 15:52:57.57	229.60	12.52	-38.2	-39.9	14.9	1.10e-06	0	58	0	671088640	46	4510
2026-01-14 15:52:58.58	229.76	12.59	-38.4	-40.2	14.6	0.00e+00	0	58	0	677380096	46	4664
2026-01-14 15:52:59.59	229.91	12.65	-38.4	-40.1	14.6	0.00e+00	0	58	0	685768704	46	4647
2026-01-14 15:53:00.60	230.07	12.71	-38.3	-40.1	14.7	1.10e-06	0	58	0	693108736	46	4603
2026-01-14 15:53:01.61	230.22	12.77	-38.2	-39.9	14.9	0.00e+00	0	58	0	699400192	46	4538
2026-01-14 15:53:02.61	230.37	12.84	-38.1	-39.8	15.0	0.00e+00	0	58	0	706740224	46	4471
2026-01-14 15:53:03.62	230.53	12.90	-38.1	-39.7	15.0	0.00e+00	0	58	0	714080256	46	4428
2026-01-14 15:53:04.63	230.69	12.96	-38.0	-39.7	15.1	0.00e+00	0	58	0	721420288	46	4406
2026-01-14 15:53:05.64	230.84	13.02	-38.0	-39.6	15.1	0.00e+00	0	58	0	728760320	46	4388
2026-01-14 15:53:06.65	231.00	13.08	-38.0	-39.6	15.2	0.00e+00	0	58	0	736100352	46	4352
2026-01-14 15:53:07.66	231.16	13.15	-37.9	-39.5	15.3	0.00e+00	0	58	0	743440384	46	4311
2026-01-14 15:53:08.67	231.32	13.21	-38.0	-39.6	15.2	0.00e+00	0	58	0	750780416	46	4342
2026-01-14 15:53:09.68	231.48	13.27	-37.9	-39.5	15.3	0.00e+00	0	58	0	758120448	46	4320
2026-01-14 15:53:10.69	231.64	13.33	-37.7	-39.3	15.5	0.00e+00	0	58	0	765460480	46	4219
2026-01-14 15:53:11.70	231.80	13.40	-37.8	-39.4	15.4	0.00e+00	0	59	0	772800512	46	4259
2026-01-14 15:53:12.71	231.96	13.46	-37.8	-39.3	15.5	0.00e+00	0	58	0	780140544	46	4233
2026-01-14 15:53:13.72	232.13	13.52	-37.8	-39.3	15.5	0.00e+00	0	58	0	787480576	46	4226
2026-01-14 15:53:14.73	232.29	13.58	-37.7	-39.2	15.6	0.00e+00	0	58	0	794820608	46	4187
2026-01-14 15:53:15.74	232.45	13.64	-37.7	-39.2	15.6	0.00e+00	0	58	0	802160640	46	4175
2026-01-14 15:53:16.74	232.62	13.70	-37.6	-39.1	15.7	0.00e+00	0	59	0	809500672	46	4121
2026-01-14 15:53:17.75	232.78	13.77	-37.6	-39.1	15.8	0.00e+00	0	58	0	816840704	46	4103
2026-01-14 15:53:18.76	232.95	13.83	-37.6	-39.1	15.8	0.00e+00	0	59	0	824180736	46	4108
2026-01-14 15:53:19.77	233.11	13.89	-37.5	-39.0	15.8	0.00e+00	0	58	0	830472192	46	4087
2026-01-14 15:53:20.78	233.28	13.95	-37.5	-39.0	15.8	0.00e+00	0	58	0	837812224	46	4083
2026-01-14 15:53:21.79	233.45	14.01	-37.6	-39.1	15.8	0.00e+00	0	58	0	846200832	46	4116
2026-01-14 15:53:22.80	233.62	14.07	-37.6	-39.1	15.7	0.00e+00	0	59	0	852492288	46	4135
2026-01-14 15:53:23.81	233.79	14.14	-37.6	-39.1	15.7	0.00e+00	0	59	0	859832320	46	4126
2026-01-14 15:53:24.82	233.96	14.20	-37.6	-39.2	15.7	0.00e+00	0	59	0	867172352	46	4149
2026-01-14 15:53:25.83	234.13	14.26	-37.6	-39.1	15.8	0.00e+00	0	59	0	874512384	46	4130
2026-01-14 15:53:26.84	234.30	14.32	-37.6	-39.1	15.7	0.00e+00	0	58	0	881852416	46	4125
2026-01-14 15:53:27.85	234.47	14.38	-37.5	-39.0	15.9	0.00e+00	0	58	0	889192448	45	4305
2026-01-14 15:53:28.86	234.64	14.44	-37.4	-38.8	16.0	0.00e+00	0	59	0	896532480	45	4241
2026-01-14 15:53:29.86	234.81	14.50	-37.4	-38.9	15.9	0.00e+00	0	59	0	903872512	45	4281
2026-01-14 15:53:30.87	234.99	14.56	-37.4	-38.9	16.0	0.00e+00	0	59	0	911212544	45	4243
2026-01-14 15:53:31.89	235.16	14.62	-37.4	-38.8	16.1	0.00e+00	0	59	0	918552576	45	4217
2026-01-14 15:53:32.89	235.34	14.68	-37.3	-38.7	16.1	0.00e+00	0	58	0	925892608	45	4191
2026-01-14 15:53:33.90	235.51	14.74	-37.3	-38.8	16.1	0.00e+00	0	59	0	933232640	45	4208
2026-01-14 15:53:34.91	235.69	14.80	-37.3	-38.8	16.1	0.00e+00	0	59	0	940572672	45	4201
2026-01-14 15:53:35.92	235.87	14.86	-37.3	-38.8	16.1	0.00e+00	0	59	0	947912704	45	4204
2026-01-14 15:53:36.93	236.05	14.92	-37.3	-38.7	16.2	0.00e+00	0	59	0	954204160	45	4177
2026-01-14 15:53:37.94	236.22	14.98	-37.3	-38.7	16.2	0.00e+00	0	59	0	962592768	45	4178
2026-01-14 15:53:38.95	236.40	15.04	-37.2	-38.6	16.3	0.00e+00	0	59	0	969932800	45	4125
2026-01-14 15:53:39.96	236.58	15.10	-37.1	-38.5	16.3	0.00e+00	0	59	0	976224256	45	4093
2026-01-14 15:53:40.97	236.77	15.16	-37.2	-38.6	16.3	0.00e+00	0	59	0	983564288	45	4135
2026-01-14 15:53:41.98	236.95	15.22	-37.2	-38.6	16.2	0.00e+00	0	59	0	990904320	45	4142
2026-01-14 15:53:42.99	237.13	15.28	-37.2	-38.6	16.3	0.00e+00	0	59	0	998244352	45	4143
2026-01-14 15:53:44.00	237.31	15.34	-37.2	-38.6	16.2	0.00e+00	0	59	0	1005584384	45	4134
2026-01-14 15:53:45.01	237.50	15.40	-37.2	-38.6	16.3	0.00e+00	0	59	0	1012924416	45	4104
2026-01-14 15:53:46.02	237.68	15.46	-37.1	-38.6	16.3	0.00e+00	0	59	0	1020264448	45	4105
2026-01-14 15:53:47.03	237.87	15.52	-37.2	-38.6	16.3	0.00e+00	0	59	0	1027604480	45	4141
2026-01-14 15:53:48.03	238.05	15.58	-37.2	-38.6	16.3	0.00e+00	0	59	0	1034944512	45	4109
2026-01-14 15:53:49.04	238.24	15.64	-37.2	-38.6	16.3	0.00e+00	0	59	0	1042284544	45	4136
2026-01-14 15:53:50.05	238.42	15.69	-37.3	-38.7	16.2	0.00e+00	0	59	0	1049624576	45	4177
2026-01-14 15:53:51.06	238.61	15.75	-37.3	-38.8	16.1	0.00e+00	0	59	0	1056964608	45	4197
2026-01-14 15:53:52.07	238.80	15.81	-37.2	-38.6	16.3	0.00e+00	0	59	0	1064304640	45	4137
2026-01-14 15:53:53.08	238.99	15.87	-37.2	-38.6	16.3	0.00e+00	0	59	0	1071644672	45	4143
2026-01-14 15:53:54.09	239.18	15.93	-37.2	-38.6	16.3	0.00e+00	0	59	0	1078984704	45	4123
2026-01-14 15:53:55.10	239.37	15.99	-37.2	-38.6	16.3	0.00e+00	0	59	0	1086324736	45	4125
2026-01-14 15:53:56.11	239.56	16.04	-37.1	-38.6	16.3	0.00e+00	0	59	0	1093664768	45	4104
2026-01-14 15:53:57.13	239.76	16.10	-37.2	-38.6	16.3	0.00e+00	0	59	0	1101004800	45	4099
2026-01-14 15:53:58.14	239.95	16.16	-37.2	-38.6	16.3	0.00e+00	0	59	0	1107296256	45	4128
2026-01-14 15:53:59.15	240.14	16.21	-37.2	-38.6	16.3	0.00e+00	0	59	0	1115684864	45	4142
2026-01-14 15:54:00.16	240.34	16.27	-37.2	-38.6	16.3	0.00e+00	0	59	0	1123024896	45	4137
2026-01-14 15:54:01.17	240.53	16.33	-37.2	-38.6	16.3	0.00e+00	0	59	0	1129316352	45	4120
2026-01-14 15:54:02.18	240.73	16.38	-37.2	-38.6	16.3	0.00e+00	0	59	0	1136656384	45	4109
2026-01-14 15:54:03.19	240.93	16.44	-37.1	-38.4	16.5	0.00e+00	0	59	0	1143996416	45	4047
2026-01-14 15:54:04.20	241.12	16.50	-37.1	-38.5	16.4	0.00e+00	0	59	0	1151336448	45	4086
2026-01-14 15:54:05.21	241.32	16.55	-37.1	-38.5	16.4	0.00e+00	0	59	0	1158676480	45	4082
2026-01-14 15:54:06.22	241.52	16.61	-37.1	-38.5	16.5	0.00e+00	0	59	0	1166016512	44	4297
2026-01-14 15:54:07.23	241.72	16.66	-37.1	-38.5	16.5	0.00e+00	0	59	0	1173356544	44	4293
2026-01-14 15:54:08.24	241.92	16.72	-37.0	-38.4	16.5	0.00e+00	0	59	0	1180696576	44	4278
2026-01-14 15:54:09.25	242.12	16.77	-37.0	-38.4	16.5	0.00e+00	0	59	0	1188036608	44	4276
2026-01-14 15:54:10.26	242.32	16.83	-37.0	-38.4	16.5	0.00e+00	0	59	0	1195376640	44	4274
2026-01-14 15:54:11.27	242.52	16.88	-37.0	-38.4	16.6	0.00e+00	0	59	0	1202716672	44	4246
2026-01-14 15:54:12.27	242.73	16.94	-36.9	-38.3	16.6	0.00e+00	0	59	0	1210056704	44	4220
2026-01-14 15:54:13.28	242.93	16.99	-36.9	-38.2	16.7	0.00e+00	0	59	0	1217396736	44	4177
2026-01-14 15:54:14.29	243.13	17.05	-36.8	-38.1	16.8	0.00e+00	0	59	0	1224736768	44	4127
2026-01-14 15:54:15.30	243.34	17.10	-36.8	-38.1	16.8	0.00e+00	0	59	0	1232076800	44	4125
2026-01-14 15:54:16.31	243.54	17.15	-36.8	-38.1	16.9	0.00e+00	0	59	0	1239416832	44	4118
2026-01-14 15:54:17.32	243.75	17.21	-36.8	-38.1	16.8	0.00e+00	0	59	0	1246756864	44	4140
2026-01-14 15:54:18.33	243.96	17.26	-36.9	-38.3	16.6	0.00e+00	0	59	0	1253048320	44	4228
2026-01-14 15:54:19.34	244.17	17.31	-37.0	-38.4	16.6	0.00e+00	0	59	0	1261436928	44	4263
2026-01-14 15:54:20.35	244.38	17.37	-37.0	-38.4	16.5	0.00e+00	0	59	0	1268776960	44	4287
2026-01-14 15:54:21.36	244.59	17.42	-37.1	-38.5	16.5	0.00e+00	0	59	0	1275068416	44	4320
2026-01-14 15:54:22.37	244.80	17.47	-37.1	-38.4	16.5	0.00e+00	0	59	0	1282408448	44	4290
2026-01-14 15:54:23.38	245.01	17.52	-37.0	-38.4	16.6	0.00e+00	0	59	0	1289748480	44	4258
2026-01-14 15:54:24.39	245.22	17.57	-36.9	-38.3	16.7	0.00e+00	0	59	0	1297088512	44	4217
2026-01-14 15:54:25.41	245.43	17.63	-36.8	-38.2	16.8	0.00e+00	0	59	0	1304428544	44	4160
2026-01-14 15:54:26.42	245.65	17.68	-36.8	-38.1	16.8	0.00e+00	0	59	0	1311768576	44	4124
2026-01-14 15:54:27.42	245.86	17.73	-36.8	-38.2	16.8	0.00e+00	0	59	0	1319108608	44	4154
2026-01-14 15:54:28.43	246.07	17.78	-36.9	-38.2	16.7	0.00e+00	0	59	0	1326448640	44	4175
2026-01-14 15:54:29.44	246.29	17.83	-37.0	-38.4	16.5	0.00e+00	0	59	0	1333788672	44	4269
2026-01-14 15:54:30.45	246.50	17.88	-37.0	-38.4	16.6	0.00e+00	0	59	0	1341128704	44	4271
2026-01-14 15:54:31.46	246.72	17.93	-37.0	-38.4	16.5	0.00e+00	0	59	0	1348468736	44	4270
2026-01-14 15:54:32.47	246.94	17.98	-37.0	-38.4	16.6	0.00e+00	0	59	0	1355808768	44	4243
2026-01-14 15:54:33.48	247.15	18.02	-36.9	-38.3	16.7	0.00e+00	0	59	0	1363148800	44	4214
2026-01-14 15:54:34.49	247.37	18.07	-36.9	-38.2	16.7	0.00e+00	0	59	0	1370488832	44	4178
2026-01-14 15:54:35.50	247.59	18.12	-36.7	-38.1	16.9	0.00e+00	0	59	0	1377828864	44	4104
2026-01-14 15:54:36.51	247.81	18.17	-36.7	-38.0	16.9	0.00e+00	0	59	0	1385168896	44	4079
2026-01-14 15:54:37.52	248.03	18.22	-36.7	-38.0	17.0	0.00e+00	0	59	0	1392508928	44	4077
2026-01-14 15:54:38.53	248.25	18.26	-36.7	-38.0	16.9	0.00e+00	0	59	0	1399848960	44	4092
2026-01-14 15:54:39.54	248.47	18.31	-36.7	-38.1	16.9	0.00e+00	0	59	0	1407188992	44	4108
2026-01-14 15:54:40.55	248.70	18.36	-36.7	-38.0	16.9	0.00e+00	0	59	0	1414529024	44	4092
2026-01-14 15:54:41.56	248.92	18.40	-36.7	-38.0	16.9	0.00e+00	0	59	0	1421869056	44	4096
2026-01-14 15:54:42.57	249.14	18.45	-36.7	-38.0	17.0	0.00e+00	0	59	0	1428160512	44	4072
2026-01-14 15:54:43.58	249.37	18.50	-36.7	-38.0	17.0	0.00e+00	0	59	0	1435500544	44	4068
2026-01-14 15:54:44.59	249.59	18.54	-36.6	-37.9	17.1	0.00e+00	0	59	0	1443889152	44	4011
2026-01-14 15:54:45.60	249.82	18.59	-36.6	-37.9	17.1	0.00e+00	0	59	0	1450180608	44	4034
2026-01-14 15:54:46.61	250.05	18.63	-36.6	-37.9	17.1	0.00e+00	0	59	0	1457520640	44	4020
2026-01-14 15:54:47.62	250.27	18.68	-36.6	-37.9	17.1	0.00e+00	0	59	0	1464860672	44	4011
2026-01-14 15:54:48.63	250.50	18.72	-36.6	-37.9	17.0	0.00e+00	0	59	0	1472200704	44	4038
2026-01-14 15:54:49.64	250.73	18.76	-36.7	-38.0	17.0	0.00e+00	0	59	0	1479540736	44	4074
2026-01-14 15:54:50.65	250.96	18.81	-36.8	-38.1	16.9	0.00e+00	0	59	0	1486880768	44	4131
2026-01-14 15:54:51.66	251.19	18.85	-36.8	-38.2	16.8	0.00e+00	0	59	0	1494220800	44	4164
2026-01-14 15:54:52.66	251.42	18.89	-36.8	-38.1	16.9	0.00e+00	0	60	0	1501560832	44	4142
2026-01-14 15:54:53.67	251.65	18.93	-36.8	-38.1	16.9	0.00e+00	0	59	0	1508900864	44	4135
2026-01-14 15:54:54.69	251.88	18.98	-36.6	-37.9	17.1	0.00e+00	0	59	0	1516240896	44	4044
2026-01-14 15:54:55.70	252.11	19.02	-36.6	-37.9	17.0	0.00e+00	0	60	0	1523580928	44	4046
2026-01-14 15:54:56.71	252.35	19.06	-36.6	-38.0	17.0	0.00e+00	0	60	0	1530920960	44	4052
2026-01-14 15:54:57.72	252.58	19.10	-36.7	-38.0	17.0	0.00e+00	0	59	0	1538260992	44	4068
2026-01-14 15:54:58.73	252.81	19.14	-36.7	-38.0	17.0	0.00e+00	0	59	0	1545601024	44	4089
2026-01-14 15:54:59.74	253.05	19.18	-36.8	-38.1	16.9	0.00e+00	0	60	0	1552941056	44	4119
2026-01-14 15:55:00.75	253.28	19.22	-36.8	-38.2	16.8	0.00e+00	0	60	0	1560281088	44	4173
2026-01-14 15:55:01.76	253.52	19.26	-36.8	-38.2	16.8	0.00e+00	0	59	0	1567621120	44	4170
2026-01-14 15:55:02.77	253.75	19.30	-36.7	-38.0	17.0	0.00e+00	0	59	0	1573912576	44	4066
2026-01-14 15:55:03.78	253.99	19.33	-36.7	-38.0	17.0	0.00e+00	0	60	0	1581252608	44	4060
2026-01-14 15:55:04.79	254.23	19.37	-36.6	-37.9	17.1	0.00e+00	0	60	0	1589641216	44	4015
2026-01-14 15:55:05.80	254.47	19.41	-36.5	-37.8	17.2	0.00e+00	0	59	0	1595932672	44	3976
2026-01-14 15:55:06.81	254.71	19.45	-36.3	-37.6	17.2	0.00e+00	0	59	0	1603272704	43	4111
2026-01-14 15:55:07.82	254.94	19.48	-36.4	-37.7	17.1	0.00e+00	0	60	0	1610612736	43	4149
2026-01-14 15:55:08.83	255.18	19.52	-36.4	-37.7	17.1	0.00e+00	0	60	0	1617952768	43	4163
2026-01-14 15:55:09.84	255.42	19.55	-36.4	-37.8	17.1	0.00e+00	0	59	0	1625292800	43	4195
2026-01-14 15:55:10.85	255.67	19.59	-36.4	-37.7	17.1	0.00e+00	0	59	0	1632632832	43	4187
2026-01-14 15:55:11.86	255.91	19.62	-36.5	-37.8	17.1	0.00e+00	0	60	0	1639972864	43	4213
2026-01-14 15:55:12.87	256.15	19.66	-36.5	-37.8	17.0	0.00e+00	0	60	0	1647312896	43	4227
2026-01-14 15:55:13.88	256.39	19.69	-36.5	-37.8	17.0	0.00e+00	0	59	0	1654652928	43	4235
2026-01-14 15:55:14.89	256.63	19.72	-36.4	-37.7	17.1	0.00e+00	0	60	0	1661992960	43	4174
2026-01-14 15:55:15.90	256.88	19.76	-36.4	-37.7	17.2	0.00e+00	0	60	0	1669332992	43	4159
2026-01-14 15:55:16.91	257.12	19.79	-36.3	-37.6	17.3	0.00e+00	0	60	0	1676673024	43	4104
2026-01-14 15:55:17.92	257.36	19.82	-36.3	-37.5	17.3	0.00e+00	0	59	0	1684013056	43	4089
2026-01-14 15:55:18.93	257.61	19.85	-36.2	-37.5	17.4	0.00e+00	0	60	0	1691353088	43	4065
2026-01-14 15:55:19.94	257.86	19.88	-36.2	-37.5	17.3	0.00e+00	0	59	0	1698693120	43	4071
2026-01-14 15:55:20.95	258.10	19.91	-36.3	-37.6	17.3	0.00e+00	0	60	0	1706033152	43	4103
2026-01-14 15:55:21.96	258.35	19.94	-36.3	-37.6	17.2	0.00e+00	0	59	0	1713373184	43	4127
2026-01-14 15:55:22.97	258.59	19.97	-36.3	-37.6	17.2	0.00e+00	0	59	0	1720713216	43	4130
2026-01-14 15:55:23.98	258.84	20.00	-36.3	-37.6	17.2	0.00e+00	0	59	0	1727004672	43	4138
2026-01-14 15:55:24.99	259.09	20.03	-36.4	-37.7	17.2	0.00e+00	0	60	0	1734344704	43	4155
2026-01-14 15:55:26.00	259.34	20.06	-36.4	-37.7	17.2	0.00e+00	0	60	0	1742733312	43	4164
2026-01-14 15:55:27.01	259.59	20.08	-36.3	-37.6	17.2	0.00e+00	0	60	0	1749024768	43	4135
2026-01-14 15:55:28.02	259.83	20.11	-36.4	-37.6	17.2	0.00e+00	0	60	0	1756364800	43	4142
2026-01-14 15:55:29.03	260.08	20.14	-36.3	-37.5	17.3	0.00e+00	0	59	0	1763704832	43	4095
2026-01-14 15:55:30.04	260.33	20.16	-36.3	-37.6	17.3	0.00e+00	0	60	0	1771044864	43	4113
2026-01-14 15:55:31.05	260.58	20.19	-36.3	-37.6	17.3	0.00e+00	0	60	0	1778384896	43	4110
2026-01-14 15:55:32.05	260.83	20.21	-36.3	-37.6	17.3	0.00e+00	0	59	0	1785724928	43	4107
2026-01-14 15:55:33.06	261.08	20.24	-36.5	-37.8	17.1	0.00e+00	0	60	0	1793064960	43	4207
2026-01-14 15:55:34.07	261.33	20.26	-36.5	-37.8	17.0	0.00e+00	0	60	0	1800404992	43	4205
2026-01-14 15:55:35.09	261.59	20.29	-36.5	-37.8	17.0	0.00e+00	0	60	0	1807745024	43	4219
2026-01-14 15:55:36.10	261.84	20.31	-36.4	-37.7	17.1	0.00e+00	0	60	0	1815085056	43	4175
2026-01-14 15:55:37.11	262.09	20.33	-36.4	-37.7	17.1	0.00e+00	0	60	0	1822425088	43	4183
2026-01-14 15:55:38.12	262.35	20.35	-36.4	-37.8	17.1	0.00e+00	0	60	0	1829765120	43	4196
2026-01-14 15:55:39.13	262.60	20.37	-36.4	-37.7	17.1	0.00e+00	0	59	0	1837105152	43	4173
2026-01-14 15:55:40.14	262.85	20.39	-36.4	-37.7	17.2	0.00e+00	0	60	0	1844445184	43	4157
2026-01-14 15:55:41.15	263.11	20.41	-36.4	-37.6	17.2	0.00e+00	0	60	0	1851785216	43	4142
2026-01-14 15:55:42.16	263.36	20.43	-36.2	-37.5	17.4	0.00e+00	0	60	0	1859125248	43	4067
2026-01-14 15:55:43.17	263.61	20.45	-36.2	-37.5	17.4	0.00e+00	0	60	0	1866465280	43	4059
2026-01-14 15:55:44.18	263.87	20.47	-36.1	-37.3	17.5	0.00e+00	0	60	0	1872756736	43	4003
2026-01-14 15:55:45.19	264.12	20.49	-36.1	-37.4	17.4	0.00e+00	0	60	0	1881145344	43	4037
2026-01-14 15:55:46.20	264.38	20.51	-36.2	-37.4	17.4	0.00e+00	0	60	0	1888485376	43	4049
2026-01-14 15:55:47.21	264.63	20.52	-36.2	-37.5	17.3	0.00e+00	0	60	0	1894776832	43	4084
2026-01-14 15:55:48.22	264.89	20.54	-36.2	-37.5	17.3	0.00e+00	0	60	0	1902116864	43	4089
2026-01-14 15:55:49.23	265.15	20.55	-36.3	-37.5	17.3	0.00e+00	0	60	0	1909456896	43	4098
2026-01-14 15:55:50.24	265.40	20.57	-36.3	-37.5	17.3	0.00e+00	0	60	0	1916796928	43	4098
2026-01-14 15:55:51.25	265.66	20.58	-36.3	-37.6	17.2	0.00e+00	0	59	0	1924136960	43	4130
2026-01-14 15:55:52.26	265.92	20.60	-36.3	-37.6	17.2	0.00e+00	0	59	0	1931476992	43	4119
2026-01-14 15:55:53.27	266.17	20.61	-36.3	-37.6	17.2	0.00e+00	0	60	0	1938817024	43	4136
2026-01-14 15:55:54.28	266.43	20.62	-36.4	-37.7	17.2	0.00e+00	0	60	0	1946157056	43	4151
2026-01-14 15:55:55.29	266.69	20.64	-36.4	-37.8	17.1	0.00e+00	0	60	0	1953497088	43	4204
2026-01-14 15:55:56.30	266.94	20.65	-36.4	-37.7	17.1	0.00e+00	0	60	0	1960837120	43	4192
2026-01-14 15:55:57.31	267.20	20.66	-36.5	-37.8	17.1	0.00e+00	0	60	0	1968177152	43	4199
2026-01-14 15:55:58.32	267.46	20.67	-36.4	-37.7	17.1	0.00e+00	0	60	0	1975517184	43	4185
2026-01-14 15:55:59.33	267.72	20.68	-36.4	-37.7	17.2	0.00e+00	0	60	0	1982857216	43	4157
2026-01-14 15:56:00.34	267.98	20.69	-36.4	-37.7	17.2	0.00e+00	0	60	0	1990197248	43	4154
2026-01-14 15:56:01.35	268.24	20.70	-36.3	-37.5	17.3	0.00e+00	0	60	0	1997537280	43	4093
2026-01-14 15:56:02.35	268.49	20.71	-36.3	-37.5	17.3	0.00e+00	0	60	0	2004877312	43	4094
2026-01-14 15:56:03.36	268.75	20.71	-36.3	-37.6	17.2	0.00e+00	0	60	0	2012217344	43	4114
2026-01-14 15:56:04.37	269.01	20.72	-36.3	-37.6	17.2	0.00e+00	0	60	0	2019557376	43	4137
2026-01-14 15:56:05.38	269.27	20.73	-36.4	-37.7	17.1	0.00e+00	0	60	0	2025848832	43	4184
2026-01-14 15:56:06.39	269.53	20.73	-36.4	-37.7	17.1	0.00e+00	0	60	0	2034237440	43	4188
2026-01-14 15:56:07.40	269.79	20.74	-36.4	-37.7	17.1	0.00e+00	0	60	0	2041577472	43	4171
2026-01-14 15:56:08.41	270.04	20.74	-36.2	-37.5	17.3	0.00e+00	0	60	0	2047868928	43	4079
2026-01-14 15:56:09.42	270.30	20.75	-36.3	-37.5	17.3	0.00e+00	0	60	0	2055208960	43	4091
2026-01-14 15:56:10.43	270.56	20.75	-36.2	-37.4	17.4	0.00e+00	0	60	0	2062548992	43	4046
2026-01-14 15:56:11.44	270.82	20.76	-36.1	-37.4	17.4	0.00e+00	0	60	0	2069889024	43	4031
2026-01-14 15:56:12.45	271.08	20.76	-36.2	-37.5	17.4	0.00e+00	0	60	0	2077229056	43	4054
2026-01-14 15:56:13.46	271.34	20.76	-36.2	-37.5	17.3	0.00e+00	0	60	0	2084569088	43	4076
2026-01-14 15:56:14.47	271.60	20.76	-36.2	-37.5	17.4	0.00e+00	0	60	0	2091909120	43	4060
2026-01-14 15:56:15.48	271.86	20.76	-36.2	-37.5	17.3	0.00e+00	0	60	0	2099249152	43	4077
2026-01-14 15:56:16.49	272.12	20.76	-36.2	-37.4	17.4	0.00e+00	0	60	0	2106589184	43	4051
2026-01-14 15:56:17.50	272.38	20.76	-36.2	-37.4	17.4	0.00e+00	0	60	0	2113929216	43	4050
2026-01-14 15:56:18.51	272.64	20.76	-36.1	-37.4	17.5	0.00e+00	0	60	0	2121269248	43	4015
2026-01-14 15:56:19.52	272.90	20.76	-36.1	-37.4	17.5	0.00e+00	0	60	0	2128609280	43	4022
2026-01-14 15:56:20.53	273.16	20.76	-36.1	-37.4	17.5	0.00e+00	0	60	0	2135949312	43	4018
2026-01-14 15:56:21.54	273.42	20.75	-36.1	-37.4	17.5	0.00e+00	0	60	0	2143289344	43	4023
2026-01-14 15:56:22.55	273.67	20.75	-36.2	-37.4	17.4	0.00e+00	0	60	0	2150629376	43	4045
2026-01-14 15:56:23.56	273.93	20.75	-36.2	-37.5	17.3	0.00e+00	0	60	0	2157969408	43	4072
2026-01-14 15:56:24.57	274.19	20.74	-36.2	-37.5	17.3	0.00e+00	0	60	0	2165309440	43	4070
2026-01-14 15:56:25.59	274.45	20.74	-36.3	-37.6	17.2	0.00e+00	0	60	0	2171600896	43	4129
2026-01-14 15:56:26.59	274.71	20.73	-36.4	-37.7	17.1	0.00e+00	0	60	0	2179989504	43	4173
2026-01-14 15:56:27.60	274.97	20.72	-36.4	-37.8	17.1	0.00e+00	0	60	0	2187329536	43	4194
2026-01-14 15:56:28.61	275.23	20.72	-36.5	-37.8	17.0	0.00e+00	0	60	0	2193620992	43	4230
2026-01-14 15:56:29.62	275.49	20.71	-36.5	-37.9	17.0	0.00e+00	0	60	0	2200961024	43	4250
2026-01-14 15:56:30.63	275.75	20.70	-36.6	-37.9	16.9	0.00e+00	0	60	0	2208301056	43	4290
2026-01-14 15:56:31.64	276.00	20.69	-36.6	-38.0	16.9	0.00e+00	0	60	0	2215641088	43	4300
2026-01-14 15:56:32.65	276.26	20.68	-36.6	-37.9	16.9	0.00e+00	0	60	0	2222981120	43	4278
2026-01-14 15:56:33.66	276.52	20.67	-36.6	-37.9	16.9	0.00e+00	0	60	0	2230321152	43	4259
2026-01-14 15:56:34.67	276.78	20.66	-36.5	-37.8	17.0	0.00e+00	0	60	0	2237661184	43	4231
2026-01-14 15:56:35.68	277.03	20.65	-36.4	-37.8	17.1	0.00e+00	0	60	0	2245001216	43	4204
2026-01-14 15:56:36.69	277.29	20.64	-36.4	-37.7	17.1	0.00e+00	0	60	0	2252341248	43	4165
2026-01-14 15:56:37.70	277.55	20.63	-36.3	-37.7	17.2	0.00e+00	0	60	0	2259681280	43	4147
2026-01-14 15:56:38.71	277.81	20.62	-36.3	-37.6	17.3	0.00e+00	0	60	0	2267021312	43	4111
2026-01-14 15:56:39.72	278.06	20.60	-36.3	-37.6	17.2	0.00e+00	0	60	0	2274361344	43	4103
2026-01-14 15:56:40.73	278.32	20.59	-36.4	-37.7	17.2	0.00e+00	0	60	0	2281701376	43	4150
2026-01-14 15:56:41.74	278.58	20.58	-36.4	-37.7	17.1	0.00e+00	0	60	0	2289041408	43	4185
2026-01-14 15:56:42.75	278.83	20.56	-36.5	-37.8	17.0	0.00e+00	0	60	0	2296381440	43	4204
2026-01-14 15:56:43.76	279.09	20.55	-36.5	-37.8	17.0	0.00e+00	0	60	0	2303721472	43	4201
2026-01-14 15:56:44.77	279.34	20.53	-36.4	-37.7	17.1	0.00e+00	0	60	0	2311061504	43	4190
2026-01-14 15:56:45.78	279.60	20.51	-36.4	-37.7	17.1	0.00e+00	0	60	0	2318401536	43	4161
2026-01-14 15:56:46.79	279.85	20.50	-36.3	-37.5	17.3	0.00e+00	0	60	0	2325741568	43	4087
2026-01-14 15:56:47.80	280.11	20.48	-36.2	-37.5	17.3	0.00e+00	0	60	0	2333081600	43	4084
2026-01-14 15:56:48.81	280.36	20.46	-36.2	-37.4	17.3	0.00e+00	0	60	0	2340421632	43	4044
2026-01-14 15:56:49.82	280.62	20.44	-36.2	-37.5	17.3	0.00e+00	0	60	0	2346713088	43	4055
2026-01-14 15:56:50.83	280.87	20.42	-36.2	-37.4	17.3	0.00e+00	0	60	0	2354053120	43	4046
2026-01-14 15:56:51.84	281.12	20.40	-36.2	-37.5	17.3	0.00e+00	0	60	0	2362441728	43	4074
2026-01-14 15:56:52.85	281.38	20.38	-36.2	-37.5	17.3	0.00e+00	0	60	0	2368733184	43	4075
2026-01-14 15:56:53.86	281.63	20.36	-36.2	-37.5	17.3	0.00e+00	0	60	0	2376073216	43	4091
2026-01-14 15:56:54.87	281.88	20.34	-36.2	-37.5	17.3	0.00e+00	0	60	0	2383413248	43	4078
2026-01-14 15:56:55.88	282.13	20.32	-36.2	-37.5	17.2	0.00e+00	0	60	0	2390753280	43	4079
2026-01-14 15:56:56.89	282.39	20.30	-36.4	-37.7	17.1	0.00e+00	0	60	0	2398093312	43	4151
2026-01-14 15:56:57.90	282.64	20.27	-36.4	-37.7	17.1	0.00e+00	0	60	0	2405433344	43	4189
2026-01-14 15:56:58.92	282.89	20.25	-36.5	-37.8	17.0	0.00e+00	0	60	0	2412773376	43	4222
2026-01-14 15:56:59.92	283.14	20.23	-36.5	-37.9	16.9	0.00e+00	0	60	0	2420113408	43	4252
2026-01-14 15:57:00.93	283.39	20.20	-36.5	-37.9	17.0	0.00e+00	0	60	0	2427453440	43	4243
2026-01-14 15:57:01.94	283.64	20.18	-36.4	-37.8	17.0	0.00e+00	0	60	0	2434793472	43	4198
2026-01-14 15:57:02.95	283.89	20.15	-36.4	-37.8	17.0	0.00e+00	0	60	0	2442133504	43	4197
2026-01-14 15:57:03.96	284.14	20.12	-36.4	-37.7	17.1	0.00e+00	0	60	0	2449473536	43	4189
2026-01-14 15:57:04.97	284.39	20.10	-36.3	-37.6	17.1	0.00e+00	0	60	0	2456813568	43	4140
2026-01-14 15:57:05.98	284.63	20.07	-36.4	-37.7	17.1	0.00e+00	0	60	0	2464153600	43	4148
2026-01-14 15:57:06.99	284.88	20.04	-36.4	-37.7	17.1	0.00e+00	0	60	0	2471493632	43	4169
2026-01-14 15:57:08.00	285.13	20.01	-36.4	-37.8	17.0	0.00e+00	0	60	0	2478833664	43	4203
2026-01-14 15:57:09.01	285.38	19.99	-36.5	-37.8	17.0	0.00e+00	0	60	0	2486173696	43	4226
2026-01-14 15:57:10.03	285.62	19.96	-36.5	-37.8	17.0	0.00e+00	0	60	0	2492465152	43	4224
2026-01-14 15:57:11.04	285.87	19.93	-36.4	-37.7	17.1	0.00e+00	0	60	0	2499805184	43	4175
2026-01-14 15:57:12.05	286.12	19.90	-36.5	-37.8	17.0	0.00e+00	0	60	0	2508193792	43	4228
2026-01-14 15:57:13.06	286.36	19.87	-36.5	-37.8	17.0	0.00e+00	0	60	0	2514485248	43	4234
2026-01-14 15:57:14.07	286.61	19.84	-36.5	-37.8	16.9	0.00e+00	0	60	0	2521825280	43	4241
2026-01-14 15:57:15.08	286.85	19.80	-36.5	-37.8	17.0	0.00e+00	0	60	0	2529165312	43	4216
2026-01-14 15:57:16.09	287.09	19.77	-36.4	-37.7	17.1	0.00e+00	0	60	0	2536505344	43	4171
2026-01-14 15:57:17.10	287.34	19.74	-36.4	-37.7	17.1	0.00e+00	0	60	0	2543845376	43	4189
2026-01-14 15:57:18.11	287.58	19.71	-36.3	-37.6	17.1	0.00e+00	0	60	0	2551185408	43	4142
2026-01-14 15:57:19.12	287.82	19.67	-36.3	-37.6	17.2	0.00e+00	0	60	0	2558525440	43	4144
2026-01-14 15:57:20.13	288.06	19.64	-36.4	-37.7	17.1	0.00e+00	0	60	0	2565865472	43	4149
2026-01-14 15:57:21.14	288.30	19.61	-36.4	-37.7	17.1	0.00e+00	0	60	0	2573205504	43	4163
2026-01-14 15:57:22.15	288.54	19.57	-36.4	-37.8	17.0	0.00e+00	0	60	0	2580545536	43	4205
2026-01-14 15:57:23.16	288.78	19.54	-36.6	-37.9	16.9	0.00e+00	0	60	0	2587885568	43	4268
2026-01-14 15:57:24.17	289.02	19.50	-36.6	-38.0	16.8	0.00e+00	0	60	0	2595225600	43	4319
2026-01-14 15:57:25.18	289.26	19.46	-36.6	-38.0	16.8	0.00e+00	0	60	0	2602565632	43	4306
2026-01-14 15:57:26.19	289.50	19.43	-36.7	-38.1	16.7	0.00e+00	0	60	0	2609905664	43	4362
2026-01-14 15:57:27.20	289.74	19.39	-36.7	-38.1	16.6	0.00e+00	0	60	0	2617245696	43	4375
2026-01-14 15:57:28.20	289.97	19.35	-36.7	-38.1	16.7	0.00e+00	0	60	0	2624585728	43	4354
2026-01-14 15:57:29.21	290.21	19.32	-36.7	-38.1	16.7	0.00e+00	0	60	0	2631925760	43	4342
2026-01-14 15:57:30.22	290.44	19.28	-36.7	-38.0	16.7	0.00e+00	0	60	0	2639265792	43	4335
2026-01-14 15:57:31.23	290.68	19.24	-36.6	-38.0	16.8	0.00e+00	0	60	0	2645557248	43	4308
2026-01-14 15:57:32.24	290.91	19.20	-36.7	-38.1	16.7	0.00e+00	0	60	0	2653945856	43	4341
2026-01-14 15:57:33.25	291.15	19.16	-36.7	-38.0	16.7	0.00e+00	0	60	0	2661285888	43	4336
2026-01-14 15:57:34.26	291.38	19.12	-36.7	-38.0	16.8	0.00e+00	0	60	0	2667577344	43	4316
2026-01-14 15:57:35.27	291.61	19.08	-36.6	-37.9	16.8	0.00e+00	0	60	0	2674917376	43	4290
2026-01-14 15:57:36.28	291.85	19.04	-36.6	-38.0	16.8	0.00e+00	0	60	0	2682257408	43	4300
2026-01-14 15:57:37.30	292.08	19.00	-36.6	-37.9	16.9	0.00e+00	0	60	0	2689597440	43	4258
2026-01-14 15:57:38.30	292.31	18.96	-36.5	-37.9	16.9	0.00e+00	0	60	0	2696937472	43	4247
2026-01-14 15:57:39.32	292.54	18.92	-36.6	-37.9	16.9	0.00e+00	0	60	0	2704277504	43	4270
2026-01-14 15:57:40.33	292.77	18.87	-36.6	-38.0	16.8	0.00e+00	0	60	0	2711617536	43	4311
2026-01-14 15:57:41.34	293.00	18.83	-36.6	-38.0	16.7	0.00e+00	0	60	0	2718957568	43	4314
2026-01-14 15:57:42.35	293.23	18.79	-36.7	-38.0	16.8	0.00e+00	0	60	0	2726297600	43	4324
2026-01-14 15:57:43.36	293.46	18.75	-36.7	-38.1	16.7	0.00e+00	0	60	0	2733637632	43	4342
2026-01-14 15:57:44.37	293.68	18.70	-36.6	-38.0	16.8	0.00e+00	0	60	0	2740977664	43	4319
2026-01-14 15:57:45.38	293.91	18.66	-36.6	-37.9	16.8	0.00e+00	0	60	0	2748317696	43	4272
2026-01-14 15:57:46.39	294.14	18.61	-36.6	-38.0	16.8	0.00e+00	0	60	0	2755657728	43	4314
2026-01-14 15:57:47.40	294.36	18.57	-36.6	-38.0	16.7	0.00e+00	0	60	0	2762997760	43	4302
2026-01-14 15:57:48.41	294.59	18.52	-36.6	-38.0	16.7	0.00e+00	0	60	0	2770337792	43	4320
2026-01-14 15:57:49.42	294.81	18.48	-36.7	-38.1	16.7	0.00e+00	0	60	0	2777677824	43	4362
2026-01-14 15:57:50.43	295.03	18.43	-36.8	-38.2	16.6	0.00e+00	0	60	0	2785017856	43	4393
2026-01-14 15:57:51.44	295.26	18.39	-36.9	-38.3	16.5	0.00e+00	0	60	0	2792357888	43	4447
2026-01-14 15:57:52.44	295.48	18.34	-36.8	-38.2	16.5	0.00e+00	0	60	0	2799697920	43	4426
2026-01-14 15:57:53.45	295.70	18.30	-36.8	-38.2	16.5	0.00e+00	0	60	0	2807037952	43	4421
2026-01-14 15:57:54.46	295.92	18.25	-36.9	-38.3	16.5	0.00e+00	0	60	0	2814377984	43	4445
2026-01-14 15:57:55.48	296.14	18.20	-37.0	-38.4	16.4	0.00e+00	0	60	0	2820669440	43	4502
2026-01-14 15:57:56.49	296.36	18.15	-36.9	-38.4	16.4	0.00e+00	0	60	0	2828009472	43	4496
2026-01-14 15:57:57.49	296.58	18.11	-37.0	-38.4	16.3	0.00e+00	0	60	0	2835349504	43	4510
2026-01-14 15:57:58.50	296.79	18.06	-37.0	-38.4	16.3	0.00e+00	0	60	0	2842689536	43	4516
2026-01-14 15:57:59.52	297.01	18.01	-37.0	-38.4	16.3	0.00e+00	0	60	0	2850029568	43	4514
2026-01-14 15:58:00.53	297.23	17.96	-36.9	-38.4	16.4	0.00e+00	0	60	0	2857369600	43	4498
2026-01-14 15:58:01.54	297.45	17.91	-36.9	-38.3	16.4	0.00e+00	0	60	0	2864709632	43	4492
2026-01-14 15:58:02.55	297.66	17.86	-36.9	-38.2	16.5	0.00e+00	0	60	0	2872049664	43	4433
2026-01-14 15:58:03.56	297.87	17.81	-36.8	-38.1	16.6	0.00e+00	0	60	0	2879389696	43	4380
2026-01-14 15:58:04.57	298.09	17.76	-36.8	-38.2	16.5	0.00e+00	0	60	0	2886729728	43	4405
2026-01-14 15:58:05.58	298.30	17.71	-36.8	-38.2	16.5	0.00e+00	0	60	0	2894069760	43	4401
2026-01-14 15:58:06.59	298.51	17.66	-36.8	-38.2	16.5	0.00e+00	0	60	0	2901409792	43	4416
2026-01-14 15:58:07.59	298.72	17.61	-36.8	-38.2	16.5	0.00e+00	0	60	0	2908749824	43	4419
2026-01-14 15:58:08.60	298.94	17.56	-36.9	-38.3	16.4	0.00e+00	0	60	0	2916089856	43	4464
2026-01-14 15:58:09.61	299.15	17.51	-37.0	-38.4	16.3	0.00e+00	0	60	0	2923429888	43	4508
2026-01-14 15:58:10.62	299.36	17.46	-37.0	-38.4	16.3	0.00e+00	0	60	0	2930769920	43	4511
2026-01-14 15:58:11.63	299.56	17.41	-37.1	-38.5	16.2	0.00e+00	0	60	0	2938109952	43	4572
2026-01-14 15:58:12.64	299.77	17.35	-37.1	-38.5	16.2	0.00e+00	0	60	0	2945449984	43	4572
2026-01-14 15:58:13.65	299.98	17.30	-37.1	-38.6	16.1	0.00e+00	0	60	0	2952790016	43	4604
2026-01-14 15:58:14.66	300.19	17.25	-37.1	-38.6	16.1	0.00e+00	0	60	0	2960130048	43	4604
2026-01-14 15:58:15.67	300.39	17.20	-37.1	-38.6	16.1	0.00e+00	0	60	0	2966421504	43	4624
2026-01-14 15:58:16.68	300.60	17.14	-37.1	-38.6	16.1	0.00e+00	0	60	0	2973761536	43	4623
2026-01-14 15:58:17.69	300.80	17.09	-37.1	-38.6	16.1	0.00e+00	0	60	0	2982150144	43	4608
2026-01-14 15:58:18.70	301.01	17.04	-37.1	-38.6	16.1	0.00e+00	0	60	0	2988441600	43	4606
2026-01-14 15:58:19.71	301.21	16.98	-37.1	-38.6	16.1	0.00e+00	0	60	0	2995781632	43	4620
2026-01-14 15:58:20.72	301.41	16.93	-37.1	-38.5	16.2	0.00e+00	0	60	0	3003121664	43	4596
2026-01-14 15:58:21.73	301.61	16.87	-37.1	-38.5	16.2	0.00e+00	0	60	0	3010461696	43	4573
2026-01-14 15:58:22.74	301.82	16.82	-37.1	-38.5	16.2	0.00e+00	0	60	0	3017801728	43	4578
2026-01-14 15:58:23.76	302.02	16.76	-37.1	-38.5	16.2	0.00e+00	0	60	0	3025141760	43	4590
2026-01-14 15:58:24.77	302.22	16.71	-37.1	-38.6	16.1	0.00e+00	0	60	0	3032481792	43	4612
2026-01-14 15:58:25.77	302.41	16.66	-37.1	-38.6	16.1	0.00e+00	0	60	0	3039821824	43	4633
2026-01-14 15:58:26.78	302.61	16.60	-37.3	-38.8	16.0	0.00e+00	0	60	0	3047161856	44	4463
2026-01-14 15:58:27.80	302.81	16.54	-37.3	-38.8	16.1	0.00e+00	0	60	0	3054501888	44	4452
2026-01-14 15:58:28.81	303.01	16.49	-37.3	-38.8	16.1	0.00e+00	0	60	0	3061841920	44	4446
2026-01-14 15:58:29.82	303.21	16.43	-37.2	-38.6	16.2	0.00e+00	0	60	0	3069181952	44	4368
2026-01-14 15:58:30.83	303.40	16.38	-37.1	-38.5	16.3	0.00e+00	0	60	0	3076521984	44	4334
2026-01-14 15:58:31.83	303.59	16.32	-37.1	-38.4	16.4	0.00e+00	0	60	0	3083862016	44	4289
2026-01-14 15:58:32.84	303.79	16.27	-37.0	-38.4	16.4	0.00e+00	0	60	0	3091202048	44	4265
2026-01-14 15:58:33.85	303.98	16.21	-37.0	-38.4	16.4	0.00e+00	0	60	0	3098542080	44	4291
2026-01-14 15:58:34.86	304.17	16.15	-37.1	-38.5	16.3	0.00e+00	0	60	0	3105882112	44	4326
2026-01-14 15:58:35.87	304.37	16.10	-37.2	-38.7	16.1	0.00e+00	0	60	0	3113222144	44	4403
2026-01-14 15:58:36.88	304.56	16.04	-37.3	-38.8	16.0	0.00e+00	0	61	0	3119513600	44	4446
2026-01-14 15:58:37.89	304.75	15.98	-37.4	-38.9	16.0	0.00e+00	0	60	0	3127902208	44	4509
2026-01-14 15:58:38.90	304.94	15.92	-37.5	-39.0	15.8	0.00e+00	0	60	0	3135242240	44	4565
2026-01-14 15:58:39.91	305.13	15.87	-37.5	-39.0	15.8	0.00e+00	0	60	0	3141533696	44	4587
2026-01-14 15:58:40.92	305.31	15.81	-37.6	-39.1	15.7	0.00e+00	0	60	0	3148873728	44	4635
2026-01-14 15:58:41.93	305.50	15.75	-37.6	-39.1	15.7	0.00e+00	0	60	0	3156213760	44	4636
2026-01-14 15:58:42.94	305.69	15.69	-37.7	-39.2	15.6	0.00e+00	0	60	0	3163553792	44	4694
2026-01-14 15:58:43.95	305.88	15.63	-37.7	-39.2	15.6	0.00e+00	0	60	0	3170893824	44	4675
2026-01-14 15:58:44.96	306.06	15.58	-37.7	-39.2	15.6	0.00e+00	0	60	0	3178233856	44	4689
2026-01-14 15:58:45.97	306.25	15.52	-37.7	-39.3	15.5	0.00e+00	0	60	0	3185573888	45	4456
2026-01-14 15:58:46.98	306.43	15.46	-37.7	-39.3	15.5	0.00e+00	0	60	0	3192913920	45	4442
2026-01-14 15:58:47.99	306.61	15.40	-37.7	-39.2	15.6	0.00e+00	0	60	0	3200253952	45	4418
2026-01-14 15:58:49.00	306.80	15.34	-37.6	-39.1	15.6	0.00e+00	0	60	0	3207593984	45	4385
2026-01-14 15:58:50.01	306.98	15.28	-37.6	-39.1	15.6	0.00e+00	0	60	0	3214934016	45	4377
2026-01-14 15:58:51.02	307.16	15.22	-37.6	-39.1	15.7	0.00e+00	0	60	0	3222274048	45	4370
2026-01-14 15:58:52.03	307.34	15.17	-37.6	-39.1	15.7	0.00e+00	0	60	0	3229614080	45	4359
2026-01-14 15:58:53.04	307.52	15.11	-37.5	-39.0	15.7	0.00e+00	0	60	0	3236954112	45	4339
2026-01-14 15:58:54.05	307.70	15.05	-37.5	-39.1	15.7	0.00e+00	0	60	0	3244294144	45	4347
2026-01-14 15:58:55.06	307.88	14.99	-37.5	-39.1	15.7	0.00e+00	0	60	0	3251634176	45	4346
2026-01-14 15:58:56.07	308.06	14.93	-37.5	-39.0	15.7	0.00e+00	0	60	0	3258974208	45	4328
2026-01-14 15:58:57.08	308.23	14.87	-37.5	-39.1	15.7	0.00e+00	0	60	0	3265265664	45	4345
2026-01-14 15:58:58.09	308.41	14.81	-37.6	-39.1	15.6	0.00e+00	0	60	0	3273654272	45	4377
2026-01-14 15:58:59.10	308.58	14.75	-37.6	-39.2	15.6	0.00e+00	0	60	0	3280994304	45	4409
2026-01-14 15:59:00.11	308.76	14.69	-37.7	-39.2	15.5	0.00e+00	0	60	0	3287285760	45	4434
2026-01-14 15:59:01.12	308.93	14.63	-37.8	-39.3	15.4	0.00e+00	0	60	0	3294625792	45	4485
2026-01-14 15:59:02.13	309.11	14.57	-37.8	-39.4	15.3	0.00e+00	0	60	0	3301965824	45	4528
2026-01-14 15:59:03.14	309.28	14.51	-37.9	-39.6	15.2	0.00e+00	0	60	0	3309305856	45	4603
2026-01-14 15:59:04.15	309.45	14.45	-38.0	-39.6	15.2	0.00e+00	0	60	0	3316645888	45	4621
2026-01-14 15:59:05.16	309.62	14.39	-38.1	-39.8	15.0	0.00e+00	0	60	0	3323985920	45	4727
2026-01-14 15:59:06.17	309.80	14.33	-38.1	-39.8	14.9	0.00e+00	0	61	0	3331325952	45	4733
2026-01-14 15:59:07.18	309.97	14.27	-38.1	-39.8	14.9	0.00e+00	0	60	0	3338665984	45	4735
2026-01-14 15:59:08.19	310.14	14.21	-38.1	-39.8	14.9	0.00e+00	0	60	0	3346006016	45	4741
2026-01-14 15:59:09.20	310.30	14.15	-38.1	-39.7	15.0	0.00e+00	0	60	0	3353346048	45	4693
2026-01-14 15:59:10.21	310.47	14.08	-38.1	-39.8	14.9	0.00e+00	0	60	0	3360686080	45	4709
2026-01-14 15:59:11.22	310.64	14.02	-38.0	-39.7	15.1	0.00e+00	0	60	0	3368026112	45	4654
2026-01-14 15:59:12.22	310.81	13.96	-38.0	-39.7	15.1	0.00e+00	0	60	0	3375366144	45	4653
2026-01-14 15:59:13.23	310.97	13.90	-38.0	-39.7	15.1	0.00e+00	0	60	0	3382706176	45	4653
2026-01-14 15:59:14.24	311.14	13.84	-38.1	-39.8	14.9	0.00e+00	0	60	0	3390046208	45	4714
2026-01-14 15:59:15.25	311.30	13.78	-38.0	-39.7	15.0	0.00e+00	0	60	0	3397386240	45	4668
2026-01-14 15:59:16.26	311.47	13.72	-38.1	-39.7	15.0	0.00e+00	0	60	0	3404726272	45	4694
2026-01-14 15:59:17.27	311.63	13.66	-38.0	-39.7	15.0	1.10e-06	0	60	0	3412066304	45	4674
2026-01-14 15:59:18.28	311.79	13.60	-37.9	-39.5	15.2	0.00e+00	0	60	0	3418357760	45	4553
2026-01-14 15:59:19.29	311.95	13.53	-37.8	-39.3	15.3	0.00e+00	0	60	0	3426746368	45	4493
2026-01-14 15:59:20.30	312.12	13.47	-37.7	-39.3	15.4	0.00e+00	0	60	0	3434086400	45	4471
2026-01-14 15:59:21.31	312.28	13.41	-37.7	-39.3	15.4	0.00e+00	0	60	0	3440377856	45	4469
2026-01-14 15:59:22.32	312.44	13.35	-37.7	-39.3	15.4	0.00e+00	0	60	0	3447717888	45	4482
2026-01-14 15:59:23.33	312.60	13.29	-37.8	-39.4	15.3	0.00e+00	0	60	0	3455057920	45	4508
2026-01-14 15:59:24.34	312.76	13.23	-37.9	-39.5	15.1	0.00e+00	0	60	0	3462397952	45	4577
2026-01-14 15:59:25.35	312.91	13.17	-38.0	-39.7	15.0	0.00e+00	0	60	0	3469737984	45	4653
2026-01-14 15:59:26.36	313.07	13.10	-38.1	-39.8	14.9	0.00e+00	0	60	0	3477078016	45	4719
2026-01-14 15:59:27.37	313.23	13.04	-38.2	-39.9	14.8	0.00e+00	0	60	0	3484418048	45	4770
2026-01-14 15:59:28.38	313.39	12.98	-38.3	-40.0	14.7	0.00e+00	0	61	0	3491758080	46	4556
2026-01-14 15:59:29.39	313.54	12.92	-38.3	-40.0	14.6	0.00e+00	0	60	0	3499098112	46	4595
2026-01-14 15:59:30.40	313.70	12.86	-38.4	-40.1	14.5	1.10e-06	0	60	0	3506438144	46	4616
2026-01-14 15:59:31.41	313.85	12.79	-38.4	-40.2	14.5	1.10e-06	0	60	0	3513778176	46	4661
2026-01-14 15:59:32.42	314.01	12.73	-38.4	-40.2	14.5	0.00e+00	0	60	0	3521118208	46	4657
2026-01-14 15:59:33.43	314.16	12.67	-38.5	-40.3	14.4	1.10e-06	0	60	0	3528458240	46	4711
2026-01-14 15:59:34.44	314.31	12.61	-38.4	-40.2	14.4	2.20e-06	0	60	0	3535798272	46	4663
2026-01-14 15:59:35.45	314.46	12.55	-38.4	-40.1	14.5	1.10e-06	0	60	0	3543138304	46	4629
2026-01-14 15:59:36.46	314.61	12.49	-38.4	-40.1	14.5	0.00e+00	0	60	0	3550478336	46	4624
2026-01-14 15:59:37.47	314.77	12.42	-38.2	-39.9	14.7	0.00e+00	0	60	0	3557818368	46	4538
2026-01-14 15:59:38.48	314.92	12.36	-38.1	-39.7	14.9	0.00e+00	0	60	0	3564109824	46	4430
2026-01-14 15:59:39.49	315.07	12.30	-38.0	-39.7	14.9	0.00e+00	0	60	0	3572498432	46	4414
2026-01-14 15:59:40.50	315.21	12.24	-38.0	-39.6	15.0	0.00e+00	0	60	0	3579838464	46	4389
2026-01-14 15:59:41.51	315.36	12.18	-37.9	-39.6	15.1	0.00e+00	0	60	0	3586129920	46	4341
2026-01-14 15:59:42.52	315.51	12.11	-37.9	-39.5	15.0	1.10e-06	0	60	0	3593469952	46	4340
2026-01-14 15:59:43.53	315.66	12.05	-38.0	-39.7	14.9	0.00e+00	0	60	0	3600809984	46	4404
2026-01-14 15:59:44.54	315.80	11.99	-38.0	-39.7	15.0	0.00e+00	0	60	0	3608150016	46	4394
2026-01-14 15:59:45.55	315.95	11.93	-38.0	-39.7	14.9	0.00e+00	0	60	0	3615490048	46	4396
2026-01-14 15:59:46.56	316.10	11.86	-38.1	-39.8	14.8	0.00e+00	0	60	0	3622830080	46	4457
2026-01-14 15:59:47.57	316.24	11.80	-38.1	-39.8	14.8	0.00e+00	0	61	0	3630170112	46	4458
2026-01-14 15:59:48.58	316.38	11.74	-38.2	-39.9	14.7	0.00e+00	0	60	0	3637510144	46	4500
2026-01-14 15:59:49.59	316.53	11.68	-38.2	-39.9	14.7	0.00e+00	0	61	0	3644850176	46	4517
2026-01-14 15:59:50.60	316.67	11.62	-38.2	-39.9	14.6	1.10e-06	0	60	0	3652190208	46	4532
2026-01-14 15:59:51.61	316.81	11.55	-38.3	-40.0	14.6	1.10e-06	0	60	0	3659530240	46	4580
2026-01-14 15:59:52.62	316.96	11.49	-38.3	-40.1	14.5	0.00e+00	0	60	0	3666870272	46	4609
2026-01-14 15:59:53.62	317.10	11.43	-38.4	-40.2	14.3	0.00e+00	0	60	0	3674210304	46	4698
2026-01-14 15:59:54.63	317.24	11.37	-38.5	-40.4	14.2	4.50e-06	0	60	0	3681550336	46	4760
2026-01-14 15:59:55.64	317.38	11.31	-38.6	-40.5	14.1	3.40e-06	0	60	0	3688890368	46	4835
2026-01-14 15:59:56.65	317.52	11.24	-38.7	-40.6	13.9	4.50e-06	0	60	0	3696230400	46	4896
2026-01-14 15:59:57.66	317.65	11.18	-38.7	-40.6	13.9	4.50e-06	0	60	0	3703570432	47	4642
2026-01-14 15:59:58.67	317.79	11.12	-38.7	-40.6	13.9	4.50e-06	0	60	0	3710910464	47	4632
2026-01-14 15:59:59.68	317.93	11.06	-38.7	-40.6	13.9	3.40e-06	0	60	0	3717201920	47	4641
2026-01-14 16:00:00.69	318.07	11.00	-38.7	-40.6	13.9	2.20e-06	0	60	0	3725590528	47	4622
2026-01-14 16:00:01.70	318.21	10.93	-38.6	-40.5	14.0	4.50e-06	0	61	0	3732930560	47	4557
2026-01-14 16:00:02.71	318.34	10.87	-38.6	-40.5	14.0	2.20e-06	0	61	0	3739222016	47	4559
2026-01-14 16:00:03.73	318.48	10.81	-38.6	-40.5	14.0	3.40e-06	0	60	0	3746562048	47	4567
2026-01-14 16:00:04.74	318.61	10.75	-38.6	-40.5	14.0	1.10e-06	0	60	0	3753902080	47	4562
2026-01-14 16:00:05.74	318.75	10.69	-38.7	-40.6	13.9	5.70e-06	0	60	0	3761242112	47	4623
2026-01-14 16:00:06.75	318.88	10.63	-38.7	-40.6	13.9	5.70e-06	0	60	0	3768582144	47	4604
2026-01-14 16:00:07.77	319.01	10.56	-38.6	-40.5	14.0	1.10e-06	0	61	0	3775922176	47	4570
2026-01-14 16:00:08.77	319.15	10.50	-38.6	-40.5	14.0	5.70e-06	0	60	0	3783262208	47	4550
2026-01-14 16:00:09.78	319.28	10.44	-38.6	-40.4	14.0	2.20e-06	0	60	0	3790602240	47	4529
2026-01-14 16:00:10.79	319.41	10.38	-38.6	-40.5	14.0	5.70e-06	0	60	0	3797942272	47	4547
2026-01-14 16:00:11.80	319.54	10.32	-38.6	-40.5	14.0	5.70e-06	0	60	0	3805282304	47	4559
2026-01-14 16:00:12.81	319.67	10.25	-38.7	-40.5	13.9	3.40e-06	0	60	0	3812622336	47	4598
2026-01-14 16:00:13.82	319.80	10.19	-38.7	-40.6	13.9	5.70e-06	0	60	0	3819962368	47	4610
2026-01-14 16:00:14.83	319.93	10.13	-38.6	-40.5	13.9	2.20e-06	0	60	0	3827302400	47	4578
2026-01-14 16:00:15.84	320.06	10.07	-38.7	-40.6	13.8	1.02e-05	0	60	0	3834642432	47	4622
2026-01-14 16:00:16.85	320.19	10.01	-38.7	-40.6	13.8	9.10e-06	0	60	0	3841982464	47	4640
2026-01-14 16:00:17.86	320.32	9.95	-38.8	-40.7	13.7	4.50e-06	0	60	0	3849322496	47	4669
2026-01-14 16:00:18.87	320.45	9.88	-38.8	-40.8	13.6	1.25e-05	0	60	0	3856662528	47	4706
2026-01-14 16:00:19.88	320.57	9.82	-38.9	-40.8	13.5	1.25e-05	0	60	0	3862953984	47	4755
2026-01-14 16:00:20.89	320.70	9.76	-38.9	-40.9	13.5	2.05e-05	0	60	0	3870294016	47	4796
2026-01-14 16:00:21.90	320.83	9.70	-38.9	-40.9	13.4	1.71e-05	0	60	0	3878682624	47	4807
2026-01-14 16:00:22.91	320.95	9.64	-39.0	-41.0	13.3	2.05e-05	0	61	0	3884974080	47	4846
2026-01-14 16:00:23.92	321.08	9.58	-38.9	-40.9	13.5	1.25e-05	0	60	0	3892314112	47	4763
2026-01-14 16:00:24.93	321.20	9.52	-38.9	-40.9	13.4	1.14e-05	0	60	0	3899654144	47	4790
2026-01-14 16:00:25.94	321.32	9.45	-38.8	-40.8	13.6	1.25e-05	0	60	0	3906994176	47	4731
2026-01-14 16:00:26.95	321.45	9.39	-38.9	-40.8	13.5	8.00e-06	0	61	0	3914334208	47	4752
2026-01-14 16:00:27.96	321.57	9.33	-38.9	-40.9	13.4	1.14e-05	0	60	0	3921674240	47	4792
2026-01-14 16:00:28.97	321.69	9.27	-39.0	-41.0	13.4	2.51e-05	0	60	0	3929014272	47	4822
2026-01-14 16:00:29.98	321.82	9.21	-38.8	-40.8	13.5	1.71e-05	0	60	0	3936354304	47	4740
2026-01-14 16:00:30.99	321.94	9.15	-38.8	-40.7	13.6	1.14e-05	0	60	0	3943694336	47	4675
2026-01-14 16:00:32.00	322.06	9.09	-38.8	-40.7	13.6	9.10e-06	0	60	0	3951034368	47	4694
2026-01-14 16:00:33.01	322.18	9.03	-38.8	-40.8	13.6	1.14e-05	0	61	0	3958374400	47	4706
2026-01-14 16:00:34.02	322.30	8.97	-38.9	-40.8	13.5	1.02e-05	0	61	0	3965714432	47	4759
2026-01-14 16:00:35.03	322.42	8.90	-38.9	-40.9	13.4	1.48e-05	0	60	0	3973054464	47	4813
2026-01-14 16:00:36.04	322.54	8.84	-38.9	-40.9	13.4	1.14e-05	0	60	0	3980394496	47	4808
2026-01-14 16:00:37.05	322.66	8.78	-39.0	-41.0	13.3	1.71e-05	0	60	0	3987734528	47	4842
2026-01-14 16:00:38.06	322.77	8.72	-39.1	-41.2	13.1	3.20e-05	0	61	0	3995074560	47	4953
2026-01-14 16:00:39.07	322.89	8.66	-39.1	-41.2	13.1	3.31e-05	0	61	0	4002414592	47	4930
2026-01-14 16:00:40.08	323.01	8.60	-39.0	-41.1	13.2	4.23e-05	0	60	0	4009754624	47	4882
2026-01-14 16:00:41.09	323.13	8.54	-39.0	-41.1	13.2	2.86e-05	0	60	0	4017094656	47	4886
2026-01-14 16:00:42.10	323.24	8.48	-39.0	-41.1	13.1	4.23e-05	0	60	0	4024434688	47	4882
2026-01-14 16:00:43.11	323.36	8.42	-39.1	-41.2	13.0	3.54e-05	0	60	0	4031774720	47	4947
2026-01-14 16:00:44.12	323.47	8.36	-39.0	-41.1	13.2	3.54e-05	0	60	0	4038066176	47	4871
2026-01-14 16:00:45.13	323.59	8.30	-39.0	-41.1	13.1	3.77e-05	0	61	0	4045406208	47	4887
2026-01-14 16:00:46.14	323.70	8.24	-39.1	-41.2	13.0	4.11e-05	0	60	0	4053794816	47	4937
2026-01-14 16:00:47.15	323.82	8.18	-38.9	-41.0	13.2	1.94e-05	0	60	0	4060086272	47	4829
2026-01-14 16:00:48.16	323.93	8.12	-38.8	-40.8	13.4	1.94e-05	0	60	0	4067426304	47	4736
2026-01-14 16:00:49.17	324.04	8.06	-39.0	-41.1	13.1	2.97e-05	0	60	0	4074766336	47	4915
2026-01-14 16:00:50.18	324.16	8.00	-38.9	-40.9	13.2	2.40e-05	0	60	0	4082106368	47	4803
2026-01-14 16:00:51.19	324.27	7.94	-44.7	-55.1	3.8	8.41e-01	0	61	104	4085252096	58	13103
2026-01-14 16:00:52.20	324.38	7.88	-45.1	-56.0	3.8	8.47e-01	0	61	104	4085252096	59	13690
2026-01-14 16:00:53.21	324.49	7.82	-45.2	-56.5	3.8	8.46e-01	0	60	104	4085252096	60	13698
2026-01-14 16:00:54.22	324.60	7.76	-45.3	-56.7	3.8	8.45e-01	0	61	104	4085252096	60	13933
2026-01-14 16:00:55.23	324.71	7.70	-45.4	-56.8	3.8	8.45e-01	0	60	104	4085252096	60	14141
2026-01-14 16:00:56.24	324.82	7.64	-45.5	-56.9	3.8	8.46e-01	0	60	104	4085252096	60	14249
2026-01-14 16:00:57.25	324.93	7.58	-45.6	-56.9	3.8	8.47e-01	0	61	104	4085252096	60	14342
2026-01-14 16:00:58.26	325.04	7.52	-45.6	-57.0	3.8	8.45e-01	0	61	104	4085252096	60	14401
2026-01-14 16:00:59.27	325.15	7.46	-45.6	-56.9	3.8	8.47e-01	0	60	104	4085252096	60	14349
2026-01-14 16:01:00.28	325.26	7.40	-45.6	-56.9	3.8	8.47e-01	0	61	104	4085252096	60	14330
2026-01-14 16:01:01.29	325.37	7.34	-45.5	-56.9	3.8	8.46e-01	0	60	104	4085252096	60	14234
2026-01-14 16:01:02.30	325.47	7.28	-45.5	-56.9	3.8	8.46e-01	0	60	104	4085252096	60	14263
2026-01-14 16:01:03.32	325.58	7.22	-45.5	-56.9	3.8	8.46e-01	0	61	104	4085252096	60	14231
2026-01-14 16:01:04.33	325.69	7.16	-45.5	-56.9	3.8	8.47e-01	0	61	104	4085252096	60	14273
2026-01-14 16:01:05.33	325.79	7.10	-45.5	-56.8	3.8	8.46e-01	0	60	104	4085252096	60	14167
2026-01-14 16:01:06.34	325.90	7.04	-45.5	-56.8	3.8	8.46e-01	0	60	104	4085252096	60	14144
2026-01-14 16:01:07.35	326.00	6.98	-45.4	-56.8	3.8	8.46e-01	0	61	104	4085252096	60	14135
2026-01-14 16:01:08.36	326.11	6.92	-45.5	-56.8	3.8	8.47e-01	0	61	104	4085252096	60	14196
2026-01-14 16:01:09.37	326.21	6.86	-45.5	-56.8	3.8	8.47e-01	0	61	104	4085252096	60	14143
2026-01-14 16:01:10.38	326.32	6.80	-45.5	-56.8	3.8	8.46e-01	0	61	104	4085252096	60	14161
2026-01-14 16:01:11.39	326.42	6.74	-45.5	-56.8	3.8	8.46e-01	0	61	104	4085252096	60	14116
2026-01-14 16:01:12.40	326.52	6.68	-45.5	-56.8	3.8	8.47e-01	0	61	104	4085252096	60	14173
2026-01-14 16:01:13.41	326.63	6.63	-45.5	-56.8	3.8	8.46e-01	0	60	104	4085252096	60	14191
2026-01-14 16:01:14.42	326.73	6.57	-45.5	-56.8	3.8	8.47e-01	0	61	104	4085252096	60	14130
2026-01-14 16:01:15.43	326.83	6.51	-45.5	-56.8	3.8	8.47e-01	0	61	104	4085252096	60	14153
2026-01-14 16:01:16.44	326.93	6.45	-45.5	-56.8	3.8	8.46e-01	0	61	104	4085252096	60	14146
2026-01-14 16:01:17.45	327.03	6.39	-45.5	-56.8	3.8	8.46e-01	0	61	104	4085252096	60	14084
2026-01-14 16:01:18.46	327.14	6.33	-45.5	-56.8	3.8	8.46e-01	0	61	104	4085252096	60	14176
2026-01-14 16:01:19.47	327.24	6.27	-45.5	-56.8	3.8	8.46e-01	0	60	104	4085252096	60	14122
2026-01-14 16:01:20.48	327.34	6.22	-45.4	-56.8	3.8	8.47e-01	0	60	104	4085252096	60	14111
2026-01-14 16:01:21.49	327.44	6.16	-45.4	-56.8	3.8	8.46e-01	0	61	104	4085252096	60	14085
2026-01-14 16:01:22.50	327.54	6.10	-45.5	-56.8	3.8	8.47e-01	0	61	104	4085252096	60	14129
2026-01-14 16:01:23.50	327.63	6.04	-45.5	-56.8	3.8	8.46e-01	0	61	104	4085252096	60	14107
2026-01-14 16:01:24.52	327.73	5.98	-45.5	-56.8	3.8	8.46e-01	0	60	104	4085252096	60	14101
2026-01-14 16:01:25.53	327.83	5.92	-45.5	-56.8	3.8	8.47e-01	0	60	104	4085252096	60	14092
2026-01-14 16:01:26.54	327.93	5.87	-45.5	-56.8	3.8	8.45e-01	0	61	104	4085252096	60	14125
2026-01-14 16:01:27.55	328.03	5.81	-45.5	-56.8	3.8	8.46e-01	0	61	104	4085252096	60	14152
2026-01-14 16:01:28.56	328.12	5.75	-45.4	-56.8	3.8	8.46e-01	0	60	104	4085252096	60	14096
2026-01-14 16:01:29.56	328.22	5.69	-45.4	-56.7	3.8	8.47e-01	0	60	104	4085252096	60	14034
2026-01-14 16:01:30.57	328.32	5.63	-45.4	-56.8	3.8	8.46e-01	0	60	104	4085252096	60	14098
