passes_logs/2026/01/14/R2.0S_Moscow/R2.0S_Moscow__20260114_105453_NOAA_21_JPSS-2_rec.log

#Pass ID: 20260114_105453_NOAA 21 (JPSS-2)
#Satellite: NOAA 21 (JPSS-2)
#Configuration: NOAA-21
#almurnet v.1.7.20251203
#Start time: 2026-01-14 10:57:18

#Version: 2.2.20231116
#Station: R2.0S_Moscow
#Location: 37.707566 lon 55.798166 lat
#TLE: 1 54234U 22150A   26013.18009385  .00000056  00000+0  47387-4 0  9997
#TLE: 2 54234  98.7496 314.1019 0000691 303.8246  56.2864 14.19534466164559

#Time	Az	El	Level	Level2	SNR	BER	BlckErr	Temp	State	Recorded	gain1	gain2
2026-01-14 10:57:18.68	199.80	12.37	-44.9	-56.6	3.8	8.46e-01	0	60	0	0	60	14640
2026-01-14 10:57:19.68	199.89	12.46	-45.3	-57.6	3.8	1.49e+00	0	61	104	0	62	14617
2026-01-14 10:57:20.69	199.98	12.54	-45.3	-57.5	3.8	1.49e+00	0	60	104	0	62	14529
2026-01-14 10:57:21.70	200.08	12.63	-45.2	-57.5	3.8	1.49e+00	0	61	104	0	62	14485
2026-01-14 10:57:22.71	200.17	12.71	-45.2	-57.5	3.8	1.49e+00	0	60	104	0	62	14441
2026-01-14 10:57:23.72	200.27	12.80	-45.1	-57.4	3.8	1.49e+00	0	60	104	0	62	14326
2026-01-14 10:57:24.74	200.37	12.89	-45.0	-57.2	3.8	1.49e+00	0	61	104	0	62	14015
2026-01-14 10:57:25.75	200.47	12.98	-44.9	-57.1	3.8	1.49e+00	0	61	104	0	61	14573
2026-01-14 10:57:26.76	200.56	13.06	-44.8	-57.2	3.8	1.49e+00	0	61	104	0	61	14746
2026-01-14 10:57:27.77	200.66	13.15	-44.8	-57.1	3.8	1.49e+00	0	60	104	0	61	14600
2026-01-14 10:57:28.78	200.76	13.24	-44.8	-57.1	3.8	1.49e+00	0	61	104	0	61	14550
2026-01-14 10:57:29.79	200.86	13.33	-44.8	-57.0	3.8	1.49e+00	0	60	104	0	61	14512
2026-01-14 10:57:30.80	200.96	13.42	-44.8	-57.0	3.8	1.49e+00	0	60	104	0	61	14474
2026-01-14 10:57:31.81	201.06	13.50	-44.8	-57.0	3.8	1.49e+00	0	60	104	0	61	14413
2026-01-14 10:57:32.82	201.16	13.59	-44.8	-57.0	3.8	1.49e+00	0	60	104	0	61	14499
2026-01-14 10:57:33.83	201.26	13.68	-44.8	-57.0	3.8	1.49e+00	0	61	104	0	61	14427
2026-01-14 10:57:34.84	201.37	13.77	-44.8	-57.0	3.8	1.49e+00	0	60	104	0	61	14442
2026-01-14 10:57:35.85	201.47	13.86	-44.8	-56.8	3.8	1.49e+00	0	61	104	0	61	14198
2026-01-14 10:57:36.86	201.57	13.95	-44.8	-56.7	3.8	1.49e+00	0	60	104	0	61	13946
2026-01-14 10:57:37.87	201.68	14.04	-44.8	-56.6	3.8	1.49e+00	0	60	104	0	61	13791
2026-01-14 10:57:38.88	201.78	14.13	-44.7	-56.5	3.8	1.49e+00	0	61	104	0	61	13622
2026-01-14 10:57:39.89	201.89	14.22	-44.7	-56.3	3.8	1.49e+00	0	61	104	0	61	13350
2026-01-14 10:57:40.90	201.99	14.31	-44.7	-56.2	3.8	1.49e+00	0	60	104	0	61	13179
2026-01-14 10:57:41.91	202.10	14.40	-44.7	-56.1	3.8	1.49e+00	0	60	104	0	61	13038
2026-01-14 10:57:42.92	202.21	14.50	-44.7	-56.0	3.8	1.49e+00	0	61	104	0	61	12901
2026-01-14 10:57:43.93	202.32	14.59	-44.7	-56.0	3.8	1.49e+00	0	60	104	0	61	12842
2026-01-14 10:57:44.94	202.42	14.68	-44.7	-55.9	3.8	1.49e+00	0	61	104	0	61	12674
2026-01-14 10:57:45.95	202.53	14.77	-44.6	-55.5	3.8	1.49e+00	0	61	104	0	61	12174
2026-01-14 10:57:46.96	202.64	14.86	-44.6	-55.0	3.8	1.49e+00	0	60	104	0	61	11446
2026-01-14 10:57:47.97	202.75	14.96	-44.5	-53.9	4.1	1.48e+00	0	61	104	0	61	10112
2026-01-14 10:57:48.98	202.87	15.05	-44.4	-53.2	4.3	1.44e+00	0	60	104	0	60	9870
2026-01-14 10:57:49.99	202.98	15.14	-44.2	-52.4	4.6	1.25e+00	0	60	104	0	60	8969
2026-01-14 10:57:51.00	203.09	15.23	-44.1	-51.6	5.0	7.64e-01	0	60	0	1048576	60	8188
2026-01-14 10:57:52.01	203.20	15.33	-44.0	-50.8	5.4	5.67e-01	0	61	0	4194304	59	7935
2026-01-14 10:57:53.02	203.32	15.42	-43.9	-50.2	5.8	4.14e-01	0	61	0	7340032	59	7396
2026-01-14 10:57:54.03	203.43	15.52	-43.7	-49.6	6.3	2.82e-01	0	61	0	10485760	59	6891
2026-01-14 10:57:55.04	203.55	15.61	-43.5	-49.0	6.8	1.99e-01	0	61	0	13631488	59	6486
2026-01-14 10:57:56.05	203.66	15.71	-43.4	-48.6	7.2	1.42e-01	0	60	0	16777216	58	6537
2026-01-14 10:57:57.06	203.78	15.80	-43.3	-48.3	7.4	1.16e-01	0	61	0	19922944	58	6340
2026-01-14 10:57:58.07	203.90	15.90	-43.2	-48.2	7.6	1.02e-01	0	61	0	23068672	58	6217
2026-01-14 10:57:59.08	204.02	15.99	-43.2	-48.2	7.6	9.65e-02	0	61	0	26214400	58	6217
2026-01-14 10:58:00.09	204.13	16.09	-43.3	-48.4	7.4	1.08e-01	0	61	0	29360128	58	6383
2026-01-14 10:58:01.10	204.25	16.18	-43.4	-48.6	7.2	1.30e-01	0	61	0	32505856	58	6564
2026-01-14 10:58:02.11	204.37	16.28	-43.5	-48.9	6.9	1.61e-01	0	61	0	35651584	58	6734
2026-01-14 10:58:03.12	204.50	16.38	-43.5	-49.0	6.9	1.75e-01	0	61	0	38797312	58	6812
2026-01-14 10:58:04.13	204.62	16.47	-43.4	-48.7	7.1	1.54e-01	0	61	0	41943040	58	6634
2026-01-14 10:58:05.14	204.74	16.57	-43.1	-48.0	7.7	1.11e-01	0	60	0	45088768	58	6110
2026-01-14 10:58:06.15	204.86	16.67	-42.7	-47.0	8.7	4.97e-02	0	60	0	48234496	57	5780
2026-01-14 10:58:07.16	204.99	16.76	-42.2	-46.0	9.7	1.60e-02	0	60	0	51380224	56	5444
2026-01-14 10:58:08.17	205.11	16.86	-41.6	-45.0	10.7	4.32e-03	0	61	0	54525952	55	5109
2026-01-14 10:58:09.18	205.24	16.96	-41.2	-44.3	11.4	1.21e-03	0	60	0	57671680	54	5008
2026-01-14 10:58:10.20	205.37	17.06	-41.0	-43.9	11.8	5.64e-04	0	60	0	60817408	54	4777
2026-01-14 10:58:11.21	205.49	17.16	-40.9	-43.7	11.9	4.23e-04	0	61	0	63963136	53	4981
2026-01-14 10:58:12.22	205.62	17.26	-41.1	-44.0	11.7	4.29e-04	0	61	0	67108864	53	5125
2026-01-14 10:58:13.23	205.75	17.36	-41.1	-44.1	11.5	1.29e-03	0	61	0	70254592	53	5163
2026-01-14 10:58:14.24	205.88	17.46	-44.6	-54.3	3.9	1.49e+00	0	60	104	71303168	60	11277
2026-01-14 10:58:15.25	206.01	17.55	-41.4	-44.6	11.0	2.33e-01	0	60	0	71303168	54	5172
2026-01-14 10:58:16.26	206.14	17.65	-44.3	-52.4	4.5	1.48e+00	4	61	104	73400320	59	9534
2026-01-14 10:58:17.27	206.28	17.75	-44.3	-52.4	4.5	1.46e+00	0	61	104	73400320	59	9550
2026-01-14 10:58:18.28	206.41	17.86	-42.4	-46.4	9.1	8.60e-03	0	61	0	75497472	55	6017
2026-01-14 10:58:19.29	206.54	17.96	-41.1	-44.1	11.6	1.60e-03	0	61	0	78643200	54	4898
2026-01-14 10:58:20.30	206.68	18.06	-41.2	-44.2	11.5	9.03e-04	0	60	0	81788928	54	4942
2026-01-14 10:58:21.31	206.81	18.16	-40.9	-43.8	11.8	5.39e-04	0	61	0	84934656	53	5019
2026-01-14 10:58:22.32	206.95	18.26	-40.8	-43.6	12.1	3.14e-04	0	61	0	88080384	53	4882
2026-01-14 10:58:23.33	207.09	18.36	-40.8	-43.5	12.1	2.50e-04	0	61	0	91226112	53	4867
2026-01-14 10:58:24.34	207.23	18.46	-40.8	-43.6	12.1	2.43e-04	0	61	0	94371840	53	4890
2026-01-14 10:58:25.35	207.37	18.57	-40.8	-43.6	12.1	3.03e-04	0	61	0	97517568	53	4918
2026-01-14 10:58:26.36	207.51	18.67	-40.8	-43.6	12.0	2.87e-04	0	60	0	100663296	53	4922
2026-01-14 10:58:27.37	207.65	18.77	-40.8	-43.5	12.2	2.68e-04	0	60	0	103809024	53	4860
2026-01-14 10:58:28.38	207.79	18.87	-40.7	-43.4	12.3	1.79e-04	0	61	0	106954752	53	4809
2026-01-14 10:58:29.39	207.93	18.98	-40.6	-43.3	12.5	1.43e-04	0	61	0	110100480	53	4735
2026-01-14 10:58:30.40	208.08	19.08	-40.6	-43.3	12.5	1.15e-04	0	61	0	113246208	53	4708
2026-01-14 10:58:31.41	208.22	19.18	-40.6	-43.2	12.6	1.17e-04	0	61	0	116391936	53	4685
2026-01-14 10:58:32.42	208.37	19.29	-40.5	-43.2	12.6	9.23e-05	0	60	0	119537664	53	4656
2026-01-14 10:58:33.43	208.52	19.39	-40.5	-43.0	12.7	9.91e-05	0	61	0	122683392	53	4592
2026-01-14 10:58:34.44	208.66	19.50	-40.5	-43.1	12.7	6.79e-05	0	60	0	125829120	52	4876
2026-01-14 10:58:35.45	208.81	19.60	-40.5	-43.0	12.8	5.95e-05	0	61	0	128974848	52	4850
2026-01-14 10:58:36.46	208.96	19.71	-40.4	-42.9	12.9	7.55e-05	0	61	0	132120576	52	4797
2026-01-14 10:58:37.47	209.11	19.81	-40.4	-42.9	12.9	5.34e-05	0	60	0	135266304	52	4782
2026-01-14 10:58:38.48	209.27	19.92	-40.4	-42.9	12.9	4.19e-05	0	60	0	138412032	52	4760
2026-01-14 10:58:39.49	209.42	20.02	-40.3	-42.8	13.0	3.73e-05	0	61	0	141557760	52	4750
2026-01-14 10:58:40.50	209.57	20.13	-40.3	-42.8	12.9	5.03e-05	0	61	0	144703488	52	4756
2026-01-14 10:58:41.51	209.73	20.24	-40.3	-42.8	12.9	3.89e-05	0	61	0	147849216	52	4733
2026-01-14 10:58:42.52	209.88	20.34	-40.4	-42.8	12.9	5.49e-05	0	60	0	150994944	52	4757
2026-01-14 10:58:43.53	210.04	20.45	-40.3	-42.8	12.9	4.19e-05	0	61	0	154140672	52	4743
2026-01-14 10:58:44.54	210.20	20.56	-40.3	-42.7	13.1	2.89e-05	0	61	0	158334976	52	4691
2026-01-14 10:58:45.55	210.36	20.66	-40.2	-42.7	13.1	2.51e-05	0	61	0	161480704	52	4661
2026-01-14 10:58:46.55	210.52	20.77	-40.2	-42.7	13.1	2.36e-05	0	60	0	163577856	52	4669
2026-01-14 10:58:47.56	210.68	20.88	-40.2	-42.6	13.2	2.67e-05	0	61	0	166723584	52	4608
2026-01-14 10:58:48.58	210.84	20.99	-40.1	-42.5	13.3	2.67e-05	0	61	0	169869312	52	4586
2026-01-14 10:58:49.59	211.01	21.10	-40.1	-42.5	13.3	2.21e-05	0	61	0	174063616	52	4598
2026-01-14 10:58:50.60	211.17	21.21	-40.1	-42.6	13.3	2.05e-05	0	60	0	177209344	52	4602
2026-01-14 10:58:51.60	211.33	21.31	-40.2	-42.6	13.2	2.05e-05	0	61	0	180355072	52	4604
2026-01-14 10:58:52.61	211.50	21.42	-40.1	-42.5	13.3	1.90e-05	0	60	0	183500800	52	4565
2026-01-14 10:58:53.62	211.67	21.53	-40.1	-42.5	13.3	2.21e-05	0	60	0	186646528	52	4578
2026-01-14 10:58:54.63	211.84	21.64	-40.1	-42.5	13.3	1.44e-05	0	61	0	188743680	52	4559
2026-01-14 10:58:55.64	212.01	21.75	-40.0	-42.4	13.4	1.60e-05	0	61	0	192937984	52	4524
2026-01-14 10:58:56.65	212.18	21.86	-40.0	-42.3	13.5	6.10e-06	0	61	0	196083712	51	4759
2026-01-14 10:58:57.66	212.35	21.97	-40.0	-42.3	13.6	8.30e-06	0	60	0	199229440	51	4754
2026-01-14 10:58:58.67	212.53	22.08	-39.9	-42.2	13.7	4.50e-06	0	60	0	202375168	51	4692
2026-01-14 10:58:59.68	212.70	22.19	-39.9	-42.1	13.8	7.60e-06	0	61	0	205520896	51	4639
2026-01-14 10:59:00.68	212.88	22.30	-39.9	-42.2	13.7	3.80e-06	0	61	0	208666624	51	4666
2026-01-14 10:59:01.70	213.06	22.41	-39.9	-42.1	13.8	6.10e-06	0	60	0	211812352	51	4633
2026-01-14 10:59:02.71	213.24	22.52	-39.8	-42.1	13.8	6.10e-06	0	61	0	214958080	51	4609
2026-01-14 10:59:03.72	213.42	22.64	-39.9	-42.1	13.8	6.80e-06	0	61	0	218103808	51	4617
2026-01-14 10:59:04.73	213.60	22.75	-39.8	-42.0	13.9	6.80e-06	0	61	0	221249536	51	4583
2026-01-14 10:59:05.74	213.78	22.86	-39.8	-41.9	14.0	4.50e-06	0	60	0	224395264	51	4543
2026-01-14 10:59:06.75	213.97	22.97	-39.7	-41.9	14.0	1.50e-06	0	61	0	227540992	51	4529
2026-01-14 10:59:07.75	214.15	23.08	-39.7	-41.8	14.1	7.00e-07	0	60	0	230686720	51	4479
2026-01-14 10:59:08.76	214.34	23.19	-39.7	-41.9	14.1	3.80e-06	0	61	0	233832448	51	4505
2026-01-14 10:59:09.77	214.52	23.31	-39.7	-41.8	14.1	1.50e-06	0	61	0	236978176	51	4471
2026-01-14 10:59:10.78	214.71	23.42	-39.7	-41.9	14.1	3.80e-06	0	61	0	240123904	51	4496
2026-01-14 10:59:11.80	214.91	23.53	-39.8	-42.0	14.0	1.50e-06	0	61	0	243269632	51	4553
2026-01-14 10:59:12.81	215.10	23.65	-39.8	-42.0	14.0	3.80e-06	0	61	0	246415360	51	4558
2026-01-14 10:59:13.82	215.29	23.76	-39.8	-42.0	14.0	3.80e-06	0	60	0	249561088	51	4565
2026-01-14 10:59:14.83	215.49	23.87	-39.8	-42.0	13.9	4.50e-06	0	61	0	252706816	51	4587
2026-01-14 10:59:15.83	215.68	23.98	-39.8	-42.0	13.9	2.20e-06	0	61	0	255852544	51	4587
2026-01-14 10:59:16.84	215.88	24.10	-39.8	-41.9	14.1	3.00e-06	0	61	0	258998272	51	4531
2026-01-14 10:59:17.85	216.08	24.21	-39.8	-42.0	14.0	1.50e-06	0	61	0	262144000	51	4551
2026-01-14 10:59:18.86	216.28	24.33	-39.8	-42.0	14.0	3.00e-06	0	61	0	265289728	51	4554
2026-01-14 10:59:19.87	216.48	24.44	-39.8	-41.9	14.0	2.20e-06	0	61	0	268435456	51	4536
2026-01-14 10:59:20.88	216.68	24.55	-39.8	-42.0	14.0	0.00e+00	0	60	0	271581184	51	4555
2026-01-14 10:59:21.89	216.89	24.67	-39.9	-42.1	13.9	4.50e-06	0	61	0	274726912	51	4618
2026-01-14 10:59:22.90	217.09	24.78	-39.9	-42.1	13.8	3.00e-06	0	60	0	277872640	51	4637
2026-01-14 10:59:23.91	217.30	24.90	-39.9	-42.1	13.8	6.10e-06	0	61	0	281018368	51	4651
2026-01-14 10:59:24.92	217.51	25.01	-39.9	-42.2	13.8	1.50e-06	0	61	0	284164096	51	4674
2026-01-14 10:59:25.93	217.72	25.13	-40.0	-42.2	13.7	3.80e-06	0	60	0	287309824	51	4697
2026-01-14 10:59:26.94	217.93	25.24	-39.9	-42.1	13.8	1.50e-06	0	61	0	290455552	51	4651
2026-01-14 10:59:27.95	218.14	25.36	-39.9	-42.1	13.9	3.80e-06	0	61	0	293601280	51	4613
2026-01-14 10:59:28.96	218.36	25.47	-39.9	-42.1	13.9	3.00e-06	0	61	0	296747008	51	4603
2026-01-14 10:59:29.97	218.57	25.59	-39.9	-42.1	13.9	7.60e-06	0	60	0	299892736	51	4620
2026-01-14 10:59:30.98	218.79	25.70	-39.9	-42.1	13.9	2.20e-06	0	61	0	303038464	51	4627
2026-01-14 10:59:31.99	219.01	25.82	-39.9	-42.1	13.9	5.30e-06	0	61	0	306184192	51	4602
2026-01-14 10:59:33.00	219.23	25.93	-39.9	-42.2	13.8	4.50e-06	0	61	0	309329920	51	4662
2026-01-14 10:59:34.01	219.46	26.05	-39.9	-42.2	13.8	4.50e-06	0	61	0	312475648	51	4675
2026-01-14 10:59:35.02	219.68	26.16	-40.0	-42.2	13.7	4.50e-06	0	60	0	315621376	51	4684
2026-01-14 10:59:36.03	219.91	26.28	-40.0	-42.3	13.6	6.10e-06	0	60	0	318767104	51	4737
2026-01-14 10:59:37.04	220.13	26.39	-40.1	-42.4	13.6	7.60e-06	0	60	0	321912832	51	4795
2026-01-14 10:59:38.05	220.36	26.51	-40.2	-42.5	13.5	1.14e-05	0	61	0	325058560	51	4865
2026-01-14 10:59:39.06	220.59	26.62	-40.3	-42.7	13.3	2.05e-05	0	61	0	328204288	51	4936
2026-01-14 10:59:40.07	220.83	26.74	-40.4	-42.8	13.2	2.67e-05	0	61	0	331350016	51	5017
2026-01-14 10:59:41.08	221.06	26.85	-40.4	-42.8	13.1	1.90e-05	0	61	0	334495744	51	5013
2026-01-14 10:59:42.09	221.30	26.97	-40.4	-42.8	13.2	2.21e-05	0	61	0	337641472	51	5007
2026-01-14 10:59:43.10	221.53	27.09	-40.4	-42.9	13.1	3.43e-05	0	61	0	340787200	51	5049
2026-01-14 10:59:44.11	221.77	27.20	-40.5	-42.9	13.0	3.96e-05	0	61	0	343932928	51	5086
2026-01-14 10:59:45.12	222.01	27.32	-40.4	-42.9	13.1	3.81e-05	0	61	0	347078656	51	5075
2026-01-14 10:59:46.13	222.26	27.43	-40.5	-42.9	13.0	3.28e-05	0	61	0	350224384	51	5095
2026-01-14 10:59:47.14	222.50	27.55	-40.4	-42.9	13.0	3.96e-05	0	61	0	353370112	51	5062
2026-01-14 10:59:48.15	222.75	27.66	-40.4	-42.9	13.0	2.89e-05	0	61	0	356515840	51	5090
2026-01-14 10:59:49.16	222.99	27.78	-40.4	-42.8	13.1	2.36e-05	0	61	0	359661568	51	5036
2026-01-14 10:59:50.17	223.24	27.89	-40.4	-42.8	13.2	2.21e-05	0	61	0	362807296	51	4999
2026-01-14 10:59:51.18	223.49	28.01	-40.4	-42.8	13.1	3.20e-05	0	61	0	365953024	51	5005
2026-01-14 10:59:52.19	223.75	28.12	-40.3	-42.7	13.2	2.05e-05	0	61	0	369098752	51	4979
2026-01-14 10:59:53.20	224.00	28.24	-40.4	-42.8	13.1	2.82e-05	0	61	0	372244480	51	5006
2026-01-14 10:59:54.20	224.26	28.35	-40.4	-42.8	13.2	2.21e-05	0	61	0	375390208	51	5009
2026-01-14 10:59:55.21	224.51	28.46	-40.3	-42.6	13.3	2.82e-05	0	61	0	378535936	51	4916
2026-01-14 10:59:56.22	224.77	28.58	-40.1	-42.4	13.5	1.44e-05	0	61	0	381681664	51	4804
2026-01-14 10:59:57.23	225.04	28.69	-40.0	-42.3	13.7	6.80e-06	0	61	0	384827392	51	4708
2026-01-14 10:59:58.24	225.30	28.81	-40.0	-42.3	13.7	5.30e-06	0	61	0	387973120	51	4741
2026-01-14 10:59:59.25	225.57	28.92	-40.0	-42.3	13.7	1.22e-05	0	61	0	391118848	51	4711
2026-01-14 11:00:00.26	225.83	29.03	-40.0	-42.3	13.6	7.60e-06	0	61	0	394264576	51	4738
2026-01-14 11:00:01.27	226.10	29.15	-40.1	-42.4	13.5	4.50e-06	0	60	0	397410304	51	4809
2026-01-14 11:00:02.28	226.37	29.26	-40.1	-42.5	13.5	9.10e-06	0	61	0	400556032	51	4824
2026-01-14 11:00:03.29	226.65	29.37	-40.1	-42.5	13.5	1.06e-05	0	61	0	403701760	51	4824
2026-01-14 11:00:04.30	226.92	29.48	-40.1	-42.4	13.5	9.10e-06	0	61	0	406847488	51	4792
2026-01-14 11:00:05.31	227.20	29.60	-40.1	-42.4	13.6	8.30e-06	0	61	0	409993216	51	4794
2026-01-14 11:00:06.32	227.48	29.71	-40.1	-42.4	13.6	5.30e-06	0	61	0	413138944	51	4772
2026-01-14 11:00:07.32	227.75	29.82	-40.1	-42.4	13.6	1.06e-05	0	61	0	416284672	51	4760
2026-01-14 11:00:08.33	228.04	29.93	-40.1	-42.4	13.6	8.30e-06	0	61	0	419430400	51	4794
2026-01-14 11:00:09.35	228.32	30.04	-40.1	-42.3	13.6	1.06e-05	0	61	0	422576128	51	4740
2026-01-14 11:00:10.35	228.61	30.15	-40.1	-42.4	13.6	6.10e-06	0	61	0	425721856	51	4765
2026-01-14 11:00:11.37	228.90	30.26	-40.1	-42.4	13.6	8.30e-06	0	61	0	428867584	51	4775
2026-01-14 11:00:12.37	229.19	30.37	-40.1	-42.4	13.6	1.06e-05	0	61	0	432013312	51	4777
2026-01-14 11:00:13.38	229.48	30.48	-40.1	-42.4	13.6	6.10e-06	0	61	0	435159040	51	4790
2026-01-14 11:00:14.39	229.77	30.59	-40.2	-42.6	13.4	1.22e-05	0	61	0	438304768	51	4871
2026-01-14 11:00:15.40	230.07	30.70	-40.3	-42.6	13.3	1.44e-05	0	61	0	441450496	51	4915
2026-01-14 11:00:16.41	230.37	30.81	-40.3	-42.7	13.3	1.52e-05	0	61	0	444596224	51	4951
2026-01-14 11:00:17.42	230.67	30.92	-40.3	-42.8	13.2	2.36e-05	0	61	0	447741952	51	4985
2026-01-14 11:00:18.43	230.97	31.02	-40.4	-42.8	13.2	2.67e-05	0	61	0	450887680	51	5013
2026-01-14 11:00:19.44	231.27	31.13	-40.4	-42.8	13.2	1.90e-05	0	61	0	454033408	51	4997
2026-01-14 11:00:20.45	231.58	31.24	-40.4	-42.8	13.1	2.21e-05	0	61	0	457179136	51	5021
2026-01-14 11:00:21.46	231.89	31.34	-40.4	-42.8	13.2	3.05e-05	0	61	0	460324864	51	5011
2026-01-14 11:00:22.47	232.20	31.45	-40.4	-42.8	13.1	2.36e-05	0	61	0	463470592	51	5013
2026-01-14 11:00:23.48	232.51	31.56	-40.4	-42.7	13.2	2.28e-05	0	61	0	466616320	51	4980
2026-01-14 11:00:24.49	232.82	31.66	-40.3	-42.7	13.2	1.52e-05	0	61	0	469762048	51	4983
2026-01-14 11:00:25.50	233.14	31.76	-40.3	-42.7	13.3	1.98e-05	0	61	0	472907776	51	4950
2026-01-14 11:00:26.51	233.45	31.87	-40.4	-42.8	13.2	2.36e-05	0	61	0	476053504	51	5009
2026-01-14 11:00:27.52	233.77	31.97	-40.5	-43.0	13.0	3.66e-05	0	61	0	479199232	51	5121
2026-01-14 11:00:28.53	234.10	32.07	-40.6	-43.2	12.8	6.10e-05	0	61	0	482344960	51	5222
2026-01-14 11:00:29.54	234.42	32.17	-40.7	-43.3	12.7	7.62e-05	0	61	0	485490688	51	5288
2026-01-14 11:00:30.55	234.75	32.27	-40.7	-43.2	12.7	8.85e-05	0	61	0	488636416	52	4977
2026-01-14 11:00:31.56	235.07	32.37	-40.7	-43.3	12.6	1.14e-04	0	61	0	491782144	52	5040
2026-01-14 11:00:32.57	235.40	32.47	-40.7	-43.4	12.5	1.02e-04	0	61	0	494927872	52	5063
2026-01-14 11:00:33.58	235.73	32.57	-40.7	-43.4	12.6	1.06e-04	0	61	0	498073600	52	5049
2026-01-14 11:00:34.59	236.07	32.67	-40.7	-43.3	12.7	7.55e-05	0	61	0	502267904	52	4993
2026-01-14 11:00:35.60	236.40	32.77	-40.7	-43.3	12.6	8.77e-05	0	61	0	504365056	52	5030
2026-01-14 11:00:36.61	236.74	32.86	-40.8	-43.4	12.5	1.25e-04	0	61	0	507510784	52	5090
2026-01-14 11:00:37.62	237.08	32.96	-40.9	-43.5	12.4	1.46e-04	0	61	0	510656512	52	5153
2026-01-14 11:00:38.63	237.42	33.05	-40.9	-43.7	12.3	2.04e-04	0	61	0	513802240	52	5223
2026-01-14 11:00:39.64	237.76	33.15	-41.0	-43.8	12.2	2.37e-04	0	61	0	517996544	52	5287
2026-01-14 11:00:40.65	238.11	33.24	-41.1	-44.0	11.9	3.71e-04	0	61	0	521142272	52	5425
2026-01-14 11:00:41.66	238.46	33.33	-41.1	-44.0	11.9	3.77e-04	0	61	0	524288000	52	5417
2026-01-14 11:00:42.67	238.81	33.43	-41.1	-43.9	12.0	3.93e-04	0	61	0	527433728	52	5398
2026-01-14 11:00:43.68	239.16	33.52	-41.0	-43.8	12.1	3.10e-04	0	61	0	529530880	52	5304
2026-01-14 11:00:44.69	239.51	33.61	-41.0	-43.8	12.1	2.33e-04	0	61	0	533725184	52	5315
2026-01-14 11:00:45.70	239.87	33.69	-41.1	-43.9	12.0	3.39e-04	0	61	0	536870912	52	5376
2026-01-14 11:00:46.71	240.22	33.78	-41.1	-43.9	12.0	3.97e-04	0	61	0	540016640	52	5391
2026-01-14 11:00:47.72	240.58	33.87	-41.2	-44.1	11.8	5.19e-04	0	61	0	543162368	53	5188
2026-01-14 11:00:48.73	240.94	33.95	-41.1	-43.9	12.1	3.44e-04	0	61	0	546308096	53	5049
2026-01-14 11:00:49.74	241.30	34.04	-41.0	-43.7	12.1	2.53e-04	0	61	0	549453824	53	4965
2026-01-14 11:00:50.75	241.67	34.12	-41.0	-43.7	12.1	2.59e-04	0	61	0	552599552	53	4974
2026-01-14 11:00:51.76	242.03	34.21	-41.0	-43.8	12.1	2.93e-04	0	61	0	555745280	53	5012
2026-01-14 11:00:52.77	242.40	34.29	-41.0	-43.7	12.2	2.59e-04	0	61	0	558891008	53	4972
2026-01-14 11:00:53.79	242.78	34.37	-40.9	-43.7	12.2	2.55e-04	0	61	0	562036736	53	4950
2026-01-14 11:00:54.79	243.14	34.45	-40.9	-43.6	12.3	1.99e-04	0	61	0	565182464	53	4908
2026-01-14 11:00:55.80	243.52	34.53	-40.9	-43.6	12.3	1.44e-04	0	61	0	568328192	53	4872
2026-01-14 11:00:56.81	243.89	34.60	-40.7	-43.3	12.6	1.05e-04	0	61	0	571473920	53	4724
2026-01-14 11:00:57.82	244.27	34.68	-40.7	-43.3	12.5	9.38e-05	0	61	0	574619648	53	4726
2026-01-14 11:00:58.83	244.65	34.75	-40.9	-43.6	12.2	1.85e-04	0	61	0	577765376	53	4901
2026-01-14 11:00:59.85	245.03	34.83	-41.0	-43.7	12.1	2.27e-04	0	61	0	580911104	53	4970
2026-01-14 11:01:00.85	245.41	34.90	-41.0	-43.8	12.1	2.69e-04	0	61	0	584056832	53	5013
2026-01-14 11:01:01.86	245.79	34.97	-41.0	-43.8	12.1	2.68e-04	0	61	0	587202560	53	5004
2026-01-14 11:01:02.87	246.18	35.04	-40.9	-43.7	12.2	2.08e-04	0	61	0	590348288	53	4933
2026-01-14 11:01:03.88	246.56	35.11	-40.9	-43.6	12.3	2.19e-04	0	61	0	593494016	53	4899
2026-01-14 11:01:04.89	246.95	35.18	-40.9	-43.7	12.2	2.04e-04	0	61	0	596639744	53	4948
2026-01-14 11:01:05.90	247.34	35.24	-40.9	-43.7	12.2	2.10e-04	0	61	0	599785472	53	4932
2026-01-14 11:01:06.91	247.73	35.31	-41.1	-43.9	12.0	3.20e-04	0	61	0	602931200	53	5077
2026-01-14 11:01:07.92	248.13	35.37	-41.2	-44.0	11.9	4.42e-04	0	61	0	606076928	53	5142
2026-01-14 11:01:08.93	248.52	35.43	-41.0	-43.8	12.0	3.43e-04	0	61	0	609222656	53	5039
2026-01-14 11:01:09.94	248.92	35.49	-40.9	-43.6	12.3	2.41e-04	0	61	0	612368384	53	4910
2026-01-14 11:01:10.95	249.31	35.55	-40.8	-43.5	12.4	1.73e-04	0	61	0	615514112	53	4843
2026-01-14 11:01:11.96	249.71	35.61	-40.8	-43.5	12.4	1.37e-04	0	61	0	618659840	53	4847
2026-01-14 11:01:12.97	250.11	35.67	-40.9	-43.6	12.3	1.90e-04	0	61	0	621805568	53	4913
2026-01-14 11:01:13.98	250.51	35.72	-40.9	-43.6	12.3	2.03e-04	0	61	0	624951296	53	4912
2026-01-14 11:01:14.99	250.92	35.77	-40.8	-43.6	12.3	1.65e-04	0	61	0	628097024	53	4884
2026-01-14 11:01:16.00	251.32	35.83	-40.8	-43.5	12.3	1.52e-04	0	61	0	631242752	53	4870
2026-01-14 11:01:17.01	251.73	35.88	-40.8	-43.6	12.3	1.90e-04	0	61	0	634388480	53	4885
2026-01-14 11:01:18.02	252.13	35.93	-40.9	-43.7	12.1	2.30e-04	0	61	0	637534208	53	4957
2026-01-14 11:01:19.02	252.54	35.97	-41.0	-43.9	12.0	2.75e-04	0	61	0	640679936	53	5049
2026-01-14 11:01:20.03	252.94	36.02	-41.0	-44.0	11.9	3.82e-04	0	61	0	643825664	53	5108
2026-01-14 11:01:21.04	253.35	36.06	-40.9	-43.7	12.2	3.04e-04	0	61	0	646971392	53	4970
2026-01-14 11:01:22.05	253.77	36.11	-40.8	-43.5	12.4	1.60e-04	0	61	0	650117120	53	4842
2026-01-14 11:01:23.06	254.18	36.15	-40.7	-43.4	12.5	1.07e-04	0	61	0	653262848	53	4790
2026-01-14 11:01:24.07	254.59	36.19	-40.8	-43.5	12.3	1.52e-04	0	61	0	656408576	53	4869
2026-01-14 11:01:25.09	255.01	36.23	-41.1	-44.0	11.9	2.70e-04	0	61	0	659554304	53	5102
2026-01-14 11:01:26.10	255.42	36.26	-41.2	-44.2	11.7	5.42e-04	0	61	0	662700032	53	5242
2026-01-14 11:01:27.11	255.84	36.30	-41.2	-44.2	11.7	6.61e-04	0	61	0	665845760	53	5238
2026-01-14 11:01:28.12	256.25	36.33	-41.2	-44.1	11.7	5.79e-04	0	61	0	668991488	53	5202
2026-01-14 11:01:29.13	256.67	36.36	-41.2	-44.1	11.8	5.28e-04	0	61	0	672137216	53	5200
2026-01-14 11:01:30.14	257.09	36.39	-41.1	-44.0	11.8	5.62e-04	0	61	0	675282944	53	5147
2026-01-14 11:01:31.15	257.51	36.42	-41.1	-43.9	11.9	4.32e-04	0	61	0	678428672	53	5095
2026-01-14 11:01:32.16	257.93	36.45	-41.1	-44.1	11.8	5.11e-04	0	61	0	681574400	53	5175
2026-01-14 11:01:33.17	258.35	36.47	-41.1	-44.1	11.7	5.49e-04	0	61	0	684720128	53	5190
2026-01-14 11:01:34.18	258.77	36.49	-41.2	-44.2	11.7	5.40e-04	0	61	0	687865856	53	5229
2026-01-14 11:01:35.19	259.19	36.52	-41.2	-44.1	11.7	6.61e-04	0	61	0	691011584	53	5212
2026-01-14 11:01:36.20	259.61	36.54	-41.2	-44.2	11.7	5.90e-04	0	61	0	694157312	53	5236
2026-01-14 11:01:37.21	260.03	36.55	-41.2	-44.2	11.7	7.21e-04	0	61	0	697303040	53	5234
2026-01-14 11:01:38.22	260.46	36.57	-41.0	-43.9	12.0	4.29e-04	0	61	0	700448768	53	5050
2026-01-14 11:01:39.23	260.88	36.58	-41.0	-43.8	12.1	2.72e-04	0	61	0	703594496	53	4990
2026-01-14 11:01:40.24	261.30	36.60	-41.0	-43.9	12.0	3.21e-04	0	61	0	706740224	53	5066
2026-01-14 11:01:41.25	261.73	36.61	-41.1	-44.0	11.9	4.51e-04	0	61	0	709885952	53	5104
2026-01-14 11:01:42.26	262.15	36.62	-41.2	-44.1	11.8	4.86e-04	0	61	0	713031680	53	5166
2026-01-14 11:01:43.26	262.57	36.63	-40.9	-43.8	12.0	3.33e-04	0	61	0	716177408	53	4995
2026-01-14 11:01:44.27	263.00	36.63	-41.0	-43.8	12.0	3.58e-04	0	61	0	719323136	53	5041
2026-01-14 11:01:45.28	263.42	36.64	-40.9	-43.7	12.1	2.68e-04	0	61	0	722468864	53	4972
2026-01-14 11:01:46.29	263.85	36.64	-40.9	-43.7	12.1	2.43e-04	0	61	0	725614592	53	4973
2026-01-14 11:01:47.30	264.27	36.64	-40.9	-43.7	12.1	2.93e-04	0	61	0	728760320	53	4977
2026-01-14 11:01:48.31	264.69	36.64	-40.9	-43.8	12.0	2.68e-04	0	61	0	731906048	53	5013
2026-01-14 11:01:49.32	265.12	36.64	-40.9	-43.7	12.1	2.46e-04	0	61	0	735051776	53	4968
2026-01-14 11:01:50.33	265.54	36.63	-41.0	-43.9	12.0	3.49e-04	0	61	0	738197504	53	5064
2026-01-14 11:01:51.34	265.97	36.63	-41.0	-43.9	12.0	3.68e-04	0	61	0	741343232	53	5048
2026-01-14 11:01:52.35	266.39	36.62	-40.8	-43.7	12.2	2.64e-04	0	61	0	744488960	53	4932
2026-01-14 11:01:53.36	266.82	36.61	-40.8	-43.7	12.2	2.33e-04	0	61	0	747634688	53	4939
2026-01-14 11:01:54.37	267.24	36.60	-40.8	-43.7	12.2	2.08e-04	0	61	0	750780416	53	4937
2026-01-14 11:01:55.38	267.66	36.59	-40.8	-43.8	12.1	2.86e-04	0	61	0	753926144	53	4994
2026-01-14 11:01:56.39	268.09	36.57	-40.8	-43.8	12.0	3.48e-04	0	61	0	757071872	53	5008
2026-01-14 11:01:57.40	268.51	36.55	-40.8	-43.9	11.9	3.23e-04	0	61	0	760217600	53	5054
2026-01-14 11:01:58.41	268.93	36.54	-40.6	-43.5	12.3	2.26e-04	0	61	0	763363328	53	4845
2026-01-14 11:01:59.42	269.35	36.52	-40.7	-43.6	12.3	1.59e-04	0	61	0	766509056	53	4886
2026-01-14 11:02:00.43	269.77	36.50	-40.8	-43.8	12.1	2.81e-04	0	61	0	769654784	53	4992
2026-01-14 11:02:01.43	270.19	36.47	-41.0	-44.0	11.8	3.94e-04	0	61	0	772800512	53	5105
2026-01-14 11:02:02.44	270.61	36.45	-41.1	-44.2	11.6	7.35e-04	0	61	0	775946240	53	5239
2026-01-14 11:02:03.46	271.03	36.42	-41.0	-44.1	11.8	5.71e-04	0	61	0	779091968	53	5176
2026-01-14 11:02:04.46	271.45	36.39	-41.0	-44.0	11.8	4.86e-04	0	61	0	782237696	53	5130
2026-01-14 11:02:05.48	271.87	36.36	-41.0	-43.9	11.8	4.58e-04	0	61	0	785383424	53	5100
2026-01-14 11:02:06.49	272.28	36.33	-41.1	-44.2	11.6	5.85e-04	0	61	0	788529152	53	5248
2026-01-14 11:02:07.49	272.70	36.30	-41.1	-44.1	11.7	6.19e-04	0	61	0	791674880	53	5208
2026-01-14 11:02:08.50	273.11	36.26	-41.0	-44.0	11.8	5.07e-04	0	61	0	794820608	53	5147
2026-01-14 11:02:09.51	273.53	36.23	-40.9	-44.0	11.9	4.64e-04	0	61	0	797966336	53	5120
2026-01-14 11:02:10.53	273.94	36.19	-40.9	-43.9	11.9	4.44e-04	0	61	0	801112064	53	5089
2026-01-14 11:02:11.54	274.36	36.15	-41.0	-44.1	11.7	5.56e-04	0	61	0	804257792	53	5187
2026-01-14 11:02:12.55	274.77	36.11	-41.0	-44.0	11.8	5.10e-04	0	61	0	807403520	53	5155
2026-01-14 11:02:13.56	275.18	36.07	-41.1	-44.2	11.6	6.45e-04	0	61	0	810549248	53	5233
2026-01-14 11:02:14.57	275.59	36.02	-41.1	-44.1	11.7	5.71e-04	0	61	0	813694976	53	5174
2026-01-14 11:02:15.58	275.99	35.98	-41.2	-44.2	11.6	7.52e-04	0	61	0	816840704	53	5271
2026-01-14 11:02:16.59	276.40	35.93	-41.3	-44.3	11.5	7.96e-04	0	61	0	821035008	53	5318
2026-01-14 11:02:17.60	276.81	35.88	-41.4	-44.5	11.3	1.00e-03	0	61	0	823132160	53	5444
2026-01-14 11:02:18.61	277.21	35.83	-41.4	-44.6	11.2	1.35e-03	0	61	0	826277888	53	5491
2026-01-14 11:02:19.62	277.62	35.78	-41.2	-44.2	11.6	8.14e-04	0	61	0	829423616	53	5274
2026-01-14 11:02:20.63	278.02	35.73	-41.1	-44.1	11.7	5.97e-04	0	61	0	832569344	53	5210
2026-01-14 11:02:21.64	278.42	35.67	-41.1	-44.1	11.8	5.83e-04	0	61	0	836763648	53	5199
2026-01-14 11:02:22.65	278.82	35.62	-40.9	-43.9	12.0	3.62e-04	0	61	0	839909376	53	5048
2026-01-14 11:02:23.66	279.21	35.56	-40.8	-43.8	12.1	2.74e-04	0	61	0	843055104	53	4996
2026-01-14 11:02:24.67	279.61	35.50	-40.9	-43.8	12.0	3.35e-04	0	61	0	845152256	53	5028
2026-01-14 11:02:25.68	280.01	35.44	-40.9	-43.9	11.9	3.36e-04	0	61	0	849346560	53	5092
2026-01-14 11:02:26.69	280.40	35.38	-40.9	-43.8	12.0	3.24e-04	0	61	0	852492288	53	5041
2026-01-14 11:02:27.70	280.79	35.31	-40.9	-43.9	11.9	4.12e-04	0	61	0	855638016	53	5061
2026-01-14 11:02:28.71	281.18	35.25	-41.0	-44.1	11.7	4.62e-04	0	61	0	858783744	53	5185
2026-01-14 11:02:29.72	281.57	35.18	-41.0	-44.1	11.7	6.01e-04	0	61	0	861929472	53	5205
2026-01-14 11:02:30.73	281.96	35.12	-41.0	-44.2	11.6	6.34e-04	0	61	0	865075200	53	5237
2026-01-14 11:02:31.74	282.34	35.05	-41.1	-44.2	11.6	7.80e-04	0	61	0	868220928	53	5278
2026-01-14 11:02:32.75	282.73	34.98	-41.0	-44.2	11.6	6.93e-04	0	61	0	871366656	53	5234
2026-01-14 11:02:33.76	283.11	34.91	-40.8	-44.0	11.8	4.81e-04	0	61	0	874512384	53	5155
2026-01-14 11:02:34.77	283.49	34.84	-40.7	-43.8	12.0	4.02e-04	0	61	0	877658112	53	5024
2026-01-14 11:02:35.78	283.87	34.76	-40.7	-43.8	12.0	3.56e-04	0	61	0	880803840	53	5012
2026-01-14 11:02:36.79	284.25	34.69	-40.7	-43.9	11.9	3.58e-04	0	61	0	883949568	53	5063
2026-01-14 11:02:37.80	284.63	34.61	-40.6	-43.9	11.9	3.90e-04	0	61	0	887095296	53	5046
2026-01-14 11:02:38.81	285.00	34.54	-40.6	-43.8	12.0	3.42e-04	0	61	0	890241024	53	4985
2026-01-14 11:02:39.82	285.37	34.46	-40.5	-43.8	12.0	2.98e-04	0	61	0	893386752	52	5311
2026-01-14 11:02:40.83	285.74	34.38	-40.4	-43.7	12.0	3.23e-04	0	61	0	896532480	52	5246
2026-01-14 11:02:41.84	286.11	34.30	-40.5	-43.7	12.0	2.90e-04	0	61	0	899678208	52	5255
2026-01-14 11:02:42.85	286.48	34.22	-40.5	-43.6	12.2	2.47e-04	0	61	0	902823936	52	5166
2026-01-14 11:02:43.86	286.84	34.14	-40.4	-43.6	12.2	1.92e-04	0	61	0	905969664	52	5164
2026-01-14 11:02:44.87	287.21	34.05	-40.3	-43.3	12.5	1.58e-04	0	61	0	909115392	52	5026
2026-01-14 11:02:45.88	287.57	33.97	-40.1	-43.2	12.5	1.02e-04	0	61	0	912261120	52	4976
2026-01-14 11:02:46.89	287.93	33.88	-40.3	-43.5	12.2	1.64e-04	0	61	0	915406848	52	5159
2026-01-14 11:02:47.90	288.29	33.80	-40.4	-43.8	11.9	4.05e-04	0	61	0	918552576	52	5336
2026-01-14 11:02:48.91	288.64	33.71	-40.5	-43.9	11.8	5.05e-04	0	61	0	921698304	52	5386
2026-01-14 11:02:49.92	289.00	33.62	-40.3	-43.7	12.0	3.65e-04	0	61	0	924844032	52	5244
2026-01-14 11:02:50.93	289.35	33.53	-40.3	-43.5	12.2	2.20e-04	0	61	0	927989760	52	5118
2026-01-14 11:02:51.94	289.70	33.44	-40.2	-43.5	12.1	2.49e-04	0	61	0	931135488	52	5140
2026-01-14 11:02:52.95	290.05	33.35	-40.2	-43.5	12.2	2.19e-04	0	61	0	934281216	52	5104
2026-01-14 11:02:53.96	290.39	33.26	-40.2	-43.4	12.3	1.95e-04	0	61	0	937426944	52	5071
2026-01-14 11:02:54.97	290.74	33.17	-40.2	-43.2	12.5	1.27e-04	0	61	0	940572672	52	4978
2026-01-14 11:02:55.98	291.08	33.07	-40.3	-43.3	12.4	1.31e-04	0	61	0	943718400	52	5030
2026-01-14 11:02:56.99	291.42	32.98	-40.4	-43.5	12.2	1.82e-04	0	61	0	946864128	52	5157
2026-01-14 11:02:58.00	291.76	32.88	-40.5	-43.7	12.1	2.50e-04	0	61	0	950009856	52	5222
2026-01-14 11:02:59.01	292.09	32.79	-40.6	-43.7	12.1	2.76e-04	0	61	0	953155584	52	5272
2026-01-14 11:03:00.02	292.43	32.69	-40.5	-43.6	12.2	3.20e-04	0	61	0	956301312	52	5179
2026-01-14 11:03:01.03	292.76	32.59	-40.1	-43.0	12.8	6.94e-05	0	61	0	959447040	52	4847
2026-01-14 11:03:02.04	293.09	32.50	-40.0	-42.9	13.0	4.34e-05	0	61	0	962592768	51	5042
2026-01-14 11:03:03.04	293.42	32.40	-40.0	-42.9	13.0	3.58e-05	0	61	0	965738496	51	5083
2026-01-14 11:03:04.05	293.74	32.30	-39.9	-42.8	13.1	4.19e-05	0	61	0	968884224	51	5011
2026-01-14 11:03:05.06	294.07	32.20	-40.0	-42.9	12.9	3.96e-05	0	61	0	972029952	51	5082
2026-01-14 11:03:06.07	294.39	32.10	-40.1	-43.1	12.8	4.95e-05	0	61	0	975175680	51	5165
2026-01-14 11:03:07.08	294.71	32.00	-40.2	-43.1	12.7	6.25e-05	0	61	0	978321408	51	5218
2026-01-14 11:03:08.09	295.03	31.89	-40.1	-43.0	12.8	6.48e-05	0	61	0	981467136	51	5130
2026-01-14 11:03:09.11	295.35	31.79	-40.1	-43.0	12.9	5.56e-05	0	61	0	984612864	51	5136
2026-01-14 11:03:10.12	295.67	31.69	-40.1	-43.0	12.8	6.71e-05	0	61	0	987758592	51	5150
2026-01-14 11:03:11.12	295.97	31.59	-40.1	-43.0	12.8	6.17e-05	0	61	0	990904320	51	5149
2026-01-14 11:03:12.14	296.29	31.48	-40.0	-43.0	12.9	5.11e-05	0	61	0	994050048	51	5103
2026-01-14 11:03:13.15	296.60	31.38	-40.0	-42.9	13.0	4.95e-05	0	61	0	997195776	51	5043
2026-01-14 11:03:14.16	296.90	31.27	-39.9	-42.7	13.2	2.97e-05	0	61	0	1000341504	51	4944
2026-01-14 11:03:15.17	297.21	31.16	-39.8	-42.5	13.3	1.60e-05	0	61	0	1003487232	51	4866
2026-01-14 11:03:16.18	297.51	31.06	-39.7	-42.4	13.4	1.06e-05	0	61	0	1006632960	51	4783
2026-01-14 11:03:17.19	297.81	30.95	-39.7	-42.4	13.4	9.10e-06	0	61	0	1009778688	51	4813
2026-01-14 11:03:18.20	298.11	30.84	-39.8	-42.6	13.2	2.74e-05	0	61	0	1012924416	51	4890
2026-01-14 11:03:19.20	298.41	30.74	-39.9	-42.8	13.0	2.51e-05	0	61	0	1016070144	51	5016
2026-01-14 11:03:20.21	298.70	30.63	-40.0	-42.9	12.9	5.95e-05	0	61	0	1019215872	51	5088
2026-01-14 11:03:21.22	298.99	30.52	-40.0	-42.9	12.9	4.88e-05	0	61	0	1022361600	51	5094
2026-01-14 11:03:22.23	299.29	30.41	-40.0	-43.0	12.9	5.34e-05	0	61	0	1025507328	51	5104
2026-01-14 11:03:23.24	299.57	30.30	-39.8	-42.7	13.2	1.98e-05	0	61	0	1028653056	51	4930
2026-01-14 11:03:24.25	299.86	30.19	-39.9	-42.6	13.2	2.67e-05	0	61	0	1031798784	51	4912
2026-01-14 11:03:25.26	300.15	30.08	-39.9	-42.7	13.2	2.82e-05	0	61	0	1034944512	51	4940
2026-01-14 11:03:26.27	300.43	29.97	-40.0	-42.7	13.1	2.82e-05	0	61	0	1038090240	51	4975
2026-01-14 11:03:27.28	300.71	29.86	-39.9	-42.7	13.1	2.28e-05	0	61	0	1041235968	51	4965
2026-01-14 11:03:28.29	300.99	29.75	-39.9	-42.7	13.1	2.36e-05	0	61	0	1044381696	51	4974
2026-01-14 11:03:29.30	301.27	29.64	-40.0	-42.8	13.0	4.27e-05	0	61	0	1047527424	51	5039
2026-01-14 11:03:30.32	301.55	29.53	-40.1	-42.9	12.9	5.34e-05	0	61	0	1050673152	51	5098
2026-01-14 11:03:31.32	301.82	29.42	-40.0	-42.9	12.9	4.88e-05	0	61	0	1053818880	51	5082
2026-01-14 11:03:32.33	302.09	29.30	-40.0	-42.9	12.9	4.80e-05	0	61	0	1056964608	51	5096
2026-01-14 11:03:33.34	302.36	29.19	-39.9	-42.7	13.1	3.05e-05	0	61	0	1060110336	51	4958
2026-01-14 11:03:34.35	302.63	29.08	-39.8	-42.4	13.3	2.36e-05	0	61	0	1063256064	51	4810
2026-01-14 11:03:35.36	302.90	28.97	-39.7	-42.4	13.4	1.22e-05	0	61	0	1066401792	51	4764
2026-01-14 11:03:36.37	303.16	28.85	-39.7	-42.2	13.6	9.10e-06	0	61	0	1069547520	51	4681
2026-01-14 11:03:37.38	303.43	28.74	-39.6	-42.1	13.7	9.90e-06	0	61	0	1072693248	51	4611
2026-01-14 11:03:38.39	303.69	28.63	-39.5	-42.0	13.8	4.50e-06	0	61	0	1075838976	51	4558
2026-01-14 11:03:39.40	303.95	28.52	-39.5	-42.0	13.8	6.10e-06	0	61	0	1078984704	50	4834
2026-01-14 11:03:40.41	304.20	28.40	-39.5	-42.0	13.8	1.50e-06	0	61	0	1082130432	50	4823
2026-01-14 11:03:41.42	304.46	28.29	-39.5	-41.9	13.9	4.50e-06	0	61	0	1085276160	50	4805
2026-01-14 11:03:42.43	304.71	28.17	-39.4	-41.8	14.0	1.50e-06	0	61	0	1088421888	50	4747
2026-01-14 11:03:43.44	304.97	28.06	-39.4	-41.8	14.0	3.00e-06	0	61	0	1091567616	50	4748
2026-01-14 11:03:44.45	305.22	27.95	-39.5	-41.9	13.9	5.30e-06	0	61	0	1094713344	50	4806
2026-01-14 11:03:45.46	305.46	27.83	-39.7	-42.1	13.7	6.80e-06	0	61	0	1097859072	50	4914
2026-01-14 11:03:46.47	305.71	27.72	-39.8	-42.3	13.4	1.22e-05	0	61	0	1101004800	50	5037
2026-01-14 11:03:47.48	305.96	27.60	-39.9	-42.5	13.3	1.75e-05	0	61	0	1104150528	50	5109
2026-01-14 11:03:48.49	306.20	27.49	-39.9	-42.5	13.3	2.51e-05	0	61	0	1107296256	50	5107
2026-01-14 11:03:49.50	306.44	27.38	-39.9	-42.4	13.4	1.29e-05	0	61	0	1110441984	50	5081
2026-01-14 11:03:50.51	306.68	27.26	-39.9	-42.4	13.3	1.44e-05	0	61	0	1113587712	50	5098
2026-01-14 11:03:51.52	306.92	27.15	-40.0	-42.5	13.2	1.52e-05	0	61	0	1116733440	50	5146
2026-01-14 11:03:52.53	307.16	27.03	-39.9	-42.4	13.4	9.90e-06	0	61	0	1119879168	50	5075
2026-01-14 11:03:53.54	307.39	26.92	-39.9	-42.4	13.4	1.52e-05	0	61	0	1123024896	50	5069
2026-01-14 11:03:54.55	307.63	26.80	-40.0	-42.5	13.3	1.14e-05	0	61	0	1126170624	50	5125
2026-01-14 11:03:55.56	307.86	26.69	-40.0	-42.5	13.2	2.74e-05	0	61	0	1129316352	50	5153
2026-01-14 11:03:56.57	308.09	26.57	-39.8	-42.3	13.5	1.44e-05	0	61	0	1132462080	50	5001
2026-01-14 11:03:57.58	308.32	26.46	-39.8	-42.3	13.5	1.06e-05	0	61	0	1135607808	50	4988
2026-01-14 11:03:58.59	308.54	26.34	-39.9	-42.4	13.4	1.29e-05	0	61	0	1138753536	50	5073
2026-01-14 11:03:59.60	308.77	26.23	-39.9	-42.4	13.3	1.52e-05	0	61	0	1141899264	50	5086
2026-01-14 11:04:00.61	308.99	26.12	-39.8	-42.3	13.5	1.37e-05	0	61	0	1145044992	50	4997
2026-01-14 11:04:01.62	309.21	26.00	-39.8	-42.3	13.5	1.60e-05	0	61	0	1148190720	50	4992
2026-01-14 11:04:02.63	309.44	25.89	-39.9	-42.4	13.4	2.05e-05	0	61	0	1151336448	50	5048
2026-01-14 11:04:03.64	309.65	25.77	-39.9	-42.3	13.4	1.22e-05	0	61	0	1155530752	50	5020
2026-01-14 11:04:04.65	309.87	25.66	-39.9	-42.3	13.5	9.90e-06	0	61	0	1158676480	50	4997
2026-01-14 11:04:05.66	310.09	25.54	-39.8	-42.1	13.6	9.10e-06	0	61	0	1160773632	50	4916
2026-01-14 11:04:06.66	310.30	25.43	-39.8	-42.1	13.6	3.80e-06	0	61	0	1163919360	50	4916
2026-01-14 11:04:07.67	310.51	25.32	-39.9	-42.3	13.5	1.37e-05	0	61	0	1167065088	50	4995
2026-01-14 11:04:08.68	310.72	25.20	-40.1	-42.5	13.3	1.29e-05	0	61	0	1171259392	50	5101
2026-01-14 11:04:09.69	310.93	25.09	-40.1	-42.5	13.3	1.60e-05	0	61	0	1174405120	50	5103
2026-01-14 11:04:10.70	311.14	24.98	-40.0	-42.3	13.5	1.52e-05	0	61	0	1177550848	50	5028
2026-01-14 11:04:11.71	311.35	24.86	-40.1	-42.4	13.3	1.44e-05	0	61	0	1180696576	50	5099
2026-01-14 11:04:12.72	311.56	24.75	-40.1	-42.4	13.3	2.36e-05	0	61	0	1183842304	50	5099
2026-01-14 11:04:13.73	311.76	24.64	-40.0	-42.4	13.4	1.37e-05	0	61	0	1185939456	50	5056
2026-01-14 11:04:14.74	311.96	24.52	-40.0	-42.3	13.5	1.44e-05	0	61	0	1190133760	50	5005
2026-01-14 11:04:15.75	312.16	24.41	-40.0	-42.3	13.4	1.67e-05	0	61	0	1193279488	50	5036
2026-01-14 11:04:16.76	312.36	24.30	-40.0	-42.3	13.5	1.22e-05	0	61	0	1196425216	50	5014
2026-01-14 11:04:17.77	312.56	24.18	-39.9	-42.3	13.5	1.22e-05	0	61	0	1199570944	50	4986
2026-01-14 11:04:18.78	312.76	24.07	-39.9	-42.2	13.5	9.90e-06	0	61	0	1202716672	50	4948
2026-01-14 11:04:19.79	312.95	23.96	-39.9	-42.2	13.6	1.22e-05	0	61	0	1205862400	50	4943
2026-01-14 11:04:20.80	313.15	23.85	-39.9	-42.2	13.5	9.10e-06	0	61	0	1209008128	50	4970
2026-01-14 11:04:21.82	313.34	23.73	-40.0	-42.3	13.4	9.90e-06	0	61	0	1212153856	50	5007
2026-01-14 11:04:22.82	313.53	23.62	-40.0	-42.3	13.5	9.90e-06	0	61	0	1215299584	50	4989
2026-01-14 11:04:23.83	313.72	23.51	-40.0	-42.3	13.4	1.83e-05	0	61	0	1218445312	50	5016
2026-01-14 11:04:24.84	313.91	23.40	-39.9	-42.2	13.5	1.29e-05	0	61	0	1221591040	50	4963
2026-01-14 11:04:25.85	314.10	23.29	-39.9	-42.2	13.6	9.90e-06	0	61	0	1224736768	50	4956
2026-01-14 11:04:26.86	314.29	23.17	-40.0	-42.3	13.4	8.30e-06	0	61	0	1227882496	50	5023
2026-01-14 11:04:27.87	314.47	23.06	-40.0	-42.4	13.3	1.75e-05	0	61	0	1231028224	50	5072
2026-01-14 11:04:28.88	314.66	22.95	-40.1	-42.5	13.2	1.90e-05	0	61	0	1234173952	50	5145
2026-01-14 11:04:29.89	314.84	22.84	-40.2	-42.7	13.0	2.36e-05	0	61	0	1237319680	51	4943
2026-01-14 11:04:30.90	315.02	22.73	-40.1	-42.5	13.2	2.51e-05	0	61	0	1240465408	51	4852
2026-01-14 11:04:31.91	315.20	22.62	-40.1	-42.5	13.2	1.90e-05	0	61	0	1243611136	51	4823
2026-01-14 11:04:32.92	315.38	22.51	-40.1	-42.5	13.2	2.44e-05	0	61	0	1246756864	51	4860
2026-01-14 11:04:33.93	315.56	22.40	-40.2	-42.6	13.1	2.89e-05	0	61	0	1249902592	51	4884
2026-01-14 11:04:34.94	315.73	22.29	-40.3	-42.7	12.9	3.43e-05	0	61	0	1253048320	51	4983
2026-01-14 11:04:35.95	315.91	22.18	-40.1	-42.5	13.1	2.21e-05	0	61	0	1256194048	51	4865
2026-01-14 11:04:36.96	316.08	22.07	-40.2	-42.6	13.1	2.74e-05	0	61	0	1259339776	51	4912
2026-01-14 11:04:37.97	316.25	21.96	-40.2	-42.7	13.0	3.73e-05	0	61	0	1262485504	51	4947
2026-01-14 11:04:38.98	316.43	21.85	-40.2	-42.7	13.0	3.73e-05	0	61	0	1265631232	51	4941
2026-01-14 11:04:39.99	316.60	21.74	-40.3	-42.7	12.9	4.27e-05	0	61	0	1268776960	51	4976
2026-01-14 11:04:41.00	316.76	21.64	-40.2	-42.6	13.1	3.73e-05	0	61	0	1271922688	51	4923
2026-01-14 11:04:42.01	316.93	21.53	-40.3	-42.7	12.9	3.35e-05	0	61	0	1275068416	51	4967
2026-01-14 11:04:43.02	317.10	21.42	-40.3	-42.8	12.8	4.34e-05	0	61	0	1278214144	51	5038
2026-01-14 11:04:44.03	317.27	21.31	-40.3	-42.8	12.9	6.71e-05	0	61	0	1281359872	51	5020
2026-01-14 11:04:45.04	317.43	21.20	-40.3	-42.8	12.9	5.41e-05	0	61	0	1284505600	51	5022
2026-01-14 11:04:46.04	317.59	21.10	-40.4	-42.9	12.8	6.02e-05	0	61	0	1287651328	51	5073
2026-01-14 11:04:47.05	317.75	20.99	-40.4	-42.9	12.8	8.16e-05	0	61	0	1290797056	51	5084
2026-01-14 11:04:48.06	317.92	20.88	-40.3	-42.8	12.9	6.94e-05	0	61	0	1293942784	51	4994
2026-01-14 11:04:49.07	318.08	20.78	-40.2	-42.7	13.0	3.73e-05	0	61	0	1297088512	51	4936
2026-01-14 11:04:50.09	318.24	20.67	-40.2	-42.7	13.0	3.58e-05	0	61	0	1300234240	51	4947
2026-01-14 11:04:51.10	318.39	20.56	-40.2	-42.6	13.0	3.73e-05	0	61	0	1303379968	51	4911
2026-01-14 11:04:52.11	318.55	20.46	-40.1	-42.5	13.1	2.59e-05	0	61	0	1306525696	51	4854
2026-01-14 11:04:53.12	318.71	20.35	-40.1	-42.5	13.2	3.50e-05	0	61	0	1309671424	51	4849
2026-01-14 11:04:54.13	318.86	20.25	-40.2	-42.6	13.0	3.35e-05	0	61	0	1312817152	51	4888
2026-01-14 11:04:55.14	319.02	20.14	-40.1	-42.5	13.1	2.89e-05	0	61	0	1315962880	51	4858
2026-01-14 11:04:56.15	319.17	20.03	-40.0	-42.4	13.2	1.98e-05	0	61	0	1319108608	51	4802
2026-01-14 11:04:57.16	319.32	19.93	-40.1	-42.5	13.1	2.36e-05	0	61	0	1322254336	51	4850
2026-01-14 11:04:58.17	319.47	19.83	-40.2	-42.6	13.0	4.80e-05	0	61	0	1325400064	51	4912
2026-01-14 11:04:59.18	319.62	19.72	-40.2	-42.7	12.9	4.80e-05	0	61	0	1328545792	51	4932
2026-01-14 11:05:00.19	319.77	19.62	-40.2	-42.7	12.8	5.87e-05	0	61	0	1331691520	51	4979
2026-01-14 11:05:01.20	319.92	19.51	-40.1	-42.5	13.1	3.89e-05	0	61	0	1334837248	51	4842
2026-01-14 11:05:02.20	320.06	19.41	-40.0	-42.4	13.2	2.89e-05	0	61	0	1337982976	51	4799
2026-01-14 11:05:03.21	320.21	19.31	-40.0	-42.4	13.2	1.90e-05	0	61	0	1341128704	51	4770
2026-01-14 11:05:04.22	320.36	19.20	-39.9	-42.3	13.3	2.28e-05	0	61	0	1344274432	51	4731
2026-01-14 11:05:05.23	320.50	19.10	-40.0	-42.3	13.2	1.90e-05	0	61	0	1347420160	51	4759
2026-01-14 11:05:06.24	320.64	19.00	-39.9	-42.3	13.3	1.44e-05	0	61	0	1350565888	51	4716
2026-01-14 11:05:07.25	320.79	18.90	-40.0	-42.4	13.1	2.51e-05	0	61	0	1353711616	51	4810
2026-01-14 11:05:08.26	320.93	18.79	-40.0	-42.4	13.1	3.20e-05	0	61	0	1356857344	51	4796
2026-01-14 11:05:09.27	321.07	18.69	-40.1	-42.6	13.0	3.20e-05	0	61	0	1360003072	51	4882
2026-01-14 11:05:10.28	321.21	18.59	-40.2	-42.7	12.9	5.11e-05	0	61	0	1363148800	51	4936
2026-01-14 11:05:11.29	321.35	18.49	-40.3	-42.8	12.8	5.56e-05	0	61	0	1366294528	51	4988
2026-01-14 11:05:12.30	321.48	18.39	-40.3	-42.8	12.7	7.09e-05	0	61	0	1369440256	51	5027
2026-01-14 11:05:13.31	321.62	18.29	-40.3	-42.8	12.8	7.24e-05	0	61	0	1372585984	51	5002
2026-01-14 11:05:14.32	321.76	18.19	-40.2	-42.7	12.8	4.42e-05	0	61	0	1375731712	51	4954
2026-01-14 11:05:15.33	321.89	18.09	-40.2	-42.7	12.8	6.25e-05	0	61	0	1378877440	51	4953
2026-01-14 11:05:16.34	322.03	17.99	-40.2	-42.6	12.9	4.88e-05	0	61	0	1382023168	51	4925
2026-01-14 11:05:17.35	322.16	17.89	-40.2	-42.6	12.9	4.34e-05	0	61	0	1385168896	51	4926
2026-01-14 11:05:18.36	322.29	17.79	-40.3	-42.8	12.7	5.41e-05	0	61	0	1388314624	51	5008
2026-01-14 11:05:19.37	322.42	17.69	-40.2	-42.7	12.8	6.33e-05	0	61	0	1391460352	51	4983
2026-01-14 11:05:20.38	322.55	17.59	-40.3	-42.8	12.7	6.33e-05	0	61	0	1394606080	51	5004
2026-01-14 11:05:21.39	322.68	17.49	-40.2	-42.7	12.8	4.34e-05	0	61	0	1397751808	51	4965
2026-01-14 11:05:22.40	322.81	17.39	-40.2	-42.7	12.8	7.17e-05	0	61	0	1400897536	51	4983
2026-01-14 11:05:23.42	322.94	17.30	-40.2	-42.7	12.8	5.03e-05	0	61	0	1404043264	51	4955
2026-01-14 11:05:24.43	323.07	17.20	-40.1	-42.6	12.9	4.73e-05	0	61	0	1407188992	51	4889
2026-01-14 11:05:25.44	323.20	17.10	-40.2	-42.7	12.8	7.24e-05	0	61	0	1410334720	51	4983
2026-01-14 11:05:26.45	323.32	17.00	-40.2	-42.7	12.8	7.01e-05	0	61	0	1413480448	51	4953
2026-01-14 11:05:27.46	323.45	16.91	-40.2	-42.7	12.8	5.11e-05	0	61	0	1416626176	51	4942
2026-01-14 11:05:28.47	323.57	16.81	-40.2	-42.7	12.8	5.79e-05	0	61	0	1419771904	51	4938
2026-01-14 11:05:29.48	323.70	16.71	-40.3	-42.8	12.7	9.53e-05	0	61	0	1422917632	51	5019
2026-01-14 11:05:30.49	323.82	16.62	-40.3	-42.9	12.5	1.04e-04	0	61	0	1426063360	51	5097
2026-01-14 11:05:31.50	323.94	16.52	-40.4	-43.1	12.4	1.28e-04	0	61	0	1429209088	51	5179
2026-01-14 11:05:32.51	324.06	16.42	-40.5	-43.2	12.3	1.75e-04	0	61	0	1432354816	51	5237
2026-01-14 11:05:33.52	324.18	16.33	-40.6	-43.3	12.1	2.30e-04	0	61	0	1435500544	51	5323
2026-01-14 11:05:34.53	324.30	16.23	-40.6	-43.4	12.1	2.97e-04	0	61	0	1438646272	51	5359
2026-01-14 11:05:35.54	324.42	16.14	-40.6	-43.4	12.0	3.11e-04	0	61	0	1441792000	51	5372
2026-01-14 11:05:36.55	324.54	16.04	-40.6	-43.5	11.9	3.36e-04	0	61	0	1444937728	52	5128
2026-01-14 11:05:37.56	324.66	15.95	-40.6	-43.4	11.9	4.35e-04	0	61	0	1448083456	52	5080
2026-01-14 11:05:38.57	324.78	15.85	-40.6	-43.4	12.0	3.17e-04	0	61	0	1451229184	52	5067
2026-01-14 11:05:39.58	324.89	15.76	-40.6	-43.5	11.9	3.91e-04	0	61	0	1454374912	52	5107
2026-01-14 11:05:40.59	325.01	15.67	-40.6	-43.5	11.9	3.56e-04	0	61	0	1457520640	52	5105
2026-01-14 11:05:41.60	325.12	15.57	-40.8	-43.6	11.6	5.78e-04	0	61	0	1460666368	52	5217
2026-01-14 11:05:42.61	325.24	15.48	-40.7	-43.6	11.8	4.84e-04	0	61	0	1463812096	52	5167
2026-01-14 11:05:43.62	325.35	15.39	-40.8	-43.7	11.6	5.93e-04	0	61	0	1466957824	52	5235
2026-01-14 11:05:44.63	325.46	15.29	-40.8	-43.8	11.5	8.31e-04	0	61	0	1470103552	52	5305
2026-01-14 11:05:45.64	325.58	15.20	-40.8	-43.7	11.5	8.57e-04	0	61	0	1474297856	52	5265
2026-01-14 11:05:46.65	325.69	15.11	-40.7	-43.6	11.6	6.57e-04	0	61	0	1476395008	52	5216
2026-01-14 11:05:47.66	325.80	15.02	-40.7	-43.7	11.6	6.89e-04	0	61	0	1479540736	52	5245
2026-01-14 11:05:48.67	325.91	14.93	-40.8	-43.7	11.6	6.81e-04	0	61	0	1482686464	52	5246
2026-01-14 11:05:49.68	326.02	14.84	-40.8	-43.7	11.6	8.05e-04	0	61	0	1485832192	52	5271
2026-01-14 11:05:50.69	326.13	14.74	-40.8	-43.7	11.6	7.57e-04	0	61	0	1490026496	52	5261
2026-01-14 11:05:51.70	326.24	14.65	-40.8	-43.7	11.5	6.93e-04	0	61	0	1493172224	52	5264
2026-01-14 11:05:52.71	326.34	14.56	-40.8	-43.8	11.5	8.02e-04	0	61	0	1496317952	52	5295
2026-01-14 11:05:53.72	326.45	14.47	-40.7	-43.6	11.6	6.70e-04	0	61	0	1498415104	52	5217
2026-01-14 11:05:54.73	326.56	14.38	-40.7	-43.6	11.6	6.77e-04	0	61	0	1501560832	52	5205
2026-01-14 11:05:55.74	326.66	14.29	-40.6	-43.5	11.8	5.57e-04	0	61	0	1505755136	52	5121
2026-01-14 11:05:56.75	326.77	14.20	-40.6	-43.5	11.8	5.55e-04	0	61	0	1508900864	52	5124
2026-01-14 11:05:57.76	326.87	14.11	-40.6	-43.5	11.8	4.59e-04	0	61	0	1512046592	52	5126
2026-01-14 11:05:58.77	326.98	14.02	-40.6	-43.5	11.7	6.21e-04	0	61	0	1515192320	52	5133
2026-01-14 11:05:59.78	327.08	13.93	-40.6	-43.5	11.7	5.60e-04	0	61	0	1518338048	52	5134
2026-01-14 11:06:00.79	327.18	13.85	-40.6	-43.5	11.7	6.45e-04	0	61	0	1521483776	52	5148
2026-01-14 11:06:01.80	327.29	13.76	-40.6	-43.6	11.7	6.12e-04	0	61	0	1524629504	52	5170
2026-01-14 11:06:02.81	327.39	13.67	-40.7	-43.6	11.6	6.83e-04	0	61	0	1527775232	52	5203
2026-01-14 11:06:03.82	327.49	13.58	-40.7	-43.6	11.6	7.37e-04	0	61	0	1530920960	52	5215
2026-01-14 11:06:04.83	327.59	13.49	-40.7	-43.7	11.5	8.54e-04	0	61	0	1534066688	52	5245
2026-01-14 11:06:05.84	327.69	13.41	-40.7	-43.7	11.6	8.90e-04	0	61	0	1537212416	52	5225
2026-01-14 11:06:06.85	327.79	13.32	-40.8	-43.8	11.4	9.19e-04	0	61	0	1540358144	52	5288
2026-01-14 11:06:07.86	327.89	13.23	-40.8	-43.9	11.3	1.15e-03	0	61	0	1543503872	52	5346
2026-01-14 11:06:08.87	327.99	13.15	-40.8	-43.9	11.3	1.20e-03	0	61	0	1546649600	52	5344
2026-01-14 11:06:09.88	328.08	13.06	-40.8	-43.8	11.3	1.09e-03	0	61	0	1549795328	52	5324
2026-01-14 11:06:10.89	328.18	12.97	-40.7	-43.8	11.4	8.84e-04	0	61	0	1552941056	52	5282
2026-01-14 11:06:11.90	328.28	12.89	-40.8	-43.9	11.3	1.10e-03	0	61	0	1556086784	52	5358
2026-01-14 11:06:12.91	328.37	12.80	-40.8	-43.9	11.2	1.36e-03	0	61	0	1559232512	52	5386
2026-01-14 11:06:13.92	328.47	12.72	-40.9	-44.0	11.1	1.65e-03	0	61	0	1562378240	52	5448
2026-01-14 11:06:14.93	328.56	12.63	-40.8	-43.9	11.2	1.34e-03	0	61	0	1565523968	52	5352
2026-01-14 11:06:15.95	328.66	12.54	-40.8	-43.9	11.2	1.34e-03	0	61	0	1568669696	52	5362
2026-01-14 11:06:16.96	328.75	12.46	-40.8	-44.0	11.1	1.57e-03	0	61	0	1571815424	52	5416
2026-01-14 11:06:17.97	328.85	12.37	-40.8	-43.9	11.2	1.65e-03	0	61	0	1574961152	52	5356
2026-01-14 11:06:18.98	328.94	12.29	-40.7	-43.8	11.2	1.36e-03	0	61	0	1578106880	52	5332
2026-01-14 11:06:19.99	329.03	12.21	-40.8	-43.9	11.1	1.39e-03	0	61	0	1581252608	52	5386
2026-01-14 11:06:21.00	329.13	12.12	-40.8	-43.9	11.2	1.63e-03	0	61	0	1584398336	52	5342
2026-01-14 11:06:22.01	329.22	12.04	-40.7	-43.8	11.3	1.17e-03	0	61	0	1587544064	52	5284
2026-01-14 11:06:23.02	329.31	11.95	-40.7	-43.7	11.4	1.17e-03	0	61	0	1590689792	52	5237
2026-01-14 11:06:24.03	329.40	11.87	-40.6	-43.7	11.4	9.54e-04	0	61	0	1593835520	52	5222
2026-01-14 11:06:25.04	329.49	11.79	-40.7	-43.8	11.3	1.08e-03	0	61	0	1596981248	52	5296
2026-01-14 11:06:26.05	329.58	11.71	-40.6	-43.7	11.3	1.21e-03	0	61	0	1600126976	52	5252
2026-01-14 11:06:27.05	329.67	11.62	-40.7	-43.8	11.2	1.34e-03	0	61	0	1603272704	52	5293
2026-01-14 11:06:28.06	329.76	11.54	-40.7	-43.8	11.2	1.38e-03	0	61	0	1606418432	52	5298
2026-01-14 11:06:29.07	329.84	11.46	-40.8	-44.0	11.0	1.74e-03	0	61	0	1609564160	52	5427
2026-01-14 11:06:30.09	329.93	11.38	-40.6	-43.7	11.3	1.34e-03	0	61	0	1612709888	52	5267
2026-01-14 11:06:31.10	330.02	11.29	-40.6	-43.7	11.3	1.08e-03	0	61	0	1615855616	52	5252
2026-01-14 11:06:32.11	330.11	11.21	-40.5	-43.6	11.4	1.09e-03	0	61	0	1619001344	52	5180
2026-01-14 11:06:33.12	330.19	11.13	-40.5	-43.5	11.5	9.37e-04	0	61	0	1622147072	52	5105
2026-01-14 11:06:34.13	330.28	11.05	-40.5	-43.5	11.5	1.17e-03	0	61	0	1625292800	52	5142
2026-01-14 11:06:35.14	330.36	10.97	-40.5	-43.5	11.5	7.06e-04	0	61	0	1628438528	52	5136
2026-01-14 11:06:36.15	330.45	10.89	-40.5	-43.5	11.5	8.33e-04	0	61	0	1631584256	52	5119
2026-01-14 11:06:37.16	330.53	10.81	-40.5	-43.5	11.5	8.70e-04	0	61	0	1634729984	52	5126
2026-01-14 11:06:38.17	330.62	10.73	-40.5	-43.5	11.5	8.79e-04	0	61	0	1637875712	52	5134
2026-01-14 11:06:39.18	330.70	10.65	-40.5	-43.5	11.5	8.99e-04	0	61	0	1641021440	52	5108
2026-01-14 11:06:40.19	330.78	10.57	-40.5	-43.5	11.4	1.03e-03	0	61	0	1644167168	52	5146
2026-01-14 11:06:41.20	330.87	10.49	-40.7	-43.8	11.1	1.42e-03	0	61	0	1647312896	52	5318
2026-01-14 11:06:42.21	330.95	10.41	-40.7	-43.8	11.1	1.59e-03	0	61	0	1650458624	52	5323
2026-01-14 11:06:43.22	331.03	10.33	-40.8	-44.0	10.8	2.38e-03	0	61	0	1653604352	52	5460
2026-01-14 11:06:44.23	331.11	10.25	-40.8	-44.1	10.7	2.89e-03	0	61	0	1656750080	52	5501
2026-01-14 11:06:45.24	331.19	10.17	-40.8	-44.1	10.6	4.01e-03	0	61	0	1659895808	52	5528
2026-01-14 11:06:46.25	331.27	10.09	-40.8	-44.2	10.6	3.58e-03	0	61	0	1663041536	52	5534
2026-01-14 11:06:47.26	331.35	10.01	-40.8	-44.2	10.6	3.57e-03	0	61	0	1666187264	52	5546
2026-01-14 11:06:48.27	331.43	9.94	-40.8	-44.2	10.6	3.98e-03	0	61	0	1669332992	52	5536
2026-01-14 11:06:49.28	331.51	9.86	-40.9	-44.3	10.4	4.61e-03	0	61	0	1672478720	52	5608
2026-01-14 11:06:50.29	331.59	9.78	-40.9	-44.4	10.3	5.29e-03	0	61	0	1675624448	52	5673
2026-01-14 11:06:51.30	331.67	9.70	-40.9	-44.4	10.3	5.04e-03	0	61	0	1678770176	52	5675
2026-01-14 11:06:52.31	331.75	9.63	-40.9	-44.5	10.2	6.22e-03	0	61	0	1681915904	52	5725
2026-01-14 11:06:53.32	331.83	9.55	-41.0	-44.7	10.0	7.33e-03	0	61	0	1685061632	52	5864
2026-01-14 11:06:54.33	331.91	9.47	-40.9	-44.6	10.1	6.48e-03	0	61	0	1688207360	52	5807
2026-01-14 11:06:55.34	331.98	9.40	-40.8	-44.3	10.3	5.95e-03	0	61	0	1691353088	52	5644
2026-01-14 11:06:56.35	332.06	9.32	-40.9	-44.4	10.2	6.00e-03	0	61	0	1694498816	52	5712
2026-01-14 11:06:57.36	332.14	9.24	-40.8	-44.4	10.2	5.99e-03	0	61	0	1697644544	52	5681
2026-01-14 11:06:58.37	332.21	9.17	-40.9	-44.6	10.0	6.94e-03	0	61	0	1700790272	52	5825
2026-01-14 11:06:59.38	332.29	9.09	-41.0	-44.7	9.9	9.40e-03	0	61	0	1703936000	52	5884
2026-01-14 11:07:00.39	332.36	9.01	-41.1	-44.9	9.6	1.21e-02	0	61	0	1707081728	52	6057
2026-01-14 11:07:01.40	332.44	8.94	-40.8	-44.5	10.0	7.69e-03	0	61	0	1710227456	52	5748
2026-01-14 11:07:02.41	332.51	8.86	-40.8	-44.4	10.1	7.95e-03	0	61	0	1713373184	52	5700
2026-01-14 11:07:03.42	332.59	8.79	-40.7	-44.4	10.2	6.17e-03	0	61	0	1716518912	52	5660
2026-01-14 11:07:04.43	332.66	8.71	-40.8	-44.4	10.0	7.41e-03	0	61	0	1719664640	52	5713
2026-01-14 11:07:05.44	332.73	8.64	-40.8	-44.4	10.0	7.12e-03	0	61	0	1722810368	52	5709
2026-01-14 11:07:06.45	332.81	8.56	-40.8	-44.4	10.0	6.76e-03	0	61	0	1725956096	52	5698
2026-01-14 11:07:07.46	332.88	8.49	-40.7	-44.4	10.0	7.90e-03	0	61	0	1729101824	52	5696
2026-01-14 11:07:08.47	332.95	8.41	-40.7	-44.4	10.0	8.03e-03	0	61	0	1732247552	52	5710
2026-01-14 11:07:09.48	333.02	8.34	-40.8	-44.6	9.8	9.48e-03	0	61	0	1735393280	52	5818
2026-01-14 11:07:10.49	333.10	8.27	-40.8	-44.5	9.9	9.54e-03	0	61	0	1738539008	52	5767
2026-01-14 11:07:11.50	333.17	8.19	-40.8	-44.6	9.8	1.01e-02	0	61	0	1741684736	52	5791
2026-01-14 11:07:12.51	333.24	8.12	-40.8	-44.6	9.7	1.18e-02	0	61	0	1744830464	52	5815
2026-01-14 11:07:13.52	333.31	8.05	-40.9	-44.7	9.6	1.25e-02	0	61	0	1747976192	52	5919
2026-01-14 11:07:14.54	333.38	7.97	-42.7	-49.3	5.9	1.29e-02	0	61	0	1751121920	55	8421
2026-01-14 11:07:15.55	333.45	7.90	-44.4	-56.0	3.8	1.49e+00	0	61	104	1752170496	59	14526
2026-01-14 11:07:16.56	333.52	7.83	-44.7	-56.8	3.8	1.49e+00	0	61	104	1752170496	59	15810
2026-01-14 11:07:17.57	333.59	7.75	-44.9	-57.1	3.8	1.49e+00	0	61	104	1752170496	60	15483
2026-01-14 11:07:18.58	333.66	7.68	-45.0	-57.3	3.8	1.49e+00	0	61	104	1752170496	60	15876
2026-01-14 11:07:19.59	333.73	7.61	-45.1	-57.4	3.8	1.49e+00	0	61	104	1752170496	60	16055
2026-01-14 11:07:20.60	333.80	7.54	-45.2	-57.5	3.8	1.49e+00	0	61	104	1752170496	61	15270
2026-01-14 11:07:21.61	333.86	7.46	-45.3	-57.5	3.8	1.49e+00	0	61	104	1752170496	61	15378
2026-01-14 11:07:22.62	333.93	7.39	-45.3	-57.5	3.8	1.49e+00	0	61	104	1752170496	61	15400
2026-01-14 11:07:23.62	334.00	7.32	-45.3	-57.6	3.8	1.49e+00	0	61	104	1752170496	61	15435
2026-01-14 11:07:24.63	334.07	7.25	-45.2	-57.5	3.8	1.49e+00	0	61	104	1752170496	61	15347
2026-01-14 11:07:25.64	334.13	7.18	-45.2	-57.5	3.8	1.49e+00	0	61	104	1752170496	61	15293
2026-01-14 11:07:26.65	334.20	7.11	-45.3	-57.5	3.8	1.49e+00	0	61	104	1752170496	61	15395
2026-01-14 11:07:27.66	334.27	7.04	-45.3	-57.5	3.8	1.49e+00	0	61	104	1752170496	61	15348
2026-01-14 11:07:28.67	334.33	6.96	-45.1	-57.5	3.8	1.49e+00	0	61	104	1752170496	61	15317
2026-01-14 11:07:29.68	334.40	6.89	-45.2	-57.5	3.8	1.49e+00	0	61	104	1752170496	61	15299
2026-01-14 11:07:30.69	334.46	6.82	-45.2	-57.5	3.8	1.49e+00	0	61	104	1752170496	61	15277
2026-01-14 11:07:31.70	334.53	6.75	-45.1	-57.5	3.8	1.49e+00	0	61	104	1752170496	61	15273
2026-01-14 11:07:32.71	334.59	6.68	-45.2	-57.5	3.8	1.49e+00	0	61	104	1752170496	61	15227
2026-01-14 11:07:33.72	334.66	6.61	-45.2	-57.5	3.8	1.49e+00	0	61	104	1752170496	61	15281
2026-01-14 11:07:34.73	334.72	6.54	-45.2	-57.5	3.8	1.49e+00	0	61	104	1752170496	61	15275
2026-01-14 11:07:35.74	334.79	6.47	-45.2	-57.4	3.8	1.49e+00	0	61	104	1752170496	61	15183
2026-01-14 11:07:36.75	334.85	6.40	-45.2	-57.4	3.8	1.49e+00	0	61	104	1752170496	61	15225
2026-01-14 11:07:37.75	334.91	6.34	-45.2	-57.5	3.8	1.49e+00	0	61	104	1752170496	61	15244
2026-01-14 11:07:38.77	334.98	6.27	-45.2	-57.5	3.8	1.49e+00	0	61	104	1752170496	61	15248
2026-01-14 11:07:39.78	335.04	6.20	-45.2	-57.5	3.8	1.49e+00	0	61	104	1752170496	61	15257
2026-01-14 11:07:40.79	335.10	6.13	-45.2	-57.4	3.8	1.49e+00	0	61	104	1752170496	61	15221
2026-01-14 11:07:41.79	335.16	6.06	-44.8	-57.4	3.8	1.49e+00	0	61	104	1752170496	60	16114
2026-01-14 11:07:42.80	335.23	5.99	-45.2	-57.5	3.8	1.49e+00	0	61	104	1752170496	60	16143
2026-01-14 11:07:43.81	335.29	5.92	-45.2	-57.5	3.8	1.49e+00	0	61	104	1752170496	60	16135
2026-01-14 11:07:44.82	335.35	5.85	-45.2	-57.4	3.8	1.49e+00	0	61	104	1752170496	60	16107
2026-01-14 11:07:45.83	335.41	5.79	-45.2	-57.5	3.8	1.49e+00	0	61	104	1752170496	60	16139
2026-01-14 11:07:46.84	335.47	5.72	-45.1	-57.4	3.8	1.49e+00	0	61	104	1752170496	60	16099
2026-01-14 11:07:47.85	335.53	5.65	-45.2	-57.5	3.8	1.49e+00	0	61	104	1752170496	60	16133
2026-01-14 11:07:48.86	335.59	5.58	-45.2	-57.4	3.8	1.49e+00	0	61	104	1752170496	60	16079
2026-01-14 11:07:49.87	335.65	5.52	-44.6	-57.4	3.8	1.49e+00	0	61	104	1752170496	60	16070
2026-01-14 11:07:50.88	335.71	5.45	-45.2	-57.4	3.8	1.49e+00	0	61	104	1752170496	60	16028
2026-01-14 11:07:51.89	335.77	5.38	-45.1	-57.4	3.8	1.49e+00	0	61	104	1752170496	60	16118
2026-01-14 11:07:52.90	335.83	5.31	-45.2	-57.5	3.8	1.49e+00	0	61	104	1752170496	60	16162
2026-01-14 11:07:53.91	335.89	5.25	-45.2	-57.4	3.8	1.49e+00	0	61	104	1752170496	60	16091
2026-01-14 11:07:54.92	335.95	5.18	-45.2	-57.4	3.8	1.49e+00	0	61	104	1752170496	60	16024
2026-01-14 11:07:55.93	336.01	5.11	-45.2	-57.4	3.8	1.49e+00	0	61	104	1752170496	60	16098
2026-01-14 11:07:56.94	336.07	5.05	-45.2	-57.4	3.8	1.49e+00	0	61	104	1752170496	60	16063
2026-01-14 11:07:57.95	336.12	4.98	-45.2	-57.4	3.8	1.49e+00	0	61	104	1752170496	60	16031
2026-01-14 11:07:58.96	336.18	4.91	-45.2	-57.5	3.8	1.49e+00	0	61	104	1752170496	60	16147
2026-01-14 11:07:59.97	336.24	4.85	-45.2	-57.4	3.8	1.49e+00	0	61	104	1752170496	60	16043
2026-01-14 11:08:00.98	336.30	4.78	-45.2	-57.4	3.8	1.49e+00	0	61	104	1752170496	60	16100
2026-01-14 11:08:01.99	336.35	4.72	-45.2	-57.4	3.8	1.49e+00	0	61	104	1752170496	60	16094
2026-01-14 11:08:03.00	336.41	4.65	-45.2	-57.4	3.8	1.49e+00	0	61	104	1752170496	60	16082
2026-01-14 11:08:04.01	336.47	4.59	-45.2	-57.4	3.8	1.49e+00	0	61	104	1752170496	60	16056
2026-01-14 11:08:05.02	336.53	4.52	-45.1	-57.4	3.8	1.49e+00	0	61	104	1752170496	60	16056
2026-01-14 11:08:06.03	336.58	4.46	-45.1	-57.4	3.8	1.49e+00	0	61	104	1752170496	60	16063
2026-01-14 11:08:07.04	336.64	4.39	-45.2	-57.4	3.8	1.49e+00	0	61	104	1752170496	60	16082
2026-01-14 11:08:08.05	336.69	4.33	-45.2	-57.4	3.8	1.49e+00	0	61	104	1752170496	60	16070
2026-01-14 11:08:09.06	336.75	4.26	-45.1	-57.4	3.8	1.49e+00	0	61	104	1752170496	60	16117
2026-01-14 11:08:10.07	336.80	4.20	-45.2	-57.4	3.8	1.49e+00	0	61	104	1752170496	60	16083
2026-01-14 11:08:11.07	336.86	4.13	-45.2	-57.4	3.8	1.49e+00	0	61	104	1752170496	60	16030
2026-01-14 11:08:12.08	336.91	4.07	-45.2	-57.4	3.8	1.49e+00	0	61	104	1752170496	60	16070
2026-01-14 11:08:13.09	336.97	4.00	-45.2	-57.4	3.8	1.49e+00	0	61	104	1752170496	60	16014
2026-01-14 11:08:14.10	337.02	3.94	-45.2	-57.4	3.8	1.49e+00	0	61	104	1752170496	60	16084
2026-01-14 11:08:15.11	337.08	3.88	-45.2	-57.4	3.8	1.49e+00	0	61	104	1752170496	60	16084
2026-01-14 11:08:16.12	337.13	3.81	-45.1	-57.4	3.8	1.49e+00	0	61	104	1752170496	60	16104
2026-01-14 11:08:17.13	337.19	3.75	-45.2	-57.4	3.8	1.49e+00	0	61	104	1752170496	60	16014
2026-01-14 11:08:18.13	337.24	3.68	-45.2	-57.4	3.8	1.49e+00	0	61	104	1752170496	60	16037
2026-01-14 11:08:19.14	337.29	3.62	-45.2	-57.4	3.8	1.49e+00	0	61	104	1752170496	60	16092
2026-01-14 11:08:20.15	337.35	3.56	-45.2	-57.4	3.8	1.49e+00	0	61	104	1752170496	60	16040
2026-01-14 11:08:21.16	337.40	3.49	-45.2	-57.4	3.8	1.49e+00	0	61	104	1752170496	60	16090
2026-01-14 11:08:22.18	337.45	3.43	-45.2	-57.4	3.8	1.49e+00	0	61	104	1752170496	60	16017
2026-01-14 11:08:23.19	337.50	3.37	-45.2	-57.4	3.8	1.49e+00	0	61	104	1752170496	60	16004
2026-01-14 11:08:24.19	337.56	3.31	-45.1	-57.4	3.8	1.49e+00	0	61	104	1752170496	60	16044
2026-01-14 11:08:25.20	337.61	3.24	-45.1	-57.4	3.8	1.49e+00	0	61	104	1752170496	60	16070
2026-01-14 11:08:26.22	337.66	3.18	-45.2	-57.4	3.8	1.49e+00	0	61	104	1752170496	60	16056
2026-01-14 11:08:27.22	337.71	3.12	-45.2	-57.4	3.8	1.49e+00	0	61	104	1752170496	60	16037
2026-01-14 11:08:28.24	337.76	3.06	-45.1	-57.4	3.8	1.49e+00	0	61	104	1752170496	60	16105
2026-01-14 11:08:29.24	337.82	2.99	-45.1	-57.4	3.8	1.49e+00	0	61	104	1752170496	60	16045
2026-01-14 11:08:30.26	337.87	2.93	-45.2	-57.4	3.8	1.49e+00	0	61	104	1752170496	60	16033
2026-01-14 11:08:31.27	337.92	2.87	-45.1	-57.4	3.8	1.49e+00	0	61	104	1752170496	60	16009
2026-01-14 11:08:32.28	337.97	2.81	-45.1	-57.4	3.8	1.49e+00	0	61	104	1752170496	60	16045
2026-01-14 11:08:33.29	338.02	2.75	-45.1	-57.4	3.8	1.49e+00	0	61	104	1752170496	60	16003
2026-01-14 11:08:34.30	338.07	2.68	-45.1	-57.4	3.8	1.49e+00	0	61	104	1752170496	60	16055
2026-01-14 11:08:35.31	338.12	2.62	-45.1	-57.4	3.8	1.49e+00	0	61	104	1752170496	60	16037
2026-01-14 11:08:36.32	338.17	2.56	-45.1	-57.4	3.8	1.49e+00	0	61	104	1752170496	60	16018
2026-01-14 11:08:37.33	338.22	2.50	-45.1	-57.4	3.8	1.49e+00	0	61	104	1752170496	60	16029
2026-01-14 11:08:38.34	338.27	2.44	-45.2	-57.4	3.8	1.49e+00	0	61	104	1752170496	60	15994
2026-01-14 11:08:39.35	338.32	2.38	-45.2	-57.4	3.8	1.49e+00	0	61	104	1752170496	60	16071
2026-01-14 11:08:40.36	338.37	2.32	-45.1	-57.4	3.8	1.49e+00	0	61	104	1752170496	60	15997
2026-01-14 11:08:41.37	338.42	2.26	-45.1	-57.4	3.8	1.49e+00	0	61	104	1752170496	60	16029
2026-01-14 11:08:42.38	338.47	2.20	-45.1	-57.4	3.8	1.49e+00	0	61	104	1752170496	60	16014
2026-01-14 11:08:43.39	338.52	2.13	-45.1	-57.4	3.8	1.49e+00	0	61	104	1752170496	60	16059
2026-01-14 11:08:44.40	338.56	2.07	-45.1	-57.4	3.8	1.49e+00	0	61	104	1752170496	60	16090
2026-01-14 11:08:45.41	338.61	2.01	-45.1	-57.4	3.8	1.49e+00	0	61	104	1752170496	60	15965
2026-01-14 11:08:46.42	338.66	1.95	-45.1	-57.4	3.8	1.49e+00	0	61	104	1752170496	60	16048
