passes_logs/2026/01/14/R2.0S_Moscow/R2.0S_Moscow__20260114_230442_NOAA_21_JPSS-2_rec.log

#Pass ID: 20260114_230442_NOAA 21 (JPSS-2)
#Satellite: NOAA 21 (JPSS-2)
#Configuration: NOAA-21
#almurnet v.1.7.20251203
#Start time: 2026-01-14 23:04:42

#Version: 2.2.20231116
#Station: R2.0S_Moscow
#Location: 37.707566 lon 55.798166 lat
#TLE: 1 54234U 22150A   26014.16688770  .00000052  00000+0  45394-4 0  9999
#TLE: 2 54234  98.7497 315.0767 0000655 297.6997  62.4113 14.19534648164696

#Time	Az	El	Level	Level2	SNR	BER	BlckErr	Temp	State	Recorded	gain1	gain2
2026-01-14 23:04:42.27	19.04	2.01	-41.7	-54.4	3.8	1.49e+00	0	48	0	0	55	15068
2026-01-14 23:04:43.27	19.07	2.07	-41.7	-54.4	3.8	1.49e+00	0	48	104	0	54	15967
2026-01-14 23:04:44.28	19.10	2.13	-41.7	-54.4	3.8	1.49e+00	0	49	104	0	54	15965
2026-01-14 23:04:45.29	19.13	2.20	-41.7	-54.4	3.8	1.49e+00	0	49	104	0	54	15971
2026-01-14 23:04:46.30	19.16	2.26	-41.7	-54.4	3.8	1.49e+00	0	49	104	0	54	15967
2026-01-14 23:04:47.31	19.19	2.32	-41.7	-54.4	3.8	1.49e+00	0	49	104	0	54	15971
2026-01-14 23:04:48.32	19.23	2.39	-41.7	-54.4	3.8	1.49e+00	0	49	104	0	54	15994
2026-01-14 23:04:49.33	19.26	2.45	-41.7	-54.4	3.8	1.49e+00	0	49	104	0	54	15978
2026-01-14 23:04:50.34	19.29	2.51	-41.7	-54.4	3.8	1.49e+00	0	49	104	0	54	15968
2026-01-14 23:04:51.35	19.32	2.58	-41.7	-54.4	3.8	1.49e+00	0	49	104	0	54	15951
2026-01-14 23:04:52.36	19.35	2.64	-41.7	-54.3	3.8	1.49e+00	0	49	104	0	54	15939
2026-01-14 23:04:53.37	19.38	2.71	-41.7	-54.4	3.8	1.49e+00	0	49	104	0	54	15965
2026-01-14 23:04:54.38	19.41	2.77	-41.7	-54.4	3.8	1.49e+00	0	49	104	0	54	15968
2026-01-14 23:04:55.39	19.45	2.83	-41.7	-54.4	3.8	1.49e+00	0	49	104	0	54	15953
2026-01-14 23:04:56.40	19.48	2.90	-41.7	-54.4	3.8	1.49e+00	0	49	104	0	54	15992
2026-01-14 23:04:57.41	19.51	2.96	-41.7	-54.4	3.8	1.49e+00	0	50	104	0	54	15954
2026-01-14 23:04:58.42	19.54	3.03	-41.7	-54.4	3.8	1.49e+00	0	50	104	0	54	15949
2026-01-14 23:04:59.43	19.58	3.09	-41.7	-54.4	3.8	1.49e+00	0	50	104	0	54	15946
2026-01-14 23:05:00.44	19.61	3.16	-41.7	-54.4	3.8	1.49e+00	0	50	104	0	54	15945
2026-01-14 23:05:01.45	19.64	3.22	-41.7	-54.4	3.8	1.49e+00	0	50	104	0	54	15963
2026-01-14 23:05:02.46	19.67	3.29	-41.7	-54.4	3.8	1.49e+00	0	50	104	0	54	15961
2026-01-14 23:05:03.47	19.71	3.36	-41.7	-54.3	3.8	1.49e+00	0	50	104	0	54	15933
2026-01-14 23:05:04.48	19.74	3.42	-41.7	-54.4	3.8	1.49e+00	0	50	104	0	54	15944
2026-01-14 23:05:05.49	19.77	3.49	-41.7	-54.3	3.8	1.49e+00	0	50	104	0	54	15931
2026-01-14 23:05:06.50	19.81	3.55	-41.7	-54.4	3.8	1.49e+00	0	50	104	0	54	15998
2026-01-14 23:05:07.51	19.84	3.62	-41.7	-54.4	3.8	1.49e+00	0	50	104	0	54	15962
2026-01-14 23:05:08.52	19.87	3.69	-41.7	-54.3	3.8	1.49e+00	0	50	104	0	54	15942
2026-01-14 23:05:09.53	19.91	3.75	-41.7	-54.3	3.8	1.49e+00	0	50	104	0	54	15914
2026-01-14 23:05:10.54	19.94	3.82	-41.7	-54.3	3.8	1.49e+00	0	50	104	0	54	15895
2026-01-14 23:05:11.55	19.97	3.89	-41.7	-54.3	3.8	1.49e+00	0	51	104	0	54	15914
2026-01-14 23:05:12.56	20.01	3.95	-41.7	-54.4	3.8	1.49e+00	0	51	104	0	54	15986
2026-01-14 23:05:13.56	20.04	4.02	-41.7	-54.3	3.8	1.49e+00	0	51	104	0	54	15926
2026-01-14 23:05:14.57	20.08	4.09	-41.7	-54.3	3.8	1.49e+00	0	51	104	0	54	15908
2026-01-14 23:05:15.59	20.11	4.16	-41.7	-54.3	3.8	1.49e+00	0	51	104	0	54	15880
2026-01-14 23:05:16.60	20.14	4.22	-41.7	-54.4	3.8	1.49e+00	0	51	104	0	54	15962
2026-01-14 23:05:17.61	20.18	4.29	-41.7	-54.3	3.8	1.49e+00	0	51	104	0	54	15927
2026-01-14 23:05:18.62	20.21	4.36	-41.7	-54.4	3.8	1.49e+00	0	51	104	0	54	15944
2026-01-14 23:05:19.63	20.25	4.43	-41.7	-54.3	3.8	1.49e+00	0	51	104	0	54	15934
2026-01-14 23:05:20.63	20.28	4.49	-41.7	-54.3	3.8	1.49e+00	0	51	104	0	54	15932
2026-01-14 23:05:21.65	20.32	4.56	-41.7	-54.4	3.8	1.49e+00	0	51	104	0	54	15956
2026-01-14 23:05:22.66	20.36	4.63	-41.7	-54.3	3.8	1.49e+00	0	51	104	0	54	15895
2026-01-14 23:05:23.67	20.39	4.70	-41.7	-54.4	3.8	1.49e+00	0	51	104	0	54	15973
2026-01-14 23:05:24.68	20.43	4.77	-41.7	-54.3	3.8	1.49e+00	0	51	104	0	54	15898
2026-01-14 23:05:25.69	20.46	4.84	-41.7	-54.3	3.8	1.49e+00	0	51	104	0	54	15936
2026-01-14 23:05:26.70	20.50	4.91	-41.8	-54.3	3.8	1.49e+00	0	51	104	0	54	15932
2026-01-14 23:05:27.71	20.53	4.98	-41.7	-54.3	3.8	1.49e+00	0	51	104	0	54	15913
2026-01-14 23:05:28.72	20.57	5.05	-41.7	-54.3	3.8	1.49e+00	0	51	104	0	54	15893
2026-01-14 23:05:29.74	20.61	5.12	-41.7	-54.4	3.8	1.49e+00	0	52	104	0	54	15968
2026-01-14 23:05:30.75	20.64	5.19	-41.7	-54.3	3.8	1.49e+00	0	51	104	0	54	15892
2026-01-14 23:05:31.75	20.68	5.26	-41.7	-54.4	3.8	1.49e+00	0	52	104	0	54	15954
2026-01-14 23:05:32.77	20.72	5.33	-41.7	-54.4	3.8	1.49e+00	0	52	104	0	54	15944
2026-01-14 23:05:33.77	20.75	5.40	-41.7	-54.3	3.8	1.49e+00	0	52	104	0	54	15917
2026-01-14 23:05:34.79	20.79	5.47	-41.7	-54.3	3.8	1.49e+00	0	52	104	0	54	15930
2026-01-14 23:05:35.80	20.83	5.54	-41.7	-54.3	3.8	1.49e+00	0	52	104	0	54	15905
2026-01-14 23:05:36.81	20.87	5.61	-41.7	-54.3	3.8	1.49e+00	0	52	104	0	54	15934
2026-01-14 23:05:37.82	20.90	5.68	-41.7	-54.3	3.8	1.49e+00	0	52	104	0	54	15859
2026-01-14 23:05:38.83	20.94	5.76	-41.7	-54.3	3.8	1.49e+00	0	52	104	0	54	15925
2026-01-14 23:05:39.84	20.98	5.83	-41.7	-54.3	3.8	1.49e+00	0	52	104	0	54	15925
2026-01-14 23:05:40.85	21.02	5.90	-41.7	-54.3	3.8	1.49e+00	0	52	104	0	54	15915
2026-01-14 23:05:41.86	21.06	5.97	-41.7	-54.3	3.8	1.49e+00	0	52	104	0	54	15862
2026-01-14 23:05:42.87	21.10	6.04	-41.7	-54.3	3.8	1.49e+00	0	52	104	0	54	15926
2026-01-14 23:05:43.88	21.13	6.12	-41.7	-54.3	3.8	1.49e+00	0	53	104	0	54	15929
2026-01-14 23:05:44.89	21.17	6.19	-41.7	-54.3	3.8	1.49e+00	0	52	104	0	54	15911
2026-01-14 23:05:45.90	21.21	6.26	-41.7	-54.3	3.8	1.49e+00	0	52	104	0	54	15907
2026-01-14 23:05:46.91	21.25	6.34	-41.7	-54.3	3.8	1.49e+00	0	52	104	0	54	15895
2026-01-14 23:05:47.93	21.29	6.41	-41.7	-54.3	3.8	1.49e+00	0	52	104	0	54	15900
2026-01-14 23:05:48.94	21.33	6.48	-41.7	-54.3	3.8	1.49e+00	0	52	104	0	54	15872
2026-01-14 23:05:49.95	21.37	6.56	-41.7	-54.3	3.8	1.49e+00	0	53	104	0	54	15919
2026-01-14 23:05:50.96	21.41	6.63	-41.7	-54.3	3.8	1.49e+00	0	53	104	0	54	15870
2026-01-14 23:05:51.96	21.45	6.70	-41.7	-54.3	3.8	1.49e+00	0	53	104	0	54	15874
2026-01-14 23:05:52.97	21.49	6.78	-41.7	-54.3	3.8	1.49e+00	0	53	104	0	54	15868
2026-01-14 23:05:53.98	21.53	6.85	-41.7	-54.3	3.8	1.49e+00	0	52	104	0	54	15883
2026-01-14 23:05:54.99	21.57	6.93	-41.7	-54.3	3.8	1.49e+00	0	53	104	0	54	15867
2026-01-14 23:05:56.00	21.61	7.00	-41.7	-54.3	3.8	1.49e+00	0	53	104	0	54	15915
2026-01-14 23:05:57.01	21.65	7.08	-41.7	-54.3	3.8	1.49e+00	0	53	104	0	54	15866
2026-01-14 23:05:58.02	21.69	7.15	-41.7	-54.2	3.8	1.49e+00	0	53	104	0	54	15704
2026-01-14 23:05:59.02	21.74	7.23	-41.7	-54.1	3.8	1.49e+00	0	53	104	0	54	15520
2026-01-14 23:06:00.03	21.78	7.30	-41.7	-54.1	3.8	1.49e+00	0	53	104	0	54	15436
2026-01-14 23:06:01.04	21.82	7.38	-41.7	-53.9	3.8	1.49e+00	0	53	104	0	54	15052
2026-01-14 23:06:02.05	21.86	7.46	-41.6	-53.6	3.8	1.49e+00	0	53	104	0	54	14569
2026-01-14 23:06:03.06	21.90	7.53	-41.6	-53.2	3.8	1.49e+00	0	53	104	0	54	13926
2026-01-14 23:06:04.07	21.95	7.61	-41.5	-52.7	3.8	1.49e+00	0	53	104	0	54	13164
2026-01-14 23:06:05.08	21.99	7.69	-41.4	-51.5	3.9	1.48e+00	0	53	104	0	54	11504
2026-01-14 23:06:06.09	22.03	7.76	-41.3	-50.4	4.3	1.47e+00	0	53	104	0	54	10137
2026-01-14 23:06:07.10	22.07	7.84	-41.2	-49.4	4.3	1.12e+00	0	53	104	0	54	9053
2026-01-14 23:06:08.11	22.12	7.92	-40.9	-48.4	5.2	6.64e-01	0	53	0	2097152	53	8474
2026-01-14 23:06:09.12	22.16	7.99	-40.7	-47.5	5.7	4.81e-01	0	53	0	5242880	53	7703
2026-01-14 23:06:10.13	22.20	8.07	-40.5	-46.6	6.4	2.83e-01	0	54	0	8388608	53	6936
2026-01-14 23:06:11.14	22.25	8.15	-40.5	-45.8	7.6	9.90e-02	0	53	0	11534336	53	6280
2026-01-14 23:06:12.15	22.29	8.23	-41.2	-53.2	3.8	1.49e+00	0	54	104	12582912	53	14741
2026-01-14 23:06:13.16	22.34	8.31	-41.4	-47.0	6.8	1.32e-01	0	54	0	13631488	53	7224
2026-01-14 23:06:14.17	22.38	8.39	-42.1	-48.9	5.4	6.68e-01	0	54	0	16777216	55	8014
2026-01-14 23:06:15.18	22.43	8.47	-40.9	-48.0	5.5	5.65e-01	0	53	0	19922944	52	8582
2026-01-14 23:06:16.18	22.47	8.54	-40.1	-44.0	9.9	1.06e-02	0	54	0	23068672	52	5403
2026-01-14 23:06:17.20	22.52	8.63	-40.0	-43.8	10.0	8.19e-03	0	54	0	26214400	52	5286
2026-01-14 23:06:18.21	22.56	8.70	-40.1	-43.9	10.0	7.40e-03	0	54	0	29360128	52	5343
2026-01-14 23:06:19.21	22.61	8.78	-40.4	-44.5	9.4	1.38e-02	0	54	0	32505856	52	5774
2026-01-14 23:06:20.22	22.65	8.86	-40.6	-44.7	9.2	2.05e-02	0	54	0	35651584	52	5909
2026-01-14 23:06:21.23	22.70	8.95	-40.5	-44.5	9.4	1.66e-02	0	54	0	38797312	52	5755
2026-01-14 23:06:22.24	22.74	9.03	-40.3	-44.1	9.9	9.88e-03	0	54	0	41943040	52	5508
2026-01-14 23:06:23.24	22.79	9.11	-40.3	-44.0	10.0	8.26e-03	0	54	0	45088768	52	5449
2026-01-14 23:06:24.25	22.84	9.19	-40.4	-44.3	9.8	8.88e-03	0	54	0	48234496	52	5611
2026-01-14 23:06:25.26	22.88	9.27	-40.5	-44.3	9.8	1.10e-02	0	54	0	51380224	52	5637
2026-01-14 23:06:26.28	22.93	9.35	-40.5	-44.2	10.0	8.13e-03	0	54	0	54525952	52	5574
2026-01-14 23:06:27.28	22.98	9.43	-40.3	-43.9	10.4	5.55e-03	0	54	0	57671680	52	5356
2026-01-14 23:06:28.29	23.03	9.52	-40.4	-44.0	10.3	4.60e-03	0	54	0	60817408	52	5452
2026-01-14 23:06:29.30	23.07	9.60	-40.6	-44.3	10.0	6.90e-03	0	54	0	63963136	52	5614
2026-01-14 23:06:30.32	23.12	9.68	-40.5	-44.0	10.5	4.88e-03	0	54	0	67108864	52	5404
2026-01-14 23:06:31.33	23.17	9.76	-40.6	-44.1	10.3	4.40e-03	0	54	0	70254592	52	5518
2026-01-14 23:06:32.34	23.22	9.85	-40.6	-44.2	10.3	5.35e-03	0	54	0	73400320	52	5552
2026-01-14 23:06:33.34	23.27	9.93	-40.3	-43.7	10.9	2.28e-03	0	54	0	76546048	52	5227
2026-01-14 23:06:34.35	23.32	10.01	-40.6	-44.1	10.4	4.55e-03	0	54	0	79691776	52	5517
2026-01-14 23:06:35.37	23.37	10.10	-40.5	-43.9	10.7	2.95e-03	0	54	0	82837504	52	5347
2026-01-14 23:06:36.37	23.42	10.18	-40.6	-44.0	10.6	3.14e-03	0	55	0	85983232	52	5445
2026-01-14 23:06:37.38	23.47	10.27	-40.5	-43.8	10.8	3.32e-03	0	54	0	89128960	52	5310
2026-01-14 23:06:38.39	23.52	10.35	-40.6	-43.9	10.7	2.42e-03	0	54	0	92274688	52	5402
2026-01-14 23:06:39.40	23.57	10.44	-40.6	-44.0	10.7	3.45e-03	0	54	0	95420416	52	5428
2026-01-14 23:06:40.41	23.62	10.52	-40.6	-44.0	10.6	3.19e-03	0	54	0	98566144	52	5464
2026-01-14 23:06:41.42	23.67	10.61	-40.5	-43.8	10.9	2.68e-03	0	54	0	101711872	52	5313
2026-01-14 23:06:42.43	23.72	10.70	-40.6	-44.0	10.7	2.85e-03	0	54	0	104857600	52	5444
2026-01-14 23:06:43.44	23.77	10.78	-40.6	-44.0	10.7	2.86e-03	0	54	0	108003328	52	5423
2026-01-14 23:06:44.45	23.82	10.87	-40.7	-44.1	10.6	3.73e-03	0	54	0	111149056	52	5508
2026-01-14 23:06:45.46	23.88	10.96	-40.6	-44.0	10.8	2.68e-03	0	54	0	114294784	52	5421
2026-01-14 23:06:46.47	23.93	11.04	-40.6	-43.9	10.9	2.13e-03	0	55	0	117440512	52	5392
2026-01-14 23:06:47.48	23.98	11.13	-40.6	-43.9	10.9	2.25e-03	0	54	0	120586240	52	5379
2026-01-14 23:06:48.49	24.03	11.22	-40.5	-43.7	11.1	1.76e-03	0	55	0	123731968	52	5268
2026-01-14 23:06:49.50	24.09	11.31	-40.5	-43.8	11.1	1.76e-03	0	55	0	126877696	52	5289
2026-01-14 23:06:50.51	24.14	11.40	-40.6	-43.9	11.0	1.64e-03	0	55	0	130023424	52	5345
2026-01-14 23:06:51.52	24.19	11.48	-40.5	-43.6	11.2	1.47e-03	0	55	0	133169152	52	5218
2026-01-14 23:06:52.53	24.25	11.57	-40.5	-43.6	11.3	1.28e-03	0	55	0	137363456	52	5182
2026-01-14 23:06:53.54	24.30	11.66	-40.4	-43.4	11.6	8.45e-04	0	55	0	140509184	52	5082
2026-01-14 23:06:54.55	24.36	11.75	-40.4	-43.5	11.5	7.41e-04	0	55	0	142606336	52	5103
2026-01-14 23:06:55.56	24.41	11.84	-40.4	-43.4	11.6	6.84e-04	0	55	0	145752064	52	5062
2026-01-14 23:06:56.57	24.47	11.93	-40.4	-43.3	11.7	6.10e-04	0	55	0	148897792	52	5037
2026-01-14 23:06:57.58	24.52	12.02	-40.3	-43.3	11.8	5.18e-04	0	55	0	153092096	52	4989
2026-01-14 23:06:58.59	24.58	12.11	-40.3	-43.3	11.7	5.74e-04	0	55	0	156237824	52	5016
2026-01-14 23:06:59.60	24.64	12.21	-40.4	-43.3	11.7	5.94e-04	0	55	0	159383552	52	5038
2026-01-14 23:07:00.61	24.69	12.30	-40.4	-43.3	11.7	5.43e-04	0	55	0	162529280	52	5033
2026-01-14 23:07:01.62	24.75	12.39	-40.4	-43.3	11.8	5.19e-04	0	55	0	165675008	52	5016
2026-01-14 23:07:02.63	24.81	12.48	-40.4	-43.3	11.8	4.59e-04	0	55	0	168820736	52	5007
2026-01-14 23:07:03.64	24.86	12.57	-40.4	-43.3	11.8	4.13e-04	0	55	0	171966464	52	4997
2026-01-14 23:07:04.65	24.92	12.67	-40.4	-43.3	11.8	4.75e-04	0	55	0	175112192	52	5023
2026-01-14 23:07:05.66	24.98	12.76	-40.4	-43.3	11.8	4.56e-04	0	55	0	178257920	52	4986
2026-01-14 23:07:06.67	25.04	12.85	-40.4	-43.3	11.8	3.45e-04	0	55	0	181403648	52	4998
2026-01-14 23:07:07.68	25.10	12.95	-40.4	-43.3	11.9	3.98e-04	0	55	0	184549376	52	4987
2026-01-14 23:07:08.69	25.16	13.04	-40.4	-43.3	11.8	4.84e-04	0	55	0	187695104	52	5017
2026-01-14 23:07:09.71	25.22	13.14	-40.3	-43.1	12.0	3.65e-04	0	55	0	190840832	52	4925
2026-01-14 23:07:10.72	25.28	13.23	-40.3	-43.1	12.1	3.49e-04	0	55	0	193986560	52	4920
2026-01-14 23:07:11.73	25.34	13.33	-40.3	-43.2	12.0	3.23e-04	0	55	0	197132288	52	4937
2026-01-14 23:07:12.74	25.40	13.42	-40.3	-43.1	12.0	2.84e-04	0	55	0	200278016	52	4908
2026-01-14 23:07:13.74	25.46	13.52	-40.3	-43.2	12.0	2.85e-04	0	55	0	203423744	52	4937
2026-01-14 23:07:14.75	25.52	13.61	-40.4	-43.3	11.9	3.60e-04	0	55	0	206569472	52	5006
2026-01-14 23:07:15.76	25.58	13.71	-40.4	-43.4	11.9	3.78e-04	0	55	0	209715200	52	5050
2026-01-14 23:07:16.77	25.65	13.81	-40.4	-43.4	11.9	4.16e-04	0	55	0	212860928	52	5049
2026-01-14 23:07:17.78	25.71	13.91	-40.4	-43.3	11.9	3.94e-04	0	55	0	216006656	52	5030
2026-01-14 23:07:18.79	25.77	14.00	-40.4	-43.3	11.9	3.55e-04	0	55	0	219152384	52	5019
2026-01-14 23:07:19.80	25.83	14.10	-40.5	-43.4	11.9	4.16e-04	0	55	0	222298112	52	5046
2026-01-14 23:07:20.81	25.90	14.20	-40.5	-43.4	11.9	3.80e-04	0	55	0	225443840	52	5049
2026-01-14 23:07:21.82	25.96	14.30	-40.4	-43.3	11.9	3.35e-04	0	55	0	228589568	52	5032
2026-01-14 23:07:22.83	26.03	14.40	-40.4	-43.3	12.0	3.43e-04	0	55	0	231735296	52	5017
2026-01-14 23:07:23.84	26.09	14.50	-40.5	-43.4	11.9	3.70e-04	0	55	0	234881024	52	5054
2026-01-14 23:07:24.85	26.16	14.60	-40.5	-43.4	11.9	4.14e-04	0	55	0	238026752	52	5077
2026-01-14 23:07:25.86	26.22	14.70	-40.5	-43.3	12.0	3.78e-04	0	55	0	241172480	52	5032
2026-01-14 23:07:26.87	26.29	14.80	-40.5	-43.4	11.9	3.56e-04	0	55	0	244318208	52	5088
2026-01-14 23:07:27.87	26.36	14.90	-40.5	-43.3	12.0	3.28e-04	0	55	0	247463936	52	5038
2026-01-14 23:07:28.88	26.42	15.00	-40.5	-43.4	11.9	3.48e-04	0	56	0	250609664	52	5092
2026-01-14 23:07:29.89	26.49	15.10	-40.5	-43.4	11.9	3.57e-04	0	55	0	253755392	52	5071
2026-01-14 23:07:30.90	26.56	15.20	-40.6	-43.4	11.9	4.10e-04	0	56	0	256901120	52	5085
2026-01-14 23:07:31.91	26.63	15.31	-40.6	-43.5	11.8	4.07e-04	0	55	0	260046848	52	5150
2026-01-14 23:07:32.91	26.70	15.41	-40.6	-43.5	11.8	4.82e-04	0	55	0	263192576	52	5130
2026-01-14 23:07:33.92	26.76	15.51	-40.6	-43.5	11.9	4.41e-04	0	55	0	266338304	52	5112
2026-01-14 23:07:34.93	26.83	15.62	-40.6	-43.5	11.8	4.61e-04	0	56	0	269484032	52	5144
2026-01-14 23:07:35.94	26.90	15.72	-40.7	-43.6	11.8	5.32e-04	0	56	0	272629760	52	5199
2026-01-14 23:07:36.95	26.97	15.83	-40.7	-43.7	11.7	6.19e-04	0	55	0	275775488	52	5234
2026-01-14 23:07:37.96	27.05	15.93	-40.8	-43.8	11.6	5.84e-04	0	55	0	278921216	52	5316
2026-01-14 23:07:38.98	27.12	16.04	-40.8	-43.9	11.5	6.81e-04	0	56	0	282066944	52	5359
2026-01-14 23:07:39.98	27.19	16.14	-40.8	-43.9	11.5	8.60e-04	0	56	0	285212672	52	5376
2026-01-14 23:07:41.00	27.26	16.25	-40.8	-43.9	11.6	7.41e-04	0	56	0	288358400	52	5355
2026-01-14 23:07:42.01	27.34	16.36	-40.9	-43.9	11.5	7.41e-04	0	56	0	291504128	52	5384
2026-01-14 23:07:43.02	27.41	16.46	-40.8	-43.8	11.6	6.81e-04	0	56	0	294649856	52	5326
2026-01-14 23:07:44.03	27.48	16.57	-40.7	-43.7	11.7	5.85e-04	0	56	0	297795584	52	5255
2026-01-14 23:07:45.04	27.56	16.68	-40.6	-43.5	12.0	3.91e-04	0	56	0	300941312	52	5104
2026-01-14 23:07:46.05	27.63	16.79	-40.6	-43.4	12.0	3.08e-04	0	56	0	304087040	52	5093
2026-01-14 23:07:47.06	27.71	16.90	-40.6	-43.5	12.0	2.92e-04	0	56	0	307232768	52	5102
2026-01-14 23:07:48.07	27.78	17.01	-40.5	-43.3	12.2	2.52e-04	0	56	0	310378496	52	5020
2026-01-14 23:07:49.07	27.86	17.12	-40.5	-43.3	12.2	1.76e-04	0	56	0	313524224	52	4991
2026-01-14 23:07:50.08	27.94	17.23	-40.5	-43.3	12.2	2.31e-04	0	56	0	316669952	52	5033
2026-01-14 23:07:51.09	28.02	17.34	-40.6	-43.4	12.1	2.50e-04	0	56	0	319815680	52	5057
2026-01-14 23:07:52.10	28.09	17.45	-40.6	-43.4	12.2	2.59e-04	0	56	0	322961408	52	5047
2026-01-14 23:07:53.11	28.17	17.56	-40.6	-43.4	12.2	2.49e-04	0	56	0	326107136	52	5051
2026-01-14 23:07:54.12	28.25	17.67	-40.6	-43.5	12.1	2.80e-04	0	56	0	329252864	52	5110
2026-01-14 23:07:55.13	28.33	17.79	-40.6	-43.4	12.1	2.67e-04	0	56	0	332398592	52	5079
2026-01-14 23:07:56.14	28.41	17.90	-40.6	-43.4	12.1	2.43e-04	0	56	0	335544320	52	5058
2026-01-14 23:07:57.15	28.49	18.01	-40.5	-43.3	12.3	1.81e-04	0	56	0	338690048	52	5009
2026-01-14 23:07:58.15	28.57	18.13	-40.5	-43.3	12.2	1.95e-04	0	56	0	341835776	52	5017
2026-01-14 23:07:59.16	28.66	18.24	-40.6	-43.4	12.2	2.28e-04	0	56	0	344981504	52	5045
2026-01-14 23:08:00.17	28.74	18.36	-40.6	-43.3	12.3	1.88e-04	0	56	0	348127232	52	5028
2026-01-14 23:08:01.18	28.82	18.47	-40.6	-43.3	12.2	2.13e-04	0	56	0	351272960	52	5031
2026-01-14 23:08:02.19	28.91	18.59	-40.6	-43.4	12.2	2.34e-04	0	56	0	354418688	52	5089
2026-01-14 23:08:03.20	28.99	18.70	-40.5	-43.3	12.3	1.65e-04	0	56	0	357564416	52	4998
2026-01-14 23:08:04.21	29.08	18.82	-40.5	-43.2	12.4	1.43e-04	0	56	0	360710144	52	4948
2026-01-14 23:08:05.22	29.16	18.94	-40.5	-43.3	12.4	1.44e-04	0	56	0	363855872	52	4989
2026-01-14 23:08:06.23	29.25	19.06	-40.5	-43.3	12.3	1.62e-04	0	56	0	367001600	52	5021
2026-01-14 23:08:07.23	29.33	19.17	-40.4	-43.1	12.5	1.37e-04	0	56	0	370147328	52	4882
2026-01-14 23:08:08.24	29.42	19.29	-40.4	-43.0	12.6	1.07e-04	0	56	0	373293056	52	4857
2026-01-14 23:08:09.25	29.51	19.41	-40.4	-43.0	12.6	9.53e-05	0	56	0	376438784	52	4864
2026-01-14 23:08:10.26	29.60	19.53	-40.3	-43.0	12.7	1.01e-04	0	56	0	379584512	52	4835
2026-01-14 23:08:11.27	29.69	19.65	-40.3	-43.0	12.7	7.24e-05	0	56	0	382730240	52	4821
2026-01-14 23:08:12.28	29.78	19.77	-40.3	-42.9	12.8	6.48e-05	0	56	0	385875968	52	4761
2026-01-14 23:08:13.29	29.87	19.90	-40.3	-42.9	12.8	7.40e-05	0	56	0	389021696	52	4779
2026-01-14 23:08:14.30	29.96	20.02	-40.3	-42.9	12.8	6.94e-05	0	56	0	392167424	52	4784
2026-01-14 23:08:15.31	30.05	20.14	-40.2	-42.8	12.9	6.63e-05	0	56	0	395313152	52	4716
2026-01-14 23:08:16.32	30.15	20.26	-40.1	-42.5	13.1	3.20e-05	0	56	0	398458880	52	4595
2026-01-14 23:08:17.32	30.24	20.39	-40.0	-42.5	13.2	1.67e-05	0	56	0	401604608	52	4568
2026-01-14 23:08:18.34	30.34	20.51	-40.0	-42.4	13.3	2.59e-05	0	56	0	404750336	52	4520
2026-01-14 23:08:19.34	30.43	20.64	-40.0	-42.4	13.3	1.90e-05	0	56	0	407896064	51	4803
2026-01-14 23:08:20.36	30.53	20.76	-40.0	-42.4	13.4	1.22e-05	0	56	0	411041792	51	4773
2026-01-14 23:08:21.37	30.62	20.89	-40.0	-42.3	13.4	1.14e-05	0	56	0	414187520	51	4750
2026-01-14 23:08:22.37	30.72	21.01	-39.9	-42.3	13.5	8.30e-06	0	56	0	417333248	51	4733
2026-01-14 23:08:23.39	30.82	21.14	-39.9	-42.2	13.6	6.10e-06	0	56	0	420478976	51	4686
2026-01-14 23:08:24.40	30.92	21.27	-39.9	-42.2	13.6	7.60e-06	0	56	0	423624704	51	4673
2026-01-14 23:08:25.40	31.02	21.40	-39.8	-42.1	13.7	9.90e-06	0	56	0	426770432	51	4614
2026-01-14 23:08:26.41	31.12	21.53	-39.7	-42.0	13.8	6.80e-06	0	56	0	429916160	51	4573
2026-01-14 23:08:27.42	31.22	21.66	-39.7	-42.0	13.8	6.80e-06	0	56	0	433061888	51	4568
2026-01-14 23:08:28.43	31.32	21.79	-39.7	-41.9	13.9	2.20e-06	0	56	0	436207616	51	4516
2026-01-14 23:08:29.44	31.43	21.92	-39.7	-41.9	13.9	4.50e-06	0	56	0	439353344	51	4527
2026-01-14 23:08:30.45	31.53	22.05	-39.6	-41.9	13.9	3.00e-06	0	56	0	442499072	51	4498
2026-01-14 23:08:31.46	31.63	22.18	-39.6	-41.7	14.1	2.20e-06	0	56	0	445644800	51	4435
2026-01-14 23:08:32.46	31.74	22.31	-39.5	-41.7	14.1	0.00e+00	0	56	0	448790528	51	4430
2026-01-14 23:08:33.47	31.85	22.44	-39.6	-41.8	14.0	2.20e-06	0	56	0	451936256	51	4453
2026-01-14 23:08:34.48	31.95	22.58	-39.6	-41.7	14.1	7.00e-07	0	56	0	455081984	51	4437
2026-01-14 23:08:35.49	32.06	22.71	-39.6	-41.8	14.0	1.50e-06	0	56	0	458227712	51	4489
2026-01-14 23:08:36.50	32.17	22.85	-39.7	-41.9	13.9	1.50e-06	0	56	0	461373440	51	4520
2026-01-14 23:08:37.51	32.28	22.98	-39.6	-41.8	14.1	0.00e+00	0	57	0	464519168	51	4444
2026-01-14 23:08:38.52	32.39	23.12	-39.6	-41.8	14.0	3.80e-06	0	56	0	467664896	51	4475
2026-01-14 23:08:39.53	32.50	23.25	-39.6	-41.8	14.0	1.50e-06	0	57	0	470810624	51	4468
2026-01-14 23:08:40.53	32.62	23.39	-39.6	-41.8	14.0	2.20e-06	0	56	0	473956352	51	4481
2026-01-14 23:08:41.55	32.73	23.53	-39.6	-41.9	14.0	3.80e-06	0	57	0	477102080	51	4503
2026-01-14 23:08:42.55	32.84	23.67	-39.7	-41.9	13.9	4.50e-06	0	56	0	480247808	51	4516
2026-01-14 23:08:43.57	32.96	23.81	-39.7	-41.9	13.9	3.00e-06	0	56	0	483393536	51	4513
2026-01-14 23:08:44.58	33.08	23.95	-39.7	-41.9	13.9	4.50e-06	0	56	0	486539264	51	4543
2026-01-14 23:08:45.58	33.20	24.09	-39.6	-41.8	14.0	1.50e-06	0	57	0	489684992	51	4484
2026-01-14 23:08:46.59	33.31	24.23	-39.6	-41.8	14.1	1.50e-06	0	56	0	492830720	51	4466
2026-01-14 23:08:47.60	33.43	24.37	-39.6	-41.8	14.0	2.20e-06	0	56	0	495976448	51	4475
2026-01-14 23:08:48.61	33.56	24.51	-39.7	-41.8	14.0	3.00e-06	0	57	0	499122176	51	4491
2026-01-14 23:08:49.62	33.68	24.65	-39.7	-41.9	14.0	1.50e-06	0	56	0	502267904	51	4519
2026-01-14 23:08:50.63	33.80	24.80	-39.7	-42.0	13.9	7.00e-07	0	56	0	506462208	51	4552
2026-01-14 23:08:51.64	33.92	24.94	-39.7	-42.0	13.9	3.80e-06	0	57	0	508559360	51	4557
2026-01-14 23:08:52.65	34.05	25.09	-39.8	-42.1	13.8	3.00e-06	0	57	0	511705088	51	4617
2026-01-14 23:08:53.65	34.18	25.23	-39.8	-42.1	13.8	3.80e-06	0	57	0	514850816	51	4607
2026-01-14 23:08:54.66	34.30	25.38	-39.8	-42.1	13.8	4.50e-06	0	57	0	517996544	51	4626
2026-01-14 23:08:55.67	34.43	25.52	-39.9	-42.2	13.7	4.50e-06	0	56	0	521142272	51	4680
2026-01-14 23:08:56.68	34.56	25.67	-40.0	-42.4	13.5	9.90e-06	0	57	0	525336576	51	4761
2026-01-14 23:08:57.69	34.69	25.82	-40.0	-42.3	13.5	7.60e-06	0	57	0	528482304	51	4759
2026-01-14 23:08:58.70	34.82	25.97	-40.1	-42.5	13.4	1.06e-05	0	56	0	531628032	51	4829
2026-01-14 23:08:59.71	34.96	26.12	-40.1	-42.5	13.4	1.22e-05	0	57	0	533725184	51	4859
2026-01-14 23:09:00.72	35.09	26.27	-40.2	-42.6	13.3	1.75e-05	0	57	0	536870912	51	4884
2026-01-14 23:09:01.73	35.23	26.42	-40.2	-42.7	13.3	2.05e-05	0	57	0	541065216	51	4934
2026-01-14 23:09:02.74	35.37	26.57	-40.2	-42.6	13.3	1.67e-05	0	57	0	544210944	51	4903
2026-01-14 23:09:03.75	35.50	26.73	-40.3	-42.7	13.2	2.51e-05	0	57	0	547356672	51	4963
2026-01-14 23:09:04.76	35.64	26.88	-40.3	-42.7	13.2	2.44e-05	0	57	0	550502400	51	4971
2026-01-14 23:09:05.77	35.78	27.03	-40.3	-42.7	13.2	1.83e-05	0	57	0	553648128	51	4965
2026-01-14 23:09:06.78	35.93	27.19	-40.3	-42.8	13.1	2.44e-05	0	56	0	556793856	51	4994
2026-01-14 23:09:07.79	36.07	27.34	-40.3	-42.8	13.1	2.89e-05	0	57	0	559939584	51	5033
2026-01-14 23:09:08.80	36.22	27.50	-40.4	-42.9	13.0	3.20e-05	0	57	0	563085312	51	5062
2026-01-14 23:09:09.81	36.36	27.65	-40.5	-43.0	12.9	4.57e-05	0	57	0	566231040	51	5114
2026-01-14 23:09:10.82	36.51	27.81	-40.5	-43.0	12.9	3.58e-05	0	57	0	569376768	51	5121
2026-01-14 23:09:11.83	36.66	27.97	-40.5	-43.0	12.9	3.50e-05	0	57	0	572522496	51	5131
2026-01-14 23:09:12.83	36.81	28.13	-40.5	-43.0	12.9	4.80e-05	0	57	0	575668224	51	5131
2026-01-14 23:09:13.84	36.96	28.29	-40.4	-42.9	13.0	3.50e-05	0	57	0	578813952	51	5083
2026-01-14 23:09:14.85	37.12	28.45	-40.5	-43.0	13.0	4.50e-05	0	57	0	581959680	51	5127
2026-01-14 23:09:15.86	37.27	28.61	-40.5	-43.1	12.9	4.88e-05	0	57	0	585105408	51	5177
2026-01-14 23:09:16.87	37.43	28.77	-40.5	-43.1	12.9	3.73e-05	0	57	0	588251136	51	5167
2026-01-14 23:09:17.88	37.59	28.93	-40.6	-43.1	12.8	5.56e-05	0	57	0	591396864	51	5202
2026-01-14 23:09:18.89	37.75	29.09	-40.6	-43.2	12.8	5.64e-05	0	57	0	594542592	51	5229
2026-01-14 23:09:19.90	37.91	29.26	-40.6	-43.2	12.7	7.55e-05	0	57	0	597688320	51	5253
2026-01-14 23:09:20.91	38.07	29.42	-40.5	-43.1	12.9	7.09e-05	0	57	0	600834048	51	5180
2026-01-14 23:09:21.92	38.23	29.59	-40.6	-43.1	12.8	5.34e-05	0	57	0	603979776	51	5206
2026-01-14 23:09:22.93	38.40	29.75	-40.6	-43.1	12.8	6.94e-05	0	57	0	607125504	51	5215
2026-01-14 23:09:23.94	38.57	29.92	-40.7	-43.3	12.7	1.01e-04	0	57	0	610271232	51	5281
2026-01-14 23:09:24.95	38.74	30.09	-40.7	-43.3	12.6	7.17e-05	0	57	0	613416960	51	5308
2026-01-14 23:09:25.95	38.91	30.25	-40.7	-43.3	12.6	8.39e-05	0	57	0	616562688	52	5009
2026-01-14 23:09:26.96	39.08	30.42	-40.7	-43.3	12.6	9.23e-05	0	57	0	619708416	52	5013
2026-01-14 23:09:27.97	39.26	30.59	-40.7	-43.3	12.6	1.07e-04	0	57	0	622854144	52	5017
2026-01-14 23:09:28.98	39.43	30.76	-40.6	-43.2	12.7	7.17e-05	0	57	0	625999872	52	4950
2026-01-14 23:09:29.99	39.61	30.93	-40.6	-43.1	12.8	6.63e-05	0	57	0	629145600	52	4920
2026-01-14 23:09:30.99	39.79	31.10	-40.4	-42.9	13.0	2.74e-05	0	57	0	632291328	52	4784
2026-01-14 23:09:32.00	39.97	31.28	-40.3	-42.8	13.1	2.67e-05	0	57	0	635437056	52	4734
2026-01-14 23:09:33.01	40.16	31.45	-40.3	-42.7	13.1	2.21e-05	0	57	0	638582784	52	4703
2026-01-14 23:09:34.01	40.34	31.62	-40.3	-42.7	13.3	1.90e-05	0	57	0	641728512	52	4672
2026-01-14 23:09:35.02	40.53	31.80	-40.2	-42.6	13.3	1.44e-05	0	57	0	644874240	52	4642
2026-01-14 23:09:36.03	40.72	31.97	-40.2	-42.6	13.3	2.21e-05	0	57	0	648019968	52	4647
2026-01-14 23:09:37.04	40.91	32.15	-40.2	-42.6	13.3	1.98e-05	0	57	0	651165696	52	4640
2026-01-14 23:09:38.05	41.11	32.32	-40.3	-42.7	13.2	2.36e-05	0	57	0	654311424	52	4679
2026-01-14 23:09:39.06	41.30	32.50	-40.3	-42.7	13.3	2.05e-05	0	57	0	657457152	52	4683
2026-01-14 23:09:40.07	41.50	32.68	-40.3	-42.7	13.3	2.05e-05	0	57	0	660602880	52	4659
2026-01-14 23:09:41.08	41.70	32.86	-40.3	-42.8	13.1	2.44e-05	0	57	0	663748608	52	4733
2026-01-14 23:09:42.09	41.90	33.04	-40.4	-43.0	13.0	3.73e-05	0	57	0	666894336	52	4819
2026-01-14 23:09:43.10	42.11	33.22	-40.5	-43.0	12.9	5.18e-05	0	57	0	670040064	52	4864
2026-01-14 23:09:44.11	42.32	33.40	-40.6	-43.2	12.8	5.34e-05	0	57	0	673185792	52	4935
2026-01-14 23:09:45.12	42.52	33.58	-40.6	-43.2	12.7	7.24e-05	0	57	0	676331520	52	4982
2026-01-14 23:09:46.13	42.74	33.76	-40.6	-43.3	12.7	8.69e-05	0	57	0	679477248	52	4993
2026-01-14 23:09:47.14	42.95	33.94	-40.8	-43.5	12.5	1.14e-04	0	57	0	682622976	52	5122
2026-01-14 23:09:48.15	43.17	34.13	-40.8	-43.5	12.4	1.16e-04	0	57	0	685768704	52	5149
2026-01-14 23:09:49.16	43.39	34.31	-40.9	-43.6	12.3	2.02e-04	0	57	0	688914432	52	5218
2026-01-14 23:09:50.17	43.61	34.50	-40.9	-43.6	12.3	2.01e-04	0	57	0	692060160	52	5200
2026-01-14 23:09:51.18	43.83	34.68	-40.9	-43.6	12.3	1.45e-04	0	57	0	695205888	52	5212
2026-01-14 23:09:52.19	44.06	34.87	-40.9	-43.7	12.3	1.91e-04	0	57	0	698351616	52	5246
2026-01-14 23:09:53.20	44.29	35.05	-40.9	-43.7	12.3	1.89e-04	0	57	0	701497344	52	5252
2026-01-14 23:09:54.21	44.52	35.24	-41.0	-43.8	12.2	2.49e-04	0	57	0	704643072	52	5311
2026-01-14 23:09:55.22	44.75	35.43	-41.2	-44.0	11.9	4.23e-04	0	57	0	707788800	52	5460
2026-01-14 23:09:56.23	44.99	35.62	-41.4	-44.4	11.6	7.21e-04	0	57	0	710934528	53	5356
2026-01-14 23:09:57.24	45.23	35.81	-41.3	-44.3	11.6	6.20e-04	0	57	0	714080256	53	5325
2026-01-14 23:09:58.25	45.47	36.00	-41.4	-44.3	11.6	6.61e-04	0	57	0	717225984	53	5336
2026-01-14 23:09:59.26	45.71	36.19	-41.3	-44.3	11.6	6.89e-04	0	57	0	720371712	53	5309
2026-01-14 23:10:00.27	45.96	36.38	-41.3	-44.3	11.7	6.56e-04	0	57	0	723517440	53	5292
2026-01-14 23:10:01.28	46.21	36.57	-41.3	-44.2	11.7	4.78e-04	0	57	0	726663168	53	5273
2026-01-14 23:10:02.28	46.46	36.76	-41.2	-44.2	11.8	4.20e-04	0	57	0	729808896	53	5220
2026-01-14 23:10:03.29	46.72	36.95	-41.3	-44.2	11.7	5.11e-04	0	57	0	732954624	53	5235
2026-01-14 23:10:04.30	46.98	37.14	-41.3	-44.3	11.7	5.85e-04	0	57	0	736100352	53	5286
2026-01-14 23:10:05.31	47.24	37.34	-41.4	-44.4	11.5	7.84e-04	0	57	0	739246080	53	5373
2026-01-14 23:10:06.32	47.51	37.53	-41.4	-44.4	11.5	7.45e-04	0	57	0	742391808	53	5377
2026-01-14 23:10:07.33	47.78	37.73	-41.3	-44.3	11.7	6.51e-04	0	57	0	745537536	53	5284
2026-01-14 23:10:08.34	48.05	37.92	-41.4	-44.4	11.6	6.45e-04	0	57	0	748683264	53	5365
2026-01-14 23:10:09.34	48.32	38.11	-41.4	-44.4	11.5	7.64e-04	0	57	0	751828992	53	5380
2026-01-14 23:10:10.35	48.60	38.31	-41.4	-44.5	11.5	7.61e-04	0	57	0	754974720	53	5435
2026-01-14 23:10:11.36	48.88	38.51	-41.5	-44.6	11.4	9.26e-04	0	57	0	758120448	53	5466
2026-01-14 23:10:12.37	49.17	38.70	-41.3	-44.3	11.7	6.44e-04	0	57	0	761266176	53	5290
2026-01-14 23:10:13.38	49.46	38.90	-41.4	-44.4	11.5	7.77e-04	0	57	0	764411904	53	5396
2026-01-14 23:10:14.39	49.75	39.09	-41.4	-44.3	11.6	7.64e-04	0	57	0	767557632	53	5319
2026-01-14 23:10:15.40	50.04	39.29	-41.3	-44.3	11.7	5.41e-04	0	57	0	770703360	53	5285
2026-01-14 23:10:16.42	50.34	39.49	-41.4	-44.4	11.6	6.24e-04	0	57	0	773849088	53	5372
2026-01-14 23:10:17.43	50.65	39.69	-41.5	-44.5	11.4	8.29e-04	0	57	0	776994816	53	5463
2026-01-14 23:10:18.44	50.95	39.89	-41.5	-44.6	11.4	1.00e-03	0	57	0	780140544	53	5502
2026-01-14 23:10:19.45	51.26	40.09	-41.5	-44.6	11.4	1.20e-03	0	57	0	783286272	53	5519
2026-01-14 23:10:20.46	51.58	40.28	-41.7	-44.9	11.1	1.17e-03	0	57	0	786432000	53	5672
2026-01-14 23:10:21.47	51.90	40.48	-41.6	-44.7	11.3	1.08e-03	0	57	0	789577728	53	5554
2026-01-14 23:10:22.47	52.21	40.68	-41.6	-44.7	11.3	1.13e-03	0	57	0	792723456	53	5544
2026-01-14 23:10:23.47	52.54	40.88	-41.7	-44.9	11.1	1.43e-03	0	57	0	795869184	53	5683
2026-01-14 23:10:24.48	52.87	41.08	-41.7	-44.9	11.1	1.62e-03	0	57	0	799014912	54	5370
2026-01-14 23:10:25.49	53.20	41.28	-41.8	-45.1	10.9	2.08e-03	0	57	0	802160640	54	5518
2026-01-14 23:10:26.51	53.54	41.48	-41.8	-45.1	10.9	2.09e-03	0	57	0	805306368	54	5515
2026-01-14 23:10:27.52	53.88	41.68	-41.9	-45.3	10.7	2.47e-03	0	57	0	808452096	54	5627
2026-01-14 23:10:28.53	54.23	41.87	-42.0	-45.5	10.5	3.57e-03	0	57	0	811597824	54	5729
2026-01-14 23:10:29.53	54.57	42.07	-42.2	-45.9	10.1	5.84e-03	0	57	0	814743552	55	5666
2026-01-14 23:10:30.54	54.93	42.27	-42.5	-46.4	9.7	1.04e-02	0	57	0	817889280	55	5993
2026-01-14 23:10:31.55	55.29	42.47	-42.5	-46.4	9.6	1.22e-02	0	57	0	821035008	55	6030
2026-01-14 23:10:32.56	55.65	42.67	-42.6	-46.5	9.5	1.37e-02	0	57	0	824180736	55	6094
2026-01-14 23:10:33.56	56.01	42.86	-42.6	-46.6	9.4	1.43e-02	0	57	0	827326464	55	6166
2026-01-14 23:10:34.58	56.39	43.06	-42.6	-46.6	9.3	1.63e-02	0	57	0	830472192	55	6191
2026-01-14 23:10:35.59	56.77	43.26	-42.6	-46.6	9.4	1.67e-02	0	57	0	833617920	55	6177
2026-01-14 23:10:36.60	57.15	43.46	-42.5	-46.4	9.6	1.40e-02	0	57	0	836763648	55	6040
2026-01-14 23:10:37.61	57.53	43.66	-42.4	-46.2	9.8	1.20e-02	0	57	0	839909376	55	5913
2026-01-14 23:10:38.61	57.92	43.85	-42.3	-46.0	10.0	8.54e-03	0	57	0	843055104	55	5780
2026-01-14 23:10:39.62	58.32	44.05	-42.3	-46.0	10.0	8.29e-03	0	57	0	846200832	55	5772
2026-01-14 23:10:40.63	58.72	44.24	-42.4	-46.1	9.9	8.04e-03	0	58	0	849346560	55	5829
2026-01-14 23:10:41.64	59.12	44.44	-42.2	-45.7	10.3	6.04e-03	0	57	0	852492288	55	5574
2026-01-14 23:10:42.65	59.53	44.63	-42.2	-45.8	10.3	5.95e-03	0	57	0	855638016	55	5619
2026-01-14 23:10:43.66	59.95	44.83	-42.2	-45.8	10.2	5.65e-03	0	57	0	858783744	55	5610
2026-01-14 23:10:44.66	60.36	45.02	-42.3	-45.9	10.1	6.72e-03	0	57	0	861929472	55	5670
2026-01-14 23:10:45.67	60.79	45.21	-42.3	-46.0	9.9	7.63e-03	0	57	0	865075200	55	5763
2026-01-14 23:10:46.68	61.22	45.40	-42.3	-45.9	10.0	9.26e-03	0	57	0	868220928	55	5695
2026-01-14 23:10:47.69	61.65	45.59	-42.2	-45.8	10.1	7.90e-03	0	57	0	871366656	55	5637
2026-01-14 23:10:48.69	62.09	45.78	-42.1	-45.6	10.4	4.61e-03	0	57	0	874512384	55	5473
2026-01-14 23:10:49.70	62.54	45.97	-42.2	-45.7	10.3	4.94e-03	0	58	0	877658112	55	5540
2026-01-14 23:10:50.71	62.99	46.16	-42.2	-45.8	10.2	5.54e-03	0	57	0	880803840	55	5617
2026-01-14 23:10:51.72	63.44	46.35	-42.2	-45.8	10.1	6.59e-03	0	57	0	883949568	55	5651
2026-01-14 23:10:52.73	63.91	46.53	-42.2	-45.8	10.2	6.08e-03	0	57	0	887095296	55	5600
2026-01-14 23:10:53.73	64.37	46.72	-42.1	-45.6	10.4	5.36e-03	0	58	0	890241024	55	5487
2026-01-14 23:10:54.74	64.84	46.90	-42.0	-45.3	10.7	3.23e-03	0	57	0	893386752	55	5327
2026-01-14 23:10:55.75	65.32	47.08	-41.9	-45.2	10.9	2.21e-03	0	57	0	896532480	55	5228
2026-01-14 23:10:56.75	65.80	47.26	-41.7	-44.9	11.2	1.73e-03	0	58	0	899678208	55	5050
2026-01-14 23:10:57.76	66.29	47.44	-41.7	-44.8	11.2	1.37e-03	0	58	0	902823936	55	5035
2026-01-14 23:10:58.77	66.78	47.62	-41.6	-44.7	11.4	1.04e-03	0	58	0	905969664	55	4945
2026-01-14 23:10:59.78	67.29	47.79	-41.8	-44.9	11.1	1.09e-03	0	57	0	909115392	55	5095
2026-01-14 23:11:00.79	67.79	47.97	-41.9	-45.2	10.9	2.22e-03	0	58	0	912261120	55	5244
2026-01-14 23:11:01.80	68.30	48.14	-42.0	-45.3	10.8	2.66e-03	0	57	0	915406848	55	5307
2026-01-14 23:11:02.81	68.82	48.31	-41.9	-45.3	10.8	2.45e-03	0	57	0	918552576	55	5285
2026-01-14 23:11:03.82	69.35	48.48	-41.7	-44.9	11.2	1.72e-03	0	58	0	921698304	55	5046
2026-01-14 23:11:04.83	69.87	48.65	-41.6	-44.7	11.3	1.19e-03	0	58	0	924844032	55	4935
2026-01-14 23:11:05.84	70.41	48.82	-41.6	-44.7	11.3	9.36e-04	0	57	0	927989760	55	4960
2026-01-14 23:11:06.85	70.95	48.98	-41.8	-44.9	11.1	1.36e-03	0	58	0	931135488	55	5082
2026-01-14 23:11:07.86	71.50	49.14	-41.6	-44.6	11.5	1.26e-03	0	58	0	934281216	55	4901
2026-01-14 23:11:08.87	72.05	49.30	-41.6	-44.7	11.4	7.76e-04	0	58	0	938475520	55	4939
2026-01-14 23:11:09.87	72.60	49.46	-41.8	-44.9	11.1	1.65e-03	0	57	0	941621248	55	5088
2026-01-14 23:11:10.88	73.16	49.61	-41.8	-45.0	11.0	1.98e-03	0	57	0	943718400	55	5125
2026-01-14 23:11:11.89	73.73	49.76	-41.9	-45.1	10.9	1.86e-03	0	57	0	946864128	55	5190
2026-01-14 23:11:12.90	74.31	49.91	-41.9	-45.2	11.0	2.00e-03	0	57	0	950009856	55	5247
2026-01-14 23:11:13.91	74.89	50.06	-41.9	-45.2	10.9	2.29e-03	0	57	0	953155584	55	5247
2026-01-14 23:11:14.92	75.48	50.21	-41.8	-45.0	11.1	1.78e-03	0	57	0	957349888	55	5110
2026-01-14 23:11:15.93	76.07	50.35	-41.7	-44.9	11.2	1.51e-03	0	57	0	960495616	55	5073
2026-01-14 23:11:16.94	76.66	50.49	-41.7	-44.9	11.2	1.47e-03	0	57	0	963641344	55	5056
2026-01-14 23:11:17.95	77.27	50.62	-41.5	-44.5	11.6	8.15e-04	0	57	0	966787072	55	4866
2026-01-14 23:11:18.96	77.87	50.76	-41.4	-44.3	11.8	4.54e-04	0	58	0	968884224	54	4993
2026-01-14 23:11:19.97	78.49	50.89	-41.4	-44.2	11.8	3.36e-04	0	57	0	973078528	54	4978
2026-01-14 23:11:20.97	79.10	51.01	-41.4	-44.3	11.8	4.42e-04	0	58	0	976224256	54	5025
2026-01-14 23:11:21.98	79.72	51.14	-41.4	-44.3	11.9	4.13e-04	0	57	0	979369984	54	4998
2026-01-14 23:11:22.99	80.35	51.26	-41.4	-44.2	11.9	3.85e-04	0	58	0	982515712	54	4981
2026-01-14 23:11:24.00	80.99	51.38	-41.2	-44.0	12.1	2.50e-04	0	57	0	985661440	54	4855
2026-01-14 23:11:25.01	81.63	51.49	-41.3	-44.2	11.9	3.36e-04	0	57	0	988807168	54	4940
2026-01-14 23:11:26.02	82.27	51.60	-41.5	-44.6	11.5	7.37e-04	0	58	0	991952896	54	5166
2026-01-14 23:11:27.03	82.92	51.71	-41.6	-44.6	11.5	8.70e-04	0	57	0	995098624	54	5189
2026-01-14 23:11:28.04	83.57	51.82	-41.3	-44.2	11.9	5.24e-04	0	58	0	998244352	54	4966
2026-01-14 23:11:29.05	84.23	51.92	-41.3	-44.1	12.1	2.61e-04	0	57	0	1001390080	54	4894
2026-01-14 23:11:30.06	84.89	52.01	-41.1	-43.9	12.2	1.81e-04	0	58	0	1004535808	54	4767
2026-01-14 23:11:31.07	85.56	52.11	-41.3	-44.2	12.0	3.17e-04	0	57	0	1007681536	54	4932
2026-01-14 23:11:32.07	86.22	52.19	-41.3	-44.1	12.0	3.94e-04	0	57	0	1010827264	54	4909
2026-01-14 23:11:33.08	86.89	52.28	-41.1	-43.7	12.4	2.27e-04	0	58	0	1013972992	54	4704
2026-01-14 23:11:34.09	87.57	52.36	-41.0	-43.7	12.4	1.37e-04	0	58	0	1017118720	53	4927
2026-01-14 23:11:35.10	88.25	52.44	-41.2	-44.0	11.9	2.78e-04	0	58	0	1020264448	53	5144
2026-01-14 23:11:36.11	88.94	52.51	-41.5	-44.5	11.5	7.22e-04	0	58	0	1023410176	53	5431
2026-01-14 23:11:37.11	89.62	52.58	-41.6	-44.7	11.4	1.02e-03	0	58	0	1026555904	53	5533
2026-01-14 23:11:38.12	90.31	52.65	-41.4	-44.4	11.6	6.50e-04	0	57	0	1029701632	53	5381
2026-01-14 23:11:39.13	91.01	52.71	-41.3	-44.2	11.8	4.67e-04	0	57	0	1032847360	53	5267
2026-01-14 23:11:40.14	91.70	52.77	-41.3	-44.1	11.9	3.91e-04	0	58	0	1035993088	53	5196
2026-01-14 23:11:41.15	92.40	52.82	-41.3	-44.1	12.0	3.24e-04	0	57	0	1039138816	53	5197
2026-01-14 23:11:42.16	93.11	52.87	-41.2	-44.0	12.2	2.55e-04	0	57	0	1042284544	53	5101
2026-01-14 23:11:43.17	93.81	52.91	-41.3	-44.1	12.0	2.35e-04	0	58	0	1045430272	53	5169
2026-01-14 23:11:44.18	94.52	52.95	-41.3	-44.2	11.8	3.82e-04	0	57	0	1048576000	53	5236
2026-01-14 23:11:45.19	95.23	52.99	-41.2	-44.0	12.1	3.20e-04	0	57	0	1051721728	53	5156
2026-01-14 23:11:46.20	95.94	53.02	-41.0	-43.6	12.5	1.55e-04	0	57	0	1054867456	53	4920
2026-01-14 23:11:47.20	96.64	53.05	-41.0	-43.7	12.4	1.07e-04	0	57	0	1058013184	53	4927
2026-01-14 23:11:48.21	97.35	53.07	-41.0	-43.7	12.4	1.79e-04	0	58	0	1061158912	53	4957
2026-01-14 23:11:49.22	98.07	53.09	-41.4	-44.3	11.8	3.46e-04	0	58	0	1064304640	53	5287
2026-01-14 23:11:50.23	98.78	53.10	-41.5	-44.5	11.6	7.39e-04	0	57	0	1067450368	53	5404
2026-01-14 23:11:51.24	99.50	53.11	-41.1	-43.9	12.3	2.31e-04	0	57	0	1070596096	53	5064
2026-01-14 23:11:52.25	100.21	53.12	-40.8	-43.4	12.7	8.39e-05	0	58	0	1073741824	53	4803
2026-01-14 23:11:53.26	100.93	53.12	-40.8	-43.4	12.7	6.40e-05	0	57	0	1076887552	53	4791
2026-01-14 23:11:54.27	101.64	53.11	-40.8	-43.4	12.8	6.25e-05	0	58	0	1080033280	53	4791
2026-01-14 23:11:55.28	102.36	53.10	-40.9	-43.5	12.7	1.06e-04	0	58	0	1083179008	53	4848
2026-01-14 23:11:56.29	103.08	53.09	-40.9	-43.5	12.7	7.40e-05	0	57	0	1086324736	53	4849
2026-01-14 23:11:57.29	103.78	53.07	-40.9	-43.5	12.6	9.76e-05	0	58	0	1089470464	53	4859
2026-01-14 23:11:58.30	104.50	53.05	-41.1	-43.8	12.3	1.71e-04	0	58	0	1092616192	53	5005
2026-01-14 23:11:59.31	105.21	53.02	-40.9	-43.6	12.5	1.17e-04	0	58	0	1095761920	53	4890
2026-01-14 23:12:00.32	105.92	52.99	-40.9	-43.5	12.7	8.31e-05	0	57	0	1098907648	53	4816
2026-01-14 23:12:01.33	106.63	52.96	-40.7	-43.3	12.8	6.02e-05	0	57	0	1102053376	53	4725
2026-01-14 23:12:02.34	107.34	52.92	-41.2	-44.0	12.0	2.06e-04	0	57	0	1105199104	53	5141
2026-01-14 23:12:03.35	108.04	52.87	-41.7	-44.9	11.1	1.25e-03	0	58	0	1108344832	53	5678
2026-01-14 23:12:04.36	108.74	52.82	-41.4	-44.4	11.7	7.60e-04	0	58	0	1111490560	53	5376
2026-01-14 23:12:05.37	109.44	52.77	-41.2	-44.1	12.0	3.86e-04	0	58	0	1114636288	53	5187
2026-01-14 23:12:06.38	110.14	52.72	-41.1	-43.9	12.1	3.22e-04	0	58	0	1117782016	53	5085
2026-01-14 23:12:07.39	110.84	52.65	-41.2	-44.0	12.0	2.96e-04	0	57	0	1120927744	53	5124
2026-01-14 23:12:08.39	111.52	52.59	-41.3	-44.2	11.9	3.87e-04	0	57	0	1124073472	53	5224
2026-01-14 23:12:09.40	112.21	52.52	-41.4	-44.3	11.8	4.55e-04	0	58	0	1127219200	53	5314
2026-01-14 23:12:10.41	112.90	52.45	-41.5	-44.5	11.5	6.61e-04	0	58	0	1130364928	53	5462
2026-01-14 23:12:11.42	113.58	52.37	-41.6	-44.7	11.2	1.12e-03	0	58	0	1133510656	53	5592
2026-01-14 23:12:12.43	114.26	52.29	-41.4	-44.3	11.8	9.46e-04	0	58	0	1136656384	53	5313
2026-01-14 23:12:13.44	114.94	52.20	-41.3	-44.2	11.8	4.37e-04	0	58	0	1139802112	53	5266
2026-01-14 23:12:14.45	115.61	52.11	-41.2	-44.1	12.0	3.20e-04	0	58	0	1142947840	53	5170
2026-01-14 23:12:15.46	116.28	52.02	-41.3	-44.2	11.9	3.13e-04	0	58	0	1146093568	53	5247
2026-01-14 23:12:16.47	116.94	51.92	-41.3	-44.2	11.9	4.18e-04	0	58	0	1149239296	53	5273
2026-01-14 23:12:17.48	117.60	51.82	-41.0	-43.7	12.3	1.94e-04	0	58	0	1152385024	53	4969
2026-01-14 23:12:18.49	118.25	51.72	-41.0	-43.7	12.3	1.56e-04	0	58	0	1155530752	53	4966
2026-01-14 23:12:19.50	118.90	51.61	-41.3	-44.2	11.8	3.32e-04	0	58	0	1158676480	53	5232
2026-01-14 23:12:20.51	119.55	51.50	-41.3	-44.2	11.9	4.53e-04	0	58	0	1161822208	53	5224
2026-01-14 23:12:21.52	120.19	51.38	-41.3	-44.3	11.8	4.51e-04	0	58	0	1164967936	53	5287
2026-01-14 23:12:22.52	120.82	51.27	-41.5	-44.5	11.6	6.01e-04	0	58	0	1168113664	53	5404
2026-01-14 23:12:23.53	121.45	51.15	-41.7	-44.9	11.2	1.12e-03	0	58	0	1171259392	54	5383
2026-01-14 23:12:24.54	122.07	51.02	-42.0	-45.4	10.7	2.74e-03	0	58	0	1174405120	54	5686
2026-01-14 23:12:25.55	122.69	50.89	-42.0	-45.3	10.7	2.92e-03	0	58	0	1177550848	54	5631
2026-01-14 23:12:26.56	123.31	50.76	-42.0	-45.4	10.6	2.60e-03	0	58	0	1180696576	54	5686
2026-01-14 23:12:27.57	123.91	50.63	-41.9	-45.2	10.8	2.80e-03	0	58	0	1183842304	54	5567
2026-01-14 23:12:28.58	124.52	50.49	-41.6	-44.7	11.4	1.20e-03	0	58	0	1186988032	54	5250
2026-01-14 23:12:29.59	125.12	50.35	-41.5	-44.5	11.6	5.93e-04	0	58	0	1190133760	54	5101
2026-01-14 23:12:30.60	125.71	50.21	-41.2	-44.0	12.1	3.11e-04	0	58	0	1193279488	54	4838
2026-01-14 23:12:31.60	126.29	50.07	-41.4	-44.2	11.8	3.97e-04	0	58	0	1196425216	54	4968
2026-01-14 23:12:32.61	126.87	49.92	-41.5	-44.5	11.6	7.34e-04	0	58	0	1199570944	54	5112
2026-01-14 23:12:33.62	127.45	49.77	-41.4	-44.3	11.8	6.23e-04	0	58	0	1202716672	54	5007
2026-01-14 23:12:34.63	128.02	49.62	-41.3	-44.2	11.9	3.43e-04	0	58	0	1205862400	54	4943
2026-01-14 23:12:35.64	128.59	49.46	-41.3	-44.1	11.9	3.88e-04	0	58	0	1209008128	54	4923
2026-01-14 23:12:36.65	129.15	49.30	-41.2	-44.0	12.1	3.19e-04	0	58	0	1212153856	54	4816
2026-01-14 23:12:37.66	129.70	49.14	-41.1	-43.8	12.4	1.64e-04	0	58	0	1215299584	54	4710
2026-01-14 23:12:38.67	130.25	48.98	-41.4	-44.3	11.8	4.26e-04	0	58	0	1218445312	54	4999
2026-01-14 23:12:39.68	130.79	48.82	-41.7	-44.9	11.2	7.90e-04	0	58	0	1221591040	54	5366
2026-01-14 23:12:40.69	131.33	48.65	-41.9	-45.1	10.9	1.89e-03	0	58	0	1224736768	54	5521
2026-01-14 23:12:41.70	131.86	48.48	-41.8	-45.0	11.1	1.66e-03	0	58	0	1227882496	54	5427
2026-01-14 23:12:42.71	132.38	48.31	-42.0	-45.3	10.7	2.19e-03	0	58	0	1231028224	54	5609
2026-01-14 23:12:43.73	132.91	48.14	-42.1	-45.5	10.5	4.88e-03	0	58	0	1234173952	54	5768
2026-01-14 23:12:44.74	133.42	47.97	-41.9	-45.1	11.0	2.20e-03	0	58	0	1237319680	54	5477
2026-01-14 23:12:45.75	133.93	47.79	-41.8	-45.0	11.1	1.68e-03	0	58	0	1240465408	54	5412
2026-01-14 23:12:46.76	134.43	47.61	-41.7	-44.8	11.2	1.33e-03	0	58	0	1243611136	54	5319
2026-01-14 23:12:47.77	134.93	47.44	-41.8	-45.1	11.0	1.58e-03	0	58	0	1246756864	54	5472
2026-01-14 23:12:48.78	135.42	47.26	-42.1	-45.6	10.4	3.85e-03	0	58	0	1249902592	54	5834
2026-01-14 23:12:49.79	135.91	47.07	-42.1	-45.7	10.3	4.75e-03	0	58	0	1253048320	54	5856
2026-01-14 23:12:50.80	136.39	46.89	-42.0	-45.3	10.7	3.05e-03	0	58	0	1256194048	54	5616
2026-01-14 23:12:51.80	136.86	46.71	-41.9	-45.1	10.9	2.18e-03	0	58	0	1259339776	54	5527
2026-01-14 23:12:52.81	137.32	46.52	-41.8	-45.1	11.0	1.88e-03	0	58	0	1262485504	54	5488
2026-01-14 23:12:53.82	137.79	46.34	-41.8	-45.0	11.0	1.78e-03	0	57	0	1265631232	54	5436
2026-01-14 23:12:54.83	138.25	46.15	-41.9	-45.3	10.8	2.61e-03	0	58	0	1268776960	54	5604
2026-01-14 23:12:55.84	138.70	45.96	-41.8	-44.9	11.1	2.05e-03	0	58	0	1271922688	54	5392
2026-01-14 23:12:56.85	139.15	45.77	-41.8	-45.0	11.1	1.79e-03	0	58	0	1275068416	54	5419
2026-01-14 23:12:57.86	139.59	45.58	-41.8	-45.0	11.0	1.86e-03	0	58	0	1278214144	54	5432
2026-01-14 23:12:58.87	140.02	45.39	-41.7	-44.9	11.2	1.54e-03	0	58	0	1281359872	54	5345
2026-01-14 23:12:59.88	140.46	45.19	-41.7	-44.8	11.2	1.41e-03	0	58	0	1284505600	54	5338
2026-01-14 23:13:00.89	140.88	45.00	-41.8	-44.9	11.1	1.58e-03	0	58	0	1287651328	54	5402
2026-01-14 23:13:01.90	141.30	44.81	-42.1	-45.6	10.4	3.15e-03	0	58	0	1290797056	54	5819
2026-01-14 23:13:02.90	141.72	44.61	-42.3	-45.9	10.1	6.75e-03	0	58	0	1293942784	55	5715
2026-01-14 23:13:03.91	142.13	44.42	-42.2	-45.8	10.1	7.15e-03	0	58	0	1297088512	55	5624
2026-01-14 23:13:04.92	142.53	44.22	-42.1	-45.5	10.4	4.32e-03	0	58	0	1300234240	55	5439
2026-01-14 23:13:05.93	142.93	44.02	-42.1	-45.5	10.5	3.67e-03	0	58	0	1303379968	55	5428
2026-01-14 23:13:06.94	143.33	43.83	-41.8	-45.0	11.0	2.39e-03	0	58	0	1306525696	55	5137
2026-01-14 23:13:07.94	143.72	43.63	-41.7	-44.8	11.1	1.42e-03	0	58	0	1309671424	55	5031
2026-01-14 23:13:08.95	144.11	43.43	-41.8	-45.0	10.9	1.79e-03	0	58	0	1312817152	55	5132
2026-01-14 23:13:09.96	144.49	43.24	-41.7	-44.8	11.1	1.64e-03	0	58	0	1315962880	55	4985
2026-01-14 23:13:10.98	144.87	43.03	-41.8	-45.0	10.8	2.49e-03	0	58	0	1319108608	55	5118
2026-01-14 23:13:11.99	145.24	42.83	-42.0	-45.4	10.5	3.86e-03	0	58	0	1322254336	55	5354
2026-01-14 23:13:13.00	145.61	42.64	-41.9	-45.2	10.7	3.62e-03	0	58	0	1325400064	55	5222
2026-01-14 23:13:14.01	145.98	42.44	-41.7	-44.9	11.0	2.52e-03	0	58	0	1328545792	55	5078
2026-01-14 23:13:15.02	146.34	42.24	-41.7	-44.8	11.1	1.59e-03	0	58	0	1331691520	55	4988
2026-01-14 23:13:16.03	146.69	42.04	-41.8	-45.0	10.8	1.98e-03	0	58	0	1334837248	55	5142
2026-01-14 23:13:17.04	147.04	41.84	-41.9	-45.2	10.6	3.11e-03	0	58	0	1337982976	55	5245
2026-01-14 23:13:18.05	147.39	41.64	-42.0	-45.4	10.4	4.34e-03	0	58	0	1341128704	55	5397
2026-01-14 23:13:19.06	147.73	41.44	-42.1	-45.7	10.2	6.10e-03	0	58	0	1344274432	55	5548
2026-01-14 23:13:20.07	148.07	41.24	-42.2	-45.7	10.2	6.20e-03	0	57	0	1348468736	55	5590
2026-01-14 23:13:21.08	148.40	41.04	-42.2	-45.7	10.2	6.57e-03	0	58	0	1351614464	55	5574
2026-01-14 23:13:22.09	148.73	40.84	-42.1	-45.6	10.3	5.60e-03	0	58	0	1353711616	55	5471
2026-01-14 23:13:23.09	149.06	40.64	-42.0	-45.4	10.5	4.00e-03	0	58	0	1356857344	55	5360
2026-01-14 23:13:24.10	149.38	40.44	-42.0	-45.4	10.6	3.76e-03	0	58	0	1360003072	55	5344
2026-01-14 23:13:25.11	149.70	40.24	-41.8	-45.1	10.9	2.29e-03	0	58	0	1364197376	55	5162
2026-01-14 23:13:26.12	150.01	40.04	-41.8	-45.0	10.9	2.10e-03	0	58	0	1367343104	55	5140
2026-01-14 23:13:27.13	150.32	39.84	-41.6	-44.7	11.2	1.64e-03	0	58	0	1370488832	55	4972
2026-01-14 23:13:28.14	150.63	39.64	-41.4	-44.3	11.6	7.91e-04	0	58	0	1373634560	54	5035
2026-01-14 23:13:29.15	150.93	39.44	-41.3	-44.1	11.9	4.98e-04	0	58	0	1376780288	54	4909
2026-01-14 23:13:30.16	151.23	39.24	-41.2	-44.0	12.1	3.04e-04	0	58	0	1379926016	54	4831
2026-01-14 23:13:31.17	151.53	39.04	-41.3	-44.1	11.8	3.85e-04	0	58	0	1383071744	54	4924
2026-01-14 23:13:32.18	151.82	38.84	-41.6	-44.6	11.2	1.07e-03	0	58	0	1386217472	54	5191
2026-01-14 23:13:33.20	152.11	38.65	-41.9	-45.3	10.5	3.21e-03	0	58	0	1389363200	54	5635
2026-01-14 23:13:34.21	152.40	38.45	-41.9	-45.3	10.5	3.48e-03	0	58	0	1392508928	54	5642
2026-01-14 23:13:35.22	152.68	38.25	-41.8	-45.0	10.9	3.14e-03	0	58	0	1395654656	54	5432
2026-01-14 23:13:36.23	152.96	38.05	-41.6	-44.8	11.2	1.56e-03	0	58	0	1398800384	54	5296
2026-01-14 23:13:37.24	153.24	37.86	-41.5	-44.6	11.3	9.62e-04	0	58	0	1401946112	54	5185
2026-01-14 23:13:38.24	153.50	37.66	-41.5	-44.5	11.4	9.88e-04	0	58	0	1405091840	54	5158
2026-01-14 23:13:39.25	153.77	37.47	-41.5	-44.6	11.4	1.03e-03	0	58	0	1408237568	54	5167
2026-01-14 23:13:40.26	154.04	37.27	-41.6	-44.8	11.2	1.29e-03	0	58	0	1411383296	54	5289
2026-01-14 23:13:41.27	154.30	37.08	-41.4	-44.4	11.6	9.20e-04	0	58	0	1414529024	54	5074
2026-01-14 23:13:42.27	154.56	36.89	-41.3	-44.3	11.7	6.63e-04	0	58	0	1417674752	54	4998
2026-01-14 23:13:43.28	154.82	36.69	-41.2	-44.0	12.0	4.07e-04	0	58	0	1420820480	54	4851
2026-01-14 23:13:44.29	155.07	36.50	-41.1	-43.8	12.1	2.76e-04	0	58	0	1423966208	54	4756
2026-01-14 23:13:45.30	155.32	36.31	-41.0	-43.7	12.3	2.15e-04	0	58	0	1427111936	54	4669
2026-01-14 23:13:46.31	155.57	36.12	-40.8	-43.4	12.6	1.07e-04	0	58	0	1430257664	53	4812
2026-01-14 23:13:47.32	155.82	35.93	-40.7	-43.3	12.7	5.72e-05	0	58	0	1433403392	53	4716
2026-01-14 23:13:48.32	156.06	35.74	-40.7	-43.2	12.7	7.09e-05	0	58	0	1436549120	53	4695
2026-01-14 23:13:49.33	156.30	35.55	-40.7	-43.4	12.6	7.47e-05	0	58	0	1439694848	53	4765
2026-01-14 23:13:50.34	156.53	35.36	-40.8	-43.4	12.6	1.01e-04	0	58	0	1442840576	53	4796
2026-01-14 23:13:51.35	156.77	35.17	-40.9	-43.5	12.4	1.27e-04	0	58	0	1445986304	53	4861
2026-01-14 23:13:52.36	157.00	34.98	-40.9	-43.5	12.4	1.39e-04	0	58	0	1449132032	53	4863
2026-01-14 23:13:53.36	157.23	34.79	-40.8	-43.4	12.5	1.06e-04	0	58	0	1452277760	53	4799
2026-01-14 23:13:54.37	157.45	34.61	-40.7	-43.3	12.7	9.91e-05	0	58	0	1455423488	53	4731
2026-01-14 23:13:55.38	157.68	34.42	-40.6	-43.1	12.9	6.02e-05	0	58	0	1458569216	53	4619
2026-01-14 23:13:56.39	157.90	34.23	-40.6	-43.1	12.8	6.48e-05	0	58	0	1461714944	53	4603
2026-01-14 23:13:57.40	158.12	34.05	-40.7	-43.3	12.6	8.54e-05	0	58	0	1464860672	53	4716
2026-01-14 23:13:58.41	158.33	33.86	-40.7	-43.3	12.6	7.70e-05	0	58	0	1468006400	53	4725
2026-01-14 23:13:59.42	158.55	33.68	-40.6	-43.1	12.8	4.88e-05	0	58	0	1471152128	53	4631
2026-01-14 23:14:00.43	158.76	33.50	-40.4	-42.9	13.1	3.35e-05	0	58	0	1474297856	52	4770
2026-01-14 23:14:01.44	158.97	33.31	-40.3	-42.7	13.2	2.51e-05	0	58	0	1477443584	52	4687
2026-01-14 23:14:02.45	159.18	33.13	-40.3	-42.7	13.2	2.05e-05	0	58	0	1480589312	52	4675
2026-01-14 23:14:03.46	159.38	32.95	-40.3	-42.6	13.3	2.05e-05	0	58	0	1483735040	52	4643
2026-01-14 23:14:04.47	159.59	32.77	-40.4	-42.9	13.0	2.51e-05	0	58	0	1486880768	52	4771
2026-01-14 23:14:05.48	159.79	32.59	-40.5	-43.1	12.8	4.04e-05	0	58	0	1490026496	52	4892
2026-01-14 23:14:06.49	159.98	32.41	-40.7	-43.3	12.6	1.17e-04	0	58	0	1493172224	52	5040
2026-01-14 23:14:07.50	160.18	32.23	-40.8	-43.4	12.4	1.27e-04	0	58	0	1496317952	52	5090
2026-01-14 23:14:08.51	160.38	32.06	-40.7	-43.4	12.5	1.25e-04	0	58	0	1499463680	52	5060
2026-01-14 23:14:09.52	160.57	31.88	-40.6	-43.3	12.6	9.61e-05	0	58	0	1502609408	52	4988
2026-01-14 23:14:10.53	160.76	31.70	-40.5	-43.1	12.8	6.40e-05	0	58	0	1505755136	52	4873
2026-01-14 23:14:11.54	160.95	31.53	-40.3	-42.8	13.0	4.80e-05	0	58	0	1508900864	52	4713
2026-01-14 23:14:12.55	161.13	31.35	-40.1	-42.4	13.4	1.44e-05	0	58	0	1512046592	52	4531
2026-01-14 23:14:13.56	161.32	31.18	-40.0	-42.3	13.7	8.30e-06	0	58	0	1515192320	51	4707
2026-01-14 23:14:14.57	161.50	31.00	-39.8	-42.0	13.9	5.30e-06	0	58	0	1518338048	51	4559
2026-01-14 23:14:15.57	161.68	30.83	-39.7	-41.9	14.0	3.80e-06	0	58	0	1521483776	51	4507
2026-01-14 23:14:16.58	161.86	30.66	-39.7	-41.8	14.1	4.50e-06	0	58	0	1524629504	51	4480
2026-01-14 23:14:17.59	162.03	30.49	-39.7	-41.8	14.1	0.00e+00	0	58	0	1527775232	51	4488
2026-01-14 23:14:18.60	162.21	30.32	-39.7	-41.9	14.1	1.50e-06	0	58	0	1530920960	51	4497
2026-01-14 23:14:19.60	162.38	30.15	-39.8	-42.0	13.9	4.50e-06	0	58	0	1534066688	51	4570
2026-01-14 23:14:20.61	162.55	29.98	-39.9	-42.2	13.8	6.80e-06	0	58	0	1537212416	51	4659
2026-01-14 23:14:21.62	162.72	29.81	-40.1	-42.5	13.4	6.80e-06	0	58	0	1540358144	51	4832
2026-01-14 23:14:22.63	162.89	29.65	-40.3	-42.7	13.3	1.67e-05	0	58	0	1543503872	51	4929
2026-01-14 23:14:23.64	163.05	29.48	-40.3	-42.7	13.2	2.36e-05	0	58	0	1546649600	51	4964
2026-01-14 23:14:24.65	163.22	29.31	-40.2	-42.6	13.3	1.90e-05	0	58	0	1549795328	51	4915
2026-01-14 23:14:25.66	163.38	29.15	-40.3	-42.7	13.3	1.52e-05	0	58	0	1552941056	51	4930
2026-01-14 23:14:26.67	163.54	28.98	-40.3	-42.7	13.2	1.75e-05	0	58	0	1556086784	51	4929
2026-01-14 23:14:27.68	163.70	28.82	-40.3	-42.8	13.1	1.98e-05	0	58	0	1559232512	51	4985
2026-01-14 23:14:28.69	163.86	28.66	-40.4	-42.8	13.0	2.21e-05	0	58	0	1562378240	51	5027
2026-01-14 23:14:29.70	164.02	28.49	-40.3	-42.8	13.1	3.35e-05	0	58	0	1565523968	51	4993
2026-01-14 23:14:30.71	164.17	28.33	-40.3	-42.7	13.1	3.28e-05	0	58	0	1568669696	51	4968
2026-01-14 23:14:31.72	164.33	28.17	-40.2	-42.6	13.2	1.67e-05	0	58	0	1571815424	51	4894
2026-01-14 23:14:32.73	164.48	28.01	-40.2	-42.5	13.3	2.28e-05	0	58	0	1574961152	51	4865
2026-01-14 23:14:33.74	164.63	27.85	-40.2	-42.5	13.3	1.52e-05	0	58	0	1578106880	51	4858
2026-01-14 23:14:34.75	164.78	27.69	-40.1	-42.5	13.4	1.22e-05	0	58	0	1581252608	51	4833
2026-01-14 23:14:35.76	164.93	27.53	-40.1	-42.4	13.4	1.67e-05	0	58	0	1584398336	51	4806
2026-01-14 23:14:36.77	165.07	27.38	-40.1	-42.4	13.4	1.44e-05	0	58	0	1587544064	51	4790
2026-01-14 23:14:37.78	165.22	27.22	-40.0	-42.3	13.5	9.90e-06	0	58	0	1590689792	51	4737
2026-01-14 23:14:38.79	165.36	27.06	-40.0	-42.3	13.5	1.06e-05	0	58	0	1593835520	51	4725
2026-01-14 23:14:39.80	165.50	26.91	-40.0	-42.3	13.4	8.30e-06	0	58	0	1596981248	51	4752
2026-01-14 23:14:40.81	165.64	26.75	-40.0	-42.4	13.5	1.67e-05	0	58	0	1600126976	51	4761
2026-01-14 23:14:41.82	165.78	26.60	-40.0	-42.3	13.5	1.14e-05	0	58	0	1603272704	51	4741
2026-01-14 23:14:42.83	165.92	26.45	-40.0	-42.3	13.6	1.06e-05	0	58	0	1606418432	51	4712
2026-01-14 23:14:43.83	166.06	26.29	-39.9	-42.2	13.6	9.90e-06	0	58	0	1609564160	51	4677
2026-01-14 23:14:44.84	166.19	26.14	-39.9	-42.1	13.7	8.30e-06	0	58	0	1612709888	51	4648
2026-01-14 23:14:45.85	166.33	25.99	-39.8	-42.1	13.8	5.30e-06	0	58	0	1615855616	51	4617
2026-01-14 23:14:46.86	166.46	25.84	-39.8	-42.0	13.8	7.00e-07	0	58	0	1619001344	51	4594
2026-01-14 23:14:47.87	166.59	25.69	-39.8	-42.0	13.9	6.10e-06	0	58	0	1622147072	51	4569
2026-01-14 23:14:48.88	166.72	25.54	-39.7	-41.9	13.9	1.50e-06	0	58	0	1625292800	51	4532
2026-01-14 23:14:49.89	166.85	25.39	-39.7	-41.9	14.0	4.50e-06	0	58	0	1628438528	51	4518
2026-01-14 23:14:50.89	166.98	25.25	-39.7	-41.9	14.0	0.00e+00	0	58	0	1631584256	51	4515
2026-01-14 23:14:51.90	167.11	25.10	-39.7	-41.8	14.0	2.20e-06	0	58	0	1634729984	51	4477
2026-01-14 23:14:52.91	167.23	24.95	-39.6	-41.8	14.1	2.20e-06	0	58	0	1637875712	51	4455
2026-01-14 23:14:53.92	167.36	24.81	-39.7	-41.9	14.0	2.20e-06	0	58	0	1641021440	51	4500
2026-01-14 23:14:54.93	167.48	24.66	-39.7	-41.9	14.0	7.00e-07	0	58	0	1644167168	51	4510
2026-01-14 23:14:55.93	167.60	24.52	-39.8	-42.0	13.8	5.30e-06	0	58	0	1647312896	51	4574
2026-01-14 23:14:56.94	167.73	24.38	-39.8	-42.1	13.8	6.10e-06	0	58	0	1650458624	51	4608
2026-01-14 23:14:57.95	167.85	24.23	-39.8	-42.1	13.8	4.50e-06	0	58	0	1653604352	51	4599
2026-01-14 23:14:58.96	167.97	24.09	-39.8	-42.1	13.8	3.00e-06	0	58	0	1656750080	51	4612
2026-01-14 23:14:59.97	168.09	23.95	-39.8	-42.0	13.8	3.00e-06	0	58	0	1659895808	51	4596
2026-01-14 23:15:00.97	168.20	23.81	-39.8	-42.0	13.8	3.80e-06	0	58	0	1663041536	51	4579
2026-01-14 23:15:01.98	168.32	23.67	-39.8	-42.0	13.8	4.50e-06	0	58	0	1666187264	51	4577
2026-01-14 23:15:02.99	168.43	23.53	-39.8	-42.1	13.8	3.80e-06	0	58	0	1669332992	51	4609
2026-01-14 23:15:04.00	168.55	23.39	-39.8	-42.1	13.8	8.30e-06	0	58	0	1672478720	51	4617
2026-01-14 23:15:05.01	168.66	23.25	-39.9	-42.1	13.7	1.50e-06	0	58	0	1675624448	51	4624
2026-01-14 23:15:06.02	168.77	23.11	-39.9	-42.2	13.7	6.10e-06	0	58	0	1678770176	51	4660
2026-01-14 23:15:07.04	168.89	22.97	-39.9	-42.2	13.6	5.30e-06	0	58	0	1681915904	51	4653
2026-01-14 23:15:08.04	169.00	22.84	-39.9	-42.2	13.6	2.20e-06	0	58	0	1685061632	51	4656
2026-01-14 23:15:09.05	169.11	22.70	-39.9	-42.2	13.6	1.52e-05	0	58	0	1688207360	51	4679
2026-01-14 23:15:10.06	169.22	22.57	-39.9	-42.2	13.6	9.10e-06	0	58	0	1691353088	51	4659
2026-01-14 23:15:11.06	169.32	22.43	-39.8	-42.1	13.7	6.80e-06	0	58	0	1694498816	51	4628
2026-01-14 23:15:12.07	169.43	22.30	-39.8	-42.0	13.7	7.60e-06	0	58	0	1697644544	51	4598
2026-01-14 23:15:13.08	169.54	22.16	-39.8	-42.0	13.8	3.80e-06	0	58	0	1700790272	51	4580
2026-01-14 23:15:14.09	169.64	22.03	-39.8	-42.1	13.7	3.80e-06	0	58	0	1703936000	51	4628
2026-01-14 23:15:15.10	169.75	21.90	-39.8	-42.1	13.7	5.30e-06	0	58	0	1707081728	51	4604
2026-01-14 23:15:16.11	169.85	21.77	-39.8	-42.0	13.8	3.00e-06	0	58	0	1710227456	51	4580
2026-01-14 23:15:17.12	169.95	21.64	-39.8	-42.0	13.7	5.30e-06	0	58	0	1713373184	51	4592
2026-01-14 23:15:18.13	170.05	21.50	-39.8	-42.1	13.7	8.30e-06	0	58	0	1716518912	51	4607
2026-01-14 23:15:19.14	170.15	21.37	-39.8	-42.1	13.7	6.80e-06	0	58	0	1719664640	51	4601
2026-01-14 23:15:20.15	170.26	21.25	-39.8	-42.1	13.7	7.60e-06	0	58	0	1722810368	51	4606
2026-01-14 23:15:21.16	170.35	21.12	-39.8	-42.0	13.8	4.50e-06	0	58	0	1725956096	51	4588
2026-01-14 23:15:22.17	170.45	20.99	-39.8	-42.1	13.7	3.00e-06	0	58	0	1729101824	51	4610
2026-01-14 23:15:23.18	170.55	20.86	-39.8	-42.0	13.7	3.00e-06	0	58	0	1732247552	51	4595
2026-01-14 23:15:24.19	170.65	20.73	-39.8	-42.0	13.7	5.30e-06	0	58	0	1735393280	51	4589
2026-01-14 23:15:25.20	170.74	20.61	-39.8	-42.0	13.7	3.80e-06	0	58	0	1738539008	51	4596
2026-01-14 23:15:26.21	170.84	20.48	-39.9	-42.2	13.6	6.80e-06	0	58	0	1741684736	51	4652
2026-01-14 23:15:27.22	170.94	20.35	-39.9	-42.2	13.6	1.06e-05	0	58	0	1744830464	51	4655
2026-01-14 23:15:28.23	171.03	20.23	-39.9	-42.2	13.6	6.80e-06	0	58	0	1747976192	51	4683
2026-01-14 23:15:29.24	171.12	20.10	-40.0	-42.3	13.5	4.50e-06	0	58	0	1751121920	51	4730
2026-01-14 23:15:30.25	171.22	19.98	-40.0	-42.3	13.4	1.22e-05	0	58	0	1754267648	51	4739
2026-01-14 23:15:31.25	171.31	19.86	-40.0	-42.4	13.4	1.22e-05	0	58	0	1757413376	51	4760
2026-01-14 23:15:32.26	171.40	19.74	-40.0	-42.4	13.3	1.14e-05	0	58	0	1760559104	51	4784
2026-01-14 23:15:33.27	171.49	19.61	-40.0	-42.4	13.3	2.28e-05	0	58	0	1763704832	51	4798
2026-01-14 23:15:34.28	171.58	19.49	-40.1	-42.5	13.2	2.51e-05	0	58	0	1766850560	51	4845
2026-01-14 23:15:35.29	171.67	19.37	-40.1	-42.5	13.2	2.44e-05	0	58	0	1769996288	51	4843
2026-01-14 23:15:36.30	171.76	19.25	-40.1	-42.5	13.1	2.36e-05	0	58	0	1773142016	51	4864
2026-01-14 23:15:37.31	171.84	19.13	-40.1	-42.6	13.1	2.82e-05	0	58	0	1776287744	51	4881
2026-01-14 23:15:38.32	171.93	19.01	-40.1	-42.6	13.1	2.28e-05	0	58	0	1780482048	51	4892
2026-01-14 23:15:39.33	172.02	18.89	-40.1	-42.5	13.1	3.58e-05	0	58	0	1783627776	51	4869
2026-01-14 23:15:40.33	172.10	18.77	-40.2	-42.6	13.0	3.43e-05	0	58	0	1786773504	51	4907
2026-01-14 23:15:41.34	172.19	18.65	-40.1	-42.6	13.1	3.66e-05	0	58	0	1788870656	51	4891
2026-01-14 23:15:42.35	172.27	18.54	-40.2	-42.7	13.0	2.05e-05	0	58	0	1792016384	51	4932
2026-01-14 23:15:43.36	172.36	18.42	-40.2	-42.7	13.0	3.96e-05	0	58	0	1795162112	51	4927
2026-01-14 23:15:44.36	172.44	18.30	-40.2	-42.7	12.9	3.58e-05	0	58	0	1799356416	51	4962
2026-01-14 23:15:45.37	172.52	18.19	-40.3	-42.8	12.8	5.34e-05	0	58	0	1802502144	51	5004
2026-01-14 23:15:46.38	172.60	18.07	-40.2	-42.7	12.9	5.26e-05	0	58	0	1805647872	51	4968
2026-01-14 23:15:47.39	172.68	17.96	-40.2	-42.7	12.9	4.34e-05	0	58	0	1808793600	51	4983
2026-01-14 23:15:48.40	172.77	17.84	-40.2	-42.7	12.9	4.80e-05	0	58	0	1810890752	51	4972
2026-01-14 23:15:49.41	172.85	17.73	-40.2	-42.7	13.0	3.89e-05	0	58	0	1814036480	51	4941
2026-01-14 23:15:50.42	172.93	17.61	-40.2	-42.7	12.9	4.42e-05	0	58	0	1818230784	51	4956
2026-01-14 23:15:51.43	173.01	17.50	-40.2	-42.6	13.0	4.11e-05	0	58	0	1821376512	51	4922
2026-01-14 23:15:52.44	173.08	17.39	-40.2	-42.7	12.9	5.03e-05	0	58	0	1824522240	51	4951
2026-01-14 23:15:53.45	173.16	17.28	-40.2	-42.7	12.9	5.11e-05	0	58	0	1827667968	51	4929
2026-01-14 23:15:54.46	173.24	17.16	-40.2	-42.7	12.9	4.27e-05	0	58	0	1830813696	51	4927
2026-01-14 23:15:55.47	173.32	17.05	-40.2	-42.7	12.8	5.49e-05	0	58	0	1833959424	51	4980
2026-01-14 23:15:56.48	173.39	16.94	-40.3	-42.8	12.8	7.62e-05	0	58	0	1837105152	51	5013
2026-01-14 23:15:57.49	173.47	16.83	-40.3	-42.9	12.7	6.02e-05	0	58	0	1840250880	51	5054
2026-01-14 23:15:58.50	173.54	16.72	-40.4	-43.0	12.6	9.07e-05	0	58	0	1843396608	51	5103
2026-01-14 23:15:59.50	173.62	16.61	-40.4	-43.0	12.5	1.10e-04	0	58	0	1846542336	51	5144
2026-01-14 23:16:00.51	173.69	16.50	-40.4	-43.1	12.5	1.13e-04	0	58	0	1849688064	51	5162
2026-01-14 23:16:01.52	173.77	16.40	-40.4	-43.1	12.5	1.21e-04	0	58	0	1852833792	51	5173
2026-01-14 23:16:02.53	173.84	16.29	-40.5	-43.2	12.4	1.35e-04	0	58	0	1855979520	51	5228
2026-01-14 23:16:03.54	173.91	16.18	-40.5	-43.2	12.4	1.34e-04	0	58	0	1859125248	51	5243
2026-01-14 23:16:04.55	173.99	16.07	-40.5	-43.2	12.4	1.54e-04	0	58	0	1862270976	51	5241
2026-01-14 23:16:05.55	174.06	15.97	-40.5	-43.2	12.3	1.58e-04	0	58	0	1865416704	51	5256
2026-01-14 23:16:06.56	174.13	15.86	-40.5	-43.2	12.3	1.50e-04	0	58	0	1868562432	51	5266
2026-01-14 23:16:07.57	174.20	15.75	-40.5	-43.2	12.4	1.85e-04	0	58	0	1871708160	51	5244
2026-01-14 23:16:08.58	174.27	15.65	-40.5	-43.3	12.3	1.85e-04	0	58	0	1874853888	51	5288
2026-01-14 23:16:09.59	174.34	15.54	-40.5	-43.2	12.3	1.42e-04	0	58	0	1877999616	51	5262
2026-01-14 23:16:10.60	174.41	15.44	-40.5	-43.3	12.2	1.76e-04	0	58	0	1881145344	51	5296
2026-01-14 23:16:11.61	174.48	15.33	-40.5	-43.3	12.3	2.01e-04	0	58	0	1884291072	51	5293
2026-01-14 23:16:12.62	174.55	15.23	-40.6	-43.4	12.2	2.37e-04	0	58	0	1887436800	51	5348
2026-01-14 23:16:13.63	174.61	15.12	-40.6	-43.4	12.1	2.29e-04	0	58	0	1890582528	51	5368
2026-01-14 23:16:14.64	174.68	15.02	-40.6	-43.3	12.2	2.31e-04	0	58	0	1893728256	51	5313
2026-01-14 23:16:15.64	174.75	14.92	-40.6	-43.4	12.1	2.20e-04	0	58	0	1896873984	51	5358
2026-01-14 23:16:16.65	174.82	14.82	-40.6	-43.4	12.1	2.67e-04	0	58	0	1900019712	51	5374
2026-01-14 23:16:17.66	174.88	14.72	-40.7	-43.5	12.0	2.89e-04	0	58	0	1903165440	51	5436
2026-01-14 23:16:18.67	174.95	14.61	-40.6	-43.5	11.9	3.68e-04	0	58	0	1906311168	52	5130
2026-01-14 23:16:19.68	175.01	14.51	-40.7	-43.7	11.7	4.97e-04	0	58	0	1909456896	52	5226
2026-01-14 23:16:20.69	175.08	14.41	-40.6	-43.5	11.9	5.07e-04	0	58	0	1912602624	52	5117
