passes_logs/2026/01/14/R2.0S_Moscow/R2.0S_Moscow__20260114_112509_SUOMI_NPP_rec.log

#Pass ID: 20260114_112509_SUOMI NPP
#Satellite: SUOMI NPP
#Configuration: NPP
#almurnet v.1.7.20251203
#Start time: 2026-01-14 11:31:53

#Version: 2.2.20231116
#Station: R2.0S_Moscow
#Location: 37.707566 lon 55.798166 lat
#TLE: 1 37849U 11061A   26013.27136842  .00000065  00000+0  51889-4 0  9990
#TLE: 2 37849  98.7808 315.3349 0002489  66.6776 293.4661 14.19524902736466

#Time	Az	El	Level	Level2	SNR	BER	BlckErr	Temp	State	Recorded	gain1	gain2
2026-01-14 11:31:53.04	273.16	24.85	-46.0	-64.7	3.8	7.50e-01	0	60	0	0	62	33226
2026-01-14 11:31:54.04	273.46	24.84	-40.7	-58.3	3.7	1.49e+00	0	60	104	0	53	26602
2026-01-14 11:31:55.05	273.75	24.83	-45.1	-59.6	3.8	1.49e+00	0	60	104	0	60	20684
2026-01-14 11:31:56.06	274.05	24.82	-45.1	-59.6	3.8	1.49e+00	0	60	104	0	60	20734
2026-01-14 11:31:57.07	274.34	24.81	-45.1	-59.6	3.8	1.49e+00	0	60	104	0	60	20631
2026-01-14 11:31:58.08	274.63	24.79	-45.1	-59.5	3.8	1.49e+00	0	60	104	0	60	20535
2026-01-14 11:31:59.10	274.93	24.78	-45.1	-59.5	3.8	1.49e+00	0	60	104	0	60	20479
2026-01-14 11:32:00.11	275.22	24.76	-45.0	-59.5	3.8	1.49e+00	0	60	104	0	60	20486
2026-01-14 11:32:01.12	275.52	24.75	-45.0	-59.5	3.8	1.49e+00	0	60	104	0	60	20315
2026-01-14 11:32:02.13	275.81	24.73	-44.9	-59.3	3.8	1.49e+00	0	60	104	0	60	20034
2026-01-14 11:32:03.14	276.10	24.71	-44.9	-59.3	3.8	1.49e+00	0	60	104	0	60	20001
2026-01-14 11:32:04.15	276.40	24.70	-44.9	-59.3	3.8	1.49e+00	0	60	104	0	60	19943
2026-01-14 11:32:05.16	276.69	24.68	-44.9	-59.3	3.8	1.49e+00	0	60	104	0	60	19888
2026-01-14 11:32:06.17	276.98	24.66	-44.8	-59.3	3.8	1.49e+00	0	60	104	0	60	19955
2026-01-14 11:32:07.18	277.27	24.64	-44.8	-59.3	3.8	1.49e+00	0	60	104	0	60	19929
2026-01-14 11:32:08.19	277.56	24.62	-44.8	-59.3	3.8	1.49e+00	0	60	104	0	60	19901
2026-01-14 11:32:09.20	277.85	24.60	-44.9	-59.2	3.8	1.49e+00	0	60	104	0	60	19803
2026-01-14 11:32:10.22	278.14	24.57	-44.8	-59.3	3.8	1.49e+00	0	60	104	0	60	19915
2026-01-14 11:32:11.22	278.43	24.55	-44.8	-59.3	3.8	1.49e+00	0	60	104	0	60	19969
2026-01-14 11:32:12.24	278.72	24.53	-44.9	-59.3	3.8	1.49e+00	0	60	104	0	60	19976
2026-01-14 11:32:13.25	279.01	24.50	-44.8	-59.3	3.8	1.49e+00	0	60	104	0	60	20004
2026-01-14 11:32:14.26	279.30	24.48	-44.9	-59.4	3.8	1.49e+00	0	60	104	0	60	20112
2026-01-14 11:32:15.27	279.59	24.45	-44.8	-59.3	3.8	1.49e+00	0	60	104	0	60	20003
2026-01-14 11:32:16.28	279.88	24.42	-44.8	-59.2	3.8	1.49e+00	0	60	104	0	60	19756
2026-01-14 11:32:17.29	280.16	24.40	-44.8	-59.1	3.8	1.49e+00	0	60	104	0	60	19454
2026-01-14 11:32:18.30	280.45	24.37	-44.8	-59.0	3.8	1.49e+00	0	60	104	0	60	19288
2026-01-14 11:32:19.31	280.73	24.34	-44.8	-58.8	3.8	1.49e+00	0	60	104	0	60	18902
2026-01-14 11:32:20.32	281.02	24.31	-44.8	-58.7	3.8	1.49e+00	0	60	104	0	60	18599
2026-01-14 11:32:21.33	281.30	24.28	-44.8	-58.7	3.8	1.49e+00	0	60	104	0	60	18549
2026-01-14 11:32:22.35	281.59	24.25	-44.8	-58.7	3.8	1.49e+00	0	60	104	0	60	18603
2026-01-14 11:32:23.36	281.88	24.22	-44.8	-58.8	3.8	1.49e+00	0	60	104	0	60	18863
2026-01-14 11:32:24.37	282.16	24.18	-44.8	-58.8	3.8	1.49e+00	0	60	104	0	60	18777
2026-01-14 11:32:25.38	282.44	24.15	-44.8	-58.7	3.8	1.49e+00	0	60	104	0	60	18565
2026-01-14 11:32:26.39	282.72	24.12	-44.8	-58.4	3.8	1.49e+00	0	60	104	0	60	18035
2026-01-14 11:32:27.40	283.00	24.08	-44.8	-58.2	3.8	1.49e+00	0	60	104	0	60	17608
2026-01-14 11:32:28.41	283.28	24.05	-44.8	-58.1	3.8	1.49e+00	0	60	104	0	60	17428
2026-01-14 11:32:29.42	283.56	24.01	-44.8	-58.1	3.8	1.49e+00	0	60	104	0	60	17314
2026-01-14 11:32:30.43	283.84	23.97	-44.7	-57.8	3.8	1.49e+00	0	60	104	0	60	16860
2026-01-14 11:32:31.45	284.13	23.94	-44.7	-57.3	3.8	1.49e+00	0	60	104	0	60	15761
2026-01-14 11:32:32.46	284.40	23.90	-44.6	-55.8	4.2	1.47e+00	0	60	0	0	60	13335
2026-01-14 11:32:33.47	284.68	23.86	-44.4	-53.8	4.9	9.21e-01	0	60	0	1048576	60	10638
2026-01-14 11:32:34.48	284.96	23.82	-44.1	-52.0	6.2	4.50e-01	0	60	0	3145728	60	8596
2026-01-14 11:32:35.49	285.23	23.78	-43.8	-50.4	7.5	1.85e-01	0	60	0	4194304	59	7555
2026-01-14 11:32:36.50	285.51	23.74	-43.6	-49.5	8.4	5.46e-02	0	60	0	6291456	59	6847
2026-01-14 11:32:37.51	285.78	23.70	-43.4	-49.1	8.9	3.71e-02	0	60	0	8388608	58	6914
2026-01-14 11:32:38.52	286.06	23.66	-43.5	-49.5	8.4	3.62e-02	0	60	0	10485760	58	7214
2026-01-14 11:32:39.53	286.33	23.62	-43.8	-50.2	7.7	7.31e-02	0	60	0	12582912	58	7887
2026-01-14 11:32:40.54	286.60	23.58	-44.0	-51.4	6.6	1.54e-01	0	60	0	14680064	58	9056
2026-01-14 11:32:41.55	286.88	23.53	-44.2	-52.3	5.9	3.01e-01	0	60	0	15728640	59	9456
2026-01-14 11:32:42.56	287.15	23.49	-44.2	-52.1	6.0	3.77e-01	0	60	0	17825792	59	9239
2026-01-14 11:32:43.57	287.42	23.45	-43.7	-50.2	7.7	1.59e-01	0	60	0	19922944	59	7385
2026-01-14 11:32:44.58	287.69	23.40	-43.0	-47.8	10.1	2.82e-02	0	60	0	22020096	58	5985
2026-01-14 11:32:45.59	287.95	23.35	-42.2	-46.1	11.9	2.34e-03	0	60	0	24117248	56	5510
2026-01-14 11:32:46.61	288.23	23.31	-41.7	-45.3	12.6	1.28e-04	0	60	0	25165824	55	5297
2026-01-14 11:32:47.61	288.49	23.26	-44.4	-53.5	4.5	2.34e-04	0	60	104	27262976	60	10237
2026-01-14 11:32:48.62	288.76	23.22	-44.7	-56.7	4.0	1.49e+00	0	60	104	27262976	60	14792
2026-01-14 11:32:49.63	289.02	23.17	-41.8	-45.5	12.6	1.85e-03	0	60	0	28311552	55	5427
2026-01-14 11:32:50.64	289.29	23.12	-44.1	-51.5	6.5	4.26e-01	0	60	0	30408704	59	8657
2026-01-14 11:32:51.65	289.55	23.07	-41.5	-45.0	13.0	6.46e-01	0	60	0	31457280	54	5404
2026-01-14 11:32:52.66	289.81	23.02	-42.5	-46.6	11.3	4.89e-02	0	60	0	33554432	56	5807
2026-01-14 11:32:53.67	290.08	22.97	-41.0	-44.1	13.8	1.76e-04	0	60	0	35651584	54	4902
2026-01-14 11:32:54.68	290.34	22.92	-40.7	-43.6	14.3	2.20e-06	0	60	0	37748736	53	4890
2026-01-14 11:32:55.69	290.60	22.87	-40.8	-43.7	14.2	7.00e-07	0	60	0	39845888	53	4964
2026-01-14 11:32:56.70	290.86	22.82	-41.0	-44.0	13.9	0.00e+00	0	60	0	41943040	53	5135
2026-01-14 11:32:57.71	291.12	22.77	-41.2	-44.3	13.5	6.80e-06	0	60	0	42991616	53	5331
2026-01-14 11:32:58.72	291.37	22.72	-41.3	-44.6	13.3	1.37e-05	0	60	0	45088768	53	5485
2026-01-14 11:32:59.73	291.63	22.66	-41.4	-44.8	13.1	4.34e-05	0	60	0	47185920	53	5619
2026-01-14 11:33:00.74	291.89	22.61	-41.3	-44.6	13.3	2.51e-05	0	60	0	49283072	53	5493
2026-01-14 11:33:01.75	292.14	22.56	-41.3	-44.6	13.3	1.06e-05	0	60	0	51380224	53	5471
2026-01-14 11:33:02.76	292.40	22.50	-41.2	-44.3	13.5	6.10e-06	0	60	0	52428800	53	5333
2026-01-14 11:33:03.77	292.65	22.45	-41.1	-44.2	13.7	8.30e-06	0	60	0	54525952	53	5243
2026-01-14 11:33:04.78	292.91	22.39	-41.1	-44.3	13.5	7.60e-06	0	60	0	56623104	53	5329
2026-01-14 11:33:05.79	293.16	22.34	-41.2	-44.5	13.4	2.51e-05	0	60	0	58720256	53	5420
2026-01-14 11:33:06.80	293.41	22.28	-41.4	-44.7	13.1	2.21e-05	0	60	0	60817408	53	5592
2026-01-14 11:33:07.81	293.66	22.23	-41.5	-45.0	12.8	4.57e-05	0	60	0	61865984	53	5757
2026-01-14 11:33:08.81	293.91	22.17	-41.5	-45.0	12.8	4.42e-05	0	60	0	63963136	53	5765
2026-01-14 11:33:09.82	294.15	22.11	-41.3	-44.7	13.1	5.03e-05	0	60	0	66060288	53	5553
2026-01-14 11:33:10.83	294.40	22.05	-41.3	-44.7	13.2	2.13e-05	0	60	0	68157440	53	5539
2026-01-14 11:33:11.84	294.65	22.00	-41.2	-44.4	13.4	1.98e-05	0	60	0	70254592	53	5371
2026-01-14 11:33:12.85	294.89	21.94	-41.2	-44.4	13.4	1.22e-05	0	60	0	71303168	53	5373
2026-01-14 11:33:13.86	295.14	21.88	-41.2	-44.5	13.3	2.05e-05	0	60	0	73400320	53	5440
2026-01-14 11:33:14.87	295.38	21.82	-41.3	-44.7	13.1	2.36e-05	0	60	0	75497472	53	5567
2026-01-14 11:33:15.88	295.63	21.76	-41.3	-44.7	13.1	2.51e-05	0	60	0	77594624	53	5557
2026-01-14 11:33:16.89	295.87	21.70	-41.4	-44.9	12.9	4.73e-05	0	60	0	79691776	53	5676
2026-01-14 11:33:17.90	296.11	21.64	-41.4	-44.9	12.9	5.26e-05	0	60	0	80740352	53	5698
2026-01-14 11:33:18.91	296.35	21.58	-41.3	-44.7	13.1	3.20e-05	0	60	0	82837504	53	5567
2026-01-14 11:33:19.92	296.59	21.52	-41.2	-44.5	13.3	1.44e-05	0	60	0	84934656	53	5406
2026-01-14 11:33:20.93	296.83	21.46	-41.2	-44.4	13.5	2.21e-05	0	60	0	87031808	53	5366
2026-01-14 11:33:21.94	297.06	21.40	-41.3	-44.6	13.2	1.90e-05	0	60	0	89128960	53	5483
2026-01-14 11:33:22.95	297.30	21.33	-41.4	-44.8	13.0	3.28e-05	0	60	0	90177536	53	5616
2026-01-14 11:33:23.96	297.54	21.27	-41.4	-44.9	12.9	4.65e-05	0	60	0	92274688	53	5669
2026-01-14 11:33:24.97	297.77	21.21	-41.6	-45.2	12.6	6.02e-05	0	60	0	94371840	53	5897
2026-01-14 11:33:25.98	298.00	21.15	-41.5	-45.1	12.7	5.03e-05	0	60	0	96468992	53	5807
2026-01-14 11:33:26.99	298.24	21.08	-41.8	-45.5	12.3	1.17e-04	0	60	0	98566144	54	5741
2026-01-14 11:33:28.00	298.47	21.02	-42.0	-45.9	11.9	3.74e-04	0	60	0	99614720	54	6019
2026-01-14 11:33:29.01	298.70	20.96	-42.1	-46.2	11.6	4.80e-04	0	60	0	101711872	54	6207
2026-01-14 11:33:30.02	298.93	20.89	-42.1	-46.2	11.6	6.95e-04	0	60	0	103809024	54	6223
2026-01-14 11:33:31.03	299.16	20.83	-42.0	-46.0	11.7	9.16e-04	0	60	0	105906176	54	6119
2026-01-14 11:33:32.04	299.39	20.76	-42.0	-46.0	11.8	4.23e-04	0	60	0	108003328	54	6064
2026-01-14 11:33:33.05	299.61	20.70	-41.8	-45.6	12.2	3.23e-04	0	60	0	110100480	54	5807
2026-01-14 11:33:34.06	299.84	20.63	-41.6	-45.2	12.6	9.61e-05	0	60	0	111149056	54	5546
2026-01-14 11:33:35.06	300.06	20.57	-41.5	-44.9	12.8	5.79e-05	0	60	0	113246208	54	5400
2026-01-14 11:33:36.07	300.29	20.50	-41.5	-45.0	12.7	5.41e-05	0	60	0	115343360	54	5457
2026-01-14 11:33:37.08	300.51	20.44	-41.6	-45.2	12.6	8.77e-05	0	60	0	117440512	54	5552
2026-01-14 11:33:38.09	300.73	20.37	-41.8	-45.5	12.3	1.55e-04	0	60	0	118489088	54	5741
2026-01-14 11:33:39.10	300.95	20.30	-41.9	-45.7	12.1	2.20e-04	0	60	0	120586240	54	5903
2026-01-14 11:33:40.11	301.17	20.24	-42.0	-45.9	11.8	3.24e-04	0	60	0	122683392	54	6059
2026-01-14 11:33:41.13	301.40	20.17	-42.0	-46.0	11.7	5.90e-04	0	60	0	124780544	54	6078
2026-01-14 11:33:42.13	301.61	20.10	-42.1	-46.2	11.6	6.96e-04	0	60	0	126877696	54	6225
2026-01-14 11:33:43.14	301.83	20.03	-42.1	-46.1	11.6	6.24e-04	0	60	0	128974848	54	6198
2026-01-14 11:33:44.16	302.05	19.97	-42.1	-46.1	11.6	5.53e-04	0	60	0	130023424	54	6192
2026-01-14 11:33:45.17	302.26	19.90	-42.1	-46.3	11.4	8.73e-04	0	60	0	132120576	54	6302
2026-01-14 11:33:46.17	302.48	19.83	-42.2	-46.3	11.4	8.41e-04	0	60	0	134217728	54	6322
2026-01-14 11:33:47.18	302.69	19.76	-42.2	-46.4	11.3	9.57e-04	0	60	0	136314880	54	6387
2026-01-14 11:33:48.19	302.90	19.69	-42.1	-46.2	11.5	1.03e-03	0	60	0	138412032	55	5883
2026-01-14 11:33:49.20	303.12	19.62	-42.1	-46.1	11.6	7.80e-04	0	60	0	139460608	55	5847
2026-01-14 11:33:50.21	303.33	19.56	-42.0	-46.1	11.6	6.24e-04	0	60	0	141557760	55	5820
2026-01-14 11:33:51.22	303.54	19.49	-42.0	-46.0	11.7	6.07e-04	0	60	0	143654912	55	5778
2026-01-14 11:33:52.23	303.75	19.42	-42.0	-46.1	11.6	6.05e-04	0	60	0	145752064	55	5834
2026-01-14 11:33:53.24	303.96	19.35	-42.0	-45.9	11.7	6.42e-04	0	60	0	147849216	55	5717
2026-01-14 11:33:54.25	304.16	19.28	-42.1	-46.2	11.5	6.98e-04	0	60	0	148897792	55	5897
2026-01-14 11:33:55.26	304.37	19.21	-42.2	-46.4	11.3	1.14e-03	0	60	0	150994944	55	6050
2026-01-14 11:33:56.27	304.57	19.14	-42.3	-46.8	10.9	1.64e-03	0	60	0	153092096	55	6283
2026-01-14 11:33:57.28	304.78	19.07	-42.2	-46.6	11.1	2.28e-03	0	60	0	155189248	55	6148
2026-01-14 11:33:58.29	304.98	19.00	-42.3	-46.8	10.9	1.48e-03	0	60	0	157286400	55	6275
2026-01-14 11:33:59.30	305.19	18.93	-42.3	-46.7	10.9	1.91e-03	0	60	0	158334976	55	6251
2026-01-14 11:34:00.31	305.39	18.86	-42.2	-46.5	11.2	1.63e-03	0	60	0	160432128	55	6094
2026-01-14 11:34:01.32	305.59	18.79	-42.3	-46.6	11.1	1.59e-03	0	60	0	162529280	55	6160
2026-01-14 11:34:02.33	305.79	18.72	-42.2	-46.5	11.2	1.83e-03	0	60	0	164626432	55	6072
2026-01-14 11:34:03.34	305.99	18.65	-42.2	-46.5	11.2	1.40e-03	0	60	0	166723584	55	6090
2026-01-14 11:34:04.35	306.19	18.57	-42.4	-46.9	10.8	2.48e-03	0	60	0	167772160	55	6370
2026-01-14 11:34:05.36	306.38	18.50	-42.4	-47.0	10.7	3.35e-03	0	60	0	169869312	55	6427
2026-01-14 11:34:06.36	306.58	18.43	-42.5	-47.2	10.5	3.41e-03	0	60	0	171966464	55	6579
2026-01-14 11:34:07.38	306.78	18.36	-42.4	-47.1	10.6	2.68e-03	0	60	0	174063616	55	6496
2026-01-14 11:34:08.38	306.97	18.29	-42.3	-46.7	11.0	1.96e-03	0	60	0	176160768	55	6224
2026-01-14 11:34:09.39	307.16	18.22	-42.2	-46.5	11.1	1.81e-03	0	60	0	178257920	55	6097
2026-01-14 11:34:10.40	307.35	18.15	-42.2	-46.5	11.2	1.53e-03	0	60	0	179306496	55	6068
2026-01-14 11:34:11.41	307.55	18.07	-42.2	-46.4	11.2	1.26e-03	0	60	0	181403648	55	6037
2026-01-14 11:34:12.42	307.74	18.00	-42.1	-46.3	11.2	1.21e-03	0	60	0	183500800	55	5979
2026-01-14 11:34:13.43	307.93	17.93	-42.2	-46.5	11.1	9.87e-04	0	60	0	185597952	55	6111
2026-01-14 11:34:14.44	308.12	17.86	-42.2	-46.5	11.1	2.02e-03	0	60	0	186646528	55	6123
2026-01-14 11:34:15.45	308.31	17.79	-42.1	-46.3	11.3	1.26e-03	0	60	0	188743680	55	5987
2026-01-14 11:34:16.46	308.49	17.71	-42.1	-46.3	11.3	1.23e-03	0	60	0	190840832	55	5980
2026-01-14 11:34:17.46	308.68	17.64	-41.9	-45.9	11.8	4.77e-04	0	60	0	192937984	55	5695
2026-01-14 11:34:18.48	308.87	17.57	-41.8	-45.7	12.0	2.83e-04	0	60	0	195035136	55	5540
2026-01-14 11:34:19.49	309.05	17.50	-41.8	-45.6	12.0	3.80e-04	0	60	0	196083712	55	5488
2026-01-14 11:34:20.49	309.23	17.42	-41.7	-45.4	12.2	2.26e-04	0	60	0	198180864	55	5372
2026-01-14 11:34:21.50	309.42	17.35	-41.9	-45.8	11.9	3.20e-04	0	60	0	200278016	55	5599
2026-01-14 11:34:22.51	309.60	17.28	-41.9	-45.9	11.7	4.39e-04	0	60	0	202375168	55	5689
2026-01-14 11:34:23.52	309.78	17.21	-41.9	-45.9	11.7	6.13e-04	0	60	0	204472320	55	5719
2026-01-14 11:34:24.53	309.96	17.13	-42.1	-46.4	11.3	9.35e-04	0	60	0	206569472	55	6001
2026-01-14 11:34:25.54	310.14	17.06	-42.2	-46.5	11.1	1.30e-03	0	60	0	207618048	55	6087
2026-01-14 11:34:26.55	310.32	16.99	-42.1	-46.4	11.2	1.64e-03	0	60	0	209715200	55	6045
2026-01-14 11:34:27.56	310.50	16.92	-42.1	-46.3	11.3	1.29e-03	0	60	0	211812352	55	5934
2026-01-14 11:34:28.57	310.67	16.84	-42.1	-46.4	11.2	1.54e-03	0	60	0	213909504	55	6042
2026-01-14 11:34:29.58	310.85	16.77	-42.2	-46.5	11.1	1.48e-03	0	60	0	216006656	55	6096
2026-01-14 11:34:30.59	311.03	16.70	-42.3	-46.8	10.8	2.12e-03	0	60	0	217055232	55	6322
2026-01-14 11:34:31.60	311.20	16.62	-42.4	-47.2	10.4	4.06e-03	0	60	0	219152384	55	6579
2026-01-14 11:34:32.61	311.37	16.55	-42.6	-47.5	10.1	4.86e-03	0	60	0	221249536	55	6803
2026-01-14 11:34:33.62	311.55	16.48	-42.9	-48.2	9.6	1.06e-02	0	60	0	223346688	56	6977
2026-01-14 11:34:34.63	311.72	16.40	-42.9	-48.0	9.6	1.36e-02	0	60	0	225443840	56	6841
2026-01-14 11:34:35.64	311.89	16.33	-42.8	-47.9	9.8	1.06e-02	0	60	0	226492416	56	6726
2026-01-14 11:34:36.65	312.06	16.26	-42.8	-47.7	9.9	8.73e-03	0	60	0	228589568	56	6646
2026-01-14 11:34:37.66	312.23	16.18	-42.5	-47.0	10.7	3.95e-03	0	60	0	230686720	56	6123
2026-01-14 11:34:38.67	312.40	16.11	-42.4	-46.8	11.0	2.25e-03	0	60	0	232783872	56	5944
2026-01-14 11:34:39.68	312.57	16.04	-42.3	-46.5	11.2	1.57e-03	0	60	0	234881024	56	5786
2026-01-14 11:34:40.69	312.74	15.96	-42.1	-46.2	11.5	7.44e-04	0	60	0	235929600	56	5561
2026-01-14 11:34:41.70	312.90	15.89	-42.2	-46.4	11.4	6.87e-04	0	60	0	238026752	56	5659
2026-01-14 11:34:42.71	313.07	15.82	-42.1	-46.2	11.5	9.40e-04	0	60	0	240123904	56	5573
2026-01-14 11:34:43.71	313.23	15.75	-42.3	-46.6	11.1	1.19e-03	0	60	0	242221056	56	5804
2026-01-14 11:34:44.72	313.40	15.67	-42.4	-46.8	10.9	1.88e-03	0	60	0	244318208	56	5941
2026-01-14 11:34:45.73	313.56	15.60	-42.4	-46.8	10.8	2.86e-03	0	60	0	245366784	56	5991
2026-01-14 11:34:46.75	313.72	15.53	-42.4	-47.0	10.7	2.81e-03	0	60	0	247463936	56	6092
2026-01-14 11:34:47.75	313.88	15.45	-42.3	-46.8	10.9	2.41e-03	0	60	0	249561088	56	5940
2026-01-14 11:34:48.76	314.05	15.38	-42.2	-46.4	11.3	1.98e-03	0	60	0	251658240	56	5716
2026-01-14 11:34:49.77	314.21	15.31	-42.0	-46.0	11.7	7.32e-04	0	60	0	253755392	56	5453
2026-01-14 11:34:50.78	314.37	15.23	-41.8	-45.7	11.8	5.99e-04	0	60	0	254803968	55	5559
2026-01-14 11:34:51.79	314.52	15.16	-41.7	-45.6	12.0	3.65e-04	0	60	0	256901120	55	5501
2026-01-14 11:34:52.80	314.68	15.09	-41.7	-45.6	12.0	3.62e-04	0	60	0	258998272	55	5478
2026-01-14 11:34:53.81	314.84	15.01	-41.7	-45.6	12.0	4.17e-04	0	60	0	261095424	55	5466
2026-01-14 11:34:54.82	315.00	14.94	-41.8	-45.8	11.7	5.33e-04	0	60	0	263192576	55	5645
2026-01-14 11:34:55.83	315.15	14.87	-42.0	-46.2	11.3	7.01e-04	0	60	0	264241152	55	5917
2026-01-14 11:34:56.84	315.31	14.79	-42.1	-46.5	11.0	1.31e-03	0	60	0	266338304	55	6076
2026-01-14 11:34:57.85	315.46	14.72	-42.1	-46.5	11.0	1.88e-03	0	60	0	268435456	55	6089
2026-01-14 11:34:58.86	315.62	14.65	-42.2	-46.6	10.9	1.62e-03	0	60	0	270532608	55	6189
2026-01-14 11:34:59.87	315.77	14.58	-42.1	-46.5	10.9	1.92e-03	0	60	0	272629760	55	6097
2026-01-14 11:35:00.87	315.92	14.50	-42.1	-46.4	11.1	1.50e-03	0	60	0	274726912	55	5994
2026-01-14 11:35:01.88	316.07	14.43	-42.0	-46.3	11.2	1.69e-03	0	60	0	275775488	55	5940
2026-01-14 11:35:02.89	316.22	14.36	-42.1	-46.4	11.1	1.92e-03	0	60	0	277872640	55	6013
2026-01-14 11:35:03.90	316.37	14.29	-42.2	-46.7	10.8	2.23e-03	0	60	0	279969792	55	6234
2026-01-14 11:35:04.91	316.52	14.21	-42.3	-47.0	10.5	3.17e-03	0	60	0	282066944	55	6459
2026-01-14 11:35:05.92	316.67	14.14	-42.4	-47.2	10.2	4.74e-03	0	60	0	284164096	55	6618
2026-01-14 11:35:06.93	316.82	14.07	-42.5	-47.5	9.9	7.55e-03	0	60	0	285212672	55	6839
2026-01-14 11:35:07.94	316.96	13.99	-42.5	-47.6	9.8	8.46e-03	0	60	0	287309824	55	6908
2026-01-14 11:35:08.95	317.11	13.92	-42.5	-47.7	9.7	1.07e-02	0	60	0	289406976	55	6966
2026-01-14 11:35:09.96	317.26	13.85	-42.5	-47.4	10.0	9.98e-03	0	60	0	291504128	55	6766
2026-01-14 11:35:10.97	317.40	13.78	-42.3	-47.1	10.3	8.56e-03	0	60	0	293601280	55	6499
2026-01-14 11:35:11.98	317.55	13.70	-42.2	-46.9	10.5	5.18e-03	0	60	0	294649856	55	6361
2026-01-14 11:35:12.99	317.69	13.63	-42.2	-46.8	10.6	3.23e-03	0	60	0	296747008	55	6299
2026-01-14 11:35:14.00	317.83	13.56	-42.1	-46.5	10.9	2.83e-03	0	60	0	298844160	55	6097
2026-01-14 11:35:15.01	317.98	13.49	-42.1	-46.6	10.8	2.58e-03	0	60	0	300941312	55	6142
2026-01-14 11:35:16.02	318.12	13.42	-42.1	-46.5	10.8	2.51e-03	0	60	0	303038464	55	6131
2026-01-14 11:35:17.03	318.26	13.34	-42.1	-46.7	10.7	2.27e-03	0	60	0	304087040	55	6205
2026-01-14 11:35:18.04	318.40	13.27	-42.2	-46.8	10.6	2.60e-03	0	60	0	306184192	55	6337
2026-01-14 11:35:19.05	318.54	13.20	-42.2	-46.9	10.5	3.41e-03	0	60	0	308281344	55	6380
2026-01-14 11:35:20.06	318.68	13.13	-42.3	-47.1	10.3	5.53e-03	0	60	0	310378496	55	6519
2026-01-14 11:35:21.07	318.82	13.06	-42.4	-47.3	10.1	6.54e-03	0	60	0	312475648	55	6668
2026-01-14 11:35:22.08	318.95	12.98	-42.4	-47.3	10.0	7.95e-03	0	60	0	313524224	55	6699
2026-01-14 11:35:23.08	319.09	12.91	-42.3	-47.2	10.1	7.60e-03	0	60	0	315621376	55	6604
2026-01-14 11:35:24.09	319.23	12.84	-42.3	-47.2	10.1	6.65e-03	0	60	0	317718528	55	6620
2026-01-14 11:35:25.10	319.36	12.77	-42.2	-47.0	10.4	5.14e-03	0	60	0	319815680	55	6431
2026-01-14 11:35:26.11	319.50	12.70	-42.3	-47.0	10.3	4.83e-03	0	60	0	321912832	55	6487
2026-01-14 11:35:27.12	319.63	12.63	-42.3	-47.0	10.3	4.67e-03	0	60	0	322961408	55	6483
2026-01-14 11:35:28.13	319.77	12.55	-42.3	-47.1	10.2	5.53e-03	0	60	0	325058560	55	6511
2026-01-14 11:35:29.14	319.90	12.48	-42.3	-47.2	10.1	6.57e-03	0	60	0	327155712	55	6621
2026-01-14 11:35:30.15	320.03	12.41	-42.4	-47.3	10.0	8.36e-03	0	60	0	329252864	55	6696
2026-01-14 11:35:31.16	320.16	12.34	-42.5	-47.5	9.7	1.05e-02	0	60	0	331350016	55	6876
2026-01-14 11:35:32.18	320.30	12.27	-42.6	-47.8	9.5	1.38e-02	0	60	0	332398592	55	7095
2026-01-14 11:35:33.19	320.43	12.20	-42.5	-47.8	9.4	1.47e-02	0	60	0	334495744	55	7085
2026-01-14 11:35:34.20	320.56	12.13	-42.5	-47.8	9.5	1.50e-02	0	60	0	336592896	55	7043
2026-01-14 11:35:35.21	320.69	12.06	-42.4	-47.5	9.7	1.19e-02	0	60	0	338690048	55	6855
2026-01-14 11:35:36.22	320.82	11.99	-42.4	-47.4	9.8	1.02e-02	0	60	0	340787200	55	6774
2026-01-14 11:35:37.23	320.95	11.92	-42.3	-47.2	10.1	7.87e-03	0	60	0	342884352	55	6576
2026-01-14 11:35:38.23	321.07	11.85	-42.1	-46.8	10.4	4.02e-03	0	60	0	343932928	55	6313
2026-01-14 11:35:39.25	321.20	11.77	-42.1	-46.6	10.7	3.47e-03	0	60	0	346030080	55	6178
2026-01-14 11:35:40.26	321.33	11.70	-42.0	-46.4	10.9	2.56e-03	0	60	0	348127232	55	6032
2026-01-14 11:35:41.27	321.45	11.63	-41.9	-46.3	10.9	2.06e-03	0	60	0	350224384	55	5973
2026-01-14 11:35:42.27	321.58	11.56	-41.9	-46.2	11.0	1.77e-03	0	60	0	352321536	55	5904
2026-01-14 11:35:43.28	321.70	11.49	-41.9	-46.3	10.9	2.20e-03	0	60	0	353370112	55	5987
2026-01-14 11:35:44.29	321.83	11.42	-42.0	-46.4	10.8	2.85e-03	0	60	0	355467264	55	6034
2026-01-14 11:35:45.31	321.95	11.35	-42.0	-46.5	10.8	2.71e-03	0	60	0	357564416	55	6089
2026-01-14 11:35:46.31	322.07	11.28	-42.0	-46.6	10.7	3.01e-03	0	60	0	359661568	55	6133
2026-01-14 11:35:47.32	322.20	11.21	-42.1	-46.7	10.6	3.30e-03	0	60	0	361758720	55	6205
2026-01-14 11:35:48.33	322.32	11.14	-42.1	-46.7	10.5	3.47e-03	0	60	0	362807296	55	6244
2026-01-14 11:35:49.34	322.44	11.07	-42.1	-46.9	10.3	4.01e-03	0	60	0	364904448	55	6394
2026-01-14 11:35:50.35	322.56	11.00	-42.1	-46.7	10.5	4.08e-03	0	60	0	367001600	55	6270
2026-01-14 11:35:51.36	322.68	10.93	-42.2	-47.0	10.2	5.02e-03	0	60	0	369098752	55	6447
2026-01-14 11:35:52.37	322.80	10.87	-42.1	-46.8	10.3	4.99e-03	0	60	0	371195904	55	6343
2026-01-14 11:35:53.38	322.92	10.80	-42.1	-46.8	10.4	4.32e-03	0	60	0	372244480	55	6309
2026-01-14 11:35:54.39	323.04	10.73	-42.1	-46.9	10.3	4.52e-03	0	60	0	374341632	55	6377
2026-01-14 11:35:55.40	323.16	10.66	-42.0	-46.7	10.5	3.88e-03	0	60	0	376438784	55	6220
2026-01-14 11:35:56.41	323.28	10.59	-42.1	-46.8	10.4	4.66e-03	0	60	0	378535936	55	6279
2026-01-14 11:35:57.42	323.39	10.52	-42.1	-46.8	10.4	4.69e-03	0	60	0	380633088	55	6302
2026-01-14 11:35:58.42	323.51	10.45	-42.1	-46.8	10.4	5.76e-03	0	60	0	381681664	55	6302
2026-01-14 11:35:59.43	323.62	10.38	-42.2	-47.1	10.0	7.02e-03	0	60	0	383778816	55	6558
2026-01-14 11:36:00.44	323.74	10.31	-42.2	-47.2	9.9	8.94e-03	0	60	0	385875968	55	6616
2026-01-14 11:36:01.45	323.85	10.25	-42.3	-47.4	9.7	1.07e-02	0	60	0	387973120	55	6754
2026-01-14 11:36:02.46	323.97	10.18	-42.4	-47.6	9.5	1.17e-02	0	60	0	390070272	55	6894
2026-01-14 11:36:03.47	324.08	10.11	-42.4	-47.6	9.5	1.37e-02	0	60	0	391118848	55	6912
2026-01-14 11:36:04.48	324.20	10.04	-42.4	-47.7	9.4	1.39e-02	0	60	0	393216000	55	7003
2026-01-14 11:36:05.49	324.31	9.97	-42.4	-47.7	9.4	1.48e-02	0	60	0	395313152	55	7001
2026-01-14 11:36:06.50	324.42	9.90	-42.4	-47.7	9.4	1.56e-02	0	60	0	397410304	55	6975
2026-01-14 11:36:07.51	324.53	9.84	-42.3	-47.6	9.5	1.54e-02	0	60	0	399507456	55	6892
2026-01-14 11:36:08.52	324.65	9.77	-42.4	-47.7	9.4	1.44e-02	0	60	0	400556032	55	6962
2026-01-14 11:36:09.53	324.76	9.70	-42.3	-47.4	9.7	1.36e-02	0	60	0	402653184	55	6770
2026-01-14 11:36:10.54	324.87	9.63	-42.3	-47.4	9.7	1.16e-02	0	60	0	404750336	55	6737
2026-01-14 11:36:11.55	324.98	9.56	-42.2	-47.3	9.7	1.15e-02	0	60	0	406847488	55	6706
2026-01-14 11:36:12.56	325.09	9.50	-42.3	-47.4	9.6	1.03e-02	0	60	0	408944640	55	6757
2026-01-14 11:36:13.57	325.20	9.43	-42.3	-47.4	9.6	1.13e-02	0	60	0	411041792	55	6748
2026-01-14 11:36:14.58	325.31	9.36	-42.3	-47.4	9.7	1.18e-02	0	60	0	412090368	55	6751
2026-01-14 11:36:15.59	325.41	9.29	-42.3	-47.5	9.5	1.36e-02	0	60	0	414187520	55	6844
2026-01-14 11:36:16.60	325.52	9.23	-42.4	-47.7	9.3	1.66e-02	0	60	0	416284672	55	6989
2026-01-14 11:36:17.60	325.63	9.16	-42.3	-47.6	9.4	1.48e-02	0	60	0	418381824	55	6918
2026-01-14 11:36:18.61	325.73	9.09	-42.4	-47.8	9.2	1.91e-02	0	60	0	420478976	55	7107
2026-01-14 11:36:19.62	325.84	9.03	-42.4	-47.9	9.0	2.11e-02	0	60	0	421527552	55	7190
2026-01-14 11:36:20.63	325.95	8.96	-42.3	-47.7	9.3	1.95e-02	0	60	0	423624704	55	6992
2026-01-14 11:36:21.64	326.05	8.89	-42.4	-47.9	9.0	2.29e-02	0	60	0	425721856	55	7198
2026-01-14 11:36:22.65	326.16	8.83	-42.4	-47.8	9.1	2.67e-02	0	60	0	427819008	55	7119
2026-01-14 11:36:23.66	326.26	8.76	-42.4	-47.9	9.0	2.52e-02	0	60	0	429916160	55	7199
2026-01-14 11:36:24.67	326.36	8.69	-42.4	-48.0	8.9	2.45e-02	0	60	0	430964736	55	7281
2026-01-14 11:36:25.68	326.47	8.63	-42.4	-47.9	9.0	2.35e-02	0	60	0	433061888	55	7146
2026-01-14 11:36:26.69	326.57	8.56	-42.4	-48.1	8.8	2.11e-02	0	60	0	435159040	55	7326
2026-01-14 11:36:27.70	326.67	8.50	-42.3	-47.7	9.2	2.37e-02	0	60	0	437256192	55	7021
2026-01-14 11:36:28.71	326.78	8.43	-42.3	-47.8	9.1	2.25e-02	0	60	0	439353344	55	7070
2026-01-14 11:36:29.72	326.88	8.36	-42.3	-47.9	9.0	2.36e-02	0	61	0	440401920	55	7144
2026-01-14 11:36:30.73	326.98	8.30	-42.3	-47.9	9.0	3.16e-02	0	60	0	442499072	55	7170
2026-01-14 11:36:31.74	327.08	8.23	-42.4	-48.0	8.9	2.78e-02	0	60	0	444596224	55	7216
2026-01-14 11:36:32.74	327.18	8.17	-42.3	-47.9	8.9	3.45e-02	0	60	0	446693376	55	7158
2026-01-14 11:36:33.76	327.28	8.10	-42.2	-47.6	9.3	2.01e-02	0	60	0	448790528	55	6891
2026-01-14 11:36:34.77	327.38	8.04	-42.3	-47.8	9.0	1.77e-02	0	60	0	449839104	55	7107
2026-01-14 11:36:35.78	327.48	7.97	-43.7	-53.0	4.2	2.55e-02	0	60	104	451936256	58	10881
2026-01-14 11:36:36.79	327.58	7.91	-44.5	-58.6	3.8	1.49e+00	0	60	104	451936256	59	19549
2026-01-14 11:36:37.80	327.68	7.84	-44.7	-59.1	3.9	1.49e+00	0	60	104	451936256	60	19542
2026-01-14 11:36:38.81	327.77	7.77	-44.8	-59.3	3.8	1.49e+00	0	60	104	451936256	60	19986
2026-01-14 11:36:39.82	327.87	7.71	-45.0	-59.5	3.8	1.49e+00	0	60	104	451936256	60	20355
2026-01-14 11:36:40.83	327.97	7.65	-45.1	-59.6	3.8	1.49e+00	0	60	104	451936256	60	20626
2026-01-14 11:36:41.84	328.06	7.58	-45.2	-59.6	3.8	1.49e+00	0	60	104	451936256	60	20731
2026-01-14 11:36:42.85	328.16	7.52	-45.2	-59.7	3.8	1.49e+00	0	60	104	451936256	60	20824
2026-01-14 11:36:43.86	328.26	7.45	-45.1	-59.7	3.8	1.49e+00	0	60	104	451936256	60	20832
2026-01-14 11:36:44.87	328.35	7.39	-45.0	-59.6	3.8	1.49e+00	0	60	104	451936256	60	20684
2026-01-14 11:36:45.88	328.45	7.32	-45.2	-59.6	3.8	1.49e+00	0	60	104	451936256	60	20767
2026-01-14 11:36:46.89	328.54	7.26	-45.1	-59.6	3.8	1.49e+00	0	60	104	451936256	60	20711
2026-01-14 11:36:47.90	328.64	7.19	-45.2	-59.7	3.8	1.49e+00	0	60	104	451936256	60	20788
2026-01-14 11:36:48.91	328.73	7.13	-45.2	-59.7	3.8	1.49e+00	0	60	104	451936256	60	20815
2026-01-14 11:36:49.92	328.82	7.07	-45.0	-59.6	3.8	1.49e+00	0	60	104	451936256	61	19590
2026-01-14 11:36:50.92	328.92	7.00	-45.1	-59.6	3.8	1.49e+00	0	60	104	451936256	61	19534
2026-01-14 11:36:51.94	329.01	6.94	-45.2	-59.6	3.8	1.49e+00	0	60	104	451936256	61	19569
2026-01-14 11:36:52.95	329.10	6.88	-45.2	-59.6	3.8	1.49e+00	0	60	104	451936256	61	19482
2026-01-14 11:36:53.96	329.19	6.81	-45.1	-59.6	3.8	1.49e+00	0	60	104	451936256	61	19530
2026-01-14 11:36:54.96	329.28	6.75	-45.1	-59.6	3.8	1.49e+00	0	60	104	451936256	61	19474
2026-01-14 11:36:55.97	329.37	6.69	-45.1	-59.6	3.8	1.49e+00	0	60	104	451936256	61	19548
2026-01-14 11:36:56.98	329.47	6.62	-45.1	-59.6	3.8	1.49e+00	0	60	104	451936256	60	20614
2026-01-14 11:36:58.00	329.56	6.56	-45.1	-59.6	3.8	1.49e+00	0	60	104	451936256	60	20615
2026-01-14 11:36:59.01	329.65	6.50	-45.1	-59.6	3.8	1.49e+00	0	60	104	451936256	60	20635
2026-01-14 11:37:00.02	329.74	6.43	-45.1	-59.6	3.8	1.49e+00	0	60	104	451936256	60	20595
2026-01-14 11:37:01.03	329.83	6.37	-45.1	-59.6	3.8	1.49e+00	0	60	104	451936256	60	20706
2026-01-14 11:37:02.04	329.91	6.31	-45.1	-59.6	3.8	1.49e+00	0	60	104	451936256	60	20660
2026-01-14 11:37:03.05	330.00	6.24	-45.1	-59.6	3.8	1.49e+00	0	60	104	451936256	60	20641
2026-01-14 11:37:04.06	330.09	6.18	-45.1	-59.6	3.8	1.49e+00	0	60	104	451936256	60	20647
2026-01-14 11:37:05.07	330.18	6.12	-45.1	-59.6	3.8	1.49e+00	0	60	104	451936256	60	20618
2026-01-14 11:37:06.08	330.27	6.06	-45.1	-59.6	3.8	1.49e+00	0	60	104	451936256	60	20627
2026-01-14 11:37:07.09	330.35	5.99	-45.1	-59.6	3.8	1.49e+00	0	60	104	451936256	60	20617
2026-01-14 11:37:08.10	330.44	5.93	-45.1	-59.6	3.8	1.49e+00	0	60	104	451936256	60	20643
2026-01-14 11:37:09.11	330.53	5.87	-45.1	-59.6	3.8	1.49e+00	0	60	104	451936256	60	20624
2026-01-14 11:37:10.12	330.61	5.81	-45.1	-59.6	3.8	1.49e+00	0	60	104	451936256	60	20654
2026-01-14 11:37:11.13	330.70	5.75	-45.1	-59.6	3.8	1.49e+00	0	60	104	451936256	60	20645
2026-01-14 11:37:12.14	330.78	5.69	-45.1	-59.6	3.8	1.49e+00	0	60	104	451936256	60	20633
2026-01-14 11:37:13.15	330.87	5.62	-45.1	-59.6	3.8	1.49e+00	0	60	104	451936256	60	20610
2026-01-14 11:37:14.16	330.95	5.56	-45.1	-59.6	3.8	1.49e+00	0	60	104	451936256	60	20635
2026-01-14 11:37:15.17	331.04	5.50	-45.1	-59.6	3.8	1.49e+00	0	60	104	451936256	60	20618
2026-01-14 11:37:16.18	331.12	5.44	-45.1	-59.6	3.8	1.49e+00	0	60	104	451936256	60	20566
2026-01-14 11:37:17.19	331.21	5.38	-45.1	-59.6	3.8	1.49e+00	0	60	104	451936256	60	20662
2026-01-14 11:37:18.20	331.29	5.32	-45.1	-59.6	3.8	1.49e+00	0	60	104	451936256	60	20574
2026-01-14 11:37:19.21	331.37	5.26	-45.1	-59.6	3.8	1.49e+00	0	60	104	451936256	60	20566
2026-01-14 11:37:20.22	331.46	5.19	-45.1	-59.6	3.8	1.49e+00	0	60	104	451936256	60	20544
2026-01-14 11:37:21.23	331.54	5.13	-45.1	-59.6	3.8	1.49e+00	0	60	104	451936256	60	20631
2026-01-14 11:37:22.24	331.62	5.07	-44.9	-59.6	3.8	1.49e+00	0	60	104	451936256	60	20561
2026-01-14 11:37:23.25	331.70	5.01	-45.1	-59.6	3.8	1.49e+00	0	60	104	451936256	60	20598
2026-01-14 11:37:24.26	331.78	4.95	-45.1	-59.6	3.8	1.49e+00	0	60	104	451936256	60	20621
2026-01-14 11:37:25.27	331.86	4.89	-45.1	-59.6	3.8	1.49e+00	0	60	104	451936256	60	20569
2026-01-14 11:37:26.28	331.95	4.83	-45.1	-59.5	3.8	1.49e+00	0	60	104	451936256	60	20519
2026-01-14 11:37:27.29	332.03	4.77	-45.1	-59.6	3.8	1.49e+00	0	60	104	451936256	60	20585
2026-01-14 11:37:28.30	332.11	4.71	-44.8	-59.6	3.8	1.49e+00	0	60	104	451936256	60	20588
2026-01-14 11:37:29.31	332.19	4.65	-45.1	-59.5	3.8	1.49e+00	0	60	104	451936256	60	20521
2026-01-14 11:37:30.32	332.27	4.59	-45.1	-59.6	3.8	1.49e+00	0	60	104	451936256	60	20560
2026-01-14 11:37:31.33	332.34	4.53	-45.1	-59.6	3.8	1.49e+00	0	60	104	451936256	60	20567
2026-01-14 11:37:32.34	332.42	4.47	-45.1	-59.6	3.8	1.49e+00	0	60	104	451936256	60	20544
2026-01-14 11:37:33.35	332.50	4.41	-45.1	-59.6	3.8	1.49e+00	0	60	104	451936256	60	20619
2026-01-14 11:37:34.36	332.58	4.35	-45.1	-59.5	3.8	1.49e+00	0	60	104	451936256	60	20485
2026-01-14 11:37:35.37	332.66	4.29	-45.1	-59.6	3.8	1.49e+00	0	60	104	451936256	60	20554
2026-01-14 11:37:36.38	332.74	4.23	-45.1	-59.6	3.8	1.49e+00	0	60	104	451936256	60	20604
2026-01-14 11:37:37.39	332.81	4.17	-45.1	-59.5	3.8	1.49e+00	0	60	104	451936256	60	20427
2026-01-14 11:37:38.41	332.89	4.11	-45.0	-59.6	3.8	1.49e+00	0	60	104	451936256	60	20549
2026-01-14 11:37:39.42	332.97	4.05	-45.1	-59.5	3.8	1.49e+00	0	60	104	451936256	60	20505
2026-01-14 11:37:40.42	333.04	3.99	-45.1	-59.6	3.8	1.49e+00	0	60	104	451936256	60	20558
2026-01-14 11:37:41.43	333.12	3.93	-45.1	-59.6	3.8	1.49e+00	0	60	104	451936256	60	20574
2026-01-14 11:37:42.45	333.20	3.88	-45.1	-59.6	3.8	1.49e+00	0	60	104	451936256	60	20594
2026-01-14 11:37:43.45	333.27	3.82	-45.1	-59.6	3.8	1.49e+00	0	60	104	451936256	60	20573
2026-01-14 11:37:44.46	333.35	3.76	-45.1	-59.6	3.8	1.49e+00	0	60	104	451936256	60	20595
2026-01-14 11:37:45.47	333.42	3.70	-45.1	-59.6	3.8	1.49e+00	0	60	104	451936256	60	20571
2026-01-14 11:37:46.48	333.50	3.64	-45.1	-59.6	3.8	1.49e+00	0	60	104	451936256	60	20571
2026-01-14 11:37:47.49	333.57	3.58	-45.1	-59.6	3.8	1.49e+00	0	60	104	451936256	60	20591
2026-01-14 11:37:48.50	333.65	3.52	-45.1	-59.5	3.8	1.49e+00	0	60	104	451936256	60	20518
2026-01-14 11:37:49.51	333.72	3.47	-45.1	-59.5	3.8	1.49e+00	0	60	104	451936256	60	20526
2026-01-14 11:37:50.52	333.79	3.41	-45.1	-59.5	3.8	1.49e+00	0	60	104	451936256	60	20525
2026-01-14 11:37:51.53	333.87	3.35	-45.1	-59.6	3.8	1.49e+00	0	60	104	451936256	60	20605
2026-01-14 11:37:52.54	333.94	3.29	-45.1	-59.5	3.8	1.49e+00	0	60	104	451936256	60	20526
2026-01-14 11:37:53.55	334.01	3.23	-45.0	-59.6	3.8	1.49e+00	0	60	104	451936256	60	20541
2026-01-14 11:37:54.56	334.09	3.17	-45.1	-59.6	3.8	1.49e+00	0	60	104	451936256	60	20647
2026-01-14 11:37:55.57	334.16	3.12	-45.1	-59.6	3.8	1.49e+00	0	60	104	451936256	60	20561
2026-01-14 11:37:56.58	334.23	3.06	-45.1	-59.6	3.8	1.49e+00	0	60	104	451936256	60	20543
2026-01-14 11:37:57.59	334.30	3.00	-45.1	-59.6	3.8	1.49e+00	0	60	104	451936256	60	20539
2026-01-14 11:37:58.60	334.38	2.94	-45.0	-59.5	3.8	1.49e+00	0	60	104	451936256	60	20515
2026-01-14 11:37:59.61	334.45	2.89	-45.0	-59.6	3.8	1.49e+00	0	60	104	451936256	60	20545
2026-01-14 11:38:00.62	334.52	2.83	-45.1	-59.6	3.8	1.49e+00	0	60	104	451936256	60	20571
2026-01-14 11:38:01.63	334.59	2.77	-44.9	-59.6	3.8	1.49e+00	0	60	104	451936256	60	20573
2026-01-14 11:38:02.64	334.66	2.71	-45.1	-59.6	3.8	1.49e+00	0	60	104	451936256	60	20581
2026-01-14 11:38:03.65	334.73	2.66	-45.1	-59.5	3.8	1.49e+00	0	60	104	451936256	60	20483
2026-01-14 11:38:04.66	334.80	2.60	-45.1	-59.5	3.8	1.49e+00	0	60	104	451936256	60	20487
2026-01-14 11:38:05.67	334.87	2.54	-44.9	-59.5	3.8	1.49e+00	0	60	104	451936256	60	20490
2026-01-14 11:38:06.68	334.94	2.49	-45.1	-59.5	3.8	1.49e+00	0	60	104	451936256	60	20514
2026-01-14 11:38:07.69	335.01	2.43	-45.1	-59.6	3.8	1.49e+00	0	60	104	451936256	60	20541
2026-01-14 11:38:08.70	335.08	2.37	-44.4	-59.5	3.8	1.49e+00	0	60	104	451936256	60	20530
2026-01-14 11:38:09.71	335.15	2.32	-44.6	-59.5	3.8	1.49e+00	0	60	104	451936256	60	20526
2026-01-14 11:38:10.72	335.21	2.26	-45.1	-59.5	3.8	1.49e+00	0	60	104	451936256	60	20508
2026-01-14 11:38:11.72	335.28	2.20	-45.1	-59.5	3.8	1.49e+00	0	60	104	451936256	60	20518
2026-01-14 11:38:12.73	335.35	2.15	-45.1	-59.5	3.8	1.49e+00	0	60	104	451936256	60	20531
2026-01-14 11:38:13.74	335.42	2.09	-45.1	-59.5	3.8	1.49e+00	0	60	104	451936256	60	20475
2026-01-14 11:38:14.75	335.49	2.03	-45.1	-59.5	3.8	1.49e+00	0	60	104	451936256	60	20462
2026-01-14 11:38:15.76	335.55	1.98	-45.1	-59.6	3.8	1.49e+00	0	60	104	451936256	60	20577

#Closed at: 2026-01-14 11:38:16
#Recorded file [451 MB]: D:/lorett/data/31039_260114_143152.dat