passes_logs/2026/01/14/R2.0S_Moscow/R2.0S_Moscow__20260114_215429_SUOMI_NPP_rec.log

#Pass ID: 20260114_215429_SUOMI NPP
#Satellite: SUOMI NPP
#Configuration: NPP
#almurnet v.1.7.20251203
#Start time: 2026-01-14 21:54:31

#Version: 2.2.20231116
#Station: R2.0S_Moscow
#Location: 37.707566 lon 55.798166 lat
#TLE: 1 37849U 11061A   26014.11719687  .00000048  00000+0  43625-4 0  9998
#TLE: 2 37849  98.7809 316.1734 0002474  65.2440 294.8994 14.19525043736585

#Time	Az	El	Level	Level2	SNR	BER	BlckErr	Temp	State	Recorded	gain1	gain2
2026-01-14 21:54:31.43	28.66	2.10	-42.7	-57.4	3.8	1.49e+00	0	48	0	0	57	19107
2026-01-14 21:54:32.43	28.75	2.15	-42.7	-57.4	3.8	1.49e+00	0	48	104	0	56	20272
2026-01-14 21:54:33.44	28.83	2.20	-42.7	-57.4	3.8	1.49e+00	0	49	104	0	56	20239
2026-01-14 21:54:34.44	28.92	2.25	-42.6	-57.4	3.8	1.49e+00	0	49	104	0	56	20244
2026-01-14 21:54:35.45	29.01	2.30	-42.7	-57.4	3.8	1.49e+00	0	49	104	0	56	20244
2026-01-14 21:54:36.46	29.10	2.35	-42.7	-57.4	3.8	1.49e+00	0	49	104	0	56	20216
2026-01-14 21:54:37.47	29.19	2.40	-42.7	-57.4	3.8	1.49e+00	0	49	104	0	56	20220
2026-01-14 21:54:38.49	29.28	2.45	-42.7	-57.4	3.8	1.49e+00	0	49	104	0	56	20254
2026-01-14 21:54:39.50	29.37	2.50	-42.7	-57.4	3.8	1.49e+00	0	49	104	0	56	20212
2026-01-14 21:54:40.50	29.46	2.55	-42.7	-57.4	3.8	1.49e+00	0	49	104	0	56	20181
2026-01-14 21:54:41.52	29.55	2.60	-42.7	-57.4	3.8	1.49e+00	0	49	104	0	56	20239
2026-01-14 21:54:42.53	29.64	2.65	-42.7	-57.4	3.8	1.49e+00	0	49	104	0	56	20235
2026-01-14 21:54:43.54	29.73	2.70	-42.7	-57.4	3.8	1.49e+00	0	49	104	0	56	20262
2026-01-14 21:54:44.55	29.82	2.75	-42.6	-57.4	3.8	1.49e+00	0	49	104	0	56	20207
2026-01-14 21:54:45.56	29.91	2.80	-42.7	-57.4	3.8	1.49e+00	0	49	104	0	56	20226
2026-01-14 21:54:46.57	30.00	2.85	-42.7	-57.4	3.8	1.49e+00	0	49	104	0	56	20243
2026-01-14 21:54:47.58	30.09	2.90	-42.6	-57.4	3.8	1.49e+00	0	49	104	0	56	20265
2026-01-14 21:54:48.59	30.19	2.95	-42.6	-57.4	3.8	1.49e+00	0	50	104	0	56	20234
2026-01-14 21:54:49.60	30.28	3.00	-42.7	-57.4	3.8	1.49e+00	0	50	104	0	56	20208
2026-01-14 21:54:50.61	30.37	3.06	-42.7	-57.4	3.8	1.49e+00	0	50	104	0	56	20276
2026-01-14 21:54:51.62	30.46	3.11	-42.7	-57.4	3.8	1.49e+00	0	50	104	0	56	20274
2026-01-14 21:54:52.63	30.56	3.16	-42.7	-57.4	3.8	1.49e+00	0	50	104	0	56	20218
2026-01-14 21:54:53.64	30.65	3.21	-42.6	-57.4	3.8	1.49e+00	0	50	104	0	56	20196
2026-01-14 21:54:54.65	30.74	3.26	-42.6	-57.4	3.8	1.49e+00	0	50	104	0	56	20253
2026-01-14 21:54:55.66	30.84	3.31	-42.7	-57.4	3.8	1.49e+00	0	50	104	0	56	20293
2026-01-14 21:54:56.67	30.93	3.36	-42.7	-57.4	3.8	1.49e+00	0	50	104	0	56	20275
2026-01-14 21:54:57.68	31.03	3.41	-42.7	-57.4	3.8	1.49e+00	0	50	104	0	56	20240
2026-01-14 21:54:58.69	31.12	3.46	-42.7	-57.4	3.8	1.49e+00	0	50	104	0	56	20240
2026-01-14 21:54:59.70	31.22	3.51	-42.7	-57.4	3.8	1.49e+00	0	50	104	0	56	20235
2026-01-14 21:55:00.71	31.32	3.56	-42.7	-57.4	3.8	1.49e+00	0	50	104	0	56	20177
2026-01-14 21:55:01.72	31.41	3.62	-42.6	-57.4	3.8	1.49e+00	0	50	104	0	56	20207
2026-01-14 21:55:02.73	31.51	3.67	-42.7	-57.4	3.8	1.49e+00	0	50	104	0	56	20296
2026-01-14 21:55:03.74	31.60	3.72	-42.6	-57.4	3.8	1.49e+00	0	51	104	0	56	20223
2026-01-14 21:55:04.75	31.70	3.77	-42.7	-57.4	3.8	1.49e+00	0	51	104	0	56	20209
2026-01-14 21:55:05.76	31.80	3.82	-42.7	-57.4	3.8	1.49e+00	0	50	104	0	56	20249
2026-01-14 21:55:06.77	31.90	3.87	-42.7	-57.4	3.8	1.49e+00	0	51	104	0	56	20215
2026-01-14 21:55:07.78	32.00	3.92	-42.7	-57.4	3.8	1.49e+00	0	51	104	0	56	20232
2026-01-14 21:55:08.79	32.09	3.97	-42.7	-57.4	3.8	1.49e+00	0	51	104	0	56	20224
2026-01-14 21:55:09.80	32.19	4.02	-42.7	-57.4	3.8	1.49e+00	0	51	104	0	56	20239
2026-01-14 21:55:10.80	32.29	4.08	-42.7	-57.4	3.8	1.49e+00	0	51	104	0	56	20160
2026-01-14 21:55:11.81	32.39	4.13	-42.7	-57.4	3.8	1.49e+00	0	51	104	0	56	20214
2026-01-14 21:55:12.82	32.49	4.18	-42.7	-57.4	3.8	1.49e+00	0	51	104	0	56	20238
2026-01-14 21:55:13.84	32.59	4.23	-42.7	-57.4	3.8	1.49e+00	0	51	104	0	56	20227
2026-01-14 21:55:14.85	32.69	4.28	-42.7	-57.4	3.8	1.49e+00	0	51	104	0	56	20246
2026-01-14 21:55:15.86	32.79	4.33	-42.7	-57.4	3.8	1.49e+00	0	51	104	0	56	20163
2026-01-14 21:55:16.87	32.89	4.38	-42.6	-57.4	3.8	1.49e+00	0	51	104	0	56	20214
2026-01-14 21:55:17.88	32.99	4.44	-42.7	-57.4	3.8	1.49e+00	0	51	104	0	56	20222
2026-01-14 21:55:18.89	33.10	4.49	-42.7	-57.4	3.8	1.49e+00	0	51	104	0	56	20243
2026-01-14 21:55:19.90	33.20	4.54	-42.6	-57.4	3.8	1.49e+00	0	51	104	0	56	20198
2026-01-14 21:55:20.91	33.30	4.59	-42.7	-57.4	3.8	1.49e+00	0	51	104	0	56	20203
2026-01-14 21:55:21.92	33.40	4.64	-42.7	-57.4	3.8	1.49e+00	0	51	104	0	56	20237
2026-01-14 21:55:22.93	33.51	4.69	-42.7	-57.4	3.8	1.49e+00	0	52	104	0	56	20234
2026-01-14 21:55:23.94	33.61	4.75	-42.7	-57.4	3.8	1.49e+00	0	51	104	0	56	20156
2026-01-14 21:55:24.95	33.71	4.80	-42.7	-57.4	3.8	1.49e+00	0	52	104	0	56	20175
2026-01-14 21:55:25.96	33.82	4.85	-42.6	-57.4	3.8	1.49e+00	0	52	104	0	56	20176
2026-01-14 21:55:26.97	33.92	4.90	-42.7	-57.4	3.8	1.49e+00	0	52	104	0	56	20215
2026-01-14 21:55:27.98	34.03	4.95	-42.7	-57.4	3.8	1.49e+00	0	52	104	0	56	20231
2026-01-14 21:55:28.99	34.13	5.01	-42.7	-57.4	3.8	1.49e+00	0	52	104	0	56	20223
2026-01-14 21:55:30.00	34.24	5.06	-42.6	-57.4	3.8	1.49e+00	0	52	104	0	56	20191
2026-01-14 21:55:31.01	34.34	5.11	-42.7	-57.4	3.8	1.49e+00	0	52	104	0	56	20193
2026-01-14 21:55:32.02	34.45	5.16	-42.6	-57.4	3.8	1.49e+00	0	52	104	0	56	20235
2026-01-14 21:55:33.03	34.56	5.21	-42.6	-57.4	3.8	1.49e+00	0	52	104	0	56	20199
2026-01-14 21:55:34.04	34.66	5.26	-42.6	-57.4	3.8	1.49e+00	0	52	104	0	56	20180
2026-01-14 21:55:35.05	34.77	5.32	-42.7	-57.4	3.8	1.49e+00	0	52	104	0	56	20169
2026-01-14 21:55:36.06	34.88	5.37	-42.7	-57.4	3.8	1.49e+00	0	52	104	0	56	20245
2026-01-14 21:55:37.07	34.99	5.42	-42.7	-57.4	3.8	1.49e+00	0	52	104	0	56	20209
2026-01-14 21:55:38.08	35.10	5.47	-42.7	-57.4	3.8	1.49e+00	0	52	104	0	56	20133
2026-01-14 21:55:39.09	35.21	5.53	-42.6	-57.4	3.8	1.49e+00	0	53	104	0	56	20172
2026-01-14 21:55:40.10	35.31	5.58	-42.6	-57.4	3.8	1.49e+00	0	52	104	0	56	20182
2026-01-14 21:55:41.11	35.42	5.63	-42.6	-57.4	3.8	1.49e+00	0	52	104	0	56	20179
2026-01-14 21:55:42.12	35.53	5.68	-42.6	-57.4	3.8	1.49e+00	0	52	104	0	56	20166
2026-01-14 21:55:43.13	35.65	5.73	-42.7	-57.4	3.8	1.49e+00	0	52	104	0	56	20219
2026-01-14 21:55:44.14	35.76	5.79	-42.7	-57.4	3.8	1.49e+00	0	53	104	0	56	20214
2026-01-14 21:55:45.15	35.87	5.84	-42.6	-57.4	3.8	1.49e+00	0	53	104	0	56	20220
2026-01-14 21:55:46.16	35.98	5.89	-42.6	-57.4	3.8	1.49e+00	0	53	104	0	56	20169
2026-01-14 21:55:47.17	36.09	5.94	-42.7	-57.4	3.8	1.49e+00	0	53	104	0	56	20232
2026-01-14 21:55:48.17	36.20	5.99	-42.6	-57.4	3.8	1.49e+00	0	53	104	0	56	20198
2026-01-14 21:55:49.19	36.32	6.05	-42.7	-57.4	3.8	1.49e+00	0	53	104	0	56	20270
2026-01-14 21:55:50.20	36.43	6.10	-42.6	-57.4	3.8	1.49e+00	0	53	104	0	56	20226
2026-01-14 21:55:51.20	36.54	6.15	-42.6	-57.4	3.8	1.49e+00	0	53	104	0	56	20194
2026-01-14 21:55:52.21	36.65	6.20	-42.7	-57.4	3.8	1.49e+00	0	53	104	0	56	20182
2026-01-14 21:55:53.22	36.77	6.26	-42.7	-57.4	3.8	1.49e+00	0	53	104	0	56	20215
2026-01-14 21:55:54.23	36.88	6.31	-42.6	-57.4	3.8	1.49e+00	0	53	104	0	56	20164
2026-01-14 21:55:55.24	37.00	6.36	-42.6	-57.4	3.8	1.49e+00	0	53	104	0	56	20233
2026-01-14 21:55:56.25	37.11	6.41	-42.6	-57.4	3.8	1.49e+00	0	53	104	0	56	20143
2026-01-14 21:55:57.26	37.23	6.46	-42.6	-57.4	3.8	1.49e+00	0	53	104	0	56	20168
2026-01-14 21:55:58.27	37.35	6.52	-42.7	-57.4	3.8	1.49e+00	0	53	104	0	56	20168
2026-01-14 21:55:59.28	37.46	6.57	-42.6	-57.4	3.8	1.49e+00	0	53	104	0	56	20124
2026-01-14 21:56:00.29	37.58	6.62	-42.6	-57.4	3.8	1.49e+00	0	53	104	0	56	20105
2026-01-14 21:56:01.30	37.70	6.67	-42.6	-57.4	3.8	1.49e+00	0	53	104	0	56	20199
2026-01-14 21:56:02.31	37.82	6.73	-42.6	-57.4	3.8	1.49e+00	0	53	104	0	56	20184
2026-01-14 21:56:03.32	37.93	6.78	-42.6	-57.3	3.8	1.49e+00	0	53	104	0	56	19966
2026-01-14 21:56:04.33	38.05	6.83	-42.6	-57.3	3.8	1.49e+00	0	53	104	0	56	19933
2026-01-14 21:56:05.34	38.17	6.88	-42.6	-57.3	3.8	1.49e+00	0	53	104	0	56	20061
2026-01-14 21:56:06.34	38.29	6.94	-42.6	-57.4	3.8	1.49e+00	0	54	104	0	56	20101
2026-01-14 21:56:07.35	38.41	6.99	-42.6	-57.3	3.8	1.49e+00	0	53	104	0	56	19995
2026-01-14 21:56:08.36	38.53	7.04	-42.6	-57.1	3.8	1.49e+00	0	54	104	0	56	19442
2026-01-14 21:56:09.38	38.65	7.09	-42.6	-56.7	3.8	1.49e+00	0	53	104	0	56	18545
2026-01-14 21:56:10.39	38.77	7.15	-42.6	-56.3	3.8	1.49e+00	0	54	104	0	56	17789
2026-01-14 21:56:11.40	38.89	7.20	-42.5	-55.8	3.8	1.49e+00	0	54	104	0	56	16753
2026-01-14 21:56:12.41	39.02	7.25	-42.5	-55.2	3.8	1.49e+00	0	54	104	0	56	15643
2026-01-14 21:56:13.42	39.14	7.30	-42.5	-54.6	4.0	1.46e+00	0	53	0	0	56	14542
2026-01-14 21:56:14.43	39.26	7.36	-42.4	-54.3	4.1	1.45e+00	0	53	0	0	56	14072
2026-01-14 21:56:15.44	39.39	7.41	-42.4	-54.3	4.1	1.43e+00	0	54	0	0	56	14202
2026-01-14 21:56:16.45	39.51	7.46	-42.5	-55.1	3.9	1.48e+00	0	54	104	0	56	15453
2026-01-14 21:56:17.46	39.63	7.51	-42.6	-56.4	3.8	1.49e+00	0	54	104	0	56	17985
2026-01-14 21:56:18.47	39.76	7.57	-42.6	-57.3	3.8	1.49e+00	0	54	104	0	56	19961
2026-01-14 21:56:19.48	39.88	7.62	-42.6	-57.0	3.8	1.49e+00	0	54	104	0	56	19280
2026-01-14 21:56:20.49	40.01	7.67	-42.5	-55.6	3.8	1.49e+00	0	54	104	0	56	16323
2026-01-14 21:56:21.50	40.13	7.72	-42.3	-53.4	4.3	1.46e+00	0	54	0	0	56	12756
2026-01-14 21:56:22.50	40.26	7.77	-42.2	-52.1	4.9	1.07e+00	0	54	0	1048576	56	10964
2026-01-14 21:56:23.51	40.39	7.83	-42.1	-51.2	5.4	5.64e-01	0	54	0	3145728	56	9856
2026-01-14 21:56:24.51	40.51	7.88	-41.8	-50.1	6.0	3.90e-01	0	54	0	5242880	55	9218
2026-01-14 21:56:25.52	40.64	7.93	-41.7	-49.3	6.6	2.68e-01	0	54	0	7340032	55	8448
2026-01-14 21:56:26.53	40.77	7.98	-41.6	-49.3	6.6	1.97e-01	0	54	0	8388608	55	8433
2026-01-14 21:56:27.54	40.90	8.04	-41.9	-50.2	6.1	1.91e-01	0	54	0	10485760	55	9307
2026-01-14 21:56:28.55	41.02	8.09	-42.2	-54.2	4.1	6.92e-01	0	54	0	12582912	55	14745
2026-01-14 21:56:29.55	41.15	8.14	-41.8	-49.8	4.6	1.49e+00	0	54	104	12582912	55	8873
2026-01-14 21:56:30.56	41.28	8.19	-42.9	-52.2	5.2	6.29e-01	0	54	0	12582912	56	11048
2026-01-14 21:56:31.57	41.41	8.24	-42.2	-49.2	7.3	1.12e+00	0	54	0	14680064	56	7885
2026-01-14 21:56:32.58	41.54	8.30	-42.4	-50.5	6.1	3.69e-01	0	54	0	16777216	56	9139
2026-01-14 21:56:33.59	41.68	8.35	-42.2	-49.5	7.1	1.68e-01	0	54	0	18874368	56	8085
2026-01-14 21:56:34.60	41.81	8.40	-42.2	-49.4	7.1	1.41e-01	0	54	0	19922944	56	8059
2026-01-14 21:56:35.61	41.94	8.45	-42.3	-49.6	7.0	1.34e-01	0	54	0	22020096	56	8242
2026-01-14 21:56:36.62	42.07	8.51	-42.3	-49.5	7.2	1.27e-01	0	55	0	24117248	56	8091
2026-01-14 21:56:37.63	42.20	8.56	-42.2	-49.0	7.6	1.15e-01	0	54	0	26214400	56	7696
2026-01-14 21:56:38.63	42.34	8.61	-42.1	-48.4	8.2	8.46e-02	0	54	0	28311552	56	7194
2026-01-14 21:56:39.64	42.47	8.66	-42.0	-48.1	8.6	3.90e-02	0	55	0	29360128	56	6926
2026-01-14 21:56:40.65	42.60	8.71	-42.1	-48.4	8.3	4.49e-02	0	55	0	31457280	56	7147
2026-01-14 21:56:41.66	42.74	8.77	-42.1	-48.2	8.5	4.87e-02	0	55	0	33554432	56	7024
2026-01-14 21:56:42.67	42.88	8.82	-42.1	-48.2	8.5	4.47e-02	0	55	0	35651584	56	7033
2026-01-14 21:56:43.68	43.01	8.87	-42.2	-48.2	8.5	4.67e-02	0	55	0	37748736	56	7038
2026-01-14 21:56:44.69	43.15	8.92	-42.0	-47.7	9.0	3.28e-02	0	54	0	38797312	56	6646
2026-01-14 21:56:45.70	43.28	8.97	-41.7	-47.1	9.5	2.12e-02	0	54	0	40894464	55	6514
2026-01-14 21:56:46.71	43.42	9.03	-41.6	-47.0	9.7	1.09e-02	0	55	0	42991616	55	6435
2026-01-14 21:56:47.72	43.56	9.08	-41.6	-46.8	9.9	1.05e-02	0	55	0	45088768	55	6296
2026-01-14 21:56:48.73	43.70	9.13	-41.6	-46.7	10.0	9.10e-03	0	55	0	47185920	55	6254
2026-01-14 21:56:49.74	43.84	9.18	-41.6	-46.6	10.2	5.51e-03	0	55	0	48234496	55	6140
2026-01-14 21:56:50.75	43.97	9.23	-41.5	-46.3	10.5	4.39e-03	0	55	0	50331648	54	6299
2026-01-14 21:56:51.76	44.11	9.29	-41.3	-45.9	10.9	2.74e-03	0	55	0	52428800	54	6046
2026-01-14 21:56:52.77	44.25	9.34	-41.3	-45.8	11.1	1.84e-03	0	55	0	54525952	54	5935
2026-01-14 21:56:53.78	44.40	9.39	-41.3	-45.8	11.1	1.75e-03	0	55	0	56623104	54	5962
2026-01-14 21:56:54.79	44.54	9.44	-41.4	-46.1	10.9	1.77e-03	0	55	0	57671680	54	6135
2026-01-14 21:56:55.80	44.68	9.49	-41.5	-46.1	10.8	2.80e-03	0	55	0	59768832	54	6177
2026-01-14 21:56:56.81	44.82	9.54	-41.6	-46.4	10.5	3.61e-03	0	55	0	61865984	54	6410
2026-01-14 21:56:57.81	44.96	9.60	-41.7	-46.5	10.4	4.12e-03	0	55	0	63963136	54	6472
2026-01-14 21:56:58.83	45.11	9.65	-41.7	-46.7	10.2	4.82e-03	0	55	0	66060288	54	6602
2026-01-14 21:56:59.84	45.25	9.70	-41.8	-46.7	10.3	5.74e-03	0	55	0	67108864	54	6593
2026-01-14 21:57:00.84	45.39	9.75	-41.8	-46.7	10.2	4.92e-03	0	55	0	69206016	54	6638
2026-01-14 21:57:01.85	45.54	9.80	-41.8	-46.8	10.2	5.41e-03	0	55	0	71303168	54	6719
2026-01-14 21:57:02.86	45.68	9.85	-41.7	-46.5	10.4	4.98e-03	0	55	0	73400320	54	6487
2026-01-14 21:57:03.87	45.83	9.90	-41.7	-46.4	10.6	4.59e-03	0	55	0	75497472	54	6419
2026-01-14 21:57:04.89	45.97	9.96	-41.7	-46.4	10.6	3.28e-03	0	55	0	76546048	54	6411
2026-01-14 21:57:05.89	46.12	10.01	-41.7	-46.3	10.7	3.19e-03	0	55	0	78643200	54	6327
2026-01-14 21:57:06.90	46.27	10.06	-41.8	-46.5	10.5	3.43e-03	0	55	0	80740352	54	6481
2026-01-14 21:57:07.91	46.41	10.11	-41.8	-46.5	10.6	3.47e-03	0	55	0	82837504	54	6421
2026-01-14 21:57:08.92	46.56	10.16	-41.7	-46.4	10.7	3.12e-03	0	55	0	84934656	54	6403
2026-01-14 21:57:09.92	46.71	10.21	-41.8	-46.4	10.7	2.91e-03	0	55	0	85983232	54	6391
2026-01-14 21:57:10.93	46.86	10.26	-41.8	-46.6	10.5	3.60e-03	0	55	0	88080384	54	6540
2026-01-14 21:57:11.94	47.01	10.31	-41.8	-46.5	10.6	3.75e-03	0	55	0	90177536	54	6476
2026-01-14 21:57:12.95	47.16	10.36	-41.8	-46.6	10.6	4.02e-03	0	55	0	92274688	54	6526
2026-01-14 21:57:13.96	47.31	10.41	-41.9	-46.8	10.4	4.74e-03	0	55	0	94371840	54	6647
2026-01-14 21:57:14.97	47.46	10.46	-41.9	-46.6	10.6	4.00e-03	0	55	0	95420416	54	6537
2026-01-14 21:57:15.98	47.61	10.51	-41.8	-46.5	10.7	2.92e-03	0	55	0	97517568	54	6438
2026-01-14 21:57:16.99	47.76	10.56	-41.9	-46.5	10.7	3.16e-03	0	55	0	99614720	54	6477
2026-01-14 21:57:18.00	47.91	10.61	-41.9	-46.6	10.6	2.94e-03	0	55	0	101711872	54	6496
2026-01-14 21:57:19.01	48.07	10.66	-41.8	-46.5	10.7	2.64e-03	0	55	0	103809024	54	6437
2026-01-14 21:57:20.02	48.22	10.71	-41.8	-46.4	10.8	2.65e-03	0	55	0	104857600	54	6372
2026-01-14 21:57:21.03	48.37	10.76	-41.9	-46.5	10.7	3.25e-03	0	55	0	106954752	54	6466
2026-01-14 21:57:22.04	48.53	10.81	-41.9	-46.5	10.7	2.71e-03	0	55	0	109051904	54	6458
2026-01-14 21:57:23.04	48.68	10.86	-41.9	-46.5	10.7	3.24e-03	0	55	0	111149056	54	6494
2026-01-14 21:57:24.05	48.84	10.91	-41.9	-46.6	10.6	3.26e-03	0	55	0	113246208	54	6546
2026-01-14 21:57:25.06	48.99	10.96	-41.9	-46.6	10.7	3.09e-03	0	55	0	115343360	54	6513
2026-01-14 21:57:26.07	49.15	11.01	-41.9	-46.6	10.7	2.87e-03	0	55	0	116391936	54	6509
2026-01-14 21:57:27.08	49.31	11.06	-41.8	-46.4	10.8	3.09e-03	0	55	0	118489088	54	6397
2026-01-14 21:57:28.09	49.46	11.11	-41.8	-46.4	10.8	2.30e-03	0	56	0	120586240	54	6383
2026-01-14 21:57:29.10	49.62	11.16	-41.8	-46.4	10.9	2.37e-03	0	55	0	122683392	54	6393
2026-01-14 21:57:30.10	49.78	11.21	-41.8	-46.3	10.9	2.59e-03	0	55	0	124780544	54	6318
2026-01-14 21:57:31.11	49.94	11.26	-41.8	-46.3	10.9	2.12e-03	0	55	0	125829120	54	6333
2026-01-14 21:57:32.12	50.10	11.31	-41.8	-46.4	10.8	2.46e-03	0	55	0	127926272	54	6399
2026-01-14 21:57:33.13	50.26	11.36	-41.9	-46.6	10.6	2.76e-03	0	55	0	130023424	54	6529
2026-01-14 21:57:34.13	50.42	11.41	-42.0	-46.7	10.6	2.77e-03	0	55	0	132120576	54	6604
2026-01-14 21:57:35.14	50.58	11.46	-42.0	-46.8	10.4	3.98e-03	0	56	0	134217728	54	6687
2026-01-14 21:57:36.15	50.74	11.51	-42.0	-46.8	10.4	4.31e-03	0	55	0	135266304	54	6722
2026-01-14 21:57:37.16	50.90	11.55	-42.0	-46.9	10.4	4.73e-03	0	56	0	137363456	54	6748
2026-01-14 21:57:38.17	51.07	11.60	-42.0	-46.8	10.4	4.45e-03	0	56	0	139460608	54	6705
2026-01-14 21:57:39.17	51.23	11.65	-42.0	-46.8	10.5	4.24e-03	0	55	0	141557760	54	6681
2026-01-14 21:57:40.18	51.39	11.70	-42.1	-46.8	10.5	4.24e-03	0	56	0	143654912	54	6718
2026-01-14 21:57:41.19	51.56	11.75	-42.0	-46.8	10.5	3.76e-03	0	56	0	144703488	54	6691
2026-01-14 21:57:42.20	51.72	11.80	-42.0	-46.6	10.8	2.59e-03	0	56	0	146800640	54	6509
2026-01-14 21:57:43.21	51.89	11.84	-41.9	-46.5	10.8	2.59e-03	0	56	0	148897792	54	6474
2026-01-14 21:57:44.22	52.05	11.89	-42.0	-46.6	10.7	3.03e-03	0	56	0	150994944	54	6554
2026-01-14 21:57:45.23	52.22	11.94	-42.0	-46.7	10.6	2.85e-03	0	56	0	153092096	54	6586
2026-01-14 21:57:46.24	52.39	11.99	-42.1	-46.9	10.4	3.80e-03	0	56	0	154140672	54	6764
2026-01-14 21:57:47.25	52.55	12.03	-42.1	-47.0	10.3	4.71e-03	0	56	0	156237824	54	6832
2026-01-14 21:57:48.26	52.72	12.08	-42.1	-47.0	10.3	4.67e-03	0	56	0	158334976	54	6838
2026-01-14 21:57:49.27	52.89	12.13	-42.1	-47.0	10.3	5.52e-03	0	56	0	160432128	54	6827
2026-01-14 21:57:50.28	53.06	12.18	-42.1	-47.0	10.3	5.82e-03	0	56	0	162529280	54	6842
2026-01-14 21:57:51.29	53.23	12.22	-42.1	-46.9	10.4	4.43e-03	0	56	0	163577856	54	6771
2026-01-14 21:57:52.30	53.40	12.27	-42.1	-47.0	10.3	4.75e-03	0	56	0	165675008	54	6873
2026-01-14 21:57:53.31	53.57	12.32	-42.1	-46.9	10.4	5.09e-03	0	56	0	167772160	54	6748
2026-01-14 21:57:54.32	53.74	12.36	-42.2	-47.1	10.3	4.82e-03	0	56	0	169869312	54	6885
2026-01-14 21:57:55.33	53.91	12.41	-42.2	-47.2	10.1	5.93e-03	0	56	0	171966464	54	6972
2026-01-14 21:57:56.34	54.09	12.46	-42.2	-47.2	10.1	6.26e-03	0	56	0	173015040	55	6596
2026-01-14 21:57:57.35	54.26	12.50	-42.2	-47.2	10.1	6.32e-03	0	56	0	175112192	55	6602
2026-01-14 21:57:58.36	54.43	12.55	-42.2	-47.2	10.1	6.65e-03	0	56	0	177209344	55	6581
2026-01-14 21:57:59.37	54.61	12.59	-42.2	-47.1	10.2	6.37e-03	0	56	0	179306496	55	6516
2026-01-14 21:58:00.38	54.78	12.64	-42.2	-47.2	10.2	6.88e-03	0	56	0	181403648	55	6571
2026-01-14 21:58:01.39	54.96	12.69	-42.2	-47.2	10.1	6.47e-03	0	56	0	183500800	55	6579
2026-01-14 21:58:02.40	55.13	12.73	-42.2	-47.3	10.0	7.03e-03	0	56	0	184549376	55	6650
2026-01-14 21:58:03.41	55.31	12.78	-42.3	-47.4	9.9	6.47e-03	0	56	0	186646528	55	6749
2026-01-14 21:58:04.42	55.48	12.82	-42.3	-47.5	9.9	9.31e-03	0	56	0	188743680	55	6817
2026-01-14 21:58:05.43	55.66	12.87	-42.3	-47.5	9.8	9.36e-03	0	56	0	190840832	55	6843
2026-01-14 21:58:06.44	55.84	12.91	-42.4	-47.7	9.6	1.09e-02	0	56	0	192937984	55	6998
2026-01-14 21:58:07.45	56.02	12.96	-42.4	-47.7	9.7	1.16e-02	0	56	0	193986560	55	6966
2026-01-14 21:58:08.46	56.19	13.00	-42.4	-47.6	9.7	1.19e-02	0	56	0	196083712	55	6918
2026-01-14 21:58:09.47	56.37	13.04	-42.4	-47.7	9.5	1.33e-02	0	56	0	198180864	55	7034
2026-01-14 21:58:10.48	56.55	13.09	-42.4	-47.7	9.7	1.17e-02	0	56	0	200278016	55	6983
2026-01-14 21:58:11.49	56.73	13.13	-42.5	-47.9	9.4	1.33e-02	0	56	0	202375168	55	7123
2026-01-14 21:58:12.49	56.91	13.18	-42.5	-47.8	9.4	1.53e-02	0	56	0	203423744	55	7114
2026-01-14 21:58:13.50	57.09	13.22	-42.5	-48.0	9.3	1.58e-02	0	56	0	205520896	55	7216
2026-01-14 21:58:14.51	57.28	13.26	-42.5	-48.1	9.2	1.77e-02	0	56	0	207618048	55	7291
2026-01-14 21:58:15.52	57.46	13.31	-42.6	-48.3	9.0	2.49e-02	0	56	0	209715200	55	7511
2026-01-14 21:58:16.53	57.64	13.35	-42.6	-48.2	9.1	2.90e-02	0	56	0	211812352	55	7435
2026-01-14 21:58:17.54	57.82	13.39	-42.6	-48.4	8.9	2.62e-02	0	56	0	212860928	55	7579
2026-01-14 21:58:18.55	58.01	13.43	-42.6	-48.3	9.0	2.88e-02	0	56	0	214958080	55	7462
2026-01-14 21:58:19.56	58.19	13.48	-42.6	-48.4	8.9	2.59e-02	0	56	0	217055232	55	7578
2026-01-14 21:58:20.56	58.38	13.52	-42.6	-48.4	8.9	2.65e-02	0	56	0	219152384	55	7574
2026-01-14 21:58:21.57	58.56	13.56	-42.6	-48.3	9.0	2.69e-02	0	56	0	221249536	55	7525
2026-01-14 21:58:22.58	58.75	13.60	-42.6	-48.2	9.1	2.70e-02	0	56	0	222298112	55	7408
2026-01-14 21:58:23.59	58.93	13.64	-42.9	-48.8	8.6	3.46e-02	0	56	0	224395264	56	7495
2026-01-14 21:58:24.60	59.12	13.69	-42.8	-48.7	8.8	4.13e-02	0	56	0	226492416	56	7389
2026-01-14 21:58:25.61	59.31	13.73	-42.9	-48.8	8.6	3.50e-02	0	56	0	228589568	56	7485
2026-01-14 21:58:26.62	59.50	13.77	-42.9	-48.8	8.6	3.41e-02	0	56	0	230686720	56	7534
2026-01-14 21:58:27.63	59.68	13.81	-42.8	-48.7	8.7	3.46e-02	0	56	0	231735296	56	7423
2026-01-14 21:58:28.64	59.87	13.85	-42.8	-48.7	8.7	3.24e-02	0	56	0	233832448	56	7408
2026-01-14 21:58:29.65	60.06	13.89	-42.8	-48.4	8.9	2.67e-02	0	56	0	235929600	56	7196
2026-01-14 21:58:30.66	60.25	13.93	-42.7	-48.4	8.9	2.62e-02	0	56	0	238026752	56	7159
2026-01-14 21:58:31.67	60.44	13.97	-42.7	-48.4	8.9	2.49e-02	0	56	0	240123904	56	7201
2026-01-14 21:58:32.68	60.63	14.01	-42.6	-48.3	9.0	2.46e-02	0	56	0	241172480	56	7079
2026-01-14 21:58:33.69	60.83	14.05	-42.6	-48.3	8.9	2.78e-02	0	56	0	243269632	56	7083
2026-01-14 21:58:34.69	61.02	14.09	-42.7	-48.6	8.7	2.89e-02	0	56	0	245366784	56	7296
2026-01-14 21:58:35.70	61.21	14.13	-42.7	-48.6	8.6	4.46e-02	0	56	0	247463936	56	7323
2026-01-14 21:58:36.71	61.40	14.17	-42.7	-48.6	8.5	3.72e-02	0	56	0	249561088	56	7344
2026-01-14 21:58:37.72	61.59	14.20	-42.6	-48.7	8.4	4.04e-02	0	56	0	250609664	56	7420
2026-01-14 21:58:38.73	61.79	14.24	-42.6	-48.6	8.6	3.48e-02	0	56	0	252706816	56	7293
2026-01-14 21:58:39.74	61.98	14.28	-42.5	-48.3	8.8	3.14e-02	0	56	0	254803968	56	7108
2026-01-14 21:58:40.75	62.18	14.32	-42.5	-48.3	8.8	2.96e-02	0	56	0	256901120	56	7097
2026-01-14 21:58:41.76	62.37	14.36	-42.5	-48.2	8.9	3.04e-02	0	56	0	258998272	56	7007
2026-01-14 21:58:42.77	62.57	14.39	-42.6	-48.4	8.7	2.67e-02	0	56	0	260046848	56	7143
2026-01-14 21:58:43.78	62.77	14.43	-42.5	-48.1	9.0	2.54e-02	0	57	0	262144000	56	6922
2026-01-14 21:58:44.79	62.96	14.47	-42.4	-48.0	9.1	2.04e-02	0	56	0	264241152	56	6835
2026-01-14 21:58:45.80	63.16	14.50	-42.2	-47.5	9.6	2.00e-02	0	56	0	266338304	56	6475
2026-01-14 21:58:46.81	63.36	14.54	-42.0	-46.9	10.1	8.06e-03	0	56	0	268435456	56	6056
2026-01-14 21:58:47.81	63.55	14.58	-41.6	-46.3	10.6	4.79e-03	0	56	0	269484032	55	5989
2026-01-14 21:58:48.82	63.75	14.61	-41.5	-46.2	10.7	3.65e-03	0	56	0	271581184	55	5861
2026-01-14 21:58:49.83	63.95	14.65	-41.5	-46.2	10.6	3.36e-03	0	56	0	273678336	54	6253
2026-01-14 21:58:50.84	64.15	14.68	-41.5	-46.3	10.4	3.82e-03	0	56	0	275775488	54	6317
2026-01-14 21:58:51.85	64.35	14.72	-41.4	-46.2	10.4	4.16e-03	0	57	0	277872640	54	6249
2026-01-14 21:58:52.86	64.55	14.75	-41.3	-46.2	10.3	4.75e-03	0	56	0	279969792	54	6266
2026-01-14 21:58:53.86	64.75	14.79	-41.3	-46.2	10.3	6.10e-03	0	56	0	281018368	54	6225
2026-01-14 21:58:54.87	64.95	14.82	-41.2	-46.2	10.2	7.70e-03	0	57	0	283115520	54	6235
2026-01-14 21:58:55.88	65.16	14.85	-41.3	-46.3	10.0	6.38e-03	0	57	0	285212672	54	6325
2026-01-14 21:58:56.89	65.36	14.89	-41.4	-46.7	9.6	7.88e-03	0	57	0	287309824	54	6602
2026-01-14 21:58:57.89	65.56	14.92	-41.6	-47.3	8.9	2.30e-02	0	57	0	289406976	54	7106
2026-01-14 21:58:58.90	65.76	14.95	-41.7	-47.5	8.7	2.92e-02	0	57	0	290455552	54	7220
2026-01-14 21:58:59.91	65.97	14.99	-41.6	-47.4	8.8	2.95e-02	0	57	0	292552704	54	7122
2026-01-14 21:59:00.92	66.17	15.02	-41.5	-47.0	9.1	2.97e-02	0	57	0	294649856	54	6870
2026-01-14 21:59:01.93	66.38	15.05	-41.5	-47.2	9.0	2.12e-02	0	57	0	296747008	54	6977
2026-01-14 21:59:02.94	66.58	15.08	-41.5	-47.2	8.9	2.81e-02	0	57	0	298844160	54	6975
2026-01-14 21:59:03.94	66.78	15.11	-41.4	-46.9	9.2	2.63e-02	0	57	0	299892736	54	6759
2026-01-14 21:59:04.95	66.99	15.14	-41.3	-46.9	9.2	1.63e-02	0	56	0	301989888	54	6761
2026-01-14 21:59:05.96	67.20	15.18	-41.3	-46.8	9.2	1.91e-02	0	57	0	304087040	54	6689
2026-01-14 21:59:06.97	67.40	15.21	-41.3	-47.0	9.0	2.41e-02	0	57	0	306184192	54	6838
2026-01-14 21:59:07.98	67.61	15.24	-41.4	-47.5	8.5	3.11e-02	0	57	0	308281344	54	7214
2026-01-14 21:59:08.99	67.82	15.27	-41.5	-47.9	8.0	5.38e-02	0	57	0	309329920	54	7579
2026-01-14 21:59:10.00	68.03	15.30	-41.5	-48.3	7.5	9.60e-02	0	57	0	311427072	54	7945
2026-01-14 21:59:11.01	68.23	15.33	-41.5	-48.5	7.3	1.18e-01	0	57	0	313524224	54	8158
2026-01-14 21:59:12.02	68.44	15.35	-41.5	-48.7	7.0	1.27e-01	0	57	0	315621376	54	8286
2026-01-14 21:59:13.02	68.65	15.38	-41.4	-48.3	7.3	1.29e-01	0	56	0	317718528	54	7971
2026-01-14 21:59:14.03	68.86	15.41	-41.3	-48.4	7.2	1.37e-01	0	57	0	318767104	54	8044
2026-01-14 21:59:15.04	69.07	15.44	-41.3	-48.3	7.3	1.13e-01	0	57	0	320864256	54	7903
2026-01-14 21:59:16.05	69.28	15.47	-41.2	-48.1	7.3	1.23e-01	0	57	0	322961408	54	7756
2026-01-14 21:59:17.06	69.49	15.49	-41.2	-48.5	6.9	1.42e-01	0	57	0	325058560	54	8095
2026-01-14 21:59:18.07	69.70	15.52	-41.2	-48.8	6.6	1.82e-01	0	57	0	327155712	54	8399
2026-01-14 21:59:19.08	69.91	15.55	-41.3	-49.3	6.2	2.64e-01	0	57	0	328204288	54	8873
2026-01-14 21:59:20.09	70.13	15.57	-41.4	-49.7	5.9	3.40e-01	0	57	0	330301440	54	9345
2026-01-14 21:59:21.10	70.34	15.60	-41.3	-49.9	5.6	3.94e-01	0	57	0	332398592	54	9591
2026-01-14 21:59:22.11	70.55	15.63	-41.4	-50.2	5.5	4.52e-01	0	57	0	334495744	54	9837
2026-01-14 21:59:23.12	70.76	15.65	-41.3	-50.3	5.4	5.25e-01	0	57	0	336592896	54	9965
2026-01-14 21:59:24.12	70.98	15.68	-41.3	-50.3	5.3	5.19e-01	0	57	0	337641472	54	9949
2026-01-14 21:59:25.13	71.19	15.70	-41.2	-50.7	5.1	6.01e-01	0	57	0	339738624	54	10465
2026-01-14 21:59:26.14	71.40	15.73	-41.2	-51.2	4.8	7.84e-01	0	57	0	341835776	54	11135
2026-01-14 21:59:27.15	71.62	15.75	-41.2	-51.6	4.5	9.32e-01	0	57	0	343932928	54	11625
2026-01-14 21:59:28.16	71.83	15.77	-41.2	-51.9	4.4	1.08e+00	0	57	0	346030080	54	11994
2026-01-14 21:59:29.17	72.05	15.80	-41.1	-51.6	4.5	1.20e+00	0	57	0	347078656	54	11602
2026-01-14 21:59:30.18	72.26	15.82	-40.9	-50.5	5.0	7.91e-01	0	57	0	349175808	53	10808
2026-01-14 21:59:31.19	72.48	15.84	-40.9	-49.9	5.4	6.19e-01	0	57	0	351272960	53	10104
2026-01-14 21:59:32.20	72.69	15.86	-40.8	-49.3	5.7	4.47e-01	0	57	0	353370112	53	9477
2026-01-14 21:59:33.21	72.91	15.89	-40.7	-48.8	6.1	3.30e-01	0	57	0	355467264	53	8914
2026-01-14 21:59:34.22	73.13	15.91	-40.8	-48.9	6.1	2.93e-01	0	57	0	356515840	53	9023
2026-01-14 21:59:35.22	73.34	15.93	-40.9	-49.3	5.8	3.33e-01	0	57	0	358612992	53	9418
2026-01-14 21:59:36.23	73.56	15.95	-41.0	-49.9	5.4	4.96e-01	0	57	0	360710144	53	10126
2026-01-14 21:59:37.24	73.78	15.97	-41.0	-50.2	5.2	5.68e-01	0	57	0	362807296	53	10455
2026-01-14 21:59:38.25	74.00	15.99	-41.1	-50.5	5.0	6.36e-01	0	57	0	364904448	53	10826
2026-01-14 21:59:39.26	74.21	16.01	-41.1	-50.8	4.9	7.46e-01	0	57	0	365953024	53	11190
2026-01-14 21:59:40.27	74.43	16.03	-41.0	-50.3	5.1	7.14e-01	0	57	0	368050176	53	10588
2026-01-14 21:59:41.28	74.65	16.05	-40.9	-50.1	5.2	6.11e-01	0	57	0	370147328	53	10372
2026-01-14 21:59:42.28	74.87	16.07	-40.8	-49.7	5.4	5.39e-01	0	57	0	372244480	53	9930
2026-01-14 21:59:43.29	75.09	16.08	-40.8	-49.7	5.4	5.10e-01	0	57	0	374341632	53	9881
2026-01-14 21:59:44.30	75.31	16.10	-40.9	-49.7	5.5	4.72e-01	0	57	0	375390208	53	9862
2026-01-14 21:59:45.31	75.53	16.12	-41.0	-49.7	5.6	4.78e-01	0	57	0	377487360	53	9855
2026-01-14 21:59:46.32	75.75	16.14	-41.0	-49.6	5.7	4.52e-01	0	57	0	379584512	53	9750
2026-01-14 21:59:47.32	75.96	16.15	-41.0	-49.3	5.9	4.07e-01	0	57	0	381681664	53	9450
2026-01-14 21:59:48.33	76.18	16.17	-41.0	-49.3	6.0	3.28e-01	0	57	0	383778816	53	9397
2026-01-14 21:59:49.34	76.41	16.18	-41.0	-49.2	6.0	3.24e-01	0	57	0	384827392	53	9310
2026-01-14 21:59:50.35	76.63	16.20	-41.1	-49.8	5.6	3.89e-01	0	57	0	386924544	53	10009
2026-01-14 21:59:51.36	76.85	16.21	-41.2	-50.3	5.2	5.09e-01	0	57	0	389021696	53	10584
2026-01-14 21:59:52.37	77.07	16.23	-41.2	-50.5	5.1	6.50e-01	0	57	0	391118848	53	10846
2026-01-14 21:59:53.37	77.29	16.24	-41.1	-50.2	5.3	6.08e-01	0	57	0	393216000	53	10471
2026-01-14 21:59:54.38	77.51	16.26	-41.1	-50.1	5.3	5.73e-01	0	57	0	394264576	53	10316
2026-01-14 21:59:55.39	77.73	16.27	-41.1	-49.9	5.5	5.07e-01	0	57	0	396361728	53	10070
2026-01-14 21:59:56.40	77.95	16.28	-41.1	-49.6	5.7	4.45e-01	0	57	0	398458880	53	9769
2026-01-14 21:59:57.40	78.17	16.30	-41.2	-49.4	5.9	3.76e-01	0	57	0	400556032	53	9592
2026-01-14 21:59:58.41	78.40	16.31	-41.2	-49.4	6.0	3.66e-01	0	57	0	402653184	53	9570
2026-01-14 21:59:59.42	78.62	16.32	-41.3	-49.4	6.0	3.40e-01	0	57	0	403701760	53	9603
2026-01-14 22:00:00.43	78.84	16.33	-41.4	-49.7	5.9	3.45e-01	0	57	0	405798912	53	9914
2026-01-14 22:00:01.44	79.07	16.34	-41.6	-50.2	5.6	4.02e-01	0	57	0	407896064	53	10432
2026-01-14 22:00:02.44	79.29	16.35	-41.6	-50.2	5.5	4.65e-01	0	57	0	409993216	53	10527
2026-01-14 22:00:03.45	79.51	16.36	-41.5	-50.0	5.7	4.65e-01	0	57	0	412090368	53	10218
2026-01-14 22:00:04.46	79.73	16.37	-41.4	-49.9	5.7	4.15e-01	0	57	0	413138944	53	10073
2026-01-14 22:00:05.47	79.96	16.38	-41.4	-49.8	5.8	3.82e-01	0	57	0	415236096	53	9994
2026-01-14 22:00:06.47	80.18	16.39	-41.3	-49.5	6.0	3.56e-01	0	57	0	417333248	53	9703
2026-01-14 22:00:07.48	80.40	16.40	-41.4	-49.5	6.1	3.41e-01	0	57	0	419430400	53	9656
2026-01-14 22:00:08.49	80.63	16.41	-41.4	-49.5	6.1	3.15e-01	0	57	0	421527552	53	9638
2026-01-14 22:00:09.50	80.85	16.42	-41.5	-49.5	6.1	3.04e-01	0	57	0	422576128	53	9618
2026-01-14 22:00:10.51	81.08	16.42	-41.5	-49.4	6.2	3.11e-01	0	57	0	424673280	53	9568
2026-01-14 22:00:11.52	81.30	16.43	-41.6	-49.4	6.3	2.77e-01	0	57	0	426770432	53	9549
2026-01-14 22:00:12.53	81.53	16.44	-41.6	-49.1	6.5	2.38e-01	0	57	0	428867584	53	9267
2026-01-14 22:00:13.54	81.75	16.44	-41.6	-48.8	6.8	2.02e-01	0	57	0	430964736	53	8906
2026-01-14 22:00:14.55	81.97	16.45	-41.5	-48.6	6.9	1.76e-01	0	57	0	432013312	53	8740
2026-01-14 22:00:15.56	82.20	16.45	-41.5	-48.6	6.9	1.62e-01	0	57	0	434110464	53	8721
2026-01-14 22:00:16.57	82.42	16.46	-41.4	-48.5	7.0	1.64e-01	0	57	0	436207616	53	8641
2026-01-14 22:00:17.58	82.65	16.46	-41.3	-48.3	7.2	1.61e-01	0	57	0	438304768	53	8401
2026-01-14 22:00:18.59	82.87	16.47	-41.3	-48.2	7.2	1.35e-01	0	57	0	440401920	53	8320
2026-01-14 22:00:19.60	83.10	16.47	-41.3	-48.1	7.4	1.17e-01	0	57	0	442499072	53	8237
2026-01-14 22:00:20.61	83.32	16.47	-41.4	-48.1	7.4	1.09e-01	0	57	0	443547648	53	8271
2026-01-14 22:00:21.62	83.55	16.48	-41.5	-48.4	7.3	1.26e-01	0	57	0	445644800	53	8497
2026-01-14 22:00:22.62	83.77	16.48	-41.6	-48.5	7.2	1.38e-01	0	57	0	447741952	53	8606
2026-01-14 22:00:23.63	84.00	16.48	-41.6	-48.3	7.4	1.33e-01	0	57	0	449839104	53	8443
2026-01-14 22:00:24.64	84.22	16.48	-41.5	-48.4	7.3	1.31e-01	0	57	0	451936256	53	8529
2026-01-14 22:00:25.65	84.45	16.48	-41.5	-48.6	7.1	1.47e-01	0	57	0	452984832	53	8738
2026-01-14 22:00:26.66	84.67	16.48	-41.5	-48.8	6.9	1.62e-01	0	57	0	455081984	53	8892
2026-01-14 22:00:27.66	84.90	16.48	-41.4	-48.5	7.2	1.62e-01	0	57	0	457179136	53	8585
2026-01-14 22:00:28.67	85.12	16.48	-41.3	-48.1	7.5	1.12e-01	0	57	0	459276288	53	8213
2026-01-14 22:00:29.68	85.35	16.48	-41.3	-48.2	7.4	1.08e-01	0	57	0	461373440	53	8295
2026-01-14 22:00:30.69	85.57	16.48	-41.4	-48.3	7.3	1.11e-01	0	57	0	462422016	53	8455
2026-01-14 22:00:31.70	85.80	16.48	-41.5	-48.8	6.9	1.61e-01	0	57	0	464519168	53	8899
2026-01-14 22:00:32.71	86.02	16.48	-41.6	-49.0	6.8	1.86e-01	0	57	0	466616320	53	9109
2026-01-14 22:00:33.72	86.25	16.48	-41.6	-49.0	6.7	2.06e-01	0	57	0	468713472	53	9158
2026-01-14 22:00:34.73	86.48	16.47	-41.6	-48.8	7.0	1.63e-01	0	57	0	470810624	53	8867
2026-01-14 22:00:35.74	86.70	16.47	-41.5	-48.7	7.0	1.55e-01	0	57	0	471859200	53	8837
2026-01-14 22:00:36.75	86.93	16.47	-41.4	-48.6	7.1	1.55e-01	0	57	0	473956352	53	8733
2026-01-14 22:00:37.76	87.15	16.46	-41.4	-48.3	7.4	1.26e-01	0	57	0	476053504	53	8422
2026-01-14 22:00:38.77	87.38	16.46	-41.4	-48.1	7.6	1.10e-01	0	57	0	478150656	53	8241
2026-01-14 22:00:39.78	87.60	16.45	-41.5	-48.3	7.5	9.77e-02	0	57	0	480247808	53	8378
2026-01-14 22:00:40.79	87.83	16.45	-41.6	-48.3	7.6	1.09e-01	0	57	0	481296384	53	8449
2026-01-14 22:00:41.80	88.05	16.44	-41.9	-48.6	7.5	1.02e-01	0	57	0	483393536	54	8268
2026-01-14 22:00:42.81	88.28	16.44	-41.9	-48.4	7.7	9.54e-02	0	57	0	485490688	54	8040
2026-01-14 22:00:43.82	88.50	16.43	-42.0	-48.4	7.8	9.32e-02	0	57	0	487587840	54	8027
2026-01-14 22:00:44.83	88.73	16.42	-42.0	-48.1	8.2	6.03e-02	0	57	0	489684992	54	7773
2026-01-14 22:00:45.84	88.95	16.42	-41.9	-47.8	8.5	4.62e-02	0	58	0	490733568	54	7512
2026-01-14 22:00:46.85	89.17	16.41	-41.8	-47.6	8.8	3.34e-02	0	57	0	492830720	54	7323
2026-01-14 22:00:47.86	89.40	16.40	-41.8	-47.5	8.8	2.61e-02	0	57	0	494927872	54	7278
2026-01-14 22:00:48.87	89.62	16.39	-41.6	-46.8	9.6	1.75e-02	0	57	0	497025024	54	6673
2026-01-14 22:00:49.88	89.85	16.38	-41.5	-46.6	9.8	1.23e-02	0	57	0	499122176	54	6570
2026-01-14 22:00:50.89	90.07	16.37	-41.6	-46.6	9.9	8.83e-03	0	57	0	500170752	54	6554
2026-01-14 22:00:51.90	90.29	16.36	-41.6	-46.6	10.0	7.25e-03	0	57	0	502267904	54	6534
2026-01-14 22:00:52.91	90.52	16.35	-41.8	-46.8	9.9	7.04e-03	0	57	0	504365056	54	6697
2026-01-14 22:00:53.92	90.74	16.34	-41.8	-46.7	10.1	5.99e-03	0	58	0	506462208	54	6572
2026-01-14 22:00:54.93	90.97	16.33	-41.8	-46.7	10.2	6.28e-03	0	57	0	508559360	54	6605
2026-01-14 22:00:55.93	91.19	16.32	-41.9	-46.8	10.1	5.89e-03	0	57	0	510656512	54	6715
2026-01-14 22:00:56.94	91.41	16.31	-41.8	-46.7	10.3	5.24e-03	0	57	0	511705088	54	6587
2026-01-14 22:00:57.95	91.63	16.30	-41.9	-46.8	10.2	4.81e-03	0	57	0	513802240	54	6684
2026-01-14 22:00:58.96	91.85	16.28	-41.8	-46.5	10.5	4.12e-03	0	57	0	515899392	54	6454
2026-01-14 22:00:59.97	92.08	16.27	-41.8	-46.3	10.7	3.40e-03	0	57	0	517996544	54	6337
2026-01-14 22:01:00.98	92.30	16.26	-41.8	-46.4	10.7	3.16e-03	0	57	0	519045120	54	6379
2026-01-14 22:01:01.99	92.52	16.24	-41.8	-46.5	10.6	3.22e-03	0	57	0	521142272	54	6456
2026-01-14 22:01:03.00	92.74	16.23	-41.9	-46.5	10.5	3.32e-03	0	57	0	523239424	54	6475
2026-01-14 22:01:04.01	92.97	16.21	-41.8	-46.3	10.9	2.44e-03	0	57	0	525336576	54	6293
2026-01-14 22:01:05.01	93.18	16.20	-41.8	-46.4	10.8	2.82e-03	0	57	0	527433728	54	6366
2026-01-14 22:01:06.02	93.41	16.18	-41.8	-46.3	10.9	2.35e-03	0	57	0	528482304	54	6301
2026-01-14 22:01:07.03	93.63	16.17	-41.8	-46.1	11.1	1.59e-03	0	58	0	530579456	54	6179
2026-01-14 22:01:08.04	93.85	16.15	-41.6	-45.8	11.4	1.20e-03	0	57	0	532676608	54	5963
2026-01-14 22:01:09.04	94.07	16.13	-41.5	-45.5	11.7	5.61e-04	0	57	0	534773760	54	5786
2026-01-14 22:01:10.05	94.29	16.12	-41.5	-45.6	11.6	5.26e-04	0	58	0	536870912	54	5834
2026-01-14 22:01:11.06	94.51	16.10	-41.4	-45.5	11.8	4.82e-04	0	57	0	538968064	54	5736
2026-01-14 22:01:12.07	94.73	16.08	-41.5	-45.6	11.7	5.17e-04	0	57	0	540016640	54	5811
2026-01-14 22:01:13.08	94.95	16.06	-41.4	-45.5	11.8	4.70e-04	0	57	0	542113792	54	5762
2026-01-14 22:01:14.09	95.17	16.05	-41.5	-45.6	11.7	5.61e-04	0	57	0	544210944	54	5802
2026-01-14 22:01:15.10	95.39	16.03	-41.5	-45.5	11.8	4.32e-04	0	57	0	546308096	54	5748
2026-01-14 22:01:16.10	95.60	16.01	-41.5	-45.6	11.7	4.32e-04	0	57	0	548405248	54	5825
2026-01-14 22:01:17.11	95.82	15.99	-41.6	-45.7	11.6	5.42e-04	0	57	0	549453824	54	5893
2026-01-14 22:01:18.12	96.04	15.97	-41.6	-45.8	11.6	6.25e-04	0	57	0	551550976	54	5948
2026-01-14 22:01:19.13	96.26	15.95	-41.8	-46.2	11.1	9.54e-04	0	57	0	553648128	54	6232
2026-01-14 22:01:20.14	96.47	15.93	-41.9	-46.5	10.9	2.23e-03	0	58	0	555745280	54	6443
2026-01-14 22:01:21.14	96.69	15.91	-41.9	-46.4	11.0	2.63e-03	0	58	0	557842432	54	6365
2026-01-14 22:01:22.16	96.91	15.88	-41.9	-46.4	10.9	2.75e-03	0	57	0	558891008	54	6382
2026-01-14 22:01:23.17	97.13	15.86	-41.9	-46.4	11.0	2.04e-03	0	58	0	560988160	54	6349
2026-01-14 22:01:24.17	97.34	15.84	-41.7	-46.0	11.3	1.28e-03	0	57	0	563085312	54	6116
2026-01-14 22:01:25.18	97.56	15.82	-41.6	-45.9	11.5	9.76e-04	0	57	0	565182464	54	6006
2026-01-14 22:01:26.19	97.77	15.79	-41.7	-46.0	11.4	7.54e-04	0	57	0	567279616	54	6087
2026-01-14 22:01:27.20	97.99	15.77	-41.7	-46.1	11.3	1.10e-03	0	57	0	568328192	54	6143
2026-01-14 22:01:28.21	98.20	15.75	-41.8	-46.3	11.0	1.54e-03	0	58	0	570425344	54	6321
2026-01-14 22:01:29.22	98.42	15.72	-42.0	-46.6	10.8	2.27e-03	0	57	0	572522496	54	6517
2026-01-14 22:01:30.23	98.63	15.70	-41.9	-46.3	11.0	1.73e-03	0	57	0	574619648	54	6337
2026-01-14 22:01:31.24	98.85	15.67	-41.7	-46.1	11.3	1.80e-03	0	57	0	576716800	54	6151
2026-01-14 22:01:32.25	99.06	15.65	-41.7	-45.9	11.5	1.16e-03	0	57	0	577765376	54	6048
2026-01-14 22:01:33.26	99.28	15.62	-41.6	-45.8	11.6	6.99e-04	0	57	0	579862528	54	5958
2026-01-14 22:01:34.27	99.49	15.60	-41.5	-45.6	11.7	5.40e-04	0	57	0	581959680	54	5816
2026-01-14 22:01:35.28	99.70	15.57	-41.3	-45.2	12.2	3.59e-04	0	57	0	584056832	54	5584
2026-01-14 22:01:36.29	99.91	15.54	-41.2	-45.1	12.3	2.42e-04	0	58	0	586153984	54	5491
2026-01-14 22:01:37.30	100.13	15.52	-41.2	-44.9	12.5	1.39e-04	0	57	0	587202560	54	5399
2026-01-14 22:01:38.31	100.34	15.49	-41.3	-45.1	12.3	2.04e-04	0	57	0	589299712	54	5471
2026-01-14 22:01:39.32	100.55	15.46	-41.3	-45.1	12.4	1.50e-04	0	57	0	591396864	54	5505
2026-01-14 22:01:40.33	100.76	15.43	-41.4	-45.3	12.1	2.34e-04	0	57	0	593494016	54	5619
2026-01-14 22:01:41.34	100.97	15.41	-41.4	-45.4	12.0	2.71e-04	0	57	0	595591168	54	5711
2026-01-14 22:01:42.35	101.18	15.38	-41.4	-45.5	11.8	3.58e-04	0	57	0	596639744	54	5781
2026-01-14 22:01:43.36	101.39	15.35	-41.4	-45.5	11.9	4.06e-04	0	57	0	598736896	54	5744
2026-01-14 22:01:44.37	101.60	15.32	-41.4	-45.5	11.8	6.60e-04	0	57	0	600834048	54	5775
2026-01-14 22:01:45.38	101.81	15.29	-41.4	-45.6	11.9	4.05e-04	0	57	0	602931200	54	5800
2026-01-14 22:01:46.39	102.02	15.26	-41.4	-45.7	11.8	6.03e-04	0	57	0	605028352	54	5867
2026-01-14 22:01:47.40	102.23	15.23	-41.4	-45.7	11.7	4.27e-04	0	57	0	607125504	54	5878
2026-01-14 22:01:48.41	102.43	15.20	-41.5	-45.8	11.6	6.74e-04	0	57	0	608174080	54	5941
2026-01-14 22:01:49.42	102.64	15.17	-41.7	-46.1	11.3	9.70e-04	0	57	0	610271232	54	6174
2026-01-14 22:01:50.43	102.85	15.14	-41.7	-46.2	11.2	1.10e-03	0	57	0	612368384	54	6239
2026-01-14 22:01:51.44	103.05	15.11	-41.8	-46.3	11.0	1.57e-03	0	58	0	614465536	54	6336
2026-01-14 22:01:52.45	103.26	15.07	-41.6	-45.9	11.5	1.05e-03	0	58	0	616562688	54	6011
2026-01-14 22:01:53.46	103.47	15.04	-41.7	-46.0	11.4	1.23e-03	0	57	0	617611264	54	6078
2026-01-14 22:01:54.46	103.67	15.01	-41.5	-45.7	11.6	2.39e-03	0	58	0	619708416	53	6231
2026-01-14 22:01:55.48	103.88	14.98	-41.5	-45.5	11.8	1.42e-03	0	57	0	621805568	53	6120
2026-01-14 22:01:56.48	104.08	14.95	-41.5	-45.6	11.6	5.10e-04	0	57	0	623902720	53	6138
2026-01-14 22:01:57.49	104.28	14.91	-40.8	-45.4	11.8	4.13e-04	0	58	0	625999872	53	6020
2026-01-14 22:01:58.50	104.49	14.88	-41.3	-45.3	12.1	4.02e-04	0	57	0	627048448	53	5933
2026-01-14 22:01:59.51	104.69	14.84	-41.3	-45.3	12.2	5.61e-04	0	57	0	629145600	53	5942
2026-01-14 22:02:00.52	104.89	14.81	-41.3	-45.2	12.2	2.14e-04	0	57	0	631242752	53	5920
2026-01-14 22:02:01.53	105.10	14.78	-41.3	-45.3	12.0	6.00e-04	0	57	0	633339904	53	5980
2026-01-14 22:02:02.54	105.30	14.74	-41.4	-45.3	12.1	2.90e-04	0	57	0	635437056	53	5986
2026-01-14 22:02:03.55	105.50	14.71	-41.5	-45.5	11.9	3.75e-04	0	58	0	636485632	53	6069
2026-01-14 22:02:04.55	105.70	14.67	-41.6	-45.7	11.7	4.10e-04	0	57	0	638582784	53	6222
2026-01-14 22:02:05.56	105.90	14.64	-41.6	-45.8	11.6	4.90e-04	0	57	0	640679936	53	6296
2026-01-14 22:02:06.57	106.10	14.60	-41.6	-45.8	11.6	5.13e-04	0	58	0	642777088	53	6281
2026-01-14 22:02:07.58	106.30	14.56	-41.5	-45.6	11.7	6.03e-04	0	57	0	644874240	53	6188
2026-01-14 22:02:08.59	106.50	14.53	-40.4	-45.8	11.5	7.50e-04	0	57	0	645922816	53	6304
2026-01-14 22:02:09.60	106.69	14.49	-39.8	-46.0	10.8	1.10e-02	0	57	0	648019968	51	7277
2026-01-14 22:02:10.61	106.89	14.45	-41.8	-46.2	11.2	1.39e-03	0	58	0	650117120	54	6240
2026-01-14 22:02:11.62	107.09	14.42	-42.0	-46.6	10.8	1.74e-03	0	58	0	652214272	54	6552
2026-01-14 22:02:12.63	107.29	14.38	-42.2	-47.0	10.4	3.67e-03	0	57	0	654311424	54	6827
2026-01-14 22:02:13.64	107.48	14.34	-42.2	-47.1	10.3	5.16e-03	0	57	0	655360000	55	6518
2026-01-14 22:02:14.65	107.68	14.30	-42.3	-47.4	10.0	6.05e-03	0	58	0	657457152	55	6738
2026-01-14 22:02:15.66	107.88	14.27	-42.2	-47.2	10.2	6.26e-03	0	57	0	659554304	55	6582
2026-01-14 22:02:16.67	108.07	14.23	-42.2	-47.0	10.3	5.32e-03	0	57	0	661651456	55	6447
2026-01-14 22:02:17.68	108.27	14.19	-42.2	-46.9	10.4	4.15e-03	0	58	0	663748608	55	6397
2026-01-14 22:02:18.69	108.46	14.15	-42.1	-46.8	10.6	4.20e-03	0	57	0	664797184	55	6297
2026-01-14 22:02:19.70	108.65	14.11	-41.9	-46.4	10.9	2.89e-03	0	57	0	666894336	55	6060
2026-01-14 22:02:20.71	108.85	14.07	-42.0	-46.5	10.9	2.67e-03	0	57	0	668991488	55	6093
2026-01-14 22:02:21.72	109.04	14.03	-42.0	-46.6	10.8	2.55e-03	0	57	0	671088640	55	6140
2026-01-14 22:02:22.73	109.23	13.99	-42.1	-46.8	10.5	3.84e-03	0	58	0	673185792	55	6314
2026-01-14 22:02:23.74	109.42	13.95	-42.2	-47.1	10.2	4.54e-03	0	58	0	675282944	55	6563
2026-01-14 22:02:24.75	109.61	13.91	-42.3	-47.4	10.0	7.07e-03	0	57	0	676331520	55	6745
2026-01-14 22:02:25.76	109.80	13.87	-42.3	-47.3	10.0	7.90e-03	0	57	0	678428672	55	6712
2026-01-14 22:02:26.77	110.00	13.83	-42.4	-47.5	9.8	8.65e-03	0	58	0	680525824	55	6850
2026-01-14 22:02:27.78	110.18	13.79	-42.3	-47.4	9.9	1.04e-02	0	58	0	682622976	55	6780
2026-01-14 22:02:28.79	110.37	13.75	-42.3	-47.3	10.0	9.04e-03	0	58	0	684720128	55	6683
2026-01-14 22:02:29.80	110.56	13.71	-42.2	-47.2	10.2	9.43e-03	0	58	0	685768704	55	6576
2026-01-14 22:02:30.81	110.75	13.67	-42.2	-47.1	10.2	7.44e-03	0	58	0	687865856	55	6509
2026-01-14 22:02:31.82	110.94	13.62	-42.2	-47.1	10.2	5.98e-03	0	57	0	689963008	55	6516
2026-01-14 22:02:32.83	111.13	13.58	-42.3	-47.5	9.8	7.25e-03	0	57	0	692060160	55	6823
2026-01-14 22:02:33.84	111.31	13.54	-42.3	-47.4	9.8	9.11e-03	0	58	0	694157312	55	6784
2026-01-14 22:02:34.85	111.50	13.50	-42.4	-47.6	9.7	1.27e-02	0	57	0	695205888	55	6927
2026-01-14 22:02:35.86	111.68	13.46	-42.5	-48.0	9.2	1.40e-02	0	57	0	697303040	55	7232
2026-01-14 22:02:36.86	111.87	13.41	-42.4	-47.7	9.6	1.52e-02	0	58	0	699400192	55	6966
2026-01-14 22:02:37.88	112.05	13.37	-42.5	-48.0	9.2	1.55e-02	0	58	0	701497344	55	7208
2026-01-14 22:02:38.89	112.24	13.33	-42.5	-48.0	9.2	1.88e-02	0	57	0	703594496	55	7241
2026-01-14 22:02:39.89	112.42	13.28	-42.5	-48.1	9.1	2.07e-02	0	58	0	704643072	55	7326
2026-01-14 22:02:40.90	112.60	13.24	-42.6	-48.3	8.9	2.52e-02	0	57	0	706740224	55	7529
2026-01-14 22:02:41.91	112.78	13.20	-42.7	-48.5	8.7	2.90e-02	0	58	0	708837376	55	7681
2026-01-14 22:02:42.92	112.97	13.15	-42.9	-48.9	8.4	3.18e-02	0	58	0	710934528	56	7589
2026-01-14 22:02:43.93	113.15	13.11	-42.7	-48.8	8.6	3.52e-02	0	57	0	713031680	56	7464
2026-01-14 22:02:44.94	113.33	13.06	-42.6	-48.5	8.8	3.61e-02	0	58	0	714080256	56	7276
2026-01-14 22:02:45.95	113.51	13.02	-42.6	-48.2	9.1	2.19e-02	0	57	0	716177408	56	7025
2026-01-14 22:02:46.96	113.69	12.97	-42.3	-47.6	9.6	1.50e-02	0	58	0	718274560	55	6921
2026-01-14 22:02:47.97	113.87	12.93	-42.1	-47.2	9.9	1.03e-02	0	58	0	720371712	55	6592
2026-01-14 22:02:48.98	114.05	12.88	-42.0	-46.8	10.3	8.73e-03	0	58	0	722468864	54	6713
2026-01-14 22:02:49.98	114.22	12.84	-42.1	-47.0	10.2	9.03e-03	0	58	0	723517440	54	6836
2026-01-14 22:02:50.99	114.40	12.79	-41.9	-46.9	10.1	9.70e-03	0	58	0	725614592	54	6750
2026-01-14 22:02:52.00	114.58	12.75	-41.7	-47.1	9.9	1.04e-02	0	58	0	727711744	54	6947
2026-01-14 22:02:53.01	114.76	12.70	-42.2	-47.4	9.8	1.10e-02	0	58	0	729808896	54	7149
2026-01-14 22:02:54.02	114.93	12.66	-42.0	-47.4	9.6	1.61e-02	0	57	0	731906048	55	6774
2026-01-14 22:02:55.03	115.11	12.61	-42.1	-47.7	9.1	2.08e-02	0	58	0	732954624	54	7375
2026-01-14 22:02:56.04	115.28	12.57	-42.0	-47.6	9.3	3.97e-02	0	57	0	735051776	54	7300
2026-01-14 22:02:57.05	115.46	12.52	-41.9	-47.8	9.0	2.25e-02	0	57	0	737148928	54	7472
2026-01-14 22:02:58.06	115.63	12.47	-41.5	-47.9	8.8	4.49e-02	0	58	0	739246080	54	7613
2026-01-14 22:02:59.07	115.80	12.43	-41.6	-47.6	8.7	4.93e-02	0	58	0	741343232	53	7776
2026-01-14 22:03:00.07	115.98	12.38	-41.9	-47.3	9.6	3.06e-02	0	57	0	742391808	54	7075
2026-01-14 22:03:01.08	116.15	12.33	-41.5	-47.7	8.9	2.91e-02	0	57	0	744488960	54	7396
2026-01-14 22:03:02.10	116.32	12.29	-41.9	-48.4	8.3	8.49e-02	0	57	0	746586112	54	8004
2026-01-14 22:03:03.11	116.49	12.24	-41.8	-48.4	8.1	6.57e-02	0	58	0	748683264	54	8075
2026-01-14 22:03:04.12	116.66	12.19	-41.4	-48.4	8.1	1.31e-01	0	58	0	750780416	54	8014
2026-01-14 22:03:05.13	116.83	12.14	-41.8	-48.7	7.2	8.53e-02	0	58	0	751828992	52	9336
2026-01-14 22:03:06.14	117.00	12.10	-42.1	-49.0	7.6	1.33e-01	0	57	0	753926144	54	8645
2026-01-14 22:03:07.15	117.17	12.05	-42.0	-48.6	7.8	1.17e-01	0	57	0	756023296	54	8252
2026-01-14 22:03:08.16	117.34	12.00	-41.0	-48.5	7.9	7.31e-02	0	57	0	758120448	54	8143
2026-01-14 22:03:09.17	117.51	11.95	-42.0	-48.6	7.7	9.74e-02	0	57	0	760217600	54	8254
2026-01-14 22:03:10.18	117.68	11.90	-42.2	-49.4	7.1	1.53e-01	0	57	0	761266176	54	9027
2026-01-14 22:03:11.19	117.84	11.86	-40.3	-49.6	6.4	3.06e-01	0	58	0	763363328	53	9788
2026-01-14 22:03:12.20	118.01	11.81	-41.5	-50.1	6.3	2.79e-01	0	57	0	765460480	54	9735
2026-01-14 22:03:13.20	118.17	11.76	-41.5	-49.9	6.7	2.62e-01	0	58	0	767557632	55	9066
2026-01-14 22:03:14.21	118.34	11.71	-42.0	-50.1	6.4	2.96e-01	0	57	0	769654784	55	9229
2026-01-14 22:03:15.22	118.51	11.66	-42.5	-50.3	6.7	2.97e-01	0	57	0	771751936	55	9426
2026-01-14 22:03:16.23	118.67	11.61	-42.1	-49.1	7.3	2.12e-01	0	57	0	772800512	54	8752
2026-01-14 22:03:17.24	118.83	11.56	-41.1	-48.1	8.1	1.25e-01	0	57	0	774897664	53	8241
2026-01-14 22:03:18.25	119.00	11.51	-41.3	-47.1	8.8	8.64e-02	0	58	0	776994816	52	7742
2026-01-14 22:03:19.26	119.16	11.47	-40.8	-46.6	9.0	1.20e-01	0	57	0	779091968	52	7366
2026-01-14 22:03:20.27	119.32	11.42	-41.2	-46.6	9.7	3.31e-02	0	58	0	781189120	52	7296
2026-01-14 22:03:21.28	119.48	11.37	-40.8	-46.4	9.1	4.98e-02	0	58	0	782237696	52	7189
2026-01-14 22:03:22.29	119.65	11.32	-38.8	-46.0	9.9	8.01e-02	0	57	0	784334848	52	6804
2026-01-14 22:03:23.30	119.81	11.27	-41.3	-46.6	9.9	3.02e-02	0	58	0	786432000	53	6907
2026-01-14 22:03:24.31	119.97	11.22	-41.0	-47.1	9.0	3.91e-02	0	58	0	788529152	52	7796
2026-01-14 22:03:25.32	120.13	11.17	-40.9	-47.5	8.8	3.78e-02	0	58	0	790626304	52	8114
2026-01-14 22:03:26.33	120.29	11.12	-40.3	-47.4	8.0	1.09e-01	0	58	0	791674880	52	8031
2026-01-14 22:03:27.33	120.44	11.07	-41.6	-48.1	8.2	9.46e-02	0	58	0	793772032	53	8197
2026-01-14 22:03:28.34	120.60	11.02	-41.5	-47.9	8.3	1.15e-01	0	57	0	795869184	53	8004
2026-01-14 22:03:29.35	120.76	10.97	-40.4	-47.3	8.2	1.63e-01	0	57	0	797966336	52	7981
2026-01-14 22:03:30.36	120.92	10.92	-38.3	-46.1	9.0	5.36e-02	0	58	0	800063488	51	7310
2026-01-14 22:03:31.37	121.07	10.87	-39.8	-45.9	8.5	1.54e-01	0	58	0	801112064	49	8054
2026-01-14 22:03:32.38	121.23	10.82	-41.1	-46.9	9.1	8.80e-02	0	58	0	803209216	53	7126
2026-01-14 22:03:33.39	121.38	10.77	-40.0	-47.2	8.2	1.32e-01	0	58	0	805306368	53	7379
2026-01-14 22:03:34.40	121.54	10.72	-40.7	-47.1	8.6	7.80e-02	0	58	0	807403520	52	7721
2026-01-14 22:03:35.41	121.69	10.67	-40.5	-46.9	8.3	1.23e-01	0	58	0	809500672	51	8012
2026-01-14 22:03:36.42	121.85	10.62	-39.5	-46.6	9.3	6.75e-02	0	58	0	810549248	51	7720
2026-01-14 22:03:37.43	122.00	10.56	-40.9	-46.7	9.0	6.57e-02	0	57	0	812646400	52	7401
2026-01-14 22:03:38.44	122.15	10.51	-40.4	-46.8	8.9	1.07e-01	0	58	0	814743552	52	7477
2026-01-14 22:03:39.45	122.31	10.46	-40.8	-46.1	9.2	1.03e-01	0	58	0	816840704	52	6910
2026-01-14 22:03:40.46	122.46	10.41	-41.1	-46.5	9.2	7.15e-02	0	58	0	818937856	52	7224
2026-01-14 22:03:41.47	122.61	10.36	-39.7	-46.0	8.9	8.38e-02	0	58	0	819986432	50	7634
2026-01-14 22:03:42.47	122.76	10.31	-40.6	-45.9	9.7	1.64e-01	0	58	0	822083584	51	7184
2026-01-14 22:03:43.48	122.91	10.26	-36.8	-45.2	9.7	6.50e-02	0	58	0	824180736	50	7030
2026-01-14 22:03:44.49	123.06	10.21	-36.4	-45.8	7.5	1.68e-01	0	58	0	826277888	47	8941
2026-01-14 22:03:45.50	123.21	10.16	-40.6	-45.9	9.5	2.50e-01	0	58	0	828375040	51	7173
2026-01-14 22:03:46.51	123.36	10.10	-38.0	-46.2	8.5	3.54e-01	0	58	0	829423616	51	7440
2026-01-14 22:03:47.52	123.50	10.05	-37.7	-44.5	5.9	4.47e-01	0	58	0	831520768	36	14421
2026-01-14 22:03:48.53	123.65	10.00	-39.7	-46.2	8.5	5.95e-01	0	58	0	833617920	51	7396
2026-01-14 22:03:49.54	123.80	9.95	-27.5	-39.5	4.6	2.66e-01	0	58	0	835715072	38	7285
2026-01-14 22:03:50.55	123.95	9.90	-28.7	-43.6	5.1	1.19e+00	0	58	104	835715072	30	18409
2026-01-14 22:03:51.56	124.09	9.85	-39.3	-46.1	6.5	7.38e-01	0	58	0	835715072	44	10921
2026-01-14 22:03:52.57	124.24	9.79	-39.4	-46.8	4.9	1.21e+00	0	58	104	836763648	47	9953
2026-01-14 22:03:53.58	124.38	9.74	-24.5	-40.0	5.0	1.41e+00	0	58	104	836763648	23	18128
2026-01-14 22:03:54.58	124.53	9.69	-30.4	-42.3	4.1	1.44e+00	0	58	104	836763648	29	16779
2026-01-14 22:03:55.59	124.67	9.64	-34.2	-45.7	5.0	1.47e+00	0	58	104	836763648	39	13950
2026-01-14 22:03:56.60	124.82	9.59	-21.6	-36.7	4.5	1.42e+00	0	57	104	836763648	16	18540
2026-01-14 22:03:57.61	124.96	9.54	-32.2	-44.2	4.9	1.44e+00	0	57	104	836763648	32	17643
2026-01-14 22:03:58.62	125.10	9.48	-31.8	-43.7	4.7	1.43e+00	0	58	104	836763648	28	20887
2026-01-14 22:03:59.63	125.24	9.43	-27.0	-40.1	4.6	1.45e+00	0	58	104	836763648	25	16497
2026-01-14 22:04:00.64	125.39	9.38	-27.3	-40.3	4.7	1.46e+00	0	58	104	836763648	24	17772
2026-01-14 22:04:01.65	125.53	9.33	-26.2	-39.8	4.5	1.48e+00	0	58	104	836763648	22	18908
2026-01-14 22:04:02.66	125.67	9.27	-28.1	-42.3	4.9	1.42e+00	0	58	104	836763648	28	17874
2026-01-14 22:04:03.67	125.81	9.22	-28.3	-40.6	4.1	1.46e+00	0	58	104	836763648	20	23219
2026-01-14 22:04:04.68	125.95	9.17	-26.6	-39.8	4.3	1.46e+00	0	58	104	836763648	21	19966
2026-01-14 22:04:05.69	126.09	9.12	-23.1	-37.2	4.0	1.48e+00	0	58	104	836763648	15	20887
2026-01-14 22:04:06.70	126.23	9.06	-24.6	-36.8	3.8	1.45e+00	0	58	104	836763648	13	22453
2026-01-14 22:04:07.71	126.37	9.01	-23.6	-36.8	4.1	1.49e+00	0	57	104	836763648	14	21108
2026-01-14 22:04:08.72	126.50	8.96	-21.0	-35.0	4.0	1.48e+00	0	58	104	836763648	13	18223
2026-01-14 22:04:09.73	126.64	8.91	-14.8	-33.1	3.6	1.49e+00	0	58	104	836763648	9	18483
2026-01-14 22:04:10.74	126.78	8.85	-17.8	-32.7	3.9	1.50e+00	0	58	104	836763648	9	17637
2026-01-14 22:04:11.75	126.91	8.80	-23.9	-35.1	3.9	1.50e+00	0	58	104	836763648	10	21984
2026-01-14 22:04:12.76	127.05	8.75	-24.1	-36.2	3.9	1.50e+00	0	57	104	836763648	13	20883
2026-01-14 22:04:13.77	127.19	8.70	-20.2	-32.2	3.6	1.49e+00	0	58	104	836763648	9	16628
2026-01-14 22:04:14.78	127.32	8.64	-19.7	-32.8	3.6	1.50e+00	0	58	104	836763648	7	19905
2026-01-14 22:04:15.79	127.46	8.59	-17.9	-28.0	3.9	1.50e+00	0	57	104	836763648	3	14474
2026-01-14 22:04:16.80	127.59	8.54	-19.3	-31.7	3.6	1.49e+00	0	58	104	836763648	9	15615
2026-01-14 22:04:17.81	127.72	8.49	-22.0	-33.5	3.4	1.50e+00	0	58	104	836763648	11	17104
2026-01-14 22:04:18.82	127.86	8.43	-18.3	-30.6	3.8	1.50e+00	0	58	104	836763648	4	18424
2026-01-14 22:04:19.83	127.99	8.38	-16.1	-26.5	3.8	1.51e+00	0	58	104	836763648	1	13604
2026-01-14 22:04:20.84	128.12	8.33	-16.6	-31.9	3.3	1.50e+00	0	58	104	836763648	5	20273
2026-01-14 22:04:21.85	128.25	8.28	-14.8	-27.0	3.9	1.50e+00	0	58	104	836763648	2	13697
2026-01-14 22:04:22.86	128.39	8.22	-19.4	-32.8	3.6	1.50e+00	0	58	104	836763648	8	18885
2026-01-14 22:04:23.87	128.52	8.17	-19.7	-34.9	3.5	1.50e+00	0	57	104	836763648	10	21377
2026-01-14 22:04:24.88	128.65	8.12	-17.6	-32.9	3.5	1.49e+00	0	58	104	836763648	7	20234
2026-01-14 22:04:25.89	128.78	8.06	-17.5	-33.0	3.4	1.50e+00	0	57	104	836763648	9	18185
2026-01-14 22:04:26.90	128.91	8.01	-16.4	-32.0	3.6	1.50e+00	0	58	104	836763648	4	21596
2026-01-14 22:04:27.91	129.04	7.96	-25.5	-38.0	3.9	1.50e+00	0	57	104	836763648	12	27361
2026-01-14 22:04:28.92	129.16	7.90	-44.2	-57.7	3.7	1.49e+00	0	58	104	836763648	58	18556
2026-01-14 22:04:29.93	129.29	7.85	-44.7	-59.2	3.8	1.49e+00	0	58	104	836763648	59	20870
2026-01-14 22:04:30.94	129.42	7.80	-44.9	-59.6	3.8	1.49e+00	0	58	104	836763648	60	20682
2026-01-14 22:04:31.95	129.55	7.75	-45.1	-59.8	3.8	1.49e+00	0	57	104	836763648	60	21032
2026-01-14 22:04:32.96	129.67	7.69	-45.2	-59.9	3.8	1.49e+00	0	58	104	836763648	60	21273
2026-01-14 22:04:33.97	129.80	7.64	-45.3	-60.0	3.8	1.49e+00	0	57	104	836763648	61	20364
2026-01-14 22:04:34.98	129.93	7.59	-45.4	-60.1	3.8	1.49e+00	0	57	104	836763648	61	20578
2026-01-14 22:04:35.99	130.05	7.53	-45.5	-60.1	3.8	1.49e+00	0	58	104	836763648	61	20720
2026-01-14 22:04:37.00	130.18	7.48	-45.5	-60.1	3.8	1.49e+00	0	58	104	836763648	61	20680
2026-01-14 22:04:38.01	130.30	7.43	-45.4	-60.0	3.8	1.49e+00	0	58	104	836763648	61	20385
2026-01-14 22:04:39.02	130.43	7.37	-45.3	-59.9	3.8	1.49e+00	0	58	104	836763648	61	20128
2026-01-14 22:04:40.03	130.55	7.32	-45.2	-59.8	3.8	1.49e+00	0	57	104	836763648	61	19902
2026-01-14 22:04:41.04	130.67	7.27	-45.2	-59.7	3.8	1.49e+00	0	58	104	836763648	61	19663
2026-01-14 22:04:42.05	130.80	7.22	-45.2	-59.6	3.8	1.49e+00	0	58	104	836763648	61	19603
2026-01-14 22:04:43.07	130.92	7.16	-45.2	-59.7	3.8	1.49e+00	0	58	104	836763648	61	19665
2026-01-14 22:04:44.08	131.04	7.11	-45.1	-59.6	3.8	1.49e+00	0	58	104	836763648	61	19535
2026-01-14 22:04:45.09	131.16	7.06	-45.1	-59.6	3.8	1.49e+00	0	58	104	836763648	61	19454
2026-01-14 22:04:46.10	131.28	7.00	-45.1	-59.6	3.8	1.49e+00	0	58	104	836763648	61	19545
2026-01-14 22:04:47.11	131.41	6.95	-45.1	-59.6	3.8	1.49e+00	0	58	104	836763648	61	19467
2026-01-14 22:04:48.12	131.53	6.90	-45.1	-59.6	3.8	1.49e+00	0	58	104	836763648	61	19441
2026-01-14 22:04:49.13	131.65	6.84	-45.1	-59.6	3.8	1.49e+00	0	58	104	836763648	61	19459
2026-01-14 22:04:50.14	131.76	6.79	-45.1	-59.6	3.8	1.49e+00	0	58	104	836763648	61	19415
2026-01-14 22:04:51.15	131.88	6.74	-45.1	-59.6	3.8	1.49e+00	0	58	104	836763648	61	19443
2026-01-14 22:04:52.16	132.00	6.69	-45.1	-59.6	3.8	1.49e+00	0	58	104	836763648	61	19463
2026-01-14 22:04:53.17	132.12	6.63	-45.1	-59.6	3.8	1.49e+00	0	58	104	836763648	61	19476
2026-01-14 22:04:54.18	132.24	6.58	-45.1	-59.6	3.8	1.49e+00	0	58	104	836763648	61	19497
2026-01-14 22:04:55.19	132.36	6.53	-45.1	-59.6	3.8	1.49e+00	0	58	104	836763648	61	19474
2026-01-14 22:04:56.20	132.47	6.47	-45.1	-59.6	3.8	1.49e+00	0	58	104	836763648	61	19498
2026-01-14 22:04:57.21	132.59	6.42	-45.1	-59.6	3.8	1.49e+00	0	58	104	836763648	61	19471
2026-01-14 22:04:58.22	132.71	6.37	-45.1	-59.6	3.8	1.49e+00	0	58	104	836763648	61	19434
2026-01-14 22:04:59.23	132.82	6.31	-45.1	-59.6	3.8	1.49e+00	0	58	104	836763648	61	19512
2026-01-14 22:05:00.24	132.94	6.26	-45.1	-59.6	3.8	1.49e+00	0	58	104	836763648	61	19479
2026-01-14 22:05:01.25	133.05	6.21	-45.1	-59.6	3.8	1.49e+00	0	57	104	836763648	61	19492
2026-01-14 22:05:02.26	133.17	6.16	-45.1	-59.6	3.8	1.49e+00	0	58	104	836763648	61	19392
2026-01-14 22:05:03.27	133.28	6.10	-45.1	-59.6	3.8	1.49e+00	0	58	104	836763648	61	19445
2026-01-14 22:05:04.28	133.39	6.05	-45.1	-59.5	3.8	1.49e+00	0	58	104	836763648	61	19371
2026-01-14 22:05:05.29	133.51	6.00	-45.1	-59.6	3.8	1.49e+00	0	58	104	836763648	61	19427
2026-01-14 22:05:06.30	133.62	5.94	-45.1	-59.6	3.8	1.49e+00	0	58	104	836763648	61	19441
2026-01-14 22:05:07.31	133.73	5.89	-45.1	-59.5	3.8	1.49e+00	0	58	104	836763648	61	19351
2026-01-14 22:05:08.32	133.85	5.84	-45.1	-59.5	3.8	1.49e+00	0	58	104	836763648	61	19375
2026-01-14 22:05:09.33	133.96	5.79	-45.1	-59.6	3.8	1.49e+00	0	57	104	836763648	61	19391
2026-01-14 22:05:10.35	134.07	5.73	-45.1	-59.6	3.8	1.49e+00	0	58	104	836763648	61	19392
2026-01-14 22:05:11.35	134.18	5.68	-45.1	-59.6	3.8	1.49e+00	0	58	104	836763648	61	19420
2026-01-14 22:05:12.36	134.29	5.63	-45.1	-59.6	3.8	1.49e+00	0	58	104	836763648	61	19435
2026-01-14 22:05:13.38	134.40	5.57	-45.1	-59.6	3.8	1.49e+00	0	58	104	836763648	61	19488
2026-01-14 22:05:14.39	134.51	5.52	-45.1	-59.6	3.8	1.49e+00	0	58	104	836763648	61	19430
2026-01-14 22:05:15.39	134.62	5.47	-45.1	-59.6	3.8	1.49e+00	0	58	104	836763648	61	19400
2026-01-14 22:05:16.40	134.73	5.42	-45.1	-59.6	3.8	1.49e+00	0	58	104	836763648	61	19420
2026-01-14 22:05:17.41	134.84	5.36	-45.1	-59.6	3.8	1.49e+00	0	58	104	836763648	61	19475
2026-01-14 22:05:18.42	134.95	5.31	-45.1	-59.6	3.8	1.49e+00	0	58	104	836763648	61	19435
2026-01-14 22:05:19.43	135.05	5.26	-45.1	-59.6	3.8	1.49e+00	0	58	104	836763648	61	19442
2026-01-14 22:05:20.44	135.16	5.21	-45.1	-59.6	3.8	1.49e+00	0	58	104	836763648	61	19440
2026-01-14 22:05:21.45	135.27	5.15	-45.1	-59.6	3.8	1.49e+00	0	58	104	836763648	61	19449
2026-01-14 22:05:22.46	135.38	5.10	-45.1	-59.6	3.8	1.49e+00	0	58	104	836763648	61	19449
2026-01-14 22:05:23.47	135.48	5.05	-45.1	-59.5	3.8	1.49e+00	0	58	104	836763648	61	19353
2026-01-14 22:05:24.48	135.59	5.00	-45.1	-59.6	3.8	1.49e+00	0	58	104	836763648	61	19409
2026-01-14 22:05:25.49	135.69	4.94	-45.1	-59.5	3.8	1.49e+00	0	58	104	836763648	61	19348
2026-01-14 22:05:26.50	135.80	4.89	-45.1	-59.6	3.8	1.49e+00	0	58	104	836763648	61	19417
2026-01-14 22:05:27.51	135.90	4.84	-45.1	-59.5	3.8	1.49e+00	0	58	104	836763648	61	19370
2026-01-14 22:05:28.52	136.01	4.79	-45.1	-59.5	3.8	1.49e+00	0	58	104	836763648	61	19385
2026-01-14 22:05:29.53	136.11	4.73	-45.1	-59.5	3.8	1.49e+00	0	58	104	836763648	61	19356
2026-01-14 22:05:30.54	136.22	4.68	-45.1	-59.5	3.8	1.49e+00	0	58	104	836763648	61	19304
2026-01-14 22:05:31.55	136.32	4.63	-45.1	-59.5	3.8	1.49e+00	0	58	104	836763648	61	19374
2026-01-14 22:05:32.56	136.42	4.58	-45.1	-59.6	3.8	1.49e+00	0	58	104	836763648	61	19424
2026-01-14 22:05:33.57	136.53	4.52	-45.1	-59.5	3.8	1.49e+00	0	58	104	836763648	61	19315
2026-01-14 22:05:34.59	136.63	4.47	-45.1	-59.5	3.8	1.49e+00	0	58	104	836763648	61	19353
2026-01-14 22:05:35.60	136.73	4.42	-45.1	-59.5	3.8	1.49e+00	0	58	104	836763648	61	19345
2026-01-14 22:05:36.61	136.83	4.37	-45.0	-59.5	3.8	1.49e+00	0	58	104	836763648	61	19305
2026-01-14 22:05:37.62	136.94	4.32	-45.1	-59.5	3.8	1.49e+00	0	58	104	836763648	61	19363
2026-01-14 22:05:38.63	137.04	4.26	-45.1	-59.5	3.8	1.49e+00	0	58	104	836763648	61	19320
2026-01-14 22:05:39.64	137.14	4.21	-45.1	-59.5	3.8	1.49e+00	0	58	104	836763648	61	19331
2026-01-14 22:05:40.65	137.24	4.16	-45.1	-59.6	3.8	1.49e+00	0	58	104	836763648	61	19409
2026-01-14 22:05:41.66	137.34	4.11	-45.1	-59.6	3.8	1.49e+00	0	58	104	836763648	61	19400
2026-01-14 22:05:42.67	137.44	4.05	-45.1	-59.5	3.8	1.49e+00	0	58	104	836763648	61	19307
2026-01-14 22:05:43.68	137.54	4.00	-45.1	-59.5	3.8	1.49e+00	0	58	104	836763648	61	19365
2026-01-14 22:05:44.69	137.64	3.95	-45.1	-59.5	3.8	1.49e+00	0	58	104	836763648	61	19384
2026-01-14 22:05:45.70	137.73	3.90	-45.1	-59.6	3.8	1.49e+00	0	58	104	836763648	61	19432
2026-01-14 22:05:46.71	137.83	3.85	-45.1	-59.5	3.8	1.49e+00	0	58	104	836763648	61	19306
2026-01-14 22:05:47.72	137.93	3.80	-45.1	-59.6	3.8	1.49e+00	0	58	104	836763648	61	19410
2026-01-14 22:05:48.73	138.03	3.74	-45.0	-59.5	3.8	1.49e+00	0	58	104	836763648	61	19331
2026-01-14 22:05:49.74	138.13	3.69	-45.1	-59.5	3.8	1.49e+00	0	58	104	836763648	61	19345
2026-01-14 22:05:50.75	138.22	3.64	-45.0	-59.5	3.8	1.49e+00	0	58	104	836763648	61	19378
2026-01-14 22:05:51.76	138.32	3.59	-45.0	-59.5	3.8	1.49e+00	0	58	104	836763648	61	19364
2026-01-14 22:05:52.77	138.42	3.54	-45.0	-59.5	3.8	1.49e+00	0	58	104	836763648	61	19331
2026-01-14 22:05:53.78	138.51	3.48	-45.0	-59.5	3.8	1.49e+00	0	58	104	836763648	61	19360
2026-01-14 22:05:54.79	138.61	3.43	-45.1	-59.5	3.8	1.49e+00	0	58	104	836763648	61	19331
2026-01-14 22:05:55.80	138.70	3.38	-45.1	-59.5	3.8	1.49e+00	0	58	104	836763648	61	19273
2026-01-14 22:05:56.81	138.80	3.33	-45.1	-59.5	3.8	1.49e+00	0	58	104	836763648	61	19324
2026-01-14 22:05:57.82	138.89	3.28	-45.1	-59.5	3.8	1.49e+00	0	58	104	836763648	61	19352
2026-01-14 22:05:58.83	138.99	3.23	-45.1	-59.6	3.8	1.49e+00	0	58	104	836763648	61	19393
2026-01-14 22:05:59.84	139.08	3.18	-45.0	-59.5	3.8	1.49e+00	0	58	104	836763648	61	19366
2026-01-14 22:06:00.85	139.18	3.12	-45.1	-59.5	3.8	1.49e+00	0	58	104	836763648	61	19337
2026-01-14 22:06:01.86	139.27	3.07	-45.1	-59.5	3.8	1.49e+00	0	58	104	836763648	61	19317
2026-01-14 22:06:02.87	139.36	3.02	-45.1	-59.5	3.8	1.49e+00	0	58	104	836763648	61	19326
2026-01-14 22:06:03.88	139.46	2.97	-45.1	-59.6	3.8	1.49e+00	0	58	104	836763648	61	19391
2026-01-14 22:06:04.89	139.55	2.92	-45.0	-59.5	3.8	1.49e+00	0	58	104	836763648	61	19326
2026-01-14 22:06:05.90	139.64	2.87	-45.1	-59.5	3.8	1.49e+00	0	58	104	836763648	61	19375
2026-01-14 22:06:06.91	139.73	2.82	-45.1	-59.5	3.8	1.49e+00	0	58	104	836763648	61	19298
2026-01-14 22:06:07.92	139.82	2.76	-45.1	-59.5	3.8	1.49e+00	0	58	104	836763648	61	19318
2026-01-14 22:06:08.93	139.91	2.71	-45.0	-59.5	3.8	1.49e+00	0	58	104	836763648	61	19318
2026-01-14 22:06:09.94	140.01	2.66	-45.0	-59.5	3.8	1.49e+00	0	58	104	836763648	61	19329
2026-01-14 22:06:10.95	140.10	2.61	-45.1	-59.5	3.8	1.49e+00	0	58	104	836763648	61	19340
2026-01-14 22:06:11.96	140.19	2.56	-45.1	-59.5	3.8	1.49e+00	0	58	104	836763648	61	19298
2026-01-14 22:06:12.97	140.28	2.51	-45.0	-59.6	3.8	1.49e+00	0	58	104	836763648	61	19420
2026-01-14 22:06:13.98	140.37	2.46	-45.1	-59.5	3.8	1.49e+00	0	58	104	836763648	61	19351
2026-01-14 22:06:14.99	140.46	2.41	-45.1	-59.5	3.8	1.49e+00	0	58	104	836763648	61	19365
2026-01-14 22:06:16.00	140.55	2.36	-45.1	-59.5	3.8	1.49e+00	0	58	104	836763648	61	19336
2026-01-14 22:06:17.01	140.63	2.31	-45.0	-59.5	3.8	1.49e+00	0	58	104	836763648	61	19377
