passes_logs/2026/01/14/R2.0S_Moscow/R2.0S_Moscow__20260114_082525_NOAA_20_JPSS-1_rec.log

#Pass ID: 20260114_082525_NOAA 20 (JPSS-1)
#Satellite: NOAA 20 (JPSS-1)
#Configuration: NOAA 20
#almurnet v.1.7.20251203
#Start time: 2026-01-14 08:25:25

#Version: 2.2.20231116
#Station: R2.0S_Moscow
#Location: 37.707566 lon 55.798166 lat
#TLE: 1 43013U 17073A   26013.21545503  .00000073  00000+0  55630-4 0  9998
#TLE: 2 43013  98.7633 314.1737 0001580  41.9966 318.1331 14.19535680422486

#Time	Az	El	Level	Level2	SNR	BER	BlckErr	Temp	State	Recorded	gain1	gain2
2026-01-14 08:25:25.24	116.74	2.01	-37.2	-54.5	4.1	1.50e+00	0	52	0	0	44	28746
2026-01-14 08:25:26.24	116.68	2.07	-35.5	-52.7	4.1	1.50e+00	0	52	104	0	43	24783
2026-01-14 08:25:27.25	116.61	2.13	-35.8	-54.2	4.0	1.50e+00	0	52	104	0	46	24740
2026-01-14 08:25:28.26	116.55	2.19	-36.9	-54.4	4.2	1.50e+00	0	52	104	0	45	26849
2026-01-14 08:25:29.27	116.49	2.24	-34.9	-52.5	4.1	1.50e+00	0	52	104	0	43	24209
2026-01-14 08:25:30.28	116.43	2.30	-37.1	-54.0	4.2	1.50e+00	0	52	104	0	42	30587
2026-01-14 08:25:31.29	116.37	2.36	-31.7	-48.7	4.1	1.50e+00	0	52	104	0	41	17567
2026-01-14 08:25:32.30	116.30	2.42	-33.8	-49.4	4.1	1.50e+00	0	53	104	0	40	20301
2026-01-14 08:25:33.31	116.24	2.48	-35.6	-51.5	4.0	1.50e+00	0	52	104	0	38	28789
2026-01-14 08:25:34.32	116.18	2.54	-37.1	-54.1	4.3	1.50e+00	0	53	104	0	44	27614
2026-01-14 08:25:35.33	116.11	2.60	-31.9	-53.5	3.6	1.50e+00	0	53	104	0	41	30444
2026-01-14 08:25:36.34	116.05	2.66	-35.0	-52.3	4.1	1.50e+00	0	53	104	0	41	26756
2026-01-14 08:25:37.35	115.99	2.72	-37.3	-54.5	4.3	1.50e+00	0	53	104	0	46	25649
2026-01-14 08:25:38.36	115.92	2.78	-35.9	-51.5	3.8	1.50e+00	0	53	104	0	43	21729
2026-01-14 08:25:39.37	115.86	2.84	-32.7	-50.5	4.1	1.50e+00	0	53	104	0	41	21703
2026-01-14 08:25:40.38	115.79	2.90	-37.5	-53.1	4.1	1.50e+00	0	53	104	0	41	29269
2026-01-14 08:25:41.39	115.73	2.95	-35.7	-53.4	4.1	1.50e+00	0	53	104	0	45	24098
2026-01-14 08:25:42.40	115.66	3.01	-35.8	-53.5	4.1	1.50e+00	0	53	104	0	43	27298
2026-01-14 08:25:43.41	115.60	3.07	-36.7	-53.2	3.8	1.50e+00	0	53	104	0	43	26268
2026-01-14 08:25:44.42	115.53	3.13	-36.7	-53.5	4.2	1.50e+00	0	53	104	0	45	24283
2026-01-14 08:25:45.43	115.46	3.19	-36.9	-53.9	4.0	1.50e+00	0	53	104	0	44	26793
2026-01-14 08:25:46.44	115.40	3.26	-37.8	-55.3	4.0	1.50e+00	0	53	104	0	46	28075
2026-01-14 08:25:47.45	115.33	3.32	-37.1	-53.3	4.0	1.50e+00	0	54	104	0	45	23774
2026-01-14 08:25:48.46	115.26	3.38	-35.3	-53.0	4.1	1.50e+00	0	54	104	0	45	22935
2026-01-14 08:25:49.47	115.20	3.44	-39.3	-56.0	4.0	1.50e+00	0	54	104	0	48	27148
2026-01-14 08:25:50.48	115.13	3.50	-38.5	-54.6	4.2	1.50e+00	0	54	104	0	47	24536
2026-01-14 08:25:51.49	115.06	3.56	-31.7	-49.6	3.6	1.50e+00	0	54	104	0	39	21927
2026-01-14 08:25:52.50	114.99	3.62	-36.5	-52.9	3.7	1.50e+00	0	54	104	0	40	30357
2026-01-14 08:25:53.51	114.92	3.68	-37.1	-52.9	3.7	1.50e+00	0	54	104	0	41	28564
2026-01-14 08:25:54.52	114.85	3.74	-38.6	-54.9	4.1	1.50e+00	0	54	104	0	47	25363
2026-01-14 08:25:55.53	114.79	3.80	-37.2	-53.1	4.2	1.50e+00	0	54	104	0	46	21868
2026-01-14 08:25:56.54	114.72	3.86	-37.8	-54.1	3.9	1.50e+00	0	54	104	0	46	24599
2026-01-14 08:25:57.55	114.65	3.92	-37.3	-53.2	4.2	1.50e+00	0	54	104	0	43	26439
2026-01-14 08:25:58.56	114.58	3.99	-33.1	-51.0	3.8	1.50e+00	0	54	104	0	40	24382
2026-01-14 08:25:59.57	114.51	4.05	-38.1	-54.1	4.1	1.50e+00	0	54	104	0	43	29265
2026-01-14 08:26:00.58	114.44	4.11	-36.8	-53.9	4.0	1.50e+00	0	54	104	0	45	25383
2026-01-14 08:26:01.59	114.36	4.17	-39.1	-55.5	4.1	1.50e+00	0	55	104	0	45	30433
2026-01-14 08:26:02.61	114.29	4.23	-38.8	-54.5	4.2	1.50e+00	0	54	104	0	45	27088
2026-01-14 08:26:03.62	114.22	4.29	-38.8	-55.9	3.8	1.50e+00	0	54	104	0	48	27010
2026-01-14 08:26:04.63	114.15	4.36	-37.0	-54.0	4.2	1.50e+00	0	54	104	0	42	30649
2026-01-14 08:26:05.64	114.08	4.42	-37.9	-53.4	4.1	1.50e+00	0	54	104	0	38	35814
2026-01-14 08:26:06.65	114.00	4.48	-33.8	-51.2	4.2	1.50e+00	0	55	104	0	38	27825
2026-01-14 08:26:07.66	113.93	4.54	-31.6	-53.3	4.3	1.50e+00	0	55	104	0	45	23600
2026-01-14 08:26:08.67	113.86	4.61	-37.4	-49.1	4.1	1.50e+00	0	55	104	0	33	29325
2026-01-14 08:26:09.68	113.79	4.67	-39.5	-55.1	4.0	1.50e+00	0	55	104	0	48	24499
2026-01-14 08:26:10.69	113.71	4.73	-35.5	-52.6	4.2	1.50e+00	0	55	104	0	45	21823
2026-01-14 08:26:11.70	113.64	4.79	-34.7	-52.1	3.9	1.50e+00	0	55	104	0	41	25871
2026-01-14 08:26:12.71	113.56	4.86	-38.1	-54.9	4.0	1.50e+00	0	55	104	0	46	26928
2026-01-14 08:26:13.72	113.49	4.92	-37.7	-54.6	4.1	1.50e+00	0	55	104	0	44	29150
2026-01-14 08:26:14.73	113.41	4.98	-34.9	-51.9	4.1	1.50e+00	0	55	104	0	41	25384
2026-01-14 08:26:15.74	113.34	5.05	-36.6	-52.8	4.2	1.50e+00	0	55	104	0	43	25098
2026-01-14 08:26:16.75	113.26	5.11	-36.8	-53.9	4.0	1.50e+00	0	55	104	0	43	28487
2026-01-14 08:26:17.77	113.18	5.17	-33.5	-50.6	4.1	1.50e+00	0	55	104	0	40	23188
2026-01-14 08:26:18.78	113.11	5.24	-39.0	-54.2	3.9	1.50e+00	0	55	104	0	44	27745
2026-01-14 08:26:19.78	113.03	5.30	-35.8	-52.8	4.2	1.50e+00	0	55	104	0	42	26683
2026-01-14 08:26:20.80	112.95	5.36	-36.9	-53.5	4.0	1.50e+00	0	55	104	0	43	27118
2026-01-14 08:26:21.81	112.88	5.43	-39.4	-55.2	4.0	1.50e+00	0	55	104	0	48	24888
2026-01-14 08:26:22.81	112.80	5.49	-36.9	-53.5	4.1	1.50e+00	0	55	104	0	44	25791
2026-01-14 08:26:23.82	112.72	5.55	-36.4	-53.4	4.1	1.50e+00	0	55	104	0	44	25428
2026-01-14 08:26:24.83	112.64	5.62	-35.2	-51.0	4.2	1.50e+00	0	56	104	0	41	22845
2026-01-14 08:26:25.84	112.56	5.68	-39.2	-54.8	4.3	1.50e+00	0	55	104	0	46	26527
2026-01-14 08:26:26.85	112.48	5.75	-32.0	-51.9	4.1	1.50e+00	0	55	104	0	46	19160
2026-01-14 08:26:27.86	112.40	5.81	-37.4	-54.3	4.2	1.50e+00	0	56	104	0	46	24979
2026-01-14 08:26:28.87	112.32	5.88	-39.5	-55.2	3.8	1.50e+00	0	56	104	0	46	27847
2026-01-14 08:26:29.88	112.24	5.94	-39.5	-54.3	4.1	1.50e+00	0	56	104	0	47	23827
2026-01-14 08:26:30.89	112.16	6.01	-36.1	-52.7	4.0	1.50e+00	0	56	104	0	40	29382
2026-01-14 08:26:31.90	112.08	6.07	-39.2	-55.2	4.0	1.50e+00	0	56	104	0	43	32951
2026-01-14 08:26:32.91	112.00	6.13	-38.7	-53.7	3.8	1.50e+00	0	56	104	0	46	23331
2026-01-14 08:26:33.92	111.92	6.20	-37.7	-52.3	3.8	1.50e+00	0	56	104	0	38	31724
2026-01-14 08:26:34.93	111.84	6.27	-38.5	-53.6	4.0	1.50e+00	0	56	104	0	37	38935
2026-01-14 08:26:35.94	111.75	6.33	-38.0	-54.3	4.2	1.50e+00	0	56	104	0	42	31637
2026-01-14 08:26:36.95	111.67	6.40	-37.3	-53.8	3.8	1.50e+00	0	56	104	0	45	25229
2026-01-14 08:26:37.96	111.59	6.46	-39.2	-53.6	3.9	1.50e+00	0	56	104	0	43	27651
2026-01-14 08:26:38.97	111.50	6.53	-39.2	-53.0	4.2	1.50e+00	0	56	104	0	44	24354
2026-01-14 08:26:39.97	111.42	6.59	-37.4	-53.4	4.1	1.50e+00	0	56	104	0	45	23862
2026-01-14 08:26:40.98	111.34	6.66	-37.3	-53.6	4.0	1.49e+00	0	56	104	0	47	21776
2026-01-14 08:26:41.99	111.25	6.72	-36.0	-53.9	4.0	1.49e+00	0	56	104	0	49	20140
2026-01-14 08:26:43.00	111.17	6.79	-37.0	-51.9	4.2	1.49e+00	0	56	104	0	43	22728
2026-01-14 08:26:44.01	111.08	6.86	-39.1	-52.6	4.0	1.49e+00	0	56	104	0	45	21992
2026-01-14 08:26:45.02	110.99	6.92	-34.4	-47.3	4.0	1.50e+00	0	57	104	0	29	29689
2026-01-14 08:26:46.03	110.91	6.99	-37.9	-53.9	4.1	1.50e+00	0	56	104	0	48	21436
2026-01-14 08:26:47.04	110.82	7.05	-33.3	-51.8	3.9	1.49e+00	0	56	104	0	45	20066
2026-01-14 08:26:48.05	110.73	7.12	-37.7	-52.9	4.3	1.50e+00	0	57	104	0	45	22673
2026-01-14 08:26:49.06	110.65	7.19	-39.2	-53.0	3.9	1.50e+00	0	57	104	0	39	32226
2026-01-14 08:26:50.07	110.56	7.25	-36.2	-53.5	4.4	1.50e+00	0	57	104	0	45	24142
2026-01-14 08:26:51.08	110.47	7.32	-35.5	-52.9	4.2	1.50e+00	0	57	104	0	43	25515
2026-01-14 08:26:52.09	110.38	7.39	-33.1	-50.6	3.6	1.50e+00	0	57	104	0	39	24473
2026-01-14 08:26:53.10	110.29	7.46	-34.0	-51.5	4.1	1.50e+00	0	57	104	0	41	24242
2026-01-14 08:26:54.11	110.20	7.52	-36.5	-53.4	3.9	1.50e+00	0	57	104	0	44	25352
2026-01-14 08:26:55.12	110.11	7.59	-37.7	-52.7	4.2	1.49e+00	0	57	104	0	45	22173
2026-01-14 08:26:56.13	110.02	7.66	-37.0	-51.5	4.2	1.49e+00	0	57	104	0	45	19249
2026-01-14 08:26:57.14	109.93	7.73	-37.9	-52.0	4.1	1.47e+00	0	57	104	0	47	18215
2026-01-14 08:26:58.15	109.84	7.79	-37.0	-50.0	4.3	1.45e+00	0	57	104	0	46	15288
2026-01-14 08:26:59.16	109.74	7.86	-36.6	-49.1	4.3	1.41e+00	0	57	104	0	45	14621
2026-01-14 08:27:00.17	109.65	7.93	-36.3	-48.7	5.2	8.51e-01	33	57	0	0	43	15592
2026-01-14 08:27:01.18	109.56	8.00	-35.3	-48.4	5.2	9.90e-01	67	57	0	2097152	41	16959
2026-01-14 08:27:02.19	109.47	8.06	-39.0	-49.5	4.5	8.53e-01	0	57	104	3145728	47	13691
2026-01-14 08:27:03.20	109.37	8.13	-38.9	-54.1	4.2	1.28e+00	0	57	104	3145728	46	24463
2026-01-14 08:27:04.21	109.28	8.20	-38.6	-53.7	3.7	1.49e+00	0	57	104	3145728	44	26443
2026-01-14 08:27:05.22	109.18	8.27	-39.0	-51.4	4.0	1.19e+00	0	57	104	3145728	48	15955
2026-01-14 08:27:06.23	109.09	8.34	-36.0	-49.5	4.9	9.49e-01	55	57	0	3145728	44	16270
2026-01-14 08:27:07.23	108.99	8.41	-37.4	-53.3	3.9	1.50e+00	0	57	104	4194304	45	23805
2026-01-14 08:27:08.24	108.90	8.48	-36.2	-49.5	4.9	1.37e+00	30	57	0	4194304	44	16297
2026-01-14 08:27:09.25	108.80	8.54	-37.1	-49.4	4.9	1.01e+00	47	57	0	5242880	45	15225
2026-01-14 08:27:10.26	108.70	8.61	-39.1	-50.0	5.2	8.47e-01	60	57	0	6291456	46	15257
2026-01-14 08:27:11.27	108.61	8.68	-38.0	-49.1	5.2	1.44e+00	56	57	104	6291456	44	15570
2026-01-14 08:27:12.28	108.51	8.75	-36.6	-49.3	5.3	7.69e-01	66	57	0	7340032	46	14138
2026-01-14 08:27:13.29	108.41	8.82	-37.8	-49.8	5.1	8.43e-01	55	57	0	8388608	45	15808
2026-01-14 08:27:14.30	108.31	8.89	-39.3	-50.4	5.4	9.04e-01	68	58	0	10485760	49	13552
2026-01-14 08:27:15.31	108.21	8.96	-38.4	-50.0	4.8	9.47e-01	40	57	0	11534336	45	16241
2026-01-14 08:27:16.32	108.11	9.03	-38.1	-50.1	5.0	1.06e+00	50	57	0	12582912	45	16385
2026-01-14 08:27:17.33	108.01	9.10	-40.2	-50.0	5.1	7.18e-01	49	57	0	14680064	49	12833
2026-01-14 08:27:18.34	107.91	9.17	-35.2	-49.1	5.7	8.61e-01	32	57	0	15728640	47	13077
2026-01-14 08:27:19.35	107.81	9.24	-35.0	-48.0	4.8	8.90e-01	6	57	0	16777216	40	17198
2026-01-14 08:27:20.36	107.71	9.31	-35.6	-48.9	5.2	1.11e+00	65	58	0	17825792	44	15195
2026-01-14 08:27:21.37	107.61	9.38	-39.1	-49.7	4.9	9.96e-01	56	58	0	18874368	44	16649
2026-01-14 08:27:22.38	107.50	9.45	-35.3	-48.4	5.0	1.04e+00	57	58	0	19922944	43	15207
2026-01-14 08:27:23.39	107.40	9.52	-37.8	-49.3	5.1	9.42e-01	58	58	0	20971520	44	15774
2026-01-14 08:27:24.40	107.30	9.59	-37.2	-49.1	5.1	9.23e-01	55	58	0	23068672	44	15567
2026-01-14 08:27:25.41	107.19	9.66	-36.7	-48.7	5.0	8.93e-01	32	58	0	24117248	44	14737
2026-01-14 08:27:26.42	107.09	9.73	-40.2	-50.4	5.4	8.96e-01	55	58	0	25165824	49	13452
2026-01-14 08:27:27.43	106.98	9.80	-40.2	-49.6	5.4	8.21e-01	32	58	0	27262976	50	11608
2026-01-14 08:27:28.44	106.87	9.87	-37.6	-50.2	5.0	9.00e-01	43	58	0	28311552	49	13159
2026-01-14 08:27:29.45	106.77	9.94	-36.2	-49.6	5.1	1.05e+00	41	58	0	29360128	47	13775
2026-01-14 08:27:30.46	106.66	10.02	-41.7	-50.9	4.8	8.79e-01	17	58	0	31457280	48	15223
2026-01-14 08:27:31.47	106.55	10.09	-36.4	-50.2	4.6	7.96e-01	23	58	0	32505856	44	17549
2026-01-14 08:27:32.48	106.45	10.16	-39.3	-50.2	4.8	1.28e+00	16	58	0	32505856	45	16626
2026-01-14 08:27:33.49	106.34	10.23	-35.4	-49.9	5.3	8.52e-01	18	58	0	33554432	52	10698
2026-01-14 08:27:34.50	106.23	10.30	-39.5	-50.9	4.7	9.56e-01	50	58	0	33554432	49	14347
2026-01-14 08:27:35.51	106.12	10.37	-38.9	-51.6	4.9	1.24e+00	47	58	0	34603008	51	13782
2026-01-14 08:27:36.52	106.01	10.45	-39.5	-51.6	4.9	1.37e+00	41	58	104	35651584	53	12236
2026-01-14 08:27:37.53	105.90	10.52	-38.7	-51.2	4.3	1.48e+00	0	58	104	35651584	49	14752
2026-01-14 08:27:38.54	105.79	10.59	-35.4	-49.3	4.2	1.23e+00	0	58	104	35651584	41	18744
2026-01-14 08:27:39.55	105.67	10.66	-42.5	-50.5	4.7	1.46e+00	1	58	104	35651584	47	15302
2026-01-14 08:27:40.56	105.56	10.73	-31.1	-47.0	4.7	1.18e+00	1	58	0	35651584	38	17161
2026-01-14 08:27:41.57	105.45	10.81	-36.7	-48.1	4.8	8.99e-01	9	58	0	35651584	43	14627
2026-01-14 08:27:42.58	105.33	10.88	-28.4	-45.5	4.1	8.52e-01	0	58	104	36700160	36	16252
2026-01-14 08:27:43.59	105.22	10.95	-31.9	-46.5	4.3	1.17e+00	0	58	0	36700160	31	24196
2026-01-14 08:27:44.60	105.11	11.02	-36.2	-48.9	5.1	1.48e+00	75	58	104	36700160	42	17010
2026-01-14 08:27:45.61	104.99	11.10	-36.4	-48.4	4.8	1.26e+00	19	58	0	36700160	40	17965
2026-01-14 08:27:46.62	104.87	11.17	-40.3	-49.1	5.5	1.01e+00	31	58	0	37748736	44	15538
2026-01-14 08:27:47.63	104.76	11.24	-38.2	-48.9	4.6	1.14e+00	0	59	104	37748736	45	14226
2026-01-14 08:27:48.64	104.64	11.32	-34.4	-48.6	4.6	9.43e-01	0	58	104	37748736	44	14646
2026-01-14 08:27:49.65	104.52	11.39	-35.4	-48.5	4.3	1.18e+00	8	59	0	37748736	33	27077
2026-01-14 08:27:50.66	104.40	11.46	-41.1	-49.8	4.5	1.44e+00	0	59	104	37748736	51	11235
2026-01-14 08:27:51.67	104.29	11.54	-38.1	-48.7	4.2	1.13e+00	0	58	104	37748736	42	16560
2026-01-14 08:27:52.68	104.17	11.61	-30.3	-47.9	4.4	1.35e+00	0	59	104	37748736	51	9002
2026-01-14 08:27:53.69	104.05	11.68	-27.5	-44.2	4.2	1.48e+00	0	59	104	37748736	34	15603
2026-01-14 08:27:54.70	103.93	11.76	-29.2	-43.8	3.9	1.46e+00	0	59	0	37748736	25	25173
2026-01-14 08:27:55.71	103.80	11.83	-26.3	-43.4	4.2	1.45e+00	0	58	104	37748736	35	13518
2026-01-14 08:27:56.72	103.68	11.90	-23.9	-42.6	4.0	1.49e+00	0	59	104	37748736	20	29295
2026-01-14 08:27:57.73	103.56	11.98	-38.3	-48.7	4.4	1.46e+00	0	59	104	37748736	45	14010
2026-01-14 08:27:58.74	103.44	12.05	-31.2	-46.4	4.3	1.43e+00	0	58	104	37748736	34	20155
2026-01-14 08:27:59.75	103.31	12.13	-25.6	-43.3	4.1	1.48e+00	0	59	104	37748736	24	25056
2026-01-14 08:28:00.76	103.19	12.20	-25.8	-43.8	4.2	1.34e+00	0	59	104	37748736	21	31698
2026-01-14 08:28:01.77	103.06	12.28	-30.1	-46.4	4.5	1.42e+00	0	59	104	37748736	36	18081
2026-01-14 08:28:02.78	102.94	12.35	-33.6	-45.4	4.4	1.47e+00	0	59	104	37748736	33	19021
2026-01-14 08:28:03.78	102.81	12.42	-33.1	-47.3	4.2	1.42e+00	0	59	104	37748736	42	14135
2026-01-14 08:28:04.79	102.68	12.50	-38.9	-49.5	4.2	1.48e+00	0	59	104	37748736	47	13573
2026-01-14 08:28:05.80	102.56	12.57	-22.7	-43.9	3.9	1.46e+00	0	59	104	37748736	30	18962
2026-01-14 08:28:06.81	102.43	12.65	-38.8	-50.2	4.4	1.25e+00	0	59	104	37748736	48	13896
2026-01-14 08:28:07.82	102.30	12.72	-32.9	-48.4	4.2	1.39e+00	0	59	104	37748736	31	30085
2026-01-14 08:28:08.83	102.17	12.80	-25.3	-44.2	4.0	1.46e+00	0	59	104	37748736	37	13168
2026-01-14 08:28:09.84	102.04	12.87	-25.6	-43.4	4.1	1.44e+00	0	59	104	37748736	33	15154
2026-01-14 08:28:10.85	101.91	12.95	-32.2	-46.9	4.1	1.49e+00	0	59	104	37748736	29	28576
2026-01-14 08:28:11.86	101.78	13.02	-23.4	-41.6	4.2	1.50e+00	0	59	104	37748736	19	27512
2026-01-14 08:28:12.87	101.64	13.10	-35.4	-45.4	4.2	1.49e+00	0	59	104	37748736	28	25288
2026-01-14 08:28:13.88	101.51	13.17	-34.2	-44.6	4.2	1.48e+00	0	59	104	37748736	29	21798
2026-01-14 08:28:14.89	101.38	13.25	-27.5	-47.1	4.0	1.45e+00	0	59	104	37748736	41	14630
2026-01-14 08:28:15.89	101.24	13.32	-29.3	-47.6	3.4	1.48e+00	0	59	104	37748736	30	29321
2026-01-14 08:28:16.90	101.11	13.40	-37.8	-48.8	4.4	1.48e+00	0	59	104	37748736	31	31675
2026-01-14 08:28:17.91	100.97	13.48	-26.7	-46.2	4.0	1.50e+00	0	59	104	37748736	22	39353
2026-01-14 08:28:18.92	100.84	13.55	-27.8	-45.3	4.3	1.49e+00	0	59	104	37748736	32	19845
2026-01-14 08:28:19.93	100.70	13.63	-34.8	-49.7	4.7	1.48e+00	11	59	104	37748736	48	13147
2026-01-14 08:28:20.95	100.56	13.70	-27.5	-45.7	4.8	1.23e+00	3	59	0	37748736	29	24758
2026-01-14 08:28:21.95	100.42	13.78	-27.8	-47.3	4.2	1.47e+00	0	59	104	37748736	29	29988
2026-01-14 08:28:22.96	100.28	13.85	-34.0	-47.8	4.8	1.46e+00	26	59	104	37748736	39	17825
2026-01-14 08:28:23.97	100.14	13.93	-35.8	-47.1	6.0	1.03e+00	8	59	0	37748736	47	10384
2026-01-14 08:28:24.98	100.00	14.01	-34.9	-46.0	6.1	5.51e-01	3	59	0	39845888	40	13725
2026-01-14 08:28:25.99	99.86	14.08	-32.2	-46.6	5.5	5.60e-01	31	59	0	40894464	42	13012
2026-01-14 08:28:27.00	99.72	14.16	-38.4	-48.5	7.0	5.99e-01	3	59	0	42991616	50	10229
2026-01-14 08:28:28.01	99.57	14.24	-36.3	-47.1	6.4	3.79e-01	12	59	0	45088768	45	11559
2026-01-14 08:28:29.02	99.43	14.31	-40.3	-48.7	7.5	3.52e-01	0	59	0	47185920	54	8272
2026-01-14 08:28:30.03	99.28	14.39	-39.1	-48.3	6.8	2.28e-01	5	59	0	48234496	49	10538
2026-01-14 08:28:31.03	99.14	14.46	-38.6	-48.3	7.7	1.97e-01	2	59	0	50331648	53	8402
2026-01-14 08:28:32.04	98.99	14.54	-41.6	-48.2	8.2	1.57e-01	0	59	0	52428800	54	7823
2026-01-14 08:28:33.05	98.85	14.62	-42.2	-48.2	7.6	1.06e-01	0	59	0	54525952	53	8341
2026-01-14 08:28:34.06	98.70	14.69	-41.2	-48.3	8.0	1.34e-01	0	59	0	56623104	54	7939
2026-01-14 08:28:35.07	98.55	14.77	-42.2	-47.7	8.5	6.89e-02	0	59	0	57671680	52	8359
2026-01-14 08:28:36.08	98.40	14.85	-42.1	-47.7	8.8	6.98e-02	0	59	0	59768832	54	7427
2026-01-14 08:28:37.09	98.25	14.93	-42.0	-47.9	9.0	5.92e-02	0	59	0	61865984	54	7623
2026-01-14 08:28:38.10	98.10	15.00	-42.6	-48.3	8.8	4.10e-02	0	59	0	63963136	55	7458
2026-01-14 08:28:39.11	97.95	15.08	-42.5	-48.2	9.0	4.68e-02	0	59	0	66060288	55	7394
2026-01-14 08:28:40.12	97.80	15.16	-42.4	-47.7	9.5	2.76e-02	0	59	0	67108864	55	6994
2026-01-14 08:28:41.13	97.64	15.23	-42.4	-47.7	9.5	1.46e-02	0	59	0	69206016	55	7028
2026-01-14 08:28:42.14	97.49	15.31	-42.3	-48.0	9.2	1.93e-02	0	59	0	71303168	55	7275
2026-01-14 08:28:43.15	97.34	15.39	-42.6	-48.1	9.0	2.65e-02	0	59	0	73400320	55	7371
2026-01-14 08:28:44.16	97.18	15.46	-42.4	-47.6	9.7	1.75e-02	0	59	0	75497472	55	6913
2026-01-14 08:28:45.17	97.02	15.54	-42.4	-47.6	9.7	1.17e-02	0	59	0	76546048	55	6944
2026-01-14 08:28:46.18	96.87	15.62	-42.6	-48.2	9.1	1.61e-02	0	59	0	78643200	55	7379
2026-01-14 08:28:47.19	96.71	15.70	-42.5	-47.8	9.5	1.99e-02	0	59	0	80740352	55	7062
2026-01-14 08:28:48.20	96.55	15.77	-42.5	-47.9	9.4	1.39e-02	0	59	0	82837504	55	7143
2026-01-14 08:28:49.21	96.39	15.85	-42.5	-47.9	9.4	1.61e-02	0	59	0	84934656	55	7156
2026-01-14 08:28:50.22	96.23	15.93	-42.4	-47.6	9.8	1.46e-02	0	59	0	85983232	55	6905
2026-01-14 08:28:51.23	96.07	16.00	-42.5	-47.7	9.6	1.12e-02	0	59	0	88080384	55	6989
2026-01-14 08:28:52.24	95.90	16.08	-42.5	-47.9	9.4	1.38e-02	0	59	0	90177536	55	7164
2026-01-14 08:28:53.25	95.74	16.16	-42.6	-48.0	9.3	1.50e-02	0	60	0	92274688	55	7249
2026-01-14 08:28:54.26	95.58	16.24	-42.6	-48.0	9.3	1.75e-02	0	60	0	94371840	55	7261
2026-01-14 08:28:55.27	95.41	16.31	-42.6	-48.0	9.3	1.85e-02	0	60	0	95420416	55	7257
2026-01-14 08:28:56.28	95.25	16.39	-42.6	-47.9	9.4	1.69e-02	0	60	0	97517568	55	7200
2026-01-14 08:28:57.29	95.08	16.47	-42.6	-48.0	9.3	1.71e-02	0	59	0	99614720	55	7273
2026-01-14 08:28:58.30	94.91	16.55	-42.6	-48.1	9.3	1.91e-02	0	59	0	101711872	55	7303
2026-01-14 08:28:59.31	94.74	16.62	-42.6	-48.0	9.3	1.88e-02	0	59	0	103809024	55	7274
2026-01-14 08:29:00.32	94.58	16.70	-42.6	-47.9	9.4	1.59e-02	0	59	0	105906176	55	7176
2026-01-14 08:29:01.33	94.41	16.78	-42.6	-47.9	9.5	1.39e-02	0	59	0	106954752	55	7157
2026-01-14 08:29:02.34	94.23	16.86	-42.6	-48.0	9.4	1.68e-02	0	60	0	109051904	55	7233
2026-01-14 08:29:03.35	94.06	16.93	-42.6	-48.1	9.2	1.77e-02	0	59	0	111149056	55	7350
2026-01-14 08:29:04.36	93.89	17.01	-42.7	-48.2	9.1	2.16e-02	0	60	0	113246208	55	7413
2026-01-14 08:29:05.37	93.72	17.09	-42.7	-48.2	9.2	2.13e-02	0	59	0	115343360	55	7382
2026-01-14 08:29:06.38	93.54	17.16	-42.6	-48.1	9.3	2.03e-02	0	60	0	116391936	55	7293
2026-01-14 08:29:07.39	93.37	17.24	-42.6	-48.2	9.1	2.04e-02	0	60	0	118489088	55	7385
2026-01-14 08:29:08.40	93.19	17.32	-42.7	-48.3	9.0	2.45e-02	0	60	0	120586240	55	7503
2026-01-14 08:29:09.41	93.01	17.40	-42.7	-48.4	8.9	2.52e-02	0	60	0	122683392	55	7547
2026-01-14 08:29:10.42	92.84	17.47	-42.7	-48.3	8.9	2.86e-02	0	59	0	124780544	55	7517
2026-01-14 08:29:11.42	92.66	17.55	-42.7	-48.3	8.9	2.85e-02	0	60	0	125829120	55	7515
2026-01-14 08:29:12.43	92.48	17.63	-42.6	-48.2	9.0	2.52e-02	0	60	0	127926272	55	7402
2026-01-14 08:29:13.44	92.30	17.70	-42.6	-48.3	8.8	2.97e-02	0	60	0	130023424	55	7537
2026-01-14 08:29:14.45	92.12	17.78	-42.6	-48.2	8.9	2.73e-02	0	60	0	132120576	55	7442
2026-01-14 08:29:15.46	91.93	17.86	-42.5	-48.3	8.8	2.49e-02	0	60	0	134217728	55	7461
2026-01-14 08:29:16.47	91.75	17.93	-42.5	-48.3	8.8	2.77e-02	0	60	0	135266304	55	7483
2026-01-14 08:29:17.48	91.56	18.01	-42.5	-48.4	8.6	3.64e-02	0	60	0	137363456	55	7626
2026-01-14 08:29:18.49	91.38	18.09	-42.5	-48.2	8.8	3.70e-02	0	60	0	139460608	55	7430
2026-01-14 08:29:19.50	91.19	18.16	-42.4	-48.1	8.9	2.95e-02	0	60	0	141557760	55	7323
2026-01-14 08:29:20.51	91.00	18.24	-42.4	-48.2	8.7	3.17e-02	0	60	0	143654912	55	7432
2026-01-14 08:29:21.52	90.82	18.32	-42.4	-48.4	8.5	4.03e-02	0	60	0	144703488	55	7545
2026-01-14 08:29:22.53	90.63	18.39	-42.4	-48.4	8.4	4.66e-02	0	60	0	146800640	55	7586
2026-01-14 08:29:23.54	90.44	18.47	-42.3	-48.3	8.5	4.51e-02	0	60	0	148897792	55	7470
2026-01-14 08:29:24.56	90.24	18.54	-42.2	-48.1	8.6	3.98e-02	0	60	0	150994944	55	7332
2026-01-14 08:29:25.57	90.05	18.62	-42.1	-48.1	8.6	3.91e-02	0	60	0	153092096	55	7321
2026-01-14 08:29:26.58	89.86	18.70	-42.1	-48.0	8.6	3.79e-02	0	60	0	154140672	55	7233
2026-01-14 08:29:27.58	89.67	18.77	-42.0	-47.8	8.7	3.59e-02	0	60	0	156237824	55	7106
2026-01-14 08:29:28.59	89.47	18.85	-41.9	-47.8	8.8	3.17e-02	0	60	0	158334976	55	7043
2026-01-14 08:29:29.60	89.27	18.92	-42.0	-47.9	8.6	3.30e-02	0	60	0	160432128	55	7145
2026-01-14 08:29:30.61	89.08	19.00	-41.9	-47.9	8.6	3.74e-02	0	60	0	162529280	55	7152
2026-01-14 08:29:31.62	88.88	19.07	-41.9	-47.8	8.7	4.03e-02	0	60	0	163577856	55	7101
2026-01-14 08:29:32.63	88.68	19.15	-41.9	-47.8	8.6	3.50e-02	0	60	0	165675008	55	7118
2026-01-14 08:29:33.64	88.48	19.22	-41.9	-47.9	8.4	4.20e-02	0	60	0	167772160	55	7200
2026-01-14 08:29:34.65	88.28	19.30	-41.8	-47.9	8.5	4.12e-02	0	60	0	169869312	55	7188
2026-01-14 08:29:35.66	88.08	19.37	-41.8	-47.9	8.4	4.54e-02	0	60	0	171966464	55	7186
2026-01-14 08:29:36.67	87.87	19.45	-41.7	-47.8	8.5	4.33e-02	0	60	0	174063616	55	7046
2026-01-14 08:29:37.68	87.67	19.52	-41.7	-47.7	8.6	4.12e-02	0	60	0	175112192	55	7020
2026-01-14 08:29:38.69	87.46	19.60	-41.6	-47.7	8.6	3.87e-02	0	60	0	177209344	55	6976
2026-01-14 08:29:39.70	87.26	19.67	-41.6	-47.5	8.8	3.20e-02	0	60	0	179306496	55	6824
2026-01-14 08:29:40.71	87.05	19.74	-41.5	-47.3	9.0	2.84e-02	0	60	0	181403648	55	6688
2026-01-14 08:29:41.72	86.84	19.82	-41.5	-47.3	9.1	2.38e-02	0	60	0	183500800	55	6651
2026-01-14 08:29:42.73	86.63	19.89	-41.5	-47.0	9.3	2.02e-02	0	60	0	184549376	55	6462
2026-01-14 08:29:43.74	86.42	19.97	-41.5	-47.0	9.4	1.59e-02	0	60	0	186646528	55	6464
2026-01-14 08:29:44.75	86.21	20.04	-41.6	-47.0	9.5	1.51e-02	0	60	0	188743680	55	6488
2026-01-14 08:29:45.76	86.00	20.11	-41.5	-46.9	9.6	1.45e-02	0	60	0	190840832	55	6357
2026-01-14 08:29:46.77	85.79	20.18	-41.5	-46.6	9.9	9.96e-03	0	60	0	192937984	55	6172
2026-01-14 08:29:47.78	85.57	20.26	-41.5	-46.5	10.1	7.62e-03	0	60	0	193986560	54	6462
2026-01-14 08:29:48.79	85.36	20.33	-41.5	-46.5	10.1	6.98e-03	0	60	0	196083712	54	6484
2026-01-14 08:29:49.80	85.14	20.40	-41.4	-46.4	10.2	5.90e-03	0	60	0	198180864	54	6350
2026-01-14 08:29:50.81	84.92	20.47	-41.4	-46.2	10.3	5.02e-03	0	60	0	200278016	54	6264
2026-01-14 08:29:51.82	84.71	20.54	-41.3	-46.1	10.5	4.83e-03	0	60	0	202375168	54	6153
2026-01-14 08:29:52.83	84.49	20.62	-41.3	-45.9	10.7	3.06e-03	0	60	0	203423744	54	6030
2026-01-14 08:29:53.84	84.27	20.69	-41.3	-45.9	10.8	2.67e-03	0	60	0	205520896	54	6006
2026-01-14 08:29:54.85	84.04	20.76	-41.3	-45.9	10.8	2.35e-03	0	60	0	207618048	54	5998
2026-01-14 08:29:55.86	83.82	20.83	-41.3	-45.7	11.1	1.76e-03	0	60	0	209715200	54	5893
2026-01-14 08:29:56.87	83.60	20.90	-41.3	-45.6	11.3	1.23e-03	0	60	0	211812352	54	5813
2026-01-14 08:29:57.88	83.37	20.97	-41.3	-45.5	11.4	1.09e-03	0	60	0	212860928	54	5783
2026-01-14 08:29:58.89	83.15	21.04	-41.3	-45.5	11.5	7.88e-04	0	60	0	214958080	54	5729
2026-01-14 08:29:59.90	82.92	21.11	-41.3	-45.4	11.6	7.16e-04	0	60	0	217055232	54	5685
2026-01-14 08:30:00.91	82.70	21.18	-41.3	-45.3	11.7	6.57e-04	0	60	0	219152384	54	5651
2026-01-14 08:30:01.92	82.47	21.25	-41.3	-45.3	11.8	5.10e-04	0	60	0	221249536	54	5610
2026-01-14 08:30:02.93	82.24	21.32	-41.3	-45.3	11.8	5.09e-04	0	60	0	222298112	54	5622
2026-01-14 08:30:03.93	82.01	21.38	-41.3	-45.3	11.8	5.37e-04	0	60	0	224395264	54	5655
2026-01-14 08:30:04.94	81.78	21.45	-41.3	-45.2	11.9	4.80e-04	0	60	0	226492416	54	5589
2026-01-14 08:30:05.95	81.54	21.52	-41.4	-45.4	11.8	4.15e-04	0	60	0	228589568	54	5669
2026-01-14 08:30:06.96	81.31	21.59	-41.4	-45.4	11.8	4.90e-04	0	60	0	230686720	54	5669
2026-01-14 08:30:07.98	81.07	21.66	-41.4	-45.5	11.7	5.23e-04	0	60	0	231735296	54	5748
2026-01-14 08:30:08.99	80.84	21.72	-41.5	-45.7	11.5	6.94e-04	0	60	0	233832448	54	5906
2026-01-14 08:30:09.99	80.60	21.79	-41.6	-45.8	11.4	8.73e-04	0	60	0	235929600	54	5944
2026-01-14 08:30:11.00	80.37	21.85	-41.6	-45.7	11.5	8.81e-04	0	60	0	238026752	54	5923
2026-01-14 08:30:12.01	80.13	21.92	-41.6	-45.8	11.5	8.43e-04	0	60	0	240123904	54	5954
2026-01-14 08:30:13.02	79.89	21.99	-41.6	-45.8	11.5	8.75e-04	0	60	0	242221056	54	5982
2026-01-14 08:30:14.03	79.65	22.05	-41.6	-45.7	11.6	7.99e-04	0	60	0	243269632	54	5906
2026-01-14 08:30:15.04	79.41	22.12	-41.6	-45.7	11.7	6.62e-04	0	60	0	245366784	54	5868
2026-01-14 08:30:16.05	79.16	22.18	-41.5	-45.6	11.7	5.58e-04	0	60	0	247463936	54	5805
2026-01-14 08:30:17.06	78.92	22.24	-41.6	-45.6	11.7	5.60e-04	0	60	0	249561088	54	5848
2026-01-14 08:30:18.07	78.67	22.31	-41.6	-45.7	11.6	6.18e-04	0	60	0	251658240	54	5905
2026-01-14 08:30:19.08	78.43	22.37	-41.7	-45.9	11.5	7.15e-04	0	61	0	252706816	54	6009
2026-01-14 08:30:20.09	78.18	22.43	-41.6	-45.6	11.8	6.06e-04	0	60	0	254803968	54	5845
2026-01-14 08:30:21.10	77.93	22.50	-41.6	-45.6	11.8	4.98e-04	0	60	0	256901120	54	5793
2026-01-14 08:30:22.11	77.68	22.56	-41.6	-45.7	11.8	4.99e-04	0	60	0	258998272	54	5873
2026-01-14 08:30:23.12	77.43	22.62	-41.5	-45.5	11.9	4.52e-04	0	60	0	261095424	54	5736
2026-01-14 08:30:24.13	77.18	22.68	-41.5	-45.3	12.1	3.17e-04	0	60	0	262144000	54	5639
2026-01-14 08:30:25.14	76.93	22.74	-41.5	-45.4	12.0	3.25e-04	0	60	0	264241152	54	5717
2026-01-14 08:30:26.15	76.68	22.80	-41.5	-45.4	12.1	3.52e-04	0	60	0	266338304	54	5692
2026-01-14 08:30:27.15	76.43	22.86	-41.5	-45.3	12.1	2.81e-04	0	60	0	268435456	54	5652
2026-01-14 08:30:28.16	76.17	22.92	-41.5	-45.4	12.1	2.90e-04	0	60	0	270532608	54	5687
2026-01-14 08:30:29.17	75.92	22.98	-41.5	-45.4	12.2	2.37e-04	0	60	0	271581184	54	5676
2026-01-14 08:30:30.19	75.66	23.04	-41.5	-45.3	12.3	1.81e-04	0	60	0	273678336	54	5598
2026-01-14 08:30:31.19	75.40	23.09	-41.5	-45.2	12.4	1.54e-04	0	60	0	275775488	54	5565
2026-01-14 08:30:32.20	75.15	23.15	-41.5	-45.2	12.4	1.64e-04	0	60	0	277872640	54	5552
2026-01-14 08:30:33.21	74.89	23.21	-41.5	-45.2	12.4	1.46e-04	0	60	0	279969792	54	5556
2026-01-14 08:30:34.22	74.63	23.26	-41.5	-45.2	12.4	1.48e-04	0	60	0	281018368	54	5556
2026-01-14 08:30:35.23	74.36	23.32	-41.4	-45.0	12.6	1.22e-04	0	60	0	283115520	54	5455
2026-01-14 08:30:36.24	74.10	23.37	-41.3	-44.9	12.7	7.55e-05	0	60	0	285212672	54	5394
2026-01-14 08:30:37.25	73.84	23.43	-41.3	-44.8	12.9	5.79e-05	0	60	0	287309824	54	5299
2026-01-14 08:30:38.26	73.57	23.48	-41.3	-44.7	13.0	3.89e-05	0	60	0	289406976	54	5271
2026-01-14 08:30:39.27	73.31	23.54	-41.3	-44.8	12.9	4.42e-05	0	60	0	290455552	54	5291
2026-01-14 08:30:40.28	73.04	23.59	-41.3	-44.7	12.9	4.65e-05	0	60	0	292552704	54	5275
2026-01-14 08:30:41.29	72.78	23.64	-41.3	-44.8	12.9	4.50e-05	0	60	0	294649856	54	5312
2026-01-14 08:30:42.29	72.51	23.69	-41.3	-44.8	12.9	5.49e-05	0	60	0	296747008	54	5338
2026-01-14 08:30:43.30	72.24	23.74	-41.4	-44.9	12.8	6.79e-05	0	60	0	298844160	54	5401
2026-01-14 08:30:44.31	71.97	23.79	-41.5	-45.1	12.6	8.31e-05	0	60	0	299892736	54	5493
2026-01-14 08:30:45.32	71.70	23.85	-41.5	-45.1	12.6	7.93e-05	0	60	0	301989888	54	5524
2026-01-14 08:30:46.33	71.43	23.89	-41.6	-45.4	12.4	1.10e-04	0	60	0	304087040	54	5666
2026-01-14 08:30:47.34	71.16	23.94	-41.7	-45.5	12.3	1.46e-04	0	60	0	306184192	54	5745
2026-01-14 08:30:48.35	70.89	23.99	-41.8	-45.6	12.2	2.17e-04	0	60	0	308281344	54	5849
2026-01-14 08:30:49.36	70.61	24.04	-41.8	-45.6	12.2	2.39e-04	0	61	0	310378496	54	5835
2026-01-14 08:30:50.37	70.34	24.09	-41.8	-45.6	12.3	2.27e-04	0	60	0	311427072	54	5795
2026-01-14 08:30:51.38	70.06	24.13	-41.8	-45.6	12.3	1.58e-04	0	60	0	313524224	54	5820
2026-01-14 08:30:52.39	69.79	24.18	-41.8	-45.5	12.3	1.73e-04	0	60	0	315621376	54	5781
2026-01-14 08:30:53.40	69.51	24.22	-41.8	-45.6	12.3	1.76e-04	0	60	0	317718528	54	5826
2026-01-14 08:30:54.41	69.23	24.27	-41.8	-45.7	12.2	2.18e-04	0	60	0	319815680	54	5874
2026-01-14 08:30:55.42	68.95	24.31	-41.9	-45.8	12.1	2.49e-04	0	60	0	320864256	54	5924
2026-01-14 08:30:56.43	68.68	24.36	-41.9	-45.9	12.0	2.84e-04	0	60	0	322961408	54	5999
2026-01-14 08:30:57.44	68.40	24.40	-42.0	-46.0	11.9	3.49e-04	0	60	0	325058560	54	6113
2026-01-14 08:30:58.45	68.11	24.44	-42.0	-46.0	11.9	4.05e-04	0	61	0	327155712	54	6101
2026-01-14 08:30:59.46	67.83	24.48	-42.1	-46.1	11.9	4.23e-04	0	60	0	329252864	54	6133
2026-01-14 08:31:00.47	67.55	24.52	-42.1	-46.1	11.8	4.32e-04	0	61	0	330301440	54	6201
2026-01-14 08:31:01.48	67.27	24.56	-42.2	-46.4	11.6	6.31e-04	0	60	0	332398592	54	6348
2026-01-14 08:31:02.49	66.98	24.60	-42.2	-46.4	11.5	8.67e-04	0	60	0	334495744	55	6054
2026-01-14 08:31:03.50	66.70	24.64	-42.3	-46.6	11.3	9.82e-04	0	61	0	336592896	55	6173
2026-01-14 08:31:04.51	66.41	24.68	-42.3	-46.5	11.4	9.94e-04	0	60	0	338690048	55	6111
2026-01-14 08:31:05.52	66.13	24.71	-42.3	-46.6	11.3	1.10e-03	0	60	0	339738624	55	6184
2026-01-14 08:31:06.53	65.84	24.75	-42.4	-46.8	11.1	1.28e-03	0	60	0	341835776	55	6278
2026-01-14 08:31:07.54	65.56	24.78	-42.4	-46.8	11.1	1.42e-03	0	60	0	343932928	55	6301
2026-01-14 08:31:08.55	65.27	24.82	-42.5	-47.0	11.0	2.12e-03	0	60	0	346030080	55	6424
2026-01-14 08:31:09.56	64.98	24.85	-42.5	-47.0	10.9	2.12e-03	0	60	0	348127232	55	6453
2026-01-14 08:31:10.57	64.69	24.89	-42.5	-47.1	10.9	2.06e-03	0	60	0	349175808	55	6497
2026-01-14 08:31:11.58	64.40	24.92	-42.6	-47.1	10.8	2.72e-03	0	60	0	351272960	55	6540
2026-01-14 08:31:12.59	64.11	24.95	-42.5	-47.1	10.8	2.52e-03	0	60	0	353370112	55	6516
2026-01-14 08:31:13.60	63.82	24.98	-42.5	-46.9	11.0	2.10e-03	0	60	0	355467264	55	6416
2026-01-14 08:31:14.61	63.53	25.01	-42.5	-47.1	10.8	2.22e-03	0	60	0	357564416	55	6524
2026-01-14 08:31:15.62	63.24	25.04	-42.6	-47.2	10.8	2.12e-03	0	61	0	358612992	55	6581
2026-01-14 08:31:16.63	62.95	25.07	-42.6	-47.2	10.8	2.85e-03	0	60	0	360710144	55	6592
2026-01-14 08:31:17.64	62.65	25.10	-42.5	-47.0	10.9	2.39e-03	0	61	0	362807296	55	6471
2026-01-14 08:31:18.65	62.36	25.12	-42.5	-47.1	10.8	2.17e-03	0	60	0	364904448	55	6511
2026-01-14 08:31:19.66	62.06	25.15	-42.6	-47.3	10.6	2.70e-03	0	61	0	367001600	55	6691
2026-01-14 08:31:20.67	61.77	25.18	-42.7	-47.5	10.4	4.40e-03	0	61	0	368050176	55	6844
2026-01-14 08:31:21.68	61.48	25.20	-42.9	-47.6	10.5	4.83e-03	0	61	0	370147328	56	6542
2026-01-14 08:31:22.69	61.18	25.22	-42.8	-47.6	10.5	4.07e-03	0	61	0	372244480	56	6508
2026-01-14 08:31:23.70	60.88	25.25	-42.8	-47.5	10.5	4.17e-03	0	61	0	374341632	56	6488
2026-01-14 08:31:24.71	60.59	25.27	-42.8	-47.5	10.6	3.41e-03	0	61	0	376438784	56	6457
2026-01-14 08:31:25.72	60.29	25.29	-42.8	-47.5	10.6	3.62e-03	0	61	0	378535936	56	6458
2026-01-14 08:31:26.73	60.00	25.31	-42.7	-47.3	10.8	2.97e-03	0	60	0	379584512	56	6320
2026-01-14 08:31:27.74	59.70	25.33	-42.7	-47.2	11.0	2.44e-03	0	60	0	381681664	56	6214
2026-01-14 08:31:28.75	59.40	25.35	-42.7	-47.2	10.9	2.27e-03	0	60	0	383778816	56	6257
2026-01-14 08:31:29.76	59.10	25.37	-42.8	-47.5	10.6	2.79e-03	0	61	0	385875968	56	6430
2026-01-14 08:31:30.77	58.80	25.39	-42.8	-47.6	10.5	3.52e-03	0	61	0	387973120	56	6528
2026-01-14 08:31:31.78	58.51	25.40	-42.8	-47.6	10.5	4.05e-03	0	60	0	389021696	56	6509
2026-01-14 08:31:32.79	58.21	25.42	-42.8	-47.6	10.5	3.37e-03	0	61	0	391118848	56	6501
2026-01-14 08:31:33.80	57.91	25.43	-42.8	-47.6	10.5	3.94e-03	0	61	0	393216000	56	6520
2026-01-14 08:31:34.81	57.61	25.45	-42.9	-47.7	10.4	4.37e-03	0	61	0	395313152	56	6615
2026-01-14 08:31:35.82	57.31	25.46	-42.9	-47.6	10.5	4.16e-03	0	61	0	397410304	56	6545
2026-01-14 08:31:36.83	57.01	25.47	-42.8	-47.4	10.7	3.25e-03	0	61	0	398458880	56	6386
2026-01-14 08:31:37.84	56.71	25.48	-42.7	-47.2	10.9	2.60e-03	0	61	0	400556032	56	6270
2026-01-14 08:31:38.85	56.41	25.49	-42.7	-47.2	10.9	2.26e-03	0	61	0	402653184	56	6272
2026-01-14 08:31:39.86	56.11	25.50	-42.7	-47.2	11.0	2.14e-03	0	61	0	404750336	56	6221
2026-01-14 08:31:40.87	55.81	25.51	-42.6	-47.0	11.2	1.67e-03	0	60	0	406847488	56	6065
2026-01-14 08:31:41.88	55.51	25.52	-42.5	-46.8	11.4	1.35e-03	0	61	0	407896064	56	5967
2026-01-14 08:31:42.89	55.20	25.53	-42.5	-46.8	11.4	1.01e-03	0	61	0	409993216	56	5947
2026-01-14 08:31:43.90	54.90	25.53	-42.6	-47.0	11.2	1.17e-03	0	60	0	412090368	56	6072
2026-01-14 08:31:44.91	54.60	25.54	-42.7	-47.0	11.1	1.61e-03	0	61	0	414187520	56	6119
2026-01-14 08:31:45.92	54.30	25.54	-42.6	-47.0	11.2	1.66e-03	0	61	0	416284672	56	6098
2026-01-14 08:31:46.93	54.00	25.55	-42.6	-47.0	11.2	1.24e-03	0	61	0	417333248	56	6074
2026-01-14 08:31:47.94	53.70	25.55	-42.4	-46.4	11.8	7.04e-04	0	61	0	419430400	56	5721
2026-01-14 08:31:48.94	53.40	25.55	-42.4	-46.4	11.9	4.40e-04	0	61	0	421527552	56	5689
2026-01-14 08:31:49.95	53.10	25.55	-42.4	-46.4	11.8	4.26e-04	0	60	0	423624704	56	5704
2026-01-14 08:31:50.96	52.80	25.55	-42.4	-46.4	11.8	4.66e-04	0	61	0	425721856	56	5692
2026-01-14 08:31:51.97	52.50	25.55	-42.3	-46.4	11.9	4.52e-04	0	61	0	426770432	56	5666
2026-01-14 08:31:52.98	52.19	25.55	-42.3	-46.2	12.1	2.57e-04	0	60	0	428867584	56	5538
2026-01-14 08:31:53.99	51.89	25.55	-42.2	-46.0	12.3	2.10e-04	0	61	0	430964736	56	5422
2026-01-14 08:31:55.00	51.59	25.54	-42.2	-46.0	12.3	1.45e-04	0	61	0	433061888	56	5430
2026-01-14 08:31:56.01	51.29	25.54	-42.1	-45.8	12.4	1.65e-04	0	60	0	435159040	56	5334
2026-01-14 08:31:57.02	50.99	25.54	-42.1	-45.8	12.4	1.23e-04	0	61	0	436207616	56	5317
2026-01-14 08:31:58.03	50.69	25.53	-42.0	-45.7	12.5	1.30e-04	0	61	0	438304768	56	5262
2026-01-14 08:31:59.04	50.39	25.52	-41.8	-45.3	12.8	5.95e-05	0	61	0	440401920	55	5337
2026-01-14 08:32:00.05	50.09	25.51	-41.7	-45.2	12.9	4.57e-05	0	60	0	442499072	55	5262
2026-01-14 08:32:01.06	49.79	25.51	-41.6	-45.1	13.1	3.58e-05	0	61	0	444596224	55	5187
2026-01-14 08:32:02.07	49.49	25.50	-41.6	-45.1	13.1	3.35e-05	0	61	0	446693376	55	5177
2026-01-14 08:32:03.08	49.18	25.49	-41.6	-45.0	13.2	2.97e-05	0	61	0	447741952	55	5134
2026-01-14 08:32:04.09	48.88	25.48	-41.5	-44.9	13.3	2.51e-05	0	61	0	449839104	55	5044
2026-01-14 08:32:05.10	48.58	25.46	-41.5	-44.8	13.4	1.67e-05	0	61	0	451936256	54	5290
2026-01-14 08:32:06.10	48.29	25.45	-41.4	-44.7	13.5	1.52e-05	0	60	0	454033408	54	5248
2026-01-14 08:32:07.11	47.99	25.44	-41.5	-44.8	13.4	7.60e-06	0	61	0	456130560	54	5303
2026-01-14 08:32:08.12	47.69	25.42	-41.5	-44.8	13.3	1.37e-05	0	61	0	457179136	54	5334
2026-01-14 08:32:09.13	47.39	25.41	-41.5	-44.8	13.4	1.22e-05	0	61	0	459276288	54	5290
2026-01-14 08:32:10.14	47.09	25.39	-41.5	-44.7	13.4	1.29e-05	0	61	0	461373440	54	5262
2026-01-14 08:32:11.15	46.79	25.37	-41.4	-44.7	13.5	1.29e-05	0	61	0	463470592	54	5232
2026-01-14 08:32:12.16	46.50	25.36	-41.4	-44.7	13.5	9.10e-06	0	61	0	465567744	54	5241
2026-01-14 08:32:13.17	46.20	25.34	-41.5	-44.7	13.5	6.80e-06	0	61	0	466616320	54	5275
2026-01-14 08:32:14.18	45.90	25.32	-41.5	-44.8	13.4	1.37e-05	0	61	0	468713472	54	5287
2026-01-14 08:32:15.19	45.61	25.30	-41.5	-44.9	13.3	1.75e-05	0	61	0	470810624	54	5381
2026-01-14 08:32:16.20	45.31	25.28	-41.6	-45.0	13.2	1.67e-05	0	61	0	472907776	54	5433
2026-01-14 08:32:17.21	45.01	25.25	-41.6	-45.0	13.2	2.21e-05	0	60	0	475004928	54	5438
2026-01-14 08:32:18.22	44.72	25.23	-41.6	-45.0	13.2	2.89e-05	0	61	0	476053504	54	5428
2026-01-14 08:32:19.23	44.42	25.21	-41.6	-45.0	13.2	2.21e-05	0	61	0	478150656	54	5432
2026-01-14 08:32:20.24	44.13	25.18	-41.7	-45.1	13.1	4.95e-05	0	61	0	480247808	54	5501
2026-01-14 08:32:21.25	43.83	25.16	-41.7	-45.2	12.9	3.89e-05	0	61	0	482344960	54	5590
2026-01-14 08:32:22.26	43.54	25.13	-41.7	-45.3	12.9	5.11e-05	0	61	0	484442112	54	5619
2026-01-14 08:32:23.27	43.25	25.11	-41.8	-45.3	12.8	5.11e-05	0	61	0	485490688	54	5638
2026-01-14 08:32:24.28	42.96	25.08	-41.7	-45.2	12.9	4.95e-05	0	60	0	487587840	54	5576
2026-01-14 08:32:25.29	42.66	25.05	-41.7	-45.2	12.9	4.65e-05	0	61	0	489684992	54	5577
2026-01-14 08:32:26.30	42.37	25.02	-41.7	-45.3	12.9	4.42e-05	0	61	0	491782144	54	5606
2026-01-14 08:32:27.30	42.08	24.99	-41.8	-45.4	12.8	7.47e-05	0	61	0	493879296	54	5669
2026-01-14 08:32:28.31	41.79	24.96	-41.9	-45.6	12.5	1.20e-04	0	61	0	494927872	54	5835
2026-01-14 08:32:29.32	41.50	24.93	-42.0	-45.7	12.4	1.22e-04	0	61	0	497025024	54	5922
2026-01-14 08:32:30.33	41.21	24.90	-42.0	-45.7	12.5	1.61e-04	0	61	0	499122176	54	5878
2026-01-14 08:32:31.34	40.93	24.86	-42.0	-45.8	12.3	1.62e-04	0	61	0	501219328	54	5984
2026-01-14 08:32:32.35	40.64	24.83	-42.1	-45.8	12.3	1.69e-04	0	61	0	503316480	54	5990
2026-01-14 08:32:33.36	40.35	24.80	-42.1	-46.0	12.2	2.04e-04	0	61	0	504365056	54	6089
2026-01-14 08:32:34.37	40.06	24.76	-42.2	-46.1	12.1	2.70e-04	0	61	0	506462208	54	6132
2026-01-14 08:32:35.38	39.78	24.73	-42.1	-46.0	12.2	2.37e-04	0	61	0	508559360	54	6072
2026-01-14 08:32:36.39	39.49	24.69	-42.2	-46.0	12.1	2.53e-04	0	61	0	510656512	54	6129
2026-01-14 08:32:37.40	39.21	24.65	-42.2	-46.1	12.1	2.52e-04	0	61	0	512753664	54	6135
2026-01-14 08:32:38.41	38.92	24.61	-42.2	-46.1	12.0	3.13e-04	0	61	0	514850816	54	6194
2026-01-14 08:32:39.41	38.64	24.57	-42.2	-46.2	12.0	3.34e-04	0	61	0	515899392	55	5866
2026-01-14 08:32:40.43	38.36	24.54	-42.3	-46.3	11.9	3.64e-04	0	61	0	517996544	55	5940
2026-01-14 08:32:41.43	38.08	24.50	-42.3	-46.4	11.7	4.26e-04	0	61	0	520093696	55	6048
2026-01-14 08:32:42.44	37.80	24.45	-42.4	-46.6	11.5	6.75e-04	0	61	0	522190848	55	6160
2026-01-14 08:32:43.45	37.52	24.41	-42.5	-46.7	11.4	8.30e-04	0	61	0	524288000	55	6228
2026-01-14 08:32:44.46	37.24	24.37	-42.5	-46.7	11.4	9.99e-04	0	61	0	525336576	55	6263
2026-01-14 08:32:45.47	36.96	24.33	-42.5	-46.8	11.4	1.06e-03	0	61	0	527433728	55	6279
2026-01-14 08:32:46.48	36.68	24.28	-42.5	-46.8	11.4	1.04e-03	0	61	0	529530880	55	6286
2026-01-14 08:32:47.49	36.40	24.24	-42.5	-46.7	11.4	9.68e-04	0	61	0	531628032	55	6222
2026-01-14 08:32:48.50	36.13	24.20	-42.5	-46.7	11.4	9.80e-04	0	61	0	533725184	55	6266
2026-01-14 08:32:49.51	35.85	24.15	-42.5	-46.8	11.3	1.06e-03	0	61	0	534773760	55	6330
2026-01-14 08:32:50.52	35.58	24.10	-42.5	-46.8	11.3	1.20e-03	0	61	0	536870912	55	6331
2026-01-14 08:32:51.53	35.30	24.06	-42.5	-46.8	11.3	1.34e-03	0	61	0	538968064	55	6334
2026-01-14 08:32:52.54	35.03	24.01	-42.6	-46.9	11.2	1.50e-03	0	61	0	541065216	55	6397
2026-01-14 08:32:53.55	34.76	23.96	-42.6	-47.0	11.1	1.69e-03	0	61	0	543162368	55	6493
2026-01-14 08:32:54.56	34.49	23.91	-42.7	-47.2	10.9	2.10e-03	0	61	0	544210944	55	6591
2026-01-14 08:32:55.57	34.22	23.86	-42.7	-47.3	10.8	2.50e-03	0	61	0	546308096	55	6706
2026-01-14 08:32:56.58	33.95	23.81	-42.8	-47.4	10.8	2.63e-03	0	61	0	548405248	56	6375
2026-01-14 08:32:57.59	33.68	23.76	-42.8	-47.4	10.9	2.34e-03	0	61	0	550502400	56	6370
2026-01-14 08:32:58.59	33.41	23.71	-42.8	-47.2	11.0	2.01e-03	0	61	0	552599552	56	6265
2026-01-14 08:32:59.60	33.14	23.66	-42.7	-47.1	11.1	1.68e-03	0	61	0	553648128	56	6193
2026-01-14 08:33:00.61	32.88	23.61	-42.7	-47.2	11.1	1.65e-03	0	61	0	555745280	56	6204
2026-01-14 08:33:01.62	32.61	23.56	-42.8	-47.2	11.1	1.49e-03	0	61	0	557842432	56	6214
2026-01-14 08:33:02.63	32.35	23.50	-42.7	-47.1	11.2	1.40e-03	0	61	0	559939584	56	6164
2026-01-14 08:33:03.64	32.08	23.45	-42.7	-47.1	11.2	1.38e-03	0	61	0	562036736	56	6185
2026-01-14 08:33:04.65	31.82	23.40	-42.8	-47.1	11.1	1.51e-03	0	61	0	563085312	56	6200
2026-01-14 08:33:05.66	31.56	23.34	-42.8	-47.3	11.0	1.74e-03	0	61	0	565182464	56	6318
2026-01-14 08:33:06.67	31.30	23.29	-42.9	-47.4	10.8	2.24e-03	0	61	0	567279616	56	6416
2026-01-14 08:33:07.68	31.04	23.23	-42.9	-47.6	10.6	3.17e-03	0	61	0	569376768	56	6550
2026-01-14 08:33:08.70	30.78	23.17	-42.9	-47.6	10.7	3.37e-03	0	61	0	571473920	56	6524
2026-01-14 08:33:09.71	30.52	23.12	-42.9	-47.5	10.7	2.93e-03	0	61	0	572522496	56	6459
2026-01-14 08:33:10.71	30.27	23.06	-42.8	-47.3	10.9	2.27e-03	0	61	0	574619648	56	6298
2026-01-14 08:33:11.73	30.01	23.00	-42.7	-47.1	11.1	1.57e-03	0	61	0	576716800	56	6168
2026-01-14 08:33:12.74	29.75	22.94	-42.7	-47.2	11.1	1.60e-03	0	61	0	578813952	56	6216
2026-01-14 08:33:13.75	29.50	22.88	-42.7	-47.2	11.1	1.56e-03	0	61	0	580911104	56	6213
2026-01-14 08:33:14.76	29.25	22.82	-42.8	-47.3	10.9	1.72e-03	0	61	0	583008256	56	6331
2026-01-14 08:33:15.77	28.99	22.76	-42.8	-47.3	10.9	1.99e-03	0	61	0	584056832	56	6299
2026-01-14 08:33:16.78	28.74	22.70	-42.8	-47.3	10.9	2.39e-03	0	61	0	586153984	56	6314
2026-01-14 08:33:17.79	28.49	22.64	-42.8	-47.2	11.0	1.91e-03	0	61	0	588251136	56	6261
2026-01-14 08:33:18.80	28.24	22.58	-42.8	-47.2	11.1	1.81e-03	0	61	0	590348288	56	6212
2026-01-14 08:33:19.81	27.99	22.52	-42.7	-47.1	11.2	1.47e-03	0	61	0	592445440	56	6152
2026-01-14 08:33:20.82	27.75	22.46	-42.6	-46.9	11.4	1.19e-03	0	61	0	593494016	56	6022
2026-01-14 08:33:21.83	27.50	22.40	-42.6	-46.7	11.6	8.71e-04	0	61	0	595591168	56	5918
2026-01-14 08:33:22.84	27.26	22.33	-42.5	-46.7	11.6	6.35e-04	0	61	0	597688320	56	5876
2026-01-14 08:33:23.85	27.01	22.27	-42.5	-46.5	11.8	5.01e-04	0	61	0	599785472	56	5774
2026-01-14 08:33:24.85	26.77	22.21	-42.4	-46.5	11.8	4.57e-04	0	61	0	601882624	56	5755
2026-01-14 08:33:25.87	26.53	22.14	-42.4	-46.4	11.8	4.55e-04	0	61	0	602931200	56	5712
2026-01-14 08:33:26.87	26.29	22.08	-42.5	-46.5	11.8	5.20e-04	0	61	0	605028352	56	5782
2026-01-14 08:33:27.88	26.05	22.02	-42.4	-46.4	11.9	4.39e-04	0	61	0	607125504	56	5698
2026-01-14 08:33:28.89	25.81	21.95	-42.3	-46.3	12.0	3.52e-04	0	61	0	609222656	56	5604
2026-01-14 08:33:29.90	25.57	21.89	-42.3	-46.2	12.1	2.66e-04	0	61	0	611319808	56	5567
2026-01-14 08:33:30.91	25.33	21.82	-42.3	-46.2	12.1	2.33e-04	0	61	0	612368384	56	5550
2026-01-14 08:33:31.92	25.10	21.75	-42.2	-46.0	12.3	2.34e-04	0	61	0	614465536	56	5434
2026-01-14 08:33:32.93	24.86	21.69	-42.2	-46.1	12.3	1.65e-04	0	61	0	616562688	56	5468
2026-01-14 08:33:33.94	24.63	21.62	-42.2	-46.0	12.3	1.78e-04	0	61	0	618659840	56	5438
2026-01-14 08:33:34.95	24.40	21.55	-42.2	-46.0	12.2	1.91e-04	0	61	0	620756992	56	5447
2026-01-14 08:33:35.96	24.16	21.49	-42.2	-46.1	12.2	1.83e-04	0	61	0	621805568	56	5476
2026-01-14 08:33:36.97	23.93	21.42	-42.2	-46.1	12.2	2.08e-04	0	61	0	623902720	56	5485
2026-01-14 08:33:37.98	23.70	21.35	-42.3	-46.1	12.2	2.27e-04	0	61	0	625999872	56	5512
2026-01-14 08:33:38.99	23.47	21.28	-42.2	-46.1	12.1	2.43e-04	0	61	0	628097024	56	5500
2026-01-14 08:33:40.00	23.25	21.21	-42.2	-46.1	12.2	2.24e-04	0	61	0	630194176	56	5487
2026-01-14 08:33:41.00	23.02	21.14	-42.2	-46.1	12.2	2.87e-04	0	61	0	631242752	56	5473
2026-01-14 08:33:42.01	22.80	21.07	-42.2	-46.1	12.2	2.25e-04	0	61	0	633339904	56	5494
2026-01-14 08:33:43.03	22.57	21.00	-42.2	-46.1	12.2	2.09e-04	0	61	0	635437056	56	5506
2026-01-14 08:33:44.03	22.35	20.94	-42.3	-46.2	12.1	2.21e-04	0	61	0	637534208	56	5543
2026-01-14 08:33:45.04	22.13	20.87	-42.3	-46.2	12.0	2.78e-04	0	61	0	639631360	56	5591
2026-01-14 08:33:46.05	21.90	20.79	-42.3	-46.3	12.0	3.17e-04	0	61	0	640679936	56	5600
2026-01-14 08:33:47.06	21.68	20.72	-42.3	-46.3	12.0	3.67e-04	0	61	0	642777088	56	5611
2026-01-14 08:33:48.07	21.46	20.65	-42.3	-46.3	11.9	3.56e-04	0	61	0	644874240	56	5639
2026-01-14 08:33:49.08	21.24	20.58	-42.3	-46.2	12.0	3.82e-04	0	61	0	646971392	56	5571
2026-01-14 08:33:50.09	21.03	20.51	-42.3	-46.2	12.0	3.78e-04	0	61	0	649068544	56	5560
2026-01-14 08:33:51.10	20.81	20.44	-42.2	-46.2	12.1	2.51e-04	0	61	0	651165696	56	5546
2026-01-14 08:33:52.11	20.60	20.37	-42.2	-46.1	12.1	2.48e-04	0	61	0	652214272	56	5493
2026-01-14 08:33:53.12	20.38	20.30	-42.2	-46.0	12.2	2.30e-04	0	61	0	654311424	56	5424
2026-01-14 08:33:54.13	20.17	20.22	-42.1	-45.9	12.3	1.62e-04	0	61	0	656408576	56	5356
2026-01-14 08:33:55.14	19.95	20.15	-42.1	-45.8	12.4	1.54e-04	0	61	0	658505728	56	5317
2026-01-14 08:33:56.15	19.74	20.08	-42.1	-45.8	12.4	1.49e-04	0	61	0	660602880	56	5338
2026-01-14 08:33:57.16	19.53	20.01	-42.1	-45.8	12.4	1.31e-04	0	61	0	661651456	56	5308
2026-01-14 08:33:58.17	19.32	19.93	-42.0	-45.7	12.5	1.34e-04	0	61	0	663748608	56	5254
2026-01-14 08:33:59.18	19.12	19.86	-41.9	-45.6	12.5	1.28e-04	0	61	0	665845760	55	5467
2026-01-14 08:34:00.19	18.91	19.79	-41.8	-45.5	12.6	1.04e-04	0	61	0	667942912	55	5429
2026-01-14 08:34:01.20	18.70	19.71	-41.8	-45.4	12.6	1.09e-04	0	61	0	670040064	55	5395
2026-01-14 08:34:02.21	18.50	19.64	-41.7	-45.4	12.7	8.16e-05	0	61	0	671088640	55	5354
2026-01-14 08:34:03.22	18.29	19.56	-41.7	-45.3	12.8	7.40e-05	0	61	0	673185792	55	5310
2026-01-14 08:34:04.23	18.09	19.49	-41.7	-45.3	12.7	7.40e-05	0	61	0	675282944	55	5306
2026-01-14 08:34:05.24	17.89	19.42	-41.7	-45.3	12.8	5.41e-05	0	61	0	677380096	55	5292
2026-01-14 08:34:06.25	17.68	19.34	-41.7	-45.3	12.8	6.17e-05	0	61	0	679477248	55	5297
2026-01-14 08:34:07.26	17.48	19.27	-41.7	-45.3	12.7	7.09e-05	0	61	0	680525824	55	5317
2026-01-14 08:34:08.26	17.29	19.19	-41.7	-45.3	12.8	6.94e-05	0	61	0	682622976	55	5280
2026-01-14 08:34:09.28	17.09	19.12	-41.5	-45.1	13.0	4.57e-05	0	61	0	684720128	55	5172
2026-01-14 08:34:10.28	16.89	19.04	-41.5	-45.0	13.1	2.82e-05	0	61	0	686817280	54	5408
2026-01-14 08:34:11.30	16.69	18.97	-41.5	-44.9	13.2	2.97e-05	0	61	0	688914432	54	5377
2026-01-14 08:34:12.30	16.50	18.89	-41.4	-44.8	13.2	2.51e-05	0	61	0	689963008	54	5321
2026-01-14 08:34:13.31	16.31	18.82	-41.5	-44.9	13.1	3.35e-05	0	61	0	692060160	54	5374
2026-01-14 08:34:14.32	16.11	18.74	-41.5	-45.0	13.1	3.28e-05	0	61	0	694157312	54	5415
2026-01-14 08:34:15.33	15.92	18.67	-41.5	-45.0	13.0	4.11e-05	0	61	0	696254464	54	5449
2026-01-14 08:34:16.34	15.73	18.59	-41.6	-45.1	13.0	3.73e-05	0	61	0	698351616	54	5467
2026-01-14 08:34:17.35	15.54	18.52	-41.6	-45.1	12.9	4.65e-05	0	61	0	699400192	54	5467
2026-01-14 08:34:18.36	15.35	18.44	-41.5	-45.0	13.0	3.50e-05	0	61	0	701497344	54	5433
2026-01-14 08:34:19.37	15.16	18.36	-41.5	-44.9	13.1	3.58e-05	0	61	0	703594496	54	5391
2026-01-14 08:34:20.38	14.97	18.29	-41.4	-44.8	13.2	3.58e-05	0	61	0	705691648	54	5340
2026-01-14 08:34:21.39	14.78	18.21	-41.4	-44.8	13.2	4.04e-05	0	61	0	707788800	54	5302
2026-01-14 08:34:22.40	14.60	18.14	-41.4	-44.8	13.2	2.36e-05	0	61	0	708837376	54	5321
2026-01-14 08:34:23.41	14.41	18.06	-41.4	-44.8	13.2	2.36e-05	0	61	0	710934528	54	5296
2026-01-14 08:34:24.42	14.23	17.98	-41.4	-44.8	13.2	2.82e-05	0	61	0	713031680	54	5308
2026-01-14 08:34:25.43	14.05	17.91	-41.4	-44.9	13.1	3.35e-05	0	61	0	715128832	54	5350
2026-01-14 08:34:26.44	13.87	17.83	-41.5	-44.9	13.0	2.59e-05	0	61	0	717225984	54	5396
2026-01-14 08:34:27.45	13.68	17.76	-41.5	-45.0	13.0	3.89e-05	0	61	0	719323136	54	5427
2026-01-14 08:34:28.46	13.50	17.68	-41.6	-45.1	12.8	6.02e-05	0	61	0	720371712	54	5526
2026-01-14 08:34:29.47	13.33	17.60	-41.6	-45.2	12.7	7.55e-05	0	61	0	722468864	54	5554
2026-01-14 08:34:30.48	13.15	17.53	-41.5	-45.1	12.8	5.64e-05	0	61	0	724566016	54	5512
2026-01-14 08:34:31.49	12.97	17.45	-41.5	-45.1	12.8	6.86e-05	0	61	0	726663168	54	5475
2026-01-14 08:34:32.50	12.79	17.37	-41.5	-45.0	12.8	5.03e-05	0	61	0	728760320	54	5454
2026-01-14 08:34:33.51	12.62	17.30	-41.5	-45.0	12.9	5.26e-05	0	61	0	729808896	54	5438
2026-01-14 08:34:34.52	12.44	17.22	-41.5	-45.0	12.9	5.34e-05	0	61	0	731906048	54	5453
2026-01-14 08:34:35.53	12.27	17.14	-41.5	-45.2	12.7	8.54e-05	0	61	0	734003200	54	5535
2026-01-14 08:34:36.54	12.10	17.06	-41.6	-45.2	12.6	8.54e-05	0	61	0	736100352	54	5569
2026-01-14 08:34:37.55	11.92	16.99	-41.6	-45.3	12.6	7.47e-05	0	61	0	738197504	54	5601
2026-01-14 08:34:38.55	11.76	16.91	-41.6	-45.3	12.5	1.23e-04	0	61	0	739246080	54	5654
2026-01-14 08:34:39.56	11.58	16.83	-41.6	-45.3	12.5	1.15e-04	0	61	0	741343232	54	5619
2026-01-14 08:34:40.57	11.42	16.76	-41.5	-45.2	12.6	1.05e-04	0	61	0	743440384	54	5565
2026-01-14 08:34:41.58	11.25	16.68	-41.5	-45.2	12.5	1.04e-04	0	61	0	745537536	54	5592
2026-01-14 08:34:42.59	11.08	16.60	-41.5	-45.3	12.5	1.18e-04	0	61	0	747634688	54	5593
2026-01-14 08:34:43.60	10.91	16.53	-41.6	-45.3	12.4	1.20e-04	0	61	0	748683264	54	5618
2026-01-14 08:34:44.61	10.75	16.45	-41.6	-45.5	12.2	1.50e-04	0	61	0	750780416	54	5751
2026-01-14 08:34:45.62	10.58	16.37	-41.7	-45.6	12.1	2.31e-04	0	61	0	752877568	54	5814
2026-01-14 08:34:46.63	10.42	16.30	-41.7	-45.7	12.0	2.69e-04	0	61	0	754974720	54	5868
2026-01-14 08:34:47.64	10.26	16.22	-41.8	-45.9	11.7	3.88e-04	0	61	0	757071872	54	6033
2026-01-14 08:34:48.65	10.09	16.14	-41.8	-45.9	11.6	6.81e-04	0	61	0	758120448	54	6061
2026-01-14 08:34:49.66	9.93	16.07	-41.9	-46.1	11.4	7.51e-04	0	61	0	760217600	54	6185
2026-01-14 08:34:50.67	9.77	15.99	-41.9	-46.2	11.3	9.72e-04	0	61	0	762314752	54	6250
2026-01-14 08:34:51.68	9.61	15.91	-41.9	-46.1	11.4	1.03e-03	0	61	0	764411904	54	6193
2026-01-14 08:34:52.68	9.45	15.84	-41.9	-46.2	11.3	1.08e-03	0	61	0	766509056	54	6268
2026-01-14 08:34:53.69	9.30	15.76	-41.9	-46.2	11.3	1.37e-03	0	61	0	767557632	54	6224
2026-01-14 08:34:54.70	9.14	15.68	-41.8	-46.0	11.5	8.54e-04	0	61	0	769654784	54	6077
2026-01-14 08:34:55.71	8.98	15.60	-41.9	-46.1	11.3	8.80e-04	0	61	0	771751936	54	6190
2026-01-14 08:34:56.72	8.83	15.53	-41.8	-46.0	11.4	1.21e-03	0	61	0	773849088	54	6129
2026-01-14 08:34:57.73	8.67	15.45	-41.7	-45.9	11.5	8.65e-04	0	61	0	775946240	54	6035
2026-01-14 08:34:58.74	8.52	15.37	-41.8	-46.1	11.3	1.04e-03	0	61	0	776994816	54	6143
2026-01-14 08:34:59.75	8.36	15.30	-41.8	-46.3	11.0	1.65e-03	0	61	0	779091968	54	6301
2026-01-14 08:35:00.76	8.21	15.22	-41.8	-46.2	11.1	1.87e-03	0	61	0	781189120	54	6229
2026-01-14 08:35:01.77	8.06	15.14	-41.8	-46.2	11.0	1.93e-03	0	61	0	783286272	54	6270
2026-01-14 08:35:02.78	7.91	15.07	-41.8	-46.3	10.9	2.10e-03	0	61	0	785383424	54	6305
2026-01-14 08:35:03.79	7.76	14.99	-41.8	-46.3	10.8	2.58e-03	0	61	0	786432000	54	6340
2026-01-14 08:35:04.80	7.61	14.91	-41.7	-46.3	10.9	2.40e-03	0	61	0	788529152	54	6277
2026-01-14 08:35:05.80	7.46	14.84	-41.7	-46.3	10.8	2.45e-03	0	61	0	790626304	54	6288
2026-01-14 08:35:06.81	7.32	14.76	-41.7	-46.2	10.8	2.59e-03	0	61	0	792723456	54	6265
2026-01-14 08:35:07.82	7.17	14.69	-41.7	-46.1	10.9	2.13e-03	0	61	0	794820608	54	6189
2026-01-14 08:35:08.83	7.02	14.61	-41.7	-46.2	10.9	2.03e-03	0	61	0	795869184	54	6220
2026-01-14 08:35:09.84	6.88	14.53	-41.8	-46.4	10.6	2.73e-03	0	61	0	797966336	54	6386
2026-01-14 08:35:10.85	6.73	14.46	-41.8	-46.5	10.5	4.25e-03	0	61	0	800063488	54	6451
2026-01-14 08:35:11.86	6.59	14.38	-41.7	-46.3	10.6	3.38e-03	0	61	0	802160640	54	6338
2026-01-14 08:35:12.87	6.45	14.31	-41.6	-46.3	10.6	3.16e-03	0	61	0	804257792	54	6293
2026-01-14 08:35:13.88	6.30	14.23	-41.8	-46.8	10.0	4.58e-03	0	61	0	805306368	54	6664
2026-01-14 08:35:14.89	6.16	14.15	-41.7	-46.8	9.9	9.88e-03	0	61	0	807403520	54	6689
2026-01-14 08:35:15.90	6.02	14.08	-41.7	-46.8	9.8	8.93e-03	0	61	0	809500672	54	6719
2026-01-14 08:35:16.91	5.88	14.00	-41.5	-46.6	9.9	9.69e-03	0	61	0	811597824	54	6539
2026-01-14 08:35:17.92	5.74	13.93	-41.4	-46.5	9.9	8.06e-03	0	61	0	813694976	54	6473
2026-01-14 08:35:18.93	5.60	13.85	-41.5	-46.9	9.4	1.36e-02	0	61	0	815792128	54	6763
2026-01-14 08:35:19.94	5.46	13.77	-41.5	-47.1	9.1	2.02e-02	0	61	0	816840704	54	6949
2026-01-14 08:35:20.95	5.33	13.70	-41.4	-46.9	9.2	2.25e-02	0	61	0	818937856	54	6751
2026-01-14 08:35:21.96	5.19	13.62	-41.2	-46.5	9.7	1.31e-02	0	61	0	821035008	54	6451
2026-01-14 08:35:22.97	5.05	13.55	-41.2	-46.5	9.6	1.26e-02	0	61	0	823132160	54	6446
2026-01-14 08:35:23.97	4.92	13.47	-41.2	-46.6	9.4	1.52e-02	0	61	0	825229312	54	6552
2026-01-14 08:35:24.99	4.79	13.40	-41.2	-47.0	8.9	2.22e-02	0	61	0	826277888	54	6830
2026-01-14 08:35:26.00	4.65	13.32	-41.3	-47.4	8.4	3.63e-02	0	61	0	828375040	54	7150
2026-01-14 08:35:27.00	4.52	13.25	-41.4	-48.1	7.7	7.63e-02	0	61	0	830472192	54	7753
2026-01-14 08:35:28.01	4.39	13.17	-41.5	-48.8	6.9	1.41e-01	0	61	0	832569344	54	8408
2026-01-14 08:35:29.02	4.26	13.10	-41.5	-49.6	6.2	2.17e-01	0	61	0	834666496	54	9187
2026-01-14 08:35:30.03	4.13	13.02	-41.6	-50.5	5.4	3.73e-01	0	61	0	835715072	54	10190
2026-01-14 08:35:31.04	4.00	12.95	-41.6	-51.4	4.8	7.03e-01	0	61	0	837812224	54	11356
2026-01-14 08:35:32.05	3.87	12.87	-41.6	-52.8	4.3	1.07e+00	0	61	0	839909376	54	13306
2026-01-14 08:35:33.06	3.74	12.80	-41.6	-53.9	3.8	1.42e+00	0	61	104	839909376	54	15117
2026-01-14 08:35:34.07	3.61	12.72	-41.5	-54.7	3.8	1.49e+00	0	61	104	839909376	54	16580
2026-01-14 08:35:35.08	3.48	12.65	-41.4	-55.2	3.8	1.49e+00	0	61	104	839909376	54	17654
2026-01-14 08:35:36.08	3.36	12.57	-41.3	-55.6	3.8	1.49e+00	0	61	104	839909376	54	18339
2026-01-14 08:35:37.09	3.23	12.50	-41.2	-55.5	3.8	1.49e+00	0	61	104	839909376	54	18240
2026-01-14 08:35:38.10	3.10	12.43	-41.1	-55.5	3.8	1.49e+00	0	61	104	839909376	54	18301
2026-01-14 08:35:39.11	2.98	12.35	-40.9	-55.7	3.8	1.49e+00	0	61	104	839909376	53	19758
2026-01-14 08:35:40.12	2.85	12.28	-40.7	-55.5	3.8	1.49e+00	0	61	104	839909376	53	19176
2026-01-14 08:35:41.13	2.73	12.20	-41.2	-56.0	3.8	1.49e+00	0	61	104	839909376	53	20442
2026-01-14 08:35:42.14	2.61	12.13	-41.1	-55.9	3.8	1.49e+00	0	61	104	839909376	53	20099
2026-01-14 08:35:43.15	2.48	12.06	-40.3	-55.0	3.8	1.49e+00	0	61	104	839909376	52	19362
2026-01-14 08:35:44.16	2.36	11.98	-40.2	-55.0	3.8	1.49e+00	0	61	104	839909376	52	19264
2026-01-14 08:35:45.17	2.24	11.91	-40.2	-55.0	3.8	1.49e+00	0	61	104	839909376	52	19171
2026-01-14 08:35:46.17	2.12	11.84	-40.1	-54.9	3.8	1.49e+00	0	61	104	839909376	52	19091
2026-01-14 08:35:47.18	2.00	11.76	-40.1	-54.9	3.8	1.49e+00	0	61	104	839909376	52	19064
2026-01-14 08:35:48.19	1.88	11.69	-40.4	-55.2	3.8	1.49e+00	0	61	104	839909376	52	19646
2026-01-14 08:35:49.20	1.76	11.62	-40.8	-55.6	3.8	1.49e+00	0	61	104	839909376	52	20758
2026-01-14 08:35:50.21	1.65	11.54	-40.7	-55.5	3.8	1.49e+00	0	61	104	839909376	52	20467
2026-01-14 08:35:51.22	1.53	11.47	-40.0	-54.9	3.8	1.49e+00	0	61	104	839909376	52	18966
2026-01-14 08:35:52.23	1.41	11.40	-40.0	-54.8	3.8	1.49e+00	0	61	104	839909376	52	18911
2026-01-14 08:35:53.24	1.30	11.32	-40.1	-54.9	3.8	1.49e+00	0	61	104	839909376	51	20172
2026-01-14 08:35:54.25	1.18	11.25	-40.0	-54.9	3.8	1.49e+00	0	61	104	839909376	51	20098
2026-01-14 08:35:55.26	1.07	11.18	-40.0	-54.8	3.8	1.49e+00	0	61	104	839909376	51	20034
2026-01-14 08:35:56.27	0.95	11.11	-40.1	-54.9	3.8	1.49e+00	0	61	104	839909376	51	20293
2026-01-14 08:35:57.28	0.84	11.03	-40.6	-55.5	3.8	1.49e+00	0	61	104	839909376	51	21557
2026-01-14 08:35:58.29	0.72	10.96	-40.1	-54.9	3.8	1.49e+00	0	61	104	839909376	51	20179
2026-01-14 08:35:59.30	0.61	10.89	-40.2	-55.0	3.8	1.49e+00	0	61	104	839909376	51	20389
2026-01-14 08:36:00.30	0.50	10.82	-40.1	-54.9	3.8	1.49e+00	0	61	104	839909376	51	20199
2026-01-14 08:36:01.32	0.39	10.75	-40.1	-54.9	3.8	1.49e+00	0	61	104	839909376	51	20163
2026-01-14 08:36:02.32	0.28	10.67	-40.0	-54.9	3.8	1.49e+00	0	61	104	839909376	51	20076
2026-01-14 08:36:03.33	0.17	10.60	-39.9	-54.8	3.8	1.49e+00	0	61	104	839909376	51	20002
2026-01-14 08:36:04.34	0.06	10.53	-40.0	-54.9	3.8	1.49e+00	0	61	104	839909376	51	20197
2026-01-14 08:36:05.35	359.95	10.46	-40.3	-55.2	3.8	1.49e+00	0	61	104	839909376	51	20797
2026-01-14 08:36:06.36	359.84	10.39	-39.7	-54.9	3.8	1.49e+00	0	61	104	839909376	51	20112
2026-01-14 08:36:07.37	359.73	10.32	-40.2	-55.0	3.8	1.49e+00	0	61	104	839909376	51	20365
2026-01-14 08:36:08.38	359.62	10.25	-39.6	-54.8	3.8	1.49e+00	0	61	104	839909376	51	20038
2026-01-14 08:36:09.39	359.52	10.17	-40.2	-55.0	3.8	1.49e+00	0	61	104	839909376	51	20485
2026-01-14 08:36:10.39	359.41	10.10	-39.9	-54.9	3.8	1.49e+00	0	61	104	839909376	51	20291
2026-01-14 08:36:11.40	359.30	10.03	-39.5	-54.9	3.8	1.49e+00	0	61	104	839909376	51	20081
2026-01-14 08:36:12.41	359.20	9.96	-39.8	-54.9	3.8	1.49e+00	0	61	104	839909376	51	20203
2026-01-14 08:36:13.42	359.09	9.89	-39.5	-54.8	3.8	1.49e+00	0	61	104	839909376	50	21198
2026-01-14 08:36:14.43	358.99	9.82	-39.7	-54.8	3.8	1.49e+00	0	61	104	839909376	50	21148
2026-01-14 08:36:15.44	358.88	9.75	-39.6	-54.8	3.8	1.49e+00	0	61	104	839909376	50	21161
2026-01-14 08:36:16.45	358.78	9.68	-39.7	-54.8	3.8	1.49e+00	0	61	104	839909376	50	21052
2026-01-14 08:36:17.46	358.68	9.61	-39.7	-54.9	3.8	1.49e+00	0	61	104	839909376	50	21330
2026-01-14 08:36:18.47	358.58	9.54	-39.8	-54.8	3.8	1.49e+00	0	61	104	839909376	50	21143
2026-01-14 08:36:19.48	358.47	9.47	-39.8	-54.8	3.8	1.49e+00	0	61	104	839909376	50	21135
2026-01-14 08:36:20.48	358.37	9.40	-39.9	-54.8	3.8	1.49e+00	0	61	104	839909376	50	21223
2026-01-14 08:36:21.49	358.27	9.33	-39.7	-54.7	3.8	1.49e+00	0	61	104	839909376	50	20986
2026-01-14 08:36:22.51	358.17	9.26	-39.8	-54.8	3.8	1.49e+00	0	61	104	839909376	50	21021
2026-01-14 08:36:23.52	358.07	9.19	-39.7	-54.7	3.8	1.49e+00	0	61	104	839909376	50	21005
2026-01-14 08:36:24.52	357.97	9.12	-39.7	-54.7	3.8	1.49e+00	0	61	104	839909376	50	21014
2026-01-14 08:36:25.53	357.87	9.05	-39.8	-54.8	3.8	1.49e+00	0	61	104	839909376	50	21182
2026-01-14 08:36:26.54	357.77	8.98	-39.7	-54.8	3.8	1.49e+00	0	61	104	839909376	50	21105
2026-01-14 08:36:27.56	357.68	8.91	-39.7	-54.8	3.8	1.49e+00	0	61	104	839909376	50	21111
2026-01-14 08:36:28.56	357.58	8.84	-39.7	-54.8	3.8	1.49e+00	0	61	104	839909376	50	21062
2026-01-14 08:36:29.57	357.48	8.77	-39.5	-54.7	3.8	1.49e+00	0	61	104	839909376	50	20986
2026-01-14 08:36:30.58	357.39	8.71	-39.7	-54.8	3.8	1.49e+00	0	61	104	839909376	50	21064
2026-01-14 08:36:31.59	357.29	8.64	-39.7	-54.7	3.8	1.49e+00	0	61	104	839909376	50	20979
2026-01-14 08:36:32.60	357.19	8.57	-39.7	-54.8	3.8	1.49e+00	0	61	104	839909376	50	21027
2026-01-14 08:36:33.61	357.10	8.50	-39.7	-54.8	3.8	1.49e+00	0	61	104	839909376	50	21060
2026-01-14 08:36:34.62	357.00	8.43	-39.6	-54.8	3.8	1.49e+00	0	61	104	839909376	50	21023
2026-01-14 08:36:35.63	356.91	8.36	-39.8	-54.7	3.8	1.49e+00	0	61	104	839909376	50	20998
2026-01-14 08:36:36.64	356.82	8.29	-39.6	-54.7	3.8	1.49e+00	0	61	104	839909376	50	20986
2026-01-14 08:36:37.65	356.72	8.23	-39.8	-54.7	3.8	1.49e+00	0	61	104	839909376	50	20913
2026-01-14 08:36:38.66	356.63	8.16	-39.7	-54.7	3.8	1.49e+00	0	61	104	839909376	50	20958
2026-01-14 08:36:39.67	356.54	8.09	-39.7	-54.7	3.8	1.49e+00	0	61	104	839909376	50	20850
2026-01-14 08:36:40.68	356.45	8.02	-39.7	-54.7	3.8	1.49e+00	0	61	104	839909376	50	20838
2026-01-14 08:36:41.69	356.35	7.95	-39.8	-54.8	3.8	1.49e+00	0	61	104	839909376	50	21117
2026-01-14 08:36:42.70	356.26	7.89	-42.7	-57.3	3.8	1.49e+00	0	61	104	839909376	55	21205
2026-01-14 08:36:43.71	356.17	7.82	-44.7	-59.1	3.8	1.49e+00	0	61	104	839909376	59	20724
2026-01-14 08:36:44.72	356.08	7.75	-45.0	-59.6	3.8	1.49e+00	0	61	104	839909376	60	20676
2026-01-14 08:36:45.73	355.99	7.69	-45.2	-59.7	3.8	1.49e+00	0	62	104	839909376	60	20999
2026-01-14 08:36:46.74	355.90	7.62	-45.4	-60.0	3.8	1.49e+00	0	61	104	839909376	61	20341
2026-01-14 08:36:47.75	355.81	7.55	-45.4	-60.0	3.8	1.49e+00	0	61	104	839909376	61	20314
2026-01-14 08:36:48.77	355.72	7.48	-45.4	-60.0	3.8	1.49e+00	0	61	104	839909376	61	20499
2026-01-14 08:36:49.77	355.64	7.42	-45.4	-60.0	3.8	1.49e+00	0	61	104	839909376	61	20482
2026-01-14 08:36:50.79	355.55	7.35	-45.4	-60.0	3.8	1.49e+00	0	61	104	839909376	61	20468
2026-01-14 08:36:51.80	355.46	7.28	-45.4	-60.0	3.8	1.49e+00	0	61	104	839909376	61	20374
2026-01-14 08:36:52.81	355.38	7.22	-44.8	-59.9	3.7	1.49e+00	0	61	104	839909376	60	21437
2026-01-14 08:36:53.82	355.29	7.15	-45.4	-59.9	3.8	1.49e+00	0	61	104	839909376	61	20158
2026-01-14 08:36:54.83	355.20	7.08	-45.3	-59.9	3.8	1.49e+00	0	61	104	839909376	61	20099
2026-01-14 08:36:55.84	355.12	7.02	-45.4	-59.8	3.8	1.49e+00	0	61	104	839909376	61	20052
2026-01-14 08:36:56.85	355.03	6.95	-45.3	-59.8	3.8	1.49e+00	0	62	104	839909376	61	19999
2026-01-14 08:36:57.86	354.95	6.89	-45.2	-59.7	3.8	1.49e+00	0	61	104	839909376	61	19738
2026-01-14 08:36:58.87	354.86	6.82	-45.3	-59.7	3.8	1.49e+00	0	61	104	839909376	61	19822
2026-01-14 08:36:59.88	354.78	6.75	-45.3	-59.7	3.8	1.49e+00	0	61	104	839909376	61	19778
2026-01-14 08:37:00.89	354.70	6.69	-45.3	-59.7	3.8	1.49e+00	0	61	104	839909376	61	19774
2026-01-14 08:37:01.90	354.61	6.62	-45.3	-59.7	3.8	1.49e+00	0	61	104	839909376	61	19794
2026-01-14 08:37:02.91	354.53	6.56	-45.3	-59.7	3.8	1.49e+00	0	61	104	839909376	61	19665
2026-01-14 08:37:03.92	354.45	6.49	-45.2	-59.7	3.8	1.49e+00	0	61	104	839909376	61	19778
2026-01-14 08:37:04.93	354.36	6.43	-45.2	-59.7	3.8	1.49e+00	0	61	104	839909376	61	19733
2026-01-14 08:37:05.94	354.28	6.36	-45.1	-59.7	3.8	1.49e+00	0	61	104	839909376	61	19773
2026-01-14 08:37:06.95	354.20	6.30	-45.2	-59.7	3.8	1.49e+00	0	61	104	839909376	61	19771
2026-01-14 08:37:07.96	354.12	6.23	-45.3	-59.7	3.8	1.49e+00	0	61	104	839909376	61	19766
