passes_logs/2026/01/14/R2.0S_Moscow/R2.0S_Moscow__20260114_122315_FENGYUN_3D_rec.log

#Pass ID: 20260114_122315_FENGYUN 3D
#Satellite: FENGYUN 3D
#Configuration: FENGYUN 3D
#almurnet v.1.7.20251203
#Start time: 2026-01-14 12:23:16

#Version: 2.2.20231116
#Station: R2.0S_Moscow
#Location: 37.707566 lon 55.798166 lat
#TLE: 1 43010U 17072A   26013.31211337  .00000452  00000+0  23563-3 0  9990
#TLE: 2 43010  98.9934 345.1024 0002270 111.0315 249.1103 14.19696845423017

#Time	Az	El	Level	Level2	SNR	BER	BlckErr	Temp	State	Recorded	gain1	gain2
2026-01-14 12:23:16.25	172.86	2.04	-42.7	-54.3	3.8	8.46e-01	0	50	0	0	57	13299
2026-01-14 12:23:17.25	172.88	2.10	-42.7	-54.3	3.8	8.46e-01	0	50	104	0	57	13295
2026-01-14 12:23:18.26	172.90	2.16	-42.7	-54.3	3.8	8.46e-01	0	50	104	0	57	13364
2026-01-14 12:23:19.27	172.92	2.23	-42.7	-54.3	3.8	8.47e-01	0	50	104	0	57	13315
2026-01-14 12:23:20.29	172.94	2.29	-42.7	-54.3	3.8	8.46e-01	0	51	104	0	57	13325
2026-01-14 12:23:21.30	172.97	2.36	-42.7	-54.3	3.8	8.46e-01	0	51	104	0	57	13355
2026-01-14 12:23:22.31	172.99	2.42	-42.7	-54.3	3.8	8.46e-01	0	50	104	0	57	13286
2026-01-14 12:23:23.32	173.01	2.49	-42.7	-54.3	3.8	8.45e-01	0	51	104	0	57	13315
2026-01-14 12:23:24.33	173.04	2.55	-42.7	-54.3	3.8	8.47e-01	0	51	104	0	57	13330
2026-01-14 12:23:25.34	173.06	2.62	-42.7	-54.3	3.8	8.46e-01	0	51	104	0	57	13311
2026-01-14 12:23:26.35	173.08	2.69	-42.7	-54.3	3.8	8.46e-01	0	51	104	0	57	13304
2026-01-14 12:23:27.36	173.10	2.75	-42.7	-54.3	3.8	8.45e-01	0	51	104	0	57	13341
2026-01-14 12:23:28.37	173.13	2.82	-42.7	-54.3	3.8	8.46e-01	0	51	104	0	57	13311
2026-01-14 12:23:29.38	173.15	2.88	-42.7	-54.3	3.8	8.46e-01	0	51	104	0	57	13294
2026-01-14 12:23:30.39	173.17	2.95	-42.7	-54.3	3.8	8.46e-01	0	51	104	0	57	13338
2026-01-14 12:23:31.40	173.20	3.02	-42.7	-54.3	3.8	8.45e-01	0	51	104	0	57	13343
2026-01-14 12:23:32.40	173.22	3.08	-42.7	-54.3	3.8	8.46e-01	0	51	104	0	57	13296
2026-01-14 12:23:33.41	173.24	3.15	-42.7	-54.3	3.8	8.47e-01	0	52	104	0	57	13338
2026-01-14 12:23:34.42	173.27	3.22	-42.7	-54.3	3.8	8.46e-01	0	51	104	0	57	13371
2026-01-14 12:23:35.43	173.29	3.28	-42.7	-54.3	3.8	8.46e-01	0	52	104	0	57	13300
2026-01-14 12:23:36.44	173.32	3.35	-42.7	-54.3	3.8	8.46e-01	0	52	104	0	57	13270
2026-01-14 12:23:37.45	173.34	3.42	-42.7	-54.3	3.8	8.46e-01	0	52	104	0	57	13290
2026-01-14 12:23:38.46	173.36	3.49	-42.7	-54.3	3.8	8.46e-01	0	52	104	0	57	13327
2026-01-14 12:23:39.47	173.39	3.55	-42.7	-54.3	3.8	8.46e-01	0	52	104	0	57	13269
2026-01-14 12:23:40.48	173.41	3.62	-42.7	-54.3	3.8	8.45e-01	0	52	104	0	57	13299
2026-01-14 12:23:41.49	173.44	3.69	-42.7	-54.2	3.8	8.46e-01	0	52	104	0	57	13256
2026-01-14 12:23:42.49	173.46	3.76	-42.7	-54.3	3.8	8.46e-01	0	52	104	0	57	13286
2026-01-14 12:23:43.50	173.49	3.83	-42.7	-54.2	3.8	8.45e-01	0	52	104	0	57	13251
2026-01-14 12:23:44.51	173.51	3.89	-42.7	-54.2	3.8	8.46e-01	0	52	104	0	57	13211
2026-01-14 12:23:45.52	173.54	3.96	-42.7	-54.2	3.8	8.46e-01	0	52	104	0	57	13209
2026-01-14 12:23:46.53	173.56	4.03	-42.7	-54.2	3.8	8.46e-01	0	52	104	0	57	13225
2026-01-14 12:23:47.54	173.59	4.10	-42.7	-54.2	3.8	8.45e-01	0	52	104	0	57	13198
2026-01-14 12:23:48.55	173.61	4.17	-42.7	-54.2	3.8	8.45e-01	0	52	104	0	57	13141
2026-01-14 12:23:49.56	173.64	4.24	-42.7	-54.1	3.8	8.47e-01	0	53	104	0	57	13018
2026-01-14 12:23:50.57	173.66	4.31	-42.7	-54.0	3.8	8.46e-01	0	53	104	0	57	12932
2026-01-14 12:23:51.58	173.69	4.38	-42.7	-53.9	3.8	8.46e-01	0	52	104	0	57	12768
2026-01-14 12:23:52.59	173.71	4.45	-42.6	-53.8	3.8	8.47e-01	0	53	104	0	57	12644
2026-01-14 12:23:53.60	173.74	4.52	-42.6	-53.7	3.8	8.46e-01	0	53	104	0	57	12494
2026-01-14 12:23:54.61	173.76	4.59	-42.6	-53.7	3.8	8.45e-01	0	53	104	0	57	12408
2026-01-14 12:23:55.62	173.79	4.66	-42.6	-53.6	3.8	8.46e-01	0	53	104	0	57	12267
2026-01-14 12:23:56.62	173.82	4.73	-42.6	-53.5	3.8	8.47e-01	0	53	104	0	57	12201
2026-01-14 12:23:57.63	173.84	4.80	-42.6	-53.6	3.8	8.46e-01	0	53	104	0	57	12253
2026-01-14 12:23:58.64	173.87	4.87	-42.6	-53.6	3.8	8.47e-01	0	53	104	0	57	12365
2026-01-14 12:23:59.65	173.89	4.94	-42.6	-53.5	3.8	8.46e-01	0	53	104	0	57	12167
2026-01-14 12:24:00.66	173.92	5.01	-42.6	-53.4	3.8	8.48e-01	0	53	104	0	57	12063
2026-01-14 12:24:01.67	173.95	5.09	-42.6	-53.2	3.8	8.47e-01	0	53	104	0	57	11706
2026-01-14 12:24:02.68	173.97	5.16	-42.5	-52.8	3.8	8.46e-01	0	53	104	0	57	11218
2026-01-14 12:24:03.69	174.00	5.23	-42.5	-52.4	3.8	8.45e-01	0	53	104	0	56	11309
2026-01-14 12:24:04.70	174.03	5.30	-42.4	-52.1	3.8	8.45e-01	0	53	104	0	56	10924
2026-01-14 12:24:05.71	174.05	5.37	-42.4	-51.9	4.0	8.44e-01	0	53	104	0	56	10663
2026-01-14 12:24:06.72	174.08	5.45	-42.4	-51.8	3.8	8.43e-01	0	54	104	0	56	10562
2026-01-14 12:24:07.73	174.11	5.52	-42.4	-51.6	4.0	8.43e-01	0	54	104	0	56	10343
2026-01-14 12:24:08.74	174.14	5.59	-42.4	-51.5	4.0	8.44e-01	0	53	104	0	56	10281
2026-01-14 12:24:09.75	174.16	5.67	-42.4	-51.6	4.0	8.45e-01	0	53	104	0	56	10329
2026-01-14 12:24:10.76	174.19	5.74	-42.4	-51.7	4.0	8.45e-01	0	53	104	0	56	10469
2026-01-14 12:24:11.77	174.22	5.81	-42.4	-51.8	4.0	8.45e-01	0	54	104	0	56	10600
2026-01-14 12:24:12.78	174.25	5.89	-42.4	-52.0	3.8	8.43e-01	0	54	104	0	56	10811
2026-01-14 12:24:13.79	174.28	5.96	-42.4	-52.1	3.8	8.43e-01	0	54	104	0	56	10930
2026-01-14 12:24:14.80	174.30	6.03	-42.4	-52.0	3.8	8.46e-01	0	54	104	0	56	10892
2026-01-14 12:24:15.82	174.33	6.11	-42.4	-51.9	3.8	8.44e-01	0	54	104	0	56	10776
2026-01-14 12:24:16.82	174.36	6.18	-42.4	-51.6	4.0	8.44e-01	0	54	104	0	56	10393
2026-01-14 12:24:17.83	174.39	6.26	-42.4	-51.8	4.0	8.43e-01	0	54	104	0	56	10607
2026-01-14 12:24:18.85	174.42	6.33	-42.4	-51.7	4.0	8.44e-01	0	54	104	0	56	10419
2026-01-14 12:24:19.86	174.45	6.41	-42.3	-51.6	3.8	8.42e-01	0	54	104	0	56	10363
2026-01-14 12:24:20.87	174.48	6.48	-42.3	-51.5	4.0	8.42e-01	0	54	104	0	56	10241
2026-01-14 12:24:21.88	174.51	6.56	-42.3	-51.2	4.1	8.41e-01	0	54	0	0	56	9928
2026-01-14 12:24:22.89	174.53	6.64	-42.3	-51.1	4.1	8.40e-01	0	54	0	0	56	9737
2026-01-14 12:24:23.90	174.56	6.71	-42.2	-50.5	4.2	8.37e-01	0	54	0	0	56	9166
2026-01-14 12:24:24.91	174.59	6.79	-42.1	-50.0	4.4	8.28e-01	0	54	0	0	56	8590
2026-01-14 12:24:25.92	174.62	6.87	-42.0	-49.4	4.6	8.19e-01	0	54	0	0	56	8034
2026-01-14 12:24:26.93	174.65	6.94	-41.6	-48.5	5.0	7.82e-01	0	55	0	0	55	7679
2026-01-14 12:24:27.94	174.68	7.02	-41.4	-47.8	5.4	7.29e-01	0	55	0	0	54	7482
2026-01-14 12:24:28.95	174.71	7.10	-41.2	-46.9	6.1	3.87e-01	0	54	0	3145728	54	6754
2026-01-14 12:24:29.96	174.74	7.17	-40.9	-46.2	6.7	2.64e-01	0	54	0	9437184	53	6631
2026-01-14 12:24:30.98	174.77	7.25	-40.7	-45.6	7.2	1.66e-01	0	54	0	14680064	53	6173
2026-01-14 12:24:31.99	174.80	7.33	-40.5	-45.1	7.7	1.22e-01	0	55	0	19922944	53	5838
2026-01-14 12:24:33.00	174.84	7.41	-40.4	-44.8	8.0	8.20e-02	0	55	0	26214400	52	5950
2026-01-14 12:24:34.01	174.87	7.49	-40.2	-44.4	8.3	6.26e-02	0	55	0	31457280	52	5722
2026-01-14 12:24:35.02	174.90	7.57	-40.1	-44.2	8.6	4.54e-02	0	55	0	37748736	52	5541
2026-01-14 12:24:36.03	174.93	7.64	-40.0	-44.0	8.8	4.03e-02	0	55	0	42991616	52	5417
2026-01-14 12:24:37.04	174.96	7.72	-39.9	-43.8	9.1	2.97e-02	0	55	0	48234496	51	5608
2026-01-14 12:24:38.05	174.99	7.80	-39.9	-43.8	9.1	3.01e-02	0	55	0	54525952	51	5597
2026-01-14 12:24:39.06	175.02	7.88	-40.0	-43.8	9.0	3.03e-02	0	55	0	59768832	51	5635
2026-01-14 12:24:40.07	175.05	7.96	-39.9	-43.8	9.1	2.74e-02	0	55	0	66060288	51	5601
2026-01-14 12:24:41.09	175.09	8.04	-40.0	-43.8	9.0	3.02e-02	0	55	0	71303168	51	5654
2026-01-14 12:24:42.09	175.12	8.12	-40.6	-44.8	8.4	3.46e-02	0	55	0	77594624	52	5964
2026-01-14 12:24:43.11	175.15	8.20	-40.8	-45.0	8.4	7.92e-02	0	55	0	82837504	52	6129
2026-01-14 12:24:44.12	175.18	8.28	-41.7	-50.8	3.9	8.20e-01	0	55	104	85983232	54	10569
2026-01-14 12:24:45.12	175.22	8.36	-41.6	-48.5	4.9	7.49e-01	0	55	0	85983232	54	8132
2026-01-14 12:24:46.13	175.25	8.45	-40.3	-43.9	9.7	9.02e-03	0	55	0	90177536	51	5659
2026-01-14 12:24:47.14	175.28	8.53	-39.0	-42.1	11.0	3.53e-03	0	55	0	96468992	50	4901
2026-01-14 12:24:48.15	175.32	8.61	-39.2	-42.1	11.4	1.41e-03	0	55	0	101711872	50	4919
2026-01-14 12:24:49.16	175.35	8.69	-39.1	-41.9	11.7	9.27e-04	0	55	0	108003328	50	4793
2026-01-14 12:24:50.17	175.38	8.77	-39.1	-41.9	11.8	6.96e-04	0	55	0	113246208	50	4788
2026-01-14 12:24:51.18	175.42	8.86	-39.1	-41.8	11.8	7.28e-04	0	55	0	118489088	50	4759
2026-01-14 12:24:52.19	175.45	8.94	-39.1	-41.9	11.8	6.08e-04	0	55	0	124780544	50	4778
2026-01-14 12:24:53.20	175.48	9.02	-39.3	-42.1	11.7	8.10e-04	0	56	0	130023424	50	4884
2026-01-14 12:24:54.21	175.52	9.11	-39.3	-42.1	11.7	9.06e-04	0	55	0	136314880	50	4909
2026-01-14 12:24:55.22	175.55	9.19	-39.3	-42.2	11.6	8.73e-04	0	56	0	141557760	50	4934
2026-01-14 12:24:56.23	175.59	9.27	-39.2	-42.0	11.9	6.65e-04	0	56	0	146800640	50	4824
2026-01-14 12:24:57.24	175.62	9.36	-39.2	-41.9	12.0	5.54e-04	0	56	0	153092096	50	4792
2026-01-14 12:24:58.25	175.66	9.44	-39.2	-41.9	12.0	5.30e-04	0	56	0	158334976	50	4808
2026-01-14 12:24:59.26	175.69	9.53	-39.2	-41.9	12.1	3.95e-04	0	56	0	164626432	50	4788
2026-01-14 12:25:00.27	175.73	9.61	-39.2	-41.8	12.3	2.78e-04	0	56	0	169869312	50	4716
2026-01-14 12:25:01.28	175.76	9.70	-39.1	-41.7	12.4	2.06e-04	0	56	0	175112192	50	4665
2026-01-14 12:25:02.29	175.80	9.78	-39.2	-41.8	12.4	2.46e-04	0	56	0	181403648	50	4707
2026-01-14 12:25:03.30	175.83	9.87	-39.2	-41.8	12.4	2.31e-04	0	56	0	186646528	50	4716
2026-01-14 12:25:04.31	175.87	9.96	-39.2	-41.8	12.4	1.96e-04	0	56	0	192937984	50	4718
2026-01-14 12:25:05.32	175.91	10.04	-39.2	-41.8	12.4	2.48e-04	0	56	0	198180864	50	4729
2026-01-14 12:25:06.33	175.94	10.13	-39.2	-41.7	12.5	1.99e-04	0	56	0	204472320	50	4690
2026-01-14 12:25:07.34	175.98	10.22	-39.1	-41.6	12.6	1.57e-04	0	56	0	209715200	50	4647
2026-01-14 12:25:08.35	176.02	10.30	-39.2	-41.7	12.6	1.35e-04	0	56	0	214958080	50	4662
2026-01-14 12:25:09.36	176.05	10.39	-39.1	-41.6	12.6	1.44e-04	0	56	0	221249536	50	4651
2026-01-14 12:25:10.37	176.09	10.48	-39.2	-41.7	12.6	1.34e-04	0	56	0	226492416	50	4672
2026-01-14 12:25:11.38	176.13	10.57	-39.2	-41.7	12.6	9.84e-05	0	56	0	232783872	50	4692
2026-01-14 12:25:12.39	176.16	10.66	-39.2	-41.6	12.7	1.20e-04	0	56	0	238026752	50	4650
2026-01-14 12:25:13.40	176.20	10.75	-39.2	-41.7	12.7	1.06e-04	0	56	0	243269632	50	4672
2026-01-14 12:25:14.41	176.24	10.84	-39.2	-41.8	12.6	1.23e-04	0	56	0	249561088	50	4706
2026-01-14 12:25:15.42	176.28	10.93	-39.2	-41.7	12.6	1.28e-04	0	56	0	254803968	50	4705
2026-01-14 12:25:16.43	176.32	11.02	-39.2	-41.7	12.7	1.34e-04	0	56	0	261095424	50	4692
2026-01-14 12:25:17.44	176.36	11.11	-39.2	-41.7	12.7	1.23e-04	0	56	0	266338304	50	4686
2026-01-14 12:25:18.45	176.39	11.20	-39.2	-41.7	12.8	1.03e-04	0	56	0	271581184	50	4672
2026-01-14 12:25:19.46	176.43	11.29	-39.2	-41.7	12.7	1.21e-04	0	56	0	277872640	50	4703
2026-01-14 12:25:20.47	176.47	11.38	-39.3	-41.8	12.7	1.34e-04	0	56	0	283115520	50	4725
2026-01-14 12:25:21.48	176.51	11.47	-39.3	-41.8	12.7	1.23e-04	0	56	0	289406976	50	4722
2026-01-14 12:25:22.49	176.55	11.56	-39.3	-41.9	12.6	1.33e-04	0	56	0	294649856	50	4766
2026-01-14 12:25:23.50	176.59	11.65	-39.3	-41.8	12.6	1.53e-04	0	56	0	300941312	50	4744
2026-01-14 12:25:24.51	176.63	11.75	-39.2	-41.8	12.7	1.22e-04	0	56	0	306184192	50	4716
2026-01-14 12:25:25.52	176.67	11.84	-39.3	-41.8	12.7	1.19e-04	0	56	0	312475648	50	4725
2026-01-14 12:25:26.53	176.71	11.93	-39.3	-41.8	12.7	1.17e-04	0	57	0	317718528	50	4742
2026-01-14 12:25:27.54	176.76	12.03	-39.3	-41.8	12.7	1.20e-04	0	56	0	322961408	50	4724
2026-01-14 12:25:28.55	176.80	12.12	-39.2	-41.7	12.8	1.09e-04	0	57	0	329252864	50	4701
2026-01-14 12:25:29.56	176.84	12.21	-39.2	-41.7	12.8	1.11e-04	0	56	0	334495744	50	4694
2026-01-14 12:25:30.57	176.88	12.31	-39.2	-41.7	12.8	9.95e-05	0	56	0	340787200	50	4690
2026-01-14 12:25:31.58	176.92	12.40	-39.2	-41.7	12.8	1.03e-04	0	56	0	346030080	50	4675
2026-01-14 12:25:32.59	176.96	12.50	-39.2	-41.6	12.9	7.89e-05	0	56	0	351272960	50	4648
2026-01-14 12:25:33.60	177.01	12.60	-39.2	-41.7	12.9	7.20e-05	0	56	0	357564416	50	4661
2026-01-14 12:25:34.61	177.05	12.69	-39.2	-41.6	13.0	6.63e-05	0	56	0	362807296	50	4633
2026-01-14 12:25:35.62	177.09	12.79	-39.1	-41.6	13.0	7.09e-05	0	57	0	369098752	50	4600
2026-01-14 12:25:36.63	177.14	12.89	-39.2	-41.6	13.0	5.60e-05	0	56	0	374341632	50	4630
2026-01-14 12:25:37.64	177.18	12.98	-39.1	-41.5	13.1	3.89e-05	0	57	0	379584512	50	4563
2026-01-14 12:25:38.65	177.22	13.08	-39.1	-41.5	13.1	4.00e-05	0	56	0	385875968	50	4559
2026-01-14 12:25:39.66	177.27	13.18	-39.1	-41.5	13.1	5.49e-05	0	57	0	391118848	50	4570
2026-01-14 12:25:40.67	177.31	13.28	-39.0	-41.4	13.2	4.11e-05	0	57	0	397410304	50	4520
2026-01-14 12:25:41.68	177.36	13.38	-39.0	-41.4	13.2	3.77e-05	0	57	0	402653184	50	4516
2026-01-14 12:25:42.70	177.40	13.48	-39.0	-41.3	13.3	3.31e-05	0	57	0	408944640	50	4482
2026-01-14 12:25:43.70	177.45	13.57	-39.0	-41.4	13.2	3.54e-05	0	57	0	414187520	49	4773
2026-01-14 12:25:44.72	177.49	13.68	-38.9	-41.3	13.4	3.31e-05	0	57	0	420478976	49	4706
2026-01-14 12:25:45.73	177.54	13.78	-38.9	-41.2	13.4	3.31e-05	0	57	0	425721856	49	4694
2026-01-14 12:25:46.74	177.58	13.88	-38.9	-41.2	13.4	2.17e-05	0	57	0	430964736	49	4677
2026-01-14 12:25:47.75	177.63	13.98	-38.8	-41.1	13.5	3.20e-05	0	57	0	437256192	49	4620
2026-01-14 12:25:48.76	177.68	14.08	-38.8	-41.1	13.5	1.94e-05	0	57	0	442499072	49	4638
2026-01-14 12:25:49.77	177.72	14.18	-38.8	-41.1	13.6	1.14e-05	0	57	0	448790528	49	4603
2026-01-14 12:25:50.78	177.77	14.28	-38.7	-41.0	13.6	1.25e-05	0	57	0	454033408	49	4577
2026-01-14 12:25:51.79	177.82	14.39	-38.7	-41.0	13.7	1.25e-05	0	57	0	459276288	49	4555
2026-01-14 12:25:52.80	177.87	14.49	-38.7	-40.9	13.8	1.25e-05	0	57	0	465567744	49	4516
2026-01-14 12:25:53.81	177.92	14.59	-38.6	-40.8	13.9	5.70e-06	0	57	0	470810624	49	4478
2026-01-14 12:25:54.82	177.96	14.70	-38.5	-40.7	13.9	6.80e-06	0	57	0	477102080	49	4424
2026-01-14 12:25:55.83	178.01	14.80	-38.5	-40.7	14.0	6.80e-06	0	57	0	482344960	49	4424
2026-01-14 12:25:56.84	178.06	14.91	-38.5	-40.6	14.1	1.10e-06	0	57	0	487587840	48	4643
2026-01-14 12:25:57.85	178.11	15.01	-38.4	-40.5	14.2	2.20e-06	0	57	0	493879296	48	4596
2026-01-14 12:25:58.86	178.16	15.12	-38.4	-40.5	14.2	1.10e-06	0	57	0	499122176	48	4565
2026-01-14 12:25:59.87	178.21	15.22	-38.3	-40.3	14.4	2.20e-06	0	57	0	505413632	48	4471
2026-01-14 12:26:00.88	178.26	15.33	-38.2	-40.3	14.4	2.20e-06	0	57	0	510656512	48	4470
2026-01-14 12:26:01.89	178.31	15.44	-38.2	-40.2	14.5	1.10e-06	0	57	0	516947968	48	4416
2026-01-14 12:26:02.90	178.36	15.55	-38.1	-40.2	14.6	1.10e-06	0	57	0	522190848	48	4394
2026-01-14 12:26:03.91	178.42	15.65	-38.1	-40.1	14.7	1.10e-06	0	57	0	528482304	48	4348
2026-01-14 12:26:04.92	178.47	15.76	-38.1	-40.1	14.7	0.00e+00	0	57	0	533725184	48	4350
2026-01-14 12:26:05.93	178.52	15.87	-38.0	-40.0	14.8	1.10e-06	0	57	0	538968064	48	4309
2026-01-14 12:26:06.94	178.57	15.98	-38.0	-40.0	14.8	0.00e+00	0	57	0	545259520	48	4298
2026-01-14 12:26:07.95	178.63	16.09	-38.0	-40.0	14.8	1.10e-06	0	57	0	550502400	48	4294
2026-01-14 12:26:08.96	178.68	16.20	-37.9	-39.9	14.8	1.10e-06	0	57	0	556793856	47	4512
2026-01-14 12:26:09.97	178.73	16.31	-37.9	-39.9	14.8	0.00e+00	0	57	0	562036736	47	4494
2026-01-14 12:26:10.98	178.79	16.42	-37.9	-39.8	14.8	0.00e+00	0	57	0	567279616	47	4490
2026-01-14 12:26:11.99	178.84	16.54	-37.8	-39.8	14.9	0.00e+00	0	57	0	573571072	47	4462
2026-01-14 12:26:13.00	178.90	16.65	-37.9	-39.8	14.8	0.00e+00	0	57	0	578813952	47	4490
2026-01-14 12:26:14.01	178.95	16.76	-37.8	-39.8	14.9	0.00e+00	0	57	0	585105408	47	4456
2026-01-14 12:26:15.02	179.01	16.87	-37.8	-39.7	15.0	1.10e-06	0	58	0	590348288	47	4424
2026-01-14 12:26:16.03	179.06	16.99	-37.8	-39.7	15.0	0.00e+00	0	57	0	595591168	47	4423
2026-01-14 12:26:17.04	179.12	17.10	-37.7	-39.7	15.0	0.00e+00	0	57	0	601882624	47	4399
2026-01-14 12:26:18.05	179.18	17.22	-37.7	-39.6	15.0	0.00e+00	0	57	0	607125504	47	4390
2026-01-14 12:26:19.06	179.23	17.33	-37.7	-39.6	15.1	0.00e+00	0	57	0	613416960	47	4376
2026-01-14 12:26:20.07	179.29	17.45	-37.6	-39.5	15.1	0.00e+00	0	57	0	618659840	47	4337
2026-01-14 12:26:21.08	179.35	17.57	-37.6	-39.5	15.2	1.10e-06	0	58	0	624951296	47	4332
2026-01-14 12:26:22.09	179.41	17.68	-37.6	-39.6	15.1	0.00e+00	0	58	0	630194176	47	4354
2026-01-14 12:26:23.10	179.47	17.80	-37.6	-39.5	15.2	0.00e+00	0	57	0	635437056	47	4337
2026-01-14 12:26:24.11	179.53	17.92	-37.6	-39.5	15.2	0.00e+00	0	57	0	641728512	47	4324
2026-01-14 12:26:25.12	179.59	18.04	-37.6	-39.5	15.2	0.00e+00	0	58	0	646971392	47	4332
2026-01-14 12:26:26.13	179.65	18.16	-37.6	-39.5	15.2	0.00e+00	0	57	0	653262848	47	4329
2026-01-14 12:26:27.15	179.71	18.28	-37.6	-39.5	15.2	0.00e+00	0	58	0	658505728	47	4310
2026-01-14 12:26:28.16	179.77	18.40	-37.6	-39.5	15.2	0.00e+00	0	57	0	664797184	47	4327
2026-01-14 12:26:29.17	179.83	18.52	-37.6	-39.5	15.2	0.00e+00	0	58	0	670040064	47	4329
2026-01-14 12:26:30.17	179.89	18.64	-37.6	-39.6	15.2	1.10e-06	0	58	0	675282944	47	4344
2026-01-14 12:26:31.19	179.95	18.76	-37.6	-39.5	15.2	0.00e+00	0	58	0	681574400	47	4336
2026-01-14 12:26:32.19	180.02	18.88	-37.6	-39.5	15.2	0.00e+00	0	58	0	686817280	47	4326
2026-01-14 12:26:33.20	180.08	19.01	-37.6	-39.5	15.2	0.00e+00	0	58	0	693108736	47	4331
2026-01-14 12:26:34.22	180.14	19.13	-37.6	-39.5	15.2	0.00e+00	0	58	0	698351616	47	4334
2026-01-14 12:26:35.22	180.21	19.25	-37.5	-39.5	15.2	0.00e+00	0	58	0	703594496	47	4307
2026-01-14 12:26:36.24	180.27	19.38	-37.5	-39.5	15.3	0.00e+00	0	58	0	709885952	47	4294
2026-01-14 12:26:37.25	180.34	19.51	-37.5	-39.4	15.4	0.00e+00	0	58	0	715128832	47	4260
2026-01-14 12:26:38.26	180.41	19.63	-37.4	-39.3	15.5	0.00e+00	0	58	0	721420288	46	4462
2026-01-14 12:26:39.27	180.47	19.76	-37.4	-39.3	15.5	0.00e+00	0	58	0	726663168	46	4447
2026-01-14 12:26:40.27	180.54	19.89	-37.3	-39.2	15.5	0.00e+00	0	58	0	732954624	46	4426
2026-01-14 12:26:41.28	180.61	20.01	-37.3	-39.2	15.6	0.00e+00	0	57	0	738197504	46	4405
2026-01-14 12:26:42.30	180.68	20.14	-37.3	-39.2	15.6	0.00e+00	0	58	0	743440384	46	4423
2026-01-14 12:26:43.31	180.74	20.27	-37.3	-39.2	15.6	0.00e+00	0	58	0	749731840	46	4430
2026-01-14 12:26:44.32	180.81	20.40	-37.4	-39.2	15.5	0.00e+00	0	58	0	754974720	46	4434
2026-01-14 12:26:45.32	180.88	20.53	-37.3	-39.2	15.6	0.00e+00	0	58	0	761266176	46	4420
2026-01-14 12:26:46.33	180.95	20.66	-37.4	-39.2	15.5	0.00e+00	0	58	0	766509056	46	4435
2026-01-14 12:26:47.35	181.02	20.80	-37.3	-39.2	15.5	0.00e+00	0	58	0	771751936	46	4424
2026-01-14 12:26:48.35	181.09	20.93	-37.3	-39.1	15.6	0.00e+00	0	58	0	778043392	46	4386
2026-01-14 12:26:49.36	181.17	21.06	-37.3	-39.1	15.7	0.00e+00	0	57	0	783286272	46	4363
2026-01-14 12:26:50.37	181.24	21.19	-37.2	-39.0	15.8	0.00e+00	0	58	0	789577728	46	4307
2026-01-14 12:26:51.38	181.31	21.33	-37.1	-39.0	15.8	0.00e+00	0	58	0	794820608	46	4295
2026-01-14 12:26:52.39	181.39	21.46	-37.1	-38.9	15.9	0.00e+00	0	58	0	800063488	46	4260
2026-01-14 12:26:53.40	181.46	21.60	-37.1	-38.9	15.9	0.00e+00	0	58	0	806354944	46	4270
2026-01-14 12:26:54.41	181.54	21.74	-37.1	-38.9	15.9	0.00e+00	0	58	0	811597824	46	4270
2026-01-14 12:26:55.42	181.61	21.87	-37.1	-38.9	15.9	0.00e+00	0	58	0	817889280	46	4273
2026-01-14 12:26:56.43	181.69	22.01	-37.1	-38.9	15.9	0.00e+00	0	58	0	823132160	46	4262
2026-01-14 12:26:57.44	181.77	22.15	-37.1	-38.9	16.0	0.00e+00	0	58	0	829423616	46	4249
2026-01-14 12:26:58.45	181.84	22.29	-37.0	-38.8	16.0	0.00e+00	0	58	0	834666496	46	4233
2026-01-14 12:26:59.46	181.92	22.43	-37.0	-38.8	16.1	0.00e+00	0	58	0	840957952	46	4197
2026-01-14 12:27:00.47	182.00	22.57	-36.9	-38.7	16.1	0.00e+00	0	58	0	846200832	45	4412
2026-01-14 12:27:01.48	182.08	22.71	-36.9	-38.6	16.2	0.00e+00	0	58	0	851443712	45	4374
2026-01-14 12:27:02.49	182.16	22.85	-36.8	-38.6	16.3	0.00e+00	0	58	0	857735168	45	4346
2026-01-14 12:27:03.50	182.24	23.00	-36.8	-38.5	16.3	0.00e+00	0	58	0	862978048	45	4326
2026-01-14 12:27:04.51	182.32	23.14	-36.8	-38.5	16.3	0.00e+00	0	58	0	869269504	45	4309
2026-01-14 12:27:05.52	182.41	23.28	-36.7	-38.5	16.4	0.00e+00	0	58	0	874512384	45	4301
2026-01-14 12:27:06.53	182.49	23.43	-36.7	-38.5	16.4	0.00e+00	0	58	0	879755264	45	4298
2026-01-14 12:27:07.54	182.57	23.58	-36.7	-38.4	16.4	0.00e+00	0	58	0	886046720	45	4286
2026-01-14 12:27:08.55	182.66	23.72	-36.7	-38.4	16.4	0.00e+00	0	58	0	891289600	45	4286
2026-01-14 12:27:09.56	182.74	23.87	-36.8	-38.5	16.4	0.00e+00	0	58	0	897581056	45	4304
2026-01-14 12:27:10.57	182.83	24.02	-36.8	-38.5	16.4	0.00e+00	0	58	0	902823936	45	4306
2026-01-14 12:27:11.58	182.92	24.17	-36.7	-38.5	16.4	0.00e+00	0	58	0	908066816	45	4294
2026-01-14 12:27:12.58	183.01	24.31	-36.7	-38.4	16.4	0.00e+00	0	58	0	914358272	45	4283
2026-01-14 12:27:13.59	183.09	24.47	-36.7	-38.4	16.4	0.00e+00	0	58	0	919601152	45	4257
2026-01-14 12:27:14.60	183.18	24.62	-36.7	-38.4	16.5	0.00e+00	0	58	0	925892608	45	4256
2026-01-14 12:27:15.61	183.27	24.77	-36.7	-38.3	16.5	0.00e+00	0	58	0	931135488	45	4235
2026-01-14 12:27:16.62	183.37	24.92	-36.7	-38.4	16.5	0.00e+00	0	58	0	937426944	45	4254
2026-01-14 12:27:17.63	183.46	25.08	-36.7	-38.4	16.5	0.00e+00	0	58	0	942669824	45	4260
2026-01-14 12:27:18.64	183.55	25.23	-36.7	-38.4	16.4	0.00e+00	0	58	0	947912704	45	4275
2026-01-14 12:27:19.65	183.64	25.39	-36.8	-38.5	16.4	0.00e+00	0	58	0	954204160	45	4302
2026-01-14 12:27:20.66	183.74	25.54	-36.7	-38.4	16.5	0.00e+00	0	58	0	959447040	45	4283
2026-01-14 12:27:21.67	183.84	25.70	-36.7	-38.4	16.5	0.00e+00	0	58	0	965738496	45	4250
2026-01-14 12:27:22.68	183.93	25.86	-36.6	-38.3	16.6	0.00e+00	0	58	0	970981376	45	4233
2026-01-14 12:27:23.69	184.03	26.02	-36.6	-38.3	16.6	0.00e+00	0	58	0	976224256	45	4202
2026-01-14 12:27:24.70	184.13	26.18	-36.5	-38.2	16.7	0.00e+00	0	58	0	982515712	45	4172
2026-01-14 12:27:25.71	184.23	26.34	-36.6	-38.2	16.7	0.00e+00	0	58	0	987758592	45	4173
2026-01-14 12:27:26.72	184.33	26.50	-36.6	-38.2	16.7	0.00e+00	0	58	0	994050048	45	4179
2026-01-14 12:27:27.73	184.43	26.66	-36.6	-38.3	16.6	0.00e+00	0	58	0	999292928	45	4197
2026-01-14 12:27:28.74	184.53	26.82	-36.6	-38.3	16.6	0.00e+00	0	58	0	1004535808	45	4204
2026-01-14 12:27:29.75	184.64	26.99	-36.6	-38.3	16.6	0.00e+00	0	58	0	1010827264	45	4195
2026-01-14 12:27:30.76	184.74	27.15	-36.6	-38.2	16.7	0.00e+00	0	58	0	1016070144	45	4174
2026-01-14 12:27:31.77	184.85	27.32	-36.5	-38.2	16.7	0.00e+00	0	58	0	1022361600	45	4155
2026-01-14 12:27:32.78	184.95	27.49	-36.4	-38.1	16.8	0.00e+00	0	58	0	1027604480	44	4354
2026-01-14 12:27:33.79	185.06	27.65	-36.4	-38.0	16.9	0.00e+00	0	58	0	1033895936	44	4324
2026-01-14 12:27:34.80	185.17	27.82	-36.3	-38.0	17.0	0.00e+00	0	58	0	1039138816	44	4298
2026-01-14 12:27:35.81	185.28	27.99	-36.3	-38.0	16.9	0.00e+00	0	58	0	1045430272	44	4307
2026-01-14 12:27:36.82	185.39	28.16	-36.4	-38.1	16.9	0.00e+00	0	59	0	1050673152	44	4348
2026-01-14 12:27:37.83	185.50	28.34	-36.5	-38.1	16.8	0.00e+00	0	58	0	1055916032	44	4370
2026-01-14 12:27:38.84	185.62	28.51	-36.5	-38.1	16.8	0.00e+00	0	59	0	1062207488	44	4378
2026-01-14 12:27:39.85	185.73	28.68	-36.5	-38.2	16.8	0.00e+00	0	58	0	1067450368	44	4400
2026-01-14 12:27:40.86	185.85	28.86	-36.5	-38.2	16.7	0.00e+00	0	58	0	1073741824	44	4428
2026-01-14 12:27:41.87	185.96	29.03	-36.6	-38.3	16.6	0.00e+00	0	58	0	1078984704	44	4478
2026-01-14 12:27:42.88	186.08	29.21	-36.7	-38.4	16.5	0.00e+00	0	58	0	1084227584	44	4542
2026-01-14 12:27:43.89	186.20	29.38	-36.7	-38.4	16.5	0.00e+00	0	58	0	1090519040	44	4540
2026-01-14 12:27:44.90	186.32	29.56	-36.7	-38.4	16.5	0.00e+00	0	58	0	1095761920	44	4519
2026-01-14 12:27:45.91	186.44	29.74	-36.6	-38.3	16.6	0.00e+00	0	58	0	1102053376	44	4476
2026-01-14 12:27:46.92	186.57	29.92	-36.5	-38.2	16.7	0.00e+00	0	58	0	1107296256	44	4419
2026-01-14 12:27:47.93	186.69	30.10	-36.5	-38.2	16.8	0.00e+00	0	59	0	1112539136	44	4402
2026-01-14 12:27:48.94	186.82	30.29	-36.5	-38.2	16.8	0.00e+00	0	58	0	1118830592	44	4399
2026-01-14 12:27:49.95	186.95	30.47	-36.5	-38.2	16.7	0.00e+00	0	58	0	1124073472	44	4419
2026-01-14 12:27:50.96	187.07	30.65	-36.5	-38.2	16.8	0.00e+00	0	59	0	1130364928	44	4401
2026-01-14 12:27:51.98	187.21	30.84	-36.5	-38.1	16.8	0.00e+00	0	59	0	1135607808	44	4391
2026-01-14 12:27:52.99	187.34	31.03	-36.5	-38.1	16.8	0.00e+00	0	58	0	1141899264	44	4388
2026-01-14 12:27:54.00	187.47	31.22	-36.4	-38.1	16.9	0.00e+00	0	58	0	1147142144	44	4354
2026-01-14 12:27:55.01	187.61	31.40	-36.4	-38.1	16.9	0.00e+00	0	58	0	1153433600	44	4347
2026-01-14 12:27:56.02	187.74	31.59	-36.4	-38.1	16.9	0.00e+00	0	58	0	1158676480	44	4343
2026-01-14 12:27:57.03	187.88	31.78	-36.4	-38.0	16.9	0.00e+00	0	58	0	1163919360	44	4332
2026-01-14 12:27:58.04	188.02	31.98	-36.3	-37.9	17.0	0.00e+00	0	59	0	1170210816	44	4288
2026-01-14 12:27:59.05	188.16	32.17	-36.3	-37.9	17.0	0.00e+00	0	59	0	1175453696	44	4281
2026-01-14 12:28:00.06	188.30	32.36	-36.2	-37.9	17.1	0.00e+00	0	58	0	1181745152	44	4243
2026-01-14 12:28:01.07	188.45	32.56	-36.2	-37.8	17.2	0.00e+00	0	58	0	1186988032	44	4203
2026-01-14 12:28:02.08	188.59	32.75	-36.1	-37.7	17.2	0.00e+00	0	58	0	1192230912	44	4181
2026-01-14 12:28:03.09	188.74	32.95	-36.0	-37.5	17.4	0.00e+00	0	58	0	1198522368	44	4095
2026-01-14 12:28:04.10	188.89	33.15	-35.8	-37.3	17.4	0.00e+00	0	59	0	1203765248	43	4235
2026-01-14 12:28:05.11	189.04	33.35	-35.8	-37.4	17.4	0.00e+00	0	58	0	1210056704	43	4257
2026-01-14 12:28:06.12	189.20	33.55	-36.0	-37.5	17.3	0.00e+00	0	58	0	1215299584	43	4329
2026-01-14 12:28:07.13	189.35	33.75	-36.1	-37.7	17.1	0.00e+00	0	58	0	1220542464	43	4417
2026-01-14 12:28:08.14	189.51	33.95	-36.2	-37.8	17.0	0.00e+00	0	58	0	1226833920	43	4473
2026-01-14 12:28:09.15	189.67	34.16	-36.1	-37.8	17.1	0.00e+00	0	59	0	1232076800	43	4443
2026-01-14 12:28:10.17	189.83	34.36	-36.0	-37.7	17.2	0.00e+00	0	58	0	1238368256	43	4398
2026-01-14 12:28:11.18	189.99	34.57	-35.9	-37.5	17.3	0.00e+00	0	59	0	1243611136	43	4320
2026-01-14 12:28:12.19	190.16	34.78	-35.9	-37.4	17.4	0.00e+00	0	58	0	1249902592	43	4269
2026-01-14 12:28:13.20	190.33	34.99	-35.8	-37.4	17.4	0.00e+00	0	59	0	1255145472	43	4257
2026-01-14 12:28:14.21	190.49	35.19	-35.8	-37.4	17.4	0.00e+00	0	58	0	1261436928	43	4258
2026-01-14 12:28:15.22	190.67	35.40	-35.8	-37.4	17.4	0.00e+00	0	59	0	1266679808	43	4253
2026-01-14 12:28:16.23	190.84	35.62	-35.7	-37.3	17.5	0.00e+00	0	59	0	1271922688	43	4201
2026-01-14 12:28:17.24	191.02	35.83	-35.7	-37.2	17.6	0.00e+00	0	58	0	1278214144	43	4175
2026-01-14 12:28:18.25	191.19	36.04	-35.8	-37.3	17.5	0.00e+00	0	59	0	1283457024	43	4225
2026-01-14 12:28:19.26	191.37	36.26	-35.7	-37.3	17.5	0.00e+00	0	59	0	1289748480	43	4208
2026-01-14 12:28:20.27	191.56	36.47	-35.7	-37.3	17.5	0.00e+00	0	58	0	1294991360	43	4211
2026-01-14 12:28:21.28	191.74	36.69	-35.7	-37.3	17.6	0.00e+00	0	59	0	1300234240	43	4201
2026-01-14 12:28:22.29	191.93	36.91	-35.7	-37.3	17.5	0.00e+00	0	58	0	1306525696	43	4209
2026-01-14 12:28:23.30	192.12	37.13	-35.8	-37.4	17.5	0.00e+00	0	59	0	1311768576	43	4251
2026-01-14 12:28:24.31	192.31	37.35	-35.9	-37.5	17.3	0.00e+00	0	59	0	1318060032	43	4323
2026-01-14 12:28:25.32	192.51	37.57	-36.0	-37.5	17.3	0.00e+00	0	59	0	1323302912	43	4340
2026-01-14 12:28:26.33	192.70	37.79	-35.9	-37.5	17.4	0.00e+00	0	59	0	1328545792	43	4297
2026-01-14 12:28:27.34	192.90	38.02	-35.8	-37.3	17.5	0.00e+00	0	59	0	1334837248	43	4226
2026-01-14 12:28:28.35	193.11	38.24	-35.8	-37.3	17.5	0.00e+00	0	59	0	1340080128	43	4229
2026-01-14 12:28:29.36	193.31	38.47	-35.8	-37.3	17.5	0.00e+00	0	59	0	1346371584	43	4227
2026-01-14 12:28:30.37	193.52	38.70	-35.7	-37.2	17.6	0.00e+00	0	59	0	1351614464	43	4189
2026-01-14 12:28:31.38	193.73	38.92	-35.7	-37.2	17.7	0.00e+00	0	59	0	1357905920	43	4162
2026-01-14 12:28:32.39	193.95	39.15	-35.6	-37.1	17.7	0.00e+00	0	59	0	1363148800	43	4145
2026-01-14 12:28:33.40	194.16	39.38	-35.8	-37.3	17.6	0.00e+00	0	58	0	1368391680	43	4206
2026-01-14 12:28:34.41	194.38	39.61	-35.9	-37.4	17.5	0.00e+00	0	59	0	1374683136	43	4276
2026-01-14 12:28:35.42	194.61	39.85	-36.0	-37.6	17.3	0.00e+00	0	59	0	1379926016	43	4348
2026-01-14 12:28:36.43	194.83	40.08	-36.0	-37.6	17.3	0.00e+00	0	59	0	1386217472	43	4360
2026-01-14 12:28:37.44	195.06	40.32	-35.9	-37.5	17.4	0.00e+00	0	59	0	1391460352	43	4313
2026-01-14 12:28:38.45	195.30	40.55	-36.0	-37.5	17.4	0.00e+00	0	59	0	1396703232	43	4335
2026-01-14 12:28:39.46	195.53	40.79	-36.1	-37.6	17.3	0.00e+00	0	58	0	1402994688	43	4379
2026-01-14 12:28:40.47	195.77	41.03	-36.0	-37.5	17.4	0.00e+00	0	59	0	1408237568	43	4330
2026-01-14 12:28:41.48	196.02	41.27	-35.9	-37.4	17.5	0.00e+00	0	59	0	1414529024	43	4276
2026-01-14 12:28:42.49	196.26	41.51	-36.0	-37.5	17.4	0.00e+00	0	59	0	1419771904	43	4318
2026-01-14 12:28:43.50	196.52	41.75	-36.1	-37.7	17.3	0.00e+00	0	59	0	1425014784	43	4397
2026-01-14 12:28:44.51	196.77	41.99	-36.3	-37.8	17.1	0.00e+00	0	59	0	1431306240	43	4491
2026-01-14 12:28:45.52	197.03	42.23	-36.4	-38.0	16.9	0.00e+00	0	59	0	1436549120	43	4577
2026-01-14 12:28:46.53	197.29	42.47	-36.3	-38.0	16.9	0.00e+00	0	59	0	1442840576	43	4555
2026-01-14 12:28:47.54	197.56	42.72	-36.3	-37.9	17.0	0.00e+00	0	59	0	1448083456	43	4509
2026-01-14 12:28:48.55	197.83	42.96	-36.3	-37.9	17.0	0.00e+00	0	59	0	1454374912	43	4538
2026-01-14 12:28:49.56	198.10	43.21	-36.3	-37.9	17.1	0.00e+00	0	59	0	1459617792	43	4506
2026-01-14 12:28:50.57	198.38	43.46	-36.2	-37.8	17.1	0.00e+00	0	59	0	1465909248	43	4460
2026-01-14 12:28:51.59	198.66	43.71	-36.2	-37.8	17.2	0.00e+00	0	59	0	1471152128	43	4448
2026-01-14 12:28:52.59	198.95	43.96	-36.1	-37.7	17.2	0.00e+00	0	59	0	1476395008	43	4432
2026-01-14 12:28:53.60	199.24	44.21	-36.1	-37.7	17.2	0.00e+00	0	59	0	1482686464	43	4406
2026-01-14 12:28:54.61	199.54	44.46	-36.2	-37.7	17.2	0.00e+00	0	59	0	1487929344	43	4439
2026-01-14 12:28:55.62	199.84	44.71	-36.2	-37.8	17.1	0.00e+00	0	59	0	1494220800	43	4472
2026-01-14 12:28:56.63	200.14	44.96	-36.2	-37.8	17.1	0.00e+00	0	59	0	1499463680	43	4478
2026-01-14 12:28:57.64	200.45	45.21	-36.2	-37.8	17.2	0.00e+00	0	59	0	1504706560	43	4451
2026-01-14 12:28:58.66	200.77	45.47	-36.2	-37.8	17.2	0.00e+00	0	59	0	1510998016	43	4450
2026-01-14 12:28:59.66	201.09	45.72	-36.2	-37.7	17.2	0.00e+00	0	59	0	1516240896	43	4429
2026-01-14 12:29:00.67	201.41	45.98	-36.2	-37.7	17.3	0.00e+00	0	59	0	1522532352	43	4435
2026-01-14 12:29:01.68	201.74	46.23	-36.2	-37.7	17.3	0.00e+00	0	59	0	1527775232	43	4441
2026-01-14 12:29:02.69	202.08	46.49	-36.2	-37.8	17.2	0.00e+00	0	59	0	1533018112	43	4470
2026-01-14 12:29:03.70	202.42	46.74	-36.3	-37.9	17.1	0.00e+00	0	59	0	1539309568	43	4520
2026-01-14 12:29:04.71	202.77	47.00	-36.3	-37.8	17.1	0.00e+00	0	59	0	1544552448	43	4482
2026-01-14 12:29:05.72	203.12	47.26	-36.3	-37.8	17.1	0.00e+00	0	59	0	1550843904	43	4491
2026-01-14 12:29:06.73	203.48	47.52	-36.4	-38.0	17.0	0.00e+00	0	59	0	1556086784	43	4588
2026-01-14 12:29:07.74	203.84	47.78	-36.9	-38.6	16.5	0.00e+00	0	59	0	1562378240	44	4624
2026-01-14 12:29:08.76	204.22	48.04	-37.0	-38.8	16.4	0.00e+00	0	59	0	1567621120	44	4727
2026-01-14 12:29:09.77	204.59	48.30	-37.0	-38.6	16.5	0.00e+00	0	59	0	1573912576	44	4647
2026-01-14 12:29:10.77	204.97	48.55	-36.7	-38.3	16.9	0.00e+00	0	59	0	1579155456	44	4472
2026-01-14 12:29:11.79	205.36	48.81	-36.5	-38.1	17.1	0.00e+00	0	59	0	1584398336	44	4379
2026-01-14 12:29:12.79	205.76	49.07	-36.6	-38.2	17.0	0.00e+00	0	59	0	1590689792	44	4416
2026-01-14 12:29:13.81	206.16	49.33	-36.7	-38.3	16.8	0.00e+00	0	59	0	1595932672	44	4490
2026-01-14 12:29:14.81	206.57	49.59	-36.8	-38.5	16.7	0.00e+00	0	59	0	1602224128	44	4570
2026-01-14 12:29:15.83	206.99	49.85	-36.7	-38.4	16.7	0.00e+00	0	59	0	1607467008	44	4534
2026-01-14 12:29:16.84	207.41	50.11	-36.9	-38.6	16.6	0.00e+00	0	59	0	1612709888	44	4601
2026-01-14 12:29:17.85	207.84	50.37	-36.8	-38.4	16.8	0.00e+00	0	59	0	1619001344	44	4515
2026-01-14 12:29:18.86	208.28	50.63	-36.7	-38.3	16.9	0.00e+00	0	59	0	1624244224	44	4457
2026-01-14 12:29:19.87	208.73	50.89	-36.9	-38.5	16.7	0.00e+00	0	59	0	1630535680	44	4575
2026-01-14 12:29:20.88	209.18	51.15	-37.1	-38.9	16.3	0.00e+00	0	59	0	1635778560	44	4770
2026-01-14 12:29:21.89	209.64	51.40	-37.0	-38.7	16.4	0.00e+00	0	59	0	1641021440	44	4699
2026-01-14 12:29:22.90	210.11	51.66	-36.9	-38.6	16.6	0.00e+00	0	59	0	1647312896	44	4620
2026-01-14 12:29:23.91	210.58	51.92	-36.8	-38.4	16.8	0.00e+00	0	59	0	1652555776	44	4515
2026-01-14 12:29:24.92	211.07	52.17	-36.9	-38.5	16.7	0.00e+00	0	59	0	1658847232	44	4583
2026-01-14 12:29:25.93	211.56	52.43	-37.0	-38.7	16.5	0.00e+00	0	59	0	1664090112	44	4677
2026-01-14 12:29:26.95	212.07	52.68	-37.2	-38.9	16.3	0.00e+00	0	59	0	1670381568	44	4767
2026-01-14 12:29:27.96	212.58	52.94	-37.2	-39.0	16.2	0.00e+00	0	59	0	1675624448	45	4547
2026-01-14 12:29:28.97	213.10	53.19	-37.3	-39.0	16.1	0.00e+00	0	59	0	1681915904	45	4570
2026-01-14 12:29:29.97	213.62	53.44	-37.2	-38.9	16.2	0.00e+00	0	59	0	1687158784	45	4525
2026-01-14 12:29:30.98	214.16	53.69	-37.1	-38.8	16.4	0.00e+00	0	59	0	1692401664	45	4447
2026-01-14 12:29:31.99	214.71	53.94	-37.1	-38.8	16.3	0.00e+00	0	59	0	1698693120	45	4468
2026-01-14 12:29:33.00	215.26	54.18	-37.2	-38.9	16.2	0.00e+00	0	59	0	1703936000	45	4543
2026-01-14 12:29:34.01	215.83	54.43	-37.3	-39.1	16.1	0.00e+00	0	59	0	1710227456	45	4618
2026-01-14 12:29:35.02	216.40	54.67	-37.1	-38.8	16.3	0.00e+00	0	59	0	1715470336	45	4491
2026-01-14 12:29:36.03	216.99	54.92	-37.0	-38.7	16.5	0.00e+00	0	59	0	1720713216	45	4415
2026-01-14 12:29:37.04	217.58	55.16	-37.0	-38.7	16.4	0.00e+00	0	59	0	1727004672	45	4426
2026-01-14 12:29:38.05	218.19	55.39	-37.3	-39.0	16.1	0.00e+00	0	59	0	1732247552	45	4564
2026-01-14 12:29:39.06	218.80	55.63	-37.4	-39.2	16.0	0.00e+00	0	59	0	1738539008	45	4661
2026-01-14 12:29:40.07	219.43	55.86	-37.1	-39.1	16.0	0.00e+00	0	59	0	1743781888	45	4613
2026-01-14 12:29:41.08	220.06	56.10	-37.1	-38.8	16.3	2.20e-06	0	59	0	1749024768	45	4475
2026-01-14 12:29:42.09	220.71	56.33	-37.0	-38.6	16.5	0.00e+00	0	59	0	1755316224	45	4375
2026-01-14 12:29:43.10	221.37	56.55	-37.1	-38.7	16.4	0.00e+00	0	59	0	1760559104	45	4417
2026-01-14 12:29:44.11	222.03	56.78	-37.1	-38.8	16.3	0.00e+00	0	59	0	1766850560	45	4472
2026-01-14 12:29:45.12	222.71	57.00	-37.2	-38.9	16.3	0.00e+00	0	59	0	1772093440	45	4518
2026-01-14 12:29:46.13	223.40	57.21	-37.2	-38.9	16.2	0.00e+00	0	59	0	1778384896	45	4531
2026-01-14 12:29:47.14	224.10	57.43	-37.0	-38.7	16.4	0.00e+00	0	59	0	1783627776	45	4416
2026-01-14 12:29:48.15	224.81	57.64	-36.9	-38.5	16.7	0.00e+00	0	59	0	1788870656	45	4303
2026-01-14 12:29:49.16	225.54	57.85	-36.6	-38.2	17.0	0.00e+00	0	59	0	1795162112	45	4153
2026-01-14 12:29:50.17	226.27	58.05	-36.8	-38.5	16.7	0.00e+00	0	59	0	1800404992	45	4300
2026-01-14 12:29:51.18	227.01	58.25	-37.0	-38.7	16.4	0.00e+00	0	59	0	1806696448	45	4435
2026-01-14 12:29:52.19	227.77	58.45	-36.8	-38.5	16.6	0.00e+00	0	59	0	1811939328	45	4307
2026-01-14 12:29:53.20	228.53	58.64	-36.6	-38.2	16.9	0.00e+00	0	59	0	1817182208	45	4170
2026-01-14 12:29:54.20	229.30	58.83	-36.5	-38.0	17.1	0.00e+00	0	59	0	1823473664	44	4322
2026-01-14 12:29:55.22	230.10	59.02	-36.6	-38.2	17.0	0.00e+00	0	59	0	1828716544	44	4404
2026-01-14 12:29:56.23	230.90	59.20	-36.6	-38.2	16.9	0.00e+00	0	59	0	1835008000	44	4417
2026-01-14 12:29:57.24	231.71	59.37	-36.7	-38.3	16.8	0.00e+00	0	59	0	1840250880	44	4472
2026-01-14 12:29:58.25	232.53	59.54	-36.5	-38.2	16.9	0.00e+00	0	59	0	1845493760	44	4397
2026-01-14 12:29:59.26	233.36	59.71	-36.5	-38.1	17.0	0.00e+00	0	59	0	1851785216	44	4347
2026-01-14 12:30:00.26	234.20	59.87	-36.5	-38.1	16.9	0.00e+00	0	59	0	1857028096	44	4375
2026-01-14 12:30:01.27	235.05	60.03	-36.3	-37.8	17.3	0.00e+00	0	59	0	1863319552	44	4226
2026-01-14 12:30:02.28	235.91	60.18	-36.3	-37.8	17.3	0.00e+00	0	59	0	1868562432	44	4217
2026-01-14 12:30:03.29	236.79	60.32	-36.4	-38.0	17.0	0.00e+00	0	59	0	1874853888	44	4332
2026-01-14 12:30:04.30	237.67	60.46	-36.2	-37.8	17.3	0.00e+00	0	59	0	1880096768	44	4207
2026-01-14 12:30:05.31	238.56	60.59	-36.1	-37.6	17.5	0.00e+00	0	59	0	1886388224	44	4119
2026-01-14 12:30:06.33	239.47	60.72	-36.5	-38.1	17.0	0.00e+00	0	59	0	1891631104	44	4354
2026-01-14 12:30:07.34	240.38	60.84	-36.5	-38.2	16.9	0.00e+00	0	59	0	1896873984	44	4394
2026-01-14 12:30:08.35	241.30	60.96	-36.2	-37.7	17.3	0.00e+00	0	59	0	1903165440	44	4190
2026-01-14 12:30:09.36	242.22	61.07	-36.1	-37.6	17.5	0.00e+00	0	59	0	1908408320	44	4116
2026-01-14 12:30:10.36	243.15	61.17	-36.2	-37.7	17.3	0.00e+00	0	59	0	1914699776	44	4187
2026-01-14 12:30:11.37	244.09	61.27	-36.3	-37.9	17.1	0.00e+00	0	59	0	1919942656	44	4263
2026-01-14 12:30:12.38	245.04	61.36	-36.2	-37.7	17.3	0.00e+00	0	59	0	1925185536	44	4190
2026-01-14 12:30:13.39	245.99	61.44	-36.0	-37.5	17.5	0.00e+00	0	59	0	1931476992	44	4080
2026-01-14 12:30:14.40	246.96	61.52	-35.9	-37.5	17.5	0.00e+00	0	59	0	1936719872	43	4302
2026-01-14 12:30:15.41	247.92	61.59	-35.8	-37.4	17.5	0.00e+00	0	59	0	1943011328	43	4248
2026-01-14 12:30:16.42	248.89	61.65	-35.8	-37.3	17.6	0.00e+00	0	59	0	1948254208	43	4201
2026-01-14 12:30:17.43	249.87	61.70	-36.1	-37.6	17.3	0.00e+00	0	59	0	1953497088	43	4382
2026-01-14 12:30:18.44	250.85	61.75	-36.1	-37.7	17.1	3.40e-06	0	59	0	1959788544	43	4412
2026-01-14 12:30:19.45	251.84	61.79	-35.9	-37.5	17.4	0.00e+00	0	59	0	1965031424	43	4298
2026-01-14 12:30:20.46	252.82	61.83	-35.8	-37.4	17.5	0.00e+00	0	59	0	1971322880	43	4250
2026-01-14 12:30:21.47	253.81	61.86	-35.9	-37.4	17.5	0.00e+00	0	59	0	1976565760	43	4255
2026-01-14 12:30:22.48	254.80	61.87	-35.9	-37.4	17.5	0.00e+00	0	59	0	1982857216	43	4262
2026-01-14 12:30:23.49	255.80	61.89	-35.9	-37.4	17.5	0.00e+00	0	59	0	1988100096	43	4252
2026-01-14 12:30:24.50	256.79	61.89	-35.8	-37.3	17.6	0.00e+00	0	59	0	1993342976	43	4197
2026-01-14 12:30:25.51	257.78	61.89	-35.6	-37.0	17.9	0.00e+00	0	59	0	1999634432	43	4081
2026-01-14 12:30:26.52	258.78	61.88	-35.7	-37.1	17.7	0.00e+00	0	59	0	2004877312	43	4133
2026-01-14 12:30:27.53	259.77	61.86	-36.0	-37.6	17.3	0.00e+00	0	59	0	2011168768	43	4356
2026-01-14 12:30:28.54	260.76	61.84	-35.8	-37.3	17.6	0.00e+00	0	59	0	2016411648	43	4224
2026-01-14 12:30:29.55	261.75	61.81	-35.8	-37.3	17.5	0.00e+00	0	59	0	2021654528	43	4241
2026-01-14 12:30:30.56	262.73	61.77	-36.0	-37.6	17.3	0.00e+00	0	59	0	2027945984	43	4348
2026-01-14 12:30:31.58	263.72	61.72	-35.7	-37.2	17.6	0.00e+00	0	59	0	2033188864	43	4190
2026-01-14 12:30:32.59	264.70	61.67	-35.8	-37.3	17.6	0.00e+00	0	59	0	2039480320	43	4208
2026-01-14 12:30:33.59	265.66	61.61	-35.8	-37.3	17.6	0.00e+00	0	59	0	2044723200	43	4216
2026-01-14 12:30:34.60	266.63	61.54	-35.9	-37.4	17.5	0.00e+00	0	59	0	2049966080	43	4257
2026-01-14 12:30:35.61	267.59	61.47	-35.9	-37.5	17.4	0.00e+00	0	59	0	2056257536	43	4303
2026-01-14 12:30:36.62	268.55	61.39	-36.0	-37.5	17.4	0.00e+00	0	59	0	2061500416	43	4320
2026-01-14 12:30:37.63	269.50	61.30	-35.9	-37.5	17.4	0.00e+00	0	59	0	2067791872	43	4303
2026-01-14 12:30:38.64	270.45	61.21	-35.9	-37.4	17.5	0.00e+00	0	59	0	2073034752	43	4266
2026-01-14 12:30:39.65	271.38	61.11	-35.9	-37.5	17.4	0.00e+00	0	59	0	2079326208	43	4314
2026-01-14 12:30:40.66	272.31	61.00	-35.8	-37.2	17.7	0.00e+00	0	59	0	2084569088	43	4186
2026-01-14 12:30:41.67	273.23	60.89	-35.8	-37.2	17.7	0.00e+00	0	59	0	2090860544	43	4185
2026-01-14 12:30:42.68	274.14	60.77	-36.2	-37.8	17.1	0.00e+00	0	59	0	2096103424	43	4465
2026-01-14 12:30:43.69	275.05	60.64	-36.5	-38.2	16.8	0.00e+00	0	59	0	2101346304	43	4658
2026-01-14 12:30:44.70	275.94	60.51	-36.3	-37.9	17.0	0.00e+00	0	59	0	2107637760	43	4495
2026-01-14 12:30:45.71	276.82	60.37	-36.1	-37.6	17.3	0.00e+00	0	59	0	2112880640	43	4372
2026-01-14 12:30:46.72	277.70	60.23	-36.3	-37.9	17.0	0.00e+00	0	59	0	2119172096	43	4530
2026-01-14 12:30:47.73	278.57	60.08	-36.4	-38.0	16.9	0.00e+00	0	59	0	2124414976	43	4594
2026-01-14 12:30:48.74	279.42	59.93	-36.3	-37.8	17.1	0.00e+00	0	59	0	2129657856	43	4475
2026-01-14 12:30:49.75	280.27	59.77	-36.2	-37.8	17.2	0.00e+00	0	59	0	2135949312	43	4464
2026-01-14 12:30:50.76	281.10	59.61	-36.4	-38.0	16.9	0.00e+00	0	59	0	2141192192	43	4585
2026-01-14 12:30:51.77	281.92	59.44	-36.6	-38.2	16.8	0.00e+00	0	59	0	2147483648	43	4672
2026-01-14 12:30:52.78	282.74	59.26	-36.7	-38.4	16.6	0.00e+00	0	59	0	2152726528	43	4769
2026-01-14 12:30:53.79	283.54	59.09	-36.8	-38.4	16.7	0.00e+00	0	59	0	2157969408	44	4520
2026-01-14 12:30:54.80	284.33	58.90	-36.7	-38.3	16.8	0.00e+00	0	59	0	2164260864	44	4468
2026-01-14 12:30:55.81	285.11	58.72	-36.7	-38.4	16.7	0.00e+00	0	59	0	2169503744	44	4503
2026-01-14 12:30:56.82	285.88	58.53	-36.7	-38.3	16.8	0.00e+00	0	59	0	2175795200	44	4468
2026-01-14 12:30:57.83	286.64	58.33	-36.4	-38.0	17.0	0.00e+00	0	59	0	2181038080	44	4321
2026-01-14 12:30:58.84	287.39	58.13	-36.5	-38.0	17.1	0.00e+00	0	59	0	2187329536	44	4322
2026-01-14 12:30:59.86	288.13	57.93	-36.5	-38.1	17.1	0.00e+00	0	59	0	2192572416	44	4349
2026-01-14 12:31:00.86	288.85	57.72	-36.5	-38.0	17.1	0.00e+00	0	59	0	2198863872	44	4327
2026-01-14 12:31:01.88	289.57	57.51	-36.7	-38.3	16.8	0.00e+00	0	59	0	2204106752	44	4464
2026-01-14 12:31:02.89	290.27	57.30	-36.8	-38.5	16.7	0.00e+00	0	59	0	2209349632	44	4555
2026-01-14 12:31:03.90	290.96	57.08	-36.8	-38.4	16.7	0.00e+00	0	59	0	2215641088	44	4533
2026-01-14 12:31:04.91	291.64	56.86	-36.8	-38.4	16.7	0.00e+00	0	59	0	2220883968	44	4500
2026-01-14 12:31:05.92	292.31	56.64	-36.9	-38.6	16.5	0.00e+00	0	59	0	2227175424	44	4622
2026-01-14 12:31:06.93	292.97	56.41	-37.0	-38.7	16.4	0.00e+00	0	59	0	2232418304	44	4664
2026-01-14 12:31:07.94	293.62	56.19	-36.8	-38.5	16.6	0.00e+00	0	59	0	2237661184	44	4546
2026-01-14 12:31:08.95	294.26	55.96	-36.8	-38.5	16.6	0.00e+00	0	59	0	2243952640	44	4553
2026-01-14 12:31:09.96	294.89	55.72	-37.0	-38.7	16.4	0.00e+00	0	59	0	2249195520	44	4670
2026-01-14 12:31:10.97	295.51	55.49	-36.9	-38.6	16.5	0.00e+00	0	59	0	2255486976	44	4620
2026-01-14 12:31:11.98	296.11	55.25	-37.0	-38.7	16.3	0.00e+00	0	59	0	2260729856	44	4700
2026-01-14 12:31:12.99	296.71	55.01	-37.1	-38.9	16.2	0.00e+00	0	59	0	2265972736	44	4774
2026-01-14 12:31:14.00	297.30	54.77	-37.1	-38.9	16.2	0.00e+00	0	59	0	2272264192	44	4781
2026-01-14 12:31:15.01	297.88	54.53	-36.9	-38.6	16.5	0.00e+00	0	59	0	2277507072	44	4619
2026-01-14 12:31:16.02	298.44	54.29	-36.9	-38.5	16.6	0.00e+00	0	59	0	2283798528	44	4574
2026-01-14 12:31:17.03	299.00	54.04	-36.9	-38.5	16.5	0.00e+00	0	59	0	2289041408	44	4597
2026-01-14 12:31:18.04	299.55	53.79	-36.8	-38.5	16.5	0.00e+00	0	59	0	2295332864	44	4571
2026-01-14 12:31:19.05	300.09	53.55	-36.8	-38.5	16.5	0.00e+00	0	59	0	2300575744	44	4572
2026-01-14 12:31:20.06	300.62	53.30	-36.9	-38.6	16.4	0.00e+00	0	59	0	2306867200	44	4614
2026-01-14 12:31:21.07	301.14	53.04	-37.0	-38.8	16.1	0.00e+00	0	59	0	2312110080	44	4750
2026-01-14 12:31:22.08	301.66	52.79	-37.0	-38.8	16.2	0.00e+00	0	59	0	2317352960	44	4732
2026-01-14 12:31:23.09	302.16	52.54	-36.9	-38.6	16.4	0.00e+00	0	59	0	2323644416	44	4646
2026-01-14 12:31:24.10	302.66	52.29	-36.8	-38.4	16.6	0.00e+00	0	59	0	2328887296	44	4543
2026-01-14 12:31:25.11	303.14	52.03	-36.8	-38.3	17.0	0.00e+00	0	59	0	2335178752	44	4466
2026-01-14 12:31:26.12	303.62	51.78	-36.9	-38.5	16.8	0.00e+00	0	59	0	2340421632	44	4555
2026-01-14 12:31:27.13	304.09	51.52	-37.0	-38.5	16.7	0.00e+00	0	59	0	2345664512	44	4584
2026-01-14 12:31:28.14	304.56	51.26	-37.0	-38.6	16.7	0.00e+00	0	59	0	2351955968	44	4644
2026-01-14 12:31:29.15	305.01	51.01	-36.9	-38.4	16.9	0.00e+00	0	59	0	2357198848	44	4525
2026-01-14 12:31:30.16	305.46	50.75	-36.8	-38.3	17.0	0.00e+00	0	59	0	2363490304	44	4481
2026-01-14 12:31:31.17	305.90	50.49	-36.7	-38.2	17.1	0.00e+00	0	59	0	2368733184	44	4403
2026-01-14 12:31:32.18	306.33	50.23	-36.7	-38.1	17.2	0.00e+00	0	59	0	2373976064	44	4389
2026-01-14 12:31:33.19	306.75	49.98	-36.5	-37.9	17.4	0.00e+00	0	59	0	2380267520	44	4287
2026-01-14 12:31:34.20	307.17	49.72	-36.4	-37.9	17.4	0.00e+00	0	59	0	2385510400	44	4257
2026-01-14 12:31:35.21	307.58	49.46	-36.5	-37.9	17.4	0.00e+00	0	59	0	2391801856	44	4283
2026-01-14 12:31:36.21	307.98	49.20	-36.5	-38.0	17.3	0.00e+00	0	59	0	2397044736	44	4311
2026-01-14 12:31:37.22	308.38	48.94	-36.4	-37.9	17.4	0.00e+00	0	59	0	2403336192	44	4246
2026-01-14 12:31:38.24	308.78	48.68	-36.2	-37.6	17.6	0.00e+00	0	59	0	2408579072	44	4140
2026-01-14 12:31:39.25	309.16	48.43	-36.2	-37.5	17.7	0.00e+00	0	59	0	2413821952	44	4098
2026-01-14 12:31:40.25	309.54	48.17	-36.1	-37.4	17.9	0.00e+00	0	59	0	2420113408	44	4049
2026-01-14 12:31:41.26	309.91	47.91	-36.0	-37.4	17.9	0.00e+00	0	59	0	2425356288	44	4033
2026-01-14 12:31:42.27	310.27	47.66	-36.0	-37.4	17.9	0.00e+00	0	60	0	2431647744	44	4014
2026-01-14 12:31:43.28	310.63	47.40	-36.1	-37.5	17.8	0.00e+00	0	59	0	2436890624	44	4082
2026-01-14 12:31:44.29	310.99	47.14	-36.3	-37.7	17.6	0.00e+00	0	59	0	2442133504	44	4168
2026-01-14 12:31:45.30	311.34	46.89	-36.3	-37.8	17.5	0.00e+00	0	59	0	2448424960	44	4200
2026-01-14 12:31:46.31	311.68	46.63	-36.3	-37.7	17.5	0.00e+00	0	59	0	2453667840	44	4190
2026-01-14 12:31:47.33	312.02	46.37	-36.2	-37.6	17.6	0.00e+00	0	59	0	2459959296	44	4138
2026-01-14 12:31:48.33	312.35	46.12	-36.2	-37.6	17.6	0.00e+00	0	59	0	2465202176	44	4133
2026-01-14 12:31:49.35	312.68	45.86	-36.3	-37.7	17.6	0.00e+00	0	59	0	2470445056	44	4146
2026-01-14 12:31:50.36	313.00	45.61	-36.3	-37.7	17.6	0.00e+00	0	59	0	2476736512	44	4185
2026-01-14 12:31:51.37	313.32	45.36	-36.3	-37.7	17.6	0.00e+00	0	59	0	2481979392	44	4167
2026-01-14 12:31:52.37	313.63	45.11	-36.3	-37.7	17.6	0.00e+00	0	59	0	2488270848	44	4173
2026-01-14 12:31:53.38	313.93	44.86	-36.3	-37.8	17.5	0.00e+00	0	59	0	2493513728	44	4202
2026-01-14 12:31:54.39	314.24	44.61	-36.3	-37.7	17.5	0.00e+00	0	59	0	2499805184	44	4190
2026-01-14 12:31:55.40	314.53	44.36	-36.3	-37.7	17.5	0.00e+00	0	59	0	2505048064	44	4190
2026-01-14 12:31:56.41	314.83	44.11	-36.4	-37.8	17.5	0.00e+00	0	59	0	2510290944	44	4230
2026-01-14 12:31:57.42	315.11	43.86	-36.4	-37.9	17.4	0.00e+00	0	59	0	2516582400	44	4262
2026-01-14 12:31:58.43	315.40	43.61	-36.4	-37.9	17.4	0.00e+00	0	59	0	2521825280	44	4264
2026-01-14 12:31:59.44	315.68	43.36	-36.3	-37.8	17.5	0.00e+00	0	59	0	2528116736	44	4203
2026-01-14 12:32:00.45	315.95	43.12	-36.2	-37.6	17.7	0.00e+00	0	59	0	2533359616	44	4125
2026-01-14 12:32:01.46	316.22	42.87	-36.1	-37.5	17.7	0.00e+00	0	60	0	2539651072	44	4087
2026-01-14 12:32:02.47	316.49	42.63	-36.1	-37.5	17.8	0.00e+00	0	59	0	2544893952	44	4072
2026-01-14 12:32:03.48	316.76	42.39	-36.2	-37.6	17.7	0.00e+00	0	59	0	2550136832	44	4101
2026-01-14 12:32:04.49	317.02	42.14	-36.3	-37.7	17.6	0.00e+00	0	59	0	2556428288	44	4172
2026-01-14 12:32:05.49	317.27	41.91	-36.4	-37.8	17.5	0.00e+00	0	59	0	2561671168	44	4220
2026-01-14 12:32:06.51	317.52	41.66	-36.4	-37.9	17.4	0.00e+00	0	59	0	2567962624	44	4244
2026-01-14 12:32:07.52	317.77	41.42	-36.3	-37.7	17.6	0.00e+00	0	59	0	2573205504	44	4165
2026-01-14 12:32:08.52	318.01	41.19	-36.2	-37.6	17.7	0.00e+00	0	59	0	2578448384	44	4125
2026-01-14 12:32:09.53	318.26	40.95	-36.1	-37.5	17.8	0.00e+00	0	59	0	2584739840	44	4072
2026-01-14 12:32:10.54	318.49	40.71	-36.0	-37.4	17.9	0.00e+00	0	60	0	2589982720	44	4020
2026-01-14 12:32:11.55	318.73	40.48	-35.8	-37.1	18.0	0.00e+00	0	59	0	2596274176	43	4136
2026-01-14 12:32:12.56	318.96	40.24	-35.7	-37.1	18.0	0.00e+00	0	59	0	2601517056	43	4109
2026-01-14 12:32:13.57	319.19	40.01	-35.7	-37.1	18.0	0.00e+00	0	59	0	2607808512	43	4134
2026-01-14 12:32:14.58	319.41	39.78	-35.7	-37.1	18.0	0.00e+00	0	59	0	2613051392	43	4129
2026-01-14 12:32:15.59	319.63	39.55	-35.8	-37.1	17.9	0.00e+00	0	59	0	2618294272	43	4143
2026-01-14 12:32:16.60	319.85	39.32	-35.8	-37.2	17.9	0.00e+00	0	59	0	2624585728	43	4151
2026-01-14 12:32:17.61	320.07	39.09	-35.7	-37.1	17.9	0.00e+00	0	59	0	2629828608	43	4131
2026-01-14 12:32:18.62	320.28	38.86	-35.7	-37.1	18.0	0.00e+00	0	59	0	2636120064	43	4126
2026-01-14 12:32:19.63	320.49	38.64	-35.7	-37.1	18.0	0.00e+00	0	59	0	2641362944	43	4101
2026-01-14 12:32:20.64	320.70	38.41	-35.6	-37.0	18.1	0.00e+00	0	59	0	2646605824	43	4069
2026-01-14 12:32:21.65	320.90	38.19	-35.6	-37.0	18.1	0.00e+00	0	59	0	2652897280	43	4061
2026-01-14 12:32:22.66	321.10	37.96	-35.6	-36.9	18.2	0.00e+00	0	59	0	2658140160	43	4032
2026-01-14 12:32:23.67	321.30	37.74	-35.5	-36.9	18.2	0.00e+00	0	59	0	2664431616	43	4019
2026-01-14 12:32:24.68	321.50	37.52	-35.5	-36.8	18.2	0.00e+00	0	59	0	2669674496	43	3993
2026-01-14 12:32:25.69	321.69	37.30	-35.5	-36.8	18.2	0.00e+00	0	59	0	2674917376	43	3984
2026-01-14 12:32:26.70	321.88	37.08	-35.5	-36.9	18.2	0.00e+00	0	59	0	2681208832	43	4005
2026-01-14 12:32:27.71	322.07	36.86	-35.6	-36.9	18.1	0.00e+00	0	59	0	2686451712	43	4051
2026-01-14 12:32:28.72	322.25	36.65	-35.7	-37.1	18.0	0.00e+00	0	60	0	2692743168	43	4117
2026-01-14 12:32:29.73	322.44	36.43	-35.8	-37.2	17.9	0.00e+00	0	59	0	2697986048	43	4163
2026-01-14 12:32:30.74	322.62	36.22	-35.9	-37.3	17.8	0.00e+00	0	59	0	2703228928	43	4207
2026-01-14 12:32:31.76	322.80	36.00	-35.9	-37.4	17.7	0.00e+00	0	59	0	2709520384	43	4255
2026-01-14 12:32:32.76	322.98	35.79	-35.9	-37.4	17.7	0.00e+00	0	59	0	2714763264	43	4251
2026-01-14 12:32:33.77	323.15	35.58	-36.0	-37.4	17.6	0.00e+00	0	60	0	2721054720	43	4273
2026-01-14 12:32:34.78	323.32	35.37	-36.0	-37.4	17.7	0.00e+00	0	59	0	2726297600	43	4245
2026-01-14 12:32:35.79	323.49	35.16	-36.0	-37.4	17.6	0.00e+00	0	59	0	2732589056	43	4261
2026-01-14 12:32:36.80	323.66	34.95	-35.9	-37.3	17.7	0.00e+00	0	59	0	2737831936	43	4236
2026-01-14 12:32:37.81	323.83	34.75	-35.9	-37.4	17.7	0.00e+00	0	59	0	2744123392	43	4243
2026-01-14 12:32:38.82	323.99	34.54	-35.9	-37.3	17.7	0.00e+00	0	60	0	2749366272	43	4219
2026-01-14 12:32:39.83	324.15	34.34	-35.8	-37.2	17.8	0.00e+00	0	59	0	2754609152	43	4183
2026-01-14 12:32:40.84	324.31	34.13	-35.8	-37.2	17.9	0.00e+00	0	59	0	2760900608	43	4153
2026-01-14 12:32:41.85	324.47	33.93	-35.7	-37.1	17.9	0.00e+00	0	59	0	2766143488	43	4130
2026-01-14 12:32:42.86	324.63	33.73	-35.7	-37.0	18.0	0.00e+00	0	59	0	2772434944	43	4094
2026-01-14 12:32:43.88	324.78	33.53	-35.6	-37.0	18.0	0.00e+00	0	59	0	2777677824	43	4086
2026-01-14 12:32:44.88	324.93	33.33	-35.7	-37.0	18.0	0.00e+00	0	59	0	2782920704	43	4097
2026-01-14 12:32:45.89	325.08	33.14	-35.7	-37.1	17.9	0.00e+00	0	59	0	2789212160	43	4108
2026-01-14 12:32:46.90	325.23	32.94	-35.7	-37.1	17.9	0.00e+00	0	59	0	2794455040	43	4116
2026-01-14 12:32:47.91	325.38	32.74	-35.7	-37.1	17.9	0.00e+00	0	59	0	2800746496	43	4119
2026-01-14 12:32:48.93	325.53	32.55	-35.8	-37.1	17.9	0.00e+00	0	59	0	2805989376	43	4145
2026-01-14 12:32:49.94	325.67	32.35	-35.8	-37.2	17.8	0.00e+00	0	59	0	2811232256	43	4161
2026-01-14 12:32:50.95	325.81	32.16	-35.8	-37.2	17.8	0.00e+00	0	59	0	2817523712	43	4166
2026-01-14 12:32:51.96	325.95	31.97	-35.9	-37.2	17.7	0.00e+00	0	59	0	2822766592	43	4193
2026-01-14 12:32:52.97	326.09	31.78	-35.9	-37.3	17.7	0.00e+00	0	59	0	2829058048	43	4217
2026-01-14 12:32:53.98	326.23	31.59	-35.9	-37.3	17.6	0.00e+00	0	59	0	2834300928	43	4240
2026-01-14 12:32:54.99	326.36	31.40	-36.0	-37.4	17.6	0.00e+00	0	59	0	2840592384	43	4265
2026-01-14 12:32:55.99	326.50	31.22	-36.0	-37.4	17.6	0.00e+00	0	59	0	2845835264	43	4276
2026-01-14 12:32:57.00	326.63	31.03	-36.1	-37.5	17.5	0.00e+00	0	59	0	2851078144	43	4307
2026-01-14 12:32:58.01	326.76	30.85	-36.1	-37.5	17.5	0.00e+00	0	59	0	2857369600	43	4311
2026-01-14 12:32:59.02	326.89	30.66	-36.1	-37.5	17.5	0.00e+00	0	59	0	2862612480	43	4304
2026-01-14 12:33:00.03	327.02	30.48	-36.0	-37.5	17.5	0.00e+00	0	59	0	2868903936	43	4299
2026-01-14 12:33:01.04	327.15	30.30	-36.0	-37.4	17.5	0.00e+00	0	59	0	2874146816	43	4289
2026-01-14 12:33:02.05	327.27	30.12	-36.0	-37.4	17.5	0.00e+00	0	59	0	2879389696	43	4275
2026-01-14 12:33:03.06	327.40	29.94	-36.0	-37.4	17.5	0.00e+00	0	59	0	2885681152	43	4276
2026-01-14 12:33:04.07	327.52	29.76	-36.0	-37.4	17.6	0.00e+00	0	59	0	2890924032	43	4271
2026-01-14 12:33:05.08	327.64	29.58	-36.0	-37.4	17.5	0.00e+00	0	59	0	2897215488	43	4272
2026-01-14 12:33:06.09	327.76	29.40	-36.0	-37.4	17.5	0.00e+00	0	59	0	2902458368	43	4271
2026-01-14 12:33:07.10	327.88	29.23	-36.0	-37.4	17.5	0.00e+00	0	59	0	2907701248	43	4281
2026-01-14 12:33:08.11	328.00	29.05	-36.0	-37.4	17.5	0.00e+00	0	59	0	2913992704	43	4270
2026-01-14 12:33:09.12	328.12	28.88	-35.9	-37.3	17.6	0.00e+00	0	60	0	2919235584	43	4239
2026-01-14 12:33:10.13	328.23	28.70	-35.9	-37.4	17.6	0.00e+00	0	59	0	2925527040	43	4243
2026-01-14 12:33:11.14	328.35	28.53	-35.9	-37.3	17.6	0.00e+00	0	59	0	2930769920	43	4210
2026-01-14 12:33:12.15	328.46	28.36	-35.9	-37.3	17.6	0.00e+00	0	59	0	2937061376	43	4206
2026-01-14 12:33:13.16	328.57	28.19	-35.9	-37.3	17.6	0.00e+00	0	59	0	2942304256	43	4224
2026-01-14 12:33:14.17	328.68	28.02	-36.0	-37.4	17.6	0.00e+00	0	60	0	2948595712	43	4243
2026-01-14 12:33:15.18	328.79	27.85	-36.0	-37.4	17.5	0.00e+00	0	59	0	2953838592	43	4264
2026-01-14 12:33:16.19	328.90	27.68	-36.0	-37.5	17.5	0.00e+00	0	60	0	2959081472	43	4293
2026-01-14 12:33:17.20	329.01	27.52	-36.0	-37.5	17.5	0.00e+00	0	59	0	2965372928	43	4302
2026-01-14 12:33:18.21	329.11	27.35	-36.1	-37.5	17.4	0.00e+00	0	59	0	2970615808	43	4333
2026-01-14 12:33:19.22	329.22	27.19	-36.1	-37.6	17.3	0.00e+00	0	60	0	2976907264	43	4372
2026-01-14 12:33:20.23	329.32	27.02	-36.2	-37.6	17.2	0.00e+00	0	59	0	2982150144	43	4391
2026-01-14 12:33:21.24	329.43	26.86	-36.2	-37.6	17.3	0.00e+00	0	59	0	2987393024	43	4387
2026-01-14 12:33:22.25	329.53	26.70	-36.2	-37.7	17.2	0.00e+00	0	59	0	2993684480	43	4399
2026-01-14 12:33:23.26	329.63	26.54	-36.2	-37.7	17.2	0.00e+00	0	60	0	2998927360	43	4404
2026-01-14 12:33:24.27	329.73	26.38	-36.2	-37.7	17.2	0.00e+00	0	59	0	3005218816	43	4398
2026-01-14 12:33:25.28	329.83	26.22	-36.1	-37.6	17.3	0.00e+00	0	60	0	3010461696	43	4351
2026-01-14 12:33:26.28	329.93	26.06	-36.1	-37.6	17.3	0.00e+00	0	59	0	3015704576	43	4361
2026-01-14 12:33:27.29	330.02	25.90	-36.1	-37.6	17.3	0.00e+00	0	59	0	3021996032	43	4362
2026-01-14 12:33:28.30	330.12	25.75	-36.1	-37.6	17.3	0.00e+00	0	59	0	3027238912	43	4366
2026-01-14 12:33:29.31	330.22	25.59	-36.2	-37.7	17.2	0.00e+00	0	59	0	3033530368	43	4396
2026-01-14 12:33:30.32	330.31	25.43	-36.2	-37.7	17.2	0.00e+00	0	59	0	3038773248	43	4409
2026-01-14 12:33:31.33	330.41	25.28	-36.3	-37.7	17.1	0.00e+00	0	59	0	3045064704	43	4429
2026-01-14 12:33:32.34	330.50	25.13	-36.3	-37.8	17.0	0.00e+00	0	60	0	3050307584	43	4468
2026-01-14 12:33:33.35	330.59	24.97	-36.4	-37.9	17.0	0.00e+00	0	60	0	3055550464	43	4509
2026-01-14 12:33:34.36	330.68	24.82	-36.4	-37.9	17.0	0.00e+00	0	59	0	3061841920	43	4502
2026-01-14 12:33:35.37	330.77	24.67	-36.4	-38.0	16.9	0.00e+00	0	59	0	3067084800	43	4546
2026-01-14 12:33:36.38	330.86	24.52	-36.5	-38.0	16.9	0.00e+00	0	59	0	3073376256	43	4565
2026-01-14 12:33:37.39	330.95	24.37	-36.5	-38.0	16.8	0.00e+00	0	59	0	3078619136	43	4567
2026-01-14 12:33:38.40	331.04	24.22	-36.5	-38.0	16.8	0.00e+00	0	59	0	3083862016	43	4591
2026-01-14 12:33:39.41	331.13	24.07	-36.5	-38.0	16.8	0.00e+00	0	59	0	3090153472	43	4595
2026-01-14 12:33:40.42	331.21	23.93	-36.5	-38.0	16.8	0.00e+00	0	59	0	3095396352	43	4591
2026-01-14 12:33:41.43	331.30	23.78	-36.6	-38.1	16.7	0.00e+00	0	59	0	3101687808	43	4622
2026-01-14 12:33:42.44	331.38	23.63	-36.5	-38.1	16.7	0.00e+00	0	59	0	3106930688	43	4618
2026-01-14 12:33:43.45	331.47	23.49	-36.5	-38.1	16.7	0.00e+00	0	60	0	3112173568	43	4599
2026-01-14 12:33:44.46	331.55	23.35	-36.5	-38.1	16.7	0.00e+00	0	59	0	3118465024	43	4607
2026-01-14 12:33:45.47	331.63	23.20	-36.6	-38.1	16.6	0.00e+00	0	59	0	3123707904	43	4648
2026-01-14 12:33:46.48	331.72	23.06	-36.5	-38.1	16.7	0.00e+00	0	59	0	3129999360	43	4611
2026-01-14 12:33:47.49	331.80	22.92	-36.5	-38.1	16.7	0.00e+00	0	60	0	3135242240	43	4613
2026-01-14 12:33:48.50	331.88	22.78	-36.6	-38.2	16.6	0.00e+00	0	60	0	3141533696	43	4656
2026-01-14 12:33:49.51	331.96	22.64	-36.6	-38.1	16.6	0.00e+00	0	59	0	3146776576	43	4646
2026-01-14 12:33:50.52	332.04	22.50	-36.6	-38.2	16.6	0.00e+00	0	59	0	3153068032	43	4674
2026-01-14 12:33:51.53	332.12	22.36	-36.7	-38.3	16.5	0.00e+00	0	60	0	3158310912	43	4712
2026-01-14 12:33:52.54	332.19	22.22	-36.9	-38.5	16.4	0.00e+00	0	60	0	3163553792	44	4582
2026-01-14 12:33:53.55	332.27	22.08	-36.9	-38.5	16.4	0.00e+00	0	59	0	3169845248	44	4567
2026-01-14 12:33:54.56	332.35	21.94	-36.9	-38.5	16.4	0.00e+00	0	60	0	3175088128	44	4570
2026-01-14 12:33:55.58	332.42	21.81	-37.0	-38.6	16.3	0.00e+00	0	60	0	3181379584	44	4625
2026-01-14 12:33:56.58	332.50	21.67	-37.0	-38.7	16.2	0.00e+00	0	59	0	3186622464	44	4655
2026-01-14 12:33:57.60	332.57	21.54	-37.0	-38.6	16.2	0.00e+00	0	60	0	3191865344	44	4645
2026-01-14 12:33:58.61	332.65	21.40	-37.0	-38.7	16.1	0.00e+00	0	60	0	3198156800	44	4669
2026-01-14 12:33:59.61	332.72	21.27	-37.1	-38.7	16.1	0.00e+00	0	59	0	3203399680	44	4703
2026-01-14 12:34:00.62	332.79	21.14	-37.1	-38.8	16.0	0.00e+00	0	59	0	3209691136	44	4720
2026-01-14 12:34:01.63	332.87	21.00	-37.1	-38.7	16.1	0.00e+00	0	60	0	3214934016	44	4694
2026-01-14 12:34:02.64	332.94	20.87	-37.1	-38.8	16.0	0.00e+00	0	60	0	3220176896	44	4732
2026-01-14 12:34:03.65	333.01	20.74	-37.2	-38.8	16.0	0.00e+00	0	60	0	3226468352	44	4746
2026-01-14 12:34:04.66	333.08	20.61	-37.2	-38.8	16.0	0.00e+00	0	59	0	3231711232	44	4751
2026-01-14 12:34:05.67	333.15	20.48	-37.2	-38.8	15.9	0.00e+00	0	60	0	3238002688	44	4756
2026-01-14 12:34:06.68	333.22	20.35	-37.2	-38.9	15.8	0.00e+00	0	59	0	3243245568	45	4530
2026-01-14 12:34:07.69	333.29	20.22	-37.2	-38.9	15.9	0.00e+00	0	59	0	3249537024	45	4498
2026-01-14 12:34:08.70	333.36	20.10	-37.3	-38.9	15.8	0.00e+00	0	59	0	3254779904	45	4544
2026-01-14 12:34:09.71	333.43	19.97	-37.3	-39.0	15.7	0.00e+00	0	59	0	3261071360	45	4560
2026-01-14 12:34:10.73	333.49	19.84	-37.3	-39.0	15.7	0.00e+00	0	59	0	3266314240	45	4575
2026-01-14 12:34:11.73	333.56	19.72	-37.3	-39.0	15.7	0.00e+00	0	59	0	3271557120	45	4592
2026-01-14 12:34:12.74	333.63	19.59	-37.4	-39.1	15.6	1.10e-06	0	59	0	3277848576	45	4610
2026-01-14 12:34:13.76	333.69	19.47	-37.4	-39.2	15.5	0.00e+00	0	59	0	3283091456	45	4653
2026-01-14 12:34:14.77	333.76	19.34	-37.4	-39.1	15.6	0.00e+00	0	60	0	3289382912	45	4649
2026-01-14 12:34:15.77	333.82	19.22	-37.4	-39.2	15.5	1.10e-06	0	59	0	3294625792	45	4677
2026-01-14 12:34:16.78	333.89	19.10	-37.5	-39.2	15.4	0.00e+00	0	59	0	3299868672	45	4676
2026-01-14 12:34:17.79	333.95	18.97	-37.6	-39.4	15.3	0.00e+00	0	59	0	3306160128	45	4760
2026-01-14 12:34:18.80	334.01	18.85	-37.6	-39.3	15.3	0.00e+00	0	60	0	3311403008	45	4756
2026-01-14 12:34:19.81	334.08	18.73	-37.6	-39.4	15.2	0.00e+00	0	60	0	3317694464	45	4783
2026-01-14 12:34:20.82	334.14	18.61	-37.6	-39.4	15.3	0.00e+00	0	60	0	3322937344	45	4766
2026-01-14 12:34:21.83	334.20	18.49	-37.6	-39.4	15.2	0.00e+00	0	60	0	3328180224	45	4793
2026-01-14 12:34:22.84	334.26	18.37	-37.7	-39.5	15.1	0.00e+00	0	60	0	3334471680	46	4594
2026-01-14 12:34:23.85	334.32	18.25	-37.8	-39.7	14.9	0.00e+00	0	60	0	3339714560	46	4666
2026-01-14 12:34:24.86	334.38	18.13	-37.8	-39.6	15.0	0.00e+00	0	60	0	3346006016	46	4640
2026-01-14 12:34:25.87	334.44	18.02	-37.8	-39.6	15.0	0.00e+00	0	60	0	3351248896	46	4631
2026-01-14 12:34:26.89	334.51	17.90	-37.8	-39.6	14.9	0.00e+00	0	60	0	3357540352	46	4650
2026-01-14 12:34:27.90	334.56	17.78	-37.9	-39.8	14.8	1.10e-06	0	59	0	3362783232	46	4725
2026-01-14 12:34:28.91	334.62	17.66	-38.0	-39.9	14.6	0.00e+00	0	60	0	3369074688	46	4805
2026-01-14 12:34:29.92	334.68	17.55	-38.0	-39.9	14.7	0.00e+00	0	59	0	3374317568	46	4770
2026-01-14 12:34:30.93	334.74	17.43	-37.9	-39.8	14.7	1.10e-06	0	60	0	3379560448	46	4758
2026-01-14 12:34:31.94	334.80	17.32	-37.9	-39.8	14.7	0.00e+00	0	59	0	3385851904	46	4755
2026-01-14 12:34:32.95	334.86	17.20	-37.9	-39.8	14.7	0.00e+00	0	59	0	3391094784	46	4757
2026-01-14 12:34:33.96	334.91	17.09	-38.0	-39.9	14.6	1.10e-06	0	59	0	3397386240	46	4789
2026-01-14 12:34:34.97	334.97	16.98	-38.0	-40.0	14.4	0.00e+00	0	60	0	3402629120	46	4833
2026-01-14 12:34:35.98	335.02	16.86	-38.1	-40.0	14.4	1.10e-06	0	60	0	3407872000	46	4854
2026-01-14 12:34:36.99	335.08	16.75	-38.0	-40.0	14.4	0.00e+00	0	60	0	3414163456	46	4838
2026-01-14 12:34:38.00	335.14	16.64	-38.0	-40.0	14.5	0.00e+00	0	59	0	3419406336	46	4817
2026-01-14 12:34:39.01	335.19	16.53	-37.9	-39.9	14.5	2.20e-06	0	60	0	3425697792	46	4784
2026-01-14 12:34:40.02	335.25	16.42	-38.0	-39.9	14.4	2.20e-06	0	59	0	3430940672	46	4805
2026-01-14 12:34:41.03	335.30	16.31	-38.1	-40.1	14.3	5.70e-06	0	60	0	3436183552	46	4878
2026-01-14 12:34:42.04	335.35	16.20	-38.1	-40.1	14.2	1.10e-06	0	59	0	3442475008	46	4900
2026-01-14 12:34:43.05	335.41	16.09	-38.1	-40.1	14.2	2.20e-06	0	59	0	3447717888	46	4900
2026-01-14 12:34:44.06	335.46	15.98	-38.0	-40.0	14.3	0.00e+00	0	60	0	3454009344	46	4824
2026-01-14 12:34:45.07	335.51	15.87	-37.9	-39.9	14.4	2.20e-06	0	59	0	3459252224	46	4778
2026-01-14 12:34:46.08	335.57	15.76	-38.0	-39.9	14.3	3.40e-06	0	59	0	3465543680	46	4807
2026-01-14 12:34:47.09	335.62	15.66	-38.0	-40.0	14.2	4.50e-06	0	59	0	3470786560	46	4835
2026-01-14 12:34:48.09	335.67	15.55	-38.1	-40.1	14.1	4.50e-06	0	60	0	3476029440	46	4914
