passes_logs/2026/01/14/R2.0S_Moscow/R2.0S_Moscow__20260114_010359_NOAA_21_JPSS-2_rec.log

#Pass ID: 20260114_010359_NOAA 21 (JPSS-2)
#Satellite: NOAA 21 (JPSS-2)
#Configuration: NOAA-21
#almurnet v.1.7.20251203
#Start time: 2026-01-14 01:06:34

#Version: 2.2.20231116
#Station: R2.0S_Moscow
#Location: 37.707566 lon 55.798166 lat
#TLE: 1 54234U 22150A   26013.18009385  .00000056  00000+0  47387-4 0  9997
#TLE: 2 54234  98.7496 314.1019 0000691 303.8246  56.2864 14.19534466164559

#Time	Az	El	Level	Level2	SNR	BER	BlckErr	Temp	State	Recorded	gain1	gain2
2026-01-14 01:06:34.35	358.81	12.40	-45.1	-56.6	3.8	8.46e-01	0	61	0	0	61	13835
2026-01-14 01:06:35.36	358.70	12.47	-45.5	-57.8	3.8	1.49e+00	0	61	104	0	62	14920
2026-01-14 01:06:36.38	358.58	12.55	-45.5	-57.8	3.8	1.49e+00	0	61	104	0	62	14881
2026-01-14 01:06:37.39	358.47	12.63	-45.4	-57.8	3.8	1.49e+00	0	61	104	0	62	14894
2026-01-14 01:06:38.40	358.35	12.71	-45.4	-57.7	3.8	1.49e+00	0	61	104	0	62	14857
2026-01-14 01:06:39.41	358.23	12.79	-45.4	-57.7	3.8	1.49e+00	0	61	104	0	62	14789
2026-01-14 01:06:40.42	358.11	12.87	-45.3	-57.7	3.8	1.49e+00	0	61	104	0	62	14740
2026-01-14 01:06:41.43	357.99	12.94	-45.2	-57.6	3.8	1.49e+00	0	61	104	0	62	14567
2026-01-14 01:06:42.44	357.87	13.02	-45.1	-57.4	3.8	1.49e+00	0	61	104	0	62	14285
2026-01-14 01:06:43.45	357.75	13.10	-44.4	-56.8	3.8	1.49e+00	0	61	104	0	60	14967
2026-01-14 01:06:44.46	357.63	13.18	-41.1	-53.7	3.8	1.49e+00	0	61	104	0	54	14745
2026-01-14 01:06:45.47	357.51	13.26	-40.5	-53.2	3.8	1.49e+00	0	61	104	0	52	15596
2026-01-14 01:06:46.48	357.39	13.34	-40.5	-53.2	3.8	1.49e+00	0	61	104	0	52	15665
2026-01-14 01:06:47.50	357.26	13.42	-40.5	-53.2	3.8	1.49e+00	0	61	104	0	52	15733
2026-01-14 01:06:48.51	357.14	13.50	-40.5	-53.2	3.8	1.49e+00	0	61	104	0	52	15721
2026-01-14 01:06:49.52	357.01	13.58	-40.5	-53.2	3.8	1.49e+00	0	61	104	0	52	15646
2026-01-14 01:06:50.53	356.89	13.66	-40.5	-53.2	3.8	1.49e+00	0	61	104	0	52	15676
2026-01-14 01:06:51.54	356.76	13.74	-40.5	-53.3	3.8	1.49e+00	0	61	104	0	52	15786
2026-01-14 01:06:52.55	356.64	13.82	-40.5	-53.2	3.8	1.49e+00	0	61	104	0	52	15739
2026-01-14 01:06:53.56	356.51	13.90	-40.4	-53.3	3.8	1.49e+00	0	61	104	0	52	15782
2026-01-14 01:06:54.57	356.38	13.98	-40.4	-53.3	3.8	1.49e+00	0	61	104	0	52	15809
2026-01-14 01:06:55.59	356.25	14.06	-40.4	-53.3	3.8	1.49e+00	0	61	104	0	52	15788
2026-01-14 01:06:56.60	356.12	14.14	-40.4	-53.3	3.8	1.49e+00	0	61	104	0	52	15824
2026-01-14 01:06:57.61	355.99	14.22	-40.4	-53.2	3.8	1.49e+00	0	61	104	0	52	15756
2026-01-14 01:06:58.62	355.86	14.30	-40.4	-53.3	3.8	1.49e+00	0	61	104	0	52	15847
2026-01-14 01:06:59.63	355.73	14.38	-40.4	-53.2	3.8	1.49e+00	0	61	104	0	52	15744
2026-01-14 01:07:00.64	355.60	14.47	-40.4	-53.3	3.8	1.49e+00	0	61	104	0	52	15804
2026-01-14 01:07:01.65	355.46	14.55	-40.4	-53.3	3.8	1.49e+00	0	61	104	0	52	15763
2026-01-14 01:07:02.66	355.33	14.63	-40.4	-53.3	3.8	1.49e+00	0	61	104	0	52	15834
2026-01-14 01:07:03.67	355.19	14.71	-40.4	-53.3	3.8	1.49e+00	0	61	104	0	52	15813
2026-01-14 01:07:04.68	355.06	14.79	-40.4	-53.3	3.8	1.49e+00	0	61	104	0	52	15790
2026-01-14 01:07:05.70	354.92	14.87	-40.5	-53.3	3.8	1.49e+00	0	61	104	0	52	15821
2026-01-14 01:07:06.71	354.78	14.96	-40.4	-53.3	3.8	1.49e+00	0	61	104	0	52	15854
2026-01-14 01:07:07.72	354.65	15.04	-40.4	-53.3	3.8	1.49e+00	0	61	104	0	52	15870
2026-01-14 01:07:08.73	354.51	15.12	-40.4	-53.3	3.8	1.49e+00	0	61	104	0	52	15801
2026-01-14 01:07:09.74	354.37	15.20	-40.4	-53.3	3.8	1.49e+00	0	61	104	0	52	15835
2026-01-14 01:07:10.75	354.23	15.28	-40.4	-53.3	3.8	1.49e+00	0	61	104	0	52	15799
2026-01-14 01:07:11.76	354.09	15.37	-40.4	-53.3	3.8	1.49e+00	0	61	104	0	52	15775
2026-01-14 01:07:12.77	353.95	15.45	-40.4	-53.3	3.8	1.49e+00	0	61	104	0	52	15777
2026-01-14 01:07:13.78	353.80	15.53	-40.4	-53.3	3.8	1.49e+00	0	61	104	0	52	15800
2026-01-14 01:07:14.80	353.66	15.61	-40.4	-53.3	3.8	1.49e+00	0	61	104	0	52	15803
2026-01-14 01:07:15.81	353.51	15.70	-40.4	-53.3	3.8	1.49e+00	0	61	104	0	52	15810
2026-01-14 01:07:16.82	353.37	15.78	-40.4	-53.3	3.8	1.49e+00	0	61	104	0	52	15788
2026-01-14 01:07:17.83	353.22	15.86	-40.4	-53.3	3.8	1.49e+00	0	61	104	0	52	15782
2026-01-14 01:07:18.84	353.08	15.95	-40.4	-53.3	3.8	1.49e+00	0	61	104	0	52	15793
2026-01-14 01:07:19.85	352.93	16.03	-40.4	-53.3	3.8	1.49e+00	0	61	104	0	52	15773
2026-01-14 01:07:20.86	352.78	16.11	-40.4	-53.3	3.8	1.49e+00	0	61	104	0	52	15850
2026-01-14 01:07:21.87	352.63	16.19	-40.4	-53.3	3.8	1.49e+00	0	61	104	0	52	15762
2026-01-14 01:07:22.89	352.48	16.28	-40.4	-53.3	3.8	1.49e+00	0	61	104	0	52	15777
2026-01-14 01:07:23.90	352.33	16.36	-40.4	-53.3	3.8	1.49e+00	0	61	104	0	52	15765
2026-01-14 01:07:24.91	352.18	16.45	-40.4	-53.3	3.8	1.49e+00	0	61	104	0	52	15799
2026-01-14 01:07:25.92	352.03	16.53	-40.4	-53.2	3.8	1.49e+00	0	61	104	0	52	15729
2026-01-14 01:07:26.93	351.87	16.61	-40.4	-53.3	3.8	1.49e+00	0	61	104	0	52	15770
2026-01-14 01:07:27.94	351.72	16.70	-40.4	-53.3	3.8	1.49e+00	0	61	104	0	52	15786
2026-01-14 01:07:28.95	351.56	16.78	-40.4	-53.4	3.8	1.49e+00	0	61	104	0	52	16003
2026-01-14 01:07:29.96	351.41	16.86	-40.8	-53.3	3.8	1.49e+00	0	61	104	0	52	15929
2026-01-14 01:07:30.97	351.25	16.95	-40.3	-53.5	3.8	1.49e+00	0	61	104	0	51	17191
2026-01-14 01:07:31.98	351.09	17.03	-40.8	-53.6	3.8	1.49e+00	0	61	104	0	52	16344
2026-01-14 01:07:32.99	350.93	17.12	-40.4	-53.3	3.8	1.49e+00	0	61	104	0	52	15891
2026-01-14 01:07:34.00	350.77	17.20	-41.0	-53.5	3.8	1.49e+00	0	61	104	0	52	16311
2026-01-14 01:07:35.01	350.61	17.28	-40.2	-53.4	3.8	1.49e+00	0	61	104	0	52	16028
2026-01-14 01:07:36.02	350.45	17.37	-41.0	-53.4	3.8	1.49e+00	0	61	104	0	52	16061
2026-01-14 01:07:37.03	350.29	17.45	-40.7	-53.4	3.8	1.49e+00	0	61	104	0	52	16046
2026-01-14 01:07:38.04	350.13	17.54	-40.9	-53.4	3.8	1.49e+00	0	61	104	0	52	16116
2026-01-14 01:07:39.05	349.96	17.62	-41.0	-53.5	3.8	1.49e+00	0	61	104	0	52	16193
2026-01-14 01:07:40.06	349.80	17.71	-41.0	-53.5	3.8	1.49e+00	0	61	104	0	52	16185
2026-01-14 01:07:41.06	349.63	17.79	-40.8	-53.5	3.8	1.49e+00	0	61	104	0	52	16273
2026-01-14 01:07:42.07	349.47	17.87	-41.0	-53.5	3.8	1.49e+00	0	61	104	0	52	16280
2026-01-14 01:07:43.08	349.30	17.96	-40.9	-53.5	3.8	1.49e+00	0	61	104	0	52	16203
2026-01-14 01:07:44.09	349.13	18.04	-41.1	-53.7	3.8	1.49e+00	0	61	104	0	52	16623
2026-01-14 01:07:45.10	348.96	18.13	-41.4	-53.7	3.8	1.49e+00	0	61	104	0	53	15698
2026-01-14 01:07:46.11	348.79	18.21	-41.2	-53.8	3.8	1.49e+00	0	61	104	0	53	15778
2026-01-14 01:07:47.12	348.62	18.30	-41.4	-53.7	3.8	1.49e+00	0	61	104	0	53	15706
2026-01-14 01:07:48.13	348.44	18.38	-40.8	-53.7	3.8	1.49e+00	0	61	104	0	53	15613
2026-01-14 01:07:49.14	348.27	18.47	-41.0	-53.5	3.8	1.49e+00	0	61	104	0	53	15254
2026-01-14 01:07:50.15	348.09	18.55	-40.9	-53.6	3.8	1.49e+00	0	61	104	0	53	15538
2026-01-14 01:07:51.16	347.92	18.64	-41.0	-53.4	3.8	1.49e+00	0	61	104	0	53	15216
2026-01-14 01:07:52.17	347.74	18.72	-41.2	-53.9	3.8	1.49e+00	0	61	104	0	53	15970
2026-01-14 01:07:53.18	347.56	18.80	-41.1	-53.5	3.8	1.49e+00	0	61	104	0	53	15355
2026-01-14 01:07:54.19	347.39	18.89	-41.3	-53.8	3.8	1.49e+00	0	61	104	0	53	15943
2026-01-14 01:07:55.20	347.21	18.97	-41.0	-53.5	3.8	1.49e+00	0	61	104	0	53	15280
2026-01-14 01:07:56.21	347.02	19.06	-41.4	-53.8	3.8	1.49e+00	0	61	104	0	53	15827
2026-01-14 01:07:57.22	346.84	19.14	-40.9	-53.6	3.8	1.49e+00	0	61	104	0	53	15517
2026-01-14 01:07:58.23	346.66	19.23	-41.3	-53.8	3.8	1.49e+00	0	61	104	0	53	15850
2026-01-14 01:07:59.24	346.48	19.31	-41.1	-53.7	3.8	1.49e+00	0	61	104	0	53	15716
2026-01-14 01:08:00.25	346.29	19.40	-41.3	-53.9	3.8	1.49e+00	0	61	104	0	53	15984
2026-01-14 01:08:01.26	346.10	19.48	-41.0	-53.5	3.8	1.49e+00	0	61	104	0	53	15251
2026-01-14 01:08:02.27	345.92	19.57	-41.3	-53.8	3.8	1.49e+00	0	61	104	0	53	15912
2026-01-14 01:08:03.28	345.73	19.65	-41.0	-53.3	3.8	1.49e+00	0	61	104	0	53	14939
2026-01-14 01:08:04.29	345.54	19.74	-41.1	-53.4	3.8	1.49e+00	0	61	104	0	53	15136
2026-01-14 01:08:05.30	345.35	19.82	-40.9	-53.0	3.8	1.49e+00	0	61	104	0	53	14473
2026-01-14 01:08:06.31	345.16	19.90	-41.0	-53.3	3.8	1.49e+00	0	61	104	0	53	15039
2026-01-14 01:08:07.32	344.97	19.99	-41.1	-53.4	3.8	1.49e+00	0	61	104	0	53	15201
2026-01-14 01:08:08.33	344.77	20.07	-41.1	-53.6	3.8	1.49e+00	0	61	104	0	53	15451
2026-01-14 01:08:09.34	344.58	20.16	-41.1	-53.7	3.8	1.49e+00	0	61	104	0	53	15666
2026-01-14 01:08:10.35	344.38	20.24	-41.2	-53.6	3.8	1.49e+00	0	61	104	0	53	15538
2026-01-14 01:08:11.35	344.19	20.32	-42.2	-52.6	3.9	1.49e+00	0	61	104	0	54	12990
2026-01-14 01:08:12.36	343.99	20.41	-42.3	-52.4	3.9	1.49e+00	0	61	104	0	55	12022
2026-01-14 01:08:13.37	343.79	20.49	-41.8	-53.5	3.8	1.49e+00	0	61	104	0	55	13719
2026-01-14 01:08:14.38	343.59	20.58	-42.1	-51.8	3.9	1.45e+00	0	61	104	0	55	11173
2026-01-14 01:08:15.39	343.39	20.66	-42.2	-51.3	4.2	1.46e+00	0	61	104	0	55	10566
2026-01-14 01:08:16.40	343.19	20.74	-42.3	-51.2	4.0	1.44e+00	0	61	104	0	55	10526
2026-01-14 01:08:17.41	342.98	20.83	-42.2	-49.8	4.9	7.86e-01	0	61	0	0	55	8917
2026-01-14 01:08:18.42	342.78	20.91	-41.3	-47.5	6.2	7.54e-01	0	61	0	1048576	54	7228
2026-01-14 01:08:19.43	342.57	20.99	-41.6	-53.8	3.8	1.49e+00	0	61	104	2097152	54	14887
2026-01-14 01:08:20.44	342.37	21.08	-41.0	-46.5	7.1	8.19e-01	0	61	104	2097152	54	6428
2026-01-14 01:08:21.45	342.16	21.16	-41.1	-48.0	5.6	1.26e+00	0	61	104	3145728	53	8111
2026-01-14 01:08:22.46	341.95	21.24	-40.1	-44.2	9.4	2.20e-02	0	61	0	5242880	52	5584
2026-01-14 01:08:23.47	341.74	21.33	-39.8	-43.3	10.5	6.68e-03	0	61	0	8388608	51	5311
2026-01-14 01:08:24.48	341.53	21.41	-39.5	-42.7	11.3	1.54e-03	0	61	0	11534336	51	4960
2026-01-14 01:08:25.49	341.32	21.49	-39.5	-42.5	11.6	6.82e-04	0	61	0	14680064	50	5157
2026-01-14 01:08:26.49	341.10	21.57	-39.4	-42.3	11.9	5.53e-04	0	61	0	17825792	50	5032
2026-01-14 01:08:27.50	340.89	21.65	-39.3	-42.1	12.1	2.71e-04	0	61	0	20971520	50	4901
2026-01-14 01:08:28.51	340.67	21.74	-39.2	-42.0	12.3	1.69e-04	0	61	0	24117248	50	4817
2026-01-14 01:08:29.52	340.46	21.82	-39.2	-41.8	12.5	1.11e-04	0	61	0	27262976	50	4758
2026-01-14 01:08:30.53	340.24	21.90	-39.4	-42.2	12.3	1.29e-04	0	61	0	30408704	50	4941
2026-01-14 01:08:31.54	340.02	21.98	-39.7	-42.5	12.1	2.35e-04	0	61	0	33554432	50	5125
2026-01-14 01:08:32.55	339.80	22.06	-39.6	-42.3	12.5	1.74e-04	0	61	0	36700160	50	5025
2026-01-14 01:08:33.56	339.58	22.14	-39.7	-42.3	12.6	1.03e-04	0	61	0	39845888	50	5005
2026-01-14 01:08:34.57	339.35	22.22	-39.7	-42.2	12.8	7.55e-05	0	61	0	42991616	50	4980
2026-01-14 01:08:35.58	339.13	22.31	-39.6	-42.1	13.1	3.20e-05	0	61	0	46137344	50	4888
2026-01-14 01:08:36.59	338.90	22.39	-39.7	-42.2	13.1	2.59e-05	0	61	0	49283072	50	4945
2026-01-14 01:08:37.60	338.68	22.47	-39.8	-42.3	13.0	3.43e-05	0	61	0	52428800	50	5004
2026-01-14 01:08:38.61	338.45	22.55	-39.6	-42.0	13.3	1.90e-05	0	61	0	55574528	50	4840
2026-01-14 01:08:39.61	338.22	22.63	-39.5	-41.9	13.5	1.14e-05	0	61	0	58720256	50	4769
2026-01-14 01:08:40.62	337.99	22.70	-39.5	-41.9	13.5	1.14e-05	0	61	0	61865984	50	4770
2026-01-14 01:08:41.63	337.76	22.78	-39.5	-41.8	13.7	6.10e-06	0	61	0	65011712	50	4724
2026-01-14 01:08:42.64	337.53	22.86	-39.6	-41.9	13.6	5.30e-06	0	61	0	68157440	50	4803
2026-01-14 01:08:43.65	337.30	22.94	-39.7	-42.0	13.6	8.30e-06	0	61	0	71303168	50	4832
2026-01-14 01:08:44.66	337.06	23.02	-39.7	-42.1	13.5	9.90e-06	0	61	0	74448896	50	4883
2026-01-14 01:08:45.67	336.83	23.10	-39.8	-42.1	13.5	9.90e-06	0	61	0	77594624	50	4920
2026-01-14 01:08:46.68	336.59	23.18	-39.8	-42.1	13.5	8.30e-06	0	61	0	80740352	50	4889
2026-01-14 01:08:47.69	336.35	23.25	-39.8	-42.1	13.6	6.10e-06	0	61	0	83886080	50	4882
2026-01-14 01:08:48.70	336.11	23.33	-39.8	-42.1	13.5	1.37e-05	0	61	0	87031808	50	4924
2026-01-14 01:08:49.71	335.87	23.41	-39.9	-42.2	13.4	9.90e-06	0	61	0	90177536	50	4971
2026-01-14 01:08:50.72	335.63	23.48	-39.9	-42.3	13.4	9.90e-06	0	61	0	93323264	50	5026
2026-01-14 01:08:51.73	335.38	23.56	-39.9	-42.3	13.4	7.60e-06	0	61	0	96468992	50	5008
2026-01-14 01:08:52.74	335.14	23.64	-40.0	-42.4	13.3	2.13e-05	0	61	0	99614720	50	5052
2026-01-14 01:08:53.75	334.89	23.71	-40.0	-42.4	13.3	1.06e-05	0	61	0	102760448	50	5076
2026-01-14 01:08:54.76	334.65	23.79	-40.1	-42.5	13.2	1.75e-05	0	61	0	105906176	50	5135
2026-01-14 01:08:55.77	334.40	23.86	-40.1	-42.5	13.2	2.67e-05	0	61	0	109051904	50	5155
2026-01-14 01:08:56.78	334.15	23.94	-40.1	-42.5	13.3	1.75e-05	0	61	0	112197632	50	5141
2026-01-14 01:08:57.79	333.90	24.01	-40.3	-42.7	13.1	3.28e-05	0	61	0	116391936	51	4961
2026-01-14 01:08:58.80	333.65	24.09	-40.3	-42.7	13.1	2.51e-05	0	61	0	118489088	51	4960
2026-01-14 01:08:59.81	333.39	24.16	-40.3	-42.7	13.1	3.50e-05	0	61	0	121634816	51	4970
2026-01-14 01:09:00.83	333.14	24.23	-40.3	-42.8	13.0	3.43e-05	0	61	0	124780544	51	5008
2026-01-14 01:09:01.84	332.88	24.31	-40.3	-42.7	13.1	3.28e-05	0	61	0	127926272	51	4963
2026-01-14 01:09:02.84	332.63	24.38	-40.2	-42.6	13.3	1.90e-05	0	61	0	132120576	51	4874
2026-01-14 01:09:03.85	332.37	24.45	-40.1	-42.5	13.3	1.44e-05	0	61	0	135266304	51	4844
2026-01-14 01:09:04.86	332.11	24.52	-40.2	-42.5	13.3	1.60e-05	0	61	0	138412032	51	4861
2026-01-14 01:09:05.87	331.85	24.59	-40.2	-42.6	13.3	1.75e-05	0	61	0	140509184	51	4875
2026-01-14 01:09:06.89	331.59	24.66	-40.2	-42.6	13.2	2.28e-05	0	61	0	143654912	51	4926
2026-01-14 01:09:07.89	331.33	24.73	-40.3	-42.7	13.2	2.28e-05	0	61	0	147849216	51	4955
2026-01-14 01:09:08.91	331.06	24.80	-40.3	-42.8	13.1	2.51e-05	0	61	0	150994944	51	5010
2026-01-14 01:09:09.92	330.80	24.87	-40.4	-42.9	13.0	3.50e-05	0	61	0	154140672	51	5058
2026-01-14 01:09:10.93	330.53	24.94	-40.3	-42.7	13.2	3.12e-05	0	61	0	157286400	51	4964
2026-01-14 01:09:11.94	330.26	25.01	-40.3	-42.7	13.2	2.28e-05	0	61	0	160432128	51	4953
2026-01-14 01:09:12.95	330.00	25.07	-40.3	-42.7	13.2	3.28e-05	0	61	0	163577856	51	4965
2026-01-14 01:09:13.96	329.73	25.14	-40.4	-42.8	13.0	3.20e-05	0	61	0	166723584	51	5039
2026-01-14 01:09:14.97	329.46	25.21	-40.6	-43.1	12.8	6.17e-05	0	61	0	169869312	51	5200
2026-01-14 01:09:15.98	329.18	25.27	-40.5	-43.1	12.8	6.63e-05	0	61	0	173015040	51	5186
2026-01-14 01:09:16.99	328.91	25.34	-40.5	-43.0	12.9	4.80e-05	0	61	0	176160768	51	5153
2026-01-14 01:09:17.99	328.64	25.40	-40.5	-43.0	12.9	4.88e-05	0	61	0	179306496	51	5123
2026-01-14 01:09:19.00	328.37	25.47	-40.5	-43.0	12.9	3.66e-05	0	61	0	182452224	51	5125
2026-01-14 01:09:20.01	328.09	25.53	-40.5	-43.1	12.8	4.80e-05	0	61	0	185597952	51	5167
2026-01-14 01:09:21.02	327.81	25.59	-40.5	-43.0	12.9	4.73e-05	0	61	0	188743680	51	5105
2026-01-14 01:09:22.03	327.53	25.66	-40.4	-42.9	12.9	5.18e-05	0	61	0	191889408	51	5078
2026-01-14 01:09:23.04	327.25	25.72	-40.4	-42.8	13.1	2.97e-05	0	61	0	195035136	51	5026
2026-01-14 01:09:24.05	326.97	25.78	-40.3	-42.7	13.2	3.35e-05	0	61	0	198180864	51	4964
2026-01-14 01:09:25.06	326.69	25.84	-40.2	-42.6	13.3	2.44e-05	0	61	0	201326592	51	4903
2026-01-14 01:09:26.07	326.41	25.90	-40.2	-42.6	13.3	2.28e-05	0	61	0	204472320	51	4899
2026-01-14 01:09:27.08	326.12	25.96	-40.3	-42.7	13.2	1.83e-05	0	61	0	207618048	51	4974
2026-01-14 01:09:28.09	325.84	26.02	-40.3	-42.7	13.2	1.83e-05	0	61	0	210763776	51	4947
2026-01-14 01:09:29.10	325.55	26.08	-40.4	-42.8	13.1	3.50e-05	0	61	0	213909504	51	5018
2026-01-14 01:09:30.11	325.27	26.13	-40.4	-42.9	13.0	3.66e-05	0	61	0	217055232	51	5092
2026-01-14 01:09:31.12	324.98	26.19	-40.5	-43.0	12.9	5.03e-05	0	61	0	220200960	51	5131
2026-01-14 01:09:32.13	324.69	26.25	-40.5	-43.1	12.8	4.50e-05	0	61	0	223346688	51	5182
2026-01-14 01:09:33.13	324.40	26.30	-40.3	-42.8	13.1	2.82e-05	0	61	0	226492416	51	4985
2026-01-14 01:09:34.14	324.11	26.36	-40.2	-42.6	13.3	1.52e-05	0	61	0	229638144	51	4907
2026-01-14 01:09:35.15	323.82	26.41	-40.2	-42.6	13.3	1.98e-05	0	61	0	232783872	51	4874
2026-01-14 01:09:36.16	323.52	26.46	-40.3	-42.6	13.3	1.75e-05	0	61	0	235929600	51	4926
2026-01-14 01:09:37.17	323.23	26.52	-40.2	-42.6	13.4	1.37e-05	0	61	0	239075328	51	4880
2026-01-14 01:09:38.18	322.93	26.57	-40.2	-42.6	13.3	1.83e-05	0	61	0	242221056	51	4899
2026-01-14 01:09:39.19	322.64	26.62	-40.3	-42.7	13.2	2.36e-05	0	61	0	245366784	51	4958
2026-01-14 01:09:40.20	322.34	26.67	-40.3	-42.8	13.1	2.67e-05	0	62	0	248512512	51	5012
2026-01-14 01:09:41.21	322.04	26.72	-40.3	-42.8	13.2	3.28e-05	0	61	0	251658240	51	4988
2026-01-14 01:09:42.22	321.74	26.77	-40.2	-42.5	13.3	1.67e-05	0	61	0	254803968	51	4867
2026-01-14 01:09:43.23	321.44	26.81	-40.2	-42.5	13.4	1.83e-05	0	61	0	257949696	51	4837
2026-01-14 01:09:44.24	321.14	26.86	-40.2	-42.6	13.4	1.52e-05	0	61	0	261095424	51	4874
2026-01-14 01:09:45.24	320.84	26.91	-40.2	-42.6	13.3	1.37e-05	0	61	0	264241152	51	4903
2026-01-14 01:09:46.25	320.54	26.95	-40.2	-42.6	13.4	1.83e-05	0	61	0	267386880	51	4871
2026-01-14 01:09:47.27	320.23	27.00	-40.0	-42.3	13.6	7.60e-06	0	61	0	270532608	51	4708
2026-01-14 01:09:48.28	319.93	27.04	-40.0	-42.3	13.6	7.60e-06	0	61	0	273678336	51	4738
2026-01-14 01:09:49.29	319.62	27.09	-40.0	-42.2	13.7	1.14e-05	0	61	0	276824064	51	4697
2026-01-14 01:09:50.30	319.32	27.13	-40.0	-42.3	13.6	8.30e-06	0	61	0	279969792	51	4722
2026-01-14 01:09:51.31	319.01	27.17	-40.1	-42.5	13.4	1.22e-05	0	61	0	283115520	51	4827
2026-01-14 01:09:52.32	318.70	27.21	-40.3	-42.7	13.2	1.75e-05	0	61	0	286261248	51	4957
2026-01-14 01:09:53.33	318.40	27.25	-40.3	-42.7	13.2	2.67e-05	0	61	0	289406976	51	4959
2026-01-14 01:09:54.34	318.09	27.29	-40.2	-42.6	13.3	2.67e-05	0	61	0	292552704	51	4881
2026-01-14 01:09:55.35	317.78	27.33	-40.1	-42.5	13.4	1.29e-05	0	61	0	295698432	51	4841
2026-01-14 01:09:56.36	317.47	27.36	-40.1	-42.4	13.5	6.10e-06	0	61	0	298844160	51	4809
2026-01-14 01:09:57.37	317.15	27.40	-40.2	-42.5	13.4	1.14e-05	0	61	0	301989888	51	4846
2026-01-14 01:09:58.38	316.84	27.44	-40.3	-42.7	13.3	1.44e-05	0	61	0	305135616	51	4929
2026-01-14 01:09:59.39	316.53	27.47	-40.2	-42.6	13.3	1.29e-05	0	61	0	308281344	51	4904
2026-01-14 01:10:00.40	316.21	27.50	-40.2	-42.6	13.3	1.67e-05	0	61	0	311427072	51	4918
2026-01-14 01:10:01.41	315.90	27.54	-40.2	-42.6	13.3	1.44e-05	0	61	0	314572800	51	4894
2026-01-14 01:10:02.42	315.59	27.57	-40.2	-42.6	13.3	1.60e-05	0	61	0	317718528	51	4902
2026-01-14 01:10:03.43	315.27	27.60	-40.2	-42.6	13.3	1.60e-05	0	61	0	320864256	51	4876
2026-01-14 01:10:04.44	314.95	27.63	-40.2	-42.5	13.4	1.90e-05	0	61	0	324009984	51	4867
2026-01-14 01:10:05.45	314.64	27.66	-40.2	-42.6	13.3	2.05e-05	0	61	0	327155712	51	4917
2026-01-14 01:10:06.46	314.32	27.69	-40.1	-42.4	13.5	1.98e-05	0	61	0	330301440	51	4789
2026-01-14 01:10:07.47	314.00	27.71	-40.0	-42.2	13.7	4.50e-06	0	61	0	333447168	51	4687
2026-01-14 01:10:08.48	313.68	27.74	-40.0	-42.2	13.7	9.10e-06	0	61	0	336592896	51	4688
2026-01-14 01:10:09.49	313.36	27.76	-40.0	-42.3	13.6	1.50e-06	0	61	0	339738624	51	4710
2026-01-14 01:10:10.50	313.04	27.79	-39.9	-42.2	13.7	7.60e-06	0	61	0	342884352	51	4671
2026-01-14 01:10:11.51	312.72	27.81	-40.1	-42.3	13.5	1.22e-05	0	61	0	346030080	51	4758
2026-01-14 01:10:12.52	312.40	27.83	-40.2	-42.5	13.4	9.10e-06	0	61	0	349175808	51	4842
2026-01-14 01:10:13.53	312.08	27.86	-40.1	-42.5	13.4	1.83e-05	0	61	0	352321536	51	4833
2026-01-14 01:10:14.54	311.76	27.88	-40.0	-42.3	13.6	6.10e-06	0	61	0	355467264	51	4739
2026-01-14 01:10:15.55	311.44	27.90	-40.0	-42.3	13.6	9.10e-06	0	61	0	358612992	51	4730
2026-01-14 01:10:16.56	311.12	27.91	-40.2	-42.5	13.3	8.30e-06	0	61	0	361758720	51	4866
2026-01-14 01:10:17.57	310.80	27.93	-40.3	-42.7	13.2	2.05e-05	0	61	0	364904448	51	4949
2026-01-14 01:10:18.58	310.47	27.95	-40.4	-42.8	13.1	2.51e-05	0	61	0	368050176	51	5021
2026-01-14 01:10:19.59	310.15	27.96	-40.5	-43.0	12.9	3.43e-05	0	61	0	371195904	51	5112
2026-01-14 01:10:20.60	309.83	27.98	-40.5	-43.0	12.8	5.26e-05	0	61	0	374341632	51	5139
2026-01-14 01:10:21.61	309.50	27.99	-40.4	-42.8	13.0	5.11e-05	0	61	0	377487360	51	5035
2026-01-14 01:10:22.62	309.18	28.00	-40.3	-42.8	13.1	2.36e-05	0	61	0	380633088	51	5004
2026-01-14 01:10:23.63	308.85	28.01	-40.4	-42.8	13.0	3.43e-05	0	61	0	383778816	51	5033
2026-01-14 01:10:24.64	308.53	28.02	-40.4	-42.9	13.0	2.97e-05	0	61	0	386924544	51	5044
2026-01-14 01:10:25.64	308.21	28.03	-40.4	-42.9	13.0	4.65e-05	0	61	0	390070272	51	5052
2026-01-14 01:10:26.65	307.88	28.04	-40.3	-42.7	13.1	2.59e-05	0	61	0	393216000	51	4978
2026-01-14 01:10:27.66	307.56	28.05	-40.2	-42.5	13.3	2.67e-05	0	61	0	396361728	51	4865
2026-01-14 01:10:28.67	307.23	28.05	-40.0	-42.2	13.7	6.80e-06	0	61	0	399507456	51	4700
2026-01-14 01:10:29.68	306.91	28.06	-39.9	-42.1	13.8	3.80e-06	0	61	0	402653184	51	4631
2026-01-14 01:10:30.69	306.58	28.06	-39.9	-42.2	13.7	1.06e-05	0	61	0	405798912	51	4668
2026-01-14 01:10:31.70	306.26	28.07	-40.0	-42.3	13.6	4.50e-06	0	61	0	408944640	51	4738
2026-01-14 01:10:32.71	305.93	28.07	-40.2	-42.5	13.4	1.22e-05	0	61	0	412090368	51	4836
2026-01-14 01:10:33.72	305.61	28.07	-40.2	-42.5	13.3	1.14e-05	0	61	0	415236096	51	4870
2026-01-14 01:10:34.73	305.28	28.07	-40.2	-42.6	13.3	1.60e-05	0	61	0	418381824	51	4873
2026-01-14 01:10:35.74	304.95	28.07	-40.1	-42.5	13.4	1.29e-05	0	61	0	421527552	51	4821
2026-01-14 01:10:36.76	304.63	28.07	-40.2	-42.6	13.3	1.98e-05	0	61	0	424673280	51	4896
2026-01-14 01:10:37.77	304.30	28.06	-40.2	-42.6	13.2	2.05e-05	0	61	0	427819008	51	4921
2026-01-14 01:10:38.78	303.97	28.06	-40.1	-42.4	13.5	1.22e-05	0	61	0	430964736	51	4814
2026-01-14 01:10:39.79	303.65	28.06	-40.0	-42.3	13.6	7.60e-06	0	61	0	434110464	51	4749
2026-01-14 01:10:40.80	303.32	28.05	-40.0	-42.3	13.6	8.30e-06	0	61	0	437256192	51	4757
2026-01-14 01:10:41.81	303.00	28.04	-40.1	-42.4	13.4	9.90e-06	0	61	0	440401920	51	4802
2026-01-14 01:10:42.82	302.67	28.03	-40.1	-42.5	13.4	1.29e-05	0	61	0	443547648	51	4816
2026-01-14 01:10:43.83	302.35	28.02	-40.2	-42.5	13.4	2.05e-05	0	61	0	446693376	51	4848
2026-01-14 01:10:44.84	302.02	28.01	-40.2	-42.5	13.3	1.44e-05	0	61	0	449839104	51	4862
2026-01-14 01:10:45.85	301.70	28.00	-40.1	-42.4	13.4	1.29e-05	0	61	0	454033408	51	4812
2026-01-14 01:10:46.86	301.38	27.99	-40.1	-42.4	13.5	7.60e-06	0	61	0	457179136	51	4812
2026-01-14 01:10:47.87	301.05	27.98	-40.0	-42.3	13.6	1.37e-05	0	61	0	459276288	51	4742
2026-01-14 01:10:48.88	300.73	27.96	-39.9	-42.2	13.7	3.00e-06	0	61	0	462422016	51	4667
2026-01-14 01:10:49.89	300.40	27.95	-39.9	-42.2	13.7	6.80e-06	0	61	0	465567744	51	4682
2026-01-14 01:10:50.90	300.08	27.93	-39.9	-42.2	13.7	6.80e-06	0	61	0	469762048	51	4664
2026-01-14 01:10:51.91	299.76	27.91	-39.9	-42.2	13.7	9.10e-06	0	61	0	472907776	51	4675
2026-01-14 01:10:52.92	299.44	27.90	-40.1	-42.4	13.5	7.60e-06	0	61	0	476053504	51	4764
2026-01-14 01:10:53.93	299.11	27.88	-40.0	-42.3	13.6	1.44e-05	0	61	0	479199232	51	4716
2026-01-14 01:10:54.94	298.79	27.86	-40.0	-42.3	13.6	6.10e-06	0	61	0	481296384	51	4741
2026-01-14 01:10:55.95	298.47	27.84	-40.1	-42.4	13.4	1.14e-05	0	61	0	485490688	51	4802
2026-01-14 01:10:56.96	298.15	27.81	-40.2	-42.6	13.3	1.06e-05	0	61	0	488636416	51	4888
2026-01-14 01:10:57.96	297.83	27.79	-40.2	-42.5	13.3	1.52e-05	0	61	0	491782144	51	4865
2026-01-14 01:10:58.97	297.51	27.77	-40.2	-42.6	13.3	1.37e-05	0	61	0	494927872	51	4897
2026-01-14 01:10:59.98	297.19	27.74	-40.2	-42.5	13.3	1.83e-05	0	61	0	498073600	51	4864
2026-01-14 01:11:00.99	296.88	27.71	-40.1	-42.5	13.4	2.05e-05	0	61	0	501219328	51	4843
2026-01-14 01:11:02.00	296.56	27.69	-40.0	-42.3	13.5	1.37e-05	0	61	0	504365056	51	4746
2026-01-14 01:11:03.01	296.24	27.66	-40.1	-42.4	13.5	7.60e-06	0	61	0	507510784	51	4764
2026-01-14 01:11:04.02	295.92	27.63	-40.0	-42.3	13.6	1.14e-05	0	61	0	510656512	51	4723
2026-01-14 01:11:05.03	295.61	27.60	-40.0	-42.3	13.6	1.37e-05	0	61	0	513802240	51	4726
2026-01-14 01:11:06.04	295.29	27.57	-40.0	-42.3	13.5	9.10e-06	0	61	0	516947968	51	4759
2026-01-14 01:11:07.05	294.97	27.54	-40.0	-42.3	13.6	6.80e-06	0	61	0	520093696	51	4721
2026-01-14 01:11:08.06	294.66	27.51	-40.0	-42.3	13.5	8.30e-06	0	61	0	523239424	51	4743
2026-01-14 01:11:09.07	294.35	27.47	-40.0	-42.3	13.6	6.80e-06	0	61	0	526385152	51	4713
2026-01-14 01:11:10.08	294.03	27.44	-40.0	-42.2	13.6	6.80e-06	0	61	0	529530880	51	4702
2026-01-14 01:11:11.09	293.72	27.40	-40.0	-42.3	13.6	9.10e-06	0	61	0	532676608	51	4726
2026-01-14 01:11:12.10	293.41	27.37	-40.1	-42.5	13.4	1.75e-05	0	61	0	535822336	51	4818
2026-01-14 01:11:13.11	293.10	27.33	-40.2	-42.6	13.2	2.13e-05	0	61	0	538968064	51	4907
2026-01-14 01:11:14.12	292.78	27.29	-40.2	-42.6	13.3	2.51e-05	0	61	0	542113792	51	4878
2026-01-14 01:11:15.13	292.47	27.25	-40.1	-42.5	13.4	1.75e-05	0	61	0	545259520	51	4829
2026-01-14 01:11:16.14	292.17	27.21	-40.1	-42.5	13.4	1.83e-05	0	61	0	548405248	51	4838
2026-01-14 01:11:17.15	291.86	27.17	-40.2	-42.6	13.3	2.05e-05	0	61	0	551550976	51	4876
2026-01-14 01:11:18.16	291.55	27.13	-40.3	-42.7	13.1	2.13e-05	0	61	0	554696704	51	4951
2026-01-14 01:11:19.17	291.24	27.09	-40.3	-42.7	13.1	2.74e-05	0	61	0	557842432	51	4959
2026-01-14 01:11:20.19	290.93	27.04	-40.3	-42.7	13.2	2.21e-05	0	61	0	560988160	51	4949
2026-01-14 01:11:21.19	290.63	27.00	-40.2	-42.6	13.3	2.36e-05	0	61	0	564133888	51	4878
2026-01-14 01:11:22.21	290.32	26.95	-40.2	-42.6	13.3	1.29e-05	0	61	0	567279616	51	4871
2026-01-14 01:11:23.22	290.02	26.91	-40.3	-42.7	13.2	3.50e-05	0	61	0	570425344	51	4950
2026-01-14 01:11:24.23	289.72	26.86	-40.3	-42.7	13.1	3.28e-05	0	61	0	573571072	51	4971
2026-01-14 01:11:25.24	289.42	26.82	-40.3	-42.7	13.1	2.51e-05	0	61	0	576716800	51	4959
2026-01-14 01:11:26.25	289.12	26.77	-40.3	-42.7	13.1	2.36e-05	0	61	0	579862528	51	4973
2026-01-14 01:11:27.25	288.82	26.72	-40.4	-42.9	12.9	4.95e-05	0	61	0	583008256	51	5069
2026-01-14 01:11:28.26	288.52	26.67	-40.4	-42.9	12.9	4.65e-05	0	61	0	586153984	51	5064
2026-01-14 01:11:29.27	288.22	26.62	-40.3	-42.7	13.1	2.67e-05	0	61	0	589299712	51	4982
2026-01-14 01:11:30.29	287.92	26.57	-40.3	-42.7	13.1	2.59e-05	0	61	0	592445440	51	4971
2026-01-14 01:11:31.29	287.63	26.52	-40.2	-42.6	13.2	2.44e-05	0	61	0	595591168	51	4919
2026-01-14 01:11:32.30	287.33	26.46	-40.2	-42.6	13.2	1.98e-05	0	61	0	598736896	51	4914
2026-01-14 01:11:33.31	287.04	26.41	-40.2	-42.6	13.2	1.90e-05	0	61	0	601882624	51	4909
2026-01-14 01:11:34.33	286.74	26.36	-40.3	-42.8	13.1	3.96e-05	0	61	0	605028352	51	4994
2026-01-14 01:11:35.34	286.45	26.30	-40.5	-43.0	12.9	3.81e-05	0	61	0	608174080	51	5110
2026-01-14 01:11:36.35	286.16	26.25	-40.5	-43.0	12.9	6.02e-05	0	61	0	611319808	51	5111
2026-01-14 01:11:37.36	285.87	26.19	-40.4	-42.8	13.0	3.89e-05	0	61	0	614465536	51	5036
2026-01-14 01:11:38.37	285.58	26.13	-40.3	-42.7	13.1	3.89e-05	0	61	0	617611264	51	4971
2026-01-14 01:11:39.38	285.29	26.07	-40.3	-42.8	13.1	3.89e-05	0	61	0	620756992	51	5002
2026-01-14 01:11:40.39	285.01	26.02	-40.4	-42.8	13.0	4.34e-05	0	61	0	623902720	51	5041
2026-01-14 01:11:41.40	284.72	25.96	-40.3	-42.8	13.1	2.59e-05	0	61	0	627048448	51	4991
2026-01-14 01:11:42.41	284.43	25.90	-40.4	-42.9	12.9	4.50e-05	0	61	0	630194176	51	5049
2026-01-14 01:11:43.41	284.15	25.84	-40.4	-42.9	12.9	5.11e-05	0	61	0	633339904	51	5094
2026-01-14 01:11:44.42	283.87	25.78	-40.5	-43.1	12.7	5.34e-05	0	61	0	636485632	51	5171
2026-01-14 01:11:45.43	283.59	25.72	-40.5	-43.1	12.8	5.79e-05	0	61	0	639631360	51	5161
2026-01-14 01:11:46.44	283.31	25.65	-40.3	-42.8	13.0	3.50e-05	0	61	0	642777088	51	5002
2026-01-14 01:11:47.45	283.03	25.59	-40.2	-42.5	13.3	1.67e-05	0	61	0	645922816	51	4856
2026-01-14 01:11:48.46	282.75	25.53	-40.1	-42.4	13.4	1.90e-05	0	61	0	649068544	51	4802
2026-01-14 01:11:49.47	282.47	25.46	-40.1	-42.4	13.4	1.37e-05	0	61	0	652214272	51	4782
2026-01-14 01:11:50.48	282.20	25.40	-40.1	-42.5	13.4	1.60e-05	0	61	0	655360000	51	4823
2026-01-14 01:11:51.49	281.92	25.33	-40.3	-42.7	13.1	3.05e-05	0	61	0	658505728	51	4952
2026-01-14 01:11:52.50	281.65	25.27	-40.4	-42.8	12.9	3.58e-05	0	61	0	661651456	51	5039
2026-01-14 01:11:53.51	281.38	25.20	-40.6	-43.1	12.6	7.55e-05	0	61	0	664797184	51	5217
2026-01-14 01:11:54.52	281.10	25.14	-40.6	-43.2	12.6	1.11e-04	0	61	0	667942912	51	5259
2026-01-14 01:11:55.53	280.83	25.07	-40.4	-42.8	13.0	5.49e-05	0	61	0	671088640	51	5031
2026-01-14 01:11:56.54	280.57	25.00	-40.2	-42.6	13.2	2.97e-05	0	61	0	674234368	51	4886
2026-01-14 01:11:57.55	280.30	24.93	-40.1	-42.4	13.4	1.44e-05	0	61	0	677380096	51	4774
2026-01-14 01:11:58.56	280.03	24.86	-40.0	-42.3	13.5	6.10e-06	0	61	0	680525824	51	4739
2026-01-14 01:11:59.57	279.76	24.80	-39.9	-42.2	13.6	9.90e-06	0	61	0	683671552	51	4669
2026-01-14 01:12:00.58	279.50	24.73	-39.9	-42.2	13.6	9.10e-06	0	61	0	686817280	51	4674
2026-01-14 01:12:01.59	279.24	24.66	-40.0	-42.3	13.5	1.22e-05	0	61	0	689963008	51	4729
2026-01-14 01:12:02.60	278.97	24.59	-40.1	-42.5	13.3	1.52e-05	0	61	0	693108736	51	4823
2026-01-14 01:12:03.61	278.71	24.51	-40.3	-42.7	13.1	2.13e-05	0	61	0	696254464	51	4963
2026-01-14 01:12:04.62	278.45	24.44	-40.2	-42.7	13.1	3.12e-05	0	61	0	699400192	51	4935
2026-01-14 01:12:05.63	278.19	24.37	-40.1	-42.4	13.4	1.37e-05	0	61	0	702545920	51	4780
2026-01-14 01:12:06.64	277.94	24.30	-39.8	-42.0	13.7	9.90e-06	0	61	0	705691648	51	4586
2026-01-14 01:12:07.65	277.68	24.23	-39.7	-41.9	13.8	7.00e-07	0	61	0	708837376	51	4514
2026-01-14 01:12:08.65	277.43	24.15	-39.5	-41.6	14.1	2.20e-06	0	61	0	711983104	51	4383
2026-01-14 01:12:09.66	277.17	24.08	-39.5	-41.6	14.2	1.50e-06	0	61	0	715128832	50	4612
2026-01-14 01:12:10.68	276.92	24.00	-39.5	-41.6	14.2	0.00e+00	0	61	0	718274560	50	4639
2026-01-14 01:12:11.69	276.67	23.93	-39.6	-41.7	14.1	2.20e-06	0	61	0	721420288	50	4669
2026-01-14 01:12:12.69	276.42	23.86	-39.8	-42.0	13.8	2.20e-06	0	61	0	724566016	50	4832
2026-01-14 01:12:13.70	276.17	23.78	-39.9	-42.2	13.5	1.22e-05	0	61	0	727711744	50	4980
2026-01-14 01:12:14.71	275.92	23.71	-40.1	-42.5	13.3	1.83e-05	0	61	0	730857472	50	5114
2026-01-14 01:12:15.72	275.68	23.63	-40.1	-42.4	13.3	2.67e-05	0	61	0	734003200	50	5085
2026-01-14 01:12:16.73	275.43	23.55	-39.9	-42.1	13.6	1.14e-05	0	61	0	737148928	50	4925
2026-01-14 01:12:17.74	275.19	23.48	-39.8	-42.1	13.7	6.10e-06	0	61	0	740294656	50	4873
2026-01-14 01:12:18.75	274.94	23.40	-39.8	-42.0	13.8	1.50e-06	0	61	0	743440384	50	4826
2026-01-14 01:12:19.76	274.70	23.32	-39.6	-41.8	14.0	6.10e-06	0	61	0	746586112	50	4710
2026-01-14 01:12:20.77	274.46	23.24	-39.6	-41.8	14.0	7.00e-07	0	61	0	749731840	50	4728
2026-01-14 01:12:21.78	274.22	23.17	-39.6	-41.7	14.0	2.20e-06	0	61	0	752877568	50	4685
2026-01-14 01:12:22.79	273.98	23.09	-39.6	-41.8	14.0	2.20e-06	0	61	0	756023296	50	4722
2026-01-14 01:12:23.80	273.75	23.01	-39.8	-42.0	13.8	6.10e-06	0	61	0	759169024	50	4846
2026-01-14 01:12:24.81	273.51	22.93	-39.8	-42.1	13.7	2.20e-06	0	61	0	762314752	50	4872
2026-01-14 01:12:25.82	273.27	22.85	-39.8	-42.0	13.7	5.30e-06	0	61	0	765460480	50	4862
2026-01-14 01:12:26.83	273.04	22.77	-39.8	-42.1	13.7	9.10e-06	0	61	0	768606208	50	4876
2026-01-14 01:12:27.84	272.81	22.69	-39.8	-42.0	13.7	8.30e-06	0	61	0	772800512	50	4866
2026-01-14 01:12:28.85	272.58	22.61	-39.8	-42.0	13.8	4.50e-06	0	61	0	774897664	50	4830
2026-01-14 01:12:29.86	272.35	22.53	-39.8	-42.0	13.7	4.50e-06	0	61	0	778043392	50	4851
2026-01-14 01:12:30.87	272.12	22.45	-39.8	-42.1	13.6	8.30e-06	0	61	0	781189120	50	4906
2026-01-14 01:12:31.88	271.89	22.37	-39.9	-42.2	13.5	9.90e-06	0	61	0	784334848	50	4978
2026-01-14 01:12:32.89	271.66	22.29	-40.1	-42.5	13.2	1.90e-05	0	61	0	788529152	50	5114
2026-01-14 01:12:33.90	271.44	22.21	-40.2	-42.6	13.0	2.67e-05	0	61	0	791674880	50	5196
2026-01-14 01:12:34.92	271.21	22.13	-40.2	-42.6	13.0	3.35e-05	0	61	0	794820608	50	5216
2026-01-14 01:12:35.92	270.99	22.05	-40.1	-42.5	13.2	2.97e-05	0	61	0	796917760	50	5129
2026-01-14 01:12:36.93	270.77	21.97	-40.0	-42.4	13.4	1.60e-05	0	61	0	800063488	50	5052
2026-01-14 01:12:37.94	270.55	21.88	-39.8	-42.1	13.7	3.80e-06	0	61	0	804257792	50	4872
2026-01-14 01:12:38.95	270.33	21.80	-39.7	-41.9	13.8	5.30e-06	0	61	0	807403520	50	4790
2026-01-14 01:12:39.97	270.11	21.72	-39.6	-41.8	14.0	2.20e-06	0	61	0	810549248	50	4712
2026-01-14 01:12:40.97	269.90	21.64	-39.5	-41.6	14.1	3.80e-06	0	61	0	813694976	50	4633
2026-01-14 01:12:41.98	269.68	21.56	-39.6	-41.7	14.0	7.00e-07	0	61	0	816840704	50	4679
2026-01-14 01:12:42.99	269.46	21.47	-39.7	-41.9	13.8	4.50e-06	0	61	0	819986432	50	4789
2026-01-14 01:12:44.00	269.25	21.39	-39.9	-42.2	13.5	9.10e-06	0	61	0	823132160	50	4970
2026-01-14 01:12:45.01	269.04	21.31	-40.1	-42.4	13.2	1.14e-05	0	61	0	826277888	50	5098
2026-01-14 01:12:46.03	268.83	21.22	-40.1	-42.6	13.1	1.83e-05	0	61	0	829423616	50	5162
2026-01-14 01:12:47.04	268.62	21.14	-40.3	-42.8	12.9	3.73e-05	0	61	0	832569344	51	4986
2026-01-14 01:12:48.04	268.41	21.06	-40.3	-42.7	12.9	4.42e-05	0	61	0	835715072	51	4981
2026-01-14 01:12:49.05	268.20	20.97	-40.2	-42.6	13.1	3.05e-05	0	61	0	838860800	51	4916
2026-01-14 01:12:50.06	267.99	20.89	-40.1	-42.6	13.1	2.89e-05	0	61	0	842006528	51	4880
2026-01-14 01:12:51.07	267.79	20.81	-40.0	-42.4	13.3	2.28e-05	0	61	0	845152256	51	4799
2026-01-14 01:12:52.08	267.58	20.72	-40.0	-42.4	13.3	1.52e-05	0	61	0	848297984	51	4778
2026-01-14 01:12:53.09	267.38	20.64	-39.9	-42.2	13.5	1.37e-05	0	61	0	851443712	51	4690
2026-01-14 01:12:54.10	267.18	20.55	-39.9	-42.2	13.4	9.90e-06	0	61	0	854589440	51	4681
2026-01-14 01:12:55.11	266.98	20.47	-40.0	-42.3	13.4	1.52e-05	0	61	0	857735168	51	4729
2026-01-14 01:12:56.13	266.77	20.38	-40.1	-42.4	13.3	1.22e-05	0	61	0	860880896	51	4799
2026-01-14 01:12:57.14	266.58	20.30	-40.1	-42.5	13.1	2.51e-05	0	61	0	864026624	51	4845
2026-01-14 01:12:58.15	266.38	20.22	-40.1	-42.5	13.2	2.13e-05	0	61	0	867172352	51	4822
2026-01-14 01:12:59.16	266.18	20.13	-40.0	-42.4	13.3	2.59e-05	0	61	0	870318080	51	4766
2026-01-14 01:13:00.17	265.99	20.05	-40.0	-42.3	13.3	1.44e-05	0	61	0	873463808	51	4737
2026-01-14 01:13:01.18	265.79	19.96	-40.0	-42.3	13.3	1.67e-05	0	61	0	876609536	51	4755
2026-01-14 01:13:02.19	265.60	19.88	-40.0	-42.3	13.3	2.36e-05	0	61	0	879755264	51	4754
2026-01-14 01:13:03.19	265.41	19.79	-40.0	-42.3	13.4	1.44e-05	0	61	0	882900992	51	4721
2026-01-14 01:13:04.20	265.22	19.71	-40.0	-42.4	13.3	2.59e-05	0	61	0	886046720	51	4775
2026-01-14 01:13:05.21	265.03	19.62	-40.1	-42.5	13.1	2.51e-05	0	61	0	889192448	51	4863
2026-01-14 01:13:06.22	264.84	19.54	-40.2	-42.6	13.0	3.20e-05	0	61	0	892338176	51	4918
2026-01-14 01:13:07.23	264.65	19.45	-40.2	-42.7	12.9	3.12e-05	0	61	0	895483904	51	4968
2026-01-14 01:13:08.24	264.46	19.37	-40.3	-42.8	12.9	5.64e-05	0	61	0	898629632	51	4992
2026-01-14 01:13:09.25	264.27	19.28	-40.3	-42.8	12.8	7.55e-05	0	61	0	901775360	51	5033
2026-01-14 01:13:10.26	264.09	19.20	-40.4	-43.0	12.6	9.07e-05	0	61	0	904921088	51	5115
2026-01-14 01:13:11.27	263.91	19.11	-40.4	-43.0	12.5	1.08e-04	0	61	0	908066816	51	5147
2026-01-14 01:13:12.28	263.72	19.03	-40.6	-43.3	12.3	1.35e-04	0	61	0	911212544	51	5281
2026-01-14 01:13:13.29	263.54	18.94	-40.7	-43.5	12.0	2.68e-04	0	61	0	914358272	52	5107
2026-01-14 01:13:14.30	263.36	18.86	-40.8	-43.7	11.8	4.27e-04	0	61	0	917504000	52	5238
2026-01-14 01:13:15.31	263.18	18.77	-40.9	-43.9	11.6	6.94e-04	0	61	0	920649728	52	5371
2026-01-14 01:13:16.32	263.00	18.69	-40.9	-43.9	11.6	7.00e-04	0	61	0	923795456	52	5366
2026-01-14 01:13:17.33	262.82	18.60	-40.8	-43.7	11.8	7.45e-04	0	61	0	926941184	52	5272
2026-01-14 01:13:18.34	262.65	18.52	-40.5	-43.2	12.3	2.75e-04	0	61	0	930086912	52	4965
2026-01-14 01:13:19.35	262.47	18.43	-40.3	-42.9	12.6	1.39e-04	0	61	0	933232640	52	4793
2026-01-14 01:13:20.36	262.30	18.35	-40.1	-42.6	12.9	5.72e-05	0	61	0	936378368	52	4618
2026-01-14 01:13:21.37	262.12	18.26	-40.0	-42.5	13.0	3.66e-05	0	61	0	939524096	52	4546
2026-01-14 01:13:22.38	261.95	18.18	-40.1	-42.5	13.0	3.73e-05	0	61	0	942669824	52	4576
2026-01-14 01:13:23.39	261.78	18.09	-40.2	-42.7	12.7	6.79e-05	0	61	0	945815552	52	4677
2026-01-14 01:13:24.40	261.61	18.01	-40.3	-43.0	12.5	8.69e-05	0	61	0	948961280	52	4822
2026-01-14 01:13:25.41	261.44	17.92	-40.5	-43.2	12.3	1.89e-04	0	61	0	952107008	52	4951
2026-01-14 01:13:26.42	261.27	17.84	-40.6	-43.3	12.2	2.25e-04	0	61	0	955252736	52	5017
2026-01-14 01:13:27.43	261.10	17.75	-40.6	-43.3	12.2	2.44e-04	0	61	0	958398464	52	5006
2026-01-14 01:13:28.44	260.93	17.67	-40.4	-43.1	12.4	1.74e-04	0	61	0	961544192	52	4892
2026-01-14 01:13:29.45	260.76	17.58	-40.3	-42.9	12.6	9.68e-05	0	61	0	964689920	52	4766
2026-01-14 01:13:30.45	260.60	17.50	-40.2	-42.7	12.8	6.86e-05	0	61	0	967835648	52	4670
2026-01-14 01:13:31.46	260.44	17.42	-40.1	-42.6	12.9	5.56e-05	0	61	0	970981376	52	4610
2026-01-14 01:13:32.48	260.27	17.33	-40.1	-42.6	12.9	4.04e-05	0	61	0	974127104	52	4647
2026-01-14 01:13:33.49	260.11	17.25	-40.0	-42.4	13.1	4.57e-05	0	61	0	977272832	52	4514
2026-01-14 01:13:34.50	259.95	17.16	-39.9	-42.2	13.3	1.52e-05	0	61	0	980418560	51	4686
2026-01-14 01:13:35.51	259.79	17.08	-40.1	-42.5	13.0	3.28e-05	0	61	0	983564288	51	4843
2026-01-14 01:13:36.52	259.63	16.99	-40.2	-42.8	12.8	7.09e-05	0	61	0	986710016	51	4986
2026-01-14 01:13:37.53	259.47	16.91	-40.5	-43.1	12.4	1.11e-04	0	61	0	989855744	51	5186
2026-01-14 01:13:38.54	259.31	16.82	-40.6	-43.3	12.2	1.93e-04	0	61	0	993001472	51	5318
2026-01-14 01:13:39.55	259.15	16.74	-40.6	-43.4	12.0	2.87e-04	0	61	0	996147200	52	5084
2026-01-14 01:13:40.56	259.00	16.66	-40.7	-43.5	11.9	3.92e-04	0	61	0	999292928	52	5139
2026-01-14 01:13:41.57	258.84	16.57	-40.6	-43.4	12.0	3.47e-04	0	61	0	1002438656	52	5083
2026-01-14 01:13:42.58	258.69	16.49	-40.5	-43.3	12.2	2.69e-04	0	61	0	1005584384	52	4993
2026-01-14 01:13:43.59	258.53	16.40	-40.5	-43.2	12.2	1.88e-04	0	61	0	1008730112	52	4950
2026-01-14 01:13:44.60	258.38	16.32	-40.2	-42.8	12.6	1.01e-04	0	61	0	1011875840	52	4730
2026-01-14 01:13:45.61	258.23	16.24	-40.1	-42.5	12.9	5.34e-05	0	61	0	1015021568	52	4598
2026-01-14 01:13:46.62	258.08	16.15	-40.0	-42.5	13.0	4.50e-05	0	61	0	1018167296	52	4551
2026-01-14 01:13:47.63	257.93	16.07	-40.1	-42.6	12.9	5.34e-05	0	61	0	1021313024	52	4599
2026-01-14 01:13:48.64	257.78	15.99	-40.1	-42.7	12.8	6.48e-05	0	61	0	1024458752	52	4654
2026-01-14 01:13:49.65	257.63	15.90	-40.2	-42.8	12.6	7.93e-05	0	61	0	1027604480	52	4721
2026-01-14 01:13:50.66	257.48	15.82	-40.4	-43.0	12.4	1.40e-04	0	61	0	1030750208	52	4845
2026-01-14 01:13:51.67	257.34	15.74	-40.5	-43.2	12.2	1.89e-04	0	61	0	1033895936	52	4956
2026-01-14 01:13:52.68	257.19	15.65	-40.6	-43.3	12.0	2.76e-04	0	61	0	1037041664	52	5038
2026-01-14 01:13:53.69	257.04	15.57	-40.6	-43.4	12.0	3.62e-04	0	61	0	1040187392	52	5053
2026-01-14 01:13:54.70	256.90	15.49	-40.6	-43.4	12.0	3.33e-04	0	61	0	1043333120	52	5050
2026-01-14 01:13:55.71	256.76	15.40	-40.6	-43.4	11.9	3.47e-04	0	61	0	1046478848	52	5075
2026-01-14 01:13:56.72	256.61	15.32	-40.6	-43.4	12.0	3.36e-04	0	61	0	1049624576	52	5053
2026-01-14 01:13:57.73	256.47	15.24	-40.5	-43.3	12.1	2.59e-04	0	61	0	1052770304	52	4996
2026-01-14 01:13:58.74	256.33	15.16	-40.6	-43.3	12.1	2.59e-04	0	61	0	1055916032	52	5025
2026-01-14 01:13:59.75	256.19	15.07	-40.5	-43.2	12.2	2.75e-04	0	61	0	1059061760	52	4946
2026-01-14 01:14:00.74	256.05	14.99	-40.3	-42.9	12.5	1.40e-04	0	61	0	1062207488	52	4799
2026-01-14 01:14:01.75	255.91	14.91	-40.2	-42.8	12.5	1.01e-04	0	61	0	1065353216	52	4737
2026-01-14 01:14:02.76	255.78	14.83	-40.3	-42.9	12.5	9.76e-05	0	61	0	1068498944	52	4767
2026-01-14 01:14:03.77	255.64	14.75	-40.3	-42.9	12.4	1.27e-04	0	61	0	1071644672	52	4791
2026-01-14 01:14:04.78	255.50	14.66	-40.4	-43.0	12.3	1.19e-04	0	61	0	1074790400	52	4861
2026-01-14 01:14:05.79	255.37	14.58	-40.4	-43.0	12.3	1.80e-04	0	61	0	1077936128	52	4855
2026-01-14 01:14:06.80	255.23	14.50	-40.4	-43.0	12.3	1.59e-04	0	61	0	1081081856	52	4860
2026-01-14 01:14:07.81	255.10	14.42	-40.4	-43.2	12.2	2.18e-04	0	61	0	1084227584	52	4927
2026-01-14 01:14:08.82	254.96	14.34	-40.6	-43.4	11.9	3.13e-04	0	61	0	1087373312	52	5081
2026-01-14 01:14:09.83	254.83	14.26	-40.7	-43.6	11.7	5.13e-04	0	61	0	1090519040	52	5192
2026-01-14 01:14:10.84	254.70	14.18	-40.8	-43.8	11.5	7.28e-04	0	61	0	1093664768	52	5331
2026-01-14 01:14:11.84	254.57	14.09	-40.9	-44.0	11.3	1.00e-03	0	61	0	1096810496	52	5420
2026-01-14 01:14:12.85	254.44	14.01	-40.9	-43.9	11.4	1.08e-03	0	61	0	1099956224	52	5396
2026-01-14 01:14:13.86	254.31	13.93	-40.9	-43.9	11.3	1.03e-03	0	61	0	1103101952	52	5392
2026-01-14 01:14:14.87	254.18	13.85	-40.9	-43.9	11.4	9.70e-04	0	61	0	1106247680	52	5381
2026-01-14 01:14:15.88	254.05	13.77	-40.9	-43.9	11.4	9.26e-04	0	61	0	1109393408	52	5358
2026-01-14 01:14:16.89	253.92	13.69	-40.7	-43.6	11.7	6.24e-04	0	61	0	1112539136	52	5191
2026-01-14 01:14:17.91	253.80	13.61	-40.6	-43.5	11.8	4.90e-04	0	61	0	1115684864	52	5130
2026-01-14 01:14:18.92	253.67	13.53	-40.7	-43.6	11.7	4.84e-04	0	61	0	1118830592	52	5166
2026-01-14 01:14:19.93	253.54	13.45	-40.6	-43.4	11.9	4.04e-04	0	61	0	1121976320	52	5069
2026-01-14 01:14:20.94	253.42	13.37	-40.6	-43.3	11.9	3.78e-04	0	61	0	1125122048	52	5040
2026-01-14 01:14:21.95	253.29	13.29	-40.4	-43.2	12.1	2.84e-04	0	61	0	1129316352	52	4937
2026-01-14 01:14:22.96	253.17	13.21	-40.4	-43.1	12.2	2.32e-04	0	61	0	1132462080	52	4909
2026-01-14 01:14:23.97	253.05	13.13	-40.4	-43.2	12.1	2.43e-04	0	61	0	1135607808	52	4936
2026-01-14 01:14:24.98	252.93	13.05	-40.6	-43.4	11.8	3.20e-04	0	61	0	1137704960	52	5085
2026-01-14 01:14:25.99	252.80	12.97	-40.6	-43.4	11.9	4.26e-04	0	61	0	1140850688	52	5047
2026-01-14 01:14:26.99	252.68	12.89	-40.6	-43.5	11.7	4.42e-04	0	61	0	1145044992	52	5144
2026-01-14 01:14:28.00	252.56	12.81	-40.8	-43.8	11.5	7.39e-04	0	61	0	1148190720	52	5305
2026-01-14 01:14:29.01	252.44	12.74	-40.9	-44.0	11.3	1.13e-03	0	61	0	1151336448	52	5423
2026-01-14 01:14:30.02	252.33	12.66	-41.0	-44.1	11.1	1.44e-03	0	61	0	1154482176	52	5501
2026-01-14 01:14:31.03	252.21	12.58	-41.0	-44.1	11.1	1.68e-03	0	61	0	1157627904	52	5521
2026-01-14 01:14:32.04	252.09	12.50	-41.0	-44.1	11.1	1.43e-03	0	61	0	1160773632	52	5476
2026-01-14 01:14:33.05	251.97	12.42	-40.9	-43.9	11.3	1.26e-03	0	61	0	1163919360	52	5400
2026-01-14 01:14:34.06	251.86	12.34	-40.9	-43.9	11.3	1.21e-03	0	61	0	1167065088	52	5380
2026-01-14 01:14:35.07	251.74	12.26	-40.8	-43.9	11.4	1.10e-03	0	61	0	1170210816	52	5346
2026-01-14 01:14:36.08	251.63	12.19	-40.7	-43.6	11.6	7.83e-04	0	61	0	1173356544	52	5212
2026-01-14 01:14:37.09	251.51	12.11	-40.6	-43.5	11.7	5.83e-04	0	61	0	1176502272	52	5128
2026-01-14 01:14:38.10	251.40	12.03	-40.6	-43.5	11.7	5.97e-04	0	61	0	1179648000	52	5140
2026-01-14 01:14:39.11	251.28	11.95	-40.5	-43.3	11.9	4.66e-04	0	61	0	1182793728	52	4998
2026-01-14 01:14:40.12	251.17	11.88	-40.3	-42.9	12.3	2.33e-04	0	61	0	1185939456	52	4814
2026-01-14 01:14:41.13	251.06	11.80	-40.3	-42.9	12.3	1.65e-04	0	61	0	1189085184	52	4805
2026-01-14 01:14:42.14	250.95	11.72	-40.2	-42.9	12.4	1.89e-04	0	61	0	1192230912	52	4779
2026-01-14 01:14:43.15	250.84	11.64	-40.1	-42.7	12.5	1.24e-04	0	61	0	1195376640	52	4689
2026-01-14 01:14:44.16	250.73	11.57	-40.1	-42.7	12.5	1.23e-04	0	61	0	1198522368	52	4679
2026-01-14 01:14:45.17	250.62	11.49	-40.2	-42.9	12.3	1.43e-04	0	61	0	1201668096	52	4777
2026-01-14 01:14:46.18	250.51	11.41	-40.3	-43.0	12.2	2.37e-04	0	61	0	1204813824	52	4865
2026-01-14 01:14:47.19	250.40	11.34	-40.5	-43.3	11.9	3.41e-04	0	61	0	1207959552	52	5014
2026-01-14 01:14:48.20	250.29	11.26	-40.7	-43.7	11.5	6.89e-04	0	61	0	1211105280	52	5229
2026-01-14 01:14:49.21	250.18	11.18	-40.8	-43.9	11.3	1.17e-03	0	61	0	1214251008	52	5370
2026-01-14 01:14:50.22	250.08	11.11	-41.0	-44.2	11.0	1.76e-03	0	61	0	1217396736	52	5530
2026-01-14 01:14:51.23	249.97	11.03	-41.1	-44.4	10.8	2.58e-03	0	61	0	1220542464	52	5663
2026-01-14 01:14:52.24	249.86	10.96	-41.1	-44.4	10.7	3.08e-03	0	61	0	1223688192	52	5703
2026-01-14 01:14:53.24	249.76	10.88	-41.2	-44.5	10.6	3.34e-03	0	61	0	1226833920	52	5764
2026-01-14 01:14:54.25	249.66	10.81	-41.2	-44.5	10.6	3.72e-03	0	61	0	1229979648	52	5783
2026-01-14 01:14:55.26	249.55	10.73	-41.1	-44.5	10.6	3.33e-03	0	61	0	1233125376	52	5747
2026-01-14 01:14:56.27	249.45	10.66	-41.1	-44.4	10.7	3.15e-03	0	61	0	1236271104	52	5685
2026-01-14 01:14:57.29	249.34	10.58	-41.0	-44.2	10.9	2.27e-03	0	61	0	1239416832	52	5578
2026-01-14 01:14:58.30	249.24	10.50	-40.9	-44.1	11.0	1.84e-03	0	61	0	1242562560	52	5475
2026-01-14 01:14:59.31	249.14	10.43	-40.9	-44.0	11.1	1.77e-03	0	61	0	1245708288	52	5446
2026-01-14 01:15:00.31	249.04	10.36	-40.8	-43.8	11.2	1.46e-03	0	61	0	1248854016	52	5328
2026-01-14 01:15:01.32	248.94	10.28	-40.7	-43.7	11.4	1.10e-03	0	61	0	1251999744	52	5248
2026-01-14 01:15:02.33	248.84	10.21	-40.7	-43.7	11.4	1.06e-03	0	61	0	1255145472	52	5260
2026-01-14 01:15:03.34	248.74	10.13	-40.7	-43.6	11.4	9.69e-04	0	61	0	1258291200	52	5216
2026-01-14 01:15:04.35	248.64	10.06	-40.6	-43.6	11.5	8.41e-04	0	61	0	1261436928	52	5168
2026-01-14 01:15:05.36	248.54	9.98	-40.5	-43.5	11.6	6.55e-04	0	61	0	1264582656	52	5101
2026-01-14 01:15:06.37	248.44	9.91	-40.5	-43.5	11.6	6.77e-04	0	61	0	1267728384	52	5111
2026-01-14 01:15:07.38	248.34	9.84	-40.6	-43.5	11.6	7.19e-04	0	61	0	1270874112	52	5137
2026-01-14 01:15:08.39	248.25	9.76	-40.7	-43.7	11.3	1.02e-03	0	61	0	1274019840	52	5266
2026-01-14 01:15:09.40	248.15	9.69	-40.7	-43.8	11.2	1.16e-03	0	61	0	1277165568	52	5308
2026-01-14 01:15:10.41	248.05	9.62	-40.8	-43.9	11.1	1.49e-03	0	61	0	1280311296	52	5380
2026-01-14 01:15:11.42	247.96	9.54	-40.9	-44.1	10.9	1.96e-03	0	61	0	1283457024	52	5488
2026-01-14 01:15:12.44	247.86	9.47	-41.0	-44.3	10.8	2.42e-03	0	61	0	1286602752	52	5594
2026-01-14 01:15:13.45	247.77	9.40	-41.1	-44.4	10.6	2.98e-03	0	61	0	1289748480	52	5681
2026-01-14 01:15:14.46	247.67	9.32	-41.2	-44.6	10.4	4.06e-03	0	61	0	1292894208	52	5811
2026-01-14 01:15:15.47	247.58	9.25	-41.2	-44.7	10.3	5.08e-03	0	61	0	1296039936	53	5555
2026-01-14 01:15:16.48	247.49	9.18	-41.2	-44.7	10.3	5.81e-03	0	61	0	1299185664	53	5550
2026-01-14 01:15:17.48	247.39	9.11	-41.3	-44.8	10.1	5.99e-03	0	61	0	1302331392	53	5638
2026-01-14 01:15:18.49	247.30	9.03	-41.3	-44.8	10.2	6.10e-03	0	61	0	1305477120	53	5608
2026-01-14 01:15:19.50	247.21	8.96	-41.3	-44.8	10.2	6.23e-03	0	61	0	1308622848	53	5611
2026-01-14 01:15:20.51	247.12	8.89	-41.3	-44.9	10.0	7.05e-03	0	61	0	1311768576	53	5676
2026-01-14 01:15:21.52	247.03	8.82	-41.3	-44.9	10.1	7.01e-03	0	61	0	1314914304	53	5671
2026-01-14 01:15:22.53	246.94	8.75	-41.3	-44.9	10.0	7.36e-03	0	61	0	1318060032	53	5673
2026-01-14 01:15:23.54	246.85	8.68	-41.3	-45.0	10.0	8.65e-03	0	61	0	1321205760	53	5726
2026-01-14 01:15:24.55	246.76	8.60	-41.3	-44.9	10.0	8.65e-03	0	61	0	1324351488	53	5685
2026-01-14 01:15:25.56	246.67	8.53	-41.2	-44.7	10.2	6.12e-03	0	61	0	1327497216	53	5560
2026-01-14 01:15:26.57	246.58	8.46	-41.1	-44.6	10.3	4.43e-03	0	61	0	1330642944	53	5470
2026-01-14 01:15:27.58	246.49	8.39	-41.1	-44.5	10.4	4.52e-03	0	61	0	1333788672	53	5443
2026-01-14 01:15:28.59	246.40	8.32	-41.2	-44.7	10.2	5.59e-03	0	61	0	1336934400	53	5535
2026-01-14 01:15:29.60	246.31	8.25	-41.2	-44.7	10.1	6.70e-03	0	61	0	1340080128	53	5571
2026-01-14 01:15:30.61	246.23	8.18	-41.1	-44.6	10.3	5.70e-03	0	61	0	1343225856	53	5515
2026-01-14 01:15:31.62	246.14	8.11	-41.1	-44.6	10.3	5.49e-03	0	61	0	1346371584	53	5503
2026-01-14 01:15:32.63	246.05	8.04	-41.1	-44.5	10.3	4.96e-03	0	61	0	1349517312	53	5463
2026-01-14 01:15:33.64	245.97	7.97	-43.8	-52.4	3.9	5.58e-01	0	61	104	1352663040	58	10175
2026-01-14 01:15:34.65	245.88	7.90	-44.7	-56.9	3.8	1.49e+00	0	61	104	1352663040	60	15106
2026-01-14 01:15:35.67	245.80	7.83	-44.9	-57.1	3.8	1.49e+00	0	61	104	1352663040	60	15402
2026-01-14 01:15:36.68	245.71	7.76	-45.0	-57.2	3.8	1.49e+00	0	61	104	1352663040	60	15708
2026-01-14 01:15:37.69	245.63	7.69	-45.1	-57.3	3.8	1.49e+00	0	61	104	1352663040	60	15782
2026-01-14 01:15:38.70	245.55	7.62	-45.2	-57.4	3.8	1.49e+00	0	61	104	1352663040	60	16021
2026-01-14 01:15:39.71	245.46	7.55	-45.3	-57.4	3.8	1.49e+00	0	61	104	1352663040	61	15222
2026-01-14 01:15:40.72	245.38	7.48	-45.3	-57.5	3.8	1.49e+00	0	61	104	1352663040	61	15294
2026-01-14 01:15:41.73	245.30	7.41	-45.3	-57.5	3.8	1.49e+00	0	61	104	1352663040	61	15363
2026-01-14 01:15:42.74	245.21	7.34	-45.3	-57.5	3.8	1.49e+00	0	61	104	1352663040	61	15335
2026-01-14 01:15:43.75	245.13	7.27	-45.3	-57.5	3.8	1.49e+00	0	61	104	1352663040	61	15307
2026-01-14 01:15:44.75	245.05	7.20	-45.3	-57.5	3.8	1.49e+00	0	61	104	1352663040	61	15235
2026-01-14 01:15:45.77	244.97	7.14	-45.2	-57.4	3.8	1.49e+00	0	61	104	1352663040	61	15219
2026-01-14 01:15:46.78	244.89	7.07	-45.2	-57.5	3.8	1.49e+00	0	61	104	1352663040	61	15237
2026-01-14 01:15:47.79	244.81	7.00	-45.2	-57.5	3.8	1.49e+00	0	61	104	1352663040	61	15283
2026-01-14 01:15:48.80	244.73	6.93	-45.3	-57.5	3.8	1.49e+00	0	61	104	1352663040	61	15258
2026-01-14 01:15:49.81	244.65	6.86	-45.3	-57.5	3.8	1.49e+00	0	61	104	1352663040	61	15262
2026-01-14 01:15:50.82	244.57	6.79	-45.2	-57.4	3.8	1.49e+00	0	61	104	1352663040	61	15194
2026-01-14 01:15:51.83	244.49	6.73	-45.2	-57.4	3.8	1.49e+00	0	61	104	1352663040	61	15223
2026-01-14 01:15:52.84	244.42	6.66	-45.2	-57.4	3.8	1.49e+00	0	61	104	1352663040	61	15141
2026-01-14 01:15:53.85	244.34	6.59	-45.2	-57.4	3.8	1.49e+00	0	61	104	1352663040	61	15180
2026-01-14 01:15:54.86	244.26	6.52	-45.2	-57.4	3.8	1.49e+00	0	61	104	1352663040	61	15162
2026-01-14 01:15:55.87	244.18	6.46	-45.2	-57.4	3.8	1.49e+00	0	61	104	1352663040	61	15199
2026-01-14 01:15:56.88	244.11	6.39	-45.2	-57.4	3.8	1.49e+00	0	61	104	1352663040	61	15156
2026-01-14 01:15:57.90	244.03	6.32	-45.2	-57.4	3.8	1.49e+00	0	61	104	1352663040	61	15192
2026-01-14 01:15:58.91	243.95	6.25	-45.2	-57.4	3.8	1.49e+00	0	61	104	1352663040	61	15169
2026-01-14 01:15:59.92	243.88	6.19	-45.2	-57.4	3.8	1.49e+00	0	61	104	1352663040	61	15167
2026-01-14 01:16:00.92	243.80	6.12	-45.2	-57.4	3.8	1.49e+00	0	61	104	1352663040	61	15178
2026-01-14 01:16:01.93	243.73	6.05	-45.2	-57.4	3.8	1.49e+00	0	61	104	1352663040	61	15111
2026-01-14 01:16:02.94	243.65	5.99	-45.2	-57.4	3.8	1.49e+00	0	61	104	1352663040	61	15134
2026-01-14 01:16:03.95	243.58	5.92	-45.2	-57.4	3.8	1.49e+00	0	61	104	1352663040	61	15142
2026-01-14 01:16:04.96	243.51	5.86	-45.2	-57.4	3.8	1.49e+00	0	61	104	1352663040	61	15156
2026-01-14 01:16:05.97	243.43	5.79	-45.2	-57.4	3.8	1.49e+00	0	61	104	1352663040	61	15161
2026-01-14 01:16:06.98	243.36	5.72	-45.2	-57.4	3.8	1.49e+00	0	61	104	1352663040	61	15155
2026-01-14 01:16:07.99	243.29	5.66	-45.2	-57.4	3.8	1.49e+00	0	62	104	1352663040	61	15157
2026-01-14 01:16:09.00	243.21	5.59	-45.2	-57.4	3.8	1.49e+00	0	61	104	1352663040	61	15195
2026-01-14 01:16:10.02	243.14	5.53	-45.2	-57.4	3.8	1.49e+00	0	61	104	1352663040	61	15166
2026-01-14 01:16:11.03	243.07	5.46	-45.2	-57.4	3.8	1.49e+00	0	61	104	1352663040	61	15148
2026-01-14 01:16:12.04	243.00	5.39	-45.2	-57.4	3.8	1.49e+00	0	61	104	1352663040	61	15116
2026-01-14 01:16:13.05	242.93	5.33	-45.2	-57.4	3.8	1.49e+00	0	61	104	1352663040	61	15118
2026-01-14 01:16:14.06	242.86	5.26	-45.2	-57.4	3.8	1.49e+00	0	61	104	1352663040	61	15110
2026-01-14 01:16:15.07	242.78	5.20	-45.2	-57.4	3.8	1.49e+00	0	61	104	1352663040	61	15123
2026-01-14 01:16:16.09	242.71	5.13	-45.2	-57.4	3.8	1.49e+00	0	61	104	1352663040	61	15127
2026-01-14 01:16:17.10	242.64	5.07	-45.2	-57.4	3.8	1.49e+00	0	61	104	1352663040	61	15112
2026-01-14 01:16:18.11	242.57	5.00	-45.2	-57.4	3.8	1.49e+00	0	61	104	1352663040	61	15102
2026-01-14 01:16:19.12	242.51	4.94	-45.2	-57.4	3.8	1.49e+00	0	61	104	1352663040	61	15130
2026-01-14 01:16:20.13	242.44	4.88	-45.2	-57.4	3.8	1.49e+00	0	61	104	1352663040	61	15090
2026-01-14 01:16:21.14	242.37	4.81	-45.2	-57.4	3.8	1.49e+00	0	61	104	1352663040	61	15120
2026-01-14 01:16:22.15	242.30	4.75	-45.2	-57.4	3.8	1.49e+00	0	61	104	1352663040	61	15148
2026-01-14 01:16:23.16	242.23	4.68	-45.2	-57.4	3.8	1.49e+00	0	61	104	1352663040	61	15091
2026-01-14 01:16:24.17	242.16	4.62	-45.2	-57.4	3.8	1.49e+00	0	61	104	1352663040	61	15146
2026-01-14 01:16:25.18	242.10	4.56	-45.2	-57.4	3.8	1.49e+00	0	61	104	1352663040	61	15173
2026-01-14 01:16:26.19	242.03	4.49	-45.2	-57.4	3.8	1.49e+00	0	61	104	1352663040	61	15095
2026-01-14 01:16:27.21	241.96	4.43	-45.2	-57.4	3.8	1.49e+00	0	61	104	1352663040	61	15112
2026-01-14 01:16:28.22	241.90	4.36	-45.2	-57.4	3.8	1.49e+00	0	61	104	1352663040	61	15109
2026-01-14 01:16:29.23	241.83	4.30	-45.2	-57.4	3.8	1.49e+00	0	61	104	1352663040	61	15120
2026-01-14 01:16:30.24	241.76	4.24	-45.2	-57.4	3.8	1.49e+00	0	61	104	1352663040	61	15095
2026-01-14 01:16:31.25	241.70	4.17	-45.2	-57.4	3.8	1.49e+00	0	61	104	1352663040	61	15082
2026-01-14 01:16:32.26	241.63	4.11	-45.2	-57.4	3.8	1.49e+00	0	61	104	1352663040	61	15127
2026-01-14 01:16:33.27	241.57	4.05	-45.2	-57.4	3.8	1.49e+00	0	61	104	1352663040	61	15115
2026-01-14 01:16:34.28	241.50	3.99	-45.2	-57.4	3.8	1.49e+00	0	62	104	1352663040	61	15106
2026-01-14 01:16:35.29	241.44	3.92	-45.2	-57.4	3.8	1.49e+00	0	61	104	1352663040	61	15093
2026-01-14 01:16:36.30	241.37	3.86	-45.2	-57.4	3.8	1.49e+00	0	61	104	1352663040	61	15133
2026-01-14 01:16:37.32	241.31	3.80	-45.1	-57.4	3.8	1.49e+00	0	61	104	1352663040	61	15090
2026-01-14 01:16:38.33	241.25	3.73	-45.2	-57.4	3.8	1.49e+00	0	61	104	1352663040	61	15084
2026-01-14 01:16:39.34	241.18	3.67	-45.2	-57.4	3.8	1.49e+00	0	61	104	1352663040	61	15066
2026-01-14 01:16:40.35	241.12	3.61	-45.1	-57.4	3.8	1.49e+00	0	61	104	1352663040	61	15078
2026-01-14 01:16:41.36	241.06	3.55	-45.2	-57.4	3.8	1.49e+00	0	61	104	1352663040	61	15057
2026-01-14 01:16:42.37	240.99	3.49	-45.2	-57.4	3.8	1.49e+00	0	62	104	1352663040	61	15100
2026-01-14 01:16:43.38	240.93	3.42	-45.2	-57.4	3.8	1.49e+00	0	61	104	1352663040	61	15114
2026-01-14 01:16:44.39	240.87	3.36	-45.1	-57.4	3.8	1.49e+00	0	61	104	1352663040	61	15084
2026-01-14 01:16:45.40	240.81	3.30	-45.2	-57.3	3.8	1.49e+00	0	61	104	1352663040	61	15049
2026-01-14 01:16:46.41	240.75	3.24	-45.1	-57.4	3.8	1.49e+00	0	61	104	1352663040	61	15081
2026-01-14 01:16:47.42	240.69	3.18	-45.2	-57.4	3.8	1.49e+00	0	61	104	1352663040	61	15061
2026-01-14 01:16:48.43	240.63	3.12	-45.2	-57.4	3.8	1.49e+00	0	61	104	1352663040	61	15067
2026-01-14 01:16:49.44	240.57	3.06	-45.1	-57.4	3.8	1.49e+00	0	61	104	1352663040	61	15065
2026-01-14 01:16:50.46	240.50	2.99	-45.1	-57.4	3.8	1.49e+00	0	61	104	1352663040	61	15072
2026-01-14 01:16:51.47	240.44	2.93	-45.1	-57.4	3.8	1.49e+00	0	61	104	1352663040	61	15068
2026-01-14 01:16:52.48	240.38	2.87	-45.2	-57.4	3.8	1.49e+00	0	61	104	1352663040	61	15065
2026-01-14 01:16:53.49	240.32	2.81	-45.1	-57.4	3.8	1.49e+00	0	61	104	1352663040	61	15093
2026-01-14 01:16:54.50	240.27	2.75	-45.1	-57.4	3.8	1.49e+00	0	61	104	1352663040	61	15057
2026-01-14 01:16:55.51	240.21	2.69	-45.1	-57.4	3.8	1.49e+00	0	61	104	1352663040	61	15077
2026-01-14 01:16:56.52	240.15	2.63	-45.1	-57.4	3.8	1.49e+00	0	61	104	1352663040	61	15082
2026-01-14 01:16:57.53	240.09	2.57	-45.1	-57.4	3.8	1.49e+00	0	61	104	1352663040	61	15063
2026-01-14 01:16:58.54	240.03	2.51	-45.1	-57.4	3.8	1.49e+00	0	61	104	1352663040	61	15057
2026-01-14 01:16:59.55	239.97	2.45	-45.1	-57.4	3.8	1.49e+00	0	61	104	1352663040	61	15078
2026-01-14 01:17:00.56	239.91	2.39	-45.1	-57.4	3.8	1.49e+00	0	61	104	1352663040	61	15059
2026-01-14 01:17:01.58	239.86	2.33	-45.1	-57.4	3.8	1.49e+00	0	62	104	1352663040	61	15061
2026-01-14 01:17:02.59	239.80	2.27	-45.1	-57.3	3.8	1.49e+00	0	61	104	1352663040	61	15045
2026-01-14 01:17:03.60	239.74	2.21	-45.1	-57.3	3.8	1.49e+00	0	61	104	1352663040	61	15043
2026-01-14 01:17:04.61	239.69	2.15	-45.1	-57.4	3.8	1.49e+00	0	61	104	1352663040	61	15081
2026-01-14 01:17:05.62	239.63	2.09	-45.1	-57.3	3.8	1.49e+00	0	61	104	1352663040	61	15036
2026-01-14 01:17:06.63	239.57	2.03	-45.1	-57.4	3.8	1.49e+00	0	61	104	1352663040	61	15085
2026-01-14 01:17:07.64	239.52	1.97	-45.1	-57.3	3.8	1.49e+00	0	61	104	1352663040	61	15037
2026-01-14 01:17:08.65	239.46	1.91	-45.1	-57.4	3.8	1.49e+00	0	61	104	1352663040	61	15054

#Closed at: 2026-01-14 01:17:09
#Recorded file [1352 MB]: D:/lorett/data/31039_260114_040634.dat