passes_logs/2026/01/14/R2.0S_Moscow/R2.0S_Moscow__20260114_125721_AQUA_rec.log

#Pass ID: 20260114_125721_AQUA
#Satellite: AQUA
#Configuration: AQUA
#almurnet v.1.7.20251203
#Start time: 2026-01-14 12:57:23

#Version: 2.2.20231116
#Station: R2.0S_Moscow
#Location: 37.707566 lon 55.798166 lat
#TLE: 1 27424U 02022A   26013.58555111  .00000773  00000+0  16469-3 0  9993
#TLE: 2 27424  98.4079 339.9892 0002045  80.0365 334.6894 14.61818766260681

#Time	Az	El	Level	Level2	SNR	BER	BlckErr	Temp	State	Recorded	gain1	gain2
2026-01-14 12:57:23.68	202.86	2.13	-44.7	-63.5	3.8	7.49e-01	0	50	0	0	61	30535
2026-01-14 12:57:24.69	202.93	2.19	-44.7	-63.5	3.8	7.44e-01	0	51	104	0	60	32340
2026-01-14 12:57:25.70	203.01	2.25	-44.7	-63.5	3.8	7.46e-01	0	51	104	0	60	32338
2026-01-14 12:57:26.71	203.08	2.31	-44.7	-63.5	3.8	7.44e-01	0	51	104	0	60	32317
2026-01-14 12:57:27.72	203.16	2.37	-44.7	-63.5	3.8	7.44e-01	0	51	104	0	60	32361
2026-01-14 12:57:28.73	203.23	2.43	-44.7	-63.5	3.8	7.44e-01	0	51	104	0	60	32368
2026-01-14 12:57:29.74	203.31	2.49	-44.7	-63.5	3.8	7.45e-01	0	51	104	0	60	32384
2026-01-14 12:57:30.75	203.39	2.55	-44.7	-63.5	3.8	7.46e-01	0	51	104	0	60	32292
2026-01-14 12:57:31.76	203.46	2.61	-44.7	-63.5	3.8	7.47e-01	0	51	104	0	60	32374
2026-01-14 12:57:32.77	203.54	2.67	-44.7	-63.5	3.8	7.44e-01	0	51	104	0	60	32289
2026-01-14 12:57:33.78	203.62	2.73	-44.7	-63.5	3.8	7.46e-01	0	51	104	0	60	32297
2026-01-14 12:57:34.79	203.69	2.79	-44.7	-63.5	3.8	7.46e-01	0	51	104	0	60	32306
2026-01-14 12:57:35.80	203.77	2.86	-44.7	-63.5	3.8	7.43e-01	0	51	104	0	60	32389
2026-01-14 12:57:36.81	203.85	2.92	-44.7	-63.5	3.8	7.44e-01	0	51	104	0	60	32227
2026-01-14 12:57:37.82	203.93	2.98	-44.7	-63.5	3.8	7.46e-01	0	51	104	0	60	32270
2026-01-14 12:57:38.83	204.01	3.04	-44.7	-63.5	3.8	7.45e-01	0	51	104	0	60	32327
2026-01-14 12:57:39.84	204.09	3.10	-44.7	-63.5	3.8	7.45e-01	0	52	104	0	60	32245
2026-01-14 12:57:40.85	204.17	3.16	-44.7	-63.5	3.8	7.46e-01	0	52	104	0	60	32322
2026-01-14 12:57:41.86	204.25	3.22	-44.7	-63.5	3.8	7.44e-01	0	52	104	0	60	32317
2026-01-14 12:57:42.87	204.33	3.28	-44.7	-63.5	3.8	7.45e-01	0	52	104	0	60	32289
2026-01-14 12:57:43.88	204.41	3.35	-44.7	-63.5	3.8	7.45e-01	0	52	104	0	60	32352
2026-01-14 12:57:44.89	204.49	3.41	-44.7	-63.4	3.8	7.48e-01	0	52	104	0	60	32174
2026-01-14 12:57:45.90	204.57	3.47	-44.7	-63.5	3.8	7.46e-01	0	52	104	0	60	32367
2026-01-14 12:57:46.91	204.66	3.53	-44.7	-63.5	3.8	7.44e-01	0	52	104	0	60	32365
2026-01-14 12:57:47.92	204.74	3.59	-44.7	-63.5	3.8	7.47e-01	0	52	104	0	60	32307
2026-01-14 12:57:48.93	204.82	3.66	-44.7	-63.5	3.8	7.46e-01	0	52	104	0	60	32358
2026-01-14 12:57:49.94	204.90	3.72	-44.7	-63.4	3.8	7.46e-01	0	52	104	0	60	32177
2026-01-14 12:57:50.95	204.99	3.78	-44.7	-63.5	3.8	7.43e-01	0	52	104	0	60	32261
2026-01-14 12:57:51.96	205.07	3.84	-44.7	-63.5	3.8	7.43e-01	0	53	104	0	60	32255
2026-01-14 12:57:52.97	205.16	3.91	-44.7	-63.5	3.8	7.48e-01	0	52	104	0	60	32296
2026-01-14 12:57:53.98	205.24	3.97	-44.7	-63.5	3.8	7.46e-01	0	52	104	0	60	32328
2026-01-14 12:57:54.99	205.33	4.03	-44.7	-63.5	3.8	7.45e-01	0	53	104	0	60	32334
2026-01-14 12:57:56.00	205.41	4.09	-44.7	-63.5	3.8	7.50e-01	0	53	104	0	60	32262
2026-01-14 12:57:57.01	205.50	4.16	-44.7	-63.5	3.8	7.46e-01	0	53	104	0	60	32324
2026-01-14 12:57:58.02	205.58	4.22	-44.7	-63.5	3.8	7.49e-01	0	53	104	0	60	32240
2026-01-14 12:57:59.03	205.67	4.28	-44.7	-63.5	3.8	7.43e-01	0	53	104	0	60	32195
2026-01-14 12:58:00.04	205.76	4.35	-44.7	-63.4	3.8	7.42e-01	0	53	104	0	60	32112
2026-01-14 12:58:01.05	205.84	4.41	-44.7	-63.4	3.8	7.48e-01	0	53	104	0	60	32111
2026-01-14 12:58:02.06	205.93	4.48	-44.7	-63.4	3.8	7.48e-01	0	53	104	0	60	31998
2026-01-14 12:58:03.07	206.02	4.54	-44.7	-63.4	3.8	7.42e-01	0	53	104	0	60	31944
2026-01-14 12:58:04.08	206.11	4.60	-44.7	-63.3	3.8	7.46e-01	0	53	104	0	60	31745
2026-01-14 12:58:05.09	206.20	4.67	-44.7	-63.1	3.8	7.45e-01	0	53	104	0	60	30736
2026-01-14 12:58:06.10	206.29	4.73	-44.7	-63.1	3.8	7.48e-01	0	53	104	0	60	30848
2026-01-14 12:58:07.11	206.38	4.80	-44.7	-63.1	3.8	7.45e-01	0	53	104	0	60	30806
2026-01-14 12:58:08.12	206.47	4.86	-44.7	-62.9	3.8	7.44e-01	0	53	104	0	60	30308
2026-01-14 12:58:09.13	206.56	4.92	-44.7	-63.1	3.8	7.46e-01	0	53	104	0	60	30795
2026-01-14 12:58:10.14	206.65	4.99	-44.7	-63.2	3.8	7.45e-01	0	53	104	0	60	31119
2026-01-14 12:58:11.15	206.74	5.05	-44.7	-63.2	3.8	7.49e-01	0	54	104	0	60	31112
2026-01-14 12:58:12.16	206.83	5.12	-44.7	-63.4	3.8	7.46e-01	0	54	104	0	60	31924
2026-01-14 12:58:13.17	206.93	5.18	-44.7	-63.3	3.8	7.44e-01	0	54	104	0	60	31549
2026-01-14 12:58:14.18	207.02	5.25	-44.7	-63.1	3.8	7.44e-01	0	53	104	0	60	30931
2026-01-14 12:58:15.19	207.11	5.31	-44.7	-63.1	3.8	7.45e-01	0	54	104	0	60	30949
2026-01-14 12:58:16.20	207.21	5.38	-44.7	-63.2	3.8	7.44e-01	0	54	104	0	60	31162
2026-01-14 12:58:17.21	207.30	5.45	-44.7	-62.7	3.8	7.46e-01	0	54	104	0	60	29467
2026-01-14 12:58:18.22	207.39	5.51	-44.7	-62.6	3.8	7.46e-01	0	54	104	0	60	29311
2026-01-14 12:58:19.23	207.49	5.58	-44.7	-62.6	3.8	7.45e-01	0	54	104	0	60	29279
2026-01-14 12:58:20.24	207.59	5.64	-44.7	-62.3	3.8	7.46e-01	0	54	104	0	60	28050
2026-01-14 12:58:21.25	207.68	5.71	-44.7	-62.2	3.8	7.40e-01	0	54	104	0	60	27893
2026-01-14 12:58:22.26	207.78	5.78	-44.7	-61.9	3.8	7.43e-01	0	54	104	0	60	26823
2026-01-14 12:58:23.27	207.87	5.84	-44.6	-61.5	3.8	7.43e-01	0	54	104	0	60	25802
2026-01-14 12:58:24.28	207.97	5.91	-44.6	-60.8	4.0	7.40e-01	0	54	104	0	60	23682
2026-01-14 12:58:25.28	208.07	5.97	-44.6	-60.7	3.9	7.42e-01	0	54	104	0	60	23555
2026-01-14 12:58:26.29	208.17	6.04	-44.6	-59.8	4.2	7.31e-01	0	54	104	0	60	21207
2026-01-14 12:58:27.30	208.27	6.11	-44.6	-59.8	3.9	7.39e-01	0	54	104	0	60	21200
2026-01-14 12:58:28.31	208.37	6.17	-44.6	-58.6	4.6	7.18e-01	0	54	104	0	60	18475
2026-01-14 12:58:29.32	208.47	6.24	-44.5	-57.3	5.3	7.03e-01	11	54	0	0	60	15921
2026-01-14 12:58:30.33	208.57	6.31	-44.4	-56.5	5.9	6.89e-01	48	54	104	0	60	14474
2026-01-14 12:58:31.34	208.67	6.38	-44.4	-55.6	6.7	6.67e-01	91	55	0	1572864	60	12972
2026-01-14 12:58:32.35	208.77	6.44	-44.3	-55.1	7.1	6.61e-01	90	55	0	3145728	60	12339
2026-01-14 12:58:33.36	208.87	6.51	-44.3	-54.5	7.7	6.52e-01	92	55	0	5242880	60	11453
2026-01-14 12:58:34.37	208.97	6.58	-44.2	-53.8	8.4	6.42e-01	36	55	0	6815744	60	10601
2026-01-14 12:58:35.38	209.07	6.65	-44.0	-53.0	9.2	6.33e-01	0	55	0	8912896	60	9660
2026-01-14 12:58:36.39	209.18	6.71	-44.3	-53.0	9.5	6.30e-01	0	55	0	11010048	59	10286
2026-01-14 12:58:37.40	209.28	6.78	-44.2	-52.9	9.6	6.24e-01	0	55	0	12582912	59	10127
2026-01-14 12:58:38.42	209.39	6.85	-44.1	-52.2	10.4	6.20e-01	0	55	0	14680064	59	9313
2026-01-14 12:58:39.43	209.49	6.92	-44.1	-52.0	10.7	6.21e-01	0	55	0	16252928	59	9077
2026-01-14 12:58:40.44	209.60	6.99	-44.1	-52.1	10.5	6.19e-01	0	55	0	18350080	59	9271
2026-01-14 12:58:41.45	209.70	7.06	-44.1	-52.2	10.4	6.22e-01	0	55	0	20447232	59	9375
2026-01-14 12:58:42.46	209.81	7.12	-44.1	-52.3	10.4	6.22e-01	0	55	0	22020096	59	9395
2026-01-14 12:58:43.47	209.91	7.19	-44.1	-52.3	10.4	6.20e-01	0	55	0	24117248	59	9430
2026-01-14 12:58:44.48	210.02	7.26	-44.1	-52.1	10.6	6.19e-01	0	55	0	26214400	59	9193
2026-01-14 12:58:45.49	210.13	7.33	-44.1	-52.0	10.6	6.22e-01	0	55	0	27787264	59	9162
2026-01-14 12:58:46.50	210.24	7.40	-43.9	-51.4	11.2	6.18e-01	0	55	0	29884416	59	8555
2026-01-14 12:58:47.51	210.35	7.47	-43.7	-50.4	12.4	6.11e-01	0	55	0	31457280	59	7557
2026-01-14 12:58:48.52	210.46	7.54	-43.6	-49.9	12.8	6.11e-01	0	55	0	33554432	59	7172
2026-01-14 12:58:49.53	210.57	7.61	-43.4	-49.4	13.4	6.11e-01	0	55	0	35651584	58	7148
2026-01-14 12:58:50.54	210.68	7.68	-43.1	-48.6	14.2	6.09e-01	0	55	0	37224448	58	6511
2026-01-14 12:58:51.55	210.79	7.75	-43.0	-48.3	14.5	6.05e-01	0	55	0	39321600	58	6306
2026-01-14 12:58:52.56	210.90	7.82	-42.8	-47.9	14.9	6.05e-01	0	55	0	40894464	57	6357
2026-01-14 12:58:53.57	211.01	7.89	-42.8	-47.9	14.9	6.06e-01	0	55	0	42991616	57	6362
2026-01-14 12:58:54.58	211.13	7.96	-42.8	-47.9	14.9	6.05e-01	0	55	0	45088768	57	6358
2026-01-14 12:58:55.59	211.24	8.03	-43.0	-48.3	14.5	6.07e-01	0	55	0	46661632	57	6682
2026-01-14 12:58:56.60	211.35	8.10	-44.9	-57.4	3.9	7.21e-01	0	55	104	48758784	60	16117
2026-01-14 12:58:57.61	211.47	8.17	-45.1	-62.4	4.0	7.56e-01	0	55	104	48758784	61	27014
2026-01-14 12:58:58.62	211.58	8.24	-43.5	-49.6	13.8	6.06e-01	0	55	0	49283072	57	7726
2026-01-14 12:58:59.63	211.70	8.31	-44.3	-55.3	7.5	6.58e-01	90	55	0	51380224	59	13289
2026-01-14 12:59:00.64	211.82	8.38	-42.7	-47.2	15.7	6.06e-01	0	55	0	52428800	57	5894
2026-01-14 12:59:01.65	211.93	8.45	-43.4	-48.8	13.9	6.07e-01	0	55	0	54525952	58	6684
2026-01-14 12:59:02.66	212.05	8.53	-42.8	-47.5	15.4	6.06e-01	0	56	0	56098816	57	6111
2026-01-14 12:59:03.67	212.17	8.60	-42.7	-47.3	15.8	6.06e-01	0	56	0	58195968	57	5925
2026-01-14 12:59:04.68	212.29	8.67	-42.7	-47.2	15.8	6.06e-01	0	56	0	60293120	57	5913
2026-01-14 12:59:05.69	212.41	8.74	-42.6	-46.9	16.1	6.04e-01	0	56	0	61865984	57	5714
2026-01-14 12:59:06.70	212.53	8.81	-42.5	-46.8	16.2	6.05e-01	0	56	0	63963136	57	5632
2026-01-14 12:59:07.71	212.65	8.88	-42.4	-46.7	16.4	6.05e-01	0	56	0	65536000	56	5862
2026-01-14 12:59:08.72	212.77	8.96	-42.5	-46.7	16.4	6.09e-01	0	56	0	67633152	56	5878
2026-01-14 12:59:09.73	212.89	9.03	-42.5	-46.7	16.4	6.06e-01	0	56	0	69730304	56	5877
2026-01-14 12:59:10.74	213.01	9.10	-42.5	-46.7	16.4	6.05e-01	0	56	0	71303168	56	5862
2026-01-14 12:59:11.74	213.14	9.17	-42.5	-46.7	16.5	6.06e-01	0	56	0	73400320	56	5856
2026-01-14 12:59:12.75	213.26	9.24	-42.5	-46.7	16.4	6.07e-01	0	56	0	74973184	56	5878
2026-01-14 12:59:13.76	213.38	9.32	-42.5	-46.7	16.4	6.05e-01	0	56	0	77070336	56	5908
2026-01-14 12:59:14.77	213.51	9.39	-42.5	-46.7	16.4	6.06e-01	0	56	0	79167488	56	5873
2026-01-14 12:59:15.78	213.63	9.46	-42.5	-46.6	16.5	6.06e-01	0	56	0	80740352	56	5831
2026-01-14 12:59:16.79	213.76	9.54	-42.5	-46.6	16.6	6.06e-01	0	56	0	82837504	56	5806
2026-01-14 12:59:17.80	213.89	9.61	-42.5	-46.5	16.6	6.06e-01	0	56	0	84934656	56	5772
2026-01-14 12:59:18.81	214.02	9.68	-42.5	-46.6	16.6	6.08e-01	0	56	0	86507520	56	5809
2026-01-14 12:59:19.82	214.14	9.76	-42.4	-46.5	16.7	6.06e-01	0	56	0	88604672	56	5760
2026-01-14 12:59:20.83	214.27	9.83	-42.4	-46.5	16.7	6.06e-01	0	56	0	90177536	56	5746
2026-01-14 12:59:21.84	214.40	9.90	-42.4	-46.5	16.7	6.08e-01	0	56	0	92274688	56	5740
2026-01-14 12:59:22.85	214.53	9.98	-42.4	-46.5	16.8	6.05e-01	0	56	0	94371840	56	5727
2026-01-14 12:59:23.86	214.66	10.05	-42.4	-46.5	16.8	6.06e-01	0	56	0	95944704	56	5732
2026-01-14 12:59:24.87	214.80	10.12	-42.4	-46.3	16.9	6.06e-01	0	56	0	98041856	56	5643
2026-01-14 12:59:25.88	214.93	10.20	-42.4	-46.4	16.9	6.08e-01	0	56	0	100139008	56	5693
2026-01-14 12:59:26.89	215.06	10.27	-42.4	-46.3	16.9	6.07e-01	0	56	0	101711872	56	5654
2026-01-14 12:59:27.90	215.20	10.35	-42.4	-46.3	16.9	6.06e-01	0	56	0	103809024	56	5636
2026-01-14 12:59:28.91	215.33	10.42	-42.4	-46.4	16.9	6.07e-01	0	56	0	105381888	56	5659
2026-01-14 12:59:29.92	215.47	10.50	-42.4	-46.4	16.9	6.07e-01	0	56	0	107479040	56	5676
2026-01-14 12:59:30.93	215.60	10.57	-42.4	-46.3	17.0	6.04e-01	0	56	0	109576192	56	5618
2026-01-14 12:59:31.94	215.74	10.65	-42.4	-46.3	17.0	6.06e-01	0	56	0	111149056	56	5607
2026-01-14 12:59:32.96	215.88	10.72	-42.3	-46.2	17.0	6.05e-01	0	56	0	113246208	56	5588
2026-01-14 12:59:33.97	216.02	10.80	-42.3	-46.2	17.1	6.06e-01	0	57	0	114819072	56	5543
2026-01-14 12:59:34.98	216.16	10.87	-42.3	-46.1	17.2	6.05e-01	0	56	0	116916224	56	5523
2026-01-14 12:59:35.98	216.29	10.95	-42.3	-46.1	17.2	6.05e-01	0	56	0	119013376	56	5490
2026-01-14 12:59:36.99	216.44	11.02	-42.3	-46.2	17.1	6.06e-01	0	56	0	120586240	56	5556
2026-01-14 12:59:38.00	216.58	11.10	-42.3	-46.2	17.2	6.07e-01	0	56	0	122683392	56	5546
2026-01-14 12:59:39.01	216.72	11.17	-42.3	-46.1	17.2	6.08e-01	0	56	0	124256256	56	5519
2026-01-14 12:59:40.02	216.86	11.25	-42.4	-46.2	17.2	6.06e-01	0	56	0	126353408	56	5541
2026-01-14 12:59:41.03	217.01	11.32	-42.3	-46.1	17.2	6.07e-01	0	56	0	128450560	56	5510
2026-01-14 12:59:42.04	217.15	11.40	-42.3	-46.1	17.3	6.06e-01	0	57	0	130023424	56	5506
2026-01-14 12:59:43.05	217.30	11.48	-42.4	-46.2	17.1	6.06e-01	0	57	0	132120576	56	5586
2026-01-14 12:59:44.06	217.44	11.55	-42.4	-46.2	17.2	6.05e-01	0	57	0	133693440	56	5553
2026-01-14 12:59:45.06	217.59	11.63	-42.4	-46.2	17.2	6.07e-01	0	56	0	135790592	56	5563
2026-01-14 12:59:46.07	217.73	11.70	-42.4	-46.1	17.2	6.06e-01	0	57	0	137887744	56	5521
2026-01-14 12:59:47.08	217.88	11.78	-42.4	-46.2	17.2	6.07e-01	0	57	0	139460608	56	5536
2026-01-14 12:59:48.09	218.03	11.86	-42.4	-46.1	17.3	6.04e-01	0	57	0	141557760	56	5514
2026-01-14 12:59:49.10	218.18	11.93	-42.4	-46.1	17.3	6.09e-01	0	57	0	143130624	56	5517
2026-01-14 12:59:50.12	218.33	12.01	-42.4	-46.1	17.3	6.07e-01	0	57	0	145227776	56	5504
2026-01-14 12:59:51.13	218.49	12.09	-42.4	-46.2	17.3	6.07e-01	0	57	0	147324928	56	5552
2026-01-14 12:59:52.14	218.64	12.17	-42.4	-46.2	17.3	6.09e-01	0	57	0	148897792	56	5531
2026-01-14 12:59:53.15	218.79	12.24	-42.4	-46.1	17.4	6.07e-01	0	57	0	150994944	56	5484
2026-01-14 12:59:54.16	218.95	12.32	-42.4	-46.0	17.4	6.06e-01	0	57	0	153092096	56	5463
2026-01-14 12:59:55.17	219.10	12.40	-42.3	-46.0	17.5	6.05e-01	0	57	0	154664960	56	5407
2026-01-14 12:59:56.18	219.26	12.47	-42.3	-46.0	17.5	6.08e-01	0	57	0	156762112	56	5418
2026-01-14 12:59:57.18	219.41	12.55	-42.3	-46.0	17.5	6.08e-01	0	57	0	158334976	56	5403
2026-01-14 12:59:58.19	219.57	12.63	-42.3	-45.9	17.5	6.06e-01	0	57	0	160432128	56	5398
2026-01-14 12:59:59.20	219.73	12.71	-42.3	-45.9	17.6	6.05e-01	0	57	0	162529280	56	5373
2026-01-14 13:00:00.21	219.89	12.78	-42.3	-45.9	17.6	6.07e-01	0	57	0	164102144	56	5358
2026-01-14 13:00:01.22	220.05	12.86	-42.2	-45.8	17.7	6.05e-01	0	57	0	166199296	56	5298
2026-01-14 13:00:02.23	220.21	12.94	-42.2	-45.8	17.7	6.07e-01	0	57	0	168296448	56	5297
2026-01-14 13:00:03.24	220.37	13.02	-42.2	-45.8	17.7	6.07e-01	0	57	0	169869312	56	5283
2026-01-14 13:00:04.25	220.54	13.10	-42.2	-45.7	17.8	6.07e-01	0	57	0	171966464	56	5275
2026-01-14 13:00:05.26	220.70	13.17	-42.2	-45.7	17.8	6.07e-01	0	57	0	173539328	56	5275
2026-01-14 13:00:06.27	220.86	13.25	-42.2	-45.8	17.7	6.05e-01	0	57	0	175636480	56	5286
2026-01-14 13:00:07.28	221.03	13.33	-42.2	-45.8	17.8	6.07e-01	0	57	0	177733632	56	5292
2026-01-14 13:00:08.29	221.20	13.41	-42.2	-45.8	17.8	6.05e-01	0	57	0	179306496	56	5292
2026-01-14 13:00:09.30	221.36	13.49	-42.2	-45.8	17.8	6.06e-01	0	57	0	181403648	56	5297
2026-01-14 13:00:10.31	221.53	13.57	-42.3	-45.8	17.7	6.05e-01	0	57	0	182976512	56	5318
2026-01-14 13:00:11.32	221.70	13.64	-42.3	-45.8	17.7	6.06e-01	0	57	0	185073664	56	5316
2026-01-14 13:00:12.33	221.87	13.72	-42.2	-45.7	17.8	6.03e-01	0	57	0	186646528	56	5269
2026-01-14 13:00:13.34	222.04	13.80	-42.2	-45.6	17.9	6.06e-01	0	57	0	188743680	56	5211
2026-01-14 13:00:14.34	222.21	13.88	-42.1	-45.6	18.0	6.07e-01	0	57	0	190840832	56	5172
2026-01-14 13:00:15.35	222.39	13.96	-42.1	-45.6	18.0	6.04e-01	0	57	0	192413696	56	5179
2026-01-14 13:00:16.36	222.56	14.04	-42.2	-45.6	18.0	6.07e-01	0	57	0	194510848	56	5206
2026-01-14 13:00:17.37	222.74	14.12	-42.2	-45.6	18.0	6.04e-01	0	57	0	196608000	56	5172
2026-01-14 13:00:18.38	222.91	14.20	-42.1	-45.5	18.1	6.09e-01	0	57	0	198180864	56	5120
2026-01-14 13:00:19.39	223.09	14.27	-42.1	-45.5	18.1	6.06e-01	0	57	0	200278016	56	5102
2026-01-14 13:00:20.40	223.27	14.35	-42.1	-45.5	18.1	6.06e-01	0	57	0	201850880	56	5102
2026-01-14 13:00:21.41	223.45	14.43	-42.1	-45.4	18.2	6.05e-01	0	57	0	203948032	56	5090
2026-01-14 13:00:22.42	223.63	14.51	-42.1	-45.4	18.2	6.07e-01	0	57	0	206045184	56	5099
2026-01-14 13:00:23.43	223.81	14.59	-42.1	-45.5	18.1	6.08e-01	0	57	0	207618048	56	5123
2026-01-14 13:00:24.44	223.99	14.67	-42.1	-45.5	18.1	6.07e-01	0	57	0	209715200	56	5126
2026-01-14 13:00:25.45	224.17	14.75	-42.1	-45.5	18.1	6.04e-01	0	57	0	211288064	56	5122
2026-01-14 13:00:26.46	224.36	14.83	-42.1	-45.5	18.1	6.09e-01	0	57	0	213385216	56	5149
2026-01-14 13:00:27.47	224.54	14.91	-42.1	-45.5	18.2	6.09e-01	0	57	0	215482368	56	5108
2026-01-14 13:00:28.47	224.73	14.99	-42.1	-45.6	18.1	6.07e-01	0	57	0	217055232	56	5175
2026-01-14 13:00:29.48	224.91	15.07	-42.2	-45.6	18.0	6.08e-01	0	57	0	219152384	56	5179
2026-01-14 13:00:30.49	225.10	15.15	-42.1	-45.5	18.2	6.07e-01	0	57	0	221249536	56	5108
2026-01-14 13:00:31.51	225.29	15.23	-42.1	-45.4	18.2	6.08e-01	0	57	0	222822400	56	5089
2026-01-14 13:00:32.52	225.48	15.30	-42.1	-45.4	18.3	6.05e-01	0	57	0	224919552	56	5049
2026-01-14 13:00:33.53	225.67	15.38	-42.1	-45.4	18.3	6.07e-01	0	57	0	226492416	56	5074
2026-01-14 13:00:34.54	225.87	15.46	-42.1	-45.4	18.3	6.08e-01	0	57	0	228589568	56	5062
2026-01-14 13:00:35.55	226.06	15.54	-42.1	-45.4	18.3	6.04e-01	0	57	0	230686720	56	5053
2026-01-14 13:00:36.56	226.25	15.62	-42.0	-45.3	18.4	6.08e-01	0	57	0	232259584	56	5031
2026-01-14 13:00:37.57	226.45	15.70	-42.0	-45.4	18.3	6.05e-01	0	57	0	234356736	56	5045
2026-01-14 13:00:38.58	226.65	15.78	-42.1	-45.4	18.3	6.07e-01	0	57	0	236453888	56	5055
2026-01-14 13:00:39.59	226.84	15.86	-42.1	-45.4	18.3	6.09e-01	0	57	0	238026752	56	5085
2026-01-14 13:00:40.60	227.04	15.94	-42.1	-45.5	18.2	6.08e-01	0	57	0	240123904	56	5101
2026-01-14 13:00:41.61	227.24	16.02	-42.1	-45.4	18.3	6.08e-01	0	57	0	241696768	56	5050
2026-01-14 13:00:42.62	227.44	16.10	-42.1	-45.4	18.3	6.07e-01	0	57	0	243793920	56	5091
2026-01-14 13:00:43.62	227.64	16.18	-42.1	-45.5	18.2	6.06e-01	0	57	0	245366784	56	5125
2026-01-14 13:00:44.63	227.85	16.25	-42.0	-45.3	18.2	6.07e-01	0	57	0	247463936	55	5339
2026-01-14 13:00:45.64	228.05	16.33	-41.9	-45.3	18.3	6.07e-01	0	57	0	249561088	55	5294
2026-01-14 13:00:46.65	228.26	16.41	-41.9	-45.2	18.4	6.06e-01	0	58	0	251133952	55	5247
2026-01-14 13:00:47.66	228.46	16.49	-41.9	-45.3	18.3	6.03e-01	0	57	0	253231104	55	5307
2026-01-14 13:00:48.67	228.67	16.57	-41.9	-45.3	18.3	6.07e-01	0	58	0	254803968	55	5301
2026-01-14 13:00:49.68	228.88	16.65	-42.0	-45.3	18.3	6.07e-01	0	58	0	256901120	55	5306
2026-01-14 13:00:50.69	229.09	16.73	-42.0	-45.3	18.3	6.05e-01	0	57	0	258998272	55	5296
2026-01-14 13:00:51.70	229.30	16.81	-41.9	-45.2	18.4	6.03e-01	0	58	0	260571136	55	5248
2026-01-14 13:00:52.71	229.51	16.89	-42.0	-45.2	18.4	6.06e-01	0	57	0	262668288	55	5278
2026-01-14 13:00:53.71	229.72	16.96	-42.0	-45.2	18.4	6.06e-01	0	58	0	264765440	55	5270
2026-01-14 13:00:54.73	229.94	17.04	-42.0	-45.2	18.4	6.06e-01	0	58	0	266338304	55	5261
2026-01-14 13:00:55.74	230.16	17.12	-41.9	-45.2	18.5	6.08e-01	0	58	0	268435456	55	5226
2026-01-14 13:00:56.75	230.37	17.20	-42.0	-45.2	18.4	6.06e-01	0	58	0	270008320	55	5259
2026-01-14 13:00:57.75	230.59	17.28	-42.0	-45.3	18.4	6.07e-01	0	58	0	272105472	55	5293
2026-01-14 13:00:58.76	230.81	17.35	-42.0	-45.2	18.4	6.08e-01	0	58	0	274202624	55	5260
2026-01-14 13:00:59.77	231.03	17.43	-42.0	-45.2	18.4	6.06e-01	0	58	0	275775488	55	5271
2026-01-14 13:01:00.78	231.25	17.51	-42.0	-45.3	18.4	6.08e-01	0	58	0	277872640	55	5281
2026-01-14 13:01:01.79	231.47	17.59	-42.0	-45.2	18.4	6.07e-01	0	58	0	279445504	55	5273
2026-01-14 13:01:02.80	231.70	17.67	-42.0	-45.3	18.3	6.05e-01	0	58	0	281542656	55	5306
2026-01-14 13:01:03.81	231.92	17.74	-42.0	-45.3	18.3	6.07e-01	0	58	0	283639808	55	5331
2026-01-14 13:01:04.82	232.15	17.82	-42.0	-45.4	18.3	6.05e-01	0	58	0	285212672	55	5347
2026-01-14 13:01:05.83	232.38	17.90	-42.0	-45.3	18.4	6.08e-01	0	58	0	287309824	55	5296
2026-01-14 13:01:06.84	232.61	17.97	-41.9	-45.1	18.5	6.07e-01	0	58	0	289406976	55	5212
2026-01-14 13:01:07.85	232.84	18.05	-42.0	-45.3	18.4	6.07e-01	0	58	0	290979840	55	5284
2026-01-14 13:01:08.86	233.07	18.13	-42.0	-45.2	18.5	6.06e-01	0	58	0	293076992	55	5271
2026-01-14 13:01:09.87	233.30	18.20	-42.0	-45.2	18.4	6.07e-01	0	58	0	294649856	55	5276
2026-01-14 13:01:10.88	233.53	18.28	-41.9	-45.2	18.5	6.09e-01	0	58	0	296747008	55	5222
2026-01-14 13:01:11.89	233.77	18.36	-41.9	-45.1	18.6	6.07e-01	0	58	0	298844160	55	5211
2026-01-14 13:01:12.90	234.00	18.43	-42.0	-45.3	18.4	6.06e-01	0	58	0	300417024	55	5280
2026-01-14 13:01:13.91	234.24	18.51	-42.0	-45.3	18.4	6.05e-01	0	58	0	302514176	55	5328
2026-01-14 13:01:14.91	234.48	18.58	-42.0	-45.2	18.4	6.07e-01	0	58	0	304087040	55	5271
2026-01-14 13:01:15.92	234.72	18.66	-42.0	-45.2	18.5	6.06e-01	0	58	0	306184192	55	5273
2026-01-14 13:01:16.93	234.96	18.73	-42.0	-45.2	18.5	6.07e-01	0	58	0	308281344	55	5263
2026-01-14 13:01:17.94	235.20	18.81	-42.0	-45.3	18.4	6.07e-01	0	58	0	309854208	55	5301
2026-01-14 13:01:18.95	235.44	18.88	-42.0	-45.3	18.4	6.06e-01	0	58	0	311951360	55	5299
2026-01-14 13:01:19.96	235.69	18.96	-42.0	-45.3	18.4	6.06e-01	0	58	0	313524224	55	5285
2026-01-14 13:01:20.97	235.93	19.03	-42.0	-45.2	18.5	6.05e-01	0	58	0	315621376	55	5279
2026-01-14 13:01:21.98	236.18	19.10	-42.0	-45.3	18.4	6.07e-01	0	58	0	317718528	55	5282
2026-01-14 13:01:22.99	236.43	19.18	-42.0	-45.3	18.5	6.07e-01	0	58	0	319291392	55	5280
2026-01-14 13:01:24.00	236.68	19.25	-42.0	-45.3	18.4	6.07e-01	0	58	0	321388544	55	5320
2026-01-14 13:01:25.01	236.93	19.32	-42.0	-45.3	18.4	6.07e-01	0	58	0	322961408	55	5301
2026-01-14 13:01:26.02	237.18	19.40	-42.0	-45.2	18.5	6.06e-01	0	58	0	325058560	55	5261
2026-01-14 13:01:27.03	237.43	19.47	-42.0	-45.3	18.4	6.06e-01	0	58	0	327155712	55	5290
2026-01-14 13:01:28.04	237.69	19.54	-42.1	-45.4	18.3	6.06e-01	0	58	0	328728576	55	5383
2026-01-14 13:01:29.05	237.94	19.61	-42.1	-45.4	18.3	6.09e-01	0	58	0	330825728	55	5364
2026-01-14 13:01:30.06	238.20	19.69	-42.1	-45.4	18.3	6.08e-01	0	58	0	332922880	55	5363
2026-01-14 13:01:31.07	238.46	19.76	-42.0	-45.3	18.4	6.06e-01	0	58	0	334495744	55	5297
2026-01-14 13:01:32.08	238.72	19.83	-42.1	-45.4	18.3	6.07e-01	0	58	0	336592896	55	5359
2026-01-14 13:01:33.09	238.98	19.90	-42.0	-45.3	18.4	6.07e-01	0	58	0	338165760	55	5300
2026-01-14 13:01:34.10	239.24	19.97	-42.0	-45.3	18.4	6.06e-01	0	58	0	340262912	55	5296
2026-01-14 13:01:35.11	239.50	20.04	-42.1	-45.4	18.4	6.08e-01	0	58	0	342360064	55	5352
2026-01-14 13:01:36.12	239.77	20.11	-42.1	-45.5	18.2	6.06e-01	0	58	0	343932928	55	5428
2026-01-14 13:01:37.13	240.03	20.18	-42.1	-45.5	18.2	6.04e-01	0	58	0	346030080	55	5420
2026-01-14 13:01:38.14	240.30	20.25	-42.1	-45.4	18.3	6.07e-01	0	58	0	347602944	55	5385
2026-01-14 13:01:39.15	240.57	20.31	-42.1	-45.5	18.3	6.05e-01	0	58	0	349700096	55	5411
2026-01-14 13:01:40.16	240.84	20.38	-42.2	-45.6	18.1	6.06e-01	0	58	0	351797248	55	5470
2026-01-14 13:01:41.17	241.11	20.45	-42.1	-45.4	18.3	6.08e-01	0	58	0	353370112	55	5374
2026-01-14 13:01:42.18	241.38	20.52	-42.0	-45.2	18.5	6.07e-01	0	58	0	355467264	55	5258
2026-01-14 13:01:43.19	241.65	20.58	-42.1	-45.3	18.4	6.06e-01	0	58	0	357564416	55	5338
2026-01-14 13:01:44.20	241.93	20.65	-42.2	-45.6	18.2	6.07e-01	0	58	0	359137280	55	5466
2026-01-14 13:01:45.21	242.20	20.71	-42.2	-45.6	18.1	6.05e-01	0	58	0	361234432	55	5486
2026-01-14 13:01:46.22	242.48	20.78	-42.2	-45.6	18.2	6.06e-01	0	58	0	362807296	55	5492
2026-01-14 13:01:47.23	242.76	20.84	-42.2	-45.5	18.2	6.07e-01	0	58	0	364904448	55	5424
2026-01-14 13:01:48.24	243.03	20.91	-42.1	-45.4	18.3	6.06e-01	0	58	0	367001600	55	5380
2026-01-14 13:01:49.25	243.31	20.97	-42.1	-45.4	18.4	6.07e-01	0	58	0	368574464	55	5361
2026-01-14 13:01:50.26	243.60	21.04	-42.2	-45.5	18.2	6.05e-01	0	58	0	370671616	55	5444
2026-01-14 13:01:51.26	243.88	21.10	-42.2	-45.5	18.2	6.06e-01	0	58	0	372244480	55	5454
2026-01-14 13:01:52.27	244.16	21.16	-42.2	-45.5	18.2	6.06e-01	0	58	0	374341632	55	5442
2026-01-14 13:01:53.28	244.44	21.22	-42.2	-45.6	18.2	6.06e-01	0	58	0	376438784	55	5475
2026-01-14 13:01:54.29	244.73	21.28	-42.2	-45.6	18.1	6.08e-01	0	58	0	378011648	55	5494
2026-01-14 13:01:55.30	245.02	21.35	-42.2	-45.5	18.2	6.06e-01	0	58	0	380108800	55	5447
2026-01-14 13:01:56.31	245.31	21.41	-42.2	-45.5	18.2	6.05e-01	0	58	0	381681664	55	5439
2026-01-14 13:01:57.32	245.60	21.47	-42.2	-45.6	18.2	6.08e-01	0	58	0	383778816	55	5493
2026-01-14 13:01:58.33	245.89	21.52	-42.2	-45.5	18.2	6.07e-01	0	58	0	385875968	55	5449
2026-01-14 13:01:59.34	246.18	21.58	-42.2	-45.6	18.1	6.06e-01	0	58	0	387448832	55	5486
2026-01-14 13:02:00.35	246.47	21.64	-42.3	-45.8	18.0	6.08e-01	0	58	0	389545984	55	5612
2026-01-14 13:02:01.36	246.76	21.70	-42.4	-45.8	17.9	6.06e-01	0	58	0	391118848	55	5652
2026-01-14 13:02:02.37	247.06	21.76	-42.2	-45.6	18.2	6.05e-01	0	58	0	393216000	55	5496
2026-01-14 13:02:03.38	247.36	21.81	-42.2	-45.6	18.2	6.06e-01	0	58	0	395313152	55	5492
2026-01-14 13:02:04.39	247.65	21.87	-42.3	-45.7	18.0	6.06e-01	0	58	0	396886016	55	5581
2026-01-14 13:02:05.40	247.95	21.92	-42.2	-45.6	18.1	6.08e-01	0	58	0	398983168	55	5522
2026-01-14 13:02:06.41	248.25	21.98	-42.2	-45.6	18.2	6.08e-01	0	58	0	401080320	55	5494
2026-01-14 13:02:07.42	248.55	22.03	-42.3	-45.7	18.1	6.05e-01	0	58	0	402653184	55	5531
2026-01-14 13:02:08.43	248.85	22.08	-42.3	-45.6	18.1	6.09e-01	0	58	0	404750336	55	5522
2026-01-14 13:02:09.44	249.16	22.14	-42.3	-45.7	18.0	6.06e-01	0	58	0	406323200	55	5563
2026-01-14 13:02:10.44	249.46	22.19	-42.3	-45.8	18.0	6.06e-01	0	58	0	408420352	55	5601
2026-01-14 13:02:11.45	249.76	22.24	-42.3	-45.6	18.1	6.09e-01	0	58	0	410517504	55	5526
2026-01-14 13:02:12.46	250.07	22.29	-42.2	-45.6	18.2	6.06e-01	0	58	0	412090368	55	5487
2026-01-14 13:02:13.47	250.37	22.34	-42.3	-45.7	18.0	6.06e-01	0	58	0	414187520	55	5579
2026-01-14 13:02:14.48	250.68	22.39	-42.4	-45.8	18.0	6.04e-01	0	58	0	415760384	55	5627
2026-01-14 13:02:15.49	250.99	22.44	-42.2	-45.5	18.2	6.07e-01	0	59	0	417857536	55	5452
2026-01-14 13:02:16.50	251.30	22.48	-42.3	-45.7	18.1	6.08e-01	0	58	0	419954688	55	5566
2026-01-14 13:02:17.51	251.61	22.53	-42.4	-45.8	18.0	6.08e-01	0	58	0	421527552	55	5633
2026-01-14 13:02:18.52	251.92	22.58	-42.3	-45.6	18.2	6.06e-01	0	58	0	423624704	55	5507
2026-01-14 13:02:19.53	252.23	22.62	-42.3	-45.7	18.0	6.06e-01	0	58	0	425721856	55	5566
2026-01-14 13:02:20.54	252.55	22.67	-42.3	-45.8	18.0	6.07e-01	0	58	0	427294720	55	5621
2026-01-14 13:02:21.55	252.86	22.71	-42.3	-45.6	18.2	6.07e-01	0	58	0	429391872	55	5502
2026-01-14 13:02:22.56	253.18	22.75	-42.3	-45.7	18.1	6.07e-01	0	58	0	430964736	55	5533
2026-01-14 13:02:23.57	253.49	22.80	-42.4	-45.8	17.9	6.08e-01	0	59	0	433061888	55	5648
2026-01-14 13:02:24.58	253.81	22.84	-42.3	-45.7	18.1	6.06e-01	0	58	0	435159040	55	5551
2026-01-14 13:02:25.59	254.13	22.88	-42.2	-45.6	18.2	6.07e-01	0	58	0	436731904	55	5490
2026-01-14 13:02:26.60	254.45	22.92	-42.4	-45.8	18.0	6.08e-01	0	58	0	438829056	55	5625
2026-01-14 13:02:27.60	254.76	22.96	-42.4	-45.8	18.0	6.08e-01	0	58	0	440401920	55	5642
2026-01-14 13:02:28.61	255.08	22.99	-42.3	-45.6	18.1	6.08e-01	0	58	0	442499072	55	5517
2026-01-14 13:02:29.62	255.41	23.03	-42.3	-45.7	18.1	6.06e-01	0	59	0	444071936	55	5556
2026-01-14 13:02:30.63	255.73	23.07	-42.3	-45.6	17.9	6.07e-01	0	58	0	446169088	55	5527
2026-01-14 13:02:31.64	256.05	23.10	-42.3	-45.7	18.1	6.08e-01	0	58	0	448266240	55	5545
2026-01-14 13:02:32.65	256.37	23.14	-42.4	-45.8	18.0	6.05e-01	0	58	0	449839104	55	5637
2026-01-14 13:02:33.66	256.70	23.17	-42.3	-45.8	18.0	6.08e-01	0	58	0	451936256	55	5614
2026-01-14 13:02:34.67	257.02	23.21	-42.4	-45.8	17.9	6.09e-01	0	58	0	454033408	55	5656
2026-01-14 13:02:35.68	257.35	23.24	-42.4	-45.9	17.9	6.06e-01	0	58	0	455606272	55	5680
2026-01-14 13:02:36.69	257.67	23.27	-42.3	-45.8	18.0	6.07e-01	0	59	0	457703424	55	5597
2026-01-14 13:02:37.70	258.00	23.30	-42.3	-45.6	18.1	6.07e-01	0	58	0	459276288	55	5525
2026-01-14 13:02:38.71	258.33	23.33	-42.3	-45.8	18.0	6.05e-01	0	58	0	461373440	55	5595
2026-01-14 13:02:39.72	258.66	23.36	-42.4	-45.8	17.9	6.07e-01	0	59	0	463470592	55	5650
2026-01-14 13:02:40.73	258.99	23.39	-42.4	-45.9	17.9	6.07e-01	0	59	0	465043456	55	5690
2026-01-14 13:02:41.74	259.32	23.41	-42.3	-45.8	18.0	6.06e-01	0	59	0	467140608	55	5602
2026-01-14 13:02:42.75	259.64	23.44	-42.3	-45.8	18.0	6.07e-01	0	59	0	468713472	55	5598
2026-01-14 13:02:43.76	259.98	23.47	-42.3	-45.7	18.1	6.07e-01	0	58	0	470810624	55	5546
2026-01-14 13:02:44.77	260.31	23.49	-42.2	-45.6	18.2	6.06e-01	0	59	0	472907776	55	5483
2026-01-14 13:02:45.78	260.64	23.51	-42.3	-45.7	18.1	6.07e-01	0	58	0	474480640	55	5580
2026-01-14 13:02:46.79	260.97	23.54	-42.3	-45.8	18.0	6.06e-01	0	58	0	476577792	55	5603
2026-01-14 13:02:47.80	261.30	23.56	-42.4	-45.8	17.9	6.05e-01	0	59	0	478674944	55	5647
2026-01-14 13:02:48.81	261.64	23.58	-42.3	-45.7	18.0	6.07e-01	0	59	0	480247808	55	5586
2026-01-14 13:02:49.82	261.97	23.60	-42.3	-45.6	18.2	6.07e-01	0	58	0	482344960	55	5507
2026-01-14 13:02:50.83	262.30	23.62	-42.3	-45.6	18.2	6.06e-01	0	58	0	483917824	55	5522
2026-01-14 13:02:51.83	262.63	23.63	-42.4	-45.9	17.9	6.05e-01	0	58	0	486014976	55	5672
2026-01-14 13:02:52.84	262.97	23.65	-42.3	-45.7	18.0	6.06e-01	0	58	0	488112128	55	5576
2026-01-14 13:02:53.85	263.30	23.67	-42.3	-45.7	18.1	6.07e-01	0	59	0	489684992	55	5577
2026-01-14 13:02:54.86	263.64	23.68	-42.4	-45.9	17.9	6.07e-01	0	59	0	491782144	55	5686
2026-01-14 13:02:55.87	263.97	23.69	-42.3	-45.7	18.0	6.08e-01	0	58	0	493355008	55	5571
2026-01-14 13:02:56.88	264.31	23.71	-42.3	-45.6	18.2	6.07e-01	0	59	0	495452160	55	5518
2026-01-14 13:02:57.89	264.64	23.72	-42.3	-45.8	18.0	6.06e-01	0	59	0	497549312	55	5611
2026-01-14 13:02:58.90	264.98	23.73	-42.3	-45.7	18.0	6.06e-01	0	59	0	499122176	55	5591
2026-01-14 13:02:59.91	265.32	23.74	-42.3	-45.8	18.0	6.07e-01	0	58	0	501219328	55	5596
2026-01-14 13:03:00.92	265.65	23.75	-42.3	-45.8	18.0	6.08e-01	0	59	0	502792192	55	5601
2026-01-14 13:03:01.93	265.99	23.76	-42.3	-45.6	18.1	6.08e-01	0	59	0	504889344	55	5524
2026-01-14 13:03:02.94	266.33	23.76	-42.2	-45.6	18.2	6.05e-01	0	58	0	506986496	55	5493
2026-01-14 13:03:03.95	266.66	23.77	-42.3	-45.8	18.0	6.06e-01	0	58	0	508559360	55	5613
2026-01-14 13:03:04.96	267.00	23.78	-42.4	-45.8	17.9	6.09e-01	0	59	0	510656512	55	5637
2026-01-14 13:03:05.97	267.34	23.78	-42.3	-45.8	18.0	6.06e-01	0	58	0	512229376	55	5594
2026-01-14 13:03:06.98	267.68	23.78	-42.2	-45.6	18.2	6.06e-01	0	58	0	514326528	55	5489
2026-01-14 13:03:07.99	268.01	23.78	-42.4	-45.8	18.0	6.07e-01	0	59	0	516423680	55	5638
2026-01-14 13:03:09.00	268.35	23.79	-42.3	-45.7	18.1	6.06e-01	0	59	0	517996544	55	5540
2026-01-14 13:03:10.00	268.69	23.79	-42.2	-45.6	18.2	6.07e-01	0	59	0	520093696	55	5489
2026-01-14 13:03:11.01	269.02	23.78	-42.4	-45.8	17.9	6.07e-01	0	59	0	522190848	55	5653
2026-01-14 13:03:12.02	269.36	23.78	-42.4	-45.9	17.9	6.06e-01	0	59	0	523763712	55	5663
2026-01-14 13:03:13.03	269.70	23.78	-42.3	-45.7	18.1	6.08e-01	0	59	0	525860864	55	5553
2026-01-14 13:03:14.04	270.03	23.78	-42.3	-45.6	18.1	6.05e-01	0	59	0	527433728	55	5518
2026-01-14 13:03:15.05	270.37	23.77	-42.2	-45.6	18.1	6.06e-01	0	58	0	529530880	55	5504
2026-01-14 13:03:16.06	270.71	23.77	-42.3	-45.7	18.1	6.05e-01	0	59	0	531628032	55	5547
2026-01-14 13:03:17.07	271.05	23.76	-42.3	-45.7	18.1	6.07e-01	0	59	0	533200896	55	5563
2026-01-14 13:03:18.08	271.38	23.75	-42.3	-45.7	18.1	6.08e-01	0	59	0	535298048	55	5548
2026-01-14 13:03:19.09	271.72	23.74	-42.3	-45.7	18.1	6.07e-01	0	59	0	536870912	55	5546
2026-01-14 13:03:20.10	272.05	23.73	-42.3	-45.7	18.1	6.07e-01	0	59	0	538968064	55	5554
2026-01-14 13:03:21.11	272.39	23.72	-42.3	-45.6	18.1	6.08e-01	0	59	0	541065216	55	5507
2026-01-14 13:03:22.12	272.73	23.71	-42.3	-45.6	18.1	6.08e-01	0	59	0	542638080	55	5518
2026-01-14 13:03:23.13	273.06	23.70	-42.3	-45.7	18.1	6.06e-01	0	59	0	544735232	55	5543
2026-01-14 13:03:24.14	273.40	23.68	-42.3	-45.7	18.0	6.08e-01	0	59	0	546832384	55	5567
2026-01-14 13:03:25.14	273.73	23.67	-42.3	-45.8	18.0	6.06e-01	0	59	0	548405248	55	5599
2026-01-14 13:03:26.15	274.06	23.65	-42.2	-45.6	18.2	6.07e-01	0	59	0	550502400	55	5490
2026-01-14 13:03:27.16	274.40	23.64	-42.3	-45.7	18.1	6.06e-01	0	59	0	552075264	55	5531
2026-01-14 13:03:28.17	274.73	23.62	-42.4	-45.8	18.0	6.06e-01	0	59	0	554172416	55	5640
2026-01-14 13:03:29.18	275.06	23.60	-42.3	-45.7	18.1	6.05e-01	0	59	0	556269568	55	5556
2026-01-14 13:03:30.19	275.40	23.58	-42.3	-45.8	18.0	6.07e-01	0	59	0	557842432	55	5615
2026-01-14 13:03:31.20	275.73	23.56	-42.3	-45.8	17.9	6.08e-01	0	59	0	559939584	55	5622
2026-01-14 13:03:32.21	276.06	23.54	-42.2	-45.5	18.2	6.07e-01	0	59	0	561512448	55	5464
2026-01-14 13:03:33.22	276.39	23.52	-42.2	-45.6	18.2	6.04e-01	0	59	0	563609600	55	5491
2026-01-14 13:03:34.23	276.72	23.49	-42.3	-45.6	18.1	6.07e-01	0	59	0	565706752	55	5528
2026-01-14 13:03:35.24	277.06	23.47	-42.2	-45.6	18.2	6.06e-01	0	59	0	567279616	55	5481
2026-01-14 13:03:36.25	277.39	23.45	-42.2	-45.6	18.2	6.06e-01	0	59	0	569376768	55	5473
2026-01-14 13:03:37.26	277.71	23.42	-42.3	-45.7	18.0	6.07e-01	0	59	0	570949632	55	5577
2026-01-14 13:03:38.27	278.04	23.39	-42.3	-45.7	18.1	6.05e-01	0	58	0	573046784	55	5542
2026-01-14 13:03:39.28	278.37	23.36	-42.2	-45.6	18.1	6.08e-01	0	59	0	575143936	55	5480
2026-01-14 13:03:40.29	278.70	23.34	-42.2	-45.6	18.1	6.07e-01	0	59	0	576716800	55	5503
2026-01-14 13:03:41.30	279.03	23.31	-42.2	-45.6	18.1	6.05e-01	0	59	0	578813952	55	5512
2026-01-14 13:03:42.30	279.35	23.28	-42.2	-45.6	18.1	6.06e-01	0	59	0	580386816	55	5499
2026-01-14 13:03:43.31	279.67	23.25	-42.2	-45.6	18.1	6.08e-01	0	59	0	582483968	55	5498
2026-01-14 13:03:44.32	280.00	23.21	-42.2	-45.6	18.1	6.06e-01	0	59	0	584581120	55	5472
2026-01-14 13:03:45.33	280.32	23.18	-42.3	-45.7	18.0	6.07e-01	0	59	0	586153984	55	5547
2026-01-14 13:03:46.34	280.65	23.15	-42.2	-45.5	18.2	6.07e-01	0	59	0	588251136	55	5440
2026-01-14 13:03:47.35	280.97	23.11	-42.2	-45.5	18.2	6.07e-01	0	59	0	590348288	55	5437
2026-01-14 13:03:48.36	281.29	23.08	-42.2	-45.5	18.2	6.06e-01	0	59	0	591921152	55	5455
2026-01-14 13:03:49.37	281.61	23.04	-42.1	-45.5	18.3	6.08e-01	0	59	0	594018304	55	5412
2026-01-14 13:03:50.38	281.93	23.00	-42.1	-45.4	18.4	6.08e-01	0	59	0	595591168	55	5349
2026-01-14 13:03:51.39	282.25	22.97	-42.2	-45.5	18.2	6.07e-01	0	59	0	597688320	55	5454
2026-01-14 13:03:52.40	282.57	22.93	-42.2	-45.6	18.1	6.05e-01	0	59	0	599785472	55	5479
2026-01-14 13:03:53.41	282.89	22.89	-42.1	-45.4	18.3	6.04e-01	0	59	0	601358336	55	5360
2026-01-14 13:03:54.42	283.21	22.85	-42.2	-45.5	18.2	6.06e-01	0	59	0	603455488	55	5453
2026-01-14 13:03:55.43	283.52	22.81	-42.2	-45.6	18.1	6.05e-01	0	59	0	605028352	55	5515
2026-01-14 13:03:56.43	283.84	22.76	-42.1	-45.4	18.3	6.04e-01	0	59	0	607125504	55	5378
2026-01-14 13:03:57.45	284.15	22.72	-42.1	-45.3	18.4	6.06e-01	0	59	0	609222656	55	5338
2026-01-14 13:03:58.46	284.47	22.68	-42.1	-45.4	18.3	6.05e-01	0	59	0	610795520	55	5357
2026-01-14 13:03:59.46	284.78	22.63	-42.2	-45.5	18.2	6.06e-01	0	59	0	612892672	55	5459
2026-01-14 13:04:00.47	285.09	22.59	-42.2	-45.7	18.1	6.06e-01	0	59	0	614465536	55	5533
2026-01-14 13:04:01.48	285.40	22.54	-42.2	-45.6	18.1	6.06e-01	0	59	0	616562688	55	5513
2026-01-14 13:04:02.49	285.71	22.50	-42.1	-45.4	18.3	6.06e-01	0	59	0	618659840	55	5395
2026-01-14 13:04:03.50	286.02	22.45	-42.1	-45.5	18.3	6.06e-01	0	59	0	620232704	55	5404
2026-01-14 13:04:04.51	286.33	22.40	-42.2	-45.5	18.1	6.09e-01	0	59	0	622329856	55	5463
2026-01-14 13:04:05.52	286.63	22.35	-42.1	-45.4	18.3	6.06e-01	0	59	0	623902720	55	5386
2026-01-14 13:04:06.53	286.94	22.30	-42.1	-45.5	18.2	6.05e-01	0	59	0	625999872	55	5428
2026-01-14 13:04:07.54	287.24	22.25	-42.2	-45.6	18.1	6.07e-01	0	59	0	628097024	55	5517
2026-01-14 13:04:08.55	287.55	22.20	-42.2	-45.7	18.1	6.07e-01	0	59	0	629669888	55	5540
2026-01-14 13:04:09.56	287.85	22.15	-42.2	-45.5	18.2	6.07e-01	0	59	0	631767040	55	5445
2026-01-14 13:04:10.57	288.15	22.10	-42.1	-45.5	18.2	6.06e-01	0	59	0	633339904	55	5408
2026-01-14 13:04:11.58	288.45	22.05	-42.1	-45.4	18.2	6.04e-01	0	59	0	635437056	55	5399
2026-01-14 13:04:12.59	288.75	21.99	-42.1	-45.5	18.2	6.06e-01	0	59	0	637534208	55	5403
2026-01-14 13:04:13.60	289.05	21.94	-42.1	-45.5	18.2	6.06e-01	0	59	0	639107072	55	5419
2026-01-14 13:04:14.61	289.35	21.88	-42.1	-45.5	18.2	6.03e-01	0	59	0	641204224	55	5421
2026-01-14 13:04:15.62	289.65	21.83	-42.2	-45.6	18.0	6.07e-01	0	59	0	643301376	55	5511
2026-01-14 13:04:16.63	289.94	21.77	-42.3	-45.7	18.0	6.08e-01	0	59	0	644874240	55	5572
2026-01-14 13:04:17.64	290.24	21.72	-42.2	-45.7	18.0	6.07e-01	0	59	0	646971392	55	5549
2026-01-14 13:04:18.65	290.53	21.66	-42.1	-45.5	18.2	6.08e-01	0	59	0	648544256	55	5412
2026-01-14 13:04:19.66	290.82	21.60	-42.1	-45.4	18.3	6.07e-01	0	59	0	650641408	55	5349
2026-01-14 13:04:20.66	291.11	21.54	-42.1	-45.4	18.3	6.05e-01	0	59	0	652738560	55	5344
2026-01-14 13:04:21.67	291.40	21.49	-42.2	-45.6	18.1	6.05e-01	0	59	0	654311424	55	5465
2026-01-14 13:04:22.68	291.69	21.43	-42.1	-45.4	18.3	6.05e-01	0	59	0	656408576	55	5380
2026-01-14 13:04:23.69	291.97	21.37	-42.0	-45.3	18.4	6.06e-01	0	59	0	658505728	55	5299
2026-01-14 13:04:24.70	292.26	21.31	-42.1	-45.4	18.3	6.08e-01	0	59	0	660078592	55	5378
2026-01-14 13:04:25.71	292.54	21.25	-42.1	-45.5	18.2	6.06e-01	0	59	0	662175744	55	5444
2026-01-14 13:04:26.72	292.83	21.18	-42.1	-45.4	18.2	6.09e-01	0	59	0	663748608	55	5388
2026-01-14 13:04:27.73	293.11	21.12	-42.0	-45.3	18.4	6.06e-01	0	59	0	665845760	55	5301
2026-01-14 13:04:28.74	293.39	21.06	-41.9	-45.2	18.5	6.09e-01	0	59	0	667942912	55	5230
2026-01-14 13:04:29.75	293.67	21.00	-42.0	-45.2	18.4	6.06e-01	0	59	0	669515776	55	5267
2026-01-14 13:04:30.76	293.95	20.93	-42.0	-45.3	18.4	6.04e-01	0	59	0	671612928	55	5302
2026-01-14 13:04:31.77	294.23	20.87	-42.0	-45.3	18.3	6.06e-01	0	59	0	673185792	55	5324
2026-01-14 13:04:32.78	294.51	20.80	-42.0	-45.3	18.4	6.08e-01	0	59	0	675282944	55	5307
2026-01-14 13:04:33.79	294.78	20.74	-42.0	-45.2	18.4	6.04e-01	0	59	0	677380096	55	5278
2026-01-14 13:04:34.80	295.06	20.67	-42.0	-45.4	18.3	6.06e-01	0	59	0	678952960	55	5343
2026-01-14 13:04:35.81	295.33	20.61	-42.1	-45.4	18.2	6.05e-01	0	59	0	681050112	55	5364
2026-01-14 13:04:36.82	295.60	20.54	-42.1	-45.4	18.2	6.08e-01	0	59	0	682622976	55	5381
2026-01-14 13:04:37.83	295.87	20.48	-42.0	-45.3	18.3	6.08e-01	0	59	0	684720128	55	5336
2026-01-14 13:04:38.83	296.14	20.41	-42.0	-45.3	18.3	6.06e-01	0	59	0	686817280	55	5335
2026-01-14 13:04:39.84	296.41	20.34	-42.0	-45.2	18.3	6.09e-01	0	59	0	688390144	55	5279
2026-01-14 13:04:40.85	296.68	20.28	-41.9	-45.2	18.5	6.04e-01	0	59	0	690487296	55	5233
2026-01-14 13:04:41.86	296.94	20.21	-41.9	-45.1	18.5	6.07e-01	0	59	0	692060160	55	5215
2026-01-14 13:04:42.87	297.21	20.14	-41.9	-45.2	18.4	6.07e-01	0	59	0	694157312	55	5234
2026-01-14 13:04:43.88	297.47	20.07	-42.0	-45.3	18.3	6.04e-01	0	59	0	696254464	55	5311
2026-01-14 13:04:44.89	297.73	20.00	-42.0	-45.4	18.2	6.06e-01	0	59	0	697827328	55	5358
2026-01-14 13:04:45.90	297.99	19.93	-42.1	-45.5	18.1	6.07e-01	0	59	0	699924480	55	5422
2026-01-14 13:04:46.91	298.25	19.86	-42.0	-45.4	18.2	6.05e-01	0	59	0	701497344	55	5353
2026-01-14 13:04:47.92	298.51	19.79	-41.9	-45.1	18.4	6.06e-01	0	59	0	703594496	55	5199
2026-01-14 13:04:48.93	298.77	19.72	-41.8	-44.9	18.7	6.08e-01	0	59	0	705691648	55	5078
2026-01-14 13:04:49.94	299.02	19.65	-41.8	-44.9	18.6	6.08e-01	0	59	0	707264512	55	5091
2026-01-14 13:04:50.95	299.28	19.58	-41.9	-45.2	18.4	6.06e-01	0	59	0	709361664	55	5224
2026-01-14 13:04:51.95	299.53	19.51	-42.0	-45.3	18.3	6.04e-01	0	59	0	711458816	55	5317
2026-01-14 13:04:52.96	299.78	19.44	-42.0	-45.4	18.2	6.05e-01	0	59	0	713031680	55	5359
2026-01-14 13:04:53.97	300.03	19.36	-42.0	-45.4	18.2	6.06e-01	0	59	0	715128832	55	5356
2026-01-14 13:04:54.98	300.28	19.29	-42.0	-45.3	18.2	6.08e-01	0	59	0	716701696	55	5327
2026-01-14 13:04:55.99	300.53	19.22	-41.9	-45.1	18.4	6.06e-01	0	59	0	718798848	55	5208
2026-01-14 13:04:57.00	300.78	19.15	-41.8	-45.0	18.5	6.07e-01	0	59	0	720896000	55	5148
2026-01-14 13:04:58.01	301.02	19.07	-41.8	-45.0	18.5	6.06e-01	0	59	0	722468864	55	5150
2026-01-14 13:04:59.02	301.27	19.00	-41.9	-45.1	18.5	6.06e-01	0	59	0	724566016	55	5189
2026-01-14 13:05:00.03	301.51	18.93	-41.9	-45.1	18.5	6.06e-01	0	59	0	726663168	55	5195
2026-01-14 13:05:01.04	301.76	18.85	-41.8	-45.0	18.6	6.07e-01	0	59	0	728236032	55	5138
2026-01-14 13:05:02.05	302.00	18.78	-41.8	-45.1	18.5	6.07e-01	0	59	0	730333184	55	5178
2026-01-14 13:05:03.06	302.24	18.70	-41.9	-45.1	18.5	6.05e-01	0	59	0	731906048	55	5200
2026-01-14 13:05:04.07	302.48	18.63	-41.8	-45.1	18.5	6.05e-01	0	59	0	734003200	55	5182
2026-01-14 13:05:05.07	302.71	18.55	-41.9	-45.1	18.4	6.07e-01	0	59	0	735576064	55	5210
2026-01-14 13:05:06.08	302.95	18.48	-41.9	-45.2	18.3	6.08e-01	0	59	0	737673216	55	5255
2026-01-14 13:05:07.09	303.18	18.40	-41.9	-45.2	18.3	6.09e-01	0	59	0	739770368	55	5256
2026-01-14 13:05:08.10	303.42	18.33	-41.9	-45.2	18.3	6.05e-01	0	59	0	741343232	55	5254
2026-01-14 13:05:09.11	303.65	18.25	-41.9	-45.1	18.4	6.07e-01	0	59	0	743440384	55	5206
2026-01-14 13:05:10.12	303.88	18.18	-41.8	-45.1	18.5	6.07e-01	0	59	0	745013248	55	5178
2026-01-14 13:05:11.13	304.11	18.10	-41.8	-45.1	18.5	6.06e-01	0	59	0	747110400	55	5169
2026-01-14 13:05:12.14	304.34	18.03	-41.8	-45.1	18.5	6.04e-01	0	59	0	749207552	55	5167
2026-01-14 13:05:13.15	304.57	17.95	-41.8	-45.0	18.5	6.04e-01	0	59	0	750780416	55	5156
2026-01-14 13:05:14.16	304.79	17.87	-41.8	-45.1	18.5	6.04e-01	0	59	0	752877568	55	5174
2026-01-14 13:05:15.17	305.02	17.80	-41.9	-45.2	18.4	6.07e-01	0	59	0	754974720	55	5225
2026-01-14 13:05:16.18	305.24	17.72	-41.9	-45.1	18.4	6.06e-01	0	59	0	756547584	55	5213
2026-01-14 13:05:17.19	305.47	17.64	-41.9	-45.1	18.4	6.09e-01	0	59	0	758644736	55	5192
2026-01-14 13:05:18.20	305.69	17.57	-41.8	-45.1	18.5	6.06e-01	0	59	0	760217600	55	5185
2026-01-14 13:05:19.20	305.91	17.49	-41.8	-45.1	18.5	6.07e-01	0	59	0	762314752	55	5178
2026-01-14 13:05:20.21	306.13	17.41	-41.8	-45.1	18.5	6.07e-01	0	59	0	764411904	55	5178
2026-01-14 13:05:21.22	306.35	17.33	-41.8	-45.1	18.5	6.05e-01	0	59	0	765984768	55	5175
2026-01-14 13:05:22.23	306.56	17.26	-41.8	-45.1	18.4	6.06e-01	0	59	0	768081920	55	5181
2026-01-14 13:05:23.24	306.78	17.18	-41.8	-45.1	18.5	6.09e-01	0	59	0	769654784	55	5163
2026-01-14 13:05:24.25	306.99	17.10	-41.8	-45.0	18.5	6.07e-01	0	59	0	771751936	55	5125
2026-01-14 13:05:25.26	307.21	17.02	-41.8	-45.0	18.5	6.07e-01	0	59	0	773849088	55	5158
2026-01-14 13:05:26.27	307.42	16.95	-41.8	-45.1	18.5	6.06e-01	0	59	0	775421952	55	5175
2026-01-14 13:05:27.28	307.63	16.87	-41.8	-45.1	18.4	6.06e-01	0	59	0	777519104	55	5190
2026-01-14 13:05:28.29	307.84	16.79	-41.8	-45.1	18.4	6.07e-01	0	59	0	779616256	55	5181
2026-01-14 13:05:29.30	308.05	16.71	-41.8	-45.1	18.4	6.05e-01	0	59	0	781189120	55	5182
2026-01-14 13:05:30.31	308.26	16.63	-41.8	-45.1	18.4	6.07e-01	0	59	0	783286272	55	5176
2026-01-14 13:05:31.32	308.47	16.56	-41.8	-45.0	18.5	6.07e-01	0	59	0	784859136	55	5130
2026-01-14 13:05:32.33	308.67	16.48	-41.8	-45.1	18.4	6.06e-01	0	59	0	786956288	55	5173
2026-01-14 13:05:33.34	308.88	16.40	-41.8	-45.1	18.4	6.06e-01	0	59	0	789053440	55	5183
2026-01-14 13:05:34.35	309.08	16.32	-41.8	-45.0	18.4	6.06e-01	0	59	0	790626304	55	5147
2026-01-14 13:05:35.36	309.29	16.24	-41.8	-45.1	18.4	6.09e-01	0	59	0	792723456	55	5190
2026-01-14 13:05:36.37	309.49	16.16	-41.8	-45.1	18.4	6.08e-01	0	59	0	794296320	55	5196
2026-01-14 13:05:37.38	309.69	16.09	-41.8	-45.1	18.4	6.03e-01	0	59	0	796393472	55	5172
2026-01-14 13:05:38.39	309.89	16.01	-41.8	-45.1	18.3	6.08e-01	0	59	0	798490624	55	5213
2026-01-14 13:05:39.40	310.08	15.93	-41.9	-45.2	18.3	6.05e-01	0	59	0	800063488	55	5235
2026-01-14 13:05:40.40	310.28	15.85	-41.9	-45.2	18.3	6.04e-01	0	59	0	802160640	55	5226
2026-01-14 13:05:41.41	310.48	15.77	-41.8	-45.2	18.3	6.05e-01	0	59	0	803733504	55	5220
2026-01-14 13:05:42.42	310.67	15.69	-41.8	-45.1	18.3	6.07e-01	0	59	0	805830656	55	5207
2026-01-14 13:05:43.43	310.86	15.62	-41.8	-45.1	18.3	6.06e-01	0	59	0	807927808	55	5218
2026-01-14 13:05:44.44	311.06	15.54	-41.8	-45.1	18.3	6.06e-01	0	59	0	809500672	55	5214
2026-01-14 13:05:45.45	311.25	15.46	-41.8	-45.2	18.3	6.05e-01	0	59	0	811597824	55	5222
2026-01-14 13:05:46.46	311.44	15.38	-41.8	-45.1	18.3	6.06e-01	0	59	0	813170688	55	5208
2026-01-14 13:05:47.47	311.63	15.30	-41.8	-45.1	18.3	6.06e-01	0	59	0	815267840	55	5190
2026-01-14 13:05:48.48	311.82	15.22	-41.8	-45.1	18.3	6.05e-01	0	59	0	817364992	55	5206
2026-01-14 13:05:49.49	312.01	15.14	-41.9	-45.2	18.2	6.05e-01	0	59	0	818937856	55	5242
2026-01-14 13:05:50.50	312.19	15.07	-41.9	-45.2	18.2	6.07e-01	0	59	0	821035008	55	5260
2026-01-14 13:05:51.51	312.38	14.99	-41.9	-45.2	18.2	6.08e-01	0	59	0	823132160	55	5277
2026-01-14 13:05:52.52	312.56	14.91	-41.9	-45.3	18.2	6.07e-01	0	59	0	824705024	55	5280
2026-01-14 13:05:53.53	312.75	14.83	-41.9	-45.3	18.1	6.06e-01	0	59	0	826802176	55	5301
2026-01-14 13:05:54.54	312.93	14.75	-41.9	-45.3	18.1	6.05e-01	0	59	0	828375040	55	5292
2026-01-14 13:05:55.55	313.11	14.67	-41.9	-45.3	18.1	6.07e-01	0	59	0	830472192	55	5290
2026-01-14 13:05:56.56	313.29	14.59	-41.9	-45.2	18.1	6.08e-01	0	59	0	832569344	55	5276
2026-01-14 13:05:57.57	313.47	14.52	-41.9	-45.2	18.2	6.07e-01	0	59	0	834142208	55	5279
2026-01-14 13:05:58.58	313.65	14.44	-41.9	-45.3	18.1	6.06e-01	0	59	0	836239360	55	5304
2026-01-14 13:05:59.59	313.83	14.36	-41.9	-45.3	18.1	6.06e-01	0	59	0	837812224	55	5288
2026-01-14 13:06:00.60	314.00	14.28	-41.9	-45.3	18.1	6.07e-01	0	59	0	839909376	55	5309
2026-01-14 13:06:01.61	314.18	14.20	-41.9	-45.3	18.1	6.09e-01	0	59	0	842006528	55	5302
2026-01-14 13:06:02.62	314.35	14.13	-41.9	-45.3	18.1	6.06e-01	0	59	0	843579392	55	5295
2026-01-14 13:06:03.63	314.53	14.05	-41.9	-45.3	18.1	6.08e-01	0	59	0	845676544	55	5321
2026-01-14 13:06:04.64	314.70	13.97	-41.9	-45.4	18.0	6.06e-01	0	59	0	847773696	55	5354
2026-01-14 13:06:05.65	314.87	13.89	-41.9	-45.3	18.0	6.07e-01	0	59	0	849346560	55	5327
2026-01-14 13:06:06.65	315.04	13.81	-42.0	-45.4	17.9	6.05e-01	0	59	0	851443712	55	5389
2026-01-14 13:06:07.66	315.21	13.74	-41.9	-45.4	18.0	6.08e-01	0	59	0	853016576	55	5357
2026-01-14 13:06:08.67	315.38	13.66	-41.9	-45.3	18.0	6.05e-01	0	59	0	855113728	55	5335
2026-01-14 13:06:09.69	315.55	13.58	-41.9	-45.3	18.0	6.07e-01	0	59	0	857210880	55	5334
2026-01-14 13:06:10.70	315.72	13.50	-41.9	-45.4	18.0	6.06e-01	0	59	0	858783744	55	5368
2026-01-14 13:06:11.71	315.88	13.42	-41.9	-45.4	18.0	6.06e-01	0	59	0	860880896	55	5359
2026-01-14 13:06:12.71	316.05	13.35	-41.9	-45.4	18.0	6.06e-01	0	59	0	862453760	55	5356
2026-01-14 13:06:13.73	316.21	13.27	-41.9	-45.4	17.9	6.06e-01	0	59	0	864550912	55	5372
2026-01-14 13:06:14.74	316.38	13.19	-41.9	-45.4	17.9	6.07e-01	0	59	0	866648064	55	5366
2026-01-14 13:06:15.75	316.54	13.11	-41.9	-45.4	17.9	6.06e-01	0	59	0	868220928	55	5384
2026-01-14 13:06:16.76	316.70	13.04	-41.9	-45.4	17.9	6.06e-01	0	59	0	870318080	55	5393
2026-01-14 13:06:17.77	316.86	12.96	-41.9	-45.4	17.9	6.06e-01	0	59	0	871890944	55	5388
2026-01-14 13:06:18.78	317.02	12.88	-42.0	-45.5	17.8	6.06e-01	0	59	0	873988096	55	5443
2026-01-14 13:06:19.79	317.18	12.81	-42.0	-45.5	17.8	6.07e-01	0	59	0	876085248	55	5431
2026-01-14 13:06:20.79	317.34	12.73	-42.0	-45.6	17.7	6.06e-01	0	59	0	877658112	55	5469
2026-01-14 13:06:21.81	317.50	12.65	-42.0	-45.5	17.7	6.06e-01	0	59	0	879755264	55	5453
2026-01-14 13:06:22.81	317.65	12.58	-41.9	-45.5	17.8	6.06e-01	0	59	0	881328128	55	5404
2026-01-14 13:06:23.82	317.81	12.50	-41.9	-45.4	17.8	6.05e-01	0	59	0	883425280	55	5399
2026-01-14 13:06:24.84	317.97	12.42	-42.0	-45.5	17.8	6.07e-01	0	59	0	885522432	55	5439
2026-01-14 13:06:25.85	318.12	12.35	-42.0	-45.5	17.7	6.06e-01	0	59	0	887095296	55	5452
2026-01-14 13:06:26.86	318.27	12.27	-42.0	-45.6	17.6	6.06e-01	0	59	0	889192448	55	5513
2026-01-14 13:06:27.87	318.42	12.19	-42.0	-45.6	17.7	6.07e-01	0	59	0	891289600	55	5474
2026-01-14 13:06:28.87	318.57	12.12	-42.0	-45.6	17.7	6.09e-01	0	59	0	892862464	55	5486
2026-01-14 13:06:29.88	318.73	12.04	-42.0	-45.6	17.7	6.07e-01	0	59	0	894959616	55	5476
2026-01-14 13:06:30.89	318.88	11.96	-42.0	-45.5	17.7	6.06e-01	0	59	0	896532480	55	5445
2026-01-14 13:06:31.90	319.02	11.89	-42.0	-45.6	17.6	6.06e-01	0	59	0	898629632	55	5489
2026-01-14 13:06:32.92	319.17	11.81	-42.0	-45.6	17.6	6.07e-01	0	59	0	900726784	55	5501
2026-01-14 13:06:33.92	319.32	11.74	-42.0	-45.6	17.6	6.04e-01	0	59	0	902299648	55	5502
2026-01-14 13:06:34.93	319.47	11.66	-42.0	-45.6	17.6	6.06e-01	0	59	0	904396800	55	5486
2026-01-14 13:06:35.94	319.61	11.59	-42.0	-45.6	17.6	6.04e-01	0	59	0	905969664	55	5515
2026-01-14 13:06:36.96	319.76	11.51	-42.1	-45.7	17.5	6.05e-01	0	59	0	908066816	55	5579
2026-01-14 13:06:37.97	319.90	11.43	-42.1	-45.7	17.5	6.09e-01	0	59	0	910163968	55	5576
2026-01-14 13:06:38.97	320.05	11.36	-42.0	-45.7	17.5	6.08e-01	0	59	0	911736832	55	5546
2026-01-14 13:06:39.98	320.19	11.29	-42.1	-45.8	17.4	6.03e-01	0	59	0	913833984	55	5614
2026-01-14 13:06:41.00	320.33	11.21	-42.1	-45.8	17.4	6.07e-01	0	59	0	915931136	55	5629
2026-01-14 13:06:42.00	320.47	11.14	-42.1	-45.8	17.3	6.06e-01	0	59	0	917504000	55	5626
2026-01-14 13:06:43.01	320.61	11.06	-42.1	-45.9	17.3	6.07e-01	0	59	0	919601152	55	5660
2026-01-14 13:06:44.02	320.75	10.99	-42.2	-46.0	17.2	6.07e-01	0	59	0	921174016	55	5724
2026-01-14 13:06:45.03	320.89	10.91	-42.2	-46.0	17.1	6.06e-01	0	59	0	923271168	55	5761
2026-01-14 13:06:46.04	321.03	10.84	-42.2	-46.0	17.1	6.07e-01	0	59	0	925368320	55	5767
2026-01-14 13:06:47.05	321.17	10.76	-42.2	-46.1	17.1	6.07e-01	0	59	0	926941184	55	5796
2026-01-14 13:06:48.06	321.31	10.69	-42.2	-46.1	17.0	6.06e-01	0	59	0	929038336	55	5817
2026-01-14 13:06:49.07	321.44	10.61	-42.2	-46.1	17.0	6.05e-01	0	59	0	930611200	55	5845
2026-01-14 13:06:50.08	321.58	10.54	-42.2	-46.1	17.0	6.07e-01	0	59	0	932708352	55	5833
2026-01-14 13:06:51.09	321.71	10.47	-42.2	-46.0	17.1	6.07e-01	0	59	0	934805504	55	5769
2026-01-14 13:06:52.10	321.85	10.39	-42.2	-46.1	17.0	6.03e-01	0	59	0	936378368	55	5793
2026-01-14 13:06:53.11	321.98	10.32	-42.2	-46.0	17.1	6.02e-01	0	59	0	938475520	55	5762
2026-01-14 13:06:54.12	322.11	10.25	-42.2	-46.0	17.0	6.06e-01	0	59	0	940048384	55	5785
2026-01-14 13:06:55.13	322.24	10.17	-42.2	-46.1	17.0	6.06e-01	0	59	0	942145536	55	5806
2026-01-14 13:06:56.14	322.38	10.10	-42.2	-46.2	16.9	6.06e-01	0	59	0	944242688	55	5883
2026-01-14 13:06:57.15	322.51	10.03	-42.2	-46.2	16.9	6.03e-01	0	59	0	945815552	55	5881
2026-01-14 13:06:58.16	322.64	9.95	-42.2	-46.2	16.9	6.04e-01	0	59	0	947912704	55	5859
2026-01-14 13:06:59.17	322.76	9.88	-42.2	-46.2	16.9	6.02e-01	0	59	0	949485568	55	5867
2026-01-14 13:07:00.18	322.89	9.81	-42.2	-46.2	16.8	6.04e-01	0	59	0	951582720	55	5877
2026-01-14 13:07:01.19	323.02	9.74	-42.1	-46.0	17.0	6.02e-01	0	59	0	953679872	55	5775
2026-01-14 13:07:02.20	323.15	9.66	-42.2	-46.0	17.0	6.00e-01	0	59	0	955252736	55	5788
2026-01-14 13:07:03.21	323.27	9.59	-42.2	-46.1	16.9	6.03e-01	0	59	0	957349888	55	5852
2026-01-14 13:07:04.22	323.40	9.52	-42.2	-46.1	16.9	6.02e-01	0	59	0	959447040	55	5836
2026-01-14 13:07:05.23	323.53	9.45	-42.1	-46.1	16.9	6.00e-01	0	59	0	961019904	55	5789
2026-01-14 13:07:06.24	323.65	9.37	-42.2	-46.2	16.8	6.02e-01	0	59	0	963117056	55	5902
2026-01-14 13:07:07.25	323.77	9.30	-42.3	-46.3	16.7	6.02e-01	0	59	0	964689920	55	5935
2026-01-14 13:07:08.26	323.90	9.23	-42.2	-46.2	16.7	6.03e-01	0	59	0	966787072	55	5916
2026-01-14 13:07:09.27	324.02	9.16	-42.2	-46.2	16.7	6.02e-01	0	59	0	968884224	55	5903
2026-01-14 13:07:10.27	324.14	9.09	-42.3	-46.3	16.6	6.02e-01	0	59	0	970457088	55	5982
2026-01-14 13:07:11.28	324.26	9.02	-42.3	-46.3	16.6	6.04e-01	0	60	0	972554240	55	5964
2026-01-14 13:07:12.29	324.38	8.95	-42.3	-46.4	16.5	6.01e-01	0	59	0	974127104	55	6037
2026-01-14 13:07:13.30	324.50	8.87	-42.3	-46.5	16.5	6.01e-01	0	59	0	976224256	55	6077
2026-01-14 13:07:14.31	324.62	8.80	-42.3	-46.5	16.5	6.01e-01	0	59	0	978321408	55	6069
2026-01-14 13:07:15.32	324.74	8.73	-42.3	-46.6	16.4	6.03e-01	0	59	0	979894272	55	6149
2026-01-14 13:07:16.33	324.86	8.66	-42.4	-46.7	16.3	6.02e-01	0	59	0	981991424	55	6206
2026-01-14 13:07:17.34	324.98	8.59	-42.4	-46.7	16.2	6.01e-01	0	59	0	984088576	55	6260
2026-01-14 13:07:18.35	325.10	8.52	-42.4	-46.7	16.1	6.00e-01	0	59	0	985661440	55	6266
2026-01-14 13:07:19.36	325.21	8.45	-42.4	-46.8	16.0	6.03e-01	0	59	0	987758592	55	6314
2026-01-14 13:07:20.37	325.33	8.38	-42.5	-46.9	15.9	6.01e-01	0	59	0	989331456	55	6409
2026-01-14 13:07:21.38	325.44	8.31	-42.4	-46.8	16.0	6.03e-01	0	59	0	991428608	55	6305
2026-01-14 13:07:22.39	325.56	8.24	-42.4	-46.7	16.1	6.06e-01	0	59	0	993525760	55	6246
2026-01-14 13:07:23.40	325.67	8.17	-42.4	-46.7	16.1	6.02e-01	0	59	0	995098624	55	6255
2026-01-14 13:07:24.41	325.79	8.10	-42.4	-46.8	16.0	6.02e-01	0	59	0	997195776	55	6325
2026-01-14 13:07:25.42	325.90	8.03	-43.0	-47.9	15.3	6.04e-01	0	59	0	998768640	56	6757
2026-01-14 13:07:26.43	326.01	7.96	-45.3	-62.4	3.9	7.40e-01	0	59	104	999292928	61	26881
2026-01-14 13:07:27.44	326.13	7.89	-45.6	-63.9	3.8	7.44e-01	0	59	104	999292928	61	31928
2026-01-14 13:07:28.45	326.24	7.82	-45.8	-64.4	3.8	7.44e-01	0	59	104	999292928	62	31843
2026-01-14 13:07:29.46	326.35	7.75	-46.0	-64.6	3.8	7.47e-01	0	59	104	999292928	62	32819
2026-01-14 13:07:30.46	326.46	7.68	-46.1	-64.7	3.8	7.44e-01	0	59	104	999292928	62	33229
2026-01-14 13:07:31.47	326.57	7.62	-46.2	-64.9	3.8	7.43e-01	0	59	104	999292928	62	33701
2026-01-14 13:07:32.49	326.68	7.55	-46.2	-64.9	3.8	7.46e-01	0	59	104	999292928	63	32006
2026-01-14 13:07:33.50	326.79	7.48	-46.2	-64.9	3.8	7.47e-01	0	59	104	999292928	63	32131
2026-01-14 13:07:34.51	326.89	7.41	-45.4	-64.9	3.8	7.46e-01	0	59	104	999292928	62	34018
2026-01-14 13:07:35.52	327.00	7.34	-46.2	-64.9	3.8	7.43e-01	0	59	104	999292928	63	32079
2026-01-14 13:07:36.53	327.11	7.27	-45.7	-64.7	3.8	7.43e-01	0	59	104	999292928	63	31405
2026-01-14 13:07:37.54	327.22	7.20	-46.2	-64.8	3.9	7.45e-01	0	59	104	999292928	63	31751
2026-01-14 13:07:38.55	327.32	7.14	-46.2	-64.8	3.8	7.46e-01	0	59	104	999292928	63	31755
2026-01-14 13:07:39.56	327.43	7.07	-46.2	-64.8	3.8	7.46e-01	0	59	104	999292928	63	31785
2026-01-14 13:07:40.57	327.53	7.00	-46.2	-64.8	3.8	7.47e-01	0	59	104	999292928	63	31711
2026-01-14 13:07:41.58	327.64	6.93	-46.2	-64.8	3.8	7.45e-01	0	59	104	999292928	62	33606
2026-01-14 13:07:42.59	327.74	6.87	-46.2	-64.8	3.8	7.44e-01	0	60	104	999292928	62	33570
2026-01-14 13:07:43.60	327.85	6.80	-46.2	-64.8	3.8	7.44e-01	0	59	104	999292928	62	33540
2026-01-14 13:07:44.61	327.95	6.73	-46.2	-64.8	3.8	7.47e-01	0	59	104	999292928	62	33575
2026-01-14 13:07:45.62	328.05	6.66	-46.2	-64.8	3.8	7.45e-01	0	59	104	999292928	62	33466
2026-01-14 13:07:46.63	328.15	6.60	-46.2	-64.8	3.8	7.50e-01	0	59	104	999292928	62	33535
2026-01-14 13:07:47.64	328.26	6.53	-46.2	-64.8	3.8	7.43e-01	0	59	104	999292928	62	33496
2026-01-14 13:07:48.65	328.36	6.46	-46.2	-64.8	3.8	7.42e-01	0	59	104	999292928	62	33461
2026-01-14 13:07:49.66	328.46	6.40	-46.2	-64.8	3.8	7.44e-01	0	59	104	999292928	62	33419
2026-01-14 13:07:50.67	328.56	6.33	-46.1	-64.8	3.8	7.45e-01	0	59	104	999292928	62	33453
2026-01-14 13:07:51.68	328.66	6.26	-46.2	-64.8	3.8	7.44e-01	0	60	104	999292928	62	33508
2026-01-14 13:07:52.69	328.76	6.20	-46.2	-64.8	3.8	7.47e-01	0	60	104	999292928	62	33549
2026-01-14 13:07:53.70	328.86	6.13	-46.2	-64.8	3.8	7.46e-01	0	60	104	999292928	62	33490
2026-01-14 13:07:54.71	328.95	6.07	-46.1	-64.8	3.8	7.46e-01	0	59	104	999292928	62	33354
2026-01-14 13:07:55.72	329.05	6.00	-46.1	-64.8	3.8	7.44e-01	0	59	104	999292928	62	33419
2026-01-14 13:07:56.73	329.15	5.93	-46.0	-64.8	3.8	7.47e-01	0	59	104	999292928	62	33313
2026-01-14 13:07:57.74	329.25	5.87	-46.2	-64.8	3.8	7.47e-01	0	59	104	999292928	62	33503
2026-01-14 13:07:58.76	329.34	5.80	-46.2	-64.8	3.8	7.45e-01	0	60	104	999292928	62	33410
2026-01-14 13:07:59.76	329.44	5.74	-46.2	-64.8	3.8	7.45e-01	0	59	104	999292928	62	33397
2026-01-14 13:08:00.78	329.53	5.67	-46.2	-64.8	3.8	7.47e-01	0	59	104	999292928	62	33416
2026-01-14 13:08:01.79	329.63	5.61	-46.2	-64.8	3.8	7.43e-01	0	59	104	999292928	62	33350
2026-01-14 13:08:02.80	329.72	5.54	-46.2	-64.8	3.8	7.44e-01	0	59	104	999292928	62	33415
2026-01-14 13:08:03.81	329.82	5.48	-46.2	-64.8	3.8	7.44e-01	0	59	104	999292928	62	33383
2026-01-14 13:08:04.82	329.91	5.41	-46.2	-64.8	3.8	7.42e-01	0	59	104	999292928	62	33371
2026-01-14 13:08:05.82	330.01	5.35	-46.1	-64.8	3.8	7.47e-01	0	59	104	999292928	62	33445
2026-01-14 13:08:06.83	330.10	5.28	-46.2	-64.8	3.8	7.43e-01	0	59	104	999292928	62	33391
2026-01-14 13:08:07.84	330.19	5.22	-46.1	-64.8	3.8	7.44e-01	0	59	104	999292928	62	33414
2026-01-14 13:08:08.85	330.28	5.16	-46.1	-64.8	3.8	7.44e-01	0	60	104	999292928	62	33394
2026-01-14 13:08:09.86	330.37	5.09	-46.1	-64.8	3.8	7.42e-01	0	59	104	999292928	62	33355
2026-01-14 13:08:10.86	330.47	5.03	-46.2	-64.8	3.8	7.46e-01	0	59	104	999292928	62	33479
2026-01-14 13:08:11.87	330.56	4.96	-46.1	-64.8	3.8	7.48e-01	0	59	104	999292928	62	33403
2026-01-14 13:08:12.88	330.65	4.90	-46.1	-64.8	3.8	7.44e-01	0	59	104	999292928	62	33392
2026-01-14 13:08:13.89	330.74	4.84	-46.1	-64.8	3.8	7.46e-01	0	59	104	999292928	62	33392
2026-01-14 13:08:14.90	330.83	4.77	-46.1	-64.8	3.8	7.44e-01	0	59	104	999292928	62	33354
2026-01-14 13:08:15.91	330.92	4.71	-46.2	-64.8	3.8	7.47e-01	0	59	104	999292928	62	33392
2026-01-14 13:08:16.92	331.00	4.65	-46.2	-64.8	3.8	7.46e-01	0	60	104	999292928	62	33433
2026-01-14 13:08:17.93	331.09	4.58	-46.1	-64.7	3.8	7.48e-01	0	59	104	999292928	62	33262
2026-01-14 13:08:18.94	331.18	4.52	-46.1	-64.8	3.8	7.43e-01	0	59	104	999292928	62	33320
2026-01-14 13:08:19.95	331.27	4.46	-46.1	-64.8	3.8	7.44e-01	0	60	104	999292928	62	33397
2026-01-14 13:08:20.96	331.36	4.39	-46.0	-64.8	3.8	7.47e-01	0	59	104	999292928	62	33368
2026-01-14 13:08:21.97	331.44	4.33	-46.1	-64.8	3.8	7.46e-01	0	60	104	999292928	62	33345
2026-01-14 13:08:22.98	331.53	4.27	-46.1	-64.8	3.8	7.46e-01	0	59	104	999292928	62	33329
2026-01-14 13:08:23.99	331.62	4.21	-46.1	-64.7	3.8	7.47e-01	0	59	104	999292928	62	33274
2026-01-14 13:08:25.00	331.70	4.14	-46.1	-64.7	3.8	7.44e-01	0	59	104	999292928	62	33305
2026-01-14 13:08:26.01	331.79	4.08	-46.1	-64.8	3.8	7.45e-01	0	59	104	999292928	62	33347
2026-01-14 13:08:27.02	331.87	4.02	-46.1	-64.8	3.8	7.47e-01	0	59	104	999292928	62	33332
2026-01-14 13:08:28.03	331.96	3.96	-46.1	-64.7	3.8	7.44e-01	0	59	104	999292928	62	33278
2026-01-14 13:08:29.04	332.04	3.90	-46.1	-64.7	3.8	7.44e-01	0	59	104	999292928	62	33291
2026-01-14 13:08:30.06	332.13	3.83	-46.1	-64.7	3.8	7.44e-01	0	59	104	999292928	62	33287
2026-01-14 13:08:31.07	332.21	3.77	-46.1	-64.7	3.8	7.46e-01	0	59	104	999292928	62	33275
2026-01-14 13:08:32.07	332.29	3.71	-46.1	-64.8	3.8	7.48e-01	0	59	104	999292928	62	33325
2026-01-14 13:08:33.08	332.37	3.65	-46.1	-64.8	3.8	7.48e-01	0	59	104	999292928	62	33354
2026-01-14 13:08:34.09	332.46	3.59	-46.1	-64.8	3.8	7.44e-01	0	59	104	999292928	62	33328
2026-01-14 13:08:35.10	332.54	3.53	-46.1	-64.7	3.8	7.44e-01	0	60	104	999292928	62	33299
2026-01-14 13:08:36.12	332.62	3.46	-46.0	-64.8	3.8	7.44e-01	0	60	104	999292928	62	33311
2026-01-14 13:08:37.13	332.70	3.40	-46.1	-64.7	3.8	7.44e-01	0	59	104	999292928	62	33288
2026-01-14 13:08:38.13	332.78	3.34	-46.1	-64.7	3.8	7.46e-01	0	60	104	999292928	62	33253
2026-01-14 13:08:39.14	332.86	3.28	-46.1	-64.7	3.8	7.43e-01	0	59	104	999292928	62	33293
2026-01-14 13:08:40.15	332.94	3.22	-46.0	-64.7	3.8	7.43e-01	0	59	104	999292928	62	33239
2026-01-14 13:08:41.16	333.02	3.16	-46.1	-64.7	3.8	7.47e-01	0	60	104	999292928	62	33298
2026-01-14 13:08:42.18	333.10	3.10	-46.1	-64.7	3.8	7.44e-01	0	60	104	999292928	62	33223
2026-01-14 13:08:43.19	333.18	3.04	-46.0	-64.7	3.8	7.44e-01	0	59	104	999292928	62	33279
2026-01-14 13:08:44.20	333.26	2.98	-46.1	-64.7	3.8	7.46e-01	0	59	104	999292928	62	33223
2026-01-14 13:08:45.21	333.34	2.92	-46.1	-64.7	3.8	7.49e-01	0	59	104	999292928	62	33166
2026-01-14 13:08:46.22	333.42	2.86	-46.0	-64.7	3.8	7.48e-01	0	60	104	999292928	62	33187
2026-01-14 13:08:47.23	333.50	2.80	-45.9	-64.7	3.8	7.46e-01	0	60	104	999292928	62	33205
2026-01-14 13:08:48.24	333.58	2.74	-46.1	-64.7	3.8	7.44e-01	0	59	104	999292928	62	33235
2026-01-14 13:08:49.25	333.65	2.68	-46.0	-64.7	3.8	7.48e-01	0	59	104	999292928	62	33298
2026-01-14 13:08:50.26	333.73	2.62	-46.1	-64.7	3.8	7.46e-01	0	60	104	999292928	62	33302
2026-01-14 13:08:51.27	333.81	2.56	-45.3	-64.7	3.8	7.47e-01	0	60	104	999292928	62	33257
2026-01-14 13:08:52.28	333.88	2.50	-46.1	-64.7	3.8	7.48e-01	0	60	104	999292928	62	33198
2026-01-14 13:08:53.29	333.96	2.44	-46.1	-64.7	3.8	7.44e-01	0	60	104	999292928	62	33299
2026-01-14 13:08:54.30	334.04	2.38	-46.1	-64.7	3.8	7.47e-01	0	60	104	999292928	62	33289
2026-01-14 13:08:55.30	334.11	2.32	-46.0	-64.7	3.8	7.45e-01	0	60	104	999292928	62	33277
2026-01-14 13:08:56.31	334.19	2.26	-46.1	-64.7	3.8	7.48e-01	0	60	104	999292928	62	33194
2026-01-14 13:08:57.32	334.26	2.20	-46.1	-64.7	3.8	7.47e-01	0	60	104	999292928	62	33251
2026-01-14 13:08:58.33	334.33	2.15	-46.1	-64.7	3.8	7.45e-01	0	60	104	999292928	62	33306
2026-01-14 13:08:59.34	334.41	2.09	-46.1	-64.7	3.8	7.46e-01	0	60	104	999292928	62	33248
