passes_logs/2026/01/14/R2.0S_Moscow/R2.0S_Moscow__20260114_221454_NOAA_20_JPSS-1_rec.log

#Pass ID: 20260114_221454_NOAA 20 (JPSS-1)
#Satellite: NOAA 20 (JPSS-1)
#Configuration: NOAA 20
#almurnet v.1.7.20251203
#Start time: 2026-01-14 22:14:54

#Version: 2.2.20231116
#Station: R2.0S_Moscow
#Location: 37.707566 lon 55.798166 lat
#TLE: 1 43013U 17073A   26014.13176244  .00000049  00000+0  44136-4 0  9994
#TLE: 2 43013  98.7634 315.0803 0001538  40.6488 319.4803 14.19535812422619

#Time	Az	El	Level	Level2	SNR	BER	BlckErr	Temp	State	Recorded	gain1	gain2
2026-01-14 22:14:54.37	24.57	1.98	-41.6	-57.0	3.8	1.49e+00	0	48	0	0	55	20331
2026-01-14 22:14:55.37	24.64	2.03	-41.7	-57.0	3.8	1.49e+00	0	49	104	0	53	22875
2026-01-14 22:14:56.39	24.71	2.09	-41.7	-57.0	3.8	1.49e+00	0	49	104	0	53	22795
2026-01-14 22:14:57.40	24.77	2.15	-41.7	-57.0	3.8	1.49e+00	0	49	104	0	53	22790
2026-01-14 22:14:58.41	24.84	2.20	-41.7	-57.0	3.8	1.49e+00	0	49	104	0	53	22796
2026-01-14 22:14:59.42	24.91	2.26	-41.6	-57.0	3.8	1.49e+00	0	49	104	0	53	22834
2026-01-14 22:15:00.40	24.98	2.31	-41.7	-56.9	3.8	1.49e+00	0	49	104	0	53	22763
2026-01-14 22:15:01.41	25.05	2.37	-41.7	-57.0	3.8	1.49e+00	0	49	104	0	53	22811
2026-01-14 22:15:02.42	25.12	2.43	-41.7	-57.0	3.8	1.49e+00	0	49	104	0	53	22807
2026-01-14 22:15:03.43	25.19	2.48	-41.7	-56.9	3.8	1.49e+00	0	50	104	0	53	22776
2026-01-14 22:15:04.44	25.26	2.54	-41.7	-57.0	3.8	1.49e+00	0	50	104	0	53	22800
2026-01-14 22:15:05.45	25.33	2.60	-41.7	-57.0	3.8	1.49e+00	0	50	104	0	53	22813
2026-01-14 22:15:06.46	25.40	2.65	-41.6	-57.0	3.8	1.49e+00	0	50	104	0	53	22851
2026-01-14 22:15:07.47	25.47	2.71	-41.7	-56.9	3.8	1.49e+00	0	50	104	0	53	22774
2026-01-14 22:15:08.48	25.55	2.77	-41.6	-56.9	3.8	1.49e+00	0	50	104	0	53	22732
2026-01-14 22:15:09.49	25.62	2.82	-41.6	-57.0	3.8	1.49e+00	0	50	104	0	53	22791
2026-01-14 22:15:10.50	25.69	2.88	-41.7	-57.0	3.8	1.49e+00	0	50	104	0	53	22807
2026-01-14 22:15:11.51	25.76	2.94	-41.7	-57.0	3.8	1.49e+00	0	50	104	0	53	22855
2026-01-14 22:15:12.52	25.83	3.00	-41.7	-57.0	3.8	1.49e+00	0	50	104	0	53	22790
2026-01-14 22:15:13.53	25.91	3.05	-41.6	-56.9	3.8	1.49e+00	0	50	104	0	53	22748
2026-01-14 22:15:14.54	25.98	3.11	-41.7	-56.9	3.8	1.49e+00	0	50	104	0	53	22737
2026-01-14 22:15:15.55	26.05	3.17	-41.7	-57.0	3.8	1.49e+00	0	50	104	0	53	22798
2026-01-14 22:15:16.56	26.13	3.23	-41.7	-57.0	3.8	1.49e+00	0	51	104	0	53	22786
2026-01-14 22:15:17.57	26.20	3.28	-41.7	-57.0	3.8	1.49e+00	0	50	104	0	53	22794
2026-01-14 22:15:18.58	26.27	3.34	-41.7	-57.0	3.8	1.49e+00	0	51	104	0	53	22828
2026-01-14 22:15:19.59	26.35	3.40	-41.7	-56.9	3.8	1.49e+00	0	51	104	0	53	22776
2026-01-14 22:15:20.60	26.42	3.46	-41.7	-57.0	3.8	1.49e+00	0	51	104	0	53	22838
2026-01-14 22:15:21.61	26.50	3.51	-41.7	-56.9	3.8	1.49e+00	0	51	104	0	53	22740
2026-01-14 22:15:22.62	26.57	3.57	-41.7	-57.0	3.8	1.49e+00	0	51	104	0	53	22796
2026-01-14 22:15:23.62	26.65	3.63	-41.7	-56.9	3.8	1.49e+00	0	51	104	0	53	22754
2026-01-14 22:15:24.63	26.72	3.69	-41.7	-56.9	3.8	1.49e+00	0	51	104	0	53	22778
2026-01-14 22:15:25.64	26.80	3.75	-41.7	-56.9	3.8	1.49e+00	0	51	104	0	53	22758
2026-01-14 22:15:26.65	26.88	3.81	-41.7	-56.9	3.8	1.49e+00	0	51	104	0	53	22749
2026-01-14 22:15:27.66	26.95	3.86	-41.7	-56.9	3.8	1.49e+00	0	51	104	0	53	22722
2026-01-14 22:15:28.67	27.03	3.92	-41.6	-56.9	3.8	1.49e+00	0	51	104	0	53	22760
2026-01-14 22:15:29.68	27.11	3.98	-41.6	-56.9	3.8	1.49e+00	0	51	104	0	53	22770
2026-01-14 22:15:30.69	27.19	4.04	-41.7	-56.9	3.8	1.49e+00	0	51	104	0	53	22763
2026-01-14 22:15:31.70	27.26	4.10	-41.7	-56.9	3.8	1.49e+00	0	51	104	0	53	22780
2026-01-14 22:15:32.71	27.34	4.16	-41.6	-57.0	3.8	1.49e+00	0	51	104	0	53	22786
2026-01-14 22:15:33.72	27.42	4.22	-41.6	-56.9	3.8	1.49e+00	0	52	104	0	53	22774
2026-01-14 22:15:34.74	27.50	4.28	-41.6	-56.9	3.8	1.49e+00	0	51	104	0	53	22761
2026-01-14 22:15:35.75	27.58	4.34	-41.7	-56.9	3.8	1.49e+00	0	52	104	0	53	22774
2026-01-14 22:15:36.76	27.66	4.40	-41.7	-56.9	3.8	1.49e+00	0	52	104	0	53	22746
2026-01-14 22:15:37.77	27.74	4.46	-41.7	-57.0	3.8	1.49e+00	0	51	104	0	53	22820
2026-01-14 22:15:38.78	27.82	4.51	-41.7	-57.0	3.8	1.49e+00	0	51	104	0	53	22791
2026-01-14 22:15:39.79	27.90	4.57	-41.7	-56.9	3.8	1.49e+00	0	52	104	0	53	22761
2026-01-14 22:15:40.80	27.98	4.63	-41.7	-56.9	3.8	1.49e+00	0	52	104	0	53	22772
2026-01-14 22:15:41.81	28.06	4.69	-41.7	-57.0	3.8	1.49e+00	0	52	104	0	53	22808
2026-01-14 22:15:42.82	28.14	4.75	-41.7	-57.0	3.8	1.49e+00	0	52	104	0	53	22856
2026-01-14 22:15:43.83	28.22	4.81	-41.7	-56.9	3.8	1.49e+00	0	52	104	0	53	22760
2026-01-14 22:15:44.84	28.30	4.87	-41.7	-57.0	3.8	1.49e+00	0	52	104	0	53	22808
2026-01-14 22:15:45.85	28.38	4.93	-41.7	-57.0	3.8	1.49e+00	0	52	104	0	53	22826
2026-01-14 22:15:46.86	28.47	4.99	-41.6	-57.0	3.8	1.49e+00	0	52	104	0	53	22831
2026-01-14 22:15:47.87	28.55	5.05	-41.7	-56.9	3.8	1.49e+00	0	52	104	0	53	22763
2026-01-14 22:15:48.88	28.63	5.12	-41.7	-57.0	3.8	1.49e+00	0	52	104	0	53	22806
2026-01-14 22:15:49.89	28.72	5.18	-41.6	-56.9	3.8	1.49e+00	0	52	104	0	53	22757
2026-01-14 22:15:50.90	28.80	5.24	-41.6	-57.0	3.8	1.49e+00	0	52	104	0	53	22783
2026-01-14 22:15:51.91	28.88	5.30	-41.6	-57.0	3.8	1.49e+00	0	52	104	0	53	22809
2026-01-14 22:15:52.92	28.97	5.36	-41.7	-56.9	3.8	1.49e+00	0	52	104	0	53	22695
2026-01-14 22:15:53.93	29.05	5.42	-41.6	-56.9	3.8	1.49e+00	0	52	104	0	53	22722
2026-01-14 22:15:54.94	29.14	5.48	-41.7	-56.9	3.8	1.49e+00	0	53	104	0	53	22689
2026-01-14 22:15:55.95	29.22	5.54	-41.6	-57.0	3.8	1.49e+00	0	52	104	0	53	22788
2026-01-14 22:15:56.96	29.31	5.60	-41.7	-56.9	3.8	1.49e+00	0	53	104	0	53	22701
2026-01-14 22:15:57.97	29.40	5.66	-41.7	-56.9	3.8	1.49e+00	0	53	104	0	53	22773
2026-01-14 22:15:58.98	29.48	5.72	-41.7	-56.9	3.8	1.49e+00	0	53	104	0	53	22759
2026-01-14 22:16:00.00	29.57	5.79	-41.6	-56.9	3.8	1.49e+00	0	53	104	0	53	22764
2026-01-14 22:16:01.01	29.66	5.85	-41.7	-56.9	3.8	1.49e+00	0	53	104	0	53	22728
2026-01-14 22:16:02.02	29.74	5.91	-41.6	-56.9	3.8	1.49e+00	0	53	104	0	53	22767
2026-01-14 22:16:03.03	29.83	5.97	-41.6	-57.0	3.8	1.49e+00	0	53	104	0	53	22794
2026-01-14 22:16:04.04	29.92	6.03	-41.7	-56.9	3.8	1.49e+00	0	53	104	0	53	22699
2026-01-14 22:16:05.05	30.01	6.10	-41.7	-56.9	3.8	1.49e+00	0	53	104	0	53	22737
2026-01-14 22:16:06.06	30.10	6.16	-41.6	-56.9	3.8	1.49e+00	0	53	104	0	53	22741
2026-01-14 22:16:07.07	30.19	6.22	-41.6	-56.9	3.8	1.49e+00	0	53	104	0	53	22775
2026-01-14 22:16:08.08	30.28	6.28	-41.6	-56.9	3.8	1.49e+00	0	53	104	0	53	22629
2026-01-14 22:16:09.09	30.37	6.34	-41.7	-56.9	3.8	1.49e+00	0	53	104	0	53	22670
2026-01-14 22:16:10.10	30.46	6.41	-41.7	-56.9	3.8	1.49e+00	0	53	104	0	53	22667
2026-01-14 22:16:11.11	30.55	6.47	-41.6	-56.9	3.8	1.49e+00	0	53	104	0	53	22593
2026-01-14 22:16:12.12	30.64	6.53	-41.7	-56.8	3.8	1.49e+00	0	53	104	0	53	22413
2026-01-14 22:16:13.13	30.73	6.59	-41.7	-56.7	3.8	1.49e+00	0	53	104	0	53	22115
2026-01-14 22:16:14.14	30.82	6.66	-41.6	-56.5	3.8	1.49e+00	0	53	104	0	53	21664
2026-01-14 22:16:15.15	30.91	6.72	-41.6	-56.0	3.8	1.49e+00	0	53	104	0	53	20425
2026-01-14 22:16:16.16	31.01	6.78	-41.6	-55.8	3.8	1.49e+00	0	53	104	0	53	19966
2026-01-14 22:16:17.17	31.10	6.85	-41.6	-55.7	3.8	1.49e+00	0	54	104	0	53	19804
2026-01-14 22:16:18.18	31.19	6.91	-41.6	-56.0	3.8	1.49e+00	0	53	104	0	53	20459
2026-01-14 22:16:19.19	31.29	6.97	-41.6	-56.0	3.8	1.49e+00	0	53	104	0	53	20350
2026-01-14 22:16:20.20	31.38	7.04	-41.6	-56.1	3.8	1.49e+00	0	54	104	0	53	20636
2026-01-14 22:16:21.21	31.47	7.10	-41.6	-55.7	3.8	1.49e+00	0	54	104	0	53	19680
2026-01-14 22:16:22.22	31.57	7.16	-41.6	-56.0	3.8	1.49e+00	0	54	104	0	53	20436
2026-01-14 22:16:23.23	31.66	7.23	-41.6	-56.0	3.8	1.49e+00	0	54	104	0	53	20371
2026-01-14 22:16:24.24	31.76	7.29	-41.6	-56.8	3.8	1.49e+00	0	54	104	0	53	22339
2026-01-14 22:16:25.25	31.86	7.35	-41.6	-56.9	3.8	1.49e+00	0	54	104	0	53	22679
2026-01-14 22:16:26.26	31.95	7.42	-41.7	-56.7	3.8	1.49e+00	0	54	104	0	53	22142
2026-01-14 22:16:27.27	32.05	7.48	-41.6	-56.7	3.8	1.49e+00	0	54	104	0	53	22057
2026-01-14 22:16:28.28	32.15	7.55	-41.6	-56.1	3.8	1.49e+00	0	54	104	0	53	20765
2026-01-14 22:16:29.29	32.24	7.61	-41.5	-54.9	3.8	1.49e+00	0	54	104	0	53	17896
2026-01-14 22:16:30.30	32.34	7.67	-41.4	-53.6	4.1	1.46e+00	0	54	0	0	53	15441
2026-01-14 22:16:31.31	32.44	7.74	-41.3	-51.8	4.8	1.13e+00	0	54	0	0	53	12584
2026-01-14 22:16:32.32	32.54	7.80	-41.1	-50.3	5.6	6.41e-01	0	54	0	2097152	53	10620
2026-01-14 22:16:33.33	32.64	7.87	-41.0	-49.4	6.3	3.07e-01	0	54	0	4194304	53	9586
2026-01-14 22:16:34.34	32.74	7.93	-40.9	-49.0	6.7	2.09e-01	0	54	0	6291456	53	9094
2026-01-14 22:16:35.35	32.84	8.00	-40.9	-48.8	6.9	1.76e-01	0	54	0	8388608	53	8926
2026-01-14 22:16:36.36	32.94	8.06	-41.0	-48.2	7.5	1.52e-01	0	54	0	10485760	53	8327
2026-01-14 22:16:37.37	33.04	8.13	-42.9	-53.5	4.4	1.47e+00	6	54	104	10485760	57	12157
2026-01-14 22:16:38.38	33.14	8.19	-41.5	-49.4	6.5	7.74e-01	0	54	0	11534336	55	8482
2026-01-14 22:16:39.38	33.24	8.26	-41.0	-53.8	4.0	1.15e+00	0	54	0	13631488	54	14927
2026-01-14 22:16:40.39	33.34	8.32	-41.1	-53.7	3.9	1.49e+00	0	55	104	13631488	53	15691
2026-01-14 22:16:41.40	33.45	8.39	-42.2	-50.1	6.3	2.41e-01	0	54	0	14680064	55	9179
2026-01-14 22:16:42.41	33.55	8.45	-41.7	-48.4	7.8	1.15e-01	0	54	0	15728640	55	7555
2026-01-14 22:16:43.42	33.65	8.52	-41.6	-48.1	8.1	7.02e-02	0	54	0	17825792	55	7295
2026-01-14 22:16:44.43	33.76	8.58	-41.7	-48.5	7.7	7.28e-02	0	54	0	19922944	55	7633
2026-01-14 22:16:45.44	33.86	8.65	-41.7	-48.2	7.9	8.71e-02	0	54	0	22020096	55	7435
2026-01-14 22:16:46.45	33.97	8.71	-41.7	-48.1	8.0	6.50e-02	0	54	0	24117248	55	7367
2026-01-14 22:16:47.46	34.07	8.78	-41.7	-48.1	8.2	5.48e-02	0	55	0	25165824	55	7315
2026-01-14 22:16:48.47	34.18	8.85	-41.7	-47.9	8.4	6.89e-02	0	55	0	27262976	55	7159
2026-01-14 22:16:49.48	34.29	8.91	-41.6	-47.5	8.9	3.04e-02	0	55	0	29360128	55	6873
2026-01-14 22:16:50.48	34.39	8.98	-41.7	-47.8	8.6	3.39e-02	0	55	0	31457280	55	7099
2026-01-14 22:16:51.49	34.50	9.04	-41.7	-47.4	9.1	2.93e-02	0	55	0	33554432	55	6770
2026-01-14 22:16:52.50	34.61	9.11	-41.8	-47.8	8.7	3.02e-02	0	55	0	34603008	55	7088
2026-01-14 22:16:53.51	34.71	9.18	-41.8	-47.6	8.9	3.25e-02	0	55	0	36700160	55	6954
2026-01-14 22:16:54.52	34.82	9.24	-41.8	-47.5	9.1	2.26e-02	0	55	0	38797312	55	6837
2026-01-14 22:16:55.53	34.93	9.31	-41.8	-47.5	9.1	2.30e-02	0	55	0	40894464	55	6815
2026-01-14 22:16:56.53	35.04	9.38	-41.9	-47.7	8.9	2.28e-02	0	55	0	42991616	55	7032
2026-01-14 22:16:57.54	35.15	9.44	-41.9	-47.6	9.0	2.75e-02	0	55	0	44040192	55	6931
2026-01-14 22:16:58.55	35.26	9.51	-41.9	-47.6	9.0	2.36e-02	0	55	0	46137344	55	6942
2026-01-14 22:16:59.56	35.37	9.58	-42.0	-47.7	9.0	2.30e-02	0	55	0	48234496	55	7009
2026-01-14 22:17:00.56	35.48	9.64	-42.0	-47.6	9.1	2.47e-02	0	55	0	50331648	55	6950
2026-01-14 22:17:01.55	35.59	9.71	-42.0	-47.6	9.2	2.20e-02	0	55	0	52428800	55	6897
2026-01-14 22:17:02.56	35.71	9.78	-41.9	-47.3	9.5	1.60e-02	0	55	0	53477376	55	6687
2026-01-14 22:17:03.57	35.82	9.84	-42.0	-47.4	9.5	1.56e-02	0	55	0	55574528	55	6729
2026-01-14 22:17:04.58	35.93	9.91	-42.0	-47.4	9.4	1.50e-02	0	55	0	57671680	55	6774
2026-01-14 22:17:05.59	36.05	9.98	-42.0	-47.2	9.7	1.43e-02	0	55	0	59768832	55	6639
2026-01-14 22:17:06.60	36.16	10.05	-42.1	-47.5	9.4	1.36e-02	0	55	0	61865984	55	6809
2026-01-14 22:17:07.61	36.28	10.11	-42.0	-47.3	9.6	1.20e-02	0	55	0	62914560	55	6689
2026-01-14 22:17:08.61	36.39	10.18	-42.0	-47.3	9.7	1.21e-02	0	55	0	65011712	55	6650
2026-01-14 22:17:09.62	36.51	10.25	-42.0	-47.2	9.8	1.02e-02	0	55	0	67108864	55	6575
2026-01-14 22:17:10.63	36.62	10.32	-41.9	-47.0	9.9	8.26e-03	0	55	0	69206016	55	6465
2026-01-14 22:17:11.64	36.74	10.38	-42.0	-47.0	10.0	8.84e-03	0	55	0	71303168	55	6444
2026-01-14 22:17:12.65	36.86	10.45	-42.0	-47.1	9.9	8.22e-03	0	55	0	72351744	55	6541
2026-01-14 22:17:13.66	36.98	10.52	-42.0	-47.0	10.0	7.25e-03	0	55	0	74448896	55	6441
2026-01-14 22:17:14.67	37.09	10.59	-42.0	-47.1	9.9	9.09e-03	0	55	0	76546048	55	6517
2026-01-14 22:17:15.67	37.21	10.66	-42.0	-47.0	10.0	8.22e-03	0	55	0	78643200	55	6490
2026-01-14 22:17:16.68	37.33	10.72	-42.0	-47.1	10.0	7.52e-03	0	55	0	80740352	55	6531
2026-01-14 22:17:17.69	37.45	10.79	-42.0	-47.0	10.1	8.02e-03	0	55	0	81788928	55	6465
2026-01-14 22:17:18.70	37.57	10.86	-42.0	-46.9	10.2	6.79e-03	0	55	0	83886080	55	6402
2026-01-14 22:17:19.71	37.69	10.93	-42.0	-47.1	10.1	7.25e-03	0	55	0	85983232	55	6497
2026-01-14 22:17:20.72	37.82	11.00	-42.0	-47.0	10.1	6.63e-03	0	55	0	88080384	55	6488
2026-01-14 22:17:21.73	37.94	11.07	-42.0	-47.0	10.2	6.77e-03	0	55	0	90177536	55	6452
2026-01-14 22:17:22.74	38.06	11.14	-42.1	-47.1	10.0	7.53e-03	0	55	0	91226112	55	6557
2026-01-14 22:17:23.75	38.19	11.21	-42.1	-47.2	10.0	6.94e-03	0	56	0	93323264	55	6584
2026-01-14 22:17:24.76	38.31	11.28	-42.1	-47.2	10.0	7.86e-03	0	55	0	95420416	55	6576
2026-01-14 22:17:25.77	38.43	11.34	-42.1	-47.1	10.1	7.31e-03	0	55	0	97517568	55	6508
2026-01-14 22:17:26.78	38.56	11.41	-42.1	-47.0	10.2	7.06e-03	0	56	0	99614720	55	6494
2026-01-14 22:17:27.79	38.69	11.48	-42.0	-46.9	10.3	6.22e-03	0	55	0	101711872	55	6396
2026-01-14 22:17:28.79	38.81	11.55	-42.0	-46.9	10.3	5.60e-03	0	56	0	102760448	55	6381
2026-01-14 22:17:29.80	38.94	11.62	-42.0	-46.8	10.4	4.60e-03	0	56	0	104857600	55	6342
2026-01-14 22:17:30.81	39.07	11.69	-42.0	-46.8	10.5	4.91e-03	0	56	0	106954752	55	6314
2026-01-14 22:17:31.82	39.19	11.76	-42.0	-46.8	10.5	4.43e-03	0	56	0	109051904	55	6319
2026-01-14 22:17:32.83	39.32	11.83	-42.0	-46.8	10.5	4.51e-03	0	55	0	111149056	55	6321
2026-01-14 22:17:33.84	39.45	11.90	-42.1	-47.0	10.3	4.83e-03	0	56	0	112197632	55	6425
2026-01-14 22:17:34.85	39.58	11.97	-42.1	-46.9	10.4	4.53e-03	0	56	0	114294784	55	6379
2026-01-14 22:17:35.86	39.71	12.04	-42.1	-47.0	10.4	4.89e-03	0	56	0	116391936	55	6428
2026-01-14 22:17:36.87	39.84	12.11	-42.1	-46.8	10.5	4.62e-03	0	55	0	118489088	55	6337
2026-01-14 22:17:37.88	39.98	12.18	-42.0	-46.8	10.6	3.95e-03	0	56	0	120586240	55	6280
2026-01-14 22:17:38.89	40.11	12.25	-42.0	-46.8	10.5	3.91e-03	0	56	0	121634816	55	6285
2026-01-14 22:17:39.90	40.24	12.32	-42.1	-46.8	10.6	3.88e-03	0	56	0	123731968	55	6292
2026-01-14 22:17:40.91	40.37	12.39	-42.0	-46.6	10.7	3.49e-03	0	56	0	125829120	55	6190
2026-01-14 22:17:41.92	40.51	12.46	-42.0	-46.6	10.8	2.79e-03	0	56	0	127926272	55	6155
2026-01-14 22:17:42.93	40.64	12.53	-42.0	-46.6	10.8	2.47e-03	0	56	0	130023424	55	6173
2026-01-14 22:17:43.94	40.78	12.60	-42.0	-46.5	10.9	2.18e-03	0	56	0	131072000	55	6079
2026-01-14 22:17:44.95	40.91	12.67	-42.0	-46.6	10.8	2.26e-03	0	56	0	133169152	55	6166
2026-01-14 22:17:45.96	41.05	12.74	-42.0	-46.6	10.8	2.28e-03	0	56	0	135266304	55	6157
2026-01-14 22:17:46.97	41.19	12.81	-42.0	-46.7	10.7	2.69e-03	0	56	0	137363456	55	6212
2026-01-14 22:17:47.97	41.33	12.88	-42.1	-46.6	10.8	2.55e-03	0	56	0	139460608	55	6202
2026-01-14 22:17:48.98	41.46	12.95	-42.0	-46.6	10.8	2.68e-03	0	56	0	140509184	55	6185
2026-01-14 22:17:49.99	41.60	13.02	-42.1	-46.7	10.8	2.77e-03	0	56	0	142606336	55	6212
2026-01-14 22:17:51.00	41.74	13.10	-42.1	-46.7	10.7	2.64e-03	0	56	0	144703488	55	6255
2026-01-14 22:17:52.01	41.88	13.17	-42.1	-46.7	10.7	3.17e-03	0	56	0	146800640	55	6270
2026-01-14 22:17:53.02	42.02	13.24	-42.1	-46.8	10.7	2.89e-03	0	56	0	148897792	55	6283
2026-01-14 22:17:54.03	42.17	13.31	-42.1	-46.8	10.7	3.00e-03	0	56	0	149946368	55	6296
2026-01-14 22:17:55.04	42.31	13.38	-42.1	-46.7	10.8	2.93e-03	0	56	0	152043520	55	6210
2026-01-14 22:17:56.05	42.45	13.45	-42.1	-46.7	10.8	2.53e-03	0	56	0	154140672	55	6224
2026-01-14 22:17:57.06	42.60	13.52	-42.1	-46.6	10.8	2.69e-03	0	56	0	156237824	55	6180
2026-01-14 22:17:58.07	42.74	13.59	-42.1	-46.7	10.8	2.31e-03	0	56	0	158334976	55	6204
2026-01-14 22:17:59.08	42.89	13.66	-42.0	-46.5	11.0	2.35e-03	0	56	0	159383552	55	6118
2026-01-14 22:18:00.09	43.03	13.74	-42.1	-46.6	10.9	2.09e-03	0	56	0	161480704	55	6179
2026-01-14 22:18:01.09	43.18	13.81	-42.1	-46.6	10.9	2.08e-03	0	56	0	163577856	55	6141
2026-01-14 22:18:02.11	43.33	13.88	-42.1	-46.6	10.9	1.99e-03	0	56	0	165675008	55	6145
2026-01-14 22:18:03.12	43.47	13.95	-42.0	-46.5	11.0	2.02e-03	0	56	0	167772160	55	6104
2026-01-14 22:18:04.13	43.62	14.02	-42.0	-46.4	11.1	1.73e-03	0	56	0	169869312	55	6040
2026-01-14 22:18:05.14	43.77	14.09	-42.0	-46.5	11.0	1.73e-03	0	56	0	170917888	55	6110
2026-01-14 22:18:06.14	43.92	14.16	-42.0	-46.4	11.1	1.78e-03	0	56	0	173015040	55	6057
2026-01-14 22:18:07.15	44.07	14.24	-42.0	-46.4	11.1	1.73e-03	0	56	0	175112192	55	6034
2026-01-14 22:18:08.16	44.22	14.31	-42.0	-46.5	11.0	1.77e-03	0	56	0	177209344	55	6100
2026-01-14 22:18:09.18	44.38	14.38	-42.1	-46.6	11.0	1.83e-03	0	56	0	179306496	55	6161
2026-01-14 22:18:10.19	44.53	14.45	-42.1	-46.6	10.9	1.88e-03	0	56	0	180355072	55	6185
2026-01-14 22:18:11.20	44.68	14.52	-42.1	-46.6	11.0	2.15e-03	0	56	0	182452224	55	6157
2026-01-14 22:18:12.21	44.84	14.59	-42.1	-46.6	10.9	2.35e-03	0	56	0	184549376	55	6185
2026-01-14 22:18:13.22	44.99	14.67	-42.1	-46.7	10.9	2.05e-03	0	56	0	186646528	55	6227
2026-01-14 22:18:14.23	45.15	14.74	-42.1	-46.6	11.0	2.06e-03	0	56	0	188743680	55	6168
2026-01-14 22:18:15.24	45.30	14.81	-42.1	-46.6	11.0	2.03e-03	0	56	0	189792256	55	6164
2026-01-14 22:18:16.25	45.46	14.88	-42.1	-46.6	11.0	1.60e-03	0	56	0	191889408	55	6156
2026-01-14 22:18:17.26	45.62	14.95	-42.0	-46.4	11.1	1.74e-03	0	56	0	193986560	55	6049
2026-01-14 22:18:18.27	45.78	15.02	-42.1	-46.5	11.1	1.63e-03	0	56	0	196083712	55	6094
2026-01-14 22:18:19.28	45.94	15.10	-42.1	-46.5	11.1	1.64e-03	0	56	0	198180864	55	6122
2026-01-14 22:18:20.28	46.10	15.17	-42.0	-46.5	11.1	1.66e-03	0	56	0	199229440	55	6069
2026-01-14 22:18:21.30	46.26	15.24	-42.0	-46.5	11.2	1.53e-03	0	56	0	201326592	55	6080
2026-01-14 22:18:22.30	46.42	15.31	-42.1	-46.5	11.1	1.58e-03	0	56	0	203423744	55	6094
2026-01-14 22:18:23.31	46.58	15.38	-42.1	-46.5	11.1	1.77e-03	0	56	0	205520896	55	6097
2026-01-14 22:18:24.32	46.74	15.46	-42.1	-46.5	11.1	1.50e-03	0	56	0	207618048	55	6095
2026-01-14 22:18:25.33	46.91	15.53	-42.1	-46.6	11.0	1.77e-03	0	56	0	208666624	55	6148
2026-01-14 22:18:26.34	47.07	15.60	-42.0	-46.5	11.2	1.50e-03	0	56	0	210763776	55	6068
2026-01-14 22:18:27.35	47.24	15.67	-42.0	-46.4	11.2	1.26e-03	0	56	0	212860928	55	6034
2026-01-14 22:18:28.36	47.41	15.74	-42.0	-46.4	11.2	1.40e-03	0	56	0	214958080	55	6034
2026-01-14 22:18:29.37	47.57	15.81	-42.0	-46.3	11.3	1.28e-03	0	56	0	217055232	55	5964
2026-01-14 22:18:30.37	47.74	15.89	-42.0	-46.3	11.3	1.20e-03	0	56	0	218103808	55	5979
2026-01-14 22:18:31.38	47.91	15.96	-42.0	-46.3	11.3	1.09e-03	0	56	0	220200960	55	5964
2026-01-14 22:18:32.39	48.08	16.03	-42.0	-46.3	11.4	1.11e-03	0	56	0	222298112	55	5962
2026-01-14 22:18:33.40	48.25	16.10	-42.1	-46.4	11.3	1.09e-03	0	56	0	224395264	55	6024
2026-01-14 22:18:34.40	48.42	16.17	-42.0	-46.4	11.3	1.14e-03	0	56	0	226492416	55	6010
2026-01-14 22:18:35.41	48.59	16.24	-42.0	-46.4	11.3	1.27e-03	0	56	0	227540992	55	6019
2026-01-14 22:18:36.42	48.76	16.32	-42.0	-46.4	11.2	1.20e-03	0	57	0	229638144	55	6012
2026-01-14 22:18:37.43	48.93	16.39	-42.1	-46.4	11.3	1.26e-03	0	56	0	231735296	55	6014
2026-01-14 22:18:38.44	49.11	16.46	-42.0	-46.3	11.3	1.23e-03	0	57	0	233832448	55	5990
2026-01-14 22:18:39.45	49.28	16.53	-42.0	-46.3	11.4	1.01e-03	0	57	0	235929600	55	5929
2026-01-14 22:18:40.46	49.46	16.60	-41.9	-46.1	11.6	8.35e-04	0	57	0	236978176	55	5842
2026-01-14 22:18:41.47	49.64	16.67	-41.9	-46.1	11.6	6.90e-04	0	57	0	239075328	55	5793
2026-01-14 22:18:42.48	49.81	16.74	-42.0	-46.2	11.5	6.94e-04	0	57	0	241172480	55	5857
2026-01-14 22:18:43.49	49.99	16.82	-41.9	-46.1	11.6	6.46e-04	0	57	0	243269632	55	5840
2026-01-14 22:18:44.50	50.17	16.89	-42.0	-46.2	11.5	7.81e-04	0	57	0	245366784	55	5880
2026-01-14 22:18:45.52	50.35	16.96	-42.0	-46.2	11.5	7.90e-04	0	57	0	246415360	55	5880
2026-01-14 22:18:46.53	50.53	17.03	-42.0	-46.2	11.4	7.82e-04	0	57	0	248512512	55	5919
2026-01-14 22:18:47.53	50.71	17.10	-41.9	-46.1	11.6	7.80e-04	0	56	0	250609664	55	5830
2026-01-14 22:18:48.55	50.90	17.17	-42.0	-46.2	11.5	7.82e-04	0	57	0	252706816	55	5875
2026-01-14 22:18:49.56	51.08	17.24	-41.9	-46.0	11.7	7.78e-04	0	57	0	254803968	55	5781
2026-01-14 22:18:50.57	51.26	17.31	-41.9	-46.0	11.7	5.50e-04	0	57	0	255852544	55	5736
2026-01-14 22:18:51.58	51.45	17.39	-41.8	-45.8	11.9	4.68e-04	0	56	0	257949696	55	5642
2026-01-14 22:18:52.59	51.64	17.46	-41.8	-45.7	12.0	3.63e-04	0	57	0	260046848	55	5572
2026-01-14 22:18:53.60	51.82	17.53	-41.8	-45.7	12.1	3.00e-04	0	57	0	262144000	55	5563
2026-01-14 22:18:54.61	52.01	17.60	-41.7	-45.6	12.1	2.65e-04	0	57	0	264241152	55	5509
2026-01-14 22:18:55.62	52.20	17.67	-41.7	-45.6	12.1	2.39e-04	0	57	0	266338304	55	5510
2026-01-14 22:18:56.62	52.39	17.74	-41.7	-45.6	12.2	2.15e-04	0	56	0	267386880	55	5479
2026-01-14 22:18:57.63	52.58	17.81	-41.7	-45.5	12.2	2.51e-04	0	57	0	269484032	55	5453
2026-01-14 22:18:58.64	52.77	17.88	-41.7	-45.6	12.2	2.32e-04	0	57	0	271581184	55	5494
2026-01-14 22:18:59.65	52.96	17.95	-41.7	-45.6	12.1	2.33e-04	0	57	0	273678336	55	5520
2026-01-14 22:19:00.66	53.15	18.02	-41.7	-45.5	12.2	2.08e-04	0	57	0	275775488	55	5452
2026-01-14 22:19:01.67	53.35	18.09	-41.7	-45.5	12.3	2.17e-04	0	57	0	276824064	55	5451
2026-01-14 22:19:02.68	53.54	18.16	-41.6	-45.5	12.3	1.56e-04	0	57	0	278921216	55	5414
2026-01-14 22:19:03.69	53.74	18.23	-41.7	-45.5	12.3	1.95e-04	0	57	0	281018368	55	5422
2026-01-14 22:19:04.70	53.93	18.30	-41.7	-45.5	12.3	1.60e-04	0	57	0	283115520	55	5432
2026-01-14 22:19:05.71	54.13	18.37	-41.6	-45.4	12.4	1.46e-04	0	57	0	285212672	55	5364
2026-01-14 22:19:06.72	54.33	18.44	-41.6	-45.4	12.4	1.79e-04	0	57	0	286261248	55	5353
2026-01-14 22:19:07.73	54.53	18.51	-41.7	-45.5	12.4	1.34e-04	0	57	0	288358400	55	5405
2026-01-14 22:19:08.74	54.73	18.57	-41.7	-45.5	12.2	1.88e-04	0	57	0	290455552	55	5461
2026-01-14 22:19:09.75	54.93	18.64	-41.8	-45.7	12.1	2.72e-04	0	56	0	292552704	55	5571
2026-01-14 22:19:10.76	55.13	18.71	-41.8	-45.8	12.0	2.99e-04	0	57	0	294649856	55	5599
2026-01-14 22:19:11.77	55.33	18.78	-41.8	-45.8	12.0	3.44e-04	0	57	0	295698432	55	5627
2026-01-14 22:19:12.78	55.53	18.85	-41.8	-45.8	12.0	3.28e-04	0	57	0	297795584	55	5600
2026-01-14 22:19:13.78	55.74	18.92	-41.8	-45.7	12.1	3.23e-04	0	57	0	299892736	55	5580
2026-01-14 22:19:14.79	55.94	18.98	-41.8	-45.6	12.1	3.00e-04	0	57	0	301989888	55	5526
2026-01-14 22:19:15.80	56.15	19.05	-41.8	-45.6	12.2	2.47e-04	0	57	0	304087040	55	5520
2026-01-14 22:19:16.81	56.35	19.12	-41.8	-45.7	12.1	2.65e-04	0	57	0	305135616	55	5548
2026-01-14 22:19:17.82	56.56	19.19	-41.9	-45.8	12.0	2.90e-04	0	57	0	307232768	55	5638
2026-01-14 22:19:18.83	56.77	19.26	-41.9	-46.0	11.8	3.82e-04	0	57	0	309329920	55	5738
2026-01-14 22:19:19.83	56.98	19.32	-42.0	-46.1	11.7	5.23e-04	0	57	0	311427072	55	5825
2026-01-14 22:19:20.84	57.19	19.39	-42.1	-46.3	11.5	7.57e-04	0	57	0	313524224	55	5940
2026-01-14 22:19:21.85	57.40	19.46	-42.2	-46.5	11.2	1.05e-03	0	57	0	314572800	55	6122
2026-01-14 22:19:22.86	57.61	19.52	-42.2	-46.7	11.1	1.54e-03	0	57	0	316669952	55	6206
2026-01-14 22:19:23.87	57.83	19.59	-42.3	-46.8	11.0	1.92e-03	0	57	0	318767104	55	6287
2026-01-14 22:19:24.88	58.04	19.65	-42.3	-46.8	11.0	1.96e-03	0	57	0	320864256	55	6314
2026-01-14 22:19:25.89	58.25	19.72	-42.3	-46.7	11.1	1.65e-03	0	57	0	322961408	55	6240
2026-01-14 22:19:26.90	58.47	19.79	-42.3	-46.7	11.0	1.87e-03	0	57	0	324009984	55	6270
2026-01-14 22:19:27.90	58.69	19.85	-42.2	-46.6	11.2	1.54e-03	0	57	0	326107136	55	6154
2026-01-14 22:19:28.91	58.90	19.92	-42.2	-46.6	11.1	1.38e-03	0	57	0	328204288	55	6190
2026-01-14 22:19:29.93	59.12	19.98	-42.3	-46.7	11.1	1.48e-03	0	57	0	330301440	55	6241
2026-01-14 22:19:30.93	59.34	20.05	-42.3	-46.8	10.9	1.82e-03	0	57	0	332398592	55	6333
2026-01-14 22:19:31.94	59.56	20.11	-42.4	-47.0	10.7	2.49e-03	0	57	0	334495744	55	6485
2026-01-14 22:19:32.96	59.79	20.18	-42.5	-47.2	10.5	3.51e-03	0	57	0	335544320	55	6599
2026-01-14 22:19:33.96	60.01	20.24	-42.6	-47.5	10.2	4.72e-03	0	57	0	337641472	55	6802
2026-01-14 22:19:34.97	60.23	20.30	-42.6	-47.6	10.1	6.17e-03	0	57	0	339738624	55	6940
2026-01-14 22:19:35.98	60.45	20.37	-42.7	-47.8	9.9	8.75e-03	0	57	0	341835776	55	7090
2026-01-14 22:19:36.99	60.68	20.43	-42.9	-48.0	9.9	9.70e-03	0	57	0	343932928	56	6848
2026-01-14 22:19:38.00	60.90	20.49	-42.9	-48.0	9.9	9.60e-03	0	57	0	344981504	56	6836
2026-01-14 22:19:39.01	61.13	20.56	-42.9	-48.0	9.9	8.88e-03	0	57	0	347078656	56	6812
2026-01-14 22:19:40.02	61.36	20.62	-42.8	-47.9	10.0	8.21e-03	0	57	0	349175808	56	6737
2026-01-14 22:19:41.03	61.59	20.68	-42.8	-47.7	10.2	6.82e-03	0	57	0	351272960	56	6590
2026-01-14 22:19:42.04	61.82	20.74	-42.7	-47.4	10.4	4.85e-03	0	57	0	353370112	56	6411
2026-01-14 22:19:43.05	62.05	20.80	-42.6	-47.3	10.6	3.80e-03	0	57	0	354418688	56	6331
2026-01-14 22:19:44.05	62.28	20.86	-42.6	-47.2	10.6	3.55e-03	0	57	0	356515840	56	6274
2026-01-14 22:19:45.06	62.51	20.93	-42.5	-47.1	10.8	3.10e-03	0	57	0	358612992	56	6174
2026-01-14 22:19:46.07	62.74	20.99	-42.5	-47.1	10.8	2.57e-03	0	57	0	360710144	56	6159
2026-01-14 22:19:47.08	62.98	21.05	-42.5	-47.1	10.8	2.65e-03	0	57	0	362807296	56	6151
2026-01-14 22:19:48.09	63.21	21.11	-42.6	-47.2	10.7	2.57e-03	0	57	0	363855872	56	6260
2026-01-14 22:19:49.10	63.45	21.17	-42.5	-47.2	10.8	2.99e-03	0	57	0	365953024	56	6211
2026-01-14 22:19:50.11	63.68	21.23	-42.5	-47.0	10.9	2.87e-03	0	57	0	368050176	56	6131
2026-01-14 22:19:51.12	63.92	21.28	-42.5	-47.1	10.8	2.37e-03	0	57	0	370147328	56	6144
2026-01-14 22:19:52.13	64.16	21.34	-42.5	-47.0	10.9	2.23e-03	0	57	0	372244480	56	6116
2026-01-14 22:19:53.14	64.40	21.40	-42.4	-46.9	11.0	2.21e-03	0	57	0	373293056	56	6038
2026-01-14 22:19:54.15	64.64	21.46	-42.4	-46.9	11.0	1.81e-03	0	57	0	375390208	56	6013
2026-01-14 22:19:55.16	64.88	21.52	-42.3	-46.6	11.3	1.40e-03	0	57	0	377487360	56	5848
2026-01-14 22:19:56.16	65.12	21.57	-42.3	-46.6	11.3	1.12e-03	0	57	0	379584512	56	5791
2026-01-14 22:19:57.17	65.36	21.63	-42.2	-46.5	11.4	1.10e-03	0	57	0	381681664	56	5753
2026-01-14 22:19:58.18	65.61	21.69	-42.1	-46.3	11.7	6.45e-04	0	57	0	382730240	56	5604
2026-01-14 22:19:59.19	65.85	21.74	-42.2	-46.3	11.6	6.46e-04	0	57	0	384827392	56	5642
2026-01-14 22:20:00.20	66.10	21.80	-42.2	-46.5	11.4	7.78e-04	0	57	0	386924544	56	5756
2026-01-14 22:20:01.21	66.35	21.85	-42.4	-46.8	11.0	1.20e-03	0	57	0	389021696	56	5992
2026-01-14 22:20:02.22	66.59	21.91	-42.5	-47.1	10.8	2.46e-03	0	57	0	391118848	56	6155
2026-01-14 22:20:03.23	66.84	21.96	-42.6	-47.3	10.6	3.35e-03	0	57	0	392167424	56	6279
2026-01-14 22:20:04.23	67.09	22.01	-42.6	-47.5	10.3	4.21e-03	0	57	0	394264576	56	6441
2026-01-14 22:20:05.24	67.34	22.07	-42.6	-47.4	10.4	5.04e-03	0	57	0	396361728	56	6405
2026-01-14 22:20:06.25	67.59	22.12	-42.5	-47.2	10.6	4.03e-03	0	57	0	398458880	56	6251
2026-01-14 22:20:07.26	67.84	22.17	-42.5	-47.2	10.6	3.53e-03	0	57	0	400556032	56	6212
2026-01-14 22:20:08.27	68.09	22.23	-42.5	-47.1	10.6	3.43e-03	0	57	0	402653184	56	6194
2026-01-14 22:20:09.28	68.35	22.28	-42.5	-47.2	10.5	3.43e-03	0	57	0	403701760	56	6239
2026-01-14 22:20:10.29	68.60	22.33	-42.4	-47.1	10.6	3.38e-03	0	57	0	405798912	56	6183
2026-01-14 22:20:11.30	68.85	22.38	-42.4	-46.9	10.8	2.63e-03	0	57	0	407896064	56	6041
2026-01-14 22:20:12.31	69.11	22.43	-42.4	-47.0	10.8	2.56e-03	0	57	0	409993216	56	6099
2026-01-14 22:20:13.32	69.37	22.48	-42.4	-46.9	10.8	2.66e-03	0	57	0	411041792	56	6059
2026-01-14 22:20:14.33	69.62	22.53	-42.4	-46.9	10.8	2.45e-03	0	57	0	413138944	56	6052
2026-01-14 22:20:15.34	69.88	22.58	-42.4	-46.9	10.8	2.69e-03	0	57	0	415236096	56	6060
2026-01-14 22:20:16.35	70.14	22.63	-42.4	-47.0	10.7	2.81e-03	0	57	0	417333248	56	6108
2026-01-14 22:20:17.36	70.40	22.67	-42.4	-47.1	10.7	3.03e-03	0	57	0	419430400	56	6141
2026-01-14 22:20:18.37	70.66	22.72	-42.4	-47.0	10.8	3.05e-03	0	57	0	421527552	56	6083
2026-01-14 22:20:19.38	70.92	22.77	-42.3	-46.8	10.9	2.43e-03	0	57	0	422576128	56	5971
2026-01-14 22:20:20.39	71.19	22.81	-42.3	-46.7	11.0	2.18e-03	0	57	0	424673280	56	5914
2026-01-14 22:20:21.40	71.45	22.86	-42.2	-46.7	11.0	1.88e-03	0	57	0	426770432	56	5897
2026-01-14 22:20:22.41	71.71	22.90	-42.2	-46.7	11.0	1.74e-03	0	57	0	428867584	56	5882
2026-01-14 22:20:23.41	71.97	22.95	-42.2	-46.7	11.1	1.76e-03	0	57	0	430964736	56	5863
2026-01-14 22:20:24.43	72.24	22.99	-42.2	-46.6	11.1	1.68e-03	0	57	0	432013312	56	5854
2026-01-14 22:20:25.43	72.50	23.04	-42.3	-46.8	10.9	2.02e-03	0	57	0	434110464	56	5976
2026-01-14 22:20:26.44	72.77	23.08	-42.3	-46.8	10.9	2.16e-03	0	57	0	436207616	56	5973
2026-01-14 22:20:27.45	73.04	23.12	-42.2	-46.7	11.0	1.83e-03	0	57	0	438304768	56	5888
2026-01-14 22:20:28.46	73.31	23.16	-42.3	-46.8	10.8	1.97e-03	0	57	0	440401920	56	5976
2026-01-14 22:20:29.47	73.58	23.20	-42.3	-47.0	10.7	2.72e-03	0	57	0	441450496	56	6078
2026-01-14 22:20:30.48	73.84	23.25	-42.4	-47.1	10.5	3.29e-03	0	57	0	443547648	56	6200
2026-01-14 22:20:31.49	74.11	23.29	-42.5	-47.2	10.5	4.11e-03	0	57	0	445644800	56	6260
2026-01-14 22:20:32.49	74.38	23.32	-42.5	-47.2	10.4	4.37e-03	0	57	0	447741952	56	6245
2026-01-14 22:20:33.50	74.65	23.36	-42.6	-47.5	10.2	4.88e-03	0	57	0	449839104	56	6463
2026-01-14 22:20:34.51	74.93	23.40	-42.6	-47.5	10.3	5.73e-03	0	57	0	450887680	56	6440
2026-01-14 22:20:35.51	75.20	23.44	-42.6	-47.5	10.3	4.66e-03	0	57	0	452984832	56	6421
2026-01-14 22:20:36.52	75.47	23.48	-42.6	-47.6	10.1	5.92e-03	0	57	0	455081984	56	6512
2026-01-14 22:20:37.53	75.74	23.51	-42.7	-47.7	10.0	7.34e-03	0	57	0	457179136	56	6599
2026-01-14 22:20:38.54	76.02	23.55	-42.7	-47.7	10.0	7.63e-03	0	57	0	459276288	56	6585
2026-01-14 22:20:39.55	76.29	23.58	-42.7	-47.8	9.9	8.10e-03	0	57	0	460324864	56	6663
2026-01-14 22:20:40.56	76.57	23.62	-42.7	-47.7	10.0	9.11e-03	0	57	0	462422016	56	6627
2026-01-14 22:20:41.57	76.85	23.65	-42.7	-47.8	9.9	8.81e-03	0	57	0	464519168	56	6665
2026-01-14 22:20:42.58	77.12	23.69	-42.8	-47.9	9.8	9.46e-03	0	57	0	466616320	56	6775
2026-01-14 22:20:43.58	77.40	23.72	-42.7	-47.9	9.9	9.19e-03	0	57	0	468713472	56	6724
2026-01-14 22:20:44.59	77.68	23.75	-42.8	-48.0	9.8	1.03e-02	0	57	0	469762048	56	6803
2026-01-14 22:20:45.60	77.96	23.78	-42.7	-47.8	10.0	8.88e-03	0	57	0	471859200	56	6651
2026-01-14 22:20:46.61	78.23	23.81	-42.7	-47.7	10.1	7.05e-03	0	57	0	473956352	56	6602
2026-01-14 22:20:47.62	78.51	23.84	-42.6	-47.3	10.4	4.71e-03	0	57	0	476053504	56	6331
2026-01-14 22:20:48.63	78.80	23.87	-42.4	-47.0	10.8	3.18e-03	0	57	0	478150656	56	6084
2026-01-14 22:20:49.64	79.08	23.90	-42.3	-46.7	11.1	2.04e-03	0	57	0	479199232	56	5897
2026-01-14 22:20:50.65	79.36	23.93	-42.3	-46.7	11.0	1.48e-03	0	57	0	481296384	56	5920
2026-01-14 22:20:51.65	79.64	23.96	-42.3	-46.6	11.3	1.22e-03	0	57	0	483393536	56	5803
2026-01-14 22:20:52.66	79.92	23.98	-42.2	-46.5	11.3	1.18e-03	0	57	0	485490688	56	5748
2026-01-14 22:20:53.67	80.20	24.01	-42.2	-46.4	11.4	9.88e-04	0	57	0	487587840	56	5708
2026-01-14 22:20:54.68	80.49	24.03	-42.2	-46.5	11.4	9.86e-04	0	58	0	489684992	56	5739
2026-01-14 22:20:55.70	80.77	24.06	-42.2	-46.5	11.4	1.02e-03	0	57	0	490733568	56	5754
2026-01-14 22:20:56.71	81.06	24.08	-42.2	-46.5	11.4	9.81e-04	0	57	0	492830720	56	5732
2026-01-14 22:20:57.72	81.34	24.11	-42.2	-46.3	11.6	7.38e-04	0	57	0	494927872	56	5629
2026-01-14 22:20:58.73	81.63	24.13	-42.1	-46.2	11.7	5.77e-04	0	57	0	497025024	56	5574
2026-01-14 22:20:59.74	81.91	24.15	-42.1	-46.2	11.7	5.96e-04	0	57	0	499122176	56	5539
2026-01-14 22:21:00.75	82.20	24.17	-42.1	-46.2	11.7	5.88e-04	0	58	0	500170752	56	5550
2026-01-14 22:21:01.76	82.48	24.19	-42.2	-46.3	11.6	5.74e-04	0	57	0	502267904	56	5653
2026-01-14 22:21:02.77	82.77	24.21	-42.3	-46.6	11.3	9.66e-04	0	57	0	504365056	56	5846
2026-01-14 22:21:03.78	83.06	24.23	-42.5	-47.1	10.8	2.05e-03	0	57	0	506462208	56	6142
2026-01-14 22:21:04.79	83.34	24.25	-42.5	-47.2	10.6	2.62e-03	0	57	0	508559360	56	6258
2026-01-14 22:21:05.79	83.63	24.27	-42.6	-47.3	10.6	3.35e-03	0	57	0	509607936	56	6308
2026-01-14 22:21:06.80	83.92	24.28	-42.5	-47.2	10.6	3.54e-03	0	57	0	511705088	56	6231
2026-01-14 22:21:07.81	84.21	24.30	-42.5	-47.1	10.7	2.94e-03	0	57	0	513802240	56	6184
2026-01-14 22:21:08.82	84.49	24.31	-42.4	-46.9	10.9	2.51e-03	0	58	0	515899392	56	6048
2026-01-14 22:21:09.83	84.78	24.33	-42.4	-46.9	11.0	1.89e-03	0	58	0	517996544	56	5993
2026-01-14 22:21:10.84	85.07	24.34	-42.3	-46.7	11.1	1.50e-03	0	57	0	519045120	56	5914
2026-01-14 22:21:11.85	85.36	24.36	-42.3	-46.7	11.2	1.40e-03	0	57	0	521142272	56	5864
2026-01-14 22:21:12.86	85.65	24.37	-42.3	-46.6	11.3	1.31e-03	0	57	0	523239424	56	5816
2026-01-14 22:21:13.86	85.94	24.38	-42.3	-46.7	11.2	1.20e-03	0	57	0	525336576	56	5870
2026-01-14 22:21:14.87	86.23	24.39	-42.4	-46.8	11.1	1.42e-03	0	58	0	527433728	56	5960
2026-01-14 22:21:15.88	86.52	24.40	-42.4	-46.9	11.0	1.77e-03	0	58	0	528482304	56	6009
2026-01-14 22:21:16.89	86.81	24.41	-42.5	-46.9	11.0	1.86e-03	0	58	0	530579456	56	6046
2026-01-14 22:21:17.90	87.10	24.42	-42.5	-47.0	10.9	2.12e-03	0	57	0	532676608	56	6065
2026-01-14 22:21:18.91	87.39	24.43	-42.4	-46.9	11.1	1.96e-03	0	57	0	534773760	56	5997
2026-01-14 22:21:19.92	87.68	24.43	-42.3	-46.7	11.3	1.30e-03	0	57	0	536870912	56	5870
2026-01-14 22:21:20.93	87.97	24.44	-42.3	-46.5	11.4	1.09e-03	0	57	0	537919488	56	5751
2026-01-14 22:21:21.94	88.26	24.44	-42.2	-46.5	11.5	8.73e-04	0	57	0	540016640	56	5725
2026-01-14 22:21:22.95	88.55	24.45	-42.3	-46.4	11.5	8.22e-04	0	57	0	542113792	56	5722
2026-01-14 22:21:23.96	88.85	24.45	-42.3	-46.5	11.5	8.43e-04	0	57	0	544210944	56	5729
2026-01-14 22:21:24.96	89.13	24.46	-42.3	-46.7	11.3	1.07e-03	0	58	0	546308096	56	5857
2026-01-14 22:21:25.97	89.43	24.46	-42.4	-46.8	11.1	1.29e-03	0	57	0	547356672	56	5992
2026-01-14 22:21:26.98	89.72	24.46	-42.5	-47.0	11.0	1.88e-03	0	57	0	549453824	56	6076
2026-01-14 22:21:27.99	90.01	24.46	-42.5	-47.0	10.9	1.96e-03	0	57	0	551550976	56	6116
2026-01-14 22:21:29.00	90.30	24.46	-42.5	-47.1	10.9	2.21e-03	0	58	0	553648128	56	6175
2026-01-14 22:21:30.01	90.59	24.46	-42.5	-47.1	10.9	2.28e-03	0	57	0	555745280	56	6134
2026-01-14 22:21:31.02	90.88	24.46	-42.4	-46.9	11.1	1.86e-03	0	58	0	556793856	56	5993
2026-01-14 22:21:32.03	91.17	24.46	-42.4	-46.8	11.2	1.44e-03	0	57	0	558891008	56	5939
2026-01-14 22:21:33.04	91.47	24.46	-42.3	-46.6	11.4	1.06e-03	0	58	0	560988160	56	5827
2026-01-14 22:21:34.05	91.76	24.45	-42.2	-46.4	11.7	7.86e-04	0	58	0	563085312	56	5658
2026-01-14 22:21:35.06	92.05	24.45	-42.2	-46.3	11.8	5.73e-04	0	58	0	565182464	56	5607
2026-01-14 22:21:36.07	92.34	24.44	-42.2	-46.3	11.7	5.14e-04	0	58	0	566231040	56	5637
2026-01-14 22:21:37.07	92.63	24.44	-42.3	-46.4	11.6	5.59e-04	0	58	0	568328192	56	5703
2026-01-14 22:21:38.09	92.92	24.43	-42.4	-46.6	11.4	8.31e-04	0	58	0	570425344	56	5826
2026-01-14 22:21:39.10	93.21	24.42	-42.5	-47.0	11.1	1.63e-03	0	58	0	572522496	56	6066
2026-01-14 22:21:40.11	93.50	24.41	-42.6	-47.1	10.9	2.14e-03	0	58	0	574619648	56	6182
2026-01-14 22:21:41.12	93.79	24.40	-42.6	-47.1	10.9	2.28e-03	0	57	0	575668224	56	6200
2026-01-14 22:21:42.13	94.09	24.39	-42.6	-47.1	10.9	2.15e-03	0	57	0	577765376	56	6177
2026-01-14 22:21:43.13	94.37	24.38	-42.6	-47.2	10.9	1.97e-03	0	58	0	579862528	56	6207
2026-01-14 22:21:44.14	94.66	24.37	-42.6	-47.0	11.0	1.98e-03	0	58	0	581959680	56	6115
2026-01-14 22:21:45.15	94.95	24.36	-42.5	-47.0	11.0	1.99e-03	0	58	0	584056832	56	6113
2026-01-14 22:21:46.16	95.24	24.35	-42.5	-47.0	11.0	1.80e-03	0	58	0	586153984	56	6116
2026-01-14 22:21:47.17	95.53	24.33	-42.5	-46.9	11.1	1.54e-03	0	57	0	587202560	56	6039
2026-01-14 22:21:48.18	95.82	24.32	-42.4	-46.7	11.3	1.25e-03	0	57	0	589299712	56	5893
2026-01-14 22:21:49.19	96.11	24.31	-42.4	-46.7	11.3	1.17e-03	0	57	0	591396864	56	5918
2026-01-14 22:21:50.19	96.40	24.29	-42.5	-46.8	11.2	1.14e-03	0	58	0	593494016	56	5962
2026-01-14 22:21:51.20	96.68	24.27	-42.5	-46.9	11.2	1.28e-03	0	58	0	595591168	56	5996
2026-01-14 22:21:52.21	96.97	24.26	-42.6	-47.1	10.9	1.68e-03	0	58	0	596639744	56	6201
2026-01-14 22:21:53.22	97.26	24.24	-42.7	-47.3	10.7	2.72e-03	0	58	0	598736896	56	6318
2026-01-14 22:21:54.23	97.55	24.22	-42.7	-47.5	10.6	3.27e-03	0	58	0	600834048	56	6438
2026-01-14 22:21:55.24	97.84	24.20	-42.7	-47.4	10.7	3.49e-03	0	57	0	602931200	56	6359
2026-01-14 22:21:56.25	98.12	24.18	-42.6	-47.2	10.8	2.50e-03	0	58	0	605028352	56	6269
2026-01-14 22:21:57.26	98.41	24.16	-42.5	-46.8	11.3	1.58e-03	0	57	0	606076928	56	5964
2026-01-14 22:21:58.27	98.69	24.14	-42.4	-46.7	11.4	1.06e-03	0	57	0	608174080	56	5872
2026-01-14 22:21:59.28	98.98	24.12	-42.4	-46.6	11.5	8.73e-04	0	57	0	610271232	56	5821
2026-01-14 22:22:00.29	99.27	24.09	-42.4	-46.7	11.4	7.72e-04	0	57	0	612368384	56	5869
2026-01-14 22:22:01.30	99.55	24.07	-42.5	-46.8	11.3	1.06e-03	0	57	0	614465536	56	5960
2026-01-14 22:22:02.31	99.83	24.04	-42.4	-46.7	11.3	1.15e-03	0	58	0	615514112	56	5920
2026-01-14 22:22:03.32	100.12	24.02	-42.4	-46.6	11.6	8.90e-04	0	58	0	617611264	56	5790
2026-01-14 22:22:04.33	100.40	23.99	-42.3	-46.3	11.8	5.80e-04	0	58	0	619708416	56	5651
2026-01-14 22:22:05.33	100.68	23.97	-42.1	-46.0	12.1	2.95e-04	0	57	0	621805568	56	5451
2026-01-14 22:22:06.34	100.97	23.94	-42.1	-46.0	12.2	2.05e-04	0	57	0	623902720	56	5407
2026-01-14 22:22:07.35	101.25	23.91	-42.1	-46.0	12.2	2.21e-04	0	58	0	624951296	56	5421
2026-01-14 22:22:08.36	101.53	23.88	-42.1	-46.0	12.1	2.29e-04	0	58	0	627048448	56	5423
2026-01-14 22:22:09.37	101.81	23.85	-42.1	-46.0	12.1	2.52e-04	0	57	0	629145600	56	5450
2026-01-14 22:22:10.37	102.09	23.82	-42.1	-46.1	12.1	2.88e-04	0	57	0	631242752	56	5480
2026-01-14 22:22:11.38	102.37	23.79	-42.2	-46.1	12.0	2.99e-04	0	58	0	633339904	56	5525
2026-01-14 22:22:12.39	102.65	23.76	-42.1	-46.0	12.1	2.82e-04	0	58	0	634388480	56	5454
2026-01-14 22:22:13.39	102.92	23.73	-42.2	-46.1	12.1	2.91e-04	0	58	0	636485632	56	5505
2026-01-14 22:22:14.41	103.21	23.70	-42.1	-45.9	12.2	2.57e-04	0	57	0	638582784	56	5397
2026-01-14 22:22:15.42	103.48	23.67	-42.0	-45.8	12.4	1.75e-04	0	58	0	640679936	56	5332
2026-01-14 22:22:16.43	103.76	23.63	-42.0	-45.7	12.5	1.55e-04	0	58	0	642777088	56	5275
2026-01-14 22:22:17.44	104.04	23.60	-41.8	-45.5	12.5	1.21e-04	0	58	0	643825664	55	5423
2026-01-14 22:22:18.45	104.31	23.56	-41.7	-45.4	12.7	7.85e-05	0	58	0	645922816	55	5353
2026-01-14 22:22:19.46	104.59	23.53	-41.7	-45.3	12.8	6.71e-05	0	58	0	648019968	55	5289
2026-01-14 22:22:20.47	104.87	23.49	-41.6	-45.2	12.8	6.86e-05	0	58	0	650117120	55	5265
2026-01-14 22:22:21.48	105.14	23.45	-41.6	-45.2	12.9	5.03e-05	0	58	0	652214272	55	5229
2026-01-14 22:22:22.49	105.41	23.41	-41.6	-45.1	12.9	5.56e-05	0	58	0	654311424	55	5206
2026-01-14 22:22:23.50	105.69	23.38	-41.6	-45.1	12.9	3.50e-05	0	58	0	655360000	55	5176
2026-01-14 22:22:24.50	105.96	23.34	-41.5	-44.9	13.1	2.97e-05	0	58	0	657457152	55	5093
2026-01-14 22:22:25.51	106.23	23.30	-41.3	-44.7	13.3	1.44e-05	0	58	0	659554304	54	5222
2026-01-14 22:22:26.52	106.50	23.26	-41.2	-44.5	13.5	1.37e-05	0	57	0	661651456	54	5114
2026-01-14 22:22:27.53	106.77	23.22	-41.2	-44.4	13.6	5.30e-06	0	58	0	663748608	54	5070
2026-01-14 22:22:28.54	107.04	23.18	-41.2	-44.4	13.6	6.10e-06	0	58	0	664797184	54	5082
2026-01-14 22:22:29.54	107.31	23.14	-41.2	-44.5	13.5	1.44e-05	0	58	0	666894336	54	5135
2026-01-14 22:22:30.55	107.57	23.09	-41.3	-44.6	13.5	6.80e-06	0	58	0	668991488	54	5176
2026-01-14 22:22:31.56	107.84	23.05	-41.3	-44.6	13.5	1.06e-05	0	58	0	671088640	54	5169
2026-01-14 22:22:32.57	108.11	23.01	-41.2	-44.4	13.6	6.80e-06	0	58	0	672137216	54	5079
2026-01-14 22:22:33.58	108.37	22.96	-41.1	-44.3	13.7	4.50e-06	0	58	0	674234368	54	5015
2026-01-14 22:22:34.59	108.64	22.92	-41.0	-44.1	13.8	6.80e-06	0	58	0	676331520	53	5200
2026-01-14 22:22:35.60	108.90	22.87	-41.1	-44.2	13.8	3.80e-06	0	58	0	678428672	53	5253
2026-01-14 22:22:36.61	109.17	22.83	-41.2	-44.4	13.6	8.30e-06	0	58	0	680525824	53	5392
2026-01-14 22:22:37.62	109.43	22.78	-41.3	-44.7	13.4	1.37e-05	0	58	0	682622976	53	5532
2026-01-14 22:22:38.62	109.69	22.73	-41.5	-44.9	13.1	2.97e-05	0	58	0	683671552	53	5715
2026-01-14 22:22:39.63	109.95	22.69	-41.6	-45.1	12.8	4.27e-05	0	58	0	685768704	53	5826
2026-01-14 22:22:40.64	110.21	22.64	-41.6	-45.2	12.8	6.17e-05	0	58	0	687865856	53	5901
2026-01-14 22:22:41.65	110.47	22.59	-41.6	-45.1	12.9	5.18e-05	0	58	0	689963008	53	5815
2026-01-14 22:22:42.66	110.73	22.54	-41.4	-44.9	13.1	2.44e-05	0	58	0	692060160	53	5669
2026-01-14 22:22:43.67	110.99	22.49	-41.3	-44.6	13.4	1.60e-05	0	58	0	693108736	53	5506
2026-01-14 22:22:44.67	111.25	22.44	-41.2	-44.5	13.5	9.10e-06	0	58	0	695205888	53	5456
2026-01-14 22:22:45.69	111.51	22.39	-41.3	-44.6	13.4	7.60e-06	0	58	0	697303040	53	5486
2026-01-14 22:22:46.69	111.76	22.34	-41.3	-44.7	13.3	1.06e-05	0	58	0	699400192	53	5571
2026-01-14 22:22:47.71	112.02	22.29	-41.4	-44.8	13.2	2.44e-05	0	58	0	701497344	53	5604
2026-01-14 22:22:48.72	112.27	22.24	-41.4	-44.8	13.2	2.36e-05	0	58	0	702545920	53	5622
2026-01-14 22:22:49.72	112.52	22.19	-41.4	-44.8	13.2	2.44e-05	0	58	0	704643072	53	5647
2026-01-14 22:22:50.74	112.78	22.13	-41.5	-45.0	13.0	3.43e-05	0	58	0	706740224	53	5747
2026-01-14 22:22:51.75	113.03	22.08	-41.6	-45.2	12.8	5.49e-05	0	58	0	708837376	53	5902
2026-01-14 22:22:52.76	113.28	22.03	-41.8	-45.6	12.4	9.07e-05	0	58	0	710934528	54	5804
2026-01-14 22:22:53.76	113.53	21.97	-42.0	-45.9	12.1	2.02e-04	0	58	0	711983104	54	6017
2026-01-14 22:22:54.77	113.78	21.92	-42.1	-46.2	11.8	4.60e-04	0	58	0	714080256	54	6213
2026-01-14 22:22:55.78	114.03	21.86	-42.2	-46.4	11.6	6.28e-04	0	58	0	716177408	54	6352
2026-01-14 22:22:56.79	114.28	21.81	-42.2	-46.5	11.5	7.04e-04	0	58	0	718274560	55	6063
2026-01-14 22:22:57.80	114.52	21.75	-42.3	-46.5	11.4	9.59e-04	0	58	0	720371712	55	6103
2026-01-14 22:22:58.81	114.77	21.70	-42.2	-46.5	11.4	8.28e-04	0	58	0	721420288	55	6090
2026-01-14 22:22:59.82	115.01	21.64	-42.3	-46.6	11.3	1.11e-03	0	58	0	723517440	55	6174
2026-01-14 22:23:00.83	115.26	21.58	-42.2	-46.5	11.5	1.03e-03	0	58	0	725614592	55	6077
2026-01-14 22:23:01.84	115.50	21.53	-42.1	-46.3	11.6	7.51e-04	0	58	0	727711744	55	5937
2026-01-14 22:23:02.84	115.74	21.47	-42.0	-46.0	12.0	4.64e-04	0	58	0	729808896	55	5728
2026-01-14 22:23:03.85	115.98	21.41	-41.9	-45.8	12.2	2.94e-04	0	58	0	730857472	55	5608
2026-01-14 22:23:04.86	116.22	21.35	-41.8	-45.5	12.4	1.72e-04	0	58	0	732954624	55	5435
2026-01-14 22:23:05.87	116.46	21.29	-41.7	-45.4	12.5	1.27e-04	0	58	0	735051776	55	5371
2026-01-14 22:23:06.88	116.70	21.24	-41.8	-45.5	12.4	1.17e-04	0	58	0	737148928	55	5439
2026-01-14 22:23:07.89	116.94	21.18	-41.8	-45.6	12.3	1.52e-04	0	58	0	739246080	55	5486
2026-01-14 22:23:08.90	117.18	21.12	-41.9	-45.8	12.1	1.73e-04	0	58	0	740294656	55	5621
2026-01-14 22:23:09.91	117.41	21.06	-42.0	-45.9	12.0	3.35e-04	0	58	0	742391808	55	5693
2026-01-14 22:23:10.92	117.65	21.00	-42.1	-46.2	11.8	4.41e-04	0	58	0	744488960	55	5856
2026-01-14 22:23:11.93	117.88	20.93	-42.1	-46.2	11.7	5.33e-04	0	58	0	746586112	55	5877
2026-01-14 22:23:12.94	118.12	20.87	-42.1	-46.2	11.7	5.35e-04	0	58	0	748683264	55	5872
2026-01-14 22:23:13.95	118.35	20.81	-42.0	-46.2	11.6	5.97e-04	0	58	0	750780416	55	5906
2026-01-14 22:23:14.96	118.58	20.75	-42.1	-46.2	11.7	5.44e-04	0	58	0	751828992	55	5919
2026-01-14 22:23:15.97	118.81	20.69	-42.2	-46.4	11.5	7.19e-04	0	58	0	753926144	55	6006
2026-01-14 22:23:16.98	119.04	20.63	-42.1	-46.2	11.6	6.81e-04	0	58	0	756023296	55	5913
2026-01-14 22:23:17.99	119.27	20.56	-42.1	-46.1	11.8	5.56e-04	0	58	0	758120448	55	5853
2026-01-14 22:23:19.00	119.50	20.50	-42.0	-45.9	11.9	4.70e-04	0	58	0	760217600	54	6053
2026-01-14 22:23:20.01	119.73	20.44	-41.8	-45.8	12.1	3.99e-04	0	58	0	761266176	54	5937
2026-01-14 22:23:21.02	119.95	20.37	-41.8	-45.7	12.2	2.32e-04	0	58	0	763363328	54	5897
2026-01-14 22:23:22.03	120.18	20.31	-41.8	-45.7	12.2	2.41e-04	0	58	0	765460480	54	5902
2026-01-14 22:23:23.03	120.40	20.24	-41.8	-45.7	12.1	2.39e-04	0	58	0	767557632	54	5918
2026-01-14 22:23:24.04	120.63	20.18	-41.9	-45.8	12.1	3.00e-04	0	58	0	769654784	54	5961
2026-01-14 22:23:25.05	120.85	20.12	-42.0	-45.9	12.0	3.21e-04	0	58	0	770703360	54	6055
2026-01-14 22:23:26.06	121.07	20.05	-41.9	-45.9	12.0	3.46e-04	0	58	0	772800512	54	6034
2026-01-14 22:23:27.06	121.29	19.99	-41.9	-45.8	12.1	3.55e-04	0	58	0	774897664	54	5960
2026-01-14 22:23:28.07	121.51	19.92	-41.4	-45.8	12.1	4.25e-04	0	58	0	776994816	54	5941
2026-01-14 22:23:29.08	121.73	19.85	-41.4	-45.7	12.1	1.57e-03	0	58	0	779091968	54	5864
2026-01-14 22:23:30.09	121.95	19.79	-41.6	-45.7	12.1	2.78e-04	0	58	0	780140544	54	5899
2026-01-14 22:23:31.10	122.16	19.72	-41.9	-45.9	11.9	4.32e-03	0	58	0	782237696	54	6043
2026-01-14 22:23:32.10	122.38	19.66	-41.9	-45.9	11.9	3.37e-03	0	58	0	784334848	54	6049
2026-01-14 22:23:33.11	122.59	19.59	-42.0	-46.2	11.7	1.04e-03	0	58	0	786432000	54	6214
2026-01-14 22:23:34.12	122.81	19.52	-41.3	-46.1	10.6	5.37e-03	0	58	0	788529152	53	6500
2026-01-14 22:23:35.13	123.02	19.46	-40.8	-46.0	10.5	1.43e-02	0	58	0	789577728	53	6452
2026-01-14 22:23:36.14	123.23	19.39	-41.4	-46.1	11.0	5.54e-03	0	58	0	791674880	54	6155
2026-01-14 22:23:37.15	123.44	19.32	-42.1	-46.2	11.7	6.23e-04	0	58	0	793772032	54	6243
2026-01-14 22:23:38.15	123.65	19.25	-42.1	-46.4	11.4	8.83e-04	0	58	0	795869184	54	6393
2026-01-14 22:23:39.16	123.86	19.19	-42.3	-46.8	11.0	1.83e-03	0	58	0	797966336	55	6338
2026-01-14 22:23:40.17	124.07	19.12	-42.1	-47.3	9.3	3.48e-02	0	57	0	799014912	53	7499
2026-01-14 22:23:41.18	124.28	19.05	-41.9	-47.5	9.4	4.72e-02	0	58	0	801112064	54	7264
2026-01-14 22:23:42.19	124.49	18.98	-42.3	-47.5	9.8	1.32e-02	0	58	0	803209216	55	6865
2026-01-14 22:23:43.20	124.69	18.91	-42.5	-47.3	10.5	9.81e-03	0	58	0	805306368	55	6650
2026-01-14 22:23:44.20	124.90	18.85	-41.8	-46.5	11.0	1.49e-02	0	57	0	807403520	55	6116
2026-01-14 22:23:45.21	125.10	18.78	-42.1	-46.3	11.5	2.37e-03	0	58	0	808452096	54	6322
2026-01-14 22:23:46.22	125.31	18.71	-41.9	-46.1	11.8	6.71e-04	0	58	0	810549248	54	6148
2026-01-14 22:23:47.23	125.51	18.64	-42.1	-46.3	10.4	1.50e-03	0	58	0	812646400	53	6668
2026-01-14 22:23:48.24	125.71	18.57	-42.2	-46.7	10.9	1.17e-03	0	58	0	814743552	55	6208
2026-01-14 22:23:49.25	125.91	18.50	-42.4	-47.0	10.8	5.87e-03	0	58	0	816840704	55	6494
2026-01-14 22:23:50.26	126.11	18.43	-42.5	-47.3	10.4	8.09e-03	0	58	0	817889280	55	6687
2026-01-14 22:23:51.26	126.31	18.36	-42.5	-47.2	10.5	5.28e-03	0	58	0	819986432	55	6615
2026-01-14 22:23:52.27	126.51	18.29	-42.3	-46.9	10.7	4.36e-03	0	58	0	822083584	55	6369
2026-01-14 22:23:53.28	126.70	18.22	-42.2	-46.5	11.3	6.97e-03	0	58	0	824180736	54	6456
2026-01-14 22:23:54.29	126.90	18.15	-42.0	-46.2	11.5	1.12e-03	0	58	0	826277888	54	6258
2026-01-14 22:23:55.30	127.10	18.08	-42.0	-46.2	11.6	9.68e-04	0	58	0	827326464	54	6226
2026-01-14 22:23:56.31	127.29	18.01	-42.1	-46.3	11.5	9.71e-04	0	58	0	829423616	54	6327
2026-01-14 22:23:57.32	127.48	17.94	-42.1	-46.5	11.2	1.35e-03	0	58	0	831520768	54	6487
2026-01-14 22:23:58.33	127.68	17.87	-42.2	-46.9	10.8	1.85e-03	0	58	0	833617920	55	6386
2026-01-14 22:23:59.33	127.87	17.80	-42.4	-47.1	10.6	3.45e-03	0	58	0	835715072	55	6561
2026-01-14 22:24:00.34	128.06	17.73	-42.4	-47.1	10.6	3.60e-03	0	58	0	836763648	55	6536
2026-01-14 22:24:01.35	128.25	17.66	-42.4	-47.0	10.7	3.28e-03	0	58	0	838860800	55	6477
2026-01-14 22:24:02.36	128.44	17.58	-42.3	-47.0	10.8	2.69e-03	0	58	0	840957952	55	6430
2026-01-14 22:24:03.37	128.63	17.51	-42.2	-46.8	10.9	2.61e-03	0	58	0	843055104	55	6325
2026-01-14 22:24:04.38	128.81	17.44	-42.3	-46.9	10.9	2.23e-03	0	58	0	845152256	55	6378
2026-01-14 22:24:05.39	129.00	17.37	-42.4	-47.1	10.6	2.64e-03	0	58	0	847249408	55	6519
2026-01-14 22:24:06.40	129.19	17.30	-42.5	-47.3	10.4	3.51e-03	0	58	0	848297984	55	6681
2026-01-14 22:24:07.41	129.37	17.23	-42.5	-47.4	10.2	5.04e-03	0	58	0	850395136	55	6795
2026-01-14 22:24:08.42	129.56	17.16	-42.6	-47.7	10.0	8.10e-03	0	58	0	852492288	55	6987
2026-01-14 22:24:09.43	129.74	17.08	-42.3	-47.4	10.2	6.42e-03	0	58	0	854589440	55	6771
2026-01-14 22:24:10.43	129.92	17.01	-42.3	-47.2	10.4	7.94e-03	0	58	0	856686592	55	6605
2026-01-14 22:24:11.44	130.10	16.94	-42.1	-46.6	11.1	3.47e-03	0	58	0	857735168	54	6534
2026-01-14 22:24:12.45	130.28	16.87	-41.4	-46.1	11.5	5.15e-03	0	58	0	859832320	54	6153
2026-01-14 22:24:13.46	130.46	16.80	-41.8	-46.0	11.5	7.08e-03	0	58	0	861929472	54	6083
2026-01-14 22:24:14.47	130.64	16.73	-41.9	-46.1	11.6	3.74e-03	0	58	0	864026624	54	6139
2026-01-14 22:24:15.48	130.82	16.65	-42.1	-46.4	11.3	1.28e-03	0	58	0	866123776	54	6383
2026-01-14 22:24:16.49	131.00	16.58	-40.8	-46.8	10.7	8.51e-03	0	58	0	867172352	53	7077
2026-01-14 22:24:17.49	131.17	16.51	-41.9	-47.2	9.9	6.38e-03	0	58	0	869269504	52	7894
2026-01-14 22:24:18.50	131.35	16.44	-41.3	-48.2	8.4	4.00e-02	0	58	0	871366656	51	9301
2026-01-14 22:24:19.51	131.53	16.37	-38.4	-48.1	9.3	4.36e-02	0	58	0	873463808	50	9721
2026-01-14 22:24:20.52	131.70	16.29	-41.7	-48.0	9.1	5.47e-02	1	58	0	875560960	54	7714
2026-01-14 22:24:21.53	131.87	16.22	-40.2	-47.4	9.3	8.44e-02	0	58	0	876609536	55	6797
2026-01-14 22:24:22.54	132.05	16.15	-35.3	-46.0	10.0	1.19e-01	8	58	0	878706688	54	6125
2026-01-14 22:24:23.55	132.22	16.08	-41.8	-46.8	10.3	4.20e-02	0	58	0	880803840	53	7071
2026-01-14 22:24:24.55	132.39	16.00	-42.0	-46.7	10.1	1.54e-01	5	58	0	882900992	54	6630
2026-01-14 22:24:25.56	132.56	15.93	-41.8	-46.5	10.4	7.13e-02	0	58	0	883949568	53	6818
2026-01-14 22:24:26.57	132.73	15.86	-33.8	-45.0	6.3	6.99e-02	68	58	0	886046720	42	10846
2026-01-14 22:24:27.58	132.90	15.79	-42.2	-47.0	10.1	7.69e-01	0	58	0	888143872	55	6434
2026-01-14 22:24:28.59	133.06	15.71	-35.4	-46.2	7.5	1.25e-01	1	58	0	889192448	48	8860
2026-01-14 22:24:29.60	133.23	15.64	-37.4	-46.6	9.2	1.80e-01	10	58	0	891289600	54	6531
2026-01-14 22:24:30.61	133.40	15.57	-42.2	-47.1	10.0	4.21e-01	2	58	0	893386752	55	6565
2026-01-14 22:24:31.62	133.56	15.50	-41.1	-47.1	10.0	1.12e+00	0	58	0	893386752	51	8242
2026-01-14 22:24:32.63	133.73	15.42	-37.7	-46.2	8.4	5.24e-02	3	58	0	895483904	51	7456
2026-01-14 22:24:33.64	133.89	15.35	-41.2	-46.5	9.4	8.04e-02	3	58	0	897581056	51	7687
2026-01-14 22:24:34.65	134.05	15.28	-40.9	-46.4	7.5	5.49e-02	5	58	0	899678208	52	7159
2026-01-14 22:24:35.66	134.22	15.21	-40.8	-46.4	9.9	1.01e-01	0	58	0	900726784	53	6788
2026-01-14 22:24:36.66	134.38	15.14	-32.4	-43.9	7.6	1.53e-01	26	58	0	902823936	52	5348
2026-01-14 22:24:37.67	134.54	15.06	-41.8	-46.9	9.5	3.85e-01	3	58	0	903872512	54	6753
2026-01-14 22:24:38.68	134.70	14.99	-40.1	-47.0	7.0	3.81e-01	22	58	0	905969664	45	11427
2026-01-14 22:24:39.69	134.86	14.92	-41.4	-46.7	8.6	4.46e-01	10	58	0	907018240	52	7400
2026-01-14 22:24:40.70	135.02	14.85	-31.7	-45.1	6.6	7.52e-01	31	58	0	909115392	39	12963
2026-01-14 22:24:41.71	135.17	14.77	-27.3	-40.8	4.2	1.47e+00	0	58	104	909115392	21	22398
2026-01-14 22:24:42.72	135.33	14.70	-23.7	-38.7	4.2	1.46e+00	0	58	104	909115392	20	18639
2026-01-14 22:24:43.73	135.49	14.63	-23.6	-38.2	4.6	1.49e+00	0	58	104	909115392	23	14752
2026-01-14 22:24:44.74	135.64	14.56	-25.3	-40.5	4.4	1.48e+00	0	58	104	909115392	22	20531
2026-01-14 22:24:45.75	135.80	14.48	-27.7	-42.1	4.7	1.47e+00	0	58	104	909115392	27	18378
2026-01-14 22:24:46.76	135.95	14.41	-29.7	-42.7	4.6	1.32e+00	0	58	104	909115392	32	14826
2026-01-14 22:24:47.77	136.11	14.34	-24.2	-39.5	4.6	8.31e-01	0	58	0	909115392	24	16156
2026-01-14 22:24:48.78	136.26	14.27	-39.7	-46.2	4.8	1.25e+00	0	58	104	909115392	33	20801
2026-01-14 22:24:49.79	136.41	14.19	-30.6	-45.9	7.2	1.24e+00	5	58	0	909115392	38	15064
2026-01-14 22:24:50.80	136.56	14.12	-40.7	-46.8	4.9	3.00e-01	0	58	104	910163968	33	22289
2026-01-14 22:24:51.80	136.71	14.05	-41.9	-47.1	9.2	7.03e-01	3	58	104	910163968	54	6920
2026-01-14 22:24:52.81	136.86	13.98	-41.9	-47.2	9.5	1.43e-01	2	58	0	911212544	54	6996
2026-01-14 22:24:53.82	137.01	13.91	-41.6	-47.0	8.7	1.40e-01	5	58	0	913309696	54	6879
2026-01-14 22:24:54.83	137.16	13.83	-40.3	-46.5	9.8	1.99e-01	3	58	0	914358272	53	6823
2026-01-14 22:24:55.84	137.31	13.76	-41.2	-46.9	9.0	1.07e-01	10	58	0	916455424	54	6725
2026-01-14 22:24:56.85	137.45	13.69	-38.8	-46.4	9.0	1.30e-01	11	58	0	918552576	51	7553
2026-01-14 22:24:57.86	137.60	13.62	-31.3	-44.5	6.0	2.82e-01	88	58	0	919601152	33	17254
2026-01-14 22:24:58.87	137.75	13.55	-41.7	-46.6	10.0	1.54e-01	3	58	0	921698304	54	6570
2026-01-14 22:24:59.88	137.89	13.47	-36.3	-45.8	10.0	1.30e-01	4	58	0	922746880	52	6670
2026-01-14 22:25:00.89	138.04	13.40	-41.9	-46.6	10.5	1.01e-01	0	58	0	924844032	54	6536
2026-01-14 22:25:01.90	138.18	13.33	-37.0	-45.4	9.2	3.14e-01	22	58	0	925892608	53	6017
2026-01-14 22:25:02.91	138.32	13.26	-42.1	-46.7	10.3	6.09e-02	3	58	0	927989760	54	6597
2026-01-14 22:25:03.92	138.46	13.19	-42.0	-46.9	10.2	5.34e-02	0	58	0	930086912	54	6725
2026-01-14 22:25:04.93	138.61	13.11	-41.9	-46.8	9.8	7.64e-02	2	58	0	932184064	54	6705
2026-01-14 22:25:05.94	138.75	13.04	-42.0	-47.0	9.6	2.55e-02	0	58	0	934281216	54	6810
2026-01-14 22:25:06.95	138.89	12.97	-42.1	-46.9	10.3	2.53e-01	0	58	0	935329792	54	6795
2026-01-14 22:25:07.96	139.03	12.90	-42.6	-47.2	10.2	2.16e-02	0	58	0	937426944	54	7009
2026-01-14 22:25:08.96	139.17	12.83	-42.6	-47.6	9.5	2.47e-02	0	58	0	939524096	55	6927
2026-01-14 22:25:09.97	139.30	12.76	-40.1	-46.9	8.4	2.03e-02	0	58	0	941621248	51	8083
2026-01-14 22:25:10.98	139.44	12.69	-42.3	-47.1	10.3	1.32e-02	0	58	0	943718400	55	6564
2026-01-14 22:25:11.99	139.58	12.62	-42.3	-47.4	10.0	8.24e-03	0	58	0	944766976	55	6731
2026-01-14 22:25:13.00	139.72	12.54	-42.3	-47.2	10.2	2.78e-02	0	58	0	946864128	55	6614
2026-01-14 22:25:14.01	139.85	12.47	-42.3	-47.4	10.0	8.12e-03	0	58	0	948961280	55	6777
2026-01-14 22:25:15.01	139.98	12.40	-42.4	-47.5	9.8	1.31e-02	0	58	0	951058432	55	6870
2026-01-14 22:25:16.02	140.12	12.33	-42.4	-47.5	9.8	1.84e-02	0	58	0	953155584	55	6841
2026-01-14 22:25:17.03	140.25	12.26	-42.4	-47.6	9.6	1.20e-02	0	58	0	955252736	55	6952
2026-01-14 22:25:18.04	140.39	12.19	-42.4	-47.7	9.6	1.31e-02	0	58	0	956301312	55	6972
2026-01-14 22:25:19.05	140.52	12.12	-42.4	-47.7	9.7	1.11e-02	0	58	0	958398464	55	6997
2026-01-14 22:25:20.06	140.65	12.05	-42.4	-47.7	9.6	1.30e-02	0	58	0	960495616	55	7002
2026-01-14 22:25:21.07	140.78	11.98	-42.4	-47.6	9.7	1.04e-02	0	58	0	962592768	55	6899
2026-01-14 22:25:22.08	140.91	11.91	-42.4	-47.7	9.6	1.23e-02	0	58	0	964689920	55	7006
2026-01-14 22:25:23.09	141.04	11.84	-42.4	-47.6	9.7	1.22e-02	0	58	0	965738496	55	6950
2026-01-14 22:25:24.10	141.17	11.77	-42.4	-47.5	9.8	1.09e-02	0	58	0	967835648	55	6873
2026-01-14 22:25:25.11	141.30	11.70	-42.3	-47.5	9.7	1.07e-02	0	58	0	969932800	55	6850
2026-01-14 22:25:26.12	141.43	11.63	-42.3	-47.3	9.9	9.16e-03	0	58	0	972029952	55	6720
2026-01-14 22:25:27.13	141.56	11.56	-42.3	-47.4	9.8	8.47e-03	0	58	0	974127104	55	6773
2026-01-14 22:25:28.14	141.69	11.48	-42.3	-47.6	9.7	1.10e-02	0	58	0	975175680	55	6899
2026-01-14 22:25:29.15	141.81	11.41	-42.3	-47.6	9.6	1.18e-02	0	58	0	977272832	55	6904
2026-01-14 22:25:30.15	141.94	11.35	-42.4	-47.9	9.3	1.42e-02	0	58	0	979369984	55	7124
2026-01-14 22:25:31.16	142.06	11.28	-42.4	-47.9	9.3	1.82e-02	0	58	0	981467136	55	7171
2026-01-14 22:25:32.17	142.19	11.21	-42.5	-48.1	9.0	2.06e-02	0	58	0	983564288	55	7306
2026-01-14 22:25:33.18	142.31	11.14	-42.5	-48.3	8.9	2.65e-02	0	58	0	984612864	55	7477
2026-01-14 22:25:34.19	142.44	11.07	-42.6	-48.4	8.7	3.48e-02	0	58	0	986710016	55	7606
2026-01-14 22:25:35.20	142.56	11.00	-42.6	-48.6	8.5	3.94e-02	0	58	0	988807168	55	7795
2026-01-14 22:25:36.21	142.68	10.93	-42.7	-48.8	8.4	4.73e-02	0	58	0	990904320	55	7901
2026-01-14 22:25:37.22	142.80	10.86	-42.7	-48.8	8.4	4.92e-02	0	58	0	993001472	55	7911
2026-01-14 22:25:38.24	142.93	10.79	-42.8	-49.1	8.2	5.15e-02	0	58	0	994050048	56	7752
2026-01-14 22:25:39.25	143.05	10.72	-42.9	-49.3	8.0	6.02e-02	0	58	0	996147200	56	7963
2026-01-14 22:25:40.26	143.17	10.65	-42.9	-49.3	8.0	5.71e-02	0	58	0	998244352	56	7941
2026-01-14 22:25:41.26	143.29	10.58	-42.9	-49.2	8.1	6.08e-02	0	58	0	1000341504	56	7818
2026-01-14 22:25:42.27	143.41	10.51	-42.8	-49.0	8.2	6.16e-02	0	58	0	1002438656	56	7677
2026-01-14 22:25:43.28	143.53	10.44	-42.8	-48.9	8.4	4.95e-02	0	58	0	1003487232	56	7545
2026-01-14 22:25:44.29	143.64	10.37	-42.8	-48.9	8.3	4.97e-02	0	58	0	1005584384	56	7627
2026-01-14 22:25:45.30	143.76	10.30	-42.7	-48.7	8.4	4.40e-02	0	58	0	1007681536	55	7879
2026-01-14 22:25:46.31	143.88	10.24	-42.7	-48.8	8.3	5.06e-02	0	58	0	1009778688	55	7968
2026-01-14 22:25:47.32	144.00	10.17	-42.7	-49.0	8.1	5.78e-02	0	58	0	1011875840	55	8112
2026-01-14 22:25:48.33	144.11	10.10	-42.8	-49.2	8.1	5.93e-02	0	58	0	1012924416	56	7864
2026-01-14 22:25:49.34	144.23	10.03	-42.8	-49.1	8.1	5.94e-02	0	58	0	1015021568	56	7764
2026-01-14 22:25:50.34	144.34	9.96	-42.8	-49.0	8.2	6.00e-02	0	58	0	1017118720	56	7687
2026-01-14 22:25:51.35	144.46	9.89	-42.8	-49.0	8.2	5.36e-02	0	58	0	1019215872	56	7676
2026-01-14 22:25:52.37	144.57	9.83	-42.8	-49.1	8.1	5.41e-02	0	58	0	1021313024	56	7725
2026-01-14 22:25:53.37	144.68	9.76	-42.7	-48.9	8.3	5.70e-02	0	58	0	1022361600	56	7591
2026-01-14 22:25:54.38	144.80	9.69	-42.8	-49.0	8.2	5.17e-02	0	58	0	1024458752	56	7648
2026-01-14 22:25:55.39	144.91	9.62	-42.7	-48.7	8.5	4.60e-02	0	58	0	1026555904	56	7372
2026-01-14 22:25:56.40	145.02	9.55	-42.7	-48.7	8.5	3.90e-02	0	58	0	1028653056	56	7399
2026-01-14 22:25:57.41	145.13	9.49	-42.6	-48.6	8.6	4.17e-02	0	58	0	1030750208	56	7295
2026-01-14 22:25:58.42	145.24	9.42	-42.6	-48.4	8.7	3.84e-02	0	58	0	1031798784	56	7175
2026-01-14 22:25:59.43	145.35	9.35	-42.6	-48.5	8.6	3.58e-02	0	58	0	1033895936	56	7257
2026-01-14 22:26:00.44	145.46	9.28	-42.6	-48.6	8.5	4.09e-02	0	58	0	1035993088	56	7352
2026-01-14 22:26:01.44	145.57	9.22	-42.6	-48.6	8.5	4.22e-02	0	58	0	1038090240	56	7334
2026-01-14 22:26:02.45	145.68	9.15	-42.6	-48.6	8.5	4.78e-02	0	58	0	1040187392	56	7331
2026-01-14 22:26:03.46	145.79	9.08	-42.6	-48.8	8.2	5.24e-02	0	58	0	1041235968	56	7497
2026-01-14 22:26:04.47	145.90	9.02	-42.6	-48.8	8.2	5.17e-02	0	58	0	1043333120	56	7532
2026-01-14 22:26:05.48	146.01	8.95	-42.5	-48.9	8.1	6.03e-02	0	58	0	1045430272	56	7591
2026-01-14 22:26:06.49	146.11	8.88	-42.7	-49.0	8.0	6.86e-02	0	58	0	1047527424	56	7719
2026-01-14 22:26:07.50	146.22	8.82	-42.7	-49.2	7.8	7.69e-02	0	58	0	1049624576	56	7886
2026-01-14 22:26:08.51	146.33	8.75	-42.6	-49.2	7.7	8.30e-02	0	58	0	1051721728	56	7856
2026-01-14 22:26:09.52	146.43	8.68	-42.6	-49.2	7.7	8.17e-02	0	58	0	1052770304	56	7854
2026-01-14 22:26:10.53	146.54	8.62	-42.6	-49.1	7.8	8.81e-02	0	58	0	1054867456	56	7761
2026-01-14 22:26:11.54	146.64	8.55	-42.6	-49.0	7.9	7.59e-02	0	58	0	1056964608	56	7714
2026-01-14 22:26:12.55	146.75	8.48	-42.5	-48.7	8.2	6.75e-02	0	58	0	1059061760	56	7399
2026-01-14 22:26:13.55	146.85	8.42	-42.5	-48.6	8.3	5.05e-02	0	58	0	1061158912	56	7333
2026-01-14 22:26:14.56	146.95	8.35	-42.4	-48.5	8.5	4.36e-02	0	58	0	1062207488	56	7206
2026-01-14 22:26:15.57	147.06	8.29	-42.3	-48.3	8.6	3.99e-02	0	58	0	1064304640	56	7051
2026-01-14 22:26:16.58	147.16	8.22	-42.3	-48.1	8.7	3.51e-02	0	58	0	1066401792	56	6936
2026-01-14 22:26:17.59	147.26	8.15	-42.2	-48.0	8.9	2.68e-02	0	58	0	1068498944	56	6835
2026-01-14 22:26:18.60	147.36	8.09	-42.2	-48.0	8.8	2.84e-02	0	58	0	1070596096	56	6821
2026-01-14 22:26:19.61	147.46	8.02	-43.4	-52.7	5.6	7.53e-02	0	58	0	1071644672	57	11145
2026-01-14 22:26:20.62	147.56	7.96	-44.4	-58.3	3.8	1.49e+00	0	58	104	1072693248	59	18836
2026-01-14 22:26:21.63	147.67	7.89	-44.5	-59.3	3.8	1.49e+00	0	58	104	1072693248	60	19979
2026-01-14 22:26:22.64	147.77	7.83	-45.0	-59.6	3.8	1.49e+00	0	58	104	1072693248	60	20719
2026-01-14 22:26:23.65	147.86	7.76	-45.1	-59.8	3.8	1.49e+00	0	58	104	1072693248	60	21157
2026-01-14 22:26:24.66	147.96	7.69	-45.2	-59.9	3.8	1.49e+00	0	58	104	1072693248	61	20241
2026-01-14 22:26:25.67	148.06	7.63	-45.3	-60.0	3.8	1.49e+00	0	58	104	1072693248	61	20470
2026-01-14 22:26:26.68	148.16	7.56	-45.4	-60.0	3.8	1.49e+00	0	58	104	1072693248	61	20536
2026-01-14 22:26:27.69	148.26	7.50	-45.4	-60.0	3.8	1.49e+00	0	58	104	1072693248	61	20515
2026-01-14 22:26:28.70	148.36	7.44	-45.4	-60.0	3.8	1.49e+00	0	58	104	1072693248	61	20436
2026-01-14 22:26:29.70	148.45	7.37	-45.3	-59.9	3.8	1.49e+00	0	58	104	1072693248	61	20241
2026-01-14 22:26:30.71	148.55	7.31	-45.3	-59.8	3.8	1.49e+00	0	58	104	1072693248	61	19933
2026-01-14 22:26:31.72	148.64	7.24	-45.2	-59.7	3.8	1.49e+00	0	58	104	1072693248	61	19815
2026-01-14 22:26:32.73	148.74	7.18	-45.2	-59.7	3.8	1.49e+00	0	58	104	1072693248	61	19730
2026-01-14 22:26:33.74	148.84	7.11	-45.2	-59.7	3.8	1.49e+00	0	58	104	1072693248	61	19647
2026-01-14 22:26:34.75	148.93	7.05	-45.1	-59.6	3.8	1.49e+00	0	58	104	1072693248	61	19542
2026-01-14 22:26:35.76	149.03	6.98	-45.1	-59.6	3.8	1.49e+00	0	58	104	1072693248	61	19554
2026-01-14 22:26:36.76	149.12	6.92	-45.1	-59.6	3.8	1.49e+00	0	58	104	1072693248	61	19576
2026-01-14 22:26:37.77	149.21	6.86	-45.1	-59.6	3.8	1.49e+00	0	58	104	1072693248	61	19573
