passes_logs/2026/01/14/R2.0S_Moscow/R2.0S_Moscow__20260114_104349_FENGYUN_3D_rec.log

#Pass ID: 20260114_104349_FENGYUN 3D
#Satellite: FENGYUN 3D
#Configuration: FENGYUN 3D
#almurnet v.1.7.20251203
#Start time: 2026-01-14 10:43:51

#Version: 2.2.20231116
#Station: R2.0S_Moscow
#Location: 37.707566 lon 55.798166 lat
#TLE: 1 43010U 17072A   26013.31211337  .00000452  00000+0  23563-3 0  9990
#TLE: 2 43010  98.9934 345.1024 0002270 111.0315 249.1103 14.19696845423017

#Time	Az	El	Level	Level2	SNR	BER	BlckErr	Temp	State	Recorded	gain1	gain2
2026-01-14 10:43:51.21	124.43	2.09	-19.2	-33.7	3.6	8.22e-01	0	51	0	0	13	15645
2026-01-14 10:43:52.21	124.38	2.15	-21.7	-35.8	3.8	8.22e-01	0	51	104	0	11	22404
2026-01-14 10:43:53.22	124.33	2.21	-13.2	-26.2	3.9	8.39e-01	0	51	104	0	0	13915
2026-01-14 10:43:54.23	124.28	2.27	-11.5	-26.1	3.9	8.45e-01	0	51	104	0	0	13851
2026-01-14 10:43:55.24	124.23	2.34	-12.0	-26.5	3.8	8.45e-01	0	51	104	0	0	14525
2026-01-14 10:43:56.25	124.18	2.40	-11.5	-27.2	3.8	8.45e-01	0	51	104	0	1	14743
2026-01-14 10:43:57.26	124.12	2.46	-13.2	-27.2	3.3	8.31e-01	0	51	104	0	5	11714
2026-01-14 10:43:58.27	124.07	2.52	-12.3	-27.1	4.1	8.34e-01	0	51	104	0	0	15547
2026-01-14 10:43:59.28	124.02	2.58	-16.2	-26.9	3.9	8.31e-01	0	52	104	0	1	14210
2026-01-14 10:44:00.29	123.97	2.64	-12.9	-27.0	3.9	8.28e-01	0	52	104	0	1	14504
2026-01-14 10:44:01.30	123.91	2.70	-13.5	-26.8	4.0	8.32e-01	0	52	104	0	0	14978
2026-01-14 10:44:02.31	123.86	2.77	-12.4	-26.5	3.5	8.42e-01	0	52	104	0	0	14483
2026-01-14 10:44:03.32	123.81	2.83	-15.0	-28.8	3.6	8.41e-01	0	52	104	0	0	18809
2026-01-14 10:44:04.33	123.76	2.89	-12.3	-26.3	3.8	8.46e-01	0	52	104	0	0	14069
2026-01-14 10:44:05.34	123.70	2.95	-19.2	-30.0	3.6	8.39e-01	0	52	104	0	3	18099
2026-01-14 10:44:06.35	123.65	3.02	-11.4	-26.1	3.9	8.38e-01	0	52	104	0	0	13780
2026-01-14 10:44:07.36	123.59	3.08	-16.0	-30.1	3.7	8.30e-01	0	52	104	0	6	15479
2026-01-14 10:44:08.38	123.54	3.14	-16.9	-30.7	3.6	8.25e-01	0	52	104	0	8	14719
2026-01-14 10:44:09.38	123.49	3.20	-12.6	-29.0	3.8	8.33e-01	0	52	104	0	3	16248
2026-01-14 10:44:10.39	123.43	3.27	-19.6	-34.5	3.6	8.21e-01	0	52	104	0	11	19225
2026-01-14 10:44:11.40	123.38	3.33	-17.7	-29.5	3.6	8.31e-01	0	52	0	0	2	18277
2026-01-14 10:44:12.42	123.32	3.39	-17.5	-33.6	3.8	8.18e-01	0	52	104	0	8	20543
2026-01-14 10:44:13.43	123.26	3.46	-18.8	-34.9	3.8	8.18e-01	0	53	104	0	12	18970
2026-01-14 10:44:14.44	123.21	3.52	-18.9	-33.4	3.7	8.18e-01	0	53	0	0	9	19017
2026-01-14 10:44:15.45	123.15	3.58	-20.3	-35.5	3.6	8.24e-01	0	53	104	0	11	21588
2026-01-14 10:44:16.46	123.10	3.65	-19.0	-34.1	3.8	8.23e-01	0	53	0	0	13	16359
2026-01-14 10:44:17.47	123.04	3.71	-21.9	-35.9	3.7	8.26e-01	0	53	0	0	10	24127
2026-01-14 10:44:18.48	122.98	3.77	-20.2	-33.3	3.8	8.25e-01	0	53	104	0	11	16780
2026-01-14 10:44:19.49	122.93	3.84	-20.1	-33.5	3.9	8.26e-01	0	53	104	0	13	15242
2026-01-14 10:44:20.50	122.87	3.90	-20.6	-35.2	3.6	8.22e-01	0	53	104	0	11	20907
2026-01-14 10:44:21.50	122.81	3.97	-21.1	-34.4	3.5	8.19e-01	0	53	104	0	9	21453
2026-01-14 10:44:22.52	122.75	4.03	-21.6	-35.5	3.6	8.21e-01	0	53	104	0	11	21704
2026-01-14 10:44:23.53	122.70	4.09	-21.1	-32.6	3.8	8.21e-01	0	53	104	0	8	18447
2026-01-14 10:44:24.54	122.64	4.16	-19.0	-34.2	3.8	8.22e-01	0	53	104	0	12	17518
2026-01-14 10:44:25.55	122.58	4.22	-22.0	-37.2	3.6	8.27e-01	0	53	104	0	13	23481
2026-01-14 10:44:26.56	122.52	4.29	-18.1	-31.7	3.8	8.28e-01	0	53	104	0	4	20886
2026-01-14 10:44:27.57	122.46	4.35	-17.2	-30.8	3.8	8.19e-01	0	54	104	0	8	15007
2026-01-14 10:44:28.58	122.40	4.42	-22.7	-34.3	3.4	8.23e-01	0	54	104	0	2	31631
2026-01-14 10:44:29.59	122.34	4.48	-20.1	-32.1	3.7	8.14e-01	0	54	104	0	2	24519
2026-01-14 10:44:30.60	122.28	4.55	-18.2	-33.7	3.6	8.26e-01	0	54	104	0	9	19742
2026-01-14 10:44:31.61	122.22	4.61	-20.4	-35.3	3.9	8.18e-01	0	54	104	0	9	23782
2026-01-14 10:44:32.62	122.16	4.68	-15.4	-28.9	3.5	8.21e-01	0	54	104	0	5	14351
2026-01-14 10:44:33.63	122.10	4.75	-20.3	-36.1	3.9	8.24e-01	0	54	104	0	12	21943
2026-01-14 10:44:34.64	122.04	4.81	-21.6	-33.1	3.8	8.26e-01	0	54	104	0	11	16403
2026-01-14 10:44:35.65	121.98	4.88	-19.6	-33.4	3.6	8.24e-01	0	54	104	0	7	21419
2026-01-14 10:44:36.66	121.92	4.94	-20.6	-33.4	3.7	8.20e-01	0	54	0	0	11	17082
2026-01-14 10:44:37.67	121.85	5.01	-22.4	-35.1	3.6	8.19e-01	0	54	104	0	11	20561
2026-01-14 10:44:38.68	121.79	5.08	-21.7	-34.3	3.6	8.18e-01	0	54	104	0	11	18763
2026-01-14 10:44:39.69	121.73	5.14	-14.7	-27.6	3.8	8.18e-01	0	54	104	0	4	13040
2026-01-14 10:44:40.70	121.67	5.21	-19.9	-34.0	3.9	8.30e-01	0	54	104	0	10	19306
2026-01-14 10:44:41.71	121.60	5.28	-15.4	-31.4	3.7	8.19e-01	0	54	104	0	11	13546
2026-01-14 10:44:42.72	121.54	5.34	-20.8	-32.8	3.6	8.16e-01	0	54	104	0	6	21205
2026-01-14 10:44:43.73	121.48	5.41	-13.4	-31.0	3.6	8.23e-01	0	54	104	0	7	16165
2026-01-14 10:44:44.74	121.41	5.48	-22.6	-34.2	3.9	8.15e-01	0	54	104	0	9	21007
2026-01-14 10:44:45.75	121.35	5.55	-21.2	-31.7	3.6	8.20e-01	0	55	104	0	0	26314
2026-01-14 10:44:46.76	121.28	5.61	-22.9	-37.6	3.9	8.22e-01	0	55	104	0	14	23288
2026-01-14 10:44:47.77	121.22	5.68	-13.7	-30.4	3.9	8.25e-01	0	55	104	0	10	12712
2026-01-14 10:44:48.78	121.15	5.75	-17.4	-31.5	3.5	8.15e-01	0	55	104	0	4	20511
2026-01-14 10:44:49.79	121.09	5.82	-21.6	-33.7	3.7	8.28e-01	0	55	104	0	12	16549
2026-01-14 10:44:50.80	121.02	5.88	-20.4	-31.8	3.6	8.23e-01	0	55	104	0	6	18771
2026-01-14 10:44:51.80	120.96	5.95	-14.8	-28.2	3.8	8.19e-01	0	55	104	0	0	17588
2026-01-14 10:44:52.81	120.89	6.02	-19.4	-35.4	3.6	8.28e-01	0	55	104	0	9	23951
2026-01-14 10:44:53.83	120.82	6.09	-20.2	-31.9	3.5	8.30e-01	0	55	104	0	9	16002
2026-01-14 10:44:54.84	120.76	6.16	-20.9	-34.5	3.6	8.22e-01	0	55	104	0	13	17238
2026-01-14 10:44:55.85	120.69	6.23	-20.6	-35.4	3.8	8.26e-01	0	55	104	0	13	19021
2026-01-14 10:44:56.86	120.62	6.30	-21.4	-33.5	3.6	8.20e-01	0	55	104	0	10	18269
2026-01-14 10:44:57.87	120.55	6.36	-18.5	-31.3	3.6	8.24e-01	0	55	104	0	9	14998
2026-01-14 10:44:58.88	120.48	6.43	-20.0	-33.7	3.5	8.20e-01	0	55	104	0	10	18578
2026-01-14 10:44:59.89	120.41	6.50	-19.6	-33.7	3.8	8.19e-01	0	55	104	0	11	17682
2026-01-14 10:45:00.90	120.34	6.57	-16.6	-31.9	3.4	8.21e-01	0	55	104	0	8	17037
2026-01-14 10:45:01.91	120.28	6.64	-16.0	-30.7	3.6	8.28e-01	0	55	104	0	3	19707
2026-01-14 10:45:02.92	120.21	6.71	-14.2	-27.0	3.7	8.40e-01	0	55	104	0	0	15234
2026-01-14 10:45:03.93	120.14	6.78	-15.7	-32.4	3.9	8.36e-01	0	55	104	0	8	18017
2026-01-14 10:45:04.94	120.06	6.85	-14.6	-30.1	3.7	8.35e-01	0	55	104	0	1	20726
2026-01-14 10:45:05.95	119.99	6.92	-14.5	-31.0	3.7	8.29e-01	0	55	104	0	5	18251
2026-01-14 10:45:06.96	119.92	6.99	-20.4	-32.9	3.7	8.20e-01	0	56	104	0	10	17021
2026-01-14 10:45:07.97	119.85	7.06	-17.8	-32.4	3.6	8.26e-01	0	56	104	0	7	19078
2026-01-14 10:45:08.98	119.78	7.13	-19.0	-32.7	3.7	8.20e-01	0	56	104	0	6	20839
2026-01-14 10:45:09.99	119.71	7.20	-14.7	-27.7	4.0	8.33e-01	0	56	104	0	5	12490
2026-01-14 10:45:11.00	119.63	7.28	-19.5	-32.0	3.6	8.26e-01	0	56	104	0	9	16155
2026-01-14 10:45:12.01	119.56	7.35	-21.4	-33.6	3.7	8.22e-01	0	56	104	0	9	19450
2026-01-14 10:45:13.02	119.49	7.42	-21.9	-34.6	3.8	8.21e-01	0	56	104	0	9	21875
2026-01-14 10:45:14.03	119.41	7.49	-20.3	-34.9	3.6	8.26e-01	0	56	104	0	10	21311
2026-01-14 10:45:15.04	119.34	7.56	-20.5	-33.0	3.8	8.28e-01	0	56	104	0	10	17117
2026-01-14 10:45:16.05	119.26	7.63	-19.0	-31.6	4.0	8.34e-01	0	56	104	0	8	16494
2026-01-14 10:45:17.06	119.19	7.70	-18.3	-31.0	3.9	8.31e-01	0	56	104	0	8	15298
2026-01-14 10:45:18.07	119.11	7.78	-13.4	-27.6	3.6	8.36e-01	0	56	104	0	6	11611
2026-01-14 10:45:19.09	119.04	7.85	-17.3	-32.6	3.7	8.36e-01	0	56	104	0	11	15458
2026-01-14 10:45:20.10	118.96	7.92	-16.1	-31.0	3.9	8.38e-01	0	56	104	0	2	21538
2026-01-14 10:45:21.11	118.88	7.99	-16.5	-28.7	4.0	8.40e-01	0	56	104	0	4	14788
2026-01-14 10:45:22.12	118.81	8.07	-15.7	-29.4	3.9	8.39e-01	0	56	104	0	4	16093
2026-01-14 10:45:23.13	118.73	8.14	-30.4	-42.4	3.9	8.38e-01	0	56	104	0	33	13566
2026-01-14 10:45:24.14	118.65	8.21	-15.8	-29.1	3.9	8.46e-01	0	56	104	0	2	17356
2026-01-14 10:45:25.15	118.57	8.29	-18.6	-30.2	3.9	8.48e-01	0	56	104	0	7	14849
2026-01-14 10:45:26.16	118.50	8.36	-21.5	-31.4	3.9	8.32e-01	0	56	104	0	14	11384
2026-01-14 10:45:27.17	118.42	8.43	-21.0	-33.8	3.5	8.25e-01	0	56	104	0	10	18891
2026-01-14 10:45:28.18	118.34	8.51	-21.3	-32.6	3.7	8.34e-01	0	56	104	0	9	17352
2026-01-14 10:45:29.19	118.26	8.58	-18.2	-31.4	3.7	8.32e-01	0	56	104	0	14	11291
2026-01-14 10:45:30.20	118.18	8.65	-19.7	-32.7	3.8	8.28e-01	0	56	104	0	13	14013
2026-01-14 10:45:31.21	118.10	8.73	-21.4	-34.3	3.7	8.33e-01	0	56	104	0	10	19988
2026-01-14 10:45:32.22	118.02	8.80	-22.5	-35.5	4.1	8.36e-01	0	57	104	0	14	18123
2026-01-14 10:45:33.23	117.93	8.88	-23.9	-37.9	3.6	8.24e-01	0	57	104	0	16	21271
2026-01-14 10:45:34.24	117.85	8.95	-24.7	-34.9	4.0	8.32e-01	0	57	104	0	14	17020
2026-01-14 10:45:35.25	117.77	9.03	-19.4	-31.0	3.6	8.26e-01	0	57	104	0	8	15265
2026-01-14 10:45:36.26	117.69	9.10	-21.5	-31.0	3.7	8.30e-01	0	57	104	0	10	13710
2026-01-14 10:45:37.27	117.60	9.18	-20.1	-33.0	3.8	8.31e-01	0	57	104	0	14	13686
2026-01-14 10:45:38.28	117.52	9.25	-22.7	-34.0	3.9	8.34e-01	0	57	104	0	14	15366
2026-01-14 10:45:39.29	117.44	9.33	-23.2	-33.8	4.0	8.35e-01	0	57	104	0	18	11953
2026-01-14 10:45:40.30	117.35	9.40	-23.7	-35.6	4.2	8.31e-01	0	57	104	0	16	16411
2026-01-14 10:45:41.31	117.27	9.48	-24.4	-36.3	4.2	8.33e-01	0	57	104	0	15	18849
2026-01-14 10:45:42.32	117.18	9.56	-24.3	-36.3	4.2	8.34e-01	0	57	104	0	17	16857
2026-01-14 10:45:43.33	117.10	9.63	-23.8	-36.8	4.3	8.39e-01	0	57	104	0	14	21027
2026-01-14 10:45:44.34	117.01	9.71	-21.8	-35.2	4.2	8.34e-01	0	57	104	0	18	13937
2026-01-14 10:45:45.35	116.92	9.78	-25.6	-37.3	4.0	8.32e-01	0	57	104	0	18	17699
2026-01-14 10:45:46.36	116.84	9.86	-22.3	-34.4	3.6	8.36e-01	0	57	104	0	12	17988
2026-01-14 10:45:47.37	116.75	9.94	-25.2	-36.7	3.9	8.34e-01	0	57	104	0	18	16655
2026-01-14 10:45:48.38	116.66	10.02	-23.2	-35.8	4.0	8.35e-01	0	57	104	0	19	14086
2026-01-14 10:45:49.39	116.57	10.09	-23.4	-36.7	4.0	8.32e-01	0	57	104	0	18	16675
2026-01-14 10:45:50.40	116.48	10.17	-27.1	-37.8	3.9	8.36e-01	0	57	104	0	20	16803
2026-01-14 10:45:51.41	116.39	10.25	-24.6	-36.0	4.0	8.36e-01	0	57	104	0	18	15366
2026-01-14 10:45:52.42	116.30	10.33	-27.2	-40.1	4.2	8.38e-01	0	57	104	0	23	18343
2026-01-14 10:45:53.43	116.21	10.40	-27.1	-39.6	4.1	8.33e-01	0	57	104	0	24	16375
2026-01-14 10:45:54.44	116.12	10.48	-24.5	-37.4	4.0	8.35e-01	0	57	104	0	18	17921
2026-01-14 10:45:55.45	116.03	10.56	-26.4	-39.5	4.2	8.34e-01	0	57	104	0	23	17202
2026-01-14 10:45:56.46	115.94	10.64	-32.1	-43.9	4.2	8.40e-01	0	57	104	0	34	15174
2026-01-14 10:45:57.47	115.84	10.72	-25.3	-37.0	4.1	8.33e-01	0	57	104	0	21	14426
2026-01-14 10:45:58.48	115.75	10.80	-23.8	-35.3	3.8	8.29e-01	0	57	0	0	10	22350
2026-01-14 10:45:59.49	115.66	10.87	-23.9	-36.0	3.8	8.27e-01	0	57	104	0	16	17190
2026-01-14 10:46:00.50	115.56	10.95	-18.7	-31.1	3.5	8.31e-01	0	57	104	0	9	14675
2026-01-14 10:46:01.51	115.47	11.03	-24.9	-38.4	3.8	8.21e-01	0	57	104	0	19	19083
2026-01-14 10:46:02.52	115.37	11.11	-19.7	-34.6	3.8	8.35e-01	0	57	104	0	14	16368
2026-01-14 10:46:03.53	115.28	11.19	-22.3	-37.5	4.2	8.35e-01	0	57	104	0	28	10262
2026-01-14 10:46:04.54	115.18	11.27	-24.2	-35.6	4.8	8.41e-01	0	57	104	0	30	7298
2026-01-14 10:46:05.55	115.08	11.35	-22.4	-32.9	4.0	8.24e-01	0	58	104	0	22	8546
2026-01-14 10:46:06.56	114.99	11.43	-24.6	-36.1	3.9	8.34e-01	0	57	0	0	20	13815
2026-01-14 10:46:07.57	114.89	11.51	-29.0	-38.8	6.8	6.39e-01	0	57	0	0	31	10002
2026-01-14 10:46:08.58	114.79	11.59	-32.1	-39.8	7.2	6.45e-01	0	58	0	0	33	9945
2026-01-14 10:46:09.59	114.69	11.67	-34.4	-40.9	6.7	5.77e-01	0	57	0	0	36	9575
2026-01-14 10:46:10.59	114.59	11.75	-33.7	-41.5	6.3	6.31e-01	0	58	0	1048576	35	10858
2026-01-14 10:46:11.60	114.49	11.84	-31.2	-39.9	5.9	7.36e-01	0	58	0	1048576	35	9063
2026-01-14 10:46:12.61	114.39	11.92	-32.4	-41.3	5.7	5.76e-01	0	58	0	1048576	35	10563
2026-01-14 10:46:13.63	114.29	12.00	-32.7	-40.9	6.3	6.14e-01	0	58	0	1048576	34	10715
2026-01-14 10:46:14.64	114.19	12.08	-35.4	-41.8	7.6	5.70e-01	0	58	0	2097152	40	8405
2026-01-14 10:46:15.65	114.08	12.16	-33.9	-41.4	7.6	5.28e-01	0	58	0	5242880	37	9551
2026-01-14 10:46:16.66	113.98	12.25	-35.1	-41.6	7.9	5.24e-01	0	58	0	7340032	38	9207
2026-01-14 10:46:17.67	113.88	12.33	-36.3	-41.5	9.3	4.98e-01	0	58	0	10485760	42	7207
2026-01-14 10:46:18.68	113.77	12.41	-35.8	-41.5	9.1	2.92e-01	0	58	0	14680064	42	7205
2026-01-14 10:46:19.69	113.67	12.49	-36.5	-41.7	7.9	3.60e-01	0	58	0	17825792	42	7444
2026-01-14 10:46:20.70	113.56	12.58	-33.4	-41.4	8.0	3.10e-01	0	58	0	22020096	40	7998
2026-01-14 10:46:21.71	113.46	12.66	-37.3	-41.9	8.7	1.56e-01	0	58	0	27262976	44	6733
2026-01-14 10:46:22.71	113.35	12.74	-32.8	-40.9	10.3	2.24e-01	0	58	0	30408704	42	6783
2026-01-14 10:46:23.72	113.24	12.82	-32.9	-41.3	7.1	1.72e-01	0	58	0	34603008	44	6323
2026-01-14 10:46:24.73	113.14	12.91	-38.1	-42.2	10.6	9.69e-02	0	58	0	39845888	46	6222
2026-01-14 10:46:25.74	113.03	12.99	-38.0	-42.0	11.3	7.78e-02	0	58	0	46137344	47	5763
2026-01-14 10:46:26.75	112.92	13.08	-31.8	-41.2	7.1	6.44e-02	0	58	0	51380224	42	7024
2026-01-14 10:46:27.76	112.81	13.16	-38.7	-41.6	12.1	1.26e-02	0	58	0	56623104	47	5512
2026-01-14 10:46:28.77	112.70	13.24	-39.0	-41.9	11.6	9.17e-03	0	58	0	62914560	48	5365
2026-01-14 10:46:29.78	112.59	13.33	-38.8	-41.4	12.9	1.70e-03	0	58	0	68157440	48	5091
2026-01-14 10:46:30.79	112.47	13.41	-38.9	-41.4	13.0	1.35e-03	0	58	0	73400320	48	5070
2026-01-14 10:46:31.80	112.36	13.50	-38.9	-41.4	13.0	2.20e-04	0	58	0	79691776	48	5057
2026-01-14 10:46:32.81	112.25	13.58	-38.9	-41.3	13.0	9.76e-04	0	58	0	84934656	48	5028
2026-01-14 10:46:33.82	112.14	13.67	-39.0	-41.5	13.0	1.05e-03	0	58	0	91226112	48	5105
2026-01-14 10:46:34.82	112.02	13.75	-39.3	-41.4	12.4	2.32e-04	0	58	0	96468992	48	5088
2026-01-14 10:46:35.83	111.91	13.84	-38.9	-41.4	13.1	2.89e-04	0	58	0	102760448	48	5053
2026-01-14 10:46:36.84	111.79	13.92	-38.8	-41.3	13.2	1.30e-04	0	58	0	108003328	48	4989
2026-01-14 10:46:37.85	111.68	14.01	-38.8	-41.2	13.3	2.23e-04	0	58	0	113246208	48	4955
2026-01-14 10:46:38.86	111.56	14.10	-38.5	-41.0	13.2	1.48e-03	0	58	0	119537664	47	5124
2026-01-14 10:46:39.87	111.44	14.18	-38.3	-40.9	13.4	2.04e-04	0	58	0	124780544	47	5048
2026-01-14 10:46:40.88	111.32	14.27	-38.3	-40.7	13.4	5.35e-04	0	58	0	131072000	47	4978
2026-01-14 10:46:41.89	111.20	14.36	-38.4	-40.8	13.6	1.86e-04	0	58	0	136314880	47	5008
2026-01-14 10:46:42.90	111.08	14.44	-38.4	-40.7	13.7	2.79e-03	0	58	0	141557760	47	4949
2026-01-14 10:46:43.91	110.96	14.53	-37.9	-40.7	13.7	5.94e-04	0	58	0	147849216	47	4943
2026-01-14 10:46:44.92	110.84	14.62	-38.3	-40.6	13.8	3.35e-04	0	58	0	153092096	47	4919
2026-01-14 10:46:45.93	110.72	14.70	-38.3	-40.7	13.8	6.63e-05	0	58	0	159383552	47	4927
2026-01-14 10:46:46.94	110.60	14.79	-38.4	-40.6	13.6	1.08e-03	0	58	0	164626432	47	4919
2026-01-14 10:46:47.96	110.47	14.88	-38.2	-40.7	13.7	3.79e-04	0	58	0	169869312	47	4942
2026-01-14 10:46:48.97	110.35	14.97	-38.4	-40.7	13.8	2.09e-04	0	58	0	176160768	47	4945
2026-01-14 10:46:49.98	110.22	15.06	-38.4	-40.7	13.8	9.38e-05	0	58	0	181403648	47	4941
2026-01-14 10:46:50.98	110.10	15.14	-38.4	-40.7	13.9	6.80e-06	0	58	0	187695104	47	4928
2026-01-14 10:46:51.99	109.97	15.23	-38.4	-40.7	13.8	3.66e-05	0	58	0	192937984	47	4937
2026-01-14 10:46:53.00	109.84	15.32	-38.3	-40.6	13.9	2.91e-04	0	59	0	199229440	47	4906
2026-01-14 10:46:54.01	109.71	15.41	-37.6	-40.6	13.9	5.49e-05	0	59	0	204472320	47	4888
2026-01-14 10:46:55.02	109.59	15.50	-38.1	-40.5	14.0	5.60e-05	0	59	0	210763776	47	4845
2026-01-14 10:46:56.03	109.46	15.59	-38.3	-40.6	13.9	5.49e-05	0	59	0	216006656	47	4875
2026-01-14 10:46:57.04	109.33	15.68	-38.3	-40.6	14.0	1.37e-05	0	59	0	221249536	47	4884
2026-01-14 10:46:58.05	109.19	15.77	-38.3	-40.5	14.0	1.02e-05	0	59	0	227540992	47	4855
2026-01-14 10:46:59.06	109.06	15.86	-38.2	-40.5	14.0	8.00e-06	0	59	0	232783872	47	4819
2026-01-14 10:47:00.07	108.93	15.95	-37.9	-40.4	13.9	1.83e-05	0	59	0	239075328	47	4787
2026-01-14 10:47:01.08	108.80	16.04	-38.2	-40.4	14.2	1.83e-05	0	59	0	244318208	47	4782
2026-01-14 10:47:02.09	108.66	16.13	-38.2	-40.3	14.3	3.40e-06	0	59	0	249561088	47	4746
2026-01-14 10:47:03.10	108.53	16.22	-38.1	-40.3	14.3	3.08e-05	0	59	0	255852544	47	4728
2026-01-14 10:47:04.11	108.39	16.31	-38.1	-40.3	14.3	0.00e+00	0	59	0	261095424	47	4709
2026-01-14 10:47:05.12	108.25	16.40	-38.0	-40.2	14.4	4.50e-06	0	59	0	267386880	47	4677
2026-01-14 10:47:06.13	108.11	16.49	-38.0	-40.1	14.5	4.50e-06	0	59	0	272629760	47	4635
2026-01-14 10:47:07.14	107.98	16.58	-38.0	-40.1	14.5	4.92e-05	0	59	0	277872640	46	4897
2026-01-14 10:47:08.15	107.84	16.67	-38.0	-40.1	14.5	5.26e-05	0	59	0	284164096	46	4887
2026-01-14 10:47:09.16	107.70	16.77	-38.0	-40.1	14.4	3.54e-05	0	59	0	289406976	46	4888
2026-01-14 10:47:10.17	107.55	16.86	-37.9	-40.0	14.5	7.78e-05	0	59	0	295698432	46	4856
2026-01-14 10:47:11.18	107.41	16.95	-37.3	-39.9	14.6	5.83e-05	0	59	0	300941312	46	4801
2026-01-14 10:47:12.19	107.27	17.04	-37.5	-40.0	13.8	6.80e-06	0	59	0	307232768	46	4817
2026-01-14 10:47:13.20	107.13	17.13	-37.9	-40.0	14.6	6.17e-05	0	59	0	312475648	46	4828
2026-01-14 10:47:14.21	106.98	17.23	-37.8	-40.0	14.5	2.28e-05	0	59	0	317718528	46	4859
2026-01-14 10:47:15.22	106.84	17.32	-37.9	-40.0	14.6	0.00e+00	0	59	0	324009984	46	4825
2026-01-14 10:47:16.23	106.69	17.41	-37.9	-40.0	14.6	0.00e+00	0	59	0	329252864	46	4834
2026-01-14 10:47:17.23	106.54	17.50	-37.9	-40.0	14.5	6.80e-06	0	59	0	335544320	46	4835
2026-01-14 10:47:18.24	106.39	17.60	-37.9	-40.0	14.6	1.10e-06	0	59	0	340787200	46	4843
2026-01-14 10:47:19.25	106.24	17.69	-37.9	-40.0	14.6	1.10e-06	0	59	0	346030080	46	4856
2026-01-14 10:47:20.26	106.09	17.78	-37.9	-40.0	14.7	0.00e+00	0	59	0	352321536	46	4830
2026-01-14 10:47:21.27	105.94	17.88	-37.8	-39.8	14.8	0.00e+00	0	59	0	357564416	46	4736
2026-01-14 10:47:22.28	105.79	17.97	-37.8	-39.8	14.9	3.40e-06	0	59	0	363855872	46	4732
2026-01-14 10:47:23.29	105.64	18.06	-37.8	-39.8	14.9	4.50e-06	0	59	0	369098752	46	4712
2026-01-14 10:47:24.30	105.48	18.16	-37.6	-39.7	14.8	0.00e+00	0	59	0	374341632	46	4654
2026-01-14 10:47:25.31	105.33	18.25	-37.7	-39.6	15.1	1.10e-06	0	59	0	380633088	46	4633
2026-01-14 10:47:26.32	105.17	18.34	-37.6	-39.6	15.1	0.00e+00	0	59	0	385875968	46	4604
2026-01-14 10:47:27.33	105.02	18.44	-37.6	-39.5	15.1	0.00e+00	0	59	0	392167424	46	4597
2026-01-14 10:47:28.34	104.86	18.53	-37.6	-39.5	15.2	0.00e+00	0	59	0	397410304	46	4584
2026-01-14 10:47:29.35	104.70	18.63	-37.5	-39.5	15.1	0.00e+00	0	59	0	403701760	46	4593
2026-01-14 10:47:30.36	104.54	18.72	-37.6	-39.5	15.2	0.00e+00	0	59	0	408944640	46	4580
2026-01-14 10:47:31.37	104.38	18.82	-37.5	-39.5	15.2	0.00e+00	0	59	0	415236096	46	4553
2026-01-14 10:47:32.38	104.21	18.91	-37.5	-39.4	15.3	0.00e+00	0	59	0	420478976	46	4544
2026-01-14 10:47:33.39	104.05	19.01	-37.5	-39.4	15.3	1.10e-06	0	59	0	425721856	46	4513
2026-01-14 10:47:34.40	103.89	19.10	-37.4	-39.4	15.3	0.00e+00	0	59	0	432013312	46	4497
2026-01-14 10:47:35.42	103.72	19.20	-37.4	-39.4	15.4	0.00e+00	0	59	0	437256192	46	4495
2026-01-14 10:47:36.43	103.55	19.29	-37.4	-39.3	15.4	0.00e+00	0	59	0	443547648	46	4476
2026-01-14 10:47:37.44	103.39	19.39	-37.5	-39.4	15.4	0.00e+00	0	59	0	448790528	46	4500
2026-01-14 10:47:38.45	103.22	19.49	-37.4	-39.3	15.4	0.00e+00	0	59	0	454033408	46	4454
2026-01-14 10:47:39.46	103.05	19.58	-37.4	-39.3	15.4	0.00e+00	0	59	0	460324864	46	4479
2026-01-14 10:47:40.46	102.88	19.68	-37.5	-39.4	15.3	0.00e+00	0	59	0	465567744	46	4504
2026-01-14 10:47:41.48	102.71	19.77	-37.5	-39.4	15.3	0.00e+00	0	59	0	471859200	46	4538
2026-01-14 10:47:42.49	102.53	19.87	-37.5	-39.4	15.3	0.00e+00	0	59	0	477102080	46	4539
2026-01-14 10:47:43.50	102.36	19.96	-37.6	-39.6	15.2	0.00e+00	0	59	0	482344960	46	4614
2026-01-14 10:47:44.51	102.19	20.06	-37.6	-39.6	15.1	8.00e-06	0	59	0	488636416	46	4628
2026-01-14 10:47:45.52	102.01	20.16	-37.6	-39.6	15.1	0.00e+00	0	59	0	493879296	46	4617
2026-01-14 10:47:46.53	101.83	20.25	-37.7	-39.7	15.0	1.10e-06	0	59	0	500170752	46	4663
2026-01-14 10:47:47.54	101.65	20.35	-37.6	-39.7	15.0	1.10e-06	0	59	0	505413632	46	4653
2026-01-14 10:47:48.55	101.48	20.45	-37.6	-39.6	15.1	6.80e-06	0	59	0	511705088	46	4632
2026-01-14 10:47:49.56	101.29	20.54	-37.6	-39.5	15.2	1.10e-06	0	59	0	516947968	46	4580
2026-01-14 10:47:50.57	101.11	20.64	-37.5	-39.5	15.2	0.00e+00	0	59	0	523239424	46	4566
2026-01-14 10:47:51.58	100.93	20.74	-37.5	-39.5	15.3	0.00e+00	0	59	0	528482304	46	4549
2026-01-14 10:47:52.59	100.75	20.83	-37.4	-39.4	15.4	0.00e+00	0	59	0	533725184	46	4500
2026-01-14 10:47:53.60	100.56	20.93	-37.4	-39.3	15.4	1.10e-06	0	59	0	540016640	46	4480
2026-01-14 10:47:54.60	100.38	21.03	-37.4	-39.4	15.4	0.00e+00	0	59	0	545259520	46	4495
2026-01-14 10:47:55.61	100.19	21.12	-37.4	-39.4	15.4	0.00e+00	0	59	0	551550976	46	4505
2026-01-14 10:47:56.62	100.00	21.22	-37.4	-39.3	15.3	0.00e+00	0	59	0	556793856	46	4492
2026-01-14 10:47:57.63	99.81	21.32	-37.4	-39.3	15.4	0.00e+00	0	59	0	562036736	46	4478
2026-01-14 10:47:58.64	99.62	21.41	-37.4	-39.3	15.4	0.00e+00	0	59	0	568328192	46	4476
2026-01-14 10:47:59.65	99.43	21.51	-37.3	-39.3	15.4	0.00e+00	0	59	0	573571072	46	4467
2026-01-14 10:48:00.66	99.23	21.61	-37.3	-39.2	15.5	0.00e+00	0	59	0	579862528	46	4437
2026-01-14 10:48:01.67	99.04	21.71	-37.2	-39.2	15.5	0.00e+00	0	59	0	585105408	46	4393
2026-01-14 10:48:02.68	98.84	21.80	-37.2	-39.1	15.6	0.00e+00	0	59	0	590348288	46	4369
2026-01-14 10:48:03.69	98.65	21.90	-37.2	-39.0	15.7	0.00e+00	0	59	0	596639744	46	4337
2026-01-14 10:48:04.70	98.45	22.00	-37.2	-39.1	15.7	0.00e+00	0	59	0	601882624	46	4352
2026-01-14 10:48:05.71	98.25	22.09	-37.2	-39.0	15.7	0.00e+00	0	59	0	608174080	46	4338
2026-01-14 10:48:06.72	98.05	22.19	-37.2	-39.0	15.7	0.00e+00	0	59	0	613416960	46	4335
2026-01-14 10:48:07.73	97.84	22.29	-37.2	-39.1	15.7	0.00e+00	0	59	0	619708416	46	4346
2026-01-14 10:48:08.74	97.64	22.39	-37.2	-39.0	15.7	0.00e+00	0	59	0	624951296	46	4336
2026-01-14 10:48:09.75	97.44	22.48	-37.1	-38.9	15.8	0.00e+00	0	60	0	630194176	46	4286
2026-01-14 10:48:10.76	97.23	22.58	-37.0	-38.8	15.9	0.00e+00	0	59	0	636485632	46	4234
2026-01-14 10:48:11.77	97.02	22.68	-36.9	-38.7	16.1	0.00e+00	0	59	0	641728512	45	4397
2026-01-14 10:48:12.78	96.81	22.78	-36.8	-38.6	16.2	0.00e+00	0	59	0	648019968	45	4356
2026-01-14 10:48:13.79	96.60	22.87	-36.7	-38.5	16.3	0.00e+00	0	59	0	653262848	45	4310
2026-01-14 10:48:14.80	96.39	22.97	-36.8	-38.6	16.1	0.00e+00	0	59	0	658505728	45	4366
2026-01-14 10:48:15.81	96.18	23.07	-36.9	-38.7	16.0	0.00e+00	0	59	0	664797184	45	4421
2026-01-14 10:48:16.82	95.96	23.16	-37.0	-38.8	15.9	0.00e+00	0	59	0	670040064	45	4480
2026-01-14 10:48:17.83	95.75	23.26	-37.0	-38.9	15.9	0.00e+00	0	59	0	676331520	45	4507
2026-01-14 10:48:18.84	95.53	23.36	-37.0	-38.9	15.9	0.00e+00	0	59	0	681574400	45	4503
2026-01-14 10:48:19.85	95.31	23.45	-37.1	-38.9	15.8	0.00e+00	0	59	0	686817280	45	4522
2026-01-14 10:48:20.86	95.09	23.55	-37.1	-38.9	15.8	0.00e+00	0	59	0	693108736	45	4516
2026-01-14 10:48:21.86	94.88	23.64	-37.0	-38.8	15.9	0.00e+00	0	59	0	698351616	45	4465
2026-01-14 10:48:22.87	94.65	23.74	-36.9	-38.7	16.1	0.00e+00	0	60	0	704643072	45	4394
2026-01-14 10:48:23.88	94.43	23.84	-36.8	-38.5	16.2	0.00e+00	0	59	0	709885952	45	4332
2026-01-14 10:48:24.89	94.21	23.93	-36.7	-38.5	16.2	0.00e+00	0	59	0	716177408	45	4302
2026-01-14 10:48:25.90	93.98	24.03	-36.7	-38.4	16.3	0.00e+00	0	60	0	721420288	45	4284
2026-01-14 10:48:26.91	93.75	24.13	-36.7	-38.5	16.3	0.00e+00	0	59	0	727711744	45	4294
2026-01-14 10:48:27.92	93.52	24.22	-36.8	-38.6	16.2	0.00e+00	0	59	0	732954624	45	4341
2026-01-14 10:48:28.93	93.29	24.32	-36.8	-38.6	16.1	0.00e+00	0	60	0	738197504	45	4360
2026-01-14 10:48:29.94	93.06	24.41	-36.8	-38.6	16.1	0.00e+00	0	59	0	744488960	45	4360
2026-01-14 10:48:30.95	92.83	24.51	-36.7	-38.5	16.2	0.00e+00	0	59	0	749731840	45	4321
2026-01-14 10:48:31.96	92.59	24.60	-36.6	-38.4	16.3	0.00e+00	0	60	0	756023296	45	4259
2026-01-14 10:48:32.97	92.36	24.70	-36.5	-38.3	16.4	0.00e+00	0	60	0	761266176	45	4208
2026-01-14 10:48:33.98	92.12	24.79	-36.5	-38.3	16.4	0.00e+00	0	59	0	766509056	45	4211
2026-01-14 10:48:34.99	91.88	24.89	-36.5	-38.2	16.5	0.00e+00	0	59	0	772800512	45	4182
2026-01-14 10:48:36.00	91.64	24.98	-36.5	-38.2	16.6	0.00e+00	0	60	0	778043392	45	4152
2026-01-14 10:48:37.01	91.40	25.07	-36.5	-38.2	16.5	0.00e+00	0	60	0	783286272	44	4415
2026-01-14 10:48:38.02	91.15	25.17	-36.6	-38.3	16.4	0.00e+00	0	59	0	789577728	44	4464
2026-01-14 10:48:39.02	90.91	25.26	-36.7	-38.5	16.3	0.00e+00	0	59	0	794820608	44	4550
2026-01-14 10:48:40.03	90.66	25.35	-36.8	-38.5	16.2	0.00e+00	0	60	0	801112064	44	4590
2026-01-14 10:48:41.04	90.42	25.45	-36.8	-38.6	16.1	0.00e+00	0	60	0	806354944	44	4641
2026-01-14 10:48:42.06	90.16	25.54	-36.8	-38.6	16.2	0.00e+00	0	60	0	812646400	44	4601
2026-01-14 10:48:43.07	89.91	25.63	-36.7	-38.5	16.2	0.00e+00	0	60	0	817889280	44	4588
2026-01-14 10:48:44.08	89.66	25.73	-36.7	-38.4	16.3	0.00e+00	0	60	0	824180736	44	4536
2026-01-14 10:48:45.09	89.41	25.82	-36.6	-38.3	16.5	0.00e+00	0	60	0	829423616	44	4470
2026-01-14 10:48:46.10	89.15	25.91	-36.5	-38.2	16.6	0.00e+00	0	59	0	834666496	44	4421
2026-01-14 10:48:47.11	88.90	26.00	-36.5	-38.2	16.6	0.00e+00	0	60	0	840957952	44	4392
2026-01-14 10:48:48.12	88.64	26.09	-36.4	-38.1	16.7	0.00e+00	0	60	0	846200832	44	4383
2026-01-14 10:48:49.13	88.38	26.18	-36.5	-38.2	16.6	0.00e+00	0	60	0	852492288	44	4415
2026-01-14 10:48:50.14	88.12	26.27	-36.7	-38.4	16.4	0.00e+00	0	60	0	857735168	44	4538
2026-01-14 10:48:51.15	87.85	26.36	-36.8	-38.6	16.3	0.00e+00	0	60	0	862978048	44	4605
2026-01-14 10:48:52.16	87.59	26.45	-36.7	-38.5	16.3	0.00e+00	0	60	0	869269504	44	4552
2026-01-14 10:48:53.17	87.32	26.54	-36.6	-38.3	16.5	0.00e+00	0	60	0	874512384	44	4474
2026-01-14 10:48:54.18	87.06	26.63	-36.5	-38.2	16.6	0.00e+00	0	60	0	880803840	44	4413
2026-01-14 10:48:55.19	86.79	26.72	-36.4	-38.1	16.7	0.00e+00	0	60	0	886046720	44	4372
2026-01-14 10:48:56.19	86.52	26.81	-36.4	-38.1	16.7	0.00e+00	0	60	0	891289600	44	4362
2026-01-14 10:48:57.21	86.25	26.89	-36.4	-38.1	16.8	0.00e+00	0	59	0	897581056	44	4346
2026-01-14 10:48:58.22	85.97	26.98	-36.2	-37.9	16.9	0.00e+00	0	60	0	902823936	44	4262
2026-01-14 10:48:59.23	85.70	27.07	-36.2	-37.8	17.0	0.00e+00	0	60	0	909115392	44	4223
2026-01-14 10:49:00.24	85.42	27.15	-36.1	-37.7	17.1	0.00e+00	0	59	0	914358272	44	4189
2026-01-14 10:49:01.25	85.15	27.24	-36.1	-37.7	17.1	0.00e+00	0	59	0	920649728	44	4177
2026-01-14 10:49:02.26	84.87	27.32	-36.1	-37.7	17.1	0.00e+00	0	60	0	925892608	44	4169
2026-01-14 10:49:03.27	84.59	27.41	-36.2	-37.8	17.1	0.00e+00	0	60	0	932184064	44	4219
2026-01-14 10:49:04.28	84.30	27.49	-36.2	-37.8	17.0	0.00e+00	0	60	0	937426944	44	4232
2026-01-14 10:49:05.29	84.02	27.58	-36.2	-37.9	17.0	0.00e+00	0	60	0	942669824	44	4262
2026-01-14 10:49:06.29	83.74	27.66	-36.2	-37.9	17.0	0.00e+00	0	60	0	948961280	44	4269
2026-01-14 10:49:07.30	83.45	27.74	-36.3	-38.0	16.9	0.00e+00	0	60	0	954204160	44	4316
2026-01-14 10:49:08.31	83.16	27.82	-36.4	-38.0	16.8	0.00e+00	0	60	0	960495616	44	4332
2026-01-14 10:49:09.32	82.87	27.91	-36.4	-38.1	16.8	0.00e+00	0	60	0	965738496	44	4368
2026-01-14 10:49:10.33	82.58	27.99	-36.4	-38.1	16.7	0.00e+00	0	60	0	970981376	44	4381
2026-01-14 10:49:11.34	82.29	28.07	-36.4	-38.1	16.8	0.00e+00	0	60	0	977272832	44	4378
2026-01-14 10:49:12.35	82.00	28.15	-36.3	-38.0	16.9	0.00e+00	0	60	0	982515712	44	4318
2026-01-14 10:49:13.36	81.70	28.23	-36.2	-37.9	17.0	0.00e+00	0	60	0	988807168	44	4264
2026-01-14 10:49:14.37	81.40	28.31	-36.3	-38.0	16.9	0.00e+00	0	60	0	994050048	44	4316
2026-01-14 10:49:15.38	81.11	28.38	-36.3	-38.0	16.9	0.00e+00	0	60	0	999292928	44	4307
2026-01-14 10:49:16.39	80.81	28.46	-36.2	-37.9	17.0	0.00e+00	0	60	0	1005584384	44	4255
2026-01-14 10:49:17.40	80.51	28.54	-36.3	-37.9	17.0	0.00e+00	0	60	0	1010827264	44	4282
2026-01-14 10:49:18.41	80.20	28.61	-36.2	-37.9	17.0	0.00e+00	0	60	0	1017118720	44	4248
2026-01-14 10:49:19.42	79.90	28.69	-36.3	-37.9	17.0	0.00e+00	0	60	0	1022361600	44	4274
2026-01-14 10:49:20.43	79.59	28.76	-36.3	-38.0	16.9	0.00e+00	0	60	0	1028653056	44	4300
2026-01-14 10:49:21.44	79.29	28.84	-36.4	-38.1	16.9	0.00e+00	0	60	0	1033895936	44	4356
2026-01-14 10:49:22.45	78.98	28.91	-36.3	-37.9	17.0	0.00e+00	0	60	0	1039138816	44	4271
2026-01-14 10:49:23.46	78.67	28.98	-36.0	-37.6	17.3	0.00e+00	0	60	0	1045430272	44	4106
2026-01-14 10:49:24.47	78.36	29.05	-35.6	-37.2	17.5	0.00e+00	0	60	0	1050673152	43	4150
2026-01-14 10:49:25.48	78.04	29.12	-35.6	-37.2	17.6	0.00e+00	0	60	0	1056964608	43	4159
2026-01-14 10:49:26.49	77.73	29.19	-35.8	-37.4	17.4	0.00e+00	0	60	0	1062207488	43	4244
2026-01-14 10:49:27.50	77.42	29.26	-35.8	-37.4	17.3	0.00e+00	0	60	0	1067450368	43	4279
2026-01-14 10:49:28.51	77.10	29.33	-35.9	-37.5	17.3	0.00e+00	0	60	0	1073741824	43	4299
2026-01-14 10:49:29.52	76.78	29.40	-35.9	-37.5	17.2	0.00e+00	0	60	0	1078984704	43	4329
2026-01-14 10:49:30.53	76.46	29.47	-36.0	-37.6	17.1	0.00e+00	0	60	0	1085276160	43	4376
2026-01-14 10:49:31.53	76.14	29.53	-35.9	-37.5	17.2	0.00e+00	0	60	0	1090519040	43	4331
2026-01-14 10:49:32.54	75.82	29.60	-35.8	-37.4	17.3	0.00e+00	0	60	0	1095761920	43	4275
2026-01-14 10:49:33.55	75.50	29.66	-35.8	-37.4	17.4	0.00e+00	0	60	0	1102053376	43	4248
2026-01-14 10:49:34.57	75.17	29.72	-35.8	-37.3	17.4	0.00e+00	0	60	0	1107296256	43	4230
2026-01-14 10:49:35.57	74.85	29.79	-35.9	-37.4	17.4	0.00e+00	0	60	0	1113587712	43	4283
2026-01-14 10:49:36.58	74.52	29.85	-35.9	-37.5	17.3	0.00e+00	0	60	0	1118830592	43	4320
2026-01-14 10:49:37.59	74.19	29.91	-35.9	-37.5	17.3	0.00e+00	0	60	0	1125122048	43	4315
2026-01-14 10:49:38.60	73.86	29.97	-35.9	-37.5	17.3	0.00e+00	0	60	0	1130364928	43	4300
2026-01-14 10:49:39.61	73.53	30.03	-35.8	-37.4	17.4	0.00e+00	0	60	0	1136656384	43	4273
2026-01-14 10:49:40.62	73.20	30.09	-35.8	-37.4	17.4	0.00e+00	0	60	0	1141899264	43	4244
2026-01-14 10:49:41.63	72.87	30.14	-35.8	-37.3	17.5	0.00e+00	0	60	0	1147142144	43	4225
2026-01-14 10:49:42.64	72.53	30.20	-35.8	-37.4	17.4	0.00e+00	0	60	0	1153433600	43	4272
2026-01-14 10:49:43.65	72.20	30.25	-36.0	-37.6	17.2	0.00e+00	0	60	0	1158676480	43	4350
2026-01-14 10:49:44.66	71.86	30.31	-36.0	-37.6	17.2	0.00e+00	0	60	0	1164967936	43	4358
2026-01-14 10:49:45.67	71.52	30.36	-35.9	-37.6	17.2	0.00e+00	0	60	0	1170210816	43	4352
2026-01-14 10:49:46.68	71.19	30.41	-35.8	-37.3	17.4	0.00e+00	0	60	0	1175453696	43	4242
2026-01-14 10:49:47.70	70.84	30.46	-35.6	-37.2	17.6	0.00e+00	0	60	0	1181745152	43	4157
2026-01-14 10:49:48.71	70.50	30.51	-35.6	-37.1	17.7	0.00e+00	0	60	0	1186988032	43	4111
2026-01-14 10:49:49.72	70.16	30.56	-35.6	-37.1	17.7	0.00e+00	0	60	0	1193279488	43	4134
2026-01-14 10:49:50.73	69.82	30.61	-35.7	-37.3	17.5	0.00e+00	0	60	0	1198522368	43	4225
2026-01-14 10:49:51.74	69.47	30.65	-35.8	-37.3	17.5	0.00e+00	0	60	0	1203765248	43	4242
2026-01-14 10:49:52.75	69.13	30.70	-35.7	-37.3	17.6	0.00e+00	0	60	0	1210056704	43	4194
2026-01-14 10:49:53.76	68.78	30.74	-35.7	-37.2	17.6	0.00e+00	0	60	0	1215299584	43	4155
2026-01-14 10:49:54.76	68.44	30.79	-35.7	-37.3	17.5	0.00e+00	0	60	0	1221591040	43	4216
2026-01-14 10:49:55.77	68.09	30.83	-35.9	-37.5	17.4	0.00e+00	0	60	0	1226833920	43	4312
2026-01-14 10:49:56.78	67.74	30.87	-35.8	-37.4	17.4	0.00e+00	0	60	0	1233125376	43	4287
2026-01-14 10:49:57.80	67.39	30.91	-35.8	-37.4	17.4	0.00e+00	0	60	0	1238368256	43	4277
2026-01-14 10:49:58.81	67.04	30.95	-35.7	-37.3	17.6	0.00e+00	0	60	0	1243611136	43	4202
2026-01-14 10:49:59.81	66.69	30.99	-35.7	-37.2	17.6	0.00e+00	0	60	0	1249902592	43	4192
2026-01-14 10:50:00.82	66.34	31.02	-35.7	-37.3	17.5	0.00e+00	0	60	0	1255145472	43	4207
2026-01-14 10:50:01.83	65.99	31.06	-35.7	-37.3	17.5	0.00e+00	0	60	0	1261436928	43	4210
2026-01-14 10:50:02.84	65.63	31.09	-35.8	-37.3	17.5	0.00e+00	0	60	0	1266679808	43	4231
2026-01-14 10:50:03.85	65.28	31.12	-35.7	-37.2	17.6	0.00e+00	0	60	0	1271922688	43	4192
2026-01-14 10:50:04.86	64.93	31.16	-35.6	-37.2	17.7	0.00e+00	0	60	0	1278214144	43	4149
2026-01-14 10:50:05.87	64.57	31.19	-35.6	-37.1	17.7	0.00e+00	0	60	0	1283457024	43	4134
2026-01-14 10:50:06.88	64.21	31.22	-35.5	-37.1	17.8	0.00e+00	0	60	0	1289748480	43	4103
2026-01-14 10:50:07.89	63.86	31.24	-35.5	-37.0	17.8	0.00e+00	0	60	0	1294991360	43	4080
2026-01-14 10:50:08.90	63.50	31.27	-35.5	-37.0	17.8	0.00e+00	0	60	0	1300234240	43	4095
2026-01-14 10:50:09.91	63.14	31.30	-35.6	-37.1	17.8	0.00e+00	0	60	0	1306525696	43	4119
2026-01-14 10:50:10.92	62.78	31.32	-35.6	-37.2	17.7	0.00e+00	0	60	0	1311768576	43	4147
2026-01-14 10:50:11.93	62.42	31.34	-35.7	-37.2	17.6	0.00e+00	0	60	0	1318060032	43	4192
2026-01-14 10:50:12.95	62.06	31.37	-35.8	-37.4	17.4	0.00e+00	0	60	0	1323302912	43	4266
2026-01-14 10:50:13.96	61.70	31.39	-35.9	-37.4	17.4	0.00e+00	0	60	0	1329594368	43	4288
2026-01-14 10:50:14.97	61.34	31.41	-35.8	-37.3	17.5	0.00e+00	0	60	0	1334837248	43	4233
2026-01-14 10:50:15.97	60.98	31.42	-35.7	-37.2	17.6	0.00e+00	0	60	0	1341128704	43	4171
2026-01-14 10:50:16.98	60.62	31.44	-35.7	-37.2	17.6	0.00e+00	0	60	0	1346371584	43	4165
2026-01-14 10:50:17.99	60.26	31.45	-35.6	-37.2	17.7	0.00e+00	0	60	0	1351614464	43	4153
2026-01-14 10:50:19.00	59.90	31.47	-35.6	-37.1	17.7	0.00e+00	0	60	0	1357905920	43	4132
2026-01-14 10:50:20.01	59.54	31.48	-35.5	-37.0	17.8	0.00e+00	0	60	0	1363148800	43	4077
2026-01-14 10:50:21.02	59.17	31.49	-35.5	-37.0	17.8	0.00e+00	0	60	0	1369440256	43	4096
2026-01-14 10:50:22.03	58.81	31.50	-35.7	-37.2	17.6	0.00e+00	0	60	0	1374683136	43	4169
2026-01-14 10:50:23.04	58.45	31.51	-35.7	-37.3	17.5	0.00e+00	0	60	0	1379926016	43	4223
2026-01-14 10:50:24.05	58.08	31.52	-35.8	-37.3	17.5	0.00e+00	0	60	0	1386217472	43	4231
2026-01-14 10:50:25.06	57.72	31.53	-35.7	-37.3	17.6	0.00e+00	0	60	0	1391460352	43	4200
2026-01-14 10:50:26.07	57.36	31.53	-35.6	-37.2	17.7	0.00e+00	0	60	0	1397751808	43	4163
2026-01-14 10:50:27.08	56.99	31.54	-35.7	-37.2	17.6	0.00e+00	0	60	0	1402994688	43	4181
2026-01-14 10:50:28.09	56.63	31.54	-35.6	-37.2	17.7	0.00e+00	0	60	0	1408237568	43	4157
2026-01-14 10:50:29.10	56.27	31.54	-35.6	-37.1	17.7	0.00e+00	0	60	0	1414529024	43	4139
2026-01-14 10:50:30.11	55.90	31.54	-35.7	-37.3	17.6	0.00e+00	0	60	0	1419771904	43	4216
2026-01-14 10:50:31.12	55.54	31.54	-35.9	-37.5	17.4	0.00e+00	0	60	0	1426063360	43	4301
2026-01-14 10:50:32.13	55.18	31.54	-35.9	-37.5	17.3	0.00e+00	0	60	0	1431306240	43	4330
2026-01-14 10:50:33.14	54.81	31.53	-35.9	-37.5	17.4	0.00e+00	0	60	0	1437597696	43	4294
2026-01-14 10:50:34.15	54.45	31.53	-35.8	-37.4	17.5	0.00e+00	0	60	0	1442840576	43	4262
2026-01-14 10:50:35.16	54.09	31.52	-35.8	-37.3	17.5	0.00e+00	0	60	0	1449132032	43	4229
2026-01-14 10:50:36.17	53.72	31.51	-35.9	-37.4	17.4	0.00e+00	0	60	0	1454374912	43	4291
2026-01-14 10:50:37.18	53.36	31.50	-35.7	-37.3	17.5	0.00e+00	0	60	0	1459617792	43	4225
2026-01-14 10:50:38.19	53.00	31.49	-35.5	-37.0	17.8	0.00e+00	0	60	0	1465909248	43	4094
2026-01-14 10:50:39.20	52.64	31.48	-35.4	-36.8	18.0	0.00e+00	0	60	0	1471152128	42	4235
2026-01-14 10:50:40.21	52.28	31.47	-35.4	-36.8	18.0	0.00e+00	0	60	0	1477443584	42	4225
2026-01-14 10:50:41.22	51.91	31.45	-35.5	-37.0	17.9	0.00e+00	0	60	0	1482686464	42	4331
2026-01-14 10:50:42.23	51.55	31.44	-35.6	-37.2	17.7	0.00e+00	0	60	0	1487929344	42	4402
2026-01-14 10:50:43.24	51.19	31.42	-35.7	-37.2	17.6	0.00e+00	0	60	0	1494220800	42	4437
2026-01-14 10:50:44.25	50.83	31.40	-35.8	-37.3	17.6	0.00e+00	0	60	0	1499463680	42	4476
2026-01-14 10:50:45.26	50.47	31.38	-35.8	-37.4	17.5	0.00e+00	0	60	0	1504706560	42	4500
2026-01-14 10:50:46.27	50.11	31.36	-36.0	-37.5	17.4	0.00e+00	0	60	0	1510998016	42	4595
2026-01-14 10:50:47.28	49.75	31.34	-36.1	-37.7	17.2	0.00e+00	0	60	0	1516240896	42	4687
2026-01-14 10:50:48.29	49.39	31.32	-36.2	-37.9	17.0	0.00e+00	0	60	0	1522532352	42	4766
2026-01-14 10:50:49.30	49.03	31.29	-36.2	-37.8	17.0	0.00e+00	0	60	0	1527775232	43	4491
2026-01-14 10:50:50.31	48.68	31.27	-36.1	-37.8	17.1	0.00e+00	0	60	0	1534066688	43	4455
2026-01-14 10:50:51.32	48.32	31.24	-36.0	-37.6	17.2	0.00e+00	0	60	0	1539309568	43	4381
2026-01-14 10:50:52.33	47.96	31.21	-35.9	-37.5	17.3	0.00e+00	0	60	0	1545601024	43	4325
2026-01-14 10:50:53.34	47.61	31.18	-35.8	-37.4	17.5	0.00e+00	0	60	0	1550843904	43	4267
2026-01-14 10:50:54.35	47.25	31.15	-35.7	-37.2	17.6	0.00e+00	0	60	0	1556086784	43	4174
2026-01-14 10:50:55.36	46.90	31.12	-35.5	-37.0	17.9	0.00e+00	0	60	0	1562378240	43	4082
2026-01-14 10:50:56.37	46.55	31.09	-35.5	-37.0	17.9	0.00e+00	0	60	0	1567621120	42	4309
2026-01-14 10:50:57.38	46.19	31.05	-35.5	-37.0	17.9	0.00e+00	0	60	0	1573912576	42	4295
2026-01-14 10:50:58.39	45.84	31.02	-35.5	-36.9	18.0	0.00e+00	0	60	0	1579155456	42	4287
2026-01-14 10:50:59.40	45.49	30.98	-35.6	-37.1	17.8	0.00e+00	0	60	0	1584398336	42	4355
2026-01-14 10:51:00.41	45.14	30.94	-35.7	-37.2	17.7	0.00e+00	0	60	0	1590689792	42	4420
2026-01-14 10:51:01.42	44.79	30.90	-35.7	-37.3	17.6	0.00e+00	0	60	0	1595932672	42	4458
2026-01-14 10:51:02.42	44.44	30.86	-35.7	-37.3	17.6	0.00e+00	0	60	0	1602224128	42	4452
2026-01-14 10:51:03.43	44.10	30.82	-35.7	-37.3	17.6	0.00e+00	0	60	0	1607467008	42	4461
2026-01-14 10:51:04.44	43.75	30.78	-35.9	-37.4	17.5	0.00e+00	0	60	0	1612709888	42	4528
2026-01-14 10:51:05.45	43.40	30.74	-36.0	-37.6	17.3	0.00e+00	0	60	0	1619001344	42	4617
2026-01-14 10:51:06.46	43.06	30.69	-36.0	-37.6	17.3	0.00e+00	0	60	0	1624244224	42	4648
2026-01-14 10:51:07.47	42.71	30.65	-36.1	-37.5	17.7	0.00e+00	0	60	0	1630535680	42	4591
2026-01-14 10:51:08.48	42.37	30.60	-36.0	-37.4	17.8	0.00e+00	0	60	0	1635778560	42	4516
2026-01-14 10:51:09.49	42.03	30.55	-36.0	-37.4	17.8	0.00e+00	0	60	0	1642070016	42	4513
2026-01-14 10:51:10.50	41.69	30.51	-36.0	-37.4	17.8	0.00e+00	0	60	0	1647312896	42	4528
2026-01-14 10:51:11.51	41.35	30.46	-35.9	-37.3	17.9	0.00e+00	0	60	0	1653604352	42	4473
2026-01-14 10:51:12.52	41.01	30.40	-35.8	-37.2	18.0	0.00e+00	0	60	0	1658847232	42	4406
2026-01-14 10:51:13.54	40.67	30.35	-35.7	-37.1	18.1	0.00e+00	0	60	0	1664090112	42	4374
2026-01-14 10:51:14.55	40.33	30.30	-35.8	-37.2	18.0	0.00e+00	0	60	0	1670381568	42	4424
2026-01-14 10:51:15.56	39.99	30.25	-36.0	-37.4	17.8	0.00e+00	0	60	0	1675624448	42	4514
2026-01-14 10:51:16.57	39.66	30.19	-36.1	-37.5	17.7	0.00e+00	0	60	0	1681915904	42	4584
2026-01-14 10:51:17.58	39.33	30.13	-36.1	-37.5	17.7	0.00e+00	0	60	0	1687158784	42	4594
2026-01-14 10:51:18.59	38.99	30.08	-36.0	-37.4	17.8	0.00e+00	0	60	0	1692401664	42	4535
2026-01-14 10:51:19.59	38.67	30.02	-36.0	-37.4	17.8	0.00e+00	0	60	0	1698693120	42	4525
2026-01-14 10:51:20.60	38.34	29.96	-36.0	-37.5	17.7	0.00e+00	0	60	0	1703936000	42	4558
2026-01-14 10:51:21.61	38.01	29.90	-36.2	-37.6	17.6	0.00e+00	0	60	0	1710227456	42	4623
2026-01-14 10:51:22.62	37.68	29.84	-36.2	-37.7	17.5	0.00e+00	0	60	0	1715470336	43	4410
2026-01-14 10:51:23.63	37.35	29.78	-36.3	-37.7	17.4	0.00e+00	0	60	0	1720713216	43	4441
2026-01-14 10:51:24.64	37.03	29.72	-36.3	-37.8	17.5	0.00e+00	0	60	0	1727004672	43	4443
2026-01-14 10:51:25.65	36.71	29.65	-36.3	-37.7	17.4	0.00e+00	0	60	0	1732247552	43	4435
2026-01-14 10:51:26.66	36.38	29.59	-36.2	-37.7	17.5	0.00e+00	0	60	0	1738539008	43	4418
2026-01-14 10:51:27.67	36.06	29.52	-36.2	-37.6	17.6	0.00e+00	0	60	0	1743781888	43	4390
2026-01-14 10:51:28.68	35.74	29.46	-36.1	-37.6	17.6	0.00e+00	0	60	0	1750073344	43	4347
2026-01-14 10:51:29.69	35.42	29.39	-36.0	-37.5	17.7	0.00e+00	0	60	0	1755316224	43	4293
2026-01-14 10:51:30.70	35.11	29.32	-36.1	-37.5	17.7	0.00e+00	0	60	0	1760559104	43	4319
2026-01-14 10:51:31.71	34.79	29.26	-36.1	-37.5	17.7	0.00e+00	0	60	0	1766850560	43	4337
2026-01-14 10:51:32.72	34.48	29.19	-36.2	-37.6	17.6	0.00e+00	0	60	0	1772093440	43	4369
2026-01-14 10:51:33.73	34.17	29.12	-36.2	-37.6	17.6	0.00e+00	0	60	0	1778384896	43	4366
2026-01-14 10:51:34.74	33.85	29.05	-36.2	-37.7	17.5	0.00e+00	0	60	0	1783627776	43	4394
2026-01-14 10:51:35.75	33.54	28.97	-36.2	-37.7	17.5	0.00e+00	0	60	0	1788870656	43	4399
2026-01-14 10:51:36.76	33.23	28.90	-36.1	-37.6	17.6	0.00e+00	0	60	0	1795162112	43	4351
2026-01-14 10:51:37.77	32.93	28.83	-36.1	-37.5	17.7	0.00e+00	0	60	0	1800404992	43	4329
2026-01-14 10:51:38.78	32.62	28.76	-36.0	-37.4	17.7	0.00e+00	0	60	0	1806696448	43	4290
2026-01-14 10:51:39.79	32.32	28.68	-36.0	-37.4	17.8	0.00e+00	0	60	0	1811939328	43	4267
2026-01-14 10:51:40.80	32.01	28.61	-36.1	-37.5	17.7	0.00e+00	0	60	0	1817182208	43	4336
2026-01-14 10:51:41.81	31.71	28.53	-36.2	-37.6	17.6	0.00e+00	0	60	0	1823473664	43	4384
2026-01-14 10:51:42.82	31.41	28.45	-36.2	-37.7	17.5	0.00e+00	0	60	0	1828716544	43	4395
2026-01-14 10:51:43.83	31.11	28.38	-36.2	-37.7	17.5	0.00e+00	0	60	0	1835008000	43	4419
2026-01-14 10:51:44.84	30.82	28.30	-36.2	-37.6	17.6	0.00e+00	0	60	0	1840250880	43	4363
2026-01-14 10:51:45.85	30.52	28.22	-36.1	-37.6	17.6	0.00e+00	0	60	0	1846542336	43	4349
2026-01-14 10:51:46.86	30.23	28.14	-36.2	-37.6	17.5	0.00e+00	0	60	0	1851785216	43	4380
2026-01-14 10:51:47.87	29.93	28.06	-36.3	-37.7	17.5	0.00e+00	0	60	0	1858076672	43	4420
2026-01-14 10:51:48.88	29.64	27.98	-36.3	-37.7	17.5	0.00e+00	0	60	0	1863319552	43	4426
2026-01-14 10:51:49.89	29.35	27.90	-36.3	-37.8	17.4	0.00e+00	0	60	0	1868562432	43	4452
2026-01-14 10:51:50.90	29.06	27.82	-36.3	-37.8	17.4	0.00e+00	0	60	0	1874853888	43	4461
2026-01-14 10:51:51.91	28.78	27.74	-36.3	-37.8	17.4	0.00e+00	0	60	0	1880096768	43	4476
2026-01-14 10:51:52.92	28.49	27.65	-36.3	-37.8	17.4	0.00e+00	0	60	0	1886388224	43	4446
2026-01-14 10:51:53.93	28.21	27.57	-36.3	-37.8	17.4	0.00e+00	0	60	0	1891631104	43	4468
2026-01-14 10:51:54.94	27.93	27.49	-36.3	-37.8	17.4	0.00e+00	0	60	0	1896873984	43	4469
2026-01-14 10:51:55.95	27.65	27.40	-36.4	-37.9	17.3	0.00e+00	0	60	0	1903165440	43	4497
2026-01-14 10:51:56.96	27.37	27.32	-36.4	-37.9	17.3	0.00e+00	0	60	0	1908408320	43	4513
2026-01-14 10:51:57.97	27.09	27.23	-36.4	-37.9	17.2	0.00e+00	0	60	0	1914699776	43	4521
2026-01-14 10:51:58.98	26.81	27.15	-36.4	-37.9	17.3	0.00e+00	0	60	0	1919942656	43	4495
2026-01-14 10:51:59.99	26.54	27.06	-36.4	-37.9	17.2	0.00e+00	0	60	0	1925185536	43	4540
2026-01-14 10:52:01.00	26.26	26.98	-36.5	-38.0	17.1	0.00e+00	0	60	0	1931476992	43	4580
2026-01-14 10:52:02.01	25.99	26.89	-36.5	-38.0	17.2	0.00e+00	0	60	0	1936719872	43	4571
2026-01-14 10:52:03.02	25.72	26.80	-36.5	-38.0	17.2	0.00e+00	0	60	0	1943011328	43	4565
2026-01-14 10:52:04.03	25.45	26.71	-36.5	-38.0	17.1	0.00e+00	0	60	0	1948254208	43	4564
2026-01-14 10:52:05.04	25.18	26.63	-36.5	-38.0	17.1	0.00e+00	0	60	0	1954545664	43	4567
2026-01-14 10:52:06.04	24.92	26.54	-36.5	-38.0	17.2	0.00e+00	0	61	0	1959788544	43	4563
2026-01-14 10:52:07.06	24.65	26.45	-36.5	-38.0	17.1	0.00e+00	0	60	0	1965031424	43	4592
2026-01-14 10:52:08.06	24.39	26.36	-36.5	-38.1	17.1	0.00e+00	0	60	0	1971322880	43	4601
2026-01-14 10:52:09.07	24.13	26.27	-36.6	-38.1	17.0	0.00e+00	0	60	0	1976565760	43	4628
2026-01-14 10:52:10.08	23.87	26.18	-36.6	-38.1	17.0	0.00e+00	0	60	0	1982857216	43	4628
2026-01-14 10:52:11.10	23.61	26.09	-36.5	-38.1	17.1	0.00e+00	0	60	0	1988100096	43	4600
2026-01-14 10:52:12.10	23.36	26.00	-36.5	-38.0	17.1	0.00e+00	0	60	0	1993342976	43	4588
2026-01-14 10:52:13.11	23.10	25.91	-36.5	-38.0	17.1	0.00e+00	0	60	0	1999634432	43	4562
2026-01-14 10:52:14.12	22.85	25.82	-36.5	-38.0	17.1	0.00e+00	0	60	0	2004877312	43	4591
2026-01-14 10:52:15.14	22.59	25.73	-36.6	-38.1	17.0	0.00e+00	0	60	0	2011168768	43	4616
2026-01-14 10:52:16.15	22.34	25.63	-36.6	-38.1	17.0	0.00e+00	0	60	0	2016411648	43	4608
2026-01-14 10:52:17.16	22.09	25.54	-36.6	-38.1	17.0	0.00e+00	0	60	0	2021654528	43	4614
2026-01-14 10:52:18.17	21.84	25.45	-36.5	-38.0	17.1	0.00e+00	0	60	0	2027945984	43	4580
2026-01-14 10:52:19.18	21.60	25.36	-36.4	-37.9	17.2	0.00e+00	0	60	0	2033188864	43	4521
2026-01-14 10:52:20.19	21.35	25.26	-36.4	-37.9	17.2	0.00e+00	0	60	0	2039480320	43	4506
2026-01-14 10:52:21.20	21.11	25.17	-36.4	-37.9	17.2	0.00e+00	0	60	0	2044723200	43	4538
2026-01-14 10:52:22.21	20.87	25.08	-36.6	-38.1	17.0	0.00e+00	0	60	0	2051014656	43	4645
2026-01-14 10:52:23.22	20.63	24.98	-36.9	-38.5	16.8	0.00e+00	0	60	0	2056257536	44	4565
2026-01-14 10:52:24.22	20.39	24.89	-37.0	-38.6	16.6	0.00e+00	0	60	0	2062548992	44	4631
2026-01-14 10:52:25.23	20.15	24.80	-37.0	-38.6	16.7	0.00e+00	0	60	0	2067791872	44	4611
2026-01-14 10:52:26.24	19.91	24.70	-37.0	-38.6	16.7	0.00e+00	0	60	0	2073034752	44	4615
2026-01-14 10:52:27.25	19.68	24.61	-37.0	-38.6	16.7	0.00e+00	0	60	0	2079326208	44	4610
2026-01-14 10:52:28.26	19.45	24.51	-37.0	-38.6	16.7	0.00e+00	0	60	0	2084569088	44	4609
2026-01-14 10:52:29.27	19.21	24.42	-37.0	-38.6	16.7	0.00e+00	0	60	0	2090860544	44	4612
2026-01-14 10:52:30.28	18.98	24.32	-37.0	-38.6	16.7	0.00e+00	0	60	0	2096103424	44	4602
2026-01-14 10:52:31.29	18.75	24.23	-36.9	-38.5	16.7	0.00e+00	0	60	0	2101346304	44	4577
2026-01-14 10:52:32.30	18.53	24.13	-36.9	-38.4	16.8	0.00e+00	0	60	0	2107637760	44	4545
2026-01-14 10:52:33.31	18.30	24.04	-36.9	-38.5	16.8	0.00e+00	0	60	0	2112880640	44	4554
2026-01-14 10:52:34.32	18.07	23.94	-37.0	-38.5	16.7	0.00e+00	0	60	0	2119172096	44	4587
2026-01-14 10:52:35.33	17.85	23.84	-37.0	-38.6	16.6	0.00e+00	0	60	0	2124414976	44	4647
2026-01-14 10:52:36.34	17.63	23.75	-37.1	-38.7	16.5	0.00e+00	0	60	0	2129657856	44	4690
2026-01-14 10:52:37.35	17.41	23.65	-37.1	-38.7	16.5	0.00e+00	0	60	0	2135949312	44	4663
2026-01-14 10:52:38.36	17.19	23.56	-37.0	-38.6	16.6	0.00e+00	0	60	0	2141192192	44	4635
2026-01-14 10:52:39.37	16.97	23.46	-37.0	-38.6	16.6	0.00e+00	0	60	0	2147483648	44	4618
2026-01-14 10:52:40.38	16.75	23.36	-37.0	-38.6	16.6	0.00e+00	0	60	0	2152726528	44	4621
2026-01-14 10:52:41.38	16.54	23.27	-37.0	-38.6	16.6	0.00e+00	0	60	0	2159017984	44	4626
2026-01-14 10:52:42.39	16.33	23.17	-37.1	-38.7	16.5	0.00e+00	0	60	0	2164260864	44	4692
2026-01-14 10:52:43.40	16.11	23.08	-37.2	-38.8	16.4	0.00e+00	0	60	0	2169503744	44	4727
2026-01-14 10:52:44.41	15.90	22.98	-37.1	-38.7	16.5	0.00e+00	0	60	0	2175795200	44	4704
2026-01-14 10:52:45.42	15.69	22.88	-37.1	-38.7	16.4	0.00e+00	0	60	0	2181038080	44	4694
2026-01-14 10:52:46.43	15.48	22.79	-37.1	-38.7	16.5	0.00e+00	0	60	0	2187329536	44	4678
2026-01-14 10:52:47.44	15.27	22.69	-37.1	-38.8	16.4	0.00e+00	0	60	0	2192572416	44	4711
2026-01-14 10:52:48.45	15.07	22.59	-37.2	-38.8	16.4	0.00e+00	0	60	0	2197815296	44	4733
2026-01-14 10:52:49.46	14.86	22.50	-37.2	-38.8	16.4	0.00e+00	0	60	0	2204106752	44	4734
2026-01-14 10:52:50.47	14.66	22.40	-37.2	-38.8	16.3	0.00e+00	0	60	0	2209349632	44	4746
2026-01-14 10:52:51.48	14.46	22.30	-37.2	-38.8	16.4	0.00e+00	0	60	0	2215641088	44	4716
2026-01-14 10:52:52.49	14.26	22.21	-37.0	-38.6	16.6	0.00e+00	0	60	0	2220883968	44	4619
2026-01-14 10:52:53.50	14.06	22.11	-37.0	-38.6	16.6	0.00e+00	0	60	0	2226126848	44	4612
2026-01-14 10:52:54.51	13.86	22.01	-37.0	-38.6	16.5	0.00e+00	0	60	0	2232418304	44	4628
2026-01-14 10:52:55.52	13.66	21.92	-37.1	-38.7	16.5	0.00e+00	0	60	0	2237661184	44	4656
2026-01-14 10:52:56.53	13.46	21.82	-37.1	-38.7	16.5	0.00e+00	0	60	0	2243952640	44	4679
2026-01-14 10:52:57.54	13.27	21.72	-37.1	-38.7	16.4	0.00e+00	0	60	0	2249195520	44	4686
2026-01-14 10:52:58.55	13.08	21.62	-37.0	-38.7	16.5	0.00e+00	0	61	0	2255486976	44	4654
2026-01-14 10:52:59.56	12.88	21.53	-37.0	-38.7	16.5	0.00e+00	0	60	0	2260729856	44	4655
2026-01-14 10:53:00.57	12.69	21.43	-37.1	-38.7	16.4	0.00e+00	0	60	0	2267021312	44	4658
2026-01-14 10:53:01.58	12.50	21.33	-37.1	-38.7	16.4	0.00e+00	0	60	0	2272264192	44	4653
2026-01-14 10:53:02.59	12.31	21.24	-37.1	-38.7	16.4	0.00e+00	0	60	0	2277507072	44	4690
2026-01-14 10:53:03.60	12.13	21.14	-37.2	-38.8	16.3	0.00e+00	0	60	0	2283798528	44	4732
2026-01-14 10:53:04.61	11.94	21.04	-37.2	-38.9	16.2	0.00e+00	0	60	0	2289041408	45	4509
2026-01-14 10:53:05.62	11.75	20.95	-37.3	-38.9	16.1	0.00e+00	0	60	0	2295332864	45	4526
2026-01-14 10:53:06.63	11.57	20.85	-37.2	-38.9	16.2	0.00e+00	0	60	0	2300575744	45	4526
2026-01-14 10:53:07.64	11.39	20.76	-37.3	-39.0	16.1	0.00e+00	0	60	0	2305818624	45	4553
2026-01-14 10:53:08.65	11.21	20.66	-37.3	-39.0	16.1	0.00e+00	0	60	0	2312110080	45	4560
2026-01-14 10:53:09.66	11.03	20.56	-37.4	-39.0	16.0	0.00e+00	0	60	0	2317352960	45	4598
2026-01-14 10:53:10.67	10.85	20.47	-37.3	-39.0	16.1	0.00e+00	0	60	0	2323644416	45	4552
2026-01-14 10:53:11.68	10.67	20.37	-37.3	-39.0	16.0	0.00e+00	0	60	0	2328887296	45	4577
2026-01-14 10:53:12.69	10.49	20.27	-37.3	-39.0	16.0	0.00e+00	0	60	0	2334130176	45	4579
2026-01-14 10:53:13.70	10.31	20.18	-37.3	-39.0	16.1	0.00e+00	0	60	0	2340421632	45	4560
2026-01-14 10:53:14.71	10.14	20.08	-37.3	-39.0	16.0	0.00e+00	0	61	0	2345664512	45	4586
2026-01-14 10:53:15.72	9.97	19.99	-37.4	-39.1	15.9	0.00e+00	0	60	0	2351955968	45	4614
2026-01-14 10:53:16.73	9.79	19.89	-37.4	-39.1	15.8	0.00e+00	0	60	0	2357198848	45	4651
2026-01-14 10:53:17.74	9.62	19.80	-37.5	-39.2	15.8	0.00e+00	0	60	0	2363490304	45	4678
2026-01-14 10:53:18.75	9.45	19.70	-37.5	-39.3	15.7	0.00e+00	0	60	0	2368733184	45	4719
2026-01-14 10:53:19.77	9.28	19.60	-37.5	-39.3	15.7	0.00e+00	0	60	0	2375024640	45	4706
2026-01-14 10:53:20.78	9.11	19.51	-37.6	-39.3	15.6	0.00e+00	0	60	0	2380267520	45	4739
2026-01-14 10:53:21.79	8.95	19.41	-37.5	-39.3	15.7	0.00e+00	0	60	0	2385510400	45	4725
2026-01-14 10:53:22.80	8.78	19.32	-37.6	-39.3	15.6	0.00e+00	0	60	0	2391801856	45	4739
2026-01-14 10:53:23.81	8.61	19.22	-37.6	-39.4	15.5	0.00e+00	0	60	0	2397044736	45	4770
2026-01-14 10:53:24.82	8.45	19.13	-37.6	-39.4	15.6	0.00e+00	0	61	0	2403336192	45	4760
2026-01-14 10:53:25.83	8.29	19.03	-37.7	-39.5	15.4	0.00e+00	0	60	0	2408579072	45	4817
2026-01-14 10:53:26.83	8.13	18.94	-37.6	-39.4	15.5	0.00e+00	0	61	0	2413821952	45	4781
2026-01-14 10:53:27.85	7.96	18.84	-37.6	-39.4	15.5	0.00e+00	0	60	0	2420113408	45	4766
2026-01-14 10:53:28.85	7.81	18.75	-37.6	-39.3	15.5	0.00e+00	0	60	0	2425356288	45	4756
2026-01-14 10:53:29.86	7.65	18.66	-37.5	-39.3	15.6	0.00e+00	0	60	0	2431647744	45	4729
2026-01-14 10:53:30.88	7.49	18.56	-37.5	-39.3	15.6	0.00e+00	0	60	0	2436890624	45	4707
2026-01-14 10:53:31.89	7.33	18.47	-37.5	-39.3	15.5	0.00e+00	0	60	0	2442133504	45	4729
2026-01-14 10:53:32.90	7.17	18.37	-37.6	-39.4	15.4	0.00e+00	0	61	0	2448424960	45	4771
2026-01-14 10:53:33.91	7.02	18.28	-37.7	-39.5	15.3	0.00e+00	0	60	0	2453667840	45	4831
2026-01-14 10:53:34.92	6.87	18.19	-37.8	-39.6	15.2	0.00e+00	0	60	0	2459959296	46	4636
2026-01-14 10:53:35.93	6.71	18.09	-37.9	-39.7	15.1	0.00e+00	0	60	0	2465202176	46	4690
2026-01-14 10:53:36.93	6.56	18.00	-37.9	-39.7	15.0	0.00e+00	0	60	0	2470445056	46	4700
2026-01-14 10:53:37.94	6.41	17.91	-37.9	-39.7	15.0	0.00e+00	0	60	0	2476736512	46	4697
2026-01-14 10:53:38.95	6.26	17.81	-37.8	-39.7	15.1	0.00e+00	0	60	0	2481979392	46	4665
2026-01-14 10:53:39.96	6.11	17.72	-37.8	-39.7	15.0	0.00e+00	0	60	0	2488270848	46	4680
2026-01-14 10:53:40.97	5.96	17.63	-37.8	-39.7	15.0	0.00e+00	0	60	0	2493513728	46	4686
2026-01-14 10:53:41.98	5.82	17.54	-37.9	-39.8	14.9	0.00e+00	0	60	0	2499805184	46	4719
2026-01-14 10:53:42.99	5.67	17.44	-37.9	-39.8	14.8	0.00e+00	0	60	0	2505048064	46	4757
2026-01-14 10:53:44.00	5.52	17.35	-38.0	-39.9	14.7	0.00e+00	0	60	0	2510290944	46	4794
2026-01-14 10:53:45.01	5.38	17.26	-38.1	-40.0	14.6	1.10e-06	0	60	0	2516582400	46	4864
2026-01-14 10:53:46.02	5.24	17.17	-38.1	-40.1	14.5	0.00e+00	0	60	0	2521825280	46	4883
2026-01-14 10:53:47.02	5.09	17.08	-38.1	-40.0	14.5	0.00e+00	0	60	0	2528116736	46	4865
2026-01-14 10:53:48.03	4.95	16.98	-38.1	-40.1	14.5	0.00e+00	0	60	0	2533359616	46	4880
2026-01-14 10:53:49.04	4.81	16.89	-38.0	-40.0	14.5	0.00e+00	0	60	0	2538602496	46	4831
2026-01-14 10:53:50.05	4.67	16.80	-38.0	-40.0	14.5	0.00e+00	0	60	0	2544893952	46	4834
2026-01-14 10:53:51.06	4.53	16.71	-38.0	-39.9	14.5	0.00e+00	0	60	0	2550136832	46	4798
2026-01-14 10:53:52.07	4.39	16.62	-38.0	-40.0	14.4	0.00e+00	0	60	0	2556428288	46	4852
2026-01-14 10:53:53.08	4.26	16.53	-37.9	-39.9	14.5	0.00e+00	0	60	0	2561671168	46	4792
2026-01-14 10:53:54.09	4.12	16.44	-38.1	-40.2	14.1	1.10e-06	0	60	0	2566914048	46	4940
2026-01-14 10:53:55.10	3.98	16.35	-38.1	-40.1	14.2	1.10e-06	0	61	0	2573205504	46	4905
2026-01-14 10:53:56.11	3.85	16.26	-38.1	-40.1	14.1	1.10e-06	0	60	0	2578448384	46	4921
2026-01-14 10:53:57.12	3.71	16.17	-38.2	-40.3	14.0	3.40e-06	0	60	0	2584739840	46	5022
2026-01-14 10:53:58.13	3.58	16.08	-38.1	-40.2	14.0	1.10e-06	0	60	0	2589982720	46	4970
2026-01-14 10:53:59.14	3.45	15.99	-38.2	-40.3	13.9	2.20e-06	0	60	0	2596274176	46	5008
2026-01-14 10:54:00.14	3.32	15.90	-38.3	-40.5	13.7	2.20e-06	0	60	0	2601517056	47	4818
2026-01-14 10:54:01.15	3.19	15.81	-38.2	-40.3	13.9	3.40e-06	0	61	0	2606759936	47	4736
2026-01-14 10:54:02.16	3.06	15.72	-38.2	-40.3	13.8	1.10e-06	0	60	0	2613051392	47	4755
2026-01-14 10:54:03.17	2.93	15.63	-38.5	-40.7	13.4	5.70e-06	0	61	0	2618294272	47	4964
2026-01-14 10:54:04.18	2.80	15.54	-38.2	-40.4	13.7	2.20e-06	0	61	0	2624585728	47	4769
2026-01-14 10:54:05.19	2.67	15.45	-38.1	-40.3	13.8	2.20e-06	0	60	0	2629828608	47	4714
2026-01-14 10:54:06.20	2.54	15.36	-38.5	-40.8	13.1	1.48e-05	0	60	0	2635071488	47	5040
2026-01-14 10:54:07.21	2.42	15.28	-38.5	-40.8	13.0	2.51e-05	0	60	0	2641362944	47	5028
2026-01-14 10:54:08.22	2.29	15.19	-38.2	-40.4	13.3	5.70e-06	0	61	0	2646605824	47	4812
2026-01-14 10:54:09.23	2.17	15.10	-38.3	-40.6	13.1	1.14e-05	0	61	0	2652897280	47	4895
2026-01-14 10:54:10.24	2.04	15.01	-38.5	-41.0	12.6	4.57e-05	0	61	0	2658140160	47	5127
2026-01-14 10:54:11.25	1.92	14.92	-38.6	-41.1	12.4	7.66e-05	0	60	0	2663383040	47	5204
2026-01-14 10:54:12.26	1.80	14.84	-38.4	-40.9	12.5	8.81e-05	0	60	0	2669674496	47	5079
2026-01-14 10:54:13.27	1.67	14.75	-38.2	-40.6	12.7	5.49e-05	0	60	0	2674917376	47	4912
2026-01-14 10:54:14.28	1.55	14.66	-38.2	-40.7	12.6	5.83e-05	0	61	0	2681208832	47	4945
2026-01-14 10:54:15.29	1.43	14.58	-38.4	-41.0	12.2	9.26e-05	0	60	0	2686451712	47	5113
2026-01-14 10:54:16.30	1.31	14.49	-38.4	-41.0	12.1	1.96e-04	0	60	0	2692743168	47	5149
2026-01-14 10:54:17.31	1.19	14.40	-38.5	-41.1	11.9	2.10e-04	0	60	0	2697986048	47	5210
2026-01-14 10:54:18.32	1.08	14.32	-38.3	-41.0	12.1	2.32e-04	0	60	0	2704277504	47	5104
2026-01-14 10:54:19.33	0.96	14.23	-38.1	-40.7	12.3	1.27e-04	0	60	0	2709520384	47	4968
2026-01-14 10:54:20.34	0.84	14.14	-38.1	-40.7	12.3	1.11e-04	0	60	0	2714763264	47	4938
2026-01-14 10:54:21.35	0.73	14.06	-37.9	-40.4	12.5	9.04e-05	0	60	0	2721054720	47	4806
2026-01-14 10:54:22.36	0.61	13.97	-37.9	-40.4	12.6	5.03e-05	0	60	0	2726297600	47	4772
2026-01-14 10:54:23.37	0.50	13.89	-37.9	-40.5	12.4	9.84e-05	0	60	0	2732589056	47	4819
2026-01-14 10:54:24.38	0.38	13.80	-37.8	-40.4	12.4	6.52e-05	0	61	0	2737831936	47	4787
2026-01-14 10:54:25.39	0.27	13.72	-38.0	-40.8	11.9	2.41e-04	0	60	0	2743074816	47	5018
2026-01-14 10:54:26.40	0.16	13.63	-38.4	-41.4	11.2	7.28e-04	0	60	0	2749366272	47	5387
2026-01-14 10:54:27.41	0.04	13.55	-38.9	-42.3	10.4	1.97e-03	0	60	0	2754609152	48	5610
2026-01-14 10:54:28.41	359.93	13.46	-39.4	-43.2	9.3	1.23e-02	0	60	0	2760900608	49	5891
2026-01-14 10:54:29.42	359.82	13.38	-39.8	-44.0	8.4	2.64e-02	0	61	0	2766143488	50	6126
2026-01-14 10:54:30.43	359.71	13.29	-40.2	-45.3	7.0	1.12e-01	0	60	0	2771386368	51	6712
2026-01-14 10:54:31.44	359.60	13.21	-40.6	-46.5	6.0	2.38e-01	0	61	0	2777677824	51	7646
2026-01-14 10:54:32.45	359.49	13.13	-40.6	-47.2	5.3	7.24e-01	0	61	0	2780823552	52	7880
2026-01-14 10:54:33.46	359.39	13.04	-40.7	-48.0	4.8	7.61e-01	0	60	0	2780823552	52	8591
2026-01-14 10:54:34.47	359.28	12.96	-40.9	-49.2	4.3	8.28e-01	0	61	0	2780823552	52	9916
2026-01-14 10:54:35.48	359.17	12.88	-40.9	-49.2	4.3	8.34e-01	0	60	0	2780823552	52	9911
2026-01-14 10:54:36.49	359.07	12.79	-40.9	-49.8	4.1	8.38e-01	0	61	0	2780823552	52	10622
2026-01-14 10:54:37.50	358.96	12.71	-40.9	-50.3	3.9	8.42e-01	0	61	104	2780823552	52	11270
2026-01-14 10:54:38.51	358.86	12.63	-40.9	-50.8	3.8	8.44e-01	0	61	104	2780823552	52	11824
2026-01-14 10:54:39.52	358.75	12.55	-40.9	-51.1	3.8	8.45e-01	0	61	104	2780823552	52	12268
2026-01-14 10:54:40.53	358.65	12.46	-40.9	-51.7	3.8	8.46e-01	0	61	104	2780823552	52	13226
2026-01-14 10:54:41.54	358.54	12.38	-40.9	-52.0	3.8	8.45e-01	0	60	104	2780823552	52	13609
2026-01-14 10:54:42.55	358.44	12.30	-40.8	-51.5	3.8	8.46e-01	0	61	104	2780823552	52	12931
2026-01-14 10:54:43.56	358.34	12.22	-40.7	-51.5	3.8	8.45e-01	0	61	104	2780823552	52	12836
2026-01-14 10:54:44.57	358.24	12.14	-40.6	-51.5	3.8	8.46e-01	0	60	104	2780823552	52	12839
2026-01-14 10:54:45.58	358.14	12.05	-40.6	-51.8	3.8	8.45e-01	0	60	104	2780823552	52	13263
2026-01-14 10:54:46.58	358.04	11.97	-40.6	-52.0	3.8	8.47e-01	0	61	104	2780823552	52	13661
2026-01-14 10:54:47.59	357.94	11.89	-40.5	-52.1	3.8	8.46e-01	0	61	104	2780823552	52	13804
2026-01-14 10:54:48.60	357.84	11.81	-40.5	-51.8	3.8	8.46e-01	0	61	104	2780823552	52	13336
2026-01-14 10:54:49.61	357.74	11.73	-40.5	-51.5	3.8	8.47e-01	0	60	104	2780823552	52	12941
2026-01-14 10:54:50.62	357.64	11.65	-40.4	-51.6	3.8	8.45e-01	0	60	104	2780823552	52	13031
2026-01-14 10:54:51.62	357.55	11.57	-40.4	-51.8	3.8	8.46e-01	0	60	104	2780823552	52	13334
2026-01-14 10:54:52.63	357.45	11.49	-40.3	-52.1	3.8	8.46e-01	0	60	104	2780823552	52	13740
2026-01-14 10:54:53.64	357.35	11.41	-40.2	-52.1	3.8	8.46e-01	0	61	104	2780823552	52	13759
2026-01-14 10:54:54.65	357.26	11.33	-40.1	-51.9	3.8	8.45e-01	0	60	104	2780823552	52	13481
2026-01-14 10:54:55.66	357.16	11.25	-40.0	-52.1	3.8	8.46e-01	0	60	104	2780823552	51	14572
2026-01-14 10:54:56.67	357.07	11.17	-40.5	-52.5	3.8	8.47e-01	0	60	104	2780823552	51	15282
2026-01-14 10:54:57.68	356.97	11.09	-40.1	-51.9	3.8	8.47e-01	0	61	104	2780823552	51	14355
2026-01-14 10:54:58.68	356.88	11.01	-39.9	-51.8	3.8	8.47e-01	0	61	104	2780823552	51	14169
2026-01-14 10:54:59.69	356.79	10.94	-39.8	-51.8	3.8	8.46e-01	0	60	104	2780823552	51	14054
2026-01-14 10:55:00.70	356.69	10.86	-39.7	-51.7	3.8	8.46e-01	0	61	104	2780823552	51	14014
2026-01-14 10:55:01.71	356.60	10.78	-39.6	-51.7	3.8	8.46e-01	0	60	104	2780823552	51	13980
2026-01-14 10:55:02.72	356.51	10.70	-39.7	-51.7	3.8	8.46e-01	0	60	104	2780823552	51	13998
2026-01-14 10:55:03.73	356.42	10.62	-40.3	-52.1	3.8	8.46e-01	0	60	104	2780823552	51	14663
2026-01-14 10:55:04.74	356.33	10.54	-39.9	-51.8	3.8	8.46e-01	0	60	104	2780823552	51	14105
2026-01-14 10:55:05.75	356.24	10.47	-39.9	-51.8	3.8	8.46e-01	0	61	104	2780823552	51	14102
2026-01-14 10:55:06.76	356.15	10.39	-39.8	-51.7	3.8	8.46e-01	0	61	104	2780823552	51	14030
2026-01-14 10:55:07.77	356.06	10.31	-39.7	-51.7	3.8	8.46e-01	0	61	104	2780823552	51	13963
2026-01-14 10:55:08.78	355.97	10.23	-39.7	-51.7	3.8	8.46e-01	0	61	104	2780823552	51	13951
2026-01-14 10:55:09.79	355.88	10.16	-39.8	-51.7	3.8	8.47e-01	0	61	104	2780823552	51	13933
2026-01-14 10:55:10.80	355.80	10.08	-40.0	-51.8	3.8	8.45e-01	0	61	104	2780823552	51	14176
2026-01-14 10:55:11.81	355.71	10.00	-40.1	-51.8	3.8	8.46e-01	0	61	104	2780823552	51	14131
2026-01-14 10:55:12.82	355.62	9.93	-40.2	-52.1	3.8	8.47e-01	0	61	104	2780823552	51	14615
2026-01-14 10:55:13.83	355.54	9.85	-39.8	-51.7	3.8	8.46e-01	0	61	104	2780823552	51	13987
2026-01-14 10:55:14.84	355.45	9.77	-40.2	-52.0	3.8	8.47e-01	0	61	104	2780823552	51	14529
2026-01-14 10:55:15.84	355.37	9.70	-39.8	-51.7	3.8	8.47e-01	0	61	104	2780823552	51	14010
2026-01-14 10:55:16.85	355.28	9.62	-40.0	-51.8	3.8	8.45e-01	0	60	104	2780823552	51	14163
2026-01-14 10:55:17.86	355.20	9.55	-40.0	-51.8	3.8	8.45e-01	0	61	104	2780823552	51	14164
2026-01-14 10:55:18.87	355.11	9.47	-40.0	-51.8	3.8	8.47e-01	0	61	104	2780823552	51	14140
2026-01-14 10:55:19.88	355.03	9.39	-40.0	-51.8	3.8	8.46e-01	0	61	104	2780823552	51	14088
2026-01-14 10:55:20.89	354.95	9.32	-40.2	-52.0	3.8	8.45e-01	0	61	104	2780823552	51	14513
2026-01-14 10:55:21.90	354.86	9.24	-39.8	-51.8	3.8	8.47e-01	0	61	104	2780823552	51	14108
2026-01-14 10:55:22.91	354.78	9.17	-40.3	-52.0	3.8	8.46e-01	0	61	104	2780823552	51	14508
2026-01-14 10:55:23.92	354.70	9.09	-39.9	-51.8	3.8	8.47e-01	0	61	104	2780823552	51	14150
2026-01-14 10:55:24.93	354.62	9.02	-40.1	-51.9	3.8	8.45e-01	0	61	104	2780823552	51	14223
2026-01-14 10:55:25.94	354.54	8.95	-40.0	-51.8	3.8	8.46e-01	0	60	104	2780823552	51	14149
2026-01-14 10:55:26.95	354.46	8.87	-40.2	-51.9	3.8	8.47e-01	0	61	104	2780823552	51	14231
2026-01-14 10:55:27.96	354.38	8.80	-40.0	-51.8	3.8	8.46e-01	0	60	104	2780823552	51	14079
2026-01-14 10:55:28.97	354.30	8.72	-40.2	-51.9	3.8	8.46e-01	0	60	104	2780823552	51	14298
2026-01-14 10:55:29.98	354.22	8.65	-40.1	-51.8	3.8	8.46e-01	0	60	104	2780823552	51	14185
2026-01-14 10:55:30.99	354.14	8.58	-40.3	-52.0	3.8	8.45e-01	0	61	104	2780823552	51	14381
2026-01-14 10:55:31.99	354.06	8.50	-40.1	-51.8	3.8	8.47e-01	0	61	104	2780823552	51	14138
2026-01-14 10:55:33.00	353.98	8.43	-40.2	-51.9	3.8	8.47e-01	0	60	104	2780823552	51	14254
