passes_logs/2026/01/14/R2.0S_Moscow/R2.0S_Moscow__20260114_005227_FENGYUN_3D_rec.log

#Pass ID: 20260114_005227_FENGYUN 3D
#Satellite: FENGYUN 3D
#Configuration: FENGYUN 3D
#almurnet v.1.7.20251203
#Start time: 2026-01-14 00:58:28

#Version: 2.2.20231116
#Station: R2.0S_Moscow
#Location: 37.707566 lon 55.798166 lat
#TLE: 1 43010U 17072A   26013.31211337  .00000452  00000+0  23563-3 0  9990
#TLE: 2 43010  98.9934 345.1024 0002270 111.0315 249.1103 14.19696845423017

#Time	Az	El	Level	Level2	SNR	BER	BlckErr	Temp	State	Recorded	gain1	gain2
2026-01-14 00:58:28.68	71.11	36.90	-45.3	-63.6	3.8	8.47e-01	0	59	0	0	62	29018
2026-01-14 00:58:29.68	71.49	37.01	-45.6	-57.1	3.8	8.45e-01	0	60	104	0	62	13862
2026-01-14 00:58:30.69	71.88	37.11	-45.6	-57.1	3.8	8.45e-01	0	60	104	0	62	13776
2026-01-14 00:58:31.70	72.27	37.21	-45.6	-57.2	3.8	8.47e-01	0	60	104	0	62	13958
2026-01-14 00:58:32.71	72.67	37.32	-45.6	-57.2	3.8	8.46e-01	0	60	104	0	62	13941
2026-01-14 00:58:33.72	73.07	37.42	-45.5	-57.1	3.8	8.46e-01	0	60	104	0	62	13860
2026-01-14 00:58:34.73	73.47	37.51	-45.4	-57.0	3.8	8.46e-01	0	60	104	0	62	13685
2026-01-14 00:58:35.74	73.87	37.61	-45.4	-57.0	3.8	8.46e-01	0	60	104	0	62	13703
2026-01-14 00:58:36.75	74.27	37.71	-45.4	-57.1	3.8	8.47e-01	0	60	104	0	62	13783
2026-01-14 00:58:37.76	74.68	37.80	-45.4	-57.0	3.8	8.46e-01	0	60	104	0	62	13689
2026-01-14 00:58:38.77	75.09	37.90	-45.4	-56.9	3.8	8.47e-01	0	60	104	0	62	13559
2026-01-14 00:58:39.78	75.50	37.99	-45.4	-56.9	3.8	8.46e-01	0	60	104	0	62	13548
2026-01-14 00:58:40.78	75.91	38.08	-45.4	-57.0	3.8	8.46e-01	0	60	104	0	62	13643
2026-01-14 00:58:41.79	76.32	38.17	-45.4	-57.1	3.8	8.46e-01	0	60	104	0	62	13762
2026-01-14 00:58:42.80	76.74	38.26	-45.4	-57.0	3.8	8.46e-01	0	60	104	0	62	13590
2026-01-14 00:58:43.81	77.16	38.34	-45.4	-56.8	3.8	8.45e-01	0	60	104	0	62	13343
2026-01-14 00:58:44.82	77.59	38.43	-45.3	-56.6	3.8	8.46e-01	0	60	104	0	62	13018
2026-01-14 00:58:45.83	78.01	38.51	-45.3	-56.5	3.8	8.47e-01	0	60	104	0	62	12844
2026-01-14 00:58:46.84	78.44	38.59	-45.3	-56.6	3.8	8.46e-01	0	60	104	0	62	13048
2026-01-14 00:58:47.85	78.87	38.68	-45.4	-56.9	3.8	8.47e-01	0	60	104	0	62	13436
2026-01-14 00:58:48.86	79.30	38.75	-45.4	-57.0	3.8	8.45e-01	0	60	104	0	62	13620
2026-01-14 00:58:49.87	79.73	38.83	-45.4	-57.1	3.8	8.46e-01	0	60	104	0	62	13731
2026-01-14 00:58:50.87	80.16	38.91	-45.4	-57.0	3.8	8.46e-01	0	60	104	0	62	13715
2026-01-14 00:58:51.88	80.60	38.98	-45.4	-57.0	3.8	8.46e-01	0	60	104	0	62	13700
2026-01-14 00:58:52.89	81.04	39.05	-45.3	-57.0	3.8	8.46e-01	0	60	104	0	62	13669
2026-01-14 00:58:53.90	81.48	39.12	-45.3	-56.9	3.8	8.46e-01	0	60	104	0	62	13566
2026-01-14 00:58:54.92	81.93	39.19	-45.3	-56.7	3.8	8.46e-01	0	60	104	0	62	13236
2026-01-14 00:58:55.93	82.37	39.26	-45.3	-56.5	3.8	8.46e-01	0	60	104	0	62	12874
2026-01-14 00:58:56.94	82.82	39.33	-45.2	-56.0	3.8	8.46e-01	0	60	104	0	62	12164
2026-01-14 00:58:57.95	83.27	39.39	-45.2	-55.7	3.8	8.45e-01	0	60	104	0	62	11710
2026-01-14 00:58:58.96	83.72	39.45	-45.2	-55.6	3.8	8.46e-01	0	60	104	0	62	11649
2026-01-14 00:58:59.97	84.17	39.51	-45.2	-56.1	3.8	8.46e-01	0	60	104	0	62	12290
2026-01-14 00:59:00.98	84.62	39.57	-45.3	-56.7	3.8	8.47e-01	0	61	104	0	62	13118
2026-01-14 00:59:01.99	85.08	39.63	-45.3	-56.6	3.8	8.46e-01	0	60	104	0	62	13091
2026-01-14 00:59:03.00	85.54	39.68	-45.3	-56.3	3.8	8.46e-01	0	60	104	0	62	12600
2026-01-14 00:59:04.01	85.99	39.73	-45.2	-55.9	3.8	8.47e-01	0	60	104	0	62	12072
2026-01-14 00:59:05.02	86.45	39.78	-45.3	-56.1	3.8	8.45e-01	0	60	104	0	62	12311
2026-01-14 00:59:06.03	86.91	39.83	-45.3	-56.3	3.8	8.47e-01	0	60	104	0	62	12610
2026-01-14 00:59:07.05	87.38	39.88	-45.2	-55.5	3.8	8.45e-01	0	60	104	0	62	11486
2026-01-14 00:59:08.06	87.85	39.92	-45.1	-54.7	3.8	8.46e-01	0	60	104	0	62	10517
2026-01-14 00:59:09.07	88.31	39.96	-45.0	-54.8	3.8	8.44e-01	0	60	104	0	62	10564
2026-01-14 00:59:10.08	88.78	40.00	-45.1	-55.2	3.8	8.46e-01	0	61	104	0	62	11139
2026-01-14 00:59:11.09	89.24	40.04	-45.1	-55.1	3.9	8.45e-01	0	60	104	0	62	10951
2026-01-14 00:59:12.10	89.71	40.08	-45.0	-54.5	3.8	8.44e-01	0	60	104	0	62	10293
2026-01-14 00:59:13.11	90.18	40.11	-45.1	-55.2	3.8	8.45e-01	0	61	104	0	62	11051
2026-01-14 00:59:14.12	90.65	40.14	-45.3	-56.8	3.8	8.46e-01	0	61	104	0	62	13314
2026-01-14 00:59:15.13	91.12	40.17	-45.0	-54.1	3.9	8.45e-01	0	60	104	0	62	9800
2026-01-14 00:59:16.14	91.59	40.20	-43.3	-47.9	7.7	3.96e-01	0	60	0	2097152	58	5993
2026-01-14 00:59:17.15	92.07	40.23	-41.4	-44.5	11.0	5.19e-03	0	61	0	7340032	54	5104
2026-01-14 00:59:18.16	92.54	40.25	-40.9	-43.7	11.8	6.46e-04	0	60	0	13631488	53	4944
2026-01-14 00:59:19.17	93.02	40.27	-42.2	-45.7	9.7	7.21e-03	0	61	0	18874368	54	5916
2026-01-14 00:59:20.18	93.49	40.29	-44.4	-51.1	5.1	4.02e-01	0	60	0	24117248	59	8260
2026-01-14 00:59:21.19	93.97	40.31	-41.8	-45.1	10.3	3.17e-02	0	61	0	28311552	55	5164
2026-01-14 00:59:22.20	94.44	40.32	-38.8	-40.9	14.7	8.00e-06	0	60	0	33554432	49	4512
2026-01-14 00:59:23.21	94.92	40.34	-37.5	-39.3	16.1	0.00e+00	0	60	0	39845888	46	4487
2026-01-14 00:59:24.22	95.39	40.35	-43.8	-49.0	6.5	2.55e-01	0	60	0	45088768	58	6854
2026-01-14 00:59:25.23	95.87	40.36	-41.5	-44.5	10.6	1.90e-01	0	60	0	51380224	55	4854
2026-01-14 00:59:26.24	96.35	40.36	-38.8	-40.8	14.8	0.00e+00	0	60	0	56623104	49	4462
2026-01-14 00:59:27.25	96.83	40.37	-38.4	-40.4	15.0	1.60e-05	0	61	0	61865984	49	4271
2026-01-14 00:59:28.26	97.30	40.37	-45.1	-55.5	3.8	8.43e-01	0	60	104	65011712	61	12192
2026-01-14 00:59:29.27	97.78	40.37	-37.3	-39.0	16.3	1.10e-06	0	61	0	67108864	46	4340
2026-01-14 00:59:30.28	98.26	40.37	-37.1	-38.8	16.5	0.00e+00	0	61	0	72351744	46	4219
2026-01-14 00:59:31.29	98.74	40.36	-36.8	-38.5	16.8	0.00e+00	0	61	0	78643200	45	4338
2026-01-14 00:59:32.30	99.21	40.35	-36.7	-38.4	16.9	0.00e+00	0	60	0	83886080	45	4247
2026-01-14 00:59:33.31	99.69	40.35	-36.7	-38.4	16.8	0.00e+00	0	61	0	89128960	45	4286
2026-01-14 00:59:34.32	100.17	40.33	-36.7	-38.4	16.9	0.00e+00	0	61	0	95420416	45	4247
2026-01-14 00:59:35.33	100.64	40.32	-36.4	-38.1	17.2	0.00e+00	0	61	0	100663296	44	4360
2026-01-14 00:59:36.34	101.12	40.31	-36.4	-38.1	17.3	0.00e+00	0	61	0	106954752	44	4354
2026-01-14 00:59:37.35	101.59	40.29	-36.3	-37.9	17.4	0.00e+00	0	61	0	112197632	44	4290
2026-01-14 00:59:38.36	102.07	40.27	-36.3	-37.9	17.4	0.00e+00	0	61	0	117440512	44	4251
2026-01-14 00:59:39.37	102.54	40.25	-36.3	-37.9	17.4	0.00e+00	0	61	0	123731968	44	4269
2026-01-14 00:59:40.38	103.02	40.22	-36.3	-38.0	17.4	0.00e+00	0	61	0	128974848	44	4302
2026-01-14 00:59:41.39	103.49	40.19	-36.4	-38.1	17.3	0.00e+00	0	60	0	135266304	44	4350
2026-01-14 00:59:42.40	103.96	40.17	-36.4	-38.1	17.2	0.00e+00	0	61	0	140509184	44	4369
2026-01-14 00:59:43.41	104.43	40.14	-36.5	-38.2	17.1	0.00e+00	0	60	0	146800640	44	4394
2026-01-14 00:59:44.42	104.90	40.10	-36.4	-38.1	17.2	0.00e+00	0	61	0	152043520	44	4343
2026-01-14 00:59:45.43	105.37	40.07	-36.2	-37.9	17.4	0.00e+00	0	61	0	157286400	44	4243
2026-01-14 00:59:46.44	105.84	40.03	-36.2	-37.7	17.5	0.00e+00	0	61	0	163577856	44	4186
2026-01-14 00:59:47.45	106.31	39.99	-36.2	-37.8	17.5	0.00e+00	0	61	0	168820736	44	4202
2026-01-14 00:59:48.46	106.78	39.95	-36.2	-37.9	17.4	0.00e+00	0	60	0	175112192	44	4249
2026-01-14 00:59:49.47	107.24	39.91	-36.2	-37.8	17.5	0.00e+00	0	61	0	180355072	44	4195
2026-01-14 00:59:50.48	107.71	39.86	-36.2	-37.8	17.5	0.00e+00	0	61	0	185597952	44	4215
2026-01-14 00:59:51.49	108.17	39.82	-36.3	-37.9	17.4	0.00e+00	0	61	0	191889408	44	4253
2026-01-14 00:59:52.50	108.63	39.77	-36.3	-38.0	17.3	0.00e+00	0	60	0	197132288	44	4297
2026-01-14 00:59:53.51	109.09	39.72	-36.2	-37.8	17.5	0.00e+00	0	61	0	203423744	44	4230
2026-01-14 00:59:54.52	109.55	39.66	-36.0	-37.6	17.7	0.00e+00	0	61	0	208666624	44	4115
2026-01-14 00:59:55.53	110.01	39.61	-35.8	-37.3	17.8	0.00e+00	0	61	0	214958080	43	4206
2026-01-14 00:59:56.54	110.46	39.55	-35.8	-37.4	17.7	0.00e+00	0	61	0	220200960	43	4252
2026-01-14 00:59:57.55	110.91	39.49	-36.1	-37.7	17.4	0.00e+00	0	61	0	225443840	43	4419
2026-01-14 00:59:58.56	111.37	39.43	-36.2	-37.9	17.3	0.00e+00	0	61	0	231735296	43	4508
2026-01-14 00:59:59.57	111.82	39.37	-36.1	-37.8	17.3	0.00e+00	0	61	0	236978176	43	4450
2026-01-14 01:00:00.57	112.26	39.31	-36.0	-37.6	17.5	0.00e+00	0	61	0	243269632	43	4356
2026-01-14 01:00:01.58	112.71	39.24	-36.0	-37.5	17.6	0.00e+00	0	61	0	248512512	43	4322
2026-01-14 01:00:02.60	113.16	39.17	-36.1	-37.7	17.4	0.00e+00	0	61	0	254803968	43	4419
2026-01-14 01:00:03.61	113.60	39.10	-36.2	-37.8	17.3	0.00e+00	0	61	0	260046848	43	4491
2026-01-14 01:00:04.62	114.04	39.03	-36.2	-37.8	17.3	0.00e+00	0	61	0	265289728	43	4487
2026-01-14 01:00:05.63	114.48	38.96	-36.0	-37.6	17.5	0.00e+00	0	60	0	271581184	43	4375
2026-01-14 01:00:06.64	114.92	38.88	-35.9	-37.4	17.7	0.00e+00	0	61	0	276824064	43	4285
2026-01-14 01:00:07.65	115.36	38.81	-35.8	-37.4	17.7	0.00e+00	0	61	0	283115520	43	4254
2026-01-14 01:00:08.66	115.79	38.73	-35.9	-37.5	17.6	0.00e+00	0	61	0	288358400	43	4312
2026-01-14 01:00:09.67	116.22	38.65	-36.0	-37.6	17.5	0.00e+00	0	61	0	293601280	43	4389
2026-01-14 01:00:10.68	116.65	38.57	-36.2	-37.8	17.3	0.00e+00	0	61	0	299892736	43	4480
2026-01-14 01:00:11.69	117.08	38.48	-36.2	-37.8	17.2	0.00e+00	0	61	0	305135616	43	4487
2026-01-14 01:00:12.70	117.50	38.40	-36.1	-37.7	17.4	0.00e+00	0	61	0	311427072	43	4433
2026-01-14 01:00:13.71	117.93	38.31	-36.1	-37.7	17.5	0.00e+00	0	61	0	316669952	43	4396
2026-01-14 01:00:14.72	118.35	38.23	-36.0	-37.6	17.5	0.00e+00	0	61	0	321912832	43	4376
2026-01-14 01:00:15.73	118.77	38.14	-36.0	-37.6	17.5	0.00e+00	0	61	0	328204288	43	4366
2026-01-14 01:00:16.75	119.19	38.05	-36.0	-37.6	17.5	0.00e+00	0	61	0	333447168	43	4347
2026-01-14 01:00:17.76	119.60	37.95	-36.0	-37.6	17.6	0.00e+00	0	61	0	339738624	43	4343
2026-01-14 01:00:18.77	120.01	37.86	-36.0	-37.6	17.5	0.00e+00	0	61	0	344981504	43	4357
2026-01-14 01:00:19.78	120.42	37.77	-36.1	-37.7	17.4	0.00e+00	0	61	0	351272960	43	4398
2026-01-14 01:00:20.79	120.83	37.67	-36.1	-37.7	17.4	0.00e+00	0	61	0	356515840	43	4414
2026-01-14 01:00:21.79	121.23	37.58	-36.1	-37.7	17.4	0.00e+00	0	61	0	362807296	43	4399
2026-01-14 01:00:22.80	121.63	37.48	-36.0	-37.6	17.5	0.00e+00	0	60	0	368050176	43	4382
2026-01-14 01:00:23.81	122.03	37.38	-36.1	-37.7	17.4	0.00e+00	0	61	0	373293056	43	4415
2026-01-14 01:00:24.82	122.43	37.28	-36.2	-37.8	17.3	0.00e+00	0	61	0	379584512	43	4472
2026-01-14 01:00:25.83	122.82	37.17	-36.2	-37.9	17.3	0.00e+00	0	61	0	384827392	43	4497
2026-01-14 01:00:26.84	123.22	37.07	-36.2	-37.9	17.3	0.00e+00	0	60	0	391118848	43	4503
2026-01-14 01:00:27.85	123.61	36.97	-36.2	-37.9	17.2	0.00e+00	0	61	0	396361728	43	4507
2026-01-14 01:00:28.86	123.99	36.86	-36.2	-37.8	17.3	0.00e+00	0	61	0	401604608	43	4477
2026-01-14 01:00:29.87	124.38	36.75	-36.1	-37.8	17.4	0.00e+00	0	61	0	407896064	43	4443
2026-01-14 01:00:30.88	124.76	36.65	-36.1	-37.7	17.4	0.00e+00	0	61	0	413138944	43	4435
2026-01-14 01:00:31.89	125.14	36.54	-36.1	-37.7	17.4	0.00e+00	0	61	0	419430400	43	4439
2026-01-14 01:00:32.90	125.52	36.43	-36.1	-37.7	17.4	0.00e+00	0	61	0	424673280	43	4406
2026-01-14 01:00:33.92	125.90	36.32	-35.9	-37.5	17.6	0.00e+00	0	61	0	429916160	43	4324
2026-01-14 01:00:34.93	126.27	36.21	-35.8	-37.4	17.7	0.00e+00	0	61	0	436207616	43	4252
2026-01-14 01:00:35.94	126.64	36.09	-35.8	-37.4	17.7	0.00e+00	0	61	0	441450496	43	4267
2026-01-14 01:00:36.95	127.01	35.98	-36.0	-37.6	17.5	0.00e+00	0	61	0	447741952	43	4357
2026-01-14 01:00:37.96	127.37	35.86	-36.2	-37.8	17.3	0.00e+00	0	61	0	452984832	43	4474
2026-01-14 01:00:38.97	127.74	35.75	-36.3	-38.0	17.1	0.00e+00	0	61	0	458227712	43	4598
2026-01-14 01:00:39.98	128.10	35.63	-36.3	-38.0	17.2	0.00e+00	0	61	0	464519168	43	4547
2026-01-14 01:00:40.99	128.45	35.52	-36.2	-37.8	17.3	0.00e+00	0	61	0	469762048	43	4477
2026-01-14 01:00:41.99	128.81	35.40	-36.1	-37.7	17.4	0.00e+00	0	61	0	476053504	43	4415
2026-01-14 01:00:43.00	129.16	35.28	-36.1	-37.7	17.5	0.00e+00	0	61	0	481296384	43	4392
2026-01-14 01:00:44.02	129.51	35.16	-36.0	-37.6	17.4	0.00e+00	0	61	0	487587840	43	4390
2026-01-14 01:00:45.03	129.86	35.04	-36.0	-37.6	17.4	0.00e+00	0	61	0	492830720	43	4389
2026-01-14 01:00:46.03	130.20	34.92	-36.0	-37.6	17.5	0.00e+00	0	61	0	499122176	43	4379
2026-01-14 01:00:47.04	130.54	34.80	-36.0	-37.6	17.5	0.00e+00	0	61	0	504365056	43	4357
2026-01-14 01:00:48.05	130.88	34.68	-36.0	-37.6	17.5	0.00e+00	0	61	0	509607936	43	4371
2026-01-14 01:00:49.06	131.22	34.56	-36.1	-37.8	17.3	0.00e+00	0	61	0	515899392	43	4456
2026-01-14 01:00:50.07	131.56	34.43	-36.2	-37.9	17.2	0.00e+00	0	61	0	521142272	43	4502
2026-01-14 01:00:51.09	131.89	34.31	-36.2	-37.9	17.2	0.00e+00	0	61	0	527433728	43	4529
2026-01-14 01:00:52.10	132.22	34.18	-36.3	-37.9	17.1	0.00e+00	0	61	0	532676608	43	4537
2026-01-14 01:00:53.11	132.55	34.06	-36.3	-38.0	17.1	0.00e+00	0	61	0	537919488	43	4566
2026-01-14 01:00:54.12	132.88	33.93	-36.4	-38.1	17.0	0.00e+00	0	61	0	544210944	43	4630
2026-01-14 01:00:55.13	133.20	33.81	-36.5	-38.2	16.8	0.00e+00	0	61	0	549453824	43	4701
2026-01-14 01:00:56.14	133.52	33.68	-36.5	-38.3	16.8	0.00e+00	0	61	0	555745280	43	4717
2026-01-14 01:00:57.15	133.84	33.55	-36.4	-38.1	16.9	0.00e+00	0	61	0	560988160	43	4627
2026-01-14 01:00:58.16	134.15	33.43	-36.3	-37.9	17.1	0.00e+00	0	61	0	566231040	43	4527
2026-01-14 01:00:59.17	134.46	33.30	-36.2	-37.9	17.2	0.00e+00	0	61	0	572522496	43	4516
2026-01-14 01:01:00.17	134.77	33.17	-36.3	-38.0	17.1	0.00e+00	0	61	0	577765376	43	4553
2026-01-14 01:01:01.19	135.08	33.04	-36.3	-38.0	17.0	0.00e+00	0	61	0	584056832	43	4597
2026-01-14 01:01:02.20	135.39	32.92	-36.3	-38.0	17.0	0.00e+00	0	61	0	589299712	43	4580
2026-01-14 01:01:03.21	135.69	32.79	-36.2	-37.9	17.1	0.00e+00	0	61	0	595591168	43	4523
2026-01-14 01:01:04.22	135.99	32.66	-36.2	-37.8	17.2	0.00e+00	0	61	0	600834048	43	4487
2026-01-14 01:01:05.22	136.29	32.53	-36.2	-37.8	17.2	0.00e+00	0	61	0	606076928	43	4471
2026-01-14 01:01:06.24	136.59	32.40	-36.2	-37.8	17.2	0.00e+00	0	61	0	612368384	43	4474
2026-01-14 01:01:07.25	136.88	32.27	-36.2	-37.8	17.2	0.00e+00	0	61	0	617611264	43	4475
2026-01-14 01:01:08.26	137.17	32.14	-36.2	-37.9	17.1	0.00e+00	0	61	0	623902720	43	4498
2026-01-14 01:01:09.26	137.46	32.01	-36.3	-37.9	17.1	0.00e+00	0	61	0	629145600	43	4538
2026-01-14 01:01:10.27	137.75	31.88	-36.3	-38.1	17.0	0.00e+00	0	61	0	634388480	43	4599
2026-01-14 01:01:11.28	138.03	31.75	-36.4	-38.2	16.8	0.00e+00	0	61	0	640679936	43	4672
2026-01-14 01:01:12.29	138.32	31.61	-36.5	-38.2	16.8	0.00e+00	0	61	0	645922816	43	4689
2026-01-14 01:01:13.30	138.60	31.48	-36.5	-38.2	16.8	0.00e+00	0	61	0	652214272	43	4683
2026-01-14 01:01:14.31	138.87	31.35	-36.4	-38.1	16.9	0.00e+00	0	61	0	657457152	43	4651
2026-01-14 01:01:15.32	139.15	31.22	-36.4	-38.1	16.9	0.00e+00	0	61	0	662700032	43	4609
2026-01-14 01:01:16.33	139.42	31.09	-36.3	-38.0	17.0	0.00e+00	0	61	0	668991488	43	4589
2026-01-14 01:01:17.34	139.70	30.96	-36.3	-38.0	17.0	0.00e+00	0	61	0	674234368	43	4569
2026-01-14 01:01:18.35	139.97	30.82	-36.3	-38.0	17.0	0.00e+00	0	61	0	680525824	43	4582
2026-01-14 01:01:19.36	140.23	30.69	-36.4	-38.1	16.9	0.00e+00	0	61	0	685768704	43	4641
2026-01-14 01:01:20.37	140.50	30.56	-36.5	-38.2	16.8	0.00e+00	0	61	0	692060160	43	4697
2026-01-14 01:01:21.38	140.76	30.43	-36.7	-38.4	16.6	0.00e+00	0	61	0	697303040	43	4810
2026-01-14 01:01:22.39	141.02	30.30	-36.9	-38.7	16.4	0.00e+00	0	61	0	703594496	44	4697
2026-01-14 01:01:23.40	141.28	30.16	-37.0	-38.9	16.3	0.00e+00	0	61	0	708837376	44	4773
2026-01-14 01:01:24.41	141.54	30.03	-37.0	-38.8	16.4	0.00e+00	0	61	0	714080256	44	4731
2026-01-14 01:01:25.42	141.79	29.90	-36.9	-38.7	16.4	0.00e+00	0	61	0	720371712	44	4683
2026-01-14 01:01:26.42	142.04	29.77	-36.8	-38.6	16.5	0.00e+00	0	61	0	725614592	44	4619
2026-01-14 01:01:27.43	142.29	29.64	-36.8	-38.5	16.6	0.00e+00	0	61	0	731906048	44	4587
2026-01-14 01:01:28.45	142.54	29.50	-36.7	-38.5	16.6	0.00e+00	0	61	0	737148928	44	4563
2026-01-14 01:01:29.45	142.79	29.37	-36.7	-38.5	16.7	0.00e+00	0	61	0	742391808	44	4555
2026-01-14 01:01:30.47	143.04	29.24	-36.8	-38.5	16.6	0.00e+00	0	61	0	748683264	44	4588
2026-01-14 01:01:31.47	143.28	29.11	-36.8	-38.6	16.6	0.00e+00	0	61	0	753926144	44	4624
2026-01-14 01:01:32.48	143.52	28.98	-36.9	-38.7	16.5	0.00e+00	0	61	0	760217600	44	4652
2026-01-14 01:01:33.49	143.76	28.84	-36.9	-38.7	16.4	0.00e+00	0	61	0	765460480	44	4683
2026-01-14 01:01:34.50	143.99	28.71	-36.9	-38.7	16.5	0.00e+00	0	61	0	770703360	44	4674
2026-01-14 01:01:35.51	144.23	28.58	-36.8	-38.6	16.5	0.00e+00	0	61	0	776994816	44	4630
2026-01-14 01:01:36.52	144.46	28.45	-36.8	-38.5	16.6	0.00e+00	0	61	0	782237696	44	4573
2026-01-14 01:01:37.53	144.69	28.32	-36.7	-38.5	16.7	0.00e+00	0	61	0	788529152	44	4549
2026-01-14 01:01:38.54	144.92	28.19	-36.7	-38.4	16.7	0.00e+00	0	61	0	793772032	44	4526
2026-01-14 01:01:39.56	145.15	28.05	-36.7	-38.4	16.7	0.00e+00	0	61	0	800063488	44	4535
2026-01-14 01:01:40.57	145.38	27.92	-36.7	-38.5	16.7	0.00e+00	0	61	0	805306368	44	4555
2026-01-14 01:01:41.58	145.60	27.79	-36.8	-38.6	16.6	0.00e+00	0	61	0	810549248	44	4606
2026-01-14 01:01:42.58	145.82	27.66	-36.8	-38.6	16.5	0.00e+00	0	61	0	816840704	44	4638
2026-01-14 01:01:43.59	146.04	27.53	-36.8	-38.6	16.5	0.00e+00	0	61	0	822083584	44	4637
2026-01-14 01:01:44.60	146.26	27.40	-36.8	-38.6	16.6	0.00e+00	0	61	0	828375040	44	4624
2026-01-14 01:01:45.61	146.48	27.27	-36.8	-38.6	16.6	0.00e+00	0	61	0	833617920	44	4606
2026-01-14 01:01:46.62	146.69	27.14	-36.8	-38.5	16.6	0.00e+00	0	61	0	838860800	44	4586
2026-01-14 01:01:47.63	146.91	27.01	-36.7	-38.5	16.7	0.00e+00	0	61	0	845152256	44	4547
2026-01-14 01:01:48.64	147.12	26.88	-36.7	-38.4	16.7	0.00e+00	0	61	0	850395136	44	4505
2026-01-14 01:01:49.65	147.33	26.75	-36.6	-38.3	16.8	0.00e+00	0	61	0	856686592	44	4475
2026-01-14 01:01:50.66	147.54	26.62	-36.6	-38.3	16.8	0.00e+00	0	61	0	861929472	44	4461
2026-01-14 01:01:51.67	147.74	26.50	-36.6	-38.3	16.8	0.00e+00	0	61	0	867172352	44	4468
2026-01-14 01:01:52.68	147.95	26.37	-36.6	-38.3	16.7	0.00e+00	0	61	0	873463808	44	4487
2026-01-14 01:01:53.69	148.15	26.24	-36.7	-38.5	16.6	0.00e+00	0	61	0	878706688	44	4561
2026-01-14 01:01:54.70	148.36	26.11	-36.8	-38.6	16.5	0.00e+00	0	61	0	884998144	44	4615
2026-01-14 01:01:55.71	148.56	25.98	-36.9	-38.7	16.4	0.00e+00	0	61	0	890241024	44	4680
2026-01-14 01:01:56.72	148.75	25.86	-36.9	-38.8	16.3	0.00e+00	0	61	0	896532480	44	4718
2026-01-14 01:01:57.73	148.95	25.73	-37.0	-38.8	16.3	0.00e+00	0	61	0	901775360	44	4740
2026-01-14 01:01:58.74	149.15	25.60	-37.0	-38.8	16.3	0.00e+00	0	61	0	908066816	44	4715
2026-01-14 01:01:59.74	149.34	25.48	-37.0	-38.8	16.3	0.00e+00	0	61	0	913309696	44	4744
2026-01-14 01:02:00.76	149.54	25.35	-36.9	-38.7	16.4	0.00e+00	0	61	0	918552576	44	4673
2026-01-14 01:02:01.77	149.73	25.22	-36.9	-38.7	16.4	0.00e+00	0	61	0	924844032	44	4664
2026-01-14 01:02:02.78	149.92	25.09	-36.9	-38.7	16.4	0.00e+00	0	61	0	930086912	44	4672
2026-01-14 01:02:03.79	150.10	24.97	-36.9	-38.7	16.4	0.00e+00	0	61	0	936378368	44	4673
2026-01-14 01:02:04.80	150.29	24.84	-36.9	-38.7	16.4	0.00e+00	0	61	0	941621248	44	4663
2026-01-14 01:02:05.81	150.48	24.72	-36.9	-38.7	16.4	0.00e+00	0	61	0	946864128	44	4654
2026-01-14 01:02:06.82	150.66	24.59	-36.9	-38.6	16.4	0.00e+00	0	61	0	953155584	44	4649
2026-01-14 01:02:07.82	150.84	24.47	-36.9	-38.6	16.4	0.00e+00	0	61	0	958398464	44	4642
2026-01-14 01:02:08.83	151.02	24.35	-36.9	-38.6	16.4	0.00e+00	0	61	0	964689920	44	4645
2026-01-14 01:02:09.84	151.20	24.22	-36.9	-38.7	16.4	0.00e+00	0	61	0	969932800	44	4679
2026-01-14 01:02:10.85	151.38	24.10	-37.0	-38.8	16.3	0.00e+00	0	61	0	975175680	44	4710
2026-01-14 01:02:11.86	151.56	23.97	-37.0	-38.8	16.2	0.00e+00	0	61	0	981467136	44	4759
2026-01-14 01:02:12.87	151.73	23.85	-37.1	-38.9	16.1	0.00e+00	0	61	0	986710016	44	4811
2026-01-14 01:02:13.88	151.91	23.73	-37.1	-38.9	16.1	0.00e+00	0	61	0	993001472	44	4788
2026-01-14 01:02:14.89	152.08	23.61	-37.1	-39.0	16.1	0.00e+00	0	61	0	998244352	44	4826
2026-01-14 01:02:15.90	152.25	23.48	-37.1	-39.0	16.0	0.00e+00	0	61	0	1004535808	44	4841
2026-01-14 01:02:16.91	152.42	23.36	-37.1	-39.0	16.0	0.00e+00	0	61	0	1009778688	44	4826
2026-01-14 01:02:17.92	152.59	23.24	-37.1	-39.0	16.0	0.00e+00	0	61	0	1015021568	44	4817
2026-01-14 01:02:18.94	152.76	23.12	-37.1	-39.0	16.0	0.00e+00	0	61	0	1021313024	44	4833
2026-01-14 01:02:19.94	152.93	23.00	-37.1	-39.0	16.0	0.00e+00	0	61	0	1026555904	44	4834
2026-01-14 01:02:20.95	153.09	22.88	-37.1	-39.0	16.0	0.00e+00	0	61	0	1032847360	44	4837
2026-01-14 01:02:21.96	153.26	22.76	-37.2	-39.1	15.9	0.00e+00	0	61	0	1038090240	44	4872
2026-01-14 01:02:22.97	153.42	22.64	-37.3	-39.2	15.8	0.00e+00	0	61	0	1043333120	45	4683
2026-01-14 01:02:23.98	153.58	22.52	-37.4	-39.4	15.6	0.00e+00	0	61	0	1049624576	45	4778
2026-01-14 01:02:24.99	153.74	22.40	-37.5	-39.5	15.5	0.00e+00	0	61	0	1054867456	45	4825
2026-01-14 01:02:26.00	153.90	22.28	-37.6	-39.5	15.5	0.00e+00	0	61	0	1061158912	45	4852
2026-01-14 01:02:27.01	154.06	22.16	-37.6	-39.5	15.5	0.00e+00	0	61	0	1066401792	45	4838
2026-01-14 01:02:28.02	154.21	22.04	-37.4	-39.4	15.6	0.00e+00	0	61	0	1071644672	45	4771
2026-01-14 01:02:29.03	154.37	21.92	-37.4	-39.3	15.7	0.00e+00	0	61	0	1077936128	45	4737
2026-01-14 01:02:30.04	154.53	21.81	-37.4	-39.3	15.7	0.00e+00	0	61	0	1083179008	45	4725
2026-01-14 01:02:31.05	154.68	21.69	-37.4	-39.3	15.6	0.00e+00	0	61	0	1089470464	45	4757
2026-01-14 01:02:32.06	154.83	21.57	-37.4	-39.3	15.7	0.00e+00	0	61	0	1094713344	45	4710
2026-01-14 01:02:33.07	154.98	21.46	-37.4	-39.2	15.8	0.00e+00	0	61	0	1101004800	45	4690
2026-01-14 01:02:34.08	155.13	21.34	-37.4	-39.3	15.7	0.00e+00	0	61	0	1106247680	45	4726
2026-01-14 01:02:35.09	155.28	21.22	-37.5	-39.4	15.6	0.00e+00	0	61	0	1112539136	45	4803
2026-01-14 01:02:36.10	155.43	21.11	-37.6	-39.6	15.4	0.00e+00	0	61	0	1117782016	45	4875
2026-01-14 01:02:37.11	155.58	20.99	-37.8	-39.8	15.2	1.10e-06	0	61	0	1123024896	46	4708
2026-01-14 01:02:38.13	155.72	20.88	-37.9	-40.0	15.0	1.10e-06	0	61	0	1129316352	46	4818
2026-01-14 01:02:39.14	155.87	20.76	-38.1	-40.2	14.8	0.00e+00	0	61	0	1134559232	46	4947
2026-01-14 01:02:40.15	156.01	20.65	-38.1	-40.2	14.8	2.20e-06	0	61	0	1140850688	46	4962
2026-01-14 01:02:41.16	156.15	20.53	-38.0	-40.0	14.9	0.00e+00	0	61	0	1146093568	46	4858
2026-01-14 01:02:42.17	156.30	20.42	-37.9	-39.9	15.0	1.10e-06	0	61	0	1151336448	46	4801
2026-01-14 01:02:43.17	156.44	20.31	-37.9	-39.9	15.0	0.00e+00	0	61	0	1157627904	46	4797
2026-01-14 01:02:44.18	156.58	20.20	-37.9	-40.0	15.0	0.00e+00	0	61	0	1162870784	46	4824
2026-01-14 01:02:45.20	156.72	20.08	-37.8	-39.8	15.2	0.00e+00	0	61	0	1169162240	46	4752
2026-01-14 01:02:46.21	156.85	19.97	-37.8	-39.8	15.2	0.00e+00	0	61	0	1174405120	46	4715
2026-01-14 01:02:47.22	156.99	19.86	-37.8	-39.8	15.1	1.10e-06	0	61	0	1179648000	46	4752
2026-01-14 01:02:48.23	157.13	19.75	-37.9	-39.9	15.1	1.10e-06	0	61	0	1185939456	46	4776
2026-01-14 01:02:49.24	157.26	19.64	-37.9	-39.9	15.0	0.00e+00	0	61	0	1191182336	46	4809
2026-01-14 01:02:50.25	157.39	19.53	-37.9	-40.0	15.0	0.00e+00	0	61	0	1197473792	46	4831
2026-01-14 01:02:51.26	157.53	19.42	-38.0	-40.0	14.9	0.00e+00	0	61	0	1202716672	46	4844
2026-01-14 01:02:52.27	157.66	19.31	-38.0	-40.1	14.9	0.00e+00	0	61	0	1209008128	46	4881
2026-01-14 01:02:53.28	157.79	19.20	-38.0	-40.1	14.8	0.00e+00	0	61	0	1214251008	46	4898
2026-01-14 01:02:54.29	157.92	19.09	-38.0	-40.1	14.8	1.10e-06	0	61	0	1220542464	46	4912
2026-01-14 01:02:55.30	158.05	18.98	-38.0	-40.0	14.9	0.00e+00	0	61	0	1225785344	46	4861
2026-01-14 01:02:56.31	158.18	18.87	-38.0	-40.0	14.9	1.10e-06	0	61	0	1231028224	46	4849
2026-01-14 01:02:57.32	158.31	18.76	-38.0	-40.0	14.9	0.00e+00	0	61	0	1237319680	46	4860
2026-01-14 01:02:58.33	158.43	18.65	-38.0	-40.1	14.9	0.00e+00	0	61	0	1242562560	46	4876
2026-01-14 01:02:59.34	158.56	18.54	-38.1	-40.2	14.8	0.00e+00	0	61	0	1248854016	46	4928
2026-01-14 01:03:00.35	158.68	18.44	-38.0	-40.0	14.9	0.00e+00	0	61	0	1254096896	46	4860
2026-01-14 01:03:01.36	158.81	18.33	-38.0	-40.0	14.9	0.00e+00	0	61	0	1259339776	46	4832
2026-01-14 01:03:02.37	158.93	18.22	-38.0	-40.1	14.8	0.00e+00	0	61	0	1265631232	46	4895
2026-01-14 01:03:03.38	159.05	18.12	-38.0	-40.1	14.9	1.10e-06	0	61	0	1270874112	46	4876
2026-01-14 01:03:04.39	159.17	18.01	-38.0	-40.1	14.8	0.00e+00	0	61	0	1277165568	46	4906
2026-01-14 01:03:05.40	159.29	17.91	-38.1	-40.2	14.7	0.00e+00	0	61	0	1282408448	46	4969
2026-01-14 01:03:06.41	159.41	17.80	-38.3	-40.4	14.5	1.10e-06	0	61	0	1287651328	47	4777
2026-01-14 01:03:07.42	159.53	17.70	-38.3	-40.4	14.5	1.10e-06	0	61	0	1293942784	47	4787
2026-01-14 01:03:08.43	159.65	17.59	-38.3	-40.4	14.5	1.10e-06	0	61	0	1299185664	47	4793
2026-01-14 01:03:09.44	159.77	17.49	-38.3	-40.5	14.5	1.10e-06	0	61	0	1305477120	47	4819
2026-01-14 01:03:10.45	159.89	17.38	-38.4	-40.6	14.3	0.00e+00	0	61	0	1310720000	47	4873
2026-01-14 01:03:11.45	160.00	17.28	-38.4	-40.6	14.3	2.20e-06	0	61	0	1317011456	47	4910
2026-01-14 01:03:12.46	160.12	17.18	-38.4	-40.6	14.3	0.00e+00	0	61	0	1322254336	47	4879
2026-01-14 01:03:13.48	160.23	17.07	-38.4	-40.6	14.3	1.10e-06	0	61	0	1327497216	47	4874
2026-01-14 01:03:14.49	160.35	16.97	-38.5	-40.6	14.3	0.00e+00	0	61	0	1333788672	47	4912
2026-01-14 01:03:15.50	160.46	16.87	-38.5	-40.6	14.2	1.10e-06	0	61	0	1339031552	47	4926
2026-01-14 01:03:16.51	160.57	16.77	-38.4	-40.6	14.2	3.40e-06	0	61	0	1345323008	47	4908
2026-01-14 01:03:17.52	160.68	16.66	-38.5	-40.7	14.1	3.40e-06	0	61	0	1350565888	47	4982
2026-01-14 01:03:18.53	160.79	16.56	-38.5	-40.7	14.2	9.10e-06	0	61	0	1356857344	47	4962
2026-01-14 01:03:19.54	160.90	16.46	-38.4	-40.6	14.2	3.40e-06	0	61	0	1362100224	47	4907
2026-01-14 01:03:20.55	161.01	16.36	-38.4	-40.6	14.3	1.10e-06	0	61	0	1367343104	47	4879
2026-01-14 01:03:21.56	161.12	16.26	-38.5	-40.7	14.1	3.40e-06	0	61	0	1373634560	47	4943
2026-01-14 01:03:22.57	161.23	16.16	-38.5	-40.7	14.1	6.80e-06	0	61	0	1378877440	47	4963
2026-01-14 01:03:23.58	161.34	16.06	-38.5	-40.7	14.1	0.00e+00	0	61	0	1384120320	47	4966
2026-01-14 01:03:24.59	161.44	15.96	-38.6	-40.8	14.0	8.00e-06	0	61	0	1390411776	47	5005
2026-01-14 01:03:25.60	161.55	15.86	-38.6	-40.8	14.0	4.50e-06	0	61	0	1395654656	47	5023
2026-01-14 01:03:26.60	161.65	15.76	-38.7	-41.0	13.8	5.70e-06	0	61	0	1401946112	47	5108
2026-01-14 01:03:27.61	161.76	15.66	-38.8	-41.0	13.9	8.00e-06	0	61	0	1407188992	48	4858
2026-01-14 01:03:28.62	161.86	15.57	-38.8	-41.1	13.9	8.00e-06	0	61	0	1413480448	48	4871
2026-01-14 01:03:29.63	161.96	15.47	-38.9	-41.1	13.8	1.02e-05	0	61	0	1418723328	48	4917
2026-01-14 01:03:30.64	162.07	15.37	-38.8	-41.1	13.8	6.80e-06	0	61	0	1425014784	48	4898
2026-01-14 01:03:31.65	162.17	15.27	-38.9	-41.1	13.7	1.25e-05	0	61	0	1430257664	48	4924
2026-01-14 01:03:32.66	162.27	15.18	-38.8	-41.0	13.8	1.14e-05	0	61	0	1435500544	48	4847
2026-01-14 01:03:33.67	162.37	15.08	-38.8	-41.0	13.8	1.25e-05	0	61	0	1441792000	48	4861
2026-01-14 01:03:34.68	162.47	14.98	-38.8	-41.1	13.8	4.50e-06	0	61	0	1447034880	48	4881
2026-01-14 01:03:35.69	162.57	14.89	-38.9	-41.1	13.7	9.10e-06	0	61	0	1453326336	48	4921
2026-01-14 01:03:36.70	162.67	14.79	-38.7	-40.9	13.9	3.40e-06	0	61	0	1458569216	48	4802
2026-01-14 01:03:37.71	162.77	14.70	-38.7	-40.9	13.9	3.40e-06	0	61	0	1463812096	48	4790
2026-01-14 01:03:38.72	162.86	14.60	-38.7	-41.0	13.9	9.10e-06	0	61	0	1470103552	48	4823
2026-01-14 01:03:39.73	162.96	14.51	-38.9	-41.1	13.7	1.02e-05	0	61	0	1475346432	48	4915
2026-01-14 01:03:40.74	163.06	14.41	-38.9	-41.2	13.6	2.40e-05	0	61	0	1481637888	48	4937
2026-01-14 01:03:41.75	163.15	14.32	-38.7	-40.9	13.9	5.70e-06	0	61	0	1486880768	48	4809
2026-01-14 01:03:42.76	163.25	14.22	-38.7	-41.0	13.8	4.50e-06	0	61	0	1492123648	48	4823
2026-01-14 01:03:43.77	163.34	14.13	-38.8	-41.0	13.8	1.25e-05	0	61	0	1498415104	48	4855
2026-01-14 01:03:44.78	163.44	14.04	-38.8	-41.1	13.7	1.02e-05	0	61	0	1503657984	48	4896
2026-01-14 01:03:45.79	163.53	13.94	-38.9	-41.2	13.5	1.71e-05	0	61	0	1509949440	48	4981
2026-01-14 01:03:46.80	163.62	13.85	-39.1	-41.4	13.3	1.94e-05	0	61	0	1515192320	48	5079
2026-01-14 01:03:47.81	163.72	13.76	-39.2	-41.6	13.1	3.77e-05	0	61	0	1521483776	48	5178
2026-01-14 01:03:48.82	163.81	13.67	-39.3	-41.7	13.0	4.92e-05	0	61	0	1526726656	49	4967
2026-01-14 01:03:49.83	163.90	13.57	-39.3	-41.8	12.9	6.52e-05	0	61	0	1531969536	49	5018
2026-01-14 01:03:50.84	163.99	13.48	-39.3	-41.9	12.9	8.12e-05	0	61	0	1538260992	49	5042
2026-01-14 01:03:51.85	164.08	13.39	-39.3	-41.8	13.0	8.92e-05	0	61	0	1543503872	49	4984
2026-01-14 01:03:52.86	164.17	13.30	-39.2	-41.7	13.0	5.37e-05	0	61	0	1549795328	49	4950
2026-01-14 01:03:53.87	164.26	13.21	-39.3	-41.8	12.9	8.01e-05	0	61	0	1555038208	49	5017
2026-01-14 01:03:54.88	164.35	13.12	-39.3	-41.8	12.9	6.29e-05	0	61	0	1560281088	49	5017
2026-01-14 01:03:55.89	164.44	13.03	-39.3	-41.8	12.9	8.23e-05	0	61	0	1566572544	49	5006
2026-01-14 01:03:56.90	164.52	12.94	-39.3	-41.8	12.9	7.20e-05	0	61	0	1571815424	49	5011
2026-01-14 01:03:57.91	164.61	12.85	-39.3	-41.8	12.8	7.43e-05	0	61	0	1578106880	49	5022
2026-01-14 01:03:58.92	164.70	12.76	-39.3	-41.8	12.8	1.01e-04	0	61	0	1583349760	49	5002
2026-01-14 01:03:59.93	164.78	12.67	-39.3	-41.8	12.9	9.15e-05	0	61	0	1589641216	49	4984
2026-01-14 01:04:00.94	164.87	12.58	-39.3	-41.8	12.9	7.55e-05	0	61	0	1594884096	49	4990
2026-01-14 01:04:01.95	164.95	12.49	-39.3	-41.7	12.9	6.86e-05	0	61	0	1600126976	49	4953
2026-01-14 01:04:02.96	165.04	12.40	-39.3	-41.8	12.9	8.69e-05	0	61	0	1606418432	49	4994
2026-01-14 01:04:03.97	165.12	12.32	-39.3	-41.7	12.9	8.12e-05	0	61	0	1611661312	49	4974
2026-01-14 01:04:04.98	165.21	12.23	-39.3	-41.7	12.9	7.89e-05	0	61	0	1617952768	49	4978
2026-01-14 01:04:05.99	165.29	12.14	-39.3	-41.8	12.8	8.92e-05	0	61	0	1623195648	49	5008
2026-01-14 01:04:07.00	165.37	12.05	-39.3	-41.8	12.8	1.04e-04	0	61	0	1629487104	49	5027
2026-01-14 01:04:08.01	165.45	11.97	-39.4	-41.9	12.6	1.21e-04	0	61	0	1634729984	49	5093
2026-01-14 01:04:09.02	165.53	11.88	-39.4	-41.9	12.7	1.34e-04	0	61	0	1639972864	49	5050
2026-01-14 01:04:10.03	165.62	11.79	-39.4	-42.0	12.6	1.66e-04	0	61	0	1646264320	49	5111
2026-01-14 01:04:11.04	165.70	11.71	-39.5	-42.1	12.4	1.94e-04	0	61	0	1651507200	49	5190
2026-01-14 01:04:12.05	165.78	11.62	-39.6	-42.2	12.3	2.22e-04	0	61	0	1657798656	49	5239
2026-01-14 01:04:13.06	165.86	11.53	-39.6	-42.3	12.2	3.55e-04	0	61	0	1663041536	49	5321
2026-01-14 01:04:14.07	165.94	11.45	-39.6	-42.2	12.3	3.25e-04	0	61	0	1668284416	49	5271
2026-01-14 01:04:15.08	166.02	11.36	-39.5	-42.1	12.4	2.47e-04	0	61	0	1674575872	49	5188
2026-01-14 01:04:16.09	166.09	11.28	-39.5	-42.1	12.4	2.13e-04	0	61	0	1679818752	49	5205
2026-01-14 01:04:17.10	166.17	11.19	-39.5	-42.1	12.4	2.20e-04	0	61	0	1686110208	49	5168
2026-01-14 01:04:18.11	166.25	11.11	-39.5	-42.2	12.3	2.75e-04	0	61	0	1691353088	49	5225
2026-01-14 01:04:19.12	166.33	11.03	-39.6	-42.3	12.2	2.87e-04	0	61	0	1696595968	49	5290
2026-01-14 01:04:20.13	166.40	10.94	-39.7	-42.4	12.1	3.83e-04	0	61	0	1702887424	49	5349
2026-01-14 01:04:21.14	166.48	10.86	-39.7	-42.4	12.0	4.65e-04	0	61	0	1708130304	50	5076
2026-01-14 01:04:22.15	166.56	10.77	-39.5	-42.2	12.3	2.84e-04	0	61	0	1714421760	50	4928
2026-01-14 01:04:23.16	166.63	10.69	-39.5	-42.2	12.3	2.82e-04	0	61	0	1719664640	50	4929
2026-01-14 01:04:24.17	166.71	10.61	-39.6	-42.3	12.1	3.91e-04	0	61	0	1725956096	50	5015
2026-01-14 01:04:25.18	166.78	10.52	-39.7	-42.4	12.0	4.22e-04	0	61	0	1731198976	50	5060
2026-01-14 01:04:26.19	166.86	10.44	-39.8	-42.6	11.9	5.85e-04	0	61	0	1737490432	50	5160
2026-01-14 01:04:27.20	166.93	10.36	-39.7	-42.4	12.0	5.22e-04	0	61	0	1742733312	50	5047
2026-01-14 01:04:28.21	167.00	10.28	-39.7	-42.4	11.9	5.17e-04	0	61	0	1747976192	50	5100
2026-01-14 01:04:29.22	167.08	10.20	-39.6	-42.3	12.1	5.16e-04	0	61	0	1754267648	50	5008
2026-01-14 01:04:30.23	167.15	10.11	-39.6	-42.3	12.1	4.21e-04	0	61	0	1759510528	50	4996
2026-01-14 01:04:31.24	167.22	10.03	-39.5	-42.2	12.1	4.20e-04	0	61	0	1765801984	50	4966
2026-01-14 01:04:32.25	167.29	9.95	-39.7	-42.4	11.9	4.97e-04	0	61	0	1771044864	50	5080
2026-01-14 01:04:33.26	167.37	9.87	-39.6	-42.3	12.0	5.43e-04	0	61	0	1776287744	50	5032
2026-01-14 01:04:34.27	167.44	9.79	-39.7	-42.5	11.8	6.58e-04	0	61	0	1782579200	50	5103
2026-01-14 01:04:35.28	167.51	9.71	-39.8	-42.7	11.6	8.52e-04	0	61	0	1787822080	50	5221
2026-01-14 01:04:36.29	167.58	9.63	-39.8	-42.6	11.7	9.70e-04	0	61	0	1794113536	50	5176
2026-01-14 01:04:37.30	167.65	9.55	-39.8	-42.7	11.5	1.01e-03	0	61	0	1799356416	50	5247
2026-01-14 01:04:38.31	167.72	9.47	-39.9	-42.7	11.5	9.72e-04	0	61	0	1804599296	50	5268
2026-01-14 01:04:39.32	167.79	9.39	-39.9	-42.8	11.5	1.24e-03	0	61	0	1810890752	50	5283
2026-01-14 01:04:40.33	167.86	9.31	-39.8	-42.6	11.6	1.08e-03	0	61	0	1816133632	50	5200
2026-01-14 01:04:41.34	167.93	9.23	-39.8	-42.7	11.5	1.24e-03	0	61	0	1822425088	50	5243
2026-01-14 01:04:42.35	167.99	9.15	-39.8	-42.6	11.5	1.10e-03	0	61	0	1827667968	50	5206
2026-01-14 01:04:43.36	168.06	9.07	-39.8	-42.7	11.4	1.36e-03	0	61	0	1833959424	50	5277
2026-01-14 01:04:44.37	168.13	8.99	-39.8	-42.7	11.4	1.47e-03	0	61	0	1839202304	50	5260
2026-01-14 01:04:45.38	168.20	8.92	-39.8	-42.7	11.5	1.17e-03	0	61	0	1845493760	50	5245
2026-01-14 01:04:46.39	168.26	8.84	-39.9	-42.8	11.3	1.63e-03	0	61	0	1850736640	50	5339
2026-01-14 01:04:47.40	168.33	8.76	-39.8	-42.7	11.4	1.36e-03	0	61	0	1855979520	50	5253
2026-01-14 01:04:48.41	168.40	8.68	-39.9	-42.8	11.3	1.63e-03	0	61	0	1862270976	50	5321
2026-01-14 01:04:49.42	168.46	8.60	-39.9	-42.9	11.2	1.71e-03	0	61	0	1867513856	50	5382
2026-01-14 01:04:50.43	168.53	8.53	-39.9	-42.9	11.2	1.71e-03	0	61	0	1872756736	50	5355
2026-01-14 01:04:51.44	168.59	8.45	-39.9	-42.9	11.2	1.27e-03	0	61	0	1879048192	50	5348
2026-01-14 01:04:52.45	168.66	8.37	-39.8	-42.6	11.4	1.26e-03	0	61	0	1884291072	50	5202
2026-01-14 01:04:53.46	168.72	8.30	-39.8	-42.7	11.3	1.44e-03	0	61	0	1890582528	50	5277
2026-01-14 01:04:54.47	168.79	8.22	-39.9	-42.8	11.3	1.79e-03	0	61	0	1895825408	50	5302
2026-01-14 01:04:55.47	168.85	8.15	-39.9	-42.8	11.2	1.67e-03	0	61	0	1901068288	50	5333
2026-01-14 01:04:56.48	168.92	8.07	-39.9	-42.8	11.2	1.95e-03	0	61	0	1907359744	50	5332
2026-01-14 01:04:57.49	168.98	7.99	-41.1	-44.9	9.3	1.83e-03	0	61	0	1912602624	52	6014
2026-01-14 01:04:58.50	169.04	7.92	-44.6	-55.7	3.8	8.47e-01	0	61	104	1915748352	59	14034
2026-01-14 01:04:59.51	169.10	7.84	-44.8	-56.4	3.8	8.45e-01	0	61	104	1915748352	60	14232
2026-01-14 01:05:00.52	169.17	7.77	-44.9	-56.5	3.8	8.46e-01	0	61	104	1915748352	60	14402
2026-01-14 01:05:01.54	169.23	7.69	-45.0	-56.6	3.8	8.45e-01	0	61	104	1915748352	60	14608
2026-01-14 01:05:02.55	169.29	7.62	-45.1	-56.6	3.8	8.47e-01	0	61	104	1915748352	60	14706
2026-01-14 01:05:03.56	169.35	7.54	-45.2	-56.7	3.8	8.47e-01	0	61	104	1915748352	60	14763
2026-01-14 01:05:04.57	169.41	7.47	-45.2	-56.8	3.8	8.46e-01	0	61	104	1915748352	60	14918
2026-01-14 01:05:05.58	169.48	7.39	-45.2	-56.8	3.8	8.46e-01	0	61	104	1915748352	61	14149
2026-01-14 01:05:06.59	169.54	7.32	-45.2	-56.8	3.8	8.46e-01	0	61	104	1915748352	61	14114
2026-01-14 01:05:07.60	169.60	7.24	-45.3	-56.8	3.8	8.46e-01	0	61	104	1915748352	61	14110
2026-01-14 01:05:08.61	169.66	7.17	-45.3	-56.8	3.8	8.46e-01	0	61	104	1915748352	61	14169
2026-01-14 01:05:09.62	169.72	7.10	-45.3	-56.8	3.8	8.46e-01	0	61	104	1915748352	61	14054
2026-01-14 01:05:10.63	169.78	7.02	-45.2	-56.7	3.8	8.46e-01	0	61	104	1915748352	61	14018
2026-01-14 01:05:11.64	169.84	6.95	-45.3	-56.8	3.8	8.46e-01	0	61	104	1915748352	61	14065
2026-01-14 01:05:12.66	169.89	6.88	-45.3	-56.8	3.8	8.47e-01	0	61	104	1915748352	61	14096
2026-01-14 01:05:13.66	169.95	6.81	-45.3	-56.8	3.8	8.45e-01	0	61	104	1915748352	61	14153
2026-01-14 01:05:14.68	170.01	6.73	-45.2	-56.7	3.8	8.45e-01	0	61	104	1915748352	61	14023
2026-01-14 01:05:15.68	170.07	6.66	-45.2	-56.7	3.8	8.46e-01	0	61	104	1915748352	61	13997
2026-01-14 01:05:16.70	170.13	6.59	-45.2	-56.7	3.8	8.45e-01	0	61	104	1915748352	61	13965
2026-01-14 01:05:17.70	170.18	6.52	-45.2	-56.7	3.8	8.46e-01	0	61	104	1915748352	61	14038
2026-01-14 01:05:18.71	170.24	6.44	-45.2	-56.7	3.8	8.46e-01	0	61	104	1915748352	61	14014
2026-01-14 01:05:19.72	170.30	6.37	-45.2	-56.7	3.8	8.46e-01	0	61	104	1915748352	61	14018
2026-01-14 01:05:20.73	170.36	6.30	-45.2	-56.7	3.8	8.47e-01	0	61	104	1915748352	61	13981
2026-01-14 01:05:21.75	170.41	6.23	-45.2	-56.7	3.8	8.46e-01	0	61	104	1915748352	61	13953
2026-01-14 01:05:22.75	170.47	6.16	-45.2	-56.7	3.8	8.46e-01	0	61	104	1915748352	61	13968
2026-01-14 01:05:23.76	170.52	6.09	-45.2	-56.7	3.8	8.46e-01	0	61	104	1915748352	61	13947
2026-01-14 01:05:24.78	170.58	6.02	-45.2	-56.7	3.8	8.45e-01	0	61	104	1915748352	61	13962
2026-01-14 01:05:25.79	170.64	5.95	-45.2	-56.7	3.8	8.46e-01	0	61	104	1915748352	61	14045
2026-01-14 01:05:26.80	170.69	5.87	-45.2	-56.7	3.8	8.46e-01	0	61	104	1915748352	61	13986
2026-01-14 01:05:27.81	170.75	5.80	-45.2	-56.7	3.8	8.46e-01	0	61	104	1915748352	61	13944
2026-01-14 01:05:28.82	170.80	5.73	-45.2	-56.7	3.8	8.46e-01	0	61	104	1915748352	61	13952
2026-01-14 01:05:29.83	170.86	5.66	-45.2	-56.7	3.8	8.46e-01	0	61	104	1915748352	61	13993
2026-01-14 01:05:30.84	170.91	5.59	-45.2	-56.7	3.8	8.45e-01	0	61	104	1915748352	61	13896
2026-01-14 01:05:31.85	170.96	5.52	-45.2	-56.7	3.8	8.45e-01	0	61	104	1915748352	61	13927
2026-01-14 01:05:32.86	171.02	5.46	-45.2	-56.7	3.8	8.46e-01	0	61	104	1915748352	61	13927
2026-01-14 01:05:33.87	171.07	5.39	-45.2	-56.7	3.8	8.45e-01	0	62	104	1915748352	61	13945
2026-01-14 01:05:34.88	171.12	5.32	-45.2	-56.7	3.8	8.46e-01	0	61	104	1915748352	61	13948
2026-01-14 01:05:35.89	171.18	5.25	-45.2	-56.7	3.8	8.46e-01	0	61	104	1915748352	61	13946
2026-01-14 01:05:36.90	171.23	5.18	-45.2	-56.7	3.8	8.46e-01	0	61	104	1915748352	61	13959
2026-01-14 01:05:37.92	171.28	5.11	-45.2	-56.7	3.8	8.46e-01	0	61	104	1915748352	61	13917
2026-01-14 01:05:38.93	171.33	5.04	-45.2	-56.7	3.8	8.46e-01	0	61	104	1915748352	61	13938
2026-01-14 01:05:39.94	171.39	4.97	-45.2	-56.7	3.8	8.46e-01	0	61	104	1915748352	61	13920
2026-01-14 01:05:40.95	171.44	4.90	-45.2	-56.7	3.8	8.46e-01	0	61	104	1915748352	61	13941
2026-01-14 01:05:41.96	171.49	4.84	-45.2	-56.7	3.8	8.46e-01	0	61	104	1915748352	61	13971
2026-01-14 01:05:42.97	171.54	4.77	-45.2	-56.7	3.8	8.46e-01	0	61	104	1915748352	61	13952
2026-01-14 01:05:43.98	171.59	4.70	-45.2	-56.7	3.8	8.47e-01	0	61	104	1915748352	61	13944
2026-01-14 01:05:44.99	171.64	4.63	-45.2	-56.7	3.8	8.46e-01	0	61	104	1915748352	61	13955
2026-01-14 01:05:46.00	171.69	4.57	-45.2	-56.7	3.8	8.47e-01	0	61	104	1915748352	61	13892
2026-01-14 01:05:47.01	171.74	4.50	-45.2	-56.7	3.8	8.46e-01	0	61	104	1915748352	61	13946
2026-01-14 01:05:48.02	171.80	4.43	-45.2	-56.7	3.8	8.44e-01	0	61	104	1915748352	61	13887
2026-01-14 01:05:49.03	171.85	4.36	-45.2	-56.7	3.8	8.45e-01	0	61	104	1915748352	61	13886
2026-01-14 01:05:50.04	171.90	4.30	-45.2	-56.7	3.8	8.45e-01	0	61	104	1915748352	61	13934
2026-01-14 01:05:51.06	171.95	4.23	-45.2	-56.7	3.8	8.46e-01	0	61	104	1915748352	61	13936
2026-01-14 01:05:52.07	171.99	4.16	-45.2	-56.7	3.8	8.46e-01	0	61	104	1915748352	61	13917
2026-01-14 01:05:53.08	172.04	4.10	-45.2	-56.7	3.8	8.46e-01	0	61	104	1915748352	61	13928
2026-01-14 01:05:54.09	172.09	4.03	-45.2	-56.6	3.8	8.46e-01	0	61	104	1915748352	61	13817
2026-01-14 01:05:55.10	172.14	3.97	-45.2	-56.7	3.8	8.46e-01	0	61	104	1915748352	61	13936
2026-01-14 01:05:56.11	172.19	3.90	-45.2	-56.6	3.8	8.47e-01	0	61	104	1915748352	61	13847
2026-01-14 01:05:57.12	172.24	3.83	-45.2	-56.7	3.8	8.46e-01	0	61	104	1915748352	61	13919
2026-01-14 01:05:58.13	172.29	3.77	-45.2	-56.6	3.8	8.46e-01	0	61	104	1915748352	61	13876
2026-01-14 01:05:59.15	172.33	3.70	-45.2	-56.7	3.8	8.46e-01	0	61	104	1915748352	61	13915
2026-01-14 01:06:00.16	172.38	3.64	-45.2	-56.6	3.8	8.47e-01	0	61	104	1915748352	61	13878
2026-01-14 01:06:01.17	172.43	3.57	-45.2	-56.7	3.8	8.46e-01	0	61	104	1915748352	61	13892
2026-01-14 01:06:02.18	172.48	3.51	-45.2	-56.7	3.8	8.46e-01	0	61	104	1915748352	61	13912
2026-01-14 01:06:03.19	172.52	3.44	-45.1	-56.6	3.8	8.44e-01	0	61	104	1915748352	61	13874
2026-01-14 01:06:04.20	172.57	3.38	-45.2	-56.6	3.8	8.45e-01	0	61	104	1915748352	61	13877
2026-01-14 01:06:05.21	172.62	3.31	-45.1	-56.7	3.8	8.46e-01	0	61	104	1915748352	61	13902
2026-01-14 01:06:06.22	172.67	3.25	-45.1	-56.6	3.8	8.46e-01	0	61	104	1915748352	61	13878
2026-01-14 01:06:07.23	172.71	3.18	-45.1	-56.7	3.8	8.46e-01	0	61	104	1915748352	61	13903
2026-01-14 01:06:08.24	172.76	3.12	-45.2	-56.7	3.8	8.46e-01	0	61	104	1915748352	61	13954
2026-01-14 01:06:09.25	172.80	3.05	-45.1	-56.6	3.8	8.45e-01	0	61	104	1915748352	61	13856
2026-01-14 01:06:10.26	172.85	2.99	-45.2	-56.7	3.8	8.46e-01	0	61	104	1915748352	61	13886
2026-01-14 01:06:11.28	172.90	2.93	-45.1	-56.6	3.8	8.45e-01	0	61	104	1915748352	61	13866
2026-01-14 01:06:12.29	172.94	2.86	-45.1	-56.7	3.8	8.45e-01	0	61	104	1915748352	61	13954
2026-01-14 01:06:13.30	172.99	2.80	-45.1	-56.6	3.8	8.46e-01	0	61	104	1915748352	61	13871
2026-01-14 01:06:14.31	173.03	2.74	-45.2	-56.7	3.8	8.46e-01	0	61	104	1915748352	61	13911
2026-01-14 01:06:15.32	173.08	2.67	-45.1	-56.6	3.8	8.45e-01	0	61	104	1915748352	61	13836
2026-01-14 01:06:16.33	173.12	2.61	-45.1	-56.7	3.8	8.46e-01	0	61	104	1915748352	61	13894
2026-01-14 01:06:17.34	173.17	2.55	-45.1	-56.6	3.8	8.46e-01	0	61	104	1915748352	61	13883
2026-01-14 01:06:18.35	173.21	2.48	-45.1	-56.7	3.8	8.47e-01	0	61	104	1915748352	61	13966
2026-01-14 01:06:19.36	173.25	2.42	-45.1	-56.6	3.8	8.45e-01	0	61	104	1915748352	61	13869
2026-01-14 01:06:20.37	173.30	2.36	-45.1	-56.6	3.8	8.46e-01	0	61	104	1915748352	61	13836
2026-01-14 01:06:21.38	173.34	2.30	-45.1	-56.6	3.8	8.46e-01	0	61	104	1915748352	61	13819
2026-01-14 01:06:22.39	173.39	2.23	-45.1	-56.6	3.8	8.46e-01	0	62	104	1915748352	61	13834
2026-01-14 01:06:23.40	173.43	2.17	-45.1	-56.6	3.8	8.47e-01	0	61	104	1915748352	61	13845
2026-01-14 01:06:24.41	173.47	2.11	-45.1	-56.6	3.8	8.46e-01	0	61	104	1915748352	61	13829
2026-01-14 01:06:25.42	173.52	2.05	-45.1	-56.6	3.8	8.47e-01	0	61	104	1915748352	61	13883
2026-01-14 01:06:26.43	173.56	1.98	-45.1	-56.6	3.8	8.46e-01	0	61	104	1915748352	61	13865
2026-01-14 01:06:27.45	173.60	1.92	-45.1	-56.6	3.8	8.47e-01	0	61	104	1915748352	61	13877

#Closed at: 2026-01-14 01:06:27
#Recorded file [1915 MB]: D:/lorett/data/31039_260114_035828.dat