passes_logs/2026/01/14/R2.0S_Moscow/R2.0S_Moscow__20260114_094346_SUOMI_NPP_rec.log

#Pass ID: 20260114_094346_SUOMI NPP
#Satellite: SUOMI NPP
#Configuration: NPP
#almurnet v.1.7.20251203
#Start time: 2026-01-14 09:43:46

#Version: 2.2.20231116
#Station: R2.0S_Moscow
#Location: 37.707566 lon 55.798166 lat
#TLE: 1 37849U 11061A   26013.27136842  .00000065  00000+0  51889-4 0  9990
#TLE: 2 37849  98.7808 315.3349 0002489  66.6776 293.4661 14.19524902736466

#Time	Az	El	Level	Level2	SNR	BER	BlckErr	Temp	State	Recorded	gain1	gain2
2026-01-14 09:43:46.62	152.89	2.01	-43.9	-58.3	3.8	1.49e+00	0	51	0	0	59	18892
2026-01-14 09:43:47.62	152.88	2.07	-43.9	-58.3	3.8	1.49e+00	0	51	104	0	59	18928
2026-01-14 09:43:48.63	152.87	2.14	-43.9	-58.3	3.8	1.49e+00	0	51	104	0	59	18886
2026-01-14 09:43:49.64	152.86	2.20	-43.9	-58.2	3.8	1.49e+00	0	51	104	0	59	18720
2026-01-14 09:43:50.65	152.85	2.27	-43.9	-58.3	3.8	1.49e+00	0	51	104	0	59	18839
2026-01-14 09:43:51.66	152.84	2.33	-43.9	-58.3	3.8	1.49e+00	0	51	104	0	59	18863
2026-01-14 09:43:52.67	152.84	2.40	-43.9	-58.3	3.8	1.49e+00	0	51	104	0	59	18924
2026-01-14 09:43:53.68	152.83	2.47	-43.9	-58.4	3.8	1.49e+00	0	51	104	0	59	18967
2026-01-14 09:43:54.69	152.82	2.53	-43.9	-58.3	3.8	1.49e+00	0	51	104	0	59	18925
2026-01-14 09:43:55.70	152.81	2.60	-43.9	-58.3	3.8	1.49e+00	0	51	104	0	59	18944
2026-01-14 09:43:56.71	152.80	2.66	-43.9	-58.3	3.8	1.49e+00	0	51	104	0	59	18874
2026-01-14 09:43:57.72	152.79	2.73	-43.9	-58.3	3.8	1.49e+00	0	52	104	0	59	18893
2026-01-14 09:43:58.73	152.78	2.80	-43.9	-58.3	3.8	1.49e+00	0	52	104	0	59	18896
2026-01-14 09:43:59.73	152.77	2.86	-43.9	-58.3	3.8	1.49e+00	0	52	104	0	59	18806
2026-01-14 09:44:00.74	152.76	2.93	-43.9	-58.3	3.8	1.49e+00	0	52	104	0	59	18856
2026-01-14 09:44:01.75	152.75	3.00	-43.9	-58.3	3.8	1.49e+00	0	52	104	0	59	18862
2026-01-14 09:44:02.76	152.74	3.06	-43.9	-58.3	3.8	1.49e+00	0	52	104	0	59	18906
2026-01-14 09:44:03.77	152.73	3.13	-43.9	-58.3	3.8	1.49e+00	0	52	104	0	59	18860
2026-01-14 09:44:04.78	152.71	3.20	-43.9	-58.3	3.8	1.49e+00	0	52	104	0	59	18772
2026-01-14 09:44:05.79	152.70	3.27	-43.9	-58.3	3.8	1.49e+00	0	52	104	0	59	18852
2026-01-14 09:44:06.80	152.69	3.34	-43.9	-58.3	3.8	1.49e+00	0	52	104	0	59	18871
2026-01-14 09:44:07.81	152.68	3.40	-43.7	-58.2	3.8	1.49e+00	0	52	104	0	59	18664
2026-01-14 09:44:08.82	152.67	3.47	-43.9	-58.3	3.8	1.49e+00	0	52	104	0	59	18905
2026-01-14 09:44:09.83	152.66	3.54	-43.9	-58.3	3.8	1.49e+00	0	52	104	0	59	18893
2026-01-14 09:44:10.84	152.65	3.61	-43.9	-58.3	3.8	1.49e+00	0	52	104	0	59	18867
2026-01-14 09:44:11.85	152.64	3.68	-43.9	-58.3	3.8	1.49e+00	0	52	104	0	59	18878
2026-01-14 09:44:12.86	152.63	3.75	-43.9	-58.3	3.8	1.49e+00	0	53	104	0	59	18929
2026-01-14 09:44:13.87	152.62	3.82	-43.9	-58.3	3.8	1.49e+00	0	53	104	0	59	18922
2026-01-14 09:44:14.88	152.61	3.88	-43.9	-58.3	3.8	1.49e+00	0	53	104	0	59	18902
2026-01-14 09:44:15.89	152.60	3.95	-43.8	-58.3	3.8	1.49e+00	0	53	104	0	59	18826
2026-01-14 09:44:16.90	152.59	4.02	-43.7	-58.2	3.8	1.49e+00	0	53	104	0	59	18700
2026-01-14 09:44:17.91	152.57	4.09	-43.9	-58.3	3.8	1.49e+00	0	53	104	0	59	18870
2026-01-14 09:44:18.92	152.56	4.16	-43.8	-58.3	3.8	1.49e+00	0	53	104	0	59	18803
2026-01-14 09:44:19.93	152.55	4.23	-43.9	-58.3	3.8	1.49e+00	0	53	104	0	59	18886
2026-01-14 09:44:20.94	152.54	4.30	-43.9	-58.3	3.8	1.49e+00	0	53	104	0	59	18862
2026-01-14 09:44:21.95	152.53	4.37	-43.9	-58.3	3.8	1.49e+00	0	53	104	0	59	18825
2026-01-14 09:44:22.96	152.52	4.45	-43.9	-58.3	3.8	1.49e+00	0	53	104	0	59	18873
2026-01-14 09:44:23.97	152.51	4.52	-43.9	-58.3	3.8	1.49e+00	0	53	104	0	59	18788
2026-01-14 09:44:24.98	152.49	4.59	-43.9	-58.3	3.8	1.49e+00	0	53	104	0	59	18861
2026-01-14 09:44:25.99	152.48	4.66	-43.9	-58.3	3.8	1.49e+00	0	53	104	0	59	18859
2026-01-14 09:44:27.00	152.47	4.73	-43.9	-58.3	3.8	1.49e+00	0	53	104	0	59	18874
2026-01-14 09:44:28.01	152.46	4.80	-43.9	-58.3	3.8	1.49e+00	0	53	104	0	59	18868
2026-01-14 09:44:29.02	152.45	4.87	-43.9	-58.3	3.8	1.49e+00	0	53	104	0	59	18793
2026-01-14 09:44:30.03	152.44	4.95	-43.9	-58.3	3.8	1.49e+00	0	54	104	0	59	18874
2026-01-14 09:44:31.05	152.42	5.02	-43.9	-58.3	3.8	1.49e+00	0	53	104	0	59	18871
2026-01-14 09:44:32.06	152.41	5.09	-43.9	-58.3	3.8	1.49e+00	0	53	104	0	59	18886
2026-01-14 09:44:33.07	152.40	5.16	-43.9	-58.3	3.8	1.49e+00	0	54	104	0	59	18871
2026-01-14 09:44:34.07	152.39	5.24	-43.9	-58.3	3.8	1.49e+00	0	54	104	0	59	18872
2026-01-14 09:44:35.08	152.37	5.31	-43.9	-58.3	3.8	1.49e+00	0	54	104	0	59	18848
2026-01-14 09:44:36.09	152.36	5.38	-43.9	-58.3	3.8	1.49e+00	0	54	104	0	59	18765
2026-01-14 09:44:37.10	152.35	5.46	-43.9	-58.2	3.8	1.49e+00	0	54	104	0	59	18585
2026-01-14 09:44:38.11	152.34	5.53	-43.9	-58.0	3.8	1.49e+00	0	54	104	0	59	18303
2026-01-14 09:44:39.12	152.32	5.60	-43.9	-57.9	3.8	1.49e+00	0	54	104	0	59	17925
2026-01-14 09:44:40.13	152.31	5.68	-43.9	-57.6	3.8	1.49e+00	0	54	104	0	59	17452
2026-01-14 09:44:41.14	152.30	5.75	-43.9	-57.4	3.8	1.49e+00	0	54	104	0	59	17060
2026-01-14 09:44:42.15	152.29	5.83	-43.8	-57.2	3.8	1.49e+00	0	54	104	0	59	16571
2026-01-14 09:44:43.16	152.27	5.90	-43.8	-57.0	3.8	1.49e+00	0	54	104	0	59	16201
2026-01-14 09:44:44.17	152.26	5.98	-43.8	-56.8	3.8	1.49e+00	0	54	104	0	59	15845
2026-01-14 09:44:45.18	152.25	6.05	-43.8	-56.6	3.8	1.49e+00	0	54	104	0	59	15458
2026-01-14 09:44:46.19	152.23	6.13	-43.8	-56.5	3.8	1.49e+00	0	54	104	0	59	15239
2026-01-14 09:44:47.20	152.22	6.20	-43.8	-56.2	3.8	1.48e+00	0	54	104	0	59	14757
2026-01-14 09:44:48.21	152.21	6.28	-43.8	-56.0	3.8	1.48e+00	0	54	104	0	59	14390
2026-01-14 09:44:49.22	152.19	6.35	-43.7	-55.8	4.0	1.48e+00	0	54	104	0	59	14096
2026-01-14 09:44:50.23	152.18	6.43	-43.8	-55.8	4.0	1.48e+00	0	54	104	0	59	14085
2026-01-14 09:44:51.24	152.17	6.51	-43.8	-56.0	3.8	1.49e+00	0	55	104	0	59	14426
2026-01-14 09:44:52.25	152.15	6.58	-43.8	-56.1	3.9	1.49e+00	0	54	104	0	59	14655
2026-01-14 09:44:53.26	152.14	6.66	-43.8	-56.3	3.8	1.49e+00	0	55	104	0	59	14899
2026-01-14 09:44:54.27	152.13	6.74	-43.8	-56.7	3.8	1.49e+00	0	55	104	0	59	15669
2026-01-14 09:44:55.28	152.11	6.82	-43.8	-57.0	3.8	1.49e+00	0	55	104	0	59	16313
2026-01-14 09:44:56.29	152.10	6.89	-43.9	-57.4	3.8	1.49e+00	0	55	104	0	59	17066
2026-01-14 09:44:57.30	152.08	6.97	-43.9	-57.7	3.8	1.49e+00	0	55	104	0	59	17610
2026-01-14 09:44:58.32	152.07	7.05	-43.9	-57.9	3.8	1.49e+00	0	55	104	0	59	18015
2026-01-14 09:44:59.33	152.05	7.13	-43.9	-57.9	3.8	1.49e+00	0	55	104	0	59	18040
2026-01-14 09:45:00.34	152.04	7.21	-43.9	-57.6	3.8	1.49e+00	0	55	104	0	59	17311
2026-01-14 09:45:01.35	152.03	7.29	-43.8	-56.8	3.8	1.49e+00	0	55	104	0	59	15828
2026-01-14 09:45:02.36	152.01	7.36	-43.8	-55.9	3.8	1.48e+00	0	55	104	0	59	14284
2026-01-14 09:45:03.37	152.00	7.44	-43.6	-54.6	4.2	1.44e+00	0	55	0	0	59	12278
2026-01-14 09:45:04.38	151.98	7.52	-43.6	-53.7	4.6	1.27e+00	0	55	0	1048576	59	11034
2026-01-14 09:45:05.39	151.97	7.60	-43.4	-52.4	5.2	8.32e-01	0	55	0	3145728	58	10142
2026-01-14 09:45:06.40	151.95	7.68	-43.2	-51.5	5.8	4.59e-01	0	55	0	4194304	58	9164
2026-01-14 09:45:07.41	151.94	7.76	-43.1	-50.6	6.5	2.97e-01	0	55	0	6291456	58	8248
2026-01-14 09:45:08.42	151.92	7.84	-42.9	-50.0	7.0	2.05e-01	0	56	0	8388608	57	8109
2026-01-14 09:45:09.44	151.91	7.93	-42.8	-49.4	7.5	1.07e-01	0	56	0	10485760	57	7611
2026-01-14 09:45:10.45	151.89	8.01	-42.7	-49.0	8.0	8.57e-02	0	55	0	12582912	57	7249
2026-01-14 09:45:11.46	151.88	8.09	-43.4	-51.9	5.9	5.92e-02	0	55	0	13631488	57	10164
2026-01-14 09:45:12.46	151.86	8.17	-44.1	-57.6	3.8	1.43e+00	0	56	104	14680064	58	18334
2026-01-14 09:45:13.48	151.84	8.25	-42.9	-49.4	7.1	1.34e+00	0	56	0	14680064	57	7608
2026-01-14 09:45:14.48	151.83	8.33	-42.8	-49.2	8.1	1.34e-02	0	56	0	16777216	56	7854
2026-01-14 09:45:15.49	151.81	8.41	-42.2	-47.4	9.4	8.38e-01	0	56	0	16777216	56	6407
2026-01-14 09:45:16.51	151.80	8.50	-43.0	-50.9	6.0	1.23e+00	0	56	0	17825792	57	9034
2026-01-14 09:45:17.52	151.78	8.58	-42.1	-47.1	9.9	2.01e-02	0	56	0	19922944	56	6200
2026-01-14 09:45:18.52	151.76	8.66	-42.0	-47.0	10.1	7.07e-03	0	56	0	22020096	56	6104
2026-01-14 09:45:19.53	151.75	8.75	-42.0	-47.0	10.0	7.49e-03	0	56	0	23068672	56	6095
2026-01-14 09:45:20.54	151.73	8.83	-42.1	-47.1	10.0	7.98e-03	0	56	0	25165824	56	6141
2026-01-14 09:45:21.56	151.71	8.92	-42.1	-47.0	10.1	6.35e-03	0	56	0	27262976	56	6087
2026-01-14 09:45:22.56	151.70	9.00	-42.0	-46.8	10.3	6.09e-03	0	56	0	29360128	56	5980
2026-01-14 09:45:23.57	151.68	9.08	-42.1	-47.1	10.1	6.18e-03	0	56	0	31457280	56	6132
2026-01-14 09:45:24.58	151.66	9.17	-42.1	-47.0	10.2	6.21e-03	0	56	0	32505856	56	6107
2026-01-14 09:45:25.59	151.65	9.25	-42.1	-46.9	10.3	6.28e-03	0	56	0	34603008	56	6045
2026-01-14 09:45:26.60	151.63	9.34	-42.1	-47.0	10.2	4.87e-03	0	56	0	36700160	56	6098
2026-01-14 09:45:27.61	151.61	9.42	-42.1	-47.1	10.2	5.59e-03	0	56	0	38797312	56	6156
2026-01-14 09:45:28.62	151.60	9.51	-42.1	-46.9	10.4	4.70e-03	0	56	0	40894464	56	6017
2026-01-14 09:45:29.63	151.58	9.60	-42.1	-46.9	10.4	4.98e-03	0	56	0	41943040	56	6033
2026-01-14 09:45:30.64	151.56	9.68	-42.1	-46.9	10.4	5.00e-03	0	56	0	44040192	56	6030
2026-01-14 09:45:31.65	151.54	9.77	-42.1	-46.9	10.4	4.45e-03	0	56	0	46137344	56	6043
2026-01-14 09:45:32.66	151.53	9.86	-42.1	-46.9	10.4	4.18e-03	0	56	0	48234496	56	6047
2026-01-14 09:45:33.67	151.51	9.95	-42.1	-46.9	10.5	4.54e-03	0	56	0	50331648	56	6009
2026-01-14 09:45:34.68	151.49	10.03	-42.1	-46.8	10.6	3.53e-03	0	56	0	52428800	56	5976
2026-01-14 09:45:35.69	151.47	10.12	-42.1	-46.8	10.6	3.39e-03	0	56	0	53477376	56	5943
2026-01-14 09:45:36.70	151.45	10.21	-42.1	-46.8	10.6	3.58e-03	0	56	0	55574528	56	5981
2026-01-14 09:45:37.71	151.44	10.30	-42.1	-46.7	10.7	3.16e-03	0	56	0	57671680	56	5907
2026-01-14 09:45:38.72	151.42	10.39	-42.1	-46.7	10.7	2.96e-03	0	56	0	59768832	56	5898
2026-01-14 09:45:39.73	151.40	10.48	-42.1	-46.7	10.7	2.40e-03	0	56	0	61865984	56	5892
2026-01-14 09:45:40.74	151.38	10.57	-42.0	-46.6	11.0	2.04e-03	0	56	0	62914560	56	5790
2026-01-14 09:45:41.75	151.36	10.66	-42.0	-46.4	11.1	1.84e-03	0	56	0	65011712	56	5697
2026-01-14 09:45:42.76	151.34	10.75	-41.8	-46.2	11.1	1.57e-03	0	56	0	67108864	55	5889
2026-01-14 09:45:43.77	151.32	10.84	-41.7	-46.0	11.4	1.31e-03	0	56	0	69206016	55	5739
2026-01-14 09:45:44.78	151.30	10.93	-41.7	-45.9	11.5	8.48e-04	0	56	0	71303168	55	5661
2026-01-14 09:45:45.79	151.28	11.02	-41.7	-45.8	11.6	8.38e-04	0	57	0	72351744	55	5611
2026-01-14 09:45:46.80	151.26	11.11	-41.7	-45.8	11.6	6.71e-04	0	56	0	74448896	55	5620
2026-01-14 09:45:47.81	151.24	11.20	-41.6	-45.7	11.7	5.52e-04	0	57	0	76546048	55	5575
2026-01-14 09:45:48.81	151.22	11.30	-41.6	-45.7	11.7	4.74e-04	0	56	0	78643200	55	5548
2026-01-14 09:45:49.82	151.20	11.39	-41.6	-45.6	11.9	5.25e-04	0	57	0	80740352	55	5466
2026-01-14 09:45:50.83	151.18	11.48	-41.6	-45.6	11.8	3.42e-04	0	56	0	81788928	55	5504
2026-01-14 09:45:51.84	151.16	11.58	-41.6	-45.7	11.8	4.26e-04	0	57	0	83886080	55	5562
2026-01-14 09:45:52.85	151.14	11.67	-41.6	-45.7	11.8	4.73e-04	0	57	0	85983232	55	5545
2026-01-14 09:45:53.86	151.12	11.76	-41.6	-45.7	11.8	5.13e-04	0	57	0	88080384	55	5568
2026-01-14 09:45:54.87	151.10	11.86	-41.7	-45.8	11.6	5.99e-04	0	57	0	90177536	55	5656
2026-01-14 09:45:55.88	151.08	11.95	-41.7	-45.9	11.6	8.09e-04	0	57	0	91226112	55	5695
2026-01-14 09:45:56.89	151.06	12.05	-41.8	-46.0	11.6	8.64e-04	0	57	0	93323264	55	5759
2026-01-14 09:45:57.90	151.04	12.14	-41.8	-46.1	11.4	9.76e-04	0	57	0	95420416	55	5841
2026-01-14 09:45:58.91	151.02	12.24	-41.9	-46.2	11.4	9.90e-04	0	57	0	97517568	55	5865
2026-01-14 09:45:59.92	151.00	12.34	-41.9	-46.2	11.4	1.15e-03	0	57	0	99614720	55	5876
2026-01-14 09:46:00.92	150.97	12.43	-41.8	-46.0	11.5	9.44e-04	0	57	0	100663296	55	5788
2026-01-14 09:46:01.93	150.95	12.53	-41.8	-46.1	11.4	8.92e-04	0	57	0	102760448	55	5820
2026-01-14 09:46:02.94	150.93	12.63	-41.8	-45.9	11.6	7.93e-04	0	57	0	104857600	55	5688
2026-01-14 09:46:03.95	150.91	12.73	-41.7	-45.8	11.8	5.34e-04	0	57	0	106954752	55	5626
2026-01-14 09:46:04.96	150.89	12.82	-41.6	-45.6	12.0	3.52e-04	0	57	0	109051904	55	5467
2026-01-14 09:46:05.97	150.86	12.92	-41.5	-45.2	12.4	2.33e-04	0	57	0	110100480	54	5578
2026-01-14 09:46:06.98	150.84	13.02	-41.4	-45.0	12.6	1.18e-04	0	57	0	112197632	54	5447
2026-01-14 09:46:07.99	150.82	13.12	-41.4	-45.0	12.6	9.23e-05	0	57	0	114294784	54	5435
2026-01-14 09:46:09.00	150.79	13.22	-41.3	-44.8	12.8	6.56e-05	0	57	0	116391936	54	5321
2026-01-14 09:46:10.01	150.77	13.32	-41.2	-44.7	13.0	4.27e-05	0	57	0	118489088	54	5251
2026-01-14 09:46:11.02	150.75	13.42	-41.2	-44.6	13.0	4.80e-05	0	57	0	120586240	54	5185
2026-01-14 09:46:12.03	150.72	13.52	-41.2	-44.7	13.0	3.81e-05	0	57	0	121634816	54	5232
2026-01-14 09:46:13.04	150.70	13.62	-41.3	-44.7	13.0	4.50e-05	0	57	0	123731968	54	5274
2026-01-14 09:46:14.05	150.68	13.73	-41.4	-45.0	12.7	6.56e-05	0	57	0	125829120	54	5420
2026-01-14 09:46:15.06	150.65	13.83	-41.4	-45.1	12.6	8.85e-05	0	57	0	127926272	54	5486
2026-01-14 09:46:16.07	150.63	13.93	-41.5	-45.3	12.3	1.20e-04	0	57	0	130023424	54	5636
2026-01-14 09:46:17.08	150.60	14.04	-41.6	-45.5	12.2	2.01e-04	0	57	0	131072000	54	5767
2026-01-14 09:46:18.09	150.58	14.14	-41.7	-45.7	12.0	2.66e-04	0	57	0	133169152	54	5888
2026-01-14 09:46:19.10	150.55	14.24	-41.7	-45.7	12.1	3.20e-04	0	57	0	135266304	54	5857
2026-01-14 09:46:20.11	150.53	14.35	-41.7	-45.7	12.1	3.35e-04	0	58	0	137363456	54	5860
2026-01-14 09:46:21.12	150.50	14.45	-41.7	-45.7	12.0	3.05e-04	0	57	0	139460608	54	5892
2026-01-14 09:46:22.13	150.48	14.56	-41.6	-45.4	12.3	2.13e-04	0	57	0	140509184	54	5703
2026-01-14 09:46:23.15	150.45	14.67	-41.5	-45.2	12.6	1.55e-04	0	57	0	142606336	54	5550
2026-01-14 09:46:24.16	150.43	14.77	-41.5	-45.2	12.5	1.45e-04	0	57	0	144703488	54	5590
2026-01-14 09:46:25.17	150.40	14.88	-41.4	-44.9	12.8	8.62e-05	0	58	0	146800640	54	5400
2026-01-14 09:46:26.18	150.38	14.99	-41.3	-44.8	13.0	6.94e-05	0	57	0	148897792	54	5307
2026-01-14 09:46:27.19	150.35	15.09	-41.4	-44.8	12.9	4.04e-05	0	57	0	149946368	54	5338
2026-01-14 09:46:28.20	150.32	15.20	-41.3	-44.8	13.0	4.27e-05	0	57	0	152043520	54	5322
2026-01-14 09:46:29.20	150.30	15.31	-41.4	-44.9	12.9	3.96e-05	0	58	0	154140672	54	5370
2026-01-14 09:46:30.21	150.27	15.42	-41.4	-45.0	12.8	5.34e-05	0	58	0	156237824	54	5434
2026-01-14 09:46:31.22	150.24	15.53	-41.5	-45.2	12.6	8.77e-05	0	57	0	158334976	54	5541
2026-01-14 09:46:32.23	150.21	15.64	-41.6	-45.3	12.5	9.91e-05	0	58	0	159383552	54	5626
2026-01-14 09:46:33.24	150.19	15.75	-41.6	-45.4	12.4	1.65e-04	0	58	0	161480704	54	5701
2026-01-14 09:46:34.25	150.16	15.86	-41.8	-45.7	12.1	2.28e-04	0	58	0	163577856	54	5881
2026-01-14 09:46:35.26	150.13	15.97	-41.8	-45.7	12.1	2.61e-04	0	58	0	165675008	54	5885
2026-01-14 09:46:36.27	150.10	16.08	-41.7	-45.6	12.2	2.33e-04	0	58	0	167772160	54	5804
2026-01-14 09:46:37.28	150.07	16.20	-41.8	-45.7	12.1	2.93e-04	0	57	0	168820736	54	5911
2026-01-14 09:46:38.29	150.04	16.31	-41.7	-45.6	12.3	2.04e-04	0	58	0	170917888	54	5791
2026-01-14 09:46:39.30	150.01	16.42	-41.7	-45.5	12.4	1.61e-04	0	58	0	173015040	54	5728
2026-01-14 09:46:40.31	149.98	16.54	-41.7	-45.4	12.5	1.05e-04	0	58	0	175112192	54	5676
2026-01-14 09:46:41.32	149.96	16.65	-41.5	-45.0	12.8	8.31e-05	0	58	0	177209344	54	5460
2026-01-14 09:46:42.33	149.93	16.77	-41.5	-45.0	12.9	3.96e-05	0	58	0	178257920	54	5444
2026-01-14 09:46:43.34	149.90	16.88	-41.4	-44.9	12.9	3.43e-05	0	58	0	180355072	54	5396
2026-01-14 09:46:44.35	149.86	17.00	-41.4	-44.8	13.1	3.43e-05	0	58	0	182452224	54	5337
2026-01-14 09:46:45.35	149.83	17.12	-41.5	-45.0	12.9	3.96e-05	0	58	0	184549376	54	5453
2026-01-14 09:46:46.37	149.80	17.24	-41.5	-45.0	12.9	5.18e-05	0	58	0	186646528	54	5428
2026-01-14 09:46:47.37	149.77	17.35	-41.6	-45.3	12.6	6.17e-05	0	58	0	188743680	54	5612
2026-01-14 09:46:48.38	149.74	17.47	-41.7	-45.4	12.6	1.33e-04	0	58	0	189792256	54	5658
2026-01-14 09:46:49.39	149.71	17.59	-41.8	-45.6	12.3	1.29e-04	0	58	0	191889408	54	5803
2026-01-14 09:46:50.40	149.68	17.71	-41.9	-45.8	12.1	2.41e-04	0	58	0	193986560	54	5986
2026-01-14 09:46:51.41	149.64	17.83	-41.9	-45.9	12.0	2.91e-04	0	58	0	196083712	54	6051
2026-01-14 09:46:52.42	149.61	17.95	-41.9	-45.9	12.0	2.78e-04	0	58	0	198180864	54	6018
2026-01-14 09:46:53.43	149.58	18.07	-42.0	-46.0	11.9	4.03e-04	0	58	0	199229440	54	6093
2026-01-14 09:46:54.44	149.55	18.20	-41.8	-45.8	12.2	2.66e-04	0	58	0	201326592	54	5934
2026-01-14 09:46:55.45	149.51	18.32	-41.8	-45.7	12.2	2.07e-04	0	58	0	203423744	54	5887
2026-01-14 09:46:56.46	149.48	18.44	-41.7	-45.4	12.5	1.42e-04	0	58	0	205520896	54	5719
2026-01-14 09:46:57.47	149.45	18.57	-41.6	-45.3	12.7	8.77e-05	0	58	0	207618048	54	5604
2026-01-14 09:46:58.48	149.41	18.69	-41.6	-45.3	12.7	5.72e-05	0	58	0	208666624	54	5630
2026-01-14 09:46:59.49	149.38	18.82	-41.6	-45.2	12.8	5.41e-05	0	58	0	210763776	54	5567
2026-01-14 09:47:00.50	149.34	18.94	-41.6	-45.2	12.9	5.49e-05	0	58	0	212860928	54	5542
2026-01-14 09:47:01.51	149.31	19.07	-41.7	-45.4	12.6	7.70e-05	0	58	0	214958080	54	5708
2026-01-14 09:47:02.52	149.27	19.19	-41.7	-45.4	12.6	7.70e-05	0	58	0	217055232	54	5661
2026-01-14 09:47:03.53	149.23	19.32	-41.8	-45.6	12.5	1.03e-04	0	58	0	218103808	54	5819
2026-01-14 09:47:04.54	149.20	19.45	-41.8	-45.7	12.3	1.96e-04	0	58	0	220200960	54	5893
2026-01-14 09:47:05.55	149.16	19.58	-41.8	-45.8	12.3	1.95e-04	0	58	0	222298112	54	5940
2026-01-14 09:47:06.56	149.13	19.71	-42.0	-46.0	12.0	3.31e-04	0	58	0	224395264	54	6098
2026-01-14 09:47:07.57	149.09	19.84	-41.9	-45.8	12.2	2.04e-04	0	58	0	226492416	54	5951
2026-01-14 09:47:08.58	149.05	19.97	-41.9	-45.8	12.2	2.24e-04	0	58	0	227540992	54	5933
2026-01-14 09:47:09.59	149.01	20.10	-41.8	-45.6	12.5	1.92e-04	0	58	0	229638144	54	5797
2026-01-14 09:47:10.60	148.97	20.24	-41.5	-45.2	12.8	8.85e-05	0	58	0	231735296	54	5561
2026-01-14 09:47:11.61	148.94	20.37	-41.6	-45.3	12.8	4.19e-05	0	58	0	233832448	54	5593
2026-01-14 09:47:12.62	148.90	20.50	-41.5	-44.9	13.2	2.05e-05	0	58	0	235929600	54	5361
2026-01-14 09:47:13.63	148.86	20.64	-41.3	-44.6	13.4	1.52e-05	0	58	0	236978176	54	5202
2026-01-14 09:47:14.64	148.82	20.77	-41.5	-44.9	13.2	1.44e-05	0	58	0	239075328	54	5369
2026-01-14 09:47:15.65	148.78	20.91	-41.4	-44.6	13.4	1.52e-05	0	58	0	241172480	54	5218
2026-01-14 09:47:16.66	148.74	21.04	-41.4	-44.7	13.5	1.29e-05	0	58	0	243269632	54	5226
2026-01-14 09:47:17.66	148.70	21.18	-41.4	-44.6	13.5	2.44e-05	0	58	0	245366784	54	5204
2026-01-14 09:47:18.67	148.66	21.32	-41.4	-44.7	13.4	1.90e-05	0	58	0	246415360	54	5258
2026-01-14 09:47:19.68	148.61	21.46	-41.5	-45.0	13.1	2.36e-05	0	58	0	248512512	54	5424
2026-01-14 09:47:20.69	148.57	21.60	-41.4	-44.8	13.4	1.83e-05	0	58	0	250609664	54	5283
2026-01-14 09:47:21.70	148.53	21.74	-41.5	-44.9	13.2	1.98e-05	0	58	0	252706816	54	5372
2026-01-14 09:47:22.71	148.49	21.88	-41.6	-45.2	12.9	4.11e-05	0	58	0	254803968	54	5547
2026-01-14 09:47:23.72	148.44	22.02	-41.6	-45.1	13.1	3.05e-05	0	58	0	256901120	54	5466
2026-01-14 09:47:24.73	148.40	22.16	-41.8	-45.4	12.8	2.44e-05	0	58	0	257949696	54	5672
2026-01-14 09:47:25.74	148.36	22.31	-41.7	-45.2	12.9	8.39e-05	0	58	0	260046848	54	5573
2026-01-14 09:47:26.75	148.31	22.45	-41.7	-45.3	12.9	5.18e-05	0	58	0	262144000	54	5612
2026-01-14 09:47:27.76	148.27	22.60	-41.9	-45.7	12.4	6.40e-05	0	58	0	264241152	54	5910
2026-01-14 09:47:28.77	148.22	22.74	-41.8	-45.5	12.6	1.11e-04	0	58	0	266338304	54	5766
2026-01-14 09:47:29.78	148.18	22.89	-41.8	-45.5	12.6	8.16e-05	0	58	0	267386880	54	5772
2026-01-14 09:47:30.79	148.13	23.04	-42.0	-45.8	12.4	1.42e-04	0	58	0	269484032	54	5941
2026-01-14 09:47:31.80	148.08	23.18	-41.9	-45.5	12.6	8.23e-05	0	58	0	271581184	54	5786
2026-01-14 09:47:32.81	148.03	23.33	-41.9	-45.6	12.6	5.87e-05	0	58	0	273678336	54	5799
2026-01-14 09:47:33.82	147.99	23.48	-41.6	-45.1	13.1	8.08e-05	0	58	0	274726912	54	5487
2026-01-14 09:47:34.83	147.94	23.63	-41.6	-45.0	13.1	3.28e-05	0	59	0	276824064	54	5436
2026-01-14 09:47:35.84	147.89	23.79	-41.7	-45.1	13.0	3.12e-05	0	58	0	278921216	54	5518
2026-01-14 09:47:36.84	147.84	23.94	-41.5	-44.8	13.4	2.28e-05	0	58	0	281018368	54	5309
2026-01-14 09:47:37.85	147.79	24.09	-41.6	-44.9	13.3	2.21e-05	0	58	0	283115520	54	5377
2026-01-14 09:47:38.86	147.74	24.24	-41.8	-45.3	12.8	5.72e-05	0	58	0	285212672	54	5628
2026-01-14 09:47:39.87	147.69	24.40	-41.8	-45.4	12.8	3.96e-05	0	58	0	286261248	54	5657
2026-01-14 09:47:40.88	147.64	24.56	-42.0	-45.8	12.3	9.76e-05	0	58	0	288358400	54	5967
2026-01-14 09:47:41.89	147.59	24.71	-42.2	-46.1	12.0	2.73e-04	0	58	0	290455552	54	6167
2026-01-14 09:47:42.90	147.54	24.87	-42.3	-46.4	11.7	3.36e-04	0	58	0	292552704	55	6011
2026-01-14 09:47:43.91	147.48	25.03	-42.6	-47.1	11.0	6.37e-04	0	58	0	294649856	55	6510
2026-01-14 09:47:44.92	147.43	25.19	-42.4	-46.7	11.4	1.04e-03	0	58	0	295698432	55	6249
2026-01-14 09:47:45.93	147.37	25.35	-42.5	-46.8	11.3	1.13e-03	0	58	0	297795584	55	6293
2026-01-14 09:47:46.94	147.32	25.51	-42.6	-47.0	11.1	2.05e-03	0	59	0	299892736	55	6435
2026-01-14 09:47:47.95	147.26	25.68	-42.5	-46.8	11.3	1.38e-03	0	58	0	301989888	55	6320
2026-01-14 09:47:48.96	147.21	25.84	-42.5	-46.8	11.3	1.09e-03	0	58	0	304087040	55	6338
2026-01-14 09:47:49.97	147.15	26.00	-42.4	-46.7	11.4	1.67e-03	0	59	0	305135616	55	6261
2026-01-14 09:47:50.98	147.10	26.17	-42.5	-46.7	11.4	1.21e-03	0	58	0	307232768	55	6264
2026-01-14 09:47:51.99	147.04	26.34	-42.6	-47.1	11.0	1.50e-03	0	59	0	309329920	55	6566
2026-01-14 09:47:53.00	146.98	26.50	-42.7	-47.3	10.9	1.32e-03	0	59	0	311427072	55	6650
2026-01-14 09:47:54.00	146.92	26.67	-42.7	-47.2	10.9	2.12e-03	0	58	0	313524224	55	6634
2026-01-14 09:47:55.01	146.86	26.84	-42.8	-47.4	10.9	2.89e-03	0	59	0	314572800	56	6358
2026-01-14 09:47:56.02	146.80	27.01	-43.0	-47.7	10.6	2.45e-03	0	59	0	316669952	56	6571
2026-01-14 09:47:57.03	146.74	27.18	-43.0	-47.6	10.7	2.74e-03	0	59	0	318767104	56	6537
2026-01-14 09:47:58.04	146.68	27.35	-43.0	-47.6	10.6	2.95e-03	0	59	0	320864256	56	6568
2026-01-14 09:47:59.05	146.62	27.53	-42.9	-47.6	10.7	3.41e-03	0	59	0	322961408	56	6533
2026-01-14 09:48:00.06	146.55	27.70	-43.2	-48.2	10.1	4.52e-03	0	59	0	324009984	56	6971
2026-01-14 09:48:01.07	146.49	27.88	-43.2	-48.2	10.1	4.65e-03	0	59	0	326107136	56	6971
2026-01-14 09:48:02.08	146.42	28.06	-43.1	-48.0	10.3	5.27e-03	0	59	0	328204288	56	6807
2026-01-14 09:48:03.09	146.36	28.23	-43.2	-48.2	10.0	8.00e-03	0	59	0	330301440	57	6633
2026-01-14 09:48:04.10	146.29	28.41	-43.2	-48.3	10.0	6.09e-03	0	59	0	332398592	57	6698
2026-01-14 09:48:05.11	146.23	28.59	-43.1	-48.0	10.3	5.65e-03	0	59	0	333447168	57	6473
2026-01-14 09:48:06.12	146.16	28.78	-43.0	-47.7	10.6	4.21e-03	0	59	0	335544320	57	6236
2026-01-14 09:48:07.13	146.09	28.96	-42.9	-47.4	10.9	3.46e-03	0	59	0	337641472	57	6042
2026-01-14 09:48:08.14	146.02	29.14	-42.9	-47.5	10.8	2.53e-03	0	58	0	339738624	57	6078
2026-01-14 09:48:09.15	145.95	29.33	-43.0	-47.6	10.7	2.42e-03	0	58	0	341835776	57	6164
2026-01-14 09:48:10.16	145.88	29.51	-43.0	-47.8	10.6	3.04e-03	0	59	0	342884352	57	6303
2026-01-14 09:48:11.17	145.81	29.70	-43.2	-48.1	10.3	7.12e-03	0	59	0	344981504	57	6514
2026-01-14 09:48:12.17	145.74	29.89	-43.4	-48.7	9.6	1.04e-02	0	59	0	347078656	57	6982
2026-01-14 09:48:13.18	145.66	30.08	-43.5	-49.0	9.3	1.32e-02	0	59	0	349175808	57	7223
2026-01-14 09:48:14.19	145.59	30.27	-43.5	-49.2	9.1	2.07e-02	0	59	0	351272960	57	7390
2026-01-14 09:48:15.20	145.51	30.46	-43.5	-49.1	9.2	2.61e-02	0	59	0	353370112	57	7350
2026-01-14 09:48:16.21	145.44	30.65	-43.5	-49.1	9.2	2.13e-02	0	59	0	354418688	57	7313
2026-01-14 09:48:17.23	145.36	30.85	-43.4	-48.6	9.7	1.20e-02	0	59	0	356515840	57	6952
2026-01-14 09:48:18.24	145.28	31.04	-43.3	-48.5	9.8	1.15e-02	0	59	0	358612992	57	6863
2026-01-14 09:48:19.25	145.20	31.24	-43.2	-48.1	10.3	8.39e-03	0	59	0	360710144	57	6531
2026-01-14 09:48:20.25	145.12	31.44	-43.3	-48.4	10.0	6.30e-03	0	59	0	362807296	57	6733
2026-01-14 09:48:21.26	145.04	31.64	-43.4	-48.7	9.6	1.27e-02	0	59	0	363855872	57	7012
2026-01-14 09:48:22.27	144.96	31.84	-43.5	-48.9	9.4	1.86e-02	0	59	0	365953024	57	7156
2026-01-14 09:48:23.28	144.88	32.04	-43.8	-49.7	8.6	2.61e-02	0	59	0	368050176	58	7405
2026-01-14 09:48:24.29	144.79	32.24	-43.9	-50.1	8.2	4.45e-02	0	59	0	370147328	58	7734
2026-01-14 09:48:25.30	144.71	32.45	-43.8	-49.9	8.5	4.35e-02	0	59	0	372244480	58	7554
2026-01-14 09:48:26.31	144.62	32.65	-43.9	-50.0	8.3	4.55e-02	0	59	0	373293056	58	7664
2026-01-14 09:48:27.32	144.53	32.86	-43.7	-49.5	8.8	3.81e-02	0	59	0	375390208	58	7246
2026-01-14 09:48:28.33	144.44	33.07	-43.7	-49.3	9.0	3.10e-02	0	59	0	377487360	58	7118
2026-01-14 09:48:29.34	144.35	33.28	-43.8	-49.6	8.7	2.82e-02	0	59	0	379584512	58	7367
2026-01-14 09:48:30.34	144.26	33.49	-43.8	-49.5	8.7	3.49e-02	0	59	0	381681664	58	7281
2026-01-14 09:48:31.35	144.17	33.70	-44.0	-50.3	7.9	4.94e-02	0	59	0	382730240	58	7949
2026-01-14 09:48:32.37	144.07	33.92	-44.1	-50.9	7.4	7.90e-02	0	59	0	384827392	58	8483
2026-01-14 09:48:33.38	143.98	34.14	-44.1	-51.0	7.4	1.11e-01	0	59	0	386924544	58	8571
2026-01-14 09:48:34.39	143.88	34.35	-44.2	-51.1	7.2	1.23e-01	0	59	0	389021696	58	8722
2026-01-14 09:48:35.40	143.78	34.57	-44.0	-50.4	8.0	1.05e-01	0	59	0	391118848	58	8001
2026-01-14 09:48:36.41	143.69	34.79	-43.8	-49.7	8.7	7.12e-02	0	59	0	392167424	58	7427
2026-01-14 09:48:37.41	143.59	35.01	-43.6	-49.1	9.3	2.56e-02	0	59	0	394264576	58	6882
2026-01-14 09:48:38.42	143.48	35.23	-43.5	-48.6	9.7	1.31e-02	0	59	0	396361728	58	6570
2026-01-14 09:48:39.43	143.38	35.46	-43.6	-49.1	9.3	1.30e-02	0	59	0	398458880	58	6946
2026-01-14 09:48:40.44	143.28	35.68	-43.6	-49.0	9.4	1.88e-02	0	59	0	400556032	58	6864
2026-01-14 09:48:41.45	143.17	35.91	-43.8	-49.5	8.9	2.69e-02	0	59	0	401604608	58	7261
2026-01-14 09:48:42.46	143.06	36.14	-43.9	-50.1	8.2	5.01e-02	0	59	0	403701760	58	7760
2026-01-14 09:48:43.47	142.95	36.37	-44.1	-50.9	7.4	8.59e-02	0	59	0	405798912	58	8546
2026-01-14 09:48:44.48	142.84	36.60	-44.1	-50.8	7.6	1.07e-01	0	59	0	407896064	58	8382
2026-01-14 09:48:45.49	142.73	36.84	-44.1	-50.6	7.8	9.56e-02	0	59	0	409993216	58	8215
2026-01-14 09:48:46.50	142.61	37.07	-44.1	-50.8	7.6	1.02e-01	0	59	0	411041792	58	8374
2026-01-14 09:48:47.51	142.50	37.31	-44.0	-50.5	8.0	9.38e-02	0	59	0	413138944	58	8131
2026-01-14 09:48:48.52	142.38	37.55	-44.0	-50.4	7.9	4.37e-02	0	59	0	415236096	58	8028
2026-01-14 09:48:49.53	142.26	37.79	-43.9	-50.0	8.4	4.84e-02	0	59	0	417333248	58	7685
2026-01-14 09:48:50.54	142.14	38.03	-43.6	-48.9	9.4	2.08e-02	0	59	0	419430400	58	6756
2026-01-14 09:48:51.55	142.02	38.27	-43.7	-49.1	9.2	2.26e-02	0	59	0	421527552	58	6933
2026-01-14 09:48:52.56	141.89	38.51	-43.5	-48.8	9.5	1.61e-02	0	59	0	422576128	58	6691
2026-01-14 09:48:53.57	141.76	38.76	-43.7	-49.2	9.1	1.36e-02	0	59	0	424673280	58	7023
2026-01-14 09:48:54.58	141.64	39.01	-43.9	-49.8	8.5	2.85e-02	0	59	0	426770432	58	7540
2026-01-14 09:48:55.59	141.50	39.26	-44.0	-50.3	7.9	4.95e-02	0	59	0	428867584	58	7949
2026-01-14 09:48:56.60	141.37	39.51	-44.1	-50.5	7.8	7.54e-02	0	59	0	430964736	58	8174
2026-01-14 09:48:57.61	141.24	39.76	-44.0	-50.4	8.0	6.67e-02	0	59	0	432013312	58	8031
2026-01-14 09:48:58.62	141.10	40.01	-44.1	-50.7	7.6	6.21e-02	0	59	0	434110464	58	8360
2026-01-14 09:48:59.63	140.96	40.27	-44.0	-50.4	7.9	6.92e-02	0	59	0	436207616	58	8073
2026-01-14 09:49:00.64	140.82	40.53	-44.0	-50.3	8.1	5.20e-02	0	59	0	438304768	58	7928
2026-01-14 09:49:01.65	140.67	40.79	-44.0	-50.2	8.2	8.64e-02	0	59	0	440401920	58	7809
2026-01-14 09:49:02.66	140.53	41.05	-43.8	-49.8	8.6	6.47e-02	0	59	0	441450496	58	7468
2026-01-14 09:49:03.66	140.38	41.31	-43.7	-49.4	9.0	3.69e-02	0	59	0	443547648	58	7125
2026-01-14 09:49:04.67	140.23	41.57	-43.5	-48.6	9.8	2.04e-02	0	59	0	445644800	58	6542
2026-01-14 09:49:05.68	140.07	41.84	-43.4	-48.4	10.0	1.15e-02	0	59	0	447741952	58	6368
2026-01-14 09:49:06.69	139.92	42.11	-43.5	-48.6	9.8	7.88e-03	0	59	0	449839104	58	6568
2026-01-14 09:49:07.70	139.76	42.37	-43.5	-48.7	9.8	7.84e-03	0	59	0	450887680	58	6592
2026-01-14 09:49:08.71	139.60	42.65	-43.5	-48.8	9.7	1.04e-02	0	59	0	452984832	58	6656
2026-01-14 09:49:09.72	139.43	42.92	-43.4	-48.3	10.0	1.40e-02	0	59	0	455081984	58	6344
2026-01-14 09:49:10.73	139.26	43.19	-43.4	-48.3	10.1	6.54e-03	0	59	0	457179136	58	6289
2026-01-14 09:49:11.74	139.09	43.47	-43.6	-48.8	9.6	5.77e-03	0	59	0	459276288	58	6708
2026-01-14 09:49:12.75	138.92	43.75	-43.4	-48.4	10.0	6.81e-03	0	59	0	460324864	58	6355
2026-01-14 09:49:13.76	138.74	44.03	-43.4	-48.5	9.8	9.39e-03	0	59	0	462422016	58	6462
2026-01-14 09:49:14.77	138.56	44.31	-43.4	-48.5	10.0	1.05e-02	0	59	0	464519168	58	6429
2026-01-14 09:49:15.78	138.38	44.59	-43.0	-47.5	10.9	2.89e-03	0	59	0	466616320	57	6114
2026-01-14 09:49:16.79	138.19	44.87	-42.8	-47.0	11.3	1.44e-03	0	60	0	468713472	57	5777
2026-01-14 09:49:17.80	138.00	45.16	-42.7	-46.8	11.7	4.83e-04	0	59	0	469762048	57	5624
2026-01-14 09:49:18.81	137.81	45.45	-42.9	-47.2	11.2	5.52e-04	0	59	0	471859200	57	5904
2026-01-14 09:49:19.82	137.61	45.74	-43.0	-47.6	10.8	2.94e-03	0	59	0	473956352	57	6147
2026-01-14 09:49:20.82	137.41	46.03	-43.3	-48.3	10.0	5.37e-03	0	59	0	476053504	57	6712
2026-01-14 09:49:21.83	137.21	46.32	-43.3	-48.3	10.0	7.81e-03	0	59	0	478150656	57	6699
2026-01-14 09:49:22.84	137.00	46.61	-43.1	-47.7	10.8	2.66e-03	0	59	0	479199232	57	6206
2026-01-14 09:49:23.85	136.79	46.91	-42.9	-47.2	11.2	1.98e-03	0	59	0	481296384	57	5879
2026-01-14 09:49:24.86	136.57	47.21	-42.7	-46.7	11.7	1.07e-03	0	59	0	483393536	57	5554
2026-01-14 09:49:25.87	136.35	47.51	-42.8	-46.9	11.5	7.92e-04	0	59	0	485490688	57	5721
2026-01-14 09:49:26.88	136.12	47.81	-42.9	-47.2	11.2	1.08e-03	0	59	0	487587840	57	5893
2026-01-14 09:49:27.89	135.89	48.11	-43.2	-48.1	10.4	1.42e-03	0	59	0	489684992	57	6517
2026-01-14 09:49:28.90	135.66	48.42	-43.2	-47.9	10.7	3.58e-03	0	59	0	490733568	57	6389
2026-01-14 09:49:29.91	135.42	48.72	-43.0	-47.6	10.8	3.19e-03	0	59	0	492830720	57	6166
2026-01-14 09:49:30.92	135.18	49.03	-42.6	-46.7	11.8	1.60e-03	0	59	0	494927872	57	5542
2026-01-14 09:49:31.93	134.93	49.34	-42.4	-46.2	12.2	3.11e-04	0	59	0	497025024	56	5586
2026-01-14 09:49:32.94	134.67	49.65	-42.4	-46.1	12.4	1.62e-04	0	59	0	499122176	56	5490
2026-01-14 09:49:33.95	134.41	49.96	-42.2	-45.8	12.7	6.63e-05	0	59	0	500170752	56	5322
2026-01-14 09:49:34.96	134.15	50.28	-42.2	-45.7	12.7	9.84e-05	0	59	0	502267904	56	5273
2026-01-14 09:49:35.97	133.88	50.59	-42.0	-45.4	13.1	8.31e-05	0	59	0	504365056	56	5042
2026-01-14 09:49:36.98	133.60	50.91	-41.9	-45.3	12.9	3.81e-05	0	59	0	506462208	55	5337
2026-01-14 09:49:37.98	133.32	51.22	-42.0	-45.6	12.8	3.81e-05	0	59	0	508559360	55	5475
2026-01-14 09:49:39.00	133.03	51.55	-42.4	-46.4	11.9	2.12e-04	0	59	0	509607936	55	6019
2026-01-14 09:49:40.01	132.74	51.87	-43.0	-47.5	11.0	8.85e-04	0	59	0	511705088	56	6438
2026-01-14 09:49:41.02	132.44	52.19	-42.9	-47.2	11.2	3.02e-03	0	59	0	513802240	56	6245
2026-01-14 09:49:42.02	132.13	52.51	-42.6	-46.5	11.7	1.64e-03	0	59	0	515899392	56	5783
2026-01-14 09:49:43.03	131.82	52.83	-42.3	-45.9	12.5	2.15e-04	0	59	0	517996544	56	5360
2026-01-14 09:49:44.04	131.50	53.16	-42.1	-45.6	12.9	5.26e-05	0	59	0	519045120	56	5163
2026-01-14 09:49:45.05	131.17	53.49	-42.5	-46.4	12.1	1.66e-04	0	60	0	521142272	56	5662
2026-01-14 09:49:46.06	130.83	53.82	-42.9	-47.3	11.2	8.26e-04	0	59	0	523239424	56	6285
2026-01-14 09:49:47.07	130.48	54.15	-42.9	-47.2	11.2	2.76e-03	0	59	0	525336576	56	6262
2026-01-14 09:49:48.08	130.13	54.48	-42.6	-46.7	11.7	2.00e-03	0	59	0	527433728	56	5879
2026-01-14 09:49:49.09	129.77	54.81	-42.5	-46.4	12.1	2.92e-04	0	60	0	528482304	56	5672
2026-01-14 09:49:50.10	129.40	55.14	-42.3	-46.0	12.5	8.77e-05	0	59	0	530579456	56	5414
2026-01-14 09:49:51.11	129.02	55.47	-42.4	-46.1	12.4	1.31e-04	0	59	0	532676608	56	5470
2026-01-14 09:49:52.12	128.64	55.81	-42.6	-46.7	11.8	3.07e-04	0	59	0	534773760	56	5875
2026-01-14 09:49:53.13	128.24	56.14	-42.9	-47.1	11.3	7.61e-04	0	59	0	536870912	56	6189
2026-01-14 09:49:54.14	127.83	56.48	-42.9	-47.2	11.4	1.28e-03	0	59	0	537919488	56	6206
2026-01-14 09:49:55.15	127.42	56.81	-42.9	-47.3	11.1	1.72e-03	0	59	0	540016640	56	6275
2026-01-14 09:49:56.16	126.99	57.15	-42.9	-47.2	11.3	8.78e-04	0	60	0	542113792	56	6207
2026-01-14 09:49:57.17	126.55	57.49	-43.0	-47.4	11.0	1.71e-03	0	60	0	544210944	56	6382
2026-01-14 09:49:58.18	126.10	57.82	-43.5	-48.7	9.6	7.66e-03	0	60	0	546308096	57	6983
2026-01-14 09:49:59.19	125.64	58.16	-43.7	-49.3	8.9	2.26e-02	0	59	0	547356672	58	7110
2026-01-14 09:50:00.20	125.17	58.50	-43.8	-49.5	8.8	2.47e-02	0	59	0	549453824	58	7259
2026-01-14 09:50:01.21	124.69	58.83	-43.6	-48.9	9.4	2.67e-02	0	59	0	551550976	58	6788
2026-01-14 09:50:02.22	124.19	59.17	-43.5	-48.7	9.6	1.18e-02	0	59	0	553648128	58	6642
2026-01-14 09:50:03.22	123.69	59.51	-42.9	-47.3	11.1	3.76e-03	0	59	0	555745280	57	5945
2026-01-14 09:50:04.23	123.16	59.84	-43.0	-47.3	11.0	1.68e-03	0	60	0	557842432	57	5977
2026-01-14 09:50:05.24	122.63	60.18	-43.1	-47.7	10.6	4.07e-03	0	60	0	558891008	57	6256
2026-01-14 09:50:06.25	122.07	60.52	-43.1	-47.6	10.8	3.91e-03	0	59	0	560988160	57	6167
2026-01-14 09:50:07.26	121.51	60.85	-42.8	-47.0	11.4	2.51e-03	0	60	0	563085312	57	5754
2026-01-14 09:50:08.27	120.93	61.19	-42.2	-45.9	12.5	1.31e-04	0	59	0	565182464	56	5346
2026-01-14 09:50:09.28	120.33	61.52	-42.3	-46.1	12.3	1.42e-04	0	59	0	567279616	56	5472
2026-01-14 09:50:10.29	119.72	61.85	-42.2	-45.8	12.7	1.82e-04	0	59	0	568328192	56	5306
2026-01-14 09:50:11.30	119.09	62.18	-42.3	-45.9	12.5	1.35e-04	0	59	0	570425344	56	5377
2026-01-14 09:50:12.31	118.44	62.51	-42.1	-45.5	12.9	6.02e-05	0	60	0	572522496	56	5144
2026-01-14 09:50:13.32	117.77	62.84	-41.5	-44.7	13.6	2.51e-05	0	60	0	574619648	55	4938
2026-01-14 09:50:14.33	117.09	63.17	-41.9	-45.2	13.0	9.10e-06	0	59	0	576716800	55	5278
2026-01-14 09:50:15.34	116.38	63.49	-42.5	-46.5	11.7	2.38e-04	0	59	0	577765376	55	6091
2026-01-14 09:50:16.35	115.66	63.81	-42.9	-47.2	11.1	9.79e-04	0	60	0	579862528	56	6261
2026-01-14 09:50:17.36	114.92	64.13	-42.4	-46.1	12.2	7.19e-04	0	59	0	581959680	56	5497
2026-01-14 09:50:18.37	114.15	64.45	-42.1	-45.6	12.8	8.92e-05	0	60	0	584056832	56	5215
2026-01-14 09:50:19.38	113.37	64.76	-42.4	-46.1	12.3	1.19e-04	0	59	0	586153984	56	5517
2026-01-14 09:50:20.39	112.56	65.07	-42.5	-46.4	12.0	2.62e-04	0	60	0	587202560	56	5700
2026-01-14 09:50:21.40	111.73	65.38	-42.5	-46.5	11.9	2.71e-04	0	59	0	589299712	56	5735
2026-01-14 09:50:22.40	110.89	65.68	-42.6	-46.7	11.6	6.52e-04	0	59	0	591396864	56	5878
2026-01-14 09:50:23.41	110.01	65.98	-43.0	-47.4	11.0	8.60e-04	0	59	0	593494016	56	6404
2026-01-14 09:50:24.42	109.11	66.28	-42.9	-47.3	10.9	2.43e-03	0	60	0	595591168	56	6326
2026-01-14 09:50:25.43	108.18	66.57	-43.2	-48.1	10.1	3.30e-03	0	59	0	596639744	57	6517
2026-01-14 09:50:26.44	107.23	66.86	-43.6	-49.1	9.1	1.27e-02	0	59	0	598736896	57	7335
2026-01-14 09:50:27.45	106.25	67.14	-43.6	-49.0	9.2	2.19e-02	0	60	0	600834048	57	7262
2026-01-14 09:50:28.46	105.25	67.41	-43.0	-47.5	10.7	8.14e-03	0	60	0	602931200	57	6095
2026-01-14 09:50:29.47	104.22	67.68	-42.1	-45.6	12.7	7.68e-04	0	60	0	605028352	56	5187
2026-01-14 09:50:30.48	103.16	67.95	-42.0	-45.4	12.9	6.48e-05	0	59	0	606076928	56	5057
2026-01-14 09:50:31.49	102.07	68.21	-42.5	-46.4	12.0	2.31e-04	0	60	0	608174080	56	5684
2026-01-14 09:50:32.50	100.96	68.46	-42.7	-46.8	11.5	8.12e-04	0	59	0	610271232	56	5956
2026-01-14 09:50:33.51	99.82	68.70	-42.5	-46.4	12.0	6.99e-04	0	59	0	612368384	56	5662
2026-01-14 09:50:34.52	98.65	68.94	-43.2	-48.0	10.2	1.78e-03	0	60	0	614465536	56	6851
2026-01-14 09:50:35.52	97.46	69.17	-43.7	-49.5	8.7	1.81e-02	0	59	0	615514112	57	7695
2026-01-14 09:50:36.53	96.24	69.39	-43.0	-47.5	10.7	1.19e-02	0	60	0	617611264	57	6121
2026-01-14 09:50:37.54	94.98	69.60	-42.8	-47.2	11.0	1.36e-03	0	60	0	619708416	57	5877
2026-01-14 09:50:38.55	93.70	69.80	-43.2	-48.1	10.1	3.69e-03	0	59	0	621805568	57	6545
2026-01-14 09:50:39.56	92.39	70.00	-43.1	-47.9	10.4	8.57e-03	0	59	0	623902720	57	6360
2026-01-14 09:50:40.57	91.05	70.18	-43.4	-48.5	9.7	1.19e-02	0	59	0	625999872	57	6867
2026-01-14 09:50:41.58	89.69	70.36	-43.5	-48.8	9.3	1.63e-02	0	59	0	627048448	57	7102
2026-01-14 09:50:42.59	88.30	70.52	-43.6	-49.0	9.2	1.70e-02	0	59	0	629145600	57	7255
2026-01-14 09:50:43.60	86.89	70.68	-43.5	-48.8	9.4	1.23e-02	0	60	0	631242752	57	7095
2026-01-14 09:50:44.61	85.45	70.82	-43.9	-50.1	8.2	3.35e-02	0	60	0	633339904	58	7722
2026-01-14 09:50:45.62	83.99	70.95	-44.0	-50.4	7.8	5.31e-02	0	59	0	635437056	58	8073
2026-01-14 09:50:46.63	82.52	71.07	-44.3	-51.8	6.5	1.72e-01	0	60	0	636485632	59	8876
2026-01-14 09:50:47.64	81.02	71.18	-44.5	-52.5	5.9	2.64e-01	0	60	0	638582784	59	9624
2026-01-14 09:50:48.65	79.50	71.27	-43.7	-49.3	8.8	9.69e-02	0	60	0	640679936	59	6699
2026-01-14 09:50:49.66	77.97	71.35	-43.0	-47.5	10.7	1.17e-02	0	59	0	642777088	58	5784
2026-01-14 09:50:50.67	76.43	71.43	-43.2	-48.0	10.2	3.38e-03	0	59	0	644874240	57	6456
2026-01-14 09:50:51.68	74.88	71.48	-43.8	-49.7	8.5	2.73e-02	0	59	0	645922816	58	7403
2026-01-14 09:50:52.69	73.31	71.53	-43.6	-49.1	9.0	4.34e-02	0	60	0	648019968	58	6939
2026-01-14 09:50:53.70	71.74	71.56	-43.5	-48.7	9.6	1.44e-02	0	60	0	650117120	58	6572
2026-01-14 09:50:54.71	70.17	71.58	-43.6	-49.0	9.3	1.77e-02	0	60	0	652214272	58	6813
2026-01-14 09:50:55.72	68.59	71.58	-43.2	-48.0	10.3	2.12e-02	0	59	0	654311424	58	6094
2026-01-14 09:50:56.73	67.01	71.57	-43.0	-47.6	10.7	3.02e-03	0	59	0	655360000	57	6169
2026-01-14 09:50:57.74	65.44	71.55	-43.4	-48.6	9.7	5.64e-03	0	59	0	657457152	57	6883
2026-01-14 09:50:58.75	63.87	71.52	-43.2	-48.1	10.0	2.29e-02	0	59	0	659554304	57	6534
2026-01-14 09:50:59.76	62.31	71.47	-43.1	-47.9	10.5	4.04e-03	0	60	0	661651456	57	6371
2026-01-14 09:51:00.76	60.77	71.41	-43.2	-48.1	9.9	5.39e-03	0	60	0	663748608	57	6553
2026-01-14 09:51:01.77	59.23	71.34	-43.2	-48.0	10.2	9.79e-03	0	59	0	664797184	57	6488
2026-01-14 09:51:02.78	57.71	71.25	-43.2	-47.9	10.4	4.81e-03	0	59	0	666894336	57	6382
2026-01-14 09:51:03.79	56.19	71.16	-43.7	-49.3	8.8	1.97e-02	0	60	0	668991488	58	7088
2026-01-14 09:51:04.80	54.70	71.05	-43.9	-50.3	7.9	7.39e-02	0	59	0	671088640	58	7966
2026-01-14 09:51:05.81	53.23	70.92	-43.7	-49.5	8.8	4.40e-02	0	60	0	673185792	58	7242
2026-01-14 09:51:06.82	51.78	70.79	-43.7	-49.3	8.9	2.71e-02	0	60	0	674234368	58	7100
2026-01-14 09:51:07.83	50.35	70.65	-43.6	-49.1	9.2	2.34e-02	0	60	0	676331520	58	6907
2026-01-14 09:51:08.84	48.94	70.49	-43.9	-50.0	8.3	2.38e-02	0	59	0	678428672	58	7663
2026-01-14 09:51:09.85	47.56	70.32	-44.0	-50.3	8.0	5.84e-02	0	59	0	680525824	58	7941
2026-01-14 09:51:10.86	46.20	70.15	-43.7	-49.4	8.9	3.26e-02	0	59	0	682622976	58	7144
2026-01-14 09:51:11.87	44.87	69.96	-44.1	-50.7	7.6	2.72e-02	0	59	0	683671552	58	8301
2026-01-14 09:51:12.88	43.57	69.76	-44.4	-51.8	6.5	2.18e-01	0	60	0	685768704	59	8878
2026-01-14 09:51:13.89	42.29	69.56	-44.2	-50.9	7.2	1.76e-01	0	59	0	687865856	59	8082
2026-01-14 09:51:14.90	41.04	69.34	-44.0	-50.2	8.1	5.78e-02	0	59	0	689963008	59	7375
2026-01-14 09:51:15.91	39.82	69.12	-44.2	-51.0	7.3	1.03e-01	0	60	0	692060160	59	8129
2026-01-14 09:51:16.92	38.63	68.89	-43.7	-49.3	9.1	5.31e-02	0	60	0	693108736	59	6663
2026-01-14 09:51:17.92	37.48	68.66	-43.6	-48.9	9.3	1.65e-02	0	59	0	695205888	59	6416
2026-01-14 09:51:18.93	36.35	68.41	-43.7	-49.2	9.1	1.31e-02	0	60	0	697303040	58	7010
2026-01-14 09:51:19.94	35.24	68.16	-43.8	-49.4	8.8	3.72e-02	0	60	0	699400192	58	7190
2026-01-14 09:51:20.95	34.16	67.90	-43.8	-49.7	8.6	4.39e-02	0	60	0	701497344	58	7419
2026-01-14 09:51:21.96	33.11	67.63	-43.7	-49.1	9.1	3.80e-02	0	60	0	702545920	58	6957
2026-01-14 09:51:22.97	32.09	67.36	-43.0	-47.4	10.9	4.82e-03	0	60	0	704643072	58	5681
2026-01-14 09:51:23.98	31.09	67.09	-42.7	-46.7	11.6	7.40e-04	0	60	0	706740224	57	5556
2026-01-14 09:51:24.99	30.12	66.80	-43.2	-47.9	10.4	7.09e-04	0	60	0	708837376	57	6356
2026-01-14 09:51:26.00	29.17	66.52	-43.3	-48.0	10.2	7.64e-03	0	60	0	710934528	57	6494
2026-01-14 09:51:27.01	28.25	66.23	-43.1	-47.8	10.5	5.68e-03	0	60	0	711983104	57	6282
2026-01-14 09:51:28.02	27.36	65.93	-42.7	-46.8	11.5	8.23e-04	0	60	0	714080256	57	5632
2026-01-14 09:51:29.03	26.49	65.63	-42.7	-46.7	11.6	9.46e-04	0	60	0	716177408	57	5574
2026-01-14 09:51:30.04	25.64	65.33	-42.5	-46.4	12.0	4.35e-04	0	60	0	718274560	56	5700
2026-01-14 09:51:31.04	24.82	65.02	-42.6	-46.5	11.8	4.78e-04	0	60	0	720371712	56	5773
2026-01-14 09:51:32.05	24.02	64.71	-41.8	-45.1	13.1	1.69e-04	0	60	0	722468864	55	5208
2026-01-14 09:51:33.06	23.24	64.40	-41.4	-44.4	13.9	8.30e-06	0	60	0	723517440	54	5074
2026-01-14 09:51:34.07	22.48	64.08	-41.6	-44.8	13.5	1.06e-05	0	59	0	725614592	54	5282
2026-01-14 09:51:35.08	21.74	63.76	-41.6	-44.8	13.6	1.29e-05	0	60	0	727711744	54	5282
2026-01-14 09:51:36.09	21.03	63.44	-41.6	-44.8	13.5	2.97e-05	0	60	0	729808896	54	5290
2026-01-14 09:51:37.10	20.33	63.12	-41.5	-44.7	13.6	1.22e-05	0	60	0	731906048	54	5254
2026-01-14 09:51:38.11	19.65	62.79	-41.5	-44.6	13.7	6.80e-06	0	59	0	732954624	54	5215
2026-01-14 09:51:39.12	18.99	62.46	-42.0	-45.5	12.8	3.89e-05	0	59	0	735051776	54	5770
2026-01-14 09:51:40.13	18.34	62.13	-42.1	-45.7	12.6	5.87e-05	0	60	0	737148928	54	5894
2026-01-14 09:51:41.14	17.72	61.80	-42.3	-46.2	12.0	1.16e-04	0	60	0	739246080	55	5883
2026-01-14 09:51:42.15	17.11	61.47	-43.0	-47.6	10.8	1.42e-03	0	60	0	741343232	56	6568
2026-01-14 09:51:43.16	16.51	61.14	-43.3	-48.1	10.1	3.36e-03	0	59	0	742391808	57	6550
2026-01-14 09:51:44.17	15.94	60.80	-43.2	-48.2	10.1	3.12e-03	0	60	0	744488960	57	6601
2026-01-14 09:51:45.18	15.37	60.47	-43.1	-47.6	10.6	3.47e-03	0	60	0	746586112	57	6189
2026-01-14 09:51:46.19	14.83	60.13	-43.0	-47.7	10.6	2.51e-03	0	60	0	748683264	57	6269
2026-01-14 09:51:47.20	14.29	59.80	-43.1	-47.8	10.5	1.22e-03	0	60	0	750780416	57	6341
2026-01-14 09:51:48.21	13.77	59.46	-43.4	-48.4	9.9	9.74e-03	0	60	0	751828992	57	6742
2026-01-14 09:51:49.21	13.27	59.13	-42.9	-47.4	10.9	3.34e-03	0	60	0	753926144	57	6017
2026-01-14 09:51:50.22	12.78	58.79	-42.5	-46.6	11.8	1.52e-03	0	60	0	756023296	57	5493
2026-01-14 09:51:51.24	12.29	58.45	-42.3	-46.5	11.9	3.64e-04	0	60	0	758120448	56	5758
2026-01-14 09:51:52.25	11.83	58.12	-42.7	-46.9	11.6	8.02e-04	0	60	0	760217600	56	6002
2026-01-14 09:51:53.26	11.37	57.78	-43.1	-47.6	10.7	2.99e-03	0	60	0	761266176	56	6517
2026-01-14 09:51:54.27	10.92	57.45	-42.7	-46.7	11.7	5.39e-03	0	60	0	763363328	57	5553
2026-01-14 09:51:55.28	10.49	57.11	-42.4	-46.2	12.2	5.39e-04	0	60	0	765460480	56	5557
2026-01-14 09:51:56.29	10.06	56.77	-42.1	-45.5	12.8	1.14e-04	0	60	0	767557632	56	5151
2026-01-14 09:51:57.30	9.65	56.44	-41.4	-44.4	13.8	1.14e-05	0	60	0	769654784	54	5087
2026-01-14 09:51:58.31	9.25	56.11	-41.0	-43.9	14.4	7.00e-07	0	60	0	770703360	54	4765
2026-01-14 09:51:59.32	8.85	55.77	-41.5	-44.7	13.6	1.50e-06	0	59	0	772800512	53	5534
2026-01-14 09:52:00.33	8.47	55.44	-41.8	-45.1	13.2	5.18e-05	0	60	0	774897664	54	5507
2026-01-14 09:52:01.34	8.09	55.11	-42.0	-45.6	12.7	5.49e-05	0	60	0	776994816	54	5810
2026-01-14 09:52:02.35	7.72	54.78	-42.3	-46.0	12.2	1.02e-04	0	60	0	779091968	55	5785
2026-01-14 09:52:03.36	7.37	54.45	-42.6	-46.9	11.4	4.84e-04	0	60	0	780140544	55	6355
2026-01-14 09:52:04.37	7.02	54.12	-43.1	-47.7	10.6	1.28e-03	0	60	0	782237696	56	6606
2026-01-14 09:52:05.38	6.67	53.79	-43.5	-48.9	9.5	5.93e-03	0	60	0	784334848	57	7168
2026-01-14 09:52:06.39	6.34	53.46	-43.5	-48.8	9.4	1.34e-02	0	60	0	786432000	57	7096
2026-01-14 09:52:07.40	6.01	53.14	-42.8	-47.9	10.3	7.96e-03	0	60	0	788529152	57	6411
2026-01-14 09:52:08.41	5.69	52.81	-42.6	-46.7	11.7	5.41e-04	0	60	0	790626304	56	5885
2026-01-14 09:52:09.42	5.38	52.49	-42.5	-46.5	12.0	2.65e-04	0	60	0	791674880	56	5735
2026-01-14 09:52:10.43	5.07	52.17	-42.1	-45.9	12.3	3.46e-04	0	60	0	793772032	55	5681
2026-01-14 09:52:11.44	4.77	51.85	-41.8	-45.2	13.1	5.26e-05	0	59	0	795869184	55	5243
2026-01-14 09:52:12.45	4.48	51.53	-42.0	-45.4	12.9	3.20e-05	0	60	0	797966336	55	5395
2026-01-14 09:52:13.46	4.20	51.21	-42.2	-46.0	12.1	4.19e-05	0	60	0	800063488	55	5760
2026-01-14 09:52:14.47	3.91	50.89	-42.2	-45.8	12.4	1.75e-04	0	60	0	801112064	55	5649
2026-01-14 09:52:15.48	3.64	50.58	-42.0	-45.6	12.8	6.79e-05	0	60	0	803209216	54	5800
2026-01-14 09:52:16.49	3.37	50.26	-42.1	-45.8	12.4	8.31e-05	0	60	0	805306368	54	5978
2026-01-14 09:52:17.50	3.11	49.95	-43.1	-47.6	10.7	5.52e-04	0	60	0	807403520	56	6551
2026-01-14 09:52:18.51	2.85	49.64	-43.4	-48.6	9.8	7.54e-03	0	60	0	809500672	57	6922
2026-01-14 09:52:19.52	2.60	49.33	-43.5	-48.8	9.5	9.31e-03	0	59	0	810549248	57	7097
2026-01-14 09:52:20.52	2.35	49.03	-43.3	-48.1	10.2	7.96e-03	0	60	0	812646400	57	6570
2026-01-14 09:52:21.53	2.11	48.72	-43.8	-49.5	8.9	1.77e-02	0	60	0	814743552	58	7232
2026-01-14 09:52:22.54	1.87	48.41	-43.9	-49.9	8.4	5.09e-02	0	60	0	816840704	58	7577
2026-01-14 09:52:23.55	1.64	48.11	-43.9	-50.0	8.0	5.17e-02	0	60	0	818937856	58	7673
2026-01-14 09:52:24.56	1.41	47.81	-43.8	-49.6	8.7	2.99e-02	0	60	0	819986432	58	7314
2026-01-14 09:52:25.57	1.19	47.51	-44.0	-50.6	7.6	5.07e-02	0	60	0	822083584	58	8207
2026-01-14 09:52:26.58	0.97	47.21	-44.4	-51.9	6.5	1.32e-01	0	60	0	824180736	59	9046
2026-01-14 09:52:27.59	0.75	46.92	-44.4	-52.1	6.2	3.71e-01	0	60	0	826277888	59	9270
2026-01-14 09:52:28.60	0.54	46.62	-43.5	-50.0	8.3	1.34e-01	0	60	0	828375040	58	7641
2026-01-14 09:52:29.61	0.34	46.33	-43.6	-49.1	9.2	4.24e-02	0	60	0	829423616	58	6953
2026-01-14 09:52:30.61	0.13	46.04	-43.1	-47.9	10.4	7.28e-03	0	60	0	831520768	57	6356
2026-01-14 09:52:31.62	359.93	45.75	-43.5	-49.1	9.3	8.38e-03	0	60	0	833617920	57	7293
2026-01-14 09:52:32.63	359.74	45.46	-43.6	-49.2	9.0	2.23e-02	0	60	0	835715072	57	7424
2026-01-14 09:52:33.64	359.55	45.17	-43.4	-48.7	9.4	1.76e-02	0	60	0	837812224	57	7031
2026-01-14 09:52:34.65	359.36	44.89	-43.5	-48.9	9.4	1.08e-02	0	60	0	838860800	57	7123
2026-01-14 09:52:35.66	359.17	44.61	-43.9	-50.0	8.3	3.13e-02	0	60	0	840957952	58	7658
2026-01-14 09:52:36.67	358.99	44.32	-44.3	-51.6	6.8	1.13e-01	0	60	0	843055104	59	8664
2026-01-14 09:52:37.68	358.81	44.04	-44.2	-51.0	7.1	1.49e-01	0	60	0	845152256	59	8153
2026-01-14 09:52:38.69	358.63	43.77	-43.7	-49.3	9.0	4.05e-02	0	60	0	847249408	58	7107
2026-01-14 09:52:39.70	358.46	43.49	-43.7	-49.4	8.8	2.05e-02	0	60	0	848297984	58	7201
2026-01-14 09:52:40.71	358.29	43.22	-43.9	-50.1	8.2	5.39e-02	0	60	0	850395136	58	7768
2026-01-14 09:52:41.72	358.13	42.94	-43.9	-50.1	8.2	6.36e-02	0	60	0	852492288	58	7737
2026-01-14 09:52:42.73	357.96	42.67	-43.7	-49.5	8.6	7.55e-02	0	60	0	854589440	58	7273
2026-01-14 09:52:43.74	357.80	42.40	-43.8	-49.7	8.5	3.56e-02	0	60	0	856686592	58	7441
2026-01-14 09:52:44.75	357.64	42.13	-44.0	-50.3	8.0	6.04e-02	0	60	0	858783744	58	7952
2026-01-14 09:52:45.76	357.49	41.87	-44.0	-50.4	7.9	5.69e-02	0	60	0	859832320	58	8044
2026-01-14 09:52:46.77	357.33	41.60	-43.8	-49.7	8.6	4.62e-02	0	60	0	861929472	58	7375
2026-01-14 09:52:47.78	357.18	41.34	-43.8	-49.9	8.3	2.60e-02	0	60	0	864026624	58	7574
2026-01-14 09:52:48.79	357.04	41.08	-43.5	-48.8	9.5	2.55e-02	0	60	0	866123776	58	6654
2026-01-14 09:52:49.80	356.89	40.82	-43.7	-49.4	8.9	1.59e-02	0	60	0	868220928	58	7170
2026-01-14 09:52:50.81	356.75	40.56	-44.2	-51.1	7.2	1.07e-01	0	60	0	869269504	58	8733
2026-01-14 09:52:51.81	356.61	40.31	-44.3	-51.8	6.6	1.54e-01	0	60	0	871366656	59	8866
2026-01-14 09:52:52.82	356.47	40.05	-44.7	-54.2	5.1	4.05e-01	0	60	0	873463808	59	11707
2026-01-14 09:52:53.83	356.33	39.80	-44.5	-53.4	5.3	4.65e-01	0	60	0	875560960	60	10172
2026-01-14 09:52:54.84	356.20	39.55	-44.3	-52.1	6.3	3.77e-01	0	60	0	877658112	60	8721
2026-01-14 09:52:55.85	356.07	39.30	-44.0	-50.6	7.7	1.69e-01	0	60	0	878706688	59	7740
2026-01-14 09:52:56.86	355.94	39.05	-43.7	-49.3	8.9	3.97e-02	0	60	0	880803840	59	6709
2026-01-14 09:52:57.87	355.81	38.81	-43.5	-48.9	9.3	1.93e-02	0	60	0	882900992	59	6408
2026-01-14 09:52:58.88	355.68	38.56	-43.4	-48.5	9.7	2.02e-02	0	60	0	884998144	58	6463
2026-01-14 09:52:59.89	355.56	38.32	-42.9	-47.6	10.7	1.26e-02	0	60	0	887095296	57	6138
2026-01-14 09:53:00.90	355.43	38.08	-42.7	-47.0	11.5	1.17e-03	0	60	0	888143872	57	5736
2026-01-14 09:53:01.91	355.31	37.84	-42.7	-46.9	11.4	1.36e-03	0	60	0	890241024	57	5697
2026-01-14 09:53:02.92	355.20	37.60	-42.9	-47.5	10.8	1.76e-03	0	60	0	892338176	57	6093
2026-01-14 09:53:03.93	355.08	37.36	-43.1	-47.9	10.3	4.78e-03	0	60	0	894435328	57	6416
2026-01-14 09:53:04.94	354.96	37.13	-43.7	-49.5	8.7	1.39e-02	0	60	0	896532480	57	7662
2026-01-14 09:53:05.95	354.85	36.89	-44.1	-50.8	7.4	6.32e-02	0	60	0	897581056	58	8428
2026-01-14 09:53:06.96	354.74	36.66	-44.1	-51.1	7.2	1.32e-01	0	60	0	899678208	59	8181
2026-01-14 09:53:07.97	354.63	36.43	-44.1	-51.1	7.1	1.81e-01	0	60	0	901775360	59	8196
2026-01-14 09:53:08.98	354.52	36.20	-44.0	-50.7	7.5	1.44e-01	0	60	0	903872512	59	7895
2026-01-14 09:53:09.99	354.41	35.97	-43.9	-50.1	8.1	8.24e-02	0	60	0	905969664	59	7335
2026-01-14 09:53:11.00	354.31	35.75	-43.7	-49.6	8.6	4.36e-02	0	60	0	907018240	59	6882
2026-01-14 09:53:12.01	354.20	35.52	-44.0	-50.5	7.7	4.87e-02	0	60	0	909115392	59	7699
2026-01-14 09:53:13.02	354.10	35.30	-44.0	-50.7	7.5	8.57e-02	0	60	0	911212544	59	7834
2026-01-14 09:53:14.03	354.00	35.08	-44.1	-51.0	7.2	1.21e-01	0	60	0	913309696	59	8135
2026-01-14 09:53:15.04	353.90	34.86	-44.1	-50.9	7.2	1.30e-01	0	60	0	915406848	59	8078
2026-01-14 09:53:16.04	353.80	34.64	-44.1	-51.3	6.9	1.80e-01	0	60	0	916455424	59	8441
2026-01-14 09:53:17.05	353.70	34.42	-44.1	-51.1	7.1	1.92e-01	0	60	0	918552576	59	8200
2026-01-14 09:53:18.06	353.61	34.20	-44.2	-51.5	6.8	1.55e-01	0	60	0	920649728	59	8584
2026-01-14 09:53:19.07	353.51	33.99	-43.9	-50.2	7.9	1.17e-01	0	60	0	922746880	59	7446
2026-01-14 09:53:20.08	353.42	33.78	-43.5	-49.1	9.0	3.29e-02	0	60	0	924844032	59	6549
2026-01-14 09:53:21.09	353.33	33.57	-43.4	-48.9	9.3	2.01e-02	0	60	0	926941184	58	6729
2026-01-14 09:53:22.10	353.24	33.35	-43.3	-48.5	9.6	1.73e-02	0	60	0	927989760	58	6473
2026-01-14 09:53:23.11	353.15	33.15	-43.3	-48.7	9.5	1.38e-02	0	60	0	930086912	58	6572
2026-01-14 09:53:24.12	353.06	32.94	-43.3	-48.6	9.6	1.52e-02	0	60	0	932184064	58	6499
2026-01-14 09:53:25.13	352.97	32.73	-43.3	-48.3	9.8	8.98e-03	0	60	0	934281216	57	6714
2026-01-14 09:53:26.14	352.89	32.53	-43.2	-48.2	9.9	8.23e-03	0	60	0	936378368	57	6639
2026-01-14 09:53:27.15	352.80	32.32	-43.4	-48.7	9.5	1.22e-02	0	60	0	937426944	57	6962
2026-01-14 09:53:28.16	352.72	32.12	-43.5	-49.2	8.8	1.48e-02	0	60	0	939524096	57	7412
2026-01-14 09:53:29.17	352.64	31.92	-43.8	-49.9	8.2	4.01e-02	0	60	0	941621248	58	7554
2026-01-14 09:53:30.18	352.56	31.72	-44.1	-51.5	6.7	9.88e-02	0	60	0	943718400	58	9133
2026-01-14 09:53:31.19	352.48	31.52	-44.2	-51.6	6.6	1.52e-01	0	60	0	945815552	58	9278
2026-01-14 09:53:32.20	352.40	31.32	-44.3	-52.2	6.1	2.61e-01	0	60	0	946864128	59	9345
2026-01-14 09:53:33.21	352.32	31.13	-44.2	-52.0	6.2	3.45e-01	0	60	0	948961280	59	9082
2026-01-14 09:53:34.22	352.24	30.93	-44.2	-51.6	6.5	3.07e-01	0	60	0	951058432	59	8708
2026-01-14 09:53:35.23	352.16	30.74	-44.0	-51.0	7.1	1.78e-01	0	60	0	953155584	59	8119
2026-01-14 09:53:36.24	352.09	30.55	-43.7	-50.0	8.1	6.99e-02	0	60	0	955252736	59	7210
2026-01-14 09:53:37.24	352.01	30.36	-43.6	-49.3	8.7	3.61e-02	0	60	0	956301312	59	6694
2026-01-14 09:53:38.25	351.94	30.17	-43.6	-49.5	8.6	3.17e-02	0	60	0	958398464	58	7212
2026-01-14 09:53:39.26	351.87	29.98	-43.3	-48.7	9.3	2.27e-02	0	60	0	960495616	58	6606
2026-01-14 09:53:40.27	351.80	29.79	-43.3	-48.8	9.3	2.22e-02	0	60	0	962592768	58	6654
2026-01-14 09:53:41.28	351.72	29.60	-43.4	-48.9	9.1	2.47e-02	0	60	0	964689920	58	6766
2026-01-14 09:53:42.29	351.65	29.42	-43.4	-49.1	8.9	2.76e-02	0	60	0	965738496	58	6927
2026-01-14 09:53:43.30	351.59	29.23	-43.3	-48.7	9.2	2.07e-02	0	60	0	967835648	58	6632
2026-01-14 09:53:44.31	351.52	29.05	-43.3	-48.6	9.4	1.82e-02	0	60	0	969932800	58	6518
2026-01-14 09:53:45.32	351.45	28.87	-43.2	-48.5	9.5	1.48e-02	0	60	0	972029952	58	6479
2026-01-14 09:53:46.33	351.38	28.69	-43.1	-48.2	9.9	8.87e-03	0	60	0	974127104	58	6207
2026-01-14 09:53:47.34	351.32	28.51	-43.0	-48.0	10.0	6.61e-03	0	60	0	975175680	57	6431
2026-01-14 09:53:48.35	351.25	28.33	-42.8	-47.5	10.5	5.66e-03	0	60	0	977272832	57	6101
2026-01-14 09:53:49.36	351.19	28.15	-42.8	-47.4	10.5	3.80e-03	0	60	0	979369984	57	6057
2026-01-14 09:53:50.37	351.12	27.98	-42.7	-47.2	10.7	4.10e-03	0	60	0	981467136	57	5922
2026-01-14 09:53:51.38	351.06	27.80	-42.6	-47.1	10.8	2.66e-03	0	60	0	983564288	57	5819
2026-01-14 09:53:52.39	351.00	27.63	-42.8	-47.6	10.3	3.39e-03	0	60	0	984612864	57	6155
2026-01-14 09:53:53.40	350.94	27.46	-43.0	-48.2	9.7	8.90e-03	0	60	0	986710016	57	6601
2026-01-14 09:53:54.41	350.87	27.28	-43.2	-48.7	9.2	1.41e-02	0	60	0	988807168	57	7008
2026-01-14 09:53:55.42	350.81	27.11	-43.3	-49.1	8.7	2.93e-02	0	60	0	990904320	57	7305
2026-01-14 09:53:56.42	350.75	26.95	-43.5	-49.7	8.1	5.28e-02	0	60	0	993001472	57	7810
2026-01-14 09:53:57.43	350.70	26.78	-43.4	-49.5	8.3	5.84e-02	0	60	0	995098624	57	7663
2026-01-14 09:53:58.44	350.64	26.61	-43.3	-49.1	8.7	4.16e-02	0	60	0	996147200	57	7291
2026-01-14 09:53:59.45	350.58	26.44	-43.0	-48.4	9.2	3.04e-02	0	60	0	998244352	57	6755
2026-01-14 09:54:00.46	350.52	26.28	-42.9	-48.1	9.6	1.81e-02	0	60	0	1000341504	57	6557
2026-01-14 09:54:01.47	350.47	26.11	-42.6	-47.3	10.5	7.94e-03	0	60	0	1002438656	57	5947
2026-01-14 09:54:02.48	350.41	25.95	-42.4	-46.9	10.9	3.00e-03	0	60	0	1004535808	56	6005
2026-01-14 09:54:03.49	350.36	25.78	-42.3	-46.7	11.1	1.76e-03	0	60	0	1005584384	56	5870
2026-01-14 09:54:04.50	350.30	25.62	-42.3	-46.6	11.1	1.55e-03	0	60	0	1007681536	56	5845
2026-01-14 09:54:05.51	350.25	25.46	-42.4	-46.9	10.8	2.44e-03	0	60	0	1009778688	56	6008
2026-01-14 09:54:06.52	350.19	25.30	-42.2	-46.6	11.1	1.59e-03	0	60	0	1011875840	56	5820
2026-01-14 09:54:07.53	350.14	25.14	-42.3	-46.9	10.6	2.10e-03	0	60	0	1013972992	56	6023
2026-01-14 09:54:08.54	350.09	24.98	-42.3	-46.9	10.7	2.88e-03	0	60	0	1015021568	56	6022
2026-01-14 09:54:09.55	350.04	24.83	-42.2	-46.7	10.9	2.15e-03	0	60	0	1017118720	56	5875
2026-01-14 09:54:10.56	349.99	24.67	-42.3	-47.0	10.6	2.67e-03	0	60	0	1019215872	56	6069
2026-01-14 09:54:11.57	349.94	24.51	-42.3	-47.0	10.5	4.09e-03	0	60	0	1021313024	56	6084
2026-01-14 09:54:12.57	349.89	24.36	-42.3	-47.1	10.4	4.18e-03	0	60	0	1023410176	56	6159
2026-01-14 09:54:13.58	349.84	24.21	-42.2	-46.9	10.6	4.25e-03	0	60	0	1024458752	56	5998
2026-01-14 09:54:14.59	349.79	24.06	-42.3	-47.2	10.3	3.79e-03	0	60	0	1026555904	56	6206
2026-01-14 09:54:15.60	349.74	23.90	-42.3	-47.1	10.3	5.30e-03	0	60	0	1028653056	56	6145
2026-01-14 09:54:16.61	349.69	23.75	-42.2	-46.9	10.4	3.91e-03	0	60	0	1030750208	56	6053
2026-01-14 09:54:17.62	349.64	23.60	-42.3	-47.2	10.0	5.81e-03	0	60	0	1032847360	56	6266
2026-01-14 09:54:18.63	349.60	23.45	-42.2	-47.1	10.1	8.38e-03	0	60	0	1033895936	56	6176
2026-01-14 09:54:19.64	349.55	23.30	-42.1	-47.2	9.8	7.28e-03	0	60	0	1035993088	56	6219
2026-01-14 09:54:20.65	349.50	23.16	-41.9	-47.1	9.5	8.32e-03	0	60	0	1038090240	55	6566
2026-01-14 09:54:21.66	349.46	23.01	-41.9	-47.5	9.1	2.13e-02	0	60	0	1040187392	55	6815
2026-01-14 09:54:22.67	349.41	22.86	-42.0	-48.0	8.4	4.06e-02	0	60	0	1042284544	55	7250
2026-01-14 09:54:23.68	349.37	22.72	-41.8	-47.7	8.6	4.68e-02	0	60	0	1043333120	55	7012
2026-01-14 09:54:24.69	349.33	22.57	-41.6	-47.5	8.7	3.31e-02	0	60	0	1045430272	55	6827
2026-01-14 09:54:25.70	349.28	22.43	-41.4	-47.2	8.8	2.75e-02	0	60	0	1047527424	54	7033
2026-01-14 09:54:26.71	349.24	22.29	-41.5	-47.6	8.5	3.98e-02	0	60	0	1049624576	54	7317
2026-01-14 09:54:27.72	349.20	22.15	-41.4	-47.4	8.6	4.13e-02	0	60	0	1051721728	54	7175
2026-01-14 09:54:28.73	349.15	22.00	-41.4	-47.7	8.3	4.31e-02	0	60	0	1052770304	54	7401
2026-01-14 09:54:29.74	349.11	21.86	-41.5	-48.0	7.8	6.56e-02	0	60	0	1054867456	54	7664
2026-01-14 09:54:30.74	349.07	21.73	-41.4	-47.9	7.9	6.29e-02	0	60	0	1056964608	54	7561
2026-01-14 09:54:31.76	349.03	21.58	-41.5	-48.4	7.3	1.08e-01	0	60	0	1059061760	54	8042
2026-01-14 09:54:32.76	348.99	21.45	-41.6	-49.4	6.4	2.04e-01	0	60	0	1061158912	54	8982
2026-01-14 09:54:33.77	348.95	21.31	-41.7	-50.4	5.6	3.34e-01	0	60	0	1062207488	54	10084
2026-01-14 09:54:34.78	348.91	21.17	-41.8	-51.6	4.8	6.86e-01	0	60	0	1064304640	54	11558
2026-01-14 09:54:35.79	348.87	21.04	-41.8	-52.8	4.3	1.12e+00	0	60	0	1066401792	54	13367
2026-01-14 09:54:36.80	348.83	20.90	-41.7	-53.8	3.9	1.42e+00	0	60	104	1066401792	54	15015
2026-01-14 09:54:37.81	348.79	20.77	-41.6	-54.6	3.9	1.48e+00	0	60	104	1066401792	54	16408
2026-01-14 09:54:38.81	348.75	20.63	-41.5	-55.3	3.8	1.49e+00	0	60	104	1066401792	54	17803
2026-01-14 09:54:39.82	348.71	20.50	-41.3	-55.6	3.8	1.49e+00	0	60	104	1066401792	54	18469
2026-01-14 09:54:40.83	348.67	20.37	-41.3	-55.8	3.8	1.49e+00	0	60	104	1066401792	54	18747
2026-01-14 09:54:41.84	348.64	20.24	-41.2	-55.8	3.8	1.49e+00	0	60	104	1066401792	54	18936
2026-01-14 09:54:42.85	348.60	20.11	-41.2	-55.9	3.8	1.49e+00	0	60	104	1066401792	54	18955
2026-01-14 09:54:43.86	348.56	19.97	-41.3	-56.0	3.8	1.49e+00	0	60	104	1066401792	54	19178
2026-01-14 09:54:44.87	348.53	19.84	-41.1	-55.9	3.8	1.49e+00	0	60	104	1066401792	54	19123
2026-01-14 09:54:45.88	348.49	19.72	-41.0	-55.7	3.8	1.49e+00	0	60	104	1066401792	54	18532
2026-01-14 09:54:46.89	348.46	19.59	-41.1	-55.9	3.8	1.49e+00	0	60	104	1066401792	53	20148
2026-01-14 09:54:47.90	348.42	19.46	-40.8	-55.6	3.8	1.49e+00	0	60	104	1066401792	53	19452
2026-01-14 09:54:48.91	348.38	19.33	-41.1	-55.9	3.8	1.49e+00	0	60	104	1066401792	53	20229
2026-01-14 09:54:49.91	348.35	19.21	-41.2	-56.0	3.8	1.49e+00	0	60	104	1066401792	53	20374
2026-01-14 09:54:50.92	348.32	19.08	-41.1	-55.7	3.8	1.49e+00	0	60	104	1066401792	53	19840
2026-01-14 09:54:51.93	348.28	18.96	-41.1	-56.0	3.8	1.49e+00	0	60	104	1066401792	53	20345
2026-01-14 09:54:52.94	348.25	18.83	-41.0	-55.6	3.8	1.49e+00	0	60	104	1066401792	53	19575
2026-01-14 09:54:53.95	348.21	18.71	-41.1	-55.6	3.8	1.49e+00	0	60	104	1066401792	53	19535
2026-01-14 09:54:54.96	348.18	18.58	-41.2	-56.0	3.8	1.49e+00	0	60	104	1066401792	53	20324
2026-01-14 09:54:55.96	348.15	18.46	-41.2	-55.7	3.8	1.49e+00	0	60	104	1066401792	53	19794
2026-01-14 09:54:56.97	348.12	18.34	-41.2	-55.9	3.8	1.49e+00	0	60	104	1066401792	53	20260
2026-01-14 09:54:57.98	348.08	18.22	-40.7	-55.6	3.8	1.49e+00	0	60	104	1066401792	53	19536
2026-01-14 09:54:59.00	348.05	18.09	-41.0	-55.6	3.8	1.49e+00	0	60	104	1066401792	53	19562
2026-01-14 09:55:00.01	348.02	17.97	-40.8	-55.6	3.8	1.49e+00	0	60	104	1066401792	53	19416
2026-01-14 09:55:01.02	347.99	17.85	-41.2	-55.7	3.8	1.49e+00	0	60	104	1066401792	53	19726
2026-01-14 09:55:02.03	347.96	17.74	-41.4	-55.9	3.8	1.49e+00	0	60	104	1066401792	53	20281
2026-01-14 09:55:03.03	347.93	17.62	-40.8	-55.6	3.8	1.49e+00	0	60	104	1066401792	53	19520
2026-01-14 09:55:04.04	347.90	17.50	-41.4	-55.9	3.8	1.49e+00	0	60	104	1066401792	53	20203
2026-01-14 09:55:05.05	347.87	17.38	-40.7	-55.5	3.8	1.49e+00	0	60	104	1066401792	53	19357
2026-01-14 09:55:06.06	347.84	17.26	-41.3	-55.8	3.8	1.49e+00	0	60	104	1066401792	53	19890
2026-01-14 09:55:07.08	347.81	17.15	-41.4	-55.9	3.8	1.49e+00	0	60	104	1066401792	53	20170
2026-01-14 09:55:08.08	347.78	17.03	-41.4	-55.9	3.8	1.49e+00	0	60	104	1066401792	53	20136
2026-01-14 09:55:09.09	347.75	16.92	-41.4	-55.9	3.8	1.49e+00	0	60	104	1066401792	53	20160
2026-01-14 09:55:10.10	347.72	16.80	-41.3	-55.9	3.8	1.49e+00	0	60	104	1066401792	53	20126
2026-01-14 09:55:11.11	347.69	16.69	-41.2	-55.7	3.8	1.49e+00	0	60	104	1066401792	53	19675
2026-01-14 09:55:12.12	347.66	16.57	-41.3	-55.9	3.8	1.49e+00	0	60	104	1066401792	53	20101
2026-01-14 09:55:13.13	347.63	16.46	-41.3	-55.8	3.8	1.49e+00	0	60	104	1066401792	53	19940
2026-01-14 09:55:14.14	347.60	16.35	-41.4	-55.9	3.8	1.49e+00	0	60	104	1066401792	53	20265
2026-01-14 09:55:15.15	347.58	16.23	-41.2	-55.8	3.8	1.49e+00	0	60	104	1066401792	53	19937
2026-01-14 09:55:16.16	347.55	16.12	-41.4	-55.9	3.8	1.49e+00	0	60	104	1066401792	53	20098
2026-01-14 09:55:17.17	347.52	16.01	-41.2	-55.8	3.8	1.49e+00	0	60	104	1066401792	53	19908
2026-01-14 09:55:18.18	347.49	15.90	-41.4	-56.0	3.8	1.49e+00	0	60	104	1066401792	53	20533
2026-01-14 09:55:19.18	347.47	15.79	-41.4	-55.9	3.8	1.49e+00	0	60	104	1066401792	53	20141
2026-01-14 09:55:20.19	347.44	15.68	-41.4	-56.1	3.8	1.49e+00	0	60	104	1066401792	53	20579
2026-01-14 09:55:21.20	347.41	15.57	-41.4	-55.9	3.8	1.49e+00	0	60	104	1066401792	53	20129
2026-01-14 09:55:22.21	347.39	15.46	-41.3	-55.8	3.8	1.49e+00	0	60	104	1066401792	53	19948
2026-01-14 09:55:23.22	347.36	15.35	-41.4	-55.9	3.8	1.49e+00	0	60	104	1066401792	53	20279
2026-01-14 09:55:24.23	347.34	15.25	-41.3	-55.9	3.8	1.49e+00	0	60	104	1066401792	53	20082
2026-01-14 09:55:25.24	347.31	15.14	-41.4	-55.9	3.8	1.49e+00	0	60	104	1066401792	53	20292
