passes_logs/2026/01/14/R2.0S_Moscow/R2.0S_Moscow__20260114_114643_NOAA_20_JPSS-1_rec.log

#Pass ID: 20260114_114643_NOAA 20 (JPSS-1)
#Satellite: NOAA 20 (JPSS-1)
#Configuration: NOAA 20
#almurnet v.1.7.20251203
#Start time: 2026-01-14 11:46:45

#Version: 2.2.20231116
#Station: R2.0S_Moscow
#Location: 37.707566 lon 55.798166 lat
#TLE: 1 43013U 17073A   26013.21545503  .00000073  00000+0  55630-4 0  9998
#TLE: 2 43013  98.7633 314.1737 0001580  41.9966 318.1331 14.19535680422486

#Time	Az	El	Level	Level2	SNR	BER	BlckErr	Temp	State	Recorded	gain1	gain2
2026-01-14 11:46:45.95	218.17	2.12	-44.1	-58.7	3.8	1.49e+00	0	51	0	0	60	18576
2026-01-14 11:46:46.96	218.26	2.17	-44.1	-58.7	3.8	1.49e+00	0	51	104	0	60	18559
2026-01-14 11:46:47.97	218.35	2.22	-44.1	-58.7	3.8	1.49e+00	0	51	104	0	60	18616
2026-01-14 11:46:48.98	218.43	2.27	-44.1	-58.7	3.8	1.49e+00	0	51	104	0	60	18527
2026-01-14 11:46:49.99	218.52	2.32	-44.1	-58.7	3.8	1.49e+00	0	51	104	0	60	18533
2026-01-14 11:46:51.00	218.61	2.37	-44.0	-58.7	3.8	1.49e+00	0	51	104	0	60	18548
2026-01-14 11:46:52.02	218.70	2.43	-44.0	-58.7	3.8	1.49e+00	0	52	104	0	60	18559
2026-01-14 11:46:53.03	218.79	2.48	-44.1	-58.6	3.8	1.49e+00	0	51	104	0	60	18512
2026-01-14 11:46:54.04	218.88	2.53	-44.1	-58.6	3.8	1.49e+00	0	52	104	0	60	18508
2026-01-14 11:46:55.05	218.96	2.58	-44.0	-58.7	3.8	1.49e+00	0	51	104	0	60	18547
2026-01-14 11:46:56.06	219.05	2.63	-44.0	-58.7	3.8	1.49e+00	0	51	104	0	60	18541
2026-01-14 11:46:57.07	219.14	2.68	-44.0	-58.7	3.8	1.49e+00	0	52	104	0	60	18549
2026-01-14 11:46:58.08	219.23	2.73	-44.0	-58.6	3.8	1.49e+00	0	52	104	0	60	18474
2026-01-14 11:46:59.09	219.32	2.79	-44.0	-58.7	3.8	1.49e+00	0	52	104	0	60	18560
2026-01-14 11:47:00.10	219.41	2.84	-44.0	-58.6	3.8	1.49e+00	0	52	104	0	60	18481
2026-01-14 11:47:01.11	219.51	2.89	-44.0	-58.7	3.8	1.49e+00	0	52	104	0	60	18541
2026-01-14 11:47:02.12	219.60	2.94	-44.0	-58.6	3.8	1.49e+00	0	52	104	0	60	18513
2026-01-14 11:47:03.13	219.69	2.99	-44.0	-58.6	3.8	1.49e+00	0	52	104	0	60	18504
2026-01-14 11:47:04.14	219.78	3.04	-44.1	-58.6	3.8	1.49e+00	0	52	104	0	59	19424
2026-01-14 11:47:05.15	219.87	3.10	-44.2	-58.6	3.8	1.49e+00	0	52	104	0	59	19410
2026-01-14 11:47:06.17	219.97	3.15	-44.2	-58.6	3.8	1.49e+00	0	52	104	0	59	19495
2026-01-14 11:47:07.18	220.06	3.20	-44.1	-58.5	3.8	1.49e+00	0	53	104	0	59	19381
2026-01-14 11:47:08.18	220.15	3.25	-44.1	-58.5	3.8	1.49e+00	0	52	104	0	59	19318
2026-01-14 11:47:09.20	220.25	3.31	-44.1	-58.6	3.8	1.49e+00	0	52	104	0	59	19414
2026-01-14 11:47:10.21	220.34	3.36	-44.1	-58.5	3.8	1.49e+00	0	53	104	0	59	19311
2026-01-14 11:47:11.22	220.43	3.41	-44.1	-58.6	3.8	1.49e+00	0	53	104	0	59	19397
2026-01-14 11:47:12.23	220.53	3.46	-44.2	-58.6	3.8	1.49e+00	0	53	104	0	59	19407
2026-01-14 11:47:13.24	220.62	3.51	-44.1	-58.6	3.8	1.49e+00	0	53	104	0	59	19425
2026-01-14 11:47:14.25	220.72	3.57	-44.2	-58.5	3.8	1.49e+00	0	53	104	0	59	19357
2026-01-14 11:47:15.26	220.81	3.62	-44.1	-58.5	3.8	1.49e+00	0	53	104	0	59	19377
2026-01-14 11:47:16.27	220.91	3.67	-44.1	-58.5	3.8	1.49e+00	0	53	104	0	59	19381
2026-01-14 11:47:17.28	221.01	3.72	-44.1	-58.6	3.8	1.49e+00	0	53	104	0	59	19438
2026-01-14 11:47:18.29	221.10	3.78	-44.1	-58.5	3.8	1.49e+00	0	53	104	0	59	19379
2026-01-14 11:47:19.30	221.20	3.83	-44.1	-58.6	3.8	1.49e+00	0	53	104	0	59	19414
2026-01-14 11:47:20.31	221.30	3.88	-44.1	-58.5	3.8	1.49e+00	0	53	104	0	59	19356
2026-01-14 11:47:21.32	221.39	3.93	-44.1	-58.5	3.8	1.49e+00	0	53	104	0	59	19315
2026-01-14 11:47:22.33	221.49	3.99	-44.2	-58.6	3.8	1.49e+00	0	54	104	0	59	19408
2026-01-14 11:47:23.34	221.59	4.04	-44.1	-58.5	3.8	1.49e+00	0	53	104	0	59	19317
2026-01-14 11:47:24.35	221.69	4.09	-44.2	-58.6	3.8	1.49e+00	0	53	104	0	59	19426
2026-01-14 11:47:25.36	221.79	4.14	-44.1	-58.5	3.8	1.49e+00	0	53	104	0	59	19360
2026-01-14 11:47:26.37	221.89	4.20	-44.1	-58.5	3.8	1.49e+00	0	54	104	0	59	19340
2026-01-14 11:47:27.39	221.99	4.25	-44.1	-58.5	3.8	1.49e+00	0	54	104	0	59	19374
2026-01-14 11:47:28.40	222.09	4.30	-44.1	-58.5	3.8	1.49e+00	0	54	104	0	59	19361
2026-01-14 11:47:29.41	222.19	4.35	-44.1	-58.5	3.8	1.49e+00	0	54	104	0	59	19382
2026-01-14 11:47:30.42	222.29	4.41	-44.1	-58.6	3.8	1.49e+00	0	54	104	0	59	19417
2026-01-14 11:47:31.43	222.39	4.46	-44.1	-58.5	3.8	1.49e+00	0	54	104	0	59	19361
2026-01-14 11:47:32.44	222.49	4.51	-44.1	-58.5	3.8	1.49e+00	0	54	104	0	59	19352
2026-01-14 11:47:33.45	222.59	4.57	-44.1	-58.6	3.8	1.49e+00	0	54	104	0	59	19404
2026-01-14 11:47:34.46	222.69	4.62	-44.1	-58.6	3.8	1.49e+00	0	54	104	0	59	19423
2026-01-14 11:47:35.47	222.79	4.67	-44.1	-58.6	3.8	1.49e+00	0	54	104	0	59	19408
2026-01-14 11:47:36.48	222.90	4.72	-44.1	-58.6	3.8	1.49e+00	0	54	104	0	59	19412
2026-01-14 11:47:37.49	223.00	4.78	-44.1	-58.5	3.8	1.49e+00	0	54	104	0	59	19385
2026-01-14 11:47:38.50	223.10	4.83	-44.2	-58.6	3.8	1.49e+00	0	54	104	0	59	19393
2026-01-14 11:47:39.51	223.21	4.88	-44.1	-58.5	3.8	1.49e+00	0	54	104	0	59	19378
2026-01-14 11:47:40.52	223.31	4.94	-44.2	-58.5	3.8	1.49e+00	0	54	104	0	59	19344
2026-01-14 11:47:41.53	223.42	4.99	-44.1	-58.6	3.8	1.49e+00	0	54	104	0	59	19401
2026-01-14 11:47:42.55	223.52	5.04	-44.1	-58.6	3.8	1.49e+00	0	54	104	0	59	19404
2026-01-14 11:47:43.56	223.63	5.10	-44.1	-58.6	3.8	1.49e+00	0	54	104	0	59	19399
2026-01-14 11:47:44.57	223.73	5.15	-44.1	-58.5	3.8	1.49e+00	0	54	104	0	59	19346
2026-01-14 11:47:45.58	223.84	5.20	-44.1	-58.5	3.8	1.49e+00	0	54	104	0	59	19363
2026-01-14 11:47:46.59	223.94	5.26	-44.2	-58.6	3.8	1.49e+00	0	54	104	0	59	19393
2026-01-14 11:47:47.60	224.05	5.31	-44.1	-58.6	3.8	1.49e+00	0	54	104	0	59	19390
2026-01-14 11:47:48.61	224.16	5.36	-44.1	-58.5	3.8	1.49e+00	0	55	104	0	59	19322
2026-01-14 11:47:49.62	224.27	5.42	-44.1	-58.5	3.8	1.49e+00	0	55	104	0	59	19291
2026-01-14 11:47:50.63	224.37	5.47	-44.1	-58.5	3.8	1.49e+00	0	55	104	0	59	19309
2026-01-14 11:47:51.64	224.48	5.52	-44.1	-58.5	3.8	1.49e+00	0	55	104	0	59	19245
2026-01-14 11:47:52.65	224.59	5.58	-44.1	-58.5	3.8	1.49e+00	0	55	104	0	59	19263
2026-01-14 11:47:53.66	224.70	5.63	-44.1	-58.5	3.8	1.49e+00	0	55	104	0	59	19297
2026-01-14 11:47:54.67	224.81	5.68	-44.1	-58.5	3.8	1.49e+00	0	55	104	0	59	19299
2026-01-14 11:47:55.68	224.92	5.74	-44.1	-58.5	3.8	1.49e+00	0	55	104	0	59	19234
2026-01-14 11:47:56.69	225.03	5.79	-44.1	-58.5	3.8	1.49e+00	0	55	104	0	59	19169
2026-01-14 11:47:57.70	225.14	5.84	-44.1	-58.4	3.8	1.49e+00	0	55	104	0	59	19154
2026-01-14 11:47:58.71	225.25	5.90	-44.1	-58.4	3.8	1.49e+00	0	55	104	0	59	19098
2026-01-14 11:47:59.72	225.36	5.95	-44.1	-58.4	3.8	1.49e+00	0	55	104	0	59	18974
2026-01-14 11:48:00.73	225.47	6.00	-44.1	-58.3	3.8	1.49e+00	0	55	104	0	59	18819
2026-01-14 11:48:01.74	225.58	6.06	-44.1	-58.3	3.8	1.49e+00	0	55	104	0	59	18853
2026-01-14 11:48:02.76	225.70	6.11	-44.1	-58.2	3.8	1.49e+00	0	55	104	0	59	18669
2026-01-14 11:48:03.77	225.81	6.17	-44.1	-58.2	3.8	1.49e+00	0	55	104	0	59	18613
2026-01-14 11:48:04.78	225.92	6.22	-44.1	-58.2	3.8	1.49e+00	0	55	104	0	59	18623
2026-01-14 11:48:05.79	226.04	6.27	-44.1	-58.1	3.8	1.49e+00	0	56	104	0	59	18516
2026-01-14 11:48:06.80	226.15	6.33	-44.1	-58.1	3.8	1.49e+00	0	55	104	0	59	18459
2026-01-14 11:48:07.80	226.27	6.38	-44.1	-58.0	3.8	1.49e+00	0	55	104	0	59	18145
2026-01-14 11:48:08.82	226.38	6.43	-44.1	-57.7	3.8	1.49e+00	0	55	104	0	59	17630
2026-01-14 11:48:09.83	226.50	6.49	-44.1	-57.5	3.8	1.49e+00	0	55	104	0	59	17236
2026-01-14 11:48:10.84	226.61	6.54	-44.1	-57.2	3.8	1.49e+00	0	55	104	0	59	16594
2026-01-14 11:48:11.85	226.73	6.60	-44.1	-56.8	3.8	1.49e+00	0	56	104	0	59	15862
2026-01-14 11:48:12.86	226.84	6.65	-44.0	-56.4	3.8	1.49e+00	0	56	104	0	59	15209
2026-01-14 11:48:13.87	226.96	6.70	-44.0	-55.9	4.0	1.48e+00	0	55	104	0	59	14226
2026-01-14 11:48:14.88	227.08	6.76	-43.9	-55.5	4.1	1.44e+00	0	56	0	0	59	13637
2026-01-14 11:48:15.89	227.20	6.81	-43.9	-55.0	4.2	1.41e+00	0	55	0	0	59	12855
2026-01-14 11:48:16.90	227.32	6.86	-43.9	-54.5	4.3	1.35e+00	57	56	0	0	59	12221
2026-01-14 11:48:17.91	227.43	6.92	-43.8	-54.2	4.5	1.15e+00	27	56	0	1048576	59	11733
2026-01-14 11:48:18.92	227.55	6.97	-43.8	-53.8	4.6	9.87e-01	0	56	0	3145728	59	11225
2026-01-14 11:48:19.93	227.67	7.03	-43.7	-53.4	4.8	8.77e-01	0	56	0	5242880	59	10674
2026-01-14 11:48:20.94	227.79	7.08	-43.7	-53.2	4.9	7.51e-01	0	56	0	7340032	59	10446
2026-01-14 11:48:21.95	227.91	7.13	-43.7	-53.1	5.0	7.24e-01	0	56	0	9437184	59	10317
2026-01-14 11:48:22.96	228.03	7.19	-43.7	-53.0	5.0	6.99e-01	0	56	0	11534336	59	10219
2026-01-14 11:48:23.97	228.15	7.24	-43.7	-53.1	4.9	7.04e-01	0	56	0	12582912	59	10358
2026-01-14 11:48:24.98	228.28	7.30	-43.7	-53.2	4.9	7.58e-01	0	56	0	14680064	59	10531
2026-01-14 11:48:25.99	228.40	7.35	-43.8	-53.5	4.7	8.22e-01	0	56	0	16777216	59	10816
2026-01-14 11:48:27.00	228.52	7.40	-43.8	-53.6	4.7	8.63e-01	0	56	0	18874368	59	10959
2026-01-14 11:48:28.01	228.64	7.46	-43.8	-53.7	4.7	9.10e-01	0	56	0	20971520	59	11036
2026-01-14 11:48:29.02	228.77	7.51	-43.7	-53.3	4.8	8.56e-01	0	56	0	22020096	59	10644
2026-01-14 11:48:30.03	228.89	7.57	-43.7	-52.7	5.1	7.42e-01	0	56	0	24117248	59	9942
2026-01-14 11:48:31.04	229.02	7.62	-43.5	-52.1	5.6	4.97e-01	0	56	0	26214400	59	9177
2026-01-14 11:48:32.06	229.14	7.67	-43.4	-51.2	6.2	3.40e-01	0	57	0	28311552	58	8809
2026-01-14 11:48:33.07	229.27	7.73	-43.2	-50.4	6.9	2.29e-01	0	56	0	30408704	58	7991
2026-01-14 11:48:34.08	229.39	7.78	-43.0	-49.8	7.5	1.19e-01	0	56	0	31457280	58	7487
2026-01-14 11:48:35.09	229.52	7.84	-42.9	-49.3	7.9	8.54e-02	0	56	0	33554432	57	7492
2026-01-14 11:48:36.10	229.64	7.89	-42.9	-49.1	8.2	6.15e-02	0	56	0	35651584	57	7290
2026-01-14 11:48:37.11	229.77	7.94	-42.9	-49.0	8.2	5.76e-02	0	56	0	37748736	57	7281
2026-01-14 11:48:38.12	229.90	8.00	-42.9	-49.3	8.0	6.20e-02	0	56	0	39845888	57	7489
2026-01-14 11:48:39.13	230.03	8.05	-43.0	-49.7	7.5	8.79e-02	0	56	0	40894464	57	7858
2026-01-14 11:48:40.14	230.16	8.10	-42.7	-48.4	8.9	4.49e-02	0	56	0	42991616	57	6748
2026-01-14 11:48:41.15	230.28	8.16	-43.9	-56.7	3.8	1.39e+00	0	56	104	44040192	58	16553
2026-01-14 11:48:42.16	230.41	8.21	-43.5	-51.4	6.0	1.40e-01	0	56	0	44040192	57	9604
2026-01-14 11:48:43.17	230.54	8.27	-43.0	-49.1	8.2	8.81e-02	0	57	0	46137344	57	7366
2026-01-14 11:48:44.17	230.67	8.32	-44.1	-56.6	3.8	1.02e+00	0	57	104	47185920	58	16370
2026-01-14 11:48:45.18	230.80	8.37	-42.8	-48.5	8.8	9.62e-02	0	57	0	48234496	57	6854
2026-01-14 11:48:46.19	230.93	8.43	-42.7	-48.4	8.9	2.93e-02	0	57	0	49283072	57	6792
2026-01-14 11:48:47.20	231.07	8.48	-42.8	-48.6	8.8	3.08e-02	0	56	0	51380224	57	6890
2026-01-14 11:48:48.21	231.20	8.53	-42.8	-48.4	8.9	3.02e-02	0	57	0	53477376	57	6778
2026-01-14 11:48:49.22	231.33	8.59	-42.7	-48.3	9.0	2.65e-02	0	57	0	55574528	57	6721
2026-01-14 11:48:50.23	231.46	8.64	-42.7	-48.3	9.1	2.40e-02	0	57	0	57671680	57	6655
2026-01-14 11:48:51.24	231.60	8.70	-42.7	-48.1	9.2	2.18e-02	0	57	0	58720256	57	6569
2026-01-14 11:48:52.25	231.73	8.75	-42.6	-48.0	9.4	1.93e-02	0	57	0	60817408	57	6486
2026-01-14 11:48:53.26	231.86	8.80	-42.6	-48.0	9.4	1.61e-02	0	57	0	62914560	57	6425
2026-01-14 11:48:54.27	232.00	8.86	-42.6	-47.8	9.6	1.51e-02	0	57	0	65011712	57	6331
2026-01-14 11:48:55.28	232.14	8.91	-42.6	-47.9	9.5	1.36e-02	0	57	0	67108864	57	6365
2026-01-14 11:48:56.29	232.27	8.96	-42.6	-47.8	9.5	1.46e-02	0	57	0	68157440	57	6340
2026-01-14 11:48:57.30	232.41	9.02	-42.6	-48.0	9.4	1.56e-02	0	57	0	70254592	57	6440
2026-01-14 11:48:58.31	232.54	9.07	-42.6	-47.8	9.6	1.37e-02	0	57	0	72351744	57	6342
2026-01-14 11:48:59.32	232.68	9.13	-42.6	-47.9	9.5	1.43e-02	0	57	0	74448896	57	6379
2026-01-14 11:49:00.33	232.82	9.18	-42.6	-47.8	9.6	1.38e-02	0	57	0	76546048	57	6328
2026-01-14 11:49:01.34	232.96	9.23	-42.6	-47.9	9.5	1.45e-02	0	57	0	77594624	57	6409
2026-01-14 11:49:02.34	233.10	9.29	-42.6	-47.9	9.5	1.52e-02	0	57	0	79691776	57	6398
2026-01-14 11:49:03.35	233.23	9.34	-42.6	-47.9	9.5	1.37e-02	0	57	0	81788928	57	6399
2026-01-14 11:49:04.36	233.37	9.39	-42.6	-47.9	9.6	1.42e-02	0	57	0	83886080	57	6371
2026-01-14 11:49:05.37	233.51	9.45	-42.6	-47.9	9.6	1.31e-02	0	57	0	85983232	57	6358
2026-01-14 11:49:06.38	233.66	9.50	-42.6	-47.8	9.6	1.30e-02	0	57	0	87031808	57	6345
2026-01-14 11:49:07.39	233.80	9.55	-42.6	-47.9	9.5	1.38e-02	0	57	0	89128960	57	6402
2026-01-14 11:49:08.40	233.94	9.61	-42.6	-47.8	9.6	1.31e-02	0	57	0	91226112	57	6347
2026-01-14 11:49:09.41	234.08	9.66	-42.6	-47.8	9.6	1.25e-02	0	57	0	93323264	57	6319
2026-01-14 11:49:10.42	234.22	9.71	-42.6	-47.8	9.7	1.23e-02	0	57	0	95420416	57	6296
2026-01-14 11:49:11.43	234.37	9.76	-42.6	-47.8	9.7	1.10e-02	0	57	0	96468992	57	6309
2026-01-14 11:49:12.44	234.51	9.82	-42.6	-47.8	9.7	1.12e-02	0	57	0	98566144	57	6281
2026-01-14 11:49:13.45	234.65	9.87	-42.6	-47.8	9.7	1.13e-02	0	57	0	100663296	57	6285
2026-01-14 11:49:14.46	234.80	9.92	-42.6	-47.8	9.7	1.08e-02	0	57	0	102760448	57	6298
2026-01-14 11:49:15.47	234.95	9.98	-42.6	-47.8	9.7	1.08e-02	0	57	0	104857600	57	6303
2026-01-14 11:49:16.48	235.09	10.03	-42.6	-47.7	9.7	1.09e-02	0	57	0	106954752	57	6258
2026-01-14 11:49:17.49	235.24	10.08	-42.6	-47.7	9.8	9.98e-03	0	57	0	108003328	57	6230
2026-01-14 11:49:18.50	235.38	10.14	-42.6	-47.7	9.8	9.72e-03	0	57	0	110100480	57	6244
2026-01-14 11:49:19.51	235.53	10.19	-42.5	-47.6	9.9	8.98e-03	0	57	0	112197632	57	6149
2026-01-14 11:49:20.52	235.68	10.24	-42.6	-47.6	9.9	8.91e-03	0	57	0	114294784	57	6188
2026-01-14 11:49:21.53	235.83	10.29	-42.5	-47.6	9.9	8.83e-03	0	57	0	116391936	57	6169
2026-01-14 11:49:22.54	235.98	10.35	-42.6	-47.6	9.9	8.46e-03	0	57	0	117440512	57	6162
2026-01-14 11:49:23.54	236.12	10.40	-42.6	-47.6	9.9	8.30e-03	0	58	0	119537664	57	6171
2026-01-14 11:49:24.55	236.27	10.45	-42.5	-47.4	10.1	7.47e-03	0	57	0	121634816	57	6053
2026-01-14 11:49:25.57	236.43	10.50	-42.5	-47.5	10.0	7.27e-03	0	58	0	123731968	57	6120
2026-01-14 11:49:26.57	236.58	10.56	-42.5	-47.4	10.1	6.80e-03	0	57	0	125829120	57	6056
2026-01-14 11:49:27.58	236.73	10.61	-42.5	-47.4	10.2	6.70e-03	0	58	0	126877696	57	6007
2026-01-14 11:49:28.59	236.88	10.66	-42.4	-47.2	10.3	5.54e-03	0	58	0	128974848	56	6270
2026-01-14 11:49:29.60	237.03	10.71	-42.4	-47.2	10.4	5.20e-03	0	58	0	131072000	56	6225
2026-01-14 11:49:30.61	237.19	10.76	-42.4	-47.1	10.5	4.32e-03	0	58	0	133169152	56	6150
2026-01-14 11:49:31.62	237.34	10.82	-42.4	-47.0	10.6	3.59e-03	0	58	0	135266304	56	6107
2026-01-14 11:49:32.63	237.49	10.87	-42.3	-47.0	10.6	3.15e-03	0	58	0	136314880	56	6062
2026-01-14 11:49:33.64	237.65	10.92	-42.3	-46.8	10.8	2.60e-03	0	58	0	138412032	56	5987
2026-01-14 11:49:34.65	237.80	10.97	-42.3	-46.9	10.8	2.71e-03	0	58	0	140509184	56	5994
2026-01-14 11:49:35.66	237.96	11.02	-42.3	-46.8	10.8	2.68e-03	0	58	0	142606336	56	5980
2026-01-14 11:49:36.66	238.11	11.07	-42.3	-46.8	10.8	2.33e-03	0	58	0	144703488	56	5950
2026-01-14 11:49:37.67	238.27	11.13	-42.3	-46.7	10.9	2.17e-03	0	58	0	145752064	56	5923
2026-01-14 11:49:38.68	238.43	11.18	-42.2	-46.7	10.9	1.98e-03	0	58	0	147849216	56	5891
2026-01-14 11:49:39.69	238.59	11.23	-42.2	-46.6	11.0	1.57e-03	0	58	0	149946368	56	5838
2026-01-14 11:49:40.70	238.74	11.28	-42.2	-46.6	11.1	1.76e-03	0	58	0	152043520	56	5801
2026-01-14 11:49:41.71	238.90	11.33	-42.2	-46.5	11.2	1.50e-03	0	58	0	154140672	56	5744
2026-01-14 11:49:42.72	239.06	11.38	-42.1	-46.4	11.3	1.37e-03	0	58	0	155189248	56	5683
2026-01-14 11:49:43.73	239.22	11.43	-42.1	-46.3	11.3	1.19e-03	0	58	0	157286400	56	5650
2026-01-14 11:49:44.74	239.38	11.48	-42.1	-46.3	11.3	1.13e-03	0	58	0	159383552	56	5653
2026-01-14 11:49:45.75	239.54	11.53	-42.1	-46.2	11.4	1.12e-03	0	58	0	161480704	56	5581
2026-01-14 11:49:46.76	239.71	11.59	-42.1	-46.3	11.4	1.02e-03	0	58	0	163577856	56	5605
2026-01-14 11:49:47.77	239.87	11.64	-42.1	-46.3	11.4	8.85e-04	0	58	0	164626432	56	5602
2026-01-14 11:49:48.78	240.03	11.69	-42.1	-46.3	11.4	9.79e-04	0	58	0	166723584	56	5623
2026-01-14 11:49:49.79	240.19	11.74	-42.1	-46.4	11.3	1.06e-03	0	58	0	168820736	56	5659
2026-01-14 11:49:50.80	240.36	11.79	-42.1	-46.4	11.3	1.15e-03	0	58	0	170917888	56	5662
2026-01-14 11:49:51.81	240.52	11.84	-42.1	-46.4	11.3	1.14e-03	0	58	0	173015040	56	5670
2026-01-14 11:49:52.82	240.69	11.89	-42.1	-46.4	11.3	1.10e-03	0	58	0	175112192	56	5674
2026-01-14 11:49:53.83	240.85	11.94	-42.2	-46.4	11.3	1.13e-03	0	58	0	176160768	56	5712
2026-01-14 11:49:54.83	241.02	11.99	-42.2	-46.5	11.2	1.29e-03	0	58	0	178257920	56	5724
2026-01-14 11:49:55.84	241.18	12.04	-42.1	-46.4	11.3	1.18e-03	0	58	0	180355072	56	5700
2026-01-14 11:49:56.85	241.35	12.09	-42.1	-46.4	11.3	1.19e-03	0	58	0	182452224	56	5695
2026-01-14 11:49:57.86	241.52	12.14	-42.1	-46.3	11.4	1.16e-03	0	58	0	184549376	56	5641
2026-01-14 11:49:58.87	241.69	12.19	-42.1	-46.3	11.5	8.36e-04	0	58	0	185597952	56	5594
2026-01-14 11:49:59.88	241.85	12.23	-42.0	-46.2	11.5	8.27e-04	0	58	0	187695104	56	5544
2026-01-14 11:50:00.89	242.02	12.28	-42.0	-46.2	11.5	7.29e-04	0	58	0	189792256	56	5547
2026-01-14 11:50:01.90	242.19	12.33	-42.1	-46.2	11.5	8.10e-04	0	58	0	191889408	56	5572
2026-01-14 11:50:02.91	242.36	12.38	-42.1	-46.3	11.4	8.70e-04	0	58	0	193986560	56	5620
2026-01-14 11:50:03.92	242.53	12.43	-42.1	-46.4	11.3	1.07e-03	0	58	0	195035136	56	5671
2026-01-14 11:50:04.93	242.71	12.48	-42.1	-46.4	11.3	1.08e-03	0	58	0	197132288	56	5687
2026-01-14 11:50:05.94	242.88	12.53	-42.1	-46.3	11.4	1.06e-03	0	58	0	199229440	56	5643
2026-01-14 11:50:06.95	243.05	12.58	-42.2	-46.4	11.3	1.10e-03	0	58	0	201326592	56	5679
2026-01-14 11:50:07.96	243.22	12.62	-42.1	-46.3	11.4	1.02e-03	0	58	0	203423744	56	5652
2026-01-14 11:50:08.97	243.40	12.67	-42.1	-46.3	11.4	9.51e-04	0	58	0	204472320	56	5609
2026-01-14 11:50:09.98	243.57	12.72	-42.0	-46.1	11.6	7.97e-04	0	58	0	206569472	56	5519
2026-01-14 11:50:10.99	243.75	12.77	-42.0	-46.2	11.6	6.44e-04	0	58	0	208666624	56	5532
2026-01-14 11:50:12.00	243.92	12.82	-42.0	-46.1	11.7	6.68e-04	0	58	0	210763776	56	5485
2026-01-14 11:50:13.01	244.10	12.86	-42.1	-46.2	11.6	7.10e-04	0	58	0	212860928	56	5537
2026-01-14 11:50:14.02	244.27	12.91	-42.1	-46.3	11.5	8.02e-04	0	58	0	213909504	56	5595
2026-01-14 11:50:15.02	244.45	12.96	-42.1	-46.3	11.4	8.28e-04	0	58	0	216006656	56	5645
2026-01-14 11:50:16.03	244.63	13.00	-42.2	-46.4	11.3	1.02e-03	0	58	0	218103808	56	5692
2026-01-14 11:50:17.04	244.80	13.05	-42.2	-46.5	11.2	1.16e-03	0	58	0	220200960	56	5766
2026-01-14 11:50:18.05	244.98	13.10	-42.2	-46.5	11.2	1.26e-03	0	58	0	222298112	56	5755
2026-01-14 11:50:19.06	245.16	13.14	-42.3	-46.6	11.2	1.39e-03	0	58	0	223346688	56	5808
2026-01-14 11:50:20.07	245.34	13.19	-42.3	-46.6	11.1	1.53e-03	0	58	0	225443840	56	5812
2026-01-14 11:50:21.08	245.52	13.24	-42.3	-46.6	11.2	1.48e-03	0	58	0	227540992	56	5815
2026-01-14 11:50:22.09	245.70	13.28	-42.3	-46.6	11.1	1.45e-03	0	58	0	229638144	56	5854
2026-01-14 11:50:23.10	245.88	13.33	-42.2	-46.6	11.2	1.37e-03	0	58	0	231735296	56	5793
2026-01-14 11:50:24.11	246.07	13.37	-42.3	-46.6	11.1	1.42e-03	0	58	0	232783872	56	5844
2026-01-14 11:50:25.12	246.25	13.42	-42.3	-46.6	11.1	1.47e-03	0	58	0	234881024	56	5838
2026-01-14 11:50:26.13	246.43	13.46	-42.3	-46.7	11.0	1.70e-03	0	58	0	236978176	56	5917
2026-01-14 11:50:27.14	246.61	13.51	-42.4	-46.8	10.9	1.95e-03	0	59	0	239075328	56	5973
2026-01-14 11:50:28.15	246.80	13.55	-42.4	-47.0	10.7	2.64e-03	0	58	0	241172480	56	6111
2026-01-14 11:50:29.16	246.98	13.60	-42.5	-47.1	10.6	3.33e-03	0	58	0	243269632	56	6194
2026-01-14 11:50:30.17	247.17	13.64	-42.5	-47.3	10.5	3.92e-03	0	58	0	244318208	56	6276
2026-01-14 11:50:31.18	247.35	13.69	-42.5	-47.3	10.4	4.30e-03	0	58	0	246415360	56	6291
2026-01-14 11:50:32.19	247.54	13.73	-42.6	-47.3	10.4	4.66e-03	0	58	0	248512512	56	6312
2026-01-14 11:50:33.20	247.73	13.78	-42.6	-47.3	10.4	4.50e-03	0	58	0	250609664	56	6341
2026-01-14 11:50:34.21	247.91	13.82	-42.6	-47.4	10.3	5.35e-03	0	58	0	252706816	56	6410
2026-01-14 11:50:35.22	248.10	13.86	-42.6	-47.5	10.2	5.76e-03	0	59	0	253755392	56	6449
2026-01-14 11:50:36.23	248.29	13.91	-42.7	-47.6	10.1	5.88e-03	0	58	0	255852544	56	6498
2026-01-14 11:50:37.24	248.48	13.95	-42.7	-47.6	10.1	6.92e-03	0	59	0	257949696	56	6553
2026-01-14 11:50:38.25	248.67	13.99	-42.7	-47.7	10.0	7.74e-03	0	59	0	260046848	56	6629
2026-01-14 11:50:39.26	248.86	14.04	-42.8	-47.8	9.9	8.36e-03	0	59	0	262144000	56	6696
2026-01-14 11:50:40.27	249.05	14.08	-42.8	-47.9	9.8	9.58e-03	0	58	0	263192576	56	6756
2026-01-14 11:50:41.28	249.24	14.12	-42.8	-47.9	9.8	1.07e-02	0	59	0	265289728	56	6770
2026-01-14 11:50:42.29	249.43	14.16	-42.8	-48.0	9.7	1.13e-02	0	59	0	267386880	56	6843
2026-01-14 11:50:43.29	249.62	14.20	-42.9	-48.1	9.6	1.21e-02	0	59	0	269484032	56	6880
2026-01-14 11:50:44.31	249.81	14.25	-42.9	-48.1	9.6	1.26e-02	0	58	0	271581184	56	6897
2026-01-14 11:50:45.31	250.01	14.29	-42.9	-48.1	9.6	1.36e-02	0	58	0	272629760	56	6932
2026-01-14 11:50:46.32	250.20	14.33	-42.9	-48.1	9.5	1.31e-02	0	59	0	274726912	56	6951
2026-01-14 11:50:47.33	250.39	14.37	-42.9	-48.2	9.5	1.44e-02	0	59	0	276824064	56	6969
2026-01-14 11:50:48.34	250.59	14.41	-42.9	-48.2	9.5	1.50e-02	0	58	0	278921216	56	7015
2026-01-14 11:50:49.35	250.78	14.45	-42.9	-48.2	9.5	1.48e-02	0	59	0	281018368	56	6986
2026-01-14 11:50:50.36	250.98	14.49	-42.9	-48.2	9.4	1.53e-02	0	59	0	282066944	56	7023
2026-01-14 11:50:51.37	251.17	14.53	-43.0	-48.3	9.4	1.66e-02	0	59	0	284164096	56	7110
2026-01-14 11:50:52.38	251.37	14.57	-43.0	-48.4	9.2	1.70e-02	0	59	0	286261248	56	7198
2026-01-14 11:50:53.39	251.57	14.61	-43.0	-48.6	9.1	1.93e-02	0	59	0	288358400	56	7317
2026-01-14 11:50:54.40	251.77	14.65	-43.1	-48.7	9.0	2.40e-02	0	59	0	290455552	56	7382
2026-01-14 11:50:55.41	251.96	14.69	-43.1	-48.8	8.9	2.64e-02	0	59	0	291504128	56	7459
2026-01-14 11:50:56.41	252.16	14.73	-43.1	-48.7	8.9	2.90e-02	0	58	0	293601280	56	7450
2026-01-14 11:50:57.42	252.36	14.76	-43.1	-48.8	8.9	2.71e-02	0	59	0	295698432	56	7491
2026-01-14 11:50:58.43	252.56	14.80	-43.1	-48.7	9.0	2.62e-02	0	58	0	297795584	56	7385
2026-01-14 11:50:59.44	252.76	14.84	-43.1	-48.7	8.9	2.64e-02	0	59	0	299892736	56	7452
2026-01-14 11:51:00.45	252.96	14.88	-43.1	-48.8	8.9	2.76e-02	0	59	0	300941312	56	7460
2026-01-14 11:51:01.46	253.16	14.91	-43.2	-48.9	8.8	2.87e-02	0	59	0	303038464	56	7550
2026-01-14 11:51:02.47	253.36	14.95	-43.2	-48.9	8.8	3.24e-02	0	59	0	305135616	56	7605
2026-01-14 11:51:03.48	253.57	14.99	-43.2	-48.9	8.7	3.19e-02	0	59	0	307232768	56	7597
2026-01-14 11:51:04.49	253.77	15.03	-43.2	-48.9	8.7	3.42e-02	0	59	0	309329920	56	7607
2026-01-14 11:51:05.50	253.97	15.06	-43.2	-48.9	8.8	3.51e-02	0	59	0	311427072	56	7593
2026-01-14 11:51:06.51	254.17	15.10	-43.2	-49.0	8.7	3.50e-02	0	59	0	312475648	56	7653
2026-01-14 11:51:07.52	254.38	15.13	-43.2	-49.1	8.6	3.65e-02	0	59	0	314572800	57	7308
2026-01-14 11:51:08.53	254.58	15.17	-43.2	-48.9	8.7	3.51e-02	0	59	0	316669952	57	7193
2026-01-14 11:51:09.54	254.79	15.20	-43.1	-48.8	8.8	3.25e-02	0	59	0	318767104	57	7098
2026-01-14 11:51:10.55	254.99	15.24	-43.1	-48.8	8.8	2.96e-02	0	59	0	320864256	57	7085
2026-01-14 11:51:11.56	255.20	15.27	-43.1	-48.6	9.1	2.73e-02	0	59	0	321912832	57	6882
2026-01-14 11:51:12.57	255.41	15.31	-43.0	-48.4	9.3	2.06e-02	0	59	0	324009984	57	6752
2026-01-14 11:51:13.58	255.61	15.34	-43.0	-48.3	9.4	1.71e-02	0	59	0	326107136	57	6693
2026-01-14 11:51:14.59	255.82	15.37	-43.0	-48.4	9.3	1.79e-02	0	59	0	328204288	57	6755
2026-01-14 11:51:15.60	256.03	15.41	-43.0	-48.3	9.4	1.75e-02	0	59	0	330301440	57	6654
2026-01-14 11:51:16.61	256.24	15.44	-42.9	-48.1	9.5	1.50e-02	0	59	0	331350016	57	6568
2026-01-14 11:51:17.62	256.44	15.47	-43.0	-48.3	9.4	1.43e-02	0	59	0	333447168	57	6676
2026-01-14 11:51:18.63	256.65	15.51	-42.9	-48.2	9.5	1.56e-02	0	59	0	335544320	57	6604
2026-01-14 11:51:19.64	256.86	15.54	-42.8	-47.9	9.8	1.10e-02	0	59	0	337641472	57	6400
2026-01-14 11:51:20.65	257.07	15.57	-42.8	-47.9	9.8	9.46e-03	0	59	0	339738624	57	6379
2026-01-14 11:51:21.66	257.28	15.60	-42.8	-47.8	9.9	8.63e-03	0	59	0	340787200	57	6308
2026-01-14 11:51:22.67	257.49	15.63	-42.7	-47.5	10.2	6.23e-03	0	59	0	342884352	57	6088
2026-01-14 11:51:23.68	257.70	15.66	-42.6	-47.5	10.3	5.74e-03	0	59	0	344981504	57	6065
2026-01-14 11:51:24.69	257.92	15.69	-42.6	-47.4	10.4	5.19e-03	0	59	0	347078656	57	6020
2026-01-14 11:51:25.70	258.13	15.72	-42.5	-47.2	10.6	4.13e-03	0	59	0	349175808	57	5889
2026-01-14 11:51:26.71	258.34	15.75	-42.4	-46.8	11.0	2.23e-03	0	59	0	350224384	56	5938
2026-01-14 11:51:27.72	258.55	15.78	-42.3	-46.5	11.2	1.57e-03	0	59	0	352321536	56	5785
2026-01-14 11:51:28.73	258.77	15.81	-42.2	-46.4	11.4	1.15e-03	0	59	0	354418688	56	5718
2026-01-14 11:51:29.74	258.98	15.84	-42.1	-46.2	11.6	7.97e-04	0	59	0	356515840	56	5580
2026-01-14 11:51:30.75	259.19	15.87	-42.1	-46.2	11.6	6.84e-04	0	59	0	358612992	56	5586
2026-01-14 11:51:31.75	259.41	15.90	-42.2	-46.3	11.5	7.73e-04	0	59	0	359661568	56	5612
2026-01-14 11:51:32.76	259.62	15.92	-42.2	-46.4	11.4	8.81e-04	0	59	0	361758720	56	5697
2026-01-14 11:51:33.77	259.84	15.95	-42.2	-46.5	11.3	1.09e-03	0	59	0	363855872	56	5735
2026-01-14 11:51:34.79	260.05	15.98	-42.2	-46.5	11.3	1.05e-03	0	59	0	365953024	56	5751
2026-01-14 11:51:35.80	260.27	16.01	-42.3	-46.6	11.2	1.16e-03	0	59	0	368050176	56	5839
2026-01-14 11:51:36.80	260.48	16.03	-42.3	-46.6	11.2	1.37e-03	0	59	0	369098752	56	5805
2026-01-14 11:51:37.81	260.70	16.06	-42.3	-46.6	11.2	1.44e-03	0	59	0	371195904	56	5837
2026-01-14 11:51:38.83	260.92	16.08	-42.3	-46.7	11.1	1.56e-03	0	59	0	373293056	56	5880
2026-01-14 11:51:39.83	261.13	16.11	-42.4	-46.7	11.0	1.75e-03	0	59	0	375390208	56	5921
2026-01-14 11:51:40.84	261.35	16.13	-42.4	-46.7	11.1	1.87e-03	0	59	0	377487360	56	5923
2026-01-14 11:51:41.85	261.57	16.16	-42.4	-46.8	11.0	1.78e-03	0	59	0	379584512	56	5965
2026-01-14 11:51:42.87	261.79	16.18	-42.4	-46.8	10.9	1.88e-03	0	59	0	380633088	56	5980
2026-01-14 11:51:43.87	262.01	16.21	-42.4	-46.8	11.1	1.89e-03	0	59	0	382730240	56	5929
2026-01-14 11:51:44.88	262.23	16.23	-42.4	-46.7	11.1	1.78e-03	0	59	0	384827392	56	5922
2026-01-14 11:51:45.89	262.45	16.25	-42.4	-46.8	11.1	1.69e-03	0	59	0	386924544	56	5936
2026-01-14 11:51:46.90	262.67	16.27	-42.4	-46.9	11.0	1.91e-03	0	59	0	389021696	56	5998
2026-01-14 11:51:47.91	262.89	16.30	-42.4	-46.9	10.9	2.07e-03	0	59	0	390070272	56	6014
2026-01-14 11:51:48.92	263.11	16.32	-42.5	-47.0	10.8	2.42e-03	0	59	0	392167424	56	6104
2026-01-14 11:51:49.93	263.33	16.34	-42.5	-47.0	10.8	2.70e-03	0	59	0	394264576	56	6103
2026-01-14 11:51:50.94	263.55	16.36	-42.5	-47.1	10.7	3.03e-03	0	59	0	396361728	56	6193
2026-01-14 11:51:51.95	263.77	16.38	-42.5	-47.1	10.7	3.20e-03	0	59	0	398458880	56	6197
2026-01-14 11:51:52.95	263.99	16.40	-42.6	-47.2	10.6	3.24e-03	0	59	0	399507456	56	6221
2026-01-14 11:51:53.96	264.21	16.42	-42.5	-47.2	10.6	3.76e-03	0	59	0	401604608	56	6207
2026-01-14 11:51:54.97	264.43	16.44	-42.6	-47.2	10.6	3.45e-03	0	59	0	403701760	56	6241
2026-01-14 11:51:55.98	264.65	16.46	-42.6	-47.3	10.5	4.09e-03	0	59	0	405798912	56	6295
2026-01-14 11:51:56.99	264.88	16.48	-42.6	-47.3	10.5	4.11e-03	0	59	0	407896064	56	6316
2026-01-14 11:51:58.00	265.10	16.50	-42.6	-47.4	10.4	4.46e-03	0	59	0	408944640	56	6348
2026-01-14 11:51:59.01	265.32	16.52	-42.6	-47.3	10.5	3.95e-03	0	59	0	411041792	56	6328
2026-01-14 11:52:00.02	265.55	16.53	-42.6	-47.3	10.5	4.24e-03	0	59	0	413138944	56	6296
2026-01-14 11:52:01.03	265.77	16.55	-42.6	-47.3	10.5	3.98e-03	0	59	0	415236096	56	6304
2026-01-14 11:52:02.04	265.99	16.57	-42.6	-47.3	10.5	4.45e-03	0	59	0	417333248	56	6333
2026-01-14 11:52:03.05	266.22	16.58	-42.6	-47.4	10.4	4.16e-03	0	59	0	418381824	56	6354
2026-01-14 11:52:04.06	266.44	16.60	-42.6	-47.4	10.4	4.47e-03	0	59	0	420478976	56	6379
2026-01-14 11:52:05.07	266.67	16.61	-42.6	-47.3	10.5	4.20e-03	0	59	0	422576128	56	6324
2026-01-14 11:52:06.08	266.89	16.63	-42.6	-47.2	10.5	4.13e-03	0	59	0	424673280	56	6273
2026-01-14 11:52:07.09	267.12	16.64	-42.6	-47.2	10.6	3.93e-03	0	59	0	426770432	56	6263
2026-01-14 11:52:08.09	267.34	16.66	-42.6	-47.2	10.6	3.48e-03	0	59	0	427819008	56	6214
2026-01-14 11:52:09.10	267.56	16.67	-42.6	-47.2	10.5	3.30e-03	0	59	0	429916160	56	6262
2026-01-14 11:52:10.11	267.79	16.69	-42.6	-47.3	10.5	3.91e-03	0	59	0	432013312	56	6309
2026-01-14 11:52:11.12	268.02	16.70	-42.6	-47.4	10.4	4.34e-03	0	59	0	434110464	56	6369
2026-01-14 11:52:12.13	268.24	16.71	-42.7	-47.4	10.4	4.66e-03	0	59	0	436207616	56	6390
2026-01-14 11:52:13.14	268.47	16.72	-42.6	-47.4	10.4	4.86e-03	0	59	0	437256192	56	6387
2026-01-14 11:52:14.15	268.69	16.74	-42.6	-47.3	10.5	4.87e-03	0	59	0	439353344	56	6310
2026-01-14 11:52:15.16	268.92	16.75	-42.5	-47.1	10.7	3.74e-03	0	59	0	441450496	56	6190
2026-01-14 11:52:16.17	269.15	16.76	-42.4	-46.9	10.9	2.46e-03	0	59	0	443547648	56	6014
2026-01-14 11:52:17.18	269.37	16.77	-42.4	-46.8	11.0	2.02e-03	0	59	0	445644800	56	5956
2026-01-14 11:52:18.19	269.60	16.78	-42.4	-46.8	11.1	1.81e-03	0	59	0	446693376	56	5928
2026-01-14 11:52:19.20	269.83	16.79	-42.4	-46.8	11.0	1.79e-03	0	59	0	448790528	56	5967
2026-01-14 11:52:20.21	270.05	16.80	-42.4	-46.8	11.0	1.88e-03	0	59	0	450887680	56	5955
2026-01-14 11:52:21.22	270.28	16.81	-42.5	-47.0	10.8	2.35e-03	0	59	0	452984832	56	6107
2026-01-14 11:52:22.23	270.51	16.82	-42.5	-47.0	10.8	2.42e-03	0	59	0	455081984	56	6088
2026-01-14 11:52:23.24	270.74	16.82	-42.5	-47.1	10.7	2.67e-03	0	59	0	456130560	56	6142
2026-01-14 11:52:24.25	270.96	16.83	-42.5	-47.1	10.6	2.95e-03	0	59	0	458227712	56	6186
2026-01-14 11:52:25.26	271.19	16.84	-42.6	-47.2	10.5	3.63e-03	0	59	0	460324864	56	6261
2026-01-14 11:52:26.26	271.42	16.84	-42.6	-47.4	10.4	4.14e-03	0	59	0	462422016	56	6381
2026-01-14 11:52:27.28	271.65	16.85	-42.7	-47.5	10.2	5.46e-03	0	59	0	464519168	56	6490
2026-01-14 11:52:28.29	271.88	16.86	-42.7	-47.7	10.1	6.53e-03	0	59	0	465567744	56	6575
2026-01-14 11:52:29.30	272.10	16.86	-42.7	-47.7	10.0	7.28e-03	0	59	0	467664896	56	6614
2026-01-14 11:52:30.30	272.33	16.87	-42.7	-47.7	10.0	7.45e-03	0	59	0	469762048	56	6614
2026-01-14 11:52:31.31	272.56	16.87	-42.7	-47.7	10.0	7.99e-03	0	59	0	471859200	56	6588
2026-01-14 11:52:32.32	272.79	16.88	-42.6	-47.3	10.5	5.13e-03	0	59	0	473956352	56	6288
2026-01-14 11:52:33.33	273.02	16.88	-42.5	-47.1	10.6	3.39e-03	0	59	0	476053504	56	6188
2026-01-14 11:52:34.34	273.24	16.88	-42.5	-47.0	10.8	2.75e-03	0	59	0	477102080	56	6091
2026-01-14 11:52:35.35	273.47	16.89	-42.4	-46.9	10.8	2.60e-03	0	59	0	479199232	56	6043
2026-01-14 11:52:36.36	273.70	16.89	-42.5	-47.0	10.8	2.55e-03	0	59	0	481296384	56	6080
2026-01-14 11:52:37.37	273.93	16.89	-42.5	-47.0	10.8	2.58e-03	0	59	0	483393536	56	6112
2026-01-14 11:52:38.38	274.16	16.89	-42.5	-47.0	10.7	2.61e-03	0	59	0	485490688	56	6094
2026-01-14 11:52:39.39	274.39	16.89	-42.5	-47.0	10.8	2.80e-03	0	59	0	486539264	56	6107
2026-01-14 11:52:40.40	274.61	16.89	-42.5	-47.0	10.7	2.86e-03	0	59	0	488636416	56	6127
2026-01-14 11:52:41.41	274.84	16.89	-42.5	-47.1	10.6	3.22e-03	0	59	0	490733568	56	6196
2026-01-14 11:52:42.42	275.07	16.89	-42.5	-47.2	10.6	3.51e-03	0	59	0	492830720	56	6207
2026-01-14 11:52:43.43	275.30	16.89	-42.5	-47.2	10.5	3.89e-03	0	60	0	494927872	56	6258
2026-01-14 11:52:44.44	275.53	16.89	-42.6	-47.3	10.5	4.01e-03	0	59	0	495976448	56	6319
2026-01-14 11:52:45.45	275.76	16.89	-42.5	-47.2	10.6	3.79e-03	0	59	0	498073600	56	6228
2026-01-14 11:52:46.46	275.99	16.89	-42.5	-47.2	10.5	3.26e-03	0	59	0	500170752	56	6233
2026-01-14 11:52:47.47	276.21	16.88	-42.5	-47.1	10.6	3.23e-03	0	60	0	502267904	56	6187
2026-01-14 11:52:48.48	276.44	16.88	-42.4	-47.0	10.7	3.36e-03	0	59	0	504365056	56	6111
2026-01-14 11:52:49.49	276.67	16.88	-42.4	-47.0	10.8	2.61e-03	0	59	0	505413632	56	6066
2026-01-14 11:52:50.50	276.90	16.87	-42.4	-46.8	10.9	2.07e-03	0	60	0	507510784	56	5967
2026-01-14 11:52:51.51	277.13	16.87	-42.4	-46.8	11.0	1.99e-03	0	59	0	509607936	56	5950
2026-01-14 11:52:52.52	277.36	16.87	-42.3	-46.7	11.1	1.71e-03	0	59	0	511705088	56	5885
2026-01-14 11:52:53.53	277.58	16.86	-42.3	-46.6	11.1	1.68e-03	0	59	0	513802240	56	5834
2026-01-14 11:52:54.54	277.81	16.86	-42.3	-46.6	11.1	1.52e-03	0	59	0	514850816	56	5836
2026-01-14 11:52:55.55	278.04	16.85	-42.3	-46.7	11.0	1.74e-03	0	59	0	516947968	56	5909
2026-01-14 11:52:56.56	278.27	16.84	-42.4	-46.8	10.9	1.95e-03	0	59	0	519045120	56	5987
2026-01-14 11:52:57.57	278.49	16.84	-42.4	-46.9	10.8	2.44e-03	0	59	0	521142272	56	6022
2026-01-14 11:52:58.58	278.72	16.83	-42.4	-46.9	10.8	2.44e-03	0	59	0	523239424	56	6061
2026-01-14 11:52:59.59	278.95	16.82	-42.4	-46.9	10.8	2.47e-03	0	59	0	524288000	56	6048
2026-01-14 11:53:00.60	279.18	16.81	-42.4	-46.9	10.9	2.50e-03	0	60	0	526385152	56	6027
2026-01-14 11:53:01.60	279.40	16.81	-42.3	-46.8	11.0	2.10e-03	0	60	0	528482304	56	5946
2026-01-14 11:53:02.61	279.63	16.80	-42.3	-46.8	11.0	2.01e-03	0	60	0	530579456	56	5931
2026-01-14 11:53:03.62	279.86	16.79	-42.3	-46.8	11.0	1.99e-03	0	60	0	532676608	56	5946
2026-01-14 11:53:04.63	280.08	16.78	-42.3	-46.8	11.0	1.88e-03	0	60	0	533725184	56	5936
2026-01-14 11:53:05.64	280.31	16.77	-42.3	-46.8	11.0	1.96e-03	0	59	0	535822336	56	5926
2026-01-14 11:53:06.65	280.54	16.76	-42.3	-46.8	11.0	2.04e-03	0	59	0	537919488	56	5942
2026-01-14 11:53:07.66	280.76	16.75	-42.3	-46.7	11.0	1.81e-03	0	59	0	540016640	56	5881
2026-01-14 11:53:08.67	280.99	16.73	-42.3	-46.6	11.1	1.55e-03	0	59	0	542113792	56	5832
2026-01-14 11:53:09.68	281.21	16.72	-42.3	-46.7	11.1	1.54e-03	0	59	0	544210944	56	5863
2026-01-14 11:53:10.69	281.44	16.71	-42.3	-46.6	11.1	1.59e-03	0	59	0	545259520	56	5822
2026-01-14 11:53:11.70	281.66	16.70	-42.3	-46.6	11.1	1.48e-03	0	60	0	547356672	56	5851
2026-01-14 11:53:12.71	281.89	16.68	-42.3	-46.7	11.0	1.67e-03	0	59	0	549453824	56	5876
2026-01-14 11:53:13.72	282.12	16.67	-42.4	-46.8	10.9	2.00e-03	0	59	0	551550976	56	5968
2026-01-14 11:53:14.73	282.34	16.66	-42.4	-46.9	10.8	2.21e-03	0	59	0	553648128	56	6003
2026-01-14 11:53:15.74	282.57	16.64	-42.4	-46.9	10.8	2.44e-03	0	59	0	554696704	56	6010
2026-01-14 11:53:16.75	282.79	16.63	-42.4	-46.9	10.8	2.52e-03	0	60	0	556793856	56	6018
2026-01-14 11:53:17.76	283.01	16.61	-42.4	-46.9	10.8	2.71e-03	0	59	0	558891008	56	6022
2026-01-14 11:53:18.77	283.24	16.60	-42.4	-46.9	10.8	2.49e-03	0	59	0	560988160	56	6023
2026-01-14 11:53:19.78	283.46	16.58	-42.3	-46.7	10.9	2.17e-03	0	59	0	563085312	56	5907
2026-01-14 11:53:20.78	283.68	16.57	-42.3	-46.6	11.1	1.85e-03	0	59	0	564133888	56	5855
2026-01-14 11:53:21.79	283.91	16.55	-42.2	-46.4	11.3	1.35e-03	0	59	0	566231040	56	5670
2026-01-14 11:53:22.80	284.13	16.53	-42.1	-46.3	11.4	8.97e-04	0	59	0	568328192	56	5631
2026-01-14 11:53:23.81	284.35	16.51	-42.1	-46.3	11.4	8.83e-04	0	59	0	570425344	56	5611
2026-01-14 11:53:24.82	284.58	16.50	-42.1	-46.4	11.4	9.04e-04	0	59	0	572522496	56	5669
2026-01-14 11:53:25.83	284.80	16.48	-42.2	-46.4	11.3	1.10e-03	0	60	0	573571072	56	5711
2026-01-14 11:53:26.84	285.02	16.46	-42.2	-46.5	11.2	1.31e-03	0	59	0	575668224	56	5736
2026-01-14 11:53:27.85	285.24	16.44	-42.2	-46.5	11.2	1.38e-03	0	59	0	577765376	56	5784
2026-01-14 11:53:28.86	285.46	16.42	-42.2	-46.5	11.2	1.51e-03	0	59	0	579862528	56	5784
2026-01-14 11:53:29.87	285.68	16.40	-42.2	-46.4	11.3	1.32e-03	0	60	0	581959680	56	5703
2026-01-14 11:53:30.88	285.91	16.38	-42.1	-46.3	11.4	1.06e-03	0	59	0	583008256	56	5623
2026-01-14 11:53:31.89	286.13	16.36	-42.1	-46.2	11.4	9.33e-04	0	60	0	585105408	56	5569
2026-01-14 11:53:32.90	286.35	16.34	-42.1	-46.2	11.5	8.70e-04	0	59	0	587202560	56	5576
2026-01-14 11:53:33.91	286.57	16.32	-42.0	-46.2	11.5	8.09e-04	0	59	0	589299712	56	5533
2026-01-14 11:53:34.92	286.79	16.30	-42.1	-46.2	11.5	8.60e-04	0	59	0	591396864	56	5569
2026-01-14 11:53:35.93	287.01	16.27	-42.1	-46.2	11.5	8.73e-04	0	59	0	592445440	56	5592
2026-01-14 11:53:36.94	287.22	16.25	-42.1	-46.3	11.5	9.14e-04	0	59	0	594542592	56	5603
2026-01-14 11:53:37.94	287.44	16.23	-42.1	-46.3	11.4	9.47e-04	0	60	0	596639744	56	5618
2026-01-14 11:53:38.95	287.66	16.20	-42.1	-46.2	11.5	9.02e-04	0	59	0	598736896	56	5549
2026-01-14 11:53:39.96	287.88	16.18	-42.1	-46.2	11.5	7.91e-04	0	60	0	600834048	56	5583
2026-01-14 11:53:40.97	288.09	16.16	-42.0	-46.2	11.5	8.15e-04	0	60	0	601882624	56	5543
2026-01-14 11:53:41.98	288.31	16.13	-42.0	-46.1	11.6	7.41e-04	0	60	0	603979776	56	5474
2026-01-14 11:53:42.99	288.53	16.11	-42.0	-46.1	11.6	6.02e-04	0	59	0	606076928	56	5482
2026-01-14 11:53:44.00	288.75	16.08	-42.0	-46.1	11.6	6.51e-04	0	59	0	608174080	56	5496
2026-01-14 11:53:45.01	288.96	16.06	-41.8	-45.9	11.7	6.67e-04	0	59	0	610271232	55	5664
2026-01-14 11:53:46.02	289.18	16.03	-41.8	-45.9	11.7	5.42e-04	0	60	0	612368384	55	5657
2026-01-14 11:53:47.03	289.39	16.01	-41.8	-45.7	11.8	5.42e-04	0	59	0	613416960	55	5578
2026-01-14 11:53:48.04	289.61	15.98	-41.7	-45.7	11.9	4.30e-04	0	59	0	615514112	55	5530
2026-01-14 11:53:49.05	289.82	15.95	-41.7	-45.7	11.9	4.06e-04	0	60	0	617611264	55	5555
2026-01-14 11:53:50.06	290.04	15.92	-41.7	-45.7	11.8	4.49e-04	0	60	0	619708416	55	5557
2026-01-14 11:53:51.07	290.25	15.90	-41.7	-45.7	11.8	4.21e-04	0	59	0	621805568	55	5564
2026-01-14 11:53:52.08	290.47	15.87	-41.8	-45.9	11.7	4.97e-04	0	60	0	622854144	55	5693
2026-01-14 11:53:53.09	290.68	15.84	-41.9	-46.0	11.5	7.79e-04	0	59	0	624951296	55	5766
2026-01-14 11:53:54.10	290.89	15.81	-41.9	-46.1	11.4	8.44e-04	0	59	0	627048448	55	5815
2026-01-14 11:53:55.11	291.10	15.78	-41.9	-46.1	11.4	9.78e-04	0	60	0	629145600	55	5817
2026-01-14 11:53:56.12	291.32	15.75	-41.9	-46.1	11.5	9.25e-04	0	60	0	631242752	55	5801
2026-01-14 11:53:57.13	291.53	15.72	-41.9	-46.0	11.5	8.27e-04	0	59	0	632291328	55	5772
2026-01-14 11:53:58.14	291.74	15.69	-41.8	-45.9	11.6	7.90e-04	0	59	0	634388480	55	5690
2026-01-14 11:53:59.15	291.95	15.66	-41.8	-45.8	11.7	6.55e-04	0	60	0	636485632	55	5643
2026-01-14 11:54:00.16	292.16	15.63	-41.7	-45.7	11.9	4.80e-04	0	60	0	638582784	55	5543
2026-01-14 11:54:01.17	292.37	15.60	-41.7	-45.6	12.0	3.84e-04	0	59	0	640679936	55	5476
2026-01-14 11:54:02.18	292.58	15.57	-41.6	-45.4	12.1	2.79e-04	0	60	0	641728512	55	5377
2026-01-14 11:54:03.19	292.79	15.54	-41.6	-45.4	12.2	2.28e-04	0	60	0	643825664	55	5346
2026-01-14 11:54:04.20	293.00	15.51	-41.5	-45.2	12.3	2.08e-04	0	59	0	645922816	55	5267
2026-01-14 11:54:05.21	293.20	15.48	-41.5	-45.2	12.4	1.70e-04	0	59	0	648019968	54	5541
2026-01-14 11:54:06.22	293.41	15.44	-41.5	-45.2	12.4	1.76e-04	0	59	0	650117120	54	5549
2026-01-14 11:54:07.23	293.62	15.41	-41.4	-45.1	12.4	1.17e-04	0	59	0	651165696	54	5500
2026-01-14 11:54:08.24	293.83	15.38	-41.4	-45.1	12.4	1.28e-04	0	60	0	653262848	54	5528
2026-01-14 11:54:09.25	294.03	15.34	-41.4	-45.1	12.4	1.17e-04	0	59	0	655360000	54	5502
2026-01-14 11:54:10.26	294.24	15.31	-41.5	-45.2	12.3	1.65e-04	0	60	0	657457152	54	5577
2026-01-14 11:54:11.27	294.44	15.28	-41.5	-45.3	12.3	1.80e-04	0	60	0	659554304	54	5600
2026-01-14 11:54:12.28	294.65	15.24	-41.5	-45.3	12.2	2.02e-04	0	60	0	660602880	54	5640
2026-01-14 11:54:13.29	294.85	15.21	-41.6	-45.4	12.1	2.69e-04	0	59	0	662700032	54	5715
2026-01-14 11:54:14.30	295.06	15.17	-41.6	-45.5	12.1	2.70e-04	0	60	0	664797184	54	5723
2026-01-14 11:54:15.31	295.26	15.14	-41.6	-45.5	12.0	3.36e-04	0	59	0	666894336	54	5760
2026-01-14 11:54:16.32	295.46	15.10	-41.7	-45.6	12.0	3.40e-04	0	60	0	668991488	54	5801
2026-01-14 11:54:17.33	295.67	15.07	-41.6	-45.5	12.0	3.55e-04	0	59	0	670040064	54	5779
2026-01-14 11:54:18.34	295.87	15.03	-41.6	-45.4	12.1	2.64e-04	0	60	0	672137216	54	5695
2026-01-14 11:54:19.35	296.07	14.99	-41.5	-45.3	12.3	2.17e-04	0	60	0	674234368	54	5603
2026-01-14 11:54:20.36	296.27	14.96	-41.5	-45.3	12.3	1.98e-04	0	60	0	676331520	54	5604
2026-01-14 11:54:21.37	296.47	14.92	-41.4	-45.1	12.3	1.63e-04	0	60	0	678428672	54	5524
2026-01-14 11:54:22.38	296.67	14.88	-41.4	-45.1	12.4	1.43e-04	0	60	0	680525824	54	5517
2026-01-14 11:54:23.39	296.87	14.85	-41.4	-45.0	12.5	1.26e-04	0	60	0	681574400	54	5436
2026-01-14 11:54:24.40	297.07	14.81	-41.4	-45.0	12.5	1.20e-04	0	60	0	683671552	54	5444
2026-01-14 11:54:25.41	297.27	14.77	-41.4	-45.0	12.6	1.14e-04	0	60	0	685768704	54	5415
2026-01-14 11:54:26.42	297.47	14.73	-41.4	-45.1	12.4	1.18e-04	0	59	0	687865856	54	5470
2026-01-14 11:54:27.42	297.66	14.69	-41.5	-45.2	12.3	1.34e-04	0	60	0	689963008	54	5567
2026-01-14 11:54:28.43	297.86	14.66	-41.6	-45.4	12.1	2.49e-04	0	59	0	691011584	54	5700
2026-01-14 11:54:29.44	298.06	14.62	-41.7	-45.6	11.9	3.66e-04	0	59	0	693108736	54	5845
2026-01-14 11:54:30.45	298.26	14.58	-41.8	-46.0	11.5	5.55e-04	0	60	0	695205888	54	6065
2026-01-14 11:54:31.46	298.45	14.54	-41.9	-46.1	11.4	9.59e-04	0	60	0	697303040	54	6154
2026-01-14 11:54:32.47	298.65	14.50	-41.9	-46.2	11.3	1.19e-03	0	59	0	699400192	54	6222
2026-01-14 11:54:33.48	298.84	14.46	-41.9	-46.1	11.3	1.15e-03	0	60	0	700448768	54	6189
2026-01-14 11:54:34.49	299.03	14.42	-41.9	-46.1	11.3	1.19e-03	0	59	0	702545920	54	6200
2026-01-14 11:54:35.50	299.23	14.38	-41.9	-46.1	11.4	1.11e-03	0	59	0	704643072	54	6157
2026-01-14 11:54:36.51	299.42	14.34	-41.9	-46.1	11.4	9.44e-04	0	59	0	706740224	54	6157
2026-01-14 11:54:37.52	299.61	14.30	-41.9	-46.1	11.4	1.16e-03	0	59	0	708837376	54	6177
2026-01-14 11:54:38.53	299.81	14.26	-41.9	-46.1	11.3	1.08e-03	0	60	0	709885952	54	6194
2026-01-14 11:54:39.54	300.00	14.21	-41.9	-46.2	11.2	1.20e-03	0	59	0	711983104	54	6250
2026-01-14 11:54:40.55	300.19	14.17	-42.0	-46.3	11.2	1.44e-03	0	60	0	714080256	54	6279
2026-01-14 11:54:41.56	300.38	14.13	-41.9	-46.2	11.3	1.32e-03	0	60	0	716177408	54	6239
2026-01-14 11:54:42.57	300.57	14.09	-41.9	-46.1	11.3	1.28e-03	0	59	0	718274560	54	6195
2026-01-14 11:54:43.58	300.76	14.05	-41.9	-46.1	11.4	1.02e-03	0	59	0	719323136	54	6136
2026-01-14 11:54:44.58	300.95	14.01	-41.9	-46.0	11.4	9.72e-04	0	59	0	721420288	54	6120
2026-01-14 11:54:45.59	301.13	13.96	-41.9	-46.0	11.4	9.49e-04	0	59	0	723517440	54	6104
2026-01-14 11:54:46.60	301.32	13.92	-41.9	-46.1	11.4	1.03e-03	0	60	0	725614592	54	6137
2026-01-14 11:54:47.61	301.51	13.88	-41.9	-46.2	11.3	1.15e-03	0	59	0	727711744	54	6246
2026-01-14 11:54:48.62	301.70	13.83	-42.0	-46.5	11.0	1.54e-03	0	60	0	728760320	54	6430
2026-01-14 11:54:49.63	301.88	13.79	-42.2	-46.7	10.7	2.53e-03	0	60	0	730857472	54	6635
2026-01-14 11:54:50.64	302.07	13.75	-42.3	-46.9	10.4	3.48e-03	0	59	0	732954624	55	6415
2026-01-14 11:54:51.65	302.25	13.70	-42.4	-47.3	10.1	6.36e-03	0	59	0	735051776	55	6717
2026-01-14 11:54:52.66	302.44	13.66	-42.5	-47.6	9.7	9.28e-03	0	59	0	737148928	55	6945
2026-01-14 11:54:53.67	302.62	13.62	-42.6	-47.9	9.4	1.22e-02	0	60	0	738197504	55	7168
2026-01-14 11:54:54.68	302.81	13.57	-42.7	-48.1	9.2	1.82e-02	0	60	0	740294656	55	7367
2026-01-14 11:54:55.69	302.99	13.53	-42.9	-48.4	9.1	2.16e-02	0	60	0	742391808	56	7169
2026-01-14 11:54:56.70	303.17	13.48	-42.9	-48.5	9.0	2.36e-02	0	59	0	744488960	56	7227
2026-01-14 11:54:57.71	303.35	13.44	-42.9	-48.6	8.9	2.68e-02	0	60	0	746586112	56	7329
2026-01-14 11:54:58.72	303.54	13.39	-43.0	-48.7	8.8	2.94e-02	0	60	0	748683264	56	7397
2026-01-14 11:54:59.73	303.72	13.35	-43.0	-48.7	8.7	3.40e-02	0	60	0	749731840	56	7451
2026-01-14 11:55:00.74	303.90	13.30	-43.0	-48.9	8.6	3.79e-02	0	60	0	751828992	56	7574
2026-01-14 11:55:01.75	304.08	13.26	-43.1	-49.0	8.5	4.26e-02	0	60	0	753926144	56	7639
2026-01-14 11:55:02.76	304.26	13.21	-43.1	-49.1	8.4	4.50e-02	0	60	0	756023296	56	7733
2026-01-14 11:55:03.77	304.43	13.16	-43.1	-49.1	8.4	4.80e-02	0	59	0	758120448	56	7739
2026-01-14 11:55:04.78	304.61	13.12	-43.0	-48.7	8.8	3.61e-02	0	60	0	759169024	56	7379
2026-01-14 11:55:05.79	304.79	13.07	-42.9	-48.4	9.1	2.74e-02	0	60	0	761266176	56	7172
2026-01-14 11:55:06.79	304.97	13.03	-42.9	-48.4	9.0	2.32e-02	0	60	0	763363328	56	7168
2026-01-14 11:55:07.80	305.14	12.98	-42.8	-48.3	9.2	2.46e-02	0	60	0	765460480	56	7061
2026-01-14 11:55:08.81	305.32	12.93	-42.7	-48.0	9.5	1.66e-02	0	60	0	767557632	56	6830
2026-01-14 11:55:09.83	305.50	12.88	-42.7	-47.9	9.5	1.41e-02	0	60	0	768606208	56	6792
2026-01-14 11:55:10.84	305.67	12.84	-42.7	-47.8	9.6	1.36e-02	0	59	0	770703360	56	6712
2026-01-14 11:55:11.85	305.84	12.79	-42.7	-48.0	9.5	1.35e-02	0	59	0	772800512	56	6812
2026-01-14 11:55:12.86	306.02	12.74	-42.8	-48.1	9.3	1.49e-02	0	60	0	774897664	56	6945
2026-01-14 11:55:13.86	306.19	12.70	-42.8	-48.3	9.1	2.08e-02	0	60	0	776994816	56	7080
2026-01-14 11:55:14.87	306.36	12.65	-42.9	-48.4	9.0	2.45e-02	0	60	0	778043392	56	7195
2026-01-14 11:55:15.88	306.54	12.60	-42.9	-48.5	8.9	2.76e-02	0	60	0	780140544	56	7271
2026-01-14 11:55:16.90	306.71	12.55	-42.9	-48.6	8.9	3.15e-02	0	60	0	782237696	56	7336
2026-01-14 11:55:17.90	306.88	12.51	-43.0	-48.9	8.6	3.64e-02	0	60	0	784334848	56	7561
2026-01-14 11:55:18.91	307.05	12.46	-43.1	-49.2	8.3	4.66e-02	0	59	0	786432000	56	7816
2026-01-14 11:55:19.93	307.22	12.41	-43.1	-49.2	8.2	5.52e-02	0	60	0	787480576	56	7884
2026-01-14 11:55:20.94	307.39	12.36	-43.1	-49.1	8.3	5.45e-02	0	60	0	789577728	56	7738
2026-01-14 11:55:21.95	307.56	12.31	-43.0	-49.0	8.4	4.84e-02	0	60	0	791674880	56	7714
2026-01-14 11:55:22.96	307.73	12.26	-43.0	-49.0	8.5	4.24e-02	0	60	0	793772032	56	7644
2026-01-14 11:55:23.97	307.89	12.21	-43.0	-48.8	8.6	3.56e-02	0	60	0	795869184	56	7495
2026-01-14 11:55:24.97	308.06	12.17	-42.9	-48.6	8.8	3.14e-02	0	60	0	796917760	56	7341
2026-01-14 11:55:25.98	308.23	12.12	-42.9	-48.6	8.8	3.02e-02	0	60	0	799014912	56	7326
2026-01-14 11:55:26.99	308.39	12.07	-42.9	-48.6	8.8	2.98e-02	0	60	0	801112064	56	7354
2026-01-14 11:55:28.00	308.56	12.02	-42.9	-48.7	8.7	3.32e-02	0	60	0	803209216	56	7410
2026-01-14 11:55:29.01	308.72	11.97	-42.9	-48.7	8.7	3.40e-02	0	60	0	805306368	56	7408
2026-01-14 11:55:30.02	308.89	11.92	-42.9	-48.6	8.8	3.28e-02	0	59	0	806354944	56	7362
2026-01-14 11:55:31.03	309.05	11.87	-43.0	-48.8	8.6	3.61e-02	0	60	0	808452096	56	7499
2026-01-14 11:55:32.04	309.22	11.82	-42.9	-48.8	8.6	3.80e-02	0	60	0	810549248	56	7466
2026-01-14 11:55:33.05	309.38	11.77	-43.0	-48.8	8.5	4.10e-02	0	60	0	812646400	56	7539
2026-01-14 11:55:34.06	309.54	11.72	-42.8	-48.4	9.0	2.87e-02	0	60	0	814743552	56	7124
2026-01-14 11:55:35.07	309.70	11.67	-42.6	-47.9	9.5	1.66e-02	0	60	0	816840704	56	6747
2026-01-14 11:55:36.08	309.87	11.62	-42.6	-47.8	9.6	1.24e-02	0	60	0	817889280	56	6665
2026-01-14 11:55:37.09	310.03	11.57	-42.5	-47.6	9.8	9.85e-03	0	60	0	819986432	56	6548
2026-01-14 11:55:38.10	310.19	11.52	-42.5	-47.4	10.0	9.35e-03	0	60	0	822083584	56	6411
2026-01-14 11:55:39.10	310.34	11.47	-42.4	-47.3	10.1	7.45e-03	0	60	0	824180736	56	6300
2026-01-14 11:55:40.11	310.50	11.42	-42.4	-47.2	10.2	5.93e-03	0	59	0	826277888	56	6231
2026-01-14 11:55:41.12	310.66	11.37	-42.4	-47.3	10.1	6.16e-03	0	60	0	827326464	56	6347
2026-01-14 11:55:42.13	310.82	11.32	-42.5	-47.5	10.0	7.85e-03	0	60	0	829423616	56	6432
2026-01-14 11:55:43.14	310.98	11.27	-42.5	-47.6	9.8	9.32e-03	0	59	0	831520768	56	6525
2026-01-14 11:55:44.15	311.14	11.22	-42.5	-47.6	9.8	9.89e-03	0	60	0	833617920	56	6556
2026-01-14 11:55:45.16	311.29	11.17	-42.6	-47.7	9.6	1.08e-02	0	60	0	835715072	56	6643
2026-01-14 11:55:46.17	311.45	11.12	-42.6	-47.9	9.5	1.54e-02	0	60	0	836763648	56	6775
2026-01-14 11:55:47.18	311.60	11.06	-42.6	-47.9	9.5	1.46e-02	0	60	0	838860800	56	6753
2026-01-14 11:55:48.19	311.76	11.01	-42.7	-48.0	9.3	1.70e-02	0	60	0	840957952	56	6872
2026-01-14 11:55:49.20	311.91	10.96	-42.6	-48.0	9.4	1.57e-02	0	60	0	843055104	56	6816
2026-01-14 11:55:50.21	312.07	10.91	-42.6	-47.9	9.4	1.56e-02	0	60	0	845152256	56	6800
2026-01-14 11:55:51.22	312.22	10.86	-42.7	-48.1	9.2	1.98e-02	0	60	0	846200832	56	6950
2026-01-14 11:55:52.23	312.37	10.81	-42.7	-48.2	9.1	2.13e-02	0	60	0	848297984	56	6983
2026-01-14 11:55:53.23	312.52	10.76	-42.7	-48.2	9.2	2.04e-02	0	60	0	850395136	56	6979
2026-01-14 11:55:54.24	312.68	10.71	-42.6	-47.9	9.4	1.87e-02	0	60	0	852492288	56	6792
2026-01-14 11:55:55.25	312.83	10.65	-42.5	-47.8	9.6	1.44e-02	0	60	0	854589440	56	6655
2026-01-14 11:55:56.26	312.98	10.60	-42.5	-47.6	9.7	1.32e-02	0	60	0	855638016	56	6548
2026-01-14 11:55:57.27	313.13	10.55	-42.3	-47.2	10.2	7.50e-03	0	59	0	857735168	56	6206
2026-01-14 11:55:58.28	313.28	10.50	-42.2	-46.9	10.4	5.00e-03	0	60	0	859832320	56	6037
2026-01-14 11:55:59.29	313.43	10.45	-42.2	-46.9	10.5	3.99e-03	0	60	0	861929472	56	6023
2026-01-14 11:56:00.30	313.58	10.39	-42.2	-47.0	10.4	4.38e-03	0	60	0	864026624	56	6091
2026-01-14 11:56:01.31	313.72	10.34	-42.2	-46.8	10.6	3.81e-03	0	60	0	865075200	56	5936
2026-01-14 11:56:02.32	313.87	10.29	-42.1	-46.6	10.7	3.03e-03	0	60	0	867172352	56	5845
2026-01-14 11:56:03.33	314.02	10.24	-42.2	-46.8	10.5	3.54e-03	0	60	0	869269504	56	5985
2026-01-14 11:56:04.34	314.17	10.19	-42.2	-47.0	10.3	4.51e-03	0	59	0	871366656	56	6110
2026-01-14 11:56:05.35	314.31	10.13	-42.3	-47.2	10.1	6.45e-03	0	60	0	873463808	56	6218
2026-01-14 11:56:06.36	314.46	10.08	-42.4	-47.4	9.9	8.42e-03	0	60	0	874512384	56	6385
2026-01-14 11:56:07.37	314.60	10.03	-42.4	-47.4	9.9	9.65e-03	0	60	0	876609536	56	6410
2026-01-14 11:56:08.38	314.75	9.98	-42.3	-47.3	10.0	8.83e-03	0	60	0	878706688	56	6326
2026-01-14 11:56:09.39	314.89	9.92	-42.4	-47.4	9.9	8.61e-03	0	60	0	880803840	56	6394
2026-01-14 11:56:10.40	315.04	9.87	-42.4	-47.5	9.8	9.93e-03	0	60	0	882900992	56	6443
2026-01-14 11:56:11.41	315.18	9.82	-42.4	-47.6	9.8	1.01e-02	0	59	0	884998144	56	6496
2026-01-14 11:56:12.42	315.32	9.77	-42.4	-47.4	9.9	9.54e-03	0	60	0	886046720	56	6371
2026-01-14 11:56:13.43	315.46	9.71	-42.4	-47.5	9.8	9.22e-03	0	60	0	888143872	56	6425
2026-01-14 11:56:14.44	315.61	9.66	-42.4	-47.6	9.7	9.92e-03	0	60	0	890241024	56	6543
2026-01-14 11:56:15.45	315.75	9.61	-42.4	-47.6	9.7	1.29e-02	0	59	0	892338176	56	6520
2026-01-14 11:56:16.46	315.89	9.56	-42.4	-47.4	9.9	1.02e-02	0	60	0	894435328	56	6372
2026-01-14 11:56:17.47	316.03	9.50	-42.3	-47.4	9.9	9.38e-03	0	60	0	895483904	56	6383
2026-01-14 11:56:18.48	316.17	9.45	-42.4	-47.4	9.8	1.02e-02	0	60	0	897581056	56	6413
2026-01-14 11:56:19.49	316.31	9.40	-42.4	-47.5	9.8	1.16e-02	0	60	0	899678208	56	6423
2026-01-14 11:56:20.50	316.45	9.35	-42.4	-47.5	9.8	9.64e-03	0	59	0	901775360	56	6453
2026-01-14 11:56:21.51	316.58	9.29	-42.3	-47.4	9.8	9.92e-03	0	60	0	903872512	56	6372
2026-01-14 11:56:22.52	316.72	9.24	-42.4	-47.5	9.7	1.11e-02	0	60	0	904921088	56	6437
2026-01-14 11:56:23.53	316.86	9.19	-42.3	-47.3	9.8	1.19e-02	0	60	0	907018240	56	6342
2026-01-14 11:56:24.54	317.00	9.13	-42.2	-47.2	10.1	8.02e-03	0	60	0	909115392	56	6205
2026-01-14 11:56:25.55	317.13	9.08	-42.3	-47.2	10.0	8.03e-03	0	60	0	911212544	56	6266
2026-01-14 11:56:26.56	317.27	9.03	-42.3	-47.3	9.9	8.34e-03	0	60	0	913309696	56	6341
2026-01-14 11:56:27.57	317.40	8.98	-42.3	-47.4	9.8	9.54e-03	0	60	0	914358272	56	6362
2026-01-14 11:56:28.58	317.54	8.92	-42.4	-47.6	9.6	1.18e-02	0	59	0	916455424	56	6527
2026-01-14 11:56:29.59	317.67	8.87	-42.4	-47.6	9.6	1.34e-02	0	60	0	918552576	56	6506
2026-01-14 11:56:30.60	317.81	8.82	-42.4	-47.7	9.5	1.35e-02	0	60	0	920649728	56	6587
2026-01-14 11:56:31.61	317.94	8.76	-42.4	-47.8	9.3	1.66e-02	0	60	0	922746880	56	6680
2026-01-14 11:56:32.61	318.07	8.71	-42.4	-47.8	9.3	1.84e-02	0	60	0	923795456	56	6702
2026-01-14 11:56:33.62	318.21	8.66	-42.4	-47.7	9.5	1.65e-02	0	60	0	925892608	56	6590
2026-01-14 11:56:34.63	318.34	8.60	-42.4	-47.6	9.5	1.45e-02	0	60	0	927989760	56	6562
2026-01-14 11:56:35.64	318.47	8.55	-42.3	-47.5	9.6	1.31e-02	0	60	0	930086912	56	6450
2026-01-14 11:56:36.65	318.60	8.50	-42.4	-47.6	9.5	1.24e-02	0	60	0	932184064	56	6540
2026-01-14 11:56:37.66	318.73	8.45	-42.3	-47.6	9.5	1.40e-02	0	60	0	933232640	56	6519
2026-01-14 11:56:38.67	318.86	8.39	-42.3	-47.6	9.5	1.46e-02	0	60	0	935329792	56	6511
2026-01-14 11:56:39.68	318.99	8.34	-42.3	-47.5	9.6	1.18e-02	0	60	0	937426944	56	6467
2026-01-14 11:56:40.69	319.12	8.29	-42.3	-47.4	9.7	1.11e-02	0	60	0	939524096	56	6393
2026-01-14 11:56:41.70	319.25	8.23	-42.3	-47.5	9.6	1.20e-02	0	60	0	941621248	56	6468
2026-01-14 11:56:42.71	319.38	8.18	-42.4	-47.7	9.4	1.60e-02	0	60	0	942669824	56	6629
2026-01-14 11:56:43.73	319.51	8.13	-42.4	-47.8	9.3	1.76e-02	0	60	0	944766976	56	6714
2026-01-14 11:56:44.74	319.63	8.07	-42.5	-48.0	9.1	2.22e-02	0	60	0	946864128	56	6821
2026-01-14 11:56:45.74	319.76	8.02	-42.5	-48.1	9.0	2.38e-02	0	60	0	948961280	56	6894
2026-01-14 11:56:46.76	319.89	7.97	-43.7	-53.0	4.3	3.07e-02	0	60	104	950009856	58	10887
2026-01-14 11:56:47.77	320.01	7.91	-44.5	-58.8	3.8	1.49e+00	0	60	104	950009856	59	19940
2026-01-14 11:56:48.77	320.14	7.86	-44.7	-59.2	3.8	1.49e+00	0	60	104	950009856	60	19638
2026-01-14 11:56:49.78	320.26	7.81	-44.8	-59.3	3.8	1.49e+00	0	60	104	950009856	60	20026
2026-01-14 11:56:50.79	320.39	7.75	-45.0	-59.5	3.8	1.49e+00	0	60	104	950009856	60	20390
2026-01-14 11:56:51.80	320.51	7.70	-45.1	-59.6	3.8	1.49e+00	0	60	104	950009856	60	20614
2026-01-14 11:56:52.81	320.64	7.65	-45.1	-59.6	3.8	1.49e+00	0	60	104	950009856	60	20758
2026-01-14 11:56:53.82	320.76	7.59	-45.2	-59.7	3.8	1.49e+00	0	60	104	950009856	60	20944
2026-01-14 11:56:54.83	320.88	7.54	-45.2	-59.7	3.8	1.49e+00	0	60	104	950009856	61	19694
2026-01-14 11:56:55.84	321.01	7.49	-45.2	-59.7	3.8	1.49e+00	0	60	104	950009856	61	19702
2026-01-14 11:56:56.85	321.13	7.43	-45.2	-59.7	3.8	1.49e+00	0	60	104	950009856	60	20827
2026-01-14 11:56:57.85	321.25	7.38	-45.1	-59.6	3.8	1.49e+00	0	60	104	950009856	60	20621
2026-01-14 11:56:58.86	321.37	7.33	-44.6	-59.5	3.8	1.49e+00	0	60	104	950009856	60	20391
2026-01-14 11:56:59.87	321.49	7.27	-45.2	-59.6	3.8	1.49e+00	0	60	104	950009856	60	20650
2026-01-14 11:57:00.88	321.61	7.22	-45.1	-59.6	3.8	1.49e+00	0	59	104	950009856	60	20735
2026-01-14 11:57:01.89	321.73	7.17	-45.1	-59.6	3.8	1.49e+00	0	60	104	950009856	60	20682
2026-01-14 11:57:02.91	321.85	7.11	-45.1	-59.6	3.8	1.49e+00	0	60	104	950009856	60	20692
2026-01-14 11:57:03.92	321.97	7.06	-45.1	-59.6	3.8	1.49e+00	0	60	104	950009856	60	20607
2026-01-14 11:57:04.92	322.09	7.01	-45.1	-59.6	3.8	1.49e+00	0	60	104	950009856	60	20699
2026-01-14 11:57:05.93	322.21	6.96	-44.8	-59.6	3.8	1.49e+00	0	60	104	950009856	60	20650
2026-01-14 11:57:06.94	322.33	6.90	-45.1	-59.6	3.8	1.49e+00	0	60	104	950009856	60	20666
2026-01-14 11:57:07.95	322.44	6.85	-45.1	-59.6	3.8	1.49e+00	0	60	104	950009856	60	20630
2026-01-14 11:57:08.96	322.56	6.80	-45.1	-59.6	3.8	1.49e+00	0	60	104	950009856	60	20641
2026-01-14 11:57:09.97	322.68	6.74	-45.1	-59.6	3.8	1.49e+00	0	60	104	950009856	60	20613
2026-01-14 11:57:10.98	322.80	6.69	-45.1	-59.6	3.8	1.49e+00	0	60	104	950009856	60	20602
2026-01-14 11:57:12.00	322.91	6.64	-45.1	-59.6	3.8	1.49e+00	0	60	104	950009856	60	20604
2026-01-14 11:57:13.01	323.03	6.58	-45.1	-59.6	3.8	1.49e+00	0	60	104	950009856	60	20599
2026-01-14 11:57:14.02	323.14	6.53	-45.1	-59.6	3.8	1.49e+00	0	60	104	950009856	60	20611
2026-01-14 11:57:15.03	323.26	6.48	-45.1	-59.6	3.8	1.49e+00	0	60	104	950009856	60	20637
2026-01-14 11:57:16.04	323.37	6.42	-45.1	-59.6	3.8	1.49e+00	0	60	104	950009856	60	20660
2026-01-14 11:57:17.05	323.49	6.37	-45.1	-59.6	3.8	1.49e+00	0	60	104	950009856	60	20671
2026-01-14 11:57:18.05	323.60	6.32	-45.1	-59.6	3.8	1.49e+00	0	60	104	950009856	60	20610
2026-01-14 11:57:19.06	323.71	6.26	-45.0	-59.6	3.8	1.49e+00	0	60	104	950009856	60	20675
2026-01-14 11:57:20.07	323.82	6.21	-45.1	-59.6	3.8	1.49e+00	0	60	104	950009856	60	20597
2026-01-14 11:57:21.08	323.94	6.16	-45.0	-59.6	3.8	1.49e+00	0	60	104	950009856	60	20651
2026-01-14 11:57:22.09	324.05	6.11	-45.0	-59.6	3.8	1.49e+00	0	60	104	950009856	60	20549
2026-01-14 11:57:23.11	324.16	6.05	-45.1	-59.5	3.8	1.49e+00	0	60	104	950009856	60	20527
2026-01-14 11:57:24.12	324.27	6.00	-45.1	-59.6	3.8	1.49e+00	0	60	104	950009856	60	20634
2026-01-14 11:57:25.13	324.38	5.95	-45.1	-59.6	3.8	1.49e+00	0	60	104	950009856	60	20567
2026-01-14 11:57:26.14	324.49	5.89	-44.8	-59.5	3.8	1.49e+00	0	60	104	950009856	60	20533
2026-01-14 11:57:27.15	324.60	5.84	-45.1	-59.6	3.8	1.49e+00	0	60	104	950009856	60	20585
2026-01-14 11:57:28.16	324.71	5.79	-44.9	-59.6	3.8	1.49e+00	0	60	104	950009856	60	20587
2026-01-14 11:57:29.17	324.82	5.74	-45.0	-59.5	3.8	1.49e+00	0	60	104	950009856	60	20531
2026-01-14 11:57:30.18	324.93	5.68	-45.1	-59.6	3.8	1.49e+00	0	60	104	950009856	60	20597
2026-01-14 11:57:31.19	325.04	5.63	-44.3	-59.2	3.8	1.49e+00	0	60	104	950009856	59	20897
2026-01-14 11:57:32.20	325.15	5.58	-45.1	-59.6	3.8	1.49e+00	0	60	104	950009856	60	20557
2026-01-14 11:57:33.21	325.26	5.52	-45.1	-59.6	3.8	1.49e+00	0	60	104	950009856	60	20577
2026-01-14 11:57:34.22	325.36	5.47	-45.0	-59.5	3.8	1.49e+00	0	60	104	950009856	60	20508
2026-01-14 11:57:35.23	325.47	5.42	-45.0	-59.6	3.8	1.49e+00	0	60	104	950009856	60	20546
2026-01-14 11:57:36.24	325.58	5.37	-45.0	-59.6	3.8	1.49e+00	0	60	104	950009856	60	20540
2026-01-14 11:57:37.25	325.68	5.31	-45.1	-59.6	3.8	1.49e+00	0	60	104	950009856	60	20550
2026-01-14 11:57:38.26	325.79	5.26	-45.0	-59.5	3.8	1.49e+00	0	60	104	950009856	60	20506
2026-01-14 11:57:39.27	325.90	5.21	-45.1	-59.6	3.8	1.49e+00	0	60	104	950009856	60	20545
2026-01-14 11:57:40.28	326.00	5.16	-45.1	-59.5	3.8	1.49e+00	0	60	104	950009856	60	20532
2026-01-14 11:57:41.29	326.11	5.10	-45.1	-59.6	3.8	1.49e+00	0	60	104	950009856	60	20578
2026-01-14 11:57:42.31	326.21	5.05	-45.1	-59.5	3.8	1.49e+00	0	60	104	950009856	60	20487
2026-01-14 11:57:43.31	326.32	5.00	-45.1	-59.6	3.8	1.49e+00	0	60	104	950009856	60	20543
2026-01-14 11:57:44.32	326.42	4.95	-45.1	-59.5	3.8	1.49e+00	0	60	104	950009856	60	20513
2026-01-14 11:57:45.33	326.52	4.89	-44.7	-59.5	3.8	1.49e+00	0	60	104	950009856	60	20437
2026-01-14 11:57:46.34	326.63	4.84	-45.1	-59.5	3.8	1.49e+00	0	60	104	950009856	60	20498
2026-01-14 11:57:47.35	326.73	4.79	-45.1	-59.5	3.8	1.49e+00	0	60	104	950009856	60	20473
2026-01-14 11:57:48.36	326.83	4.74	-45.1	-59.5	3.8	1.49e+00	0	60	104	950009856	60	20473
2026-01-14 11:57:49.37	326.93	4.68	-45.1	-59.5	3.8	1.49e+00	0	60	104	950009856	60	20489
2026-01-14 11:57:50.38	327.03	4.63	-45.1	-59.6	3.8	1.49e+00	0	60	104	950009856	60	20578
2026-01-14 11:57:51.38	327.13	4.58	-45.1	-59.6	3.8	1.49e+00	0	60	104	950009856	60	20542
2026-01-14 11:57:52.39	327.24	4.53	-45.0	-59.5	3.8	1.49e+00	0	60	104	950009856	60	20458
2026-01-14 11:57:53.41	327.34	4.48	-45.1	-59.6	3.8	1.49e+00	0	60	104	950009856	60	20546
2026-01-14 11:57:54.42	327.44	4.42	-45.1	-59.5	3.8	1.49e+00	0	60	104	950009856	60	20533
2026-01-14 11:57:55.43	327.54	4.37	-45.1	-59.5	3.8	1.49e+00	0	60	104	950009856	60	20531
2026-01-14 11:57:56.44	327.64	4.32	-45.1	-59.5	3.8	1.49e+00	0	60	104	950009856	60	20505
2026-01-14 11:57:57.45	327.74	4.27	-45.1	-59.6	3.8	1.49e+00	0	60	104	950009856	60	20592
2026-01-14 11:57:58.45	327.83	4.22	-45.0	-59.6	3.8	1.49e+00	0	60	104	950009856	60	20548
2026-01-14 11:57:59.47	327.93	4.16	-45.1	-59.6	3.8	1.49e+00	0	60	104	950009856	60	20582
2026-01-14 11:58:00.48	328.03	4.11	-45.0	-59.5	3.8	1.49e+00	0	60	104	950009856	60	20511
2026-01-14 11:58:01.48	328.13	4.06	-45.0	-59.5	3.8	1.49e+00	0	60	104	950009856	60	20504
2026-01-14 11:58:02.49	328.23	4.01	-45.1	-59.6	3.8	1.49e+00	0	60	104	950009856	60	20539
2026-01-14 11:58:03.50	328.32	3.96	-45.1	-59.5	3.8	1.49e+00	0	60	104	950009856	60	20481
2026-01-14 11:58:04.51	328.42	3.90	-45.1	-59.5	3.8	1.49e+00	0	60	104	950009856	60	20505
2026-01-14 11:58:05.52	328.52	3.85	-45.1	-59.5	3.8	1.49e+00	0	60	104	950009856	60	20492
2026-01-14 11:58:06.54	328.62	3.80	-45.1	-59.5	3.8	1.49e+00	0	60	104	950009856	60	20497
2026-01-14 11:58:07.54	328.71	3.75	-45.0	-59.5	3.8	1.49e+00	0	60	104	950009856	60	20468
2026-01-14 11:58:08.56	328.81	3.70	-45.1	-59.5	3.8	1.49e+00	0	60	104	950009856	60	20514
2026-01-14 11:58:09.57	328.90	3.65	-45.1	-59.5	3.8	1.49e+00	0	60	104	950009856	60	20482
2026-01-14 11:58:10.58	329.00	3.59	-45.1	-59.6	3.8	1.49e+00	0	60	104	950009856	60	20576
2026-01-14 11:58:11.59	329.09	3.54	-45.1	-59.5	3.8	1.49e+00	0	60	104	950009856	60	20519
2026-01-14 11:58:12.60	329.19	3.49	-45.0	-59.5	3.8	1.49e+00	0	60	104	950009856	60	20536
2026-01-14 11:58:13.61	329.28	3.44	-45.1	-59.5	3.8	1.49e+00	0	60	104	950009856	60	20519
2026-01-14 11:58:14.62	329.38	3.39	-45.1	-59.5	3.8	1.49e+00	0	60	104	950009856	60	20503
2026-01-14 11:58:15.63	329.47	3.34	-45.1	-59.5	3.8	1.49e+00	0	60	104	950009856	60	20487
2026-01-14 11:58:16.64	329.56	3.29	-45.0	-59.5	3.8	1.49e+00	0	60	104	950009856	60	20483
2026-01-14 11:58:17.65	329.65	3.23	-45.1	-59.5	3.8	1.49e+00	0	60	104	950009856	60	20521
2026-01-14 11:58:18.66	329.75	3.18	-45.1	-59.5	3.8	1.49e+00	0	60	104	950009856	60	20460
2026-01-14 11:58:19.67	329.84	3.13	-45.1	-59.5	3.8	1.49e+00	0	60	104	950009856	60	20503
2026-01-14 11:58:20.68	329.93	3.08	-45.1	-59.5	3.8	1.49e+00	0	60	104	950009856	60	20480
2026-01-14 11:58:21.69	330.02	3.03	-45.1	-59.6	3.8	1.49e+00	0	60	104	950009856	60	20540
2026-01-14 11:58:22.70	330.11	2.98	-45.0	-59.5	3.8	1.49e+00	0	60	104	950009856	60	20526
2026-01-14 11:58:23.71	330.21	2.93	-45.1	-59.5	3.8	1.49e+00	0	60	104	950009856	60	20422
2026-01-14 11:58:24.72	330.30	2.88	-45.1	-59.5	3.8	1.49e+00	0	60	104	950009856	60	20478
2026-01-14 11:58:25.73	330.39	2.83	-45.1	-59.5	3.8	1.49e+00	0	60	104	950009856	60	20498
