passes_logs/2026/01/14/R2.0S_Moscow/R2.0S_Moscow__20260114_041746_FENGYUN_3E_rec.log

#Pass ID: 20260114_041746_FENGYUN 3E
#Satellite: FENGYUN 3E
#Configuration: FENGYUN 3E
#almurnet v.1.7.20251203
#Start time: 2026-01-14 04:17:48

#Version: 2.2.20231116
#Station: R2.0S_Moscow
#Location: 37.707566 lon 55.798166 lat
#TLE: 1 49008U 21062A   26013.31447241  .00000001  00000+0  21294-4 0  9992
#TLE: 2 49008  98.7491  18.4630 0001950 139.8565 220.2756 14.19884983234609

#Time	Az	El	Level	Level2	SNR	BER	BlckErr	Temp	State	Recorded	gain1	gain2
2026-01-14 04:17:48.12	14.66	2.09	-43.5	-54.4	3.8	8.45e-01	0	51	0	0	58	12063
2026-01-14 04:17:49.12	14.65	2.15	-43.5	-54.4	3.8	8.46e-01	0	52	104	0	57	12754
2026-01-14 04:17:50.13	14.63	2.22	-43.5	-54.4	3.8	8.46e-01	0	52	104	0	57	12774
2026-01-14 04:17:51.14	14.62	2.28	-43.5	-54.4	3.8	8.46e-01	0	52	104	0	57	12789
2026-01-14 04:17:52.15	14.61	2.35	-43.5	-54.4	3.8	8.44e-01	0	52	104	0	57	12762
2026-01-14 04:17:53.16	14.60	2.41	-43.5	-54.4	3.8	8.45e-01	0	52	104	0	57	12742
2026-01-14 04:17:54.17	14.59	2.48	-43.5	-54.4	3.8	8.47e-01	0	52	104	0	57	12730
2026-01-14 04:17:55.18	14.58	2.54	-43.5	-54.4	3.8	8.46e-01	0	52	104	0	57	12693
2026-01-14 04:17:56.19	14.56	2.61	-43.5	-54.4	3.8	8.46e-01	0	52	104	0	57	12727
2026-01-14 04:17:57.20	14.55	2.68	-43.5	-54.4	3.8	8.47e-01	0	52	104	0	57	12750
2026-01-14 04:17:58.21	14.54	2.74	-43.5	-54.4	3.8	8.47e-01	0	53	104	0	57	12724
2026-01-14 04:17:59.22	14.53	2.81	-43.5	-54.4	3.8	8.46e-01	0	53	104	0	57	12718
2026-01-14 04:18:00.23	14.52	2.87	-43.5	-54.4	3.8	8.46e-01	0	53	104	0	57	12795
2026-01-14 04:18:01.25	14.50	2.94	-43.5	-54.4	3.8	8.46e-01	0	53	104	0	57	12736
2026-01-14 04:18:02.26	14.49	3.01	-43.5	-54.4	3.8	8.46e-01	0	53	104	0	57	12687
2026-01-14 04:18:03.27	14.48	3.07	-43.5	-54.4	3.8	8.46e-01	0	53	104	0	57	12717
2026-01-14 04:18:04.28	14.47	3.14	-43.5	-54.4	3.8	8.46e-01	0	53	104	0	57	12743
2026-01-14 04:18:05.29	14.45	3.21	-43.5	-54.4	3.8	8.46e-01	0	53	104	0	57	12738
2026-01-14 04:18:06.30	14.44	3.27	-43.5	-54.4	3.8	8.46e-01	0	53	104	0	57	12755
2026-01-14 04:18:07.31	14.43	3.34	-43.5	-54.4	3.8	8.47e-01	0	53	104	0	57	12754
2026-01-14 04:18:08.32	14.41	3.41	-43.5	-54.3	3.8	8.46e-01	0	53	104	0	57	12664
2026-01-14 04:18:09.33	14.40	3.48	-43.5	-54.4	3.8	8.46e-01	0	53	104	0	57	12678
2026-01-14 04:18:10.34	14.39	3.54	-43.5	-54.3	3.8	8.46e-01	0	53	104	0	57	12640
2026-01-14 04:18:11.36	14.37	3.61	-43.5	-54.3	3.8	8.46e-01	0	53	104	0	57	12643
2026-01-14 04:18:12.37	14.36	3.68	-43.5	-54.4	3.8	8.46e-01	0	54	104	0	57	12711
2026-01-14 04:18:13.38	14.35	3.75	-43.4	-54.3	3.8	8.47e-01	0	53	104	0	57	12612
2026-01-14 04:18:14.39	14.33	3.82	-43.4	-54.3	3.8	8.47e-01	0	54	104	0	57	12623
2026-01-14 04:18:15.40	14.32	3.89	-43.5	-54.3	3.8	8.46e-01	0	54	104	0	57	12595
2026-01-14 04:18:16.41	14.31	3.95	-43.5	-54.3	3.8	8.47e-01	0	54	104	0	57	12662
2026-01-14 04:18:17.42	14.29	4.02	-43.4	-54.3	3.8	8.47e-01	0	54	104	0	57	12569
2026-01-14 04:18:18.43	14.28	4.09	-43.5	-54.3	3.8	8.45e-01	0	54	104	0	57	12622
2026-01-14 04:18:19.44	14.27	4.16	-43.4	-54.3	3.8	8.46e-01	0	54	104	0	57	12567
2026-01-14 04:18:20.45	14.25	4.23	-43.5	-54.3	3.8	8.46e-01	0	54	104	0	57	12622
2026-01-14 04:18:21.47	14.24	4.30	-43.4	-54.3	3.8	8.46e-01	0	54	104	0	57	12626
2026-01-14 04:18:22.48	14.22	4.37	-43.4	-54.3	3.8	8.47e-01	0	54	104	0	57	12617
2026-01-14 04:18:23.49	14.21	4.44	-43.5	-54.3	3.8	8.46e-01	0	54	104	0	57	12601
2026-01-14 04:18:24.50	14.20	4.51	-43.4	-54.3	3.8	8.45e-01	0	54	104	0	57	12539
2026-01-14 04:18:25.51	14.18	4.58	-43.5	-54.3	3.8	8.46e-01	0	54	104	0	57	12648
2026-01-14 04:18:26.52	14.17	4.65	-43.5	-54.3	3.8	8.45e-01	0	54	104	0	57	12586
2026-01-14 04:18:27.53	14.15	4.72	-43.4	-54.3	3.8	8.47e-01	0	54	104	0	57	12561
2026-01-14 04:18:28.54	14.14	4.79	-43.4	-54.3	3.8	8.47e-01	0	54	104	0	57	12549
2026-01-14 04:18:29.56	14.12	4.86	-43.4	-54.2	3.8	8.46e-01	0	55	104	0	57	12413
2026-01-14 04:18:30.56	14.11	4.94	-43.4	-54.0	3.8	8.46e-01	0	54	104	0	57	12185
2026-01-14 04:18:31.58	14.09	5.01	-43.4	-53.8	3.8	8.46e-01	0	55	104	0	57	11860
2026-01-14 04:18:32.59	14.08	5.08	-43.4	-53.6	3.8	8.47e-01	0	55	104	0	57	11672
2026-01-14 04:18:33.60	14.06	5.15	-43.3	-53.3	3.8	8.46e-01	0	55	104	0	57	11234
2026-01-14 04:18:34.61	14.05	5.22	-43.2	-52.8	3.8	8.46e-01	0	55	104	0	57	10540
2026-01-14 04:18:35.62	14.03	5.29	-43.2	-52.6	3.8	8.44e-01	0	55	104	0	57	10364
2026-01-14 04:18:36.63	14.02	5.37	-43.1	-52.0	4.0	8.45e-01	0	55	104	0	57	9607
2026-01-14 04:18:37.64	14.00	5.44	-43.1	-51.8	3.8	8.43e-01	0	55	104	0	57	9489
2026-01-14 04:18:38.65	13.99	5.51	-43.0	-51.0	4.2	8.38e-01	0	55	0	0	57	8604
2026-01-14 04:18:39.66	13.97	5.59	-42.9	-50.7	4.2	8.37e-01	0	55	0	0	56	8820
2026-01-14 04:18:40.67	13.96	5.66	-42.9	-50.4	4.3	8.31e-01	0	55	0	0	56	8529
2026-01-14 04:18:41.69	13.94	5.73	-42.8	-50.2	4.4	8.28e-01	0	55	0	0	56	8278
2026-01-14 04:18:42.70	13.92	5.81	-42.8	-49.9	4.5	8.19e-01	0	55	0	0	56	7991
2026-01-14 04:18:43.71	13.91	5.88	-42.7	-49.6	4.6	8.15e-01	0	55	0	0	56	7791
2026-01-14 04:18:44.72	13.89	5.95	-42.7	-49.3	4.7	7.98e-01	0	55	0	0	56	7504
2026-01-14 04:18:45.73	13.88	6.03	-42.6	-49.1	4.8	7.94e-01	0	56	0	0	56	7367
2026-01-14 04:18:46.74	13.86	6.10	-42.6	-49.2	4.8	7.94e-01	0	55	0	0	56	7413
2026-01-14 04:18:47.75	13.84	6.18	-42.7	-49.4	4.7	8.02e-01	0	55	0	0	56	7621
2026-01-14 04:18:48.76	13.83	6.25	-42.8	-49.9	4.5	8.18e-01	0	56	0	0	56	8037
2026-01-14 04:18:49.77	13.81	6.33	-42.9	-50.3	4.4	8.29e-01	0	56	0	0	56	8387
2026-01-14 04:18:50.79	13.79	6.40	-43.0	-50.7	4.2	8.34e-01	0	55	0	0	56	8839
2026-01-14 04:18:51.80	13.78	6.48	-43.0	-51.0	4.2	8.37e-01	0	56	0	0	56	9093
2026-01-14 04:18:52.81	13.76	6.55	-42.9	-50.8	4.2	8.39e-01	0	56	0	0	56	8874
2026-01-14 04:18:53.82	13.74	6.63	-42.8	-50.2	4.4	8.32e-01	0	56	0	0	56	8337
2026-01-14 04:18:54.83	13.72	6.71	-42.6	-49.3	4.8	8.12e-01	0	56	0	0	56	7474
2026-01-14 04:18:55.84	13.71	6.78	-42.2	-48.1	5.4	7.43e-01	0	56	0	0	55	6911
2026-01-14 04:18:56.85	13.69	6.86	-41.9	-47.1	6.1	3.92e-01	0	56	0	3145728	54	6516
2026-01-14 04:18:57.86	13.67	6.94	-41.4	-45.7	7.2	1.53e-01	0	56	0	10485760	53	5906
2026-01-14 04:18:58.87	13.65	7.01	-40.9	-44.8	8.2	7.09e-02	0	56	0	17825792	52	5605
2026-01-14 04:18:59.88	13.64	7.09	-40.5	-43.8	9.2	2.34e-02	0	56	0	25165824	51	5328
2026-01-14 04:19:00.89	13.62	7.17	-40.1	-43.1	10.0	1.16e-02	0	56	0	32505856	51	4876
2026-01-14 04:19:01.90	13.60	7.25	-39.7	-42.5	10.7	3.89e-03	0	56	0	39845888	50	4826
2026-01-14 04:19:02.91	13.58	7.32	-39.4	-42.0	11.1	2.34e-03	0	56	0	47185920	49	4852
2026-01-14 04:19:03.93	13.56	7.40	-39.1	-41.6	11.6	7.09e-04	0	56	0	54525952	49	4616
2026-01-14 04:19:04.94	13.54	7.48	-38.9	-41.3	11.9	4.70e-04	0	56	0	61865984	48	4715
2026-01-14 04:19:05.95	13.53	7.56	-38.6	-40.9	12.4	2.45e-04	0	56	0	69206016	48	4508
2026-01-14 04:19:06.96	13.51	7.64	-38.7	-41.0	12.2	2.06e-04	0	56	0	76546048	48	4579
2026-01-14 04:19:07.97	13.49	7.72	-38.9	-41.2	12.0	4.20e-04	0	57	0	83886080	48	4695
2026-01-14 04:19:08.98	13.47	7.80	-38.7	-41.0	12.2	2.49e-04	0	56	0	91226112	48	4577
2026-01-14 04:19:09.99	13.45	7.88	-38.8	-41.1	12.1	2.63e-04	0	57	0	98566144	48	4650
2026-01-14 04:19:11.00	13.43	7.96	-39.1	-41.6	11.6	6.57e-04	0	57	0	104857600	48	4880
2026-01-14 04:19:12.01	13.41	8.04	-39.5	-42.1	11.0	1.83e-03	0	56	0	112197632	48	5209
2026-01-14 04:19:13.02	13.39	8.12	-40.6	-44.0	9.2	1.66e-02	0	57	0	120586240	50	5760
2026-01-14 04:19:14.03	13.37	8.20	-42.4	-48.3	5.4	4.00e-01	0	57	0	126877696	54	7538
2026-01-14 04:19:15.04	13.35	8.28	-40.6	-44.5	8.1	5.19e-03	0	57	0	133169152	50	6088
2026-01-14 04:19:16.05	13.33	8.36	-40.7	-44.2	8.9	8.28e-03	0	57	0	140509184	51	5563
2026-01-14 04:19:17.06	13.31	8.44	-43.1	-54.1	3.8	5.58e-01	0	57	104	145752064	55	13737
2026-01-14 04:19:18.07	13.29	8.52	-38.6	-40.8	12.4	2.92e-04	0	57	0	147849216	48	4483
2026-01-14 04:19:19.08	13.27	8.60	-38.3	-40.4	12.7	1.19e-04	0	57	0	154140672	47	4539
2026-01-14 04:19:20.09	13.25	8.69	-38.3	-40.4	12.8	8.23e-05	0	57	0	161480704	47	4499
2026-01-14 04:19:21.10	13.23	8.77	-38.2	-40.3	12.9	5.72e-05	0	57	0	168820736	47	4467
2026-01-14 04:19:22.11	13.21	8.85	-38.1	-40.2	13.0	3.31e-05	0	57	0	176160768	47	4416
2026-01-14 04:19:23.12	13.19	8.94	-38.0	-40.0	13.2	2.17e-05	0	57	0	183500800	46	4575
2026-01-14 04:19:24.13	13.17	9.02	-38.0	-40.1	13.2	2.28e-05	0	57	0	190840832	46	4599
2026-01-14 04:19:25.15	13.15	9.10	-38.1	-40.1	13.1	4.00e-05	0	57	0	198180864	46	4623
2026-01-14 04:19:26.16	13.13	9.19	-38.0	-40.0	13.2	2.40e-05	0	57	0	205520896	46	4592
2026-01-14 04:19:27.17	13.11	9.27	-38.1	-40.2	13.0	3.08e-05	0	57	0	212860928	46	4659
2026-01-14 04:19:28.18	13.08	9.36	-38.1	-40.1	13.1	3.89e-05	0	57	0	220200960	46	4650
2026-01-14 04:19:29.18	13.06	9.44	-38.2	-40.3	12.8	4.69e-05	0	57	0	227540992	46	4754
2026-01-14 04:19:30.19	13.04	9.52	-38.0	-40.0	13.1	3.20e-05	0	57	0	234881024	46	4595
2026-01-14 04:19:31.20	13.02	9.61	-38.1	-40.1	13.1	3.77e-05	0	57	0	242221056	46	4643
2026-01-14 04:19:32.21	13.00	9.70	-38.0	-40.0	13.2	2.51e-05	0	57	0	249561088	46	4583
2026-01-14 04:19:33.22	12.97	9.78	-37.9	-39.9	13.3	2.63e-05	0	57	0	256901120	46	4532
2026-01-14 04:19:34.23	12.95	9.87	-37.9	-39.8	13.4	2.17e-05	0	58	0	264241152	46	4470
2026-01-14 04:19:35.24	12.93	9.95	-37.9	-39.8	13.5	1.71e-05	0	58	0	271581184	46	4473
2026-01-14 04:19:36.25	12.91	10.04	-37.8	-39.7	13.6	6.80e-06	0	57	0	277872640	46	4422
2026-01-14 04:19:37.26	12.88	10.13	-37.8	-39.8	13.5	6.80e-06	0	58	0	285212672	46	4448
2026-01-14 04:19:38.26	12.86	10.21	-37.8	-39.7	13.6	1.25e-05	0	57	0	292552704	46	4392
2026-01-14 04:19:39.27	12.84	10.30	-37.5	-39.3	14.0	0.00e+00	0	58	0	299892736	46	4235
2026-01-14 04:19:40.28	12.81	10.39	-37.7	-39.6	13.7	1.14e-05	0	57	0	307232768	46	4387
2026-01-14 04:19:41.29	12.79	10.48	-37.8	-39.8	13.6	1.02e-05	0	57	0	314572800	46	4443
2026-01-14 04:19:42.30	12.77	10.57	-37.9	-39.8	13.6	1.14e-05	0	58	0	321912832	46	4465
2026-01-14 04:19:43.31	12.74	10.65	-37.8	-39.7	13.6	1.37e-05	0	58	0	329252864	46	4419
2026-01-14 04:19:44.33	12.72	10.75	-38.0	-40.0	13.3	1.83e-05	0	58	0	336592896	46	4576
2026-01-14 04:19:45.34	12.69	10.83	-38.1	-40.1	13.2	2.17e-05	0	58	0	343932928	46	4644
2026-01-14 04:19:46.35	12.67	10.92	-38.3	-40.3	13.0	4.23e-05	0	58	0	351272960	46	4751
2026-01-14 04:19:47.36	12.65	11.01	-38.3	-40.3	13.0	5.14e-05	0	58	0	358612992	46	4747
2026-01-14 04:19:48.37	12.62	11.11	-38.2	-40.2	13.1	4.57e-05	0	58	0	365953024	46	4657
2026-01-14 04:19:49.38	12.60	11.20	-38.1	-40.1	13.2	3.20e-05	0	58	0	373293056	46	4650
2026-01-14 04:19:50.39	12.57	11.29	-38.0	-39.9	13.4	2.05e-05	0	58	0	380633088	46	4533
2026-01-14 04:19:51.40	12.55	11.38	-38.0	-39.9	13.4	2.74e-05	0	58	0	387973120	46	4536
2026-01-14 04:19:52.41	12.52	11.47	-38.0	-40.0	13.3	2.86e-05	0	58	0	395313152	46	4579
2026-01-14 04:19:53.41	12.49	11.56	-38.0	-40.0	13.4	1.83e-05	0	58	0	402653184	46	4569
2026-01-14 04:19:54.42	12.47	11.65	-38.1	-40.2	13.2	1.94e-05	0	58	0	409993216	46	4660
2026-01-14 04:19:55.43	12.44	11.75	-38.1	-40.0	13.4	2.51e-05	0	58	0	417333248	46	4587
2026-01-14 04:19:56.44	12.42	11.84	-38.0	-40.0	13.5	8.00e-06	0	58	0	424673280	46	4551
2026-01-14 04:19:57.45	12.39	11.93	-37.9	-39.8	13.7	9.10e-06	0	58	0	430964736	46	4463
2026-01-14 04:19:58.46	12.36	12.03	-38.0	-39.9	13.6	1.37e-05	0	58	0	438304768	46	4527
2026-01-14 04:19:59.47	12.34	12.12	-38.0	-40.0	13.5	2.20e-06	0	58	0	446693376	46	4552
2026-01-14 04:20:00.48	12.31	12.22	-38.1	-40.0	13.6	6.80e-06	0	58	0	452984832	46	4573
2026-01-14 04:20:01.49	12.28	12.31	-37.9	-39.8	13.9	3.40e-06	0	58	0	460324864	46	4444
2026-01-14 04:20:02.50	12.25	12.41	-37.9	-39.8	13.9	3.40e-06	0	58	0	467664896	46	4472
2026-01-14 04:20:03.51	12.23	12.50	-37.9	-39.7	14.0	4.50e-06	0	58	0	475004928	46	4438
2026-01-14 04:20:04.52	12.20	12.60	-38.0	-39.8	14.0	2.20e-06	0	58	0	482344960	46	4471
2026-01-14 04:20:05.54	12.17	12.70	-38.0	-39.8	14.1	0.00e+00	0	59	0	489684992	46	4455
2026-01-14 04:20:06.55	12.14	12.79	-38.1	-39.9	14.0	1.10e-06	0	58	0	497025024	46	4522
2026-01-14 04:20:07.56	12.11	12.89	-37.9	-39.7	14.2	2.20e-06	0	58	0	504365056	46	4422
2026-01-14 04:20:08.57	12.08	12.99	-37.9	-39.7	14.2	1.10e-06	0	58	0	511705088	46	4421
2026-01-14 04:20:09.57	12.06	13.08	-38.0	-39.8	14.2	0.00e+00	0	58	0	519045120	46	4447
2026-01-14 04:20:10.58	12.03	13.18	-37.9	-39.7	14.3	0.00e+00	0	59	0	526385152	46	4428
2026-01-14 04:20:11.59	12.00	13.28	-37.9	-39.7	14.3	0.00e+00	0	58	0	533725184	46	4419
2026-01-14 04:20:12.60	11.97	13.38	-37.9	-39.7	14.3	0.00e+00	0	58	0	541065216	46	4415
2026-01-14 04:20:13.61	11.94	13.48	-37.8	-39.5	14.5	1.10e-06	0	59	0	548405248	46	4311
2026-01-14 04:20:14.62	11.91	13.58	-37.7	-39.4	14.6	0.00e+00	0	58	0	555745280	46	4280
2026-01-14 04:20:15.63	11.88	13.68	-37.7	-39.4	14.7	0.00e+00	0	59	0	563085312	46	4253
2026-01-14 04:20:16.64	11.85	13.78	-37.6	-39.2	14.8	1.10e-06	0	59	0	570425344	46	4188
2026-01-14 04:20:17.65	11.82	13.88	-37.5	-39.2	14.9	0.00e+00	0	59	0	576716800	46	4158
2026-01-14 04:20:18.65	11.79	13.98	-37.6	-39.3	14.8	0.00e+00	0	59	0	584056832	46	4203
2026-01-14 04:20:19.66	11.75	14.09	-37.7	-39.4	14.7	1.10e-06	0	58	0	591396864	46	4244
2026-01-14 04:20:20.67	11.72	14.19	-37.6	-39.2	14.9	0.00e+00	0	59	0	598736896	46	4191
2026-01-14 04:20:21.68	11.69	14.29	-37.5	-39.2	14.9	1.10e-06	0	59	0	606076928	46	4170
2026-01-14 04:20:22.69	11.66	14.39	-37.6	-39.2	14.8	0.00e+00	0	59	0	613416960	46	4184
2026-01-14 04:20:23.70	11.63	14.50	-37.6	-39.2	14.9	1.10e-06	0	59	0	620756992	45	4409
2026-01-14 04:20:24.71	11.59	14.60	-37.5	-39.1	15.1	0.00e+00	0	59	0	628097024	45	4366
2026-01-14 04:20:25.72	11.56	14.71	-37.5	-39.1	15.1	0.00e+00	0	59	0	635437056	45	4364
2026-01-14 04:20:26.73	11.53	14.81	-37.5	-39.1	15.2	0.00e+00	0	59	0	642777088	45	4357
2026-01-14 04:20:27.74	11.50	14.92	-37.5	-39.1	15.2	0.00e+00	0	59	0	650117120	45	4364
2026-01-14 04:20:28.75	11.46	15.02	-37.4	-39.0	15.3	0.00e+00	0	59	0	657457152	45	4314
2026-01-14 04:20:29.76	11.43	15.13	-37.4	-38.9	15.4	0.00e+00	0	59	0	664797184	45	4272
2026-01-14 04:20:30.77	11.39	15.24	-37.4	-38.9	15.4	0.00e+00	0	59	0	672137216	45	4277
2026-01-14 04:20:31.79	11.36	15.34	-37.4	-39.0	15.4	0.00e+00	0	59	0	679477248	45	4314
2026-01-14 04:20:32.80	11.32	15.45	-37.3	-38.8	15.6	0.00e+00	0	59	0	686817280	45	4218
2026-01-14 04:20:33.81	11.29	15.56	-37.3	-38.9	15.5	0.00e+00	0	59	0	694157312	45	4254
2026-01-14 04:20:34.81	11.26	15.67	-37.2	-38.7	15.6	0.00e+00	0	59	0	701497344	45	4190
2026-01-14 04:20:35.82	11.22	15.78	-37.3	-38.8	15.6	0.00e+00	0	59	0	708837376	45	4232
2026-01-14 04:20:36.83	11.18	15.89	-37.2	-38.7	15.7	0.00e+00	0	59	0	716177408	45	4191
2026-01-14 04:20:37.84	11.15	16.00	-37.4	-38.9	15.5	1.10e-06	0	59	0	723517440	45	4274
2026-01-14 04:20:38.85	11.11	16.11	-37.4	-38.9	15.5	0.00e+00	0	59	0	729808896	45	4284
2026-01-14 04:20:39.86	11.07	16.22	-37.1	-38.6	15.9	0.00e+00	0	59	0	737148928	45	4106
2026-01-14 04:20:40.87	11.04	16.33	-37.1	-38.5	16.0	0.00e+00	0	59	0	745537536	45	4090
2026-01-14 04:20:41.88	11.00	16.44	-36.9	-38.4	16.1	0.00e+00	0	59	0	751828992	44	4263
2026-01-14 04:20:42.89	10.96	16.56	-37.2	-38.7	15.9	0.00e+00	0	59	0	759169024	44	4398
2026-01-14 04:20:43.90	10.93	16.67	-37.1	-38.6	16.0	0.00e+00	0	59	0	766509056	44	4350
2026-01-14 04:20:44.92	10.89	16.78	-37.0	-38.4	16.1	0.00e+00	0	59	0	773849088	44	4280
2026-01-14 04:20:45.93	10.85	16.90	-37.0	-38.5	16.1	0.00e+00	0	59	0	781189120	44	4309
2026-01-14 04:20:46.94	10.81	17.01	-36.9	-38.3	16.2	0.00e+00	0	59	0	788529152	44	4234
2026-01-14 04:20:47.95	10.77	17.13	-36.9	-38.3	16.3	0.00e+00	0	59	0	795869184	44	4225
2026-01-14 04:20:48.96	10.73	17.24	-36.9	-38.3	16.3	0.00e+00	0	59	0	803209216	44	4242
2026-01-14 04:20:49.97	10.69	17.36	-36.9	-38.4	16.2	0.00e+00	0	59	0	810549248	44	4245
2026-01-14 04:20:50.98	10.65	17.48	-37.0	-38.4	16.2	0.00e+00	0	59	0	817889280	44	4268
2026-01-14 04:20:51.99	10.61	17.59	-36.8	-38.2	16.4	0.00e+00	0	59	0	825229312	44	4171
2026-01-14 04:20:53.00	10.57	17.71	-36.8	-38.2	16.4	0.00e+00	0	59	0	832569344	44	4164
2026-01-14 04:20:54.01	10.53	17.83	-36.8	-38.2	16.5	0.00e+00	0	59	0	839909376	44	4170
2026-01-14 04:20:55.02	10.49	17.95	-36.7	-38.1	16.5	0.00e+00	0	59	0	847249408	44	4129
2026-01-14 04:20:56.03	10.44	18.07	-36.7	-38.1	16.6	0.00e+00	0	59	0	854589440	44	4101
2026-01-14 04:20:57.04	10.40	18.19	-36.7	-38.0	16.6	0.00e+00	0	59	0	861929472	44	4089
2026-01-14 04:20:58.05	10.36	18.31	-36.5	-37.9	16.8	0.00e+00	0	59	0	869269504	44	4024
2026-01-14 04:20:59.06	10.32	18.43	-36.3	-37.6	16.9	0.00e+00	0	59	0	875560960	43	4143
2026-01-14 04:21:00.07	10.27	18.55	-36.3	-37.6	16.9	0.00e+00	0	59	0	883949568	43	4129
2026-01-14 04:21:01.08	10.23	18.68	-36.3	-37.6	16.9	0.00e+00	0	59	0	891289600	43	4138
2026-01-14 04:21:02.09	10.18	18.80	-36.3	-37.6	16.9	0.00e+00	0	59	0	897581056	43	4130
2026-01-14 04:21:03.10	10.14	18.92	-36.2	-37.5	17.0	0.00e+00	0	59	0	904921088	43	4068
2026-01-14 04:21:04.11	10.10	19.05	-36.3	-37.6	17.0	0.00e+00	0	59	0	912261120	43	4109
2026-01-14 04:21:05.12	10.05	19.17	-36.3	-37.6	17.0	0.00e+00	0	60	0	919601152	43	4110
2026-01-14 04:21:06.13	10.00	19.30	-36.2	-37.5	17.1	0.00e+00	0	59	0	926941184	43	4070
2026-01-14 04:21:07.14	9.96	19.42	-36.1	-37.4	17.2	0.00e+00	0	59	0	934281216	43	4031
2026-01-14 04:21:08.15	9.91	19.55	-36.1	-37.4	17.1	0.00e+00	0	59	0	941621248	43	4043
2026-01-14 04:21:09.16	9.86	19.68	-36.1	-37.3	17.2	0.00e+00	0	59	0	948961280	43	3997
2026-01-14 04:21:10.17	9.82	19.81	-36.1	-37.4	17.2	0.00e+00	0	59	0	956301312	43	4014
2026-01-14 04:21:11.18	9.77	19.93	-36.0	-37.3	17.3	0.00e+00	0	60	0	963641344	42	4204
2026-01-14 04:21:12.19	9.72	20.06	-36.0	-37.3	17.3	0.00e+00	0	59	0	970981376	42	4205
2026-01-14 04:21:13.20	9.67	20.19	-36.1	-37.4	17.2	0.00e+00	0	60	0	978321408	42	4262
2026-01-14 04:21:14.21	9.62	20.32	-36.1	-37.3	17.3	0.00e+00	0	60	0	985661440	42	4227
2026-01-14 04:21:15.21	9.57	20.45	-36.0	-37.3	17.3	0.00e+00	0	59	0	993001472	42	4226
2026-01-14 04:21:16.22	9.52	20.59	-36.0	-37.3	17.3	0.00e+00	0	60	0	1000341504	42	4199
2026-01-14 04:21:17.23	9.47	20.72	-36.0	-37.3	17.4	0.00e+00	0	60	0	1007681536	42	4200
2026-01-14 04:21:18.24	9.42	20.85	-35.9	-37.2	17.4	0.00e+00	0	60	0	1015021568	42	4153
2026-01-14 04:21:19.25	9.37	20.99	-35.9	-37.1	17.5	0.00e+00	0	60	0	1022361600	42	4136
2026-01-14 04:21:20.26	9.32	21.12	-35.9	-37.2	17.5	0.00e+00	0	60	0	1028653056	42	4168
2026-01-14 04:21:21.27	9.27	21.26	-35.9	-37.2	17.5	0.00e+00	0	59	0	1037041664	42	4152
2026-01-14 04:21:22.28	9.21	21.39	-35.9	-37.1	17.5	0.00e+00	0	60	0	1044381696	42	4142
2026-01-14 04:21:23.29	9.16	21.53	-36.0	-37.2	17.4	0.00e+00	0	59	0	1050673152	42	4185
2026-01-14 04:21:24.30	9.10	21.67	-35.9	-37.2	17.5	0.00e+00	0	60	0	1058013184	42	4148
2026-01-14 04:21:25.31	9.05	21.80	-36.0	-37.2	17.4	0.00e+00	0	59	0	1065353216	42	4193
2026-01-14 04:21:26.32	9.00	21.94	-35.8	-37.0	17.7	0.00e+00	0	60	0	1072693248	42	4096
2026-01-14 04:21:27.33	8.94	22.08	-35.9	-37.1	17.5	0.00e+00	0	59	0	1080033280	42	4141
2026-01-14 04:21:28.34	8.88	22.22	-35.9	-37.1	17.6	0.00e+00	0	60	0	1087373312	42	4143
2026-01-14 04:21:29.35	8.83	22.37	-35.9	-37.1	17.6	0.00e+00	0	60	0	1094713344	42	4131
2026-01-14 04:21:30.36	8.77	22.51	-35.9	-37.2	17.5	0.00e+00	0	59	0	1102053376	42	4158
2026-01-14 04:21:31.37	8.71	22.65	-35.9	-37.2	17.5	0.00e+00	0	60	0	1109393408	42	4149
2026-01-14 04:21:32.38	8.65	22.79	-36.0	-37.3	17.4	0.00e+00	0	60	0	1116733440	42	4194
2026-01-14 04:21:33.39	8.59	22.94	-36.1	-37.3	17.4	0.00e+00	0	60	0	1124073472	42	4219
2026-01-14 04:21:34.40	8.53	23.08	-35.9	-37.1	17.6	0.00e+00	0	60	0	1131413504	42	4120
2026-01-14 04:21:35.41	8.47	23.23	-36.0	-37.3	17.4	0.00e+00	0	60	0	1138753536	42	4211
2026-01-14 04:21:36.42	8.41	23.38	-36.0	-37.3	17.4	0.00e+00	0	60	0	1146093568	42	4219
2026-01-14 04:21:37.43	8.35	23.52	-36.0	-37.3	17.4	0.00e+00	0	60	0	1153433600	42	4220
2026-01-14 04:21:38.44	8.29	23.67	-36.0	-37.3	17.4	0.00e+00	0	59	0	1160773632	42	4213
2026-01-14 04:21:39.45	8.23	23.82	-36.1	-37.4	17.4	0.00e+00	0	60	0	1168113664	42	4248
2026-01-14 04:21:40.46	8.16	23.97	-36.2	-37.4	17.3	0.00e+00	0	60	0	1174405120	42	4290
2026-01-14 04:21:41.47	8.10	24.12	-36.1	-37.4	17.3	0.00e+00	0	60	0	1182793728	42	4259
2026-01-14 04:21:42.48	8.04	24.27	-36.1	-37.3	17.4	0.00e+00	0	60	0	1190133760	42	4228
2026-01-14 04:21:43.50	7.97	24.43	-36.1	-37.3	17.4	0.00e+00	0	60	0	1196425216	42	4227
2026-01-14 04:21:44.51	7.90	24.58	-36.1	-37.4	17.4	0.00e+00	0	60	0	1203765248	42	4262
2026-01-14 04:21:45.52	7.84	24.73	-36.0	-37.3	17.5	0.00e+00	0	60	0	1212153856	42	4216
2026-01-14 04:21:46.53	7.77	24.89	-36.0	-37.3	17.5	0.00e+00	0	60	0	1218445312	42	4223
2026-01-14 04:21:47.54	7.70	25.04	-36.0	-37.3	17.5	0.00e+00	0	60	0	1225785344	42	4218
2026-01-14 04:21:48.55	7.63	25.20	-36.0	-37.3	17.5	0.00e+00	0	59	0	1233125376	42	4203
2026-01-14 04:21:49.56	7.57	25.36	-36.0	-37.2	17.6	0.00e+00	0	60	0	1240465408	42	4188
2026-01-14 04:21:50.57	7.49	25.52	-36.0	-37.2	17.5	0.00e+00	0	60	0	1247805440	42	4189
2026-01-14 04:21:51.58	7.42	25.68	-36.0	-37.3	17.5	0.00e+00	0	60	0	1255145472	42	4202
2026-01-14 04:21:52.59	7.35	25.84	-36.0	-37.2	17.6	0.00e+00	0	60	0	1262485504	42	4175
2026-01-14 04:21:53.60	7.28	26.00	-36.0	-37.3	17.5	0.00e+00	0	60	0	1269825536	42	4201
2026-01-14 04:21:54.61	7.21	26.16	-36.0	-37.2	17.6	0.00e+00	0	60	0	1277165568	42	4189
2026-01-14 04:21:55.62	7.13	26.32	-35.8	-37.0	17.8	0.00e+00	0	60	0	1284505600	42	4087
2026-01-14 04:21:56.63	7.06	26.49	-35.9	-37.1	17.7	0.00e+00	0	60	0	1291845632	42	4144
2026-01-14 04:21:57.64	6.98	26.65	-35.8	-37.0	17.8	0.00e+00	0	60	0	1299185664	42	4068
2026-01-14 04:21:58.64	6.91	26.82	-35.7	-37.0	17.8	0.00e+00	0	60	0	1306525696	42	4057
2026-01-14 04:21:59.65	6.83	26.98	-35.7	-36.9	17.9	0.00e+00	0	60	0	1313865728	42	4046
2026-01-14 04:22:00.66	6.75	27.15	-35.6	-36.8	18.0	0.00e+00	0	60	0	1321205760	42	3999
2026-01-14 04:22:01.67	6.67	27.32	-35.6	-36.8	18.0	0.00e+00	0	60	0	1328545792	42	3977
2026-01-14 04:22:02.68	6.59	27.49	-35.5	-36.6	18.1	0.00e+00	0	60	0	1335885824	41	4144
2026-01-14 04:22:03.69	6.51	27.66	-35.3	-36.4	18.3	0.00e+00	0	60	0	1343225856	41	4046
2026-01-14 04:22:04.70	6.43	27.83	-35.3	-36.4	18.4	0.00e+00	0	60	0	1349517312	41	4047
2026-01-14 04:22:05.71	6.35	28.01	-35.2	-36.3	18.5	0.00e+00	0	60	0	1356857344	41	3980
2026-01-14 04:22:06.72	6.26	28.18	-35.1	-36.2	18.6	0.00e+00	0	60	0	1365245952	41	3934
2026-01-14 04:22:07.73	6.18	28.36	-35.0	-36.1	18.7	0.00e+00	0	60	0	1371537408	41	3907
2026-01-14 04:22:08.74	6.09	28.53	-35.0	-36.1	18.7	0.00e+00	0	60	0	1378877440	40	4116
2026-01-14 04:22:09.75	6.01	28.71	-34.9	-36.0	18.8	0.00e+00	0	60	0	1386217472	40	4065
2026-01-14 04:22:10.76	5.92	28.89	-35.0	-36.1	18.7	0.00e+00	0	60	0	1393557504	40	4105
2026-01-14 04:22:11.77	5.83	29.07	-34.8	-35.9	18.9	0.00e+00	0	60	0	1400897536	40	4013
2026-01-14 04:22:12.78	5.74	29.25	-34.9	-36.0	18.8	0.00e+00	0	60	0	1408237568	40	4066
2026-01-14 04:22:13.79	5.65	29.43	-34.9	-36.0	18.8	0.00e+00	0	60	0	1415577600	40	4088
2026-01-14 04:22:14.80	5.56	29.61	-35.0	-36.1	18.7	0.00e+00	0	60	0	1422917632	40	4127
2026-01-14 04:22:15.81	5.47	29.79	-35.0	-36.1	18.8	0.00e+00	0	60	0	1430257664	40	4105
2026-01-14 04:22:16.82	5.37	29.98	-35.0	-36.1	18.7	0.00e+00	0	60	0	1437597696	40	4130
2026-01-14 04:22:17.83	5.28	30.16	-35.0	-36.1	18.7	0.00e+00	0	60	0	1444937728	40	4136
2026-01-14 04:22:18.83	5.18	30.35	-35.1	-36.2	18.6	0.00e+00	0	60	0	1452277760	40	4189
2026-01-14 04:22:19.84	5.09	30.54	-35.1	-36.2	18.6	0.00e+00	0	60	0	1459617792	40	4177
2026-01-14 04:22:20.85	4.99	30.73	-35.1	-36.3	18.6	0.00e+00	0	60	0	1466957824	40	4208
2026-01-14 04:22:21.86	4.89	30.92	-35.4	-36.6	18.3	0.00e+00	0	60	0	1474297856	40	4351
2026-01-14 04:22:22.87	4.79	31.11	-35.3	-36.4	18.4	0.00e+00	0	60	0	1481637888	40	4272
2026-01-14 04:22:23.88	4.69	31.30	-35.4	-36.6	18.3	0.00e+00	0	60	0	1488977920	40	4343
2026-01-14 04:22:24.89	4.58	31.49	-35.5	-36.7	18.2	0.00e+00	0	60	0	1496317952	40	4396
2026-01-14 04:22:25.90	4.48	31.69	-35.5	-36.6	18.2	0.00e+00	0	60	0	1502609408	40	4389
2026-01-14 04:22:26.91	4.37	31.89	-35.5	-36.7	18.1	0.00e+00	0	60	0	1509949440	40	4432
2026-01-14 04:22:27.92	4.26	32.08	-35.6	-36.8	18.1	0.00e+00	0	60	0	1518338048	40	4448
2026-01-14 04:22:28.93	4.16	32.28	-35.6	-36.7	18.1	0.00e+00	0	60	0	1524629504	40	4438
2026-01-14 04:22:29.94	4.05	32.48	-35.6	-36.8	18.0	0.00e+00	0	60	0	1531969536	40	4476
2026-01-14 04:22:30.95	3.93	32.68	-35.6	-36.8	18.1	0.00e+00	0	60	0	1539309568	40	4442
2026-01-14 04:22:31.96	3.82	32.88	-35.7	-36.9	18.0	0.00e+00	0	60	0	1546649600	40	4501
2026-01-14 04:22:32.97	3.71	33.09	-35.6	-36.8	18.1	0.00e+00	0	60	0	1553989632	40	4455
2026-01-14 04:22:33.98	3.59	33.29	-35.6	-36.7	18.1	0.00e+00	0	60	0	1561329664	40	4427
2026-01-14 04:22:34.99	3.47	33.50	-35.5	-36.7	18.2	0.00e+00	0	60	0	1568669696	40	4402
2026-01-14 04:22:36.00	3.35	33.71	-35.3	-36.4	18.5	0.00e+00	0	60	0	1576009728	40	4273
2026-01-14 04:22:37.00	3.23	33.91	-35.1	-36.3	18.6	0.00e+00	0	60	0	1583349760	40	4195
2026-01-14 04:22:38.01	3.11	34.12	-35.1	-36.2	18.7	0.00e+00	0	60	0	1590689792	40	4153
2026-01-14 04:22:39.02	2.99	34.33	-34.8	-35.9	18.9	0.00e+00	0	60	0	1598029824	40	4030
2026-01-14 04:22:40.03	2.86	34.55	-34.9	-35.9	18.9	0.00e+00	0	60	0	1605369856	40	4042
2026-01-14 04:22:41.04	2.74	34.76	-34.8	-35.9	19.0	0.00e+00	0	60	0	1612709888	40	4029
2026-01-14 04:22:42.05	2.61	34.97	-34.8	-35.9	19.0	0.00e+00	0	60	0	1620049920	40	4017
2026-01-14 04:22:43.06	2.48	35.19	-34.8	-35.9	19.0	0.00e+00	0	60	0	1626341376	40	4014
2026-01-14 04:22:44.07	2.34	35.41	-35.0	-36.1	18.8	0.00e+00	0	60	0	1634729984	40	4136
2026-01-14 04:22:45.09	2.21	35.63	-35.1	-36.3	18.7	0.00e+00	0	60	0	1642070016	40	4206
2026-01-14 04:22:46.10	2.07	35.85	-35.3	-36.4	18.5	0.00e+00	0	61	0	1648361472	40	4287
2026-01-14 04:22:47.11	1.94	36.07	-35.4	-36.5	18.4	0.00e+00	0	60	0	1655701504	40	4340
2026-01-14 04:22:48.12	1.80	36.29	-35.5	-36.6	18.3	0.00e+00	0	60	0	1664090112	40	4391
2026-01-14 04:22:49.13	1.65	36.52	-35.5	-36.7	18.3	0.00e+00	0	60	0	1670381568	40	4409
2026-01-14 04:22:50.14	1.51	36.74	-35.4	-36.6	18.4	0.00e+00	0	60	0	1677721600	40	4359
2026-01-14 04:22:51.15	1.36	36.97	-35.5	-36.6	18.3	0.00e+00	0	60	0	1685061632	40	4383
2026-01-14 04:22:52.16	1.22	37.20	-35.4	-36.6	18.3	0.00e+00	0	60	0	1692401664	40	4372
2026-01-14 04:22:53.17	1.07	37.43	-35.4	-36.6	18.4	0.00e+00	0	60	0	1699741696	40	4344
2026-01-14 04:22:54.18	0.91	37.66	-35.6	-36.8	18.2	0.00e+00	0	60	0	1707081728	40	4462
2026-01-14 04:22:55.19	0.76	37.89	-35.6	-36.8	18.2	0.00e+00	0	60	0	1714421760	40	4443
2026-01-14 04:22:56.20	0.60	38.12	-35.5	-36.7	18.3	0.00e+00	0	60	0	1721761792	40	4402
2026-01-14 04:22:57.21	0.44	38.36	-35.6	-36.8	18.2	0.00e+00	0	60	0	1729101824	40	4473
2026-01-14 04:22:58.22	0.28	38.60	-35.7	-36.9	18.0	0.00e+00	0	61	0	1736441856	41	4278
2026-01-14 04:22:59.23	0.12	38.83	-35.9	-37.1	17.8	0.00e+00	0	60	0	1743781888	41	4369
2026-01-14 04:23:00.24	359.95	39.07	-36.0	-37.2	17.7	0.00e+00	0	60	0	1751121920	41	4422
2026-01-14 04:23:01.25	359.78	39.31	-35.9	-37.1	17.9	0.00e+00	0	60	0	1758461952	41	4364
2026-01-14 04:23:02.26	359.61	39.56	-35.8	-37.0	18.0	0.00e+00	0	61	0	1765801984	41	4317
2026-01-14 04:23:03.27	359.43	39.80	-35.9	-37.0	17.9	0.00e+00	0	61	0	1773142016	41	4339
2026-01-14 04:23:04.28	359.26	40.05	-35.7	-36.8	18.1	0.00e+00	0	60	0	1780482048	41	4234
2026-01-14 04:23:05.29	359.08	40.29	-35.8	-36.9	18.0	0.00e+00	0	60	0	1787822080	41	4291
2026-01-14 04:23:06.30	358.90	40.54	-35.6	-36.8	18.2	0.00e+00	0	61	0	1795162112	41	4225
2026-01-14 04:23:07.31	358.71	40.79	-35.5	-36.7	18.3	0.00e+00	0	61	0	1801453568	41	4171
2026-01-14 04:23:08.32	358.52	41.04	-35.3	-36.5	18.5	0.00e+00	0	60	0	1809842176	41	4059
2026-01-14 04:23:09.33	358.33	41.29	-35.2	-36.3	18.7	4.50e-06	0	61	0	1817182208	41	3997
2026-01-14 04:23:10.34	358.14	41.54	-35.2	-36.3	18.6	0.00e+00	0	60	0	1823473664	41	4002
2026-01-14 04:23:11.35	357.94	41.80	-35.3	-36.5	18.5	0.00e+00	0	61	0	1830813696	41	4057
2026-01-14 04:23:12.36	357.74	42.06	-35.3	-36.4	18.5	0.00e+00	0	60	0	1838153728	41	4040
2026-01-14 04:23:13.37	357.53	42.31	-35.4	-36.5	18.5	0.00e+00	0	60	0	1845493760	41	4068
2026-01-14 04:23:14.38	357.33	42.57	-35.6	-36.8	18.2	0.00e+00	0	61	0	1852833792	41	4223
2026-01-14 04:23:15.39	357.11	42.83	-35.7	-36.9	18.1	0.00e+00	0	60	0	1860173824	41	4252
2026-01-14 04:23:16.41	356.90	43.10	-35.8	-37.0	18.0	0.00e+00	0	60	0	1867513856	41	4319
2026-01-14 04:23:17.42	356.68	43.36	-36.0	-37.2	17.8	0.00e+00	0	61	0	1874853888	41	4414
2026-01-14 04:23:18.43	356.46	43.62	-36.0	-37.2	17.8	0.00e+00	0	60	0	1882193920	41	4424
2026-01-14 04:23:19.44	356.23	43.89	-36.0	-37.2	17.8	0.00e+00	0	61	0	1889533952	41	4406
2026-01-14 04:23:20.45	356.00	44.16	-36.0	-37.2	17.8	0.00e+00	0	61	0	1896873984	41	4408
2026-01-14 04:23:21.45	355.77	44.42	-35.9	-37.1	17.9	0.00e+00	0	60	0	1904214016	41	4355
2026-01-14 04:23:22.46	355.54	44.69	-35.9	-37.1	17.9	0.00e+00	0	60	0	1911554048	41	4362
2026-01-14 04:23:23.47	355.29	44.96	-35.7	-36.9	18.1	0.00e+00	0	60	0	1918894080	41	4249
2026-01-14 04:23:24.48	355.05	45.23	-35.6	-36.8	18.2	0.00e+00	0	60	0	1926234112	41	4207
2026-01-14 04:23:25.49	354.80	45.51	-35.5	-36.6	18.3	0.00e+00	0	61	0	1933574144	41	4144
2026-01-14 04:23:26.50	354.54	45.78	-35.8	-37.0	18.0	0.00e+00	0	60	0	1940914176	41	4307
2026-01-14 04:23:27.51	354.28	46.06	-35.8	-37.0	18.0	0.00e+00	0	60	0	1947205632	41	4305
2026-01-14 04:23:28.52	354.02	46.34	-36.0	-37.2	17.8	0.00e+00	0	60	0	1955594240	41	4439
2026-01-14 04:23:29.53	353.75	46.61	-36.0	-37.2	17.9	0.00e+00	0	60	0	1962934272	41	4402
2026-01-14 04:23:30.54	353.48	46.89	-36.6	-37.9	17.0	0.00e+00	0	60	0	1969225728	43	4290
2026-01-14 04:23:31.55	353.20	47.17	-36.5	-37.7	17.4	0.00e+00	0	60	0	1976565760	42	4433
2026-01-14 04:23:32.56	352.92	47.46	-36.7	-38.0	17.1	2.20e-06	0	60	0	1983905792	42	4575
2026-01-14 04:23:33.57	352.63	47.74	-36.6	-37.9	17.1	0.00e+00	0	61	0	1991245824	42	4537
2026-01-14 04:23:34.58	352.34	48.02	-36.7	-38.0	17.1	0.00e+00	0	61	0	1998585856	42	4569
2026-01-14 04:23:35.59	352.04	48.31	-36.9	-38.3	16.8	0.00e+00	0	60	0	2005925888	43	4458
2026-01-14 04:23:36.60	351.73	48.59	-36.8	-38.1	17.0	0.00e+00	0	60	0	2013265920	43	4364
2026-01-14 04:23:37.61	351.42	48.88	-36.7	-38.0	17.0	0.00e+00	0	60	0	2020605952	43	4317
2026-01-14 04:23:38.62	351.10	49.17	-36.7	-38.0	17.0	0.00e+00	0	61	0	2027945984	43	4333
2026-01-14 04:23:39.62	350.78	49.45	-36.7	-38.1	17.0	0.00e+00	0	60	0	2035286016	43	4342
2026-01-14 04:23:40.63	350.45	49.74	-36.8	-38.1	17.0	0.00e+00	0	61	0	2042626048	43	4347
2026-01-14 04:23:41.64	350.12	50.03	-36.5	-37.7	17.4	0.00e+00	0	61	0	2049966080	43	4189
2026-01-14 04:23:42.65	349.78	50.33	-36.4	-37.6	17.4	0.00e+00	0	61	0	2057306112	43	4141
2026-01-14 04:23:43.66	349.43	50.62	-36.4	-37.7	17.3	0.00e+00	0	61	0	2064646144	43	4167
2026-01-14 04:23:44.67	349.07	50.91	-36.5	-37.8	17.2	1.10e-06	0	61	0	2071986176	43	4209
2026-01-14 04:23:45.68	348.71	51.20	-36.8	-38.1	16.9	0.00e+00	0	61	0	2079326208	43	4374
2026-01-14 04:23:46.69	348.34	51.50	-37.2	-38.6	16.6	0.00e+00	0	61	0	2086666240	44	4366
2026-01-14 04:23:47.70	347.96	51.79	-37.5	-38.9	16.3	0.00e+00	0	61	0	2094006272	44	4507
2026-01-14 04:23:48.71	347.58	52.09	-37.4	-38.8	16.4	0.00e+00	0	61	0	2100297728	44	4468
2026-01-14 04:23:49.72	347.18	52.38	-37.3	-38.6	16.6	2.20e-06	0	60	0	2108686336	44	4386
2026-01-14 04:23:50.73	346.78	52.68	-37.2	-38.5	16.7	0.00e+00	0	61	0	2116026368	44	4338
2026-01-14 04:23:51.74	346.37	52.98	-37.2	-38.6	16.7	0.00e+00	0	61	0	2122317824	44	4369
2026-01-14 04:23:52.75	345.96	53.27	-36.9	-38.2	17.1	0.00e+00	0	61	0	2129657856	44	4150
2026-01-14 04:23:53.76	345.53	53.57	-36.6	-37.9	17.3	3.40e-06	0	61	0	2136997888	44	4023
2026-01-14 04:23:54.77	345.09	53.86	-36.8	-38.0	17.2	0.00e+00	0	60	0	2144337920	44	4092
2026-01-14 04:23:55.78	344.65	54.16	-36.7	-37.9	17.3	0.00e+00	0	61	0	2151677952	44	4035
2026-01-14 04:23:56.79	344.20	54.46	-36.7	-38.0	17.2	0.00e+00	0	61	0	2159017984	44	4068
2026-01-14 04:23:57.80	343.73	54.75	-37.1	-38.5	16.8	0.00e+00	0	61	0	2166358016	44	4294
2026-01-14 04:23:58.81	343.26	55.05	-37.3	-38.7	16.6	0.00e+00	0	61	0	2173698048	44	4395
2026-01-14 04:23:59.82	342.78	55.35	-37.1	-38.5	16.8	0.00e+00	0	61	0	2181038080	44	4307
2026-01-14 04:24:00.83	342.28	55.64	-37.0	-38.3	17.0	0.00e+00	0	61	0	2188378112	44	4227
2026-01-14 04:24:01.84	341.78	55.94	-36.9	-38.2	16.8	0.00e+00	0	61	0	2195718144	43	4404
2026-01-14 04:24:02.85	341.27	56.23	-36.5	-37.7	17.3	0.00e+00	0	61	0	2203058176	43	4184
2026-01-14 04:24:03.86	340.74	56.52	-36.6	-37.8	17.2	0.00e+00	0	61	0	2210398208	43	4235
2026-01-14 04:24:04.87	340.20	56.82	-36.7	-38.1	17.0	0.00e+00	0	61	0	2217738240	43	4344
2026-01-14 04:24:05.88	339.65	57.11	-36.8	-38.1	17.0	0.00e+00	0	61	0	2225078272	43	4367
2026-01-14 04:24:06.89	339.09	57.40	-37.4	-38.8	16.4	0.00e+00	0	61	0	2232418304	44	4461
2026-01-14 04:24:07.90	338.52	57.69	-37.2	-38.5	16.8	0.00e+00	0	61	0	2239758336	44	4311
2026-01-14 04:24:08.91	337.93	57.98	-37.1	-38.4	16.8	0.00e+00	0	61	0	2246049792	44	4277
2026-01-14 04:24:09.92	337.34	58.26	-37.0	-38.3	16.9	0.00e+00	0	61	0	2254438400	44	4227
2026-01-14 04:24:10.93	336.72	58.55	-36.9	-38.2	17.0	0.00e+00	0	61	0	2261778432	44	4174
2026-01-14 04:24:11.94	336.10	58.83	-36.7	-37.9	17.1	0.00e+00	0	61	0	2268069888	44	4039
2026-01-14 04:24:12.95	335.46	59.11	-36.7	-38.0	17.2	0.00e+00	0	61	0	2275409920	44	4053
2026-01-14 04:24:13.96	334.81	59.39	-37.1	-38.5	16.8	0.00e+00	0	61	0	2282749952	44	4293
2026-01-14 04:24:14.97	334.14	59.67	-37.1	-38.4	16.8	0.00e+00	0	61	0	2290089984	44	4281
2026-01-14 04:24:15.98	333.46	59.94	-37.1	-38.4	16.8	0.00e+00	0	61	0	2297430016	44	4274
2026-01-14 04:24:16.99	332.77	60.22	-36.5	-37.7	17.4	0.00e+00	0	61	0	2304770048	44	3945
2026-01-14 04:24:18.00	332.06	60.49	-37.0	-38.3	16.9	0.00e+00	0	61	0	2312110080	44	4219
2026-01-14 04:24:19.01	331.33	60.75	-37.0	-38.3	16.9	0.00e+00	0	61	0	2319450112	44	4230
2026-01-14 04:24:20.01	330.60	61.01	-37.0	-38.3	16.9	0.00e+00	0	61	0	2326790144	44	4238
2026-01-14 04:24:21.03	329.84	61.28	-36.9	-38.2	17.0	0.00e+00	0	61	0	2334130176	44	4179
2026-01-14 04:24:22.03	329.07	61.53	-36.9	-38.2	17.0	0.00e+00	0	61	0	2341470208	44	4185
2026-01-14 04:24:23.04	328.28	61.78	-36.8	-38.1	17.2	0.00e+00	0	61	0	2348810240	44	4100
2026-01-14 04:24:24.05	327.48	62.03	-36.7	-38.0	17.2	0.00e+00	0	61	0	2356150272	44	4068
2026-01-14 04:24:25.07	326.65	62.28	-36.8	-38.0	17.1	0.00e+00	0	61	0	2363490304	44	4098
2026-01-14 04:24:26.07	325.82	62.52	-36.7	-38.0	17.1	0.00e+00	0	61	0	2370830336	44	4089
2026-01-14 04:24:27.08	324.96	62.76	-36.5	-37.7	17.4	0.00e+00	0	61	0	2378170368	44	3956
2026-01-14 04:24:28.09	324.09	62.99	-36.3	-37.5	17.5	0.00e+00	0	61	0	2385510400	43	4076
2026-01-14 04:24:29.11	323.19	63.22	-35.8	-37.0	18.1	0.00e+00	0	61	0	2392850432	42	4065
2026-01-14 04:24:30.12	322.29	63.44	-35.8	-37.0	18.0	0.00e+00	0	61	0	2399141888	42	4074
2026-01-14 04:24:31.13	321.37	63.66	-35.9	-37.1	17.9	0.00e+00	0	61	0	2407530496	42	4126
2026-01-14 04:24:32.14	320.43	63.87	-36.0	-37.2	17.7	0.00e+00	0	61	0	2414870528	42	4164
2026-01-14 04:24:33.15	319.47	64.07	-36.1	-37.4	17.6	0.00e+00	0	61	0	2421161984	42	4243
2026-01-14 04:24:34.16	318.49	64.27	-35.7	-36.9	18.1	0.00e+00	0	61	0	2428502016	42	4027
2026-01-14 04:24:35.17	317.50	64.47	-35.5	-36.7	18.3	0.00e+00	0	61	0	2436890624	42	3924
2026-01-14 04:24:36.18	316.50	64.65	-35.5	-36.6	18.4	0.00e+00	0	61	0	2443182080	41	4126
2026-01-14 04:24:37.19	315.47	64.83	-35.4	-36.6	18.4	0.00e+00	0	61	0	2450522112	41	4113
2026-01-14 04:24:38.20	314.43	65.00	-35.4	-36.5	18.5	0.00e+00	0	61	0	2457862144	41	4072
2026-01-14 04:24:39.21	313.37	65.17	-35.3	-36.4	18.5	0.00e+00	0	61	0	2465202176	41	4042
2026-01-14 04:24:40.22	312.30	65.33	-35.3	-36.4	18.6	0.00e+00	0	61	0	2472542208	41	4026
2026-01-14 04:24:41.23	311.22	65.48	-35.3	-36.4	18.6	2.28e-05	0	61	0	2479882240	41	4045
2026-01-14 04:24:42.24	310.11	65.62	-35.7	-36.9	18.1	0.00e+00	0	61	0	2487222272	41	4252
2026-01-14 04:24:43.25	309.00	65.76	-35.5	-36.7	18.3	0.00e+00	0	61	0	2494562304	41	4155
2026-01-14 04:24:44.25	307.88	65.88	-35.5	-36.7	18.3	0.00e+00	0	61	0	2501902336	41	4152
2026-01-14 04:24:45.26	306.74	66.00	-35.3	-36.4	18.5	0.00e+00	0	61	0	2509242368	41	4051
2026-01-14 04:24:46.27	305.59	66.11	-35.1	-36.2	18.8	0.00e+00	0	61	0	2516582400	41	3931
2026-01-14 04:24:47.28	304.42	66.21	-34.9	-36.0	18.9	0.00e+00	0	61	0	2523922432	40	4089
2026-01-14 04:24:48.29	303.25	66.30	-35.2	-36.3	18.7	0.00e+00	0	61	0	2531262464	40	4206
2026-01-14 04:24:49.30	302.06	66.38	-35.6	-36.8	18.3	2.20e-06	0	61	0	2538602496	40	4448
2026-01-14 04:24:50.31	300.87	66.46	-35.5	-36.6	18.4	0.00e+00	0	61	0	2544893952	40	4382
2026-01-14 04:24:51.32	299.67	66.52	-35.2	-36.4	18.6	0.00e+00	0	61	0	2553282560	40	4265
2026-01-14 04:24:52.33	298.46	66.58	-35.0	-36.1	18.9	0.00e+00	0	61	0	2560622592	40	4125
2026-01-14 04:24:53.34	297.25	66.62	-35.0	-36.1	18.9	0.00e+00	0	61	0	2566914048	40	4126
2026-01-14 04:24:54.35	296.03	66.66	-35.2	-36.4	18.6	0.00e+00	0	61	0	2574254080	40	4249
2026-01-14 04:24:55.36	294.81	66.68	-35.4	-36.6	18.4	0.00e+00	0	61	0	2581594112	40	4349
2026-01-14 04:24:56.37	293.58	66.70	-35.3	-36.5	18.5	0.00e+00	0	61	0	2588934144	40	4298
2026-01-14 04:24:57.38	292.36	66.70	-35.1	-36.3	18.7	0.00e+00	0	61	0	2596274176	40	4198
2026-01-14 04:24:58.39	291.13	66.70	-34.9	-36.0	18.9	0.00e+00	0	61	0	2603614208	40	4088
2026-01-14 04:24:59.40	289.90	66.69	-34.8	-35.9	18.9	0.00e+00	0	61	0	2610954240	40	4041
2026-01-14 04:25:00.40	288.69	66.67	-34.9	-36.0	19.0	0.00e+00	0	61	0	2618294272	40	4080
2026-01-14 04:25:01.41	287.47	66.63	-35.0	-36.1	18.9	0.00e+00	0	61	0	2625634304	40	4101
2026-01-14 04:25:02.42	286.26	66.59	-35.3	-36.4	18.6	0.00e+00	0	61	0	2632974336	40	4248
2026-01-14 04:25:03.43	285.05	66.54	-35.5	-36.7	18.3	0.00e+00	0	61	0	2640314368	40	4424
2026-01-14 04:25:04.44	283.84	66.48	-35.4	-36.6	18.4	0.00e+00	0	61	0	2647654400	40	4371
2026-01-14 04:25:05.45	282.65	66.41	-35.2	-36.3	18.7	0.00e+00	0	61	0	2654994432	40	4213
2026-01-14 04:25:06.46	281.46	66.33	-35.0	-36.1	18.9	0.00e+00	0	61	0	2662334464	40	4131
2026-01-14 04:25:07.47	280.28	66.24	-35.2	-36.3	18.7	0.00e+00	0	61	0	2669674496	40	4212
2026-01-14 04:25:08.48	279.11	66.14	-35.5	-36.7	18.3	0.00e+00	0	61	0	2677014528	40	4399
2026-01-14 04:25:09.49	277.95	66.03	-35.3	-36.5	18.4	0.00e+00	0	61	0	2684354560	40	4314
2026-01-14 04:25:10.50	276.81	65.92	-35.2	-36.3	18.7	0.00e+00	0	61	0	2691694592	40	4197
2026-01-14 04:25:11.51	275.67	65.79	-35.1	-36.3	18.7	0.00e+00	0	61	0	2697986048	40	4194
2026-01-14 04:25:12.52	274.55	65.66	-35.3	-36.5	18.5	0.00e+00	0	61	0	2706374656	40	4298
2026-01-14 04:25:13.53	273.45	65.52	-35.6	-36.8	18.2	0.00e+00	0	61	0	2713714688	40	4482
2026-01-14 04:25:14.54	272.35	65.37	-35.6	-36.8	18.2	0.00e+00	0	61	0	2720006144	40	4471
2026-01-14 04:25:15.55	271.28	65.22	-35.5	-36.6	18.4	0.00e+00	0	61	0	2727346176	40	4384
2026-01-14 04:25:16.56	270.21	65.05	-35.5	-36.7	18.4	0.00e+00	0	61	0	2734686208	40	4400
2026-01-14 04:25:17.57	269.17	64.88	-35.6	-36.8	18.2	0.00e+00	0	61	0	2742026240	40	4462
2026-01-14 04:25:18.58	268.14	64.71	-35.5	-36.7	18.2	0.00e+00	0	61	0	2749366272	40	4412
2026-01-14 04:25:19.59	267.12	64.52	-35.5	-36.7	18.3	0.00e+00	0	61	0	2756706304	40	4423
2026-01-14 04:25:20.60	266.13	64.33	-35.7	-36.8	18.1	0.00e+00	0	61	0	2764046336	40	4488
2026-01-14 04:25:21.61	265.15	64.13	-35.6	-36.8	18.2	0.00e+00	0	61	0	2771386368	40	4473
2026-01-14 04:25:22.62	264.18	63.93	-35.5	-36.6	18.3	0.00e+00	0	61	0	2778726400	40	4382
2026-01-14 04:25:23.63	263.24	63.72	-35.4	-36.6	18.4	0.00e+00	0	61	0	2786066432	40	4347
2026-01-14 04:25:24.64	262.31	63.50	-35.6	-36.8	18.3	0.00e+00	0	61	0	2793406464	40	4447
2026-01-14 04:25:25.65	261.39	63.28	-36.0	-37.2	17.8	0.00e+00	0	61	0	2800746496	41	4436
2026-01-14 04:25:26.66	260.50	63.06	-36.3	-37.5	17.5	0.00e+00	0	61	0	2808086528	42	4325
2026-01-14 04:25:27.67	259.62	62.83	-36.1	-37.3	17.7	0.00e+00	0	61	0	2815426560	42	4241
2026-01-14 04:25:28.68	258.76	62.59	-35.8	-37.0	18.0	0.00e+00	0	61	0	2822766592	42	4082
2026-01-14 04:25:29.69	257.91	62.35	-35.7	-36.9	18.1	0.00e+00	0	61	0	2830106624	42	4024
2026-01-14 04:25:30.70	257.09	62.10	-36.2	-37.5	17.5	0.00e+00	0	61	0	2837446656	42	4310
2026-01-14 04:25:31.71	256.28	61.86	-36.4	-37.7	17.4	0.00e+00	0	61	0	2843738112	42	4427
2026-01-14 04:25:32.72	255.48	61.60	-36.5	-37.8	17.2	0.00e+00	0	61	0	2852126720	42	4468
2026-01-14 04:25:33.73	254.70	61.35	-36.4	-37.6	17.4	0.00e+00	0	61	0	2859466752	42	4388
2026-01-14 04:25:34.74	253.94	61.09	-36.3	-37.5	17.5	0.00e+00	0	61	0	2865758208	42	4321
2026-01-14 04:25:35.75	253.19	60.82	-36.1	-37.3	17.7	0.00e+00	0	61	0	2873098240	42	4212
2026-01-14 04:25:36.76	252.46	60.56	-36.1	-37.3	17.7	0.00e+00	0	61	0	2880438272	42	4237
2026-01-14 04:25:37.77	251.75	60.29	-36.2	-37.5	17.6	0.00e+00	0	61	0	2887778304	42	4313
2026-01-14 04:25:38.78	251.04	60.02	-36.4	-37.7	17.4	0.00e+00	0	61	0	2895118336	42	4418
2026-01-14 04:25:39.79	250.36	59.74	-36.7	-38.0	17.1	0.00e+00	0	61	0	2902458368	43	4312
2026-01-14 04:25:40.80	249.69	59.46	-36.6	-37.9	17.1	0.00e+00	0	61	0	2909798400	43	4259
2026-01-14 04:25:41.80	249.04	59.19	-36.4	-37.7	17.4	0.00e+00	0	61	0	2917138432	43	4166
2026-01-14 04:25:42.81	248.39	58.91	-36.3	-37.5	17.6	0.00e+00	0	61	0	2924478464	43	4072
2026-01-14 04:25:43.82	247.76	58.62	-36.3	-37.5	17.5	0.00e+00	0	61	0	2931818496	43	4086
2026-01-14 04:25:44.83	247.15	58.34	-36.6	-37.9	17.2	0.00e+00	0	61	0	2939158528	43	4260
2026-01-14 04:25:45.84	246.54	58.05	-36.8	-38.2	16.9	0.00e+00	0	61	0	2946498560	43	4397
2026-01-14 04:25:46.85	245.95	57.76	-37.1	-38.5	16.6	0.00e+00	0	61	0	2953838592	43	4554
2026-01-14 04:25:47.86	245.37	57.47	-36.9	-38.3	16.8	0.00e+00	0	61	0	2961178624	43	4461
2026-01-14 04:25:48.87	244.81	57.18	-36.8	-38.1	17.0	0.00e+00	0	61	0	2968518656	43	4352
2026-01-14 04:25:49.88	244.26	56.89	-36.7	-38.0	17.0	0.00e+00	0	61	0	2975858688	43	4318
2026-01-14 04:25:50.89	243.71	56.59	-36.4	-37.7	17.3	0.00e+00	0	61	0	2983198720	43	4170
2026-01-14 04:25:51.90	243.18	56.30	-36.0	-37.2	17.8	0.00e+00	0	61	0	2990538752	42	4188
2026-01-14 04:25:52.91	242.66	56.00	-36.0	-37.2	17.8	0.00e+00	0	61	0	2996830208	42	4181
2026-01-14 04:25:53.92	242.16	55.71	-36.2	-37.5	17.6	0.00e+00	0	61	0	3005218816	42	4301
2026-01-14 04:25:54.93	241.66	55.41	-36.5	-37.8	17.3	0.00e+00	0	61	0	3012558848	42	4460
2026-01-14 04:25:55.94	241.17	55.12	-36.4	-37.7	17.4	0.00e+00	0	61	0	3018850304	42	4392
2026-01-14 04:25:56.95	240.69	54.82	-36.2	-37.5	17.6	0.00e+00	0	61	0	3026190336	42	4297
2026-01-14 04:25:57.96	240.23	54.52	-36.2	-37.4	17.7	0.00e+00	0	61	0	3033530368	42	4261
2026-01-14 04:25:58.97	239.77	54.22	-36.4	-37.6	17.4	0.00e+00	0	61	0	3040870400	42	4379
2026-01-14 04:25:59.98	239.32	53.93	-36.8	-38.2	16.9	0.00e+00	0	61	0	3048210432	43	4399
2026-01-14 04:26:00.99	238.88	53.63	-37.0	-38.4	16.7	0.00e+00	0	61	0	3055550464	43	4533
2026-01-14 04:26:02.00	238.45	53.33	-36.9	-38.3	16.7	0.00e+00	0	61	0	3062890496	43	4473
2026-01-14 04:26:03.01	238.03	53.03	-36.7	-38.0	17.1	0.00e+00	0	61	0	3070230528	43	4300
2026-01-14 04:26:04.03	237.62	52.73	-36.5	-37.8	17.2	0.00e+00	0	61	0	3077570560	43	4229
2026-01-14 04:26:05.04	237.21	52.44	-36.7	-38.0	17.0	0.00e+00	0	61	0	3084910592	43	4305
2026-01-14 04:26:06.05	236.81	52.14	-36.8	-38.2	16.9	0.00e+00	0	61	0	3092250624	43	4397
2026-01-14 04:26:07.05	236.43	51.85	-36.9	-38.2	16.8	0.00e+00	0	61	0	3099590656	43	4435
2026-01-14 04:26:08.06	236.05	51.55	-36.9	-38.2	16.9	0.00e+00	0	61	0	3106930688	43	4433
2026-01-14 04:26:09.08	235.67	51.25	-36.8	-38.1	17.0	0.00e+00	0	61	0	3114270720	43	4352
2026-01-14 04:26:10.09	235.31	50.96	-36.7	-38.0	17.1	0.00e+00	0	61	0	3121610752	43	4297
2026-01-14 04:26:11.10	234.95	50.66	-36.6	-37.9	17.1	0.00e+00	0	61	0	3128950784	43	4276
2026-01-14 04:26:12.11	234.60	50.37	-36.7	-38.0	17.1	0.00e+00	0	61	0	3136290816	43	4297
2026-01-14 04:26:13.12	234.25	50.08	-36.6	-37.9	17.2	0.00e+00	0	61	0	3143630848	43	4260
2026-01-14 04:26:14.13	233.91	49.78	-36.7	-38.0	17.1	0.00e+00	0	61	0	3150970880	43	4299
2026-01-14 04:26:15.14	233.58	49.49	-36.7	-38.0	17.1	0.00e+00	0	61	0	3158310912	43	4303
2026-01-14 04:26:16.15	233.26	49.20	-36.7	-38.0	17.0	0.00e+00	0	61	0	3164602368	43	4340
2026-01-14 04:26:17.16	232.94	48.91	-36.8	-38.1	17.0	0.00e+00	0	61	0	3171942400	43	4375
2026-01-14 04:26:18.17	232.62	48.63	-36.8	-38.1	16.9	0.00e+00	0	61	0	3180331008	43	4390
2026-01-14 04:26:19.19	232.31	48.34	-36.7	-38.1	16.9	0.00e+00	0	61	0	3186622464	43	4343
2026-01-14 04:26:20.19	232.02	48.05	-36.7	-38.0	17.1	0.00e+00	0	61	0	3193962496	43	4327
2026-01-14 04:26:21.20	231.72	47.77	-36.4	-37.7	17.3	0.00e+00	0	61	0	3201302528	43	4174
2026-01-14 04:26:22.21	231.43	47.48	-36.2	-37.5	17.6	0.00e+00	0	61	0	3208642560	43	4074
2026-01-14 04:26:23.22	231.14	47.20	-36.0	-37.2	17.8	0.00e+00	0	61	0	3215982592	43	3956
2026-01-14 04:26:24.23	230.86	46.92	-36.0	-37.2	17.9	0.00e+00	0	61	0	3223322624	42	4156
2026-01-14 04:26:25.24	230.59	46.64	-35.9	-37.2	17.9	0.00e+00	0	61	0	3230662656	42	4154
2026-01-14 04:26:26.25	230.32	46.36	-35.9	-37.1	18.0	0.00e+00	0	61	0	3238002688	42	4103
2026-01-14 04:26:27.26	230.05	46.08	-35.8	-37.0	18.1	0.00e+00	0	61	0	3245342720	42	4077
2026-01-14 04:26:28.27	229.79	45.80	-35.8	-37.0	17.5	0.00e+00	0	61	0	3252682752	42	4064
2026-01-14 04:26:29.27	229.54	45.53	-35.7	-36.9	18.2	0.00e+00	0	61	0	3260022784	42	4016
2026-01-14 04:26:30.28	229.28	45.25	-35.7	-36.9	18.1	0.00e+00	0	61	0	3267362816	42	4034
2026-01-14 04:26:31.29	229.04	44.98	-35.7	-36.9	18.2	0.00e+00	0	61	0	3274702848	42	4030
2026-01-14 04:26:32.30	228.79	44.71	-35.7	-36.9	18.2	0.00e+00	0	61	0	3282042880	42	4007
2026-01-14 04:26:33.31	228.55	44.43	-35.7	-36.8	18.2	0.00e+00	0	61	0	3289382912	42	3997
2026-01-14 04:26:34.32	228.32	44.16	-35.6	-36.8	18.3	0.00e+00	0	61	0	3296722944	42	3968
2026-01-14 04:26:35.33	228.09	43.90	-35.6	-36.8	18.3	0.00e+00	0	61	0	3304062976	42	3978
2026-01-14 04:26:36.34	227.86	43.63	-35.6	-36.8	18.3	0.00e+00	0	61	0	3311403008	42	3971
2026-01-14 04:26:37.36	227.64	43.36	-35.6	-36.7	18.3	0.00e+00	0	61	0	3317694464	42	3951
2026-01-14 04:26:38.36	227.42	43.10	-35.6	-36.8	18.2	0.00e+00	0	61	0	3325034496	42	3969
2026-01-14 04:26:39.37	227.20	42.84	-35.6	-36.7	18.3	0.00e+00	0	61	0	3333423104	41	4190
2026-01-14 04:26:40.38	226.99	42.57	-35.6	-36.8	18.2	0.00e+00	0	61	0	3339714560	41	4209
2026-01-14 04:26:41.39	226.78	42.31	-35.6	-36.8	18.2	0.00e+00	0	61	0	3347054592	41	4222
2026-01-14 04:26:42.40	226.58	42.05	-35.8	-36.9	18.1	0.00e+00	0	61	0	3354394624	41	4286
2026-01-14 04:26:43.41	226.37	41.80	-35.7	-36.9	18.1	0.00e+00	0	61	0	3361734656	41	4273
2026-01-14 04:26:44.42	226.17	41.54	-35.7	-36.8	18.2	0.00e+00	0	61	0	3369074688	41	4239
2026-01-14 04:26:45.43	225.98	41.29	-35.6	-36.8	18.2	0.00e+00	0	61	0	3376414720	41	4229
2026-01-14 04:26:46.44	225.79	41.03	-35.6	-36.7	18.3	0.00e+00	0	61	0	3383754752	41	4186
2026-01-14 04:26:47.45	225.60	40.78	-35.6	-36.8	18.3	0.00e+00	0	61	0	3391094784	41	4199
2026-01-14 04:26:48.46	225.41	40.53	-35.7	-36.9	17.9	0.00e+00	0	61	0	3398434816	41	4256
2026-01-14 04:26:49.47	225.22	40.28	-35.7	-36.9	18.1	0.00e+00	0	61	0	3405774848	41	4269
2026-01-14 04:26:50.48	225.04	40.03	-35.8	-37.0	18.1	0.00e+00	0	61	0	3413114880	41	4303
2026-01-14 04:26:51.49	224.86	39.79	-35.8	-37.0	18.0	0.00e+00	0	61	0	3420454912	41	4328
2026-01-14 04:26:52.50	224.69	39.54	-35.9	-37.1	17.9	0.00e+00	0	61	0	3427794944	41	4352
2026-01-14 04:26:53.51	224.52	39.30	-35.9	-37.1	17.9	0.00e+00	0	61	0	3435134976	41	4368
2026-01-14 04:26:54.52	224.35	39.06	-35.9	-37.1	17.9	0.00e+00	0	61	0	3442475008	41	4374
2026-01-14 04:26:55.53	224.18	38.82	-35.8	-37.0	18.0	0.00e+00	0	61	0	3449815040	41	4328
2026-01-14 04:26:56.54	224.01	38.58	-35.7	-36.9	18.1	0.00e+00	0	61	0	3457155072	41	4282
2026-01-14 04:26:57.56	223.85	38.34	-35.7	-36.8	18.2	0.00e+00	0	61	0	3463446528	41	4235
2026-01-14 04:26:58.57	223.69	38.10	-35.6	-36.7	18.3	0.00e+00	0	61	0	3470786560	41	4193
2026-01-14 04:26:59.58	223.53	37.86	-35.5	-36.6	18.3	0.00e+00	0	61	0	3479175168	41	4130
2026-01-14 04:27:00.58	223.37	37.63	-35.4	-36.5	18.5	0.00e+00	0	61	0	3485466624	41	4083
2026-01-14 04:27:01.59	223.22	37.40	-35.4	-36.5	18.5	0.00e+00	0	61	0	3492806656	41	4082
2026-01-14 04:27:02.60	223.07	37.17	-35.4	-36.5	18.5	0.00e+00	0	61	0	3500146688	41	4086
2026-01-14 04:27:03.61	222.92	36.94	-35.4	-36.6	18.4	0.00e+00	0	61	0	3507486720	41	4106
2026-01-14 04:27:04.62	222.77	36.71	-35.4	-36.6	18.4	0.00e+00	0	61	0	3514826752	41	4115
2026-01-14 04:27:05.63	222.63	36.48	-35.4	-36.6	18.4	0.00e+00	0	61	0	3522166784	41	4115
2026-01-14 04:27:06.64	222.49	36.26	-35.4	-36.5	18.5	0.00e+00	0	61	0	3529506816	41	4094
2026-01-14 04:27:07.65	222.34	36.04	-35.3	-36.4	18.5	0.00e+00	0	61	0	3536846848	41	4044
2026-01-14 04:27:08.66	222.21	35.81	-35.2	-36.4	18.6	0.00e+00	0	61	0	3544186880	41	4009
2026-01-14 04:27:09.67	222.07	35.59	-35.1	-36.2	18.7	0.00e+00	0	61	0	3551526912	41	3942
2026-01-14 04:27:10.68	221.93	35.37	-35.1	-36.2	18.8	0.00e+00	0	61	0	3558866944	41	3920
2026-01-14 04:27:11.69	221.80	35.15	-35.1	-36.2	18.8	0.00e+00	0	61	0	3566206976	41	3917
2026-01-14 04:27:12.70	221.67	34.93	-35.1	-36.2	18.8	0.00e+00	0	61	0	3573547008	41	3939
2026-01-14 04:27:13.71	221.54	34.72	-35.2	-36.3	18.7	0.00e+00	0	61	0	3580887040	41	3979
2026-01-14 04:27:14.72	221.41	34.50	-35.3	-36.4	18.6	0.00e+00	0	61	0	3588227072	41	4022
2026-01-14 04:27:15.73	221.28	34.29	-35.3	-36.5	18.5	0.00e+00	0	61	0	3595567104	41	4064
2026-01-14 04:27:16.74	221.16	34.08	-35.3	-36.4	18.6	0.00e+00	0	61	0	3602907136	41	4043
2026-01-14 04:27:17.75	221.03	33.87	-35.3	-36.4	18.6	0.00e+00	0	61	0	3610247168	41	4026
2026-01-14 04:27:18.76	220.91	33.66	-35.2	-36.3	18.7	0.00e+00	0	61	0	3616538624	41	3985
2026-01-14 04:27:19.77	220.79	33.45	-35.0	-36.2	18.7	0.00e+00	0	61	0	3623878656	41	3915
2026-01-14 04:27:20.78	220.68	33.24	-35.0	-36.1	18.9	0.00e+00	0	61	0	3632267264	40	4112
2026-01-14 04:27:21.79	220.56	33.04	-34.9	-36.0	19.0	0.00e+00	0	61	0	3638558720	40	4078
2026-01-14 04:27:22.80	220.44	32.83	-34.9	-36.0	18.9	0.00e+00	0	61	0	3645898752	40	4083
2026-01-14 04:27:23.81	220.33	32.63	-35.0	-36.2	18.8	0.00e+00	0	61	0	3653238784	40	4147
2026-01-14 04:27:24.82	220.22	32.43	-35.1	-36.3	18.7	0.00e+00	0	61	0	3660578816	40	4201
2026-01-14 04:27:25.82	220.11	32.23	-35.3	-36.4	18.6	0.00e+00	0	61	0	3667918848	40	4274
2026-01-14 04:27:26.83	220.00	32.03	-35.4	-36.5	18.5	0.00e+00	0	61	0	3675258880	40	4316
2026-01-14 04:27:27.84	219.89	31.83	-35.5	-36.6	18.4	0.00e+00	0	61	0	3682598912	40	4383
2026-01-14 04:27:28.85	219.78	31.63	-35.5	-36.7	18.3	0.00e+00	0	61	0	3689938944	40	4400
2026-01-14 04:27:29.86	219.68	31.43	-35.5	-36.7	18.3	0.00e+00	0	61	0	3697278976	40	4394
2026-01-14 04:27:30.87	219.57	31.24	-35.5	-36.6	18.3	0.00e+00	0	61	0	3704619008	40	4380
2026-01-14 04:27:31.88	219.47	31.05	-35.4	-36.6	18.4	0.00e+00	0	61	0	3711959040	40	4362
2026-01-14 04:27:32.89	219.37	30.85	-35.3	-36.5	18.5	0.00e+00	0	61	0	3719299072	40	4306
2026-01-14 04:27:33.90	219.27	30.66	-35.3	-36.4	18.6	0.00e+00	0	62	0	3726639104	40	4271
2026-01-14 04:27:34.91	219.17	30.47	-35.2	-36.4	18.6	0.00e+00	0	61	0	3733979136	40	4258
2026-01-14 04:27:35.92	219.07	30.28	-35.3	-36.4	18.5	0.00e+00	0	61	0	3741319168	40	4278
2026-01-14 04:27:36.93	218.97	30.10	-35.2	-36.3	18.6	0.00e+00	0	61	0	3748659200	40	4232
2026-01-14 04:27:37.94	218.88	29.91	-35.2	-36.3	18.6	0.00e+00	0	61	0	3755999232	40	4232
2026-01-14 04:27:38.95	218.78	29.72	-35.2	-36.3	18.6	0.00e+00	0	61	0	3762290688	40	4228
2026-01-14 04:27:39.96	218.69	29.54	-35.2	-36.3	18.6	0.00e+00	0	61	0	3769630720	40	4234
2026-01-14 04:27:40.97	218.60	29.35	-35.2	-36.4	18.6	0.00e+00	0	61	0	3776970752	40	4252
2026-01-14 04:27:41.98	218.50	29.17	-35.2	-36.4	18.6	0.00e+00	0	61	0	3784310784	40	4245
2026-01-14 04:27:42.99	218.41	28.99	-35.3	-36.4	18.5	0.00e+00	0	61	0	3791650816	40	4283
2026-01-14 04:27:43.99	218.32	28.81	-35.3	-36.4	18.5	0.00e+00	0	61	0	3798990848	40	4276
2026-01-14 04:27:45.00	218.24	28.63	-35.3	-36.5	18.5	0.00e+00	0	61	0	3806330880	40	4293
2026-01-14 04:27:46.01	218.15	28.46	-35.3	-36.5	18.5	0.00e+00	0	61	0	3813670912	40	4317
2026-01-14 04:27:47.02	218.06	28.28	-35.4	-36.5	18.4	0.00e+00	0	61	0	3821010944	40	4328
2026-01-14 04:27:48.03	217.98	28.10	-35.4	-36.5	18.4	0.00e+00	0	61	0	3828350976	40	4333
2026-01-14 04:27:49.04	217.89	27.93	-35.4	-36.6	18.3	0.00e+00	0	61	0	3835691008	40	4367
2026-01-14 04:27:50.05	217.81	27.75	-35.4	-36.6	18.3	0.00e+00	0	61	0	3843031040	40	4361
2026-01-14 04:27:51.06	217.73	27.58	-35.4	-36.6	18.3	0.00e+00	0	61	0	3850371072	40	4354
2026-01-14 04:27:52.07	217.65	27.41	-35.4	-36.6	18.3	0.00e+00	0	61	0	3857711104	40	4360
2026-01-14 04:27:53.08	217.56	27.24	-35.4	-36.6	18.4	0.00e+00	0	61	0	3865051136	40	4347
2026-01-14 04:27:54.09	217.48	27.07	-35.4	-36.6	18.3	0.00e+00	0	61	0	3872391168	40	4351
2026-01-14 04:27:55.10	217.41	26.90	-35.4	-36.5	18.4	0.00e+00	0	61	0	3879731200	40	4330
2026-01-14 04:27:56.11	217.33	26.73	-35.4	-36.6	18.3	0.00e+00	0	61	0	3887071232	40	4343
2026-01-14 04:27:57.12	217.25	26.56	-35.4	-36.5	18.4	0.00e+00	0	61	0	3894411264	40	4333
2026-01-14 04:27:58.13	217.17	26.40	-35.4	-36.5	18.4	0.00e+00	0	61	0	3901751296	40	4321
2026-01-14 04:27:59.14	217.10	26.23	-35.4	-36.5	18.4	0.00e+00	0	61	0	3909091328	40	4330
2026-01-14 04:28:00.15	217.02	26.07	-35.4	-36.5	18.4	0.00e+00	0	61	0	3915382784	40	4335
2026-01-14 04:28:01.16	216.95	25.91	-35.4	-36.5	18.4	0.00e+00	0	61	0	3922722816	40	4321
2026-01-14 04:28:02.17	216.88	25.74	-35.4	-36.5	18.4	0.00e+00	0	61	0	3931111424	40	4328
2026-01-14 04:28:03.18	216.80	25.58	-35.4	-36.6	18.3	0.00e+00	0	61	0	3937402880	40	4341
2026-01-14 04:28:04.19	216.73	25.42	-35.4	-36.5	18.3	0.00e+00	0	61	0	3944742912	40	4325
2026-01-14 04:28:05.20	216.66	25.26	-35.4	-36.6	18.2	0.00e+00	0	61	0	3952082944	40	4367
2026-01-14 04:28:06.21	216.59	25.11	-35.4	-36.6	18.3	0.00e+00	0	61	0	3959422976	40	4372
2026-01-14 04:28:07.22	216.52	24.95	-35.4	-36.6	18.3	0.00e+00	0	61	0	3966763008	40	4359
2026-01-14 04:28:08.23	216.45	24.79	-35.5	-36.7	18.2	0.00e+00	0	61	0	3974103040	40	4402
2026-01-14 04:28:09.24	216.38	24.64	-35.5	-36.6	18.2	0.00e+00	0	61	0	3981443072	40	4386
2026-01-14 04:28:10.25	216.32	24.48	-35.5	-36.7	18.2	0.00e+00	0	62	0	3988783104	40	4405
2026-01-14 04:28:11.26	216.25	24.33	-35.5	-36.7	18.2	0.00e+00	0	61	0	3996123136	40	4429
2026-01-14 04:28:12.27	216.18	24.17	-35.6	-36.8	18.1	0.00e+00	0	61	0	4003463168	40	4448
2026-01-14 04:28:13.28	216.12	24.02	-35.6	-36.8	18.1	0.00e+00	0	61	0	4010803200	40	4478
2026-01-14 04:28:14.29	216.05	23.87	-35.6	-36.8	18.1	0.00e+00	0	61	0	4018143232	40	4473
2026-01-14 04:28:15.30	215.99	23.72	-35.7	-36.9	18.0	0.00e+00	0	61	0	4025483264	40	4510
2026-01-14 04:28:16.31	215.93	23.57	-35.7	-36.9	18.0	0.00e+00	0	61	0	4032823296	40	4516
2026-01-14 04:28:17.33	215.86	23.42	-35.7	-37.0	17.9	0.00e+00	0	61	0	4040163328	41	4293
2026-01-14 04:28:18.33	215.80	23.27	-35.7	-37.0	17.9	0.00e+00	0	61	0	4047503360	41	4298
2026-01-14 04:28:19.35	215.74	23.12	-35.8	-37.0	17.9	0.00e+00	0	61	0	4054843392	41	4315
2026-01-14 04:28:20.35	215.68	22.98	-35.8	-37.0	17.8	0.00e+00	0	61	0	4062183424	41	4313
2026-01-14 04:28:21.36	215.62	22.83	-35.8	-37.0	17.8	0.00e+00	0	61	0	4068474880	41	4328
2026-01-14 04:28:22.37	215.56	22.69	-35.8	-37.0	17.8	0.00e+00	0	61	0	4075814912	41	4325
2026-01-14 04:28:23.38	215.50	22.54	-35.8	-37.0	17.8	0.00e+00	0	61	0	4083154944	41	4327
2026-01-14 04:28:24.38	215.44	22.40	-35.8	-37.0	17.8	0.00e+00	0	61	0	4090494976	41	4321
2026-01-14 04:28:25.39	215.38	22.26	-35.8	-37.0	17.8	0.00e+00	0	61	0	4097835008	41	4314
2026-01-14 04:28:26.40	215.33	22.12	-35.8	-37.0	17.8	0.00e+00	0	61	0	4105175040	41	4308
2026-01-14 04:28:27.41	215.27	21.97	-35.7	-37.0	17.9	0.00e+00	0	61	0	4112515072	41	4292
2026-01-14 04:28:28.42	215.21	21.83	-35.8	-37.0	17.8	0.00e+00	0	61	0	4119855104	41	4302
2026-01-14 04:28:29.43	215.16	21.69	-35.7	-36.9	17.9	0.00e+00	0	61	0	4127195136	41	4288
2026-01-14 04:28:30.44	215.10	21.56	-35.8	-37.0	17.8	0.00e+00	0	61	0	4134535168	41	4325
2026-01-14 04:28:31.45	215.05	21.42	-35.8	-37.0	17.7	0.00e+00	0	61	0	4141875200	41	4336
2026-01-14 04:28:32.46	214.99	21.28	-35.8	-37.1	17.7	0.00e+00	0	61	0	4149215232	41	4344
2026-01-14 04:28:33.47	214.94	21.14	-35.8	-37.1	17.7	0.00e+00	0	61	0	4156555264	41	4341
2026-01-14 04:28:34.48	214.88	21.01	-35.9	-37.1	17.7	0.00e+00	0	61	0	4163895296	41	4361
2026-01-14 04:28:35.49	214.83	20.87	-35.9	-37.1	17.7	0.00e+00	0	61	0	4171235328	41	4366
2026-01-14 04:28:36.50	214.78	20.74	-35.9	-37.1	17.7	0.00e+00	0	61	0	4178575360	41	4356
2026-01-14 04:28:37.51	214.73	20.60	-35.9	-37.2	17.6	0.00e+00	0	61	0	4185915392	41	4405
2026-01-14 04:28:38.52	214.68	20.47	-36.0	-37.2	17.6	0.00e+00	0	61	0	4193255424	41	4411
2026-01-14 04:28:39.53	214.62	20.34	-36.0	-37.2	17.6	0.00e+00	0	61	0	4200595456	41	4438
2026-01-14 04:28:40.54	214.57	20.21	-36.0	-37.3	17.5	0.00e+00	0	61	0	4207935488	41	4457
2026-01-14 04:28:41.55	214.52	20.07	-36.1	-37.3	17.5	0.00e+00	0	61	0	4214226944	41	4477
2026-01-14 04:28:42.56	214.47	19.94	-36.1	-37.4	17.4	0.00e+00	0	61	0	4221566976	41	4500
2026-01-14 04:28:43.57	214.43	19.81	-36.1	-37.4	17.4	0.00e+00	0	61	0	4229955584	41	4525
2026-01-14 04:28:44.58	214.38	19.68	-36.2	-37.5	17.3	0.00e+00	0	61	0	4236247040	41	4547
2026-01-14 04:28:45.59	214.33	19.56	-36.2	-37.5	17.3	0.00e+00	0	61	0	4243587072	42	4319
2026-01-14 04:28:46.60	214.28	19.43	-36.3	-37.6	17.2	0.00e+00	0	62	0	4250927104	42	4346
2026-01-14 04:28:47.61	214.23	19.30	-36.3	-37.6	17.2	0.00e+00	0	61	0	4258267136	42	4357
2026-01-14 04:28:48.62	214.19	19.17	-36.4	-37.7	17.1	0.00e+00	0	61	0	4265607168	42	4399
2026-01-14 04:28:49.63	214.14	19.05	-36.4	-37.7	17.1	0.00e+00	0	61	0	4272947200	42	4421
2026-01-14 04:28:50.63	214.09	18.92	-36.4	-37.7	17.1	0.00e+00	0	61	0	4280287232	42	4430
2026-01-14 04:28:51.64	214.05	18.80	-36.4	-37.8	17.0	0.00e+00	0	61	0	4287627264	42	4443
2026-01-14 04:28:52.65	214.00	18.67	-36.5	-37.8	16.9	0.00e+00	0	61	0	4294967296	42	4481
2026-01-14 04:28:53.66	213.96	18.55	-36.5	-37.8	16.9	0.00e+00	0	61	0	4302307328	42	4477
2026-01-14 04:28:54.67	213.91	18.43	-36.5	-37.9	16.9	0.00e+00	0	61	0	4309647360	42	4506
2026-01-14 04:28:55.68	213.87	18.30	-36.6	-37.9	16.8	0.00e+00	0	61	0	4316987392	42	4524
2026-01-14 04:28:56.69	213.82	18.18	-36.6	-37.9	16.8	0.00e+00	0	61	0	4324327424	42	4524
2026-01-14 04:28:57.70	213.78	18.06	-36.6	-37.9	16.8	0.00e+00	0	61	0	4331667456	42	4527
2026-01-14 04:28:58.71	213.74	17.94	-36.7	-38.0	16.7	0.00e+00	0	61	0	4339007488	42	4573
2026-01-14 04:28:59.73	213.69	17.82	-36.7	-38.1	16.7	0.00e+00	0	61	0	4346347520	42	4602
2026-01-14 04:29:00.73	213.65	17.70	-36.7	-38.0	16.7	0.00e+00	0	61	0	4353687552	42	4592
2026-01-14 04:29:01.74	213.61	17.58	-36.7	-38.1	16.7	0.00e+00	0	62	0	4361027584	42	4614
2026-01-14 04:29:02.76	213.57	17.46	-36.7	-38.1	16.6	0.00e+00	0	61	0	4367319040	42	4609
2026-01-14 04:29:03.77	213.53	17.34	-36.7	-38.1	16.6	0.00e+00	0	62	0	4374659072	43	4361
2026-01-14 04:29:04.78	213.49	17.23	-36.8	-38.1	16.6	0.00e+00	0	61	0	4383047680	43	4386
2026-01-14 04:29:05.78	213.44	17.11	-36.8	-38.2	16.6	0.00e+00	0	61	0	4389339136	43	4407
2026-01-14 04:29:06.79	213.40	17.00	-36.8	-38.2	16.5	0.00e+00	0	61	0	4396679168	43	4415
2026-01-14 04:29:07.80	213.36	16.88	-36.8	-38.2	16.5	0.00e+00	0	61	0	4404019200	43	4409
2026-01-14 04:29:08.81	213.32	16.76	-36.9	-38.3	16.4	2.20e-06	0	61	0	4411359232	43	4442
2026-01-14 04:29:09.82	213.29	16.65	-36.9	-38.3	16.4	0.00e+00	0	61	0	4418699264	43	4454
2026-01-14 04:29:10.83	213.25	16.54	-36.9	-38.3	16.4	0.00e+00	0	61	0	4426039296	43	4471
2026-01-14 04:29:11.84	213.21	16.42	-36.9	-38.3	16.3	0.00e+00	0	61	0	4433379328	43	4491
2026-01-14 04:29:12.85	213.17	16.31	-37.0	-38.4	16.3	0.00e+00	0	61	0	4440719360	43	4514
2026-01-14 04:29:13.86	213.13	16.20	-37.0	-38.5	16.2	0.00e+00	0	61	0	4448059392	43	4547
2026-01-14 04:29:14.87	213.09	16.08	-37.0	-38.4	16.2	0.00e+00	0	61	0	4455399424	43	4544
2026-01-14 04:29:15.88	213.06	15.97	-37.0	-38.4	16.2	0.00e+00	0	61	0	4462739456	43	4529
2026-01-14 04:29:16.89	213.02	15.86	-37.0	-38.5	16.2	0.00e+00	0	62	0	4470079488	43	4559
2026-01-14 04:29:17.90	212.98	15.75	-37.1	-38.5	16.1	0.00e+00	0	62	0	4477419520	43	4568
2026-01-14 04:29:18.91	212.94	15.64	-37.1	-38.5	16.1	0.00e+00	0	61	0	4484759552	43	4592
2026-01-14 04:29:19.92	212.91	15.53	-37.1	-38.6	16.1	0.00e+00	0	61	0	4491051008	43	4600
2026-01-14 04:29:20.92	212.87	15.42	-37.1	-38.6	16.0	0.00e+00	0	61	0	4499439616	43	4610
2026-01-14 04:29:21.93	212.84	15.31	-37.2	-38.6	16.0	0.00e+00	0	61	0	4506779648	43	4645
2026-01-14 04:29:22.94	212.80	15.21	-37.1	-38.6	16.0	0.00e+00	0	61	0	4513071104	43	4621
2026-01-14 04:29:23.95	212.77	15.10	-37.2	-38.7	16.0	0.00e+00	0	61	0	4520411136	43	4653
