passes_logs/2026/01/14/R2.0S_Moscow/R2.0S_Moscow__20260114_080530_SUOMI_NPP_rec.log

#Pass ID: 20260114_080530_SUOMI NPP
#Satellite: SUOMI NPP
#Configuration: NPP
#almurnet v.1.7.20251203
#Start time: 2026-01-14 08:05:31

#Version: 2.2.20231116
#Station: R2.0S_Moscow
#Location: 37.707566 lon 55.798166 lat
#TLE: 1 37849U 11061A   26013.27136842  .00000065  00000+0  51889-4 0  9990
#TLE: 2 37849  98.7808 315.3349 0002489  66.6776 293.4661 14.19524902736466

#Time	Az	El	Level	Level2	SNR	BER	BlckErr	Temp	State	Recorded	gain1	gain2
2026-01-14 08:05:31.91	104.47	2.06	-37.9	-54.0	3.7	1.49e+00	0	51	0	0	47	22878
2026-01-14 08:05:32.91	104.39	2.12	-39.8	-54.7	3.9	1.49e+00	0	51	104	0	51	19741
2026-01-14 08:05:33.92	104.31	2.17	-37.3	-53.1	3.8	1.49e+00	0	52	104	0	47	20571
2026-01-14 08:05:34.93	104.24	2.23	-37.1	-53.0	4.0	1.49e+00	0	51	104	0	45	22950
2026-01-14 08:05:35.94	104.16	2.28	-35.8	-52.5	4.0	1.49e+00	0	52	104	0	45	21605
2026-01-14 08:05:36.95	104.08	2.34	-38.3	-54.4	3.9	1.49e+00	0	52	104	0	47	24099
2026-01-14 08:05:37.96	104.00	2.39	-38.3	-54.3	3.9	1.49e+00	0	52	104	0	49	21107
2026-01-14 08:05:38.97	103.93	2.45	-37.6	-52.9	4.0	1.49e+00	0	52	104	0	47	20092
2026-01-14 08:05:39.98	103.85	2.50	-38.4	-54.3	3.9	1.49e+00	0	52	104	0	50	20067
2026-01-14 08:05:40.99	103.77	2.55	-39.4	-54.9	3.7	1.49e+00	0	52	104	0	50	21325
2026-01-14 08:05:42.00	103.69	2.61	-38.6	-54.3	3.9	1.49e+00	0	52	104	0	49	21149
2026-01-14 08:05:43.01	103.61	2.66	-38.3	-54.3	3.8	1.49e+00	0	52	104	0	49	21194
2026-01-14 08:05:44.02	103.53	2.72	-40.0	-54.8	3.9	1.49e+00	0	52	104	0	50	21171
2026-01-14 08:05:45.03	103.45	2.77	-39.2	-54.1	3.8	1.49e+00	0	52	104	0	48	21832
2026-01-14 08:05:46.04	103.37	2.83	-35.2	-52.0	3.9	1.49e+00	0	52	104	0	45	20527
2026-01-14 08:05:47.05	103.29	2.89	-38.1	-53.2	3.8	1.49e+00	0	52	104	0	47	20989
2026-01-14 08:05:48.06	103.21	2.94	-38.5	-53.7	3.7	1.49e+00	0	53	104	0	48	20836
2026-01-14 08:05:49.07	103.13	3.00	-39.9	-54.3	3.7	1.49e+00	0	53	104	0	48	22312
2026-01-14 08:05:50.08	103.05	3.05	-38.8	-54.5	3.9	1.49e+00	0	53	104	0	49	21715
2026-01-14 08:05:51.09	102.96	3.11	-40.1	-54.9	3.9	1.49e+00	0	53	104	0	51	20089
2026-01-14 08:05:52.10	102.88	3.16	-39.3	-53.7	3.5	1.49e+00	0	53	104	0	49	19671
2026-01-14 08:05:53.11	102.80	3.22	-40.1	-55.0	3.8	1.49e+00	0	53	104	0	51	20369
2026-01-14 08:05:54.12	102.72	3.27	-39.2	-54.1	3.8	1.49e+00	0	53	104	0	49	20578
2026-01-14 08:05:55.13	102.63	3.33	-38.2	-53.9	3.9	1.49e+00	0	53	104	0	47	22743
2026-01-14 08:05:56.14	102.55	3.38	-40.0	-54.7	3.9	1.49e+00	0	53	104	0	50	20826
2026-01-14 08:05:57.15	102.47	3.44	-39.6	-54.7	3.8	1.49e+00	0	53	104	0	51	19745
2026-01-14 08:05:58.16	102.38	3.50	-40.2	-55.0	3.7	1.49e+00	0	53	104	0	51	20347
2026-01-14 08:05:59.17	102.30	3.55	-40.2	-55.0	4.0	1.49e+00	0	53	104	0	50	21577
2026-01-14 08:06:00.18	102.21	3.61	-40.0	-54.8	3.8	1.49e+00	0	53	104	0	50	21143
2026-01-14 08:06:01.19	102.13	3.66	-40.1	-54.9	3.8	1.49e+00	0	54	104	0	51	20292
2026-01-14 08:06:02.20	102.04	3.72	-38.0	-54.5	3.8	1.49e+00	0	54	104	0	50	20538
2026-01-14 08:06:03.21	101.96	3.78	-39.1	-54.5	3.8	1.49e+00	0	53	104	0	50	20528
2026-01-14 08:06:04.22	101.87	3.83	-39.4	-54.5	3.8	1.49e+00	0	54	104	0	50	20494
2026-01-14 08:06:05.23	101.78	3.89	-39.9	-54.6	3.8	1.49e+00	0	54	104	0	50	20564
2026-01-14 08:06:06.24	101.70	3.94	-39.2	-54.1	3.8	1.49e+00	0	54	104	0	50	19525
2026-01-14 08:06:07.25	101.61	4.00	-38.1	-52.1	4.0	1.49e+00	0	54	104	0	47	18351
2026-01-14 08:06:08.26	101.52	4.06	-39.5	-54.2	3.9	1.50e+00	0	54	104	0	50	19717
2026-01-14 08:06:09.27	101.43	4.11	-39.8	-54.6	3.9	1.49e+00	0	54	104	0	50	20585
2026-01-14 08:06:10.29	101.34	4.17	-39.9	-54.5	3.8	1.49e+00	0	54	104	0	50	20353
2026-01-14 08:06:11.30	101.26	4.23	-38.7	-53.2	3.9	1.49e+00	0	54	104	0	49	18697
2026-01-14 08:06:12.31	101.17	4.28	-40.0	-53.6	3.9	1.49e+00	0	54	104	0	49	19526
2026-01-14 08:06:13.32	101.08	4.34	-40.6	-55.1	3.9	1.49e+00	0	54	104	0	51	20727
2026-01-14 08:06:14.33	100.99	4.40	-37.2	-53.8	3.8	1.49e+00	0	54	104	0	47	22321
2026-01-14 08:06:15.34	100.90	4.45	-38.2	-53.7	3.9	1.49e+00	0	54	104	0	50	18591
2026-01-14 08:06:16.35	100.81	4.51	-38.1	-52.9	3.9	1.49e+00	0	54	104	0	47	20194
2026-01-14 08:06:17.36	100.72	4.57	-39.1	-53.6	4.0	1.49e+00	0	54	104	0	48	20697
2026-01-14 08:06:18.37	100.63	4.63	-39.7	-54.1	3.9	1.49e+00	0	54	104	0	49	20669
2026-01-14 08:06:19.38	100.53	4.68	-39.5	-54.2	3.9	1.49e+00	0	55	104	0	50	19783
2026-01-14 08:06:20.39	100.44	4.74	-39.9	-54.3	4.0	1.49e+00	0	54	104	0	50	20010
2026-01-14 08:06:21.40	100.35	4.80	-39.6	-54.5	3.8	1.49e+00	0	55	104	0	50	20343
2026-01-14 08:06:22.41	100.26	4.85	-39.6	-54.9	3.9	1.49e+00	0	55	104	0	51	20076
2026-01-14 08:06:23.42	100.16	4.91	-39.7	-54.7	3.8	1.49e+00	0	55	104	0	50	20856
2026-01-14 08:06:24.43	100.07	4.97	-40.0	-54.6	3.8	1.49e+00	0	55	104	0	50	20669
2026-01-14 08:06:25.44	99.98	5.03	-40.2	-54.8	3.9	1.49e+00	0	55	104	0	50	21070
2026-01-14 08:06:26.45	99.88	5.08	-40.0	-54.7	3.9	1.49e+00	0	55	104	0	50	21013
2026-01-14 08:06:27.46	99.79	5.14	-40.1	-54.8	3.9	1.49e+00	0	55	104	0	50	21181
2026-01-14 08:06:28.47	99.69	5.20	-40.1	-54.5	3.9	1.49e+00	0	55	104	0	49	21695
2026-01-14 08:06:29.48	99.60	5.25	-37.8	-54.0	3.8	1.49e+00	0	55	104	0	47	22832
2026-01-14 08:06:30.50	99.50	5.31	-39.2	-54.4	3.8	1.49e+00	0	55	104	0	50	20294
2026-01-14 08:06:31.51	99.41	5.37	-38.2	-54.1	4.0	1.49e+00	0	55	104	0	48	21757
2026-01-14 08:06:32.52	99.31	5.43	-39.2	-54.0	3.7	1.49e+00	0	55	104	0	48	21521
2026-01-14 08:06:33.53	99.21	5.49	-37.7	-52.4	3.9	1.49e+00	0	55	104	0	46	20159
2026-01-14 08:06:34.54	99.12	5.54	-39.6	-54.2	3.9	1.49e+00	0	55	104	0	50	19692
2026-01-14 08:06:35.54	99.02	5.60	-39.5	-53.2	4.1	1.49e+00	0	55	104	0	48	19767
2026-01-14 08:06:36.55	98.92	5.66	-40.0	-54.6	3.9	1.49e+00	0	55	104	0	50	20773
2026-01-14 08:06:37.56	98.82	5.72	-38.2	-53.6	3.9	1.49e+00	0	55	104	0	49	19535
2026-01-14 08:06:38.57	98.72	5.77	-39.3	-54.5	3.9	1.49e+00	0	56	104	0	49	21648
2026-01-14 08:06:39.58	98.63	5.83	-39.5	-54.4	3.9	1.49e+00	0	55	104	0	48	22755
2026-01-14 08:06:40.60	98.52	5.89	-38.4	-53.5	4.1	1.49e+00	0	55	104	0	45	24398
2026-01-14 08:06:41.61	98.42	5.95	-38.3	-54.3	4.0	1.49e+00	0	56	104	0	49	21036
2026-01-14 08:06:42.62	98.32	6.01	-36.0	-52.3	3.9	1.49e+00	0	56	104	0	45	21095
2026-01-14 08:06:43.63	98.22	6.07	-39.7	-54.4	3.8	1.49e+00	0	56	104	0	49	21455
2026-01-14 08:06:44.64	98.12	6.12	-35.6	-51.8	4.1	1.49e+00	0	56	104	0	42	23679
2026-01-14 08:06:45.65	98.02	6.18	-38.0	-53.7	4.0	1.49e+00	0	56	104	0	47	22079
2026-01-14 08:06:46.66	97.92	6.24	-40.1	-54.7	3.9	1.49e+00	0	56	104	0	51	19839
2026-01-14 08:06:47.67	97.82	6.30	-40.1	-54.9	3.9	1.49e+00	0	56	104	0	51	20133
2026-01-14 08:06:48.68	97.71	6.36	-39.5	-54.6	3.8	1.49e+00	0	56	104	0	51	19512
2026-01-14 08:06:49.69	97.61	6.42	-40.0	-54.7	3.8	1.49e+00	0	56	104	0	49	22215
2026-01-14 08:06:50.70	97.51	6.48	-39.9	-54.8	3.8	1.49e+00	0	56	104	0	51	20037
2026-01-14 08:06:51.71	97.40	6.53	-40.1	-54.7	3.9	1.49e+00	0	56	104	0	51	19832
2026-01-14 08:06:52.72	97.30	6.59	-40.2	-54.9	3.8	1.49e+00	0	56	104	0	51	20195
2026-01-14 08:06:53.73	97.19	6.65	-39.8	-54.7	4.0	1.49e+00	0	56	104	0	50	20841
2026-01-14 08:06:54.74	97.09	6.71	-39.8	-54.1	4.0	1.49e+00	0	56	104	0	50	19404
2026-01-14 08:06:55.75	96.98	6.77	-40.1	-54.9	3.8	1.49e+00	0	56	104	0	51	20154
2026-01-14 08:06:56.76	96.87	6.83	-40.2	-54.8	3.8	1.49e+00	0	56	104	0	50	21212
2026-01-14 08:06:57.77	96.77	6.89	-39.9	-54.8	3.9	1.49e+00	0	56	104	0	51	19870
2026-01-14 08:06:58.78	96.66	6.94	-40.1	-54.9	3.8	1.49e+00	0	56	104	0	50	21347
2026-01-14 08:06:59.79	96.55	7.00	-39.9	-54.6	3.9	1.49e+00	0	56	104	0	50	20580
2026-01-14 08:07:00.80	96.45	7.06	-39.9	-54.6	3.9	1.49e+00	0	56	104	0	50	20770
2026-01-14 08:07:01.81	96.34	7.12	-39.7	-54.6	3.9	1.49e+00	0	56	104	0	50	20669
2026-01-14 08:07:02.82	96.23	7.18	-39.8	-53.9	4.0	1.49e+00	0	56	104	0	46	23994
2026-01-14 08:07:03.83	96.12	7.24	-39.0	-53.0	4.0	1.49e+00	0	56	104	0	47	20530
2026-01-14 08:07:04.84	96.01	7.30	-38.6	-54.7	4.1	1.49e+00	0	56	104	0	49	22212
2026-01-14 08:07:05.84	95.90	7.36	-39.9	-53.4	4.2	1.49e+00	0	57	104	0	45	23937
2026-01-14 08:07:06.85	95.79	7.42	-40.2	-54.7	3.9	1.49e+00	0	56	104	0	50	21009
2026-01-14 08:07:07.86	95.68	7.48	-37.7	-53.0	3.9	1.49e+00	0	56	104	0	47	20307
2026-01-14 08:07:08.87	95.57	7.54	-39.1	-54.0	3.9	1.49e+00	0	57	104	0	49	20528
2026-01-14 08:07:09.88	95.45	7.59	-39.6	-53.9	3.7	1.49e+00	0	57	104	0	48	21262
2026-01-14 08:07:10.89	95.34	7.65	-38.8	-54.2	3.9	1.49e+00	0	56	104	0	49	21007
2026-01-14 08:07:11.90	95.23	7.71	-38.1	-53.9	3.9	1.49e+00	0	57	104	0	48	21394
2026-01-14 08:07:12.91	95.11	7.77	-37.7	-53.7	3.7	1.49e+00	0	57	104	0	49	19725
2026-01-14 08:07:13.92	95.00	7.83	-38.7	-53.6	3.9	1.49e+00	0	57	104	0	47	21932
2026-01-14 08:07:14.92	94.89	7.89	-39.7	-54.3	3.8	1.49e+00	0	57	104	0	50	20044
2026-01-14 08:07:15.93	94.77	7.95	-39.3	-53.7	3.9	1.49e+00	0	57	104	0	48	20943
2026-01-14 08:07:16.94	94.66	8.01	-39.7	-54.3	3.8	1.49e+00	0	57	104	0	49	21237
2026-01-14 08:07:17.95	94.54	8.07	-40.4	-55.1	3.8	1.49e+00	0	57	104	0	51	20770
2026-01-14 08:07:18.96	94.42	8.13	-39.0	-54.9	4.0	1.49e+00	0	57	104	0	50	21265
2026-01-14 08:07:19.97	94.31	8.19	-39.9	-54.5	3.8	1.49e+00	0	57	104	0	50	20457
2026-01-14 08:07:20.98	94.19	8.25	-40.1	-55.0	3.8	1.49e+00	0	57	104	0	50	21682
2026-01-14 08:07:21.99	94.07	8.31	-38.1	-52.9	3.6	1.49e+00	0	57	104	0	41	28381
2026-01-14 08:07:23.00	93.95	8.37	-34.5	-52.5	3.9	1.49e+00	0	57	104	0	44	22943
2026-01-14 08:07:24.01	93.83	8.43	-37.4	-53.6	4.0	1.49e+00	0	57	104	0	46	23189
2026-01-14 08:07:25.02	93.71	8.49	-39.6	-54.5	3.9	1.49e+00	0	57	104	0	49	21537
2026-01-14 08:07:26.03	93.59	8.55	-39.0	-54.1	3.8	1.49e+00	0	57	104	0	48	21923
2026-01-14 08:07:27.04	93.47	8.61	-39.9	-54.2	3.9	1.49e+00	0	57	104	0	48	22159
2026-01-14 08:07:28.05	93.35	8.67	-40.4	-55.1	3.8	1.49e+00	0	57	104	0	51	20754
2026-01-14 08:07:29.06	93.23	8.73	-40.5	-55.3	3.8	1.49e+00	0	57	104	0	51	21157
2026-01-14 08:07:30.07	93.11	8.79	-39.9	-54.6	3.8	1.49e+00	0	57	104	0	50	20706
2026-01-14 08:07:31.08	92.99	8.85	-40.1	-54.9	3.8	1.49e+00	0	57	104	0	50	21294
2026-01-14 08:07:32.09	92.86	8.91	-40.2	-54.9	3.8	1.49e+00	0	57	104	0	50	21367
2026-01-14 08:07:33.10	92.74	8.97	-40.0	-54.9	3.8	1.49e+00	0	58	104	0	50	21347
2026-01-14 08:07:34.11	92.62	9.03	-40.2	-55.1	3.8	1.49e+00	0	57	104	0	51	20751
2026-01-14 08:07:35.12	92.49	9.09	-40.2	-54.9	3.8	1.49e+00	0	57	104	0	51	20191
2026-01-14 08:07:36.13	92.37	9.15	-41.0	-55.8	3.8	1.49e+00	0	57	104	0	52	21071
2026-01-14 08:07:37.13	92.24	9.21	-40.2	-54.9	3.8	1.49e+00	0	57	104	0	52	19158
2026-01-14 08:07:38.15	92.12	9.27	-40.1	-54.8	3.8	1.49e+00	0	57	104	0	52	18872
2026-01-14 08:07:39.16	91.99	9.33	-40.3	-55.0	3.8	1.49e+00	0	57	104	0	51	20423
2026-01-14 08:07:40.17	91.86	9.39	-40.2	-54.9	3.8	1.49e+00	0	58	104	0	51	20301
2026-01-14 08:07:41.18	91.73	9.45	-40.2	-55.0	3.8	1.49e+00	0	58	104	0	51	20325
2026-01-14 08:07:42.19	91.61	9.51	-40.3	-54.9	3.8	1.49e+00	0	57	104	0	51	20300
2026-01-14 08:07:43.20	91.48	9.57	-40.3	-55.0	3.8	1.49e+00	0	58	104	0	51	20450
2026-01-14 08:07:44.21	91.35	9.63	-41.3	-55.8	3.8	1.49e+00	0	58	104	0	53	20071
2026-01-14 08:07:45.22	91.22	9.69	-40.4	-54.5	3.8	1.49e+00	0	58	104	0	52	18199
2026-01-14 08:07:46.23	91.09	9.75	-40.2	-54.8	3.8	1.49e+00	0	58	104	0	52	18776
2026-01-14 08:07:47.24	90.96	9.81	-40.3	-55.0	3.8	1.49e+00	0	58	104	0	52	19300
2026-01-14 08:07:48.25	90.83	9.87	-40.3	-54.9	3.8	1.49e+00	0	58	104	0	52	19034
2026-01-14 08:07:49.26	90.69	9.93	-40.3	-54.6	3.8	1.49e+00	0	58	104	0	52	18420
2026-01-14 08:07:50.27	90.56	9.99	-40.4	-54.2	3.8	1.49e+00	0	58	104	0	52	17668
2026-01-14 08:07:51.28	90.43	10.05	-40.7	-54.6	3.8	1.49e+00	0	58	104	0	52	18457
2026-01-14 08:07:52.29	90.29	10.11	-41.0	-55.4	3.8	1.49e+00	0	58	104	0	52	20196
2026-01-14 08:07:53.30	90.16	10.17	-41.3	-55.9	3.8	1.49e+00	0	58	104	0	53	20150
2026-01-14 08:07:54.31	90.02	10.23	-40.5	-55.1	3.8	1.49e+00	0	58	104	0	52	19433
2026-01-14 08:07:55.32	89.89	10.29	-40.6	-55.2	3.8	1.49e+00	0	58	104	0	52	19760
2026-01-14 08:07:56.33	89.75	10.35	-40.6	-55.2	3.8	1.49e+00	0	58	104	0	52	19826
2026-01-14 08:07:57.34	89.62	10.41	-40.6	-55.2	3.8	1.49e+00	0	58	104	0	52	19840
2026-01-14 08:07:58.35	89.48	10.47	-40.6	-55.3	3.8	1.49e+00	0	58	104	0	51	21084
2026-01-14 08:07:59.36	89.34	10.53	-40.7	-55.3	3.9	1.49e+00	0	58	104	0	52	19897
2026-01-14 08:08:00.37	89.20	10.59	-41.1	-55.8	3.8	1.49e+00	0	58	104	0	53	19936
2026-01-14 08:08:01.38	89.07	10.65	-40.7	-55.5	3.8	1.49e+00	0	58	104	0	53	19272
2026-01-14 08:08:02.39	88.93	10.71	-40.5	-55.3	3.8	1.49e+00	0	58	104	0	52	19973
2026-01-14 08:08:03.40	88.79	10.77	-40.7	-55.5	3.8	1.49e+00	0	58	104	0	52	20443
2026-01-14 08:08:04.41	88.65	10.83	-40.7	-55.5	3.8	1.49e+00	0	58	104	0	52	20362
2026-01-14 08:08:05.42	88.50	10.89	-40.6	-55.5	3.8	1.49e+00	0	58	104	0	52	20308
2026-01-14 08:08:06.42	88.36	10.95	-40.6	-55.5	3.8	1.49e+00	0	58	104	0	52	20360
2026-01-14 08:08:07.43	88.22	11.01	-40.7	-55.5	3.8	1.49e+00	0	58	104	0	52	20515
2026-01-14 08:08:08.44	88.08	11.06	-40.8	-55.5	3.8	1.49e+00	0	58	104	0	52	20419
2026-01-14 08:08:09.45	87.94	11.12	-40.8	-55.6	3.8	1.49e+00	0	58	104	0	52	20621
2026-01-14 08:08:10.46	87.79	11.18	-40.6	-55.4	3.8	1.49e+00	0	58	104	0	51	21304
2026-01-14 08:08:11.46	87.65	11.24	-40.6	-55.4	3.8	1.49e+00	0	58	104	0	51	21287
2026-01-14 08:08:12.47	87.50	11.30	-40.6	-55.3	3.8	1.49e+00	0	58	104	0	51	21169
2026-01-14 08:08:13.48	87.36	11.36	-40.6	-55.4	3.8	1.49e+00	0	58	104	0	51	21262
2026-01-14 08:08:14.49	87.21	11.42	-40.6	-55.3	3.8	1.49e+00	0	58	104	0	51	21219
2026-01-14 08:08:15.50	87.06	11.48	-40.6	-55.4	3.8	1.49e+00	0	58	104	0	51	21307
2026-01-14 08:08:16.51	86.92	11.54	-40.7	-55.5	3.8	1.49e+00	0	58	104	0	52	20448
2026-01-14 08:08:17.52	86.77	11.60	-40.6	-55.4	3.8	1.49e+00	0	58	104	0	52	20127
2026-01-14 08:08:18.53	86.62	11.66	-40.7	-55.4	3.8	1.49e+00	0	58	104	0	52	20185
2026-01-14 08:08:19.54	86.47	11.72	-40.6	-55.3	3.8	1.49e+00	0	58	104	0	52	20064
2026-01-14 08:08:20.55	86.32	11.78	-40.8	-55.5	3.8	1.49e+00	0	58	104	0	52	20414
2026-01-14 08:08:21.55	86.17	11.84	-40.2	-55.2	3.8	1.49e+00	0	58	104	0	52	19808
2026-01-14 08:08:22.57	86.02	11.90	-40.5	-55.4	3.8	1.49e+00	0	58	104	0	51	21440
2026-01-14 08:08:23.58	85.87	11.96	-40.5	-55.3	3.8	1.49e+00	0	58	104	0	52	19945
2026-01-14 08:08:24.59	85.71	12.02	-40.4	-55.2	3.8	1.49e+00	0	58	104	0	52	19629
2026-01-14 08:08:25.60	85.56	12.08	-40.2	-55.2	3.8	1.49e+00	0	58	104	0	52	19691
2026-01-14 08:08:26.60	85.41	12.13	-40.5	-55.3	3.8	1.49e+00	0	58	104	0	51	21106
2026-01-14 08:08:27.61	85.25	12.19	-40.6	-55.3	3.8	1.49e+00	0	58	104	0	51	21101
2026-01-14 08:08:28.62	85.10	12.25	-40.7	-55.4	3.8	1.49e+00	0	59	104	0	51	21439
2026-01-14 08:08:29.63	84.94	12.31	-40.3	-55.2	3.8	1.49e+00	0	58	104	0	51	20910
2026-01-14 08:08:30.64	84.79	12.37	-40.6	-55.3	3.8	1.49e+00	0	59	104	0	51	21241
2026-01-14 08:08:31.65	84.63	12.43	-40.5	-55.1	3.8	1.49e+00	0	59	104	0	52	19614
2026-01-14 08:08:32.66	84.47	12.49	-40.6	-55.1	3.8	1.49e+00	0	59	104	0	51	20770
2026-01-14 08:08:33.67	84.31	12.55	-40.5	-55.2	3.8	1.49e+00	0	59	104	0	51	20845
2026-01-14 08:08:34.68	84.15	12.60	-40.5	-55.1	3.8	1.49e+00	0	59	104	0	51	20743
2026-01-14 08:08:35.69	83.99	12.66	-40.5	-55.2	3.8	1.49e+00	0	59	104	0	51	20786
2026-01-14 08:08:36.69	83.84	12.72	-40.6	-55.2	3.8	1.49e+00	0	59	104	0	51	20813
2026-01-14 08:08:37.70	83.68	12.78	-40.5	-55.2	3.8	1.49e+00	0	59	104	0	51	20902
2026-01-14 08:08:38.71	83.51	12.84	-40.6	-55.2	3.8	1.49e+00	0	59	104	0	51	20918
2026-01-14 08:08:39.72	83.35	12.89	-40.9	-55.5	3.8	1.49e+00	0	59	104	0	52	20515
2026-01-14 08:08:40.73	83.19	12.95	-40.8	-55.4	3.8	1.49e+00	0	59	104	0	52	20155
2026-01-14 08:08:41.74	83.03	13.01	-40.7	-55.3	3.8	1.49e+00	0	58	104	0	52	20033
2026-01-14 08:08:42.75	82.86	13.07	-40.7	-55.3	3.8	1.49e+00	0	59	104	0	52	19987
2026-01-14 08:08:43.76	82.70	13.13	-40.7	-55.3	3.8	1.49e+00	0	59	104	0	52	20010
2026-01-14 08:08:44.77	82.53	13.18	-41.1	-55.6	3.8	1.49e+00	0	59	104	0	52	20697
2026-01-14 08:08:45.77	82.37	13.24	-40.6	-55.2	3.8	1.49e+00	0	59	104	0	53	18638
2026-01-14 08:08:46.78	82.20	13.30	-40.5	-55.1	3.8	1.49e+00	0	59	104	0	52	19498
2026-01-14 08:08:47.79	82.03	13.36	-40.6	-55.1	3.8	1.49e+00	0	59	104	0	52	19458
2026-01-14 08:08:48.80	81.87	13.41	-40.6	-55.2	3.8	1.49e+00	0	59	104	0	52	19666
2026-01-14 08:08:49.81	81.70	13.47	-40.6	-55.2	3.8	1.49e+00	0	59	104	0	52	19796
2026-01-14 08:08:50.82	81.53	13.53	-40.8	-55.3	3.8	1.49e+00	0	59	104	0	52	19922
2026-01-14 08:08:51.83	81.36	13.58	-41.0	-55.3	3.8	1.49e+00	0	59	104	0	52	20040
2026-01-14 08:08:52.84	81.19	13.64	-41.5	-55.8	3.8	1.49e+00	0	59	104	0	53	20017
2026-01-14 08:08:53.85	81.02	13.70	-40.6	-55.2	3.8	1.49e+00	0	59	104	0	53	18705
2026-01-14 08:08:54.86	80.85	13.75	-40.7	-55.3	3.8	1.49e+00	0	59	104	0	53	18756
2026-01-14 08:08:55.86	80.67	13.81	-40.8	-55.0	3.8	1.49e+00	0	59	104	0	53	18145
2026-01-14 08:08:56.87	80.50	13.87	-40.7	-54.2	3.8	1.49e+00	0	59	104	0	53	16595
2026-01-14 08:08:57.88	80.33	13.92	-40.7	-54.9	3.8	1.49e+00	0	59	104	0	53	18017
2026-01-14 08:08:58.89	80.15	13.98	-40.6	-54.8	3.8	1.49e+00	0	59	104	0	53	17689
2026-01-14 08:08:59.90	79.98	14.03	-41.6	-55.4	3.8	1.49e+00	0	59	104	0	53	18971
2026-01-14 08:09:00.91	79.80	14.09	-41.5	-53.6	3.9	1.49e+00	0	59	104	0	53	15433
2026-01-14 08:09:01.92	79.63	14.14	-41.2	-55.4	3.8	1.45e+00	0	59	104	0	53	18961
2026-01-14 08:09:02.94	79.45	14.20	-41.2	-52.0	4.4	1.49e+00	0	59	104	0	53	12864
2026-01-14 08:09:03.94	79.27	14.26	-41.3	-51.3	4.7	1.11e+00	0	59	0	1048576	53	11901
2026-01-14 08:09:04.96	79.09	14.31	-41.2	-50.5	5.0	6.93e-01	0	59	0	3145728	53	10893
2026-01-14 08:09:05.96	78.91	14.37	-41.2	-50.1	5.3	6.08e-01	0	59	0	5242880	53	10316
2026-01-14 08:09:06.97	78.73	14.42	-41.1	-50.0	5.4	5.29e-01	0	59	0	6291456	53	10198
2026-01-14 08:09:07.98	78.55	14.47	-41.1	-49.7	5.5	4.97e-01	0	59	0	8388608	53	9869
2026-01-14 08:09:08.99	78.37	14.53	-41.0	-49.7	5.6	5.00e-01	0	59	0	10485760	53	9841
2026-01-14 08:09:10.00	78.19	14.58	-41.1	-49.8	5.4	4.90e-01	0	59	0	12582912	53	10048
2026-01-14 08:09:11.01	78.01	14.64	-41.0	-49.6	5.6	4.76e-01	0	59	0	13631488	53	9719
2026-01-14 08:09:12.02	77.82	14.69	-40.9	-49.4	5.6	4.18e-01	0	59	0	15728640	53	9592
2026-01-14 08:09:13.03	77.64	14.75	-40.9	-49.5	5.6	4.12e-01	0	59	0	17825792	53	9693
2026-01-14 08:09:14.04	77.46	14.80	-40.9	-49.7	5.5	4.74e-01	0	59	0	19922944	53	9852
2026-01-14 08:09:15.04	77.27	14.85	-41.0	-50.1	5.3	5.49e-01	0	59	0	22020096	53	10329
2026-01-14 08:09:16.05	77.09	14.91	-41.0	-49.9	5.4	5.48e-01	0	60	0	23068672	53	10117
2026-01-14 08:09:17.06	76.90	14.96	-41.0	-49.9	5.4	5.29e-01	0	59	0	25165824	53	10083
2026-01-14 08:09:18.07	76.71	15.01	-41.0	-49.7	5.5	4.88e-01	0	59	0	27262976	53	9927
2026-01-14 08:09:19.08	76.52	15.06	-40.9	-49.2	5.9	3.94e-01	0	59	0	29360128	53	9331
2026-01-14 08:09:20.09	76.34	15.12	-40.9	-49.2	5.9	3.71e-01	0	59	0	31457280	53	9305
2026-01-14 08:09:21.10	76.15	15.17	-40.9	-49.1	6.0	3.49e-01	0	59	0	32505856	53	9226
2026-01-14 08:09:22.11	75.96	15.22	-40.9	-49.2	5.9	3.63e-01	0	59	0	34603008	53	9360
2026-01-14 08:09:23.12	75.77	15.27	-40.9	-49.5	5.6	4.02e-01	0	59	0	36700160	53	9710
2026-01-14 08:09:24.13	75.58	15.32	-40.9	-50.1	5.2	5.82e-01	0	60	0	38797312	53	10367
2026-01-14 08:09:25.14	75.38	15.38	-40.9	-50.0	5.2	6.08e-01	0	59	0	40894464	53	10208
2026-01-14 08:09:26.15	75.19	15.43	-40.8	-49.4	5.6	5.12e-01	0	59	0	41943040	53	9591
2026-01-14 08:09:27.16	75.00	15.48	-40.8	-49.5	5.5	4.51e-01	0	59	0	44040192	53	9666
2026-01-14 08:09:28.17	74.80	15.53	-40.8	-49.7	5.4	4.95e-01	0	59	0	46137344	53	9834
2026-01-14 08:09:29.18	74.61	15.58	-40.9	-50.0	5.2	5.62e-01	0	59	0	48234496	53	10292
2026-01-14 08:09:30.19	74.41	15.63	-40.9	-50.3	5.0	6.51e-01	0	60	0	50331648	53	10643
2026-01-14 08:09:31.20	74.22	15.68	-41.0	-50.5	5.0	7.35e-01	0	59	0	51380224	53	10811
2026-01-14 08:09:32.20	74.02	15.73	-41.0	-50.4	5.1	6.89e-01	0	59	0	53477376	53	10686
2026-01-14 08:09:33.21	73.83	15.78	-41.0	-50.1	5.2	6.17e-01	0	60	0	55574528	53	10369
2026-01-14 08:09:34.22	73.63	15.83	-40.9	-49.8	5.4	5.20e-01	0	59	0	57671680	53	9989
2026-01-14 08:09:35.23	73.43	15.88	-40.9	-49.6	5.5	4.79e-01	0	60	0	59768832	53	9747
2026-01-14 08:09:36.24	73.23	15.93	-40.9	-49.4	5.7	4.24e-01	0	60	0	60817408	53	9541
2026-01-14 08:09:37.25	73.03	15.98	-40.8	-49.4	5.7	4.31e-01	0	59	0	62914560	53	9549
2026-01-14 08:09:38.26	72.83	16.02	-40.7	-49.1	5.9	3.71e-01	0	59	0	65011712	53	9207
2026-01-14 08:09:39.27	72.63	16.07	-40.7	-48.9	6.1	3.21e-01	0	59	0	67108864	53	8971
2026-01-14 08:09:40.28	72.43	16.12	-40.8	-49.0	6.0	3.32e-01	0	60	0	69206016	53	9115
2026-01-14 08:09:41.29	72.23	16.17	-40.8	-49.0	6.0	3.37e-01	0	59	0	71303168	53	9164
2026-01-14 08:09:42.30	72.02	16.22	-40.9	-49.4	5.7	3.45e-01	0	60	0	72351744	53	9606
2026-01-14 08:09:43.31	71.82	16.26	-41.0	-49.7	5.6	4.33e-01	0	60	0	74448896	53	9848
2026-01-14 08:09:44.32	71.61	16.31	-41.0	-49.3	5.9	3.83e-01	0	59	0	76546048	53	9470
2026-01-14 08:09:45.33	71.41	16.36	-41.0	-49.2	6.0	3.25e-01	0	59	0	78643200	53	9360
2026-01-14 08:09:46.34	71.20	16.40	-41.1	-49.0	6.3	2.94e-01	0	60	0	80740352	53	9133
2026-01-14 08:09:47.35	71.00	16.45	-41.1	-48.7	6.5	2.29e-01	0	59	0	81788928	53	8855
2026-01-14 08:09:48.36	70.79	16.49	-41.1	-48.7	6.6	2.10e-01	0	60	0	83886080	53	8762
2026-01-14 08:09:49.37	70.58	16.54	-41.1	-48.2	7.1	1.67e-01	0	60	0	85983232	53	8338
2026-01-14 08:09:50.38	70.38	16.58	-41.0	-48.0	7.4	1.11e-01	0	60	0	88080384	53	8117
2026-01-14 08:09:51.39	70.17	16.63	-41.1	-47.8	7.6	1.03e-01	0	59	0	90177536	53	7952
2026-01-14 08:09:52.40	69.96	16.67	-41.1	-47.8	7.7	9.29e-02	0	60	0	91226112	53	7927
2026-01-14 08:09:53.41	69.75	16.72	-41.2	-47.9	7.7	8.43e-02	0	60	0	93323264	53	8063
2026-01-14 08:09:54.42	69.54	16.76	-41.3	-47.8	7.8	8.83e-02	0	59	0	95420416	53	7946
2026-01-14 08:09:55.43	69.33	16.80	-41.3	-48.0	7.7	9.28e-02	0	60	0	97517568	53	8090
2026-01-14 08:09:56.44	69.11	16.85	-41.4	-47.8	8.0	7.25e-02	0	60	0	99614720	53	7962
2026-01-14 08:09:57.45	68.90	16.89	-41.4	-47.8	8.1	6.08e-02	0	60	0	100663296	53	7923
2026-01-14 08:09:58.46	68.69	16.93	-41.4	-47.4	8.6	5.26e-02	0	60	0	102760448	53	7595
2026-01-14 08:09:59.46	68.48	16.98	-41.3	-46.9	9.1	2.60e-02	0	59	0	104857600	53	7200
2026-01-14 08:10:00.47	68.26	17.02	-41.3	-46.6	9.5	1.69e-02	0	60	0	106954752	53	6956
2026-01-14 08:10:01.49	68.05	17.06	-41.3	-46.5	9.7	1.22e-02	0	60	0	109051904	53	6870
2026-01-14 08:10:02.49	67.83	17.10	-41.4	-46.5	9.9	1.16e-02	0	60	0	110100480	53	6821
2026-01-14 08:10:03.50	67.62	17.14	-41.4	-46.3	10.1	6.87e-03	0	60	0	112197632	53	6721
2026-01-14 08:10:04.51	67.40	17.18	-41.2	-45.9	10.7	3.66e-03	0	60	0	114294784	53	6366
2026-01-14 08:10:05.52	67.18	17.22	-41.2	-45.7	10.9	2.38e-03	0	60	0	116391936	53	6274
2026-01-14 08:10:06.53	66.96	17.26	-41.2	-45.5	11.3	1.26e-03	0	60	0	118489088	53	6089
2026-01-14 08:10:07.54	66.75	17.30	-41.2	-45.5	11.4	9.59e-04	0	60	0	119537664	53	6067
2026-01-14 08:10:08.55	66.53	17.34	-41.2	-45.3	11.6	8.86e-04	0	60	0	121634816	53	5952
2026-01-14 08:10:09.56	66.31	17.38	-41.1	-45.2	11.9	4.87e-04	0	60	0	123731968	53	5860
2026-01-14 08:10:10.57	66.09	17.42	-41.3	-45.4	11.7	5.20e-04	0	60	0	125829120	53	6022
2026-01-14 08:10:11.58	65.87	17.45	-41.3	-45.3	11.8	4.91e-04	0	60	0	127926272	53	5991
2026-01-14 08:10:12.59	65.65	17.49	-41.2	-45.2	12.0	3.19e-04	0	60	0	128974848	53	5900
2026-01-14 08:10:13.60	65.42	17.53	-41.4	-45.4	11.8	3.61e-04	0	60	0	131072000	53	6035
2026-01-14 08:10:14.61	65.20	17.57	-41.4	-45.4	11.9	3.91e-04	0	60	0	133169152	53	6014
2026-01-14 08:10:15.62	64.98	17.60	-41.3	-45.3	12.1	3.61e-04	0	60	0	135266304	53	5947
2026-01-14 08:10:16.63	64.76	17.64	-41.5	-45.6	11.8	3.73e-04	0	60	0	137363456	53	6175
2026-01-14 08:10:17.64	64.53	17.67	-41.5	-45.6	11.7	4.31e-04	0	60	0	139460608	53	6202
2026-01-14 08:10:18.65	64.31	17.71	-41.6	-45.8	11.6	5.67e-04	0	60	0	140509184	53	6340
2026-01-14 08:10:19.66	64.08	17.74	-41.7	-46.0	11.4	8.74e-04	0	60	0	142606336	53	6464
2026-01-14 08:10:20.67	63.86	17.78	-41.7	-45.9	11.5	8.30e-04	0	60	0	144703488	54	6053
2026-01-14 08:10:21.68	63.63	17.81	-41.7	-46.0	11.5	6.83e-04	0	60	0	146800640	54	6094
2026-01-14 08:10:22.69	63.41	17.85	-41.7	-46.0	11.4	9.02e-04	0	60	0	148897792	54	6117
2026-01-14 08:10:23.70	63.18	17.88	-41.9	-46.2	11.2	9.17e-04	0	60	0	149946368	54	6264
2026-01-14 08:10:24.71	62.95	17.91	-41.7	-46.0	11.5	8.51e-04	0	60	0	152043520	54	6094
2026-01-14 08:10:25.72	62.72	17.94	-41.8	-46.1	11.4	8.50e-04	0	60	0	154140672	54	6156
2026-01-14 08:10:26.73	62.49	17.98	-41.8	-46.1	11.5	1.05e-03	0	60	0	156237824	54	6160
2026-01-14 08:10:27.73	62.27	18.01	-41.9	-46.2	11.4	9.54e-04	0	60	0	158334976	54	6220
2026-01-14 08:10:28.74	62.04	18.04	-41.9	-46.2	11.4	9.28e-04	0	60	0	159383552	54	6217
2026-01-14 08:10:29.76	61.81	18.07	-41.9	-46.3	11.2	1.10e-03	0	60	0	161480704	54	6313
2026-01-14 08:10:30.77	61.58	18.10	-42.0	-46.4	11.1	1.33e-03	0	60	0	163577856	54	6410
2026-01-14 08:10:31.78	61.35	18.13	-42.0	-46.4	11.1	1.73e-03	0	60	0	165675008	54	6414
2026-01-14 08:10:32.78	61.12	18.16	-42.1	-46.6	11.0	1.78e-03	0	60	0	167772160	54	6542
2026-01-14 08:10:33.80	60.88	18.19	-42.1	-46.8	10.7	2.65e-03	0	60	0	168820736	54	6677
2026-01-14 08:10:34.80	60.65	18.22	-42.1	-46.7	10.9	2.58e-03	0	60	0	170917888	54	6588
2026-01-14 08:10:35.81	60.42	18.24	-42.0	-46.4	11.1	1.77e-03	0	60	0	173015040	54	6420
2026-01-14 08:10:36.83	60.19	18.27	-41.8	-46.0	11.5	1.28e-03	0	60	0	175112192	54	6112
2026-01-14 08:10:37.84	59.95	18.30	-41.8	-46.0	11.6	7.84e-04	0	60	0	177209344	54	6097
2026-01-14 08:10:38.85	59.72	18.33	-41.8	-46.0	11.6	7.22e-04	0	60	0	178257920	54	6129
2026-01-14 08:10:39.85	59.49	18.35	-41.8	-46.0	11.6	6.65e-04	0	60	0	180355072	54	6117
2026-01-14 08:10:40.86	59.25	18.38	-41.8	-45.9	11.7	6.35e-04	0	60	0	182452224	54	6040
2026-01-14 08:10:41.88	59.01	18.40	-41.8	-46.0	11.6	6.23e-04	0	60	0	184549376	54	6084
2026-01-14 08:10:42.89	58.78	18.43	-41.8	-46.1	11.5	7.35e-04	0	60	0	186646528	54	6157
2026-01-14 08:10:43.89	58.55	18.45	-41.9	-46.3	11.3	1.33e-03	0	60	0	187695104	54	6347
2026-01-14 08:10:44.91	58.31	18.48	-42.0	-46.4	11.1	1.59e-03	0	60	0	189792256	54	6400
2026-01-14 08:10:45.92	58.07	18.50	-41.9	-46.3	11.3	1.36e-03	0	60	0	191889408	54	6339
2026-01-14 08:10:46.93	57.83	18.52	-41.9	-46.3	11.3	1.19e-03	0	60	0	193986560	54	6281
2026-01-14 08:10:47.93	57.60	18.54	-41.9	-46.2	11.5	9.83e-04	0	60	0	196083712	54	6221
2026-01-14 08:10:48.94	57.36	18.57	-41.9	-46.2	11.4	8.15e-04	0	60	0	197132288	54	6231
2026-01-14 08:10:49.95	57.12	18.59	-42.0	-46.4	11.2	1.32e-03	0	60	0	199229440	54	6364
2026-01-14 08:10:50.97	56.88	18.61	-42.1	-46.8	10.8	1.96e-03	0	60	0	201326592	54	6658
2026-01-14 08:10:51.98	56.65	18.63	-42.2	-47.0	10.5	3.55e-03	0	60	0	203423744	54	6875
2026-01-14 08:10:52.99	56.41	18.65	-42.4	-47.4	10.2	4.97e-03	0	60	0	205520896	55	6778
2026-01-14 08:10:54.00	56.17	18.67	-42.4	-47.5	10.1	7.59e-03	0	60	0	207618048	55	6829
2026-01-14 08:10:55.00	55.93	18.69	-42.5	-47.8	9.8	8.88e-03	0	60	0	208666624	55	7090
2026-01-14 08:10:56.01	55.69	18.70	-42.5	-47.8	9.7	1.04e-02	0	60	0	210763776	55	7079
2026-01-14 08:10:57.02	55.45	18.72	-42.4	-47.7	9.9	1.11e-02	0	60	0	212860928	55	6971
2026-01-14 08:10:58.03	55.21	18.74	-42.4	-47.5	10.0	8.35e-03	0	60	0	214958080	55	6861
2026-01-14 08:10:59.04	54.97	18.76	-42.4	-47.5	10.1	6.05e-03	0	60	0	217055232	55	6831
2026-01-14 08:11:00.05	54.73	18.77	-42.2	-47.1	10.5	4.77e-03	0	60	0	218103808	55	6552
2026-01-14 08:11:01.06	54.49	18.79	-42.1	-46.8	10.8	3.52e-03	0	60	0	220200960	55	6328
2026-01-14 08:11:02.07	54.25	18.80	-42.1	-46.9	10.7	2.46e-03	0	60	0	222298112	55	6380
2026-01-14 08:11:03.08	54.01	18.82	-42.2	-46.9	10.7	2.55e-03	0	60	0	224395264	55	6411
2026-01-14 08:11:04.09	53.76	18.83	-42.2	-47.1	10.5	3.41e-03	0	60	0	226492416	55	6548
2026-01-14 08:11:05.10	53.52	18.85	-42.2	-47.1	10.5	3.93e-03	0	60	0	227540992	55	6513
2026-01-14 08:11:06.11	53.28	18.86	-42.2	-47.1	10.4	4.06e-03	0	60	0	229638144	55	6539
2026-01-14 08:11:07.12	53.04	18.87	-42.1	-46.9	10.7	4.90e-03	0	60	0	231735296	55	6385
2026-01-14 08:11:08.13	52.79	18.88	-42.1	-46.8	10.8	2.50e-03	0	60	0	233832448	55	6317
2026-01-14 08:11:09.13	52.55	18.90	-42.1	-46.7	10.9	1.70e-03	0	60	0	235929600	55	6233
2026-01-14 08:11:10.14	52.31	18.91	-42.0	-46.4	11.2	1.50e-03	0	60	0	236978176	55	6056
2026-01-14 08:11:11.16	52.07	18.92	-41.9	-46.2	11.4	1.04e-03	0	60	0	239075328	55	5896
2026-01-14 08:11:12.17	51.82	18.93	-41.9	-46.3	11.4	8.86e-04	0	60	0	241172480	55	5940
2026-01-14 08:11:13.17	51.58	18.94	-41.9	-46.2	11.4	8.74e-04	0	60	0	243269632	55	5892
2026-01-14 08:11:14.18	51.34	18.95	-41.9	-46.3	11.4	9.25e-04	0	60	0	245366784	55	5931
2026-01-14 08:11:15.19	51.09	18.95	-41.9	-46.4	11.3	9.47e-04	0	60	0	246415360	55	6005
2026-01-14 08:11:16.20	50.85	18.96	-42.0	-46.4	11.3	9.34e-04	0	60	0	248512512	55	6017
2026-01-14 08:11:17.21	50.61	18.97	-42.0	-46.5	11.1	1.20e-03	0	60	0	250609664	55	6131
2026-01-14 08:11:18.22	50.36	18.98	-42.1	-46.6	11.0	1.68e-03	0	60	0	252706816	55	6188
2026-01-14 08:11:19.23	50.12	18.98	-42.1	-46.7	11.0	1.83e-03	0	60	0	254803968	55	6206
2026-01-14 08:11:20.24	49.87	18.99	-42.0	-46.5	11.2	1.98e-03	0	60	0	255852544	55	6096
2026-01-14 08:11:21.25	49.63	18.99	-42.1	-46.6	11.0	1.54e-03	0	60	0	257949696	55	6156
2026-01-14 08:11:22.25	49.39	19.00	-42.0	-46.5	11.1	1.40e-03	0	60	0	260046848	55	6128
2026-01-14 08:11:23.26	49.14	19.00	-42.0	-46.5	11.2	1.39e-03	0	60	0	262144000	55	6100
2026-01-14 08:11:24.28	48.90	19.01	-42.0	-46.5	11.2	1.40e-03	0	60	0	264241152	55	6081
2026-01-14 08:11:25.29	48.65	19.01	-42.0	-46.4	11.3	1.17e-03	0	60	0	265289728	55	6031
2026-01-14 08:11:26.29	48.41	19.01	-42.0	-46.4	11.3	1.23e-03	0	60	0	267386880	55	6005
2026-01-14 08:11:27.30	48.17	19.01	-42.0	-46.4	11.2	1.17e-03	0	60	0	269484032	55	6051
2026-01-14 08:11:28.31	47.92	19.01	-42.0	-46.5	11.3	1.18e-03	0	60	0	271581184	55	6067
2026-01-14 08:11:29.32	47.68	19.02	-42.0	-46.4	11.3	1.07e-03	0	60	0	273678336	55	6020
2026-01-14 08:11:30.33	47.43	19.02	-42.2	-46.8	10.9	1.84e-03	0	60	0	274726912	55	6330
2026-01-14 08:11:31.34	47.19	19.02	-42.3	-47.1	10.5	3.10e-03	0	60	0	276824064	55	6557
2026-01-14 08:11:32.35	46.94	19.01	-42.4	-47.5	10.1	5.43e-03	0	60	0	278921216	55	6838
2026-01-14 08:11:33.36	46.70	19.01	-42.5	-47.7	10.0	7.89e-03	0	60	0	281018368	55	6989
2026-01-14 08:11:34.37	46.45	19.01	-42.6	-47.9	9.8	1.02e-02	0	60	0	283115520	55	7133
2026-01-14 08:11:35.38	46.21	19.01	-42.5	-47.7	9.9	9.45e-03	0	60	0	285212672	55	7008
2026-01-14 08:11:36.39	45.96	19.01	-42.5	-47.5	10.2	8.09e-03	0	60	0	286261248	55	6852
2026-01-14 08:11:37.40	45.72	19.00	-42.4	-47.3	10.4	5.03e-03	0	60	0	288358400	55	6680
2026-01-14 08:11:38.41	45.47	19.00	-42.2	-47.0	10.7	3.19e-03	0	60	0	290455552	55	6444
2026-01-14 08:11:39.42	45.23	18.99	-42.0	-46.5	11.2	2.15e-03	0	60	0	292552704	55	6091
2026-01-14 08:11:40.43	44.99	18.99	-41.8	-46.0	11.7	7.46e-04	0	60	0	294649856	55	5741
2026-01-14 08:11:41.44	44.74	18.98	-41.7	-45.8	11.9	5.54e-04	0	60	0	295698432	55	5646
2026-01-14 08:11:42.45	44.50	18.98	-41.6	-45.4	12.3	2.59e-04	0	60	0	297795584	55	5397
2026-01-14 08:11:43.45	44.26	18.97	-41.6	-45.5	12.2	1.74e-04	0	60	0	299892736	55	5425
2026-01-14 08:11:44.46	44.01	18.96	-41.5	-45.4	12.3	1.60e-04	0	60	0	301989888	55	5369
2026-01-14 08:11:45.47	43.77	18.96	-41.6	-45.6	12.1	2.05e-04	0	61	0	304087040	55	5511
2026-01-14 08:11:46.48	43.53	18.95	-41.6	-45.5	12.3	2.50e-04	0	60	0	305135616	55	5425
2026-01-14 08:11:47.49	43.28	18.94	-41.6	-45.6	12.2	2.60e-04	0	60	0	307232768	55	5480
2026-01-14 08:11:48.50	43.04	18.93	-41.5	-45.4	12.4	1.68e-04	0	61	0	309329920	55	5341
2026-01-14 08:11:49.51	42.80	18.92	-41.5	-45.2	12.6	8.01e-05	0	60	0	311427072	54	5558
2026-01-14 08:11:50.52	42.55	18.91	-41.5	-45.2	12.5	7.85e-05	0	60	0	313524224	54	5547
2026-01-14 08:11:51.53	42.31	18.90	-41.5	-45.4	12.4	1.07e-04	0	60	0	314572800	54	5678
2026-01-14 08:11:52.54	42.07	18.89	-41.6	-45.5	12.3	1.79e-04	0	60	0	316669952	54	5727
2026-01-14 08:11:53.55	41.83	18.87	-41.6	-45.5	12.3	1.49e-04	0	60	0	318767104	54	5756
2026-01-14 08:11:54.56	41.58	18.86	-41.5	-45.3	12.4	1.62e-04	0	60	0	320864256	54	5650
2026-01-14 08:11:55.57	41.34	18.85	-41.5	-45.2	12.6	1.44e-04	0	61	0	322961408	54	5576
2026-01-14 08:11:56.58	41.10	18.84	-41.4	-45.1	12.7	9.07e-05	0	60	0	324009984	54	5496
2026-01-14 08:11:57.59	40.86	18.82	-41.4	-45.1	12.7	6.63e-05	0	60	0	326107136	54	5521
2026-01-14 08:11:58.60	40.62	18.81	-41.4	-45.0	12.8	5.72e-05	0	60	0	328204288	54	5457
2026-01-14 08:11:59.61	40.38	18.79	-41.2	-44.8	13.1	5.34e-05	0	60	0	330301440	54	5285
2026-01-14 08:12:00.62	40.13	18.78	-41.3	-44.8	13.0	3.28e-05	0	60	0	332398592	54	5337
2026-01-14 08:12:01.63	39.89	18.76	-41.3	-44.9	12.9	4.57e-05	0	61	0	333447168	54	5360
2026-01-14 08:12:02.64	39.65	18.74	-41.4	-45.0	12.8	4.34e-05	0	61	0	335544320	54	5407
2026-01-14 08:12:03.65	39.41	18.73	-41.4	-45.0	12.8	5.79e-05	0	60	0	337641472	54	5426
2026-01-14 08:12:04.65	39.18	18.71	-41.5	-45.2	12.6	8.69e-05	0	60	0	339738624	54	5547
2026-01-14 08:12:05.66	38.94	18.69	-41.6	-45.3	12.5	1.20e-04	0	60	0	341835776	54	5632
2026-01-14 08:12:06.67	38.70	18.67	-41.6	-45.3	12.5	1.07e-04	0	60	0	342884352	54	5645
2026-01-14 08:12:07.68	38.46	18.65	-41.6	-45.5	12.3	1.43e-04	0	60	0	344981504	54	5754
2026-01-14 08:12:08.69	38.22	18.63	-41.6	-45.5	12.2	2.19e-04	0	60	0	347078656	54	5761
2026-01-14 08:12:09.70	37.98	18.61	-41.7	-45.6	12.2	2.65e-04	0	60	0	349175808	54	5821
2026-01-14 08:12:10.71	37.74	18.59	-41.8	-45.8	11.9	3.72e-04	0	60	0	351272960	54	5990
2026-01-14 08:12:11.72	37.51	18.57	-41.8	-45.9	11.8	4.39e-04	0	60	0	353370112	54	6040
2026-01-14 08:12:12.74	37.27	18.55	-41.8	-45.9	11.8	4.80e-04	0	60	0	354418688	54	6028
2026-01-14 08:12:13.74	37.03	18.53	-41.7	-45.7	12.0	4.04e-04	0	60	0	356515840	54	5920
2026-01-14 08:12:14.75	36.80	18.50	-41.8	-45.9	11.8	4.62e-04	0	61	0	358612992	54	6059
2026-01-14 08:12:15.76	36.56	18.48	-41.8	-45.9	11.9	4.00e-04	0	60	0	360710144	54	5995
2026-01-14 08:12:16.77	36.33	18.46	-42.0	-46.3	11.4	7.26e-04	0	61	0	362807296	54	6317
2026-01-14 08:12:17.78	36.09	18.43	-42.1	-46.5	11.2	1.05e-03	0	60	0	363855872	54	6486
2026-01-14 08:12:18.79	35.85	18.41	-42.3	-47.0	10.7	1.79e-03	0	61	0	365953024	55	6456
2026-01-14 08:12:19.80	35.62	18.38	-42.3	-47.0	10.6	3.19e-03	0	60	0	368050176	55	6485
2026-01-14 08:12:20.81	35.39	18.36	-42.5	-47.5	10.2	5.38e-03	0	60	0	370147328	55	6851
2026-01-14 08:12:21.82	35.15	18.33	-42.6	-47.8	9.9	9.09e-03	0	60	0	372244480	55	7042
2026-01-14 08:12:22.83	34.92	18.31	-42.6	-47.7	9.9	1.10e-02	0	60	0	373293056	55	7016
2026-01-14 08:12:23.83	34.69	18.28	-42.7	-48.0	9.7	1.01e-02	0	61	0	375390208	55	7256
2026-01-14 08:12:24.84	34.46	18.25	-42.6	-47.8	9.8	9.38e-03	0	60	0	377487360	55	7094
2026-01-14 08:12:25.85	34.22	18.22	-42.5	-47.5	10.2	6.10e-03	0	61	0	379584512	55	6816
2026-01-14 08:12:26.86	33.99	18.20	-42.4	-47.3	10.5	4.44e-03	0	61	0	381681664	55	6648
2026-01-14 08:12:27.87	33.76	18.17	-42.4	-47.4	10.3	5.10e-03	0	60	0	382730240	55	6771
2026-01-14 08:12:28.88	33.53	18.14	-42.3	-47.2	10.6	4.43e-03	0	60	0	384827392	55	6605
2026-01-14 08:12:29.89	33.30	18.11	-42.3	-47.2	10.5	5.31e-03	0	61	0	386924544	55	6596
2026-01-14 08:12:30.90	33.07	18.08	-42.3	-47.0	10.7	3.65e-03	0	60	0	389021696	55	6479
2026-01-14 08:12:31.91	32.84	18.05	-42.3	-47.0	10.7	3.25e-03	0	60	0	391118848	55	6453
2026-01-14 08:12:32.92	32.61	18.02	-42.3	-47.1	10.7	2.42e-03	0	60	0	392167424	55	6500
2026-01-14 08:12:33.93	32.38	17.98	-42.3	-47.0	10.7	2.30e-03	0	60	0	394264576	55	6455
2026-01-14 08:12:34.94	32.16	17.95	-42.4	-47.3	10.4	3.50e-03	0	60	0	396361728	55	6674
2026-01-14 08:12:35.95	31.93	17.92	-42.4	-47.4	10.2	5.66e-03	0	60	0	398458880	55	6796
2026-01-14 08:12:36.96	31.70	17.89	-42.4	-47.4	10.4	6.69e-03	0	60	0	400556032	55	6732
2026-01-14 08:12:37.97	31.47	17.86	-42.4	-47.4	10.3	5.15e-03	0	60	0	401604608	55	6775
2026-01-14 08:12:38.98	31.25	17.82	-42.3	-47.1	10.6	3.99e-03	0	61	0	403701760	55	6522
2026-01-14 08:12:39.99	31.02	17.79	-42.2	-46.9	10.8	2.24e-03	0	60	0	405798912	55	6376
2026-01-14 08:12:40.99	30.80	17.75	-42.2	-46.8	10.8	1.80e-03	0	61	0	407896064	55	6344
2026-01-14 08:12:42.00	30.58	17.72	-42.2	-46.7	11.0	1.92e-03	0	61	0	409993216	55	6241
2026-01-14 08:12:43.01	30.35	17.68	-42.1	-46.7	11.0	1.90e-03	0	61	0	411041792	55	6223
2026-01-14 08:12:44.02	30.13	17.65	-42.2	-46.8	10.8	2.19e-03	0	60	0	413138944	55	6343
2026-01-14 08:12:45.03	29.91	17.61	-42.2	-46.9	10.7	2.71e-03	0	60	0	415236096	55	6420
2026-01-14 08:12:46.04	29.68	17.58	-42.2	-46.8	10.9	2.70e-03	0	61	0	417333248	55	6302
2026-01-14 08:12:47.05	29.46	17.54	-42.1	-46.7	11.0	1.63e-03	0	61	0	419430400	55	6253
2026-01-14 08:12:48.06	29.24	17.50	-42.2	-46.7	11.0	2.03e-03	0	61	0	421527552	55	6273
2026-01-14 08:12:49.07	29.02	17.47	-42.2	-46.8	10.9	2.01e-03	0	60	0	422576128	55	6286
2026-01-14 08:12:50.08	28.80	17.43	-42.1	-46.6	11.1	2.05e-03	0	61	0	424673280	55	6191
2026-01-14 08:12:51.09	28.58	17.39	-42.0	-46.4	11.3	1.32e-03	0	61	0	426770432	55	6049
2026-01-14 08:12:52.10	28.36	17.35	-41.9	-46.2	11.5	8.34e-04	0	60	0	428867584	55	5899
2026-01-14 08:12:53.11	28.14	17.31	-41.8	-46.0	11.7	6.26e-04	0	61	0	430964736	55	5768
2026-01-14 08:12:54.12	27.93	17.27	-41.8	-45.8	11.9	4.74e-04	0	60	0	432013312	55	5629
2026-01-14 08:12:55.13	27.71	17.23	-41.7	-45.6	12.1	2.37e-04	0	60	0	434110464	55	5513
2026-01-14 08:12:56.14	27.49	17.19	-41.6	-45.5	12.2	1.68e-04	0	61	0	436207616	55	5427
2026-01-14 08:12:57.15	27.28	17.15	-41.6	-45.5	12.2	2.01e-04	0	60	0	438304768	55	5438
2026-01-14 08:12:58.16	27.06	17.11	-41.6	-45.4	12.3	2.10e-04	0	60	0	440401920	55	5364
2026-01-14 08:12:59.17	26.85	17.07	-41.5	-45.4	12.3	2.17e-04	0	61	0	441450496	55	5365
2026-01-14 08:13:00.18	26.63	17.03	-41.6	-45.4	12.3	1.93e-04	0	61	0	443547648	55	5390
2026-01-14 08:13:01.19	26.42	16.99	-41.6	-45.6	12.1	2.17e-04	0	61	0	445644800	55	5502
2026-01-14 08:13:02.20	26.20	16.95	-41.8	-45.9	11.8	3.56e-04	0	61	0	447741952	55	5670
2026-01-14 08:13:03.21	25.99	16.90	-42.0	-46.5	11.2	9.11e-04	0	61	0	449839104	55	6089
2026-01-14 08:13:04.22	25.78	16.86	-42.3	-47.1	10.5	2.26e-03	0	61	0	450887680	55	6533
2026-01-14 08:13:05.22	25.57	16.82	-42.5	-47.6	10.0	6.52e-03	0	60	0	452984832	55	6936
2026-01-14 08:13:06.24	25.36	16.78	-42.5	-47.6	10.0	1.04e-02	0	61	0	455081984	55	6920
2026-01-14 08:13:07.24	25.15	16.73	-42.6	-47.9	9.7	8.11e-03	0	61	0	457179136	55	7146
2026-01-14 08:13:08.25	24.94	16.69	-42.6	-47.8	9.8	1.00e-02	0	61	0	459276288	55	7112
2026-01-14 08:13:09.26	24.73	16.64	-42.5	-47.7	9.9	7.56e-03	0	61	0	460324864	55	7032
2026-01-14 08:13:10.27	24.52	16.60	-42.4	-47.4	10.2	7.18e-03	0	61	0	462422016	55	6759
2026-01-14 08:13:11.28	24.32	16.55	-42.4	-47.4	10.2	5.80e-03	0	60	0	464519168	55	6780
2026-01-14 08:13:12.29	24.11	16.51	-42.4	-47.6	10.0	8.74e-03	0	61	0	466616320	55	6912
2026-01-14 08:13:13.30	23.90	16.46	-42.5	-47.7	9.9	8.52e-03	0	60	0	468713472	55	6980
2026-01-14 08:13:14.31	23.70	16.42	-42.6	-48.2	9.3	1.21e-02	0	61	0	469762048	55	7378
2026-01-14 08:13:15.32	23.49	16.37	-42.7	-48.2	9.4	1.50e-02	0	61	0	471859200	55	7422
2026-01-14 08:13:16.33	23.29	16.33	-42.6	-48.0	9.6	1.25e-02	0	61	0	473956352	55	7246
2026-01-14 08:13:17.34	23.09	16.28	-42.6	-47.9	9.6	1.47e-02	0	61	0	476053504	55	7200
2026-01-14 08:13:18.35	22.88	16.23	-42.6	-48.0	9.6	1.53e-02	0	61	0	478150656	55	7207
2026-01-14 08:13:19.36	22.68	16.18	-42.5	-47.6	10.0	1.08e-02	0	61	0	479199232	55	6941
2026-01-14 08:13:20.37	22.48	16.14	-42.3	-47.3	10.3	5.15e-03	0	61	0	481296384	55	6660
2026-01-14 08:13:21.38	22.28	16.09	-42.3	-47.1	10.5	4.02e-03	0	61	0	483393536	55	6565
2026-01-14 08:13:22.39	22.08	16.04	-42.3	-47.1	10.5	3.64e-03	0	61	0	485490688	55	6506
2026-01-14 08:13:23.39	21.88	15.99	-42.2	-46.9	10.7	3.89e-03	0	61	0	487587840	55	6378
2026-01-14 08:13:24.40	21.68	15.95	-42.1	-46.9	10.7	2.71e-03	0	61	0	489684992	55	6362
2026-01-14 08:13:25.41	21.48	15.90	-42.1	-46.9	10.7	3.50e-03	0	61	0	490733568	55	6348
2026-01-14 08:13:26.42	21.28	15.85	-42.0	-46.5	11.1	1.92e-03	0	61	0	492830720	55	6087
2026-01-14 08:13:27.43	21.09	15.80	-41.9	-46.2	11.3	1.08e-03	0	61	0	494927872	55	5910
2026-01-14 08:13:28.44	20.89	15.75	-42.0	-46.5	11.2	1.40e-03	0	61	0	497025024	55	6070
2026-01-14 08:13:29.45	20.69	15.70	-42.0	-46.6	11.0	1.72e-03	0	61	0	499122176	55	6143
2026-01-14 08:13:30.46	20.50	15.65	-42.1	-46.8	10.8	2.49e-03	0	61	0	500170752	55	6337
2026-01-14 08:13:31.47	20.30	15.60	-42.3	-47.3	10.3	3.87e-03	0	61	0	502267904	55	6651
2026-01-14 08:13:32.48	20.11	15.55	-42.4	-47.6	9.9	6.90e-03	0	61	0	504365056	55	6940
2026-01-14 08:13:33.49	19.92	15.50	-42.4	-47.7	9.8	1.01e-02	0	61	0	506462208	55	6978
2026-01-14 08:13:34.50	19.73	15.45	-42.4	-47.5	10.0	9.27e-03	0	61	0	507510784	55	6858
2026-01-14 08:13:35.51	19.53	15.40	-42.3	-47.2	10.3	6.81e-03	0	61	0	509607936	55	6635
2026-01-14 08:13:36.52	19.34	15.35	-42.1	-46.8	10.7	3.21e-03	0	61	0	511705088	55	6325
2026-01-14 08:13:37.53	19.15	15.29	-42.0	-46.5	11.1	1.96e-03	0	61	0	513802240	55	6096
2026-01-14 08:13:38.54	18.96	15.24	-42.0	-46.5	11.0	1.81e-03	0	61	0	515899392	55	6131
2026-01-14 08:13:39.55	18.77	15.19	-41.9	-46.4	11.2	1.31e-03	0	61	0	517996544	55	6021
2026-01-14 08:13:40.56	18.58	15.14	-42.1	-46.7	10.8	2.06e-03	0	61	0	519045120	55	6247
2026-01-14 08:13:41.57	18.40	15.09	-42.1	-46.9	10.6	3.87e-03	0	60	0	521142272	55	6385
2026-01-14 08:13:42.58	18.21	15.03	-42.3	-47.4	10.1	4.67e-03	0	61	0	523239424	55	6752
2026-01-14 08:13:43.59	18.02	14.98	-42.4	-47.7	9.8	8.56e-03	0	61	0	525336576	55	6994
2026-01-14 08:13:44.60	17.84	14.93	-42.6	-48.3	9.2	1.81e-02	0	61	0	527433728	55	7481
2026-01-14 08:13:45.61	17.65	14.87	-42.7	-48.5	8.9	2.48e-02	0	61	0	528482304	55	7687
2026-01-14 08:13:46.62	17.47	14.82	-42.9	-48.8	8.8	2.93e-02	0	61	0	530579456	56	7533
2026-01-14 08:13:47.63	17.28	14.77	-43.0	-49.2	8.4	4.21e-02	0	61	0	532676608	56	7821
2026-01-14 08:13:48.64	17.10	14.71	-43.0	-49.2	8.4	4.62e-02	0	61	0	534773760	56	7865
2026-01-14 08:13:49.65	16.92	14.66	-42.9	-48.9	8.6	4.03e-02	0	61	0	536870912	56	7587
2026-01-14 08:13:50.66	16.74	14.61	-42.9	-48.7	8.8	3.17e-02	0	61	0	537919488	56	7456
2026-01-14 08:13:51.67	16.56	14.55	-42.9	-48.8	8.7	2.75e-02	0	61	0	540016640	56	7534
2026-01-14 08:13:52.68	16.37	14.50	-42.9	-48.8	8.7	3.16e-02	0	61	0	542113792	56	7487
2026-01-14 08:13:53.69	16.20	14.44	-42.7	-48.4	9.1	2.31e-02	0	61	0	544210944	56	7177
2026-01-14 08:13:54.70	16.02	14.39	-42.8	-48.5	9.0	2.22e-02	0	61	0	546308096	56	7286
2026-01-14 08:13:55.71	15.84	14.33	-42.7	-48.4	9.1	2.24e-02	0	61	0	547356672	56	7165
2026-01-14 08:13:56.72	15.66	14.28	-42.7	-48.4	9.1	2.16e-02	0	61	0	549453824	56	7162
2026-01-14 08:13:57.73	15.48	14.22	-42.6	-48.2	9.3	1.57e-02	0	61	0	551550976	56	6977
2026-01-14 08:13:58.74	15.31	14.17	-42.6	-47.9	9.5	1.46e-02	0	61	0	553648128	56	6797
2026-01-14 08:13:59.75	15.13	14.11	-42.4	-47.6	9.9	1.16e-02	0	61	0	555745280	56	6567
2026-01-14 08:14:00.74	14.96	14.06	-42.4	-47.6	9.9	1.06e-02	0	61	0	556793856	56	6553
2026-01-14 08:14:01.75	14.78	14.00	-42.5	-47.8	9.8	9.61e-03	0	61	0	558891008	56	6650
2026-01-14 08:14:02.76	14.61	13.95	-42.6	-48.1	9.4	1.27e-02	0	61	0	560988160	56	6940
2026-01-14 08:14:03.77	14.44	13.89	-42.6	-48.3	9.2	1.83e-02	0	61	0	563085312	56	7054
2026-01-14 08:14:04.78	14.27	13.84	-42.6	-48.3	9.1	2.36e-02	0	61	0	565182464	56	7099
2026-01-14 08:14:05.78	14.10	13.78	-42.6	-48.4	9.0	2.80e-02	0	61	0	566231040	56	7158
2026-01-14 08:14:06.79	13.92	13.72	-42.6	-48.4	9.0	2.54e-02	0	61	0	568328192	56	7158
2026-01-14 08:14:07.80	13.75	13.67	-42.5	-48.1	9.3	2.23e-02	0	61	0	570425344	56	6893
2026-01-14 08:14:08.81	13.58	13.61	-42.5	-48.0	9.3	1.89e-02	0	61	0	572522496	56	6856
2026-01-14 08:14:09.82	13.42	13.55	-42.4	-47.8	9.5	1.41e-02	0	61	0	574619648	56	6669
2026-01-14 08:14:10.83	13.25	13.50	-42.3	-47.5	9.8	1.09e-02	0	61	0	575668224	56	6480
2026-01-14 08:14:11.84	13.08	13.44	-42.2	-47.5	9.8	1.09e-02	0	61	0	577765376	56	6431
2026-01-14 08:14:12.85	12.91	13.38	-42.1	-47.2	10.0	9.84e-03	0	61	0	579862528	56	6207
2026-01-14 08:14:13.86	12.75	13.33	-42.2	-47.3	9.9	8.29e-03	0	61	0	581959680	56	6343
2026-01-14 08:14:14.87	12.58	13.27	-42.2	-47.6	9.7	1.06e-02	0	61	0	584056832	56	6500
2026-01-14 08:14:15.88	12.41	13.21	-42.2	-47.6	9.6	1.21e-02	0	61	0	586153984	56	6534
2026-01-14 08:14:16.89	12.25	13.15	-42.2	-47.6	9.5	1.26e-02	0	61	0	587202560	56	6558
2026-01-14 08:14:17.90	12.09	13.10	-42.3	-47.8	9.2	1.62e-02	0	61	0	589299712	56	6717
2026-01-14 08:14:18.91	11.92	13.04	-42.3	-47.9	9.1	2.07e-02	0	61	0	591396864	56	6775
2026-01-14 08:14:19.92	11.76	12.98	-42.3	-48.1	8.8	2.70e-02	0	61	0	593494016	56	6915
2026-01-14 08:14:20.93	11.60	12.92	-42.3	-48.2	8.7	3.12e-02	0	61	0	595591168	56	6979
2026-01-14 08:14:21.94	11.44	12.87	-42.3	-48.2	8.7	3.34e-02	0	61	0	596639744	56	7001
2026-01-14 08:14:22.95	11.28	12.81	-42.3	-48.4	8.5	4.19e-02	0	61	0	598736896	56	7156
2026-01-14 08:14:23.96	11.12	12.75	-42.3	-48.4	8.4	4.42e-02	0	61	0	600834048	56	7158
2026-01-14 08:14:24.97	10.96	12.69	-42.3	-48.3	8.4	4.43e-02	0	61	0	602931200	56	7078
2026-01-14 08:14:25.98	10.80	12.63	-42.0	-47.9	8.8	3.18e-02	0	61	0	605028352	56	6756
2026-01-14 08:14:26.98	10.64	12.58	-41.6	-47.1	9.2	2.29e-02	0	61	0	606076928	55	6556
2026-01-14 08:14:27.99	10.49	12.52	-41.4	-46.8	9.5	1.64e-02	0	61	0	608174080	54	6720
2026-01-14 08:14:29.00	10.33	12.46	-41.4	-46.8	9.4	1.69e-02	0	61	0	610271232	54	6699
2026-01-14 08:14:30.01	10.17	12.40	-41.2	-46.6	9.5	1.38e-02	0	61	0	612368384	54	6517
2026-01-14 08:14:31.02	10.02	12.34	-41.0	-46.2	9.8	1.15e-02	0	61	0	614465536	54	6243
2026-01-14 08:14:32.03	9.86	12.28	-41.0	-46.2	9.8	9.75e-03	0	61	0	615514112	53	6583
2026-01-14 08:14:33.04	9.71	12.23	-40.8	-45.8	10.1	7.50e-03	0	61	0	617611264	53	6293
2026-01-14 08:14:34.05	9.55	12.17	-40.7	-45.6	10.3	4.99e-03	0	61	0	619708416	53	6143
2026-01-14 08:14:35.06	9.40	12.11	-40.5	-45.2	10.6	3.20e-03	0	61	0	621805568	52	6231
2026-01-14 08:14:36.07	9.25	12.05	-40.5	-45.4	10.3	4.17e-03	0	61	0	623902720	52	6413
2026-01-14 08:14:37.08	9.10	11.99	-40.5	-45.4	10.3	5.54e-03	0	61	0	624951296	52	6395
2026-01-14 08:14:38.09	8.95	11.93	-40.6	-45.9	9.7	8.24e-03	0	61	0	627048448	52	6748
2026-01-14 08:14:39.10	8.80	11.87	-40.7	-46.3	9.1	1.93e-02	0	61	0	629145600	52	7112
2026-01-14 08:14:40.11	8.65	11.81	-40.8	-46.9	8.5	3.45e-02	0	61	0	631242752	52	7582
2026-01-14 08:14:41.12	8.50	11.75	-40.9	-47.4	7.9	6.06e-02	0	61	0	633339904	52	8063
2026-01-14 08:14:42.13	8.35	11.69	-41.0	-48.3	7.0	9.98e-02	0	61	0	634388480	52	8910
2026-01-14 08:14:43.14	8.20	11.64	-41.1	-48.9	6.4	2.03e-01	0	61	0	636485632	52	9583
2026-01-14 08:14:44.15	8.05	11.58	-41.2	-49.6	5.8	3.29e-01	0	61	0	638582784	52	10408
2026-01-14 08:14:45.16	7.91	11.52	-41.2	-50.3	5.3	4.51e-01	0	61	0	640679936	52	11166
2026-01-14 08:14:46.17	7.76	11.46	-41.2	-51.1	4.8	7.28e-01	0	61	0	642777088	52	12352
2026-01-14 08:14:47.18	7.61	11.40	-41.2	-52.0	4.4	1.04e+00	0	61	0	643825664	53	12914
2026-01-14 08:14:48.19	7.47	11.34	-41.2	-52.8	4.1	1.36e+00	0	61	0	644874240	53	14192
2026-01-14 08:14:49.20	7.33	11.28	-41.2	-53.7	3.8	1.48e+00	0	61	104	644874240	53	15759
2026-01-14 08:14:50.21	7.18	11.22	-41.2	-54.5	3.8	1.49e+00	0	61	104	644874240	53	17162
2026-01-14 08:14:51.22	7.04	11.16	-41.1	-55.0	3.8	1.49e+00	0	61	104	644874240	53	18268
2026-01-14 08:14:52.23	6.90	11.10	-41.1	-55.3	3.8	1.49e+00	0	61	104	644874240	53	18853
2026-01-14 08:14:53.24	6.75	11.04	-41.0	-55.4	3.8	1.49e+00	0	61	104	644874240	53	19001
2026-01-14 08:14:54.26	6.61	10.98	-40.9	-55.4	3.8	1.49e+00	0	61	104	644874240	53	19051
2026-01-14 08:14:55.27	6.47	10.92	-40.8	-55.4	3.8	1.49e+00	0	61	104	644874240	53	19013
2026-01-14 08:14:56.28	6.33	10.86	-41.3	-55.2	3.8	1.49e+00	0	61	104	644874240	53	18661
2026-01-14 08:14:57.28	6.19	10.80	-40.3	-54.8	3.8	1.49e+00	0	61	104	644874240	52	18877
2026-01-14 08:14:58.29	6.05	10.74	-40.2	-54.8	3.8	1.49e+00	0	61	104	644874240	52	18853
2026-01-14 08:14:59.30	5.91	10.68	-40.4	-55.0	3.8	1.49e+00	0	61	104	644874240	52	19319
2026-01-14 08:15:00.31	5.78	10.62	-40.2	-54.9	3.8	1.49e+00	0	61	104	644874240	52	19022
2026-01-14 08:15:01.32	5.64	10.56	-40.2	-54.9	3.8	1.49e+00	0	61	104	644874240	52	18988
2026-01-14 08:15:02.33	5.50	10.50	-40.2	-54.8	3.8	1.49e+00	0	61	104	644874240	52	18905
2026-01-14 08:15:03.34	5.37	10.44	-40.2	-54.9	3.8	1.49e+00	0	61	104	644874240	52	19044
2026-01-14 08:15:04.35	5.23	10.38	-40.7	-55.4	3.8	1.49e+00	0	61	104	644874240	52	20167
2026-01-14 08:15:05.36	5.10	10.32	-40.4	-55.1	3.8	1.49e+00	0	61	104	644874240	52	19506
2026-01-14 08:15:06.37	4.96	10.26	-40.6	-55.3	3.8	1.49e+00	0	61	104	644874240	52	20021
2026-01-14 08:15:07.38	4.83	10.20	-40.1	-54.8	3.8	1.49e+00	0	61	104	644874240	52	18802
2026-01-14 08:15:08.39	4.69	10.15	-40.1	-54.8	3.8	1.49e+00	0	61	104	644874240	52	18737
2026-01-14 08:15:09.40	4.56	10.09	-40.1	-54.7	3.8	1.49e+00	0	61	104	644874240	52	18694
2026-01-14 08:15:10.41	4.43	10.03	-40.0	-54.7	3.8	1.49e+00	0	61	104	644874240	52	18700
2026-01-14 08:15:11.42	4.30	9.97	-40.1	-54.8	3.8	1.49e+00	0	61	104	644874240	52	18917
2026-01-14 08:15:12.43	4.17	9.91	-40.2	-54.9	3.8	1.49e+00	0	61	104	644874240	52	19142
2026-01-14 08:15:13.44	4.04	9.85	-40.4	-55.1	3.8	1.49e+00	0	61	104	644874240	52	19541
2026-01-14 08:15:14.45	3.91	9.79	-40.3	-55.0	3.8	1.49e+00	0	61	104	644874240	52	19289
2026-01-14 08:15:15.46	3.78	9.73	-40.2	-54.9	3.8	1.49e+00	0	61	104	644874240	52	19044
2026-01-14 08:15:16.47	3.65	9.67	-40.2	-54.9	3.8	1.49e+00	0	61	104	644874240	52	19133
2026-01-14 08:15:17.48	3.52	9.61	-40.0	-54.8	3.8	1.49e+00	0	61	104	644874240	52	18733
2026-01-14 08:15:18.49	3.39	9.55	-40.1	-54.9	3.8	1.49e+00	0	61	104	644874240	51	20171
2026-01-14 08:15:19.50	3.26	9.49	-40.1	-54.9	3.8	1.49e+00	0	61	104	644874240	51	20133
2026-01-14 08:15:20.51	3.14	9.43	-40.1	-54.8	3.8	1.49e+00	0	61	104	644874240	51	20019
2026-01-14 08:15:21.52	3.01	9.37	-40.3	-55.0	3.8	1.49e+00	0	61	104	644874240	51	20406
2026-01-14 08:15:22.53	2.88	9.31	-40.1	-54.9	3.8	1.49e+00	0	61	104	644874240	51	20091
2026-01-14 08:15:23.54	2.76	9.25	-40.1	-54.8	3.8	1.49e+00	0	61	104	644874240	51	19998
2026-01-14 08:15:24.55	2.63	9.19	-40.1	-54.8	3.8	1.49e+00	0	61	104	644874240	51	20032
2026-01-14 08:15:25.56	2.51	9.13	-40.2	-54.8	3.8	1.49e+00	0	61	104	644874240	51	20001
2026-01-14 08:15:26.58	2.39	9.07	-40.1	-54.8	3.8	1.49e+00	0	61	104	644874240	51	19974
2026-01-14 08:15:27.59	2.26	9.01	-40.1	-54.8	3.8	1.49e+00	0	61	104	644874240	51	20025
2026-01-14 08:15:28.60	2.14	8.95	-40.1	-54.8	3.8	1.49e+00	0	61	104	644874240	51	20008
2026-01-14 08:15:29.61	2.02	8.89	-40.1	-54.9	3.8	1.49e+00	0	61	104	644874240	51	20175
2026-01-14 08:15:30.62	1.90	8.83	-40.2	-54.8	3.8	1.49e+00	0	61	104	644874240	51	20028
2026-01-14 08:15:31.63	1.78	8.77	-40.1	-54.8	3.8	1.49e+00	0	61	104	644874240	51	20064
2026-01-14 08:15:32.63	1.66	8.71	-40.1	-54.8	3.8	1.49e+00	0	61	104	644874240	51	20030
2026-01-14 08:15:33.64	1.54	8.65	-39.9	-54.8	3.8	1.49e+00	0	61	104	644874240	51	19857
2026-01-14 08:15:34.66	1.42	8.59	-40.1	-54.8	3.8	1.49e+00	0	61	104	644874240	51	20026
2026-01-14 08:15:35.67	1.30	8.53	-39.9	-54.7	3.8	1.49e+00	0	61	104	644874240	51	19795
2026-01-14 08:15:36.68	1.18	8.47	-40.0	-54.8	3.8	1.49e+00	0	61	104	644874240	51	19943
2026-01-14 08:15:37.69	1.06	8.41	-40.0	-54.8	3.8	1.49e+00	0	61	104	644874240	51	19962
2026-01-14 08:15:38.70	0.94	8.35	-39.9	-54.8	3.8	1.49e+00	0	61	104	644874240	51	19884
2026-01-14 08:15:39.71	0.83	8.29	-39.9	-54.8	3.8	1.49e+00	0	61	104	644874240	51	19880
2026-01-14 08:15:40.72	0.71	8.23	-39.9	-54.7	3.8	1.49e+00	0	61	104	644874240	51	19825
2026-01-14 08:15:41.73	0.59	8.17	-39.8	-54.7	3.8	1.49e+00	0	61	104	644874240	51	19827
2026-01-14 08:15:42.74	0.48	8.11	-39.8	-54.7	3.8	1.49e+00	0	61	104	644874240	51	19828
2026-01-14 08:15:43.75	0.36	8.06	-39.8	-54.7	3.8	1.49e+00	0	61	104	644874240	51	19815
2026-01-14 08:15:44.76	0.25	8.00	-40.0	-54.8	3.8	1.49e+00	0	61	104	644874240	51	19893
2026-01-14 08:15:45.77	0.13	7.94	-42.3	-57.0	3.8	1.49e+00	0	61	104	644874240	55	20510
2026-01-14 08:15:46.78	0.02	7.88	-44.7	-59.3	3.8	1.49e+00	0	61	104	644874240	60	20005
2026-01-14 08:15:47.79	359.91	7.82	-45.1	-59.7	3.8	1.49e+00	0	61	104	644874240	60	20929
2026-01-14 08:15:48.80	359.79	7.76	-45.3	-59.9	3.8	1.49e+00	0	61	104	644874240	61	20168
2026-01-14 08:15:49.81	359.68	7.70	-45.4	-60.0	3.8	1.49e+00	0	61	104	644874240	61	20403
2026-01-14 08:15:50.82	359.57	7.64	-45.5	-60.1	3.8	1.49e+00	0	61	104	644874240	61	20569
2026-01-14 08:15:51.83	359.46	7.58	-45.4	-60.1	3.8	1.49e+00	0	61	104	644874240	61	20678
2026-01-14 08:15:52.84	359.35	7.52	-45.5	-60.1	3.8	1.49e+00	0	61	104	644874240	61	20634
2026-01-14 08:15:53.85	359.24	7.46	-45.5	-60.1	3.8	1.49e+00	0	61	104	644874240	61	20668
2026-01-14 08:15:54.86	359.13	7.40	-45.5	-60.0	3.8	1.49e+00	0	61	104	644874240	61	20446
2026-01-14 08:15:55.87	359.02	7.35	-45.4	-60.0	3.8	1.49e+00	0	61	104	644874240	61	20332
2026-01-14 08:15:56.88	358.91	7.29	-45.4	-59.9	3.8	1.49e+00	0	61	104	644874240	61	20192
2026-01-14 08:15:57.89	358.80	7.23	-45.4	-59.9	3.8	1.49e+00	0	61	104	644874240	61	20168
2026-01-14 08:15:58.90	358.69	7.17	-45.4	-59.8	3.8	1.49e+00	0	61	104	644874240	61	20046
2026-01-14 08:15:59.91	358.59	7.11	-45.4	-59.8	3.8	1.49e+00	0	61	104	644874240	61	19936
2026-01-14 08:16:00.91	358.48	7.05	-45.3	-59.7	3.8	1.49e+00	0	61	104	644874240	61	19794
2026-01-14 08:16:01.92	358.37	6.99	-45.3	-59.8	3.8	1.49e+00	0	61	104	644874240	61	19852
2026-01-14 08:16:02.93	358.27	6.93	-45.3	-59.8	3.8	1.49e+00	0	61	104	644874240	61	19925
2026-01-14 08:16:03.94	358.16	6.88	-45.3	-59.8	3.8	1.49e+00	0	61	104	644874240	61	19849
2026-01-14 08:16:04.95	358.06	6.82	-45.3	-59.8	3.8	1.49e+00	0	61	104	644874240	61	19875
2026-01-14 08:16:05.96	357.95	6.76	-45.3	-59.7	3.8	1.49e+00	0	61	104	644874240	61	19838
2026-01-14 08:16:06.97	357.85	6.70	-45.3	-59.7	3.8	1.49e+00	0	61	104	644874240	61	19737
2026-01-14 08:16:07.98	357.74	6.64	-45.3	-59.7	3.8	1.49e+00	0	61	104	644874240	61	19809
2026-01-14 08:16:08.99	357.64	6.58	-45.3	-59.7	3.8	1.49e+00	0	61	104	644874240	61	19739
2026-01-14 08:16:10.00	357.54	6.52	-45.3	-59.7	3.8	1.49e+00	0	61	104	644874240	61	19786
2026-01-14 08:16:11.01	357.43	6.47	-45.3	-59.8	3.8	1.49e+00	0	61	104	644874240	61	19864
2026-01-14 08:16:12.02	357.33	6.41	-45.3	-59.7	3.8	1.49e+00	0	61	104	644874240	61	19730
2026-01-14 08:16:13.03	357.23	6.35	-45.3	-59.7	3.8	1.49e+00	0	61	104	644874240	61	19758
2026-01-14 08:16:14.04	357.13	6.29	-45.3	-59.7	3.8	1.49e+00	0	61	104	644874240	61	19708
2026-01-14 08:16:15.05	357.03	6.23	-45.2	-59.7	3.8	1.49e+00	0	61	104	644874240	61	19683
2026-01-14 08:16:16.06	356.93	6.17	-45.3	-59.7	3.8	1.49e+00	0	61	104	644874240	61	19771
2026-01-14 08:16:17.07	356.82	6.12	-45.3	-59.7	3.8	1.49e+00	0	61	104	644874240	61	19687
2026-01-14 08:16:18.08	356.73	6.06	-45.2	-59.7	3.8	1.49e+00	0	61	104	644874240	61	19671
2026-01-14 08:16:19.09	356.63	6.00	-45.2	-59.7	3.8	1.49e+00	0	61	104	644874240	61	19697
2026-01-14 08:16:20.10	356.53	5.94	-45.2	-59.7	3.8	1.49e+00	0	61	104	644874240	61	19710
2026-01-14 08:16:21.11	356.43	5.88	-45.2	-59.7	3.8	1.49e+00	0	61	104	644874240	61	19727
2026-01-14 08:16:22.12	356.33	5.83	-45.2	-59.7	3.8	1.49e+00	0	61	104	644874240	61	19766
2026-01-14 08:16:23.13	356.23	5.77	-45.3	-59.7	3.8	1.49e+00	0	61	104	644874240	61	19649
2026-01-14 08:16:24.14	356.13	5.71	-45.2	-59.7	3.8	1.49e+00	0	61	104	644874240	61	19797
2026-01-14 08:16:25.15	356.04	5.65	-45.2	-59.7	3.8	1.49e+00	0	61	104	644874240	61	19692
2026-01-14 08:16:26.16	355.94	5.60	-45.3	-59.7	3.8	1.49e+00	0	61	104	644874240	61	19716
2026-01-14 08:16:27.17	355.85	5.54	-45.2	-59.7	3.8	1.49e+00	0	61	104	644874240	61	19722
2026-01-14 08:16:28.18	355.75	5.48	-45.2	-59.7	3.8	1.49e+00	0	61	104	644874240	61	19695
2026-01-14 08:16:29.19	355.65	5.42	-45.2	-59.7	3.8	1.49e+00	0	61	104	644874240	61	19686
2026-01-14 08:16:30.20	355.56	5.37	-45.2	-59.7	3.8	1.49e+00	0	61	104	644874240	61	19702
2026-01-14 08:16:31.21	355.46	5.31	-45.2	-59.7	3.8	1.49e+00	0	61	104	644874240	61	19660
2026-01-14 08:16:32.22	355.37	5.25	-45.2	-59.7	3.8	1.49e+00	0	61	104	644874240	61	19708
2026-01-14 08:16:33.23	355.28	5.19	-45.2	-59.7	3.8	1.49e+00	0	61	104	644874240	61	19684
2026-01-14 08:16:34.25	355.18	5.14	-45.2	-59.7	3.8	1.49e+00	0	61	104	644874240	61	19728
2026-01-14 08:16:35.26	355.09	5.08	-45.2	-59.7	3.8	1.49e+00	0	61	104	644874240	61	19669
2026-01-14 08:16:36.27	355.00	5.02	-45.2	-59.6	3.8	1.49e+00	0	61	104	644874240	61	19613
2026-01-14 08:16:37.28	354.90	4.96	-45.2	-59.6	3.8	1.49e+00	0	61	104	644874240	61	19608
2026-01-14 08:16:38.29	354.81	4.91	-45.2	-59.6	3.8	1.49e+00	0	61	104	644874240	61	19581
2026-01-14 08:16:39.30	354.72	4.85	-45.2	-59.7	3.8	1.49e+00	0	61	104	644874240	61	19668
2026-01-14 08:16:40.31	354.63	4.79	-45.2	-59.7	3.8	1.49e+00	0	61	104	644874240	61	19679
2026-01-14 08:16:41.32	354.54	4.74	-45.2	-59.7	3.8	1.49e+00	0	61	104	644874240	61	19660
2026-01-14 08:16:42.33	354.45	4.68	-45.2	-59.7	3.8	1.49e+00	0	61	104	644874240	61	19729
2026-01-14 08:16:43.34	354.36	4.62	-45.2	-59.7	3.8	1.49e+00	0	61	104	644874240	61	19625
2026-01-14 08:16:44.35	354.27	4.57	-45.2	-59.7	3.8	1.49e+00	0	61	104	644874240	61	19647
2026-01-14 08:16:45.36	354.18	4.51	-45.2	-59.7	3.8	1.49e+00	0	61	104	644874240	61	19627
2026-01-14 08:16:46.37	354.09	4.45	-45.2	-59.7	3.8	1.49e+00	0	61	104	644874240	61	19641
2026-01-14 08:16:47.38	354.00	4.40	-45.2	-59.7	3.8	1.49e+00	0	61	104	644874240	61	19655
2026-01-14 08:16:48.39	353.91	4.34	-45.2	-59.7	3.8	1.49e+00	0	61	104	644874240	61	19627
2026-01-14 08:16:49.40	353.82	4.28	-45.2	-59.7	3.8	1.49e+00	0	61	104	644874240	61	19651
2026-01-14 08:16:50.41	353.74	4.23	-45.2	-59.7	3.8	1.49e+00	0	61	104	644874240	61	19677
2026-01-14 08:16:51.42	353.65	4.17	-45.2	-59.7	3.8	1.49e+00	0	61	104	644874240	61	19703
2026-01-14 08:16:52.43	353.56	4.11	-45.2	-59.7	3.8	1.49e+00	0	61	104	644874240	61	19617
2026-01-14 08:16:53.44	353.48	4.06	-45.2	-59.6	3.8	1.49e+00	0	61	104	644874240	61	19608
2026-01-14 08:16:54.45	353.39	4.00	-45.2	-59.7	3.8	1.49e+00	0	61	104	644874240	61	19634
2026-01-14 08:16:55.46	353.30	3.95	-45.2	-59.7	3.8	1.49e+00	0	61	104	644874240	61	19615
2026-01-14 08:16:56.47	353.22	3.89	-45.2	-59.7	3.8	1.49e+00	0	61	104	644874240	61	19736
2026-01-14 08:16:57.48	353.13	3.83	-45.2	-59.6	3.8	1.49e+00	0	61	104	644874240	61	19572
2026-01-14 08:16:58.49	353.05	3.78	-45.2	-59.7	3.8	1.49e+00	0	61	104	644874240	61	19618
2026-01-14 08:16:59.50	352.96	3.72	-45.2	-59.6	3.8	1.49e+00	0	61	104	644874240	61	19589
2026-01-14 08:17:00.51	352.88	3.67	-45.2	-59.6	3.8	1.49e+00	0	61	104	644874240	61	19600
2026-01-14 08:17:01.52	352.80	3.61	-45.2	-59.6	3.8	1.49e+00	0	61	104	644874240	61	19604
2026-01-14 08:17:02.53	352.71	3.55	-45.2	-59.6	3.8	1.49e+00	0	61	104	644874240	61	19604
2026-01-14 08:17:03.54	352.63	3.50	-45.2	-59.7	3.8	1.49e+00	0	61	104	644874240	61	19623
2026-01-14 08:17:04.55	352.55	3.44	-45.2	-59.6	3.8	1.49e+00	0	61	104	644874240	61	19573
2026-01-14 08:17:05.56	352.46	3.39	-45.2	-59.6	3.8	1.49e+00	0	61	104	644874240	61	19596
2026-01-14 08:17:06.57	352.38	3.33	-45.2	-59.7	3.8	1.49e+00	0	61	104	644874240	61	19635
2026-01-14 08:17:07.58	352.30	3.28	-45.2	-59.6	3.8	1.49e+00	0	61	104	644874240	61	19568
2026-01-14 08:17:08.59	352.22	3.22	-45.2	-59.7	3.8	1.49e+00	0	61	104	644874240	61	19628
2026-01-14 08:17:09.60	352.14	3.16	-45.2	-59.6	3.8	1.49e+00	0	61	104	644874240	61	19599
2026-01-14 08:17:10.61	352.06	3.11	-45.2	-59.7	3.8	1.49e+00	0	61	104	644874240	61	19617
2026-01-14 08:17:11.62	351.98	3.05	-45.2	-59.6	3.8	1.49e+00	0	61	104	644874240	61	19605
2026-01-14 08:17:12.63	351.90	3.00	-45.2	-59.7	3.8	1.49e+00	0	61	104	644874240	61	19643
2026-01-14 08:17:13.64	351.82	2.94	-45.0	-59.6	3.8	1.49e+00	0	61	104	644874240	61	19603
2026-01-14 08:17:14.65	351.74	2.89	-45.2	-59.6	3.8	1.49e+00	0	61	104	644874240	61	19565
2026-01-14 08:17:15.66	351.66	2.83	-45.2	-59.7	3.8	1.49e+00	0	61	104	644874240	61	19652
2026-01-14 08:17:16.67	351.58	2.78	-45.2	-59.6	3.8	1.49e+00	0	61	104	644874240	61	19572
2026-01-14 08:17:17.68	351.50	2.72	-45.2	-59.7	3.8	1.49e+00	0	61	104	644874240	61	19619
2026-01-14 08:17:18.69	351.42	2.67	-45.2	-59.6	3.8	1.49e+00	0	61	104	644874240	61	19560
2026-01-14 08:17:19.69	351.34	2.61	-45.2	-59.7	3.8	1.49e+00	0	61	104	644874240	61	19619
2026-01-14 08:17:20.70	351.27	2.56	-45.2	-59.6	3.8	1.49e+00	0	61	104	644874240	61	19585
2026-01-14 08:17:21.71	351.19	2.51	-45.2	-59.6	3.8	1.49e+00	0	61	104	644874240	61	19566
2026-01-14 08:17:22.72	351.11	2.45	-45.2	-59.6	3.8	1.49e+00	0	61	104	644874240	61	19555
2026-01-14 08:17:23.73	351.03	2.40	-45.2	-59.7	3.8	1.49e+00	0	61	104	644874240	61	19619
2026-01-14 08:17:24.74	350.96	2.34	-45.2	-59.6	3.8	1.49e+00	0	61	104	644874240	61	19589
