passes_logs/2026/01/14/R2.0S_Moscow/R2.0S_Moscow__20260114_091422_NOAA_21_JPSS-2_rec.log

#Pass ID: 20260114_091422_NOAA 21 (JPSS-2)
#Satellite: NOAA 21 (JPSS-2)
#Configuration: NOAA-21
#almurnet v.1.7.20251203
#Start time: 2026-01-14 09:14:22

#Version: 2.2.20231116
#Station: R2.0S_Moscow
#Location: 37.707566 lon 55.798166 lat
#TLE: 1 54234U 22150A   26013.18009385  .00000056  00000+0  47387-4 0  9997
#TLE: 2 54234  98.7496 314.1019 0000691 303.8246  56.2864 14.19534466164559

#Time	Az	El	Level	Level2	SNR	BER	BlckErr	Temp	State	Recorded	gain1	gain2
2026-01-14 09:14:22.68	140.82	2.03	-24.2	-39.1	3.6	1.52e+00	0	51	0	0	21	18432
2026-01-14 09:14:23.68	140.80	2.09	-38.1	-54.5	3.4	1.50e+00	0	52	104	0	50	20383
2026-01-14 09:14:24.69	140.77	2.16	-31.0	-45.0	3.7	1.51e+00	0	52	104	0	32	19320
2026-01-14 09:14:25.70	140.74	2.22	-29.1	-43.0	3.6	1.50e+00	0	52	104	0	40	9715
2026-01-14 09:14:26.71	140.71	2.28	-39.6	-53.6	4.1	1.52e+00	0	52	104	0	33	48847
2026-01-14 09:14:27.72	140.68	2.35	-31.1	-52.7	3.6	1.50e+00	0	52	104	0	40	29598
2026-01-14 09:14:28.73	140.66	2.41	-33.3	-54.1	4.3	1.51e+00	0	52	104	0	41	32558
2026-01-14 09:14:29.74	140.63	2.48	-30.7	-45.9	4.6	1.50e+00	0	52	104	0	44	10708
2026-01-14 09:14:30.75	140.60	2.54	-39.3	-53.6	4.3	1.51e+00	0	52	104	0	44	25960
2026-01-14 09:14:31.76	140.57	2.61	-41.8	-54.9	3.7	1.50e+00	0	52	104	0	51	20287
2026-01-14 09:14:32.77	140.54	2.67	-41.0	-53.9	4.1	1.51e+00	0	52	104	0	47	22595
2026-01-14 09:14:33.78	140.51	2.74	-41.3	-53.5	4.0	1.50e+00	0	52	104	0	50	18253
2026-01-14 09:14:34.79	140.48	2.80	-36.2	-50.3	4.1	1.52e+00	0	52	104	0	43	18757
2026-01-14 09:14:35.80	140.45	2.87	-29.2	-41.9	3.6	1.51e+00	0	52	104	0	25	20261
2026-01-14 09:14:36.81	140.42	2.93	-39.0	-53.3	4.1	1.51e+00	0	52	104	0	44	25034
2026-01-14 09:14:37.82	140.39	3.00	-33.8	-50.3	4.7	1.50e+00	0	53	104	0	48	14127
2026-01-14 09:14:38.83	140.36	3.07	-27.4	-43.9	4.5	1.51e+00	0	53	104	0	34	15066
2026-01-14 09:14:39.83	140.33	3.13	-27.1	-45.5	-1.8	1.52e+00	0	53	104	0	25	30455
2026-01-14 09:14:40.85	140.30	3.20	-24.5	-40.0	3.6	1.52e+00	0	53	104	0	24	17128
2026-01-14 09:14:41.86	140.27	3.26	-24.3	-41.7	5.9	1.51e+00	0	53	104	0	26	18719
2026-01-14 09:14:42.87	140.24	3.33	-26.1	-39.9	3.8	1.53e+00	0	53	104	0	24	17014
2026-01-14 09:14:43.88	140.21	3.40	-33.5	-50.8	4.3	1.53e+00	0	53	104	0	40	23782
2026-01-14 09:14:44.88	140.18	3.46	-29.4	-45.5	3.9	1.53e+00	0	53	104	0	25	30723
2026-01-14 09:14:45.90	140.15	3.53	-24.0	-39.3	3.7	1.52e+00	0	53	104	0	21	18743
2026-01-14 09:14:46.90	140.12	3.60	-31.0	-47.5	4.4	1.52e+00	0	53	104	0	34	22838
2026-01-14 09:14:47.91	140.09	3.67	-38.5	-53.4	4.0	1.52e+00	0	53	104	0	51	17021
2026-01-14 09:14:48.92	140.06	3.73	-31.1	-48.6	4.1	1.52e+00	0	54	104	0	36	23067
2026-01-14 09:14:49.93	140.03	3.80	-31.6	-47.6	4.0	1.51e+00	0	54	104	0	31	27580
2026-01-14 09:14:50.94	140.00	3.87	-28.8	-48.9	4.0	1.52e+00	0	54	104	0	31	31915
2026-01-14 09:14:51.96	139.96	3.94	-34.0	-49.8	4.5	1.51e+00	0	54	104	0	37	25158
2026-01-14 09:14:52.96	139.93	4.00	-33.5	-51.3	4.3	1.51e+00	0	54	104	0	34	35338
2026-01-14 09:14:53.97	139.90	4.07	-32.5	-51.7	4.0	1.51e+00	0	54	104	0	36	33040
2026-01-14 09:14:54.98	139.87	4.14	-28.8	-45.8	4.4	1.51e+00	0	54	104	0	31	22277
2026-01-14 09:14:55.99	139.84	4.21	-27.9	-48.2	4.1	1.51e+00	0	54	104	0	33	26284
2026-01-14 09:14:57.01	139.80	4.28	-32.0	-49.8	4.2	1.52e+00	0	54	104	0	32	33695
2026-01-14 09:14:58.01	139.77	4.35	-26.3	-42.6	4.4	1.52e+00	0	54	104	0	29	17480
2026-01-14 09:14:59.02	139.74	4.42	-25.5	-41.6	3.8	1.53e+00	0	54	104	0	28	16356
2026-01-14 09:15:00.03	139.70	4.49	-35.6	-47.0	3.8	1.53e+00	0	54	104	0	32	24335
2026-01-14 09:15:01.04	139.67	4.56	-30.9	-52.7	3.1	1.51e+00	0	54	104	0	31	49696
2026-01-14 09:15:02.05	139.64	4.63	-29.4	-47.1	4.1	1.51e+00	0	54	104	0	29	29063
2026-01-14 09:15:03.06	139.60	4.70	-27.3	-41.4	4.2	1.53e+00	0	54	104	0	27	17034
2026-01-14 09:15:04.07	139.57	4.77	-28.2	-50.0	3.7	1.50e+00	0	54	104	0	37	25841
2026-01-14 09:15:05.08	139.54	4.84	-34.6	-51.6	3.7	1.50e+00	0	54	104	0	43	21860
2026-01-14 09:15:06.09	139.50	4.91	-33.7	-52.3	4.4	1.51e+00	0	54	104	0	42	25242
2026-01-14 09:15:07.10	139.47	4.98	-41.3	-53.9	3.6	1.51e+00	0	55	104	0	47	22594
2026-01-14 09:15:08.11	139.43	5.05	-35.2	-48.0	4.1	1.52e+00	0	55	104	0	31	28732
2026-01-14 09:15:09.12	139.40	5.12	-32.6	-51.1	4.0	1.50e+00	0	55	104	0	43	20568
2026-01-14 09:15:10.13	139.36	5.19	-34.4	-52.9	3.7	1.51e+00	0	55	104	0	43	25340
2026-01-14 09:15:11.15	139.33	5.26	-29.6	-45.1	4.2	1.51e+00	0	55	104	0	28	24674
2026-01-14 09:15:12.16	139.29	5.33	-39.6	-51.8	4.5	1.51e+00	0	55	104	0	44	21219
2026-01-14 09:15:13.16	139.26	5.40	-27.5	-41.0	4.4	1.52e+00	0	55	104	0	34	10789
2026-01-14 09:15:14.17	139.22	5.47	-29.7	-44.5	3.8	1.51e+00	0	55	104	0	34	16134
2026-01-14 09:15:15.18	139.19	5.55	-35.9	-44.7	3.5	1.52e+00	0	55	104	0	26	26370
2026-01-14 09:15:16.19	139.15	5.62	-29.4	-43.6	3.9	1.50e+00	0	55	104	0	38	11603
2026-01-14 09:15:17.20	139.12	5.69	-26.9	-41.3	3.9	1.52e+00	0	55	104	0	27	16743
2026-01-14 09:15:18.21	139.08	5.76	-32.1	-46.3	-1.8	1.53e+00	0	55	104	0	28	28182
2026-01-14 09:15:19.22	139.04	5.84	-28.5	-43.1	3.5	1.53e+00	0	55	104	0	25	23134
2026-01-14 09:15:20.23	139.01	5.91	-27.3	-42.5	3.7	1.53e+00	0	55	104	0	28	18303
2026-01-14 09:15:21.24	138.97	5.98	-29.1	-44.0	3.4	1.53e+00	0	55	104	0	24	27269
2026-01-14 09:15:22.25	138.93	6.06	-26.0	-41.0	3.7	1.53e+00	0	55	104	0	28	15394
2026-01-14 09:15:23.26	138.90	6.13	-27.2	-41.5	3.9	1.53e+00	0	55	104	0	26	18299
2026-01-14 09:15:24.27	138.86	6.20	-38.1	-50.9	4.1	1.53e+00	0	55	104	0	38	27052
2026-01-14 09:15:25.28	138.82	6.28	-26.9	-40.2	3.5	1.52e+00	0	55	104	0	23	18583
2026-01-14 09:15:26.28	138.78	6.35	-25.3	-40.3	3.4	1.52e+00	0	55	104	0	23	18901
2026-01-14 09:15:27.29	138.75	6.42	-26.3	-42.5	3.4	1.52e+00	0	56	104	0	22	25597
2026-01-14 09:15:28.30	138.71	6.50	-36.5	-51.4	4.6	1.52e+00	0	56	104	0	37	30331
2026-01-14 09:15:29.31	138.67	6.57	-26.8	-48.4	3.9	1.52e+00	0	55	104	0	29	33770
2026-01-14 09:15:30.32	138.63	6.65	-33.2	-48.2	4.6	1.51e+00	0	56	104	0	36	22043
2026-01-14 09:15:31.32	138.59	6.72	-41.2	-53.5	4.1	1.50e+00	0	56	104	0	51	17275
2026-01-14 09:15:32.33	138.55	6.80	-33.4	-52.2	4.2	1.51e+00	0	56	104	0	39	29513
2026-01-14 09:15:33.34	138.51	6.87	-37.9	-50.2	4.0	1.51e+00	0	56	104	0	33	32952
2026-01-14 09:15:34.35	138.47	6.95	-39.5	-50.9	4.5	1.51e+00	0	56	104	0	41	22569
2026-01-14 09:15:35.36	138.43	7.03	-27.4	-48.6	4.2	1.51e+00	0	56	104	0	27	38739
2026-01-14 09:15:36.37	138.39	7.10	-39.3	-51.6	4.5	1.51e+00	0	56	104	0	44	20578
2026-01-14 09:15:37.38	138.35	7.18	-36.8	-51.8	4.3	1.50e+00	0	56	104	0	45	19989
2026-01-14 09:15:38.39	138.31	7.25	-33.7	-51.4	4.4	1.52e+00	0	56	104	0	48	16055
2026-01-14 09:15:39.40	138.27	7.33	-33.0	-47.3	4.2	1.51e+00	0	56	104	0	47	10644
2026-01-14 09:15:40.41	138.23	7.41	-37.4	-51.4	3.8	1.51e+00	0	56	104	0	41	23906
2026-01-14 09:15:41.42	138.19	7.49	-37.3	-50.5	4.2	1.51e+00	0	56	104	0	45	17159
2026-01-14 09:15:42.43	138.15	7.56	-39.1	-51.4	3.4	1.52e+00	0	56	104	0	36	31853
2026-01-14 09:15:43.44	138.11	7.64	-33.0	-47.5	3.9	1.52e+00	0	56	104	0	36	20511
2026-01-14 09:15:44.45	138.07	7.72	-29.9	-43.7	3.8	1.53e+00	0	56	104	0	29	19759
2026-01-14 09:15:45.46	138.02	7.80	-25.9	-50.5	3.6	1.51e+00	0	56	104	0	23	61249
2026-01-14 09:15:46.47	137.98	7.87	-35.8	-52.3	4.1	1.51e+00	0	56	104	0	43	23696
2026-01-14 09:15:47.48	137.94	7.95	-40.5	-54.2	4.1	1.51e+00	0	56	104	0	49	20898
2026-01-14 09:15:48.49	137.90	8.03	-28.7	-49.5	3.9	1.50e+00	0	56	104	0	31	34297
2026-01-14 09:15:49.50	137.85	8.11	-34.0	-52.9	4.0	1.49e+00	0	57	104	0	50	17027
2026-01-14 09:15:50.51	137.81	8.19	-25.1	-42.5	5.8	1.53e+00	0	57	104	0	27	19341
2026-01-14 09:15:51.51	137.77	8.27	-36.6	-53.0	4.0	1.51e+00	0	57	104	0	34	43348
2026-01-14 09:15:52.53	137.72	8.35	-35.1	-50.4	4.4	1.51e+00	0	57	104	0	37	26960
2026-01-14 09:15:53.53	137.68	8.43	-29.7	-48.6	4.6	1.51e+00	0	57	104	0	30	32763
2026-01-14 09:15:54.54	137.64	8.51	-26.6	-40.7	4.6	1.51e+00	0	57	104	0	32	11803
2026-01-14 09:15:55.55	137.59	8.59	-34.2	-50.5	4.7	1.50e+00	0	57	104	0	43	19271
2026-01-14 09:15:56.56	137.55	8.67	-34.8	-53.1	4.0	1.50e+00	0	57	104	0	40	30973
2026-01-14 09:15:57.57	137.50	8.75	-41.1	-53.9	4.3	1.50e+00	0	57	104	0	45	25377
2026-01-14 09:15:58.58	137.46	8.83	-38.3	-53.3	4.1	1.51e+00	0	57	104	0	46	22447
2026-01-14 09:15:59.59	137.41	8.91	-32.1	-49.4	3.8	1.49e+00	0	57	104	0	36	25544
2026-01-14 09:16:00.59	137.36	8.99	-36.6	-52.5	4.4	1.50e+00	0	57	104	0	39	30644
2026-01-14 09:16:01.60	137.32	9.08	-38.1	-53.3	3.9	1.50e+00	0	57	104	0	51	16806
2026-01-14 09:16:02.61	137.27	9.16	-41.5	-53.6	4.2	1.50e+00	0	57	104	0	49	19450
2026-01-14 09:16:03.62	137.23	9.24	-24.7	-38.5	3.5	1.51e+00	0	57	104	0	23	15227
2026-01-14 09:16:04.63	137.18	9.32	-40.6	-53.7	3.6	1.50e+00	0	57	104	0	51	17574
2026-01-14 09:16:05.64	137.13	9.41	-33.4	-49.8	4.0	1.51e+00	0	57	104	0	38	23646
2026-01-14 09:16:06.65	137.08	9.49	-29.8	-52.8	3.9	1.50e+00	0	57	104	0	46	21018
2026-01-14 09:16:07.66	137.04	9.57	-41.5	-54.5	3.0	1.50e+00	0	57	104	0	48	22856
2026-01-14 09:16:08.67	136.99	9.66	-40.8	-54.4	4.0	1.53e+00	0	57	104	0	43	30105
2026-01-14 09:16:09.68	136.94	9.74	-40.7	-53.6	4.0	1.51e+00	0	57	104	0	51	17449
2026-01-14 09:16:10.68	136.89	9.82	-40.9	-53.9	3.9	1.50e+00	0	57	104	0	54	15204
2026-01-14 09:16:11.69	136.84	9.91	-27.9	-42.7	3.6	1.50e+00	0	57	104	0	34	13188
2026-01-14 09:16:12.70	136.79	9.99	-40.4	-52.8	3.9	1.50e+00	0	57	104	0	52	14987
2026-01-14 09:16:13.71	136.74	10.08	-33.0	-47.2	4.0	1.51e+00	0	57	104	0	43	13256
2026-01-14 09:16:14.72	136.69	10.16	-37.1	-51.2	4.2	1.50e+00	0	57	104	0	45	18569
2026-01-14 09:16:15.73	136.64	10.25	-36.3	-47.4	3.9	1.49e+00	0	57	104	0	47	10771
2026-01-14 09:16:16.74	136.59	10.34	-42.5	-54.0	4.1	1.50e+00	0	57	104	0	54	15269
2026-01-14 09:16:17.75	136.54	10.42	-38.8	-51.3	4.1	1.50e+00	0	58	104	0	38	28094
2026-01-14 09:16:18.76	136.49	10.51	-41.1	-52.3	4.2	1.51e+00	0	57	104	0	44	22518
2026-01-14 09:16:19.77	136.44	10.59	-36.8	-49.2	4.2	1.49e+00	0	58	104	0	45	14712
2026-01-14 09:16:20.77	136.39	10.68	-36.9	-49.0	4.1	1.49e+00	0	58	104	0	44	15281
2026-01-14 09:16:21.78	136.34	10.77	-36.2	-47.7	4.0	1.35e+00	0	57	104	0	52	8327
2026-01-14 09:16:22.79	136.28	10.86	-34.0	-48.6	4.2	1.49e+00	0	58	104	0	48	11622
2026-01-14 09:16:23.80	136.23	10.94	-40.8	-51.3	3.9	1.49e+00	0	58	104	0	50	14116
2026-01-14 09:16:24.81	136.18	11.03	-40.8	-51.7	4.1	1.51e+00	0	58	104	0	50	14807
2026-01-14 09:16:25.82	136.13	11.12	-32.4	-47.9	3.9	1.49e+00	0	58	104	0	47	11346
2026-01-14 09:16:26.82	136.07	11.21	-38.0	-49.5	4.3	1.43e+00	0	58	104	0	48	12875
2026-01-14 09:16:27.83	136.02	11.30	-36.6	-48.0	4.2	1.51e+00	0	58	104	0	31	28976
2026-01-14 09:16:28.84	135.96	11.39	-36.9	-43.1	7.0	1.25e+00	9	58	104	0	44	7731
2026-01-14 09:16:29.85	135.91	11.48	-39.5	-44.3	4.9	1.43e+00	0	58	104	0	44	8880
2026-01-14 09:16:30.86	135.85	11.57	-31.4	-41.7	4.6	1.46e+00	0	58	104	0	34	11689
2026-01-14 09:16:31.87	135.80	11.66	-27.3	-39.5	4.9	8.95e-01	0	58	104	0	34	9169
2026-01-14 09:16:32.87	135.74	11.75	-38.6	-43.8	4.7	5.22e-01	0	58	104	0	42	9437
2026-01-14 09:16:33.88	135.69	11.84	-34.7	-41.8	7.1	4.42e-01	11	58	0	0	44	6681
2026-01-14 09:16:34.89	135.63	11.93	-34.8	-42.6	6.3	6.15e-01	0	58	0	1048576	39	9762
2026-01-14 09:16:35.90	135.57	12.02	-29.4	-43.9	4.5	9.17e-01	0	58	104	2097152	45	8029
2026-01-14 09:16:36.91	135.52	12.11	-30.2	-40.0	4.6	1.45e+00	0	58	104	2097152	40	6811
2026-01-14 09:16:37.92	135.46	12.20	-29.6	-42.0	4.6	1.45e+00	0	58	104	2097152	40	8581
2026-01-14 09:16:38.93	135.40	12.29	-34.2	-41.6	5.1	1.45e+00	0	58	104	2097152	33	12238
2026-01-14 09:16:39.94	135.34	12.39	-35.3	-40.7	4.5	1.43e+00	0	58	104	2097152	31	12501
2026-01-14 09:16:40.95	135.28	12.48	-23.6	-37.3	4.9	1.47e+00	0	58	104	2097152	20	15772
2026-01-14 09:16:41.96	135.22	12.57	-20.5	-34.0	3.8	1.51e+00	0	58	104	2097152	14	15265
2026-01-14 09:16:42.97	135.16	12.67	-21.7	-35.4	3.9	1.51e+00	0	58	104	2097152	14	17934
2026-01-14 09:16:43.98	135.10	12.76	-21.1	-34.7	3.8	1.51e+00	0	58	104	2097152	14	16509
2026-01-14 09:16:44.99	135.04	12.86	-27.0	-45.2	5.2	1.52e+00	0	58	104	2097152	26	27747
2026-01-14 09:16:45.99	134.98	12.95	-30.7	-46.9	4.2	1.45e+00	0	58	104	2097152	44	11960
2026-01-14 09:16:47.00	134.92	13.04	-31.2	-44.5	4.4	1.43e+00	0	58	104	2097152	40	11514
2026-01-14 09:16:48.01	134.86	13.14	-31.9	-44.2	3.8	1.46e+00	0	58	104	2097152	38	12414
2026-01-14 09:16:49.02	134.80	13.24	-26.6	-37.8	4.0	1.47e+00	0	58	104	2097152	30	9410
2026-01-14 09:16:50.03	134.74	13.33	-27.3	-37.2	4.0	1.45e+00	0	58	104	2097152	18	17523
2026-01-14 09:16:51.04	134.67	13.43	-26.5	-39.0	4.4	9.13e-01	0	59	104	2097152	32	9670
2026-01-14 09:16:52.05	134.61	13.52	-33.0	-41.3	5.3	1.05e+00	7	58	0	2097152	40	7950
2026-01-14 09:16:53.06	134.55	13.62	-29.5	-41.1	4.5	1.50e+00	0	58	104	2097152	28	15579
2026-01-14 09:16:54.07	134.48	13.72	-37.4	-44.1	4.6	1.48e+00	0	58	104	2097152	36	13735
2026-01-14 09:16:55.08	134.42	13.82	-33.6	-43.7	4.6	1.46e+00	0	58	104	2097152	36	13179
2026-01-14 09:16:56.09	134.35	13.92	-27.7	-41.5	4.8	1.50e+00	0	59	104	2097152	38	9130
2026-01-14 09:16:57.10	134.29	14.01	-39.9	-43.8	6.9	1.45e+00	8	58	104	2097152	47	7052
2026-01-14 09:16:58.11	134.22	14.11	-40.7	-50.7	4.8	1.49e+00	0	59	104	2097152	51	12436
2026-01-14 09:16:59.12	134.16	14.21	-31.5	-45.2	4.8	1.49e+00	0	59	104	2097152	46	8848
2026-01-14 09:17:00.13	134.09	14.31	-29.6	-43.8	4.0	1.53e+00	0	58	104	2097152	31	17743
2026-01-14 09:17:01.14	134.02	14.41	-35.9	-45.8	4.0	1.51e+00	0	59	104	2097152	44	10639
2026-01-14 09:17:02.14	133.96	14.51	-42.6	-51.4	3.9	1.49e+00	0	59	104	2097152	54	11332
2026-01-14 09:17:03.15	133.89	14.61	-39.1	-49.1	3.6	1.50e+00	0	59	104	2097152	32	30864
2026-01-14 09:17:04.16	133.82	14.71	-32.2	-46.1	4.5	1.46e+00	0	59	104	2097152	43	11550
2026-01-14 09:17:05.17	133.75	14.81	-41.6	-49.8	4.7	1.50e+00	0	59	104	2097152	43	17781
2026-01-14 09:17:06.19	133.68	14.92	-40.5	-52.6	4.4	1.40e+00	0	59	104	2097152	46	20614
2026-01-14 09:17:07.20	133.61	15.02	-38.3	-50.7	4.5	1.49e+00	0	58	104	2097152	49	13911
2026-01-14 09:17:08.20	133.54	15.12	-26.8	-41.1	4.4	9.96e-01	0	58	104	2097152	32	12345
2026-01-14 09:17:09.21	133.47	15.22	-29.2	-42.3	4.7	1.32e+00	0	59	104	2097152	31	15032
2026-01-14 09:17:10.22	133.40	15.33	-38.1	-45.1	5.0	8.68e-01	0	59	104	2097152	33	18314
2026-01-14 09:17:11.23	133.32	15.43	-37.5	-45.7	4.8	1.05e+00	0	59	104	2097152	39	13936
2026-01-14 09:17:12.24	133.25	15.54	-35.0	-44.4	4.1	9.19e-01	0	59	104	2097152	39	12035
2026-01-14 09:17:13.25	133.18	15.64	-36.9	-44.7	8.5	3.26e-01	2	59	0	2097152	49	6965
2026-01-14 09:17:14.26	133.10	15.74	-40.7	-45.0	7.7	3.35e-01	0	59	0	5242880	50	6833
2026-01-14 09:17:15.27	133.03	15.85	-41.8	-45.5	9.6	5.05e-02	19	59	0	8388608	51	6836
2026-01-14 09:17:16.28	132.95	15.96	-41.4	-45.1	10.1	1.19e-01	0	59	0	10485760	53	5821
2026-01-14 09:17:17.29	132.88	16.06	-41.4	-45.1	10.2	4.56e-02	0	59	0	14680064	53	5793
2026-01-14 09:17:18.30	132.80	16.17	-40.9	-45.0	10.1	1.79e-02	0	59	0	17825792	53	5743
2026-01-14 09:17:19.31	132.73	16.28	-40.6	-45.1	9.8	2.22e-02	0	59	0	20971520	53	5809
2026-01-14 09:17:20.32	132.65	16.38	-41.1	-44.9	10.4	6.94e-03	0	59	0	24117248	53	5675
2026-01-14 09:17:21.33	132.57	16.49	-41.9	-45.2	10.3	2.66e-02	0	59	0	26214400	53	5897
2026-01-14 09:17:22.34	132.49	16.60	-41.1	-44.4	10.9	2.46e-02	0	59	0	30408704	52	5696
2026-01-14 09:17:23.35	132.42	16.71	-40.9	-44.0	11.4	5.53e-03	0	59	0	33554432	52	5428
2026-01-14 09:17:24.36	132.34	16.82	-40.7	-43.8	11.6	7.27e-03	0	59	0	36700160	52	5288
2026-01-14 09:17:25.37	132.26	16.93	-40.8	-43.8	11.7	6.80e-03	0	59	0	39845888	52	5301
2026-01-14 09:17:26.38	132.18	17.04	-40.7	-43.7	11.8	7.24e-04	0	59	0	42991616	52	5256
2026-01-14 09:17:27.39	132.09	17.15	-40.7	-43.6	11.9	9.72e-04	0	59	0	46137344	52	5189
2026-01-14 09:17:28.40	132.01	17.26	-40.7	-43.6	11.9	1.56e-03	0	59	0	49283072	52	5190
2026-01-14 09:17:29.41	131.93	17.37	-40.6	-43.5	12.0	9.79e-04	0	59	0	52428800	52	5153
2026-01-14 09:17:30.42	131.85	17.48	-40.7	-43.4	12.1	2.06e-03	0	59	0	55574528	51	5391
2026-01-14 09:17:31.43	131.76	17.59	-40.5	-43.4	12.2	4.81e-04	0	59	0	58720256	51	5376
2026-01-14 09:17:32.44	131.68	17.71	-39.4	-43.1	10.7	1.25e-01	0	59	0	61865984	50	5477
2026-01-14 09:17:33.45	131.59	17.82	-40.5	-43.3	12.2	5.95e-02	0	59	0	65011712	51	5312
2026-01-14 09:17:34.46	131.51	17.93	-40.5	-43.3	12.3	2.61e-04	0	59	0	68157440	51	5309
2026-01-14 09:17:35.47	131.42	18.05	-40.5	-43.3	12.4	2.15e-03	0	59	0	71303168	51	5324
2026-01-14 09:17:36.48	131.33	18.16	-39.7	-43.2	12.3	4.27e-03	0	59	0	74448896	51	5249
2026-01-14 09:17:37.49	131.25	18.28	-40.5	-43.2	12.4	8.59e-03	0	59	0	77594624	51	5264
2026-01-14 09:17:38.50	131.16	18.39	-39.2	-43.2	11.4	5.56e-03	0	59	0	80740352	51	5231
2026-01-14 09:17:39.51	131.07	18.51	-39.0	-43.2	12.2	5.26e-04	0	59	0	83886080	49	5921
2026-01-14 09:17:40.52	130.98	18.62	-40.2	-43.4	12.2	5.61e-04	0	59	0	87031808	51	5378
2026-01-14 09:17:41.52	130.89	18.74	-38.1	-43.3	11.5	1.99e-03	0	59	0	90177536	49	5981
2026-01-14 09:17:42.53	130.80	18.86	-38.5	-43.4	11.7	2.19e-03	0	59	0	93323264	48	6392
2026-01-14 09:17:43.54	130.71	18.97	-40.3	-43.3	11.9	7.64e-03	0	59	0	96468992	51	5306
2026-01-14 09:17:44.55	130.61	19.09	-40.5	-43.3	12.4	7.04e-04	0	59	0	99614720	51	5299
2026-01-14 09:17:45.56	130.52	19.21	-40.5	-43.2	12.5	9.16e-04	0	59	0	102760448	51	5263
2026-01-14 09:17:46.57	130.43	19.33	-40.5	-43.2	12.5	6.48e-04	0	59	0	105906176	51	5249
2026-01-14 09:17:47.58	130.33	19.45	-40.5	-43.2	12.5	1.12e-03	0	59	0	109051904	51	5249
2026-01-14 09:17:48.59	130.24	19.57	-40.5	-43.2	12.5	6.13e-04	0	59	0	112197632	51	5232
2026-01-14 09:17:49.60	130.14	19.69	-40.4	-43.2	12.1	7.79e-04	0	59	0	115343360	50	5539
2026-01-14 09:17:50.61	130.04	19.81	-40.5	-43.1	12.6	1.70e-04	0	59	0	118489088	51	5194
2026-01-14 09:17:51.62	129.95	19.93	-40.4	-43.1	12.6	1.26e-04	0	59	0	121634816	51	5165
2026-01-14 09:17:52.63	129.85	20.06	-40.4	-42.9	12.9	1.29e-04	0	59	0	124780544	51	5092
2026-01-14 09:17:53.64	129.75	20.18	-39.9	-42.8	12.8	1.30e-04	0	59	0	127926272	51	4993
2026-01-14 09:17:54.65	129.65	20.30	-40.3	-42.8	13.0	4.39e-04	0	59	0	131072000	51	5008
2026-01-14 09:17:55.66	129.55	20.43	-40.1	-42.8	13.0	1.45e-03	0	59	0	134217728	51	5013
2026-01-14 09:17:56.67	129.44	20.55	-40.2	-42.8	12.7	2.30e-04	0	60	0	137363456	51	4994
2026-01-14 09:17:57.68	129.34	20.68	-40.3	-42.8	13.0	8.73e-04	0	59	0	140509184	51	4992
2026-01-14 09:17:58.69	129.24	20.80	-40.2	-42.7	13.1	2.14e-03	0	59	0	143654912	51	4980
2026-01-14 09:17:59.70	129.13	20.93	-40.1	-42.6	13.0	1.47e-03	0	59	0	146800640	50	5196
2026-01-14 09:18:00.71	129.03	21.05	-40.0	-42.5	13.1	6.46e-03	0	59	0	149946368	50	5143
2026-01-14 09:18:01.72	128.92	21.18	-40.0	-42.4	13.4	2.70e-04	0	60	0	153092096	50	5089
2026-01-14 09:18:02.73	128.81	21.31	-40.0	-42.4	13.5	5.56e-05	0	59	0	156237824	50	5043
2026-01-14 09:18:03.74	128.70	21.44	-40.0	-42.3	13.6	3.35e-05	0	59	0	159383552	50	5004
2026-01-14 09:18:04.75	128.60	21.56	-39.9	-42.2	13.6	3.63e-04	0	60	0	162529280	50	4977
2026-01-14 09:18:05.76	128.49	21.69	-39.9	-42.2	13.7	1.59e-04	0	59	0	165675008	50	4969
2026-01-14 09:18:06.77	128.37	21.82	-39.9	-42.2	13.6	1.59e-03	0	59	0	168820736	50	4983
2026-01-14 09:18:07.78	128.26	21.95	-39.9	-42.3	13.6	2.01e-04	0	60	0	171966464	50	4984
2026-01-14 09:18:08.79	128.15	22.08	-39.8	-42.2	13.7	2.59e-05	0	59	0	175112192	50	4963
2026-01-14 09:18:09.80	128.04	22.22	-39.8	-42.2	13.7	7.78e-05	0	59	0	178257920	50	4933
2026-01-14 09:18:10.81	127.92	22.35	-39.8	-42.1	13.8	1.11e-04	0	59	0	181403648	50	4902
2026-01-14 09:18:11.82	127.81	22.48	-39.7	-42.0	13.8	8.30e-06	0	60	0	184549376	50	4861
2026-01-14 09:18:12.83	127.69	22.61	-39.7	-42.0	14.0	1.75e-05	0	59	0	187695104	50	4825
2026-01-14 09:18:13.84	127.57	22.75	-39.7	-41.9	13.9	3.05e-05	0	60	0	190840832	50	4805
2026-01-14 09:18:14.85	127.45	22.88	-39.6	-41.8	14.1	3.66e-05	0	59	0	193986560	50	4756
2026-01-14 09:18:15.86	127.33	23.01	-39.6	-41.8	14.1	2.74e-05	0	60	0	197132288	50	4752
2026-01-14 09:18:16.87	127.21	23.15	-39.5	-41.8	14.0	3.73e-05	0	60	0	200278016	50	4734
2026-01-14 09:18:17.88	127.09	23.29	-39.7	-41.9	14.1	1.06e-05	0	60	0	203423744	50	4766
2026-01-14 09:18:18.89	126.97	23.42	-39.6	-41.8	14.1	7.00e-07	0	60	0	206569472	50	4746
2026-01-14 09:18:19.90	126.84	23.56	-39.6	-41.8	14.2	7.00e-07	0	59	0	209715200	50	4730
2026-01-14 09:18:20.91	126.72	23.70	-39.6	-41.8	14.2	3.00e-06	0	59	0	212860928	50	4740
2026-01-14 09:18:21.92	126.59	23.83	-39.7	-41.8	14.1	3.00e-06	0	59	0	216006656	50	4755
2026-01-14 09:18:22.93	126.46	23.97	-39.7	-41.8	14.1	1.50e-06	0	60	0	219152384	50	4754
2026-01-14 09:18:23.94	126.33	24.11	-39.7	-41.9	14.2	5.30e-06	0	60	0	222298112	50	4766
2026-01-14 09:18:24.95	126.20	24.25	-39.6	-41.8	14.2	2.82e-05	0	60	0	225443840	50	4737
2026-01-14 09:18:25.96	126.07	24.39	-39.7	-41.9	14.1	1.14e-05	0	59	0	228589568	50	4784
2026-01-14 09:18:26.97	125.94	24.53	-39.7	-41.9	14.2	3.80e-06	0	60	0	231735296	50	4771
2026-01-14 09:18:27.98	125.81	24.67	-39.5	-41.8	14.2	6.80e-06	0	60	0	234881024	50	4709
2026-01-14 09:18:28.99	125.67	24.82	-39.6	-41.8	14.1	3.80e-06	0	60	0	238026752	50	4752
2026-01-14 09:18:30.00	125.53	24.96	-39.7	-41.9	14.1	1.50e-06	0	60	0	241172480	50	4791
2026-01-14 09:18:31.01	125.40	25.10	-39.8	-42.0	14.0	3.80e-06	0	60	0	244318208	50	4818
2026-01-14 09:18:32.03	125.26	25.25	-39.8	-42.0	14.0	2.20e-06	0	60	0	247463936	50	4845
2026-01-14 09:18:33.03	125.12	25.39	-39.8	-42.1	14.0	1.50e-06	0	60	0	250609664	50	4890
2026-01-14 09:18:34.04	124.98	25.54	-39.9	-42.2	13.9	4.50e-06	0	60	0	253755392	50	4933
2026-01-14 09:18:35.05	124.84	25.68	-39.9	-42.2	13.8	2.20e-06	0	60	0	256901120	50	4962
2026-01-14 09:18:36.06	124.69	25.83	-40.0	-42.2	13.8	2.20e-06	0	60	0	260046848	50	4970
2026-01-14 09:18:37.07	124.55	25.98	-40.0	-42.3	13.7	1.50e-06	0	60	0	263192576	50	5037
2026-01-14 09:18:38.08	124.40	26.12	-40.1	-42.4	13.7	1.14e-05	0	60	0	266338304	50	5063
2026-01-14 09:18:39.09	124.25	26.27	-40.1	-42.4	13.6	8.30e-06	0	60	0	269484032	50	5077
2026-01-14 09:18:40.10	124.10	26.42	-40.1	-42.5	13.6	6.10e-06	0	60	0	272629760	50	5113
2026-01-14 09:18:41.11	123.95	26.57	-40.1	-42.5	13.6	6.10e-06	0	60	0	275775488	50	5110
2026-01-14 09:18:42.12	123.80	26.72	-40.2	-42.5	13.6	5.30e-06	0	60	0	278921216	50	5137
2026-01-14 09:18:43.13	123.65	26.87	-40.2	-42.6	13.5	9.10e-06	0	60	0	282066944	51	4895
2026-01-14 09:18:44.14	123.49	27.02	-40.3	-42.7	13.4	1.06e-05	0	60	0	285212672	51	4952
2026-01-14 09:18:45.15	123.33	27.17	-40.3	-42.7	13.4	1.37e-05	0	60	0	288358400	51	4972
2026-01-14 09:18:46.16	123.18	27.33	-40.3	-42.7	13.4	1.90e-05	0	60	0	291504128	51	4956
2026-01-14 09:18:47.17	123.02	27.48	-40.3	-42.7	13.4	1.22e-05	0	60	0	294649856	51	4933
2026-01-14 09:18:48.18	122.85	27.63	-40.3	-42.7	13.4	6.10e-06	0	60	0	297795584	51	4932
2026-01-14 09:18:49.19	122.69	27.79	-40.3	-42.6	13.4	1.06e-05	0	60	0	300941312	51	4904
2026-01-14 09:18:50.20	122.53	27.94	-40.3	-42.6	13.4	1.14e-05	0	60	0	304087040	51	4906
2026-01-14 09:18:51.21	122.36	28.10	-40.3	-42.8	13.3	2.44e-05	0	60	0	307232768	51	4986
2026-01-14 09:18:52.22	122.19	28.25	-40.4	-42.9	13.2	2.21e-05	0	60	0	310378496	51	5071
2026-01-14 09:18:53.23	122.02	28.41	-40.5	-43.0	13.1	2.67e-05	0	60	0	313524224	51	5108
2026-01-14 09:18:54.24	121.85	28.57	-40.5	-43.0	13.0	4.04e-05	0	60	0	317718528	51	5157
2026-01-14 09:18:55.25	121.68	28.72	-40.5	-43.0	13.1	2.82e-05	0	60	0	319815680	51	5145
2026-01-14 09:18:56.26	121.51	28.88	-40.5	-43.0	13.1	2.82e-05	0	60	0	322961408	51	5109
2026-01-14 09:18:57.27	121.33	29.04	-40.4	-42.8	13.3	2.13e-05	0	60	0	326107136	51	5029
2026-01-14 09:18:58.28	121.15	29.20	-40.3	-42.7	13.4	2.13e-05	0	60	0	329252864	51	4983
2026-01-14 09:18:59.29	120.97	29.36	-40.4	-42.8	13.4	1.37e-05	0	60	0	333447168	51	4985
2026-01-14 09:19:00.30	120.79	29.52	-40.3	-42.7	13.5	1.29e-05	0	60	0	336592896	51	4947
2026-01-14 09:19:01.31	120.61	29.68	-40.3	-42.6	13.5	1.29e-05	0	60	0	339738624	51	4912
2026-01-14 09:19:02.32	120.42	29.84	-40.3	-42.7	13.3	1.14e-05	0	60	0	341835776	51	4981
2026-01-14 09:19:03.33	120.23	30.01	-40.4	-42.8	13.3	1.60e-05	0	60	0	344981504	51	4987
2026-01-14 09:19:04.34	120.04	30.17	-40.4	-42.8	13.2	2.13e-05	0	60	0	349175808	51	5041
2026-01-14 09:19:05.35	119.85	30.33	-40.5	-42.9	13.1	3.50e-05	0	60	0	352321536	51	5089
2026-01-14 09:19:06.36	119.66	30.50	-40.5	-43.0	13.1	3.58e-05	0	60	0	355467264	51	5124
2026-01-14 09:19:07.37	119.47	30.66	-40.6	-43.1	12.9	2.97e-05	0	60	0	358612992	51	5210
2026-01-14 09:19:08.38	119.27	30.83	-40.5	-43.0	13.0	3.12e-05	0	60	0	361758720	51	5148
2026-01-14 09:19:09.39	119.07	30.99	-40.5	-43.0	13.0	4.11e-05	0	60	0	364904448	51	5150
2026-01-14 09:19:10.40	118.87	31.16	-40.5	-43.0	13.1	3.66e-05	0	60	0	368050176	51	5146
2026-01-14 09:19:11.41	118.66	31.33	-40.6	-43.1	13.1	2.97e-05	0	60	0	371195904	51	5164
2026-01-14 09:19:12.42	118.46	31.49	-40.6	-43.1	13.0	3.43e-05	0	60	0	374341632	51	5194
2026-01-14 09:19:13.43	118.25	31.66	-40.6	-43.1	13.0	4.19e-05	0	60	0	377487360	51	5206
2026-01-14 09:19:14.45	118.04	31.83	-40.7	-43.3	12.8	4.11e-05	0	60	0	380633088	51	5284
2026-01-14 09:19:15.45	117.83	32.00	-40.7	-43.3	12.8	5.87e-05	0	60	0	383778816	51	5287
2026-01-14 09:19:16.46	117.62	32.17	-40.6	-43.2	12.8	4.19e-05	0	60	0	386924544	52	4956
2026-01-14 09:19:17.47	117.40	32.34	-40.7	-43.2	12.8	6.71e-05	0	60	0	390070272	52	4981
2026-01-14 09:19:18.48	117.18	32.51	-40.7	-43.3	12.7	7.32e-05	0	60	0	393216000	52	5026
2026-01-14 09:19:19.49	116.96	32.68	-40.7	-43.3	12.7	7.55e-05	0	60	0	396361728	52	5025
2026-01-14 09:19:20.50	116.73	32.85	-40.7	-43.3	12.7	7.40e-05	0	60	0	399507456	52	5015
2026-01-14 09:19:21.51	116.51	33.02	-40.7	-43.2	12.8	7.40e-05	0	60	0	402653184	52	4978
2026-01-14 09:19:22.53	116.28	33.20	-40.7	-43.3	12.8	6.40e-05	0	60	0	405798912	52	5013
2026-01-14 09:19:23.53	116.05	33.37	-40.6	-43.2	12.9	5.03e-05	0	60	0	408944640	52	4951
2026-01-14 09:19:24.54	115.82	33.54	-40.7	-43.3	12.7	6.86e-05	0	60	0	412090368	52	5025
2026-01-14 09:19:25.55	115.58	33.72	-40.8	-43.4	12.6	9.00e-05	0	60	0	415236096	52	5089
2026-01-14 09:19:26.56	115.34	33.89	-40.8	-43.5	12.5	9.07e-05	0	60	0	418381824	52	5135
2026-01-14 09:19:27.58	115.10	34.07	-40.9	-43.6	12.4	1.30e-04	0	60	0	421527552	52	5179
2026-01-14 09:19:28.59	114.86	34.24	-40.9	-43.6	12.4	1.53e-04	0	60	0	424673280	52	5214
2026-01-14 09:19:29.60	114.61	34.42	-40.9	-43.6	12.4	1.31e-04	0	60	0	427819008	52	5190
2026-01-14 09:19:30.61	114.36	34.59	-41.0	-43.8	12.3	1.66e-04	0	60	0	430964736	52	5287
2026-01-14 09:19:31.62	114.11	34.77	-41.0	-43.7	12.4	1.71e-04	0	60	0	434110464	52	5265
2026-01-14 09:19:32.63	113.85	34.95	-41.1	-43.9	12.1	2.62e-04	0	60	0	437256192	52	5392
2026-01-14 09:19:33.64	113.60	35.12	-41.1	-44.0	12.1	2.70e-04	0	60	0	440401920	52	5408
2026-01-14 09:19:34.65	113.34	35.30	-41.1	-43.9	12.1	2.40e-04	0	60	0	443547648	52	5401
2026-01-14 09:19:35.66	113.07	35.48	-41.2	-44.0	12.0	2.98e-04	0	60	0	446693376	52	5417
2026-01-14 09:19:36.67	112.81	35.66	-41.2	-44.0	12.0	3.43e-04	0	60	0	449839104	52	5444
2026-01-14 09:19:37.68	112.54	35.83	-41.2	-44.1	11.9	2.84e-04	0	60	0	452984832	52	5473
2026-01-14 09:19:38.69	112.27	36.01	-41.2	-44.1	12.0	3.66e-04	0	60	0	456130560	53	5171
2026-01-14 09:19:39.70	111.99	36.19	-41.2	-44.1	11.9	4.30e-04	0	60	0	459276288	53	5213
2026-01-14 09:19:40.71	111.72	36.37	-41.4	-44.4	11.6	6.38e-04	0	60	0	462422016	53	5352
2026-01-14 09:19:41.72	111.43	36.55	-41.5	-44.5	11.5	7.97e-04	0	60	0	465567744	53	5451
2026-01-14 09:19:42.73	111.15	36.73	-41.4	-44.5	11.5	8.33e-04	0	60	0	468713472	53	5426
2026-01-14 09:19:43.74	110.86	36.91	-41.5	-44.5	11.5	7.79e-04	0	60	0	471859200	53	5434
2026-01-14 09:19:44.75	110.57	37.09	-41.4	-44.5	11.4	6.72e-03	0	61	0	475004928	53	5444
2026-01-14 09:19:45.76	110.28	37.27	-41.6	-44.7	11.3	3.28e-03	0	60	0	478150656	53	5565
2026-01-14 09:19:46.77	109.98	37.45	-41.5	-44.5	11.4	1.39e-03	0	60	0	481296384	53	5458
2026-01-14 09:19:47.78	109.68	37.62	-41.6	-44.7	11.2	1.64e-03	0	60	0	484442112	53	5557
2026-01-14 09:19:48.79	109.38	37.80	-41.6	-44.7	11.4	1.10e-03	0	60	0	487587840	53	5547
2026-01-14 09:19:49.80	109.07	37.98	-41.6	-44.7	11.3	1.02e-03	0	60	0	490733568	53	5574
2026-01-14 09:19:50.81	108.76	38.16	-41.5	-44.5	11.5	8.96e-04	0	60	0	493879296	53	5460
2026-01-14 09:19:51.82	108.45	38.34	-41.5	-44.5	11.5	8.89e-04	0	60	0	497025024	53	5447
2026-01-14 09:19:52.83	108.13	38.52	-41.4	-44.4	11.6	7.22e-04	0	60	0	500170752	53	5400
2026-01-14 09:19:53.84	107.81	38.70	-41.4	-44.5	11.6	7.43e-04	0	60	0	503316480	53	5405
2026-01-14 09:19:54.85	107.49	38.88	-41.5	-44.5	11.6	6.72e-04	0	60	0	506462208	53	5410
2026-01-14 09:19:55.86	107.16	39.06	-41.4	-44.5	11.6	6.98e-04	0	60	0	509607936	53	5408
2026-01-14 09:19:56.87	106.83	39.24	-41.4	-44.3	11.8	5.20e-04	0	60	0	512753664	53	5316
2026-01-14 09:19:57.88	106.49	39.42	-41.2	-44.0	12.1	3.08e-04	0	60	0	515899392	53	5116
2026-01-14 09:19:58.89	106.15	39.60	-41.2	-44.1	12.0	3.32e-04	0	60	0	519045120	53	5169
2026-01-14 09:19:59.90	105.81	39.78	-41.4	-44.4	11.7	4.82e-04	0	61	0	522190848	53	5345
2026-01-14 09:20:00.91	105.46	39.96	-41.5	-44.5	11.5	6.37e-04	0	60	0	525336576	53	5434
2026-01-14 09:20:01.91	105.12	40.13	-41.6	-44.7	11.4	7.79e-04	0	61	0	528482304	53	5535
2026-01-14 09:20:02.92	104.76	40.31	-41.6	-44.7	11.4	1.14e-03	0	60	0	531628032	53	5562
2026-01-14 09:20:03.94	104.40	40.49	-41.7	-44.8	11.3	1.02e-03	0	61	0	534773760	53	5623
2026-01-14 09:20:04.95	104.04	40.67	-41.7	-44.9	11.2	1.36e-03	0	60	0	537919488	54	5383
2026-01-14 09:20:05.95	103.68	40.84	-41.8	-45.0	11.1	1.57e-03	0	60	0	541065216	54	5446
2026-01-14 09:20:06.96	103.31	41.02	-41.9	-45.2	10.9	2.08e-03	0	61	0	544210944	54	5584
2026-01-14 09:20:07.97	102.93	41.19	-42.1	-45.5	10.6	2.61e-03	0	60	0	547356672	54	5745
2026-01-14 09:20:08.98	102.55	41.37	-42.2	-45.7	10.4	4.30e-03	0	60	0	550502400	54	5908
2026-01-14 09:20:09.99	102.17	41.54	-42.2	-45.8	10.3	5.79e-03	0	61	0	553648128	55	5602
2026-01-14 09:20:11.00	101.79	41.72	-42.2	-45.7	10.3	4.68e-03	0	61	0	556793856	55	5571
2026-01-14 09:20:12.02	101.39	41.89	-42.2	-45.8	10.3	4.87e-03	0	60	0	559939584	55	5611
2026-01-14 09:20:13.03	101.00	42.06	-42.3	-45.9	10.3	5.56e-03	0	61	0	563085312	55	5658
2026-01-14 09:20:14.04	100.60	42.24	-42.3	-45.9	10.1	6.82e-03	0	61	0	566231040	55	5719
2026-01-14 09:20:15.05	100.19	42.41	-42.4	-46.1	10.0	6.87e-03	0	60	0	569376768	55	5794
2026-01-14 09:20:16.06	99.78	42.58	-42.4	-46.2	9.9	8.57e-03	0	60	0	572522496	55	5879
2026-01-14 09:20:17.07	99.37	42.75	-42.5	-46.4	9.7	1.15e-02	0	60	0	575668224	55	6017
2026-01-14 09:20:18.07	98.96	42.91	-42.6	-46.5	9.6	1.25e-02	0	60	0	578813952	55	6106
2026-01-14 09:20:19.08	98.54	43.08	-42.6	-46.6	9.4	1.53e-02	0	60	0	581959680	55	6164
2026-01-14 09:20:20.09	98.11	43.25	-42.5	-46.3	9.9	1.07e-02	0	60	0	585105408	55	5924
2026-01-14 09:20:21.10	97.68	43.41	-42.4	-46.1	10.0	8.13e-03	0	61	0	588251136	55	5811
2026-01-14 09:20:22.11	97.25	43.57	-42.2	-45.6	10.5	4.64e-03	0	60	0	591396864	55	5515
2026-01-14 09:20:23.12	96.81	43.74	-42.0	-45.4	10.8	2.79e-03	0	60	0	594542592	55	5359
2026-01-14 09:20:24.13	96.37	43.90	-42.1	-45.5	10.6	3.20e-03	0	61	0	597688320	55	5420
2026-01-14 09:20:25.14	95.92	44.06	-42.2	-45.7	10.4	3.86e-03	0	61	0	600834048	55	5585
2026-01-14 09:20:26.15	95.47	44.22	-42.4	-46.1	10.0	6.68e-03	0	60	0	603979776	55	5804
2026-01-14 09:20:27.16	95.01	44.38	-42.3	-45.9	10.3	5.73e-03	0	61	0	607125504	55	5660
2026-01-14 09:20:28.17	94.55	44.53	-42.2	-45.7	10.4	5.56e-03	0	60	0	610271232	55	5577
2026-01-14 09:20:29.18	94.09	44.69	-42.2	-45.7	10.3	4.29e-03	0	60	0	613416960	55	5572
2026-01-14 09:20:30.19	93.62	44.84	-42.3	-45.9	10.1	5.51e-03	0	61	0	616562688	55	5718
2026-01-14 09:20:31.20	93.14	44.99	-42.3	-45.9	10.2	6.05e-03	0	60	0	619708416	55	5659
2026-01-14 09:20:32.21	92.66	45.14	-42.3	-45.9	10.2	6.39e-03	0	60	0	622854144	55	5699
2026-01-14 09:20:33.22	92.18	45.29	-42.1	-45.5	10.7	3.41e-03	0	61	0	625999872	55	5404
2026-01-14 09:20:34.23	91.69	45.44	-41.8	-45.0	11.2	1.98e-03	0	60	0	629145600	55	5147
2026-01-14 09:20:35.24	91.20	45.58	-41.9	-45.1	11.1	1.29e-03	0	61	0	633339904	55	5172
2026-01-14 09:20:36.25	90.70	45.72	-42.0	-45.3	10.8	1.96e-03	0	60	0	635437056	55	5334
2026-01-14 09:20:37.26	90.20	45.86	-42.1	-45.5	10.7	2.93e-03	0	61	0	638582784	55	5458
2026-01-14 09:20:38.27	89.69	46.00	-42.0	-45.3	10.9	2.54e-03	0	60	0	641728512	55	5336
2026-01-14 09:20:39.28	89.18	46.14	-41.9	-45.1	11.1	1.53e-03	0	61	0	644874240	55	5163
2026-01-14 09:20:40.29	88.66	46.27	-41.7	-44.8	11.4	1.13e-03	0	60	0	649068544	55	5003
2026-01-14 09:20:41.30	88.14	46.41	-42.0	-45.2	10.9	2.29e-03	0	61	0	652214272	55	5265
2026-01-14 09:20:42.31	87.62	46.54	-42.3	-45.9	10.2	5.15e-03	0	61	0	655360000	55	5700
2026-01-14 09:20:43.32	87.09	46.67	-42.3	-45.9	10.2	5.85e-03	0	61	0	658505728	55	5687
2026-01-14 09:20:44.33	86.56	46.79	-42.3	-45.9	10.2	5.30e-03	0	61	0	661651456	55	5674
2026-01-14 09:20:45.34	86.02	46.92	-42.2	-45.6	10.5	4.71e-03	0	61	0	664797184	55	5516
2026-01-14 09:20:46.35	85.48	47.04	-42.2	-45.6	10.6	3.50e-03	0	61	0	667942912	55	5471
2026-01-14 09:20:47.36	84.94	47.15	-42.4	-46.1	10.0	6.95e-03	0	61	0	671088640	55	5821
2026-01-14 09:20:48.37	84.39	47.27	-42.5	-46.4	9.7	1.17e-02	0	61	0	674234368	55	5993
2026-01-14 09:20:49.38	83.83	47.38	-42.3	-45.8	10.4	5.95e-03	0	61	0	677380096	55	5601
2026-01-14 09:20:50.40	83.27	47.50	-42.2	-45.6	10.5	3.86e-03	0	61	0	680525824	55	5518
2026-01-14 09:20:51.41	82.71	47.60	-42.4	-46.0	10.2	5.00e-03	0	61	0	683671552	55	5729
2026-01-14 09:20:52.42	82.14	47.71	-42.5	-46.3	9.9	8.98e-03	0	61	0	686817280	55	5945
2026-01-14 09:20:53.43	81.58	47.81	-42.7	-46.6	9.6	1.15e-02	0	61	0	689963008	55	6143
2026-01-14 09:20:54.44	81.00	47.91	-42.6	-46.5	9.6	1.26e-02	0	61	0	693108736	55	6080
2026-01-14 09:20:55.45	80.43	48.01	-42.4	-46.0	10.1	6.98e-03	0	61	0	696254464	55	5783
2026-01-14 09:20:56.46	79.85	48.10	-42.3	-45.8	10.4	4.51e-03	0	61	0	699400192	55	5649
2026-01-14 09:20:57.47	79.26	48.19	-42.2	-45.7	10.5	5.99e-03	0	60	0	702545920	55	5545
2026-01-14 09:20:58.48	78.68	48.28	-42.0	-45.2	11.0	2.24e-03	0	61	0	705691648	55	5260
2026-01-14 09:20:59.49	78.09	48.36	-42.0	-45.2	11.0	1.57e-03	0	61	0	708837376	55	5265
2026-01-14 09:21:00.50	77.49	48.45	-41.9	-45.1	11.1	1.76e-03	0	61	0	711983104	55	5203
2026-01-14 09:21:01.51	76.90	48.52	-42.0	-45.3	10.9	1.99e-03	0	61	0	715128832	55	5317
2026-01-14 09:21:02.52	76.30	48.60	-42.1	-45.5	10.8	3.28e-03	0	61	0	718274560	55	5410
2026-01-14 09:21:03.53	75.69	48.67	-41.8	-44.9	11.4	1.28e-03	0	61	0	721420288	55	5055
2026-01-14 09:21:04.54	75.09	48.74	-41.8	-44.9	11.3	7.76e-04	0	61	0	724566016	55	5086
2026-01-14 09:21:05.55	74.48	48.80	-41.9	-45.2	11.1	1.40e-03	0	61	0	727711744	55	5234
2026-01-14 09:21:06.56	73.87	48.87	-42.2	-45.6	10.6	2.62e-03	0	61	0	730857472	55	5510
2026-01-14 09:21:07.57	73.26	48.92	-42.4	-46.0	10.2	6.48e-03	0	61	0	734003200	55	5751
2026-01-14 09:21:08.58	72.65	48.98	-42.3	-45.8	10.4	5.37e-03	0	61	0	737148928	55	5622
2026-01-14 09:21:09.59	72.03	49.03	-42.1	-45.5	10.7	3.11e-03	0	61	0	740294656	55	5427
2026-01-14 09:21:10.60	71.41	49.08	-42.1	-45.3	10.9	2.42e-03	0	61	0	743440384	55	5336
2026-01-14 09:21:11.61	70.79	49.12	-42.0	-45.3	10.9	2.07e-03	0	61	0	746586112	55	5293
2026-01-14 09:21:12.63	70.16	49.16	-42.1	-45.4	10.7	2.58e-03	0	61	0	749731840	55	5389
2026-01-14 09:21:13.63	69.54	49.20	-42.1	-45.4	10.8	2.93e-03	0	61	0	752877568	55	5383
2026-01-14 09:21:14.65	68.91	49.23	-41.9	-45.0	11.2	1.27e-03	0	61	0	756023296	55	5112
2026-01-14 09:21:15.66	68.29	49.26	-41.9	-45.0	11.2	1.20e-03	0	61	0	759169024	55	5139
2026-01-14 09:21:16.67	67.66	49.29	-41.7	-44.7	11.6	1.02e-03	0	61	0	762314752	55	4933
2026-01-14 09:21:17.68	67.03	49.31	-41.6	-44.5	11.7	6.03e-04	0	61	0	765460480	55	4865
2026-01-14 09:21:18.69	66.40	49.33	-41.5	-44.4	11.8	5.91e-04	0	61	0	768606208	55	4807
2026-01-14 09:21:19.70	65.77	49.34	-41.6	-44.6	11.6	4.86e-04	0	61	0	771751936	55	4906
2026-01-14 09:21:20.71	65.14	49.36	-42.0	-45.4	10.9	1.55e-03	0	61	0	774897664	55	5341
2026-01-14 09:21:21.72	64.51	49.36	-42.1	-45.5	10.7	2.95e-03	0	61	0	778043392	55	5418
2026-01-14 09:21:22.73	63.88	49.37	-41.9	-45.1	11.2	1.56e-03	0	61	0	781189120	55	5162
2026-01-14 09:21:23.74	63.25	49.37	-41.7	-44.7	11.6	6.91e-04	0	61	0	784334848	55	4954
2026-01-14 09:21:24.75	62.62	49.36	-41.5	-44.4	11.8	5.47e-04	0	61	0	787480576	55	4793
2026-01-14 09:21:25.76	61.98	49.36	-41.5	-44.5	11.9	4.32e-04	0	61	0	790626304	54	5101
2026-01-14 09:21:26.77	61.35	49.34	-41.6	-44.5	11.8	4.68e-04	0	61	0	793772032	54	5139
2026-01-14 09:21:27.78	60.72	49.33	-41.6	-44.5	11.8	5.16e-04	0	61	0	796917760	54	5133
2026-01-14 09:21:28.79	60.09	49.31	-41.6	-44.5	11.7	5.03e-04	0	61	0	800063488	54	5130
2026-01-14 09:21:29.80	59.47	49.29	-41.7	-44.8	11.5	8.45e-04	0	61	0	803209216	54	5308
2026-01-14 09:21:30.81	58.84	49.26	-41.9	-45.1	11.2	1.23e-03	0	61	0	806354944	54	5471
2026-01-14 09:21:31.82	58.21	49.23	-42.0	-45.2	11.0	2.03e-03	0	61	0	809500672	54	5586
2026-01-14 09:21:32.83	57.59	49.20	-42.1	-45.3	10.9	2.35e-03	0	61	0	812646400	54	5655
2026-01-14 09:21:33.84	56.96	49.16	-42.1	-45.4	10.8	2.38e-03	0	61	0	815792128	54	5695
2026-01-14 09:21:34.85	56.34	49.12	-42.2	-45.5	10.7	3.60e-03	0	61	0	818937856	54	5786
2026-01-14 09:21:35.86	55.72	49.08	-42.2	-45.7	10.5	3.65e-03	0	61	0	822083584	55	5579
2026-01-14 09:21:36.87	55.10	49.03	-42.5	-46.2	10.0	5.69e-03	0	61	0	825229312	55	5858
2026-01-14 09:21:37.88	54.49	48.98	-42.3	-45.9	10.3	7.79e-03	0	61	0	828375040	55	5707
2026-01-14 09:21:38.89	53.87	48.92	-42.0	-45.3	10.9	3.06e-03	0	61	0	831520768	55	5332
2026-01-14 09:21:39.90	53.26	48.87	-42.0	-45.3	10.9	2.35e-03	0	61	0	834666496	55	5312
2026-01-14 09:21:40.91	52.65	48.81	-42.0	-45.3	10.9	2.11e-03	0	61	0	837812224	55	5301
2026-01-14 09:21:41.92	52.05	48.74	-42.2	-45.7	10.5	3.55e-03	0	61	0	840957952	55	5544
2026-01-14 09:21:42.93	51.44	48.67	-42.1	-45.5	10.8	3.06e-03	0	61	0	844103680	55	5419
2026-01-14 09:21:43.94	50.84	48.60	-41.9	-45.0	11.2	1.40e-03	0	61	0	847249408	55	5142
2026-01-14 09:21:44.95	50.24	48.53	-42.0	-45.3	11.0	1.49e-03	0	61	0	850395136	55	5281
2026-01-14 09:21:45.96	49.65	48.45	-42.0	-45.2	11.0	2.27e-03	0	61	0	853540864	55	5229
2026-01-14 09:21:46.97	49.05	48.37	-41.9	-45.0	11.1	1.31e-03	0	61	0	856686592	55	5142
2026-01-14 09:21:47.98	48.47	48.28	-41.7	-44.7	11.4	1.03e-03	0	61	0	859832320	55	4960
2026-01-14 09:21:48.99	47.88	48.19	-41.6	-44.6	11.6	7.84e-04	0	61	0	862978048	55	4883
2026-01-14 09:21:50.00	47.30	48.10	-41.5	-44.5	11.7	5.67e-04	0	61	0	866123776	55	4827
2026-01-14 09:21:51.00	46.72	48.01	-41.6	-44.6	11.6	6.10e-04	0	61	0	869269504	55	4897
2026-01-14 09:21:52.01	46.15	47.91	-41.7	-44.7	11.6	7.43e-04	0	61	0	872415232	55	4942
2026-01-14 09:21:53.02	45.58	47.82	-41.7	-44.7	11.4	8.88e-04	0	61	0	875560960	55	4983
2026-01-14 09:21:54.03	45.01	47.71	-41.5	-44.5	11.7	5.88e-04	0	61	0	878706688	55	4820
2026-01-14 09:21:55.04	44.44	47.61	-41.3	-44.1	12.1	3.79e-04	0	61	0	881852416	54	4912
2026-01-14 09:21:56.05	43.88	47.50	-41.3	-44.2	12.0	3.04e-04	0	61	0	884998144	54	4941
2026-01-14 09:21:57.06	43.33	47.39	-41.7	-44.7	11.4	8.83e-04	0	61	0	888143872	54	5257
2026-01-14 09:21:58.07	42.77	47.28	-42.1	-45.4	10.7	2.16e-03	0	61	0	891289600	54	5719
2026-01-14 09:21:59.08	42.23	47.16	-42.6	-46.4	9.7	6.81e-03	0	61	0	894435328	55	6014
2026-01-14 09:22:00.09	41.68	47.04	-42.6	-46.4	9.8	1.18e-02	0	61	0	897581056	55	6026
2026-01-14 09:22:01.10	41.14	46.92	-42.1	-45.5	10.6	5.46e-03	0	61	0	900726784	55	5461
2026-01-14 09:22:02.11	40.60	46.80	-41.8	-44.9	11.3	1.52e-03	0	61	0	903872512	55	5064
2026-01-14 09:22:03.12	40.07	46.67	-41.5	-44.4	11.8	5.28e-04	0	61	0	907018240	55	4790
2026-01-14 09:22:04.13	39.55	46.55	-41.6	-44.6	11.6	5.89e-04	0	61	0	910163968	55	4898
2026-01-14 09:22:05.14	39.02	46.42	-41.9	-45.1	11.1	1.13e-03	0	61	0	913309696	55	5174
2026-01-14 09:22:06.15	38.50	46.28	-42.3	-46.0	10.1	4.05e-03	0	61	0	916455424	55	5730
2026-01-14 09:22:07.16	37.99	46.15	-42.5	-46.3	9.7	1.11e-02	0	61	0	919601152	55	5943
2026-01-14 09:22:08.17	37.48	46.01	-42.1	-45.5	10.4	5.91e-03	0	61	0	922746880	55	5411
2026-01-14 09:22:09.18	36.97	45.87	-41.6	-44.6	11.4	1.42e-03	0	61	0	926941184	55	4894
2026-01-14 09:22:10.19	36.47	45.73	-41.6	-44.6	11.5	8.20e-04	0	61	0	929038336	55	4907
2026-01-14 09:22:11.20	35.98	45.59	-41.8	-44.9	11.2	1.07e-03	0	61	0	932184064	55	5092
2026-01-14 09:22:12.21	35.49	45.45	-42.4	-46.1	10.0	4.46e-03	0	61	0	935329792	55	5824
2026-01-14 09:22:13.22	35.00	45.30	-43.3	-47.8	8.4	3.27e-02	0	61	0	938475520	57	6315
2026-01-14 09:22:14.23	34.52	45.15	-43.2	-47.6	8.5	5.17e-02	0	61	0	941621248	57	6176
2026-01-14 09:22:15.24	34.04	45.01	-42.5	-46.0	10.0	1.29e-02	0	61	0	945815552	56	5460
2026-01-14 09:22:16.25	33.56	44.85	-41.4	-44.3	11.6	1.06e-03	0	61	0	948961280	54	5032
2026-01-14 09:22:17.26	33.09	44.70	-41.1	-43.8	12.3	1.74e-04	0	61	0	951058432	54	4731
2026-01-14 09:22:18.27	32.63	44.55	-41.2	-43.9	12.2	1.91e-04	0	61	0	954204160	54	4801
2026-01-14 09:22:19.28	32.17	44.39	-41.8	-44.9	11.1	7.88e-04	0	61	0	958398464	54	5397
2026-01-14 09:22:20.29	31.71	44.24	-42.4	-46.1	10.0	5.22e-03	0	61	0	961544192	55	5809
2026-01-14 09:22:21.30	31.26	44.08	-43.1	-47.4	8.8	2.29e-02	0	61	0	964689920	56	6384
2026-01-14 09:22:22.31	30.82	43.92	-43.1	-47.4	8.8	3.45e-02	0	61	0	967835648	56	6371
2026-01-14 09:22:23.32	30.38	43.76	-42.7	-46.5	9.6	1.58e-02	0	61	0	970981376	56	5736
2026-01-14 09:22:24.33	29.94	43.59	-42.4	-46.0	10.2	7.13e-03	0	61	0	974127104	56	5422
2026-01-14 09:22:25.34	29.50	43.43	-42.2	-45.6	10.5	4.86e-03	0	61	0	977272832	56	5186
2026-01-14 09:22:26.35	29.08	43.27	-42.7	-46.5	9.6	7.81e-03	0	61	0	980418560	56	5764
2026-01-14 09:22:27.36	28.65	43.10	-43.3	-47.9	8.3	3.63e-02	0	61	0	983564288	57	6358
2026-01-14 09:22:28.37	28.23	42.93	-43.5	-48.4	7.8	8.09e-02	0	61	0	986710016	57	6785
2026-01-14 09:22:29.38	27.82	42.77	-43.6	-48.5	7.6	9.39e-02	0	61	0	989855744	57	6857
2026-01-14 09:22:30.39	27.41	42.60	-43.1	-47.3	8.9	3.62e-02	0	61	0	993001472	57	5940
2026-01-14 09:22:31.40	27.00	42.43	-42.4	-46.0	10.3	6.99e-03	0	61	0	996147200	56	5408
2026-01-14 09:22:32.42	26.59	42.26	-41.7	-44.7	11.4	1.91e-03	0	61	0	999292928	55	4957
2026-01-14 09:22:33.42	26.20	42.09	-41.4	-44.2	12.0	4.50e-04	0	61	0	1002438656	54	4953
2026-01-14 09:22:34.44	25.80	41.91	-41.6	-44.6	11.5	5.13e-04	0	61	0	1005584384	54	5190
2026-01-14 09:22:35.45	25.41	41.74	-42.1	-45.5	10.6	2.27e-03	0	61	0	1008730112	54	5742
2026-01-14 09:22:36.46	25.03	41.57	-42.6	-46.4	9.6	1.11e-02	0	61	0	1011875840	55	6049
2026-01-14 09:22:37.46	24.65	41.40	-43.0	-47.1	9.1	2.18e-02	0	61	0	1015021568	56	6196
2026-01-14 09:22:38.48	24.27	41.22	-42.8	-46.7	9.4	2.13e-02	0	61	0	1018167296	56	5881
2026-01-14 09:22:39.49	23.89	41.05	-42.4	-45.9	10.2	8.74e-03	0	61	0	1021313024	56	5353
2026-01-14 09:22:40.50	23.52	40.87	-42.1	-45.5	10.6	3.79e-03	0	61	0	1024458752	56	5145
2026-01-14 09:22:41.51	23.16	40.70	-42.0	-45.3	11.0	2.08e-03	0	61	0	1027604480	56	4995
2026-01-14 09:22:42.52	22.80	40.52	-41.8	-44.9	11.2	1.39e-03	0	61	0	1030750208	55	5066
2026-01-14 09:22:43.53	22.44	40.34	-41.9	-45.2	10.9	2.06e-03	0	61	0	1033895936	55	5263
2026-01-14 09:22:44.54	22.09	40.17	-42.3	-45.8	10.2	5.05e-03	0	61	0	1037041664	55	5623
2026-01-14 09:22:45.55	21.74	39.99	-42.6	-46.5	9.5	1.27e-02	0	61	0	1040187392	55	6098
2026-01-14 09:22:46.56	21.39	39.81	-42.9	-47.0	9.2	1.91e-02	0	61	0	1043333120	56	6122
2026-01-14 09:22:47.57	21.05	39.63	-42.9	-46.9	9.2	2.11e-02	0	61	0	1046478848	56	6055
2026-01-14 09:22:48.58	20.71	39.45	-42.6	-46.3	9.9	1.26e-02	0	61	0	1049624576	56	5615
2026-01-14 09:22:49.59	20.38	39.28	-42.3	-45.8	10.4	5.51e-03	0	61	0	1052770304	56	5300
2026-01-14 09:22:50.60	20.05	39.10	-42.1	-45.4	10.8	2.91e-03	0	61	0	1055916032	56	5064
2026-01-14 09:22:51.61	19.72	38.92	-41.8	-45.1	10.9	2.20e-03	0	61	0	1059061760	55	5203
2026-01-14 09:22:52.63	19.40	38.74	-41.9	-45.2	10.9	1.85e-03	0	61	0	1062207488	55	5220
2026-01-14 09:22:53.63	19.08	38.56	-42.2	-45.8	10.2	3.51e-03	0	61	0	1065353216	55	5607
2026-01-14 09:22:54.65	18.76	38.38	-42.3	-46.2	9.8	8.35e-03	0	61	0	1068498944	55	5888
2026-01-14 09:22:55.65	18.45	38.20	-42.4	-46.1	9.9	1.00e-02	0	61	0	1071644672	55	5843
2026-01-14 09:22:56.66	18.14	38.02	-42.2	-45.7	10.3	6.21e-03	0	61	0	1074790400	55	5579
2026-01-14 09:22:57.67	17.84	37.85	-42.1	-45.6	10.4	4.90e-03	0	61	0	1077936128	55	5495
2026-01-14 09:22:58.68	17.53	37.67	-42.0	-45.4	10.6	4.82e-03	0	61	0	1081081856	55	5375
2026-01-14 09:22:59.69	17.23	37.49	-41.6	-44.8	11.2	1.62e-03	0	61	0	1084227584	55	5028
2026-01-14 09:23:00.70	16.94	37.31	-41.4	-44.5	11.6	9.51e-04	0	61	0	1087373312	54	5111
2026-01-14 09:23:01.71	16.65	37.13	-41.3	-44.1	11.9	4.60e-04	0	61	0	1090519040	54	4903
2026-01-14 09:23:02.72	16.36	36.95	-41.1	-43.9	12.2	2.91e-04	0	61	0	1093664768	54	4802
2026-01-14 09:23:03.73	16.07	36.77	-41.2	-44.0	12.0	2.69e-04	0	61	0	1096810496	54	4863
2026-01-14 09:23:04.74	15.79	36.59	-41.3	-44.2	11.9	3.97e-04	0	61	0	1099956224	54	4983
2026-01-14 09:23:05.75	15.51	36.42	-41.5	-44.6	11.5	7.77e-04	0	61	0	1103101952	54	5171
2026-01-14 09:23:06.76	15.23	36.24	-41.4	-44.6	11.4	9.41e-04	0	61	0	1106247680	54	5209
2026-01-14 09:23:07.77	14.96	36.06	-41.2	-44.1	12.0	5.42e-04	0	61	0	1109393408	54	4887
2026-01-14 09:23:08.78	14.69	35.88	-40.9	-43.5	12.5	1.88e-04	0	61	0	1112539136	53	4865
2026-01-14 09:23:09.79	14.42	35.71	-40.6	-43.1	12.9	4.95e-05	0	61	0	1115684864	52	4924
2026-01-14 09:23:10.80	14.15	35.53	-40.7	-43.2	12.9	5.11e-05	0	61	0	1118830592	52	4964
2026-01-14 09:23:11.81	13.89	35.35	-40.9	-43.6	12.5	9.53e-05	0	61	0	1121976320	52	5160
2026-01-14 09:23:12.82	13.63	35.18	-41.0	-43.8	12.3	1.94e-04	0	61	0	1125122048	52	5304
2026-01-14 09:23:13.83	13.38	35.00	-41.1	-43.9	12.2	2.20e-04	0	61	0	1128267776	52	5341
2026-01-14 09:23:14.84	13.12	34.82	-41.0	-43.6	12.4	1.65e-04	0	61	0	1131413504	52	5213
2026-01-14 09:23:15.85	12.87	34.65	-40.9	-43.6	12.5	1.56e-04	0	61	0	1134559232	52	5160
2026-01-14 09:23:16.86	12.63	34.47	-40.7	-43.3	12.7	4.95e-05	0	61	0	1137704960	52	5008
2026-01-14 09:23:17.87	12.38	34.30	-40.7	-43.3	12.7	7.32e-05	0	61	0	1140850688	52	5020
2026-01-14 09:23:18.88	12.14	34.13	-40.8	-43.5	12.5	9.38e-05	0	61	0	1143996416	52	5131
2026-01-14 09:23:19.89	11.90	33.95	-40.9	-43.7	12.3	1.61e-04	0	61	0	1147142144	52	5234
2026-01-14 09:23:20.90	11.66	33.78	-41.0	-43.8	12.2	2.25e-04	0	61	0	1150287872	52	5295
2026-01-14 09:23:21.91	11.42	33.60	-41.0	-43.8	12.1	2.43e-04	0	61	0	1153433600	52	5320
2026-01-14 09:23:22.92	11.19	33.43	-41.0	-43.8	12.1	2.73e-04	0	61	0	1156579328	52	5307
2026-01-14 09:23:23.94	10.96	33.26	-40.8	-43.5	12.5	1.23e-04	0	61	0	1159725056	52	5115
2026-01-14 09:23:24.95	10.73	33.09	-40.8	-43.4	12.6	9.68e-05	0	61	0	1162870784	52	5080
2026-01-14 09:23:25.96	10.51	32.92	-40.9	-43.6	12.4	1.14e-04	0	61	0	1166016512	52	5181
2026-01-14 09:23:26.97	10.29	32.75	-41.0	-43.8	12.2	1.72e-04	0	61	0	1169162240	52	5290
2026-01-14 09:23:27.98	10.06	32.57	-41.1	-44.0	12.0	2.97e-04	0	61	0	1172307968	52	5426
2026-01-14 09:23:28.99	9.85	32.41	-41.1	-44.0	12.0	3.15e-04	0	61	0	1175453696	52	5421
2026-01-14 09:23:29.99	9.63	32.24	-41.0	-43.8	12.2	2.17e-04	0	61	0	1178599424	52	5281
2026-01-14 09:23:31.00	9.42	32.07	-40.9	-43.6	12.4	1.54e-04	0	61	0	1181745152	52	5166
2026-01-14 09:23:32.01	9.21	31.90	-40.8	-43.4	12.5	1.20e-04	0	61	0	1184890880	52	5090
2026-01-14 09:23:33.03	9.00	31.73	-40.8	-43.4	12.6	1.05e-04	0	61	0	1188036608	52	5080
2026-01-14 09:23:34.04	8.79	31.56	-40.8	-43.4	12.6	9.15e-05	0	61	0	1191182336	52	5069
2026-01-14 09:23:35.05	8.59	31.40	-40.8	-43.5	12.5	1.21e-04	0	61	0	1194328064	52	5118
2026-01-14 09:23:36.06	8.38	31.23	-40.9	-43.6	12.4	1.40e-04	0	61	0	1197473792	52	5208
2026-01-14 09:23:37.07	8.18	31.07	-40.9	-43.6	12.4	1.50e-04	0	61	0	1200619520	52	5208
2026-01-14 09:23:38.08	7.99	30.90	-40.8	-43.5	12.4	1.50e-04	0	61	0	1203765248	52	5144
2026-01-14 09:23:39.09	7.79	30.74	-40.8	-43.4	12.5	1.27e-04	0	61	0	1206910976	52	5094
2026-01-14 09:23:40.10	7.59	30.57	-40.7	-43.4	12.6	1.06e-04	0	61	0	1210056704	52	5070
2026-01-14 09:23:41.11	7.40	30.41	-40.7	-43.3	12.7	7.24e-05	0	61	0	1213202432	52	4988
2026-01-14 09:23:42.12	7.21	30.25	-40.6	-43.2	12.8	5.87e-05	0	61	0	1216348160	52	4928
2026-01-14 09:23:43.13	7.02	30.08	-40.6	-43.1	12.8	4.88e-05	0	61	0	1219493888	52	4921
2026-01-14 09:23:44.14	6.84	29.92	-40.6	-43.2	12.8	5.64e-05	0	61	0	1222639616	52	4950
2026-01-14 09:23:45.15	6.65	29.76	-40.6	-43.2	12.7	7.47e-05	0	61	0	1225785344	52	4958
2026-01-14 09:23:46.16	6.47	29.60	-40.7	-43.3	12.6	9.23e-05	0	61	0	1228931072	52	5010
2026-01-14 09:23:47.17	6.29	29.44	-40.7	-43.4	12.5	1.05e-04	0	61	0	1232076800	52	5058
2026-01-14 09:23:48.18	6.11	29.28	-40.7	-43.3	12.6	1.01e-04	0	61	0	1235222528	52	5019
2026-01-14 09:23:49.19	5.93	29.12	-40.6	-43.3	12.6	8.85e-05	0	61	0	1239416832	52	4995
2026-01-14 09:23:50.20	5.76	28.96	-40.5	-43.1	12.8	7.40e-05	0	61	0	1242562560	52	4913
2026-01-14 09:23:51.21	5.58	28.81	-40.5	-43.0	12.9	6.33e-05	0	61	0	1244659712	52	4857
2026-01-14 09:23:52.22	5.41	28.65	-40.4	-43.0	12.9	4.34e-05	0	61	0	1247805440	52	4828
2026-01-14 09:23:53.23	5.24	28.49	-40.5	-43.0	12.9	3.58e-05	0	61	0	1250951168	52	4835
2026-01-14 09:23:54.24	5.07	28.34	-40.5	-43.1	12.8	5.87e-05	0	61	0	1255145472	52	4908
2026-01-14 09:23:55.25	4.91	28.18	-40.5	-43.1	12.8	6.17e-05	0	61	0	1258291200	52	4875
2026-01-14 09:23:56.26	4.74	28.03	-40.5	-43.0	12.9	5.34e-05	0	61	0	1261436928	52	4853
2026-01-14 09:23:57.27	4.58	27.87	-40.4	-42.9	13.0	4.80e-05	0	61	0	1264582656	52	4785
2026-01-14 09:23:58.28	4.42	27.72	-40.4	-42.9	13.0	3.81e-05	0	61	0	1266679808	52	4784
2026-01-14 09:23:59.29	4.25	27.57	-40.4	-42.9	13.0	5.11e-05	0	61	0	1270874112	52	4791
2026-01-14 09:24:00.30	4.10	27.41	-40.3	-42.8	13.0	3.35e-05	0	61	0	1274019840	52	4746
2026-01-14 09:24:01.31	3.94	27.26	-40.3	-42.8	13.1	3.58e-05	0	61	0	1277165568	52	4724
2026-01-14 09:24:02.32	3.78	27.11	-40.4	-42.9	13.0	3.43e-05	0	61	0	1280311296	52	4776
2026-01-14 09:24:03.33	3.63	26.96	-40.3	-42.8	13.0	3.73e-05	0	61	0	1283457024	52	4730
2026-01-14 09:24:04.34	3.48	26.81	-40.3	-42.7	13.1	2.36e-05	0	61	0	1286602752	52	4693
2026-01-14 09:24:05.35	3.32	26.66	-40.3	-42.8	13.0	3.35e-05	0	61	0	1289748480	52	4738
2026-01-14 09:24:06.36	3.17	26.51	-40.3	-42.8	13.1	3.28e-05	0	61	0	1292894208	52	4706
2026-01-14 09:24:07.37	3.03	26.37	-40.1	-42.5	13.3	2.05e-05	0	61	0	1296039936	52	4560
2026-01-14 09:24:08.38	2.88	26.22	-40.1	-42.4	13.4	9.10e-06	0	61	0	1299185664	52	4543
2026-01-14 09:24:09.38	2.73	26.07	-40.1	-42.5	13.3	1.98e-05	0	61	0	1302331392	52	4591
2026-01-14 09:24:10.39	2.59	25.93	-40.0	-42.4	13.5	1.29e-05	0	61	0	1305477120	51	4772
2026-01-14 09:24:11.40	2.45	25.78	-40.1	-42.4	13.5	1.14e-05	0	61	0	1308622848	51	4782
2026-01-14 09:24:12.42	2.30	25.63	-40.1	-42.4	13.4	1.14e-05	0	61	0	1311768576	51	4801
2026-01-14 09:24:13.43	2.16	25.49	-40.2	-42.5	13.3	1.83e-05	0	61	0	1314914304	51	4870
2026-01-14 09:24:14.44	2.02	25.35	-40.0	-42.4	13.5	1.22e-05	0	61	0	1318060032	51	4778
2026-01-14 09:24:15.45	1.89	25.20	-40.0	-42.4	13.5	1.06e-05	0	61	0	1321205760	51	4798
2026-01-14 09:24:16.46	1.75	25.06	-40.1	-42.4	13.4	1.06e-05	0	61	0	1324351488	51	4803
2026-01-14 09:24:17.46	1.62	24.92	-40.1	-42.5	13.3	1.29e-05	0	61	0	1327497216	51	4816
2026-01-14 09:24:18.48	1.48	24.78	-40.1	-42.5	13.3	2.05e-05	0	61	0	1330642944	51	4817
2026-01-14 09:24:19.49	1.35	24.63	-40.2	-42.6	13.1	2.28e-05	0	61	0	1333788672	51	4917
2026-01-14 09:24:20.50	1.22	24.49	-40.3	-42.7	13.0	3.73e-05	0	61	0	1336934400	51	4973
2026-01-14 09:24:21.50	1.09	24.36	-40.3	-42.9	12.9	3.50e-05	0	61	0	1340080128	51	5047
2026-01-14 09:24:22.51	0.96	24.22	-40.4	-42.9	12.8	5.34e-05	0	61	0	1343225856	51	5079
2026-01-14 09:24:23.52	0.83	24.08	-40.3	-42.8	12.9	4.73e-05	0	61	0	1346371584	51	5031
2026-01-14 09:24:24.53	0.70	23.94	-40.3	-42.8	12.9	4.80e-05	0	61	0	1349517312	51	5019
2026-01-14 09:24:25.54	0.58	23.80	-40.3	-42.9	12.9	5.49e-05	0	61	0	1352663040	51	5050
2026-01-14 09:24:26.55	0.45	23.67	-40.4	-43.0	12.7	6.17e-05	0	61	0	1355808768	51	5106
2026-01-14 09:24:27.56	0.33	23.53	-40.3	-42.9	12.8	5.56e-05	0	61	0	1358954496	51	5069
2026-01-14 09:24:28.57	0.21	23.39	-40.4	-43.0	12.5	2.91e-04	0	61	0	1362100224	51	5135
2026-01-14 09:24:29.58	0.09	23.26	-40.3	-43.0	12.6	8.48e-04	0	61	0	1365245952	51	5104
2026-01-14 09:24:30.59	359.96	23.12	-40.4	-43.1	12.5	3.12e-04	0	61	0	1368391680	51	5163
2026-01-14 09:24:31.60	359.85	22.99	-40.4	-43.0	12.6	1.87e-04	0	61	0	1371537408	51	5112
2026-01-14 09:24:32.61	359.73	22.86	-40.3	-42.9	12.6	1.29e-04	0	61	0	1374683136	51	5098
2026-01-14 09:24:33.62	359.61	22.72	-40.3	-42.9	12.7	1.21e-04	0	61	0	1377828864	51	5051
2026-01-14 09:24:34.63	359.49	22.59	-40.3	-42.9	12.7	1.04e-04	0	61	0	1380974592	51	5054
2026-01-14 09:24:35.64	359.38	22.46	-40.2	-42.8	12.7	8.16e-05	0	61	0	1384120320	51	5029
2026-01-14 09:24:36.65	359.27	22.33	-40.3	-42.9	12.7	9.68e-05	0	61	0	1387266048	51	5051
2026-01-14 09:24:37.66	359.15	22.20	-40.3	-43.0	12.6	1.20e-04	0	61	0	1390411776	51	5103
2026-01-14 09:24:38.67	359.04	22.07	-40.3	-43.0	12.6	1.01e-04	0	61	0	1393557504	51	5117
2026-01-14 09:24:39.68	358.93	21.94	-40.3	-43.0	12.5	8.85e-05	0	61	0	1396703232	51	5116
2026-01-14 09:24:40.69	358.82	21.81	-40.3	-43.0	12.5	1.33e-04	0	61	0	1399848960	51	5143
2026-01-14 09:24:41.70	358.71	21.68	-40.4	-43.1	12.4	1.01e-04	0	61	0	1402994688	51	5171
2026-01-14 09:24:42.71	358.60	21.55	-40.4	-43.1	12.4	1.51e-04	0	61	0	1406140416	51	5182
2026-01-14 09:24:43.72	358.49	21.42	-40.4	-43.1	12.3	1.69e-04	0	61	0	1409286144	51	5217
2026-01-14 09:24:44.73	358.39	21.30	-40.3	-43.1	12.4	1.64e-04	0	61	0	1412431872	51	5168
2026-01-14 09:24:45.74	358.28	21.17	-40.4	-43.1	12.3	1.37e-04	0	61	0	1415577600	51	5188
2026-01-14 09:24:46.75	358.18	21.04	-40.3	-43.0	12.3	1.85e-04	0	61	0	1418723328	51	5151
2026-01-14 09:24:47.76	358.07	20.92	-40.2	-42.9	12.4	1.67e-04	0	61	0	1421869056	51	5080
2026-01-14 09:24:48.77	357.97	20.79	-40.2	-42.9	12.3	1.83e-04	0	61	0	1425014784	51	5064
2026-01-14 09:24:49.78	357.87	20.67	-40.1	-42.9	12.2	2.14e-04	0	61	0	1428160512	51	5066
2026-01-14 09:24:50.79	357.77	20.55	-40.1	-42.9	12.2	2.13e-04	0	61	0	1431306240	51	5052
2026-01-14 09:24:51.80	357.67	20.42	-40.1	-42.9	12.2	2.43e-04	0	61	0	1434451968	51	5052
2026-01-14 09:24:52.81	357.57	20.30	-39.8	-42.5	12.4	1.54e-04	0	61	0	1437597696	51	4842
2026-01-14 09:24:53.82	357.47	20.18	-39.6	-42.3	12.6	1.08e-04	0	61	0	1440743424	51	4714
2026-01-14 09:24:54.83	357.37	20.06	-39.6	-42.2	12.5	9.53e-05	0	61	0	1443889152	51	4688
2026-01-14 09:24:55.84	357.27	19.93	-39.5	-42.2	12.4	1.37e-04	0	61	0	1447034880	51	4689
2026-01-14 09:24:56.85	357.18	19.81	-39.4	-42.1	12.5	1.39e-04	0	61	0	1450180608	50	4876
2026-01-14 09:24:57.86	357.08	19.69	-39.3	-42.0	12.6	9.15e-05	0	61	0	1453326336	50	4819
2026-01-14 09:24:58.87	356.99	19.57	-39.3	-42.0	12.5	1.15e-04	0	61	0	1456472064	50	4819
2026-01-14 09:24:59.88	356.89	19.45	-39.3	-42.0	12.5	1.30e-04	0	61	0	1459617792	50	4820
2026-01-14 09:25:00.89	356.80	19.34	-39.4	-42.1	12.3	1.95e-04	0	61	0	1462763520	50	4891
2026-01-14 09:25:01.90	356.71	19.22	-39.5	-42.3	11.9	3.61e-04	0	61	0	1465909248	50	5037
2026-01-14 09:25:02.91	356.61	19.10	-39.6	-42.6	11.6	4.84e-04	0	61	0	1469054976	50	5173
2026-01-14 09:25:03.92	356.52	18.98	-39.8	-42.9	11.1	1.12e-03	0	61	0	1472200704	50	5392
2026-01-14 09:25:04.93	356.43	18.87	-40.0	-43.5	10.5	3.10e-03	0	61	0	1475346432	50	5747
2026-01-14 09:25:05.94	356.34	18.75	-40.3	-44.1	9.7	8.31e-03	0	61	0	1478492160	51	5815
2026-01-14 09:25:06.95	356.25	18.63	-40.5	-44.9	8.8	2.36e-02	0	61	0	1481637888	51	6355
2026-01-14 09:25:07.96	356.17	18.52	-40.7	-45.6	7.8	6.19e-02	0	61	0	1484783616	52	6546
2026-01-14 09:25:08.97	356.08	18.40	-40.9	-46.4	7.0	1.47e-01	0	61	0	1487929344	52	7187
2026-01-14 09:25:09.98	355.99	18.29	-41.0	-47.2	6.2	2.37e-01	0	61	0	1491075072	52	7891
2026-01-14 09:25:10.99	355.91	18.17	-41.1	-47.9	5.6	4.06e-01	0	61	0	1494220800	52	8550
2026-01-14 09:25:12.00	355.82	18.06	-41.1	-48.7	5.0	6.25e-01	0	61	0	1497366528	52	9370
2026-01-14 09:25:13.01	355.74	17.95	-41.2	-49.6	4.5	1.44e+00	0	61	104	1499463680	53	9804
2026-01-14 09:25:14.02	355.65	17.83	-41.3	-51.2	3.9	1.44e+00	0	61	104	1499463680	53	11780
2026-01-14 09:25:15.03	355.57	17.72	-41.3	-51.6	4.0	1.48e+00	0	61	104	1499463680	53	12285
2026-01-14 09:25:16.04	355.48	17.61	-41.2	-52.3	3.8	1.49e+00	0	61	104	1499463680	53	13359
2026-01-14 09:25:17.04	355.40	17.50	-40.8	-53.5	3.8	1.49e+00	0	61	104	1499463680	53	15326
2026-01-14 09:25:18.05	355.32	17.39	-42.0	-53.2	3.8	1.49e+00	0	61	104	1499463680	54	14026
2026-01-14 09:25:19.06	355.24	17.28	-41.3	-53.6	3.8	1.49e+00	0	61	104	1499463680	54	14623
2026-01-14 09:25:20.07	355.16	17.17	-42.2	-53.5	3.8	1.49e+00	0	61	104	1499463680	54	14506
2026-01-14 09:25:21.08	355.08	17.06	-41.7	-53.1	3.8	1.49e+00	0	61	104	1499463680	54	13779
2026-01-14 09:25:22.09	355.00	16.95	-41.6	-53.1	3.8	1.49e+00	0	61	104	1499463680	54	13818
2026-01-14 09:25:23.10	354.92	16.84	-41.4	-53.2	3.8	1.49e+00	0	61	104	1499463680	54	13997
2026-01-14 09:25:24.11	354.84	16.73	-41.1	-53.5	3.8	1.49e+00	0	61	104	1499463680	54	14396
2026-01-14 09:25:25.12	354.77	16.63	-41.3	-53.5	3.8	1.49e+00	0	61	104	1499463680	54	14540
2026-01-14 09:25:26.13	354.69	16.52	-40.7	-53.2	3.8	1.49e+00	0	61	104	1499463680	53	14860
2026-01-14 09:25:27.14	354.61	16.41	-40.7	-53.2	3.8	1.49e+00	0	61	104	1499463680	53	14849
2026-01-14 09:25:28.15	354.54	16.30	-41.1	-53.6	3.8	1.49e+00	0	61	104	1499463680	53	15543
2026-01-14 09:25:29.16	354.46	16.20	-40.6	-53.1	3.8	1.49e+00	0	61	104	1499463680	53	14681
2026-01-14 09:25:30.17	354.39	16.09	-41.0	-53.5	3.8	1.49e+00	0	61	104	1499463680	53	15369
2026-01-14 09:25:31.17	354.32	15.99	-40.5	-53.1	3.8	1.49e+00	0	62	104	1499463680	53	14590
2026-01-14 09:25:32.18	354.24	15.88	-40.7	-53.4	3.8	1.49e+00	0	61	104	1499463680	53	15087
2026-01-14 09:25:33.19	354.17	15.78	-40.5	-53.0	3.8	1.49e+00	0	61	104	1499463680	52	15385
2026-01-14 09:25:34.20	354.10	15.67	-40.7	-53.3	3.8	1.49e+00	0	61	104	1499463680	52	15942
2026-01-14 09:25:35.21	354.03	15.57	-40.4	-53.1	3.8	1.49e+00	0	61	104	1499463680	52	15511
2026-01-14 09:25:36.22	353.95	15.47	-40.7	-53.2	3.8	1.49e+00	0	61	104	1499463680	52	15702
2026-01-14 09:25:37.23	353.88	15.36	-40.3	-53.1	3.8	1.49e+00	0	61	104	1499463680	52	15525
2026-01-14 09:25:38.24	353.81	15.26	-40.7	-53.2	3.8	1.49e+00	0	61	104	1499463680	52	15582
2026-01-14 09:25:39.25	353.74	15.16	-40.5	-53.0	3.8	1.49e+00	0	61	104	1499463680	52	15296
2026-01-14 09:25:40.26	353.67	15.06	-40.6	-53.2	3.8	1.49e+00	0	61	104	1499463680	52	15653
2026-01-14 09:25:41.27	353.60	14.95	-40.5	-53.0	3.8	1.49e+00	0	61	104	1499463680	52	15309
2026-01-14 09:25:42.28	353.54	14.85	-40.5	-53.1	3.8	1.49e+00	0	61	104	1499463680	52	15488
2026-01-14 09:25:43.29	353.47	14.75	-40.4	-53.1	3.8	1.49e+00	0	61	104	1499463680	52	15496
2026-01-14 09:25:44.30	353.40	14.65	-40.6	-53.1	3.8	1.49e+00	0	61	104	1499463680	52	15420
2026-01-14 09:25:45.31	353.33	14.55	-40.5	-53.1	3.8	1.49e+00	0	61	104	1499463680	52	15503
2026-01-14 09:25:46.32	353.27	14.45	-40.5	-53.0	3.8	1.49e+00	0	62	104	1499463680	52	15382
2026-01-14 09:25:47.33	353.20	14.35	-40.7	-53.1	3.8	1.49e+00	0	61	104	1499463680	52	15579
2026-01-14 09:25:48.34	353.14	14.25	-40.5	-53.0	3.8	1.49e+00	0	62	104	1499463680	52	15302
2026-01-14 09:25:49.35	353.07	14.16	-40.7	-53.2	3.8	1.49e+00	0	61	104	1499463680	52	15616
2026-01-14 09:25:50.36	353.01	14.06	-40.5	-53.0	3.8	1.49e+00	0	61	104	1499463680	52	15324
2026-01-14 09:25:51.37	352.94	13.96	-40.7	-53.1	3.8	1.49e+00	0	61	104	1499463680	52	15543
2026-01-14 09:25:52.38	352.88	13.86	-40.6	-53.1	3.8	1.49e+00	0	62	104	1499463680	52	15402
2026-01-14 09:25:53.39	352.82	13.77	-40.8	-53.2	3.8	1.49e+00	0	62	104	1499463680	52	15626
2026-01-14 09:25:54.40	352.75	13.67	-40.6	-53.0	3.8	1.49e+00	0	61	104	1499463680	52	15361
2026-01-14 09:25:55.41	352.69	13.57	-40.7	-53.1	3.8	1.49e+00	0	61	104	1499463680	52	15566
2026-01-14 09:25:56.41	352.63	13.48	-40.7	-53.1	3.8	1.49e+00	0	61	104	1499463680	52	15531
2026-01-14 09:25:57.42	352.57	13.38	-40.6	-53.1	3.8	1.49e+00	0	62	104	1499463680	52	15472
2026-01-14 09:25:58.43	352.51	13.29	-40.8	-53.2	3.8	1.49e+00	0	61	104	1499463680	52	15601
2026-01-14 09:25:59.44	352.45	13.19	-40.7	-53.2	3.8	1.49e+00	0	62	104	1499463680	52	15636
2026-01-14 09:26:00.45	352.39	13.10	-40.7	-53.1	3.8	1.49e+00	0	62	104	1499463680	52	15482
2026-01-14 09:26:01.46	352.33	13.00	-40.6	-53.1	3.8	1.49e+00	0	62	104	1499463680	52	15525
2026-01-14 09:26:02.47	352.27	12.91	-40.6	-53.0	3.8	1.49e+00	0	61	104	1499463680	52	15398
2026-01-14 09:26:03.49	352.21	12.81	-40.5	-53.0	3.8	1.49e+00	0	61	104	1499463680	52	15379
