passes_logs/2026/01/14/R2.0S_Moscow/R2.0S_Moscow__20260114_235501_NOAA_20_JPSS-1_rec.log

#Pass ID: 20260114_235501_NOAA 20 (JPSS-1)
#Satellite: NOAA 20 (JPSS-1)
#Configuration: NOAA 20
#almurnet v.1.7.20251203
#Start time: 2026-01-14 23:55:03

#Version: 2.2.20231116
#Station: R2.0S_Moscow
#Location: 37.707566 lon 55.798166 lat
#TLE: 1 43013U 17073A   26014.13176244  .00000049  00000+0  44136-4 0  9994
#TLE: 2 43013  98.7634 315.0803 0001538  40.6488 319.4803 14.19535812422619

#Time	Az	El	Level	Level2	SNR	BER	BlckErr	Temp	State	Recorded	gain1	gain2
2026-01-14 23:55:03.51	15.10	2.12	-43.0	-57.6	3.8	1.49e+00	0	50	0	0	58	18370
2026-01-14 23:55:04.52	15.10	2.18	-43.0	-57.6	3.8	1.49e+00	0	50	104	0	57	19426
2026-01-14 23:55:05.53	15.09	2.25	-43.0	-57.5	3.8	1.49e+00	0	50	104	0	57	19368
2026-01-14 23:55:06.54	15.08	2.31	-43.0	-57.6	3.8	1.49e+00	0	50	104	0	57	19433
2026-01-14 23:55:07.55	15.08	2.38	-43.0	-57.5	3.8	1.49e+00	0	50	104	0	57	19355
2026-01-14 23:55:08.56	15.07	2.44	-43.0	-57.6	3.8	1.49e+00	0	50	104	0	57	19407
2026-01-14 23:55:09.58	15.06	2.51	-43.0	-57.6	3.8	1.49e+00	0	50	104	0	57	19405
2026-01-14 23:55:10.59	15.05	2.57	-43.0	-57.6	3.8	1.49e+00	0	50	104	0	57	19419
2026-01-14 23:55:11.60	15.05	2.64	-43.0	-57.6	3.8	1.49e+00	0	50	104	0	57	19442
2026-01-14 23:55:12.61	15.04	2.70	-43.0	-57.6	3.8	1.49e+00	0	50	104	0	57	19433
2026-01-14 23:55:13.62	15.03	2.77	-43.0	-57.6	3.8	1.49e+00	0	50	104	0	57	19422
2026-01-14 23:55:14.63	15.02	2.84	-43.0	-57.6	3.8	1.49e+00	0	50	104	0	57	19410
2026-01-14 23:55:15.64	15.02	2.90	-43.0	-57.6	3.8	1.49e+00	0	51	104	0	57	19403
2026-01-14 23:55:16.65	15.01	2.97	-43.0	-57.6	3.8	1.49e+00	0	51	104	0	57	19417
2026-01-14 23:55:17.66	15.00	3.04	-43.0	-57.6	3.8	1.49e+00	0	51	104	0	57	19411
2026-01-14 23:55:18.67	14.99	3.10	-43.0	-57.6	3.8	1.49e+00	0	51	104	0	57	19467
2026-01-14 23:55:19.68	14.99	3.17	-43.0	-57.6	3.8	1.49e+00	0	51	104	0	57	19453
2026-01-14 23:55:20.69	14.98	3.24	-43.0	-57.5	3.8	1.49e+00	0	51	104	0	57	19389
2026-01-14 23:55:21.70	14.97	3.30	-43.0	-57.6	3.8	1.49e+00	0	51	104	0	57	19413
2026-01-14 23:55:22.71	14.96	3.37	-43.0	-57.5	3.8	1.49e+00	0	51	104	0	57	19360
2026-01-14 23:55:23.72	14.95	3.44	-43.0	-57.5	3.8	1.49e+00	0	51	104	0	57	19375
2026-01-14 23:55:24.73	14.95	3.51	-43.0	-57.5	3.8	1.49e+00	0	51	104	0	57	19378
2026-01-14 23:55:25.74	14.94	3.57	-43.0	-57.6	3.8	1.49e+00	0	51	104	0	57	19397
2026-01-14 23:55:26.75	14.93	3.64	-43.0	-57.6	3.8	1.49e+00	0	51	104	0	57	19441
2026-01-14 23:55:27.76	14.92	3.71	-43.0	-57.6	3.8	1.49e+00	0	51	104	0	57	19413
2026-01-14 23:55:28.77	14.91	3.78	-43.0	-57.5	3.8	1.49e+00	0	51	104	0	57	19388
2026-01-14 23:55:29.79	14.90	3.85	-43.0	-57.5	3.8	1.49e+00	0	51	104	0	57	19361
2026-01-14 23:55:30.80	14.90	3.92	-43.0	-57.5	3.8	1.49e+00	0	51	104	0	57	19370
2026-01-14 23:55:31.81	14.89	3.99	-43.0	-57.6	3.8	1.49e+00	0	52	104	0	57	19431
2026-01-14 23:55:32.82	14.88	4.06	-43.0	-57.6	3.8	1.49e+00	0	51	104	0	57	19454
2026-01-14 23:55:33.83	14.87	4.12	-43.0	-57.6	3.8	1.49e+00	0	52	104	0	57	19398
2026-01-14 23:55:34.84	14.86	4.19	-43.0	-57.5	3.8	1.49e+00	0	52	104	0	57	19367
2026-01-14 23:55:35.85	14.85	4.26	-43.0	-57.6	3.8	1.49e+00	0	52	104	0	57	19424
2026-01-14 23:55:36.86	14.84	4.33	-43.0	-57.5	3.8	1.49e+00	0	52	104	0	57	19373
2026-01-14 23:55:37.86	14.83	4.40	-43.0	-57.6	3.8	1.49e+00	0	52	104	0	57	19417
2026-01-14 23:55:38.87	14.83	4.47	-43.0	-57.5	3.8	1.49e+00	0	52	104	0	57	19362
2026-01-14 23:55:39.88	14.82	4.54	-43.0	-57.5	3.8	1.49e+00	0	52	104	0	57	19366
2026-01-14 23:55:40.89	14.81	4.61	-43.0	-57.5	3.8	1.49e+00	0	52	104	0	57	19379
2026-01-14 23:55:41.90	14.80	4.69	-43.0	-57.5	3.8	1.49e+00	0	52	104	0	57	19385
2026-01-14 23:55:42.91	14.79	4.76	-43.0	-57.5	3.8	1.49e+00	0	52	104	0	57	19361
2026-01-14 23:55:43.92	14.78	4.83	-43.0	-57.5	3.8	1.49e+00	0	52	104	0	57	19389
2026-01-14 23:55:44.93	14.77	4.90	-43.0	-57.5	3.8	1.49e+00	0	52	104	0	57	19378
2026-01-14 23:55:45.94	14.76	4.97	-43.0	-57.5	3.8	1.49e+00	0	52	104	0	57	19353
2026-01-14 23:55:46.95	14.75	5.04	-43.0	-57.5	3.8	1.49e+00	0	52	104	0	57	19317
2026-01-14 23:55:47.96	14.74	5.11	-43.0	-57.5	3.8	1.49e+00	0	52	104	0	57	19355
2026-01-14 23:55:48.97	14.73	5.19	-43.0	-57.5	3.8	1.49e+00	0	52	104	0	57	19320
2026-01-14 23:55:49.98	14.72	5.26	-43.0	-57.5	3.8	1.49e+00	0	52	104	0	57	19271
2026-01-14 23:55:50.99	14.71	5.33	-43.0	-57.5	3.8	1.49e+00	0	53	104	0	57	19230
2026-01-14 23:55:52.00	14.70	5.40	-43.0	-57.6	3.8	1.49e+00	0	53	104	0	57	19406
2026-01-14 23:55:53.01	14.69	5.48	-43.0	-57.5	3.8	1.49e+00	0	53	104	0	57	19254
2026-01-14 23:55:54.03	14.68	5.55	-43.0	-57.4	3.8	1.49e+00	0	53	104	0	57	19059
2026-01-14 23:55:55.04	14.67	5.62	-43.0	-57.4	3.8	1.49e+00	0	53	104	0	57	19058
2026-01-14 23:55:56.05	14.66	5.70	-43.0	-57.5	3.8	1.49e+00	0	53	104	0	57	19215
2026-01-14 23:55:57.06	14.65	5.77	-43.0	-57.5	3.8	1.49e+00	0	53	104	0	57	19214
2026-01-14 23:55:58.07	14.64	5.84	-43.0	-57.4	3.8	1.49e+00	0	53	104	0	57	19104
2026-01-14 23:55:59.08	14.63	5.92	-43.0	-57.3	3.8	1.49e+00	0	53	104	0	57	18835
2026-01-14 23:56:00.09	14.62	5.99	-43.0	-57.3	3.8	1.49e+00	0	53	104	0	57	18769
2026-01-14 23:56:01.10	14.61	6.07	-43.0	-57.3	3.8	1.49e+00	0	53	104	0	57	18852
2026-01-14 23:56:02.11	14.60	6.14	-43.0	-57.4	3.8	1.49e+00	0	53	104	0	57	19051
2026-01-14 23:56:03.12	14.59	6.22	-43.0	-57.5	3.8	1.49e+00	0	53	104	0	57	19241
2026-01-14 23:56:04.13	14.58	6.29	-43.0	-57.5	3.8	1.49e+00	0	53	104	0	57	19381
2026-01-14 23:56:05.14	14.57	6.37	-43.0	-57.5	3.8	1.49e+00	0	53	104	0	57	19327
2026-01-14 23:56:06.15	14.56	6.44	-43.0	-57.4	3.8	1.49e+00	0	53	104	0	57	19071
2026-01-14 23:56:07.16	14.55	6.52	-43.0	-57.2	3.8	1.49e+00	0	53	104	0	57	18654
2026-01-14 23:56:08.17	14.54	6.59	-43.0	-56.9	3.8	1.49e+00	0	53	104	0	57	18078
2026-01-14 23:56:09.18	14.53	6.67	-43.0	-56.6	3.8	1.49e+00	0	53	104	0	57	17444
2026-01-14 23:56:10.19	14.51	6.75	-43.0	-56.3	3.8	1.49e+00	0	53	104	0	57	16811
2026-01-14 23:56:11.20	14.50	6.82	-42.9	-56.1	3.8	1.49e+00	0	53	104	0	57	16360
2026-01-14 23:56:12.21	14.49	6.90	-42.9	-55.6	3.8	1.49e+00	0	54	104	0	57	15433
2026-01-14 23:56:13.22	14.48	6.98	-42.9	-54.8	4.0	1.48e+00	0	53	104	0	57	14194
2026-01-14 23:56:14.23	14.47	7.06	-42.8	-54.0	4.2	1.45e+00	0	53	0	0	57	12826
2026-01-14 23:56:15.24	14.46	7.13	-42.7	-52.8	4.6	1.29e+00	0	54	0	1048576	57	11215
2026-01-14 23:56:16.25	14.45	7.21	-42.5	-51.5	5.2	6.67e-01	0	54	0	2097152	57	9703
2026-01-14 23:56:17.25	14.43	7.29	-42.4	-50.6	5.9	4.21e-01	0	54	0	4194304	56	9207
2026-01-14 23:56:18.26	14.42	7.37	-42.2	-49.6	6.7	2.70e-01	0	54	0	6291456	56	8266
2026-01-14 23:56:19.27	14.41	7.45	-42.2	-49.5	6.8	1.83e-01	0	54	0	8388608	56	8115
2026-01-14 23:56:20.28	14.40	7.52	-42.2	-49.7	6.6	1.87e-01	0	54	0	10485760	56	8343
2026-01-14 23:56:21.29	14.39	7.60	-42.3	-50.1	6.3	2.45e-01	0	54	0	11534336	56	8755
2026-01-14 23:56:22.30	14.37	7.68	-42.3	-50.2	6.2	2.99e-01	0	54	0	13631488	56	8798
2026-01-14 23:56:23.31	14.36	7.76	-42.2	-49.6	6.7	2.15e-01	0	54	0	15728640	56	8189
2026-01-14 23:56:24.32	14.35	7.84	-42.1	-49.5	6.9	1.60e-01	0	54	0	17825792	56	8084
2026-01-14 23:56:25.33	14.34	7.92	-42.2	-50.0	6.4	1.93e-01	0	54	0	19922944	56	8591
2026-01-14 23:56:26.34	14.32	8.00	-42.4	-50.6	5.9	3.38e-01	0	54	0	20971520	56	9232
2026-01-14 23:56:27.34	14.31	8.08	-42.4	-50.5	6.0	3.53e-01	0	54	0	23068672	56	9139
2026-01-14 23:56:28.35	14.30	8.16	-42.6	-51.3	5.5	3.64e-01	0	54	0	25165824	56	10041
2026-01-14 23:56:29.36	14.29	8.24	-42.7	-52.3	4.8	1.46e+00	0	54	104	26214400	56	11222
2026-01-14 23:56:30.37	14.27	8.33	-42.6	-51.0	5.6	6.32e-01	0	54	0	27262976	56	9685
2026-01-14 23:56:31.38	14.26	8.41	-42.5	-49.7	6.8	4.56e-01	0	54	0	29360128	56	8362
2026-01-14 23:56:32.39	14.25	8.49	-42.7	-56.9	3.8	1.49e+00	0	54	104	29360128	56	19099
2026-01-14 23:56:33.40	14.23	8.57	-42.5	-50.0	6.5	5.99e-01	0	54	0	29360128	56	8600
2026-01-14 23:56:34.41	14.22	8.65	-42.4	-49.6	6.9	2.02e-01	0	54	0	31457280	56	8239
2026-01-14 23:56:35.41	14.21	8.74	-42.4	-49.4	7.2	1.35e-01	0	54	0	33554432	56	8023
2026-01-14 23:56:36.42	14.19	8.82	-42.5	-49.5	7.1	1.52e-01	0	54	0	34603008	56	8128
2026-01-14 23:56:37.43	14.18	8.90	-42.5	-49.3	7.3	1.18e-01	0	54	0	36700160	56	7961
2026-01-14 23:56:38.45	14.17	8.99	-42.5	-49.4	7.3	1.20e-01	0	54	0	38797312	56	8027
2026-01-14 23:56:39.46	14.15	9.07	-42.5	-49.3	7.4	1.13e-01	0	55	0	40894464	56	7938
2026-01-14 23:56:40.47	14.14	9.15	-42.5	-49.4	7.3	1.23e-01	0	54	0	42991616	56	8031
2026-01-14 23:56:41.47	14.12	9.24	-42.5	-49.3	7.4	1.16e-01	0	54	0	44040192	56	7949
2026-01-14 23:56:42.48	14.11	9.32	-42.5	-49.1	7.6	1.05e-01	0	54	0	46137344	56	7803
2026-01-14 23:56:43.49	14.10	9.41	-42.5	-49.0	7.8	8.76e-02	0	54	0	48234496	56	7661
2026-01-14 23:56:44.50	14.08	9.49	-42.5	-49.0	7.7	8.81e-02	0	54	0	50331648	56	7682
2026-01-14 23:56:45.51	14.07	9.58	-42.5	-49.0	7.7	8.56e-02	0	54	0	52428800	56	7682
2026-01-14 23:56:46.52	14.05	9.66	-42.5	-48.9	7.8	7.69e-02	0	55	0	53477376	56	7625
2026-01-14 23:56:47.53	14.04	9.75	-42.5	-49.0	7.8	8.07e-02	0	55	0	55574528	56	7677
2026-01-14 23:56:48.54	14.02	9.84	-42.5	-49.1	7.7	8.91e-02	0	55	0	57671680	56	7744
2026-01-14 23:56:49.55	14.01	9.92	-42.5	-49.1	7.7	8.65e-02	0	55	0	59768832	56	7754
2026-01-14 23:56:50.56	13.99	10.01	-42.5	-48.9	7.9	8.17e-02	0	55	0	61865984	56	7620
2026-01-14 23:56:51.56	13.98	10.10	-42.5	-48.9	8.0	7.46e-02	0	55	0	62914560	56	7560
2026-01-14 23:56:52.58	13.96	10.18	-42.4	-48.7	8.0	6.94e-02	0	55	0	65011712	56	7457
2026-01-14 23:56:53.58	13.95	10.27	-42.4	-48.7	8.1	6.28e-02	0	55	0	67108864	56	7432
2026-01-14 23:56:54.60	13.93	10.36	-42.4	-48.7	8.1	6.00e-02	0	55	0	69206016	56	7414
2026-01-14 23:56:55.61	13.92	10.45	-42.4	-48.7	8.2	5.61e-02	0	55	0	71303168	56	7382
2026-01-14 23:56:56.61	13.90	10.54	-42.5	-48.7	8.2	5.72e-02	0	55	0	72351744	56	7392
2026-01-14 23:56:57.62	13.89	10.63	-42.5	-48.7	8.2	5.70e-02	0	55	0	74448896	56	7423
2026-01-14 23:56:58.63	13.87	10.72	-42.5	-48.7	8.2	5.49e-02	0	55	0	76546048	56	7391
2026-01-14 23:56:59.64	13.85	10.80	-42.4	-48.5	8.4	5.06e-02	0	55	0	78643200	56	7281
2026-01-14 23:57:00.65	13.84	10.90	-42.5	-48.6	8.3	5.26e-02	0	55	0	80740352	56	7301
2026-01-14 23:57:01.66	13.82	10.99	-42.5	-48.5	8.5	4.38e-02	0	55	0	81788928	56	7256
2026-01-14 23:57:02.67	13.80	11.08	-42.5	-48.5	8.5	4.32e-02	0	55	0	83886080	56	7239
2026-01-14 23:57:03.68	13.79	11.17	-42.5	-48.5	8.5	4.31e-02	0	55	0	85983232	56	7234
2026-01-14 23:57:04.69	13.77	11.26	-42.5	-48.5	8.5	4.19e-02	0	55	0	88080384	56	7250
2026-01-14 23:57:05.69	13.75	11.35	-42.5	-48.5	8.5	4.45e-02	0	55	0	90177536	56	7248
2026-01-14 23:57:06.70	13.74	11.44	-42.5	-48.6	8.4	4.38e-02	0	55	0	91226112	56	7297
2026-01-14 23:57:07.71	13.72	11.53	-42.5	-48.5	8.5	4.21e-02	0	55	0	93323264	56	7224
2026-01-14 23:57:08.71	13.70	11.63	-42.5	-48.4	8.6	3.95e-02	0	55	0	95420416	56	7150
2026-01-14 23:57:09.72	13.69	11.72	-42.4	-48.4	8.6	3.63e-02	0	55	0	97517568	56	7155
2026-01-14 23:57:10.73	13.67	11.81	-42.4	-48.4	8.7	3.58e-02	0	55	0	99614720	56	7126
2026-01-14 23:57:11.74	13.65	11.91	-42.4	-48.3	8.7	3.44e-02	0	55	0	100663296	56	7100
2026-01-14 23:57:12.75	13.63	12.00	-42.4	-48.2	8.8	3.30e-02	0	55	0	102760448	56	7019
2026-01-14 23:57:13.76	13.61	12.10	-42.4	-48.2	8.9	3.12e-02	0	55	0	104857600	56	6971
2026-01-14 23:57:14.77	13.60	12.19	-42.4	-48.1	8.9	2.63e-02	0	55	0	106954752	56	6928
2026-01-14 23:57:15.77	13.58	12.29	-42.4	-48.1	8.9	2.52e-02	0	55	0	109051904	56	6948
2026-01-14 23:57:16.78	13.56	12.38	-42.4	-48.1	9.0	2.52e-02	0	55	0	110100480	56	6945
2026-01-14 23:57:17.79	13.54	12.48	-42.4	-48.0	9.1	2.56e-02	0	55	0	112197632	56	6865
2026-01-14 23:57:18.80	13.52	12.57	-42.4	-48.1	9.1	2.33e-02	0	56	0	114294784	56	6887
2026-01-14 23:57:19.81	13.50	12.67	-42.4	-48.0	9.2	2.10e-02	0	56	0	116391936	56	6829
2026-01-14 23:57:20.82	13.49	12.77	-42.4	-47.9	9.3	2.03e-02	0	55	0	118489088	56	6772
2026-01-14 23:57:21.83	13.47	12.86	-42.4	-47.8	9.4	1.75e-02	0	56	0	119537664	56	6711
2026-01-14 23:57:22.84	13.45	12.96	-42.4	-47.8	9.4	1.67e-02	0	56	0	121634816	56	6687
2026-01-14 23:57:23.85	13.43	13.06	-42.5	-47.9	9.4	1.61e-02	0	56	0	123731968	56	6757
2026-01-14 23:57:24.86	13.41	13.16	-42.5	-47.9	9.4	1.59e-02	0	56	0	125829120	56	6755
2026-01-14 23:57:25.86	13.39	13.26	-42.4	-47.8	9.5	1.55e-02	0	56	0	127926272	56	6681
2026-01-14 23:57:26.87	13.37	13.36	-42.4	-47.8	9.5	1.44e-02	0	56	0	130023424	56	6677
2026-01-14 23:57:27.88	13.35	13.46	-42.5	-47.8	9.5	1.53e-02	0	56	0	131072000	56	6715
2026-01-14 23:57:28.89	13.33	13.56	-42.4	-47.7	9.6	1.45e-02	0	56	0	133169152	56	6632
2026-01-14 23:57:29.90	13.31	13.66	-42.5	-47.8	9.6	1.26e-02	0	56	0	135266304	56	6656
2026-01-14 23:57:30.92	13.29	13.76	-42.5	-47.8	9.6	1.25e-02	0	56	0	137363456	56	6669
2026-01-14 23:57:31.93	13.27	13.86	-42.4	-47.7	9.7	1.19e-02	0	56	0	139460608	56	6607
2026-01-14 23:57:32.94	13.25	13.96	-42.4	-47.7	9.7	1.14e-02	0	56	0	140509184	56	6589
2026-01-14 23:57:33.94	13.22	14.07	-42.4	-47.6	9.8	1.11e-02	0	56	0	142606336	56	6514
2026-01-14 23:57:34.95	13.20	14.17	-42.4	-47.6	9.8	1.02e-02	0	56	0	144703488	56	6513
2026-01-14 23:57:35.96	13.18	14.27	-42.4	-47.4	10.0	8.72e-03	0	56	0	146800640	56	6405
2026-01-14 23:57:36.97	13.16	14.38	-42.4	-47.4	10.0	7.50e-03	0	56	0	148897792	56	6402
2026-01-14 23:57:37.98	13.14	14.48	-42.4	-47.4	10.0	7.58e-03	0	56	0	149946368	56	6401
2026-01-14 23:57:38.99	13.12	14.59	-42.4	-47.5	10.0	7.11e-03	0	56	0	152043520	56	6421
2026-01-14 23:57:40.00	13.09	14.69	-42.4	-47.5	9.9	7.63e-03	0	56	0	154140672	56	6470
2026-01-14 23:57:41.01	13.07	14.80	-42.4	-47.5	10.0	8.20e-03	0	56	0	156237824	56	6450
2026-01-14 23:57:42.01	13.05	14.90	-42.4	-47.3	10.2	6.66e-03	0	56	0	158334976	56	6313
2026-01-14 23:57:43.02	13.03	15.01	-42.4	-47.3	10.3	5.95e-03	0	56	0	159383552	56	6299
2026-01-14 23:57:44.03	13.00	15.11	-42.4	-47.2	10.3	5.46e-03	0	56	0	161480704	56	6255
2026-01-14 23:57:45.04	12.98	15.22	-42.4	-47.1	10.5	4.21e-03	0	56	0	163577856	56	6200
2026-01-14 23:57:46.05	12.96	15.33	-42.3	-47.1	10.5	4.05e-03	0	56	0	165675008	56	6166
2026-01-14 23:57:47.05	12.93	15.44	-42.4	-47.1	10.5	3.87e-03	0	56	0	167772160	56	6182
2026-01-14 23:57:48.06	12.91	15.55	-42.3	-47.0	10.6	3.51e-03	0	56	0	168820736	56	6098
2026-01-14 23:57:49.07	12.89	15.66	-42.3	-47.0	10.6	3.38e-03	0	56	0	170917888	56	6111
2026-01-14 23:57:50.07	12.86	15.76	-42.3	-47.0	10.7	3.23e-03	0	56	0	173015040	56	6064
2026-01-14 23:57:51.08	12.84	15.87	-42.3	-47.0	10.7	2.95e-03	0	56	0	175112192	56	6070
2026-01-14 23:57:52.09	12.81	15.99	-42.3	-46.9	10.8	2.66e-03	0	56	0	177209344	56	6054
2026-01-14 23:57:53.10	12.79	16.10	-42.3	-46.8	10.9	2.48e-03	0	56	0	178257920	56	5992
2026-01-14 23:57:54.11	12.76	16.21	-42.3	-46.8	10.9	2.18e-03	0	56	0	180355072	56	5983
2026-01-14 23:57:55.12	12.74	16.32	-42.3	-46.8	10.9	2.05e-03	0	56	0	182452224	56	5969
2026-01-14 23:57:56.13	12.71	16.43	-42.3	-46.7	11.1	1.99e-03	0	56	0	184549376	56	5895
2026-01-14 23:57:57.14	12.69	16.55	-42.3	-46.7	11.1	1.68e-03	0	56	0	186646528	56	5890
2026-01-14 23:57:58.14	12.66	16.66	-42.2	-46.6	11.2	1.64e-03	0	56	0	187695104	56	5844
2026-01-14 23:57:59.15	12.64	16.77	-42.3	-46.6	11.2	1.56e-03	0	56	0	189792256	56	5851
2026-01-14 23:58:00.16	12.61	16.89	-42.2	-46.6	11.2	1.28e-03	0	56	0	191889408	56	5797
2026-01-14 23:58:01.17	12.58	17.00	-42.3	-46.6	11.2	1.21e-03	0	56	0	193986560	56	5819
2026-01-14 23:58:02.18	12.56	17.12	-42.2	-46.6	11.3	1.20e-03	0	56	0	196083712	56	5808
2026-01-14 23:58:03.19	12.53	17.24	-42.2	-46.5	11.4	1.04e-03	0	56	0	197132288	56	5770
2026-01-14 23:58:04.20	12.50	17.35	-42.2	-46.5	11.4	1.01e-03	0	56	0	199229440	56	5761
2026-01-14 23:58:05.21	12.47	17.47	-42.2	-46.5	11.3	1.13e-03	0	56	0	201326592	56	5787
2026-01-14 23:58:06.22	12.45	17.59	-42.2	-46.5	11.4	1.08e-03	0	56	0	203423744	56	5744
2026-01-14 23:58:07.23	12.42	17.71	-42.2	-46.4	11.5	9.31e-04	0	56	0	205520896	56	5719
2026-01-14 23:58:08.24	12.39	17.83	-42.2	-46.5	11.4	8.37e-04	0	56	0	206569472	56	5727
2026-01-14 23:58:09.24	12.36	17.95	-42.2	-46.4	11.5	8.19e-04	0	56	0	208666624	56	5710
2026-01-14 23:58:10.25	12.33	18.07	-42.2	-46.4	11.5	8.10e-04	0	56	0	210763776	56	5700
2026-01-14 23:58:11.26	12.30	18.19	-42.2	-46.4	11.6	8.14e-04	0	56	0	212860928	56	5665
2026-01-14 23:58:12.27	12.28	18.31	-42.2	-46.3	11.6	6.56e-04	0	56	0	214958080	56	5648
2026-01-14 23:58:13.27	12.25	18.43	-42.2	-46.4	11.6	6.88e-04	0	56	0	216006656	56	5672
2026-01-14 23:58:14.28	12.22	18.55	-42.2	-46.4	11.6	6.62e-04	0	56	0	218103808	56	5672
2026-01-14 23:58:15.29	12.19	18.68	-42.2	-46.3	11.6	6.57e-04	0	57	0	220200960	56	5637
2026-01-14 23:58:16.30	12.16	18.80	-42.2	-46.3	11.7	6.38e-04	0	56	0	222298112	56	5622
2026-01-14 23:58:17.31	12.13	18.93	-42.2	-46.3	11.7	5.76e-04	0	56	0	224395264	56	5606
2026-01-14 23:58:18.32	12.09	19.05	-42.2	-46.2	11.8	4.87e-04	0	56	0	226492416	56	5572
2026-01-14 23:58:19.32	12.06	19.18	-42.1	-46.1	11.9	4.88e-04	0	56	0	227540992	56	5520
2026-01-14 23:58:20.33	12.03	19.30	-42.1	-46.1	11.9	4.15e-04	0	56	0	229638144	56	5527
2026-01-14 23:58:21.34	12.00	19.43	-42.1	-46.1	11.9	4.06e-04	0	56	0	231735296	56	5520
2026-01-14 23:58:22.35	11.97	19.56	-42.1	-46.1	12.0	3.38e-04	0	57	0	233832448	56	5489
2026-01-14 23:58:23.36	11.94	19.69	-42.1	-46.0	12.0	3.46e-04	0	56	0	235929600	56	5447
2026-01-14 23:58:24.37	11.90	19.82	-42.1	-46.0	12.0	3.16e-04	0	56	0	236978176	56	5462
2026-01-14 23:58:25.37	11.87	19.94	-42.1	-46.0	12.0	3.18e-04	0	57	0	239075328	56	5456
2026-01-14 23:58:26.38	11.84	20.07	-42.1	-46.0	12.1	2.96e-04	0	57	0	241172480	56	5452
2026-01-14 23:58:27.39	11.80	20.21	-42.0	-45.9	12.2	2.43e-04	0	57	0	243269632	56	5365
2026-01-14 23:58:28.40	11.77	20.34	-42.0	-45.9	12.2	2.40e-04	0	57	0	244318208	56	5367
2026-01-14 23:58:29.41	11.74	20.47	-41.8	-45.6	12.3	2.25e-04	0	57	0	246415360	55	5513
2026-01-14 23:58:30.42	11.70	20.60	-41.8	-45.7	12.3	1.71e-04	0	57	0	248512512	55	5538
2026-01-14 23:58:31.43	11.67	20.74	-41.8	-45.7	12.2	1.79e-04	0	57	0	250609664	55	5550
2026-01-14 23:58:32.43	11.63	20.87	-41.8	-45.6	12.3	1.50e-04	0	57	0	252706816	55	5500
2026-01-14 23:58:33.44	11.60	21.01	-41.8	-45.6	12.3	1.53e-04	0	57	0	254803968	55	5492
2026-01-14 23:58:34.45	11.56	21.14	-41.8	-45.5	12.4	1.37e-04	0	57	0	255852544	55	5464
2026-01-14 23:58:35.46	11.52	21.28	-41.8	-45.5	12.5	1.45e-04	0	57	0	257949696	55	5427
2026-01-14 23:58:36.47	11.49	21.42	-41.7	-45.4	12.5	1.32e-04	0	57	0	260046848	55	5398
2026-01-14 23:58:37.47	11.45	21.55	-41.7	-45.4	12.5	1.22e-04	0	57	0	262144000	55	5388
2026-01-14 23:58:38.48	11.41	21.69	-41.7	-45.4	12.5	1.07e-04	0	57	0	264241152	55	5391
2026-01-14 23:58:39.49	11.37	21.83	-41.7	-45.4	12.5	1.06e-04	0	57	0	265289728	55	5377
2026-01-14 23:58:40.51	11.34	21.97	-41.7	-45.3	12.7	9.53e-05	0	57	0	267386880	55	5315
2026-01-14 23:58:41.52	11.30	22.12	-41.7	-45.4	12.6	9.53e-05	0	57	0	269484032	55	5353
2026-01-14 23:58:42.53	11.26	22.26	-41.7	-45.4	12.6	9.15e-05	0	57	0	271581184	55	5364
2026-01-14 23:58:43.54	11.22	22.40	-41.8	-45.4	12.6	9.00e-05	0	57	0	273678336	55	5390
2026-01-14 23:58:44.55	11.18	22.54	-41.7	-45.4	12.7	9.91e-05	0	57	0	274726912	55	5345
2026-01-14 23:58:45.56	11.14	22.69	-41.7	-45.3	12.7	8.54e-05	0	57	0	276824064	55	5317
2026-01-14 23:58:46.57	11.10	22.83	-41.7	-45.3	12.7	6.56e-05	0	57	0	278921216	55	5280
2026-01-14 23:58:47.58	11.06	22.98	-41.6	-45.2	12.8	6.71e-05	0	57	0	281018368	55	5245
2026-01-14 23:58:48.59	11.02	23.13	-41.6	-45.1	12.9	4.88e-05	0	57	0	283115520	55	5181
2026-01-14 23:58:49.60	10.97	23.27	-41.6	-45.1	12.9	3.73e-05	0	57	0	284164096	55	5195
2026-01-14 23:58:50.61	10.93	23.42	-41.6	-45.1	12.9	5.34e-05	0	57	0	286261248	55	5212
2026-01-14 23:58:51.61	10.89	23.57	-41.6	-45.1	12.9	6.02e-05	0	57	0	288358400	55	5196
2026-01-14 23:58:52.62	10.85	23.72	-41.6	-45.1	12.9	5.26e-05	0	57	0	290455552	55	5202
2026-01-14 23:58:53.63	10.80	23.87	-41.6	-45.1	12.9	5.79e-05	0	57	0	292552704	55	5211
2026-01-14 23:58:54.64	10.76	24.02	-41.6	-45.0	13.0	3.35e-05	0	57	0	293601280	55	5147
2026-01-14 23:58:55.65	10.71	24.18	-41.6	-45.1	12.9	5.41e-05	0	57	0	295698432	55	5217
2026-01-14 23:58:56.66	10.67	24.33	-41.6	-45.1	13.0	3.50e-05	0	57	0	297795584	55	5164
2026-01-14 23:58:57.67	10.62	24.49	-41.6	-45.1	12.9	4.19e-05	0	57	0	299892736	55	5215
2026-01-14 23:58:58.68	10.58	24.64	-41.6	-45.1	12.9	4.34e-05	0	57	0	301989888	55	5199
2026-01-14 23:58:59.69	10.53	24.80	-41.6	-45.1	12.9	4.19e-05	0	57	0	303038464	55	5218
2026-01-14 23:59:00.70	10.48	24.96	-41.7	-45.3	12.8	5.34e-05	0	57	0	305135616	55	5300
2026-01-14 23:59:01.71	10.44	25.11	-41.7	-45.3	12.7	6.40e-05	0	57	0	307232768	55	5334
2026-01-14 23:59:02.72	10.39	25.27	-41.8	-45.4	12.7	7.78e-05	0	57	0	309329920	55	5363
2026-01-14 23:59:03.73	10.34	25.43	-41.8	-45.4	12.6	7.85e-05	0	57	0	311427072	55	5400
2026-01-14 23:59:04.74	10.29	25.59	-41.8	-45.4	12.7	1.04e-04	0	57	0	312475648	55	5383
2026-01-14 23:59:05.75	10.24	25.76	-41.9	-45.6	12.5	1.40e-04	0	57	0	314572800	55	5513
2026-01-14 23:59:06.75	10.19	25.92	-41.9	-45.6	12.4	1.56e-04	0	57	0	316669952	55	5522
2026-01-14 23:59:07.76	10.14	26.08	-41.9	-45.7	12.4	1.13e-04	0	57	0	318767104	55	5545
2026-01-14 23:59:08.77	10.09	26.25	-42.0	-45.9	12.2	2.18e-04	0	57	0	320864256	55	5680
2026-01-14 23:59:09.78	10.04	26.41	-42.0	-45.9	12.2	2.62e-04	0	57	0	322961408	55	5668
2026-01-14 23:59:10.79	9.99	26.58	-42.1	-46.1	12.0	2.73e-04	0	57	0	324009984	55	5812
2026-01-14 23:59:11.80	9.93	26.75	-42.2	-46.2	11.9	3.80e-04	0	57	0	326107136	55	5881
2026-01-14 23:59:12.81	9.88	26.92	-42.3	-46.3	11.8	4.19e-04	0	57	0	328204288	55	5971
2026-01-14 23:59:13.82	9.83	27.09	-42.3	-46.4	11.6	6.03e-04	0	57	0	330301440	55	6030
2026-01-14 23:59:14.83	9.77	27.26	-42.3	-46.5	11.6	6.88e-04	0	57	0	332398592	55	6091
2026-01-14 23:59:15.83	9.72	27.43	-42.4	-46.6	11.5	7.81e-04	0	57	0	333447168	55	6159
2026-01-14 23:59:16.84	9.66	27.60	-42.4	-46.6	11.4	8.99e-04	0	57	0	335544320	55	6183
2026-01-14 23:59:17.85	9.60	27.77	-42.5	-46.7	11.4	9.49e-04	0	57	0	337641472	55	6254
2026-01-14 23:59:18.86	9.55	27.95	-42.5	-46.8	11.2	1.27e-03	0	57	0	339738624	55	6336
2026-01-14 23:59:19.87	9.49	28.13	-42.6	-47.0	11.0	1.62e-03	0	57	0	341835776	55	6482
2026-01-14 23:59:20.88	9.43	28.30	-42.6	-47.2	10.8	1.90e-03	0	57	0	342884352	55	6591
2026-01-14 23:59:21.89	9.37	28.48	-42.7	-47.2	10.8	2.50e-03	0	57	0	344981504	55	6613
2026-01-14 23:59:22.89	9.31	28.66	-43.0	-47.7	10.5	3.14e-03	0	57	0	347078656	56	6618
2026-01-14 23:59:23.90	9.25	28.84	-43.0	-47.7	10.5	3.42e-03	0	57	0	349175808	56	6631
2026-01-14 23:59:24.91	9.19	29.02	-43.0	-47.8	10.4	4.03e-03	0	57	0	351272960	56	6681
2026-01-14 23:59:25.92	9.12	29.21	-43.1	-47.9	10.3	5.21e-03	0	57	0	352321536	56	6783
2026-01-14 23:59:26.93	9.06	29.39	-43.1	-48.0	10.3	5.65e-03	0	57	0	354418688	56	6805
2026-01-14 23:59:27.94	9.00	29.58	-43.1	-48.0	10.2	5.71e-03	0	57	0	356515840	56	6830
2026-01-14 23:59:28.95	8.93	29.76	-43.1	-48.1	10.1	6.14e-03	0	57	0	358612992	56	6941
2026-01-14 23:59:29.96	8.87	29.95	-43.1	-48.1	10.1	7.12e-03	0	57	0	360710144	56	6953
2026-01-14 23:59:30.97	8.80	30.14	-43.2	-48.3	9.9	6.67e-03	0	57	0	361758720	56	7067
2026-01-14 23:59:31.98	8.73	30.33	-43.2	-48.3	9.9	8.59e-03	0	57	0	363855872	56	7072
2026-01-14 23:59:32.98	8.67	30.52	-43.2	-48.3	9.9	9.05e-03	0	57	0	365953024	57	6690
2026-01-14 23:59:33.99	8.60	30.71	-43.3	-48.5	9.7	1.04e-02	0	57	0	368050176	57	6812
2026-01-14 23:59:35.00	8.53	30.91	-43.3	-48.5	9.7	1.14e-02	0	57	0	370147328	57	6866
2026-01-14 23:59:36.01	8.46	31.10	-43.4	-48.7	9.5	1.25e-02	0	57	0	371195904	57	6975
2026-01-14 23:59:37.02	8.39	31.30	-43.4	-48.7	9.5	1.45e-02	0	57	0	373293056	57	6976
2026-01-14 23:59:38.03	8.31	31.50	-43.4	-48.9	9.3	1.57e-02	0	57	0	375390208	57	7147
2026-01-14 23:59:39.04	8.24	31.69	-43.5	-49.0	9.1	1.88e-02	0	57	0	377487360	57	7270
2026-01-14 23:59:40.05	8.17	31.89	-43.5	-49.0	9.2	2.06e-02	0	57	0	379584512	57	7256
2026-01-14 23:59:41.06	8.09	32.10	-43.5	-49.2	9.1	2.28e-02	0	57	0	380633088	57	7376
2026-01-14 23:59:42.07	8.01	32.30	-43.5	-49.1	9.1	2.46e-02	0	57	0	382730240	57	7346
2026-01-14 23:59:43.08	7.94	32.50	-43.6	-49.3	8.8	2.97e-02	0	57	0	384827392	57	7535
2026-01-14 23:59:44.08	7.86	32.71	-43.6	-49.5	8.7	3.15e-02	0	57	0	386924544	57	7646
2026-01-14 23:59:45.10	7.78	32.92	-43.8	-49.8	8.4	3.77e-02	0	57	0	389021696	58	7474
2026-01-14 23:59:46.11	7.70	33.12	-43.7	-49.6	8.6	3.70e-02	0	57	0	391118848	58	7344
2026-01-14 23:59:47.11	7.62	33.33	-43.7	-49.5	8.7	3.82e-02	0	57	0	392167424	58	7258
2026-01-14 23:59:48.12	7.53	33.54	-43.7	-49.7	8.5	3.96e-02	0	57	0	394264576	58	7431
2026-01-14 23:59:49.13	7.45	33.76	-43.7	-49.5	8.7	3.62e-02	0	57	0	396361728	58	7268
2026-01-14 23:59:50.14	7.37	33.97	-43.7	-49.5	8.7	3.13e-02	0	57	0	398458880	58	7266
2026-01-14 23:59:51.15	7.28	34.18	-43.6	-49.2	9.0	3.20e-02	0	57	0	399507456	58	7012
2026-01-14 23:59:52.16	7.19	34.40	-43.5	-48.9	9.3	2.15e-02	0	57	0	401604608	58	6795
2026-01-14 23:59:53.17	7.10	34.62	-43.5	-48.8	9.4	1.71e-02	0	57	0	403701760	58	6688
2026-01-14 23:59:54.18	7.01	34.84	-43.4	-48.8	9.5	1.51e-02	0	57	0	405798912	58	6653
2026-01-14 23:59:55.18	6.92	35.06	-43.4	-48.5	9.7	1.27e-02	0	57	0	407896064	58	6465
2026-01-14 23:59:56.19	6.83	35.28	-43.3	-48.3	9.9	9.73e-03	0	57	0	408944640	58	6321
2026-01-14 23:59:57.20	6.74	35.50	-43.2	-48.0	10.3	7.80e-03	0	57	0	411041792	58	6091
2026-01-14 23:59:58.21	6.64	35.73	-43.0	-47.7	10.6	3.86e-03	0	57	0	413138944	58	5884
2026-01-14 23:59:59.21	6.55	35.95	-43.0	-47.5	10.8	2.91e-03	0	57	0	415236096	57	6112
2026-01-15 00:00:00.22	6.45	36.18	-42.9	-47.3	11.1	2.23e-03	0	57	0	417333248	57	5950
2026-01-15 00:00:01.23	6.35	36.41	-42.8	-47.2	11.1	1.50e-03	0	58	0	419430400	57	5859
2026-01-15 00:00:02.24	6.25	36.65	-42.9	-47.2	11.1	1.73e-03	0	57	0	420478976	57	5918
2026-01-15 00:00:03.24	6.15	36.88	-42.8	-47.2	11.0	1.76e-03	0	57	0	422576128	57	5921
2026-01-15 00:00:04.25	6.05	37.11	-42.9	-47.2	11.0	1.70e-03	0	57	0	424673280	57	5922
2026-01-15 00:00:05.26	5.94	37.35	-42.8	-47.1	11.3	1.13e-03	0	57	0	426770432	57	5803
2026-01-15 00:00:06.27	5.83	37.59	-42.7	-47.0	11.4	1.04e-03	0	57	0	428867584	57	5753
2026-01-15 00:00:07.28	5.73	37.82	-42.7	-47.0	11.4	1.08e-03	0	57	0	429916160	57	5743
2026-01-15 00:00:08.29	5.62	38.07	-42.8	-47.1	11.2	1.21e-03	0	57	0	432013312	57	5826
2026-01-15 00:00:09.29	5.50	38.31	-42.9	-47.4	11.0	1.43e-03	0	57	0	434110464	57	6009
2026-01-15 00:00:10.30	5.39	38.55	-43.0	-47.5	10.8	2.13e-03	0	57	0	436207616	57	6118
2026-01-15 00:00:11.31	5.28	38.80	-43.1	-47.8	10.6	3.54e-03	0	57	0	438304768	57	6307
2026-01-15 00:00:12.32	5.16	39.04	-43.2	-48.1	10.2	5.44e-03	0	57	0	439353344	57	6535
2026-01-15 00:00:13.32	5.04	39.29	-43.3	-48.5	9.8	7.82e-03	0	58	0	441450496	57	6823
2026-01-15 00:00:14.33	4.92	39.54	-43.4	-48.5	9.7	1.02e-02	0	57	0	443547648	57	6871
2026-01-15 00:00:15.34	4.80	39.79	-43.3	-48.4	9.8	9.39e-03	0	57	0	445644800	57	6790
2026-01-15 00:00:16.35	4.67	40.05	-43.3	-48.3	9.9	9.56e-03	0	57	0	447741952	57	6703
2026-01-15 00:00:17.36	4.55	40.30	-43.4	-48.5	9.8	1.03e-02	0	57	0	448790528	57	6806
2026-01-15 00:00:18.36	4.42	40.56	-43.3	-48.4	9.8	9.81e-03	0	57	0	450887680	57	6784
2026-01-15 00:00:19.37	4.29	40.82	-43.4	-48.6	9.7	1.00e-02	0	57	0	452984832	57	6924
2026-01-15 00:00:20.38	4.15	41.08	-43.4	-48.6	9.6	1.00e-02	0	57	0	455081984	57	6949
2026-01-15 00:00:21.39	4.02	41.34	-43.5	-48.9	9.5	1.45e-02	0	58	0	457179136	57	7132
2026-01-15 00:00:22.40	3.88	41.61	-43.5	-48.8	9.4	1.76e-02	0	57	0	458227712	57	7116
2026-01-15 00:00:23.40	3.74	41.87	-43.6	-49.1	9.2	1.76e-02	0	57	0	460324864	57	7297
2026-01-15 00:00:24.41	3.60	42.14	-43.5	-49.0	9.3	1.76e-02	0	58	0	462422016	57	7222
2026-01-15 00:00:25.42	3.45	42.41	-43.5	-49.0	9.4	1.80e-02	0	57	0	464519168	57	7220
2026-01-15 00:00:26.43	3.31	42.68	-43.5	-48.8	9.5	1.61e-02	0	57	0	466616320	57	7074
2026-01-15 00:00:27.43	3.16	42.95	-43.4	-48.7	9.6	1.39e-02	0	57	0	467664896	57	6987
2026-01-15 00:00:28.45	3.00	43.23	-43.4	-48.6	9.7	1.11e-02	0	57	0	469762048	57	6907
2026-01-15 00:00:29.45	2.85	43.50	-43.4	-48.5	9.9	8.82e-03	0	58	0	471859200	57	6819
2026-01-15 00:00:30.46	2.69	43.78	-43.4	-48.5	9.9	8.86e-03	0	57	0	473956352	57	6819
2026-01-15 00:00:31.47	2.53	44.06	-43.4	-48.5	9.8	8.63e-03	0	58	0	476053504	57	6861
2026-01-15 00:00:32.48	2.37	44.34	-43.4	-48.6	9.7	1.09e-02	0	57	0	477102080	57	6925
2026-01-15 00:00:33.49	2.20	44.63	-43.5	-48.6	9.7	9.69e-03	0	58	0	479199232	57	6930
2026-01-15 00:00:34.50	2.03	44.91	-43.4	-48.7	9.7	1.16e-02	0	57	0	481296384	57	6971
2026-01-15 00:00:35.51	1.86	45.20	-43.5	-48.7	9.6	1.17e-02	0	57	0	483393536	57	7026
2026-01-15 00:00:36.52	1.68	45.49	-43.5	-48.9	9.4	1.54e-02	0	58	0	485490688	57	7173
2026-01-15 00:00:37.53	1.50	45.78	-43.5	-48.9	9.5	1.63e-02	0	58	0	486539264	57	7136
2026-01-15 00:00:38.54	1.32	46.07	-43.5	-48.8	9.6	1.17e-02	0	57	0	488636416	57	7046
2026-01-15 00:00:39.55	1.13	46.37	-43.5	-48.9	9.5	1.46e-02	0	57	0	490733568	57	7137
2026-01-15 00:00:40.56	0.94	46.67	-43.6	-49.0	9.3	1.99e-02	0	58	0	492830720	57	7240
2026-01-15 00:00:41.57	0.75	46.96	-43.7	-49.3	9.0	2.39e-02	0	57	0	494927872	57	7509
2026-01-15 00:00:42.58	0.55	47.26	-43.7	-49.2	9.1	2.62e-02	0	58	0	495976448	58	7015
2026-01-15 00:00:43.59	0.35	47.57	-43.6	-49.0	9.3	1.67e-02	0	58	0	498073600	58	6813
2026-01-15 00:00:44.60	0.14	47.87	-43.5	-48.7	9.6	1.43e-02	0	57	0	500170752	58	6621
2026-01-15 00:00:45.61	359.93	48.17	-43.7	-49.2	9.2	1.53e-02	0	58	0	502267904	58	7005
2026-01-15 00:00:46.62	359.72	48.48	-43.7	-49.3	9.0	2.20e-02	0	58	0	504365056	57	7468
2026-01-15 00:00:47.63	359.50	48.79	-43.7	-49.2	9.1	2.38e-02	0	58	0	505413632	57	7399
2026-01-15 00:00:48.64	359.28	49.10	-43.6	-49.2	9.1	1.86e-02	0	58	0	507510784	57	7386
2026-01-15 00:00:49.65	359.05	49.41	-43.5	-48.6	9.7	1.55e-02	0	58	0	509607936	57	6957
2026-01-15 00:00:50.66	358.82	49.73	-43.4	-48.3	9.9	9.43e-03	0	58	0	511705088	57	6721
2026-01-15 00:00:51.67	358.58	50.04	-43.2	-48.1	10.3	6.73e-03	0	58	0	513802240	57	6549
2026-01-15 00:00:52.68	358.34	50.36	-43.1	-47.7	10.7	4.45e-03	0	58	0	515899392	57	6241
2026-01-15 00:00:53.68	358.09	50.67	-42.8	-46.9	11.5	1.48e-03	0	58	0	516947968	57	5719
2026-01-15 00:00:54.69	357.84	50.99	-42.5	-46.4	12.1	4.26e-04	0	57	0	519045120	56	5685
2026-01-15 00:00:55.70	357.58	51.32	-42.4	-46.1	12.4	2.13e-04	0	58	0	521142272	56	5504
2026-01-15 00:00:56.71	357.32	51.64	-42.3	-45.9	12.6	1.08e-04	0	58	0	523239424	56	5365
2026-01-15 00:00:57.72	357.05	51.97	-42.1	-45.7	12.8	7.62e-05	0	58	0	525336576	56	5244
2026-01-15 00:00:58.73	356.77	52.29	-41.9	-45.4	13.0	4.88e-05	0	58	0	526385152	55	5382
2026-01-15 00:00:59.74	356.49	52.62	-41.7	-45.1	13.3	2.44e-05	0	58	0	528482304	55	5163
2026-01-15 00:01:00.75	356.20	52.95	-41.7	-45.1	13.3	1.22e-05	0	58	0	530579456	55	5178
2026-01-15 00:01:01.76	355.90	53.28	-41.9	-45.3	13.1	2.97e-05	0	58	0	532676608	55	5288
2026-01-15 00:01:02.76	355.60	53.61	-42.0	-45.5	12.7	3.58e-05	0	58	0	534773760	55	5451
2026-01-15 00:01:03.77	355.29	53.94	-42.0	-45.5	12.8	6.94e-05	0	58	0	535822336	55	5442
2026-01-15 00:01:04.78	354.98	54.28	-42.0	-45.6	12.8	5.41e-05	0	58	0	537919488	55	5479
2026-01-15 00:01:05.79	354.65	54.61	-42.1	-45.7	12.7	6.17e-05	0	58	0	540016640	55	5533
2026-01-15 00:01:06.80	354.32	54.95	-42.2	-45.9	12.4	1.12e-04	0	58	0	542113792	55	5678
2026-01-15 00:01:07.81	353.98	55.29	-42.4	-46.3	12.0	1.91e-04	0	57	0	544210944	55	5957
2026-01-15 00:01:08.82	353.63	55.63	-42.4	-46.3	11.9	3.46e-04	0	58	0	545259520	55	5987
2026-01-15 00:01:09.83	353.27	55.97	-42.5	-46.5	11.8	4.65e-04	0	57	0	547356672	55	6080
2026-01-15 00:01:10.84	352.91	56.31	-42.6	-46.8	11.5	5.92e-04	0	58	0	549453824	55	6300
2026-01-15 00:01:11.84	352.54	56.65	-42.7	-46.9	11.4	8.47e-04	0	58	0	551550976	55	6352
2026-01-15 00:01:12.85	352.15	57.00	-43.0	-47.5	10.9	1.21e-03	0	58	0	553648128	56	6447
2026-01-15 00:01:13.86	351.76	57.34	-43.2	-48.0	10.3	3.66e-03	0	58	0	554696704	57	6492
2026-01-15 00:01:14.87	351.35	57.69	-43.4	-48.5	9.8	7.77e-03	0	58	0	556793856	57	6844
2026-01-15 00:01:15.88	350.94	58.03	-43.4	-48.5	9.9	1.04e-02	0	58	0	558891008	57	6820
2026-01-15 00:01:16.89	350.51	58.38	-43.3	-48.2	10.2	7.05e-03	0	58	0	560988160	57	6609
2026-01-15 00:01:17.90	350.07	58.73	-43.3	-48.3	10.1	6.18e-03	0	58	0	563085312	57	6658
2026-01-15 00:01:18.90	349.63	59.07	-43.3	-48.1	10.3	7.60e-03	0	58	0	564133888	57	6503
2026-01-15 00:01:19.91	349.16	59.42	-43.1	-47.7	10.7	3.80e-03	0	58	0	566231040	57	6263
2026-01-15 00:01:20.92	348.69	59.77	-42.9	-47.1	11.3	1.62e-03	0	58	0	568328192	57	5795
2026-01-15 00:01:21.93	348.20	60.11	-42.7	-46.9	11.6	8.34e-04	0	58	0	570425344	56	6000
2026-01-15 00:01:22.93	347.71	60.46	-42.7	-46.8	11.8	5.09e-04	0	58	0	572522496	56	5926
2026-01-15 00:01:23.94	347.19	60.81	-42.4	-46.2	12.2	2.68e-04	0	58	0	573571072	56	5570
2026-01-15 00:01:24.95	346.66	61.16	-42.2	-45.7	12.7	1.20e-04	0	58	0	575668224	56	5278
2026-01-15 00:01:25.96	346.12	61.50	-42.3	-45.9	12.6	9.84e-05	0	58	0	577765376	56	5356
2026-01-15 00:01:26.97	345.56	61.85	-42.3	-45.9	12.6	1.22e-04	0	58	0	579862528	56	5382
2026-01-15 00:01:27.98	344.98	62.20	-42.2	-45.7	12.8	7.24e-05	0	58	0	581959680	56	5235
2026-01-15 00:01:28.98	344.39	62.54	-42.1	-45.6	12.9	5.11e-05	0	58	0	583008256	56	5165
2026-01-15 00:01:29.99	343.78	62.88	-42.3	-46.0	12.6	9.61e-05	0	58	0	585105408	56	5408
2026-01-15 00:01:30.99	343.16	63.22	-42.2	-45.8	12.7	8.92e-05	0	58	0	587202560	56	5305
2026-01-15 00:01:32.00	342.52	63.56	-42.2	-45.7	12.8	7.09e-05	0	58	0	589299712	56	5258
2026-01-15 00:01:33.01	341.85	63.91	-42.3	-46.0	12.5	9.53e-05	0	58	0	591396864	56	5422
2026-01-15 00:01:34.02	341.17	64.24	-42.5	-46.5	12.0	2.00e-04	0	58	0	592445440	56	5734
2026-01-15 00:01:35.03	340.46	64.58	-42.6	-46.5	11.9	3.36e-04	0	58	0	594542592	56	5772
2026-01-15 00:01:36.04	339.73	64.92	-42.9	-47.1	11.3	7.27e-04	0	58	0	596639744	56	6175
2026-01-15 00:01:37.05	338.98	65.25	-43.3	-48.1	10.2	3.81e-03	0	58	0	598736896	57	6526
2026-01-15 00:01:38.06	338.21	65.58	-43.6	-48.9	9.4	1.13e-02	0	58	0	600834048	57	7159
2026-01-15 00:01:39.07	337.42	65.91	-43.5	-48.8	9.6	1.43e-02	0	58	0	601882624	57	7051
2026-01-15 00:01:40.07	336.61	66.23	-43.5	-48.7	9.6	1.09e-02	0	58	0	603979776	57	6990
2026-01-15 00:01:41.08	335.76	66.55	-43.6	-48.9	9.4	1.21e-02	0	58	0	606076928	57	7183
2026-01-15 00:01:42.09	334.89	66.87	-43.7	-49.2	9.0	2.14e-02	0	58	0	608174080	57	7427
2026-01-15 00:01:43.10	334.00	67.18	-43.9	-49.9	8.3	3.82e-02	0	58	0	610271232	58	7547
2026-01-15 00:01:44.11	333.07	67.49	-43.9	-50.0	8.2	5.39e-02	0	58	0	612368384	58	7719
2026-01-15 00:01:45.12	332.12	67.80	-43.9	-50.0	8.3	5.54e-02	0	58	0	613416960	58	7654
2026-01-15 00:01:46.13	331.14	68.10	-43.9	-49.9	8.2	5.24e-02	0	58	0	615514112	58	7598
2026-01-15 00:01:47.14	330.13	68.39	-43.8	-49.5	8.8	4.14e-02	0	58	0	617611264	58	7233
2026-01-15 00:01:48.14	329.10	68.68	-43.4	-48.5	9.8	1.94e-02	0	58	0	619708416	58	6453
2026-01-15 00:01:49.15	328.03	68.96	-43.4	-48.3	10.0	8.46e-03	0	58	0	620756992	58	6302
2026-01-15 00:01:50.16	326.93	69.24	-43.4	-48.5	9.7	7.59e-03	0	58	0	622854144	58	6471
2026-01-15 00:01:51.17	325.79	69.51	-43.5	-48.7	9.5	1.01e-02	0	58	0	624951296	58	6617
2026-01-15 00:01:52.18	324.63	69.78	-43.5	-48.8	9.5	1.24e-02	0	58	0	627048448	58	6649
2026-01-15 00:01:53.19	323.43	70.03	-43.5	-48.7	9.5	1.35e-02	0	58	0	629145600	58	6638
2026-01-15 00:01:54.20	322.20	70.28	-43.2	-47.9	10.3	9.29e-03	0	58	0	630194176	58	6045
2026-01-15 00:01:55.21	320.93	70.52	-42.8	-47.1	11.2	1.56e-03	0	58	0	632291328	57	5827
2026-01-15 00:01:56.22	319.63	70.76	-42.8	-47.1	11.1	1.60e-03	0	58	0	634388480	57	5810
2026-01-15 00:01:57.23	318.30	70.98	-42.8	-47.0	11.2	1.55e-03	0	58	0	636485632	57	5781
2026-01-15 00:01:58.23	316.95	71.19	-42.7	-46.9	11.4	1.21e-03	0	58	0	638582784	57	5706
2026-01-15 00:01:59.24	315.55	71.40	-42.8	-47.1	11.2	1.14e-03	0	58	0	640679936	57	5840
2026-01-15 00:02:00.25	314.12	71.59	-42.7	-46.9	11.4	1.68e-03	0	58	0	641728512	57	5708
2026-01-15 00:02:01.26	312.66	71.77	-42.3	-45.9	12.4	5.44e-04	0	58	0	643825664	56	5397
2026-01-15 00:02:02.27	311.17	71.95	-42.3	-46.0	12.3	1.41e-04	0	58	0	645922816	56	5462
2026-01-15 00:02:03.27	309.66	72.10	-42.7	-46.8	11.5	5.47e-04	0	58	0	648019968	56	5978
2026-01-15 00:02:04.28	308.11	72.25	-42.7	-46.8	11.5	1.01e-03	0	58	0	650117120	56	5949
2026-01-15 00:02:05.29	306.53	72.39	-42.8	-47.1	11.1	1.26e-03	0	58	0	651165696	56	6166
2026-01-15 00:02:06.30	304.93	72.51	-43.1	-47.7	10.5	2.64e-03	0	58	0	653262848	56	6605
2026-01-15 00:02:07.31	303.31	72.62	-43.2	-48.0	10.2	4.50e-03	0	58	0	655360000	56	6867
2026-01-15 00:02:08.31	301.68	72.72	-43.3	-48.4	9.8	9.62e-03	0	58	0	657457152	57	6745
2026-01-15 00:02:09.32	300.02	72.80	-43.4	-48.6	9.6	1.13e-02	0	58	0	659554304	57	6907
2026-01-15 00:02:10.33	298.34	72.87	-43.2	-47.9	10.3	6.66e-03	0	58	0	660602880	57	6364
2026-01-15 00:02:11.34	296.65	72.93	-43.2	-48.0	10.2	4.94e-03	0	58	0	662700032	57	6465
2026-01-15 00:02:12.35	294.95	72.97	-43.5	-48.9	9.2	1.56e-02	0	58	0	664797184	57	7147
2026-01-15 00:02:13.35	293.26	73.00	-43.4	-48.6	9.6	1.71e-02	0	58	0	666894336	57	6952
2026-01-15 00:02:14.36	291.55	73.01	-43.4	-48.4	9.7	9.67e-03	0	58	0	668991488	57	6794
2026-01-15 00:02:15.37	289.83	73.01	-43.4	-48.6	9.5	1.46e-02	0	58	0	670040064	57	6956
2026-01-15 00:02:16.38	288.12	72.99	-43.5	-48.7	9.4	1.43e-02	0	58	0	672137216	57	6992
2026-01-15 00:02:17.39	286.42	72.96	-43.4	-48.5	9.7	1.49e-02	0	58	0	674234368	57	6855
2026-01-15 00:02:18.40	284.72	72.91	-43.2	-48.0	10.2	7.83e-03	0	58	0	676331520	57	6453
2026-01-15 00:02:19.41	283.03	72.85	-42.8	-47.1	11.2	2.74e-03	0	58	0	678428672	57	5823
2026-01-15 00:02:20.42	281.36	72.78	-42.7	-46.9	11.4	1.26e-03	0	58	0	679477248	57	5672
2026-01-15 00:02:21.43	279.70	72.69	-42.7	-46.9	11.4	1.18e-03	0	58	0	681574400	57	5696
2026-01-15 00:02:22.44	278.06	72.59	-42.4	-46.2	12.0	5.79e-04	0	58	0	683671552	56	5546
2026-01-15 00:02:23.44	276.46	72.48	-42.3	-46.0	12.2	1.88e-04	0	58	0	685768704	56	5463
2026-01-15 00:02:24.45	274.86	72.35	-42.3	-46.0	12.3	2.49e-04	0	58	0	687865856	56	5439
2026-01-15 00:02:25.46	273.30	72.21	-42.4	-46.3	12.0	2.43e-04	0	58	0	688914432	56	5632
2026-01-15 00:02:26.47	271.75	72.06	-42.4	-46.2	12.1	2.97e-04	0	58	0	691011584	56	5567
2026-01-15 00:02:27.48	270.24	71.89	-42.2	-45.8	12.5	1.76e-04	0	58	0	693108736	56	5320
2026-01-15 00:02:28.49	268.76	71.72	-42.4	-46.2	12.2	1.50e-04	0	58	0	695205888	56	5543
2026-01-15 00:02:29.49	267.32	71.53	-42.8	-47.1	11.1	9.25e-04	0	58	0	697303040	56	6162
2026-01-15 00:02:30.50	265.90	71.34	-43.0	-47.4	10.8	2.14e-03	0	58	0	698351616	56	6418
2026-01-15 00:02:31.51	264.51	71.13	-43.0	-47.5	10.8	2.81e-03	0	58	0	700448768	56	6428
2026-01-15 00:02:32.52	263.15	70.91	-43.0	-47.6	10.6	3.15e-03	0	58	0	702545920	56	6557
2026-01-15 00:02:33.53	261.83	70.69	-43.1	-47.7	10.5	3.13e-03	0	58	0	704643072	56	6571
2026-01-15 00:02:34.54	260.54	70.45	-43.4	-48.4	9.7	5.49e-03	0	58	0	706740224	57	6791
2026-01-15 00:02:35.55	259.28	70.21	-43.5	-48.8	9.4	1.27e-02	0	58	0	707788800	57	7086
2026-01-15 00:02:36.55	258.07	69.96	-43.6	-48.9	9.2	1.60e-02	0	58	0	709885952	57	7204
2026-01-15 00:02:37.56	256.88	69.70	-43.6	-49.2	8.9	2.22e-02	0	58	0	711983104	57	7435
2026-01-15 00:02:38.57	255.72	69.43	-43.9	-49.9	8.4	4.02e-02	0	58	0	714080256	58	7556
2026-01-15 00:02:39.58	254.59	69.16	-43.8	-49.7	8.5	3.92e-02	0	58	0	716177408	58	7372
2026-01-15 00:02:40.59	253.50	68.88	-44.0	-50.4	7.8	5.47e-02	0	58	0	717225984	58	8030
2026-01-15 00:02:41.60	252.44	68.59	-44.0	-50.5	7.7	8.44e-02	0	58	0	719323136	58	8088
2026-01-15 00:02:42.61	251.41	68.30	-44.0	-50.4	7.8	7.99e-02	0	58	0	721420288	58	8018
2026-01-15 00:02:43.61	250.41	68.00	-44.1	-50.6	7.6	9.80e-02	0	58	0	723517440	58	8203
2026-01-15 00:02:44.62	249.44	67.70	-43.9	-50.1	8.2	6.21e-02	0	58	0	725614592	58	7731
2026-01-15 00:02:45.63	248.50	67.39	-43.8	-49.7	8.4	4.13e-02	0	58	0	726663168	58	7399
2026-01-15 00:02:46.64	247.58	67.08	-43.7	-49.3	9.0	3.61e-02	0	58	0	728760320	58	7056
2026-01-15 00:02:47.65	246.69	66.77	-43.5	-48.7	9.6	2.33e-02	0	58	0	730857472	58	6579
2026-01-15 00:02:48.65	245.84	66.45	-43.2	-48.1	10.2	7.01e-03	0	58	0	732954624	58	6152
2026-01-15 00:02:49.66	245.00	66.13	-43.2	-47.8	10.5	5.48e-03	0	58	0	735051776	58	5984
2026-01-15 00:02:50.67	244.18	65.80	-42.8	-47.1	11.1	3.25e-03	0	58	0	737148928	57	5836
2026-01-15 00:02:51.68	243.40	65.47	-42.7	-46.8	11.6	6.63e-04	0	58	0	738197504	57	5624
2026-01-15 00:02:52.69	242.63	65.14	-42.2	-45.8	12.6	3.26e-04	0	58	0	740294656	56	5298
2026-01-15 00:02:53.70	241.89	64.80	-42.0	-45.4	13.0	4.50e-05	0	58	0	742391808	56	5060
2026-01-15 00:02:54.70	241.17	64.47	-41.6	-44.8	13.5	1.67e-05	0	58	0	744488960	55	4988
2026-01-15 00:02:55.71	240.47	64.13	-41.6	-44.8	13.4	1.52e-05	0	58	0	746586112	55	5013
2026-01-15 00:02:56.72	239.79	63.79	-41.5	-44.6	13.6	9.10e-06	0	58	0	747634688	55	4919
2026-01-15 00:02:57.73	239.13	63.45	-41.5	-44.6	13.7	6.10e-06	0	58	0	749731840	54	5203
2026-01-15 00:02:58.74	238.49	63.11	-41.5	-44.6	13.7	6.10e-06	0	58	0	751828992	54	5178
2026-01-15 00:02:59.74	237.87	62.77	-41.4	-44.5	13.8	6.80e-06	0	58	0	753926144	54	5147
2026-01-15 00:03:00.76	237.26	62.42	-41.4	-44.5	13.7	6.80e-06	0	58	0	756023296	54	5156
2026-01-15 00:03:01.76	236.68	62.07	-41.7	-45.0	13.3	1.29e-05	0	58	0	757071872	54	5411
2026-01-15 00:03:02.77	236.11	61.73	-41.8	-45.3	13.0	3.28e-05	0	58	0	759169024	54	5609
2026-01-15 00:03:03.78	235.55	61.38	-42.1	-45.8	12.5	5.34e-05	0	58	0	761266176	54	5954
2026-01-15 00:03:04.79	235.01	61.03	-42.4	-46.3	12.0	2.64e-04	0	58	0	763363328	55	5930
2026-01-15 00:03:05.80	234.48	60.68	-42.5	-46.6	11.6	5.75e-04	0	58	0	765460480	55	6132
2026-01-15 00:03:06.81	233.97	60.33	-42.6	-46.7	11.5	6.95e-04	0	58	0	766509056	55	6273
2026-01-15 00:03:07.82	233.48	59.98	-42.5	-46.6	11.6	7.64e-04	0	58	0	768606208	55	6146
2026-01-15 00:03:08.83	232.99	59.63	-42.9	-47.3	11.0	9.72e-04	0	58	0	770703360	56	6319
2026-01-15 00:03:09.84	232.52	59.28	-43.4	-48.5	9.9	4.20e-03	0	58	0	772800512	57	6845
2026-01-15 00:03:10.85	232.06	58.94	-43.6	-48.9	9.3	1.74e-02	0	58	0	774897664	57	7199
2026-01-15 00:03:11.86	231.62	58.59	-43.5	-48.6	9.6	1.55e-02	0	58	0	775946240	57	6943
2026-01-15 00:03:12.87	231.18	58.24	-43.6	-49.0	9.2	1.41e-02	0	58	0	778043392	57	7281
2026-01-15 00:03:13.88	230.76	57.89	-43.7	-49.4	8.9	2.88e-02	0	58	0	780140544	58	7155
2026-01-15 00:03:14.89	230.34	57.55	-43.7	-49.4	8.6	3.22e-02	0	58	0	782237696	58	7161
2026-01-15 00:03:15.90	229.94	57.20	-43.8	-49.5	8.8	2.99e-02	0	58	0	784334848	58	7220
2026-01-15 00:03:16.91	229.55	56.85	-43.7	-49.3	8.9	2.93e-02	0	58	0	785383424	58	7089
2026-01-15 00:03:17.92	229.17	56.51	-43.4	-48.5	9.8	1.77e-02	0	58	0	787480576	58	6454
2026-01-15 00:03:18.93	228.79	56.17	-43.0	-47.3	11.0	4.14e-03	0	58	0	789577728	57	5991
2026-01-15 00:03:19.94	228.43	55.82	-42.7	-46.9	11.5	1.22e-03	0	58	0	791674880	57	5686
2026-01-15 00:03:20.95	228.07	55.48	-42.7	-46.9	11.5	8.73e-04	0	58	0	793772032	57	5658
2026-01-15 00:03:21.96	227.73	55.14	-42.4	-46.3	12.1	4.17e-04	0	58	0	794820608	56	5593
2026-01-15 00:03:22.97	227.39	54.80	-42.3	-46.0	12.4	1.98e-04	0	58	0	796917760	56	5415
2026-01-15 00:03:23.98	227.06	54.46	-42.2	-45.9	12.5	9.46e-05	0	58	0	799014912	56	5352
2026-01-15 00:03:24.98	226.74	54.13	-42.1	-45.5	12.9	5.56e-05	0	58	0	801112064	56	5156
2026-01-15 00:03:25.99	226.43	53.79	-41.8	-45.1	13.1	3.20e-05	0	58	0	803209216	55	5203
2026-01-15 00:03:27.00	226.12	53.46	-41.8	-45.2	13.1	3.20e-05	0	58	0	804257792	55	5221
2026-01-15 00:03:28.01	225.82	53.13	-41.8	-45.2	13.1	2.51e-05	0	58	0	806354944	55	5244
2026-01-15 00:03:29.02	225.52	52.80	-41.7	-44.9	13.3	2.44e-05	0	58	0	808452096	55	5096
2026-01-15 00:03:30.03	225.24	52.47	-41.8	-45.1	13.2	1.98e-05	0	58	0	810549248	55	5198
2026-01-15 00:03:31.03	224.96	52.14	-42.0	-45.6	12.7	4.42e-05	0	58	0	812646400	55	5508
2026-01-15 00:03:32.05	224.68	51.81	-42.1	-45.7	12.6	1.17e-04	0	58	0	813694976	55	5561
2026-01-15 00:03:33.06	224.41	51.48	-42.1	-45.7	12.5	1.08e-04	0	58	0	815792128	55	5587
2026-01-15 00:03:34.06	224.15	51.16	-42.2	-46.0	12.2	1.77e-04	0	58	0	817889280	55	5741
2026-01-15 00:03:35.07	223.89	50.84	-42.6	-46.7	11.5	5.29e-04	0	58	0	819986432	55	6270
2026-01-15 00:03:36.08	223.64	50.52	-42.9	-47.3	11.1	1.07e-03	0	58	0	822083584	56	6315
2026-01-15 00:03:37.08	223.40	50.20	-43.0	-47.5	10.9	2.33e-03	0	58	0	823132160	56	6439
2026-01-15 00:03:38.09	223.16	49.89	-43.1	-47.8	10.6	3.38e-03	0	58	0	825229312	56	6683
2026-01-15 00:03:39.10	222.92	49.57	-43.4	-48.4	10.0	4.85e-03	0	58	0	827326464	57	6752
2026-01-15 00:03:40.11	222.69	49.26	-43.4	-48.4	9.9	9.09e-03	0	58	0	829423616	57	6761
2026-01-15 00:03:41.12	222.46	48.94	-43.3	-48.3	10.0	8.43e-03	0	58	0	831520768	57	6670
2026-01-15 00:03:42.13	222.24	48.63	-43.4	-48.3	10.0	7.94e-03	0	58	0	833617920	57	6723
2026-01-15 00:03:43.13	222.03	48.33	-43.5	-48.7	9.6	1.07e-02	0	58	0	834666496	57	7040
2026-01-15 00:03:44.14	221.81	48.02	-43.5	-48.8	9.5	1.53e-02	0	58	0	836763648	57	7073
2026-01-15 00:03:45.15	221.60	47.71	-43.6	-49.0	9.3	1.84e-02	0	58	0	838860800	57	7246
2026-01-15 00:03:46.15	221.40	47.41	-43.6	-49.0	9.2	1.95e-02	0	58	0	840957952	57	7277
2026-01-15 00:03:47.16	221.20	47.11	-43.6	-49.0	9.3	1.81e-02	0	58	0	843055104	57	7208
2026-01-15 00:03:48.17	221.00	46.81	-43.5	-48.8	9.5	1.91e-02	0	58	0	844103680	57	7056
2026-01-15 00:03:49.18	220.81	46.51	-43.4	-48.5	9.8	1.14e-02	0	58	0	846200832	57	6845
2026-01-15 00:03:50.19	220.62	46.21	-43.4	-48.5	9.7	1.20e-02	0	58	0	848297984	57	6824
2026-01-15 00:03:51.20	220.43	45.92	-43.4	-48.5	9.7	1.12e-02	0	58	0	850395136	57	6879
2026-01-15 00:03:52.21	220.25	45.63	-43.3	-48.2	10.1	8.83e-03	0	58	0	852492288	57	6645
2026-01-15 00:03:53.21	220.08	45.34	-43.2	-47.9	10.4	5.17e-03	0	58	0	853540864	57	6403
2026-01-15 00:03:54.23	219.90	45.04	-43.2	-47.9	10.4	4.43e-03	0	58	0	855638016	57	6409
2026-01-15 00:03:55.23	219.73	44.76	-43.4	-48.4	9.8	6.10e-03	0	58	0	857735168	57	6791
2026-01-15 00:03:56.24	219.56	44.47	-43.5	-48.8	9.6	1.32e-02	0	58	0	859832320	57	7043
2026-01-15 00:03:57.25	219.39	44.19	-43.5	-48.8	9.5	1.53e-02	0	58	0	861929472	57	7065
2026-01-15 00:03:58.26	219.23	43.91	-43.6	-48.9	9.4	2.20e-02	0	58	0	862978048	57	7177
2026-01-15 00:03:59.27	219.07	43.63	-43.6	-49.0	9.3	1.71e-02	0	58	0	865075200	57	7229
2026-01-15 00:04:00.27	218.91	43.35	-43.5	-48.7	9.6	1.52e-02	0	58	0	867172352	57	6979
2026-01-15 00:04:01.28	218.76	43.07	-43.5	-48.7	9.6	1.25e-02	0	58	0	869269504	57	6997
2026-01-15 00:04:02.29	218.60	42.80	-43.4	-48.5	9.9	9.90e-03	0	58	0	871366656	57	6804
2026-01-15 00:04:03.30	218.45	42.52	-43.4	-48.5	9.9	9.76e-03	0	58	0	872415232	57	6807
2026-01-15 00:04:04.31	218.31	42.25	-43.5	-48.7	9.6	1.42e-02	0	58	0	874512384	57	7001
2026-01-15 00:04:05.32	218.16	41.98	-43.6	-49.1	9.1	1.66e-02	0	58	0	876609536	57	7346
2026-01-15 00:04:06.33	218.02	41.71	-43.8	-49.8	8.5	3.70e-02	0	58	0	878706688	58	7475
2026-01-15 00:04:07.34	217.88	41.45	-43.8	-49.8	8.4	4.44e-02	0	58	0	880803840	58	7524
2026-01-15 00:04:08.35	217.74	41.18	-43.9	-49.9	8.4	4.35e-02	0	58	0	881852416	58	7568
2026-01-15 00:04:09.35	217.61	40.92	-43.7	-49.5	8.8	4.21e-02	0	58	0	883949568	58	7239
2026-01-15 00:04:10.36	217.48	40.66	-43.7	-49.5	8.8	3.42e-02	0	58	0	886046720	58	7216
2026-01-15 00:04:11.37	217.35	40.40	-43.7	-49.4	8.8	3.27e-02	0	58	0	888143872	58	7168
2026-01-15 00:04:12.38	217.22	40.14	-43.8	-49.6	8.7	3.65e-02	0	58	0	890241024	58	7315
2026-01-15 00:04:13.39	217.09	39.88	-43.7	-49.5	8.7	3.35e-02	0	58	0	891289600	58	7245
2026-01-15 00:04:14.40	216.97	39.63	-43.8	-49.6	8.7	3.23e-02	0	58	0	893386752	58	7324
2026-01-15 00:04:15.40	216.84	39.38	-43.7	-49.3	8.9	3.04e-02	0	58	0	895483904	58	7115
2026-01-15 00:04:16.41	216.72	39.13	-43.6	-49.2	9.1	2.24e-02	0	58	0	897581056	58	6988
2026-01-15 00:04:17.42	216.60	38.88	-43.5	-48.8	9.5	1.98e-02	0	58	0	899678208	58	6650
2026-01-15 00:04:18.43	216.49	38.63	-43.4	-48.6	9.7	1.20e-02	0	58	0	900726784	58	6506
2026-01-15 00:04:19.43	216.37	38.39	-43.5	-48.7	9.6	1.20e-02	0	58	0	902823936	58	6618
2026-01-15 00:04:20.44	216.26	38.14	-43.5	-48.7	9.6	1.28e-02	0	58	0	904921088	58	6591
2026-01-15 00:04:21.45	216.15	37.90	-43.4	-48.5	9.8	1.15e-02	0	58	0	907018240	58	6478
2026-01-15 00:04:22.46	216.04	37.66	-43.3	-48.2	10.1	7.12e-03	0	58	0	909115392	58	6266
2026-01-15 00:04:23.47	215.93	37.42	-43.2	-48.1	10.2	6.18e-03	0	58	0	910163968	58	6143
2026-01-15 00:04:24.48	215.82	37.18	-43.2	-47.9	10.5	4.99e-03	0	58	0	912261120	58	6023
2026-01-15 00:04:25.49	215.72	36.94	-43.2	-48.0	10.3	4.75e-03	0	58	0	914358272	58	6099
2026-01-15 00:04:26.50	215.61	36.71	-43.3	-48.2	10.1	6.12e-03	0	58	0	916455424	58	6224
2026-01-15 00:04:27.50	215.51	36.48	-43.4	-48.6	9.7	1.01e-02	0	58	0	918552576	58	6555
2026-01-15 00:04:28.51	215.41	36.24	-43.4	-48.6	9.7	1.20e-02	0	58	0	919601152	58	6528
2026-01-15 00:04:29.52	215.31	36.01	-43.3	-48.3	9.9	1.05e-02	0	58	0	921698304	58	6345
2026-01-15 00:04:30.53	215.21	35.78	-43.3	-48.3	10.0	9.48e-03	0	58	0	923795456	58	6317
2026-01-15 00:04:31.54	215.12	35.56	-43.3	-48.4	10.0	8.37e-03	0	58	0	925892608	58	6357
2026-01-15 00:04:32.55	215.02	35.33	-43.4	-48.4	9.8	9.18e-03	0	58	0	927989760	58	6399
2026-01-15 00:04:33.56	214.93	35.11	-43.5	-48.7	9.6	1.08e-02	0	58	0	930086912	58	6608
2026-01-15 00:04:34.57	214.84	34.88	-43.5	-48.9	9.4	1.42e-02	0	58	0	931135488	58	6727
2026-01-15 00:04:35.57	214.75	34.66	-43.6	-49.1	9.1	2.09e-02	0	58	0	933232640	58	6927
2026-01-15 00:04:36.58	214.66	34.44	-43.6	-49.2	9.1	2.41e-02	0	58	0	935329792	58	6977
2026-01-15 00:04:37.59	214.57	34.23	-43.6	-49.1	9.1	2.29e-02	0	58	0	937426944	58	6945
2026-01-15 00:04:38.60	214.48	34.01	-43.6	-49.1	9.2	2.20e-02	0	58	0	938475520	58	6931
2026-01-15 00:04:39.61	214.40	33.79	-43.6	-49.1	9.1	2.21e-02	0	58	0	940572672	58	6959
2026-01-15 00:04:40.62	214.31	33.58	-43.7	-49.5	8.7	2.89e-02	0	58	0	942669824	58	7262
2026-01-15 00:04:41.63	214.23	33.37	-43.8	-49.9	8.4	3.68e-02	0	58	0	944766976	58	7552
2026-01-15 00:04:42.64	214.14	33.16	-43.9	-50.2	8.0	6.36e-02	0	58	0	946864128	58	7868
2026-01-15 00:04:43.65	214.06	32.95	-44.0	-50.4	7.8	8.14e-02	0	58	0	947912704	58	8027
2026-01-15 00:04:44.66	213.98	32.74	-44.1	-50.8	7.5	8.74e-02	0	58	0	950009856	58	8371
2026-01-15 00:04:45.67	213.90	32.53	-44.1	-50.8	7.5	1.10e-01	0	58	0	952107008	58	8397
2026-01-15 00:04:46.68	213.82	32.32	-44.1	-50.8	7.4	1.05e-01	0	58	0	954204160	58	8439
2026-01-15 00:04:47.69	213.75	32.12	-44.1	-50.9	7.3	1.19e-01	0	58	0	956301312	58	8535
2026-01-15 00:04:48.70	213.67	31.92	-44.1	-51.0	7.3	1.25e-01	0	58	0	958398464	58	8574
2026-01-15 00:04:49.71	213.59	31.71	-44.2	-51.2	7.1	1.40e-01	0	58	0	959447040	58	8770
2026-01-15 00:04:50.72	213.52	31.51	-44.1	-51.0	7.2	1.32e-01	0	58	0	961544192	58	8594
2026-01-15 00:04:51.73	213.45	31.31	-44.1	-51.0	7.3	1.33e-01	0	58	0	963641344	58	8605
2026-01-15 00:04:52.74	213.37	31.12	-44.1	-50.8	7.4	1.15e-01	0	58	0	965738496	58	8458
2026-01-15 00:04:53.75	213.30	30.92	-44.0	-50.7	7.5	1.10e-01	0	58	0	967835648	58	8351
2026-01-15 00:04:54.76	213.23	30.72	-44.1	-50.8	7.5	1.06e-01	0	58	0	968884224	58	8383
2026-01-15 00:04:55.77	213.16	30.53	-44.1	-51.0	7.3	1.19e-01	0	58	0	970981376	58	8576
2026-01-15 00:04:56.78	213.09	30.34	-44.1	-51.0	7.3	1.23e-01	0	58	0	973078528	58	8568
2026-01-15 00:04:57.78	213.02	30.15	-44.1	-50.9	7.3	1.18e-01	0	58	0	975175680	58	8514
2026-01-15 00:04:58.79	212.96	29.96	-44.1	-51.0	7.3	1.27e-01	0	58	0	977272832	58	8603
2026-01-15 00:04:59.80	212.89	29.77	-44.1	-50.8	7.5	1.17e-01	0	58	0	978321408	58	8389
2026-01-15 00:05:00.81	212.82	29.58	-44.1	-50.8	7.4	1.10e-01	0	58	0	980418560	58	8422
2026-01-15 00:05:01.82	212.76	29.39	-44.1	-50.8	7.4	1.13e-01	0	58	0	982515712	58	8457
2026-01-15 00:05:02.83	212.69	29.21	-44.0	-50.6	7.7	1.06e-01	0	58	0	984612864	58	8183
2026-01-15 00:05:03.84	212.63	29.02	-43.9	-50.3	7.9	8.43e-02	0	58	0	986710016	58	7937
2026-01-15 00:05:04.84	212.57	28.84	-43.9	-50.3	7.9	7.49e-02	0	58	0	987758592	58	7920
2026-01-15 00:05:05.85	212.51	28.66	-43.9	-50.2	8.0	7.03e-02	0	58	0	989855744	58	7851
2026-01-15 00:05:06.86	212.45	28.48	-43.9	-50.1	8.1	6.14e-02	0	58	0	991952896	58	7778
2026-01-15 00:05:07.87	212.39	28.30	-43.8	-50.0	8.2	6.33e-02	0	58	0	994050048	58	7689
2026-01-15 00:05:08.88	212.33	28.12	-43.8	-49.9	8.3	5.12e-02	0	58	0	996147200	58	7560
2026-01-15 00:05:09.89	212.27	27.94	-43.7	-49.8	8.4	4.70e-02	0	58	0	997195776	58	7480
2026-01-15 00:05:10.90	212.21	27.77	-43.7	-49.6	8.6	4.14e-02	0	58	0	999292928	58	7333
2026-01-15 00:05:11.91	212.15	27.59	-43.7	-49.6	8.6	3.79e-02	0	58	0	1001390080	58	7307
2026-01-15 00:05:12.92	212.09	27.42	-43.7	-49.4	8.7	3.42e-02	0	58	0	1003487232	58	7179
2026-01-15 00:05:13.93	212.04	27.24	-43.7	-49.5	8.7	3.17e-02	0	58	0	1005584384	58	7250
2026-01-15 00:05:14.94	211.98	27.07	-43.6	-49.2	8.9	3.01e-02	0	58	0	1006632960	58	7035
2026-01-15 00:05:15.95	211.93	26.90	-43.6	-49.3	8.9	2.64e-02	0	58	0	1008730112	58	7070
2026-01-15 00:05:16.96	211.87	26.73	-43.6	-49.3	8.9	2.88e-02	0	58	0	1010827264	58	7076
2026-01-15 00:05:17.97	211.82	26.56	-43.5	-49.1	9.1	2.28e-02	0	58	0	1012924416	58	6909
2026-01-15 00:05:18.97	211.76	26.39	-43.5	-49.1	9.1	2.32e-02	0	58	0	1015021568	58	6920
2026-01-15 00:05:19.98	211.71	26.23	-43.5	-48.9	9.3	2.02e-02	0	58	0	1016070144	58	6770
2026-01-15 00:05:20.99	211.66	26.06	-43.4	-48.8	9.3	1.86e-02	0	58	0	1018167296	58	6712
2026-01-15 00:05:22.00	211.61	25.89	-43.4	-48.8	9.4	1.65e-02	0	58	0	1020264448	58	6678
2026-01-15 00:05:23.01	211.56	25.73	-43.4	-48.8	9.4	1.56e-02	0	58	0	1022361600	58	6659
2026-01-15 00:05:24.01	211.51	25.57	-43.4	-48.7	9.4	1.57e-02	0	58	0	1024458752	58	6621
2026-01-15 00:05:25.02	211.46	25.41	-43.3	-48.6	9.6	1.28e-02	0	58	0	1026555904	58	6526
2026-01-15 00:05:26.03	211.41	25.25	-43.4	-48.7	9.5	1.51e-02	0	58	0	1027604480	58	6594
2026-01-15 00:05:27.04	211.36	25.09	-43.3	-48.6	9.5	1.58e-02	0	58	0	1029701632	58	6558
2026-01-15 00:05:28.05	211.31	24.93	-43.3	-48.6	9.6	1.30e-02	0	58	0	1031798784	58	6527
2026-01-15 00:05:29.06	211.26	24.77	-43.3	-48.6	9.5	1.38e-02	0	58	0	1033895936	58	6540
2026-01-15 00:05:30.06	211.21	24.61	-43.3	-48.5	9.6	1.29e-02	0	58	0	1035993088	58	6488
2026-01-15 00:05:31.07	211.17	24.46	-43.2	-48.4	9.8	1.09e-02	0	58	0	1037041664	58	6353
2026-01-15 00:05:32.08	211.12	24.30	-43.2	-48.3	9.9	8.90e-03	0	58	0	1039138816	58	6301
2026-01-15 00:05:33.09	211.07	24.14	-43.1	-48.1	10.0	7.68e-03	0	58	0	1041235968	58	6184
2026-01-15 00:05:34.10	211.03	23.99	-43.0	-47.8	10.4	6.30e-03	0	58	0	1043333120	58	5976
2026-01-15 00:05:35.11	210.98	23.84	-43.0	-47.8	10.4	4.36e-03	0	58	0	1045430272	58	5934
2026-01-15 00:05:36.11	210.94	23.69	-42.9	-47.6	10.6	3.82e-03	0	58	0	1046478848	57	6191
2026-01-15 00:05:37.12	210.90	23.54	-42.8	-47.3	10.8	2.74e-03	0	58	0	1048576000	57	5991
2026-01-15 00:05:38.13	210.85	23.39	-42.8	-47.3	10.9	2.34e-03	0	58	0	1050673152	57	5960
2026-01-15 00:05:39.14	210.81	23.24	-42.7	-47.1	11.0	2.01e-03	0	58	0	1052770304	57	5842
2026-01-15 00:05:40.15	210.77	23.09	-42.7	-47.2	11.0	1.53e-03	0	58	0	1054867456	57	5860
2026-01-15 00:05:41.16	210.72	22.94	-42.7	-47.0	11.1	1.61e-03	0	58	0	1055916032	57	5787
2026-01-15 00:05:42.17	210.68	22.79	-42.6	-47.0	11.2	1.47e-03	0	58	0	1058013184	57	5729
2026-01-15 00:05:43.18	210.64	22.65	-42.6	-47.0	11.2	1.33e-03	0	58	0	1060110336	57	5733
2026-01-15 00:05:44.19	210.60	22.50	-42.6	-46.9	11.3	1.24e-03	0	58	0	1062207488	57	5663
2026-01-15 00:05:45.20	210.56	22.36	-42.6	-46.9	11.3	1.18e-03	0	58	0	1064304640	57	5679
2026-01-15 00:05:46.21	210.52	22.21	-42.6	-46.8	11.4	9.84e-04	0	58	0	1065353216	57	5611
2026-01-15 00:05:47.22	210.48	22.07	-42.6	-46.9	11.3	1.15e-03	0	58	0	1067450368	57	5668
2026-01-15 00:05:48.23	210.44	21.93	-42.5	-46.8	11.4	9.65e-04	0	58	0	1069547520	57	5599
2026-01-15 00:05:49.24	210.40	21.79	-42.5	-46.7	11.5	8.57e-04	0	58	0	1071644672	57	5550
2026-01-15 00:05:50.25	210.36	21.64	-42.5	-46.7	11.5	9.29e-04	0	58	0	1073741824	57	5585
2026-01-15 00:05:51.26	210.32	21.50	-42.5	-46.7	11.5	8.99e-04	0	58	0	1074790400	57	5534
2026-01-15 00:05:52.27	210.29	21.37	-42.5	-46.8	11.4	8.40e-04	0	58	0	1076887552	57	5608
2026-01-15 00:05:53.28	210.25	21.23	-42.5	-46.8	11.4	9.54e-04	0	58	0	1078984704	57	5596
2026-01-15 00:05:54.28	210.21	21.09	-42.5	-46.7	11.5	8.82e-04	0	58	0	1081081856	57	5543
2026-01-15 00:05:55.29	210.17	20.95	-42.5	-46.7	11.5	8.82e-04	0	58	0	1083179008	57	5565
2026-01-15 00:05:56.30	210.14	20.82	-42.6	-46.8	11.3	1.03e-03	0	58	0	1084227584	57	5641
2026-01-15 00:05:57.31	210.10	20.68	-42.6	-46.9	11.3	1.16e-03	0	58	0	1086324736	57	5659
2026-01-15 00:05:58.32	210.07	20.55	-42.6	-46.9	11.3	1.14e-03	0	58	0	1088421888	57	5660
2026-01-15 00:05:59.32	210.03	20.41	-42.6	-46.9	11.2	1.37e-03	0	58	0	1090519040	57	5710
2026-01-15 00:06:00.33	209.99	20.28	-42.6	-46.9	11.2	1.52e-03	0	58	0	1092616192	57	5716
2026-01-15 00:06:01.34	209.96	20.15	-42.6	-47.0	11.1	1.47e-03	0	58	0	1093664768	57	5773
2026-01-15 00:06:02.35	209.93	20.02	-42.7	-47.1	11.0	1.75e-03	0	58	0	1095761920	57	5846
2026-01-15 00:06:03.36	209.89	19.89	-42.6	-47.1	11.0	1.77e-03	0	58	0	1097859072	57	5801
2026-01-15 00:06:04.36	209.86	19.76	-42.7	-47.2	10.9	1.94e-03	0	58	0	1099956224	57	5922
2026-01-15 00:06:05.37	209.82	19.63	-42.8	-47.3	10.8	2.35e-03	0	58	0	1102053376	57	5973
2026-01-15 00:06:06.38	209.79	19.50	-42.7	-47.2	10.9	2.22e-03	0	58	0	1103101952	57	5871
2026-01-15 00:06:07.39	209.76	19.37	-42.7	-47.3	10.8	2.58e-03	0	58	0	1105199104	57	5941
2026-01-15 00:06:08.40	209.72	19.24	-42.7	-47.3	10.8	3.00e-03	0	58	0	1107296256	57	5976
2026-01-15 00:06:09.41	209.69	19.11	-42.8	-47.4	10.6	2.96e-03	0	58	0	1109393408	57	6046
2026-01-15 00:06:10.42	209.66	18.99	-42.8	-47.5	10.6	3.81e-03	0	58	0	1111490560	57	6091
2026-01-15 00:06:11.43	209.63	18.86	-42.8	-47.6	10.5	3.76e-03	0	58	0	1112539136	57	6132
2026-01-15 00:06:12.45	209.60	18.73	-42.9	-47.7	10.3	4.44e-03	0	58	0	1114636288	57	6255
2026-01-15 00:06:13.45	209.57	18.61	-42.9	-47.8	10.2	5.28e-03	0	58	0	1116733440	57	6288
2026-01-15 00:06:14.46	209.53	18.49	-42.9	-47.8	10.2	5.49e-03	0	58	0	1118830592	57	6337
2026-01-15 00:06:15.47	209.50	18.36	-42.9	-47.8	10.2	5.93e-03	0	58	0	1120927744	57	6314
2026-01-15 00:06:16.48	209.47	18.24	-43.0	-47.9	10.1	6.16e-03	0	58	0	1123024896	57	6400
2026-01-15 00:06:17.49	209.44	18.12	-42.9	-47.8	10.2	6.21e-03	0	58	0	1124073472	57	6334
2026-01-15 00:06:18.50	209.41	17.99	-42.9	-47.9	10.2	6.06e-03	0	58	0	1126170624	57	6351
2026-01-15 00:06:19.51	209.38	17.87	-42.9	-47.8	10.2	6.77e-03	0	58	0	1128267776	57	6326
2026-01-15 00:06:20.52	209.35	17.75	-42.9	-47.7	10.3	5.57e-03	0	58	0	1130364928	57	6257
2026-01-15 00:06:21.53	209.32	17.63	-42.9	-47.8	10.3	5.26e-03	0	58	0	1132462080	57	6295
2026-01-15 00:06:22.54	209.30	17.51	-42.9	-47.8	10.2	5.55e-03	0	58	0	1133510656	57	6278
2026-01-15 00:06:23.55	209.27	17.39	-42.8	-47.6	10.4	4.98e-03	0	58	0	1135607808	57	6201
2026-01-15 00:06:24.56	209.24	17.28	-42.9	-47.7	10.3	5.17e-03	0	58	0	1137704960	57	6234
2026-01-15 00:06:25.57	209.21	17.16	-42.8	-47.6	10.4	5.18e-03	0	58	0	1139802112	57	6186
2026-01-15 00:06:26.58	209.18	17.04	-42.8	-47.6	10.4	4.31e-03	0	58	0	1141899264	57	6149
2026-01-15 00:06:27.59	209.15	16.92	-42.8	-47.6	10.4	4.91e-03	0	58	0	1142947840	57	6171
2026-01-15 00:06:28.60	209.13	16.81	-42.8	-47.5	10.5	4.49e-03	0	58	0	1145044992	57	6106
2026-01-15 00:06:29.61	209.10	16.69	-42.8	-47.6	10.4	4.33e-03	0	58	0	1147142144	57	6136
2026-01-15 00:06:30.62	209.07	16.58	-42.8	-47.5	10.5	4.10e-03	0	58	0	1149239296	57	6081
2026-01-15 00:06:31.63	209.05	16.46	-42.7	-47.4	10.5	3.87e-03	0	58	0	1151336448	57	6057
2026-01-15 00:06:32.64	209.02	16.35	-42.7	-47.5	10.5	4.09e-03	0	58	0	1152385024	57	6075
2026-01-15 00:06:33.65	208.99	16.24	-42.8	-47.5	10.4	3.80e-03	0	58	0	1154482176	57	6109
2026-01-15 00:06:34.66	208.97	16.12	-42.8	-47.6	10.4	4.41e-03	0	58	0	1156579328	57	6156
2026-01-15 00:06:35.67	208.94	16.01	-42.8	-47.5	10.4	4.56e-03	0	58	0	1158676480	57	6127
2026-01-15 00:06:36.67	208.92	15.90	-42.8	-47.5	10.4	4.58e-03	0	58	0	1160773632	57	6127
2026-01-15 00:06:37.68	208.89	15.79	-42.7	-47.5	10.4	4.33e-03	0	58	0	1161822208	57	6106
2026-01-15 00:06:38.69	208.87	15.68	-42.8	-47.5	10.4	4.43e-03	0	58	0	1163919360	57	6129
2026-01-15 00:06:39.70	208.84	15.57	-42.8	-47.6	10.3	5.25e-03	0	58	0	1166016512	57	6195
2026-01-15 00:06:40.71	208.82	15.46	-42.8	-47.7	10.3	5.46e-03	0	58	0	1168113664	57	6213
2026-01-15 00:06:41.72	208.79	15.35	-42.8	-47.8	10.1	5.79e-03	0	58	0	1170210816	57	6285
2026-01-15 00:06:42.73	208.77	15.24	-42.8	-47.8	10.0	7.10e-03	0	58	0	1171259392	57	6330
2026-01-15 00:06:43.73	208.74	15.13	-42.8	-47.7	10.2	6.17e-03	0	58	0	1173356544	57	6241
2026-01-15 00:06:44.74	208.72	15.02	-42.8	-47.8	10.1	6.80e-03	0	58	0	1175453696	57	6310
2026-01-15 00:06:45.75	208.69	14.92	-42.8	-47.8	10.1	7.04e-03	0	58	0	1177550848	57	6321
2026-01-15 00:06:46.77	208.67	14.81	-42.9	-47.9	9.9	8.00e-03	0	58	0	1179648000	57	6405
