passes_logs/2026/01/14/R2.0S_Moscow/R2.0S_Moscow__20260114_233420_SUOMI_NPP_rec.log

#Pass ID: 20260114_233420_SUOMI NPP
#Satellite: SUOMI NPP
#Configuration: NPP
#almurnet v.1.7.20251203
#Start time: 2026-01-14 23:34:22

#Version: 2.2.20231116
#Station: R2.0S_Moscow
#Location: 37.707566 lon 55.798166 lat
#TLE: 1 37849U 11061A   26014.11719687  .00000048  00000+0  43625-4 0  9998
#TLE: 2 37849  98.7809 316.1734 0002474  65.2440 294.8994 14.19525043736585

#Time	Az	El	Level	Level2	SNR	BER	BlckErr	Temp	State	Recorded	gain1	gain2
2026-01-14 23:34:22.60	17.03	2.15	-42.0	-56.9	3.8	1.49e+00	0	48	0	0	56	19165
2026-01-14 23:34:23.60	17.04	2.21	-41.8	-56.8	3.8	1.49e+00	0	49	104	0	54	21044
2026-01-14 23:34:24.61	17.05	2.27	-41.8	-56.8	3.8	1.49e+00	0	49	104	0	54	21101
2026-01-14 23:34:25.62	17.06	2.34	-41.8	-56.8	3.8	1.49e+00	0	49	104	0	54	21066
2026-01-14 23:34:26.63	17.08	2.40	-41.8	-56.8	3.8	1.49e+00	0	49	104	0	54	21048
2026-01-14 23:34:27.64	17.09	2.47	-41.9	-56.8	3.8	1.49e+00	0	49	104	0	54	21056
2026-01-14 23:34:28.65	17.10	2.54	-41.9	-56.8	3.8	1.49e+00	0	49	104	0	54	21067
2026-01-14 23:34:29.66	17.11	2.60	-41.9	-56.7	3.8	1.49e+00	0	49	104	0	54	21003
2026-01-14 23:34:30.67	17.12	2.67	-41.9	-56.8	3.8	1.49e+00	0	49	104	0	54	21145
2026-01-14 23:34:31.69	17.14	2.73	-41.9	-56.8	3.8	1.49e+00	0	49	104	0	54	21060
2026-01-14 23:34:32.69	17.15	2.80	-41.9	-56.8	3.8	1.49e+00	0	49	104	0	54	21058
2026-01-14 23:34:33.71	17.16	2.86	-41.8	-56.8	3.8	1.49e+00	0	50	104	0	54	21025
2026-01-14 23:34:34.71	17.17	2.93	-41.9	-56.8	3.8	1.49e+00	0	49	104	0	54	21077
2026-01-14 23:34:35.72	17.18	3.00	-41.9	-56.8	3.8	1.49e+00	0	50	104	0	54	21070
2026-01-14 23:34:36.73	17.20	3.06	-41.9	-56.8	3.8	1.49e+00	0	50	104	0	54	21066
2026-01-14 23:34:37.75	17.21	3.13	-41.8	-56.8	3.8	1.49e+00	0	50	104	0	54	21077
2026-01-14 23:34:38.76	17.22	3.20	-41.9	-56.8	3.8	1.49e+00	0	50	104	0	54	21090
2026-01-14 23:34:39.77	17.23	3.26	-41.8	-56.7	3.8	1.49e+00	0	50	104	0	54	21008
2026-01-14 23:34:40.78	17.25	3.33	-41.9	-56.8	3.8	1.49e+00	0	50	104	0	54	21027
2026-01-14 23:34:41.79	17.26	3.40	-41.8	-56.8	3.8	1.49e+00	0	50	104	0	54	21078
2026-01-14 23:34:42.80	17.27	3.47	-41.8	-56.8	3.8	1.49e+00	0	50	104	0	54	21090
2026-01-14 23:34:43.81	17.28	3.53	-41.8	-56.8	3.8	1.49e+00	0	50	104	0	54	21059
2026-01-14 23:34:44.82	17.30	3.60	-41.9	-56.8	3.8	1.49e+00	0	50	104	0	54	21070
2026-01-14 23:34:45.83	17.31	3.67	-41.8	-56.8	3.8	1.49e+00	0	50	104	0	54	21154
2026-01-14 23:34:46.84	17.32	3.74	-41.8	-56.8	3.8	1.49e+00	0	50	104	0	54	21045
2026-01-14 23:34:47.85	17.34	3.81	-41.8	-56.7	3.8	1.49e+00	0	50	104	0	54	21012
2026-01-14 23:34:48.86	17.35	3.88	-41.8	-56.7	3.8	1.49e+00	0	51	104	0	54	21003
2026-01-14 23:34:49.87	17.36	3.94	-41.8	-56.8	3.8	1.49e+00	0	51	104	0	54	21083
2026-01-14 23:34:50.88	17.37	4.01	-41.9	-56.8	3.8	1.49e+00	0	51	104	0	54	21034
2026-01-14 23:34:51.89	17.39	4.08	-41.8	-56.8	3.8	1.49e+00	0	51	104	0	54	21061
2026-01-14 23:34:52.90	17.40	4.15	-41.9	-56.8	3.8	1.49e+00	0	51	104	0	54	21094
2026-01-14 23:34:53.91	17.41	4.22	-41.8	-56.7	3.8	1.49e+00	0	51	104	0	54	21005
2026-01-14 23:34:54.92	17.43	4.29	-41.8	-56.8	3.8	1.49e+00	0	51	104	0	54	21024
2026-01-14 23:34:55.93	17.44	4.36	-41.8	-56.7	3.8	1.49e+00	0	51	104	0	54	20996
2026-01-14 23:34:56.93	17.45	4.43	-41.8	-56.8	3.8	1.49e+00	0	51	104	0	54	21052
2026-01-14 23:34:57.94	17.46	4.50	-41.8	-56.8	3.8	1.49e+00	0	51	104	0	54	21026
2026-01-14 23:34:58.95	17.48	4.57	-41.9	-56.8	3.8	1.49e+00	0	51	104	0	54	21043
2026-01-14 23:34:59.96	17.49	4.64	-41.8	-56.8	3.8	1.49e+00	0	51	104	0	54	21060
2026-01-14 23:35:00.98	17.50	4.71	-41.9	-56.8	3.8	1.49e+00	0	51	104	0	54	21027
2026-01-14 23:35:01.98	17.52	4.78	-41.8	-56.7	3.8	1.49e+00	0	51	104	0	54	21015
2026-01-14 23:35:02.99	17.53	4.85	-41.9	-56.8	3.8	1.49e+00	0	51	104	0	54	21054
2026-01-14 23:35:04.01	17.54	4.92	-41.8	-56.7	3.8	1.49e+00	0	51	104	0	54	20998
2026-01-14 23:35:05.02	17.56	5.00	-41.9	-56.8	3.8	1.49e+00	0	51	104	0	54	21075
2026-01-14 23:35:06.02	17.57	5.07	-41.9	-56.8	3.8	1.49e+00	0	51	104	0	54	21048
2026-01-14 23:35:07.03	17.58	5.14	-41.8	-56.8	3.8	1.49e+00	0	51	104	0	54	21064
2026-01-14 23:35:08.04	17.60	5.21	-41.9	-56.8	3.8	1.49e+00	0	52	104	0	54	21020
2026-01-14 23:35:09.06	17.61	5.28	-41.8	-56.8	3.8	1.49e+00	0	51	104	0	54	21053
2026-01-14 23:35:10.07	17.62	5.36	-41.8	-56.8	3.8	1.49e+00	0	52	104	0	54	21035
2026-01-14 23:35:11.08	17.64	5.43	-41.8	-56.7	3.8	1.49e+00	0	52	104	0	54	21017
2026-01-14 23:35:12.09	17.65	5.50	-41.9	-56.8	3.8	1.49e+00	0	52	104	0	54	21078
2026-01-14 23:35:13.10	17.67	5.58	-41.9	-56.7	3.8	1.49e+00	0	52	104	0	54	20974
2026-01-14 23:35:14.11	17.68	5.65	-41.8	-56.8	3.8	1.49e+00	0	52	104	0	54	21055
2026-01-14 23:35:15.12	17.69	5.72	-41.8	-56.8	3.8	1.49e+00	0	52	104	0	54	21094
2026-01-14 23:35:16.13	17.71	5.80	-41.8	-56.8	3.8	1.49e+00	0	52	104	0	54	21018
2026-01-14 23:35:17.14	17.72	5.87	-41.8	-56.7	3.8	1.49e+00	0	52	104	0	54	20967
2026-01-14 23:35:18.15	17.74	5.94	-41.8	-56.8	3.8	1.49e+00	0	52	104	0	54	21028
2026-01-14 23:35:19.17	17.75	6.02	-41.8	-56.7	3.8	1.49e+00	0	52	104	0	54	20956
2026-01-14 23:35:20.18	17.76	6.09	-41.8	-56.7	3.8	1.49e+00	0	52	104	0	54	20945
2026-01-14 23:35:21.19	17.78	6.17	-41.9	-56.8	3.8	1.49e+00	0	52	104	0	54	21029
2026-01-14 23:35:22.20	17.79	6.24	-41.8	-56.7	3.8	1.49e+00	0	52	104	0	54	20991
2026-01-14 23:35:23.21	17.81	6.32	-41.9	-56.7	3.8	1.49e+00	0	52	104	0	54	20963
2026-01-14 23:35:24.22	17.82	6.39	-41.8	-56.8	3.8	1.49e+00	0	52	104	0	54	21039
2026-01-14 23:35:25.23	17.84	6.47	-41.8	-56.7	3.8	1.49e+00	0	53	104	0	54	20976
2026-01-14 23:35:26.24	17.85	6.54	-41.9	-56.7	3.8	1.49e+00	0	53	104	0	54	21004
2026-01-14 23:35:27.25	17.86	6.62	-41.8	-56.8	3.8	1.49e+00	0	53	104	0	54	21033
2026-01-14 23:35:28.26	17.88	6.70	-41.8	-56.7	3.8	1.49e+00	0	52	104	0	54	20940
2026-01-14 23:35:29.27	17.89	6.77	-41.8	-56.7	3.8	1.49e+00	0	53	104	0	54	20834
2026-01-14 23:35:30.28	17.91	6.85	-41.8	-56.6	3.8	1.49e+00	0	53	104	0	54	20732
2026-01-14 23:35:31.29	17.92	6.93	-41.8	-56.6	3.8	1.49e+00	0	53	104	0	54	20574
2026-01-14 23:35:32.30	17.94	7.00	-41.8	-56.5	3.8	1.49e+00	0	53	104	0	54	20538
2026-01-14 23:35:33.31	17.95	7.08	-41.8	-56.5	3.8	1.49e+00	0	53	104	0	54	20448
2026-01-14 23:35:34.32	17.97	7.16	-41.8	-56.5	3.8	1.49e+00	0	53	104	0	54	20480
2026-01-14 23:35:35.33	17.98	7.24	-41.8	-56.5	3.8	1.49e+00	0	53	104	0	54	20305
2026-01-14 23:35:36.34	18.00	7.31	-41.8	-56.2	3.8	1.49e+00	0	53	104	0	54	19811
2026-01-14 23:35:37.35	18.01	7.39	-41.8	-55.8	3.8	1.49e+00	0	53	104	0	54	18901
2026-01-14 23:35:38.36	18.03	7.47	-41.8	-55.3	3.8	1.49e+00	0	53	104	0	54	17701
2026-01-14 23:35:39.37	18.04	7.55	-41.7	-54.8	3.8	1.49e+00	0	53	104	0	54	16763
2026-01-14 23:35:40.38	18.06	7.63	-41.7	-54.2	3.8	1.49e+00	0	53	104	0	54	15725
2026-01-14 23:35:41.38	18.07	7.71	-41.7	-53.6	4.1	1.46e+00	0	53	104	0	54	14636
2026-01-14 23:35:42.39	18.09	7.79	-41.6	-52.8	4.3	1.36e+00	0	53	0	0	54	13311
2026-01-14 23:35:43.41	18.10	7.87	-41.5	-51.8	4.7	1.07e+00	0	53	0	1048576	54	11935
2026-01-14 23:35:44.42	18.12	7.95	-41.4	-51.0	5.1	7.99e-01	0	53	0	3145728	54	10825
2026-01-14 23:35:45.42	18.13	8.03	-41.3	-49.9	5.8	4.34e-01	0	53	0	5242880	54	9519
2026-01-14 23:35:46.43	18.15	8.11	-41.3	-48.9	6.8	2.78e-01	0	53	0	7340032	54	8474
2026-01-14 23:35:47.44	18.16	8.19	-41.9	-50.1	6.3	3.10e-01	0	53	0	8388608	54	9748
2026-01-14 23:35:48.44	18.18	8.27	-41.1	-46.9	9.0	2.66e-01	0	53	0	10485760	54	6779
2026-01-14 23:35:49.45	18.20	8.35	-41.2	-53.9	3.9	1.48e+00	0	54	104	11534336	53	15989
2026-01-14 23:35:50.46	18.21	8.43	-41.4	-48.8	6.8	1.48e+00	0	54	104	11534336	54	8370
2026-01-14 23:35:51.47	18.23	8.51	-41.8	-48.5	7.5	1.37e-01	0	54	0	12582912	54	8172
2026-01-14 23:35:52.48	18.24	8.60	-41.8	-48.5	7.6	1.08e-01	0	54	0	14680064	54	8111
2026-01-14 23:35:53.49	18.26	8.68	-41.8	-48.3	7.8	8.77e-02	0	54	0	15728640	54	7980
2026-01-14 23:35:54.49	18.27	8.76	-41.5	-47.6	8.6	5.94e-02	0	53	0	17825792	54	7296
2026-01-14 23:35:55.50	18.29	8.84	-41.4	-47.1	9.1	2.38e-02	0	54	0	19922944	54	6922
2026-01-14 23:35:56.51	18.31	8.93	-41.5	-47.3	9.0	2.07e-02	0	54	0	22020096	54	7054
2026-01-14 23:35:57.52	18.32	9.01	-41.6	-47.6	8.7	2.59e-02	0	54	0	24117248	54	7330
2026-01-14 23:35:58.53	18.34	9.09	-41.7	-47.5	8.9	2.86e-02	0	54	0	26214400	54	7215
2026-01-14 23:35:59.54	18.36	9.18	-41.7	-47.5	9.0	2.64e-02	0	54	0	27262976	54	7220
2026-01-14 23:36:00.55	18.37	9.26	-41.6	-47.1	9.4	2.18e-02	0	54	0	29360128	54	6923
2026-01-14 23:36:01.56	18.39	9.35	-41.7	-47.3	9.2	1.80e-02	0	54	0	31457280	54	7069
2026-01-14 23:36:02.57	18.41	9.43	-41.9	-47.6	9.0	2.26e-02	0	54	0	33554432	54	7369
2026-01-14 23:36:03.58	18.42	9.52	-41.7	-47.1	9.5	2.17e-02	0	54	0	35651584	54	6926
2026-01-14 23:36:04.59	18.44	9.60	-41.8	-47.1	9.5	1.30e-02	0	54	0	36700160	54	6943
2026-01-14 23:36:05.60	18.46	9.69	-41.9	-47.5	9.2	1.80e-02	0	54	0	38797312	54	7281
2026-01-14 23:36:06.61	18.47	9.77	-41.9	-47.1	9.7	1.31e-02	0	54	0	40894464	54	6913
2026-01-14 23:36:07.62	18.49	9.86	-42.0	-47.5	9.3	1.62e-02	0	54	0	42991616	54	7238
2026-01-14 23:36:08.63	18.51	9.95	-42.0	-47.4	9.4	1.63e-02	0	54	0	45088768	54	7135
2026-01-14 23:36:09.64	18.52	10.04	-42.0	-47.4	9.5	1.23e-02	0	54	0	46137344	54	7171
2026-01-14 23:36:10.65	18.54	10.12	-42.1	-47.5	9.4	1.48e-02	0	54	0	48234496	54	7215
2026-01-14 23:36:11.66	18.56	10.21	-41.9	-47.0	9.9	1.07e-02	0	54	0	50331648	54	6859
2026-01-14 23:36:12.66	18.58	10.30	-41.9	-47.0	9.9	9.52e-03	0	54	0	52428800	54	6855
2026-01-14 23:36:13.68	18.59	10.39	-41.9	-47.0	9.9	8.06e-03	0	54	0	54525952	54	6850
2026-01-14 23:36:14.68	18.61	10.47	-41.8	-46.8	10.1	8.10e-03	0	54	0	55574528	54	6693
2026-01-14 23:36:15.69	18.63	10.56	-41.9	-46.8	10.1	6.48e-03	0	54	0	57671680	54	6716
2026-01-14 23:36:16.70	18.65	10.65	-41.9	-46.8	10.2	7.13e-03	0	54	0	59768832	54	6666
2026-01-14 23:36:17.71	18.66	10.74	-41.9	-46.8	10.2	5.80e-03	0	54	0	61865984	54	6665
2026-01-14 23:36:18.72	18.68	10.83	-41.9	-46.9	10.1	5.39e-03	0	54	0	63963136	54	6746
2026-01-14 23:36:19.73	18.70	10.92	-41.9	-46.8	10.2	5.77e-03	0	54	0	65011712	54	6698
2026-01-14 23:36:20.74	18.72	11.01	-42.0	-46.9	10.2	5.85e-03	0	55	0	67108864	54	6744
2026-01-14 23:36:21.75	18.73	11.10	-42.0	-47.0	10.1	6.46e-03	0	54	0	69206016	54	6866
2026-01-14 23:36:22.76	18.75	11.19	-42.0	-46.9	10.2	5.91e-03	0	55	0	71303168	54	6769
2026-01-14 23:36:23.77	18.77	11.29	-42.0	-46.8	10.3	4.78e-03	0	54	0	73400320	54	6713
2026-01-14 23:36:24.78	18.79	11.38	-41.8	-46.4	10.7	3.73e-03	0	54	0	74448896	54	6405
2026-01-14 23:36:25.78	18.81	11.47	-41.8	-46.4	10.8	3.27e-03	0	55	0	76546048	54	6383
2026-01-14 23:36:26.79	18.83	11.56	-41.8	-46.3	10.9	2.04e-03	0	55	0	78643200	54	6284
2026-01-14 23:36:27.80	18.84	11.65	-41.7	-46.2	11.0	2.09e-03	0	55	0	80740352	54	6235
2026-01-14 23:36:28.82	18.86	11.75	-41.7	-46.0	11.2	1.94e-03	0	55	0	82837504	54	6104
2026-01-14 23:36:29.83	18.88	11.84	-41.7	-46.1	11.1	1.37e-03	0	55	0	83886080	54	6175
2026-01-14 23:36:30.84	18.90	11.94	-41.7	-46.0	11.2	1.29e-03	0	54	0	85983232	54	6124
2026-01-14 23:36:31.84	18.92	12.03	-41.7	-46.1	11.2	1.17e-03	0	55	0	88080384	54	6145
2026-01-14 23:36:32.85	18.94	12.12	-41.7	-45.9	11.4	1.23e-03	0	55	0	90177536	54	6059
2026-01-14 23:36:33.86	18.96	12.22	-41.7	-46.0	11.3	1.01e-03	0	55	0	92274688	54	6079
2026-01-14 23:36:34.87	18.98	12.31	-41.7	-46.0	11.3	1.17e-03	0	55	0	94371840	54	6084
2026-01-14 23:36:35.88	19.00	12.41	-41.6	-45.8	11.6	7.84e-04	0	55	0	95420416	54	5958
2026-01-14 23:36:36.88	19.02	12.51	-41.6	-45.8	11.5	8.72e-04	0	55	0	97517568	54	5972
2026-01-14 23:36:37.89	19.04	12.60	-41.7	-45.8	11.5	8.06e-04	0	55	0	99614720	54	5991
2026-01-14 23:36:38.90	19.06	12.70	-41.6	-45.8	11.5	8.82e-04	0	55	0	101711872	54	5967
2026-01-14 23:36:39.91	19.08	12.80	-41.7	-45.9	11.5	7.23e-04	0	55	0	103809024	54	5997
2026-01-14 23:36:40.92	19.09	12.89	-41.7	-46.0	11.4	1.05e-03	0	55	0	104857600	54	6093
2026-01-14 23:36:41.93	19.11	12.99	-41.7	-45.8	11.5	1.01e-03	0	55	0	106954752	54	5981
2026-01-14 23:36:42.94	19.13	13.09	-41.7	-45.9	11.5	7.82e-04	0	55	0	109051904	54	5999
2026-01-14 23:36:43.95	19.16	13.19	-41.7	-45.9	11.5	7.86e-04	0	55	0	111149056	54	6023
2026-01-14 23:36:44.96	19.18	13.29	-41.7	-45.9	11.6	7.01e-04	0	55	0	113246208	54	5993
2026-01-14 23:36:45.96	19.20	13.39	-41.6	-45.8	11.7	5.58e-04	0	55	0	114294784	54	5926
2026-01-14 23:36:46.97	19.22	13.49	-41.7	-45.9	11.6	7.42e-04	0	55	0	116391936	54	6009
2026-01-14 23:36:47.98	19.24	13.59	-41.7	-45.8	11.6	8.58e-04	0	55	0	118489088	54	5992
2026-01-14 23:36:48.99	19.26	13.69	-41.7	-45.9	11.5	7.07e-04	0	55	0	120586240	54	6043
2026-01-14 23:36:50.00	19.28	13.79	-41.7	-45.9	11.5	7.64e-04	0	55	0	122683392	54	6035
2026-01-14 23:36:51.01	19.30	13.89	-41.8	-46.0	11.5	7.73e-04	0	55	0	123731968	54	6074
2026-01-14 23:36:52.02	19.32	14.00	-41.7	-45.9	11.5	8.82e-04	0	55	0	125829120	54	6053
2026-01-14 23:36:53.03	19.34	14.10	-41.8	-46.1	11.4	8.55e-04	0	55	0	127926272	54	6164
2026-01-14 23:36:54.04	19.36	14.20	-41.7	-45.9	11.5	8.11e-04	0	56	0	130023424	54	6009
2026-01-14 23:36:55.05	19.38	14.30	-41.7	-45.8	11.7	6.23e-04	0	55	0	132120576	54	5951
2026-01-14 23:36:56.06	19.41	14.41	-41.7	-45.7	11.8	5.29e-04	0	55	0	133169152	54	5907
2026-01-14 23:36:57.07	19.43	14.51	-41.7	-45.8	11.8	5.22e-04	0	55	0	135266304	54	5935
2026-01-14 23:36:58.07	19.45	14.62	-41.7	-45.9	11.7	5.77e-04	0	55	0	137363456	54	5996
2026-01-14 23:36:59.08	19.47	14.72	-41.6	-45.6	12.0	4.85e-04	0	55	0	139460608	54	5809
2026-01-14 23:37:00.09	19.49	14.83	-41.7	-45.8	11.8	4.39e-04	0	55	0	141557760	54	5952
2026-01-14 23:37:01.09	19.51	14.93	-41.7	-45.8	11.8	4.68e-04	0	55	0	142606336	54	5929
2026-01-14 23:37:02.10	19.54	15.04	-41.7	-45.7	11.9	3.58e-04	0	56	0	144703488	54	5900
2026-01-14 23:37:03.11	19.56	15.15	-41.7	-45.7	11.9	4.50e-04	0	55	0	146800640	54	5900
2026-01-14 23:37:04.12	19.58	15.26	-41.6	-45.6	12.0	3.88e-04	0	55	0	148897792	54	5813
2026-01-14 23:37:05.13	19.60	15.36	-41.7	-45.6	12.0	4.08e-04	0	56	0	150994944	54	5825
2026-01-14 23:37:06.13	19.63	15.47	-41.7	-45.8	11.9	4.13e-04	0	56	0	152043520	54	5936
2026-01-14 23:37:07.14	19.65	15.58	-41.8	-45.9	11.7	4.15e-04	0	56	0	154140672	54	6038
2026-01-14 23:37:08.15	19.67	15.69	-41.8	-45.9	11.8	4.81e-04	0	56	0	156237824	54	5995
2026-01-14 23:37:09.16	19.70	15.80	-41.8	-46.0	11.7	5.26e-04	0	56	0	158334976	54	6072
2026-01-14 23:37:10.17	19.72	15.91	-41.8	-45.9	11.7	4.74e-04	0	55	0	160432128	54	6014
2026-01-14 23:37:11.17	19.74	16.02	-41.9	-46.0	11.7	5.77e-04	0	56	0	161480704	54	6083
2026-01-14 23:37:12.18	19.77	16.13	-41.8	-45.9	11.8	6.98e-04	0	55	0	163577856	54	6026
2026-01-14 23:37:13.19	19.79	16.24	-42.0	-46.2	11.4	7.70e-04	0	56	0	165675008	54	6246
2026-01-14 23:37:14.20	19.81	16.36	-42.0	-46.3	11.3	1.03e-03	0	56	0	167772160	54	6303
2026-01-14 23:37:15.21	19.84	16.47	-42.0	-46.3	11.4	9.88e-04	0	56	0	169869312	54	6284
2026-01-14 23:37:16.22	19.86	16.58	-42.0	-46.4	11.3	1.21e-03	0	55	0	170917888	54	6370
2026-01-14 23:37:17.23	19.89	16.70	-42.1	-46.4	11.2	1.36e-03	0	56	0	173015040	54	6409
2026-01-14 23:37:18.24	19.91	16.81	-42.0	-46.4	11.3	1.30e-03	0	56	0	175112192	54	6365
2026-01-14 23:37:19.25	19.94	16.93	-42.1	-46.4	11.3	1.35e-03	0	56	0	177209344	54	6385
2026-01-14 23:37:20.26	19.96	17.04	-42.2	-46.7	11.0	1.79e-03	0	56	0	179306496	54	6592
2026-01-14 23:37:21.27	19.99	17.16	-42.1	-46.5	11.2	1.98e-03	0	56	0	180355072	54	6446
2026-01-14 23:37:22.28	20.01	17.28	-42.1	-46.6	11.1	1.52e-03	0	56	0	182452224	54	6507
2026-01-14 23:37:23.29	20.04	17.39	-42.2	-46.7	11.0	1.71e-03	0	56	0	184549376	54	6600
2026-01-14 23:37:24.30	20.06	17.51	-42.2	-46.6	11.1	1.62e-03	0	56	0	186646528	54	6519
2026-01-14 23:37:25.31	20.09	17.63	-42.2	-46.6	11.0	1.62e-03	0	56	0	188743680	54	6554
2026-01-14 23:37:26.32	20.11	17.75	-42.2	-46.7	11.0	1.64e-03	0	56	0	190840832	55	6207
2026-01-14 23:37:27.33	20.14	17.87	-42.2	-46.7	11.1	1.51e-03	0	56	0	191889408	55	6211
2026-01-14 23:37:28.34	20.17	17.99	-42.2	-46.6	11.2	1.34e-03	0	56	0	193986560	55	6141
2026-01-14 23:37:29.35	20.19	18.11	-42.2	-46.7	11.1	1.57e-03	0	56	0	196083712	55	6227
2026-01-14 23:37:30.36	20.22	18.23	-42.3	-46.7	11.0	1.91e-03	0	56	0	198180864	55	6223
2026-01-14 23:37:31.36	20.24	18.35	-42.3	-46.9	10.9	2.29e-03	0	56	0	200278016	55	6349
2026-01-14 23:37:32.37	20.27	18.48	-42.3	-46.8	10.9	2.58e-03	0	56	0	201326592	55	6347
2026-01-14 23:37:33.39	20.30	18.60	-42.4	-46.9	10.9	2.06e-03	0	56	0	203423744	55	6386
2026-01-14 23:37:34.40	20.33	18.72	-42.3	-46.8	11.0	2.31e-03	0	56	0	205520896	55	6326
2026-01-14 23:37:35.41	20.35	18.85	-42.4	-47.0	10.7	2.82e-03	0	56	0	207618048	55	6447
2026-01-14 23:37:36.42	20.38	18.97	-42.5	-47.1	10.6	3.48e-03	0	56	0	209715200	55	6555
2026-01-14 23:37:37.43	20.41	19.10	-42.5	-47.3	10.4	3.80e-03	0	56	0	210763776	55	6716
2026-01-14 23:37:38.44	20.44	19.23	-42.5	-47.1	10.6	3.86e-03	0	56	0	212860928	55	6546
2026-01-14 23:37:39.44	20.46	19.35	-42.6	-47.5	10.3	4.48e-03	0	56	0	214958080	55	6815
2026-01-14 23:37:40.45	20.49	19.48	-42.6	-47.4	10.3	5.11e-03	0	56	0	217055232	55	6793
2026-01-14 23:37:41.46	20.52	19.61	-42.9	-48.0	10.0	5.09e-03	0	56	0	219152384	56	6822
2026-01-14 23:37:42.47	20.55	19.74	-42.8	-47.7	10.2	5.45e-03	0	56	0	220200960	56	6636
2026-01-14 23:37:43.48	20.58	19.87	-42.8	-47.6	10.3	6.54e-03	0	56	0	222298112	56	6563
2026-01-14 23:37:44.49	20.61	20.00	-42.8	-47.6	10.4	6.09e-03	0	56	0	224395264	56	6497
2026-01-14 23:37:45.50	20.64	20.13	-42.8	-47.7	10.2	6.22e-03	0	56	0	226492416	56	6619
2026-01-14 23:37:46.51	20.67	20.26	-42.7	-47.5	10.6	3.98e-03	0	56	0	228589568	56	6432
2026-01-14 23:37:47.52	20.70	20.39	-42.8	-47.5	10.5	4.13e-03	0	56	0	229638144	56	6488
2026-01-14 23:37:48.52	20.73	20.53	-42.8	-47.7	10.4	4.58e-03	0	56	0	231735296	56	6584
2026-01-14 23:37:49.53	20.76	20.66	-42.8	-47.6	10.4	4.00e-03	0	56	0	233832448	56	6559
2026-01-14 23:37:50.54	20.79	20.79	-42.8	-47.5	10.5	3.77e-03	0	56	0	235929600	56	6468
2026-01-14 23:37:51.55	20.82	20.93	-42.7	-47.3	10.8	3.22e-03	0	56	0	238026752	56	6328
2026-01-14 23:37:52.56	20.85	21.07	-42.7	-47.4	10.7	3.70e-03	0	56	0	239075328	56	6354
2026-01-14 23:37:53.57	20.88	21.20	-42.7	-47.4	10.7	3.01e-03	0	56	0	241172480	56	6367
2026-01-14 23:37:54.58	20.91	21.34	-42.9	-47.7	10.4	3.48e-03	0	56	0	243269632	56	6588
2026-01-14 23:37:55.59	20.95	21.48	-42.8	-47.4	10.6	3.56e-03	0	56	0	245366784	56	6420
2026-01-14 23:37:56.60	20.98	21.62	-42.8	-47.6	10.5	4.03e-03	0	56	0	247463936	56	6530
2026-01-14 23:37:57.60	21.01	21.76	-42.8	-47.6	10.5	5.09e-03	0	56	0	248512512	56	6516
2026-01-14 23:37:58.61	21.04	21.90	-42.8	-47.5	10.6	4.14e-03	0	56	0	250609664	56	6426
2026-01-14 23:37:59.62	21.08	22.04	-42.9	-47.7	10.4	3.66e-03	0	56	0	252706816	56	6625
2026-01-14 23:38:00.63	21.11	22.18	-42.9	-47.8	10.3	4.32e-03	0	57	0	254803968	56	6649
2026-01-14 23:38:01.63	21.14	22.32	-42.8	-47.6	10.5	4.10e-03	0	56	0	256901120	56	6510
2026-01-14 23:38:02.64	21.17	22.47	-42.8	-47.5	10.6	3.84e-03	0	56	0	257949696	56	6460
2026-01-14 23:38:03.65	21.21	22.61	-42.7	-47.2	10.9	2.59e-03	0	56	0	260046848	56	6229
2026-01-14 23:38:04.66	21.24	22.76	-42.5	-46.9	11.2	1.80e-03	0	56	0	262144000	56	6004
2026-01-14 23:38:05.67	21.28	22.90	-42.7	-47.1	10.9	1.90e-03	0	56	0	264241152	56	6199
2026-01-14 23:38:06.68	21.31	23.05	-42.6	-47.1	11.0	1.38e-03	0	56	0	266338304	56	6133
2026-01-14 23:38:07.69	21.35	23.20	-42.6	-47.0	11.2	1.55e-03	0	56	0	267386880	56	6083
2026-01-14 23:38:08.69	21.38	23.34	-42.6	-46.9	11.2	1.53e-03	0	56	0	269484032	56	6036
2026-01-14 23:38:09.70	21.42	23.49	-42.5	-46.9	11.3	1.28e-03	0	56	0	271581184	56	5997
2026-01-14 23:38:10.71	21.45	23.64	-42.5	-46.8	11.3	1.36e-03	0	57	0	273678336	56	5957
2026-01-14 23:38:11.72	21.49	23.80	-42.5	-46.7	11.4	1.16e-03	0	57	0	275775488	56	5905
2026-01-14 23:38:12.73	21.53	23.95	-42.6	-47.0	11.2	1.40e-03	0	57	0	276824064	56	6067
2026-01-14 23:38:13.74	21.56	24.10	-42.6	-47.0	11.2	1.70e-03	0	56	0	278921216	56	6111
2026-01-14 23:38:14.75	21.60	24.26	-42.6	-47.0	11.1	1.48e-03	0	56	0	281018368	56	6074
2026-01-14 23:38:15.75	21.64	24.41	-42.6	-47.0	11.1	1.52e-03	0	56	0	283115520	56	6115
2026-01-14 23:38:16.76	21.68	24.56	-42.6	-46.8	11.3	1.01e-03	0	57	0	285212672	56	5992
2026-01-14 23:38:17.77	21.71	24.72	-42.4	-46.6	11.6	9.95e-04	0	56	0	287309824	56	5829
2026-01-14 23:38:18.78	21.75	24.88	-42.5	-46.7	11.5	7.01e-04	0	56	0	288358400	56	5879
2026-01-14 23:38:19.79	21.79	25.04	-42.5	-46.8	11.4	8.98e-04	0	56	0	290455552	56	5951
2026-01-14 23:38:20.80	21.83	25.20	-42.4	-46.5	11.6	7.86e-04	0	56	0	292552704	56	5745
2026-01-14 23:38:21.81	21.87	25.36	-42.5	-46.7	11.5	4.69e-04	0	57	0	294649856	56	5873
2026-01-14 23:38:22.82	21.91	25.52	-42.5	-46.6	11.6	7.10e-04	0	56	0	296747008	56	5835
2026-01-14 23:38:23.82	21.95	25.68	-42.4	-46.5	11.7	7.39e-04	0	57	0	297795584	56	5787
2026-01-14 23:38:24.83	21.99	25.84	-42.4	-46.6	11.6	8.43e-04	0	57	0	299892736	56	5802
2026-01-14 23:38:25.84	22.03	26.01	-42.6	-47.0	11.2	1.02e-03	0	57	0	301989888	56	6062
2026-01-14 23:38:26.85	22.07	26.17	-42.6	-46.9	11.3	1.00e-03	0	57	0	304087040	56	6028
2026-01-14 23:38:27.86	22.11	26.34	-42.7	-47.2	11.0	1.18e-03	0	57	0	306184192	56	6235
2026-01-14 23:38:28.87	22.16	26.51	-42.5	-46.7	11.5	1.58e-03	0	56	0	307232768	56	5904
2026-01-14 23:38:29.88	22.20	26.68	-42.6	-46.9	11.3	9.52e-04	0	56	0	309329920	56	6051
2026-01-14 23:38:30.89	22.24	26.85	-42.6	-46.8	11.4	1.28e-03	0	57	0	311427072	56	5972
2026-01-14 23:38:31.89	22.29	27.01	-42.5	-46.6	11.6	8.60e-04	0	57	0	313524224	56	5848
2026-01-14 23:38:32.91	22.33	27.19	-42.6	-46.9	11.3	1.21e-03	0	57	0	315621376	56	6057
2026-01-14 23:38:33.92	22.37	27.36	-42.6	-47.0	11.3	1.22e-03	0	56	0	316669952	56	6094
2026-01-14 23:38:34.92	22.42	27.53	-42.7	-47.0	11.2	1.39e-03	0	56	0	318767104	56	6131
2026-01-14 23:38:35.93	22.46	27.71	-42.7	-47.1	11.2	1.38e-03	0	57	0	320864256	56	6134
2026-01-14 23:38:36.94	22.51	27.88	-42.7	-47.1	11.1	1.55e-03	0	57	0	322961408	56	6202
2026-01-14 23:38:37.95	22.56	28.06	-42.8	-47.2	11.0	2.47e-03	0	57	0	325058560	56	6267
2026-01-14 23:38:38.95	22.60	28.24	-42.8	-47.3	10.9	1.60e-03	0	57	0	326107136	56	6317
2026-01-14 23:38:39.96	22.65	28.42	-42.9	-47.6	10.6	1.86e-03	0	57	0	328204288	56	6522
2026-01-14 23:38:40.97	22.70	28.60	-42.8	-47.4	10.9	2.80e-03	0	57	0	330301440	56	6350
2026-01-14 23:38:41.98	22.74	28.78	-42.8	-47.3	10.9	2.06e-03	0	57	0	332398592	56	6312
2026-01-14 23:38:42.99	22.79	28.96	-42.9	-47.4	10.8	2.76e-03	0	57	0	334495744	56	6398
2026-01-14 23:38:44.00	22.84	29.15	-42.7	-46.9	11.4	1.59e-03	0	57	0	335544320	56	6043
2026-01-14 23:38:45.01	22.89	29.33	-42.7	-46.9	11.3	1.39e-03	0	57	0	337641472	56	6056
2026-01-14 23:38:46.01	22.94	29.52	-42.6	-46.8	11.5	1.32e-03	0	57	0	339738624	56	5941
2026-01-14 23:38:47.02	22.99	29.70	-42.6	-46.8	11.5	8.66e-04	0	57	0	341835776	56	5930
2026-01-14 23:38:48.03	23.04	29.89	-42.8	-47.3	11.0	1.46e-03	0	57	0	343932928	56	6277
2026-01-14 23:38:49.04	23.10	30.08	-42.7	-47.0	11.3	1.02e-03	0	57	0	344981504	56	6075
2026-01-14 23:38:50.05	23.15	30.28	-42.7	-47.1	11.2	1.17e-03	0	57	0	347078656	56	6152
2026-01-14 23:38:51.06	23.20	30.47	-42.8	-47.2	11.1	2.04e-03	0	57	0	349175808	56	6220
2026-01-14 23:38:52.07	23.25	30.66	-42.8	-47.1	11.1	1.73e-03	0	57	0	351272960	56	6185
2026-01-14 23:38:53.07	23.31	30.86	-42.9	-47.5	10.7	1.84e-03	0	57	0	353370112	56	6468
2026-01-14 23:38:54.09	23.36	31.05	-42.9	-47.5	10.7	2.56e-03	0	57	0	354418688	56	6452
2026-01-14 23:38:55.09	23.42	31.25	-43.0	-47.5	10.7	3.04e-03	0	57	0	356515840	56	6484
2026-01-14 23:38:56.10	23.47	31.45	-42.9	-47.3	11.0	2.76e-03	0	57	0	358612992	56	6311
2026-01-14 23:38:57.11	23.53	31.65	-43.0	-47.6	10.7	2.56e-03	0	57	0	360710144	56	6508
2026-01-14 23:38:58.12	23.59	31.85	-43.0	-47.6	10.6	3.35e-03	0	57	0	362807296	56	6542
2026-01-14 23:38:59.13	23.65	32.06	-43.1	-47.8	10.5	2.70e-03	0	57	0	363855872	56	6709
2026-01-14 23:39:00.13	23.70	32.26	-43.3	-48.4	9.8	4.59e-03	0	57	0	365953024	57	6739
2026-01-14 23:39:01.14	23.76	32.46	-43.1	-48.0	10.3	5.35e-03	0	57	0	368050176	57	6429
2026-01-14 23:39:02.15	23.82	32.67	-43.2	-48.1	10.1	6.10e-03	0	57	0	370147328	57	6539
2026-01-14 23:39:03.16	23.88	32.88	-43.2	-48.2	10.2	7.36e-03	0	57	0	372244480	57	6594
2026-01-14 23:39:04.17	23.94	33.09	-43.0	-47.7	10.6	4.40e-03	0	57	0	373293056	57	6243
2026-01-14 23:39:05.17	24.01	33.30	-43.2	-48.1	10.1	7.49e-03	0	57	0	375390208	57	6566
2026-01-14 23:39:06.18	24.07	33.51	-43.1	-47.9	10.2	8.10e-03	0	57	0	377487360	57	6392
2026-01-14 23:39:07.19	24.13	33.73	-43.2	-48.1	10.2	5.88e-03	0	57	0	379584512	57	6507
2026-01-14 23:39:08.20	24.20	33.94	-43.3	-48.4	9.9	8.84e-03	0	57	0	381681664	57	6726
2026-01-14 23:39:09.21	24.26	34.16	-43.3	-48.4	9.8	1.06e-02	0	57	0	383778816	57	6798
2026-01-14 23:39:10.21	24.33	34.38	-43.5	-49.0	9.3	1.16e-02	0	57	0	384827392	57	7228
2026-01-14 23:39:11.22	24.40	34.60	-43.4	-48.8	9.5	1.33e-02	0	57	0	386924544	57	7054
2026-01-14 23:39:12.23	24.46	34.82	-43.5	-49.1	9.3	1.37e-02	0	57	0	389021696	57	7336
2026-01-14 23:39:13.24	24.53	35.05	-43.3	-48.6	9.6	1.69e-02	0	57	0	391118848	57	6897
2026-01-14 23:39:14.25	24.60	35.27	-43.3	-48.5	9.7	9.55e-03	0	57	0	392167424	57	6811
2026-01-14 23:39:15.26	24.67	35.50	-43.3	-48.5	9.9	1.06e-02	0	57	0	394264576	57	6803
2026-01-14 23:39:16.26	24.74	35.72	-43.3	-48.3	10.0	8.52e-03	0	57	0	396361728	57	6665
2026-01-14 23:39:17.27	24.82	35.95	-43.4	-48.8	9.6	7.58e-03	0	57	0	398458880	57	7060
2026-01-14 23:39:18.28	24.89	36.19	-43.2	-48.2	10.2	7.15e-03	0	57	0	400556032	57	6576
2026-01-14 23:39:19.29	24.96	36.42	-43.1	-47.9	10.2	5.55e-03	0	57	0	401604608	57	6418
2026-01-14 23:39:20.30	25.04	36.65	-43.4	-48.5	9.7	6.19e-03	0	57	0	403701760	57	6879
2026-01-14 23:39:21.31	25.12	36.89	-43.1	-48.0	10.3	6.92e-03	0	57	0	405798912	57	6438
2026-01-14 23:39:22.31	25.19	37.13	-43.1	-48.0	10.4	5.77e-03	0	57	0	407896064	57	6422
2026-01-14 23:39:23.32	25.27	37.37	-43.0	-47.6	10.7	5.79e-03	0	57	0	409993216	57	6181
2026-01-14 23:39:24.33	25.35	37.61	-43.0	-47.7	10.6	2.84e-03	0	57	0	412090368	57	6214
2026-01-14 23:39:25.34	25.43	37.85	-42.8	-47.1	11.2	1.47e-03	0	57	0	413138944	57	5814
2026-01-14 23:39:26.35	25.51	38.10	-42.8	-47.0	11.3	9.80e-04	0	57	0	415236096	57	5784
2026-01-14 23:39:27.36	25.60	38.34	-42.8	-47.1	11.3	1.58e-03	0	57	0	417333248	57	5812
2026-01-14 23:39:28.36	25.68	38.59	-42.8	-47.1	11.3	9.09e-04	0	57	0	419430400	57	5804
2026-01-14 23:39:29.37	25.77	38.84	-42.9	-47.3	11.0	1.39e-03	0	57	0	421527552	57	5989
2026-01-14 23:39:30.38	25.85	39.09	-42.9	-47.4	10.9	1.97e-03	0	57	0	422576128	57	6033
2026-01-14 23:39:31.38	25.94	39.35	-43.0	-47.6	10.7	1.20e-03	0	57	0	424673280	57	6190
2026-01-14 23:39:32.39	26.03	39.60	-43.0	-47.6	10.7	2.16e-03	0	57	0	426770432	57	6137
2026-01-14 23:39:33.40	26.12	39.86	-42.9	-47.4	10.8	4.36e-03	0	57	0	428867584	57	6057
2026-01-14 23:39:34.41	26.21	40.12	-43.3	-48.3	10.0	4.79e-03	0	57	0	430964736	57	6684
2026-01-14 23:39:35.41	26.31	40.38	-43.4	-48.5	9.7	9.33e-03	0	57	0	432013312	57	6875
2026-01-14 23:39:36.42	26.40	40.64	-43.5	-49.0	9.2	1.39e-02	0	57	0	434110464	57	7239
2026-01-14 23:39:37.43	26.50	40.91	-43.5	-48.9	9.4	1.76e-02	0	57	0	436207616	58	6784
2026-01-14 23:39:38.44	26.60	41.17	-43.7	-49.5	8.9	2.34e-02	0	57	0	438304768	58	7211
2026-01-14 23:39:39.45	26.70	41.44	-43.7	-49.6	8.7	4.59e-02	0	57	0	440401920	58	7319
2026-01-14 23:39:40.45	26.80	41.71	-43.8	-49.8	8.7	3.09e-02	0	57	0	441450496	58	7488
2026-01-14 23:39:41.46	26.90	41.98	-43.8	-49.8	8.6	2.88e-02	0	57	0	443547648	58	7460
2026-01-14 23:39:42.47	27.01	42.26	-43.7	-49.4	8.9	2.94e-02	0	57	0	445644800	58	7133
2026-01-14 23:39:43.48	27.11	42.53	-43.5	-49.0	9.2	1.77e-02	0	57	0	447741952	58	6817
2026-01-14 23:39:44.49	27.22	42.81	-43.3	-48.3	10.0	1.32e-02	0	57	0	449839104	58	6295
2026-01-14 23:39:45.49	27.33	43.09	-43.1	-47.7	10.7	4.77e-03	0	57	0	450887680	58	5903
2026-01-14 23:39:46.50	27.44	43.37	-43.1	-47.6	10.7	2.85e-03	0	57	0	452984832	58	5852
2026-01-14 23:39:47.51	27.56	43.66	-42.9	-47.2	11.1	2.57e-03	0	57	0	455081984	57	5893
2026-01-14 23:39:48.52	27.67	43.94	-43.1	-47.7	10.8	2.16e-03	0	57	0	457179136	57	6246
2026-01-14 23:39:49.53	27.79	44.23	-43.1	-47.7	10.7	4.14e-03	0	57	0	459276288	57	6220
2026-01-14 23:39:50.54	27.91	44.52	-43.4	-48.5	9.8	6.51e-03	0	57	0	460324864	57	6857
2026-01-14 23:39:51.55	28.03	44.81	-43.5	-48.7	9.7	1.24e-02	0	57	0	462422016	57	7008
2026-01-14 23:39:52.56	28.16	45.11	-43.5	-49.0	9.4	1.50e-02	0	57	0	464519168	57	7224
2026-01-14 23:39:53.57	28.28	45.41	-43.7	-49.3	9.0	1.62e-02	0	57	0	466616320	58	7092
2026-01-14 23:39:54.58	28.41	45.70	-43.7	-49.3	9.0	2.17e-02	0	57	0	468713472	58	7091
2026-01-14 23:39:55.58	28.54	46.00	-43.8	-49.7	8.6	3.39e-02	0	57	0	469762048	58	7394
2026-01-14 23:39:56.59	28.68	46.31	-43.7	-49.4	8.8	3.58e-02	0	57	0	471859200	58	7140
2026-01-14 23:39:57.60	28.81	46.61	-43.8	-49.8	8.5	2.19e-02	0	57	0	473956352	58	7475
2026-01-14 23:39:58.61	28.95	46.92	-43.7	-49.3	9.0	2.89e-02	0	57	0	476053504	58	7114
2026-01-14 23:39:59.62	29.09	47.23	-43.6	-49.2	9.2	2.98e-02	0	57	0	478150656	58	6974
2026-01-14 23:40:00.62	29.24	47.53	-43.7	-49.2	9.1	3.39e-02	0	57	0	479199232	58	7027
2026-01-14 23:40:01.63	29.38	47.85	-43.6	-49.2	9.1	1.96e-02	0	57	0	481296384	58	6960
2026-01-14 23:40:02.64	29.53	48.16	-43.7	-49.4	9.0	2.39e-02	0	57	0	483393536	58	7148
2026-01-14 23:40:03.65	29.69	48.48	-43.4	-48.4	10.0	1.77e-02	0	57	0	485490688	58	6418
2026-01-14 23:40:04.66	29.84	48.80	-43.2	-48.0	10.4	7.77e-03	0	57	0	487587840	58	6110
2026-01-14 23:40:05.66	30.00	49.12	-42.8	-47.0	11.4	2.50e-03	0	57	0	488636416	57	5751
2026-01-14 23:40:06.67	30.17	49.44	-42.8	-47.1	11.3	8.57e-04	0	57	0	490733568	57	5801
2026-01-14 23:40:07.68	30.33	49.77	-42.5	-46.4	12.1	4.54e-04	0	57	0	492830720	56	5680
2026-01-14 23:40:08.69	30.50	50.10	-42.2	-45.9	12.6	1.15e-04	0	57	0	494927872	56	5371
2026-01-14 23:40:09.70	30.68	50.43	-41.7	-45.1	13.3	2.21e-05	0	57	0	497025024	55	5184
2026-01-14 23:40:10.70	30.85	50.76	-41.5	-44.7	13.7	9.90e-06	0	57	0	498073600	54	5262
2026-01-14 23:40:11.71	31.03	51.09	-41.4	-44.5	13.9	5.30e-06	0	57	0	500170752	54	5131
2026-01-14 23:40:12.72	31.22	51.43	-41.2	-44.1	14.3	7.00e-07	0	57	0	502267904	54	4895
2026-01-14 23:40:13.73	31.41	51.77	-41.1	-44.0	14.4	7.00e-07	0	57	0	504365056	54	4840
2026-01-14 23:40:14.74	31.60	52.11	-41.1	-44.0	14.4	1.50e-06	0	57	0	506462208	54	4822
2026-01-14 23:40:15.75	31.80	52.45	-41.3	-44.3	14.1	1.50e-06	0	57	0	508559360	54	5024
2026-01-14 23:40:16.76	32.00	52.80	-41.2	-44.2	14.1	3.00e-06	0	57	0	509607936	54	4967
2026-01-14 23:40:17.77	32.21	53.14	-41.3	-44.3	14.0	4.50e-06	0	57	0	511705088	54	5028
2026-01-14 23:40:18.78	32.42	53.49	-41.0	-43.9	14.5	7.00e-07	0	57	0	513802240	54	4787
2026-01-14 23:40:19.78	32.64	53.84	-41.4	-44.6	13.8	7.00e-07	0	57	0	515899392	54	5162
2026-01-14 23:40:20.79	32.86	54.19	-41.2	-44.2	14.3	3.00e-06	0	57	0	517996544	54	4931
2026-01-14 23:40:21.80	33.09	54.55	-40.9	-43.7	14.7	7.00e-07	0	57	0	519045120	53	4951
2026-01-14 23:40:22.81	33.32	54.91	-40.7	-43.3	15.0	0.00e+00	0	57	0	521142272	53	4748
2026-01-14 23:40:23.82	33.56	55.27	-40.6	-43.2	15.2	0.00e+00	0	57	0	523239424	53	4666
2026-01-14 23:40:24.83	33.81	55.63	-40.6	-43.2	15.2	0.00e+00	0	57	0	525336576	53	4673
2026-01-14 23:40:25.84	34.06	55.99	-40.6	-43.3	15.1	0.00e+00	0	57	0	526385152	53	4737
2026-01-14 23:40:26.85	34.32	56.36	-40.7	-43.5	14.9	0.00e+00	0	57	0	528482304	53	4829
2026-01-14 23:40:27.85	34.58	56.72	-40.7	-43.4	14.9	0.00e+00	0	57	0	530579456	53	4809
2026-01-14 23:40:28.87	34.85	57.09	-41.0	-43.8	14.7	7.00e-07	0	57	0	532676608	53	5010
2026-01-14 23:40:29.87	35.13	57.46	-41.2	-44.2	14.2	0.00e+00	0	57	0	534773760	53	5227
2026-01-14 23:40:30.88	35.42	57.83	-41.2	-44.2	14.1	3.00e-06	0	57	0	536870912	53	5267
2026-01-14 23:40:31.89	35.71	58.20	-40.9	-43.7	14.6	2.20e-06	0	57	0	537919488	53	4931
2026-01-14 23:40:32.90	36.02	58.58	-40.9	-43.7	14.6	0.00e+00	0	57	0	540016640	53	4958
2026-01-14 23:40:33.90	36.33	58.95	-40.8	-43.5	14.9	0.00e+00	0	57	0	542113792	53	4837
2026-01-14 23:40:34.91	36.65	59.33	-41.2	-44.2	14.1	7.00e-07	0	57	0	544210944	53	5275
2026-01-14 23:40:35.92	36.98	59.71	-41.0	-43.9	14.5	7.00e-07	0	57	0	546308096	53	5075
2026-01-14 23:40:36.93	37.32	60.10	-40.9	-43.7	14.7	7.00e-07	0	57	0	547356672	53	4929
2026-01-14 23:40:37.94	37.67	60.48	-40.8	-43.5	14.8	0.00e+00	0	57	0	549453824	53	4844
2026-01-14 23:40:38.95	38.03	60.86	-40.5	-43.1	15.2	0.00e+00	0	57	0	551550976	53	4643
2026-01-14 23:40:39.96	38.40	61.25	-40.4	-42.9	15.4	0.00e+00	0	57	0	553648128	52	4791
2026-01-14 23:40:40.97	38.79	61.64	-40.0	-42.2	16.1	0.00e+00	0	57	0	555745280	51	4705
2026-01-14 23:40:41.97	39.18	62.02	-39.5	-41.7	16.7	0.00e+00	0	57	0	556793856	51	4404
2026-01-14 23:40:42.98	39.59	62.41	-39.6	-41.8	16.6	0.00e+00	0	57	0	558891008	50	4722
2026-01-14 23:40:43.99	40.01	62.80	-39.8	-42.1	16.3	0.00e+00	0	58	0	560988160	50	4900
2026-01-14 23:40:45.00	40.45	63.19	-40.3	-42.8	15.5	0.00e+00	0	57	0	563085312	51	5025
2026-01-14 23:40:46.00	40.89	63.58	-40.5	-43.0	15.4	0.00e+00	0	57	0	565182464	51	5128
2026-01-14 23:40:47.01	41.36	63.97	-40.4	-42.8	15.5	0.00e+00	0	57	0	566231040	51	5031
2026-01-14 23:40:48.02	41.84	64.37	-40.4	-42.9	15.4	0.00e+00	0	58	0	568328192	51	5092
2026-01-14 23:40:49.03	42.34	64.76	-40.5	-43.0	15.4	0.00e+00	0	58	0	570425344	51	5137
2026-01-14 23:40:50.03	42.85	65.15	-40.6	-43.2	15.1	0.00e+00	0	58	0	572522496	52	4981
2026-01-14 23:40:51.04	43.38	65.55	-40.5	-43.1	15.1	0.00e+00	0	57	0	574619648	52	4926
2026-01-14 23:40:52.05	43.93	65.94	-40.8	-43.5	14.7	7.00e-07	0	57	0	575668224	52	5143
2026-01-14 23:40:53.05	44.50	66.33	-41.2	-44.3	14.0	2.20e-06	0	57	0	577765376	53	5303
2026-01-14 23:40:54.06	45.09	66.72	-41.7	-45.0	13.3	5.30e-06	0	57	0	579862528	53	5788
2026-01-14 23:40:55.07	45.71	67.12	-42.0	-45.5	12.9	3.96e-05	0	57	0	581959680	54	5788
2026-01-14 23:40:56.08	46.35	67.51	-42.2	-45.9	12.3	1.11e-04	0	58	0	584056832	54	6044
2026-01-14 23:40:57.09	47.02	67.90	-42.5	-46.6	11.6	3.81e-04	0	57	0	585105408	55	6141
2026-01-14 23:40:58.10	47.71	68.29	-43.1	-47.9	10.5	1.65e-03	0	57	0	587202560	56	6735
2026-01-14 23:40:59.11	48.42	68.68	-43.5	-48.6	9.5	1.99e-02	0	58	0	589299712	58	6557
2026-01-14 23:41:00.12	49.17	69.07	-43.6	-49.1	9.2	2.47e-02	0	57	0	591396864	58	6892
2026-01-14 23:41:01.13	49.95	69.46	-43.3	-48.2	10.2	1.10e-02	0	58	0	593494016	58	6260
2026-01-14 23:41:02.14	50.76	69.84	-43.1	-47.7	10.6	5.61e-03	0	57	0	594542592	58	5880
2026-01-14 23:41:03.14	51.59	70.22	-43.3	-48.2	10.1	6.87e-03	0	57	0	596639744	58	6257
2026-01-14 23:41:04.16	52.48	70.60	-43.5	-48.8	9.5	1.31e-02	0	57	0	598736896	58	6687
2026-01-14 23:41:05.16	53.38	70.98	-43.6	-49.3	8.9	2.61e-02	0	58	0	600834048	58	7059
2026-01-14 23:41:06.17	54.34	71.35	-43.7	-49.3	8.8	2.59e-02	0	58	0	602931200	58	7041
2026-01-14 23:41:07.18	55.33	71.72	-43.8	-49.8	8.4	3.16e-02	0	57	0	603979776	58	7484
2026-01-14 23:41:08.19	56.37	72.09	-44.2	-51.2	6.9	1.51e-01	0	57	0	606076928	59	8367
2026-01-14 23:41:09.20	57.45	72.45	-43.9	-50.3	7.8	1.40e-01	0	58	0	608174080	59	7476
2026-01-14 23:41:10.21	58.58	72.80	-43.4	-48.6	9.5	4.20e-02	0	58	0	610271232	58	6548
2026-01-14 23:41:11.22	59.76	73.15	-43.3	-48.4	9.9	1.05e-02	0	58	0	612368384	58	6359
2026-01-14 23:41:12.23	60.99	73.50	-43.4	-48.6	9.8	1.43e-02	0	57	0	613416960	58	6513
2026-01-14 23:41:13.24	62.28	73.84	-42.5	-47.2	10.8	4.23e-03	0	58	0	615514112	57	5901
2026-01-14 23:41:14.25	63.62	74.17	-42.5	-46.3	11.9	8.54e-04	0	58	0	617611264	56	5653
2026-01-14 23:41:15.26	65.02	74.49	-42.9	-47.3	11.0	8.93e-04	0	57	0	619708416	56	6312
2026-01-14 23:41:16.27	66.49	74.80	-43.0	-47.6	10.6	2.56e-03	0	58	0	621805568	56	6521
2026-01-14 23:41:17.28	68.01	75.11	-43.2	-48.0	10.2	2.89e-03	0	57	0	622854144	56	6868
2026-01-14 23:41:18.29	69.61	75.41	-43.5	-49.0	9.1	1.55e-02	0	58	0	624951296	57	7239
2026-01-14 23:41:19.30	71.26	75.69	-43.9	-50.3	7.9	6.89e-02	0	58	0	627048448	58	7941
2026-01-14 23:41:20.31	72.99	75.96	-44.0	-50.4	7.7	1.19e-01	0	58	0	629145600	58	8027
2026-01-14 23:41:21.32	74.79	76.23	-43.6	-49.0	9.1	3.35e-02	0	58	0	631242752	58	6850
2026-01-14 23:41:22.33	76.65	76.47	-43.4	-48.6	9.5	1.38e-02	0	57	0	633339904	58	6535
2026-01-14 23:41:23.34	78.59	76.71	-43.1	-47.7	10.5	8.85e-03	0	58	0	634388480	58	5896
2026-01-14 23:41:24.35	80.60	76.93	-43.1	-47.7	10.5	4.63e-03	0	58	0	636485632	58	5891
2026-01-14 23:41:25.35	82.65	77.13	-43.1	-47.8	10.4	3.57e-03	0	58	0	638582784	57	6321
2026-01-14 23:41:26.36	84.79	77.32	-43.7	-49.4	8.6	1.20e-02	0	58	0	640679936	57	7587
2026-01-14 23:41:27.37	86.99	77.49	-44.3	-51.7	6.5	1.05e-01	0	57	0	642777088	59	8851
2026-01-14 23:41:28.38	89.25	77.64	-44.4	-52.2	6.1	2.64e-01	0	58	0	643825664	59	9313
2026-01-14 23:41:29.39	91.56	77.77	-44.2	-51.6	6.7	2.81e-01	0	58	0	645922816	59	8678
2026-01-14 23:41:30.40	93.92	77.88	-44.1	-51.0	7.1	1.62e-01	0	58	0	648019968	59	8148
2026-01-14 23:41:31.41	96.32	77.98	-44.1	-50.7	7.4	1.21e-01	0	58	0	650117120	59	7870
2026-01-14 23:41:32.42	98.76	78.05	-44.2	-51.3	6.8	1.98e-01	0	58	0	652214272	59	8422
2026-01-14 23:41:33.43	101.22	78.10	-44.3	-52.1	6.1	1.99e-01	0	57	0	653262848	59	9178
2026-01-14 23:41:34.43	103.68	78.13	-44.2	-51.3	6.7	2.45e-01	0	58	0	655360000	59	8427
2026-01-14 23:41:35.45	106.19	78.13	-44.1	-51.0	7.1	1.18e-01	0	58	0	657457152	59	8133
2026-01-14 23:41:36.45	108.65	78.12	-43.6	-49.1	9.0	9.39e-02	0	58	0	659554304	59	6507
2026-01-14 23:41:37.47	111.15	78.08	-43.5	-48.9	9.1	2.55e-02	0	58	0	661651456	59	6369
2026-01-14 23:41:38.48	113.61	78.03	-43.5	-49.0	9.2	1.63e-02	0	58	0	662700032	58	6821
2026-01-14 23:41:39.49	116.03	77.95	-43.7	-49.6	8.6	2.61e-02	0	57	0	664797184	58	7337
2026-01-14 23:41:40.49	118.40	77.85	-44.4	-52.2	6.1	1.10e-01	0	58	0	666894336	59	9327
2026-01-14 23:41:41.50	120.75	77.73	-44.3	-51.9	6.2	3.58e-01	0	58	0	668991488	59	9059
2026-01-14 23:41:42.51	123.05	77.59	-44.0	-50.6	7.4	1.73e-01	0	58	0	671088640	59	7773
2026-01-14 23:41:43.53	125.31	77.43	-44.0	-50.4	7.7	9.25e-02	0	58	0	672137216	59	7623
2026-01-14 23:41:44.53	127.47	77.26	-44.0	-50.5	7.6	1.08e-01	0	58	0	674234368	59	7672
2026-01-14 23:41:45.54	129.59	77.06	-44.0	-50.5	7.5	8.72e-02	0	58	0	676331520	59	7705
2026-01-14 23:41:46.55	131.64	76.85	-44.3	-51.9	6.3	1.27e-01	0	58	0	678428672	59	8987
2026-01-14 23:41:47.56	133.62	76.63	-44.4	-52.3	6.0	3.32e-01	0	58	0	680525824	59	9424
2026-01-14 23:41:48.57	135.54	76.39	-43.9	-50.3	7.7	1.96e-01	0	58	0	681574400	59	7513
2026-01-14 23:41:49.58	137.38	76.14	-43.6	-49.3	8.8	7.42e-02	0	58	0	683671552	59	6717
2026-01-14 23:41:50.59	139.15	75.87	-43.6	-49.3	8.8	3.23e-02	0	58	0	685768704	59	6666
2026-01-14 23:41:51.60	140.86	75.59	-43.8	-49.7	8.3	4.60e-02	0	58	0	687865856	59	6974
2026-01-14 23:41:52.61	142.50	75.31	-43.4	-48.5	9.5	3.59e-02	0	58	0	689963008	58	6482
2026-01-14 23:41:53.62	144.07	75.01	-43.7	-49.4	8.7	2.31e-02	0	58	0	691011584	58	7200
2026-01-14 23:41:54.63	145.57	74.70	-43.5	-48.8	9.3	2.30e-02	0	58	0	693108736	58	6716
2026-01-14 23:41:55.64	147.02	74.38	-43.3	-48.4	9.7	8.67e-03	0	58	0	695205888	58	6352
2026-01-14 23:41:56.65	148.40	74.05	-43.6	-49.2	8.9	1.72e-02	0	58	0	697303040	58	6987
2026-01-14 23:41:57.66	149.72	73.72	-43.1	-47.8	10.2	1.15e-02	0	58	0	699400192	58	5945
2026-01-14 23:41:58.67	150.99	73.38	-43.3	-48.3	9.9	4.56e-03	0	58	0	701497344	57	6675
2026-01-14 23:41:59.68	152.21	73.03	-43.7	-49.5	8.6	1.47e-02	0	58	0	702545920	57	7637
2026-01-14 23:42:00.69	153.37	72.68	-43.2	-48.1	10.1	1.42e-02	0	58	0	704643072	57	6509
2026-01-14 23:42:01.70	154.49	72.32	-43.0	-47.6	10.5	3.75e-03	0	58	0	706740224	57	6198
2026-01-14 23:42:02.71	155.55	71.96	-43.6	-49.5	8.6	5.82e-03	0	58	0	708837376	57	7644
2026-01-14 23:42:03.72	156.58	71.59	-44.2	-51.3	6.9	1.82e-01	0	58	0	710934528	58	8944
2026-01-14 23:42:04.73	157.56	71.22	-44.4	-52.6	5.9	2.33e-01	0	58	0	711983104	59	9750
2026-01-14 23:42:05.74	158.50	70.84	-44.6	-53.5	5.3	6.62e-01	0	58	0	714080256	59	10838
2026-01-14 23:42:06.75	159.40	70.46	-44.1	-51.0	7.2	2.53e-01	0	58	0	716177408	59	8093
2026-01-14 23:42:07.75	160.26	70.09	-43.3	-48.1	10.0	2.44e-02	0	58	0	718274560	58	6189
2026-01-14 23:42:08.76	161.09	69.70	-43.4	-48.3	9.8	7.64e-03	0	58	0	720371712	58	6336
2026-01-14 23:42:09.77	161.89	69.32	-43.7	-49.4	8.8	1.67e-02	0	58	0	721420288	58	7180
2026-01-14 23:42:10.78	162.65	68.93	-43.3	-48.3	9.9	1.38e-02	0	57	0	723517440	58	6307
2026-01-14 23:42:11.79	163.39	68.54	-43.2	-48.0	10.2	4.63e-03	0	58	0	725614592	57	6436
2026-01-14 23:42:12.79	164.09	68.15	-43.3	-48.4	9.9	6.88e-03	0	58	0	727711744	57	6732
2026-01-14 23:42:13.80	164.77	67.76	-42.8	-47.0	11.2	2.80e-03	0	58	0	729808896	57	5767
2026-01-14 23:42:14.81	165.43	67.37	-42.5	-46.4	11.8	4.91e-04	0	58	0	730857472	56	5691
2026-01-14 23:42:15.82	166.06	66.97	-42.4	-46.3	12.0	6.00e-04	0	58	0	732954624	56	5654
2026-01-14 23:42:16.83	166.67	66.58	-41.0	-43.9	14.3	6.80e-06	0	58	0	735051776	54	4790
2026-01-14 23:42:17.84	167.26	66.18	-40.2	-42.6	15.6	0.00e+00	0	58	0	737148928	52	4620
2026-01-14 23:42:18.85	167.83	65.79	-40.6	-43.2	15.0	0.00e+00	0	58	0	739246080	52	4932
2026-01-14 23:42:19.86	168.37	65.39	-41.3	-44.4	13.7	3.80e-06	0	58	0	740294656	53	5402
2026-01-14 23:42:20.86	168.90	65.00	-40.9	-43.7	14.6	1.50e-06	0	58	0	742391808	53	4954
2026-01-14 23:42:21.87	169.41	64.60	-40.5	-43.2	15.1	0.00e+00	0	57	0	744488960	53	4652
2026-01-14 23:42:22.88	169.90	64.21	-40.3	-42.7	15.5	0.00e+00	0	57	0	746586112	52	4698
2026-01-14 23:42:23.89	170.37	63.82	-40.8	-43.5	14.8	0.00e+00	0	58	0	748683264	52	5139
2026-01-14 23:42:24.90	170.83	63.42	-41.8	-45.3	13.0	9.10e-06	0	58	0	749731840	54	5598
2026-01-14 23:42:25.91	171.28	63.03	-42.1	-45.9	12.3	1.07e-04	0	58	0	751828992	54	6043
2026-01-14 23:42:26.92	171.71	62.64	-41.5	-44.7	13.5	6.56e-05	0	58	0	753926144	54	5249
2026-01-14 23:42:27.93	172.13	62.25	-40.9	-43.7	14.5	0.00e+00	0	58	0	756023296	53	4951
2026-01-14 23:42:28.94	172.53	61.86	-41.1	-44.1	14.2	7.00e-07	0	58	0	758120448	53	5184
2026-01-14 23:42:29.95	172.92	61.47	-41.5	-44.6	13.6	4.50e-06	0	58	0	759169024	53	5513
2026-01-14 23:42:30.96	173.30	61.08	-41.9	-45.4	12.8	1.37e-05	0	58	0	761266176	54	5713
2026-01-14 23:42:31.97	173.67	60.69	-42.0	-45.6	12.6	1.02e-04	0	58	0	763363328	55	5508
2026-01-14 23:42:32.98	174.03	60.31	-41.9	-45.4	12.9	5.11e-05	0	58	0	765460480	55	5352
2026-01-14 23:42:33.99	174.38	59.92	-41.5	-44.7	13.5	1.60e-05	0	58	0	767557632	55	4974
2026-01-14 23:42:34.99	174.71	59.54	-41.5	-44.7	13.5	9.10e-06	0	58	0	769654784	54	5250
2026-01-14 23:42:36.01	175.04	59.16	-42.3	-46.1	12.1	1.70e-04	0	58	0	770703360	55	5837
2026-01-14 23:42:37.01	175.35	58.78	-43.4	-48.5	9.8	2.71e-03	0	58	0	772800512	57	6804
2026-01-14 23:42:38.02	175.66	58.41	-43.6	-49.0	9.3	2.75e-02	0	58	0	774897664	58	6855
2026-01-14 23:42:39.03	175.96	58.03	-43.2	-48.0	10.2	1.47e-02	0	58	0	776994816	58	6083
2026-01-14 23:42:40.04	176.26	57.65	-42.3	-46.0	12.4	6.42e-04	0	58	0	779091968	56	5437
2026-01-14 23:42:41.05	176.54	57.28	-41.8	-45.3	13.0	4.34e-05	0	58	0	780140544	55	5287
2026-01-14 23:42:42.06	176.82	56.91	-41.9	-45.4	12.9	5.95e-05	0	58	0	782237696	55	5391
2026-01-14 23:42:43.07	177.09	56.54	-41.5	-44.7	13.6	1.98e-05	0	58	0	784334848	54	5239
2026-01-14 23:42:44.08	177.35	56.17	-41.3	-44.3	14.0	4.50e-06	0	58	0	786432000	54	4996
2026-01-14 23:42:45.08	177.60	55.81	-41.4	-44.5	13.8	3.80e-06	0	58	0	787480576	54	5137
2026-01-14 23:42:46.09	177.85	55.45	-41.5	-44.7	13.5	1.44e-05	0	58	0	789577728	54	5249
2026-01-14 23:42:47.10	178.10	55.09	-41.3	-44.3	13.9	2.20e-06	0	58	0	791674880	54	5021
2026-01-14 23:42:48.11	178.34	54.73	-41.2	-44.2	14.1	2.20e-06	0	58	0	793772032	54	4930
2026-01-14 23:42:49.12	178.57	54.37	-41.6	-44.8	13.5	6.80e-06	0	58	0	795869184	54	5297
2026-01-14 23:42:50.13	178.79	54.01	-42.2	-45.9	12.3	9.53e-05	0	58	0	797966336	55	5722
2026-01-14 23:42:51.14	179.01	53.66	-42.0	-45.6	12.6	1.51e-04	0	58	0	799014912	55	5507
2026-01-14 23:42:52.15	179.23	53.31	-41.5	-44.6	13.6	6.71e-05	0	58	0	801112064	54	5205
2026-01-14 23:42:53.16	179.44	52.96	-41.3	-44.3	13.9	3.80e-06	0	58	0	803209216	54	5024
2026-01-14 23:42:54.17	179.64	52.61	-41.7	-45.0	13.3	5.30e-06	0	58	0	805306368	54	5429
2026-01-14 23:42:55.18	179.85	52.27	-41.9	-45.5	12.7	5.03e-05	0	58	0	807403520	54	5750
2026-01-14 23:42:56.19	180.04	51.92	-42.2	-45.9	12.4	1.79e-04	0	58	0	808452096	55	5674
2026-01-14 23:42:57.20	180.23	51.58	-42.6	-46.8	11.4	5.03e-04	0	58	0	810549248	55	6344
2026-01-14 23:42:58.21	180.42	51.24	-43.2	-47.9	10.5	2.54e-03	0	58	0	812646400	56	6740
2026-01-14 23:42:59.22	180.60	50.90	-43.6	-49.2	9.0	1.89e-02	0	58	0	814743552	57	7452
2026-01-14 23:43:00.23	180.78	50.57	-43.7	-49.3	8.9	2.93e-02	0	58	0	816840704	57	7493
2026-01-14 23:43:01.23	180.96	50.24	-43.4	-48.5	9.7	1.74e-02	0	58	0	817889280	57	6845
2026-01-14 23:43:02.24	181.13	49.91	-43.3	-48.3	9.9	6.19e-03	0	58	0	819986432	57	6720
2026-01-14 23:43:03.25	181.30	49.58	-43.3	-48.3	10.0	4.86e-03	0	58	0	822083584	57	6677
2026-01-14 23:43:04.26	181.46	49.25	-43.5	-48.8	9.5	9.46e-03	0	58	0	824180736	57	7081
2026-01-14 23:43:05.27	181.62	48.93	-43.7	-49.4	8.9	2.26e-02	0	58	0	826277888	57	7560
2026-01-14 23:43:06.28	181.78	48.61	-43.8	-49.6	8.7	3.21e-02	0	58	0	827326464	58	7288
2026-01-14 23:43:07.29	181.94	48.29	-43.9	-50.2	8.1	3.12e-02	0	58	0	829423616	58	7818
2026-01-14 23:43:08.30	182.09	47.97	-43.9	-50.0	8.2	7.76e-02	0	58	0	831520768	58	7677
2026-01-14 23:43:09.31	182.24	47.65	-43.8	-49.8	8.4	2.97e-02	0	58	0	833617920	58	7471
2026-01-14 23:43:10.32	182.38	47.34	-43.6	-49.2	9.2	2.52e-02	0	58	0	835715072	58	6989
2026-01-14 23:43:11.32	182.53	47.03	-43.7	-49.6	8.6	3.23e-02	0	58	0	836763648	58	7298
2026-01-14 23:43:12.33	182.67	46.72	-43.8	-49.8	8.4	4.93e-02	0	58	0	838860800	58	7538
2026-01-14 23:43:13.34	182.80	46.42	-43.5	-49.0	9.2	2.94e-02	0	58	0	840957952	58	6865
2026-01-14 23:43:14.35	182.94	46.11	-43.7	-49.6	8.7	2.41e-02	0	58	0	843055104	58	7313
2026-01-14 23:43:15.36	183.07	45.81	-44.0	-50.4	7.8	5.93e-02	0	58	0	845152256	58	8048
2026-01-14 23:43:16.36	183.20	45.51	-43.7	-49.6	8.6	3.43e-02	0	58	0	846200832	58	7295
2026-01-14 23:43:17.37	183.33	45.21	-43.2	-48.0	10.3	1.94e-02	0	58	0	848297984	58	6110
2026-01-14 23:43:18.38	183.46	44.91	-42.9	-47.4	11.0	3.66e-03	0	58	0	850395136	57	6008
2026-01-14 23:43:19.39	183.58	44.62	-42.6	-46.7	11.6	1.24e-03	0	58	0	852492288	57	5583
2026-01-14 23:43:20.40	183.70	44.33	-42.3	-46.0	12.4	1.92e-04	0	58	0	854589440	56	5434
2026-01-14 23:43:21.41	183.82	44.03	-42.8	-47.1	11.3	3.16e-04	0	58	0	855638016	56	6138
2026-01-14 23:43:22.42	183.94	43.75	-43.1	-48.0	10.3	2.23e-03	0	58	0	857735168	56	6808
2026-01-14 23:43:23.43	184.05	43.46	-43.1	-47.8	10.1	5.70e-03	0	58	0	859832320	57	6320
2026-01-14 23:43:24.44	184.16	43.17	-43.2	-48.1	10.1	1.19e-02	0	58	0	861929472	57	6561
2026-01-14 23:43:25.45	184.27	42.89	-43.0	-47.8	10.5	6.76e-03	0	58	0	864026624	57	6276
2026-01-14 23:43:26.46	184.38	42.61	-42.5	-46.4	11.9	1.73e-03	0	58	0	866123776	57	5378
2026-01-14 23:43:27.46	184.49	42.34	-41.7	-45.0	13.2	1.14e-04	0	58	0	867172352	55	5121
2026-01-14 23:43:28.48	184.60	42.06	-41.6	-44.9	13.3	1.44e-05	0	58	0	869269504	55	5066
2026-01-14 23:43:29.49	184.70	41.78	-41.4	-44.5	13.7	3.00e-06	0	58	0	871366656	54	5107
2026-01-14 23:43:30.49	184.80	41.51	-41.4	-44.6	13.7	8.30e-06	0	58	0	873463808	54	5160
2026-01-14 23:43:31.50	184.90	41.24	-41.9	-45.4	12.9	4.04e-05	0	58	0	875560960	54	5681
2026-01-14 23:43:32.51	185.00	40.97	-42.4	-46.4	11.7	3.44e-04	0	58	0	876609536	55	6028
2026-01-14 23:43:33.52	185.10	40.70	-42.3	-46.2	12.0	4.87e-04	0	58	0	878706688	55	5881
2026-01-14 23:43:34.53	185.19	40.44	-42.6	-46.8	11.3	5.53e-04	0	58	0	880803840	55	6335
2026-01-14 23:43:35.54	185.29	40.17	-42.5	-46.7	11.5	8.73e-04	0	58	0	882900992	55	6240
2026-01-14 23:43:36.55	185.38	39.91	-42.1	-45.7	12.4	1.93e-04	0	58	0	884998144	55	5591
2026-01-14 23:43:37.56	185.47	39.65	-41.8	-45.4	12.8	1.23e-04	0	58	0	886046720	55	5346
2026-01-14 23:43:38.57	185.56	39.40	-41.6	-45.0	13.2	3.96e-05	0	58	0	888143872	55	5119
2026-01-14 23:43:39.58	185.65	39.14	-41.9	-45.5	12.6	5.49e-05	0	58	0	890241024	55	5436
2026-01-14 23:43:40.59	185.74	38.89	-42.3	-46.3	11.9	1.38e-04	0	58	0	892338176	55	5930
2026-01-14 23:43:41.60	185.83	38.63	-43.1	-48.0	10.3	3.74e-03	0	58	0	894435328	56	6804
2026-01-14 23:43:42.61	185.91	38.38	-43.5	-49.0	9.2	1.67e-02	0	58	0	895483904	57	7254
2026-01-14 23:43:43.62	185.99	38.13	-43.9	-50.3	7.9	3.93e-02	0	58	0	897581056	58	7951
2026-01-14 23:43:44.63	186.08	37.89	-44.0	-50.6	7.6	1.32e-01	0	58	0	899678208	58	8228
2026-01-14 23:43:45.64	186.16	37.64	-44.1	-51.2	7.0	1.36e-01	0	58	0	901775360	58	8816
2026-01-14 23:43:46.65	186.24	37.40	-44.0	-50.8	7.4	1.35e-01	0	58	0	903872512	58	8428
2026-01-14 23:43:47.66	186.32	37.16	-43.6	-49.4	8.8	4.72e-02	0	58	0	904921088	58	7177
2026-01-14 23:43:48.67	186.39	36.92	-43.2	-48.2	10.0	1.57e-02	0	58	0	907018240	58	6257
2026-01-14 23:43:49.68	186.47	36.68	-42.8	-47.3	11.0	2.93e-03	0	58	0	909115392	57	5927
2026-01-14 23:43:50.69	186.55	36.44	-42.5	-46.6	11.7	8.46e-04	0	58	0	911212544	57	5476
2026-01-14 23:43:51.70	186.62	36.21	-42.2	-45.9	12.4	3.04e-04	0	58	0	913309696	56	5388
2026-01-14 23:43:52.71	186.69	35.97	-42.5	-46.4	11.9	2.63e-04	0	58	0	914358272	56	5698
2026-01-14 23:43:53.71	186.77	35.74	-42.6	-46.7	11.5	6.76e-04	0	58	0	916455424	56	5905
2026-01-14 23:43:54.72	186.84	35.51	-42.5	-46.5	11.7	3.87e-04	0	58	0	918552576	56	5767
2026-01-14 23:43:55.74	186.91	35.28	-42.4	-46.2	12.1	3.84e-04	0	58	0	920649728	56	5583
2026-01-14 23:43:56.74	186.98	35.06	-42.3	-46.0	12.3	2.36e-04	0	58	0	922746880	56	5429
2026-01-14 23:43:57.75	187.05	34.83	-42.3	-46.1	12.2	1.24e-04	0	58	0	923795456	56	5514
2026-01-14 23:43:58.76	187.12	34.61	-42.4	-46.3	12.0	2.15e-04	0	58	0	925892608	56	5619
2026-01-14 23:43:59.77	187.18	34.39	-43.0	-47.7	10.6	7.59e-04	0	58	0	927989760	56	6598
2026-01-14 23:44:00.78	187.25	34.17	-43.4	-48.6	9.6	4.65e-03	0	58	0	930086912	57	6908
2026-01-14 23:44:01.79	187.31	33.95	-43.8	-49.9	8.3	3.21e-02	0	58	0	932184064	58	7582
2026-01-14 23:44:02.80	187.38	33.73	-44.3	-52.3	6.1	1.97e-01	0	58	0	934281216	59	9440
2026-01-14 23:44:03.81	187.44	33.51	-44.4	-52.7	5.8	3.44e-01	0	58	0	935329792	59	9914
2026-01-14 23:44:04.82	187.51	33.30	-44.4	-52.7	5.9	3.96e-01	0	58	0	937426944	59	9919
2026-01-14 23:44:05.83	187.57	33.08	-44.4	-52.5	5.8	4.86e-01	0	58	0	939524096	59	9679
2026-01-14 23:44:06.83	187.63	32.87	-44.2	-51.5	6.7	2.53e-01	0	58	0	941621248	59	8603
2026-01-14 23:44:07.85	187.69	32.66	-43.9	-50.1	8.0	9.55e-02	0	58	0	943718400	59	7370
2026-01-14 23:44:08.86	187.75	32.45	-43.7	-49.5	8.7	5.18e-02	0	58	0	944766976	59	6831
2026-01-14 23:44:09.86	187.81	32.25	-43.5	-49.2	9.0	3.38e-02	0	58	0	946864128	59	6575
2026-01-14 23:44:10.87	187.87	32.04	-43.5	-49.0	9.2	1.43e-02	0	58	0	948961280	58	6878
2026-01-14 23:44:11.88	187.92	31.84	-43.4	-48.7	9.4	1.42e-02	0	58	0	951058432	58	6636
2026-01-14 23:44:12.89	187.98	31.63	-43.3	-48.5	9.7	1.46e-02	0	58	0	953155584	58	6447
2026-01-14 23:44:13.90	188.04	31.43	-43.3	-48.5	9.7	1.13e-02	0	58	0	954204160	58	6454
2026-01-14 23:44:14.91	188.09	31.23	-43.4	-48.7	9.4	1.30e-02	0	58	0	956301312	58	6634
2026-01-14 23:44:15.92	188.15	31.03	-43.2	-48.2	9.9	1.15e-02	0	58	0	958398464	58	6251
2026-01-14 23:44:16.92	188.20	30.83	-43.3	-48.6	9.5	9.32e-03	0	58	0	960495616	58	6551
2026-01-14 23:44:17.93	188.26	30.64	-43.3	-48.5	9.6	1.06e-02	0	58	0	962592768	58	6488
2026-01-14 23:44:18.94	188.31	30.44	-43.0	-47.8	10.4	8.69e-03	0	58	0	963641344	58	5958
2026-01-14 23:44:19.95	188.36	30.25	-42.9	-47.5	10.7	5.88e-03	0	58	0	965738496	57	6093
2026-01-14 23:44:20.96	188.42	30.06	-43.0	-48.0	10.3	3.76e-03	0	58	0	967835648	57	6422
2026-01-14 23:44:21.97	188.47	29.86	-42.9	-47.5	10.6	2.87e-03	0	58	0	969932800	57	6095
2026-01-14 23:44:22.98	188.52	29.67	-42.7	-47.1	11.1	1.86e-03	0	58	0	972029952	57	5835
2026-01-14 23:44:23.99	188.57	29.49	-42.8	-47.2	10.9	2.57e-03	0	58	0	973078528	57	5907
2026-01-14 23:44:25.00	188.62	29.30	-42.8	-47.2	11.0	2.23e-03	0	58	0	975175680	57	5894
2026-01-14 23:44:26.01	188.67	29.11	-42.9	-47.6	10.6	2.35e-03	0	58	0	977272832	57	6157
2026-01-14 23:44:27.02	188.72	28.93	-43.1	-48.0	10.2	6.06e-03	0	58	0	979369984	57	6472
2026-01-14 23:44:28.02	188.76	28.74	-43.2	-48.5	9.6	1.03e-02	0	58	0	981467136	57	6840
2026-01-14 23:44:29.03	188.81	28.56	-43.5	-49.1	9.0	2.09e-02	0	58	0	982515712	57	7356
2026-01-14 23:44:30.04	188.86	28.38	-43.6	-49.5	8.6	3.35e-02	0	58	0	984612864	57	7636
2026-01-14 23:44:31.04	188.91	28.20	-43.6	-49.6	8.5	4.15e-02	0	58	0	986710016	57	7785
2026-01-14 23:44:32.05	188.95	28.02	-43.7	-49.9	8.2	4.94e-02	0	58	0	988807168	57	8022
2026-01-14 23:44:33.06	189.00	27.84	-43.6	-49.5	8.6	4.85e-02	0	58	0	990904320	57	7668
2026-01-14 23:44:34.07	189.04	27.66	-43.3	-48.7	9.4	2.13e-02	0	58	0	991952896	57	7000
2026-01-14 23:44:35.08	189.09	27.49	-43.1	-48.0	10.1	1.13e-02	0	58	0	994050048	57	6472
2026-01-14 23:44:36.08	189.13	27.31	-42.9	-47.7	10.4	6.12e-03	0	58	0	996147200	57	6234
2026-01-14 23:44:37.09	189.18	27.14	-42.6	-46.8	11.4	1.47e-03	0	58	0	998244352	57	5649
2026-01-14 23:44:38.10	189.22	26.97	-42.4	-46.5	11.7	7.65e-04	0	58	0	1000341504	56	5759
2026-01-14 23:44:39.11	189.26	26.80	-42.2	-46.1	12.1	4.33e-04	0	58	0	1001390080	56	5508
2026-01-14 23:44:40.12	189.31	26.63	-42.2	-46.0	12.2	1.93e-04	0	58	0	1003487232	56	5438
2026-01-14 23:44:41.12	189.35	26.46	-42.1	-45.9	12.3	1.67e-04	0	58	0	1005584384	56	5358
2026-01-14 23:44:42.13	189.39	26.29	-42.1	-45.8	12.4	1.17e-04	0	58	0	1007681536	56	5294
2026-01-14 23:44:43.14	189.43	26.12	-41.8	-45.4	12.7	1.25e-04	0	58	0	1009778688	55	5345
2026-01-14 23:44:44.15	189.47	25.95	-41.7	-45.3	12.7	8.39e-05	0	58	0	1010827264	55	5326
2026-01-14 23:44:45.16	189.51	25.79	-41.7	-45.4	12.7	1.15e-04	0	58	0	1012924416	55	5350
2026-01-14 23:44:46.17	189.55	25.62	-41.9	-45.6	12.4	1.12e-04	0	58	0	1015021568	55	5498
2026-01-14 23:44:47.18	189.59	25.46	-42.0	-45.7	12.3	1.56e-04	0	58	0	1017118720	55	5589
2026-01-14 23:44:48.19	189.63	25.30	-41.9	-45.7	12.3	1.61e-04	0	58	0	1019215872	55	5535
2026-01-14 23:44:49.20	189.67	25.14	-41.9	-45.8	12.2	2.11e-04	0	58	0	1020264448	55	5595
2026-01-14 23:44:50.21	189.71	24.98	-42.0	-45.9	12.2	2.45e-04	0	58	0	1022361600	55	5681
2026-01-14 23:44:51.22	189.75	24.82	-42.0	-45.9	12.1	2.14e-04	0	58	0	1024458752	55	5709
2026-01-14 23:44:52.23	189.79	24.66	-41.9	-45.7	12.3	1.84e-04	0	58	0	1026555904	55	5544
2026-01-14 23:44:53.24	189.83	24.50	-41.9	-45.7	12.3	1.50e-04	0	58	0	1028653056	55	5577
2026-01-14 23:44:54.25	189.86	24.34	-41.8	-45.4	12.6	1.65e-04	0	58	0	1030750208	55	5355
2026-01-14 23:44:55.26	189.90	24.19	-41.7	-45.2	12.8	9.61e-05	0	58	0	1031798784	55	5244
2026-01-14 23:44:56.26	189.94	24.03	-41.5	-45.0	13.1	3.96e-05	0	58	0	1033895936	55	5111
2026-01-14 23:44:57.27	189.97	23.88	-41.5	-44.9	13.1	2.97e-05	0	58	0	1035993088	54	5350
2026-01-14 23:44:58.28	190.01	23.73	-41.2	-44.3	13.8	1.29e-05	0	58	0	1038090240	54	5000
2026-01-14 23:44:59.29	190.04	23.58	-41.0	-44.1	13.9	1.50e-06	0	58	0	1040187392	54	4900
2026-01-14 23:45:00.30	190.08	23.42	-41.0	-44.0	14.0	3.00e-06	0	58	0	1041235968	54	4852
2026-01-14 23:45:01.31	190.11	23.27	-41.0	-44.0	14.0	3.00e-06	0	58	0	1043333120	53	5143
2026-01-14 23:45:02.32	190.15	23.12	-41.0	-44.0	14.0	7.00e-07	0	58	0	1045430272	53	5130
2026-01-14 23:45:03.33	190.18	22.97	-41.0	-44.0	14.0	3.00e-06	0	58	0	1047527424	53	5146
2026-01-14 23:45:04.34	190.22	22.83	-41.1	-44.1	13.9	4.50e-06	0	58	0	1048576000	53	5215
2026-01-14 23:45:05.35	190.25	22.68	-41.2	-44.4	13.6	5.30e-06	0	58	0	1050673152	53	5396
2026-01-14 23:45:06.36	190.29	22.53	-41.3	-44.6	13.4	1.22e-05	0	58	0	1052770304	53	5471
2026-01-14 23:45:07.37	190.32	22.39	-41.3	-44.5	13.5	6.80e-06	0	58	0	1054867456	53	5427
2026-01-14 23:45:08.38	190.35	22.24	-41.5	-44.9	13.1	2.67e-05	0	58	0	1056964608	53	5705
2026-01-14 23:45:09.38	190.38	22.10	-41.5	-44.9	13.1	3.35e-05	0	58	0	1059061760	53	5709
2026-01-14 23:45:10.40	190.42	21.96	-41.5	-45.0	13.0	2.51e-05	0	58	0	1060110336	53	5723
2026-01-14 23:45:11.40	190.45	21.82	-41.6	-45.1	12.9	3.58e-05	0	58	0	1062207488	53	5854
2026-01-14 23:45:12.41	190.48	21.67	-41.5	-45.0	13.0	3.96e-05	0	58	0	1064304640	53	5725
2026-01-14 23:45:13.41	190.51	21.53	-41.5	-45.0	12.9	4.50e-05	0	58	0	1066401792	53	5768
2026-01-14 23:45:14.42	190.54	21.39	-41.5	-44.9	13.1	4.65e-05	0	58	0	1068498944	53	5683
2026-01-14 23:45:15.43	190.58	21.26	-41.5	-45.0	12.9	3.96e-05	0	58	0	1069547520	53	5786
2026-01-14 23:45:16.44	190.61	21.12	-41.5	-45.0	13.0	7.01e-05	0	58	0	1071644672	53	5754
2026-01-14 23:45:17.45	190.64	20.98	-41.5	-44.9	13.0	4.34e-05	0	58	0	1073741824	53	5706
2026-01-14 23:45:18.46	190.67	20.84	-41.6	-45.2	12.8	5.64e-05	0	58	0	1075838976	53	5870
2026-01-14 23:45:19.47	190.70	20.71	-41.6	-45.2	12.7	8.46e-05	0	58	0	1077936128	53	5880
2026-01-14 23:45:20.48	190.73	20.57	-41.6	-45.2	12.8	7.40e-05	0	58	0	1078984704	53	5870
2026-01-14 23:45:21.48	190.76	20.44	-41.7	-45.4	12.6	6.48e-05	0	58	0	1081081856	54	5684
2026-01-14 23:45:22.49	190.79	20.30	-41.7	-45.4	12.6	9.07e-05	0	58	0	1083179008	54	5679
2026-01-14 23:45:23.50	190.82	20.17	-41.8	-45.5	12.4	1.03e-04	0	58	0	1085276160	54	5752
2026-01-14 23:45:24.51	190.85	20.04	-41.6	-45.2	12.7	8.08e-05	0	58	0	1087373312	54	5576
2026-01-14 23:45:25.52	190.87	19.91	-41.6	-45.2	12.7	8.39e-05	0	58	0	1088421888	54	5575
2026-01-14 23:45:26.53	190.90	19.77	-41.6	-45.2	12.8	7.62e-05	0	58	0	1090519040	54	5531
2026-01-14 23:45:27.54	190.93	19.64	-41.6	-45.2	12.8	6.48e-05	0	58	0	1092616192	54	5534
2026-01-14 23:45:28.55	190.96	19.51	-41.6	-45.2	12.7	6.71e-05	0	58	0	1094713344	54	5589
2026-01-14 23:45:29.56	190.99	19.39	-41.6	-45.1	12.8	4.88e-05	0	58	0	1096810496	54	5500
2026-01-14 23:45:30.57	191.02	19.26	-41.6	-45.1	12.8	6.56e-05	0	58	0	1097859072	54	5525
2026-01-14 23:45:31.58	191.04	19.13	-41.5	-45.1	12.9	6.02e-05	0	58	0	1099956224	54	5469
2026-01-14 23:45:32.58	191.07	19.00	-41.5	-45.0	12.9	4.34e-05	0	58	0	1102053376	54	5419
2026-01-14 23:45:33.59	191.10	18.88	-41.5	-45.0	13.0	5.79e-05	0	58	0	1104150528	54	5452
2026-01-14 23:45:34.60	191.12	18.75	-41.5	-44.9	13.0	4.50e-05	0	58	0	1106247680	54	5384
2026-01-14 23:45:35.61	191.15	18.63	-41.6	-45.1	12.9	3.96e-05	0	58	0	1107296256	54	5490
2026-01-14 23:45:36.62	191.18	18.50	-41.6	-45.1	12.8	4.57e-05	0	58	0	1109393408	54	5514
2026-01-14 23:45:37.63	191.20	18.38	-41.5	-45.0	13.0	3.12e-05	0	58	0	1111490560	54	5411
2026-01-14 23:45:38.63	191.23	18.25	-41.4	-44.9	13.1	2.97e-05	0	58	0	1113587712	54	5351
2026-01-14 23:45:39.64	191.26	18.13	-41.5	-45.0	12.9	4.19e-05	0	58	0	1115684864	54	5420
2026-01-14 23:45:40.65	191.28	18.01	-41.5	-45.0	12.9	3.20e-05	0	58	0	1116733440	54	5446
2026-01-14 23:45:41.67	191.31	17.89	-41.6	-45.1	12.8	4.34e-05	0	58	0	1118830592	54	5526
2026-01-14 23:45:42.67	191.33	17.77	-41.5	-44.9	13.0	2.97e-05	0	58	0	1120927744	54	5387
2026-01-14 23:45:43.68	191.36	17.65	-41.6	-45.2	12.7	4.57e-05	0	58	0	1123024896	54	5567
2026-01-14 23:45:44.69	191.38	17.53	-41.6	-45.2	12.7	8.77e-05	0	58	0	1125122048	54	5552
2026-01-14 23:45:45.70	191.41	17.41	-41.6	-45.1	12.8	5.18e-05	0	58	0	1127219200	54	5509
2026-01-14 23:45:46.71	191.43	17.29	-41.6	-45.3	12.6	9.99e-05	0	58	0	1128267776	54	5594
2026-01-14 23:45:47.72	191.46	17.17	-41.6	-45.2	12.7	1.03e-04	0	58	0	1130364928	54	5560
2026-01-14 23:45:48.73	191.48	17.05	-41.6	-45.1	12.8	7.47e-05	0	58	0	1132462080	54	5515
2026-01-14 23:45:49.74	191.51	16.94	-41.7	-45.4	12.5	1.01e-04	0	58	0	1134559232	54	5680
2026-01-14 23:45:50.75	191.53	16.82	-41.7	-45.4	12.5	1.25e-04	0	58	0	1136656384	54	5674
2026-01-14 23:45:51.76	191.56	16.70	-41.7	-45.3	12.6	8.62e-05	0	58	0	1137704960	54	5631
2026-01-14 23:45:52.77	191.58	16.59	-41.7	-45.4	12.5	1.21e-04	0	58	0	1139802112	54	5662
2026-01-14 23:45:53.77	191.60	16.47	-41.7	-45.3	12.5	1.17e-04	0	58	0	1141899264	54	5630
2026-01-14 23:45:54.78	191.63	16.36	-41.6	-45.2	12.7	9.30e-05	0	58	0	1143996416	54	5545
2026-01-14 23:45:55.79	191.65	16.25	-41.7	-45.3	12.5	9.30e-05	0	58	0	1146093568	54	5628
2026-01-14 23:45:56.80	191.67	16.13	-41.7	-45.4	12.5	1.04e-04	0	58	0	1147142144	54	5663
2026-01-14 23:45:57.81	191.70	16.02	-41.7	-45.4	12.4	1.11e-04	0	58	0	1149239296	54	5719
2026-01-14 23:45:58.82	191.72	15.91	-41.7	-45.4	12.4	1.11e-04	0	58	0	1151336448	54	5706
2026-01-14 23:45:59.83	191.74	15.80	-41.7	-45.4	12.4	1.33e-04	0	58	0	1153433600	54	5719
2026-01-14 23:46:00.84	191.76	15.69	-41.8	-45.6	12.3	1.79e-04	0	58	0	1155530752	54	5792
2026-01-14 23:46:01.85	191.79	15.58	-41.7	-45.4	12.4	1.72e-04	0	58	0	1156579328	54	5691
2026-01-14 23:46:02.86	191.81	15.46	-41.8	-45.7	12.1	1.72e-04	0	58	0	1158676480	54	5861
2026-01-14 23:46:03.87	191.83	15.36	-41.8	-45.6	12.2	2.29e-04	0	58	0	1160773632	54	5846
2026-01-14 23:46:04.88	191.85	15.25	-41.8	-45.5	12.2	2.72e-04	0	58	0	1162870784	54	5786
