passes_logs/2026/01/14/R2.0S_Moscow/R2.0S_Moscow__20260114_013343_SUOMI_NPP_rec.log

#Pass ID: 20260114_013343_SUOMI NPP
#Satellite: SUOMI NPP
#Configuration: NPP
#almurnet v.1.7.20251203
#Start time: 2026-01-14 01:33:44

#Version: 2.2.20231116
#Station: R2.0S_Moscow
#Location: 37.707566 lon 55.798166 lat
#TLE: 1 37849U 11061A   26013.27136842  .00000065  00000+0  51889-4 0  9990
#TLE: 2 37849  98.7808 315.3349 0002489  66.6776 293.4661 14.19524902736466

#Time	Az	El	Level	Level2	SNR	BER	BlckErr	Temp	State	Recorded	gain1	gain2
2026-01-14 01:33:44.99	9.79	2.07	-39.7	-54.7	3.8	1.49e+00	0	51	0	0	51	19642
2026-01-14 01:33:46.00	9.72	2.12	-39.7	-54.7	3.8	1.49e+00	0	51	104	0	50	20823
2026-01-14 01:33:47.01	9.64	2.18	-39.7	-54.6	3.8	1.49e+00	0	51	104	0	50	20719
2026-01-14 01:33:48.02	9.57	2.23	-39.7	-54.7	3.8	1.49e+00	0	52	104	0	50	20781
2026-01-14 01:33:49.03	9.50	2.29	-39.7	-54.7	3.8	1.49e+00	0	52	104	0	50	20797
2026-01-14 01:33:50.04	9.43	2.34	-39.7	-54.7	3.8	1.49e+00	0	52	104	0	50	20788
2026-01-14 01:33:51.05	9.36	2.40	-39.7	-54.7	3.8	1.49e+00	0	52	104	0	50	20809
2026-01-14 01:33:52.07	9.29	2.46	-39.7	-54.6	3.8	1.49e+00	0	52	104	0	50	20759
2026-01-14 01:33:53.08	9.21	2.51	-39.7	-54.7	3.8	1.49e+00	0	52	104	0	50	20784
2026-01-14 01:33:54.09	9.14	2.57	-39.7	-54.6	3.8	1.49e+00	0	52	104	0	50	20771
2026-01-14 01:33:55.10	9.07	2.62	-39.7	-54.5	3.8	1.49e+00	0	52	104	0	50	20486
2026-01-14 01:33:56.11	8.99	2.68	-39.7	-54.6	3.8	1.49e+00	0	52	104	0	50	20734
2026-01-14 01:33:57.12	8.92	2.74	-39.7	-54.6	3.8	1.49e+00	0	52	104	0	50	20758
2026-01-14 01:33:58.13	8.85	2.79	-39.7	-54.7	3.8	1.49e+00	0	52	104	0	50	20826
2026-01-14 01:33:59.14	8.77	2.85	-39.7	-54.6	3.8	1.49e+00	0	52	104	0	50	20734
2026-01-14 01:34:00.15	8.70	2.91	-39.7	-54.7	3.8	1.49e+00	0	53	104	0	50	20793
2026-01-14 01:34:01.16	8.62	2.96	-39.7	-54.6	3.8	1.49e+00	0	53	104	0	50	20771
2026-01-14 01:34:02.17	8.55	3.02	-39.7	-54.7	3.8	1.49e+00	0	53	104	0	50	20786
2026-01-14 01:34:03.18	8.47	3.08	-39.7	-54.6	3.8	1.49e+00	0	53	104	0	50	20710
2026-01-14 01:34:04.20	8.40	3.13	-39.7	-54.7	3.8	1.49e+00	0	53	104	0	50	20818
2026-01-14 01:34:05.20	8.32	3.19	-39.7	-54.6	3.8	1.49e+00	0	53	104	0	50	20748
2026-01-14 01:34:06.21	8.24	3.25	-39.7	-54.7	3.8	1.49e+00	0	53	104	0	50	20778
2026-01-14 01:34:07.22	8.17	3.30	-39.7	-54.7	3.8	1.49e+00	0	53	104	0	50	20802
2026-01-14 01:34:08.23	8.09	3.36	-39.7	-54.6	3.8	1.49e+00	0	53	104	0	50	20732
2026-01-14 01:34:09.25	8.01	3.42	-39.7	-54.6	3.8	1.49e+00	0	53	104	0	50	20769
2026-01-14 01:34:10.25	7.94	3.48	-39.7	-54.7	3.8	1.49e+00	0	53	104	0	50	20785
2026-01-14 01:34:11.27	7.86	3.53	-39.7	-54.7	3.8	1.49e+00	0	53	104	0	50	20779
2026-01-14 01:34:12.28	7.78	3.59	-39.7	-54.6	3.8	1.49e+00	0	53	104	0	50	20774
2026-01-14 01:34:13.29	7.70	3.65	-39.7	-54.6	3.8	1.49e+00	0	53	104	0	50	20758
2026-01-14 01:34:14.30	7.62	3.71	-39.7	-54.7	3.8	1.49e+00	0	53	104	0	50	20784
2026-01-14 01:34:15.31	7.54	3.76	-39.7	-54.6	3.8	1.49e+00	0	53	104	0	50	20772
2026-01-14 01:34:16.32	7.46	3.82	-39.7	-54.6	3.8	1.49e+00	0	53	104	0	50	20776
2026-01-14 01:34:17.33	7.38	3.88	-39.7	-54.7	3.8	1.49e+00	0	53	104	0	50	20778
2026-01-14 01:34:18.34	7.30	3.94	-39.7	-54.6	3.8	1.49e+00	0	54	104	0	50	20752
2026-01-14 01:34:19.36	7.22	3.99	-39.7	-54.6	3.8	1.49e+00	0	54	104	0	50	20750
2026-01-14 01:34:20.37	7.14	4.05	-39.7	-54.6	3.8	1.49e+00	0	54	104	0	50	20776
2026-01-14 01:34:21.38	7.06	4.11	-39.7	-54.6	3.8	1.49e+00	0	54	104	0	50	20760
2026-01-14 01:34:22.39	6.98	4.17	-39.7	-54.7	3.8	1.49e+00	0	54	104	0	50	20805
2026-01-14 01:34:23.40	6.89	4.23	-39.7	-54.6	3.8	1.49e+00	0	54	104	0	50	20725
2026-01-14 01:34:24.41	6.81	4.29	-39.7	-54.7	3.8	1.49e+00	0	54	104	0	50	20779
2026-01-14 01:34:25.42	6.73	4.34	-39.7	-54.6	3.8	1.49e+00	0	54	104	0	50	20771
2026-01-14 01:34:26.43	6.65	4.40	-39.7	-54.6	3.8	1.49e+00	0	54	104	0	50	20729
2026-01-14 01:34:27.44	6.56	4.46	-39.7	-54.6	3.8	1.49e+00	0	54	104	0	50	20752
2026-01-14 01:34:28.45	6.48	4.52	-39.7	-54.6	3.8	1.49e+00	0	54	104	0	50	20755
2026-01-14 01:34:29.47	6.39	4.58	-39.7	-54.6	3.8	1.49e+00	0	54	104	0	50	20711
2026-01-14 01:34:30.48	6.31	4.64	-39.7	-54.6	3.8	1.49e+00	0	54	104	0	50	20776
2026-01-14 01:34:31.49	6.23	4.69	-39.7	-54.6	3.8	1.49e+00	0	54	104	0	50	20686
2026-01-14 01:34:32.50	6.14	4.75	-39.7	-54.6	3.8	1.49e+00	0	54	104	0	50	20742
2026-01-14 01:34:33.51	6.05	4.81	-39.7	-54.7	3.8	1.49e+00	0	54	104	0	50	20795
2026-01-14 01:34:34.52	5.97	4.87	-39.7	-54.6	3.8	1.49e+00	0	54	104	0	50	20730
2026-01-14 01:34:35.53	5.88	4.93	-39.7	-54.6	3.8	1.49e+00	0	55	104	0	50	20711
2026-01-14 01:34:36.54	5.80	4.99	-39.7	-54.6	3.8	1.49e+00	0	54	104	0	50	20733
2026-01-14 01:34:37.55	5.71	5.05	-39.7	-54.6	3.8	1.49e+00	0	55	104	0	50	20734
2026-01-14 01:34:38.57	5.62	5.11	-39.7	-54.6	3.8	1.49e+00	0	55	104	0	50	20738
2026-01-14 01:34:39.58	5.53	5.17	-39.7	-54.6	3.8	1.49e+00	0	55	104	0	50	20702
2026-01-14 01:34:40.59	5.45	5.23	-39.7	-54.6	3.8	1.49e+00	0	55	104	0	50	20748
2026-01-14 01:34:41.60	5.36	5.29	-39.7	-54.6	3.8	1.49e+00	0	55	104	0	50	20761
2026-01-14 01:34:42.61	5.27	5.35	-39.7	-54.7	3.8	1.49e+00	0	55	104	0	50	20789
2026-01-14 01:34:43.62	5.18	5.40	-39.7	-54.6	3.8	1.49e+00	0	55	104	0	50	20761
2026-01-14 01:34:44.63	5.09	5.46	-39.7	-54.6	3.8	1.49e+00	0	55	104	0	50	20740
2026-01-14 01:34:45.64	5.00	5.52	-39.7	-54.6	3.8	1.49e+00	0	55	104	0	50	20768
2026-01-14 01:34:46.65	4.91	5.58	-39.7	-54.6	3.8	1.49e+00	0	55	104	0	50	20695
2026-01-14 01:34:47.66	4.82	5.64	-39.7	-54.6	3.8	1.49e+00	0	55	104	0	50	20715
2026-01-14 01:34:48.67	4.73	5.70	-39.7	-54.6	3.8	1.49e+00	0	55	104	0	50	20743
2026-01-14 01:34:49.68	4.64	5.76	-39.7	-54.6	3.8	1.49e+00	0	55	104	0	50	20762
2026-01-14 01:34:50.69	4.54	5.82	-39.7	-54.6	3.8	1.49e+00	0	55	104	0	50	20758
2026-01-14 01:34:51.70	4.45	5.88	-39.7	-54.6	3.8	1.49e+00	0	55	104	0	50	20742
2026-01-14 01:34:52.72	4.36	5.94	-39.7	-54.6	3.8	1.49e+00	0	55	104	0	50	20693
2026-01-14 01:34:53.73	4.27	6.00	-39.7	-54.6	3.8	1.49e+00	0	55	104	0	50	20712
2026-01-14 01:34:54.74	4.17	6.06	-39.7	-54.6	3.8	1.49e+00	0	56	104	0	50	20711
2026-01-14 01:34:55.75	4.08	6.12	-39.7	-54.6	3.8	1.49e+00	0	55	104	0	50	20697
2026-01-14 01:34:56.76	3.98	6.18	-39.7	-54.6	3.8	1.49e+00	0	56	104	0	50	20761
2026-01-14 01:34:57.77	3.89	6.25	-39.7	-54.6	3.8	1.49e+00	0	56	104	0	50	20716
2026-01-14 01:34:58.78	3.79	6.31	-39.7	-54.6	3.8	1.49e+00	0	56	104	0	50	20714
2026-01-14 01:34:59.79	3.70	6.37	-39.7	-54.6	3.8	1.49e+00	0	56	104	0	50	20687
2026-01-14 01:35:00.80	3.60	6.43	-39.7	-54.6	3.8	1.49e+00	0	56	104	0	50	20736
2026-01-14 01:35:01.81	3.51	6.49	-39.7	-54.6	3.8	1.49e+00	0	56	104	0	50	20751
2026-01-14 01:35:02.82	3.41	6.55	-39.7	-54.6	3.8	1.49e+00	0	56	104	0	50	20709
2026-01-14 01:35:03.83	3.31	6.61	-39.7	-54.6	3.8	1.49e+00	0	56	104	0	50	20724
2026-01-14 01:35:04.85	3.21	6.67	-39.7	-54.6	3.8	1.49e+00	0	56	104	0	50	20714
2026-01-14 01:35:05.85	3.12	6.73	-39.7	-54.6	3.8	1.49e+00	0	56	104	0	50	20686
2026-01-14 01:35:06.86	3.02	6.79	-39.7	-54.6	3.8	1.49e+00	0	56	104	0	50	20736
2026-01-14 01:35:07.88	2.92	6.85	-39.7	-54.6	3.8	1.49e+00	0	56	104	0	50	20740
2026-01-14 01:35:08.89	2.82	6.91	-39.7	-54.6	3.8	1.49e+00	0	56	104	0	50	20708
2026-01-14 01:35:09.90	2.72	6.98	-39.7	-54.6	3.8	1.49e+00	0	56	104	0	50	20759
2026-01-14 01:35:10.91	2.62	7.04	-39.7	-54.6	3.8	1.49e+00	0	56	104	0	50	20650
2026-01-14 01:35:11.92	2.52	7.10	-39.7	-54.6	3.8	1.49e+00	0	56	104	0	50	20714
2026-01-14 01:35:12.93	2.42	7.16	-39.7	-54.6	3.8	1.49e+00	0	56	104	0	50	20774
2026-01-14 01:35:13.95	2.31	7.22	-39.7	-54.6	3.8	1.49e+00	0	56	104	0	50	20746
2026-01-14 01:35:14.96	2.21	7.28	-39.7	-54.6	3.8	1.49e+00	0	56	104	0	50	20726
2026-01-14 01:35:15.97	2.11	7.34	-39.7	-54.6	3.8	1.49e+00	0	56	104	0	50	20725
2026-01-14 01:35:16.98	2.01	7.41	-39.7	-54.6	3.8	1.49e+00	0	56	104	0	50	20720
2026-01-14 01:35:17.99	1.90	7.47	-39.7	-54.6	3.8	1.49e+00	0	56	104	0	50	20776
2026-01-14 01:35:19.00	1.80	7.53	-39.7	-54.7	3.8	1.49e+00	0	56	104	0	50	20785
2026-01-14 01:35:20.01	1.70	7.59	-39.7	-54.6	3.8	1.49e+00	0	56	104	0	50	20734
2026-01-14 01:35:21.02	1.59	7.65	-39.7	-54.6	3.8	1.49e+00	0	56	104	0	50	20769
2026-01-14 01:35:22.03	1.49	7.72	-39.7	-54.7	3.8	1.49e+00	0	56	104	0	50	20789
2026-01-14 01:35:23.04	1.38	7.78	-39.7	-54.7	3.8	1.49e+00	0	56	104	0	50	20784
2026-01-14 01:35:24.05	1.28	7.84	-39.7	-54.6	3.8	1.49e+00	0	57	104	0	50	20733
2026-01-14 01:35:25.06	1.17	7.90	-39.7	-54.6	3.8	1.49e+00	0	57	104	0	50	20730
2026-01-14 01:35:26.08	1.06	7.96	-39.7	-54.6	3.8	1.49e+00	0	57	104	0	50	20722
2026-01-14 01:35:27.09	0.95	8.03	-39.7	-54.6	3.8	1.49e+00	0	57	104	0	50	20746
2026-01-14 01:35:28.10	0.85	8.09	-39.7	-54.7	3.8	1.49e+00	0	57	104	0	50	20852
2026-01-14 01:35:29.11	0.74	8.15	-39.9	-54.8	3.8	1.49e+00	0	57	104	0	50	21022
2026-01-14 01:35:30.12	0.63	8.21	-39.8	-54.7	3.8	1.49e+00	0	57	104	0	50	20798
2026-01-14 01:35:31.13	0.52	8.28	-39.7	-54.8	3.8	1.49e+00	0	57	104	0	50	21108
2026-01-14 01:35:32.14	0.41	8.34	-39.8	-54.7	3.8	1.49e+00	0	57	104	0	50	20981
2026-01-14 01:35:33.15	0.30	8.40	-39.6	-54.8	3.8	1.49e+00	0	57	104	0	50	21098
2026-01-14 01:35:34.16	0.19	8.46	-39.8	-54.7	3.8	1.49e+00	0	57	104	0	50	20840
2026-01-14 01:35:35.17	0.08	8.53	-39.8	-54.8	3.8	1.49e+00	0	57	104	0	50	21120
2026-01-14 01:35:36.18	359.96	8.59	-39.6	-54.7	3.8	1.49e+00	0	57	104	0	50	20866
2026-01-14 01:35:37.19	359.85	8.65	-39.7	-54.8	3.8	1.49e+00	0	57	104	0	50	21056
2026-01-14 01:35:38.20	359.74	8.71	-39.4	-54.7	3.8	1.49e+00	0	57	104	0	50	20845
2026-01-14 01:35:39.21	359.63	8.78	-39.4	-54.7	3.8	1.49e+00	0	57	104	0	50	20932
2026-01-14 01:35:40.22	359.51	8.84	-39.7	-54.7	3.8	1.49e+00	0	57	104	0	50	20924
2026-01-14 01:35:41.23	359.40	8.90	-39.5	-54.7	3.8	1.49e+00	0	57	104	0	50	20967
2026-01-14 01:35:42.24	359.28	8.97	-39.6	-54.7	3.8	1.49e+00	0	57	104	0	50	20911
2026-01-14 01:35:43.25	359.17	9.03	-39.4	-54.8	3.8	1.49e+00	0	57	104	0	50	21032
2026-01-14 01:35:44.26	359.05	9.09	-39.4	-54.7	3.8	1.49e+00	0	57	104	0	50	20788
2026-01-14 01:35:45.27	358.93	9.15	-39.5	-54.8	3.8	1.49e+00	0	57	104	0	50	21069
2026-01-14 01:35:46.28	358.82	9.22	-39.5	-54.6	3.8	1.49e+00	0	57	104	0	50	20737
2026-01-14 01:35:47.30	358.70	9.28	-39.8	-54.7	3.8	1.49e+00	0	57	104	0	50	20994
2026-01-14 01:35:48.30	358.58	9.34	-39.4	-54.7	3.8	1.49e+00	0	57	104	0	50	20944
2026-01-14 01:35:49.31	358.46	9.41	-39.7	-54.7	3.8	1.49e+00	0	57	104	0	50	20968
2026-01-14 01:35:50.33	358.34	9.47	-39.4	-54.7	3.8	1.49e+00	0	57	104	0	50	20872
2026-01-14 01:35:51.34	358.22	9.54	-39.8	-54.8	3.8	1.49e+00	0	57	104	0	50	21057
2026-01-14 01:35:52.35	358.10	9.60	-39.6	-54.7	3.8	1.49e+00	0	57	104	0	50	20803
2026-01-14 01:35:53.36	357.98	9.66	-39.8	-54.8	3.8	1.49e+00	0	57	104	0	50	21140
2026-01-14 01:35:54.37	357.86	9.73	-39.6	-54.7	3.8	1.49e+00	0	57	104	0	50	20822
2026-01-14 01:35:55.38	357.74	9.79	-39.7	-54.8	3.8	1.49e+00	0	57	104	0	50	21139
2026-01-14 01:35:56.39	357.62	9.85	-39.7	-54.7	3.8	1.49e+00	0	57	104	0	50	20988
2026-01-14 01:35:57.40	357.50	9.92	-39.7	-54.8	3.8	1.49e+00	0	58	104	0	50	21172
2026-01-14 01:35:58.41	357.37	9.98	-39.8	-54.8	3.8	1.49e+00	0	58	104	0	50	21049
2026-01-14 01:35:59.42	357.25	10.04	-39.9	-54.9	3.8	1.49e+00	0	58	104	0	50	21265
2026-01-14 01:36:00.43	357.12	10.11	-39.4	-54.7	3.8	1.49e+00	0	57	104	0	50	20866
2026-01-14 01:36:01.44	357.00	10.17	-39.9	-54.9	3.8	1.49e+00	0	58	104	0	50	21319
2026-01-14 01:36:02.45	356.87	10.23	-39.5	-54.7	3.8	1.49e+00	0	58	104	0	50	20950
2026-01-14 01:36:03.46	356.75	10.30	-39.9	-54.9	3.8	1.49e+00	0	58	104	0	50	21373
2026-01-14 01:36:04.47	356.62	10.36	-39.8	-54.8	3.8	1.49e+00	0	58	104	0	50	21231
2026-01-14 01:36:05.48	356.49	10.43	-40.0	-55.0	3.8	1.49e+00	0	58	104	0	50	21588
2026-01-14 01:36:06.49	356.36	10.49	-40.1	-54.9	3.8	1.49e+00	0	58	104	0	50	21485
2026-01-14 01:36:07.50	356.24	10.55	-40.0	-55.0	3.8	1.49e+00	0	58	104	0	51	20394
2026-01-14 01:36:08.51	356.11	10.62	-40.0	-54.9	3.8	1.49e+00	0	58	104	0	51	20203
2026-01-14 01:36:09.52	355.98	10.68	-40.0	-55.0	3.8	1.49e+00	0	58	104	0	51	20515
2026-01-14 01:36:10.54	355.85	10.75	-40.1	-54.9	3.8	1.49e+00	0	58	104	0	51	20206
2026-01-14 01:36:11.55	355.72	10.81	-40.0	-54.8	3.8	1.49e+00	0	58	104	0	51	20066
2026-01-14 01:36:12.56	355.58	10.87	-39.9	-54.8	3.8	1.49e+00	0	58	104	0	51	19961
2026-01-14 01:36:13.57	355.45	10.94	-40.0	-54.9	3.8	1.49e+00	0	58	104	0	51	20271
2026-01-14 01:36:14.58	355.32	11.00	-40.0	-54.9	3.8	1.49e+00	0	58	104	0	51	20173
2026-01-14 01:36:15.59	355.19	11.07	-40.1	-55.0	3.8	1.49e+00	0	58	104	0	51	20479
2026-01-14 01:36:16.60	355.05	11.13	-40.0	-55.1	3.8	1.49e+00	0	58	104	0	51	20658
2026-01-14 01:36:17.61	354.92	11.19	-40.5	-55.3	3.8	1.49e+00	0	58	104	0	51	21062
2026-01-14 01:36:18.62	354.78	11.26	-40.7	-55.4	3.8	1.49e+00	0	58	104	0	51	21382
2026-01-14 01:36:19.63	354.65	11.32	-40.4	-55.2	3.8	1.49e+00	0	58	104	0	51	20907
2026-01-14 01:36:20.64	354.51	11.39	-40.6	-55.3	3.8	1.49e+00	0	58	104	0	51	21144
2026-01-14 01:36:21.65	354.37	11.45	-40.4	-55.1	3.8	1.49e+00	0	58	104	0	51	20644
2026-01-14 01:36:22.66	354.24	11.52	-40.1	-55.1	3.8	1.49e+00	0	58	104	0	51	20675
2026-01-14 01:36:23.67	354.10	11.58	-40.5	-55.3	3.8	1.49e+00	0	58	104	0	51	21096
2026-01-14 01:36:24.68	353.96	11.64	-40.2	-55.2	3.8	1.49e+00	0	58	104	0	51	20832
2026-01-14 01:36:25.69	353.82	11.71	-40.5	-55.2	3.8	1.49e+00	0	58	104	0	51	20939
2026-01-14 01:36:26.70	353.68	11.77	-40.5	-55.3	3.8	1.49e+00	0	58	104	0	51	21039
2026-01-14 01:36:27.71	353.54	11.84	-40.0	-55.1	3.8	1.49e+00	0	58	104	0	51	20603
2026-01-14 01:36:28.72	353.40	11.90	-40.4	-55.2	3.8	1.49e+00	0	58	104	0	51	20820
2026-01-14 01:36:29.73	353.26	11.96	-40.1	-55.2	3.8	1.49e+00	0	58	104	0	51	20780
2026-01-14 01:36:30.74	353.12	12.03	-40.7	-55.4	3.8	1.49e+00	0	58	104	0	51	21291
2026-01-14 01:36:31.75	352.97	12.09	-40.2	-55.2	3.8	1.49e+00	0	58	104	0	51	20907
2026-01-14 01:36:32.76	352.83	12.16	-40.7	-55.3	3.8	1.49e+00	0	58	104	0	51	21222
2026-01-14 01:36:33.77	352.68	12.22	-40.4	-55.2	3.8	1.49e+00	0	58	104	0	51	20947
2026-01-14 01:36:34.78	352.54	12.28	-40.7	-55.3	3.8	1.49e+00	0	58	104	0	51	21233
2026-01-14 01:36:35.79	352.39	12.35	-40.7	-55.3	3.8	1.49e+00	0	58	104	0	52	20007
2026-01-14 01:36:36.81	352.25	12.41	-40.5	-55.3	3.8	1.49e+00	0	58	104	0	52	20034
2026-01-14 01:36:37.82	352.10	12.48	-40.6	-55.2	3.8	1.49e+00	0	58	104	0	52	19841
2026-01-14 01:36:38.83	351.95	12.54	-40.6	-55.4	3.8	1.49e+00	0	58	104	0	52	20139
2026-01-14 01:36:39.83	351.80	12.60	-40.6	-55.3	3.8	1.49e+00	0	58	104	0	52	19902
2026-01-14 01:36:40.84	351.66	12.67	-40.9	-55.5	3.8	1.49e+00	0	58	104	0	52	20464
2026-01-14 01:36:41.85	351.51	12.73	-40.5	-55.3	3.8	1.49e+00	0	58	104	0	52	19849
2026-01-14 01:36:42.86	351.36	12.80	-40.6	-55.4	3.8	1.49e+00	0	58	104	0	52	20122
2026-01-14 01:36:43.87	351.20	12.86	-40.7	-55.3	3.8	1.49e+00	0	58	104	0	52	20008
2026-01-14 01:36:44.88	351.05	12.92	-40.8	-55.5	3.8	1.49e+00	0	58	104	0	52	20387
2026-01-14 01:36:45.89	350.90	12.99	-40.7	-55.3	3.8	1.49e+00	0	58	104	0	52	20066
2026-01-14 01:36:46.90	350.75	13.05	-40.8	-55.5	3.8	1.49e+00	0	58	104	0	52	20534
2026-01-14 01:36:47.91	350.59	13.12	-40.7	-55.5	3.8	1.49e+00	0	58	104	0	52	20363
2026-01-14 01:36:48.92	350.44	13.18	-40.8	-55.5	3.8	1.49e+00	0	58	104	0	52	20535
2026-01-14 01:36:49.93	350.28	13.24	-40.9	-55.5	3.8	1.49e+00	0	58	104	0	52	20507
2026-01-14 01:36:50.94	350.13	13.31	-40.5	-55.4	3.8	1.49e+00	0	58	104	0	52	20283
2026-01-14 01:36:51.95	349.97	13.37	-40.6	-55.4	3.8	1.49e+00	0	58	104	0	52	20163
2026-01-14 01:36:52.96	349.82	13.43	-40.4	-55.4	3.8	1.49e+00	0	58	104	0	52	20274
2026-01-14 01:36:53.97	349.66	13.50	-40.8	-55.5	3.8	1.49e+00	0	58	104	0	52	20500
2026-01-14 01:36:54.98	349.50	13.56	-41.2	-55.9	3.8	1.49e+00	0	59	104	0	52	21275
2026-01-14 01:36:55.99	349.34	13.62	-40.9	-55.5	3.8	1.49e+00	0	59	104	0	52	20497
2026-01-14 01:36:57.00	349.18	13.69	-41.2	-55.9	3.8	1.49e+00	0	58	104	0	52	21405
2026-01-14 01:36:58.01	349.02	13.75	-40.8	-55.5	3.8	1.49e+00	0	58	104	0	52	20525
2026-01-14 01:36:59.02	348.86	13.81	-41.1	-55.9	3.8	1.49e+00	0	58	104	0	52	21328
2026-01-14 01:37:00.03	348.70	13.88	-41.2	-55.8	3.8	1.49e+00	0	58	104	0	52	21185
2026-01-14 01:37:01.04	348.53	13.94	-41.3	-56.0	3.8	1.49e+00	0	59	104	0	53	20346
2026-01-14 01:37:02.05	348.37	14.00	-41.1	-55.8	3.8	1.49e+00	0	59	104	0	53	19991
2026-01-14 01:37:03.06	348.21	14.07	-41.2	-56.1	3.8	1.49e+00	0	59	104	0	53	20557
2026-01-14 01:37:04.07	348.04	14.13	-41.2	-55.8	3.8	1.49e+00	0	59	104	0	53	20030
2026-01-14 01:37:05.08	347.88	14.19	-41.3	-56.1	3.8	1.49e+00	0	59	104	0	53	20683
2026-01-14 01:37:06.09	347.71	14.25	-41.2	-55.9	3.8	1.49e+00	0	59	104	0	53	20144
2026-01-14 01:37:07.10	347.54	14.32	-41.4	-56.0	3.8	1.49e+00	0	59	104	0	53	20524
2026-01-14 01:37:08.11	347.38	14.38	-41.1	-55.9	3.8	1.49e+00	0	59	104	0	53	20165
2026-01-14 01:37:09.12	347.21	14.44	-41.4	-56.1	3.8	1.49e+00	0	58	104	0	53	20561
2026-01-14 01:37:10.13	347.04	14.50	-41.2	-55.9	3.8	1.49e+00	0	59	104	0	53	20107
2026-01-14 01:37:11.14	346.87	14.57	-41.2	-55.8	3.8	1.49e+00	0	59	104	0	53	19985
2026-01-14 01:37:12.15	346.70	14.63	-41.2	-56.1	3.8	1.49e+00	0	59	104	0	53	20640
2026-01-14 01:37:13.16	346.53	14.69	-40.9	-55.7	3.8	1.49e+00	0	59	104	0	53	19689
2026-01-14 01:37:14.17	346.36	14.75	-41.3	-56.1	3.8	1.49e+00	0	59	104	0	53	20709
2026-01-14 01:37:15.18	346.18	14.82	-41.2	-55.8	3.8	1.49e+00	0	59	104	0	53	19854
2026-01-14 01:37:16.19	346.01	14.88	-40.8	-55.5	3.8	1.49e+00	0	59	104	0	53	19274
2026-01-14 01:37:17.20	345.84	14.94	-41.0	-55.6	3.8	1.49e+00	0	59	104	0	53	19569
2026-01-14 01:37:18.21	345.66	15.00	-40.7	-55.4	3.8	1.49e+00	0	59	104	0	53	19141
2026-01-14 01:37:19.22	345.48	15.06	-41.0	-55.8	3.8	1.49e+00	0	59	104	0	53	19868
2026-01-14 01:37:20.23	345.31	15.12	-41.0	-55.7	3.8	1.49e+00	0	59	104	0	53	19726
2026-01-14 01:37:21.24	345.13	15.18	-41.1	-55.7	3.8	1.49e+00	0	59	104	0	53	19783
2026-01-14 01:37:22.25	344.95	15.25	-40.8	-55.7	3.8	1.49e+00	0	59	104	0	53	19644
2026-01-14 01:37:23.26	344.77	15.31	-40.9	-55.5	3.8	1.49e+00	0	59	104	0	53	19236
2026-01-14 01:37:24.27	344.60	15.37	-40.5	-55.5	3.8	1.49e+00	0	59	104	0	53	19207
2026-01-14 01:37:25.28	344.42	15.43	-40.7	-55.4	3.8	1.49e+00	0	59	104	0	53	19072
2026-01-14 01:37:26.29	344.23	15.49	-40.4	-55.4	3.8	1.49e+00	0	59	104	0	52	20106
2026-01-14 01:37:27.30	344.05	15.55	-40.6	-55.4	3.8	1.49e+00	0	59	104	0	52	20211
2026-01-14 01:37:28.31	343.87	15.61	-41.0	-55.6	3.8	1.49e+00	0	59	104	0	52	20689
2026-01-14 01:37:29.32	343.69	15.67	-40.7	-55.4	3.8	1.49e+00	0	59	104	0	52	20263
2026-01-14 01:37:30.33	343.50	15.73	-40.8	-55.5	3.8	1.49e+00	0	59	104	0	52	20422
2026-01-14 01:37:31.34	343.32	15.79	-40.3	-55.3	3.8	1.49e+00	0	59	104	0	52	20061
2026-01-14 01:37:32.35	343.13	15.85	-40.8	-55.4	3.8	1.49e+00	0	59	104	0	52	20234
2026-01-14 01:37:33.36	342.95	15.91	-40.5	-55.3	3.8	1.49e+00	0	59	104	0	52	20055
2026-01-14 01:37:34.37	342.76	15.97	-40.7	-55.4	3.8	1.49e+00	0	59	104	0	52	20104
2026-01-14 01:37:35.38	342.57	16.03	-40.6	-55.3	3.8	1.49e+00	0	59	104	0	52	20008
2026-01-14 01:37:36.39	342.38	16.09	-40.7	-55.4	3.8	1.49e+00	0	59	104	0	52	20210
2026-01-14 01:37:37.40	342.20	16.14	-40.5	-55.4	3.8	1.49e+00	0	59	104	0	52	20073
2026-01-14 01:37:38.41	342.01	16.20	-40.7	-55.4	3.8	1.49e+00	0	59	104	0	52	20078
2026-01-14 01:37:39.42	341.82	16.26	-40.3	-55.3	3.8	1.49e+00	0	59	104	0	52	19951
2026-01-14 01:37:40.43	341.62	16.32	-40.6	-55.4	3.8	1.49e+00	0	59	104	0	52	20273
2026-01-14 01:37:41.44	341.43	16.38	-40.4	-55.4	3.8	1.49e+00	0	59	104	0	52	20234
2026-01-14 01:37:42.45	341.24	16.44	-40.6	-55.6	3.8	1.49e+00	0	59	104	0	52	20739
2026-01-14 01:37:43.46	341.05	16.49	-40.6	-55.6	3.8	1.49e+00	0	59	104	0	52	20681
2026-01-14 01:37:44.47	340.85	16.55	-40.5	-55.5	3.8	1.49e+00	0	59	104	0	52	20461
2026-01-14 01:37:45.48	340.66	16.61	-40.8	-55.7	3.8	1.49e+00	0	59	104	0	52	20829
2026-01-14 01:37:46.49	340.46	16.67	-40.6	-55.5	3.8	1.49e+00	0	59	104	0	52	20505
2026-01-14 01:37:47.50	340.26	16.72	-40.9	-55.6	3.8	1.49e+00	0	59	104	0	52	20674
2026-01-14 01:37:48.51	340.07	16.78	-41.1	-55.4	3.8	1.49e+00	0	59	104	0	53	19164
2026-01-14 01:37:49.53	339.87	16.84	-41.3	-54.9	3.8	1.49e+00	0	59	104	0	53	17910
2026-01-14 01:37:50.53	339.67	16.89	-42.2	-55.4	3.8	1.49e+00	0	59	104	0	54	18030
2026-01-14 01:37:51.54	339.47	16.95	-41.6	-52.5	4.4	1.48e+00	0	59	0	0	55	12219
2026-01-14 01:37:52.55	339.27	17.00	-41.2	-52.8	4.2	1.49e+00	0	59	104	0	54	13313
2026-01-14 01:37:53.56	339.07	17.06	-41.4	-49.6	6.1	5.81e-01	0	59	0	1048576	54	9198
2026-01-14 01:37:54.57	338.87	17.11	-41.2	-48.3	7.3	2.13e-01	0	60	0	3145728	54	7932
2026-01-14 01:37:55.58	338.66	17.17	-41.1	-47.5	8.2	6.40e-02	0	59	0	4194304	54	7249
2026-01-14 01:37:56.59	338.46	17.22	-41.1	-46.9	8.9	4.01e-02	0	59	0	6291456	54	6765
2026-01-14 01:37:57.60	338.25	17.28	-41.0	-46.4	9.6	1.88e-02	0	60	0	8388608	54	6360
2026-01-14 01:37:58.61	338.05	17.33	-41.1	-46.4	9.8	1.05e-02	0	59	0	10485760	53	6728
2026-01-14 01:37:59.62	337.84	17.39	-41.4	-47.0	9.2	1.56e-02	0	59	0	12582912	53	7269
2026-01-14 01:38:00.63	337.64	17.44	-41.5	-47.0	9.3	1.99e-02	0	59	0	14680064	53	7285
2026-01-14 01:38:01.64	337.43	17.49	-41.4	-46.5	9.9	1.02e-02	0	59	0	15728640	53	6875
2026-01-14 01:38:02.65	337.22	17.55	-41.1	-45.5	11.2	2.68e-03	0	59	0	17825792	53	6066
2026-01-14 01:38:03.66	337.01	17.60	-41.2	-45.5	11.3	8.01e-04	0	59	0	19922944	53	6091
2026-01-14 01:38:04.67	336.80	17.65	-41.5	-46.1	10.9	1.59e-03	0	59	0	22020096	53	6498
2026-01-14 01:38:05.68	336.59	17.71	-41.4	-45.8	11.2	1.40e-03	0	59	0	24117248	53	6347
2026-01-14 01:38:06.69	336.38	17.76	-41.6	-46.3	10.7	1.64e-03	0	60	0	25165824	53	6675
2026-01-14 01:38:07.70	336.17	17.81	-41.7	-46.5	10.6	3.33e-03	0	59	0	27262976	54	6435
2026-01-14 01:38:08.71	335.96	17.86	-41.8	-46.6	10.4	3.61e-03	0	59	0	29360128	54	6549
2026-01-14 01:38:09.72	335.75	17.91	-41.8	-46.7	10.4	4.79e-03	0	59	0	31457280	54	6576
2026-01-14 01:38:10.72	335.53	17.96	-41.8	-46.5	10.6	4.09e-03	0	59	0	33554432	54	6482
2026-01-14 01:38:11.73	335.32	18.01	-41.8	-46.5	10.7	3.10e-03	0	59	0	34603008	54	6461
2026-01-14 01:38:12.74	335.10	18.06	-41.6	-46.1	11.1	1.92e-03	0	59	0	36700160	54	6164
2026-01-14 01:38:13.75	334.89	18.11	-41.7	-46.2	11.1	1.49e-03	0	59	0	38797312	54	6237
2026-01-14 01:38:14.76	334.67	18.16	-41.6	-45.9	11.4	9.08e-04	0	59	0	40894464	54	6039
2026-01-14 01:38:15.77	334.45	18.21	-41.7	-46.0	11.4	1.11e-03	0	59	0	42991616	54	6095
2026-01-14 01:38:16.78	334.24	18.26	-41.8	-46.2	11.2	1.42e-03	0	59	0	44040192	54	6205
2026-01-14 01:38:17.79	334.02	18.31	-41.8	-46.2	11.1	1.43e-03	0	59	0	46137344	54	6268
2026-01-14 01:38:18.79	333.80	18.36	-41.8	-46.2	11.2	1.66e-03	0	60	0	48234496	54	6262
2026-01-14 01:38:19.80	333.58	18.41	-41.7	-46.0	11.4	1.28e-03	0	59	0	50331648	54	6076
2026-01-14 01:38:20.81	333.36	18.46	-41.6	-45.8	11.7	7.39e-04	0	59	0	52428800	54	5929
2026-01-14 01:38:21.82	333.14	18.50	-41.5	-45.5	11.9	3.97e-04	0	59	0	53477376	54	5776
2026-01-14 01:38:22.83	332.91	18.55	-41.4	-45.2	12.3	2.08e-04	0	59	0	55574528	54	5574
2026-01-14 01:38:23.84	332.69	18.60	-41.2	-44.9	12.7	1.49e-04	0	60	0	57671680	54	5357
2026-01-14 01:38:24.85	332.47	18.64	-41.3	-45.0	12.5	7.62e-05	0	59	0	59768832	54	5456
2026-01-14 01:38:25.86	332.24	18.69	-41.3	-45.0	12.6	9.30e-05	0	60	0	61865984	54	5423
2026-01-14 01:38:26.87	332.02	18.73	-41.3	-45.0	12.6	1.34e-04	0	60	0	62914560	54	5431
2026-01-14 01:38:27.88	331.79	18.78	-41.3	-44.9	12.7	1.07e-04	0	59	0	65011712	54	5388
2026-01-14 01:38:28.89	331.56	18.82	-41.4	-45.0	12.6	8.01e-05	0	59	0	67108864	54	5458
2026-01-14 01:38:29.90	331.34	18.87	-41.3	-44.9	12.7	6.33e-05	0	59	0	69206016	54	5361
2026-01-14 01:38:30.91	331.11	18.91	-41.2	-44.7	12.9	4.65e-05	0	60	0	71303168	54	5242
2026-01-14 01:38:31.92	330.88	18.96	-41.2	-44.8	12.9	4.50e-05	0	59	0	72351744	54	5284
2026-01-14 01:38:32.93	330.65	19.00	-41.3	-44.9	12.8	6.40e-05	0	60	0	74448896	54	5368
2026-01-14 01:38:33.94	330.42	19.04	-41.4	-45.1	12.6	9.30e-05	0	60	0	76546048	54	5504
2026-01-14 01:38:34.95	330.19	19.08	-41.6	-45.5	12.1	2.42e-04	0	60	0	78643200	54	5761
2026-01-14 01:38:35.96	329.96	19.13	-41.7	-45.6	12.0	2.75e-04	0	60	0	80740352	54	5855
2026-01-14 01:38:36.97	329.73	19.17	-41.7	-45.6	12.0	2.86e-04	0	60	0	82837504	54	5844
2026-01-14 01:38:37.98	329.50	19.21	-41.8	-45.8	11.9	4.41e-04	0	60	0	83886080	54	5948
2026-01-14 01:38:38.99	329.26	19.25	-41.7	-45.6	12.1	3.36e-04	0	60	0	85983232	54	5817
2026-01-14 01:38:40.00	329.03	19.29	-41.5	-45.3	12.4	2.38e-04	0	60	0	88080384	54	5597
2026-01-14 01:38:41.00	328.80	19.33	-41.6	-45.4	12.3	2.52e-04	0	60	0	90177536	54	5688
2026-01-14 01:38:42.02	328.56	19.37	-41.6	-45.4	12.3	2.08e-04	0	60	0	92274688	54	5681
2026-01-14 01:38:43.03	328.32	19.41	-41.5	-45.3	12.4	1.57e-04	0	60	0	93323264	54	5634
2026-01-14 01:38:44.04	328.09	19.45	-41.6	-45.4	12.3	2.17e-04	0	60	0	95420416	54	5671
2026-01-14 01:38:45.05	327.85	19.48	-41.7	-45.6	12.0	1.76e-04	0	60	0	97517568	54	5852
2026-01-14 01:38:46.06	327.61	19.52	-41.6	-45.5	12.2	1.78e-04	0	60	0	99614720	54	5755
2026-01-14 01:38:47.07	327.37	19.56	-41.6	-45.4	12.3	1.78e-04	0	60	0	101711872	54	5680
2026-01-14 01:38:48.07	327.14	19.60	-41.5	-45.3	12.4	1.72e-04	0	60	0	102760448	54	5621
2026-01-14 01:38:49.08	326.90	19.63	-41.4	-45.0	12.8	8.46e-05	0	60	0	104857600	54	5415
2026-01-14 01:38:50.09	326.66	19.67	-41.2	-44.7	13.0	4.42e-05	0	60	0	106954752	54	5239
2026-01-14 01:38:51.10	326.42	19.70	-41.1	-44.5	13.2	2.74e-05	0	60	0	109051904	54	5140
2026-01-14 01:38:52.11	326.18	19.74	-41.1	-44.5	13.2	2.05e-05	0	60	0	111149056	54	5149
2026-01-14 01:38:53.12	325.94	19.77	-41.1	-44.5	13.2	1.44e-05	0	60	0	112197632	54	5111
2026-01-14 01:38:54.13	325.69	19.81	-41.3	-44.9	12.9	3.96e-05	0	60	0	114294784	54	5347
2026-01-14 01:38:55.14	325.45	19.84	-41.5	-45.2	12.6	8.08e-05	0	60	0	116391936	54	5548
2026-01-14 01:38:56.15	325.21	19.87	-41.4	-45.1	12.7	6.94e-05	0	60	0	118489088	54	5468
2026-01-14 01:38:57.16	324.97	19.90	-41.4	-45.0	12.7	8.31e-05	0	60	0	120586240	54	5448
2026-01-14 01:38:58.16	324.72	19.94	-41.3	-44.7	13.0	5.34e-05	0	60	0	121634816	54	5251
2026-01-14 01:38:59.17	324.48	19.97	-41.3	-44.7	13.1	2.05e-05	0	60	0	123731968	54	5234
2026-01-14 01:39:00.19	324.23	20.00	-41.2	-44.6	13.1	2.44e-05	0	60	0	125829120	54	5201
2026-01-14 01:39:01.19	323.99	20.03	-41.3	-44.8	13.0	2.59e-05	0	60	0	127926272	54	5281
2026-01-14 01:39:02.20	323.74	20.06	-41.4	-45.0	12.8	5.56e-05	0	60	0	130023424	54	5418
2026-01-14 01:39:03.21	323.50	20.09	-41.6	-45.4	12.3	8.85e-05	0	60	0	131072000	54	5696
2026-01-14 01:39:04.22	323.25	20.12	-41.8	-45.7	12.0	3.19e-04	0	60	0	133169152	54	5873
2026-01-14 01:39:05.23	323.00	20.14	-41.9	-46.1	11.7	3.99e-04	0	60	0	135266304	54	6133
2026-01-14 01:39:06.24	322.75	20.17	-42.0	-46.3	11.5	5.72e-04	0	60	0	137363456	54	6297
2026-01-14 01:39:07.25	322.50	20.20	-42.0	-46.1	11.6	7.03e-04	0	60	0	139460608	54	6161
2026-01-14 01:39:08.26	322.26	20.23	-42.0	-46.2	11.5	8.93e-04	0	60	0	140509184	54	6234
2026-01-14 01:39:09.27	322.01	20.25	-42.0	-46.1	11.6	8.06e-04	0	60	0	142606336	54	6163
2026-01-14 01:39:10.28	321.76	20.28	-42.0	-46.1	11.6	6.71e-04	0	60	0	144703488	54	6151
2026-01-14 01:39:11.29	321.51	20.30	-42.0	-46.2	11.5	6.49e-04	0	60	0	146800640	54	6210
2026-01-14 01:39:12.30	321.26	20.33	-42.1	-46.4	11.3	9.93e-04	0	60	0	148897792	54	6402
2026-01-14 01:39:13.31	321.01	20.35	-42.2	-46.7	11.0	1.62e-03	0	60	0	150994944	54	6579
2026-01-14 01:39:14.32	320.75	20.37	-42.2	-46.8	10.9	2.33e-03	0	60	0	152043520	55	6308
2026-01-14 01:39:15.33	320.50	20.40	-42.4	-47.2	10.5	3.95e-03	0	60	0	154140672	55	6579
2026-01-14 01:39:16.33	320.25	20.42	-42.4	-47.1	10.6	3.77e-03	0	60	0	156237824	55	6498
2026-01-14 01:39:17.34	320.00	20.44	-42.3	-46.9	10.7	3.23e-03	0	60	0	158334976	55	6366
2026-01-14 01:39:18.36	319.74	20.46	-42.2	-46.6	11.1	2.17e-03	0	60	0	160432128	55	6134
2026-01-14 01:39:19.36	319.49	20.48	-42.1	-46.3	11.3	1.70e-03	0	60	0	161480704	55	5979
2026-01-14 01:39:20.37	319.24	20.50	-41.8	-45.9	11.8	6.11e-04	0	60	0	163577856	55	5676
2026-01-14 01:39:21.38	318.99	20.52	-41.8	-45.9	11.8	5.16e-04	0	60	0	165675008	55	5683
2026-01-14 01:39:22.40	318.73	20.54	-41.9	-46.1	11.6	5.39e-04	0	60	0	167772160	55	5807
2026-01-14 01:39:23.40	318.48	20.56	-42.2	-46.7	11.0	1.35e-03	0	60	0	169869312	55	6231
2026-01-14 01:39:24.41	318.22	20.58	-42.4	-47.2	10.4	3.02e-03	0	60	0	170917888	55	6602
2026-01-14 01:39:25.42	317.97	20.59	-42.5	-47.6	10.0	6.73e-03	0	60	0	173015040	55	6937
2026-01-14 01:39:26.43	317.71	20.61	-42.6	-47.8	9.8	9.35e-03	0	60	0	175112192	55	7044
2026-01-14 01:39:27.44	317.46	20.62	-42.5	-47.5	10.1	9.19e-03	0	60	0	177209344	55	6873
2026-01-14 01:39:28.45	317.20	20.64	-42.5	-47.5	10.2	8.70e-03	0	60	0	179306496	55	6808
2026-01-14 01:39:29.46	316.94	20.65	-42.3	-47.1	10.5	4.51e-03	0	60	0	180355072	55	6544
2026-01-14 01:39:30.47	316.69	20.67	-42.3	-46.9	10.8	2.53e-03	0	60	0	182452224	55	6394
2026-01-14 01:39:31.48	316.43	20.68	-42.2	-46.7	11.0	2.19e-03	0	60	0	184549376	55	6205
2026-01-14 01:39:32.49	316.17	20.69	-42.2	-46.8	10.9	2.33e-03	0	60	0	186646528	55	6316
2026-01-14 01:39:33.50	315.92	20.71	-42.3	-46.9	10.8	2.30e-03	0	60	0	188743680	55	6369
2026-01-14 01:39:34.51	315.66	20.72	-42.3	-46.9	10.8	2.62e-03	0	60	0	189792256	55	6391
2026-01-14 01:39:35.52	315.40	20.73	-42.3	-47.0	10.7	2.81e-03	0	60	0	191889408	55	6488
2026-01-14 01:39:36.53	315.15	20.74	-42.3	-47.0	10.6	3.10e-03	0	60	0	193986560	55	6440
2026-01-14 01:39:37.53	314.89	20.75	-42.2	-46.9	10.8	2.77e-03	0	60	0	196083712	55	6351
2026-01-14 01:39:38.54	314.63	20.76	-42.2	-46.7	11.0	2.24e-03	0	60	0	198180864	55	6252
2026-01-14 01:39:39.55	314.37	20.77	-42.2	-46.8	10.8	2.20e-03	0	60	0	199229440	55	6307
2026-01-14 01:39:40.56	314.12	20.78	-42.2	-46.8	10.9	2.10e-03	0	60	0	201326592	55	6286
2026-01-14 01:39:41.57	313.86	20.78	-42.2	-46.8	10.8	2.74e-03	0	60	0	203423744	55	6294
2026-01-14 01:39:42.58	313.60	20.79	-42.2	-46.9	10.7	2.53e-03	0	60	0	205520896	55	6368
2026-01-14 01:39:43.59	313.34	20.80	-42.3	-47.0	10.6	3.07e-03	0	60	0	207618048	55	6471
2026-01-14 01:39:44.60	313.08	20.80	-42.3	-47.1	10.5	3.94e-03	0	60	0	208666624	55	6551
2026-01-14 01:39:45.61	312.82	20.81	-42.4	-47.3	10.3	5.26e-03	0	60	0	210763776	55	6672
2026-01-14 01:39:46.62	312.56	20.81	-42.4	-47.4	10.2	5.92e-03	0	60	0	212860928	55	6783
2026-01-14 01:39:47.63	312.30	20.82	-42.5	-47.7	10.0	7.49e-03	0	60	0	214958080	55	6989
2026-01-14 01:39:48.64	312.04	20.82	-42.5	-47.6	10.0	8.65e-03	0	60	0	217055232	55	6888
2026-01-14 01:39:49.65	311.79	20.82	-42.5	-47.7	9.9	7.72e-03	0	60	0	219152384	55	7022
2026-01-14 01:39:50.66	311.53	20.82	-42.5	-47.6	10.0	7.97e-03	0	60	0	220200960	55	6926
2026-01-14 01:39:51.67	311.27	20.82	-42.4	-47.5	10.1	8.12e-03	0	60	0	222298112	55	6823
2026-01-14 01:39:52.68	311.01	20.82	-42.4	-47.4	10.2	6.25e-03	0	60	0	224395264	55	6736
2026-01-14 01:39:53.69	310.75	20.82	-42.3	-47.2	10.4	4.48e-03	0	60	0	226492416	55	6595
2026-01-14 01:39:54.69	310.49	20.82	-42.2	-46.9	10.6	3.38e-03	0	60	0	228589568	55	6411
2026-01-14 01:39:55.70	310.23	20.82	-42.0	-46.4	11.2	1.68e-03	0	60	0	229638144	55	6019
2026-01-14 01:39:56.71	309.97	20.82	-41.9	-46.2	11.5	8.78e-04	0	60	0	231735296	55	5871
2026-01-14 01:39:57.72	309.71	20.82	-41.7	-45.8	11.9	6.35e-04	0	60	0	233832448	55	5603
2026-01-14 01:39:58.73	309.45	20.82	-41.7	-45.7	12.0	4.41e-04	0	60	0	235929600	55	5532
2026-01-14 01:39:59.74	309.20	20.81	-41.7	-45.6	12.0	3.07e-04	0	60	0	238026752	55	5503
2026-01-14 01:40:00.75	308.94	20.81	-41.7	-45.8	11.8	3.71e-04	0	60	0	239075328	55	5640
2026-01-14 01:40:01.76	308.68	20.80	-41.8	-46.0	11.7	5.14e-04	0	60	0	241172480	55	5733
2026-01-14 01:40:02.77	308.42	20.80	-41.9	-46.1	11.6	6.89e-04	0	60	0	243269632	55	5809
2026-01-14 01:40:03.78	308.16	20.79	-42.0	-46.3	11.3	8.67e-04	0	60	0	245366784	55	5982
2026-01-14 01:40:04.79	307.90	20.78	-42.1	-46.7	10.9	1.39e-03	0	60	0	247463936	55	6212
2026-01-14 01:40:05.80	307.64	20.78	-42.2	-46.9	10.7	2.67e-03	0	60	0	248512512	55	6375
2026-01-14 01:40:06.81	307.38	20.77	-42.3	-47.1	10.6	3.36e-03	0	60	0	250609664	55	6508
2026-01-14 01:40:07.82	307.13	20.76	-42.3	-47.2	10.4	4.40e-03	0	60	0	252706816	55	6571
2026-01-14 01:40:08.83	306.87	20.75	-42.3	-47.1	10.5	3.93e-03	0	60	0	254803968	55	6514
2026-01-14 01:40:09.84	306.61	20.74	-42.3	-47.1	10.5	4.08e-03	0	60	0	256901120	55	6548
2026-01-14 01:40:10.85	306.35	20.73	-42.3	-47.1	10.5	3.55e-03	0	60	0	257949696	55	6534
2026-01-14 01:40:11.86	306.09	20.72	-42.3	-47.0	10.6	4.04e-03	0	60	0	260046848	55	6474
2026-01-14 01:40:12.87	305.84	20.71	-42.1	-46.7	11.0	2.57e-03	0	60	0	262144000	55	6207
2026-01-14 01:40:13.88	305.58	20.70	-41.9	-46.2	11.4	1.64e-03	0	60	0	264241152	55	5903
2026-01-14 01:40:14.89	305.32	20.68	-41.9	-46.1	11.5	7.29e-04	0	60	0	266338304	55	5823
2026-01-14 01:40:15.90	305.07	20.67	-41.9	-46.0	11.6	6.65e-04	0	60	0	267386880	55	5750
2026-01-14 01:40:16.91	304.81	20.66	-41.7	-45.7	11.9	4.27e-04	0	60	0	269484032	55	5578
2026-01-14 01:40:17.92	304.55	20.64	-41.7	-45.6	12.1	3.32e-04	0	60	0	271581184	55	5511
2026-01-14 01:40:18.92	304.30	20.63	-41.6	-45.3	12.3	3.00e-04	0	60	0	273678336	55	5339
2026-01-14 01:40:19.94	304.04	20.61	-41.6	-45.3	12.3	1.65e-04	0	60	0	275775488	55	5328
2026-01-14 01:40:20.94	303.79	20.59	-41.7	-45.5	12.1	1.95e-04	0	60	0	276824064	55	5462
2026-01-14 01:40:21.96	303.53	20.58	-41.5	-45.3	12.4	1.39e-04	0	60	0	278921216	55	5296
2026-01-14 01:40:22.97	303.27	20.56	-41.5	-45.2	12.6	1.37e-04	0	60	0	281018368	54	5537
2026-01-14 01:40:23.98	303.02	20.54	-41.5	-45.2	12.5	6.40e-05	0	60	0	283115520	54	5544
2026-01-14 01:40:24.99	302.76	20.52	-41.4	-44.9	12.8	7.47e-05	0	60	0	285212672	54	5390
2026-01-14 01:40:26.00	302.51	20.50	-41.3	-44.8	12.9	6.56e-05	0	60	0	287309824	54	5338
2026-01-14 01:40:27.01	302.26	20.48	-41.4	-45.1	12.7	1.07e-04	0	60	0	288358400	54	5466
2026-01-14 01:40:28.01	302.01	20.46	-41.5	-45.1	12.6	8.46e-05	0	60	0	290455552	54	5504
2026-01-14 01:40:29.02	301.75	20.44	-41.6	-45.4	12.3	1.04e-04	0	60	0	292552704	54	5699
2026-01-14 01:40:30.03	301.50	20.42	-41.4	-44.9	12.7	1.20e-04	0	60	0	294649856	54	5400
2026-01-14 01:40:31.04	301.25	20.40	-41.3	-44.8	12.9	3.81e-05	0	60	0	296747008	54	5291
2026-01-14 01:40:32.05	300.99	20.37	-41.2	-44.7	13.0	3.96e-05	0	60	0	297795584	54	5267
2026-01-14 01:40:33.06	300.74	20.35	-41.3	-44.8	12.9	5.18e-05	0	60	0	299892736	54	5303
2026-01-14 01:40:34.07	300.49	20.33	-41.4	-45.0	12.8	4.27e-05	0	60	0	301989888	54	5405
2026-01-14 01:40:35.08	300.24	20.30	-41.3	-44.9	12.8	6.56e-05	0	60	0	304087040	54	5360
2026-01-14 01:40:36.09	299.99	20.28	-41.4	-45.0	12.7	6.86e-05	0	60	0	306184192	54	5425
2026-01-14 01:40:37.10	299.74	20.25	-41.5	-45.1	12.6	8.54e-05	0	60	0	307232768	54	5505
2026-01-14 01:40:38.11	299.49	20.23	-41.5	-45.2	12.5	9.30e-05	0	60	0	309329920	54	5558
2026-01-14 01:40:39.12	299.24	20.20	-41.5	-45.2	12.4	1.35e-04	0	60	0	311427072	54	5566
2026-01-14 01:40:40.13	298.99	20.17	-41.7	-45.5	12.2	1.92e-04	0	60	0	313524224	54	5745
2026-01-14 01:40:41.14	298.74	20.14	-41.7	-45.5	12.2	2.04e-04	0	60	0	315621376	54	5754
2026-01-14 01:40:42.15	298.50	20.12	-41.7	-45.6	12.2	2.70e-04	0	60	0	316669952	54	5798
2026-01-14 01:40:43.16	298.25	20.09	-41.7	-45.6	12.1	2.77e-04	0	60	0	318767104	54	5807
2026-01-14 01:40:44.17	298.00	20.06	-41.7	-45.6	12.1	1.81e-04	0	60	0	320864256	54	5817
2026-01-14 01:40:45.17	297.76	20.03	-41.6	-45.4	12.3	1.82e-04	0	60	0	322961408	54	5670
2026-01-14 01:40:46.18	297.51	20.00	-41.6	-45.4	12.2	1.79e-04	0	60	0	325058560	54	5708
2026-01-14 01:40:47.20	297.26	19.97	-41.6	-45.4	12.3	2.08e-04	0	60	0	326107136	54	5702
2026-01-14 01:40:48.20	297.02	19.94	-41.5	-45.2	12.5	1.24e-04	0	60	0	328204288	54	5551
2026-01-14 01:40:49.22	296.77	19.90	-41.5	-45.2	12.5	1.39e-04	0	60	0	330301440	54	5566
2026-01-14 01:40:50.23	296.53	19.87	-41.6	-45.3	12.4	1.46e-04	0	60	0	332398592	54	5645
2026-01-14 01:40:51.24	296.29	19.84	-41.5	-45.3	12.4	1.48e-04	0	60	0	334495744	54	5619
2026-01-14 01:40:52.25	296.04	19.81	-41.7	-45.6	12.0	2.79e-04	0	60	0	335544320	54	5846
2026-01-14 01:40:53.26	295.80	19.77	-41.9	-46.1	11.5	4.55e-04	0	60	0	337641472	54	6183
2026-01-14 01:40:54.27	295.56	19.74	-42.2	-46.6	11.0	1.39e-03	0	60	0	339738624	54	6548
2026-01-14 01:40:55.28	295.32	19.70	-42.2	-46.7	10.8	2.10e-03	0	60	0	341835776	54	6641
2026-01-14 01:40:56.28	295.08	19.67	-42.3	-47.0	10.6	3.81e-03	0	60	0	343932928	55	6488
2026-01-14 01:40:57.30	294.84	19.63	-42.3	-47.0	10.6	3.19e-03	0	60	0	344981504	55	6475
2026-01-14 01:40:58.31	294.60	19.59	-42.2	-46.8	10.8	3.71e-03	0	60	0	347078656	55	6328
2026-01-14 01:40:59.32	294.36	19.56	-42.3	-46.9	10.7	3.04e-03	0	60	0	349175808	55	6415
2026-01-14 01:41:00.33	294.12	19.52	-42.1	-46.5	11.1	2.21e-03	0	60	0	351272960	55	6117
2026-01-14 01:41:01.34	293.88	19.48	-42.0	-46.4	11.2	1.33e-03	0	60	0	353370112	55	6001
2026-01-14 01:41:02.34	293.65	19.45	-42.2	-46.6	11.0	1.71e-03	0	60	0	355467264	55	6184
2026-01-14 01:41:03.35	293.41	19.41	-42.2	-46.7	10.9	2.10e-03	0	60	0	356515840	55	6229
2026-01-14 01:41:04.36	293.17	19.37	-42.2	-46.7	10.9	2.50e-03	0	60	0	358612992	55	6250
2026-01-14 01:41:05.37	292.94	19.33	-42.3	-46.8	10.8	2.80e-03	0	60	0	360710144	55	6341
2026-01-14 01:41:06.38	292.70	19.29	-42.3	-47.0	10.6	3.17e-03	0	61	0	362807296	55	6430
2026-01-14 01:41:07.39	292.47	19.25	-42.3	-47.0	10.6	3.97e-03	0	60	0	364904448	55	6461
2026-01-14 01:41:08.40	292.23	19.21	-42.3	-47.0	10.5	3.50e-03	0	60	0	365953024	55	6490
2026-01-14 01:41:09.41	292.00	19.17	-42.4	-47.2	10.4	4.17e-03	0	60	0	368050176	55	6602
2026-01-14 01:41:10.42	291.77	19.12	-42.4	-47.4	10.2	5.98e-03	0	60	0	370147328	55	6725
2026-01-14 01:41:11.43	291.54	19.08	-42.5	-47.5	10.2	7.15e-03	0	60	0	372244480	55	6802
2026-01-14 01:41:12.44	291.30	19.04	-42.5	-47.5	10.1	6.27e-03	0	60	0	374341632	55	6843
2026-01-14 01:41:13.45	291.07	19.00	-42.4	-47.2	10.4	6.02e-03	0	60	0	375390208	55	6588
2026-01-14 01:41:14.46	290.84	18.95	-42.3	-46.8	10.7	4.06e-03	0	60	0	377487360	55	6343
2026-01-14 01:41:15.47	290.62	18.91	-42.2	-46.7	10.9	2.33e-03	0	60	0	379584512	55	6219
2026-01-14 01:41:16.48	290.39	18.87	-42.1	-46.5	11.1	1.83e-03	0	60	0	381681664	55	6069
2026-01-14 01:41:17.49	290.16	18.82	-42.1	-46.5	11.1	1.40e-03	0	60	0	383778816	55	6101
2026-01-14 01:41:18.50	289.93	18.78	-42.1	-46.5	11.1	1.44e-03	0	60	0	384827392	55	6101
2026-01-14 01:41:19.51	289.70	18.73	-42.2	-46.7	10.9	1.80e-03	0	61	0	386924544	55	6230
2026-01-14 01:41:20.52	289.48	18.69	-42.2	-46.7	10.8	2.72e-03	0	60	0	389021696	55	6257
2026-01-14 01:41:21.53	289.25	18.64	-42.2	-46.7	10.9	2.65e-03	0	60	0	391118848	55	6230
2026-01-14 01:41:22.54	289.03	18.59	-42.1	-46.5	11.1	1.94e-03	0	60	0	393216000	55	6067
2026-01-14 01:41:23.55	288.81	18.55	-42.1	-46.5	11.0	1.86e-03	0	60	0	394264576	55	6089
2026-01-14 01:41:24.56	288.58	18.50	-42.0	-46.4	11.2	1.42e-03	0	60	0	396361728	55	6003
2026-01-14 01:41:25.57	288.36	18.45	-42.0	-46.2	11.3	1.21e-03	0	60	0	398458880	55	5916
2026-01-14 01:41:26.58	288.14	18.40	-42.0	-46.2	11.4	1.02e-03	0	60	0	400556032	55	5905
2026-01-14 01:41:27.59	287.92	18.36	-41.7	-45.7	11.8	6.83e-04	0	60	0	402653184	55	5550
2026-01-14 01:41:28.60	287.70	18.31	-41.6	-45.5	12.0	3.77e-04	0	60	0	403701760	55	5450
2026-01-14 01:41:29.61	287.48	18.26	-41.6	-45.5	12.1	2.77e-04	0	60	0	405798912	55	5413
2026-01-14 01:41:30.62	287.26	18.21	-41.7	-45.6	11.9	2.27e-04	0	60	0	407896064	55	5515
2026-01-14 01:41:31.63	287.04	18.16	-41.6	-45.5	12.0	2.39e-04	0	60	0	409993216	55	5451
2026-01-14 01:41:32.64	286.82	18.11	-41.7	-45.6	12.0	2.57e-04	0	60	0	412090368	55	5490
2026-01-14 01:41:33.65	286.61	18.06	-41.6	-45.5	12.0	3.02e-04	0	61	0	413138944	55	5463
2026-01-14 01:41:34.66	286.39	18.01	-41.7	-45.6	12.0	2.88e-04	0	60	0	415236096	55	5474
2026-01-14 01:41:35.67	286.17	17.96	-41.7	-45.7	11.8	2.97e-04	0	60	0	417333248	55	5588
2026-01-14 01:41:36.68	285.96	17.91	-41.7	-45.8	11.7	4.26e-04	0	60	0	419430400	55	5629
2026-01-14 01:41:37.68	285.75	17.86	-42.0	-46.3	11.2	8.23e-04	0	60	0	421527552	55	5962
2026-01-14 01:41:38.69	285.53	17.81	-42.2	-46.9	10.6	2.23e-03	0	60	0	423624704	55	6380
2026-01-14 01:41:39.70	285.32	17.75	-42.5	-47.5	10.0	5.83e-03	0	60	0	424673280	55	6823
2026-01-14 01:41:40.71	285.11	17.70	-42.6	-47.9	9.5	1.14e-02	0	60	0	426770432	55	7127
2026-01-14 01:41:41.72	284.90	17.65	-42.5	-47.7	9.7	9.51e-03	0	60	0	428867584	55	7016
2026-01-14 01:41:42.73	284.69	17.60	-42.5	-47.6	9.8	1.06e-02	0	60	0	430964736	55	6949
2026-01-14 01:41:43.74	284.48	17.54	-42.4	-47.3	10.1	8.29e-03	0	60	0	433061888	55	6709
2026-01-14 01:41:44.75	284.27	17.49	-42.3	-47.3	10.2	8.10e-03	0	60	0	434110464	55	6649
2026-01-14 01:41:45.76	284.06	17.44	-42.4	-47.6	9.8	8.61e-03	0	60	0	436207616	55	6905
2026-01-14 01:41:46.77	283.86	17.38	-42.5	-47.9	9.4	1.59e-02	0	60	0	438304768	55	7162
2026-01-14 01:41:47.78	283.65	17.33	-42.6	-48.0	9.4	1.49e-02	0	60	0	440401920	55	7234
2026-01-14 01:41:48.79	283.44	17.27	-42.7	-48.2	9.2	2.04e-02	0	60	0	442499072	55	7445
2026-01-14 01:41:49.80	283.24	17.22	-42.9	-48.7	8.8	2.65e-02	0	60	0	443547648	56	7422
2026-01-14 01:41:50.81	283.03	17.16	-42.9	-48.7	8.8	3.55e-02	0	60	0	445644800	56	7418
2026-01-14 01:41:51.82	282.83	17.11	-42.8	-48.5	9.0	3.40e-02	0	60	0	447741952	56	7266
2026-01-14 01:41:52.83	282.63	17.05	-42.8	-48.4	9.1	2.40e-02	0	60	0	449839104	56	7153
2026-01-14 01:41:53.84	282.43	17.00	-42.6	-48.0	9.5	1.71e-02	0	60	0	451936256	56	6831
2026-01-14 01:41:54.85	282.22	16.94	-42.5	-47.6	9.9	1.10e-02	0	60	0	452984832	56	6536
2026-01-14 01:41:55.85	282.03	16.89	-42.4	-47.2	10.3	6.17e-03	0	61	0	455081984	56	6242
2026-01-14 01:41:56.86	281.83	16.83	-42.3	-47.1	10.6	3.94e-03	0	61	0	457179136	56	6143
2026-01-14 01:41:57.87	281.63	16.77	-42.2	-46.8	10.7	2.99e-03	0	61	0	459276288	56	5925
2026-01-14 01:41:58.88	281.43	16.72	-42.2	-46.7	10.8	2.72e-03	0	60	0	461373440	56	5911
2026-01-14 01:41:59.89	281.23	16.66	-42.2	-46.7	10.8	2.24e-03	0	61	0	462422016	56	5916
2026-01-14 01:42:00.90	281.03	16.60	-42.1	-46.4	11.1	2.02e-03	0	60	0	464519168	56	5715
2026-01-14 01:42:01.91	280.84	16.54	-42.1	-46.6	10.9	1.79e-03	0	61	0	466616320	56	5846
2026-01-14 01:42:02.92	280.64	16.49	-42.2	-46.8	10.7	2.85e-03	0	60	0	468713472	56	5942
2026-01-14 01:42:03.93	280.45	16.43	-42.2	-47.0	10.5	3.50e-03	0	61	0	470810624	56	6084
2026-01-14 01:42:04.94	280.26	16.37	-42.3	-47.0	10.6	3.88e-03	0	60	0	471859200	56	6095
2026-01-14 01:42:05.95	280.06	16.31	-42.5	-47.6	9.9	6.85e-03	0	61	0	473956352	56	6544
2026-01-14 01:42:06.96	279.87	16.25	-42.6	-47.9	9.6	1.05e-02	0	61	0	476053504	56	6730
2026-01-14 01:42:07.97	279.68	16.19	-42.5	-47.6	10.0	1.08e-02	0	60	0	478150656	56	6504
2026-01-14 01:42:08.98	279.49	16.14	-42.5	-47.5	10.0	8.42e-03	0	61	0	480247808	56	6478
2026-01-14 01:42:09.99	279.30	16.08	-42.3	-47.2	10.3	5.84e-03	0	60	0	481296384	56	6224
2026-01-14 01:42:11.00	279.11	16.02	-42.1	-46.7	10.8	3.68e-03	0	60	0	483393536	56	5875
2026-01-14 01:42:12.01	278.92	15.96	-41.8	-46.1	11.2	1.47e-03	0	61	0	485490688	55	5815
2026-01-14 01:42:13.02	278.73	15.90	-41.9	-46.4	11.0	1.26e-03	0	60	0	487587840	55	6005
2026-01-14 01:42:14.03	278.55	15.84	-41.9	-46.4	11.0	1.73e-03	0	61	0	489684992	55	6002
2026-01-14 01:42:15.03	278.36	15.78	-42.0	-46.6	10.7	2.42e-03	0	60	0	491782144	55	6152
2026-01-14 01:42:16.04	278.18	15.72	-42.1	-46.8	10.5	4.59e-03	0	61	0	492830720	55	6344
2026-01-14 01:42:17.05	277.99	15.66	-42.3	-47.3	10.0	4.96e-03	0	60	0	494927872	55	6703
2026-01-14 01:42:18.06	277.81	15.60	-42.5	-47.9	9.3	1.03e-02	0	60	0	497025024	55	7186
2026-01-14 01:42:19.07	277.62	15.54	-42.6	-48.2	9.0	1.88e-02	0	60	0	499122176	55	7428
2026-01-14 01:42:20.08	277.44	15.48	-42.9	-48.9	8.5	3.47e-02	0	61	0	501219328	56	7547
2026-01-14 01:42:21.09	277.26	15.42	-42.9	-48.7	8.7	4.40e-02	0	61	0	502267904	56	7455
2026-01-14 01:42:22.10	277.08	15.36	-42.9	-49.0	8.4	4.39e-02	0	61	0	504365056	56	7660
2026-01-14 01:42:23.11	276.90	15.30	-42.9	-48.9	8.5	4.37e-02	0	61	0	506462208	56	7577
2026-01-14 01:42:24.12	276.72	15.23	-42.9	-48.9	8.5	4.12e-02	0	61	0	508559360	56	7566
2026-01-14 01:42:25.13	276.54	15.17	-42.7	-48.4	9.0	2.75e-02	0	60	0	510656512	56	7150
2026-01-14 01:42:26.14	276.36	15.11	-42.8	-48.6	9.0	2.41e-02	0	60	0	511705088	56	7314
2026-01-14 01:42:27.15	276.19	15.05	-42.6	-48.0	9.4	2.33e-02	0	61	0	513802240	56	6859
2026-01-14 01:42:28.16	276.01	14.99	-42.6	-47.9	9.5	1.46e-02	0	61	0	515899392	56	6731
2026-01-14 01:42:29.17	275.83	14.93	-42.6	-47.9	9.4	1.43e-02	0	60	0	517996544	56	6789
2026-01-14 01:42:30.18	275.66	14.87	-42.6	-48.1	9.3	1.58e-02	0	60	0	520093696	56	6917
2026-01-14 01:42:31.19	275.48	14.80	-42.6	-48.0	9.4	1.58e-02	0	60	0	521142272	56	6816
2026-01-14 01:42:32.19	275.31	14.74	-42.5	-47.9	9.5	1.20e-02	0	61	0	523239424	56	6731
2026-01-14 01:42:33.20	275.14	14.68	-42.5	-47.7	9.7	1.22e-02	0	60	0	525336576	56	6624
2026-01-14 01:42:34.21	274.97	14.62	-42.4	-47.5	9.8	1.19e-02	0	60	0	527433728	56	6472
2026-01-14 01:42:35.22	274.80	14.56	-42.5	-47.6	9.8	1.05e-02	0	61	0	529530880	56	6528
2026-01-14 01:42:36.23	274.62	14.49	-42.5	-47.7	9.7	1.00e-02	0	60	0	530579456	56	6593
2026-01-14 01:42:37.24	274.45	14.43	-42.6	-48.0	9.4	1.06e-02	0	60	0	532676608	56	6836
2026-01-14 01:42:38.25	274.29	14.37	-42.6	-48.0	9.4	1.54e-02	0	61	0	534773760	56	6858
2026-01-14 01:42:39.26	274.12	14.30	-42.7	-48.2	9.1	1.92e-02	0	61	0	536870912	56	7035
2026-01-14 01:42:40.27	273.95	14.24	-42.8	-48.6	8.8	2.88e-02	0	61	0	538968064	56	7302
2026-01-14 01:42:41.28	273.78	14.18	-42.8	-48.5	8.9	3.00e-02	0	61	0	540016640	56	7280
2026-01-14 01:42:42.29	273.62	14.12	-42.7	-48.4	9.0	2.75e-02	0	61	0	542113792	56	7177
2026-01-14 01:42:43.30	273.45	14.05	-42.6	-48.0	9.3	2.18e-02	0	61	0	544210944	56	6879
2026-01-14 01:42:44.31	273.28	13.99	-42.5	-47.8	9.6	1.39e-02	0	61	0	546308096	56	6652
2026-01-14 01:42:45.32	273.12	13.93	-42.3	-47.2	10.1	9.39e-03	0	61	0	548405248	56	6270
2026-01-14 01:42:46.33	272.96	13.86	-42.3	-47.1	10.2	6.25e-03	0	61	0	549453824	56	6196
2026-01-14 01:42:47.34	272.79	13.80	-42.2	-47.1	10.3	4.82e-03	0	60	0	551550976	56	6133
2026-01-14 01:42:48.35	272.63	13.74	-42.2	-47.0	10.4	4.12e-03	0	61	0	553648128	56	6074
2026-01-14 01:42:49.36	272.47	13.67	-42.3	-47.1	10.3	4.47e-03	0	61	0	555745280	56	6161
2026-01-14 01:42:50.37	272.31	13.61	-42.3	-47.1	10.2	5.73e-03	0	61	0	557842432	56	6197
2026-01-14 01:42:51.38	272.15	13.55	-42.4	-47.4	10.0	6.49e-03	0	61	0	559939584	56	6358
2026-01-14 01:42:52.39	271.99	13.48	-42.4	-47.4	10.0	8.34e-03	0	61	0	560988160	56	6417
2026-01-14 01:42:53.40	271.83	13.42	-42.4	-47.5	9.9	8.16e-03	0	61	0	563085312	56	6453
2026-01-14 01:42:54.41	271.67	13.35	-42.4	-47.5	9.9	8.78e-03	0	61	0	565182464	56	6428
2026-01-14 01:42:55.42	271.52	13.29	-42.4	-47.6	9.8	9.80e-03	0	61	0	567279616	56	6509
2026-01-14 01:42:56.43	271.36	13.23	-42.5	-47.6	9.7	1.17e-02	0	61	0	569376768	56	6559
2026-01-14 01:42:57.44	271.20	13.16	-42.4	-47.6	9.8	1.04e-02	0	61	0	570425344	56	6503
2026-01-14 01:42:58.45	271.05	13.10	-42.4	-47.5	9.9	8.33e-03	0	61	0	572522496	56	6435
2026-01-14 01:42:59.46	270.89	13.04	-42.3	-47.4	10.0	8.54e-03	0	61	0	574619648	56	6366
2026-01-14 01:43:00.47	270.74	12.97	-42.3	-47.2	10.1	7.41e-03	0	61	0	576716800	56	6218
2026-01-14 01:43:01.48	270.59	12.91	-42.3	-47.2	10.1	7.30e-03	0	61	0	578813952	56	6220
2026-01-14 01:43:02.49	270.43	12.84	-42.2	-46.8	10.6	4.53e-03	0	61	0	579862528	56	5943
2026-01-14 01:43:03.50	270.28	12.78	-42.2	-46.6	10.7	3.35e-03	0	61	0	581959680	56	5853
2026-01-14 01:43:04.51	270.13	12.72	-42.2	-46.7	10.6	3.21e-03	0	61	0	584056832	56	5898
2026-01-14 01:43:05.52	269.98	12.65	-42.1	-46.6	10.8	2.94e-03	0	61	0	586153984	56	5789
2026-01-14 01:43:06.53	269.83	12.59	-42.1	-46.4	11.0	2.67e-03	0	61	0	588251136	56	5693
2026-01-14 01:43:07.54	269.68	12.52	-42.1	-46.4	11.0	1.99e-03	0	61	0	589299712	56	5683
2026-01-14 01:43:08.55	269.53	12.46	-41.8	-46.0	11.2	1.60e-03	0	61	0	591396864	55	5736
2026-01-14 01:43:09.56	269.39	12.39	-41.6	-45.6	11.5	8.66e-04	0	61	0	593494016	55	5528
2026-01-14 01:43:10.57	269.24	12.33	-41.5	-45.4	11.8	5.19e-04	0	61	0	595591168	54	5686
2026-01-14 01:43:11.58	269.09	12.27	-41.4	-45.2	12.0	3.37e-04	0	61	0	597688320	54	5561
2026-01-14 01:43:12.59	268.95	12.20	-41.3	-45.1	12.2	2.61e-04	0	60	0	598736896	54	5476
2026-01-14 01:43:13.60	268.80	12.14	-41.3	-45.1	12.1	2.19e-04	0	61	0	600834048	54	5469
2026-01-14 01:43:14.61	268.66	12.07	-41.4	-45.2	12.0	2.68e-04	0	61	0	602931200	54	5549
2026-01-14 01:43:15.62	268.51	12.01	-41.5	-45.4	11.8	4.31e-04	0	61	0	605028352	54	5706
2026-01-14 01:43:16.63	268.37	11.94	-41.6	-45.7	11.5	6.79e-04	0	61	0	607125504	54	5868
2026-01-14 01:43:17.64	268.23	11.88	-41.8	-46.0	11.2	1.16e-03	0	61	0	608174080	54	6092
2026-01-14 01:43:18.65	268.08	11.82	-41.8	-46.2	11.0	1.63e-03	0	61	0	610271232	54	6242
2026-01-14 01:43:19.66	267.94	11.75	-41.9	-46.4	10.7	2.36e-03	0	61	0	612368384	54	6400
2026-01-14 01:43:20.67	267.80	11.69	-42.0	-46.6	10.6	2.97e-03	0	61	0	614465536	54	6498
2026-01-14 01:43:21.68	267.66	11.62	-42.0	-46.7	10.4	3.86e-03	0	61	0	616562688	54	6585
2026-01-14 01:43:22.69	267.52	11.56	-42.0	-46.5	10.6	4.85e-03	0	61	0	617611264	54	6488
2026-01-14 01:43:23.70	267.38	11.49	-42.0	-46.7	10.4	3.99e-03	0	61	0	619708416	54	6573
2026-01-14 01:43:24.71	267.24	11.43	-41.9	-46.5	10.6	3.55e-03	0	61	0	621805568	54	6421
2026-01-14 01:43:25.72	267.11	11.37	-41.8	-46.3	10.8	2.67e-03	0	61	0	623902720	54	6290
2026-01-14 01:43:26.73	266.97	11.30	-41.8	-46.1	11.0	2.32e-03	0	61	0	625999872	54	6177
2026-01-14 01:43:27.74	266.83	11.24	-41.7	-45.9	11.2	1.86e-03	0	61	0	628097024	54	6016
2026-01-14 01:43:28.75	266.70	11.17	-41.6	-45.8	11.3	1.44e-03	0	61	0	629145600	54	5943
2026-01-14 01:43:29.76	266.56	11.11	-41.6	-45.7	11.4	1.11e-03	0	61	0	631242752	54	5887
2026-01-14 01:43:30.77	266.43	11.04	-41.6	-45.8	11.2	1.17e-03	0	61	0	633339904	54	5970
2026-01-14 01:43:31.78	266.29	10.98	-41.5	-45.7	11.3	1.21e-03	0	61	0	635437056	54	5880
2026-01-14 01:43:32.79	266.16	10.92	-41.5	-45.7	11.4	1.15e-03	0	61	0	637534208	54	5873
2026-01-14 01:43:33.80	266.03	10.85	-41.6	-45.9	11.1	1.69e-03	0	61	0	638582784	54	6034
2026-01-14 01:43:34.81	265.89	10.79	-41.6	-45.9	11.1	1.55e-03	0	61	0	640679936	54	5999
2026-01-14 01:43:35.82	265.76	10.72	-41.6	-46.0	10.9	1.64e-03	0	61	0	642777088	54	6100
2026-01-14 01:43:36.83	265.63	10.66	-41.5	-45.8	11.0	1.83e-03	0	61	0	644874240	54	5981
2026-01-14 01:43:37.83	265.50	10.60	-41.6	-46.0	10.9	1.98e-03	0	60	0	646971392	54	6096
2026-01-14 01:43:38.84	265.37	10.53	-41.6	-46.0	10.9	2.01e-03	0	61	0	648019968	54	6064
2026-01-14 01:43:39.85	265.24	10.47	-41.7	-46.3	10.5	3.21e-03	0	61	0	650117120	54	6314
2026-01-14 01:43:40.86	265.11	10.40	-41.7	-46.4	10.4	4.50e-03	0	61	0	652214272	54	6368
2026-01-14 01:43:41.87	264.98	10.34	-41.8	-46.4	10.4	3.76e-03	0	61	0	654311424	54	6388
2026-01-14 01:43:42.88	264.86	10.27	-41.9	-46.7	10.1	6.17e-03	0	61	0	656408576	54	6615
2026-01-14 01:43:43.89	264.73	10.21	-41.8	-46.7	10.1	7.19e-03	0	61	0	657457152	54	6586
2026-01-14 01:43:44.90	264.60	10.15	-41.9	-46.9	9.8	9.64e-03	0	61	0	659554304	54	6798
2026-01-14 01:43:45.91	264.48	10.08	-41.9	-47.0	9.8	1.03e-02	0	61	0	661651456	54	6817
2026-01-14 01:43:46.92	264.35	10.02	-42.0	-47.1	9.7	1.04e-02	0	61	0	663748608	54	6892
2026-01-14 01:43:47.93	264.23	9.96	-42.0	-46.9	9.8	8.99e-03	0	61	0	665845760	54	6792
2026-01-14 01:43:48.94	264.10	9.89	-42.0	-47.0	9.8	9.44e-03	0	61	0	666894336	54	6832
2026-01-14 01:43:49.95	263.98	9.83	-41.8	-46.7	10.0	8.72e-03	0	61	0	668991488	54	6610
2026-01-14 01:43:50.96	263.86	9.76	-41.7	-46.4	10.4	5.66e-03	0	61	0	671088640	54	6352
2026-01-14 01:43:51.97	263.73	9.70	-41.7	-46.4	10.4	4.06e-03	0	61	0	673185792	54	6381
2026-01-14 01:43:52.98	263.61	9.64	-41.4	-45.8	10.9	2.93e-03	0	61	0	675282944	54	5967
2026-01-14 01:43:53.99	263.49	9.57	-41.3	-45.6	11.1	1.80e-03	0	60	0	676331520	54	5835
2026-01-14 01:43:54.99	263.37	9.51	-41.3	-45.6	11.2	1.86e-03	0	61	0	678428672	54	5805
2026-01-14 01:43:56.00	263.25	9.45	-41.4	-45.6	11.1	1.56e-03	0	61	0	680525824	54	5838
2026-01-14 01:43:57.01	263.13	9.38	-41.4	-45.7	11.1	1.63e-03	0	61	0	682622976	54	5865
2026-01-14 01:43:58.02	263.01	9.32	-41.5	-46.0	10.7	1.59e-03	0	61	0	684720128	54	6079
2026-01-14 01:43:59.04	262.89	9.26	-41.6	-46.1	10.6	3.48e-03	0	61	0	685768704	54	6179
2026-01-14 01:44:00.04	262.77	9.19	-41.6	-46.3	10.5	3.99e-03	0	61	0	687865856	54	6276
2026-01-14 01:44:01.05	262.65	9.13	-41.8	-46.8	9.9	6.90e-03	0	61	0	689963008	54	6681
2026-01-14 01:44:02.06	262.54	9.07	-41.9	-47.0	9.7	9.88e-03	0	61	0	692060160	54	6853
2026-01-14 01:44:03.07	262.42	9.00	-42.0	-47.2	9.5	1.17e-02	0	61	0	694157312	54	6983
2026-01-14 01:44:04.08	262.30	8.94	-42.0	-47.3	9.4	1.60e-02	0	61	0	696254464	54	7048
2026-01-14 01:44:05.09	262.19	8.88	-42.0	-47.4	9.3	1.81e-02	0	61	0	697303040	54	7143
2026-01-14 01:44:06.10	262.07	8.81	-42.1	-47.4	9.3	2.10e-02	0	61	0	699400192	54	7196
2026-01-14 01:44:07.11	261.96	8.75	-42.1	-47.5	9.2	2.01e-02	0	61	0	701497344	54	7225
2026-01-14 01:44:08.12	261.84	8.69	-42.2	-47.8	8.9	2.29e-02	0	61	0	703594496	55	7042
2026-01-14 01:44:09.13	261.73	8.62	-42.1	-47.4	9.4	1.84e-02	0	61	0	705691648	55	6733
2026-01-14 01:44:10.14	261.61	8.56	-42.1	-47.5	9.3	1.72e-02	0	61	0	706740224	55	6815
2026-01-14 01:44:11.15	261.50	8.50	-42.1	-47.4	9.3	2.05e-02	0	61	0	708837376	55	6740
2026-01-14 01:44:12.15	261.39	8.44	-42.1	-47.5	9.2	1.90e-02	0	61	0	710934528	55	6853
2026-01-14 01:44:13.16	261.28	8.37	-42.2	-47.8	8.9	2.38e-02	0	61	0	713031680	55	7061
2026-01-14 01:44:14.17	261.17	8.31	-42.1	-47.3	9.4	1.87e-02	0	61	0	715128832	55	6721
2026-01-14 01:44:15.18	261.06	8.25	-42.1	-47.3	9.4	1.42e-02	0	61	0	716177408	55	6690
2026-01-14 01:44:16.19	260.95	8.19	-42.0	-47.2	9.6	1.47e-02	0	61	0	718274560	55	6592
2026-01-14 01:44:17.20	260.84	8.12	-42.1	-47.4	9.3	1.66e-02	0	61	0	720371712	55	6781
2026-01-14 01:44:18.21	260.73	8.06	-42.1	-47.3	9.4	1.68e-02	0	61	0	722468864	55	6695
2026-01-14 01:44:19.22	260.62	8.00	-42.2	-47.6	9.2	1.65e-02	0	61	0	724566016	55	6887
2026-01-14 01:44:20.23	260.51	7.94	-44.5	-58.5	3.8	1.37e+00	0	61	104	724566016	59	19253
2026-01-14 01:44:21.24	260.40	7.87	-44.7	-59.2	3.8	1.49e+00	0	61	104	724566016	60	19681
2026-01-14 01:44:22.25	260.29	7.81	-44.9	-59.3	3.8	1.49e+00	0	61	104	724566016	60	19968
2026-01-14 01:44:23.26	260.19	7.75	-45.0	-59.5	3.8	1.49e+00	0	61	104	724566016	60	20359
2026-01-14 01:44:24.27	260.08	7.69	-45.1	-59.6	3.8	1.49e+00	0	61	104	724566016	60	20541
2026-01-14 01:44:25.28	259.97	7.62	-45.2	-59.6	3.8	1.49e+00	0	61	104	724566016	60	20642
2026-01-14 01:44:26.29	259.87	7.56	-45.2	-59.6	3.8	1.49e+00	0	61	104	724566016	61	19568
2026-01-14 01:44:27.30	259.76	7.50	-45.3	-59.7	3.8	1.49e+00	0	61	104	724566016	61	19699
2026-01-14 01:44:28.31	259.66	7.44	-45.2	-59.6	3.8	1.49e+00	0	61	104	724566016	61	19587
2026-01-14 01:44:29.32	259.55	7.38	-45.2	-59.7	3.8	1.49e+00	0	61	104	724566016	61	19622
2026-01-14 01:44:30.33	259.45	7.32	-45.2	-59.6	3.8	1.49e+00	0	61	104	724566016	61	19547
2026-01-14 01:44:31.34	259.35	7.25	-45.2	-59.6	3.8	1.49e+00	0	61	104	724566016	61	19558
2026-01-14 01:44:32.35	259.24	7.19	-45.2	-59.6	3.8	1.49e+00	0	61	104	724566016	61	19543
2026-01-14 01:44:33.36	259.14	7.13	-45.2	-59.6	3.8	1.49e+00	0	61	104	724566016	61	19556
2026-01-14 01:44:34.37	259.04	7.07	-45.3	-59.7	3.8	1.49e+00	0	61	104	724566016	61	19638
2026-01-14 01:44:35.38	258.94	7.01	-45.3	-59.6	3.8	1.49e+00	0	61	104	724566016	61	19606
2026-01-14 01:44:36.39	258.84	6.95	-45.3	-59.7	3.8	1.49e+00	0	61	104	724566016	61	19707
2026-01-14 01:44:37.40	258.74	6.88	-45.2	-59.6	3.8	1.49e+00	0	61	104	724566016	61	19593
2026-01-14 01:44:38.41	258.63	6.82	-45.2	-59.6	3.8	1.49e+00	0	61	104	724566016	61	19580
2026-01-14 01:44:39.42	258.54	6.76	-45.2	-59.6	3.8	1.49e+00	0	61	104	724566016	61	19504
2026-01-14 01:44:40.43	258.44	6.70	-45.2	-59.7	3.8	1.49e+00	0	61	104	724566016	61	19617
2026-01-14 01:44:41.44	258.34	6.64	-45.2	-59.6	3.8	1.49e+00	0	61	104	724566016	61	19555
2026-01-14 01:44:42.45	258.24	6.58	-45.2	-59.6	3.8	1.49e+00	0	61	104	724566016	61	19540
2026-01-14 01:44:43.46	258.14	6.52	-45.2	-59.6	3.8	1.49e+00	0	61	104	724566016	61	19473
2026-01-14 01:44:44.47	258.04	6.46	-45.2	-59.6	3.8	1.49e+00	0	61	104	724566016	61	19454
2026-01-14 01:44:45.48	257.94	6.40	-45.2	-59.6	3.8	1.49e+00	0	61	104	724566016	61	19441
2026-01-14 01:44:46.49	257.85	6.34	-45.2	-59.6	3.8	1.49e+00	0	61	104	724566016	61	19441
2026-01-14 01:44:47.50	257.75	6.27	-45.1	-59.6	3.8	1.49e+00	0	61	104	724566016	61	19404
2026-01-14 01:44:48.51	257.65	6.21	-45.2	-59.6	3.8	1.49e+00	0	61	104	724566016	61	19476
2026-01-14 01:44:49.52	257.56	6.15	-45.2	-59.6	3.8	1.49e+00	0	61	104	724566016	61	19496
2026-01-14 01:44:50.53	257.46	6.09	-45.2	-59.6	3.8	1.49e+00	0	61	104	724566016	61	19477
2026-01-14 01:44:51.54	257.37	6.03	-45.1	-59.6	3.8	1.49e+00	0	61	104	724566016	61	19416
2026-01-14 01:44:52.55	257.27	5.97	-45.1	-59.5	3.8	1.49e+00	0	61	104	724566016	61	19387
2026-01-14 01:44:53.56	257.18	5.91	-45.1	-59.6	3.8	1.49e+00	0	61	104	724566016	61	19418
2026-01-14 01:44:54.57	257.09	5.85	-45.1	-59.6	3.8	1.49e+00	0	61	104	724566016	61	19410
2026-01-14 01:44:55.59	256.99	5.79	-45.1	-59.5	3.8	1.49e+00	0	61	104	724566016	61	19365
2026-01-14 01:44:56.59	256.90	5.73	-45.1	-59.6	3.8	1.49e+00	0	61	104	724566016	61	19440
2026-01-14 01:44:57.61	256.81	5.67	-45.1	-59.6	3.8	1.49e+00	0	61	104	724566016	61	19427
2026-01-14 01:44:58.62	256.71	5.61	-45.1	-59.6	3.8	1.49e+00	0	61	104	724566016	61	19428
2026-01-14 01:44:59.63	256.62	5.55	-45.1	-59.6	3.8	1.49e+00	0	61	104	724566016	61	19416
2026-01-14 01:45:00.64	256.53	5.49	-45.1	-59.6	3.8	1.49e+00	0	61	104	724566016	61	19420
2026-01-14 01:45:01.65	256.44	5.43	-45.1	-59.6	3.8	1.49e+00	0	61	104	724566016	61	19432
2026-01-14 01:45:02.66	256.35	5.37	-45.1	-59.5	3.8	1.49e+00	0	61	104	724566016	61	19385
2026-01-14 01:45:03.67	256.26	5.31	-45.1	-59.6	3.8	1.49e+00	0	61	104	724566016	61	19397
2026-01-14 01:45:04.68	256.17	5.25	-45.1	-59.5	3.8	1.49e+00	0	61	104	724566016	61	19369
2026-01-14 01:45:05.70	256.08	5.19	-45.1	-59.5	3.8	1.49e+00	0	61	104	724566016	61	19386
2026-01-14 01:45:06.71	255.99	5.13	-45.1	-59.5	3.8	1.49e+00	0	61	104	724566016	61	19371
2026-01-14 01:45:07.72	255.90	5.07	-45.1	-59.5	3.8	1.49e+00	0	61	104	724566016	61	19345
2026-01-14 01:45:08.73	255.81	5.01	-45.1	-59.5	3.8	1.49e+00	0	61	104	724566016	61	19389
2026-01-14 01:45:09.74	255.73	4.96	-45.1	-59.5	3.8	1.49e+00	0	61	104	724566016	61	19339
2026-01-14 01:45:10.75	255.64	4.90	-45.1	-59.5	3.8	1.49e+00	0	61	104	724566016	61	19326
2026-01-14 01:45:11.76	255.55	4.84	-45.1	-59.5	3.8	1.49e+00	0	61	104	724566016	61	19372
2026-01-14 01:45:12.77	255.46	4.78	-45.1	-59.5	3.8	1.49e+00	0	61	104	724566016	61	19321
2026-01-14 01:45:13.78	255.38	4.72	-45.1	-59.6	3.8	1.49e+00	0	61	104	724566016	61	19404
2026-01-14 01:45:14.79	255.29	4.66	-45.1	-59.5	3.8	1.49e+00	0	61	104	724566016	61	19338
2026-01-14 01:45:15.81	255.20	4.60	-45.1	-59.6	3.8	1.49e+00	0	61	104	724566016	61	19396
2026-01-14 01:45:16.82	255.12	4.54	-45.1	-59.5	3.8	1.49e+00	0	61	104	724566016	61	19334
2026-01-14 01:45:17.83	255.03	4.48	-45.1	-59.5	3.8	1.49e+00	0	61	104	724566016	61	19357
2026-01-14 01:45:18.84	254.95	4.43	-45.1	-59.6	3.8	1.49e+00	0	61	104	724566016	61	19402
2026-01-14 01:45:19.85	254.86	4.37	-45.1	-59.5	3.8	1.49e+00	0	61	104	724566016	61	19265
2026-01-14 01:45:20.86	254.78	4.31	-45.1	-59.5	3.8	1.49e+00	0	61	104	724566016	61	19335
2026-01-14 01:45:21.87	254.70	4.25	-45.1	-59.5	3.8	1.49e+00	0	61	104	724566016	61	19330
2026-01-14 01:45:22.88	254.61	4.19	-45.1	-59.5	3.8	1.49e+00	0	61	104	724566016	61	19323
2026-01-14 01:45:23.89	254.53	4.13	-45.1	-59.5	3.8	1.49e+00	0	61	104	724566016	61	19355
2026-01-14 01:45:24.90	254.45	4.08	-45.1	-59.5	3.8	1.49e+00	0	61	104	724566016	61	19315
2026-01-14 01:45:25.91	254.36	4.02	-45.1	-59.5	3.8	1.49e+00	0	61	104	724566016	61	19282
2026-01-14 01:45:26.92	254.28	3.96	-45.1	-59.5	3.8	1.49e+00	0	61	104	724566016	61	19355
2026-01-14 01:45:27.93	254.20	3.90	-45.1	-59.5	3.8	1.49e+00	0	61	104	724566016	61	19316
2026-01-14 01:45:28.94	254.12	3.84	-45.1	-59.5	3.8	1.49e+00	0	61	104	724566016	61	19344
2026-01-14 01:45:29.95	254.04	3.79	-45.1	-59.5	3.8	1.49e+00	0	61	104	724566016	61	19271
2026-01-14 01:45:30.97	253.96	3.73	-45.1	-59.5	3.8	1.49e+00	0	61	104	724566016	61	19272
2026-01-14 01:45:31.98	253.88	3.67	-45.1	-59.5	3.8	1.49e+00	0	61	104	724566016	61	19252
2026-01-14 01:45:32.99	253.80	3.61	-45.1	-59.5	3.8	1.49e+00	0	61	104	724566016	61	19328
2026-01-14 01:45:34.00	253.72	3.55	-45.1	-59.5	3.8	1.49e+00	0	61	104	724566016	61	19280
2026-01-14 01:45:35.01	253.64	3.50	-45.1	-59.5	3.8	1.49e+00	0	61	104	724566016	61	19301
2026-01-14 01:45:36.02	253.56	3.44	-45.1	-59.5	3.8	1.49e+00	0	61	104	724566016	61	19313
2026-01-14 01:45:37.03	253.48	3.38	-45.1	-59.5	3.8	1.49e+00	0	61	104	724566016	61	19266
