passes_logs/2026/01/14/R2.0S_Moscow/R2.0S_Moscow__20260114_055823_FENGYUN_3E_rec.log

#Pass ID: 20260114_055823_FENGYUN 3E
#Satellite: FENGYUN 3E
#Configuration: FENGYUN 3E
#almurnet v.1.7.20251203
#Start time: 2026-01-14 05:58:23

#Version: 2.2.20231116
#Station: R2.0S_Moscow
#Location: 37.707566 lon 55.798166 lat
#TLE: 1 49008U 21062A   26013.31447241  .00000001  00000+0  21294-4 0  9992
#TLE: 2 49008  98.7491  18.4630 0001950 139.8565 220.2756 14.19884983234609

#Time	Az	El	Level	Level2	SNR	BER	BlckErr	Temp	State	Recorded	gain1	gain2
2026-01-14 05:58:23.76	9.16	2.04	-39.6	-51.1	3.8	8.45e-01	0	51	0	0	50	13057
2026-01-14 05:58:24.77	9.08	2.09	-39.6	-51.1	3.8	8.46e-01	0	51	104	0	49	13843
2026-01-14 05:58:25.79	9.00	2.15	-39.7	-51.1	3.8	8.47e-01	0	51	104	0	49	13845
2026-01-14 05:58:26.80	8.92	2.20	-39.6	-51.1	3.8	8.46e-01	0	51	104	0	49	13861
2026-01-14 05:58:27.81	8.84	2.26	-39.6	-51.1	3.8	8.46e-01	0	51	104	0	49	13812
2026-01-14 05:58:28.82	8.76	2.31	-39.6	-51.1	3.8	8.46e-01	0	51	104	0	49	13849
2026-01-14 05:58:29.83	8.68	2.36	-39.6	-51.1	3.8	8.46e-01	0	51	104	0	49	13810
2026-01-14 05:58:30.84	8.60	2.42	-39.6	-51.1	3.8	8.47e-01	0	51	104	0	49	13843
2026-01-14 05:58:31.85	8.52	2.47	-39.6	-51.1	3.8	8.47e-01	0	52	104	0	49	13840
2026-01-14 05:58:32.86	8.44	2.52	-39.6	-51.1	3.8	8.45e-01	0	52	104	0	49	13838
2026-01-14 05:58:33.87	8.36	2.58	-39.6	-51.1	3.8	8.46e-01	0	52	104	0	49	13804
2026-01-14 05:58:34.88	8.28	2.63	-39.6	-51.1	3.8	8.47e-01	0	52	104	0	49	13805
2026-01-14 05:58:35.89	8.20	2.68	-39.6	-51.1	3.8	8.47e-01	0	52	104	0	49	13797
2026-01-14 05:58:36.90	8.12	2.74	-39.6	-51.1	3.8	8.46e-01	0	52	104	0	49	13764
2026-01-14 05:58:37.91	8.04	2.79	-39.7	-51.1	3.8	8.47e-01	0	52	104	0	49	13808
2026-01-14 05:58:38.92	7.96	2.85	-39.6	-51.1	3.8	8.46e-01	0	52	104	0	49	13803
2026-01-14 05:58:39.93	7.88	2.90	-39.6	-51.1	3.8	8.46e-01	0	52	104	0	49	13831
2026-01-14 05:58:40.94	7.79	2.96	-39.6	-51.1	3.8	8.46e-01	0	52	104	0	49	13805
2026-01-14 05:58:41.95	7.71	3.01	-39.6	-51.1	3.8	8.46e-01	0	52	104	0	49	13822
2026-01-14 05:58:42.97	7.63	3.06	-39.6	-51.1	3.8	8.46e-01	0	52	104	0	49	13833
2026-01-14 05:58:43.98	7.54	3.12	-39.7	-51.1	3.8	8.47e-01	0	52	104	0	49	13812
2026-01-14 05:58:44.99	7.46	3.17	-39.6	-51.1	3.8	8.46e-01	0	53	104	0	49	13772
2026-01-14 05:58:46.00	7.37	3.23	-39.7	-51.1	3.8	8.47e-01	0	53	104	0	49	13827
2026-01-14 05:58:47.01	7.29	3.28	-39.6	-51.1	3.8	8.45e-01	0	53	104	0	49	13822
2026-01-14 05:58:48.02	7.20	3.34	-39.6	-51.1	3.8	8.45e-01	0	53	104	0	49	13800
2026-01-14 05:58:49.03	7.12	3.39	-39.6	-51.1	3.8	8.46e-01	0	53	104	0	49	13822
2026-01-14 05:58:50.04	7.03	3.45	-39.6	-51.1	3.8	8.47e-01	0	53	104	0	49	13781
2026-01-14 05:58:51.06	6.95	3.50	-39.6	-51.1	3.8	8.47e-01	0	53	104	0	49	13790
2026-01-14 05:58:52.07	6.86	3.55	-39.6	-51.1	3.8	8.46e-01	0	53	104	0	49	13821
2026-01-14 05:58:53.08	6.77	3.61	-39.6	-51.1	3.8	8.46e-01	0	53	104	0	49	13809
2026-01-14 05:58:54.09	6.69	3.66	-39.6	-51.1	3.8	8.47e-01	0	53	104	0	49	13766
2026-01-14 05:58:55.10	6.60	3.72	-39.6	-51.1	3.8	8.47e-01	0	53	104	0	49	13830
2026-01-14 05:58:56.11	6.51	3.77	-39.6	-51.1	3.8	8.45e-01	0	53	104	0	49	13790
2026-01-14 05:58:57.12	6.42	3.83	-39.7	-51.1	3.8	8.46e-01	0	53	104	0	49	13803
2026-01-14 05:58:58.13	6.34	3.88	-39.6	-51.1	3.8	8.46e-01	0	53	104	0	49	13794
2026-01-14 05:58:59.14	6.25	3.94	-39.6	-51.1	3.8	8.47e-01	0	53	104	0	49	13779
2026-01-14 05:59:00.15	6.16	3.99	-39.6	-51.1	3.8	8.46e-01	0	54	104	0	49	13787
2026-01-14 05:59:01.16	6.07	4.05	-39.6	-51.1	3.8	8.45e-01	0	54	104	0	49	13789
2026-01-14 05:59:02.17	5.98	4.10	-39.7	-51.1	3.8	8.47e-01	0	54	104	0	49	13783
2026-01-14 05:59:03.19	5.89	4.16	-39.6	-51.1	3.8	8.46e-01	0	54	104	0	49	13795
2026-01-14 05:59:04.20	5.80	4.22	-39.6	-51.1	3.8	8.47e-01	0	54	104	0	49	13794
2026-01-14 05:59:05.21	5.71	4.27	-39.6	-51.1	3.8	8.46e-01	0	54	104	0	49	13792
2026-01-14 05:59:06.22	5.62	4.33	-39.6	-51.1	3.8	8.46e-01	0	54	104	0	49	13817
2026-01-14 05:59:07.23	5.52	4.38	-39.6	-51.1	3.8	8.45e-01	0	54	104	0	49	13866
2026-01-14 05:59:08.24	5.43	4.44	-39.6	-51.1	3.8	8.47e-01	0	54	104	0	49	13853
2026-01-14 05:59:09.25	5.34	4.49	-39.7	-51.1	3.8	8.47e-01	0	54	104	0	49	13819
2026-01-14 05:59:10.26	5.25	4.55	-39.6	-51.1	3.8	8.45e-01	0	54	104	0	49	13778
2026-01-14 05:59:11.27	5.15	4.60	-39.6	-51.1	3.8	8.46e-01	0	54	104	0	49	13779
2026-01-14 05:59:12.29	5.06	4.66	-39.6	-51.1	3.8	8.46e-01	0	54	104	0	49	13788
2026-01-14 05:59:13.30	4.97	4.71	-39.7	-51.1	3.8	8.46e-01	0	54	104	0	49	13842
2026-01-14 05:59:14.31	4.87	4.77	-39.6	-51.1	3.8	8.46e-01	0	54	104	0	49	13799
2026-01-14 05:59:15.32	4.78	4.83	-39.6	-51.1	3.8	8.46e-01	0	54	104	0	49	13761
2026-01-14 05:59:16.33	4.68	4.88	-39.6	-51.1	3.8	8.45e-01	0	55	104	0	49	13795
2026-01-14 05:59:17.34	4.59	4.94	-39.6	-51.1	3.8	8.45e-01	0	55	104	0	49	13797
2026-01-14 05:59:18.35	4.49	4.99	-39.6	-51.1	3.8	8.46e-01	0	55	104	0	49	13739
2026-01-14 05:59:19.36	4.40	5.05	-39.6	-51.1	3.8	8.46e-01	0	55	104	0	49	13772
2026-01-14 05:59:20.37	4.30	5.11	-39.6	-51.1	3.8	8.46e-01	0	55	104	0	49	13788
2026-01-14 05:59:21.38	4.20	5.16	-39.6	-51.1	3.8	8.46e-01	0	55	104	0	49	13816
2026-01-14 05:59:22.39	4.11	5.22	-39.6	-51.1	3.8	8.46e-01	0	55	104	0	49	13782
2026-01-14 05:59:23.40	4.01	5.27	-39.6	-51.1	3.8	8.46e-01	0	55	104	0	49	13789
2026-01-14 05:59:24.42	3.91	5.33	-39.7	-51.1	3.8	8.46e-01	0	55	104	0	49	13798
2026-01-14 05:59:25.43	3.81	5.39	-39.6	-51.1	3.8	8.45e-01	0	55	104	0	49	13790
2026-01-14 05:59:26.43	3.71	5.44	-39.6	-51.1	3.8	8.46e-01	0	55	104	0	49	13801
2026-01-14 05:59:27.45	3.61	5.50	-39.6	-51.1	3.8	8.46e-01	0	55	104	0	49	13804
2026-01-14 05:59:28.46	3.51	5.55	-39.6	-51.1	3.8	8.46e-01	0	55	104	0	49	13813
2026-01-14 05:59:29.47	3.41	5.61	-39.6	-51.1	3.8	8.46e-01	0	55	104	0	49	13785
2026-01-14 05:59:30.48	3.31	5.67	-39.6	-51.1	3.8	8.46e-01	0	55	104	0	49	13765
2026-01-14 05:59:31.49	3.21	5.72	-39.6	-51.1	3.8	8.46e-01	0	55	104	0	49	13836
2026-01-14 05:59:32.50	3.11	5.78	-39.6	-51.1	3.8	8.46e-01	0	55	104	0	49	13766
2026-01-14 05:59:33.51	3.01	5.84	-39.6	-51.1	3.8	8.46e-01	0	55	104	0	49	13762
2026-01-14 05:59:34.52	2.91	5.89	-39.6	-51.1	3.8	8.46e-01	0	56	104	0	49	13798
2026-01-14 05:59:35.53	2.81	5.95	-39.6	-51.1	3.8	8.45e-01	0	55	104	0	49	13798
2026-01-14 05:59:36.55	2.70	6.01	-39.6	-51.1	3.8	8.45e-01	0	55	104	0	49	13759
2026-01-14 05:59:37.56	2.60	6.06	-39.6	-51.1	3.8	8.46e-01	0	56	104	0	49	13774
2026-01-14 05:59:38.57	2.50	6.12	-39.6	-51.1	3.8	8.47e-01	0	56	104	0	49	13814
2026-01-14 05:59:39.58	2.39	6.18	-39.6	-51.1	3.8	8.45e-01	0	55	104	0	49	13809
2026-01-14 05:59:40.59	2.29	6.23	-39.6	-51.1	3.8	8.47e-01	0	56	104	0	49	13773
2026-01-14 05:59:41.60	2.18	6.29	-39.6	-51.1	3.8	8.46e-01	0	56	104	0	49	13765
2026-01-14 05:59:42.61	2.08	6.35	-39.6	-51.1	3.8	8.45e-01	0	56	104	0	49	13766
2026-01-14 05:59:43.62	1.97	6.40	-39.6	-51.1	3.8	8.47e-01	0	56	104	0	49	13815
2026-01-14 05:59:44.63	1.87	6.46	-39.6	-51.1	3.8	8.45e-01	0	56	104	0	49	13741
2026-01-14 05:59:45.64	1.76	6.52	-39.6	-51.1	3.8	8.46e-01	0	56	104	0	49	13789
2026-01-14 05:59:46.65	1.65	6.57	-39.6	-51.1	3.8	8.46e-01	0	56	104	0	49	13734
2026-01-14 05:59:47.66	1.55	6.63	-39.6	-51.1	3.8	8.46e-01	0	56	104	0	49	13804
2026-01-14 05:59:48.67	1.44	6.69	-39.6	-51.1	3.8	8.45e-01	0	56	104	0	49	13771
2026-01-14 05:59:49.69	1.33	6.74	-39.6	-51.1	3.8	8.45e-01	0	56	104	0	49	13738
2026-01-14 05:59:50.70	1.22	6.80	-39.6	-51.1	3.8	8.46e-01	0	56	104	0	49	13761
2026-01-14 05:59:51.71	1.11	6.86	-39.6	-51.1	3.8	8.45e-01	0	56	104	0	49	13795
2026-01-14 05:59:52.72	1.00	6.92	-39.6	-51.1	3.8	8.47e-01	0	56	104	0	49	13821
2026-01-14 05:59:53.73	0.89	6.97	-39.6	-51.1	3.8	8.45e-01	0	56	104	0	49	13804
2026-01-14 05:59:54.74	0.78	7.03	-39.6	-51.1	3.8	8.46e-01	0	56	104	0	49	13794
2026-01-14 05:59:55.75	0.67	7.09	-39.6	-51.1	3.8	8.46e-01	0	56	104	0	49	13765
2026-01-14 05:59:56.76	0.56	7.14	-39.6	-51.1	3.8	8.45e-01	0	56	104	0	49	13816
2026-01-14 05:59:57.77	0.45	7.20	-39.6	-51.1	3.8	8.45e-01	0	56	104	0	49	13843
2026-01-14 05:59:58.78	0.33	7.26	-39.6	-51.1	3.8	8.46e-01	0	56	104	0	49	13773
2026-01-14 05:59:59.79	0.22	7.32	-39.6	-51.1	3.8	8.47e-01	0	56	104	0	49	13767
2026-01-14 06:00:00.80	0.11	7.37	-39.6	-51.1	3.8	8.46e-01	0	56	104	0	49	13790
2026-01-14 06:00:01.82	359.99	7.43	-39.6	-51.1	3.8	8.45e-01	0	56	104	0	49	13788
2026-01-14 06:00:02.83	359.88	7.49	-39.5	-51.1	3.8	8.47e-01	0	57	104	0	49	13814
2026-01-14 06:00:03.84	359.76	7.55	-39.6	-51.1	3.8	8.46e-01	0	57	104	0	49	13799
2026-01-14 06:00:04.85	359.65	7.60	-39.6	-51.1	3.8	8.46e-01	0	56	104	0	49	13811
2026-01-14 06:00:05.86	359.53	7.66	-39.6	-51.1	3.8	8.46e-01	0	57	104	0	49	13790
2026-01-14 06:00:06.87	359.42	7.72	-39.6	-51.1	3.8	8.46e-01	0	57	104	0	49	13788
2026-01-14 06:00:07.88	359.30	7.77	-39.6	-51.1	3.8	8.46e-01	0	57	104	0	49	13782
2026-01-14 06:00:08.89	359.18	7.83	-39.6	-51.1	3.8	8.46e-01	0	57	104	0	49	13728
2026-01-14 06:00:09.90	359.07	7.89	-39.6	-51.1	3.8	8.45e-01	0	57	104	0	49	13761
2026-01-14 06:00:10.92	358.95	7.95	-39.6	-51.1	3.8	8.45e-01	0	57	104	0	49	13836
2026-01-14 06:00:11.93	358.83	8.00	-39.6	-51.1	3.8	8.46e-01	0	57	104	0	49	13824
2026-01-14 06:00:12.93	358.71	8.06	-39.8	-51.1	3.8	8.46e-01	0	57	104	0	49	13846
2026-01-14 06:00:13.94	358.59	8.12	-39.9	-51.2	3.8	8.45e-01	0	57	104	0	49	13935
2026-01-14 06:00:14.95	358.47	8.18	-39.7	-51.2	3.8	8.47e-01	0	57	104	0	49	14043
2026-01-14 06:00:15.96	358.35	8.23	-40.0	-51.2	3.8	8.46e-01	0	57	104	0	49	14025
2026-01-14 06:00:16.97	358.23	8.29	-39.4	-51.1	3.8	8.47e-01	0	57	104	0	49	13849
2026-01-14 06:00:17.98	358.11	8.35	-40.1	-51.2	3.8	8.47e-01	0	57	104	0	49	14018
2026-01-14 06:00:18.99	357.99	8.41	-39.3	-51.1	3.8	8.45e-01	0	57	104	0	49	13853
2026-01-14 06:00:20.00	357.87	8.46	-40.0	-51.2	3.8	8.47e-01	0	57	104	0	49	14001
2026-01-14 06:00:21.01	357.74	8.52	-39.8	-51.1	3.8	8.46e-01	0	57	104	0	49	13854
2026-01-14 06:00:22.02	357.62	8.58	-40.0	-51.2	3.8	8.46e-01	0	57	104	0	49	13988
2026-01-14 06:00:23.02	357.50	8.64	-39.8	-51.1	3.8	8.46e-01	0	57	104	0	49	13843
2026-01-14 06:00:24.03	357.37	8.69	-39.9	-51.2	3.8	8.45e-01	0	57	104	0	49	13946
2026-01-14 06:00:25.04	357.25	8.75	-39.7	-51.1	3.8	8.46e-01	0	57	104	0	49	13827
2026-01-14 06:00:26.05	357.12	8.81	-39.9	-51.2	3.8	8.46e-01	0	57	104	0	49	14001
2026-01-14 06:00:27.06	357.00	8.87	-39.9	-51.1	3.8	8.46e-01	0	57	104	0	49	13805
2026-01-14 06:00:28.07	356.87	8.92	-39.9	-51.1	3.8	8.48e-01	0	57	104	0	49	13885
2026-01-14 06:00:29.08	356.74	8.98	-39.9	-51.2	3.8	8.47e-01	0	57	104	0	49	13937
2026-01-14 06:00:30.09	356.62	9.04	-40.0	-51.2	3.8	8.45e-01	0	57	104	0	49	13915
2026-01-14 06:00:31.10	356.49	9.10	-39.9	-51.1	3.8	8.45e-01	0	57	104	0	49	13858
2026-01-14 06:00:32.11	356.36	9.15	-40.0	-51.2	3.8	8.45e-01	0	58	104	0	49	13961
2026-01-14 06:00:33.12	356.23	9.21	-39.8	-51.1	3.8	8.47e-01	0	57	104	0	49	13870
2026-01-14 06:00:34.13	356.10	9.27	-40.1	-51.2	3.8	8.46e-01	0	57	104	0	49	14042
2026-01-14 06:00:35.14	355.97	9.33	-39.8	-51.2	3.8	8.46e-01	0	58	104	0	49	13912
2026-01-14 06:00:36.15	355.84	9.38	-40.4	-51.3	3.8	8.47e-01	0	58	104	0	50	13330
2026-01-14 06:00:37.16	355.71	9.44	-39.9	-51.2	3.8	8.46e-01	0	58	104	0	50	13115
2026-01-14 06:00:38.17	355.58	9.50	-40.4	-51.4	3.8	8.45e-01	0	57	104	0	50	13452
2026-01-14 06:00:39.18	355.45	9.56	-40.0	-51.1	3.8	8.47e-01	0	57	104	0	50	13099
2026-01-14 06:00:40.19	355.31	9.61	-40.4	-51.4	3.8	8.46e-01	0	58	104	0	50	13534
2026-01-14 06:00:41.20	355.18	9.67	-40.1	-51.2	3.8	8.46e-01	0	58	104	0	50	13238
2026-01-14 06:00:42.21	355.05	9.73	-40.4	-51.5	3.8	8.47e-01	0	58	104	0	50	13697
2026-01-14 06:00:43.22	354.91	9.79	-40.2	-51.3	3.8	8.47e-01	0	57	104	0	50	13296
2026-01-14 06:00:44.23	354.78	9.84	-40.5	-51.5	3.8	8.46e-01	0	58	104	0	50	13668
2026-01-14 06:00:45.24	354.64	9.90	-40.3	-51.3	3.8	8.46e-01	0	58	104	0	50	13331
2026-01-14 06:00:46.25	354.51	9.96	-40.6	-51.5	3.8	8.46e-01	0	58	104	0	50	13699
2026-01-14 06:00:47.25	354.37	10.01	-40.4	-51.4	3.8	8.46e-01	0	58	104	0	50	13464
2026-01-14 06:00:48.26	354.23	10.07	-40.6	-51.5	3.8	8.46e-01	0	58	104	0	50	13710
2026-01-14 06:00:49.27	354.10	10.13	-40.5	-51.4	3.8	8.47e-01	0	58	104	0	50	13430
2026-01-14 06:00:50.28	353.96	10.19	-40.6	-51.5	3.8	8.46e-01	0	58	104	0	50	13645
2026-01-14 06:00:51.29	353.82	10.24	-40.6	-51.5	3.8	8.46e-01	0	58	104	0	50	13607
2026-01-14 06:00:52.30	353.68	10.30	-40.6	-51.6	3.8	8.45e-01	0	58	104	0	50	13759
2026-01-14 06:00:53.31	353.54	10.36	-40.6	-51.5	3.8	8.47e-01	0	58	104	0	50	13641
2026-01-14 06:00:54.32	353.40	10.41	-40.6	-51.7	3.8	8.46e-01	0	58	104	0	51	13113
2026-01-14 06:00:55.33	353.26	10.47	-40.6	-51.5	3.8	8.46e-01	0	58	104	0	51	12893
2026-01-14 06:00:56.34	353.12	10.53	-40.4	-51.5	3.8	8.46e-01	0	58	104	0	51	12959
2026-01-14 06:00:57.35	352.98	10.59	-40.6	-51.6	3.8	8.45e-01	0	58	104	0	51	13075
2026-01-14 06:00:58.36	352.83	10.64	-40.6	-51.7	3.8	8.45e-01	0	58	104	0	51	13148
2026-01-14 06:00:59.37	352.69	10.70	-40.6	-51.7	3.8	8.47e-01	0	58	104	0	51	13200
2026-01-14 06:01:00.38	352.55	10.76	-40.9	-51.8	3.8	8.45e-01	0	58	104	0	51	13400
2026-01-14 06:01:01.39	352.40	10.81	-40.7	-51.7	3.8	8.47e-01	0	58	104	0	51	13170
2026-01-14 06:01:02.40	352.26	10.87	-41.0	-51.9	3.8	8.46e-01	0	58	104	0	51	13465
2026-01-14 06:01:03.41	352.11	10.93	-40.8	-51.8	3.8	8.47e-01	0	58	104	0	51	13395
2026-01-14 06:01:04.42	351.97	10.98	-41.1	-51.9	3.8	8.47e-01	0	58	104	0	51	13511
2026-01-14 06:01:05.43	351.82	11.04	-40.7	-51.6	3.8	8.46e-01	0	58	104	0	51	13104
2026-01-14 06:01:06.43	351.67	11.10	-41.0	-51.9	3.8	8.46e-01	0	58	104	0	51	13473
2026-01-14 06:01:07.44	351.53	11.15	-40.8	-51.8	3.8	8.46e-01	0	58	104	0	51	13282
2026-01-14 06:01:08.45	351.38	11.21	-41.1	-52.0	3.8	8.47e-01	0	58	104	0	52	12885
2026-01-14 06:01:09.46	351.23	11.26	-41.0	-51.9	3.8	8.47e-01	0	58	104	0	52	12684
2026-01-14 06:01:10.47	351.08	11.32	-41.2	-52.1	3.8	8.47e-01	0	58	104	0	52	13007
2026-01-14 06:01:11.48	350.93	11.38	-41.0	-51.9	3.8	8.46e-01	0	58	104	0	52	12703
2026-01-14 06:01:12.49	350.78	11.43	-41.1	-52.0	3.8	8.45e-01	0	58	104	0	52	12940
2026-01-14 06:01:13.50	350.63	11.49	-41.1	-52.0	3.8	8.47e-01	0	58	104	0	52	12934
2026-01-14 06:01:14.51	350.47	11.55	-41.1	-52.0	3.8	8.46e-01	0	59	104	0	52	12890
2026-01-14 06:01:15.52	350.32	11.60	-41.1	-52.0	3.8	8.46e-01	0	58	104	0	52	12842
2026-01-14 06:01:16.53	350.17	11.66	-41.1	-52.0	3.8	8.47e-01	0	58	104	0	52	12881
2026-01-14 06:01:17.54	350.02	11.71	-41.1	-51.9	3.8	8.46e-01	0	58	104	0	52	12779
2026-01-14 06:01:18.55	349.86	11.77	-41.1	-51.9	3.8	8.47e-01	0	58	104	0	52	12800
2026-01-14 06:01:19.56	349.71	11.82	-40.9	-51.8	3.8	8.46e-01	0	59	104	0	52	12623
2026-01-14 06:01:20.57	349.55	11.88	-41.1	-51.9	3.8	8.46e-01	0	59	104	0	52	12801
2026-01-14 06:01:21.58	349.39	11.94	-41.0	-52.0	3.8	8.46e-01	0	59	104	0	52	12818
2026-01-14 06:01:22.59	349.24	11.99	-41.1	-52.0	3.8	8.46e-01	0	59	104	0	52	12876
2026-01-14 06:01:23.60	349.08	12.05	-41.2	-52.1	3.8	8.46e-01	0	59	104	0	52	13102
2026-01-14 06:01:24.61	348.92	12.10	-41.2	-52.1	3.8	8.47e-01	0	59	104	0	52	13016
2026-01-14 06:01:25.62	348.76	12.16	-41.3	-52.3	3.8	8.46e-01	0	58	104	0	52	13261
2026-01-14 06:01:26.63	348.61	12.21	-41.3	-52.2	3.8	8.46e-01	0	59	104	0	52	13173
2026-01-14 06:01:27.64	348.45	12.27	-41.4	-52.3	3.8	8.46e-01	0	59	104	0	52	13370
2026-01-14 06:01:28.65	348.29	12.32	-41.2	-52.2	3.8	8.46e-01	0	59	104	0	52	13175
2026-01-14 06:01:29.66	348.12	12.38	-41.4	-52.4	3.8	8.46e-01	0	59	104	0	52	13442
2026-01-14 06:01:30.68	347.96	12.43	-41.2	-52.2	3.8	8.46e-01	0	59	104	0	52	13251
2026-01-14 06:01:31.69	347.80	12.49	-41.4	-52.3	3.8	8.45e-01	0	59	104	0	52	13362
2026-01-14 06:01:32.69	347.64	12.54	-41.3	-52.3	3.8	8.46e-01	0	59	104	0	52	13368
2026-01-14 06:01:33.71	347.47	12.60	-41.5	-52.4	3.8	8.45e-01	0	59	104	0	52	13543
2026-01-14 06:01:34.72	347.31	12.65	-41.4	-52.4	3.8	8.47e-01	0	59	104	0	52	13459
2026-01-14 06:01:35.73	347.14	12.70	-41.3	-52.5	3.8	8.45e-01	0	59	104	0	52	13595
2026-01-14 06:01:36.74	346.98	12.76	-41.4	-52.3	3.8	8.46e-01	0	59	104	0	52	13338
2026-01-14 06:01:37.75	346.81	12.81	-41.5	-52.5	3.8	8.46e-01	0	59	104	0	52	13665
2026-01-14 06:01:38.76	346.65	12.87	-41.3	-52.2	3.8	8.46e-01	0	59	104	0	52	13235
2026-01-14 06:01:39.77	346.48	12.92	-41.1	-52.1	3.8	8.46e-01	0	59	104	0	52	13000
2026-01-14 06:01:40.78	346.31	12.97	-41.5	-52.4	3.8	8.46e-01	0	59	104	0	52	13518
2026-01-14 06:01:41.79	346.14	13.03	-41.1	-52.1	3.8	8.46e-01	0	59	104	0	52	13042
2026-01-14 06:01:42.80	345.97	13.08	-41.5	-52.3	3.8	8.46e-01	0	59	104	0	52	13378
2026-01-14 06:01:43.81	345.80	13.13	-41.3	-52.2	3.8	8.45e-01	0	59	104	0	52	13116
2026-01-14 06:01:44.82	345.63	13.19	-40.9	-51.9	3.8	8.48e-01	0	59	104	0	52	12734
2026-01-14 06:01:45.83	345.46	13.24	-41.1	-52.0	3.8	8.46e-01	0	59	104	0	52	12933
2026-01-14 06:01:46.84	345.29	13.29	-41.0	-51.9	3.8	8.45e-01	0	59	104	0	52	12801
2026-01-14 06:01:47.85	345.12	13.34	-41.2	-52.2	3.8	8.47e-01	0	59	104	0	52	13146
2026-01-14 06:01:48.86	344.95	13.40	-41.2	-52.1	3.8	8.47e-01	0	59	104	0	52	13066
2026-01-14 06:01:49.87	344.77	13.45	-41.1	-52.0	3.8	8.46e-01	0	59	104	0	52	12912
2026-01-14 06:01:50.88	344.60	13.50	-41.2	-52.2	3.8	8.45e-01	0	59	104	0	52	13144
2026-01-14 06:01:51.89	344.43	13.55	-40.9	-52.0	3.8	8.46e-01	0	59	104	0	52	12929
2026-01-14 06:01:52.90	344.25	13.60	-40.8	-51.9	3.8	8.46e-01	0	59	104	0	52	12666
2026-01-14 06:01:53.91	344.07	13.66	-40.7	-52.0	3.8	8.47e-01	0	59	104	0	52	12821
2026-01-14 06:01:54.92	343.90	13.71	-40.8	-51.8	3.8	8.46e-01	0	59	104	0	52	12584
2026-01-14 06:01:55.93	343.72	13.76	-41.1	-52.0	3.8	8.45e-01	0	59	104	0	52	12847
2026-01-14 06:01:56.94	343.54	13.81	-41.1	-52.0	3.8	8.46e-01	0	59	104	0	52	12919
2026-01-14 06:01:57.95	343.36	13.86	-41.1	-51.9	3.8	8.46e-01	0	59	104	0	52	12800
2026-01-14 06:01:58.96	343.19	13.91	-41.0	-51.9	3.8	8.46e-01	0	59	104	0	52	12787
2026-01-14 06:01:59.97	343.01	13.96	-41.0	-51.9	3.8	8.45e-01	0	59	104	0	52	12789
2026-01-14 06:02:00.97	342.83	14.01	-40.8	-51.9	3.8	8.46e-01	0	59	104	0	52	12705
2026-01-14 06:02:01.98	342.65	14.06	-41.1	-52.0	3.8	8.45e-01	0	59	104	0	52	12838
2026-01-14 06:02:02.99	342.46	14.11	-40.6	-51.7	3.8	8.45e-01	0	59	104	0	52	12507
2026-01-14 06:02:04.01	342.28	14.16	-40.9	-51.8	3.8	8.47e-01	0	59	104	0	52	12595
2026-01-14 06:02:05.01	342.10	14.21	-41.1	-51.9	3.8	8.47e-01	0	59	104	0	52	12788
2026-01-14 06:02:06.03	341.91	14.26	-41.0	-51.9	3.8	8.47e-01	0	59	104	0	52	12740
2026-01-14 06:02:07.03	341.73	14.31	-41.0	-51.9	3.8	8.47e-01	0	59	104	0	52	12687
2026-01-14 06:02:08.04	341.55	14.36	-40.9	-51.8	3.8	8.46e-01	0	59	104	0	52	12540
2026-01-14 06:02:09.05	341.36	14.41	-40.9	-51.9	3.8	8.46e-01	0	59	104	0	52	12680
2026-01-14 06:02:10.06	341.18	14.46	-40.9	-51.8	3.8	8.46e-01	0	59	104	0	52	12663
2026-01-14 06:02:11.08	340.99	14.51	-41.1	-52.0	3.8	8.46e-01	0	59	104	0	52	12899
2026-01-14 06:02:12.09	340.80	14.56	-41.3	-52.0	3.8	8.46e-01	0	59	104	0	52	12832
2026-01-14 06:02:13.10	340.61	14.61	-40.9	-51.8	3.8	8.45e-01	0	59	104	0	52	12611
2026-01-14 06:02:14.11	340.42	14.65	-41.5	-51.6	3.8	8.47e-01	0	59	104	0	52	12300
2026-01-14 06:02:15.12	340.24	14.70	-41.0	-51.9	3.8	8.46e-01	0	59	104	0	52	12776
2026-01-14 06:02:16.13	340.05	14.75	-41.3	-52.2	3.8	8.46e-01	0	59	104	0	52	13219
2026-01-14 06:02:17.14	339.86	14.80	-41.8	-52.0	3.8	8.47e-01	0	59	104	0	53	12173
2026-01-14 06:02:18.15	339.66	14.84	-41.2	-48.4	4.4	8.40e-01	0	59	0	0	53	8082
2026-01-14 06:02:19.16	339.47	14.89	-41.0	-46.9	5.3	7.51e-01	0	60	0	0	53	6788
2026-01-14 06:02:20.17	339.28	14.94	-40.9	-46.2	6.0	3.90e-01	0	59	0	3145728	52	6611
2026-01-14 06:02:21.18	339.09	14.98	-41.0	-45.9	6.5	2.70e-01	0	59	0	10485760	52	6384
2026-01-14 06:02:22.19	338.90	15.03	-40.8	-45.0	7.4	1.27e-01	0	59	0	17825792	52	5779
2026-01-14 06:02:23.20	338.70	15.08	-40.6	-44.4	8.3	6.73e-02	0	59	0	25165824	52	5357
2026-01-14 06:02:24.20	338.51	15.12	-39.6	-42.4	10.5	6.57e-03	0	59	0	31457280	50	4783
2026-01-14 06:02:25.21	338.31	15.17	-38.6	-40.8	12.3	4.38e-04	0	59	0	39845888	48	4465
2026-01-14 06:02:26.22	338.12	15.21	-37.8	-39.7	13.5	1.60e-05	0	59	0	47185920	46	4410
2026-01-14 06:02:27.23	337.92	15.26	-37.5	-39.3	14.0	3.40e-06	0	59	0	53477376	45	4452
2026-01-14 06:02:28.24	337.72	15.30	-38.0	-39.9	13.6	1.14e-05	0	60	0	60817408	45	4804
2026-01-14 06:02:29.25	337.53	15.34	-38.4	-40.4	13.2	4.34e-05	0	59	0	68157440	46	4793
2026-01-14 06:02:30.27	337.33	15.39	-37.9	-39.7	14.1	3.40e-06	0	59	0	75497472	46	4440
2026-01-14 06:02:31.28	337.13	15.43	-37.5	-39.2	14.8	0.00e+00	0	59	0	82837504	46	4167
2026-01-14 06:02:32.29	336.93	15.48	-38.0	-39.8	14.2	3.40e-06	0	59	0	90177536	46	4444
2026-01-14 06:02:33.30	336.73	15.52	-38.0	-39.8	14.3	4.50e-06	0	59	0	97517568	46	4448
2026-01-14 06:02:34.31	336.53	15.56	-37.7	-39.4	14.7	0.00e+00	0	59	0	104857600	46	4266
2026-01-14 06:02:35.32	336.33	15.61	-37.9	-39.6	14.5	0.00e+00	0	59	0	112197632	46	4368
2026-01-14 06:02:36.33	336.13	15.65	-37.9	-39.6	14.6	1.10e-06	0	59	0	119537664	46	4347
2026-01-14 06:02:37.34	335.92	15.69	-37.7	-39.3	14.8	0.00e+00	0	59	0	126877696	46	4228
2026-01-14 06:02:38.35	335.72	15.73	-37.7	-39.4	14.8	0.00e+00	0	59	0	134217728	46	4261
2026-01-14 06:02:39.35	335.52	15.77	-37.5	-39.2	15.1	0.00e+00	0	60	0	141557760	46	4146
2026-01-14 06:02:40.36	335.31	15.82	-37.7	-39.4	14.9	0.00e+00	0	59	0	148897792	46	4249
2026-01-14 06:02:41.37	335.11	15.86	-37.7	-39.3	15.0	0.00e+00	0	59	0	156237824	46	4219
2026-01-14 06:02:42.38	334.90	15.90	-37.7	-39.3	15.0	0.00e+00	0	60	0	163577856	46	4227
2026-01-14 06:02:43.39	334.70	15.94	-37.8	-39.4	15.0	1.10e-06	0	59	0	170917888	46	4251
2026-01-14 06:02:44.40	334.49	15.98	-37.8	-39.4	15.0	0.00e+00	0	59	0	177209344	46	4269
2026-01-14 06:02:45.41	334.29	16.02	-37.8	-39.4	15.0	1.10e-06	0	59	0	185597952	46	4284
2026-01-14 06:02:46.42	334.08	16.06	-37.7	-39.3	15.2	0.00e+00	0	60	0	192937984	46	4218
2026-01-14 06:02:47.43	333.87	16.10	-37.6	-39.2	15.3	0.00e+00	0	60	0	199229440	46	4150
2026-01-14 06:02:48.44	333.66	16.14	-37.5	-39.0	15.4	0.00e+00	0	60	0	206569472	46	4094
2026-01-14 06:02:49.45	333.45	16.17	-37.4	-39.0	15.5	0.00e+00	0	60	0	213909504	45	4292
2026-01-14 06:02:50.46	333.24	16.21	-37.4	-38.9	15.6	0.00e+00	0	59	0	221249536	45	4269
2026-01-14 06:02:51.47	333.03	16.25	-37.3	-38.8	15.7	0.00e+00	0	60	0	228589568	45	4231
2026-01-14 06:02:52.48	332.82	16.29	-37.2	-38.7	15.8	0.00e+00	0	59	0	235929600	45	4168
2026-01-14 06:02:53.49	332.61	16.32	-37.2	-38.7	15.8	0.00e+00	0	60	0	243269632	45	4163
2026-01-14 06:02:54.50	332.40	16.36	-37.2	-38.6	15.9	0.00e+00	0	60	0	250609664	45	4135
2026-01-14 06:02:55.51	332.19	16.40	-37.2	-38.6	15.9	0.00e+00	0	60	0	257949696	45	4135
2026-01-14 06:02:56.52	331.97	16.43	-37.2	-38.6	15.9	0.00e+00	0	60	0	265289728	45	4132
2026-01-14 06:02:57.53	331.76	16.47	-37.2	-38.7	15.9	0.00e+00	0	59	0	272629760	45	4160
2026-01-14 06:02:58.54	331.55	16.51	-37.3	-38.8	15.8	0.00e+00	0	60	0	279969792	45	4200
2026-01-14 06:02:59.55	331.33	16.54	-37.3	-38.8	15.8	0.00e+00	0	60	0	287309824	45	4201
2026-01-14 06:03:00.56	331.12	16.58	-37.3	-38.8	15.8	0.00e+00	0	60	0	294649856	45	4228
2026-01-14 06:03:01.57	330.90	16.61	-37.3	-38.7	15.8	0.00e+00	0	60	0	301989888	45	4189
2026-01-14 06:03:02.58	330.69	16.64	-37.3	-38.8	15.8	0.00e+00	0	60	0	309329920	45	4229
2026-01-14 06:03:03.59	330.47	16.68	-37.4	-38.9	15.8	0.00e+00	0	60	0	316669952	45	4263
2026-01-14 06:03:04.60	330.25	16.71	-37.4	-38.9	15.8	0.00e+00	0	60	0	324009984	45	4245
2026-01-14 06:03:05.61	330.04	16.74	-37.4	-38.9	15.8	0.00e+00	0	60	0	331350016	45	4257
2026-01-14 06:03:06.62	329.82	16.78	-37.4	-38.8	15.8	0.00e+00	0	60	0	338690048	45	4228
2026-01-14 06:03:07.63	329.60	16.81	-37.4	-38.9	15.8	0.00e+00	0	60	0	346030080	45	4256
2026-01-14 06:03:08.64	329.38	16.84	-37.5	-39.0	15.7	0.00e+00	0	60	0	352321536	45	4292
2026-01-14 06:03:09.65	329.16	16.87	-37.5	-39.0	15.7	0.00e+00	0	60	0	359661568	45	4294
2026-01-14 06:03:10.66	328.94	16.90	-37.5	-38.9	15.7	0.00e+00	0	59	0	368050176	45	4286
2026-01-14 06:03:11.67	328.72	16.93	-37.4	-38.9	15.8	0.00e+00	0	60	0	374341632	45	4258
2026-01-14 06:03:12.67	328.50	16.96	-37.5	-39.0	15.7	0.00e+00	0	60	0	381681664	45	4293
2026-01-14 06:03:13.68	328.28	16.99	-37.4	-38.9	15.8	0.00e+00	0	60	0	389021696	45	4274
2026-01-14 06:03:14.70	328.06	17.02	-37.4	-38.9	15.8	0.00e+00	0	60	0	396361728	45	4245
2026-01-14 06:03:15.71	327.84	17.05	-37.4	-38.9	15.8	0.00e+00	0	60	0	403701760	45	4259
2026-01-14 06:03:16.71	327.62	17.08	-37.4	-38.9	15.8	0.00e+00	0	60	0	411041792	45	4252
2026-01-14 06:03:17.72	327.39	17.11	-37.3	-38.7	16.0	0.00e+00	0	60	0	418381824	45	4182
2026-01-14 06:03:18.73	327.17	17.14	-37.2	-38.7	16.0	0.00e+00	0	60	0	425721856	45	4154
2026-01-14 06:03:19.74	326.95	17.16	-37.2	-38.6	16.1	0.00e+00	0	60	0	433061888	45	4145
2026-01-14 06:03:20.75	326.72	17.19	-37.2	-38.6	16.1	0.00e+00	0	60	0	440401920	45	4127
2026-01-14 06:03:21.76	326.50	17.22	-37.2	-38.7	16.0	0.00e+00	0	60	0	447741952	45	4162
2026-01-14 06:03:22.77	326.27	17.24	-37.2	-38.7	16.0	0.00e+00	0	60	0	455081984	45	4167
2026-01-14 06:03:23.78	326.05	17.27	-37.3	-38.7	16.0	0.00e+00	0	60	0	462422016	45	4173
2026-01-14 06:03:24.79	325.82	17.29	-37.2	-38.7	16.1	0.00e+00	0	60	0	469762048	45	4150
2026-01-14 06:03:25.80	325.60	17.32	-37.2	-38.7	16.1	0.00e+00	0	60	0	476053504	45	4149
2026-01-14 06:03:26.81	325.37	17.34	-37.2	-38.7	16.1	0.00e+00	0	60	0	484442112	45	4148
2026-01-14 06:03:27.82	325.14	17.37	-37.1	-38.6	16.1	0.00e+00	0	60	0	491782144	45	4107
2026-01-14 06:03:28.83	324.92	17.39	-37.1	-38.5	16.2	0.00e+00	0	60	0	498073600	45	4082
2026-01-14 06:03:29.84	324.69	17.41	-37.1	-38.5	16.2	0.00e+00	0	60	0	505413632	45	4061
2026-01-14 06:03:30.84	324.46	17.44	-37.0	-38.4	16.3	0.00e+00	0	60	0	512753664	45	4013
2026-01-14 06:03:31.85	324.23	17.46	-36.9	-38.3	16.4	0.00e+00	0	60	0	520093696	44	4220
2026-01-14 06:03:32.86	324.01	17.48	-36.9	-38.2	16.5	0.00e+00	0	60	0	527433728	44	4188
2026-01-14 06:03:33.87	323.78	17.50	-36.9	-38.2	16.5	0.00e+00	0	60	0	534773760	44	4188
2026-01-14 06:03:34.88	323.55	17.52	-36.8	-38.2	16.5	0.00e+00	0	60	0	542113792	44	4176
2026-01-14 06:03:35.89	323.32	17.54	-36.8	-38.2	16.6	0.00e+00	0	60	0	549453824	44	4152
2026-01-14 06:03:36.90	323.09	17.56	-36.9	-38.2	16.5	0.00e+00	0	60	0	556793856	44	4179
2026-01-14 06:03:37.91	322.86	17.58	-36.9	-38.2	16.5	0.00e+00	0	60	0	564133888	44	4188
2026-01-14 06:03:38.92	322.63	17.60	-36.9	-38.2	16.5	0.00e+00	0	60	0	571473920	44	4192
2026-01-14 06:03:39.94	322.39	17.62	-36.8	-38.2	16.6	0.00e+00	0	60	0	578813952	44	4158
2026-01-14 06:03:40.95	322.16	17.64	-36.8	-38.2	16.6	0.00e+00	0	60	0	586153984	44	4146
2026-01-14 06:03:41.95	321.93	17.66	-36.8	-38.1	16.7	0.00e+00	0	60	0	593494016	44	4132
2026-01-14 06:03:42.96	321.70	17.67	-36.7	-38.1	16.7	0.00e+00	0	60	0	600834048	44	4100
2026-01-14 06:03:43.97	321.47	17.69	-36.8	-38.1	16.7	0.00e+00	0	60	0	608174080	44	4123
2026-01-14 06:03:44.98	321.24	17.71	-36.7	-38.1	16.6	0.00e+00	0	60	0	615514112	44	4119
2026-01-14 06:03:45.99	321.01	17.72	-36.7	-38.1	16.6	0.00e+00	0	60	0	622854144	44	4119
2026-01-14 06:03:47.00	320.77	17.74	-36.8	-38.2	16.6	0.00e+00	0	60	0	629145600	44	4149
2026-01-14 06:03:48.01	320.54	17.75	-36.8	-38.2	16.6	0.00e+00	0	60	0	637534208	44	4150
2026-01-14 06:03:49.02	320.31	17.77	-36.9	-38.3	16.5	0.00e+00	0	60	0	644874240	44	4212
2026-01-14 06:03:50.03	320.07	17.78	-36.9	-38.3	16.5	0.00e+00	0	60	0	651165696	44	4224
2026-01-14 06:03:51.04	319.84	17.79	-37.0	-38.4	16.4	0.00e+00	0	60	0	658505728	44	4243
2026-01-14 06:03:52.05	319.61	17.81	-37.0	-38.4	16.4	0.00e+00	0	60	0	665845760	44	4247
2026-01-14 06:03:53.06	319.37	17.82	-36.9	-38.3	16.5	0.00e+00	0	60	0	673185792	44	4232
2026-01-14 06:03:54.07	319.14	17.83	-37.0	-38.4	16.4	0.00e+00	0	60	0	680525824	44	4253
2026-01-14 06:03:55.08	318.90	17.84	-36.8	-38.2	16.6	0.00e+00	0	60	0	687865856	44	4178
2026-01-14 06:03:56.09	318.67	17.85	-36.9	-38.2	16.5	0.00e+00	0	60	0	695205888	44	4191
2026-01-14 06:03:57.10	318.43	17.86	-36.9	-38.2	16.5	0.00e+00	0	60	0	702545920	44	4187
2026-01-14 06:03:58.11	318.20	17.87	-36.8	-38.2	16.6	0.00e+00	0	60	0	709885952	44	4179
2026-01-14 06:03:59.12	317.96	17.88	-36.8	-38.2	16.6	0.00e+00	0	60	0	717225984	44	4160
2026-01-14 06:04:00.13	317.73	17.89	-36.8	-38.1	16.7	0.00e+00	0	60	0	724566016	44	4124
2026-01-14 06:04:01.14	317.49	17.90	-36.8	-38.2	16.6	0.00e+00	0	60	0	731906048	44	4159
2026-01-14 06:04:02.15	317.26	17.91	-36.7	-38.1	16.7	0.00e+00	0	60	0	739246080	44	4105
2026-01-14 06:04:03.16	317.02	17.92	-36.7	-38.1	16.8	0.00e+00	0	60	0	746586112	44	4100
2026-01-14 06:04:04.17	316.79	17.92	-36.7	-38.0	16.8	0.00e+00	0	60	0	753926144	44	4088
2026-01-14 06:04:05.18	316.55	17.93	-36.6	-38.0	16.8	0.00e+00	0	60	0	761266176	44	4063
2026-01-14 06:04:06.19	316.32	17.94	-36.6	-38.0	16.8	0.00e+00	0	60	0	768606208	44	4068
2026-01-14 06:04:07.20	316.08	17.94	-36.6	-37.9	16.9	0.00e+00	0	60	0	774897664	44	4038
2026-01-14 06:04:08.21	315.84	17.95	-36.5	-37.8	16.9	0.00e+00	0	60	0	783286272	44	4002
2026-01-14 06:04:09.22	315.61	17.95	-36.6	-37.9	16.9	0.00e+00	0	60	0	790626304	44	4025
2026-01-14 06:04:10.23	315.37	17.95	-36.6	-37.9	16.9	0.00e+00	0	60	0	796917760	44	4033
2026-01-14 06:04:11.24	315.13	17.96	-36.6	-38.0	16.8	0.00e+00	0	60	0	804257792	44	4053
2026-01-14 06:04:12.25	314.90	17.96	-36.7	-38.0	16.8	0.00e+00	0	60	0	811597824	44	4066
2026-01-14 06:04:13.26	314.66	17.96	-36.7	-38.0	16.8	0.00e+00	0	60	0	818937856	44	4089
2026-01-14 06:04:14.27	314.43	17.97	-36.7	-38.0	16.8	0.00e+00	0	60	0	826277888	44	4078
2026-01-14 06:04:15.28	314.19	17.97	-36.7	-38.1	16.7	0.00e+00	0	60	0	833617920	44	4119
2026-01-14 06:04:16.29	313.95	17.97	-36.8	-38.1	16.7	0.00e+00	0	60	0	840957952	44	4124
2026-01-14 06:04:17.30	313.72	17.97	-36.8	-38.2	16.6	0.00e+00	0	60	0	848297984	44	4155
2026-01-14 06:04:18.31	313.48	17.97	-36.8	-38.1	16.7	0.00e+00	0	60	0	855638016	44	4130
2026-01-14 06:04:19.32	313.24	17.97	-36.7	-38.1	16.7	0.00e+00	0	60	0	862978048	44	4118
2026-01-14 06:04:20.33	313.01	17.97	-36.7	-38.0	16.7	0.00e+00	0	60	0	870318080	44	4098
2026-01-14 06:04:21.34	312.77	17.97	-36.7	-38.1	16.7	0.00e+00	0	60	0	877658112	44	4100
2026-01-14 06:04:22.35	312.53	17.96	-36.8	-38.1	16.7	0.00e+00	0	60	0	884998144	44	4132
2026-01-14 06:04:23.37	312.29	17.96	-36.8	-38.2	16.6	0.00e+00	0	60	0	892338176	44	4168
2026-01-14 06:04:24.38	312.06	17.96	-36.9	-38.3	16.5	0.00e+00	0	60	0	899678208	44	4207
2026-01-14 06:04:25.39	311.82	17.95	-36.9	-38.3	16.5	0.00e+00	0	60	0	907018240	44	4223
2026-01-14 06:04:26.39	311.59	17.95	-36.9	-38.3	16.5	0.00e+00	0	60	0	914358272	44	4208
2026-01-14 06:04:27.40	311.35	17.95	-36.9	-38.3	16.5	0.00e+00	0	60	0	921698304	44	4215
2026-01-14 06:04:28.41	311.11	17.94	-36.9	-38.3	16.5	0.00e+00	0	60	0	929038336	44	4203
2026-01-14 06:04:29.42	310.88	17.94	-36.8	-38.2	16.6	0.00e+00	0	60	0	936378368	44	4156
2026-01-14 06:04:30.43	310.64	17.93	-36.7	-38.1	16.7	0.00e+00	0	60	0	943718400	44	4113
2026-01-14 06:04:31.44	310.41	17.92	-36.7	-38.0	16.8	0.00e+00	0	60	0	950009856	44	4077
2026-01-14 06:04:32.45	310.17	17.92	-36.7	-38.0	16.8	0.00e+00	0	60	0	957349888	44	4096
2026-01-14 06:04:33.46	309.93	17.91	-36.7	-38.0	16.8	0.00e+00	0	60	0	965738496	44	4087
2026-01-14 06:04:34.47	309.70	17.90	-36.8	-38.1	16.7	0.00e+00	0	60	0	972029952	44	4144
2026-01-14 06:04:35.48	309.46	17.89	-36.8	-38.2	16.6	0.00e+00	0	60	0	979369984	44	4164
2026-01-14 06:04:36.49	309.23	17.88	-36.9	-38.2	16.6	0.00e+00	0	60	0	986710016	44	4191
2026-01-14 06:04:37.50	308.99	17.87	-36.9	-38.3	16.6	0.00e+00	0	60	0	994050048	44	4201
2026-01-14 06:04:38.51	308.76	17.86	-36.9	-38.3	16.5	0.00e+00	0	60	0	1001390080	44	4206
2026-01-14 06:04:39.52	308.52	17.85	-36.8	-38.2	16.6	0.00e+00	0	60	0	1008730112	44	4167
2026-01-14 06:04:40.53	308.29	17.84	-36.8	-38.2	16.6	0.00e+00	0	60	0	1016070144	44	4155
2026-01-14 06:04:41.54	308.05	17.83	-36.7	-38.1	16.7	0.00e+00	0	60	0	1023410176	44	4120
2026-01-14 06:04:42.54	307.82	17.82	-36.6	-38.0	16.8	0.00e+00	0	60	0	1030750208	44	4063
2026-01-14 06:04:43.55	307.59	17.81	-36.6	-38.0	16.9	0.00e+00	0	60	0	1038090240	44	4057
2026-01-14 06:04:44.56	307.35	17.79	-36.6	-37.9	16.9	0.00e+00	0	60	0	1045430272	44	4028
2026-01-14 06:04:45.57	307.12	17.78	-36.6	-38.0	16.9	0.00e+00	0	60	0	1052770304	44	4064
2026-01-14 06:04:46.58	306.89	17.77	-36.7	-38.0	16.8	0.00e+00	0	60	0	1060110336	44	4092
2026-01-14 06:04:47.59	306.65	17.75	-36.8	-38.1	16.7	0.00e+00	0	60	0	1067450368	44	4133
2026-01-14 06:04:48.60	306.42	17.74	-36.8	-38.2	16.6	0.00e+00	0	60	0	1074790400	44	4161
2026-01-14 06:04:49.61	306.19	17.72	-36.9	-38.2	16.6	0.00e+00	0	60	0	1082130432	44	4192
2026-01-14 06:04:50.62	305.95	17.71	-36.9	-38.3	16.6	0.00e+00	0	60	0	1089470464	44	4195
2026-01-14 06:04:51.63	305.72	17.69	-36.8	-38.2	16.6	0.00e+00	0	60	0	1096810496	44	4177
2026-01-14 06:04:52.63	305.49	17.67	-36.9	-38.2	16.5	0.00e+00	0	60	0	1103101952	44	4186
2026-01-14 06:04:53.64	305.26	17.66	-36.8	-38.2	16.6	0.00e+00	0	60	0	1110441984	44	4178
2026-01-14 06:04:54.65	305.03	17.64	-36.8	-38.2	16.6	0.00e+00	0	60	0	1117782016	44	4163
2026-01-14 06:04:55.66	304.80	17.62	-36.8	-38.2	16.6	0.00e+00	0	60	0	1125122048	44	4179
2026-01-14 06:04:56.68	304.56	17.60	-36.8	-38.2	16.6	0.00e+00	0	60	0	1132462080	44	4177
2026-01-14 06:04:57.68	304.33	17.58	-36.8	-38.2	16.6	0.00e+00	0	60	0	1139802112	44	4185
2026-01-14 06:04:58.70	304.10	17.56	-36.9	-38.2	16.5	0.00e+00	0	60	0	1147142144	44	4193
2026-01-14 06:04:59.70	303.87	17.54	-36.9	-38.3	16.6	0.00e+00	0	60	0	1154482176	44	4195
2026-01-14 06:05:00.71	303.64	17.52	-36.9	-38.2	16.5	0.00e+00	0	60	0	1161822208	44	4191
2026-01-14 06:05:01.72	303.41	17.50	-36.9	-38.3	16.5	0.00e+00	0	60	0	1169162240	44	4207
2026-01-14 06:05:02.73	303.18	17.48	-36.8	-38.2	16.6	0.00e+00	0	60	0	1176502272	44	4166
2026-01-14 06:05:03.74	302.95	17.46	-36.8	-38.2	16.6	0.00e+00	0	60	0	1183842304	44	4164
2026-01-14 06:05:04.75	302.73	17.44	-36.8	-38.2	16.6	0.00e+00	0	60	0	1191182336	44	4151
2026-01-14 06:05:05.76	302.50	17.41	-36.8	-38.2	16.6	0.00e+00	0	60	0	1198522368	44	4167
2026-01-14 06:05:06.77	302.27	17.39	-36.8	-38.2	16.6	0.00e+00	0	60	0	1205862400	44	4169
2026-01-14 06:05:07.78	302.04	17.37	-36.8	-38.2	16.6	0.00e+00	0	60	0	1213202432	44	4172
2026-01-14 06:05:08.79	301.81	17.34	-36.8	-38.2	16.6	0.00e+00	0	60	0	1220542464	44	4175
2026-01-14 06:05:09.80	301.59	17.32	-36.9	-38.3	16.4	0.00e+00	0	60	0	1226833920	44	4227
2026-01-14 06:05:10.81	301.36	17.29	-36.9	-38.3	16.4	0.00e+00	0	60	0	1235222528	44	4239
2026-01-14 06:05:11.82	301.14	17.27	-36.9	-38.3	16.4	0.00e+00	0	60	0	1242562560	44	4240
2026-01-14 06:05:12.83	300.91	17.24	-37.0	-38.4	16.4	0.00e+00	0	60	0	1248854016	44	4255
2026-01-14 06:05:13.84	300.68	17.22	-37.0	-38.4	16.3	0.00e+00	0	60	0	1256194048	44	4277
2026-01-14 06:05:14.85	300.46	17.19	-37.0	-38.4	16.3	0.00e+00	0	60	0	1263534080	44	4270
2026-01-14 06:05:15.86	300.23	17.16	-37.0	-38.5	16.3	0.00e+00	0	60	0	1270874112	44	4292
2026-01-14 06:05:16.87	300.01	17.14	-37.0	-38.4	16.4	0.00e+00	0	60	0	1278214144	44	4251
2026-01-14 06:05:17.88	299.79	17.11	-37.0	-38.4	16.3	0.00e+00	0	60	0	1285554176	44	4267
2026-01-14 06:05:18.89	299.56	17.08	-37.0	-38.4	16.4	0.00e+00	0	60	0	1292894208	44	4256
2026-01-14 06:05:19.90	299.34	17.05	-36.9	-38.3	16.4	0.00e+00	0	60	0	1300234240	44	4227
2026-01-14 06:05:20.91	299.12	17.02	-36.9	-38.3	16.4	0.00e+00	0	60	0	1307574272	44	4229
2026-01-14 06:05:21.92	298.90	16.99	-36.9	-38.3	16.4	0.00e+00	0	60	0	1314914304	44	4219
2026-01-14 06:05:22.93	298.67	16.96	-37.0	-38.4	16.4	0.00e+00	0	60	0	1322254336	44	4264
2026-01-14 06:05:23.94	298.45	16.93	-37.0	-38.4	16.3	0.00e+00	0	60	0	1329594368	44	4282
2026-01-14 06:05:24.95	298.23	16.90	-37.1	-38.5	16.3	0.00e+00	0	60	0	1336934400	44	4308
2026-01-14 06:05:25.96	298.01	16.87	-37.0	-38.5	16.3	0.00e+00	0	60	0	1344274432	44	4295
2026-01-14 06:05:26.97	297.79	16.84	-37.0	-38.4	16.3	0.00e+00	0	60	0	1351614464	44	4276
2026-01-14 06:05:27.98	297.57	16.81	-37.0	-38.4	16.4	0.00e+00	0	60	0	1358954496	44	4258
2026-01-14 06:05:28.99	297.35	16.78	-37.0	-38.3	16.4	0.00e+00	0	60	0	1366294528	44	4240
2026-01-14 06:05:30.00	297.13	16.74	-37.0	-38.4	16.4	0.00e+00	0	60	0	1373634560	44	4256
2026-01-14 06:05:31.01	296.92	16.71	-37.0	-38.4	16.3	0.00e+00	0	60	0	1380974592	44	4268
2026-01-14 06:05:32.02	296.70	16.68	-37.0	-38.4	16.3	0.00e+00	0	60	0	1388314624	44	4277
2026-01-14 06:05:33.03	296.48	16.64	-37.1	-38.5	16.2	0.00e+00	0	60	0	1395654656	44	4330
2026-01-14 06:05:34.04	296.27	16.61	-37.2	-38.6	16.1	0.00e+00	0	60	0	1401946112	44	4374
2026-01-14 06:05:35.05	296.05	16.57	-37.2	-38.7	16.0	0.00e+00	0	60	0	1409286144	44	4411
2026-01-14 06:05:36.06	295.83	16.54	-37.3	-38.8	15.9	0.00e+00	0	60	0	1417674752	44	4456
2026-01-14 06:05:37.07	295.62	16.50	-37.4	-38.8	15.9	0.00e+00	0	60	0	1423966208	44	4479
2026-01-14 06:05:38.08	295.40	16.47	-37.4	-38.9	15.9	0.00e+00	0	60	0	1431306240	44	4495
2026-01-14 06:05:39.09	295.19	16.43	-37.3	-38.8	15.9	0.00e+00	0	60	0	1438646272	44	4484
2026-01-14 06:05:40.10	294.98	16.40	-37.3	-38.7	16.0	0.00e+00	0	60	0	1445986304	44	4428
2026-01-14 06:05:41.11	294.76	16.36	-37.2	-38.6	16.1	0.00e+00	0	60	0	1453326336	44	4364
2026-01-14 06:05:42.12	294.55	16.32	-37.1	-38.6	16.1	0.00e+00	0	60	0	1460666368	44	4343
2026-01-14 06:05:43.13	294.34	16.29	-37.1	-38.5	16.1	0.00e+00	0	60	0	1468006400	44	4333
2026-01-14 06:05:44.14	294.13	16.25	-37.2	-38.6	16.1	0.00e+00	0	60	0	1475346432	44	4373
2026-01-14 06:05:45.15	293.92	16.21	-37.3	-38.7	15.9	0.00e+00	0	60	0	1482686464	44	4434
2026-01-14 06:05:46.16	293.71	16.17	-37.3	-38.8	15.9	0.00e+00	0	60	0	1490026496	44	4470
2026-01-14 06:05:47.17	293.50	16.13	-37.4	-38.9	15.8	0.00e+00	0	60	0	1497366528	44	4536
2026-01-14 06:05:48.18	293.29	16.09	-37.5	-39.0	15.6	0.00e+00	0	60	0	1504706560	44	4582
2026-01-14 06:05:49.19	293.08	16.06	-37.5	-39.0	15.6	0.00e+00	0	60	0	1512046592	44	4593
2026-01-14 06:05:50.20	292.87	16.02	-37.5	-39.1	15.6	0.00e+00	0	60	0	1519386624	44	4607
2026-01-14 06:05:51.21	292.66	15.98	-37.5	-39.0	15.6	0.00e+00	0	60	0	1526726656	44	4598
2026-01-14 06:05:52.22	292.46	15.94	-37.5	-39.0	15.7	0.00e+00	0	60	0	1534066688	44	4570
2026-01-14 06:05:53.23	292.25	15.90	-37.5	-39.0	15.7	0.00e+00	0	60	0	1541406720	44	4559
2026-01-14 06:05:54.24	292.04	15.85	-37.4	-38.9	15.7	0.00e+00	0	60	0	1547698176	44	4531
2026-01-14 06:05:55.25	291.84	15.81	-37.3	-38.8	15.8	0.00e+00	0	61	0	1555038208	44	4477
2026-01-14 06:05:56.26	291.63	15.77	-37.3	-38.8	15.8	0.00e+00	0	60	0	1563426816	44	4475
2026-01-14 06:05:57.27	291.43	15.73	-37.3	-38.8	15.8	0.00e+00	0	60	0	1569718272	44	4455
2026-01-14 06:05:58.28	291.22	15.69	-37.3	-38.7	15.9	0.00e+00	0	60	0	1577058304	44	4433
2026-01-14 06:05:59.29	291.02	15.65	-37.4	-38.9	15.7	0.00e+00	0	60	0	1584398336	44	4500
2026-01-14 06:06:00.29	290.82	15.60	-37.4	-38.9	15.7	0.00e+00	0	60	0	1591738368	44	4519
2026-01-14 06:06:01.30	290.62	15.56	-37.4	-38.9	15.7	0.00e+00	0	60	0	1599078400	44	4538
2026-01-14 06:06:02.31	290.42	15.52	-37.4	-38.9	15.7	0.00e+00	0	60	0	1606418432	44	4523
2026-01-14 06:06:03.32	290.22	15.47	-37.4	-38.9	15.6	0.00e+00	0	61	0	1613758464	44	4545
2026-01-14 06:06:04.33	290.02	15.43	-37.4	-39.0	15.6	1.10e-06	0	60	0	1621098496	44	4550
2026-01-14 06:06:05.34	289.82	15.39	-37.5	-39.0	15.5	0.00e+00	0	60	0	1628438528	44	4589
2026-01-14 06:06:06.35	289.62	15.34	-37.5	-39.0	15.6	0.00e+00	0	60	0	1635778560	44	4594
2026-01-14 06:06:07.36	289.42	15.30	-37.5	-39.0	15.5	0.00e+00	0	60	0	1643118592	44	4593
2026-01-14 06:06:08.37	289.22	15.25	-37.5	-39.0	15.6	0.00e+00	0	60	0	1650458624	44	4577
2026-01-14 06:06:09.38	289.03	15.21	-37.5	-39.0	15.5	0.00e+00	0	60	0	1657798656	44	4586
2026-01-14 06:06:10.39	288.83	15.16	-37.4	-39.0	15.6	0.00e+00	0	60	0	1665138688	44	4554
2026-01-14 06:06:11.40	288.63	15.12	-37.4	-38.9	15.6	0.00e+00	0	60	0	1672478720	44	4516
2026-01-14 06:06:12.41	288.44	15.07	-37.4	-38.9	15.6	0.00e+00	0	60	0	1679818752	44	4527
2026-01-14 06:06:13.42	288.24	15.02	-37.4	-39.0	15.6	0.00e+00	0	60	0	1687158784	44	4551
2026-01-14 06:06:14.42	288.05	14.98	-37.4	-39.0	15.6	0.00e+00	0	60	0	1694498816	44	4557
2026-01-14 06:06:15.43	287.86	14.93	-37.5	-39.0	15.5	0.00e+00	0	60	0	1700790272	44	4573
2026-01-14 06:06:16.44	287.66	14.89	-37.5	-39.1	15.4	0.00e+00	0	60	0	1708130304	44	4604
2026-01-14 06:06:17.45	287.47	14.84	-37.6	-39.1	15.4	0.00e+00	0	60	0	1715470336	44	4645
2026-01-14 06:06:18.46	287.28	14.79	-37.6	-39.2	15.2	0.00e+00	0	60	0	1722810368	44	4690
2026-01-14 06:06:19.47	287.09	14.74	-37.7	-39.4	15.1	0.00e+00	0	60	0	1730150400	44	4761
2026-01-14 06:06:20.48	286.90	14.70	-37.7	-39.3	15.2	0.00e+00	0	60	0	1737490432	45	4447
2026-01-14 06:06:21.50	286.71	14.65	-37.7	-39.2	15.2	0.00e+00	0	60	0	1744830464	45	4438
2026-01-14 06:06:22.51	286.52	14.60	-37.6	-39.2	15.2	0.00e+00	0	60	0	1752170496	45	4421
2026-01-14 06:06:23.52	286.33	14.55	-37.6	-39.2	15.3	0.00e+00	0	60	0	1759510528	45	4403
2026-01-14 06:06:24.53	286.14	14.50	-37.6	-39.2	15.2	0.00e+00	0	60	0	1766850560	45	4404
2026-01-14 06:06:25.54	285.95	14.45	-37.5	-39.1	15.3	0.00e+00	0	60	0	1774190592	45	4376
2026-01-14 06:06:26.55	285.77	14.40	-37.6	-39.2	15.2	0.00e+00	0	60	0	1781530624	45	4397
2026-01-14 06:06:27.56	285.58	14.36	-37.5	-39.1	15.3	0.00e+00	0	60	0	1788870656	45	4378
2026-01-14 06:06:28.57	285.39	14.31	-37.5	-39.1	15.3	0.00e+00	0	60	0	1796210688	45	4377
2026-01-14 06:06:29.58	285.21	14.26	-37.6	-39.2	15.2	0.00e+00	0	60	0	1803550720	45	4409
2026-01-14 06:06:30.59	285.02	14.21	-37.6	-39.2	15.2	0.00e+00	0	60	0	1810890752	45	4395
2026-01-14 06:06:31.60	284.84	14.16	-37.6	-39.2	15.2	0.00e+00	0	60	0	1818230784	45	4427
2026-01-14 06:06:32.61	284.66	14.11	-37.6	-39.2	15.2	0.00e+00	0	60	0	1825570816	45	4439
2026-01-14 06:06:33.62	284.48	14.06	-37.6	-39.3	15.1	0.00e+00	0	60	0	1832910848	45	4442
2026-01-14 06:06:34.63	284.29	14.01	-37.6	-39.2	15.2	0.00e+00	0	60	0	1840250880	45	4408
2026-01-14 06:06:35.64	284.11	13.96	-37.6	-39.1	15.2	0.00e+00	0	60	0	1846542336	45	4390
2026-01-14 06:06:36.65	283.93	13.90	-37.6	-39.1	15.2	0.00e+00	0	60	0	1853882368	45	4386
2026-01-14 06:06:37.66	283.75	13.85	-37.5	-39.1	15.3	0.00e+00	0	60	0	1862270976	45	4372
2026-01-14 06:06:38.68	283.57	13.80	-37.6	-39.1	15.2	0.00e+00	0	61	0	1868562432	45	4390
2026-01-14 06:06:39.68	283.39	13.75	-37.5	-39.2	15.2	0.00e+00	0	60	0	1875902464	45	4393
2026-01-14 06:06:40.69	283.22	13.70	-37.6	-39.2	15.1	0.00e+00	0	61	0	1883242496	45	4422
2026-01-14 06:06:41.70	283.04	13.65	-37.6	-39.2	15.1	0.00e+00	0	60	0	1890582528	45	4426
2026-01-14 06:06:42.71	282.86	13.60	-37.7	-39.3	15.1	0.00e+00	0	60	0	1897922560	45	4462
2026-01-14 06:06:43.72	282.68	13.54	-37.7	-39.4	15.0	0.00e+00	0	60	0	1905262592	45	4503
2026-01-14 06:06:44.73	282.51	13.49	-37.8	-39.4	14.9	0.00e+00	0	60	0	1912602624	45	4542
2026-01-14 06:06:45.74	282.33	13.44	-37.8	-39.4	14.9	0.00e+00	0	60	0	1919942656	45	4530
2026-01-14 06:06:46.76	282.16	13.39	-37.8	-39.5	14.8	0.00e+00	0	60	0	1927282688	45	4586
2026-01-14 06:06:47.77	281.98	13.33	-37.9	-39.6	14.8	0.00e+00	0	60	0	1934622720	45	4611
2026-01-14 06:06:48.77	281.81	13.28	-37.9	-39.6	14.8	0.00e+00	0	61	0	1941962752	45	4615
2026-01-14 06:06:49.79	281.64	13.23	-38.0	-39.7	14.6	0.00e+00	0	60	0	1949302784	45	4688
2026-01-14 06:06:50.80	281.47	13.17	-38.0	-39.7	14.7	0.00e+00	0	60	0	1956642816	45	4656
2026-01-14 06:06:51.81	281.30	13.12	-38.0	-39.7	14.6	0.00e+00	0	60	0	1963982848	45	4696
2026-01-14 06:06:52.81	281.13	13.07	-38.1	-39.9	14.4	0.00e+00	0	60	0	1971322880	45	4781
2026-01-14 06:06:53.82	280.96	13.01	-38.3	-40.0	14.3	1.10e-06	0	60	0	1978662912	46	4587
2026-01-14 06:06:54.83	280.79	12.96	-38.3	-40.1	14.2	0.00e+00	0	60	0	1986002944	46	4619
2026-01-14 06:06:55.84	280.62	12.91	-38.3	-40.1	14.2	2.20e-06	0	60	0	1993342976	46	4634
2026-01-14 06:06:56.85	280.45	12.85	-38.3	-40.0	14.3	1.10e-06	0	60	0	1999634432	46	4589
2026-01-14 06:06:57.86	280.28	12.80	-38.1	-39.9	14.4	1.10e-06	0	60	0	2008023040	46	4495
2026-01-14 06:06:58.87	280.12	12.75	-38.1	-39.8	14.5	0.00e+00	0	61	0	2015363072	46	4463
2026-01-14 06:06:59.88	279.95	12.69	-38.1	-39.9	14.4	1.10e-06	0	61	0	2021654528	46	4500
2026-01-14 06:07:00.89	279.78	12.64	-38.0	-39.8	14.5	1.10e-06	0	60	0	2028994560	46	4451
2026-01-14 06:07:01.91	279.62	12.58	-37.9	-39.6	14.6	2.20e-06	0	61	0	2036334592	46	4387
2026-01-14 06:07:02.92	279.45	12.53	-38.0	-39.7	14.6	1.10e-06	0	61	0	2043674624	46	4407
2026-01-14 06:07:03.93	279.29	12.47	-38.0	-39.7	14.6	0.00e+00	0	60	0	2051014656	46	4397
2026-01-14 06:07:04.94	279.13	12.42	-38.0	-39.7	14.5	0.00e+00	0	60	0	2058354688	46	4417
2026-01-14 06:07:05.95	278.96	12.36	-38.1	-39.8	14.4	0.00e+00	0	61	0	2065694720	46	4470
2026-01-14 06:07:06.96	278.80	12.31	-38.2	-40.0	14.2	1.10e-06	0	60	0	2073034752	46	4564
2026-01-14 06:07:07.97	278.64	12.25	-38.2	-40.0	14.2	4.50e-06	0	61	0	2080374784	46	4556
2026-01-14 06:07:08.98	278.48	12.20	-38.1	-39.8	14.3	0.00e+00	0	60	0	2087714816	46	4493
2026-01-14 06:07:09.99	278.32	12.14	-38.1	-39.9	14.4	1.10e-06	0	60	0	2095054848	46	4494
2026-01-14 06:07:11.00	278.16	12.09	-38.0	-39.8	14.5	0.00e+00	0	60	0	2102394880	46	4443
2026-01-14 06:07:12.01	278.00	12.03	-37.9	-39.7	14.5	0.00e+00	0	60	0	2109734912	46	4399
2026-01-14 06:07:13.02	277.84	11.98	-37.9	-39.6	14.5	2.20e-06	0	60	0	2117074944	46	4385
2026-01-14 06:07:14.03	277.69	11.92	-37.9	-39.6	14.6	0.00e+00	0	60	0	2124414976	46	4359
2026-01-14 06:07:15.04	277.53	11.86	-38.0	-39.7	14.4	0.00e+00	0	60	0	2131755008	46	4437
2026-01-14 06:07:16.05	277.37	11.81	-37.9	-39.7	14.5	0.00e+00	0	61	0	2139095040	46	4406
2026-01-14 06:07:17.06	277.22	11.75	-37.9	-39.6	14.5	2.20e-06	0	61	0	2146435072	46	4361
2026-01-14 06:07:18.07	277.06	11.70	-37.8	-39.6	14.5	0.00e+00	0	61	0	2153775104	46	4351
2026-01-14 06:07:19.08	276.91	11.64	-37.9	-39.6	14.5	0.00e+00	0	60	0	2161115136	46	4362
2026-01-14 06:07:20.09	276.75	11.58	-37.9	-39.6	14.4	0.00e+00	0	61	0	2167406592	46	4373
2026-01-14 06:07:21.10	276.60	11.53	-37.9	-39.6	14.3	0.00e+00	0	61	0	2174746624	46	4376
2026-01-14 06:07:22.11	276.45	11.47	-37.9	-39.7	14.3	1.10e-06	0	61	0	2183135232	46	4402
2026-01-14 06:07:23.13	276.29	11.42	-37.9	-39.7	14.2	2.20e-06	0	61	0	2189426688	46	4430
2026-01-14 06:07:24.14	276.14	11.36	-37.9	-39.7	14.1	4.50e-06	0	60	0	2196766720	46	4426
2026-01-14 06:07:25.15	275.99	11.30	-38.0	-39.9	13.9	3.40e-06	0	61	0	2204106752	46	4498
2026-01-14 06:07:26.16	275.84	11.25	-38.1	-40.0	13.8	5.70e-06	0	61	0	2211446784	46	4555
2026-01-14 06:07:27.17	275.69	11.19	-38.2	-40.2	13.5	1.02e-05	0	61	0	2218786816	46	4665
2026-01-14 06:07:28.18	275.54	11.13	-38.2	-40.2	13.4	1.60e-05	0	61	0	2226126848	46	4685
2026-01-14 06:07:29.19	275.39	11.08	-38.3	-40.2	13.4	1.25e-05	0	61	0	2233466880	46	4698
2026-01-14 06:07:30.20	275.24	11.02	-38.3	-40.4	13.2	1.94e-05	0	61	0	2240806912	46	4770
2026-01-14 06:07:31.21	275.09	10.96	-38.4	-40.4	13.2	2.74e-05	0	61	0	2248146944	46	4793
2026-01-14 06:07:32.22	274.95	10.91	-38.5	-40.5	13.0	3.43e-05	0	61	0	2255486976	46	4855
2026-01-14 06:07:33.23	274.80	10.85	-38.5	-40.6	12.9	4.00e-05	0	61	0	2262827008	46	4914
2026-01-14 06:07:34.24	274.65	10.79	-38.6	-40.8	12.7	9.38e-05	0	61	0	2270167040	46	4995
2026-01-14 06:07:35.25	274.51	10.74	-38.6	-40.8	12.6	9.95e-05	0	61	0	2277507072	46	5011
2026-01-14 06:07:36.25	274.37	10.68	-38.7	-41.0	12.4	1.36e-04	0	61	0	2284847104	47	4825
2026-01-14 06:07:37.26	274.22	10.62	-38.8	-41.1	12.2	2.17e-04	0	60	0	2292187136	47	4896
2026-01-14 06:07:38.27	274.08	10.56	-38.9	-41.3	12.0	3.86e-04	0	60	0	2299527168	47	5005
2026-01-14 06:07:39.28	273.94	10.51	-39.1	-41.5	11.7	5.68e-04	0	61	0	2306867200	47	5151
2026-01-14 06:07:40.29	273.79	10.45	-39.4	-42.0	11.3	9.58e-04	0	61	0	2314207232	48	5112
2026-01-14 06:07:41.30	273.65	10.39	-39.5	-42.1	11.2	1.55e-03	0	61	0	2320498688	48	5190
2026-01-14 06:07:42.31	273.51	10.34	-39.6	-42.2	10.9	2.27e-03	0	61	0	2328887296	48	5271
2026-01-14 06:07:43.32	273.37	10.28	-39.6	-42.3	10.9	2.29e-03	0	61	0	2336227328	48	5280
2026-01-14 06:07:44.33	273.23	10.22	-39.6	-42.4	10.7	2.91e-03	0	60	0	2342518784	48	5383
2026-01-14 06:07:45.34	273.09	10.16	-39.7	-42.5	10.6	3.51e-03	0	61	0	2349858816	48	5415
2026-01-14 06:07:46.35	272.95	10.11	-39.7	-42.7	10.3	5.12e-03	0	61	0	2357198848	49	5221
2026-01-14 06:07:47.36	272.81	10.05	-39.8	-42.8	10.0	7.57e-03	0	61	0	2364538880	49	5334
2026-01-14 06:07:48.37	272.67	9.99	-39.8	-42.9	9.9	9.51e-03	0	61	0	2371878912	49	5384
2026-01-14 06:07:49.38	272.54	9.93	-39.9	-43.1	9.6	1.13e-02	0	61	0	2379218944	49	5473
2026-01-14 06:07:50.39	272.40	9.88	-39.9	-43.1	9.6	1.45e-02	0	61	0	2386558976	49	5511
2026-01-14 06:07:51.40	272.26	9.82	-40.0	-43.3	9.3	1.72e-02	0	60	0	2393899008	49	5618
2026-01-14 06:07:52.41	272.13	9.76	-40.0	-43.5	9.0	2.59e-02	0	60	0	2401239040	49	5778
2026-01-14 06:07:53.42	271.99	9.70	-40.1	-43.7	8.8	3.16e-02	0	61	0	2408579072	49	5882
2026-01-14 06:07:54.43	271.86	9.65	-40.3	-44.0	8.4	5.03e-02	0	61	0	2415919104	50	5756
2026-01-14 06:07:55.43	271.72	9.59	-40.3	-44.2	8.1	6.16e-02	0	61	0	2423259136	50	5914
2026-01-14 06:07:56.44	271.59	9.53	-40.4	-44.3	8.0	7.07e-02	0	61	0	2430599168	50	5957
2026-01-14 06:07:57.45	271.46	9.47	-40.4	-44.3	8.1	6.37e-02	0	61	0	2437939200	50	5951
2026-01-14 06:07:58.46	271.32	9.42	-40.4	-44.2	8.2	5.86e-02	0	61	0	2445279232	50	5896
2026-01-14 06:07:59.47	271.19	9.36	-40.4	-44.2	8.4	5.43e-02	0	60	0	2452619264	50	5864
2026-01-14 06:08:00.48	271.06	9.30	-40.4	-44.1	8.4	5.06e-02	0	61	0	2459959296	50	5827
2026-01-14 06:08:01.49	270.93	9.24	-40.3	-44.0	8.4	5.05e-02	0	61	0	2466250752	50	5780
2026-01-14 06:08:02.50	270.80	9.19	-40.3	-44.1	8.3	5.54e-02	0	61	0	2473590784	50	5832
2026-01-14 06:08:03.51	270.67	9.13	-40.3	-44.2	8.0	6.73e-02	0	61	0	2481979392	50	5913
2026-01-14 06:08:04.52	270.54	9.07	-40.4	-44.4	7.8	8.53e-02	0	61	0	2488270848	50	6051
2026-01-14 06:08:05.53	270.41	9.01	-40.4	-44.7	7.4	1.11e-01	0	61	0	2495610880	50	6268
2026-01-14 06:08:06.54	270.28	8.95	-40.5	-44.9	7.2	1.35e-01	0	60	0	2502950912	50	6399
2026-01-14 06:08:07.55	270.15	8.90	-40.6	-45.1	7.0	1.62e-01	0	61	0	2510290944	50	6553
2026-01-14 06:08:08.56	270.03	8.84	-40.6	-45.3	6.7	1.96e-01	0	61	0	2517630976	50	6710
2026-01-14 06:08:09.57	269.90	8.78	-40.7	-45.6	6.4	2.38e-01	0	61	0	2524971008	50	6916
2026-01-14 06:08:10.58	269.77	8.72	-40.7	-45.8	6.2	3.04e-01	0	61	0	2532311040	51	6715
2026-01-14 06:08:11.58	269.65	8.67	-40.8	-46.1	5.9	3.40e-01	0	60	0	2539651072	51	6909
2026-01-14 06:08:12.59	269.52	8.61	-40.8	-46.3	5.8	4.72e-01	0	61	0	2546991104	51	7061
2026-01-14 06:08:13.60	269.40	8.55	-40.8	-46.7	5.4	6.99e-01	0	61	0	2550136832	51	7403
2026-01-14 06:08:14.61	269.27	8.49	-40.9	-47.0	5.1	7.45e-01	0	61	0	2551185408	51	7700
2026-01-14 06:08:15.62	269.15	8.44	-41.0	-47.3	4.9	7.72e-01	0	61	0	2552233984	51	7944
2026-01-14 06:08:16.63	269.03	8.38	-41.0	-47.8	4.7	7.98e-01	0	61	0	2552233984	51	8403
2026-01-14 06:08:17.64	268.90	8.32	-41.0	-48.1	4.5	8.17e-01	0	61	0	2552233984	51	8662
2026-01-14 06:08:18.65	268.78	8.26	-41.1	-48.3	4.4	8.24e-01	0	61	0	2552233984	51	8896
2026-01-14 06:08:19.66	268.66	8.21	-41.1	-48.6	4.3	8.32e-01	0	61	0	2552233984	51	9227
2026-01-14 06:08:20.67	268.54	8.15	-41.1	-48.9	4.2	8.36e-01	0	60	0	2552233984	51	9576
2026-01-14 06:08:21.68	268.42	8.09	-41.1	-49.1	4.1	8.38e-01	0	61	0	2552233984	51	9762
2026-01-14 06:08:22.69	268.30	8.03	-41.1	-49.3	4.1	8.39e-01	0	61	0	2552233984	51	9982
2026-01-14 06:08:23.70	268.18	7.97	-43.5	-53.2	3.8	8.44e-01	0	61	104	2552233984	56	11780
2026-01-14 06:08:24.71	268.06	7.92	-45.1	-56.1	3.8	8.46e-01	0	61	104	2552233984	59	13731
2026-01-14 06:08:25.72	267.94	7.86	-45.2	-56.5	3.8	8.46e-01	0	61	104	2552233984	60	13653
2026-01-14 06:08:26.74	267.82	7.80	-45.4	-56.7	3.8	8.46e-01	0	61	104	2552233984	60	13911
2026-01-14 06:08:27.75	267.70	7.74	-45.5	-56.8	3.8	8.46e-01	0	61	104	2552233984	60	14138
2026-01-14 06:08:28.76	267.58	7.69	-45.6	-56.8	3.8	8.45e-01	0	61	104	2552233984	60	14180
2026-01-14 06:08:29.77	267.47	7.63	-45.6	-56.9	3.8	8.47e-01	0	61	104	2552233984	60	14288
2026-01-14 06:08:30.78	267.35	7.57	-45.6	-56.9	3.8	8.46e-01	0	61	104	2552233984	60	14362
2026-01-14 06:08:31.79	267.23	7.51	-45.7	-56.9	3.8	8.46e-01	0	61	104	2552233984	60	14365
2026-01-14 06:08:32.80	267.12	7.46	-45.7	-56.9	3.8	8.46e-01	0	61	104	2552233984	60	14310
2026-01-14 06:08:33.81	267.00	7.40	-45.7	-56.9	3.8	8.46e-01	0	61	104	2552233984	60	14354
2026-01-14 06:08:34.82	266.89	7.34	-45.6	-56.9	3.8	8.46e-01	0	61	104	2552233984	60	14321
2026-01-14 06:08:35.83	266.77	7.28	-45.6	-56.8	3.8	8.46e-01	0	61	104	2552233984	60	14181
2026-01-14 06:08:36.84	266.66	7.23	-45.6	-56.8	3.8	8.46e-01	0	61	104	2552233984	60	14146
2026-01-14 06:08:37.85	266.55	7.17	-45.6	-56.8	3.8	8.45e-01	0	61	104	2552233984	60	14194
2026-01-14 06:08:38.86	266.43	7.11	-45.6	-56.8	3.8	8.46e-01	0	61	104	2552233984	60	14148
2026-01-14 06:08:39.87	266.32	7.05	-45.6	-56.8	3.8	8.47e-01	0	61	104	2552233984	60	14182
2026-01-14 06:08:40.88	266.21	7.00	-45.5	-56.8	3.8	8.46e-01	0	61	104	2552233984	60	14107
2026-01-14 06:08:41.89	266.10	6.94	-45.5	-56.8	3.8	8.47e-01	0	61	104	2552233984	60	14173
2026-01-14 06:08:42.90	265.99	6.88	-45.5	-56.8	3.8	8.47e-01	0	61	104	2552233984	60	14115
2026-01-14 06:08:43.91	265.88	6.83	-45.3	-56.7	3.8	8.47e-01	0	61	104	2552233984	60	14020
2026-01-14 06:08:44.92	265.77	6.77	-45.3	-56.7	3.8	8.46e-01	0	61	104	2552233984	60	13895
2026-01-14 06:08:45.93	265.66	6.71	-45.5	-56.8	3.8	8.46e-01	0	61	104	2552233984	60	14116
2026-01-14 06:08:46.95	265.55	6.65	-45.5	-56.8	3.8	8.47e-01	0	61	104	2552233984	60	14072
2026-01-14 06:08:47.96	265.44	6.60	-45.5	-56.8	3.8	8.45e-01	0	61	104	2552233984	60	14108
2026-01-14 06:08:48.97	265.33	6.54	-45.5	-56.8	3.8	8.46e-01	0	61	104	2552233984	60	14065
2026-01-14 06:08:49.98	265.22	6.48	-45.5	-56.7	3.8	8.46e-01	0	61	104	2552233984	60	14006
2026-01-14 06:08:50.99	265.11	6.42	-45.5	-56.8	3.8	8.46e-01	0	61	104	2552233984	60	14120
2026-01-14 06:08:52.00	265.01	6.37	-45.5	-56.8	3.8	8.46e-01	0	61	104	2552233984	60	14092
2026-01-14 06:08:53.01	264.90	6.31	-45.5	-56.8	3.8	8.46e-01	0	61	104	2552233984	60	14133
2026-01-14 06:08:54.02	264.79	6.25	-45.5	-56.7	3.8	8.47e-01	0	61	104	2552233984	60	14031
2026-01-14 06:08:55.03	264.69	6.20	-45.4	-56.8	3.8	8.47e-01	0	61	104	2552233984	60	14054
2026-01-14 06:08:56.04	264.58	6.14	-45.5	-56.8	3.8	8.46e-01	0	61	104	2552233984	60	14070
2026-01-14 06:08:57.05	264.48	6.08	-45.5	-56.7	3.8	8.47e-01	0	61	104	2552233984	60	14025
2026-01-14 06:08:58.06	264.37	6.03	-45.5	-56.8	3.8	8.47e-01	0	61	104	2552233984	60	14068
2026-01-14 06:08:59.07	264.27	5.97	-45.5	-56.7	3.8	8.46e-01	0	61	104	2552233984	60	14043
2026-01-14 06:09:00.09	264.16	5.91	-45.5	-56.8	3.8	8.46e-01	0	61	104	2552233984	60	14078
2026-01-14 06:09:01.10	264.06	5.86	-45.5	-56.8	3.8	8.46e-01	0	61	104	2552233984	60	14084
2026-01-14 06:09:02.11	263.96	5.80	-45.5	-56.7	3.8	8.46e-01	0	61	104	2552233984	60	13982
2026-01-14 06:09:03.12	263.85	5.74	-45.5	-56.7	3.8	8.46e-01	0	61	104	2552233984	60	14029
2026-01-14 06:09:04.13	263.75	5.69	-45.5	-56.7	3.8	8.46e-01	0	61	104	2552233984	60	14028
2026-01-14 06:09:05.14	263.65	5.63	-45.5	-56.7	3.8	8.46e-01	0	61	104	2552233984	60	13994
2026-01-14 06:09:06.15	263.55	5.57	-45.5	-56.8	3.8	8.45e-01	0	61	104	2552233984	60	14077
2026-01-14 06:09:07.16	263.45	5.52	-45.5	-56.8	3.8	8.46e-01	0	61	104	2552233984	60	14054
2026-01-14 06:09:08.17	263.35	5.46	-45.5	-56.8	3.8	8.46e-01	0	61	104	2552233984	60	14092
2026-01-14 06:09:09.19	263.25	5.40	-45.5	-56.7	3.8	8.46e-01	0	61	104	2552233984	60	14017
2026-01-14 06:09:10.20	263.15	5.35	-45.5	-56.8	3.8	8.46e-01	0	61	104	2552233984	60	14047
2026-01-14 06:09:11.21	263.05	5.29	-45.5	-56.8	3.8	8.46e-01	0	61	104	2552233984	60	14059
2026-01-14 06:09:12.22	262.95	5.23	-45.5	-56.8	3.8	8.46e-01	0	61	104	2552233984	60	14048
2026-01-14 06:09:13.23	262.85	5.18	-45.5	-56.7	3.8	8.46e-01	0	61	104	2552233984	60	14022
2026-01-14 06:09:14.24	262.75	5.12	-45.5	-56.8	3.8	8.46e-01	0	61	104	2552233984	60	14090
2026-01-14 06:09:15.25	262.65	5.07	-45.5	-56.7	3.8	8.45e-01	0	61	104	2552233984	60	14037
2026-01-14 06:09:16.26	262.56	5.01	-45.5	-56.7	3.8	8.45e-01	0	61	104	2552233984	60	14045
2026-01-14 06:09:17.28	262.46	4.95	-45.3	-56.7	3.8	8.46e-01	0	61	104	2552233984	60	13990
2026-01-14 06:09:18.29	262.36	4.90	-45.5	-56.8	3.8	8.47e-01	0	61	104	2552233984	60	14082
2026-01-14 06:09:19.30	262.26	4.84	-45.5	-56.7	3.8	8.46e-01	0	61	104	2552233984	60	14020
2026-01-14 06:09:20.31	262.17	4.79	-45.5	-56.7	3.8	8.45e-01	0	61	104	2552233984	60	14038
2026-01-14 06:09:21.32	262.07	4.73	-45.4	-56.7	3.8	8.46e-01	0	61	104	2552233984	60	13972
2026-01-14 06:09:22.33	261.98	4.67	-45.4	-56.7	3.8	8.47e-01	0	61	104	2552233984	60	13986
2026-01-14 06:09:23.34	261.88	4.62	-45.5	-56.7	3.8	8.46e-01	0	61	104	2552233984	60	13963
2026-01-14 06:09:24.35	261.79	4.56	-45.5	-56.7	3.8	8.48e-01	0	61	104	2552233984	60	14027
2026-01-14 06:09:25.36	261.69	4.51	-45.5	-56.7	3.8	8.46e-01	0	61	104	2552233984	60	14035
2026-01-14 06:09:26.37	261.60	4.45	-45.5	-56.7	3.8	8.46e-01	0	61	104	2552233984	60	14039
2026-01-14 06:09:27.39	261.51	4.39	-45.5	-56.7	3.8	8.45e-01	0	61	104	2552233984	60	14019
2026-01-14 06:09:28.40	261.41	4.34	-45.5	-56.7	3.8	8.47e-01	0	61	104	2552233984	60	14026
2026-01-14 06:09:29.41	261.32	4.28	-45.5	-56.7	3.8	8.47e-01	0	61	104	2552233984	60	14032
2026-01-14 06:09:30.42	261.23	4.23	-45.5	-56.7	3.8	8.47e-01	0	61	104	2552233984	60	14042
2026-01-14 06:09:31.43	261.14	4.17	-45.5	-56.8	3.8	8.47e-01	0	61	104	2552233984	60	14055
2026-01-14 06:09:32.44	261.05	4.12	-45.5	-56.7	3.8	8.46e-01	0	61	104	2552233984	60	14000
2026-01-14 06:09:33.45	260.95	4.06	-45.5	-56.8	3.8	8.47e-01	0	61	104	2552233984	60	14078
2026-01-14 06:09:34.46	260.86	4.01	-45.5	-56.7	3.8	8.45e-01	0	61	104	2552233984	60	14034
2026-01-14 06:09:35.47	260.77	3.95	-45.5	-56.7	3.8	8.47e-01	0	61	104	2552233984	60	14014
2026-01-14 06:09:36.48	260.68	3.90	-45.5	-56.7	3.8	8.47e-01	0	61	104	2552233984	60	14000
2026-01-14 06:09:37.50	260.59	3.84	-45.5	-56.7	3.8	8.46e-01	0	61	104	2552233984	60	14022
2026-01-14 06:09:38.51	260.50	3.79	-45.5	-56.7	3.8	8.45e-01	0	61	104	2552233984	60	13988
2026-01-14 06:09:39.52	260.41	3.73	-45.5	-56.7	3.8	8.47e-01	0	61	104	2552233984	60	14014
2026-01-14 06:09:40.53	260.33	3.68	-45.5	-56.7	3.8	8.45e-01	0	61	104	2552233984	60	13970
2026-01-14 06:09:41.54	260.24	3.62	-45.5	-56.7	3.8	8.46e-01	0	61	104	2552233984	60	14005
2026-01-14 06:09:42.55	260.15	3.57	-45.5	-56.7	3.8	8.46e-01	0	61	104	2552233984	60	13996
2026-01-14 06:09:43.56	260.06	3.51	-45.5	-56.7	3.8	8.46e-01	0	61	104	2552233984	60	13990
2026-01-14 06:09:44.57	259.97	3.46	-45.5	-56.8	3.8	8.47e-01	0	61	104	2552233984	60	14078
2026-01-14 06:09:45.58	259.89	3.40	-45.5	-56.7	3.8	8.47e-01	0	61	104	2552233984	60	13995
2026-01-14 06:09:46.59	259.80	3.35	-45.5	-56.7	3.8	8.47e-01	0	61	104	2552233984	60	13982
2026-01-14 06:09:47.61	259.71	3.29	-45.5	-56.7	3.8	8.46e-01	0	61	104	2552233984	60	14006
2026-01-14 06:09:48.62	259.63	3.24	-45.5	-56.7	3.8	8.46e-01	0	61	104	2552233984	60	13924
2026-01-14 06:09:49.63	259.54	3.18	-45.5	-56.7	3.8	8.46e-01	0	61	104	2552233984	60	13926
2026-01-14 06:09:50.64	259.46	3.13	-45.5	-56.7	3.8	8.46e-01	0	61	104	2552233984	60	13992
2026-01-14 06:09:51.65	259.37	3.07	-45.5	-56.7	3.8	8.45e-01	0	61	104	2552233984	60	14019
2026-01-14 06:09:52.66	259.29	3.02	-45.5	-56.7	3.8	8.45e-01	0	61	104	2552233984	60	14010
2026-01-14 06:09:53.67	259.20	2.96	-45.5	-56.7	3.8	8.46e-01	0	61	104	2552233984	60	14005
2026-01-14 06:09:54.68	259.12	2.91	-45.5	-56.7	3.8	8.46e-01	0	61	104	2552233984	60	14034
2026-01-14 06:09:55.69	259.03	2.86	-45.5	-56.8	3.8	8.45e-01	0	61	104	2552233984	60	14081
2026-01-14 06:09:56.70	258.95	2.80	-45.5	-56.7	3.8	8.46e-01	0	61	104	2552233984	60	14027
2026-01-14 06:09:57.71	258.87	2.75	-45.5	-56.7	3.8	8.46e-01	0	61	104	2552233984	60	14036
2026-01-14 06:09:58.73	258.78	2.69	-45.5	-56.8	3.8	8.46e-01	0	61	104	2552233984	60	14058
2026-01-14 06:09:59.74	258.70	2.64	-45.5	-56.7	3.8	8.46e-01	0	61	104	2552233984	60	14013
2026-01-14 06:10:00.75	258.62	2.58	-45.5	-56.8	3.8	8.46e-01	0	61	104	2552233984	60	14068
2026-01-14 06:10:01.76	258.54	2.53	-45.5	-56.7	3.8	8.45e-01	0	61	104	2552233984	60	14014
2026-01-14 06:10:02.77	258.46	2.48	-45.5	-56.7	3.8	8.46e-01	0	61	104	2552233984	60	13974
2026-01-14 06:10:03.78	258.37	2.42	-45.5	-56.7	3.8	8.47e-01	0	61	104	2552233984	60	13938
2026-01-14 06:10:04.79	258.29	2.37	-45.5	-56.7	3.8	8.46e-01	0	61	104	2552233984	60	13980
2026-01-14 06:10:05.80	258.21	2.32	-45.5	-56.7	3.8	8.46e-01	0	61	104	2552233984	60	13949
2026-01-14 06:10:06.81	258.13	2.26	-45.5	-56.7	3.8	8.46e-01	0	61	104	2552233984	60	13986
2026-01-14 06:10:07.82	258.05	2.21	-45.5	-56.7	3.8	8.45e-01	0	61	104	2552233984	60	13935
2026-01-14 06:10:08.84	257.97	2.15	-45.5	-56.7	3.8	8.45e-01	0	61	104	2552233984	60	13992
2026-01-14 06:10:09.85	257.89	2.10	-45.5	-56.7	3.8	8.46e-01	0	61	104	2552233984	60	13965
