passes_logs/2026/01/30/R2.0S_Moscow/R2.0S_Moscow__20260130_114235_AQUA_rec.log

#Pass ID: 20260130_114235_AQUA
#Satellite: AQUA
#Configuration: AQUA
#almurnet v.1.7.20251203
#Start time: 2026-01-30 11:42:37

#Version: 2.2.20231116
#Station: R2.0S_Moscow
#Location: 37.707566 lon 55.798166 lat
#TLE: 1 27424U 02022A   26029.54575153  .00001738  00000+0  35736-3 0  9994
#TLE: 2 27424  98.4104 356.2197 0001804  61.7823  56.0643 14.61874165263019

#Time	Az	El	Level	Level2	SNR	BER	BlckErr	Temp	State	Recorded	gain1	gain2
2026-01-30 11:42:37.58	161.66	2.11	-45.2	-63.9	3.8	7.46e-01	0	55	0	0	62	30225
2026-01-30 11:42:38.58	161.66	2.18	-45.2	-63.9	3.8	7.45e-01	0	55	104	0	61	31922
2026-01-30 11:42:39.59	161.66	2.25	-45.2	-63.9	3.8	7.44e-01	0	56	104	0	61	32075
2026-01-30 11:42:40.60	161.67	2.32	-45.2	-63.9	3.8	7.50e-01	0	56	104	0	61	31897
2026-01-30 11:42:41.61	161.67	2.39	-45.2	-63.9	3.8	7.45e-01	0	55	104	0	61	31884
2026-01-30 11:42:42.62	161.67	2.46	-45.2	-63.9	3.8	7.46e-01	0	56	104	0	61	31837
2026-01-30 11:42:43.63	161.67	2.52	-45.2	-63.8	3.8	7.46e-01	0	56	104	0	61	31808
2026-01-30 11:42:44.64	161.68	2.59	-45.1	-63.8	3.8	7.45e-01	0	56	104	0	61	31772
2026-01-30 11:42:45.66	161.68	2.66	-45.1	-63.9	3.8	7.43e-01	0	56	104	0	61	31811
2026-01-30 11:42:46.66	161.68	2.73	-45.2	-63.8	3.8	7.49e-01	0	56	104	0	61	31808
2026-01-30 11:42:47.68	161.69	2.80	-45.0	-63.8	3.8	7.45e-01	0	56	104	0	61	31720
2026-01-30 11:42:48.69	161.69	2.87	-45.1	-63.8	3.8	7.46e-01	0	56	104	0	61	31684
2026-01-30 11:42:49.70	161.69	2.94	-45.1	-63.8	3.8	7.44e-01	0	56	104	0	61	31739
2026-01-30 11:42:50.71	161.69	3.01	-45.1	-63.8	3.8	7.45e-01	0	56	104	0	61	31698
2026-01-30 11:42:51.72	161.70	3.08	-45.2	-63.8	3.8	7.47e-01	0	56	104	0	61	31747
2026-01-30 11:42:52.73	161.70	3.15	-45.1	-63.8	3.8	7.47e-01	0	56	104	0	61	31707
2026-01-30 11:42:53.74	161.70	3.22	-45.1	-63.8	3.8	7.45e-01	0	56	104	0	61	31722
2026-01-30 11:42:54.75	161.71	3.29	-45.1	-63.8	3.8	7.42e-01	0	56	104	0	61	31748
2026-01-30 11:42:55.76	161.71	3.36	-44.9	-63.8	3.8	7.43e-01	0	57	104	0	61	31667
2026-01-30 11:42:56.77	161.71	3.44	-45.1	-63.8	3.8	7.44e-01	0	56	104	0	61	31632
2026-01-30 11:42:57.78	161.71	3.51	-45.1	-63.8	3.8	7.46e-01	0	56	104	0	61	31465
2026-01-30 11:42:58.79	161.72	3.58	-45.1	-63.8	3.8	7.44e-01	0	57	104	0	61	31586
2026-01-30 11:42:59.81	161.72	3.65	-45.1	-63.8	3.8	7.46e-01	0	57	104	0	61	31709
2026-01-30 11:43:00.82	161.72	3.72	-45.1	-63.8	3.8	7.49e-01	0	57	104	0	61	31647
2026-01-30 11:43:01.83	161.73	3.80	-45.1	-63.8	3.8	7.45e-01	0	57	104	0	61	31638
2026-01-30 11:43:02.84	161.73	3.87	-45.1	-63.8	3.8	7.42e-01	0	57	104	0	61	31598
2026-01-30 11:43:03.85	161.73	3.94	-45.1	-63.8	3.8	7.44e-01	0	57	104	0	61	31548
2026-01-30 11:43:04.86	161.73	4.01	-45.1	-63.7	3.8	7.45e-01	0	57	104	0	61	31433
2026-01-30 11:43:05.87	161.74	4.09	-45.1	-63.8	3.8	7.47e-01	0	57	104	0	61	31447
2026-01-30 11:43:06.88	161.74	4.16	-45.1	-63.8	3.8	7.48e-01	0	57	104	0	61	31654
2026-01-30 11:43:07.89	161.74	4.23	-45.1	-63.8	3.8	7.45e-01	0	57	104	0	61	31699
2026-01-30 11:43:08.90	161.75	4.31	-45.1	-63.8	3.8	7.44e-01	0	57	104	0	61	31525
2026-01-30 11:43:09.91	161.75	4.38	-45.1	-63.7	3.8	7.46e-01	0	57	104	0	61	31416
2026-01-30 11:43:10.92	161.75	4.46	-45.1	-63.6	3.8	7.43e-01	0	57	104	0	61	31052
2026-01-30 11:43:11.94	161.75	4.53	-45.1	-63.4	3.8	7.45e-01	0	57	104	0	61	30259
2026-01-30 11:43:12.94	161.76	4.61	-45.1	-63.0	3.8	7.44e-01	0	57	104	0	61	28864
2026-01-30 11:43:13.96	161.76	4.68	-45.1	-62.8	3.8	7.43e-01	0	57	104	0	61	28042
2026-01-30 11:43:14.97	161.76	4.76	-45.1	-62.6	3.8	7.45e-01	0	57	104	0	61	27586
2026-01-30 11:43:15.98	161.77	4.83	-45.1	-61.9	3.8	7.45e-01	0	57	104	0	61	25487
2026-01-30 11:43:16.99	161.77	4.91	-45.0	-60.5	4.1	7.34e-01	0	58	104	0	61	21749
2026-01-30 11:43:18.00	161.77	4.98	-45.0	-59.9	3.9	7.35e-01	0	58	104	0	61	20173
2026-01-30 11:43:19.01	161.78	5.06	-44.9	-57.6	5.4	6.97e-01	0	58	0	0	61	15465
2026-01-30 11:43:20.02	161.78	5.14	-44.8	-56.5	6.2	6.81e-01	92	57	0	1048576	61	13650
2026-01-30 11:43:21.03	161.78	5.21	-44.8	-56.2	6.4	6.73e-01	90	58	0	2621440	61	13133
2026-01-30 11:43:22.04	161.78	5.29	-44.7	-55.7	6.8	6.68e-01	92	58	0	4718592	61	12395
2026-01-30 11:43:23.05	161.79	5.37	-44.6	-55.0	7.5	6.58e-01	90	58	0	6815744	60	12096
2026-01-30 11:43:24.06	161.79	5.44	-44.6	-54.7	7.8	6.50e-01	89	58	0	8388608	60	11741
2026-01-30 11:43:25.07	161.79	5.52	-44.5	-54.3	8.1	6.45e-01	69	58	0	10485760	60	11244
2026-01-30 11:43:26.08	161.80	5.60	-44.4	-53.7	8.8	6.36e-01	0	58	0	12058624	60	10452
2026-01-30 11:43:27.09	161.80	5.68	-44.5	-53.6	9.0	6.34e-01	0	58	0	14155776	60	10317
2026-01-30 11:43:28.10	161.80	5.76	-44.4	-53.5	8.9	6.33e-01	0	58	0	16252928	60	10292
2026-01-30 11:43:29.12	161.80	5.84	-44.4	-53.4	9.2	6.32e-01	0	58	0	17825792	60	10069
2026-01-30 11:43:30.13	161.81	5.92	-44.4	-53.4	9.2	6.32e-01	0	58	0	19922944	60	10092
2026-01-30 11:43:31.14	161.81	5.99	-44.5	-54.1	8.5	6.42e-01	17	58	0	22020096	60	10957
2026-01-30 11:43:32.15	161.81	6.07	-44.5	-54.3	8.2	6.45e-01	54	58	0	23592960	60	11202
2026-01-30 11:43:33.16	161.82	6.15	-44.6	-54.7	7.8	6.50e-01	89	58	0	25690112	60	11688
2026-01-30 11:43:34.17	161.82	6.23	-44.7	-55.6	6.9	6.65e-01	92	58	0	27262976	60	12979
2026-01-30 11:43:35.18	161.82	6.31	-44.7	-56.4	6.2	6.79e-01	90	58	0	29360128	60	14258
2026-01-30 11:43:36.19	161.82	6.39	-44.8	-57.4	5.5	6.96e-01	13	58	0	30408704	60	16125
2026-01-30 11:43:37.20	161.83	6.48	-44.9	-57.8	5.3	7.02e-01	0	58	0	30932992	60	16735
2026-01-30 11:43:38.21	161.83	6.56	-44.9	-57.8	5.2	7.03e-01	18	58	0	30932992	60	16791
2026-01-30 11:43:39.22	161.83	6.64	-44.8	-57.1	5.7	6.92e-01	36	58	0	30932992	60	15549
2026-01-30 11:43:40.23	161.84	6.72	-44.7	-55.6	6.9	6.64e-01	92	58	0	32505856	60	12984
2026-01-30 11:43:41.24	161.84	6.80	-44.5	-54.6	7.9	6.51e-01	92	59	0	34603008	60	11561
2026-01-30 11:43:42.25	161.84	6.88	-44.4	-53.2	9.3	6.27e-01	0	59	0	36700160	60	9874
2026-01-30 11:43:43.27	161.85	6.97	-44.4	-52.3	10.5	6.20e-01	0	59	0	38273024	59	9470
2026-01-30 11:43:44.27	161.85	7.05	-44.2	-51.3	11.6	6.15e-01	0	59	0	40370176	59	8432
2026-01-30 11:43:45.29	161.85	7.13	-44.0	-50.5	12.5	6.12e-01	0	58	0	41943040	59	7648
2026-01-30 11:43:46.29	161.85	7.22	-43.8	-49.8	13.3	6.08e-01	0	59	0	44040192	59	7046
2026-01-30 11:43:47.30	161.86	7.30	-43.6	-49.2	13.8	6.09e-01	0	59	0	46137344	59	6645
2026-01-30 11:43:48.32	161.86	7.39	-43.5	-48.9	14.1	6.07e-01	0	59	0	47710208	59	6402
2026-01-30 11:43:49.32	161.86	7.47	-43.4	-48.8	14.3	6.08e-01	0	59	0	49807360	58	6653
2026-01-30 11:43:50.34	161.87	7.56	-43.4	-48.7	14.5	6.08e-01	0	59	0	51380224	58	6576
2026-01-30 11:43:51.34	161.87	7.64	-43.4	-48.6	14.5	6.09e-01	0	59	0	53477376	58	6564
2026-01-30 11:43:52.35	161.87	7.73	-43.4	-48.8	14.4	6.09e-01	0	59	0	55574528	58	6647
2026-01-30 11:43:53.36	161.88	7.81	-43.5	-49.2	13.9	6.10e-01	0	59	0	57147392	58	6993
2026-01-30 11:43:54.38	161.88	7.90	-43.8	-49.8	13.3	6.08e-01	0	59	0	59244544	58	7483
2026-01-30 11:43:55.39	161.88	7.98	-43.9	-50.2	12.9	6.08e-01	0	59	0	61341696	58	7888
2026-01-30 11:43:56.40	161.88	8.07	-43.6	-49.0	14.0	6.07e-01	0	59	0	62914560	58	6852
2026-01-30 11:43:57.41	161.89	8.16	-43.5	-48.6	14.6	6.07e-01	0	59	0	65011712	59	6194
2026-01-30 11:43:58.42	161.89	8.25	-44.3	-52.2	9.9	6.20e-01	0	59	0	66584576	60	8853
2026-01-30 11:43:59.43	161.89	8.33	-44.0	-49.9	13.2	6.08e-01	0	59	0	68681728	59	7144
2026-01-30 11:44:00.43	161.90	8.42	-43.8	-49.3	14.1	6.08e-01	0	59	0	70778880	59	6709
2026-01-30 11:44:01.44	161.90	8.51	-45.1	-62.4	3.7	7.38e-01	0	59	104	70778880	60	28489
2026-01-30 11:44:02.45	161.90	8.60	-44.0	-50.0	13.2	6.10e-01	0	59	0	71303168	59	7212
2026-01-30 11:44:03.46	161.90	8.69	-43.9	-49.6	13.7	6.10e-01	0	59	0	72876032	59	6910
2026-01-30 11:44:04.47	161.91	8.78	-43.7	-49.1	14.3	6.08e-01	0	59	0	74973184	59	6528
2026-01-30 11:44:05.48	161.91	8.87	-43.5	-48.6	14.7	6.06e-01	0	59	0	77070336	59	6193
2026-01-30 11:44:06.49	161.91	8.96	-43.6	-48.8	14.5	6.07e-01	0	59	0	78643200	58	6670
2026-01-30 11:44:07.50	161.92	9.05	-43.5	-48.5	14.9	6.09e-01	0	59	0	80740352	58	6471
2026-01-30 11:44:08.51	161.92	9.14	-43.5	-48.4	15.0	6.08e-01	0	60	0	82313216	58	6387
2026-01-30 11:44:09.52	161.92	9.23	-43.5	-48.5	14.9	6.06e-01	0	59	0	84410368	58	6483
2026-01-30 11:44:10.53	161.93	9.32	-43.4	-48.3	15.1	6.08e-01	0	59	0	86507520	58	6334
2026-01-30 11:44:11.54	161.93	9.41	-43.4	-48.2	15.3	6.06e-01	0	59	0	88080384	58	6207
2026-01-30 11:44:12.55	161.93	9.51	-43.3	-48.0	15.4	6.07e-01	0	59	0	90177536	58	6124
2026-01-30 11:44:13.56	161.93	9.60	-43.3	-47.9	15.6	6.05e-01	0	59	0	91750400	58	6053
2026-01-30 11:44:14.57	161.94	9.69	-43.4	-48.1	15.3	6.04e-01	0	59	0	93847552	58	6180
2026-01-30 11:44:15.58	161.94	9.79	-43.3	-48.0	15.5	6.06e-01	0	60	0	95944704	58	6073
2026-01-30 11:44:16.59	161.94	9.88	-43.3	-47.8	15.7	6.07e-01	0	60	0	97517568	58	5986
2026-01-30 11:44:17.60	161.95	9.98	-43.3	-48.0	15.5	6.05e-01	0	60	0	99614720	58	6074
2026-01-30 11:44:18.61	161.95	10.07	-43.3	-48.0	15.6	6.07e-01	0	60	0	101187584	58	6065
2026-01-30 11:44:19.62	161.95	10.17	-43.3	-47.9	15.7	6.06e-01	0	60	0	103284736	58	6008
2026-01-30 11:44:20.63	161.96	10.26	-43.3	-48.0	15.6	6.06e-01	0	60	0	105381888	58	6072
2026-01-30 11:44:21.64	161.96	10.36	-43.3	-47.8	15.7	6.05e-01	0	60	0	106954752	58	5987
2026-01-30 11:44:22.65	161.96	10.45	-43.3	-47.9	15.7	6.08e-01	0	60	0	109051904	57	6377
2026-01-30 11:44:23.66	161.96	10.55	-43.3	-47.8	15.7	6.06e-01	0	60	0	111149056	57	6328
2026-01-30 11:44:24.67	161.97	10.65	-43.3	-47.8	15.8	6.07e-01	0	60	0	112721920	57	6311
2026-01-30 11:44:25.68	161.97	10.75	-43.3	-47.8	15.8	6.08e-01	0	60	0	114819072	57	6319
2026-01-30 11:44:26.69	161.97	10.84	-43.3	-47.7	15.9	6.08e-01	0	60	0	116391936	57	6252
2026-01-30 11:44:27.70	161.98	10.94	-43.3	-47.7	15.9	6.06e-01	0	60	0	118489088	57	6259
2026-01-30 11:44:28.71	161.98	11.04	-43.2	-47.7	15.9	6.07e-01	0	60	0	120586240	57	6233
2026-01-30 11:44:29.72	161.98	11.14	-43.3	-47.7	16.0	6.08e-01	0	60	0	122159104	57	6219
2026-01-30 11:44:30.73	161.99	11.24	-43.2	-47.6	16.1	6.06e-01	0	60	0	124256256	57	6153
2026-01-30 11:44:31.74	161.99	11.34	-43.3	-47.6	16.0	6.07e-01	0	60	0	126353408	57	6190
2026-01-30 11:44:32.75	161.99	11.44	-43.3	-47.7	16.0	6.10e-01	0	60	0	127926272	57	6209
2026-01-30 11:44:33.76	162.00	11.55	-43.2	-47.5	16.2	6.04e-01	0	60	0	130023424	57	6092
2026-01-30 11:44:34.77	162.00	11.65	-43.2	-47.4	16.3	6.08e-01	0	60	0	131596288	57	6045
2026-01-30 11:44:35.78	162.00	11.75	-43.2	-47.4	16.3	6.08e-01	0	60	0	133693440	57	6045
2026-01-30 11:44:36.79	162.00	11.85	-43.2	-47.4	16.3	6.07e-01	0	60	0	135790592	57	6035
2026-01-30 11:44:37.80	162.01	11.96	-43.2	-47.4	16.3	6.07e-01	0	60	0	137363456	57	6047
2026-01-30 11:44:38.81	162.01	12.06	-43.2	-47.4	16.3	6.05e-01	0	60	0	139460608	57	6059
2026-01-30 11:44:39.82	162.01	12.16	-43.2	-47.4	16.3	6.07e-01	0	60	0	141033472	57	6031
2026-01-30 11:44:40.83	162.02	12.27	-43.1	-47.2	16.6	6.08e-01	0	60	0	143130624	57	5857
2026-01-30 11:44:41.84	162.02	12.37	-43.0	-47.1	16.7	6.09e-01	0	60	0	145227776	57	5793
2026-01-30 11:44:42.85	162.02	12.48	-43.1	-47.2	16.5	6.08e-01	0	60	0	146800640	57	5893
2026-01-30 11:44:43.86	162.03	12.59	-43.1	-47.2	16.6	6.06e-01	0	60	0	148897792	57	5863
2026-01-30 11:44:44.87	162.03	12.69	-43.1	-47.2	16.6	6.08e-01	0	60	0	150470656	57	5873
2026-01-30 11:44:45.88	162.03	12.80	-43.0	-47.0	16.8	6.08e-01	0	60	0	152567808	57	5778
2026-01-30 11:44:46.89	162.03	12.91	-43.1	-47.2	16.6	6.06e-01	0	60	0	154664960	57	5878
2026-01-30 11:44:47.90	162.04	13.02	-43.1	-47.1	16.7	6.06e-01	0	60	0	156237824	57	5831
2026-01-30 11:44:48.91	162.04	13.13	-43.0	-47.0	16.9	6.06e-01	0	60	0	158334976	57	5744
2026-01-30 11:44:49.92	162.04	13.24	-43.0	-47.0	16.9	6.08e-01	0	61	0	159907840	57	5740
2026-01-30 11:44:50.93	162.05	13.35	-43.1	-47.0	16.8	6.05e-01	0	61	0	162004992	57	5770
2026-01-30 11:44:51.94	162.05	13.46	-43.0	-47.0	16.8	6.07e-01	0	60	0	164102144	57	5768
2026-01-30 11:44:52.95	162.05	13.57	-43.0	-46.9	16.9	6.06e-01	0	61	0	165675008	57	5714
2026-01-30 11:44:53.96	162.06	13.68	-43.0	-46.9	16.9	6.06e-01	0	61	0	167772160	57	5690
2026-01-30 11:44:54.97	162.06	13.79	-43.0	-46.9	17.0	6.07e-01	0	61	0	169345024	57	5685
2026-01-30 11:44:55.98	162.06	13.91	-43.0	-46.9	16.9	6.08e-01	0	61	0	171442176	57	5700
2026-01-30 11:44:56.99	162.07	14.02	-43.0	-46.9	17.0	6.07e-01	0	60	0	173539328	57	5696
2026-01-30 11:44:58.00	162.07	14.13	-43.0	-47.0	16.9	6.07e-01	0	61	0	175112192	57	5724
2026-01-30 11:44:59.01	162.07	14.25	-43.0	-46.9	17.0	6.08e-01	0	60	0	177209344	57	5667
2026-01-30 11:45:00.02	162.07	14.36	-43.1	-47.0	16.8	6.06e-01	0	61	0	179306496	57	5785
2026-01-30 11:45:01.03	162.08	14.48	-43.0	-46.9	17.0	6.07e-01	0	61	0	180879360	57	5722
2026-01-30 11:45:02.04	162.08	14.60	-43.0	-47.0	16.9	6.07e-01	0	61	0	182976512	57	5730
2026-01-30 11:45:03.05	162.08	14.71	-43.1	-47.0	16.9	6.07e-01	0	60	0	184549376	57	5755
2026-01-30 11:45:04.06	162.09	14.83	-43.0	-46.9	17.0	6.07e-01	0	61	0	186646528	57	5716
2026-01-30 11:45:05.07	162.09	14.95	-43.0	-47.0	17.0	6.05e-01	0	61	0	188743680	57	5738
2026-01-30 11:45:06.08	162.09	15.07	-43.0	-46.9	17.0	6.05e-01	0	61	0	190316544	57	5719
2026-01-30 11:45:07.09	162.10	15.19	-43.0	-46.9	17.1	6.05e-01	0	61	0	192413696	57	5665
2026-01-30 11:45:08.10	162.10	15.31	-43.0	-46.9	17.0	6.08e-01	0	61	0	194510848	57	5700
2026-01-30 11:45:09.11	162.10	15.43	-43.1	-46.9	17.0	6.08e-01	0	61	0	196083712	57	5709
2026-01-30 11:45:10.12	162.11	15.55	-43.0	-46.9	17.0	6.06e-01	0	61	0	198180864	57	5703
2026-01-30 11:45:11.13	162.11	15.67	-43.0	-46.9	17.1	6.04e-01	0	61	0	199753728	57	5662
2026-01-30 11:45:12.14	162.11	15.80	-43.0	-46.8	17.2	6.06e-01	0	61	0	201850880	57	5596
2026-01-30 11:45:13.15	162.11	15.92	-42.9	-46.6	17.3	6.06e-01	0	61	0	203948032	57	5497
2026-01-30 11:45:14.16	162.12	16.05	-42.9	-46.7	17.3	6.06e-01	0	61	0	205520896	57	5547
2026-01-30 11:45:15.17	162.12	16.17	-43.0	-46.7	17.2	6.08e-01	0	61	0	207618048	57	5592
2026-01-30 11:45:16.18	162.12	16.30	-42.9	-46.7	17.3	6.08e-01	0	61	0	209190912	57	5538
2026-01-30 11:45:17.19	162.13	16.42	-42.9	-46.5	17.5	6.07e-01	0	61	0	211288064	57	5453
2026-01-30 11:45:18.20	162.13	16.55	-42.9	-46.6	17.4	6.07e-01	0	61	0	213385216	57	5500
2026-01-30 11:45:19.21	162.13	16.68	-42.8	-46.5	17.5	6.08e-01	0	61	0	214958080	57	5424
2026-01-30 11:45:20.22	162.14	16.81	-42.9	-46.5	17.5	6.09e-01	0	61	0	217055232	57	5452
2026-01-30 11:45:21.23	162.14	16.94	-42.9	-46.6	17.4	6.06e-01	0	61	0	218628096	57	5470
2026-01-30 11:45:22.24	162.14	17.07	-42.9	-46.6	17.4	6.06e-01	0	61	0	220725248	57	5473
2026-01-30 11:45:23.25	162.15	17.20	-43.0	-46.7	17.3	6.08e-01	0	61	0	222822400	57	5575
2026-01-30 11:45:24.26	162.15	17.33	-43.0	-46.7	17.3	6.07e-01	0	61	0	224395264	57	5585
2026-01-30 11:45:25.27	162.15	17.46	-43.0	-46.8	17.2	6.05e-01	0	61	0	226492416	57	5644
2026-01-30 11:45:26.28	162.15	17.60	-43.1	-46.9	17.2	6.07e-01	0	61	0	228065280	57	5680
2026-01-30 11:45:27.29	162.16	17.73	-43.1	-47.0	17.1	6.08e-01	0	61	0	230162432	57	5743
2026-01-30 11:45:28.30	162.16	17.87	-43.1	-46.9	17.1	6.08e-01	0	61	0	232259584	57	5703
2026-01-30 11:45:29.31	162.16	18.00	-43.1	-47.0	17.1	6.07e-01	0	61	0	233832448	57	5750
2026-01-30 11:45:30.32	162.17	18.14	-43.1	-47.0	17.1	6.08e-01	0	61	0	235929600	57	5753
2026-01-30 11:45:31.33	162.17	18.28	-43.1	-47.0	17.1	6.05e-01	0	61	0	238026752	57	5751
2026-01-30 11:45:32.34	162.17	18.42	-43.1	-47.0	17.1	6.07e-01	0	61	0	239599616	57	5737
2026-01-30 11:45:33.35	162.18	18.56	-43.1	-47.0	17.1	6.07e-01	0	61	0	241696768	57	5741
2026-01-30 11:45:34.36	162.18	18.70	-43.1	-46.9	17.2	6.06e-01	0	61	0	243269632	57	5685
2026-01-30 11:45:35.37	162.18	18.84	-43.1	-46.9	17.1	6.07e-01	0	61	0	245366784	57	5712
2026-01-30 11:45:36.38	162.19	18.98	-43.0	-46.8	17.2	6.06e-01	0	61	0	247463936	57	5637
2026-01-30 11:45:37.40	162.19	19.12	-43.0	-46.8	17.3	6.07e-01	0	61	0	249036800	57	5620
2026-01-30 11:45:38.40	162.19	19.27	-43.0	-46.8	17.3	6.08e-01	0	61	0	251133952	57	5615
2026-01-30 11:45:39.41	162.20	19.41	-43.1	-46.9	17.1	6.06e-01	0	61	0	252706816	57	5711
2026-01-30 11:45:40.43	162.20	19.56	-43.1	-46.9	17.1	6.09e-01	0	61	0	254803968	57	5708
2026-01-30 11:45:41.44	162.20	19.70	-43.1	-46.9	17.2	6.05e-01	0	61	0	256901120	57	5672
2026-01-30 11:45:42.45	162.20	19.85	-43.1	-47.0	17.1	6.08e-01	0	61	0	258473984	57	5755
2026-01-30 11:45:43.46	162.21	20.00	-43.1	-47.0	17.1	6.07e-01	0	61	0	260571136	57	5747
2026-01-30 11:45:44.47	162.21	20.15	-43.2	-47.0	17.1	6.07e-01	0	61	0	262668288	57	5764
2026-01-30 11:45:45.47	162.21	20.30	-43.2	-47.1	17.0	6.06e-01	0	62	0	264241152	57	5823
2026-01-30 11:45:46.49	162.22	20.45	-43.2	-47.1	17.0	6.05e-01	0	62	0	266338304	57	5809
2026-01-30 11:45:47.49	162.22	20.60	-43.2	-47.1	17.0	6.07e-01	0	61	0	267911168	57	5824
2026-01-30 11:45:48.51	162.22	20.76	-43.3	-47.2	16.9	6.07e-01	0	62	0	270008320	57	5884
2026-01-30 11:45:49.52	162.23	20.91	-43.3	-47.2	16.9	6.07e-01	0	61	0	272105472	57	5896
2026-01-30 11:45:50.53	162.23	21.07	-43.3	-47.3	16.8	6.06e-01	0	61	0	273678336	57	5928
2026-01-30 11:45:51.54	162.23	21.22	-43.3	-47.3	16.8	6.06e-01	0	62	0	275775488	57	5989
2026-01-30 11:45:52.55	162.24	21.38	-43.4	-47.5	16.6	6.07e-01	0	61	0	277348352	57	6062
2026-01-30 11:45:53.55	162.24	21.54	-43.4	-47.4	16.6	6.10e-01	0	61	0	279445504	57	6058
2026-01-30 11:45:54.57	162.24	21.70	-43.4	-47.4	16.8	6.07e-01	0	61	0	281542656	57	6007
2026-01-30 11:45:55.58	162.25	21.86	-43.4	-47.4	16.7	6.07e-01	0	61	0	283115520	57	6014
2026-01-30 11:45:56.59	162.25	22.02	-43.4	-47.4	16.7	6.07e-01	0	62	0	285212672	57	6061
2026-01-30 11:45:57.59	162.25	22.19	-43.4	-47.5	16.7	6.06e-01	0	61	0	287309824	57	6068
2026-01-30 11:45:58.60	162.25	22.35	-43.3	-47.3	16.8	6.07e-01	0	62	0	288882688	57	5954
2026-01-30 11:45:59.61	162.26	22.52	-43.3	-47.3	16.8	6.05e-01	0	62	0	290979840	57	5947
2026-01-30 11:46:00.63	162.26	22.68	-43.4	-47.4	16.7	6.08e-01	0	61	0	292552704	57	6014
2026-01-30 11:46:01.64	162.26	22.85	-43.3	-47.3	16.8	6.07e-01	0	61	0	294649856	57	5983
2026-01-30 11:46:02.64	162.27	23.02	-43.3	-47.3	16.8	6.05e-01	0	62	0	296747008	57	5933
2026-01-30 11:46:03.66	162.27	23.19	-43.3	-47.3	16.9	6.05e-01	0	61	0	298319872	57	5934
2026-01-30 11:46:04.67	162.27	23.36	-43.3	-47.3	16.9	6.05e-01	0	62	0	300417024	57	5950
2026-01-30 11:46:05.68	162.28	23.54	-43.3	-47.3	16.8	6.07e-01	0	62	0	301989888	57	5980
2026-01-30 11:46:06.69	162.28	23.71	-43.3	-47.3	16.9	6.04e-01	0	61	0	304087040	57	5941
2026-01-30 11:46:07.70	162.28	23.89	-43.3	-47.3	16.8	6.07e-01	0	62	0	306184192	57	5954
2026-01-30 11:46:08.71	162.29	24.06	-43.4	-47.3	16.8	6.05e-01	0	62	0	307757056	57	5973
2026-01-30 11:46:09.72	162.29	24.24	-43.4	-47.4	16.8	6.07e-01	0	62	0	309854208	57	6023
2026-01-30 11:46:10.73	162.29	24.42	-43.4	-47.5	16.7	6.06e-01	0	62	0	311427072	57	6081
2026-01-30 11:46:11.74	162.30	24.60	-43.4	-47.3	16.9	6.07e-01	0	62	0	313524224	57	5965
2026-01-30 11:46:12.75	162.30	24.78	-43.3	-47.3	16.9	6.07e-01	0	62	0	315621376	57	5945
2026-01-30 11:46:13.75	162.30	24.96	-43.3	-47.1	17.0	6.07e-01	0	61	0	317194240	57	5849
2026-01-30 11:46:14.77	162.31	25.15	-43.3	-47.1	17.1	6.07e-01	0	62	0	319291392	57	5813
2026-01-30 11:46:15.78	162.31	25.34	-43.3	-47.1	17.1	6.06e-01	0	62	0	320864256	57	5844
2026-01-30 11:46:16.78	162.31	25.52	-43.2	-47.1	17.1	6.05e-01	0	61	0	322961408	57	5811
2026-01-30 11:46:17.79	162.31	25.71	-43.2	-47.0	17.2	6.08e-01	0	62	0	325058560	57	5766
2026-01-30 11:46:18.80	162.32	25.90	-43.2	-47.0	17.2	6.07e-01	0	62	0	326631424	57	5773
2026-01-30 11:46:19.81	162.32	26.10	-43.3	-47.1	17.1	6.07e-01	0	62	0	328728576	57	5844
2026-01-30 11:46:20.82	162.32	26.29	-43.3	-47.2	17.0	6.07e-01	0	62	0	330825728	57	5861
2026-01-30 11:46:21.83	162.33	26.48	-43.3	-47.2	17.1	6.09e-01	0	62	0	332398592	57	5878
2026-01-30 11:46:22.84	162.33	26.68	-43.3	-47.2	17.0	6.06e-01	0	62	0	334495744	57	5867
2026-01-30 11:46:23.85	162.33	26.88	-43.3	-47.2	17.1	6.07e-01	0	61	0	336068608	57	5861
2026-01-30 11:46:24.86	162.34	27.08	-43.3	-47.1	17.1	6.06e-01	0	62	0	338165760	57	5850
2026-01-30 11:46:25.87	162.34	27.28	-43.2	-47.0	17.2	6.07e-01	0	62	0	340262912	57	5750
2026-01-30 11:46:26.88	162.34	27.48	-43.2	-46.9	17.3	6.06e-01	0	62	0	341835776	57	5697
2026-01-30 11:46:27.89	162.35	27.69	-43.1	-46.8	17.4	6.07e-01	0	62	0	343932928	57	5625
2026-01-30 11:46:28.90	162.35	27.89	-43.1	-46.7	17.5	6.06e-01	0	62	0	345505792	57	5587
2026-01-30 11:46:29.91	162.35	28.10	-43.0	-46.6	17.6	6.04e-01	0	62	0	347602944	57	5502
2026-01-30 11:46:30.92	162.36	28.31	-43.0	-46.6	17.7	6.07e-01	0	62	0	349700096	57	5472
2026-01-30 11:46:31.93	162.36	28.52	-43.0	-46.7	17.6	6.07e-01	0	62	0	351272960	57	5540
2026-01-30 11:46:32.94	162.36	28.73	-43.0	-46.7	17.6	6.09e-01	0	62	0	353370112	57	5537
2026-01-30 11:46:33.95	162.37	28.95	-43.2	-46.9	17.4	6.08e-01	0	62	0	355467264	57	5668
2026-01-30 11:46:34.96	162.37	29.17	-43.2	-46.9	17.4	6.06e-01	0	62	0	357040128	57	5672
2026-01-30 11:46:35.98	162.37	29.39	-43.1	-46.8	17.4	6.07e-01	0	62	0	359137280	57	5632
2026-01-30 11:46:36.98	162.38	29.60	-43.0	-46.6	17.6	6.06e-01	0	62	0	360710144	57	5510
2026-01-30 11:46:37.99	162.38	29.83	-43.0	-46.6	17.7	6.07e-01	0	62	0	362807296	57	5467
2026-01-30 11:46:39.00	162.38	30.05	-42.9	-46.5	17.8	6.08e-01	0	62	0	364904448	57	5404
2026-01-30 11:46:40.02	162.38	30.28	-42.9	-46.4	17.8	6.07e-01	0	62	0	366477312	57	5388
2026-01-30 11:46:41.03	162.39	30.51	-43.0	-46.5	17.7	6.08e-01	0	62	0	368574464	57	5451
2026-01-30 11:46:42.04	162.39	30.74	-43.1	-46.7	17.6	6.07e-01	0	62	0	370671616	57	5564
2026-01-30 11:46:43.05	162.39	30.97	-43.1	-46.8	17.5	6.06e-01	0	62	0	372244480	57	5615
2026-01-30 11:46:44.06	162.40	31.20	-43.1	-46.7	17.5	6.06e-01	0	62	0	374341632	57	5585
2026-01-30 11:46:45.07	162.40	31.44	-43.1	-46.7	17.6	6.08e-01	0	62	0	375914496	57	5565
2026-01-30 11:46:46.08	162.40	31.67	-43.1	-46.8	17.5	6.07e-01	0	62	0	378011648	57	5601
2026-01-30 11:46:47.09	162.41	31.91	-43.1	-46.7	17.6	6.08e-01	0	62	0	380108800	57	5552
2026-01-30 11:46:48.10	162.41	32.16	-43.0	-46.6	17.7	6.06e-01	0	62	0	381681664	57	5509
2026-01-30 11:46:49.10	162.41	32.40	-43.0	-46.6	17.7	6.06e-01	0	62	0	383778816	57	5511
2026-01-30 11:46:50.11	162.42	32.64	-43.0	-46.6	17.7	6.07e-01	0	62	0	385351680	57	5502
2026-01-30 11:46:51.13	162.42	32.89	-43.1	-46.7	17.6	6.07e-01	0	62	0	387448832	57	5561
2026-01-30 11:46:52.13	162.42	33.14	-43.2	-46.9	17.4	6.07e-01	0	62	0	389545984	57	5717
2026-01-30 11:46:53.14	162.43	33.39	-43.2	-46.9	17.4	6.06e-01	0	62	0	391118848	57	5692
2026-01-30 11:46:54.15	162.43	33.65	-43.3	-47.0	17.3	6.05e-01	0	62	0	393216000	57	5754
2026-01-30 11:46:55.17	162.43	33.91	-43.3	-47.1	17.2	6.08e-01	0	62	0	394788864	57	5846
2026-01-30 11:46:56.17	162.44	34.17	-43.3	-47.1	17.2	6.07e-01	0	62	0	396886016	57	5824
2026-01-30 11:46:57.18	162.44	34.43	-43.4	-47.4	17.0	6.07e-01	0	62	0	398983168	57	5994
2026-01-30 11:46:58.19	162.44	34.69	-43.6	-47.6	16.7	6.07e-01	0	62	0	400556032	57	6190
2026-01-30 11:46:59.20	162.45	34.96	-43.7	-47.8	16.5	6.06e-01	0	62	0	402653184	57	6339
2026-01-30 11:47:00.21	162.45	35.23	-43.7	-47.8	16.5	6.09e-01	0	62	0	404226048	57	6342
2026-01-30 11:47:01.22	162.45	35.50	-43.7	-47.9	16.4	6.08e-01	0	62	0	406323200	57	6362
2026-01-30 11:47:02.23	162.46	35.77	-43.8	-48.0	16.3	6.07e-01	0	62	0	408420352	58	6123
2026-01-30 11:47:03.24	162.46	36.05	-43.9	-48.3	16.0	6.06e-01	0	62	0	409993216	58	6310
2026-01-30 11:47:04.25	162.46	36.33	-43.9	-48.3	16.0	6.06e-01	0	62	0	412090368	58	6347
2026-01-30 11:47:05.26	162.46	36.61	-44.0	-48.5	15.8	6.08e-01	0	62	0	413663232	58	6462
2026-01-30 11:47:06.27	162.47	36.89	-44.1	-48.7	15.6	6.07e-01	0	62	0	415760384	58	6615
2026-01-30 11:47:07.29	162.47	37.18	-44.2	-48.9	15.4	6.08e-01	0	62	0	417857536	58	6760
2026-01-30 11:47:08.29	162.47	37.47	-44.2	-48.9	15.4	6.07e-01	0	62	0	419430400	58	6774
2026-01-30 11:47:09.30	162.48	37.76	-44.2	-49.1	15.2	6.09e-01	0	62	0	421527552	59	6496
2026-01-30 11:47:10.32	162.48	38.06	-44.2	-49.0	15.4	6.08e-01	0	62	0	423624704	59	6421
2026-01-30 11:47:11.33	162.48	38.36	-44.2	-49.0	15.3	6.08e-01	0	62	0	425197568	59	6440
2026-01-30 11:47:12.33	162.49	38.65	-44.3	-49.1	15.2	6.08e-01	0	62	0	427294720	59	6570
2026-01-30 11:47:13.34	162.49	38.96	-44.3	-49.1	15.2	6.05e-01	0	62	0	428867584	59	6537
2026-01-30 11:47:14.35	162.49	39.26	-44.3	-49.1	15.2	6.08e-01	0	62	0	430964736	59	6540
2026-01-30 11:47:15.36	162.50	39.57	-44.2	-49.0	15.3	6.08e-01	0	62	0	433061888	59	6423
2026-01-30 11:47:16.37	162.50	39.88	-44.0	-48.5	15.9	6.07e-01	0	62	0	434634752	59	6063
2026-01-30 11:47:17.38	162.50	40.20	-43.9	-48.3	16.0	6.07e-01	0	62	0	436731904	59	5953
2026-01-30 11:47:18.39	162.51	40.52	-44.0	-48.4	16.0	6.08e-01	0	62	0	438829056	59	6002
2026-01-30 11:47:19.40	162.51	40.84	-43.9	-48.3	16.0	6.06e-01	0	62	0	440401920	59	5983
2026-01-30 11:47:20.41	162.51	41.16	-43.9	-48.3	16.1	6.07e-01	0	62	0	442499072	59	5931
2026-01-30 11:47:21.42	162.52	41.49	-43.9	-48.2	16.1	6.05e-01	0	62	0	444071936	59	5918
2026-01-30 11:47:22.43	162.52	41.82	-43.9	-48.3	16.1	6.05e-01	0	62	0	446169088	59	5924
2026-01-30 11:47:23.44	162.52	42.15	-43.8	-48.1	16.2	6.05e-01	0	62	0	448266240	59	5815
2026-01-30 11:47:24.45	162.53	42.49	-43.7	-47.7	16.6	6.06e-01	0	62	0	449839104	59	5581
2026-01-30 11:47:25.46	162.53	42.83	-43.5	-47.5	16.9	6.06e-01	0	62	0	451936256	59	5406
2026-01-30 11:47:26.47	162.53	43.17	-43.4	-47.2	17.2	6.06e-01	0	62	0	453509120	58	5552
2026-01-30 11:47:27.48	162.53	43.52	-43.4	-47.3	17.1	6.04e-01	0	62	0	455606272	58	5597
2026-01-30 11:47:28.49	162.54	43.86	-43.3	-47.0	17.4	6.08e-01	0	62	0	457703424	58	5440
2026-01-30 11:47:29.50	162.54	44.22	-43.3	-47.1	17.3	6.07e-01	0	62	0	459276288	58	5510
2026-01-30 11:47:30.51	162.54	44.57	-43.4	-47.2	17.2	6.08e-01	0	62	0	461373440	58	5552
2026-01-30 11:47:31.52	162.55	44.93	-43.2	-46.9	17.4	6.05e-01	0	62	0	462946304	58	5371
2026-01-30 11:47:32.53	162.55	45.30	-43.2	-46.9	17.5	6.08e-01	0	62	0	465043456	58	5353
2026-01-30 11:47:33.54	162.55	45.66	-43.3	-47.1	17.3	6.07e-01	0	62	0	467140608	58	5471
2026-01-30 11:47:34.55	162.56	46.03	-43.3	-47.0	17.4	6.06e-01	0	62	0	468713472	58	5451
2026-01-30 11:47:35.56	162.56	46.40	-43.3	-46.9	17.4	6.06e-01	0	62	0	470810624	58	5386
2026-01-30 11:47:36.57	162.56	46.78	-43.4	-47.2	17.2	6.08e-01	0	62	0	472383488	58	5554
2026-01-30 11:47:37.58	162.57	47.16	-43.4	-47.1	17.2	6.06e-01	0	62	0	474480640	58	5510
2026-01-30 11:47:38.59	162.57	47.55	-43.2	-46.8	17.6	6.06e-01	0	62	0	476577792	58	5318
2026-01-30 11:47:39.60	162.57	47.93	-43.2	-46.8	17.6	6.07e-01	0	62	0	478150656	58	5285
2026-01-30 11:47:40.61	162.58	48.33	-43.2	-46.7	17.6	6.06e-01	0	62	0	480247808	58	5275
2026-01-30 11:47:41.62	162.58	48.72	-43.4	-47.2	17.2	6.07e-01	0	62	0	481820672	58	5559
2026-01-30 11:47:42.63	162.58	49.12	-43.5	-47.5	16.9	6.05e-01	0	62	0	483917824	58	5746
2026-01-30 11:47:43.64	162.59	49.52	-43.4	-47.1	17.3	6.06e-01	0	62	0	486014976	58	5488
2026-01-30 11:47:44.65	162.59	49.93	-43.4	-47.3	17.1	6.07e-01	0	62	0	487587840	58	5596
2026-01-30 11:47:45.66	162.59	50.34	-43.5	-47.5	16.9	6.07e-01	0	62	0	489684992	58	5728
2026-01-30 11:47:46.67	162.59	50.75	-43.4	-47.2	17.1	6.08e-01	0	62	0	491782144	58	5578
2026-01-30 11:47:47.68	162.60	51.17	-43.4	-47.1	17.3	6.08e-01	0	62	0	493355008	58	5485
2026-01-30 11:47:48.69	162.60	51.59	-43.2	-46.8	17.5	6.06e-01	0	62	0	495452160	58	5321
2026-01-30 11:47:49.69	162.60	52.02	-43.0	-46.4	17.9	6.09e-01	0	62	0	497025024	58	5085
2026-01-30 11:47:50.70	162.61	52.44	-42.9	-46.3	18.1	6.04e-01	0	62	0	499122176	57	5336
2026-01-30 11:47:51.72	162.61	52.88	-43.0	-46.5	17.9	6.07e-01	0	62	0	501219328	57	5458
2026-01-30 11:47:52.72	162.61	53.32	-42.9	-46.3	18.1	6.07e-01	0	62	0	502792192	57	5295
2026-01-30 11:47:53.73	162.62	53.76	-42.7	-45.9	18.4	6.07e-01	0	62	0	504889344	57	5073
2026-01-30 11:47:54.75	162.62	54.21	-42.9	-46.3	18.2	6.09e-01	0	62	0	506986496	57	5282
2026-01-30 11:47:55.75	162.62	54.65	-42.9	-46.3	18.1	6.07e-01	0	62	0	508559360	57	5320
2026-01-30 11:47:56.76	162.63	55.11	-42.9	-46.3	18.0	6.06e-01	0	62	0	510656512	57	5336
2026-01-30 11:47:57.77	162.63	55.56	-43.1	-46.7	17.6	6.07e-01	0	62	0	512229376	57	5588
2026-01-30 11:47:58.78	162.63	56.03	-43.0	-46.4	17.9	6.07e-01	0	62	0	514326528	57	5388
2026-01-30 11:47:59.79	162.63	56.49	-43.3	-47.0	17.3	6.05e-01	0	62	0	516423680	57	5780
2026-01-30 11:48:00.80	162.64	56.96	-43.3	-47.0	17.4	6.07e-01	0	62	0	517996544	57	5724
2026-01-30 11:48:01.81	162.64	57.44	-43.4	-47.3	17.1	6.08e-01	0	62	0	520093696	57	5935
2026-01-30 11:48:02.82	162.64	57.91	-43.4	-47.1	17.2	6.07e-01	0	62	0	521666560	57	5852
2026-01-30 11:48:03.83	162.65	58.40	-43.7	-47.7	16.6	6.07e-01	0	62	0	523763712	57	6271
2026-01-30 11:48:04.84	162.65	58.88	-43.5	-47.5	16.8	6.08e-01	0	62	0	525860864	57	6097
2026-01-30 11:48:05.85	162.65	59.37	-43.8	-48.0	16.4	6.06e-01	0	62	0	527433728	58	6125
2026-01-30 11:48:06.86	162.65	59.87	-43.8	-48.1	16.1	6.06e-01	0	62	0	529530880	58	6160
2026-01-30 11:48:07.87	162.66	60.37	-43.8	-48.1	16.2	6.08e-01	0	62	0	531103744	58	6135
2026-01-30 11:48:08.88	162.66	60.87	-43.8	-48.0	16.4	6.06e-01	0	62	0	533200896	58	6099
2026-01-30 11:48:09.89	162.66	61.38	-44.2	-48.8	15.5	6.07e-01	0	62	0	535298048	58	6717
2026-01-30 11:48:10.90	162.67	61.89	-44.0	-48.5	15.8	6.08e-01	0	62	0	536870912	58	6462
2026-01-30 11:48:11.91	162.67	62.40	-44.2	-48.9	15.5	6.04e-01	0	62	0	538968064	58	6726
2026-01-30 11:48:12.93	162.67	62.93	-44.5	-49.7	14.6	6.09e-01	0	62	0	540540928	59	6967
2026-01-30 11:48:13.94	162.67	63.45	-44.6	-50.0	14.3	6.09e-01	0	62	0	542638080	59	7241
2026-01-30 11:48:14.94	162.68	63.97	-44.4	-49.5	14.7	6.09e-01	0	62	0	544735232	59	6871
2026-01-30 11:48:15.96	162.68	64.51	-44.7	-50.2	14.1	6.09e-01	0	62	0	546308096	59	7433
2026-01-30 11:48:16.97	162.68	65.04	-44.7	-50.7	13.2	6.09e-01	0	62	0	548405248	60	7396
2026-01-30 11:48:17.98	162.69	65.58	-44.5	-50.0	13.8	6.07e-01	0	62	0	549978112	60	6840
2026-01-30 11:48:18.99	162.69	66.12	-44.7	-50.6	13.3	6.08e-01	0	62	0	552075264	60	7340
2026-01-30 11:48:19.99	162.69	66.66	-44.9	-51.3	12.5	6.11e-01	0	62	0	554172416	60	7907
2026-01-30 11:48:21.01	162.69	67.22	-44.7	-50.9	12.9	6.12e-01	0	62	0	555745280	60	7593
2026-01-30 11:48:22.02	162.70	67.77	-44.8	-50.9	12.9	6.09e-01	0	62	0	557842432	60	7612
2026-01-30 11:48:23.03	162.70	68.33	-44.9	-51.5	12.3	6.12e-01	0	62	0	559939584	60	8151
2026-01-30 11:48:24.04	162.70	68.89	-44.9	-51.6	12.2	6.12e-01	0	62	0	561512448	60	8201
2026-01-30 11:48:25.05	162.70	69.45	-44.8	-51.2	12.5	6.10e-01	0	62	0	563609600	60	7856
2026-01-30 11:48:26.06	162.71	70.02	-45.0	-52.0	11.8	6.13e-01	0	62	0	565182464	60	8562
2026-01-30 11:48:27.06	162.71	70.59	-44.8	-51.3	12.5	6.12e-01	0	62	0	567279616	60	7943
2026-01-30 11:48:28.07	162.71	71.16	-44.8	-51.2	12.6	6.11e-01	0	62	0	569376768	60	7839
2026-01-30 11:48:29.08	162.71	71.74	-44.8	-51.0	12.8	6.10e-01	0	62	0	570949632	60	7663
2026-01-30 11:48:30.09	162.71	72.32	-44.6	-50.6	13.1	6.11e-01	0	62	0	573046784	60	7371
2026-01-30 11:48:31.10	162.71	72.91	-44.4	-50.0	13.8	6.08e-01	0	62	0	575143936	60	6850
2026-01-30 11:48:32.11	162.72	73.49	-44.5	-50.3	13.5	6.09e-01	0	62	0	576716800	60	7082
2026-01-30 11:48:33.12	162.72	74.08	-44.4	-50.0	13.8	6.07e-01	0	62	0	578813952	60	6828
2026-01-30 11:48:34.13	162.72	74.68	-44.4	-50.0	13.8	6.09e-01	0	62	0	580386816	60	6826
2026-01-30 11:48:35.14	162.72	75.27	-44.5	-50.4	13.4	6.09e-01	0	62	0	582483968	60	7203
2026-01-30 11:48:36.15	162.72	75.87	-44.2	-49.3	14.4	6.08e-01	0	62	0	584581120	60	6318
2026-01-30 11:48:37.16	162.72	76.48	-44.1	-49.3	14.5	6.09e-01	0	62	0	586153984	60	6291
2026-01-30 11:48:38.17	162.72	77.08	-44.2	-49.6	14.2	6.10e-01	0	62	0	588251136	60	6507
2026-01-30 11:48:39.18	162.72	77.69	-44.2	-49.0	15.2	6.06e-01	0	62	0	589824000	59	6461
2026-01-30 11:48:40.19	162.72	78.30	-44.1	-48.9	15.3	6.10e-01	0	62	0	591921152	59	6356
2026-01-30 11:48:41.20	162.72	78.91	-44.2	-49.0	15.1	6.06e-01	0	62	0	594018304	59	6451
2026-01-30 11:48:42.21	162.72	79.52	-43.8	-48.1	16.0	6.10e-01	0	62	0	595591168	59	5854
2026-01-30 11:48:43.22	162.72	80.14	-43.6	-47.7	16.5	6.07e-01	0	62	0	597688320	59	5544
2026-01-30 11:48:44.23	162.72	80.75	-43.6	-47.7	16.5	6.08e-01	0	62	0	599261184	59	5551
2026-01-30 11:48:45.24	162.71	81.37	-43.3	-47.2	17.1	6.06e-01	0	62	0	601358336	58	5529
2026-01-30 11:48:46.25	162.71	82.00	-43.3	-47.2	17.0	6.06e-01	0	62	0	603455488	58	5591
2026-01-30 11:48:47.26	162.71	82.62	-43.4	-47.3	16.9	6.07e-01	0	62	0	605028352	58	5643
2026-01-30 11:48:48.27	162.70	83.24	-43.4	-47.3	16.9	6.07e-01	0	62	0	607125504	58	5651
2026-01-30 11:48:49.28	162.69	83.87	-43.5	-47.5	16.7	6.05e-01	0	62	0	608698368	58	5764
2026-01-30 11:48:50.29	162.68	84.50	-43.6	-47.7	16.4	6.08e-01	0	62	0	610795520	58	5918
2026-01-30 11:48:51.30	162.66	85.12	-43.6	-47.8	16.4	6.09e-01	0	62	0	612892672	58	5941
2026-01-30 11:48:52.31	162.64	85.75	-43.7	-48.0	16.2	6.04e-01	0	62	0	614465536	58	6073
2026-01-30 11:48:53.31	162.61	86.38	-43.6	-47.7	16.5	6.07e-01	0	62	0	616562688	58	5867
2026-01-30 11:48:54.32	162.56	87.01	-43.5	-47.5	16.7	6.07e-01	0	62	0	618135552	58	5776
2026-01-30 11:48:55.33	162.49	87.64	-43.4	-47.3	16.9	6.06e-01	0	62	0	620232704	58	5620
2026-01-30 11:48:56.34	162.37	88.27	-43.0	-46.5	17.6	6.07e-01	0	62	0	622329856	57	5452
2026-01-30 11:48:57.35	162.10	88.90	-42.8	-46.2	18.0	6.05e-01	0	62	0	623902720	57	5221
2026-01-30 11:48:58.36	161.07	89.53	-42.8	-46.2	17.9	6.05e-01	0	62	0	625999872	57	5242
2026-01-30 11:48:59.37	347.85	89.83	-43.8	-48.1	16.0	6.06e-01	0	62	0	628097024	58	6180
2026-01-30 11:49:00.38	343.90	89.20	-42.6	-46.0	18.2	6.07e-01	0	62	0	629669888	56	5464
2026-01-30 11:49:01.39	343.45	88.57	-42.8	-46.3	17.9	6.07e-01	0	62	0	631767040	56	5593
2026-01-30 11:49:02.40	343.27	87.94	-42.9	-46.4	17.7	6.07e-01	0	62	0	633339904	56	5718
2026-01-30 11:49:03.41	343.18	87.31	-43.1	-46.9	17.3	6.07e-01	0	62	0	635437056	56	6019
2026-01-30 11:49:04.42	343.13	86.68	-43.5	-47.5	16.7	6.08e-01	0	62	0	637534208	57	6083
2026-01-30 11:49:05.43	343.09	86.05	-43.7	-48.0	16.2	6.08e-01	0	62	0	639107072	58	6078
2026-01-30 11:49:06.44	343.06	85.42	-43.7	-47.9	16.3	6.04e-01	0	62	0	641204224	58	6007
2026-01-30 11:49:07.45	343.05	84.79	-43.8	-48.3	16.0	6.08e-01	0	62	0	643301376	58	6280
2026-01-30 11:49:08.46	343.03	84.16	-43.8	-48.1	16.1	6.07e-01	0	62	0	644874240	58	6166
2026-01-30 11:49:09.47	343.02	83.54	-43.6	-47.8	16.4	6.06e-01	0	62	0	646971392	58	5950
2026-01-30 11:49:10.48	343.01	82.91	-43.6	-47.6	16.6	6.07e-01	0	62	0	648544256	58	5850
2026-01-30 11:49:11.49	343.01	82.29	-43.3	-47.1	17.1	6.05e-01	0	62	0	650641408	58	5491
2026-01-30 11:49:12.50	343.00	81.67	-43.6	-47.6	16.6	6.06e-01	0	62	0	652738560	58	5851
2026-01-30 11:49:13.51	343.00	81.05	-43.3	-47.2	16.8	6.06e-01	0	62	0	654311424	58	5577
2026-01-30 11:49:14.53	343.00	80.42	-43.3	-47.2	17.1	6.05e-01	0	62	0	656408576	58	5533
2026-01-30 11:49:15.54	343.00	79.81	-44.0	-48.5	15.7	6.05e-01	0	62	0	657981440	58	6453
2026-01-30 11:49:16.55	342.99	79.19	-43.7	-47.9	16.3	6.05e-01	0	62	0	660078592	58	6017
2026-01-30 11:49:17.56	342.99	78.58	-43.9	-48.2	16.0	6.08e-01	0	62	0	662175744	58	6261
2026-01-30 11:49:18.57	342.99	77.97	-44.5	-50.0	14.2	6.05e-01	0	62	0	663748608	59	7205
2026-01-30 11:49:19.58	342.99	77.37	-44.3	-49.3	14.9	6.07e-01	0	62	0	665845760	59	6675
2026-01-30 11:49:20.59	342.99	76.76	-44.6	-50.0	14.2	6.09e-01	0	62	0	667942912	59	7268
2026-01-30 11:49:21.59	343.00	76.16	-44.7	-50.9	12.9	6.09e-01	0	62	0	669515776	60	7571
2026-01-30 11:49:22.60	343.00	75.56	-44.3	-49.7	14.1	6.08e-01	0	62	0	671612928	60	6642
2026-01-30 11:49:23.61	343.00	74.97	-44.7	-50.3	13.9	6.09e-01	0	62	0	673185792	59	7473
2026-01-30 11:49:24.62	343.00	74.37	-44.7	-50.8	13.0	6.11e-01	0	62	0	675282944	60	7495
2026-01-30 11:49:25.63	343.00	73.78	-44.5	-50.1	13.8	6.10e-01	0	62	0	676855808	60	6906
2026-01-30 11:49:26.64	343.00	73.20	-43.8	-50.5	13.4	6.09e-01	0	62	0	678952960	60	7227
2026-01-30 11:49:27.65	343.00	72.61	-44.6	-50.0	14.1	6.07e-01	0	62	0	681050112	59	7256
2026-01-30 11:49:28.66	343.01	72.03	-44.5	-50.6	13.3	6.09e-01	0	62	0	682622976	60	7340
2026-01-30 11:49:29.67	343.01	71.45	-44.6	-50.5	13.3	6.10e-01	0	62	0	684720128	60	7235
2026-01-30 11:49:30.68	343.01	70.88	-44.6	-50.3	13.6	6.10e-01	0	62	0	686292992	60	7089
2026-01-30 11:49:31.69	343.01	70.30	-44.5	-50.4	13.4	6.06e-01	0	62	0	688390144	60	7141
2026-01-30 11:49:32.70	343.01	69.74	-45.0	-51.6	12.3	6.12e-01	0	62	0	690487296	60	8204
2026-01-30 11:49:33.71	343.02	69.17	-45.0	-51.8	12.0	6.15e-01	0	62	0	692060160	60	8415
2026-01-30 11:49:34.72	343.02	68.61	-44.6	-50.3	13.6	6.08e-01	0	62	0	694157312	60	7108
2026-01-30 11:49:35.73	343.02	68.05	-44.9	-51.3	12.6	6.14e-01	0	62	0	696254464	60	7963
2026-01-30 11:49:36.74	343.02	67.50	-44.9	-51.1	12.8	6.10e-01	0	62	0	697827328	60	7771
2026-01-30 11:49:37.75	343.03	66.95	-44.8	-51.1	12.8	6.10e-01	0	62	0	699924480	60	7738
2026-01-30 11:49:38.76	343.03	66.40	-44.7	-50.5	13.4	6.08e-01	0	62	0	701497344	60	7215
2026-01-30 11:49:39.77	343.03	65.86	-44.4	-50.1	14.2	6.08e-01	0	62	0	703594496	59	7288
2026-01-30 11:49:40.78	343.04	65.32	-44.7	-50.1	14.2	6.09e-01	0	62	0	705691648	59	7321
2026-01-30 11:49:41.79	343.04	64.79	-44.4	-49.8	14.1	6.08e-01	0	62	0	707264512	60	6723
2026-01-30 11:49:42.79	343.04	64.26	-44.4	-49.3	15.1	6.05e-01	0	62	0	709361664	59	6659
2026-01-30 11:49:43.80	343.04	63.73	-44.3	-49.1	15.3	6.08e-01	0	62	0	710934528	59	6556
2026-01-30 11:49:44.81	343.05	63.21	-44.1	-48.5	15.8	6.06e-01	0	62	0	713031680	59	6127
2026-01-30 11:49:45.82	343.05	62.69	-44.1	-48.7	15.6	6.09e-01	0	62	0	715128832	59	6259
2026-01-30 11:49:46.83	343.05	62.17	-44.0	-48.5	15.9	6.06e-01	0	62	0	716701696	58	6482
2026-01-30 11:49:47.84	343.06	61.66	-43.9	-48.3	16.0	6.07e-01	0	62	0	718798848	58	6330
2026-01-30 11:49:48.85	343.06	61.16	-43.5	-47.4	17.0	6.07e-01	0	62	0	720896000	58	5682
2026-01-30 11:49:49.86	343.06	60.65	-43.8	-47.9	16.5	6.08e-01	0	62	0	722468864	58	6031
2026-01-30 11:49:50.87	343.06	60.15	-44.2	-48.8	15.6	6.08e-01	0	62	0	724566016	58	6651
2026-01-30 11:49:51.88	343.07	59.66	-43.8	-47.9	16.5	6.08e-01	0	62	0	726138880	58	6037
2026-01-30 11:49:52.89	343.07	59.17	-43.6	-47.5	16.9	6.05e-01	0	62	0	728236032	58	5757
2026-01-30 11:49:53.90	343.07	58.68	-43.6	-47.8	16.6	6.07e-01	0	62	0	730333184	58	5949
2026-01-30 11:49:54.91	343.08	58.20	-43.5	-47.4	17.0	6.08e-01	0	62	0	731906048	58	5661
2026-01-30 11:49:55.92	343.08	57.72	-43.3	-47.3	17.1	6.06e-01	0	62	0	734003200	58	5641
2026-01-30 11:49:56.93	343.08	57.25	-43.4	-47.3	17.1	6.05e-01	0	62	0	735576064	57	5954
2026-01-30 11:49:57.94	343.09	56.78	-43.3	-47.0	17.4	6.07e-01	0	62	0	737673216	57	5765
2026-01-30 11:49:58.95	343.09	56.31	-43.0	-46.5	17.9	6.06e-01	0	62	0	739770368	56	5730
2026-01-30 11:49:59.95	343.09	55.85	-42.6	-45.8	18.6	6.09e-01	0	62	0	741343232	56	5320
2026-01-30 11:50:00.96	343.10	55.39	-42.6	-45.8	18.6	6.07e-01	0	62	0	743440384	56	5294
2026-01-30 11:50:01.98	343.10	54.93	-42.7	-46.0	18.4	6.06e-01	0	62	0	745013248	56	5431
2026-01-30 11:50:02.99	343.10	54.48	-42.8	-46.2	18.2	6.04e-01	0	62	0	747110400	56	5581
2026-01-30 11:50:04.00	343.11	54.04	-42.6	-45.8	18.6	6.05e-01	0	62	0	749207552	56	5293
2026-01-30 11:50:05.01	343.11	53.60	-42.5	-45.6	18.8	6.06e-01	0	62	0	750780416	56	5169
2026-01-30 11:50:06.02	343.11	53.16	-42.6	-45.8	18.6	6.07e-01	0	62	0	752877568	56	5283
2026-01-30 11:50:07.02	343.12	52.73	-42.7	-45.9	18.5	6.08e-01	0	62	0	754450432	56	5374
2026-01-30 11:50:08.03	343.12	52.30	-42.7	-46.0	18.3	6.07e-01	0	62	0	756547584	56	5451
2026-01-30 11:50:09.04	343.12	51.87	-42.7	-45.9	18.5	6.06e-01	0	62	0	758644736	56	5354
2026-01-30 11:50:10.05	343.13	51.45	-42.9	-46.3	18.1	6.06e-01	0	62	0	760217600	56	5645
2026-01-30 11:50:11.06	343.13	51.03	-43.0	-46.6	17.8	6.08e-01	0	62	0	762314752	56	5806
2026-01-30 11:50:12.07	343.13	50.62	-43.2	-46.8	17.6	6.03e-01	0	62	0	764411904	56	5944
2026-01-30 11:50:13.08	343.14	50.21	-43.3	-47.0	17.3	6.07e-01	0	62	0	765984768	57	5787
2026-01-30 11:50:14.09	343.14	49.80	-43.2	-46.9	17.4	6.06e-01	0	62	0	768081920	57	5673
2026-01-30 11:50:15.10	343.14	49.40	-43.2	-46.8	17.6	6.08e-01	0	62	0	769654784	57	5608
2026-01-30 11:50:16.11	343.15	49.00	-43.2	-46.8	17.5	6.08e-01	0	62	0	771751936	57	5655
2026-01-30 11:50:17.12	343.15	48.60	-43.2	-46.8	17.6	6.08e-01	0	62	0	773849088	57	5626
2026-01-30 11:50:18.13	343.15	48.21	-43.3	-47.0	17.4	6.07e-01	0	62	0	775421952	57	5755
2026-01-30 11:50:19.14	343.16	47.82	-43.4	-47.2	17.2	6.06e-01	0	62	0	777519104	57	5870
2026-01-30 11:50:20.15	343.16	47.44	-43.3	-47.0	17.4	6.07e-01	0	62	0	779091968	57	5746
2026-01-30 11:50:21.16	343.16	47.06	-43.5	-56.6	3.8	7.49e-01	0	62	104	779616256	57	17294
2026-01-30 11:50:22.17	343.17	46.68	-43.4	-56.4	3.8	7.47e-01	0	62	104	779616256	57	17002
2026-01-30 11:50:23.18	343.17	46.30	-43.6	-56.7	3.9	7.39e-01	0	62	104	779616256	57	17604
2026-01-30 11:50:24.19	343.17	45.93	-44.0	-57.4	3.8	7.46e-01	0	62	104	779616256	58	18071
2026-01-30 11:50:25.20	343.18	45.57	-46.2	-64.1	3.8	7.41e-01	0	62	104	779616256	62	30856
2026-01-30 11:50:26.21	343.18	45.20	-45.1	-60.2	3.9	7.43e-01	0	62	104	779616256	62	19766
2026-01-30 11:50:27.22	343.18	44.84	-45.9	-62.7	3.8	7.44e-01	0	62	104	779616256	62	26162
2026-01-30 11:50:28.23	343.19	44.49	-43.9	-57.3	3.8	7.43e-01	0	62	104	779616256	59	16719
2026-01-30 11:50:29.24	343.19	44.14	-43.8	-57.1	3.8	7.45e-01	0	62	104	779616256	59	16345
2026-01-30 11:50:30.25	343.19	43.79	-43.7	-56.8	3.8	7.50e-01	0	62	104	779616256	59	15915
2026-01-30 11:50:31.26	343.20	43.44	-45.8	-62.4	3.8	7.45e-01	0	62	104	779616256	62	25346
2026-01-30 11:50:32.27	343.20	43.10	-45.0	-59.8	3.8	7.43e-01	0	62	104	779616256	62	18945
2026-01-30 11:50:33.28	343.20	42.76	-45.9	-62.8	3.8	7.43e-01	0	62	104	779616256	62	26743
2026-01-30 11:50:34.29	343.21	42.42	-43.9	-56.8	3.9	7.32e-01	0	62	104	779616256	59	15869
2026-01-30 11:50:35.30	343.21	42.09	-46.1	-63.9	3.8	7.39e-01	0	62	104	779616256	62	30134
2026-01-30 11:50:36.31	343.21	41.76	-43.9	-57.5	3.8	7.45e-01	0	62	104	779616256	59	17171
2026-01-30 11:50:37.32	343.22	41.43	-44.0	-57.8	3.8	7.44e-01	0	62	104	779616256	59	17720
2026-01-30 11:50:38.33	343.22	41.11	-44.2	-58.2	3.8	7.42e-01	0	62	104	779616256	59	18654
2026-01-30 11:50:39.34	343.22	40.78	-45.0	-60.3	3.9	7.39e-01	0	62	104	779616256	62	20027
2026-01-30 11:50:40.35	343.23	40.47	-44.2	-57.8	3.8	7.42e-01	0	62	104	779616256	59	17759
2026-01-30 11:50:41.36	343.23	40.15	-45.9	-63.5	3.8	7.43e-01	0	62	104	779616256	62	28981
2026-01-30 11:50:42.37	343.24	39.84	-44.4	-58.4	3.8	7.42e-01	0	62	104	779616256	60	17972
2026-01-30 11:50:43.38	343.24	39.53	-45.8	-62.8	3.8	7.44e-01	0	62	104	779616256	62	26654
2026-01-30 11:50:44.39	343.24	39.22	-44.1	-57.7	3.8	7.45e-01	0	62	104	779616256	59	17615
2026-01-30 11:50:45.40	343.25	38.92	-44.0	-57.5	3.8	7.44e-01	0	62	104	779616256	59	17260
2026-01-30 11:50:46.41	343.25	38.62	-44.5	-58.5	3.8	7.47e-01	0	62	104	779616256	59	19272
2026-01-30 11:50:47.42	343.25	38.32	-44.9	-59.7	3.9	7.42e-01	0	62	104	779616256	61	19758
2026-01-30 11:50:48.43	343.26	38.03	-44.3	-58.3	3.7	7.48e-01	0	62	104	779616256	59	18875
2026-01-30 11:50:49.44	343.26	37.73	-45.6	-62.4	3.9	7.43e-01	0	62	104	779616256	62	25393
2026-01-30 11:50:50.45	343.26	37.45	-44.0	-57.7	3.9	7.46e-01	0	62	104	779616256	59	17518
2026-01-30 11:50:51.46	343.27	37.16	-45.8	-62.9	3.8	7.43e-01	0	62	104	779616256	62	26940
2026-01-30 11:50:52.47	343.27	36.87	-44.4	-58.7	3.8	7.49e-01	0	62	104	779616256	60	18674
2026-01-30 11:50:53.48	343.27	36.59	-44.0	-58.0	3.8	7.48e-01	0	62	104	779616256	60	17110
2026-01-30 11:50:54.49	343.28	36.31	-43.6	-56.9	3.8	7.43e-01	0	62	104	779616256	59	16016
2026-01-30 11:50:55.50	343.28	36.04	-43.7	-57.0	3.8	7.43e-01	0	62	104	779616256	59	16303
2026-01-30 11:50:56.51	343.29	35.76	-44.1	-57.8	3.8	7.46e-01	0	62	104	779616256	59	17712
2026-01-30 11:50:57.52	343.29	35.49	-45.2	-60.9	3.9	7.48e-01	0	62	104	779616256	62	21462
2026-01-30 11:50:58.53	343.29	35.22	-43.4	-56.6	3.9	7.45e-01	0	62	104	779616256	58	16338
2026-01-30 11:50:59.54	343.30	34.95	-44.7	-59.6	3.9	7.45e-01	0	62	104	779616256	61	19532
2026-01-30 11:51:00.55	343.30	34.69	-43.4	-56.5	3.8	7.45e-01	0	62	104	779616256	58	16252
2026-01-30 11:51:01.56	343.30	34.43	-43.3	-56.3	3.8	7.42e-01	0	62	104	779616256	58	15857
2026-01-30 11:51:02.57	343.31	34.17	-43.8	-57.0	3.8	7.44e-01	0	62	104	779616256	58	17100
2026-01-30 11:51:03.58	343.31	33.91	-43.5	-56.6	3.8	7.41e-01	0	62	104	779616256	59	15504
2026-01-30 11:51:04.59	343.31	33.66	-44.7	-58.9	3.7	7.48e-01	0	62	104	779616256	59	20115
2026-01-30 11:51:05.61	343.32	33.40	-44.7	-59.3	3.9	7.42e-01	0	62	104	779616256	61	18860
2026-01-30 11:51:06.61	343.32	33.15	-43.7	-56.7	3.8	7.43e-01	0	62	104	779616256	57	17563
2026-01-30 11:51:07.62	343.32	32.90	-43.4	-57.4	3.9	7.44e-01	0	62	104	779616256	59	16892
2026-01-30 11:51:08.63	343.33	32.66	-42.8	-55.4	3.8	7.43e-01	0	62	104	779616256	57	15122
2026-01-30 11:51:09.64	343.33	32.41	-42.7	-55.4	3.8	7.44e-01	0	62	104	779616256	57	15109
2026-01-30 11:51:10.65	343.34	32.17	-44.3	-58.4	3.8	7.45e-01	0	62	104	779616256	59	19103
2026-01-30 11:51:11.66	343.34	31.93	-43.0	-55.9	3.8	7.41e-01	0	62	104	779616256	58	15167
2026-01-30 11:51:12.67	343.34	31.69	-44.7	-59.7	3.8	7.44e-01	0	62	104	779616256	60	20902
2026-01-30 11:51:13.68	343.35	31.46	-44.0	-58.6	3.8	7.45e-01	0	62	104	779616256	60	18485
2026-01-30 11:51:14.69	343.35	31.22	-44.7	-59.2	3.8	7.48e-01	0	62	104	779616256	59	20796
2026-01-30 11:51:15.70	343.35	30.99	-43.5	-56.9	3.8	7.42e-01	0	62	104	779616256	59	16046
2026-01-30 11:51:16.70	343.36	30.77	-42.9	-55.9	3.8	7.45e-01	0	62	104	779616256	57	16000
2026-01-30 11:51:17.71	343.36	30.54	-42.8	-55.7	3.8	7.42e-01	0	62	104	779616256	57	15672
2026-01-30 11:51:18.71	343.36	30.31	-44.8	-60.1	3.7	7.44e-01	0	62	104	779616256	60	21806
2026-01-30 11:51:19.72	343.37	30.09	-43.1	-56.2	3.8	7.43e-01	0	62	104	779616256	58	15651
2026-01-30 11:51:20.73	343.37	29.87	-45.4	-62.1	3.7	7.45e-01	0	62	104	779616256	61	25963
2026-01-30 11:51:21.75	343.38	29.64	-44.5	-59.6	3.8	7.44e-01	0	62	104	779616256	60	20662
2026-01-30 11:51:22.75	343.38	29.43	-45.0	-60.4	3.7	7.48e-01	0	62	104	779616256	60	22760
2026-01-30 11:51:23.77	343.38	29.21	-43.3	-56.8	3.9	7.44e-01	0	62	104	779616256	58	16778
2026-01-30 11:51:24.77	343.39	29.00	-42.8	-55.9	3.8	7.43e-01	0	62	104	779616256	57	15987
2026-01-30 11:51:25.78	343.39	28.78	-42.8	-55.8	3.8	7.46e-01	0	62	104	779616256	57	15766
2026-01-30 11:51:26.79	343.39	28.57	-44.7	-59.7	3.8	7.45e-01	0	62	104	779616256	59	22072
2026-01-30 11:51:27.81	343.40	28.36	-43.1	-56.2	3.8	7.47e-01	0	62	104	779616256	58	15667
2026-01-30 11:51:28.82	343.40	28.15	-45.4	-62.8	3.7	7.47e-01	0	62	104	779616256	61	28063
2026-01-30 11:51:29.83	343.40	27.95	-44.6	-59.8	3.8	7.45e-01	0	62	104	779616256	60	21162
2026-01-30 11:51:30.84	343.41	27.74	-45.3	-62.2	3.7	7.45e-01	0	62	104	779616256	61	26315
2026-01-30 11:51:31.85	343.41	27.54	-43.1	-56.4	3.8	7.45e-01	0	62	104	779616256	58	15950
2026-01-30 11:51:32.86	343.42	27.34	-43.1	-56.2	3.8	7.45e-01	0	62	104	779616256	58	15614
2026-01-30 11:51:33.87	343.42	27.14	-42.9	-55.9	3.8	7.44e-01	0	62	104	779616256	57	16073
2026-01-30 11:51:34.88	343.42	26.94	-44.8	-61.1	3.8	7.46e-01	0	62	104	779616256	60	24673
2026-01-30 11:51:35.89	343.43	26.74	-43.3	-56.7	3.8	7.47e-01	0	62	104	779616256	58	16505
2026-01-30 11:51:36.90	343.43	26.55	-45.3	-63.3	3.9	7.47e-01	0	62	104	779616256	61	29743
2026-01-30 11:51:37.91	343.43	26.35	-44.4	-60.1	3.8	7.45e-01	0	62	104	779616256	60	21921
2026-01-30 11:51:38.92	343.44	26.16	-45.2	-62.3	3.8	7.44e-01	0	62	104	779616256	60	28120
2026-01-30 11:51:39.93	343.44	25.97	-43.1	-56.6	3.8	7.45e-01	0	62	104	779616256	58	16492
2026-01-30 11:51:40.94	343.45	25.78	-43.0	-56.4	3.8	7.48e-01	0	62	104	779616256	57	17082
2026-01-30 11:51:41.95	343.45	25.59	-42.9	-56.4	3.8	7.45e-01	0	62	104	779616256	57	16984
2026-01-30 11:51:42.96	343.45	25.41	-44.4	-60.8	3.8	7.45e-01	0	62	104	779616256	59	25150
2026-01-30 11:51:43.97	343.46	25.22	-43.3	-57.3	3.8	7.46e-01	0	62	104	779616256	58	17718
2026-01-30 11:51:44.98	343.46	25.04	-44.9	-63.1	3.8	7.45e-01	0	62	104	779616256	60	30950
2026-01-30 11:51:45.98	343.46	24.86	-44.3	-60.7	3.8	7.44e-01	0	62	104	779616256	59	24878
2026-01-30 11:51:47.00	343.47	24.68	-45.0	-62.3	3.8	7.48e-01	0	62	104	779616256	60	28304
2026-01-30 11:51:48.01	343.47	24.50	-42.9	-57.1	3.8	7.46e-01	0	62	104	779616256	57	18332
2026-01-30 11:51:49.02	343.47	24.32	-42.8	-56.8	3.8	7.40e-01	0	62	104	779616256	57	17779
2026-01-30 11:51:50.03	343.48	24.14	-42.8	-56.9	3.8	7.46e-01	0	62	104	779616256	57	17960
2026-01-30 11:51:51.03	343.48	23.97	-43.9	-60.4	3.8	7.45e-01	0	62	104	779616256	58	25401
2026-01-30 11:51:52.05	343.49	23.79	-43.1	-57.6	3.8	7.43e-01	0	62	104	779616256	57	19479
2026-01-30 11:51:53.06	343.49	23.62	-44.7	-63.0	3.8	7.46e-01	0	62	104	779616256	59	32336
2026-01-30 11:51:54.07	343.49	23.45	-43.7	-60.5	3.8	7.46e-01	0	62	104	779616256	59	24343
2026-01-30 11:51:55.08	343.50	23.28	-44.5	-62.0	3.8	7.46e-01	0	62	104	779616256	60	27240
2026-01-30 11:51:56.09	343.50	23.11	-42.6	-56.6	3.8	7.44e-01	0	62	104	779616256	57	17363
2026-01-30 11:51:57.10	343.50	22.94	-42.4	-56.4	3.8	7.44e-01	0	62	104	779616256	56	17997
2026-01-30 11:51:58.11	343.51	22.77	-42.4	-56.5	3.8	7.45e-01	0	62	104	779616256	56	18285
2026-01-30 11:51:59.12	343.51	22.61	-42.9	-58.9	3.8	7.47e-01	0	62	104	779616256	56	24100
2026-01-30 11:52:00.13	343.52	22.44	-42.5	-56.8	3.8	7.42e-01	0	62	104	779616256	56	18820
2026-01-30 11:52:01.13	343.52	22.28	-43.9	-61.9	3.8	7.45e-01	0	62	104	779616256	58	30140
2026-01-30 11:52:02.14	343.52	22.12	-42.6	-58.3	3.9	7.41e-01	0	62	104	779616256	57	21122
2026-01-30 11:52:03.15	343.53	21.96	-44.3	-61.6	3.8	7.44e-01	0	62	104	779616256	59	27629
2026-01-30 11:52:04.16	343.53	21.80	-42.0	-56.2	3.8	7.48e-01	0	62	104	779616256	56	17555
2026-01-30 11:52:05.17	343.53	21.64	-41.8	-55.9	3.8	7.45e-01	0	62	104	779616256	55	18082
2026-01-30 11:52:06.18	343.54	21.48	-41.8	-56.1	3.8	7.46e-01	0	62	104	779616256	55	18350
2026-01-30 11:52:07.19	343.54	21.32	-42.4	-59.7	3.9	7.45e-01	0	62	104	779616256	55	27918
2026-01-30 11:52:08.20	343.55	21.17	-42.5	-58.0	3.8	7.46e-01	0	62	104	779616256	55	23004
2026-01-30 11:52:09.21	343.55	21.01	-43.1	-61.9	3.8	7.47e-01	0	62	104	779616256	57	31909
2026-01-30 11:52:10.22	343.55	20.86	-42.4	-61.1	3.8	7.50e-01	0	62	104	779616256	56	30847
2026-01-30 11:52:11.23	343.56	20.71	-43.5	-61.4	3.8	7.44e-01	0	62	104	779616256	57	30362
2026-01-30 11:52:12.24	343.56	20.55	-42.8	-60.2	3.8	7.46e-01	0	63	104	779616256	57	26456
2026-01-30 11:52:13.25	343.56	20.40	-42.7	-60.6	3.8	7.48e-01	0	62	104	779616256	57	27531
2026-01-30 11:52:14.26	343.57	20.25	-42.6	-60.8	3.8	7.44e-01	0	62	104	779616256	57	28319
2026-01-30 11:52:15.27	343.57	20.11	-42.3	-61.1	3.8	7.47e-01	0	63	104	779616256	56	31022
2026-01-30 11:52:16.28	343.58	19.96	-42.3	-61.1	3.8	7.47e-01	0	62	104	779616256	56	30929
2026-01-30 11:52:17.29	343.58	19.81	-42.3	-61.1	3.8	7.47e-01	0	62	104	779616256	56	30756
2026-01-30 11:52:18.30	343.58	19.67	-41.9	-60.7	3.8	7.47e-01	0	62	104	779616256	55	31271
2026-01-30 11:52:19.31	343.59	19.52	-42.3	-61.1	3.8	7.47e-01	0	63	104	779616256	55	32852
2026-01-30 11:52:20.32	343.59	19.38	-41.7	-60.6	3.8	7.46e-01	0	63	104	779616256	55	30773
2026-01-30 11:52:21.33	343.59	19.23	-41.7	-60.5	3.8	7.44e-01	0	62	104	779616256	55	30709
2026-01-30 11:52:22.34	343.60	19.09	-41.8	-60.6	3.8	7.47e-01	0	62	104	779616256	55	31063
2026-01-30 11:52:23.35	343.60	18.95	-41.9	-60.8	3.8	7.48e-01	0	62	104	779616256	55	31537
2026-01-30 11:52:24.36	343.61	18.81	-41.7	-60.6	3.8	7.45e-01	0	62	104	779616256	55	30822
2026-01-30 11:52:25.37	343.61	18.67	-42.1	-61.0	3.8	7.45e-01	0	62	104	779616256	55	32242
2026-01-30 11:52:26.38	343.61	18.53	-41.8	-60.6	3.8	7.44e-01	0	62	104	779616256	55	30895
2026-01-30 11:52:27.39	343.62	18.39	-41.8	-60.7	3.8	7.46e-01	0	63	104	779616256	55	31162
2026-01-30 11:52:28.40	343.62	18.26	-41.8	-60.7	3.8	7.49e-01	0	62	104	779616256	55	31187
2026-01-30 11:52:29.41	343.62	18.12	-41.9	-60.7	3.8	7.46e-01	0	62	104	779616256	55	31304
2026-01-30 11:52:30.42	343.63	17.99	-41.8	-60.6	3.8	7.47e-01	0	62	104	779616256	55	31037
2026-01-30 11:52:31.43	343.63	17.85	-41.9	-60.7	3.8	7.45e-01	0	62	104	779616256	55	31412
2026-01-30 11:52:32.44	343.64	17.72	-41.8	-60.7	3.8	7.46e-01	0	62	104	779616256	55	31298
2026-01-30 11:52:33.44	343.64	17.59	-41.7	-60.6	3.8	7.48e-01	0	62	104	779616256	55	30897
2026-01-30 11:52:34.45	343.64	17.45	-41.8	-60.7	3.8	7.47e-01	0	62	104	779616256	55	31275
2026-01-30 11:52:35.46	343.65	17.32	-41.9	-60.8	3.8	7.44e-01	0	62	104	779616256	55	31606
2026-01-30 11:52:36.47	343.65	17.19	-41.8	-60.7	3.8	7.47e-01	0	62	104	779616256	55	31148
2026-01-30 11:52:37.48	343.66	17.06	-41.8	-60.7	3.8	7.47e-01	0	62	104	779616256	55	31170
2026-01-30 11:52:38.49	343.66	16.93	-41.8	-60.7	3.8	7.45e-01	0	62	104	779616256	55	31265
2026-01-30 11:52:39.50	343.66	16.81	-41.9	-60.8	3.8	7.44e-01	0	62	104	779616256	55	31518
2026-01-30 11:52:40.51	343.67	16.68	-41.8	-60.7	3.8	7.45e-01	0	62	104	779616256	55	31105
2026-01-30 11:52:41.52	343.67	16.55	-41.8	-60.7	3.8	7.46e-01	0	62	104	779616256	55	31095
2026-01-30 11:52:42.53	343.67	16.43	-41.8	-60.7	3.8	7.45e-01	0	62	104	779616256	55	31128
2026-01-30 11:52:43.54	343.68	16.30	-41.8	-60.7	3.8	7.44e-01	0	62	104	779616256	55	31246
2026-01-30 11:52:44.55	343.68	16.18	-41.7	-60.6	3.8	7.49e-01	0	63	104	779616256	55	31036
2026-01-30 11:52:45.57	343.69	16.05	-41.7	-60.6	3.8	7.44e-01	0	62	104	779616256	55	30818
2026-01-30 11:52:46.58	343.69	15.93	-41.8	-60.7	3.8	7.45e-01	0	62	104	779616256	55	31148
2026-01-30 11:52:47.59	343.69	15.81	-41.9	-60.8	3.8	7.44e-01	0	63	104	779616256	55	31678
2026-01-30 11:52:48.59	343.70	15.68	-41.8	-60.7	3.8	7.46e-01	0	62	104	779616256	55	31092
2026-01-30 11:52:49.60	343.70	15.56	-41.7	-60.6	3.8	7.45e-01	0	62	104	779616256	55	30980
2026-01-30 11:52:50.61	343.70	15.44	-41.9	-60.7	3.8	7.43e-01	0	62	104	779616256	55	31446
2026-01-30 11:52:51.62	343.71	15.32	-41.9	-60.7	3.8	7.43e-01	0	63	104	779616256	55	31411
2026-01-30 11:52:52.63	343.71	15.20	-41.8	-60.7	3.8	7.43e-01	0	62	104	779616256	55	31428
2026-01-30 11:52:53.64	343.72	15.09	-41.8	-60.7	3.8	7.46e-01	0	62	104	779616256	55	31344
2026-01-30 11:52:54.65	343.72	14.97	-42.0	-60.8	3.8	7.45e-01	0	62	104	779616256	55	31697
2026-01-30 11:52:55.66	343.72	14.85	-41.7	-60.6	3.8	7.42e-01	0	63	104	779616256	55	30799
2026-01-30 11:52:56.67	343.73	14.73	-41.9	-60.7	3.8	7.46e-01	0	62	104	779616256	55	31392
2026-01-30 11:52:57.68	343.73	14.62	-41.7	-60.6	3.8	7.45e-01	0	62	104	779616256	55	30889
2026-01-30 11:52:58.69	343.74	14.50	-41.9	-60.7	3.8	7.45e-01	0	62	104	779616256	55	31384
2026-01-30 11:52:59.70	343.74	14.39	-41.8	-60.6	3.8	7.46e-01	0	62	104	779616256	55	30943
2026-01-30 11:53:00.71	343.74	14.27	-41.8	-60.7	3.8	7.45e-01	0	62	104	779616256	55	31117
2026-01-30 11:53:01.72	343.75	14.16	-41.6	-60.5	3.8	7.48e-01	0	62	104	779616256	55	30564
2026-01-30 11:53:02.73	343.75	14.05	-41.8	-60.6	3.8	7.44e-01	0	62	104	779616256	55	30990
2026-01-30 11:53:03.74	343.75	13.93	-41.8	-60.7	3.8	7.49e-01	0	63	104	779616256	55	31216
2026-01-30 11:53:04.75	343.76	13.82	-41.7	-60.6	3.8	7.45e-01	0	62	104	779616256	55	30827
2026-01-30 11:53:05.76	343.76	13.71	-41.7	-60.6	3.8	7.47e-01	0	62	104	779616256	55	30805
2026-01-30 11:53:06.77	343.77	13.60	-41.8	-60.6	3.8	7.45e-01	0	62	104	779616256	55	31007
2026-01-30 11:53:07.78	343.77	13.49	-41.7	-60.6	3.8	7.44e-01	0	62	104	779616256	55	30810
2026-01-30 11:53:08.79	343.77	13.38	-41.7	-60.5	3.8	7.43e-01	0	62	104	779616256	55	30724
2026-01-30 11:53:09.81	343.78	13.27	-41.8	-60.6	3.8	7.45e-01	0	62	104	779616256	55	30870
2026-01-30 11:53:10.82	343.78	13.16	-41.9	-60.8	3.8	7.48e-01	0	62	104	779616256	55	31449
2026-01-30 11:53:11.83	343.79	13.05	-41.6	-60.4	3.8	7.46e-01	0	62	104	779616256	55	30184
2026-01-30 11:53:12.84	343.79	12.95	-41.7	-60.6	3.8	7.46e-01	0	62	104	779616256	55	30932
2026-01-30 11:53:13.85	343.79	12.84	-41.6	-60.5	3.8	7.43e-01	0	62	104	779616256	55	30545
2026-01-30 11:53:14.86	343.80	12.73	-41.9	-60.7	3.8	7.46e-01	0	63	104	779616256	55	31302
2026-01-30 11:53:15.87	343.80	12.63	-41.6	-60.4	3.8	7.42e-01	0	62	104	779616256	55	30218
2026-01-30 11:53:16.88	343.81	12.52	-41.8	-60.7	3.8	7.48e-01	0	62	104	779616256	55	31169
2026-01-30 11:53:17.89	343.81	12.42	-41.5	-60.4	3.8	7.46e-01	0	62	104	779616256	55	30178
2026-01-30 11:53:18.90	343.81	12.31	-41.7	-60.6	3.8	7.45e-01	0	62	104	779616256	55	30876
2026-01-30 11:53:19.91	343.82	12.21	-41.6	-60.5	3.8	7.47e-01	0	62	104	779616256	55	30510
2026-01-30 11:53:20.92	343.82	12.11	-41.8	-60.6	3.8	7.46e-01	0	63	104	779616256	55	30944
2026-01-30 11:53:21.93	343.82	12.00	-41.5	-60.4	3.8	7.46e-01	0	62	104	779616256	55	30203
2026-01-30 11:53:22.94	343.83	11.90	-41.6	-60.5	3.8	7.46e-01	0	62	104	779616256	55	30448
2026-01-30 11:53:23.95	343.83	11.80	-41.6	-60.5	3.8	7.46e-01	0	62	104	779616256	55	30478
2026-01-30 11:53:24.96	343.84	11.70	-41.7	-60.5	3.8	7.42e-01	0	62	104	779616256	55	30632
2026-01-30 11:53:25.97	343.84	11.60	-41.6	-60.4	3.8	7.44e-01	0	62	104	779616256	55	30359
2026-01-30 11:53:26.97	343.84	11.50	-41.6	-60.5	3.8	7.47e-01	0	63	104	779616256	55	30604
2026-01-30 11:53:27.98	343.85	11.40	-41.5	-60.3	3.8	7.43e-01	0	62	104	779616256	55	29950
2026-01-30 11:53:28.99	343.85	11.30	-41.6	-60.4	3.8	7.51e-01	0	62	104	779616256	55	30230
2026-01-30 11:53:30.00	343.86	11.20	-41.6	-60.4	3.8	7.45e-01	0	63	104	779616256	55	30359
2026-01-30 11:53:31.01	343.86	11.10	-41.7	-60.6	3.8	7.43e-01	0	62	104	779616256	55	30805
2026-01-30 11:53:32.02	343.86	11.00	-41.4	-60.2	3.8	7.45e-01	0	62	104	779616256	54	31328
2026-01-30 11:53:33.03	343.87	10.90	-41.5	-60.4	3.8	7.46e-01	0	62	104	779616256	54	31950
2026-01-30 11:53:34.04	343.87	10.80	-41.5	-60.3	3.8	7.47e-01	0	62	104	779616256	54	31739
2026-01-30 11:53:35.05	343.88	10.71	-41.7	-60.6	3.8	7.42e-01	0	63	104	779616256	54	32622
2026-01-30 11:53:36.06	343.88	10.61	-41.4	-60.3	3.8	7.43e-01	0	62	104	779616256	54	31483
2026-01-30 11:53:37.07	343.88	10.52	-41.6	-60.4	3.8	7.44e-01	0	62	104	779616256	54	32153
2026-01-30 11:53:38.08	343.89	10.42	-41.4	-60.2	3.8	7.46e-01	0	62	104	779616256	54	31306
2026-01-30 11:53:39.09	343.89	10.32	-41.6	-60.4	3.8	7.44e-01	0	62	104	779616256	54	32104
2026-01-30 11:53:40.10	343.89	10.23	-41.5	-60.3	3.8	7.41e-01	0	62	104	779616256	54	31724
2026-01-30 11:53:41.11	343.90	10.13	-41.6	-60.5	3.8	7.44e-01	0	62	104	779616256	54	32321
2026-01-30 11:53:42.12	343.90	10.04	-41.3	-60.2	3.8	7.46e-01	0	63	104	779616256	54	31088
2026-01-30 11:53:43.13	343.91	9.95	-41.5	-60.3	3.8	7.45e-01	0	62	104	779616256	54	31799
2026-01-30 11:53:44.14	343.91	9.85	-41.5	-60.4	3.8	7.46e-01	0	62	104	779616256	54	31865
2026-01-30 11:53:45.15	343.91	9.76	-41.6	-60.4	3.8	7.46e-01	0	62	104	779616256	54	32132
2026-01-30 11:53:46.16	343.92	9.67	-41.4	-60.2	3.8	7.43e-01	0	62	104	779616256	54	31340
2026-01-30 11:53:47.17	343.92	9.58	-41.5	-60.4	3.8	7.45e-01	0	63	104	779616256	54	31988
2026-01-30 11:53:48.18	343.93	9.48	-41.5	-60.3	3.8	7.43e-01	0	62	104	779616256	54	31608
2026-01-30 11:53:49.19	343.93	9.39	-41.4	-60.3	3.8	7.45e-01	0	62	104	779616256	54	31542
2026-01-30 11:53:50.20	343.93	9.30	-41.4	-60.3	3.8	7.44e-01	0	62	104	779616256	54	31556
2026-01-30 11:53:51.21	343.94	9.21	-41.6	-60.5	3.8	7.47e-01	0	62	104	779616256	54	32233
2026-01-30 11:53:52.21	343.94	9.12	-41.4	-60.2	3.8	7.48e-01	0	63	104	779616256	54	31332
2026-01-30 11:53:53.23	343.95	9.03	-41.3	-60.2	3.8	7.43e-01	0	63	104	779616256	54	31237
2026-01-30 11:53:54.24	343.95	8.94	-41.4	-60.2	3.8	7.47e-01	0	63	104	779616256	54	31403
2026-01-30 11:53:55.25	343.95	8.85	-41.6	-60.5	3.8	7.44e-01	0	62	104	779616256	54	32218
2026-01-30 11:53:56.26	343.96	8.76	-41.3	-60.2	3.8	7.49e-01	0	62	104	779616256	54	31161
2026-01-30 11:53:57.27	343.96	8.68	-41.4	-60.2	3.8	7.43e-01	0	63	104	779616256	54	31427
2026-01-30 11:53:58.27	343.97	8.59	-41.3	-60.2	3.8	7.45e-01	0	63	104	779616256	54	31170
2026-01-30 11:53:59.29	343.97	8.50	-41.5	-60.3	3.8	7.42e-01	0	62	104	779616256	54	31774
2026-01-30 11:54:00.30	343.97	8.41	-41.3	-60.2	3.8	7.45e-01	0	62	104	779616256	54	31136
2026-01-30 11:54:01.30	343.98	8.33	-41.5	-60.3	3.8	7.48e-01	0	62	104	779616256	54	31729
2026-01-30 11:54:02.31	343.98	8.24	-41.2	-60.1	3.8	7.47e-01	0	62	104	779616256	54	30868
2026-01-30 11:54:03.32	343.99	8.15	-41.4	-60.3	3.8	7.45e-01	0	62	104	779616256	54	31450
2026-01-30 11:54:04.33	343.99	8.07	-41.4	-60.2	3.8	7.45e-01	0	62	104	779616256	54	31439
2026-01-30 11:54:05.34	343.99	7.98	-41.5	-60.4	3.8	7.43e-01	0	62	104	779616256	54	31816
2026-01-30 11:54:06.35	344.00	7.89	-41.7	-60.6	3.8	7.46e-01	0	63	104	779616256	54	32625
2026-01-30 11:54:07.36	344.00	7.81	-42.0	-60.8	3.8	7.41e-01	0	63	104	779616256	54	33354
