passes_logs/2026/01/30/R2.0S_Moscow/R2.0S_Moscow__20260130_112527_SUOMI_NPP_rec.log

#Pass ID: 20260130_112527_SUOMI NPP
#Satellite: SUOMI NPP
#Configuration: NPP
#almurnet v.1.7.20251203
#Start time: 2026-01-30 11:25:28

#Version: 2.2.20231116
#Station: R2.0S_Moscow
#Location: 37.707566 lon 55.798166 lat
#TLE: 1 37849U 11061A   26029.48304708  .00000140  00000+0  87283-4 0  9999
#TLE: 2 37849  98.7824 331.4079 0002024  38.4342 321.6978 14.19531488738761

#Time	Az	El	Level	Level2	SNR	BER	BlckErr	Temp	State	Recorded	gain1	gain2
2026-01-30 11:25:28.80	203.66	2.06	-43.7	-58.1	3.8	1.49e+00	0	52	0	0	59	18348
2026-01-30 11:25:29.81	203.72	2.12	-43.6	-58.0	3.8	1.49e+00	0	53	104	0	59	18280
2026-01-30 11:25:30.82	203.79	2.17	-43.6	-58.0	3.8	1.49e+00	0	53	104	0	59	18260
2026-01-30 11:25:31.83	203.86	2.23	-43.6	-58.0	3.8	1.49e+00	0	53	104	0	59	18296
2026-01-30 11:25:32.84	203.93	2.29	-43.6	-58.0	3.8	1.49e+00	0	53	104	0	59	18240
2026-01-30 11:25:33.85	204.00	2.35	-43.7	-58.1	3.8	1.49e+00	0	53	104	0	59	18324
2026-01-30 11:25:34.86	204.06	2.40	-43.6	-58.0	3.8	1.49e+00	0	53	104	0	59	18201
2026-01-30 11:25:35.87	204.13	2.46	-43.6	-58.0	3.8	1.49e+00	0	53	104	0	59	18232
2026-01-30 11:25:36.88	204.20	2.52	-43.6	-58.0	3.8	1.49e+00	0	53	104	0	59	18227
2026-01-30 11:25:37.89	204.27	2.58	-43.6	-58.0	3.8	1.49e+00	0	53	104	0	59	18227
2026-01-30 11:25:38.90	204.34	2.63	-43.6	-58.0	3.8	1.49e+00	0	53	104	0	59	18242
2026-01-30 11:25:39.91	204.41	2.69	-43.6	-58.0	3.8	1.49e+00	0	53	104	0	59	18212
2026-01-30 11:25:40.92	204.48	2.75	-43.6	-58.0	3.8	1.49e+00	0	53	104	0	59	18179
2026-01-30 11:25:41.93	204.55	2.81	-43.6	-58.0	3.8	1.49e+00	0	53	104	0	59	18158
2026-01-30 11:25:42.94	204.62	2.87	-43.6	-58.0	3.8	1.49e+00	0	54	104	0	59	18196
2026-01-30 11:25:43.95	204.70	2.92	-43.6	-58.0	3.8	1.49e+00	0	54	104	0	59	18189
2026-01-30 11:25:44.96	204.77	2.98	-43.6	-58.0	3.8	1.49e+00	0	54	104	0	59	18145
2026-01-30 11:25:45.97	204.84	3.04	-43.6	-58.0	3.8	1.49e+00	0	54	104	0	59	18154
2026-01-30 11:25:46.98	204.91	3.10	-43.6	-58.0	3.8	1.49e+00	0	54	104	0	59	18128
2026-01-30 11:25:47.99	204.98	3.16	-43.6	-58.0	3.8	1.49e+00	0	54	104	0	59	18177
2026-01-30 11:25:49.00	205.06	3.22	-43.6	-58.0	3.8	1.49e+00	0	54	104	0	59	18229
2026-01-30 11:25:50.01	205.13	3.28	-43.6	-58.0	3.8	1.49e+00	0	54	104	0	59	18169
2026-01-30 11:25:51.03	205.20	3.34	-43.6	-58.0	3.8	1.49e+00	0	54	104	0	59	18205
2026-01-30 11:25:52.04	205.28	3.39	-43.6	-58.0	3.8	1.49e+00	0	54	104	0	59	18217
2026-01-30 11:25:53.05	205.35	3.45	-43.6	-58.0	3.8	1.49e+00	0	55	104	0	59	18196
2026-01-30 11:25:54.06	205.42	3.51	-43.6	-58.0	3.8	1.49e+00	0	54	104	0	59	18183
2026-01-30 11:25:55.07	205.50	3.57	-43.6	-58.0	3.8	1.49e+00	0	54	104	0	59	18144
2026-01-30 11:25:56.08	205.57	3.63	-43.6	-58.0	3.8	1.49e+00	0	54	104	0	59	18166
2026-01-30 11:25:57.09	205.65	3.69	-43.6	-58.0	3.8	1.49e+00	0	54	104	0	59	18191
2026-01-30 11:25:58.10	205.72	3.75	-43.6	-58.0	3.8	1.49e+00	0	55	104	0	59	18193
2026-01-30 11:25:59.11	205.80	3.81	-43.6	-58.0	3.8	1.49e+00	0	55	104	0	59	18197
2026-01-30 11:26:00.12	205.87	3.87	-43.6	-58.0	3.8	1.49e+00	0	55	104	0	59	18152
2026-01-30 11:26:01.13	205.95	3.93	-43.6	-58.0	3.8	1.49e+00	0	55	104	0	59	18178
2026-01-30 11:26:02.14	206.03	3.99	-43.6	-58.0	3.8	1.49e+00	0	55	104	0	59	18155
2026-01-30 11:26:03.15	206.10	4.05	-43.6	-58.0	3.8	1.49e+00	0	55	104	0	59	18119
2026-01-30 11:26:04.16	206.18	4.11	-43.6	-58.0	3.8	1.49e+00	0	55	104	0	59	18184
2026-01-30 11:26:05.17	206.26	4.17	-43.6	-58.0	3.8	1.49e+00	0	55	104	0	59	18138
2026-01-30 11:26:06.18	206.33	4.23	-43.6	-58.0	3.8	1.49e+00	0	55	104	0	59	18156
2026-01-30 11:26:07.19	206.41	4.29	-43.6	-58.0	3.8	1.49e+00	0	55	104	0	59	18135
2026-01-30 11:26:08.20	206.49	4.35	-43.6	-58.0	3.8	1.49e+00	0	55	104	0	59	18152
2026-01-30 11:26:09.21	206.57	4.41	-43.6	-58.0	3.8	1.49e+00	0	55	104	0	59	18113
2026-01-30 11:26:10.22	206.65	4.47	-43.6	-58.0	3.8	1.49e+00	0	55	104	0	59	18171
2026-01-30 11:26:11.23	206.73	4.53	-43.6	-58.0	3.8	1.49e+00	0	55	104	0	59	18101
2026-01-30 11:26:12.24	206.81	4.59	-43.6	-58.0	3.8	1.49e+00	0	55	104	0	59	18165
2026-01-30 11:26:13.25	206.89	4.65	-43.6	-57.9	3.8	1.49e+00	0	55	104	0	59	18087
2026-01-30 11:26:14.26	206.97	4.72	-43.6	-57.9	3.8	1.49e+00	0	55	104	0	59	18078
2026-01-30 11:26:15.27	207.05	4.78	-43.6	-58.0	3.8	1.49e+00	0	55	104	0	59	18133
2026-01-30 11:26:16.28	207.13	4.84	-43.6	-58.0	3.8	1.49e+00	0	56	104	0	59	18116
2026-01-30 11:26:17.29	207.21	4.90	-43.6	-58.0	3.8	1.49e+00	0	55	104	0	59	18119
2026-01-30 11:26:18.30	207.29	4.96	-43.6	-58.0	3.8	1.49e+00	0	56	104	0	59	18163
2026-01-30 11:26:19.31	207.37	5.02	-43.6	-58.0	3.8	1.49e+00	0	56	104	0	59	18139
2026-01-30 11:26:20.32	207.45	5.08	-43.6	-58.0	3.8	1.49e+00	0	56	104	0	59	18113
2026-01-30 11:26:21.33	207.53	5.15	-43.6	-58.0	3.8	1.49e+00	0	56	104	0	59	18137
2026-01-30 11:26:22.34	207.62	5.21	-43.6	-57.9	3.8	1.49e+00	0	56	104	0	59	17964
2026-01-30 11:26:23.35	207.70	5.27	-43.6	-57.9	3.8	1.49e+00	0	56	104	0	59	18036
2026-01-30 11:26:24.36	207.78	5.33	-43.6	-57.9	3.8	1.49e+00	0	56	104	0	59	17978
2026-01-30 11:26:25.37	207.87	5.39	-43.6	-57.8	3.8	1.49e+00	0	56	104	0	59	17870
2026-01-30 11:26:26.38	207.95	5.46	-43.6	-57.8	3.8	1.49e+00	0	56	104	0	59	17807
2026-01-30 11:26:27.39	208.04	5.52	-43.6	-57.8	3.8	1.49e+00	0	56	104	0	59	17840
2026-01-30 11:26:28.40	208.12	5.58	-43.6	-57.7	3.8	1.49e+00	0	56	104	0	59	17559
2026-01-30 11:26:29.41	208.21	5.64	-43.6	-57.7	3.8	1.49e+00	0	56	104	0	59	17565
2026-01-30 11:26:30.42	208.29	5.71	-43.6	-57.6	3.8	1.49e+00	0	56	104	0	59	17442
2026-01-30 11:26:31.44	208.38	5.77	-43.6	-57.5	3.8	1.49e+00	0	56	104	0	59	17262
2026-01-30 11:26:32.45	208.46	5.83	-43.5	-57.4	3.8	1.49e+00	0	56	104	0	59	17071
2026-01-30 11:26:33.46	208.55	5.89	-43.5	-57.2	3.8	1.49e+00	0	56	104	0	59	16582
2026-01-30 11:26:34.47	208.64	5.96	-43.5	-57.1	3.8	1.49e+00	0	56	104	0	59	16415
2026-01-30 11:26:35.48	208.72	6.02	-43.5	-56.9	3.8	1.49e+00	0	56	104	0	59	15954
2026-01-30 11:26:36.49	208.81	6.08	-43.5	-56.6	3.8	1.49e+00	0	56	104	0	59	15510
2026-01-30 11:26:37.50	208.90	6.15	-43.5	-56.3	3.9	1.49e+00	0	57	104	0	58	15927
2026-01-30 11:26:38.51	208.99	6.21	-43.4	-55.8	3.8	1.49e+00	0	57	104	0	58	14907
2026-01-30 11:26:39.52	209.08	6.27	-43.4	-55.3	3.8	1.48e+00	0	57	104	0	58	14205
2026-01-30 11:26:40.53	209.17	6.34	-43.4	-54.8	4.1	1.47e+00	0	57	0	0	58	13321
2026-01-30 11:26:41.54	209.25	6.40	-43.3	-54.5	4.2	1.41e+00	0	57	0	0	58	12867
2026-01-30 11:26:42.55	209.34	6.46	-43.3	-53.8	4.4	1.36e+00	0	57	0	0	58	11929
2026-01-30 11:26:43.56	209.43	6.53	-43.2	-53.3	4.6	1.18e+00	0	57	0	2097152	58	11168
2026-01-30 11:26:44.57	209.53	6.59	-43.2	-53.0	4.7	9.30e-01	0	57	0	4194304	58	10879
2026-01-30 11:26:45.58	209.62	6.66	-43.2	-53.2	4.6	8.61e-01	0	57	0	5242880	58	11065
2026-01-30 11:26:46.59	209.71	6.72	-43.2	-53.2	4.6	9.44e-01	0	57	0	7340032	58	11080
2026-01-30 11:26:47.60	209.80	6.78	-43.3	-53.7	4.4	1.10e+00	0	57	0	9437184	58	11717
2026-01-30 11:26:48.61	209.89	6.85	-43.3	-54.3	4.2	1.34e+00	0	57	0	10485760	58	12532
2026-01-30 11:26:49.62	209.98	6.91	-43.4	-54.8	4.1	1.39e+00	0	57	0	10485760	58	13406
2026-01-30 11:26:50.63	210.08	6.98	-43.4	-55.9	3.8	1.48e+00	0	57	104	10485760	58	15133
2026-01-30 11:26:51.65	210.17	7.04	-43.5	-56.7	3.8	1.49e+00	0	57	104	10485760	58	16668
2026-01-30 11:26:52.66	210.26	7.11	-43.5	-57.5	3.8	1.49e+00	0	57	104	10485760	58	18209
2026-01-30 11:26:53.67	210.36	7.17	-43.5	-57.6	3.8	1.49e+00	0	57	104	10485760	58	18492
2026-01-30 11:26:54.68	210.45	7.24	-43.5	-56.9	3.8	1.49e+00	0	57	104	10485760	58	17082
2026-01-30 11:26:55.69	210.55	7.30	-43.4	-55.6	4.0	1.49e+00	0	57	104	10485760	58	14584
2026-01-30 11:26:56.70	210.64	7.37	-43.3	-54.3	4.2	1.47e+00	0	57	0	10485760	58	12573
2026-01-30 11:26:57.71	210.74	7.43	-43.1	-52.7	4.8	9.43e-01	0	58	0	11534336	58	10449
2026-01-30 11:26:58.72	210.84	7.50	-42.9	-51.2	5.8	5.55e-01	0	58	0	13631488	57	9289
2026-01-30 11:26:59.73	210.93	7.56	-42.8	-50.5	6.2	3.14e-01	0	58	0	15728640	57	8629
2026-01-30 11:27:00.74	211.03	7.63	-42.7	-50.3	6.4	2.43e-01	0	58	0	17825792	57	8388
2026-01-30 11:27:01.75	211.13	7.70	-42.7	-50.0	6.7	2.40e-01	0	58	0	18874368	57	8094
2026-01-30 11:27:02.76	211.22	7.76	-42.6	-49.6	7.1	1.70e-01	0	58	0	20971520	57	7726
2026-01-30 11:27:03.77	211.32	7.83	-42.6	-49.9	6.8	1.74e-01	0	58	0	23068672	57	8051
2026-01-30 11:27:04.78	211.42	7.89	-42.7	-50.3	6.4	2.18e-01	0	58	0	25165824	57	8378
2026-01-30 11:27:05.79	211.52	7.96	-42.9	-51.1	5.8	2.89e-01	0	58	0	27262976	57	9246
2026-01-30 11:27:06.80	211.62	8.03	-43.0	-51.7	5.4	4.33e-01	0	58	0	28311552	57	9871
2026-01-30 11:27:07.81	211.72	8.09	-43.5	-53.4	4.7	3.08e-01	0	58	0	30408704	57	12074
2026-01-30 11:27:08.82	211.82	8.16	-42.6	-50.2	6.5	3.88e-01	0	58	0	32505856	56	8832
2026-01-30 11:27:09.83	211.92	8.22	-43.8	-57.5	3.8	3.51e-01	0	58	104	33554432	58	18294
2026-01-30 11:27:10.85	212.02	8.29	-42.5	-48.9	7.9	8.58e-01	0	58	0	33554432	57	7154
2026-01-30 11:27:11.86	212.12	8.36	-43.2	-54.1	4.3	1.14e-01	0	58	0	35651584	56	13870
2026-01-30 11:27:12.87	212.23	8.42	-42.5	-48.9	7.8	1.25e+00	0	58	0	36700160	57	7150
2026-01-30 11:27:13.88	212.33	8.49	-42.4	-48.5	8.3	5.37e-02	0	58	0	37748736	56	7213
2026-01-30 11:27:14.89	212.43	8.56	-42.4	-48.7	8.1	5.57e-02	0	58	0	39845888	56	7378
2026-01-30 11:27:15.90	212.54	8.63	-42.4	-48.5	8.3	6.27e-02	0	58	0	41943040	56	7237
2026-01-30 11:27:16.91	212.64	8.69	-42.4	-48.4	8.4	4.89e-02	0	58	0	44040192	56	7165
2026-01-30 11:27:17.92	212.74	8.76	-42.4	-48.3	8.6	4.49e-02	0	58	0	46137344	56	7061
2026-01-30 11:27:18.93	212.85	8.83	-42.4	-48.4	8.4	3.98e-02	0	58	0	47185920	56	7155
2026-01-30 11:27:19.94	212.95	8.90	-42.4	-48.4	8.4	4.35e-02	0	58	0	49283072	56	7156
2026-01-30 11:27:20.95	213.06	8.96	-42.4	-48.3	8.6	3.92e-02	0	58	0	51380224	56	7060
2026-01-30 11:27:21.96	213.17	9.03	-42.4	-48.2	8.6	4.10e-02	0	58	0	53477376	56	7003
2026-01-30 11:27:22.97	213.27	9.10	-42.4	-48.1	8.8	3.14e-02	0	58	0	55574528	56	6897
2026-01-30 11:27:23.98	213.38	9.17	-42.4	-48.2	8.7	3.11e-02	0	58	0	56623104	56	7029
2026-01-30 11:27:24.99	213.49	9.23	-42.4	-48.2	8.7	3.52e-02	0	58	0	58720256	56	7026
2026-01-30 11:27:26.00	213.60	9.30	-42.5	-48.3	8.6	3.47e-02	0	58	0	60817408	56	7114
2026-01-30 11:27:27.01	213.71	9.37	-42.5	-48.4	8.5	3.61e-02	0	59	0	62914560	56	7138
2026-01-30 11:27:28.02	213.82	9.44	-42.5	-48.5	8.5	3.71e-02	0	59	0	65011712	56	7263
2026-01-30 11:27:29.03	213.93	9.51	-42.5	-48.4	8.6	4.25e-02	0	59	0	66060288	56	7199
2026-01-30 11:27:30.04	214.04	9.58	-42.5	-48.4	8.6	4.41e-02	0	58	0	68157440	56	7186
2026-01-30 11:27:31.05	214.15	9.64	-42.6	-48.7	8.3	4.67e-02	0	58	0	70254592	56	7377
2026-01-30 11:27:32.06	214.26	9.71	-42.6	-48.7	8.3	4.73e-02	0	58	0	72351744	56	7419
2026-01-30 11:27:33.07	214.37	9.78	-42.7	-49.0	8.1	5.36e-02	0	59	0	74448896	56	7684
2026-01-30 11:27:34.08	214.48	9.85	-42.7	-49.0	8.0	7.14e-02	0	59	0	75497472	56	7684
2026-01-30 11:27:35.09	214.59	9.92	-42.7	-48.9	8.1	6.13e-02	0	59	0	77594624	56	7597
2026-01-30 11:27:36.10	214.71	9.99	-42.7	-49.1	8.0	5.79e-02	0	59	0	79691776	56	7764
2026-01-30 11:27:37.11	214.82	10.06	-42.7	-49.0	8.1	7.10e-02	0	59	0	81788928	56	7694
2026-01-30 11:27:38.12	214.94	10.13	-42.7	-48.9	8.2	6.12e-02	0	59	0	83886080	56	7619
2026-01-30 11:27:39.13	215.05	10.20	-42.7	-48.7	8.4	5.18e-02	0	59	0	84934656	56	7414
2026-01-30 11:27:40.14	215.17	10.27	-42.7	-48.8	8.3	5.72e-02	0	59	0	87031808	56	7496
2026-01-30 11:27:41.15	215.28	10.33	-42.7	-48.7	8.4	5.01e-02	0	59	0	89128960	56	7377
2026-01-30 11:27:42.16	215.40	10.40	-42.6	-48.6	8.5	4.31e-02	0	59	0	91226112	56	7316
2026-01-30 11:27:43.17	215.52	10.47	-42.6	-48.5	8.6	3.88e-02	0	59	0	93323264	56	7261
2026-01-30 11:27:44.18	215.63	10.54	-42.6	-48.3	8.8	3.68e-02	0	59	0	95420416	56	7093
2026-01-30 11:27:45.19	215.75	10.61	-42.6	-48.4	8.7	2.91e-02	0	59	0	96468992	56	7168
2026-01-30 11:27:46.20	215.87	10.68	-42.6	-48.3	8.9	2.76e-02	0	59	0	98566144	56	7055
2026-01-30 11:27:47.21	215.99	10.75	-42.6	-48.2	9.0	2.54e-02	0	59	0	100663296	56	6976
2026-01-30 11:27:48.22	216.11	10.82	-42.6	-48.2	9.1	2.51e-02	0	59	0	102760448	56	6974
2026-01-30 11:27:49.23	216.23	10.89	-42.6	-48.1	9.1	2.42e-02	0	59	0	104857600	56	6932
2026-01-30 11:27:50.24	216.35	10.96	-42.6	-48.1	9.1	2.47e-02	0	59	0	105906176	56	6930
2026-01-30 11:27:51.24	216.47	11.03	-42.5	-47.9	9.3	1.99e-02	0	59	0	108003328	56	6784
2026-01-30 11:27:52.26	216.59	11.11	-42.6	-48.0	9.3	1.98e-02	0	59	0	110100480	56	6844
2026-01-30 11:27:53.27	216.72	11.18	-42.5	-47.9	9.4	1.78e-02	0	59	0	112197632	56	6752
2026-01-30 11:27:54.28	216.84	11.25	-42.6	-48.0	9.3	1.83e-02	0	59	0	114294784	56	6822
2026-01-30 11:27:55.28	216.96	11.32	-42.6	-48.1	9.2	2.02e-02	0	59	0	115343360	56	6902
2026-01-30 11:27:56.29	217.09	11.39	-42.6	-48.1	9.2	1.94e-02	0	59	0	117440512	56	6919
2026-01-30 11:27:57.30	217.21	11.46	-42.6	-48.1	9.2	1.83e-02	0	59	0	119537664	56	6880
2026-01-30 11:27:58.31	217.34	11.53	-42.6	-48.1	9.2	2.05e-02	0	59	0	121634816	56	6927
2026-01-30 11:27:59.32	217.46	11.60	-42.6	-48.1	9.1	2.12e-02	0	59	0	123731968	56	6957
2026-01-30 11:28:00.33	217.59	11.67	-42.6	-48.0	9.3	2.08e-02	0	59	0	124780544	56	6863
2026-01-30 11:28:01.34	217.72	11.74	-42.6	-48.2	9.1	1.89e-02	0	59	0	126877696	56	6971
2026-01-30 11:28:02.35	217.84	11.81	-42.6	-48.1	9.2	2.07e-02	0	59	0	128974848	56	6929
2026-01-30 11:28:03.36	217.97	11.89	-42.6	-47.9	9.4	1.76e-02	0	60	0	131072000	56	6777
2026-01-30 11:28:04.37	218.10	11.96	-42.6	-48.1	9.3	1.97e-02	0	59	0	133169152	56	6880
2026-01-30 11:28:05.38	218.23	12.03	-42.6	-48.0	9.4	1.65e-02	0	59	0	134217728	56	6837
2026-01-30 11:28:06.39	218.36	12.10	-42.6	-48.1	9.3	1.71e-02	0	59	0	136314880	56	6887
2026-01-30 11:28:07.40	218.49	12.17	-42.6	-48.1	9.2	1.92e-02	0	59	0	138412032	56	6920
2026-01-30 11:28:08.41	218.62	12.24	-42.7	-48.3	9.1	2.08e-02	0	59	0	140509184	56	7068
2026-01-30 11:28:09.42	218.76	12.32	-42.7	-48.3	9.1	2.34e-02	0	59	0	142606336	56	7071
2026-01-30 11:28:10.43	218.89	12.39	-42.8	-48.5	8.9	2.42e-02	0	59	0	143654912	56	7221
2026-01-30 11:28:11.44	219.02	12.46	-42.8	-48.5	8.9	3.00e-02	0	59	0	145752064	56	7213
2026-01-30 11:28:12.45	219.16	12.53	-42.8	-48.6	8.8	2.91e-02	0	59	0	147849216	56	7330
2026-01-30 11:28:13.46	219.29	12.60	-42.9	-48.8	8.6	3.46e-02	0	59	0	149946368	56	7506
2026-01-30 11:28:14.47	219.43	12.68	-42.8	-48.6	8.8	3.90e-02	0	60	0	152043520	56	7348
2026-01-30 11:28:15.48	219.56	12.75	-42.9	-48.6	8.8	3.33e-02	0	60	0	153092096	56	7359
2026-01-30 11:28:16.49	219.70	12.82	-42.9	-48.9	8.6	3.44e-02	0	59	0	155189248	56	7554
2026-01-30 11:28:17.50	219.83	12.89	-42.9	-48.8	8.6	3.64e-02	0	60	0	157286400	56	7509
2026-01-30 11:28:18.51	219.97	12.97	-42.9	-48.8	8.6	3.57e-02	0	60	0	159383552	56	7508
2026-01-30 11:28:19.52	220.11	13.04	-42.9	-48.9	8.6	3.14e-02	0	59	0	161480704	56	7570
2026-01-30 11:28:20.52	220.25	13.11	-42.9	-48.8	8.7	3.47e-02	0	60	0	163577856	56	7480
2026-01-30 11:28:21.53	220.39	13.18	-42.9	-48.7	8.8	2.95e-02	0	60	0	164626432	56	7430
2026-01-30 11:28:22.54	220.53	13.26	-42.9	-48.6	8.8	2.75e-02	0	60	0	166723584	56	7360
2026-01-30 11:28:23.55	220.67	13.33	-42.8	-48.4	9.0	2.85e-02	0	60	0	168820736	56	7201
2026-01-30 11:28:24.56	220.81	13.40	-42.8	-48.4	9.1	2.02e-02	0	60	0	170917888	56	7140
2026-01-30 11:28:25.57	220.95	13.48	-42.8	-48.3	9.2	1.90e-02	0	60	0	173015040	56	7056
2026-01-30 11:28:26.59	221.10	13.55	-42.8	-48.2	9.3	1.83e-02	0	60	0	174063616	56	6983
2026-01-30 11:28:27.60	221.24	13.62	-42.7	-48.0	9.5	1.74e-02	0	60	0	176160768	56	6849
2026-01-30 11:28:28.61	221.39	13.70	-42.7	-47.8	9.7	1.12e-02	0	60	0	178257920	56	6715
2026-01-30 11:28:29.62	221.53	13.77	-42.6	-47.6	9.9	9.83e-03	0	60	0	180355072	56	6558
2026-01-30 11:28:30.63	221.68	13.84	-42.6	-47.5	10.1	7.72e-03	0	60	0	182452224	56	6470
2026-01-30 11:28:31.64	221.83	13.92	-42.6	-47.5	10.1	7.26e-03	0	60	0	183500800	56	6448
2026-01-30 11:28:32.65	221.97	13.99	-42.5	-47.4	10.2	7.40e-03	0	60	0	185597952	56	6400
2026-01-30 11:28:33.66	222.12	14.06	-42.5	-47.3	10.3	5.95e-03	0	60	0	187695104	56	6284
2026-01-30 11:28:34.67	222.27	14.14	-42.4	-47.2	10.4	5.39e-03	0	60	0	189792256	56	6247
2026-01-30 11:28:35.68	222.42	14.21	-42.5	-47.3	10.3	6.09e-03	0	60	0	191889408	56	6308
2026-01-30 11:28:36.68	222.57	14.28	-42.5	-47.4	10.3	4.72e-03	0	60	0	192937984	56	6365
2026-01-30 11:28:37.69	222.72	14.36	-42.4	-47.2	10.4	4.71e-03	0	60	0	195035136	56	6242
2026-01-30 11:28:38.70	222.87	14.43	-42.5	-47.3	10.3	4.81e-03	0	60	0	197132288	56	6309
2026-01-30 11:28:39.71	223.02	14.50	-42.5	-47.3	10.3	4.29e-03	0	60	0	199229440	56	6325
2026-01-30 11:28:40.72	223.18	14.58	-42.5	-47.2	10.5	4.31e-03	0	60	0	201326592	56	6239
2026-01-30 11:28:41.73	223.33	14.65	-42.5	-47.3	10.4	4.24e-03	0	60	0	202375168	56	6312
2026-01-30 11:28:42.74	223.49	14.72	-42.5	-47.3	10.4	4.47e-03	0	60	0	204472320	56	6280
2026-01-30 11:28:43.75	223.64	14.80	-42.6	-47.5	10.1	5.57e-03	0	60	0	206569472	56	6466
2026-01-30 11:28:44.76	223.80	14.87	-42.6	-47.6	10.1	6.44e-03	0	60	0	208666624	56	6510
2026-01-30 11:28:45.77	223.95	14.95	-42.7	-47.8	9.9	7.43e-03	0	60	0	210763776	56	6709
2026-01-30 11:28:46.78	224.11	15.02	-42.8	-48.0	9.7	9.04e-03	0	60	0	211812352	56	6822
2026-01-30 11:28:47.79	224.27	15.09	-42.8	-47.9	9.8	1.05e-02	0	60	0	213909504	56	6794
2026-01-30 11:28:48.80	224.43	15.17	-42.8	-48.1	9.6	1.18e-02	0	60	0	216006656	56	6933
2026-01-30 11:28:49.81	224.59	15.24	-42.9	-48.2	9.5	1.30e-02	0	60	0	218103808	56	6981
2026-01-30 11:28:50.82	224.75	15.32	-42.9	-48.4	9.2	1.60e-02	0	60	0	220200960	56	7155
2026-01-30 11:28:51.83	224.91	15.39	-42.9	-48.2	9.4	1.48e-02	0	60	0	221249536	56	7035
2026-01-30 11:28:52.84	225.07	15.46	-42.9	-48.2	9.6	1.43e-02	0	60	0	223346688	56	6968
2026-01-30 11:28:53.85	225.24	15.54	-42.8	-48.0	9.6	1.36e-02	0	60	0	225443840	56	6871
2026-01-30 11:28:54.86	225.40	15.61	-42.8	-48.0	9.7	1.42e-02	0	60	0	227540992	56	6804
2026-01-30 11:28:55.87	225.57	15.69	-42.8	-48.0	9.7	1.17e-02	0	60	0	229638144	56	6810
2026-01-30 11:28:56.88	225.73	15.76	-42.7	-47.6	10.1	7.90e-03	0	60	0	231735296	56	6539
2026-01-30 11:28:57.89	225.90	15.83	-42.7	-47.8	10.0	7.58e-03	0	60	0	232783872	56	6651
2026-01-30 11:28:58.90	226.06	15.91	-42.6	-47.3	10.5	5.62e-03	0	60	0	234881024	56	6308
2026-01-30 11:28:59.91	226.23	15.98	-42.5	-47.1	10.6	3.90e-03	0	60	0	236978176	56	6156
2026-01-30 11:29:00.92	226.40	16.06	-42.5	-47.0	10.7	2.94e-03	0	60	0	239075328	56	6119
2026-01-30 11:29:01.93	226.57	16.13	-42.5	-47.0	10.7	2.89e-03	0	61	0	241172480	56	6104
2026-01-30 11:29:02.94	226.74	16.20	-42.4	-46.9	10.9	2.72e-03	0	60	0	242221056	56	6046
2026-01-30 11:29:03.95	226.91	16.28	-42.4	-46.8	11.0	1.70e-03	0	60	0	244318208	56	5972
2026-01-30 11:29:04.96	227.08	16.35	-42.4	-47.0	10.8	2.58e-03	0	60	0	246415360	56	6069
2026-01-30 11:29:05.96	227.25	16.42	-42.3	-46.7	11.1	1.70e-03	0	61	0	248512512	56	5885
2026-01-30 11:29:06.97	227.43	16.50	-42.3	-46.7	11.2	1.45e-03	0	60	0	250609664	56	5869
2026-01-30 11:29:07.98	227.60	16.57	-42.3	-46.7	11.1	1.06e-03	0	60	0	251658240	56	5890
2026-01-30 11:29:08.99	227.78	16.65	-42.1	-46.3	11.3	1.17e-03	0	61	0	253755392	55	5964
2026-01-30 11:29:10.00	227.95	16.72	-42.0	-46.2	11.5	9.99e-04	0	61	0	255852544	55	5882
2026-01-30 11:29:11.01	228.13	16.79	-42.1	-46.3	11.4	1.11e-03	0	61	0	257949696	55	5952
2026-01-30 11:29:12.02	228.31	16.87	-42.1	-46.5	11.2	1.33e-03	0	61	0	260046848	55	6067
2026-01-30 11:29:13.03	228.49	16.94	-42.2	-46.6	11.0	1.46e-03	0	60	0	261095424	55	6162
2026-01-30 11:29:14.04	228.67	17.02	-42.3	-46.9	10.8	2.65e-03	0	60	0	263192576	55	6358
2026-01-30 11:29:15.05	228.85	17.09	-41.8	-47.0	10.6	2.57e-03	0	61	0	265289728	55	6481
2026-01-30 11:29:16.07	229.03	17.16	-42.4	-47.1	10.5	3.25e-03	0	61	0	267386880	55	6553
2026-01-30 11:29:17.08	229.21	17.24	-42.4	-47.0	10.6	3.86e-03	0	60	0	269484032	55	6490
2026-01-30 11:29:18.09	229.40	17.31	-42.4	-47.1	10.6	3.50e-03	0	61	0	270532608	55	6524
2026-01-30 11:29:19.10	229.58	17.38	-42.3	-46.9	10.7	3.09e-03	0	60	0	272629760	55	6399
2026-01-30 11:29:20.11	229.76	17.46	-42.4	-47.0	10.7	2.85e-03	0	61	0	274726912	55	6471
2026-01-30 11:29:21.12	229.95	17.53	-42.4	-47.0	10.7	2.95e-03	0	61	0	276824064	55	6421
2026-01-30 11:29:22.13	230.14	17.60	-42.5	-47.3	10.4	3.40e-03	0	60	0	278921216	55	6648
2026-01-30 11:29:23.14	230.32	17.68	-42.4	-47.1	10.6	3.61e-03	0	61	0	279969792	55	6499
2026-01-30 11:29:24.15	230.51	17.75	-42.6	-47.5	10.2	4.10e-03	0	61	0	282066944	55	6817
2026-01-30 11:29:25.16	230.70	17.82	-42.5	-47.3	10.3	4.94e-03	0	61	0	284164096	55	6694
2026-01-30 11:29:26.17	230.89	17.90	-42.5	-47.2	10.5	4.46e-03	0	61	0	286261248	55	6607
2026-01-30 11:29:27.18	231.08	17.97	-42.4	-47.1	10.6	3.52e-03	0	61	0	288358400	55	6507
2026-01-30 11:29:28.19	231.27	18.04	-42.3	-46.7	11.0	2.42e-03	0	61	0	289406976	55	6249
2026-01-30 11:29:29.20	231.47	18.11	-42.2	-46.4	11.3	2.23e-03	0	61	0	291504128	55	6061
2026-01-30 11:29:30.21	231.66	18.19	-42.1	-46.2	11.5	1.12e-03	0	61	0	293601280	55	5915
2026-01-30 11:29:31.22	231.85	18.26	-42.1	-46.3	11.4	9.39e-04	0	61	0	295698432	55	5954
2026-01-30 11:29:32.23	232.05	18.33	-42.1	-46.2	11.5	1.01e-03	0	61	0	297795584	55	5917
2026-01-30 11:29:33.24	232.24	18.40	-42.1	-46.3	11.4	9.33e-04	0	61	0	299892736	55	5942
2026-01-30 11:29:34.25	232.44	18.47	-42.0	-46.0	11.7	6.84e-04	0	61	0	300941312	55	5775
2026-01-30 11:29:35.26	232.64	18.55	-41.9	-45.9	11.9	5.78e-04	0	61	0	303038464	55	5662
2026-01-30 11:29:36.27	232.84	18.62	-41.9	-45.9	11.9	4.67e-04	0	61	0	305135616	55	5659
2026-01-30 11:29:37.28	233.04	18.69	-41.9	-45.8	11.9	3.78e-04	0	61	0	307232768	55	5644
2026-01-30 11:29:38.29	233.24	18.76	-41.8	-45.6	12.1	3.58e-04	0	61	0	309329920	55	5516
2026-01-30 11:29:39.31	233.44	18.83	-41.8	-45.6	12.1	2.30e-04	0	61	0	310378496	55	5486
2026-01-30 11:29:40.32	233.65	18.90	-41.9	-45.8	12.0	2.84e-04	0	61	0	312475648	55	5605
2026-01-30 11:29:41.33	233.85	18.98	-41.8	-45.6	12.2	2.18e-04	0	61	0	314572800	55	5495
2026-01-30 11:29:42.34	234.05	19.05	-41.8	-45.6	12.1	2.49e-04	0	61	0	316669952	55	5520
2026-01-30 11:29:43.34	234.26	19.12	-41.7	-45.5	12.2	2.66e-04	0	61	0	318767104	55	5458
2026-01-30 11:29:44.35	234.46	19.19	-41.8	-45.6	12.2	2.20e-04	0	61	0	319815680	55	5473
2026-01-30 11:29:45.36	234.67	19.26	-41.7	-45.5	12.3	2.32e-04	0	61	0	321912832	55	5433
2026-01-30 11:29:46.37	234.88	19.33	-41.7	-45.4	12.4	1.66e-04	0	61	0	324009984	55	5366
2026-01-30 11:29:47.38	235.09	19.40	-41.7	-45.5	12.3	1.43e-04	0	61	0	326107136	55	5411
2026-01-30 11:29:48.39	235.30	19.47	-41.7	-45.4	12.4	1.59e-04	0	61	0	328204288	55	5358
2026-01-30 11:29:49.40	235.51	19.54	-41.7	-45.5	12.2	1.41e-04	0	61	0	329252864	55	5457
2026-01-30 11:29:50.41	235.72	19.61	-41.8	-45.6	12.2	1.82e-04	0	61	0	331350016	55	5500
2026-01-30 11:29:51.42	235.93	19.68	-41.8	-45.6	12.2	2.41e-04	0	61	0	333447168	55	5496
2026-01-30 11:29:52.43	236.15	19.75	-41.8	-45.6	12.2	2.46e-04	0	61	0	335544320	55	5477
2026-01-30 11:29:53.44	236.36	19.82	-41.8	-45.7	12.1	2.37e-04	0	61	0	337641472	55	5535
2026-01-30 11:29:54.45	236.58	19.88	-41.8	-45.7	12.1	2.43e-04	0	61	0	338690048	55	5590
2026-01-30 11:29:55.46	236.79	19.95	-41.9	-45.9	11.9	2.97e-04	0	61	0	340787200	55	5683
2026-01-30 11:29:56.47	237.01	20.02	-41.9	-45.9	11.9	3.57e-04	0	61	0	342884352	55	5659
2026-01-30 11:29:57.48	237.23	20.09	-41.9	-45.9	11.9	4.36e-04	0	61	0	344981504	55	5659
2026-01-30 11:29:58.49	237.45	20.16	-41.9	-45.8	11.9	4.80e-04	0	61	0	347078656	55	5645
2026-01-30 11:29:59.50	237.67	20.23	-42.0	-46.1	11.7	4.29e-04	0	61	0	348127232	55	5789
2026-01-30 11:30:00.51	237.89	20.29	-41.9	-45.8	11.9	4.51e-04	0	61	0	350224384	55	5649
2026-01-30 11:30:01.52	238.11	20.36	-41.8	-45.7	12.1	3.62e-04	0	61	0	352321536	55	5587
2026-01-30 11:30:02.53	238.34	20.43	-41.9	-45.7	12.1	2.63e-04	0	61	0	354418688	55	5592
2026-01-30 11:30:03.54	238.56	20.49	-41.8	-45.6	12.2	2.26e-04	0	61	0	356515840	55	5473
2026-01-30 11:30:04.55	238.79	20.56	-41.8	-45.6	12.2	2.49e-04	0	61	0	357564416	55	5478
2026-01-30 11:30:05.56	239.01	20.63	-41.8	-45.6	12.2	2.08e-04	0	61	0	359661568	55	5517
2026-01-30 11:30:06.57	239.24	20.69	-41.9	-45.7	12.1	2.14e-04	0	61	0	361758720	55	5588
2026-01-30 11:30:07.58	239.47	20.76	-42.0	-46.0	11.8	3.89e-04	0	61	0	363855872	55	5747
2026-01-30 11:30:08.59	239.70	20.82	-42.2	-46.5	11.3	1.02e-03	0	61	0	365953024	55	6077
2026-01-30 11:30:09.60	239.93	20.89	-42.2	-46.5	11.3	1.14e-03	0	61	0	368050176	55	6076
2026-01-30 11:30:10.61	240.16	20.95	-42.2	-46.5	11.3	1.34e-03	0	61	0	369098752	55	6097
2026-01-30 11:30:11.62	240.39	21.02	-42.2	-46.5	11.3	1.25e-03	0	61	0	371195904	55	6090
2026-01-30 11:30:12.63	240.62	21.08	-42.2	-46.5	11.2	1.15e-03	0	61	0	373293056	55	6103
2026-01-30 11:30:13.64	240.86	21.15	-42.1	-46.3	11.5	9.85e-04	0	61	0	375390208	55	5934
2026-01-30 11:30:14.65	241.09	21.21	-42.2	-46.4	11.4	8.39e-04	0	61	0	377487360	55	5998
2026-01-30 11:30:15.65	241.32	21.27	-42.3	-46.7	11.1	1.47e-03	0	61	0	378535936	55	6208
2026-01-30 11:30:16.66	241.56	21.33	-42.3	-46.8	10.9	2.07e-03	0	61	0	380633088	55	6287
2026-01-30 11:30:17.67	241.80	21.40	-42.4	-46.8	11.0	1.73e-03	0	61	0	382730240	55	6322
2026-01-30 11:30:18.68	242.04	21.46	-42.3	-46.6	11.2	1.76e-03	0	61	0	384827392	55	6141
2026-01-30 11:30:19.69	242.28	21.52	-42.2	-46.5	11.3	1.17e-03	0	61	0	386924544	55	6071
2026-01-30 11:30:20.70	242.52	21.58	-42.1	-46.1	11.6	8.53e-04	0	61	0	387973120	55	5854
2026-01-30 11:30:21.71	242.76	21.64	-42.1	-46.2	11.6	6.77e-04	0	61	0	390070272	55	5858
2026-01-30 11:30:22.72	243.00	21.70	-42.2	-46.5	11.3	9.41e-04	0	61	0	392167424	55	6126
2026-01-30 11:30:23.73	243.24	21.76	-42.5	-47.1	10.6	1.86e-03	0	61	0	394264576	55	6551
2026-01-30 11:30:24.74	243.49	21.82	-42.7	-47.6	10.2	5.76e-03	0	61	0	396361728	55	6895
2026-01-30 11:30:25.75	243.73	21.88	-42.9	-48.0	9.9	7.24e-03	0	61	0	397410304	56	6808
2026-01-30 11:30:26.76	243.98	21.94	-42.8	-47.7	10.2	7.16e-03	0	61	0	399507456	56	6583
2026-01-30 11:30:27.77	244.22	22.00	-42.6	-47.1	10.9	2.53e-03	0	61	0	401604608	56	6145
2026-01-30 11:30:28.78	244.47	22.06	-42.4	-46.6	11.3	1.52e-03	0	61	0	403701760	56	5819
2026-01-30 11:30:29.79	244.72	22.12	-42.3	-46.5	11.5	8.38e-04	0	61	0	405798912	56	5754
2026-01-30 11:30:30.80	244.97	22.18	-42.3	-46.4	11.6	6.40e-04	0	61	0	406847488	56	5661
2026-01-30 11:30:31.81	245.22	22.23	-42.4	-46.8	11.1	1.11e-03	0	61	0	408944640	56	5938
2026-01-30 11:30:32.82	245.47	22.29	-42.5	-46.9	11.0	1.57e-03	0	62	0	411041792	56	6025
2026-01-30 11:30:33.83	245.72	22.35	-42.3	-46.6	11.4	1.33e-03	0	61	0	413138944	56	5809
2026-01-30 11:30:34.84	245.98	22.40	-42.3	-46.4	11.5	9.05e-04	0	61	0	415236096	56	5703
2026-01-30 11:30:35.85	246.23	22.46	-42.2	-46.3	11.7	6.09e-04	0	61	0	416284672	56	5619
2026-01-30 11:30:36.86	246.48	22.51	-42.4	-46.6	11.4	5.78e-04	0	61	0	418381824	56	5823
2026-01-30 11:30:37.87	246.74	22.57	-42.5	-46.8	11.2	1.07e-03	0	61	0	420478976	56	5957
2026-01-30 11:30:38.88	247.00	22.62	-42.6	-47.2	10.8	1.93e-03	0	61	0	422576128	56	6226
2026-01-30 11:30:39.89	247.25	22.68	-42.7	-47.3	10.6	2.56e-03	0	61	0	424673280	56	6312
2026-01-30 11:30:40.89	247.51	22.73	-42.6	-47.2	10.8	3.16e-03	0	61	0	425721856	56	6211
2026-01-30 11:30:41.90	247.77	22.78	-42.5	-46.9	11.0	2.78e-03	0	61	0	427819008	56	6046
2026-01-30 11:30:42.91	248.03	22.83	-42.5	-46.8	11.2	1.49e-03	0	61	0	429916160	56	5933
2026-01-30 11:30:43.92	248.29	22.88	-42.4	-46.6	11.4	1.29e-03	0	61	0	432013312	56	5818
2026-01-30 11:30:44.93	248.55	22.94	-42.4	-46.8	11.2	1.12e-03	0	61	0	434110464	56	5935
2026-01-30 11:30:45.94	248.81	22.99	-42.5	-46.9	11.0	1.88e-03	0	61	0	436207616	56	6043
2026-01-30 11:30:46.95	249.08	23.04	-42.6	-47.2	10.7	2.54e-03	0	61	0	437256192	56	6242
2026-01-30 11:30:47.96	249.34	23.09	-42.7	-47.3	10.6	3.36e-03	0	61	0	439353344	56	6329
2026-01-30 11:30:48.97	249.60	23.14	-42.8	-47.7	10.2	4.69e-03	0	61	0	441450496	56	6605
2026-01-30 11:30:49.98	249.87	23.18	-42.9	-47.9	9.9	6.80e-03	0	61	0	443547648	56	6796
2026-01-30 11:30:50.99	250.14	23.23	-43.0	-48.3	9.6	1.15e-02	0	61	0	445644800	56	7053
2026-01-30 11:30:52.00	250.40	23.28	-43.1	-48.4	9.5	1.30e-02	0	61	0	446693376	56	7186
2026-01-30 11:30:53.01	250.67	23.33	-43.2	-48.5	9.4	1.52e-02	0	61	0	448790528	56	7276
2026-01-30 11:30:54.02	250.94	23.37	-43.1	-48.3	9.6	1.50e-02	0	61	0	450887680	56	7055
2026-01-30 11:30:55.03	251.21	23.42	-42.9	-47.7	10.1	1.07e-02	0	61	0	452984832	56	6645
2026-01-30 11:30:56.04	251.48	23.46	-42.7	-47.4	10.6	4.69e-03	0	61	0	455081984	56	6390
2026-01-30 11:30:57.05	251.75	23.51	-42.7	-47.3	10.7	4.00e-03	0	61	0	456130560	56	6338
2026-01-30 11:30:58.06	252.02	23.55	-42.8	-47.7	10.2	4.07e-03	0	61	0	458227712	56	6584
2026-01-30 11:30:59.07	252.30	23.60	-42.9	-48.0	10.0	6.32e-03	0	61	0	460324864	56	6828
2026-01-30 11:31:00.08	252.57	23.64	-43.2	-48.7	9.2	1.32e-02	0	61	0	462422016	56	7399
2026-01-30 11:31:01.09	252.84	23.68	-43.3	-49.0	8.8	2.58e-02	0	61	0	464519168	57	7277
2026-01-30 11:31:02.10	253.12	23.72	-43.3	-49.2	8.7	3.62e-02	0	61	0	465567744	57	7377
2026-01-30 11:31:03.10	253.39	23.76	-43.2	-48.8	9.1	2.98e-02	0	61	0	467664896	57	7054
2026-01-30 11:31:04.11	253.67	23.80	-43.2	-48.8	9.1	2.31e-02	0	62	0	469762048	57	7044
2026-01-30 11:31:05.12	253.94	23.84	-43.2	-48.7	9.2	1.95e-02	0	61	0	471859200	57	7006
2026-01-30 11:31:06.13	254.22	23.88	-43.2	-48.8	9.0	2.41e-02	0	61	0	473956352	57	7121
2026-01-30 11:31:07.14	254.50	23.92	-43.3	-48.9	8.9	2.90e-02	0	61	0	475004928	57	7203
2026-01-30 11:31:08.15	254.78	23.96	-43.3	-48.9	9.0	3.19e-02	0	62	0	477102080	57	7142
2026-01-30 11:31:09.16	255.06	24.00	-43.2	-48.8	9.1	2.45e-02	0	61	0	479199232	57	7044
2026-01-30 11:31:10.17	255.34	24.03	-43.2	-48.6	9.3	1.78e-02	0	62	0	481296384	57	6897
2026-01-30 11:31:11.18	255.62	24.07	-43.2	-48.7	9.1	1.94e-02	0	62	0	483393536	57	7038
2026-01-30 11:31:12.19	255.90	24.10	-43.4	-49.4	8.5	2.98e-02	0	62	0	484442112	57	7608
2026-01-30 11:31:13.20	256.18	24.14	-43.7	-50.4	7.4	7.37e-02	0	62	0	486539264	57	8525
2026-01-30 11:31:14.21	256.47	24.17	-43.9	-51.2	6.7	1.65e-01	0	61	0	488636416	58	8843
2026-01-30 11:31:15.22	256.75	24.21	-44.0	-52.0	6.1	2.63e-01	0	61	0	490733568	58	9643
2026-01-30 11:31:16.23	257.03	24.24	-43.9	-51.3	6.7	2.95e-01	0	61	0	492830720	58	8902
2026-01-30 11:31:17.24	257.32	24.27	-43.8	-50.8	7.1	1.50e-01	0	62	0	493879296	58	8383
2026-01-30 11:31:18.25	257.60	24.30	-43.6	-50.0	7.9	8.62e-02	0	62	0	495976448	58	7670
2026-01-30 11:31:19.26	257.89	24.33	-43.7	-50.3	7.6	1.33e-01	0	61	0	498073600	58	7919
2026-01-30 11:31:20.26	258.17	24.36	-44.7	-58.2	3.8	1.49e+00	0	62	104	499122176	60	17679
2026-01-30 11:31:21.28	258.46	24.39	-43.9	-51.2	6.6	3.89e-01	0	62	0	499122176	59	8359
2026-01-30 11:31:22.29	258.75	24.42	-44.7	-58.2	3.8	8.49e-01	0	62	104	500170752	60	17585
2026-01-30 11:31:23.30	259.03	24.45	-43.7	-50.5	7.4	1.10e-01	0	62	0	500170752	59	7644
2026-01-30 11:31:24.31	259.32	24.47	-43.6	-50.2	7.6	8.99e-02	0	61	0	502267904	59	7398
2026-01-30 11:31:25.32	259.61	24.50	-43.5	-49.7	8.1	7.81e-02	0	61	0	504365056	59	7009
2026-01-30 11:31:26.33	259.90	24.53	-43.5	-49.7	8.1	5.91e-02	0	62	0	506462208	59	7028
2026-01-30 11:31:27.34	260.19	24.55	-43.4	-49.3	8.5	4.74e-02	0	62	0	508559360	58	7100
2026-01-30 11:31:28.35	260.48	24.58	-43.5	-49.6	8.3	5.75e-02	0	62	0	509607936	58	7339
2026-01-30 11:31:29.36	260.77	24.60	-43.6	-49.9	8.0	6.16e-02	0	62	0	511705088	58	7545
2026-01-30 11:31:30.37	261.06	24.62	-43.6	-50.2	7.6	7.20e-02	0	61	0	513802240	58	7841
2026-01-30 11:31:31.38	261.35	24.64	-43.7	-50.5	7.4	9.52e-02	0	62	0	515899392	58	8108
2026-01-30 11:31:32.39	261.64	24.66	-43.7	-50.5	7.4	1.15e-01	0	62	0	517996544	58	8099
2026-01-30 11:31:33.39	261.93	24.68	-43.6	-50.1	7.8	8.99e-02	0	62	0	519045120	58	7720
2026-01-30 11:31:34.40	262.22	24.70	-43.4	-49.4	8.4	7.08e-02	0	62	0	521142272	58	7200
2026-01-30 11:31:35.41	262.52	24.72	-43.3	-48.9	9.0	3.56e-02	0	62	0	523239424	58	6747
2026-01-30 11:31:36.42	262.81	24.74	-43.2	-48.8	9.2	2.07e-02	0	62	0	525336576	58	6647
2026-01-30 11:31:37.43	263.10	24.76	-43.1	-48.3	9.5	1.52e-02	0	62	0	527433728	58	6336
2026-01-30 11:31:38.44	263.39	24.77	-43.0	-48.1	9.8	1.20e-02	0	62	0	528482304	58	6169
2026-01-30 11:31:39.45	263.69	24.79	-42.9	-47.8	10.1	7.64e-03	0	61	0	530579456	57	6300
2026-01-30 11:31:40.46	263.98	24.81	-42.8	-47.6	10.4	5.62e-03	0	62	0	532676608	57	6132
2026-01-30 11:31:41.47	264.28	24.82	-42.7	-47.3	10.6	3.81e-03	0	62	0	534773760	57	5936
2026-01-30 11:31:42.48	264.57	24.83	-42.7	-47.5	10.4	4.73e-03	0	62	0	536870912	57	6093
2026-01-30 11:31:43.49	264.87	24.85	-43.0	-48.1	9.8	7.60e-03	0	61	0	537919488	57	6547
2026-01-30 11:31:44.50	265.16	24.86	-43.2	-48.7	9.1	1.45e-02	0	61	0	540016640	57	7005
2026-01-30 11:31:45.51	265.46	24.87	-43.3	-49.0	8.8	2.75e-02	0	61	0	542113792	57	7276
2026-01-30 11:31:46.52	265.75	24.88	-43.2	-48.7	9.2	2.36e-02	0	62	0	544210944	57	6981
2026-01-30 11:31:47.52	266.04	24.89	-42.9	-48.0	9.9	1.62e-02	0	62	0	546308096	57	6469
2026-01-30 11:31:48.54	266.34	24.90	-42.9	-47.9	10.0	9.31e-03	0	62	0	547356672	57	6371
2026-01-30 11:31:49.54	266.64	24.91	-42.9	-48.0	9.9	7.19e-03	0	62	0	549453824	57	6456
2026-01-30 11:31:50.55	266.93	24.91	-43.0	-48.1	9.7	9.63e-03	0	62	0	551550976	57	6560
2026-01-30 11:31:51.56	267.23	24.92	-43.1	-48.5	9.4	1.59e-02	0	62	0	553648128	57	6803
2026-01-30 11:31:52.57	267.52	24.93	-43.1	-48.6	9.3	2.00e-02	0	62	0	555745280	57	6902
2026-01-30 11:31:53.58	267.82	24.93	-43.0	-48.2	9.6	1.60e-02	0	62	0	556793856	57	6638
2026-01-30 11:31:54.59	268.12	24.93	-42.9	-47.9	9.9	1.06e-02	0	62	0	558891008	57	6405
2026-01-30 11:31:55.60	268.41	24.94	-42.9	-47.9	9.9	7.94e-03	0	62	0	560988160	57	6393
2026-01-30 11:31:56.60	268.71	24.94	-42.9	-48.0	9.9	8.25e-03	0	62	0	563085312	57	6427
2026-01-30 11:31:57.62	269.01	24.94	-43.0	-48.2	9.7	1.15e-02	0	62	0	565182464	57	6578
2026-01-30 11:31:58.63	269.30	24.94	-42.9	-47.9	10.0	9.82e-03	0	62	0	567279616	57	6359
2026-01-30 11:31:59.64	269.60	24.94	-42.7	-47.5	10.4	5.74e-03	0	62	0	568328192	57	6084
2026-01-30 11:32:00.65	269.89	24.94	-42.5	-46.9	11.0	3.00e-03	0	62	0	570425344	57	5674
2026-01-30 11:32:01.66	270.19	24.94	-42.3	-46.5	11.4	1.70e-03	0	62	0	572522496	56	5786
2026-01-30 11:32:02.66	270.48	24.94	-42.3	-46.5	11.5	6.93e-04	0	62	0	574619648	56	5724
2026-01-30 11:32:03.67	270.78	24.93	-42.4	-46.7	11.2	1.09e-03	0	62	0	576716800	56	5904
2026-01-30 11:32:04.68	271.08	24.93	-42.6	-47.1	10.8	2.07e-03	0	62	0	577765376	56	6152
2026-01-30 11:32:05.69	271.37	24.93	-42.7	-47.4	10.5	3.99e-03	0	62	0	579862528	56	6390
2026-01-30 11:32:06.70	271.67	24.92	-42.8	-47.5	10.4	4.55e-03	0	62	0	581959680	56	6476
2026-01-30 11:32:07.71	271.96	24.91	-42.7	-47.3	10.6	3.89e-03	0	62	0	584056832	56	6322
2026-01-30 11:32:08.72	272.26	24.91	-42.6	-47.1	10.8	2.66e-03	0	62	0	586153984	56	6136
2026-01-30 11:32:09.73	272.56	24.90	-42.5	-46.9	11.0	2.19e-03	0	62	0	587202560	56	6019
2026-01-30 11:32:10.74	272.85	24.89	-42.5	-46.9	11.1	2.04e-03	0	62	0	589299712	56	6010
2026-01-30 11:32:11.75	273.15	24.88	-42.5	-46.9	10.9	2.11e-03	0	62	0	591396864	56	6043
2026-01-30 11:32:12.76	273.44	24.87	-42.5	-46.8	11.0	2.10e-03	0	62	0	593494016	56	5991
2026-01-30 11:32:13.77	273.74	24.86	-42.5	-46.8	11.1	1.95e-03	0	62	0	595591168	56	5992
2026-01-30 11:32:14.78	274.03	24.85	-42.6	-47.1	10.8	2.88e-03	0	62	0	596639744	56	6201
2026-01-30 11:32:15.79	274.33	24.84	-42.7	-47.3	10.6	3.10e-03	0	62	0	598736896	56	6283
2026-01-30 11:32:16.80	274.62	24.82	-42.8	-47.5	10.4	4.47e-03	0	62	0	600834048	56	6487
2026-01-30 11:32:17.81	274.91	24.81	-42.8	-47.7	10.1	6.02e-03	0	62	0	602931200	56	6643
2026-01-30 11:32:18.82	275.21	24.79	-42.9	-47.8	10.0	7.97e-03	0	62	0	605028352	56	6723
2026-01-30 11:32:19.84	275.50	24.78	-42.9	-47.9	10.0	7.33e-03	0	62	0	606076928	56	6731
2026-01-30 11:32:20.85	275.80	24.76	-42.7	-47.5	10.4	6.21e-03	0	62	0	608174080	56	6466
2026-01-30 11:32:21.86	276.09	24.74	-42.6	-47.1	10.8	3.13e-03	0	62	0	610271232	56	6166
2026-01-30 11:32:22.87	276.38	24.73	-42.7	-47.2	10.6	2.50e-03	0	62	0	612368384	56	6262
2026-01-30 11:32:23.88	276.67	24.71	-42.5	-47.0	10.9	2.56e-03	0	62	0	614465536	56	6105
2026-01-30 11:32:24.89	276.97	24.69	-42.6	-47.2	10.6	3.16e-03	0	62	0	615514112	56	6267
2026-01-30 11:32:25.90	277.26	24.67	-42.6	-47.2	10.6	3.34e-03	0	62	0	617611264	56	6268
2026-01-30 11:32:26.91	277.55	24.65	-42.6	-47.2	10.7	2.90e-03	0	62	0	619708416	56	6223
2026-01-30 11:32:27.92	277.84	24.63	-42.6	-47.3	10.6	3.34e-03	0	62	0	621805568	56	6290
2026-01-30 11:32:28.93	278.13	24.60	-42.6	-47.1	10.8	3.65e-03	0	62	0	623902720	56	6198
2026-01-30 11:32:29.94	278.42	24.58	-42.7	-47.5	10.4	3.64e-03	0	62	0	624951296	56	6438
2026-01-30 11:32:30.95	278.71	24.56	-42.7	-47.5	10.4	4.63e-03	0	62	0	627048448	56	6474
2026-01-30 11:32:31.96	279.00	24.53	-42.7	-47.5	10.4	4.85e-03	0	62	0	629145600	56	6441
2026-01-30 11:32:32.97	279.29	24.51	-42.6	-47.3	10.5	4.49e-03	0	62	0	631242752	56	6316
2026-01-30 11:32:33.98	279.57	24.48	-42.6	-47.1	10.9	3.31e-03	0	62	0	633339904	56	6146
2026-01-30 11:32:34.99	279.86	24.45	-42.6	-47.1	10.9	2.01e-03	0	62	0	634388480	56	6142
2026-01-30 11:32:36.00	280.15	24.43	-42.5	-46.8	11.1	1.81e-03	0	61	0	636485632	56	5980
2026-01-30 11:32:37.01	280.44	24.40	-42.4	-46.6	11.3	1.50e-03	0	62	0	638582784	56	5840
2026-01-30 11:32:38.02	280.72	24.37	-42.3	-46.5	11.5	9.84e-04	0	62	0	640679936	56	5734
2026-01-30 11:32:39.03	281.01	24.34	-42.2	-46.3	11.6	6.36e-04	0	62	0	642777088	56	5614
2026-01-30 11:32:40.04	281.29	24.31	-42.2	-46.3	11.7	5.53e-04	0	62	0	644874240	56	5596
2026-01-30 11:32:41.05	281.58	24.28	-42.3	-46.6	11.4	8.60e-04	0	62	0	645922816	56	5793
2026-01-30 11:32:42.06	281.86	24.25	-42.3	-46.5	11.4	1.05e-03	0	62	0	648019968	56	5754
2026-01-30 11:32:43.07	282.14	24.21	-42.3	-46.6	11.4	9.60e-04	0	62	0	650117120	56	5801
2026-01-30 11:32:44.08	282.43	24.18	-42.3	-46.5	11.4	1.15e-03	0	62	0	652214272	56	5784
2026-01-30 11:32:45.09	282.71	24.15	-42.2	-46.2	11.7	6.25e-04	0	62	0	654311424	56	5562
2026-01-30 11:32:46.10	282.99	24.11	-42.1	-46.2	11.8	5.20e-04	0	62	0	655360000	56	5534
2026-01-30 11:32:47.10	283.27	24.08	-42.1	-46.1	11.8	5.35e-04	0	62	0	657457152	56	5512
2026-01-30 11:32:48.11	283.55	24.04	-42.3	-46.4	11.5	7.82e-04	0	62	0	659554304	56	5673
2026-01-30 11:32:49.12	283.83	24.01	-42.2	-46.4	11.5	9.71e-04	0	62	0	661651456	56	5710
2026-01-30 11:32:50.13	284.11	23.97	-42.3	-46.4	11.5	1.01e-03	0	62	0	663748608	56	5714
2026-01-30 11:32:51.14	284.38	23.93	-42.1	-46.1	11.7	6.11e-04	0	62	0	664797184	56	5501
2026-01-30 11:32:52.15	284.66	23.89	-42.0	-46.0	11.9	4.06e-04	0	62	0	666894336	56	5403
2026-01-30 11:32:53.16	284.94	23.85	-41.7	-45.5	12.3	2.46e-04	0	62	0	668991488	55	5411
2026-01-30 11:32:54.17	285.21	23.81	-41.8	-45.5	12.2	2.13e-04	0	62	0	671088640	55	5458
2026-01-30 11:32:55.18	285.49	23.77	-41.8	-45.6	12.1	2.69e-04	0	62	0	673185792	55	5495
2026-01-30 11:32:56.19	285.76	23.73	-41.8	-45.6	12.0	2.83e-04	0	62	0	674234368	55	5519
2026-01-30 11:32:57.20	286.04	23.69	-41.9	-46.0	11.7	3.61e-04	0	62	0	676331520	55	5728
2026-01-30 11:32:58.21	286.31	23.65	-42.1	-46.3	11.4	8.19e-04	0	62	0	678428672	55	5985
2026-01-30 11:32:59.22	286.58	23.61	-42.2	-46.6	11.0	1.27e-03	0	62	0	680525824	55	6172
2026-01-30 11:33:00.23	286.86	23.56	-42.3	-46.7	11.0	1.97e-03	0	62	0	682622976	55	6231
2026-01-30 11:33:01.24	287.13	23.52	-42.2	-46.6	11.0	2.13e-03	0	62	0	683671552	55	6202
2026-01-30 11:33:02.25	287.40	23.48	-42.1	-46.4	11.3	1.57e-03	0	62	0	685768704	55	6040
2026-01-30 11:33:03.26	287.67	23.43	-42.0	-46.1	11.6	9.23e-04	0	62	0	687865856	55	5809
2026-01-30 11:33:04.27	287.94	23.39	-42.0	-46.0	11.7	5.65e-04	0	62	0	689963008	55	5762
2026-01-30 11:33:05.28	288.20	23.34	-41.8	-45.8	11.9	4.49e-04	0	62	0	692060160	55	5605
2026-01-30 11:33:06.29	288.47	23.29	-41.8	-45.7	12.0	3.34e-04	0	62	0	693108736	55	5540
2026-01-30 11:33:07.30	288.74	23.25	-41.8	-45.7	12.0	3.49e-04	0	62	0	695205888	55	5540
2026-01-30 11:33:08.31	289.00	23.20	-41.7	-45.6	12.0	2.74e-04	0	62	0	697303040	55	5518
2026-01-30 11:33:09.32	289.27	23.15	-41.6	-45.4	12.2	2.57e-04	0	62	0	699400192	55	5400
2026-01-30 11:33:10.33	289.53	23.10	-41.5	-45.2	12.5	1.54e-04	0	62	0	701497344	55	5229
2026-01-30 11:33:11.33	289.79	23.05	-41.4	-44.8	12.9	1.12e-04	0	62	0	702545920	54	5331
2026-01-30 11:33:12.34	290.06	23.00	-41.2	-44.5	13.1	4.27e-05	0	62	0	704643072	54	5157
2026-01-30 11:33:13.35	290.32	22.95	-41.1	-44.5	13.3	2.05e-05	0	62	0	706740224	54	5107
2026-01-30 11:33:14.36	290.58	22.90	-41.2	-44.6	13.0	1.67e-05	0	62	0	708837376	54	5203
2026-01-30 11:33:15.37	290.84	22.85	-41.4	-44.9	12.7	3.50e-05	0	62	0	710934528	54	5361
2026-01-30 11:33:16.38	291.10	22.80	-41.5	-45.2	12.5	6.33e-05	0	62	0	713031680	54	5569
2026-01-30 11:33:17.39	291.36	22.75	-41.7	-45.5	12.1	2.66e-04	0	62	0	714080256	54	5759
2026-01-30 11:33:18.40	291.61	22.69	-41.8	-45.7	11.9	4.41e-04	0	62	0	716177408	54	5896
2026-01-30 11:33:19.41	291.87	22.64	-41.8	-45.7	11.9	4.51e-04	0	62	0	718274560	54	5921
2026-01-30 11:33:20.42	292.13	22.59	-41.6	-45.3	12.3	1.98e-04	0	62	0	720371712	54	5649
2026-01-30 11:33:21.43	292.38	22.53	-41.4	-45.0	12.7	8.62e-05	0	62	0	722468864	54	5414
2026-01-30 11:33:22.44	292.63	22.48	-41.4	-44.9	12.7	7.40e-05	0	62	0	723517440	54	5401
2026-01-30 11:33:23.45	292.89	22.42	-41.4	-45.1	12.6	1.15e-04	0	62	0	725614592	54	5469
2026-01-30 11:33:24.47	293.14	22.37	-41.5	-45.2	12.5	1.43e-04	0	62	0	727711744	54	5570
2026-01-30 11:33:25.48	293.39	22.31	-41.7	-45.5	12.1	2.32e-04	0	62	0	729808896	54	5750
2026-01-30 11:33:26.49	293.64	22.26	-41.8	-45.7	11.9	3.35e-04	0	62	0	731906048	54	5912
2026-01-30 11:33:27.49	293.89	22.20	-41.8	-45.8	11.8	4.23e-04	0	62	0	732954624	54	5930
2026-01-30 11:33:28.51	294.14	22.14	-41.8	-45.7	11.9	4.69e-04	0	62	0	735051776	54	5891
2026-01-30 11:33:29.52	294.39	22.08	-41.8	-45.7	11.9	3.88e-04	0	62	0	737148928	54	5903
2026-01-30 11:33:30.53	294.64	22.03	-41.6	-45.5	12.2	2.49e-04	0	62	0	739246080	54	5727
2026-01-30 11:33:31.53	294.88	21.97	-41.7	-45.5	12.1	2.27e-04	0	62	0	741343232	54	5738
2026-01-30 11:33:32.54	295.12	21.91	-41.7	-45.6	12.0	2.79e-04	0	62	0	742391808	54	5847
2026-01-30 11:33:33.56	295.37	21.85	-41.8	-45.8	11.8	4.33e-04	0	62	0	744488960	54	5935
2026-01-30 11:33:34.57	295.61	21.79	-41.8	-45.9	11.7	5.90e-04	0	62	0	746586112	54	6018
2026-01-30 11:33:35.58	295.86	21.73	-41.9	-46.0	11.6	9.28e-04	0	62	0	748683264	54	6123
2026-01-30 11:33:36.58	296.09	21.67	-42.0	-46.2	11.4	9.12e-04	0	62	0	750780416	54	6252
2026-01-30 11:33:37.59	296.33	21.61	-41.9	-46.0	11.6	7.06e-04	0	62	0	751828992	54	6075
2026-01-30 11:33:38.60	296.57	21.55	-41.8	-45.8	11.8	5.78e-04	0	62	0	753926144	54	5965
2026-01-30 11:33:39.61	296.81	21.49	-41.8	-45.8	11.8	4.68e-04	0	62	0	756023296	54	5951
2026-01-30 11:33:40.62	297.05	21.43	-41.8	-45.9	11.7	4.94e-04	0	62	0	758120448	54	6011
2026-01-30 11:33:41.63	297.29	21.36	-41.9	-45.9	11.6	7.06e-04	0	62	0	760217600	54	6043
2026-01-30 11:33:42.64	297.52	21.30	-42.0	-46.2	11.4	8.97e-04	0	62	0	761266176	54	6231
2026-01-30 11:33:43.65	297.76	21.24	-42.0	-46.3	11.3	1.03e-03	0	62	0	763363328	54	6291
2026-01-30 11:33:44.66	297.99	21.18	-42.1	-46.4	11.2	1.06e-03	0	62	0	765460480	54	6387
2026-01-30 11:33:45.67	298.22	21.11	-42.2	-46.7	10.9	1.78e-03	0	62	0	767557632	55	6212
2026-01-30 11:33:46.68	298.46	21.05	-42.3	-46.9	10.6	2.87e-03	0	62	0	769654784	55	6420
2026-01-30 11:33:47.69	298.69	20.99	-42.5	-47.4	10.2	4.37e-03	0	62	0	770703360	55	6731
2026-01-30 11:33:48.70	298.92	20.92	-42.5	-47.4	10.1	6.38e-03	0	62	0	772800512	55	6781
2026-01-30 11:33:49.71	299.15	20.86	-42.4	-47.3	10.2	6.75e-03	0	62	0	774897664	55	6677
2026-01-30 11:33:50.72	299.37	20.79	-42.4	-47.1	10.4	5.43e-03	0	62	0	776994816	55	6526
2026-01-30 11:33:51.73	299.60	20.73	-42.3	-46.8	10.8	3.25e-03	0	62	0	779091968	55	6319
2026-01-30 11:33:52.73	299.82	20.66	-42.1	-46.5	11.1	1.63e-03	0	62	0	781189120	55	6095
2026-01-30 11:33:53.75	300.05	20.60	-42.0	-46.2	11.4	1.02e-03	0	62	0	782237696	55	5877
2026-01-30 11:33:54.76	300.28	20.53	-42.0	-46.3	11.3	1.05e-03	0	62	0	784334848	55	5939
2026-01-30 11:33:55.77	300.50	20.46	-42.1	-46.4	11.2	1.12e-03	0	62	0	786432000	55	6008
2026-01-30 11:33:56.77	300.72	20.40	-42.2	-46.6	10.9	1.75e-03	0	62	0	788529152	55	6188
2026-01-30 11:33:57.79	300.94	20.33	-42.3	-46.9	10.6	2.33e-03	0	62	0	790626304	55	6397
2026-01-30 11:33:58.79	301.16	20.27	-42.4	-47.0	10.5	3.22e-03	0	62	0	791674880	55	6485
2026-01-30 11:33:59.80	301.38	20.20	-42.4	-47.2	10.3	4.11e-03	0	62	0	793772032	55	6590
2026-01-30 11:34:00.82	301.60	20.13	-42.4	-47.2	10.3	4.94e-03	0	62	0	795869184	55	6638
2026-01-30 11:34:01.83	301.82	20.06	-42.5	-47.4	10.2	5.31e-03	0	62	0	797966336	55	6758
2026-01-30 11:34:02.84	302.04	20.00	-42.4	-47.2	10.3	6.35e-03	0	62	0	800063488	55	6643
2026-01-30 11:34:03.84	302.25	19.93	-42.5	-47.4	10.1	6.42e-03	0	62	0	801112064	55	6734
2026-01-30 11:34:04.86	302.47	19.86	-42.5	-47.4	10.0	7.21e-03	0	62	0	803209216	55	6797
2026-01-30 11:34:05.87	302.68	19.79	-42.5	-47.4	10.0	8.70e-03	0	62	0	805306368	55	6796
2026-01-30 11:34:06.88	302.90	19.72	-42.5	-47.4	10.1	7.15e-03	0	62	0	807403520	55	6755
2026-01-30 11:34:07.89	303.11	19.65	-42.5	-47.3	10.2	6.55e-03	0	62	0	809500672	55	6706
2026-01-30 11:34:08.89	303.32	19.59	-42.4	-47.3	10.3	6.13e-03	0	62	0	810549248	55	6665
2026-01-30 11:34:09.90	303.53	19.52	-42.4	-47.2	10.3	4.41e-03	0	62	0	812646400	55	6595
2026-01-30 11:34:10.91	303.74	19.45	-42.3	-47.0	10.4	5.75e-03	0	62	0	814743552	55	6477
2026-01-30 11:34:11.92	303.94	19.38	-42.4	-47.1	10.4	4.95e-03	0	62	0	816840704	55	6560
2026-01-30 11:34:12.93	304.15	19.31	-42.5	-47.5	10.0	7.67e-03	0	62	0	818937856	55	6819
2026-01-30 11:34:13.94	304.36	19.24	-42.6	-47.6	9.9	8.93e-03	0	62	0	819986432	55	6941
2026-01-30 11:34:14.95	304.56	19.17	-42.6	-47.8	9.7	1.09e-02	0	62	0	822083584	55	7057
2026-01-30 11:34:15.96	304.77	19.10	-42.6	-47.8	9.6	1.28e-02	0	62	0	824180736	55	7112
2026-01-30 11:34:16.97	304.97	19.03	-42.6	-47.9	9.6	1.23e-02	0	62	0	826277888	55	7147
2026-01-30 11:34:17.98	305.18	18.96	-42.6	-47.7	9.7	1.24e-02	0	62	0	828375040	55	6992
2026-01-30 11:34:18.99	305.38	18.89	-42.5	-47.6	9.9	9.03e-03	0	62	0	829423616	55	6919
2026-01-30 11:34:20.00	305.58	18.82	-42.5	-47.5	10.0	9.01e-03	0	62	0	831520768	55	6853
2026-01-30 11:34:21.01	305.78	18.74	-42.5	-47.5	9.9	9.62e-03	0	62	0	833617920	55	6866
2026-01-30 11:34:22.02	305.98	18.67	-42.5	-47.6	9.9	9.02e-03	0	62	0	835715072	55	6899
2026-01-30 11:34:23.03	306.18	18.60	-42.6	-47.9	9.5	1.39e-02	0	62	0	837812224	55	7168
2026-01-30 11:34:24.04	306.37	18.53	-42.7	-48.1	9.3	1.49e-02	0	62	0	838860800	55	7304
2026-01-30 11:34:25.06	306.57	18.46	-42.9	-48.4	9.1	1.89e-02	0	62	0	840957952	56	7171
2026-01-30 11:34:26.07	306.77	18.39	-42.8	-48.2	9.4	1.69e-02	0	62	0	843055104	56	6981
2026-01-30 11:34:27.08	306.96	18.32	-42.8	-48.0	9.5	1.31e-02	0	62	0	845152256	56	6850
2026-01-30 11:34:28.08	307.15	18.25	-42.7	-48.0	9.5	1.29e-02	0	62	0	847249408	56	6821
2026-01-30 11:34:29.09	307.35	18.17	-42.6	-47.7	9.9	9.00e-03	0	62	0	849346560	56	6607
2026-01-30 11:34:30.10	307.54	18.10	-42.7	-47.9	9.7	9.74e-03	0	62	0	850395136	56	6736
2026-01-30 11:34:31.11	307.73	18.03	-42.7	-47.8	9.7	8.58e-03	0	62	0	852492288	56	6701
2026-01-30 11:34:32.12	307.92	17.96	-42.7	-48.0	9.5	1.08e-02	0	62	0	854589440	56	6833
2026-01-30 11:34:33.13	308.11	17.89	-42.7	-47.9	9.6	1.39e-02	0	62	0	856686592	56	6774
2026-01-30 11:34:34.14	308.30	17.81	-42.6	-47.7	9.9	1.13e-02	0	62	0	858783744	56	6571
2026-01-30 11:34:35.15	308.49	17.74	-42.6	-47.6	9.9	8.83e-03	0	62	0	859832320	56	6528
2026-01-30 11:34:36.16	308.67	17.67	-42.4	-47.1	10.5	5.94e-03	0	62	0	861929472	56	6168
2026-01-30 11:34:37.17	308.86	17.60	-42.4	-47.0	10.6	3.79e-03	0	62	0	864026624	56	6100
2026-01-30 11:34:38.18	309.04	17.52	-42.3	-47.0	10.6	4.46e-03	0	62	0	866123776	56	6076
2026-01-30 11:34:39.19	309.23	17.45	-42.4	-47.0	10.6	3.55e-03	0	62	0	868220928	56	6098
2026-01-30 11:34:40.20	309.41	17.38	-42.4	-47.2	10.3	4.34e-03	0	62	0	869269504	56	6254
2026-01-30 11:34:41.21	309.59	17.31	-42.5	-47.3	10.3	5.38e-03	0	62	0	871366656	56	6291
2026-01-30 11:34:42.22	309.77	17.23	-42.6	-47.6	10.0	6.92e-03	0	62	0	873463808	56	6498
2026-01-30 11:34:43.23	309.95	17.16	-42.6	-47.7	9.9	9.10e-03	0	62	0	875560960	56	6592
2026-01-30 11:34:44.24	310.13	17.09	-42.7	-47.8	9.7	9.30e-03	0	62	0	877658112	56	6714
2026-01-30 11:34:45.25	310.31	17.01	-42.6	-47.7	9.8	1.09e-02	0	62	0	878706688	56	6610
2026-01-30 11:34:46.26	310.49	16.94	-42.6	-47.6	9.9	1.20e-02	0	62	0	880803840	56	6569
2026-01-30 11:34:47.27	310.67	16.87	-42.7	-47.9	9.6	1.04e-02	0	62	0	882900992	56	6801
2026-01-30 11:34:48.28	310.85	16.79	-42.7	-47.9	9.6	1.13e-02	0	62	0	884998144	56	6786
2026-01-30 11:34:49.29	311.02	16.72	-42.8	-48.3	9.2	1.56e-02	0	62	0	887095296	56	7044
2026-01-30 11:34:50.30	311.20	16.65	-42.9	-48.6	8.9	2.31e-02	0	62	0	888143872	56	7288
2026-01-30 11:34:51.31	311.37	16.58	-43.0	-48.8	8.7	3.33e-02	0	62	0	890241024	56	7467
2026-01-30 11:34:52.32	311.54	16.50	-43.1	-49.2	8.2	4.64e-02	0	62	0	892338176	56	7882
2026-01-30 11:34:53.33	311.71	16.43	-43.1	-49.1	8.3	5.63e-02	0	62	0	894435328	56	7804
2026-01-30 11:34:54.34	311.89	16.36	-43.0	-49.1	8.4	4.68e-02	0	62	0	896532480	56	7744
2026-01-30 11:34:55.35	312.06	16.28	-43.0	-48.9	8.5	4.31e-02	0	62	0	897581056	56	7612
2026-01-30 11:34:56.36	312.23	16.21	-42.7	-48.2	9.3	2.55e-02	0	62	0	899678208	56	6963
2026-01-30 11:34:57.37	312.40	16.14	-42.6	-47.9	9.6	1.28e-02	0	62	0	901775360	56	6741
2026-01-30 11:34:58.38	312.56	16.06	-42.5	-47.5	9.9	8.84e-03	0	62	0	903872512	56	6471
2026-01-30 11:34:59.40	312.73	15.99	-42.4	-47.3	10.2	5.54e-03	0	62	0	905969664	56	6279
2026-01-30 11:35:00.41	312.90	15.92	-42.4	-47.2	10.2	6.30e-03	0	62	0	908066816	56	6274
2026-01-30 11:35:01.42	313.07	15.84	-42.4	-47.4	10.1	6.61e-03	0	62	0	909115392	56	6355
2026-01-30 11:35:02.43	313.23	15.77	-42.5	-47.6	9.9	8.06e-03	0	62	0	911212544	56	6507
2026-01-30 11:35:03.44	313.39	15.70	-42.6	-47.9	9.6	1.25e-02	0	62	0	913309696	56	6752
2026-01-30 11:35:04.45	313.56	15.62	-42.7	-48.0	9.4	1.57e-02	0	62	0	915406848	56	6853
2026-01-30 11:35:05.46	313.72	15.55	-42.6	-48.0	9.5	1.56e-02	0	62	0	917504000	56	6814
2026-01-30 11:35:06.47	313.88	15.48	-42.6	-47.9	9.5	1.46e-02	0	62	0	918552576	56	6753
2026-01-30 11:35:07.48	314.04	15.40	-42.5	-47.5	9.9	8.45e-03	0	62	0	920649728	56	6451
2026-01-30 11:35:08.49	314.20	15.33	-42.4	-47.3	10.1	7.32e-03	0	62	0	922746880	56	6280
2026-01-30 11:35:09.50	314.36	15.26	-42.3	-47.0	10.4	4.95e-03	0	62	0	924844032	56	6111
2026-01-30 11:35:10.51	314.52	15.18	-42.2	-46.9	10.5	3.97e-03	0	62	0	926941184	56	6028
2026-01-30 11:35:11.52	314.68	15.11	-42.2	-46.8	10.6	3.76e-03	0	62	0	927989760	56	5927
2026-01-30 11:35:12.53	314.84	15.04	-42.3	-47.0	10.4	4.43e-03	0	62	0	930086912	56	6131
2026-01-30 11:35:13.54	315.00	14.96	-42.4	-47.2	10.2	5.42e-03	0	62	0	932184064	56	6236
2026-01-30 11:35:14.55	315.15	14.89	-42.5	-47.6	9.8	6.81e-03	0	62	0	934281216	56	6570
2026-01-30 11:35:15.56	315.31	14.82	-42.6	-47.9	9.5	1.11e-02	0	62	0	936378368	56	6752
2026-01-30 11:35:16.57	315.46	14.74	-42.6	-47.9	9.5	1.22e-02	0	62	0	937426944	56	6738
2026-01-30 11:35:17.58	315.61	14.67	-42.6	-47.8	9.5	1.50e-02	0	62	0	939524096	56	6714
2026-01-30 11:35:18.59	315.77	14.60	-42.5	-47.8	9.6	1.37e-02	0	62	0	941621248	56	6655
2026-01-30 11:35:19.60	315.92	14.53	-42.5	-47.7	9.7	1.20e-02	0	62	0	943718400	56	6625
2026-01-30 11:35:20.61	316.07	14.45	-42.5	-47.7	9.6	1.36e-02	0	62	0	945815552	56	6637
2026-01-30 11:35:21.62	316.22	14.38	-42.6	-47.8	9.5	1.54e-02	0	62	0	946864128	56	6711
2026-01-30 11:35:22.62	316.37	14.31	-42.6	-48.1	9.1	1.69e-02	0	62	0	948961280	56	6924
2026-01-30 11:35:23.63	316.52	14.24	-42.7	-48.3	9.0	2.12e-02	0	62	0	951058432	56	7090
2026-01-30 11:35:24.64	316.67	14.16	-42.8	-48.5	8.8	2.40e-02	0	62	0	953155584	56	7223
2026-01-30 11:35:25.65	316.82	14.09	-42.8	-48.7	8.7	3.23e-02	0	62	0	955252736	56	7374
2026-01-30 11:35:26.66	316.96	14.02	-42.9	-48.8	8.5	4.29e-02	0	62	0	957349888	56	7483
2026-01-30 11:35:27.67	317.11	13.94	-42.9	-49.0	8.3	4.06e-02	0	62	0	958398464	56	7635
2026-01-30 11:35:28.69	317.26	13.87	-42.8	-48.6	8.7	4.06e-02	0	62	0	960495616	56	7293
2026-01-30 11:35:29.70	317.40	13.80	-42.8	-48.5	8.8	3.22e-02	0	62	0	962592768	56	7237
2026-01-30 11:35:30.71	317.55	13.73	-42.7	-48.3	9.0	2.71e-02	0	62	0	964689920	56	7080
2026-01-30 11:35:31.72	317.69	13.65	-42.6	-48.0	9.3	2.26e-02	0	62	0	966787072	56	6858
2026-01-30 11:35:32.73	317.83	13.58	-42.6	-47.9	9.4	1.52e-02	0	62	0	967835648	56	6750
2026-01-30 11:35:33.74	317.98	13.51	-42.5	-47.8	9.4	1.49e-02	0	62	0	969932800	56	6713
2026-01-30 11:35:34.75	318.12	13.44	-42.6	-48.0	9.3	1.76e-02	0	62	0	972029952	56	6876
2026-01-30 11:35:35.76	318.26	13.36	-42.6	-48.1	9.2	1.94e-02	0	62	0	974127104	56	6884
2026-01-30 11:35:36.77	318.40	13.29	-42.7	-48.3	9.0	2.15e-02	0	62	0	976224256	56	7073
2026-01-30 11:35:37.78	318.54	13.22	-42.7	-48.4	8.9	2.66e-02	0	62	0	977272832	56	7154
2026-01-30 11:35:38.79	318.68	13.15	-42.7	-48.5	8.7	3.04e-02	0	62	0	979369984	56	7276
2026-01-30 11:35:39.80	318.82	13.08	-42.8	-48.6	8.6	3.89e-02	0	62	0	981467136	56	7335
2026-01-30 11:35:40.81	318.95	13.00	-42.8	-48.6	8.6	4.02e-02	0	62	0	983564288	56	7365
2026-01-30 11:35:41.82	319.09	12.93	-42.7	-48.6	8.7	3.89e-02	0	62	0	985661440	56	7331
2026-01-30 11:35:42.83	319.23	12.86	-42.8	-48.6	8.6	3.93e-02	0	62	0	986710016	56	7368
2026-01-30 11:35:43.84	319.36	12.79	-42.7	-48.5	8.8	3.75e-02	0	62	0	988807168	56	7229
2026-01-30 11:35:44.85	319.50	12.72	-42.7	-48.5	8.7	3.19e-02	0	62	0	990904320	56	7267
2026-01-30 11:35:45.86	319.63	12.65	-42.7	-48.4	8.8	3.21e-02	0	62	0	993001472	56	7185
2026-01-30 11:35:46.87	319.77	12.58	-42.8	-48.7	8.5	3.54e-02	0	62	0	995098624	56	7435
2026-01-30 11:35:47.88	319.90	12.50	-42.7	-48.5	8.7	3.41e-02	0	62	0	996147200	56	7279
2026-01-30 11:35:48.89	320.03	12.43	-42.8	-48.7	8.5	3.96e-02	0	62	0	998244352	56	7425
2026-01-30 11:35:49.90	320.17	12.36	-42.8	-48.9	8.2	4.74e-02	0	62	0	1000341504	56	7627
2026-01-30 11:35:50.91	320.30	12.29	-42.9	-49.1	8.1	4.79e-02	0	62	0	1002438656	56	7749
2026-01-30 11:35:51.92	320.43	12.22	-42.8	-49.0	8.1	5.25e-02	0	62	0	1004535808	56	7671
2026-01-30 11:35:52.93	320.56	12.15	-42.8	-48.8	8.3	5.23e-02	0	62	0	1005584384	56	7519
2026-01-30 11:35:53.94	320.69	12.08	-42.7	-48.7	8.4	5.07e-02	0	62	0	1007681536	56	7443
2026-01-30 11:35:54.95	320.82	12.01	-42.7	-48.6	8.5	4.80e-02	0	62	0	1009778688	56	7347
2026-01-30 11:35:55.96	320.94	11.94	-42.6	-48.2	9.0	2.91e-02	0	62	0	1011875840	56	6973
2026-01-30 11:35:56.97	321.07	11.87	-42.5	-48.0	9.2	2.64e-02	0	62	0	1013972992	56	6811
2026-01-30 11:35:57.98	321.20	11.79	-42.4	-47.8	9.4	2.12e-02	0	62	0	1015021568	56	6671
2026-01-30 11:35:58.99	321.33	11.72	-42.3	-47.6	9.5	1.41e-02	0	62	0	1017118720	56	6510
2026-01-30 11:36:00.00	321.45	11.65	-42.3	-47.5	9.6	1.21e-02	0	62	0	1019215872	56	6439
2026-01-30 11:36:01.01	321.58	11.58	-42.2	-47.4	9.8	1.13e-02	0	62	0	1021313024	56	6355
2026-01-30 11:36:02.01	321.70	11.51	-42.3	-47.6	9.6	1.28e-02	0	62	0	1023410176	56	6497
2026-01-30 11:36:03.02	321.83	11.44	-42.3	-47.6	9.5	1.35e-02	0	62	0	1025507328	56	6508
2026-01-30 11:36:04.03	321.95	11.37	-42.3	-47.7	9.4	1.56e-02	0	62	0	1026555904	56	6603
2026-01-30 11:36:05.04	322.07	11.30	-42.4	-47.9	9.1	1.86e-02	0	62	0	1028653056	56	6799
2026-01-30 11:36:06.05	322.20	11.23	-42.4	-48.0	9.1	2.23e-02	0	62	0	1030750208	56	6820
2026-01-30 11:36:07.06	322.32	11.16	-42.5	-48.1	8.9	2.19e-02	0	62	0	1032847360	56	6939
2026-01-30 11:36:08.07	322.44	11.09	-42.5	-48.2	8.8	2.64e-02	0	62	0	1034944512	56	6987
2026-01-30 11:36:09.08	322.56	11.02	-42.5	-48.2	8.8	3.20e-02	0	62	0	1035993088	56	7016
2026-01-30 11:36:10.10	322.68	10.95	-42.5	-48.3	8.8	2.98e-02	0	62	0	1038090240	56	7048
2026-01-30 11:36:11.11	322.80	10.88	-42.5	-48.2	8.8	2.97e-02	0	62	0	1040187392	56	6967
2026-01-30 11:36:12.11	322.92	10.82	-42.5	-48.1	8.8	2.76e-02	0	62	0	1042284544	56	6944
2026-01-30 11:36:13.13	323.04	10.75	-42.4	-48.1	8.8	3.07e-02	0	62	0	1044381696	56	6937
2026-01-30 11:36:14.14	323.16	10.68	-42.4	-48.1	8.8	3.04e-02	0	62	0	1045430272	56	6936
2026-01-30 11:36:15.15	323.28	10.61	-42.4	-48.1	8.9	2.77e-02	0	62	0	1047527424	56	6911
2026-01-30 11:36:16.16	323.39	10.54	-42.4	-48.2	8.8	3.38e-02	0	62	0	1049624576	56	6966
2026-01-30 11:36:17.17	323.51	10.47	-42.5	-48.3	8.7	3.50e-02	0	62	0	1051721728	56	7087
2026-01-30 11:36:18.18	323.63	10.40	-42.5	-48.4	8.5	4.31e-02	0	62	0	1053818880	56	7185
2026-01-30 11:36:19.19	323.74	10.33	-42.6	-48.7	8.3	5.25e-02	0	62	0	1054867456	56	7384
2026-01-30 11:36:20.20	323.86	10.26	-42.6	-48.8	8.1	5.63e-02	0	62	0	1056964608	56	7521
2026-01-30 11:36:21.21	323.97	10.19	-42.6	-49.0	7.9	6.71e-02	0	62	0	1059061760	56	7642
2026-01-30 11:36:22.22	324.09	10.13	-42.7	-49.2	7.7	7.17e-02	0	62	0	1061158912	56	7840
2026-01-30 11:36:23.23	324.20	10.06	-42.6	-49.0	7.9	7.39e-02	0	62	0	1063256064	56	7663
2026-01-30 11:36:24.24	324.31	9.99	-42.7	-49.1	7.8	8.03e-02	0	62	0	1064304640	56	7797
2026-01-30 11:36:25.25	324.42	9.92	-42.7	-49.2	7.7	8.22e-02	0	62	0	1066401792	56	7819
2026-01-30 11:36:26.26	324.54	9.85	-42.6	-49.0	7.8	8.06e-02	0	62	0	1068498944	56	7696
2026-01-30 11:36:27.27	324.65	9.79	-42.6	-49.1	7.8	8.27e-02	0	62	0	1070596096	56	7724
2026-01-30 11:36:28.28	324.76	9.72	-42.5	-48.7	8.1	6.34e-02	0	62	0	1072693248	56	7415
2026-01-30 11:36:29.29	324.87	9.65	-42.5	-48.5	8.3	5.80e-02	0	62	0	1073741824	56	7270
2026-01-30 11:36:30.30	324.98	9.58	-42.5	-48.6	8.2	5.41e-02	0	62	0	1075838976	56	7368
2026-01-30 11:36:31.31	325.09	9.51	-42.5	-48.6	8.2	5.31e-02	0	62	0	1077936128	56	7308
2026-01-30 11:36:32.32	325.20	9.45	-42.4	-48.5	8.2	5.39e-02	0	62	0	1080033280	56	7272
2026-01-30 11:36:33.33	325.31	9.38	-42.5	-48.6	8.2	5.76e-02	0	62	0	1082130432	56	7356
2026-01-30 11:36:34.33	325.41	9.31	-42.4	-48.6	8.2	5.41e-02	0	62	0	1083179008	56	7325
2026-01-30 11:36:35.34	325.52	9.25	-42.5	-48.7	8.1	6.20e-02	0	62	0	1085276160	56	7401
2026-01-30 11:36:36.35	325.63	9.18	-42.5	-48.8	8.0	6.70e-02	0	62	0	1087373312	56	7487
2026-01-30 11:36:37.36	325.73	9.11	-42.5	-49.1	7.7	6.76e-02	0	62	0	1089470464	56	7735
2026-01-30 11:36:38.37	325.84	9.04	-42.5	-48.9	7.8	8.83e-02	0	62	0	1091567616	56	7624
2026-01-30 11:36:39.38	325.95	8.98	-42.5	-49.0	7.8	8.19e-02	0	62	0	1093664768	56	7661
2026-01-30 11:36:40.39	326.05	8.91	-42.5	-49.2	7.5	9.56e-02	0	62	0	1094713344	56	7871
2026-01-30 11:36:41.40	326.16	8.84	-42.5	-49.1	7.6	9.78e-02	0	62	0	1096810496	56	7752
2026-01-30 11:36:42.41	326.26	8.78	-42.5	-49.1	7.6	8.27e-02	0	62	0	1098907648	56	7750
2026-01-30 11:36:43.42	326.37	8.71	-42.5	-49.3	7.4	1.02e-01	0	62	0	1101004800	56	7933
2026-01-30 11:36:44.43	326.47	8.65	-42.4	-48.9	7.8	8.47e-02	0	62	0	1103101952	56	7589
2026-01-30 11:36:45.44	326.57	8.58	-42.4	-49.0	7.6	8.36e-02	0	62	0	1104150528	56	7678
2026-01-30 11:36:46.45	326.67	8.51	-42.4	-49.0	7.6	9.31e-02	0	62	0	1106247680	56	7712
2026-01-30 11:36:47.46	326.78	8.45	-42.4	-49.0	7.6	1.01e-01	0	62	0	1108344832	56	7712
2026-01-30 11:36:48.47	326.88	8.38	-42.5	-49.2	7.4	1.19e-01	0	62	0	1110441984	56	7863
2026-01-30 11:36:49.48	326.98	8.32	-42.4	-49.2	7.4	1.30e-01	0	62	0	1112539136	56	7852
2026-01-30 11:36:50.49	327.08	8.25	-42.4	-49.1	7.5	9.95e-02	0	62	0	1113587712	56	7790
2026-01-30 11:36:51.50	327.18	8.18	-42.5	-49.3	7.3	1.31e-01	0	62	0	1115684864	56	7965
2026-01-30 11:36:52.51	327.28	8.12	-42.9	-51.0	6.1	1.59e-01	0	62	0	1117782016	56	9715
2026-01-30 11:36:53.52	327.38	8.05	-42.8	-51.1	5.5	1.48e+00	0	62	104	1117782016	57	9193
2026-01-30 11:36:54.53	327.48	7.99	-42.8	-51.1	5.9	5.39e-01	0	62	0	1118830592	57	9176
2026-01-30 11:36:55.54	327.58	7.92	-44.1	-58.4	3.8	1.44e+00	0	62	104	1118830592	58	20286
2026-01-30 11:36:56.55	327.68	7.86	-44.5	-58.9	3.8	1.49e+00	0	62	104	1118830592	59	20173
2026-01-30 11:36:57.56	327.77	7.79	-44.7	-59.3	3.8	1.49e+00	0	62	104	1118830592	60	19989
2026-01-30 11:36:58.57	327.87	7.73	-44.9	-59.5	3.8	1.49e+00	0	62	104	1118830592	60	20461
2026-01-30 11:36:59.58	327.97	7.66	-45.1	-59.7	3.8	1.49e+00	0	62	104	1118830592	60	20907
2026-01-30 11:37:00.59	328.06	7.60	-45.2	-59.8	3.8	1.49e+00	0	62	104	1118830592	60	21129
2026-01-30 11:37:01.60	328.16	7.53	-45.2	-59.9	3.8	1.49e+00	0	62	104	1118830592	61	20101
2026-01-30 11:37:02.61	328.26	7.47	-45.3	-59.9	3.8	1.49e+00	0	62	104	1118830592	61	20160
2026-01-30 11:37:03.62	328.35	7.40	-40.3	-58.1	3.8	1.49e+00	0	62	104	1118830592	50	30891
2026-01-30 11:37:04.63	328.45	7.34	-45.1	-59.9	3.8	1.49e+00	0	62	104	1118830592	60	21333
2026-01-30 11:37:05.64	328.54	7.28	-45.2	-59.8	3.8	1.49e+00	0	62	104	1118830592	61	20010
2026-01-30 11:37:06.65	328.64	7.21	-45.2	-59.8	3.8	1.49e+00	0	62	104	1118830592	61	19923
2026-01-30 11:37:07.66	328.73	7.15	-45.1	-59.8	3.8	1.49e+00	0	62	104	1118830592	61	19918
2026-01-30 11:37:08.67	328.82	7.08	-45.2	-59.8	3.8	1.49e+00	0	62	104	1118830592	61	20032
