passes_logs/2026/01/30/R2.0S_Moscow/R2.0S_Moscow__20260130_082535_NOAA_20_JPSS-1_rec.log

#Pass ID: 20260130_082535_NOAA 20 (JPSS-1)
#Satellite: NOAA 20 (JPSS-1)
#Configuration: NOAA 20
#almurnet v.1.7.20251203
#Start time: 2026-01-30 08:25:37

#Version: 2.2.20231116
#Station: R2.0S_Moscow
#Location: 37.707566 lon 55.798166 lat
#TLE: 1 43013U 17073A   26029.42702672  .00000137  00000+0  85918-4 0  9993
#TLE: 2 43013  98.7646 330.2153 0000804  19.9045 340.2162 14.19525092424781

#Time	Az	El	Level	Level2	SNR	BER	BlckErr	Temp	State	Recorded	gain1	gain2
2026-01-30 08:25:37.03	116.65	2.07	-36.9	-56.6	4.1	1.49e+00	0	53	0	0	46	32801
2026-01-30 08:25:38.04	116.59	2.13	-35.1	-54.0	4.0	1.49e+00	0	54	104	0	37	40738
2026-01-30 08:25:39.05	116.53	2.19	-35.7	-55.4	4.0	1.49e+00	0	53	104	0	42	35993
2026-01-30 08:25:40.06	116.46	2.25	-36.3	-56.4	3.9	1.49e+00	0	54	104	0	45	33826
2026-01-30 08:25:41.07	116.40	2.31	-37.3	-55.9	4.0	1.49e+00	0	54	104	0	44	33943
2026-01-30 08:25:42.08	116.34	2.37	-36.7	-55.7	3.9	1.49e+00	0	54	104	0	44	33078
2026-01-30 08:25:43.09	116.28	2.43	-37.5	-56.3	4.4	1.49e+00	0	54	104	0	46	31670
2026-01-30 08:25:44.10	116.21	2.48	-37.9	-57.1	3.8	1.49e+00	0	54	104	0	47	32762
2026-01-30 08:25:45.11	116.15	2.54	-38.6	-56.6	3.8	1.49e+00	0	54	104	0	46	32857
2026-01-30 08:25:46.13	116.09	2.60	-38.3	-56.0	3.8	1.49e+00	0	54	104	0	45	32318
2026-01-30 08:25:47.14	116.02	2.66	-36.3	-56.5	3.8	1.50e+00	0	54	104	0	47	30386
2026-01-30 08:25:48.15	115.96	2.72	-36.0	-55.2	3.9	1.49e+00	0	54	104	0	39	41761
2026-01-30 08:25:49.16	115.90	2.78	-33.7	-56.7	3.2	1.49e+00	0	54	104	0	44	37258
2026-01-30 08:25:50.17	115.83	2.84	-38.3	-56.2	4.0	1.49e+00	0	54	104	0	46	31295
2026-01-30 08:25:51.18	115.77	2.90	-30.3	-54.0	4.1	1.49e+00	0	54	104	0	41	32307
2026-01-30 08:25:52.19	115.70	2.96	-37.9	-57.2	3.9	1.49e+00	0	54	104	0	47	32987
2026-01-30 08:25:53.20	115.64	3.02	-36.8	-56.0	3.9	1.49e+00	0	54	104	0	41	40732
2026-01-30 08:25:54.21	115.57	3.08	-34.4	-55.5	3.8	1.49e+00	0	55	104	0	42	36375
2026-01-30 08:25:55.22	115.50	3.14	-38.0	-56.1	3.9	1.50e+00	0	55	104	0	44	34604
2026-01-30 08:25:56.23	115.44	3.20	-37.5	-57.2	3.9	1.49e+00	0	55	104	0	46	34934
2026-01-30 08:25:57.24	115.37	3.26	-33.8	-55.5	3.9	1.49e+00	0	55	104	0	45	30705
2026-01-30 08:25:58.25	115.30	3.32	-35.5	-54.7	3.8	1.50e+00	0	55	104	0	40	37075
2026-01-30 08:25:59.26	115.24	3.38	-35.0	-55.2	3.9	1.49e+00	0	55	104	0	44	31434
2026-01-30 08:26:00.27	115.17	3.44	-38.5	-56.1	4.3	1.50e+00	0	55	104	0	46	30799
2026-01-30 08:26:01.28	115.10	3.50	-35.0	-55.5	4.1	1.50e+00	0	55	104	0	44	32185
2026-01-30 08:26:02.29	115.03	3.56	-31.3	-54.7	4.0	1.50e+00	0	55	104	0	36	46641
2026-01-30 08:26:03.30	114.97	3.62	-33.5	-55.1	4.0	1.49e+00	0	55	104	0	36	48983
2026-01-30 08:26:04.31	114.90	3.69	-36.1	-55.8	3.8	1.49e+00	0	55	104	0	43	35298
2026-01-30 08:26:05.33	114.83	3.75	-37.4	-55.8	3.9	1.49e+00	0	55	104	0	44	33400
2026-01-30 08:26:06.34	114.76	3.81	-37.8	-56.8	3.9	1.49e+00	0	55	104	0	49	28166
2026-01-30 08:26:07.35	114.69	3.87	-26.9	-53.8	4.1	1.49e+00	0	55	104	0	39	35439
2026-01-30 08:26:08.36	114.62	3.93	-36.7	-56.7	3.8	1.49e+00	0	55	104	0	47	31255
2026-01-30 08:26:09.37	114.55	3.99	-36.3	-56.3	4.0	1.49e+00	0	55	104	0	46	31783
2026-01-30 08:26:10.38	114.48	4.05	-38.5	-56.7	4.0	1.49e+00	0	55	104	0	47	31207
2026-01-30 08:26:11.39	114.41	4.12	-35.0	-55.1	3.8	1.49e+00	0	55	104	0	41	36868
2026-01-30 08:26:12.40	114.34	4.18	-36.0	-55.9	3.9	1.49e+00	0	56	104	0	43	35954
2026-01-30 08:26:13.41	114.27	4.24	-38.0	-55.8	3.9	1.49e+00	0	55	104	0	43	35376
2026-01-30 08:26:14.42	114.19	4.30	-37.9	-56.8	3.9	1.49e+00	0	56	104	0	46	33326
2026-01-30 08:26:15.43	114.12	4.36	-37.6	-56.6	3.9	1.49e+00	0	56	104	0	43	38882
2026-01-30 08:26:16.44	114.05	4.42	-36.3	-55.4	3.9	1.49e+00	0	56	104	0	42	36043
2026-01-30 08:26:17.45	113.98	4.49	-35.7	-54.4	4.1	1.49e+00	0	56	104	0	41	33775
2026-01-30 08:26:18.46	113.90	4.55	-36.4	-56.7	3.8	1.49e+00	0	56	104	0	47	31429
2026-01-30 08:26:19.47	113.83	4.61	-35.8	-56.2	3.9	1.49e+00	0	56	104	0	45	33195
2026-01-30 08:26:20.48	113.76	4.67	-34.9	-54.5	3.8	1.49e+00	0	56	104	0	37	43406
2026-01-30 08:26:21.49	113.68	4.74	-37.0	-55.9	3.9	1.49e+00	0	56	104	0	45	32145
2026-01-30 08:26:22.50	113.61	4.80	-36.8	-55.8	3.9	1.49e+00	0	56	104	0	45	31496
2026-01-30 08:26:23.51	113.54	4.86	-36.6	-55.8	3.8	1.49e+00	0	56	104	0	44	33587
2026-01-30 08:26:24.53	113.46	4.93	-37.2	-55.8	3.7	1.49e+00	0	56	104	0	42	37623
2026-01-30 08:26:25.54	113.39	4.99	-35.6	-56.6	3.9	1.49e+00	0	56	104	0	47	30808
2026-01-30 08:26:26.55	113.31	5.05	-37.1	-56.6	3.8	1.49e+00	0	56	104	0	47	30847
2026-01-30 08:26:27.56	113.23	5.12	-37.8	-56.5	4.0	1.49e+00	0	56	104	0	46	32453
2026-01-30 08:26:28.57	113.16	5.18	-34.3	-55.2	3.8	1.49e+00	0	56	104	0	42	35169
2026-01-30 08:26:29.58	113.08	5.24	-36.2	-56.5	3.7	1.49e+00	0	56	104	0	46	32342
2026-01-30 08:26:30.59	113.00	5.31	-37.8	-57.3	3.5	1.49e+00	0	57	104	0	47	33573
2026-01-30 08:26:31.60	112.93	5.37	-37.3	-56.5	4.1	1.49e+00	0	57	104	0	46	32463
2026-01-30 08:26:32.61	112.85	5.43	-39.1	-56.8	3.8	1.49e+00	0	57	104	0	47	31483
2026-01-30 08:26:33.62	112.77	5.50	-37.3	-56.7	3.9	1.49e+00	0	57	104	0	46	33085
2026-01-30 08:26:34.63	112.69	5.56	-38.3	-56.9	4.0	1.49e+00	0	57	104	0	47	31937
2026-01-30 08:26:35.64	112.62	5.62	-37.9	-56.5	3.8	1.49e+00	0	57	104	0	47	30605
2026-01-30 08:26:36.65	112.54	5.69	-35.7	-55.2	3.9	1.49e+00	0	57	104	0	44	31387
2026-01-30 08:26:37.66	112.46	5.75	-36.7	-55.9	4.0	1.49e+00	0	57	104	0	45	31822
2026-01-30 08:26:38.67	112.38	5.82	-37.0	-56.1	3.8	1.49e+00	0	57	104	0	46	30791
2026-01-30 08:26:39.68	112.30	5.88	-25.4	-50.5	3.6	1.50e+00	0	57	104	0	34	32536
2026-01-30 08:26:40.69	112.22	5.95	-37.8	-56.5	3.8	1.49e+00	0	57	104	0	46	32241
2026-01-30 08:26:41.70	112.14	6.01	-36.6	-56.5	3.9	1.49e+00	0	57	104	0	46	32282
2026-01-30 08:26:42.71	112.06	6.08	-37.7	-56.4	4.1	1.49e+00	0	57	104	0	47	30270
2026-01-30 08:26:43.72	111.97	6.14	-29.1	-54.0	4.4	1.50e+00	0	57	104	0	38	38514
2026-01-30 08:26:44.73	111.89	6.21	-38.8	-56.5	3.8	1.50e+00	0	57	104	0	46	32284
2026-01-30 08:26:45.74	111.81	6.27	-35.0	-55.0	3.9	1.49e+00	0	57	104	0	43	32233
2026-01-30 08:26:46.75	111.73	6.34	-31.4	-55.5	3.8	1.49e+00	0	57	104	0	47	27158
2026-01-30 08:26:47.76	111.64	6.40	-22.5	-53.3	3.8	1.50e+00	0	57	104	0	28	62878
2026-01-30 08:26:48.77	111.56	6.47	-35.4	-54.2	4.3	1.49e+00	0	57	104	0	40	35089
2026-01-30 08:26:49.78	111.48	6.53	-35.4	-53.0	3.9	1.49e+00	0	57	104	0	38	34300
2026-01-30 08:26:50.79	111.39	6.60	-38.5	-54.5	3.9	1.49e+00	0	57	104	0	47	24402
2026-01-30 08:26:51.80	111.31	6.66	-37.3	-53.0	4.3	1.48e+00	0	57	104	0	42	27258
2026-01-30 08:26:52.81	111.22	6.73	-35.6	-52.6	4.1	1.48e+00	0	57	0	0	35	38942
2026-01-30 08:26:53.82	111.14	6.80	-32.4	-52.2	4.0	1.42e+00	0	57	104	0	34	39334
2026-01-30 08:26:54.83	111.05	6.86	-37.4	-51.7	4.7	1.07e+00	46	58	0	1048576	47	17575
2026-01-30 08:26:55.84	110.97	6.93	-34.2	-49.2	4.0	1.35e+00	0	58	104	2097152	33	29470
2026-01-30 08:26:56.86	110.88	7.00	-23.2	-47.5	4.4	1.45e+00	0	58	104	2097152	31	27304
2026-01-30 08:26:57.87	110.79	7.06	-36.6	-51.8	5.0	1.08e+00	26	58	0	2097152	46	18738
2026-01-30 08:26:58.88	110.70	7.13	-36.6	-50.7	5.3	7.83e-01	7	58	0	4194304	46	16554
2026-01-30 08:26:59.89	110.62	7.20	-34.4	-50.3	5.5	8.78e-01	19	58	0	5242880	44	17849
2026-01-30 08:27:00.90	110.53	7.26	-35.6	-49.9	5.3	7.95e-01	2	58	0	7340032	42	19043
2026-01-30 08:27:01.91	110.44	7.33	-37.6	-49.4	5.9	6.68e-01	0	58	0	9437184	44	16026
2026-01-30 08:27:02.92	110.35	7.40	-35.0	-48.7	5.9	5.28e-01	1	58	0	10485760	42	16615
2026-01-30 08:27:03.93	110.26	7.46	-34.5	-48.2	5.9	7.10e-01	6	58	0	12582912	40	17582
2026-01-30 08:27:04.94	110.17	7.53	-37.4	-48.9	6.6	3.39e-01	0	58	0	14680064	45	14321
2026-01-30 08:27:05.95	110.08	7.60	-38.4	-48.9	6.6	2.86e-01	0	58	0	16777216	45	14225
2026-01-30 08:27:06.96	109.99	7.67	-38.1	-49.5	5.9	3.05e-01	5	58	0	17825792	45	15371
2026-01-30 08:27:07.97	109.90	7.73	-37.1	-49.1	6.3	3.85e-01	0	58	0	19922944	46	13875
2026-01-30 08:27:08.98	109.81	7.80	-30.3	-48.5	5.1	3.91e-01	36	58	0	22020096	39	19323
2026-01-30 08:27:09.99	109.72	7.87	-38.0	-49.8	6.2	4.21e-01	0	58	0	24117248	47	14097
2026-01-30 08:27:11.00	109.62	7.94	-37.5	-48.8	6.7	3.12e-01	0	58	0	26214400	46	13280
2026-01-30 08:27:12.01	109.53	8.00	-33.7	-49.1	5.8	3.60e-01	7	58	0	27262976	38	21920
2026-01-30 08:27:13.02	109.44	8.07	-41.9	-56.2	4.0	9.71e-01	0	58	104	28311552	54	19674
2026-01-30 08:27:14.03	109.34	8.14	-38.4	-50.7	5.6	1.27e+00	4	58	0	28311552	47	15700
2026-01-30 08:27:15.04	109.25	8.21	-39.1	-52.6	4.1	1.05e+00	0	58	0	30408704	49	17289
2026-01-30 08:27:16.05	109.15	8.28	-41.1	-49.7	6.3	3.85e-01	0	58	0	31457280	52	10499
2026-01-30 08:27:17.06	109.06	8.35	-30.3	-49.2	4.7	3.97e-01	13	58	0	33554432	36	24755
2026-01-30 08:27:18.08	108.96	8.41	-39.7	-48.8	6.9	4.95e-01	0	58	0	34603008	50	10546
2026-01-30 08:27:19.08	108.87	8.48	-39.4	-48.2	7.6	1.23e-01	0	58	0	36700160	51	9308
2026-01-30 08:27:20.09	108.77	8.55	-40.0	-47.8	8.1	1.16e-01	0	58	0	38797312	52	8454
2026-01-30 08:27:21.11	108.67	8.62	-40.3	-47.9	7.9	6.29e-02	0	58	0	40894464	50	9546
2026-01-30 08:27:22.11	108.58	8.69	-40.5	-48.6	7.4	1.11e-01	0	59	0	42991616	51	9762
2026-01-30 08:27:23.12	108.48	8.76	-41.0	-49.1	7.0	1.90e-01	0	58	0	44040192	53	9219
2026-01-30 08:27:24.14	108.38	8.83	-41.1	-49.2	6.8	1.97e-01	0	59	0	46137344	52	9856
2026-01-30 08:27:25.15	108.28	8.90	-39.2	-48.7	7.3	1.29e-01	0	59	0	48234496	52	9366
2026-01-30 08:27:26.16	108.18	8.97	-40.9	-48.0	8.0	9.77e-02	0	59	0	50331648	52	8661
2026-01-30 08:27:27.17	108.08	9.04	-41.4	-48.1	7.9	8.16e-02	0	59	0	52428800	53	8262
2026-01-30 08:27:28.18	107.98	9.11	-40.2	-48.6	7.3	1.20e-01	0	59	0	53477376	51	9734
2026-01-30 08:27:29.19	107.88	9.18	-40.9	-48.2	7.8	9.48e-02	0	59	0	55574528	52	8838
2026-01-30 08:27:30.20	107.78	9.25	-39.6	-48.3	7.6	7.58e-02	0	59	0	57671680	49	10633
2026-01-30 08:27:31.21	107.68	9.32	-38.4	-48.3	7.3	1.18e-01	0	59	0	59768832	49	10554
2026-01-30 08:27:32.22	107.57	9.39	-40.1	-49.6	6.6	1.82e-01	0	59	0	61865984	53	9719
2026-01-30 08:27:33.23	107.47	9.46	-41.2	-49.5	6.7	2.52e-01	0	59	0	62914560	52	10240
2026-01-30 08:27:34.24	107.37	9.53	-40.1	-49.4	6.5	2.39e-01	0	59	0	65011712	52	10150
2026-01-30 08:27:35.24	107.26	9.60	-41.1	-49.4	6.6	2.20e-01	0	59	0	67108864	51	10751
2026-01-30 08:27:36.26	107.16	9.67	-41.9	-49.2	7.2	1.64e-01	0	59	0	69206016	54	8839
2026-01-30 08:27:37.27	107.05	9.74	-42.1	-50.1	6.6	2.13e-01	0	59	0	71303168	53	10395
2026-01-30 08:27:38.28	106.95	9.81	-41.1	-52.2	4.5	1.01e+00	19	59	0	72351744	50	15599
2026-01-30 08:27:39.29	106.84	9.88	-38.2	-49.6	6.0	3.97e-01	1	59	0	74448896	50	11578
2026-01-30 08:27:40.30	106.74	9.95	-41.1	-51.0	5.1	4.80e-01	0	59	0	76546048	49	14435
2026-01-30 08:27:41.31	106.63	10.02	-40.0	-48.4	6.9	1.50e-01	0	59	0	78643200	49	10772
2026-01-30 08:27:42.32	106.52	10.10	-38.8	-48.5	6.9	2.22e-01	0	59	0	80740352	49	10832
2026-01-30 08:27:43.32	106.42	10.17	-40.4	-47.9	8.1	1.19e-01	0	59	0	81788928	53	8078
2026-01-30 08:27:44.33	106.31	10.24	-39.8	-48.0	8.1	9.91e-02	0	59	0	83886080	51	9102
2026-01-30 08:27:45.34	106.20	10.31	-38.9	-48.4	7.4	1.59e-01	0	59	0	85983232	50	10128
2026-01-30 08:27:46.35	106.09	10.38	-39.5	-48.6	6.8	1.59e-01	0	59	0	88080384	46	13012
2026-01-30 08:27:47.36	105.98	10.45	-37.9	-48.7	7.1	1.81e-01	0	59	0	90177536	49	11074
2026-01-30 08:27:48.37	105.87	10.53	-42.1	-48.8	6.9	2.46e-01	0	59	0	91226112	49	11239
2026-01-30 08:27:49.38	105.76	10.60	-35.5	-48.7	6.2	1.99e-01	0	59	0	93323264	46	13161
2026-01-30 08:27:50.39	105.64	10.67	-37.2	-49.0	5.9	4.91e-01	3	59	0	95420416	44	15297
2026-01-30 08:27:51.40	105.53	10.74	-39.5	-48.4	6.2	3.15e-01	5	59	0	97517568	46	12785
2026-01-30 08:27:52.41	105.42	10.81	-31.0	-47.1	6.3	2.89e-01	0	60	0	99614720	40	15420
2026-01-30 08:27:53.42	105.30	10.89	-29.4	-47.1	5.4	3.70e-01	28	59	0	100663296	31	25984
2026-01-30 08:27:54.43	105.19	10.96	-34.9	-48.0	5.9	5.55e-01	6	59	0	102760448	38	19273
2026-01-30 08:27:55.44	105.08	11.03	-29.0	-47.1	5.0	6.06e-01	7	59	0	104857600	36	19469
2026-01-30 08:27:56.45	104.96	11.10	-29.9	-47.2	5.4	9.69e-01	36	60	0	105906176	37	18721
2026-01-30 08:27:57.46	104.84	11.18	-35.0	-47.9	5.1	8.49e-01	33	60	0	108003328	27	36051
2026-01-30 08:27:58.47	104.73	11.25	-28.3	-46.2	5.2	7.95e-01	53	60	0	109051904	28	27899
2026-01-30 08:27:59.48	104.61	11.32	-30.0	-47.7	5.2	7.43e-01	32	60	0	111149056	34	23483
2026-01-30 08:28:00.49	104.49	11.40	-33.7	-47.3	5.7	5.01e-01	7	60	0	112197632	33	23606
2026-01-30 08:28:01.50	104.37	11.47	-29.2	-48.6	3.9	1.35e+00	0	60	104	113246208	31	30792
2026-01-30 08:28:02.51	104.26	11.54	-27.3	-46.3	4.8	1.22e+00	3	60	0	113246208	26	31640
2026-01-30 08:28:03.52	104.14	11.62	-28.5	-46.0	5.3	9.44e-01	56	60	0	114294784	27	28720
2026-01-30 08:28:04.53	104.02	11.69	-30.2	-46.5	5.5	7.95e-01	39	59	0	115343360	30	25747
2026-01-30 08:28:05.54	103.90	11.76	-27.5	-45.6	5.5	1.05e+00	67	60	0	116391936	30	23301
2026-01-30 08:28:06.55	103.77	11.84	-34.1	-46.5	5.4	8.74e-01	41	60	0	118489088	30	25779
2026-01-30 08:28:07.56	103.65	11.91	-28.5	-45.6	5.0	9.82e-01	57	60	0	119537664	26	29193
2026-01-30 08:28:08.57	103.53	11.99	-30.0	-46.8	4.4	1.45e+00	0	60	104	119537664	27	31707
2026-01-30 08:28:09.58	103.41	12.06	-25.0	-45.5	4.7	1.02e+00	11	60	0	119537664	25	30684
2026-01-30 08:28:10.59	103.28	12.13	-28.8	-47.1	4.1	1.49e+00	0	60	104	119537664	26	34728
2026-01-30 08:28:11.60	103.16	12.21	-27.3	-46.2	4.1	1.49e+00	0	60	104	119537664	24	35112
2026-01-30 08:28:12.61	103.03	12.28	-23.9	-45.5	4.1	1.48e+00	0	60	104	119537664	22	36111
2026-01-30 08:28:13.62	102.91	12.36	-20.7	-43.1	4.1	1.49e+00	0	60	104	119537664	17	36684
2026-01-30 08:28:14.63	102.78	12.43	-23.9	-45.2	3.8	1.49e+00	0	60	104	119537664	22	34927
2026-01-30 08:28:15.64	102.65	12.51	-25.0	-44.8	4.3	1.47e+00	0	60	104	119537664	21	35458
2026-01-30 08:28:16.65	102.53	12.58	-23.4	-44.7	4.0	1.49e+00	0	60	104	119537664	19	39258
2026-01-30 08:28:17.66	102.40	12.66	-26.8	-45.5	4.6	1.48e+00	0	60	104	119537664	24	32431
2026-01-30 08:28:18.67	102.27	12.73	-25.2	-46.3	4.2	1.14e+00	0	60	104	119537664	24	35654
2026-01-30 08:28:19.68	102.14	12.81	-25.4	-46.0	4.1	1.49e+00	0	60	104	119537664	22	38529
2026-01-30 08:28:20.69	102.01	12.88	-26.1	-46.0	4.0	1.49e+00	0	60	104	119537664	21	40791
2026-01-30 08:28:21.70	101.88	12.96	-29.8	-48.3	4.5	1.49e+00	0	60	104	119537664	32	28289
2026-01-30 08:28:22.71	101.74	13.03	-24.6	-45.0	4.0	1.49e+00	0	60	104	119537664	22	34458
2026-01-30 08:28:23.73	101.61	13.11	-32.6	-48.2	4.5	1.48e+00	0	60	104	119537664	32	27778
2026-01-30 08:28:24.74	101.48	13.18	-28.3	-48.5	4.0	1.47e+00	0	60	104	119537664	31	30458
2026-01-30 08:28:25.74	101.35	13.26	-23.2	-46.4	4.1	1.50e+00	0	60	104	119537664	26	32136
2026-01-30 08:28:26.75	101.21	13.33	-27.4	-48.2	4.4	1.48e+00	0	60	104	119537664	31	29447
2026-01-30 08:28:27.76	101.08	13.41	-28.6	-50.0	4.2	1.04e+00	0	60	0	119537664	32	34418
2026-01-30 08:28:28.77	100.94	13.48	-30.7	-50.2	3.5	1.49e+00	0	60	104	119537664	30	39265
2026-01-30 08:28:29.78	100.80	13.56	-27.5	-48.0	4.2	1.49e+00	0	60	104	119537664	26	38476
2026-01-30 08:28:30.79	100.67	13.63	-26.6	-48.3	4.3	1.49e+00	0	60	104	119537664	33	26652
2026-01-30 08:28:31.80	100.53	13.71	-28.1	-49.3	3.9	1.48e+00	0	60	104	119537664	31	33650
2026-01-30 08:28:32.81	100.39	13.79	-23.3	-45.6	4.5	1.49e+00	0	60	104	119537664	23	34818
2026-01-30 08:28:33.82	100.25	13.86	-32.2	-49.9	4.4	1.49e+00	0	60	104	119537664	26	48059
2026-01-30 08:28:34.83	100.11	13.94	-30.2	-46.6	5.5	1.38e+00	30	60	0	119537664	34	20774
2026-01-30 08:28:35.84	99.97	14.02	-36.4	-45.7	9.0	6.66e-01	2	60	0	120586240	46	9376
2026-01-30 08:28:36.85	99.83	14.09	-34.3	-48.6	7.1	1.13e-01	0	60	0	122683392	44	14600
2026-01-30 08:28:37.86	99.68	14.17	-33.4	-47.6	5.9	2.12e-01	20	61	0	124780544	33	24588
2026-01-30 08:28:38.87	99.54	14.24	-30.4	-46.1	6.3	8.26e-01	10	60	0	125829120	32	21772
2026-01-30 08:28:39.88	99.40	14.32	-33.5	-47.5	5.8	6.73e-01	39	60	0	127926272	35	21636
2026-01-30 08:28:40.89	99.25	14.40	-31.2	-47.2	6.1	8.26e-01	6	61	0	128974848	36	19698
2026-01-30 08:28:41.89	99.11	14.47	-35.9	-47.9	5.4	4.98e-01	28	60	0	131072000	35	22537
2026-01-30 08:28:42.91	98.96	14.55	-35.4	-49.0	5.9	5.18e-01	3	61	0	133169152	40	19215
2026-01-30 08:28:43.91	98.82	14.63	-37.6	-48.9	5.8	7.13e-01	4	60	0	134217728	42	16991
2026-01-30 08:28:44.92	98.67	14.70	-31.5	-49.1	4.6	7.22e-01	32	60	0	136314880	33	29338
2026-01-30 08:28:45.93	98.52	14.78	-35.0	-50.2	5.3	1.06e+00	44	60	0	137363456	38	24868
2026-01-30 08:28:46.94	98.37	14.86	-37.1	-48.3	7.7	9.18e-02	0	61	0	139460608	47	11937
2026-01-30 08:28:47.95	98.22	14.93	-42.4	-48.0	9.4	3.68e-02	0	61	0	141557760	55	7239
2026-01-30 08:28:48.96	98.07	15.01	-40.6	-50.3	6.9	2.03e-02	0	61	0	143654912	54	10048
2026-01-30 08:28:49.97	97.92	15.09	-41.4	-48.2	8.8	5.95e-02	0	61	0	144703488	54	7894
2026-01-30 08:28:50.98	97.77	15.16	-42.1	-47.8	9.4	3.65e-02	0	61	0	146800640	54	7529
2026-01-30 08:28:52.00	97.61	15.24	-42.0	-48.1	9.0	1.90e-02	0	61	0	148897792	53	8271
2026-01-30 08:28:53.00	97.46	15.32	-41.3	-47.4	9.4	2.21e-02	0	60	0	150994944	54	7183
2026-01-30 08:28:54.02	97.30	15.40	-42.2	-48.0	9.3	2.34e-02	0	60	0	153092096	55	7255
2026-01-30 08:28:55.02	97.15	15.47	-39.4	-48.1	8.9	2.07e-02	0	60	0	154140672	52	8689
2026-01-30 08:28:56.03	96.99	15.55	-41.2	-48.0	9.3	1.70e-02	0	61	0	156237824	54	7719
2026-01-30 08:28:57.04	96.83	15.63	-41.6	-47.9	9.5	1.77e-02	0	61	0	158334976	55	7146
2026-01-30 08:28:58.05	96.68	15.70	-41.3	-47.7	9.4	1.42e-02	0	61	0	160432128	52	8355
2026-01-30 08:28:59.07	96.52	15.78	-42.1	-47.7	9.6	1.52e-02	0	61	0	162529280	55	7034
2026-01-30 08:29:00.08	96.36	15.86	-41.5	-47.8	9.5	1.39e-02	0	61	0	163577856	54	7521
2026-01-30 08:29:01.09	96.20	15.94	-42.4	-47.8	9.6	1.53e-02	0	61	0	165675008	55	7050
2026-01-30 08:29:02.10	96.03	16.01	-42.3	-48.0	9.4	1.55e-02	0	61	0	167772160	55	7283
2026-01-30 08:29:03.11	95.87	16.09	-42.5	-48.0	9.4	1.65e-02	0	60	0	169869312	55	7231
2026-01-30 08:29:04.12	95.71	16.17	-42.5	-48.0	9.4	1.67e-02	0	61	0	171966464	55	7287
2026-01-30 08:29:05.13	95.54	16.24	-42.5	-48.0	9.3	1.68e-02	0	61	0	173015040	55	7277
2026-01-30 08:29:06.14	95.38	16.32	-42.5	-48.0	9.4	1.63e-02	0	61	0	175112192	55	7257
2026-01-30 08:29:07.15	95.21	16.40	-42.5	-47.8	9.6	1.53e-02	0	61	0	177209344	55	7116
2026-01-30 08:29:08.16	95.05	16.48	-42.5	-47.8	9.6	1.27e-02	0	61	0	179306496	55	7068
2026-01-30 08:29:09.17	94.88	16.55	-42.5	-47.8	9.6	1.22e-02	0	61	0	181403648	55	7121
2026-01-30 08:29:10.18	94.71	16.63	-42.5	-48.0	9.5	1.51e-02	0	61	0	182452224	55	7208
2026-01-30 08:29:11.19	94.54	16.71	-42.5	-48.0	9.5	1.55e-02	0	61	0	184549376	55	7224
2026-01-30 08:29:12.21	94.37	16.79	-42.5	-47.9	9.5	1.48e-02	0	61	0	186646528	55	7167
2026-01-30 08:29:13.22	94.20	16.86	-42.5	-47.9	9.5	1.40e-02	0	61	0	188743680	55	7174
2026-01-30 08:29:14.22	94.03	16.94	-42.6	-48.0	9.5	1.54e-02	0	61	0	190840832	55	7238
2026-01-30 08:29:15.24	93.86	17.02	-42.7	-48.3	9.2	1.93e-02	0	61	0	192937984	55	7470
2026-01-30 08:29:16.24	93.68	17.09	-42.7	-48.4	9.0	2.15e-02	0	61	0	193986560	55	7577
2026-01-30 08:29:17.26	93.51	17.17	-42.6	-48.2	9.3	2.22e-02	0	61	0	196083712	55	7401
2026-01-30 08:29:18.27	93.33	17.25	-42.6	-47.9	9.5	1.46e-02	0	61	0	198180864	55	7188
2026-01-30 08:29:19.28	93.16	17.33	-42.6	-47.9	9.6	1.33e-02	0	61	0	200278016	55	7159
2026-01-30 08:29:20.29	92.98	17.40	-42.5	-47.8	9.6	1.27e-02	0	61	0	202375168	55	7114
2026-01-30 08:29:21.30	92.80	17.48	-42.6	-47.9	9.5	1.42e-02	0	61	0	203423744	55	7197
2026-01-30 08:29:22.31	92.62	17.56	-42.6	-47.9	9.5	1.41e-02	0	61	0	205520896	55	7193
2026-01-30 08:29:23.32	92.44	17.63	-42.6	-47.9	9.5	1.33e-02	0	61	0	207618048	55	7178
2026-01-30 08:29:24.33	92.26	17.71	-42.5	-47.7	9.7	1.29e-02	0	61	0	209715200	55	7024
2026-01-30 08:29:25.34	92.08	17.79	-42.5	-47.6	9.8	9.92e-03	0	61	0	211812352	55	6948
2026-01-30 08:29:26.35	91.90	17.86	-42.4	-47.6	9.8	9.27e-03	0	61	0	212860928	55	6931
2026-01-30 08:29:27.36	91.71	17.94	-42.5	-47.7	9.7	9.86e-03	0	61	0	214958080	55	7021
2026-01-30 08:29:28.36	91.53	18.02	-42.5	-47.8	9.6	1.30e-02	0	61	0	217055232	55	7085
2026-01-30 08:29:29.37	91.34	18.09	-42.5	-47.8	9.6	1.34e-02	0	61	0	219152384	55	7088
2026-01-30 08:29:30.38	91.16	18.17	-42.4	-47.7	9.6	1.23e-02	0	61	0	221249536	55	7032
2026-01-30 08:29:31.40	90.97	18.25	-42.4	-47.7	9.7	1.02e-02	0	61	0	222298112	55	6983
2026-01-30 08:29:32.41	90.78	18.32	-42.4	-47.7	9.7	1.09e-02	0	61	0	224395264	55	6975
2026-01-30 08:29:33.42	90.59	18.40	-42.4	-47.8	9.5	1.34e-02	0	61	0	226492416	55	7076
2026-01-30 08:29:34.43	90.40	18.48	-42.4	-47.8	9.5	1.46e-02	0	61	0	228589568	55	7085
2026-01-30 08:29:35.44	90.21	18.55	-42.3	-47.7	9.5	1.39e-02	0	61	0	230686720	55	6989
2026-01-30 08:29:36.45	90.02	18.63	-42.2	-47.7	9.3	1.59e-02	0	61	0	232783872	55	7037
2026-01-30 08:29:37.46	89.82	18.70	-42.2	-47.7	9.3	1.84e-02	0	61	0	233832448	55	6969
2026-01-30 08:29:38.47	89.63	18.78	-42.1	-47.7	9.1	2.10e-02	0	61	0	235929600	55	7004
2026-01-30 08:29:39.48	89.43	18.86	-42.0	-47.8	8.9	2.88e-02	0	61	0	238026752	55	7047
2026-01-30 08:29:40.49	89.24	18.93	-41.9	-47.8	8.7	3.06e-02	0	61	0	240123904	55	7106
2026-01-30 08:29:41.50	89.04	19.01	-41.9	-47.8	8.6	3.63e-02	0	61	0	242221056	55	7088
2026-01-30 08:29:42.51	88.84	19.08	-41.8	-47.9	8.2	4.20e-02	0	61	0	243269632	55	7204
2026-01-30 08:29:43.52	88.64	19.16	-41.7	-48.2	7.7	6.72e-02	0	61	0	245366784	55	7403
2026-01-30 08:29:44.53	88.44	19.23	-41.5	-48.2	7.5	1.08e-01	0	61	0	247463936	54	7854
2026-01-30 08:29:45.54	88.24	19.31	-41.4	-48.3	7.2	1.17e-01	0	61	0	249561088	54	7930
2026-01-30 08:29:46.54	88.04	19.38	-41.2	-48.4	6.8	1.51e-01	0	61	0	251658240	54	8061
2026-01-30 08:29:47.55	87.84	19.45	-41.1	-48.3	6.9	1.76e-01	0	61	0	252706816	54	7985
2026-01-30 08:29:48.56	87.64	19.53	-41.1	-48.2	6.9	1.71e-01	0	61	0	254803968	54	7877
2026-01-30 08:29:49.57	87.43	19.60	-41.4	-48.2	7.4	1.67e-01	0	61	0	256901120	54	7809
2026-01-30 08:29:50.58	87.22	19.68	-41.2	-48.8	6.5	1.10e-01	0	61	0	258998272	54	8439
2026-01-30 08:29:51.59	87.02	19.75	-41.6	-49.3	6.2	4.12e-01	0	61	0	261095424	54	8947
2026-01-30 08:29:52.60	86.81	19.82	-41.3	-48.2	7.3	7.13e-02	0	61	0	262144000	54	7892
2026-01-30 08:29:53.61	86.60	19.90	-41.3	-47.7	7.8	5.25e-01	0	61	0	264241152	54	7405
2026-01-30 08:29:54.62	86.39	19.97	-41.4	-47.2	8.8	3.38e-02	0	61	0	266338304	54	7006
2026-01-30 08:29:55.63	86.18	20.04	-41.4	-47.1	8.9	2.76e-02	0	61	0	268435456	54	6909
2026-01-30 08:29:56.64	85.97	20.12	-41.4	-47.0	9.1	2.36e-02	0	61	0	270532608	54	6807
2026-01-30 08:29:57.65	85.75	20.19	-41.3	-46.6	9.5	1.71e-02	0	61	0	271581184	54	6552
2026-01-30 08:29:58.66	85.54	20.26	-41.2	-46.2	9.9	1.09e-02	0	61	0	273678336	54	6258
2026-01-30 08:29:59.67	85.32	20.34	-41.1	-46.0	10.4	6.48e-03	0	61	0	275775488	54	6067
2026-01-30 08:30:00.68	85.11	20.41	-41.2	-45.9	10.6	3.72e-03	0	61	0	277872640	54	6026
2026-01-30 08:30:01.69	84.89	20.48	-41.3	-45.9	10.8	3.03e-03	0	61	0	279969792	54	6031
2026-01-30 08:30:02.69	84.68	20.55	-41.3	-45.8	11.0	2.32e-03	0	61	0	281018368	54	5951
2026-01-30 08:30:03.70	84.46	20.62	-41.4	-45.7	11.2	1.33e-03	0	61	0	283115520	54	5915
2026-01-30 08:30:04.71	84.24	20.69	-41.4	-45.7	11.3	1.12e-03	0	61	0	285212672	54	5877
2026-01-30 08:30:05.73	84.01	20.76	-41.3	-45.5	11.6	8.68e-04	0	61	0	287309824	54	5763
2026-01-30 08:30:06.74	83.79	20.83	-41.3	-45.4	11.8	5.07e-04	0	61	0	289406976	54	5683
2026-01-30 08:30:07.75	83.57	20.91	-41.3	-45.4	11.9	4.52e-04	0	61	0	290455552	54	5670
2026-01-30 08:30:08.76	83.34	20.98	-41.3	-45.2	12.1	2.94e-04	0	61	0	292552704	54	5570
2026-01-30 08:30:09.76	83.12	21.04	-41.3	-45.2	12.2	2.29e-04	0	61	0	294649856	54	5547
2026-01-30 08:30:10.77	82.89	21.11	-41.3	-45.3	12.2	2.33e-04	0	62	0	296747008	54	5612
2026-01-30 08:30:11.79	82.66	21.18	-41.4	-45.3	12.2	2.23e-04	0	62	0	298844160	54	5621
2026-01-30 08:30:12.80	82.44	21.25	-41.4	-45.3	12.3	1.95e-04	0	62	0	300941312	54	5597
2026-01-30 08:30:13.81	82.21	21.32	-41.4	-45.3	12.2	2.46e-04	0	62	0	301989888	54	5645
2026-01-30 08:30:14.82	81.98	21.39	-41.5	-45.4	12.1	2.49e-04	0	61	0	304087040	54	5704
2026-01-30 08:30:15.83	81.74	21.46	-41.5	-45.5	12.1	2.83e-04	0	61	0	306184192	54	5724
2026-01-30 08:30:16.84	81.51	21.53	-41.4	-45.3	12.3	1.96e-04	0	61	0	308281344	54	5612
2026-01-30 08:30:17.84	81.28	21.59	-41.4	-45.2	12.4	1.43e-04	0	61	0	310378496	54	5583
2026-01-30 08:30:18.85	81.05	21.66	-41.4	-45.2	12.5	1.22e-04	0	61	0	311427072	54	5556
2026-01-30 08:30:19.86	80.81	21.73	-41.4	-45.2	12.5	1.05e-04	0	61	0	313524224	54	5553
2026-01-30 08:30:20.87	80.57	21.79	-41.5	-45.2	12.4	1.14e-04	0	61	0	315621376	54	5582
2026-01-30 08:30:21.88	80.34	21.86	-41.5	-45.2	12.5	1.28e-04	0	61	0	317718528	54	5570
2026-01-30 08:30:22.89	80.10	21.93	-41.5	-45.3	12.4	1.65e-04	0	61	0	319815680	54	5640
2026-01-30 08:30:23.90	79.86	21.99	-41.5	-45.3	12.4	1.56e-04	0	61	0	320864256	54	5649
2026-01-30 08:30:24.91	79.62	22.06	-41.5	-45.4	12.3	1.63e-04	0	62	0	322961408	54	5659
2026-01-30 08:30:25.92	79.38	22.12	-41.5	-45.2	12.4	1.61e-04	0	62	0	325058560	54	5584
2026-01-30 08:30:26.93	79.13	22.18	-41.6	-45.4	12.5	1.66e-04	0	61	0	327155712	54	5676
2026-01-30 08:30:27.94	78.89	22.25	-41.5	-45.4	12.3	1.73e-04	0	61	0	329252864	54	5662
2026-01-30 08:30:28.95	78.64	22.31	-41.5	-45.4	12.2	2.09e-04	0	61	0	330301440	54	5707
2026-01-30 08:30:29.97	78.40	22.38	-41.6	-45.5	12.1	2.55e-04	0	61	0	332398592	54	5757
2026-01-30 08:30:30.98	78.15	22.44	-41.6	-45.4	12.2	1.76e-04	0	61	0	334495744	54	5704
2026-01-30 08:30:31.99	77.90	22.50	-41.5	-45.4	12.4	1.66e-04	0	61	0	336592896	54	5664
2026-01-30 08:30:33.00	77.65	22.56	-41.5	-45.3	12.4	1.56e-04	0	61	0	338690048	54	5650
2026-01-30 08:30:34.01	77.40	22.62	-41.5	-45.2	12.5	1.30e-04	0	62	0	339738624	54	5560
2026-01-30 08:30:35.02	77.15	22.68	-41.5	-45.2	12.5	1.22e-04	0	62	0	341835776	54	5563
2026-01-30 08:30:36.03	76.90	22.74	-41.4	-45.1	12.6	1.17e-04	0	62	0	343932928	54	5493
2026-01-30 08:30:37.04	76.65	22.80	-41.4	-45.1	12.6	8.46e-05	0	62	0	346030080	54	5514
2026-01-30 08:30:38.05	76.39	22.86	-41.5	-45.3	12.4	1.20e-04	0	61	0	348127232	54	5613
2026-01-30 08:30:39.06	76.14	22.92	-41.5	-45.3	12.4	1.63e-04	0	62	0	349175808	54	5641
2026-01-30 08:30:40.07	75.88	22.98	-41.5	-45.3	12.5	1.17e-04	0	61	0	351272960	54	5594
2026-01-30 08:30:41.08	75.63	23.04	-41.5	-45.2	12.5	1.18e-04	0	61	0	353370112	54	5586
2026-01-30 08:30:42.09	75.37	23.10	-41.4	-45.1	12.6	1.30e-04	0	61	0	355467264	54	5520
2026-01-30 08:30:43.10	75.11	23.16	-41.4	-45.1	12.7	7.93e-05	0	62	0	357564416	54	5468
2026-01-30 08:30:44.11	74.85	23.21	-41.3	-44.9	12.8	6.25e-05	0	62	0	358612992	54	5388
2026-01-30 08:30:45.12	74.59	23.27	-41.3	-44.9	12.9	4.95e-05	0	61	0	360710144	54	5350
2026-01-30 08:30:46.13	74.33	23.32	-41.3	-44.8	12.9	4.73e-05	0	62	0	362807296	54	5300
2026-01-30 08:30:47.14	74.07	23.38	-41.2	-44.7	13.1	3.12e-05	0	62	0	364904448	54	5222
2026-01-30 08:30:48.15	73.81	23.43	-41.2	-44.6	13.1	2.97e-05	0	61	0	367001600	54	5196
2026-01-30 08:30:49.16	73.54	23.49	-41.2	-44.6	13.1	2.82e-05	0	62	0	369098752	54	5189
2026-01-30 08:30:50.16	73.28	23.54	-41.1	-44.5	13.2	1.90e-05	0	62	0	370147328	54	5151
2026-01-30 08:30:51.17	73.01	23.59	-41.1	-44.5	13.3	1.60e-05	0	62	0	372244480	54	5106
2026-01-30 08:30:52.18	72.75	23.65	-41.1	-44.5	13.2	2.28e-05	0	62	0	374341632	54	5146
2026-01-30 08:30:53.19	72.48	23.70	-41.2	-44.6	13.1	3.28e-05	0	62	0	376438784	54	5215
2026-01-30 08:30:54.20	72.21	23.75	-41.2	-44.7	13.1	1.67e-05	0	62	0	378535936	54	5252
2026-01-30 08:30:55.22	71.94	23.80	-41.3	-44.9	12.9	3.58e-05	0	62	0	379584512	54	5357
2026-01-30 08:30:56.22	71.67	23.85	-41.4	-45.0	12.8	5.64e-05	0	62	0	381681664	54	5420
2026-01-30 08:30:57.23	71.40	23.90	-41.4	-45.0	12.8	4.19e-05	0	62	0	383778816	54	5442
2026-01-30 08:30:58.25	71.13	23.95	-41.5	-45.2	12.7	5.34e-05	0	62	0	385875968	54	5545
2026-01-30 08:30:59.26	70.85	24.00	-41.6	-45.4	12.5	9.99e-05	0	62	0	387973120	54	5682
2026-01-30 08:31:00.27	70.58	24.04	-41.6	-45.4	12.5	1.51e-04	0	62	0	389021696	54	5666
2026-01-30 08:31:01.28	70.31	24.09	-41.6	-45.3	12.6	8.77e-05	0	61	0	391118848	54	5613
2026-01-30 08:31:02.29	70.03	24.14	-41.6	-45.3	12.6	8.31e-05	0	62	0	393216000	54	5627
2026-01-30 08:31:03.30	69.76	24.18	-41.7	-45.4	12.5	9.76e-05	0	62	0	395313152	54	5678
2026-01-30 08:31:04.30	69.48	24.23	-41.7	-45.5	12.4	1.11e-04	0	62	0	397410304	54	5724
2026-01-30 08:31:05.31	69.20	24.27	-41.7	-45.5	12.4	1.18e-04	0	62	0	398458880	54	5751
2026-01-30 08:31:06.32	68.93	24.32	-41.8	-45.7	12.3	1.70e-04	0	62	0	400556032	54	5877
2026-01-30 08:31:07.33	68.65	24.36	-41.9	-45.9	12.1	2.27e-04	0	62	0	402653184	54	6000
2026-01-30 08:31:08.34	68.37	24.40	-41.9	-45.9	12.1	2.74e-04	0	62	0	404750336	54	5996
2026-01-30 08:31:09.36	68.08	24.44	-41.9	-45.8	12.1	2.43e-04	0	62	0	406847488	54	5963
2026-01-30 08:31:10.37	67.80	24.48	-41.8	-45.7	12.2	2.53e-04	0	62	0	407896064	54	5917
2026-01-30 08:31:11.38	67.52	24.52	-41.9	-45.9	12.1	2.39e-04	0	62	0	409993216	54	6012
2026-01-30 08:31:12.39	67.24	24.56	-42.0	-46.1	11.8	4.02e-04	0	62	0	412090368	54	6197
2026-01-30 08:31:13.40	66.95	24.60	-42.1	-46.3	11.6	5.84e-04	0	62	0	414187520	54	6284
2026-01-30 08:31:14.41	66.67	24.64	-42.1	-46.3	11.6	6.31e-04	0	62	0	416284672	54	6294
2026-01-30 08:31:15.42	66.38	24.68	-42.1	-46.3	11.6	7.00e-04	0	62	0	417333248	54	6341
2026-01-30 08:31:16.43	66.10	24.72	-42.2	-46.5	11.4	7.75e-04	0	61	0	419430400	55	6118
2026-01-30 08:31:17.44	65.81	24.75	-42.2	-46.5	11.4	1.06e-03	0	62	0	421527552	55	6125
2026-01-30 08:31:18.45	65.53	24.79	-42.2	-46.5	11.5	8.25e-04	0	62	0	423624704	55	6086
2026-01-30 08:31:19.46	65.24	24.82	-42.3	-46.7	11.2	9.93e-04	0	62	0	425721856	55	6250
2026-01-30 08:31:20.47	64.95	24.86	-42.4	-46.9	11.0	1.57e-03	0	61	0	426770432	55	6419
2026-01-30 08:31:21.48	64.66	24.89	-42.4	-46.9	11.0	2.06e-03	0	62	0	428867584	55	6414
2026-01-30 08:31:22.49	64.37	24.92	-42.3	-46.8	11.1	1.67e-03	0	62	0	430964736	55	6278
2026-01-30 08:31:23.50	64.08	24.95	-42.2	-46.5	11.4	1.05e-03	0	62	0	433061888	55	6112
2026-01-30 08:31:24.51	63.79	24.98	-42.3	-46.7	11.3	1.18e-03	0	62	0	435159040	55	6211
2026-01-30 08:31:25.52	63.50	25.01	-42.4	-46.8	11.1	1.62e-03	0	62	0	437256192	55	6323
2026-01-30 08:31:26.53	63.21	25.04	-42.4	-46.9	11.0	1.89e-03	0	62	0	438304768	55	6401
2026-01-30 08:31:27.54	62.92	25.07	-42.4	-46.8	11.1	1.74e-03	0	62	0	440401920	55	6313
2026-01-30 08:31:28.55	62.62	25.10	-42.4	-46.8	11.1	1.56e-03	0	62	0	442499072	55	6308
2026-01-30 08:31:29.56	62.33	25.13	-42.4	-47.0	10.9	1.91e-03	0	62	0	444596224	55	6446
2026-01-30 08:31:30.57	62.04	25.15	-42.5	-47.1	10.8	2.46e-03	0	62	0	446693376	55	6550
2026-01-30 08:31:31.58	61.74	25.18	-42.5	-47.2	10.7	2.79e-03	0	62	0	447741952	55	6604
2026-01-30 08:31:32.59	61.45	25.20	-42.5	-47.2	10.7	3.03e-03	0	62	0	449839104	55	6644
2026-01-30 08:31:33.60	61.15	25.23	-42.6	-47.3	10.6	3.14e-03	0	62	0	451936256	55	6677
2026-01-30 08:31:34.61	60.86	25.25	-42.6	-47.4	10.6	3.39e-03	0	62	0	454033408	55	6742
2026-01-30 08:31:35.62	60.56	25.27	-42.5	-47.2	10.7	3.26e-03	0	62	0	456130560	55	6618
2026-01-30 08:31:36.63	60.27	25.29	-42.4	-47.0	10.9	2.33e-03	0	62	0	457179136	55	6461
2026-01-30 08:31:37.64	59.97	25.31	-42.4	-46.9	11.0	1.98e-03	0	62	0	459276288	55	6391
2026-01-30 08:31:38.65	59.67	25.33	-42.4	-46.9	11.0	1.85e-03	0	62	0	461373440	55	6402
2026-01-30 08:31:39.66	59.37	25.35	-42.4	-47.0	10.9	2.03e-03	0	62	0	463470592	55	6447
2026-01-30 08:31:40.67	59.08	25.37	-42.5	-47.0	10.9	2.09e-03	0	62	0	465567744	55	6464
2026-01-30 08:31:41.68	58.78	25.39	-42.5	-47.1	10.8	2.25e-03	0	62	0	466616320	55	6539
2026-01-30 08:31:42.69	58.48	25.40	-42.5	-47.1	10.8	2.45e-03	0	62	0	468713472	55	6508
2026-01-30 08:31:43.70	58.18	25.42	-42.5	-47.2	10.7	2.68e-03	0	62	0	470810624	55	6627
2026-01-30 08:31:44.71	57.88	25.43	-42.6	-47.4	10.5	3.96e-03	0	62	0	472907776	55	6736
2026-01-30 08:31:45.72	57.58	25.45	-42.5	-47.2	10.7	3.64e-03	0	62	0	475004928	55	6637
2026-01-30 08:31:46.73	57.28	25.46	-42.5	-47.2	10.7	3.15e-03	0	62	0	476053504	55	6594
2026-01-30 08:31:47.74	56.98	25.47	-42.4	-47.0	10.9	2.46e-03	0	62	0	478150656	55	6452
2026-01-30 08:31:48.75	56.68	25.49	-42.5	-47.0	10.9	2.13e-03	0	62	0	480247808	55	6457
2026-01-30 08:31:49.76	56.38	25.50	-42.4	-46.9	11.0	1.98e-03	0	62	0	482344960	55	6392
2026-01-30 08:31:50.77	56.08	25.51	-42.3	-46.7	11.2	1.43e-03	0	62	0	484442112	55	6231
2026-01-30 08:31:51.78	55.78	25.51	-42.3	-46.6	11.4	1.10e-03	0	62	0	485490688	55	6161
2026-01-30 08:31:52.79	55.48	25.52	-42.3	-46.7	11.2	9.85e-04	0	62	0	487587840	55	6248
2026-01-30 08:31:53.80	55.18	25.53	-42.4	-46.7	11.2	1.26e-03	0	62	0	489684992	55	6268
2026-01-30 08:31:54.81	54.88	25.54	-42.3	-46.7	11.2	1.47e-03	0	62	0	491782144	55	6260
2026-01-30 08:31:55.82	54.58	25.54	-42.3	-46.6	11.4	1.19e-03	0	62	0	493879296	55	6134
2026-01-30 08:31:56.83	54.28	25.54	-42.2	-46.3	11.7	8.67e-04	0	62	0	494927872	55	5978
2026-01-30 08:31:57.84	53.98	25.55	-42.1	-46.2	11.7	6.21e-04	0	62	0	497025024	55	5917
2026-01-30 08:31:58.85	53.68	25.55	-42.1	-46.3	11.7	5.26e-04	0	62	0	499122176	55	5927
2026-01-30 08:31:59.86	53.37	25.55	-42.1	-46.2	11.8	5.22e-04	0	62	0	501219328	55	5884
2026-01-30 08:32:00.87	53.07	25.55	-42.0	-46.0	12.0	4.20e-04	0	62	0	503316480	55	5781
2026-01-30 08:32:01.88	52.77	25.55	-42.0	-46.0	12.1	3.55e-04	0	62	0	505413632	55	5728
2026-01-30 08:32:02.89	52.47	25.55	-41.9	-45.8	12.2	2.57e-04	0	62	0	506462208	55	5636
2026-01-30 08:32:03.90	52.17	25.55	-42.0	-45.9	12.2	2.60e-04	0	62	0	508559360	55	5663
2026-01-30 08:32:04.91	51.87	25.55	-42.0	-45.8	12.2	2.37e-04	0	62	0	510656512	55	5655
2026-01-30 08:32:05.92	51.57	25.55	-42.0	-45.9	12.1	2.20e-04	0	62	0	512753664	55	5669
2026-01-30 08:32:06.93	51.27	25.54	-41.8	-45.5	12.5	1.42e-04	0	62	0	514850816	55	5441
2026-01-30 08:32:07.94	50.97	25.54	-41.7	-45.2	12.8	8.69e-05	0	62	0	515899392	55	5278
2026-01-30 08:32:08.95	50.66	25.53	-41.6	-45.1	12.9	5.11e-05	0	62	0	517996544	55	5190
2026-01-30 08:32:09.96	50.36	25.52	-41.6	-45.2	12.9	3.50e-05	0	62	0	520093696	55	5248
2026-01-30 08:32:10.97	50.06	25.52	-41.6	-45.2	12.8	6.86e-05	0	62	0	522190848	55	5251
2026-01-30 08:32:11.98	49.76	25.51	-41.7	-45.3	12.8	6.94e-05	0	62	0	524288000	55	5283
2026-01-30 08:32:12.99	49.46	25.50	-41.6	-45.1	12.9	3.35e-05	0	62	0	525336576	55	5205
2026-01-30 08:32:14.00	49.16	25.49	-41.5	-45.0	13.0	2.74e-05	0	62	0	527433728	55	5112
2026-01-30 08:32:15.01	48.86	25.48	-41.5	-44.9	13.2	3.12e-05	0	62	0	529530880	55	5075
2026-01-30 08:32:16.02	48.56	25.46	-41.5	-44.9	13.2	2.13e-05	0	62	0	531628032	54	5361
2026-01-30 08:32:17.03	48.26	25.45	-41.6	-45.1	13.0	2.28e-05	0	62	0	533725184	54	5470
2026-01-30 08:32:18.04	47.97	25.44	-41.5	-45.0	13.1	3.73e-05	0	62	0	534773760	54	5417
2026-01-30 08:32:19.05	47.67	25.42	-41.4	-44.8	13.3	2.05e-05	0	62	0	536870912	54	5293
2026-01-30 08:32:20.06	47.37	25.41	-41.4	-44.6	13.5	1.37e-05	0	62	0	538968064	54	5216
2026-01-30 08:32:21.07	47.07	25.39	-41.3	-44.6	13.5	1.22e-05	0	62	0	541065216	54	5192
2026-01-30 08:32:22.08	46.77	25.38	-41.4	-44.7	13.5	1.14e-05	0	62	0	543162368	54	5230
2026-01-30 08:32:23.09	46.47	25.36	-41.4	-44.7	13.5	1.44e-05	0	62	0	545259520	54	5229
2026-01-30 08:32:24.11	46.17	25.34	-41.4	-44.7	13.4	8.30e-06	0	62	0	546308096	54	5274
2026-01-30 08:32:25.11	45.88	25.32	-41.4	-44.7	13.4	1.06e-05	0	62	0	548405248	54	5237
2026-01-30 08:32:26.12	45.58	25.30	-41.3	-44.6	13.5	1.06e-05	0	62	0	550502400	54	5189
2026-01-30 08:32:27.13	45.29	25.28	-41.3	-44.6	13.6	6.10e-06	0	62	0	552599552	54	5188
2026-01-30 08:32:28.14	44.99	25.26	-41.4	-44.7	13.4	1.44e-05	0	62	0	554696704	54	5257
2026-01-30 08:32:29.15	44.70	25.23	-41.4	-44.8	13.3	9.90e-06	0	62	0	555745280	54	5318
2026-01-30 08:32:30.16	44.40	25.21	-41.5	-44.9	13.2	1.90e-05	0	62	0	557842432	54	5369
2026-01-30 08:32:31.17	44.11	25.19	-41.5	-45.0	13.1	2.28e-05	0	62	0	559939584	54	5437
2026-01-30 08:32:32.18	43.81	25.16	-41.5	-45.0	13.1	2.59e-05	0	62	0	562036736	54	5414
2026-01-30 08:32:33.19	43.52	25.13	-41.6	-45.0	13.1	4.04e-05	0	62	0	564133888	54	5442
2026-01-30 08:32:34.20	43.23	25.11	-41.6	-45.1	13.0	4.27e-05	0	62	0	565182464	54	5499
2026-01-30 08:32:35.21	42.94	25.08	-41.6	-45.1	13.0	4.42e-05	0	62	0	567279616	54	5489
2026-01-30 08:32:36.22	42.64	25.05	-41.6	-45.0	13.1	2.28e-05	0	62	0	569376768	54	5456
2026-01-30 08:32:37.23	42.35	25.02	-41.6	-45.1	13.0	4.27e-05	0	62	0	571473920	54	5511
2026-01-30 08:32:38.24	42.06	24.99	-41.7	-45.2	12.9	4.88e-05	0	62	0	573571072	54	5576
2026-01-30 08:32:39.25	41.77	24.96	-41.7	-45.3	12.8	6.25e-05	0	62	0	574619648	54	5620
2026-01-30 08:32:40.26	41.48	24.93	-41.8	-45.4	12.8	5.79e-05	0	62	0	576716800	54	5676
2026-01-30 08:32:41.26	41.20	24.90	-41.8	-45.5	12.7	6.48e-05	0	62	0	578813952	54	5736
2026-01-30 08:32:42.27	40.91	24.87	-41.8	-45.5	12.6	8.54e-05	0	62	0	580911104	54	5783
2026-01-30 08:32:43.28	40.62	24.83	-41.9	-45.7	12.4	1.11e-04	0	62	0	583008256	54	5868
2026-01-30 08:32:44.29	40.33	24.80	-41.9	-45.8	12.3	1.44e-04	0	62	0	584056832	54	5935
2026-01-30 08:32:45.30	40.05	24.76	-41.9	-45.8	12.3	2.03e-04	0	62	0	586153984	54	5936
2026-01-30 08:32:46.31	39.76	24.73	-41.9	-45.7	12.3	1.39e-04	0	62	0	588251136	54	5919
2026-01-30 08:32:47.33	39.47	24.69	-41.9	-45.7	12.4	1.54e-04	0	62	0	590348288	54	5874
2026-01-30 08:32:48.33	39.19	24.65	-41.9	-45.7	12.4	1.30e-04	0	62	0	592445440	54	5893
2026-01-30 08:32:49.35	38.90	24.61	-41.9	-45.8	12.3	1.85e-04	0	62	0	593494016	54	5948
2026-01-30 08:32:50.35	38.62	24.58	-42.0	-45.9	12.1	2.22e-04	0	62	0	595591168	54	6054
2026-01-30 08:32:51.37	38.34	24.54	-42.1	-46.0	12.1	2.78e-04	0	62	0	597688320	54	6107
2026-01-30 08:32:52.38	38.06	24.50	-42.1	-46.2	11.9	3.82e-04	0	62	0	599785472	54	6214
2026-01-30 08:32:53.39	37.78	24.45	-42.2	-46.3	11.8	4.47e-04	0	62	0	601882624	54	6296
2026-01-30 08:32:54.40	37.50	24.41	-42.2	-46.4	11.7	5.45e-04	0	62	0	602931200	55	6012
2026-01-30 08:32:55.41	37.22	24.37	-42.3	-46.4	11.7	5.53e-04	0	62	0	605028352	55	6013
2026-01-30 08:32:56.42	36.94	24.33	-42.3	-46.5	11.6	6.55e-04	0	62	0	607125504	55	6081
2026-01-30 08:32:57.43	36.66	24.28	-42.3	-46.4	11.6	7.21e-04	0	62	0	609222656	55	6043
2026-01-30 08:32:58.43	36.39	24.24	-42.3	-46.5	11.6	6.99e-04	0	62	0	611319808	55	6071
2026-01-30 08:32:59.45	36.11	24.20	-42.3	-46.5	11.5	7.88e-04	0	62	0	613416960	55	6114
2026-01-30 08:33:00.46	35.83	24.15	-42.4	-46.7	11.4	9.43e-04	0	62	0	614465536	55	6213
2026-01-30 08:33:01.47	35.56	24.10	-42.3	-46.6	11.4	1.05e-03	0	62	0	616562688	55	6192
2026-01-30 08:33:02.48	35.28	24.06	-42.3	-46.6	11.5	8.48e-04	0	62	0	618659840	55	6160
2026-01-30 08:33:03.49	35.01	24.01	-42.3	-46.6	11.5	8.41e-04	0	62	0	620756992	55	6166
2026-01-30 08:33:04.50	34.74	23.96	-42.4	-46.7	11.3	1.05e-03	0	62	0	622854144	55	6236
2026-01-30 08:33:05.51	34.47	23.91	-42.4	-46.9	11.2	1.26e-03	0	62	0	623902720	55	6350
2026-01-30 08:33:06.52	34.20	23.86	-42.5	-47.0	11.0	1.82e-03	0	62	0	625999872	55	6460
2026-01-30 08:33:07.53	33.93	23.81	-42.5	-47.0	11.0	1.80e-03	0	62	0	628097024	55	6442
2026-01-30 08:33:08.54	33.66	23.76	-42.4	-46.9	11.0	1.91e-03	0	62	0	630194176	55	6384
2026-01-30 08:33:09.55	33.39	23.71	-42.4	-46.9	11.1	1.71e-03	0	62	0	632291328	55	6348
2026-01-30 08:33:10.56	33.12	23.66	-42.4	-46.8	11.1	1.54e-03	0	62	0	633339904	55	6336
2026-01-30 08:33:11.57	32.86	23.61	-42.3	-46.6	11.4	1.12e-03	0	62	0	635437056	55	6184
2026-01-30 08:33:12.58	32.59	23.56	-42.3	-46.6	11.5	9.64e-04	0	62	0	637534208	55	6136
2026-01-30 08:33:13.59	32.33	23.50	-42.3	-46.5	11.5	8.02e-04	0	62	0	639631360	55	6081
2026-01-30 08:33:14.60	32.06	23.45	-42.3	-46.5	11.5	7.97e-04	0	62	0	641728512	55	6110
2026-01-30 08:33:15.61	31.80	23.40	-42.3	-46.6	11.4	8.88e-04	0	62	0	642777088	55	6145
2026-01-30 08:33:16.62	31.54	23.34	-42.4	-46.7	11.2	1.09e-03	0	62	0	644874240	55	6270
2026-01-30 08:33:17.63	31.28	23.29	-42.4	-46.9	11.1	1.53e-03	0	62	0	646971392	55	6361
2026-01-30 08:33:18.64	31.02	23.23	-42.6	-47.2	10.8	2.19e-03	0	62	0	649068544	55	6581
2026-01-30 08:33:19.66	30.76	23.17	-42.5	-47.1	10.8	2.44e-03	0	62	0	651165696	55	6569
2026-01-30 08:33:20.67	30.50	23.12	-42.5	-47.0	11.0	2.25e-03	0	62	0	652214272	55	6464
2026-01-30 08:33:21.68	30.24	23.06	-42.4	-46.7	11.3	1.38e-03	0	62	0	654311424	55	6244
2026-01-30 08:33:22.69	29.99	23.00	-42.3	-46.6	11.4	1.07e-03	0	62	0	656408576	55	6191
2026-01-30 08:33:23.70	29.73	22.94	-42.3	-46.6	11.5	1.15e-03	0	62	0	658505728	55	6142
2026-01-30 08:33:24.71	29.48	22.88	-42.3	-46.7	11.4	9.99e-04	0	62	0	660602880	55	6204
2026-01-30 08:33:25.72	29.23	22.82	-42.4	-46.7	11.3	1.22e-03	0	62	0	661651456	55	6219
2026-01-30 08:33:26.73	28.98	22.77	-42.4	-46.8	11.2	1.22e-03	0	62	0	663748608	55	6338
2026-01-30 08:33:27.74	28.72	22.71	-42.5	-46.9	11.1	1.54e-03	0	62	0	665845760	55	6397
2026-01-30 08:33:28.75	28.47	22.64	-42.4	-46.8	11.2	1.39e-03	0	62	0	667942912	55	6335
2026-01-30 08:33:29.76	28.23	22.58	-42.4	-46.8	11.2	1.39e-03	0	62	0	670040064	55	6296
2026-01-30 08:33:30.77	27.98	22.52	-42.3	-46.7	11.4	1.21e-03	0	62	0	671088640	55	6208
2026-01-30 08:33:31.78	27.73	22.46	-42.3	-46.5	11.5	9.02e-04	0	62	0	673185792	55	6100
2026-01-30 08:33:32.79	27.48	22.40	-42.2	-46.2	11.8	5.83e-04	0	62	0	675282944	55	5908
2026-01-30 08:33:33.80	27.24	22.33	-42.1	-46.1	11.9	4.06e-04	0	62	0	677380096	55	5809
2026-01-30 08:33:34.81	27.00	22.27	-42.0	-46.0	12.0	2.78e-04	0	62	0	679477248	55	5733
2026-01-30 08:33:35.82	26.75	22.21	-41.9	-45.9	12.2	2.15e-04	0	62	0	681574400	55	5671
2026-01-30 08:33:36.83	26.51	22.14	-42.0	-45.9	12.2	2.04e-04	0	62	0	682622976	55	5659
2026-01-30 08:33:37.84	26.27	22.08	-42.0	-45.9	12.2	2.40e-04	0	62	0	684720128	55	5690
2026-01-30 08:33:38.85	26.03	22.02	-41.9	-45.8	12.2	2.39e-04	0	62	0	686817280	55	5627
2026-01-30 08:33:39.86	25.79	21.95	-41.9	-45.7	12.4	1.80e-04	0	62	0	688914432	55	5542
2026-01-30 08:33:40.87	25.55	21.89	-41.9	-45.6	12.4	1.54e-04	0	62	0	691011584	55	5519
2026-01-30 08:33:41.88	25.32	21.82	-41.8	-45.6	12.4	1.43e-04	0	62	0	692060160	55	5471
2026-01-30 08:33:42.89	25.08	21.75	-41.8	-45.5	12.6	1.07e-04	0	62	0	694157312	55	5413
2026-01-30 08:33:43.90	24.85	21.69	-41.8	-45.6	12.5	1.15e-04	0	62	0	696254464	55	5472
2026-01-30 08:33:44.91	24.61	21.62	-41.8	-45.5	12.5	1.25e-04	0	62	0	698351616	55	5452
2026-01-30 08:33:45.92	24.38	21.55	-41.8	-45.4	12.6	9.68e-05	0	62	0	700448768	55	5398
2026-01-30 08:33:46.93	24.15	21.49	-41.8	-45.5	12.6	9.46e-05	0	62	0	701497344	55	5407
2026-01-30 08:33:47.94	23.92	21.42	-41.8	-45.5	12.6	9.76e-05	0	62	0	703594496	55	5408
2026-01-30 08:33:48.95	23.69	21.35	-41.8	-45.5	12.5	1.04e-04	0	62	0	705691648	55	5436
2026-01-30 08:33:49.95	23.46	21.28	-41.8	-45.5	12.5	1.21e-04	0	62	0	707788800	55	5451
2026-01-30 08:33:50.97	23.23	21.21	-41.8	-45.5	12.5	1.06e-04	0	62	0	709885952	55	5458
2026-01-30 08:33:51.98	23.00	21.14	-41.8	-45.5	12.5	1.11e-04	0	62	0	710934528	55	5449
2026-01-30 08:33:52.99	22.78	21.07	-41.8	-45.6	12.4	1.37e-04	0	62	0	713031680	55	5477
2026-01-30 08:33:53.99	22.56	21.01	-41.8	-45.6	12.4	1.66e-04	0	62	0	715128832	55	5503
2026-01-30 08:33:55.01	22.33	20.94	-41.8	-45.6	12.4	1.52e-04	0	62	0	717225984	55	5527
2026-01-30 08:33:56.02	22.11	20.86	-41.9	-45.8	12.1	1.85e-04	0	62	0	719323136	55	5639
2026-01-30 08:33:57.03	21.89	20.79	-41.9	-45.8	12.2	2.37e-04	0	62	0	720371712	55	5655
2026-01-30 08:33:58.04	21.67	20.72	-41.9	-45.8	12.1	2.55e-04	0	62	0	722468864	55	5654
2026-01-30 08:33:59.04	21.45	20.65	-41.9	-45.8	12.1	2.18e-04	0	62	0	724566016	55	5626
2026-01-30 08:34:00.05	21.23	20.58	-41.9	-45.7	12.3	2.01e-04	0	62	0	726663168	55	5558
2026-01-30 08:34:01.06	21.01	20.51	-41.8	-45.6	12.4	1.52e-04	0	62	0	728760320	55	5496
2026-01-30 08:34:02.07	20.80	20.44	-41.7	-45.4	12.6	1.23e-04	0	62	0	729808896	55	5402
2026-01-30 08:34:03.08	20.58	20.37	-41.7	-45.4	12.6	8.85e-05	0	62	0	731906048	55	5354
2026-01-30 08:34:04.09	20.37	20.30	-41.7	-45.3	12.7	9.00e-05	0	62	0	734003200	55	5308
2026-01-30 08:34:05.10	20.15	20.22	-41.7	-45.4	12.6	9.00e-05	0	62	0	736100352	55	5347
2026-01-30 08:34:06.11	19.94	20.15	-41.6	-45.2	12.8	8.69e-05	0	62	0	738197504	55	5271
2026-01-30 08:34:07.12	19.73	20.08	-41.6	-45.2	12.8	7.09e-05	0	62	0	739246080	55	5254
2026-01-30 08:34:08.13	19.52	20.01	-41.6	-45.2	12.8	5.41e-05	0	62	0	741343232	55	5254
2026-01-30 08:34:09.14	19.31	19.93	-41.6	-45.2	12.8	6.86e-05	0	62	0	743440384	55	5261
2026-01-30 08:34:10.15	19.10	19.86	-41.6	-45.1	12.9	5.26e-05	0	62	0	745537536	55	5214
2026-01-30 08:34:11.16	18.90	19.79	-41.6	-45.1	12.9	5.26e-05	0	62	0	747634688	55	5204
2026-01-30 08:34:12.17	18.69	19.71	-41.5	-45.0	13.0	4.80e-05	0	62	0	749731840	55	5149
2026-01-30 08:34:13.18	18.48	19.64	-41.5	-45.0	13.0	3.89e-05	0	62	0	750780416	55	5128
2026-01-30 08:34:14.19	18.28	19.57	-41.4	-44.9	13.2	4.19e-05	0	62	0	752877568	54	5350
2026-01-30 08:34:15.20	18.08	19.49	-41.4	-44.8	13.2	2.44e-05	0	62	0	754974720	54	5333
2026-01-30 08:34:16.20	17.88	19.42	-41.3	-44.7	13.2	2.05e-05	0	62	0	757071872	54	5255
2026-01-30 08:34:17.21	17.68	19.34	-41.4	-44.8	13.1	2.44e-05	0	62	0	759169024	54	5336
2026-01-30 08:34:18.22	17.47	19.27	-41.4	-44.8	13.2	2.51e-05	0	62	0	760217600	54	5294
2026-01-30 08:34:19.24	17.27	19.19	-41.3	-44.6	13.4	1.67e-05	0	62	0	762314752	54	5205
2026-01-30 08:34:20.24	17.08	19.12	-41.2	-44.6	13.5	1.52e-05	0	62	0	764411904	54	5162
2026-01-30 08:34:21.25	16.88	19.05	-41.2	-44.5	13.5	1.52e-05	0	62	0	766509056	54	5114
2026-01-30 08:34:22.26	16.68	18.97	-41.2	-44.5	13.5	7.60e-06	0	62	0	768606208	54	5122
2026-01-30 08:34:23.27	16.49	18.90	-41.2	-44.5	13.5	1.14e-05	0	62	0	769654784	54	5152
2026-01-30 08:34:24.28	16.29	18.82	-41.2	-44.6	13.4	1.22e-05	0	62	0	771751936	54	5170
2026-01-30 08:34:25.29	16.10	18.74	-41.3	-44.7	13.3	9.90e-06	0	62	0	773849088	54	5232
2026-01-30 08:34:26.30	15.91	18.67	-41.3	-44.7	13.2	2.44e-05	0	62	0	775946240	54	5253
2026-01-30 08:34:27.31	15.72	18.59	-41.3	-44.7	13.2	1.14e-05	0	62	0	778043392	54	5248
2026-01-30 08:34:28.32	15.53	18.52	-41.3	-44.7	13.2	1.67e-05	0	62	0	779091968	54	5261
2026-01-30 08:34:29.33	15.34	18.44	-41.3	-44.7	13.2	2.13e-05	0	62	0	781189120	54	5243
2026-01-30 08:34:30.34	15.15	18.37	-41.3	-44.7	13.2	1.60e-05	0	62	0	783286272	54	5254
2026-01-30 08:34:31.35	14.96	18.29	-41.3	-44.7	13.2	2.89e-05	0	62	0	785383424	54	5249
2026-01-30 08:34:32.36	14.77	18.21	-41.2	-44.6	13.3	2.28e-05	0	62	0	787480576	54	5184
2026-01-30 08:34:33.37	14.59	18.14	-41.1	-44.4	13.5	1.22e-05	0	62	0	788529152	54	5067
2026-01-30 08:34:34.38	14.40	18.06	-41.0	-44.3	13.7	6.80e-06	0	62	0	790626304	54	4997
2026-01-30 08:34:35.39	14.22	17.99	-41.0	-44.3	13.7	8.30e-06	0	62	0	792723456	54	4985
2026-01-30 08:34:36.40	14.04	17.91	-41.1	-44.4	13.6	5.30e-06	0	62	0	794820608	54	5047
2026-01-30 08:34:37.41	13.86	17.83	-41.1	-44.4	13.5	6.80e-06	0	62	0	796917760	54	5069
2026-01-30 08:34:38.42	13.67	17.76	-41.2	-44.5	13.5	6.80e-06	0	62	0	797966336	54	5120
2026-01-30 08:34:39.43	13.49	17.68	-41.2	-44.5	13.4	9.90e-06	0	62	0	800063488	54	5139
2026-01-30 08:34:40.44	13.32	17.60	-41.2	-44.5	13.4	2.28e-05	0	62	0	802160640	54	5144
2026-01-30 08:34:41.45	13.14	17.53	-41.2	-44.5	13.4	1.14e-05	0	62	0	804257792	54	5150
2026-01-30 08:34:42.46	12.96	17.45	-41.1	-44.5	13.4	1.06e-05	0	62	0	806354944	54	5112
2026-01-30 08:34:43.47	12.78	17.37	-41.1	-44.5	13.4	1.22e-05	0	62	0	807403520	53	5410
2026-01-30 08:34:44.48	12.61	17.30	-41.1	-44.5	13.4	9.10e-06	0	62	0	809500672	53	5410
2026-01-30 08:34:45.49	12.43	17.22	-41.1	-44.5	13.4	1.06e-05	0	62	0	811597824	53	5419
2026-01-30 08:34:46.50	12.26	17.14	-41.2	-44.6	13.3	2.05e-05	0	62	0	813694976	53	5470
2026-01-30 08:34:47.51	12.09	17.07	-41.2	-44.6	13.2	2.44e-05	0	62	0	815792128	53	5527
2026-01-30 08:34:48.52	11.92	16.99	-41.3	-44.8	13.1	2.36e-05	0	62	0	817889280	53	5595
2026-01-30 08:34:49.53	11.75	16.91	-41.3	-44.7	13.1	2.59e-05	0	62	0	818937856	53	5578
2026-01-30 08:34:50.54	11.57	16.84	-41.3	-44.8	13.1	2.05e-05	0	62	0	821035008	53	5614
2026-01-30 08:34:51.55	11.41	16.76	-41.2	-44.7	13.1	3.66e-05	0	62	0	823132160	53	5564
2026-01-30 08:34:52.56	11.24	16.68	-41.3	-44.8	13.0	3.50e-05	0	62	0	825229312	53	5620
2026-01-30 08:34:53.56	11.07	16.61	-41.3	-44.8	13.1	3.28e-05	0	62	0	827326464	53	5602
2026-01-30 08:34:54.57	10.91	16.53	-41.3	-44.8	13.0	3.43e-05	0	62	0	828375040	53	5623
2026-01-30 08:34:55.58	10.74	16.45	-41.3	-44.9	13.0	3.81e-05	0	62	0	830472192	53	5664
2026-01-30 08:34:56.59	10.57	16.38	-41.4	-45.0	12.8	5.56e-05	0	62	0	832569344	53	5742
2026-01-30 08:34:57.60	10.41	16.30	-41.4	-45.1	12.7	7.24e-05	0	62	0	834666496	53	5838
2026-01-30 08:34:58.61	10.25	16.22	-41.5	-45.2	12.6	8.08e-05	0	62	0	836763648	53	5907
2026-01-30 08:34:59.62	10.09	16.15	-41.6	-45.4	12.3	1.37e-04	0	62	0	837812224	53	6046
2026-01-30 08:35:00.63	9.92	16.07	-41.6	-45.5	12.3	1.50e-04	0	62	0	839909376	53	6080
2026-01-30 08:35:01.64	9.76	15.99	-41.7	-45.6	12.1	2.35e-04	0	62	0	842006528	53	6183
2026-01-30 08:35:02.65	9.60	15.91	-41.7	-45.6	12.1	2.73e-04	0	62	0	844103680	53	6163
2026-01-30 08:35:03.66	9.44	15.84	-41.7	-45.7	12.1	2.62e-04	0	62	0	846200832	53	6204
2026-01-30 08:35:04.67	9.29	15.76	-41.7	-45.6	12.1	2.82e-04	0	62	0	847249408	53	6201
2026-01-30 08:35:05.68	9.13	15.68	-41.6	-45.6	12.1	2.72e-04	0	62	0	849346560	53	6174
2026-01-30 08:35:06.69	8.97	15.61	-41.7	-45.6	12.1	2.81e-04	0	62	0	851443712	53	6188
2026-01-30 08:35:07.70	8.82	15.53	-41.6	-45.5	12.2	2.52e-04	0	62	0	853540864	53	6085
2026-01-30 08:35:08.71	8.66	15.45	-41.6	-45.5	12.1	2.72e-04	0	62	0	855638016	53	6115
2026-01-30 08:35:09.73	8.51	15.38	-41.6	-45.6	12.1	2.43e-04	0	62	0	856686592	53	6152
2026-01-30 08:35:10.74	8.35	15.30	-41.6	-45.6	12.0	3.28e-04	0	62	0	858783744	53	6159
2026-01-30 08:35:11.75	8.20	15.22	-41.7	-45.7	11.9	3.32e-04	0	62	0	860880896	53	6235
2026-01-30 08:35:12.76	8.05	15.15	-41.7	-45.8	11.8	4.13e-04	0	62	0	862978048	53	6280
2026-01-30 08:35:13.77	7.90	15.07	-41.7	-45.8	11.7	5.16e-04	0	62	0	865075200	53	6340
2026-01-30 08:35:14.78	7.75	14.99	-41.7	-45.8	11.8	5.51e-04	0	62	0	866123776	53	6338
2026-01-30 08:35:15.79	7.60	14.92	-41.7	-45.9	11.6	6.48e-04	0	62	0	868220928	54	6043
2026-01-30 08:35:16.80	7.45	14.84	-41.7	-45.9	11.6	7.46e-04	0	62	0	870318080	54	6013
2026-01-30 08:35:17.81	7.30	14.76	-41.7	-45.9	11.6	6.77e-04	0	62	0	872415232	54	6003
2026-01-30 08:35:18.82	7.16	14.69	-41.6	-45.8	11.6	6.29e-04	0	62	0	874512384	54	5987
2026-01-30 08:35:19.83	7.01	14.61	-41.6	-45.9	11.5	7.06e-04	0	62	0	875560960	54	5995
2026-01-30 08:35:20.84	6.87	14.53	-41.6	-45.9	11.5	7.74e-04	0	62	0	877658112	54	6027
2026-01-30 08:35:21.85	6.72	14.46	-41.7	-46.1	11.2	1.37e-03	0	62	0	879755264	54	6154
2026-01-30 08:35:22.86	6.58	14.38	-41.7	-46.1	11.1	1.52e-03	0	62	0	881852416	54	6171
2026-01-30 08:35:23.87	6.44	14.31	-41.6	-46.0	11.2	1.40e-03	0	62	0	883949568	54	6130
2026-01-30 08:35:24.88	6.29	14.23	-41.7	-46.4	10.8	2.29e-03	0	62	0	884998144	54	6352
2026-01-30 08:35:25.89	6.15	14.15	-41.7	-46.4	10.6	3.27e-03	0	62	0	887095296	54	6416
2026-01-30 08:35:26.90	6.01	14.08	-41.7	-46.5	10.5	4.21e-03	0	62	0	889192448	54	6442
2026-01-30 08:35:27.91	5.87	14.00	-41.5	-46.2	10.6	3.71e-03	0	62	0	891289600	54	6247
2026-01-30 08:35:28.92	5.73	13.93	-41.5	-46.3	10.4	3.96e-03	0	62	0	893386752	54	6325
2026-01-30 08:35:29.92	5.59	13.85	-41.5	-46.4	10.1	6.12e-03	0	62	0	895483904	54	6412
2026-01-30 08:35:30.94	5.45	13.78	-41.4	-46.4	10.1	6.41e-03	0	62	0	896532480	54	6368
2026-01-30 08:35:31.95	5.32	13.70	-41.3	-46.4	10.0	7.07e-03	0	62	0	898629632	54	6365
2026-01-30 08:35:32.96	5.18	13.62	-41.3	-46.5	9.8	8.21e-03	0	62	0	900726784	54	6428
2026-01-30 08:35:33.96	5.05	13.55	-41.2	-46.4	9.7	1.08e-02	0	62	0	902823936	54	6406
2026-01-30 08:35:34.97	4.91	13.47	-41.1	-46.5	9.4	1.38e-02	0	62	0	904921088	54	6441
2026-01-30 08:35:35.98	4.78	13.40	-41.0	-46.6	9.3	1.62e-02	0	62	0	905969664	54	6500
2026-01-30 08:35:36.99	4.64	13.32	-41.1	-47.2	8.5	2.91e-02	0	62	0	908066816	54	7014
2026-01-30 08:35:38.00	4.51	13.25	-41.2	-48.2	7.2	9.68e-02	0	62	0	910163968	54	7870
2026-01-30 08:35:39.02	4.38	13.17	-41.3	-49.4	6.0	2.33e-01	0	62	0	912261120	54	8993
2026-01-30 08:35:40.03	4.25	13.10	-41.3	-50.5	5.2	4.25e-01	0	62	0	914358272	54	10176
2026-01-30 08:35:41.04	4.11	13.02	-41.3	-51.4	4.6	8.57e-01	0	62	0	915406848	54	11289
2026-01-30 08:35:42.05	3.98	12.95	-41.2	-52.4	4.2	1.31e+00	0	62	0	917504000	54	12732
2026-01-30 08:35:43.06	3.86	12.87	-41.2	-53.6	3.8	1.45e+00	0	62	104	917504000	54	14660
2026-01-30 08:35:44.07	3.73	12.80	-41.8	-54.2	3.8	1.48e+00	0	62	104	917504000	54	15707
2026-01-30 08:35:45.08	3.60	12.72	-40.2	-54.5	3.8	1.49e+00	0	62	104	917504000	52	18227
2026-01-30 08:35:46.09	3.47	12.65	-40.2	-54.6	3.8	1.49e+00	0	62	104	917504000	52	18363
2026-01-30 08:35:47.10	3.34	12.58	-41.2	-55.6	3.8	1.49e+00	0	62	104	917504000	53	19510
2026-01-30 08:35:48.11	3.22	12.50	-40.1	-54.3	3.8	1.49e+00	0	62	104	917504000	52	17838
2026-01-30 08:35:49.12	3.09	12.43	-40.1	-54.3	3.8	1.49e+00	0	62	104	917504000	51	18913
2026-01-30 08:35:50.13	2.97	12.35	-40.0	-54.3	3.8	1.49e+00	0	62	104	917504000	51	18828
2026-01-30 08:35:51.14	2.84	12.28	-39.9	-54.2	3.8	1.49e+00	0	62	104	917504000	51	18715
2026-01-30 08:35:52.15	2.72	12.20	-40.0	-54.3	3.8	1.49e+00	0	62	104	917504000	51	18898
2026-01-30 08:35:53.16	2.60	12.13	-40.5	-54.9	3.8	1.49e+00	0	62	104	917504000	51	20197
2026-01-30 08:35:54.17	2.47	12.06	-40.6	-54.8	3.8	1.49e+00	0	62	104	917504000	51	19997
2026-01-30 08:35:55.18	2.35	11.98	-40.0	-54.4	3.8	1.49e+00	0	62	104	917504000	51	18985
2026-01-30 08:35:56.19	2.23	11.91	-40.0	-54.3	3.8	1.49e+00	0	62	104	917504000	51	18937
2026-01-30 08:35:57.20	2.11	11.84	-40.3	-54.7	3.8	1.49e+00	0	62	104	917504000	51	19658
2026-01-30 08:35:58.21	1.99	11.76	-40.3	-54.7	3.8	1.49e+00	0	62	104	917504000	51	19620
2026-01-30 08:35:59.22	1.87	11.69	-40.0	-54.4	3.8	1.49e+00	0	62	104	917504000	51	18983
2026-01-30 08:36:00.23	1.75	11.62	-39.9	-54.3	3.8	1.49e+00	0	62	104	917504000	51	18898
2026-01-30 08:36:01.24	1.64	11.54	-40.1	-54.5	3.8	1.49e+00	0	62	104	917504000	51	19290
2026-01-30 08:36:02.25	1.52	11.47	-40.1	-54.5	3.8	1.49e+00	0	62	104	917504000	51	19338
2026-01-30 08:36:03.26	1.40	11.40	-39.9	-54.3	3.8	1.49e+00	0	62	104	917504000	51	18945
2026-01-30 08:36:04.27	1.28	11.32	-39.9	-54.3	3.8	1.49e+00	0	62	104	917504000	51	18907
2026-01-30 08:36:05.28	1.17	11.25	-40.0	-54.4	3.8	1.49e+00	0	62	104	917504000	51	19026
2026-01-30 08:36:06.29	1.05	11.18	-40.0	-54.4	3.8	1.49e+00	0	62	104	917504000	51	19071
2026-01-30 08:36:07.30	0.94	11.11	-39.9	-54.3	3.8	1.49e+00	0	62	104	917504000	51	18939
2026-01-30 08:36:08.31	0.83	11.03	-39.9	-54.3	3.8	1.49e+00	0	62	104	917504000	51	18790
2026-01-30 08:36:09.32	0.71	10.96	-40.0	-54.4	3.8	1.49e+00	0	62	104	917504000	51	18951
2026-01-30 08:36:10.33	0.60	10.89	-40.0	-54.4	3.8	1.49e+00	0	62	104	917504000	51	19063
2026-01-30 08:36:11.34	0.49	10.82	-39.9	-54.4	3.8	1.49e+00	0	62	104	917504000	51	18956
2026-01-30 08:36:12.35	0.38	10.75	-39.9	-54.3	3.8	1.49e+00	0	62	104	917504000	51	18851
2026-01-30 08:36:13.36	0.27	10.67	-40.0	-54.3	3.8	1.49e+00	0	62	104	917504000	51	18848
2026-01-30 08:36:14.37	0.15	10.60	-40.0	-54.4	3.8	1.49e+00	0	62	104	917504000	51	18999
2026-01-30 08:36:15.38	0.05	10.53	-40.0	-54.4	3.8	1.49e+00	0	62	104	917504000	51	19023
2026-01-30 08:36:16.39	359.94	10.46	-39.9	-54.3	3.8	1.49e+00	0	62	104	917504000	51	18813
2026-01-30 08:36:17.40	359.83	10.39	-39.9	-54.3	3.8	1.49e+00	0	62	104	917504000	51	18929
2026-01-30 08:36:18.41	359.72	10.32	-40.0	-54.4	3.8	1.49e+00	0	62	104	917504000	51	18952
2026-01-30 08:36:19.42	359.61	10.24	-40.0	-54.4	3.8	1.49e+00	0	62	104	917504000	51	19042
2026-01-30 08:36:20.43	359.50	10.17	-39.9	-54.3	3.8	1.49e+00	0	62	104	917504000	51	18777
2026-01-30 08:36:21.44	359.40	10.10	-39.9	-54.3	3.8	1.49e+00	0	62	104	917504000	51	18908
2026-01-30 08:36:22.45	359.29	10.03	-39.9	-54.3	3.8	1.49e+00	0	62	104	917504000	51	18888
2026-01-30 08:36:23.46	359.19	9.96	-40.0	-54.4	3.8	1.49e+00	0	62	104	917504000	51	18955
2026-01-30 08:36:24.47	359.08	9.89	-39.9	-54.3	3.8	1.49e+00	0	62	104	917504000	51	18799
2026-01-30 08:36:25.48	358.98	9.82	-39.9	-54.3	3.8	1.49e+00	0	62	104	917504000	51	18788
2026-01-30 08:36:26.49	358.87	9.75	-40.0	-54.4	3.8	1.49e+00	0	62	104	917504000	51	18973
2026-01-30 08:36:27.49	358.77	9.68	-39.9	-54.3	3.8	1.49e+00	0	62	104	917504000	51	18933
2026-01-30 08:36:28.50	358.67	9.61	-39.9	-54.3	3.8	1.49e+00	0	62	104	917504000	51	18820
2026-01-30 08:36:29.51	358.56	9.54	-39.9	-54.3	3.8	1.49e+00	0	62	104	917504000	51	18812
2026-01-30 08:36:30.52	358.46	9.47	-39.9	-54.4	3.8	1.49e+00	0	62	104	917504000	51	18972
2026-01-30 08:36:31.53	358.36	9.40	-39.9	-54.3	3.8	1.49e+00	0	62	104	917504000	51	18883
2026-01-30 08:36:32.54	358.26	9.33	-39.9	-54.3	3.8	1.49e+00	0	62	104	917504000	51	18845
2026-01-30 08:36:33.55	358.16	9.26	-39.9	-54.3	3.8	1.49e+00	0	62	104	917504000	51	18795
2026-01-30 08:36:34.56	358.06	9.19	-39.9	-54.3	3.8	1.49e+00	0	62	104	917504000	51	18939
2026-01-30 08:36:35.57	357.96	9.12	-39.9	-54.3	3.8	1.49e+00	0	62	104	917504000	51	18788
2026-01-30 08:36:36.58	357.86	9.05	-39.9	-54.3	3.8	1.49e+00	0	62	104	917504000	51	18781
2026-01-30 08:36:37.59	357.76	8.98	-39.9	-54.3	3.8	1.49e+00	0	62	104	917504000	51	18784
2026-01-30 08:36:38.60	357.67	8.91	-39.9	-54.3	3.8	1.49e+00	0	62	104	917504000	51	18836
2026-01-30 08:36:39.61	357.57	8.84	-39.8	-54.2	3.8	1.49e+00	0	62	104	917504000	51	18707
2026-01-30 08:36:40.62	357.47	8.77	-39.9	-54.3	3.8	1.49e+00	0	62	104	917504000	51	18788
2026-01-30 08:36:41.63	357.37	8.71	-39.9	-54.3	3.8	1.49e+00	0	62	104	917504000	51	18787
2026-01-30 08:36:42.64	357.28	8.64	-39.9	-54.3	3.8	1.49e+00	0	62	104	917504000	51	18817
2026-01-30 08:36:43.65	357.18	8.57	-39.8	-54.2	3.8	1.49e+00	0	62	104	917504000	51	18637
2026-01-30 08:36:44.66	357.09	8.50	-39.8	-54.3	3.8	1.49e+00	0	62	104	917504000	51	18788
2026-01-30 08:36:45.67	356.99	8.43	-39.9	-54.3	3.8	1.49e+00	0	62	104	917504000	51	18767
2026-01-30 08:36:46.68	356.90	8.36	-39.9	-54.3	3.8	1.49e+00	0	62	104	917504000	51	18755
2026-01-30 08:36:47.69	356.81	8.29	-39.8	-54.2	3.8	1.49e+00	0	62	104	917504000	51	18725
2026-01-30 08:36:48.70	356.71	8.23	-39.8	-54.2	3.8	1.49e+00	0	62	104	917504000	51	18670
2026-01-30 08:36:49.71	356.62	8.16	-39.9	-54.3	3.8	1.49e+00	0	62	104	917504000	51	18773
2026-01-30 08:36:50.72	356.53	8.09	-39.9	-54.3	3.8	1.49e+00	0	62	104	917504000	51	18763
2026-01-30 08:36:51.73	356.43	8.02	-39.9	-54.3	3.8	1.49e+00	0	62	104	917504000	51	18797
2026-01-30 08:36:52.74	356.34	7.95	-39.9	-54.3	3.8	1.49e+00	0	62	104	917504000	51	18800
2026-01-30 08:36:53.75	356.25	7.89	-41.6	-56.0	3.8	1.49e+00	0	62	104	917504000	53	20332
2026-01-30 08:36:54.76	356.16	7.82	-44.7	-59.3	3.8	1.49e+00	0	62	104	917504000	59	21047
2026-01-30 08:36:55.77	356.07	7.75	-44.9	-59.7	3.8	1.49e+00	0	62	104	917504000	60	20787
2026-01-30 08:36:56.78	355.98	7.69	-45.0	-59.8	3.8	1.49e+00	0	62	104	917504000	60	21136
2026-01-30 08:36:57.79	355.89	7.62	-45.3	-60.1	3.9	1.49e+00	0	62	104	917504000	61	20580
2026-01-30 08:36:58.80	355.80	7.55	-45.3	-60.1	3.8	1.49e+00	0	62	104	917504000	61	20629
2026-01-30 08:36:59.81	355.72	7.48	-45.3	-60.2	3.8	1.49e+00	0	62	104	917504000	61	20791
2026-01-30 08:37:00.82	355.63	7.42	-45.3	-60.2	3.8	1.49e+00	0	62	104	917504000	61	20777
2026-01-30 08:37:01.83	355.54	7.35	-45.2	-60.1	3.8	1.49e+00	0	62	104	917504000	61	20660
2026-01-30 08:37:02.84	355.45	7.28	-44.5	-60.1	3.9	1.49e+00	0	62	104	917504000	61	20700
2026-01-30 08:37:03.85	355.37	7.22	-42.4	-59.9	3.8	1.49e+00	0	62	104	917504000	59	22720
2026-01-30 08:37:04.86	355.28	7.15	-45.1	-60.0	3.8	1.49e+00	0	62	104	917504000	60	21702
2026-01-30 08:37:05.88	355.19	7.08	-45.1	-60.0	3.8	1.49e+00	0	62	104	917504000	60	21605
2026-01-30 08:37:06.89	355.11	7.02	-45.0	-60.0	3.8	1.49e+00	0	62	104	917504000	60	21522
2026-01-30 08:37:07.90	355.02	6.95	-45.0	-59.9	3.8	1.49e+00	0	62	104	917504000	60	21426
2026-01-30 08:37:08.91	354.94	6.89	-45.0	-59.9	3.8	1.49e+00	0	62	104	917504000	60	21367
2026-01-30 08:37:09.92	354.85	6.82	-44.9	-59.9	3.8	1.49e+00	0	62	104	917504000	60	21294
2026-01-30 08:37:10.93	354.77	6.75	-44.9	-59.8	3.8	1.49e+00	0	62	104	917504000	60	21259
2026-01-30 08:37:11.94	354.69	6.69	-45.0	-59.8	3.8	1.49e+00	0	62	104	917504000	60	21204
2026-01-30 08:37:12.95	354.60	6.62	-45.0	-59.9	3.8	1.49e+00	0	62	104	917504000	60	21288
2026-01-30 08:37:13.96	354.52	6.56	-45.0	-59.8	3.8	1.49e+00	0	62	104	917504000	60	21251
2026-01-30 08:37:14.97	354.44	6.49	-45.0	-59.8	3.8	1.49e+00	0	62	104	917504000	60	21254
2026-01-30 08:37:15.98	354.35	6.43	-44.9	-59.8	3.8	1.49e+00	0	62	104	917504000	60	21189
2026-01-30 08:37:16.99	354.27	6.36	-45.0	-59.9	3.8	1.49e+00	0	62	104	917504000	60	21292
2026-01-30 08:37:18.00	354.19	6.30	-45.0	-59.8	3.8	1.49e+00	0	62	104	917504000	60	21194
2026-01-30 08:37:19.01	354.11	6.23	-44.6	-59.8	3.8	1.49e+00	0	62	104	917504000	60	21183
