passes_logs/2026/01/30/R2.0S_Moscow/R2.0S_Moscow__20260130_015440_NOAA_20_JPSS-1_rec.log

#Pass ID: 20260130_015440_NOAA 20 (JPSS-1)
#Satellite: NOAA 20 (JPSS-1)
#Configuration: NOAA 20
#almurnet v.1.7.20251203
#Start time: 2026-01-30 01:54:40

#Version: 2.2.20231116
#Station: R2.0S_Moscow
#Location: 37.707566 lon 55.798166 lat
#TLE: 1 43013U 17073A   26028.86313978  .00000144  00000+0  89200-4 0  9993
#TLE: 2 43013  98.7648 329.6571 0000891  20.0014 340.1197 14.19541559424709

#Time	Az	El	Level	Level2	SNR	BER	BlckErr	Temp	State	Recorded	gain1	gain2
2026-01-30 01:54:40.10	8.75	2.01	-39.7	-54.1	3.8	1.49e+00	0	51	0	0	51	18392
2026-01-30 01:54:41.10	8.67	2.06	-39.7	-54.1	3.8	1.49e+00	0	52	104	0	51	18365
2026-01-30 01:54:42.11	8.59	2.11	-39.7	-54.1	3.8	1.49e+00	0	52	104	0	51	18371
2026-01-30 01:54:43.12	8.50	2.16	-39.7	-54.1	3.8	1.49e+00	0	52	104	0	51	18375
2026-01-30 01:54:44.13	8.42	2.21	-39.7	-54.1	3.8	1.49e+00	0	52	104	0	51	18334
2026-01-30 01:54:45.14	8.33	2.26	-39.7	-54.1	3.8	1.49e+00	0	52	104	0	51	18346
2026-01-30 01:54:46.15	8.24	2.31	-39.7	-54.1	3.8	1.49e+00	0	52	104	0	51	18310
2026-01-30 01:54:47.16	8.16	2.36	-39.7	-54.1	3.8	1.49e+00	0	52	104	0	51	18405
2026-01-30 01:54:48.17	8.07	2.41	-39.7	-54.1	3.8	1.49e+00	0	52	104	0	51	18347
2026-01-30 01:54:49.18	7.98	2.47	-39.7	-54.1	3.8	1.49e+00	0	52	104	0	51	18365
2026-01-30 01:54:50.19	7.90	2.52	-39.7	-54.1	3.8	1.49e+00	0	53	104	0	51	18378
2026-01-30 01:54:51.20	7.81	2.57	-39.7	-54.1	3.8	1.49e+00	0	53	104	0	51	18334
2026-01-30 01:54:52.21	7.72	2.62	-39.7	-54.1	3.8	1.49e+00	0	53	104	0	51	18380
2026-01-30 01:54:53.22	7.63	2.67	-39.7	-54.1	3.8	1.49e+00	0	53	104	0	51	18352
2026-01-30 01:54:54.24	7.55	2.72	-39.7	-54.1	3.8	1.49e+00	0	53	104	0	51	18345
2026-01-30 01:54:55.25	7.46	2.77	-39.6	-54.0	3.8	1.49e+00	0	53	104	0	51	18286
2026-01-30 01:54:56.26	7.37	2.83	-39.6	-54.0	3.8	1.49e+00	0	53	104	0	51	18255
2026-01-30 01:54:57.27	7.28	2.88	-39.6	-54.1	3.8	1.49e+00	0	53	104	0	51	18326
2026-01-30 01:54:58.28	7.19	2.93	-39.6	-54.1	3.8	1.49e+00	0	53	104	0	51	18322
2026-01-30 01:54:59.29	7.10	2.98	-39.6	-54.0	3.8	1.49e+00	0	53	104	0	51	18230
2026-01-30 01:55:00.30	7.01	3.03	-39.6	-54.0	3.8	1.49e+00	0	53	104	0	51	18179
2026-01-30 01:55:01.31	6.92	3.08	-39.6	-54.0	3.8	1.49e+00	0	53	104	0	51	18203
2026-01-30 01:55:02.32	6.83	3.14	-39.6	-54.0	3.8	1.49e+00	0	54	104	0	51	18197
2026-01-30 01:55:03.33	6.74	3.19	-39.6	-54.0	3.8	1.49e+00	0	54	104	0	51	18209
2026-01-30 01:55:04.34	6.64	3.24	-39.6	-54.0	3.8	1.49e+00	0	54	104	0	51	18169
2026-01-30 01:55:05.35	6.55	3.29	-39.6	-54.0	3.8	1.49e+00	0	54	104	0	51	18213
2026-01-30 01:55:06.36	6.46	3.34	-39.6	-54.0	3.8	1.49e+00	0	54	104	0	51	18209
2026-01-30 01:55:07.37	6.37	3.39	-39.6	-54.0	3.8	1.49e+00	0	54	104	0	51	18176
2026-01-30 01:55:08.38	6.27	3.45	-39.6	-54.0	3.8	1.49e+00	0	54	104	0	51	18136
2026-01-30 01:55:09.40	6.18	3.50	-39.6	-54.0	3.8	1.49e+00	0	54	104	0	51	18116
2026-01-30 01:55:10.41	6.09	3.55	-39.6	-54.0	3.8	1.49e+00	0	54	104	0	51	18171
2026-01-30 01:55:11.42	5.99	3.60	-39.6	-54.0	3.8	1.49e+00	0	54	104	0	51	18166
2026-01-30 01:55:12.43	5.90	3.65	-39.6	-54.0	3.8	1.49e+00	0	54	104	0	51	18184
2026-01-30 01:55:13.43	5.80	3.70	-39.6	-54.0	3.8	1.49e+00	0	54	104	0	51	18163
2026-01-30 01:55:14.45	5.71	3.76	-39.6	-54.0	3.8	1.49e+00	0	54	104	0	51	18164
2026-01-30 01:55:15.46	5.61	3.81	-39.6	-54.0	3.8	1.49e+00	0	54	104	0	51	18197
2026-01-30 01:55:16.47	5.52	3.86	-39.6	-54.0	3.8	1.49e+00	0	54	104	0	51	18178
2026-01-30 01:55:17.48	5.42	3.91	-39.6	-54.0	3.8	1.49e+00	0	55	104	0	51	18125
2026-01-30 01:55:18.49	5.32	3.96	-39.6	-54.0	3.8	1.49e+00	0	54	104	0	51	18137
2026-01-30 01:55:19.50	5.23	4.02	-39.6	-54.0	3.8	1.49e+00	0	55	104	0	51	18169
2026-01-30 01:55:20.51	5.13	4.07	-39.6	-54.0	3.8	1.49e+00	0	55	104	0	51	18157
2026-01-30 01:55:21.52	5.03	4.12	-39.6	-54.0	3.8	1.49e+00	0	55	104	0	51	18181
2026-01-30 01:55:22.53	4.93	4.17	-39.6	-54.0	3.8	1.49e+00	0	55	104	0	51	18183
2026-01-30 01:55:23.54	4.84	4.23	-39.6	-54.0	3.8	1.49e+00	0	55	104	0	51	18206
2026-01-30 01:55:24.55	4.74	4.28	-39.6	-54.0	3.8	1.49e+00	0	55	104	0	51	18182
2026-01-30 01:55:25.56	4.64	4.33	-39.6	-54.0	3.8	1.49e+00	0	55	104	0	51	18188
2026-01-30 01:55:26.57	4.54	4.38	-39.6	-54.0	3.8	1.49e+00	0	55	104	0	51	18205
2026-01-30 01:55:27.58	4.44	4.43	-39.6	-54.0	3.8	1.49e+00	0	55	104	0	51	18194
2026-01-30 01:55:28.59	4.34	4.49	-39.6	-54.0	3.8	1.49e+00	0	55	104	0	51	18208
2026-01-30 01:55:29.60	4.24	4.54	-39.6	-54.0	3.8	1.49e+00	0	55	104	0	51	18180
2026-01-30 01:55:30.61	4.14	4.59	-39.6	-54.0	3.8	1.49e+00	0	55	104	0	51	18233
2026-01-30 01:55:31.62	4.04	4.64	-39.6	-54.0	3.8	1.49e+00	0	55	104	0	51	18202
2026-01-30 01:55:32.63	3.93	4.70	-39.6	-54.0	3.8	1.49e+00	0	55	104	0	51	18194
2026-01-30 01:55:33.64	3.83	4.75	-39.6	-54.0	3.8	1.49e+00	0	55	104	0	51	18219
2026-01-30 01:55:34.65	3.73	4.80	-39.6	-54.0	3.8	1.49e+00	0	55	104	0	51	18193
2026-01-30 01:55:35.66	3.63	4.85	-39.6	-54.0	3.8	1.49e+00	0	55	104	0	51	18201
2026-01-30 01:55:36.67	3.52	4.90	-39.6	-54.0	3.8	1.49e+00	0	55	104	0	51	18172
2026-01-30 01:55:37.68	3.42	4.96	-39.6	-54.0	3.8	1.49e+00	0	55	104	0	51	18208
2026-01-30 01:55:38.69	3.32	5.01	-39.6	-54.0	3.8	1.49e+00	0	55	104	0	51	18203
2026-01-30 01:55:39.70	3.21	5.06	-39.6	-54.0	3.8	1.49e+00	0	56	104	0	51	18209
2026-01-30 01:55:40.71	3.11	5.11	-39.6	-54.0	3.8	1.49e+00	0	55	104	0	51	18208
2026-01-30 01:55:41.72	3.00	5.17	-39.6	-54.0	3.8	1.49e+00	0	56	104	0	51	18163
2026-01-30 01:55:42.73	2.90	5.22	-39.6	-54.0	3.8	1.49e+00	0	55	104	0	51	18247
2026-01-30 01:55:43.74	2.79	5.27	-39.6	-54.0	3.8	1.49e+00	0	56	104	0	51	18223
2026-01-30 01:55:44.75	2.68	5.32	-39.6	-54.0	3.8	1.49e+00	0	56	104	0	51	18181
2026-01-30 01:55:45.76	2.58	5.38	-39.6	-54.0	3.8	1.49e+00	0	56	104	0	51	18198
2026-01-30 01:55:46.78	2.47	5.43	-39.6	-54.0	3.8	1.49e+00	0	56	104	0	51	18161
2026-01-30 01:55:47.79	2.36	5.48	-39.6	-54.0	3.8	1.49e+00	0	56	104	0	51	18225
2026-01-30 01:55:48.80	2.25	5.53	-39.6	-54.0	3.8	1.49e+00	0	56	104	0	51	18207
2026-01-30 01:55:49.81	2.15	5.59	-39.6	-54.0	3.8	1.49e+00	0	56	104	0	51	18157
2026-01-30 01:55:50.82	2.04	5.64	-39.6	-54.0	3.8	1.49e+00	0	56	104	0	51	18240
2026-01-30 01:55:51.83	1.93	5.69	-39.6	-54.0	3.8	1.49e+00	0	56	104	0	51	18139
2026-01-30 01:55:52.84	1.82	5.74	-39.6	-54.0	3.8	1.49e+00	0	56	104	0	51	18168
2026-01-30 01:55:53.85	1.71	5.80	-39.6	-54.0	3.8	1.49e+00	0	56	104	0	51	18175
2026-01-30 01:55:54.86	1.60	5.85	-39.6	-54.0	3.8	1.49e+00	0	56	104	0	51	18230
2026-01-30 01:55:55.87	1.49	5.90	-39.6	-54.0	3.8	1.49e+00	0	56	104	0	51	18221
2026-01-30 01:55:56.88	1.38	5.96	-39.6	-54.0	3.8	1.49e+00	0	56	104	0	51	18215
2026-01-30 01:55:57.89	1.27	6.01	-39.6	-54.0	3.8	1.49e+00	0	56	104	0	51	18176
2026-01-30 01:55:58.90	1.15	6.06	-39.6	-54.0	3.8	1.49e+00	0	56	104	0	51	18184
2026-01-30 01:55:59.91	1.04	6.11	-39.6	-54.0	3.8	1.49e+00	0	56	104	0	51	18267
2026-01-30 01:56:00.92	0.93	6.17	-39.6	-54.0	3.8	1.49e+00	0	56	104	0	51	18233
2026-01-30 01:56:01.93	0.82	6.22	-39.6	-54.0	3.8	1.49e+00	0	56	104	0	51	18222
2026-01-30 01:56:02.95	0.70	6.27	-39.6	-54.0	3.8	1.49e+00	0	56	104	0	51	18204
2026-01-30 01:56:03.96	0.59	6.32	-39.6	-54.0	3.8	1.49e+00	0	56	104	0	51	18217
2026-01-30 01:56:04.97	0.47	6.38	-39.6	-54.0	3.8	1.49e+00	0	56	104	0	51	18199
2026-01-30 01:56:05.98	0.36	6.43	-39.6	-54.0	3.8	1.49e+00	0	56	104	0	51	18181
2026-01-30 01:56:06.99	0.24	6.48	-39.6	-54.0	3.8	1.49e+00	0	56	104	0	51	18212
2026-01-30 01:56:08.00	0.13	6.53	-39.6	-54.0	3.8	1.49e+00	0	56	104	0	51	18215
2026-01-30 01:56:09.01	0.01	6.59	-39.6	-54.0	3.8	1.49e+00	0	57	104	0	51	18195
2026-01-30 01:56:10.02	359.89	6.64	-39.6	-54.0	3.8	1.49e+00	0	57	104	0	51	18233
2026-01-30 01:56:11.03	359.78	6.69	-39.6	-54.0	3.8	1.49e+00	0	57	104	0	51	18187
2026-01-30 01:56:12.04	359.66	6.74	-39.6	-54.0	3.8	1.49e+00	0	57	104	0	51	18202
2026-01-30 01:56:13.05	359.54	6.80	-39.6	-54.0	3.8	1.49e+00	0	57	104	0	51	18281
2026-01-30 01:56:14.06	359.42	6.85	-39.6	-54.0	3.8	1.49e+00	0	57	104	0	51	18193
2026-01-30 01:56:15.07	359.30	6.90	-39.6	-54.0	3.8	1.49e+00	0	57	104	0	51	18250
2026-01-30 01:56:16.08	359.18	6.95	-39.6	-54.0	3.8	1.49e+00	0	57	104	0	51	18188
2026-01-30 01:56:17.09	359.06	7.01	-39.6	-54.0	3.8	1.49e+00	0	57	104	0	51	18219
2026-01-30 01:56:18.10	358.94	7.06	-39.6	-54.0	3.8	1.49e+00	0	57	104	0	51	18160
2026-01-30 01:56:19.12	358.82	7.11	-39.6	-54.0	3.8	1.49e+00	0	57	104	0	51	18195
2026-01-30 01:56:20.13	358.70	7.16	-39.6	-54.0	3.8	1.49e+00	0	57	104	0	51	18194
2026-01-30 01:56:21.14	358.58	7.22	-39.6	-54.0	3.8	1.49e+00	0	57	104	0	51	18175
2026-01-30 01:56:22.15	358.46	7.27	-39.6	-54.0	3.8	1.49e+00	0	57	104	0	51	18225
2026-01-30 01:56:23.16	358.34	7.32	-39.6	-54.0	3.8	1.49e+00	0	57	104	0	51	18219
2026-01-30 01:56:24.17	358.21	7.37	-39.6	-54.0	3.8	1.49e+00	0	57	104	0	51	18240
2026-01-30 01:56:25.18	358.09	7.43	-39.6	-54.0	3.8	1.49e+00	0	57	104	0	51	18204
2026-01-30 01:56:26.19	357.97	7.48	-39.6	-54.0	3.8	1.49e+00	0	57	104	0	51	18199
2026-01-30 01:56:27.20	357.84	7.53	-39.6	-54.0	3.8	1.49e+00	0	57	104	0	51	18228
2026-01-30 01:56:28.21	357.72	7.58	-39.6	-54.0	3.8	1.49e+00	0	57	104	0	51	18210
2026-01-30 01:56:29.22	357.59	7.64	-39.6	-54.0	3.8	1.49e+00	0	57	104	0	51	18204
2026-01-30 01:56:30.23	357.47	7.69	-39.6	-54.0	3.8	1.49e+00	0	57	104	0	51	18206
2026-01-30 01:56:31.24	357.34	7.74	-39.6	-54.0	3.8	1.49e+00	0	57	104	0	51	18192
2026-01-30 01:56:32.25	357.21	7.79	-39.6	-54.0	3.8	1.49e+00	0	57	104	0	51	18210
2026-01-30 01:56:33.26	357.09	7.84	-39.6	-54.0	3.8	1.49e+00	0	57	104	0	51	18219
2026-01-30 01:56:34.27	356.96	7.90	-39.6	-54.0	3.8	1.49e+00	0	57	104	0	51	18183
2026-01-30 01:56:35.28	356.83	7.95	-39.6	-54.0	3.8	1.49e+00	0	57	104	0	51	18229
2026-01-30 01:56:36.29	356.70	8.00	-39.6	-54.0	3.8	1.49e+00	0	57	104	0	51	18253
2026-01-30 01:56:37.30	356.57	8.05	-39.6	-54.0	3.8	1.49e+00	0	57	104	0	51	18305
2026-01-30 01:56:38.31	356.44	8.11	-39.8	-54.2	3.8	1.49e+00	0	57	104	0	51	18583
2026-01-30 01:56:39.32	356.31	8.16	-39.7	-54.2	3.8	1.49e+00	0	57	104	0	51	18579
2026-01-30 01:56:40.33	356.18	8.21	-39.8	-54.2	3.8	1.49e+00	0	57	104	0	51	18617
2026-01-30 01:56:41.34	356.05	8.26	-39.9	-54.4	3.8	1.49e+00	0	57	104	0	51	18958
2026-01-30 01:56:42.35	355.92	8.31	-39.8	-54.2	3.8	1.49e+00	0	58	104	0	51	18665
2026-01-30 01:56:43.36	355.79	8.36	-39.9	-54.3	3.8	1.49e+00	0	58	104	0	51	18757
2026-01-30 01:56:44.37	355.66	8.42	-39.9	-54.3	3.8	1.49e+00	0	57	104	0	51	18793
2026-01-30 01:56:45.38	355.53	8.47	-40.0	-54.4	3.8	1.49e+00	0	58	104	0	51	19116
2026-01-30 01:56:46.39	355.39	8.52	-39.9	-54.3	3.8	1.49e+00	0	58	104	0	51	18777
2026-01-30 01:56:47.40	355.26	8.57	-39.9	-54.3	3.8	1.49e+00	0	58	104	0	51	18867
2026-01-30 01:56:48.41	355.12	8.62	-40.0	-54.4	3.8	1.49e+00	0	58	104	0	51	19043
2026-01-30 01:56:49.42	354.99	8.68	-40.1	-54.5	3.8	1.49e+00	0	58	104	0	51	19219
2026-01-30 01:56:50.43	354.85	8.73	-39.9	-54.4	3.8	1.49e+00	0	58	104	0	51	18980
2026-01-30 01:56:51.44	354.72	8.78	-40.0	-54.4	3.8	1.49e+00	0	58	104	0	51	18972
2026-01-30 01:56:52.45	354.58	8.83	-40.0	-54.5	3.8	1.49e+00	0	58	104	0	51	19234
2026-01-30 01:56:53.46	354.45	8.88	-40.1	-54.5	3.8	1.49e+00	0	58	104	0	51	19305
2026-01-30 01:56:54.47	354.31	8.93	-40.0	-54.4	3.8	1.49e+00	0	58	104	0	51	19049
2026-01-30 01:56:55.48	354.17	8.98	-40.0	-54.4	3.8	1.49e+00	0	58	104	0	51	19092
2026-01-30 01:56:56.49	354.03	9.04	-40.2	-54.6	3.8	1.49e+00	0	58	104	0	51	19463
2026-01-30 01:56:57.50	353.89	9.09	-40.1	-54.5	3.8	1.49e+00	0	58	104	0	51	19381
2026-01-30 01:56:58.51	353.76	9.14	-40.0	-54.4	3.8	1.49e+00	0	58	104	0	51	19128
2026-01-30 01:56:59.52	353.62	9.19	-40.1	-54.5	3.8	1.49e+00	0	58	104	0	51	19317
2026-01-30 01:57:00.53	353.48	9.24	-40.3	-54.7	3.8	1.49e+00	0	58	104	0	51	19735
2026-01-30 01:57:01.54	353.34	9.29	-40.2	-54.6	3.8	1.49e+00	0	58	104	0	51	19600
2026-01-30 01:57:02.55	353.19	9.34	-40.1	-54.5	3.8	1.49e+00	0	58	104	0	51	19328
2026-01-30 01:57:03.56	353.05	9.39	-40.2	-54.6	3.8	1.49e+00	0	58	104	0	51	19555
2026-01-30 01:57:04.57	352.91	9.44	-40.4	-54.8	3.8	1.49e+00	0	58	104	0	51	19993
2026-01-30 01:57:05.58	352.77	9.49	-40.3	-54.7	3.8	1.49e+00	0	58	104	0	51	19766
2026-01-30 01:57:06.59	352.62	9.54	-40.3	-54.7	3.8	1.49e+00	0	58	104	0	51	19716
2026-01-30 01:57:07.60	352.48	9.60	-40.4	-54.8	3.8	1.49e+00	0	58	104	0	51	19848
2026-01-30 01:57:08.61	352.34	9.65	-40.5	-54.9	3.8	1.49e+00	0	58	104	0	51	20203
2026-01-30 01:57:09.62	352.19	9.70	-40.4	-54.8	3.8	1.49e+00	0	58	104	0	51	20071
2026-01-30 01:57:10.63	352.05	9.75	-40.5	-54.9	3.8	1.49e+00	0	58	104	0	51	20132
2026-01-30 01:57:11.64	351.90	9.80	-40.4	-54.9	3.8	1.49e+00	0	58	104	0	51	20095
2026-01-30 01:57:12.65	351.75	9.85	-40.5	-55.0	3.8	1.49e+00	0	58	104	0	51	20312
2026-01-30 01:57:13.65	351.61	9.90	-40.5	-54.9	3.8	1.49e+00	0	58	104	0	51	20288
2026-01-30 01:57:14.67	351.46	9.95	-40.4	-54.9	3.8	1.49e+00	0	58	104	0	51	20080
2026-01-30 01:57:15.68	351.31	10.00	-40.5	-54.9	3.8	1.49e+00	0	58	104	0	51	20119
2026-01-30 01:57:16.68	351.17	10.05	-40.6	-55.1	3.8	1.49e+00	0	59	104	0	51	20571
2026-01-30 01:57:17.70	351.02	10.10	-40.5	-54.9	3.8	1.49e+00	0	58	104	0	51	20288
2026-01-30 01:57:18.70	350.87	10.15	-40.4	-54.9	3.8	1.49e+00	0	58	104	0	51	20132
2026-01-30 01:57:19.71	350.72	10.20	-40.6	-55.0	3.8	1.49e+00	0	59	104	0	51	20353
2026-01-30 01:57:20.72	350.57	10.24	-40.7	-55.1	3.8	1.49e+00	0	58	104	0	51	20697
2026-01-30 01:57:21.73	350.42	10.29	-40.6	-55.0	3.8	1.49e+00	0	59	104	0	51	20374
2026-01-30 01:57:22.74	350.27	10.34	-40.5	-55.0	3.8	1.49e+00	0	59	104	0	51	20343
2026-01-30 01:57:23.75	350.11	10.39	-40.7	-55.1	3.8	1.49e+00	0	59	104	0	51	20660
2026-01-30 01:57:24.76	349.96	10.44	-40.6	-55.1	3.8	1.49e+00	0	58	104	0	51	20594
2026-01-30 01:57:25.77	349.81	10.49	-40.6	-55.0	3.8	1.49e+00	0	59	104	0	51	20508
2026-01-30 01:57:26.78	349.65	10.54	-40.7	-55.1	3.8	1.49e+00	0	59	104	0	51	20730
2026-01-30 01:57:27.79	349.50	10.59	-40.6	-55.0	3.8	1.49e+00	0	59	104	0	52	19297
2026-01-30 01:57:28.80	349.35	10.64	-40.8	-55.2	3.8	1.49e+00	0	59	104	0	52	19818
2026-01-30 01:57:29.81	349.19	10.69	-40.5	-54.9	3.8	1.49e+00	0	58	104	0	52	19166
2026-01-30 01:57:30.82	349.04	10.73	-40.7	-55.2	3.8	1.49e+00	0	59	104	0	52	19695
2026-01-30 01:57:31.82	348.88	10.78	-40.7	-55.2	3.8	1.49e+00	0	59	104	0	52	19681
2026-01-30 01:57:32.84	348.72	10.83	-40.9	-55.4	3.8	1.49e+00	0	59	104	0	52	20239
2026-01-30 01:57:33.84	348.57	10.88	-40.6	-55.1	3.8	1.49e+00	0	59	104	0	52	19523
2026-01-30 01:57:34.85	348.41	10.93	-40.8	-55.3	3.8	1.49e+00	0	59	104	0	52	19951
2026-01-30 01:57:35.86	348.25	10.98	-40.9	-55.5	3.8	1.49e+00	0	59	104	0	52	20434
2026-01-30 01:57:36.87	348.09	11.02	-40.9	-55.4	3.8	1.49e+00	0	59	104	0	52	20273
2026-01-30 01:57:37.88	347.93	11.07	-40.8	-55.3	3.8	1.49e+00	0	59	104	0	52	19938
2026-01-30 01:57:38.89	347.77	11.12	-40.9	-55.5	3.8	1.49e+00	0	59	104	0	52	20391
2026-01-30 01:57:39.90	347.61	11.17	-41.0	-55.5	3.8	1.49e+00	0	59	104	0	52	20453
2026-01-30 01:57:40.91	347.45	11.21	-40.9	-55.4	3.8	1.49e+00	0	59	104	0	52	20089
2026-01-30 01:57:41.92	347.29	11.26	-40.9	-55.4	3.8	1.49e+00	0	59	104	0	52	20250
2026-01-30 01:57:42.93	347.13	11.31	-41.0	-55.5	3.8	1.49e+00	0	59	104	0	52	20416
2026-01-30 01:57:43.94	346.97	11.35	-40.9	-55.4	3.8	1.49e+00	0	59	104	0	52	20143
2026-01-30 01:57:44.95	346.80	11.40	-40.8	-55.3	3.8	1.49e+00	0	59	104	0	52	19961
2026-01-30 01:57:45.96	346.64	11.45	-40.9	-55.4	3.8	1.49e+00	0	59	104	0	52	20281
2026-01-30 01:57:46.96	346.48	11.49	-40.9	-55.4	3.8	1.49e+00	0	59	104	0	52	20242
2026-01-30 01:57:47.98	346.31	11.54	-40.7	-55.2	3.8	1.49e+00	0	59	104	0	52	19751
2026-01-30 01:57:48.98	346.15	11.59	-40.6	-55.1	3.8	1.49e+00	0	59	104	0	52	19522
2026-01-30 01:57:49.99	345.98	11.63	-40.9	-55.4	3.8	1.49e+00	0	59	104	0	52	20118
2026-01-30 01:57:51.00	345.82	11.68	-40.8	-55.3	3.8	1.49e+00	0	59	104	0	52	20017
2026-01-30 01:57:52.01	345.65	11.72	-40.6	-55.0	3.8	1.49e+00	0	59	104	0	52	19301
2026-01-30 01:57:53.02	345.48	11.77	-40.5	-55.0	3.8	1.49e+00	0	59	104	0	52	19237
2026-01-30 01:57:54.03	345.31	11.81	-40.8	-55.3	3.8	1.49e+00	0	59	104	0	52	19954
2026-01-30 01:57:55.04	345.15	11.86	-40.6	-55.1	3.8	1.49e+00	0	59	104	0	52	19555
2026-01-30 01:57:56.05	344.98	11.91	-40.4	-54.9	3.8	1.49e+00	0	59	104	0	52	19063
2026-01-30 01:57:57.06	344.81	11.95	-40.6	-55.0	3.8	1.49e+00	0	59	104	0	52	19356
2026-01-30 01:57:58.07	344.64	12.00	-40.6	-55.1	3.8	1.49e+00	0	59	104	0	52	19428
2026-01-30 01:57:59.08	344.47	12.04	-40.5	-55.0	3.8	1.49e+00	0	59	104	0	52	19237
2026-01-30 01:58:00.09	344.30	12.08	-40.5	-54.9	3.8	1.49e+00	0	59	104	0	52	19100
2026-01-30 01:58:01.10	344.12	12.13	-40.5	-54.9	3.8	1.49e+00	0	59	104	0	52	19144
2026-01-30 01:58:02.11	343.95	12.17	-40.5	-55.0	3.8	1.49e+00	0	59	104	0	52	19221
2026-01-30 01:58:03.12	343.78	12.22	-40.6	-55.1	3.8	1.49e+00	0	59	104	0	52	19477
2026-01-30 01:58:04.13	343.61	12.26	-40.4	-54.9	3.8	1.49e+00	0	59	104	0	52	19082
2026-01-30 01:58:05.14	343.43	12.30	-40.4	-54.9	3.8	1.49e+00	0	59	104	0	52	19021
2026-01-30 01:58:06.15	343.26	12.35	-40.6	-55.0	3.8	1.49e+00	0	59	104	0	52	19383
2026-01-30 01:58:07.16	343.08	12.39	-40.5	-55.0	3.8	1.49e+00	0	59	104	0	52	19208
2026-01-30 01:58:08.17	342.91	12.43	-40.4	-54.8	3.8	1.49e+00	0	59	104	0	52	18921
2026-01-30 01:58:09.18	342.73	12.48	-40.3	-54.8	3.8	1.49e+00	0	59	104	0	52	18814
2026-01-30 01:58:10.19	342.56	12.52	-40.5	-55.0	3.8	1.49e+00	0	59	104	0	52	19179
2026-01-30 01:58:11.20	342.38	12.56	-40.5	-54.9	3.8	1.49e+00	0	59	104	0	52	19111
2026-01-30 01:58:12.21	342.20	12.60	-40.3	-54.7	3.8	1.49e+00	0	59	104	0	52	18705
2026-01-30 01:58:13.22	342.03	12.65	-40.2	-54.6	3.8	1.49e+00	0	59	104	0	52	18391
2026-01-30 01:58:14.23	341.85	12.69	-40.4	-54.8	3.8	1.49e+00	0	59	104	0	52	18922
2026-01-30 01:58:15.24	341.67	12.73	-40.3	-54.8	3.8	1.49e+00	0	59	104	0	52	18766
2026-01-30 01:58:16.25	341.49	12.77	-40.1	-54.5	3.8	1.49e+00	0	59	104	0	52	18179
2026-01-30 01:58:17.26	341.31	12.81	-40.1	-54.5	3.8	1.49e+00	0	59	104	0	52	18264
2026-01-30 01:58:18.27	341.13	12.85	-40.3	-54.7	3.8	1.49e+00	0	59	104	0	52	18641
2026-01-30 01:58:19.28	340.95	12.89	-40.2	-54.6	3.8	1.49e+00	0	59	104	0	52	18378
2026-01-30 01:58:20.29	340.77	12.94	-40.2	-54.6	3.8	1.49e+00	0	59	104	0	52	18326
2026-01-30 01:58:21.30	340.58	12.98	-40.3	-54.7	3.8	1.49e+00	0	59	104	0	52	18676
2026-01-30 01:58:22.31	340.40	13.02	-40.1	-54.5	3.8	1.49e+00	0	59	104	0	52	18248
2026-01-30 01:58:23.32	340.22	13.06	-40.3	-54.7	3.8	1.49e+00	0	60	104	0	52	18550
2026-01-30 01:58:24.33	340.04	13.10	-40.5	-54.7	3.8	1.49e+00	0	59	104	0	52	18722
2026-01-30 01:58:25.34	339.85	13.14	-40.9	-54.8	3.8	1.49e+00	0	60	104	0	53	17888
2026-01-30 01:58:26.35	339.67	13.17	-40.2	-54.4	3.8	1.49e+00	0	59	104	0	52	17972
2026-01-30 01:58:27.35	339.48	13.21	-40.2	-54.3	3.8	1.49e+00	0	59	104	0	52	17734
2026-01-30 01:58:28.36	339.30	13.25	-40.2	-54.0	3.8	1.49e+00	0	59	104	0	52	17271
2026-01-30 01:58:29.37	339.11	13.29	-40.2	-53.7	3.8	1.49e+00	0	60	104	0	52	16664
2026-01-30 01:58:30.38	338.93	13.33	-40.3	-53.1	3.8	1.49e+00	0	59	104	0	52	15497
2026-01-30 01:58:31.39	338.74	13.37	-40.9	-50.7	4.7	1.29e+00	0	60	0	0	52	11732
2026-01-30 01:58:32.40	338.55	13.41	-42.5	-50.6	6.1	2.39e-01	0	60	0	2097152	55	9744
2026-01-30 01:58:33.41	338.37	13.44	-42.0	-48.7	7.6	6.16e-01	0	60	0	3145728	55	7816
2026-01-30 01:58:34.42	338.18	13.48	-41.9	-48.0	8.3	3.89e-02	0	60	0	5242880	55	7252
2026-01-30 01:58:35.43	337.99	13.52	-41.9	-48.0	8.5	4.14e-02	0	60	0	7340032	55	7222
2026-01-30 01:58:36.44	337.80	13.55	-41.9	-47.8	8.8	3.62e-02	0	60	0	9437184	55	7059
2026-01-30 01:58:37.45	337.61	13.59	-41.8	-47.3	9.3	2.49e-02	0	60	0	11534336	55	6709
2026-01-30 01:58:38.46	337.42	13.63	-41.8	-47.2	9.5	1.47e-02	0	59	0	12582912	55	6632
2026-01-30 01:58:39.47	337.23	13.66	-42.0	-47.6	9.2	1.78e-02	0	60	0	14680064	55	6959
2026-01-30 01:58:40.48	337.04	13.70	-42.0	-47.4	9.6	2.21e-02	0	59	0	16777216	55	6735
2026-01-30 01:58:41.49	336.85	13.74	-41.9	-46.9	10.1	8.14e-03	0	60	0	18874368	55	6416
2026-01-30 01:58:42.50	336.65	13.77	-42.1	-47.3	9.8	8.52e-03	0	60	0	20971520	55	6674
2026-01-30 01:58:43.51	336.46	13.81	-42.1	-47.1	10.1	1.01e-02	0	60	0	22020096	55	6512
2026-01-30 01:58:44.52	336.27	13.84	-42.1	-47.2	10.0	6.95e-03	0	60	0	24117248	55	6617
2026-01-30 01:58:45.53	336.07	13.87	-42.1	-47.1	10.2	7.62e-03	0	60	0	26214400	55	6516
2026-01-30 01:58:46.54	335.88	13.91	-42.1	-47.0	10.3	4.63e-03	0	60	0	28311552	55	6484
2026-01-30 01:58:47.55	335.69	13.94	-42.1	-46.9	10.4	4.90e-03	0	60	0	30408704	55	6381
2026-01-30 01:58:48.56	335.49	13.98	-42.0	-46.8	10.5	3.86e-03	0	60	0	31457280	55	6338
2026-01-30 01:58:49.57	335.29	14.01	-42.0	-46.7	10.7	3.68e-03	0	60	0	33554432	55	6255
2026-01-30 01:58:50.58	335.10	14.04	-41.9	-46.6	10.8	2.85e-03	0	60	0	35651584	55	6140
2026-01-30 01:58:51.59	334.90	14.08	-42.0	-46.6	10.9	2.38e-03	0	60	0	37748736	55	6144
2026-01-30 01:58:52.60	334.71	14.11	-41.9	-46.4	11.0	2.09e-03	0	60	0	39845888	55	6027
2026-01-30 01:58:53.61	334.51	14.14	-41.8	-46.3	11.1	1.67e-03	0	60	0	41943040	55	5936
2026-01-30 01:58:54.62	334.31	14.17	-41.8	-46.2	11.2	1.30e-03	0	60	0	42991616	55	5922
2026-01-30 01:58:55.63	334.11	14.20	-41.9	-46.3	11.1	1.67e-03	0	60	0	45088768	55	5989
2026-01-30 01:58:56.64	333.92	14.24	-41.8	-46.2	11.3	1.34e-03	0	60	0	47185920	55	5887
2026-01-30 01:58:57.65	333.72	14.27	-41.8	-46.1	11.3	1.12e-03	0	60	0	49283072	55	5830
2026-01-30 01:58:58.66	333.52	14.30	-41.7	-46.0	11.5	1.04e-03	0	60	0	51380224	55	5757
2026-01-30 01:58:59.67	333.32	14.33	-41.7	-46.0	11.5	8.03e-04	0	60	0	52428800	55	5748
2026-01-30 01:59:00.68	333.12	14.36	-41.7	-45.9	11.6	6.52e-04	0	60	0	54525952	55	5675
2026-01-30 01:59:01.69	332.92	14.39	-41.7	-45.9	11.6	6.49e-04	0	60	0	56623104	55	5701
2026-01-30 01:59:02.70	332.72	14.42	-41.7	-46.0	11.5	7.80e-04	0	60	0	58720256	55	5737
2026-01-30 01:59:03.72	332.51	14.45	-41.7	-45.9	11.5	7.09e-04	0	60	0	60817408	55	5721
2026-01-30 01:59:04.73	332.31	14.48	-41.7	-45.9	11.6	7.77e-04	0	60	0	61865984	55	5690
2026-01-30 01:59:05.74	332.11	14.50	-41.7	-45.9	11.6	7.17e-04	0	60	0	63963136	55	5683
2026-01-30 01:59:06.75	331.91	14.53	-41.7	-45.8	11.7	6.35e-04	0	60	0	66060288	55	5628
2026-01-30 01:59:07.76	331.70	14.56	-41.7	-45.8	11.7	5.49e-04	0	60	0	68157440	55	5616
2026-01-30 01:59:08.77	331.50	14.59	-41.6	-45.7	11.8	4.91e-04	0	60	0	70254592	55	5570
2026-01-30 01:59:09.77	331.30	14.61	-41.6	-45.8	11.7	4.52e-04	0	60	0	71303168	55	5614
2026-01-30 01:59:10.78	331.09	14.64	-41.7	-45.8	11.7	5.03e-04	0	59	0	73400320	55	5635
2026-01-30 01:59:11.79	330.89	14.67	-41.7	-45.9	11.6	6.26e-04	0	60	0	75497472	55	5722
2026-01-30 01:59:12.80	330.69	14.69	-41.8	-46.0	11.5	7.44e-04	0	60	0	77594624	55	5775
2026-01-30 01:59:13.81	330.48	14.72	-41.8	-46.1	11.5	8.74e-04	0	60	0	79691776	55	5795
2026-01-30 01:59:14.82	330.27	14.75	-41.9	-46.2	11.3	9.13e-04	0	60	0	80740352	55	5893
2026-01-30 01:59:15.83	330.07	14.77	-41.8	-46.1	11.4	1.00e-03	0	60	0	82837504	55	5846
2026-01-30 01:59:16.84	329.86	14.80	-41.8	-46.1	11.4	9.80e-04	0	60	0	84934656	55	5831
2026-01-30 01:59:17.85	329.66	14.82	-41.7	-45.9	11.7	6.94e-04	0	60	0	87031808	55	5672
2026-01-30 01:59:18.86	329.45	14.84	-41.7	-46.0	11.6	6.23e-04	0	60	0	89128960	55	5728
2026-01-30 01:59:19.87	329.24	14.87	-41.8	-46.0	11.5	7.73e-04	0	60	0	90177536	55	5767
2026-01-30 01:59:20.88	329.03	14.89	-41.8	-46.1	11.4	8.64e-04	0	60	0	92274688	55	5855
2026-01-30 01:59:21.89	328.83	14.91	-41.9	-46.3	11.2	1.12e-03	0	60	0	94371840	55	5970
2026-01-30 01:59:22.90	328.62	14.94	-42.0	-46.5	11.0	1.40e-03	0	60	0	96468992	55	6089
2026-01-30 01:59:23.91	328.41	14.96	-42.0	-46.4	11.1	1.55e-03	0	60	0	98566144	55	6028
2026-01-30 01:59:24.92	328.20	14.98	-42.0	-46.4	11.1	1.60e-03	0	60	0	99614720	55	6057
2026-01-30 01:59:25.93	327.99	15.00	-42.0	-46.4	11.1	1.63e-03	0	60	0	101711872	55	6044
2026-01-30 01:59:26.94	327.78	15.02	-42.0	-46.4	11.1	1.61e-03	0	60	0	103809024	55	6043
2026-01-30 01:59:27.95	327.57	15.05	-42.0	-46.4	11.1	1.49e-03	0	60	0	105906176	55	6032
2026-01-30 01:59:28.96	327.36	15.07	-41.9	-46.4	11.2	1.48e-03	0	60	0	108003328	55	5995
2026-01-30 01:59:29.97	327.15	15.09	-42.0	-46.4	11.2	1.46e-03	0	60	0	110100480	55	6028
2026-01-30 01:59:30.98	326.94	15.11	-41.9	-46.4	11.2	1.58e-03	0	60	0	111149056	55	6008
2026-01-30 01:59:31.99	326.73	15.13	-42.1	-46.6	11.0	1.73e-03	0	60	0	113246208	55	6171
2026-01-30 01:59:33.00	326.52	15.14	-42.1	-46.7	10.9	2.33e-03	0	60	0	115343360	55	6244
2026-01-30 01:59:34.01	326.31	15.16	-42.1	-46.8	10.8	2.62e-03	0	60	0	117440512	55	6320
2026-01-30 01:59:35.02	326.09	15.18	-42.2	-46.8	10.7	2.87e-03	0	60	0	119537664	55	6340
2026-01-30 01:59:36.03	325.88	15.20	-42.2	-46.8	10.7	2.91e-03	0	60	0	120586240	55	6346
2026-01-30 01:59:37.04	325.67	15.22	-42.2	-46.8	10.7	2.78e-03	0	60	0	122683392	55	6335
2026-01-30 01:59:38.05	325.46	15.23	-42.2	-46.9	10.7	2.96e-03	0	60	0	124780544	55	6353
2026-01-30 01:59:39.06	325.24	15.25	-42.2	-46.9	10.6	3.02e-03	0	60	0	126877696	55	6420
2026-01-30 01:59:40.06	325.03	15.27	-42.2	-46.8	10.7	3.17e-03	0	60	0	128974848	55	6345
2026-01-30 01:59:41.07	324.82	15.28	-42.2	-46.8	10.7	3.01e-03	0	60	0	130023424	55	6331
2026-01-30 01:59:42.08	324.61	15.30	-42.1	-46.8	10.7	3.02e-03	0	60	0	132120576	55	6312
2026-01-30 01:59:43.09	324.39	15.31	-42.1	-46.7	10.8	2.31e-03	0	60	0	134217728	55	6265
2026-01-30 01:59:44.10	324.18	15.33	-42.1	-46.7	10.9	2.31e-03	0	60	0	136314880	55	6205
2026-01-30 01:59:45.11	323.97	15.34	-42.1	-46.6	11.0	2.09e-03	0	60	0	138412032	55	6193
2026-01-30 01:59:46.12	323.75	15.36	-42.0	-46.5	11.1	1.75e-03	0	60	0	139460608	55	6101
2026-01-30 01:59:47.13	323.54	15.37	-42.0	-46.4	11.2	1.44e-03	0	60	0	141557760	55	6051
2026-01-30 01:59:48.14	323.32	15.38	-42.0	-46.4	11.2	1.55e-03	0	60	0	143654912	55	6017
2026-01-30 01:59:49.15	323.11	15.40	-42.0	-46.4	11.2	1.34e-03	0	60	0	145752064	55	6020
2026-01-30 01:59:50.16	322.89	15.41	-42.0	-46.4	11.2	1.22e-03	0	60	0	147849216	55	6018
2026-01-30 01:59:51.17	322.68	15.42	-41.9	-46.3	11.3	1.25e-03	0	60	0	148897792	55	5928
2026-01-30 01:59:52.18	322.46	15.43	-41.9	-46.3	11.3	1.18e-03	0	60	0	150994944	55	5972
2026-01-30 01:59:53.19	322.24	15.44	-41.9	-46.2	11.3	1.16e-03	0	60	0	153092096	55	5920
2026-01-30 01:59:54.20	322.03	15.46	-42.0	-46.4	11.2	1.37e-03	0	60	0	155189248	55	6030
2026-01-30 01:59:55.21	321.81	15.47	-42.0	-46.5	11.1	1.59e-03	0	60	0	157286400	55	6094
2026-01-30 01:59:56.22	321.60	15.48	-42.0	-46.5	11.1	1.64e-03	0	60	0	158334976	55	6089
2026-01-30 01:59:57.23	321.38	15.49	-42.0	-46.5	11.1	1.64e-03	0	60	0	160432128	55	6110
2026-01-30 01:59:58.24	321.16	15.49	-42.0	-46.5	11.0	1.58e-03	0	60	0	162529280	55	6131
2026-01-30 01:59:59.25	320.95	15.50	-42.0	-46.5	11.1	1.69e-03	0	60	0	164626432	55	6100
2026-01-30 02:00:00.26	320.73	15.51	-42.0	-46.5	11.1	1.67e-03	0	60	0	166723584	55	6108
2026-01-30 02:00:01.27	320.51	15.52	-42.0	-46.6	11.0	1.84e-03	0	60	0	167772160	55	6142
2026-01-30 02:00:02.28	320.30	15.53	-42.1	-46.6	10.9	2.02e-03	0	60	0	169869312	55	6196
2026-01-30 02:00:03.29	320.08	15.53	-42.1	-46.6	11.0	1.84e-03	0	60	0	171966464	55	6175
2026-01-30 02:00:04.30	319.86	15.54	-42.1	-46.7	10.8	2.26e-03	0	60	0	174063616	55	6269
2026-01-30 02:00:05.31	319.64	15.55	-42.1	-46.8	10.8	2.41e-03	0	60	0	176160768	55	6288
2026-01-30 02:00:06.32	319.43	15.55	-42.2	-46.8	10.8	2.54e-03	0	60	0	178257920	55	6296
2026-01-30 02:00:07.33	319.21	15.56	-42.2	-46.8	10.7	2.67e-03	0	60	0	179306496	55	6344
2026-01-30 02:00:08.34	318.99	15.56	-42.2	-46.9	10.7	3.01e-03	0	60	0	181403648	55	6354
2026-01-30 02:00:09.35	318.77	15.57	-42.1	-46.7	10.9	2.45e-03	0	60	0	183500800	55	6220
2026-01-30 02:00:10.36	318.56	15.57	-42.1	-46.6	11.0	2.14e-03	0	60	0	185597952	55	6179
2026-01-30 02:00:11.37	318.34	15.58	-42.1	-46.6	10.9	1.95e-03	0	60	0	187695104	55	6201
2026-01-30 02:00:12.38	318.12	15.58	-42.1	-46.6	11.0	1.84e-03	0	60	0	188743680	55	6152
2026-01-30 02:00:13.39	317.90	15.58	-42.1	-46.6	11.0	1.70e-03	0	60	0	190840832	55	6140
2026-01-30 02:00:14.40	317.69	15.59	-42.0	-46.5	11.1	1.82e-03	0	60	0	192937984	55	6116
2026-01-30 02:00:15.41	317.47	15.59	-42.0	-46.5	11.1	1.59e-03	0	60	0	195035136	55	6093
2026-01-30 02:00:16.42	317.25	15.59	-42.1	-46.5	11.1	1.61e-03	0	60	0	197132288	55	6130
2026-01-30 02:00:17.43	317.03	15.59	-42.0	-46.5	11.1	1.48e-03	0	60	0	198180864	55	6087
2026-01-30 02:00:18.44	316.81	15.59	-42.0	-46.5	11.1	1.50e-03	0	60	0	200278016	55	6073
2026-01-30 02:00:19.45	316.59	15.59	-42.0	-46.5	11.1	1.48e-03	0	60	0	202375168	55	6094
2026-01-30 02:00:20.46	316.38	15.59	-42.0	-46.5	11.1	1.60e-03	0	60	0	204472320	55	6076
2026-01-30 02:00:21.47	316.16	15.59	-42.0	-46.5	11.1	1.63e-03	0	60	0	206569472	55	6115
2026-01-30 02:00:22.48	315.94	15.59	-42.1	-46.6	11.0	1.81e-03	0	60	0	207618048	55	6147
2026-01-30 02:00:23.49	315.72	15.59	-42.0	-46.5	11.1	1.64e-03	0	61	0	209715200	55	6076
2026-01-30 02:00:24.50	315.50	15.59	-42.0	-46.5	11.1	1.59e-03	0	60	0	211812352	55	6099
2026-01-30 02:00:25.51	315.29	15.59	-42.0	-46.5	11.1	1.62e-03	0	60	0	213909504	55	6093
2026-01-30 02:00:26.52	315.07	15.58	-42.1	-46.6	11.0	1.74e-03	0	60	0	216006656	55	6161
2026-01-30 02:00:27.53	314.85	15.58	-42.1	-46.7	10.9	2.03e-03	0	60	0	217055232	55	6233
2026-01-30 02:00:28.54	314.63	15.58	-42.2	-46.8	10.8	2.53e-03	0	60	0	219152384	55	6324
2026-01-30 02:00:29.55	314.41	15.58	-42.2	-46.9	10.7	2.57e-03	0	60	0	221249536	55	6368
2026-01-30 02:00:30.56	314.20	15.57	-42.2	-46.8	10.7	2.63e-03	0	60	0	223346688	55	6347
2026-01-30 02:00:31.57	313.98	15.57	-42.2	-46.8	10.8	2.79e-03	0	60	0	225443840	55	6322
2026-01-30 02:00:32.58	313.76	15.56	-42.1	-46.7	10.9	2.42e-03	0	60	0	226492416	55	6261
2026-01-30 02:00:33.59	313.54	15.56	-42.2	-46.8	10.8	2.37e-03	0	60	0	228589568	55	6302
2026-01-30 02:00:34.60	313.33	15.55	-42.1	-46.7	10.9	2.26e-03	0	60	0	230686720	55	6225
2026-01-30 02:00:35.61	313.11	15.54	-42.1	-46.7	10.8	2.18e-03	0	60	0	232783872	55	6260
2026-01-30 02:00:36.62	312.89	15.54	-42.1	-46.7	10.9	2.14e-03	0	60	0	234881024	55	6214
2026-01-30 02:00:37.63	312.67	15.53	-42.1	-46.7	10.9	2.04e-03	0	60	0	235929600	55	6217
2026-01-30 02:00:38.64	312.46	15.52	-42.1	-46.8	10.8	2.59e-03	0	60	0	238026752	55	6293
2026-01-30 02:00:39.65	312.24	15.52	-42.1	-46.7	10.9	2.30e-03	0	60	0	240123904	55	6237
2026-01-30 02:00:40.66	312.02	15.51	-42.1	-46.7	10.9	2.40e-03	0	60	0	242221056	55	6216
2026-01-30 02:00:41.67	311.81	15.50	-42.2	-46.8	10.8	2.37e-03	0	60	0	244318208	55	6292
2026-01-30 02:00:42.68	311.59	15.49	-42.2	-46.8	10.8	2.55e-03	0	60	0	246415360	55	6327
2026-01-30 02:00:43.69	311.37	15.48	-42.1	-46.8	10.8	2.61e-03	0	60	0	247463936	55	6297
2026-01-30 02:00:44.70	311.16	15.47	-42.2	-46.8	10.8	2.48e-03	0	60	0	249561088	55	6325
2026-01-30 02:00:45.71	310.94	15.46	-42.1	-46.8	10.8	2.67e-03	0	60	0	251658240	55	6291
2026-01-30 02:00:46.72	310.72	15.45	-42.2	-46.8	10.8	2.78e-03	0	60	0	253755392	55	6301
2026-01-30 02:00:47.73	310.51	15.44	-42.2	-46.8	10.8	2.44e-03	0	60	0	255852544	55	6316
2026-01-30 02:00:48.74	310.29	15.43	-42.2	-46.9	10.7	2.68e-03	0	60	0	256901120	55	6379
2026-01-30 02:00:49.75	310.08	15.41	-42.2	-46.9	10.7	2.71e-03	0	60	0	258998272	55	6355
2026-01-30 02:00:50.76	309.86	15.40	-42.1	-46.8	10.8	2.59e-03	0	60	0	261095424	55	6282
2026-01-30 02:00:51.77	309.65	15.39	-42.1	-46.7	10.9	2.28e-03	0	60	0	263192576	55	6207
2026-01-30 02:00:52.78	309.43	15.38	-42.1	-46.6	11.0	1.94e-03	0	61	0	265289728	55	6177
2026-01-30 02:00:53.79	309.22	15.36	-42.1	-46.7	10.9	2.09e-03	0	60	0	266338304	55	6240
2026-01-30 02:00:54.80	309.00	15.35	-42.1	-46.8	10.8	2.42e-03	0	60	0	268435456	55	6281
2026-01-30 02:00:55.81	308.79	15.34	-42.2	-46.8	10.8	2.52e-03	0	61	0	270532608	55	6326
2026-01-30 02:00:56.82	308.57	15.32	-42.2	-46.8	10.8	2.92e-03	0	60	0	272629760	55	6326
2026-01-30 02:00:57.83	308.36	15.31	-42.2	-46.9	10.7	3.05e-03	0	61	0	274726912	55	6358
2026-01-30 02:00:58.84	308.14	15.29	-42.2	-46.9	10.7	3.09e-03	0	61	0	275775488	55	6420
2026-01-30 02:00:59.85	307.93	15.27	-42.2	-47.0	10.5	3.62e-03	0	61	0	277872640	55	6487
2026-01-30 02:01:00.86	307.72	15.26	-42.2	-46.9	10.7	3.49e-03	0	61	0	279969792	55	6378
2026-01-30 02:01:01.87	307.50	15.24	-42.2	-46.8	10.7	2.75e-03	0	60	0	282066944	55	6330
2026-01-30 02:01:02.88	307.29	15.22	-42.1	-46.6	10.9	2.41e-03	0	60	0	284164096	55	6167
2026-01-30 02:01:03.89	307.08	15.21	-42.0	-46.5	11.1	1.66e-03	0	61	0	285212672	55	6064
2026-01-30 02:01:04.91	306.86	15.19	-42.0	-46.5	11.1	1.67e-03	0	61	0	287309824	55	6068
2026-01-30 02:01:05.92	306.65	15.17	-42.0	-46.4	11.1	1.47e-03	0	60	0	289406976	55	6047
2026-01-30 02:01:06.93	306.44	15.15	-41.9	-46.3	11.2	1.31e-03	0	61	0	291504128	55	5973
2026-01-30 02:01:07.94	306.23	15.13	-41.9	-46.3	11.3	1.30e-03	0	60	0	293601280	55	5926
2026-01-30 02:01:08.94	306.02	15.11	-41.9	-46.3	11.3	1.20e-03	0	61	0	294649856	55	5936
2026-01-30 02:01:09.95	305.81	15.09	-42.0	-46.4	11.2	1.32e-03	0	60	0	296747008	55	6009
2026-01-30 02:01:10.96	305.60	15.07	-41.9	-46.3	11.3	1.46e-03	0	61	0	298844160	55	5976
2026-01-30 02:01:11.98	305.38	15.05	-42.0	-46.5	11.1	1.52e-03	0	61	0	300941312	55	6080
2026-01-30 02:01:12.98	305.17	15.03	-42.0	-46.4	11.1	1.50e-03	0	60	0	303038464	55	6015
2026-01-30 02:01:13.99	304.96	15.01	-42.0	-46.4	11.1	1.63e-03	0	61	0	304087040	55	6052
2026-01-30 02:01:15.01	304.75	14.99	-42.0	-46.4	11.1	1.67e-03	0	61	0	306184192	55	6035
2026-01-30 02:01:16.02	304.54	14.97	-41.9	-46.3	11.2	1.43e-03	0	61	0	308281344	55	5961
2026-01-30 02:01:17.03	304.33	14.95	-41.9	-46.2	11.3	1.26e-03	0	61	0	310378496	55	5922
2026-01-30 02:01:18.04	304.13	14.92	-41.9	-46.3	11.3	1.21e-03	0	60	0	312475648	55	5937
2026-01-30 02:01:19.05	303.92	14.90	-41.9	-46.2	11.3	1.07e-03	0	61	0	314572800	55	5902
2026-01-30 02:01:20.06	303.71	14.88	-41.9	-46.4	11.2	1.36e-03	0	61	0	315621376	55	6009
2026-01-30 02:01:21.07	303.50	14.85	-41.9	-46.4	11.1	1.66e-03	0	61	0	317718528	55	6023
2026-01-30 02:01:22.08	303.29	14.83	-41.9	-46.4	11.1	1.51e-03	0	60	0	319815680	55	6026
2026-01-30 02:01:23.09	303.09	14.81	-41.9	-46.4	11.2	1.47e-03	0	60	0	321912832	55	6007
2026-01-30 02:01:24.10	302.88	14.78	-41.9	-46.4	11.1	1.60e-03	0	60	0	324009984	55	6040
2026-01-30 02:01:25.11	302.67	14.76	-41.9	-46.3	11.2	1.48e-03	0	61	0	325058560	55	5990
2026-01-30 02:01:26.12	302.47	14.73	-41.9	-46.2	11.3	1.29e-03	0	61	0	327155712	55	5880
2026-01-30 02:01:27.13	302.26	14.70	-41.9	-46.2	11.3	1.05e-03	0	61	0	329252864	55	5885
2026-01-30 02:01:28.14	302.06	14.68	-41.9	-46.2	11.3	1.10e-03	0	61	0	331350016	55	5901
2026-01-30 02:01:29.15	301.85	14.65	-41.9	-46.3	11.2	1.36e-03	0	61	0	333447168	55	5983
2026-01-30 02:01:30.16	301.65	14.62	-41.9	-46.4	11.1	1.57e-03	0	61	0	334495744	55	6031
2026-01-30 02:01:31.17	301.44	14.60	-42.0	-46.5	11.0	1.78e-03	0	61	0	336592896	55	6072
2026-01-30 02:01:32.18	301.24	14.57	-42.0	-46.6	10.9	2.08e-03	0	60	0	338690048	55	6172
2026-01-30 02:01:33.18	301.04	14.54	-42.0	-46.6	10.9	2.35e-03	0	61	0	340787200	55	6172
2026-01-30 02:01:34.19	300.83	14.51	-42.1	-46.7	10.8	2.44e-03	0	61	0	342884352	55	6245
2026-01-30 02:01:35.20	300.63	14.49	-42.1	-46.7	10.8	2.51e-03	0	61	0	343932928	55	6240
2026-01-30 02:01:36.21	300.43	14.46	-42.0	-46.6	10.8	2.42e-03	0	61	0	346030080	55	6157
2026-01-30 02:01:37.22	300.23	14.43	-42.0	-46.6	10.8	2.36e-03	0	61	0	348127232	55	6187
2026-01-30 02:01:38.23	300.03	14.40	-42.0	-46.6	10.8	2.44e-03	0	61	0	350224384	55	6171
2026-01-30 02:01:39.24	299.82	14.37	-42.0	-46.7	10.8	2.33e-03	0	61	0	352321536	55	6203
2026-01-30 02:01:40.25	299.62	14.34	-42.0	-46.6	10.8	2.64e-03	0	61	0	354418688	55	6168
2026-01-30 02:01:41.26	299.42	14.31	-41.9	-46.5	10.9	2.30e-03	0	61	0	355467264	55	6126
2026-01-30 02:01:42.27	299.22	14.28	-42.0	-46.6	10.7	2.55e-03	0	61	0	357564416	55	6190
2026-01-30 02:01:43.28	299.02	14.25	-42.0	-46.7	10.6	3.31e-03	0	61	0	359661568	55	6247
2026-01-30 02:01:44.29	298.82	14.22	-42.0	-46.7	10.5	3.58e-03	0	61	0	361758720	55	6259
2026-01-30 02:01:45.30	298.63	14.18	-42.0	-46.8	10.5	4.07e-03	0	61	0	363855872	55	6275
2026-01-30 02:01:46.31	298.43	14.15	-41.9	-46.8	10.4	4.33e-03	0	61	0	364904448	55	6289
2026-01-30 02:01:47.32	298.23	14.12	-42.0	-46.9	10.3	4.89e-03	0	61	0	367001600	55	6358
2026-01-30 02:01:48.33	298.03	14.09	-42.0	-47.0	10.2	5.53e-03	0	61	0	369098752	55	6449
2026-01-30 02:01:49.35	297.83	14.05	-42.0	-47.1	10.0	7.19e-03	0	61	0	371195904	55	6528
2026-01-30 02:01:50.36	297.64	14.02	-42.1	-47.1	10.0	7.87e-03	0	61	0	373293056	55	6544
2026-01-30 02:01:51.36	297.44	13.99	-42.0	-47.1	10.1	7.18e-03	0	61	0	374341632	55	6511
2026-01-30 02:01:52.37	297.25	13.96	-42.0	-47.0	10.2	5.86e-03	0	61	0	376438784	55	6457
2026-01-30 02:01:53.38	297.05	13.92	-42.0	-46.9	10.3	5.19e-03	0	60	0	378535936	55	6407
2026-01-30 02:01:54.39	296.86	13.89	-42.0	-46.8	10.6	4.72e-03	0	61	0	380633088	55	6329
2026-01-30 02:01:55.40	296.66	13.85	-41.9	-46.5	10.8	2.74e-03	0	61	0	382730240	55	6123
2026-01-30 02:01:56.41	296.47	13.82	-41.8	-46.3	11.0	2.03e-03	0	61	0	383778816	55	5986
2026-01-30 02:01:57.42	296.27	13.78	-41.8	-46.2	11.2	1.61e-03	0	60	0	385875968	55	5890
2026-01-30 02:01:58.43	296.08	13.75	-41.8	-46.2	11.2	1.45e-03	0	61	0	387973120	55	5893
2026-01-30 02:01:59.44	295.89	13.71	-41.8	-46.2	11.1	1.45e-03	0	60	0	390070272	55	5898
2026-01-30 02:02:00.45	295.70	13.68	-41.8	-46.3	11.0	1.59e-03	0	61	0	392167424	55	5948
2026-01-30 02:02:01.46	295.51	13.64	-41.8	-46.5	10.8	1.99e-03	0	61	0	393216000	55	6069
2026-01-30 02:02:02.47	295.31	13.60	-41.9	-46.7	10.6	2.95e-03	0	61	0	395313152	55	6214
2026-01-30 02:02:03.48	295.12	13.57	-42.0	-46.8	10.4	4.11e-03	0	61	0	397410304	55	6323
2026-01-30 02:02:04.49	294.93	13.53	-42.0	-46.9	10.3	4.75e-03	0	61	0	399507456	55	6395
2026-01-30 02:02:05.50	294.74	13.49	-42.0	-46.9	10.3	5.59e-03	0	61	0	401604608	55	6395
2026-01-30 02:02:06.51	294.56	13.46	-41.9	-46.9	10.3	5.26e-03	0	61	0	402653184	55	6359
2026-01-30 02:02:07.52	294.37	13.42	-41.8	-46.6	10.5	4.63e-03	0	61	0	404750336	55	6165
2026-01-30 02:02:08.53	294.18	13.38	-41.6	-46.3	10.7	3.10e-03	0	61	0	406847488	55	5956
2026-01-30 02:02:09.54	293.99	13.34	-41.4	-46.0	10.8	2.65e-03	0	61	0	408944640	54	6126
2026-01-30 02:02:10.54	293.81	13.30	-41.2	-45.8	10.9	2.29e-03	0	61	0	411041792	54	5964
2026-01-30 02:02:11.55	293.62	13.27	-41.1	-45.7	11.0	2.07e-03	0	61	0	412090368	54	5860
2026-01-30 02:02:12.56	293.43	13.23	-41.0	-45.6	11.0	2.00e-03	0	61	0	414187520	54	5813
2026-01-30 02:02:13.57	293.25	13.19	-41.0	-45.6	10.9	1.99e-03	0	61	0	416284672	54	5790
2026-01-30 02:02:14.58	293.06	13.15	-41.0	-45.8	10.6	2.35e-03	0	61	0	418381824	54	5943
2026-01-30 02:02:15.59	292.88	13.11	-41.1	-45.9	10.4	4.26e-03	0	60	0	420478976	54	6010
2026-01-30 02:02:16.60	292.69	13.07	-41.1	-45.9	10.4	4.12e-03	0	61	0	422576128	54	6052
2026-01-30 02:02:17.61	292.51	13.03	-41.1	-46.1	10.2	5.21e-03	0	61	0	423624704	54	6150
2026-01-30 02:02:18.62	292.33	12.99	-41.1	-46.1	10.2	6.08e-03	0	61	0	425721856	54	6175
2026-01-30 02:02:19.63	292.14	12.95	-41.2	-46.3	10.0	6.11e-03	0	61	0	427819008	54	6293
2026-01-30 02:02:20.64	291.96	12.91	-41.1	-46.3	10.0	7.97e-03	0	60	0	429916160	54	6282
2026-01-30 02:02:21.65	291.78	12.87	-41.1	-46.4	9.8	1.01e-02	0	61	0	432013312	54	6391
2026-01-30 02:02:22.66	291.60	12.83	-41.1	-46.3	9.7	1.05e-02	0	61	0	433061888	54	6330
2026-01-30 02:02:23.67	291.42	12.78	-41.0	-46.1	10.1	8.38e-03	0	61	0	435159040	54	6136
2026-01-30 02:02:24.68	291.24	12.74	-41.0	-45.9	10.3	5.73e-03	0	61	0	437256192	54	6043
2026-01-30 02:02:25.69	291.06	12.70	-41.0	-45.7	10.7	3.51e-03	0	61	0	439353344	54	5891
2026-01-30 02:02:26.70	290.88	12.66	-41.0	-45.7	10.7	2.82e-03	0	61	0	441450496	54	5910
2026-01-30 02:02:27.71	290.70	12.62	-41.0	-45.6	10.8	2.42e-03	0	61	0	442499072	54	5848
2026-01-30 02:02:28.72	290.52	12.57	-41.0	-45.7	10.8	2.91e-03	0	61	0	444596224	54	5876
2026-01-30 02:02:29.73	290.34	12.53	-41.1	-45.7	10.8	2.75e-03	0	61	0	446693376	54	5895
2026-01-30 02:02:30.74	290.17	12.49	-41.1	-45.8	10.6	2.91e-03	0	60	0	448790528	54	5989
2026-01-30 02:02:31.75	289.99	12.45	-41.1	-45.9	10.5	3.62e-03	0	61	0	450887680	54	5998
2026-01-30 02:02:32.76	289.81	12.40	-41.1	-46.0	10.4	4.10e-03	0	61	0	451936256	54	6064
2026-01-30 02:02:33.77	289.64	12.36	-41.1	-46.1	10.1	5.40e-03	0	61	0	454033408	54	6156
2026-01-30 02:02:34.78	289.46	12.32	-41.1	-46.3	9.8	8.98e-03	0	61	0	456130560	54	6321
2026-01-30 02:02:35.79	289.29	12.27	-41.2	-46.6	9.5	1.26e-02	0	60	0	458227712	54	6556
2026-01-30 02:02:36.80	289.11	12.23	-41.3	-46.9	9.1	1.87e-02	0	61	0	460324864	54	6786
2026-01-30 02:02:37.81	288.94	12.19	-41.4	-47.2	8.7	3.02e-02	0	61	0	461373440	54	7030
2026-01-30 02:02:38.82	288.77	12.14	-41.4	-47.4	8.5	3.78e-02	0	61	0	463470592	54	7204
2026-01-30 02:02:39.83	288.60	12.10	-41.4	-47.7	8.2	4.97e-02	0	61	0	465567744	54	7406
2026-01-30 02:02:40.84	288.42	12.05	-41.4	-47.9	7.9	6.02e-02	0	61	0	467664896	54	7602
2026-01-30 02:02:41.85	288.25	12.01	-41.5	-48.3	7.5	9.55e-02	0	61	0	469762048	54	7907
2026-01-30 02:02:42.86	288.08	11.96	-41.5	-48.6	7.1	1.26e-01	0	61	0	470810624	54	8200
2026-01-30 02:02:43.87	287.91	11.92	-41.5	-49.0	6.6	1.67e-01	0	61	0	472907776	54	8615
2026-01-30 02:02:44.88	287.74	11.87	-41.4	-49.5	6.0	2.92e-01	0	61	0	475004928	54	9143
2026-01-30 02:02:45.89	287.57	11.83	-41.4	-50.0	5.6	3.91e-01	0	61	0	477102080	54	9683
2026-01-30 02:02:46.90	287.40	11.78	-41.7	-50.1	5.8	4.62e-01	0	61	0	479199232	54	9747
2026-01-30 02:02:47.91	287.23	11.74	-41.3	-51.5	4.6	7.21e-01	1	61	0	480247808	54	11515
2026-01-30 02:02:48.92	287.07	11.69	-40.9	-55.1	3.8	1.41e+00	0	61	104	481296384	53	18470
2026-01-30 02:02:49.93	286.90	11.64	-42.3	-51.5	5.2	1.48e+00	0	61	104	481296384	55	10790
2026-01-30 02:02:50.94	286.73	11.60	-40.1	-54.3	3.8	1.47e+00	0	61	104	481296384	52	17825
2026-01-30 02:02:51.95	286.57	11.55	-41.7	-52.0	4.5	1.48e+00	30	61	104	481296384	53	12936
2026-01-30 02:02:52.96	286.40	11.51	-41.9	-52.2	4.5	9.39e-01	0	61	0	482344960	54	12445
2026-01-30 02:02:53.96	286.24	11.46	-41.8	-52.3	4.4	1.13e+00	62	60	0	484442112	54	12620
2026-01-30 02:02:54.98	286.07	11.41	-41.8	-52.4	4.4	1.20e+00	87	61	0	486539264	54	12722
2026-01-30 02:02:55.99	285.91	11.37	-41.8	-52.5	4.4	1.26e+00	60	61	0	487587840	54	12865
2026-01-30 02:02:57.00	285.74	11.32	-41.8	-52.6	4.3	1.31e+00	80	61	0	489684992	54	13032
2026-01-30 02:02:58.00	285.58	11.27	-43.4	-54.7	4.2	1.17e+00	0	61	0	490733568	57	14004
2026-01-30 02:02:59.01	285.42	11.22	-40.8	-54.2	3.8	1.35e+00	0	61	104	490733568	53	16614
2026-01-30 02:03:00.03	285.26	11.18	-41.2	-55.7	3.8	1.49e+00	0	61	104	490733568	53	19683
2026-01-30 02:03:01.04	285.10	11.13	-42.2	-53.7	4.1	1.46e+00	0	61	0	490733568	54	14799
2026-01-30 02:03:02.05	284.93	11.08	-40.2	-54.6	3.8	1.49e+00	0	61	104	490733568	52	18317
2026-01-30 02:03:03.06	284.77	11.03	-42.2	-53.9	4.0	1.49e+00	0	61	104	490733568	54	15158
2026-01-30 02:03:04.07	284.61	10.99	-42.2	-53.8	4.1	1.43e+00	0	61	0	490733568	55	14049
2026-01-30 02:03:05.08	284.46	10.94	-42.2	-53.4	4.2	1.41e+00	0	61	0	490733568	55	13522
2026-01-30 02:03:06.09	284.30	10.89	-42.2	-53.0	4.3	1.36e+00	0	61	0	490733568	55	12933
2026-01-30 02:03:07.10	284.14	10.84	-42.2	-52.6	4.5	1.19e+00	17	61	0	491782144	55	12313
2026-01-30 02:03:08.11	283.98	10.79	-42.2	-52.4	4.6	9.78e-01	0	61	0	493879296	55	12016
2026-01-30 02:03:09.12	283.82	10.74	-43.6	-55.9	3.8	1.17e+00	0	61	104	494927872	57	15966
2026-01-30 02:03:10.13	283.67	10.70	-42.5	-51.7	5.2	6.53e-01	0	61	0	495976448	57	9831
2026-01-30 02:03:11.14	283.51	10.65	-41.2	-54.0	3.8	1.43e+00	0	61	104	495976448	54	15296
2026-01-30 02:03:12.15	283.36	10.60	-42.5	-53.2	4.4	1.39e+00	68	61	0	495976448	55	13131
2026-01-30 02:03:13.16	283.20	10.55	-41.9	-51.9	4.6	9.01e-01	0	61	0	497025024	55	11381
2026-01-30 02:03:14.17	283.05	10.50	-42.0	-50.2	6.0	3.95e-01	0	61	0	499122176	55	9296
2026-01-30 02:03:15.18	282.89	10.45	-42.0	-49.9	6.2	3.07e-01	0	61	0	501219328	55	9014
2026-01-30 02:03:16.19	282.74	10.40	-41.9	-49.6	6.5	2.59e-01	0	61	0	503316480	55	8733
2026-01-30 02:03:17.20	282.59	10.35	-41.9	-49.4	6.7	2.13e-01	0	61	0	505413632	55	8488
2026-01-30 02:03:18.21	282.43	10.30	-41.9	-49.2	6.8	1.87e-01	0	61	0	506462208	55	8357
2026-01-30 02:03:19.22	282.28	10.25	-41.9	-49.3	6.9	1.71e-01	0	61	0	508559360	55	8383
2026-01-30 02:03:20.23	282.13	10.20	-42.3	-50.0	6.4	2.78e-01	0	61	0	510656512	55	9158
2026-01-30 02:03:21.24	281.98	10.15	-41.6	-49.0	6.8	1.64e-01	0	61	0	512753664	55	8102
2026-01-30 02:03:22.25	281.83	10.10	-42.4	-53.0	4.0	7.45e-01	0	61	104	513802240	55	12954
2026-01-30 02:03:23.27	281.68	10.05	-42.3	-49.6	6.9	2.24e-01	0	61	0	514850816	55	8687
2026-01-30 02:03:24.27	281.53	10.00	-41.1	-51.4	4.4	1.06e+00	46	61	0	515899392	54	11406
2026-01-30 02:03:25.29	281.38	9.95	-41.7	-48.7	7.2	2.80e-01	0	61	0	517996544	54	8336
2026-01-30 02:03:26.29	281.23	9.90	-41.7	-49.1	6.8	1.47e-01	0	61	0	520093696	54	8668
2026-01-30 02:03:27.30	281.08	9.85	-41.8	-49.3	6.7	1.80e-01	0	61	0	522190848	54	8869
2026-01-30 02:03:28.32	280.94	9.80	-41.8	-49.5	6.5	2.15e-01	0	61	0	523239424	54	9085
2026-01-30 02:03:29.33	280.79	9.75	-41.8	-49.6	6.3	2.34e-01	0	61	0	525336576	54	9200
2026-01-30 02:03:30.33	280.64	9.70	-41.8	-49.6	6.3	2.90e-01	0	61	0	527433728	54	9204
2026-01-30 02:03:31.35	280.50	9.65	-42.3	-49.9	6.5	2.38e-01	0	61	0	529530880	55	9057
2026-01-30 02:03:32.36	280.35	9.60	-41.7	-50.3	5.7	3.26e-01	0	61	0	531628032	55	9406
2026-01-30 02:03:33.37	280.21	9.55	-41.8	-53.3	3.9	1.49e+00	0	61	104	531628032	55	13375
2026-01-30 02:03:34.38	280.06	9.50	-42.1	-50.3	6.0	3.50e-01	0	61	0	532676608	55	9483
2026-01-30 02:03:35.39	279.92	9.45	-40.8	-53.4	3.8	1.40e+00	0	61	104	532676608	53	15163
2026-01-30 02:03:36.40	279.78	9.40	-42.0	-50.7	5.6	4.71e-01	0	61	0	533725184	54	10471
2026-01-30 02:03:37.41	279.63	9.35	-42.0	-51.0	5.3	5.25e-01	0	61	0	534773760	54	10891
2026-01-30 02:03:38.42	279.49	9.30	-42.0	-51.3	5.1	5.93e-01	0	61	0	536870912	54	11226
2026-01-30 02:03:39.43	279.35	9.25	-42.0	-51.5	5.0	6.76e-01	0	61	0	538968064	54	11424
2026-01-30 02:03:40.44	279.21	9.19	-41.9	-51.7	4.8	7.61e-01	0	61	0	541065216	54	11763
2026-01-30 02:03:41.45	279.07	9.14	-42.3	-51.8	4.9	8.41e-01	0	61	0	543162368	55	11205
2026-01-30 02:03:42.46	278.93	9.09	-42.5	-52.3	4.9	8.66e-01	0	61	0	544210944	57	10541
2026-01-30 02:03:43.47	278.79	9.04	-41.0	-54.0	3.9	1.47e+00	0	61	104	545259520	54	15324
2026-01-30 02:03:44.48	278.65	8.99	-41.1	-54.6	3.8	1.49e+00	0	61	104	545259520	53	17361
2026-01-30 02:03:45.49	278.51	8.94	-41.4	-53.4	4.0	1.31e+00	0	61	0	545259520	54	14297
2026-01-30 02:03:46.50	278.37	8.89	-40.7	-54.4	3.8	1.49e+00	0	61	104	545259520	52	17964
2026-01-30 02:03:47.51	278.23	8.83	-41.9	-53.1	4.2	1.44e+00	0	61	0	545259520	54	13822
2026-01-30 02:03:48.52	278.10	8.78	-41.9	-53.3	4.1	1.39e+00	0	61	0	545259520	54	14157
2026-01-30 02:03:49.53	277.96	8.73	-41.8	-53.7	3.9	1.46e+00	0	61	104	545259520	54	14757
2026-01-30 02:03:50.54	277.82	8.68	-41.7	-53.9	3.8	1.48e+00	0	61	104	545259520	54	15101
2026-01-30 02:03:51.55	277.69	8.63	-41.6	-54.2	3.8	1.48e+00	0	61	104	545259520	54	15669
2026-01-30 02:03:52.56	277.55	8.58	-42.0	-54.1	3.8	1.48e+00	0	61	104	545259520	54	15498
2026-01-30 02:03:53.57	277.42	8.52	-41.1	-54.7	3.8	1.48e+00	0	61	104	545259520	54	16513
2026-01-30 02:03:54.58	277.28	8.47	-40.1	-54.5	3.8	1.49e+00	0	61	104	545259520	52	18293
2026-01-30 02:03:55.59	277.15	8.42	-40.4	-54.8	3.8	1.49e+00	0	61	104	545259520	52	18948
2026-01-30 02:03:56.60	277.02	8.37	-40.0	-54.4	3.8	1.49e+00	0	61	104	545259520	52	17986
2026-01-30 02:03:57.61	276.88	8.32	-39.7	-54.2	3.8	1.49e+00	0	61	104	545259520	51	18519
2026-01-30 02:03:58.62	276.75	8.27	-39.7	-54.1	3.8	1.49e+00	0	61	104	545259520	51	18452
2026-01-30 02:03:59.63	276.62	8.21	-39.7	-54.1	3.8	1.49e+00	0	61	104	545259520	51	18415
2026-01-30 02:04:00.64	276.49	8.16	-39.7	-54.1	3.8	1.49e+00	0	61	104	545259520	51	18320
2026-01-30 02:04:01.65	276.36	8.11	-39.7	-54.2	3.8	1.49e+00	0	61	104	545259520	51	18537
2026-01-30 02:04:02.66	276.23	8.06	-40.2	-54.6	3.8	1.49e+00	0	61	104	545259520	51	19455
2026-01-30 02:04:03.67	276.10	8.00	-42.5	-56.7	3.8	1.49e+00	0	61	104	545259520	55	19765
2026-01-30 02:04:04.68	275.97	7.95	-44.4	-59.0	3.8	1.49e+00	0	61	104	545259520	59	20327
2026-01-30 02:04:05.69	275.84	7.90	-44.7	-59.3	3.8	1.49e+00	0	61	104	545259520	59	21025
2026-01-30 02:04:06.70	275.71	7.85	-44.8	-59.6	3.8	1.49e+00	0	61	104	545259520	60	20599
2026-01-30 02:04:07.71	275.58	7.80	-44.8	-59.6	3.8	1.49e+00	0	61	104	545259520	60	20715
2026-01-30 02:04:08.72	275.45	7.74	-44.9	-59.7	3.8	1.49e+00	0	61	104	545259520	60	20928
2026-01-30 02:04:09.73	275.33	7.69	-45.0	-59.8	3.8	1.49e+00	0	61	104	545259520	60	21036
2026-01-30 02:04:10.74	275.20	7.64	-45.0	-59.8	3.8	1.49e+00	0	61	104	545259520	60	21037
2026-01-30 02:04:11.75	275.07	7.59	-45.0	-59.8	3.8	1.49e+00	0	61	104	545259520	60	21129
2026-01-30 02:04:12.76	274.95	7.53	-45.0	-59.8	3.8	1.49e+00	0	61	104	545259520	60	21221
2026-01-30 02:04:13.77	274.82	7.48	-45.0	-59.8	3.8	1.49e+00	0	61	104	545259520	60	21138
2026-01-30 02:04:14.78	274.70	7.43	-45.0	-59.8	3.8	1.49e+00	0	61	104	545259520	60	21156
2026-01-30 02:04:15.79	274.57	7.38	-45.0	-59.8	3.8	1.49e+00	0	61	104	545259520	60	21114
2026-01-30 02:04:16.80	274.45	7.32	-44.9	-59.8	3.8	1.49e+00	0	61	104	545259520	60	21098
2026-01-30 02:04:17.81	274.33	7.27	-44.9	-59.7	3.8	1.49e+00	0	61	104	545259520	60	20958
2026-01-30 02:04:18.82	274.20	7.22	-44.9	-59.7	3.8	1.49e+00	0	61	104	545259520	60	21004
2026-01-30 02:04:19.83	274.08	7.17	-44.9	-59.8	3.8	1.49e+00	0	61	104	545259520	60	21084
2026-01-30 02:04:20.84	273.96	7.11	-44.8	-59.7	3.8	1.49e+00	0	61	104	545259520	60	20860
2026-01-30 02:04:21.85	273.84	7.06	-44.8	-59.7	3.8	1.49e+00	0	61	104	545259520	60	20812
2026-01-30 02:04:22.87	273.71	7.01	-44.8	-59.7	3.8	1.49e+00	0	61	104	545259520	60	20812
2026-01-30 02:04:23.88	273.59	6.95	-44.8	-59.7	3.8	1.49e+00	0	61	104	545259520	60	20800
2026-01-30 02:04:24.89	273.47	6.90	-44.8	-59.7	3.8	1.49e+00	0	61	104	545259520	60	20844
2026-01-30 02:04:25.90	273.35	6.85	-44.8	-59.7	3.8	1.49e+00	0	61	104	545259520	60	20806
2026-01-30 02:04:26.91	273.23	6.80	-44.8	-59.7	3.8	1.49e+00	0	61	104	545259520	60	20874
2026-01-30 02:04:27.92	273.11	6.74	-44.8	-59.7	3.8	1.49e+00	0	61	104	545259520	60	20835
2026-01-30 02:04:28.93	273.00	6.69	-44.8	-59.7	3.8	1.49e+00	0	61	104	545259520	60	20932
2026-01-30 02:04:29.94	272.88	6.64	-44.8	-59.7	3.8	1.49e+00	0	61	104	545259520	60	20847
2026-01-30 02:04:30.95	272.76	6.59	-44.8	-59.7	3.8	1.49e+00	0	61	104	545259520	60	20827
2026-01-30 02:04:31.96	272.64	6.53	-44.8	-59.7	3.8	1.49e+00	0	61	104	545259520	60	20815
2026-01-30 02:04:32.97	272.53	6.48	-44.8	-59.7	3.8	1.49e+00	0	61	104	545259520	60	20826
2026-01-30 02:04:33.98	272.41	6.43	-44.8	-59.7	3.8	1.49e+00	0	61	104	545259520	60	20837
2026-01-30 02:04:34.99	272.29	6.38	-44.8	-59.7	3.8	1.49e+00	0	61	104	545259520	60	20809
2026-01-30 02:04:36.00	272.18	6.32	-44.8	-59.7	3.8	1.49e+00	0	61	104	545259520	60	20833
2026-01-30 02:04:37.01	272.06	6.27	-44.8	-59.7	3.8	1.49e+00	0	61	104	545259520	60	20815
2026-01-30 02:04:38.02	271.95	6.22	-44.8	-59.7	3.8	1.49e+00	0	61	104	545259520	60	20812
2026-01-30 02:04:39.03	271.83	6.16	-44.8	-59.7	3.8	1.49e+00	0	61	104	545259520	60	20801
2026-01-30 02:04:40.04	271.72	6.11	-44.8	-59.7	3.8	1.49e+00	0	61	104	545259520	60	20856
2026-01-30 02:04:41.05	271.61	6.06	-44.8	-59.7	3.8	1.49e+00	0	61	104	545259520	60	20855
2026-01-30 02:04:42.06	271.49	6.01	-44.8	-59.7	3.8	1.49e+00	0	61	104	545259520	60	20849
2026-01-30 02:04:43.07	271.38	5.95	-44.8	-59.7	3.8	1.49e+00	0	61	104	545259520	60	20821
2026-01-30 02:04:44.08	271.27	5.90	-44.8	-59.7	3.8	1.49e+00	0	61	104	545259520	60	20811
2026-01-30 02:04:45.09	271.16	5.85	-44.8	-59.7	3.8	1.49e+00	0	61	104	545259520	60	20809
2026-01-30 02:04:46.10	271.05	5.80	-44.8	-59.6	3.8	1.49e+00	0	61	104	545259520	60	20769
2026-01-30 02:04:47.11	270.93	5.74	-44.8	-59.6	3.8	1.49e+00	0	61	104	545259520	60	20760
2026-01-30 02:04:48.12	270.82	5.69	-44.8	-59.6	3.8	1.49e+00	0	61	104	545259520	60	20765
2026-01-30 02:04:49.13	270.71	5.64	-44.8	-59.7	3.8	1.49e+00	0	61	104	545259520	60	20793
2026-01-30 02:04:50.14	270.60	5.59	-44.8	-59.7	3.8	1.49e+00	0	61	104	545259520	60	20844
2026-01-30 02:04:51.15	270.49	5.53	-44.8	-59.7	3.8	1.49e+00	0	61	104	545259520	60	20790
2026-01-30 02:04:52.16	270.39	5.48	-44.8	-59.6	3.8	1.49e+00	0	61	104	545259520	60	20739
2026-01-30 02:04:53.18	270.28	5.43	-44.8	-59.6	3.8	1.49e+00	0	61	104	545259520	60	20723
2026-01-30 02:04:54.19	270.17	5.37	-44.8	-59.6	3.8	1.49e+00	0	61	104	545259520	60	20767
2026-01-30 02:04:55.20	270.06	5.32	-44.8	-59.6	3.8	1.49e+00	0	61	104	545259520	60	20760
2026-01-30 02:04:56.21	269.95	5.27	-44.8	-59.6	3.8	1.49e+00	0	61	104	545259520	60	20732
2026-01-30 02:04:57.22	269.85	5.22	-44.8	-59.6	3.8	1.49e+00	0	61	104	545259520	60	20711
2026-01-30 02:04:58.23	269.74	5.16	-44.8	-59.6	3.8	1.49e+00	0	61	104	545259520	60	20683
2026-01-30 02:04:59.24	269.63	5.11	-44.8	-59.6	3.8	1.49e+00	0	61	104	545259520	60	20712
2026-01-30 02:05:00.25	269.53	5.06	-44.8	-59.6	3.8	1.49e+00	0	61	104	545259520	60	20650
2026-01-30 02:05:01.26	269.42	5.01	-44.8	-59.6	3.8	1.49e+00	0	61	104	545259520	60	20696
2026-01-30 02:05:02.27	269.32	4.95	-44.8	-59.6	3.8	1.49e+00	0	61	104	545259520	60	20613
2026-01-30 02:05:03.28	269.21	4.90	-44.8	-59.6	3.8	1.49e+00	0	61	104	545259520	60	20640
2026-01-30 02:05:04.29	269.11	4.85	-44.8	-59.6	3.8	1.49e+00	0	61	104	545259520	60	20681
2026-01-30 02:05:05.30	269.00	4.80	-44.7	-59.6	3.8	1.49e+00	0	61	104	545259520	60	20701
2026-01-30 02:05:06.31	268.90	4.74	-44.7	-59.6	3.8	1.49e+00	0	61	104	545259520	60	20710
2026-01-30 02:05:07.32	268.80	4.69	-44.8	-59.6	3.8	1.49e+00	0	61	104	545259520	60	20668
2026-01-30 02:05:08.33	268.69	4.64	-44.7	-59.6	3.8	1.49e+00	0	61	104	545259520	60	20611
2026-01-30 02:05:09.34	268.59	4.59	-44.8	-59.6	3.8	1.49e+00	0	61	104	545259520	60	20668
2026-01-30 02:05:10.35	268.49	4.53	-44.7	-59.6	3.8	1.49e+00	0	61	104	545259520	60	20624
2026-01-30 02:05:11.36	268.39	4.48	-44.7	-59.6	3.8	1.49e+00	0	61	104	545259520	60	20579
2026-01-30 02:05:12.37	268.29	4.43	-44.8	-59.6	3.8	1.49e+00	0	61	104	545259520	60	20677
2026-01-30 02:05:13.38	268.19	4.38	-44.7	-59.6	3.8	1.49e+00	0	61	104	545259520	60	20630
2026-01-30 02:05:14.39	268.09	4.33	-44.7	-59.6	3.8	1.49e+00	0	61	104	545259520	60	20614
2026-01-30 02:05:15.40	267.99	4.27	-44.7	-59.6	3.8	1.49e+00	0	61	104	545259520	60	20599
2026-01-30 02:05:16.41	267.89	4.22	-44.7	-59.6	3.8	1.49e+00	0	61	104	545259520	60	20629
2026-01-30 02:05:17.43	267.79	4.17	-44.7	-59.6	3.8	1.49e+00	0	61	104	545259520	60	20617
2026-01-30 02:05:18.44	267.69	4.12	-44.7	-59.6	3.8	1.49e+00	0	61	104	545259520	60	20637
2026-01-30 02:05:19.45	267.59	4.06	-44.7	-59.6	3.8	1.49e+00	0	61	104	545259520	60	20568
2026-01-30 02:05:20.46	267.49	4.01	-44.7	-59.6	3.8	1.49e+00	0	61	104	545259520	60	20581
2026-01-30 02:05:21.47	267.39	3.96	-44.7	-59.6	3.8	1.49e+00	0	61	104	545259520	60	20621
2026-01-30 02:05:22.48	267.29	3.91	-44.7	-59.6	3.8	1.49e+00	0	61	104	545259520	60	20606
2026-01-30 02:05:23.49	267.20	3.85	-44.7	-59.6	3.8	1.49e+00	0	61	104	545259520	60	20568
2026-01-30 02:05:24.50	267.10	3.80	-44.7	-59.6	3.8	1.49e+00	0	61	104	545259520	60	20589
2026-01-30 02:05:25.51	267.00	3.75	-44.7	-59.6	3.8	1.49e+00	0	61	104	545259520	60	20567
2026-01-30 02:05:26.52	266.91	3.70	-44.7	-59.6	3.8	1.49e+00	0	61	104	545259520	60	20541
2026-01-30 02:05:27.53	266.81	3.65	-44.7	-59.6	3.8	1.49e+00	0	61	104	545259520	60	20579
2026-01-30 02:05:28.54	266.72	3.59	-44.7	-59.6	3.8	1.49e+00	0	61	104	545259520	60	20562
2026-01-30 02:05:29.55	266.62	3.54	-44.7	-59.6	3.8	1.49e+00	0	61	104	545259520	60	20592
2026-01-30 02:05:30.56	266.53	3.49	-44.7	-59.6	3.8	1.49e+00	0	61	104	545259520	60	20647
2026-01-30 02:05:31.57	266.43	3.44	-44.7	-59.6	3.8	1.49e+00	0	61	104	545259520	60	20642
2026-01-30 02:05:32.57	266.34	3.39	-44.7	-59.6	3.8	1.49e+00	0	61	104	545259520	60	20610
2026-01-30 02:05:33.59	266.24	3.34	-44.7	-59.6	3.8	1.49e+00	0	61	104	545259520	60	20564
2026-01-30 02:05:34.59	266.15	3.28	-44.7	-59.6	3.8	1.49e+00	0	61	104	545259520	60	20567
2026-01-30 02:05:35.60	266.06	3.23	-44.7	-59.6	3.8	1.49e+00	0	61	104	545259520	60	20596
2026-01-30 02:05:36.61	265.96	3.18	-44.7	-59.6	3.8	1.49e+00	0	61	104	545259520	60	20646
2026-01-30 02:05:37.62	265.87	3.13	-44.7	-59.6	3.8	1.49e+00	0	61	104	545259520	60	20583
2026-01-30 02:05:38.63	265.78	3.08	-44.7	-59.6	3.8	1.49e+00	0	61	104	545259520	60	20602
2026-01-30 02:05:39.64	265.69	3.03	-44.7	-59.6	3.8	1.49e+00	0	61	104	545259520	60	20604
2026-01-30 02:05:40.65	265.60	2.97	-44.7	-59.6	3.8	1.49e+00	0	61	104	545259520	60	20609
2026-01-30 02:05:41.67	265.50	2.92	-44.7	-59.6	3.8	1.49e+00	0	61	104	545259520	60	20570
2026-01-30 02:05:42.68	265.41	2.87	-44.7	-59.6	3.8	1.49e+00	0	61	104	545259520	60	20595
2026-01-30 02:05:43.69	265.32	2.82	-44.7	-59.6	3.8	1.49e+00	0	61	104	545259520	60	20562
2026-01-30 02:05:44.70	265.23	2.77	-44.7	-59.5	3.8	1.49e+00	0	61	104	545259520	60	20538
2026-01-30 02:05:45.71	265.14	2.72	-44.7	-59.6	3.8	1.49e+00	0	61	104	545259520	60	20544
2026-01-30 02:05:46.72	265.05	2.66	-44.7	-59.6	3.8	1.49e+00	0	61	104	545259520	60	20560
2026-01-30 02:05:47.73	264.96	2.61	-44.7	-59.5	3.8	1.49e+00	0	61	104	545259520	60	20530
2026-01-30 02:05:48.74	264.88	2.56	-44.7	-59.6	3.8	1.49e+00	0	61	104	545259520	60	20582
2026-01-30 02:05:49.75	264.79	2.51	-44.7	-59.6	3.8	1.49e+00	0	61	104	545259520	60	20594
2026-01-30 02:05:50.76	264.70	2.46	-44.7	-59.6	3.8	1.49e+00	0	61	104	545259520	60	20585
2026-01-30 02:05:51.77	264.61	2.41	-44.7	-59.6	3.8	1.49e+00	0	61	104	545259520	60	20583
2026-01-30 02:05:52.78	264.52	2.36	-44.7	-59.6	3.8	1.49e+00	0	61	104	545259520	60	20564
2026-01-30 02:05:53.79	264.44	2.30	-44.7	-59.6	3.8	1.49e+00	0	61	104	545259520	60	20549
2026-01-30 02:05:54.80	264.35	2.25	-44.7	-59.6	3.8	1.49e+00	0	61	104	545259520	60	20556
2026-01-30 02:05:55.81	264.26	2.20	-44.7	-59.6	3.8	1.49e+00	0	61	104	545259520	60	20559
2026-01-30 02:05:56.82	264.18	2.15	-44.7	-59.6	3.8	1.49e+00	0	61	104	545259520	60	20586
2026-01-30 02:05:57.83	264.09	2.10	-44.7	-59.6	3.8	1.49e+00	0	61	104	545259520	60	20607
2026-01-30 02:05:58.84	264.00	2.05	-44.7	-59.6	3.8	1.49e+00	0	61	104	545259520	60	20622
2026-01-30 02:05:59.85	263.92	2.00	-44.7	-59.6	3.8	1.49e+00	0	61	104	545259520	60	20563

#Closed at: 2026-01-30 02:06:00
#Recorded file [545 MB]: D:/lorett/data/31039_260130_045439.dat