passes_logs/2026/01/30/R2.0S_Moscow/R2.0S_Moscow__20260130_013402_SUOMI_NPP_rec.log

#Pass ID: 20260130_013402_SUOMI NPP
#Satellite: SUOMI NPP
#Configuration: NPP
#almurnet v.1.7.20251203
#Start time: 2026-01-30 01:34:02

#Version: 2.2.20231116
#Station: R2.0S_Moscow
#Location: 37.707566 lon 55.798166 lat
#TLE: 1 37849U 11061A   26028.91916408  .00000155  00000+0  94467-4 0  9990
#TLE: 2 37849  98.7824 330.8488 0002045  39.4457 320.6868 14.19531289738686

#Time	Az	El	Level	Level2	SNR	BER	BlckErr	Temp	State	Recorded	gain1	gain2
2026-01-30 01:34:02.54	9.89	2.00	-39.8	-54.2	3.8	1.49e+00	0	51	0	0	51	18646
2026-01-30 01:34:03.54	9.83	2.05	-39.8	-54.2	3.8	1.49e+00	0	51	104	0	51	18602
2026-01-30 01:34:04.55	9.76	2.11	-39.8	-54.2	3.8	1.49e+00	0	52	104	0	51	18648
2026-01-30 01:34:05.56	9.68	2.16	-39.8	-54.2	3.8	1.49e+00	0	52	104	0	51	18630
2026-01-30 01:34:06.57	9.61	2.22	-39.8	-54.2	3.8	1.49e+00	0	52	104	0	51	18561
2026-01-30 01:34:07.58	9.54	2.27	-39.8	-54.2	3.8	1.49e+00	0	52	104	0	51	18578
2026-01-30 01:34:08.60	9.47	2.33	-39.8	-54.2	3.8	1.49e+00	0	52	104	0	51	18519
2026-01-30 01:34:09.60	9.40	2.39	-39.8	-54.2	3.8	1.49e+00	0	52	104	0	51	18556
2026-01-30 01:34:10.61	9.33	2.44	-39.8	-54.2	3.8	1.49e+00	0	52	104	0	51	18586
2026-01-30 01:34:11.63	9.25	2.50	-39.8	-54.2	3.8	1.49e+00	0	52	104	0	51	18560
2026-01-30 01:34:12.64	9.18	2.55	-39.8	-54.1	3.8	1.49e+00	0	52	104	0	51	18507
2026-01-30 01:34:13.65	9.11	2.61	-39.8	-54.2	3.8	1.49e+00	0	52	104	0	51	18520
2026-01-30 01:34:14.66	9.04	2.67	-39.8	-54.1	3.8	1.49e+00	0	52	104	0	51	18513
2026-01-30 01:34:15.67	8.96	2.72	-39.7	-54.2	3.8	1.49e+00	0	52	104	0	51	18533
2026-01-30 01:34:16.68	8.89	2.78	-39.7	-54.2	3.8	1.49e+00	0	52	104	0	51	18531
2026-01-30 01:34:17.69	8.81	2.84	-39.8	-54.2	3.8	1.49e+00	0	52	104	0	51	18556
2026-01-30 01:34:18.70	8.74	2.89	-39.7	-54.1	3.8	1.49e+00	0	52	104	0	51	18515
2026-01-30 01:34:19.71	8.67	2.95	-39.7	-54.2	3.8	1.49e+00	0	53	104	0	51	18524
2026-01-30 01:34:20.72	8.59	3.01	-39.7	-54.2	3.8	1.49e+00	0	53	104	0	51	18530
2026-01-30 01:34:21.73	8.51	3.06	-39.7	-54.2	3.8	1.49e+00	0	53	104	0	51	18531
2026-01-30 01:34:22.74	8.44	3.12	-39.7	-54.2	3.8	1.49e+00	0	53	104	0	51	18549
2026-01-30 01:34:23.75	8.36	3.18	-39.7	-54.2	3.8	1.49e+00	0	53	104	0	51	18523
2026-01-30 01:34:24.76	8.29	3.23	-39.7	-54.2	3.8	1.49e+00	0	53	104	0	51	18553
2026-01-30 01:34:25.77	8.21	3.29	-39.7	-54.2	3.8	1.49e+00	0	53	104	0	51	18575
2026-01-30 01:34:26.78	8.13	3.35	-39.7	-54.2	3.8	1.49e+00	0	53	104	0	51	18537
2026-01-30 01:34:27.79	8.06	3.40	-39.7	-54.1	3.8	1.49e+00	0	53	104	0	51	18471
2026-01-30 01:34:28.80	7.98	3.46	-39.7	-54.1	3.8	1.49e+00	0	53	104	0	51	18515
2026-01-30 01:34:29.81	7.90	3.52	-39.7	-54.1	3.8	1.49e+00	0	53	104	0	51	18481
2026-01-30 01:34:30.83	7.82	3.58	-39.7	-54.2	3.8	1.49e+00	0	53	104	0	51	18540
2026-01-30 01:34:31.84	7.74	3.63	-39.7	-54.1	3.8	1.49e+00	0	53	104	0	51	18494
2026-01-30 01:34:32.85	7.67	3.69	-39.7	-54.2	3.8	1.49e+00	0	53	104	0	51	18546
2026-01-30 01:34:33.85	7.59	3.75	-39.7	-54.1	3.8	1.49e+00	0	54	104	0	51	18505
2026-01-30 01:34:34.87	7.51	3.81	-39.7	-54.1	3.8	1.49e+00	0	53	104	0	51	18486
2026-01-30 01:34:35.88	7.43	3.86	-39.7	-54.2	3.8	1.49e+00	0	53	104	0	51	18536
2026-01-30 01:34:36.89	7.35	3.92	-39.7	-54.2	3.8	1.49e+00	0	53	104	0	51	18576
2026-01-30 01:34:37.90	7.27	3.98	-39.7	-54.1	3.8	1.49e+00	0	54	104	0	51	18507
2026-01-30 01:34:38.91	7.19	4.04	-39.7	-54.2	3.8	1.49e+00	0	54	104	0	51	18541
2026-01-30 01:34:39.92	7.11	4.10	-39.7	-54.1	3.8	1.49e+00	0	54	104	0	51	18467
2026-01-30 01:34:40.93	7.02	4.15	-39.7	-54.2	3.8	1.49e+00	0	54	104	0	51	18551
2026-01-30 01:34:41.94	6.94	4.21	-39.7	-54.1	3.8	1.49e+00	0	54	104	0	51	18467
2026-01-30 01:34:42.95	6.86	4.27	-39.7	-54.2	3.8	1.49e+00	0	54	104	0	51	18555
2026-01-30 01:34:43.96	6.78	4.33	-39.7	-54.2	3.8	1.49e+00	0	54	104	0	51	18525
2026-01-30 01:34:44.97	6.69	4.39	-39.7	-54.1	3.8	1.49e+00	0	54	104	0	51	18502
2026-01-30 01:34:45.98	6.61	4.45	-39.7	-54.1	3.8	1.49e+00	0	54	104	0	51	18503
2026-01-30 01:34:46.99	6.53	4.50	-39.7	-54.1	3.8	1.49e+00	0	54	104	0	51	18485
2026-01-30 01:34:48.00	6.44	4.56	-39.7	-54.1	3.8	1.49e+00	0	54	104	0	51	18505
2026-01-30 01:34:49.01	6.36	4.62	-39.7	-54.2	3.8	1.49e+00	0	54	104	0	51	18529
2026-01-30 01:34:50.02	6.28	4.68	-39.7	-54.1	3.8	1.49e+00	0	54	104	0	51	18517
2026-01-30 01:34:51.03	6.19	4.74	-39.7	-54.2	3.8	1.49e+00	0	55	104	0	51	18523
2026-01-30 01:34:52.04	6.11	4.80	-39.7	-54.1	3.8	1.49e+00	0	55	104	0	51	18509
2026-01-30 01:34:53.05	6.02	4.86	-39.7	-54.2	3.8	1.49e+00	0	54	104	0	51	18546
2026-01-30 01:34:54.06	5.93	4.92	-39.7	-54.2	3.8	1.49e+00	0	55	104	0	51	18533
2026-01-30 01:34:55.07	5.85	4.97	-39.7	-54.1	3.8	1.49e+00	0	55	104	0	51	18511
2026-01-30 01:34:56.08	5.76	5.03	-39.7	-54.1	3.8	1.49e+00	0	54	104	0	51	18453
2026-01-30 01:34:57.09	5.67	5.09	-39.7	-54.1	3.8	1.49e+00	0	55	104	0	51	18449
2026-01-30 01:34:58.10	5.59	5.15	-39.7	-54.1	3.8	1.49e+00	0	55	104	0	51	18475
2026-01-30 01:34:59.11	5.50	5.21	-39.7	-54.1	3.8	1.49e+00	0	55	104	0	51	18444
2026-01-30 01:35:00.12	5.41	5.27	-39.7	-54.1	3.8	1.49e+00	0	55	104	0	51	18510
2026-01-30 01:35:01.13	5.32	5.33	-39.7	-54.1	3.8	1.49e+00	0	55	104	0	51	18438
2026-01-30 01:35:02.14	5.23	5.39	-39.7	-54.1	3.8	1.49e+00	0	55	104	0	51	18414
2026-01-30 01:35:03.16	5.14	5.45	-39.7	-54.1	3.8	1.49e+00	0	55	104	0	51	18427
2026-01-30 01:35:04.17	5.05	5.51	-39.7	-54.1	3.8	1.49e+00	0	55	104	0	51	18440
2026-01-30 01:35:05.17	4.96	5.57	-39.7	-54.1	3.8	1.49e+00	0	55	104	0	51	18470
2026-01-30 01:35:06.19	4.87	5.63	-39.7	-54.1	3.8	1.49e+00	0	55	104	0	51	18470
2026-01-30 01:35:07.20	4.78	5.69	-39.7	-54.1	3.8	1.49e+00	0	55	104	0	51	18494
2026-01-30 01:35:08.21	4.69	5.75	-39.7	-54.1	3.8	1.49e+00	0	55	104	0	51	18458
2026-01-30 01:35:09.22	4.60	5.81	-39.7	-54.1	3.8	1.49e+00	0	55	104	0	51	18407
2026-01-30 01:35:10.23	4.51	5.87	-39.7	-54.1	3.8	1.49e+00	0	55	104	0	51	18444
2026-01-30 01:35:11.24	4.41	5.93	-39.7	-54.1	3.8	1.49e+00	0	55	104	0	51	18466
2026-01-30 01:35:12.25	4.32	5.99	-39.7	-54.1	3.8	1.49e+00	0	55	104	0	51	18473
2026-01-30 01:35:13.26	4.23	6.05	-39.7	-54.1	3.8	1.49e+00	0	55	104	0	51	18398
2026-01-30 01:35:14.27	4.14	6.11	-39.7	-54.1	3.8	1.49e+00	0	55	104	0	51	18412
2026-01-30 01:35:15.28	4.04	6.17	-39.7	-54.1	3.8	1.49e+00	0	56	104	0	51	18436
2026-01-30 01:35:16.29	3.95	6.23	-39.7	-54.1	3.8	1.49e+00	0	56	104	0	51	18503
2026-01-30 01:35:17.30	3.85	6.29	-39.7	-54.1	3.8	1.49e+00	0	56	104	0	51	18428
2026-01-30 01:35:18.31	3.76	6.35	-39.7	-54.1	3.8	1.49e+00	0	56	104	0	51	18416
2026-01-30 01:35:19.32	3.66	6.41	-39.7	-54.1	3.8	1.49e+00	0	56	104	0	51	18445
2026-01-30 01:35:20.33	3.57	6.47	-39.7	-54.1	3.8	1.49e+00	0	55	104	0	51	18463
2026-01-30 01:35:21.34	3.47	6.53	-39.7	-54.1	3.8	1.49e+00	0	56	104	0	51	18471
2026-01-30 01:35:22.35	3.37	6.59	-39.7	-54.1	3.8	1.49e+00	0	56	104	0	51	18426
2026-01-30 01:35:23.36	3.27	6.65	-39.7	-54.1	3.8	1.49e+00	0	56	104	0	51	18477
2026-01-30 01:35:24.37	3.18	6.72	-39.7	-54.1	3.8	1.49e+00	0	56	104	0	51	18424
2026-01-30 01:35:25.38	3.08	6.78	-39.7	-54.1	3.8	1.49e+00	0	56	104	0	51	18470
2026-01-30 01:35:26.39	2.98	6.84	-39.7	-54.1	3.8	1.49e+00	0	56	104	0	51	18437
2026-01-30 01:35:27.41	2.88	6.90	-39.7	-54.1	3.8	1.49e+00	0	56	104	0	51	18430
2026-01-30 01:35:28.42	2.78	6.96	-39.7	-54.1	3.8	1.49e+00	0	56	104	0	51	18502
2026-01-30 01:35:29.43	2.68	7.02	-39.7	-54.1	3.8	1.49e+00	0	56	104	0	51	18404
2026-01-30 01:35:30.44	2.58	7.08	-39.7	-54.1	3.8	1.49e+00	0	56	104	0	51	18473
2026-01-30 01:35:31.45	2.48	7.14	-39.7	-54.1	3.8	1.49e+00	0	56	104	0	51	18511
2026-01-30 01:35:32.46	2.38	7.21	-39.7	-54.1	3.8	1.49e+00	0	56	104	0	51	18422
2026-01-30 01:35:33.47	2.28	7.27	-39.7	-54.1	3.8	1.49e+00	0	56	104	0	51	18449
2026-01-30 01:35:34.48	2.17	7.33	-39.7	-54.1	3.8	1.49e+00	0	56	104	0	51	18486
2026-01-30 01:35:35.49	2.07	7.39	-39.7	-54.1	3.8	1.49e+00	0	56	104	0	51	18456
2026-01-30 01:35:36.50	1.97	7.45	-39.7	-54.1	3.8	1.49e+00	0	56	104	0	51	18485
2026-01-30 01:35:37.51	1.87	7.51	-39.7	-54.1	3.8	1.49e+00	0	56	104	0	51	18449
2026-01-30 01:35:38.52	1.76	7.58	-39.7	-54.1	3.8	1.49e+00	0	56	104	0	51	18459
2026-01-30 01:35:39.53	1.66	7.64	-39.7	-54.1	3.8	1.49e+00	0	56	104	0	51	18426
2026-01-30 01:35:40.54	1.55	7.70	-39.7	-54.1	3.8	1.49e+00	0	57	104	0	51	18408
2026-01-30 01:35:41.55	1.45	7.76	-39.7	-54.1	3.8	1.49e+00	0	56	104	0	51	18465
2026-01-30 01:35:42.56	1.34	7.82	-39.7	-54.1	3.8	1.49e+00	0	57	104	0	51	18508
2026-01-30 01:35:43.57	1.24	7.89	-39.7	-54.1	3.8	1.49e+00	0	57	104	0	51	18471
2026-01-30 01:35:44.58	1.13	7.95	-39.7	-54.1	3.8	1.49e+00	0	57	104	0	51	18410
2026-01-30 01:35:45.59	1.02	8.01	-39.7	-54.1	3.8	1.49e+00	0	57	104	0	51	18483
2026-01-30 01:35:46.60	0.91	8.07	-39.8	-54.2	3.8	1.49e+00	0	57	104	0	51	18671
2026-01-30 01:35:47.61	0.81	8.13	-39.8	-54.3	3.8	1.49e+00	0	57	104	0	51	18739
2026-01-30 01:35:48.61	0.70	8.20	-39.9	-54.3	3.8	1.49e+00	0	57	104	0	51	18837
2026-01-30 01:35:49.63	0.59	8.26	-39.9	-54.3	3.8	1.49e+00	0	57	104	0	51	18897
2026-01-30 01:35:50.63	0.48	8.32	-39.9	-54.3	3.8	1.49e+00	0	57	104	0	51	18840
2026-01-30 01:35:51.64	0.37	8.38	-39.9	-54.3	3.8	1.49e+00	0	57	104	0	51	18856
2026-01-30 01:35:52.65	0.26	8.45	-39.9	-54.3	3.8	1.49e+00	0	57	104	0	51	18826
2026-01-30 01:35:53.67	0.15	8.51	-39.9	-54.3	3.8	1.49e+00	0	57	104	0	51	18837
2026-01-30 01:35:54.67	0.04	8.57	-39.9	-54.3	3.8	1.49e+00	0	57	104	0	51	18743
2026-01-30 01:35:55.68	359.92	8.63	-39.9	-54.3	3.8	1.49e+00	0	57	104	0	51	18865
2026-01-30 01:35:56.69	359.81	8.70	-39.8	-54.3	3.8	1.49e+00	0	57	104	0	51	18752
2026-01-30 01:35:57.70	359.70	8.76	-39.9	-54.3	3.8	1.49e+00	0	57	104	0	51	18831
2026-01-30 01:35:58.71	359.59	8.82	-39.9	-54.3	3.8	1.49e+00	0	57	104	0	51	18775
2026-01-30 01:35:59.72	359.47	8.89	-39.9	-54.3	3.8	1.49e+00	0	57	104	0	51	18826
2026-01-30 01:36:00.73	359.36	8.95	-39.8	-54.3	3.8	1.49e+00	0	57	104	0	51	18770
2026-01-30 01:36:01.74	359.24	9.01	-39.8	-54.2	3.8	1.49e+00	0	57	104	0	51	18718
2026-01-30 01:36:02.75	359.13	9.08	-39.9	-54.3	3.8	1.49e+00	0	57	104	0	51	18760
2026-01-30 01:36:03.76	359.01	9.14	-39.8	-54.3	3.8	1.49e+00	0	57	104	0	51	18779
2026-01-30 01:36:04.77	358.89	9.20	-39.8	-54.2	3.8	1.49e+00	0	57	104	0	51	18677
2026-01-30 01:36:05.78	358.78	9.26	-39.8	-54.2	3.8	1.49e+00	0	57	104	0	51	18653
2026-01-30 01:36:06.79	358.66	9.33	-39.8	-54.3	3.8	1.49e+00	0	57	104	0	51	18736
2026-01-30 01:36:07.80	358.54	9.39	-39.8	-54.2	3.8	1.49e+00	0	57	104	0	51	18688
2026-01-30 01:36:08.81	358.42	9.45	-39.8	-54.2	3.8	1.49e+00	0	57	104	0	51	18598
2026-01-30 01:36:09.82	358.30	9.52	-39.8	-54.2	3.8	1.49e+00	0	57	104	0	51	18643
2026-01-30 01:36:10.83	358.18	9.58	-39.8	-54.3	3.8	1.49e+00	0	58	104	0	51	18750
2026-01-30 01:36:11.84	358.06	9.64	-39.8	-54.2	3.8	1.49e+00	0	58	104	0	51	18612
2026-01-30 01:36:12.85	357.94	9.71	-39.8	-54.2	3.8	1.49e+00	0	57	104	0	51	18541
2026-01-30 01:36:13.86	357.82	9.77	-39.8	-54.2	3.8	1.49e+00	0	58	104	0	51	18547
2026-01-30 01:36:14.87	357.70	9.84	-39.8	-54.2	3.8	1.49e+00	0	57	104	0	51	18652
2026-01-30 01:36:15.88	357.58	9.90	-39.8	-54.2	3.8	1.49e+00	0	57	104	0	51	18665
2026-01-30 01:36:16.89	357.45	9.96	-39.7	-54.2	3.8	1.49e+00	0	58	104	0	51	18540
2026-01-30 01:36:17.90	357.33	10.03	-39.8	-54.2	3.8	1.49e+00	0	58	104	0	51	18555
2026-01-30 01:36:18.91	357.21	10.09	-39.8	-54.2	3.8	1.49e+00	0	58	104	0	51	18616
2026-01-30 01:36:19.92	357.08	10.15	-39.9	-54.2	3.8	1.49e+00	0	58	104	0	51	18713
2026-01-30 01:36:20.93	356.96	10.22	-39.7	-54.2	3.8	1.49e+00	0	58	104	0	51	18537
2026-01-30 01:36:21.94	356.83	10.28	-39.8	-54.2	3.8	1.49e+00	0	58	104	0	51	18606
2026-01-30 01:36:22.95	356.70	10.35	-39.8	-54.2	3.8	1.49e+00	0	58	104	0	51	18544
2026-01-30 01:36:23.96	356.58	10.41	-39.9	-54.3	3.8	1.49e+00	0	58	104	0	51	18882
2026-01-30 01:36:24.97	356.45	10.47	-39.7	-54.2	3.8	1.49e+00	0	58	104	0	51	18524
2026-01-30 01:36:25.98	356.32	10.54	-39.9	-54.3	3.8	1.49e+00	0	58	104	0	51	18782
2026-01-30 01:36:26.99	356.19	10.60	-39.8	-54.2	3.8	1.49e+00	0	58	104	0	51	18566
2026-01-30 01:36:28.00	356.06	10.67	-40.1	-54.4	3.8	1.49e+00	0	58	104	0	51	19163
2026-01-30 01:36:29.01	355.93	10.73	-39.8	-54.2	3.8	1.49e+00	0	58	104	0	51	18563
2026-01-30 01:36:30.02	355.80	10.79	-40.0	-54.3	3.8	1.49e+00	0	58	104	0	51	18923
2026-01-30 01:36:31.03	355.67	10.86	-39.8	-54.2	3.8	1.49e+00	0	58	104	0	51	18618
2026-01-30 01:36:32.05	355.54	10.92	-40.2	-54.6	3.8	1.49e+00	0	58	104	0	51	19590
2026-01-30 01:36:33.06	355.41	10.99	-39.8	-54.2	3.8	1.49e+00	0	58	104	0	51	18654
2026-01-30 01:36:34.07	355.27	11.05	-40.1	-54.5	3.8	1.49e+00	0	58	104	0	51	19218
2026-01-30 01:36:35.08	355.14	11.11	-39.9	-54.3	3.8	1.49e+00	0	58	104	0	51	18759
2026-01-30 01:36:36.09	355.01	11.18	-40.4	-54.8	3.8	1.49e+00	0	58	104	0	51	20060
2026-01-30 01:36:37.10	354.87	11.24	-39.9	-54.3	3.8	1.49e+00	0	58	104	0	51	18813
2026-01-30 01:36:38.10	354.74	11.31	-40.2	-54.6	3.8	1.49e+00	0	58	104	0	51	19462
2026-01-30 01:36:39.11	354.60	11.37	-40.0	-54.3	3.8	1.49e+00	0	58	104	0	51	18920
2026-01-30 01:36:40.12	354.47	11.43	-40.4	-54.9	3.8	1.49e+00	0	58	104	0	51	20100
2026-01-30 01:36:41.13	354.33	11.50	-40.0	-54.4	3.8	1.49e+00	0	58	104	0	51	18953
2026-01-30 01:36:42.14	354.19	11.56	-40.3	-54.7	3.8	1.49e+00	0	58	104	0	51	19702
2026-01-30 01:36:43.15	354.05	11.63	-40.1	-54.5	3.8	1.49e+00	0	58	104	0	51	19227
2026-01-30 01:36:44.16	353.92	11.69	-40.4	-54.8	3.8	1.49e+00	0	58	104	0	51	19980
2026-01-30 01:36:45.17	353.78	11.76	-40.0	-54.4	3.8	1.49e+00	0	58	104	0	51	19146
2026-01-30 01:36:46.18	353.64	11.82	-40.4	-54.9	3.8	1.49e+00	0	58	104	0	51	20073
2026-01-30 01:36:47.19	353.49	11.88	-40.2	-54.6	3.8	1.49e+00	0	58	104	0	51	19479
2026-01-30 01:36:48.20	353.35	11.95	-40.4	-54.8	3.8	1.49e+00	0	58	104	0	51	19980
2026-01-30 01:36:49.21	353.21	12.01	-40.1	-54.6	3.8	1.49e+00	0	58	104	0	51	19415
2026-01-30 01:36:50.22	353.07	12.08	-40.6	-55.0	3.8	1.49e+00	0	58	104	0	51	20404
2026-01-30 01:36:51.23	352.93	12.14	-40.3	-54.7	3.8	1.49e+00	0	58	104	0	51	19743
2026-01-30 01:36:52.24	352.78	12.20	-40.4	-54.8	3.8	1.49e+00	0	58	104	0	51	20061
2026-01-30 01:36:53.25	352.64	12.27	-40.4	-54.8	3.8	1.49e+00	0	58	104	0	51	19974
2026-01-30 01:36:54.26	352.49	12.33	-40.6	-55.1	3.8	1.49e+00	0	58	104	0	51	20567
2026-01-30 01:36:55.28	352.34	12.40	-40.4	-54.9	3.8	1.49e+00	0	58	104	0	51	20082
2026-01-30 01:36:56.29	352.20	12.46	-40.5	-55.0	3.8	1.49e+00	0	58	104	0	51	20362
2026-01-30 01:36:57.29	352.05	12.53	-40.6	-55.0	3.8	1.49e+00	0	58	104	0	51	20488
2026-01-30 01:36:58.31	351.90	12.59	-40.6	-55.0	3.8	1.49e+00	0	58	104	0	51	20473
2026-01-30 01:36:59.32	351.75	12.65	-40.6	-55.0	3.8	1.49e+00	0	59	104	0	51	20447
2026-01-30 01:37:00.33	351.61	12.72	-40.6	-55.0	3.8	1.49e+00	0	58	104	0	51	20530
2026-01-30 01:37:01.33	351.46	12.78	-40.6	-55.1	3.8	1.49e+00	0	58	104	0	51	20554
2026-01-30 01:37:02.34	351.31	12.85	-40.6	-55.1	3.8	1.49e+00	0	58	104	0	51	20539
2026-01-30 01:37:03.36	351.15	12.91	-40.6	-55.0	3.8	1.49e+00	0	58	104	0	51	20499
2026-01-30 01:37:04.36	351.00	12.97	-40.6	-55.1	3.8	1.49e+00	0	59	104	0	51	20580
2026-01-30 01:37:05.37	350.85	13.04	-40.7	-55.1	3.8	1.49e+00	0	59	104	0	51	20700
2026-01-30 01:37:06.38	350.70	13.10	-40.6	-55.1	3.8	1.49e+00	0	58	104	0	52	19462
2026-01-30 01:37:07.39	350.54	13.16	-40.5	-55.0	3.8	1.49e+00	0	58	104	0	52	19222
2026-01-30 01:37:08.40	350.39	13.23	-40.7	-55.1	3.8	1.49e+00	0	59	104	0	52	19571
2026-01-30 01:37:09.41	350.23	13.29	-40.6	-55.0	3.8	1.49e+00	0	59	104	0	52	19330
2026-01-30 01:37:10.42	350.08	13.36	-40.7	-55.2	3.8	1.49e+00	0	59	104	0	52	19683
2026-01-30 01:37:11.43	349.92	13.42	-40.6	-55.1	3.8	1.49e+00	0	59	104	0	52	19396
2026-01-30 01:37:12.45	349.76	13.48	-40.8	-55.2	3.8	1.49e+00	0	58	104	0	52	19745
2026-01-30 01:37:13.45	349.61	13.55	-40.7	-55.1	3.8	1.49e+00	0	59	104	0	52	19591
2026-01-30 01:37:14.47	349.45	13.61	-40.8	-55.3	3.8	1.49e+00	0	59	104	0	52	19909
2026-01-30 01:37:15.47	349.29	13.67	-40.8	-55.2	3.8	1.49e+00	0	59	104	0	52	19716
2026-01-30 01:37:16.48	349.13	13.74	-40.8	-55.3	3.8	1.49e+00	0	59	104	0	52	19857
2026-01-30 01:37:17.49	348.97	13.80	-40.9	-55.4	3.8	1.49e+00	0	59	104	0	52	20236
2026-01-30 01:37:18.50	348.81	13.86	-40.9	-55.4	3.8	1.49e+00	0	59	104	0	52	20289
2026-01-30 01:37:19.51	348.64	13.93	-40.8	-55.3	3.8	1.49e+00	0	59	104	0	52	19865
2026-01-30 01:37:20.52	348.48	13.99	-41.0	-55.6	3.8	1.49e+00	0	59	104	0	52	20542
2026-01-30 01:37:21.53	348.32	14.05	-41.1	-55.7	3.8	1.49e+00	0	59	104	0	52	20803
2026-01-30 01:37:22.54	348.15	14.12	-41.1	-55.7	3.8	1.49e+00	0	59	104	0	53	19629
2026-01-30 01:37:23.56	347.99	14.18	-41.1	-55.6	3.8	1.49e+00	0	59	104	0	53	19430
2026-01-30 01:37:24.57	347.82	14.24	-41.2	-55.7	3.8	1.49e+00	0	59	104	0	53	19822
2026-01-30 01:37:25.58	347.66	14.31	-41.2	-55.7	3.8	1.49e+00	0	59	104	0	53	19787
2026-01-30 01:37:26.59	347.49	14.37	-41.3	-55.8	3.8	1.49e+00	0	59	104	0	53	19879
2026-01-30 01:37:27.60	347.32	14.43	-41.3	-55.8	3.8	1.49e+00	0	59	104	0	53	19904
2026-01-30 01:37:28.61	347.15	14.49	-41.2	-55.7	3.8	1.49e+00	0	59	104	0	53	19821
2026-01-30 01:37:29.62	346.98	14.56	-41.2	-55.7	3.8	1.49e+00	0	59	104	0	53	19748
2026-01-30 01:37:30.63	346.81	14.62	-41.3	-55.9	3.8	1.49e+00	0	59	104	0	53	20073
2026-01-30 01:37:31.64	346.64	14.68	-41.4	-55.9	3.8	1.49e+00	0	59	104	0	53	20214
2026-01-30 01:37:32.65	346.47	14.74	-41.1	-55.7	3.8	1.49e+00	0	59	104	0	53	19672
2026-01-30 01:37:33.66	346.30	14.80	-41.0	-55.5	3.8	1.49e+00	0	59	104	0	53	19282
2026-01-30 01:37:34.67	346.13	14.87	-41.3	-55.8	3.8	1.49e+00	0	59	104	0	53	20030
2026-01-30 01:37:35.68	345.95	14.93	-41.3	-55.9	3.8	1.49e+00	0	59	104	0	53	20097
2026-01-30 01:37:36.69	345.78	14.99	-41.0	-55.5	3.8	1.49e+00	0	59	104	0	53	19215
2026-01-30 01:37:37.70	345.60	15.05	-40.8	-55.2	3.8	1.49e+00	0	59	104	0	53	18720
2026-01-30 01:37:38.71	345.43	15.11	-41.2	-55.6	3.8	1.49e+00	0	59	104	0	53	19553
2026-01-30 01:37:39.72	345.25	15.17	-41.0	-55.5	3.8	1.49e+00	0	59	104	0	53	19268
2026-01-30 01:37:40.73	345.07	15.24	-40.7	-55.2	3.8	1.49e+00	0	59	104	0	53	18518
2026-01-30 01:37:41.74	344.89	15.30	-40.7	-55.2	3.8	1.49e+00	0	59	104	0	53	18552
2026-01-30 01:37:42.75	344.72	15.36	-40.8	-55.3	3.8	1.49e+00	0	59	104	0	53	18847
2026-01-30 01:37:43.76	344.54	15.42	-40.8	-55.2	3.8	1.49e+00	0	59	104	0	53	18622
2026-01-30 01:37:44.77	344.36	15.48	-40.7	-55.1	3.8	1.49e+00	0	59	104	0	53	18511
2026-01-30 01:37:45.78	344.17	15.54	-40.7	-55.1	3.8	1.49e+00	0	59	104	0	53	18516
2026-01-30 01:37:46.79	343.99	15.60	-40.8	-55.2	3.8	1.49e+00	0	59	104	0	53	18712
2026-01-30 01:37:47.80	343.81	15.66	-40.7	-55.1	3.8	1.49e+00	0	59	104	0	53	18483
2026-01-30 01:37:48.81	343.63	15.72	-40.7	-55.1	3.8	1.49e+00	0	59	104	0	53	18479
2026-01-30 01:37:49.82	343.44	15.78	-40.5	-55.0	3.8	1.49e+00	0	59	104	0	53	18110
2026-01-30 01:37:50.83	343.26	15.84	-40.8	-55.2	3.8	1.49e+00	0	59	104	0	53	18639
2026-01-30 01:37:51.84	343.07	15.90	-40.6	-55.0	3.8	1.49e+00	0	59	104	0	53	18270
2026-01-30 01:37:52.85	342.89	15.96	-40.5	-55.0	3.8	1.49e+00	0	59	104	0	53	18100
2026-01-30 01:37:53.86	342.70	16.02	-40.5	-54.9	3.8	1.49e+00	0	59	104	0	53	18013
2026-01-30 01:37:54.87	342.51	16.08	-40.6	-55.0	3.8	1.49e+00	0	59	104	0	52	19355
2026-01-30 01:37:55.88	342.32	16.14	-40.5	-54.9	3.8	1.49e+00	0	59	104	0	52	19085
2026-01-30 01:37:56.89	342.13	16.20	-40.5	-54.9	3.8	1.49e+00	0	59	104	0	52	19026
2026-01-30 01:37:57.90	341.94	16.25	-40.3	-54.7	3.8	1.49e+00	0	59	104	0	52	18554
2026-01-30 01:37:58.91	341.75	16.31	-40.5	-55.0	3.8	1.49e+00	0	59	104	0	52	19197
2026-01-30 01:37:59.92	341.56	16.37	-40.4	-54.8	3.8	1.49e+00	0	59	104	0	52	18796
2026-01-30 01:38:00.91	341.37	16.43	-40.2	-54.6	3.8	1.49e+00	0	59	104	0	52	18515
2026-01-30 01:38:01.92	341.18	16.49	-40.3	-54.7	3.8	1.49e+00	0	59	104	0	52	18613
2026-01-30 01:38:02.93	340.98	16.54	-40.4	-54.8	3.8	1.49e+00	0	59	104	0	52	18834
2026-01-30 01:38:03.94	340.79	16.60	-40.2	-54.7	3.8	1.49e+00	0	59	104	0	52	18526
2026-01-30 01:38:04.95	340.59	16.66	-40.3	-54.7	3.8	1.49e+00	0	60	104	0	52	18567
2026-01-30 01:38:05.96	340.40	16.72	-40.8	-55.0	3.8	1.49e+00	0	59	104	0	52	19209
2026-01-30 01:38:06.97	340.20	16.77	-40.3	-54.6	3.8	1.49e+00	0	59	104	0	52	18451
2026-01-30 01:38:07.98	340.00	16.83	-40.5	-54.7	3.8	1.49e+00	0	59	104	0	52	18580
2026-01-30 01:38:08.99	339.80	16.89	-40.8	-54.5	3.8	1.49e+00	0	59	104	0	52	18239
2026-01-30 01:38:09.99	339.61	16.94	-41.7	-53.0	4.1	1.46e+00	0	59	104	0	53	14508
2026-01-30 01:38:11.00	339.41	17.00	-40.4	-53.8	3.8	1.49e+00	0	60	104	0	52	16864
2026-01-30 01:38:12.01	339.21	17.05	-41.6	-50.3	5.5	1.44e+00	0	59	0	0	53	10545
2026-01-30 01:38:13.02	339.01	17.11	-41.6	-48.5	7.4	3.06e-01	0	59	0	2097152	53	8607
2026-01-30 01:38:14.03	338.80	17.16	-41.5	-47.2	9.0	4.15e-02	0	60	0	3145728	53	7436
2026-01-30 01:38:15.04	338.60	17.22	-41.4	-46.5	10.1	1.07e-02	0	59	0	5242880	53	6839
2026-01-30 01:38:16.05	338.40	17.27	-41.4	-46.3	10.4	6.33e-03	0	59	0	7340032	53	6714
2026-01-30 01:38:17.06	338.19	17.33	-41.4	-46.2	10.6	4.68e-03	0	59	0	9437184	53	6619
2026-01-30 01:38:18.07	337.99	17.38	-41.3	-45.9	11.0	3.61e-03	0	60	0	11534336	53	6380
2026-01-30 01:38:19.07	337.78	17.44	-41.3	-45.7	11.3	1.90e-03	0	60	0	12582912	53	6220
2026-01-30 01:38:20.08	337.58	17.49	-41.6	-46.2	10.8	2.05e-03	0	59	0	14680064	53	6645
2026-01-30 01:38:21.09	337.37	17.54	-41.7	-46.4	10.7	3.36e-03	0	60	0	16777216	54	6411
2026-01-30 01:38:22.10	337.16	17.60	-41.6	-46.0	11.3	1.90e-03	0	60	0	18874368	54	6074
2026-01-30 01:38:23.11	336.95	17.65	-41.7	-46.1	11.2	1.42e-03	0	59	0	20971520	54	6180
2026-01-30 01:38:24.12	336.74	17.70	-41.7	-46.1	11.3	1.59e-03	0	60	0	22020096	54	6183
2026-01-30 01:38:25.13	336.53	17.76	-41.6	-45.9	11.5	8.85e-04	0	60	0	24117248	54	6052
2026-01-30 01:38:26.14	336.32	17.81	-41.7	-46.2	11.4	1.12e-03	0	60	0	26214400	54	6212
2026-01-30 01:38:27.15	336.11	17.86	-41.7	-46.2	11.4	7.97e-04	0	59	0	28311552	54	6206
2026-01-30 01:38:28.16	335.90	17.91	-41.9	-46.5	11.0	1.80e-03	0	60	0	30408704	54	6446
2026-01-30 01:38:29.17	335.68	17.96	-41.9	-46.5	11.1	1.47e-03	0	59	0	32505856	54	6466
2026-01-30 01:38:30.18	335.47	18.01	-42.0	-46.7	10.8	2.24e-03	0	60	0	33554432	54	6619
2026-01-30 01:38:31.19	335.25	18.06	-42.0	-46.7	10.9	2.37e-03	0	59	0	35651584	54	6598
2026-01-30 01:38:32.20	335.04	18.11	-41.9	-46.4	11.1	2.15e-03	0	60	0	37748736	54	6417
2026-01-30 01:38:33.21	334.82	18.16	-41.8	-46.1	11.4	9.63e-04	0	60	0	39845888	54	6189
2026-01-30 01:38:34.21	334.61	18.21	-41.7	-45.9	11.7	5.87e-04	0	60	0	41943040	54	6012
2026-01-30 01:38:35.22	334.39	18.26	-41.6	-45.8	11.9	5.93e-04	0	60	0	42991616	54	5954
2026-01-30 01:38:36.24	334.17	18.31	-41.6	-45.8	11.9	4.50e-04	0	60	0	45088768	54	5927
2026-01-30 01:38:37.24	333.95	18.36	-41.8	-46.1	11.5	5.76e-04	0	60	0	47185920	54	6165
2026-01-30 01:38:38.25	333.73	18.41	-41.8	-46.1	11.6	5.84e-04	0	60	0	49283072	54	6147
2026-01-30 01:38:39.26	333.51	18.46	-41.8	-46.1	11.5	6.32e-04	0	60	0	51380224	54	6170
2026-01-30 01:38:40.27	333.29	18.50	-41.7	-45.9	11.8	4.65e-04	0	60	0	52428800	54	6009
2026-01-30 01:38:41.28	333.07	18.55	-41.5	-45.5	12.2	2.79e-04	0	60	0	54525952	54	5730
2026-01-30 01:38:42.29	332.84	18.60	-41.3	-45.1	12.6	1.30e-04	0	60	0	56623104	54	5514
2026-01-30 01:38:43.30	332.62	18.64	-41.3	-45.0	12.7	6.63e-05	0	60	0	58720256	54	5434
2026-01-30 01:38:44.31	332.40	18.69	-41.3	-45.0	12.7	6.25e-05	0	60	0	60817408	54	5425
2026-01-30 01:38:45.32	332.17	18.74	-41.3	-45.0	12.8	4.80e-05	0	60	0	61865984	54	5422
2026-01-30 01:38:46.33	331.95	18.78	-41.3	-45.1	12.6	8.85e-05	0	60	0	63963136	54	5489
2026-01-30 01:38:47.34	331.72	18.83	-41.2	-44.9	12.8	5.34e-05	0	60	0	66060288	54	5352
2026-01-30 01:38:48.35	331.49	18.87	-41.3	-44.9	12.8	6.48e-05	0	60	0	68157440	54	5358
2026-01-30 01:38:49.36	331.27	18.92	-41.2	-44.8	12.9	4.95e-05	0	60	0	70254592	54	5331
2026-01-30 01:38:50.37	331.04	18.96	-41.2	-44.8	12.9	3.28e-05	0	60	0	71303168	54	5321
2026-01-30 01:38:51.38	330.81	19.00	-41.2	-44.8	12.9	4.50e-05	0	60	0	73400320	54	5323
2026-01-30 01:38:52.39	330.58	19.05	-41.3	-45.0	12.7	5.34e-05	0	60	0	75497472	54	5438
2026-01-30 01:38:53.40	330.35	19.09	-41.5	-45.4	12.4	1.17e-04	0	60	0	77594624	54	5669
2026-01-30 01:38:54.41	330.12	19.13	-41.6	-45.6	12.1	1.97e-04	0	60	0	79691776	54	5826
2026-01-30 01:38:55.42	329.89	19.17	-41.8	-46.0	11.8	3.80e-04	0	60	0	80740352	54	6074
2026-01-30 01:38:56.42	329.66	19.21	-41.8	-46.1	11.7	4.97e-04	0	60	0	82837504	54	6146
2026-01-30 01:38:57.43	329.43	19.26	-41.7	-45.8	11.9	5.43e-04	0	60	0	84934656	54	5945
2026-01-30 01:38:58.44	329.19	19.30	-41.5	-45.4	12.4	2.81e-04	0	60	0	87031808	54	5688
2026-01-30 01:38:59.45	328.96	19.34	-41.6	-45.5	12.3	1.74e-04	0	60	0	89128960	54	5733
2026-01-30 01:39:00.46	328.72	19.38	-41.4	-45.3	12.5	1.40e-04	0	60	0	90177536	54	5603
2026-01-30 01:39:01.47	328.49	19.42	-41.4	-45.2	12.6	1.27e-04	0	60	0	92274688	54	5583
2026-01-30 01:39:02.48	328.25	19.45	-41.5	-45.4	12.4	1.33e-04	0	60	0	94371840	54	5686
2026-01-30 01:39:03.49	328.02	19.49	-41.5	-45.5	12.3	1.70e-04	0	60	0	96468992	54	5744
2026-01-30 01:39:04.50	327.78	19.53	-41.7	-45.7	12.1	3.10e-04	0	60	0	98566144	54	5874
2026-01-30 01:39:05.51	327.54	19.57	-41.6	-45.5	12.3	2.32e-04	0	60	0	100663296	54	5744
2026-01-30 01:39:06.52	327.30	19.61	-41.5	-45.3	12.5	1.41e-04	0	60	0	101711872	54	5631
2026-01-30 01:39:07.53	327.06	19.64	-41.3	-45.0	12.8	8.54e-05	0	60	0	103809024	54	5432
2026-01-30 01:39:08.54	326.82	19.68	-41.1	-44.6	13.2	3.50e-05	0	60	0	105906176	54	5168
2026-01-30 01:39:09.55	326.58	19.71	-41.0	-44.4	13.4	1.90e-05	0	60	0	108003328	54	5060
2026-01-30 01:39:10.56	326.34	19.75	-41.0	-44.4	13.4	9.90e-06	0	60	0	110100480	53	5343
2026-01-30 01:39:11.57	326.10	19.78	-41.1	-44.5	13.3	1.14e-05	0	60	0	111149056	53	5406
2026-01-30 01:39:12.58	325.86	19.82	-41.2	-44.8	13.0	3.28e-05	0	60	0	113246208	53	5650
2026-01-30 01:39:13.59	325.62	19.85	-41.4	-45.0	12.7	6.33e-05	0	60	0	115343360	53	5786
2026-01-30 01:39:14.60	325.38	19.88	-41.3	-44.9	12.9	8.77e-05	0	60	0	117440512	53	5721
2026-01-30 01:39:15.61	325.13	19.92	-41.4	-45.1	12.7	7.55e-05	0	60	0	119537664	53	5791
2026-01-30 01:39:16.62	324.89	19.95	-41.2	-44.7	13.1	5.64e-05	0	60	0	120586240	53	5551
2026-01-30 01:39:17.62	324.65	19.98	-41.1	-44.5	13.2	1.60e-05	0	60	0	122683392	53	5425
2026-01-30 01:39:18.63	324.40	20.01	-41.0	-44.4	13.3	1.83e-05	0	60	0	124780544	53	5385
2026-01-30 01:39:19.64	324.16	20.04	-41.1	-44.5	13.3	1.37e-05	0	60	0	126877696	53	5419
2026-01-30 01:39:20.65	323.91	20.07	-41.3	-44.9	12.9	2.36e-05	0	60	0	128974848	53	5673
2026-01-30 01:39:21.66	323.66	20.10	-41.5	-45.3	12.4	9.46e-05	0	60	0	130023424	53	5969
2026-01-30 01:39:22.67	323.42	20.13	-41.7	-45.7	12.0	2.31e-04	0	60	0	132120576	53	6235
2026-01-30 01:39:23.68	323.17	20.16	-41.7	-45.8	11.9	3.30e-04	0	60	0	134217728	54	5983
2026-01-30 01:39:24.69	322.92	20.19	-41.8	-46.0	11.7	4.75e-04	0	60	0	136314880	54	6075
2026-01-30 01:39:25.70	322.68	20.22	-41.8	-46.0	11.8	5.23e-04	0	60	0	138412032	54	6085
2026-01-30 01:39:26.71	322.43	20.24	-41.7	-45.7	12.0	3.49e-04	0	60	0	139460608	54	5900
2026-01-30 01:39:27.72	322.18	20.27	-41.7	-45.6	12.1	3.04e-04	0	60	0	141557760	54	5846
2026-01-30 01:39:28.73	321.93	20.30	-41.7	-45.8	12.0	2.95e-04	0	60	0	143654912	54	5960
2026-01-30 01:39:29.74	321.68	20.32	-41.8	-46.0	11.8	4.23e-04	0	60	0	145752064	54	6100
2026-01-30 01:39:30.74	321.43	20.35	-41.9	-46.3	11.5	5.31e-04	0	60	0	147849216	54	6276
2026-01-30 01:39:31.75	321.18	20.37	-42.1	-46.6	11.1	1.27e-03	0	60	0	148897792	54	6551
2026-01-30 01:39:32.76	320.93	20.39	-42.2	-46.9	10.8	2.58e-03	0	60	0	150994944	55	6365
2026-01-30 01:39:33.77	320.68	20.42	-42.3	-47.1	10.6	3.68e-03	0	60	0	153092096	55	6508
2026-01-30 01:39:34.78	320.42	20.44	-42.2	-46.8	10.9	2.71e-03	0	60	0	155189248	55	6323
2026-01-30 01:39:35.79	320.17	20.46	-42.1	-46.7	11.1	1.80e-03	0	60	0	157286400	55	6205
2026-01-30 01:39:36.80	319.92	20.48	-41.9	-46.2	11.5	1.06e-03	0	60	0	158334976	55	5918
2026-01-30 01:39:37.81	319.67	20.50	-41.8	-45.9	11.8	4.92e-04	0	60	0	160432128	55	5693
2026-01-30 01:39:38.82	319.41	20.52	-41.7	-45.7	12.0	2.88e-04	0	60	0	162529280	55	5577
2026-01-30 01:39:39.83	319.16	20.54	-41.7	-45.7	12.0	3.17e-04	0	60	0	164626432	55	5580
2026-01-30 01:39:40.84	318.91	20.56	-41.9	-46.2	11.6	4.03e-04	0	60	0	166723584	55	5908
2026-01-30 01:39:41.85	318.65	20.58	-42.1	-46.6	11.1	1.15e-03	0	60	0	168820736	55	6153
2026-01-30 01:39:42.86	318.40	20.60	-42.3	-47.2	10.4	2.61e-03	0	60	0	169869312	55	6640
2026-01-30 01:39:43.87	318.14	20.62	-42.4	-47.4	10.2	5.23e-03	0	60	0	171966464	55	6800
2026-01-30 01:39:44.88	317.89	20.63	-42.4	-47.6	10.1	7.43e-03	0	60	0	174063616	55	6900
2026-01-30 01:39:45.89	317.63	20.65	-42.4	-47.4	10.2	7.55e-03	0	60	0	176160768	55	6787
2026-01-30 01:39:46.90	317.37	20.67	-42.2	-47.0	10.7	4.86e-03	0	60	0	178257920	55	6455
2026-01-30 01:39:47.91	317.12	20.68	-42.0	-46.6	11.1	1.74e-03	0	60	0	179306496	55	6155
2026-01-30 01:39:48.92	316.86	20.70	-41.9	-46.3	11.4	1.19e-03	0	60	0	181403648	55	5967
2026-01-30 01:39:49.93	316.61	20.71	-42.0	-46.5	11.2	1.27e-03	0	60	0	183500800	55	6109
2026-01-30 01:39:50.94	316.35	20.72	-42.0	-46.5	11.2	1.31e-03	0	60	0	185597952	55	6111
2026-01-30 01:39:51.95	316.09	20.74	-42.2	-46.9	10.8	2.42e-03	0	60	0	187695104	55	6369
2026-01-30 01:39:52.96	315.83	20.75	-42.4	-47.4	10.3	4.08e-03	0	60	0	188743680	55	6732
2026-01-30 01:39:53.97	315.58	20.76	-42.4	-47.4	10.2	5.80e-03	0	60	0	190840832	55	6788
2026-01-30 01:39:54.98	315.32	20.77	-42.3	-47.2	10.4	4.16e-03	0	60	0	192937984	55	6630
2026-01-30 01:39:55.99	315.06	20.78	-42.1	-46.8	10.9	3.09e-03	0	60	0	195035136	55	6305
2026-01-30 01:39:56.99	314.81	20.79	-41.9	-46.3	11.3	1.20e-03	0	60	0	197132288	55	5982
2026-01-30 01:39:58.00	314.55	20.80	-41.8	-45.9	11.7	6.78e-04	0	60	0	198180864	55	5714
2026-01-30 01:39:59.02	314.29	20.81	-41.8	-45.9	11.8	4.74e-04	0	60	0	200278016	55	5690
2026-01-30 01:40:00.03	314.03	20.82	-41.9	-46.2	11.5	4.90e-04	0	60	0	202375168	55	5875
2026-01-30 01:40:01.03	313.77	20.82	-41.9	-46.4	11.3	9.42e-04	0	60	0	204472320	55	6028
2026-01-30 01:40:02.04	313.51	20.83	-42.2	-46.9	10.7	2.05e-03	0	60	0	206569472	55	6400
2026-01-30 01:40:03.05	313.26	20.84	-42.2	-47.1	10.6	4.32e-03	0	60	0	207618048	55	6531
2026-01-30 01:40:04.06	313.00	20.84	-42.3	-47.4	10.2	5.54e-03	0	60	0	209715200	55	6744
2026-01-30 01:40:05.07	312.74	20.85	-42.5	-47.7	9.8	8.77e-03	0	60	0	211812352	55	7038
2026-01-30 01:40:06.08	312.48	20.85	-42.5	-47.9	9.7	9.26e-03	0	60	0	213909504	55	7202
2026-01-30 01:40:07.09	312.22	20.85	-42.4	-47.6	10.0	7.73e-03	0	60	0	216006656	55	6948
2026-01-30 01:40:08.10	311.96	20.86	-42.3	-47.3	10.4	5.03e-03	0	60	0	217055232	55	6653
2026-01-30 01:40:09.11	311.70	20.86	-42.2	-47.1	10.5	4.70e-03	0	60	0	219152384	55	6545
2026-01-30 01:40:10.11	311.44	20.86	-42.2	-47.0	10.7	3.40e-03	0	60	0	221249536	55	6466
2026-01-30 01:40:11.12	311.18	20.86	-42.2	-46.9	10.7	2.87e-03	0	60	0	223346688	55	6401
2026-01-30 01:40:12.13	310.93	20.86	-42.1	-46.8	10.9	2.44e-03	0	60	0	225443840	55	6310
2026-01-30 01:40:13.15	310.66	20.86	-42.1	-46.7	11.0	1.95e-03	0	60	0	226492416	55	6203
2026-01-30 01:40:14.16	310.40	20.86	-42.0	-46.6	11.1	1.51e-03	0	60	0	228589568	55	6139
2026-01-30 01:40:15.17	310.14	20.86	-42.0	-46.5	11.2	1.45e-03	0	60	0	230686720	55	6123
2026-01-30 01:40:16.18	309.89	20.86	-41.9	-46.4	11.3	1.35e-03	0	60	0	232783872	55	6007
2026-01-30 01:40:17.19	309.63	20.86	-41.8	-46.2	11.5	7.54e-04	0	61	0	234881024	55	5864
2026-01-30 01:40:18.20	309.37	20.85	-41.8	-46.1	11.5	6.83e-04	0	61	0	236978176	55	5812
2026-01-30 01:40:19.21	309.11	20.85	-41.8	-46.1	11.7	5.49e-04	0	61	0	238026752	55	5792
2026-01-30 01:40:20.22	308.85	20.84	-41.7	-45.9	11.8	5.00e-04	0	60	0	240123904	55	5691
2026-01-30 01:40:21.23	308.59	20.84	-41.6	-45.7	11.9	4.07e-04	0	60	0	242221056	55	5583
2026-01-30 01:40:22.24	308.33	20.83	-41.7	-45.8	11.9	3.94e-04	0	60	0	244318208	55	5656
2026-01-30 01:40:23.25	308.07	20.83	-41.7	-45.8	11.9	3.47e-04	0	60	0	246415360	55	5614
2026-01-30 01:40:24.26	307.81	20.82	-41.8	-46.1	11.7	4.78e-04	0	60	0	247463936	55	5790
2026-01-30 01:40:25.27	307.55	20.81	-41.9	-46.3	11.4	6.56e-04	0	60	0	249561088	55	5988
2026-01-30 01:40:26.28	307.30	20.80	-42.1	-46.6	11.0	1.20e-03	0	61	0	251658240	55	6178
2026-01-30 01:40:27.29	307.04	20.80	-42.2	-46.9	10.8	2.23e-03	0	60	0	253755392	55	6392
2026-01-30 01:40:28.30	306.78	20.79	-42.3	-47.3	10.4	3.98e-03	0	60	0	255852544	55	6664
2026-01-30 01:40:29.31	306.52	20.78	-42.4	-47.4	10.3	5.08e-03	0	60	0	256901120	55	6786
2026-01-30 01:40:30.32	306.26	20.77	-42.4	-47.6	10.0	6.63e-03	0	61	0	258998272	55	6930
2026-01-30 01:40:31.33	306.01	20.75	-42.4	-47.5	10.1	6.17e-03	0	60	0	261095424	55	6837
2026-01-30 01:40:32.34	305.75	20.74	-42.2	-47.1	10.6	3.94e-03	0	61	0	263192576	55	6498
2026-01-30 01:40:33.35	305.49	20.73	-42.0	-46.4	11.2	1.74e-03	0	61	0	265289728	55	6057
2026-01-30 01:40:34.35	305.24	20.72	-41.9	-46.1	11.6	8.19e-04	0	61	0	266338304	55	5852
2026-01-30 01:40:35.36	304.98	20.70	-41.7	-45.7	12.1	5.42e-04	0	60	0	268435456	55	5555
2026-01-30 01:40:36.37	304.72	20.69	-41.5	-45.4	12.3	1.60e-04	0	60	0	270532608	55	5381
2026-01-30 01:40:37.39	304.46	20.67	-41.5	-45.3	12.4	1.68e-04	0	60	0	272629760	55	5338
2026-01-30 01:40:38.39	304.21	20.66	-41.4	-45.2	12.6	1.01e-04	0	60	0	274726912	54	5546
2026-01-30 01:40:39.40	303.95	20.64	-41.4	-45.2	12.6	9.99e-05	0	60	0	275775488	54	5572
2026-01-30 01:40:40.41	303.70	20.63	-41.5	-45.2	12.5	9.61e-05	0	60	0	277872640	54	5572
2026-01-30 01:40:41.42	303.44	20.61	-41.5	-45.3	12.5	8.46e-05	0	60	0	279969792	54	5623
2026-01-30 01:40:42.43	303.19	20.59	-41.3	-44.9	12.8	1.23e-04	0	60	0	282066944	54	5382
2026-01-30 01:40:43.44	302.93	20.57	-41.4	-45.1	12.6	8.23e-05	0	60	0	284164096	54	5518
2026-01-30 01:40:44.45	302.68	20.55	-41.5	-45.2	12.5	9.23e-05	0	60	0	285212672	54	5582
2026-01-30 01:40:45.46	302.42	20.53	-41.5	-45.2	12.5	8.39e-05	0	60	0	287309824	54	5587
2026-01-30 01:40:46.47	302.17	20.51	-41.6	-45.4	12.4	1.14e-04	0	60	0	289406976	54	5674
2026-01-30 01:40:47.48	301.92	20.49	-41.7	-45.5	12.3	1.52e-04	0	60	0	291504128	54	5787
2026-01-30 01:40:48.49	301.66	20.47	-41.6	-45.4	12.3	2.07e-04	0	60	0	293601280	54	5718
2026-01-30 01:40:49.50	301.41	20.45	-41.6	-45.3	12.4	1.72e-04	0	61	0	294649856	54	5653
2026-01-30 01:40:50.51	301.16	20.43	-41.5	-45.1	12.7	9.76e-05	0	60	0	296747008	54	5500
2026-01-30 01:40:51.52	300.91	20.40	-41.4	-45.0	12.8	5.95e-05	0	61	0	298844160	54	5425
2026-01-30 01:40:52.53	300.66	20.38	-41.3	-44.9	12.9	3.20e-05	0	60	0	300941312	54	5346
2026-01-30 01:40:53.54	300.40	20.36	-41.1	-44.6	13.2	2.59e-05	0	61	0	303038464	54	5161
2026-01-30 01:40:54.55	300.15	20.33	-41.2	-44.6	13.2	2.05e-05	0	60	0	305135616	54	5198
2026-01-30 01:40:55.56	299.90	20.31	-41.0	-44.3	13.4	1.60e-05	0	61	0	306184192	54	5021
2026-01-30 01:40:56.57	299.65	20.28	-41.1	-44.5	13.3	1.14e-05	0	60	0	308281344	54	5107
2026-01-30 01:40:57.57	299.41	20.26	-41.2	-44.6	13.1	2.67e-05	0	60	0	310378496	54	5189
2026-01-30 01:40:58.58	299.16	20.23	-41.2	-44.7	13.1	2.51e-05	0	60	0	312475648	54	5229
2026-01-30 01:40:59.59	298.91	20.20	-41.3	-44.9	12.8	4.50e-05	0	61	0	313524224	54	5379
2026-01-30 01:41:00.60	298.66	20.17	-41.4	-45.1	12.6	7.01e-05	0	60	0	315621376	54	5504
2026-01-30 01:41:01.61	298.41	20.15	-41.6	-45.3	12.4	1.11e-04	0	60	0	317718528	54	5648
2026-01-30 01:41:02.62	298.16	20.12	-41.5	-45.2	12.5	1.46e-04	0	60	0	319815680	54	5588
2026-01-30 01:41:03.63	297.92	20.09	-41.5	-45.2	12.6	9.53e-05	0	60	0	321912832	54	5553
2026-01-30 01:41:04.64	297.67	20.06	-41.6	-45.4	12.4	1.42e-04	0	60	0	322961408	54	5658
2026-01-30 01:41:05.65	297.42	20.03	-41.6	-45.4	12.3	1.42e-04	0	60	0	325058560	54	5676
2026-01-30 01:41:06.66	297.18	20.00	-41.6	-45.4	12.4	1.38e-04	0	60	0	327155712	54	5667
2026-01-30 01:41:07.67	296.93	19.96	-41.6	-45.5	12.3	1.46e-04	0	60	0	329252864	54	5725
2026-01-30 01:41:08.68	296.69	19.93	-41.5	-45.3	12.5	1.51e-04	0	60	0	331350016	54	5603
2026-01-30 01:41:09.69	296.44	19.90	-41.5	-45.2	12.5	1.11e-04	0	61	0	333447168	54	5573
2026-01-30 01:41:10.70	296.20	19.87	-41.6	-45.5	12.3	1.58e-04	0	61	0	334495744	54	5740
2026-01-30 01:41:11.70	295.96	19.83	-41.8	-45.9	11.8	1.96e-04	0	61	0	336592896	54	6022
2026-01-30 01:41:12.71	295.72	19.80	-41.9	-46.0	11.7	5.99e-04	0	60	0	338690048	54	6111
2026-01-30 01:41:13.72	295.48	19.76	-42.0	-46.4	11.3	8.68e-04	0	60	0	340787200	54	6404
2026-01-30 01:41:14.73	295.24	19.73	-42.2	-46.8	10.8	1.82e-03	0	60	0	342884352	55	6332
2026-01-30 01:41:15.74	294.99	19.69	-42.3	-46.9	10.7	2.84e-03	0	60	0	343932928	55	6394
2026-01-30 01:41:16.75	294.75	19.66	-42.2	-46.8	10.8	2.30e-03	0	61	0	346030080	55	6290
2026-01-30 01:41:17.76	294.51	19.62	-42.2	-46.8	10.9	1.75e-03	0	60	0	348127232	55	6298
2026-01-30 01:41:18.77	294.28	19.58	-42.1	-46.5	11.2	1.55e-03	0	61	0	350224384	55	6087
2026-01-30 01:41:19.78	294.04	19.55	-42.0	-46.3	11.3	1.38e-03	0	60	0	352321536	55	5991
2026-01-30 01:41:20.79	293.80	19.51	-42.0	-46.4	11.3	1.18e-03	0	61	0	353370112	55	6010
2026-01-30 01:41:21.80	293.56	19.47	-42.1	-46.5	11.2	1.16e-03	0	61	0	355467264	55	6097
2026-01-30 01:41:22.81	293.33	19.43	-42.1	-46.6	11.0	1.34e-03	0	60	0	357564416	55	6176
2026-01-30 01:41:23.82	293.09	19.39	-42.1	-46.6	11.0	1.76e-03	0	60	0	359661568	55	6189
2026-01-30 01:41:24.83	292.85	19.35	-42.2	-46.8	10.8	1.69e-03	0	61	0	361758720	55	6320
2026-01-30 01:41:25.84	292.62	19.31	-42.2	-46.9	10.8	3.12e-03	0	60	0	362807296	55	6351
2026-01-30 01:41:26.84	292.39	19.27	-42.2	-46.9	10.7	2.80e-03	0	60	0	364904448	55	6395
2026-01-30 01:41:27.85	292.15	19.23	-42.4	-47.2	10.3	3.19e-03	0	60	0	367001600	55	6644
2026-01-30 01:41:28.86	291.92	19.19	-42.4	-47.2	10.3	4.22e-03	0	60	0	369098752	55	6632
2026-01-30 01:41:29.87	291.69	19.15	-42.4	-47.3	10.2	5.45e-03	0	60	0	371195904	55	6717
2026-01-30 01:41:30.88	291.46	19.11	-42.4	-47.4	10.2	5.46e-03	0	60	0	372244480	55	6747
2026-01-30 01:41:31.89	291.23	19.06	-42.4	-47.4	10.2	5.82e-03	0	60	0	374341632	55	6752
2026-01-30 01:41:32.90	290.99	19.02	-42.2	-46.9	10.7	4.03e-03	0	60	0	376438784	55	6363
2026-01-30 01:41:33.91	290.76	18.98	-42.2	-46.8	10.9	2.59e-03	0	60	0	378535936	55	6282
2026-01-30 01:41:34.92	290.54	18.93	-42.0	-46.4	11.3	1.22e-03	0	60	0	380633088	55	6004
2026-01-30 01:41:35.93	290.31	18.89	-41.9	-46.2	11.5	1.08e-03	0	60	0	381681664	55	5869
2026-01-30 01:41:36.94	290.08	18.85	-42.0	-46.2	11.5	9.92e-04	0	60	0	383778816	55	5919
2026-01-30 01:41:37.95	289.85	18.80	-42.0	-46.3	11.4	1.02e-03	0	60	0	385875968	55	5944
2026-01-30 01:41:38.96	289.63	18.75	-42.1	-46.6	11.1	1.54e-03	0	61	0	387973120	55	6174
2026-01-30 01:41:39.97	289.40	18.71	-42.1	-46.6	11.0	1.70e-03	0	61	0	390070272	55	6190
2026-01-30 01:41:40.98	289.18	18.66	-42.1	-46.5	11.1	1.80e-03	0	60	0	391118848	55	6117
2026-01-30 01:41:41.99	288.95	18.62	-42.1	-46.4	11.2	1.36e-03	0	60	0	393216000	55	6057
2026-01-30 01:41:43.00	288.73	18.57	-42.0	-46.3	11.3	1.56e-03	0	61	0	395313152	55	5971
2026-01-30 01:41:44.01	288.50	18.52	-42.0	-46.2	11.4	1.26e-03	0	61	0	397410304	55	5893
2026-01-30 01:41:45.01	288.28	18.48	-41.9	-46.2	11.5	9.80e-04	0	60	0	399507456	55	5869
2026-01-30 01:41:46.02	288.06	18.43	-41.8	-45.8	11.9	5.48e-04	0	60	0	401604608	55	5622
2026-01-30 01:41:47.03	287.84	18.38	-41.6	-45.5	12.2	3.13e-04	0	61	0	402653184	55	5443
2026-01-30 01:41:48.04	287.62	18.33	-41.6	-45.3	12.3	1.98e-04	0	60	0	404750336	55	5337
2026-01-30 01:41:49.05	287.40	18.28	-41.4	-45.0	12.7	1.64e-04	0	61	0	406847488	54	5433
2026-01-30 01:41:50.06	287.18	18.23	-41.4	-45.1	12.6	1.17e-04	0	61	0	408944640	54	5496
2026-01-30 01:41:51.07	286.96	18.18	-41.4	-45.1	12.6	1.19e-04	0	61	0	411041792	54	5466
2026-01-30 01:41:52.08	286.75	18.13	-41.5	-45.2	12.5	1.07e-04	0	61	0	412090368	54	5589
2026-01-30 01:41:53.09	286.53	18.08	-41.4	-45.1	12.5	9.00e-05	0	61	0	414187520	54	5511
2026-01-30 01:41:54.10	286.31	18.03	-41.5	-45.2	12.5	1.14e-04	0	60	0	416284672	54	5548
2026-01-30 01:41:55.11	286.10	17.98	-41.5	-45.3	12.3	1.56e-04	0	61	0	418381824	54	5639
2026-01-30 01:41:56.11	285.89	17.93	-41.7	-45.7	11.9	2.01e-04	0	61	0	420478976	54	5868
2026-01-30 01:41:57.13	285.67	17.88	-41.9	-46.2	11.5	5.01e-04	0	60	0	421527552	54	6213
2026-01-30 01:41:58.14	285.46	17.83	-42.2	-46.9	10.7	2.30e-03	0	61	0	423624704	55	6396
2026-01-30 01:41:59.15	285.25	17.77	-42.4	-47.5	10.0	5.84e-03	0	61	0	425721856	55	6830
2026-01-30 01:42:00.16	285.03	17.72	-42.5	-47.6	9.9	7.01e-03	0	61	0	427819008	55	6917
2026-01-30 01:42:01.17	284.82	17.67	-42.5	-47.7	9.9	9.41e-03	0	61	0	429916160	55	6967
2026-01-30 01:42:02.18	284.61	17.62	-42.4	-47.4	10.1	7.11e-03	0	61	0	430964736	55	6777
2026-01-30 01:42:03.19	284.40	17.56	-42.3	-47.2	10.3	5.75e-03	0	61	0	433061888	55	6630
2026-01-30 01:42:04.20	284.20	17.51	-42.3	-47.3	10.3	5.41e-03	0	60	0	435159040	55	6655
2026-01-30 01:42:05.20	283.99	17.46	-42.4	-47.5	10.1	6.51e-03	0	61	0	437256192	55	6820
2026-01-30 01:42:06.21	283.78	17.40	-42.4	-47.6	10.0	7.71e-03	0	61	0	439353344	55	6887
2026-01-30 01:42:07.22	283.58	17.35	-42.6	-48.0	9.5	1.25e-02	0	61	0	440401920	55	7237
2026-01-30 01:42:08.23	283.37	17.29	-43.0	-48.8	8.9	2.40e-02	0	61	0	442499072	56	7482
2026-01-30 01:42:09.24	283.17	17.24	-43.0	-48.9	8.8	2.48e-02	0	61	0	444596224	56	7557
2026-01-30 01:42:10.25	282.96	17.18	-42.8	-48.3	9.2	2.94e-02	0	61	0	446693376	56	7104
2026-01-30 01:42:11.26	282.76	17.13	-42.9	-48.5	9.1	2.02e-02	0	61	0	448790528	56	7239
2026-01-30 01:42:12.27	282.56	17.07	-42.8	-48.3	9.4	1.83e-02	0	61	0	449839104	56	7059
2026-01-30 01:42:13.28	282.35	17.02	-42.6	-47.7	10.0	1.33e-02	0	60	0	451936256	56	6606
2026-01-30 01:42:14.29	282.15	16.96	-42.3	-47.1	10.6	4.56e-03	0	61	0	454033408	56	6170
2026-01-30 01:42:15.30	281.95	16.90	-42.2	-46.7	11.0	1.92e-03	0	61	0	456130560	56	5864
2026-01-30 01:42:16.31	281.75	16.85	-42.0	-46.4	11.3	1.28e-03	0	60	0	458227712	56	5666
2026-01-30 01:42:17.32	281.55	16.79	-41.7	-45.8	11.8	5.75e-04	0	61	0	459276288	55	5605
2026-01-30 01:42:18.33	281.36	16.73	-41.9	-46.1	11.4	6.00e-04	0	61	0	461373440	55	5841
2026-01-30 01:42:19.34	281.16	16.68	-41.7	-45.7	11.9	5.61e-04	0	61	0	463470592	55	5567
2026-01-30 01:42:20.35	280.96	16.62	-41.7	-45.8	11.8	4.08e-04	0	60	0	465567744	55	5595
2026-01-30 01:42:21.36	280.77	16.56	-41.7	-45.8	11.8	6.63e-04	0	61	0	467664896	55	5599
2026-01-30 01:42:22.37	280.57	16.50	-41.7	-45.9	11.7	6.31e-04	0	61	0	468713472	55	5667
2026-01-30 01:42:23.38	280.38	16.45	-41.9	-46.2	11.4	6.94e-04	0	61	0	470810624	55	5856
2026-01-30 01:42:24.39	280.18	16.39	-42.0	-46.4	11.1	1.22e-03	0	61	0	472907776	55	6014
2026-01-30 01:42:25.40	279.99	16.33	-42.1	-46.7	10.8	2.15e-03	0	61	0	475004928	55	6267
2026-01-30 01:42:26.41	279.80	16.27	-42.2	-47.0	10.5	3.36e-03	0	61	0	477102080	55	6462
2026-01-30 01:42:27.42	279.61	16.21	-42.2	-47.1	10.4	4.68e-03	0	61	0	479199232	55	6553
2026-01-30 01:42:28.43	279.42	16.15	-42.1	-46.9	10.6	4.98e-03	0	61	0	480247808	55	6358
2026-01-30 01:42:29.44	279.23	16.09	-42.1	-46.8	10.6	3.06e-03	0	60	0	482344960	55	6307
2026-01-30 01:42:30.45	279.04	16.03	-41.8	-46.1	11.4	1.22e-03	0	60	0	484442112	55	5829
2026-01-30 01:42:31.46	278.85	15.97	-41.7	-45.8	11.7	6.87e-04	0	60	0	486539264	55	5629
2026-01-30 01:42:32.47	278.66	15.92	-41.7	-45.9	11.6	8.70e-04	0	61	0	488636416	55	5714
2026-01-30 01:42:33.48	278.48	15.86	-41.8	-46.0	11.5	7.68e-04	0	61	0	489684992	55	5748
2026-01-30 01:42:34.49	278.29	15.80	-41.9	-46.3	11.2	1.17e-03	0	61	0	491782144	55	5959
2026-01-30 01:42:35.50	278.10	15.74	-42.1	-46.7	10.8	1.67e-03	0	61	0	493879296	55	6220
2026-01-30 01:42:36.51	277.92	15.67	-42.3	-47.2	10.2	4.57e-03	0	61	0	495976448	55	6636
2026-01-30 01:42:37.52	277.74	15.61	-42.4	-47.5	9.9	5.89e-03	0	61	0	498073600	55	6876
2026-01-30 01:42:38.53	277.55	15.55	-42.6	-48.0	9.4	1.40e-02	0	60	0	499122176	55	7275
2026-01-30 01:42:39.54	277.37	15.49	-42.6	-48.1	9.4	1.86e-02	0	61	0	501219328	55	7309
2026-01-30 01:42:40.55	277.19	15.43	-42.6	-48.2	9.2	2.27e-02	0	61	0	503316480	55	7441
2026-01-30 01:42:41.56	277.01	15.37	-42.7	-48.4	9.0	2.32e-02	0	61	0	505413632	55	7592
2026-01-30 01:42:42.57	276.83	15.31	-42.7	-48.3	9.1	2.19e-02	0	61	0	507510784	55	7527
2026-01-30 01:42:43.58	276.65	15.25	-42.6	-48.1	9.4	1.84e-02	0	61	0	508559360	55	7298
2026-01-30 01:42:44.59	276.47	15.19	-42.5	-47.9	9.5	1.63e-02	0	60	0	510656512	55	7192
2026-01-30 01:42:45.60	276.29	15.13	-42.4	-47.6	9.8	1.43e-02	0	61	0	512753664	55	6945
2026-01-30 01:42:46.61	276.12	15.06	-42.4	-47.6	9.9	9.16e-03	0	61	0	514850816	55	6905
2026-01-30 01:42:47.62	275.94	15.00	-42.5	-47.8	9.6	1.06e-02	0	61	0	516947968	55	7075
2026-01-30 01:42:48.63	275.76	14.94	-42.4	-47.7	9.7	1.11e-02	0	61	0	517996544	55	7002
2026-01-30 01:42:49.64	275.59	14.88	-42.4	-47.6	9.8	1.15e-02	0	61	0	520093696	55	6937
2026-01-30 01:42:50.65	275.42	14.82	-42.4	-47.6	9.8	1.15e-02	0	61	0	522190848	55	6936
2026-01-30 01:42:51.66	275.24	14.75	-42.4	-47.6	9.7	1.07e-02	0	61	0	524288000	55	6956
2026-01-30 01:42:52.67	275.07	14.69	-42.3	-47.5	9.9	8.26e-03	0	61	0	526385152	55	6812
2026-01-30 01:42:53.68	274.90	14.63	-42.3	-47.4	10.0	7.24e-03	0	60	0	527433728	55	6747
2026-01-30 01:42:54.69	274.73	14.57	-42.3	-47.3	10.1	6.33e-03	0	61	0	529530880	55	6680
2026-01-30 01:42:55.70	274.56	14.51	-42.3	-47.3	10.1	7.51e-03	0	60	0	531628032	55	6707
2026-01-30 01:42:56.71	274.39	14.44	-42.4	-47.6	9.8	9.49e-03	0	61	0	533725184	55	6942
2026-01-30 01:42:57.72	274.22	14.38	-42.5	-48.0	9.4	1.43e-02	0	60	0	535822336	55	7267
2026-01-30 01:42:58.73	274.05	14.32	-42.7	-48.5	8.9	2.05e-02	0	61	0	536870912	55	7640
2026-01-30 01:42:59.74	273.88	14.25	-42.7	-48.4	8.9	2.86e-02	0	61	0	538968064	55	7629
2026-01-30 01:43:00.75	273.71	14.19	-42.6	-48.3	9.0	2.89e-02	0	61	0	541065216	55	7540
2026-01-30 01:43:01.76	273.55	14.13	-42.6	-48.1	9.2	2.50e-02	0	61	0	543162368	55	7334
2026-01-30 01:43:02.77	273.38	14.06	-42.5	-48.0	9.4	1.61e-02	0	61	0	545259520	55	7218
2026-01-30 01:43:03.78	273.22	14.00	-42.4	-47.6	9.7	1.14e-02	0	61	0	547356672	55	6946
2026-01-30 01:43:04.78	273.06	13.94	-42.3	-47.3	10.1	9.43e-03	0	61	0	548405248	55	6702
2026-01-30 01:43:05.79	272.89	13.88	-42.1	-46.9	10.5	4.44e-03	0	60	0	550502400	55	6403
2026-01-30 01:43:06.80	272.73	13.81	-42.1	-46.8	10.5	3.60e-03	0	61	0	552599552	55	6333
2026-01-30 01:43:07.81	272.57	13.75	-42.1	-47.0	10.4	3.92e-03	0	61	0	554696704	55	6430
2026-01-30 01:43:08.82	272.41	13.69	-42.2	-47.1	10.3	4.67e-03	0	61	0	556793856	55	6501
2026-01-30 01:43:09.83	272.25	13.62	-42.2	-47.1	10.3	4.97e-03	0	60	0	557842432	55	6521
2026-01-30 01:43:10.84	272.09	13.56	-42.2	-47.2	10.2	5.95e-03	0	60	0	559939584	55	6592
2026-01-30 01:43:11.85	271.93	13.49	-42.2	-47.3	10.1	6.48e-03	0	61	0	562036736	55	6676
2026-01-30 01:43:12.86	271.77	13.43	-42.3	-47.5	9.8	8.20e-03	0	61	0	564133888	55	6843
2026-01-30 01:43:13.87	271.61	13.37	-42.3	-47.6	9.8	9.43e-03	0	61	0	566231040	55	6897
2026-01-30 01:43:14.88	271.45	13.30	-42.4	-47.7	9.6	1.23e-02	0	61	0	567279616	55	7004
2026-01-30 01:43:15.89	271.30	13.24	-42.3	-47.5	9.8	1.07e-02	0	61	0	569376768	55	6863
2026-01-30 01:43:16.89	271.14	13.18	-42.3	-47.5	9.9	9.84e-03	0	61	0	571473920	55	6824
2026-01-30 01:43:17.90	270.99	13.11	-42.3	-47.4	9.9	9.93e-03	0	61	0	573571072	55	6788
2026-01-30 01:43:18.91	270.83	13.05	-42.2	-47.2	10.2	6.61e-03	0	60	0	575668224	55	6586
2026-01-30 01:43:19.92	270.68	12.98	-42.1	-47.1	10.2	5.30e-03	0	61	0	576716800	55	6503
2026-01-30 01:43:20.93	270.53	12.92	-42.0	-46.7	10.6	4.18e-03	0	61	0	578813952	55	6253
2026-01-30 01:43:21.94	270.37	12.86	-42.0	-46.7	10.7	2.78e-03	0	61	0	580911104	55	6210
2026-01-30 01:43:22.95	270.22	12.79	-41.9	-46.5	10.9	2.53e-03	0	61	0	583008256	55	6097
2026-01-30 01:43:23.96	270.07	12.73	-41.9	-46.6	10.8	2.49e-03	0	61	0	585105408	55	6144
2026-01-30 01:43:24.97	269.92	12.66	-41.9	-46.5	10.9	2.46e-03	0	60	0	586153984	55	6067
2026-01-30 01:43:25.98	269.77	12.60	-41.9	-46.4	11.0	1.77e-03	0	61	0	588251136	55	6008
2026-01-30 01:43:26.99	269.62	12.53	-41.7	-46.1	11.2	1.65e-03	0	61	0	590348288	55	5827
2026-01-30 01:43:28.01	269.47	12.47	-41.6	-45.9	11.4	1.04e-03	0	61	0	592445440	55	5698
2026-01-30 01:43:29.01	269.33	12.41	-41.5	-45.6	11.7	6.29e-04	0	61	0	594542592	55	5526
2026-01-30 01:43:30.02	269.18	12.34	-41.4	-45.4	12.0	4.21e-04	0	61	0	595591168	54	5661
2026-01-30 01:43:31.03	269.03	12.28	-41.3	-45.2	12.1	2.77e-04	0	61	0	597688320	54	5580
2026-01-30 01:43:32.04	268.89	12.21	-41.3	-45.2	12.1	2.27e-04	0	61	0	599785472	54	5566
2026-01-30 01:43:33.06	268.74	12.15	-41.4	-45.3	12.0	2.40e-04	0	61	0	601882624	54	5626
2026-01-30 01:43:34.07	268.60	12.08	-41.3	-45.3	12.1	2.82e-04	0	61	0	603979776	54	5595
2026-01-30 01:43:35.08	268.45	12.02	-41.4	-45.5	11.9	4.05e-04	0	61	0	605028352	54	5724
2026-01-30 01:43:36.09	268.31	11.95	-41.5	-45.6	11.7	5.13e-04	0	61	0	607125504	54	5840
2026-01-30 01:43:37.10	268.17	11.89	-41.6	-45.9	11.4	8.03e-04	0	61	0	609222656	54	6017
2026-01-30 01:43:38.11	268.02	11.83	-41.7	-46.1	11.3	1.13e-03	0	61	0	611319808	54	6152
2026-01-30 01:43:39.12	267.88	11.76	-41.7	-46.1	11.2	1.19e-03	0	61	0	613416960	54	6169
2026-01-30 01:43:40.13	267.74	11.70	-41.8	-46.4	10.9	2.02e-03	0	61	0	615514112	54	6415
2026-01-30 01:43:41.14	267.60	11.63	-41.8	-46.4	10.9	2.37e-03	0	61	0	616562688	54	6412
2026-01-30 01:43:42.15	267.46	11.57	-41.8	-46.4	10.9	2.31e-03	0	61	0	618659840	54	6405
2026-01-30 01:43:43.16	267.32	11.50	-41.9	-46.5	10.8	2.46e-03	0	61	0	620756992	54	6450
2026-01-30 01:43:44.17	267.19	11.44	-41.8	-46.3	10.9	2.48e-03	0	61	0	622854144	54	6344
2026-01-30 01:43:45.18	267.05	11.38	-41.8	-46.3	11.0	1.87e-03	0	61	0	624951296	54	6295
2026-01-30 01:43:46.19	266.91	11.31	-41.7	-46.1	11.2	1.82e-03	0	61	0	625999872	54	6176
2026-01-30 01:43:47.20	266.77	11.25	-41.6	-45.9	11.3	1.09e-03	0	61	0	628097024	54	6049
2026-01-30 01:43:48.21	266.64	11.18	-41.6	-45.8	11.4	7.61e-04	0	61	0	630194176	54	5972
2026-01-30 01:43:49.22	266.50	11.12	-41.6	-45.9	11.4	9.13e-04	0	61	0	632291328	54	5995
2026-01-30 01:43:50.23	266.37	11.05	-41.5	-45.7	11.5	9.09e-04	0	61	0	634388480	54	5922
2026-01-30 01:43:51.24	266.24	10.99	-41.6	-45.9	11.3	1.08e-03	0	61	0	635437056	54	6025
2026-01-30 01:43:52.25	266.10	10.92	-41.6	-45.9	11.3	1.26e-03	0	61	0	637534208	54	6042
2026-01-30 01:43:53.26	265.97	10.86	-41.5	-45.9	11.3	1.20e-03	0	61	0	639631360	54	6015
2026-01-30 01:43:54.27	265.84	10.80	-41.6	-46.2	11.0	1.64e-03	0	61	0	641728512	54	6213
2026-01-30 01:43:55.28	265.71	10.73	-41.6	-46.1	11.0	1.42e-03	0	61	0	643825664	54	6192
2026-01-30 01:43:56.30	265.57	10.67	-41.6	-46.1	11.0	1.73e-03	0	61	0	644874240	54	6154
2026-01-30 01:43:57.31	265.44	10.60	-41.7	-46.2	10.9	2.36e-03	0	61	0	646971392	54	6261
2026-01-30 01:43:58.31	265.31	10.54	-41.8	-46.6	10.5	2.99e-03	0	61	0	649068544	54	6525
2026-01-30 01:43:59.33	265.18	10.47	-41.8	-46.6	10.5	3.84e-03	0	61	0	651165696	54	6564
2026-01-30 01:44:00.34	265.05	10.41	-41.9	-46.8	10.3	3.48e-03	0	61	0	653262848	54	6717
2026-01-30 01:44:01.35	264.93	10.35	-41.9	-47.0	10.1	7.19e-03	0	61	0	655360000	54	6804
2026-01-30 01:44:02.35	264.80	10.28	-42.0	-47.1	9.9	8.63e-03	0	61	0	656408576	54	6931
2026-01-30 01:44:03.37	264.67	10.22	-42.1	-47.4	9.7	8.97e-03	0	61	0	658505728	54	7137
2026-01-30 01:44:04.38	264.55	10.15	-42.1	-47.5	9.6	1.27e-02	0	61	0	660602880	54	7231
2026-01-30 01:44:05.39	264.42	10.09	-42.1	-47.5	9.5	1.26e-02	0	61	0	662700032	54	7267
2026-01-30 01:44:06.40	264.29	10.03	-42.1	-47.6	9.4	1.33e-02	0	61	0	664797184	54	7296
2026-01-30 01:44:07.41	264.17	9.96	-41.9	-47.1	9.9	9.15e-03	0	61	0	665845760	54	6929
2026-01-30 01:44:08.42	264.05	9.90	-41.9	-47.0	9.9	1.04e-02	0	61	0	667942912	54	6869
2026-01-30 01:44:09.43	263.92	9.84	-41.9	-46.8	10.2	6.55e-03	0	61	0	670040064	54	6718
2026-01-30 01:44:10.44	263.80	9.77	-41.8	-46.7	10.3	6.59e-03	0	61	0	672137216	54	6619
2026-01-30 01:44:11.45	263.68	9.71	-41.6	-46.3	10.7	2.71e-03	0	61	0	674234368	54	6323
2026-01-30 01:44:12.46	263.55	9.64	-41.6	-46.2	10.8	3.01e-03	0	61	0	675282944	54	6243
2026-01-30 01:44:13.46	263.43	9.58	-41.5	-45.9	11.1	2.11e-03	0	61	0	677380096	54	6033
2026-01-30 01:44:14.47	263.31	9.52	-41.5	-46.1	10.9	2.52e-03	0	61	0	679477248	54	6142
2026-01-30 01:44:15.48	263.19	9.45	-41.5	-46.1	11.0	1.79e-03	0	61	0	681574400	54	6136
2026-01-30 01:44:16.49	263.07	9.39	-41.5	-46.1	10.9	1.74e-03	0	61	0	683671552	54	6170
2026-01-30 01:44:17.50	262.95	9.33	-41.6	-46.2	10.8	2.62e-03	0	61	0	684720128	54	6269
2026-01-30 01:44:18.51	262.83	9.26	-41.5	-46.1	10.9	2.90e-03	0	61	0	686817280	54	6188
2026-01-30 01:44:19.52	262.72	9.20	-41.7	-46.6	10.3	3.41e-03	0	61	0	688914432	54	6538
2026-01-30 01:44:20.53	262.60	9.14	-41.9	-47.0	9.9	8.59e-03	0	61	0	691011584	54	6874
2026-01-30 01:44:21.54	262.48	9.07	-41.9	-46.9	10.0	6.26e-03	0	61	0	693108736	54	6796
2026-01-30 01:44:22.55	262.36	9.01	-42.0	-47.4	9.5	1.03e-02	0	61	0	694157312	54	7167
2026-01-30 01:44:23.56	262.25	8.95	-42.0	-47.5	9.4	1.40e-02	0	61	0	696254464	54	7227
2026-01-30 01:44:24.57	262.13	8.88	-42.1	-47.5	9.5	1.81e-02	0	61	0	698351616	54	7225
2026-01-30 01:44:25.58	262.02	8.82	-42.1	-47.5	9.5	1.55e-02	0	61	0	700448768	54	7214
2026-01-30 01:44:26.59	261.90	8.76	-42.1	-47.6	9.4	1.46e-02	0	61	0	702545920	54	7304
2026-01-30 01:44:27.60	261.79	8.69	-42.0	-47.3	9.7	1.35e-02	0	61	0	703594496	54	7077
2026-01-30 01:44:28.61	261.67	8.63	-42.0	-47.2	9.8	1.16e-02	0	61	0	705691648	54	7001
2026-01-30 01:44:29.62	261.56	8.57	-41.9	-47.1	9.9	1.24e-02	0	61	0	707788800	54	6905
2026-01-30 01:44:30.63	261.45	8.51	-42.0	-47.3	9.8	9.49e-03	0	61	0	709885952	54	7045
2026-01-30 01:44:31.64	261.34	8.44	-41.9	-47.0	10.0	9.37e-03	0	61	0	711983104	54	6873
2026-01-30 01:44:32.65	261.23	8.38	-41.9	-46.9	10.1	6.99e-03	0	61	0	713031680	54	6742
2026-01-30 01:44:33.66	261.11	8.32	-42.0	-47.2	9.7	8.99e-03	0	61	0	715128832	54	7039
2026-01-30 01:44:34.67	261.00	8.25	-41.9	-47.0	10.0	1.01e-02	0	61	0	717225984	54	6824
2026-01-30 01:44:35.68	260.89	8.19	-42.0	-47.4	9.6	8.47e-03	0	61	0	719323136	54	7137
2026-01-30 01:44:36.69	260.78	8.13	-42.1	-47.6	9.4	1.49e-02	0	61	0	721420288	54	7320
2026-01-30 01:44:37.70	260.67	8.07	-42.0	-47.4	9.6	1.13e-02	0	61	0	723517440	54	7144
2026-01-30 01:44:38.71	260.57	8.00	-43.3	-51.4	6.4	1.91e-02	0	61	0	724566016	57	9525
2026-01-30 01:44:39.72	260.46	7.94	-44.4	-58.9	3.8	1.49e+00	0	61	104	724566016	59	20302
2026-01-30 01:44:40.73	260.35	7.88	-44.7	-59.3	3.8	1.49e+00	0	61	104	724566016	59	21057
2026-01-30 01:44:41.74	260.24	7.82	-44.8	-59.5	3.8	1.49e+00	0	61	104	724566016	60	20516
2026-01-30 01:44:42.75	260.13	7.75	-44.9	-59.7	3.8	1.49e+00	0	61	104	724566016	60	20818
2026-01-30 01:44:43.76	260.03	7.69	-45.0	-59.7	3.8	1.49e+00	0	61	104	724566016	60	20985
2026-01-30 01:44:44.77	259.92	7.63	-45.0	-59.8	3.8	1.49e+00	0	61	104	724566016	60	21103
2026-01-30 01:44:45.78	259.82	7.57	-45.0	-59.8	3.8	1.49e+00	0	61	104	724566016	60	21189
2026-01-30 01:44:46.79	259.71	7.51	-45.0	-59.8	3.8	1.49e+00	0	61	104	724566016	60	21139
2026-01-30 01:44:47.80	259.61	7.44	-44.9	-59.7	3.8	1.49e+00	0	61	104	724566016	60	20941
2026-01-30 01:44:48.81	259.50	7.38	-44.9	-59.7	3.8	1.49e+00	0	61	104	724566016	60	20985
2026-01-30 01:44:49.82	259.40	7.32	-44.9	-59.7	3.8	1.49e+00	0	61	104	724566016	60	20978
2026-01-30 01:44:50.83	259.30	7.26	-44.9	-59.7	3.8	1.49e+00	0	61	104	724566016	60	21015
2026-01-30 01:44:51.84	259.19	7.20	-44.9	-59.7	3.8	1.49e+00	0	61	104	724566016	60	21014
2026-01-30 01:44:52.86	259.09	7.14	-44.9	-59.8	3.8	1.49e+00	0	61	104	724566016	60	21045
2026-01-30 01:44:53.87	258.99	7.07	-45.0	-59.8	3.8	1.49e+00	0	61	104	724566016	60	21130
2026-01-30 01:44:54.88	258.89	7.01	-45.0	-59.9	3.8	1.49e+00	0	61	104	724566016	60	21265
2026-01-30 01:44:55.89	258.78	6.95	-45.0	-59.8	3.8	1.49e+00	0	61	104	724566016	60	21240
2026-01-30 01:44:56.90	258.68	6.89	-45.0	-59.8	3.8	1.49e+00	0	61	104	724566016	60	21191
2026-01-30 01:44:57.91	258.58	6.83	-45.0	-59.8	3.8	1.49e+00	0	61	104	724566016	60	21110
2026-01-30 01:44:58.92	258.48	6.77	-44.9	-59.8	3.8	1.49e+00	0	61	104	724566016	60	21055
2026-01-30 01:44:59.93	258.39	6.71	-44.9	-59.8	3.8	1.49e+00	0	61	104	724566016	60	21025
2026-01-30 01:45:00.94	258.29	6.64	-44.9	-59.7	3.8	1.49e+00	0	61	104	724566016	60	21016
2026-01-30 01:45:01.95	258.19	6.58	-44.9	-59.8	3.8	1.49e+00	0	61	104	724566016	60	21034
2026-01-30 01:45:02.96	258.09	6.52	-44.9	-59.7	3.8	1.49e+00	0	61	104	724566016	60	20811
2026-01-30 01:45:03.97	257.99	6.46	-44.9	-59.7	3.8	1.49e+00	0	61	104	724566016	60	20918
2026-01-30 01:45:04.98	257.89	6.40	-44.9	-59.7	3.8	1.49e+00	0	61	104	724566016	60	20877
2026-01-30 01:45:06.00	257.80	6.34	-44.9	-59.7	3.8	1.49e+00	0	61	104	724566016	60	20926
2026-01-30 01:45:07.01	257.70	6.28	-44.9	-59.7	3.8	1.49e+00	0	61	104	724566016	60	20888
2026-01-30 01:45:08.02	257.60	6.22	-44.9	-59.7	3.8	1.49e+00	0	61	104	724566016	60	20921
2026-01-30 01:45:09.03	257.51	6.16	-44.9	-59.7	3.8	1.49e+00	0	61	104	724566016	60	20844
2026-01-30 01:45:10.04	257.41	6.10	-44.9	-59.7	3.8	1.49e+00	0	61	104	724566016	60	20917
2026-01-30 01:45:11.05	257.32	6.04	-44.8	-59.7	3.8	1.49e+00	0	61	104	724566016	60	20879
2026-01-30 01:45:12.06	257.22	5.98	-44.8	-59.7	3.8	1.49e+00	0	61	104	724566016	60	20836
2026-01-30 01:45:13.07	257.13	5.92	-44.8	-59.7	3.8	1.49e+00	0	61	104	724566016	60	20852
2026-01-30 01:45:14.08	257.04	5.86	-44.8	-59.7	3.8	1.49e+00	0	61	104	724566016	60	20841
2026-01-30 01:45:15.09	256.94	5.80	-44.8	-59.7	3.8	1.49e+00	0	61	104	724566016	60	20855
2026-01-30 01:45:16.10	256.85	5.74	-44.8	-59.7	3.8	1.49e+00	0	61	104	724566016	60	20832
2026-01-30 01:45:17.11	256.76	5.68	-44.8	-59.7	3.8	1.49e+00	0	61	104	724566016	60	20855
2026-01-30 01:45:18.12	256.67	5.62	-44.8	-59.7	3.8	1.49e+00	0	61	104	724566016	60	20829
2026-01-30 01:45:19.13	256.58	5.56	-44.8	-59.7	3.8	1.49e+00	0	61	104	724566016	60	20857
2026-01-30 01:45:20.14	256.48	5.50	-44.8	-59.7	3.8	1.49e+00	0	61	104	724566016	60	20855
2026-01-30 01:45:21.15	256.39	5.44	-44.8	-59.7	3.8	1.49e+00	0	61	104	724566016	60	20810
2026-01-30 01:45:22.16	256.30	5.38	-44.8	-59.7	3.8	1.49e+00	0	61	104	724566016	60	20843
2026-01-30 01:45:23.17	256.21	5.32	-44.8	-59.7	3.8	1.49e+00	0	61	104	724566016	60	20827
2026-01-30 01:45:24.18	256.12	5.26	-44.8	-59.7	3.8	1.49e+00	0	61	104	724566016	60	20809
2026-01-30 01:45:25.19	256.03	5.20	-44.8	-59.7	3.8	1.49e+00	0	61	104	724566016	60	20834
2026-01-30 01:45:26.20	255.94	5.14	-44.8	-59.7	3.8	1.49e+00	0	61	104	724566016	60	20860
2026-01-30 01:45:27.21	255.86	5.08	-44.8	-59.7	3.8	1.49e+00	0	61	104	724566016	60	20844
2026-01-30 01:45:28.22	255.77	5.02	-44.8	-59.7	3.8	1.49e+00	0	61	104	724566016	60	20855
2026-01-30 01:45:29.23	255.68	4.96	-44.8	-59.7	3.8	1.49e+00	0	61	104	724566016	60	20832
2026-01-30 01:45:30.24	255.59	4.90	-44.8	-59.7	3.8	1.49e+00	0	61	104	724566016	60	20840
2026-01-30 01:45:31.26	255.50	4.84	-44.8	-59.7	3.8	1.49e+00	0	61	104	724566016	60	20855
2026-01-30 01:45:32.27	255.42	4.78	-44.8	-59.7	3.8	1.49e+00	0	61	104	724566016	60	20903
2026-01-30 01:45:33.28	255.33	4.72	-44.8	-59.7	3.8	1.49e+00	0	61	104	724566016	60	20863
2026-01-30 01:45:34.29	255.24	4.66	-44.8	-59.7	3.8	1.49e+00	0	61	104	724566016	60	20825
2026-01-30 01:45:35.30	255.16	4.61	-44.8	-59.7	3.8	1.49e+00	0	61	104	724566016	60	20845
2026-01-30 01:45:36.31	255.07	4.55	-44.8	-59.7	3.8	1.49e+00	0	61	104	724566016	60	20899
2026-01-30 01:45:37.32	254.99	4.49	-44.8	-59.7	3.8	1.49e+00	0	61	104	724566016	60	20831
2026-01-30 01:45:38.33	254.90	4.43	-44.8	-59.7	3.8	1.49e+00	0	61	104	724566016	60	20856
2026-01-30 01:45:39.34	254.82	4.37	-44.8	-59.7	3.8	1.49e+00	0	61	104	724566016	60	20858
2026-01-30 01:45:40.35	254.74	4.31	-44.8	-59.7	3.8	1.49e+00	0	61	104	724566016	60	20834
2026-01-30 01:45:41.36	254.65	4.25	-44.8	-59.6	3.8	1.49e+00	0	61	104	724566016	60	20744
2026-01-30 01:45:42.37	254.57	4.20	-44.8	-59.7	3.8	1.49e+00	0	61	104	724566016	60	20781
2026-01-30 01:45:43.38	254.49	4.14	-44.8	-59.7	3.8	1.49e+00	0	61	104	724566016	60	20828
2026-01-30 01:45:44.39	254.40	4.08	-44.8	-59.7	3.8	1.49e+00	0	61	104	724566016	60	20780
2026-01-30 01:45:45.40	254.32	4.02	-44.8	-59.6	3.8	1.49e+00	0	61	104	724566016	60	20760
2026-01-30 01:45:46.41	254.24	3.96	-44.8	-59.7	3.8	1.49e+00	0	61	104	724566016	60	20786
2026-01-30 01:45:47.42	254.16	3.90	-44.8	-59.7	3.8	1.49e+00	0	61	104	724566016	60	20791
2026-01-30 01:45:48.43	254.08	3.85	-44.8	-59.6	3.8	1.49e+00	0	61	104	724566016	60	20709
2026-01-30 01:45:49.44	254.00	3.79	-44.8	-59.6	3.8	1.49e+00	0	61	104	724566016	60	20740
2026-01-30 01:45:50.45	253.91	3.73	-44.8	-59.6	3.8	1.49e+00	0	61	104	724566016	60	20754
2026-01-30 01:45:51.46	253.83	3.67	-44.8	-59.6	3.8	1.49e+00	0	61	104	724566016	60	20732
2026-01-30 01:45:52.47	253.75	3.62	-44.8	-59.6	3.8	1.49e+00	0	61	104	724566016	60	20707
2026-01-30 01:45:53.48	253.67	3.56	-44.8	-59.6	3.8	1.49e+00	0	61	104	724566016	60	20741
2026-01-30 01:45:54.49	253.60	3.50	-44.8	-59.6	3.8	1.49e+00	0	61	104	724566016	60	20650
