passes_logs/2026/01/30/R2.0S_Moscow/R2.0S_Moscow__20260130_055256_FENGYUN_3E_rec.log

#Pass ID: 20260130_055256_FENGYUN 3E
#Satellite: FENGYUN 3E
#Configuration: FENGYUN 3E
#almurnet v.1.7.20251203
#Start time: 2026-01-30 05:52:58

#Version: 2.2.20231116
#Station: R2.0S_Moscow
#Location: 37.707566 lon 55.798166 lat
#TLE: 1 49008U 21062A   26029.52207456 -.00000035  00000+0  41692-5 0  9997
#TLE: 2 49008  98.7499  34.4814 0002557 110.8023 249.3427 14.19887743236900

#Time	Az	El	Level	Level2	SNR	BER	BlckErr	Temp	State	Recorded	gain1	gain2
2026-01-30 05:52:58.22	9.35	2.07	-39.9	-50.9	3.8	8.46e-01	0	51	0	0	50	12703
2026-01-30 05:52:59.22	9.28	2.13	-39.9	-50.9	3.8	8.46e-01	0	51	104	0	50	12695
2026-01-30 05:53:00.23	9.20	2.18	-39.9	-50.9	3.8	8.46e-01	0	52	104	0	50	12717
2026-01-30 05:53:01.25	9.13	2.24	-39.9	-50.9	3.8	8.47e-01	0	51	104	0	50	12680
2026-01-30 05:53:02.26	9.05	2.29	-39.9	-50.9	3.8	8.47e-01	0	52	104	0	50	12675
2026-01-30 05:53:03.27	8.97	2.34	-39.9	-50.9	3.8	8.45e-01	0	52	104	0	50	12675
2026-01-30 05:53:04.28	8.90	2.40	-39.9	-50.8	3.8	8.46e-01	0	52	104	0	50	12638
2026-01-30 05:53:05.29	8.82	2.45	-39.9	-50.8	3.8	8.46e-01	0	52	104	0	50	12657
2026-01-30 05:53:06.30	8.75	2.51	-39.9	-50.9	3.8	8.46e-01	0	52	104	0	50	12668
2026-01-30 05:53:07.31	8.67	2.56	-39.9	-50.8	3.8	8.46e-01	0	52	104	0	50	12651
2026-01-30 05:53:08.32	8.59	2.62	-39.9	-50.9	3.8	8.46e-01	0	52	104	0	50	12702
2026-01-30 05:53:09.33	8.51	2.67	-39.9	-50.9	3.8	8.46e-01	0	52	104	0	50	12701
2026-01-30 05:53:10.34	8.43	2.73	-39.9	-50.9	3.8	8.47e-01	0	52	104	0	50	12725
2026-01-30 05:53:11.35	8.36	2.78	-39.9	-50.8	3.8	8.45e-01	0	52	104	0	50	12661
2026-01-30 05:53:12.36	8.28	2.84	-39.9	-50.9	3.8	8.46e-01	0	53	104	0	50	12671
2026-01-30 05:53:13.37	8.20	2.89	-39.9	-50.8	3.8	8.47e-01	0	52	104	0	50	12653
2026-01-30 05:53:14.38	8.12	2.95	-39.9	-50.8	3.8	8.47e-01	0	53	104	0	50	12663
2026-01-30 05:53:15.39	8.04	3.00	-39.9	-50.8	3.8	8.46e-01	0	53	104	0	50	12607
2026-01-30 05:53:16.41	7.96	3.06	-39.9	-50.8	3.8	8.47e-01	0	53	104	0	50	12587
2026-01-30 05:53:17.41	7.88	3.12	-39.9	-50.8	3.8	8.47e-01	0	53	104	0	50	12604
2026-01-30 05:53:18.42	7.80	3.17	-39.9	-50.8	3.8	8.46e-01	0	53	104	0	50	12604
2026-01-30 05:53:19.44	7.72	3.23	-39.9	-50.8	3.8	8.45e-01	0	53	104	0	50	12585
2026-01-30 05:53:20.45	7.64	3.28	-39.9	-50.8	3.8	8.46e-01	0	53	104	0	50	12648
2026-01-30 05:53:21.46	7.55	3.34	-39.9	-50.8	3.8	8.46e-01	0	53	104	0	50	12594
2026-01-30 05:53:22.47	7.47	3.39	-39.9	-50.8	3.8	8.48e-01	0	53	104	0	50	12574
2026-01-30 05:53:23.48	7.39	3.45	-39.9	-50.8	3.8	8.46e-01	0	53	104	0	50	12594
2026-01-30 05:53:24.49	7.31	3.51	-39.9	-50.8	3.8	8.46e-01	0	53	104	0	50	12631
2026-01-30 05:53:25.50	7.23	3.56	-39.9	-50.8	3.8	8.46e-01	0	53	104	0	50	12599
2026-01-30 05:53:26.51	7.14	3.62	-39.9	-50.8	3.8	8.46e-01	0	53	104	0	50	12607
2026-01-30 05:53:27.52	7.06	3.67	-39.9	-50.8	3.8	8.46e-01	0	54	104	0	50	12607
2026-01-30 05:53:28.52	6.98	3.73	-39.9	-50.8	3.8	8.47e-01	0	54	104	0	50	12631
2026-01-30 05:53:29.53	6.89	3.79	-39.9	-50.8	3.8	8.46e-01	0	54	104	0	50	12601
2026-01-30 05:53:30.54	6.81	3.84	-39.9	-50.8	3.8	8.46e-01	0	54	104	0	50	12639
2026-01-30 05:53:31.55	6.72	3.90	-39.9	-50.8	3.8	8.46e-01	0	54	104	0	50	12613
2026-01-30 05:53:32.57	6.64	3.95	-39.9	-50.8	3.8	8.45e-01	0	54	104	0	50	12651
2026-01-30 05:53:33.58	6.55	4.01	-39.9	-50.8	3.8	8.47e-01	0	54	104	0	50	12579
2026-01-30 05:53:34.59	6.46	4.07	-39.9	-50.8	3.8	8.45e-01	0	54	104	0	50	12624
2026-01-30 05:53:35.60	6.38	4.12	-39.9	-50.8	3.8	8.46e-01	0	54	104	0	50	12625
2026-01-30 05:53:36.61	6.29	4.18	-39.9	-50.8	3.8	8.46e-01	0	54	104	0	50	12606
2026-01-30 05:53:37.62	6.21	4.24	-39.9	-50.8	3.8	8.46e-01	0	54	104	0	50	12650
2026-01-30 05:53:38.63	6.12	4.29	-39.9	-50.8	3.8	8.47e-01	0	54	104	0	50	12606
2026-01-30 05:53:39.64	6.03	4.35	-39.9	-50.8	3.8	8.47e-01	0	54	104	0	50	12638
2026-01-30 05:53:40.65	5.94	4.41	-39.9	-50.9	3.8	8.45e-01	0	54	104	0	50	12689
2026-01-30 05:53:41.66	5.85	4.46	-39.9	-50.8	3.8	8.47e-01	0	54	104	0	50	12606
2026-01-30 05:53:42.67	5.77	4.52	-39.9	-50.8	3.8	8.46e-01	0	55	104	0	50	12573
2026-01-30 05:53:43.68	5.68	4.58	-39.9	-50.8	3.8	8.46e-01	0	55	104	0	50	12583
2026-01-30 05:53:44.69	5.59	4.63	-39.9	-50.8	3.8	8.47e-01	0	54	104	0	50	12614
2026-01-30 05:53:45.71	5.50	4.69	-39.9	-50.8	3.8	8.46e-01	0	55	104	0	50	12591
2026-01-30 05:53:46.72	5.41	4.75	-39.9	-50.8	3.8	8.46e-01	0	55	104	0	50	12588
2026-01-30 05:53:47.72	5.32	4.81	-39.9	-50.8	3.8	8.48e-01	0	55	104	0	50	12625
2026-01-30 05:53:48.74	5.22	4.86	-39.9	-50.8	3.8	8.46e-01	0	55	104	0	50	12581
2026-01-30 05:53:49.74	5.13	4.92	-39.8	-50.8	3.8	8.46e-01	0	55	104	0	50	12576
2026-01-30 05:53:50.76	5.04	4.98	-39.8	-50.8	3.8	8.46e-01	0	55	104	0	50	12573
2026-01-30 05:53:51.77	4.95	5.03	-39.9	-50.8	3.8	8.46e-01	0	55	104	0	50	12621
2026-01-30 05:53:52.78	4.86	5.09	-39.9	-50.8	3.8	8.47e-01	0	55	104	0	50	12536
2026-01-30 05:53:53.79	4.76	5.15	-39.8	-50.8	3.8	8.47e-01	0	55	104	0	50	12634
2026-01-30 05:53:54.80	4.67	5.21	-39.9	-50.8	3.8	8.47e-01	0	55	104	0	50	12589
2026-01-30 05:53:55.80	4.58	5.26	-39.9	-50.8	3.8	8.47e-01	0	55	104	0	50	12626
2026-01-30 05:53:56.81	4.48	5.32	-39.9	-50.8	3.8	8.45e-01	0	55	104	0	50	12621
2026-01-30 05:53:57.82	4.39	5.38	-39.9	-50.8	3.8	8.46e-01	0	55	104	0	50	12590
2026-01-30 05:53:58.83	4.30	5.44	-39.9	-50.8	3.8	8.46e-01	0	55	104	0	50	12565
2026-01-30 05:53:59.84	4.20	5.49	-39.8	-50.8	3.8	8.46e-01	0	55	104	0	50	12552
2026-01-30 05:54:00.85	4.11	5.55	-39.9	-50.8	3.8	8.47e-01	0	56	104	0	50	12576
2026-01-30 05:54:01.86	4.01	5.61	-39.9	-50.8	3.8	8.45e-01	0	55	104	0	50	12586
2026-01-30 05:54:02.88	3.91	5.67	-39.9	-50.8	3.8	8.47e-01	0	56	104	0	50	12591
2026-01-30 05:54:03.89	3.82	5.73	-39.9	-50.8	3.8	8.46e-01	0	55	104	0	50	12609
2026-01-30 05:54:04.90	3.72	5.78	-39.9	-50.8	3.8	8.45e-01	0	56	104	0	50	12565
2026-01-30 05:54:05.91	3.62	5.84	-39.9	-50.8	3.8	8.46e-01	0	56	104	0	50	12592
2026-01-30 05:54:06.92	3.52	5.90	-39.9	-50.8	3.8	8.47e-01	0	56	104	0	50	12632
2026-01-30 05:54:07.93	3.42	5.96	-39.9	-50.8	3.8	8.45e-01	0	56	104	0	50	12564
2026-01-30 05:54:08.94	3.33	6.02	-39.8	-50.8	3.8	8.46e-01	0	56	104	0	50	12567
2026-01-30 05:54:09.95	3.23	6.08	-39.9	-50.8	3.8	8.46e-01	0	56	104	0	50	12597
2026-01-30 05:54:10.96	3.13	6.13	-39.9	-50.8	3.8	8.46e-01	0	56	104	0	50	12581
2026-01-30 05:54:11.97	3.03	6.19	-39.9	-50.8	3.8	8.46e-01	0	56	104	0	50	12623
2026-01-30 05:54:12.98	2.93	6.25	-39.9	-50.8	3.8	8.48e-01	0	56	104	0	50	12611
2026-01-30 05:54:13.99	2.83	6.31	-39.9	-50.8	3.8	8.46e-01	0	56	104	0	50	12535
2026-01-30 05:54:15.00	2.72	6.37	-39.9	-50.8	3.8	8.47e-01	0	56	104	0	50	12586
2026-01-30 05:54:16.01	2.62	6.43	-39.9	-50.8	3.8	8.46e-01	0	56	104	0	50	12621
2026-01-30 05:54:17.02	2.52	6.48	-39.9	-50.8	3.8	8.46e-01	0	56	104	0	50	12604
2026-01-30 05:54:18.03	2.42	6.54	-39.9	-50.8	3.8	8.45e-01	0	56	104	0	50	12566
2026-01-30 05:54:19.04	2.32	6.60	-39.9	-50.8	3.8	8.46e-01	0	56	104	0	50	12598
2026-01-30 05:54:20.06	2.21	6.66	-39.9	-50.8	3.8	8.45e-01	0	56	104	0	50	12587
2026-01-30 05:54:21.07	2.11	6.72	-39.9	-50.8	3.8	8.46e-01	0	56	104	0	50	12565
2026-01-30 05:54:22.08	2.00	6.78	-39.9	-50.8	3.8	8.46e-01	0	57	104	0	50	12611
2026-01-30 05:54:23.08	1.90	6.84	-39.9	-50.8	3.8	8.46e-01	0	56	104	0	50	12622
2026-01-30 05:54:24.10	1.79	6.90	-39.9	-50.8	3.8	8.46e-01	0	56	104	0	50	12603
2026-01-30 05:54:25.11	1.69	6.96	-39.9	-50.8	3.8	8.47e-01	0	57	104	0	50	12608
2026-01-30 05:54:26.12	1.58	7.01	-39.9	-50.8	3.8	8.46e-01	0	57	104	0	50	12589
2026-01-30 05:54:27.13	1.48	7.07	-39.9	-50.8	3.8	8.46e-01	0	56	104	0	50	12538
2026-01-30 05:54:28.14	1.37	7.13	-39.9	-50.8	3.8	8.44e-01	0	57	104	0	50	12630
2026-01-30 05:54:29.15	1.26	7.19	-39.9	-50.8	3.8	8.46e-01	0	57	104	0	50	12583
2026-01-30 05:54:30.16	1.15	7.25	-39.8	-50.8	3.8	8.47e-01	0	57	104	0	50	12613
2026-01-30 05:54:31.17	1.05	7.31	-39.9	-50.8	3.8	8.46e-01	0	57	104	0	50	12562
2026-01-30 05:54:32.18	0.94	7.37	-39.9	-50.8	3.8	8.46e-01	0	57	104	0	50	12594
2026-01-30 05:54:33.19	0.83	7.43	-39.9	-50.8	3.8	8.46e-01	0	57	104	0	50	12601
2026-01-30 05:54:34.20	0.72	7.49	-39.9	-50.8	3.8	8.47e-01	0	57	104	0	50	12646
2026-01-30 05:54:35.21	0.61	7.55	-39.9	-50.8	3.8	8.46e-01	0	57	104	0	50	12602
2026-01-30 05:54:36.22	0.50	7.61	-39.9	-50.8	3.8	8.47e-01	0	57	104	0	50	12602
2026-01-30 05:54:37.23	0.39	7.67	-39.9	-50.8	3.8	8.47e-01	0	57	104	0	50	12595
2026-01-30 05:54:38.24	0.28	7.73	-39.8	-50.8	3.8	8.46e-01	0	57	104	0	50	12630
2026-01-30 05:54:39.25	0.16	7.78	-39.9	-50.8	3.8	8.46e-01	0	57	104	0	50	12614
2026-01-30 05:54:40.26	0.05	7.84	-39.9	-50.8	3.8	8.46e-01	0	57	104	0	50	12523
2026-01-30 05:54:41.27	359.94	7.90	-39.8	-50.8	3.8	8.47e-01	0	57	104	0	50	12585
2026-01-30 05:54:42.28	359.82	7.96	-39.9	-50.8	3.8	8.47e-01	0	57	104	0	50	12556
2026-01-30 05:54:43.30	359.71	8.02	-39.9	-50.8	3.8	8.47e-01	0	57	104	0	50	12659
2026-01-30 05:54:44.30	359.60	8.08	-40.0	-50.9	3.8	8.46e-01	0	57	104	0	50	12723
2026-01-30 05:54:45.32	359.48	8.14	-40.0	-50.9	3.8	8.46e-01	0	57	104	0	50	12793
2026-01-30 05:54:46.33	359.37	8.20	-40.1	-51.1	3.8	8.47e-01	0	57	104	0	50	12985
2026-01-30 05:54:47.34	359.25	8.26	-40.1	-51.1	3.8	8.47e-01	0	57	104	0	50	12988
2026-01-30 05:54:48.35	359.13	8.32	-40.0	-51.0	3.8	8.46e-01	0	57	104	0	50	12849
2026-01-30 05:54:49.36	359.02	8.38	-40.1	-51.0	3.8	8.46e-01	0	57	104	0	50	12917
2026-01-30 05:54:50.37	358.90	8.44	-40.1	-51.0	3.8	8.47e-01	0	57	104	0	50	12945
2026-01-30 05:54:51.38	358.78	8.50	-40.1	-51.1	3.8	8.44e-01	0	58	104	0	50	12978
2026-01-30 05:54:52.39	358.66	8.56	-40.0	-51.0	3.8	8.47e-01	0	58	104	0	50	12852
2026-01-30 05:54:53.40	358.54	8.62	-40.1	-51.0	3.8	8.46e-01	0	57	104	0	50	12901
2026-01-30 05:54:54.41	358.42	8.68	-40.1	-51.0	3.8	8.47e-01	0	57	104	0	50	12908
2026-01-30 05:54:55.42	358.31	8.74	-40.1	-51.0	3.8	8.46e-01	0	58	104	0	50	12890
2026-01-30 05:54:56.42	358.19	8.80	-40.0	-51.0	3.8	8.47e-01	0	57	104	0	50	12814
2026-01-30 05:54:57.43	358.07	8.86	-40.1	-51.0	3.8	8.46e-01	0	58	104	0	50	12911
2026-01-30 05:54:58.44	357.94	8.92	-40.1	-51.0	3.8	8.47e-01	0	58	104	0	50	12922
2026-01-30 05:54:59.45	357.82	8.98	-40.0	-51.0	3.8	8.46e-01	0	58	104	0	50	12836
2026-01-30 05:55:00.46	357.70	9.04	-40.0	-50.9	3.8	8.46e-01	0	58	104	0	50	12803
2026-01-30 05:55:01.47	357.58	9.10	-40.1	-51.0	3.8	8.47e-01	0	58	104	0	50	12908
2026-01-30 05:55:02.48	357.45	9.16	-40.1	-51.0	3.8	8.47e-01	0	58	104	0	50	12890
2026-01-30 05:55:03.49	357.33	9.22	-40.0	-51.0	3.8	8.46e-01	0	58	104	0	50	12825
2026-01-30 05:55:04.50	357.20	9.28	-40.0	-51.0	3.8	8.46e-01	0	58	104	0	50	12863
2026-01-30 05:55:05.51	357.08	9.34	-40.0	-51.0	3.8	8.46e-01	0	58	104	0	50	12871
2026-01-30 05:55:06.52	356.95	9.40	-40.0	-51.0	3.8	8.46e-01	0	58	104	0	50	12898
2026-01-30 05:55:07.53	356.83	9.46	-40.0	-50.9	3.8	8.46e-01	0	58	104	0	50	12808
2026-01-30 05:55:08.54	356.70	9.52	-40.0	-50.9	3.8	8.46e-01	0	58	104	0	50	12800
2026-01-30 05:55:09.55	356.57	9.58	-40.0	-51.0	3.8	8.46e-01	0	58	104	0	50	12862
2026-01-30 05:55:10.56	356.45	9.64	-40.0	-51.0	3.8	8.46e-01	0	58	104	0	50	12871
2026-01-30 05:55:11.57	356.32	9.70	-40.0	-51.0	3.8	8.45e-01	0	58	104	0	50	12845
2026-01-30 05:55:12.58	356.19	9.76	-40.1	-51.0	3.8	8.47e-01	0	58	104	0	50	12899
2026-01-30 05:55:13.59	356.06	9.82	-40.0	-51.0	3.8	8.46e-01	0	58	104	0	50	12896
2026-01-30 05:55:14.60	355.93	9.88	-40.1	-51.0	3.8	8.46e-01	0	58	104	0	50	12943
2026-01-30 05:55:15.61	355.80	9.94	-40.0	-51.0	3.8	8.46e-01	0	58	104	0	50	12866
2026-01-30 05:55:16.62	355.67	10.00	-40.1	-51.0	3.8	8.45e-01	0	58	104	0	50	12938
2026-01-30 05:55:17.63	355.54	10.06	-40.1	-51.0	3.8	8.45e-01	0	58	104	0	50	12927
2026-01-30 05:55:18.64	355.41	10.12	-40.2	-51.1	3.8	8.45e-01	0	58	104	0	50	13050
2026-01-30 05:55:19.65	355.27	10.18	-40.1	-51.1	3.8	8.45e-01	0	58	104	0	50	12964
2026-01-30 05:55:20.66	355.14	10.24	-40.2	-51.1	3.8	8.46e-01	0	58	104	0	50	13091
2026-01-30 05:55:21.67	355.01	10.30	-40.2	-51.1	3.8	8.45e-01	0	58	104	0	50	13078
2026-01-30 05:55:22.68	354.87	10.36	-40.2	-51.2	3.8	8.46e-01	0	58	104	0	50	13195
2026-01-30 05:55:23.68	354.74	10.42	-40.2	-51.1	3.8	8.46e-01	0	58	104	0	50	13038
2026-01-30 05:55:24.70	354.60	10.49	-40.3	-51.2	3.8	8.46e-01	0	58	104	0	50	13240
2026-01-30 05:55:25.71	354.47	10.55	-40.3	-51.2	3.8	8.46e-01	0	58	104	0	50	13185
2026-01-30 05:55:26.72	354.33	10.61	-40.3	-51.3	3.8	8.46e-01	0	58	104	0	50	13327
2026-01-30 05:55:27.73	354.19	10.67	-40.2	-51.2	3.8	8.47e-01	0	58	104	0	50	13156
2026-01-30 05:55:28.74	354.05	10.73	-40.4	-51.3	3.8	8.47e-01	0	58	104	0	50	13333
2026-01-30 05:55:29.75	353.92	10.79	-40.3	-51.3	3.8	8.45e-01	0	58	104	0	50	13314
2026-01-30 05:55:30.76	353.78	10.85	-40.4	-51.4	3.8	8.46e-01	0	58	104	0	50	13521
2026-01-30 05:55:31.77	353.64	10.91	-40.3	-51.3	3.8	8.46e-01	0	58	104	0	50	13275
2026-01-30 05:55:32.78	353.50	10.97	-40.5	-51.4	3.8	8.46e-01	0	58	104	0	50	13550
2026-01-30 05:55:33.79	353.36	11.03	-40.4	-51.3	3.8	8.46e-01	0	59	104	0	50	13327
2026-01-30 05:55:34.80	353.22	11.09	-40.6	-51.5	3.8	8.45e-01	0	59	104	0	50	13663
2026-01-30 05:55:35.81	353.07	11.15	-40.4	-51.3	3.8	8.46e-01	0	59	104	0	50	13395
2026-01-30 05:55:36.82	352.93	11.21	-40.6	-51.6	3.8	8.47e-01	0	59	104	0	50	13741
2026-01-30 05:55:37.83	352.79	11.27	-40.5	-51.4	3.8	8.47e-01	0	58	104	0	51	12723
2026-01-30 05:55:38.84	352.64	11.33	-40.8	-51.6	3.8	8.47e-01	0	59	104	0	51	13100
2026-01-30 05:55:39.85	352.50	11.39	-40.5	-51.5	3.8	8.46e-01	0	59	104	0	51	12823
2026-01-30 05:55:40.86	352.35	11.45	-40.8	-51.8	3.8	8.46e-01	0	59	104	0	51	13288
2026-01-30 05:55:41.87	352.21	11.51	-40.6	-51.5	3.8	8.45e-01	0	59	104	0	51	12901
2026-01-30 05:55:42.88	352.06	11.57	-40.9	-51.8	3.8	8.47e-01	0	59	104	0	51	13321
2026-01-30 05:55:43.89	351.92	11.63	-40.5	-51.5	3.8	8.46e-01	0	59	104	0	51	12843
2026-01-30 05:55:44.90	351.77	11.69	-40.9	-51.8	3.8	8.46e-01	0	59	104	0	51	13341
2026-01-30 05:55:45.91	351.62	11.74	-40.8	-51.7	3.8	8.46e-01	0	59	104	0	51	13189
2026-01-30 05:55:46.91	351.47	11.80	-40.9	-51.8	3.8	8.46e-01	0	59	104	0	51	13358
2026-01-30 05:55:47.93	351.32	11.86	-40.6	-51.5	3.8	8.45e-01	0	59	104	0	51	12955
2026-01-30 05:55:48.94	351.17	11.92	-41.0	-51.9	3.8	8.45e-01	0	59	104	0	51	13447
2026-01-30 05:55:49.95	351.02	11.98	-40.9	-51.8	3.8	8.45e-01	0	59	104	0	51	13390
2026-01-30 05:55:50.96	350.87	12.04	-40.9	-51.8	3.8	8.47e-01	0	59	104	0	51	13328
2026-01-30 05:55:51.97	350.72	12.10	-40.7	-51.6	3.8	8.46e-01	0	59	104	0	51	13107
2026-01-30 05:55:52.98	350.57	12.16	-40.9	-51.8	3.8	8.46e-01	0	59	104	0	51	13402
2026-01-30 05:55:53.99	350.42	12.22	-40.9	-51.8	3.8	8.46e-01	0	59	104	0	51	13368
2026-01-30 05:55:55.00	350.26	12.28	-40.9	-51.8	3.8	8.45e-01	0	59	104	0	51	13406
2026-01-30 05:55:56.00	350.11	12.34	-40.9	-51.8	3.8	8.48e-01	0	59	104	0	51	13306
2026-01-30 05:55:57.01	349.95	12.40	-41.0	-51.9	3.8	8.46e-01	0	59	104	0	51	13512
2026-01-30 05:55:58.03	349.80	12.46	-41.0	-51.9	3.8	8.45e-01	0	59	104	0	51	13462
2026-01-30 05:55:59.04	349.64	12.52	-41.1	-52.0	3.8	8.46e-01	0	59	104	0	51	13584
2026-01-30 05:56:00.05	349.48	12.57	-41.0	-51.8	3.8	8.46e-01	0	59	104	0	51	13404
2026-01-30 05:56:01.06	349.33	12.63	-41.2	-52.1	3.8	8.47e-01	0	59	104	0	51	13749
2026-01-30 05:56:02.07	349.17	12.69	-40.9	-51.9	3.8	8.47e-01	0	59	104	0	51	13422
2026-01-30 05:56:03.08	349.01	12.75	-41.1	-52.0	3.8	8.46e-01	0	59	104	0	51	13676
2026-01-30 05:56:04.09	348.85	12.81	-41.1	-52.0	3.8	8.46e-01	0	59	104	0	51	13573
2026-01-30 05:56:05.10	348.69	12.87	-41.3	-52.2	3.8	8.46e-01	0	59	104	0	52	13176
2026-01-30 05:56:06.11	348.53	12.93	-40.9	-51.8	3.8	8.47e-01	0	59	104	0	52	12645
2026-01-30 05:56:07.12	348.37	12.98	-41.2	-52.1	3.8	8.45e-01	0	59	104	0	52	13050
2026-01-30 05:56:08.13	348.21	13.04	-41.1	-52.0	3.8	8.46e-01	0	59	104	0	52	12933
2026-01-30 05:56:09.14	348.04	13.10	-41.4	-52.3	3.8	8.46e-01	0	59	104	0	52	13275
2026-01-30 05:56:10.15	347.88	13.16	-41.1	-52.0	3.8	8.46e-01	0	59	104	0	52	12920
2026-01-30 05:56:11.16	347.72	13.22	-41.4	-52.3	3.8	8.47e-01	0	59	104	0	52	13353
2026-01-30 05:56:12.17	347.55	13.28	-41.2	-52.1	3.8	8.48e-01	0	59	104	0	52	13070
2026-01-30 05:56:13.18	347.39	13.33	-41.3	-52.2	3.8	8.46e-01	0	59	104	0	52	13165
2026-01-30 05:56:14.19	347.22	13.39	-41.3	-52.2	3.8	8.45e-01	0	59	104	0	52	13168
2026-01-30 05:56:15.20	347.05	13.45	-41.5	-52.4	3.8	8.46e-01	0	59	104	0	52	13484
2026-01-30 05:56:16.21	346.89	13.51	-41.2	-52.0	3.8	8.46e-01	0	59	104	0	52	12957
2026-01-30 05:56:17.22	346.72	13.56	-41.3	-52.1	3.8	8.46e-01	0	59	104	0	52	13069
2026-01-30 05:56:18.23	346.55	13.62	-41.4	-52.3	3.8	8.46e-01	0	59	104	0	52	13282
2026-01-30 05:56:19.24	346.38	13.68	-41.4	-52.3	3.8	8.46e-01	0	59	104	0	52	13381
2026-01-30 05:56:20.25	346.21	13.74	-41.1	-51.9	3.8	8.46e-01	0	59	104	0	52	12785
2026-01-30 05:56:21.26	346.04	13.79	-41.1	-52.0	3.8	8.48e-01	0	60	104	0	52	12857
2026-01-30 05:56:22.27	345.87	13.85	-41.3	-52.2	3.8	8.45e-01	0	59	104	0	52	13164
2026-01-30 05:56:23.28	345.70	13.91	-41.3	-52.2	3.8	8.46e-01	0	59	104	0	52	13226
2026-01-30 05:56:24.29	345.53	13.96	-40.9	-51.8	3.8	8.47e-01	0	59	104	0	52	12612
2026-01-30 05:56:25.30	345.35	14.02	-40.9	-51.8	3.8	8.46e-01	0	59	104	0	52	12661
2026-01-30 05:56:26.31	345.18	14.07	-41.2	-52.1	3.8	8.46e-01	0	60	104	0	52	13005
2026-01-30 05:56:27.32	345.00	14.13	-41.0	-51.9	3.8	8.46e-01	0	60	104	0	52	12792
2026-01-30 05:56:28.32	344.83	14.19	-40.9	-51.8	3.8	8.47e-01	0	59	104	0	52	12554
2026-01-30 05:56:29.33	344.65	14.24	-40.9	-51.8	3.8	8.45e-01	0	59	104	0	52	12606
2026-01-30 05:56:30.34	344.48	14.30	-41.0	-51.9	3.8	8.46e-01	0	59	104	0	52	12728
2026-01-30 05:56:31.35	344.30	14.35	-40.9	-51.8	3.8	8.46e-01	0	60	104	0	52	12609
2026-01-30 05:56:32.36	344.12	14.41	-40.9	-51.8	3.8	8.47e-01	0	60	104	0	52	12632
2026-01-30 05:56:33.37	343.94	14.46	-40.9	-51.8	3.8	8.45e-01	0	59	104	0	52	12595
2026-01-30 05:56:34.38	343.76	14.52	-40.9	-51.8	3.8	8.45e-01	0	60	104	0	52	12528
2026-01-30 05:56:35.39	343.58	14.57	-40.9	-51.8	3.8	8.46e-01	0	60	104	0	52	12647
2026-01-30 05:56:36.40	343.40	14.63	-40.8	-51.6	3.8	8.46e-01	0	59	104	0	52	12368
2026-01-30 05:56:37.41	343.22	14.68	-40.8	-51.7	3.8	8.45e-01	0	60	104	0	52	12407
2026-01-30 05:56:38.42	343.04	14.74	-40.9	-51.8	3.8	8.45e-01	0	60	104	0	52	12583
2026-01-30 05:56:39.43	342.86	14.79	-40.8	-51.7	3.8	8.46e-01	0	60	104	0	52	12382
2026-01-30 05:56:40.44	342.67	14.85	-40.8	-51.7	3.8	8.46e-01	0	60	104	0	52	12389
2026-01-30 05:56:41.46	342.49	14.90	-40.7	-51.6	3.8	8.46e-01	0	60	104	0	52	12352
2026-01-30 05:56:42.46	342.31	14.95	-40.8	-51.7	3.8	8.47e-01	0	60	104	0	52	12415
2026-01-30 05:56:43.47	342.12	15.01	-40.7	-51.6	3.8	8.46e-01	0	60	104	0	52	12327
2026-01-30 05:56:44.48	341.93	15.06	-40.5	-51.5	3.8	8.47e-01	0	60	104	0	52	12119
2026-01-30 05:56:45.49	341.75	15.12	-40.7	-51.6	3.8	8.45e-01	0	60	104	0	51	13014
2026-01-30 05:56:46.50	341.56	15.17	-40.8	-51.7	3.8	8.47e-01	0	60	104	0	51	13201
2026-01-30 05:56:47.51	341.37	15.22	-40.6	-51.5	3.8	8.45e-01	0	59	104	0	51	12854
2026-01-30 05:56:48.52	341.18	15.27	-40.5	-51.4	3.8	8.47e-01	0	60	104	0	51	12781
2026-01-30 05:56:49.53	340.99	15.33	-40.5	-51.5	3.8	8.45e-01	0	60	104	0	51	12824
2026-01-30 05:56:50.54	340.80	15.38	-40.5	-51.5	3.8	8.45e-01	0	60	104	0	51	12839
2026-01-30 05:56:51.55	340.61	15.43	-40.6	-51.4	3.8	8.46e-01	0	60	104	0	51	12729
2026-01-30 05:56:52.56	340.42	15.48	-40.8	-51.4	3.8	8.47e-01	0	60	104	0	51	12808
2026-01-30 05:56:53.57	340.23	15.53	-40.7	-51.3	3.8	8.46e-01	0	60	104	0	51	12597
2026-01-30 05:56:54.58	340.04	15.59	-40.6	-51.3	3.8	8.45e-01	0	60	104	0	51	12524
2026-01-30 05:56:55.59	339.84	15.64	-40.9	-51.1	3.8	8.46e-01	0	60	104	0	51	12310
2026-01-30 05:56:56.60	339.65	15.69	-41.0	-50.0	3.8	8.44e-01	0	60	104	0	51	10886
2026-01-30 05:56:57.61	339.45	15.74	-41.0	-48.8	4.2	8.40e-01	0	60	0	0	51	9458
2026-01-30 05:56:58.62	339.26	15.79	-41.0	-47.4	5.0	7.89e-01	0	60	0	0	51	8025
2026-01-30 05:56:59.63	339.06	15.84	-40.8	-45.8	6.3	3.67e-01	0	60	0	3145728	51	6671
2026-01-30 05:57:00.64	338.86	15.89	-40.3	-44.3	7.9	9.39e-02	0	60	0	10485760	51	5594
2026-01-30 05:57:01.65	338.67	15.94	-39.8	-43.0	9.4	2.38e-02	0	60	0	16777216	50	5140
2026-01-30 05:57:02.66	338.47	15.99	-39.4	-42.2	10.3	7.00e-03	0	60	0	24117248	49	4975
2026-01-30 05:57:03.67	338.27	16.04	-39.4	-42.2	10.7	3.13e-03	0	60	0	31457280	49	4943
2026-01-30 05:57:04.68	338.07	16.09	-40.0	-43.0	10.0	5.02e-03	0	60	0	38797312	49	5417
2026-01-30 05:57:05.69	337.87	16.14	-40.3	-43.4	9.7	1.40e-02	0	60	0	46137344	50	5364
2026-01-30 05:57:06.70	337.67	16.18	-39.9	-42.7	10.6	6.33e-03	0	60	0	53477376	50	4939
2026-01-30 05:57:07.71	337.47	16.23	-39.6	-42.1	11.2	1.51e-03	0	60	0	60817408	50	4634
2026-01-30 05:57:08.72	337.26	16.28	-39.8	-42.4	11.0	1.83e-03	0	60	0	68157440	50	4807
2026-01-30 05:57:09.73	337.06	16.33	-39.4	-41.7	11.9	5.89e-04	0	60	0	75497472	49	4660
2026-01-30 05:57:10.74	336.86	16.38	-39.5	-41.8	11.9	3.88e-04	0	60	0	82837504	49	4723
2026-01-30 05:57:11.75	336.65	16.42	-39.6	-41.9	11.8	6.59e-04	0	60	0	90177536	49	4792
2026-01-30 05:57:12.76	336.45	16.47	-39.6	-41.8	12.0	2.94e-04	0	60	0	97517568	49	4753
2026-01-30 05:57:13.77	336.24	16.52	-39.8	-42.1	11.7	5.89e-04	0	60	0	104857600	49	4921
2026-01-30 05:57:14.78	336.04	16.56	-39.6	-41.8	12.1	2.79e-04	0	60	0	112197632	49	4739
2026-01-30 05:57:15.79	335.83	16.61	-39.7	-41.9	12.1	3.56e-04	0	60	0	119537664	49	4781
2026-01-30 05:57:16.80	335.62	16.65	-39.8	-42.1	11.9	3.47e-04	0	60	0	126877696	49	4872
2026-01-30 05:57:17.81	335.41	16.70	-39.6	-41.8	12.2	2.60e-04	0	60	0	134217728	49	4725
2026-01-30 05:57:18.82	335.21	16.75	-39.6	-41.7	12.3	1.80e-04	0	60	0	140509184	49	4679
2026-01-30 05:57:19.83	335.00	16.79	-39.4	-41.5	12.5	1.14e-04	0	60	0	148897792	49	4591
2026-01-30 05:57:20.84	334.79	16.83	-39.4	-41.5	12.6	1.17e-04	0	60	0	156237824	49	4579
2026-01-30 05:57:21.85	334.58	16.88	-39.4	-41.5	12.6	1.03e-04	0	60	0	162529280	49	4574
2026-01-30 05:57:22.86	334.36	16.92	-39.4	-41.5	12.7	8.69e-05	0	60	0	169869312	49	4565
2026-01-30 05:57:23.88	334.15	16.97	-39.4	-41.5	12.6	9.38e-05	0	60	0	178257920	49	4572
2026-01-30 05:57:24.89	333.94	17.01	-39.4	-41.5	12.7	1.25e-04	0	60	0	184549376	49	4566
2026-01-30 05:57:25.90	333.72	17.05	-39.4	-41.5	12.6	1.11e-04	0	60	0	191889408	49	4579
2026-01-30 05:57:26.91	333.51	17.10	-39.5	-41.5	12.6	1.28e-04	0	60	0	199229440	49	4594
2026-01-30 05:57:27.92	333.30	17.14	-39.5	-41.6	12.5	1.30e-04	0	60	0	206569472	49	4644
2026-01-30 05:57:28.93	333.08	17.18	-39.5	-41.6	12.6	1.04e-04	0	60	0	213909504	49	4631
2026-01-30 05:57:29.94	332.87	17.22	-39.4	-41.5	12.7	9.26e-05	0	60	0	221249536	49	4556
2026-01-30 05:57:30.95	332.65	17.26	-39.3	-41.4	12.9	6.75e-05	0	60	0	228589568	49	4499
2026-01-30 05:57:31.96	332.43	17.30	-39.2	-41.2	13.0	4.57e-05	0	60	0	235929600	49	4438
2026-01-30 05:57:32.97	332.21	17.34	-39.1	-41.1	13.2	1.94e-05	0	60	0	243269632	49	4342
2026-01-30 05:57:33.98	332.00	17.38	-39.1	-41.0	13.2	2.86e-05	0	60	0	250609664	49	4312
2026-01-30 05:57:34.99	331.78	17.42	-39.0	-40.9	13.4	2.40e-05	0	60	0	257949696	49	4254
2026-01-30 05:57:36.00	331.56	17.46	-39.0	-40.9	13.4	1.37e-05	0	60	0	265289728	48	4501
2026-01-30 05:57:37.01	331.34	17.50	-39.0	-40.9	13.4	9.10e-06	0	60	0	272629760	48	4520
2026-01-30 05:57:38.02	331.12	17.54	-39.0	-40.9	13.3	1.83e-05	0	60	0	279969792	48	4534
2026-01-30 05:57:39.03	330.90	17.58	-39.0	-40.9	13.4	1.48e-05	0	60	0	287309824	48	4521
2026-01-30 05:57:40.04	330.68	17.62	-38.9	-40.8	13.5	1.94e-05	0	60	0	294649856	48	4489
2026-01-30 05:57:41.05	330.45	17.66	-39.0	-40.9	13.4	1.60e-05	0	60	0	301989888	48	4508
2026-01-30 05:57:42.06	330.23	17.69	-39.0	-40.9	13.4	1.25e-05	0	60	0	309329920	48	4519
2026-01-30 05:57:43.07	330.01	17.73	-39.0	-40.8	13.5	1.48e-05	0	61	0	315621376	48	4490
2026-01-30 05:57:44.08	329.78	17.77	-39.0	-40.9	13.4	1.94e-05	0	60	0	324009984	48	4527
2026-01-30 05:57:45.10	329.56	17.80	-39.0	-40.9	13.4	1.71e-05	0	60	0	331350016	48	4503
2026-01-30 05:57:46.11	329.33	17.84	-39.0	-41.0	13.4	1.83e-05	0	60	0	337641472	48	4553
2026-01-30 05:57:47.11	329.11	17.87	-39.0	-40.9	13.4	1.83e-05	0	60	0	344981504	48	4533
2026-01-30 05:57:48.13	328.88	17.91	-39.0	-41.0	13.4	1.60e-05	0	60	0	353370112	48	4553
2026-01-30 05:57:49.13	328.66	17.94	-39.0	-41.0	13.4	1.25e-05	0	60	0	359661568	48	4566
2026-01-30 05:57:50.14	328.43	17.98	-39.0	-40.9	13.4	2.51e-05	0	60	0	367001600	48	4517
2026-01-30 05:57:51.15	328.20	18.01	-39.0	-40.9	13.4	2.05e-05	0	60	0	374341632	48	4534
2026-01-30 05:57:52.16	327.98	18.04	-39.0	-40.9	13.5	1.60e-05	0	60	0	381681664	48	4508
2026-01-30 05:57:53.17	327.75	18.07	-38.9	-40.8	13.5	8.00e-06	0	60	0	389021696	48	4468
2026-01-30 05:57:54.18	327.52	18.11	-38.9	-40.8	13.6	1.94e-05	0	61	0	396361728	48	4443
2026-01-30 05:57:55.20	327.29	18.14	-38.8	-40.7	13.7	1.02e-05	0	60	0	403701760	48	4415
2026-01-30 05:57:56.21	327.06	18.17	-38.9	-40.8	13.6	1.02e-05	0	60	0	411041792	48	4442
2026-01-30 05:57:57.22	326.83	18.20	-38.9	-40.7	13.6	4.50e-06	0	60	0	418381824	48	4434
2026-01-30 05:57:58.23	326.59	18.23	-38.9	-40.7	13.6	1.10e-06	0	60	0	425721856	48	4439
2026-01-30 05:57:59.24	326.36	18.26	-38.9	-40.8	13.6	5.70e-06	0	60	0	433061888	48	4445
2026-01-30 05:58:00.25	326.13	18.29	-38.9	-40.8	13.6	1.48e-05	0	60	0	440401920	48	4493
2026-01-30 05:58:01.26	325.90	18.32	-39.0	-40.9	13.4	1.48e-05	0	60	0	447741952	48	4533
2026-01-30 05:58:02.27	325.67	18.35	-39.0	-40.9	13.5	1.14e-05	0	60	0	455081984	48	4520
2026-01-30 05:58:03.28	325.43	18.38	-39.0	-40.9	13.4	1.14e-05	0	60	0	462422016	48	4538
2026-01-30 05:58:04.29	325.20	18.41	-39.0	-40.9	13.5	1.60e-05	0	60	0	469762048	48	4509
2026-01-30 05:58:05.30	324.97	18.43	-39.0	-41.0	13.4	2.17e-05	0	60	0	477102080	48	4550
2026-01-30 05:58:06.31	324.73	18.46	-39.0	-40.9	13.5	4.50e-06	0	60	0	484442112	48	4511
2026-01-30 05:58:07.32	324.50	18.49	-38.9	-40.8	13.5	1.25e-05	0	60	0	490733568	48	4483
2026-01-30 05:58:08.33	324.26	18.51	-39.0	-40.8	13.5	5.70e-06	0	61	0	499122176	48	4488
2026-01-30 05:58:09.34	324.02	18.54	-39.0	-40.9	13.5	1.94e-05	0	61	0	505413632	48	4515
2026-01-30 05:58:10.35	323.79	18.56	-38.9	-40.8	13.5	1.48e-05	0	61	0	512753664	48	4485
2026-01-30 05:58:11.36	323.55	18.59	-38.9	-40.8	13.6	1.14e-05	0	60	0	520093696	48	4472
2026-01-30 05:58:12.37	323.32	18.61	-38.9	-40.8	13.6	8.00e-06	0	60	0	527433728	48	4487
2026-01-30 05:58:13.38	323.08	18.64	-38.9	-40.8	13.5	9.10e-06	0	60	0	534773760	48	4469
2026-01-30 05:58:14.39	322.84	18.66	-38.9	-40.8	13.5	1.02e-05	0	60	0	542113792	48	4488
2026-01-30 05:58:15.40	322.60	18.68	-38.9	-40.8	13.5	1.02e-05	0	61	0	549453824	48	4482
2026-01-30 05:58:16.41	322.36	18.70	-38.9	-40.8	13.5	1.37e-05	0	60	0	556793856	48	4478
2026-01-30 05:58:17.42	322.12	18.72	-38.9	-40.8	13.6	1.60e-05	0	60	0	564133888	48	4467
2026-01-30 05:58:18.43	321.89	18.75	-38.8	-40.6	13.7	5.70e-06	0	61	0	571473920	48	4378
2026-01-30 05:58:19.44	321.65	18.77	-38.8	-40.7	13.7	1.25e-05	0	61	0	578813952	48	4406
2026-01-30 05:58:20.45	321.41	18.79	-38.8	-40.6	13.7	1.48e-05	0	61	0	586153984	48	4378
2026-01-30 05:58:21.46	321.17	18.81	-38.7	-40.6	13.8	8.00e-06	0	61	0	593494016	48	4354
2026-01-30 05:58:22.47	320.93	18.82	-38.7	-40.5	13.8	3.40e-06	0	60	0	600834048	48	4324
2026-01-30 05:58:23.48	320.69	18.84	-38.7	-40.6	13.8	2.20e-06	0	60	0	608174080	48	4348
2026-01-30 05:58:24.49	320.44	18.86	-38.8	-40.6	13.8	8.00e-06	0	61	0	615514112	48	4356
2026-01-30 05:58:25.50	320.20	18.88	-38.8	-40.7	13.7	3.40e-06	0	61	0	622854144	48	4392
2026-01-30 05:58:26.51	319.96	18.90	-38.8	-40.6	13.8	6.80e-06	0	61	0	630194176	48	4389
2026-01-30 05:58:27.52	319.72	18.91	-38.8	-40.7	13.7	6.80e-06	0	61	0	636485632	48	4405
2026-01-30 05:58:28.53	319.48	18.93	-38.9	-40.7	13.6	6.80e-06	0	61	0	644874240	48	4431
2026-01-30 05:58:29.54	319.24	18.94	-38.8	-40.7	13.7	4.50e-06	0	61	0	652214272	48	4406
2026-01-30 05:58:30.55	318.99	18.96	-38.8	-40.6	13.8	8.00e-06	0	61	0	658505728	48	4382
2026-01-30 05:58:31.57	318.75	18.97	-38.7	-40.6	13.8	8.00e-06	0	60	0	665845760	48	4349
2026-01-30 05:58:32.58	318.50	18.99	-38.8	-40.7	13.8	1.02e-05	0	61	0	674234368	48	4396
2026-01-30 05:58:33.59	318.26	19.00	-38.7	-40.5	13.9	4.50e-06	0	61	0	680525824	48	4337
2026-01-30 05:58:34.60	318.02	19.01	-38.7	-40.6	13.8	8.00e-06	0	60	0	687865856	48	4347
2026-01-30 05:58:35.61	317.77	19.03	-38.7	-40.5	13.9	4.50e-06	0	60	0	695205888	48	4331
2026-01-30 05:58:36.62	317.53	19.04	-38.7	-40.6	13.9	5.70e-06	0	61	0	702545920	48	4345
2026-01-30 05:58:37.63	317.29	19.05	-38.8	-40.6	13.8	4.50e-06	0	60	0	709885952	48	4376
2026-01-30 05:58:38.64	317.04	19.06	-38.7	-40.6	13.8	8.00e-06	0	61	0	717225984	48	4354
2026-01-30 05:58:39.65	316.80	19.07	-38.8	-40.7	13.7	5.70e-06	0	61	0	724566016	48	4396
2026-01-30 05:58:40.66	316.55	19.08	-38.8	-40.6	13.8	2.20e-06	0	60	0	731906048	48	4364
2026-01-30 05:58:41.67	316.31	19.09	-38.7	-40.6	13.8	9.10e-06	0	61	0	739246080	48	4350
2026-01-30 05:58:42.68	316.06	19.10	-38.7	-40.5	13.8	8.00e-06	0	61	0	746586112	48	4337
2026-01-30 05:58:43.69	315.82	19.11	-38.8	-40.6	13.8	3.40e-06	0	60	0	753926144	48	4359
2026-01-30 05:58:44.70	315.57	19.11	-38.7	-40.5	13.9	2.20e-06	0	61	0	761266176	48	4309
2026-01-30 05:58:45.71	315.33	19.12	-38.6	-40.3	14.0	5.70e-06	0	61	0	768606208	48	4231
2026-01-30 05:58:46.72	315.08	19.13	-38.6	-40.4	14.0	1.10e-06	0	60	0	775946240	48	4267
2026-01-30 05:58:47.73	314.84	19.13	-38.5	-40.3	14.1	1.10e-06	0	61	0	783286272	48	4216
2026-01-30 05:58:48.75	314.59	19.14	-38.4	-40.2	14.0	1.10e-06	0	61	0	790626304	47	4408
2026-01-30 05:58:49.75	314.34	19.14	-38.4	-40.2	14.0	0.00e+00	0	60	0	797966336	47	4423
2026-01-30 05:58:50.76	314.10	19.15	-38.4	-40.1	14.1	1.10e-06	0	61	0	805306368	47	4373
2026-01-30 05:58:51.77	313.85	19.15	-38.3	-40.1	14.1	0.00e+00	0	61	0	811597824	47	4366
2026-01-30 05:58:52.78	313.61	19.15	-38.4	-40.1	14.1	0.00e+00	0	61	0	819986432	47	4383
2026-01-30 05:58:53.79	313.36	19.16	-38.4	-40.2	14.0	3.40e-06	0	61	0	827326464	47	4396
2026-01-30 05:58:54.80	313.11	19.16	-38.4	-40.2	14.0	2.20e-06	0	61	0	833617920	47	4401
2026-01-30 05:58:55.82	312.87	19.16	-38.4	-40.1	14.1	1.10e-06	0	61	0	840957952	47	4390
2026-01-30 05:58:56.83	312.62	19.16	-38.4	-40.2	14.0	0.00e+00	0	60	0	848297984	47	4410
2026-01-30 05:58:57.84	312.37	19.16	-38.4	-40.2	14.1	4.50e-06	0	61	0	855638016	47	4395
2026-01-30 05:58:58.85	312.13	19.16	-38.4	-40.2	14.0	1.10e-06	0	60	0	862978048	47	4412
2026-01-30 05:58:59.86	311.88	19.16	-38.3	-40.1	14.1	0.00e+00	0	61	0	870318080	47	4374
2026-01-30 05:59:00.87	311.64	19.16	-38.3	-40.1	14.1	1.10e-06	0	61	0	877658112	47	4366
2026-01-30 05:59:01.88	311.39	19.16	-38.3	-40.1	14.1	0.00e+00	0	61	0	884998144	47	4374
2026-01-30 05:59:02.89	311.14	19.15	-38.4	-40.2	14.0	3.40e-06	0	61	0	892338176	47	4403
2026-01-30 05:59:03.90	310.90	19.15	-38.4	-40.2	14.0	4.50e-06	0	61	0	899678208	47	4423
2026-01-30 05:59:04.91	310.65	19.15	-38.4	-40.2	13.9	2.20e-06	0	61	0	907018240	47	4441
2026-01-30 05:59:05.92	310.40	19.14	-38.5	-40.3	13.9	3.40e-06	0	61	0	914358272	47	4468
2026-01-30 05:59:06.93	310.16	19.14	-38.5	-40.3	13.9	4.50e-06	0	61	0	921698304	47	4473
2026-01-30 05:59:07.95	309.91	19.13	-38.5	-40.4	13.8	1.10e-06	0	61	0	929038336	47	4506
2026-01-30 05:59:08.95	309.67	19.13	-38.5	-40.3	13.9	4.50e-06	0	61	0	936378368	47	4452
2026-01-30 05:59:09.97	309.42	19.12	-38.4	-40.2	14.0	5.70e-06	0	61	0	943718400	47	4418
2026-01-30 05:59:10.98	309.17	19.11	-38.5	-40.2	14.0	2.20e-06	0	61	0	951058432	47	4439
2026-01-30 05:59:11.99	308.93	19.11	-38.5	-40.3	13.9	8.00e-06	0	61	0	958398464	47	4485
2026-01-30 05:59:13.00	308.68	19.10	-38.5	-40.3	13.9	5.70e-06	0	61	0	965738496	47	4462
2026-01-30 05:59:14.01	308.44	19.09	-38.5	-40.3	13.9	1.10e-06	0	61	0	973078528	47	4457
2026-01-30 05:59:15.02	308.19	19.08	-38.5	-40.3	13.9	2.20e-06	0	61	0	979369984	47	4482
2026-01-30 05:59:16.03	307.95	19.07	-38.5	-40.3	13.9	2.20e-06	0	61	0	987758592	47	4455
2026-01-30 05:59:17.04	307.70	19.06	-38.4	-40.2	14.0	2.20e-06	0	61	0	995098624	47	4436
2026-01-30 05:59:18.06	307.46	19.05	-38.4	-40.2	14.0	4.50e-06	0	61	0	1001390080	47	4414
2026-01-30 05:59:19.06	307.21	19.04	-38.4	-40.2	14.0	4.50e-06	0	61	0	1008730112	47	4403
2026-01-30 05:59:20.07	306.97	19.03	-38.4	-40.2	14.0	4.50e-06	0	61	0	1017118720	47	4395
2026-01-30 05:59:21.09	306.72	19.02	-38.3	-40.1	14.1	1.10e-06	0	61	0	1023410176	47	4375
2026-01-30 05:59:22.10	306.48	19.00	-38.4	-40.1	14.1	2.20e-06	0	61	0	1030750208	47	4389
2026-01-30 05:59:23.11	306.24	18.99	-38.3	-40.1	14.1	4.50e-06	0	61	0	1038090240	47	4352
2026-01-30 05:59:24.12	305.99	18.98	-38.4	-40.2	14.0	6.80e-06	0	61	0	1045430272	47	4412
2026-01-30 05:59:25.13	305.75	18.96	-38.5	-40.3	14.0	4.50e-06	0	61	0	1052770304	47	4452
2026-01-30 05:59:26.13	305.51	18.95	-38.5	-40.3	13.9	1.10e-06	0	61	0	1060110336	47	4454
2026-01-30 05:59:27.14	305.27	18.93	-38.5	-40.3	13.9	4.50e-06	0	61	0	1067450368	47	4485
2026-01-30 05:59:28.15	305.02	18.92	-38.5	-40.4	13.8	5.70e-06	0	61	0	1074790400	47	4514
2026-01-30 05:59:29.16	304.78	18.90	-38.4	-40.2	14.0	4.50e-06	0	61	0	1082130432	47	4434
2026-01-30 05:59:30.17	304.54	18.88	-38.4	-40.2	14.0	4.50e-06	0	61	0	1089470464	47	4416
2026-01-30 05:59:31.18	304.30	18.87	-38.3	-40.1	14.1	1.10e-06	0	61	0	1096810496	47	4368
2026-01-30 05:59:32.19	304.06	18.85	-38.3	-40.0	14.1	2.20e-06	0	61	0	1104150528	47	4340
2026-01-30 05:59:33.20	303.82	18.83	-38.3	-40.1	14.1	2.20e-06	0	61	0	1111490560	47	4354
2026-01-30 05:59:34.22	303.57	18.81	-38.3	-40.1	14.1	3.40e-06	0	61	0	1118830592	47	4363
2026-01-30 05:59:35.23	303.33	18.79	-38.4	-40.2	14.0	3.40e-06	0	61	0	1126170624	47	4395
2026-01-30 05:59:36.24	303.09	18.77	-38.5	-40.3	13.9	3.40e-06	0	61	0	1133510656	47	4468
2026-01-30 05:59:37.25	302.85	18.75	-38.6	-40.4	13.8	4.50e-06	0	61	0	1140850688	47	4525
2026-01-30 05:59:38.26	302.61	18.73	-38.5	-40.4	13.8	4.50e-06	0	61	0	1148190720	47	4511
2026-01-30 05:59:39.27	302.37	18.71	-38.5	-40.4	13.8	4.50e-06	0	61	0	1154482176	47	4514
2026-01-30 05:59:40.28	302.13	18.69	-38.5	-40.4	13.8	4.50e-06	0	61	0	1162870784	47	4500
2026-01-30 05:59:41.29	301.90	18.66	-38.5	-40.3	13.9	5.70e-06	0	61	0	1170210816	47	4469
2026-01-30 05:59:42.30	301.66	18.64	-38.4	-40.2	14.0	9.10e-06	0	61	0	1176502272	47	4408
2026-01-30 05:59:43.31	301.42	18.62	-38.4	-40.2	14.0	3.40e-06	0	61	0	1183842304	47	4406
2026-01-30 05:59:44.32	301.18	18.59	-38.4	-40.2	14.0	6.80e-06	0	61	0	1191182336	47	4424
2026-01-30 05:59:45.33	300.95	18.57	-38.4	-40.2	13.9	9.10e-06	0	61	0	1198522368	47	4437
2026-01-30 05:59:46.34	300.71	18.54	-38.4	-40.2	13.9	4.50e-06	0	61	0	1205862400	47	4439
2026-01-30 05:59:47.35	300.47	18.52	-38.5	-40.3	13.9	5.70e-06	0	61	0	1213202432	47	4464
2026-01-30 05:59:48.36	300.24	18.49	-38.5	-40.4	13.8	0.00e+00	0	61	0	1220542464	47	4510
2026-01-30 05:59:49.37	300.00	18.47	-38.5	-40.4	13.8	4.50e-06	0	61	0	1227882496	47	4506
2026-01-30 05:59:50.38	299.77	18.44	-38.6	-40.5	13.7	9.10e-06	0	61	0	1235222528	47	4547
2026-01-30 05:59:51.39	299.53	18.41	-38.5	-40.3	13.8	2.20e-06	0	61	0	1242562560	47	4486
2026-01-30 05:59:52.40	299.30	18.38	-38.6	-40.4	13.7	8.00e-06	0	61	0	1249902592	47	4525
2026-01-30 05:59:53.41	299.06	18.36	-38.6	-40.4	13.7	9.10e-06	0	61	0	1257242624	47	4529
2026-01-30 05:59:54.42	298.83	18.33	-38.5	-40.3	13.8	8.00e-06	0	61	0	1264582656	47	4479
2026-01-30 05:59:55.43	298.60	18.30	-38.4	-40.2	13.9	5.70e-06	0	61	0	1271922688	47	4437
2026-01-30 05:59:56.44	298.36	18.27	-38.4	-40.3	13.9	4.50e-06	0	61	0	1279262720	47	4442
2026-01-30 05:59:57.45	298.13	18.24	-38.4	-40.3	13.9	8.00e-06	0	61	0	1286602752	47	4449
2026-01-30 05:59:58.46	297.90	18.21	-38.4	-40.2	13.9	5.70e-06	0	61	0	1293942784	47	4427
2026-01-30 05:59:59.47	297.67	18.18	-38.5	-40.3	13.9	3.40e-06	0	61	0	1300234240	47	4455
2026-01-30 06:00:00.48	297.44	18.15	-38.5	-40.4	13.8	1.10e-06	0	61	0	1308622848	47	4505
2026-01-30 06:00:01.49	297.21	18.11	-38.6	-40.5	13.6	5.70e-06	0	61	0	1315962880	47	4558
2026-01-30 06:00:02.50	296.98	18.08	-38.6	-40.5	13.6	1.02e-05	0	61	0	1322254336	47	4579
2026-01-30 06:00:03.51	296.75	18.05	-38.6	-40.5	13.6	8.00e-06	0	61	0	1329594368	47	4579
2026-01-30 06:00:04.52	296.52	18.02	-38.6	-40.5	13.6	1.37e-05	0	61	0	1336934400	47	4565
2026-01-30 06:00:05.53	296.29	17.98	-38.5	-40.4	13.7	1.37e-05	0	61	0	1344274432	47	4494
2026-01-30 06:00:06.54	296.07	17.95	-38.5	-40.3	13.7	3.40e-06	0	61	0	1351614464	47	4482
2026-01-30 06:00:07.55	295.84	17.91	-38.6	-40.5	13.6	1.02e-05	0	61	0	1358954496	47	4553
2026-01-30 06:00:08.56	295.61	17.88	-38.6	-40.5	13.6	1.25e-05	0	61	0	1366294528	47	4563
2026-01-30 06:00:09.58	295.38	17.84	-38.7	-40.6	13.5	1.60e-05	0	61	0	1373634560	47	4619
2026-01-30 06:00:10.59	295.16	17.81	-38.8	-40.7	13.4	1.60e-05	0	61	0	1380974592	47	4679
2026-01-30 06:00:11.60	294.93	17.77	-38.8	-40.8	13.3	2.74e-05	0	61	0	1388314624	47	4717
2026-01-30 06:00:12.61	294.71	17.74	-38.9	-40.9	13.1	2.63e-05	0	61	0	1395654656	47	4786
2026-01-30 06:00:13.62	294.48	17.70	-39.0	-41.0	13.1	3.66e-05	0	61	0	1402994688	47	4823
2026-01-30 06:00:14.63	294.26	17.66	-39.0	-41.0	13.1	4.23e-05	0	61	0	1410334720	47	4844
2026-01-30 06:00:15.64	294.04	17.62	-39.0	-41.0	13.1	3.77e-05	0	61	0	1417674752	47	4829
2026-01-30 06:00:16.65	293.82	17.59	-39.0	-40.9	13.1	2.97e-05	0	61	0	1425014784	47	4808
2026-01-30 06:00:17.66	293.59	17.55	-38.9	-40.9	13.2	3.31e-05	0	61	0	1432354816	47	4787
2026-01-30 06:00:18.67	293.37	17.51	-38.9	-40.8	13.2	3.31e-05	0	61	0	1439694848	47	4740
2026-01-30 06:00:19.68	293.15	17.47	-38.8	-40.8	13.3	2.51e-05	0	61	0	1447034880	47	4735
2026-01-30 06:00:20.69	292.93	17.43	-38.8	-40.7	13.3	1.37e-05	0	61	0	1454374912	47	4683
2026-01-30 06:00:21.70	292.71	17.39	-38.8	-40.7	13.3	1.83e-05	0	61	0	1461714944	47	4695
2026-01-30 06:00:22.71	292.49	17.35	-38.8	-40.8	13.2	2.28e-05	0	61	0	1469054976	47	4737
2026-01-30 06:00:23.72	292.28	17.31	-38.9	-40.8	13.1	3.77e-05	0	61	0	1475346432	47	4756
2026-01-30 06:00:24.73	292.06	17.27	-38.9	-40.9	13.1	2.74e-05	0	61	0	1483735040	47	4794
2026-01-30 06:00:25.74	291.84	17.23	-39.0	-41.0	13.0	3.20e-05	0	61	0	1491075072	47	4853
2026-01-30 06:00:26.75	291.62	17.19	-39.0	-41.0	13.0	4.23e-05	0	61	0	1497366528	47	4849
2026-01-30 06:00:27.76	291.41	17.14	-39.0	-41.0	13.0	4.46e-05	0	61	0	1504706560	47	4866
2026-01-30 06:00:28.77	291.19	17.10	-39.0	-41.0	13.0	5.83e-05	0	61	0	1512046592	47	4869
2026-01-30 06:00:29.78	290.98	17.06	-39.0	-41.0	12.9	4.23e-05	0	61	0	1519386624	47	4859
2026-01-30 06:00:30.79	290.76	17.02	-39.0	-41.0	13.0	5.26e-05	0	61	0	1526726656	47	4849
2026-01-30 06:00:31.80	290.55	16.97	-39.0	-41.0	13.0	4.57e-05	0	61	0	1534066688	47	4830
2026-01-30 06:00:32.81	290.34	16.93	-39.0	-41.0	12.9	4.57e-05	0	61	0	1541406720	47	4862
2026-01-30 06:00:33.82	290.13	16.89	-39.0	-41.0	13.0	4.57e-05	0	61	0	1548746752	47	4835
2026-01-30 06:00:34.83	289.91	16.84	-39.0	-41.0	13.0	4.00e-05	0	61	0	1556086784	47	4840
2026-01-30 06:00:35.84	289.70	16.80	-38.9	-40.9	13.1	5.26e-05	0	61	0	1563426816	47	4791
2026-01-30 06:00:36.85	289.49	16.75	-38.9	-40.9	13.1	4.11e-05	0	61	0	1570766848	47	4780
2026-01-30 06:00:37.86	289.28	16.71	-38.9	-40.9	13.1	3.43e-05	0	61	0	1578106880	47	4769
2026-01-30 06:00:38.87	289.07	16.66	-39.0	-41.0	13.0	3.66e-05	0	61	0	1585446912	47	4825
2026-01-30 06:00:39.88	288.87	16.62	-39.0	-41.0	12.9	4.92e-05	0	61	0	1592786944	47	4860
2026-01-30 06:00:40.89	288.66	16.57	-39.0	-41.1	12.9	5.95e-05	0	61	0	1600126976	47	4876
2026-01-30 06:00:41.91	288.45	16.52	-39.1	-41.1	12.9	5.72e-05	0	61	0	1607467008	47	4909
2026-01-30 06:00:42.92	288.24	16.48	-39.1	-41.2	12.8	7.78e-05	0	61	0	1614807040	47	4936
2026-01-30 06:00:43.93	288.04	16.43	-39.1	-41.1	12.8	5.83e-05	0	61	0	1622147072	47	4924
2026-01-30 06:00:44.94	287.83	16.38	-39.0	-41.1	12.9	6.63e-05	0	61	0	1629487104	47	4881
2026-01-30 06:00:45.95	287.63	16.33	-39.0	-41.0	12.9	5.03e-05	0	61	0	1636827136	47	4851
2026-01-30 06:00:46.96	287.42	16.29	-39.0	-41.0	12.9	5.37e-05	0	61	0	1643118592	47	4854
2026-01-30 06:00:47.97	287.22	16.24	-39.0	-41.0	13.0	5.37e-05	0	61	0	1650458624	47	4822
2026-01-30 06:00:48.98	287.02	16.19	-38.9	-40.9	13.0	4.34e-05	0	61	0	1658847232	47	4803
2026-01-30 06:00:49.99	286.82	16.14	-38.9	-40.9	13.0	4.80e-05	0	61	0	1665138688	47	4807
2026-01-30 06:00:50.99	286.62	16.09	-38.9	-40.9	13.0	4.46e-05	0	61	0	1672478720	47	4785
2026-01-30 06:00:52.00	286.42	16.04	-38.9	-41.0	13.0	3.77e-05	0	61	0	1679818752	47	4824
2026-01-30 06:00:53.01	286.22	15.99	-39.0	-41.1	12.8	6.98e-05	0	61	0	1687158784	47	4885
2026-01-30 06:00:54.03	286.01	15.94	-39.0	-41.1	12.8	7.09e-05	0	61	0	1694498816	47	4906
2026-01-30 06:00:55.03	285.82	15.89	-39.1	-41.2	12.7	9.04e-05	0	61	0	1701838848	47	4941
2026-01-30 06:00:56.05	285.62	15.84	-39.1	-41.2	12.7	8.01e-05	0	61	0	1709178880	47	4931
2026-01-30 06:00:57.06	285.42	15.79	-39.1	-41.1	12.8	6.98e-05	0	61	0	1716518912	47	4925
2026-01-30 06:00:58.07	285.22	15.74	-39.0	-41.1	12.8	6.40e-05	0	61	0	1723858944	47	4884
2026-01-30 06:00:59.08	285.03	15.69	-39.0	-41.0	12.8	6.29e-05	0	61	0	1731198976	47	4857
2026-01-30 06:01:00.09	284.83	15.64	-38.9	-41.0	12.9	5.72e-05	0	61	0	1738539008	47	4838
2026-01-30 06:01:01.10	284.64	15.59	-38.9	-41.0	12.9	5.26e-05	0	61	0	1745879040	47	4822
2026-01-30 06:01:02.11	284.44	15.54	-38.9	-40.9	12.9	5.83e-05	0	61	0	1753219072	47	4813
2026-01-30 06:01:03.12	284.25	15.49	-39.0	-41.0	12.8	5.83e-05	0	61	0	1760559104	47	4851
2026-01-30 06:01:04.13	284.06	15.43	-38.9	-41.0	12.9	6.52e-05	0	61	0	1767899136	47	4815
2026-01-30 06:01:05.14	283.87	15.38	-38.9	-41.0	12.8	6.75e-05	0	61	0	1775239168	47	4836
2026-01-30 06:01:06.16	283.67	15.33	-39.0	-41.1	12.7	7.43e-05	0	61	0	1782579200	47	4884
2026-01-30 06:01:07.17	283.48	15.28	-39.0	-41.2	12.7	9.15e-05	0	61	0	1789919232	47	4937
2026-01-30 06:01:08.18	283.29	15.22	-39.1	-41.3	12.5	1.20e-04	0	61	0	1797259264	47	4997
2026-01-30 06:01:09.19	283.10	15.17	-39.2	-41.3	12.5	1.34e-04	0	61	0	1804599296	47	5040
2026-01-30 06:01:10.20	282.91	15.12	-39.2	-41.4	12.4	1.69e-04	0	61	0	1811939328	47	5055
2026-01-30 06:01:11.21	282.73	15.06	-39.4	-41.6	12.4	1.46e-04	0	61	0	1818230784	48	4903
2026-01-30 06:01:12.22	282.54	15.01	-39.5	-41.7	12.3	1.98e-04	0	61	0	1825570816	48	4932
2026-01-30 06:01:13.23	282.35	14.96	-39.4	-41.6	12.4	1.84e-04	0	61	0	1833959424	48	4897
2026-01-30 06:01:14.24	282.17	14.90	-39.4	-41.6	12.4	1.83e-04	0	61	0	1840250880	48	4893
2026-01-30 06:01:15.25	281.98	14.85	-39.4	-41.6	12.4	1.60e-04	0	61	0	1847590912	48	4876
2026-01-30 06:01:16.26	281.80	14.79	-39.4	-41.6	12.4	2.00e-04	0	61	0	1854930944	48	4895
2026-01-30 06:01:17.28	281.61	14.74	-39.4	-41.6	12.4	1.62e-04	0	61	0	1862270976	48	4904
2026-01-30 06:01:18.29	281.43	14.69	-39.4	-41.6	12.4	1.70e-04	0	61	0	1869611008	48	4915
2026-01-30 06:01:19.29	281.25	14.63	-39.4	-41.6	12.4	1.76e-04	0	61	0	1876951040	48	4894
2026-01-30 06:01:20.30	281.07	14.58	-39.4	-41.6	12.3	2.02e-04	0	61	0	1884291072	48	4905
2026-01-30 06:01:21.31	280.89	14.52	-39.5	-41.7	12.3	2.28e-04	0	61	0	1891631104	48	4960
2026-01-30 06:01:22.32	280.71	14.47	-39.5	-41.7	12.2	2.29e-04	0	61	0	1898971136	48	4966
2026-01-30 06:01:23.33	280.53	14.41	-39.5	-41.7	12.3	2.13e-04	0	61	0	1906311168	48	4971
2026-01-30 06:01:24.34	280.35	14.35	-39.5	-41.8	12.2	2.08e-04	0	61	0	1913651200	48	5005
2026-01-30 06:01:25.35	280.17	14.30	-39.6	-41.8	12.2	3.29e-04	0	61	0	1920991232	48	5021
2026-01-30 06:01:26.36	279.99	14.24	-39.7	-42.0	12.0	3.40e-04	0	61	0	1928331264	48	5116
2026-01-30 06:01:27.37	279.81	14.19	-39.7	-42.0	11.9	4.49e-04	0	61	0	1935671296	48	5132
2026-01-30 06:01:28.38	279.64	14.13	-39.7	-42.1	11.9	4.47e-04	0	61	0	1943011328	49	4871
2026-01-30 06:01:29.39	279.46	14.07	-39.8	-42.1	11.8	4.92e-04	0	61	0	1950351360	49	4909
2026-01-30 06:01:30.40	279.29	14.02	-39.7	-42.1	11.8	5.23e-04	0	61	0	1957691392	49	4877
2026-01-30 06:01:31.41	279.11	13.96	-39.7	-42.0	11.9	4.70e-04	0	61	0	1963982848	49	4845
2026-01-30 06:01:32.42	278.94	13.90	-39.6	-41.9	12.0	4.45e-04	0	61	0	1971322880	49	4797
2026-01-30 06:01:33.43	278.77	13.85	-39.6	-41.8	12.0	3.18e-04	0	61	0	1979711488	49	4759
2026-01-30 06:01:34.44	278.59	13.79	-39.5	-41.8	12.1	2.93e-04	0	61	0	1986002944	49	4728
2026-01-30 06:01:35.45	278.42	13.73	-39.5	-41.8	12.1	2.92e-04	0	61	0	1993342976	49	4718
2026-01-30 06:01:36.46	278.25	13.68	-39.6	-41.9	12.1	3.02e-04	0	61	0	2000683008	49	4767
2026-01-30 06:01:37.47	278.08	13.62	-39.6	-41.8	12.1	2.82e-04	0	61	0	2008023040	49	4738
2026-01-30 06:01:38.48	277.91	13.56	-39.5	-41.8	12.1	2.64e-04	0	61	0	2015363072	49	4726
2026-01-30 06:01:39.49	277.74	13.50	-39.5	-41.8	12.1	2.83e-04	0	61	0	2022703104	49	4718
2026-01-30 06:01:40.50	277.57	13.45	-39.5	-41.8	12.1	3.42e-04	0	61	0	2030043136	49	4731
2026-01-30 06:01:41.51	277.41	13.39	-39.5	-41.8	12.1	3.23e-04	0	61	0	2037383168	49	4733
2026-01-30 06:01:42.51	277.24	13.33	-39.6	-41.9	12.0	3.27e-04	0	61	0	2044723200	49	4761
2026-01-30 06:01:43.52	277.07	13.27	-39.6	-41.9	11.9	3.98e-04	0	61	0	2052063232	49	4801
2026-01-30 06:01:44.53	276.91	13.21	-39.7	-42.0	11.8	4.82e-04	0	61	0	2059403264	49	4862
2026-01-30 06:01:45.54	276.74	13.16	-39.7	-42.0	11.9	5.15e-04	0	61	0	2066743296	49	4843
2026-01-30 06:01:46.55	276.58	13.10	-39.7	-42.0	11.9	5.55e-04	0	61	0	2074083328	49	4837
2026-01-30 06:01:47.57	276.41	13.04	-39.6	-41.9	11.9	4.42e-04	0	61	0	2081423360	49	4784
2026-01-30 06:01:48.58	276.25	12.98	-39.6	-41.8	12.0	3.98e-04	0	61	0	2088763392	49	4750
2026-01-30 06:01:49.59	276.09	12.92	-39.5	-41.8	12.0	4.12e-04	0	61	0	2096103424	49	4754
2026-01-30 06:01:50.60	275.93	12.86	-39.5	-41.9	12.0	3.56e-04	0	61	0	2103443456	49	4765
2026-01-30 06:01:51.61	275.77	12.81	-39.6	-42.0	11.9	4.44e-04	0	61	0	2110783488	49	4815
2026-01-30 06:01:52.62	275.61	12.75	-39.6	-42.0	11.9	4.31e-04	0	61	0	2117074944	49	4819
2026-01-30 06:01:53.63	275.45	12.69	-39.7	-42.0	11.8	4.82e-04	0	61	0	2125463552	49	4861
2026-01-30 06:01:54.64	275.29	12.63	-39.7	-42.0	11.8	5.17e-04	0	61	0	2132803584	49	4854
2026-01-30 06:01:55.66	275.13	12.57	-39.7	-42.1	11.8	5.45e-04	0	61	0	2139095040	49	4874
2026-01-30 06:01:56.67	274.97	12.51	-39.7	-42.1	11.7	6.23e-04	0	62	0	2146435072	49	4898
2026-01-30 06:01:57.68	274.81	12.45	-39.7	-42.1	11.7	6.27e-04	0	61	0	2154823680	49	4895
2026-01-30 06:01:58.69	274.65	12.39	-39.7	-42.0	11.8	6.06e-04	0	61	0	2161115136	49	4855
2026-01-30 06:01:59.70	274.50	12.33	-39.7	-42.1	11.7	5.78e-04	0	61	0	2168455168	49	4882
2026-01-30 06:02:00.71	274.34	12.27	-39.7	-42.1	11.6	6.95e-04	0	61	0	2175795200	49	4898
2026-01-30 06:02:01.72	274.19	12.21	-39.8	-42.2	11.5	8.35e-04	0	61	0	2183135232	49	4958
2026-01-30 06:02:02.73	274.03	12.15	-39.8	-42.3	11.5	9.37e-04	0	61	0	2190475264	49	5000
2026-01-30 06:02:03.74	273.88	12.09	-39.8	-42.3	11.4	9.67e-04	0	61	0	2197815296	49	5028
2026-01-30 06:02:04.75	273.73	12.03	-39.9	-42.4	11.3	1.17e-03	0	61	0	2205155328	49	5076
2026-01-30 06:02:05.76	273.58	11.98	-39.9	-42.4	11.3	1.29e-03	0	61	0	2212495360	49	5062
2026-01-30 06:02:06.77	273.43	11.92	-39.9	-42.4	11.3	1.41e-03	0	61	0	2219835392	49	5074
2026-01-30 06:02:07.78	273.27	11.86	-39.9	-42.5	11.2	1.56e-03	0	61	0	2227175424	49	5108
2026-01-30 06:02:08.79	273.12	11.80	-40.0	-42.6	11.1	1.85e-03	0	61	0	2234515456	49	5163
2026-01-30 06:02:09.80	272.97	11.74	-40.0	-42.7	10.9	2.33e-03	0	61	0	2241855488	49	5248
2026-01-30 06:02:10.81	272.83	11.68	-40.1	-42.8	10.8	2.72e-03	0	61	0	2249195520	49	5285
2026-01-30 06:02:11.82	272.68	11.62	-40.1	-42.8	10.7	3.48e-03	0	61	0	2256535552	49	5319
2026-01-30 06:02:12.83	272.53	11.56	-40.1	-42.8	10.7	3.40e-03	0	61	0	2263875584	49	5317
2026-01-30 06:02:13.84	272.38	11.50	-40.0	-42.7	10.7	3.02e-03	0	61	0	2271215616	49	5255
2026-01-30 06:02:14.85	272.24	11.44	-40.1	-42.7	10.7	3.00e-03	0	61	0	2278555648	49	5278
2026-01-30 06:02:15.86	272.09	11.38	-39.9	-42.6	10.9	2.66e-03	0	61	0	2284847104	49	5179
2026-01-30 06:02:16.87	271.94	11.32	-39.9	-42.5	10.9	2.55e-03	0	61	0	2292187136	49	5140
2026-01-30 06:02:17.88	271.80	11.26	-39.9	-42.5	11.0	1.94e-03	0	61	0	2300575744	49	5127
2026-01-30 06:02:18.89	271.65	11.20	-39.8	-42.3	11.1	1.82e-03	0	61	0	2306867200	49	5032
2026-01-30 06:02:19.90	271.51	11.14	-39.6	-42.2	11.2	1.68e-03	0	61	0	2314207232	49	4954
2026-01-30 06:02:20.91	271.37	11.08	-39.6	-42.1	11.2	1.55e-03	0	61	0	2321547264	49	4924
2026-01-30 06:02:21.92	271.23	11.02	-39.6	-42.2	11.1	1.71e-03	0	61	0	2328887296	49	4929
2026-01-30 06:02:22.93	271.08	10.95	-39.7	-42.3	11.0	2.07e-03	0	62	0	2336227328	49	4992
2026-01-30 06:02:23.94	270.94	10.89	-39.8	-42.5	10.7	2.85e-03	0	61	0	2343567360	49	5105
2026-01-30 06:02:24.95	270.80	10.83	-39.8	-42.6	10.5	3.55e-03	0	61	0	2350907392	49	5175
2026-01-30 06:02:25.97	270.66	10.77	-39.9	-42.8	10.3	5.26e-03	0	61	0	2358247424	49	5303
2026-01-30 06:02:26.98	270.52	10.71	-39.9	-42.8	10.1	6.66e-03	0	62	0	2365587456	49	5314
2026-01-30 06:02:27.99	270.38	10.65	-39.9	-42.9	10.0	7.93e-03	0	61	0	2372927488	49	5353
2026-01-30 06:02:29.00	270.24	10.59	-40.0	-42.9	10.0	8.27e-03	0	61	0	2380267520	49	5391
2026-01-30 06:02:30.01	270.11	10.53	-39.9	-42.9	10.0	8.34e-03	0	61	0	2387607552	49	5346
2026-01-30 06:02:31.02	269.97	10.47	-39.9	-42.8	10.1	7.79e-03	0	61	0	2394947584	49	5306
2026-01-30 06:02:32.03	269.83	10.41	-39.8	-42.7	10.2	6.79e-03	0	61	0	2402287616	49	5234
2026-01-30 06:02:33.04	269.70	10.35	-39.7	-42.5	10.3	5.51e-03	0	61	0	2409627648	49	5142
2026-01-30 06:02:34.05	269.56	10.29	-39.5	-42.2	10.5	4.39e-03	0	61	0	2416967680	49	4981
2026-01-30 06:02:35.06	269.43	10.23	-39.2	-41.9	10.7	3.25e-03	0	61	0	2424307712	49	4781
2026-01-30 06:02:36.07	269.29	10.17	-39.0	-41.7	10.8	2.72e-03	0	61	0	2431647744	49	4669
2026-01-30 06:02:37.08	269.16	10.11	-38.9	-41.6	10.7	2.92e-03	0	61	0	2438987776	48	4873
2026-01-30 06:02:38.09	269.03	10.05	-38.9	-41.7	10.4	4.68e-03	0	62	0	2446327808	48	4942
2026-01-30 06:02:39.10	268.89	9.99	-38.9	-41.8	10.3	5.63e-03	0	61	0	2453667840	48	5019
2026-01-30 06:02:40.11	268.76	9.93	-39.0	-41.9	10.3	5.81e-03	0	62	0	2459959296	48	5056
2026-01-30 06:02:41.12	268.63	9.87	-39.0	-42.1	9.8	1.09e-02	0	61	0	2467299328	48	5192
2026-01-30 06:02:42.13	268.50	9.81	-39.2	-42.3	9.6	1.27e-02	0	61	0	2475687936	48	5328
2026-01-30 06:02:43.14	268.37	9.75	-39.3	-42.5	9.4	1.70e-02	0	61	0	2481979392	48	5443
2026-01-30 06:02:44.15	268.24	9.69	-39.5	-42.8	9.1	2.28e-02	0	61	0	2489319424	48	5603
2026-01-30 06:02:45.16	268.11	9.63	-39.6	-43.2	8.7	3.30e-02	0	61	0	2496659456	48	5876
2026-01-30 06:02:46.18	267.98	9.56	-39.8	-43.4	8.4	4.32e-02	0	61	0	2503999488	49	5700
2026-01-30 06:02:47.19	267.85	9.50	-39.9	-43.6	8.2	5.79e-02	0	61	0	2511339520	49	5823
2026-01-30 06:02:48.20	267.72	9.44	-39.9	-43.8	8.1	6.08e-02	0	61	0	2518679552	49	5938
2026-01-30 06:02:49.20	267.60	9.38	-40.0	-43.9	7.9	7.62e-02	0	62	0	2526019584	49	6022
2026-01-30 06:02:50.21	267.47	9.32	-40.1	-44.1	7.6	9.21e-02	0	61	0	2533359616	49	6199
2026-01-30 06:02:51.23	267.34	9.26	-40.1	-44.2	7.5	1.03e-01	0	61	0	2540699648	49	6247
2026-01-30 06:02:52.24	267.22	9.20	-40.1	-44.5	7.2	1.42e-01	0	61	0	2548039680	49	6423
2026-01-30 06:02:53.25	267.09	9.14	-40.2	-44.6	7.0	1.61e-01	0	61	0	2555379712	49	6570
2026-01-30 06:02:54.26	266.97	9.08	-40.3	-45.1	6.5	2.18e-01	0	62	0	2562719744	50	6538
2026-01-30 06:02:55.27	266.84	9.02	-40.5	-45.2	6.5	2.54e-01	0	61	0	2570059776	50	6643
2026-01-30 06:02:56.28	266.72	8.96	-40.5	-44.6	7.5	1.22e-01	0	61	0	2577399808	50	6180
2026-01-30 06:02:57.29	266.60	8.90	-41.3	-47.2	5.2	8.35e-01	0	61	0	2580545536	53	7013
2026-01-30 06:02:58.30	266.47	8.84	-40.2	-43.5	9.3	1.63e-02	0	61	0	2586836992	51	5111
2026-01-30 06:02:59.31	266.35	8.78	-41.1	-49.9	3.8	8.46e-01	0	61	104	2588934144	51	10679
2026-01-30 06:03:00.32	266.23	8.72	-40.4	-43.8	8.8	3.30e-02	0	61	0	2592079872	51	5302
2026-01-30 06:03:01.33	266.11	8.66	-40.4	-44.0	8.5	4.02e-02	0	61	0	2599419904	51	5447
2026-01-30 06:03:02.34	265.99	8.60	-40.5	-44.2	8.3	5.14e-02	0	61	0	2606759936	51	5587
2026-01-30 06:03:03.35	265.87	8.54	-40.6	-44.4	8.0	6.79e-02	0	61	0	2614099968	51	5716
2026-01-30 06:03:04.36	265.75	8.48	-40.7	-44.6	7.9	7.60e-02	0	61	0	2621440000	51	5819
2026-01-30 06:03:05.37	265.63	8.42	-40.8	-44.8	7.7	9.24e-02	0	61	0	2628780032	51	5933
2026-01-30 06:03:06.38	265.51	8.36	-40.9	-45.0	7.4	1.11e-01	0	61	0	2636120064	51	6118
2026-01-30 06:03:07.39	265.40	8.30	-41.0	-45.4	7.0	1.42e-01	0	61	0	2643460096	51	6380
2026-01-30 06:03:08.40	265.28	8.24	-41.1	-45.6	6.9	1.75e-01	0	61	0	2650800128	51	6530
2026-01-30 06:03:09.41	265.16	8.18	-41.2	-46.0	6.5	2.20e-01	0	61	0	2658140160	51	6818
2026-01-30 06:03:10.43	265.04	8.12	-41.3	-46.1	6.5	2.73e-01	0	61	0	2665480192	52	6498
2026-01-30 06:03:11.44	264.93	8.06	-41.3	-48.2	4.7	2.73e-01	0	61	0	2671771648	52	8325
2026-01-30 06:03:12.45	264.81	8.00	-40.7	-51.4	3.8	8.46e-01	0	61	104	2671771648	52	11998
2026-01-30 06:03:13.46	264.70	7.94	-44.4	-55.0	3.8	8.44e-01	0	61	104	2671771648	58	12875
2026-01-30 06:03:14.47	264.58	7.88	-44.8	-55.5	3.8	8.47e-01	0	61	104	2671771648	59	12953
2026-01-30 06:03:15.48	264.47	7.82	-45.0	-55.8	3.8	8.46e-01	0	61	104	2671771648	59	13311
2026-01-30 06:03:16.49	264.36	7.76	-45.2	-55.9	3.8	8.47e-01	0	61	104	2671771648	59	13521
2026-01-30 06:03:17.50	264.24	7.70	-45.2	-56.2	3.8	8.46e-01	0	61	104	2671771648	60	13169
2026-01-30 06:03:18.51	264.13	7.64	-45.2	-56.3	3.8	8.45e-01	0	61	104	2671771648	60	13295
2026-01-30 06:03:19.52	264.02	7.58	-45.2	-56.3	3.8	8.46e-01	0	61	104	2671771648	60	13287
2026-01-30 06:03:20.53	263.91	7.52	-45.2	-56.3	3.8	8.47e-01	0	61	104	2671771648	60	13315
2026-01-30 06:03:21.54	263.80	7.46	-45.2	-56.2	3.8	8.47e-01	0	61	104	2671771648	60	13147
2026-01-30 06:03:22.55	263.68	7.40	-45.1	-56.2	3.8	8.47e-01	0	62	104	2671771648	60	13142
2026-01-30 06:03:23.56	263.57	7.34	-45.1	-56.2	3.8	8.46e-01	0	61	104	2671771648	60	13140
2026-01-30 06:03:24.57	263.46	7.28	-45.1	-56.2	3.8	8.45e-01	0	61	104	2671771648	60	13112
2026-01-30 06:03:25.58	263.36	7.23	-45.1	-56.1	3.8	8.45e-01	0	61	104	2671771648	60	13079
2026-01-30 06:03:26.60	263.25	7.17	-45.1	-56.2	3.8	8.46e-01	0	61	104	2671771648	60	13128
2026-01-30 06:03:27.61	263.14	7.11	-45.2	-56.3	3.8	8.45e-01	0	61	104	2671771648	60	13293
2026-01-30 06:03:28.62	263.03	7.05	-45.3	-56.3	3.8	8.47e-01	0	61	104	2671771648	60	13341
2026-01-30 06:03:29.63	262.92	6.99	-45.3	-56.3	3.8	8.46e-01	0	62	104	2671771648	60	13373
2026-01-30 06:03:30.64	262.81	6.93	-45.2	-56.3	3.8	8.45e-01	0	61	104	2671771648	60	13283
2026-01-30 06:03:31.65	262.71	6.87	-45.2	-56.2	3.8	8.46e-01	0	61	104	2671771648	60	13243
2026-01-30 06:03:32.66	262.60	6.81	-45.1	-56.2	3.8	8.46e-01	0	62	104	2671771648	60	13133
2026-01-30 06:03:33.67	262.50	6.75	-45.2	-56.2	3.8	8.46e-01	0	61	104	2671771648	60	13191
2026-01-30 06:03:34.68	262.39	6.69	-45.1	-56.2	3.8	8.46e-01	0	62	104	2671771648	60	13156
2026-01-30 06:03:35.69	262.29	6.63	-45.2	-56.2	3.8	8.46e-01	0	61	104	2671771648	60	13210
2026-01-30 06:03:36.70	262.18	6.57	-45.1	-56.1	3.8	8.45e-01	0	61	104	2671771648	60	13100
2026-01-30 06:03:37.71	262.08	6.52	-45.1	-56.1	3.8	8.46e-01	0	61	104	2671771648	60	13056
2026-01-30 06:03:38.72	261.97	6.46	-45.2	-55.9	3.8	8.47e-01	0	61	104	2671771648	59	13501
2026-01-30 06:03:39.74	261.87	6.40	-45.2	-55.9	3.8	8.46e-01	0	61	104	2671771648	59	13530
2026-01-30 06:03:40.75	261.77	6.34	-45.2	-55.9	3.8	8.45e-01	0	62	104	2671771648	59	13530
2026-01-30 06:03:41.76	261.66	6.28	-45.2	-55.9	3.8	8.47e-01	0	62	104	2671771648	59	13460
2026-01-30 06:03:42.77	261.56	6.22	-45.2	-55.9	3.8	8.46e-01	0	62	104	2671771648	59	13555
2026-01-30 06:03:43.78	261.46	6.16	-45.1	-56.1	3.8	8.46e-01	0	61	104	2671771648	60	13033
2026-01-30 06:03:44.79	261.36	6.10	-45.1	-55.9	3.8	8.47e-01	0	62	104	2671771648	59	13483
2026-01-30 06:03:45.80	261.26	6.05	-45.1	-55.9	3.8	8.45e-01	0	61	104	2671771648	59	13431
2026-01-30 06:03:46.81	261.16	5.99	-45.1	-55.9	3.8	8.47e-01	0	61	104	2671771648	59	13459
2026-01-30 06:03:47.82	261.06	5.93	-45.1	-55.9	3.8	8.46e-01	0	62	104	2671771648	59	13466
2026-01-30 06:03:48.83	260.96	5.87	-44.9	-55.6	3.9	8.46e-01	0	61	104	2671771648	59	13031
2026-01-30 06:03:49.84	260.86	5.81	-45.1	-55.9	3.8	8.47e-01	0	62	104	2671771648	59	13470
2026-01-30 06:03:50.85	260.76	5.75	-43.4	-54.7	4.0	8.46e-01	0	61	104	2671771648	58	12431
2026-01-30 06:03:51.86	260.66	5.70	-44.9	-55.8	3.8	8.47e-01	0	61	104	2671771648	59	13274
2026-01-30 06:03:52.87	260.57	5.64	-45.1	-55.8	3.8	8.46e-01	0	61	104	2671771648	59	13385
2026-01-30 06:03:53.88	260.47	5.58	-45.1	-55.9	3.8	8.46e-01	0	62	104	2671771648	59	13416
2026-01-30 06:03:54.89	260.37	5.52	-45.1	-55.9	3.8	8.46e-01	0	61	104	2671771648	59	13436
2026-01-30 06:03:55.90	260.27	5.46	-45.1	-55.8	3.8	8.46e-01	0	61	104	2671771648	59	13369
2026-01-30 06:03:56.91	260.18	5.41	-45.1	-55.8	3.8	8.47e-01	0	62	104	2671771648	59	13384
2026-01-30 06:03:57.92	260.08	5.35	-45.1	-55.8	3.8	8.46e-01	0	61	104	2671771648	59	13398
2026-01-30 06:03:58.93	259.99	5.29	-45.1	-55.9	3.8	8.46e-01	0	61	104	2671771648	59	13431
2026-01-30 06:03:59.94	259.89	5.23	-45.1	-55.8	3.8	8.46e-01	0	62	104	2671771648	59	13366
2026-01-30 06:04:00.95	259.80	5.17	-45.1	-55.8	3.8	8.45e-01	0	62	104	2671771648	59	13395
2026-01-30 06:04:01.96	259.70	5.12	-45.0	-55.8	3.8	8.45e-01	0	61	104	2671771648	59	13371
2026-01-30 06:04:02.97	259.61	5.06	-45.1	-55.9	3.8	8.46e-01	0	62	104	2671771648	59	13438
2026-01-30 06:04:03.98	259.52	5.00	-45.1	-55.8	3.8	8.46e-01	0	62	104	2671771648	59	13365
2026-01-30 06:04:04.99	259.42	4.94	-45.1	-55.8	3.8	8.45e-01	0	62	104	2671771648	59	13409
2026-01-30 06:04:06.00	259.33	4.89	-45.1	-55.8	3.8	8.45e-01	0	61	104	2671771648	59	13385
2026-01-30 06:04:07.01	259.24	4.83	-45.1	-55.8	3.8	8.45e-01	0	61	104	2671771648	59	13369
2026-01-30 06:04:08.02	259.15	4.77	-45.0	-55.8	3.8	8.46e-01	0	61	104	2671771648	59	13343
2026-01-30 06:04:09.03	259.05	4.72	-45.1	-55.8	3.8	8.46e-01	0	62	104	2671771648	59	13311
2026-01-30 06:04:10.04	258.96	4.66	-45.1	-55.8	3.8	8.46e-01	0	62	104	2671771648	59	13343
2026-01-30 06:04:11.06	258.87	4.60	-45.1	-55.8	3.8	8.46e-01	0	62	104	2671771648	59	13376
2026-01-30 06:04:12.07	258.78	4.54	-45.1	-55.8	3.8	8.47e-01	0	61	104	2671771648	59	13352
2026-01-30 06:04:13.08	258.69	4.49	-45.1	-55.8	3.8	8.46e-01	0	62	104	2671771648	59	13376
2026-01-30 06:04:14.09	258.60	4.43	-45.1	-55.8	3.8	8.46e-01	0	61	104	2671771648	59	13352
2026-01-30 06:04:15.10	258.51	4.37	-45.1	-55.8	3.8	8.45e-01	0	61	104	2671771648	59	13296
2026-01-30 06:04:16.11	258.42	4.32	-45.1	-55.8	3.8	8.46e-01	0	61	104	2671771648	59	13356
2026-01-30 06:04:17.12	258.33	4.26	-45.0	-55.8	3.8	8.47e-01	0	61	104	2671771648	59	13299
2026-01-30 06:04:18.13	258.24	4.20	-45.0	-55.8	3.8	8.47e-01	0	61	104	2671771648	59	13335
2026-01-30 06:04:19.14	258.16	4.15	-45.1	-55.8	3.8	8.46e-01	0	62	104	2671771648	59	13320
2026-01-30 06:04:20.15	258.07	4.09	-45.0	-55.8	3.8	8.47e-01	0	62	104	2671771648	59	13324
2026-01-30 06:04:21.16	257.98	4.03	-44.7	-55.7	3.8	8.46e-01	0	61	104	2671771648	59	13156
2026-01-30 06:04:22.17	257.89	3.98	-45.1	-55.8	3.8	8.47e-01	0	62	104	2671771648	59	13305
2026-01-30 06:04:23.18	257.81	3.92	-45.0	-55.8	3.8	8.46e-01	0	62	104	2671771648	59	13305
2026-01-30 06:04:24.19	257.72	3.86	-45.1	-55.8	3.8	8.46e-01	0	62	104	2671771648	59	13334
2026-01-30 06:04:25.20	257.64	3.81	-45.0	-55.8	3.8	8.46e-01	0	62	104	2671771648	59	13313
2026-01-30 06:04:26.22	257.55	3.75	-45.1	-55.8	3.8	8.46e-01	0	61	104	2671771648	59	13328
2026-01-30 06:04:27.23	257.46	3.69	-45.0	-55.8	3.8	8.45e-01	0	61	104	2671771648	59	13302
2026-01-30 06:04:28.24	257.38	3.64	-45.1	-55.8	3.8	8.46e-01	0	61	104	2671771648	59	13353
2026-01-30 06:04:29.25	257.29	3.58	-45.0	-55.8	3.8	8.45e-01	0	62	104	2671771648	59	13322
2026-01-30 06:04:30.26	257.21	3.52	-45.0	-55.8	3.8	8.46e-01	0	62	104	2671771648	59	13268
2026-01-30 06:04:31.27	257.13	3.47	-45.1	-55.8	3.8	8.47e-01	0	62	104	2671771648	59	13287
2026-01-30 06:04:32.28	257.04	3.41	-45.0	-55.8	3.8	8.45e-01	0	62	104	2671771648	59	13338
2026-01-30 06:04:33.29	256.96	3.36	-45.1	-55.8	3.8	8.45e-01	0	62	104	2671771648	59	13292
2026-01-30 06:04:34.30	256.88	3.30	-45.0	-55.8	3.8	8.47e-01	0	62	104	2671771648	59	13273
2026-01-30 06:04:35.31	256.79	3.25	-45.1	-55.8	3.8	8.46e-01	0	62	104	2671771648	59	13304
2026-01-30 06:04:36.32	256.71	3.19	-45.0	-55.8	3.8	8.47e-01	0	61	104	2671771648	59	13306
2026-01-30 06:04:37.33	256.63	3.13	-45.0	-55.8	3.8	8.46e-01	0	62	104	2671771648	59	13326
2026-01-30 06:04:38.35	256.55	3.08	-45.0	-55.8	3.8	8.46e-01	0	62	104	2671771648	59	13308
2026-01-30 06:04:39.36	256.46	3.02	-45.0	-55.8	3.8	8.46e-01	0	62	104	2671771648	59	13320
2026-01-30 06:04:40.37	256.38	2.97	-45.0	-55.8	3.8	8.46e-01	0	61	104	2671771648	59	13324
2026-01-30 06:04:41.38	256.30	2.91	-45.0	-55.8	3.8	8.46e-01	0	62	104	2671771648	59	13309
2026-01-30 06:04:42.39	256.22	2.86	-45.0	-55.8	3.8	8.46e-01	0	61	104	2671771648	59	13313
2026-01-30 06:04:43.40	256.14	2.80	-45.0	-55.8	3.8	8.46e-01	0	61	104	2671771648	59	13304
2026-01-30 06:04:44.41	256.06	2.75	-45.0	-55.8	3.8	8.46e-01	0	61	104	2671771648	59	13299
2026-01-30 06:04:45.42	255.98	2.69	-45.0	-55.8	3.8	8.46e-01	0	61	104	2671771648	59	13292
