passes_logs/2026/01/30/R2.0S_Moscow/R2.0S_Moscow__20260130_004959_FENGYUN_3D_rec.log

#Pass ID: 20260130_004959_FENGYUN 3D
#Satellite: FENGYUN 3D
#Configuration: FENGYUN 3D
#almurnet v.1.7.20251203
#Start time: 2026-01-30 00:49:59

#Version: 2.2.20231116
#Station: R2.0S_Moscow
#Location: 37.707566 lon 55.798166 lat
#TLE: 1 43010U 17072A   26028.95797775  .00000451  00000+0  23492-3 0  9991
#TLE: 2 43010  98.9958   0.9922 0002505  85.7480 274.3981 14.19703224425237

#Time	Az	El	Level	Level2	SNR	BER	BlckErr	Temp	State	Recorded	gain1	gain2
2026-01-30 00:49:59.08	21.62	1.98	-42.2	-53.8	3.8	8.46e-01	0	52	0	0	56	13322
2026-01-30 00:50:00.08	21.67	2.04	-42.2	-53.8	3.8	8.46e-01	0	52	104	0	56	13279
2026-01-30 00:50:01.09	21.71	2.10	-42.2	-53.8	3.8	8.45e-01	0	53	104	0	56	13284
2026-01-30 00:50:02.10	21.76	2.16	-42.2	-53.8	3.8	8.46e-01	0	53	104	0	56	13312
2026-01-30 00:50:03.11	21.81	2.23	-42.2	-53.8	3.8	8.45e-01	0	53	104	0	56	13321
2026-01-30 00:50:04.12	21.86	2.29	-42.2	-53.8	3.8	8.47e-01	0	53	104	0	56	13300
2026-01-30 00:50:05.13	21.91	2.35	-42.2	-53.8	3.8	8.46e-01	0	53	104	0	56	13273
2026-01-30 00:50:06.14	21.95	2.41	-42.2	-53.8	3.8	8.46e-01	0	53	104	0	56	13295
2026-01-30 00:50:07.15	22.00	2.47	-42.2	-53.8	3.8	8.45e-01	0	53	104	0	56	13298
2026-01-30 00:50:08.17	22.05	2.53	-42.2	-53.8	3.8	8.45e-01	0	53	104	0	56	13310
2026-01-30 00:50:09.18	22.10	2.59	-42.2	-53.8	3.8	8.47e-01	0	53	104	0	56	13276
2026-01-30 00:50:10.19	22.15	2.66	-42.2	-53.8	3.8	8.47e-01	0	53	104	0	56	13313
2026-01-30 00:50:11.20	22.20	2.72	-42.2	-53.8	3.8	8.46e-01	0	53	104	0	56	13279
2026-01-30 00:50:12.21	22.25	2.78	-42.2	-53.8	3.8	8.46e-01	0	53	104	0	56	13294
2026-01-30 00:50:13.22	22.30	2.84	-42.2	-53.8	3.8	8.47e-01	0	54	104	0	56	13306
2026-01-30 00:50:14.23	22.34	2.90	-42.2	-53.8	3.8	8.45e-01	0	53	104	0	56	13280
2026-01-30 00:50:15.24	22.39	2.97	-42.2	-53.7	3.8	8.45e-01	0	54	104	0	56	13231
2026-01-30 00:50:16.25	22.44	3.03	-42.2	-53.7	3.8	8.47e-01	0	54	104	0	56	13256
2026-01-30 00:50:17.26	22.49	3.09	-42.2	-53.8	3.8	8.45e-01	0	54	104	0	56	13275
2026-01-30 00:50:18.28	22.55	3.15	-42.2	-53.8	3.8	8.45e-01	0	54	104	0	56	13289
2026-01-30 00:50:19.29	22.60	3.22	-42.2	-53.8	3.8	8.47e-01	0	54	104	0	56	13294
2026-01-30 00:50:20.30	22.65	3.28	-42.2	-53.8	3.8	8.47e-01	0	54	104	0	56	13310
2026-01-30 00:50:21.31	22.70	3.34	-42.2	-53.8	3.8	8.47e-01	0	54	104	0	56	13284
2026-01-30 00:50:22.32	22.75	3.41	-42.2	-53.7	3.8	8.46e-01	0	54	104	0	56	13177
2026-01-30 00:50:23.33	22.80	3.47	-42.2	-53.8	3.8	8.45e-01	0	54	104	0	56	13283
2026-01-30 00:50:24.34	22.85	3.53	-42.2	-53.7	3.8	8.47e-01	0	54	104	0	56	13240
2026-01-30 00:50:25.35	22.90	3.60	-42.2	-53.7	3.8	8.45e-01	0	54	104	0	56	13206
2026-01-30 00:50:26.36	22.95	3.66	-42.2	-53.8	3.8	8.46e-01	0	54	104	0	56	13301
2026-01-30 00:50:27.37	23.01	3.73	-42.2	-53.7	3.8	8.46e-01	0	54	104	0	56	13226
2026-01-30 00:50:28.38	23.06	3.79	-42.2	-53.7	3.8	8.46e-01	0	54	104	0	56	13256
2026-01-30 00:50:29.39	23.11	3.85	-42.2	-53.7	3.8	8.46e-01	0	54	104	0	56	13248
2026-01-30 00:50:30.40	23.16	3.92	-42.2	-53.7	3.8	8.46e-01	0	54	104	0	56	13233
2026-01-30 00:50:31.42	23.22	3.98	-42.2	-53.8	3.8	8.46e-01	0	55	104	0	56	13276
2026-01-30 00:50:32.43	23.27	4.05	-42.2	-53.8	3.8	8.46e-01	0	55	104	0	56	13286
2026-01-30 00:50:33.44	23.32	4.11	-42.2	-53.8	3.8	8.46e-01	0	55	104	0	56	13265
2026-01-30 00:50:34.45	23.38	4.18	-42.2	-53.8	3.8	8.47e-01	0	55	104	0	56	13270
2026-01-30 00:50:35.46	23.43	4.24	-42.2	-53.7	3.8	8.46e-01	0	55	104	0	56	13256
2026-01-30 00:50:36.47	23.49	4.31	-42.2	-53.7	3.8	8.46e-01	0	55	104	0	56	13228
2026-01-30 00:50:37.48	23.54	4.37	-42.2	-53.8	3.8	8.46e-01	0	55	104	0	56	13304
2026-01-30 00:50:38.49	23.59	4.44	-42.2	-53.7	3.8	8.46e-01	0	55	104	0	56	13240
2026-01-30 00:50:39.50	23.65	4.50	-42.2	-53.7	3.8	8.46e-01	0	55	104	0	56	13245
2026-01-30 00:50:40.51	23.70	4.57	-42.2	-53.7	3.8	8.46e-01	0	55	104	0	56	13232
2026-01-30 00:50:41.52	23.76	4.64	-42.2	-53.7	3.8	8.46e-01	0	55	104	0	56	13225
2026-01-30 00:50:42.53	23.81	4.70	-42.2	-53.7	3.8	8.46e-01	0	55	104	0	56	13240
2026-01-30 00:50:43.54	23.87	4.77	-42.2	-53.8	3.8	8.45e-01	0	55	104	0	56	13283
2026-01-30 00:50:44.55	23.93	4.83	-42.2	-53.8	3.8	8.46e-01	0	55	104	0	56	13264
2026-01-30 00:50:45.56	23.98	4.90	-42.2	-53.8	3.8	8.47e-01	0	55	104	0	56	13311
2026-01-30 00:50:46.57	24.04	4.97	-42.2	-53.7	3.8	8.47e-01	0	55	104	0	56	13245
2026-01-30 00:50:47.58	24.10	5.03	-42.2	-53.7	3.8	8.45e-01	0	55	104	0	56	13216
2026-01-30 00:50:48.59	24.15	5.10	-42.2	-53.7	3.8	8.46e-01	0	55	104	0	56	13238
2026-01-30 00:50:49.60	24.21	5.17	-42.2	-53.7	3.8	8.46e-01	0	55	104	0	56	13242
2026-01-30 00:50:50.61	24.27	5.24	-42.2	-53.8	3.8	8.45e-01	0	56	104	0	56	13265
2026-01-30 00:50:51.62	24.32	5.30	-42.2	-53.7	3.8	8.46e-01	0	56	104	0	56	13193
2026-01-30 00:50:52.63	24.38	5.37	-42.2	-53.7	3.8	8.47e-01	0	56	104	0	56	13198
2026-01-30 00:50:53.64	24.44	5.44	-42.2	-53.8	3.8	8.47e-01	0	56	104	0	56	13274
2026-01-30 00:50:54.65	24.50	5.51	-42.2	-53.7	3.8	8.45e-01	0	56	104	0	56	13246
2026-01-30 00:50:55.66	24.56	5.57	-42.2	-53.7	3.8	8.47e-01	0	56	104	0	56	13227
2026-01-30 00:50:56.67	24.62	5.64	-42.2	-53.7	3.8	8.47e-01	0	56	104	0	56	13233
2026-01-30 00:50:57.69	24.67	5.71	-42.2	-53.7	3.8	8.46e-01	0	56	104	0	56	13175
2026-01-30 00:50:58.70	24.73	5.78	-42.2	-53.8	3.8	8.46e-01	0	56	104	0	56	13266
2026-01-30 00:50:59.71	24.79	5.85	-42.2	-53.7	3.8	8.46e-01	0	56	104	0	56	13214
2026-01-30 00:51:00.72	24.85	5.92	-42.2	-53.7	3.8	8.46e-01	0	56	104	0	56	13234
2026-01-30 00:51:01.73	24.91	5.98	-42.2	-53.7	3.8	8.46e-01	0	56	104	0	56	13219
2026-01-30 00:51:02.74	24.97	6.05	-42.2	-53.7	3.8	8.46e-01	0	56	104	0	56	13152
2026-01-30 00:51:03.75	25.03	6.12	-42.2	-53.7	3.8	8.46e-01	0	56	104	0	56	13225
2026-01-30 00:51:04.76	25.09	6.19	-42.2	-53.7	3.8	8.46e-01	0	56	104	0	56	13235
2026-01-30 00:51:05.77	25.16	6.26	-42.2	-53.7	3.8	8.45e-01	0	56	104	0	56	13244
2026-01-30 00:51:06.78	25.22	6.33	-42.2	-53.7	3.8	8.46e-01	0	56	104	0	56	13226
2026-01-30 00:51:07.79	25.28	6.40	-42.2	-53.7	3.8	8.46e-01	0	56	104	0	56	13194
2026-01-30 00:51:08.80	25.34	6.47	-42.2	-53.7	3.8	8.46e-01	0	56	104	0	56	13206
2026-01-30 00:51:09.81	25.40	6.54	-42.2	-53.7	3.8	8.47e-01	0	56	104	0	56	13229
2026-01-30 00:51:10.82	25.47	6.61	-42.2	-53.7	3.8	8.46e-01	0	56	104	0	56	13208
2026-01-30 00:51:11.83	25.53	6.68	-42.2	-53.7	3.8	8.46e-01	0	56	104	0	56	13115
2026-01-30 00:51:12.84	25.59	6.75	-42.2	-53.6	3.8	8.47e-01	0	57	104	0	56	13067
2026-01-30 00:51:13.85	25.65	6.82	-42.1	-53.5	3.8	8.46e-01	0	57	104	0	56	12845
2026-01-30 00:51:14.86	25.72	6.90	-42.1	-53.3	3.8	8.45e-01	0	57	104	0	56	12640
2026-01-30 00:51:15.87	25.78	6.97	-42.1	-53.1	3.8	8.45e-01	0	57	104	0	56	12373
2026-01-30 00:51:16.88	25.85	7.04	-42.1	-53.1	3.8	8.48e-01	0	57	104	0	56	12368
2026-01-30 00:51:17.89	25.91	7.11	-42.1	-52.8	3.8	8.46e-01	0	57	104	0	56	11903
2026-01-30 00:51:18.90	25.98	7.18	-42.1	-52.8	3.8	8.46e-01	0	57	104	0	56	11844
2026-01-30 00:51:19.91	26.04	7.25	-42.0	-52.5	3.8	8.45e-01	0	57	104	0	56	11433
2026-01-30 00:51:20.92	26.11	7.33	-41.8	-51.7	3.8	8.46e-01	0	57	104	0	55	11075
2026-01-30 00:51:21.93	26.17	7.40	-41.7	-50.9	4.0	8.44e-01	0	57	104	0	55	10161
2026-01-30 00:51:22.94	26.24	7.47	-41.5	-49.6	4.3	8.40e-01	0	57	0	0	55	8684
2026-01-30 00:51:23.95	26.30	7.54	-41.3	-48.4	4.8	8.15e-01	0	57	0	0	54	8070
2026-01-30 00:51:24.96	26.37	7.62	-41.1	-47.6	5.2	7.57e-01	0	57	0	0	54	7314
2026-01-30 00:51:25.97	26.44	7.69	-40.7	-46.2	6.2	3.69e-01	0	57	0	4194304	53	6643
2026-01-30 00:51:26.98	26.50	7.76	-40.3	-45.1	7.2	1.90e-01	0	57	0	9437184	52	6162
2026-01-30 00:51:27.99	26.57	7.83	-39.9	-44.1	8.2	7.73e-02	0	57	0	14680064	51	5810
2026-01-30 00:51:29.00	26.64	7.91	-39.3	-42.9	9.5	2.89e-02	0	57	0	20971520	50	5354
2026-01-30 00:51:30.02	26.71	7.98	-39.0	-42.3	10.1	1.11e-02	0	57	0	26214400	50	5022
2026-01-30 00:51:31.03	26.78	8.06	-38.9	-42.1	10.3	5.30e-03	0	57	0	32505856	49	5164
2026-01-30 00:51:32.04	26.85	8.13	-39.0	-42.1	10.4	5.05e-03	0	57	0	37748736	49	5204
2026-01-30 00:51:33.05	26.92	8.20	-40.0	-45.1	6.6	1.30e-01	0	57	0	42991616	50	6948
2026-01-30 00:51:34.06	26.98	8.28	-40.2	-43.6	10.0	2.84e-02	0	58	0	49283072	51	5493
2026-01-30 00:51:35.07	27.05	8.35	-41.1	-45.1	8.5	2.05e-02	0	58	0	54525952	53	5847
2026-01-30 00:51:36.08	27.12	8.43	-40.1	-43.9	9.0	8.10e-03	0	57	0	60817408	51	5699
2026-01-30 00:51:37.09	27.20	8.50	-39.6	-42.5	11.3	1.34e-03	0	58	0	66060288	50	5113
2026-01-30 00:51:38.10	27.27	8.58	-39.6	-42.5	11.2	1.96e-03	0	58	0	71303168	50	5155
2026-01-30 00:51:39.11	27.34	8.65	-39.5	-42.4	11.4	1.89e-03	0	58	0	77594624	50	5044
2026-01-30 00:51:40.12	27.41	8.73	-39.6	-42.4	11.4	1.38e-03	0	58	0	82837504	50	5088
2026-01-30 00:51:41.13	27.48	8.81	-39.7	-42.5	11.3	1.41e-03	0	58	0	89128960	50	5143
2026-01-30 00:51:42.14	27.55	8.88	-39.4	-42.1	11.8	9.02e-04	0	58	0	94371840	50	4897
2026-01-30 00:51:43.15	27.63	8.96	-39.7	-42.5	11.4	1.25e-03	0	58	0	100663296	50	5115
2026-01-30 00:51:44.16	27.70	9.03	-39.6	-42.3	11.6	1.10e-03	0	58	0	105906176	50	5040
2026-01-30 00:51:45.17	27.77	9.11	-39.6	-42.3	11.7	7.85e-04	0	58	0	112197632	50	5015
2026-01-30 00:51:46.18	27.85	9.19	-39.7	-42.4	11.6	1.32e-03	0	58	0	117440512	50	5081
2026-01-30 00:51:47.19	27.92	9.26	-39.7	-42.4	11.7	7.67e-04	0	58	0	122683392	50	5054
2026-01-30 00:51:48.20	27.99	9.34	-39.7	-42.4	11.7	8.85e-04	0	58	0	128974848	50	5050
2026-01-30 00:51:49.21	28.07	9.42	-39.7	-42.3	11.8	7.91e-04	0	58	0	134217728	50	5038
2026-01-30 00:51:50.22	28.14	9.50	-39.7	-42.4	11.7	7.91e-04	0	58	0	140509184	50	5075
2026-01-30 00:51:51.23	28.22	9.57	-39.6	-42.2	11.9	6.40e-04	0	58	0	145752064	50	4978
2026-01-30 00:51:52.24	28.29	9.65	-39.6	-42.3	11.9	8.75e-04	0	58	0	150994944	50	5000
2026-01-30 00:51:53.25	28.37	9.73	-39.7	-42.4	11.8	6.77e-04	0	58	0	157286400	50	5064
2026-01-30 00:51:54.26	28.45	9.81	-39.8	-42.5	11.7	7.44e-04	0	58	0	162529280	50	5112
2026-01-30 00:51:55.27	28.52	9.89	-39.8	-42.4	11.8	6.83e-04	0	58	0	168820736	50	5093
2026-01-30 00:51:56.28	28.60	9.97	-39.8	-42.5	11.8	6.65e-04	0	58	0	174063616	50	5106
2026-01-30 00:51:57.29	28.68	10.04	-39.7	-42.3	12.0	5.63e-04	0	58	0	179306496	50	4998
2026-01-30 00:51:58.30	28.76	10.12	-39.8	-42.5	11.7	7.80e-04	0	58	0	185597952	50	5154
2026-01-30 00:51:59.31	28.84	10.20	-39.7	-42.3	12.0	4.31e-04	0	58	0	190840832	50	5007
2026-01-30 00:52:00.32	28.92	10.28	-39.8	-42.4	11.9	5.12e-04	0	58	0	197132288	50	5070
2026-01-30 00:52:01.33	29.00	10.36	-39.6	-42.2	12.2	4.76e-04	0	58	0	202375168	50	4951
2026-01-30 00:52:02.34	29.07	10.44	-39.7	-42.2	12.2	3.22e-04	0	58	0	208666624	50	4970
2026-01-30 00:52:03.35	29.16	10.52	-39.6	-42.2	12.3	2.73e-04	0	58	0	213909504	50	4940
2026-01-30 00:52:04.36	29.24	10.60	-39.5	-42.0	12.5	3.36e-04	0	58	0	219152384	50	4838
2026-01-30 00:52:05.37	29.32	10.68	-39.5	-42.0	12.5	1.90e-04	0	58	0	225443840	50	4835
2026-01-30 00:52:06.38	29.40	10.76	-39.5	-42.0	12.5	2.44e-04	0	58	0	230686720	50	4816
2026-01-30 00:52:07.39	29.48	10.85	-39.6	-42.0	12.5	1.91e-04	0	58	0	236978176	50	4855
2026-01-30 00:52:08.40	29.56	10.93	-39.4	-41.8	12.7	1.20e-04	0	59	0	242221056	50	4729
2026-01-30 00:52:09.41	29.65	11.01	-39.4	-41.8	12.7	1.19e-04	0	58	0	247463936	50	4753
2026-01-30 00:52:10.42	29.73	11.09	-39.4	-41.7	12.8	9.38e-05	0	58	0	253755392	50	4698
2026-01-30 00:52:11.43	29.81	11.17	-39.3	-41.7	12.9	7.32e-05	0	58	0	258998272	50	4662
2026-01-30 00:52:12.44	29.90	11.26	-39.3	-41.6	12.9	7.66e-05	0	58	0	265289728	50	4639
2026-01-30 00:52:13.45	29.98	11.34	-39.4	-41.8	12.7	9.38e-05	0	59	0	270532608	50	4736
2026-01-30 00:52:14.46	30.07	11.42	-39.3	-41.7	12.9	1.15e-04	0	59	0	275775488	50	4652
2026-01-30 00:52:15.47	30.15	11.50	-39.3	-41.7	12.9	1.06e-04	0	59	0	282066944	50	4662
2026-01-30 00:52:16.48	30.24	11.59	-39.5	-41.8	12.7	9.84e-05	0	59	0	287309824	50	4752
2026-01-30 00:52:17.50	30.32	11.67	-39.4	-41.8	12.8	9.26e-05	0	59	0	293601280	50	4728
2026-01-30 00:52:18.50	30.41	11.75	-39.3	-41.6	13.0	6.29e-05	0	59	0	298844160	50	4611
2026-01-30 00:52:19.51	30.50	11.84	-39.4	-41.7	12.9	6.86e-05	0	59	0	305135616	50	4674
2026-01-30 00:52:20.52	30.59	11.92	-39.3	-41.6	13.0	6.29e-05	0	59	0	310378496	50	4630
2026-01-30 00:52:21.53	30.67	12.01	-39.3	-41.6	12.9	6.75e-05	0	59	0	316669952	50	4651
2026-01-30 00:52:22.53	30.76	12.09	-39.1	-41.4	13.2	3.43e-05	0	59	0	321912832	50	4494
2026-01-30 00:52:23.55	30.85	12.18	-39.1	-41.3	13.3	2.63e-05	0	59	0	327155712	50	4483
2026-01-30 00:52:24.56	30.94	12.26	-39.1	-41.3	13.4	4.00e-05	0	59	0	333447168	50	4449
2026-01-30 00:52:25.57	31.03	12.35	-39.2	-41.4	13.2	2.17e-05	0	59	0	338690048	50	4507
2026-01-30 00:52:26.58	31.12	12.43	-39.1	-41.3	13.4	2.17e-05	0	59	0	344981504	50	4444
2026-01-30 00:52:27.59	31.21	12.52	-39.0	-41.2	13.5	2.40e-05	0	59	0	350224384	49	4652
2026-01-30 00:52:28.60	31.31	12.60	-39.1	-41.2	13.4	2.74e-05	0	59	0	355467264	49	4684
2026-01-30 00:52:29.61	31.40	12.69	-39.0	-41.2	13.5	1.60e-05	0	59	0	361758720	49	4656
2026-01-30 00:52:30.62	31.49	12.78	-38.9	-41.0	13.7	9.10e-06	0	59	0	367001600	49	4560
2026-01-30 00:52:31.63	31.58	12.86	-38.8	-40.9	13.7	1.02e-05	0	59	0	373293056	49	4523
2026-01-30 00:52:32.64	31.68	12.95	-38.9	-41.1	13.6	1.83e-05	0	59	0	378535936	49	4607
2026-01-30 00:52:33.66	31.77	13.04	-38.9	-41.0	13.7	1.60e-05	0	59	0	383778816	49	4566
2026-01-30 00:52:34.67	31.87	13.12	-39.0	-41.1	13.6	1.71e-05	0	59	0	390070272	49	4617
2026-01-30 00:52:35.68	31.96	13.21	-39.0	-41.1	13.6	5.70e-06	0	59	0	395313152	49	4621
2026-01-30 00:52:36.69	32.06	13.30	-38.9	-41.0	13.7	1.71e-05	0	59	0	401604608	49	4591
2026-01-30 00:52:37.70	32.16	13.39	-38.9	-41.1	13.6	1.83e-05	0	59	0	406847488	49	4609
2026-01-30 00:52:38.71	32.25	13.48	-38.9	-41.1	13.7	1.83e-05	0	59	0	413138944	49	4602
2026-01-30 00:52:39.72	32.35	13.57	-39.0	-41.1	13.6	9.10e-06	0	59	0	418381824	49	4650
2026-01-30 00:52:40.73	32.45	13.65	-38.9	-41.0	13.7	1.02e-05	0	59	0	424673280	49	4557
2026-01-30 00:52:41.74	32.55	13.74	-38.8	-40.9	13.8	8.00e-06	0	59	0	429916160	49	4509
2026-01-30 00:52:42.75	32.65	13.83	-38.9	-41.0	13.7	5.70e-06	0	59	0	435159040	49	4577
2026-01-30 00:52:43.76	32.75	13.92	-39.0	-41.1	13.6	2.05e-05	0	59	0	441450496	49	4649
2026-01-30 00:52:44.77	32.85	14.01	-38.9	-41.0	13.7	1.02e-05	0	59	0	446693376	49	4586
2026-01-30 00:52:45.79	32.95	14.10	-38.9	-41.0	13.7	8.00e-06	0	59	0	452984832	49	4591
2026-01-30 00:52:46.80	33.05	14.19	-38.9	-41.0	13.8	9.10e-06	0	59	0	458227712	49	4583
2026-01-30 00:52:47.81	33.15	14.29	-39.0	-41.1	13.7	1.25e-05	0	59	0	463470592	49	4612
2026-01-30 00:52:48.82	33.26	14.38	-39.0	-41.1	13.7	2.05e-05	0	59	0	469762048	49	4638
2026-01-30 00:52:49.83	33.36	14.47	-39.0	-41.2	13.6	2.20e-06	0	59	0	475004928	49	4657
2026-01-30 00:52:50.84	33.46	14.56	-39.1	-41.3	13.5	1.60e-05	0	59	0	481296384	49	4731
2026-01-30 00:52:51.85	33.57	14.65	-39.1	-41.3	13.5	1.60e-05	0	59	0	486539264	49	4719
2026-01-30 00:52:52.86	33.67	14.74	-39.0	-41.1	13.7	1.02e-05	0	59	0	491782144	49	4617
2026-01-30 00:52:53.87	33.78	14.84	-39.0	-41.2	13.6	1.37e-05	0	59	0	498073600	49	4659
2026-01-30 00:52:54.88	33.89	14.93	-39.0	-41.2	13.7	1.37e-05	0	59	0	503316480	49	4667
2026-01-30 00:52:55.89	33.99	15.02	-39.0	-41.1	13.7	1.14e-05	0	59	0	509607936	49	4644
2026-01-30 00:52:56.90	34.10	15.11	-38.9	-41.0	13.9	1.25e-05	0	59	0	514850816	49	4556
2026-01-30 00:52:57.91	34.21	15.21	-38.8	-40.8	14.0	3.40e-06	0	59	0	521142272	49	4477
2026-01-30 00:52:58.92	34.32	15.30	-38.8	-40.8	14.0	1.10e-06	0	59	0	526385152	49	4483
2026-01-30 00:52:59.94	34.43	15.40	-38.7	-40.8	14.1	8.00e-06	0	59	0	532676608	49	4446
2026-01-30 00:53:00.95	34.54	15.49	-38.6	-40.6	14.3	1.10e-06	0	59	0	537919488	49	4360
2026-01-30 00:53:01.96	34.65	15.59	-38.6	-40.6	14.3	2.20e-06	0	59	0	543162368	49	4360
2026-01-30 00:53:02.97	34.76	15.68	-38.5	-40.5	14.4	1.10e-06	0	59	0	549453824	49	4319
2026-01-30 00:53:03.98	34.88	15.78	-38.6	-40.6	14.3	0.00e+00	0	59	0	554696704	49	4356
2026-01-30 00:53:04.99	34.99	15.87	-38.6	-40.6	14.3	1.10e-06	0	59	0	560988160	49	4354
2026-01-30 00:53:06.00	35.10	15.97	-38.5	-40.4	14.5	1.10e-06	0	59	0	566231040	49	4285
2026-01-30 00:53:07.01	35.22	16.06	-38.5	-40.4	14.5	2.20e-06	0	59	0	571473920	49	4280
2026-01-30 00:53:08.03	35.33	16.16	-38.6	-40.5	14.4	1.10e-06	0	59	0	577765376	48	4588
2026-01-30 00:53:09.04	35.45	16.26	-38.5	-40.4	14.5	0.00e+00	0	59	0	583008256	48	4536
2026-01-30 00:53:10.04	35.57	16.35	-38.6	-40.5	14.4	0.00e+00	0	59	0	589299712	48	4578
2026-01-30 00:53:11.05	35.68	16.45	-38.6	-40.6	14.3	4.50e-06	0	59	0	594542592	48	4616
2026-01-30 00:53:12.06	35.80	16.55	-38.6	-40.5	14.4	3.40e-06	0	59	0	599785472	48	4591
2026-01-30 00:53:13.07	35.92	16.64	-38.6	-40.5	14.4	1.10e-06	0	59	0	606076928	48	4589
2026-01-30 00:53:14.08	36.04	16.74	-38.6	-40.6	14.4	3.40e-06	0	60	0	611319808	48	4624
2026-01-30 00:53:15.09	36.16	16.84	-38.6	-40.6	14.4	1.10e-06	0	59	0	617611264	48	4614
2026-01-30 00:53:16.10	36.28	16.94	-38.7	-40.6	14.3	1.10e-06	0	59	0	622854144	48	4644
2026-01-30 00:53:17.11	36.40	17.04	-38.7	-40.6	14.3	2.20e-06	0	60	0	629145600	48	4649
2026-01-30 00:53:18.12	36.53	17.14	-38.7	-40.7	14.3	2.20e-06	0	60	0	634388480	48	4689
2026-01-30 00:53:19.14	36.65	17.24	-38.7	-40.7	14.3	3.40e-06	0	59	0	640679936	48	4685
2026-01-30 00:53:20.15	36.78	17.33	-38.6	-40.6	14.3	1.10e-06	0	60	0	645922816	48	4625
2026-01-30 00:53:21.16	36.90	17.43	-38.6	-40.5	14.4	3.40e-06	0	60	0	651165696	48	4593
2026-01-30 00:53:22.17	37.03	17.53	-38.5	-40.4	14.6	1.10e-06	0	60	0	657457152	48	4503
2026-01-30 00:53:23.18	37.15	17.63	-38.4	-40.3	14.7	4.50e-06	0	60	0	662700032	48	4467
2026-01-30 00:53:24.18	37.28	17.73	-38.5	-40.4	14.6	1.10e-06	0	60	0	668991488	48	4528
2026-01-30 00:53:25.20	37.41	17.84	-38.5	-40.4	14.6	0.00e+00	0	60	0	674234368	48	4517
2026-01-30 00:53:26.21	37.54	17.94	-38.5	-40.4	14.6	1.10e-06	0	60	0	679477248	48	4497
2026-01-30 00:53:27.22	37.67	18.04	-38.5	-40.4	14.6	0.00e+00	0	60	0	685768704	48	4501
2026-01-30 00:53:28.22	37.80	18.14	-38.4	-40.3	14.7	0.00e+00	0	59	0	691011584	48	4487
2026-01-30 00:53:29.24	37.93	18.24	-38.5	-40.4	14.6	1.10e-06	0	59	0	697303040	48	4519
2026-01-30 00:53:30.24	38.06	18.34	-38.4	-40.3	14.7	0.00e+00	0	60	0	702545920	48	4459
2026-01-30 00:53:31.25	38.20	18.45	-38.3	-40.1	14.9	0.00e+00	0	60	0	707788800	48	4379
2026-01-30 00:53:32.27	38.33	18.55	-38.3	-40.2	14.8	0.00e+00	0	60	0	714080256	48	4412
2026-01-30 00:53:33.28	38.47	18.65	-38.3	-40.2	14.9	0.00e+00	0	60	0	719323136	48	4405
2026-01-30 00:53:34.29	38.60	18.76	-38.3	-40.2	14.8	0.00e+00	0	60	0	725614592	48	4409
2026-01-30 00:53:35.30	38.74	18.86	-38.3	-40.2	14.8	0.00e+00	0	60	0	730857472	48	4409
2026-01-30 00:53:36.31	38.88	18.97	-38.3	-40.2	14.8	1.10e-06	0	60	0	737148928	48	4423
2026-01-30 00:53:37.32	39.02	19.07	-38.4	-40.3	14.8	0.00e+00	0	60	0	742391808	48	4443
2026-01-30 00:53:38.33	39.16	19.17	-38.3	-40.2	14.8	0.00e+00	0	60	0	748683264	48	4406
2026-01-30 00:53:39.34	39.30	19.28	-38.2	-40.1	15.0	0.00e+00	0	60	0	753926144	48	4360
2026-01-30 00:53:40.35	39.44	19.38	-38.1	-39.9	15.1	0.00e+00	0	60	0	759169024	48	4261
2026-01-30 00:53:41.36	39.58	19.49	-38.1	-39.9	15.2	0.00e+00	0	60	0	765460480	48	4264
2026-01-30 00:53:42.37	39.73	19.60	-38.1	-39.9	15.1	0.00e+00	0	60	0	770703360	48	4279
2026-01-30 00:53:43.38	39.87	19.70	-38.0	-39.8	15.3	0.00e+00	0	60	0	776994816	48	4203
2026-01-30 00:53:44.39	40.02	19.81	-37.9	-39.6	15.3	0.00e+00	0	60	0	782237696	47	4377
2026-01-30 00:53:45.40	40.16	19.91	-37.9	-39.6	15.3	0.00e+00	0	60	0	787480576	47	4377
2026-01-30 00:53:46.41	40.31	20.02	-37.9	-39.7	15.3	0.00e+00	0	60	0	793772032	47	4392
2026-01-30 00:53:47.42	40.46	20.13	-37.9	-39.7	15.2	0.00e+00	0	60	0	799014912	47	4437
2026-01-30 00:53:48.43	40.61	20.24	-38.0	-39.7	15.2	0.00e+00	0	60	0	805306368	47	4440
2026-01-30 00:53:49.44	40.76	20.34	-38.0	-39.7	15.2	0.00e+00	0	60	0	810549248	47	4441
2026-01-30 00:53:50.45	40.91	20.45	-38.0	-39.8	15.2	0.00e+00	0	60	0	815792128	47	4453
2026-01-30 00:53:51.46	41.06	20.56	-37.9	-39.7	15.3	0.00e+00	0	60	0	822083584	47	4431
2026-01-30 00:53:52.47	41.22	20.67	-38.0	-39.7	15.3	0.00e+00	0	60	0	827326464	47	4437
2026-01-30 00:53:53.48	41.37	20.78	-37.9	-39.7	15.3	0.00e+00	0	60	0	833617920	47	4395
2026-01-30 00:53:54.49	41.53	20.89	-37.9	-39.6	15.4	0.00e+00	0	60	0	838860800	47	4366
2026-01-30 00:53:55.50	41.68	21.00	-37.9	-39.6	15.3	0.00e+00	0	60	0	845152256	47	4391
2026-01-30 00:53:56.52	41.84	21.11	-37.9	-39.6	15.4	0.00e+00	0	60	0	850395136	47	4369
2026-01-30 00:53:57.53	42.00	21.22	-37.9	-39.6	15.4	0.00e+00	0	60	0	856686592	47	4377
2026-01-30 00:53:58.53	42.16	21.32	-37.8	-39.5	15.4	0.00e+00	0	60	0	861929472	47	4340
2026-01-30 00:53:59.54	42.32	21.44	-37.7	-39.4	15.6	0.00e+00	0	60	0	867172352	47	4291
2026-01-30 00:54:00.56	42.49	21.55	-37.6	-39.3	15.8	0.00e+00	0	60	0	873463808	47	4198
2026-01-30 00:54:01.57	42.65	21.66	-37.6	-39.2	15.8	0.00e+00	0	60	0	878706688	47	4185
2026-01-30 00:54:02.58	42.81	21.77	-37.5	-39.2	15.9	0.00e+00	0	60	0	884998144	46	4405
2026-01-30 00:54:03.59	42.98	21.88	-37.5	-39.2	15.9	0.00e+00	0	60	0	890241024	46	4398
2026-01-30 00:54:04.60	43.15	21.99	-37.5	-39.2	15.9	0.00e+00	0	60	0	895483904	46	4409
2026-01-30 00:54:05.61	43.31	22.10	-37.6	-39.3	15.8	0.00e+00	0	60	0	901775360	46	4446
2026-01-30 00:54:06.62	43.48	22.22	-37.6	-39.3	15.8	0.00e+00	0	60	0	907018240	46	4475
2026-01-30 00:54:07.63	43.65	22.33	-37.6	-39.3	15.8	0.00e+00	0	60	0	913309696	46	4484
2026-01-30 00:54:08.64	43.83	22.44	-37.6	-39.3	15.8	0.00e+00	0	60	0	918552576	46	4472
2026-01-30 00:54:09.65	44.00	22.55	-37.7	-39.4	15.7	0.00e+00	0	60	0	923795456	46	4515
2026-01-30 00:54:10.66	44.17	22.67	-37.6	-39.2	15.8	0.00e+00	0	60	0	930086912	46	4438
2026-01-30 00:54:11.67	44.35	22.78	-37.3	-39.0	16.1	0.00e+00	0	60	0	935329792	46	4299
2026-01-30 00:54:12.68	44.52	22.89	-37.3	-38.9	16.1	0.00e+00	0	60	0	941621248	46	4258
2026-01-30 00:54:13.69	44.70	23.01	-37.3	-38.9	16.2	0.00e+00	0	60	0	946864128	46	4258
2026-01-30 00:54:14.70	44.88	23.12	-37.4	-39.1	16.0	0.00e+00	0	60	0	953155584	46	4345
2026-01-30 00:54:15.71	45.06	23.24	-37.4	-39.0	16.0	0.00e+00	0	60	0	958398464	46	4338
2026-01-30 00:54:16.72	45.24	23.35	-37.4	-39.0	16.1	0.00e+00	0	60	0	964689920	46	4322
2026-01-30 00:54:17.73	45.43	23.47	-37.4	-39.0	16.1	0.00e+00	0	60	0	969932800	46	4319
2026-01-30 00:54:18.74	45.61	23.58	-37.5	-39.1	16.0	0.00e+00	0	60	0	975175680	46	4364
2026-01-30 00:54:19.75	45.80	23.70	-37.5	-39.2	15.9	0.00e+00	0	60	0	981467136	46	4394
2026-01-30 00:54:20.76	45.98	23.81	-37.5	-39.1	16.0	0.00e+00	0	60	0	986710016	46	4358
2026-01-30 00:54:21.77	46.17	23.93	-37.3	-38.9	16.2	0.00e+00	0	60	0	991952896	46	4267
2026-01-30 00:54:22.78	46.36	24.04	-37.3	-38.8	16.3	0.00e+00	0	60	0	998244352	46	4235
2026-01-30 00:54:23.79	46.55	24.16	-37.3	-38.9	16.2	0.00e+00	0	60	0	1003487232	46	4253
2026-01-30 00:54:24.80	46.75	24.28	-37.3	-38.9	16.2	0.00e+00	0	60	0	1009778688	46	4244
2026-01-30 00:54:25.81	46.94	24.39	-37.2	-38.8	16.3	0.00e+00	0	60	0	1015021568	46	4230
2026-01-30 00:54:26.82	47.14	24.51	-37.2	-38.8	16.3	0.00e+00	0	60	0	1020264448	46	4216
2026-01-30 00:54:27.83	47.33	24.62	-37.2	-38.8	16.3	0.00e+00	0	60	0	1026555904	46	4216
2026-01-30 00:54:28.84	47.53	24.74	-37.2	-38.7	16.3	0.00e+00	0	60	0	1031798784	46	4183
2026-01-30 00:54:29.85	47.73	24.86	-37.1	-38.7	16.3	0.00e+00	0	60	0	1038090240	46	4174
2026-01-30 00:54:30.86	47.93	24.98	-37.1	-38.6	16.4	0.00e+00	0	60	0	1043333120	46	4137
2026-01-30 00:54:31.87	48.13	25.09	-37.0	-38.5	16.5	0.00e+00	0	60	0	1049624576	46	4098
2026-01-30 00:54:32.88	48.34	25.21	-37.0	-38.5	16.6	0.00e+00	0	60	0	1054867456	46	4083
2026-01-30 00:54:33.89	48.54	25.33	-37.0	-38.5	16.5	0.00e+00	0	60	0	1061158912	46	4095
2026-01-30 00:54:34.90	48.75	25.45	-37.1	-38.6	16.4	0.00e+00	0	60	0	1066401792	46	4137
2026-01-30 00:54:35.91	48.96	25.56	-37.1	-38.7	16.4	0.00e+00	0	60	0	1071644672	46	4157
2026-01-30 00:54:36.92	49.17	25.68	-37.0	-38.5	16.5	0.00e+00	0	60	0	1077936128	46	4097
2026-01-30 00:54:37.93	49.38	25.80	-36.9	-38.5	16.6	0.00e+00	0	60	0	1083179008	45	4309
2026-01-30 00:54:38.94	49.59	25.92	-36.9	-38.4	16.6	0.00e+00	0	60	0	1089470464	45	4286
2026-01-30 00:54:39.95	49.81	26.04	-36.9	-38.4	16.7	0.00e+00	0	60	0	1094713344	45	4279
2026-01-30 00:54:40.96	50.03	26.16	-37.0	-38.5	16.6	0.00e+00	0	60	0	1099956224	45	4315
2026-01-30 00:54:41.97	50.24	26.28	-37.1	-38.6	16.5	0.00e+00	0	60	0	1106247680	45	4375
2026-01-30 00:54:42.98	50.46	26.39	-37.1	-38.7	16.4	0.00e+00	0	60	0	1111490560	45	4424
2026-01-30 00:54:43.99	50.68	26.51	-37.1	-38.7	16.4	0.00e+00	0	60	0	1117782016	45	4423
2026-01-30 00:54:45.00	50.91	26.63	-37.1	-38.6	16.5	0.00e+00	0	61	0	1123024896	45	4376
2026-01-30 00:54:46.01	51.13	26.75	-37.0	-38.6	16.5	0.00e+00	0	60	0	1128267776	45	4343
2026-01-30 00:54:47.02	51.36	26.87	-36.8	-38.4	16.5	0.00e+00	0	60	0	1134559232	45	4277
2026-01-30 00:54:48.03	51.59	26.99	-36.8	-38.5	16.4	0.00e+00	0	60	0	1139802112	45	4305
2026-01-30 00:54:49.04	51.81	27.11	-36.8	-38.5	16.4	0.00e+00	0	61	0	1146093568	45	4333
2026-01-30 00:54:50.04	52.04	27.23	-36.9	-38.7	16.3	0.00e+00	0	60	0	1151336448	45	4392
2026-01-30 00:54:51.06	52.28	27.35	-36.9	-38.6	16.3	0.00e+00	0	60	0	1157627904	45	4375
2026-01-30 00:54:52.07	52.51	27.47	-36.8	-38.4	16.5	0.00e+00	0	60	0	1162870784	45	4266
2026-01-30 00:54:53.08	52.75	27.59	-36.7	-38.4	16.5	0.00e+00	0	60	0	1169162240	45	4257
2026-01-30 00:54:54.09	52.99	27.71	-36.8	-38.5	16.4	0.00e+00	0	61	0	1174405120	45	4304
2026-01-30 00:54:55.10	53.23	27.83	-36.7	-38.3	16.6	0.00e+00	0	60	0	1179648000	45	4232
2026-01-30 00:54:56.11	53.47	27.94	-36.7	-38.3	16.6	0.00e+00	0	60	0	1185939456	45	4220
2026-01-30 00:54:57.12	53.71	28.06	-36.6	-38.2	16.7	0.00e+00	0	60	0	1191182336	45	4161
2026-01-30 00:54:58.13	53.96	28.18	-36.6	-38.2	16.7	0.00e+00	0	61	0	1197473792	45	4146
2026-01-30 00:54:59.14	54.20	28.30	-36.6	-38.2	16.7	0.00e+00	0	60	0	1202716672	45	4168
2026-01-30 00:55:00.15	54.45	28.42	-36.6	-38.3	16.6	0.00e+00	0	60	0	1207959552	45	4194
2026-01-30 00:55:01.16	54.70	28.54	-36.7	-38.4	16.5	0.00e+00	0	60	0	1214251008	45	4258
2026-01-30 00:55:02.17	54.96	28.66	-36.6	-38.3	16.7	0.00e+00	0	60	0	1219493888	45	4197
2026-01-30 00:55:03.18	55.21	28.78	-36.5	-38.1	16.8	0.00e+00	0	60	0	1225785344	45	4100
2026-01-30 00:55:04.19	55.47	28.90	-36.4	-37.9	17.0	0.00e+00	0	60	0	1231028224	44	4271
2026-01-30 00:55:05.20	55.72	29.02	-36.3	-37.8	17.1	0.00e+00	0	61	0	1236271104	44	4233
2026-01-30 00:55:06.21	55.98	29.14	-36.3	-37.8	17.2	0.00e+00	0	60	0	1242562560	44	4199
2026-01-30 00:55:07.22	56.25	29.25	-36.4	-37.9	17.0	0.00e+00	0	60	0	1247805440	44	4262
2026-01-30 00:55:08.22	56.51	29.37	-36.5	-38.1	16.9	0.00e+00	0	60	0	1254096896	44	4359
2026-01-30 00:55:09.24	56.78	29.49	-36.6	-38.1	16.8	0.00e+00	0	60	0	1259339776	44	4389
2026-01-30 00:55:10.25	57.04	29.61	-36.5	-38.1	16.8	0.00e+00	0	61	0	1265631232	44	4372
2026-01-30 00:55:11.26	57.31	29.73	-36.5	-38.0	16.9	0.00e+00	0	60	0	1270874112	44	4327
2026-01-30 00:55:12.27	57.58	29.85	-36.5	-38.0	16.9	0.00e+00	0	61	0	1277165568	44	4324
2026-01-30 00:55:13.28	57.86	29.96	-36.5	-38.1	16.9	0.00e+00	0	60	0	1282408448	44	4347
2026-01-30 00:55:14.29	58.13	30.08	-36.5	-38.1	16.8	0.00e+00	0	60	0	1287651328	44	4356
2026-01-30 00:55:15.30	58.41	30.20	-36.6	-38.2	16.8	0.00e+00	0	60	0	1293942784	44	4392
2026-01-30 00:55:16.31	58.69	30.31	-36.5	-38.1	16.9	0.00e+00	0	60	0	1299185664	44	4369
2026-01-30 00:55:17.33	58.97	30.43	-36.4	-38.0	16.9	0.00e+00	0	60	0	1305477120	44	4319
2026-01-30 00:55:18.34	59.26	30.55	-36.3	-37.9	17.1	0.00e+00	0	60	0	1310720000	44	4251
2026-01-30 00:55:19.35	59.54	30.66	-36.4	-37.9	17.1	0.00e+00	0	61	0	1315962880	44	4262
2026-01-30 00:55:20.36	59.83	30.78	-36.3	-37.8	17.1	0.00e+00	0	60	0	1322254336	44	4240
2026-01-30 00:55:21.37	60.12	30.90	-36.4	-37.9	17.0	0.00e+00	0	60	0	1327497216	44	4289
2026-01-30 00:55:22.38	60.41	31.01	-36.5	-38.1	16.9	0.00e+00	0	60	0	1333788672	44	4369
2026-01-30 00:55:23.39	60.70	31.13	-36.6	-38.2	16.7	0.00e+00	0	61	0	1339031552	44	4427
2026-01-30 00:55:24.40	61.00	31.24	-36.6	-38.2	16.7	0.00e+00	0	61	0	1344274432	44	4415
2026-01-30 00:55:25.41	61.30	31.35	-36.6	-38.2	16.8	0.00e+00	0	61	0	1350565888	44	4405
2026-01-30 00:55:26.42	61.60	31.47	-36.6	-38.3	16.7	0.00e+00	0	61	0	1355808768	44	4452
2026-01-30 00:55:27.43	61.90	31.58	-36.6	-38.2	16.7	0.00e+00	0	60	0	1362100224	44	4426
2026-01-30 00:55:28.44	62.20	31.69	-36.5	-38.1	16.8	0.00e+00	0	61	0	1367343104	44	4373
2026-01-30 00:55:29.45	62.51	31.81	-36.5	-38.1	16.9	0.00e+00	0	61	0	1373634560	44	4352
2026-01-30 00:55:30.47	62.82	31.92	-36.6	-38.2	16.8	0.00e+00	0	61	0	1378877440	44	4404
2026-01-30 00:55:31.47	63.13	32.03	-36.6	-38.1	16.8	0.00e+00	0	61	0	1385168896	44	4383
2026-01-30 00:55:32.48	63.44	32.14	-36.7	-38.3	16.7	0.00e+00	0	60	0	1390411776	44	4457
2026-01-30 00:55:33.49	63.75	32.25	-36.7	-38.3	16.7	0.00e+00	0	61	0	1395654656	44	4467
2026-01-30 00:55:34.51	64.07	32.36	-36.6	-38.2	16.8	0.00e+00	0	60	0	1401946112	44	4404
2026-01-30 00:55:35.52	64.39	32.47	-36.6	-38.1	16.9	0.00e+00	0	61	0	1407188992	44	4389
2026-01-30 00:55:36.53	64.71	32.58	-36.7	-38.3	16.7	0.00e+00	0	60	0	1413480448	44	4489
2026-01-30 00:55:37.54	65.04	32.69	-36.7	-38.4	16.7	0.00e+00	0	61	0	1418723328	44	4498
2026-01-30 00:55:38.55	65.36	32.80	-36.7	-38.3	16.7	0.00e+00	0	61	0	1423966208	44	4470
2026-01-30 00:55:39.56	65.69	32.90	-36.6	-38.2	16.9	0.00e+00	0	61	0	1430257664	44	4396
2026-01-30 00:55:40.57	66.02	33.01	-36.4	-38.0	17.1	0.00e+00	0	61	0	1435500544	44	4298
2026-01-30 00:55:41.58	66.35	33.12	-36.4	-37.9	17.1	0.00e+00	0	60	0	1441792000	44	4251
2026-01-30 00:55:42.59	66.68	33.22	-36.3	-37.9	17.2	0.00e+00	0	61	0	1447034880	44	4245
2026-01-30 00:55:43.60	67.02	33.33	-36.3	-37.8	17.2	0.00e+00	0	61	0	1452277760	44	4222
2026-01-30 00:55:44.61	67.35	33.43	-36.3	-37.9	17.1	0.00e+00	0	61	0	1458569216	44	4256
2026-01-30 00:55:45.62	67.69	33.53	-36.5	-38.1	16.9	0.00e+00	0	60	0	1463812096	44	4355
2026-01-30 00:55:46.63	68.04	33.63	-36.5	-38.0	17.0	0.00e+00	0	61	0	1470103552	44	4337
2026-01-30 00:55:47.64	68.38	33.74	-36.3	-37.9	17.2	0.00e+00	0	61	0	1475346432	44	4244
2026-01-30 00:55:48.65	68.73	33.84	-36.1	-37.7	17.4	0.00e+00	0	61	0	1481637888	44	4148
2026-01-30 00:55:49.66	69.08	33.94	-36.1	-37.6	17.4	0.00e+00	0	61	0	1486880768	44	4124
2026-01-30 00:55:50.67	69.43	34.03	-36.3	-37.8	17.2	0.00e+00	0	61	0	1493172224	44	4222
2026-01-30 00:55:51.68	69.78	34.13	-36.4	-38.0	17.1	0.00e+00	0	61	0	1498415104	44	4300
2026-01-30 00:55:52.69	70.13	34.23	-36.4	-38.0	17.0	0.00e+00	0	61	0	1503657984	44	4306
2026-01-30 00:55:53.70	70.49	34.33	-36.3	-37.8	17.2	0.00e+00	0	60	0	1509949440	44	4242
2026-01-30 00:55:54.71	70.85	34.42	-36.2	-37.7	17.3	0.00e+00	0	61	0	1515192320	44	4185
2026-01-30 00:55:55.71	71.21	34.51	-36.2	-37.7	17.3	0.00e+00	0	60	0	1520435200	44	4176
2026-01-30 00:55:56.73	71.57	34.61	-36.2	-37.7	17.4	0.00e+00	0	61	0	1526726656	44	4166
2026-01-30 00:55:57.74	71.94	34.70	-36.2	-37.7	17.3	0.00e+00	0	61	0	1531969536	44	4169
2026-01-30 00:55:58.75	72.31	34.79	-36.3	-37.8	17.3	0.00e+00	0	61	0	1538260992	44	4201
2026-01-30 00:55:59.76	72.67	34.88	-36.3	-37.8	17.3	0.00e+00	0	61	0	1543503872	44	4199
2026-01-30 00:56:00.77	73.05	34.97	-36.4	-37.9	17.1	0.00e+00	0	61	0	1548746752	44	4287
2026-01-30 00:56:01.78	73.42	35.06	-36.5	-38.1	17.0	0.00e+00	0	61	0	1555038208	44	4356
2026-01-30 00:56:02.79	73.79	35.15	-36.5	-38.0	17.1	0.00e+00	0	61	0	1560281088	44	4324
2026-01-30 00:56:03.80	74.17	35.23	-36.4	-37.9	17.1	0.00e+00	0	61	0	1566572544	44	4290
2026-01-30 00:56:04.81	74.55	35.32	-36.4	-37.9	17.1	0.00e+00	0	61	0	1571815424	44	4290
2026-01-30 00:56:05.82	74.93	35.40	-36.3	-37.8	17.3	0.00e+00	0	61	0	1578106880	44	4196
2026-01-30 00:56:06.83	75.31	35.48	-36.2	-37.7	17.4	0.00e+00	0	61	0	1583349760	44	4181
2026-01-30 00:56:07.84	75.70	35.57	-36.2	-37.7	17.4	0.00e+00	0	61	0	1589641216	44	4179
2026-01-30 00:56:08.85	76.09	35.65	-36.4	-37.9	17.2	0.00e+00	0	61	0	1594884096	44	4271
2026-01-30 00:56:09.86	76.48	35.73	-36.4	-37.9	17.2	0.00e+00	0	61	0	1600126976	44	4258
2026-01-30 00:56:10.88	76.87	35.80	-36.1	-37.6	17.5	0.00e+00	0	61	0	1606418432	44	4121
2026-01-30 00:56:11.89	77.26	35.88	-36.1	-37.5	17.6	0.00e+00	0	61	0	1611661312	44	4084
2026-01-30 00:56:12.90	77.66	35.96	-35.7	-37.1	17.8	0.00e+00	0	61	0	1617952768	43	4139
2026-01-30 00:56:13.91	78.05	36.03	-35.9	-37.3	17.6	0.00e+00	0	61	0	1623195648	43	4221
2026-01-30 00:56:14.92	78.45	36.10	-36.0	-37.5	17.5	0.00e+00	0	61	0	1628438528	43	4299
2026-01-30 00:56:15.93	78.85	36.17	-36.1	-37.6	17.3	0.00e+00	0	61	0	1634729984	43	4361
2026-01-30 00:56:16.94	79.25	36.24	-36.1	-37.7	17.3	0.00e+00	0	61	0	1639972864	43	4399
2026-01-30 00:56:17.94	79.65	36.31	-36.0	-37.5	17.3	0.00e+00	0	61	0	1646264320	43	4333
2026-01-30 00:56:18.96	80.06	36.38	-35.9	-37.4	17.5	0.00e+00	0	61	0	1651507200	43	4265
2026-01-30 00:56:19.97	80.47	36.44	-35.9	-37.3	17.6	0.00e+00	0	61	0	1656750080	43	4242
2026-01-30 00:56:20.98	80.87	36.51	-35.8	-37.3	17.6	0.00e+00	0	61	0	1663041536	43	4218
2026-01-30 00:56:21.99	81.28	36.57	-35.9	-37.4	17.5	0.00e+00	0	61	0	1668284416	43	4266
2026-01-30 00:56:23.00	81.69	36.63	-36.1	-37.6	17.4	0.00e+00	0	61	0	1674575872	43	4353
2026-01-30 00:56:24.01	82.11	36.69	-36.2	-37.7	17.2	0.00e+00	0	61	0	1679818752	43	4412
2026-01-30 00:56:25.02	82.52	36.75	-36.2	-37.8	17.2	0.00e+00	0	61	0	1686110208	43	4442
2026-01-30 00:56:26.03	82.94	36.80	-36.0	-37.5	17.4	0.00e+00	0	61	0	1691353088	43	4308
2026-01-30 00:56:27.04	83.35	36.86	-35.9	-37.3	17.6	0.00e+00	0	61	0	1697644544	43	4230
2026-01-30 00:56:28.05	83.77	36.91	-35.8	-37.2	17.7	0.00e+00	0	61	0	1702887424	43	4186
2026-01-30 00:56:29.06	84.19	36.96	-35.7	-37.2	17.8	0.00e+00	0	61	0	1708130304	43	4151
2026-01-30 00:56:30.07	84.61	37.01	-35.6	-37.0	17.9	0.00e+00	0	61	0	1714421760	43	4086
2026-01-30 00:56:31.08	85.03	37.06	-35.7	-37.1	17.8	0.00e+00	0	61	0	1719664640	43	4118
2026-01-30 00:56:32.09	85.46	37.11	-35.9	-37.3	17.6	0.00e+00	0	61	0	1725956096	43	4241
2026-01-30 00:56:33.10	85.88	37.15	-35.9	-37.4	17.5	0.00e+00	0	61	0	1731198976	43	4265
2026-01-30 00:56:34.11	86.31	37.20	-35.9	-37.3	17.6	0.00e+00	0	61	0	1736441856	43	4219
2026-01-30 00:56:35.12	86.73	37.24	-35.8	-37.2	17.7	0.00e+00	0	61	0	1742733312	43	4190
2026-01-30 00:56:36.13	87.16	37.28	-35.8	-37.3	17.7	0.00e+00	0	61	0	1747976192	43	4202
2026-01-30 00:56:37.14	87.59	37.32	-36.0	-37.4	17.5	0.00e+00	0	61	0	1754267648	43	4291
2026-01-30 00:56:38.15	88.02	37.35	-36.0	-37.5	17.4	0.00e+00	0	61	0	1759510528	43	4326
2026-01-30 00:56:39.16	88.45	37.39	-36.1	-37.6	17.4	0.00e+00	0	61	0	1764753408	43	4350
2026-01-30 00:56:40.17	88.88	37.42	-35.9	-37.4	17.5	0.00e+00	0	61	0	1771044864	43	4270
2026-01-30 00:56:41.18	89.32	37.45	-35.9	-37.3	17.6	0.00e+00	0	61	0	1776287744	43	4236
2026-01-30 00:56:42.19	89.75	37.48	-35.8	-37.3	17.6	0.00e+00	0	61	0	1782579200	43	4220
2026-01-30 00:56:43.20	90.18	37.51	-35.9	-37.3	17.6	0.00e+00	0	61	0	1787822080	43	4233
2026-01-30 00:56:44.21	90.62	37.54	-35.8	-37.3	17.6	0.00e+00	0	61	0	1794113536	43	4222
2026-01-30 00:56:45.22	91.05	37.56	-35.8	-37.3	17.6	0.00e+00	0	61	0	1799356416	43	4199
2026-01-30 00:56:46.23	91.49	37.58	-35.8	-37.3	17.6	0.00e+00	0	61	0	1805647872	43	4198
2026-01-30 00:56:47.24	91.93	37.60	-35.8	-37.3	17.7	0.00e+00	0	61	0	1810890752	43	4202
2026-01-30 00:56:48.25	92.36	37.62	-35.8	-37.2	17.7	0.00e+00	0	61	0	1816133632	43	4177
2026-01-30 00:56:49.26	92.80	37.64	-35.7	-37.2	17.7	0.00e+00	0	61	0	1822425088	43	4155
2026-01-30 00:56:50.27	93.24	37.65	-35.8	-37.3	17.6	0.00e+00	0	61	0	1827667968	43	4210
2026-01-30 00:56:51.28	93.68	37.67	-36.0	-37.4	17.5	0.00e+00	0	61	0	1833959424	43	4281
2026-01-30 00:56:52.29	94.12	37.68	-36.0	-37.5	17.5	0.00e+00	0	61	0	1839202304	43	4292
2026-01-30 00:56:53.30	94.56	37.69	-36.1	-37.6	17.4	0.00e+00	0	61	0	1844445184	43	4342
2026-01-30 00:56:54.31	95.00	37.69	-36.0	-37.5	17.5	0.00e+00	0	61	0	1850736640	43	4307
2026-01-30 00:56:55.32	95.44	37.70	-36.1	-37.6	17.3	0.00e+00	0	61	0	1855979520	43	4363
2026-01-30 00:56:56.33	95.88	37.70	-36.1	-37.6	17.3	0.00e+00	0	61	0	1862270976	43	4388
2026-01-30 00:56:57.34	96.32	37.71	-36.2	-37.8	17.1	0.00e+00	0	61	0	1867513856	43	4459
2026-01-30 00:56:58.35	96.76	37.71	-36.2	-37.7	17.2	0.00e+00	0	61	0	1872756736	43	4423
2026-01-30 00:56:59.36	97.20	37.70	-36.0	-37.5	17.4	0.00e+00	0	61	0	1879048192	43	4332
2026-01-30 00:57:00.37	97.64	37.70	-35.9	-37.4	17.5	0.00e+00	0	61	0	1884291072	43	4274
2026-01-30 00:57:01.38	98.07	37.70	-35.9	-37.4	17.6	0.00e+00	0	61	0	1890582528	43	4253
2026-01-30 00:57:02.39	98.51	37.69	-35.9	-37.3	17.6	0.00e+00	0	61	0	1895825408	43	4241
2026-01-30 00:57:03.40	98.95	37.68	-35.9	-37.3	17.6	0.00e+00	0	61	0	1902116864	43	4224
2026-01-30 00:57:04.41	99.39	37.67	-35.9	-37.3	17.6	0.00e+00	0	61	0	1907359744	43	4229
2026-01-30 00:57:05.42	99.83	37.66	-35.9	-37.4	17.6	0.00e+00	0	61	0	1913651200	43	4258
2026-01-30 00:57:06.43	100.27	37.64	-35.8	-37.2	17.7	0.00e+00	0	61	0	1918894080	43	4183
2026-01-30 00:57:07.44	100.71	37.62	-36.0	-37.5	17.5	0.00e+00	0	61	0	1924136960	43	4312
2026-01-30 00:57:08.45	101.15	37.61	-36.0	-37.5	17.5	0.00e+00	0	61	0	1930428416	43	4310
2026-01-30 00:57:09.46	101.58	37.59	-36.0	-37.4	17.5	0.00e+00	0	61	0	1935671296	43	4285
2026-01-30 00:57:10.47	102.02	37.56	-35.9	-37.4	17.5	0.00e+00	0	61	0	1941962752	43	4260
2026-01-30 00:57:11.49	102.46	37.54	-36.0	-37.5	17.5	0.00e+00	0	61	0	1947205632	43	4310
2026-01-30 00:57:12.50	102.90	37.51	-36.0	-37.5	17.4	0.00e+00	0	61	0	1952448512	43	4338
2026-01-30 00:57:13.51	103.33	37.49	-35.9	-37.4	17.5	0.00e+00	0	61	0	1958739968	43	4269
2026-01-30 00:57:14.52	103.76	37.46	-35.8	-37.3	17.7	0.00e+00	0	61	0	1963982848	43	4200
2026-01-30 00:57:15.53	104.20	37.43	-35.8	-37.2	17.7	0.00e+00	0	61	0	1970274304	43	4163
2026-01-30 00:57:16.54	104.63	37.39	-35.8	-37.3	17.6	0.00e+00	0	61	0	1975517184	43	4208
2026-01-30 00:57:17.55	105.06	37.36	-35.9	-37.4	17.6	0.00e+00	0	61	0	1980760064	43	4252
2026-01-30 00:57:18.56	105.49	37.32	-35.9	-37.4	17.6	0.00e+00	0	61	0	1987051520	43	4259
2026-01-30 00:57:19.57	105.92	37.28	-36.0	-37.5	17.5	0.00e+00	0	61	0	1992294400	43	4303
2026-01-30 00:57:20.58	106.35	37.24	-36.0	-37.5	17.5	0.00e+00	0	61	0	1998585856	43	4306
2026-01-30 00:57:21.59	106.78	37.20	-35.9	-37.4	17.6	0.00e+00	0	61	0	2003828736	43	4266
2026-01-30 00:57:22.60	107.20	37.16	-35.9	-37.4	17.6	0.00e+00	0	61	0	2010120192	43	4255
2026-01-30 00:57:23.61	107.63	37.11	-36.0	-37.4	17.5	0.00e+00	0	61	0	2015363072	43	4289
2026-01-30 00:57:24.62	108.05	37.07	-35.9	-37.4	17.5	0.00e+00	0	61	0	2021654528	43	4271
2026-01-30 00:57:25.64	108.48	37.02	-36.0	-37.4	17.5	0.00e+00	0	61	0	2026897408	43	4291
2026-01-30 00:57:26.65	108.90	36.97	-36.0	-37.5	17.4	0.00e+00	0	61	0	2032140288	43	4331
2026-01-30 00:57:27.66	109.32	36.92	-36.0	-37.5	17.4	0.00e+00	0	61	0	2038431744	43	4333
2026-01-30 00:57:28.67	109.74	36.87	-36.1	-37.6	17.3	0.00e+00	0	61	0	2043674624	43	4363
2026-01-30 00:57:29.68	110.16	36.81	-36.2	-37.7	17.2	0.00e+00	0	61	0	2049966080	43	4419
2026-01-30 00:57:30.69	110.58	36.75	-36.2	-37.7	17.2	0.00e+00	0	61	0	2055208960	43	4420
2026-01-30 00:57:31.70	110.99	36.70	-36.1	-37.6	17.3	0.00e+00	0	61	0	2060451840	43	4363
2026-01-30 00:57:32.71	111.40	36.64	-36.0	-37.5	17.4	0.00e+00	0	61	0	2066743296	43	4308
2026-01-30 00:57:33.72	111.82	36.58	-36.0	-37.5	17.4	0.00e+00	0	61	0	2071986176	43	4334
2026-01-30 00:57:34.73	112.23	36.51	-36.0	-37.5	17.4	0.00e+00	0	61	0	2078277632	43	4326
2026-01-30 00:57:35.74	112.63	36.45	-36.1	-37.6	17.3	0.00e+00	0	61	0	2083520512	43	4381
2026-01-30 00:57:36.75	113.04	36.38	-36.1	-37.6	17.3	0.00e+00	0	61	0	2088763392	43	4366
2026-01-30 00:57:37.76	113.45	36.32	-36.1	-37.6	17.4	0.00e+00	0	61	0	2095054848	43	4359
2026-01-30 00:57:38.78	113.86	36.25	-36.0	-37.5	17.4	0.00e+00	0	61	0	2100297728	43	4324
2026-01-30 00:57:39.79	114.26	36.18	-36.0	-37.5	17.5	0.00e+00	0	61	0	2106589184	43	4300
2026-01-30 00:57:40.80	114.66	36.11	-35.9	-37.4	17.5	0.00e+00	0	61	0	2111832064	43	4265
2026-01-30 00:57:41.81	115.06	36.04	-35.9	-37.3	17.6	0.00e+00	0	61	0	2118123520	43	4235
2026-01-30 00:57:42.82	115.45	35.96	-36.0	-37.4	17.5	0.00e+00	0	61	0	2123366400	43	4287
2026-01-30 00:57:43.83	115.85	35.89	-36.1	-37.6	17.4	0.00e+00	0	61	0	2129657856	43	4351
2026-01-30 00:57:44.84	116.24	35.81	-36.1	-37.6	17.4	0.00e+00	0	61	0	2134900736	43	4350
2026-01-30 00:57:45.85	116.64	35.73	-36.1	-37.6	17.4	0.00e+00	0	61	0	2140143616	43	4357
2026-01-30 00:57:46.87	117.03	35.65	-36.0	-37.5	17.4	0.00e+00	0	61	0	2146435072	43	4332
2026-01-30 00:57:47.88	117.42	35.57	-36.1	-37.6	17.3	0.00e+00	0	61	0	2151677952	43	4341
2026-01-30 00:57:48.89	117.80	35.49	-36.1	-37.6	17.3	0.00e+00	0	61	0	2157969408	43	4391
2026-01-30 00:57:49.89	118.18	35.41	-36.2	-37.7	17.2	0.00e+00	0	61	0	2163212288	43	4435
2026-01-30 00:57:50.91	118.57	35.32	-36.2	-37.7	17.2	0.00e+00	0	61	0	2168455168	43	4405
2026-01-30 00:57:51.91	118.95	35.24	-36.1	-37.6	17.3	0.00e+00	0	61	0	2174746624	43	4374
2026-01-30 00:57:52.93	119.33	35.15	-36.1	-37.6	17.3	0.00e+00	0	61	0	2179989504	43	4376
2026-01-30 00:57:53.94	119.71	35.06	-36.1	-37.6	17.3	0.00e+00	0	61	0	2186280960	43	4379
2026-01-30 00:57:54.95	120.08	34.98	-36.1	-37.6	17.3	0.00e+00	0	61	0	2191523840	43	4355
2026-01-30 00:57:55.96	120.45	34.89	-36.0	-37.5	17.4	0.00e+00	0	61	0	2196766720	43	4326
2026-01-30 00:57:56.97	120.82	34.80	-36.1	-37.6	17.4	0.00e+00	0	61	0	2203058176	43	4343
2026-01-30 00:57:57.98	121.19	34.70	-36.1	-37.7	17.2	0.00e+00	0	61	0	2208301056	43	4409
2026-01-30 00:57:58.99	121.56	34.61	-36.3	-37.9	17.0	0.00e+00	0	61	0	2214592512	43	4498
2026-01-30 00:58:00.00	121.92	34.52	-36.4	-37.9	17.0	0.00e+00	0	61	0	2219835392	43	4533
2026-01-30 00:58:01.01	122.28	34.42	-36.3	-37.8	17.1	0.00e+00	0	61	0	2226126848	43	4473
2026-01-30 00:58:02.02	122.64	34.33	-36.2	-37.7	17.2	0.00e+00	0	61	0	2231369728	43	4412
2026-01-30 00:58:03.03	123.00	34.23	-36.1	-37.6	17.3	0.00e+00	0	61	0	2236612608	43	4361
2026-01-30 00:58:04.04	123.36	34.13	-36.2	-37.6	17.3	0.00e+00	0	61	0	2242904064	43	4388
2026-01-30 00:58:05.05	123.71	34.04	-36.2	-37.7	17.2	0.00e+00	0	61	0	2248146944	43	4417
2026-01-30 00:58:06.06	124.06	33.94	-36.3	-37.8	17.1	0.00e+00	0	61	0	2254438400	43	4472
2026-01-30 00:58:07.07	124.41	33.84	-36.4	-38.0	17.0	0.00e+00	0	61	0	2259681280	43	4549
2026-01-30 00:58:08.08	124.76	33.73	-36.5	-38.0	16.9	0.00e+00	0	61	0	2265972736	43	4592
2026-01-30 00:58:09.09	125.11	33.63	-36.4	-38.0	17.0	0.00e+00	0	61	0	2271215616	43	4548
2026-01-30 00:58:10.10	125.45	33.53	-36.3	-37.9	17.1	0.00e+00	0	61	0	2276458496	43	4495
2026-01-30 00:58:11.11	125.79	33.43	-36.2	-37.8	17.2	0.00e+00	0	61	0	2282749952	43	4443
2026-01-30 00:58:12.12	126.13	33.32	-36.2	-37.7	17.2	0.00e+00	0	61	0	2287992832	43	4421
2026-01-30 00:58:13.13	126.47	33.22	-36.2	-37.8	17.1	0.00e+00	0	61	0	2294284288	43	4450
2026-01-30 00:58:14.14	126.80	33.11	-36.3	-37.9	17.0	0.00e+00	0	61	0	2299527168	43	4494
2026-01-30 00:58:15.15	127.13	33.01	-36.3	-37.9	17.0	0.00e+00	0	61	0	2304770048	43	4514
2026-01-30 00:58:16.16	127.46	32.90	-36.3	-37.9	17.0	0.00e+00	0	61	0	2311061504	43	4525
2026-01-30 00:58:17.17	127.79	32.79	-36.4	-37.9	17.0	0.00e+00	0	61	0	2316304384	43	4534
2026-01-30 00:58:18.18	128.12	32.68	-36.4	-38.0	16.9	0.00e+00	0	61	0	2322595840	43	4570
2026-01-30 00:58:19.19	128.44	32.58	-36.4	-38.0	16.9	0.00e+00	0	61	0	2327838720	43	4556
2026-01-30 00:58:20.21	128.77	32.46	-36.4	-38.0	16.9	0.00e+00	0	61	0	2333081600	43	4580
2026-01-30 00:58:21.21	129.09	32.36	-36.5	-38.1	16.8	0.00e+00	0	61	0	2339373056	43	4609
2026-01-30 00:58:22.22	129.40	32.25	-36.6	-38.2	16.7	0.00e+00	0	61	0	2344615936	43	4670
2026-01-30 00:58:23.23	129.72	32.13	-36.7	-38.3	16.6	0.00e+00	0	61	0	2350907392	43	4735
2026-01-30 00:58:24.25	130.03	32.02	-36.6	-38.2	16.7	0.00e+00	0	61	0	2356150272	43	4654
2026-01-30 00:58:25.26	130.35	31.91	-36.5	-38.1	16.8	0.00e+00	0	61	0	2362441728	43	4614
2026-01-30 00:58:26.27	130.66	31.80	-36.4	-38.0	16.9	0.00e+00	0	61	0	2367684608	43	4579
2026-01-30 00:58:27.28	130.96	31.68	-36.4	-38.0	16.9	0.00e+00	0	61	0	2373976064	43	4568
2026-01-30 00:58:28.29	131.27	31.57	-36.5	-38.1	16.8	0.00e+00	0	61	0	2379218944	43	4601
2026-01-30 00:58:29.30	131.57	31.46	-36.4	-38.0	16.9	0.00e+00	0	61	0	2384461824	43	4578
2026-01-30 00:58:30.31	131.87	31.34	-36.5	-38.1	16.8	0.00e+00	0	61	0	2390753280	43	4607
2026-01-30 00:58:31.32	132.17	31.23	-36.5	-38.1	16.8	0.00e+00	0	61	0	2395996160	43	4627
2026-01-30 00:58:32.33	132.47	31.11	-36.5	-38.1	16.8	0.00e+00	0	61	0	2402287616	43	4614
2026-01-30 00:58:33.34	132.76	31.00	-36.5	-38.1	16.8	0.00e+00	0	61	0	2407530496	43	4627
2026-01-30 00:58:34.35	133.05	30.88	-36.6	-38.2	16.7	0.00e+00	0	61	0	2412773376	43	4689
2026-01-30 00:58:35.36	133.34	30.77	-36.7	-38.3	16.6	0.00e+00	0	61	0	2419064832	43	4726
2026-01-30 00:58:36.37	133.63	30.65	-36.7	-38.3	16.6	0.00e+00	0	61	0	2424307712	43	4750
2026-01-30 00:58:37.38	133.92	30.53	-36.7	-38.3	16.6	0.00e+00	0	61	0	2430599168	43	4720
2026-01-30 00:58:38.39	134.20	30.41	-36.6	-38.2	16.7	0.00e+00	0	61	0	2435842048	43	4676
2026-01-30 00:58:39.40	134.49	30.30	-36.5	-38.0	16.8	0.00e+00	0	61	0	2441084928	43	4592
2026-01-30 00:58:40.41	134.77	30.18	-36.4	-38.0	16.9	0.00e+00	0	61	0	2447376384	43	4573
2026-01-30 00:58:41.42	135.05	30.06	-36.5	-38.1	16.8	0.00e+00	0	61	0	2452619264	43	4624
2026-01-30 00:58:42.43	135.32	29.94	-36.5	-38.1	16.8	0.00e+00	0	61	0	2458910720	43	4644
2026-01-30 00:58:43.44	135.60	29.83	-36.6	-38.2	16.7	0.00e+00	0	61	0	2464153600	43	4683
2026-01-30 00:58:44.45	135.87	29.71	-36.7	-38.3	16.6	0.00e+00	0	61	0	2470445056	43	4742
2026-01-30 00:58:45.46	136.14	29.59	-36.9	-38.5	16.6	0.00e+00	0	61	0	2475687936	44	4588
2026-01-30 00:58:46.47	136.41	29.47	-36.9	-38.5	16.6	0.00e+00	0	61	0	2481979392	44	4596
2026-01-30 00:58:47.48	136.67	29.35	-36.8	-38.4	16.7	0.00e+00	0	61	0	2487222272	44	4506
2026-01-30 00:58:48.49	136.94	29.23	-36.7	-38.3	16.6	0.00e+00	0	61	0	2492465152	44	4485
2026-01-30 00:58:49.51	137.20	29.11	-36.8	-38.3	16.7	0.00e+00	0	61	0	2498756608	44	4489
2026-01-30 00:58:50.52	137.47	28.99	-36.8	-38.4	16.5	0.00e+00	0	61	0	2503999488	44	4544
2026-01-30 00:58:51.53	137.72	28.87	-37.0	-38.6	16.4	0.00e+00	0	61	0	2510290944	44	4648
2026-01-30 00:58:52.54	137.98	28.75	-37.1	-38.8	16.2	0.00e+00	0	61	0	2515533824	44	4733
2026-01-30 00:58:53.55	138.24	28.63	-37.2	-38.9	16.2	0.00e+00	0	61	0	2520776704	44	4786
2026-01-30 00:58:54.56	138.49	28.51	-37.2	-38.9	16.2	0.00e+00	0	61	0	2527068160	44	4785
2026-01-30 00:58:55.57	138.74	28.39	-37.1	-38.8	16.2	0.00e+00	0	61	0	2532311040	44	4717
2026-01-30 00:58:56.58	138.99	28.27	-37.0	-38.7	16.4	0.00e+00	0	61	0	2538602496	44	4682
2026-01-30 00:58:57.60	139.24	28.15	-37.0	-38.7	16.3	0.00e+00	0	61	0	2543845376	44	4679
2026-01-30 00:58:58.61	139.49	28.03	-37.0	-38.7	16.4	0.00e+00	0	61	0	2549088256	44	4660
2026-01-30 00:58:59.62	139.73	27.91	-37.0	-38.6	16.5	0.00e+00	0	61	0	2555379712	44	4636
2026-01-30 00:59:00.63	139.97	27.79	-36.9	-38.5	16.5	0.00e+00	0	61	0	2560622592	44	4581
2026-01-30 00:59:01.64	140.21	27.67	-36.9	-38.5	16.6	0.00e+00	0	61	0	2566914048	44	4570
2026-01-30 00:59:02.65	140.45	27.55	-36.8	-38.5	16.6	0.00e+00	0	61	0	2572156928	44	4563
2026-01-30 00:59:03.66	140.69	27.43	-36.9	-38.5	16.6	0.00e+00	0	61	0	2578448384	44	4575
2026-01-30 00:59:04.67	140.93	27.31	-36.9	-38.5	16.5	0.00e+00	0	61	0	2583691264	44	4576
2026-01-30 00:59:05.68	141.16	27.19	-36.9	-38.5	16.5	0.00e+00	0	61	0	2589982720	44	4582
2026-01-30 00:59:06.69	141.39	27.07	-36.8	-38.5	16.5	0.00e+00	0	61	0	2595225600	44	4556
2026-01-30 00:59:07.70	141.62	26.95	-36.8	-38.4	16.6	0.00e+00	0	61	0	2600468480	44	4531
2026-01-30 00:59:08.72	141.85	26.83	-36.8	-38.5	16.6	0.00e+00	0	61	0	2606759936	44	4559
2026-01-30 00:59:09.73	142.08	26.71	-36.9	-38.5	16.5	0.00e+00	0	61	0	2612002816	44	4575
2026-01-30 00:59:10.74	142.30	26.59	-36.8	-38.5	16.6	0.00e+00	0	61	0	2618294272	44	4550
2026-01-30 00:59:11.75	142.53	26.47	-36.9	-38.5	16.6	0.00e+00	0	61	0	2623537152	44	4566
2026-01-30 00:59:12.76	142.75	26.35	-36.9	-38.6	16.5	0.00e+00	0	61	0	2628780032	44	4615
2026-01-30 00:59:13.77	142.97	26.23	-36.9	-38.6	16.4	0.00e+00	0	61	0	2635071488	44	4627
2026-01-30 00:59:14.78	143.19	26.11	-36.9	-38.6	16.4	0.00e+00	0	61	0	2640314368	44	4628
2026-01-30 00:59:15.79	143.41	25.99	-37.0	-38.6	16.4	0.00e+00	0	61	0	2646605824	44	4624
2026-01-30 00:59:16.80	143.62	25.87	-37.0	-38.6	16.4	0.00e+00	0	61	0	2651848704	44	4649
2026-01-30 00:59:17.80	143.83	25.75	-37.0	-38.7	16.4	0.00e+00	0	61	0	2657091584	44	4659
2026-01-30 00:59:18.81	144.04	25.63	-37.0	-38.6	16.4	0.00e+00	0	61	0	2663383040	44	4634
2026-01-30 00:59:19.82	144.26	25.51	-37.0	-38.6	16.4	0.00e+00	0	61	0	2668625920	44	4631
2026-01-30 00:59:20.84	144.47	25.39	-37.1	-38.7	16.3	0.00e+00	0	61	0	2674917376	44	4699
2026-01-30 00:59:21.85	144.67	25.27	-37.2	-38.9	16.1	0.00e+00	0	61	0	2680160256	44	4787
2026-01-30 00:59:22.86	144.88	25.16	-37.2	-38.9	16.1	0.00e+00	0	61	0	2686451712	45	4524
2026-01-30 00:59:23.87	145.09	25.04	-37.2	-38.9	16.1	0.00e+00	0	61	0	2691694592	45	4544
2026-01-30 00:59:24.88	145.29	24.92	-37.2	-39.0	16.1	0.00e+00	0	61	0	2697986048	45	4549
2026-01-30 00:59:25.89	145.49	24.80	-37.1	-38.8	16.2	0.00e+00	0	61	0	2703228928	45	4482
2026-01-30 00:59:26.90	145.69	24.68	-37.0	-38.7	16.3	0.00e+00	0	61	0	2708471808	45	4405
2026-01-30 00:59:27.91	145.89	24.57	-37.0	-38.6	16.4	0.00e+00	0	61	0	2714763264	45	4368
2026-01-30 00:59:28.92	146.09	24.45	-36.9	-38.6	16.4	0.00e+00	0	61	0	2720006144	45	4355
2026-01-30 00:59:29.93	146.28	24.33	-37.0	-38.6	16.4	0.00e+00	0	61	0	2726297600	45	4374
2026-01-30 00:59:30.94	146.48	24.21	-37.0	-38.7	16.3	0.00e+00	0	61	0	2731540480	45	4401
2026-01-30 00:59:31.95	146.67	24.10	-37.0	-38.7	16.3	0.00e+00	0	61	0	2736783360	45	4418
2026-01-30 00:59:32.97	146.86	23.98	-37.0	-38.7	16.2	0.00e+00	0	61	0	2743074816	45	4433
2026-01-30 00:59:33.98	147.05	23.86	-37.2	-38.9	16.1	0.00e+00	0	61	0	2748317696	45	4518
2026-01-30 00:59:34.99	147.24	23.75	-37.3	-39.0	16.0	0.00e+00	0	61	0	2754609152	45	4578
2026-01-30 00:59:36.00	147.43	23.63	-37.2	-39.0	15.9	0.00e+00	0	61	0	2759852032	45	4598
2026-01-30 00:59:37.01	147.62	23.51	-37.2	-39.0	16.0	0.00e+00	0	61	0	2765094912	45	4571
2026-01-30 00:59:38.02	147.80	23.40	-37.2	-38.9	16.0	0.00e+00	0	61	0	2771386368	45	4535
2026-01-30 00:59:39.03	147.98	23.28	-37.2	-38.9	16.0	0.00e+00	0	61	0	2776629248	45	4539
2026-01-30 00:59:40.04	148.17	23.17	-37.1	-38.8	16.1	0.00e+00	0	61	0	2782920704	45	4486
2026-01-30 00:59:41.05	148.35	23.05	-37.1	-38.9	16.1	0.00e+00	0	61	0	2788163584	45	4494
2026-01-30 00:59:42.06	148.53	22.94	-37.2	-38.9	16.1	0.00e+00	0	61	0	2794455040	45	4495
2026-01-30 00:59:43.07	148.70	22.82	-37.2	-38.9	16.1	0.00e+00	0	61	0	2799697920	45	4512
2026-01-30 00:59:44.08	148.88	22.71	-37.2	-38.9	16.0	0.00e+00	0	61	0	2805989376	45	4527
2026-01-30 00:59:45.09	149.06	22.59	-37.2	-39.0	16.0	0.00e+00	0	61	0	2811232256	45	4553
2026-01-30 00:59:46.10	149.23	22.48	-37.3	-39.0	16.0	0.00e+00	0	61	0	2816475136	45	4585
2026-01-30 00:59:47.11	149.40	22.37	-37.3	-39.1	15.9	0.00e+00	0	61	0	2822766592	45	4618
2026-01-30 00:59:48.12	149.58	22.25	-37.4	-39.1	15.8	0.00e+00	0	61	0	2828009472	45	4650
2026-01-30 00:59:49.13	149.75	22.14	-37.4	-39.2	15.8	0.00e+00	0	61	0	2834300928	45	4655
2026-01-30 00:59:50.14	149.92	22.03	-37.4	-39.2	15.7	0.00e+00	0	61	0	2839543808	45	4686
2026-01-30 00:59:51.15	150.09	21.91	-37.5	-39.3	15.7	0.00e+00	0	61	0	2844786688	45	4731
2026-01-30 00:59:52.16	150.25	21.80	-37.5	-39.3	15.7	0.00e+00	0	61	0	2851078144	45	4715
2026-01-30 00:59:53.17	150.42	21.69	-37.6	-39.4	15.6	0.00e+00	0	61	0	2856321024	45	4770
2026-01-30 00:59:54.18	150.58	21.58	-37.5	-39.3	15.6	0.00e+00	0	61	0	2862612480	45	4723
2026-01-30 00:59:55.19	150.75	21.46	-37.5	-39.3	15.7	0.00e+00	0	61	0	2867855360	45	4717
2026-01-30 00:59:56.20	150.91	21.35	-37.5	-39.3	15.6	1.10e-06	0	61	0	2873098240	45	4748
2026-01-30 00:59:57.21	151.07	21.24	-37.6	-39.4	15.6	0.00e+00	0	61	0	2879389696	45	4766
2026-01-30 00:59:58.22	151.23	21.13	-37.6	-39.5	15.4	0.00e+00	0	61	0	2884632576	45	4823
2026-01-30 00:59:59.23	151.39	21.02	-37.6	-39.5	15.4	0.00e+00	0	61	0	2890924032	45	4833
2026-01-30 01:00:00.24	151.55	20.91	-37.7	-39.6	15.3	0.00e+00	0	61	0	2896166912	46	4624
2026-01-30 01:00:01.25	151.71	20.80	-37.8	-39.6	15.3	0.00e+00	0	61	0	2902458368	46	4644
2026-01-30 01:00:02.26	151.86	20.69	-37.8	-39.7	15.2	0.00e+00	0	61	0	2907701248	46	4658
2026-01-30 01:00:03.27	152.02	20.58	-37.8	-39.7	15.3	0.00e+00	0	61	0	2912944128	46	4658
2026-01-30 01:00:04.28	152.17	20.47	-37.8	-39.7	15.3	0.00e+00	0	61	0	2919235584	46	4652
2026-01-30 01:00:05.29	152.32	20.36	-37.8	-39.7	15.2	0.00e+00	0	61	0	2924478464	46	4664
2026-01-30 01:00:06.30	152.47	20.25	-37.8	-39.7	15.2	0.00e+00	0	61	0	2930769920	46	4687
2026-01-30 01:00:07.31	152.62	20.14	-37.9	-39.8	15.2	0.00e+00	0	61	0	2936012800	46	4720
2026-01-30 01:00:08.32	152.77	20.04	-37.9	-39.8	15.1	0.00e+00	0	61	0	2942304256	46	4718
2026-01-30 01:00:09.33	152.92	19.93	-37.9	-39.8	15.1	0.00e+00	0	61	0	2947547136	46	4722
2026-01-30 01:00:10.34	153.07	19.82	-37.8	-39.7	15.2	0.00e+00	0	61	0	2952790016	46	4689
2026-01-30 01:00:11.35	153.22	19.71	-38.0	-39.9	15.0	0.00e+00	0	61	0	2959081472	46	4762
2026-01-30 01:00:12.36	153.36	19.61	-38.0	-39.9	15.0	0.00e+00	0	61	0	2964324352	46	4779
2026-01-30 01:00:13.37	153.51	19.50	-37.9	-39.8	15.0	0.00e+00	0	61	0	2970615808	46	4756
2026-01-30 01:00:14.38	153.65	19.39	-38.0	-39.9	15.0	0.00e+00	0	61	0	2975858688	46	4777
2026-01-30 01:00:15.39	153.79	19.29	-38.0	-39.9	15.0	1.10e-06	0	61	0	2981101568	46	4793
2026-01-30 01:00:16.40	153.93	19.18	-38.0	-39.9	15.0	1.10e-06	0	61	0	2987393024	46	4791
2026-01-30 01:00:17.41	154.08	19.08	-38.1	-40.0	14.9	0.00e+00	0	61	0	2992635904	46	4835
2026-01-30 01:00:18.42	154.22	18.97	-38.1	-40.0	14.9	0.00e+00	0	61	0	2998927360	46	4858
2026-01-30 01:00:19.43	154.35	18.87	-38.1	-40.1	14.8	2.20e-06	0	61	0	3004170240	46	4871
2026-01-30 01:00:20.44	154.49	18.76	-38.1	-40.0	14.9	0.00e+00	0	61	0	3010461696	46	4855
2026-01-30 01:00:21.45	154.63	18.66	-38.1	-40.1	14.8	0.00e+00	0	61	0	3015704576	46	4898
2026-01-30 01:00:22.46	154.76	18.55	-38.2	-40.3	14.6	1.10e-06	0	61	0	3020947456	47	4706
2026-01-30 01:00:23.47	154.90	18.45	-38.3	-40.3	14.6	1.10e-06	0	61	0	3027238912	47	4733
2026-01-30 01:00:24.48	155.03	18.34	-38.3	-40.4	14.5	0.00e+00	0	61	0	3032481792	47	4782
2026-01-30 01:00:25.49	155.17	18.24	-38.4	-40.4	14.5	0.00e+00	0	61	0	3038773248	47	4795
2026-01-30 01:00:26.50	155.30	18.14	-38.4	-40.4	14.5	0.00e+00	0	61	0	3044016128	47	4772
2026-01-30 01:00:27.51	155.43	18.03	-38.3	-40.3	14.5	2.20e-06	0	61	0	3049259008	47	4756
2026-01-30 01:00:28.52	155.56	17.93	-38.3	-40.4	14.5	0.00e+00	0	61	0	3055550464	47	4774
2026-01-30 01:00:29.53	155.69	17.83	-38.3	-40.3	14.6	1.10e-06	0	61	0	3060793344	47	4732
2026-01-30 01:00:30.54	155.82	17.73	-38.3	-40.3	14.6	2.20e-06	0	61	0	3067084800	47	4746
2026-01-30 01:00:31.55	155.95	17.63	-38.3	-40.3	14.5	1.10e-06	0	61	0	3072327680	47	4749
2026-01-30 01:00:32.56	156.08	17.53	-38.3	-40.3	14.6	1.10e-06	0	61	0	3077570560	47	4712
2026-01-30 01:00:33.57	156.20	17.42	-38.3	-40.3	14.5	1.10e-06	0	61	0	3083862016	47	4737
2026-01-30 01:00:34.58	156.33	17.32	-38.3	-40.3	14.6	2.20e-06	0	61	0	3089104896	47	4733
2026-01-30 01:00:35.59	156.45	17.22	-38.3	-40.3	14.5	0.00e+00	0	61	0	3095396352	47	4744
2026-01-30 01:00:36.60	156.58	17.12	-38.3	-40.3	14.5	1.10e-06	0	61	0	3100639232	47	4751
2026-01-30 01:00:37.61	156.70	17.02	-38.2	-40.2	14.6	1.10e-06	0	61	0	3106930688	47	4680
2026-01-30 01:00:38.63	156.83	16.92	-38.3	-40.2	14.6	0.00e+00	0	61	0	3112173568	47	4701
2026-01-30 01:00:39.64	156.95	16.82	-38.2	-40.2	14.6	1.10e-06	0	61	0	3118465024	47	4694
2026-01-30 01:00:40.64	157.07	16.72	-38.3	-40.3	14.5	1.10e-06	0	61	0	3123707904	47	4735
2026-01-30 01:00:41.65	157.19	16.63	-38.3	-40.3	14.5	0.00e+00	0	61	0	3128950784	47	4734
2026-01-30 01:00:42.66	157.31	16.53	-38.4	-40.4	14.4	1.10e-06	0	61	0	3135242240	47	4774
2026-01-30 01:00:43.68	157.43	16.43	-38.4	-40.5	14.3	2.20e-06	0	61	0	3140485120	47	4827
2026-01-30 01:00:44.69	157.55	16.33	-38.5	-40.5	14.3	2.20e-06	0	61	0	3146776576	47	4850
2026-01-30 01:00:45.70	157.66	16.23	-38.5	-40.5	14.3	0.00e+00	0	61	0	3152019456	47	4856
2026-01-30 01:00:46.71	157.78	16.14	-38.5	-40.6	14.2	1.10e-06	0	61	0	3157262336	47	4875
2026-01-30 01:00:47.72	157.89	16.04	-38.6	-40.7	14.1	1.10e-06	0	61	0	3163553792	47	4950
2026-01-30 01:00:48.73	158.01	15.94	-38.6	-40.7	14.0	5.70e-06	0	61	0	3168796672	47	4982
2026-01-30 01:00:49.74	158.12	15.84	-38.7	-40.8	14.0	4.50e-06	0	61	0	3175088128	47	5009
2026-01-30 01:00:50.75	158.24	15.75	-38.7	-40.9	13.9	2.20e-06	0	61	0	3180331008	47	5061
2026-01-30 01:00:51.76	158.35	15.65	-38.8	-41.0	13.9	6.80e-06	0	61	0	3185573888	48	4823
2026-01-30 01:00:52.77	158.46	15.56	-38.8	-41.0	13.9	5.70e-06	0	61	0	3191865344	48	4833
2026-01-30 01:00:53.78	158.57	15.46	-38.9	-41.1	13.8	1.25e-05	0	61	0	3197108224	48	4899
2026-01-30 01:00:54.79	158.69	15.37	-38.9	-41.1	13.8	1.02e-05	0	61	0	3203399680	48	4895
2026-01-30 01:00:55.80	158.80	15.27	-39.0	-41.2	13.7	2.20e-06	0	61	0	3208642560	48	4970
2026-01-30 01:00:56.81	158.91	15.18	-38.9	-41.1	13.8	1.14e-05	0	61	0	3214934016	48	4924
2026-01-30 01:00:57.82	159.01	15.08	-39.0	-41.2	13.7	6.80e-06	0	61	0	3220176896	48	4951
2026-01-30 01:00:58.83	159.12	14.99	-39.0	-41.2	13.7	1.48e-05	0	61	0	3226468352	48	4967
2026-01-30 01:00:59.84	159.23	14.89	-39.0	-41.2	13.7	1.37e-05	0	61	0	3231711232	48	4942
2026-01-30 01:01:00.85	159.34	14.80	-39.0	-41.2	13.7	9.10e-06	0	61	0	3236954112	48	4937
2026-01-30 01:01:01.86	159.44	14.71	-39.0	-41.2	13.6	1.37e-05	0	61	0	3243245568	48	4958
2026-01-30 01:01:02.87	159.55	14.61	-39.0	-41.2	13.7	1.25e-05	0	61	0	3248488448	48	4941
2026-01-30 01:01:03.88	159.65	14.52	-39.0	-41.2	13.6	8.00e-06	0	61	0	3254779904	48	4967
2026-01-30 01:01:04.89	159.76	14.43	-39.0	-41.2	13.6	1.83e-05	0	61	0	3260022784	48	4971
2026-01-30 01:01:05.90	159.86	14.34	-39.0	-41.2	13.6	1.37e-05	0	61	0	3265265664	48	4973
2026-01-30 01:01:06.91	159.96	14.25	-39.0	-41.1	13.7	1.37e-05	0	61	0	3271557120	48	4925
2026-01-30 01:01:07.92	160.07	14.15	-39.0	-41.2	13.6	1.94e-05	0	61	0	3276800000	48	4975
2026-01-30 01:01:08.93	160.17	14.06	-39.0	-41.2	13.6	1.94e-05	0	61	0	3283091456	48	4963
2026-01-30 01:01:09.94	160.27	13.97	-39.0	-41.2	13.6	1.71e-05	0	61	0	3288334336	48	4951
2026-01-30 01:01:10.95	160.37	13.88	-39.0	-41.2	13.6	9.10e-06	0	61	0	3293577216	48	4978
2026-01-30 01:01:11.96	160.47	13.79	-39.0	-41.3	13.5	1.37e-05	0	61	0	3299868672	48	4986
2026-01-30 01:01:12.98	160.57	13.70	-39.1	-41.4	13.4	2.17e-05	0	61	0	3305111552	48	5069
2026-01-30 01:01:13.99	160.67	13.61	-39.1	-41.3	13.5	2.28e-05	0	61	0	3311403008	48	5036
2026-01-30 01:01:15.00	160.77	13.52	-39.2	-41.5	13.3	1.83e-05	0	61	0	3316645888	48	5144
2026-01-30 01:01:16.01	160.87	13.43	-39.1	-41.4	13.4	2.63e-05	0	61	0	3322937344	48	5070
2026-01-30 01:01:17.02	160.96	13.34	-39.1	-41.4	13.3	2.97e-05	0	61	0	3328180224	48	5087
2026-01-30 01:01:18.03	161.06	13.25	-39.2	-41.5	13.2	4.80e-05	0	61	0	3334471680	49	4866
2026-01-30 01:01:19.04	161.16	13.16	-39.2	-41.6	13.2	4.57e-05	0	61	0	3339714560	49	4874
2026-01-30 01:01:20.05	161.25	13.07	-39.2	-41.6	13.2	3.89e-05	0	61	0	3344957440	49	4871
2026-01-30 01:01:21.06	161.35	12.98	-39.3	-41.7	13.1	4.46e-05	0	61	0	3351248896	49	4944
2026-01-30 01:01:22.07	161.44	12.90	-39.2	-41.6	13.2	5.37e-05	0	61	0	3356491776	49	4881
2026-01-30 01:01:23.08	161.53	12.81	-39.2	-41.5	13.2	4.00e-05	0	61	0	3362783232	49	4867
2026-01-30 01:01:24.09	161.63	12.72	-39.2	-41.6	13.2	4.80e-05	0	61	0	3368026112	49	4871
2026-01-30 01:01:25.10	161.72	12.63	-39.2	-41.6	13.1	4.69e-05	0	61	0	3373268992	49	4906
2026-01-30 01:01:26.11	161.81	12.55	-39.2	-41.6	13.1	6.63e-05	0	61	0	3379560448	49	4904
2026-01-30 01:01:27.12	161.90	12.46	-39.3	-41.7	13.0	6.06e-05	0	61	0	3384803328	49	4951
2026-01-30 01:01:28.13	162.00	12.37	-39.2	-41.6	13.1	6.29e-05	0	61	0	3391094784	49	4901
2026-01-30 01:01:29.13	162.09	12.29	-39.3	-41.7	13.0	6.63e-05	0	61	0	3396337664	49	4935
2026-01-30 01:01:30.14	162.18	12.20	-39.3	-41.7	13.0	3.66e-05	0	61	0	3401580544	49	4938
2026-01-30 01:01:31.15	162.27	12.12	-39.3	-41.8	12.9	6.17e-05	0	61	0	3407872000	49	5002
2026-01-30 01:01:32.16	162.35	12.03	-39.4	-41.8	12.9	7.09e-05	0	61	0	3413114880	49	5000
2026-01-30 01:01:33.17	162.44	11.95	-39.4	-41.8	12.9	9.95e-05	0	61	0	3419406336	49	5033
2026-01-30 01:01:34.18	162.53	11.86	-39.4	-41.9	12.8	9.84e-05	0	61	0	3424649216	49	5067
2026-01-30 01:01:35.20	162.62	11.77	-39.5	-42.0	12.6	1.23e-04	0	61	0	3430940672	49	5126
2026-01-30 01:01:36.21	162.71	11.69	-39.5	-42.0	12.6	1.38e-04	0	61	0	3436183552	49	5159
2026-01-30 01:01:37.21	162.79	11.61	-39.5	-42.0	12.6	1.74e-04	0	61	0	3441426432	49	5155
