passes_logs/2026/01/30/R2.0S_Moscow/R2.0S_Moscow__20260130_132145_AQUA_rec.log

#Pass ID: 20260130_132145_AQUA
#Satellite: AQUA
#Configuration: AQUA
#almurnet v.1.7.20251203
#Start time: 2026-01-30 13:21:47

#Version: 2.2.20231116
#Station: R2.0S_Moscow
#Location: 37.707566 lon 55.798166 lat
#TLE: 1 27424U 02022A   26029.54575153  .00001738  00000+0  35736-3 0  9994
#TLE: 2 27424  98.4104 356.2197 0001804  61.7823  56.0643 14.61874165263019

#Time	Az	El	Level	Level2	SNR	BER	BlckErr	Temp	State	Recorded	gain1	gain2
2026-01-30 13:21:47.69	216.03	2.13	-44.5	-63.2	3.8	7.45e-01	0	53	0	0	60	31223
2026-01-30 13:21:48.70	216.13	2.18	-44.5	-63.2	3.8	7.43e-01	0	54	104	0	60	31147
2026-01-30 13:21:49.71	216.22	2.24	-44.4	-63.2	3.8	7.43e-01	0	54	104	0	60	31133
2026-01-30 13:21:50.72	216.32	2.29	-44.4	-63.2	3.8	7.46e-01	0	54	104	0	60	31172
2026-01-30 13:21:51.73	216.41	2.35	-44.4	-63.2	3.8	7.44e-01	0	54	104	0	60	31129
2026-01-30 13:21:52.74	216.51	2.40	-44.4	-63.2	3.8	7.43e-01	0	54	104	0	60	31170
2026-01-30 13:21:53.75	216.61	2.46	-44.4	-63.2	3.8	7.45e-01	0	54	104	0	60	31100
2026-01-30 13:21:54.76	216.70	2.51	-44.4	-63.2	3.8	7.43e-01	0	54	104	0	60	31161
2026-01-30 13:21:55.77	216.80	2.56	-44.4	-63.2	3.8	7.47e-01	0	54	104	0	60	31158
2026-01-30 13:21:56.78	216.90	2.62	-44.4	-63.1	3.8	7.45e-01	0	54	104	0	60	31083
2026-01-30 13:21:57.79	217.00	2.67	-44.4	-63.1	3.8	7.51e-01	0	55	104	0	60	31071
2026-01-30 13:21:58.80	217.10	2.73	-44.4	-63.2	3.8	7.45e-01	0	55	104	0	60	31125
2026-01-30 13:21:59.81	217.20	2.78	-44.4	-63.1	3.8	7.46e-01	0	55	104	0	60	31044
2026-01-30 13:22:00.82	217.30	2.84	-44.4	-63.1	3.8	7.48e-01	0	54	104	0	60	31064
2026-01-30 13:22:01.83	217.39	2.89	-44.4	-63.1	3.8	7.45e-01	0	55	104	0	60	31005
2026-01-30 13:22:02.84	217.49	2.95	-44.4	-63.1	3.8	7.45e-01	0	55	104	0	60	30997
2026-01-30 13:22:03.85	217.60	3.00	-44.7	-63.5	3.8	7.48e-01	0	55	104	0	59	34276
2026-01-30 13:22:04.86	217.70	3.06	-44.7	-63.5	3.8	7.40e-01	0	55	104	0	59	34257
2026-01-30 13:22:05.88	217.80	3.11	-44.7	-63.5	3.8	7.47e-01	0	55	104	0	59	34227
2026-01-30 13:22:06.88	217.90	3.17	-44.7	-63.5	3.8	7.42e-01	0	55	104	0	59	34277
2026-01-30 13:22:07.90	218.00	3.22	-44.7	-63.5	3.8	7.44e-01	0	55	104	0	59	34291
2026-01-30 13:22:08.91	218.11	3.28	-44.7	-63.5	3.8	7.41e-01	0	55	104	0	59	34257
2026-01-30 13:22:09.92	218.21	3.33	-44.7	-63.5	3.8	7.46e-01	0	55	104	0	59	34147
2026-01-30 13:22:10.93	218.31	3.39	-44.6	-63.5	3.8	7.45e-01	0	55	104	0	59	34204
2026-01-30 13:22:11.94	218.42	3.44	-44.6	-63.5	3.8	7.45e-01	0	55	104	0	59	34202
2026-01-30 13:22:12.95	218.52	3.50	-44.7	-63.5	3.8	7.48e-01	0	55	104	0	59	34144
2026-01-30 13:22:13.96	218.62	3.55	-44.6	-63.5	3.8	7.45e-01	0	56	104	0	59	34203
2026-01-30 13:22:14.97	218.73	3.61	-44.6	-63.5	3.8	7.44e-01	0	56	104	0	59	34177
2026-01-30 13:22:15.98	218.83	3.66	-44.6	-63.5	3.8	7.44e-01	0	56	104	0	59	34202
2026-01-30 13:22:16.99	218.94	3.72	-44.7	-63.5	3.8	7.45e-01	0	56	104	0	59	34260
2026-01-30 13:22:18.00	219.05	3.77	-44.6	-63.5	3.8	7.44e-01	0	56	104	0	59	34249
2026-01-30 13:22:19.01	219.15	3.83	-44.6	-63.5	3.8	7.48e-01	0	56	104	0	59	34168
2026-01-30 13:22:20.02	219.26	3.88	-44.6	-63.5	3.8	7.45e-01	0	56	104	0	59	34218
2026-01-30 13:22:21.03	219.37	3.94	-44.6	-63.5	3.8	7.46e-01	0	56	104	0	59	34143
2026-01-30 13:22:22.04	219.48	4.00	-44.6	-63.5	3.8	7.43e-01	0	56	104	0	59	34106
2026-01-30 13:22:23.05	219.59	4.05	-44.6	-63.5	3.8	7.47e-01	0	56	104	0	59	34161
2026-01-30 13:22:24.06	219.69	4.11	-44.6	-63.4	3.8	7.45e-01	0	56	104	0	59	34058
2026-01-30 13:22:25.07	219.80	4.16	-44.6	-63.5	3.8	7.44e-01	0	56	104	0	59	34130
2026-01-30 13:22:26.08	219.91	4.22	-44.6	-63.4	3.8	7.42e-01	0	56	104	0	59	34027
2026-01-30 13:22:27.09	220.02	4.28	-44.6	-63.4	3.8	7.45e-01	0	56	104	0	59	34052
2026-01-30 13:22:28.10	220.13	4.33	-44.6	-63.4	3.8	7.45e-01	0	56	104	0	59	34064
2026-01-30 13:22:29.11	220.25	4.39	-44.5	-63.4	3.8	7.44e-01	0	56	104	0	59	34083
2026-01-30 13:22:30.12	220.36	4.44	-44.5	-63.5	3.8	7.46e-01	0	57	104	0	59	34107
2026-01-30 13:22:31.13	220.47	4.50	-44.4	-63.4	3.8	7.46e-01	0	56	104	0	59	34063
2026-01-30 13:22:32.15	220.58	4.56	-44.6	-63.4	3.8	7.45e-01	0	57	104	0	59	34038
2026-01-30 13:22:33.16	220.70	4.61	-44.6	-63.4	3.8	7.46e-01	0	57	104	0	59	34001
2026-01-30 13:22:34.17	220.81	4.67	-44.6	-63.4	3.8	7.47e-01	0	57	104	0	59	34014
2026-01-30 13:22:35.18	220.92	4.72	-44.6	-63.4	3.8	7.45e-01	0	57	104	0	59	34082
2026-01-30 13:22:36.19	221.04	4.78	-44.4	-63.4	3.8	7.46e-01	0	57	104	0	59	34053
2026-01-30 13:22:37.20	221.15	4.84	-44.6	-63.4	3.8	7.47e-01	0	57	104	0	59	34005
2026-01-30 13:22:38.21	221.27	4.89	-44.6	-63.4	3.8	7.47e-01	0	57	104	0	59	33943
2026-01-30 13:22:39.22	221.38	4.95	-44.5	-63.4	3.8	7.40e-01	0	57	104	0	59	33991
2026-01-30 13:22:40.23	221.50	5.01	-44.6	-63.4	3.8	7.46e-01	0	57	104	0	59	33946
2026-01-30 13:22:41.24	221.62	5.06	-44.6	-63.4	3.8	7.49e-01	0	57	104	0	59	33966
2026-01-30 13:22:42.25	221.73	5.12	-44.6	-63.4	3.8	7.46e-01	0	57	104	0	59	33892
2026-01-30 13:22:43.26	221.85	5.18	-44.6	-63.4	3.8	7.46e-01	0	57	104	0	59	33884
2026-01-30 13:22:44.27	221.97	5.23	-44.6	-63.4	3.8	7.45e-01	0	57	104	0	59	33755
2026-01-30 13:22:45.28	222.09	5.29	-44.6	-63.4	3.8	7.44e-01	0	57	104	0	59	33706
2026-01-30 13:22:46.29	222.21	5.35	-44.6	-63.4	3.8	7.46e-01	0	57	104	0	59	33769
2026-01-30 13:22:47.30	222.33	5.40	-44.6	-63.4	3.8	7.49e-01	0	57	104	0	59	33739
2026-01-30 13:22:48.31	222.45	5.46	-44.6	-63.4	3.8	7.47e-01	0	57	104	0	59	33749
2026-01-30 13:22:49.32	222.57	5.52	-44.6	-63.3	3.8	7.43e-01	0	57	104	0	59	33650
2026-01-30 13:22:50.33	222.69	5.57	-44.6	-63.3	3.8	7.44e-01	0	57	104	0	59	33587
2026-01-30 13:22:51.34	222.81	5.63	-44.6	-63.4	3.8	7.49e-01	0	57	104	0	59	33707
2026-01-30 13:22:52.35	222.93	5.69	-44.6	-63.3	3.8	7.45e-01	0	57	104	0	59	33688
2026-01-30 13:22:53.36	223.05	5.75	-44.6	-63.3	3.8	7.45e-01	0	58	104	0	59	33477
2026-01-30 13:22:54.37	223.18	5.80	-44.6	-63.3	3.8	7.48e-01	0	58	104	0	59	33412
2026-01-30 13:22:55.38	223.30	5.86	-44.6	-63.3	3.8	7.44e-01	0	58	104	0	59	33568
2026-01-30 13:22:56.40	223.43	5.92	-44.6	-63.3	3.8	7.43e-01	0	58	104	0	59	33403
2026-01-30 13:22:57.41	223.55	5.97	-44.6	-63.3	3.8	7.48e-01	0	58	104	0	59	33459
2026-01-30 13:22:58.42	223.68	6.03	-44.6	-63.2	3.8	7.44e-01	0	58	104	0	59	33216
2026-01-30 13:22:59.43	223.80	6.09	-44.6	-63.1	3.8	7.45e-01	0	58	104	0	59	32857
2026-01-30 13:23:00.44	223.93	6.15	-44.6	-62.9	3.8	7.49e-01	0	58	104	0	59	31930
2026-01-30 13:23:01.45	224.05	6.20	-44.6	-62.6	3.8	7.46e-01	0	58	104	0	59	30780
2026-01-30 13:23:02.46	224.18	6.26	-44.6	-62.3	3.8	7.42e-01	0	58	104	0	59	29875
2026-01-30 13:23:03.47	224.31	6.32	-44.6	-62.2	3.8	7.43e-01	0	58	104	0	59	29551
2026-01-30 13:23:04.48	224.44	6.38	-44.6	-62.0	3.8	7.40e-01	0	58	104	0	59	28845
2026-01-30 13:23:05.49	224.57	6.43	-44.5	-61.1	3.9	7.40e-01	0	58	104	0	59	26141
2026-01-30 13:23:06.50	224.70	6.49	-44.5	-61.4	3.8	7.44e-01	0	58	104	0	59	26789
2026-01-30 13:23:07.51	224.83	6.55	-44.5	-60.7	4.0	7.38e-01	0	58	104	0	59	24933
2026-01-30 13:23:08.52	224.96	6.61	-44.5	-60.4	3.9	7.42e-01	0	58	104	0	59	24019
2026-01-30 13:23:09.53	225.09	6.66	-44.5	-59.5	4.3	7.30e-01	0	58	104	0	59	21654
2026-01-30 13:23:10.54	225.22	6.72	-44.4	-59.4	4.0	7.36e-01	0	58	104	0	59	21349
2026-01-30 13:23:11.55	225.35	6.78	-44.4	-57.7	5.0	7.06e-01	0	58	0	0	59	17674
2026-01-30 13:23:12.56	225.48	6.84	-44.3	-56.6	5.8	6.86e-01	30	59	0	0	59	15553
2026-01-30 13:23:13.58	225.62	6.89	-44.2	-55.5	6.6	6.72e-01	92	58	0	1572864	59	13664
2026-01-30 13:23:14.59	225.75	6.95	-44.1	-54.5	7.6	6.53e-01	90	59	0	3670016	59	12112
2026-01-30 13:23:15.60	225.89	7.01	-43.9	-53.7	8.4	6.39e-01	23	59	0	5242880	59	11063
2026-01-30 13:23:16.60	226.02	7.07	-43.9	-52.9	9.2	6.33e-01	0	58	0	7340032	59	10115
2026-01-30 13:23:17.61	226.16	7.12	-43.9	-52.7	9.4	6.30e-01	0	59	0	8912896	59	9883
2026-01-30 13:23:18.63	226.29	7.18	-44.0	-53.1	9.0	6.31e-01	0	58	0	11010048	59	10357
2026-01-30 13:23:19.64	226.43	7.24	-44.0	-53.5	8.6	6.39e-01	5	59	0	13107200	59	10854
2026-01-30 13:23:20.65	226.57	7.30	-44.2	-54.8	7.4	6.55e-01	92	59	0	14680064	59	12610
2026-01-30 13:23:21.66	226.71	7.36	-43.8	-56.3	6.0	6.86e-01	92	59	0	16777216	59	15038
2026-01-30 13:23:22.67	226.84	7.41	-44.4	-58.2	4.8	7.14e-01	0	59	0	17301504	59	18613
2026-01-30 13:23:23.68	226.98	7.47	-44.4	-58.3	4.0	7.31e-01	0	59	104	17301504	59	18936
2026-01-30 13:23:24.69	227.12	7.53	-44.3	-55.7	6.4	6.74e-01	92	59	0	18350080	59	14019
2026-01-30 13:23:25.70	227.26	7.59	-43.9	-52.9	9.1	6.30e-01	0	59	0	19922944	59	10142
2026-01-30 13:23:26.71	227.40	7.65	-43.6	-51.1	11.1	6.15e-01	0	59	0	22020096	58	8688
2026-01-30 13:23:27.72	227.54	7.70	-43.2	-49.8	12.5	6.10e-01	0	59	0	23592960	58	7497
2026-01-30 13:23:28.73	227.69	7.76	-42.9	-48.9	13.4	6.10e-01	0	59	0	25690112	57	7131
2026-01-30 13:23:29.74	227.83	7.82	-42.8	-48.5	13.8	6.09e-01	0	59	0	27787264	57	6855
2026-01-30 13:23:30.75	227.97	7.88	-42.8	-48.5	13.8	6.09e-01	0	59	0	29360128	57	6834
2026-01-30 13:23:31.76	228.11	7.93	-42.9	-48.8	13.5	6.09e-01	0	59	0	31457280	57	7118
2026-01-30 13:23:32.77	228.26	7.99	-43.2	-49.8	12.5	6.12e-01	0	59	0	33554432	57	7946
2026-01-30 13:23:33.78	228.40	8.05	-44.5	-56.6	4.3	7.25e-01	0	59	104	34603008	60	14699
2026-01-30 13:23:34.80	228.55	8.11	-43.6	-50.7	12.1	6.14e-01	0	59	104	34603008	58	8275
2026-01-30 13:23:35.81	228.70	8.17	-44.6	-56.1	7.1	6.67e-01	92	59	0	36175872	59	14617
2026-01-30 13:23:36.82	228.84	8.22	-43.1	-48.6	13.8	6.06e-01	0	59	0	36700160	58	6556
2026-01-30 13:23:37.83	228.99	8.28	-44.3	-55.6	7.3	6.61e-01	92	59	0	38273024	59	13824
2026-01-30 13:23:38.84	229.14	8.34	-42.9	-48.1	14.5	6.06e-01	0	59	0	39845888	57	6500
2026-01-30 13:23:39.84	229.29	8.40	-42.9	-48.0	14.7	6.06e-01	0	59	0	41943040	57	6471
2026-01-30 13:23:40.86	229.44	8.46	-42.8	-47.9	14.8	6.07e-01	0	59	0	44040192	57	6385
2026-01-30 13:23:41.87	229.59	8.51	-42.9	-48.0	14.7	6.07e-01	0	59	0	45613056	57	6493
2026-01-30 13:23:42.87	229.74	8.57	-42.9	-48.0	14.7	6.09e-01	0	59	0	47710208	57	6456
2026-01-30 13:23:43.88	229.89	8.63	-42.9	-48.0	14.7	6.08e-01	0	59	0	49283072	57	6456
2026-01-30 13:23:44.89	230.04	8.69	-42.9	-47.9	14.8	6.08e-01	0	59	0	51380224	57	6400
2026-01-30 13:23:45.90	230.19	8.74	-42.9	-48.0	14.7	6.08e-01	0	59	0	53477376	57	6476
2026-01-30 13:23:46.91	230.34	8.80	-42.8	-47.8	14.9	6.07e-01	0	59	0	55050240	57	6339
2026-01-30 13:23:47.92	230.50	8.86	-42.8	-47.8	15.0	6.06e-01	0	59	0	57147392	57	6294
2026-01-30 13:23:48.93	230.65	8.92	-42.8	-47.8	14.9	6.08e-01	0	59	0	58720256	57	6303
2026-01-30 13:23:49.94	230.81	8.97	-42.8	-47.8	14.9	6.09e-01	0	59	0	60817408	57	6306
2026-01-30 13:23:50.95	230.96	9.03	-42.8	-47.9	14.7	6.07e-01	0	60	0	62914560	57	6413
2026-01-30 13:23:51.96	231.12	9.09	-42.7	-47.8	14.7	6.07e-01	0	59	0	64487424	57	6324
2026-01-30 13:23:52.97	231.27	9.15	-42.7	-47.7	14.9	6.09e-01	0	59	0	66584576	57	6260
2026-01-30 13:23:53.98	231.43	9.20	-42.6	-47.7	14.9	6.06e-01	0	60	0	68157440	57	6217
2026-01-30 13:23:54.99	231.59	9.26	-42.6	-47.7	14.9	6.07e-01	0	60	0	70254592	57	6232
2026-01-30 13:23:56.00	231.75	9.32	-42.6	-47.7	14.9	6.06e-01	0	60	0	72351744	57	6206
2026-01-30 13:23:57.01	231.91	9.38	-42.7	-47.7	14.9	6.08e-01	0	60	0	73924608	57	6208
2026-01-30 13:23:58.02	232.07	9.43	-42.7	-47.6	15.0	6.06e-01	0	60	0	76021760	57	6186
2026-01-30 13:23:59.03	232.23	9.49	-42.7	-47.6	15.0	6.09e-01	0	60	0	77594624	57	6196
2026-01-30 13:24:00.04	232.39	9.55	-42.7	-47.6	15.1	6.05e-01	0	60	0	79691776	57	6199
2026-01-30 13:24:01.05	232.55	9.61	-42.7	-47.5	15.3	6.06e-01	0	60	0	81788928	57	6076
2026-01-30 13:24:02.06	232.71	9.66	-42.8	-47.6	15.3	6.08e-01	0	60	0	83361792	57	6159
2026-01-30 13:24:03.07	232.88	9.72	-42.7	-47.6	15.3	6.07e-01	0	60	0	85458944	57	6136
2026-01-30 13:24:04.08	233.04	9.78	-42.8	-47.5	15.4	6.10e-01	0	60	0	87556096	57	6094
2026-01-30 13:24:05.09	233.21	9.84	-42.8	-47.5	15.4	6.05e-01	0	60	0	89128960	57	6112
2026-01-30 13:24:06.10	233.37	9.89	-42.8	-47.5	15.4	6.07e-01	0	60	0	91226112	57	6101
2026-01-30 13:24:07.11	233.54	9.95	-42.8	-47.5	15.4	6.06e-01	0	60	0	92798976	57	6127
2026-01-30 13:24:08.12	233.71	10.01	-42.8	-47.6	15.3	6.06e-01	0	60	0	94896128	57	6171
2026-01-30 13:24:09.13	233.87	10.06	-42.9	-47.6	15.3	6.05e-01	0	60	0	96993280	57	6181
2026-01-30 13:24:10.14	234.04	10.12	-42.9	-47.7	15.2	6.07e-01	0	60	0	98566144	57	6244
2026-01-30 13:24:11.15	234.21	10.18	-42.9	-47.8	15.1	6.06e-01	0	60	0	100663296	57	6322
2026-01-30 13:24:12.16	234.38	10.23	-42.8	-47.5	15.4	6.08e-01	0	60	0	102760448	57	6100
2026-01-30 13:24:13.17	234.55	10.29	-42.8	-47.6	15.4	6.04e-01	0	60	0	104333312	57	6144
2026-01-30 13:24:14.18	234.72	10.35	-42.8	-47.5	15.4	6.03e-01	0	60	0	106430464	57	6075
2026-01-30 13:24:15.19	234.89	10.40	-42.8	-47.4	15.5	6.06e-01	0	60	0	108003328	57	6018
2026-01-30 13:24:16.20	235.06	10.46	-42.8	-47.4	15.5	6.07e-01	0	60	0	110100480	57	6056
2026-01-30 13:24:17.21	235.24	10.52	-42.8	-47.4	15.6	6.05e-01	0	60	0	112197632	57	6016
2026-01-30 13:24:18.22	235.41	10.57	-42.8	-47.4	15.6	6.08e-01	0	60	0	113770496	57	6006
2026-01-30 13:24:19.24	235.59	10.63	-42.8	-47.4	15.7	6.08e-01	0	60	0	115867648	57	5995
2026-01-30 13:24:20.25	235.76	10.69	-42.7	-47.3	15.8	6.07e-01	0	60	0	117440512	57	5942
2026-01-30 13:24:21.26	235.94	10.74	-42.7	-47.3	15.7	6.07e-01	0	60	0	119537664	57	5929
2026-01-30 13:24:22.27	236.12	10.80	-42.8	-47.3	15.7	6.04e-01	0	60	0	121634816	57	5976
2026-01-30 13:24:23.28	236.29	10.85	-42.8	-47.5	15.6	6.06e-01	0	60	0	123207680	57	6076
2026-01-30 13:24:24.29	236.47	10.91	-42.8	-47.4	15.6	6.08e-01	0	60	0	125304832	57	6042
2026-01-30 13:24:25.30	236.65	10.96	-42.8	-47.4	15.6	6.07e-01	0	60	0	127401984	57	6051
2026-01-30 13:24:26.31	236.83	11.02	-42.8	-47.3	15.8	6.06e-01	0	60	0	128974848	57	5946
2026-01-30 13:24:27.32	237.01	11.08	-42.7	-47.3	15.8	6.05e-01	0	60	0	131072000	57	5937
2026-01-30 13:24:28.33	237.19	11.13	-42.8	-47.3	15.8	6.05e-01	0	60	0	132644864	57	5967
2026-01-30 13:24:29.34	237.37	11.19	-42.7	-47.2	15.9	6.06e-01	0	60	0	134742016	57	5901
2026-01-30 13:24:30.35	237.55	11.24	-42.7	-47.2	15.9	6.05e-01	0	61	0	136839168	57	5864
2026-01-30 13:24:31.36	237.74	11.30	-42.6	-47.1	16.0	6.05e-01	0	61	0	138412032	57	5793
2026-01-30 13:24:32.37	237.92	11.35	-42.6	-47.1	16.0	6.05e-01	0	60	0	140509184	57	5789
2026-01-30 13:24:33.38	238.10	11.41	-42.7	-47.2	15.8	6.05e-01	0	60	0	142082048	57	5902
2026-01-30 13:24:34.39	238.29	11.46	-42.8	-47.3	15.9	6.08e-01	0	60	0	144179200	57	5926
2026-01-30 13:24:35.40	238.47	11.52	-42.6	-47.0	16.0	6.08e-01	0	60	0	146276352	57	5772
2026-01-30 13:24:36.40	238.66	11.57	-42.6	-47.0	16.1	6.08e-01	0	60	0	147849216	57	5753
2026-01-30 13:24:37.41	238.85	11.62	-42.7	-47.1	16.0	6.08e-01	0	60	0	149946368	57	5840
2026-01-30 13:24:38.42	239.03	11.68	-42.7	-47.1	16.0	6.06e-01	0	60	0	151519232	57	5850
2026-01-30 13:24:39.43	239.22	11.73	-42.7	-47.1	16.0	6.08e-01	0	61	0	153616384	57	5815
2026-01-30 13:24:40.44	239.41	11.79	-42.7	-47.1	16.0	6.09e-01	0	60	0	155713536	57	5835
2026-01-30 13:24:41.45	239.60	11.84	-42.7	-47.0	16.1	6.06e-01	0	60	0	157286400	57	5756
2026-01-30 13:24:42.46	239.79	11.89	-42.6	-46.9	16.3	6.05e-01	0	60	0	159383552	57	5677
2026-01-30 13:24:43.47	239.99	11.95	-42.7	-47.0	16.1	6.07e-01	0	61	0	160956416	57	5754
2026-01-30 13:24:44.48	240.18	12.00	-42.6	-46.9	16.2	6.05e-01	0	60	0	163053568	57	5708
2026-01-30 13:24:45.49	240.37	12.05	-42.7	-47.1	16.1	6.08e-01	0	60	0	165150720	57	5810
2026-01-30 13:24:46.50	240.57	12.11	-42.7	-47.1	16.0	6.07e-01	0	60	0	166723584	57	5832
2026-01-30 13:24:47.51	240.76	12.16	-42.7	-47.0	16.1	6.10e-01	0	61	0	168820736	57	5765
2026-01-30 13:24:48.52	240.96	12.21	-42.7	-47.1	16.1	6.07e-01	0	61	0	170917888	57	5812
2026-01-30 13:24:49.53	241.15	12.27	-42.7	-47.0	16.1	6.08e-01	0	60	0	172490752	57	5756
2026-01-30 13:24:50.54	241.35	12.32	-42.7	-47.0	16.1	6.06e-01	0	61	0	174587904	57	5778
2026-01-30 13:24:51.55	241.55	12.37	-42.7	-47.1	16.1	6.06e-01	0	61	0	176160768	57	5826
2026-01-30 13:24:52.56	241.74	12.42	-42.8	-47.2	16.0	6.06e-01	0	61	0	178257920	57	5857
2026-01-30 13:24:53.57	241.94	12.47	-42.7	-47.0	16.1	6.04e-01	0	61	0	180355072	57	5761
2026-01-30 13:24:54.58	242.14	12.53	-42.6	-46.9	16.3	6.05e-01	0	61	0	181927936	57	5673
2026-01-30 13:24:55.59	242.34	12.58	-42.6	-46.9	16.3	6.10e-01	0	61	0	184025088	57	5673
2026-01-30 13:24:56.60	242.54	12.63	-42.7	-47.0	16.2	6.07e-01	0	61	0	185597952	57	5773
2026-01-30 13:24:57.60	242.74	12.68	-42.7	-47.0	16.1	6.07e-01	0	61	0	187695104	57	5784
2026-01-30 13:24:58.61	242.95	12.73	-42.7	-46.9	16.3	6.07e-01	0	61	0	189792256	57	5704
2026-01-30 13:24:59.62	243.15	12.78	-42.7	-46.9	16.3	6.07e-01	0	61	0	191365120	57	5707
2026-01-30 13:25:00.63	243.35	12.83	-42.7	-47.1	16.2	6.05e-01	0	61	0	193462272	57	5790
2026-01-30 13:25:01.64	243.56	12.88	-42.8	-47.1	16.1	6.06e-01	0	61	0	195035136	57	5807
2026-01-30 13:25:02.65	243.76	12.93	-42.7	-47.0	16.2	6.08e-01	0	61	0	197132288	57	5761
2026-01-30 13:25:03.66	243.97	12.98	-42.6	-46.8	16.5	6.06e-01	0	61	0	199229440	57	5594
2026-01-30 13:25:04.67	244.18	13.03	-42.6	-46.7	16.5	6.06e-01	0	61	0	200802304	57	5575
2026-01-30 13:25:05.68	244.39	13.08	-42.6	-46.8	16.4	6.07e-01	0	61	0	202899456	57	5596
2026-01-30 13:25:06.69	244.59	13.13	-42.6	-46.8	16.4	6.07e-01	0	61	0	204472320	57	5632
2026-01-30 13:25:07.70	244.80	13.18	-42.7	-46.8	16.4	6.06e-01	0	61	0	206569472	57	5650
2026-01-30 13:25:08.71	245.01	13.23	-42.7	-46.9	16.3	6.06e-01	0	61	0	208666624	57	5707
2026-01-30 13:25:09.72	245.22	13.28	-42.6	-46.8	16.5	6.09e-01	0	61	0	210239488	57	5599
2026-01-30 13:25:10.73	245.43	13.33	-42.6	-46.7	16.5	6.07e-01	0	61	0	212336640	57	5550
2026-01-30 13:25:11.74	245.65	13.38	-42.6	-46.8	16.5	6.05e-01	0	61	0	213909504	57	5594
2026-01-30 13:25:12.75	245.86	13.42	-42.6	-46.8	16.5	6.07e-01	0	61	0	216006656	57	5605
2026-01-30 13:25:13.76	246.07	13.47	-42.6	-46.8	16.5	6.05e-01	0	61	0	218103808	57	5601
2026-01-30 13:25:14.77	246.29	13.52	-42.6	-46.8	16.5	6.07e-01	0	61	0	219676672	57	5616
2026-01-30 13:25:15.78	246.50	13.57	-42.6	-46.8	16.5	6.04e-01	0	61	0	221773824	57	5623
2026-01-30 13:25:16.79	246.72	13.61	-42.7	-46.8	16.4	6.08e-01	0	61	0	223870976	57	5655
2026-01-30 13:25:17.80	246.93	13.66	-42.6	-46.8	16.5	6.06e-01	0	61	0	225443840	57	5613
2026-01-30 13:25:18.81	247.15	13.71	-42.6	-46.7	16.5	6.07e-01	0	61	0	227540992	57	5564
2026-01-30 13:25:19.82	247.37	13.75	-42.6	-46.8	16.5	6.06e-01	0	61	0	229113856	57	5604
2026-01-30 13:25:20.83	247.59	13.80	-42.7	-46.8	16.4	6.06e-01	0	61	0	231211008	57	5651
2026-01-30 13:25:21.84	247.81	13.85	-42.6	-46.7	16.5	6.08e-01	0	61	0	233308160	57	5569
2026-01-30 13:25:22.86	248.03	13.89	-42.6	-46.7	16.6	6.07e-01	0	61	0	234881024	57	5560
2026-01-30 13:25:23.87	248.25	13.94	-42.5	-46.6	16.6	6.07e-01	0	61	0	236978176	57	5490
2026-01-30 13:25:24.88	248.47	13.98	-42.6	-46.7	16.6	6.06e-01	0	61	0	239075328	57	5545
2026-01-30 13:25:25.89	248.69	14.03	-42.6	-46.7	16.5	6.07e-01	0	61	0	240648192	57	5573
2026-01-30 13:25:26.90	248.92	14.07	-42.6	-46.6	16.7	6.07e-01	0	61	0	242745344	57	5496
2026-01-30 13:25:27.91	249.14	14.11	-42.6	-46.6	16.6	6.06e-01	0	61	0	244318208	57	5526
2026-01-30 13:25:28.92	249.36	14.16	-42.6	-46.7	16.6	6.06e-01	0	61	0	246415360	57	5573
2026-01-30 13:25:29.93	249.59	14.20	-42.6	-46.7	16.6	6.05e-01	0	61	0	248512512	57	5559
2026-01-30 13:25:30.94	249.81	14.24	-42.6	-46.8	16.4	6.07e-01	0	61	0	250085376	57	5629
2026-01-30 13:25:31.95	250.04	14.29	-42.7	-46.9	16.4	6.06e-01	0	61	0	252182528	57	5684
2026-01-30 13:25:32.96	250.27	14.33	-42.7	-46.8	16.5	6.07e-01	0	61	0	253755392	57	5645
2026-01-30 13:25:33.96	250.49	14.37	-42.7	-46.8	16.4	6.04e-01	0	61	0	255852544	57	5631
2026-01-30 13:25:34.97	250.72	14.41	-42.6	-46.7	16.6	6.10e-01	0	61	0	257949696	57	5551
2026-01-30 13:25:35.98	250.95	14.45	-42.6	-46.6	16.6	6.06e-01	0	61	0	259522560	57	5524
2026-01-30 13:25:36.99	251.18	14.50	-42.5	-46.5	16.7	6.07e-01	0	61	0	261619712	57	5456
2026-01-30 13:25:38.00	251.41	14.54	-42.5	-46.5	16.7	6.08e-01	0	61	0	263716864	57	5458
2026-01-30 13:25:39.01	251.64	14.58	-42.5	-46.5	16.7	6.04e-01	0	61	0	265289728	57	5453
2026-01-30 13:25:40.02	251.87	14.62	-42.5	-46.6	16.7	6.06e-01	0	61	0	267386880	57	5484
2026-01-30 13:25:41.03	252.10	14.66	-42.5	-46.5	16.8	6.06e-01	0	61	0	268959744	57	5453
2026-01-30 13:25:42.04	252.34	14.70	-42.6	-46.6	16.8	6.06e-01	0	61	0	271056896	57	5467
2026-01-30 13:25:43.05	252.57	14.74	-42.5	-46.6	16.7	6.06e-01	0	61	0	273154048	57	5470
2026-01-30 13:25:44.06	252.80	14.77	-42.6	-46.7	16.6	6.06e-01	0	61	0	274726912	57	5570
2026-01-30 13:25:45.07	253.04	14.81	-42.6	-46.6	16.7	6.06e-01	0	61	0	276824064	57	5506
2026-01-30 13:25:46.08	253.27	14.85	-42.6	-46.6	16.7	6.07e-01	0	61	0	278396928	57	5522
2026-01-30 13:25:47.09	253.51	14.89	-42.6	-46.6	16.7	6.05e-01	0	61	0	280494080	57	5519
2026-01-30 13:25:48.10	253.74	14.93	-42.6	-46.7	16.6	6.05e-01	0	61	0	282591232	57	5537
2026-01-30 13:25:49.11	253.98	14.96	-42.5	-46.5	16.8	6.07e-01	0	61	0	284164096	57	5463
2026-01-30 13:25:50.12	254.22	15.00	-42.6	-46.7	16.6	6.05e-01	0	61	0	286261248	57	5529
2026-01-30 13:25:51.13	254.46	15.04	-42.6	-46.6	16.6	6.07e-01	0	61	0	287834112	57	5522
2026-01-30 13:25:52.14	254.70	15.07	-42.5	-46.5	16.7	6.06e-01	0	61	0	289931264	57	5446
2026-01-30 13:25:53.15	254.94	15.11	-42.5	-46.5	16.8	6.07e-01	0	61	0	292028416	57	5426
2026-01-30 13:25:54.16	255.18	15.14	-42.5	-46.5	16.8	6.07e-01	0	61	0	293601280	57	5461
2026-01-30 13:25:55.17	255.42	15.18	-42.6	-46.7	16.7	6.05e-01	0	61	0	295698432	57	5530
2026-01-30 13:25:56.18	255.66	15.21	-42.6	-46.7	16.6	6.07e-01	0	61	0	297271296	57	5588
2026-01-30 13:25:57.19	255.90	15.24	-42.6	-46.7	16.5	6.07e-01	0	61	0	299368448	57	5583
2026-01-30 13:25:58.20	256.14	15.28	-42.6	-46.7	16.7	6.03e-01	0	61	0	301465600	57	5531
2026-01-30 13:25:59.21	256.38	15.31	-42.6	-46.6	16.6	6.07e-01	0	62	0	303038464	57	5522
2026-01-30 13:26:00.22	256.63	15.34	-42.6	-46.7	16.6	6.06e-01	0	61	0	305135616	57	5547
2026-01-30 13:26:01.23	256.87	15.38	-42.5	-46.6	16.7	6.07e-01	0	61	0	307232768	57	5477
2026-01-30 13:26:02.24	257.12	15.41	-42.5	-46.4	16.9	6.05e-01	0	61	0	308805632	56	5682
2026-01-30 13:26:03.25	257.36	15.44	-42.5	-46.5	16.7	6.07e-01	0	61	0	310902784	56	5781
2026-01-30 13:26:04.26	257.61	15.47	-42.6	-46.6	16.7	6.07e-01	0	62	0	312475648	56	5811
2026-01-30 13:26:05.27	257.85	15.50	-42.6	-46.6	16.7	6.06e-01	0	61	0	314572800	56	5812
2026-01-30 13:26:06.27	258.10	15.53	-42.5	-46.5	16.7	6.06e-01	0	62	0	316669952	56	5788
2026-01-30 13:26:07.29	258.35	15.56	-42.5	-46.6	16.7	6.07e-01	0	62	0	318242816	56	5809
2026-01-30 13:26:08.29	258.59	15.59	-42.6	-46.6	16.6	6.05e-01	0	61	0	320339968	56	5854
2026-01-30 13:26:09.30	258.84	15.62	-42.6	-46.7	16.6	6.06e-01	0	62	0	321912832	56	5880
2026-01-30 13:26:10.32	259.09	15.65	-42.5	-46.5	16.7	6.07e-01	0	61	0	324009984	56	5761
2026-01-30 13:26:11.33	259.34	15.67	-42.5	-46.6	16.7	6.06e-01	0	62	0	326107136	56	5806
2026-01-30 13:26:12.34	259.59	15.70	-42.5	-46.5	16.7	6.07e-01	0	61	0	327680000	56	5784
2026-01-30 13:26:13.35	259.84	15.73	-42.5	-46.6	16.6	6.07e-01	0	62	0	329777152	56	5827
2026-01-30 13:26:14.36	260.09	15.75	-42.6	-46.6	16.6	6.07e-01	0	62	0	331874304	56	5847
2026-01-30 13:26:15.37	260.34	15.78	-42.6	-46.6	16.6	6.06e-01	0	62	0	333447168	56	5843
2026-01-30 13:26:16.38	260.59	15.81	-42.5	-46.5	16.7	6.06e-01	0	61	0	335544320	56	5761
2026-01-30 13:26:17.39	260.85	15.83	-42.5	-46.6	16.6	6.05e-01	0	61	0	337117184	56	5817
2026-01-30 13:26:18.40	261.10	15.85	-42.5	-46.6	16.5	6.08e-01	0	61	0	339214336	56	5840
2026-01-30 13:26:19.41	261.35	15.88	-42.5	-46.6	16.5	6.05e-01	0	61	0	341311488	56	5847
2026-01-30 13:26:20.42	261.60	15.90	-42.5	-46.6	16.5	6.07e-01	0	61	0	342884352	56	5847
2026-01-30 13:26:21.43	261.86	15.93	-42.5	-46.6	16.6	6.07e-01	0	61	0	344981504	56	5819
2026-01-30 13:26:22.44	262.11	15.95	-42.5	-46.5	16.6	6.07e-01	0	62	0	346554368	56	5763
2026-01-30 13:26:23.45	262.36	15.97	-42.5	-46.5	16.6	6.07e-01	0	62	0	348651520	56	5755
2026-01-30 13:26:24.46	262.62	15.99	-42.4	-46.5	16.6	6.07e-01	0	62	0	350748672	56	5754
2026-01-30 13:26:25.47	262.87	16.01	-42.5	-46.5	16.6	6.06e-01	0	62	0	352321536	56	5757
2026-01-30 13:26:26.48	263.13	16.03	-42.5	-46.6	16.6	6.08e-01	0	62	0	354418688	56	5794
2026-01-30 13:26:27.49	263.39	16.05	-42.5	-46.7	16.5	6.09e-01	0	61	0	355991552	56	5863
2026-01-30 13:26:28.50	263.64	16.07	-42.5	-46.6	16.5	6.05e-01	0	62	0	358088704	56	5822
2026-01-30 13:26:29.51	263.90	16.09	-42.5	-46.5	16.6	6.05e-01	0	62	0	360185856	56	5774
2026-01-30 13:26:30.52	264.15	16.11	-42.5	-46.7	16.4	6.05e-01	0	62	0	361758720	56	5880
2026-01-30 13:26:31.53	264.41	16.13	-42.5	-46.6	16.5	6.05e-01	0	62	0	363855872	56	5821
2026-01-30 13:26:32.54	264.67	16.15	-42.5	-46.6	16.5	6.07e-01	0	62	0	365428736	56	5829
2026-01-30 13:26:33.55	264.93	16.16	-42.5	-46.6	16.4	6.06e-01	0	62	0	367525888	56	5853
2026-01-30 13:26:34.56	265.18	16.18	-42.5	-46.7	16.4	6.08e-01	0	62	0	369623040	56	5857
2026-01-30 13:26:35.57	265.44	16.20	-42.5	-46.6	16.5	6.07e-01	0	62	0	371195904	56	5831
2026-01-30 13:26:36.58	265.70	16.21	-42.5	-46.7	16.3	6.06e-01	0	62	0	373293056	56	5913
2026-01-30 13:26:37.59	265.96	16.23	-42.5	-46.7	16.3	6.08e-01	0	62	0	375390208	56	5911
2026-01-30 13:26:38.60	266.22	16.24	-42.4	-46.6	16.5	6.06e-01	0	62	0	376963072	56	5798
2026-01-30 13:26:39.61	266.48	16.26	-42.4	-46.5	16.5	6.05e-01	0	62	0	379060224	56	5783
2026-01-30 13:26:40.62	266.74	16.27	-42.5	-46.6	16.4	6.06e-01	0	62	0	380633088	56	5845
2026-01-30 13:26:41.63	267.00	16.28	-42.5	-46.7	16.3	6.07e-01	0	62	0	382730240	56	5923
2026-01-30 13:26:42.64	267.26	16.29	-42.6	-46.8	16.2	6.06e-01	0	62	0	384827392	56	5979
2026-01-30 13:26:43.65	267.52	16.31	-42.6	-46.8	16.2	6.07e-01	0	62	0	386400256	56	5974
2026-01-30 13:26:44.66	267.78	16.32	-42.5	-46.8	16.3	6.07e-01	0	62	0	388497408	56	5941
2026-01-30 13:26:45.67	268.04	16.33	-42.6	-46.8	16.2	6.05e-01	0	62	0	390070272	56	5955
2026-01-30 13:26:46.68	268.30	16.34	-42.6	-46.8	16.2	6.04e-01	0	62	0	392167424	56	5951
2026-01-30 13:26:47.69	268.56	16.35	-42.6	-46.8	16.2	6.08e-01	0	62	0	394264576	56	5990
2026-01-30 13:26:48.70	268.82	16.36	-42.5	-46.7	16.3	6.08e-01	0	62	0	395837440	56	5908
2026-01-30 13:26:49.71	269.08	16.37	-42.5	-46.6	16.4	6.06e-01	0	62	0	397934592	56	5843
2026-01-30 13:26:50.72	269.35	16.37	-42.5	-46.7	16.4	6.08e-01	0	62	0	400031744	56	5861
2026-01-30 13:26:51.73	269.61	16.38	-42.5	-46.8	16.3	6.07e-01	0	62	0	401604608	56	5931
2026-01-30 13:26:52.74	269.87	16.39	-42.5	-46.8	16.3	6.06e-01	0	62	0	403701760	56	5926
2026-01-30 13:26:53.75	270.13	16.40	-42.5	-46.7	16.4	6.06e-01	0	62	0	405274624	56	5864
2026-01-30 13:26:54.76	270.39	16.40	-42.6	-46.8	16.2	6.05e-01	0	62	0	407371776	56	5970
2026-01-30 13:26:55.77	270.65	16.41	-42.5	-46.8	16.3	6.06e-01	0	62	0	409468928	56	5938
2026-01-30 13:26:56.78	270.92	16.41	-42.5	-46.8	16.2	6.06e-01	0	62	0	411041792	56	5955
2026-01-30 13:26:57.79	271.18	16.42	-42.6	-46.9	16.1	6.09e-01	0	62	0	413138944	56	5995
2026-01-30 13:26:58.80	271.44	16.42	-42.5	-46.7	16.3	6.06e-01	0	62	0	415236096	56	5906
2026-01-30 13:26:59.81	271.70	16.42	-42.5	-46.8	16.2	6.06e-01	0	62	0	416808960	56	5937
2026-01-30 13:27:00.82	271.97	16.43	-42.5	-46.6	16.4	6.08e-01	0	62	0	418906112	56	5819
2026-01-30 13:27:01.83	272.23	16.43	-42.4	-46.5	16.2	6.10e-01	0	62	0	420478976	56	5762
2026-01-30 13:27:02.84	272.49	16.43	-42.5	-46.6	16.4	6.08e-01	0	62	0	422576128	56	5847
2026-01-30 13:27:03.85	272.75	16.43	-42.5	-46.8	16.2	6.09e-01	0	62	0	424673280	56	5946
2026-01-30 13:27:04.86	273.01	16.43	-42.4	-46.6	16.4	6.05e-01	0	62	0	426246144	56	5843
2026-01-30 13:27:05.87	273.28	16.43	-42.4	-46.5	16.5	6.06e-01	0	62	0	428343296	56	5756
2026-01-30 13:27:06.88	273.54	16.43	-42.4	-46.6	16.4	6.06e-01	0	62	0	429916160	56	5827
2026-01-30 13:27:07.89	273.80	16.43	-42.4	-46.6	16.3	6.05e-01	0	62	0	432013312	56	5840
2026-01-30 13:27:08.90	274.06	16.43	-42.4	-46.6	16.3	6.07e-01	0	62	0	434110464	56	5831
2026-01-30 13:27:09.91	274.33	16.43	-42.4	-46.6	16.4	6.06e-01	0	62	0	435683328	56	5826
2026-01-30 13:27:10.92	274.59	16.42	-42.1	-46.7	16.2	6.07e-01	0	62	0	437780480	56	5887
2026-01-30 13:27:11.93	274.85	16.42	-42.1	-46.8	16.1	6.05e-01	0	62	0	439353344	56	5958
2026-01-30 13:27:12.94	275.11	16.42	-42.1	-47.0	15.9	6.06e-01	0	62	0	441450496	56	6077
2026-01-30 13:27:13.95	275.38	16.41	-42.1	-46.9	16.0	6.06e-01	0	62	0	443547648	56	6009
2026-01-30 13:27:14.96	275.64	16.41	-42.1	-46.9	15.9	6.07e-01	0	62	0	445120512	56	6041
2026-01-30 13:27:15.97	275.90	16.40	-42.0	-46.8	16.0	6.04e-01	0	62	0	447217664	56	5951
2026-01-30 13:27:16.98	276.16	16.39	-41.8	-46.6	16.1	6.09e-01	0	62	0	448790528	55	6182
2026-01-30 13:27:17.99	276.42	16.39	-41.7	-46.5	16.2	6.08e-01	0	62	0	450887680	55	6087
2026-01-30 13:27:19.00	276.68	16.38	-41.7	-46.6	16.1	6.06e-01	0	62	0	452984832	55	6202
2026-01-30 13:27:20.00	276.94	16.37	-41.7	-46.7	16.0	6.08e-01	0	62	0	454557696	55	6241
2026-01-30 13:27:21.01	277.20	16.37	-41.7	-46.6	16.1	6.06e-01	0	62	0	456654848	55	6183
2026-01-30 13:27:22.02	277.46	16.36	-41.7	-46.5	16.2	6.05e-01	0	62	0	458227712	55	6121
2026-01-30 13:27:23.03	277.73	16.35	-42.3	-46.5	16.3	6.07e-01	0	62	0	460324864	55	6089
2026-01-30 13:27:24.04	277.99	16.34	-42.3	-46.6	16.3	6.07e-01	0	62	0	462422016	55	6134
2026-01-30 13:27:25.05	278.25	16.33	-42.3	-46.6	16.2	6.08e-01	0	62	0	463994880	55	6174
2026-01-30 13:27:26.06	278.51	16.32	-42.3	-46.5	16.3	6.03e-01	0	62	0	466092032	55	6113
2026-01-30 13:27:27.07	278.77	16.30	-42.3	-46.5	16.2	6.06e-01	0	62	0	468189184	55	6131
2026-01-30 13:27:28.08	279.03	16.29	-42.3	-46.5	16.3	6.07e-01	0	62	0	469762048	55	6131
2026-01-30 13:27:29.09	279.29	16.28	-42.4	-46.8	16.0	6.04e-01	0	62	0	471859200	55	6282
2026-01-30 13:27:30.10	279.55	16.27	-42.3	-46.6	16.1	6.07e-01	0	62	0	473432064	55	6170
2026-01-30 13:27:31.11	279.80	16.25	-42.2	-46.4	16.4	6.05e-01	0	62	0	475529216	55	6016
2026-01-30 13:27:32.12	280.06	16.24	-42.3	-46.5	16.3	6.05e-01	0	62	0	477626368	55	6067
2026-01-30 13:27:33.13	280.32	16.23	-42.4	-46.7	16.0	6.05e-01	0	62	0	479199232	55	6251
2026-01-30 13:27:34.14	280.58	16.21	-42.3	-46.7	16.1	6.08e-01	0	62	0	481296384	55	6222
2026-01-30 13:27:35.15	280.84	16.19	-42.3	-46.7	16.1	6.07e-01	0	62	0	482869248	55	6217
2026-01-30 13:27:36.16	281.10	16.18	-42.3	-46.7	16.0	6.08e-01	0	62	0	484966400	55	6255
2026-01-30 13:27:37.17	281.35	16.16	-42.3	-46.7	16.0	6.07e-01	0	62	0	487063552	55	6237
2026-01-30 13:27:38.18	281.61	16.14	-42.3	-46.6	16.1	6.08e-01	0	62	0	488636416	55	6186
2026-01-30 13:27:39.19	281.87	16.13	-42.4	-46.7	16.0	6.07e-01	0	62	0	490733568	55	6260
2026-01-30 13:27:40.20	282.12	16.11	-42.4	-46.8	15.9	6.07e-01	0	62	0	492830720	55	6338
2026-01-30 13:27:41.21	282.38	16.09	-42.4	-46.8	16.0	6.07e-01	0	62	0	494403584	55	6276
2026-01-30 13:27:42.22	282.64	16.07	-42.3	-46.5	16.2	6.06e-01	0	62	0	496500736	55	6125
2026-01-30 13:27:43.23	282.89	16.05	-42.2	-46.5	16.2	6.06e-01	0	62	0	498073600	55	6076
2026-01-30 13:27:44.24	283.15	16.03	-42.3	-46.6	16.1	6.06e-01	0	62	0	500170752	55	6185
2026-01-30 13:27:45.25	283.40	16.01	-42.3	-46.7	16.0	6.04e-01	0	62	0	502267904	55	6248
2026-01-30 13:27:46.26	283.66	15.99	-42.3	-46.7	16.0	6.05e-01	0	62	0	503840768	55	6231
2026-01-30 13:27:47.27	283.91	15.97	-42.3	-46.7	15.9	6.07e-01	0	62	0	505937920	55	6247
2026-01-30 13:27:48.28	284.16	15.95	-42.3	-46.7	16.0	6.07e-01	0	62	0	507510784	55	6214
2026-01-30 13:27:49.29	284.42	15.92	-42.2	-46.6	16.1	6.08e-01	0	62	0	509607936	55	6172
2026-01-30 13:27:50.30	284.67	15.90	-42.3	-46.7	15.9	6.07e-01	0	62	0	511705088	55	6228
2026-01-30 13:27:51.31	284.92	15.88	-42.3	-46.7	15.9	6.07e-01	0	62	0	513277952	55	6243
2026-01-30 13:27:52.32	285.17	15.85	-42.2	-46.6	16.0	6.07e-01	0	62	0	515375104	55	6194
2026-01-30 13:27:53.33	285.42	15.83	-42.3	-46.8	15.8	6.08e-01	0	62	0	516947968	55	6313
2026-01-30 13:27:54.34	285.68	15.80	-42.3	-46.8	15.8	6.07e-01	0	62	0	519045120	55	6301
2026-01-30 13:27:55.35	285.93	15.78	-42.3	-46.7	15.9	6.07e-01	0	62	0	521142272	55	6245
2026-01-30 13:27:56.36	286.18	15.75	-42.2	-46.5	16.1	6.09e-01	0	62	0	522715136	55	6119
2026-01-30 13:27:57.38	286.43	15.72	-42.1	-46.4	16.2	6.06e-01	0	62	0	524812288	55	5997
2026-01-30 13:27:58.39	286.68	15.70	-42.1	-46.4	16.2	6.05e-01	0	62	0	526385152	55	6020
2026-01-30 13:27:59.40	286.93	15.67	-42.1	-46.4	16.1	6.10e-01	0	62	0	528482304	55	6051
2026-01-30 13:28:00.40	287.17	15.64	-42.1	-46.4	16.2	6.09e-01	0	62	0	530579456	55	6014
2026-01-30 13:28:01.41	287.42	15.62	-42.1	-46.5	16.1	6.06e-01	0	62	0	532152320	55	6068
2026-01-30 13:28:02.42	287.67	15.59	-42.1	-46.4	16.1	6.04e-01	0	62	0	534249472	55	6050
2026-01-30 13:28:03.43	287.91	15.56	-42.1	-46.4	16.1	6.10e-01	0	62	0	536346624	55	6037
2026-01-30 13:28:04.44	288.16	15.53	-42.1	-46.4	16.1	6.08e-01	0	62	0	537919488	55	6047
2026-01-30 13:28:05.45	288.41	15.50	-42.1	-46.4	16.1	6.06e-01	0	62	0	540016640	55	5993
2026-01-30 13:28:06.47	288.65	15.47	-42.1	-46.4	16.2	6.06e-01	0	62	0	541589504	55	6003
2026-01-30 13:28:07.48	288.90	15.44	-42.1	-46.5	16.0	6.05e-01	0	62	0	543686656	55	6115
2026-01-30 13:28:08.49	289.14	15.41	-42.1	-46.5	16.0	6.08e-01	0	62	0	545783808	55	6066
2026-01-30 13:28:09.50	289.39	15.37	-42.0	-46.3	16.2	6.06e-01	0	62	0	547356672	55	5966
2026-01-30 13:28:10.51	289.63	15.34	-42.1	-46.4	16.1	6.06e-01	0	62	0	549453824	55	6009
2026-01-30 13:28:11.52	289.87	15.31	-42.0	-46.3	16.2	6.04e-01	0	62	0	551026688	55	5949
2026-01-30 13:28:12.53	290.11	15.28	-42.0	-46.4	16.1	6.09e-01	0	62	0	553123840	55	6000
2026-01-30 13:28:13.54	290.35	15.24	-42.2	-46.6	15.8	6.07e-01	0	62	0	555220992	55	6202
2026-01-30 13:28:14.55	290.60	15.21	-42.2	-46.7	15.7	6.05e-01	0	62	0	556793856	55	6265
2026-01-30 13:28:15.56	290.84	15.18	-42.2	-46.8	15.6	6.07e-01	0	62	0	558891008	55	6298
2026-01-30 13:28:16.57	291.08	15.14	-42.2	-46.8	15.5	6.07e-01	0	62	0	560988160	55	6321
2026-01-30 13:28:17.58	291.31	15.11	-42.2	-46.8	15.5	6.09e-01	0	62	0	562561024	55	6336
2026-01-30 13:28:18.59	291.55	15.07	-42.1	-46.7	15.6	6.08e-01	0	62	0	564658176	55	6227
2026-01-30 13:28:19.60	291.79	15.04	-42.0	-46.6	15.7	6.07e-01	0	62	0	566231040	55	6144
2026-01-30 13:28:20.61	292.03	15.00	-42.0	-46.4	15.8	6.07e-01	0	62	0	568328192	55	6048
2026-01-30 13:28:21.62	292.26	14.96	-42.0	-46.5	15.8	6.07e-01	0	62	0	570425344	55	6105
2026-01-30 13:28:22.64	292.50	14.93	-42.1	-46.7	15.6	6.07e-01	0	62	0	571998208	55	6220
2026-01-30 13:28:23.64	292.74	14.89	-42.2	-46.8	15.5	6.06e-01	0	62	0	574095360	55	6323
2026-01-30 13:28:24.66	292.97	14.85	-42.2	-46.8	15.5	6.07e-01	0	62	0	576192512	55	6331
2026-01-30 13:28:25.67	293.21	14.81	-42.2	-46.8	15.6	6.06e-01	0	62	0	577765376	55	6303
2026-01-30 13:28:26.68	293.44	14.78	-42.2	-46.9	15.5	6.07e-01	0	62	0	579862528	55	6350
2026-01-30 13:28:27.69	293.67	14.74	-42.2	-46.9	15.5	6.09e-01	0	62	0	581435392	55	6371
2026-01-30 13:28:28.70	293.91	14.70	-42.3	-47.0	15.4	6.07e-01	0	62	0	583532544	55	6443
2026-01-30 13:28:29.71	294.14	14.66	-42.3	-47.1	15.3	6.07e-01	0	62	0	585629696	55	6538
2026-01-30 13:28:30.72	294.37	14.62	-42.3	-47.2	15.2	6.09e-01	0	62	0	587202560	55	6576
2026-01-30 13:28:31.73	294.60	14.58	-42.3	-47.1	15.3	6.08e-01	0	62	0	589299712	55	6548
2026-01-30 13:28:32.74	294.83	14.54	-42.4	-47.2	15.2	6.07e-01	0	62	0	590872576	55	6576
2026-01-30 13:28:33.75	295.06	14.50	-42.4	-47.3	15.1	6.07e-01	0	62	0	592969728	55	6667
2026-01-30 13:28:34.76	295.28	14.46	-42.4	-47.1	15.3	6.04e-01	0	62	0	595066880	55	6565
2026-01-30 13:28:35.77	295.51	14.42	-42.3	-47.1	15.3	6.07e-01	0	62	0	596639744	55	6520
2026-01-30 13:28:36.78	295.74	14.37	-42.3	-47.0	15.4	6.06e-01	0	62	0	598736896	55	6467
2026-01-30 13:28:37.78	295.96	14.33	-42.3	-47.1	15.3	6.06e-01	0	62	0	600309760	55	6496
2026-01-30 13:28:38.80	296.19	14.29	-42.3	-47.0	15.4	6.08e-01	0	62	0	602406912	55	6478
2026-01-30 13:28:39.80	296.41	14.25	-42.4	-47.1	15.4	6.07e-01	0	62	0	604504064	55	6519
2026-01-30 13:28:40.81	296.64	14.21	-42.4	-47.1	15.3	6.07e-01	0	62	0	606076928	55	6561
2026-01-30 13:28:41.83	296.86	14.16	-42.4	-47.1	15.4	6.06e-01	0	62	0	608174080	55	6514
2026-01-30 13:28:42.84	297.09	14.12	-42.4	-47.0	15.5	6.06e-01	0	62	0	609746944	55	6461
2026-01-30 13:28:43.84	297.31	14.08	-42.4	-47.1	15.5	6.05e-01	0	62	0	611844096	55	6515
2026-01-30 13:28:44.85	297.53	14.03	-42.4	-46.9	15.6	6.09e-01	0	62	0	613941248	55	6415
2026-01-30 13:28:45.86	297.75	13.99	-42.4	-46.9	15.6	6.07e-01	0	62	0	615514112	55	6399
2026-01-30 13:28:46.87	297.97	13.94	-42.3	-46.8	15.8	6.06e-01	0	62	0	617611264	55	6331
2026-01-30 13:28:47.88	298.19	13.90	-42.5	-56.1	3.9	7.43e-01	0	62	104	618135552	55	18375
2026-01-30 13:28:48.89	298.41	13.85	-42.5	-56.0	3.8	7.41e-01	0	62	104	618135552	55	18237
2026-01-30 13:28:49.90	298.63	13.81	-43.3	-57.7	3.8	7.45e-01	0	62	104	618135552	57	19683
2026-01-30 13:28:50.91	298.84	13.76	-43.2	-57.5	3.8	7.47e-01	0	62	104	618135552	57	19251
2026-01-30 13:28:51.92	299.06	13.72	-44.5	-62.4	3.7	7.47e-01	0	62	104	618135552	60	28516
2026-01-30 13:28:52.93	299.28	13.67	-43.8	-59.0	3.8	7.47e-01	0	62	104	618135552	58	21654
2026-01-30 13:28:53.94	299.49	13.62	-44.7	-62.1	3.9	7.46e-01	0	62	104	618135552	60	27682
2026-01-30 13:28:54.95	299.71	13.58	-42.7	-56.3	3.8	7.48e-01	0	62	104	618135552	57	16870
2026-01-30 13:28:55.96	299.92	13.53	-42.6	-56.2	3.8	7.47e-01	0	62	104	618135552	57	16693
2026-01-30 13:28:56.97	300.13	13.48	-42.6	-56.2	3.8	7.42e-01	0	62	104	618135552	57	16549
2026-01-30 13:28:57.98	300.34	13.43	-44.0	-59.7	3.8	7.46e-01	0	62	104	618135552	58	23474
2026-01-30 13:28:59.00	300.56	13.39	-43.3	-57.5	3.8	7.40e-01	0	62	104	618135552	58	18134
2026-01-30 13:29:00.00	300.77	13.34	-44.5	-62.0	3.8	7.45e-01	0	62	104	618135552	60	27165
2026-01-30 13:29:01.01	300.98	13.29	-43.9	-59.4	3.7	7.44e-01	0	62	104	618135552	58	22568
2026-01-30 13:29:02.02	301.19	13.24	-44.8	-62.9	3.8	7.45e-01	0	62	104	618135552	60	30056
2026-01-30 13:29:03.03	301.40	13.19	-42.7	-56.2	4.1	7.34e-01	0	62	104	618135552	57	16584
2026-01-30 13:29:04.04	301.60	13.15	-42.6	-56.1	3.8	7.47e-01	0	62	104	618135552	57	16395
2026-01-30 13:29:05.05	301.81	13.10	-42.5	-55.9	3.8	7.43e-01	0	62	104	618135552	57	16120
2026-01-30 13:29:06.06	302.02	13.05	-44.1	-60.2	3.8	7.42e-01	0	62	104	618135552	58	24824
2026-01-30 13:29:07.07	302.22	13.00	-43.2	-57.1	3.9	7.41e-01	0	62	104	618135552	58	17479
2026-01-30 13:29:08.08	302.43	12.95	-44.5	-62.1	3.8	7.44e-01	0	62	104	618135552	60	27390
2026-01-30 13:29:09.10	302.63	12.90	-43.7	-58.9	3.8	7.40e-01	0	62	104	618135552	58	21462
2026-01-30 13:29:10.10	302.84	12.85	-44.7	-62.8	3.8	7.49e-01	0	62	104	618135552	60	29772
2026-01-30 13:29:11.12	303.04	12.80	-42.7	-56.4	3.8	7.43e-01	0	62	104	618135552	57	17007
2026-01-30 13:29:12.12	303.24	12.75	-42.6	-56.2	3.8	7.43e-01	0	62	104	618135552	57	16613
2026-01-30 13:29:13.14	303.44	12.70	-42.6	-56.1	3.8	7.46e-01	0	62	104	618135552	57	16454
2026-01-30 13:29:14.14	303.64	12.65	-44.1	-60.1	3.8	7.46e-01	0	62	104	618135552	58	24611
2026-01-30 13:29:15.16	303.85	12.59	-43.0	-57.0	3.8	7.44e-01	0	62	104	618135552	58	17119
2026-01-30 13:29:16.17	304.04	12.54	-44.5	-62.0	3.8	7.42e-01	0	62	104	618135552	60	27344
2026-01-30 13:29:17.18	304.24	12.49	-43.6	-58.7	3.9	7.45e-01	0	62	104	618135552	58	20892
2026-01-30 13:29:18.19	304.44	12.44	-44.7	-62.6	3.8	7.47e-01	0	62	104	618135552	60	29174
2026-01-30 13:29:19.20	304.64	12.39	-42.7	-56.3	3.8	7.45e-01	0	62	104	618135552	57	16813
2026-01-30 13:29:20.21	304.83	12.34	-42.7	-56.4	3.8	7.44e-01	0	62	104	618135552	57	16894
2026-01-30 13:29:21.22	305.03	12.29	-42.6	-56.4	3.8	7.42e-01	0	62	104	618135552	57	16890
2026-01-30 13:29:22.23	305.22	12.23	-43.4	-58.3	3.8	7.40e-01	0	62	104	618135552	57	21197
2026-01-30 13:29:23.24	305.42	12.18	-42.9	-56.9	3.8	7.45e-01	0	62	104	618135552	57	17892
2026-01-30 13:29:24.25	305.61	12.13	-44.6	-62.1	3.8	7.44e-01	0	62	104	618135552	59	29123
2026-01-30 13:29:25.26	305.81	12.08	-43.3	-58.0	3.9	7.42e-01	0	62	104	618135552	58	19206
2026-01-30 13:29:26.27	306.00	12.02	-44.6	-62.3	3.8	7.44e-01	0	62	104	618135552	60	28325
2026-01-30 13:29:27.28	306.19	11.97	-42.7	-56.4	3.8	7.46e-01	0	62	104	618135552	57	16910
2026-01-30 13:29:28.29	306.38	11.92	-42.6	-56.3	3.8	7.45e-01	0	62	104	618135552	57	16729
2026-01-30 13:29:29.31	306.57	11.86	-42.7	-56.4	3.8	7.43e-01	0	62	104	618135552	57	17078
2026-01-30 13:29:30.32	306.76	11.81	-43.8	-59.4	3.9	7.44e-01	0	62	104	618135552	58	22581
2026-01-30 13:29:31.33	306.95	11.76	-42.7	-56.6	3.8	7.44e-01	0	62	104	618135552	57	17329
2026-01-30 13:29:32.33	307.13	11.70	-44.5	-61.7	3.8	7.44e-01	0	62	104	618135552	59	27992
2026-01-30 13:29:33.35	307.32	11.65	-42.8	-56.9	3.9	7.42e-01	0	62	104	618135552	57	17984
2026-01-30 13:29:34.36	307.51	11.60	-44.3	-61.4	3.9	7.44e-01	0	62	104	618135552	60	25527
2026-01-30 13:29:35.37	307.69	11.54	-42.7	-56.5	3.8	7.43e-01	0	62	104	618135552	57	17115
2026-01-30 13:29:36.38	307.88	11.49	-42.6	-56.4	3.8	7.43e-01	0	62	104	618135552	57	16931
2026-01-30 13:29:37.39	308.06	11.43	-42.8	-56.6	3.8	7.46e-01	0	62	104	618135552	57	17397
2026-01-30 13:29:38.40	308.25	11.38	-43.5	-58.6	3.9	7.39e-01	0	62	104	618135552	58	20658
2026-01-30 13:29:39.41	308.43	11.32	-42.8	-56.6	3.8	7.45e-01	0	62	104	618135552	57	17466
2026-01-30 13:29:40.42	308.61	11.27	-44.1	-60.5	3.9	7.42e-01	0	62	104	618135552	59	24141
2026-01-30 13:29:41.43	308.79	11.22	-42.7	-56.5	3.8	7.43e-01	0	62	104	618135552	57	17254
2026-01-30 13:29:42.43	308.97	11.16	-44.1	-60.6	3.9	7.42e-01	0	62	104	618135552	60	23283
2026-01-30 13:29:43.44	309.15	11.11	-42.7	-56.5	3.8	7.41e-01	0	62	104	618135552	57	17195
2026-01-30 13:29:44.45	309.33	11.05	-42.6	-56.4	3.8	7.42e-01	0	62	104	618135552	57	17059
2026-01-30 13:29:45.46	309.51	11.00	-42.8	-56.7	3.8	7.47e-01	0	62	104	618135552	57	17632
2026-01-30 13:29:46.47	309.69	10.94	-43.3	-58.1	3.8	7.44e-01	0	62	104	618135552	58	19465
2026-01-30 13:29:47.48	309.86	10.89	-42.9	-57.0	3.8	7.44e-01	0	62	104	618135552	57	18101
2026-01-30 13:29:48.49	310.04	10.83	-43.9	-60.0	3.9	7.41e-01	0	62	104	618135552	59	23019
2026-01-30 13:29:49.50	310.21	10.78	-42.8	-56.8	3.8	7.47e-01	0	62	104	618135552	57	17792
2026-01-30 13:29:50.51	310.39	10.72	-43.9	-59.6	3.8	7.44e-01	0	62	104	618135552	59	21781
2026-01-30 13:29:51.52	310.56	10.66	-42.8	-56.7	3.8	7.41e-01	0	62	104	618135552	57	17652
2026-01-30 13:29:52.53	310.74	10.61	-42.7	-56.6	3.8	7.43e-01	0	62	104	618135552	57	17434
2026-01-30 13:29:53.54	310.91	10.55	-42.8	-57.0	3.8	7.48e-01	0	62	104	618135552	57	18208
2026-01-30 13:29:54.55	311.08	10.50	-43.1	-57.6	3.8	7.44e-01	0	62	104	618135552	57	19610
2026-01-30 13:29:55.56	311.25	10.44	-43.4	-58.2	3.8	7.47e-01	0	62	104	618135552	57	21002
2026-01-30 13:29:56.57	311.42	10.39	-43.4	-58.5	3.9	7.42e-01	0	62	104	618135552	58	20399
2026-01-30 13:29:57.58	311.59	10.33	-43.1	-57.3	3.8	7.44e-01	0	62	104	618135552	57	18822
2026-01-30 13:29:58.59	311.76	10.27	-43.6	-58.8	3.9	7.47e-01	0	62	104	618135552	59	19956
2026-01-30 13:29:59.59	311.93	10.22	-42.7	-56.7	3.8	7.44e-01	0	62	104	618135552	57	17551
2026-01-30 13:30:00.60	312.10	10.16	-42.7	-56.7	3.8	7.46e-01	0	62	104	618135552	57	17535
2026-01-30 13:30:01.61	312.26	10.11	-43.0	-57.6	3.8	7.46e-01	0	62	104	618135552	57	19400
2026-01-30 13:30:02.62	312.43	10.05	-43.0	-57.4	3.8	7.48e-01	0	62	104	618135552	57	19002
2026-01-30 13:30:03.63	312.60	9.99	-43.8	-59.6	3.8	7.49e-01	0	62	104	618135552	58	23124
2026-01-30 13:30:04.64	312.76	9.94	-43.2	-58.1	3.8	7.44e-01	0	62	104	618135552	58	19468
2026-01-30 13:30:05.65	312.93	9.88	-43.8	-59.4	3.8	7.46e-01	0	62	104	618135552	58	22658
2026-01-30 13:30:06.66	313.09	9.82	-43.2	-57.7	3.9	7.44e-01	0	62	104	618135552	58	18660
2026-01-30 13:30:07.67	313.25	9.77	-42.7	-56.7	3.8	7.44e-01	0	62	104	618135552	57	17542
2026-01-30 13:30:08.68	313.42	9.71	-42.7	-56.7	3.8	7.41e-01	0	62	104	618135552	57	17620
2026-01-30 13:30:09.69	313.58	9.65	-43.0	-57.5	3.8	7.48e-01	0	62	104	618135552	57	19256
2026-01-30 13:30:10.70	313.74	9.60	-43.0	-57.3	3.8	7.45e-01	0	62	104	618135552	57	18779
2026-01-30 13:30:11.71	313.90	9.54	-44.1	-60.5	3.8	7.48e-01	0	62	104	618135552	58	25610
2026-01-30 13:30:12.72	314.06	9.48	-43.2	-58.2	3.8	7.45e-01	0	62	104	618135552	58	19707
2026-01-30 13:30:13.73	314.22	9.43	-44.0	-59.9	3.7	7.49e-01	0	62	104	618135552	58	24046
2026-01-30 13:30:14.74	314.38	9.37	-43.1	-57.6	3.9	7.44e-01	0	62	104	618135552	58	18459
2026-01-30 13:30:15.75	314.54	9.31	-42.8	-56.9	3.8	7.43e-01	0	62	104	618135552	57	18085
2026-01-30 13:30:16.76	314.69	9.26	-42.8	-57.1	3.8	7.47e-01	0	62	104	618135552	57	18416
2026-01-30 13:30:17.77	314.85	9.20	-43.1	-58.0	3.8	7.46e-01	0	62	104	618135552	57	20537
2026-01-30 13:30:18.78	315.01	9.14	-43.1	-57.7	3.8	7.47e-01	0	62	104	618135552	57	19667
2026-01-30 13:30:19.79	315.16	9.09	-44.3	-61.4	3.8	7.46e-01	0	62	104	618135552	59	27061
2026-01-30 13:30:20.80	315.32	9.03	-43.4	-58.9	3.8	7.46e-01	0	62	104	618135552	58	21290
2026-01-30 13:30:21.81	315.47	8.97	-44.5	-61.9	3.8	7.50e-01	0	62	104	618135552	59	28369
2026-01-30 13:30:22.82	315.62	8.91	-42.9	-57.2	3.8	7.44e-01	0	62	104	618135552	57	18639
2026-01-30 13:30:23.83	315.78	8.86	-42.7	-56.8	3.8	7.43e-01	0	62	104	618135552	57	17744
2026-01-30 13:30:24.84	315.93	8.80	-42.7	-56.7	3.8	7.46e-01	0	62	104	618135552	57	17588
2026-01-30 13:30:25.85	316.08	8.74	-43.8	-60.2	3.8	7.47e-01	0	62	104	618135552	58	24827
2026-01-30 13:30:26.86	316.23	8.69	-43.1	-57.6	3.8	7.47e-01	0	62	104	618135552	58	18446
2026-01-30 13:30:27.87	316.38	8.63	-44.4	-62.0	3.8	7.44e-01	0	62	104	618135552	59	28899
2026-01-30 13:30:28.88	316.53	8.57	-43.6	-59.2	3.8	7.45e-01	0	62	104	618135552	58	22147
2026-01-30 13:30:29.89	316.68	8.51	-44.6	-62.2	3.8	7.46e-01	0	62	104	618135552	59	29678
2026-01-30 13:30:30.90	316.83	8.46	-42.9	-57.2	3.8	7.42e-01	0	62	104	618135552	57	18526
2026-01-30 13:30:31.91	316.98	8.40	-42.8	-57.0	3.8	7.43e-01	0	62	104	618135552	57	18183
2026-01-30 13:30:32.92	317.12	8.34	-42.8	-57.0	3.8	7.45e-01	0	62	104	618135552	57	18233
2026-01-30 13:30:33.93	317.27	8.29	-43.9	-60.5	3.8	7.47e-01	0	62	104	618135552	58	25801
2026-01-30 13:30:34.94	317.42	8.23	-37.6	-57.2	3.8	7.57e-01	0	62	104	618135552	46	35252
2026-01-30 13:30:35.95	317.56	8.17	-39.4	-62.2	3.9	7.46e-01	0	62	104	618135552	51	46582
2026-01-30 13:30:36.96	317.71	8.11	-33.4	-58.8	3.9	7.47e-01	0	62	104	618135552	39	63046
2026-01-30 13:30:37.97	317.85	8.06	-38.4	-62.9	3.8	7.51e-01	0	62	104	618135552	49	56781
2026-01-30 13:30:38.98	318.00	8.00	-41.1	-63.8	3.8	7.42e-01	0	62	104	618135552	52	53044
2026-01-30 13:30:39.99	318.14	7.94	-41.9	-64.1	3.9	7.44e-01	0	62	104	618135552	53	51839
2026-01-30 13:30:41.00	318.28	7.89	-43.1	-64.7	3.9	7.43e-01	0	62	104	618135552	56	46583
2026-01-30 13:30:42.02	318.42	7.83	-37.0	-63.1	3.8	7.64e-01	0	62	104	618135552	47	65534
2026-01-30 13:30:43.03	318.57	7.77	-28.2	-54.1	3.3	7.84e-01	0	62	104	618135552	29	65535
2026-01-30 13:30:44.04	318.71	7.71	-37.3	-61.6	3.2	7.76e-01	0	62	104	618135552	44	65535
2026-01-30 13:30:45.05	318.85	7.66	-40.6	-64.1	4.0	7.49e-01	0	62	104	618135552	51	58194
2026-01-30 13:30:46.06	318.99	7.60	-42.0	-64.3	3.8	7.53e-01	0	62	104	618135552	53	52960
2026-01-30 13:30:47.07	319.12	7.54	-43.4	-66.1	3.9	7.39e-01	0	62	104	618135552	56	54788
2026-01-30 13:30:48.08	319.26	7.48	-41.9	-65.2	3.8	7.49e-01	0	62	104	618135552	56	49778
2026-01-30 13:30:49.09	319.40	7.43	-41.9	-65.0	3.9	7.44e-01	0	62	104	618135552	56	48394
2026-01-30 13:30:50.10	319.54	7.37	-44.8	-64.9	4.1	7.45e-01	0	62	104	618135552	60	37875
2026-01-30 13:30:51.11	319.68	7.31	-46.1	-64.9	3.8	7.47e-01	0	62	104	618135552	62	33736
2026-01-30 13:30:52.12	319.81	7.26	-46.1	-64.8	3.8	7.48e-01	0	62	104	618135552	62	33555
2026-01-30 13:30:53.13	319.95	7.20	-46.2	-64.9	3.8	7.47e-01	0	62	104	618135552	62	33741
2026-01-30 13:30:54.14	320.08	7.14	-46.1	-64.8	3.8	7.46e-01	0	62	104	618135552	62	33453
2026-01-30 13:30:55.15	320.22	7.09	-46.1	-64.8	3.8	7.46e-01	0	62	104	618135552	62	33450
2026-01-30 13:30:56.16	320.35	7.03	-46.1	-64.8	3.8	7.46e-01	0	62	104	618135552	62	33440
2026-01-30 13:30:57.17	320.48	6.97	-46.1	-64.8	3.8	7.42e-01	0	62	104	618135552	62	33398
2026-01-30 13:30:58.18	320.62	6.91	-46.1	-64.8	3.8	7.43e-01	0	62	104	618135552	62	33444
2026-01-30 13:30:59.19	320.75	6.86	-46.1	-64.8	3.8	7.49e-01	0	62	104	618135552	62	33322
2026-01-30 13:31:00.20	320.88	6.80	-46.1	-64.8	3.8	7.44e-01	0	62	104	618135552	62	33388
2026-01-30 13:31:01.21	321.01	6.74	-46.1	-64.8	3.8	7.44e-01	0	62	104	618135552	62	33383
2026-01-30 13:31:02.22	321.14	6.69	-46.1	-64.8	3.8	7.48e-01	0	62	104	618135552	62	33346
2026-01-30 13:31:03.23	321.27	6.63	-46.1	-64.7	3.8	7.47e-01	0	62	104	618135552	62	33301
2026-01-30 13:31:04.24	321.40	6.57	-46.1	-64.7	3.8	7.41e-01	0	62	104	618135552	62	33306
2026-01-30 13:31:05.25	321.53	6.52	-46.1	-64.7	3.8	7.47e-01	0	62	104	618135552	62	33236
2026-01-30 13:31:06.27	321.66	6.46	-46.1	-64.8	3.8	7.48e-01	0	62	104	618135552	62	33338
2026-01-30 13:31:07.28	321.79	6.40	-46.1	-64.7	3.8	7.41e-01	0	62	104	618135552	62	33307
2026-01-30 13:31:08.29	321.92	6.35	-46.1	-64.8	3.8	7.46e-01	0	62	104	618135552	62	33345
2026-01-30 13:31:09.30	322.04	6.29	-46.1	-64.7	3.8	7.44e-01	0	62	104	618135552	62	33303
2026-01-30 13:31:10.31	322.17	6.23	-46.1	-64.8	3.8	7.46e-01	0	62	104	618135552	62	33323
2026-01-30 13:31:11.32	322.30	6.18	-46.1	-64.8	3.8	7.46e-01	0	62	104	618135552	62	33322
2026-01-30 13:31:12.33	322.42	6.12	-46.1	-64.8	3.8	7.48e-01	0	62	104	618135552	62	33362
2026-01-30 13:31:13.33	322.54	6.06	-46.1	-64.8	3.8	7.43e-01	0	62	104	618135552	62	33397
2026-01-30 13:31:14.35	322.67	6.01	-46.1	-64.8	3.8	7.44e-01	0	62	104	618135552	62	33330
2026-01-30 13:31:15.36	322.79	5.95	-46.1	-64.7	3.8	7.46e-01	0	62	104	618135552	62	33305
2026-01-30 13:31:16.37	322.92	5.89	-46.1	-64.8	3.8	7.48e-01	0	62	104	618135552	62	33322
2026-01-30 13:31:17.38	323.04	5.84	-46.1	-64.8	3.8	7.46e-01	0	62	104	618135552	62	33315
2026-01-30 13:31:18.39	323.16	5.78	-46.1	-64.7	3.8	7.46e-01	0	62	104	618135552	62	33301
2026-01-30 13:31:19.40	323.28	5.72	-46.1	-64.7	3.8	7.45e-01	0	62	104	618135552	62	33293
2026-01-30 13:31:20.41	323.41	5.67	-46.1	-64.7	3.8	7.45e-01	0	62	104	618135552	62	33299
2026-01-30 13:31:21.42	323.53	5.61	-46.0	-64.8	3.8	7.44e-01	0	62	104	618135552	62	33314
2026-01-30 13:31:22.43	323.65	5.55	-46.1	-64.8	3.8	7.42e-01	0	62	104	618135552	62	33330
2026-01-30 13:31:23.44	323.77	5.50	-46.0	-64.7	3.8	7.44e-01	0	62	104	618135552	62	33261
2026-01-30 13:31:24.45	323.89	5.44	-46.0	-64.8	3.8	7.45e-01	0	62	104	618135552	62	33338
2026-01-30 13:31:25.46	324.01	5.39	-46.0	-64.7	3.8	7.46e-01	0	62	104	618135552	62	33279
2026-01-30 13:31:26.47	324.12	5.33	-46.0	-64.7	3.8	7.46e-01	0	62	104	618135552	62	33281
2026-01-30 13:31:27.48	324.24	5.27	-46.0	-64.7	3.8	7.47e-01	0	62	104	618135552	62	33297
2026-01-30 13:31:28.49	324.36	5.22	-46.1	-64.8	3.8	7.48e-01	0	62	104	618135552	62	33355
2026-01-30 13:31:29.50	324.48	5.16	-45.9	-64.7	3.8	7.44e-01	0	62	104	618135552	62	33285
2026-01-30 13:31:30.51	324.59	5.11	-45.6	-64.7	3.8	7.42e-01	0	62	104	618135552	62	33177
2026-01-30 13:31:31.52	324.71	5.05	-46.1	-64.7	3.8	7.48e-01	0	62	104	618135552	62	33211
2026-01-30 13:31:32.53	324.82	4.99	-46.0	-64.7	3.8	7.46e-01	0	62	104	618135552	62	33266
2026-01-30 13:31:33.55	324.94	4.94	-46.1	-64.7	3.8	7.48e-01	0	62	104	618135552	62	33299
2026-01-30 13:31:34.56	325.06	4.88	-46.1	-64.7	3.8	7.46e-01	0	62	104	618135552	62	33300
2026-01-30 13:31:35.57	325.17	4.83	-46.1	-64.7	3.8	7.48e-01	0	62	104	618135552	62	33218
2026-01-30 13:31:36.58	325.28	4.77	-46.0	-64.7	3.8	7.48e-01	0	62	104	618135552	62	33230
2026-01-30 13:31:37.59	325.40	4.72	-46.1	-64.7	3.8	7.45e-01	0	62	104	618135552	62	33286
2026-01-30 13:31:38.60	325.51	4.66	-46.1	-64.7	3.8	7.46e-01	0	63	104	618135552	62	33265
2026-01-30 13:31:39.61	325.62	4.60	-46.1	-64.7	3.8	7.44e-01	0	62	104	618135552	62	33203
2026-01-30 13:31:40.62	325.73	4.55	-46.1	-64.7	3.8	7.41e-01	0	62	104	618135552	62	33274
2026-01-30 13:31:41.63	325.85	4.49	-45.9	-64.7	3.8	7.45e-01	0	62	104	618135552	62	33225
2026-01-30 13:31:42.64	325.96	4.44	-46.1	-64.8	3.8	7.44e-01	0	62	104	618135552	62	33332
2026-01-30 13:31:43.65	326.07	4.38	-46.0	-64.7	3.8	7.43e-01	0	63	104	618135552	62	33280
2026-01-30 13:31:44.66	326.18	4.33	-46.0	-64.7	3.8	7.45e-01	0	62	104	618135552	62	33241
2026-01-30 13:31:45.67	326.29	4.27	-46.1	-64.7	3.8	7.43e-01	0	62	104	618135552	62	33216
2026-01-30 13:31:46.68	326.40	4.22	-46.0	-64.7	3.8	7.44e-01	0	62	104	618135552	62	33276
2026-01-30 13:31:47.69	326.51	4.16	-46.0	-64.7	3.8	7.45e-01	0	62	104	618135552	62	33265
2026-01-30 13:31:48.70	326.61	4.11	-46.0	-64.7	3.8	7.44e-01	0	62	104	618135552	62	33204
2026-01-30 13:31:49.72	326.72	4.05	-46.0	-64.7	3.8	7.45e-01	0	62	104	618135552	62	33222
2026-01-30 13:31:50.73	326.83	4.00	-46.0	-64.7	3.8	7.45e-01	0	62	104	618135552	62	33236
2026-01-30 13:31:51.74	326.94	3.94	-46.0	-64.7	3.8	7.45e-01	0	62	104	618135552	62	33208
2026-01-30 13:31:52.74	327.04	3.89	-46.1	-64.7	3.8	7.46e-01	0	62	104	618135552	62	33208
2026-01-30 13:31:53.76	327.15	3.83	-46.1	-64.7	3.8	7.46e-01	0	62	104	618135552	62	33284
2026-01-30 13:31:54.76	327.26	3.78	-46.0	-64.7	3.8	7.42e-01	0	62	104	618135552	62	33189
2026-01-30 13:31:55.78	327.36	3.72	-46.0	-64.7	3.8	7.44e-01	0	63	104	618135552	62	33286
2026-01-30 13:31:56.79	327.47	3.67	-46.1	-64.7	3.8	7.46e-01	0	63	104	618135552	62	33282
2026-01-30 13:31:57.80	327.57	3.61	-46.0	-64.7	3.8	7.42e-01	0	63	104	618135552	62	33270
2026-01-30 13:31:58.81	327.68	3.56	-46.0	-64.7	3.8	7.46e-01	0	62	104	618135552	62	33222
2026-01-30 13:31:59.82	327.78	3.50	-46.0	-64.7	3.8	7.47e-01	0	62	104	618135552	62	33230
2026-01-30 13:32:00.83	327.88	3.45	-46.1	-64.7	3.8	7.46e-01	0	62	104	618135552	62	33200
2026-01-30 13:32:01.84	327.99	3.39	-46.1	-64.7	3.8	7.47e-01	0	62	104	618135552	62	33232
2026-01-30 13:32:02.85	328.09	3.34	-46.0	-64.7	3.8	7.48e-01	0	62	104	618135552	62	33257
2026-01-30 13:32:03.86	328.19	3.28	-46.1	-64.7	3.8	7.46e-01	0	63	104	618135552	62	33183
2026-01-30 13:32:04.87	328.29	3.23	-46.1	-64.7	3.8	7.46e-01	0	63	104	618135552	62	33225
2026-01-30 13:32:05.88	328.40	3.18	-46.1	-64.7	3.8	7.47e-01	0	62	104	618135552	62	33244
2026-01-30 13:32:06.89	328.50	3.12	-46.0	-64.7	3.8	7.48e-01	0	62	104	618135552	62	33259
2026-01-30 13:32:07.90	328.60	3.07	-46.0	-64.7	3.8	7.48e-01	0	62	104	618135552	62	33240
2026-01-30 13:32:08.91	328.70	3.01	-46.1	-64.7	3.8	7.44e-01	0	63	104	618135552	62	33220
2026-01-30 13:32:09.92	328.80	2.96	-46.1	-64.7	3.8	7.46e-01	0	62	104	618135552	62	33211
2026-01-30 13:32:10.93	328.90	2.91	-46.0	-64.7	3.8	7.46e-01	0	62	104	618135552	62	33238
2026-01-30 13:32:11.94	329.00	2.85	-46.0	-64.7	3.8	7.44e-01	0	62	104	618135552	62	33228
2026-01-30 13:32:12.95	329.10	2.80	-46.1	-64.7	3.8	7.43e-01	0	62	104	618135552	62	33305
2026-01-30 13:32:13.96	329.19	2.74	-46.0	-64.7	3.8	7.43e-01	0	62	104	618135552	62	33262
2026-01-30 13:32:14.97	329.29	2.69	-46.1	-64.7	3.8	7.42e-01	0	62	104	618135552	62	33263
2026-01-30 13:32:15.98	329.39	2.64	-46.0	-64.7	3.8	7.46e-01	0	62	104	618135552	62	33229
2026-01-30 13:32:16.99	329.49	2.58	-46.0	-64.7	3.8	7.48e-01	0	63	104	618135552	62	33308
2026-01-30 13:32:18.00	329.58	2.53	-46.0	-64.7	3.8	7.45e-01	0	62	104	618135552	62	33211
2026-01-30 13:32:19.01	329.68	2.48	-46.0	-64.7	3.8	7.45e-01	0	62	104	618135552	62	33252
2026-01-30 13:32:20.02	329.78	2.42	-46.0	-64.7	3.8	7.49e-01	0	63	104	618135552	62	33204
2026-01-30 13:32:21.03	329.87	2.37	-46.0	-64.7	3.8	7.43e-01	0	63	104	618135552	62	33237
2026-01-30 13:32:22.04	329.97	2.32	-46.0	-64.7	3.8	7.44e-01	0	62	104	618135552	62	33207
2026-01-30 13:32:23.05	330.06	2.26	-46.0	-64.7	3.8	7.43e-01	0	62	104	618135552	62	33228
2026-01-30 13:32:24.06	330.16	2.21	-46.0	-64.7	3.8	7.44e-01	0	62	104	618135552	62	33214
2026-01-30 13:32:25.07	330.25	2.16	-46.0	-64.7	3.8	7.45e-01	0	63	104	618135552	62	33202
2026-01-30 13:32:26.08	330.35	2.10	-46.1	-64.7	3.8	7.46e-01	0	62	104	618135552	62	33148
2026-01-30 13:32:27.09	330.44	2.05	-46.0	-64.7	3.8	7.45e-01	0	63	104	618135552	62	33253
2026-01-30 13:32:28.11	330.53	2.00	-46.0	-64.7	3.8	7.46e-01	0	62	104	618135552	62	33146

#Closed at: 2026-01-30 13:32:28
#Recorded file [618 MB]: D:/lorett/data/31039_260130_162147.dat