passes_logs/2026/01/30/R2.0S_Moscow/R2.0S_Moscow__20260130_100434_NOAA_20_JPSS-1_rec.log

#Pass ID: 20260130_100434_NOAA 20 (JPSS-1)
#Satellite: NOAA 20 (JPSS-1)
#Configuration: NOAA 20
#almurnet v.1.7.20251203
#Start time: 2026-01-30 10:04:36

#Version: 2.2.20231116
#Station: R2.0S_Moscow
#Location: 37.707566 lon 55.798166 lat
#TLE: 1 43013U 17073A   26029.42702672  .00000137  00000+0  85918-4 0  9993
#TLE: 2 43013  98.7646 330.2153 0000804  19.9045 340.2162 14.19525092424781

#Time	Az	El	Level	Level2	SNR	BER	BlckErr	Temp	State	Recorded	gain1	gain2
2026-01-30 10:04:36.16	165.02	2.14	-44.1	-58.7	3.8	1.49e+00	0	54	0	0	59	19618
2026-01-30 10:04:37.16	165.03	2.20	-44.1	-58.7	3.8	1.49e+00	0	54	104	0	59	19618
2026-01-30 10:04:38.17	165.04	2.27	-44.0	-58.6	3.8	1.49e+00	0	54	104	0	59	19605
2026-01-30 10:04:39.18	165.05	2.33	-44.1	-58.6	3.8	1.49e+00	0	54	104	0	59	19589
2026-01-30 10:04:40.19	165.06	2.40	-44.1	-58.6	3.8	1.49e+00	0	54	104	0	59	19597
2026-01-30 10:04:41.20	165.07	2.46	-44.1	-58.6	3.8	1.49e+00	0	54	104	0	59	19593
2026-01-30 10:04:42.21	165.08	2.53	-44.1	-58.6	3.8	1.49e+00	0	54	104	0	59	19599
2026-01-30 10:04:43.22	165.09	2.60	-44.1	-58.6	3.8	1.49e+00	0	54	104	0	59	19587
2026-01-30 10:04:44.23	165.10	2.66	-44.0	-58.6	3.8	1.49e+00	0	54	104	0	59	19599
2026-01-30 10:04:45.24	165.11	2.73	-44.1	-58.6	3.8	1.49e+00	0	54	104	0	59	19611
2026-01-30 10:04:46.25	165.12	2.80	-44.0	-58.6	3.8	1.49e+00	0	55	104	0	59	19610
2026-01-30 10:04:47.26	165.13	2.86	-44.1	-58.6	3.8	1.49e+00	0	55	104	0	59	19555
2026-01-30 10:04:48.27	165.14	2.93	-44.0	-58.6	3.8	1.49e+00	0	55	104	0	59	19589
2026-01-30 10:04:49.29	165.14	3.00	-44.1	-58.6	3.8	1.49e+00	0	55	104	0	59	19546
2026-01-30 10:04:50.30	165.15	3.06	-44.0	-58.6	3.8	1.49e+00	0	55	104	0	59	19589
2026-01-30 10:04:51.31	165.16	3.13	-44.0	-58.6	3.8	1.49e+00	0	55	104	0	59	19603
2026-01-30 10:04:52.31	165.17	3.20	-44.0	-58.6	3.8	1.49e+00	0	55	104	0	59	19603
2026-01-30 10:04:53.33	165.18	3.27	-44.0	-58.6	3.8	1.49e+00	0	55	104	0	59	19536
2026-01-30 10:04:54.34	165.19	3.33	-44.0	-58.6	3.8	1.49e+00	0	55	104	0	59	19606
2026-01-30 10:04:55.35	165.20	3.40	-44.0	-58.6	3.8	1.49e+00	0	55	104	0	59	19547
2026-01-30 10:04:56.36	165.21	3.47	-44.0	-58.6	3.8	1.49e+00	0	55	104	0	59	19570
2026-01-30 10:04:57.37	165.22	3.54	-44.0	-58.6	3.8	1.49e+00	0	55	104	0	59	19537
2026-01-30 10:04:58.38	165.23	3.61	-44.0	-58.6	3.8	1.49e+00	0	56	104	0	59	19490
2026-01-30 10:04:59.39	165.24	3.68	-44.0	-58.6	3.8	1.49e+00	0	55	104	0	59	19568
2026-01-30 10:05:00.40	165.25	3.75	-44.0	-58.6	3.8	1.49e+00	0	55	104	0	59	19531
2026-01-30 10:05:01.41	165.26	3.82	-44.0	-58.6	3.8	1.49e+00	0	56	104	0	59	19453
2026-01-30 10:05:02.42	165.27	3.88	-44.0	-58.6	3.8	1.49e+00	0	56	104	0	59	19508
2026-01-30 10:05:03.43	165.28	3.95	-44.0	-58.6	3.8	1.49e+00	0	56	104	0	59	19484
2026-01-30 10:05:04.44	165.30	4.02	-44.0	-58.6	3.8	1.49e+00	0	56	104	0	59	19522
2026-01-30 10:05:05.45	165.31	4.09	-44.0	-58.6	3.8	1.49e+00	0	56	104	0	59	19489
2026-01-30 10:05:06.46	165.32	4.16	-44.0	-58.6	3.8	1.49e+00	0	56	104	0	59	19548
2026-01-30 10:05:07.47	165.33	4.23	-44.0	-58.6	3.8	1.49e+00	0	56	104	0	59	19551
2026-01-30 10:05:08.48	165.34	4.30	-44.0	-58.6	3.8	1.49e+00	0	56	104	0	59	19486
2026-01-30 10:05:09.49	165.35	4.38	-44.0	-58.6	3.8	1.49e+00	0	56	104	0	59	19510
2026-01-30 10:05:10.50	165.36	4.45	-44.0	-58.6	3.8	1.49e+00	0	56	104	0	59	19530
2026-01-30 10:05:11.51	165.37	4.52	-44.0	-58.6	3.8	1.49e+00	0	56	104	0	59	19507
2026-01-30 10:05:12.52	165.38	4.59	-44.0	-58.6	3.8	1.49e+00	0	56	104	0	59	19506
2026-01-30 10:05:13.53	165.39	4.66	-44.0	-58.6	3.8	1.49e+00	0	56	104	0	59	19475
2026-01-30 10:05:14.54	165.40	4.73	-44.0	-58.6	3.8	1.49e+00	0	56	104	0	59	19503
2026-01-30 10:05:15.55	165.41	4.80	-44.0	-58.6	3.8	1.49e+00	0	56	104	0	59	19443
2026-01-30 10:05:16.56	165.42	4.87	-44.0	-58.6	3.8	1.49e+00	0	56	104	0	59	19506
2026-01-30 10:05:17.57	165.43	4.95	-44.0	-58.6	3.8	1.49e+00	0	57	104	0	59	19415
2026-01-30 10:05:18.58	165.44	5.02	-44.0	-58.5	3.8	1.49e+00	0	57	104	0	59	19340
2026-01-30 10:05:19.59	165.45	5.09	-44.0	-58.5	3.8	1.49e+00	0	57	104	0	59	19283
2026-01-30 10:05:20.60	165.46	5.16	-44.0	-58.4	3.8	1.49e+00	0	56	104	0	59	19109
2026-01-30 10:05:21.61	165.48	5.24	-44.0	-58.4	3.8	1.49e+00	0	57	104	0	59	18950
2026-01-30 10:05:22.62	165.49	5.31	-44.0	-58.1	3.8	1.49e+00	0	57	104	0	59	18477
2026-01-30 10:05:23.63	165.50	5.38	-44.0	-57.9	3.8	1.49e+00	0	57	104	0	59	17897
2026-01-30 10:05:24.64	165.51	5.46	-44.0	-57.5	3.8	1.49e+00	0	57	104	0	59	17122
2026-01-30 10:05:25.65	165.52	5.53	-43.9	-57.0	3.8	1.49e+00	0	57	104	0	59	16168
2026-01-30 10:05:26.66	165.53	5.60	-43.9	-56.4	3.8	1.49e+00	0	57	104	0	59	15066
2026-01-30 10:05:27.67	165.54	5.68	-43.8	-55.8	3.9	1.48e+00	0	57	104	0	59	14118
2026-01-30 10:05:28.68	165.55	5.75	-43.8	-55.5	4.1	1.45e+00	0	57	104	0	58	14506
2026-01-30 10:05:29.69	165.56	5.83	-43.8	-55.2	4.1	1.41e+00	0	57	0	0	58	14038
2026-01-30 10:05:30.70	165.58	5.90	-43.8	-55.2	4.2	1.40e+00	0	57	0	0	58	13943
2026-01-30 10:05:31.71	165.59	5.98	-43.8	-55.1	4.2	1.41e+00	0	57	0	0	58	13821
2026-01-30 10:05:32.72	165.60	6.05	-43.7	-54.4	4.4	1.34e+00	49	57	0	0	58	12723
2026-01-30 10:05:33.74	165.61	6.13	-43.7	-53.8	4.6	9.74e-01	0	57	0	2097152	58	11862
2026-01-30 10:05:34.75	165.62	6.20	-43.6	-53.5	4.8	8.61e-01	0	57	0	3145728	58	11418
2026-01-30 10:05:35.76	165.63	6.28	-43.6	-53.5	4.8	8.21e-01	0	57	0	5242880	58	11456
2026-01-30 10:05:36.76	165.64	6.36	-43.6	-53.3	4.8	8.11e-01	0	57	0	7340032	58	11244
2026-01-30 10:05:37.77	165.66	6.43	-43.5	-52.7	5.2	6.73e-01	0	57	0	9437184	58	10445
2026-01-30 10:05:38.78	165.67	6.51	-43.5	-52.4	5.4	5.23e-01	0	57	0	11534336	58	10096
2026-01-30 10:05:39.79	165.68	6.59	-43.5	-52.3	5.4	5.28e-01	0	58	0	12582912	58	10036
2026-01-30 10:05:40.80	165.69	6.66	-43.4	-51.9	5.7	4.53e-01	0	58	0	14680064	58	9586
2026-01-30 10:05:41.81	165.70	6.74	-43.4	-51.6	5.9	3.73e-01	0	57	0	16777216	58	9220
2026-01-30 10:05:42.83	165.72	6.82	-43.3	-51.4	6.1	3.31e-01	0	58	0	18874368	58	9066
2026-01-30 10:05:43.84	165.73	6.90	-43.3	-51.3	6.1	3.32e-01	0	58	0	20971520	58	8961
2026-01-30 10:05:44.85	165.74	6.97	-43.3	-51.1	6.3	2.75e-01	0	58	0	22020096	58	8726
2026-01-30 10:05:45.86	165.75	7.05	-43.2	-50.9	6.5	2.46e-01	0	58	0	24117248	58	8491
2026-01-30 10:05:46.87	165.76	7.13	-43.2	-50.6	6.7	2.14e-01	0	58	0	26214400	58	8248
2026-01-30 10:05:47.88	165.78	7.21	-43.2	-50.7	6.7	2.00e-01	0	58	0	28311552	58	8277
2026-01-30 10:05:48.89	165.79	7.29	-43.1	-50.3	7.0	1.66e-01	0	58	0	30408704	57	8433
2026-01-30 10:05:49.90	165.80	7.37	-43.1	-50.3	7.0	1.47e-01	0	58	0	32505856	57	8436
2026-01-30 10:05:50.91	165.81	7.45	-43.0	-50.1	7.2	1.46e-01	0	58	0	33554432	57	8196
2026-01-30 10:05:51.92	165.82	7.53	-43.0	-50.1	7.2	1.28e-01	0	58	0	35651584	57	8203
2026-01-30 10:05:52.94	165.84	7.61	-43.0	-50.0	7.3	1.19e-01	0	58	0	37748736	57	8093
2026-01-30 10:05:53.95	165.85	7.69	-42.9	-49.8	7.4	1.23e-01	0	58	0	39845888	57	7981
2026-01-30 10:05:54.96	165.86	7.77	-43.0	-49.8	7.5	1.01e-01	0	58	0	41943040	57	7970
2026-01-30 10:05:55.97	165.87	7.85	-42.9	-49.7	7.6	1.06e-01	0	58	0	42991616	57	7853
2026-01-30 10:05:56.98	165.89	7.93	-42.9	-49.7	7.5	1.01e-01	0	58	0	45088768	57	7881
2026-01-30 10:05:57.99	165.90	8.01	-42.9	-49.8	7.5	9.75e-02	0	59	0	47185920	57	7932
2026-01-30 10:05:59.00	165.91	8.09	-43.5	-51.6	6.1	2.10e-01	0	58	0	49283072	57	9826
2026-01-30 10:06:00.01	165.93	8.17	-43.4	-50.6	6.9	2.02e-01	0	58	0	51380224	57	8746
2026-01-30 10:06:01.02	165.94	8.26	-43.4	-52.9	5.0	1.01e-01	0	58	0	52428800	57	11402
2026-01-30 10:06:02.03	165.95	8.34	-43.8	-53.9	4.7	7.70e-01	0	58	0	54525952	58	11982
2026-01-30 10:06:03.04	165.96	8.42	-43.1	-49.5	8.0	1.01e-01	0	59	0	56623104	58	7238
2026-01-30 10:06:04.05	165.98	8.50	-42.9	-49.2	8.3	5.99e-02	0	59	0	58720256	57	7400
2026-01-30 10:06:05.06	165.99	8.59	-43.0	-49.2	8.2	5.66e-02	0	59	0	60817408	57	7427
2026-01-30 10:06:06.07	166.00	8.67	-43.0	-49.3	8.3	5.23e-02	0	59	0	61865984	57	7464
2026-01-30 10:06:07.08	166.02	8.75	-43.0	-49.2	8.2	5.25e-02	0	59	0	63963136	57	7443
2026-01-30 10:06:08.09	166.03	8.84	-43.0	-49.3	8.2	5.66e-02	0	59	0	66060288	57	7495
2026-01-30 10:06:09.10	166.04	8.92	-43.0	-49.3	8.2	5.01e-02	0	59	0	68157440	57	7523
2026-01-30 10:06:10.11	166.06	9.01	-43.0	-49.2	8.3	5.40e-02	0	59	0	70254592	57	7443
2026-01-30 10:06:11.12	166.07	9.09	-42.9	-49.1	8.4	5.08e-02	0	59	0	72351744	57	7306
2026-01-30 10:06:12.13	166.08	9.18	-43.0	-49.1	8.4	4.96e-02	0	59	0	73400320	57	7358
2026-01-30 10:06:13.14	166.10	9.26	-42.9	-49.0	8.5	4.37e-02	0	59	0	75497472	57	7248
2026-01-30 10:06:14.15	166.11	9.35	-42.9	-49.0	8.5	4.32e-02	0	59	0	77594624	57	7236
2026-01-30 10:06:15.16	166.12	9.43	-42.9	-48.9	8.6	3.79e-02	0	59	0	79691776	57	7184
2026-01-30 10:06:16.17	166.14	9.52	-42.9	-48.8	8.8	3.54e-02	0	59	0	81788928	57	7071
2026-01-30 10:06:17.18	166.15	9.60	-42.9	-48.8	8.8	3.32e-02	0	59	0	82837504	57	7046
2026-01-30 10:06:18.19	166.17	9.69	-42.8	-48.7	8.8	2.91e-02	0	59	0	84934656	57	6985
2026-01-30 10:06:19.20	166.18	9.78	-42.9	-48.8	8.7	3.36e-02	0	59	0	87031808	57	7041
2026-01-30 10:06:20.21	166.19	9.87	-42.9	-48.8	8.8	3.03e-02	0	59	0	89128960	57	7051
2026-01-30 10:06:21.22	166.21	9.95	-42.8	-48.6	9.0	2.61e-02	0	59	0	91226112	57	6914
2026-01-30 10:06:22.23	166.22	10.04	-42.8	-48.7	8.9	2.91e-02	0	59	0	92274688	57	6973
2026-01-30 10:06:23.24	166.24	10.13	-42.8	-48.6	9.0	2.53e-02	0	59	0	94371840	57	6907
2026-01-30 10:06:24.25	166.25	10.22	-42.8	-48.5	9.1	2.41e-02	0	59	0	96468992	57	6819
2026-01-30 10:06:25.25	166.26	10.31	-42.9	-48.6	8.9	2.52e-02	0	59	0	98566144	57	6956
2026-01-30 10:06:26.26	166.28	10.40	-42.8	-48.5	9.0	2.63e-02	0	59	0	100663296	57	6866
2026-01-30 10:06:27.28	166.29	10.49	-42.9	-48.6	9.1	2.26e-02	0	59	0	101711872	57	6882
2026-01-30 10:06:28.28	166.31	10.58	-42.9	-48.6	9.0	2.29e-02	0	59	0	103809024	57	6905
2026-01-30 10:06:29.29	166.32	10.67	-42.8	-48.4	9.2	2.28e-02	0	59	0	105906176	57	6784
2026-01-30 10:06:30.30	166.34	10.76	-42.8	-48.4	9.2	1.97e-02	0	59	0	108003328	57	6793
2026-01-30 10:06:31.32	166.35	10.85	-42.8	-48.4	9.3	2.06e-02	0	59	0	110100480	57	6776
2026-01-30 10:06:32.33	166.37	10.94	-42.8	-48.5	9.2	2.04e-02	0	59	0	111149056	57	6829
2026-01-30 10:06:33.34	166.38	11.03	-42.8	-48.4	9.2	1.79e-02	0	59	0	113246208	57	6800
2026-01-30 10:06:34.35	166.40	11.12	-42.8	-48.4	9.3	1.80e-02	0	59	0	115343360	57	6729
2026-01-30 10:06:35.36	166.41	11.22	-42.8	-48.3	9.4	1.89e-02	0	59	0	117440512	57	6679
2026-01-30 10:06:36.37	166.43	11.31	-42.8	-48.4	9.3	1.78e-02	0	59	0	119537664	57	6740
2026-01-30 10:06:37.38	166.44	11.40	-42.8	-48.4	9.3	1.80e-02	0	59	0	120586240	57	6760
2026-01-30 10:06:38.39	166.46	11.50	-42.9	-48.4	9.3	1.85e-02	0	59	0	122683392	57	6791
2026-01-30 10:06:39.40	166.47	11.59	-42.8	-48.4	9.4	1.98e-02	0	59	0	124780544	57	6728
2026-01-30 10:06:40.41	166.49	11.68	-42.8	-48.4	9.4	1.70e-02	0	59	0	126877696	57	6727
2026-01-30 10:06:41.42	166.50	11.78	-42.9	-48.4	9.4	1.56e-02	0	59	0	128974848	57	6731
2026-01-30 10:06:42.43	166.52	11.87	-42.8	-48.3	9.4	1.57e-02	0	60	0	130023424	57	6654
2026-01-30 10:06:43.44	166.54	11.97	-42.8	-48.2	9.5	1.50e-02	0	60	0	132120576	57	6645
2026-01-30 10:06:44.45	166.55	12.06	-42.8	-48.1	9.6	1.28e-02	0	59	0	134217728	57	6545
2026-01-30 10:06:45.46	166.57	12.16	-42.7	-48.0	9.7	1.11e-02	0	60	0	136314880	57	6492
2026-01-30 10:06:46.47	166.58	12.26	-42.7	-48.0	9.8	1.05e-02	0	60	0	138412032	57	6452
2026-01-30 10:06:47.48	166.60	12.35	-42.7	-47.9	9.9	1.02e-02	0	60	0	140509184	57	6410
2026-01-30 10:06:48.49	166.62	12.45	-42.7	-47.9	9.9	9.96e-03	0	60	0	141557760	57	6357
2026-01-30 10:06:49.50	166.63	12.55	-42.7	-48.0	9.8	9.11e-03	0	60	0	143654912	57	6441
2026-01-30 10:06:50.51	166.65	12.64	-42.7	-47.9	9.9	8.08e-03	0	60	0	145752064	57	6376
2026-01-30 10:06:51.52	166.67	12.74	-42.6	-47.7	10.1	7.53e-03	0	60	0	147849216	57	6225
2026-01-30 10:06:52.53	166.68	12.84	-42.6	-47.7	10.2	6.69e-03	0	60	0	149946368	57	6219
2026-01-30 10:06:53.54	166.70	12.94	-42.6	-47.7	10.2	5.55e-03	0	60	0	150994944	57	6208
2026-01-30 10:06:54.55	166.72	13.04	-42.6	-47.6	10.3	5.77e-03	0	60	0	153092096	57	6150
2026-01-30 10:06:55.56	166.73	13.14	-42.6	-47.6	10.3	5.28e-03	0	60	0	155189248	57	6132
2026-01-30 10:06:56.57	166.75	13.24	-42.6	-47.5	10.3	4.89e-03	0	60	0	157286400	57	6098
2026-01-30 10:06:57.58	166.77	13.34	-42.6	-47.5	10.4	5.16e-03	0	60	0	159383552	57	6093
2026-01-30 10:06:58.59	166.78	13.44	-42.6	-47.4	10.5	4.37e-03	0	60	0	160432128	57	6022
2026-01-30 10:06:59.60	166.80	13.54	-42.5	-47.4	10.5	3.97e-03	0	60	0	162529280	57	6004
2026-01-30 10:07:00.61	166.82	13.65	-42.6	-47.4	10.5	3.90e-03	0	60	0	164626432	57	6002
2026-01-30 10:07:01.62	166.83	13.75	-42.5	-47.3	10.6	3.50e-03	0	60	0	166723584	57	5973
2026-01-30 10:07:02.63	166.85	13.85	-42.5	-47.3	10.6	3.50e-03	0	60	0	168820736	57	5992
2026-01-30 10:07:03.64	166.87	13.95	-42.6	-47.4	10.5	3.59e-03	0	60	0	169869312	57	6033
2026-01-30 10:07:04.65	166.89	14.06	-42.6	-47.4	10.5	3.93e-03	0	60	0	171966464	57	6021
2026-01-30 10:07:05.66	166.91	14.16	-42.5	-47.2	10.7	3.53e-03	0	60	0	174063616	57	5897
2026-01-30 10:07:06.67	166.92	14.27	-42.5	-47.2	10.7	2.79e-03	0	60	0	176160768	57	5869
2026-01-30 10:07:07.68	166.94	14.37	-42.5	-47.1	10.9	2.55e-03	0	60	0	178257920	56	6157
2026-01-30 10:07:08.69	166.96	14.48	-42.5	-47.1	10.9	2.46e-03	0	60	0	179306496	56	6151
2026-01-30 10:07:09.70	166.98	14.58	-42.5	-47.0	11.0	1.99e-03	0	60	0	181403648	56	6102
2026-01-30 10:07:10.71	167.00	14.69	-42.5	-47.1	10.9	1.84e-03	0	60	0	183500800	56	6165
2026-01-30 10:07:11.72	167.01	14.80	-42.4	-47.0	11.0	1.96e-03	0	60	0	185597952	56	6071
2026-01-30 10:07:12.73	167.03	14.90	-42.4	-46.9	11.1	1.60e-03	0	60	0	187695104	56	5999
2026-01-30 10:07:13.74	167.05	15.01	-42.4	-46.9	11.0	1.67e-03	0	60	0	188743680	56	6050
2026-01-30 10:07:14.75	167.07	15.12	-42.4	-46.9	11.1	1.66e-03	0	60	0	190840832	56	5998
2026-01-30 10:07:15.76	167.09	15.23	-42.4	-46.9	11.1	1.36e-03	0	60	0	192937984	56	6007
2026-01-30 10:07:16.77	167.11	15.34	-42.4	-46.8	11.2	1.43e-03	0	60	0	195035136	56	5947
2026-01-30 10:07:17.78	167.13	15.45	-42.4	-46.7	11.3	1.31e-03	0	60	0	197132288	56	5921
2026-01-30 10:07:18.79	167.15	15.56	-42.4	-46.8	11.2	1.24e-03	0	60	0	198180864	56	5951
2026-01-30 10:07:19.80	167.17	15.67	-42.4	-46.8	11.3	1.24e-03	0	60	0	200278016	56	5944
2026-01-30 10:07:20.81	167.19	15.78	-42.4	-46.8	11.2	1.28e-03	0	60	0	202375168	56	5961
2026-01-30 10:07:21.82	167.21	15.89	-42.4	-46.8	11.2	1.43e-03	0	60	0	204472320	56	5952
2026-01-30 10:07:22.83	167.22	16.00	-42.3	-46.7	11.3	1.28e-03	0	60	0	206569472	56	5870
2026-01-30 10:07:23.84	167.24	16.12	-42.4	-46.8	11.2	1.21e-03	0	60	0	208666624	56	5974
2026-01-30 10:07:24.85	167.26	16.23	-42.4	-46.7	11.3	1.29e-03	0	60	0	209715200	56	5910
2026-01-30 10:07:25.86	167.28	16.34	-42.4	-46.7	11.4	1.08e-03	0	61	0	211812352	56	5900
2026-01-30 10:07:26.87	167.31	16.46	-42.4	-46.7	11.3	1.15e-03	0	60	0	213909504	56	5917
2026-01-30 10:07:27.88	167.33	16.57	-42.4	-46.7	11.3	1.05e-03	0	60	0	216006656	56	5922
2026-01-30 10:07:28.89	167.35	16.69	-42.4	-46.7	11.3	1.13e-03	0	61	0	218103808	56	5907
2026-01-30 10:07:29.90	167.37	16.81	-42.4	-46.8	11.3	1.22e-03	0	60	0	219152384	56	5933
2026-01-30 10:07:30.91	167.39	16.92	-42.4	-46.7	11.3	1.18e-03	0	60	0	221249536	56	5902
2026-01-30 10:07:31.92	167.41	17.04	-42.4	-46.8	11.3	1.11e-03	0	60	0	223346688	56	5958
2026-01-30 10:07:32.93	167.43	17.16	-42.4	-46.7	11.4	1.08e-03	0	60	0	225443840	56	5906
2026-01-30 10:07:33.94	167.45	17.27	-42.3	-46.6	11.5	9.48e-04	0	60	0	227540992	56	5820
2026-01-30 10:07:34.95	167.47	17.39	-42.3	-46.6	11.5	8.42e-04	0	61	0	228589568	56	5810
2026-01-30 10:07:35.96	167.49	17.51	-42.3	-46.6	11.5	8.33e-04	0	61	0	230686720	56	5797
2026-01-30 10:07:36.97	167.52	17.63	-42.3	-46.5	11.6	6.86e-04	0	61	0	232783872	56	5744
2026-01-30 10:07:37.97	167.54	17.75	-42.3	-46.5	11.6	7.06e-04	0	60	0	234881024	56	5739
2026-01-30 10:07:38.99	167.56	17.87	-42.2	-46.4	11.7	6.02e-04	0	60	0	236978176	56	5697
2026-01-30 10:07:39.99	167.58	18.00	-42.2	-46.3	11.8	5.17e-04	0	61	0	238026752	56	5637
2026-01-30 10:07:41.01	167.60	18.12	-42.2	-46.4	11.8	5.24e-04	0	61	0	240123904	56	5682
2026-01-30 10:07:42.01	167.63	18.24	-42.2	-46.4	11.8	5.29e-04	0	61	0	242221056	56	5671
2026-01-30 10:07:43.02	167.65	18.36	-42.3	-46.5	11.6	5.47e-04	0	61	0	244318208	56	5776
2026-01-30 10:07:44.03	167.67	18.49	-42.3	-46.5	11.7	6.93e-04	0	61	0	246415360	56	5735
2026-01-30 10:07:45.04	167.69	18.61	-42.3	-46.4	11.7	5.32e-04	0	61	0	247463936	56	5684
2026-01-30 10:07:46.05	167.72	18.74	-42.3	-46.5	11.7	6.37e-04	0	61	0	249561088	56	5739
2026-01-30 10:07:47.06	167.74	18.87	-42.3	-46.4	11.7	6.35e-04	0	61	0	251658240	56	5708
2026-01-30 10:07:48.07	167.76	18.99	-42.2	-46.4	11.8	5.75e-04	0	60	0	253755392	56	5678
2026-01-30 10:07:49.08	167.79	19.12	-42.1	-46.2	12.0	3.87e-04	0	61	0	255852544	56	5541
2026-01-30 10:07:50.09	167.81	19.25	-42.2	-46.2	12.0	3.96e-04	0	60	0	256901120	56	5575
2026-01-30 10:07:51.10	167.83	19.38	-42.2	-46.2	11.9	3.57e-04	0	61	0	258998272	56	5587
2026-01-30 10:07:52.11	167.86	19.51	-42.2	-46.3	11.9	3.70e-04	0	61	0	261095424	56	5616
2026-01-30 10:07:53.12	167.88	19.64	-42.2	-46.3	11.9	3.48e-04	0	61	0	263192576	56	5599
2026-01-30 10:07:54.13	167.91	19.77	-42.2	-46.3	11.9	3.79e-04	0	61	0	265289728	56	5634
2026-01-30 10:07:55.14	167.93	19.90	-42.3	-46.3	11.8	4.19e-04	0	61	0	266338304	56	5648
2026-01-30 10:07:56.15	167.96	20.03	-42.3	-46.4	11.8	4.55e-04	0	61	0	268435456	56	5671
2026-01-30 10:07:57.16	167.98	20.16	-42.3	-46.4	11.8	5.07e-04	0	61	0	270532608	56	5663
2026-01-30 10:07:58.17	168.01	20.30	-42.3	-46.4	11.8	4.95e-04	0	61	0	272629760	56	5720
2026-01-30 10:07:59.18	168.03	20.43	-42.3	-46.4	11.8	4.58e-04	0	61	0	274726912	56	5705
2026-01-30 10:08:00.19	168.06	20.57	-42.3	-46.4	11.8	4.74e-04	0	61	0	276824064	56	5689
2026-01-30 10:08:01.20	168.08	20.70	-42.3	-46.5	11.7	5.39e-04	0	61	0	277872640	56	5766
2026-01-30 10:08:02.21	168.11	20.84	-42.4	-46.5	11.6	6.48e-04	0	61	0	279969792	56	5785
2026-01-30 10:08:03.22	168.14	20.97	-42.3	-46.5	11.6	7.34e-04	0	61	0	282066944	56	5787
2026-01-30 10:08:04.23	168.16	21.11	-42.3	-46.5	11.6	6.82e-04	0	61	0	284164096	56	5786
2026-01-30 10:08:05.24	168.19	21.25	-42.3	-46.4	11.8	5.48e-04	0	61	0	286261248	56	5682
2026-01-30 10:08:06.25	168.22	21.39	-42.3	-46.5	11.7	5.84e-04	0	61	0	287309824	56	5735
2026-01-30 10:08:07.26	168.24	21.53	-42.3	-46.5	11.7	4.82e-04	0	61	0	289406976	56	5735
2026-01-30 10:08:08.27	168.27	21.67	-42.4	-46.6	11.6	5.87e-04	0	61	0	291504128	56	5819
2026-01-30 10:08:09.28	168.30	21.81	-42.4	-46.7	11.6	7.12e-04	0	61	0	293601280	56	5856
2026-01-30 10:08:10.29	168.33	21.96	-42.4	-46.6	11.6	7.13e-04	0	61	0	295698432	56	5800
2026-01-30 10:08:11.30	168.35	22.10	-42.4	-46.6	11.6	6.26e-04	0	61	0	296747008	56	5808
2026-01-30 10:08:12.31	168.38	22.24	-42.4	-46.7	11.5	7.64e-04	0	61	0	298844160	56	5871
2026-01-30 10:08:13.31	168.41	22.39	-42.4	-46.6	11.7	7.86e-04	0	61	0	300941312	56	5793
2026-01-30 10:08:14.32	168.44	22.53	-42.4	-46.6	11.6	7.16e-04	0	61	0	303038464	56	5850
2026-01-30 10:08:15.33	168.47	22.68	-42.4	-46.7	11.5	7.49e-04	0	61	0	305135616	56	5907
2026-01-30 10:08:16.34	168.50	22.83	-42.5	-46.8	11.4	9.26e-04	0	61	0	306184192	56	5971
2026-01-30 10:08:17.35	168.53	22.98	-42.5	-46.9	11.3	9.80e-04	0	61	0	308281344	56	6011
2026-01-30 10:08:18.36	168.55	23.12	-42.5	-46.8	11.4	9.20e-04	0	61	0	310378496	56	5953
2026-01-30 10:08:19.37	168.58	23.27	-42.4	-46.7	11.5	8.01e-04	0	61	0	312475648	56	5873
2026-01-30 10:08:20.38	168.61	23.43	-42.5	-46.8	11.5	8.77e-04	0	61	0	314572800	56	5947
2026-01-30 10:08:21.39	168.65	23.58	-42.4	-46.7	11.5	7.81e-04	0	61	0	315621376	56	5922
2026-01-30 10:08:22.40	168.68	23.73	-42.5	-46.8	11.5	7.60e-04	0	61	0	317718528	56	5924
2026-01-30 10:08:23.41	168.71	23.88	-42.5	-46.8	11.4	9.52e-04	0	61	0	319815680	56	5970
2026-01-30 10:08:24.42	168.74	24.04	-42.5	-46.7	11.5	9.25e-04	0	61	0	321912832	56	5899
2026-01-30 10:08:25.43	168.77	24.19	-42.5	-46.8	11.4	8.86e-04	0	61	0	324009984	56	5970
2026-01-30 10:08:26.44	168.80	24.35	-42.5	-46.8	11.4	9.41e-04	0	61	0	325058560	56	5964
2026-01-30 10:08:27.45	168.83	24.51	-42.5	-46.8	11.5	7.84e-04	0	61	0	327155712	56	5959
2026-01-30 10:08:28.46	168.87	24.66	-42.5	-46.9	11.4	1.07e-03	0	61	0	329252864	56	5997
2026-01-30 10:08:29.47	168.90	24.82	-42.5	-46.7	11.5	9.26e-04	0	61	0	331350016	56	5905
2026-01-30 10:08:30.48	168.93	24.98	-42.5	-46.7	11.6	7.01e-04	0	61	0	333447168	56	5891
2026-01-30 10:08:31.49	168.96	25.15	-42.5	-46.8	11.5	9.12e-04	0	61	0	334495744	56	5961
2026-01-30 10:08:32.50	169.00	25.31	-42.5	-46.8	11.5	1.04e-03	0	61	0	336592896	56	5947
2026-01-30 10:08:33.51	169.03	25.47	-42.5	-46.8	11.4	9.14e-04	0	61	0	338690048	56	5974
2026-01-30 10:08:34.52	169.07	25.63	-42.5	-46.8	11.4	9.44e-04	0	61	0	340787200	56	5985
2026-01-30 10:08:35.53	169.10	25.80	-42.5	-46.7	11.5	7.88e-04	0	61	0	342884352	56	5922
2026-01-30 10:08:36.54	169.14	25.97	-42.5	-46.8	11.4	9.36e-04	0	61	0	344981504	56	5964
2026-01-30 10:08:37.55	169.17	26.13	-42.5	-46.8	11.4	8.29e-04	0	61	0	346030080	56	5985
2026-01-30 10:08:38.56	169.21	26.30	-42.5	-46.8	11.5	9.00e-04	0	61	0	348127232	56	5962
2026-01-30 10:08:39.57	169.24	26.47	-42.6	-47.0	11.3	1.02e-03	0	61	0	350224384	56	6085
2026-01-30 10:08:40.58	169.28	26.64	-42.6	-47.1	11.2	1.42e-03	0	61	0	352321536	56	6133
2026-01-30 10:08:41.59	169.31	26.81	-42.6	-47.0	11.2	1.36e-03	0	61	0	354418688	56	6129
2026-01-30 10:08:42.60	169.35	26.98	-42.7	-47.2	11.0	1.48e-03	0	61	0	355467264	56	6236
2026-01-30 10:08:43.61	169.39	27.16	-42.7	-47.3	10.9	2.11e-03	0	61	0	357564416	56	6291
2026-01-30 10:08:44.61	169.43	27.33	-42.7	-47.4	10.9	2.27e-03	0	61	0	359661568	56	6364
2026-01-30 10:08:45.63	169.46	27.51	-42.8	-47.6	10.7	2.38e-03	0	61	0	361758720	56	6510
2026-01-30 10:08:46.63	169.50	27.68	-42.8	-47.5	10.7	2.96e-03	0	61	0	363855872	56	6470
2026-01-30 10:08:47.64	169.54	27.86	-42.9	-47.7	10.6	3.20e-03	0	61	0	364904448	56	6595
2026-01-30 10:08:48.65	169.58	28.04	-43.0	-47.9	10.3	3.99e-03	0	61	0	367001600	56	6778
2026-01-30 10:08:49.66	169.62	28.22	-42.9	-47.8	10.4	4.78e-03	0	61	0	369098752	56	6693
2026-01-30 10:08:50.67	169.66	28.40	-43.0	-47.9	10.3	4.68e-03	0	61	0	371195904	56	6768
2026-01-30 10:08:51.68	169.70	28.58	-43.0	-48.0	10.2	5.61e-03	0	61	0	373293056	56	6852
2026-01-30 10:08:52.69	169.74	28.77	-43.0	-48.1	10.2	6.12e-03	0	61	0	374341632	56	6891
2026-01-30 10:08:53.70	169.78	28.95	-43.0	-48.1	10.1	6.56e-03	0	61	0	376438784	56	6925
2026-01-30 10:08:54.71	169.82	29.14	-43.0	-48.0	10.2	5.70e-03	0	61	0	378535936	56	6828
2026-01-30 10:08:55.72	169.87	29.33	-43.1	-48.2	10.0	6.89e-03	0	61	0	380633088	56	7012
2026-01-30 10:08:56.73	169.91	29.51	-43.1	-48.2	10.0	8.13e-03	0	61	0	382730240	56	7040
2026-01-30 10:08:57.74	169.95	29.70	-43.1	-48.4	9.8	8.19e-03	0	61	0	383778816	56	7141
2026-01-30 10:08:58.75	170.00	29.89	-43.2	-48.5	9.7	1.01e-02	0	61	0	385875968	56	7206
2026-01-30 10:08:59.76	170.04	30.09	-43.2	-48.5	9.7	9.79e-03	0	61	0	387973120	56	7284
2026-01-30 10:09:00.77	170.08	30.28	-43.3	-48.7	9.5	1.48e-02	0	61	0	390070272	57	7012
2026-01-30 10:09:01.78	170.13	30.48	-43.3	-48.8	9.4	1.53e-02	0	61	0	392167424	57	7057
2026-01-30 10:09:02.79	170.17	30.67	-43.3	-48.7	9.5	1.32e-02	0	61	0	393216000	57	7027
2026-01-30 10:09:03.80	170.22	30.87	-43.3	-48.8	9.4	1.71e-02	0	61	0	395313152	57	7110
2026-01-30 10:09:04.81	170.27	31.07	-43.3	-48.9	9.3	1.68e-02	0	61	0	397410304	57	7123
2026-01-30 10:09:05.81	170.31	31.27	-43.3	-48.8	9.4	1.68e-02	0	61	0	399507456	57	7055
2026-01-30 10:09:06.82	170.36	31.47	-43.3	-48.8	9.4	1.67e-02	0	61	0	401604608	57	7046
2026-01-30 10:09:07.83	170.41	31.67	-43.4	-49.0	9.2	1.71e-02	0	61	0	402653184	57	7268
2026-01-30 10:09:08.84	170.46	31.88	-43.4	-49.0	9.2	2.20e-02	0	61	0	404750336	57	7263
2026-01-30 10:09:09.85	170.51	32.08	-43.4	-49.0	9.3	2.14e-02	0	61	0	406847488	57	7210
2026-01-30 10:09:10.86	170.56	32.29	-43.4	-49.0	9.2	1.86e-02	0	61	0	408944640	57	7220
2026-01-30 10:09:11.87	170.61	32.50	-43.4	-48.9	9.3	1.89e-02	0	61	0	411041792	57	7202
2026-01-30 10:09:12.88	170.66	32.71	-43.4	-49.0	9.2	2.04e-02	0	61	0	413138944	57	7286
2026-01-30 10:09:13.89	170.71	32.92	-43.4	-49.0	9.3	1.88e-02	0	61	0	414187520	57	7212
2026-01-30 10:09:14.90	170.76	33.13	-43.3	-48.8	9.4	1.61e-02	0	61	0	416284672	57	7093
2026-01-30 10:09:15.91	170.82	33.35	-43.2	-48.6	9.7	1.45e-02	0	61	0	418381824	57	6909
2026-01-30 10:09:16.92	170.87	33.56	-43.2	-48.4	9.8	1.15e-02	0	61	0	420478976	57	6770
2026-01-30 10:09:17.93	170.92	33.78	-43.0	-48.0	10.2	8.50e-03	0	61	0	422576128	57	6485
2026-01-30 10:09:18.94	170.98	34.00	-42.9	-47.8	10.5	4.72e-03	0	62	0	423624704	57	6313
2026-01-30 10:09:19.95	171.04	34.22	-42.8	-47.5	10.8	2.91e-03	0	61	0	425721856	57	6091
2026-01-30 10:09:20.96	171.09	34.44	-42.8	-47.3	11.0	2.19e-03	0	61	0	427819008	57	5974
2026-01-30 10:09:21.97	171.15	34.66	-42.7	-47.1	11.3	1.65e-03	0	61	0	429916160	57	5821
2026-01-30 10:09:22.98	171.21	34.89	-42.6	-46.9	11.5	9.02e-04	0	61	0	432013312	57	5671
2026-01-30 10:09:23.99	171.27	35.12	-42.5	-46.7	11.6	7.16e-04	0	61	0	433061888	57	5561
2026-01-30 10:09:25.00	171.33	35.34	-42.5	-46.6	11.7	5.90e-04	0	61	0	435159040	56	5834
2026-01-30 10:09:26.01	171.39	35.57	-42.4	-46.4	12.0	4.06e-04	0	61	0	437256192	56	5701
2026-01-30 10:09:27.02	171.45	35.81	-42.3	-46.3	12.1	3.42e-04	0	61	0	439353344	56	5614
2026-01-30 10:09:28.03	171.51	36.04	-42.3	-46.3	12.1	2.68e-04	0	62	0	441450496	56	5597
2026-01-30 10:09:29.04	171.57	36.27	-42.2	-46.2	12.2	2.14e-04	0	61	0	442499072	56	5536
2026-01-30 10:09:30.05	171.64	36.51	-42.2	-46.0	12.4	1.69e-04	0	61	0	444596224	56	5456
2026-01-30 10:09:31.06	171.70	36.75	-42.1	-45.9	12.5	1.49e-04	0	61	0	446693376	56	5387
2026-01-30 10:09:32.07	171.77	36.99	-42.0	-45.6	12.8	7.70e-05	0	62	0	448790528	56	5207
2026-01-30 10:09:33.07	171.83	37.23	-42.0	-45.7	12.7	5.72e-05	0	62	0	450887680	56	5251
2026-01-30 10:09:34.08	171.90	37.47	-42.0	-45.6	12.8	8.23e-05	0	62	0	451936256	56	5185
2026-01-30 10:09:35.10	171.97	37.72	-41.9	-45.6	12.7	5.64e-05	0	61	0	454033408	55	5499
2026-01-30 10:09:36.11	172.04	37.97	-41.8	-45.5	12.8	5.72e-05	0	61	0	456130560	55	5425
2026-01-30 10:09:37.12	172.11	38.22	-41.9	-45.5	12.7	6.40e-05	0	61	0	458227712	55	5454
2026-01-30 10:09:38.13	172.18	38.47	-41.9	-45.5	12.7	1.16e-04	0	61	0	460324864	55	5459
2026-01-30 10:09:39.14	172.25	38.72	-41.9	-45.6	12.6	1.57e-04	0	61	0	461373440	55	5499
2026-01-30 10:09:40.15	172.32	38.97	-42.0	-45.8	12.5	1.06e-04	0	61	0	463470592	55	5604
2026-01-30 10:09:41.16	172.40	39.23	-42.1	-46.0	12.2	1.75e-04	0	62	0	465567744	55	5738
2026-01-30 10:09:42.17	172.47	39.49	-42.1	-46.0	12.2	2.71e-04	0	61	0	467664896	55	5755
2026-01-30 10:09:43.18	172.55	39.75	-42.1	-46.1	12.2	2.85e-04	0	61	0	469762048	55	5814
2026-01-30 10:09:44.19	172.63	40.01	-42.1	-46.1	12.1	3.11e-04	0	62	0	470810624	55	5829
2026-01-30 10:09:45.20	172.71	40.27	-42.1	-46.1	12.1	5.16e-04	0	62	0	472907776	55	5789
2026-01-30 10:09:46.21	172.79	40.54	-42.2	-46.2	12.1	3.41e-04	0	61	0	475004928	55	5866
2026-01-30 10:09:47.22	172.87	40.81	-42.2	-46.3	12.0	2.72e-04	0	61	0	477102080	55	5934
2026-01-30 10:09:48.23	172.95	41.08	-42.3	-46.3	11.9	3.43e-04	0	61	0	479199232	55	5977
2026-01-30 10:09:49.24	173.04	41.35	-42.4	-46.6	11.6	6.93e-04	0	61	0	481296384	55	6200
2026-01-30 10:09:50.25	173.12	41.62	-42.6	-47.0	11.2	9.54e-04	0	62	0	482344960	55	6446
2026-01-30 10:09:51.26	173.21	41.90	-42.7	-47.3	10.9	1.58e-03	0	62	0	484442112	55	6664
2026-01-30 10:09:52.27	173.30	42.17	-42.9	-47.7	10.7	2.50e-03	0	61	0	486539264	56	6579
2026-01-30 10:09:53.28	173.39	42.45	-42.9	-47.6	10.7	2.52e-03	0	61	0	488636416	56	6559
2026-01-30 10:09:54.29	173.48	42.73	-42.9	-47.7	10.7	2.99e-03	0	61	0	490733568	56	6600
2026-01-30 10:09:55.30	173.57	43.02	-42.8	-47.3	11.1	2.19e-03	0	62	0	491782144	56	6303
2026-01-30 10:09:56.31	173.67	43.30	-42.7	-47.1	11.3	1.20e-03	0	62	0	493879296	56	6165
2026-01-30 10:09:57.32	173.77	43.59	-42.6	-46.9	11.5	1.05e-03	0	62	0	495976448	56	6011
2026-01-30 10:09:58.33	173.86	43.88	-42.6	-46.8	11.6	6.44e-04	0	61	0	498073600	56	5978
2026-01-30 10:09:59.34	173.96	44.17	-42.6	-46.9	11.5	7.48e-04	0	62	0	500170752	56	6053
2026-01-30 10:10:00.35	174.06	44.47	-42.8	-47.2	11.2	1.08e-03	0	62	0	501219328	56	6256
2026-01-30 10:10:01.36	174.17	44.76	-42.9	-47.6	10.8	1.52e-03	0	62	0	503316480	56	6532
2026-01-30 10:10:02.37	174.27	45.06	-43.1	-47.9	10.4	3.44e-03	0	62	0	505413632	56	6798
2026-01-30 10:10:03.38	174.38	45.36	-43.1	-48.0	10.3	4.50e-03	0	62	0	507510784	56	6873
2026-01-30 10:10:04.39	174.49	45.66	-43.2	-48.4	9.9	6.01e-03	0	61	0	509607936	57	6772
2026-01-30 10:10:05.40	174.60	45.97	-43.2	-48.4	9.9	9.61e-03	0	62	0	510656512	57	6782
2026-01-30 10:10:06.41	174.71	46.27	-43.3	-48.7	9.6	1.03e-02	0	62	0	512753664	57	7022
2026-01-30 10:10:07.42	174.83	46.58	-43.3	-48.6	9.7	1.19e-02	0	61	0	514850816	57	6915
2026-01-30 10:10:08.43	174.95	46.89	-43.3	-48.7	9.6	1.11e-02	0	61	0	516947968	57	6993
2026-01-30 10:10:09.44	175.07	47.21	-43.4	-48.9	9.5	1.58e-02	0	62	0	519045120	57	7127
2026-01-30 10:10:10.45	175.19	47.52	-43.5	-49.3	9.0	2.03e-02	0	62	0	520093696	57	7490
2026-01-30 10:10:11.46	175.32	47.84	-43.6	-49.4	8.9	2.82e-02	0	61	0	522190848	57	7630
2026-01-30 10:10:12.47	175.44	48.16	-43.5	-49.2	9.1	2.68e-02	0	62	0	524288000	57	7384
2026-01-30 10:10:13.48	175.57	48.48	-43.1	-48.2	10.0	1.40e-02	0	62	0	526385152	57	6604
2026-01-30 10:10:14.49	175.71	48.81	-43.0	-47.8	10.6	3.77e-03	0	62	0	528482304	57	6275
2026-01-30 10:10:15.50	175.84	49.13	-42.9	-47.6	10.8	3.18e-03	0	62	0	529530880	57	6160
2026-01-30 10:10:16.51	175.98	49.46	-42.9	-47.4	10.9	2.23e-03	0	62	0	531628032	57	6060
2026-01-30 10:10:17.52	176.12	49.79	-42.8	-47.3	11.0	1.81e-03	0	61	0	533725184	57	5980
2026-01-30 10:10:18.53	176.27	50.13	-42.8	-47.3	11.1	1.61e-03	0	62	0	535822336	57	5958
2026-01-30 10:10:19.54	176.41	50.46	-42.8	-47.3	11.1	1.37e-03	0	62	0	537919488	57	5975
2026-01-30 10:10:20.55	176.56	50.80	-42.6	-46.9	11.6	1.29e-03	0	62	0	538968064	57	5674
2026-01-30 10:10:21.56	176.72	51.14	-42.1	-45.8	12.6	1.91e-04	0	62	0	541065216	56	5336
2026-01-30 10:10:22.57	176.88	51.48	-41.6	-45.0	13.4	3.43e-05	0	62	0	543162368	55	5117
2026-01-30 10:10:23.58	177.04	51.83	-41.4	-44.6	13.8	9.10e-06	0	62	0	545259520	54	5187
2026-01-30 10:10:24.59	177.20	52.18	-41.2	-44.3	14.1	6.10e-06	0	62	0	547356672	54	4999
2026-01-30 10:10:25.60	177.37	52.52	-41.1	-44.1	14.3	7.00e-07	0	62	0	549453824	54	4901
2026-01-30 10:10:26.61	177.54	52.88	-41.0	-43.9	14.5	0.00e+00	0	61	0	550502400	54	4806
2026-01-30 10:10:27.62	177.72	53.23	-40.9	-43.9	14.5	7.00e-07	0	62	0	552599552	53	5055
2026-01-30 10:10:28.63	177.90	53.59	-40.9	-43.8	14.5	0.00e+00	0	62	0	554696704	53	5038
2026-01-30 10:10:29.64	178.09	53.94	-40.9	-43.8	14.6	0.00e+00	0	61	0	556793856	53	5030
2026-01-30 10:10:30.65	178.28	54.30	-40.7	-43.5	14.9	7.00e-07	0	62	0	558891008	53	4856
2026-01-30 10:10:31.66	178.47	54.67	-40.7	-43.5	14.9	0.00e+00	0	62	0	559939584	53	4825
2026-01-30 10:10:32.67	178.67	55.03	-40.7	-43.4	14.9	0.00e+00	0	62	0	562036736	53	4809
2026-01-30 10:10:33.68	178.87	55.40	-40.7	-43.6	14.8	1.50e-06	0	61	0	564133888	53	4872
2026-01-30 10:10:34.69	179.08	55.77	-40.9	-43.8	14.6	7.00e-07	0	61	0	566231040	53	5014
2026-01-30 10:10:35.70	179.30	56.14	-41.1	-44.1	14.3	7.00e-07	0	62	0	568328192	53	5177
2026-01-30 10:10:36.71	179.52	56.51	-41.3	-44.4	13.9	7.00e-07	0	62	0	569376768	53	5400
2026-01-30 10:10:37.72	179.75	56.89	-41.5	-44.9	13.4	1.98e-05	0	61	0	571473920	53	5672
2026-01-30 10:10:38.73	179.98	57.27	-41.5	-44.8	13.5	8.30e-06	0	61	0	573571072	53	5632
2026-01-30 10:10:39.74	180.22	57.64	-41.3	-44.5	13.8	2.20e-06	0	62	0	575668224	53	5436
2026-01-30 10:10:40.75	180.47	58.03	-41.2	-44.3	14.1	2.20e-06	0	61	0	577765376	53	5333
2026-01-30 10:10:41.76	180.72	58.41	-41.3	-44.4	13.9	3.80e-06	0	62	0	578813952	53	5398
2026-01-30 10:10:42.77	180.98	58.80	-41.5	-44.8	13.7	2.20e-06	0	62	0	580911104	53	5603
2026-01-30 10:10:43.78	181.25	59.18	-41.4	-44.8	13.6	6.10e-06	0	62	0	583008256	53	5598
2026-01-30 10:10:44.79	181.53	59.57	-41.2	-44.3	14.0	4.50e-06	0	62	0	585105408	53	5335
2026-01-30 10:10:45.80	181.81	59.96	-41.2	-44.3	14.0	1.50e-06	0	62	0	587202560	53	5315
2026-01-30 10:10:46.81	182.11	60.36	-41.3	-44.4	13.9	1.50e-06	0	62	0	588251136	53	5402
2026-01-30 10:10:47.82	182.41	60.75	-41.3	-44.4	14.0	4.50e-06	0	62	0	590348288	53	5383
2026-01-30 10:10:48.83	182.72	61.15	-41.1	-44.1	14.2	3.00e-06	0	62	0	592445440	53	5208
2026-01-30 10:10:49.85	183.05	61.55	-40.8	-43.7	14.7	7.00e-07	0	62	0	594542592	53	4950
2026-01-30 10:10:50.86	183.38	61.95	-40.7	-43.4	15.0	0.00e+00	0	62	0	596639744	53	4806
2026-01-30 10:10:51.87	183.73	62.35	-40.7	-43.5	14.8	0.00e+00	0	61	0	598736896	53	4862
2026-01-30 10:10:52.88	184.08	62.75	-40.8	-43.7	14.7	7.00e-07	0	62	0	599785472	53	4965
2026-01-30 10:10:53.89	184.45	63.16	-40.9	-43.8	14.6	7.00e-07	0	62	0	601882624	53	5019
2026-01-30 10:10:54.90	184.83	63.56	-41.4	-44.7	13.7	7.00e-07	0	62	0	603979776	53	5542
2026-01-30 10:10:55.91	185.22	63.97	-41.9	-45.5	12.9	1.52e-05	0	62	0	606076928	54	5748
2026-01-30 10:10:56.92	185.63	64.38	-42.1	-46.0	12.4	9.46e-05	0	62	0	608174080	54	6065
2026-01-30 10:10:57.93	186.05	64.79	-42.1	-46.0	12.3	1.65e-04	0	62	0	609222656	54	6117
2026-01-30 10:10:58.94	186.49	65.20	-42.2	-46.2	12.2	2.01e-04	0	62	0	611319808	54	6220
2026-01-30 10:10:59.95	186.94	65.61	-42.2	-46.2	12.1	2.88e-04	0	62	0	613416960	55	5861
2026-01-30 10:11:00.96	187.41	66.02	-42.3	-46.4	11.9	4.04e-04	0	62	0	615514112	55	6026
2026-01-30 10:11:01.97	187.90	66.43	-42.5	-46.9	11.5	4.99e-04	0	62	0	617611264	55	6356
2026-01-30 10:11:02.98	188.40	66.84	-42.6	-47.1	11.1	1.70e-03	0	62	0	618659840	55	6559
2026-01-30 10:11:03.99	188.93	67.26	-42.9	-47.6	10.8	2.24e-03	0	62	0	620756992	56	6509
2026-01-30 10:11:05.00	189.48	67.67	-42.8	-47.4	11.0	1.71e-03	0	62	0	622854144	56	6420
2026-01-30 10:11:06.01	190.05	68.08	-42.7	-47.1	11.4	1.26e-03	0	62	0	624951296	56	6159
2026-01-30 10:11:07.02	190.65	68.50	-42.7	-47.1	11.3	1.02e-03	0	61	0	627048448	56	6141
2026-01-30 10:11:08.03	191.26	68.91	-42.6	-47.0	11.5	1.16e-03	0	62	0	628097024	56	6067
2026-01-30 10:11:09.05	191.92	69.32	-42.5	-46.7	11.7	6.87e-04	0	62	0	630194176	56	5917
2026-01-30 10:11:10.06	192.59	69.74	-42.5	-46.6	11.8	3.46e-04	0	62	0	632291328	56	5817
2026-01-30 10:11:11.07	193.30	70.15	-42.5	-46.8	11.7	5.23e-04	0	62	0	634388480	56	5943
2026-01-30 10:11:12.08	194.03	70.56	-42.4	-46.6	11.8	5.41e-04	0	61	0	636485632	56	5819
2026-01-30 10:11:13.09	194.80	70.96	-42.5	-46.8	11.6	5.71e-04	0	62	0	637534208	56	5937
2026-01-30 10:11:14.10	195.61	71.37	-42.7	-47.2	11.1	8.93e-04	0	62	0	639631360	56	6237
2026-01-30 10:11:15.11	196.45	71.77	-42.8	-47.4	10.9	2.01e-03	0	62	0	641728512	56	6401
2026-01-30 10:11:16.12	197.33	72.18	-42.6	-46.9	11.4	1.44e-03	0	62	0	643825664	56	6061
2026-01-30 10:11:17.13	198.26	72.57	-42.4	-46.4	12.0	5.45e-04	0	62	0	645922816	56	5683
2026-01-30 10:11:18.14	199.23	72.97	-42.5	-46.9	11.4	5.10e-04	0	62	0	646971392	55	6400
2026-01-30 10:11:19.15	200.25	73.36	-43.2	-48.3	10.1	5.35e-03	0	62	0	649068544	56	7104
2026-01-30 10:11:20.16	201.32	73.75	-43.6	-49.8	8.4	2.78e-02	0	62	0	651165696	57	7919
2026-01-30 10:11:21.17	202.44	74.14	-43.6	-49.8	8.4	4.82e-02	0	62	0	653262848	57	7925
2026-01-30 10:11:22.18	203.62	74.51	-43.3	-48.7	9.6	1.60e-02	0	62	0	655360000	57	6966
2026-01-30 10:11:23.18	204.85	74.88	-43.2	-48.4	10.0	9.90e-03	0	62	0	657457152	56	7149
2026-01-30 10:11:24.19	206.16	75.25	-43.3	-48.9	9.5	9.26e-03	0	62	0	658505728	57	7128
2026-01-30 10:11:25.20	207.54	75.61	-43.6	-49.7	8.6	2.34e-02	0	62	0	660602880	57	7856
2026-01-30 10:11:26.21	208.98	75.97	-43.8	-50.4	8.0	6.47e-02	0	62	0	662700032	58	8003
2026-01-30 10:11:27.22	210.51	76.31	-43.9	-50.7	7.6	1.01e-01	0	62	0	664797184	58	8287
2026-01-30 10:11:28.23	212.11	76.65	-43.8	-50.6	7.7	1.10e-01	0	62	0	666894336	58	8207
2026-01-30 10:11:29.24	213.80	76.97	-43.6	-49.9	8.4	5.52e-02	0	62	0	667942912	58	7603
2026-01-30 10:11:30.25	215.58	77.29	-43.4	-49.2	9.1	2.97e-02	0	62	0	670040064	58	6971
2026-01-30 10:11:31.26	217.45	77.59	-43.2	-48.6	9.7	1.81e-02	0	62	0	672137216	57	6906
2026-01-30 10:11:32.27	219.41	77.88	-43.3	-48.7	9.5	1.69e-02	0	62	0	674234368	57	7020
2026-01-30 10:11:33.28	221.46	78.16	-43.0	-48.2	10.0	9.37e-03	0	62	0	676331520	57	6620
2026-01-30 10:11:34.29	223.62	78.42	-42.9	-47.6	10.7	4.07e-03	0	62	0	677380096	57	6167
2026-01-30 10:11:35.30	225.87	78.67	-42.7	-47.2	11.1	1.99e-03	0	62	0	679477248	56	6239
2026-01-30 10:11:36.31	228.22	78.90	-42.4	-46.6	11.8	1.11e-03	0	62	0	681574400	56	5846
2026-01-30 10:11:37.32	230.67	79.10	-42.4	-46.5	11.8	4.61e-04	0	62	0	683671552	56	5751
2026-01-30 10:11:38.33	233.21	79.29	-42.4	-46.5	11.8	3.42e-04	0	62	0	685768704	56	5764
2026-01-30 10:11:39.34	235.84	79.46	-42.1	-46.0	12.2	2.76e-04	0	62	0	686817280	54	6109
2026-01-30 10:11:40.35	238.55	79.61	-42.1	-46.2	11.9	2.20e-04	0	62	0	688914432	54	6254
2026-01-30 10:11:41.36	241.33	79.73	-42.3	-46.7	11.5	5.31e-04	0	62	0	691011584	55	6237
2026-01-30 10:11:42.37	244.17	79.83	-42.4	-46.7	11.6	8.62e-04	0	62	0	693108736	55	6227
2026-01-30 10:11:43.38	247.06	79.90	-42.3	-46.4	11.8	4.50e-04	0	62	0	695205888	55	6032
2026-01-30 10:11:44.39	249.99	79.95	-42.2	-46.3	11.9	4.02e-04	0	62	0	696254464	55	5976
2026-01-30 10:11:45.40	252.93	79.97	-42.3	-46.5	11.7	5.26e-04	0	62	0	698351616	55	6106
2026-01-30 10:11:46.41	255.89	79.97	-42.4	-46.7	11.5	6.31e-04	0	62	0	700448768	55	6209
2026-01-30 10:11:47.42	258.83	79.94	-42.5	-47.1	11.1	8.44e-04	0	62	0	702545920	55	6513
2026-01-30 10:11:48.43	261.74	79.88	-42.3	-46.6	11.6	1.08e-03	0	62	0	704643072	55	6137
2026-01-30 10:11:49.44	264.62	79.80	-42.2	-46.3	11.9	4.45e-04	0	62	0	705691648	55	5971
2026-01-30 10:11:50.45	267.44	79.69	-42.3	-46.5	11.8	4.06e-04	0	62	0	707788800	55	6089
2026-01-30 10:11:51.46	270.20	79.56	-42.6	-47.3	10.8	1.79e-03	0	62	0	709885952	55	6717
2026-01-30 10:11:52.48	272.91	79.41	-43.0	-48.2	10.2	4.80e-03	0	62	0	711983104	56	6971
2026-01-30 10:11:53.48	275.48	79.23	-42.8	-47.5	10.8	5.09e-03	0	62	0	714080256	56	6440
2026-01-30 10:11:54.49	277.99	79.04	-42.4	-46.6	11.7	1.21e-03	0	62	0	715128832	56	5809
2026-01-30 10:11:55.50	280.40	78.82	-42.4	-46.6	11.5	4.30e-04	0	62	0	717225984	55	6196
2026-01-30 10:11:56.52	282.75	78.59	-42.9	-47.8	10.6	1.59e-03	0	62	0	719323136	56	6665
2026-01-30 10:11:57.52	284.94	78.34	-42.9	-48.0	10.4	5.04e-03	0	62	0	721420288	56	6827
2026-01-30 10:11:58.53	287.07	78.07	-42.9	-47.7	10.6	4.05e-03	0	62	0	723517440	56	6633
2026-01-30 10:11:59.54	289.09	77.79	-43.1	-48.2	10.2	4.65e-03	0	62	0	725614592	56	6963
2026-01-30 10:12:00.55	291.02	77.50	-43.3	-48.8	9.5	9.02e-03	0	62	0	726663168	57	7103
2026-01-30 10:12:01.56	292.86	77.19	-43.5	-49.3	9.0	2.20e-02	0	62	0	728760320	57	7524
2026-01-30 10:12:02.57	294.60	76.87	-43.4	-49.6	8.7	3.37e-02	0	62	0	730857472	57	7758
2026-01-30 10:12:03.58	296.26	76.54	-43.5	-49.5	8.9	3.33e-02	0	62	0	732954624	57	7637
2026-01-30 10:12:04.59	297.84	76.20	-43.8	-50.5	7.8	5.79e-02	0	62	0	735051776	58	8168
2026-01-30 10:12:05.60	299.34	75.86	-43.8	-51.4	6.8	1.54e-01	0	62	0	736100352	58	9059
2026-01-30 10:12:06.61	300.76	75.50	-43.7	-50.2	8.0	1.20e-01	0	62	0	738197504	58	7867
2026-01-30 10:12:07.62	302.11	75.14	-43.6	-50.0	8.3	4.58e-02	0	62	0	740294656	57	8118
2026-01-30 10:12:08.63	303.40	74.77	-43.4	-49.9	8.5	5.34e-02	0	62	0	742391808	58	7557
2026-01-30 10:12:09.64	304.62	74.40	-43.3	-48.7	9.5	2.74e-02	0	62	0	744488960	57	7013
2026-01-30 10:12:10.65	305.78	74.02	-43.3	-48.7	9.6	9.82e-03	0	62	0	745537536	57	7011
2026-01-30 10:12:11.66	306.89	73.63	-43.5	-49.3	8.9	2.35e-02	0	62	0	747634688	57	7543
2026-01-30 10:12:12.67	307.94	73.24	-43.3	-48.8	9.4	2.02e-02	0	62	0	749731840	57	7084
2026-01-30 10:12:13.68	308.94	72.85	-43.3	-48.8	9.5	1.44e-02	0	62	0	751828992	57	7120
2026-01-30 10:12:14.69	309.90	72.45	-43.2	-48.5	9.8	1.27e-02	0	62	0	753926144	57	6832
2026-01-30 10:12:15.71	310.81	72.05	-42.8	-47.3	11.1	3.19e-03	0	62	0	754974720	56	6291
2026-01-30 10:12:16.72	311.68	71.65	-42.3	-46.3	12.1	4.70e-04	0	62	0	757071872	56	5643
2026-01-30 10:12:17.72	312.50	71.25	-42.4	-46.4	12.0	2.47e-04	0	62	0	759169024	56	5683
2026-01-30 10:12:18.74	313.30	70.84	-42.6	-46.9	11.5	4.84e-04	0	62	0	761266176	56	6052
2026-01-30 10:12:19.75	314.06	70.43	-42.7	-47.4	10.8	1.10e-03	0	62	0	763363328	55	6767
2026-01-30 10:12:20.76	314.78	70.02	-43.0	-47.9	10.4	3.18e-03	0	62	0	764411904	56	6789
2026-01-30 10:12:21.76	315.47	69.62	-43.1	-48.2	10.2	5.93e-03	0	62	0	766509056	56	7006
2026-01-30 10:12:22.77	316.14	69.20	-43.1	-48.2	10.0	6.49e-03	0	62	0	768606208	56	7021
2026-01-30 10:12:23.78	316.77	68.79	-43.4	-48.9	9.4	1.34e-02	0	62	0	770703360	57	7159
2026-01-30 10:12:24.79	317.38	68.38	-43.4	-49.0	9.3	2.05e-02	0	62	0	772800512	57	7241
2026-01-30 10:12:25.80	317.97	67.97	-43.1	-48.0	10.4	9.25e-03	0	62	0	773849088	57	6467
2026-01-30 10:12:26.81	318.53	67.56	-43.1	-48.0	10.3	3.98e-03	0	62	0	775946240	56	6828
2026-01-30 10:12:27.82	319.07	67.15	-43.2	-48.3	10.1	8.52e-03	0	62	0	778043392	56	7078
2026-01-30 10:12:28.83	319.59	66.73	-42.9	-47.5	11.0	4.32e-03	0	62	0	780140544	56	6430
2026-01-30 10:12:29.84	320.10	66.32	-42.4	-46.5	11.7	8.72e-04	0	62	0	782237696	55	6115
2026-01-30 10:12:30.85	320.58	65.91	-42.3	-46.3	12.0	3.62e-04	0	62	0	783286272	55	5975
2026-01-30 10:12:31.86	321.04	65.50	-42.0	-45.8	12.6	2.27e-04	0	62	0	785383424	54	5940
2026-01-30 10:12:32.87	321.49	65.09	-41.7	-45.1	13.3	4.50e-05	0	62	0	787480576	54	5515
2026-01-30 10:12:33.88	321.92	64.68	-41.6	-44.9	13.5	1.83e-05	0	62	0	789577728	53	5707
2026-01-30 10:12:34.89	322.34	64.28	-41.1	-44.2	14.1	4.50e-06	0	62	0	791674880	53	5257
2026-01-30 10:12:35.89	322.74	63.87	-40.6	-43.2	15.2	7.00e-07	0	62	0	793772032	52	4961
2026-01-30 10:12:36.90	323.13	63.47	-40.6	-43.4	15.1	7.00e-07	0	62	0	794820608	52	5048
2026-01-30 10:12:37.91	323.50	63.07	-41.1	-44.1	14.4	3.00e-06	0	62	0	796917760	52	5465
2026-01-30 10:12:38.92	323.86	62.66	-41.1	-44.1	14.3	1.50e-06	0	62	0	799014912	53	5188
2026-01-30 10:12:39.93	324.22	62.26	-40.9	-43.9	14.5	1.50e-06	0	62	0	801112064	53	5046
2026-01-30 10:12:40.94	324.56	61.86	-40.9	-43.8	14.6	2.20e-06	0	62	0	803209216	52	5316
2026-01-30 10:12:41.95	324.89	61.46	-41.0	-43.9	14.5	7.00e-07	0	62	0	804257792	52	5357
2026-01-30 10:12:42.96	325.20	61.07	-41.2	-44.3	14.2	1.50e-06	0	62	0	806354944	52	5601
2026-01-30 10:12:43.97	325.51	60.67	-42.0	-45.7	12.7	1.83e-05	0	62	0	808452096	54	5861
2026-01-30 10:12:44.98	325.81	60.28	-43.0	-47.8	10.6	1.15e-03	0	62	0	810549248	56	6701
2026-01-30 10:12:45.99	326.11	59.89	-43.2	-48.3	10.1	6.17e-03	0	62	0	812646400	57	6671
2026-01-30 10:12:47.00	326.39	59.50	-42.8	-47.2	11.2	2.64e-03	0	62	0	813694976	57	5916
2026-01-30 10:12:48.01	326.66	59.11	-42.5	-46.5	12.0	4.26e-04	0	62	0	815792128	56	5785
2026-01-30 10:12:49.02	326.93	58.73	-42.9	-47.4	11.1	5.18e-04	0	62	0	817889280	56	6358
2026-01-30 10:12:50.03	327.19	58.34	-43.3	-48.4	10.0	5.13e-03	0	62	0	819986432	57	6777
2026-01-30 10:12:51.04	327.44	57.96	-43.4	-48.7	9.7	1.35e-02	0	62	0	822083584	57	6993
2026-01-30 10:12:52.05	327.68	57.58	-43.2	-48.1	10.3	8.10e-03	0	62	0	823132160	57	6563
2026-01-30 10:12:53.06	327.92	57.20	-42.9	-47.5	10.9	4.02e-03	0	62	0	825229312	57	6072
2026-01-30 10:12:54.07	328.15	56.83	-42.5	-46.5	11.9	7.20e-04	0	62	0	827326464	57	5450
2026-01-30 10:12:55.08	328.38	56.46	-42.2	-45.9	12.7	1.96e-04	0	62	0	829423616	56	5345
2026-01-30 10:12:56.09	328.60	56.08	-42.1	-45.6	12.9	5.49e-05	0	62	0	831520768	56	5195
2026-01-30 10:12:57.10	328.81	55.71	-42.3	-46.2	12.3	8.92e-05	0	62	0	832569344	56	5555
2026-01-30 10:12:58.11	329.02	55.35	-42.5	-46.6	11.9	3.36e-04	0	62	0	834666496	56	5824
2026-01-30 10:12:59.12	329.23	54.98	-42.3	-46.2	12.4	3.66e-04	0	62	0	836763648	56	5539
2026-01-30 10:13:00.13	329.42	54.62	-41.7	-45.1	13.3	3.81e-05	0	62	0	838860800	55	5199
2026-01-30 10:13:01.14	329.62	54.26	-41.6	-44.9	13.5	1.52e-05	0	62	0	840957952	55	5051
2026-01-30 10:13:02.15	329.81	53.90	-41.8	-45.3	13.1	1.37e-05	0	62	0	842006528	55	5328
2026-01-30 10:13:03.16	329.99	53.54	-42.0	-45.8	12.6	7.09e-05	0	62	0	844103680	55	5607
2026-01-30 10:13:04.17	330.17	53.19	-42.3	-46.3	12.1	1.75e-04	0	62	0	846200832	55	5928
2026-01-30 10:13:05.18	330.35	52.84	-42.5	-46.6	11.7	3.88e-04	0	62	0	848297984	55	6189
2026-01-30 10:13:06.19	330.52	52.49	-42.7	-47.3	11.0	1.36e-03	0	62	0	850395136	55	6648
2026-01-30 10:13:07.20	330.69	52.14	-43.2	-48.1	10.3	4.06e-03	0	62	0	851443712	56	6940
2026-01-30 10:13:08.21	330.85	51.80	-43.4	-48.9	9.5	1.04e-02	0	62	0	853540864	57	7141
2026-01-30 10:13:09.22	331.01	51.45	-43.7	-49.6	8.8	2.58e-02	0	62	0	855638016	57	7724
2026-01-30 10:13:10.22	331.16	51.12	-43.9	-50.4	8.0	5.04e-02	0	62	0	857735168	58	8019
2026-01-30 10:13:11.23	331.32	50.78	-44.1	-51.1	7.2	8.73e-02	0	62	0	859832320	58	8699
2026-01-30 10:13:12.24	331.47	50.44	-44.4	-52.7	5.9	1.93e-01	0	62	0	861929472	59	9858
2026-01-30 10:13:13.25	331.61	50.11	-44.5	-53.7	5.2	5.88e-01	0	62	0	862978048	59	11043
2026-01-30 10:13:14.26	331.76	49.78	-44.4	-52.9	5.7	5.43e-01	0	62	0	865075200	59	10168
2026-01-30 10:13:15.27	331.90	49.45	-44.3	-52.3	6.2	3.60e-01	0	62	0	867172352	59	9421
2026-01-30 10:13:16.28	332.04	49.12	-44.2	-51.9	6.5	2.19e-01	0	62	0	869269504	59	9020
2026-01-30 10:13:17.29	332.17	48.80	-44.4	-52.4	6.1	4.51e-01	0	62	0	871366656	59	9549
2026-01-30 10:13:18.30	332.30	48.47	-44.5	-53.4	5.4	2.34e-01	0	62	0	872415232	59	10712
2026-01-30 10:13:19.31	332.43	48.15	-44.2	-51.5	6.8	3.33e-01	0	62	0	874512384	59	8578
2026-01-30 10:13:20.32	332.56	47.84	-43.9	-50.1	8.1	1.06e-01	0	62	0	876609536	59	7350
2026-01-30 10:13:21.33	332.68	47.52	-42.9	-47.6	10.9	8.13e-03	0	62	0	878706688	57	6135
2026-01-30 10:13:22.34	332.81	47.21	-42.8	-47.1	11.3	1.10e-03	0	62	0	880803840	57	5850
2026-01-30 10:13:23.35	332.93	46.90	-43.0	-47.6	10.9	1.69e-03	0	62	0	881852416	57	6175
2026-01-30 10:13:24.36	333.04	46.59	-43.3	-48.6	9.9	4.98e-03	0	62	0	883949568	57	6887
2026-01-30 10:13:25.37	333.16	46.28	-43.4	-48.8	9.5	1.38e-02	0	62	0	886046720	57	7092
2026-01-30 10:13:26.38	333.27	45.97	-43.1	-48.1	10.3	8.66e-03	0	62	0	888143872	57	6538
2026-01-30 10:13:27.39	333.38	45.67	-42.9	-47.5	11.0	3.51e-03	0	62	0	890241024	57	6092
2026-01-30 10:13:28.40	333.49	45.37	-42.6	-46.7	11.7	1.19e-03	0	62	0	891289600	57	5572
2026-01-30 10:13:29.41	333.60	45.07	-42.3	-46.2	12.3	2.73e-04	0	62	0	893386752	56	5579
2026-01-30 10:13:30.42	333.70	44.78	-42.1	-45.7	12.8	8.92e-05	0	62	0	895483904	56	5270
2026-01-30 10:13:31.43	333.81	44.48	-42.0	-45.6	13.0	5.87e-05	0	62	0	897581056	56	5162
2026-01-30 10:13:32.44	333.91	44.19	-41.6	-44.8	13.5	2.05e-05	0	62	0	899678208	55	5036
2026-01-30 10:13:33.45	334.01	43.90	-41.5	-44.8	13.5	1.14e-05	0	62	0	900726784	55	5033
2026-01-30 10:13:34.46	334.11	43.61	-41.8	-45.3	13.1	1.22e-05	0	62	0	902823936	55	5288
2026-01-30 10:13:35.47	334.20	43.33	-42.3	-46.3	12.0	1.79e-04	0	62	0	904921088	55	5944
2026-01-30 10:13:36.48	334.30	43.04	-42.7	-47.2	11.0	1.04e-03	0	62	0	907018240	55	6632
2026-01-30 10:13:37.49	334.39	42.76	-43.2	-48.4	10.0	4.38e-03	0	62	0	909115392	56	7137
2026-01-30 10:13:38.50	334.48	42.48	-43.2	-48.3	10.0	8.61e-03	0	62	0	910163968	57	6702
2026-01-30 10:13:39.51	334.57	42.20	-42.7	-47.0	11.4	2.38e-03	0	62	0	912261120	57	5727
2026-01-30 10:13:40.51	334.66	41.93	-42.2	-45.9	12.6	3.07e-04	0	62	0	914358272	56	5376
2026-01-30 10:13:41.52	334.75	41.66	-41.5	-44.8	13.5	5.03e-05	0	62	0	916455424	55	5010
2026-01-30 10:13:42.53	334.83	41.38	-41.4	-44.5	13.8	4.50e-06	0	62	0	918552576	54	5146
2026-01-30 10:13:43.54	334.92	41.11	-41.4	-44.5	13.9	5.30e-06	0	62	0	919601152	54	5136
2026-01-30 10:13:44.56	335.00	40.84	-41.7	-45.1	13.2	1.22e-05	0	62	0	921698304	54	5500
2026-01-30 10:13:45.56	335.08	40.58	-42.0	-45.8	12.4	6.86e-05	0	62	0	923795456	54	5947
2026-01-30 10:13:46.57	335.16	40.32	-42.4	-46.6	11.5	4.04e-04	0	62	0	925892608	55	6194
2026-01-30 10:13:47.59	335.24	40.05	-43.0	-47.9	10.5	1.71e-03	0	62	0	927989760	56	6734
2026-01-30 10:13:48.59	335.32	39.79	-43.4	-49.0	9.4	1.26e-02	0	62	0	930086912	57	7235
2026-01-30 10:13:49.60	335.40	39.54	-43.5	-49.2	9.1	2.40e-02	0	62	0	931135488	57	7438
2026-01-30 10:13:50.61	335.47	39.28	-43.5	-49.1	9.2	2.55e-02	0	62	0	933232640	57	7331
2026-01-30 10:13:51.62	335.55	39.02	-43.4	-48.8	9.4	1.75e-02	0	62	0	935329792	57	7079
2026-01-30 10:13:52.63	335.62	38.77	-43.1	-48.1	10.2	8.58e-03	0	62	0	937426944	57	6527
2026-01-30 10:13:53.64	335.69	38.52	-42.9	-47.6	10.7	3.87e-03	0	62	0	939524096	57	6182
2026-01-30 10:13:54.65	335.76	38.27	-42.7	-47.0	11.4	2.10e-03	0	62	0	940572672	57	5739
2026-01-30 10:13:55.66	335.83	38.02	-42.5	-46.5	11.9	4.69e-04	0	62	0	942669824	56	5787
2026-01-30 10:13:56.67	335.90	37.78	-42.4	-46.4	12.0	3.61e-04	0	62	0	944766976	56	5701
2026-01-30 10:13:57.68	335.97	37.54	-42.6	-47.0	11.5	4.33e-04	0	62	0	946864128	56	6067
2026-01-30 10:13:58.69	336.04	37.29	-42.9	-47.5	10.8	1.61e-03	0	62	0	948961280	56	6493
2026-01-30 10:13:59.70	336.11	37.05	-43.1	-48.2	10.2	3.61e-03	0	62	0	950009856	56	6962
2026-01-30 10:14:00.71	336.17	36.81	-43.4	-48.8	9.5	8.81e-03	0	62	0	952107008	57	7097
2026-01-30 10:14:01.72	336.24	36.58	-43.4	-49.1	9.2	1.97e-02	0	62	0	954204160	57	7333
2026-01-30 10:14:02.73	336.30	36.34	-43.4	-48.8	9.5	1.76e-02	0	62	0	956301312	57	7099
2026-01-30 10:14:03.74	336.36	36.11	-43.3	-48.6	9.7	1.39e-02	0	62	0	958398464	57	6929
2026-01-30 10:14:04.75	336.43	35.88	-43.1	-48.2	10.1	7.63e-03	0	62	0	959447040	57	6579
2026-01-30 10:14:05.76	336.49	35.65	-43.0	-47.7	10.6	5.00e-03	0	62	0	961544192	57	6258
2026-01-30 10:14:06.77	336.55	35.42	-42.9	-47.5	10.8	2.98e-03	0	62	0	963641344	57	6108
2026-01-30 10:14:07.78	336.61	35.19	-42.7	-47.2	11.1	1.71e-03	0	62	0	965738496	57	5883
2026-01-30 10:14:08.79	336.67	34.96	-42.6	-46.9	11.5	1.00e-03	0	62	0	967835648	57	5685
2026-01-30 10:14:09.80	336.72	34.74	-42.6	-46.9	11.5	8.25e-04	0	62	0	968884224	57	5673
2026-01-30 10:14:10.81	336.78	34.52	-42.6	-46.8	11.5	7.40e-04	0	62	0	970981376	57	5638
2026-01-30 10:14:11.82	336.84	34.30	-42.6	-46.8	11.6	6.71e-04	0	62	0	973078528	57	5619
2026-01-30 10:14:12.83	336.89	34.08	-42.7	-47.1	11.2	9.28e-04	0	62	0	975175680	57	5818
2026-01-30 10:14:13.84	336.95	33.86	-42.9	-47.5	10.8	1.77e-03	0	62	0	977272832	57	6125
2026-01-30 10:14:14.85	337.00	33.64	-43.1	-48.1	10.1	5.07e-03	0	62	0	978321408	57	6562
2026-01-30 10:14:15.86	337.06	33.43	-43.3	-48.6	9.7	8.58e-03	0	62	0	980418560	57	6915
2026-01-30 10:14:16.87	337.11	33.22	-43.4	-49.0	9.2	1.62e-02	0	62	0	982515712	57	7219
2026-01-30 10:14:17.88	337.16	33.00	-43.4	-49.2	9.0	2.32e-02	0	62	0	984612864	57	7399
2026-01-30 10:14:18.89	337.22	32.79	-43.5	-49.3	8.9	2.65e-02	0	62	0	986710016	57	7497
2026-01-30 10:14:19.90	337.27	32.59	-43.5	-49.2	9.0	2.94e-02	0	62	0	987758592	57	7431
2026-01-30 10:14:20.91	337.32	32.38	-43.4	-49.2	8.9	2.74e-02	0	62	0	989855744	57	7436
2026-01-30 10:14:21.92	337.37	32.17	-43.4	-49.2	9.1	2.37e-02	0	62	0	991952896	57	7378
2026-01-30 10:14:22.93	337.42	31.97	-43.4	-49.0	9.2	2.05e-02	0	62	0	994050048	57	7223
2026-01-30 10:14:23.94	337.47	31.76	-43.4	-49.0	9.2	2.17e-02	0	62	0	996147200	57	7268
2026-01-30 10:14:24.95	337.52	31.56	-43.4	-49.0	9.2	1.88e-02	0	62	0	998244352	57	7225
2026-01-30 10:14:25.96	337.56	31.36	-43.4	-49.0	9.2	1.86e-02	0	62	0	999292928	57	7209
2026-01-30 10:14:26.97	337.61	31.16	-43.3	-48.8	9.4	1.74e-02	0	62	0	1001390080	57	7058
2026-01-30 10:14:27.98	337.66	30.97	-43.3	-48.7	9.5	1.61e-02	0	62	0	1003487232	57	6998
2026-01-30 10:14:28.99	337.70	30.77	-43.3	-48.6	9.5	1.40e-02	0	62	0	1005584384	57	6959
2026-01-30 10:14:30.00	337.75	30.57	-43.1	-48.3	9.9	1.32e-02	0	62	0	1007681536	57	6722
2026-01-30 10:14:31.01	337.80	30.38	-43.1	-48.2	10.0	9.02e-03	0	62	0	1008730112	57	6631
2026-01-30 10:14:32.02	337.84	30.19	-43.0	-47.9	10.3	6.24e-03	0	62	0	1010827264	57	6382
2026-01-30 10:14:33.03	337.89	30.00	-42.9	-47.7	10.5	4.55e-03	0	62	0	1012924416	57	6240
2026-01-30 10:14:34.04	337.93	29.81	-42.7	-47.3	10.9	2.97e-03	0	62	0	1015021568	57	5982
2026-01-30 10:14:35.05	337.97	29.62	-42.6	-47.0	11.2	1.57e-03	0	62	0	1017118720	57	5783
2026-01-30 10:14:36.06	338.02	29.43	-42.5	-46.8	11.4	1.12e-03	0	62	0	1018167296	57	5635
2026-01-30 10:14:37.07	338.06	29.24	-42.5	-46.7	11.5	7.76e-04	0	62	0	1020264448	57	5591
2026-01-30 10:14:38.08	338.10	29.06	-42.4	-46.6	11.7	6.74e-04	0	62	0	1022361600	56	5834
2026-01-30 10:14:39.09	338.14	28.87	-42.4	-46.7	11.6	6.60e-04	0	62	0	1024458752	56	5859
2026-01-30 10:14:40.10	338.18	28.69	-42.4	-46.6	11.7	7.00e-04	0	62	0	1026555904	56	5828
2026-01-30 10:14:41.11	338.22	28.51	-42.4	-46.7	11.6	5.73e-04	0	62	0	1027604480	56	5857
2026-01-30 10:14:42.12	338.26	28.33	-42.4	-46.5	11.7	5.39e-04	0	62	0	1029701632	56	5777
2026-01-30 10:14:43.12	338.30	28.15	-42.4	-46.6	11.7	6.35e-04	0	62	0	1031798784	56	5817
2026-01-30 10:14:44.14	338.34	27.97	-42.3	-46.4	11.8	4.71e-04	0	62	0	1033895936	56	5677
2026-01-30 10:14:45.15	338.38	27.80	-42.3	-46.5	11.7	5.00e-04	0	62	0	1035993088	56	5752
2026-01-30 10:14:46.16	338.42	27.62	-42.3	-46.4	11.9	4.72e-04	0	62	0	1037041664	56	5680
2026-01-30 10:14:47.17	338.46	27.44	-42.3	-46.5	11.7	4.87e-04	0	62	0	1039138816	56	5760
2026-01-30 10:14:48.18	338.50	27.27	-42.3	-46.4	11.8	5.17e-04	0	62	0	1041235968	56	5701
2026-01-30 10:14:49.19	338.54	27.10	-42.2	-46.2	12.0	4.10e-04	0	62	0	1043333120	56	5570
2026-01-30 10:14:50.20	338.57	26.93	-42.2	-46.2	12.1	2.96e-04	0	62	0	1045430272	56	5540
2026-01-30 10:14:51.21	338.61	26.76	-42.2	-46.2	12.0	3.00e-04	0	62	0	1046478848	56	5577
2026-01-30 10:14:52.22	338.65	26.59	-42.2	-46.2	12.0	3.09e-04	0	62	0	1048576000	56	5554
2026-01-30 10:14:53.23	338.68	26.42	-42.2	-46.2	12.0	3.63e-04	0	62	0	1050673152	56	5584
2026-01-30 10:14:54.24	338.72	26.25	-42.2	-46.3	11.9	3.26e-04	0	62	0	1052770304	56	5612
2026-01-30 10:14:55.25	338.76	26.09	-42.2	-46.3	11.9	4.23e-04	0	62	0	1054867456	56	5630
2026-01-30 10:14:56.26	338.79	25.92	-42.3	-46.4	11.8	4.66e-04	0	62	0	1055916032	56	5682
2026-01-30 10:14:57.27	338.83	25.76	-42.3	-46.4	11.7	4.87e-04	0	62	0	1058013184	56	5715
2026-01-30 10:14:58.28	338.86	25.59	-42.2	-46.4	11.8	4.74e-04	0	62	0	1060110336	56	5668
2026-01-30 10:14:59.29	338.89	25.43	-42.1	-46.2	12.0	3.79e-04	0	62	0	1062207488	56	5534
2026-01-30 10:15:00.30	338.93	25.27	-42.2	-46.2	12.0	3.78e-04	0	62	0	1064304640	56	5582
2026-01-30 10:15:01.31	338.96	25.11	-42.1	-46.2	12.0	3.77e-04	0	62	0	1066401792	56	5560
2026-01-30 10:15:02.32	339.00	24.95	-42.1	-46.1	12.1	3.26e-04	0	62	0	1067450368	56	5494
2026-01-30 10:15:03.33	339.03	24.79	-41.8	-45.7	12.3	1.93e-04	0	62	0	1069547520	55	5553
2026-01-30 10:15:04.34	339.06	24.64	-41.8	-45.6	12.4	1.52e-04	0	62	0	1071644672	55	5493
2026-01-30 10:15:05.35	339.09	24.48	-41.7	-45.5	12.5	1.25e-04	0	62	0	1073741824	55	5442
2026-01-30 10:15:06.36	339.13	24.32	-41.7	-45.5	12.4	1.30e-04	0	62	0	1075838976	55	5442
2026-01-30 10:15:07.37	339.16	24.17	-41.7	-45.5	12.5	1.14e-04	0	62	0	1076887552	55	5412
2026-01-30 10:15:08.38	339.19	24.01	-41.6	-45.4	12.5	1.33e-04	0	62	0	1078984704	55	5351
2026-01-30 10:15:09.39	339.22	23.86	-41.6	-45.4	12.6	7.93e-05	0	62	0	1081081856	55	5345
2026-01-30 10:15:10.40	339.25	23.71	-41.6	-45.3	12.6	1.17e-04	0	62	0	1083179008	55	5329
2026-01-30 10:15:11.41	339.28	23.56	-41.5	-45.1	12.8	5.87e-05	0	62	0	1085276160	55	5218
2026-01-30 10:15:12.42	339.31	23.41	-41.5	-45.2	12.7	6.86e-05	0	62	0	1086324736	55	5236
2026-01-30 10:15:13.43	339.35	23.26	-41.4	-45.0	12.9	5.79e-05	0	62	0	1088421888	54	5429
2026-01-30 10:15:14.44	339.38	23.11	-41.4	-45.1	12.7	5.41e-05	0	62	0	1090519040	54	5482
2026-01-30 10:15:15.45	339.41	22.96	-41.3	-44.8	12.9	7.32e-05	0	62	0	1092616192	54	5336
2026-01-30 10:15:16.46	339.44	22.82	-41.3	-44.8	12.9	4.27e-05	0	62	0	1094713344	54	5326
2026-01-30 10:15:17.47	339.46	22.67	-41.3	-45.0	12.7	6.63e-05	0	62	0	1095761920	54	5419
2026-01-30 10:15:18.48	339.49	22.53	-41.2	-44.8	12.8	7.40e-05	0	62	0	1097859072	54	5307
2026-01-30 10:15:19.49	339.52	22.38	-41.1	-44.7	12.8	6.63e-05	0	62	0	1099956224	54	5229
2026-01-30 10:15:20.50	339.55	22.24	-41.1	-44.8	12.6	8.16e-05	0	62	0	1102053376	54	5303
2026-01-30 10:15:21.51	339.58	22.10	-41.0	-44.8	12.5	1.12e-04	0	62	0	1104150528	54	5284
2026-01-30 10:15:22.52	339.61	21.95	-40.9	-44.6	12.5	1.02e-04	0	62	0	1106247680	53	5506
2026-01-30 10:15:23.53	339.64	21.81	-40.9	-44.7	12.4	1.07e-04	0	62	0	1107296256	53	5540
2026-01-30 10:15:24.54	339.66	21.67	-41.1	-45.2	11.8	2.54e-04	0	62	0	1109393408	53	5871
2026-01-30 10:15:25.55	339.69	21.53	-41.1	-45.4	11.5	8.39e-04	0	62	0	1111490560	53	6006
2026-01-30 10:15:26.56	339.72	21.39	-40.8	-44.8	11.9	6.10e-04	0	62	0	1113587712	53	5647
2026-01-30 10:15:27.57	339.75	21.26	-40.5	-44.3	12.3	2.30e-04	0	62	0	1115684864	53	5324
2026-01-30 10:15:28.58	339.77	21.12	-40.4	-44.3	12.1	2.04e-04	0	62	0	1116733440	52	5635
2026-01-30 10:15:29.59	339.80	20.98	-40.5	-44.7	11.5	4.84e-04	0	62	0	1118830592	52	5881
2026-01-30 10:15:30.60	339.83	20.85	-40.7	-45.5	10.5	2.04e-03	0	62	0	1120927744	52	6463
2026-01-30 10:15:31.61	339.85	20.71	-41.0	-46.5	9.3	8.13e-03	0	62	0	1123024896	52	7253
2026-01-30 10:15:32.62	339.88	20.58	-41.2	-47.8	7.6	6.21e-02	0	62	0	1125122048	52	8452
2026-01-30 10:15:33.63	339.91	20.44	-41.3	-49.1	6.3	1.71e-01	0	62	0	1126170624	53	9239
2026-01-30 10:15:34.64	339.93	20.31	-41.3	-50.2	5.3	3.69e-01	0	62	0	1128267776	53	10473
2026-01-30 10:15:35.65	339.96	20.18	-41.3	-51.1	4.7	7.64e-01	0	62	0	1130364928	53	11582
2026-01-30 10:15:36.66	339.98	20.05	-41.2	-51.8	4.4	1.05e+00	88	62	0	1132462080	53	12573
2026-01-30 10:15:37.67	340.01	19.92	-41.1	-52.3	4.2	1.36e+00	0	62	0	1132462080	53	13366
2026-01-30 10:15:38.68	340.03	19.79	-40.9	-53.6	3.8	1.47e+00	0	62	104	1132462080	53	15539
2026-01-30 10:15:39.69	340.06	19.66	-41.2	-52.7	3.9	1.49e+00	0	62	104	1132462080	53	13957
2026-01-30 10:15:40.70	340.08	19.53	-40.8	-54.0	3.8	1.43e+00	0	62	104	1132462080	53	16203
2026-01-30 10:15:41.71	340.11	19.40	-41.3	-53.2	3.8	1.49e+00	0	62	104	1132462080	53	14834
2026-01-30 10:15:42.72	340.13	19.27	-41.8	-53.3	4.1	1.37e+00	0	62	0	1132462080	54	14166
2026-01-30 10:15:43.74	340.16	19.14	-41.8	-54.3	3.8	1.48e+00	0	62	104	1132462080	54	15890
2026-01-30 10:15:44.74	340.18	19.02	-41.7	-55.5	3.8	1.49e+00	0	62	104	1132462080	54	18108
2026-01-30 10:15:45.75	340.20	18.89	-41.6	-56.0	3.8	1.49e+00	0	62	104	1132462080	54	19211
2026-01-30 10:15:46.76	340.23	18.77	-41.2	-55.5	3.8	1.49e+00	0	62	104	1132462080	54	18298
2026-01-30 10:15:47.77	340.25	18.64	-40.4	-54.6	3.8	1.49e+00	0	62	104	1132462080	52	18450
2026-01-30 10:15:48.78	340.28	18.52	-40.9	-54.7	3.8	1.49e+00	0	62	104	1132462080	52	18646
2026-01-30 10:15:49.79	340.30	18.40	-40.3	-54.7	3.8	1.49e+00	0	62	104	1132462080	52	18599
2026-01-30 10:15:50.81	340.32	18.27	-40.4	-54.7	3.8	1.49e+00	0	62	104	1132462080	52	18638
2026-01-30 10:15:51.82	340.34	18.15	-40.4	-54.7	3.8	1.49e+00	0	62	104	1132462080	52	18619
2026-01-30 10:15:52.83	340.37	18.03	-40.3	-54.6	3.8	1.49e+00	0	62	104	1132462080	52	18499
2026-01-30 10:15:53.84	340.39	17.91	-40.5	-54.6	3.8	1.49e+00	0	62	104	1132462080	52	18469
2026-01-30 10:15:54.85	340.41	17.79	-40.3	-54.5	3.8	1.49e+00	0	62	104	1132462080	52	18291
2026-01-30 10:15:55.86	340.44	17.67	-40.5	-54.8	3.8	1.49e+00	0	62	104	1132462080	52	18793
2026-01-30 10:15:56.87	340.46	17.55	-40.8	-54.9	3.8	1.49e+00	0	62	104	1132462080	52	18956
2026-01-30 10:15:57.88	340.48	17.43	-40.3	-54.7	3.8	1.49e+00	0	62	104	1132462080	52	18557
2026-01-30 10:15:58.89	340.50	17.32	-40.3	-54.6	3.8	1.49e+00	0	62	104	1132462080	52	18484
2026-01-30 10:15:59.90	340.52	17.20	-40.4	-54.8	3.8	1.49e+00	0	62	104	1132462080	52	18777
2026-01-30 10:16:00.91	340.55	17.08	-40.7	-54.8	3.8	1.49e+00	0	62	104	1132462080	52	18847
2026-01-30 10:16:01.92	340.57	16.97	-40.3	-54.6	3.8	1.49e+00	0	62	104	1132462080	52	18511
2026-01-30 10:16:02.93	340.59	16.85	-40.3	-54.6	3.8	1.49e+00	0	62	104	1132462080	52	18456
2026-01-30 10:16:03.94	340.61	16.74	-40.3	-54.7	3.8	1.49e+00	0	62	104	1132462080	52	18620
2026-01-30 10:16:04.95	340.63	16.62	-40.6	-54.8	3.8	1.49e+00	0	62	104	1132462080	52	18921
2026-01-30 10:16:05.96	340.65	16.51	-40.3	-54.7	3.8	1.49e+00	0	62	104	1132462080	52	18596
2026-01-30 10:16:06.97	340.67	16.39	-40.2	-54.6	3.8	1.49e+00	0	62	104	1132462080	52	18373
2026-01-30 10:16:07.98	340.69	16.28	-40.3	-54.7	3.8	1.49e+00	0	62	104	1132462080	52	18528
2026-01-30 10:16:08.99	340.71	16.17	-40.6	-54.9	3.8	1.49e+00	0	62	104	1132462080	52	18953
2026-01-30 10:16:10.00	340.73	16.06	-40.3	-54.7	3.8	1.49e+00	0	62	104	1132462080	52	18633
2026-01-30 10:16:11.01	340.75	15.95	-40.2	-54.6	3.8	1.49e+00	0	62	104	1132462080	52	18407
2026-01-30 10:16:12.02	340.78	15.84	-40.2	-54.6	3.8	1.49e+00	0	62	104	1132462080	52	18402
