passes_logs/2026/01/30/R2.0S_Moscow/R2.0S_Moscow__20260130_122045_FENGYUN_3D_rec.log

#Pass ID: 20260130_122045_FENGYUN 3D
#Satellite: FENGYUN 3D
#Configuration: FENGYUN 3D
#almurnet v.1.7.20251203
#Start time: 2026-01-30 12:20:47

#Version: 2.2.20231116
#Station: R2.0S_Moscow
#Location: 37.707566 lon 55.798166 lat
#TLE: 1 43010U 17072A   26029.52179110  .00000394  00000+0  20818-3 0  9997
#TLE: 2 43010  98.9957   1.5649 0002507  83.7772 276.3689 14.19703315425310

#Time	Az	El	Level	Level2	SNR	BER	BlckErr	Temp	State	Recorded	gain1	gain2
2026-01-30 12:20:47.03	170.71	2.10	-43.5	-55.0	3.8	8.47e-01	0	53	0	0	59	12926
2026-01-30 12:20:48.03	170.73	2.17	-43.5	-55.0	3.8	8.47e-01	0	54	104	0	59	12927
2026-01-30 12:20:49.04	170.75	2.23	-43.5	-55.0	3.8	8.47e-01	0	54	104	0	59	12868
2026-01-30 12:20:50.05	170.76	2.30	-43.5	-55.0	3.8	8.46e-01	0	54	104	0	59	12959
2026-01-30 12:20:51.06	170.78	2.36	-43.5	-55.0	3.8	8.46e-01	0	54	104	0	59	12901
2026-01-30 12:20:52.08	170.80	2.43	-43.5	-55.0	3.8	8.47e-01	0	54	104	0	59	12900
2026-01-30 12:20:53.09	170.82	2.49	-43.5	-55.0	3.8	8.47e-01	0	54	104	0	59	12928
2026-01-30 12:20:54.09	170.84	2.56	-43.5	-55.0	3.8	8.46e-01	0	54	104	0	59	12888
2026-01-30 12:20:55.11	170.86	2.62	-43.5	-55.0	3.8	8.46e-01	0	54	104	0	59	12820
2026-01-30 12:20:56.12	170.88	2.69	-43.5	-55.0	3.8	8.46e-01	0	54	104	0	59	12862
2026-01-30 12:20:57.13	170.90	2.76	-43.5	-55.0	3.8	8.45e-01	0	55	104	0	59	12859
2026-01-30 12:20:58.14	170.92	2.82	-43.5	-55.0	3.8	8.46e-01	0	54	104	0	59	12850
2026-01-30 12:20:59.15	170.94	2.89	-43.5	-55.0	3.8	8.46e-01	0	55	104	0	59	12843
2026-01-30 12:21:00.16	170.96	2.96	-43.5	-55.0	3.8	8.46e-01	0	55	104	0	59	12880
2026-01-30 12:21:01.17	170.98	3.02	-43.5	-55.0	3.8	8.46e-01	0	55	104	0	59	12874
2026-01-30 12:21:02.18	171.00	3.09	-43.5	-55.0	3.8	8.46e-01	0	55	104	0	58	13632
2026-01-30 12:21:03.19	171.02	3.16	-43.5	-55.0	3.8	8.45e-01	0	55	104	0	58	13632
2026-01-30 12:21:04.20	171.04	3.22	-43.5	-55.0	3.8	8.47e-01	0	55	104	0	58	13620
2026-01-30 12:21:05.21	171.06	3.29	-43.5	-55.0	3.8	8.46e-01	0	55	104	0	58	13615
2026-01-30 12:21:06.22	171.08	3.36	-43.5	-55.0	3.8	8.46e-01	0	55	104	0	58	13622
2026-01-30 12:21:07.23	171.10	3.43	-43.5	-55.0	3.8	8.46e-01	0	55	104	0	58	13620
2026-01-30 12:21:08.24	171.12	3.49	-43.5	-55.0	3.8	8.47e-01	0	55	104	0	58	13641
2026-01-30 12:21:09.25	171.14	3.56	-43.5	-55.0	3.8	8.46e-01	0	55	104	0	58	13662
2026-01-30 12:21:10.26	171.16	3.63	-43.5	-55.0	3.8	8.47e-01	0	55	104	0	58	13607
2026-01-30 12:21:11.27	171.18	3.70	-43.5	-55.0	3.8	8.46e-01	0	56	104	0	58	13599
2026-01-30 12:21:12.28	171.20	3.77	-43.5	-55.0	3.8	8.46e-01	0	56	104	0	58	13570
2026-01-30 12:21:13.29	171.22	3.84	-43.5	-55.0	3.8	8.47e-01	0	56	104	0	58	13602
2026-01-30 12:21:14.30	171.24	3.91	-43.5	-54.9	3.8	8.45e-01	0	56	104	0	58	13551
2026-01-30 12:21:15.31	171.27	3.97	-43.5	-54.9	3.8	8.46e-01	0	56	104	0	58	13555
2026-01-30 12:21:16.32	171.29	4.04	-43.5	-54.9	3.8	8.47e-01	0	56	104	0	58	13540
2026-01-30 12:21:17.34	171.31	4.11	-43.5	-54.9	3.8	8.47e-01	0	56	104	0	58	13555
2026-01-30 12:21:18.34	171.33	4.18	-43.4	-54.9	3.8	8.45e-01	0	56	104	0	58	13467
2026-01-30 12:21:19.35	171.35	4.25	-43.4	-54.9	3.8	8.46e-01	0	56	104	0	58	13418
2026-01-30 12:21:20.36	171.37	4.32	-43.4	-54.9	3.8	8.46e-01	0	56	104	0	58	13417
2026-01-30 12:21:21.37	171.39	4.39	-43.4	-54.8	3.8	8.46e-01	0	56	104	0	58	13376
2026-01-30 12:21:22.38	171.42	4.46	-43.4	-54.8	3.8	8.46e-01	0	56	104	0	58	13323
2026-01-30 12:21:23.39	171.44	4.53	-43.4	-54.6	3.8	8.45e-01	0	56	104	0	58	13092
2026-01-30 12:21:24.40	171.46	4.60	-43.4	-54.3	3.8	8.46e-01	0	56	104	0	58	12651
2026-01-30 12:21:25.41	171.48	4.67	-43.3	-53.9	3.8	8.46e-01	0	56	104	0	58	12084
2026-01-30 12:21:26.42	171.50	4.75	-43.3	-53.5	3.8	8.45e-01	0	56	104	0	58	11497
2026-01-30 12:21:27.43	171.53	4.82	-43.2	-53.1	3.8	8.46e-01	0	56	104	0	58	10914
2026-01-30 12:21:28.44	171.55	4.89	-43.2	-52.6	3.8	8.46e-01	0	56	104	0	58	10376
2026-01-30 12:21:29.45	171.57	4.96	-43.1	-52.2	4.0	8.44e-01	0	57	104	0	58	9839
2026-01-30 12:21:30.46	171.59	5.03	-43.0	-51.8	4.1	8.42e-01	0	57	0	0	58	9471
2026-01-30 12:21:31.47	171.61	5.10	-43.0	-51.4	4.2	8.39e-01	0	57	0	0	58	9020
2026-01-30 12:21:32.48	171.64	5.18	-42.9	-51.2	4.2	8.36e-01	0	57	0	0	57	9361
2026-01-30 12:21:33.49	171.66	5.25	-42.9	-50.9	4.3	8.33e-01	0	57	0	0	57	8974
2026-01-30 12:21:34.50	171.68	5.32	-42.8	-50.6	4.4	8.30e-01	0	57	0	0	57	8683
2026-01-30 12:21:35.51	171.71	5.39	-42.7	-50.3	4.5	8.19e-01	0	57	0	0	57	8443
2026-01-30 12:21:36.53	171.73	5.47	-42.7	-50.2	4.6	8.12e-01	0	57	0	0	57	8284
2026-01-30 12:21:37.54	171.75	5.54	-42.7	-50.0	4.7	8.11e-01	0	57	0	0	57	8127
2026-01-30 12:21:38.55	171.78	5.61	-42.7	-49.9	4.7	8.04e-01	0	57	0	0	57	8009
2026-01-30 12:21:39.56	171.80	5.69	-42.6	-49.8	4.7	7.98e-01	0	57	0	0	57	7966
2026-01-30 12:21:40.57	171.82	5.76	-42.6	-49.8	4.8	7.99e-01	0	57	0	0	57	7938
2026-01-30 12:21:41.58	171.85	5.84	-42.6	-49.9	4.7	7.99e-01	0	57	0	0	57	8012
2026-01-30 12:21:42.59	171.87	5.91	-42.7	-49.9	4.7	8.00e-01	0	57	0	0	57	8065
2026-01-30 12:21:43.60	171.89	5.98	-42.7	-50.0	4.7	8.05e-01	0	57	0	0	57	8087
2026-01-30 12:21:44.61	171.92	6.06	-42.6	-49.9	4.7	8.01e-01	0	57	0	0	57	8009
2026-01-30 12:21:45.62	171.94	6.13	-42.7	-50.3	4.5	8.05e-01	0	57	0	0	57	8377
2026-01-30 12:21:46.63	171.96	6.21	-42.8	-50.8	4.3	8.25e-01	0	57	0	0	57	8945
2026-01-30 12:21:47.64	171.99	6.28	-42.9	-50.9	4.3	8.32e-01	0	57	0	0	57	9017
2026-01-30 12:21:48.65	172.01	6.36	-42.9	-51.2	4.2	8.34e-01	0	57	0	0	57	9360
2026-01-30 12:21:49.66	172.04	6.43	-43.0	-51.7	4.1	8.38e-01	0	58	0	0	57	9847
2026-01-30 12:21:50.67	172.06	6.51	-43.0	-51.4	4.2	8.38e-01	0	58	0	0	57	9590
2026-01-30 12:21:51.68	172.09	6.59	-43.0	-51.3	4.2	8.38e-01	0	58	0	0	57	9471
2026-01-30 12:21:52.70	172.11	6.66	-42.8	-50.3	4.5	8.28e-01	0	58	0	0	57	8454
2026-01-30 12:21:53.71	172.14	6.74	-42.5	-49.3	5.0	7.91e-01	0	58	0	0	57	7467
2026-01-30 12:21:54.72	172.16	6.82	-42.3	-48.4	5.6	6.46e-01	0	58	0	0	56	7149
2026-01-30 12:21:55.73	172.19	6.89	-42.1	-47.6	6.1	3.57e-01	0	58	0	5242880	56	6568
2026-01-30 12:21:56.74	172.21	6.97	-41.6	-46.7	6.8	2.43e-01	0	58	0	11534336	55	6260
2026-01-30 12:21:57.75	172.24	7.05	-41.4	-46.1	7.4	1.48e-01	0	58	0	16777216	54	6161
2026-01-30 12:21:58.76	172.26	7.13	-41.2	-45.7	7.7	1.03e-01	0	58	0	22020096	54	5909
2026-01-30 12:21:59.77	172.29	7.20	-41.0	-45.3	8.2	7.44e-02	0	58	0	28311552	54	5596
2026-01-30 12:22:00.78	172.31	7.28	-40.8	-44.9	8.5	4.94e-02	0	58	0	33554432	53	5684
2026-01-30 12:22:01.79	172.34	7.36	-40.6	-44.5	8.9	3.46e-02	0	58	0	39845888	53	5432
2026-01-30 12:22:02.80	172.37	7.44	-40.6	-44.5	8.9	3.17e-02	0	58	0	45088768	53	5440
2026-01-30 12:22:03.81	172.39	7.52	-40.5	-44.3	9.1	2.83e-02	0	58	0	51380224	53	5313
2026-01-30 12:22:04.82	172.42	7.60	-40.6	-44.6	8.8	3.39e-02	0	58	0	56623104	53	5477
2026-01-30 12:22:05.83	172.44	7.68	-40.9	-45.0	8.4	4.91e-02	0	58	0	62914560	53	5760
2026-01-30 12:22:06.85	172.47	7.76	-41.0	-45.3	8.1	6.49e-02	0	58	0	68157440	53	5989
2026-01-30 12:22:07.86	172.50	7.84	-41.3	-46.0	7.4	1.13e-01	0	59	0	73400320	53	6459
2026-01-30 12:22:08.87	172.52	7.92	-41.6	-46.9	6.6	1.99e-01	0	58	0	79691776	53	7191
2026-01-30 12:22:09.88	172.55	8.00	-42.0	-47.9	5.8	3.82e-01	0	59	0	84934656	54	7607
2026-01-30 12:22:10.89	172.58	8.08	-42.0	-47.4	6.4	3.34e-01	0	59	0	91226112	54	7198
2026-01-30 12:22:11.90	172.61	8.16	-41.4	-46.5	6.8	1.76e-01	0	59	0	96468992	54	6465
2026-01-30 12:22:12.91	172.63	8.24	-43.7	-52.9	4.0	4.21e-01	0	59	0	100663296	57	11287
2026-01-30 12:22:13.92	172.66	8.32	-40.9	-44.4	9.8	5.39e-03	0	59	0	102760448	53	5374
2026-01-30 12:22:14.93	172.69	8.40	-43.0	-53.8	3.8	5.71e-01	0	59	104	105906176	56	13357
2026-01-30 12:22:15.94	172.72	8.49	-40.3	-43.5	10.3	6.28e-01	0	59	104	105906176	52	5145
2026-01-30 12:22:16.95	172.74	8.57	-40.2	-43.3	10.7	4.22e-03	0	59	0	110100480	52	5019
2026-01-30 12:22:17.96	172.77	8.65	-40.2	-43.3	10.8	3.82e-03	0	59	0	115343360	52	5010
2026-01-30 12:22:18.97	172.80	8.73	-40.2	-43.3	10.8	3.67e-03	0	59	0	121634816	52	5000
2026-01-30 12:22:19.99	172.83	8.82	-40.3	-43.4	10.6	4.33e-03	0	59	0	126877696	52	5071
2026-01-30 12:22:20.99	172.86	8.90	-40.3	-43.4	10.7	4.70e-03	0	59	0	133169152	52	5053
2026-01-30 12:22:22.00	172.88	8.98	-40.2	-43.3	10.8	4.29e-03	0	59	0	138412032	52	5015
2026-01-30 12:22:23.02	172.91	9.07	-40.2	-43.3	10.9	2.82e-03	0	59	0	143654912	52	4986
2026-01-30 12:22:24.02	172.94	9.15	-40.3	-43.4	10.7	3.30e-03	0	59	0	149946368	52	5098
2026-01-30 12:22:25.03	172.97	9.24	-40.3	-43.4	10.9	3.46e-03	0	59	0	155189248	52	5052
2026-01-30 12:22:26.04	173.00	9.32	-40.3	-43.3	10.9	2.58e-03	0	59	0	161480704	52	5041
2026-01-30 12:22:27.05	173.03	9.41	-40.3	-43.3	11.0	2.51e-03	0	59	0	166723584	52	5001
2026-01-30 12:22:28.06	173.06	9.49	-40.3	-43.3	11.0	2.71e-03	0	59	0	173015040	52	5018
2026-01-30 12:22:29.07	173.09	9.58	-40.2	-43.2	11.2	2.10e-03	0	59	0	178257920	52	4943
2026-01-30 12:22:30.08	173.12	9.66	-40.2	-43.1	11.3	1.64e-03	0	59	0	184549376	52	4900
2026-01-30 12:22:31.09	173.15	9.75	-40.2	-43.1	11.4	1.35e-03	0	59	0	189792256	52	4871
2026-01-30 12:22:32.11	173.18	9.84	-40.1	-43.0	11.4	1.23e-03	0	59	0	195035136	52	4821
2026-01-30 12:22:33.12	173.21	9.92	-40.1	-43.0	11.5	1.32e-03	0	59	0	201326592	52	4837
2026-01-30 12:22:34.13	173.24	10.01	-40.1	-42.8	11.7	1.03e-03	0	59	0	206569472	52	4749
2026-01-30 12:22:35.14	173.27	10.10	-40.1	-42.9	11.6	9.49e-04	0	59	0	212860928	52	4789
2026-01-30 12:22:36.15	173.30	10.18	-40.1	-42.9	11.6	1.03e-03	0	59	0	218103808	52	4776
2026-01-30 12:22:37.16	173.33	10.27	-40.1	-42.9	11.5	8.62e-04	0	59	0	223346688	52	4806
2026-01-30 12:22:38.17	173.36	10.36	-40.1	-42.9	11.6	1.07e-03	0	60	0	229638144	52	4785
2026-01-30 12:22:39.17	173.39	10.45	-40.2	-42.9	11.6	8.73e-04	0	59	0	234881024	52	4810
2026-01-30 12:22:40.18	173.43	10.54	-40.1	-42.9	11.6	9.43e-04	0	60	0	241172480	52	4784
2026-01-30 12:22:41.19	173.46	10.63	-40.1	-43.0	11.5	9.31e-04	0	59	0	246415360	52	4815
2026-01-30 12:22:42.20	173.49	10.72	-40.1	-43.0	11.6	9.49e-04	0	60	0	251658240	52	4816
2026-01-30 12:22:43.21	173.52	10.81	-40.1	-42.9	11.6	8.26e-04	0	60	0	257949696	52	4812
2026-01-30 12:22:44.22	173.55	10.90	-40.1	-43.0	11.6	1.06e-03	0	60	0	263192576	52	4823
2026-01-30 12:22:45.23	173.58	10.99	-40.1	-42.9	11.7	9.82e-04	0	60	0	269484032	52	4774
2026-01-30 12:22:46.24	173.62	11.08	-40.1	-42.9	11.7	9.13e-04	0	60	0	274726912	52	4795
2026-01-30 12:22:47.25	173.65	11.17	-40.2	-43.0	11.6	8.95e-04	0	60	0	281018368	52	4852
2026-01-30 12:22:48.26	173.68	11.26	-40.2	-43.0	11.5	1.14e-03	0	60	0	286261248	52	4869
2026-01-30 12:22:49.27	173.72	11.35	-40.2	-43.0	11.6	9.55e-04	0	60	0	291504128	52	4856
2026-01-30 12:22:50.28	173.75	11.44	-40.3	-43.1	11.5	1.26e-03	0	60	0	297795584	52	4917
2026-01-30 12:22:51.29	173.78	11.54	-40.2	-43.1	11.5	1.19e-03	0	60	0	303038464	52	4899
2026-01-30 12:22:52.30	173.82	11.63	-40.3	-43.2	11.5	1.29e-03	0	60	0	309329920	52	4929
2026-01-30 12:22:53.31	173.85	11.72	-40.3	-43.2	11.4	1.39e-03	0	60	0	314572800	52	4951
2026-01-30 12:22:54.32	173.88	11.82	-40.3	-43.2	11.4	1.41e-03	0	60	0	319815680	52	4945
2026-01-30 12:22:55.33	173.92	11.91	-40.3	-43.2	11.5	1.18e-03	0	60	0	326107136	52	4928
2026-01-30 12:22:56.34	173.95	12.00	-40.3	-43.1	11.5	1.23e-03	0	60	0	331350016	52	4924
2026-01-30 12:22:57.35	173.99	12.10	-40.3	-43.2	11.5	1.27e-03	0	60	0	337641472	52	4948
2026-01-30 12:22:58.36	174.02	12.19	-40.3	-43.2	11.4	1.33e-03	0	60	0	342884352	52	4958
2026-01-30 12:22:59.37	174.06	12.29	-40.4	-43.3	11.4	1.48e-03	0	60	0	349175808	52	4984
2026-01-30 12:23:00.38	174.09	12.38	-40.3	-43.1	11.6	1.10e-03	0	60	0	354418688	52	4893
2026-01-30 12:23:01.39	174.13	12.48	-40.2	-43.0	11.7	8.64e-04	0	60	0	359661568	52	4865
2026-01-30 12:23:02.40	174.16	12.58	-40.3	-43.1	11.6	8.62e-04	0	60	0	365953024	52	4886
2026-01-30 12:23:03.42	174.20	12.67	-40.2	-43.1	11.6	9.35e-04	0	60	0	371195904	52	4873
2026-01-30 12:23:04.43	174.24	12.77	-40.2	-43.0	11.7	8.01e-04	0	60	0	377487360	52	4851
2026-01-30 12:23:05.44	174.27	12.87	-40.2	-43.0	11.8	8.19e-04	0	60	0	382730240	52	4815
2026-01-30 12:23:06.45	174.31	12.97	-40.2	-43.0	11.8	7.66e-04	0	60	0	389021696	52	4828
2026-01-30 12:23:07.46	174.35	13.07	-40.2	-42.9	11.8	6.74e-04	0	60	0	394264576	52	4798
2026-01-30 12:23:08.47	174.38	13.16	-40.2	-42.9	11.9	6.02e-04	0	60	0	399507456	52	4788
2026-01-30 12:23:09.48	174.42	13.26	-40.2	-42.9	11.9	6.17e-04	0	60	0	405798912	52	4802
2026-01-30 12:23:10.49	174.46	13.36	-40.1	-42.8	12.0	5.45e-04	0	60	0	411041792	52	4734
2026-01-30 12:23:11.50	174.49	13.46	-40.1	-42.8	12.0	4.58e-04	0	60	0	417333248	52	4713
2026-01-30 12:23:12.51	174.53	13.56	-40.0	-42.6	12.1	3.72e-04	0	60	0	422576128	52	4645
2026-01-30 12:23:13.52	174.57	13.66	-40.0	-42.7	12.2	3.39e-04	0	60	0	427819008	51	4928
2026-01-30 12:23:14.53	174.61	13.77	-40.0	-42.6	12.3	3.19e-04	0	60	0	434110464	51	4900
2026-01-30 12:23:15.54	174.65	13.87	-40.0	-42.6	12.3	2.69e-04	0	60	0	439353344	51	4872
2026-01-30 12:23:16.55	174.69	13.97	-39.9	-42.5	12.4	2.56e-04	0	60	0	445644800	51	4852
2026-01-30 12:23:17.56	174.73	14.07	-40.0	-42.6	12.3	2.35e-04	0	60	0	450887680	51	4891
2026-01-30 12:23:18.57	174.77	14.17	-39.9	-42.5	12.4	2.48e-04	0	60	0	456130560	51	4827
2026-01-30 12:23:19.58	174.80	14.28	-39.9	-42.5	12.4	2.09e-04	0	60	0	462422016	51	4820
2026-01-30 12:23:20.59	174.84	14.38	-39.7	-42.2	12.7	1.11e-04	0	60	0	467664896	51	4686
2026-01-30 12:23:21.60	174.88	14.48	-39.7	-42.1	12.8	9.95e-05	0	61	0	473956352	51	4623
2026-01-30 12:23:22.61	174.93	14.59	-39.7	-42.1	12.8	1.02e-04	0	60	0	479199232	51	4646
2026-01-30 12:23:23.62	174.97	14.69	-39.7	-42.1	12.8	9.04e-05	0	61	0	485490688	51	4616
2026-01-30 12:23:24.64	175.01	14.80	-39.7	-42.2	12.7	1.01e-04	0	61	0	490733568	51	4660
2026-01-30 12:23:25.65	175.05	14.91	-39.5	-41.9	13.0	6.06e-05	0	61	0	497025024	51	4523
2026-01-30 12:23:26.66	175.09	15.01	-39.6	-41.9	13.0	6.52e-05	0	61	0	502267904	51	4528
2026-01-30 12:23:27.67	175.13	15.12	-39.6	-41.9	13.1	4.92e-05	0	60	0	507510784	51	4538
2026-01-30 12:23:28.68	175.17	15.23	-39.5	-41.9	13.1	5.72e-05	0	61	0	513802240	51	4500
2026-01-30 12:23:29.69	175.22	15.33	-39.5	-41.8	13.1	5.60e-05	0	61	0	519045120	51	4485
2026-01-30 12:23:30.70	175.26	15.44	-39.4	-41.7	13.3	2.40e-05	0	61	0	525336576	50	4684
2026-01-30 12:23:31.71	175.30	15.55	-39.4	-41.7	13.3	2.17e-05	0	61	0	530579456	50	4702
2026-01-30 12:23:32.72	175.34	15.66	-39.5	-41.7	13.3	3.20e-05	0	61	0	535822336	50	4705
2026-01-30 12:23:33.73	175.39	15.77	-39.3	-41.6	13.4	1.94e-05	0	61	0	542113792	50	4624
2026-01-30 12:23:34.74	175.43	15.88	-39.3	-41.5	13.5	2.86e-05	0	61	0	547356672	50	4591
2026-01-30 12:23:35.75	175.48	15.99	-39.2	-41.4	13.6	2.05e-05	0	61	0	553648128	50	4539
2026-01-30 12:23:36.76	175.52	16.10	-39.3	-41.5	13.5	1.71e-05	0	61	0	558891008	50	4584
2026-01-30 12:23:37.77	175.57	16.21	-39.3	-41.6	13.5	1.37e-05	0	61	0	565182464	50	4611
2026-01-30 12:23:38.79	175.61	16.33	-39.2	-41.5	13.6	1.71e-05	0	61	0	570425344	50	4558
2026-01-30 12:23:39.80	175.66	16.44	-39.2	-41.4	13.6	6.80e-06	0	61	0	575668224	50	4541
2026-01-30 12:23:40.80	175.70	16.55	-39.1	-41.3	13.7	1.37e-05	0	61	0	581959680	50	4478
2026-01-30 12:23:41.82	175.75	16.67	-39.1	-41.3	13.8	9.10e-06	0	61	0	587202560	50	4442
2026-01-30 12:23:42.83	175.79	16.78	-39.1	-41.3	13.7	1.02e-05	0	61	0	593494016	50	4484
2026-01-30 12:23:43.84	175.84	16.89	-39.2	-41.4	13.7	5.70e-06	0	61	0	598736896	50	4497
2026-01-30 12:23:44.85	175.89	17.01	-39.2	-41.4	13.7	1.25e-05	0	61	0	605028352	50	4515
2026-01-30 12:23:45.86	175.93	17.13	-39.0	-41.1	13.9	1.25e-05	0	61	0	610271232	50	4383
2026-01-30 12:23:46.87	175.98	17.24	-39.0	-41.1	13.9	4.50e-06	0	61	0	615514112	50	4373
2026-01-30 12:23:47.88	176.03	17.36	-39.0	-41.1	13.9	6.80e-06	0	61	0	621805568	50	4376
2026-01-30 12:23:48.89	176.08	17.48	-39.0	-41.1	14.0	1.10e-06	0	61	0	627048448	50	4386
2026-01-30 12:23:49.90	176.13	17.59	-38.9	-41.0	14.0	3.40e-06	0	61	0	633339904	49	4592
2026-01-30 12:23:50.91	176.18	17.71	-39.0	-41.1	14.0	5.70e-06	0	61	0	638582784	49	4619
2026-01-30 12:23:51.92	176.23	17.83	-39.0	-41.2	13.9	5.70e-06	0	61	0	643825664	49	4663
2026-01-30 12:23:52.93	176.28	17.95	-39.0	-41.2	13.9	4.50e-06	0	61	0	650117120	49	4654
2026-01-30 12:23:53.94	176.33	18.07	-39.0	-41.2	13.9	8.00e-06	0	61	0	655360000	49	4660
2026-01-30 12:23:54.95	176.38	18.19	-39.0	-41.1	14.0	9.10e-06	0	61	0	661651456	49	4640
2026-01-30 12:23:55.96	176.43	18.31	-39.0	-41.2	13.9	5.70e-06	0	61	0	666894336	49	4668
2026-01-30 12:23:56.97	176.48	18.43	-39.0	-41.2	13.9	4.50e-06	0	61	0	672137216	49	4679
2026-01-30 12:23:57.98	176.53	18.56	-39.1	-41.3	13.8	9.10e-06	0	61	0	678428672	49	4753
2026-01-30 12:23:58.99	176.58	18.68	-39.1	-41.3	13.8	1.25e-05	0	61	0	683671552	49	4721
2026-01-30 12:24:00.00	176.63	18.80	-39.2	-41.4	13.7	1.37e-05	0	61	0	689963008	49	4760
2026-01-30 12:24:01.01	176.69	18.93	-39.1	-41.3	13.8	1.02e-05	0	61	0	695205888	49	4715
2026-01-30 12:24:02.02	176.74	19.05	-39.1	-41.2	13.9	1.10e-06	0	61	0	701497344	49	4681
2026-01-30 12:24:03.03	176.79	19.18	-39.1	-41.2	13.9	9.10e-06	0	61	0	706740224	49	4692
2026-01-30 12:24:04.04	176.85	19.30	-39.1	-41.2	13.9	2.20e-06	0	61	0	713031680	49	4682
2026-01-30 12:24:05.04	176.90	19.43	-39.0	-41.1	14.0	4.50e-06	0	61	0	718274560	49	4631
2026-01-30 12:24:06.05	176.96	19.56	-38.9	-40.9	14.2	3.40e-06	0	61	0	723517440	49	4543
2026-01-30 12:24:07.06	177.01	19.68	-38.7	-40.8	14.3	1.10e-06	0	61	0	729808896	49	4452
2026-01-30 12:24:08.07	177.07	19.81	-38.7	-40.7	14.4	1.10e-06	0	61	0	735051776	49	4432
2026-01-30 12:24:09.08	177.12	19.94	-38.7	-40.7	14.4	2.20e-06	0	61	0	741343232	49	4430
2026-01-30 12:24:10.10	177.18	20.07	-38.7	-40.8	14.3	2.20e-06	0	61	0	746586112	49	4453
2026-01-30 12:24:11.11	177.24	20.20	-38.6	-40.6	14.5	2.20e-06	0	61	0	751828992	49	4370
2026-01-30 12:24:12.12	177.30	20.33	-38.7	-40.7	14.4	1.10e-06	0	61	0	758120448	49	4409
2026-01-30 12:24:13.13	177.35	20.47	-38.6	-40.7	14.5	1.10e-06	0	61	0	763363328	49	4398
2026-01-30 12:24:14.14	177.41	20.60	-38.7	-40.7	14.4	2.20e-06	0	61	0	769654784	49	4413
2026-01-30 12:24:15.15	177.47	20.73	-38.7	-40.8	14.4	3.40e-06	0	61	0	774897664	49	4448
2026-01-30 12:24:16.16	177.53	20.87	-38.8	-40.9	14.3	3.40e-06	0	61	0	780140544	49	4500
2026-01-30 12:24:17.17	177.59	21.00	-38.7	-40.8	14.4	1.10e-06	0	61	0	786432000	49	4444
2026-01-30 12:24:18.18	177.65	21.14	-38.7	-40.8	14.4	2.20e-06	0	61	0	791674880	49	4443
2026-01-30 12:24:19.19	177.71	21.27	-38.7	-40.8	14.3	4.50e-06	0	61	0	797966336	49	4459
2026-01-30 12:24:20.20	177.77	21.41	-38.7	-40.8	14.4	4.50e-06	0	61	0	803209216	49	4453
2026-01-30 12:24:21.21	177.84	21.55	-38.7	-40.7	14.4	3.40e-06	0	61	0	809500672	49	4431
2026-01-30 12:24:22.22	177.90	21.68	-38.7	-40.7	14.4	1.10e-06	0	61	0	814743552	49	4422
2026-01-30 12:24:23.23	177.96	21.82	-38.6	-40.6	14.6	1.10e-06	0	61	0	821035008	49	4348
2026-01-30 12:24:24.24	178.02	21.96	-38.5	-40.5	14.6	0.00e+00	0	61	0	826277888	49	4321
2026-01-30 12:24:25.26	178.09	22.10	-38.5	-40.5	14.6	0.00e+00	0	62	0	831520768	49	4321
2026-01-30 12:24:26.27	178.15	22.25	-38.5	-40.5	14.6	1.10e-06	0	62	0	837812224	49	4333
2026-01-30 12:24:27.28	178.22	22.39	-38.5	-40.5	14.7	3.40e-06	0	61	0	843055104	49	4321
2026-01-30 12:24:28.29	178.29	22.53	-38.4	-40.3	14.8	0.00e+00	0	62	0	849346560	48	4490
2026-01-30 12:24:29.30	178.35	22.67	-38.3	-40.3	14.9	0.00e+00	0	62	0	854589440	48	4443
2026-01-30 12:24:30.31	178.42	22.82	-38.3	-40.2	15.0	0.00e+00	0	61	0	859832320	48	4431
2026-01-30 12:24:31.32	178.49	22.96	-38.3	-40.2	15.0	0.00e+00	0	61	0	866123776	48	4394
2026-01-30 12:24:32.33	178.55	23.11	-38.2	-40.1	15.1	0.00e+00	0	61	0	871366656	48	4348
2026-01-30 12:24:33.34	178.62	23.25	-38.1	-40.0	15.2	0.00e+00	0	62	0	877658112	48	4313
2026-01-30 12:24:34.35	178.69	23.40	-38.2	-40.0	15.2	0.00e+00	0	62	0	882900992	48	4331
2026-01-30 12:24:35.36	178.76	23.55	-38.2	-40.0	15.2	0.00e+00	0	62	0	888143872	48	4332
2026-01-30 12:24:36.37	178.83	23.70	-38.1	-39.9	15.3	1.10e-06	0	62	0	894435328	48	4269
2026-01-30 12:24:37.38	178.90	23.85	-38.1	-40.0	15.2	0.00e+00	0	62	0	899678208	48	4319
2026-01-30 12:24:38.39	178.98	24.00	-38.1	-40.0	15.2	0.00e+00	0	62	0	905969664	48	4294
2026-01-30 12:24:39.40	179.05	24.15	-38.2	-40.0	15.2	0.00e+00	0	62	0	911212544	48	4330
2026-01-30 12:24:40.41	179.12	24.30	-38.2	-40.1	15.1	0.00e+00	0	62	0	917504000	48	4351
2026-01-30 12:24:41.42	179.20	24.45	-38.1	-39.9	15.3	0.00e+00	0	62	0	922746880	48	4267
2026-01-30 12:24:42.43	179.27	24.61	-38.1	-39.9	15.3	0.00e+00	0	62	0	929038336	48	4276
2026-01-30 12:24:43.44	179.35	24.76	-38.1	-39.9	15.2	1.10e-06	0	61	0	934281216	48	4288
2026-01-30 12:24:44.45	179.42	24.92	-38.2	-40.0	15.2	0.00e+00	0	62	0	939524096	48	4326
2026-01-30 12:24:45.47	179.50	25.08	-38.1	-40.0	15.2	0.00e+00	0	62	0	945815552	48	4310
2026-01-30 12:24:46.48	179.58	25.23	-38.2	-40.1	15.2	0.00e+00	0	62	0	951058432	48	4354
2026-01-30 12:24:47.49	179.66	25.39	-38.2	-40.0	15.2	0.00e+00	0	62	0	957349888	48	4318
2026-01-30 12:24:48.50	179.74	25.55	-38.2	-40.0	15.2	0.00e+00	0	62	0	962592768	48	4325
2026-01-30 12:24:49.51	179.81	25.71	-38.2	-40.0	15.2	0.00e+00	0	62	0	967835648	48	4310
2026-01-30 12:24:50.52	179.90	25.87	-38.1	-39.9	15.3	0.00e+00	0	62	0	974127104	48	4266
2026-01-30 12:24:51.53	179.98	26.03	-38.0	-39.9	15.3	0.00e+00	0	62	0	979369984	48	4255
2026-01-30 12:24:52.54	180.06	26.20	-38.0	-39.8	15.4	0.00e+00	0	62	0	985661440	48	4213
2026-01-30 12:24:53.55	180.14	26.36	-37.9	-39.7	15.4	0.00e+00	0	62	0	990904320	47	4420
2026-01-30 12:24:54.56	180.23	26.52	-37.9	-39.7	15.4	0.00e+00	0	62	0	996147200	47	4420
2026-01-30 12:24:55.57	180.31	26.69	-37.9	-39.7	15.4	1.10e-06	0	62	0	1002438656	47	4418
2026-01-30 12:24:56.58	180.40	26.86	-37.9	-39.7	15.4	0.00e+00	0	62	0	1007681536	47	4437
2026-01-30 12:24:57.59	180.48	27.02	-37.8	-39.6	15.5	0.00e+00	0	62	0	1013972992	47	4374
2026-01-30 12:24:58.60	180.57	27.19	-37.8	-39.6	15.5	0.00e+00	0	62	0	1019215872	47	4356
2026-01-30 12:24:59.61	180.66	27.36	-37.8	-39.6	15.5	0.00e+00	0	62	0	1025507328	47	4383
2026-01-30 12:25:00.62	180.75	27.53	-37.8	-39.6	15.5	0.00e+00	0	62	0	1030750208	47	4366
2026-01-30 12:25:01.63	180.84	27.70	-37.8	-39.6	15.5	0.00e+00	0	62	0	1037041664	47	4390
2026-01-30 12:25:02.64	180.93	27.88	-37.9	-39.7	15.4	0.00e+00	0	62	0	1042284544	47	4412
2026-01-30 12:25:03.65	181.02	28.05	-37.9	-39.8	15.3	0.00e+00	0	62	0	1047527424	47	4470
2026-01-30 12:25:04.66	181.11	28.22	-38.0	-39.9	15.2	0.00e+00	0	62	0	1053818880	47	4512
2026-01-30 12:25:05.67	181.21	28.40	-38.0	-39.8	15.3	0.00e+00	0	62	0	1059061760	47	4484
2026-01-30 12:25:06.68	181.30	28.58	-37.9	-39.8	15.3	0.00e+00	0	62	0	1065353216	47	4472
2026-01-30 12:25:07.69	181.40	28.75	-37.9	-39.8	15.3	0.00e+00	0	62	0	1070596096	47	4453
2026-01-30 12:25:08.70	181.49	28.93	-37.9	-39.7	15.4	0.00e+00	0	62	0	1075838976	47	4412
2026-01-30 12:25:09.71	181.59	29.11	-37.9	-39.7	15.4	0.00e+00	0	62	0	1082130432	47	4434
2026-01-30 12:25:10.72	181.69	29.29	-37.7	-39.5	15.6	0.00e+00	0	62	0	1087373312	47	4335
2026-01-30 12:25:11.73	181.79	29.48	-37.7	-39.5	15.7	0.00e+00	0	62	0	1093664768	47	4308
2026-01-30 12:25:12.74	181.89	29.66	-37.7	-39.4	15.7	0.00e+00	0	62	0	1098907648	47	4291
2026-01-30 12:25:13.75	181.99	29.84	-37.6	-39.4	15.7	0.00e+00	0	62	0	1104150528	47	4271
2026-01-30 12:25:14.76	182.10	30.03	-37.6	-39.4	15.8	0.00e+00	0	62	0	1110441984	47	4255
2026-01-30 12:25:15.77	182.20	30.21	-37.7	-39.5	15.7	0.00e+00	0	62	0	1115684864	47	4312
2026-01-30 12:25:16.78	182.31	30.40	-37.7	-39.5	15.6	0.00e+00	0	62	0	1121976320	47	4322
2026-01-30 12:25:17.79	182.41	30.59	-37.6	-39.4	15.7	0.00e+00	0	62	0	1127219200	47	4265
2026-01-30 12:25:18.80	182.52	30.78	-37.6	-39.4	15.8	0.00e+00	0	62	0	1133510656	47	4254
2026-01-30 12:25:19.82	182.63	30.97	-37.6	-39.3	15.8	0.00e+00	0	62	0	1138753536	47	4228
2026-01-30 12:25:20.83	182.74	31.16	-37.6	-39.3	15.8	0.00e+00	0	62	0	1145044992	47	4233
2026-01-30 12:25:21.83	182.85	31.35	-37.6	-39.4	15.8	0.00e+00	0	62	0	1150287872	47	4243
2026-01-30 12:25:22.84	182.97	31.55	-37.7	-39.5	15.6	0.00e+00	0	62	0	1155530752	47	4332
2026-01-30 12:25:23.85	183.08	31.74	-37.8	-39.7	15.5	0.00e+00	0	62	0	1161822208	47	4396
2026-01-30 12:25:24.86	183.20	31.94	-37.8	-39.7	15.5	0.00e+00	0	62	0	1167065088	47	4404
2026-01-30 12:25:25.87	183.31	32.14	-37.9	-39.7	15.4	0.00e+00	0	62	0	1173356544	47	4430
2026-01-30 12:25:26.88	183.43	32.34	-37.9	-39.7	15.5	0.00e+00	0	62	0	1178599424	47	4401
2026-01-30 12:25:27.90	183.55	32.54	-37.7	-39.5	15.7	0.00e+00	0	62	0	1183842304	47	4297
2026-01-30 12:25:28.91	183.67	32.74	-37.5	-39.3	15.9	0.00e+00	0	62	0	1190133760	47	4208
2026-01-30 12:25:29.92	183.80	32.94	-37.6	-39.3	15.8	0.00e+00	0	62	0	1195376640	47	4233
2026-01-30 12:25:30.93	183.92	33.15	-37.6	-39.3	15.8	0.00e+00	0	62	0	1201668096	47	4241
2026-01-30 12:25:31.94	184.05	33.35	-37.7	-39.5	15.7	0.00e+00	0	62	0	1206910976	47	4321
2026-01-30 12:25:32.95	184.18	33.56	-37.7	-39.5	15.6	0.00e+00	0	62	0	1212153856	47	4338
2026-01-30 12:25:33.96	184.30	33.77	-37.7	-39.6	15.6	0.00e+00	0	62	0	1218445312	47	4344
2026-01-30 12:25:34.97	184.44	33.98	-37.7	-39.4	15.7	0.00e+00	0	62	0	1223688192	47	4286
2026-01-30 12:25:35.98	184.57	34.19	-37.6	-39.3	15.8	0.00e+00	0	62	0	1229979648	47	4238
2026-01-30 12:25:36.99	184.70	34.40	-37.5	-39.3	15.9	0.00e+00	0	62	0	1235222528	47	4216
2026-01-30 12:25:38.00	184.84	34.61	-37.6	-39.4	15.8	0.00e+00	0	62	0	1241513984	47	4245
2026-01-30 12:25:39.01	184.98	34.82	-37.5	-39.3	15.9	0.00e+00	0	62	0	1246756864	47	4214
2026-01-30 12:25:40.02	185.11	35.04	-37.5	-39.2	15.9	0.00e+00	0	62	0	1253048320	47	4189
2026-01-30 12:25:41.03	185.26	35.25	-37.5	-39.3	15.9	0.00e+00	0	62	0	1258291200	47	4198
2026-01-30 12:25:42.04	185.40	35.47	-37.4	-39.1	16.1	0.00e+00	0	62	0	1263534080	46	4350
2026-01-30 12:25:43.05	185.54	35.69	-37.3	-38.9	16.2	0.00e+00	0	62	0	1269825536	46	4291
2026-01-30 12:25:44.06	185.69	35.91	-37.2	-38.8	16.4	0.00e+00	0	62	0	1275068416	46	4208
2026-01-30 12:25:45.07	185.84	36.13	-37.1	-38.7	16.5	0.00e+00	0	62	0	1280311296	46	4187
2026-01-30 12:25:46.08	185.99	36.36	-37.2	-38.9	16.3	0.00e+00	0	62	0	1286602752	46	4259
2026-01-30 12:25:47.09	186.14	36.58	-37.3	-39.0	16.2	0.00e+00	0	62	0	1291845632	46	4301
2026-01-30 12:25:48.10	186.30	36.81	-37.2	-38.9	16.3	0.00e+00	0	62	0	1298137088	46	4271
2026-01-30 12:25:49.11	186.45	37.03	-37.3	-39.0	16.2	0.00e+00	0	62	0	1303379968	46	4331
2026-01-30 12:25:50.12	186.61	37.26	-37.4	-39.1	16.1	0.00e+00	0	62	0	1308622848	46	4370
2026-01-30 12:25:51.13	186.77	37.49	-37.5	-39.2	16.0	0.00e+00	0	62	0	1314914304	46	4439
2026-01-30 12:25:52.14	186.94	37.72	-37.6	-39.4	15.9	0.00e+00	0	62	0	1320157184	46	4494
2026-01-30 12:25:53.15	187.10	37.96	-37.5	-39.3	16.0	0.00e+00	0	62	0	1326448640	46	4448
2026-01-30 12:25:54.16	187.27	38.19	-37.4	-39.2	16.1	0.00e+00	0	62	0	1331691520	46	4397
2026-01-30 12:25:55.17	187.44	38.42	-37.4	-39.1	16.1	0.00e+00	0	62	0	1337982976	46	4391
2026-01-30 12:25:56.18	187.61	38.66	-37.4	-39.0	16.2	0.00e+00	0	62	0	1343225856	46	4332
2026-01-30 12:25:57.19	187.79	38.90	-37.3	-39.0	16.2	0.00e+00	0	62	0	1349517312	46	4322
2026-01-30 12:25:58.20	187.97	39.14	-37.4	-39.0	16.2	0.00e+00	0	62	0	1354760192	46	4323
2026-01-30 12:25:59.21	188.15	39.38	-37.4	-39.1	16.1	0.00e+00	0	62	0	1360003072	46	4365
2026-01-30 12:26:00.22	188.33	39.62	-37.6	-39.3	16.0	0.00e+00	0	62	0	1366294528	46	4458
2026-01-30 12:26:01.23	188.51	39.86	-37.7	-39.5	15.8	0.00e+00	0	62	0	1371537408	46	4566
2026-01-30 12:26:02.24	188.70	40.11	-37.8	-39.5	15.7	0.00e+00	0	62	0	1377828864	46	4583
2026-01-30 12:26:03.25	188.89	40.35	-37.7	-39.5	15.8	0.00e+00	0	62	0	1383071744	46	4570
2026-01-30 12:26:04.27	189.09	40.60	-37.8	-39.5	15.8	0.00e+00	0	62	0	1388314624	46	4578
2026-01-30 12:26:05.28	189.29	40.85	-37.6	-39.3	16.0	0.00e+00	0	62	0	1394606080	46	4460
2026-01-30 12:26:06.29	189.49	41.10	-37.5	-39.2	16.1	0.00e+00	0	62	0	1399848960	46	4400
2026-01-30 12:26:07.30	189.69	41.35	-37.4	-39.1	16.2	0.00e+00	0	62	0	1406140416	46	4354
2026-01-30 12:26:08.31	189.90	41.61	-37.4	-39.1	16.2	0.00e+00	0	62	0	1411383296	46	4355
2026-01-30 12:26:09.32	190.11	41.86	-37.6	-39.3	16.0	0.00e+00	0	62	0	1416626176	46	4459
2026-01-30 12:26:10.33	190.32	42.12	-37.6	-39.4	15.9	0.00e+00	0	62	0	1422917632	46	4503
2026-01-30 12:26:11.33	190.53	42.37	-37.8	-39.6	15.7	0.00e+00	0	62	0	1428160512	46	4627
2026-01-30 12:26:12.34	190.75	42.63	-37.9	-39.7	15.5	0.00e+00	0	62	0	1434451968	46	4704
2026-01-30 12:26:13.35	190.98	42.89	-38.0	-39.8	15.4	0.00e+00	0	62	0	1439694848	46	4746
2026-01-30 12:26:14.36	191.20	43.15	-37.8	-39.5	15.8	0.00e+00	0	62	0	1445986304	46	4594
2026-01-30 12:26:15.37	191.43	43.41	-37.6	-39.3	16.0	0.00e+00	0	62	0	1451229184	46	4475
2026-01-30 12:26:16.38	191.67	43.68	-37.7	-39.4	15.9	0.00e+00	0	62	0	1457520640	46	4504
2026-01-30 12:26:17.39	191.90	43.94	-37.9	-39.7	15.6	0.00e+00	0	62	0	1462763520	46	4687
2026-01-30 12:26:18.40	192.15	44.21	-38.1	-39.9	15.4	0.00e+00	0	62	0	1468006400	46	4794
2026-01-30 12:26:19.41	192.39	44.47	-38.2	-40.1	15.1	0.00e+00	0	62	0	1474297856	46	4910
2026-01-30 12:26:20.42	192.64	44.74	-38.2	-40.1	15.1	0.00e+00	0	62	0	1479540736	47	4647
2026-01-30 12:26:21.43	192.90	45.01	-38.1	-40.0	15.3	0.00e+00	0	62	0	1485832192	47	4569
2026-01-30 12:26:22.44	193.15	45.28	-38.0	-39.9	15.4	0.00e+00	0	62	0	1491075072	47	4509
2026-01-30 12:26:23.45	193.42	45.56	-38.1	-39.9	15.4	0.00e+00	0	62	0	1496317952	47	4538
2026-01-30 12:26:24.46	193.68	45.83	-38.0	-39.9	15.4	0.00e+00	0	62	0	1502609408	47	4500
2026-01-30 12:26:25.47	193.96	46.10	-38.0	-39.8	15.5	0.00e+00	0	62	0	1507852288	47	4486
2026-01-30 12:26:26.49	194.23	46.38	-38.0	-39.8	15.6	0.00e+00	0	62	0	1514143744	47	4447
2026-01-30 12:26:27.50	194.52	46.66	-38.0	-39.8	15.5	0.00e+00	0	62	0	1519386624	47	4492
2026-01-30 12:26:28.51	194.80	46.94	-38.2	-40.1	15.2	0.00e+00	0	62	0	1524629504	47	4618
2026-01-30 12:26:29.52	195.09	47.22	-38.0	-39.8	15.5	1.10e-06	0	62	0	1530920960	47	4468
2026-01-30 12:26:30.53	195.39	47.50	-37.8	-39.5	15.8	0.00e+00	0	62	0	1536163840	47	4336
2026-01-30 12:26:31.54	195.69	47.78	-37.9	-39.6	15.7	0.00e+00	0	62	0	1542455296	47	4391
2026-01-30 12:26:32.55	196.00	48.06	-38.0	-39.8	15.6	0.00e+00	0	62	0	1547698176	47	4450
2026-01-30 12:26:33.56	196.31	48.34	-38.1	-39.9	15.5	0.00e+00	0	62	0	1553989632	47	4499
2026-01-30 12:26:34.57	196.63	48.63	-38.0	-39.8	15.5	0.00e+00	0	62	0	1559232512	47	4462
2026-01-30 12:26:35.58	196.96	48.91	-38.0	-39.8	15.5	0.00e+00	0	62	0	1565523968	47	4481
2026-01-30 12:26:36.59	197.29	49.20	-38.1	-39.9	15.5	0.00e+00	0	62	0	1570766848	47	4498
2026-01-30 12:26:37.60	197.62	49.48	-38.2	-40.1	15.3	0.00e+00	0	62	0	1576009728	47	4601
2026-01-30 12:26:38.61	197.97	49.77	-38.3	-40.1	15.2	0.00e+00	0	62	0	1582301184	47	4649
2026-01-30 12:26:39.62	198.32	50.06	-38.2	-40.0	15.3	0.00e+00	0	62	0	1587544064	47	4582
2026-01-30 12:26:40.63	198.67	50.35	-38.2	-40.0	15.4	0.00e+00	0	62	0	1593835520	47	4552
2026-01-30 12:26:41.64	199.03	50.64	-38.3	-40.2	15.1	0.00e+00	0	62	0	1599078400	47	4689
2026-01-30 12:26:42.65	199.40	50.93	-38.6	-40.5	14.9	0.00e+00	0	62	0	1604321280	47	4845
2026-01-30 12:26:43.66	199.78	51.22	-38.5	-40.4	14.9	0.00e+00	0	62	0	1610612736	47	4793
2026-01-30 12:26:44.67	200.17	51.51	-38.4	-40.3	15.1	0.00e+00	0	62	0	1615855616	47	4707
2026-01-30 12:26:45.68	200.56	51.80	-38.4	-40.3	15.1	0.00e+00	0	62	0	1622147072	47	4721
2026-01-30 12:26:46.68	200.95	52.09	-38.6	-40.5	14.8	0.00e+00	0	62	0	1627389952	47	4862
2026-01-30 12:26:47.70	201.36	52.39	-38.7	-40.6	14.7	0.00e+00	0	62	0	1632632832	47	4925
2026-01-30 12:26:48.71	201.78	52.68	-38.5	-40.7	14.7	1.10e-06	0	62	0	1638924288	48	4701
2026-01-30 12:26:49.72	202.20	52.97	-38.8	-40.7	14.8	0.00e+00	0	62	0	1644167168	48	4691
2026-01-30 12:26:50.73	202.63	53.26	-38.8	-40.8	14.8	0.00e+00	0	62	0	1650458624	48	4717
2026-01-30 12:26:51.74	203.08	53.56	-38.8	-40.8	14.8	1.10e-06	0	62	0	1655701504	48	4708
2026-01-30 12:26:52.75	203.52	53.85	-39.0	-41.0	14.6	0.00e+00	0	62	0	1661992960	48	4838
2026-01-30 12:26:53.76	203.98	54.14	-39.1	-41.1	14.4	1.10e-06	0	62	0	1667235840	48	4900
2026-01-30 12:26:54.77	204.45	54.44	-38.9	-40.9	14.7	1.10e-06	0	62	0	1672478720	48	4765
2026-01-30 12:26:55.78	204.93	54.73	-38.9	-40.8	14.7	0.00e+00	0	62	0	1678770176	48	4752
2026-01-30 12:26:56.79	205.42	55.02	-38.9	-40.9	14.7	1.10e-06	0	62	0	1684013056	48	4769
2026-01-30 12:26:57.80	205.91	55.31	-39.0	-41.0	14.5	0.00e+00	0	62	0	1690304512	48	4843
2026-01-30 12:26:58.81	206.42	55.60	-39.1	-41.2	14.3	2.20e-06	0	62	0	1695547392	48	4934
2026-01-30 12:26:59.82	206.94	55.89	-39.0	-41.0	14.5	0.00e+00	0	62	0	1701838848	48	4834
2026-01-30 12:27:00.83	207.47	56.18	-38.9	-40.8	14.7	1.10e-06	0	62	0	1707081728	48	4751
2026-01-30 12:27:01.84	208.01	56.47	-38.7	-40.6	14.9	2.20e-06	0	62	0	1712324608	48	4615
2026-01-30 12:27:02.85	208.56	56.76	-38.6	-40.4	15.1	0.00e+00	0	62	0	1718616064	48	4531
2026-01-30 12:27:03.87	209.13	57.05	-38.6	-40.6	14.9	1.10e-06	0	62	0	1723858944	48	4603
2026-01-30 12:27:04.88	209.70	57.33	-38.7	-40.6	14.9	1.10e-06	0	62	0	1730150400	48	4615
2026-01-30 12:27:05.89	210.29	57.62	-38.7	-40.5	14.9	1.10e-06	0	62	0	1735393280	48	4596
2026-01-30 12:27:06.90	210.89	57.90	-38.5	-40.3	15.2	0.00e+00	0	62	0	1740636160	48	4487
2026-01-30 12:27:07.91	211.50	58.18	-38.4	-40.2	15.2	0.00e+00	0	62	0	1746927616	48	4431
2026-01-30 12:27:08.92	212.13	58.46	-38.4	-40.2	15.3	0.00e+00	0	62	0	1752170496	48	4399
2026-01-30 12:27:09.93	212.76	58.74	-38.4	-40.3	15.2	0.00e+00	0	62	0	1758461952	48	4448
2026-01-30 12:27:10.94	213.41	59.01	-38.3	-40.1	15.3	0.00e+00	0	62	0	1763704832	48	4390
2026-01-30 12:27:11.95	214.08	59.29	-38.2	-40.0	15.5	0.00e+00	0	62	0	1769996288	48	4326
2026-01-30 12:27:12.96	214.76	59.56	-38.3	-40.1	15.4	0.00e+00	0	62	0	1775239168	48	4351
2026-01-30 12:27:13.97	215.45	59.83	-37.8	-39.5	15.8	0.00e+00	0	62	0	1780482048	47	4314
2026-01-30 12:27:14.98	216.16	60.09	-37.6	-39.3	16.1	1.10e-06	0	62	0	1786773504	47	4204
2026-01-30 12:27:15.99	216.88	60.35	-37.9	-39.6	15.7	1.10e-06	0	62	0	1792016384	47	4373
2026-01-30 12:27:17.00	217.62	60.61	-37.7	-39.4	15.9	0.00e+00	0	62	0	1798307840	47	4260
2026-01-30 12:27:18.01	218.37	60.87	-37.6	-39.3	16.0	0.00e+00	0	62	0	1803550720	47	4214
2026-01-30 12:27:19.02	219.13	61.12	-37.6	-39.2	16.0	0.00e+00	0	62	0	1808793600	47	4191
2026-01-30 12:27:20.03	219.92	61.37	-37.4	-39.0	16.3	0.00e+00	0	62	0	1815085056	46	4307
2026-01-30 12:27:21.04	220.71	61.62	-37.4	-39.1	16.2	0.00e+00	0	62	0	1820327936	46	4376
2026-01-30 12:27:22.05	221.53	61.86	-37.8	-39.6	15.7	0.00e+00	0	62	0	1826619392	46	4640
2026-01-30 12:27:23.06	222.36	62.10	-37.8	-39.6	15.7	0.00e+00	0	62	0	1831862272	46	4607
2026-01-30 12:27:24.07	223.20	62.33	-37.5	-39.2	16.1	0.00e+00	0	62	0	1838153728	46	4417
2026-01-30 12:27:25.08	224.06	62.56	-37.5	-39.1	16.2	0.00e+00	0	62	0	1843396608	46	4382
2026-01-30 12:27:26.09	224.94	62.78	-37.5	-39.2	16.2	0.00e+00	0	62	0	1848639488	46	4397
2026-01-30 12:27:27.11	225.84	63.01	-37.6	-39.4	15.9	0.00e+00	0	62	0	1854930944	46	4505
2026-01-30 12:27:28.12	226.76	63.22	-37.7	-39.5	15.8	0.00e+00	0	62	0	1860173824	46	4559
2026-01-30 12:27:29.13	227.68	63.43	-37.4	-39.1	16.2	0.00e+00	0	62	0	1866465280	46	4377
2026-01-30 12:27:30.14	228.62	63.63	-37.3	-38.9	16.3	0.00e+00	0	62	0	1871708160	46	4278
2026-01-30 12:27:31.15	229.58	63.83	-37.4	-39.0	16.2	0.00e+00	0	62	0	1877999616	46	4338
2026-01-30 12:27:32.16	230.56	64.02	-37.3	-39.0	16.2	0.00e+00	0	62	0	1883242496	46	4315
2026-01-30 12:27:33.17	231.55	64.20	-37.3	-39.0	16.2	0.00e+00	0	62	0	1888485376	46	4332
2026-01-30 12:27:34.18	232.56	64.38	-37.4	-39.1	16.2	0.00e+00	0	62	0	1894776832	46	4363
2026-01-30 12:27:35.19	233.58	64.55	-37.4	-39.0	16.2	0.00e+00	0	62	0	1900019712	46	4335
2026-01-30 12:27:36.20	234.62	64.72	-37.4	-39.1	16.2	0.00e+00	0	62	0	1906311168	46	4365
2026-01-30 12:27:37.21	235.67	64.88	-37.4	-39.1	16.2	0.00e+00	0	62	0	1911554048	46	4367
2026-01-30 12:27:38.22	236.74	65.03	-37.2	-38.9	16.4	0.00e+00	0	62	0	1916796928	46	4249
2026-01-30 12:27:39.23	237.82	65.17	-37.3	-39.0	16.2	0.00e+00	0	62	0	1923088384	46	4320
2026-01-30 12:27:40.24	238.91	65.30	-37.5	-39.3	16.0	0.00e+00	0	62	0	1928331264	46	4450
2026-01-30 12:27:41.25	240.02	65.43	-37.3	-39.0	16.3	0.00e+00	0	62	0	1934622720	46	4295
2026-01-30 12:27:42.26	241.13	65.55	-37.3	-39.0	16.2	0.00e+00	0	62	0	1939865600	46	4321
2026-01-30 12:27:43.27	242.26	65.66	-37.5	-39.2	16.0	0.00e+00	0	62	0	1945108480	46	4420
2026-01-30 12:27:44.28	243.41	65.76	-37.2	-38.9	16.3	0.00e+00	0	62	0	1951399936	46	4267
2026-01-30 12:27:45.29	244.56	65.85	-37.3	-38.9	16.4	0.00e+00	0	62	0	1956642816	46	4260
2026-01-30 12:27:46.31	245.73	65.94	-37.4	-39.1	16.2	0.00e+00	0	62	0	1962934272	46	4372
2026-01-30 12:27:47.32	246.90	66.02	-37.5	-39.3	16.0	8.00e-06	0	62	0	1968177152	46	4449
2026-01-30 12:27:48.33	248.08	66.08	-37.6	-39.4	15.9	0.00e+00	0	62	0	1974468608	46	4497
2026-01-30 12:27:49.34	249.26	66.14	-37.4	-39.0	16.2	0.00e+00	0	62	0	1979711488	46	4328
2026-01-30 12:27:50.35	250.45	66.19	-37.2	-38.9	16.4	0.00e+00	0	62	0	1986002944	46	4252
2026-01-30 12:27:51.36	251.64	66.23	-37.2	-38.8	16.4	0.00e+00	0	62	0	1991245824	46	4236
2026-01-30 12:27:52.37	252.84	66.26	-37.1	-38.7	16.5	0.00e+00	0	62	0	1996488704	46	4185
2026-01-30 12:27:53.38	254.04	66.28	-37.2	-38.8	16.5	0.00e+00	0	62	0	2002780160	46	4209
2026-01-30 12:27:54.39	255.24	66.29	-37.3	-39.0	16.2	0.00e+00	0	62	0	2008023040	46	4320
2026-01-30 12:27:55.40	256.45	66.29	-37.3	-39.0	16.2	0.00e+00	0	62	0	2014314496	46	4310
2026-01-30 12:27:56.41	257.65	66.28	-37.3	-39.0	16.3	0.00e+00	0	62	0	2019557376	46	4295
2026-01-30 12:27:57.42	258.85	66.27	-37.1	-38.8	16.4	6.80e-06	0	62	0	2024800256	45	4456
2026-01-30 12:27:58.43	260.05	66.24	-36.9	-38.5	16.7	0.00e+00	0	62	0	2031091712	45	4308
2026-01-30 12:27:59.44	261.25	66.20	-37.0	-38.6	16.6	0.00e+00	0	62	0	2036334592	45	4382
2026-01-30 12:28:00.45	262.44	66.16	-37.2	-38.9	16.3	0.00e+00	0	62	0	2042626048	45	4532
2026-01-30 12:28:01.46	263.62	66.11	-37.3	-39.0	16.2	0.00e+00	0	62	0	2047868928	45	4577
2026-01-30 12:28:02.47	264.80	66.04	-37.3	-39.0	16.2	0.00e+00	0	62	0	2053111808	45	4567
2026-01-30 12:28:03.48	265.97	65.97	-37.3	-39.0	16.2	0.00e+00	0	62	0	2059403264	45	4554
2026-01-30 12:28:04.49	267.14	65.89	-37.4	-39.1	16.1	0.00e+00	0	62	0	2064646144	45	4617
2026-01-30 12:28:05.50	268.29	65.80	-37.3	-38.9	16.2	0.00e+00	0	62	0	2070937600	45	4545
2026-01-30 12:28:06.51	269.43	65.70	-37.0	-38.6	16.6	0.00e+00	0	63	0	2076180480	45	4364
2026-01-30 12:28:07.52	270.57	65.59	-37.2	-38.8	16.4	0.00e+00	0	63	0	2082471936	45	4455
2026-01-30 12:28:08.53	271.69	65.48	-37.5	-39.2	16.1	0.00e+00	0	62	0	2087714816	45	4672
2026-01-30 12:28:09.55	272.81	65.35	-37.2	-38.8	16.4	0.00e+00	0	63	0	2094006272	45	4486
2026-01-30 12:28:10.56	273.91	65.22	-37.0	-38.6	16.6	0.00e+00	0	62	0	2099249152	45	4384
2026-01-30 12:28:11.57	274.99	65.08	-37.2	-38.9	16.4	0.00e+00	0	62	0	2104492032	45	4506
2026-01-30 12:28:12.58	276.06	64.93	-37.5	-39.2	16.0	0.00e+00	0	62	0	2110783488	45	4683
2026-01-30 12:28:13.59	277.12	64.78	-37.5	-39.3	15.9	0.00e+00	0	62	0	2116026368	45	4733
2026-01-30 12:28:14.60	278.16	64.62	-37.5	-39.2	16.0	0.00e+00	0	62	0	2122317824	45	4683
2026-01-30 12:28:15.61	279.19	64.45	-37.6	-39.3	15.9	0.00e+00	0	62	0	2127560704	45	4729
2026-01-30 12:28:16.62	280.20	64.27	-37.7	-39.5	15.8	0.00e+00	0	62	0	2132803584	45	4821
2026-01-30 12:28:17.63	281.20	64.09	-37.5	-39.2	16.0	0.00e+00	0	62	0	2139095040	45	4695
2026-01-30 12:28:18.64	282.18	63.90	-37.3	-38.9	16.3	0.00e+00	0	62	0	2144337920	45	4513
2026-01-30 12:28:19.65	283.14	63.71	-37.4	-39.2	16.1	0.00e+00	0	62	0	2150629376	45	4656
2026-01-30 12:28:20.66	284.09	63.51	-37.5	-39.2	16.0	0.00e+00	0	62	0	2155872256	45	4686
2026-01-30 12:28:21.67	285.02	63.30	-37.3	-39.0	16.3	0.00e+00	0	62	0	2162163712	45	4578
2026-01-30 12:28:22.68	285.94	63.09	-37.4	-39.0	16.3	0.00e+00	0	62	0	2167406592	45	4578
2026-01-30 12:28:23.70	286.84	62.87	-37.4	-39.0	16.3	0.00e+00	0	63	0	2172649472	45	4561
2026-01-30 12:28:24.71	287.73	62.65	-37.4	-39.1	16.2	0.00e+00	0	62	0	2178940928	45	4623
2026-01-30 12:28:25.72	288.59	62.42	-37.6	-39.3	16.0	0.00e+00	0	62	0	2184183808	45	4749
2026-01-30 12:28:26.73	289.44	62.19	-37.3	-38.9	16.4	0.00e+00	0	62	0	2190475264	45	4530
2026-01-30 12:28:27.74	290.28	61.96	-37.4	-39.0	16.2	0.00e+00	0	62	0	2195718144	45	4592
2026-01-30 12:28:28.75	291.10	61.72	-37.6	-39.4	15.9	0.00e+00	0	62	0	2202009600	45	4789
2026-01-30 12:28:29.76	291.90	61.47	-37.6	-39.3	16.0	0.00e+00	0	62	0	2207252480	45	4727
2026-01-30 12:28:30.77	292.69	61.22	-37.5	-39.2	16.2	0.00e+00	0	62	0	2212495360	45	4663
2026-01-30 12:28:31.78	293.46	60.97	-37.4	-39.1	16.3	0.00e+00	0	62	0	2218786816	45	4607
2026-01-30 12:28:32.79	294.21	60.72	-37.4	-39.0	16.3	0.00e+00	0	63	0	2224029696	45	4580
2026-01-30 12:28:33.80	294.95	60.46	-37.6	-39.3	16.0	0.00e+00	0	62	0	2230321152	45	4738
2026-01-30 12:28:34.81	295.68	60.20	-37.8	-39.6	15.8	0.00e+00	0	62	0	2235564032	46	4622
2026-01-30 12:28:35.82	296.39	59.94	-37.8	-39.5	15.8	0.00e+00	0	62	0	2241855488	46	4584
2026-01-30 12:28:36.83	297.09	59.67	-37.7	-39.4	16.0	0.00e+00	0	62	0	2247098368	46	4529
2026-01-30 12:28:37.84	297.77	59.40	-37.7	-39.5	15.9	0.00e+00	0	62	0	2252341248	46	4557
2026-01-30 12:28:38.85	298.44	59.13	-37.7	-39.4	16.0	0.00e+00	0	62	0	2258632704	46	4527
2026-01-30 12:28:39.86	299.09	58.86	-37.6	-39.3	16.1	0.00e+00	0	62	0	2263875584	46	4454
2026-01-30 12:28:40.88	299.74	58.58	-37.8	-39.6	15.8	0.00e+00	0	63	0	2270167040	46	4601
2026-01-30 12:28:41.89	300.37	58.30	-38.1	-40.0	15.4	1.10e-06	0	62	0	2275409920	46	4820
2026-01-30 12:28:42.90	300.99	58.02	-38.1	-39.9	15.4	0.00e+00	0	62	0	2280652800	46	4813
2026-01-30 12:28:43.91	301.59	57.74	-38.1	-39.9	15.5	0.00e+00	0	62	0	2286944256	46	4793
2026-01-30 12:28:44.92	302.18	57.46	-38.1	-39.9	15.4	0.00e+00	0	62	0	2292187136	46	4794
2026-01-30 12:28:45.93	302.76	57.17	-38.2	-40.1	15.3	0.00e+00	0	62	0	2298478592	47	4617
2026-01-30 12:28:46.94	303.32	56.89	-38.4	-40.3	15.1	0.00e+00	0	62	0	2303721472	47	4717
2026-01-30 12:28:47.94	303.87	56.60	-38.5	-40.4	15.0	2.20e-06	0	62	0	2310012928	47	4783
2026-01-30 12:28:48.95	304.42	56.32	-38.3	-40.2	15.2	0.00e+00	0	62	0	2315255808	47	4680
2026-01-30 12:28:49.96	304.95	56.03	-38.4	-40.3	15.1	0.00e+00	0	63	0	2320498688	47	4733
2026-01-30 12:28:50.97	305.47	55.74	-38.6	-40.5	14.8	0.00e+00	0	62	0	2326790144	47	4845
2026-01-30 12:28:51.98	305.98	55.45	-38.6	-40.6	14.7	0.00e+00	0	62	0	2332033024	47	4908
2026-01-30 12:28:52.99	306.48	55.16	-38.5	-40.5	14.9	0.00e+00	0	63	0	2338324480	47	4827
2026-01-30 12:28:54.00	306.97	54.87	-38.4	-40.3	15.1	0.00e+00	0	62	0	2343567360	47	4744
2026-01-30 12:28:55.01	307.46	54.58	-38.5	-40.4	14.9	1.10e-06	0	63	0	2348810240	47	4811
2026-01-30 12:28:56.02	307.93	54.29	-38.5	-40.4	14.9	0.00e+00	0	63	0	2355101696	47	4798
2026-01-30 12:28:57.04	308.39	53.99	-38.5	-40.4	15.0	2.20e-06	0	62	0	2360344576	47	4797
2026-01-30 12:28:58.05	308.85	53.70	-38.5	-40.4	14.9	0.00e+00	0	62	0	2366636032	47	4812
2026-01-30 12:28:59.06	309.29	53.41	-38.4	-40.3	15.1	0.00e+00	0	63	0	2371878912	47	4717
2026-01-30 12:29:00.07	309.72	53.12	-38.3	-40.0	15.5	0.00e+00	0	63	0	2377121792	47	4584
2026-01-30 12:29:01.08	310.15	52.82	-38.2	-39.9	15.6	0.00e+00	0	62	0	2383413248	47	4510
2026-01-30 12:29:02.09	310.57	52.53	-38.2	-40.0	15.6	0.00e+00	0	63	0	2388656128	47	4547
2026-01-30 12:29:03.10	310.98	52.24	-38.1	-39.9	15.7	0.00e+00	0	62	0	2394947584	47	4495
2026-01-30 12:29:04.11	311.38	51.95	-38.1	-39.8	15.7	0.00e+00	0	63	0	2400190464	47	4464
2026-01-30 12:29:05.12	311.77	51.66	-38.0	-39.7	15.8	0.00e+00	0	63	0	2406481920	47	4414
2026-01-30 12:29:06.13	312.16	51.37	-38.1	-39.8	15.7	0.00e+00	0	62	0	2411724800	47	4453
2026-01-30 12:29:07.14	312.54	51.08	-38.1	-39.8	15.7	0.00e+00	0	63	0	2418016256	47	4482
2026-01-30 12:29:08.15	312.91	50.79	-38.2	-39.9	15.6	0.00e+00	0	62	0	2423259136	47	4513
2026-01-30 12:29:09.16	313.28	50.50	-38.2	-39.9	15.6	0.00e+00	0	62	0	2428502016	47	4519
2026-01-30 12:29:10.17	313.64	50.21	-38.2	-40.0	15.6	0.00e+00	0	63	0	2434793472	47	4550
2026-01-30 12:29:11.18	313.99	49.93	-38.2	-39.9	15.6	0.00e+00	0	62	0	2440036352	47	4503
2026-01-30 12:29:12.19	314.33	49.64	-38.0	-39.7	15.8	0.00e+00	0	62	0	2446327808	47	4412
2026-01-30 12:29:13.20	314.67	49.36	-38.0	-39.7	15.8	0.00e+00	0	63	0	2451570688	47	4415
2026-01-30 12:29:14.22	315.01	49.07	-38.0	-39.7	15.8	0.00e+00	0	63	0	2456813568	47	4425
2026-01-30 12:29:15.23	315.33	48.78	-38.0	-39.7	15.8	0.00e+00	0	63	0	2463105024	47	4399
2026-01-30 12:29:16.24	315.65	48.50	-38.0	-39.7	15.8	0.00e+00	0	63	0	2468347904	47	4425
2026-01-30 12:29:17.25	315.97	48.22	-38.0	-39.7	15.8	0.00e+00	0	63	0	2474639360	47	4413
2026-01-30 12:29:18.26	316.28	47.94	-38.0	-39.7	15.9	0.00e+00	0	62	0	2479882240	47	4398
2026-01-30 12:29:19.27	316.58	47.66	-37.9	-39.6	15.9	0.00e+00	0	63	0	2485125120	47	4358
2026-01-30 12:29:20.28	316.88	47.38	-37.9	-39.6	15.9	0.00e+00	0	62	0	2491416576	47	4347
2026-01-30 12:29:21.29	317.17	47.10	-37.7	-39.3	16.2	0.00e+00	0	62	0	2496659456	47	4218
2026-01-30 12:29:22.30	317.46	46.82	-37.8	-39.4	16.1	0.00e+00	0	62	0	2502950912	47	4254
2026-01-30 12:29:23.31	317.74	46.55	-37.8	-39.5	16.0	0.00e+00	0	63	0	2508193792	47	4296
2026-01-30 12:29:24.32	318.02	46.27	-37.9	-39.6	15.9	0.00e+00	0	62	0	2514485248	47	4348
2026-01-30 12:29:25.33	318.30	46.00	-37.9	-39.5	16.0	0.00e+00	0	62	0	2519728128	47	4340
2026-01-30 12:29:26.34	318.56	45.72	-37.8	-39.4	16.0	0.00e+00	0	63	0	2526019584	47	4284
2026-01-30 12:29:27.35	318.83	45.45	-37.8	-39.4	16.0	0.00e+00	0	62	0	2531262464	47	4290
2026-01-30 12:29:28.36	319.09	45.18	-37.7	-39.2	16.3	0.00e+00	0	63	0	2536505344	47	4185
2026-01-30 12:29:29.37	319.34	44.91	-37.6	-39.1	16.4	0.00e+00	0	62	0	2542796800	47	4118
2026-01-30 12:29:30.38	319.60	44.65	-37.6	-39.1	16.4	0.00e+00	0	62	0	2548039680	47	4127
2026-01-30 12:29:31.39	319.84	44.38	-37.8	-39.4	16.1	0.00e+00	0	62	0	2554331136	47	4259
2026-01-30 12:29:32.40	320.09	44.11	-37.8	-39.5	16.0	0.00e+00	0	62	0	2559574016	47	4318
2026-01-30 12:29:33.41	320.33	43.85	-37.9	-39.5	16.0	0.00e+00	0	63	0	2564816896	47	4326
2026-01-30 12:29:34.42	320.56	43.59	-37.8	-39.5	16.0	0.00e+00	0	63	0	2571108352	47	4301
2026-01-30 12:29:35.43	320.79	43.32	-37.8	-39.4	16.1	0.00e+00	0	63	0	2576351232	47	4248
2026-01-30 12:29:36.44	321.02	43.06	-37.6	-39.2	16.3	0.00e+00	0	63	0	2582642688	47	4165
2026-01-30 12:29:37.45	321.24	42.81	-37.5	-39.1	16.4	0.00e+00	0	63	0	2587885568	47	4109
2026-01-30 12:29:38.46	321.47	42.55	-37.6	-39.1	16.3	0.00e+00	0	63	0	2593128448	47	4135
2026-01-30 12:29:39.47	321.68	42.29	-37.6	-39.2	16.2	0.00e+00	0	62	0	2599419904	47	4170
2026-01-30 12:29:40.48	321.90	42.04	-37.6	-39.2	16.2	0.00e+00	0	63	0	2604662784	47	4185
2026-01-30 12:29:41.49	322.11	41.78	-37.6	-39.2	16.2	0.00e+00	0	63	0	2610954240	47	4190
2026-01-30 12:29:42.50	322.31	41.53	-37.5	-39.1	16.3	0.00e+00	0	63	0	2616197120	47	4138
2026-01-30 12:29:43.51	322.52	41.28	-37.4	-39.0	16.5	0.00e+00	0	63	0	2622488576	46	4310
2026-01-30 12:29:44.52	322.72	41.03	-37.4	-38.9	16.5	0.00e+00	0	62	0	2627731456	46	4279
2026-01-30 12:29:45.54	322.92	40.78	-37.4	-38.9	16.5	0.00e+00	0	63	0	2634022912	46	4290
2026-01-30 12:29:46.55	323.12	40.53	-37.3	-38.8	16.6	0.00e+00	0	63	0	2639265792	46	4231
2026-01-30 12:29:47.56	323.31	40.29	-37.3	-38.8	16.7	0.00e+00	0	63	0	2644508672	46	4205
2026-01-30 12:29:48.57	323.50	40.04	-37.3	-38.9	16.5	0.00e+00	0	63	0	2650800128	46	4258
2026-01-30 12:29:49.58	323.69	39.80	-37.4	-39.0	16.4	0.00e+00	0	63	0	2656043008	46	4315
2026-01-30 12:29:50.59	323.87	39.56	-37.5	-39.1	16.4	0.00e+00	0	63	0	2662334464	46	4344
2026-01-30 12:29:51.60	324.05	39.32	-37.6	-39.2	16.3	0.00e+00	0	63	0	2667577344	46	4397
2026-01-30 12:29:52.61	324.23	39.08	-37.5	-39.1	16.3	0.00e+00	0	63	0	2672820224	46	4383
2026-01-30 12:29:53.62	324.41	38.84	-37.6	-39.2	16.3	0.00e+00	0	63	0	2679111680	46	4403
2026-01-30 12:29:54.63	324.58	38.61	-37.5	-39.2	16.3	0.00e+00	0	63	0	2684354560	46	4396
2026-01-30 12:29:55.64	324.75	38.37	-37.5	-39.1	16.3	0.00e+00	0	63	0	2690646016	46	4356
2026-01-30 12:29:56.65	324.92	38.14	-37.5	-39.1	16.3	0.00e+00	0	62	0	2695888896	46	4363
2026-01-30 12:29:57.66	325.09	37.91	-37.4	-38.9	16.5	0.00e+00	0	62	0	2701131776	46	4286
2026-01-30 12:29:58.67	325.25	37.68	-37.4	-38.9	16.5	0.00e+00	0	63	0	2707423232	46	4278
2026-01-30 12:29:59.68	325.41	37.45	-37.3	-38.9	16.5	0.00e+00	0	63	0	2712666112	46	4257
2026-01-30 12:30:00.70	325.57	37.22	-37.2	-38.8	16.6	0.00e+00	0	63	0	2718957568	46	4206
2026-01-30 12:30:01.71	325.73	36.99	-37.2	-38.7	16.7	0.00e+00	0	63	0	2724200448	46	4169
2026-01-30 12:30:02.72	325.89	36.77	-37.2	-38.7	16.7	0.00e+00	0	63	0	2730491904	46	4173
2026-01-30 12:30:03.72	326.04	36.54	-37.3	-38.8	16.6	0.00e+00	0	63	0	2735734784	46	4233
2026-01-30 12:30:04.73	326.19	36.32	-37.3	-38.8	16.6	0.00e+00	0	63	0	2742026240	46	4218
2026-01-30 12:30:05.75	326.34	36.10	-37.3	-38.9	16.5	0.00e+00	0	62	0	2747269120	46	4250
2026-01-30 12:30:06.76	326.49	35.88	-37.4	-38.9	16.5	0.00e+00	0	63	0	2752512000	46	4281
2026-01-30 12:30:07.77	326.64	35.66	-37.4	-39.0	16.3	0.00e+00	0	63	0	2758803456	46	4331
2026-01-30 12:30:08.78	326.78	35.44	-37.5	-39.0	16.3	0.00e+00	0	63	0	2764046336	46	4334
2026-01-30 12:30:09.79	326.92	35.23	-37.4	-39.0	16.4	0.00e+00	0	63	0	2770337792	46	4328
2026-01-30 12:30:10.80	327.06	35.01	-37.4	-39.0	16.4	0.00e+00	0	63	0	2775580672	46	4315
2026-01-30 12:30:11.82	327.20	34.80	-37.4	-38.9	16.4	0.00e+00	0	63	0	2780823552	46	4290
2026-01-30 12:30:12.83	327.34	34.58	-37.4	-39.0	16.4	0.00e+00	0	63	0	2787115008	46	4306
2026-01-30 12:30:13.84	327.47	34.37	-37.5	-39.1	16.3	0.00e+00	0	63	0	2792357888	46	4347
2026-01-30 12:30:14.85	327.61	34.16	-37.5	-39.1	16.2	0.00e+00	0	63	0	2798649344	46	4379
2026-01-30 12:30:15.86	327.74	33.95	-37.5	-39.1	16.3	0.00e+00	0	63	0	2803892224	46	4353
2026-01-30 12:30:16.86	327.87	33.75	-37.5	-39.1	16.2	0.00e+00	0	62	0	2809135104	46	4374
2026-01-30 12:30:17.88	328.00	33.54	-37.5	-39.2	16.2	0.00e+00	0	63	0	2815426560	46	4393
2026-01-30 12:30:18.89	328.12	33.34	-37.6	-39.2	16.1	0.00e+00	0	63	0	2820669440	46	4421
2026-01-30 12:30:19.90	328.25	33.13	-37.7	-39.3	16.0	0.00e+00	0	63	0	2826960896	46	4486
2026-01-30 12:30:20.90	328.37	32.93	-37.6	-39.3	16.1	0.00e+00	0	63	0	2832203776	46	4463
2026-01-30 12:30:21.91	328.49	32.73	-37.6	-39.2	16.1	0.00e+00	0	63	0	2838495232	46	4439
2026-01-30 12:30:22.92	328.61	32.53	-37.7	-39.3	16.0	0.00e+00	0	63	0	2843738112	46	4478
2026-01-30 12:30:23.93	328.73	32.33	-37.7	-39.3	16.0	0.00e+00	0	63	0	2850029568	46	4482
2026-01-30 12:30:24.94	328.85	32.14	-37.6	-39.3	16.0	0.00e+00	0	63	0	2855272448	46	4457
2026-01-30 12:30:25.95	328.97	31.94	-37.7	-39.3	16.0	0.00e+00	0	63	0	2860515328	46	4480
2026-01-30 12:30:26.96	329.08	31.75	-37.6	-39.2	16.1	0.00e+00	0	63	0	2866806784	46	4415
2026-01-30 12:30:27.97	329.20	31.55	-37.6	-39.2	16.1	0.00e+00	0	63	0	2872049664	46	4416
2026-01-30 12:30:28.98	329.31	31.36	-37.6	-39.2	16.1	0.00e+00	0	63	0	2878341120	46	4417
2026-01-30 12:30:29.99	329.42	31.17	-37.6	-39.2	16.1	0.00e+00	0	63	0	2883584000	46	4418
2026-01-30 12:30:31.01	329.53	30.98	-37.5	-39.1	16.1	0.00e+00	0	63	0	2888826880	46	4386
2026-01-30 12:30:32.02	329.64	30.79	-37.5	-39.2	16.1	0.00e+00	0	63	0	2895118336	46	4394
2026-01-30 12:30:33.03	329.75	30.60	-37.5	-39.1	16.1	0.00e+00	0	63	0	2900361216	46	4389
2026-01-30 12:30:34.04	329.86	30.41	-37.6	-39.3	16.0	0.00e+00	0	63	0	2906652672	46	4456
2026-01-30 12:30:35.05	329.96	30.23	-37.7	-39.3	16.0	0.00e+00	0	62	0	2911895552	46	4476
2026-01-30 12:30:36.06	330.07	30.04	-37.7	-39.4	15.9	0.00e+00	0	63	0	2917138432	46	4514
2026-01-30 12:30:37.07	330.17	29.86	-37.7	-39.4	15.9	0.00e+00	0	63	0	2923429888	46	4517
2026-01-30 12:30:38.08	330.27	29.67	-37.6	-39.3	16.0	0.00e+00	0	63	0	2928672768	46	4451
2026-01-30 12:30:39.09	330.37	29.49	-37.6	-39.3	15.9	0.00e+00	0	63	0	2934964224	46	4464
2026-01-30 12:30:40.10	330.47	29.31	-37.7	-39.4	15.9	0.00e+00	0	63	0	2940207104	46	4504
2026-01-30 12:30:41.11	330.57	29.13	-37.6	-39.3	16.0	0.00e+00	0	63	0	2946498560	46	4451
2026-01-30 12:30:42.12	330.67	28.95	-37.4	-39.1	16.2	0.00e+00	0	63	0	2951741440	46	4343
2026-01-30 12:30:43.14	330.77	28.78	-37.4	-39.0	16.2	0.00e+00	0	63	0	2958032896	46	4316
2026-01-30 12:30:44.15	330.86	28.60	-37.4	-39.0	16.2	0.00e+00	0	63	0	2963275776	46	4330
2026-01-30 12:30:45.16	330.96	28.42	-37.4	-39.0	16.2	0.00e+00	0	63	0	2968518656	46	4311
2026-01-30 12:30:46.17	331.05	28.25	-37.4	-39.0	16.2	0.00e+00	0	63	0	2974810112	46	4318
2026-01-30 12:30:47.18	331.14	28.08	-37.5	-39.2	16.0	0.00e+00	0	63	0	2980052992	46	4394
2026-01-30 12:30:48.19	331.23	27.90	-37.5	-39.2	16.0	0.00e+00	0	63	0	2986344448	46	4406
2026-01-30 12:30:49.20	331.32	27.73	-37.6	-39.3	15.9	0.00e+00	0	63	0	2991587328	46	4449
2026-01-30 12:30:50.21	331.41	27.56	-37.7	-39.3	15.9	0.00e+00	0	63	0	2996830208	46	4490
2026-01-30 12:30:51.21	331.50	27.40	-37.7	-39.4	15.8	0.00e+00	0	63	0	3003121664	46	4494
2026-01-30 12:30:52.22	331.59	27.23	-37.7	-39.4	15.8	0.00e+00	0	63	0	3008364544	46	4495
2026-01-30 12:30:53.23	331.68	27.06	-37.8	-39.5	15.7	0.00e+00	0	63	0	3014656000	46	4560
2026-01-30 12:30:54.25	331.76	26.89	-37.8	-39.5	15.7	0.00e+00	0	63	0	3019898880	46	4561
2026-01-30 12:30:55.25	331.85	26.73	-37.7	-39.4	15.8	0.00e+00	0	63	0	3025141760	46	4513
2026-01-30 12:30:56.27	331.93	26.56	-37.7	-39.4	15.8	0.00e+00	0	63	0	3031433216	46	4501
2026-01-30 12:30:57.28	332.02	26.40	-37.6	-39.2	15.9	0.00e+00	0	63	0	3036676096	46	4429
2026-01-30 12:30:58.29	332.10	26.24	-37.5	-39.2	15.9	0.00e+00	0	63	0	3042967552	46	4398
2026-01-30 12:30:59.30	332.18	26.08	-37.5	-39.1	16.0	0.00e+00	0	63	0	3048210432	46	4389
2026-01-30 12:31:00.31	332.26	25.92	-37.5	-39.1	16.0	0.00e+00	0	63	0	3054501888	46	4387
2026-01-30 12:31:01.32	332.34	25.76	-37.5	-39.1	15.9	0.00e+00	0	63	0	3059744768	46	4376
2026-01-30 12:31:02.33	332.42	25.60	-37.5	-39.1	16.0	0.00e+00	0	63	0	3064987648	46	4366
2026-01-30 12:31:03.34	332.50	25.44	-37.5	-39.1	16.0	0.00e+00	0	63	0	3071279104	46	4358
2026-01-30 12:31:04.35	332.58	25.28	-37.5	-39.2	15.9	0.00e+00	0	63	0	3076521984	46	4394
2026-01-30 12:31:05.36	332.66	25.13	-37.5	-39.2	15.9	0.00e+00	0	63	0	3082813440	46	4397
2026-01-30 12:31:06.37	332.74	24.97	-37.6	-39.2	15.8	0.00e+00	0	63	0	3088056320	46	4425
2026-01-30 12:31:07.38	332.81	24.82	-37.6	-39.3	15.8	0.00e+00	0	63	0	3094347776	46	4453
2026-01-30 12:31:08.39	332.89	24.66	-37.7	-39.4	15.7	0.00e+00	0	63	0	3099590656	46	4499
2026-01-30 12:31:09.40	332.96	24.51	-37.8	-39.5	15.5	0.00e+00	0	63	0	3104833536	46	4559
2026-01-30 12:31:10.41	333.04	24.36	-37.7	-39.4	15.5	0.00e+00	0	62	0	3111124992	46	4542
2026-01-30 12:31:11.43	333.11	24.21	-37.8	-39.5	15.5	0.00e+00	0	63	0	3116367872	46	4585
2026-01-30 12:31:12.43	333.18	24.06	-37.8	-39.6	15.4	0.00e+00	0	63	0	3122659328	46	4608
2026-01-30 12:31:13.45	333.26	23.91	-37.8	-39.6	15.4	0.00e+00	0	63	0	3127902208	46	4606
2026-01-30 12:31:14.46	333.33	23.76	-37.9	-39.6	15.3	0.00e+00	0	63	0	3133145088	46	4634
2026-01-30 12:31:15.46	333.40	23.61	-37.9	-39.7	15.2	0.00e+00	0	63	0	3139436544	46	4691
2026-01-30 12:31:16.47	333.47	23.46	-38.0	-39.8	15.2	0.00e+00	0	63	0	3144679424	46	4706
2026-01-30 12:31:17.49	333.54	23.32	-38.0	-39.7	15.2	0.00e+00	0	63	0	3150970880	46	4705
2026-01-30 12:31:18.50	333.61	23.17	-38.1	-39.9	15.0	0.00e+00	0	63	0	3156213760	46	4775
2026-01-30 12:31:19.51	333.68	23.03	-38.1	-39.9	15.0	0.00e+00	0	63	0	3161456640	46	4769
2026-01-30 12:31:20.52	333.74	22.88	-38.1	-39.9	14.9	0.00e+00	0	63	0	3167748096	46	4806
2026-01-30 12:31:21.53	333.81	22.74	-38.1	-40.0	14.9	0.00e+00	0	63	0	3172990976	46	4832
2026-01-30 12:31:22.54	333.88	22.60	-38.0	-39.9	15.0	0.00e+00	0	63	0	3179282432	46	4777
2026-01-30 12:31:23.55	333.94	22.46	-38.1	-39.9	14.9	0.00e+00	0	63	0	3184525312	46	4794
2026-01-30 12:31:24.56	334.01	22.32	-38.1	-40.0	14.9	0.00e+00	0	63	0	3190816768	46	4827
2026-01-30 12:31:25.57	334.07	22.18	-38.2	-40.0	14.8	0.00e+00	0	63	0	3196059648	46	4845
2026-01-30 12:31:26.58	334.14	22.04	-38.2	-40.0	14.8	0.00e+00	0	63	0	3202351104	46	4850
2026-01-30 12:31:27.59	334.20	21.90	-38.2	-40.1	14.7	1.10e-06	0	63	0	3207593984	46	4879
2026-01-30 12:31:28.60	334.27	21.76	-38.2	-40.0	14.7	1.10e-06	0	63	0	3212836864	46	4870
2026-01-30 12:31:29.61	334.33	21.62	-38.3	-40.2	14.6	2.20e-06	0	63	0	3219128320	47	4659
2026-01-30 12:31:30.62	334.39	21.49	-38.3	-40.2	14.6	0.00e+00	0	63	0	3224371200	47	4664
2026-01-30 12:31:31.63	334.45	21.35	-38.3	-40.2	14.6	3.40e-06	0	63	0	3230662656	47	4678
2026-01-30 12:31:32.64	334.51	21.22	-38.3	-40.3	14.5	1.10e-06	0	63	0	3235905536	47	4714
2026-01-30 12:31:33.65	334.57	21.08	-38.4	-40.4	14.4	1.10e-06	0	63	0	3241148416	47	4761
2026-01-30 12:31:34.66	334.63	20.95	-38.4	-40.4	14.3	3.40e-06	0	63	0	3247439872	47	4790
2026-01-30 12:31:35.67	334.69	20.81	-38.5	-40.5	14.2	2.20e-06	0	63	0	3252682752	47	4844
2026-01-30 12:31:36.68	334.75	20.68	-38.5	-40.5	14.2	5.70e-06	0	63	0	3258974208	47	4846
2026-01-30 12:31:37.69	334.81	20.55	-38.5	-40.5	14.2	2.20e-06	0	63	0	3264217088	47	4860
2026-01-30 12:31:38.69	334.87	20.42	-38.6	-40.7	14.0	2.20e-06	0	63	0	3269459968	47	4931
2026-01-30 12:31:39.70	334.93	20.29	-38.6	-40.6	14.0	3.40e-06	0	63	0	3275751424	47	4917
2026-01-30 12:31:40.71	334.99	20.16	-38.6	-40.7	13.9	3.40e-06	0	63	0	3280994304	47	4934
2026-01-30 12:31:41.72	335.04	20.03	-38.7	-40.8	13.8	5.70e-06	0	63	0	3287285760	47	5023
2026-01-30 12:31:42.74	335.10	19.90	-38.7	-40.8	13.8	1.25e-05	0	63	0	3292528640	47	4999
2026-01-30 12:31:43.75	335.16	19.78	-38.8	-40.9	13.7	9.10e-06	0	63	0	3298820096	48	4809
2026-01-30 12:31:44.76	335.21	19.65	-38.7	-40.8	13.8	6.80e-06	0	63	0	3304062976	48	4737
2026-01-30 12:31:45.77	335.27	19.52	-38.8	-40.9	13.7	1.02e-05	0	63	0	3309305856	48	4781
2026-01-30 12:31:46.78	335.32	19.40	-38.9	-41.0	13.5	1.37e-05	0	63	0	3315597312	48	4855
2026-01-30 12:31:47.79	335.38	19.27	-38.8	-40.9	13.6	2.05e-05	0	63	0	3320840192	48	4801
2026-01-30 12:31:48.80	335.43	19.15	-38.8	-40.9	13.6	1.14e-05	0	63	0	3327131648	48	4804
2026-01-30 12:31:49.81	335.49	19.02	-38.7	-40.9	13.7	1.71e-05	0	63	0	3332374528	48	4767
2026-01-30 12:31:50.82	335.54	18.90	-38.7	-40.8	13.7	6.80e-06	0	63	0	3338665984	48	4725
2026-01-30 12:31:51.83	335.59	18.78	-38.7	-40.8	13.7	1.02e-05	0	63	0	3343908864	48	4751
2026-01-30 12:31:52.84	335.64	18.65	-38.7	-40.9	13.6	1.02e-05	0	63	0	3349151744	48	4764
2026-01-30 12:31:53.86	335.70	18.53	-38.7	-40.8	13.6	1.14e-05	0	63	0	3355443200	48	4733
2026-01-30 12:31:54.87	335.75	18.41	-38.7	-40.8	13.6	1.14e-05	0	63	0	3360686080	48	4742
2026-01-30 12:31:55.88	335.80	18.29	-38.7	-40.9	13.5	2.17e-05	0	63	0	3366977536	48	4783
2026-01-30 12:31:56.89	335.85	18.17	-38.7	-40.9	13.4	2.40e-05	0	63	0	3372220416	48	4797
2026-01-30 12:31:57.90	335.90	18.05	-38.7	-40.9	13.4	1.71e-05	0	63	0	3377463296	48	4779
2026-01-30 12:31:58.91	335.95	17.93	-38.8	-41.0	13.3	2.40e-05	0	63	0	3383754752	48	4851
2026-01-30 12:31:59.92	336.00	17.81	-38.8	-41.0	13.3	3.66e-05	0	63	0	3388997632	48	4841
2026-01-30 12:32:00.93	336.05	17.70	-38.7	-40.9	13.3	3.31e-05	0	63	0	3395289088	48	4811
2026-01-30 12:32:01.94	336.10	17.58	-38.8	-41.0	13.3	2.86e-05	0	63	0	3400531968	48	4824
2026-01-30 12:32:02.95	336.15	17.46	-38.8	-41.1	13.1	4.11e-05	0	63	0	3406823424	48	4902
2026-01-30 12:32:03.96	336.20	17.35	-38.9	-41.1	13.1	6.63e-05	0	63	0	3412066304	48	4919
2026-01-30 12:32:04.97	336.25	17.23	-38.9	-41.2	12.9	7.43e-05	0	63	0	3418357760	48	4983
2026-01-30 12:32:05.98	336.29	17.12	-38.9	-41.2	13.0	8.23e-05	0	63	0	3423600640	48	4951
2026-01-30 12:32:06.99	336.34	17.00	-38.9	-41.3	12.9	7.66e-05	0	63	0	3428843520	48	5005
2026-01-30 12:32:08.00	336.39	16.89	-38.9	-41.2	13.0	6.06e-05	0	63	0	3435134976	48	4940
2026-01-30 12:32:09.02	336.44	16.77	-38.9	-41.2	12.9	8.46e-05	0	63	0	3440377856	48	4970
2026-01-30 12:32:10.02	336.48	16.66	-38.9	-41.2	12.9	6.98e-05	0	63	0	3446669312	48	4979
2026-01-30 12:32:11.03	336.53	16.55	-38.9	-41.3	12.8	8.69e-05	0	63	0	3451912192	48	5012
2026-01-30 12:32:12.04	336.57	16.44	-39.0	-41.4	12.6	1.13e-04	0	63	0	3457155072	48	5081
2026-01-30 12:32:13.05	336.62	16.33	-39.1	-41.6	12.5	1.80e-04	0	63	0	3463446528	48	5183
2026-01-30 12:32:14.06	336.66	16.21	-39.1	-41.6	12.5	1.58e-04	0	63	0	3468689408	48	5178
2026-01-30 12:32:15.07	336.71	16.10	-39.2	-41.7	12.4	2.13e-04	0	63	0	3473932288	48	5219
2026-01-30 12:32:16.08	336.75	15.99	-39.1	-41.6	12.4	2.01e-04	0	63	0	3480223744	48	5197
2026-01-30 12:32:17.09	336.80	15.88	-39.2	-41.7	12.3	2.91e-04	0	63	0	3485466624	48	5263
2026-01-30 12:32:18.10	336.84	15.78	-39.2	-41.8	12.3	2.78e-04	0	63	0	3491758080	49	4987
2026-01-30 12:32:19.12	336.89	15.67	-39.3	-41.8	12.2	2.97e-04	0	63	0	3497000960	49	5004
