passes_logs/2026/01/30/R2.0S_Moscow/R2.0S_Moscow__20260130_104127_FENGYUN_3D_rec.log

#Pass ID: 20260130_104127_FENGYUN 3D
#Satellite: FENGYUN 3D
#Configuration: FENGYUN 3D
#almurnet v.1.7.20251203
#Start time: 2026-01-30 10:41:29

#Version: 2.2.20231116
#Station: R2.0S_Moscow
#Location: 37.707566 lon 55.798166 lat
#TLE: 1 43010U 17072A   26029.52179110  .00000394  00000+0  20818-3 0  9997
#TLE: 2 43010  98.9957   1.5649 0002507  83.7772 276.3689 14.19703315425310

#Time	Az	El	Level	Level2	SNR	BER	BlckErr	Temp	State	Recorded	gain1	gain2
2026-01-30 10:41:29.26	122.28	2.12	-13.9	-33.1	3.8	8.38e-01	0	52	0	0	6	21897
2026-01-30 10:41:30.27	122.23	2.18	-18.1	-38.1	4.0	8.30e-01	0	52	104	0	10	30834
2026-01-30 10:41:31.28	122.17	2.24	-20.0	-40.5	4.0	8.18e-01	0	52	0	0	11	38248
2026-01-30 10:41:32.29	122.12	2.30	-19.3	-37.1	4.1	8.26e-01	0	52	104	0	9	29263
2026-01-30 10:41:33.30	122.07	2.36	-14.0	-32.2	3.7	8.23e-01	0	52	104	0	1	26410
2026-01-30 10:41:34.31	122.01	2.42	-18.8	-35.3	3.7	8.32e-01	0	53	104	0	5	29966
2026-01-30 10:41:35.32	121.96	2.48	-17.6	-38.1	4.1	8.19e-01	0	53	104	0	11	29219
2026-01-30 10:41:36.33	121.90	2.54	-19.7	-37.7	3.7	8.23e-01	0	53	104	0	6	37085
2026-01-30 10:41:37.34	121.85	2.60	-15.5	-36.1	3.7	8.20e-01	0	53	104	0	9	26085
2026-01-30 10:41:38.35	121.79	2.67	-20.6	-40.4	4.0	8.19e-01	0	53	104	0	12	35904
2026-01-30 10:41:39.36	121.74	2.73	-17.9	-37.4	3.9	8.19e-01	0	53	0	0	10	28646
2026-01-30 10:41:40.37	121.68	2.79	-16.9	-34.3	4.0	8.18e-01	0	53	104	0	6	24998
2026-01-30 10:41:41.38	121.62	2.85	-11.9	-29.6	3.6	8.34e-01	0	53	104	0	0	20757
2026-01-30 10:41:42.39	121.57	2.91	-17.8	-34.9	3.6	8.39e-01	0	53	104	0	2	33738
2026-01-30 10:41:43.40	121.51	2.97	-12.5	-32.6	3.6	8.34e-01	0	53	104	0	0	29155
2026-01-30 10:41:44.41	121.45	3.04	-15.7	-33.3	3.7	8.43e-01	0	53	104	0	1	29800
2026-01-30 10:41:45.42	121.40	3.10	-17.7	-34.9	4.0	8.36e-01	0	53	104	0	2	33974
2026-01-30 10:41:46.43	121.34	3.16	-18.8	-37.6	4.1	8.39e-01	0	54	104	0	2	46355
2026-01-30 10:41:47.44	121.28	3.22	-13.2	-30.6	3.9	8.27e-01	0	54	104	0	0	23058
2026-01-30 10:41:48.46	121.22	3.28	-13.2	-30.9	3.8	8.31e-01	0	54	104	0	0	24000
2026-01-30 10:41:49.47	121.16	3.35	-20.0	-37.7	3.6	8.41e-01	0	54	0	0	2	46661
2026-01-30 10:41:50.47	121.11	3.41	-15.3	-33.0	3.7	8.39e-01	0	54	104	0	0	30663
2026-01-30 10:41:51.48	121.05	3.47	-11.3	-28.0	3.9	8.38e-01	0	54	104	0	0	17243
2026-01-30 10:41:52.50	120.99	3.53	-17.9	-34.3	3.8	8.16e-01	0	54	104	0	7	23613
2026-01-30 10:41:53.51	120.93	3.60	-15.8	-36.8	3.9	8.25e-01	0	54	104	0	8	29851
2026-01-30 10:41:54.51	120.87	3.66	-19.0	-37.1	4.0	8.24e-01	0	54	0	0	9	29304
2026-01-30 10:41:55.52	120.81	3.72	-19.1	-38.7	3.8	8.23e-01	0	54	104	0	9	35090
2026-01-30 10:41:56.53	120.75	3.79	-19.0	-37.3	3.8	8.18e-01	0	54	104	0	10	28071
2026-01-30 10:41:57.54	120.69	3.85	-17.3	-35.7	3.8	8.23e-01	0	54	104	0	7	27882
2026-01-30 10:41:58.55	120.63	3.91	-17.9	-36.6	3.8	8.26e-01	0	54	104	0	10	26054
2026-01-30 10:41:59.57	120.57	3.98	-20.6	-37.8	4.0	8.25e-01	0	54	104	0	8	33491
2026-01-30 10:42:00.57	120.51	4.04	-17.6	-37.9	3.9	8.24e-01	0	54	104	0	10	30268
2026-01-30 10:42:01.58	120.45	4.10	-18.4	-36.6	3.8	8.25e-01	0	55	104	0	9	27428
2026-01-30 10:42:02.59	120.38	4.17	-19.1	-36.8	3.9	8.22e-01	0	55	104	0	8	30014
2026-01-30 10:42:03.60	120.32	4.23	-19.6	-39.0	3.9	8.26e-01	0	55	0	0	12	30562
2026-01-30 10:42:04.62	120.26	4.30	-17.0	-36.4	4.1	8.26e-01	0	55	104	0	11	24130
2026-01-30 10:42:05.63	120.20	4.36	-15.3	-34.1	4.1	8.30e-01	0	55	104	0	7	23186
2026-01-30 10:42:06.64	120.13	4.43	-18.7	-39.8	4.1	8.30e-01	0	55	0	0	12	33541
2026-01-30 10:42:07.65	120.07	4.49	-14.3	-32.2	3.6	8.25e-01	0	55	104	0	1	26413
2026-01-30 10:42:08.66	120.01	4.55	-14.3	-31.4	4.0	8.39e-01	0	55	104	0	0	25282
2026-01-30 10:42:09.67	119.94	4.62	-19.0	-37.2	4.0	8.23e-01	0	55	104	0	9	29381
2026-01-30 10:42:10.68	119.88	4.68	-18.2	-37.7	3.8	8.26e-01	0	55	104	0	9	31385
2026-01-30 10:42:11.69	119.82	4.75	-18.1	-36.7	4.2	8.27e-01	0	55	104	0	12	23514
2026-01-30 10:42:12.70	119.75	4.81	-18.4	-35.1	3.9	8.30e-01	0	55	104	0	8	24466
2026-01-30 10:42:13.71	119.69	4.88	-19.1	-35.3	4.0	8.28e-01	0	55	104	0	8	25114
2026-01-30 10:42:14.72	119.62	4.94	-18.8	-36.4	3.7	8.27e-01	0	55	104	0	8	28465
2026-01-30 10:42:15.73	119.56	5.01	-17.7	-35.1	3.8	8.24e-01	0	55	0	0	6	27688
2026-01-30 10:42:16.74	119.49	5.08	-20.2	-38.4	3.8	8.16e-01	0	55	104	0	8	35729
2026-01-30 10:42:17.75	119.42	5.14	-17.4	-38.3	4.1	8.22e-01	0	55	104	0	13	26597
2026-01-30 10:42:18.76	119.36	5.21	-19.4	-40.1	3.9	8.32e-01	0	56	104	0	11	36545
2026-01-30 10:42:19.77	119.29	5.27	-19.3	-37.5	3.7	8.25e-01	0	55	104	0	9	30683
2026-01-30 10:42:20.78	119.22	5.34	-19.7	-38.6	4.1	8.17e-01	0	56	104	0	14	25917
2026-01-30 10:42:21.79	119.16	5.41	-18.8	-35.8	3.8	8.23e-01	0	56	104	0	9	25128
2026-01-30 10:42:22.80	119.09	5.47	-18.5	-39.1	3.9	8.26e-01	0	56	104	0	9	36931
2026-01-30 10:42:23.81	119.02	5.54	-18.8	-39.0	3.7	8.16e-01	0	56	104	0	11	32423
2026-01-30 10:42:24.82	118.95	5.61	-19.9	-38.6	3.3	8.18e-01	0	56	104	0	6	41242
2026-01-30 10:42:25.83	118.88	5.67	-18.7	-36.9	4.1	8.30e-01	0	56	104	0	7	31875
2026-01-30 10:42:26.84	118.81	5.74	-15.4	-33.6	4.1	8.31e-01	0	56	104	0	3	27656
2026-01-30 10:42:27.85	118.75	5.81	-20.4	-36.6	3.9	8.32e-01	0	56	104	0	9	27549
2026-01-30 10:42:28.86	118.68	5.87	-20.3	-38.5	4.1	8.30e-01	0	56	104	0	11	30563
2026-01-30 10:42:29.87	118.61	5.94	-20.6	-39.4	3.8	8.28e-01	0	56	104	0	9	37848
2026-01-30 10:42:30.88	118.54	6.01	-20.4	-35.9	3.7	8.34e-01	0	56	104	0	7	28395
2026-01-30 10:42:31.89	118.46	6.08	-17.1	-37.2	3.9	8.26e-01	0	56	104	0	11	26314
2026-01-30 10:42:32.90	118.39	6.14	-13.1	-34.3	3.8	8.15e-01	0	56	104	0	6	25171
2026-01-30 10:42:33.91	118.32	6.21	-20.4	-36.8	3.6	8.25e-01	0	56	104	0	7	31625
2026-01-30 10:42:34.92	118.25	6.28	-15.3	-33.3	4.0	8.19e-01	0	56	104	0	11	16760
2026-01-30 10:42:35.93	118.18	6.35	-18.6	-39.5	3.9	8.15e-01	0	56	104	0	10	36179
2026-01-30 10:42:36.94	118.11	6.42	-16.1	-38.0	3.9	8.23e-01	0	56	104	0	9	32509
2026-01-30 10:42:37.95	118.03	6.48	-18.3	-35.0	3.8	8.16e-01	0	57	104	0	8	24386
2026-01-30 10:42:38.96	117.96	6.55	-19.4	-37.0	4.1	8.20e-01	0	57	104	0	10	27209
2026-01-30 10:42:39.97	117.89	6.62	-20.3	-38.5	4.2	8.21e-01	0	56	104	0	12	28764
2026-01-30 10:42:40.98	117.81	6.69	-19.4	-39.5	3.7	8.27e-01	0	57	104	0	10	36363
2026-01-30 10:42:41.99	117.74	6.76	-19.1	-37.2	3.7	8.26e-01	0	57	104	0	10	27810
2026-01-30 10:42:43.00	117.66	6.83	-20.6	-37.8	3.9	8.21e-01	0	57	104	0	9	31695
2026-01-30 10:42:44.01	117.59	6.90	-16.7	-33.9	3.9	8.28e-01	0	57	104	0	7	22692
2026-01-30 10:42:45.02	117.51	6.97	-12.6	-32.2	3.8	8.18e-01	0	57	104	0	0	27987
2026-01-30 10:42:46.03	117.44	7.04	-21.6	-40.8	4.3	8.30e-01	0	57	104	0	16	29759
2026-01-30 10:42:47.04	117.36	7.11	-20.8	-38.3	4.3	8.32e-01	0	57	104	0	11	29872
2026-01-30 10:42:48.05	117.29	7.18	-14.6	-35.5	3.8	8.33e-01	0	57	104	0	10	22914
2026-01-30 10:42:49.07	117.21	7.25	-15.5	-36.0	4.4	8.43e-01	0	57	0	0	11	23011
2026-01-30 10:42:50.08	117.13	7.32	-19.7	-35.6	3.9	8.32e-01	0	57	104	0	9	24612
2026-01-30 10:42:51.09	117.05	7.39	-20.6	-38.5	4.5	8.33e-01	0	57	104	0	12	28714
2026-01-30 10:42:52.10	116.98	7.46	-20.4	-38.0	4.5	8.33e-01	0	57	104	0	12	27342
2026-01-30 10:42:53.11	116.90	7.53	-20.8	-38.9	4.5	8.32e-01	0	57	104	0	14	27011
2026-01-30 10:42:54.12	116.82	7.60	-22.3	-39.8	4.5	8.35e-01	0	57	104	0	15	28278
2026-01-30 10:42:55.13	116.74	7.67	-19.5	-37.8	4.5	8.34e-01	0	57	104	0	10	29810
2026-01-30 10:42:56.14	116.66	7.74	-21.9	-38.6	4.5	8.31e-01	0	57	0	0	12	29269
2026-01-30 10:42:57.15	116.58	7.81	-18.7	-36.0	4.3	8.31e-01	0	57	104	0	11	23012
2026-01-30 10:42:58.16	116.50	7.88	-21.8	-39.1	4.4	8.31e-01	0	57	104	0	13	29327
2026-01-30 10:42:59.17	116.42	7.95	-19.6	-36.5	4.3	8.40e-01	0	57	104	0	10	25772
2026-01-30 10:43:00.18	116.34	8.03	-19.4	-36.6	4.7	8.36e-01	0	57	104	0	9	27599
2026-01-30 10:43:01.19	116.26	8.10	-25.4	-41.9	4.0	8.25e-01	0	58	0	0	17	31855
2026-01-30 10:43:02.20	116.18	8.17	-13.2	-32.3	4.1	8.30e-01	0	58	104	0	6	19966
2026-01-30 10:43:03.21	116.09	8.24	-21.6	-38.0	4.3	8.36e-01	0	58	104	0	11	28761
2026-01-30 10:43:04.22	116.01	8.31	-20.4	-38.9	4.6	8.36e-01	0	57	104	0	12	30241
2026-01-30 10:43:05.23	115.93	8.39	-18.6	-37.8	4.6	8.24e-01	0	57	104	0	10	29954
2026-01-30 10:43:06.24	115.84	8.46	-20.1	-33.8	4.4	8.27e-01	0	58	104	0	7	22367
2026-01-30 10:43:07.25	115.76	8.53	-21.4	-38.7	5.0	8.30e-01	0	58	104	0	11	31124
2026-01-30 10:43:08.26	115.68	8.60	-21.8	-39.3	5.0	8.25e-01	0	58	104	0	12	31698
2026-01-30 10:43:09.27	115.59	8.68	-18.6	-36.0	4.3	8.25e-01	0	58	104	0	8	27081
2026-01-30 10:43:10.28	115.51	8.75	-19.2	-37.9	4.7	8.26e-01	0	58	104	0	10	30314
2026-01-30 10:43:11.29	115.42	8.82	-18.3	-34.2	4.4	8.31e-01	0	58	104	0	10	19750
2026-01-30 10:43:12.30	115.33	8.90	-18.3	-35.5	4.1	8.30e-01	0	58	104	0	11	21675
2026-01-30 10:43:13.31	115.25	8.97	-18.8	-36.0	4.2	8.33e-01	0	58	104	0	7	28892
2026-01-30 10:43:14.32	115.16	9.04	-16.5	-35.3	4.4	8.34e-01	0	58	104	0	10	22381
2026-01-30 10:43:15.33	115.07	9.12	-19.3	-36.7	4.8	8.27e-01	0	58	0	0	11	24875
2026-01-30 10:43:16.33	114.99	9.19	-18.9	-38.6	4.4	8.37e-01	0	58	104	0	15	24413
2026-01-30 10:43:17.34	114.90	9.26	-21.5	-40.5	4.4	8.37e-01	0	58	104	0	15	30435
2026-01-30 10:43:18.36	114.81	9.34	-23.7	-40.6	4.2	8.35e-01	0	58	104	0	14	32618
2026-01-30 10:43:19.36	114.72	9.41	-23.0	-41.4	4.5	8.34e-01	0	58	104	0	19	26795
2026-01-30 10:43:20.37	114.63	9.49	-18.1	-35.0	4.2	8.26e-01	0	58	104	0	9	22964
2026-01-30 10:43:21.38	114.54	9.56	-21.9	-39.1	4.8	8.30e-01	0	58	104	0	15	25961
2026-01-30 10:43:22.39	114.45	9.64	-21.1	-38.5	4.5	8.21e-01	0	58	104	0	18	20350
2026-01-30 10:43:23.40	114.36	9.71	-20.3	-37.1	4.1	8.27e-01	0	58	104	0	9	29183
2026-01-30 10:43:24.41	114.26	9.79	-18.7	-37.8	4.5	8.29e-01	0	58	104	0	15	22467
2026-01-30 10:43:25.42	114.17	9.86	-20.1	-37.7	3.8	8.26e-01	0	58	104	0	11	27741
2026-01-30 10:43:26.43	114.08	9.94	-19.4	-39.7	4.4	8.26e-01	0	58	104	0	13	31394
2026-01-30 10:43:27.44	113.99	10.01	-23.1	-41.6	4.7	8.28e-01	0	58	104	0	17	31080
2026-01-30 10:43:28.45	113.89	10.09	-20.5	-39.8	4.6	8.25e-01	0	58	104	0	15	28038
2026-01-30 10:43:29.46	113.80	10.17	-21.7	-39.6	4.5	8.26e-01	0	58	104	0	14	29103
2026-01-30 10:43:30.47	113.70	10.24	-19.3	-36.4	3.6	8.28e-01	0	58	104	0	8	28388
2026-01-30 10:43:31.48	113.61	10.32	-23.1	-40.5	4.4	8.26e-01	0	58	104	0	17	27198
2026-01-30 10:43:32.49	113.51	10.40	-15.9	-38.2	4.4	8.27e-01	0	58	104	0	12	27978
2026-01-30 10:43:33.50	113.42	10.47	-22.3	-39.9	4.6	8.30e-01	0	58	0	0	16	26857
2026-01-30 10:43:34.51	113.32	10.55	-22.6	-40.5	4.3	8.29e-01	0	58	104	0	14	32304
2026-01-30 10:43:35.52	113.22	10.63	-20.4	-37.0	4.4	8.37e-01	0	58	104	0	7	32282
2026-01-30 10:43:36.53	113.12	10.70	-24.2	-41.5	4.8	8.34e-01	0	58	104	0	21	24264
2026-01-30 10:43:37.54	113.03	10.78	-25.5	-43.4	4.5	8.31e-01	0	58	104	0	19	34048
2026-01-30 10:43:38.55	112.93	10.86	-27.0	-40.8	5.0	8.28e-01	0	59	104	0	22	21090
2026-01-30 10:43:39.56	112.83	10.94	-27.0	-43.8	5.2	6.40e-01	0	59	0	0	26	23802
2026-01-30 10:43:40.57	112.73	11.01	-25.7	-39.8	6.4	6.96e-01	0	58	0	0	25	15789
2026-01-30 10:43:41.58	112.63	11.09	-24.7	-41.3	5.2	6.81e-01	0	58	0	0	18	28048
2026-01-30 10:43:42.59	112.53	11.17	-25.6	-42.1	4.8	7.57e-01	0	59	0	0	20	27548
2026-01-30 10:43:43.60	112.42	11.25	-21.5	-39.5	4.5	7.23e-01	0	59	0	0	20	20497
2026-01-30 10:43:44.62	112.32	11.33	-26.2	-42.3	5.6	6.86e-01	0	59	0	0	24	22382
2026-01-30 10:43:45.63	112.22	11.41	-21.7	-39.8	4.8	7.56e-01	0	59	0	0	16	26529
2026-01-30 10:43:46.63	112.12	11.48	-21.2	-40.0	6.5	5.36e-01	0	59	0	0	22	19229
2026-01-30 10:43:47.64	112.01	11.56	-26.7	-41.3	4.9	5.08e-01	0	59	0	2097152	21	23846
2026-01-30 10:43:48.65	111.91	11.64	-28.9	-42.1	6.1	5.98e-01	0	59	0	3145728	27	18504
2026-01-30 10:43:49.67	111.80	11.72	-32.2	-41.1	9.3	4.20e-01	0	59	0	7340032	34	10952
2026-01-30 10:43:50.68	111.70	11.80	-37.2	-43.8	9.7	9.58e-02	0	59	0	12582912	46	7536
2026-01-30 10:43:51.69	111.59	11.88	-30.2	-41.4	8.8	1.99e-01	0	59	0	17825792	35	10668
2026-01-30 10:43:52.70	111.48	11.96	-27.8	-42.1	7.8	5.07e-01	0	59	0	20971520	25	20626
2026-01-30 10:43:53.71	111.38	12.04	-34.0	-42.3	9.0	3.62e-01	0	59	0	25165824	35	11857
2026-01-30 10:43:54.72	111.27	12.12	-24.3	-41.4	6.4	5.34e-01	0	59	0	28311552	26	17897
2026-01-30 10:43:55.73	111.16	12.20	-33.2	-42.7	9.0	1.39e-01	0	59	0	33554432	40	9375
2026-01-30 10:43:56.74	111.05	12.28	-39.2	-43.0	10.6	2.78e-02	0	59	0	38797312	47	6476
2026-01-30 10:43:57.75	110.94	12.36	-38.2	-43.2	9.8	4.37e-02	0	59	0	44040192	46	7037
2026-01-30 10:43:58.76	110.83	12.44	-39.0	-43.3	9.8	6.53e-02	0	59	0	50331648	46	7121
2026-01-30 10:43:59.77	110.72	12.52	-38.4	-42.9	10.7	2.26e-02	0	59	0	55574528	47	6385
2026-01-30 10:44:00.78	110.61	12.60	-37.3	-42.8	10.7	3.08e-01	0	59	0	60817408	38	10621
2026-01-30 10:44:01.79	110.49	12.68	-39.4	-43.2	10.9	1.03e-02	0	59	0	67108864	49	5858
2026-01-30 10:44:02.80	110.38	12.77	-38.0	-43.2	10.5	2.32e-02	0	59	0	72351744	48	6217
2026-01-30 10:44:03.81	110.27	12.85	-39.9	-43.2	11.1	3.86e-03	0	59	0	77594624	50	5552
2026-01-30 10:44:04.82	110.15	12.93	-38.2	-43.0	10.3	1.52e-02	0	59	0	83886080	48	6092
2026-01-30 10:44:05.83	110.04	13.01	-35.3	-42.6	9.1	1.82e-02	0	59	0	89128960	43	7755
2026-01-30 10:44:06.84	109.92	13.09	-38.4	-42.5	11.0	5.73e-02	0	59	0	94371840	47	6128
2026-01-30 10:44:07.85	109.81	13.18	-38.7	-42.7	11.2	1.11e-02	0	59	0	100663296	48	5896
2026-01-30 10:44:08.86	109.69	13.26	-39.5	-42.7	11.6	2.88e-03	0	59	0	105906176	49	5588
2026-01-30 10:44:09.87	109.57	13.34	-39.7	-42.6	11.7	2.17e-03	0	59	0	112197632	50	5218
2026-01-30 10:44:10.88	109.45	13.42	-39.2	-42.3	12.0	1.78e-03	0	59	0	117440512	49	5337
2026-01-30 10:44:11.89	109.34	13.51	-38.6	-42.4	11.9	1.45e-03	0	59	0	123731968	49	5351
2026-01-30 10:44:12.90	109.22	13.59	-39.0	-42.2	12.2	2.67e-03	0	59	0	128974848	49	5250
2026-01-30 10:44:13.91	109.10	13.67	-39.5	-42.3	12.1	3.03e-03	0	59	0	134217728	49	5292
2026-01-30 10:44:14.92	108.98	13.75	-33.6	-42.0	10.7	3.00e-02	0	59	0	140509184	40	8567
2026-01-30 10:44:15.93	108.85	13.84	-39.4	-42.2	11.7	3.26e-02	0	59	0	145752064	44	7039
2026-01-30 10:44:16.94	108.73	13.92	-39.0	-42.0	12.3	3.14e-02	0	59	0	152043520	48	5438
2026-01-30 10:44:17.95	108.61	14.01	-39.2	-42.0	12.2	7.68e-03	0	59	0	157286400	48	5409
2026-01-30 10:44:18.96	108.49	14.09	-38.9	-42.1	12.1	1.64e-02	0	59	0	162529280	48	5517
2026-01-30 10:44:19.97	108.36	14.17	-36.7	-41.8	11.9	1.22e-02	0	59	0	168820736	45	6347
2026-01-30 10:44:20.98	108.24	14.26	-34.5	-41.7	12.0	2.16e-03	0	59	0	174063616	46	5903
2026-01-30 10:44:21.99	108.11	14.34	-38.1	-41.8	11.8	1.92e-02	0	59	0	180355072	44	6666
2026-01-30 10:44:23.00	107.98	14.43	-39.3	-41.8	12.7	9.64e-03	0	60	0	185597952	48	5296
2026-01-30 10:44:24.01	107.86	14.51	-38.4	-41.6	12.5	1.14e-02	0	59	0	191889408	47	5508
2026-01-30 10:44:25.03	107.73	14.60	-37.5	-41.6	12.5	1.06e-02	0	60	0	197132288	47	5494
2026-01-30 10:44:26.04	107.60	14.68	-39.2	-41.8	12.6	7.64e-03	0	60	0	202375168	48	5296
2026-01-30 10:44:27.05	107.47	14.77	-37.4	-41.4	12.1	6.53e-03	0	59	0	208666624	43	6745
2026-01-30 10:44:28.06	107.34	14.85	-36.3	-41.5	12.4	3.30e-03	0	60	0	213909504	46	5788
2026-01-30 10:44:29.07	107.21	14.94	-39.1	-41.6	13.0	2.47e-03	0	60	0	220200960	48	5163
2026-01-30 10:44:30.08	107.08	15.02	-38.7	-41.4	13.0	2.95e-03	0	60	0	225443840	48	5054
2026-01-30 10:44:31.09	106.94	15.11	-39.0	-41.4	13.2	5.83e-05	0	59	0	231735296	48	5077
2026-01-30 10:44:32.10	106.81	15.19	-38.9	-41.4	12.4	1.01e-04	0	60	0	236978176	48	5058
2026-01-30 10:44:33.11	106.68	15.28	-38.3	-41.2	13.3	3.91e-04	0	60	0	242221056	48	4976
2026-01-30 10:44:34.12	106.54	15.37	-38.8	-41.2	13.4	2.66e-04	0	60	0	248512512	48	4946
2026-01-30 10:44:35.13	106.40	15.45	-38.7	-41.2	13.3	1.11e-04	0	60	0	253755392	48	4971
2026-01-30 10:44:36.14	106.27	15.54	-38.6	-41.1	13.5	9.26e-05	0	60	0	260046848	48	4912
2026-01-30 10:44:37.15	106.13	15.63	-38.3	-40.9	13.6	1.60e-05	0	60	0	265289728	48	4807
2026-01-30 10:44:38.16	105.99	15.71	-38.4	-40.7	13.7	5.70e-06	0	60	0	270532608	47	4982
2026-01-30 10:44:39.17	105.85	15.80	-38.4	-40.8	13.7	3.54e-05	0	60	0	276824064	47	4993
2026-01-30 10:44:40.18	105.71	15.89	-38.6	-40.8	13.8	5.70e-06	0	60	0	282066944	47	5024
2026-01-30 10:44:41.19	105.57	15.97	-37.8	-40.9	13.7	1.40e-04	0	60	0	288358400	47	5045
2026-01-30 10:44:42.20	105.43	16.06	-38.4	-40.8	13.8	5.95e-05	0	60	0	293601280	47	5007
2026-01-30 10:44:43.21	105.29	16.15	-37.1	-40.7	13.8	2.86e-05	0	60	0	298844160	47	4982
2026-01-30 10:44:44.22	105.15	16.24	-38.5	-40.6	13.9	1.04e-04	0	60	0	305135616	47	4919
2026-01-30 10:44:45.24	105.00	16.32	-38.2	-40.6	13.9	4.80e-05	0	60	0	310378496	47	4919
2026-01-30 10:44:46.25	104.86	16.41	-38.4	-40.6	13.9	4.46e-05	0	60	0	316669952	47	4903
2026-01-30 10:44:47.26	104.71	16.50	-37.7	-40.7	13.9	3.40e-06	0	60	0	321912832	47	4931
2026-01-30 10:44:48.27	104.56	16.59	-37.0	-40.6	13.8	4.69e-05	0	60	0	328204288	46	5214
2026-01-30 10:44:49.28	104.42	16.68	-38.5	-40.6	14.0	2.51e-05	0	60	0	333447168	47	4913
2026-01-30 10:44:50.29	104.27	16.76	-37.3	-40.5	13.9	4.00e-05	0	60	0	339738624	45	5428
2026-01-30 10:44:51.30	104.12	16.85	-38.4	-40.6	14.0	1.60e-05	0	60	0	344981504	47	4875
2026-01-30 10:44:52.31	103.97	16.94	-37.8	-40.6	14.0	9.01e-04	0	60	0	350224384	47	4871
2026-01-30 10:44:53.32	103.82	17.03	-38.2	-40.6	14.0	1.34e-04	0	60	0	356515840	45	5472
2026-01-30 10:44:54.33	103.67	17.12	-37.8	-40.6	14.0	3.66e-05	0	60	0	361758720	46	5168
2026-01-30 10:44:55.34	103.51	17.21	-36.6	-40.5	14.0	4.80e-05	0	60	0	368050176	45	5420
2026-01-30 10:44:56.35	103.36	17.30	-36.4	-40.5	14.1	3.07e-04	0	60	0	373293056	45	5411
2026-01-30 10:44:57.36	103.20	17.39	-38.4	-40.5	14.1	8.00e-06	0	60	0	378535936	47	4844
2026-01-30 10:44:58.37	103.05	17.48	-38.1	-40.6	14.1	1.02e-05	0	60	0	384827392	47	4873
2026-01-30 10:44:59.38	102.89	17.56	-38.4	-40.5	14.1	8.00e-06	0	60	0	390070272	47	4854
2026-01-30 10:45:00.39	102.73	17.65	-38.4	-40.5	14.2	5.70e-06	0	60	0	396361728	47	4819
2026-01-30 10:45:01.41	102.57	17.74	-38.2	-40.4	14.3	1.60e-05	0	60	0	401604608	46	5046
2026-01-30 10:45:02.42	102.42	17.83	-38.1	-40.2	14.4	2.05e-05	0	60	0	407896064	46	4976
2026-01-30 10:45:03.43	102.26	17.92	-38.0	-40.1	14.5	1.83e-05	0	60	0	413138944	46	4925
2026-01-30 10:45:04.44	102.09	18.01	-37.4	-40.1	14.5	3.40e-06	0	60	0	418381824	46	4877
2026-01-30 10:45:05.45	101.93	18.10	-37.4	-40.0	14.6	2.97e-05	0	60	0	424673280	46	4847
2026-01-30 10:45:06.46	101.77	18.19	-37.8	-40.1	14.6	1.10e-06	0	60	0	429916160	46	4885
2026-01-30 10:45:07.47	101.60	18.28	-38.2	-40.2	14.6	1.10e-06	0	60	0	436207616	46	4937
2026-01-30 10:45:08.48	101.44	18.37	-37.9	-40.2	14.5	2.20e-06	0	60	0	441450496	46	4930
2026-01-30 10:45:09.48	101.27	18.46	-37.8	-40.2	14.5	2.20e-06	0	60	0	447741952	46	4966
2026-01-30 10:45:10.49	101.11	18.55	-38.2	-40.2	14.5	4.50e-06	0	60	0	452984832	46	4976
2026-01-30 10:45:11.51	100.94	18.65	-38.0	-40.3	14.4	0.00e+00	0	60	0	458227712	47	4712
2026-01-30 10:45:12.52	100.77	18.74	-37.9	-40.2	14.5	6.80e-06	0	60	0	464519168	47	4700
2026-01-30 10:45:13.53	100.60	18.83	-38.1	-40.1	14.6	0.00e+00	0	60	0	469762048	47	4650
2026-01-30 10:45:14.53	100.43	18.92	-38.1	-40.1	14.6	1.10e-06	0	60	0	476053504	46	4922
2026-01-30 10:45:15.54	100.26	19.01	-38.1	-40.1	14.6	0.00e+00	0	60	0	481296384	46	4883
2026-01-30 10:45:16.55	100.08	19.10	-38.1	-40.1	14.7	0.00e+00	0	60	0	486539264	46	4879
2026-01-30 10:45:17.57	99.91	19.19	-38.2	-40.1	14.6	0.00e+00	0	60	0	492830720	46	4919
2026-01-30 10:45:18.58	99.73	19.28	-38.2	-40.1	14.6	1.10e-06	0	60	0	498073600	47	4635
2026-01-30 10:45:19.59	99.56	19.37	-38.1	-40.1	14.6	0.00e+00	0	60	0	504365056	47	4630
2026-01-30 10:45:20.60	99.38	19.46	-38.1	-40.0	14.7	0.00e+00	0	60	0	509607936	47	4589
2026-01-30 10:45:21.61	99.20	19.55	-37.9	-39.9	14.8	1.10e-06	0	60	0	514850816	47	4520
2026-01-30 10:45:22.62	99.02	19.64	-38.0	-39.9	14.8	0.00e+00	0	60	0	521142272	47	4528
2026-01-30 10:45:23.63	98.84	19.73	-38.0	-40.0	14.8	0.00e+00	0	60	0	526385152	47	4562
2026-01-30 10:45:24.64	98.66	19.83	-38.0	-40.0	14.8	1.10e-06	0	60	0	532676608	47	4564
2026-01-30 10:45:25.65	98.47	19.92	-38.0	-40.0	14.8	0.00e+00	0	60	0	537919488	47	4559
2026-01-30 10:45:26.66	98.29	20.01	-38.0	-40.0	14.7	0.00e+00	0	60	0	544210944	47	4578
2026-01-30 10:45:27.68	98.10	20.10	-37.9	-39.9	14.8	0.00e+00	0	60	0	549453824	47	4527
2026-01-30 10:45:28.69	97.92	20.19	-38.0	-39.9	14.8	0.00e+00	0	60	0	555745280	47	4526
2026-01-30 10:45:29.69	97.73	20.28	-38.0	-39.9	14.9	3.40e-06	0	60	0	560988160	47	4519
2026-01-30 10:45:30.70	97.54	20.37	-38.0	-39.9	14.9	0.00e+00	0	60	0	566231040	47	4519
2026-01-30 10:45:31.71	97.35	20.46	-37.9	-39.8	14.9	0.00e+00	0	60	0	572522496	47	4485
2026-01-30 10:45:32.73	97.16	20.56	-38.0	-39.9	14.9	0.00e+00	0	60	0	577765376	47	4522
2026-01-30 10:45:33.74	96.97	20.65	-38.0	-40.0	14.7	1.10e-06	0	60	0	584056832	47	4586
2026-01-30 10:45:34.75	96.77	20.74	-38.0	-40.0	14.8	1.10e-06	0	60	0	589299712	47	4571
2026-01-30 10:45:35.76	96.58	20.83	-38.0	-39.9	14.8	0.00e+00	0	60	0	594542592	47	4541
2026-01-30 10:45:36.77	96.39	20.92	-37.9	-39.9	14.9	0.00e+00	0	60	0	600834048	47	4500
2026-01-30 10:45:37.78	96.19	21.01	-37.9	-39.8	14.9	0.00e+00	0	60	0	606076928	47	4488
2026-01-30 10:45:38.79	95.99	21.10	-37.8	-39.8	14.9	0.00e+00	0	60	0	612368384	47	4493
2026-01-30 10:45:39.79	95.79	21.19	-37.7	-39.8	15.0	0.00e+00	0	60	0	617611264	47	4455
2026-01-30 10:45:40.80	95.59	21.28	-37.8	-39.7	15.0	0.00e+00	0	61	0	622854144	47	4437
2026-01-30 10:45:41.81	95.39	21.38	-37.7	-39.7	15.1	0.00e+00	0	61	0	629145600	47	4393
2026-01-30 10:45:42.83	95.19	21.47	-37.7	-39.6	15.2	0.00e+00	0	60	0	634388480	47	4352
2026-01-30 10:45:43.84	94.98	21.56	-37.6	-39.5	15.2	0.00e+00	0	60	0	640679936	47	4324
2026-01-30 10:45:44.85	94.78	21.65	-37.6	-39.5	15.3	0.00e+00	0	60	0	645922816	47	4306
2026-01-30 10:45:45.86	94.57	21.74	-37.6	-39.5	15.2	0.00e+00	0	60	0	652214272	47	4320
2026-01-30 10:45:46.87	94.37	21.83	-37.7	-39.5	15.2	0.00e+00	0	60	0	657457152	47	4339
2026-01-30 10:45:47.88	94.16	21.92	-37.6	-39.5	15.3	0.00e+00	0	61	0	663748608	47	4307
2026-01-30 10:45:48.89	93.95	22.01	-37.6	-39.4	15.3	0.00e+00	0	60	0	668991488	47	4290
2026-01-30 10:45:49.90	93.74	22.10	-37.5	-39.4	15.3	0.00e+00	0	60	0	674234368	47	4274
2026-01-30 10:45:50.91	93.52	22.19	-37.5	-39.4	15.4	0.00e+00	0	60	0	680525824	47	4247
2026-01-30 10:45:51.92	93.31	22.28	-37.6	-39.5	15.3	0.00e+00	0	61	0	685768704	47	4301
2026-01-30 10:45:52.93	93.10	22.37	-37.6	-39.4	15.4	0.00e+00	0	60	0	692060160	47	4259
2026-01-30 10:45:53.94	92.88	22.46	-37.4	-39.2	15.5	0.00e+00	0	60	0	697303040	46	4438
2026-01-30 10:45:54.95	92.66	22.55	-37.4	-39.2	15.6	0.00e+00	0	60	0	702545920	46	4402
2026-01-30 10:45:55.96	92.44	22.64	-37.4	-39.2	15.6	0.00e+00	0	60	0	708837376	46	4408
2026-01-30 10:45:56.97	92.22	22.73	-37.4	-39.3	15.5	0.00e+00	0	61	0	714080256	46	4443
2026-01-30 10:45:57.98	92.00	22.82	-37.5	-39.3	15.4	0.00e+00	0	61	0	720371712	46	4488
2026-01-30 10:45:58.99	91.78	22.91	-37.5	-39.4	15.4	0.00e+00	0	61	0	725614592	46	4501
2026-01-30 10:46:00.00	91.56	23.00	-37.6	-39.4	15.4	0.00e+00	0	60	0	730857472	46	4514
2026-01-30 10:46:01.01	91.33	23.09	-37.6	-39.4	15.4	0.00e+00	0	60	0	737148928	46	4537
2026-01-30 10:46:02.02	91.11	23.18	-37.6	-39.4	15.4	0.00e+00	0	61	0	742391808	46	4524
2026-01-30 10:46:03.02	90.88	23.27	-37.5	-39.4	15.4	0.00e+00	0	61	0	748683264	46	4500
2026-01-30 10:46:04.03	90.65	23.35	-37.5	-39.3	15.5	0.00e+00	0	61	0	753926144	46	4458
2026-01-30 10:46:05.04	90.42	23.44	-37.5	-39.3	15.5	0.00e+00	0	61	0	760217600	46	4446
2026-01-30 10:46:06.05	90.19	23.53	-37.3	-39.1	15.6	0.00e+00	0	61	0	765460480	46	4378
2026-01-30 10:46:07.06	89.96	23.62	-37.4	-39.2	15.6	0.00e+00	0	60	0	771751936	46	4396
2026-01-30 10:46:08.08	89.72	23.71	-37.3	-39.0	15.7	0.00e+00	0	60	0	776994816	46	4336
2026-01-30 10:46:09.09	89.48	23.79	-37.3	-39.1	15.7	0.00e+00	0	61	0	782237696	46	4346
2026-01-30 10:46:10.10	89.25	23.88	-37.3	-39.1	15.6	0.00e+00	0	61	0	788529152	46	4380
2026-01-30 10:46:11.11	89.01	23.97	-37.4	-39.2	15.5	0.00e+00	0	61	0	793772032	46	4439
2026-01-30 10:46:12.12	88.77	24.05	-37.5	-39.3	15.5	0.00e+00	0	61	0	800063488	46	4477
2026-01-30 10:46:13.13	88.53	24.14	-37.5	-39.3	15.4	0.00e+00	0	61	0	805306368	46	4487
2026-01-30 10:46:14.14	88.29	24.23	-37.5	-39.3	15.5	0.00e+00	0	61	0	810549248	46	4483
2026-01-30 10:46:15.15	88.04	24.31	-37.5	-39.3	15.5	0.00e+00	0	61	0	816840704	46	4457
2026-01-30 10:46:16.16	87.80	24.40	-37.4	-39.2	15.6	0.00e+00	0	61	0	822083584	46	4411
2026-01-30 10:46:17.17	87.55	24.48	-37.4	-39.2	15.6	0.00e+00	0	61	0	828375040	46	4394
2026-01-30 10:46:18.18	87.31	24.57	-37.3	-39.1	15.8	0.00e+00	0	60	0	833617920	46	4354
2026-01-30 10:46:19.19	87.06	24.65	-37.4	-39.1	15.7	0.00e+00	0	61	0	838860800	46	4380
2026-01-30 10:46:20.21	86.81	24.74	-37.4	-39.1	15.7	0.00e+00	0	61	0	845152256	46	4391
2026-01-30 10:46:21.22	86.55	24.82	-37.3	-39.1	15.7	0.00e+00	0	61	0	850395136	46	4367
2026-01-30 10:46:22.23	86.30	24.91	-37.3	-39.0	15.9	0.00e+00	0	61	0	856686592	46	4321
2026-01-30 10:46:23.24	86.05	24.99	-37.3	-39.0	15.8	0.00e+00	0	61	0	861929472	46	4334
2026-01-30 10:46:24.25	85.79	25.07	-37.3	-39.0	15.9	0.00e+00	0	61	0	868220928	46	4332
2026-01-30 10:46:25.26	85.53	25.16	-37.3	-39.1	15.8	0.00e+00	0	61	0	873463808	46	4373
2026-01-30 10:46:26.27	85.28	25.24	-37.3	-39.0	15.9	0.00e+00	0	61	0	879755264	46	4321
2026-01-30 10:46:27.28	85.02	25.32	-37.2	-39.0	15.9	0.00e+00	0	61	0	884998144	46	4298
2026-01-30 10:46:28.29	84.76	25.40	-37.1	-38.9	16.0	0.00e+00	0	61	0	890241024	46	4244
2026-01-30 10:46:29.31	84.49	25.48	-37.1	-38.8	16.0	0.00e+00	0	61	0	896532480	46	4241
2026-01-30 10:46:30.31	84.23	25.56	-37.1	-38.8	16.1	0.00e+00	0	61	0	901775360	46	4218
2026-01-30 10:46:31.32	83.96	25.64	-37.1	-38.8	16.1	0.00e+00	0	61	0	908066816	46	4215
2026-01-30 10:46:32.33	83.70	25.72	-37.1	-38.8	16.0	0.00e+00	0	61	0	913309696	46	4238
2026-01-30 10:46:33.34	83.43	25.80	-37.1	-38.9	16.0	0.00e+00	0	61	0	918552576	46	4244
2026-01-30 10:46:34.35	83.16	25.88	-37.1	-38.8	16.0	0.00e+00	0	61	0	924844032	46	4221
2026-01-30 10:46:35.36	82.89	25.96	-37.1	-38.8	16.0	0.00e+00	0	61	0	930086912	46	4238
2026-01-30 10:46:36.37	82.62	26.04	-37.1	-38.9	16.0	0.00e+00	0	61	0	936378368	46	4244
2026-01-30 10:46:37.38	82.35	26.11	-37.2	-38.9	16.0	0.00e+00	0	61	0	941621248	46	4257
2026-01-30 10:46:38.39	82.07	26.19	-37.2	-39.0	15.9	0.00e+00	0	61	0	946864128	46	4307
2026-01-30 10:46:39.40	81.80	26.27	-37.1	-38.8	16.0	0.00e+00	0	61	0	953155584	46	4228
2026-01-30 10:46:40.42	81.52	26.34	-37.1	-38.8	16.1	0.00e+00	0	61	0	958398464	46	4198
2026-01-30 10:46:41.43	81.24	26.42	-37.0	-38.7	16.2	0.00e+00	0	61	0	964689920	46	4168
2026-01-30 10:46:42.44	80.96	26.49	-37.0	-38.7	16.1	0.00e+00	0	61	0	969932800	46	4191
2026-01-30 10:46:43.45	80.68	26.57	-37.0	-38.7	16.2	0.00e+00	0	61	0	976224256	46	4156
2026-01-30 10:46:44.46	80.40	26.64	-37.0	-38.8	16.1	0.00e+00	0	61	0	981467136	46	4194
2026-01-30 10:46:45.47	80.11	26.72	-37.2	-38.9	15.9	0.00e+00	0	61	0	987758592	46	4278
2026-01-30 10:46:46.48	79.83	26.79	-37.3	-39.1	15.8	0.00e+00	0	61	0	993001472	46	4348
2026-01-30 10:46:47.49	79.54	26.86	-37.2	-38.9	16.0	0.00e+00	0	61	0	998244352	46	4264
2026-01-30 10:46:48.50	79.25	26.93	-37.0	-38.7	16.2	0.00e+00	0	61	0	1004535808	46	4164
2026-01-30 10:46:49.51	78.96	27.00	-36.9	-38.6	16.3	0.00e+00	0	61	0	1009778688	45	4368
2026-01-30 10:46:50.52	78.67	27.07	-37.0	-38.7	16.2	0.00e+00	0	61	0	1016070144	45	4404
2026-01-30 10:46:51.54	78.38	27.14	-37.0	-38.7	16.2	0.00e+00	0	61	0	1021313024	45	4400
2026-01-30 10:46:52.54	78.09	27.21	-37.0	-38.7	16.2	0.00e+00	0	61	0	1026555904	45	4414
2026-01-30 10:46:53.55	77.80	27.28	-37.0	-38.7	16.2	0.00e+00	0	61	0	1032847360	45	4421
2026-01-30 10:46:54.56	77.50	27.35	-37.1	-38.8	16.2	0.00e+00	0	61	0	1038090240	45	4458
2026-01-30 10:46:55.57	77.21	27.41	-37.0	-38.7	16.2	0.00e+00	0	61	0	1044381696	45	4420
2026-01-30 10:46:56.58	76.91	27.48	-37.0	-38.6	16.3	0.00e+00	0	61	0	1049624576	45	4376
2026-01-30 10:46:57.60	76.61	27.55	-36.9	-38.5	16.4	0.00e+00	0	61	0	1054867456	45	4327
2026-01-30 10:46:58.61	76.31	27.61	-36.9	-38.5	16.4	0.00e+00	0	61	0	1061158912	45	4317
2026-01-30 10:46:59.62	76.00	27.68	-36.9	-38.5	16.4	0.00e+00	0	61	0	1066401792	45	4339
2026-01-30 10:47:00.63	75.70	27.74	-36.8	-38.5	16.5	0.00e+00	0	61	0	1072693248	45	4300
2026-01-30 10:47:01.64	75.40	27.80	-36.9	-38.5	16.4	0.00e+00	0	61	0	1077936128	45	4322
2026-01-30 10:47:02.65	75.09	27.86	-36.8	-38.5	16.5	0.00e+00	0	61	0	1084227584	45	4307
2026-01-30 10:47:03.66	74.79	27.92	-36.8	-38.4	16.6	0.00e+00	0	61	0	1089470464	45	4259
2026-01-30 10:47:04.67	74.48	27.98	-36.6	-38.2	16.7	0.00e+00	0	61	0	1095761920	45	4185
2026-01-30 10:47:05.68	74.17	28.04	-36.6	-38.2	16.8	0.00e+00	0	61	0	1101004800	45	4170
2026-01-30 10:47:06.69	73.86	28.10	-36.6	-38.2	16.8	1.10e-06	0	61	0	1106247680	45	4175
2026-01-30 10:47:07.70	73.55	28.16	-36.7	-38.3	16.7	0.00e+00	0	61	0	1112539136	45	4213
2026-01-30 10:47:08.71	73.24	28.22	-36.7	-38.3	16.7	0.00e+00	0	61	0	1117782016	45	4240
2026-01-30 10:47:09.72	72.93	28.27	-36.8	-38.4	16.7	0.00e+00	0	61	0	1124073472	45	4249
2026-01-30 10:47:10.73	72.61	28.33	-36.8	-38.4	16.6	0.00e+00	0	61	0	1129316352	45	4259
2026-01-30 10:47:11.75	72.29	28.38	-36.8	-38.4	16.6	0.00e+00	0	61	0	1134559232	45	4291
2026-01-30 10:47:12.76	71.98	28.44	-36.8	-38.4	16.6	0.00e+00	0	61	0	1140850688	45	4269
2026-01-30 10:47:13.77	71.66	28.49	-36.6	-38.2	16.8	0.00e+00	0	61	0	1146093568	45	4179
2026-01-30 10:47:14.78	71.34	28.54	-36.5	-38.0	16.9	0.00e+00	0	61	0	1152385024	45	4098
2026-01-30 10:47:15.79	71.02	28.59	-36.5	-38.0	17.0	0.00e+00	0	61	0	1157627904	44	4321
2026-01-30 10:47:16.80	70.70	28.64	-36.6	-38.2	16.9	0.00e+00	0	61	0	1162870784	44	4393
2026-01-30 10:47:17.81	70.38	28.69	-36.6	-38.1	16.9	0.00e+00	0	61	0	1169162240	44	4387
2026-01-30 10:47:18.82	70.06	28.74	-36.5	-38.1	16.9	0.00e+00	0	61	0	1174405120	44	4381
2026-01-30 10:47:19.83	69.74	28.79	-36.5	-38.1	16.9	0.00e+00	0	61	0	1180696576	44	4367
2026-01-30 10:47:20.84	69.41	28.83	-36.4	-38.0	17.0	0.00e+00	0	61	0	1185939456	44	4306
2026-01-30 10:47:21.85	69.09	28.88	-36.4	-38.0	17.0	0.00e+00	0	61	0	1192230912	44	4305
2026-01-30 10:47:22.86	68.76	28.92	-36.5	-38.0	17.0	0.00e+00	0	61	0	1197473792	44	4332
2026-01-30 10:47:23.87	68.44	28.97	-36.6	-38.2	16.9	0.00e+00	0	61	0	1203765248	44	4411
2026-01-30 10:47:24.88	68.11	29.01	-36.6	-38.2	16.8	0.00e+00	0	61	0	1209008128	44	4423
2026-01-30 10:47:25.89	67.78	29.05	-36.5	-38.1	16.9	0.00e+00	0	61	0	1214251008	44	4361
2026-01-30 10:47:26.90	67.45	29.09	-36.4	-37.9	17.1	0.00e+00	0	61	0	1220542464	44	4277
2026-01-30 10:47:27.91	67.12	29.13	-36.4	-37.9	17.2	0.00e+00	0	61	0	1225785344	44	4253
2026-01-30 10:47:28.91	66.79	29.17	-36.5	-38.0	17.0	0.00e+00	0	61	0	1232076800	44	4339
2026-01-30 10:47:29.93	66.46	29.21	-36.6	-38.2	16.8	0.00e+00	0	61	0	1237319680	44	4432
2026-01-30 10:47:30.94	66.12	29.24	-36.6	-38.2	16.8	0.00e+00	0	61	0	1242562560	44	4419
2026-01-30 10:47:31.95	65.79	29.28	-36.5	-38.0	17.0	0.00e+00	0	61	0	1248854016	44	4329
2026-01-30 10:47:32.96	65.46	29.31	-36.4	-37.9	17.2	0.00e+00	0	61	0	1254096896	44	4255
2026-01-30 10:47:33.97	65.12	29.35	-36.3	-37.8	17.2	0.00e+00	0	61	0	1260388352	44	4232
2026-01-30 10:47:34.98	64.79	29.38	-36.4	-37.9	17.2	0.00e+00	0	61	0	1265631232	44	4260
2026-01-30 10:47:35.99	64.45	29.41	-36.4	-38.0	17.1	0.00e+00	0	61	0	1270874112	44	4304
2026-01-30 10:47:37.00	64.11	29.44	-36.5	-38.0	17.1	0.00e+00	0	61	0	1277165568	44	4328
2026-01-30 10:47:38.02	63.77	29.47	-36.5	-38.1	17.0	0.00e+00	0	61	0	1282408448	44	4352
2026-01-30 10:47:39.03	63.44	29.50	-36.5	-38.0	17.0	0.00e+00	0	61	0	1288699904	44	4332
2026-01-30 10:47:40.03	63.10	29.53	-36.5	-38.1	17.0	0.00e+00	0	61	0	1293942784	44	4345
2026-01-30 10:47:41.04	62.76	29.55	-36.4	-38.0	17.1	0.00e+00	0	61	0	1300234240	44	4301
2026-01-30 10:47:42.05	62.42	29.58	-36.3	-37.8	17.3	0.00e+00	0	61	0	1305477120	44	4233
2026-01-30 10:47:43.06	62.08	29.60	-36.3	-37.8	17.3	0.00e+00	0	61	0	1310720000	44	4215
2026-01-30 10:47:44.07	61.74	29.62	-36.3	-37.8	17.3	0.00e+00	0	61	0	1317011456	44	4200
2026-01-30 10:47:45.08	61.40	29.64	-36.3	-37.8	17.2	0.00e+00	0	61	0	1322254336	44	4236
2026-01-30 10:47:46.09	61.06	29.66	-36.4	-37.9	17.2	0.00e+00	0	61	0	1328545792	44	4274
2026-01-30 10:47:47.10	60.72	29.68	-36.5	-38.0	17.0	0.00e+00	0	61	0	1333788672	44	4340
2026-01-30 10:47:48.11	60.37	29.70	-36.4	-38.0	17.1	0.00e+00	0	61	0	1340080128	44	4295
2026-01-30 10:47:49.13	60.03	29.72	-36.2	-37.7	17.4	0.00e+00	0	61	0	1345323008	44	4164
2026-01-30 10:47:50.14	59.69	29.73	-36.1	-37.6	17.5	0.00e+00	0	61	0	1350565888	44	4132
2026-01-30 10:47:51.15	59.34	29.75	-36.3	-37.7	17.4	0.00e+00	0	61	0	1356857344	44	4190
2026-01-30 10:47:52.16	59.00	29.76	-36.4	-37.9	17.2	0.00e+00	0	61	0	1362100224	44	4263
2026-01-30 10:47:53.17	58.65	29.77	-36.2	-37.7	17.3	0.00e+00	0	61	0	1368391680	44	4190
2026-01-30 10:47:54.18	58.31	29.79	-36.1	-37.6	17.5	0.00e+00	0	61	0	1373634560	44	4102
2026-01-30 10:47:55.19	57.97	29.80	-36.0	-37.5	17.6	0.00e+00	0	61	0	1378877440	44	4069
2026-01-30 10:47:56.20	57.62	29.80	-36.1	-37.6	17.5	0.00e+00	0	61	0	1385168896	44	4113
2026-01-30 10:47:57.21	57.28	29.81	-36.2	-37.6	17.5	0.00e+00	0	61	0	1390411776	44	4134
2026-01-30 10:47:58.22	56.93	29.82	-36.1	-37.6	17.5	0.00e+00	0	61	0	1396703232	44	4129
2026-01-30 10:47:59.23	56.59	29.82	-36.1	-37.6	17.5	0.00e+00	0	61	0	1401946112	44	4108
2026-01-30 10:48:00.24	56.24	29.83	-36.2	-37.7	17.4	0.00e+00	0	61	0	1408237568	44	4151
2026-01-30 10:48:01.25	55.90	29.83	-36.3	-37.8	17.3	0.00e+00	0	61	0	1413480448	44	4202
2026-01-30 10:48:02.26	55.55	29.83	-36.3	-37.8	17.3	0.00e+00	0	61	0	1418723328	44	4220
2026-01-30 10:48:03.27	55.21	29.83	-36.3	-37.8	17.3	0.00e+00	0	61	0	1425014784	44	4216
2026-01-30 10:48:04.28	54.86	29.83	-36.3	-37.8	17.3	0.00e+00	0	61	0	1430257664	44	4207
2026-01-30 10:48:05.29	54.52	29.83	-36.3	-37.8	17.3	0.00e+00	0	61	0	1436549120	44	4213
2026-01-30 10:48:06.30	54.17	29.83	-36.3	-37.7	17.4	0.00e+00	0	61	0	1441792000	44	4189
2026-01-30 10:48:07.31	53.83	29.82	-36.2	-37.7	17.4	0.00e+00	0	61	0	1447034880	44	4189
2026-01-30 10:48:08.32	53.48	29.82	-36.2	-37.7	17.4	0.00e+00	0	61	0	1453326336	44	4182
2026-01-30 10:48:09.33	53.14	29.81	-36.2	-37.7	17.4	0.00e+00	0	61	0	1458569216	44	4172
2026-01-30 10:48:10.34	52.79	29.81	-36.2	-37.8	17.4	0.00e+00	0	61	0	1464860672	44	4196
2026-01-30 10:48:11.35	52.45	29.80	-36.2	-37.7	17.4	0.00e+00	0	61	0	1470103552	44	4179
2026-01-30 10:48:12.36	52.10	29.79	-36.3	-37.8	17.3	0.00e+00	0	61	0	1475346432	44	4196
2026-01-30 10:48:13.37	51.76	29.78	-36.3	-37.8	17.3	0.00e+00	0	61	0	1481637888	44	4195
2026-01-30 10:48:14.38	51.42	29.76	-36.2	-37.7	17.4	0.00e+00	0	61	0	1486880768	44	4185
2026-01-30 10:48:15.39	51.07	29.75	-36.3	-37.8	17.3	0.00e+00	0	61	0	1493172224	44	4234
2026-01-30 10:48:16.40	50.73	29.74	-36.4	-37.9	17.1	0.00e+00	0	61	0	1498415104	44	4287
2026-01-30 10:48:17.41	50.39	29.72	-36.4	-38.0	17.1	0.00e+00	0	61	0	1504706560	44	4304
2026-01-30 10:48:18.42	50.04	29.71	-36.3	-37.8	17.2	0.00e+00	0	62	0	1509949440	44	4236
2026-01-30 10:48:19.43	49.70	29.69	-36.2	-37.7	17.4	0.00e+00	0	61	0	1516240896	44	4184
2026-01-30 10:48:20.44	49.36	29.67	-36.2	-37.7	17.4	0.00e+00	0	61	0	1521483776	44	4146
2026-01-30 10:48:21.45	49.02	29.65	-36.1	-37.5	17.5	0.00e+00	0	61	0	1526726656	44	4098
2026-01-30 10:48:22.46	48.68	29.63	-36.1	-37.6	17.5	0.00e+00	0	61	0	1533018112	44	4114
2026-01-30 10:48:23.47	48.34	29.61	-36.2	-37.7	17.4	0.00e+00	0	61	0	1538260992	44	4168
2026-01-30 10:48:24.48	48.00	29.58	-36.2	-37.8	17.3	0.00e+00	0	61	0	1544552448	44	4195
2026-01-30 10:48:25.49	47.66	29.56	-36.3	-37.9	17.3	0.00e+00	0	61	0	1549795328	44	4246
2026-01-30 10:48:26.50	47.32	29.53	-36.4	-38.0	17.1	0.00e+00	0	61	0	1555038208	44	4292
2026-01-30 10:48:27.51	46.98	29.51	-36.4	-37.9	17.2	0.00e+00	0	61	0	1561329664	44	4266
2026-01-30 10:48:28.52	46.64	29.48	-36.4	-37.9	17.1	0.00e+00	0	61	0	1566572544	44	4284
2026-01-30 10:48:29.53	46.31	29.45	-36.5	-38.0	17.1	0.00e+00	0	61	0	1572864000	44	4318
2026-01-30 10:48:30.54	45.97	29.42	-36.5	-38.0	17.1	0.00e+00	0	61	0	1578106880	44	4319
2026-01-30 10:48:31.55	45.63	29.39	-36.5	-38.0	17.1	0.00e+00	0	61	0	1583349760	44	4332
2026-01-30 10:48:32.56	45.30	29.36	-36.5	-38.0	17.1	0.00e+00	0	61	0	1589641216	44	4313
2026-01-30 10:48:33.57	44.96	29.32	-36.4	-37.9	17.2	0.00e+00	0	61	0	1594884096	44	4282
2026-01-30 10:48:34.58	44.63	29.29	-36.5	-37.9	17.4	0.00e+00	0	61	0	1601175552	44	4282
2026-01-30 10:48:35.59	44.30	29.25	-36.7	-38.1	17.2	0.00e+00	0	61	0	1606418432	44	4373
2026-01-30 10:48:36.60	43.97	29.22	-36.7	-38.1	17.2	0.00e+00	0	61	0	1612709888	44	4380
2026-01-30 10:48:37.61	43.63	29.18	-36.7	-38.1	17.1	0.00e+00	0	61	0	1617952768	44	4384
2026-01-30 10:48:38.63	43.30	29.14	-36.6	-38.1	17.2	0.00e+00	0	61	0	1624244224	44	4351
2026-01-30 10:48:39.64	42.97	29.10	-36.7	-38.1	17.2	0.00e+00	0	61	0	1629487104	44	4363
2026-01-30 10:48:40.65	42.64	29.06	-36.7	-38.1	17.2	0.00e+00	0	61	0	1634729984	44	4378
2026-01-30 10:48:41.66	42.31	29.02	-36.7	-38.1	17.2	0.00e+00	0	61	0	1641021440	44	4385
2026-01-30 10:48:42.67	41.99	28.98	-36.7	-38.2	17.1	0.00e+00	0	61	0	1646264320	44	4415
2026-01-30 10:48:43.68	41.66	28.93	-36.8	-38.2	17.1	0.00e+00	0	61	0	1652555776	44	4430
2026-01-30 10:48:44.69	41.33	28.89	-36.7	-38.1	17.2	0.00e+00	0	61	0	1657798656	44	4380
2026-01-30 10:48:45.70	41.01	28.85	-36.6	-38.1	17.2	0.00e+00	0	61	0	1663041536	44	4345
2026-01-30 10:48:46.71	40.69	28.80	-36.7	-38.1	17.2	0.00e+00	0	61	0	1669332992	44	4389
2026-01-30 10:48:47.72	40.36	28.75	-36.6	-38.0	17.3	0.00e+00	0	61	0	1674575872	44	4330
2026-01-30 10:48:48.73	40.04	28.70	-36.5	-37.9	17.4	0.00e+00	0	61	0	1680867328	44	4276
2026-01-30 10:48:49.74	39.72	28.66	-36.4	-37.8	17.5	0.00e+00	0	62	0	1686110208	44	4229
2026-01-30 10:48:50.75	39.40	28.61	-36.4	-37.8	17.5	0.00e+00	0	62	0	1691353088	44	4226
2026-01-30 10:48:51.76	39.08	28.56	-36.4	-37.8	17.4	0.00e+00	0	61	0	1697644544	44	4235
2026-01-30 10:48:52.77	38.76	28.50	-36.4	-37.8	17.4	0.00e+00	0	61	0	1702887424	44	4235
2026-01-30 10:48:53.78	38.45	28.45	-36.5	-38.0	17.3	0.00e+00	0	61	0	1709178880	44	4307
2026-01-30 10:48:54.79	38.13	28.40	-36.6	-38.1	17.2	0.00e+00	0	62	0	1714421760	44	4363
2026-01-30 10:48:55.80	37.82	28.34	-36.7	-38.1	17.2	0.00e+00	0	61	0	1720713216	44	4379
2026-01-30 10:48:56.81	37.50	28.29	-36.6	-38.0	17.3	0.00e+00	0	62	0	1725956096	44	4321
2026-01-30 10:48:57.82	37.19	28.23	-36.5	-37.9	17.4	0.00e+00	0	61	0	1732247552	44	4262
2026-01-30 10:48:58.83	36.88	28.18	-36.5	-37.9	17.3	0.00e+00	0	61	0	1737490432	44	4283
2026-01-30 10:48:59.84	36.57	28.12	-36.6	-38.0	17.2	0.00e+00	0	62	0	1742733312	44	4326
2026-01-30 10:49:00.85	36.26	28.06	-36.6	-38.1	17.2	0.00e+00	0	61	0	1749024768	44	4357
2026-01-30 10:49:01.86	35.95	28.00	-36.7	-38.1	17.2	0.00e+00	0	61	0	1754267648	44	4374
2026-01-30 10:49:02.87	35.65	27.94	-36.7	-38.1	17.1	0.00e+00	0	61	0	1760559104	44	4376
2026-01-30 10:49:03.88	35.34	27.88	-36.6	-38.1	17.2	0.00e+00	0	61	0	1765801984	44	4348
2026-01-30 10:49:04.89	35.04	27.82	-36.6	-38.0	17.2	0.00e+00	0	61	0	1771044864	44	4324
2026-01-30 10:49:05.90	34.73	27.76	-36.5	-37.9	17.3	0.00e+00	0	61	0	1777336320	44	4281
2026-01-30 10:49:06.91	34.43	27.69	-36.4	-37.8	17.4	0.00e+00	0	62	0	1782579200	44	4241
2026-01-30 10:49:07.92	34.13	27.63	-36.5	-37.9	17.4	0.00e+00	0	61	0	1788870656	44	4252
2026-01-30 10:49:08.93	33.83	27.57	-36.5	-37.9	17.3	0.00e+00	0	61	0	1794113536	44	4284
2026-01-30 10:49:09.94	33.53	27.50	-36.6	-38.0	17.2	0.00e+00	0	61	0	1799356416	44	4333
2026-01-30 10:49:10.95	33.24	27.43	-36.6	-38.1	17.2	0.00e+00	0	61	0	1805647872	44	4356
2026-01-30 10:49:11.96	32.94	27.37	-36.7	-38.1	17.1	0.00e+00	0	61	0	1810890752	44	4374
2026-01-30 10:49:12.97	32.65	27.30	-36.7	-38.1	17.1	0.00e+00	0	62	0	1817182208	44	4375
2026-01-30 10:49:13.98	32.35	27.23	-36.5	-38.0	17.3	0.00e+00	0	61	0	1822425088	44	4301
2026-01-30 10:49:14.99	32.06	27.16	-36.5	-37.9	17.3	0.00e+00	0	61	0	1828716544	44	4271
2026-01-30 10:49:16.00	31.77	27.10	-36.5	-37.9	17.3	0.00e+00	0	61	0	1833959424	44	4280
2026-01-30 10:49:17.01	31.48	27.03	-36.6	-38.1	17.2	0.00e+00	0	61	0	1839202304	44	4344
2026-01-30 10:49:18.02	31.19	26.96	-36.6	-38.1	17.2	0.00e+00	0	61	0	1845493760	44	4344
2026-01-30 10:49:19.03	30.90	26.88	-36.6	-38.1	17.1	0.00e+00	0	61	0	1850736640	44	4367
2026-01-30 10:49:20.04	30.62	26.81	-36.7	-38.1	17.1	0.00e+00	0	61	0	1857028096	44	4388
2026-01-30 10:49:21.05	30.33	26.74	-36.7	-38.2	17.1	0.00e+00	0	61	0	1862270976	44	4406
2026-01-30 10:49:22.06	30.05	26.67	-36.8	-38.2	17.0	0.00e+00	0	61	0	1867513856	44	4431
2026-01-30 10:49:23.07	29.77	26.59	-36.8	-38.2	17.0	0.00e+00	0	62	0	1873805312	44	4422
2026-01-30 10:49:24.09	29.49	26.52	-36.8	-38.2	17.0	0.00e+00	0	61	0	1879048192	44	4430
2026-01-30 10:49:25.10	29.21	26.44	-36.8	-38.3	16.9	0.00e+00	0	61	0	1885339648	44	4467
2026-01-30 10:49:26.11	28.93	26.37	-36.9	-38.4	16.8	0.00e+00	0	62	0	1890582528	44	4506
2026-01-30 10:49:27.12	28.65	26.29	-36.9	-38.4	16.9	0.00e+00	0	62	0	1896873984	44	4518
2026-01-30 10:49:28.13	28.38	26.22	-36.9	-38.4	16.8	0.00e+00	0	62	0	1902116864	44	4544
2026-01-30 10:49:29.14	28.10	26.14	-36.9	-38.4	16.8	0.00e+00	0	62	0	1907359744	44	4518
2026-01-30 10:49:30.15	27.83	26.06	-36.9	-38.4	16.9	0.00e+00	0	61	0	1913651200	44	4494
2026-01-30 10:49:31.16	27.56	25.99	-36.8	-38.3	16.9	0.00e+00	0	62	0	1918894080	44	4474
2026-01-30 10:49:32.17	27.29	25.91	-36.9	-38.4	16.8	0.00e+00	0	61	0	1925185536	44	4503
2026-01-30 10:49:33.18	27.02	25.83	-36.8	-38.3	16.9	0.00e+00	0	62	0	1930428416	44	4460
2026-01-30 10:49:34.19	26.76	25.75	-36.9	-38.4	16.8	0.00e+00	0	61	0	1936719872	44	4514
2026-01-30 10:49:35.20	26.49	25.67	-37.0	-38.5	16.7	0.00e+00	0	62	0	1941962752	44	4594
2026-01-30 10:49:36.21	26.23	25.59	-37.1	-38.6	16.6	0.00e+00	0	62	0	1948254208	44	4629
2026-01-30 10:49:37.22	25.96	25.51	-37.0	-38.5	16.7	0.00e+00	0	61	0	1953497088	44	4555
2026-01-30 10:49:38.23	25.70	25.43	-36.7	-38.2	17.0	0.00e+00	0	62	0	1958739968	44	4424
2026-01-30 10:49:39.24	25.44	25.35	-36.7	-38.2	17.0	0.00e+00	0	61	0	1965031424	44	4394
2026-01-30 10:49:40.26	25.18	25.27	-36.6	-38.1	17.1	0.00e+00	0	62	0	1970274304	44	4354
2026-01-30 10:49:41.27	24.92	25.19	-36.7	-38.1	17.1	0.00e+00	0	61	0	1976565760	44	4368
2026-01-30 10:49:42.28	24.67	25.10	-36.7	-38.1	17.0	0.00e+00	0	61	0	1981808640	44	4388
2026-01-30 10:49:43.28	24.41	25.02	-36.8	-38.3	16.9	0.00e+00	0	61	0	1987051520	44	4443
2026-01-30 10:49:44.29	24.16	24.94	-36.7	-38.2	17.0	0.00e+00	0	61	0	1993342976	44	4431
2026-01-30 10:49:45.31	23.91	24.86	-36.8	-38.3	16.9	0.00e+00	0	62	0	1998585856	44	4477
2026-01-30 10:49:46.32	23.66	24.77	-36.9	-38.4	16.8	0.00e+00	0	62	0	2004877312	44	4507
2026-01-30 10:49:47.33	23.41	24.69	-36.9	-38.4	16.8	0.00e+00	0	62	0	2010120192	44	4505
2026-01-30 10:49:48.34	23.16	24.60	-36.9	-38.4	16.8	0.00e+00	0	62	0	2015363072	44	4511
2026-01-30 10:49:49.35	22.91	24.52	-36.9	-38.4	16.8	0.00e+00	0	61	0	2021654528	44	4520
2026-01-30 10:49:50.36	22.67	24.43	-36.8	-38.3	16.9	0.00e+00	0	62	0	2026897408	44	4464
2026-01-30 10:49:51.37	22.42	24.35	-36.8	-38.3	16.9	0.00e+00	0	62	0	2033188864	44	4474
2026-01-30 10:49:52.38	22.18	24.26	-36.9	-38.4	16.8	0.00e+00	0	61	0	2038431744	44	4502
2026-01-30 10:49:53.39	21.94	24.18	-36.9	-38.4	16.7	0.00e+00	0	62	0	2044723200	44	4528
2026-01-30 10:49:54.40	21.70	24.09	-37.0	-38.5	16.6	0.00e+00	0	61	0	2049966080	44	4596
2026-01-30 10:49:55.41	21.46	24.01	-37.1	-38.6	16.6	0.00e+00	0	62	0	2055208960	44	4616
2026-01-30 10:49:56.42	21.22	23.92	-37.1	-38.6	16.5	0.00e+00	0	61	0	2061500416	44	4644
2026-01-30 10:49:57.44	20.98	23.83	-37.1	-38.6	16.6	0.00e+00	0	62	0	2066743296	44	4622
2026-01-30 10:49:58.45	20.75	23.74	-37.1	-38.6	16.5	0.00e+00	0	62	0	2073034752	44	4632
2026-01-30 10:49:59.46	20.51	23.66	-37.1	-38.6	16.5	0.00e+00	0	62	0	2078277632	44	4643
2026-01-30 10:50:00.47	20.28	23.57	-37.0	-38.6	16.6	0.00e+00	0	62	0	2084569088	44	4604
2026-01-30 10:50:01.48	20.05	23.48	-37.1	-38.7	16.5	0.00e+00	0	62	0	2089811968	44	4657
2026-01-30 10:50:02.49	19.82	23.39	-37.2	-38.8	16.3	0.00e+00	0	62	0	2095054848	45	4473
2026-01-30 10:50:03.50	19.59	23.31	-37.3	-38.9	16.3	0.00e+00	0	61	0	2101346304	45	4513
2026-01-30 10:50:04.50	19.37	23.22	-37.3	-38.9	16.3	0.00e+00	0	62	0	2106589184	45	4516
2026-01-30 10:50:05.51	19.14	23.13	-37.3	-38.9	16.2	0.00e+00	0	62	0	2111832064	45	4535
2026-01-30 10:50:06.52	18.92	23.04	-37.4	-39.0	16.2	0.00e+00	0	62	0	2118123520	45	4550
2026-01-30 10:50:07.53	18.70	22.95	-37.3	-38.9	16.3	0.00e+00	0	62	0	2123366400	45	4505
2026-01-30 10:50:08.54	18.48	22.86	-37.3	-38.9	16.2	0.00e+00	0	62	0	2129657856	45	4527
2026-01-30 10:50:09.55	18.25	22.78	-37.3	-38.9	16.2	0.00e+00	0	61	0	2134900736	45	4530
2026-01-30 10:50:10.56	18.04	22.69	-37.3	-38.9	16.2	0.00e+00	0	61	0	2141192192	45	4524
2026-01-30 10:50:11.57	17.82	22.60	-37.3	-38.9	16.2	0.00e+00	0	62	0	2146435072	45	4530
2026-01-30 10:50:12.58	17.60	22.51	-37.3	-38.9	16.2	0.00e+00	0	61	0	2152726528	45	4544
2026-01-30 10:50:13.59	17.39	22.42	-37.3	-38.9	16.3	0.00e+00	0	62	0	2157969408	45	4502
2026-01-30 10:50:14.60	17.17	22.33	-37.3	-38.9	16.2	0.00e+00	0	62	0	2163212288	45	4505
2026-01-30 10:50:15.61	16.96	22.24	-37.3	-38.9	16.2	0.00e+00	0	62	0	2169503744	45	4532
2026-01-30 10:50:16.62	16.75	22.15	-37.4	-39.0	16.1	0.00e+00	0	62	0	2174746624	45	4582
2026-01-30 10:50:17.63	16.54	22.06	-37.4	-39.0	16.1	0.00e+00	0	62	0	2181038080	45	4579
2026-01-30 10:50:18.64	16.33	21.97	-37.3	-38.9	16.2	0.00e+00	0	62	0	2186280960	45	4537
2026-01-30 10:50:19.65	16.12	21.88	-37.3	-38.8	16.3	0.00e+00	0	62	0	2191523840	45	4487
2026-01-30 10:50:20.66	15.91	21.79	-37.2	-38.8	16.3	0.00e+00	0	61	0	2197815296	45	4480
2026-01-30 10:50:21.67	15.71	21.70	-37.2	-38.8	16.3	0.00e+00	0	62	0	2203058176	45	4491
2026-01-30 10:50:22.68	15.50	21.61	-37.3	-38.9	16.2	0.00e+00	0	62	0	2209349632	45	4543
2026-01-30 10:50:23.69	15.30	21.52	-37.3	-39.0	16.2	0.00e+00	0	62	0	2214592512	45	4554
2026-01-30 10:50:24.70	15.10	21.43	-37.4	-39.0	16.1	0.00e+00	0	62	0	2219835392	45	4583
2026-01-30 10:50:25.71	14.90	21.34	-37.4	-39.0	16.1	0.00e+00	0	62	0	2226126848	45	4577
2026-01-30 10:50:26.72	14.70	21.24	-37.3	-39.0	16.1	0.00e+00	0	62	0	2231369728	45	4580
2026-01-30 10:50:27.73	14.50	21.15	-37.4	-39.0	16.1	0.00e+00	0	62	0	2237661184	45	4593
2026-01-30 10:50:28.74	14.30	21.06	-37.4	-39.1	16.1	0.00e+00	0	62	0	2242904064	45	4601
2026-01-30 10:50:29.75	14.11	20.97	-37.5	-39.1	16.0	0.00e+00	0	62	0	2249195520	45	4649
2026-01-30 10:50:30.77	13.91	20.88	-37.6	-39.2	15.9	0.00e+00	0	62	0	2254438400	45	4694
2026-01-30 10:50:31.77	13.72	20.79	-37.5	-39.2	15.9	0.00e+00	0	62	0	2260729856	45	4677
2026-01-30 10:50:32.79	13.53	20.70	-37.6	-39.2	15.9	0.00e+00	0	61	0	2265972736	45	4682
2026-01-30 10:50:33.80	13.33	20.61	-37.6	-39.2	15.9	3.43e-05	0	62	0	2271215616	45	4698
2026-01-30 10:50:34.81	13.14	20.52	-37.5	-39.2	15.9	0.00e+00	0	62	0	2277507072	45	4669
2026-01-30 10:50:35.81	12.96	20.43	-37.5	-39.1	16.0	0.00e+00	0	62	0	2282749952	45	4626
2026-01-30 10:50:36.83	12.77	20.34	-37.4	-39.0	16.1	0.00e+00	0	62	0	2289041408	45	4589
2026-01-30 10:50:37.84	12.58	20.25	-37.4	-39.0	16.1	0.00e+00	0	62	0	2294284288	45	4588
2026-01-30 10:50:38.85	12.40	20.15	-37.4	-39.0	16.1	0.00e+00	0	62	0	2299527168	45	4577
2026-01-30 10:50:39.86	12.21	20.06	-37.4	-39.0	16.1	0.00e+00	0	62	0	2305818624	45	4564
2026-01-30 10:50:40.87	12.03	19.97	-37.4	-39.0	16.1	0.00e+00	0	62	0	2311061504	45	4573
2026-01-30 10:50:41.88	11.85	19.88	-37.5	-39.1	16.0	0.00e+00	0	62	0	2317352960	45	4629
2026-01-30 10:50:42.89	11.66	19.79	-37.5	-39.1	15.9	0.00e+00	0	61	0	2322595840	45	4651
2026-01-30 10:50:43.90	11.48	19.70	-37.6	-39.2	15.8	0.00e+00	0	62	0	2327838720	45	4698
2026-01-30 10:50:44.91	11.31	19.61	-37.6	-39.3	15.8	0.00e+00	0	62	0	2334130176	45	4732
2026-01-30 10:50:45.92	11.13	19.52	-37.7	-39.4	15.7	0.00e+00	0	62	0	2339373056	45	4768
2026-01-30 10:50:46.93	10.95	19.43	-37.6	-39.3	15.7	0.00e+00	0	62	0	2345664512	45	4741
2026-01-30 10:50:47.94	10.78	19.34	-37.7	-39.4	15.7	0.00e+00	0	62	0	2350907392	45	4771
2026-01-30 10:50:48.95	10.60	19.25	-37.8	-39.5	15.6	0.00e+00	0	62	0	2357198848	46	4556
2026-01-30 10:50:49.96	10.43	19.16	-37.8	-39.6	15.5	0.00e+00	0	61	0	2362441728	46	4601
2026-01-30 10:50:50.97	10.25	19.07	-37.8	-39.5	15.5	0.00e+00	0	62	0	2368733184	46	4572
2026-01-30 10:50:51.98	10.08	18.98	-37.8	-39.5	15.5	0.00e+00	0	62	0	2373976064	46	4594
2026-01-30 10:50:52.99	9.91	18.89	-37.8	-39.5	15.5	0.00e+00	0	62	0	2379218944	46	4594
2026-01-30 10:50:54.01	9.74	18.80	-37.8	-39.5	15.5	0.00e+00	0	62	0	2385510400	46	4595
2026-01-30 10:50:55.02	9.57	18.71	-37.8	-39.6	15.4	0.00e+00	0	62	0	2390753280	46	4608
2026-01-30 10:50:56.03	9.41	18.62	-37.9	-39.6	15.4	0.00e+00	0	62	0	2397044736	46	4644
2026-01-30 10:50:57.03	9.24	18.53	-37.9	-39.6	15.4	4.23e-05	0	62	0	2402287616	46	4630
2026-01-30 10:50:58.04	9.08	18.44	-37.9	-39.6	15.4	0.00e+00	0	62	0	2407530496	46	4643
2026-01-30 10:50:59.05	8.91	18.35	-37.9	-39.7	15.3	0.00e+00	0	62	0	2413821952	46	4660
2026-01-30 10:51:00.06	8.75	18.26	-37.8	-39.7	15.3	0.00e+00	0	62	0	2419064832	46	4680
2026-01-30 10:51:01.07	8.58	18.17	-38.0	-39.7	15.2	0.00e+00	0	61	0	2425356288	46	4695
2026-01-30 10:51:02.08	8.42	18.08	-37.9	-39.7	15.3	0.00e+00	0	62	0	2430599168	46	4679
2026-01-30 10:51:03.09	8.26	17.99	-37.9	-39.7	15.3	0.00e+00	0	62	0	2435842048	46	4680
2026-01-30 10:51:04.10	8.10	17.90	-38.0	-39.7	15.2	0.00e+00	0	61	0	2442133504	46	4703
2026-01-30 10:51:05.11	7.94	17.81	-38.0	-39.7	15.2	0.00e+00	0	61	0	2447376384	46	4698
2026-01-30 10:51:06.12	7.79	17.72	-38.0	-39.8	15.2	0.00e+00	0	62	0	2453667840	46	4732
2026-01-30 10:51:07.14	7.63	17.63	-38.0	-39.9	15.1	0.00e+00	0	61	0	2458910720	46	4765
2026-01-30 10:51:08.15	7.47	17.54	-38.0	-39.9	15.1	0.00e+00	0	61	0	2465202176	46	4771
2026-01-30 10:51:09.16	7.32	17.45	-38.1	-39.9	15.0	1.10e-06	0	62	0	2470445056	46	4806
2026-01-30 10:51:10.17	7.16	17.36	-38.1	-40.0	14.9	0.00e+00	0	62	0	2476736512	46	4837
2026-01-30 10:51:11.18	7.01	17.27	-38.2	-40.0	14.9	0.00e+00	0	62	0	2481979392	46	4864
2026-01-30 10:51:12.19	6.86	17.19	-38.1	-40.0	14.9	1.10e-06	0	62	0	2487222272	46	4839
2026-01-30 10:51:13.20	6.71	17.10	-38.1	-40.0	14.8	0.00e+00	0	62	0	2493513728	46	4845
2026-01-30 10:51:14.21	6.56	17.01	-38.1	-40.0	14.9	1.10e-06	0	62	0	2498756608	46	4845
2026-01-30 10:51:15.22	6.41	16.92	-38.2	-40.0	14.8	2.20e-06	0	62	0	2505048064	46	4863
2026-01-30 10:51:16.23	6.26	16.83	-38.1	-40.0	14.8	0.00e+00	0	62	0	2510290944	46	4849
2026-01-30 10:51:17.24	6.11	16.75	-38.2	-40.1	14.7	0.00e+00	0	62	0	2515533824	46	4878
2026-01-30 10:51:18.24	5.97	16.66	-38.3	-40.2	14.6	1.10e-06	0	62	0	2521825280	47	4671
2026-01-30 10:51:19.25	5.82	16.57	-38.3	-40.2	14.6	2.20e-06	0	62	0	2527068160	47	4689
2026-01-30 10:51:20.26	5.68	16.48	-38.3	-40.2	14.5	2.20e-06	0	62	0	2533359616	47	4702
2026-01-30 10:51:21.27	5.53	16.40	-38.3	-40.2	14.5	0.00e+00	0	62	0	2538602496	47	4685
2026-01-30 10:51:22.29	5.39	16.31	-38.3	-40.3	14.5	0.00e+00	0	62	0	2543845376	47	4708
2026-01-30 10:51:23.30	5.25	16.22	-38.2	-40.1	14.6	1.10e-06	0	61	0	2550136832	47	4635
2026-01-30 10:51:24.31	5.10	16.13	-38.3	-40.2	14.4	1.10e-06	0	62	0	2555379712	47	4693
2026-01-30 10:51:25.32	4.96	16.05	-38.3	-40.3	14.4	1.10e-06	0	62	0	2561671168	47	4709
2026-01-30 10:51:26.33	4.82	15.96	-38.3	-40.3	14.3	0.00e+00	0	62	0	2566914048	47	4752
2026-01-30 10:51:27.34	4.68	15.87	-38.4	-40.4	14.2	5.70e-06	0	61	0	2573205504	47	4776
2026-01-30 10:51:28.35	4.55	15.79	-38.5	-40.6	14.0	5.70e-06	0	62	0	2578448384	47	4886
2026-01-30 10:51:29.36	4.41	15.70	-38.4	-40.5	14.0	1.10e-06	0	62	0	2584739840	47	4825
2026-01-30 10:51:30.37	4.27	15.61	-38.5	-40.6	13.8	6.80e-06	0	62	0	2589982720	47	4921
2026-01-30 10:51:31.38	4.14	15.53	-38.5	-40.7	13.7	1.25e-05	0	62	0	2595225600	47	4935
2026-01-30 10:51:32.39	4.00	15.44	-38.3	-40.4	14.0	5.70e-06	0	62	0	2601517056	47	4765
2026-01-30 10:51:33.40	3.87	15.36	-38.4	-40.5	13.9	8.00e-06	0	62	0	2606759936	47	4847
2026-01-30 10:51:34.41	3.73	15.27	-38.5	-40.7	13.6	1.48e-05	0	62	0	2613051392	47	4963
2026-01-30 10:51:35.42	3.60	15.18	-38.4	-40.6	13.7	1.83e-05	0	62	0	2618294272	47	4871
2026-01-30 10:51:36.43	3.47	15.10	-38.3	-40.4	13.9	6.80e-06	0	62	0	2623537152	47	4770
2026-01-30 10:51:37.45	3.34	15.01	-38.5	-40.8	13.4	1.14e-05	0	62	0	2629828608	47	4990
2026-01-30 10:51:38.46	3.21	14.93	-38.6	-40.9	13.2	4.46e-05	0	62	0	2635071488	47	5060
2026-01-30 10:51:39.47	3.08	14.84	-38.4	-40.6	13.3	4.57e-05	0	62	0	2641362944	47	4924
2026-01-30 10:51:40.48	2.95	14.76	-38.3	-40.5	13.4	1.14e-05	0	62	0	2646605824	47	4861
2026-01-30 10:51:41.48	2.82	14.67	-38.4	-40.7	13.2	3.66e-05	0	62	0	2651848704	47	4937
2026-01-30 10:51:42.49	2.70	14.59	-38.3	-40.6	13.2	4.23e-05	0	62	0	2658140160	47	4921
2026-01-30 10:51:43.50	2.57	14.51	-38.4	-40.8	12.9	7.43e-05	0	62	0	2663383040	47	5004
2026-01-30 10:51:44.51	2.44	14.42	-38.5	-40.9	12.8	1.29e-04	0	62	0	2669674496	47	5065
2026-01-30 10:51:45.52	2.32	14.34	-38.4	-40.8	12.8	9.15e-05	0	62	0	2674917376	47	5025
2026-01-30 10:51:46.53	2.19	14.25	-38.4	-40.8	12.8	6.98e-05	0	62	0	2681208832	47	4996
2026-01-30 10:51:47.54	2.07	14.17	-38.2	-40.5	13.0	6.17e-05	0	62	0	2686451712	47	4841
2026-01-30 10:51:48.55	1.95	14.09	-38.0	-40.3	13.1	5.26e-05	0	62	0	2691694592	47	4739
2026-01-30 10:51:49.57	1.82	14.00	-38.0	-40.3	12.8	7.20e-05	0	62	0	2697986048	47	4757
2026-01-30 10:51:50.58	1.70	13.92	-38.1	-40.6	12.5	1.48e-04	0	62	0	2703228928	47	4875
2026-01-30 10:51:51.59	1.58	13.83	-38.3	-40.9	12.0	4.12e-04	0	62	0	2709520384	47	5090
2026-01-30 10:51:52.60	1.46	13.75	-38.5	-41.3	11.4	1.03e-03	0	62	0	2714763264	47	5294
2026-01-30 10:51:53.61	1.34	13.67	-38.9	-42.0	10.7	3.25e-03	0	62	0	2721054720	48	5430
2026-01-30 10:51:54.62	1.22	13.59	-39.2	-42.7	9.8	8.70e-03	0	62	0	2726297600	48	5886
2026-01-30 10:51:55.63	1.11	13.50	-39.6	-43.7	8.6	3.54e-02	0	62	0	2731540480	49	6227
2026-01-30 10:51:56.64	0.99	13.42	-40.0	-44.6	7.5	9.63e-02	0	62	0	2737831936	50	6570
2026-01-30 10:51:57.65	0.87	13.34	-40.2	-45.6	6.4	2.39e-01	0	62	0	2743074816	51	6915
2026-01-30 10:51:58.66	0.76	13.26	-40.3	-46.4	5.7	3.84e-01	0	62	0	2749366272	51	7590
2026-01-30 10:51:59.67	0.64	13.18	-40.4	-46.6	5.5	6.63e-01	0	62	0	2752512000	51	7737
2026-01-30 10:52:00.69	0.52	13.09	-40.4	-46.9	5.2	7.33e-01	0	62	0	2754609152	51	8081
2026-01-30 10:52:01.70	0.41	13.01	-40.4	-47.5	4.8	7.85e-01	0	62	0	2754609152	51	8600
2026-01-30 10:52:02.71	0.30	12.93	-40.8	-48.4	4.6	8.14e-01	0	62	0	2754609152	52	8985
2026-01-30 10:52:03.72	0.18	12.85	-40.0	-51.2	3.8	8.45e-01	0	62	104	2754609152	52	12425
2026-01-30 10:52:04.73	0.07	12.77	-40.3	-50.9	3.8	8.46e-01	0	62	104	2754609152	51	12702
2026-01-30 10:52:05.74	359.96	12.69	-41.2	-51.3	3.8	8.46e-01	0	62	104	2754609152	52	12542
2026-01-30 10:52:06.75	359.85	12.61	-40.8	-50.5	3.8	8.46e-01	0	62	104	2754609152	53	10821
2026-01-30 10:52:07.76	359.74	12.53	-40.6	-51.0	3.8	8.46e-01	0	62	104	2754609152	52	12158
2026-01-30 10:52:08.77	359.63	12.44	-40.6	-51.5	3.8	8.45e-01	0	62	104	2754609152	52	12876
2026-01-30 10:52:09.78	359.52	12.36	-40.2	-51.5	3.8	8.46e-01	0	62	104	2754609152	52	12845
2026-01-30 10:52:10.79	359.41	12.28	-40.6	-51.3	3.8	8.46e-01	0	62	104	2754609152	51	13267
2026-01-30 10:52:11.80	359.31	12.20	-40.0	-51.5	3.8	8.46e-01	0	62	104	2754609152	51	13591
2026-01-30 10:52:12.81	359.20	12.12	-39.9	-51.4	3.8	8.46e-01	0	62	104	2754609152	51	13438
2026-01-30 10:52:13.82	359.09	12.05	-40.1	-51.6	3.8	8.46e-01	0	62	104	2754609152	51	13758
2026-01-30 10:52:14.83	358.99	11.97	-40.5	-51.6	3.8	8.47e-01	0	62	104	2754609152	51	13848
2026-01-30 10:52:15.84	358.88	11.89	-39.9	-51.4	3.8	8.46e-01	0	62	104	2754609152	51	13463
2026-01-30 10:52:16.85	358.78	11.81	-39.9	-51.3	3.8	8.46e-01	0	62	104	2754609152	51	13399
2026-01-30 10:52:17.87	358.67	11.73	-40.0	-51.4	3.8	8.46e-01	0	62	104	2754609152	51	13557
2026-01-30 10:52:18.88	358.57	11.65	-40.3	-51.5	3.8	8.46e-01	0	62	104	2754609152	51	13713
2026-01-30 10:52:19.89	358.46	11.57	-39.9	-51.4	3.8	8.47e-01	0	62	104	2754609152	51	13436
2026-01-30 10:52:20.90	358.36	11.49	-39.9	-51.3	3.8	8.45e-01	0	62	104	2754609152	51	13376
2026-01-30 10:52:21.91	358.26	11.41	-39.8	-51.4	3.8	8.47e-01	0	62	104	2754609152	51	13424
2026-01-30 10:52:22.92	358.16	11.33	-40.2	-51.6	3.8	8.47e-01	0	62	104	2754609152	51	13848
2026-01-30 10:52:23.93	358.06	11.26	-39.9	-51.3	3.8	8.46e-01	0	62	104	2754609152	51	13396
2026-01-30 10:52:24.94	357.96	11.18	-39.8	-51.3	3.8	8.46e-01	0	62	104	2754609152	51	13262
2026-01-30 10:52:25.95	357.86	11.10	-39.9	-51.4	3.8	8.48e-01	0	62	104	2754609152	51	13423
2026-01-30 10:52:26.96	357.76	11.02	-40.1	-51.5	3.8	8.46e-01	0	62	104	2754609152	51	13666
2026-01-30 10:52:27.97	357.66	10.95	-39.9	-51.3	3.8	8.45e-01	0	62	104	2754609152	51	13350
2026-01-30 10:52:28.98	357.56	10.87	-39.8	-51.2	3.8	8.47e-01	0	62	104	2754609152	51	13243
2026-01-30 10:52:29.99	357.46	10.79	-39.9	-51.3	3.8	8.46e-01	0	62	104	2754609152	51	13393
2026-01-30 10:52:31.00	357.37	10.72	-40.0	-51.5	3.8	8.46e-01	0	62	104	2754609152	51	13618
2026-01-30 10:52:32.01	357.27	10.64	-39.8	-51.3	3.8	8.46e-01	0	62	104	2754609152	51	13348
2026-01-30 10:52:33.02	357.18	10.56	-39.8	-51.3	3.8	8.46e-01	0	62	104	2754609152	51	13271
2026-01-30 10:52:34.03	357.08	10.49	-39.8	-51.3	3.8	8.47e-01	0	62	104	2754609152	50	14089
2026-01-30 10:52:35.04	356.98	10.41	-39.9	-51.4	3.8	8.46e-01	0	62	104	2754609152	50	14248
2026-01-30 10:52:36.05	356.89	10.33	-39.8	-51.3	3.8	8.47e-01	0	62	104	2754609152	50	14156
2026-01-30 10:52:37.06	356.80	10.26	-39.8	-51.2	3.8	8.46e-01	0	62	104	2754609152	50	14043
2026-01-30 10:52:38.07	356.70	10.18	-39.8	-51.3	3.8	8.46e-01	0	62	104	2754609152	50	14118
2026-01-30 10:52:39.08	356.61	10.11	-39.9	-51.3	3.8	8.46e-01	0	62	104	2754609152	50	14102
2026-01-30 10:52:40.09	356.52	10.03	-39.8	-51.3	3.8	8.45e-01	0	62	104	2754609152	50	14130
2026-01-30 10:52:41.10	356.43	9.95	-39.8	-51.3	3.8	8.47e-01	0	62	104	2754609152	50	14091
2026-01-30 10:52:42.11	356.34	9.88	-39.8	-51.2	3.8	8.46e-01	0	62	104	2754609152	50	14020
2026-01-30 10:52:43.12	356.24	9.80	-39.8	-51.3	3.8	8.45e-01	0	62	104	2754609152	50	14096
2026-01-30 10:52:44.13	356.15	9.73	-39.8	-51.3	3.8	8.46e-01	0	62	104	2754609152	50	14140
2026-01-30 10:52:45.14	356.06	9.65	-39.9	-51.3	3.8	8.47e-01	0	62	104	2754609152	50	14193
2026-01-30 10:52:46.15	355.97	9.58	-39.8	-51.2	3.8	8.45e-01	0	62	104	2754609152	50	13964
2026-01-30 10:52:47.16	355.89	9.51	-39.8	-51.3	3.8	8.46e-01	0	62	104	2754609152	50	14095
2026-01-30 10:52:48.17	355.80	9.43	-39.9	-51.3	3.8	8.46e-01	0	62	104	2754609152	50	14192
2026-01-30 10:52:49.18	355.71	9.36	-39.9	-51.4	3.8	8.44e-01	0	62	104	2754609152	50	14331
2026-01-30 10:52:50.19	355.62	9.28	-39.8	-51.2	3.8	8.45e-01	0	62	104	2754609152	50	14030
2026-01-30 10:52:51.19	355.54	9.21	-39.9	-51.3	3.8	8.46e-01	0	62	104	2754609152	50	14181
2026-01-30 10:52:52.20	355.45	9.14	-39.9	-51.4	3.8	8.46e-01	0	62	104	2754609152	50	14290
2026-01-30 10:52:53.21	355.36	9.06	-40.0	-51.5	3.8	8.47e-01	0	62	104	2754609152	50	14408
2026-01-30 10:52:54.22	355.28	8.99	-39.8	-51.3	3.8	8.45e-01	0	62	104	2754609152	50	14077
2026-01-30 10:52:55.23	355.19	8.92	-39.9	-51.4	3.8	8.47e-01	0	62	104	2754609152	50	14228
2026-01-30 10:52:56.24	355.11	8.84	-39.9	-51.4	3.8	8.45e-01	0	62	104	2754609152	50	14349
2026-01-30 10:52:57.25	355.02	8.77	-40.3	-51.9	3.8	8.46e-01	0	62	104	2754609152	51	14365
2026-01-30 10:52:58.26	354.94	8.70	-40.1	-51.7	3.8	8.46e-01	0	62	104	2754609152	51	13919
2026-01-30 10:52:59.27	354.85	8.63	-40.2	-51.8	3.8	8.46e-01	0	62	104	2754609152	51	14057
2026-01-30 10:53:00.28	354.77	8.55	-40.1	-51.7	3.8	8.47e-01	0	62	104	2754609152	51	13909
2026-01-30 10:53:01.29	354.69	8.48	-40.2	-51.7	3.8	8.47e-01	0	62	104	2754609152	51	14036
2026-01-30 10:53:02.30	354.61	8.41	-40.1	-51.7	3.8	8.46e-01	0	62	104	2754609152	51	13938
2026-01-30 10:53:03.31	354.52	8.34	-40.2	-51.7	3.8	8.46e-01	0	62	104	2754609152	51	14012
2026-01-30 10:53:04.31	354.44	8.27	-40.1	-51.7	3.8	8.46e-01	0	62	104	2754609152	51	13927
2026-01-30 10:53:05.32	354.36	8.19	-40.2	-51.8	3.8	8.47e-01	0	62	104	2754609152	51	14077
2026-01-30 10:53:06.33	354.28	8.12	-40.2	-51.7	3.8	8.46e-01	0	62	104	2754609152	51	13944
2026-01-30 10:53:07.34	354.20	8.05	-40.3	-51.8	3.8	8.45e-01	0	62	104	2754609152	51	14114
2026-01-30 10:53:08.35	354.12	7.98	-40.1	-51.6	3.8	8.45e-01	0	62	104	2754609152	51	13815
2026-01-30 10:53:09.36	354.04	7.91	-40.5	-52.0	3.8	8.46e-01	0	62	104	2754609152	51	14505
2026-01-30 10:53:10.37	353.96	7.84	-42.9	-54.4	3.8	8.46e-01	0	62	104	2754609152	56	14227
2026-01-30 10:53:11.38	353.89	7.77	-44.2	-55.7	3.8	8.46e-01	0	62	104	2754609152	59	13979
