passes_logs/2026/01/30/R2.0S_Moscow/R2.0S_Moscow__20260130_180241_FENGYUN_3G_rec.log

#Pass ID: 20260130_180241_FENGYUN 3G
#Satellite: FENGYUN 3G
#Configuration: FENGYUN 3G
#almurnet v.1.7.20251203
#Start time: 2026-01-30 18:02:40

#Version: 2.2.20231116
#Station: R2.0S_Moscow
#Location: 37.707566 lon 55.798166 lat
#TLE: 1 56232U 23055A   26027.33093889  .00044881  00000+0  67100-3 0  9994
#TLE: 2 56232  49.9947 352.2708 0004101  93.7831 266.3606 15.54500775158110

#Time	Az	El	Level	Level2	SNR	BER	BlckErr	Temp	State	Recorded	gain1	gain2
2026-01-30 18:02:40.65	260.60	1.98	-43.7	-61.8	3.8	8.47e-01	0	52	0	0	59	28243
2026-01-30 18:02:41.66	260.53	2.04	-43.7	-61.8	3.8	8.44e-01	0	53	104	0	59	28197
2026-01-30 18:02:42.68	260.45	2.11	-43.7	-61.8	3.8	8.45e-01	0	53	104	0	59	28228
2026-01-30 18:02:43.68	260.38	2.17	-43.7	-61.8	3.8	8.46e-01	0	53	104	0	59	28249
2026-01-30 18:02:44.70	260.31	2.24	-43.7	-61.8	3.8	8.46e-01	0	53	104	0	59	28251
2026-01-30 18:02:45.71	260.24	2.31	-43.7	-61.8	3.8	8.47e-01	0	53	104	0	59	28334
2026-01-30 18:02:46.72	260.16	2.37	-43.7	-61.8	3.8	8.47e-01	0	53	104	0	59	28262
2026-01-30 18:02:47.73	260.09	2.44	-43.6	-61.8	3.8	8.47e-01	0	53	104	0	59	28204
2026-01-30 18:02:48.74	260.01	2.50	-43.7	-61.8	3.8	8.47e-01	0	53	104	0	59	28176
2026-01-30 18:02:49.75	259.94	2.57	-43.6	-61.8	3.8	8.46e-01	0	53	104	0	59	28209
2026-01-30 18:02:50.76	259.86	2.64	-43.6	-61.8	3.8	8.46e-01	0	53	104	0	59	28157
2026-01-30 18:02:51.77	259.79	2.71	-43.6	-61.8	3.8	8.47e-01	0	53	104	0	59	28168
2026-01-30 18:02:52.78	259.71	2.77	-43.6	-61.8	3.8	8.46e-01	0	53	104	0	59	28138
2026-01-30 18:02:53.79	259.63	2.84	-43.6	-61.8	3.8	8.46e-01	0	53	104	0	59	28218
2026-01-30 18:02:54.80	259.55	2.91	-43.6	-61.8	3.8	8.46e-01	0	53	104	0	59	28143
2026-01-30 18:02:55.81	259.48	2.97	-43.6	-61.8	3.8	8.47e-01	0	54	104	0	59	28159
2026-01-30 18:02:56.82	259.40	3.04	-43.6	-61.8	3.8	8.45e-01	0	53	104	0	59	28190
2026-01-30 18:02:57.83	259.32	3.11	-43.6	-61.8	3.8	8.45e-01	0	54	104	0	59	28179
2026-01-30 18:02:58.83	259.24	3.18	-43.6	-61.8	3.8	8.47e-01	0	54	104	0	59	28175
2026-01-30 18:02:59.85	259.16	3.25	-43.6	-61.8	3.8	8.46e-01	0	54	104	0	59	28151
2026-01-30 18:03:00.86	259.08	3.32	-43.6	-61.8	3.8	8.46e-01	0	54	104	0	59	28207
2026-01-30 18:03:01.87	258.99	3.39	-43.6	-61.8	3.8	8.45e-01	0	54	104	0	59	28100
2026-01-30 18:03:02.88	258.91	3.46	-43.6	-61.8	3.8	8.47e-01	0	54	104	0	59	28076
2026-01-30 18:03:03.89	258.83	3.52	-43.6	-61.8	3.8	8.47e-01	0	54	104	0	59	28158
2026-01-30 18:03:04.90	258.75	3.59	-43.6	-61.8	3.8	8.47e-01	0	54	104	0	59	28077
2026-01-30 18:03:05.91	258.66	3.66	-43.6	-61.8	3.8	8.46e-01	0	54	104	0	59	28071
2026-01-30 18:03:06.92	258.58	3.73	-43.6	-61.8	3.8	8.46e-01	0	54	104	0	59	28227
2026-01-30 18:03:07.93	258.49	3.81	-43.6	-61.8	3.8	8.46e-01	0	54	104	0	59	28050
2026-01-30 18:03:08.94	258.41	3.88	-43.6	-61.8	3.8	8.46e-01	0	55	104	0	59	28120
2026-01-30 18:03:09.95	258.32	3.95	-43.6	-61.8	3.8	8.45e-01	0	54	104	0	59	28113
2026-01-30 18:03:10.96	258.23	4.02	-43.6	-61.8	3.8	8.45e-01	0	54	104	0	59	28178
2026-01-30 18:03:11.97	258.15	4.09	-43.6	-61.8	3.8	8.46e-01	0	55	104	0	59	28154
2026-01-30 18:03:12.98	258.06	4.16	-43.6	-61.8	3.8	8.46e-01	0	55	104	0	59	28096
2026-01-30 18:03:13.99	257.97	4.23	-43.6	-61.8	3.8	8.46e-01	0	55	104	0	59	28159
2026-01-30 18:03:15.00	257.88	4.30	-43.6	-61.8	3.8	8.46e-01	0	55	104	0	59	28145
2026-01-30 18:03:16.01	257.79	4.38	-43.6	-61.8	3.8	8.46e-01	0	55	104	0	59	28096
2026-01-30 18:03:17.02	257.70	4.45	-43.6	-61.8	3.8	8.46e-01	0	55	104	0	59	28115
2026-01-30 18:03:18.03	257.61	4.52	-43.6	-61.8	3.8	8.46e-01	0	55	104	0	59	28072
2026-01-30 18:03:19.04	257.52	4.60	-43.6	-61.8	3.8	8.46e-01	0	55	104	0	59	28100
2026-01-30 18:03:20.05	257.42	4.67	-43.6	-61.8	3.8	8.46e-01	0	55	104	0	59	28081
2026-01-30 18:03:21.06	257.33	4.74	-43.6	-61.8	3.8	8.46e-01	0	55	104	0	59	28111
2026-01-30 18:03:22.07	257.23	4.82	-43.6	-61.8	3.8	8.46e-01	0	55	104	0	59	28148
2026-01-30 18:03:23.08	257.14	4.89	-43.6	-61.8	3.8	8.46e-01	0	55	104	0	59	28118
2026-01-30 18:03:24.09	257.04	4.96	-43.6	-61.8	3.8	8.46e-01	0	55	104	0	59	28093
2026-01-30 18:03:25.10	256.95	5.04	-43.6	-61.8	3.8	8.46e-01	0	55	104	0	59	28073
2026-01-30 18:03:26.11	256.85	5.11	-43.6	-61.8	3.8	8.47e-01	0	55	104	0	59	28072
2026-01-30 18:03:27.12	256.75	5.19	-43.6	-61.8	3.8	8.47e-01	0	55	104	0	59	28160
2026-01-30 18:03:28.13	256.65	5.26	-43.6	-61.8	3.8	8.46e-01	0	55	104	0	59	28111
2026-01-30 18:03:29.14	256.56	5.34	-43.6	-61.8	3.8	8.46e-01	0	56	104	0	59	28102
2026-01-30 18:03:30.15	256.46	5.42	-43.6	-61.8	3.8	8.46e-01	0	56	104	0	59	28115
2026-01-30 18:03:31.17	256.35	5.49	-43.6	-61.8	3.8	8.46e-01	0	56	104	0	59	28090
2026-01-30 18:03:32.18	256.25	5.57	-43.6	-61.8	3.8	8.47e-01	0	56	104	0	59	28130
2026-01-30 18:03:33.19	256.15	5.65	-43.6	-61.8	3.8	8.46e-01	0	56	104	0	59	28101
2026-01-30 18:03:34.20	256.05	5.72	-43.6	-61.8	3.8	8.46e-01	0	56	104	0	59	28099
2026-01-30 18:03:35.21	255.94	5.80	-43.6	-61.8	3.8	8.45e-01	0	56	104	0	59	28127
2026-01-30 18:03:36.22	255.84	5.88	-43.6	-61.8	3.8	8.47e-01	0	56	104	0	59	28113
2026-01-30 18:03:37.23	255.73	5.96	-43.6	-61.8	3.8	8.47e-01	0	56	104	0	59	28157
2026-01-30 18:03:38.24	255.63	6.03	-43.6	-61.8	3.8	8.47e-01	0	56	104	0	59	28109
2026-01-30 18:03:39.25	255.52	6.11	-43.6	-61.8	3.8	8.46e-01	0	56	104	0	59	28111
2026-01-30 18:03:40.26	255.41	6.19	-43.6	-61.8	3.8	8.46e-01	0	56	104	0	59	28052
2026-01-30 18:03:41.27	255.30	6.27	-43.6	-61.8	3.8	8.45e-01	0	56	104	0	59	28093
2026-01-30 18:03:42.28	255.19	6.35	-43.6	-61.8	3.8	8.46e-01	0	56	104	0	59	28064
2026-01-30 18:03:43.29	255.08	6.43	-43.6	-61.8	3.8	8.46e-01	0	56	104	0	59	28052
2026-01-30 18:03:44.30	254.97	6.51	-43.6	-61.8	3.8	8.46e-01	0	56	104	0	59	28110
2026-01-30 18:03:45.31	254.86	6.59	-43.6	-61.8	3.8	8.46e-01	0	56	104	0	59	28039
2026-01-30 18:03:46.32	254.75	6.67	-43.6	-61.8	3.8	8.47e-01	0	57	104	0	59	28139
2026-01-30 18:03:47.33	254.63	6.75	-43.6	-61.8	3.8	8.47e-01	0	56	104	0	59	28099
2026-01-30 18:03:48.34	254.52	6.83	-43.6	-61.8	3.8	8.46e-01	0	56	104	0	59	28098
2026-01-30 18:03:49.35	254.40	6.91	-43.6	-61.8	3.8	8.46e-01	0	56	104	0	59	28236
2026-01-30 18:03:50.36	254.28	7.00	-43.6	-61.8	3.8	8.46e-01	0	56	104	0	59	28114
2026-01-30 18:03:51.37	254.17	7.08	-43.6	-61.8	3.8	8.46e-01	0	56	104	0	59	28168
2026-01-30 18:03:52.38	254.05	7.16	-43.6	-61.8	3.8	8.46e-01	0	57	104	0	59	28079
2026-01-30 18:03:53.39	253.93	7.24	-43.6	-61.8	3.8	8.46e-01	0	57	104	0	59	28144
2026-01-30 18:03:54.40	253.81	7.33	-43.6	-61.8	3.8	8.47e-01	0	57	104	0	59	28126
2026-01-30 18:03:55.42	253.68	7.41	-43.6	-61.8	3.8	8.45e-01	0	57	104	0	59	28158
2026-01-30 18:03:56.42	253.56	7.49	-43.6	-61.8	3.8	8.46e-01	0	57	104	0	59	28049
2026-01-30 18:03:57.44	253.44	7.58	-43.6	-61.8	3.8	8.46e-01	0	57	104	0	59	28093
2026-01-30 18:03:58.45	253.31	7.66	-43.6	-61.8	3.8	8.46e-01	0	57	104	0	59	28064
2026-01-30 18:03:59.46	253.19	7.75	-43.6	-61.8	3.8	8.46e-01	0	57	104	0	59	28085
2026-01-30 18:04:00.47	253.06	7.83	-43.6	-61.8	3.8	8.46e-01	0	57	104	0	59	28171
2026-01-30 18:04:01.48	252.93	7.92	-43.6	-61.8	3.8	8.48e-01	0	57	104	0	59	28098
2026-01-30 18:04:02.49	252.80	8.00	-43.6	-61.7	3.8	8.47e-01	0	57	104	0	59	28026
2026-01-30 18:04:03.50	252.67	8.09	-43.6	-61.8	3.8	8.47e-01	0	57	104	0	59	28154
2026-01-30 18:04:04.51	252.54	8.18	-43.7	-61.9	3.8	8.46e-01	0	57	104	0	59	28481
2026-01-30 18:04:05.52	252.41	8.26	-43.7	-61.9	3.8	8.46e-01	0	57	104	0	59	28471
2026-01-30 18:04:06.53	252.28	8.35	-43.7	-61.8	3.8	8.46e-01	0	57	104	0	59	28322
2026-01-30 18:04:07.54	252.14	8.44	-43.7	-61.9	3.8	8.45e-01	0	57	104	0	59	28400
2026-01-30 18:04:08.55	252.01	8.52	-43.7	-61.9	3.8	8.46e-01	0	57	104	0	59	28429
2026-01-30 18:04:09.56	251.87	8.61	-43.7	-61.9	3.8	8.46e-01	0	57	104	0	59	28415
2026-01-30 18:04:10.57	251.73	8.70	-43.7	-61.9	3.8	8.46e-01	0	57	104	0	59	28395
2026-01-30 18:04:11.58	251.60	8.79	-43.8	-61.9	3.8	8.46e-01	0	57	104	0	59	28473
2026-01-30 18:04:12.59	251.46	8.88	-43.8	-61.9	3.8	8.45e-01	0	57	104	0	59	28582
2026-01-30 18:04:13.60	251.31	8.97	-43.8	-61.9	3.8	8.45e-01	0	58	104	0	59	28642
2026-01-30 18:04:14.61	251.17	9.06	-43.8	-61.9	3.8	8.46e-01	0	58	104	0	59	28544
2026-01-30 18:04:15.62	251.03	9.15	-43.8	-61.9	3.8	8.46e-01	0	57	104	0	59	28573
2026-01-30 18:04:16.63	250.88	9.24	-43.8	-62.0	3.8	8.46e-01	0	58	104	0	59	28729
2026-01-30 18:04:17.64	250.74	9.33	-43.8	-61.9	3.8	8.46e-01	0	58	104	0	59	28644
2026-01-30 18:04:18.65	250.59	9.42	-43.8	-62.0	3.8	8.47e-01	0	58	104	0	59	28771
2026-01-30 18:04:19.66	250.44	9.51	-43.8	-62.0	3.8	8.47e-01	0	58	104	0	59	28692
2026-01-30 18:04:20.67	250.29	9.61	-43.9	-62.0	3.8	8.46e-01	0	58	104	0	59	28969
2026-01-30 18:04:21.68	250.14	9.70	-43.8	-62.0	3.8	8.45e-01	0	58	104	0	59	28786
2026-01-30 18:04:22.69	249.99	9.79	-43.9	-62.0	3.8	8.46e-01	0	58	104	0	59	28878
2026-01-30 18:04:23.71	249.83	9.88	-43.9	-62.0	3.8	8.46e-01	0	58	104	0	59	28834
2026-01-30 18:04:24.71	249.68	9.98	-43.9	-62.1	3.8	8.47e-01	0	58	104	0	59	29138
2026-01-30 18:04:25.73	249.52	10.07	-43.9	-62.0	3.8	8.46e-01	0	58	104	0	59	28906
2026-01-30 18:04:26.74	249.36	10.17	-44.0	-62.1	3.8	8.46e-01	0	57	104	0	59	29116
2026-01-30 18:04:27.75	249.20	10.26	-43.9	-62.0	3.8	8.46e-01	0	58	104	0	59	28945
2026-01-30 18:04:28.76	249.04	10.36	-44.0	-62.1	3.8	8.45e-01	0	58	104	0	59	29279
2026-01-30 18:04:29.77	248.88	10.45	-43.9	-62.0	3.8	8.45e-01	0	58	104	0	59	28986
2026-01-30 18:04:30.78	248.71	10.55	-44.0	-62.1	3.8	8.47e-01	0	58	104	0	59	29204
2026-01-30 18:04:31.78	248.55	10.64	-43.9	-62.1	3.8	8.46e-01	0	58	104	0	59	29146
2026-01-30 18:04:32.79	248.38	10.74	-44.1	-62.2	3.8	8.46e-01	0	58	104	0	59	29498
2026-01-30 18:04:33.80	248.22	10.84	-44.0	-62.1	3.8	8.46e-01	0	58	104	0	59	29147
2026-01-30 18:04:34.81	248.05	10.93	-44.0	-62.1	3.8	8.47e-01	0	58	104	0	59	29311
2026-01-30 18:04:35.82	247.87	11.03	-44.0	-62.1	3.8	8.46e-01	0	58	104	0	59	29251
2026-01-30 18:04:36.83	247.70	11.13	-44.1	-62.2	3.8	8.46e-01	0	58	104	0	59	29609
2026-01-30 18:04:37.84	247.53	11.23	-44.0	-62.1	3.8	8.46e-01	0	58	104	0	59	29178
2026-01-30 18:04:38.85	247.35	11.33	-44.1	-62.2	3.8	8.46e-01	0	58	104	0	59	29490
2026-01-30 18:04:39.86	247.17	11.43	-44.0	-62.2	3.8	8.46e-01	0	58	104	0	59	29348
2026-01-30 18:04:40.87	246.99	11.53	-44.2	-62.3	3.8	8.46e-01	0	58	104	0	59	29857
2026-01-30 18:04:41.88	246.81	11.63	-44.0	-62.1	3.8	8.46e-01	0	58	104	0	59	29321
2026-01-30 18:04:42.89	246.63	11.73	-44.1	-62.3	3.8	8.46e-01	0	58	104	0	59	29730
2026-01-30 18:04:43.90	246.45	11.83	-44.1	-62.2	3.8	8.46e-01	0	58	104	0	59	29507
2026-01-30 18:04:44.91	246.26	11.93	-44.2	-62.3	3.8	8.46e-01	0	58	104	0	59	29893
2026-01-30 18:04:45.92	246.07	12.03	-44.1	-62.2	3.8	8.46e-01	0	58	104	0	59	29469
2026-01-30 18:04:46.93	245.88	12.13	-44.2	-62.3	3.8	8.47e-01	0	59	104	0	59	29788
2026-01-30 18:04:47.93	245.69	12.24	-44.1	-62.2	3.8	8.45e-01	0	58	104	0	59	29643
2026-01-30 18:04:48.94	245.50	12.34	-44.2	-62.3	3.8	8.46e-01	0	58	104	0	59	29927
2026-01-30 18:04:49.95	245.30	12.44	-44.1	-62.2	3.8	8.46e-01	0	58	104	0	59	29579
2026-01-30 18:04:50.96	245.11	12.55	-44.2	-62.3	3.8	8.46e-01	0	58	104	0	59	29903
2026-01-30 18:04:51.97	244.91	12.65	-44.2	-62.3	3.8	8.46e-01	0	58	104	0	59	29824
2026-01-30 18:04:52.98	244.71	12.75	-44.3	-62.4	3.8	8.46e-01	0	59	104	0	59	30153
2026-01-30 18:04:53.99	244.51	12.86	-44.1	-62.2	3.8	8.45e-01	0	59	104	0	59	29616
2026-01-30 18:04:55.00	244.30	12.96	-44.2	-62.4	3.8	8.46e-01	0	59	104	0	59	30065
2026-01-30 18:04:56.01	244.10	13.07	-44.2	-62.3	3.8	8.46e-01	0	59	104	0	59	29915
2026-01-30 18:04:57.02	243.89	13.18	-44.3	-62.4	3.8	8.46e-01	0	58	104	0	59	30263
2026-01-30 18:04:58.03	243.68	13.28	-44.2	-62.3	3.8	8.46e-01	0	59	104	0	59	29912
2026-01-30 18:04:59.04	243.47	13.39	-44.3	-62.4	3.8	8.46e-01	0	59	104	0	59	30216
2026-01-30 18:05:00.05	243.25	13.50	-44.2	-62.3	3.8	8.46e-01	0	59	104	0	59	30002
2026-01-30 18:05:01.06	243.04	13.60	-44.3	-62.5	3.8	8.47e-01	0	59	104	0	59	30417
2026-01-30 18:05:02.07	242.82	13.71	-44.2	-62.3	3.8	8.46e-01	0	59	104	0	59	29919
2026-01-30 18:05:03.08	242.60	13.82	-44.3	-62.4	3.8	8.46e-01	0	59	104	0	59	30327
2026-01-30 18:05:04.09	242.37	13.93	-44.3	-62.4	3.8	8.47e-01	0	59	104	0	59	30159
2026-01-30 18:05:05.10	242.15	14.04	-44.4	-62.5	3.8	8.46e-01	0	59	104	0	59	30552
2026-01-30 18:05:06.11	241.92	14.15	-44.2	-62.4	3.8	8.46e-01	0	59	104	0	59	30122
2026-01-30 18:05:07.12	241.69	14.26	-44.4	-62.5	3.8	8.46e-01	0	59	104	0	59	30542
2026-01-30 18:05:08.13	241.46	14.37	-44.3	-62.4	3.8	8.46e-01	0	59	104	0	59	30295
2026-01-30 18:05:09.14	241.23	14.48	-44.4	-62.5	3.8	8.46e-01	0	59	104	0	59	30569
2026-01-30 18:05:10.15	240.99	14.59	-44.3	-62.4	3.8	8.46e-01	0	59	104	0	59	30274
2026-01-30 18:05:11.16	240.76	14.70	-44.4	-62.5	3.8	8.46e-01	0	59	104	0	59	30580
2026-01-30 18:05:12.17	240.52	14.81	-44.3	-62.5	3.8	8.45e-01	0	59	104	0	59	30401
2026-01-30 18:05:13.18	240.27	14.92	-44.4	-62.6	3.8	8.45e-01	0	59	104	0	59	30808
2026-01-30 18:05:14.19	240.03	15.03	-44.3	-62.5	3.8	8.46e-01	0	59	104	0	59	30397
2026-01-30 18:05:15.20	239.78	15.15	-44.4	-62.5	3.8	8.47e-01	0	59	104	0	59	30633
2026-01-30 18:05:16.21	239.53	15.26	-44.4	-62.5	3.8	8.47e-01	0	59	104	0	59	30541
2026-01-30 18:05:17.22	239.28	15.37	-44.5	-62.6	3.8	8.46e-01	0	59	104	0	59	30850
2026-01-30 18:05:18.23	239.03	15.49	-44.4	-62.5	3.8	8.45e-01	0	59	104	0	59	30571
2026-01-30 18:05:19.24	238.77	15.60	-44.4	-62.6	3.8	8.45e-01	0	59	104	0	59	30766
2026-01-30 18:05:20.25	238.51	15.71	-44.4	-62.5	3.8	8.45e-01	0	59	104	0	59	30661
2026-01-30 18:05:21.26	238.25	15.83	-44.5	-62.6	3.8	8.46e-01	0	59	104	0	59	30961
2026-01-30 18:05:22.27	237.98	15.94	-44.4	-62.5	3.8	8.46e-01	0	59	104	0	59	30674
2026-01-30 18:05:23.28	237.71	16.06	-44.5	-62.6	3.8	8.46e-01	0	59	104	0	59	30938
2026-01-30 18:05:24.29	237.44	16.17	-44.4	-62.6	3.8	8.47e-01	0	59	104	0	59	30734
2026-01-30 18:05:25.30	237.17	16.29	-44.5	-62.6	3.8	8.46e-01	0	60	104	0	59	30992
2026-01-30 18:05:26.31	236.90	16.40	-44.4	-62.5	3.8	8.46e-01	0	59	104	0	59	30696
2026-01-30 18:05:27.33	236.62	16.52	-44.5	-62.6	3.8	8.46e-01	0	59	104	0	59	30997
2026-01-30 18:05:28.33	236.34	16.63	-44.4	-62.6	3.8	8.46e-01	0	59	104	0	59	30844
2026-01-30 18:05:29.35	236.05	16.75	-44.5	-62.7	3.8	8.46e-01	0	59	104	0	59	31167
2026-01-30 18:05:30.36	235.77	16.87	-44.5	-62.6	3.8	8.46e-01	0	59	104	0	59	30872
2026-01-30 18:05:31.37	235.48	16.99	-44.5	-62.6	3.8	8.47e-01	0	59	104	0	59	31050
2026-01-30 18:05:32.38	235.18	17.10	-44.4	-62.6	3.8	8.47e-01	0	60	104	0	59	31060
2026-01-30 18:05:33.39	234.89	17.22	-44.5	-62.7	3.8	8.47e-01	0	59	104	0	59	31136
2026-01-30 18:05:34.40	234.59	17.34	-44.4	-62.6	3.8	8.46e-01	0	60	104	0	59	30959
2026-01-30 18:05:35.41	234.29	17.45	-44.5	-62.7	3.8	8.46e-01	0	60	104	0	59	31176
2026-01-30 18:05:36.42	233.99	17.57	-44.5	-62.7	3.8	8.46e-01	0	59	104	0	59	31185
2026-01-30 18:05:37.43	233.68	17.69	-44.5	-62.7	3.8	8.47e-01	0	60	104	0	59	31283
2026-01-30 18:05:38.44	233.37	17.81	-44.5	-62.7	3.8	8.47e-01	0	59	104	0	59	31118
2026-01-30 18:05:39.45	233.06	17.92	-44.6	-62.7	3.8	8.47e-01	0	60	104	0	59	31272
2026-01-30 18:05:40.46	232.74	18.04	-44.6	-62.7	3.8	8.46e-01	0	59	104	0	59	31208
2026-01-30 18:05:41.47	232.43	18.16	-44.6	-62.7	3.8	8.47e-01	0	60	104	0	59	31399
2026-01-30 18:05:42.48	232.10	18.28	-44.6	-62.7	3.8	8.47e-01	0	59	104	0	59	31418
2026-01-30 18:05:43.49	231.78	18.39	-44.6	-62.8	3.8	8.46e-01	0	60	104	0	59	31451
2026-01-30 18:05:44.50	231.45	18.51	-44.6	-62.7	3.8	8.46e-01	0	60	104	0	59	31436
2026-01-30 18:05:45.51	231.12	18.63	-44.6	-62.8	3.8	8.46e-01	0	60	104	0	59	31500
2026-01-30 18:05:46.52	230.79	18.75	-44.6	-62.8	3.8	8.46e-01	0	59	104	0	59	31464
2026-01-30 18:05:47.53	230.45	18.86	-44.6	-62.8	3.8	8.47e-01	0	60	104	0	59	31585
2026-01-30 18:05:48.54	230.11	18.98	-44.7	-62.8	3.8	8.47e-01	0	60	104	0	59	31693
2026-01-30 18:05:49.55	229.77	19.10	-44.7	-62.8	3.8	8.46e-01	0	60	104	0	59	31539
2026-01-30 18:05:50.56	229.42	19.22	-44.6	-62.8	3.8	8.44e-01	0	60	104	0	59	31566
2026-01-30 18:05:51.57	229.07	19.33	-44.6	-62.8	3.8	8.46e-01	0	60	104	0	59	31560
2026-01-30 18:05:52.58	228.72	19.45	-44.7	-62.8	3.8	8.46e-01	0	60	104	0	59	31725
2026-01-30 18:05:53.59	228.36	19.57	-44.7	-62.8	3.8	8.46e-01	0	60	104	0	59	31732
2026-01-30 18:05:54.60	228.00	19.68	-44.7	-62.8	3.8	8.46e-01	0	60	104	0	59	31663
2026-01-30 18:05:55.61	227.63	19.80	-44.7	-62.8	3.8	8.46e-01	0	60	104	0	59	31694
2026-01-30 18:05:56.62	227.27	19.92	-44.7	-62.8	3.8	8.47e-01	0	60	104	0	59	31725
2026-01-30 18:05:57.63	226.90	20.03	-44.7	-62.8	3.8	8.46e-01	0	60	104	0	59	31777
2026-01-30 18:05:58.64	226.52	20.15	-44.7	-62.8	3.8	8.46e-01	0	60	104	0	59	31758
2026-01-30 18:05:59.65	226.15	20.26	-44.7	-62.8	3.8	8.46e-01	0	60	104	0	59	31810
2026-01-30 18:06:00.66	225.77	20.38	-44.7	-62.9	3.8	8.46e-01	0	60	104	0	59	31860
2026-01-30 18:06:01.67	225.38	20.49	-44.7	-62.9	3.8	8.46e-01	0	60	104	0	59	31828
2026-01-30 18:06:02.68	224.99	20.60	-44.7	-62.9	3.8	8.46e-01	0	60	104	0	59	31904
2026-01-30 18:06:03.69	224.60	20.72	-44.6	-62.8	3.8	8.47e-01	0	60	104	0	60	30027
2026-01-30 18:06:04.70	224.21	20.83	-44.6	-62.9	3.8	8.46e-01	0	60	104	0	60	30161
2026-01-30 18:06:05.71	223.81	20.94	-44.6	-62.9	3.8	8.46e-01	0	60	104	0	60	30085
2026-01-30 18:06:06.72	223.41	21.05	-44.6	-62.9	3.8	8.47e-01	0	60	104	0	60	30199
2026-01-30 18:06:07.73	223.00	21.17	-44.6	-62.9	3.8	8.47e-01	0	60	104	0	60	30161
2026-01-30 18:06:08.74	222.59	21.28	-44.7	-62.9	3.8	8.47e-01	0	60	104	0	60	30260
2026-01-30 18:06:09.75	222.18	21.39	-44.7	-62.9	3.8	8.46e-01	0	60	104	0	60	30151
2026-01-30 18:06:10.76	221.77	21.49	-44.7	-62.9	3.8	8.45e-01	0	60	104	0	60	30218
2026-01-30 18:06:11.77	221.35	21.60	-44.7	-62.9	3.8	8.45e-01	0	60	104	0	60	30324
2026-01-30 18:06:12.78	220.93	21.71	-44.7	-62.9	3.8	8.47e-01	0	60	104	0	60	30344
2026-01-30 18:06:13.79	220.50	21.82	-44.7	-62.9	3.8	8.46e-01	0	60	104	0	60	30300
2026-01-30 18:06:14.80	220.07	21.92	-44.7	-62.9	3.8	8.46e-01	0	60	104	0	60	30370
2026-01-30 18:06:15.81	219.64	22.03	-44.7	-63.0	3.8	8.47e-01	0	60	104	0	60	30390
2026-01-30 18:06:16.82	219.20	22.13	-44.7	-63.0	3.8	8.46e-01	0	60	104	0	60	30430
2026-01-30 18:06:17.83	218.76	22.24	-44.7	-62.9	3.8	8.47e-01	0	60	104	0	60	30308
2026-01-30 18:06:18.84	218.32	22.34	-44.7	-62.9	3.8	8.47e-01	0	60	104	0	60	30282
2026-01-30 18:06:19.85	217.87	22.44	-44.7	-63.0	3.8	8.47e-01	0	60	104	0	60	30424
2026-01-30 18:06:20.86	217.42	22.54	-44.7	-63.0	3.8	8.47e-01	0	60	104	0	60	30478
2026-01-30 18:06:21.87	216.96	22.64	-44.7	-62.9	3.8	8.47e-01	0	60	104	0	60	30330
2026-01-30 18:06:22.88	216.51	22.73	-44.7	-62.9	3.8	8.46e-01	0	60	104	0	60	30371
2026-01-30 18:06:23.89	216.05	22.83	-44.7	-63.0	3.8	8.47e-01	0	60	104	0	60	30396
2026-01-30 18:06:24.90	215.58	22.93	-44.7	-63.0	3.8	8.47e-01	0	60	104	0	60	30504
2026-01-30 18:06:25.91	215.12	23.02	-44.7	-63.0	3.8	8.46e-01	0	60	104	0	60	30395
2026-01-30 18:06:26.92	214.64	23.11	-44.7	-63.0	3.8	8.46e-01	0	60	104	0	60	30424
2026-01-30 18:06:27.93	214.17	23.20	-44.7	-62.9	3.8	8.46e-01	0	61	104	0	60	30305
2026-01-30 18:06:28.94	213.69	23.29	-44.7	-63.0	3.8	8.46e-01	0	60	104	0	60	30580
2026-01-30 18:06:29.95	213.21	23.38	-44.7	-63.0	3.8	8.47e-01	0	60	104	0	60	30426
2026-01-30 18:06:30.96	212.73	23.47	-44.7	-63.0	3.8	8.46e-01	0	61	104	0	60	30455
2026-01-30 18:06:31.97	212.24	23.55	-44.7	-63.0	3.8	8.46e-01	0	60	104	0	60	30509
2026-01-30 18:06:32.98	211.75	23.64	-44.7	-63.0	3.8	8.45e-01	0	60	104	0	60	30495
2026-01-30 18:06:33.99	211.26	23.72	-44.7	-63.0	3.8	8.46e-01	0	61	104	0	60	30470
2026-01-30 18:06:35.00	210.76	23.80	-44.7	-63.0	3.8	8.46e-01	0	61	104	0	60	30499
2026-01-30 18:06:36.01	210.26	23.88	-44.7	-63.0	3.8	8.46e-01	0	60	104	0	60	30437
2026-01-30 18:06:37.02	209.76	23.96	-44.7	-63.0	3.8	8.46e-01	0	60	104	0	60	30496
2026-01-30 18:06:38.03	209.26	24.03	-44.7	-63.0	3.8	8.46e-01	0	60	104	0	60	30481
2026-01-30 18:06:39.04	208.75	24.10	-44.7	-63.0	3.8	8.45e-01	0	60	104	0	60	30526
2026-01-30 18:06:40.05	208.24	24.18	-44.7	-63.0	3.8	8.47e-01	0	60	104	0	60	30550
2026-01-30 18:06:41.06	207.73	24.25	-44.7	-63.0	3.8	8.47e-01	0	60	104	0	60	30532
2026-01-30 18:06:42.07	207.21	24.31	-44.7	-63.0	3.8	8.47e-01	0	61	104	0	60	30503
2026-01-30 18:06:43.08	206.69	24.38	-44.8	-63.0	3.8	8.47e-01	0	60	104	0	60	30594
2026-01-30 18:06:44.09	206.17	24.44	-44.7	-63.0	3.8	8.46e-01	0	61	104	0	60	30597
2026-01-30 18:06:45.10	205.65	24.50	-44.7	-63.0	3.8	8.46e-01	0	60	104	0	60	30528
2026-01-30 18:06:46.11	205.12	24.56	-44.7	-63.0	3.8	8.46e-01	0	61	104	0	60	30503
2026-01-30 18:06:47.12	204.60	24.62	-44.7	-63.0	3.8	8.46e-01	0	60	104	0	60	30453
2026-01-30 18:06:48.13	204.07	24.68	-44.8	-63.0	3.8	8.46e-01	0	60	104	0	60	30381
2026-01-30 18:06:49.14	203.53	24.73	-44.7	-63.0	3.8	8.46e-01	0	60	104	0	60	30571
2026-01-30 18:06:50.15	203.00	24.78	-44.7	-63.0	3.8	8.46e-01	0	61	104	0	60	30539
2026-01-30 18:06:51.16	202.46	24.83	-44.7	-63.0	3.8	8.46e-01	0	61	104	0	60	30504
2026-01-30 18:06:52.17	201.93	24.88	-44.7	-63.0	3.8	8.46e-01	0	61	104	0	60	30484
2026-01-30 18:06:53.18	201.39	24.92	-44.7	-63.0	3.8	8.46e-01	0	61	104	0	60	30611
2026-01-30 18:06:54.19	200.84	24.96	-44.8	-63.0	3.8	8.45e-01	0	61	104	0	60	30482
2026-01-30 18:06:55.20	200.30	25.00	-44.7	-63.0	3.8	8.45e-01	0	60	104	0	60	30467
2026-01-30 18:06:56.21	199.76	25.04	-44.7	-63.0	3.8	8.46e-01	0	60	104	0	60	30481
2026-01-30 18:06:57.22	199.21	25.07	-44.7	-63.0	3.8	8.46e-01	0	60	104	0	60	30477
2026-01-30 18:06:58.23	198.66	25.10	-44.7	-63.0	3.8	8.46e-01	0	60	104	0	60	30495
2026-01-30 18:06:59.24	198.11	25.13	-44.7	-63.0	3.8	8.46e-01	0	61	104	0	60	30475
2026-01-30 18:07:00.25	197.56	25.16	-44.7	-63.0	3.8	8.46e-01	0	61	104	0	60	30429
2026-01-30 18:07:01.26	197.01	25.19	-44.7	-63.0	3.8	8.46e-01	0	61	104	0	60	30469
2026-01-30 18:07:02.27	196.46	25.21	-44.7	-63.0	3.8	8.46e-01	0	60	104	0	60	30389
2026-01-30 18:07:03.28	195.91	25.23	-44.7	-63.0	3.8	8.47e-01	0	61	104	0	60	30440
2026-01-30 18:07:04.29	195.35	25.24	-44.7	-63.0	3.8	8.47e-01	0	61	104	0	60	30500
2026-01-30 18:07:05.30	194.80	25.26	-44.7	-63.0	3.8	8.45e-01	0	61	104	0	60	30426
2026-01-30 18:07:06.31	194.25	25.27	-44.8	-63.0	3.8	8.46e-01	0	61	104	0	60	30457
2026-01-30 18:07:07.32	193.69	25.28	-44.8	-63.0	3.8	8.46e-01	0	61	104	0	60	30468
2026-01-30 18:07:08.33	193.14	25.29	-44.7	-63.0	3.8	8.46e-01	0	61	104	0	60	30449
2026-01-30 18:07:09.34	192.58	25.29	-44.7	-63.0	3.8	8.45e-01	0	61	104	0	60	30479
2026-01-30 18:07:10.34	192.03	25.29	-44.7	-63.0	3.8	8.47e-01	0	61	104	0	60	30481
2026-01-30 18:07:11.35	191.47	25.29	-44.7	-63.0	3.8	8.47e-01	0	61	104	0	60	30462
2026-01-30 18:07:12.36	190.92	25.29	-44.7	-62.9	3.8	8.48e-01	0	61	104	0	60	30350
2026-01-30 18:07:13.37	190.36	25.28	-44.8	-63.0	3.8	8.46e-01	0	61	104	0	60	30531
2026-01-30 18:07:14.38	189.81	25.27	-44.7	-63.0	3.8	8.46e-01	0	60	104	0	60	30479
2026-01-30 18:07:15.39	189.25	25.26	-44.7	-63.0	3.8	8.45e-01	0	61	104	0	60	30531
2026-01-30 18:07:16.40	188.70	25.25	-44.7	-63.0	3.8	8.45e-01	0	61	104	0	60	30472
2026-01-30 18:07:17.41	188.14	25.23	-44.8	-63.0	3.8	8.46e-01	0	61	104	0	60	30584
2026-01-30 18:07:18.42	187.59	25.21	-44.7	-63.0	3.8	8.46e-01	0	61	104	0	60	30561
2026-01-30 18:07:19.43	187.04	25.19	-44.8	-63.0	3.8	8.47e-01	0	60	104	0	60	30517
2026-01-30 18:07:20.44	186.49	25.17	-44.8	-63.0	3.8	8.47e-01	0	61	104	0	60	30518
2026-01-30 18:07:21.45	185.94	25.14	-44.8	-63.0	3.8	8.47e-01	0	61	104	0	60	30631
2026-01-30 18:07:22.46	185.39	25.11	-44.8	-63.0	3.8	8.46e-01	0	61	104	0	60	30494
2026-01-30 18:07:23.47	184.84	25.08	-44.8	-63.0	3.8	8.46e-01	0	61	104	0	60	30541
2026-01-30 18:07:24.47	184.30	25.05	-44.8	-63.0	3.8	8.46e-01	0	61	104	0	60	30665
2026-01-30 18:07:25.48	183.75	25.01	-44.8	-63.0	3.8	8.46e-01	0	61	104	0	60	30687
2026-01-30 18:07:26.50	183.20	24.97	-44.8	-63.0	3.8	8.46e-01	0	61	104	0	60	30610
2026-01-30 18:07:27.50	182.66	24.93	-44.8	-63.0	3.8	8.46e-01	0	61	104	0	60	30649
2026-01-30 18:07:28.51	182.12	24.89	-44.8	-63.0	3.8	8.46e-01	0	61	104	0	60	30654
2026-01-30 18:07:29.53	181.58	24.84	-44.8	-63.1	3.8	8.46e-01	0	61	104	0	60	30775
2026-01-30 18:07:30.53	181.05	24.80	-44.8	-63.0	3.8	8.46e-01	0	61	104	0	60	30618
2026-01-30 18:07:31.54	180.51	24.75	-44.8	-63.0	3.8	8.47e-01	0	61	104	0	60	30662
2026-01-30 18:07:32.56	179.97	24.69	-44.8	-63.1	3.8	8.47e-01	0	61	104	0	60	30782
2026-01-30 18:07:33.57	179.44	24.64	-44.8	-63.1	3.8	8.46e-01	0	61	104	0	60	30826
2026-01-30 18:07:34.57	178.92	24.58	-44.8	-63.1	3.8	8.46e-01	0	61	104	0	60	30806
2026-01-30 18:07:35.58	178.39	24.52	-44.8	-63.0	3.8	8.47e-01	0	61	104	0	60	30668
2026-01-30 18:07:36.59	177.87	24.46	-44.8	-63.1	3.8	8.47e-01	0	61	104	0	60	30801
2026-01-30 18:07:37.60	177.35	24.40	-44.8	-63.1	3.8	8.47e-01	0	61	104	0	60	30838
2026-01-30 18:07:38.61	176.83	24.34	-44.9	-63.1	3.8	8.47e-01	0	61	104	0	60	30915
2026-01-30 18:07:39.62	176.31	24.27	-44.8	-63.1	3.8	8.47e-01	0	61	104	0	60	30813
2026-01-30 18:07:40.63	175.80	24.20	-44.9	-63.1	3.8	8.47e-01	0	61	104	0	60	30941
2026-01-30 18:07:41.64	175.28	24.13	-45.0	-63.3	3.8	8.48e-01	0	61	104	0	61	29814
2026-01-30 18:07:42.65	174.77	24.06	-45.0	-63.3	3.8	8.45e-01	0	61	104	0	61	29693
2026-01-30 18:07:43.66	174.27	23.98	-45.0	-63.2	3.8	8.45e-01	0	61	104	0	61	29541
2026-01-30 18:07:44.67	173.77	23.90	-45.0	-63.2	3.8	8.45e-01	0	61	104	0	61	29638
2026-01-30 18:07:45.68	173.26	23.83	-44.9	-63.2	3.8	8.45e-01	0	61	104	0	61	29480
2026-01-30 18:07:46.69	172.77	23.75	-45.0	-63.2	3.8	8.46e-01	0	61	104	0	61	29571
2026-01-30 18:07:47.70	172.27	23.66	-44.9	-63.2	3.8	8.46e-01	0	61	104	0	61	29446
2026-01-30 18:07:48.71	171.78	23.58	-45.0	-63.2	3.8	8.46e-01	0	61	104	0	61	29589
2026-01-30 18:07:49.72	171.29	23.50	-44.9	-63.2	3.8	8.46e-01	0	61	104	0	61	29423
2026-01-30 18:07:50.74	170.80	23.41	-44.9	-63.2	3.8	8.46e-01	0	61	104	0	61	29459
2026-01-30 18:07:51.74	170.33	23.32	-44.9	-63.2	3.8	8.46e-01	0	61	104	0	61	29531
2026-01-30 18:07:52.75	169.85	23.23	-44.9	-63.2	3.8	8.46e-01	0	61	104	0	61	29537
2026-01-30 18:07:53.76	169.37	23.14	-44.9	-63.2	3.8	8.46e-01	0	61	104	0	61	29472
2026-01-30 18:07:54.77	168.90	23.05	-45.0	-63.3	3.8	8.46e-01	0	61	104	0	61	29695
2026-01-30 18:07:55.78	168.43	22.96	-45.0	-63.3	3.8	8.47e-01	0	61	104	0	61	29802
2026-01-30 18:07:56.79	167.96	22.86	-45.0	-63.3	3.8	8.46e-01	0	61	104	0	61	29899
2026-01-30 18:07:57.80	167.50	22.76	-45.0	-63.3	3.8	8.46e-01	0	61	104	0	61	29772
2026-01-30 18:07:58.81	167.04	22.67	-45.1	-63.4	3.8	8.46e-01	0	61	104	0	61	30081
2026-01-30 18:07:59.82	166.59	22.57	-45.1	-63.4	3.8	8.47e-01	0	61	104	0	61	30088
2026-01-30 18:08:00.83	166.13	22.47	-45.1	-63.4	3.8	8.47e-01	0	61	104	0	61	30097
2026-01-30 18:08:01.84	165.69	22.37	-45.1	-63.3	3.8	8.46e-01	0	61	104	0	61	29823
2026-01-30 18:08:02.85	165.24	22.27	-45.1	-63.3	3.8	8.45e-01	0	61	104	0	61	29875
2026-01-30 18:08:03.87	164.79	22.16	-45.1	-63.4	3.8	8.45e-01	0	61	104	0	61	30052
2026-01-30 18:08:04.88	164.36	22.06	-45.1	-63.3	3.8	8.45e-01	0	61	104	0	61	29935
2026-01-30 18:08:05.89	163.92	21.95	-45.0	-63.3	3.8	8.46e-01	0	61	104	0	61	29873
2026-01-30 18:08:06.90	163.49	21.85	-45.1	-63.3	3.8	8.46e-01	0	61	104	0	61	29984
2026-01-30 18:08:07.91	163.06	21.74	-45.1	-63.4	3.8	8.46e-01	0	61	104	0	61	30032
2026-01-30 18:08:08.92	162.64	21.63	-45.1	-63.4	3.8	8.46e-01	0	61	104	0	61	30034
2026-01-30 18:08:09.93	162.22	21.53	-45.0	-63.3	3.8	8.45e-01	0	61	104	0	61	29835
2026-01-30 18:08:10.93	161.80	21.42	-45.1	-63.3	3.8	8.45e-01	0	61	104	0	61	29964
2026-01-30 18:08:11.94	161.39	21.31	-45.1	-63.3	3.8	8.46e-01	0	61	104	0	61	30013
2026-01-30 18:08:12.95	160.98	21.20	-45.1	-63.3	3.8	8.46e-01	0	61	104	0	61	29888
2026-01-30 18:08:13.97	160.57	21.09	-45.0	-63.3	3.8	8.46e-01	0	61	104	0	61	29809
2026-01-30 18:08:14.97	160.17	20.98	-45.1	-63.4	3.8	8.47e-01	0	61	104	0	61	30089
2026-01-30 18:08:15.98	159.77	20.86	-45.1	-63.3	3.8	8.47e-01	0	61	104	0	61	30004
2026-01-30 18:08:17.00	159.37	20.75	-45.1	-63.3	3.8	8.47e-01	0	61	104	0	61	30016
2026-01-30 18:08:18.01	158.98	20.64	-45.0	-63.3	3.8	8.46e-01	0	61	104	0	61	29870
2026-01-30 18:08:19.02	158.59	20.52	-45.1	-63.3	3.8	8.47e-01	0	61	104	0	61	29979
2026-01-30 18:08:20.03	158.20	20.41	-45.1	-63.4	3.8	8.47e-01	0	61	104	0	61	30135
2026-01-30 18:08:21.04	157.82	20.29	-45.1	-63.3	3.8	8.46e-01	0	61	104	0	61	30022
2026-01-30 18:08:22.05	157.44	20.18	-45.1	-63.3	3.8	8.46e-01	0	61	104	0	61	29966
2026-01-30 18:08:23.06	157.06	20.06	-45.0	-63.3	3.8	8.46e-01	0	61	104	0	61	29958
2026-01-30 18:08:24.07	156.69	19.95	-45.1	-63.3	3.8	8.46e-01	0	61	104	0	61	30021
2026-01-30 18:08:25.08	156.32	19.83	-45.1	-63.3	3.8	8.47e-01	0	61	104	0	61	29986
2026-01-30 18:08:26.09	155.96	19.71	-45.0	-63.3	3.8	8.46e-01	0	61	104	0	61	29872
2026-01-30 18:08:27.09	155.60	19.60	-45.0	-63.3	3.8	8.46e-01	0	61	104	0	61	29847
2026-01-30 18:08:28.11	155.24	19.48	-45.0	-63.3	3.8	8.45e-01	0	61	104	0	61	29875
2026-01-30 18:08:29.11	154.88	19.37	-45.0	-63.3	3.8	8.47e-01	0	61	104	0	61	29860
2026-01-30 18:08:30.13	154.53	19.25	-45.0	-63.3	3.8	8.47e-01	0	61	104	0	61	29845
2026-01-30 18:08:31.14	154.18	19.13	-45.0	-63.3	3.8	8.47e-01	0	61	104	0	61	29840
2026-01-30 18:08:32.15	153.84	19.01	-45.0	-63.3	3.8	8.46e-01	0	61	104	0	61	29935
2026-01-30 18:08:33.16	153.49	18.89	-45.0	-63.3	3.8	8.46e-01	0	61	104	0	61	29769
2026-01-30 18:08:34.17	153.15	18.78	-44.9	-63.2	3.8	8.46e-01	0	61	104	0	61	29598
2026-01-30 18:08:35.18	152.82	18.66	-45.0	-63.2	3.8	8.47e-01	0	61	104	0	61	29593
2026-01-30 18:08:36.19	152.49	18.54	-45.0	-63.3	3.8	8.45e-01	0	61	104	0	61	29777
2026-01-30 18:08:37.20	152.16	18.42	-45.0	-63.3	3.8	8.45e-01	0	61	104	0	61	29859
2026-01-30 18:08:38.21	151.83	18.30	-44.9	-63.2	3.8	8.47e-01	0	61	104	0	61	29553
2026-01-30 18:08:39.22	151.51	18.19	-44.9	-63.2	3.8	8.46e-01	0	61	104	0	61	29452
2026-01-30 18:08:40.23	151.19	18.07	-44.9	-63.3	3.8	8.46e-01	0	61	104	0	61	29692
2026-01-30 18:08:41.24	150.87	17.95	-44.9	-63.3	3.8	8.46e-01	0	61	104	0	61	29723
2026-01-30 18:08:42.25	150.56	17.83	-44.9	-63.1	3.8	8.45e-01	0	61	104	0	61	29325
2026-01-30 18:08:43.26	150.25	17.71	-44.8	-63.2	3.8	8.45e-01	0	61	104	0	61	29349
2026-01-30 18:08:44.27	149.94	17.60	-44.9	-63.2	3.8	8.46e-01	0	61	104	0	61	29473
2026-01-30 18:08:45.28	149.63	17.48	-44.9	-63.2	3.8	8.45e-01	0	61	104	0	61	29455
2026-01-30 18:08:46.29	149.33	17.36	-44.8	-63.1	3.8	8.46e-01	0	61	104	0	61	29124
2026-01-30 18:08:47.30	149.03	17.24	-44.8	-63.1	3.8	8.46e-01	0	61	104	0	61	29166
2026-01-30 18:08:48.31	148.74	17.13	-44.8	-63.2	3.8	8.45e-01	0	61	104	0	61	29373
2026-01-30 18:08:49.33	148.44	17.01	-44.9	-63.1	3.8	8.46e-01	0	61	104	0	61	29203
2026-01-30 18:08:50.34	148.15	16.89	-44.7	-63.0	3.8	8.46e-01	0	61	104	0	61	28991
2026-01-30 18:08:51.35	147.86	16.78	-44.8	-63.0	3.8	8.47e-01	0	61	104	0	61	28903
2026-01-30 18:08:52.36	147.58	16.66	-44.8	-63.1	3.8	8.46e-01	0	61	104	0	61	29077
2026-01-30 18:08:53.37	147.29	16.54	-44.8	-63.1	3.8	8.46e-01	0	61	104	0	61	29090
2026-01-30 18:08:54.38	147.01	16.43	-44.7	-63.0	3.8	8.47e-01	0	61	104	0	61	28796
2026-01-30 18:08:55.39	146.74	16.31	-44.7	-63.0	3.8	8.46e-01	0	61	104	0	61	28888
2026-01-30 18:08:56.40	146.46	16.19	-44.7	-63.0	3.8	8.46e-01	0	61	104	0	61	28930
2026-01-30 18:08:57.41	146.19	16.08	-44.7	-63.0	3.8	8.46e-01	0	61	104	0	61	28936
2026-01-30 18:08:58.42	145.92	15.96	-44.3	-63.0	3.8	8.47e-01	0	61	104	0	60	30403
2026-01-30 18:08:59.43	145.66	15.85	-44.7	-63.0	3.8	8.47e-01	0	61	104	0	60	30416
2026-01-30 18:09:00.44	145.39	15.73	-44.7	-63.0	3.8	8.47e-01	0	61	104	0	60	30427
2026-01-30 18:09:01.45	145.13	15.62	-44.7	-63.0	3.8	8.47e-01	0	62	104	0	60	30438
2026-01-30 18:09:02.46	144.88	15.51	-44.6	-62.9	3.8	8.46e-01	0	61	104	0	60	30208
2026-01-30 18:09:03.47	144.62	15.39	-44.7	-62.9	3.8	8.46e-01	0	61	104	0	60	30312
2026-01-30 18:09:04.48	144.37	15.28	-44.7	-62.9	3.8	8.45e-01	0	61	104	0	60	30180
2026-01-30 18:09:05.49	144.11	15.17	-44.6	-62.9	3.8	8.45e-01	0	61	104	0	60	30306
2026-01-30 18:09:06.50	143.87	15.05	-44.6	-62.8	3.8	8.45e-01	0	61	104	0	59	31771
2026-01-30 18:09:07.51	143.62	14.94	-44.7	-62.9	3.9	8.46e-01	0	61	104	0	60	30237
2026-01-30 18:09:08.52	143.38	14.83	-44.6	-62.9	3.8	8.45e-01	0	61	104	0	60	30139
2026-01-30 18:09:09.53	143.13	14.72	-44.7	-62.8	3.8	8.45e-01	0	61	104	0	59	31734
2026-01-30 18:09:10.54	142.90	14.61	-44.6	-62.8	3.8	8.47e-01	0	61	104	0	59	31496
2026-01-30 18:09:11.55	142.66	14.49	-44.7	-62.8	3.8	8.45e-01	0	61	104	0	59	31686
2026-01-30 18:09:12.56	142.42	14.38	-44.6	-62.8	3.8	8.45e-01	0	61	104	0	59	31665
2026-01-30 18:09:13.57	142.19	14.27	-44.6	-62.8	3.8	8.45e-01	0	61	104	0	59	31627
2026-01-30 18:09:14.58	141.96	14.16	-44.6	-62.7	3.8	8.45e-01	0	61	104	0	59	31427
2026-01-30 18:09:15.59	141.73	14.05	-44.6	-62.8	3.8	8.47e-01	0	61	104	0	59	31561
2026-01-30 18:09:16.61	141.51	13.94	-44.6	-62.8	3.8	8.47e-01	0	61	104	0	59	31553
2026-01-30 18:09:17.61	141.28	13.83	-44.6	-62.7	3.8	8.46e-01	0	62	104	0	59	31407
2026-01-30 18:09:18.62	141.06	13.73	-44.5	-62.7	3.8	8.46e-01	0	61	104	0	59	31174
2026-01-30 18:09:19.63	140.84	13.62	-44.6	-62.7	3.8	8.46e-01	0	62	104	0	59	31425
2026-01-30 18:09:20.64	140.63	13.51	-44.6	-62.7	3.8	8.46e-01	0	61	104	0	59	31413
2026-01-30 18:09:21.65	140.41	13.40	-44.5	-62.7	3.8	8.47e-01	0	61	104	0	59	31231
2026-01-30 18:09:22.66	140.20	13.30	-43.7	-62.0	3.8	8.47e-01	0	61	104	0	56	34198
2026-01-30 18:09:23.67	139.99	13.19	-44.0	-62.6	3.8	8.47e-01	0	62	104	0	59	31084
2026-01-30 18:09:24.68	139.78	13.08	-44.4	-63.1	3.8	8.46e-01	0	61	104	0	58	34609
2026-01-30 18:09:25.69	139.57	12.98	-36.2	-61.0	3.8	8.44e-01	0	61	104	0	53	36335
2026-01-30 18:09:26.70	139.37	12.87	-36.2	-61.3	4.0	8.44e-01	0	61	104	0	50	44688
2026-01-30 18:09:27.71	139.16	12.77	-43.6	-62.3	3.8	8.44e-01	0	61	104	0	57	33536
2026-01-30 18:09:28.72	138.96	12.66	-37.1	-63.2	3.9	8.45e-01	0	61	104	0	56	39478
2026-01-30 18:09:29.73	138.76	12.56	-44.5	-64.6	3.9	8.45e-01	0	61	104	0	54	51932
2026-01-30 18:09:30.74	138.56	12.45	-40.1	-61.1	3.9	8.45e-01	0	61	104	0	51	41126
2026-01-30 18:09:31.75	138.37	12.35	-40.5	-60.9	4.2	8.42e-01	0	61	104	0	51	40272
2026-01-30 18:09:32.76	138.17	12.25	-42.6	-62.6	3.8	8.42e-01	0	61	104	0	54	41334
2026-01-30 18:09:33.77	137.98	12.14	-42.8	-61.5	4.0	8.44e-01	0	61	104	0	55	34464
2026-01-30 18:09:34.78	137.79	12.04	-32.5	-60.7	3.5	8.44e-01	0	61	104	0	45	55615
2026-01-30 18:09:35.79	137.60	11.94	-43.0	-61.8	3.7	8.44e-01	0	61	104	0	54	37551
2026-01-30 18:09:36.80	137.41	11.84	-39.4	-61.9	3.9	8.44e-01	0	62	104	0	52	42794
2026-01-30 18:09:37.81	137.23	11.74	-40.6	-60.2	4.2	8.44e-01	0	61	104	0	47	46720
2026-01-30 18:09:38.81	137.05	11.64	-39.9	-58.1	3.7	8.42e-01	0	62	104	0	37	65535
2026-01-30 18:09:39.82	136.87	11.54	-36.9	-61.7	4.0	8.42e-01	0	62	104	0	47	55477
2026-01-30 18:09:40.83	136.69	11.44	-29.9	-56.6	4.1	8.39e-01	0	61	104	0	34	65395
2026-01-30 18:09:41.84	136.51	11.34	-30.5	-56.8	4.1	8.39e-01	0	61	104	0	39	50185
2026-01-30 18:09:42.85	136.33	11.24	-36.8	-56.5	3.8	8.39e-01	0	62	104	0	35	61248
2026-01-30 18:09:43.87	136.15	11.14	-30.2	-52.3	3.9	8.33e-01	0	61	104	0	28	56484
2026-01-30 18:09:44.87	135.98	11.04	-26.6	-53.8	4.0	8.30e-01	0	62	104	0	29	62969
2026-01-30 18:09:45.88	135.81	10.94	-31.7	-56.6	4.1	8.30e-01	0	61	104	0	34	65330
2026-01-30 18:09:46.89	135.64	10.84	-31.2	-55.5	4.1	8.25e-01	0	62	104	0	34	57294
2026-01-30 18:09:47.90	135.47	10.75	-27.3	-50.5	3.6	8.32e-01	0	62	104	0	25	54620
2026-01-30 18:09:48.91	135.30	10.65	-22.2	-49.7	3.9	8.26e-01	0	61	104	0	22	58587
2026-01-30 18:09:49.92	135.13	10.55	-24.5	-47.8	3.8	8.26e-01	0	62	104	0	23	44833
2026-01-30 18:09:50.93	134.97	10.46	-24.5	-52.0	3.8	8.26e-01	0	62	104	0	27	57854
2026-01-30 18:09:51.94	134.81	10.36	-27.5	-51.1	4.1	8.21e-01	0	61	104	0	26	54834
2026-01-30 18:09:52.95	134.65	10.26	-28.1	-53.4	4.1	8.21e-01	0	61	104	0	31	53648
2026-01-30 18:09:53.96	134.48	10.17	-30.8	-54.4	4.1	8.19e-01	0	62	104	0	31	60519
2026-01-30 18:09:54.97	134.33	10.08	-23.7	-48.2	3.9	8.22e-01	0	62	104	0	22	49430
2026-01-30 18:09:55.98	134.17	9.98	-23.2	-52.7	3.8	8.22e-01	0	61	104	0	27	62281
2026-01-30 18:09:56.99	134.01	9.89	-19.7	-43.8	3.6	8.17e-01	0	62	104	0	13	49914
2026-01-30 18:09:58.00	133.86	9.79	-20.0	-44.6	3.4	8.18e-01	0	62	104	0	10	65394
2026-01-30 18:09:59.01	133.70	9.70	-20.5	-44.4	3.7	8.18e-01	0	62	104	0	12	56810
2026-01-30 18:10:00.02	133.55	9.61	-22.5	-45.0	3.8	8.18e-01	0	62	104	0	17	45699
2026-01-30 18:10:01.03	133.40	9.52	-19.0	-41.4	3.9	8.16e-01	0	61	104	0	10	45023
2026-01-30 18:10:02.04	133.25	9.42	-22.7	-45.2	3.7	8.22e-01	0	61	104	0	17	47012
2026-01-30 18:10:03.04	133.10	9.33	-19.3	-43.9	3.5	8.22e-01	0	61	104	0	18	38072
2026-01-30 18:10:04.06	132.96	9.24	-19.1	-41.9	3.7	8.16e-01	0	62	104	0	7	56594
2026-01-30 18:10:05.07	132.81	9.15	-18.4	-39.1	4.2	8.35e-01	0	62	104	0	3	51719
2026-01-30 18:10:06.08	132.67	9.06	-18.2	-43.3	3.8	8.35e-01	0	62	104	0	11	53210
2026-01-30 18:10:07.09	132.52	8.97	-17.3	-40.6	3.3	8.34e-01	0	61	104	0	2	65534
2026-01-30 18:10:08.10	132.38	8.88	-17.5	-37.7	3.6	8.29e-01	0	61	104	0	2	47031
2026-01-30 18:10:09.11	132.24	8.79	-14.9	-36.4	3.9	8.29e-01	0	61	104	0	1	42707
2026-01-30 18:10:10.12	132.10	8.70	-23.0	-46.2	3.4	8.33e-01	0	62	104	0	19	46647
2026-01-30 18:10:11.13	131.96	8.61	-19.7	-43.9	3.6	8.20e-01	0	62	104	0	13	50592
2026-01-30 18:10:12.13	131.83	8.52	-20.9	-42.2	3.6	8.20e-01	0	62	104	0	13	41688
2026-01-30 18:10:13.14	131.69	8.44	-18.2	-42.6	3.6	8.16e-01	0	62	104	0	10	52040
2026-01-30 18:10:14.15	131.55	8.35	-24.1	-46.6	3.6	8.18e-01	0	61	0	0	17	54759
2026-01-30 18:10:15.17	131.42	8.26	-15.3	-42.4	3.8	8.09e-01	0	61	104	0	12	45037
2026-01-30 18:10:16.18	131.29	8.17	-20.3	-44.1	3.5	8.09e-01	0	61	104	0	14	48799
2026-01-30 18:10:17.19	131.16	8.09	-19.5	-44.2	3.6	8.23e-01	0	62	104	0	16	43919
2026-01-30 18:10:18.20	131.02	8.00	-14.7	-35.5	3.6	8.18e-01	0	62	104	0	2	36299
2026-01-30 18:10:19.21	130.90	7.91	-26.5	-49.2	3.6	8.18e-01	0	62	104	0	24	49664
2026-01-30 18:10:20.22	130.77	7.83	-44.1	-62.5	3.8	8.27e-01	0	61	104	0	58	32290
2026-01-30 18:10:21.23	130.64	7.74	-45.0	-63.2	3.8	8.44e-01	0	62	104	0	60	31233
2026-01-30 18:10:22.24	130.51	7.66	-45.2	-63.5	3.8	8.44e-01	0	62	104	0	60	32202
2026-01-30 18:10:23.25	130.39	7.57	-45.3	-63.6	3.8	8.47e-01	0	61	104	0	61	30784
2026-01-30 18:10:24.26	130.26	7.49	-45.4	-63.6	3.8	8.47e-01	0	62	104	0	61	30970
2026-01-30 18:10:25.27	130.14	7.41	-45.5	-63.7	3.8	8.47e-01	0	62	104	0	61	31344
2026-01-30 18:10:26.28	130.02	7.32	-45.5	-63.8	3.8	8.46e-01	0	62	104	0	61	31525
2026-01-30 18:10:27.29	129.90	7.24	-45.5	-63.8	3.8	8.47e-01	0	62	104	0	61	31640
2026-01-30 18:10:28.30	129.78	7.16	-45.5	-63.8	3.8	8.47e-01	0	62	104	0	61	31552
2026-01-30 18:10:29.31	129.66	7.07	-45.4	-63.7	3.8	8.47e-01	0	62	104	0	61	31178
2026-01-30 18:10:30.32	129.54	6.99	-45.4	-63.6	3.8	8.47e-01	0	62	104	0	61	30821
2026-01-30 18:10:31.33	129.42	6.91	-45.3	-63.5	3.8	8.46e-01	0	62	104	0	61	30617
2026-01-30 18:10:32.34	129.30	6.83	-45.2	-63.4	3.8	8.46e-01	0	62	104	0	61	30248
2026-01-30 18:10:33.35	129.19	6.75	-45.2	-63.4	3.8	8.46e-01	0	62	104	0	61	30239
2026-01-30 18:10:34.36	129.07	6.67	-45.1	-63.3	3.8	8.47e-01	0	62	104	0	61	29857
2026-01-30 18:10:35.37	128.96	6.58	-45.1	-63.3	3.8	8.47e-01	0	62	104	0	61	29834
2026-01-30 18:10:36.38	128.85	6.50	-45.0	-63.3	3.8	8.46e-01	0	62	104	0	61	29761
2026-01-30 18:10:37.39	128.74	6.42	-45.1	-63.3	3.8	8.46e-01	0	62	104	0	61	29750
2026-01-30 18:10:38.40	128.62	6.34	-45.1	-63.2	3.8	8.46e-01	0	62	104	0	61	29649
2026-01-30 18:10:39.42	128.51	6.26	-45.1	-63.3	3.8	8.45e-01	0	62	104	0	61	29708
2026-01-30 18:10:40.42	128.41	6.19	-45.1	-63.3	3.8	8.45e-01	0	62	104	0	61	29756
2026-01-30 18:10:41.43	128.30	6.11	-45.0	-63.3	3.8	8.46e-01	0	62	104	0	61	29692
2026-01-30 18:10:42.44	128.19	6.03	-44.9	-63.2	3.8	8.46e-01	0	62	104	0	61	29684
2026-01-30 18:10:43.46	128.08	5.95	-45.0	-63.2	3.8	8.46e-01	0	62	104	0	61	29646
2026-01-30 18:10:44.46	127.98	5.87	-45.0	-63.3	3.8	8.45e-01	0	62	104	0	61	29738
2026-01-30 18:10:45.48	127.87	5.79	-45.0	-63.3	3.8	8.45e-01	0	62	104	0	61	29706
2026-01-30 18:10:46.48	127.77	5.72	-45.0	-63.3	3.8	8.46e-01	0	62	104	0	61	29698
2026-01-30 18:10:47.49	127.66	5.64	-45.0	-63.3	3.8	8.46e-01	0	62	104	0	61	29688
2026-01-30 18:10:48.50	127.56	5.56	-45.0	-63.2	3.8	8.46e-01	0	62	104	0	61	29654
2026-01-30 18:10:49.51	127.46	5.48	-45.0	-63.2	3.8	8.46e-01	0	62	104	0	61	29637
2026-01-30 18:10:50.53	127.36	5.41	-45.0	-63.2	3.8	8.47e-01	0	62	104	0	61	29639
2026-01-30 18:10:51.54	127.26	5.33	-45.0	-63.3	3.8	8.47e-01	0	62	104	0	61	29697
2026-01-30 18:10:52.55	127.16	5.26	-45.0	-63.2	3.8	8.47e-01	0	62	104	0	61	29596
2026-01-30 18:10:53.56	127.06	5.18	-45.0	-63.2	3.8	8.46e-01	0	62	104	0	61	29631
2026-01-30 18:10:54.57	126.96	5.10	-45.0	-63.2	3.8	8.47e-01	0	61	104	0	61	29601
2026-01-30 18:10:55.58	126.86	5.03	-45.0	-63.2	3.8	8.47e-01	0	62	104	0	61	29522
2026-01-30 18:10:56.59	126.76	4.95	-45.0	-63.2	3.8	8.47e-01	0	62	104	0	61	29664
2026-01-30 18:10:57.60	126.67	4.88	-45.0	-63.2	3.8	8.47e-01	0	62	104	0	61	29550
2026-01-30 18:10:58.61	126.57	4.81	-45.0	-63.2	3.8	8.47e-01	0	61	104	0	61	29625
2026-01-30 18:10:59.62	126.48	4.73	-45.0	-63.2	3.8	8.46e-01	0	62	104	0	61	29604
2026-01-30 18:11:00.63	126.38	4.66	-45.0	-63.2	3.8	8.47e-01	0	61	104	0	61	29652
2026-01-30 18:11:01.64	126.29	4.58	-45.0	-63.2	3.8	8.47e-01	0	62	104	0	61	29578
2026-01-30 18:11:02.65	126.20	4.51	-45.0	-63.2	3.8	8.46e-01	0	62	104	0	61	29576
2026-01-30 18:11:03.66	126.11	4.44	-45.0	-63.2	3.8	8.46e-01	0	62	104	0	61	29523
2026-01-30 18:11:04.67	126.01	4.37	-45.0	-63.2	3.8	8.45e-01	0	62	104	0	61	29585
2026-01-30 18:11:05.68	125.92	4.29	-45.0	-63.2	3.8	8.45e-01	0	62	104	0	61	29504
2026-01-30 18:11:06.69	125.83	4.22	-45.0	-63.2	3.8	8.46e-01	0	61	104	0	61	29570
2026-01-30 18:11:07.70	125.74	4.15	-45.0	-63.2	3.8	8.46e-01	0	62	104	0	61	29678
2026-01-30 18:11:08.71	125.66	4.08	-45.0	-63.2	3.8	8.46e-01	0	62	104	0	61	29578
2026-01-30 18:11:09.72	125.57	4.01	-45.0	-63.2	3.8	8.45e-01	0	62	104	0	61	29629
2026-01-30 18:11:10.73	125.48	3.93	-45.0	-63.2	3.8	8.46e-01	0	61	104	0	61	29566
2026-01-30 18:11:11.74	125.39	3.86	-45.0	-63.2	3.8	8.46e-01	0	61	104	0	61	29547
2026-01-30 18:11:12.75	125.31	3.79	-45.0	-63.2	3.8	8.46e-01	0	61	104	0	61	29501
2026-01-30 18:11:13.76	125.22	3.72	-45.0	-63.2	3.8	8.47e-01	0	62	104	0	61	29586
2026-01-30 18:11:14.77	125.14	3.65	-45.0	-63.2	3.8	8.47e-01	0	61	104	0	61	29567
2026-01-30 18:11:15.79	125.05	3.58	-45.0	-63.2	3.8	8.45e-01	0	62	104	0	61	29541
2026-01-30 18:11:16.80	124.97	3.51	-45.0	-63.2	3.8	8.47e-01	0	62	104	0	61	29543
2026-01-30 18:11:17.81	124.88	3.44	-45.0	-63.2	3.8	8.47e-01	0	62	104	0	61	29535
2026-01-30 18:11:18.82	124.80	3.37	-45.0	-63.2	3.8	8.47e-01	0	62	104	0	61	29584
2026-01-30 18:11:19.83	124.72	3.30	-45.0	-63.2	3.8	8.47e-01	0	61	104	0	61	29513
2026-01-30 18:11:20.84	124.64	3.23	-45.0	-63.2	3.8	8.46e-01	0	61	104	0	61	29544
2026-01-30 18:11:21.85	124.56	3.16	-45.0	-63.2	3.8	8.46e-01	0	62	104	0	61	29471
2026-01-30 18:11:22.86	124.48	3.10	-45.0	-63.2	3.8	8.47e-01	0	62	104	0	61	29454
2026-01-30 18:11:23.87	124.40	3.03	-45.0	-63.2	3.8	8.46e-01	0	62	104	0	61	29513
2026-01-30 18:11:24.88	124.32	2.96	-45.0	-63.2	3.8	8.46e-01	0	62	104	0	61	29584
2026-01-30 18:11:25.89	124.24	2.89	-45.0	-63.2	3.8	8.46e-01	0	62	104	0	61	29551
2026-01-30 18:11:26.90	124.16	2.82	-45.0	-63.2	3.8	8.45e-01	0	62	104	0	61	29508
2026-01-30 18:11:27.91	124.08	2.76	-45.0	-63.2	3.8	8.45e-01	0	62	104	0	61	29487
2026-01-30 18:11:28.92	124.01	2.69	-45.0	-63.2	3.8	8.46e-01	0	62	104	0	61	29512
2026-01-30 18:11:29.93	123.93	2.62	-45.0	-63.2	3.8	8.46e-01	0	61	104	0	61	29421
2026-01-30 18:11:30.94	123.85	2.56	-45.0	-63.2	3.8	8.46e-01	0	62	104	0	61	29533
2026-01-30 18:11:31.95	123.78	2.49	-45.0	-63.2	3.8	8.46e-01	0	62	104	0	61	29487
2026-01-30 18:11:32.96	123.70	2.42	-45.0	-63.2	3.8	8.46e-01	0	62	104	0	61	29473
2026-01-30 18:11:33.97	123.63	2.36	-45.0	-63.2	3.8	8.46e-01	0	62	104	0	61	29481
2026-01-30 18:11:34.98	123.55	2.29	-45.0	-63.2	3.8	8.46e-01	0	62	104	0	61	29443
2026-01-30 18:11:35.99	123.48	2.22	-45.0	-63.2	3.8	8.47e-01	0	62	104	0	61	29382
2026-01-30 18:11:37.00	123.41	2.16	-45.0	-63.2	3.8	8.46e-01	0	62	104	0	61	29477
2026-01-30 18:11:38.01	123.33	2.09	-45.0	-63.2	3.8	8.46e-01	0	62	104	0	61	29483
2026-01-30 18:11:39.02	123.26	2.03	-45.0	-63.2	3.8	8.46e-01	0	62	104	0	61	29511
2026-01-30 18:11:40.03	123.19	1.96	-45.0	-63.2	3.8	8.46e-01	0	62	104	0	61	29550
2026-01-30 18:11:41.04	123.12	1.90	-45.0	-63.2	3.8	8.46e-01	0	62	104	0	61	29460
2026-01-30 18:11:42.06	123.05	1.83	-45.0	-63.2	3.8	8.45e-01	0	62	104	0	61	29510

#Closed at: 2026-01-30 18:11:42
#Recorded file [0 MB]: D:/lorett/data/31039_260130_210240.dat