passes_logs/2026/01/30/R2.0S_Moscow/R2.0S_Moscow__20260130_154423_FENGYUN_3E_rec.log

#Pass ID: 20260130_154423_FENGYUN 3E
#Satellite: FENGYUN 3E
#Configuration: FENGYUN 3E
#almurnet v.1.7.20251203
#Start time: 2026-01-30 15:44:24

#Version: 2.2.20231116
#Station: R2.0S_Moscow
#Location: 37.707566 lon 55.798166 lat
#TLE: 1 49008U 21062A   26030.15628484 -.00000231  00000+0 -88238-4 0  9991
#TLE: 2 49008  98.7496  35.1082 0002567 110.3408 249.8045 14.19886954236998

#Time	Az	El	Level	Level2	SNR	BER	BlckErr	Temp	State	Recorded	gain1	gain2
2026-01-30 15:44:24.59	207.32	2.09	-43.9	-54.8	3.8	8.47e-01	0	54	0	0	58	12623
2026-01-30 15:44:25.59	207.39	2.14	-43.9	-54.8	3.8	8.46e-01	0	54	104	0	58	12607
2026-01-30 15:44:26.60	207.46	2.20	-43.9	-54.8	3.8	8.47e-01	0	54	104	0	58	12607
2026-01-30 15:44:27.61	207.54	2.25	-43.9	-54.8	3.8	8.46e-01	0	54	104	0	58	12644
2026-01-30 15:44:28.62	207.61	2.31	-43.9	-54.8	3.8	8.45e-01	0	54	104	0	58	12612
2026-01-30 15:44:29.63	207.68	2.37	-43.9	-54.8	3.8	8.45e-01	0	54	104	0	58	12594
2026-01-30 15:44:30.64	207.76	2.42	-43.9	-54.8	3.8	8.46e-01	0	54	104	0	58	12597
2026-01-30 15:44:31.65	207.83	2.48	-43.9	-54.8	3.8	8.46e-01	0	54	104	0	58	12650
2026-01-30 15:44:32.66	207.91	2.53	-43.9	-54.8	3.8	8.47e-01	0	54	104	0	58	12584
2026-01-30 15:44:33.68	207.98	2.59	-43.9	-54.8	3.8	8.46e-01	0	54	104	0	58	12577
2026-01-30 15:44:34.69	208.06	2.65	-43.9	-54.9	3.8	8.46e-01	0	55	104	0	58	12674
2026-01-30 15:44:35.70	208.13	2.70	-43.9	-54.8	3.8	8.45e-01	0	55	104	0	58	12611
2026-01-30 15:44:36.71	208.21	2.76	-43.9	-54.8	3.8	8.46e-01	0	55	104	0	58	12614
2026-01-30 15:44:37.72	208.28	2.82	-43.9	-54.8	3.8	8.46e-01	0	55	104	0	58	12618
2026-01-30 15:44:38.72	208.36	2.87	-43.9	-54.8	3.8	8.46e-01	0	55	104	0	58	12549
2026-01-30 15:44:39.73	208.44	2.93	-43.9	-54.8	3.8	8.45e-01	0	55	104	0	58	12616
2026-01-30 15:44:40.74	208.51	2.99	-43.9	-54.8	3.8	8.47e-01	0	55	104	0	58	12587
2026-01-30 15:44:41.76	208.59	3.04	-43.9	-54.8	3.8	8.46e-01	0	55	104	0	58	12648
2026-01-30 15:44:42.77	208.67	3.10	-43.9	-54.8	3.8	8.47e-01	0	55	104	0	58	12580
2026-01-30 15:44:43.78	208.74	3.16	-43.9	-54.8	3.8	8.45e-01	0	55	104	0	58	12607
2026-01-30 15:44:44.79	208.82	3.22	-43.9	-54.8	3.8	8.47e-01	0	55	104	0	58	12574
2026-01-30 15:44:45.80	208.90	3.27	-43.9	-54.8	3.8	8.46e-01	0	55	104	0	58	12595
2026-01-30 15:44:46.81	208.98	3.33	-43.9	-54.8	3.8	8.47e-01	0	55	104	0	58	12569
2026-01-30 15:44:47.82	209.06	3.39	-43.9	-54.8	3.8	8.45e-01	0	56	104	0	58	12644
2026-01-30 15:44:48.83	209.14	3.45	-43.9	-54.8	3.8	8.46e-01	0	55	104	0	58	12620
2026-01-30 15:44:49.84	209.22	3.50	-43.9	-54.8	3.8	8.46e-01	0	56	104	0	58	12566
2026-01-30 15:44:50.85	209.30	3.56	-43.9	-54.8	3.8	8.45e-01	0	56	104	0	58	12539
2026-01-30 15:44:51.86	209.38	3.62	-43.9	-54.8	3.8	8.46e-01	0	56	104	0	58	12586
2026-01-30 15:44:52.87	209.46	3.68	-43.9	-54.8	3.8	8.47e-01	0	56	104	0	58	12601
2026-01-30 15:44:53.88	209.54	3.73	-43.9	-54.8	3.8	8.46e-01	0	56	104	0	58	12564
2026-01-30 15:44:54.89	209.62	3.79	-43.9	-54.8	3.8	8.47e-01	0	56	104	0	58	12581
2026-01-30 15:44:55.90	209.70	3.85	-43.9	-54.8	3.8	8.46e-01	0	56	104	0	58	12599
2026-01-30 15:44:56.91	209.78	3.91	-43.9	-54.8	3.8	8.45e-01	0	56	104	0	58	12613
2026-01-30 15:44:57.92	209.86	3.97	-43.9	-54.8	3.8	8.46e-01	0	56	104	0	58	12552
2026-01-30 15:44:58.94	209.94	4.03	-43.9	-54.8	3.8	8.46e-01	0	56	104	0	58	12560
2026-01-30 15:44:59.95	210.03	4.08	-43.9	-54.8	3.8	8.47e-01	0	56	104	0	58	12601
2026-01-30 15:45:00.96	210.11	4.14	-43.9	-54.8	3.8	8.46e-01	0	56	104	0	58	12592
2026-01-30 15:45:01.97	210.19	4.20	-43.9	-54.8	3.8	8.45e-01	0	56	104	0	58	12597
2026-01-30 15:45:02.98	210.28	4.26	-43.9	-54.8	3.8	8.47e-01	0	56	104	0	58	12565
2026-01-30 15:45:03.99	210.36	4.32	-43.9	-54.8	3.8	8.47e-01	0	57	104	0	58	12593
2026-01-30 15:45:05.00	210.44	4.38	-43.9	-54.8	3.8	8.46e-01	0	57	104	0	58	12583
2026-01-30 15:45:06.01	210.53	4.44	-43.9	-54.8	3.8	8.47e-01	0	57	104	0	58	12534
2026-01-30 15:45:07.02	210.61	4.49	-43.9	-54.8	3.8	8.46e-01	0	57	104	0	58	12561
2026-01-30 15:45:08.03	210.70	4.55	-43.9	-54.8	3.8	8.45e-01	0	57	104	0	58	12582
2026-01-30 15:45:09.04	210.78	4.61	-43.8	-54.8	3.8	8.46e-01	0	57	104	0	58	12575
2026-01-30 15:45:10.05	210.87	4.67	-43.9	-54.8	3.8	8.46e-01	0	57	104	0	58	12587
2026-01-30 15:45:11.06	210.95	4.73	-43.9	-54.8	3.8	8.46e-01	0	57	104	0	58	12530
2026-01-30 15:45:12.07	211.04	4.79	-43.9	-54.8	3.8	8.46e-01	0	57	104	0	58	12574
2026-01-30 15:45:13.08	211.13	4.85	-43.9	-54.8	3.8	8.46e-01	0	57	104	0	58	12581
2026-01-30 15:45:14.09	211.21	4.91	-43.9	-54.7	3.8	8.45e-01	0	57	104	0	58	12516
2026-01-30 15:45:15.10	211.30	4.97	-43.9	-54.8	3.8	8.46e-01	0	57	104	0	58	12571
2026-01-30 15:45:16.11	211.39	5.03	-43.9	-54.8	3.8	8.47e-01	0	57	104	0	58	12531
2026-01-30 15:45:17.12	211.48	5.09	-43.9	-54.8	3.8	8.46e-01	0	57	104	0	58	12523
2026-01-30 15:45:18.13	211.57	5.15	-43.9	-54.8	3.8	8.47e-01	0	57	104	0	58	12537
2026-01-30 15:45:19.14	211.65	5.21	-43.9	-54.8	3.8	8.46e-01	0	57	104	0	58	12582
2026-01-30 15:45:20.15	211.74	5.27	-43.9	-54.8	3.8	8.46e-01	0	57	104	0	58	12539
2026-01-30 15:45:21.16	211.83	5.33	-43.9	-54.7	3.8	8.46e-01	0	57	104	0	58	12512
2026-01-30 15:45:22.17	211.92	5.39	-43.9	-54.7	3.8	8.46e-01	0	57	104	0	58	12513
2026-01-30 15:45:23.18	212.01	5.45	-43.9	-54.7	3.8	8.47e-01	0	58	104	0	58	12441
2026-01-30 15:45:24.19	212.10	5.51	-43.9	-54.7	3.8	8.47e-01	0	58	104	0	58	12415
2026-01-30 15:45:25.20	212.19	5.57	-43.9	-54.7	3.8	8.46e-01	0	58	104	0	58	12414
2026-01-30 15:45:26.21	212.28	5.63	-43.9	-54.7	3.8	8.46e-01	0	58	104	0	58	12433
2026-01-30 15:45:27.22	212.38	5.69	-43.9	-54.6	3.8	8.46e-01	0	58	104	0	58	12349
2026-01-30 15:45:28.23	212.47	5.75	-43.9	-54.6	3.8	8.47e-01	0	58	104	0	58	12296
2026-01-30 15:45:29.24	212.56	5.81	-43.8	-54.5	3.8	8.47e-01	0	58	104	0	58	12097
2026-01-30 15:45:30.25	212.65	5.87	-43.8	-54.3	3.8	8.47e-01	0	58	104	0	58	11851
2026-01-30 15:45:31.26	212.75	5.93	-43.8	-54.1	3.8	8.47e-01	0	58	104	0	58	11638
2026-01-30 15:45:32.28	212.84	5.99	-43.8	-53.9	3.8	8.45e-01	0	58	104	0	58	11417
2026-01-30 15:45:33.29	212.93	6.05	-43.7	-53.7	3.8	8.45e-01	0	58	104	0	58	11056
2026-01-30 15:45:34.30	213.03	6.12	-43.7	-53.4	3.8	8.46e-01	0	58	104	0	58	10692
2026-01-30 15:45:35.31	213.12	6.18	-43.6	-52.8	3.8	8.46e-01	0	58	104	0	58	9945
2026-01-30 15:45:36.32	213.22	6.24	-43.5	-52.2	4.0	8.43e-01	0	58	104	0	58	9308
2026-01-30 15:45:37.33	213.31	6.30	-43.4	-51.6	4.1	8.42e-01	0	58	104	0	57	9246
2026-01-30 15:45:38.34	213.41	6.36	-43.2	-50.6	4.4	8.35e-01	0	58	0	0	57	8242
2026-01-30 15:45:39.35	213.51	6.42	-43.1	-49.8	4.7	8.14e-01	0	58	0	0	57	7535
2026-01-30 15:45:40.36	213.60	6.48	-42.9	-49.3	4.9	7.90e-01	0	58	0	0	56	7541
2026-01-30 15:45:41.37	213.70	6.55	-42.8	-49.0	5.1	7.54e-01	0	58	0	0	56	7214
2026-01-30 15:45:42.38	213.80	6.61	-42.7	-48.3	5.6	7.01e-01	0	58	0	0	56	6703
2026-01-30 15:45:43.39	213.89	6.67	-42.5	-48.0	5.8	4.79e-01	0	59	0	3145728	56	6439
2026-01-30 15:45:44.40	213.99	6.73	-42.5	-48.0	5.8	4.33e-01	0	59	0	9437184	56	6472
2026-01-30 15:45:45.41	214.09	6.79	-42.5	-48.0	5.7	5.24e-01	0	58	0	15728640	56	6485
2026-01-30 15:45:46.42	214.19	6.85	-42.7	-48.5	5.5	6.67e-01	0	59	0	19922944	56	6824
2026-01-30 15:45:47.43	214.29	6.92	-42.9	-49.2	5.0	7.66e-01	0	59	0	22020096	56	7429
2026-01-30 15:45:48.44	214.39	6.98	-43.1	-50.2	4.5	8.11e-01	0	59	0	22020096	56	8338
2026-01-30 15:45:49.45	214.49	7.04	-43.4	-51.6	4.1	8.38e-01	0	59	0	22020096	56	9734
2026-01-30 15:45:50.46	214.59	7.10	-43.6	-53.2	3.8	8.45e-01	0	59	104	22020096	56	11717
2026-01-30 15:45:51.47	214.69	7.17	-43.8	-54.1	3.8	8.44e-01	0	59	104	22020096	57	12289
2026-01-30 15:45:52.49	214.79	7.23	-43.7	-53.8	3.8	8.46e-01	0	59	104	22020096	57	11877
2026-01-30 15:45:53.49	214.89	7.29	-43.4	-51.7	4.0	8.46e-01	0	59	104	22020096	57	9364
2026-01-30 15:45:54.51	215.00	7.35	-43.0	-49.5	4.8	8.08e-01	0	59	0	22020096	57	7252
2026-01-30 15:45:55.52	215.10	7.42	-42.3	-47.6	5.9	6.16e-01	0	59	0	23068672	55	6524
2026-01-30 15:45:56.53	215.20	7.48	-41.7	-46.1	7.3	1.46e-01	0	59	0	30408704	54	5802
2026-01-30 15:45:57.54	215.30	7.54	-41.3	-45.1	8.2	6.58e-02	0	59	0	37748736	53	5509
2026-01-30 15:45:58.55	215.41	7.61	-40.9	-44.2	9.1	2.81e-02	0	59	0	45088768	52	5271
2026-01-30 15:45:59.56	215.51	7.67	-40.6	-43.7	9.6	1.32e-02	0	59	0	52428800	52	4974
2026-01-30 15:46:00.57	215.62	7.73	-40.6	-43.7	9.6	1.25e-02	0	59	0	59768832	52	4979
2026-01-30 15:46:01.58	215.72	7.79	-40.6	-43.8	9.5	1.41e-02	0	59	0	67108864	52	5036
2026-01-30 15:46:02.59	215.83	7.86	-40.8	-44.2	9.2	1.74e-02	0	59	0	74448896	52	5241
2026-01-30 15:46:03.60	215.94	7.92	-41.0	-44.7	8.7	3.54e-02	0	59	0	81788928	52	5541
2026-01-30 15:46:04.61	216.04	7.98	-41.5	-45.5	7.8	7.50e-02	0	59	0	89128960	52	6100
2026-01-30 15:46:05.62	216.15	8.05	-42.7	-47.4	4.8	7.38e-01	0	59	104	94371840	56	6031
2026-01-30 15:46:06.63	216.26	8.11	-43.8	-51.8	4.3	5.13e-01	0	59	0	94371840	57	9435
2026-01-30 15:46:07.64	216.36	8.18	-42.7	-48.5	5.5	5.82e-02	0	59	0	96468992	54	7688
2026-01-30 15:46:08.65	216.47	8.24	-41.0	-44.6	8.7	5.56e-01	0	59	0	97517568	53	5180
2026-01-30 15:46:09.66	216.58	8.30	-41.8	-46.0	7.7	1.25e-02	0	59	0	104857600	53	6068
2026-01-30 15:46:10.67	216.69	8.37	-41.3	-44.8	8.7	5.55e-01	0	59	0	104857600	53	5294
2026-01-30 15:46:11.68	216.80	8.43	-40.3	-43.1	10.5	4.47e-03	0	59	0	112197632	51	4917
2026-01-30 15:46:12.69	216.91	8.49	-40.3	-43.1	10.6	3.91e-03	0	60	0	119537664	51	4897
2026-01-30 15:46:13.70	217.02	8.56	-40.4	-43.3	10.4	4.50e-03	0	60	0	126877696	51	5011
2026-01-30 15:46:14.71	217.13	8.62	-40.3	-43.1	10.6	3.97e-03	0	59	0	134217728	51	4920
2026-01-30 15:46:15.72	217.24	8.69	-40.4	-43.2	10.5	5.20e-03	0	60	0	141557760	51	4959
2026-01-30 15:46:16.73	217.36	8.75	-40.2	-43.0	10.7	3.08e-03	0	59	0	148897792	51	4832
2026-01-30 15:46:17.74	217.47	8.82	-40.3	-43.1	10.7	3.13e-03	0	60	0	156237824	51	4878
2026-01-30 15:46:18.75	217.58	8.88	-40.3	-43.1	10.6	3.63e-03	0	60	0	163577856	51	4914
2026-01-30 15:46:19.76	217.70	8.94	-40.2	-43.0	10.7	3.90e-03	0	60	0	170917888	51	4836
2026-01-30 15:46:20.77	217.81	9.01	-40.2	-42.9	10.9	2.44e-03	0	60	0	178257920	51	4786
2026-01-30 15:46:21.79	217.93	9.07	-40.2	-42.8	11.0	2.40e-03	0	60	0	185597952	51	4750
2026-01-30 15:46:22.80	218.04	9.14	-40.2	-42.8	11.0	2.13e-03	0	60	0	192937984	51	4739
2026-01-30 15:46:23.81	218.16	9.20	-40.1	-42.8	11.0	2.05e-03	0	60	0	200278016	51	4735
2026-01-30 15:46:24.82	218.27	9.27	-40.0	-42.6	11.2	1.85e-03	0	60	0	207618048	51	4627
2026-01-30 15:46:25.83	218.39	9.33	-40.0	-42.5	11.3	1.52e-03	0	60	0	213909504	51	4587
2026-01-30 15:46:26.84	218.51	9.40	-40.0	-42.5	11.3	1.30e-03	0	60	0	221249536	50	4863
2026-01-30 15:46:27.85	218.62	9.46	-40.0	-42.5	11.3	1.40e-03	0	60	0	229638144	50	4863
2026-01-30 15:46:28.86	218.74	9.53	-40.0	-42.6	11.3	1.24e-03	0	60	0	235929600	50	4883
2026-01-30 15:46:29.87	218.86	9.59	-40.0	-42.6	11.3	1.45e-03	0	60	0	243269632	50	4880
2026-01-30 15:46:30.88	218.98	9.66	-40.0	-42.6	11.3	1.26e-03	0	60	0	250609664	50	4871
2026-01-30 15:46:31.89	219.10	9.73	-40.0	-42.5	11.3	1.23e-03	0	60	0	257949696	50	4847
2026-01-30 15:46:32.90	219.22	9.79	-40.0	-42.5	11.3	1.12e-03	0	60	0	265289728	50	4867
2026-01-30 15:46:33.90	219.34	9.86	-40.0	-42.6	11.3	1.23e-03	0	60	0	272629760	50	4897
2026-01-30 15:46:34.91	219.46	9.92	-40.1	-42.6	11.3	1.37e-03	0	60	0	279969792	50	4910
2026-01-30 15:46:35.92	219.58	9.99	-40.2	-42.8	11.1	1.55e-03	0	60	0	287309824	50	4997
2026-01-30 15:46:36.93	219.70	10.05	-40.1	-42.7	11.2	1.55e-03	0	60	0	294649856	50	4978
2026-01-30 15:46:37.94	219.83	10.12	-40.1	-42.6	11.3	1.44e-03	0	60	0	301989888	50	4914
2026-01-30 15:46:38.95	219.95	10.18	-40.2	-42.8	11.2	1.46e-03	0	60	0	309329920	50	5005
2026-01-30 15:46:39.96	220.07	10.25	-40.1	-42.8	11.2	1.73e-03	0	60	0	316669952	50	4984
2026-01-30 15:46:40.97	220.20	10.32	-40.1	-42.7	11.3	1.35e-03	0	60	0	324009984	50	4949
2026-01-30 15:46:41.98	220.32	10.38	-40.1	-42.7	11.3	1.43e-03	0	60	0	331350016	50	4966
2026-01-30 15:46:42.99	220.45	10.45	-40.2	-42.8	11.2	1.68e-03	0	60	0	337641472	50	5007
2026-01-30 15:46:44.00	220.57	10.51	-40.3	-42.9	11.1	1.70e-03	0	61	0	346030080	50	5060
2026-01-30 15:46:45.01	220.70	10.58	-40.1	-42.7	11.3	1.48e-03	0	60	0	353370112	50	4944
2026-01-30 15:46:46.02	220.83	10.65	-40.2	-42.8	11.3	1.40e-03	0	60	0	359661568	50	4999
2026-01-30 15:46:47.03	220.95	10.71	-40.1	-42.6	11.4	1.04e-03	0	60	0	367001600	50	4922
2026-01-30 15:46:48.04	221.08	10.78	-40.1	-42.6	11.5	1.03e-03	0	61	0	374341632	50	4885
2026-01-30 15:46:49.05	221.21	10.84	-40.1	-42.7	11.4	1.08e-03	0	61	0	381681664	50	4946
2026-01-30 15:46:50.06	221.34	10.91	-40.2	-42.7	11.4	1.05e-03	0	60	0	389021696	50	4937
2026-01-30 15:46:51.07	221.47	10.98	-40.1	-42.6	11.4	1.16e-03	0	60	0	396361728	50	4914
2026-01-30 15:46:52.08	221.60	11.04	-40.1	-42.5	11.6	9.39e-04	0	61	0	403701760	50	4852
2026-01-30 15:46:53.09	221.73	11.11	-40.1	-42.5	11.6	7.64e-04	0	61	0	411041792	50	4852
2026-01-30 15:46:54.11	221.87	11.18	-40.0	-42.4	11.7	6.48e-04	0	60	0	418381824	50	4808
2026-01-30 15:46:55.11	222.00	11.24	-40.0	-42.5	11.7	6.64e-04	0	61	0	425721856	50	4826
2026-01-30 15:46:56.13	222.13	11.31	-40.0	-42.4	11.8	4.54e-04	0	61	0	433061888	50	4762
2026-01-30 15:46:57.13	222.26	11.38	-39.9	-42.3	11.9	4.87e-04	0	61	0	440401920	50	4740
2026-01-30 15:46:58.15	222.40	11.44	-39.9	-42.3	11.9	4.63e-04	0	61	0	447741952	50	4735
2026-01-30 15:46:59.16	222.53	11.51	-39.9	-42.2	12.0	3.80e-04	0	61	0	455081984	50	4696
2026-01-30 15:47:00.17	222.67	11.58	-39.9	-42.3	11.9	4.31e-04	0	61	0	462422016	50	4734
2026-01-30 15:47:01.18	222.80	11.64	-39.9	-42.3	12.0	4.36e-04	0	61	0	469762048	50	4718
2026-01-30 15:47:02.19	222.94	11.71	-39.9	-42.2	12.0	4.81e-04	0	61	0	477102080	50	4704
2026-01-30 15:47:03.20	223.08	11.78	-39.9	-42.2	12.0	3.63e-04	0	61	0	484442112	50	4698
2026-01-30 15:47:04.21	223.21	11.85	-39.9	-42.2	12.1	3.38e-04	0	61	0	491782144	50	4666
2026-01-30 15:47:05.22	223.35	11.91	-39.9	-42.3	12.0	3.99e-04	0	61	0	499122176	50	4715
2026-01-30 15:47:06.23	223.49	11.98	-39.8	-42.0	12.2	3.63e-04	0	61	0	506462208	50	4598
2026-01-30 15:47:07.24	223.63	12.05	-39.8	-42.1	12.2	3.28e-04	0	61	0	512753664	50	4604
2026-01-30 15:47:08.25	223.77	12.11	-39.8	-42.1	12.2	2.31e-04	0	61	0	521142272	50	4612
2026-01-30 15:47:09.26	223.91	12.18	-39.8	-42.0	12.3	2.46e-04	0	61	0	528482304	50	4580
2026-01-30 15:47:10.28	224.05	12.25	-39.8	-42.0	12.3	1.72e-04	0	61	0	534773760	50	4564
2026-01-30 15:47:11.29	224.20	12.32	-39.8	-42.0	12.3	2.21e-04	0	61	0	542113792	50	4584
2026-01-30 15:47:12.30	224.34	12.38	-39.8	-42.0	12.3	1.92e-04	0	61	0	550502400	50	4586
2026-01-30 15:47:13.31	224.48	12.45	-39.8	-42.1	12.2	2.15e-04	0	61	0	556793856	50	4616
2026-01-30 15:47:14.32	224.63	12.52	-39.8	-42.0	12.3	1.79e-04	0	61	0	564133888	50	4593
2026-01-30 15:47:15.33	224.77	12.58	-39.8	-42.0	12.4	1.92e-04	0	61	0	571473920	50	4561
2026-01-30 15:47:16.34	224.91	12.65	-39.8	-42.1	12.3	1.92e-04	0	61	0	578813952	50	4605
2026-01-30 15:47:17.35	225.06	12.72	-39.9	-42.2	12.1	2.44e-04	0	61	0	586153984	50	4699
2026-01-30 15:47:18.36	225.21	12.79	-39.8	-42.1	12.3	2.32e-04	0	61	0	593494016	50	4615
2026-01-30 15:47:19.37	225.35	12.85	-39.8	-42.0	12.4	1.93e-04	0	61	0	600834048	50	4575
2026-01-30 15:47:20.38	225.50	12.92	-39.7	-41.9	12.5	1.88e-04	0	61	0	608174080	50	4538
2026-01-30 15:47:21.39	225.65	12.99	-39.6	-41.8	12.6	1.10e-04	0	61	0	615514112	50	4474
2026-01-30 15:47:22.40	225.80	13.06	-39.7	-41.8	12.5	1.05e-04	0	61	0	622854144	50	4484
2026-01-30 15:47:23.41	225.95	13.12	-39.6	-41.8	12.6	1.07e-04	0	61	0	630194176	50	4456
2026-01-30 15:47:24.42	226.10	13.19	-39.5	-41.6	12.8	7.43e-05	0	61	0	637534208	49	4614
2026-01-30 15:47:25.43	226.25	13.26	-39.5	-41.6	12.8	5.72e-05	0	61	0	644874240	49	4630
2026-01-30 15:47:26.44	226.40	13.33	-39.4	-41.6	12.9	6.17e-05	0	61	0	652214272	49	4605
2026-01-30 15:47:27.45	226.55	13.39	-39.5	-41.6	12.8	6.17e-05	0	61	0	659554304	49	4615
2026-01-30 15:47:28.46	226.71	13.46	-39.6	-41.7	12.7	7.78e-05	0	61	0	666894336	49	4690
2026-01-30 15:47:29.48	226.86	13.53	-39.5	-41.7	12.7	8.35e-05	0	61	0	674234368	49	4669
2026-01-30 15:47:30.49	227.02	13.60	-39.5	-41.7	12.7	7.43e-05	0	61	0	681574400	49	4658
2026-01-30 15:47:31.50	227.17	13.66	-39.4	-41.5	12.9	4.46e-05	0	61	0	688914432	49	4570
2026-01-30 15:47:32.51	227.33	13.73	-39.3	-41.4	13.1	4.92e-05	0	61	0	696254464	49	4514
2026-01-30 15:47:33.52	227.48	13.80	-39.2	-41.2	13.2	2.97e-05	0	61	0	703594496	49	4440
2026-01-30 15:47:34.53	227.64	13.87	-39.2	-41.2	13.3	3.31e-05	0	61	0	709885952	49	4400
2026-01-30 15:47:35.54	227.80	13.93	-39.2	-41.2	13.3	1.83e-05	0	61	0	717225984	49	4399
2026-01-30 15:47:36.55	227.96	14.00	-39.1	-41.0	13.5	1.71e-05	0	61	0	724566016	49	4318
2026-01-30 15:47:37.56	228.12	14.07	-39.1	-41.1	13.4	1.37e-05	0	61	0	731906048	49	4361
2026-01-30 15:47:38.57	228.28	14.14	-39.2	-41.2	13.3	1.60e-05	0	61	0	739246080	49	4415
2026-01-30 15:47:39.58	228.44	14.20	-39.2	-41.2	13.3	1.83e-05	0	61	0	746586112	49	4420
2026-01-30 15:47:40.59	228.60	14.27	-39.3	-41.3	13.2	1.60e-05	0	61	0	753926144	49	4454
2026-01-30 15:47:41.60	228.76	14.34	-39.4	-41.4	13.1	2.74e-05	0	61	0	761266176	49	4543
2026-01-30 15:47:42.61	228.92	14.41	-39.4	-41.5	13.0	4.80e-05	0	61	0	768606208	49	4587
2026-01-30 15:47:43.62	229.09	14.47	-39.5	-41.6	12.9	5.72e-05	0	61	0	775946240	49	4637
2026-01-30 15:47:44.63	229.25	14.54	-39.4	-41.5	13.0	4.92e-05	0	61	0	783286272	49	4586
2026-01-30 15:47:45.65	229.42	14.61	-39.5	-41.5	13.0	6.17e-05	0	62	0	790626304	49	4593
2026-01-30 15:47:46.66	229.58	14.68	-39.5	-41.6	13.0	4.46e-05	0	61	0	797966336	49	4609
2026-01-30 15:47:47.67	229.75	14.74	-39.3	-41.4	13.2	2.05e-05	0	62	0	805306368	49	4500
2026-01-30 15:47:48.68	229.92	14.81	-39.3	-41.3	13.3	2.63e-05	0	61	0	812646400	49	4457
2026-01-30 15:47:49.69	230.08	14.88	-39.2	-41.2	13.3	1.25e-05	0	62	0	819986432	49	4429
2026-01-30 15:47:50.70	230.25	14.94	-39.2	-41.2	13.4	2.17e-05	0	62	0	827326464	49	4394
2026-01-30 15:47:51.71	230.42	15.01	-39.1	-41.1	13.5	1.14e-05	0	62	0	834666496	49	4352
2026-01-30 15:47:52.72	230.59	15.08	-39.1	-41.0	13.5	2.17e-05	0	62	0	842006528	49	4338
2026-01-30 15:47:53.73	230.76	15.14	-39.0	-40.9	13.6	3.40e-06	0	61	0	849346560	49	4287
2026-01-30 15:47:54.74	230.94	15.21	-39.0	-40.9	13.6	8.00e-06	0	61	0	855638016	49	4290
2026-01-30 15:47:55.75	231.11	15.28	-39.1	-41.0	13.5	6.80e-06	0	62	0	864026624	49	4324
2026-01-30 15:47:56.76	231.28	15.34	-39.1	-41.1	13.5	1.25e-05	0	62	0	871366656	49	4348
2026-01-30 15:47:57.77	231.45	15.41	-39.1	-41.0	13.6	8.00e-06	0	62	0	877658112	49	4307
2026-01-30 15:47:58.78	231.63	15.48	-39.0	-40.9	13.6	4.50e-06	0	61	0	884998144	49	4289
2026-01-30 15:47:59.79	231.80	15.54	-39.0	-40.9	13.7	6.80e-06	0	62	0	892338176	49	4280
2026-01-30 15:48:00.80	231.98	15.61	-39.0	-40.9	13.7	4.50e-06	0	61	0	899678208	48	4514
2026-01-30 15:48:01.81	232.16	15.68	-39.0	-41.0	13.6	8.00e-06	0	62	0	907018240	48	4548
2026-01-30 15:48:02.82	232.33	15.74	-39.0	-40.9	13.7	1.25e-05	0	62	0	914358272	48	4506
2026-01-30 15:48:03.83	232.51	15.81	-39.0	-40.9	13.7	6.80e-06	0	62	0	921698304	48	4533
2026-01-30 15:48:04.84	232.69	15.88	-39.0	-40.9	13.7	4.50e-06	0	62	0	929038336	48	4496
2026-01-30 15:48:05.85	232.87	15.94	-38.9	-40.8	13.8	4.50e-06	0	62	0	936378368	48	4470
2026-01-30 15:48:06.86	233.05	16.01	-39.0	-40.9	13.7	9.10e-06	0	62	0	943718400	48	4531
2026-01-30 15:48:07.88	233.24	16.07	-39.0	-40.9	13.7	1.14e-05	0	62	0	951058432	48	4539
2026-01-30 15:48:08.89	233.42	16.14	-38.9	-40.8	13.9	2.20e-06	0	62	0	958398464	48	4443
2026-01-30 15:48:09.90	233.60	16.21	-38.9	-40.7	13.9	6.80e-06	0	62	0	965738496	48	4433
2026-01-30 15:48:10.91	233.79	16.27	-38.9	-40.7	13.9	3.40e-06	0	62	0	973078528	48	4422
2026-01-30 15:48:11.92	233.97	16.34	-39.0	-40.9	13.7	5.70e-06	0	62	0	980418560	48	4514
2026-01-30 15:48:12.93	234.16	16.40	-38.9	-40.8	13.8	3.40e-06	0	62	0	987758592	48	4461
2026-01-30 15:48:13.94	234.34	16.47	-38.9	-40.8	13.8	6.80e-06	0	62	0	995098624	48	4480
2026-01-30 15:48:14.95	234.53	16.53	-38.9	-40.8	13.8	9.10e-06	0	62	0	1002438656	48	4472
2026-01-30 15:48:15.96	234.72	16.60	-39.0	-40.9	13.8	6.80e-06	0	62	0	1009778688	48	4494
2026-01-30 15:48:16.97	234.90	16.66	-38.9	-40.7	13.9	6.80e-06	0	62	0	1017118720	48	4424
2026-01-30 15:48:17.98	235.09	16.73	-38.8	-40.6	14.1	0.00e+00	0	62	0	1024458752	48	4362
2026-01-30 15:48:18.99	235.28	16.79	-38.8	-40.6	14.0	5.70e-06	0	62	0	1031798784	48	4376
2026-01-30 15:48:20.01	235.48	16.86	-38.8	-40.6	14.0	2.20e-06	0	62	0	1039138816	48	4383
2026-01-30 15:48:21.02	235.67	16.92	-38.9	-40.7	13.9	6.80e-06	0	62	0	1046478848	48	4438
2026-01-30 15:48:22.03	235.86	16.99	-38.8	-40.6	14.0	6.80e-06	0	62	0	1052770304	48	4367
2026-01-30 15:48:23.04	236.05	17.05	-38.8	-40.6	14.1	1.10e-06	0	62	0	1060110336	48	4344
2026-01-30 15:48:24.05	236.25	17.11	-38.7	-40.5	14.1	3.40e-06	0	62	0	1068498944	48	4326
2026-01-30 15:48:25.06	236.44	17.18	-38.7	-40.5	14.2	3.40e-06	0	62	0	1074790400	48	4331
2026-01-30 15:48:26.07	236.64	17.24	-38.7	-40.4	14.3	2.20e-06	0	62	0	1082130432	48	4275
2026-01-30 15:48:27.08	236.84	17.30	-38.6	-40.4	14.3	0.00e+00	0	62	0	1089470464	48	4260
2026-01-30 15:48:28.09	237.03	17.37	-38.7	-40.4	14.2	1.10e-06	0	62	0	1096810496	48	4291
2026-01-30 15:48:29.10	237.23	17.43	-38.8	-40.5	14.2	1.10e-06	0	62	0	1104150528	48	4335
2026-01-30 15:48:30.11	237.43	17.49	-38.7	-40.5	14.2	0.00e+00	0	62	0	1111490560	48	4325
2026-01-30 15:48:31.12	237.63	17.56	-38.9	-40.7	13.9	3.40e-06	0	62	0	1118830592	48	4434
2026-01-30 15:48:32.13	237.83	17.62	-38.7	-40.5	14.2	2.20e-06	0	62	0	1126170624	48	4332
2026-01-30 15:48:33.14	238.03	17.68	-38.7	-40.5	14.1	3.40e-06	0	62	0	1133510656	48	4336
2026-01-30 15:48:34.14	238.23	17.74	-38.7	-40.5	14.2	0.00e+00	0	62	0	1140850688	48	4301
2026-01-30 15:48:35.15	238.44	17.81	-38.6	-40.4	14.3	4.50e-06	0	62	0	1148190720	48	4258
2026-01-30 15:48:36.16	238.64	17.87	-38.7	-40.4	14.2	2.20e-06	0	62	0	1155530752	48	4288
2026-01-30 15:48:37.17	238.84	17.93	-38.6	-40.4	14.3	0.00e+00	0	62	0	1162870784	48	4258
2026-01-30 15:48:38.18	239.05	17.99	-38.7	-40.5	14.2	3.40e-06	0	62	0	1170210816	48	4294
2026-01-30 15:48:39.19	239.26	18.05	-38.8	-40.6	14.1	1.10e-06	0	62	0	1176502272	48	4351
2026-01-30 15:48:40.20	239.46	18.11	-38.8	-40.5	14.2	0.00e+00	0	62	0	1184890880	48	4338
2026-01-30 15:48:41.21	239.67	18.17	-38.7	-40.5	14.2	2.20e-06	0	62	0	1192230912	48	4310
2026-01-30 15:48:42.22	239.88	18.24	-38.5	-40.3	14.4	0.00e+00	0	62	0	1198522368	48	4206
2026-01-30 15:48:43.23	240.09	18.30	-38.5	-40.3	14.4	1.10e-06	0	62	0	1205862400	48	4194
2026-01-30 15:48:44.24	240.30	18.36	-38.3	-40.0	14.5	3.40e-06	0	62	0	1213202432	47	4321
2026-01-30 15:48:45.25	240.51	18.42	-38.3	-40.0	14.5	1.10e-06	0	62	0	1220542464	47	4316
2026-01-30 15:48:46.26	240.72	18.48	-38.3	-39.9	14.6	0.00e+00	0	62	0	1227882496	47	4283
2026-01-30 15:48:47.26	240.93	18.53	-38.2	-39.9	14.6	0.00e+00	0	62	0	1235222528	47	4280
2026-01-30 15:48:48.27	241.15	18.59	-38.3	-39.9	14.6	0.00e+00	0	62	0	1242562560	47	4290
2026-01-30 15:48:49.29	241.36	18.65	-38.3	-40.0	14.5	0.00e+00	0	62	0	1249902592	47	4330
2026-01-30 15:48:50.30	241.58	18.71	-38.2	-39.9	14.6	0.00e+00	0	62	0	1257242624	47	4284
2026-01-30 15:48:51.31	241.79	18.77	-38.3	-40.0	14.5	0.00e+00	0	62	0	1264582656	47	4316
2026-01-30 15:48:52.32	242.01	18.83	-38.3	-40.0	14.6	0.00e+00	0	62	0	1271922688	47	4299
2026-01-30 15:48:53.33	242.23	18.89	-38.2	-39.9	14.6	1.10e-06	0	62	0	1279262720	47	4255
2026-01-30 15:48:54.34	242.45	18.95	-38.2	-39.9	14.7	1.10e-06	0	62	0	1286602752	47	4254
2026-01-30 15:48:55.35	242.67	19.00	-38.2	-39.9	14.6	0.00e+00	0	62	0	1293942784	47	4251
2026-01-30 15:48:56.36	242.89	19.06	-38.1	-39.8	14.7	1.10e-06	0	62	0	1301282816	47	4216
2026-01-30 15:48:57.37	243.11	19.12	-38.2	-39.9	14.6	0.00e+00	0	62	0	1308622848	47	4275
2026-01-30 15:48:58.38	243.33	19.17	-38.3	-40.0	14.6	0.00e+00	0	62	0	1315962880	47	4300
2026-01-30 15:48:59.39	243.55	19.23	-38.3	-40.0	14.5	3.40e-06	0	62	0	1323302912	47	4338
2026-01-30 15:49:00.40	243.77	19.29	-38.4	-40.1	14.5	0.00e+00	0	62	0	1330642944	47	4352
2026-01-30 15:49:01.41	244.00	19.34	-38.3	-40.1	14.5	0.00e+00	0	62	0	1337982976	47	4344
2026-01-30 15:49:02.42	244.22	19.40	-38.3	-40.0	14.6	0.00e+00	0	62	0	1345323008	47	4298
2026-01-30 15:49:03.43	244.45	19.45	-38.3	-39.9	14.6	0.00e+00	0	62	0	1351614464	47	4283
2026-01-30 15:49:04.44	244.68	19.51	-38.3	-40.0	14.5	2.20e-06	0	62	0	1360003072	47	4297
2026-01-30 15:49:05.46	244.90	19.56	-38.3	-40.0	14.6	0.00e+00	0	62	0	1367343104	47	4301
2026-01-30 15:49:06.47	245.13	19.62	-38.4	-40.1	14.5	3.40e-06	0	62	0	1373634560	47	4352
2026-01-30 15:49:07.48	245.36	19.67	-38.3	-40.0	14.5	0.00e+00	0	62	0	1380974592	47	4331
2026-01-30 15:49:08.49	245.59	19.72	-38.3	-40.0	14.5	1.10e-06	0	62	0	1388314624	47	4340
2026-01-30 15:49:09.50	245.82	19.78	-38.4	-40.1	14.4	1.10e-06	0	62	0	1395654656	47	4377
2026-01-30 15:49:10.51	246.05	19.83	-38.4	-40.1	14.4	1.10e-06	0	62	0	1402994688	47	4378
2026-01-30 15:49:11.52	246.28	19.88	-38.3	-40.0	14.5	0.00e+00	0	62	0	1410334720	47	4339
2026-01-30 15:49:12.53	246.52	19.93	-38.3	-39.9	14.6	0.00e+00	0	62	0	1417674752	47	4287
2026-01-30 15:49:13.54	246.75	19.99	-38.2	-39.9	14.6	0.00e+00	0	62	0	1425014784	47	4261
2026-01-30 15:49:14.55	246.98	20.04	-38.1	-39.8	14.8	0.00e+00	0	62	0	1432354816	47	4195
2026-01-30 15:49:15.56	247.22	20.09	-38.1	-39.7	14.9	0.00e+00	0	62	0	1439694848	47	4177
2026-01-30 15:49:16.57	247.46	20.14	-38.0	-39.6	14.9	0.00e+00	0	62	0	1447034880	47	4136
2026-01-30 15:49:17.58	247.69	20.19	-38.0	-39.5	15.0	0.00e+00	0	62	0	1454374912	46	4339
2026-01-30 15:49:18.59	247.93	20.24	-37.9	-39.5	15.0	1.10e-06	0	62	0	1461714944	46	4330
2026-01-30 15:49:19.60	248.17	20.29	-37.9	-39.6	15.0	1.10e-06	0	62	0	1469054976	46	4352
2026-01-30 15:49:20.61	248.41	20.34	-38.0	-39.7	14.9	0.00e+00	0	62	0	1476395008	46	4394
2026-01-30 15:49:21.62	248.65	20.39	-38.0	-39.6	15.1	0.00e+00	0	62	0	1483735040	46	4346
2026-01-30 15:49:22.63	248.89	20.43	-38.0	-39.6	14.9	0.00e+00	0	62	0	1491075072	46	4389
2026-01-30 15:49:23.64	249.13	20.48	-37.9	-39.5	15.0	1.10e-06	0	62	0	1498415104	46	4331
2026-01-30 15:49:24.65	249.37	20.53	-37.9	-39.6	15.0	0.00e+00	0	62	0	1505755136	46	4344
2026-01-30 15:49:25.66	249.61	20.58	-38.0	-39.6	15.0	0.00e+00	0	62	0	1513095168	46	4379
2026-01-30 15:49:26.67	249.85	20.62	-38.0	-39.7	14.9	0.00e+00	0	62	0	1519386624	46	4405
2026-01-30 15:49:27.68	250.10	20.67	-38.0	-39.7	14.9	0.00e+00	0	62	0	1526726656	46	4404
2026-01-30 15:49:28.69	250.34	20.72	-38.1	-39.8	14.8	0.00e+00	0	62	0	1534066688	46	4446
2026-01-30 15:49:29.70	250.59	20.76	-38.1	-39.8	14.8	1.10e-06	0	62	0	1541406720	46	4471
2026-01-30 15:49:30.71	250.83	20.81	-38.2	-39.9	14.7	1.10e-06	0	62	0	1548746752	46	4532
2026-01-30 15:49:31.72	251.08	20.85	-38.2	-39.9	14.7	0.00e+00	0	62	0	1556086784	46	4532
2026-01-30 15:49:32.73	251.33	20.89	-38.2	-39.9	14.7	1.10e-06	0	62	0	1563426816	46	4536
2026-01-30 15:49:33.74	251.58	20.94	-38.3	-39.9	14.6	0.00e+00	0	62	0	1570766848	46	4545
2026-01-30 15:49:34.75	251.82	20.98	-38.4	-40.1	14.5	1.10e-06	0	62	0	1578106880	46	4618
2026-01-30 15:49:35.77	252.08	21.02	-38.3	-40.0	14.6	0.00e+00	0	62	0	1585446912	46	4551
2026-01-30 15:49:36.78	252.33	21.07	-38.2	-39.9	14.7	0.00e+00	0	62	0	1592786944	46	4516
2026-01-30 15:49:37.79	252.58	21.11	-38.3	-40.0	14.6	0.00e+00	0	62	0	1600126976	46	4594
2026-01-30 15:49:38.80	252.83	21.15	-38.3	-40.0	14.6	1.10e-06	0	62	0	1607467008	46	4565
2026-01-30 15:49:39.81	253.08	21.19	-38.2	-39.9	14.7	2.20e-06	0	62	0	1614807040	46	4510
2026-01-30 15:49:40.82	253.33	21.23	-38.3	-40.0	14.7	0.00e+00	0	62	0	1622147072	46	4547
2026-01-30 15:49:41.83	253.59	21.27	-38.2	-39.8	14.8	0.00e+00	0	62	0	1629487104	46	4487
2026-01-30 15:49:42.84	253.84	21.31	-38.1	-39.8	14.8	0.00e+00	0	62	0	1636827136	46	4456
2026-01-30 15:49:43.85	254.09	21.35	-38.1	-39.8	14.8	1.10e-06	0	62	0	1644167168	46	4478
2026-01-30 15:49:44.86	254.35	21.38	-38.1	-39.8	14.8	0.00e+00	0	62	0	1651507200	46	4477
2026-01-30 15:49:45.88	254.61	21.42	-38.1	-39.7	14.8	1.10e-06	0	62	0	1658847232	46	4441
2026-01-30 15:49:46.89	254.86	21.46	-38.0	-39.6	15.0	0.00e+00	0	62	0	1666187264	46	4389
2026-01-30 15:49:47.90	255.12	21.50	-38.1	-39.7	14.9	0.00e+00	0	62	0	1673527296	46	4419
2026-01-30 15:49:48.91	255.38	21.53	-38.1	-39.8	14.9	0.00e+00	0	62	0	1680867328	46	4442
2026-01-30 15:49:49.92	255.64	21.57	-38.0	-39.6	15.0	0.00e+00	0	62	0	1688207360	46	4379
2026-01-30 15:49:50.93	255.90	21.60	-37.9	-39.5	15.1	0.00e+00	0	62	0	1694498816	46	4324
2026-01-30 15:49:51.94	256.15	21.64	-37.9	-39.5	15.0	0.00e+00	0	62	0	1701838848	46	4338
2026-01-30 15:49:52.95	256.41	21.67	-37.9	-39.5	15.1	0.00e+00	0	62	0	1710227456	46	4311
2026-01-30 15:49:53.96	256.67	21.71	-37.8	-39.4	15.2	0.00e+00	0	62	0	1716518912	46	4281
2026-01-30 15:49:54.97	256.94	21.74	-37.9	-39.4	15.2	0.00e+00	0	62	0	1723858944	46	4284
2026-01-30 15:49:55.98	257.20	21.77	-37.8	-39.4	15.2	0.00e+00	0	62	0	1731198976	46	4281
2026-01-30 15:49:56.99	257.46	21.80	-37.8	-39.4	15.2	0.00e+00	0	62	0	1738539008	46	4271
2026-01-30 15:49:58.01	257.72	21.83	-37.8	-39.4	15.2	0.00e+00	0	62	0	1745879040	46	4262
2026-01-30 15:49:59.02	257.99	21.86	-37.8	-39.4	15.2	0.00e+00	0	62	0	1753219072	46	4260
2026-01-30 15:50:00.03	258.25	21.89	-37.8	-39.4	15.2	0.00e+00	0	62	0	1760559104	46	4282
2026-01-30 15:50:01.04	258.51	21.92	-37.9	-39.4	15.2	0.00e+00	0	62	0	1767899136	46	4286
2026-01-30 15:50:02.05	258.78	21.95	-37.8	-39.4	15.3	0.00e+00	0	62	0	1775239168	46	4251
2026-01-30 15:50:03.06	259.04	21.98	-37.9	-39.4	15.2	0.00e+00	0	62	0	1782579200	46	4282
2026-01-30 15:50:04.07	259.31	22.01	-37.8	-39.4	15.2	0.00e+00	0	62	0	1789919232	46	4262
2026-01-30 15:50:05.08	259.57	22.04	-37.7	-39.3	15.3	0.00e+00	0	62	0	1797259264	46	4209
2026-01-30 15:50:06.09	259.84	22.06	-37.7	-39.2	15.4	0.00e+00	0	62	0	1804599296	46	4185
2026-01-30 15:50:07.09	260.11	22.09	-37.7	-39.2	15.3	0.00e+00	0	62	0	1811939328	46	4187
2026-01-30 15:50:08.11	260.37	22.11	-37.7	-39.3	15.3	0.00e+00	0	62	0	1819279360	46	4203
2026-01-30 15:50:09.12	260.64	22.14	-37.9	-39.5	15.1	0.00e+00	0	62	0	1826619392	46	4313
2026-01-30 15:50:10.13	260.91	22.16	-38.0	-39.6	15.0	0.00e+00	0	62	0	1833959424	46	4390
2026-01-30 15:50:11.14	261.18	22.18	-38.0	-39.6	15.0	0.00e+00	0	62	0	1840250880	46	4371
2026-01-30 15:50:12.15	261.45	22.21	-38.0	-39.6	14.9	0.00e+00	0	62	0	1848639488	46	4389
2026-01-30 15:50:13.16	261.72	22.23	-37.9	-39.5	15.1	0.00e+00	0	62	0	1855979520	46	4298
2026-01-30 15:50:14.17	261.99	22.25	-37.8	-39.3	15.2	0.00e+00	0	62	0	1862270976	46	4231
2026-01-30 15:50:15.18	262.26	22.27	-37.7	-39.3	15.3	0.00e+00	0	62	0	1869611008	46	4205
2026-01-30 15:50:16.19	262.53	22.29	-37.7	-39.2	15.4	0.00e+00	0	62	0	1876951040	46	4175
2026-01-30 15:50:17.19	262.79	22.31	-37.8	-39.3	15.3	0.00e+00	0	62	0	1884291072	46	4226
2026-01-30 15:50:18.20	263.06	22.33	-37.8	-39.4	15.2	0.00e+00	0	62	0	1891631104	46	4266
2026-01-30 15:50:19.21	263.34	22.35	-37.8	-39.5	15.1	0.00e+00	0	62	0	1898971136	46	4299
2026-01-30 15:50:20.22	263.61	22.37	-37.9	-39.5	15.1	1.10e-06	0	62	0	1906311168	46	4309
2026-01-30 15:50:21.23	263.88	22.38	-37.9	-39.5	15.0	1.10e-06	0	62	0	1913651200	46	4334
2026-01-30 15:50:22.24	264.15	22.40	-37.9	-39.5	15.1	0.00e+00	0	62	0	1920991232	46	4295
2026-01-30 15:50:23.25	264.42	22.42	-37.9	-39.6	15.0	0.00e+00	0	62	0	1928331264	46	4348
2026-01-30 15:50:24.26	264.70	22.43	-37.9	-39.5	15.0	0.00e+00	0	62	0	1935671296	46	4335
2026-01-30 15:50:25.27	264.97	22.45	-38.0	-39.6	14.9	0.00e+00	0	62	0	1943011328	46	4391
2026-01-30 15:50:26.28	265.24	22.46	-38.0	-39.7	14.9	0.00e+00	0	62	0	1950351360	46	4407
2026-01-30 15:50:27.29	265.52	22.47	-37.9	-39.5	15.1	0.00e+00	0	62	0	1957691392	46	4331
2026-01-30 15:50:28.30	265.79	22.49	-37.9	-39.5	15.1	0.00e+00	0	62	0	1965031424	46	4318
2026-01-30 15:50:29.32	266.07	22.50	-37.9	-39.6	15.0	0.00e+00	0	62	0	1972371456	46	4346
2026-01-30 15:50:30.33	266.34	22.51	-37.9	-39.5	15.1	0.00e+00	0	62	0	1979711488	46	4318
2026-01-30 15:50:31.34	266.61	22.52	-37.9	-39.5	15.0	0.00e+00	0	62	0	1987051520	46	4336
2026-01-30 15:50:32.34	266.88	22.53	-38.0	-39.6	15.0	0.00e+00	0	62	0	1994391552	46	4362
2026-01-30 15:50:33.36	267.16	22.54	-38.0	-39.6	15.0	0.00e+00	0	62	0	2001731584	46	4358
2026-01-30 15:50:34.37	267.44	22.55	-38.0	-39.6	14.9	1.10e-06	0	62	0	2009071616	46	4374
2026-01-30 15:50:35.38	267.71	22.56	-37.9	-39.5	15.0	0.00e+00	0	62	0	2015363072	46	4335
2026-01-30 15:50:36.38	267.98	22.56	-37.9	-39.6	15.0	0.00e+00	0	62	0	2022703104	46	4355
2026-01-30 15:50:37.39	268.26	22.57	-37.9	-39.5	15.1	0.00e+00	0	62	0	2031091712	46	4299
2026-01-30 15:50:38.40	268.53	22.58	-37.8	-39.3	15.2	0.00e+00	0	62	0	2037383168	46	4242
2026-01-30 15:50:39.41	268.81	22.58	-37.7	-39.3	15.2	0.00e+00	0	63	0	2044723200	46	4210
2026-01-30 15:50:40.43	269.09	22.59	-37.8	-39.4	15.1	0.00e+00	0	62	0	2052063232	46	4256
2026-01-30 15:50:41.44	269.36	22.59	-37.8	-39.3	15.2	0.00e+00	0	62	0	2059403264	46	4232
2026-01-30 15:50:42.45	269.64	22.59	-37.7	-39.3	15.3	0.00e+00	0	62	0	2066743296	46	4207
2026-01-30 15:50:43.45	269.91	22.60	-37.8	-39.3	15.2	0.00e+00	0	62	0	2074083328	46	4233
2026-01-30 15:50:44.47	270.19	22.60	-37.7	-39.3	15.3	0.00e+00	0	62	0	2081423360	46	4213
2026-01-30 15:50:45.48	270.46	22.60	-37.7	-39.3	15.3	0.00e+00	0	62	0	2088763392	46	4207
2026-01-30 15:50:46.49	270.74	22.60	-37.8	-39.3	15.2	0.00e+00	0	62	0	2096103424	46	4235
2026-01-30 15:50:47.50	271.01	22.60	-37.7	-39.3	15.2	0.00e+00	0	62	0	2103443456	46	4205
2026-01-30 15:50:48.50	271.29	22.60	-37.7	-39.3	15.2	0.00e+00	0	62	0	2110783488	46	4216
2026-01-30 15:50:49.51	271.56	22.60	-37.7	-39.3	15.3	0.00e+00	0	62	0	2118123520	46	4201
2026-01-30 15:50:50.52	271.84	22.60	-37.8	-39.4	15.2	0.00e+00	0	62	0	2125463552	46	4253
2026-01-30 15:50:51.53	272.11	22.59	-37.8	-39.4	15.2	0.00e+00	0	62	0	2132803584	46	4243
2026-01-30 15:50:52.54	272.39	22.59	-37.8	-39.4	15.2	0.00e+00	0	62	0	2139095040	46	4258
2026-01-30 15:50:53.55	272.66	22.59	-37.8	-39.4	15.1	0.00e+00	0	62	0	2147483648	46	4289
2026-01-30 15:50:54.56	272.94	22.58	-37.9	-39.6	15.0	1.10e-06	0	62	0	2154823680	46	4343
2026-01-30 15:50:55.57	273.21	22.58	-37.9	-39.6	15.0	0.00e+00	0	62	0	2161115136	46	4353
2026-01-30 15:50:56.58	273.49	22.57	-38.0	-39.6	14.9	0.00e+00	0	62	0	2168455168	46	4365
2026-01-30 15:50:57.59	273.76	22.56	-38.0	-39.7	14.8	0.00e+00	0	62	0	2175795200	46	4401
2026-01-30 15:50:58.60	274.04	22.56	-38.0	-39.7	14.8	0.00e+00	0	62	0	2183135232	46	4407
2026-01-30 15:50:59.61	274.31	22.55	-38.1	-39.7	14.8	0.00e+00	0	62	0	2190475264	46	4432
2026-01-30 15:51:00.62	274.59	22.54	-38.0	-39.7	14.8	0.00e+00	0	62	0	2197815296	46	4417
2026-01-30 15:51:01.63	274.86	22.53	-38.1	-39.8	14.8	0.00e+00	0	62	0	2205155328	46	4445
2026-01-30 15:51:02.64	275.14	22.52	-38.0	-39.7	14.9	0.00e+00	0	62	0	2212495360	46	4398
2026-01-30 15:51:03.65	275.41	22.51	-38.1	-39.8	14.7	0.00e+00	0	62	0	2219835392	46	4453
2026-01-30 15:51:04.66	275.68	22.50	-37.9	-39.6	14.9	1.10e-06	0	62	0	2227175424	46	4353
2026-01-30 15:51:05.67	275.96	22.49	-37.9	-39.5	15.0	0.00e+00	0	62	0	2234515456	46	4317
2026-01-30 15:51:06.68	276.23	22.47	-37.9	-39.5	15.0	0.00e+00	0	62	0	2241855488	46	4319
2026-01-30 15:51:07.69	276.50	22.46	-37.9	-39.5	15.0	0.00e+00	0	62	0	2249195520	46	4326
2026-01-30 15:51:08.70	276.78	22.45	-37.9	-39.5	15.0	0.00e+00	0	62	0	2256535552	46	4319
2026-01-30 15:51:09.71	277.05	22.43	-38.0	-39.6	14.9	0.00e+00	0	62	0	2263875584	46	4362
2026-01-30 15:51:10.72	277.32	22.42	-38.1	-39.8	14.7	0.00e+00	0	62	0	2271215616	46	4468
2026-01-30 15:51:11.73	277.59	22.40	-38.0	-39.7	14.8	0.00e+00	0	62	0	2278555648	46	4406
2026-01-30 15:51:12.74	277.86	22.38	-37.9	-39.5	15.0	1.10e-06	0	62	0	2285895680	46	4307
2026-01-30 15:51:13.75	278.13	22.37	-37.8	-39.5	15.0	0.00e+00	0	63	0	2293235712	46	4292
2026-01-30 15:51:14.76	278.41	22.35	-37.7	-39.3	15.2	0.00e+00	0	62	0	2300575744	46	4213
2026-01-30 15:51:15.77	278.68	22.33	-37.6	-39.2	15.3	0.00e+00	0	62	0	2307915776	46	4171
2026-01-30 15:51:16.78	278.95	22.31	-37.7	-39.3	15.2	0.00e+00	0	62	0	2314207232	46	4196
2026-01-30 15:51:17.79	279.22	22.29	-37.7	-39.2	15.2	0.00e+00	0	62	0	2321547264	46	4183
2026-01-30 15:51:18.80	279.49	22.27	-37.8	-39.3	15.1	0.00e+00	0	62	0	2329935872	46	4242
2026-01-30 15:51:19.81	279.76	22.25	-37.9	-39.6	14.9	0.00e+00	0	62	0	2336227328	46	4343
2026-01-30 15:51:20.82	280.03	22.23	-37.9	-39.6	14.9	0.00e+00	0	62	0	2343567360	46	4352
2026-01-30 15:51:21.83	280.29	22.21	-38.0	-39.6	14.9	0.00e+00	0	63	0	2350907392	46	4372
2026-01-30 15:51:22.84	280.56	22.18	-37.9	-39.5	14.9	0.00e+00	0	62	0	2358247424	46	4330
2026-01-30 15:51:23.86	280.83	22.16	-37.9	-39.5	14.9	0.00e+00	0	62	0	2365587456	46	4340
2026-01-30 15:51:24.87	281.10	22.14	-38.0	-39.6	14.8	0.00e+00	0	62	0	2372927488	46	4370
2026-01-30 15:51:25.88	281.37	22.11	-37.9	-39.5	14.9	0.00e+00	0	63	0	2380267520	46	4317
2026-01-30 15:51:26.89	281.63	22.09	-37.9	-39.5	14.9	0.00e+00	0	62	0	2387607552	46	4324
2026-01-30 15:51:27.90	281.90	22.06	-38.0	-39.6	14.8	0.00e+00	0	63	0	2394947584	46	4377
2026-01-30 15:51:28.91	282.17	22.03	-38.0	-39.6	14.8	0.00e+00	0	62	0	2402287616	46	4367
2026-01-30 15:51:29.92	282.43	22.01	-38.0	-39.7	14.7	3.40e-06	0	62	0	2409627648	46	4428
2026-01-30 15:51:30.93	282.70	21.98	-38.0	-39.7	14.8	0.00e+00	0	62	0	2416967680	46	4415
2026-01-30 15:51:31.94	282.96	21.95	-38.0	-39.7	14.7	1.10e-06	0	63	0	2424307712	46	4422
2026-01-30 15:51:32.95	283.22	21.92	-38.0	-39.7	14.8	0.00e+00	0	62	0	2431647744	46	4408
2026-01-30 15:51:33.96	283.49	21.89	-38.0	-39.7	14.7	0.00e+00	0	63	0	2438987776	46	4405
2026-01-30 15:51:34.97	283.75	21.86	-37.9	-39.6	14.8	0.00e+00	0	63	0	2446327808	46	4357
2026-01-30 15:51:35.98	284.01	21.83	-37.8	-39.5	14.9	0.00e+00	0	63	0	2453667840	46	4299
2026-01-30 15:51:36.99	284.27	21.80	-37.8	-39.4	15.0	0.00e+00	0	63	0	2459959296	46	4282
2026-01-30 15:51:38.00	284.54	21.77	-37.9	-39.5	14.9	0.00e+00	0	62	0	2468347904	46	4309
2026-01-30 15:51:39.01	284.80	21.74	-38.0	-39.6	14.8	0.00e+00	0	62	0	2475687936	46	4373
2026-01-30 15:51:40.02	285.06	21.70	-38.0	-39.7	14.7	1.10e-06	0	63	0	2481979392	46	4402
2026-01-30 15:51:41.03	285.32	21.67	-38.1	-39.7	14.6	1.10e-06	0	62	0	2489319424	46	4437
2026-01-30 15:51:42.04	285.58	21.64	-38.1	-39.8	14.6	0.00e+00	0	63	0	2497708032	46	4476
2026-01-30 15:51:43.06	285.84	21.60	-38.1	-39.8	14.6	0.00e+00	0	62	0	2503999488	46	4465
2026-01-30 15:51:44.07	286.09	21.57	-38.0	-39.7	14.7	0.00e+00	0	62	0	2511339520	46	4398
2026-01-30 15:51:45.08	286.35	21.53	-38.0	-39.6	14.7	0.00e+00	0	63	0	2518679552	46	4383
2026-01-30 15:51:46.09	286.61	21.50	-37.9	-39.6	14.7	0.00e+00	0	62	0	2526019584	46	4367
2026-01-30 15:51:47.10	286.87	21.46	-37.9	-39.5	14.8	0.00e+00	0	62	0	2533359616	46	4324
2026-01-30 15:51:48.11	287.12	21.42	-37.9	-39.5	14.8	0.00e+00	0	62	0	2540699648	46	4331
2026-01-30 15:51:49.11	287.37	21.39	-37.9	-39.6	14.7	0.00e+00	0	62	0	2548039680	46	4359
2026-01-30 15:51:50.12	287.63	21.35	-38.0	-39.6	14.7	0.00e+00	0	63	0	2555379712	46	4387
2026-01-30 15:51:51.13	287.88	21.31	-38.0	-39.7	14.6	1.10e-06	0	62	0	2562719744	46	4425
2026-01-30 15:51:52.14	288.13	21.27	-38.1	-39.8	14.6	1.10e-06	0	62	0	2570059776	46	4444
2026-01-30 15:51:53.15	288.39	21.23	-38.1	-39.8	14.6	0.00e+00	0	62	0	2577399808	46	4449
2026-01-30 15:51:54.16	288.64	21.19	-38.2	-39.9	14.5	1.10e-06	0	63	0	2584739840	46	4502
2026-01-30 15:51:55.17	288.89	21.15	-38.1	-39.9	14.5	2.20e-06	0	62	0	2592079872	46	4507
2026-01-30 15:51:56.18	289.14	21.11	-38.2	-40.0	14.3	1.10e-06	0	62	0	2599419904	46	4566
2026-01-30 15:51:57.20	289.39	21.07	-38.2	-39.9	14.4	1.10e-06	0	62	0	2606759936	46	4541
2026-01-30 15:51:58.21	289.64	21.02	-38.3	-40.0	14.3	1.10e-06	0	62	0	2614099968	46	4596
2026-01-30 15:51:59.22	289.89	20.98	-38.2	-40.0	14.4	1.10e-06	0	63	0	2621440000	46	4556
2026-01-30 15:52:00.23	290.14	20.94	-38.2	-39.9	14.4	0.00e+00	0	63	0	2628780032	46	4514
2026-01-30 15:52:01.24	290.39	20.90	-38.1	-39.9	14.5	0.00e+00	0	63	0	2636120064	46	4497
2026-01-30 15:52:02.25	290.63	20.85	-38.1	-39.8	14.5	0.00e+00	0	63	0	2643460096	46	4489
2026-01-30 15:52:03.26	290.88	20.81	-38.1	-39.8	14.5	0.00e+00	0	63	0	2650800128	46	4471
2026-01-30 15:52:04.27	291.12	20.76	-38.1	-39.8	14.5	2.20e-06	0	62	0	2657091584	46	4465
2026-01-30 15:52:05.28	291.37	20.72	-38.1	-39.8	14.5	1.10e-06	0	63	0	2664431616	46	4468
2026-01-30 15:52:06.29	291.61	20.67	-38.1	-39.9	14.4	0.00e+00	0	63	0	2672820224	46	4510
2026-01-30 15:52:07.30	291.85	20.63	-38.2	-39.9	14.4	0.00e+00	0	63	0	2679111680	46	4541
2026-01-30 15:52:08.31	292.10	20.58	-38.3	-40.1	14.2	2.20e-06	0	63	0	2686451712	46	4627
2026-01-30 15:52:09.32	292.34	20.53	-38.3	-40.1	14.2	1.10e-06	0	62	0	2693791744	46	4606
2026-01-30 15:52:10.33	292.58	20.49	-38.2	-40.0	14.3	2.20e-06	0	63	0	2701131776	46	4566
2026-01-30 15:52:11.34	292.82	20.44	-38.3	-40.1	14.2	0.00e+00	0	63	0	2708471808	46	4603
2026-01-30 15:52:12.35	293.06	20.39	-38.3	-40.1	14.1	0.00e+00	0	62	0	2715811840	46	4641
2026-01-30 15:52:13.36	293.30	20.34	-38.4	-40.1	14.1	2.20e-06	0	62	0	2723151872	46	4649
2026-01-30 15:52:14.38	293.54	20.29	-38.4	-40.2	14.1	3.40e-06	0	63	0	2730491904	46	4653
2026-01-30 15:52:15.39	293.77	20.24	-38.3	-40.1	14.2	0.00e+00	0	63	0	2737831936	46	4628
2026-01-30 15:52:16.40	294.01	20.19	-38.3	-40.0	14.2	1.10e-06	0	63	0	2745171968	46	4592
2026-01-30 15:52:17.41	294.25	20.14	-38.2	-40.0	14.3	2.20e-06	0	63	0	2752512000	46	4573
2026-01-30 15:52:18.42	294.48	20.09	-38.2	-40.0	14.3	1.10e-06	0	63	0	2759852032	46	4572
2026-01-30 15:52:19.43	294.72	20.04	-38.3	-40.1	14.2	0.00e+00	0	63	0	2767192064	46	4617
2026-01-30 15:52:20.44	294.95	19.99	-38.3	-40.1	14.2	2.20e-06	0	63	0	2774532096	46	4599
2026-01-30 15:52:21.45	295.18	19.94	-38.4	-40.2	14.0	1.10e-06	0	63	0	2781872128	46	4690
2026-01-30 15:52:22.46	295.41	19.89	-38.4	-40.2	14.0	2.20e-06	0	63	0	2789212160	46	4700
2026-01-30 15:52:23.47	295.64	19.84	-38.4	-40.2	14.1	2.20e-06	0	63	0	2796552192	46	4655
2026-01-30 15:52:24.49	295.88	19.78	-38.4	-40.2	14.1	0.00e+00	0	63	0	2803892224	46	4686
2026-01-30 15:52:25.50	296.11	19.73	-38.4	-40.2	14.0	3.40e-06	0	63	0	2811232256	46	4694
2026-01-30 15:52:26.51	296.33	19.68	-38.3	-40.0	14.2	0.00e+00	0	63	0	2818572288	46	4583
2026-01-30 15:52:27.52	296.56	19.62	-38.2	-40.0	14.3	1.10e-06	0	63	0	2824863744	46	4569
2026-01-30 15:52:28.53	296.79	19.57	-38.2	-39.9	14.4	0.00e+00	0	63	0	2832203776	46	4525
2026-01-30 15:52:29.54	297.02	19.52	-38.3	-40.0	14.3	3.40e-06	0	62	0	2840592384	46	4572
2026-01-30 15:52:30.55	297.24	19.46	-38.3	-40.0	14.2	0.00e+00	0	63	0	2846883840	46	4586
2026-01-30 15:52:31.56	297.47	19.41	-38.3	-40.1	14.2	0.00e+00	0	63	0	2854223872	46	4612
2026-01-30 15:52:32.57	297.69	19.35	-38.4	-40.2	14.2	0.00e+00	0	63	0	2861563904	46	4655
2026-01-30 15:52:33.58	297.91	19.30	-38.4	-40.2	14.1	2.20e-06	0	63	0	2868903936	46	4690
2026-01-30 15:52:34.59	298.14	19.24	-38.5	-40.4	13.9	4.50e-06	0	63	0	2876243968	46	4762
2026-01-30 15:52:35.61	298.36	19.18	-38.6	-40.4	13.9	2.20e-06	0	63	0	2883584000	46	4801
2026-01-30 15:52:36.62	298.58	19.13	-38.7	-40.5	13.8	3.40e-06	0	63	0	2890924032	46	4856
2026-01-30 15:52:37.63	298.80	19.07	-38.7	-40.6	13.7	4.50e-06	0	62	0	2898264064	46	4893
2026-01-30 15:52:38.64	299.02	19.02	-38.6	-40.5	13.7	1.02e-05	0	63	0	2905604096	47	4570
2026-01-30 15:52:39.65	299.24	18.96	-38.6	-40.5	13.7	4.50e-06	0	63	0	2912944128	47	4582
2026-01-30 15:52:40.66	299.45	18.90	-38.6	-40.5	13.8	6.80e-06	0	63	0	2920284160	47	4578
2026-01-30 15:52:41.67	299.67	18.84	-38.7	-40.6	13.7	0.00e+00	0	63	0	2927624192	47	4604
2026-01-30 15:52:42.68	299.89	18.79	-38.5	-40.4	13.9	6.80e-06	0	63	0	2934964224	47	4498
2026-01-30 15:52:43.69	300.10	18.73	-38.4	-40.2	14.1	3.40e-06	0	63	0	2942304256	47	4416
2026-01-30 15:52:44.70	300.32	18.67	-38.4	-40.2	14.1	2.20e-06	0	63	0	2949644288	47	4424
2026-01-30 15:52:45.71	300.53	18.61	-38.5	-40.3	14.0	4.50e-06	0	63	0	2956984320	47	4462
2026-01-30 15:52:46.72	300.74	18.55	-38.5	-40.4	13.9	1.10e-06	0	63	0	2964324352	47	4502
2026-01-30 15:52:47.73	300.95	18.49	-38.5	-40.4	13.9	6.80e-06	0	63	0	2971664384	47	4502
2026-01-30 15:52:48.74	301.17	18.43	-38.5	-40.4	13.8	2.20e-06	0	63	0	2979004416	47	4521
2026-01-30 15:52:49.75	301.38	18.37	-38.5	-40.4	13.9	1.10e-06	0	62	0	2986344448	47	4505
2026-01-30 15:52:50.76	301.59	18.31	-38.6	-40.4	13.8	6.80e-06	0	63	0	2993684480	47	4544
2026-01-30 15:52:51.77	301.79	18.25	-38.5	-40.3	13.9	4.50e-06	0	63	0	2999975936	47	4487
2026-01-30 15:52:52.78	302.00	18.19	-38.5	-40.3	13.9	3.40e-06	0	63	0	3008364544	47	4492
2026-01-30 15:52:53.79	302.21	18.13	-38.5	-40.3	13.9	1.10e-06	0	62	0	3015704576	47	4488
2026-01-30 15:52:54.80	302.42	18.07	-38.5	-40.3	13.9	9.10e-06	0	63	0	3021996032	47	4482
2026-01-30 15:52:55.81	302.62	18.01	-38.5	-40.3	13.9	1.10e-06	0	63	0	3029336064	47	4479
2026-01-30 15:52:56.82	302.83	17.95	-38.6	-40.4	13.8	1.37e-05	0	63	0	3036676096	47	4543
2026-01-30 15:52:57.84	303.03	17.89	-38.6	-40.5	13.7	1.37e-05	0	63	0	3044016128	47	4565
2026-01-30 15:52:58.85	303.23	17.83	-38.6	-40.5	13.7	8.00e-06	0	63	0	3051356160	47	4574
2026-01-30 15:52:59.86	303.44	17.77	-38.7	-40.6	13.6	1.25e-05	0	63	0	3058696192	47	4626
2026-01-30 15:53:00.87	303.64	17.70	-38.7	-40.6	13.6	1.14e-05	0	63	0	3066036224	47	4647
2026-01-30 15:53:01.88	303.84	17.64	-38.8	-40.8	13.5	1.60e-05	0	63	0	3073376256	47	4721
2026-01-30 15:53:02.89	304.04	17.58	-38.8	-40.7	13.5	1.25e-05	0	63	0	3080716288	47	4704
2026-01-30 15:53:03.90	304.24	17.52	-38.8	-40.7	13.5	2.05e-05	0	63	0	3088056320	47	4696
2026-01-30 15:53:04.91	304.44	17.45	-38.8	-40.8	13.4	2.05e-05	0	63	0	3095396352	47	4712
2026-01-30 15:53:05.92	304.63	17.39	-38.8	-40.8	13.4	1.71e-05	0	63	0	3102736384	47	4722
2026-01-30 15:53:06.93	304.83	17.33	-38.9	-40.9	13.3	2.40e-05	0	63	0	3110076416	47	4769
2026-01-30 15:53:07.94	305.02	17.27	-38.8	-40.8	13.4	1.25e-05	0	63	0	3117416448	47	4706
2026-01-30 15:53:08.95	305.22	17.20	-38.8	-40.8	13.4	1.37e-05	0	63	0	3124756480	47	4736
2026-01-30 15:53:09.96	305.41	17.14	-38.8	-40.8	13.4	1.83e-05	0	63	0	3132096512	47	4713
2026-01-30 15:53:10.97	305.61	17.08	-38.9	-40.8	13.3	1.60e-05	0	63	0	3139436544	47	4755
2026-01-30 15:53:11.98	305.80	17.01	-38.8	-40.7	13.5	1.71e-05	0	63	0	3146776576	47	4696
2026-01-30 15:53:12.99	305.99	16.95	-38.8	-40.7	13.5	1.60e-05	0	63	0	3154116608	47	4670
2026-01-30 15:53:14.01	306.18	16.88	-38.8	-40.7	13.4	1.48e-05	0	63	0	3161456640	47	4697
2026-01-30 15:53:15.02	306.37	16.82	-38.7	-40.6	13.5	1.37e-05	0	63	0	3167748096	47	4639
2026-01-30 15:53:16.03	306.56	16.76	-38.7	-40.6	13.5	1.37e-05	0	63	0	3175088128	47	4644
2026-01-30 15:53:17.04	306.75	16.69	-38.8	-40.7	13.5	3.40e-06	0	63	0	3183476736	47	4681
2026-01-30 15:53:18.05	306.94	16.63	-38.7	-40.7	13.5	1.37e-05	0	63	0	3189768192	47	4671
2026-01-30 15:53:19.06	307.13	16.56	-38.8	-40.8	13.4	1.94e-05	0	63	0	3197108224	47	4706
2026-01-30 15:53:20.07	307.31	16.50	-38.8	-40.8	13.3	1.94e-05	0	63	0	3204448256	47	4710
2026-01-30 15:53:21.08	307.50	16.43	-38.9	-40.9	13.3	1.48e-05	0	63	0	3211788288	47	4767
2026-01-30 15:53:22.08	307.68	16.37	-38.9	-40.9	13.2	2.28e-05	0	63	0	3219128320	47	4814
2026-01-30 15:53:23.10	307.87	16.30	-39.0	-41.0	13.1	2.74e-05	0	63	0	3226468352	47	4857
2026-01-30 15:53:24.11	308.05	16.24	-39.0	-41.1	13.1	4.92e-05	0	63	0	3233808384	47	4883
2026-01-30 15:53:25.12	308.23	16.17	-39.0	-41.1	13.0	3.89e-05	0	63	0	3241148416	47	4884
2026-01-30 15:53:26.13	308.41	16.11	-39.0	-41.1	13.0	4.00e-05	0	63	0	3248488448	47	4876
2026-01-30 15:53:27.14	308.60	16.04	-39.1	-41.1	13.0	4.34e-05	0	63	0	3255828480	47	4909
2026-01-30 15:53:28.15	308.78	15.98	-39.0	-41.1	13.0	4.23e-05	0	63	0	3263168512	47	4895
2026-01-30 15:53:29.16	308.95	15.91	-39.1	-41.2	12.9	4.00e-05	0	63	0	3270508544	47	4927
2026-01-30 15:53:30.17	309.13	15.85	-39.1	-41.2	12.8	6.17e-05	0	63	0	3277848576	47	4981
2026-01-30 15:53:31.18	309.31	15.78	-39.2	-41.3	12.8	6.06e-05	0	63	0	3285188608	47	5000
2026-01-30 15:53:32.19	309.49	15.72	-39.1	-41.3	12.8	5.83e-05	0	63	0	3292528640	47	4984
2026-01-30 15:53:33.20	309.66	15.65	-39.4	-41.5	12.8	6.86e-05	0	63	0	3299868672	48	4843
2026-01-30 15:53:34.21	309.84	15.58	-39.3	-41.4	12.9	6.52e-05	0	63	0	3307208704	48	4772
2026-01-30 15:53:35.23	310.02	15.52	-39.3	-41.4	12.8	5.72e-05	0	63	0	3314548736	48	4799
2026-01-30 15:53:36.23	310.19	15.45	-39.2	-41.3	12.9	5.83e-05	0	63	0	3321888768	48	4748
2026-01-30 15:53:37.25	310.36	15.39	-39.2	-41.2	13.1	4.57e-05	0	63	0	3329228800	48	4688
2026-01-30 15:53:38.26	310.54	15.32	-39.1	-41.2	13.1	2.97e-05	0	63	0	3336568832	48	4658
2026-01-30 15:53:39.27	310.71	15.25	-39.1	-41.2	13.0	3.08e-05	0	63	0	3342860288	48	4680
2026-01-30 15:53:40.28	310.88	15.19	-39.2	-41.2	13.0	3.20e-05	0	63	0	3350200320	48	4702
2026-01-30 15:53:41.29	311.05	15.12	-39.2	-41.3	12.9	5.49e-05	0	63	0	3358588928	48	4749
2026-01-30 15:53:42.30	311.22	15.05	-39.3	-41.4	12.8	7.66e-05	0	63	0	3364880384	48	4782
2026-01-30 15:53:43.31	311.39	14.99	-39.3	-41.4	12.8	5.95e-05	0	63	0	3372220416	48	4805
2026-01-30 15:53:44.32	311.55	14.92	-39.4	-41.5	12.6	9.26e-05	0	63	0	3379560448	48	4867
2026-01-30 15:53:45.33	311.72	14.86	-39.5	-41.7	12.5	1.06e-04	0	63	0	3386900480	48	4934
2026-01-30 15:53:46.34	311.89	14.79	-39.5	-41.8	12.4	1.54e-04	0	63	0	3394240512	48	4988
2026-01-30 15:53:47.35	312.05	14.72	-39.6	-41.8	12.3	1.64e-04	0	63	0	3401580544	48	5023
2026-01-30 15:53:48.36	312.22	14.66	-39.6	-41.9	12.3	1.83e-04	0	62	0	3408920576	48	5057
2026-01-30 15:53:49.37	312.38	14.59	-39.6	-41.9	12.2	2.30e-04	0	63	0	3416260608	48	5090
2026-01-30 15:53:50.38	312.55	14.52	-39.6	-41.9	12.2	2.31e-04	0	63	0	3423600640	48	5077
2026-01-30 15:53:51.39	312.71	14.46	-39.6	-41.9	12.3	2.63e-04	0	63	0	3430940672	48	5051
2026-01-30 15:53:52.40	312.87	14.39	-39.6	-41.8	12.3	2.35e-04	0	63	0	3438280704	48	5024
2026-01-30 15:53:53.41	313.03	14.32	-39.5	-41.7	12.4	1.68e-04	0	63	0	3445620736	48	4977
2026-01-30 15:53:54.42	313.20	14.26	-39.4	-41.6	12.5	1.44e-04	0	63	0	3452960768	48	4906
2026-01-30 15:53:55.43	313.36	14.19	-39.4	-41.6	12.6	1.27e-04	0	63	0	3460300800	48	4903
2026-01-30 15:53:56.44	313.51	14.12	-39.4	-41.6	12.6	1.43e-04	0	63	0	3467640832	48	4888
2026-01-30 15:53:57.45	313.67	14.06	-39.2	-41.3	12.9	6.40e-05	0	63	0	3474980864	48	4714
2026-01-30 15:53:58.46	313.83	13.99	-39.2	-41.3	12.9	5.37e-05	0	63	0	3482320896	48	4720
2026-01-30 15:53:59.47	313.99	13.92	-39.3	-41.4	12.8	5.14e-05	0	63	0	3488612352	48	4770
2026-01-30 15:54:00.48	314.15	13.86	-39.2	-41.2	12.9	6.17e-05	0	63	0	3497000960	48	4705
2026-01-30 15:54:01.49	314.30	13.79	-39.2	-41.3	12.9	6.29e-05	0	63	0	3504340992	48	4714
2026-01-30 15:54:02.50	314.46	13.72	-39.2	-41.3	12.8	5.95e-05	0	63	0	3510632448	48	4717
2026-01-30 15:54:03.51	314.61	13.65	-39.2	-41.3	12.8	6.98e-05	0	63	0	3517972480	48	4709
2026-01-30 15:54:04.52	314.77	13.59	-39.3	-41.4	12.7	8.58e-05	0	63	0	3525312512	48	4802
2026-01-30 15:54:05.53	314.92	13.52	-39.3	-41.5	12.6	1.02e-04	0	63	0	3532652544	48	4826
2026-01-30 15:54:06.54	315.07	13.45	-39.3	-41.4	12.7	1.04e-04	0	63	0	3539992576	48	4799
2026-01-30 15:54:07.55	315.22	13.39	-39.3	-41.5	12.6	1.05e-04	0	63	0	3547332608	48	4841
2026-01-30 15:54:08.56	315.37	13.32	-39.4	-41.6	12.4	1.70e-04	0	63	0	3554672640	48	4906
2026-01-30 15:54:09.57	315.53	13.25	-39.4	-41.7	12.4	1.53e-04	0	63	0	3562012672	48	4938
2026-01-30 15:54:10.58	315.68	13.19	-39.5	-41.8	12.3	1.94e-04	0	63	0	3569352704	48	5012
2026-01-30 15:54:11.59	315.82	13.12	-39.6	-41.9	12.2	2.59e-04	0	63	0	3576692736	48	5062
2026-01-30 15:54:12.60	315.97	13.05	-39.7	-42.0	12.1	3.27e-04	0	63	0	3584032768	48	5122
2026-01-30 15:54:13.62	316.12	12.99	-39.7	-42.1	12.0	3.49e-04	0	63	0	3591372800	48	5169
2026-01-30 15:54:14.63	316.27	12.92	-39.7	-42.1	11.9	4.46e-04	0	63	0	3598712832	49	4911
2026-01-30 15:54:15.64	316.42	12.85	-39.8	-42.1	11.8	5.37e-04	0	63	0	3606052864	49	4920
2026-01-30 15:54:16.65	316.56	12.79	-39.7	-42.1	12.0	4.24e-04	0	63	0	3613392896	49	4874
2026-01-30 15:54:17.66	316.71	12.72	-39.8	-42.1	11.9	4.42e-04	0	63	0	3620732928	49	4916
2026-01-30 15:54:18.67	316.85	12.65	-39.6	-42.0	12.0	4.29e-04	0	63	0	3628072960	49	4831
2026-01-30 15:54:19.68	317.00	12.59	-39.6	-41.9	12.1	3.32e-04	0	63	0	3635412992	49	4790
2026-01-30 15:54:20.69	317.14	12.52	-39.6	-41.9	12.1	2.52e-04	0	63	0	3642753024	49	4777
2026-01-30 15:54:21.70	317.28	12.45	-39.5	-41.8	12.2	2.80e-04	0	63	0	3650093056	49	4740
2026-01-30 15:54:22.71	317.43	12.39	-39.5	-41.7	12.2	2.48e-04	0	63	0	3657433088	49	4693
2026-01-30 15:54:23.72	317.57	12.32	-39.5	-41.8	12.2	2.37e-04	0	63	0	3663724544	49	4715
2026-01-30 15:54:24.73	317.71	12.25	-39.5	-41.8	12.2	2.22e-04	0	63	0	3672113152	49	4710
2026-01-30 15:54:25.74	317.85	12.19	-39.4	-41.7	12.3	2.09e-04	0	63	0	3679453184	49	4673
2026-01-30 15:54:26.76	317.99	12.12	-39.5	-41.7	12.2	2.25e-04	0	63	0	3685744640	49	4705
2026-01-30 15:54:27.76	318.13	12.05	-39.5	-41.8	12.2	2.53e-04	0	63	0	3693084672	49	4723
2026-01-30 15:54:28.78	318.27	11.99	-39.6	-41.9	12.1	3.03e-04	0	63	0	3700424704	49	4775
2026-01-30 15:54:29.79	318.41	11.92	-39.6	-41.9	12.0	3.18e-04	0	63	0	3707764736	49	4807
2026-01-30 15:54:30.80	318.54	11.85	-39.6	-41.9	12.1	3.26e-04	0	63	0	3715104768	49	4797
2026-01-30 15:54:31.81	318.68	11.79	-39.7	-42.0	11.9	4.37e-04	0	63	0	3722444800	49	4870
2026-01-30 15:54:32.82	318.82	11.72	-39.7	-42.1	11.8	4.40e-04	0	63	0	3729784832	49	4893
2026-01-30 15:54:33.83	318.95	11.65	-39.8	-42.3	11.6	6.37e-04	0	63	0	3737124864	49	4998
2026-01-30 15:54:34.84	319.09	11.59	-39.8	-42.3	11.6	7.87e-04	0	63	0	3744464896	49	5024
2026-01-30 15:54:35.85	319.22	11.52	-39.9	-42.5	11.4	9.50e-04	0	63	0	3751804928	49	5103
2026-01-30 15:54:36.86	319.35	11.46	-39.9	-42.5	11.4	1.16e-03	0	63	0	3759144960	49	5118
2026-01-30 15:54:37.87	319.49	11.39	-40.0	-42.6	11.2	1.27e-03	0	63	0	3766484992	49	5210
2026-01-30 15:54:38.88	319.62	11.32	-40.1	-42.7	11.1	1.57e-03	0	63	0	3773825024	49	5261
2026-01-30 15:54:39.89	319.75	11.26	-40.2	-42.8	11.0	1.99e-03	0	63	0	3781165056	49	5335
2026-01-30 15:54:40.90	319.88	11.19	-40.1	-42.8	11.0	1.99e-03	0	62	0	3788505088	49	5293
2026-01-30 15:54:41.91	320.02	11.13	-40.0	-42.6	11.2	1.68e-03	0	63	0	3795845120	49	5181
2026-01-30 15:54:42.93	320.15	11.06	-40.0	-42.6	11.2	1.48e-03	0	63	0	3803185152	49	5197
2026-01-30 15:54:43.94	320.28	10.99	-40.0	-42.6	11.2	1.56e-03	0	63	0	3810525184	49	5210
2026-01-30 15:54:44.95	320.41	10.93	-39.9	-42.5	11.3	1.34e-03	0	63	0	3817865216	49	5110
2026-01-30 15:54:45.96	320.53	10.86	-39.8	-42.3	11.5	8.37e-04	0	63	0	3825205248	49	5019
2026-01-30 15:54:46.97	320.66	10.80	-39.8	-42.3	11.6	8.31e-04	0	63	0	3831496704	49	4985
2026-01-30 15:54:47.98	320.79	10.73	-39.8	-42.3	11.5	9.67e-04	0	63	0	3838836736	49	5005
2026-01-30 15:54:48.99	320.92	10.67	-39.8	-42.3	11.5	9.70e-04	0	63	0	3847225344	49	5033
2026-01-30 15:54:50.00	321.04	10.60	-39.9	-42.4	11.4	1.00e-03	0	63	0	3853516800	49	5067
2026-01-30 15:54:51.01	321.17	10.53	-39.9	-42.5	11.3	1.31e-03	0	63	0	3860856832	49	5112
2026-01-30 15:54:52.02	321.30	10.47	-40.0	-42.5	11.2	1.41e-03	0	63	0	3868196864	49	5159
2026-01-30 15:54:53.03	321.42	10.40	-39.9	-42.5	11.2	1.57e-03	0	63	0	3875536896	49	5144
2026-01-30 15:54:54.04	321.54	10.34	-39.9	-42.5	11.2	1.50e-03	0	63	0	3882876928	49	5108
2026-01-30 15:54:55.05	321.67	10.27	-39.7	-42.2	11.5	1.10e-03	0	63	0	3890216960	49	4972
2026-01-30 15:54:56.06	321.79	10.21	-39.8	-42.3	11.4	1.04e-03	0	63	0	3897556992	49	5015
2026-01-30 15:54:57.06	321.91	10.14	-39.8	-42.3	11.4	1.13e-03	0	63	0	3904897024	49	5003
2026-01-30 15:54:58.08	322.04	10.08	-39.8	-42.4	11.3	1.16e-03	0	63	0	3912237056	49	5042
2026-01-30 15:54:59.09	322.16	10.01	-39.8	-42.4	11.4	1.13e-03	0	63	0	3919577088	49	5043
2026-01-30 15:55:00.10	322.28	9.95	-39.8	-42.4	11.3	1.28e-03	0	63	0	3926917120	49	5068
2026-01-30 15:55:01.10	322.40	9.88	-39.9	-42.6	11.1	1.56e-03	0	63	0	3934257152	49	5161
2026-01-30 15:55:02.11	322.52	9.82	-39.9	-42.4	11.2	1.43e-03	0	63	0	3941597184	49	5083
2026-01-30 15:55:03.13	322.64	9.75	-39.9	-42.5	11.2	1.50e-03	0	63	0	3948937216	49	5126
2026-01-30 15:55:04.13	322.76	9.69	-40.0	-42.7	11.0	1.75e-03	0	63	0	3956277248	49	5221
2026-01-30 15:55:05.14	322.88	9.63	-39.9	-42.6	11.1	1.84e-03	0	63	0	3963617280	49	5163
2026-01-30 15:55:06.16	323.00	9.56	-39.9	-42.5	11.1	1.79e-03	0	63	0	3970957312	49	5158
2026-01-30 15:55:07.17	323.11	9.50	-40.0	-42.6	11.0	1.86e-03	0	63	0	3978297344	49	5217
2026-01-30 15:55:08.18	323.23	9.43	-40.0	-42.6	11.0	2.17e-03	0	63	0	3984588800	49	5211
2026-01-30 15:55:09.19	323.35	9.37	-40.0	-42.7	10.9	2.42e-03	0	63	0	3992977408	49	5256
2026-01-30 15:55:10.20	323.46	9.30	-40.1	-42.8	10.8	2.86e-03	0	63	0	4000317440	49	5316
2026-01-30 15:55:11.21	323.58	9.24	-40.1	-42.8	10.7	3.06e-03	0	63	0	4006608896	49	5321
2026-01-30 15:55:12.22	323.69	9.18	-40.0	-42.8	10.8	2.82e-03	0	63	0	4013948928	49	5295
2026-01-30 15:55:13.23	323.81	9.11	-40.1	-42.8	10.7	3.00e-03	0	63	0	4021288960	49	5335
2026-01-30 15:55:14.24	323.92	9.05	-40.1	-42.9	10.6	3.50e-03	0	63	0	4028628992	49	5372
2026-01-30 15:55:15.25	324.04	8.98	-40.1	-42.8	10.7	3.69e-03	0	63	0	4035969024	49	5324
2026-01-30 15:55:16.26	324.15	8.92	-40.1	-42.9	10.6	3.62e-03	0	63	0	4043309056	49	5369
2026-01-30 15:55:17.27	324.26	8.86	-40.1	-43.0	10.5	4.45e-03	0	63	0	4050649088	49	5413
2026-01-30 15:55:18.28	324.37	8.79	-40.1	-43.0	10.5	3.97e-03	0	63	0	4057989120	49	5416
2026-01-30 15:55:19.29	324.49	8.73	-40.1	-43.0	10.5	4.33e-03	0	63	0	4065329152	49	5418
2026-01-30 15:55:20.30	324.60	8.66	-40.1	-43.0	10.4	4.98e-03	0	63	0	4072669184	49	5439
2026-01-30 15:55:21.31	324.71	8.60	-40.2	-43.1	10.4	5.79e-03	0	63	0	4080009216	50	5166
2026-01-30 15:55:22.32	324.82	8.54	-40.1	-43.0	10.5	4.53e-03	0	63	0	4087349248	50	5101
2026-01-30 15:55:23.33	324.93	8.47	-40.1	-43.0	10.4	4.84e-03	0	63	0	4094689280	50	5137
2026-01-30 15:55:24.34	325.04	8.41	-40.1	-43.0	10.4	5.04e-03	0	63	0	4102029312	50	5141
2026-01-30 15:55:25.35	325.15	8.35	-40.2	-43.1	10.3	5.56e-03	0	63	0	4109369344	50	5162
2026-01-30 15:55:26.36	325.26	8.29	-40.1	-43.0	10.4	5.31e-03	0	63	0	4116709376	50	5121
2026-01-30 15:55:27.38	325.36	8.22	-40.1	-43.0	10.4	5.13e-03	0	63	0	4124049408	50	5105
2026-01-30 15:55:28.39	325.47	8.16	-40.1	-43.0	10.4	5.25e-03	0	63	0	4131389440	50	5106
2026-01-30 15:55:29.40	325.58	8.10	-40.0	-42.9	10.4	4.80e-03	0	63	0	4138729472	50	5078
2026-01-30 15:55:30.41	325.69	8.03	-40.7	-44.0	9.3	5.12e-03	0	63	0	4146069504	50	5771
2026-01-30 15:55:31.42	325.79	7.97	-44.2	-54.5	3.8	8.41e-01	0	63	104	4147118080	57	12836
2026-01-30 15:55:32.43	325.90	7.91	-44.8	-55.5	3.8	8.47e-01	0	63	104	4147118080	59	12931
2026-01-30 15:55:33.44	326.00	7.84	-45.0	-55.9	3.8	8.46e-01	0	63	104	4147118080	59	13537
2026-01-30 15:55:34.45	326.11	7.78	-45.2	-56.4	3.8	8.47e-01	0	63	104	4147118080	60	13491
2026-01-30 15:55:35.47	326.22	7.72	-45.3	-56.5	3.8	8.46e-01	0	63	104	4147118080	60	13658
2026-01-30 15:55:36.48	326.32	7.66	-45.4	-56.7	3.8	8.46e-01	0	63	104	4147118080	60	13914
2026-01-30 15:55:37.49	326.42	7.59	-45.5	-56.7	3.8	8.46e-01	0	63	104	4147118080	60	14013
2026-01-30 15:55:38.50	326.53	7.53	-45.5	-56.7	3.8	8.45e-01	0	63	104	4147118080	60	13997
2026-01-30 15:55:39.51	326.63	7.47	-45.5	-56.7	3.8	8.46e-01	0	63	104	4147118080	60	14030
2026-01-30 15:55:40.52	326.73	7.41	-45.5	-56.7	3.8	8.46e-01	0	63	104	4147118080	60	13971
2026-01-30 15:55:41.53	326.83	7.35	-45.4	-56.6	3.8	8.47e-01	0	63	104	4147118080	60	13839
2026-01-30 15:55:42.54	326.94	7.28	-45.4	-56.6	3.8	8.46e-01	0	63	104	4147118080	60	13788
2026-01-30 15:55:43.55	327.04	7.22	-45.4	-56.6	3.8	8.46e-01	0	63	104	4147118080	60	13788
2026-01-30 15:55:44.56	327.14	7.16	-45.4	-56.6	3.8	8.44e-01	0	63	104	4147118080	60	13871
2026-01-30 15:55:45.57	327.24	7.10	-45.4	-56.5	3.8	8.45e-01	0	63	104	4147118080	60	13720
2026-01-30 15:55:46.58	327.34	7.04	-45.3	-56.5	3.8	8.45e-01	0	63	104	4147118080	60	13718
2026-01-30 15:55:47.59	327.44	6.98	-45.4	-56.6	3.8	8.46e-01	0	63	104	4147118080	60	13765
2026-01-30 15:55:48.60	327.54	6.91	-45.3	-56.6	3.8	8.45e-01	0	63	104	4147118080	60	13734
2026-01-30 15:55:49.61	327.64	6.85	-45.3	-56.6	3.8	8.46e-01	0	63	104	4147118080	60	13739
2026-01-30 15:55:50.62	327.73	6.79	-45.3	-56.6	3.8	8.46e-01	0	63	104	4147118080	60	13740
2026-01-30 15:55:51.63	327.83	6.73	-45.3	-56.5	3.8	8.46e-01	0	63	104	4147118080	60	13717
2026-01-30 15:55:52.64	327.93	6.67	-45.3	-56.5	3.8	8.45e-01	0	63	104	4147118080	60	13686
2026-01-30 15:55:53.65	328.03	6.61	-45.3	-56.5	3.8	8.46e-01	0	63	104	4147118080	60	13654
2026-01-30 15:55:54.67	328.13	6.55	-45.3	-56.5	3.8	8.45e-01	0	63	104	4147118080	60	13682
2026-01-30 15:55:55.68	328.22	6.49	-45.3	-56.5	3.8	8.47e-01	0	63	104	4147118080	60	13699
2026-01-30 15:55:56.69	328.32	6.43	-45.3	-56.5	3.8	8.46e-01	0	63	104	4147118080	60	13708
