passes_logs/2026/01/30/R2.0S_Moscow/R2.0S_Moscow__20260130_023016_FENGYUN_3D_rec.log

#Pass ID: 20260130_023016_FENGYUN 3D
#Satellite: FENGYUN 3D
#Configuration: FENGYUN 3D
#almurnet v.1.7.20251203
#Start time: 2026-01-30 02:30:16

#Version: 2.2.20231116
#Station: R2.0S_Moscow
#Location: 37.707566 lon 55.798166 lat
#TLE: 1 43010U 17072A   26028.95797775  .00000451  00000+0  23492-3 0  9991
#TLE: 2 43010  98.9958   0.9922 0002505  85.7480 274.3981 14.19703224425237

#Time	Az	El	Level	Level2	SNR	BER	BlckErr	Temp	State	Recorded	gain1	gain2
2026-01-30 02:30:16.32	13.73	2.01	-40.8	-52.3	3.8	8.45e-01	0	51	0	0	53	13396
2026-01-30 02:30:17.32	13.70	2.07	-40.8	-52.3	3.8	8.45e-01	0	51	104	0	53	13355
2026-01-30 02:30:18.33	13.67	2.13	-40.8	-52.3	3.8	8.46e-01	0	52	104	0	53	13334
2026-01-30 02:30:19.35	13.64	2.20	-40.8	-52.3	3.8	8.47e-01	0	52	104	0	53	13373
2026-01-30 02:30:20.36	13.62	2.26	-40.8	-52.3	3.8	8.45e-01	0	52	104	0	53	13373
2026-01-30 02:30:21.36	13.59	2.32	-40.8	-52.3	3.8	8.47e-01	0	52	104	0	53	13377
2026-01-30 02:30:22.37	13.56	2.39	-40.8	-52.3	3.8	8.46e-01	0	52	104	0	53	13384
2026-01-30 02:30:23.38	13.53	2.45	-40.8	-52.3	3.8	8.46e-01	0	52	104	0	53	13358
2026-01-30 02:30:24.39	13.50	2.51	-40.8	-52.3	3.8	8.46e-01	0	52	104	0	53	13336
2026-01-30 02:30:25.40	13.47	2.58	-40.8	-52.4	3.8	8.45e-01	0	52	104	0	53	13415
2026-01-30 02:30:26.41	13.45	2.64	-40.8	-52.3	3.8	8.46e-01	0	52	104	0	53	13407
2026-01-30 02:30:27.43	13.42	2.71	-40.8	-52.3	3.8	8.47e-01	0	52	104	0	53	13353
2026-01-30 02:30:28.44	13.39	2.77	-40.8	-52.3	3.8	8.46e-01	0	52	104	0	53	13371
2026-01-30 02:30:29.45	13.36	2.84	-40.8	-52.3	3.8	8.47e-01	0	52	104	0	53	13375
2026-01-30 02:30:30.46	13.33	2.90	-40.8	-52.3	3.8	8.46e-01	0	53	104	0	53	13392
2026-01-30 02:30:31.47	13.30	2.97	-40.8	-52.3	3.8	8.46e-01	0	53	104	0	53	13375
2026-01-30 02:30:32.48	13.27	3.03	-40.8	-52.3	3.8	8.47e-01	0	53	104	0	53	13325
2026-01-30 02:30:33.49	13.24	3.10	-40.8	-52.3	3.8	8.46e-01	0	53	104	0	53	13329
2026-01-30 02:30:34.50	13.21	3.16	-40.8	-52.3	3.8	8.47e-01	0	53	104	0	53	13288
2026-01-30 02:30:35.51	13.18	3.23	-40.8	-52.2	3.8	8.46e-01	0	53	104	0	53	13247
2026-01-30 02:30:36.52	13.15	3.30	-40.8	-52.2	3.8	8.47e-01	0	53	104	0	53	13172
2026-01-30 02:30:37.52	13.12	3.36	-40.7	-52.2	3.8	8.46e-01	0	53	104	0	53	13133
2026-01-30 02:30:38.54	13.09	3.43	-40.7	-52.2	3.8	8.46e-01	0	53	104	0	53	13112
2026-01-30 02:30:39.54	13.06	3.49	-40.7	-52.1	3.8	8.47e-01	0	53	104	0	53	13021
2026-01-30 02:30:40.55	13.03	3.56	-40.7	-52.1	3.8	8.46e-01	0	53	104	0	53	13059
2026-01-30 02:30:41.56	13.00	3.63	-40.7	-52.0	3.8	8.46e-01	0	53	104	0	53	12880
2026-01-30 02:30:42.58	12.97	3.70	-40.7	-52.0	3.8	8.46e-01	0	53	104	0	53	12908
2026-01-30 02:30:43.59	12.94	3.76	-40.7	-51.9	3.8	8.47e-01	0	54	104	0	53	12671
2026-01-30 02:30:44.60	12.91	3.83	-40.7	-51.8	3.8	8.46e-01	0	53	104	0	53	12615
2026-01-30 02:30:45.61	12.87	3.90	-40.7	-51.8	3.8	8.46e-01	0	53	104	0	53	12587
2026-01-30 02:30:46.62	12.84	3.96	-40.7	-51.6	3.8	8.47e-01	0	54	104	0	53	12327
2026-01-30 02:30:47.63	12.81	4.03	-40.7	-51.4	3.8	8.46e-01	0	54	104	0	53	11965
2026-01-30 02:30:48.64	12.78	4.10	-40.7	-51.4	3.8	8.46e-01	0	54	104	0	53	12068
2026-01-30 02:30:49.65	12.75	4.17	-40.7	-51.3	3.8	8.47e-01	0	54	104	0	53	11900
2026-01-30 02:30:50.66	12.71	4.24	-40.6	-51.2	3.8	8.46e-01	0	54	104	0	53	11795
2026-01-30 02:30:51.67	12.68	4.30	-40.7	-51.4	3.8	8.45e-01	0	54	104	0	53	12039
2026-01-30 02:30:52.68	12.65	4.37	-40.7	-51.6	3.8	8.46e-01	0	54	104	0	53	12357
2026-01-30 02:30:53.69	12.62	4.44	-40.7	-51.3	3.8	8.45e-01	0	54	104	0	53	11911
2026-01-30 02:30:54.70	12.58	4.51	-40.7	-51.3	3.8	8.46e-01	0	54	104	0	53	11894
2026-01-30 02:30:55.71	12.55	4.58	-40.7	-51.3	3.8	8.45e-01	0	54	104	0	53	11939
2026-01-30 02:30:56.72	12.52	4.65	-40.6	-51.3	3.8	8.46e-01	0	54	104	0	53	11831
2026-01-30 02:30:57.73	12.48	4.72	-40.6	-51.1	3.8	8.46e-01	0	54	104	0	53	11670
2026-01-30 02:30:58.74	12.45	4.79	-40.6	-51.1	3.8	8.46e-01	0	54	104	0	53	11676
2026-01-30 02:30:59.75	12.41	4.86	-40.6	-50.8	3.8	8.45e-01	0	54	104	0	53	11276
2026-01-30 02:31:00.76	12.38	4.93	-40.6	-50.8	3.8	8.45e-01	0	54	104	0	53	11237
2026-01-30 02:31:01.77	12.35	5.00	-40.6	-50.6	3.8	8.45e-01	0	54	104	0	53	10926
2026-01-30 02:31:02.78	12.31	5.07	-40.5	-50.4	3.8	8.47e-01	0	55	104	0	53	10751
2026-01-30 02:31:03.79	12.28	5.14	-40.6	-50.5	3.8	8.45e-01	0	55	104	0	53	10902
2026-01-30 02:31:04.80	12.24	5.21	-40.5	-50.2	3.9	8.46e-01	0	54	104	0	53	10443
2026-01-30 02:31:05.81	12.21	5.28	-40.5	-50.2	3.9	8.44e-01	0	55	104	0	53	10498
2026-01-30 02:31:06.82	12.17	5.35	-40.5	-50.4	3.8	8.46e-01	0	55	104	0	53	10719
2026-01-30 02:31:07.83	12.14	5.42	-40.5	-50.4	3.8	8.45e-01	0	55	104	0	53	10714
2026-01-30 02:31:08.85	12.10	5.49	-40.5	-50.3	3.8	8.44e-01	0	55	104	0	53	10637
2026-01-30 02:31:09.85	12.06	5.56	-40.5	-50.1	3.8	8.45e-01	0	55	104	0	53	10343
2026-01-30 02:31:10.87	12.03	5.63	-40.5	-50.1	3.8	8.45e-01	0	55	104	0	53	10310
2026-01-30 02:31:11.87	11.99	5.70	-40.4	-49.7	3.8	8.44e-01	0	55	104	0	52	10474
2026-01-30 02:31:12.89	11.96	5.78	-40.4	-49.4	4.1	8.42e-01	0	55	0	0	52	10150
2026-01-30 02:31:13.90	11.92	5.85	-40.3	-48.8	4.2	8.40e-01	0	55	0	0	52	9475
2026-01-30 02:31:14.91	11.88	5.92	-40.3	-48.6	4.2	8.37e-01	0	55	0	0	52	9184
2026-01-30 02:31:15.92	11.84	5.99	-40.2	-48.0	4.4	8.27e-01	0	55	0	0	52	8641
2026-01-30 02:31:16.93	11.81	6.07	-40.1	-47.5	4.6	8.18e-01	0	55	0	0	52	8113
2026-01-30 02:31:17.94	11.77	6.14	-40.0	-47.1	4.8	8.00e-01	0	55	0	0	52	7762
2026-01-30 02:31:18.95	11.73	6.21	-40.0	-47.0	4.9	7.78e-01	0	55	0	0	51	8084
2026-01-30 02:31:19.96	11.69	6.29	-40.0	-46.8	5.0	7.67e-01	0	55	0	0	51	7915
2026-01-30 02:31:20.97	11.66	6.36	-40.0	-46.6	5.1	7.56e-01	0	55	0	0	51	7754
2026-01-30 02:31:21.98	11.62	6.43	-39.9	-46.5	5.2	7.42e-01	0	55	0	0	51	7645
2026-01-30 02:31:22.99	11.58	6.51	-39.9	-46.4	5.2	7.44e-01	0	55	0	0	51	7597
2026-01-30 02:31:24.00	11.54	6.58	-39.9	-46.6	5.2	7.50e-01	0	56	0	0	51	7736
2026-01-30 02:31:25.01	11.50	6.65	-39.9	-46.5	5.2	7.49e-01	0	56	0	0	51	7641
2026-01-30 02:31:26.02	11.46	6.73	-39.9	-46.3	5.3	7.37e-01	0	56	0	0	51	7520
2026-01-30 02:31:27.04	11.42	6.80	-40.0	-46.6	5.1	7.63e-01	0	56	0	0	51	7797
2026-01-30 02:31:28.05	11.38	6.88	-40.0	-46.8	5.0	7.68e-01	0	56	0	0	51	7918
2026-01-30 02:31:29.06	11.34	6.95	-40.0	-47.0	4.9	7.82e-01	0	56	0	0	51	8101
2026-01-30 02:31:30.07	11.30	7.03	-40.1	-47.3	4.8	7.93e-01	0	56	0	0	51	8380
2026-01-30 02:31:31.08	11.26	7.10	-40.2	-47.5	4.6	8.04e-01	0	56	0	0	51	8637
2026-01-30 02:31:32.09	11.22	7.18	-40.2	-47.8	4.5	8.13e-01	0	56	0	0	51	8904
2026-01-30 02:31:33.10	11.18	7.26	-40.3	-48.1	4.4	8.24e-01	0	56	0	0	51	9211
2026-01-30 02:31:34.11	11.14	7.33	-40.3	-48.3	4.3	8.27e-01	0	56	0	0	51	9472
2026-01-30 02:31:35.12	11.10	7.41	-40.4	-48.6	4.3	8.33e-01	0	56	0	0	51	9774
2026-01-30 02:31:36.13	11.06	7.49	-40.4	-49.0	4.2	8.37e-01	0	56	0	0	51	10220
2026-01-30 02:31:37.14	11.02	7.56	-40.4	-49.2	4.1	8.39e-01	0	56	0	0	51	10441
2026-01-30 02:31:38.15	10.97	7.64	-40.5	-49.5	4.0	8.43e-01	0	56	104	0	51	10820
2026-01-30 02:31:39.16	10.93	7.72	-40.6	-49.9	4.0	8.44e-01	0	56	104	0	51	11327
2026-01-30 02:31:40.17	10.89	7.79	-40.6	-50.0	3.9	8.45e-01	0	56	104	0	51	11529
2026-01-30 02:31:41.18	10.85	7.87	-40.6	-50.3	3.8	8.45e-01	0	56	104	0	51	11941
2026-01-30 02:31:42.19	10.80	7.95	-40.6	-50.5	3.8	8.45e-01	0	56	104	0	51	12211
2026-01-30 02:31:43.20	10.76	8.03	-40.6	-50.7	3.8	8.45e-01	0	56	104	0	51	12431
2026-01-30 02:31:44.22	10.72	8.11	-40.5	-50.8	3.8	8.47e-01	0	56	104	0	51	12534
2026-01-30 02:31:45.23	10.67	8.18	-40.5	-51.0	3.8	8.46e-01	0	56	104	0	51	12816
2026-01-30 02:31:46.24	10.63	8.26	-41.1	-51.7	3.8	8.46e-01	0	56	104	0	52	13136
2026-01-30 02:31:47.25	10.58	8.34	-40.9	-51.6	3.8	8.45e-01	0	57	104	0	52	13010
2026-01-30 02:31:48.26	10.54	8.42	-40.0	-51.3	3.8	8.46e-01	0	57	104	0	51	13268
2026-01-30 02:31:49.27	10.50	8.50	-40.0	-51.2	3.8	8.45e-01	0	57	104	0	51	13179
2026-01-30 02:31:50.27	10.45	8.58	-39.9	-51.2	3.8	8.46e-01	0	57	104	0	51	13219
2026-01-30 02:31:51.28	10.41	8.66	-39.9	-51.2	3.8	8.46e-01	0	57	104	0	51	13212
2026-01-30 02:31:52.29	10.36	8.74	-39.9	-51.2	3.8	8.45e-01	0	57	104	0	51	13242
2026-01-30 02:31:53.30	10.31	8.82	-40.2	-51.4	3.8	8.47e-01	0	57	104	0	51	13462
2026-01-30 02:31:54.31	10.27	8.90	-40.8	-51.1	3.8	8.45e-01	0	57	104	0	52	12255
2026-01-30 02:31:55.32	10.22	8.98	-40.2	-51.2	3.8	8.46e-01	0	57	104	0	52	12383
2026-01-30 02:31:56.33	10.17	9.06	-40.6	-51.8	3.8	8.47e-01	0	57	104	0	52	13303
2026-01-30 02:31:57.34	10.13	9.14	-40.2	-51.4	3.8	8.46e-01	0	57	104	0	52	12756
2026-01-30 02:31:58.35	10.08	9.22	-40.1	-51.4	3.8	8.46e-01	0	57	104	0	52	12732
2026-01-30 02:31:59.36	10.03	9.31	-40.1	-51.4	3.8	8.46e-01	0	57	104	0	52	12701
2026-01-30 02:32:00.37	9.99	9.39	-40.1	-51.4	3.8	8.46e-01	0	57	104	0	52	12754
2026-01-30 02:32:01.38	9.94	9.47	-40.2	-51.6	3.8	8.45e-01	0	57	104	0	52	13032
2026-01-30 02:32:02.39	9.89	9.55	-40.6	-52.1	3.8	8.46e-01	0	57	104	0	52	13767
2026-01-30 02:32:03.40	9.84	9.64	-40.4	-51.9	3.8	8.45e-01	0	57	104	0	52	13427
2026-01-30 02:32:04.41	9.79	9.72	-39.9	-51.4	3.8	8.47e-01	0	57	104	0	51	13415
2026-01-30 02:32:05.42	9.74	9.80	-39.9	-51.3	3.8	8.45e-01	0	57	104	0	51	13345
2026-01-30 02:32:06.43	9.69	9.89	-39.8	-51.2	3.8	8.46e-01	0	57	104	0	51	13260
2026-01-30 02:32:07.45	9.64	9.97	-39.8	-51.2	3.8	8.47e-01	0	57	104	0	51	13232
2026-01-30 02:32:08.46	9.59	10.05	-39.8	-51.2	3.8	8.45e-01	0	57	104	0	51	13235
2026-01-30 02:32:09.47	9.54	10.14	-40.0	-51.1	3.8	8.46e-01	0	57	104	0	51	13045
2026-01-30 02:32:10.48	9.49	10.22	-40.5	-51.4	3.8	8.46e-01	0	57	104	0	52	12670
2026-01-30 02:32:11.49	9.44	10.31	-40.2	-51.5	3.8	8.46e-01	0	57	104	0	52	12873
2026-01-30 02:32:12.50	9.39	10.39	-40.4	-51.8	3.8	8.46e-01	0	57	104	0	52	13350
2026-01-30 02:32:13.51	9.34	10.48	-40.2	-51.6	3.8	8.45e-01	0	57	104	0	52	13062
2026-01-30 02:32:14.52	9.28	10.56	-39.9	-51.2	3.8	8.46e-01	0	58	104	0	51	13149
2026-01-30 02:32:15.53	9.23	10.65	-39.9	-51.2	3.8	8.46e-01	0	57	104	0	51	13221
2026-01-30 02:32:16.54	9.18	10.74	-39.9	-51.2	3.8	8.45e-01	0	57	104	0	51	13246
2026-01-30 02:32:17.55	9.12	10.82	-39.8	-51.1	3.8	8.46e-01	0	58	104	0	51	13024
2026-01-30 02:32:18.56	9.07	10.91	-39.8	-51.0	3.8	8.45e-01	0	58	104	0	51	12947
2026-01-30 02:32:19.57	9.02	11.00	-40.0	-50.9	3.8	8.47e-01	0	58	104	0	51	12752
2026-01-30 02:32:20.58	8.96	11.08	-40.0	-50.8	3.8	8.46e-01	0	58	104	0	51	12625
2026-01-30 02:32:21.59	8.91	11.17	-40.4	-50.6	3.8	8.47e-01	0	58	104	0	51	12299
2026-01-30 02:32:22.60	8.85	11.26	-41.7	-49.3	4.6	8.34e-01	0	58	0	0	53	9393
2026-01-30 02:32:23.61	8.80	11.35	-41.2	-49.6	4.2	7.99e-01	0	58	0	0	54	9260
2026-01-30 02:32:24.62	8.74	11.44	-41.2	-49.1	4.4	8.38e-01	0	58	0	0	53	9233
2026-01-30 02:32:25.63	8.69	11.53	-41.3	-47.3	5.7	6.99e-01	0	58	0	0	53	7487
2026-01-30 02:32:26.64	8.63	11.62	-41.1	-46.6	6.2	3.46e-01	0	58	0	6291456	53	6939
2026-01-30 02:32:27.65	8.57	11.70	-40.9	-46.1	6.6	2.53e-01	0	58	0	11534336	53	6534
2026-01-30 02:32:28.66	8.52	11.79	-40.7	-45.5	7.2	1.59e-01	0	58	0	16777216	53	6105
2026-01-30 02:32:29.67	8.46	11.88	-40.6	-45.2	7.6	1.23e-01	0	58	0	23068672	53	5857
2026-01-30 02:32:30.68	8.40	11.97	-40.5	-44.9	7.9	8.69e-02	0	58	0	28311552	52	5993
2026-01-30 02:32:31.69	8.34	12.07	-40.3	-44.4	8.4	6.20e-02	0	58	0	34603008	52	5707
2026-01-30 02:32:32.70	8.28	12.16	-40.3	-44.2	8.8	3.89e-02	0	58	0	39845888	52	5592
2026-01-30 02:32:33.71	8.23	12.25	-40.0	-43.6	9.4	2.24e-02	0	58	0	46137344	52	5194
2026-01-30 02:32:34.72	8.17	12.34	-40.0	-43.6	9.6	1.61e-02	0	58	0	51380224	51	5467
2026-01-30 02:32:35.73	8.11	12.43	-40.2	-43.8	9.4	1.97e-02	0	58	0	57671680	51	5612
2026-01-30 02:32:36.74	8.05	12.52	-40.3	-43.9	9.4	2.33e-02	0	58	0	62914560	51	5696
2026-01-30 02:32:37.75	7.99	12.62	-40.2	-43.7	9.5	1.72e-02	0	58	0	68157440	51	5587
2026-01-30 02:32:38.76	7.92	12.71	-40.1	-43.6	9.8	1.71e-02	0	58	0	74448896	51	5526
2026-01-30 02:32:39.77	7.86	12.80	-39.9	-43.2	10.2	7.98e-03	0	58	0	79691776	51	5254
2026-01-30 02:32:40.78	7.80	12.89	-39.9	-43.0	10.5	5.30e-03	0	58	0	85983232	51	5153
2026-01-30 02:32:41.79	7.74	12.99	-40.0	-43.3	10.2	7.97e-03	0	58	0	91226112	51	5297
2026-01-30 02:32:42.80	7.68	13.08	-40.0	-43.3	10.3	7.37e-03	0	58	0	96468992	51	5286
2026-01-30 02:32:43.81	7.61	13.18	-40.1	-43.4	10.1	9.14e-03	0	58	0	102760448	51	5399
2026-01-30 02:32:44.82	7.55	13.27	-40.0	-43.2	10.5	6.39e-03	0	58	0	108003328	51	5242
2026-01-30 02:32:45.83	7.49	13.37	-39.6	-42.6	11.1	2.71e-03	0	58	0	114294784	51	4891
2026-01-30 02:32:46.84	7.42	13.46	-39.5	-42.3	11.4	1.49e-03	0	58	0	119537664	50	4998
2026-01-30 02:32:47.85	7.36	13.56	-39.5	-42.4	11.3	1.35e-03	0	58	0	124780544	50	5055
2026-01-30 02:32:48.86	7.29	13.65	-39.8	-42.8	11.0	2.51e-03	0	58	0	131072000	50	5306
2026-01-30 02:32:49.88	7.22	13.75	-39.9	-43.0	10.8	2.99e-03	0	58	0	136314880	50	5416
2026-01-30 02:32:50.89	7.16	13.85	-39.9	-42.9	10.9	3.25e-03	0	58	0	142606336	50	5399
2026-01-30 02:32:51.90	7.09	13.95	-39.8	-42.7	11.3	1.99e-03	0	58	0	147849216	50	5229
2026-01-30 02:32:52.91	7.02	14.04	-40.0	-42.8	11.3	1.82e-03	0	59	0	154140672	50	5326
2026-01-30 02:32:53.92	6.96	14.14	-40.0	-42.9	11.2	1.76e-03	0	58	0	159383552	50	5374
2026-01-30 02:32:54.93	6.89	14.24	-39.8	-42.6	11.5	1.41e-03	0	59	0	165675008	50	5189
2026-01-30 02:32:55.94	6.82	14.34	-39.6	-42.3	11.9	7.82e-04	0	59	0	170917888	50	5019
2026-01-30 02:32:56.95	6.75	14.44	-39.7	-42.4	11.8	6.03e-04	0	58	0	176160768	50	5072
2026-01-30 02:32:57.96	6.68	14.54	-39.8	-42.5	11.8	7.52e-04	0	59	0	182452224	50	5110
2026-01-30 02:32:58.97	6.61	14.64	-39.6	-42.1	12.2	4.44e-04	0	59	0	187695104	50	4901
2026-01-30 02:32:59.99	6.54	14.74	-39.5	-42.0	12.3	2.35e-04	0	58	0	193986560	50	4866
2026-01-30 02:33:00.99	6.47	14.84	-39.6	-42.1	12.2	3.49e-04	0	58	0	199229440	50	4917
2026-01-30 02:33:02.00	6.40	14.94	-39.3	-41.7	12.7	1.51e-04	0	59	0	204472320	50	4693
2026-01-30 02:33:03.01	6.33	15.04	-39.4	-41.9	12.6	1.59e-04	0	58	0	210763776	50	4775
2026-01-30 02:33:04.02	6.25	15.14	-39.4	-41.8	12.7	1.77e-04	0	58	0	216006656	50	4748
2026-01-30 02:33:05.04	6.18	15.24	-39.4	-41.8	12.8	8.81e-05	0	59	0	222298112	50	4707
2026-01-30 02:33:06.05	6.11	15.34	-39.3	-41.7	12.9	7.09e-05	0	58	0	227540992	50	4665
2026-01-30 02:33:07.06	6.03	15.45	-39.3	-41.6	13.0	5.83e-05	0	59	0	232783872	50	4624
2026-01-30 02:33:08.07	5.96	15.55	-39.5	-41.8	12.7	9.49e-05	0	59	0	239075328	50	4757
2026-01-30 02:33:09.08	5.88	15.65	-39.5	-41.8	12.7	9.72e-05	0	59	0	244318208	50	4748
2026-01-30 02:33:10.09	5.81	15.76	-39.4	-41.7	12.9	9.95e-05	0	59	0	250609664	50	4683
2026-01-30 02:33:11.10	5.73	15.86	-39.3	-41.7	13.0	6.17e-05	0	59	0	255852544	50	4657
2026-01-30 02:33:12.11	5.65	15.97	-39.2	-41.5	13.1	4.57e-05	0	59	0	262144000	50	4581
2026-01-30 02:33:13.12	5.58	16.07	-39.1	-41.3	13.3	3.77e-05	0	59	0	267386880	50	4473
2026-01-30 02:33:14.13	5.50	16.18	-39.1	-41.3	13.4	2.28e-05	0	59	0	273678336	50	4450
2026-01-30 02:33:15.14	5.42	16.28	-39.1	-41.3	13.3	2.74e-05	0	59	0	278921216	50	4482
2026-01-30 02:33:16.15	5.34	16.39	-39.1	-41.3	13.4	3.31e-05	0	59	0	284164096	50	4446
2026-01-30 02:33:17.16	5.26	16.50	-39.0	-41.1	13.5	1.71e-05	0	59	0	290455552	50	4383
2026-01-30 02:33:18.17	5.18	16.60	-39.0	-41.1	13.6	1.60e-05	0	59	0	295698432	49	4643
2026-01-30 02:33:19.18	5.10	16.71	-38.9	-41.0	13.7	1.37e-05	0	59	0	301989888	49	4556
2026-01-30 02:33:20.19	5.02	16.82	-38.9	-41.0	13.7	1.14e-05	0	59	0	307232768	49	4590
2026-01-30 02:33:21.20	4.94	16.93	-38.9	-41.0	13.7	1.37e-05	0	59	0	312475648	49	4595
2026-01-30 02:33:22.21	4.85	17.03	-38.9	-41.0	13.7	8.00e-06	0	59	0	318767104	49	4587
2026-01-30 02:33:23.22	4.77	17.14	-38.8	-40.9	13.9	8.00e-06	0	59	0	324009984	49	4509
2026-01-30 02:33:24.23	4.69	17.25	-38.7	-40.8	14.0	5.70e-06	0	59	0	330301440	49	4449
2026-01-30 02:33:25.24	4.60	17.36	-38.7	-40.7	14.0	3.40e-06	0	59	0	335544320	49	4422
2026-01-30 02:33:26.25	4.52	17.47	-38.7	-40.7	14.1	0.00e+00	0	59	0	340787200	49	4421
2026-01-30 02:33:27.26	4.43	17.58	-38.7	-40.7	14.1	3.40e-06	0	59	0	347078656	49	4421
2026-01-30 02:33:28.28	4.34	17.70	-38.6	-40.5	14.3	4.50e-06	0	59	0	352321536	49	4339
2026-01-30 02:33:29.29	4.26	17.81	-38.5	-40.4	14.4	4.50e-06	0	59	0	358612992	48	4534
2026-01-30 02:33:30.30	4.17	17.92	-38.4	-40.4	14.4	2.20e-06	0	59	0	363855872	48	4507
2026-01-30 02:33:31.31	4.08	18.03	-38.5	-40.4	14.4	1.10e-06	0	59	0	370147328	48	4525
2026-01-30 02:33:32.32	3.99	18.15	-38.5	-40.5	14.4	1.10e-06	0	59	0	375390208	48	4559
2026-01-30 02:33:33.33	3.90	18.26	-38.4	-40.3	14.5	1.10e-06	0	59	0	381681664	48	4471
2026-01-30 02:33:34.34	3.81	18.37	-38.3	-40.2	14.7	0.00e+00	0	59	0	386924544	48	4393
2026-01-30 02:33:35.35	3.72	18.49	-38.3	-40.2	14.7	1.10e-06	0	59	0	392167424	48	4400
2026-01-30 02:33:36.36	3.62	18.60	-38.4	-40.3	14.6	0.00e+00	0	59	0	398458880	48	4455
2026-01-30 02:33:37.37	3.53	18.72	-38.3	-40.2	14.6	0.00e+00	0	59	0	403701760	48	4418
2026-01-30 02:33:38.38	3.44	18.83	-38.3	-40.1	14.7	0.00e+00	0	59	0	409993216	48	4391
2026-01-30 02:33:39.39	3.34	18.95	-38.3	-40.1	14.7	0.00e+00	0	59	0	415236096	48	4382
2026-01-30 02:33:40.41	3.25	19.07	-38.3	-40.2	14.6	0.00e+00	0	59	0	420478976	48	4421
2026-01-30 02:33:41.42	3.15	19.18	-38.3	-40.2	14.7	0.00e+00	0	59	0	426770432	48	4406
2026-01-30 02:33:42.43	3.06	19.30	-38.3	-40.2	14.7	1.10e-06	0	59	0	432013312	48	4426
2026-01-30 02:33:43.44	2.96	19.42	-38.3	-40.2	14.7	0.00e+00	0	59	0	438304768	48	4414
2026-01-30 02:33:44.45	2.86	19.54	-38.2	-40.1	14.8	1.10e-06	0	59	0	443547648	48	4381
2026-01-30 02:33:45.46	2.76	19.66	-38.2	-40.0	14.9	0.00e+00	0	59	0	448790528	48	4326
2026-01-30 02:33:46.47	2.66	19.78	-38.2	-40.0	14.9	0.00e+00	0	59	0	455081984	48	4331
2026-01-30 02:33:47.48	2.56	19.90	-38.1	-40.0	14.9	0.00e+00	0	59	0	460324864	48	4299
2026-01-30 02:33:48.49	2.46	20.02	-38.1	-39.9	15.0	0.00e+00	0	59	0	466616320	48	4263
2026-01-30 02:33:49.50	2.36	20.14	-38.0	-39.8	15.1	0.00e+00	0	59	0	471859200	48	4212
2026-01-30 02:33:50.51	2.25	20.26	-37.9	-39.7	15.1	0.00e+00	0	59	0	478150656	47	4405
2026-01-30 02:33:51.52	2.15	20.38	-37.9	-39.7	15.1	0.00e+00	0	59	0	483393536	47	4421
2026-01-30 02:33:52.53	2.04	20.50	-37.9	-39.7	15.1	0.00e+00	0	59	0	489684992	47	4433
2026-01-30 02:33:53.54	1.94	20.63	-37.8	-39.6	15.2	0.00e+00	0	59	0	494927872	47	4378
2026-01-30 02:33:54.55	1.83	20.75	-37.8	-39.6	15.2	0.00e+00	0	59	0	500170752	47	4363
2026-01-30 02:33:55.56	1.72	20.88	-37.8	-39.6	15.3	0.00e+00	0	59	0	506462208	47	4359
2026-01-30 02:33:56.57	1.62	21.00	-37.9	-39.7	15.2	0.00e+00	0	59	0	511705088	47	4394
2026-01-30 02:33:57.58	1.51	21.12	-37.8	-39.6	15.2	1.10e-06	0	59	0	517996544	47	4376
2026-01-30 02:33:58.60	1.39	21.25	-37.8	-39.6	15.3	1.10e-06	0	59	0	523239424	47	4371
2026-01-30 02:33:59.61	1.28	21.38	-37.8	-39.6	15.3	0.00e+00	0	59	0	528482304	47	4381
2026-01-30 02:34:00.62	1.17	21.50	-37.8	-39.6	15.3	0.00e+00	0	59	0	534773760	47	4355
2026-01-30 02:34:01.63	1.06	21.63	-37.8	-39.6	15.3	0.00e+00	0	59	0	540016640	47	4363
2026-01-30 02:34:02.64	0.94	21.76	-37.8	-39.6	15.3	1.10e-06	0	59	0	546308096	47	4360
2026-01-30 02:34:03.65	0.83	21.89	-37.8	-39.6	15.3	0.00e+00	0	59	0	551550976	47	4365
2026-01-30 02:34:04.66	0.71	22.01	-37.8	-39.6	15.3	0.00e+00	0	60	0	556793856	47	4357
2026-01-30 02:34:05.67	0.60	22.14	-37.8	-39.6	15.3	0.00e+00	0	60	0	563085312	47	4356
2026-01-30 02:34:06.68	0.48	22.27	-37.9	-39.7	15.2	0.00e+00	0	59	0	568328192	47	4400
2026-01-30 02:34:07.69	0.36	22.40	-37.8	-39.6	15.2	0.00e+00	0	59	0	574619648	47	4377
2026-01-30 02:34:08.70	0.24	22.53	-37.8	-39.5	15.4	0.00e+00	0	59	0	579862528	47	4317
2026-01-30 02:34:09.71	0.12	22.67	-37.6	-39.3	15.5	1.10e-06	0	59	0	586153984	47	4228
2026-01-30 02:34:10.73	359.99	22.80	-37.5	-39.2	15.7	0.00e+00	0	59	0	591396864	47	4161
2026-01-30 02:34:11.74	359.87	22.93	-37.5	-39.2	15.7	0.00e+00	0	59	0	597688320	46	4413
2026-01-30 02:34:12.75	359.75	23.06	-37.6	-39.3	15.6	0.00e+00	0	60	0	602931200	46	4481
2026-01-30 02:34:13.76	359.62	23.20	-37.6	-39.3	15.6	0.00e+00	0	59	0	608174080	46	4492
2026-01-30 02:34:14.77	359.50	23.33	-37.6	-39.3	15.6	0.00e+00	0	59	0	614465536	46	4454
2026-01-30 02:34:15.78	359.37	23.47	-37.6	-39.3	15.6	0.00e+00	0	60	0	619708416	46	4488
2026-01-30 02:34:16.79	359.24	23.60	-37.5	-39.2	15.7	0.00e+00	0	60	0	625999872	46	4435
2026-01-30 02:34:17.80	359.11	23.74	-37.5	-39.2	15.7	0.00e+00	0	59	0	631242752	46	4420
2026-01-30 02:34:18.81	358.98	23.87	-37.5	-39.2	15.8	0.00e+00	0	59	0	636485632	46	4407
2026-01-30 02:34:19.82	358.85	24.01	-37.5	-39.2	15.8	0.00e+00	0	60	0	642777088	46	4393
2026-01-30 02:34:20.83	358.71	24.15	-37.4	-39.1	15.9	0.00e+00	0	60	0	648019968	46	4341
2026-01-30 02:34:21.84	358.58	24.28	-37.3	-38.9	16.0	0.00e+00	0	60	0	654311424	46	4283
2026-01-30 02:34:22.85	358.44	24.42	-37.2	-38.8	16.2	0.00e+00	0	60	0	659554304	46	4198
2026-01-30 02:34:23.86	358.30	24.56	-37.2	-38.8	16.2	0.00e+00	0	60	0	664797184	46	4214
2026-01-30 02:34:24.87	358.17	24.70	-37.2	-38.8	16.1	0.00e+00	0	60	0	671088640	46	4233
2026-01-30 02:34:25.88	358.03	24.84	-37.2	-38.8	16.2	0.00e+00	0	60	0	676331520	46	4228
2026-01-30 02:34:26.89	357.89	24.98	-37.2	-38.8	16.2	0.00e+00	0	59	0	682622976	46	4228
2026-01-30 02:34:27.90	357.74	25.12	-37.3	-38.9	16.0	0.00e+00	0	60	0	687865856	46	4277
2026-01-30 02:34:28.92	357.60	25.26	-37.4	-39.0	16.0	0.00e+00	0	59	0	694157312	46	4335
2026-01-30 02:34:29.93	357.45	25.41	-37.4	-39.1	16.0	0.00e+00	0	60	0	699400192	46	4351
2026-01-30 02:34:30.94	357.31	25.55	-37.4	-39.0	16.0	0.00e+00	0	60	0	705691648	46	4322
2026-01-30 02:34:31.95	357.16	25.69	-37.4	-39.1	15.9	0.00e+00	0	60	0	710934528	46	4349
2026-01-30 02:34:32.96	357.01	25.84	-37.4	-39.1	16.0	0.00e+00	0	60	0	716177408	46	4342
2026-01-30 02:34:33.97	356.86	25.98	-37.4	-39.0	16.0	0.00e+00	0	60	0	722468864	46	4314
2026-01-30 02:34:34.98	356.71	26.13	-37.3	-38.9	16.1	0.00e+00	0	60	0	727711744	46	4264
2026-01-30 02:34:35.99	356.56	26.27	-37.3	-38.9	16.1	0.00e+00	0	60	0	734003200	46	4261
2026-01-30 02:34:37.00	356.40	26.42	-37.2	-38.8	16.2	0.00e+00	0	60	0	739246080	46	4235
2026-01-30 02:34:38.01	356.24	26.56	-37.2	-38.7	16.3	0.00e+00	0	60	0	744488960	46	4193
2026-01-30 02:34:39.02	356.09	26.71	-37.1	-38.7	16.4	0.00e+00	0	60	0	750780416	46	4150
2026-01-30 02:34:40.03	355.93	26.86	-36.9	-38.5	16.5	0.00e+00	0	60	0	756023296	45	4311
2026-01-30 02:34:41.04	355.77	27.01	-37.0	-38.5	16.5	0.00e+00	0	60	0	762314752	45	4331
2026-01-30 02:34:42.05	355.61	27.16	-36.9	-38.5	16.6	0.00e+00	0	60	0	767557632	45	4299
2026-01-30 02:34:43.06	355.44	27.31	-37.0	-38.6	16.5	0.00e+00	0	60	0	772800512	45	4353
2026-01-30 02:34:44.07	355.28	27.46	-37.1	-38.8	16.3	0.00e+00	0	60	0	779091968	45	4444
2026-01-30 02:34:45.08	355.11	27.61	-37.1	-38.7	16.4	0.00e+00	0	60	0	784334848	45	4433
2026-01-30 02:34:46.09	354.94	27.76	-37.1	-38.7	16.4	0.00e+00	0	60	0	790626304	45	4397
2026-01-30 02:34:47.10	354.77	27.91	-37.1	-38.7	16.3	0.00e+00	0	60	0	795869184	45	4415
2026-01-30 02:34:48.11	354.60	28.06	-37.1	-38.7	16.3	0.00e+00	0	60	0	802160640	45	4429
2026-01-30 02:34:49.12	354.43	28.22	-37.2	-38.8	16.3	0.00e+00	0	60	0	807403520	45	4452
2026-01-30 02:34:50.13	354.25	28.37	-37.2	-38.8	16.3	0.00e+00	0	60	0	813694976	45	4462
2026-01-30 02:34:51.14	354.07	28.52	-37.2	-38.8	16.3	0.00e+00	0	60	0	818937856	45	4472
2026-01-30 02:34:52.15	353.90	28.68	-37.1	-38.7	16.4	0.00e+00	0	60	0	824180736	45	4394
2026-01-30 02:34:53.16	353.72	28.83	-37.1	-38.6	16.5	0.00e+00	0	60	0	830472192	45	4386
2026-01-30 02:34:54.17	353.53	28.99	-37.1	-38.6	16.5	0.00e+00	0	60	0	835715072	45	4374
2026-01-30 02:34:55.19	353.35	29.15	-37.1	-38.6	16.5	0.00e+00	0	60	0	842006528	45	4380
2026-01-30 02:34:56.20	353.16	29.30	-37.1	-38.7	16.5	0.00e+00	0	60	0	847249408	45	4393
2026-01-30 02:34:57.21	352.97	29.46	-37.1	-38.7	16.4	0.00e+00	0	60	0	852492288	45	4407
2026-01-30 02:34:58.22	352.78	29.62	-37.2	-38.8	16.3	0.00e+00	0	60	0	858783744	45	4485
2026-01-30 02:34:59.23	352.59	29.77	-37.1	-38.8	16.3	0.00e+00	0	60	0	864026624	45	4457
2026-01-30 02:35:00.24	352.40	29.93	-37.1	-38.7	16.4	0.00e+00	0	60	0	870318080	45	4440
2026-01-30 02:35:01.25	352.20	30.09	-37.2	-38.8	16.2	0.00e+00	0	60	0	875560960	45	4490
2026-01-30 02:35:02.26	352.01	30.25	-37.2	-38.9	16.2	0.00e+00	0	60	0	880803840	45	4543
2026-01-30 02:35:03.27	351.81	30.41	-37.3	-39.0	16.1	0.00e+00	0	60	0	887095296	45	4575
2026-01-30 02:35:04.28	351.61	30.57	-37.4	-39.1	16.0	0.00e+00	0	60	0	892338176	45	4614
2026-01-30 02:35:05.29	351.40	30.73	-37.4	-39.0	16.1	0.00e+00	0	60	0	898629632	45	4591
2026-01-30 02:35:06.30	351.20	30.90	-37.3	-39.0	16.2	0.00e+00	0	60	0	903872512	45	4549
2026-01-30 02:35:07.31	350.99	31.06	-37.0	-38.6	16.6	0.00e+00	0	60	0	910163968	45	4343
2026-01-30 02:35:08.32	350.78	31.22	-36.7	-38.2	16.9	0.00e+00	0	60	0	915406848	45	4182
2026-01-30 02:35:09.33	350.57	31.38	-36.6	-38.1	17.1	0.00e+00	0	60	0	921698304	45	4117
2026-01-30 02:35:10.34	350.36	31.55	-36.6	-38.1	17.1	0.00e+00	0	60	0	926941184	45	4119
2026-01-30 02:35:11.35	350.14	31.71	-36.7	-38.2	17.0	0.00e+00	0	60	0	932184064	45	4147
2026-01-30 02:35:12.36	349.92	31.88	-36.8	-38.2	16.9	0.00e+00	0	60	0	938475520	45	4191
2026-01-30 02:35:13.37	349.70	32.04	-36.7	-38.2	17.0	0.00e+00	0	60	0	943718400	45	4187
2026-01-30 02:35:14.38	349.48	32.21	-36.8	-38.3	16.9	0.00e+00	0	60	0	950009856	45	4196
2026-01-30 02:35:15.39	349.25	32.37	-36.8	-38.3	16.9	0.00e+00	0	60	0	955252736	45	4202
2026-01-30 02:35:16.40	349.02	32.54	-36.7	-38.1	17.1	0.00e+00	0	60	0	960495616	45	4135
2026-01-30 02:35:17.41	348.79	32.71	-36.5	-37.9	17.3	0.00e+00	0	60	0	966787072	45	4050
2026-01-30 02:35:18.42	348.56	32.87	-36.4	-37.8	17.4	0.00e+00	0	60	0	972029952	44	4214
2026-01-30 02:35:19.43	348.33	33.04	-36.4	-37.9	17.4	0.00e+00	0	60	0	978321408	44	4247
2026-01-30 02:35:20.44	348.09	33.21	-36.5	-37.9	17.3	0.00e+00	0	60	0	983564288	44	4285
2026-01-30 02:35:21.45	347.85	33.38	-36.6	-38.1	17.2	0.00e+00	0	60	0	988807168	44	4347
2026-01-30 02:35:22.46	347.61	33.54	-36.8	-38.3	16.9	0.00e+00	0	60	0	995098624	44	4460
2026-01-30 02:35:23.47	347.36	33.71	-36.9	-38.3	16.9	0.00e+00	0	60	0	1000341504	44	4489
2026-01-30 02:35:24.48	347.12	33.88	-36.8	-38.3	17.0	0.00e+00	0	60	0	1006632960	44	4454
2026-01-30 02:35:25.49	346.86	34.05	-36.7	-38.1	17.1	0.00e+00	0	60	0	1011875840	44	4388
2026-01-30 02:35:26.50	346.61	34.22	-36.6	-38.1	17.2	0.00e+00	0	60	0	1018167296	44	4348
2026-01-30 02:35:27.52	346.35	34.39	-36.7	-38.1	17.1	0.00e+00	0	60	0	1023410176	44	4391
2026-01-30 02:35:28.53	346.10	34.56	-36.8	-38.3	16.9	0.00e+00	0	60	0	1029701632	44	4474
2026-01-30 02:35:29.54	345.84	34.73	-37.0	-38.5	16.7	0.00e+00	0	60	0	1034944512	44	4596
2026-01-30 02:35:30.55	345.57	34.91	-37.1	-38.6	16.6	0.00e+00	0	60	0	1040187392	44	4626
2026-01-30 02:35:31.56	345.30	35.08	-37.0	-38.6	16.7	0.00e+00	0	60	0	1046478848	44	4604
2026-01-30 02:35:32.57	345.04	35.25	-36.9	-38.4	16.9	0.00e+00	0	60	0	1051721728	44	4504
2026-01-30 02:35:33.58	344.76	35.42	-36.8	-38.3	17.0	0.00e+00	0	60	0	1058013184	44	4459
2026-01-30 02:35:34.59	344.49	35.59	-36.8	-38.2	17.0	0.00e+00	0	60	0	1063256064	44	4441
2026-01-30 02:35:35.60	344.21	35.76	-36.7	-38.2	17.1	0.00e+00	0	60	0	1068498944	44	4420
2026-01-30 02:35:36.61	343.93	35.93	-36.7	-38.2	17.1	0.00e+00	0	60	0	1074790400	44	4405
2026-01-30 02:35:37.62	343.64	36.11	-36.6	-38.1	17.2	0.00e+00	0	60	0	1080033280	44	4351
2026-01-30 02:35:38.63	343.36	36.28	-36.6	-38.1	17.2	0.00e+00	0	60	0	1086324736	44	4350
2026-01-30 02:35:39.64	343.07	36.45	-36.7	-38.2	17.1	0.00e+00	0	60	0	1091567616	44	4401
2026-01-30 02:35:40.65	342.77	36.62	-36.8	-38.3	17.0	0.00e+00	0	60	0	1096810496	44	4488
2026-01-30 02:35:41.66	342.48	36.80	-36.9	-38.3	17.0	0.00e+00	0	60	0	1103101952	44	4493
2026-01-30 02:35:42.67	342.18	36.97	-36.9	-38.4	16.9	0.00e+00	0	60	0	1108344832	44	4535
2026-01-30 02:35:43.68	341.87	37.14	-37.0	-38.5	16.8	0.00e+00	0	60	0	1114636288	44	4585
2026-01-30 02:35:44.69	341.57	37.31	-37.1	-38.7	16.7	0.00e+00	0	60	0	1119879168	44	4661
2026-01-30 02:35:45.70	341.26	37.49	-37.1	-38.6	16.7	0.00e+00	0	60	0	1126170624	44	4630
2026-01-30 02:35:46.71	340.95	37.66	-36.9	-38.5	16.8	0.00e+00	0	60	0	1131413504	44	4554
2026-01-30 02:35:47.72	340.63	37.83	-36.7	-38.1	17.2	0.00e+00	0	60	0	1136656384	44	4368
2026-01-30 02:35:48.73	340.31	38.00	-36.5	-37.9	17.3	0.00e+00	0	60	0	1142947840	44	4288
2026-01-30 02:35:49.74	339.99	38.17	-36.5	-38.0	17.3	0.00e+00	0	60	0	1148190720	44	4302
2026-01-30 02:35:50.75	339.66	38.35	-36.6	-38.1	17.3	0.00e+00	0	60	0	1154482176	44	4344
2026-01-30 02:35:51.76	339.33	38.52	-36.6	-38.0	17.3	0.00e+00	0	60	0	1159725056	44	4323
2026-01-30 02:35:52.77	339.00	38.69	-36.6	-38.0	17.3	0.00e+00	0	60	0	1166016512	44	4309
2026-01-30 02:35:53.78	338.66	38.86	-36.6	-38.0	17.3	0.00e+00	0	60	0	1171259392	44	4325
2026-01-30 02:35:54.79	338.32	39.03	-36.6	-38.1	17.2	0.00e+00	0	60	0	1176502272	44	4346
2026-01-30 02:35:55.81	337.97	39.20	-36.7	-38.2	17.1	0.00e+00	0	60	0	1182793728	44	4403
2026-01-30 02:35:56.82	337.62	39.37	-36.8	-38.2	17.1	0.00e+00	0	60	0	1188036608	44	4431
2026-01-30 02:35:57.83	337.27	39.54	-36.8	-38.3	17.0	0.00e+00	0	60	0	1194328064	44	4471
2026-01-30 02:35:58.84	336.92	39.71	-36.8	-38.3	17.0	0.00e+00	0	60	0	1199570944	44	4475
2026-01-30 02:35:59.85	336.56	39.88	-36.7	-38.1	17.2	0.00e+00	0	60	0	1204813824	44	4390
2026-01-30 02:36:00.86	336.19	40.05	-36.7	-38.1	17.2	0.00e+00	0	60	0	1211105280	44	4360
2026-01-30 02:36:01.87	335.83	40.22	-36.7	-38.2	17.1	0.00e+00	0	60	0	1216348160	44	4409
2026-01-30 02:36:02.88	335.46	40.38	-36.8	-38.2	17.1	0.00e+00	0	60	0	1222639616	44	4425
2026-01-30 02:36:03.89	335.08	40.55	-36.8	-38.2	17.1	0.00e+00	0	60	0	1227882496	44	4424
2026-01-30 02:36:04.90	334.70	40.72	-36.7	-38.2	17.2	0.00e+00	0	60	0	1234173952	44	4400
2026-01-30 02:36:05.91	334.32	40.88	-36.8	-38.2	17.1	0.00e+00	0	60	0	1239416832	44	4424
2026-01-30 02:36:06.92	333.93	41.05	-36.8	-38.3	17.0	0.00e+00	0	60	0	1245708288	44	4480
2026-01-30 02:36:07.93	333.54	41.21	-36.9	-38.3	17.0	0.00e+00	0	60	0	1250951168	44	4493
2026-01-30 02:36:08.94	333.15	41.37	-37.0	-38.5	16.9	0.00e+00	0	60	0	1256194048	44	4550
2026-01-30 02:36:09.96	332.75	41.54	-36.9	-38.4	17.0	0.00e+00	0	60	0	1262485504	44	4494
2026-01-30 02:36:10.97	332.35	41.70	-36.8	-38.3	17.1	0.00e+00	0	60	0	1267728384	44	4462
2026-01-30 02:36:11.98	331.94	41.86	-36.8	-38.2	17.1	0.00e+00	0	60	0	1274019840	44	4422
2026-01-30 02:36:12.99	331.53	42.02	-36.8	-38.2	17.1	0.00e+00	0	60	0	1279262720	44	4419
2026-01-30 02:36:14.00	331.11	42.18	-36.8	-38.2	17.1	0.00e+00	0	60	0	1284505600	44	4427
2026-01-30 02:36:15.01	330.69	42.34	-36.8	-38.2	17.1	0.00e+00	0	60	0	1290797056	44	4430
2026-01-30 02:36:16.02	330.27	42.49	-36.8	-38.2	17.1	0.00e+00	0	60	0	1296039936	44	4428
2026-01-30 02:36:17.03	329.84	42.65	-36.8	-38.3	17.0	0.00e+00	0	60	0	1302331392	44	4476
2026-01-30 02:36:18.04	329.41	42.80	-36.8	-38.3	17.1	0.00e+00	0	60	0	1307574272	44	4444
2026-01-30 02:36:19.05	328.98	42.96	-36.7	-38.1	17.2	0.00e+00	0	60	0	1312817152	44	4382
2026-01-30 02:36:20.06	328.54	43.11	-36.8	-38.3	17.0	0.00e+00	0	60	0	1319108608	44	4458
2026-01-30 02:36:21.07	328.09	43.26	-36.9	-38.3	17.0	0.00e+00	0	60	0	1324351488	44	4486
2026-01-30 02:36:22.08	327.65	43.41	-36.8	-38.2	17.1	0.00e+00	0	60	0	1330642944	44	4433
2026-01-30 02:36:23.09	327.19	43.56	-36.8	-38.2	17.1	0.00e+00	0	60	0	1335885824	44	4435
2026-01-30 02:36:24.11	326.73	43.70	-36.8	-38.2	17.1	0.00e+00	0	60	0	1342177280	44	4432
2026-01-30 02:36:25.12	326.27	43.85	-36.7	-38.2	17.2	0.00e+00	0	60	0	1347420160	44	4415
2026-01-30 02:36:26.13	325.81	43.99	-36.7	-38.2	17.1	0.00e+00	0	60	0	1353711616	44	4423
2026-01-30 02:36:27.14	325.34	44.13	-36.9	-38.3	17.0	0.00e+00	0	60	0	1358954496	44	4489
2026-01-30 02:36:28.15	324.86	44.27	-36.7	-38.2	17.2	0.00e+00	0	60	0	1364197376	44	4409
2026-01-30 02:36:29.16	324.39	44.41	-36.5	-37.9	17.4	0.00e+00	0	60	0	1370488832	44	4261
2026-01-30 02:36:30.17	323.91	44.55	-36.5	-37.9	17.5	0.00e+00	0	60	0	1375731712	44	4254
2026-01-30 02:36:31.18	323.42	44.68	-36.5	-37.9	17.4	0.00e+00	0	60	0	1382023168	44	4270
2026-01-30 02:36:32.19	322.93	44.81	-36.4	-37.9	17.5	0.00e+00	0	60	0	1387266048	44	4246
2026-01-30 02:36:33.20	322.44	44.95	-36.5	-38.0	17.4	0.00e+00	0	60	0	1392508928	44	4292
2026-01-30 02:36:34.21	321.94	45.07	-36.6	-38.0	17.3	0.00e+00	0	60	0	1398800384	44	4316
2026-01-30 02:36:35.22	321.44	45.20	-36.6	-38.0	17.3	0.00e+00	0	60	0	1404043264	44	4339
2026-01-30 02:36:36.23	320.93	45.33	-36.6	-38.1	17.2	0.00e+00	0	60	0	1410334720	44	4360
2026-01-30 02:36:37.24	320.42	45.45	-36.9	-38.4	17.0	0.00e+00	0	60	0	1415577600	44	4505
2026-01-30 02:36:38.25	319.90	45.57	-36.9	-38.4	16.9	0.00e+00	0	61	0	1420820480	44	4497
2026-01-30 02:36:39.26	319.39	45.69	-36.8	-38.2	17.1	0.00e+00	0	60	0	1427111936	44	4438
2026-01-30 02:36:40.28	318.86	45.80	-36.5	-38.0	17.4	0.00e+00	0	60	0	1432354816	44	4292
2026-01-30 02:36:41.29	318.33	45.92	-36.6	-38.0	17.3	0.00e+00	0	60	0	1438646272	44	4317
2026-01-30 02:36:42.30	317.80	46.03	-36.8	-38.3	17.0	0.00e+00	0	60	0	1443889152	44	4466
2026-01-30 02:36:43.31	317.27	46.14	-36.9	-38.5	16.9	0.00e+00	0	60	0	1450180608	44	4548
2026-01-30 02:36:44.32	316.73	46.24	-36.8	-38.3	17.0	0.00e+00	0	60	0	1455423488	44	4477
2026-01-30 02:36:45.33	316.19	46.35	-36.7	-38.2	17.2	0.00e+00	0	60	0	1461714944	44	4404
2026-01-30 02:36:46.34	315.65	46.45	-36.8	-38.3	17.1	0.00e+00	0	60	0	1466957824	44	4465
2026-01-30 02:36:47.35	315.10	46.55	-37.0	-38.5	16.9	0.00e+00	0	60	0	1472200704	44	4561
2026-01-30 02:36:48.37	314.54	46.65	-36.9	-38.4	17.0	0.00e+00	0	61	0	1478492160	44	4501
2026-01-30 02:36:49.38	313.99	46.74	-36.7	-38.1	17.2	0.00e+00	0	60	0	1483735040	44	4365
2026-01-30 02:36:50.39	313.43	46.83	-36.7	-38.1	17.2	0.00e+00	0	60	0	1490026496	44	4377
2026-01-30 02:36:51.40	312.87	46.92	-36.8	-38.2	17.1	0.00e+00	0	60	0	1495269376	44	4435
2026-01-30 02:36:52.41	312.30	47.00	-36.9	-38.4	16.9	0.00e+00	0	60	0	1500512256	44	4529
2026-01-30 02:36:53.42	311.74	47.08	-37.0	-38.6	16.8	0.00e+00	0	60	0	1506803712	44	4613
2026-01-30 02:36:54.43	311.17	47.16	-37.1	-38.6	16.8	0.00e+00	0	60	0	1512046592	44	4623
2026-01-30 02:36:55.44	310.59	47.24	-37.1	-38.6	16.8	0.00e+00	0	60	0	1518338048	44	4612
2026-01-30 02:36:56.45	310.02	47.31	-37.1	-38.6	16.7	0.00e+00	0	60	0	1523580928	44	4638
2026-01-30 02:36:57.46	309.44	47.38	-37.0	-38.6	16.8	0.00e+00	0	60	0	1528823808	44	4602
2026-01-30 02:36:58.47	308.86	47.45	-37.0	-38.5	16.8	0.00e+00	0	60	0	1535115264	44	4575
2026-01-30 02:36:59.49	308.27	47.51	-37.0	-38.5	16.8	0.00e+00	0	60	0	1540358144	44	4598
2026-01-30 02:37:00.50	307.68	47.57	-37.2	-38.8	16.6	0.00e+00	0	60	0	1546649600	44	4723
2026-01-30 02:37:01.51	307.09	47.63	-37.3	-38.8	16.5	0.00e+00	0	60	0	1551892480	45	4484
2026-01-30 02:37:02.52	306.50	47.68	-37.1	-38.6	16.7	0.00e+00	0	60	0	1558183936	45	4367
2026-01-30 02:37:03.53	305.91	47.74	-37.2	-38.7	16.6	0.00e+00	0	60	0	1563426816	45	4421
2026-01-30 02:37:04.54	305.32	47.78	-37.2	-38.8	16.5	0.00e+00	0	60	0	1569718272	45	4481
2026-01-30 02:37:05.55	304.72	47.83	-37.0	-38.5	16.9	0.00e+00	0	61	0	1574961152	45	4301
2026-01-30 02:37:06.56	304.12	47.87	-36.9	-38.3	17.0	0.00e+00	0	60	0	1580204032	45	4231
2026-01-30 02:37:07.57	303.52	47.91	-36.8	-38.3	17.0	0.00e+00	0	60	0	1586495488	45	4222
2026-01-30 02:37:08.58	302.92	47.94	-36.9	-38.4	16.9	0.00e+00	0	60	0	1591738368	45	4262
2026-01-30 02:37:09.59	302.32	47.97	-36.9	-38.4	17.0	0.00e+00	0	60	0	1598029824	45	4261
2026-01-30 02:37:10.60	301.72	48.00	-37.0	-38.5	16.8	0.00e+00	0	60	0	1603272704	45	4340
2026-01-30 02:37:11.62	301.11	48.02	-37.1	-38.7	16.7	0.00e+00	0	60	0	1608515584	45	4400
2026-01-30 02:37:12.63	300.50	48.04	-36.9	-38.4	16.9	0.00e+00	0	60	0	1614807040	45	4287
2026-01-30 02:37:13.64	299.90	48.06	-36.8	-38.2	17.0	0.00e+00	0	60	0	1620049920	45	4190
2026-01-30 02:37:14.65	299.29	48.07	-36.9	-38.4	16.9	0.00e+00	0	61	0	1626341376	45	4262
2026-01-30 02:37:15.66	298.68	48.08	-36.9	-38.4	17.0	0.00e+00	0	60	0	1631584256	45	4255
2026-01-30 02:37:16.67	298.08	48.09	-36.9	-38.3	17.0	0.00e+00	0	60	0	1636827136	45	4235
2026-01-30 02:37:17.68	297.47	48.09	-36.9	-38.4	16.9	0.00e+00	0	60	0	1643118592	45	4266
2026-01-30 02:37:18.69	296.86	48.09	-36.8	-38.3	17.1	0.00e+00	0	60	0	1648361472	45	4199
2026-01-30 02:37:19.70	296.25	48.09	-36.6	-38.0	17.3	0.00e+00	0	60	0	1654652928	45	4097
2026-01-30 02:37:20.71	295.65	48.08	-36.7	-38.2	17.2	0.00e+00	0	60	0	1659895808	45	4150
2026-01-30 02:37:21.73	295.03	48.07	-36.8	-38.3	17.1	0.00e+00	0	61	0	1666187264	45	4201
2026-01-30 02:37:22.74	294.43	48.05	-36.6	-38.1	17.2	0.00e+00	0	60	0	1671430144	45	4110
2026-01-30 02:37:23.75	293.82	48.04	-36.6	-38.1	17.2	0.00e+00	0	60	0	1676673024	45	4113
2026-01-30 02:37:24.76	293.22	48.02	-36.8	-38.3	17.0	0.00e+00	0	60	0	1682964480	45	4232
2026-01-30 02:37:25.77	292.61	47.99	-37.0	-38.6	16.8	0.00e+00	0	60	0	1688207360	45	4345
2026-01-30 02:37:26.78	292.01	47.96	-37.1	-38.6	16.7	0.00e+00	0	61	0	1694498816	45	4370
2026-01-30 02:37:27.79	291.41	47.93	-37.1	-38.6	16.7	0.00e+00	0	60	0	1699741696	45	4382
2026-01-30 02:37:28.80	290.81	47.89	-37.0	-38.6	16.7	0.00e+00	0	60	0	1706033152	45	4353
2026-01-30 02:37:29.81	290.21	47.86	-37.0	-38.5	16.8	0.00e+00	0	60	0	1711276032	45	4325
2026-01-30 02:37:30.82	289.61	47.81	-37.1	-38.6	16.7	0.00e+00	0	61	0	1716518912	45	4378
2026-01-30 02:37:31.83	289.01	47.77	-37.0	-38.5	16.8	0.00e+00	0	60	0	1722810368	45	4337
2026-01-30 02:37:32.84	288.42	47.72	-36.9	-38.4	16.9	0.00e+00	0	60	0	1728053248	45	4256
2026-01-30 02:37:33.85	287.83	47.67	-36.9	-38.4	16.9	0.00e+00	0	60	0	1734344704	45	4273
2026-01-30 02:37:34.86	287.24	47.61	-37.0	-38.5	16.8	0.00e+00	0	60	0	1739587584	45	4332
2026-01-30 02:37:35.87	286.65	47.56	-36.9	-38.4	16.8	0.00e+00	0	60	0	1744830464	45	4287
2026-01-30 02:37:36.88	286.06	47.49	-37.1	-38.6	16.7	0.00e+00	0	60	0	1751121920	45	4366
2026-01-30 02:37:37.89	285.48	47.43	-37.1	-38.7	16.6	0.00e+00	0	60	0	1756364800	45	4412
2026-01-30 02:37:38.90	284.90	47.36	-37.2	-38.7	16.6	0.00e+00	0	61	0	1762656256	45	4423
2026-01-30 02:37:39.91	284.32	47.29	-37.0	-38.5	16.8	0.00e+00	0	60	0	1767899136	45	4311
2026-01-30 02:37:40.92	283.74	47.22	-36.7	-38.2	17.1	0.00e+00	0	61	0	1773142016	45	4156
2026-01-30 02:37:41.92	283.18	47.14	-36.7	-38.1	17.1	0.00e+00	0	60	0	1779433472	45	4136
2026-01-30 02:37:42.94	282.60	47.06	-36.8	-38.3	17.0	0.00e+00	0	60	0	1784676352	45	4202
2026-01-30 02:37:43.95	282.03	46.98	-36.8	-38.3	17.0	0.00e+00	0	60	0	1790967808	45	4236
2026-01-30 02:37:44.96	281.47	46.89	-36.9	-38.4	16.9	0.00e+00	0	61	0	1796210688	45	4249
2026-01-30 02:37:45.97	280.91	46.80	-36.7	-38.1	17.2	0.00e+00	0	60	0	1802502144	45	4126
2026-01-30 02:37:46.98	280.35	46.71	-36.5	-37.9	17.3	0.00e+00	0	60	0	1807745024	45	4050
2026-01-30 02:37:47.99	279.79	46.62	-36.6	-38.1	17.2	0.00e+00	0	60	0	1814036480	45	4124
2026-01-30 02:37:49.00	279.24	46.52	-36.7	-38.1	17.1	0.00e+00	0	60	0	1819279360	45	4142
2026-01-30 02:37:50.01	278.70	46.42	-36.7	-38.1	17.2	0.00e+00	0	61	0	1824522240	45	4132
2026-01-30 02:37:51.03	278.15	46.32	-36.6	-38.0	17.2	0.00e+00	0	61	0	1830813696	45	4092
2026-01-30 02:37:52.03	277.61	46.21	-36.5	-38.0	17.3	0.00e+00	0	60	0	1836056576	45	4061
2026-01-30 02:37:53.05	277.07	46.10	-36.5	-37.9	17.3	0.00e+00	0	60	0	1842348032	45	4049
2026-01-30 02:37:54.06	276.54	45.99	-36.4	-37.9	17.4	0.00e+00	0	61	0	1847590912	44	4254
2026-01-30 02:37:55.07	276.01	45.88	-36.4	-37.8	17.5	0.00e+00	0	60	0	1852833792	44	4231
2026-01-30 02:37:56.08	275.48	45.77	-36.5	-38.0	17.3	0.00e+00	0	60	0	1859125248	44	4304
2026-01-30 02:37:57.09	274.96	45.65	-36.6	-38.0	17.2	0.00e+00	0	61	0	1864368128	44	4337
2026-01-30 02:37:58.10	274.44	45.53	-36.6	-38.0	17.2	0.00e+00	0	61	0	1870659584	44	4337
2026-01-30 02:37:59.11	273.93	45.41	-36.6	-38.1	17.2	0.00e+00	0	60	0	1875902464	44	4352
2026-01-30 02:38:00.11	273.42	45.29	-36.7	-38.2	17.1	0.00e+00	0	61	0	1881145344	44	4399
2026-01-30 02:38:01.12	272.91	45.16	-36.7	-38.2	17.1	0.00e+00	0	61	0	1887436800	44	4420
2026-01-30 02:38:02.13	272.41	45.03	-36.7	-38.1	17.2	0.00e+00	0	61	0	1892679680	44	4371
2026-01-30 02:38:03.14	271.91	44.90	-36.7	-38.1	17.2	0.00e+00	0	61	0	1898971136	44	4372
2026-01-30 02:38:04.15	271.42	44.77	-36.5	-38.0	17.3	0.00e+00	0	61	0	1904214016	44	4306
2026-01-30 02:38:05.16	270.93	44.64	-36.4	-37.8	17.5	0.00e+00	0	61	0	1910505472	44	4234
2026-01-30 02:38:06.17	270.45	44.50	-36.4	-37.8	17.5	0.00e+00	0	61	0	1915748352	44	4228
2026-01-30 02:38:07.19	269.96	44.36	-36.3	-37.7	17.5	0.00e+00	0	61	0	1922039808	44	4192
2026-01-30 02:38:08.20	269.48	44.23	-36.3	-37.7	17.6	0.00e+00	0	61	0	1927282688	44	4146
2026-01-30 02:38:09.21	269.01	44.09	-36.2	-37.6	17.7	0.00e+00	0	60	0	1932525568	44	4124
2026-01-30 02:38:10.22	268.54	43.94	-36.3	-37.7	17.6	0.00e+00	0	60	0	1938817024	44	4155
2026-01-30 02:38:11.23	268.07	43.80	-36.3	-37.7	17.6	0.00e+00	0	61	0	1944059904	44	4175
2026-01-30 02:38:12.23	267.62	43.65	-36.4	-37.8	17.5	0.00e+00	0	61	0	1950351360	44	4228
2026-01-30 02:38:13.24	267.16	43.51	-36.5	-37.9	17.4	0.00e+00	0	61	0	1955594240	44	4267
2026-01-30 02:38:14.25	266.71	43.36	-36.5	-38.0	17.3	0.00e+00	0	61	0	1960837120	44	4306
2026-01-30 02:38:15.26	266.26	43.21	-36.5	-38.0	17.3	0.00e+00	0	61	0	1967128576	44	4313
2026-01-30 02:38:16.27	265.82	43.06	-36.4	-37.9	17.4	0.00e+00	0	61	0	1972371456	44	4248
2026-01-30 02:38:17.28	265.38	42.91	-36.3	-37.7	17.5	0.00e+00	0	61	0	1978662912	44	4188
2026-01-30 02:38:18.29	264.94	42.75	-36.2	-37.6	17.6	0.00e+00	0	61	0	1983905792	44	4133
2026-01-30 02:38:19.30	264.51	42.60	-36.2	-37.6	17.6	0.00e+00	0	61	0	1989148672	44	4139
2026-01-30 02:38:20.31	264.08	42.44	-36.2	-37.6	17.6	0.00e+00	0	61	0	1995440128	44	4141
2026-01-30 02:38:21.32	263.66	42.28	-36.2	-37.6	17.6	0.00e+00	0	61	0	2000683008	44	4120
2026-01-30 02:38:22.33	263.24	42.12	-36.2	-37.5	17.7	0.00e+00	0	61	0	2006974464	44	4092
2026-01-30 02:38:23.34	262.83	41.96	-36.1	-37.5	17.8	0.00e+00	0	61	0	2012217344	44	4082
2026-01-30 02:38:24.35	262.42	41.80	-36.3	-37.7	17.6	0.00e+00	0	61	0	2018508800	44	4157
2026-01-30 02:38:25.36	262.01	41.64	-36.4	-37.8	17.5	0.00e+00	0	61	0	2023751680	44	4207
2026-01-30 02:38:26.37	261.61	41.48	-36.3	-37.7	17.6	0.00e+00	0	61	0	2028994560	44	4166
2026-01-30 02:38:27.38	261.21	41.32	-36.3	-37.7	17.6	0.00e+00	0	61	0	2035286016	44	4154
2026-01-30 02:38:28.39	260.82	41.15	-36.3	-37.7	17.5	0.00e+00	0	60	0	2040528896	44	4190
2026-01-30 02:38:29.40	260.43	40.99	-36.2	-37.6	17.6	0.00e+00	0	61	0	2046820352	44	4124
2026-01-30 02:38:30.42	260.04	40.82	-36.2	-37.6	17.6	0.00e+00	0	61	0	2052063232	44	4134
2026-01-30 02:38:31.43	259.65	40.66	-36.2	-37.6	17.6	0.00e+00	0	61	0	2058354688	44	4132
2026-01-30 02:38:32.44	259.27	40.49	-36.3	-37.6	17.6	0.00e+00	0	61	0	2063597568	44	4137
2026-01-30 02:38:33.45	258.90	40.32	-36.4	-37.8	17.4	0.00e+00	0	61	0	2068840448	44	4227
2026-01-30 02:38:34.46	258.53	40.15	-36.5	-38.0	17.3	0.00e+00	0	60	0	2075131904	44	4312
2026-01-30 02:38:35.47	258.16	39.98	-36.6	-38.0	17.2	0.00e+00	0	61	0	2080374784	44	4318
2026-01-30 02:38:36.48	257.80	39.82	-36.7	-38.1	17.1	0.00e+00	0	61	0	2086666240	44	4382
2026-01-30 02:38:37.49	257.44	39.65	-36.7	-38.1	17.1	0.00e+00	0	60	0	2091909120	44	4384
2026-01-30 02:38:38.50	257.09	39.48	-36.5	-37.9	17.3	0.00e+00	0	61	0	2097152000	44	4290
2026-01-30 02:38:39.51	256.73	39.31	-36.4	-37.8	17.4	0.00e+00	0	61	0	2103443456	44	4206
2026-01-30 02:38:40.53	256.38	39.13	-36.4	-37.7	17.5	0.00e+00	0	61	0	2108686336	44	4191
2026-01-30 02:38:41.54	256.04	38.96	-36.3	-37.7	17.5	0.00e+00	0	61	0	2114977792	44	4160
2026-01-30 02:38:42.55	255.70	38.79	-36.3	-37.7	17.6	0.00e+00	0	61	0	2120220672	44	4146
2026-01-30 02:38:43.56	255.36	38.62	-36.4	-37.8	17.4	0.00e+00	0	61	0	2126512128	44	4214
2026-01-30 02:38:44.57	255.03	38.45	-36.4	-37.8	17.4	0.00e+00	0	61	0	2131755008	44	4234
2026-01-30 02:38:45.58	254.70	38.27	-36.5	-37.9	17.3	0.00e+00	0	61	0	2138046464	44	4267
2026-01-30 02:38:46.59	254.37	38.10	-36.4	-37.9	17.3	0.00e+00	0	61	0	2143289344	44	4248
2026-01-30 02:38:47.60	254.05	37.93	-36.3	-37.7	17.5	0.00e+00	0	61	0	2148532224	44	4172
2026-01-30 02:38:48.61	253.73	37.76	-36.2	-37.5	17.6	0.00e+00	0	61	0	2154823680	44	4094
2026-01-30 02:38:49.62	253.41	37.58	-36.1	-37.4	17.8	0.00e+00	0	61	0	2160066560	44	4046
2026-01-30 02:38:50.63	253.10	37.41	-36.1	-37.5	17.7	0.00e+00	0	61	0	2166358016	44	4064
2026-01-30 02:38:51.64	252.79	37.24	-36.1	-37.5	17.7	0.00e+00	0	61	0	2171600896	44	4077
2026-01-30 02:38:52.65	252.48	37.06	-36.1	-37.4	17.8	0.00e+00	0	61	0	2176843776	44	4033
2026-01-30 02:38:53.67	252.18	36.89	-36.0	-37.4	17.8	0.00e+00	0	61	0	2183135232	44	4010
2026-01-30 02:38:54.68	251.88	36.72	-36.0	-37.4	17.8	0.00e+00	0	61	0	2188378112	44	4005
2026-01-30 02:38:55.69	251.58	36.54	-36.0	-37.3	17.8	0.00e+00	0	61	0	2194669568	44	4003
2026-01-30 02:38:56.70	251.29	36.37	-36.0	-37.4	17.8	0.00e+00	0	61	0	2199912448	44	4027
2026-01-30 02:38:57.71	250.99	36.20	-36.1	-37.5	17.7	0.00e+00	0	61	0	2205155328	44	4078
2026-01-30 02:38:58.72	250.71	36.02	-36.2	-37.6	17.6	0.00e+00	0	61	0	2211446784	44	4110
2026-01-30 02:38:59.73	250.42	35.85	-36.1	-37.5	17.7	0.00e+00	0	61	0	2216689664	44	4053
2026-01-30 02:39:00.74	250.14	35.68	-35.8	-37.2	17.9	0.00e+00	0	61	0	2222981120	43	4149
2026-01-30 02:39:01.75	249.86	35.51	-35.8	-37.2	17.9	0.00e+00	0	61	0	2228224000	43	4149
2026-01-30 02:39:02.77	249.59	35.33	-35.7	-37.1	17.9	0.00e+00	0	61	0	2234515456	43	4112
2026-01-30 02:39:03.78	249.31	35.16	-35.7	-37.1	17.9	0.00e+00	0	61	0	2239758336	43	4109
2026-01-30 02:39:04.79	249.04	34.99	-35.8	-37.2	17.8	0.00e+00	0	61	0	2246049792	43	4154
2026-01-30 02:39:05.80	248.78	34.82	-35.9	-37.3	17.7	0.00e+00	0	61	0	2251292672	43	4209
2026-01-30 02:39:06.81	248.51	34.64	-36.0	-37.3	17.7	0.00e+00	0	61	0	2256535552	43	4234
2026-01-30 02:39:07.82	248.25	34.47	-36.0	-37.4	17.6	0.00e+00	0	61	0	2262827008	43	4260
2026-01-30 02:39:08.83	247.99	34.30	-36.1	-37.4	17.6	0.00e+00	0	61	0	2268069888	43	4291
2026-01-30 02:39:09.84	247.74	34.13	-35.9	-37.3	17.7	0.00e+00	0	61	0	2274361344	43	4210
2026-01-30 02:39:10.85	247.48	33.96	-35.9	-37.3	17.8	0.00e+00	0	61	0	2279604224	43	4207
2026-01-30 02:39:11.86	247.23	33.79	-35.9	-37.3	17.7	0.00e+00	0	61	0	2284847104	43	4223
2026-01-30 02:39:12.87	246.99	33.62	-36.0	-37.4	17.6	0.00e+00	0	61	0	2291138560	43	4276
2026-01-30 02:39:13.88	246.74	33.45	-36.0	-37.4	17.6	0.00e+00	0	61	0	2296381440	43	4280
2026-01-30 02:39:14.89	246.50	33.28	-36.0	-37.4	17.6	0.00e+00	0	61	0	2302672896	43	4269
2026-01-30 02:39:15.90	246.26	33.11	-36.0	-37.4	17.6	0.00e+00	0	61	0	2307915776	43	4290
2026-01-30 02:39:16.91	246.02	32.95	-36.0	-37.4	17.6	0.00e+00	0	61	0	2313158656	43	4268
2026-01-30 02:39:17.92	245.79	32.78	-36.0	-37.4	17.6	0.00e+00	0	61	0	2319450112	43	4268
2026-01-30 02:39:18.93	245.55	32.61	-36.1	-37.5	17.5	0.00e+00	0	61	0	2324692992	43	4310
2026-01-30 02:39:19.94	245.32	32.44	-36.1	-37.5	17.5	0.00e+00	0	61	0	2330984448	43	4325
2026-01-30 02:39:20.95	245.10	32.28	-36.1	-37.5	17.5	0.00e+00	0	61	0	2336227328	43	4324
2026-01-30 02:39:21.96	244.87	32.11	-36.1	-37.5	17.5	0.00e+00	0	61	0	2342518784	43	4308
2026-01-30 02:39:22.97	244.65	31.94	-36.1	-37.5	17.5	0.00e+00	0	60	0	2347761664	43	4324
2026-01-30 02:39:23.98	244.43	31.78	-36.2	-37.6	17.4	0.00e+00	0	61	0	2354053120	43	4347
2026-01-30 02:39:24.99	244.21	31.61	-36.2	-37.6	17.4	0.00e+00	0	61	0	2359296000	43	4380
2026-01-30 02:39:26.00	243.99	31.45	-36.2	-37.6	17.3	0.00e+00	0	61	0	2364538880	43	4380
2026-01-30 02:39:27.01	243.78	31.28	-36.2	-37.6	17.4	0.00e+00	0	61	0	2370830336	43	4371
2026-01-30 02:39:28.02	243.57	31.12	-36.2	-37.6	17.4	0.00e+00	0	61	0	2376073216	43	4355
2026-01-30 02:39:29.03	243.36	30.96	-36.2	-37.6	17.4	0.00e+00	0	61	0	2382364672	43	4354
2026-01-30 02:39:30.04	243.15	30.79	-36.2	-37.7	17.3	0.00e+00	0	61	0	2387607552	43	4396
2026-01-30 02:39:31.05	242.94	30.63	-36.2	-37.6	17.3	0.00e+00	0	61	0	2392850432	43	4385
2026-01-30 02:39:32.06	242.74	30.47	-36.2	-37.6	17.3	0.00e+00	0	61	0	2399141888	43	4370
2026-01-30 02:39:33.07	242.54	30.31	-36.2	-37.6	17.3	0.00e+00	0	61	0	2404384768	43	4386
2026-01-30 02:39:34.08	242.34	30.15	-36.2	-37.6	17.4	0.00e+00	0	61	0	2410676224	43	4362
2026-01-30 02:39:35.09	242.14	29.99	-36.2	-37.6	17.3	0.00e+00	0	61	0	2415919104	43	4383
2026-01-30 02:39:36.10	241.94	29.83	-36.2	-37.6	17.3	0.00e+00	0	61	0	2421161984	43	4389
2026-01-30 02:39:37.11	241.75	29.67	-36.2	-37.6	17.3	0.00e+00	0	61	0	2427453440	43	4375
2026-01-30 02:39:38.12	241.56	29.51	-36.2	-37.6	17.3	0.00e+00	0	61	0	2432696320	43	4387
2026-01-30 02:39:39.13	241.37	29.35	-36.2	-37.6	17.3	0.00e+00	0	61	0	2438987776	43	4387
2026-01-30 02:39:40.14	241.18	29.19	-36.2	-37.7	17.3	0.00e+00	0	61	0	2444230656	43	4398
2026-01-30 02:39:41.16	240.99	29.04	-36.3	-37.7	17.2	0.00e+00	0	61	0	2450522112	43	4441
2026-01-30 02:39:42.17	240.81	28.88	-36.4	-37.8	17.1	0.00e+00	0	61	0	2455764992	43	4485
2026-01-30 02:39:43.18	240.63	28.72	-36.5	-38.0	17.0	0.00e+00	0	61	0	2462056448	43	4565
2026-01-30 02:39:44.19	240.45	28.57	-36.6	-38.1	16.9	0.00e+00	0	61	0	2467299328	43	4622
2026-01-30 02:39:45.20	240.27	28.41	-36.6	-38.1	16.8	0.00e+00	0	61	0	2472542208	43	4613
2026-01-30 02:39:46.21	240.09	28.26	-36.6	-38.1	16.8	0.00e+00	0	61	0	2478833664	43	4633
2026-01-30 02:39:47.22	239.91	28.11	-36.6	-38.1	16.8	0.00e+00	0	61	0	2484076544	43	4614
2026-01-30 02:39:48.23	239.74	27.95	-36.6	-38.1	16.9	0.00e+00	0	61	0	2490368000	43	4611
2026-01-30 02:39:49.24	239.57	27.80	-36.6	-38.1	16.8	0.00e+00	0	61	0	2495610880	43	4638
2026-01-30 02:39:50.25	239.40	27.65	-36.7	-38.2	16.7	0.00e+00	0	61	0	2500853760	43	4673
2026-01-30 02:39:51.26	239.23	27.50	-36.7	-38.2	16.7	0.00e+00	0	61	0	2507145216	43	4698
2026-01-30 02:39:52.27	239.06	27.34	-36.6	-38.1	16.8	0.00e+00	0	61	0	2512388096	43	4634
2026-01-30 02:39:53.28	238.90	27.19	-36.5	-38.0	16.9	0.00e+00	0	61	0	2518679552	43	4573
2026-01-30 02:39:54.29	238.73	27.04	-36.5	-38.0	16.9	0.00e+00	0	61	0	2523922432	43	4573
2026-01-30 02:39:55.30	238.57	26.89	-36.6	-38.1	16.9	0.00e+00	0	61	0	2529165312	43	4607
2026-01-30 02:39:56.31	238.41	26.75	-36.5	-38.0	17.0	0.00e+00	0	61	0	2535456768	43	4564
2026-01-30 02:39:57.32	238.25	26.60	-36.4	-37.9	17.0	0.00e+00	0	61	0	2540699648	43	4528
2026-01-30 02:39:58.33	238.09	26.45	-36.5	-38.0	16.9	0.00e+00	0	61	0	2546991104	43	4579
2026-01-30 02:39:59.34	237.94	26.30	-36.6	-38.1	16.8	0.00e+00	0	61	0	2552233984	43	4619
2026-01-30 02:40:00.35	237.78	26.16	-36.6	-38.2	16.8	0.00e+00	0	61	0	2558525440	43	4654
2026-01-30 02:40:01.36	237.63	26.01	-36.6	-38.1	16.8	0.00e+00	0	61	0	2563768320	43	4650
2026-01-30 02:40:02.37	237.47	25.86	-36.7	-38.2	16.7	0.00e+00	0	61	0	2569011200	43	4694
2026-01-30 02:40:03.38	237.32	25.72	-36.9	-38.4	16.6	0.00e+00	0	61	0	2575302656	44	4538
2026-01-30 02:40:04.39	237.17	25.58	-36.9	-38.4	16.7	0.00e+00	0	61	0	2580545536	44	4515
2026-01-30 02:40:05.40	237.03	25.43	-36.9	-38.4	16.6	0.00e+00	0	61	0	2586836992	44	4527
2026-01-30 02:40:06.41	236.88	25.29	-36.9	-38.4	16.7	0.00e+00	0	61	0	2592079872	44	4534
2026-01-30 02:40:07.42	236.74	25.15	-36.9	-38.4	16.7	0.00e+00	0	61	0	2597322752	44	4537
2026-01-30 02:40:08.43	236.59	25.00	-36.8	-38.3	16.7	0.00e+00	0	61	0	2603614208	44	4493
2026-01-30 02:40:09.44	236.45	24.86	-36.8	-38.3	16.8	0.00e+00	0	61	0	2608857088	44	4459
2026-01-30 02:40:10.45	236.31	24.72	-36.7	-38.3	16.6	0.00e+00	0	60	0	2615148544	44	4457
2026-01-30 02:40:11.45	236.17	24.58	-36.8	-38.3	16.5	0.00e+00	0	61	0	2620391424	44	4490
2026-01-30 02:40:12.46	236.03	24.44	-36.8	-38.4	16.5	0.00e+00	0	61	0	2625634304	44	4509
2026-01-30 02:40:13.47	235.89	24.30	-36.9	-38.5	16.4	0.00e+00	0	61	0	2631925760	44	4571
2026-01-30 02:40:14.48	235.76	24.17	-36.8	-38.3	16.7	0.00e+00	0	61	0	2637168640	44	4461
2026-01-30 02:40:15.49	235.62	24.03	-36.7	-38.2	16.8	0.00e+00	0	61	0	2643460096	44	4423
2026-01-30 02:40:16.50	235.49	23.89	-36.7	-38.2	16.8	0.00e+00	0	61	0	2648702976	44	4421
2026-01-30 02:40:17.51	235.35	23.75	-36.8	-38.3	16.7	0.00e+00	0	61	0	2654994432	44	4471
2026-01-30 02:40:18.52	235.22	23.62	-36.9	-38.4	16.6	0.00e+00	0	61	0	2660237312	44	4516
2026-01-30 02:40:19.53	235.09	23.48	-36.9	-38.4	16.6	0.00e+00	0	61	0	2666528768	44	4542
2026-01-30 02:40:20.54	234.96	23.34	-36.9	-38.4	16.6	0.00e+00	0	61	0	2671771648	44	4533
2026-01-30 02:40:21.55	234.83	23.21	-36.8	-38.4	16.7	0.00e+00	0	61	0	2677014528	44	4494
2026-01-30 02:40:22.57	234.71	23.07	-36.8	-38.3	16.7	0.00e+00	0	61	0	2683305984	44	4487
2026-01-30 02:40:23.58	234.58	22.94	-36.8	-38.3	16.7	0.00e+00	0	61	0	2688548864	44	4492
2026-01-30 02:40:24.59	234.46	22.81	-36.8	-38.3	16.6	0.00e+00	0	61	0	2694840320	44	4488
2026-01-30 02:40:25.60	234.33	22.67	-36.8	-38.3	16.6	0.00e+00	0	61	0	2700083200	44	4486
2026-01-30 02:40:26.61	234.21	22.54	-36.9	-38.5	16.5	0.00e+00	0	61	0	2705326080	44	4566
2026-01-30 02:40:27.62	234.09	22.41	-37.0	-38.6	16.4	0.00e+00	0	61	0	2711617536	44	4618
2026-01-30 02:40:28.63	233.97	22.28	-37.0	-38.6	16.4	0.00e+00	0	61	0	2716860416	44	4622
2026-01-30 02:40:29.64	233.85	22.15	-37.1	-38.7	16.3	0.00e+00	0	61	0	2723151872	44	4673
2026-01-30 02:40:30.65	233.73	22.02	-37.2	-38.8	16.2	0.00e+00	0	61	0	2728394752	44	4711
2026-01-30 02:40:31.66	233.61	21.89	-37.2	-38.8	16.2	0.00e+00	0	61	0	2733637632	44	4723
2026-01-30 02:40:32.67	233.49	21.76	-37.2	-38.8	16.2	0.00e+00	0	61	0	2739929088	44	4759
2026-01-30 02:40:33.68	233.38	21.63	-37.2	-38.8	16.2	0.00e+00	0	61	0	2745171968	45	4467
2026-01-30 02:40:34.69	233.26	21.51	-37.2	-38.8	16.2	0.00e+00	0	60	0	2751463424	45	4469
2026-01-30 02:40:35.70	233.15	21.38	-37.2	-38.8	16.1	0.00e+00	0	61	0	2756706304	45	4491
2026-01-30 02:40:36.72	233.04	21.25	-37.2	-38.9	16.1	0.00e+00	0	61	0	2762997760	45	4500
2026-01-30 02:40:37.73	232.93	21.12	-37.2	-38.8	16.1	0.00e+00	0	61	0	2768240640	45	4485
2026-01-30 02:40:38.74	232.81	21.00	-37.3	-38.9	16.0	0.00e+00	0	61	0	2774532096	45	4523
2026-01-30 02:40:39.75	232.70	20.87	-37.3	-39.0	16.0	0.00e+00	0	61	0	2779774976	45	4549
2026-01-30 02:40:40.76	232.60	20.75	-37.3	-38.9	16.1	0.00e+00	0	61	0	2785017856	45	4534
2026-01-30 02:40:41.77	232.49	20.62	-37.3	-39.0	16.0	0.00e+00	0	61	0	2791309312	45	4563
2026-01-30 02:40:42.78	232.38	20.50	-37.4	-39.0	15.9	0.00e+00	0	61	0	2796552192	45	4595
2026-01-30 02:40:43.79	232.27	20.38	-37.4	-39.1	15.8	0.00e+00	0	61	0	2802843648	45	4624
2026-01-30 02:40:44.80	232.17	20.25	-37.5	-39.2	15.7	0.00e+00	0	61	0	2808086528	45	4669
2026-01-30 02:40:45.81	232.06	20.13	-37.5	-39.2	15.8	0.00e+00	0	61	0	2813329408	45	4658
2026-01-30 02:40:46.82	231.96	20.01	-37.5	-39.2	15.7	0.00e+00	0	61	0	2819620864	45	4658
2026-01-30 02:40:47.83	231.86	19.89	-37.5	-39.2	15.7	0.00e+00	0	61	0	2824863744	45	4680
2026-01-30 02:40:48.84	231.76	19.77	-37.5	-39.2	15.7	0.00e+00	0	61	0	2831155200	45	4700
2026-01-30 02:40:49.85	231.65	19.65	-37.6	-39.3	15.6	0.00e+00	0	61	0	2836398080	45	4740
2026-01-30 02:40:50.86	231.55	19.53	-37.6	-39.3	15.6	0.00e+00	0	61	0	2841640960	45	4756
2026-01-30 02:40:51.87	231.45	19.41	-37.5	-39.2	15.7	0.00e+00	0	61	0	2847932416	45	4693
2026-01-30 02:40:52.88	231.36	19.29	-37.6	-39.3	15.7	0.00e+00	0	61	0	2853175296	45	4714
2026-01-30 02:40:53.90	231.26	19.17	-37.6	-39.2	15.7	0.00e+00	0	61	0	2859466752	45	4701
2026-01-30 02:40:54.91	231.16	19.05	-37.6	-39.3	15.6	0.00e+00	0	61	0	2864709632	45	4737
2026-01-30 02:40:55.92	231.06	18.93	-37.6	-39.3	15.6	0.00e+00	0	61	0	2871001088	45	4746
2026-01-30 02:40:56.93	230.97	18.82	-37.6	-39.3	15.6	0.00e+00	0	61	0	2876243968	45	4728
2026-01-30 02:40:57.94	230.87	18.70	-37.6	-39.3	15.6	0.00e+00	0	61	0	2882535424	45	4721
2026-01-30 02:40:58.95	230.78	18.59	-37.6	-39.3	15.6	0.00e+00	0	61	0	2887778304	45	4753
2026-01-30 02:40:59.96	230.68	18.47	-37.7	-39.5	15.5	0.00e+00	0	61	0	2893021184	46	4559
2026-01-30 02:41:00.97	230.59	18.35	-37.7	-39.5	15.5	0.00e+00	0	61	0	2899312640	46	4547
2026-01-30 02:41:01.98	230.50	18.24	-37.8	-39.6	15.3	0.00e+00	0	61	0	2904555520	46	4599
2026-01-30 02:41:02.99	230.41	18.13	-37.9	-39.6	15.3	0.00e+00	0	61	0	2910846976	46	4641
2026-01-30 02:41:04.00	230.32	18.01	-37.9	-39.7	15.2	0.00e+00	0	61	0	2916089856	46	4693
2026-01-30 02:41:05.01	230.23	17.90	-37.9	-39.7	15.2	0.00e+00	0	61	0	2921332736	46	4696
2026-01-30 02:41:06.02	230.14	17.79	-37.9	-39.8	15.1	0.00e+00	0	61	0	2927624192	46	4710
2026-01-30 02:41:07.03	230.05	17.67	-38.0	-39.8	15.1	0.00e+00	0	61	0	2932867072	46	4739
2026-01-30 02:41:08.04	229.96	17.56	-38.0	-39.9	15.0	0.00e+00	0	60	0	2939158528	46	4772
2026-01-30 02:41:09.05	229.87	17.45	-38.0	-39.9	15.0	0.00e+00	0	61	0	2944401408	46	4773
2026-01-30 02:41:10.06	229.79	17.34	-38.0	-39.9	15.0	0.00e+00	0	61	0	2949644288	46	4768
2026-01-30 02:41:11.07	229.70	17.23	-38.1	-39.9	14.9	0.00e+00	0	61	0	2955935744	46	4810
2026-01-30 02:41:12.08	229.62	17.12	-38.1	-40.0	14.9	0.00e+00	0	61	0	2961178624	46	4815
2026-01-30 02:41:13.09	229.53	17.01	-38.1	-40.0	14.9	0.00e+00	0	61	0	2967470080	46	4815
2026-01-30 02:41:14.10	229.45	16.90	-38.1	-40.0	14.9	0.00e+00	0	61	0	2972712960	46	4842
2026-01-30 02:41:15.12	229.36	16.79	-38.2	-40.1	14.8	1.10e-06	0	61	0	2979004416	46	4884
2026-01-30 02:41:16.13	229.28	16.68	-38.3	-40.2	14.7	0.00e+00	0	61	0	2984247296	47	4654
2026-01-30 02:41:17.14	229.20	16.57	-38.3	-40.2	14.7	0.00e+00	0	61	0	2990538752	47	4659
2026-01-30 02:41:18.15	229.12	16.47	-38.3	-40.3	14.6	0.00e+00	0	61	0	2995781632	47	4706
2026-01-30 02:41:19.16	229.03	16.36	-38.3	-40.2	14.6	1.10e-06	0	61	0	3001024512	47	4705
2026-01-30 02:41:20.17	228.95	16.25	-38.4	-40.4	14.5	1.10e-06	0	61	0	3007315968	47	4760
2026-01-30 02:41:21.18	228.87	16.14	-38.4	-40.4	14.5	1.10e-06	0	61	0	3012558848	47	4760
2026-01-30 02:41:22.19	228.80	16.04	-38.4	-40.4	14.4	1.10e-06	0	61	0	3018850304	47	4771
2026-01-30 02:41:23.20	228.72	15.93	-38.4	-40.4	14.4	0.00e+00	0	61	0	3024093184	47	4789
2026-01-30 02:41:24.21	228.64	15.83	-38.5	-40.4	14.4	0.00e+00	0	61	0	3029336064	47	4813
2026-01-30 02:41:25.22	228.56	15.72	-38.4	-40.4	14.4	1.10e-06	0	61	0	3035627520	47	4794
2026-01-30 02:41:26.23	228.48	15.62	-38.4	-40.3	14.5	2.20e-06	0	61	0	3040870400	47	4744
2026-01-30 02:41:27.24	228.41	15.51	-38.4	-40.3	14.5	2.20e-06	0	61	0	3047161856	47	4720
2026-01-30 02:41:28.25	228.33	15.41	-38.4	-40.4	14.4	1.10e-06	0	61	0	3052404736	47	4787
2026-01-30 02:41:29.26	228.26	15.31	-38.4	-40.4	14.4	2.20e-06	0	61	0	3057647616	47	4768
2026-01-30 02:41:30.27	228.18	15.20	-38.5	-40.4	14.3	3.40e-06	0	61	0	3063939072	47	4800
2026-01-30 02:41:31.28	228.11	15.10	-38.5	-40.5	14.2	4.50e-06	0	61	0	3069181952	47	4858
2026-01-30 02:41:32.29	228.03	15.00	-38.5	-40.5	14.3	3.40e-06	0	61	0	3075473408	47	4821
2026-01-30 02:41:33.30	227.96	14.90	-38.6	-40.5	14.2	3.40e-06	0	61	0	3080716288	47	4868
2026-01-30 02:41:34.31	227.89	14.80	-38.6	-40.6	14.1	1.10e-06	0	61	0	3087007744	47	4904
2026-01-30 02:41:35.33	227.81	14.70	-38.6	-40.6	14.1	2.20e-06	0	61	0	3092250624	47	4884
2026-01-30 02:41:36.34	227.74	14.59	-38.6	-40.6	14.1	3.40e-06	0	61	0	3098542080	47	4892
2026-01-30 02:41:37.35	227.67	14.49	-38.6	-40.7	14.1	1.10e-06	0	61	0	3103784960	47	4933
2026-01-30 02:41:38.36	227.60	14.39	-38.6	-40.7	14.0	2.20e-06	0	61	0	3109027840	47	4946
2026-01-30 02:41:39.37	227.53	14.30	-38.7	-40.7	14.0	3.40e-06	0	61	0	3115319296	47	4975
2026-01-30 02:41:40.38	227.46	14.20	-38.7	-40.8	14.0	3.40e-06	0	61	0	3120562176	47	4989
2026-01-30 02:41:41.39	227.39	14.10	-38.7	-40.8	14.0	4.50e-06	0	61	0	3126853632	47	4988
2026-01-30 02:41:42.40	227.32	14.00	-38.8	-40.9	13.9	9.10e-06	0	61	0	3132096512	48	4772
2026-01-30 02:41:43.41	227.25	13.90	-38.9	-41.0	13.8	8.00e-06	0	61	0	3137339392	48	4818
2026-01-30 02:41:44.42	227.19	13.80	-38.9	-41.0	13.8	9.10e-06	0	61	0	3143630848	48	4856
2026-01-30 02:41:45.43	227.12	13.71	-39.0	-41.1	13.7	1.14e-05	0	61	0	3148873728	48	4878
2026-01-30 02:41:46.44	227.05	13.61	-38.9	-41.0	13.8	3.40e-06	0	61	0	3155165184	48	4860
2026-01-30 02:41:47.45	226.99	13.51	-38.9	-41.0	13.8	8.00e-06	0	61	0	3160408064	48	4842
2026-01-30 02:41:48.46	226.92	13.42	-38.9	-41.0	13.8	8.00e-06	0	61	0	3165650944	48	4850
2026-01-30 02:41:49.47	226.85	13.32	-38.9	-41.1	13.7	9.10e-06	0	61	0	3171942400	48	4882
2026-01-30 02:41:50.48	226.79	13.22	-38.9	-41.0	13.7	1.14e-05	0	61	0	3177185280	48	4869
2026-01-30 02:41:51.50	226.72	13.13	-38.9	-41.0	13.8	1.14e-05	0	61	0	3183476736	48	4842
2026-01-30 02:41:52.51	226.66	13.03	-38.9	-41.1	13.7	6.80e-06	0	61	0	3188719616	48	4880
2026-01-30 02:41:53.51	226.60	12.94	-38.9	-41.0	13.7	1.02e-05	0	61	0	3195011072	48	4854
2026-01-30 02:41:54.52	226.53	12.85	-39.0	-41.1	13.6	1.48e-05	0	61	0	3200253952	48	4901
2026-01-30 02:41:55.53	226.47	12.75	-39.0	-41.1	13.6	1.71e-05	0	61	0	3206545408	48	4926
2026-01-30 02:41:56.55	226.41	12.66	-39.0	-41.2	13.5	1.83e-05	0	61	0	3211788288	48	4955
2026-01-30 02:41:57.56	226.34	12.56	-39.1	-41.2	13.5	1.71e-05	0	61	0	3217031168	48	4980
