passes_logs/2026/01/30/R2.0S_Moscow/R2.0S_Moscow__20260130_094405_SUOMI_NPP_rec.log

#Pass ID: 20260130_094405_SUOMI NPP
#Satellite: SUOMI NPP
#Configuration: NPP
#almurnet v.1.7.20251203
#Start time: 2026-01-30 09:44:05

#Version: 2.2.20231116
#Station: R2.0S_Moscow
#Location: 37.707566 lon 55.798166 lat
#TLE: 1 37849U 11061A   26029.48304708  .00000140  00000+0  87283-4 0  9999
#TLE: 2 37849  98.7824 331.4079 0002024  38.4342 321.6978 14.19531488738761

#Time	Az	El	Level	Level2	SNR	BER	BlckErr	Temp	State	Recorded	gain1	gain2
2026-01-30 09:44:05.67	152.86	2.03	-43.8	-58.4	3.8	1.49e+00	0	52	0	0	59	18965
2026-01-30 09:44:06.67	152.85	2.09	-43.8	-58.3	3.8	1.49e+00	0	52	104	0	59	18935
2026-01-30 09:44:07.68	152.84	2.15	-43.8	-58.3	3.8	1.49e+00	0	53	104	0	59	18919
2026-01-30 09:44:08.69	152.84	2.22	-43.8	-58.3	3.8	1.49e+00	0	52	104	0	59	18905
2026-01-30 09:44:09.70	152.83	2.29	-43.8	-58.3	3.8	1.49e+00	0	53	104	0	59	18894
2026-01-30 09:44:10.72	152.82	2.35	-43.8	-58.3	3.8	1.49e+00	0	53	104	0	59	18878
2026-01-30 09:44:11.73	152.81	2.42	-43.8	-58.3	3.8	1.49e+00	0	53	104	0	59	18889
2026-01-30 09:44:12.74	152.80	2.48	-43.8	-58.3	3.8	1.49e+00	0	53	104	0	59	18907
2026-01-30 09:44:13.75	152.79	2.55	-43.8	-58.3	3.8	1.49e+00	0	53	104	0	59	18866
2026-01-30 09:44:14.76	152.78	2.62	-43.8	-58.3	3.8	1.49e+00	0	53	104	0	59	18922
2026-01-30 09:44:15.77	152.77	2.68	-43.8	-58.3	3.8	1.49e+00	0	53	104	0	59	18853
2026-01-30 09:44:16.78	152.76	2.75	-43.8	-58.3	3.8	1.49e+00	0	53	104	0	59	18827
2026-01-30 09:44:17.79	152.75	2.82	-43.8	-58.3	3.8	1.49e+00	0	53	104	0	59	18825
2026-01-30 09:44:18.80	152.74	2.88	-43.8	-58.3	3.8	1.49e+00	0	53	104	0	59	18846
2026-01-30 09:44:19.81	152.73	2.95	-43.8	-58.3	3.8	1.49e+00	0	53	104	0	59	18870
2026-01-30 09:44:20.82	152.72	3.02	-43.8	-58.3	3.8	1.49e+00	0	53	104	0	59	18849
2026-01-30 09:44:21.83	152.71	3.08	-43.8	-58.3	3.8	1.49e+00	0	54	104	0	59	18816
2026-01-30 09:44:22.84	152.70	3.15	-43.7	-58.3	3.8	1.49e+00	0	54	104	0	58	19909
2026-01-30 09:44:23.85	152.68	3.22	-43.8	-58.3	3.8	1.49e+00	0	54	104	0	58	19920
2026-01-30 09:44:24.87	152.67	3.29	-43.8	-58.3	3.8	1.49e+00	0	54	104	0	58	19934
2026-01-30 09:44:25.88	152.66	3.36	-43.8	-58.3	3.8	1.49e+00	0	54	104	0	58	19969
2026-01-30 09:44:26.89	152.65	3.42	-43.8	-58.3	3.8	1.49e+00	0	54	104	0	58	19935
2026-01-30 09:44:27.90	152.64	3.49	-43.7	-58.3	3.8	1.49e+00	0	54	104	0	58	19954
2026-01-30 09:44:28.91	152.63	3.56	-43.8	-58.3	3.8	1.49e+00	0	54	104	0	58	19928
2026-01-30 09:44:29.92	152.62	3.63	-43.8	-58.3	3.8	1.49e+00	0	54	104	0	58	19983
2026-01-30 09:44:30.93	152.61	3.70	-43.8	-58.3	3.8	1.49e+00	0	54	104	0	58	19931
2026-01-30 09:44:31.94	152.60	3.77	-43.8	-58.3	3.8	1.49e+00	0	54	104	0	58	19974
2026-01-30 09:44:32.95	152.59	3.84	-43.7	-58.3	3.8	1.49e+00	0	54	104	0	58	19909
2026-01-30 09:44:33.96	152.58	3.91	-43.7	-58.3	3.8	1.49e+00	0	54	104	0	58	19871
2026-01-30 09:44:34.97	152.57	3.97	-43.7	-58.3	3.8	1.49e+00	0	54	104	0	58	19855
2026-01-30 09:44:35.98	152.56	4.04	-43.7	-58.3	3.8	1.49e+00	0	54	104	0	58	19900
2026-01-30 09:44:36.99	152.54	4.11	-43.7	-58.3	3.8	1.49e+00	0	54	104	0	58	19884
2026-01-30 09:44:38.00	152.53	4.18	-43.7	-58.3	3.8	1.49e+00	0	54	104	0	58	19874
2026-01-30 09:44:39.01	152.52	4.25	-43.7	-58.3	3.8	1.49e+00	0	55	104	0	58	19933
2026-01-30 09:44:40.02	152.51	4.33	-43.7	-58.3	3.8	1.49e+00	0	55	104	0	58	19863
2026-01-30 09:44:41.03	152.50	4.40	-43.7	-58.3	3.8	1.49e+00	0	55	104	0	58	19877
2026-01-30 09:44:42.05	152.49	4.47	-43.7	-58.2	3.8	1.49e+00	0	54	104	0	58	19834
2026-01-30 09:44:43.06	152.48	4.54	-43.7	-58.3	3.8	1.49e+00	0	55	104	0	58	19937
2026-01-30 09:44:44.07	152.46	4.61	-43.7	-58.3	3.8	1.49e+00	0	55	104	0	58	19901
2026-01-30 09:44:45.08	152.45	4.68	-43.7	-58.3	3.8	1.49e+00	0	55	104	0	58	19887
2026-01-30 09:44:46.09	152.44	4.75	-43.7	-58.3	3.8	1.49e+00	0	55	104	0	58	19865
2026-01-30 09:44:47.10	152.43	4.82	-43.7	-58.3	3.8	1.49e+00	0	55	104	0	58	19957
2026-01-30 09:44:48.11	152.42	4.90	-43.7	-58.2	3.8	1.49e+00	0	55	104	0	58	19804
2026-01-30 09:44:49.12	152.40	4.97	-43.7	-58.2	3.8	1.49e+00	0	55	104	0	58	19805
2026-01-30 09:44:50.13	152.39	5.04	-43.7	-58.2	3.8	1.49e+00	0	55	104	0	58	19671
2026-01-30 09:44:51.14	152.38	5.11	-43.7	-58.1	3.8	1.49e+00	0	55	104	0	58	19455
2026-01-30 09:44:52.15	152.37	5.19	-43.7	-58.0	3.8	1.49e+00	0	55	104	0	58	19229
2026-01-30 09:44:53.16	152.35	5.26	-43.7	-57.7	3.8	1.49e+00	0	55	104	0	58	18674
2026-01-30 09:44:54.17	152.34	5.33	-43.7	-57.5	3.8	1.49e+00	0	55	104	0	58	18172
2026-01-30 09:44:55.18	152.33	5.41	-43.7	-57.2	3.8	1.49e+00	0	56	104	0	58	17504
2026-01-30 09:44:56.19	152.32	5.48	-43.7	-56.8	3.9	1.49e+00	0	55	104	0	58	16800
2026-01-30 09:44:57.21	152.30	5.55	-43.6	-56.4	3.8	1.49e+00	0	56	104	0	58	16070
2026-01-30 09:44:58.22	152.29	5.63	-43.6	-56.1	3.9	1.49e+00	0	56	104	0	58	15441
2026-01-30 09:44:59.22	152.28	5.70	-43.6	-55.7	4.0	1.47e+00	0	56	0	0	58	14719
2026-01-30 09:45:00.24	152.27	5.78	-43.6	-55.7	4.0	1.47e+00	0	56	104	0	58	14722
2026-01-30 09:45:01.25	152.25	5.85	-43.6	-55.9	3.8	1.47e+00	0	56	104	0	58	15095
2026-01-30 09:45:02.26	152.24	5.93	-43.6	-55.9	3.8	1.49e+00	0	56	104	0	58	15205
2026-01-30 09:45:03.27	152.23	6.00	-43.5	-55.2	4.1	1.47e+00	0	56	0	0	58	13900
2026-01-30 09:45:04.28	152.21	6.08	-43.5	-54.4	4.3	1.39e+00	0	56	0	0	58	12753
2026-01-30 09:45:05.29	152.20	6.15	-43.4	-53.9	4.4	1.21e+00	0	56	0	1048576	58	12004
2026-01-30 09:45:06.30	152.19	6.23	-43.4	-53.8	4.5	1.06e+00	0	56	0	3145728	58	11889
2026-01-30 09:45:07.31	152.17	6.30	-43.4	-53.8	4.5	1.06e+00	0	56	0	4194304	58	11841
2026-01-30 09:45:08.32	152.16	6.38	-43.3	-53.1	4.8	8.70e-01	0	56	0	6291456	58	10947
2026-01-30 09:45:09.33	152.15	6.46	-43.3	-52.5	5.1	7.16e-01	0	56	0	8388608	58	10256
2026-01-30 09:45:10.33	152.13	6.53	-43.3	-52.4	5.1	6.56e-01	0	56	0	10485760	58	10148
2026-01-30 09:45:11.34	152.12	6.61	-43.2	-52.1	5.3	5.66e-01	0	56	0	12582912	58	9771
2026-01-30 09:45:12.35	152.11	6.68	-43.1	-51.5	5.7	4.27e-01	0	56	0	13631488	58	9163
2026-01-30 09:45:13.36	152.09	6.76	-43.0	-51.2	6.0	3.78e-01	0	56	0	15728640	58	8768
2026-01-30 09:45:14.37	152.08	6.84	-43.0	-50.8	6.2	3.09e-01	0	56	0	17825792	58	8440
2026-01-30 09:45:15.38	152.06	6.92	-42.9	-50.7	6.4	2.70e-01	0	56	0	19922944	57	8782
2026-01-30 09:45:16.39	152.05	6.99	-42.9	-50.4	6.6	2.26e-01	0	56	0	22020096	57	8514
2026-01-30 09:45:17.40	152.04	7.07	-42.8	-50.1	6.9	1.95e-01	0	56	0	23068672	57	8207
2026-01-30 09:45:18.41	152.02	7.15	-42.8	-50.0	7.0	1.65e-01	0	56	0	25165824	57	8092
2026-01-30 09:45:19.42	152.01	7.23	-42.6	-49.4	7.6	1.16e-01	0	57	0	27262976	57	7555
2026-01-30 09:45:20.44	151.99	7.31	-42.6	-49.2	7.7	8.76e-02	0	57	0	29360128	57	7435
2026-01-30 09:45:21.45	151.98	7.39	-42.5	-49.0	7.9	7.57e-02	0	56	0	31457280	57	7240
2026-01-30 09:45:22.46	151.96	7.47	-42.4	-48.5	8.4	5.24e-02	0	57	0	33554432	56	7283
2026-01-30 09:45:23.47	151.95	7.55	-42.3	-48.2	8.6	4.60e-02	0	57	0	34603008	56	7039
2026-01-30 09:45:24.48	151.93	7.63	-42.3	-48.2	8.7	3.34e-02	0	57	0	36700160	56	7004
2026-01-30 09:45:25.49	151.92	7.71	-42.2	-47.8	9.1	2.73e-02	0	57	0	38797312	56	6651
2026-01-30 09:45:26.50	151.90	7.79	-42.2	-47.7	9.2	1.92e-02	0	57	0	40894464	56	6603
2026-01-30 09:45:27.51	151.89	7.87	-42.0	-47.4	9.5	1.76e-02	0	57	0	42991616	56	6372
2026-01-30 09:45:28.52	151.87	7.95	-42.0	-47.3	9.6	1.50e-02	0	57	0	44040192	56	6324
2026-01-30 09:45:29.53	151.86	8.03	-41.9	-47.2	9.5	1.29e-02	0	57	0	46137344	55	6614
2026-01-30 09:45:30.54	151.84	8.11	-43.2	-50.4	7.2	1.13e-02	0	57	0	48234496	56	9067
2026-01-30 09:45:31.55	151.83	8.19	-43.5	-51.5	5.9	1.20e+00	0	57	0	49283072	58	9142
2026-01-30 09:45:32.56	151.81	8.28	-42.1	-47.3	9.9	5.24e-02	0	57	0	51380224	56	6295
2026-01-30 09:45:33.57	151.79	8.36	-42.7	-49.8	7.2	5.58e-02	0	57	0	53477376	56	8400
2026-01-30 09:45:34.58	151.78	8.44	-42.1	-47.5	9.4	2.69e-01	0	57	0	55574528	56	6449
2026-01-30 09:45:35.59	151.76	8.52	-42.1	-47.8	9.0	3.88e-02	0	57	0	56623104	56	6666
2026-01-30 09:45:36.60	151.75	8.61	-42.0	-47.4	9.5	1.70e-02	0	57	0	58720256	56	6350
2026-01-30 09:45:37.61	151.73	8.69	-42.0	-47.3	9.6	1.51e-02	0	57	0	60817408	56	6327
2026-01-30 09:45:38.62	151.71	8.77	-41.8	-47.1	9.6	1.15e-02	0	58	0	62914560	55	6530
2026-01-30 09:45:39.63	151.70	8.86	-41.8	-47.1	9.7	1.34e-02	0	58	0	65011712	55	6513
2026-01-30 09:45:40.64	151.68	8.94	-41.8	-46.8	10.0	8.23e-03	0	57	0	66060288	55	6322
2026-01-30 09:45:41.65	151.66	9.03	-41.8	-46.7	10.2	5.76e-03	0	57	0	68157440	55	6218
2026-01-30 09:45:42.66	151.65	9.11	-41.8	-46.7	10.3	6.53e-03	0	57	0	70254592	55	6210
2026-01-30 09:45:43.67	151.63	9.20	-41.7	-46.5	10.5	4.36e-03	0	57	0	72351744	55	6107
2026-01-30 09:45:44.68	151.61	9.28	-41.7	-46.4	10.6	4.25e-03	0	57	0	74448896	55	6026
2026-01-30 09:45:45.69	151.59	9.37	-41.8	-46.4	10.6	3.15e-03	0	57	0	75497472	55	6048
2026-01-30 09:45:46.70	151.58	9.45	-41.7	-46.4	10.7	2.95e-03	0	58	0	77594624	55	6000
2026-01-30 09:45:47.71	151.56	9.54	-41.8	-46.4	10.7	2.23e-03	0	58	0	79691776	55	6058
2026-01-30 09:45:48.72	151.54	9.62	-41.9	-46.6	10.6	2.75e-03	0	58	0	81788928	55	6145
2026-01-30 09:45:49.73	151.53	9.71	-41.8	-46.4	10.8	2.79e-03	0	58	0	83886080	55	6004
2026-01-30 09:45:50.74	151.51	9.80	-41.7	-46.2	10.9	2.43e-03	0	58	0	84934656	55	5915
2026-01-30 09:45:51.75	151.49	9.89	-41.8	-46.4	10.8	2.17e-03	0	58	0	87031808	55	6018
2026-01-30 09:45:52.76	151.47	9.97	-41.8	-46.3	10.9	2.44e-03	0	58	0	89128960	55	5950
2026-01-30 09:45:53.77	151.45	10.06	-41.8	-46.4	10.8	2.41e-03	0	58	0	91226112	55	5994
2026-01-30 09:45:54.78	151.44	10.15	-41.9	-46.6	10.7	2.81e-03	0	58	0	93323264	55	6153
2026-01-30 09:45:55.79	151.42	10.24	-41.8	-46.4	10.8	2.74e-03	0	58	0	94371840	55	6038
2026-01-30 09:45:56.80	151.40	10.33	-41.8	-46.4	10.9	2.32e-03	0	58	0	96468992	55	6002
2026-01-30 09:45:57.81	151.38	10.42	-41.8	-46.2	11.1	2.10e-03	0	58	0	98566144	55	5877
2026-01-30 09:45:58.82	151.36	10.51	-41.8	-46.3	11.0	1.98e-03	0	58	0	100663296	55	5941
2026-01-30 09:45:59.83	151.34	10.60	-41.8	-46.3	11.1	1.75e-03	0	58	0	102760448	55	5930
2026-01-30 09:46:00.84	151.32	10.69	-41.9	-46.4	10.9	1.63e-03	0	58	0	103809024	55	6049
2026-01-30 09:46:01.85	151.30	10.78	-41.8	-46.3	11.0	2.06e-03	0	58	0	105906176	55	5971
2026-01-30 09:46:02.86	151.28	10.87	-41.9	-46.4	10.9	2.16e-03	0	58	0	108003328	55	6036
2026-01-30 09:46:03.87	151.26	10.96	-41.8	-46.3	11.0	1.74e-03	0	58	0	110100480	55	5963
2026-01-30 09:46:04.88	151.25	11.05	-41.8	-46.3	11.1	1.47e-03	0	58	0	112197632	55	5967
2026-01-30 09:46:05.89	151.23	11.14	-41.8	-46.3	11.1	1.48e-03	0	58	0	114294784	55	5926
2026-01-30 09:46:06.90	151.21	11.23	-41.9	-46.3	11.1	1.43e-03	0	58	0	115343360	55	5968
2026-01-30 09:46:07.91	151.19	11.33	-41.9	-46.4	11.0	1.96e-03	0	58	0	117440512	55	6042
2026-01-30 09:46:08.92	151.17	11.42	-41.9	-46.4	11.0	1.80e-03	0	58	0	119537664	55	6011
2026-01-30 09:46:09.93	151.15	11.51	-41.8	-46.2	11.3	1.44e-03	0	58	0	121634816	55	5879
2026-01-30 09:46:10.94	151.13	11.61	-41.8	-46.1	11.4	1.08e-03	0	58	0	123731968	55	5801
2026-01-30 09:46:11.95	151.10	11.70	-41.7	-46.0	11.5	1.01e-03	0	59	0	124780544	55	5750
2026-01-30 09:46:12.96	151.08	11.79	-41.7	-46.0	11.4	8.60e-04	0	58	0	126877696	55	5768
2026-01-30 09:46:13.97	151.06	11.89	-41.7	-45.9	11.6	6.86e-04	0	59	0	128974848	55	5664
2026-01-30 09:46:14.98	151.04	11.98	-41.7	-45.8	11.6	6.82e-04	0	58	0	131072000	55	5653
2026-01-30 09:46:15.99	151.02	12.08	-41.6	-45.8	11.7	5.60e-04	0	58	0	133169152	55	5619
2026-01-30 09:46:17.00	151.00	12.18	-41.6	-45.7	11.8	3.65e-04	0	59	0	134217728	55	5563
2026-01-30 09:46:18.01	150.98	12.27	-41.5	-45.4	12.1	3.52e-04	0	59	0	136314880	55	5391
2026-01-30 09:46:19.02	150.96	12.37	-41.5	-45.4	12.1	2.84e-04	0	58	0	138412032	54	5687
2026-01-30 09:46:20.03	150.93	12.47	-41.5	-45.4	12.1	2.97e-04	0	59	0	140509184	54	5691
2026-01-30 09:46:21.04	150.91	12.56	-41.5	-45.4	12.1	2.38e-04	0	59	0	142606336	54	5709
2026-01-30 09:46:22.05	150.89	12.66	-41.5	-45.3	12.2	2.02e-04	0	59	0	143654912	54	5646
2026-01-30 09:46:23.06	150.87	12.76	-41.5	-45.3	12.3	1.80e-04	0	59	0	145752064	54	5603
2026-01-30 09:46:24.07	150.85	12.86	-41.4	-45.2	12.4	1.30e-04	0	59	0	147849216	54	5563
2026-01-30 09:46:25.08	150.82	12.96	-41.4	-45.1	12.4	1.25e-04	0	59	0	149946368	54	5505
2026-01-30 09:46:26.09	150.80	13.05	-41.4	-45.0	12.6	8.39e-05	0	59	0	152043520	54	5451
2026-01-30 09:46:27.10	150.78	13.15	-41.3	-45.0	12.6	9.91e-05	0	59	0	153092096	54	5434
2026-01-30 09:46:28.10	150.75	13.25	-41.3	-44.9	12.7	9.99e-05	0	59	0	155189248	54	5402
2026-01-30 09:46:29.11	150.73	13.35	-41.4	-45.1	12.5	1.07e-04	0	59	0	157286400	54	5489
2026-01-30 09:46:30.12	150.71	13.46	-41.4	-45.1	12.6	1.12e-04	0	59	0	159383552	54	5471
2026-01-30 09:46:31.13	150.68	13.56	-41.4	-45.1	12.5	1.14e-04	0	59	0	161480704	54	5524
2026-01-30 09:46:32.14	150.66	13.66	-41.5	-45.3	12.3	1.52e-04	0	59	0	162529280	54	5637
2026-01-30 09:46:33.15	150.64	13.76	-41.5	-45.2	12.4	1.64e-04	0	59	0	164626432	54	5592
2026-01-30 09:46:34.16	150.61	13.86	-41.5	-45.4	12.3	1.71e-04	0	59	0	166723584	54	5674
2026-01-30 09:46:35.18	150.59	13.97	-41.5	-45.3	12.3	1.68e-04	0	59	0	168820736	54	5656
2026-01-30 09:46:36.19	150.56	14.07	-41.6	-45.5	12.2	2.24e-04	0	59	0	170917888	54	5728
2026-01-30 09:46:37.20	150.54	14.17	-41.6	-45.5	12.2	1.86e-04	0	59	0	171966464	54	5743
2026-01-30 09:46:38.21	150.51	14.28	-41.6	-45.4	12.2	1.84e-04	0	59	0	174063616	54	5712
2026-01-30 09:46:39.22	150.49	14.38	-41.6	-45.5	12.2	2.06e-04	0	59	0	176160768	54	5725
2026-01-30 09:46:40.23	150.46	14.49	-41.6	-45.5	12.2	2.08e-04	0	59	0	178257920	54	5730
2026-01-30 09:46:41.24	150.44	14.59	-41.6	-45.4	12.3	1.80e-04	0	59	0	180355072	54	5675
2026-01-30 09:46:42.25	150.41	14.70	-41.6	-45.5	12.2	2.14e-04	0	59	0	182452224	54	5773
2026-01-30 09:46:43.26	150.38	14.81	-41.6	-45.4	12.3	2.82e-04	0	59	0	183500800	54	5673
2026-01-30 09:46:44.27	150.36	14.91	-41.6	-45.5	12.3	1.82e-04	0	59	0	185597952	54	5734
2026-01-30 09:46:45.28	150.33	15.02	-41.6	-45.4	12.3	2.04e-04	0	59	0	187695104	54	5693
2026-01-30 09:46:46.29	150.31	15.13	-41.5	-45.3	12.5	1.69e-04	0	59	0	189792256	54	5594
2026-01-30 09:46:47.30	150.28	15.24	-41.5	-45.2	12.5	1.44e-04	0	59	0	191889408	54	5572
2026-01-30 09:46:48.31	150.25	15.35	-41.5	-45.3	12.4	1.07e-04	0	59	0	192937984	54	5597
2026-01-30 09:46:49.32	150.22	15.46	-41.5	-45.2	12.5	9.84e-05	0	59	0	195035136	54	5588
2026-01-30 09:46:50.33	150.20	15.57	-41.4	-45.1	12.6	9.30e-05	0	59	0	197132288	54	5497
2026-01-30 09:46:51.34	150.17	15.68	-41.5	-45.1	12.6	1.12e-04	0	59	0	199229440	54	5513
2026-01-30 09:46:52.35	150.14	15.79	-41.5	-45.2	12.6	9.00e-05	0	59	0	201326592	54	5549
2026-01-30 09:46:53.36	150.11	15.90	-41.5	-45.1	12.7	9.23e-05	0	59	0	202375168	54	5481
2026-01-30 09:46:54.37	150.08	16.01	-41.5	-45.1	12.7	6.63e-05	0	59	0	204472320	54	5491
2026-01-30 09:46:55.38	150.06	16.12	-41.5	-45.1	12.7	7.47e-05	0	59	0	206569472	54	5513
2026-01-30 09:46:56.40	150.03	16.24	-41.4	-44.8	13.0	7.55e-05	0	59	0	208666624	54	5340
2026-01-30 09:46:57.41	150.00	16.35	-41.5	-45.0	12.8	6.10e-05	0	59	0	210763776	54	5461
2026-01-30 09:46:58.42	149.97	16.46	-41.6	-45.2	12.6	8.85e-05	0	59	0	211812352	54	5577
2026-01-30 09:46:59.43	149.94	16.58	-41.5	-45.1	12.7	1.01e-04	0	59	0	213909504	54	5504
2026-01-30 09:47:00.44	149.91	16.69	-41.5	-45.2	12.6	1.11e-04	0	59	0	216006656	54	5591
2026-01-30 09:47:01.45	149.88	16.81	-41.7	-45.6	12.3	1.70e-04	0	59	0	218103808	54	5804
2026-01-30 09:47:02.46	149.85	16.93	-41.8	-45.6	12.2	1.87e-04	0	59	0	220200960	54	5841
2026-01-30 09:47:03.47	149.82	17.04	-41.8	-45.8	12.1	2.33e-04	0	60	0	221249536	54	5929
2026-01-30 09:47:04.48	149.79	17.16	-41.8	-45.8	12.0	3.18e-04	0	59	0	223346688	54	5972
2026-01-30 09:47:05.49	149.76	17.28	-41.9	-46.1	11.8	5.32e-04	0	59	0	225443840	54	6156
2026-01-30 09:47:06.50	149.72	17.40	-42.0	-46.3	11.5	5.27e-04	0	60	0	227540992	54	6304
2026-01-30 09:47:07.51	149.69	17.51	-42.0	-46.1	11.7	6.08e-04	0	59	0	229638144	54	6198
2026-01-30 09:47:08.52	149.66	17.63	-42.0	-46.1	11.8	5.98e-04	0	59	0	230686720	54	6171
2026-01-30 09:47:09.53	149.63	17.75	-41.9	-46.0	11.9	5.49e-04	0	60	0	232783872	54	6070
2026-01-30 09:47:10.54	149.60	17.87	-41.8	-45.8	12.1	3.11e-04	0	60	0	234881024	54	5953
2026-01-30 09:47:11.55	149.56	18.00	-41.7	-45.5	12.3	1.75e-04	0	60	0	236978176	54	5778
2026-01-30 09:47:12.56	149.53	18.12	-41.6	-45.2	12.7	1.41e-04	0	60	0	239075328	54	5591
2026-01-30 09:47:13.57	149.50	18.24	-41.5	-45.1	12.9	8.08e-05	0	60	0	240123904	54	5466
2026-01-30 09:47:14.58	149.46	18.36	-41.5	-45.1	12.8	5.49e-05	0	60	0	242221056	54	5487
2026-01-30 09:47:15.59	149.43	18.49	-41.4	-44.9	13.0	3.20e-05	0	60	0	244318208	54	5388
2026-01-30 09:47:16.60	149.40	18.61	-41.4	-44.9	13.0	3.05e-05	0	60	0	246415360	53	5694
2026-01-30 09:47:17.61	149.36	18.73	-41.5	-45.0	12.9	4.80e-05	0	60	0	248512512	53	5772
2026-01-30 09:47:18.62	149.33	18.86	-41.5	-45.0	13.0	3.12e-05	0	60	0	250609664	53	5758
2026-01-30 09:47:19.63	149.29	18.99	-41.6	-45.3	12.6	5.11e-05	0	60	0	251658240	53	5967
2026-01-30 09:47:20.64	149.26	19.11	-41.6	-45.3	12.7	1.14e-04	0	60	0	253755392	53	5948
2026-01-30 09:47:21.65	149.22	19.24	-41.7	-45.4	12.6	9.84e-05	0	60	0	255852544	53	6001
2026-01-30 09:47:22.66	149.18	19.37	-41.8	-45.7	12.3	9.76e-05	0	60	0	257949696	54	5882
2026-01-30 09:47:23.67	149.15	19.50	-41.7	-45.5	12.5	8.01e-05	0	60	0	260046848	54	5741
2026-01-30 09:47:24.68	149.11	19.63	-41.6	-45.3	12.7	8.85e-05	0	60	0	261095424	54	5616
2026-01-30 09:47:25.69	149.07	19.76	-41.6	-45.1	12.9	9.23e-05	0	60	0	263192576	54	5506
2026-01-30 09:47:26.70	149.04	19.89	-41.5	-44.9	13.1	4.19e-05	0	60	0	265289728	54	5390
2026-01-30 09:47:27.71	149.00	20.02	-41.5	-44.9	13.1	3.66e-05	0	60	0	267386880	54	5372
2026-01-30 09:47:28.72	148.96	20.15	-41.3	-44.6	13.4	1.90e-05	0	60	0	269484032	54	5182
2026-01-30 09:47:29.73	148.92	20.28	-41.3	-44.6	13.5	1.90e-05	0	60	0	270532608	54	5162
2026-01-30 09:47:30.74	148.88	20.42	-41.3	-44.6	13.3	1.75e-05	0	60	0	272629760	53	5512
2026-01-30 09:47:31.75	148.84	20.55	-41.2	-44.3	13.7	8.30e-06	0	60	0	274726912	53	5340
2026-01-30 09:47:32.76	148.80	20.68	-41.2	-44.5	13.6	6.10e-06	0	60	0	276824064	53	5432
2026-01-30 09:47:33.77	148.76	20.82	-41.2	-44.5	13.6	1.22e-05	0	60	0	278921216	53	5424
2026-01-30 09:47:34.78	148.72	20.96	-41.3	-44.6	13.5	9.10e-06	0	60	0	279969792	53	5487
2026-01-30 09:47:35.79	148.68	21.09	-41.4	-44.8	13.2	8.30e-06	0	60	0	282066944	53	5640
2026-01-30 09:47:36.80	148.64	21.23	-41.3	-44.7	13.4	2.28e-05	0	60	0	284164096	53	5543
2026-01-30 09:47:37.81	148.60	21.37	-41.2	-44.5	13.5	1.75e-05	0	60	0	286261248	53	5433
2026-01-30 09:47:38.82	148.56	21.51	-41.4	-44.7	13.3	1.75e-05	0	60	0	288358400	53	5557
2026-01-30 09:47:39.83	148.52	21.65	-41.3	-44.6	13.5	1.22e-05	0	60	0	290455552	53	5466
2026-01-30 09:47:40.85	148.47	21.79	-41.2	-44.4	13.6	6.80e-06	0	60	0	291504128	53	5392
2026-01-30 09:47:41.85	148.43	21.93	-41.2	-44.4	13.6	1.14e-05	0	60	0	293601280	53	5381
2026-01-30 09:47:42.86	148.39	22.07	-41.2	-44.4	13.7	6.10e-06	0	60	0	295698432	53	5350
2026-01-30 09:47:43.87	148.34	22.22	-41.5	-44.9	13.2	1.44e-05	0	60	0	297795584	53	5685
2026-01-30 09:47:44.88	148.30	22.36	-41.3	-44.6	13.5	1.22e-05	0	60	0	299892736	53	5484
2026-01-30 09:47:45.89	148.26	22.50	-41.4	-44.8	13.3	1.37e-05	0	60	0	300941312	53	5636
2026-01-30 09:47:46.90	148.21	22.65	-41.6	-45.1	13.0	4.80e-05	0	60	0	303038464	54	5506
2026-01-30 09:47:47.91	148.16	22.80	-41.6	-45.1	13.0	4.57e-05	0	60	0	305135616	54	5524
2026-01-30 09:47:48.92	148.12	22.94	-41.8	-45.5	12.7	3.89e-05	0	60	0	307232768	54	5726
2026-01-30 09:47:49.93	148.07	23.09	-41.8	-45.4	12.7	8.46e-05	0	60	0	309329920	54	5685
2026-01-30 09:47:50.94	148.02	23.24	-41.7	-45.3	12.8	6.86e-05	0	60	0	310378496	54	5615
2026-01-30 09:47:51.95	147.98	23.39	-41.9	-45.6	12.5	7.47e-05	0	60	0	312475648	54	5808
2026-01-30 09:47:52.96	147.93	23.54	-41.6	-45.2	12.9	6.33e-05	0	60	0	314572800	54	5570
2026-01-30 09:47:53.97	147.88	23.69	-41.5	-44.9	13.2	4.11e-05	0	60	0	316669952	54	5388
2026-01-30 09:47:54.98	147.83	23.84	-41.6	-45.0	13.2	3.81e-05	0	60	0	318767104	54	5416
2026-01-30 09:47:55.99	147.78	23.99	-41.5	-44.9	13.3	2.36e-05	0	60	0	319815680	54	5358
2026-01-30 09:47:57.00	147.73	24.15	-41.7	-45.2	13.0	2.36e-05	0	60	0	321912832	54	5548
2026-01-30 09:47:58.01	147.68	24.30	-41.7	-45.3	12.9	5.41e-05	0	60	0	324009984	54	5617
2026-01-30 09:47:59.01	147.63	24.46	-41.9	-45.6	12.5	8.16e-05	0	60	0	326107136	54	5832
2026-01-30 09:48:00.02	147.58	24.61	-42.3	-46.5	11.6	3.93e-04	0	60	0	328204288	55	6084
2026-01-30 09:48:01.03	147.53	24.77	-42.4	-46.7	11.4	5.74e-04	0	60	0	329252864	55	6249
2026-01-30 09:48:02.04	147.47	24.93	-42.6	-47.1	11.0	1.08e-03	0	60	0	331350016	55	6523
2026-01-30 09:48:03.05	147.42	25.09	-42.8	-47.5	10.8	3.14e-03	0	60	0	333447168	56	6444
2026-01-30 09:48:04.06	147.37	25.25	-42.9	-47.6	10.7	2.33e-03	0	60	0	335544320	56	6538
2026-01-30 09:48:05.07	147.31	25.41	-42.9	-47.6	10.7	2.58e-03	0	60	0	337641472	56	6538
2026-01-30 09:48:06.08	147.26	25.57	-42.6	-47.0	11.3	1.48e-03	0	60	0	338690048	56	6116
2026-01-30 09:48:07.09	147.20	25.73	-42.5	-46.7	11.6	8.13e-04	0	60	0	340787200	56	5874
2026-01-30 09:48:08.10	147.15	25.90	-42.6	-46.8	11.6	8.82e-04	0	60	0	342884352	56	5946
2026-01-30 09:48:09.10	147.09	26.06	-42.4	-46.4	12.0	4.88e-04	0	60	0	344981504	56	5675
2026-01-30 09:48:10.12	147.03	26.23	-42.4	-46.4	11.8	3.19e-04	0	60	0	347078656	56	5698
2026-01-30 09:48:11.13	146.97	26.40	-42.4	-46.5	11.8	6.52e-04	0	61	0	348127232	56	5788
2026-01-30 09:48:12.14	146.91	26.56	-42.4	-46.6	11.7	6.33e-04	0	60	0	350224384	56	5803
2026-01-30 09:48:13.14	146.86	26.73	-42.7	-47.2	11.2	8.99e-04	0	60	0	352321536	56	6231
2026-01-30 09:48:14.16	146.80	26.90	-42.8	-47.3	11.0	1.69e-03	0	60	0	354418688	56	6294
2026-01-30 09:48:15.16	146.74	27.07	-42.9	-47.6	10.7	2.29e-03	0	60	0	356515840	56	6557
2026-01-30 09:48:16.18	146.67	27.25	-43.0	-47.8	10.4	4.33e-03	0	60	0	358612992	56	6697
2026-01-30 09:48:17.19	146.61	27.42	-43.0	-47.9	10.5	3.95e-03	0	60	0	359661568	56	6728
2026-01-30 09:48:18.19	146.55	27.59	-43.0	-47.9	10.4	4.65e-03	0	60	0	361758720	56	6770
2026-01-30 09:48:19.20	146.49	27.77	-43.0	-47.8	10.5	4.16e-03	0	60	0	363855872	56	6672
2026-01-30 09:48:20.21	146.42	27.94	-43.0	-47.8	10.5	3.79e-03	0	60	0	365953024	56	6716
2026-01-30 09:48:21.22	146.36	28.12	-43.0	-47.9	10.4	3.30e-03	0	60	0	368050176	56	6733
2026-01-30 09:48:22.23	146.29	28.30	-42.8	-47.4	10.9	3.01e-03	0	61	0	369098752	56	6381
2026-01-30 09:48:23.24	146.22	28.48	-42.8	-47.4	10.9	1.93e-03	0	60	0	371195904	56	6388
2026-01-30 09:48:24.25	146.16	28.66	-42.8	-47.4	10.9	1.90e-03	0	60	0	373293056	56	6393
2026-01-30 09:48:25.26	146.09	28.84	-42.8	-47.3	11.0	1.67e-03	0	60	0	375390208	56	6321
2026-01-30 09:48:26.27	146.02	29.02	-42.9	-47.5	10.9	1.68e-03	0	60	0	376438784	56	6444
2026-01-30 09:48:27.28	145.95	29.21	-42.8	-47.4	11.0	2.98e-03	0	61	0	378535936	56	6380
2026-01-30 09:48:28.29	145.88	29.39	-42.9	-47.6	10.7	3.61e-03	0	60	0	380633088	56	6551
2026-01-30 09:48:29.30	145.81	29.58	-43.1	-47.9	10.4	4.38e-03	0	60	0	382730240	56	6754
2026-01-30 09:48:30.31	145.74	29.77	-43.2	-48.2	10.1	5.41e-03	0	61	0	384827392	56	7019
2026-01-30 09:48:31.32	145.66	29.96	-43.3	-48.4	9.9	7.74e-03	0	60	0	386924544	57	6777
2026-01-30 09:48:32.33	145.59	30.15	-43.3	-48.7	9.6	1.16e-02	0	60	0	387973120	57	6966
2026-01-30 09:48:33.34	145.51	30.34	-43.4	-48.9	9.4	1.31e-02	0	60	0	390070272	57	7142
2026-01-30 09:48:34.35	145.44	30.53	-43.4	-48.7	9.5	1.03e-02	0	60	0	392167424	57	7038
2026-01-30 09:48:35.36	145.36	30.72	-43.4	-48.8	9.5	1.11e-02	0	61	0	394264576	57	7078
2026-01-30 09:48:36.37	145.28	30.92	-43.3	-48.6	9.7	1.10e-02	0	60	0	396361728	57	6918
2026-01-30 09:48:37.38	145.20	31.11	-43.3	-48.5	9.8	1.18e-02	0	61	0	397410304	57	6849
2026-01-30 09:48:38.38	145.13	31.31	-43.4	-48.9	9.3	1.01e-02	0	61	0	399507456	57	7184
2026-01-30 09:48:39.39	145.04	31.51	-43.5	-49.1	9.2	1.53e-02	0	61	0	401604608	57	7339
2026-01-30 09:48:40.40	144.96	31.71	-43.5	-49.0	9.3	1.85e-02	0	61	0	403701760	57	7250
2026-01-30 09:48:41.41	144.88	31.91	-43.5	-49.1	9.2	1.72e-02	0	61	0	405798912	57	7311
2026-01-30 09:48:42.42	144.80	32.11	-43.7	-49.6	8.7	2.79e-02	0	61	0	406847488	57	7761
2026-01-30 09:48:43.43	144.71	32.32	-43.7	-49.5	8.9	2.55e-02	0	61	0	408944640	57	7635
2026-01-30 09:48:44.45	144.62	32.52	-43.6	-49.3	9.0	2.47e-02	0	61	0	411041792	57	7537
2026-01-30 09:48:45.46	144.54	32.73	-43.7	-49.7	8.7	3.94e-02	0	61	0	413138944	58	7379
2026-01-30 09:48:46.47	144.45	32.94	-43.8	-49.8	8.5	3.42e-02	0	60	0	415236096	58	7470
2026-01-30 09:48:47.48	144.36	33.15	-43.8	-50.1	8.1	4.35e-02	0	61	0	416284672	58	7744
2026-01-30 09:48:48.49	144.27	33.36	-43.8	-50.1	8.2	6.25e-02	0	61	0	418381824	58	7761
2026-01-30 09:48:49.50	144.18	33.57	-43.9	-50.5	7.9	7.45e-02	0	61	0	420478976	58	8104
2026-01-30 09:48:50.50	144.08	33.78	-44.0	-50.7	7.5	9.74e-02	0	61	0	422576128	58	8353
2026-01-30 09:48:51.51	143.99	34.00	-44.0	-50.8	7.5	1.03e-01	0	61	0	424673280	58	8377
2026-01-30 09:48:52.52	143.89	34.21	-43.9	-50.3	8.0	7.03e-02	0	61	0	426770432	58	7931
2026-01-30 09:48:53.53	143.80	34.43	-43.9	-50.2	8.1	5.97e-02	0	61	0	427819008	58	7821
2026-01-30 09:48:54.54	143.70	34.65	-43.7	-49.4	8.9	3.21e-02	0	61	0	429916160	58	7166
2026-01-30 09:48:55.55	143.60	34.87	-43.5	-48.7	9.7	1.64e-02	0	61	0	432013312	58	6617
2026-01-30 09:48:56.56	143.50	35.09	-43.4	-48.6	9.8	1.29e-02	0	61	0	434110464	58	6514
2026-01-30 09:48:57.57	143.39	35.31	-43.6	-49.1	9.3	1.50e-02	0	61	0	436207616	58	6892
2026-01-30 09:48:58.58	143.29	35.54	-43.5	-49.0	9.3	2.17e-02	0	61	0	437256192	58	6862
2026-01-30 09:48:59.59	143.18	35.76	-43.6	-49.3	9.0	2.17e-02	0	61	0	439353344	58	7102
2026-01-30 09:49:00.60	143.08	35.99	-43.8	-49.7	8.5	3.91e-02	0	61	0	441450496	58	7381
2026-01-30 09:49:01.61	142.97	36.22	-43.9	-50.0	8.3	3.57e-02	0	61	0	443547648	58	7699
2026-01-30 09:49:02.62	142.86	36.45	-44.0	-50.4	8.0	5.31e-02	0	61	0	444596224	58	8025
2026-01-30 09:49:03.63	142.75	36.69	-44.0	-50.7	7.7	8.77e-02	0	61	0	446693376	58	8312
2026-01-30 09:49:04.64	142.63	36.92	-44.1	-51.0	7.5	1.12e-01	0	61	0	448790528	58	8575
2026-01-30 09:49:05.65	142.52	37.15	-44.1	-50.9	7.5	1.28e-01	0	61	0	450887680	58	8492
2026-01-30 09:49:06.66	142.40	37.39	-43.8	-49.7	8.7	9.13e-02	0	61	0	452984832	58	7424
2026-01-30 09:49:07.67	142.28	37.63	-43.8	-49.8	8.5	6.94e-02	0	61	0	455081984	58	7521
2026-01-30 09:49:08.68	142.16	37.87	-43.6	-49.3	9.1	2.90e-02	0	61	0	456130560	58	7068
2026-01-30 09:49:09.69	142.04	38.11	-43.6	-49.2	9.2	9.84e-03	0	61	0	458227712	58	7032
2026-01-30 09:49:10.70	141.92	38.36	-43.6	-49.0	9.4	1.51e-02	0	61	0	460324864	58	6833
2026-01-30 09:49:11.71	141.79	38.60	-43.6	-49.1	9.3	2.13e-02	0	61	0	462422016	58	6955
2026-01-30 09:49:12.72	141.66	38.85	-43.9	-50.0	8.4	4.39e-02	0	61	0	464519168	58	7681
2026-01-30 09:49:13.73	141.53	39.09	-43.9	-50.0	8.4	4.61e-02	0	61	0	465567744	58	7668
2026-01-30 09:49:14.73	141.40	39.34	-43.9	-50.0	8.4	5.10e-02	0	61	0	467664896	58	7693
2026-01-30 09:49:15.75	141.27	39.60	-43.9	-49.9	8.5	5.50e-02	0	61	0	469762048	58	7596
2026-01-30 09:49:16.75	141.13	39.85	-43.9	-50.1	8.3	3.85e-02	0	61	0	471859200	58	7720
2026-01-30 09:49:17.76	140.99	40.10	-44.0	-50.6	7.9	6.02e-02	0	61	0	473956352	58	8232
2026-01-30 09:49:18.77	140.85	40.36	-44.1	-51.1	7.4	8.17e-02	0	61	0	475004928	58	8728
2026-01-30 09:49:19.79	140.71	40.62	-44.1	-51.1	7.5	9.02e-02	0	61	0	477102080	58	8684
2026-01-30 09:49:20.80	140.56	40.88	-43.9	-50.3	8.2	9.92e-02	0	61	0	479199232	59	7462
2026-01-30 09:49:21.81	140.41	41.14	-43.8	-49.7	8.7	3.55e-02	0	61	0	481296384	59	7031
2026-01-30 09:49:22.82	140.26	41.40	-43.6	-49.2	9.1	2.38e-02	0	61	0	483393536	59	6612
2026-01-30 09:49:23.83	140.11	41.67	-43.5	-48.8	9.6	1.16e-02	0	61	0	484442112	58	6686
2026-01-30 09:49:24.84	139.96	41.93	-43.5	-48.6	9.7	1.05e-02	0	61	0	486539264	58	6553
2026-01-30 09:49:25.85	139.80	42.20	-43.4	-48.6	9.9	1.35e-02	0	61	0	488636416	58	6509
2026-01-30 09:49:26.86	139.64	42.47	-43.4	-48.4	10.0	9.94e-03	0	61	0	490733568	58	6419
2026-01-30 09:49:27.87	139.47	42.74	-43.4	-48.6	9.9	6.28e-03	0	61	0	492830720	58	6514
2026-01-30 09:49:28.88	139.31	43.01	-43.2	-47.9	10.6	4.67e-03	0	61	0	494927872	58	5997
2026-01-30 09:49:29.89	139.14	43.29	-43.3	-48.2	10.3	4.68e-03	0	61	0	495976448	58	6234
2026-01-30 09:49:30.90	138.97	43.57	-43.4	-48.5	9.9	9.19e-03	0	61	0	498073600	58	6479
2026-01-30 09:49:31.91	138.79	43.84	-43.4	-48.4	10.1	8.61e-03	0	61	0	500170752	58	6374
2026-01-30 09:49:32.92	138.61	44.12	-43.3	-48.3	10.4	9.21e-03	0	61	0	502267904	58	6277
2026-01-30 09:49:33.93	138.43	44.41	-43.0	-47.6	11.0	2.47e-03	0	61	0	504365056	57	6147
2026-01-30 09:49:34.94	138.25	44.69	-42.8	-47.1	11.5	8.09e-04	0	61	0	505413632	57	5801
2026-01-30 09:49:35.95	138.06	44.97	-42.4	-46.2	12.3	6.45e-04	0	61	0	507510784	56	5583
2026-01-30 09:49:36.96	137.87	45.26	-42.8	-47.1	11.4	6.17e-04	0	61	0	509607936	56	6187
2026-01-30 09:49:37.97	137.67	45.55	-42.9	-47.3	11.2	1.57e-03	0	61	0	511705088	56	6340
2026-01-30 09:49:38.98	137.47	45.84	-43.2	-48.0	10.6	1.50e-03	0	61	0	513802240	56	6804
2026-01-30 09:49:39.99	137.27	46.13	-43.3	-48.2	10.3	3.59e-03	0	61	0	514850816	57	6590
2026-01-30 09:49:41.00	137.06	46.42	-43.3	-48.2	10.2	4.65e-03	0	61	0	516947968	57	6627
2026-01-30 09:49:42.01	136.85	46.72	-43.1	-47.8	10.8	3.30e-03	0	61	0	519045120	57	6288
2026-01-30 09:49:43.02	136.64	47.01	-42.8	-47.0	11.5	2.53e-03	0	61	0	521142272	57	5759
2026-01-30 09:49:44.03	136.42	47.31	-42.7	-46.7	11.9	2.88e-04	0	61	0	523239424	57	5576
2026-01-30 09:49:45.04	136.20	47.61	-42.7	-46.8	11.8	4.26e-04	0	61	0	524288000	57	5599
2026-01-30 09:49:46.05	135.97	47.91	-42.9	-47.4	11.2	5.19e-04	0	61	0	526385152	57	6002
2026-01-30 09:49:47.06	135.74	48.22	-43.4	-48.6	9.9	7.08e-03	0	61	0	528482304	57	6910
2026-01-30 09:49:48.07	135.50	48.52	-43.4	-48.6	9.9	7.16e-03	0	61	0	530579456	57	6888
2026-01-30 09:49:49.08	135.26	48.83	-42.9	-47.3	11.2	3.40e-03	0	61	0	532676608	57	5978
2026-01-30 09:49:50.09	135.01	49.14	-42.5	-46.4	12.2	2.66e-04	0	61	0	533725184	57	5348
2026-01-30 09:49:51.10	134.76	49.45	-42.4	-46.2	12.5	1.49e-04	0	61	0	535822336	56	5570
2026-01-30 09:49:52.11	134.51	49.76	-42.4	-46.1	12.4	1.32e-04	0	61	0	537919488	56	5523
2026-01-30 09:49:53.12	134.24	50.07	-42.1	-45.7	12.9	7.62e-05	0	61	0	540016640	56	5254
2026-01-30 09:49:54.13	133.98	50.38	-41.9	-45.3	13.0	2.28e-05	0	61	0	542113792	55	5310
2026-01-30 09:49:55.14	133.70	50.70	-41.7	-44.9	13.6	8.30e-06	0	61	0	543162368	55	5062
2026-01-30 09:49:56.15	133.42	51.02	-41.8	-45.1	13.4	1.37e-05	0	61	0	545259520	55	5214
2026-01-30 09:49:57.16	133.14	51.34	-42.2	-46.0	12.5	6.71e-05	0	61	0	547356672	55	5741
2026-01-30 09:49:58.17	132.85	51.66	-42.6	-46.8	11.6	2.99e-04	0	61	0	549453824	55	6293
2026-01-30 09:49:59.18	132.55	51.98	-42.9	-47.4	11.1	7.43e-04	0	61	0	551550976	56	6410
2026-01-30 09:50:00.19	132.25	52.30	-43.0	-47.7	10.8	1.53e-03	0	61	0	552599552	56	6576
2026-01-30 09:50:01.20	131.94	52.62	-42.6	-46.6	12.0	8.15e-04	0	61	0	554696704	56	5820
2026-01-30 09:50:02.22	131.62	52.95	-42.1	-45.6	12.9	1.27e-04	0	61	0	556793856	56	5206
2026-01-30 09:50:03.23	131.29	53.28	-42.0	-45.6	12.8	3.43e-05	0	61	0	558891008	55	5509
2026-01-30 09:50:04.24	130.96	53.60	-42.5	-46.6	11.8	2.03e-04	0	61	0	560988160	55	6156
2026-01-30 09:50:05.25	130.62	53.93	-43.2	-48.1	10.5	1.30e-03	0	61	0	563085312	56	6944
2026-01-30 09:50:06.26	130.27	54.26	-42.8	-47.1	11.5	1.39e-03	0	61	0	564133888	57	5797
2026-01-30 09:50:07.27	129.91	54.59	-42.4	-46.2	12.4	2.41e-04	0	61	0	566231040	56	5571
2026-01-30 09:50:08.28	129.55	54.92	-42.1	-45.7	13.0	2.08e-04	0	61	0	568328192	56	5237
2026-01-30 09:50:09.29	129.18	55.26	-42.3	-46.0	12.6	6.86e-05	0	61	0	570425344	56	5431
2026-01-30 09:50:10.30	128.79	55.59	-42.5	-46.3	12.3	1.34e-04	0	61	0	572522496	56	5650
2026-01-30 09:50:11.31	128.40	55.92	-42.5	-46.5	12.1	1.86e-04	0	61	0	573571072	56	5742
2026-01-30 09:50:12.32	128.00	56.26	-42.7	-46.8	11.8	3.96e-04	0	61	0	575668224	56	5932
2026-01-30 09:50:13.33	127.59	56.59	-42.9	-47.3	11.2	7.63e-04	0	61	0	577765376	56	6301
2026-01-30 09:50:14.34	127.17	56.93	-42.7	-46.8	11.8	6.42e-04	0	61	0	579862528	56	5944
2026-01-30 09:50:15.35	126.74	57.26	-42.7	-46.9	11.7	4.15e-04	0	61	0	581959680	56	6008
2026-01-30 09:50:16.36	126.30	57.60	-43.0	-47.6	11.0	1.36e-03	0	61	0	583008256	56	6496
2026-01-30 09:50:17.37	125.84	57.94	-43.5	-48.7	9.7	5.93e-03	0	61	0	585105408	57	7010
2026-01-30 09:50:18.38	125.38	58.27	-43.5	-48.8	9.8	1.59e-02	0	61	0	587202560	58	6718
2026-01-30 09:50:19.39	124.90	58.61	-43.7	-49.4	9.0	2.00e-02	0	61	0	589299712	58	7128
2026-01-30 09:50:20.40	124.41	58.95	-43.4	-48.7	9.7	1.47e-02	0	61	0	591396864	58	6582
2026-01-30 09:50:21.41	123.91	59.28	-43.1	-47.9	10.7	5.70e-03	0	61	0	592445440	58	5998
2026-01-30 09:50:22.42	123.39	59.62	-43.0	-47.5	11.0	1.79e-03	0	61	0	594542592	57	6104
2026-01-30 09:50:23.43	122.87	59.96	-43.0	-47.4	11.2	1.30e-03	0	61	0	596639744	57	6054
2026-01-30 09:50:24.44	122.32	60.29	-43.0	-47.6	10.9	1.93e-03	0	61	0	598736896	57	6136
2026-01-30 09:50:25.46	121.76	60.63	-43.0	-47.5	11.1	1.73e-03	0	61	0	600834048	57	6065
2026-01-30 09:50:26.47	121.19	60.97	-42.5	-46.5	12.1	6.71e-04	0	61	0	601882624	56	5767
2026-01-30 09:50:27.48	120.60	61.30	-42.4	-46.2	12.4	1.69e-04	0	61	0	603979776	56	5581
2026-01-30 09:50:28.49	119.99	61.63	-42.3	-46.1	12.5	1.50e-04	0	61	0	606076928	56	5466
2026-01-30 09:50:29.50	119.37	61.96	-42.3	-46.0	12.6	1.80e-04	0	61	0	608174080	56	5438
2026-01-30 09:50:30.50	118.74	62.29	-42.2	-45.8	12.7	1.54e-04	0	61	0	610271232	56	5327
2026-01-30 09:50:31.51	118.09	62.62	-41.8	-45.1	13.4	2.89e-05	0	61	0	611319808	55	5203
2026-01-30 09:50:32.52	117.42	62.94	-41.6	-44.9	13.5	6.10e-06	0	61	0	613416960	54	5402
2026-01-30 09:50:33.53	116.72	63.27	-42.2	-46.0	12.4	5.95e-05	0	61	0	615514112	54	6118
2026-01-30 09:50:34.54	116.01	63.59	-42.5	-46.6	11.8	4.84e-04	0	61	0	617611264	55	6165
2026-01-30 09:50:35.55	115.28	63.91	-42.3	-46.5	11.7	9.68e-04	0	61	0	619708416	55	6083
2026-01-30 09:50:36.57	114.52	64.23	-41.7	-45.4	12.9	1.01e-04	0	61	0	620756992	55	5349
2026-01-30 09:50:37.58	113.75	64.55	-41.6	-45.0	13.4	1.37e-05	0	61	0	622854144	54	5456
2026-01-30 09:50:38.59	112.96	64.86	-41.8	-45.5	12.9	3.66e-05	0	61	0	624951296	54	5723
2026-01-30 09:50:39.60	112.14	65.17	-42.0	-46.0	12.2	2.08e-04	0	61	0	627048448	54	6129
2026-01-30 09:50:40.61	111.30	65.47	-42.0	-46.0	12.3	2.08e-04	0	61	0	629145600	54	6093
2026-01-30 09:50:41.62	110.44	65.78	-41.9	-45.7	12.6	6.10e-05	0	61	0	631242752	54	5894
2026-01-30 09:50:42.63	109.55	66.07	-42.4	-46.6	11.7	3.80e-04	0	61	0	632291328	55	6184
2026-01-30 09:50:43.64	108.64	66.37	-42.6	-47.3	11.0	1.10e-03	0	61	0	634388480	55	6675
2026-01-30 09:50:44.65	107.71	66.66	-43.0	-48.0	10.4	3.28e-03	0	61	0	636485632	56	6840
2026-01-30 09:50:45.66	106.75	66.94	-43.2	-48.6	9.6	1.06e-02	0	61	0	638582784	57	6907
2026-01-30 09:50:46.67	105.76	67.22	-43.1	-48.3	9.9	8.57e-03	0	61	0	640679936	57	6661
2026-01-30 09:50:47.68	104.74	67.49	-42.3	-46.4	12.0	2.99e-03	0	61	0	641728512	56	5696
2026-01-30 09:50:48.69	103.70	67.76	-41.7	-45.3	13.0	6.17e-05	0	61	0	643825664	55	5309
2026-01-30 09:50:49.70	102.64	68.02	-41.9	-45.6	12.7	4.19e-05	0	61	0	645922816	55	5524
2026-01-30 09:50:50.71	101.54	68.28	-42.5	-46.8	11.5	2.45e-04	0	61	0	648019968	55	6307
2026-01-30 09:50:51.72	100.42	68.52	-42.4	-46.8	11.5	4.48e-04	0	61	0	650117120	55	6291
2026-01-30 09:50:52.73	99.26	68.76	-42.4	-46.7	11.4	4.88e-04	0	62	0	651165696	55	6254
2026-01-30 09:50:53.74	98.08	69.00	-43.2	-48.5	9.9	3.17e-03	0	61	0	653262848	56	7212
2026-01-30 09:50:54.75	96.88	69.22	-43.2	-48.5	9.8	1.50e-02	0	61	0	655360000	57	6851
2026-01-30 09:50:55.76	95.64	69.44	-42.7	-47.2	11.2	2.12e-03	0	61	0	657457152	57	5910
2026-01-30 09:50:56.77	94.38	69.65	-42.8	-47.4	11.0	1.11e-03	0	61	0	659554304	57	5995
2026-01-30 09:50:57.78	93.09	69.85	-43.2	-48.5	9.9	3.66e-03	0	61	0	660602880	57	6832
2026-01-30 09:50:58.79	91.77	70.04	-43.1	-48.2	10.2	3.40e-03	0	61	0	662700032	57	6613
2026-01-30 09:50:59.80	90.42	70.22	-43.3	-48.7	9.7	8.08e-03	0	61	0	664797184	57	7021
2026-01-30 09:51:00.81	89.05	70.39	-43.3	-48.7	9.7	1.30e-02	0	61	0	666894336	57	6983
2026-01-30 09:51:01.81	87.67	70.54	-43.2	-48.3	10.1	9.77e-03	0	61	0	668991488	57	6699
2026-01-30 09:51:02.82	86.25	70.69	-43.5	-49.2	9.2	1.45e-02	0	61	0	671088640	57	7391
2026-01-30 09:51:03.83	84.81	70.83	-43.6	-49.5	8.9	3.17e-02	0	61	0	672137216	57	7636
2026-01-30 09:51:04.84	83.35	70.96	-43.9	-50.7	7.7	1.27e-01	0	62	0	674234368	58	8302
2026-01-30 09:51:05.85	81.87	71.07	-44.0	-51.3	7.0	1.79e-01	0	61	0	676331520	58	8891
2026-01-30 09:51:06.86	80.37	71.17	-43.8	-50.5	7.8	2.01e-01	0	61	0	678428672	59	7685
2026-01-30 09:51:07.87	78.85	71.26	-43.3	-48.7	9.6	4.84e-02	0	62	0	679477248	58	6625
2026-01-30 09:51:08.87	77.34	71.34	-42.7	-47.1	11.0	2.69e-03	0	61	0	681574400	57	5820
2026-01-30 09:51:09.88	75.79	71.41	-43.2	-48.4	9.9	3.05e-03	0	61	0	683671552	57	6787
2026-01-30 09:51:10.89	74.24	71.46	-43.6	-49.8	8.5	1.25e-02	0	61	0	685768704	57	7934
2026-01-30 09:51:11.90	72.68	71.50	-43.4	-49.1	9.2	3.02e-02	0	61	0	687865856	58	6956
2026-01-30 09:51:12.91	71.11	71.52	-43.2	-48.4	9.9	5.21e-03	0	61	0	688914432	57	6801
2026-01-30 09:51:13.92	69.54	71.54	-43.5	-49.4	8.8	1.44e-02	0	61	0	691011584	57	7576
2026-01-30 09:51:14.93	67.96	71.54	-43.0	-48.1	10.2	8.38e-03	0	61	0	693108736	57	6536
2026-01-30 09:51:15.94	66.39	71.52	-42.9	-47.9	10.5	3.11e-03	0	61	0	695205888	57	6349
2026-01-30 09:51:16.95	64.83	71.50	-43.4	-49.2	9.0	8.13e-03	0	61	0	697303040	57	7456
2026-01-30 09:51:17.95	63.28	71.46	-43.0	-48.0	10.4	7.45e-03	0	61	0	699400192	57	6468
2026-01-30 09:51:18.96	61.73	71.41	-42.8	-47.4	10.9	2.78e-03	0	61	0	700448768	57	6053
2026-01-30 09:51:19.97	60.18	71.34	-43.1	-48.2	10.2	4.34e-03	0	61	0	702545920	57	6606
2026-01-30 09:51:20.98	58.65	71.26	-43.0	-47.9	10.6	4.51e-03	0	61	0	704643072	57	6353
2026-01-30 09:51:21.99	57.14	71.17	-43.2	-48.3	10.0	3.87e-03	0	62	0	706740224	57	6711
2026-01-30 09:51:23.00	55.64	71.07	-43.6	-49.7	8.7	1.96e-02	0	62	0	708837376	57	7840
2026-01-30 09:51:24.01	54.15	70.96	-43.7	-49.9	8.3	6.27e-02	0	62	0	709885952	58	7602
2026-01-30 09:51:25.02	52.69	70.83	-43.2	-48.5	9.7	2.16e-02	0	61	0	711983104	58	6430
2026-01-30 09:51:26.03	51.25	70.69	-43.3	-48.6	9.8	1.01e-02	0	61	0	714080256	58	6501
2026-01-30 09:51:27.04	49.83	70.55	-43.5	-49.2	9.0	1.04e-02	0	62	0	716177408	58	6979
2026-01-30 09:51:28.05	48.44	70.39	-43.5	-49.5	8.8	4.84e-02	0	61	0	718274560	58	7216
2026-01-30 09:51:29.05	47.09	70.22	-43.5	-49.3	9.0	4.74e-02	0	62	0	719323136	58	7057
2026-01-30 09:51:30.06	45.74	70.04	-43.4	-49.0	9.4	1.98e-02	0	62	0	721420288	58	6847
2026-01-30 09:51:31.07	44.42	69.85	-43.8	-50.4	7.9	7.44e-02	0	62	0	723517440	58	8005
2026-01-30 09:51:32.08	43.13	69.65	-43.9	-50.8	7.5	1.21e-01	0	62	0	725614592	58	8375
2026-01-30 09:51:33.09	41.87	69.44	-43.8	-50.1	8.1	8.54e-02	0	62	0	727711744	58	7763
2026-01-30 09:51:34.10	40.64	69.23	-43.8	-50.2	8.2	6.39e-02	0	62	0	728760320	58	7850
2026-01-30 09:51:35.11	39.43	69.00	-43.7	-50.0	8.1	5.92e-02	0	61	0	730857472	58	7713
2026-01-30 09:51:36.12	38.25	68.77	-43.3	-48.4	9.8	2.17e-02	0	62	0	732954624	58	6414
2026-01-30 09:51:37.13	37.10	68.53	-43.1	-47.9	10.4	4.80e-03	0	62	0	735051776	58	6035
2026-01-30 09:51:38.14	35.98	68.28	-43.4	-48.8	9.6	6.41e-03	0	62	0	737148928	58	6659
2026-01-30 09:51:39.15	34.88	68.03	-43.4	-48.9	9.4	1.24e-02	0	61	0	738197504	58	6791
2026-01-30 09:51:40.16	33.82	67.77	-43.5	-49.3	9.1	2.42e-02	0	62	0	740294656	58	7114
2026-01-30 09:51:41.17	32.78	67.50	-43.0	-47.8	10.5	8.28e-03	0	62	0	742391808	58	5938
2026-01-30 09:51:42.18	31.76	67.23	-42.5	-46.6	11.7	1.87e-03	0	61	0	744488960	57	5501
2026-01-30 09:51:43.19	30.78	66.95	-42.4	-46.5	11.9	2.95e-04	0	62	0	746586112	56	5758
2026-01-30 09:51:44.20	29.82	66.67	-42.9	-47.8	10.6	2.58e-03	0	62	0	747634688	56	6695
2026-01-30 09:51:45.21	28.88	66.38	-43.0	-48.0	10.4	6.35e-03	0	62	0	749731840	56	6831
2026-01-30 09:51:46.22	27.97	66.09	-42.4	-46.6	11.7	3.13e-03	0	62	0	751828992	56	5792
2026-01-30 09:51:47.23	27.09	65.79	-42.7	-47.3	11.2	1.25e-03	0	62	0	753926144	56	6292
2026-01-30 09:51:48.24	26.23	65.49	-42.5	-46.8	11.6	8.30e-04	0	62	0	756023296	56	5954
2026-01-30 09:51:49.26	25.38	65.18	-42.4	-46.6	11.9	4.48e-04	0	62	0	757071872	56	5854
2026-01-30 09:51:50.27	24.56	64.87	-42.4	-46.5	11.9	3.56e-04	0	61	0	759169024	56	5787
2026-01-30 09:51:51.28	23.77	64.56	-41.5	-44.8	13.5	8.46e-05	0	62	0	761266176	55	5037
2026-01-30 09:51:52.28	23.01	64.25	-41.2	-44.4	14.0	3.00e-06	0	62	0	763363328	54	5042
2026-01-30 09:51:53.29	22.26	63.93	-41.6	-45.0	13.3	4.50e-06	0	61	0	765460480	54	5437
2026-01-30 09:51:54.30	21.53	63.61	-41.7	-45.2	13.1	1.60e-05	0	62	0	767557632	54	5569
2026-01-30 09:51:55.31	20.82	63.29	-41.3	-44.6	13.7	7.60e-06	0	62	0	768606208	54	5187
2026-01-30 09:51:56.32	20.13	62.97	-41.2	-44.3	14.1	3.00e-06	0	62	0	770703360	54	4999
2026-01-30 09:51:57.33	19.45	62.64	-41.6	-45.1	13.1	1.06e-05	0	61	0	772800512	54	5512
2026-01-30 09:51:58.34	18.80	62.31	-41.8	-45.5	12.8	2.51e-05	0	62	0	774897664	54	5733
2026-01-30 09:51:59.35	18.16	61.99	-41.8	-45.5	12.8	4.65e-05	0	62	0	776994816	54	5750
2026-01-30 09:52:00.36	17.54	61.65	-42.2	-46.3	12.0	9.53e-05	0	62	0	778043392	54	6318
2026-01-30 09:52:01.37	16.94	61.32	-42.7	-47.4	10.9	2.31e-03	0	62	0	780140544	56	6411
2026-01-30 09:52:02.38	16.35	60.99	-42.6	-47.1	11.3	2.88e-03	0	62	0	782237696	56	6169
2026-01-30 09:52:03.39	15.78	60.66	-42.9	-47.8	10.4	4.50e-03	0	62	0	784334848	56	6706
2026-01-30 09:52:04.40	15.22	60.32	-42.7	-47.3	10.9	4.70e-03	0	62	0	786432000	56	6313
2026-01-30 09:52:05.41	14.68	59.99	-42.5	-46.9	11.5	3.39e-03	0	61	0	787480576	56	6022
2026-01-30 09:52:06.42	14.15	59.65	-42.9	-48.0	10.3	4.18e-03	0	62	0	789577728	56	6851
2026-01-30 09:52:07.43	13.64	59.32	-42.9	-48.0	10.2	7.22e-03	0	62	0	791674880	56	6837
2026-01-30 09:52:08.44	13.14	58.98	-42.5	-47.1	11.1	2.64e-03	0	62	0	793772032	56	6182
2026-01-30 09:52:09.45	12.65	58.65	-42.2	-46.3	12.0	4.76e-04	0	61	0	795869184	56	5656
2026-01-30 09:52:10.46	12.17	58.31	-42.2	-46.4	11.8	3.40e-04	0	61	0	796917760	55	6061
2026-01-30 09:52:11.47	11.71	57.97	-42.3	-46.7	11.6	5.06e-04	0	62	0	799014912	55	6204
2026-01-30 09:52:12.48	11.25	57.64	-42.5	-47.1	11.0	9.15e-04	0	61	0	801112064	55	6555
2026-01-30 09:52:13.49	10.81	57.30	-42.3	-46.6	11.5	3.84e-04	0	62	0	803209216	55	6160
2026-01-30 09:52:14.50	10.38	56.97	-42.0	-45.9	12.3	4.77e-04	0	62	0	805306368	55	5705
2026-01-30 09:52:15.51	9.96	56.63	-41.4	-44.7	13.4	6.10e-05	0	62	0	806354944	54	5267
2026-01-30 09:52:16.52	9.55	56.30	-40.8	-43.8	14.4	3.80e-06	0	62	0	808452096	53	5033
2026-01-30 09:52:17.53	9.15	55.97	-40.9	-43.9	14.4	0.00e+00	0	62	0	810549248	53	5076
2026-01-30 09:52:18.54	8.76	55.63	-41.3	-44.7	13.4	3.00e-06	0	62	0	812646400	53	5558
2026-01-30 09:52:19.55	8.38	55.30	-41.8	-45.7	12.6	4.34e-05	0	62	0	814743552	54	5857
2026-01-30 09:52:20.56	8.00	54.97	-41.8	-45.6	12.7	6.33e-05	0	61	0	815792128	54	5847
2026-01-30 09:52:21.56	7.64	54.64	-42.1	-46.3	12.0	1.01e-04	0	62	0	817889280	54	6308
2026-01-30 09:52:22.57	7.29	54.32	-42.4	-46.9	11.3	8.18e-04	0	62	0	819986432	55	6403
2026-01-30 09:52:23.58	6.94	53.99	-42.7	-47.8	10.5	2.89e-03	0	62	0	822083584	55	7062
2026-01-30 09:52:24.59	6.60	53.66	-43.0	-48.4	9.9	6.36e-03	0	62	0	824180736	56	7161
2026-01-30 09:52:25.60	6.27	53.33	-43.0	-48.2	10.0	1.38e-02	0	61	0	825229312	57	6613
2026-01-30 09:52:26.61	5.94	53.01	-42.4	-46.8	11.5	2.89e-03	0	62	0	827326464	56	5959
2026-01-30 09:52:27.62	5.63	52.69	-42.1	-46.0	12.3	3.20e-04	0	62	0	829423616	56	5462
2026-01-30 09:52:28.64	5.31	52.36	-42.0	-46.0	12.4	1.62e-04	0	62	0	831520768	56	5431
2026-01-30 09:52:29.65	5.01	52.04	-41.8	-45.7	12.5	1.03e-04	0	62	0	833617920	55	5571
2026-01-30 09:52:30.65	4.71	51.72	-41.5	-45.1	13.2	4.11e-05	0	62	0	835715072	54	5476
2026-01-30 09:52:31.66	4.42	51.40	-41.4	-44.7	13.4	1.90e-05	0	62	0	836763648	54	5279
2026-01-30 09:52:32.67	4.14	51.09	-41.8	-45.6	12.5	6.63e-05	0	61	0	838860800	54	5853
2026-01-30 09:52:33.68	3.86	50.77	-41.5	-45.1	13.1	5.18e-05	0	62	0	840957952	54	5485
2026-01-30 09:52:34.69	3.59	50.46	-41.4	-44.9	13.3	1.98e-05	0	62	0	843055104	54	5400
2026-01-30 09:52:35.70	3.32	50.14	-41.8	-45.7	12.6	5.49e-05	0	62	0	845152256	54	5876
2026-01-30 09:52:36.71	3.06	49.83	-42.5	-47.2	10.9	8.36e-04	0	62	0	846200832	55	6635
2026-01-30 09:52:37.72	2.80	49.52	-42.9	-48.1	10.1	3.48e-03	0	62	0	848297984	56	6887
2026-01-30 09:52:38.73	2.55	49.21	-42.8	-47.7	10.6	4.05e-03	0	62	0	850395136	56	6615
2026-01-30 09:52:39.74	2.31	48.91	-43.0	-48.3	10.0	3.78e-03	0	62	0	852492288	56	7090
2026-01-30 09:52:40.75	2.06	48.60	-43.2	-48.9	9.3	1.04e-02	0	62	0	854589440	56	7619
2026-01-30 09:52:41.76	1.83	48.30	-43.4	-49.5	8.7	2.58e-02	0	62	0	855638016	57	7691
2026-01-30 09:52:42.77	1.60	48.00	-43.3	-49.2	9.0	3.33e-02	0	62	0	857735168	57	7431
2026-01-30 09:52:43.78	1.37	47.69	-43.4	-49.3	8.9	1.83e-02	0	62	0	859832320	57	7524
2026-01-30 09:52:44.79	1.15	47.40	-43.6	-50.2	7.9	2.41e-02	0	62	0	861929472	56	8829
2026-01-30 09:52:45.80	0.93	47.10	-43.8	-51.6	6.5	1.34e-01	0	62	0	864026624	54	11604
2026-01-30 09:52:46.81	0.72	46.80	-43.8	-51.2	7.1	2.35e-01	0	62	0	865075200	58	8786
2026-01-30 09:52:47.82	0.50	46.51	-43.2	-49.0	9.1	6.98e-02	0	62	0	867172352	57	7255
2026-01-30 09:52:48.83	0.30	46.22	-42.7	-47.3	11.0	3.09e-03	0	62	0	869269504	57	5930
2026-01-30 09:52:49.84	0.10	45.93	-42.8	-47.7	10.6	1.60e-03	0	62	0	871366656	57	6244
2026-01-30 09:52:50.85	359.90	45.64	-43.2	-48.8	9.4	9.07e-03	0	62	0	873463808	57	7060
2026-01-30 09:52:51.86	359.70	45.35	-43.0	-48.3	9.9	1.02e-02	0	62	0	874512384	57	6666
2026-01-30 09:52:52.87	359.51	45.06	-42.9	-47.9	10.4	7.14e-03	0	62	0	876609536	57	6411
2026-01-30 09:52:53.88	359.32	44.78	-42.9	-48.0	10.2	3.17e-03	0	62	0	878706688	57	6461
2026-01-30 09:52:54.89	359.14	44.50	-43.5	-49.9	8.2	4.04e-02	0	62	0	880803840	57	8083
2026-01-30 09:52:55.90	358.96	44.22	-43.6	-50.1	8.1	8.72e-02	0	62	0	882900992	58	7721
2026-01-30 09:52:56.91	358.78	43.94	-43.5	-49.7	8.6	6.74e-02	0	62	0	883949568	58	7407
2026-01-30 09:52:57.92	358.61	43.66	-43.0	-48.2	10.0	1.16e-02	0	62	0	886046720	58	6238
2026-01-30 09:52:58.93	358.43	43.39	-43.0	-48.3	9.9	1.16e-02	0	62	0	888143872	57	6675
2026-01-30 09:52:59.94	358.26	43.11	-43.0	-48.3	10.0	7.43e-03	0	62	0	890241024	57	6682
2026-01-30 09:53:00.95	358.10	42.84	-43.2	-48.7	9.5	1.56e-02	0	62	0	892338176	57	7000
2026-01-30 09:53:01.96	357.94	42.57	-43.2	-48.7	9.5	1.21e-02	0	62	0	893386752	57	7029
2026-01-30 09:53:02.97	357.78	42.30	-43.5	-49.7	8.5	2.62e-02	0	62	0	895483904	57	7811
2026-01-30 09:53:03.98	357.62	42.03	-43.3	-49.1	9.1	3.07e-02	0	62	0	897581056	57	7310
2026-01-30 09:53:04.99	357.46	41.77	-43.4	-49.4	8.8	3.28e-02	0	61	0	899678208	57	7592
2026-01-30 09:53:06.00	357.31	41.51	-43.2	-48.8	9.4	2.38e-02	0	62	0	901775360	57	7088
2026-01-30 09:53:07.01	357.16	41.24	-43.2	-48.6	9.6	2.10e-02	0	62	0	903872512	57	6952
2026-01-30 09:53:08.02	357.01	40.98	-43.0	-48.1	10.0	7.83e-03	0	62	0	904921088	57	6566
2026-01-30 09:53:09.03	356.87	40.72	-43.4	-49.4	8.8	1.18e-02	0	62	0	907018240	57	7546
2026-01-30 09:53:10.04	356.73	40.47	-43.5	-49.9	8.3	3.65e-02	0	62	0	909115392	57	8079
2026-01-30 09:53:11.05	356.59	40.21	-44.0	-51.9	6.4	9.48e-02	0	62	0	911212544	58	9572
2026-01-30 09:53:12.06	356.45	39.96	-44.1	-52.4	6.0	2.95e-01	0	62	0	913309696	58	10073
2026-01-30 09:53:13.07	356.31	39.71	-44.0	-52.0	6.2	2.96e-01	0	62	0	914358272	58	9609
2026-01-30 09:53:14.08	356.18	39.46	-43.7	-50.4	7.7	2.33e-01	0	62	0	916455424	58	8039
2026-01-30 09:53:15.09	356.05	39.21	-43.2	-48.9	9.2	2.40e-02	0	62	0	918552576	58	6753
2026-01-30 09:53:16.10	355.92	38.96	-43.0	-48.1	10.1	8.56e-03	0	62	0	920649728	57	6541
2026-01-30 09:53:17.11	355.79	38.71	-42.8	-47.5	10.7	2.85e-03	0	62	0	922746880	56	6484
2026-01-30 09:53:18.12	355.66	38.47	-42.3	-46.5	11.8	7.91e-04	0	62	0	923795456	56	5731
2026-01-30 09:53:19.13	355.54	38.23	-42.1	-46.0	12.3	1.97e-04	0	62	0	925892608	56	5458
2026-01-30 09:53:20.14	355.42	37.99	-42.0	-46.0	12.1	2.15e-04	0	62	0	927989760	55	5743
2026-01-30 09:53:21.15	355.30	37.75	-41.9	-45.8	12.3	1.44e-04	0	62	0	930086912	55	5601
2026-01-30 09:53:22.16	355.18	37.51	-41.9	-46.3	11.8	2.51e-04	0	62	0	932184064	55	5956
2026-01-30 09:53:23.16	355.06	37.28	-42.4	-47.0	11.0	6.86e-04	0	62	0	933232640	55	6476
2026-01-30 09:53:24.17	354.95	37.04	-43.2	-48.8	9.4	1.30e-02	0	62	0	935329792	56	7484
2026-01-30 09:53:25.19	354.83	36.81	-43.5	-49.7	8.4	4.47e-02	0	62	0	937426944	57	7889
2026-01-30 09:53:26.19	354.72	36.58	-43.6	-50.3	7.8	6.77e-02	0	62	0	939524096	57	8427
2026-01-30 09:53:27.20	354.61	36.35	-43.4	-49.7	8.4	6.98e-02	0	62	0	941621248	57	7827
2026-01-30 09:53:28.21	354.51	36.12	-43.3	-49.3	8.7	4.57e-02	0	62	0	943718400	57	7529
2026-01-30 09:53:29.22	354.40	35.89	-43.1	-48.5	9.6	1.94e-02	0	62	0	944766976	57	6843
2026-01-30 09:53:30.23	354.29	35.67	-43.2	-48.9	9.4	1.42e-02	0	62	0	946864128	57	7133
2026-01-30 09:53:31.24	354.19	35.44	-43.2	-49.0	9.1	4.31e-02	0	62	0	948961280	57	7261
2026-01-30 09:53:32.25	354.09	35.22	-43.4	-49.6	8.4	4.31e-02	0	62	0	951058432	57	7806
2026-01-30 09:53:33.26	353.99	35.00	-43.5	-50.2	7.9	5.64e-02	0	62	0	952107008	57	8291
2026-01-30 09:53:34.27	353.89	34.78	-43.6	-50.2	7.9	6.50e-02	0	62	0	954204160	57	8319
2026-01-30 09:53:35.28	353.79	34.56	-43.6	-50.3	7.8	7.36e-02	0	62	0	956301312	57	8415
2026-01-30 09:53:36.29	353.69	34.34	-43.5	-49.9	8.2	7.66e-02	0	62	0	958398464	58	7621
2026-01-30 09:53:37.30	353.60	34.13	-43.3	-49.3	8.7	4.61e-02	0	62	0	960495616	58	7097
2026-01-30 09:53:38.31	353.50	33.91	-43.1	-48.6	9.4	2.77e-02	0	62	0	961544192	58	6550
2026-01-30 09:53:39.32	353.41	33.70	-43.0	-48.4	9.7	1.38e-02	0	62	0	963641344	57	6726
2026-01-30 09:53:40.33	353.32	33.49	-42.9	-48.1	10.0	7.79e-03	0	62	0	965738496	57	6522
2026-01-30 09:53:41.34	353.23	33.28	-42.9	-48.0	10.1	7.56e-03	0	62	0	967835648	57	6449
2026-01-30 09:53:42.35	353.14	33.07	-42.8	-47.9	10.2	7.26e-03	0	62	0	969932800	57	6387
2026-01-30 09:53:43.36	353.05	32.86	-42.8	-47.8	10.3	5.76e-03	0	62	0	972029952	57	6300
2026-01-30 09:53:44.36	352.97	32.66	-42.8	-47.9	10.2	5.96e-03	0	62	0	973078528	57	6379
2026-01-30 09:53:45.37	352.88	32.46	-42.8	-47.8	10.3	5.81e-03	0	62	0	975175680	57	6296
2026-01-30 09:53:46.38	352.80	32.25	-42.8	-47.9	10.1	6.51e-03	0	62	0	977272832	57	6399
2026-01-30 09:53:47.39	352.71	32.05	-43.1	-48.7	9.4	1.22e-02	0	62	0	979369984	57	7024
2026-01-30 09:53:48.40	352.63	31.85	-43.3	-49.4	8.7	2.66e-02	0	62	0	981467136	57	7562
2026-01-30 09:53:49.41	352.55	31.65	-43.6	-50.3	7.7	4.77e-02	0	62	0	982515712	57	8428
2026-01-30 09:53:50.42	352.47	31.45	-43.8	-51.3	6.7	1.52e-01	0	62	0	984612864	58	8960
2026-01-30 09:53:51.43	352.39	31.26	-44.0	-52.2	6.0	2.38e-01	0	62	0	986710016	58	9944
2026-01-30 09:53:52.44	352.31	31.06	-43.9	-51.7	6.4	2.62e-01	0	62	0	988807168	58	9363
2026-01-30 09:53:53.45	352.23	30.87	-43.7	-50.8	7.2	1.52e-01	0	61	0	990904320	58	8408
2026-01-30 09:53:54.46	352.16	30.67	-43.4	-49.6	8.3	6.20e-02	0	62	0	991952896	58	7328
2026-01-30 09:53:55.47	352.08	30.48	-43.2	-48.9	9.1	3.26e-02	0	62	0	994050048	58	6746
2026-01-30 09:53:56.48	352.01	30.29	-43.1	-48.7	9.3	2.52e-02	0	62	0	996147200	58	6584
2026-01-30 09:53:57.49	351.93	30.10	-42.9	-48.2	9.8	1.28e-02	0	62	0	998244352	57	6612
2026-01-30 09:53:58.51	351.86	29.91	-42.9	-48.1	9.9	6.63e-03	0	62	0	1000341504	57	6513
2026-01-30 09:53:59.52	351.79	29.73	-42.8	-47.9	10.4	7.65e-03	0	62	0	1001390080	57	6380
2026-01-30 09:54:00.53	351.72	29.54	-42.8	-47.8	10.2	8.32e-03	0	62	0	1003487232	57	6314
2026-01-30 09:54:01.54	351.65	29.35	-42.8	-47.9	10.0	6.91e-03	0	62	0	1005584384	57	6391
2026-01-30 09:54:02.55	351.58	29.17	-42.8	-47.9	10.0	8.28e-03	0	62	0	1007681536	57	6396
2026-01-30 09:54:03.56	351.51	28.99	-42.8	-47.9	10.1	8.12e-03	0	62	0	1009778688	57	6367
2026-01-30 09:54:04.57	351.44	28.81	-42.6	-47.5	10.4	6.58e-03	0	62	0	1010827264	57	6086
2026-01-30 09:54:05.58	351.38	28.63	-42.6	-47.5	10.5	3.95e-03	0	62	0	1012924416	57	6090
2026-01-30 09:54:06.59	351.31	28.45	-42.5	-47.2	10.8	2.98e-03	0	62	0	1015021568	57	5873
2026-01-30 09:54:07.60	351.24	28.27	-42.4	-47.0	10.9	2.97e-03	0	62	0	1017118720	56	6127
2026-01-30 09:54:08.61	351.18	28.09	-42.4	-46.8	11.2	1.99e-03	0	62	0	1019215872	56	5985
2026-01-30 09:54:09.62	351.12	27.92	-42.3	-46.8	11.2	1.26e-03	0	62	0	1021313024	56	5942
2026-01-30 09:54:10.63	351.05	27.74	-42.3	-46.8	11.2	1.14e-03	0	62	0	1022361600	56	5949
2026-01-30 09:54:11.63	350.99	27.57	-42.5	-47.3	10.7	2.23e-03	0	62	0	1024458752	56	6302
2026-01-30 09:54:12.65	350.93	27.40	-42.7	-47.8	10.2	3.61e-03	0	62	0	1026555904	56	6696
2026-01-30 09:54:13.66	350.87	27.23	-42.9	-48.4	9.4	9.15e-03	0	61	0	1028653056	56	7202
2026-01-30 09:54:14.67	350.81	27.06	-43.1	-49.0	8.8	2.29e-02	0	62	0	1030750208	56	7696
2026-01-30 09:54:15.67	350.75	26.89	-43.2	-49.4	8.5	3.39e-02	0	62	0	1031798784	56	8006
2026-01-30 09:54:16.69	350.69	26.72	-43.1	-49.1	8.7	3.43e-02	0	62	0	1033895936	56	7750
2026-01-30 09:54:17.69	350.63	26.55	-42.9	-48.5	9.3	3.35e-02	0	62	0	1035993088	56	7286
2026-01-30 09:54:18.70	350.58	26.39	-42.9	-48.4	9.4	2.40e-02	0	62	0	1038090240	56	7176
2026-01-30 09:54:19.71	350.52	26.22	-42.6	-47.5	10.3	7.63e-03	0	62	0	1040187392	56	6472
2026-01-30 09:54:20.72	350.46	26.06	-42.3	-46.8	11.1	2.26e-03	0	62	0	1041235968	56	5991
2026-01-30 09:54:21.73	350.41	25.89	-42.2	-46.7	11.2	1.32e-03	0	62	0	1043333120	56	5895
2026-01-30 09:54:22.75	350.35	25.73	-42.1	-46.4	11.5	8.93e-04	0	62	0	1045430272	56	5696
2026-01-30 09:54:23.76	350.30	25.57	-42.1	-46.4	11.4	9.17e-04	0	62	0	1047527424	56	5717
2026-01-30 09:54:24.77	350.24	25.41	-42.0	-46.3	11.5	7.60e-04	0	62	0	1049624576	56	5654
2026-01-30 09:54:25.78	350.19	25.25	-42.0	-46.4	11.5	7.70e-04	0	62	0	1050673152	56	5664
2026-01-30 09:54:26.79	350.14	25.09	-41.8	-46.0	11.6	7.97e-04	0	62	0	1052770304	55	5764
2026-01-30 09:54:27.79	350.09	24.93	-41.8	-46.1	11.5	7.83e-04	0	62	0	1054867456	55	5851
2026-01-30 09:54:28.80	350.03	24.78	-41.9	-46.4	11.2	8.51e-04	0	62	0	1056964608	55	6011
2026-01-30 09:54:29.82	349.98	24.62	-42.0	-46.5	11.1	1.38e-03	0	61	0	1059061760	55	6107
2026-01-30 09:54:30.83	349.93	24.46	-41.9	-46.4	11.2	1.24e-03	0	62	0	1060110336	55	6029
2026-01-30 09:54:31.84	349.88	24.31	-41.9	-46.4	11.1	1.53e-03	0	62	0	1062207488	55	6025
2026-01-30 09:54:32.85	349.83	24.16	-41.8	-46.3	11.2	1.31e-03	0	61	0	1064304640	55	5951
2026-01-30 09:54:33.86	349.78	24.00	-41.9	-46.6	10.8	2.02e-03	0	62	0	1066401792	55	6155
2026-01-30 09:54:34.87	349.74	23.85	-41.7	-46.3	11.1	2.26e-03	0	62	0	1068498944	55	5938
2026-01-30 09:54:35.88	349.69	23.70	-41.8	-46.4	10.8	1.98e-03	0	62	0	1069547520	55	6027
2026-01-30 09:54:36.89	349.64	23.55	-41.7	-46.5	10.8	3.31e-03	0	62	0	1071644672	55	6075
2026-01-30 09:54:37.90	349.59	23.40	-41.6	-46.4	10.7	4.85e-03	0	62	0	1073741824	55	5997
2026-01-30 09:54:38.91	349.55	23.25	-41.7	-46.6	10.3	4.80e-03	0	62	0	1075838976	55	6187
2026-01-30 09:54:39.92	349.50	23.11	-41.8	-47.0	9.7	8.85e-03	0	62	0	1077936128	55	6493
2026-01-30 09:54:40.93	349.46	22.96	-41.8	-47.4	9.3	1.47e-02	0	62	0	1078984704	55	6753
2026-01-30 09:54:41.94	349.41	22.81	-41.7	-47.2	9.3	1.80e-02	0	62	0	1081081856	55	6646
2026-01-30 09:54:42.95	349.37	22.67	-41.6	-47.1	9.4	1.93e-02	0	62	0	1083179008	55	6536
2026-01-30 09:54:43.96	349.32	22.53	-41.6	-47.4	9.0	1.98e-02	0	61	0	1085276160	55	6774
2026-01-30 09:54:44.97	349.28	22.38	-41.5	-47.2	9.1	2.15e-02	0	62	0	1087373312	55	6641
2026-01-30 09:54:45.98	349.23	22.24	-41.4	-47.1	9.2	2.28e-02	0	62	0	1089470464	54	6884
2026-01-30 09:54:46.98	349.19	22.10	-41.2	-46.9	9.1	1.86e-02	0	62	0	1090519040	54	6784
2026-01-30 09:54:47.99	349.15	21.96	-41.2	-47.2	8.7	2.72e-02	0	62	0	1092616192	54	7005
2026-01-30 09:54:49.00	349.11	21.82	-41.2	-47.6	8.2	4.74e-02	0	62	0	1094713344	54	7288
2026-01-30 09:54:50.02	349.07	21.68	-41.3	-48.3	7.2	8.85e-02	0	62	0	1096810496	54	7988
2026-01-30 09:54:51.02	349.02	21.54	-41.4	-49.6	5.9	2.12e-01	0	62	0	1098907648	54	9230
2026-01-30 09:54:52.03	348.98	21.40	-41.4	-50.5	5.2	5.34e-01	0	62	0	1099956224	54	10268
2026-01-30 09:54:53.04	348.94	21.26	-41.3	-51.6	4.5	8.58e-01	0	62	0	1102053376	54	11613
2026-01-30 09:54:54.05	348.90	21.13	-41.3	-52.7	4.1	1.36e+00	0	62	0	1103101952	54	13143
2026-01-30 09:54:55.06	348.86	20.99	-41.2	-53.4	3.8	1.47e+00	0	62	104	1103101952	54	14326
2026-01-30 09:54:56.07	348.82	20.86	-41.2	-54.1	3.8	1.49e+00	0	62	104	1103101952	54	15570
2026-01-30 09:54:57.08	348.79	20.72	-40.6	-54.7	3.8	1.49e+00	0	62	104	1103101952	53	17681
2026-01-30 09:54:58.09	348.75	20.59	-40.5	-54.7	3.8	1.49e+00	0	62	104	1103101952	53	17579
2026-01-30 09:54:59.10	348.71	20.46	-41.7	-54.9	3.8	1.49e+00	0	62	104	1103101952	53	17945
2026-01-30 09:55:00.11	348.67	20.32	-40.6	-54.7	3.8	1.49e+00	0	62	104	1103101952	53	17498
2026-01-30 09:55:01.12	348.63	20.19	-40.5	-54.7	3.8	1.49e+00	0	62	104	1103101952	53	17578
2026-01-30 09:55:02.13	348.60	20.06	-40.5	-54.8	3.8	1.49e+00	0	62	104	1103101952	53	17685
2026-01-30 09:55:03.14	348.56	19.93	-40.4	-54.8	3.8	1.49e+00	0	62	104	1103101952	52	18930
2026-01-30 09:55:04.15	348.52	19.80	-40.5	-54.8	3.8	1.49e+00	0	62	104	1103101952	52	18853
2026-01-30 09:55:05.16	348.49	19.67	-40.4	-54.8	3.8	1.49e+00	0	62	104	1103101952	52	18829
2026-01-30 09:55:06.17	348.45	19.54	-40.6	-55.0	3.8	1.49e+00	0	62	104	1103101952	52	19247
2026-01-30 09:55:07.18	348.42	19.42	-40.6	-54.9	3.8	1.49e+00	0	62	104	1103101952	52	19066
2026-01-30 09:55:08.18	348.38	19.29	-40.5	-54.9	3.8	1.49e+00	0	62	104	1103101952	52	19004
2026-01-30 09:55:09.19	348.35	19.16	-40.5	-54.9	3.8	1.49e+00	0	62	104	1103101952	52	19063
2026-01-30 09:55:10.20	348.31	19.04	-40.9	-55.3	3.8	1.49e+00	0	62	104	1103101952	52	19994
2026-01-30 09:55:11.21	348.28	18.91	-40.5	-54.8	3.8	1.49e+00	0	62	104	1103101952	52	18943
2026-01-30 09:55:12.22	348.25	18.79	-40.4	-54.8	3.8	1.49e+00	0	62	104	1103101952	52	18852
2026-01-30 09:55:13.23	348.21	18.67	-40.4	-54.8	3.8	1.49e+00	0	62	104	1103101952	52	18834
2026-01-30 09:55:14.24	348.18	18.54	-40.4	-54.8	3.8	1.49e+00	0	62	104	1103101952	52	18859
2026-01-30 09:55:15.25	348.15	18.42	-40.4	-54.8	3.8	1.49e+00	0	62	104	1103101952	52	18821
2026-01-30 09:55:16.26	348.11	18.30	-40.4	-54.8	3.8	1.49e+00	0	62	104	1103101952	52	18942
2026-01-30 09:55:17.27	348.08	18.18	-41.3	-55.8	3.8	1.49e+00	0	62	104	1103101952	53	19894
2026-01-30 09:55:18.28	348.05	18.06	-40.5	-54.9	3.8	1.49e+00	0	62	104	1103101952	53	18057
2026-01-30 09:55:19.29	348.02	17.94	-40.7	-55.2	3.8	1.49e+00	0	62	104	1103101952	53	18538
2026-01-30 09:55:20.30	347.99	17.82	-40.7	-55.1	3.8	1.49e+00	0	62	104	1103101952	53	18492
2026-01-30 09:55:21.31	347.95	17.70	-40.8	-55.2	3.8	1.49e+00	0	62	104	1103101952	53	18684
2026-01-30 09:55:22.32	347.92	17.58	-41.0	-55.4	3.8	1.49e+00	0	62	104	1103101952	53	19129
2026-01-30 09:55:23.33	347.89	17.46	-41.1	-55.6	3.8	1.49e+00	0	62	104	1103101952	53	19537
2026-01-30 09:55:24.34	347.86	17.34	-41.1	-55.6	3.8	1.49e+00	0	62	104	1103101952	53	19475
2026-01-30 09:55:25.35	347.83	17.23	-41.4	-55.9	3.8	1.49e+00	0	62	104	1103101952	53	20177
2026-01-30 09:55:26.36	347.80	17.11	-40.9	-55.4	3.8	1.49e+00	0	62	104	1103101952	53	18967
2026-01-30 09:55:27.37	347.77	16.99	-41.0	-55.5	3.8	1.49e+00	0	62	104	1103101952	53	19350
2026-01-30 09:55:28.38	347.74	16.88	-41.1	-55.6	3.8	1.49e+00	0	62	104	1103101952	53	19526
2026-01-30 09:55:29.39	347.72	16.76	-41.1	-55.6	3.8	1.49e+00	0	62	104	1103101952	53	19575
2026-01-30 09:55:30.40	347.69	16.65	-41.3	-55.8	3.8	1.49e+00	0	62	104	1103101952	53	19932
2026-01-30 09:55:31.41	347.66	16.54	-41.3	-55.9	3.8	1.49e+00	0	62	104	1103101952	53	20123
2026-01-30 09:55:32.42	347.63	16.42	-41.4	-55.9	3.8	1.49e+00	0	62	104	1103101952	53	20178
2026-01-30 09:55:33.43	347.60	16.31	-41.4	-55.9	3.8	1.49e+00	0	62	104	1103101952	53	20219
2026-01-30 09:55:34.44	347.57	16.20	-41.4	-55.9	3.8	1.49e+00	0	62	104	1103101952	53	20235
2026-01-30 09:55:35.45	347.55	16.09	-41.3	-55.8	3.8	1.49e+00	0	62	104	1103101952	53	19928
2026-01-30 09:55:36.46	347.52	15.98	-41.4	-55.9	3.8	1.49e+00	0	62	104	1103101952	53	20132
2026-01-30 09:55:37.47	347.49	15.86	-41.4	-55.9	3.8	1.49e+00	0	62	104	1103101952	53	20190
2026-01-30 09:55:38.48	347.46	15.75	-41.4	-55.9	3.8	1.49e+00	0	62	104	1103101952	53	20240
2026-01-30 09:55:39.49	347.44	15.64	-41.2	-55.8	3.8	1.49e+00	0	62	104	1103101952	53	19858
2026-01-30 09:55:40.50	347.41	15.54	-41.3	-55.9	3.8	1.49e+00	0	62	104	1103101952	53	20073
2026-01-30 09:55:41.51	347.39	15.43	-41.4	-55.9	3.8	1.49e+00	0	62	104	1103101952	53	20131
2026-01-30 09:55:42.52	347.36	15.32	-41.3	-55.8	3.8	1.49e+00	0	62	104	1103101952	53	20059
2026-01-30 09:55:43.53	347.33	15.21	-41.2	-55.7	3.8	1.49e+00	0	62	104	1103101952	53	19697
