passes_logs/2026/01/30/R2.0S_Moscow/R2.0S_Moscow__20260130_020901_AQUA_rec.log

#Pass ID: 20260130_020901_AQUA
#Satellite: AQUA
#Configuration: AQUA
#almurnet v.1.7.20251203
#Start time: 2026-01-30 02:09:02

#Version: 2.2.20231116
#Station: R2.0S_Moscow
#Location: 37.707566 lon 55.798166 lat
#TLE: 1 27424U 02022A   26028.91948147  .00001781  00000+0  36607-3 0  9997
#TLE: 2 27424  98.4103 355.5827 0001815  62.4290   1.4641 14.61871847262923

#Time	Az	El	Level	Level2	SNR	BER	BlckErr	Temp	State	Recorded	gain1	gain2
2026-01-30 02:09:02.29	11.14	2.06	-40.6	-59.4	3.8	7.46e-01	0	54	0	0	53	30253
2026-01-30 02:09:03.29	11.11	2.12	-40.7	-59.5	3.8	7.49e-01	0	54	104	0	51	34173
2026-01-30 02:09:04.30	11.07	2.19	-40.7	-59.5	3.8	7.45e-01	0	54	104	0	51	34218
2026-01-30 02:09:05.31	11.03	2.25	-40.7	-59.5	3.8	7.44e-01	0	55	104	0	51	34189
2026-01-30 02:09:06.32	10.99	2.32	-40.7	-59.5	3.8	7.45e-01	0	54	104	0	51	34253
2026-01-30 02:09:07.33	10.95	2.38	-40.7	-59.5	3.8	7.43e-01	0	55	104	0	51	34243
2026-01-30 02:09:08.34	10.92	2.45	-40.7	-59.5	3.8	7.48e-01	0	55	104	0	51	34142
2026-01-30 02:09:09.35	10.88	2.51	-40.7	-59.5	3.8	7.44e-01	0	55	104	0	51	34138
2026-01-30 02:09:10.36	10.84	2.58	-40.7	-59.5	3.8	7.43e-01	0	55	104	0	51	34133
2026-01-30 02:09:11.37	10.80	2.65	-40.7	-59.5	3.8	7.46e-01	0	55	104	0	51	34133
2026-01-30 02:09:12.38	10.76	2.71	-40.7	-59.5	3.8	7.45e-01	0	55	104	0	51	34164
2026-01-30 02:09:13.40	10.72	2.78	-40.6	-59.4	3.8	7.44e-01	0	55	104	0	51	34083
2026-01-30 02:09:14.40	10.68	2.85	-40.6	-59.5	3.8	7.48e-01	0	55	104	0	51	34120
2026-01-30 02:09:15.42	10.64	2.91	-40.6	-59.4	3.8	7.47e-01	0	55	104	0	51	34042
2026-01-30 02:09:16.43	10.60	2.98	-40.7	-59.5	3.8	7.39e-01	0	55	104	0	51	34091
2026-01-30 02:09:17.44	10.56	3.05	-40.6	-59.5	3.8	7.44e-01	0	55	104	0	51	34107
2026-01-30 02:09:18.45	10.52	3.12	-40.6	-59.4	3.8	7.47e-01	0	55	104	0	51	34049
2026-01-30 02:09:19.46	10.48	3.18	-40.6	-59.4	3.8	7.42e-01	0	55	104	0	51	33993
2026-01-30 02:09:20.47	10.44	3.25	-40.6	-59.5	3.8	7.44e-01	0	55	104	0	51	34094
2026-01-30 02:09:21.48	10.40	3.32	-40.6	-59.4	3.8	7.42e-01	0	55	104	0	51	34032
2026-01-30 02:09:22.49	10.36	3.39	-40.6	-59.4	3.8	7.43e-01	0	55	104	0	51	34059
2026-01-30 02:09:23.50	10.32	3.45	-40.6	-59.4	3.8	7.42e-01	0	55	104	0	51	33988
2026-01-30 02:09:24.51	10.28	3.52	-40.6	-59.5	3.8	7.47e-01	0	55	104	0	51	34113
2026-01-30 02:09:25.52	10.23	3.59	-40.6	-59.4	3.8	7.45e-01	0	56	104	0	51	34081
2026-01-30 02:09:26.53	10.19	3.66	-40.6	-59.5	3.8	7.41e-01	0	56	104	0	51	34113
2026-01-30 02:09:27.54	10.15	3.73	-40.6	-59.4	3.8	7.43e-01	0	56	104	0	51	34040
2026-01-30 02:09:28.55	10.11	3.80	-40.6	-59.4	3.8	7.49e-01	0	56	104	0	51	34038
2026-01-30 02:09:29.56	10.06	3.87	-40.6	-59.4	3.8	7.44e-01	0	55	104	0	51	33967
2026-01-30 02:09:30.57	10.02	3.94	-40.6	-59.4	3.8	7.47e-01	0	56	104	0	51	34041
2026-01-30 02:09:31.58	9.98	4.01	-40.6	-59.4	3.8	7.48e-01	0	56	104	0	51	34040
2026-01-30 02:09:32.59	9.93	4.08	-40.6	-59.4	3.8	7.47e-01	0	56	104	0	51	34065
2026-01-30 02:09:33.60	9.89	4.15	-40.6	-59.5	3.8	7.49e-01	0	56	104	0	51	34140
2026-01-30 02:09:34.61	9.85	4.22	-40.6	-59.4	3.8	7.45e-01	0	56	104	0	51	34064
2026-01-30 02:09:35.62	9.80	4.29	-40.6	-59.5	3.8	7.45e-01	0	56	104	0	51	34097
2026-01-30 02:09:36.63	9.76	4.36	-40.6	-59.4	3.8	7.44e-01	0	56	104	0	51	34001
2026-01-30 02:09:37.64	9.71	4.43	-40.6	-59.4	3.8	7.44e-01	0	56	104	0	51	34057
2026-01-30 02:09:38.65	9.67	4.50	-40.6	-59.4	3.8	7.47e-01	0	56	104	0	51	34019
2026-01-30 02:09:39.66	9.62	4.57	-40.6	-59.4	3.8	7.45e-01	0	56	104	0	51	34041
2026-01-30 02:09:40.67	9.58	4.64	-40.6	-59.4	3.8	7.44e-01	0	56	104	0	51	34016
2026-01-30 02:09:41.68	9.53	4.71	-40.6	-59.4	3.8	7.44e-01	0	56	104	0	51	34027
2026-01-30 02:09:42.70	9.48	4.79	-40.6	-59.4	3.8	7.47e-01	0	56	104	0	51	33981
2026-01-30 02:09:43.71	9.44	4.86	-40.6	-59.4	3.8	7.47e-01	0	56	104	0	51	34026
2026-01-30 02:09:44.72	9.39	4.93	-40.6	-59.4	3.8	7.42e-01	0	56	104	0	51	33992
2026-01-30 02:09:45.73	9.34	5.00	-40.6	-59.4	3.8	7.46e-01	0	56	104	0	51	34045
2026-01-30 02:09:46.74	9.29	5.08	-40.6	-59.4	3.8	7.46e-01	0	57	104	0	51	34005
2026-01-30 02:09:47.75	9.25	5.15	-40.6	-59.4	3.8	7.45e-01	0	56	104	0	51	34044
2026-01-30 02:09:48.76	9.20	5.22	-40.6	-59.4	3.8	7.41e-01	0	57	104	0	51	33977
2026-01-30 02:09:49.77	9.15	5.29	-40.6	-59.4	3.8	7.45e-01	0	56	104	0	51	34033
2026-01-30 02:09:50.78	9.10	5.37	-40.6	-59.4	3.8	7.44e-01	0	57	104	0	51	33934
2026-01-30 02:09:51.79	9.05	5.44	-40.6	-59.4	3.8	7.46e-01	0	57	104	0	51	34038
2026-01-30 02:09:52.80	9.00	5.51	-40.6	-59.4	3.8	7.45e-01	0	56	104	0	51	34028
2026-01-30 02:09:53.81	8.96	5.59	-40.6	-59.4	3.8	7.45e-01	0	57	104	0	51	33967
2026-01-30 02:09:54.82	8.91	5.66	-40.6	-59.4	3.8	7.45e-01	0	56	104	0	51	33981
2026-01-30 02:09:55.83	8.86	5.74	-40.6	-59.4	3.8	7.46e-01	0	57	104	0	51	34031
2026-01-30 02:09:56.84	8.81	5.81	-40.6	-59.4	3.8	7.42e-01	0	57	104	0	51	33929
2026-01-30 02:09:57.85	8.75	5.89	-40.6	-59.4	3.8	7.43e-01	0	57	104	0	51	33967
2026-01-30 02:09:58.86	8.70	5.96	-40.6	-59.4	3.8	7.43e-01	0	57	104	0	51	33992
2026-01-30 02:09:59.87	8.65	6.04	-40.6	-59.4	3.8	7.46e-01	0	57	104	0	51	33954
2026-01-30 02:10:00.88	8.60	6.11	-40.6	-59.4	3.8	7.46e-01	0	57	104	0	51	33996
2026-01-30 02:10:01.89	8.55	6.19	-40.6	-59.4	3.8	7.45e-01	0	57	104	0	51	33989
2026-01-30 02:10:02.90	8.50	6.26	-40.6	-59.4	3.8	7.43e-01	0	57	104	0	51	34041
2026-01-30 02:10:03.91	8.45	6.34	-40.6	-59.4	3.8	7.45e-01	0	57	104	0	51	34015
2026-01-30 02:10:04.92	8.39	6.42	-40.6	-59.4	3.8	7.45e-01	0	57	104	0	51	33990
2026-01-30 02:10:05.94	8.34	6.49	-40.6	-59.4	3.8	7.42e-01	0	57	104	0	51	33973
2026-01-30 02:10:06.95	8.29	6.57	-40.6	-59.4	3.8	7.48e-01	0	57	104	0	51	33920
2026-01-30 02:10:07.96	8.23	6.65	-40.6	-59.4	3.8	7.46e-01	0	57	104	0	51	34028
2026-01-30 02:10:08.97	8.18	6.73	-40.6	-59.4	3.8	7.47e-01	0	57	104	0	51	33934
2026-01-30 02:10:09.97	8.12	6.80	-40.6	-59.4	3.8	7.44e-01	0	57	104	0	51	33945
2026-01-30 02:10:10.99	8.07	6.88	-40.6	-59.4	3.8	7.42e-01	0	57	104	0	51	34007
2026-01-30 02:10:12.00	8.01	6.96	-40.6	-59.4	3.8	7.48e-01	0	57	104	0	51	33962
2026-01-30 02:10:13.01	7.96	7.04	-40.6	-59.4	3.8	7.45e-01	0	57	104	0	51	33989
2026-01-30 02:10:14.01	7.90	7.12	-40.6	-59.4	3.8	7.45e-01	0	58	104	0	51	34048
2026-01-30 02:10:15.02	7.85	7.19	-40.6	-59.4	3.8	7.46e-01	0	57	104	0	51	33984
2026-01-30 02:10:16.04	7.79	7.27	-40.6	-59.4	3.8	7.46e-01	0	57	104	0	51	33913
2026-01-30 02:10:17.04	7.73	7.35	-40.6	-59.4	3.8	7.47e-01	0	57	104	0	51	33983
2026-01-30 02:10:18.05	7.68	7.43	-40.6	-59.4	3.8	7.44e-01	0	58	104	0	51	33983
2026-01-30 02:10:19.06	7.62	7.51	-40.6	-59.4	3.8	7.47e-01	0	57	104	0	51	33987
2026-01-30 02:10:20.07	7.56	7.59	-40.6	-59.4	3.8	7.45e-01	0	58	104	0	51	33984
2026-01-30 02:10:21.08	7.50	7.67	-40.6	-59.4	3.8	7.45e-01	0	58	104	0	51	34031
2026-01-30 02:10:22.10	7.44	7.75	-40.6	-59.4	3.8	7.45e-01	0	57	104	0	51	34073
2026-01-30 02:10:23.11	7.38	7.83	-40.6	-59.4	3.8	7.43e-01	0	57	104	0	51	34010
2026-01-30 02:10:24.11	7.32	7.91	-40.6	-59.4	3.8	7.47e-01	0	58	104	0	51	34046
2026-01-30 02:10:25.13	7.26	8.00	-40.6	-59.4	3.8	7.44e-01	0	58	104	0	51	34036
2026-01-30 02:10:26.14	7.20	8.08	-40.6	-59.4	3.8	7.45e-01	0	58	104	0	51	34026
2026-01-30 02:10:27.15	7.14	8.16	-40.6	-59.5	3.8	7.46e-01	0	58	104	0	51	34171
2026-01-30 02:10:28.16	7.08	8.24	-40.7	-59.5	3.8	7.49e-01	0	57	104	0	52	32287
2026-01-30 02:10:29.17	7.02	8.32	-40.6	-59.4	3.8	7.47e-01	0	58	104	0	52	32029
2026-01-30 02:10:30.18	6.96	8.41	-40.7	-59.5	3.8	7.44e-01	0	58	104	0	52	32468
2026-01-30 02:10:31.18	6.90	8.49	-40.7	-59.5	3.8	7.45e-01	0	58	104	0	52	32298
2026-01-30 02:10:32.19	6.83	8.57	-40.7	-59.6	3.8	7.45e-01	0	58	104	0	52	32621
2026-01-30 02:10:33.20	6.77	8.66	-40.6	-59.4	3.8	7.45e-01	0	58	104	0	52	32003
2026-01-30 02:10:34.21	6.71	8.74	-40.7	-59.5	3.8	7.49e-01	0	58	104	0	52	32429
2026-01-30 02:10:35.22	6.64	8.82	-40.7	-59.5	3.8	7.43e-01	0	58	104	0	52	32331
2026-01-30 02:10:36.23	6.58	8.91	-40.7	-59.5	3.8	7.46e-01	0	58	104	0	52	32508
2026-01-30 02:10:37.24	6.52	8.99	-40.6	-59.4	3.8	7.47e-01	0	58	104	0	52	32099
2026-01-30 02:10:38.25	6.45	9.08	-40.7	-59.5	3.8	7.43e-01	0	58	104	0	52	32538
2026-01-30 02:10:39.26	6.38	9.16	-40.7	-59.5	3.8	7.46e-01	0	58	104	0	52	32289
2026-01-30 02:10:40.27	6.32	9.25	-40.7	-59.6	3.8	7.43e-01	0	58	104	0	52	32552
2026-01-30 02:10:41.28	6.25	9.33	-40.6	-59.4	3.8	7.44e-01	0	58	104	0	52	32050
2026-01-30 02:10:42.29	6.18	9.42	-40.8	-59.6	3.8	7.47e-01	0	58	104	0	52	32643
2026-01-30 02:10:43.30	6.12	9.51	-40.7	-59.5	3.8	7.49e-01	0	58	104	0	52	32299
2026-01-30 02:10:44.31	6.05	9.59	-40.8	-59.6	3.8	7.42e-01	0	58	104	0	52	32629
2026-01-30 02:10:45.32	5.98	9.68	-40.6	-59.4	3.8	7.46e-01	0	58	104	0	52	32116
2026-01-30 02:10:46.33	5.91	9.77	-40.8	-59.6	3.8	7.46e-01	0	58	104	0	52	32813
2026-01-30 02:10:47.34	5.84	9.85	-40.7	-59.5	3.8	7.43e-01	0	58	104	0	52	32279
2026-01-30 02:10:48.34	5.77	9.94	-40.8	-59.6	3.8	7.47e-01	0	58	104	0	52	32810
2026-01-30 02:10:49.35	5.70	10.03	-40.6	-59.4	3.8	7.48e-01	0	58	104	0	52	32054
2026-01-30 02:10:50.36	5.63	10.12	-40.8	-59.7	3.8	7.47e-01	0	58	104	0	52	32949
2026-01-30 02:10:51.37	5.56	10.21	-40.7	-59.5	3.8	7.45e-01	0	58	104	0	52	32467
2026-01-30 02:10:52.38	5.49	10.30	-40.9	-59.7	3.8	7.46e-01	0	58	104	0	52	33162
2026-01-30 02:10:53.39	5.42	10.38	-40.7	-59.5	3.8	7.42e-01	0	58	104	0	52	32254
2026-01-30 02:10:54.40	5.35	10.47	-40.9	-59.7	3.8	7.47e-01	0	58	104	0	52	32943
2026-01-30 02:10:55.41	5.27	10.56	-40.8	-59.6	3.8	7.46e-01	0	58	104	0	52	32664
2026-01-30 02:10:56.42	5.20	10.65	-41.0	-59.7	3.8	7.44e-01	0	58	104	0	53	31096
2026-01-30 02:10:57.43	5.12	10.75	-40.7	-59.4	3.8	7.46e-01	0	58	104	0	53	30357
2026-01-30 02:10:58.45	5.05	10.84	-41.0	-59.3	3.8	7.43e-01	0	59	104	0	53	30031
2026-01-30 02:10:59.46	4.97	10.93	-40.9	-59.5	3.8	7.45e-01	0	58	104	0	53	30712
2026-01-30 02:11:00.46	4.90	11.02	-41.0	-59.6	3.8	7.45e-01	0	59	104	0	53	30773
2026-01-30 02:11:01.47	4.82	11.11	-40.9	-59.4	3.8	7.40e-01	0	58	104	0	53	30258
2026-01-30 02:11:02.48	4.74	11.20	-41.1	-59.3	3.8	7.44e-01	0	58	104	0	53	29738
2026-01-30 02:11:03.49	4.67	11.30	-41.1	-59.4	3.8	7.42e-01	0	58	104	0	53	30353
2026-01-30 02:11:04.50	4.59	11.39	-41.1	-59.3	3.8	7.48e-01	0	59	104	0	53	29776
2026-01-30 02:11:05.51	4.51	11.48	-41.0	-59.5	3.8	7.44e-01	0	59	104	0	53	30419
2026-01-30 02:11:06.52	4.43	11.58	-41.2	-59.7	3.8	7.49e-01	0	58	104	0	53	31304
2026-01-30 02:11:07.53	4.35	11.67	-41.2	-59.7	3.8	7.49e-01	0	59	104	0	53	31370
2026-01-30 02:11:08.54	4.27	11.77	-41.1	-59.2	3.8	7.40e-01	0	58	104	0	54	27910
2026-01-30 02:11:09.55	4.19	11.86	-41.1	-59.1	3.8	7.43e-01	0	58	104	0	53	29279
2026-01-30 02:11:10.56	4.11	11.95	-41.3	-59.4	3.8	7.47e-01	0	59	104	0	53	30066
2026-01-30 02:11:11.58	4.03	12.05	-41.3	-59.6	3.8	7.45e-01	0	58	104	0	53	30915
2026-01-30 02:11:12.58	3.94	12.15	-41.6	-60.1	3.8	7.44e-01	0	59	104	0	53	32880
2026-01-30 02:11:13.59	3.86	12.24	-41.5	-58.3	3.8	7.46e-01	0	59	104	0	53	26685
2026-01-30 02:11:14.60	3.78	12.34	-41.9	-56.7	4.4	7.40e-01	0	58	104	0	54	20949
2026-01-30 02:11:15.61	3.69	12.44	-42.0	-55.8	4.8	7.16e-01	0	59	104	0	54	18901
2026-01-30 02:11:16.62	3.61	12.53	-41.5	-57.5	3.9	7.42e-01	0	59	104	0	54	22804
2026-01-30 02:11:17.63	3.52	12.63	-42.5	-60.2	3.7	7.43e-01	0	59	104	0	55	29668
2026-01-30 02:11:18.64	3.44	12.73	-41.7	-57.7	3.9	7.44e-01	0	59	104	0	55	22231
2026-01-30 02:11:19.65	3.35	12.83	-41.2	-55.6	4.5	7.25e-01	0	59	104	0	54	18328
2026-01-30 02:11:20.66	3.26	12.93	-41.3	-55.8	3.9	7.37e-01	0	59	104	0	54	18930
2026-01-30 02:11:21.67	3.17	13.03	-41.3	-55.0	4.9	7.13e-01	0	59	0	0	54	17245
2026-01-30 02:11:22.68	3.08	13.12	-41.4	-53.1	6.2	6.80e-01	92	59	0	524288	54	13869
2026-01-30 02:11:23.69	2.99	13.22	-41.3	-50.9	8.5	6.37e-01	11	59	0	2097152	54	10717
2026-01-30 02:11:24.70	2.90	13.32	-41.3	-49.2	10.6	6.14e-01	0	59	0	4194304	54	8773
2026-01-30 02:11:25.71	2.81	13.43	-41.2	-47.7	12.5	6.03e-01	0	59	0	6291456	54	7452
2026-01-30 02:11:26.72	2.72	13.53	-41.0	-46.5	14.2	6.02e-01	0	59	0	7864320	54	6436
2026-01-30 02:11:27.73	2.63	13.63	-40.8	-45.4	15.7	6.04e-01	0	59	0	9961472	53	6018
2026-01-30 02:11:28.74	2.53	13.73	-40.5	-44.5	16.9	6.01e-01	0	59	0	12058624	53	5439
2026-01-30 02:11:29.75	2.44	13.83	-40.4	-44.0	17.8	6.00e-01	0	59	0	13631488	52	5431
2026-01-30 02:11:30.76	2.35	13.94	-40.4	-44.0	17.9	6.04e-01	0	59	0	15728640	52	5423
2026-01-30 02:11:31.77	2.25	14.04	-40.5	-44.1	17.9	6.01e-01	0	59	0	17301504	52	5510
2026-01-30 02:11:32.78	2.15	14.14	-40.8	-44.5	17.5	5.99e-01	0	59	0	19398656	52	5777
2026-01-30 02:11:33.79	2.06	14.25	-41.1	-45.0	17.1	6.01e-01	0	59	0	21495808	52	6128
2026-01-30 02:11:34.80	1.96	14.35	-41.2	-45.2	16.9	6.00e-01	0	59	0	23068672	52	6257
2026-01-30 02:11:35.81	1.86	14.45	-41.1	-45.1	17.0	6.01e-01	0	59	0	25165824	52	6194
2026-01-30 02:11:36.82	1.76	14.56	-41.2	-45.2	17.0	6.03e-01	0	59	0	26738688	52	6211
2026-01-30 02:11:37.83	1.66	14.67	-41.2	-45.2	17.0	6.03e-01	0	59	0	28835840	52	6208
2026-01-30 02:11:38.84	1.56	14.77	-41.2	-45.2	17.0	6.02e-01	0	59	0	30932992	53	5868
2026-01-30 02:11:39.85	1.46	14.88	-41.3	-45.3	17.0	6.00e-01	0	59	0	32505856	53	5927
2026-01-30 02:11:40.86	1.36	14.98	-41.3	-45.3	16.9	6.01e-01	0	59	0	34603008	53	5990
2026-01-30 02:11:41.87	1.25	15.09	-41.3	-45.1	17.3	6.00e-01	0	59	0	36175872	53	5850
2026-01-30 02:11:42.88	1.15	15.20	-41.2	-44.9	17.7	6.01e-01	0	59	0	38273024	53	5667
2026-01-30 02:11:43.89	1.05	15.31	-41.3	-44.9	17.8	6.01e-01	0	59	0	40370176	53	5718
2026-01-30 02:11:44.91	0.94	15.42	-41.4	-45.1	17.7	6.02e-01	0	59	0	41943040	53	5809
2026-01-30 02:11:45.92	0.83	15.53	-41.4	-45.0	17.9	6.00e-01	0	59	0	44040192	53	5740
2026-01-30 02:11:46.93	0.72	15.64	-41.4	-45.0	18.0	6.03e-01	0	59	0	45613056	53	5734
2026-01-30 02:11:47.94	0.62	15.75	-41.5	-45.1	17.9	6.00e-01	0	59	0	47710208	53	5806
2026-01-30 02:11:48.95	0.51	15.86	-41.4	-44.8	18.2	6.01e-01	0	59	0	49807360	53	5650
2026-01-30 02:11:49.96	0.40	15.97	-41.4	-44.9	18.1	6.01e-01	0	59	0	51380224	53	5688
2026-01-30 02:11:50.97	0.29	16.08	-41.4	-44.9	18.2	6.01e-01	0	59	0	53477376	53	5660
2026-01-30 02:11:51.98	0.17	16.19	-41.4	-44.8	18.3	6.01e-01	0	59	0	55574528	53	5615
2026-01-30 02:11:52.99	0.06	16.30	-41.4	-44.8	18.3	5.99e-01	0	59	0	57147392	53	5642
2026-01-30 02:11:54.00	359.95	16.42	-41.4	-44.8	18.3	6.04e-01	0	59	0	59244544	53	5642
2026-01-30 02:11:55.01	359.83	16.53	-41.4	-44.7	18.4	6.00e-01	0	59	0	60817408	53	5578
2026-01-30 02:11:56.02	359.72	16.64	-41.3	-44.6	18.5	6.01e-01	0	59	0	62914560	53	5525
2026-01-30 02:11:57.03	359.60	16.76	-41.4	-44.8	18.4	5.99e-01	0	59	0	65011712	53	5641
2026-01-30 02:11:58.04	359.48	16.87	-41.3	-44.6	18.6	6.01e-01	0	60	0	66584576	53	5510
2026-01-30 02:11:59.05	359.36	16.99	-41.5	-44.9	18.3	6.02e-01	0	59	0	68681728	53	5709
2026-01-30 02:12:00.07	359.24	17.10	-41.5	-45.0	18.2	6.00e-01	0	59	0	70778880	53	5736
2026-01-30 02:12:01.07	359.12	17.22	-41.4	-44.8	18.3	6.02e-01	0	59	0	72351744	53	5643
2026-01-30 02:12:02.08	359.00	17.33	-41.5	-44.9	18.2	6.03e-01	0	59	0	74448896	53	5699
2026-01-30 02:12:03.09	358.88	17.45	-41.5	-44.9	18.2	6.00e-01	0	59	0	76021760	53	5694
2026-01-30 02:12:04.10	358.76	17.57	-41.4	-44.8	18.3	6.00e-01	0	59	0	78118912	53	5627
2026-01-30 02:12:05.11	358.63	17.69	-41.5	-44.9	18.1	6.02e-01	0	59	0	80216064	53	5721
2026-01-30 02:12:06.12	358.51	17.80	-41.5	-45.1	17.9	6.02e-01	0	59	0	81788928	53	5798
2026-01-30 02:12:07.13	358.38	17.92	-41.4	-44.9	18.0	5.98e-01	0	59	0	83886080	53	5720
2026-01-30 02:12:08.15	358.25	18.04	-41.4	-44.9	18.0	6.03e-01	0	59	0	85458944	53	5694
2026-01-30 02:12:09.16	358.12	18.16	-41.5	-45.2	17.7	6.02e-01	0	59	0	87556096	53	5870
2026-01-30 02:12:10.17	357.99	18.28	-41.6	-45.4	17.3	6.01e-01	0	59	0	89653248	53	6060
2026-01-30 02:12:11.18	357.86	18.41	-41.3	-45.0	17.6	6.03e-01	0	59	0	91226112	53	5766
2026-01-30 02:12:12.18	357.73	18.53	-41.1	-44.6	17.8	6.02e-01	0	59	0	93323264	53	5527
2026-01-30 02:12:13.20	357.59	18.65	-41.1	-44.9	17.5	6.03e-01	0	59	0	95420416	53	5674
2026-01-30 02:12:14.21	357.46	18.77	-41.3	-45.3	16.9	6.00e-01	0	59	0	96993280	53	5977
2026-01-30 02:12:15.22	357.32	18.89	-41.4	-45.5	16.6	6.03e-01	0	59	0	99090432	53	6119
2026-01-30 02:12:16.23	357.19	19.02	-41.0	-45.0	16.9	6.01e-01	0	60	0	100663296	53	5745
2026-01-30 02:12:17.24	357.05	19.14	-40.6	-44.2	17.5	6.00e-01	0	59	0	102760448	53	5276
2026-01-30 02:12:18.25	356.91	19.27	-40.3	-44.0	17.5	6.02e-01	0	59	0	104857600	52	5451
2026-01-30 02:12:19.26	356.77	19.39	-40.5	-44.5	16.9	6.01e-01	0	59	0	106430464	52	5781
2026-01-30 02:12:20.27	356.63	19.52	-40.9	-45.4	15.9	6.00e-01	0	59	0	108527616	52	6386
2026-01-30 02:12:21.28	356.48	19.64	-41.3	-46.8	14.3	6.04e-01	0	59	0	110100480	53	7061
2026-01-30 02:12:22.29	356.34	19.77	-41.6	-47.9	13.0	6.02e-01	0	59	0	112197632	53	7996
2026-01-30 02:12:23.29	356.19	19.89	-41.8	-48.6	12.2	6.04e-01	0	59	0	114294784	54	8249
2026-01-30 02:12:24.30	356.05	20.02	-41.8	-49.1	11.5	6.11e-01	0	59	0	115867648	54	8680
2026-01-30 02:12:25.31	355.90	20.15	-41.8	-48.8	11.8	6.08e-01	0	59	0	117964800	54	8441
2026-01-30 02:12:26.32	355.75	20.28	-41.8	-48.7	12.1	6.07e-01	0	59	0	119537664	54	8307
2026-01-30 02:12:27.33	355.60	20.41	-42.0	-49.1	11.7	6.08e-01	0	59	0	121634816	54	8713
2026-01-30 02:12:28.34	355.44	20.54	-42.0	-49.1	11.8	6.06e-01	0	60	0	123731968	54	8720
2026-01-30 02:12:29.35	355.29	20.67	-41.6	-47.8	13.2	6.05e-01	0	60	0	125304832	54	7469
2026-01-30 02:12:30.36	355.13	20.80	-41.0	-46.0	14.9	6.05e-01	0	60	0	127401984	54	6119
2026-01-30 02:12:31.37	354.98	20.93	-40.4	-44.8	16.1	6.02e-01	0	60	0	128974848	52	5944
2026-01-30 02:12:32.38	354.82	21.06	-40.2	-44.3	16.6	6.01e-01	0	60	0	131072000	52	5619
2026-01-30 02:12:33.39	354.66	21.19	-40.1	-44.2	16.7	5.99e-01	0	60	0	133169152	52	5544
2026-01-30 02:12:34.40	354.50	21.33	-40.1	-44.2	16.6	6.03e-01	0	59	0	134742016	52	5575
2026-01-30 02:12:35.41	354.34	21.46	-40.3	-44.5	16.5	6.00e-01	0	59	0	136839168	52	5758
2026-01-30 02:12:36.42	354.17	21.59	-40.5	-44.8	16.3	5.99e-01	0	60	0	138936320	52	5972
2026-01-30 02:12:37.43	354.01	21.73	-40.6	-45.0	16.2	6.02e-01	0	59	0	140509184	52	6108
2026-01-30 02:12:38.44	353.84	21.86	-40.6	-44.7	16.7	6.01e-01	0	60	0	142606336	52	5921
2026-01-30 02:12:39.45	353.67	22.00	-40.8	-44.7	17.1	6.04e-01	0	60	0	144179200	52	5890
2026-01-30 02:12:40.46	353.50	22.14	-41.0	-44.9	17.0	5.98e-01	0	59	0	146276352	52	6059
2026-01-30 02:12:41.47	353.33	22.27	-41.3	-45.5	16.6	6.01e-01	0	60	0	148373504	53	6083
2026-01-30 02:12:42.48	353.15	22.41	-41.5	-45.8	16.4	6.04e-01	0	60	0	149946368	53	6347
2026-01-30 02:12:43.49	352.98	22.55	-41.6	-45.9	16.4	6.02e-01	0	60	0	152043520	53	6420
2026-01-30 02:12:44.50	352.80	22.68	-41.7	-46.0	16.4	6.00e-01	0	60	0	153616384	53	6433
2026-01-30 02:12:45.51	352.62	22.82	-41.8	-46.0	16.5	6.03e-01	0	59	0	155713536	54	6065
2026-01-30 02:12:46.52	352.44	22.96	-41.7	-45.8	16.8	5.99e-01	0	60	0	157810688	54	5978
2026-01-30 02:12:47.53	352.26	23.10	-41.6	-45.4	17.3	6.00e-01	0	60	0	159383552	54	5705
2026-01-30 02:12:48.54	352.08	23.24	-41.6	-45.4	17.4	6.02e-01	0	60	0	161480704	54	5697
2026-01-30 02:12:49.55	351.89	23.38	-41.8	-45.6	17.3	6.02e-01	0	60	0	163577856	54	5849
2026-01-30 02:12:50.56	351.70	23.52	-41.8	-45.5	17.5	5.99e-01	0	60	0	165150720	54	5782
2026-01-30 02:12:51.57	351.51	23.67	-41.7	-45.3	17.9	6.01e-01	0	60	0	167247872	54	5603
2026-01-30 02:12:52.58	351.32	23.81	-41.9	-45.5	17.8	6.04e-01	0	60	0	168820736	54	5776
2026-01-30 02:12:53.59	351.13	23.95	-41.7	-45.2	18.1	6.01e-01	0	60	0	170917888	54	5573
2026-01-30 02:12:54.60	350.93	24.09	-41.7	-45.1	18.3	5.99e-01	0	60	0	173015040	54	5500
2026-01-30 02:12:55.61	350.74	24.24	-41.8	-45.3	18.1	6.00e-01	0	60	0	174587904	54	5610
2026-01-30 02:12:56.62	350.54	24.38	-41.7	-45.0	18.4	6.00e-01	0	60	0	176685056	54	5428
2026-01-30 02:12:57.63	350.34	24.53	-41.8	-45.2	18.3	6.01e-01	0	60	0	178257920	54	5562
2026-01-30 02:12:58.64	350.14	24.67	-41.8	-45.2	18.3	6.03e-01	0	60	0	180355072	54	5555
2026-01-30 02:12:59.65	349.93	24.82	-41.8	-45.1	18.5	5.99e-01	0	60	0	182452224	54	5472
2026-01-30 02:13:00.66	349.72	24.97	-41.9	-45.2	18.4	6.03e-01	0	60	0	184025088	54	5558
2026-01-30 02:13:01.67	349.52	25.11	-41.8	-45.2	18.5	6.00e-01	0	60	0	186122240	54	5546
2026-01-30 02:13:02.68	349.30	25.26	-41.9	-45.3	18.4	6.02e-01	0	60	0	187695104	54	5623
2026-01-30 02:13:03.69	349.09	25.41	-41.9	-45.3	18.4	5.99e-01	0	60	0	189792256	54	5616
2026-01-30 02:13:04.70	348.88	25.56	-42.0	-45.5	18.2	6.01e-01	0	60	0	191889408	54	5732
2026-01-30 02:13:05.71	348.66	25.70	-42.0	-45.3	18.4	6.03e-01	0	60	0	193462272	54	5649
2026-01-30 02:13:06.73	348.44	25.85	-41.8	-45.1	18.5	6.00e-01	0	60	0	195559424	54	5524
2026-01-30 02:13:07.74	348.22	26.00	-41.9	-45.1	18.6	5.97e-01	0	60	0	197132288	54	5520
2026-01-30 02:13:08.75	347.99	26.15	-41.8	-45.0	18.7	6.02e-01	0	60	0	199229440	54	5457
2026-01-30 02:13:09.76	347.77	26.30	-41.8	-45.0	18.7	6.00e-01	0	60	0	201326592	54	5439
2026-01-30 02:13:10.77	347.54	26.46	-41.8	-45.0	18.8	5.98e-01	0	60	0	202899456	54	5411
2026-01-30 02:13:11.78	347.31	26.61	-41.7	-44.9	18.8	6.02e-01	0	60	0	204996608	54	5382
2026-01-30 02:13:12.79	347.08	26.76	-41.8	-44.9	18.8	6.03e-01	0	60	0	207093760	54	5383
2026-01-30 02:13:13.80	346.84	26.91	-41.8	-44.9	18.9	5.98e-01	0	60	0	208666624	54	5389
2026-01-30 02:13:14.81	346.60	27.06	-41.8	-44.9	18.9	6.00e-01	0	60	0	210763776	54	5391
2026-01-30 02:13:15.82	346.36	27.22	-41.8	-45.0	18.8	5.99e-01	0	60	0	212336640	54	5455
2026-01-30 02:13:16.83	346.12	27.37	-41.8	-45.0	18.8	6.03e-01	0	60	0	214433792	54	5441
2026-01-30 02:13:17.84	345.88	27.52	-41.8	-45.0	18.8	6.02e-01	0	60	0	216530944	54	5454
2026-01-30 02:13:18.85	345.63	27.68	-41.8	-44.9	18.9	6.03e-01	0	60	0	218103808	54	5389
2026-01-30 02:13:19.86	345.38	27.83	-41.8	-44.9	18.9	6.01e-01	0	60	0	220200960	54	5395
2026-01-30 02:13:20.87	345.13	27.99	-41.8	-45.0	18.8	6.01e-01	0	60	0	221773824	54	5427
2026-01-30 02:13:21.88	344.87	28.14	-41.7	-44.8	19.0	6.03e-01	0	60	0	223870976	54	5337
2026-01-30 02:13:22.89	344.61	28.30	-41.7	-44.7	19.2	6.01e-01	0	60	0	225968128	54	5253
2026-01-30 02:13:23.90	344.35	28.45	-41.6	-44.6	19.2	6.00e-01	0	60	0	227540992	54	5201
2026-01-30 02:13:24.91	344.09	28.61	-41.6	-44.7	19.2	6.01e-01	0	60	0	229638144	54	5235
2026-01-30 02:13:25.92	343.82	28.76	-41.7	-44.7	18.9	6.01e-01	0	60	0	231735296	54	5266
2026-01-30 02:13:26.93	343.56	28.92	-41.6	-44.7	19.2	6.02e-01	0	60	0	233308160	54	5220
2026-01-30 02:13:27.94	343.29	29.08	-41.7	-44.8	19.2	6.02e-01	0	60	0	235405312	54	5310
2026-01-30 02:13:28.95	343.01	29.23	-41.6	-44.6	19.3	5.99e-01	0	60	0	236978176	54	5176
2026-01-30 02:13:29.96	342.73	29.39	-41.6	-44.6	19.3	6.00e-01	0	60	0	239075328	54	5184
2026-01-30 02:13:30.97	342.46	29.55	-41.7	-44.7	19.2	6.02e-01	0	60	0	241172480	54	5251
2026-01-30 02:13:31.98	342.17	29.71	-41.7	-44.7	19.2	6.00e-01	0	60	0	242745344	54	5240
2026-01-30 02:13:32.99	341.89	29.86	-41.6	-44.6	19.3	6.04e-01	0	60	0	244842496	54	5185
2026-01-30 02:13:34.00	341.60	30.02	-41.6	-44.6	19.4	6.01e-01	0	60	0	246939648	54	5161
2026-01-30 02:13:35.01	341.31	30.18	-41.5	-44.5	19.5	6.02e-01	0	60	0	248512512	54	5113
2026-01-30 02:13:36.02	341.01	30.34	-41.6	-44.5	19.4	6.03e-01	0	60	0	250609664	54	5132
2026-01-30 02:13:37.03	340.72	30.50	-41.6	-44.6	19.3	5.99e-01	0	60	0	252182528	54	5180
2026-01-30 02:13:38.04	340.42	30.66	-41.6	-44.6	19.3	6.00e-01	0	60	0	254279680	54	5198
2026-01-30 02:13:39.05	340.11	30.81	-41.6	-44.6	19.3	6.02e-01	0	60	0	256376832	54	5194
2026-01-30 02:13:40.06	339.81	30.97	-41.6	-44.6	19.4	5.97e-01	0	60	0	257949696	54	5194
2026-01-30 02:13:41.07	339.50	31.13	-41.6	-44.6	19.4	6.01e-01	0	60	0	260046848	54	5196
2026-01-30 02:13:42.08	339.18	31.29	-41.6	-44.6	19.4	6.05e-01	0	60	0	261619712	54	5171
2026-01-30 02:13:43.09	338.87	31.45	-41.6	-44.6	19.4	6.04e-01	0	60	0	263716864	54	5162
2026-01-30 02:13:44.10	338.55	31.61	-41.7	-44.7	19.3	6.03e-01	0	60	0	265814016	54	5240
2026-01-30 02:13:45.12	338.22	31.77	-41.8	-44.8	19.2	6.02e-01	0	60	0	267386880	54	5310
2026-01-30 02:13:46.13	337.90	31.92	-41.7	-44.8	19.2	6.00e-01	0	60	0	269484032	54	5287
2026-01-30 02:13:47.14	337.57	32.08	-41.7	-44.7	19.3	6.04e-01	0	60	0	271056896	54	5239
2026-01-30 02:13:48.15	337.24	32.24	-41.7	-44.7	19.3	6.02e-01	0	60	0	273154048	54	5225
2026-01-30 02:13:49.16	336.90	32.40	-41.8	-44.8	19.2	6.01e-01	0	60	0	275251200	54	5316
2026-01-30 02:13:50.16	336.56	32.55	-41.8	-44.8	19.1	6.01e-01	0	60	0	276824064	54	5340
2026-01-30 02:13:51.17	336.22	32.71	-41.6	-44.6	19.4	6.02e-01	0	60	0	278921216	54	5194
2026-01-30 02:13:52.19	335.87	32.87	-41.7	-44.6	19.4	6.02e-01	0	60	0	280494080	54	5203
2026-01-30 02:13:53.19	335.52	33.03	-41.7	-44.7	19.3	5.98e-01	0	60	0	282591232	54	5224
2026-01-30 02:13:54.21	335.17	33.18	-41.8	-44.9	19.1	6.01e-01	0	60	0	284688384	54	5369
2026-01-30 02:13:55.22	334.81	33.34	-41.9	-45.1	19.0	6.03e-01	0	60	0	286261248	54	5483
2026-01-30 02:13:56.23	334.45	33.49	-41.9	-45.0	19.0	6.03e-01	0	60	0	288358400	54	5453
2026-01-30 02:13:57.24	334.09	33.65	-41.8	-44.9	19.1	6.02e-01	0	60	0	289931264	54	5347
2026-01-30 02:13:58.25	333.72	33.80	-41.9	-44.9	19.1	6.01e-01	0	60	0	292028416	54	5392
2026-01-30 02:13:59.26	333.35	33.96	-41.9	-45.0	19.0	6.03e-01	0	60	0	294125568	54	5424
2026-01-30 02:14:00.27	332.97	34.11	-41.9	-45.0	19.0	6.01e-01	0	60	0	295698432	54	5438
2026-01-30 02:14:01.28	332.60	34.27	-42.0	-45.1	18.9	6.01e-01	0	60	0	297795584	54	5522
2026-01-30 02:14:02.29	332.21	34.42	-42.2	-45.4	18.6	6.01e-01	0	60	0	299892736	54	5719
2026-01-30 02:14:03.30	331.83	34.57	-42.1	-45.3	18.7	6.00e-01	0	60	0	301465600	54	5645
2026-01-30 02:14:04.31	331.44	34.72	-42.1	-45.3	18.8	6.02e-01	0	60	0	303562752	54	5607
2026-01-30 02:14:05.32	331.04	34.87	-42.1	-45.4	18.7	6.02e-01	0	60	0	305135616	54	5661
2026-01-30 02:14:06.33	330.65	35.02	-42.1	-45.3	18.7	6.02e-01	0	60	0	307232768	54	5635
2026-01-30 02:14:07.34	330.25	35.17	-42.1	-45.4	18.7	6.02e-01	0	60	0	309329920	54	5670
2026-01-30 02:14:08.35	329.84	35.32	-42.2	-45.5	18.5	6.01e-01	0	60	0	310902784	55	5457
2026-01-30 02:14:09.36	329.43	35.47	-42.3	-45.7	18.4	5.99e-01	0	60	0	312999936	55	5529
2026-01-30 02:14:10.37	329.02	35.61	-42.3	-45.7	18.3	6.02e-01	0	60	0	315097088	55	5559
2026-01-30 02:14:11.38	328.60	35.76	-42.3	-45.7	18.3	6.01e-01	0	60	0	316669952	55	5554
2026-01-30 02:14:12.39	328.18	35.90	-42.3	-45.7	18.3	6.01e-01	0	60	0	318767104	55	5579
2026-01-30 02:14:13.40	327.76	36.05	-42.3	-45.7	18.4	6.02e-01	0	60	0	320339968	55	5530
2026-01-30 02:14:14.41	327.33	36.19	-42.4	-45.8	18.2	6.02e-01	0	60	0	322437120	55	5654
2026-01-30 02:14:15.42	326.90	36.33	-42.4	-45.8	18.2	6.02e-01	0	60	0	324534272	55	5637
2026-01-30 02:14:16.43	326.47	36.47	-42.4	-45.9	18.1	6.00e-01	0	60	0	326107136	55	5700
2026-01-30 02:14:17.44	326.03	36.61	-42.6	-46.2	17.8	6.00e-01	0	60	0	328204288	55	5913
2026-01-30 02:14:18.45	325.58	36.74	-42.6	-46.3	17.8	6.01e-01	0	60	0	329777152	55	5933
2026-01-30 02:14:19.46	325.14	36.88	-42.5	-45.9	18.1	6.02e-01	0	60	0	331874304	55	5703
2026-01-30 02:14:20.47	324.69	37.02	-42.4	-45.9	18.1	6.03e-01	0	60	0	333971456	55	5670
2026-01-30 02:14:21.48	324.23	37.15	-42.6	-46.2	17.9	6.02e-01	0	60	0	335544320	55	5865
2026-01-30 02:14:22.49	323.77	37.28	-42.7	-46.3	17.7	6.00e-01	0	60	0	337641472	55	5963
2026-01-30 02:14:23.50	323.31	37.41	-42.8	-46.5	17.6	6.03e-01	0	60	0	339738624	56	5757
2026-01-30 02:14:24.51	322.84	37.54	-42.9	-46.7	17.5	6.02e-01	0	60	0	341311488	56	5866
2026-01-30 02:14:25.52	322.37	37.67	-42.7	-46.3	17.9	6.02e-01	0	60	0	343408640	56	5607
2026-01-30 02:14:26.53	321.90	37.79	-42.8	-46.4	17.7	6.02e-01	0	60	0	344981504	56	5714
2026-01-30 02:14:27.54	321.42	37.92	-42.8	-46.4	17.8	5.98e-01	0	60	0	347078656	56	5668
2026-01-30 02:14:28.55	320.94	38.04	-42.9	-46.6	17.6	5.98e-01	0	60	0	349175808	56	5819
2026-01-30 02:14:29.56	320.46	38.16	-43.0	-46.8	17.4	6.01e-01	0	60	0	350748672	56	5944
2026-01-30 02:14:30.57	319.97	38.28	-42.8	-46.5	17.6	5.99e-01	0	60	0	352845824	56	5781
2026-01-30 02:14:31.58	319.48	38.39	-42.8	-46.5	17.6	6.01e-01	0	60	0	354418688	56	5755
2026-01-30 02:14:32.59	318.98	38.51	-42.9	-46.6	17.5	6.05e-01	0	60	0	356515840	56	5837
2026-01-30 02:14:33.60	318.48	38.62	-42.7	-46.3	17.9	6.00e-01	0	60	0	358612992	56	5623
2026-01-30 02:14:34.61	317.98	38.73	-42.9	-46.5	17.6	6.02e-01	0	60	0	360185856	56	5787
2026-01-30 02:14:35.62	317.47	38.84	-43.0	-46.8	17.3	6.00e-01	0	60	0	362283008	56	5982
2026-01-30 02:14:36.63	316.96	38.94	-42.8	-46.5	17.7	6.01e-01	0	60	0	363855872	56	5732
2026-01-30 02:14:37.64	316.45	39.05	-42.7	-46.3	17.9	6.01e-01	0	60	0	365953024	56	5604
2026-01-30 02:14:38.65	315.93	39.15	-42.7	-46.3	17.9	5.98e-01	0	60	0	368050176	56	5620
2026-01-30 02:14:39.67	315.41	39.25	-42.8	-46.5	17.7	6.02e-01	0	60	0	369623040	56	5729
2026-01-30 02:14:40.68	314.89	39.35	-42.8	-46.5	17.7	6.00e-01	0	60	0	371720192	56	5752
2026-01-30 02:14:41.69	314.36	39.44	-42.9	-46.6	17.6	6.02e-01	0	60	0	373293056	56	5797
2026-01-30 02:14:42.70	313.83	39.53	-42.8	-46.4	17.8	6.01e-01	0	60	0	375390208	56	5661
2026-01-30 02:14:43.71	313.30	39.62	-42.8	-46.4	17.7	6.01e-01	0	60	0	377487360	56	5720
2026-01-30 02:14:44.72	312.76	39.71	-42.8	-46.5	17.7	6.01e-01	0	60	0	379060224	56	5764
2026-01-30 02:14:45.73	312.22	39.80	-42.8	-46.4	17.8	6.02e-01	0	60	0	381157376	56	5687
2026-01-30 02:14:46.74	311.68	39.88	-42.7	-46.3	17.8	6.00e-01	0	60	0	382730240	56	5647
2026-01-30 02:14:47.75	311.14	39.96	-42.6	-46.1	18.0	6.02e-01	0	60	0	384827392	56	5514
2026-01-30 02:14:48.76	310.59	40.03	-42.6	-46.2	18.0	6.01e-01	0	60	0	386924544	56	5535
2026-01-30 02:14:49.77	310.04	40.11	-42.7	-46.2	18.0	6.02e-01	0	60	0	388497408	56	5555
2026-01-30 02:14:50.78	309.49	40.18	-42.7	-46.3	17.9	6.02e-01	0	60	0	390594560	56	5596
2026-01-30 02:14:51.79	308.94	40.25	-42.8	-46.4	17.7	6.00e-01	0	60	0	392691712	56	5710
2026-01-30 02:14:52.80	308.38	40.31	-42.7	-46.2	17.9	6.02e-01	0	60	0	394264576	56	5547
2026-01-30 02:14:53.81	307.82	40.37	-42.7	-46.2	17.9	6.03e-01	0	60	0	396361728	56	5578
2026-01-30 02:14:54.82	307.26	40.43	-42.5	-45.9	18.3	6.03e-01	0	60	0	397934592	56	5371
2026-01-30 02:14:55.83	306.70	40.49	-42.7	-46.2	18.0	6.04e-01	0	60	0	400031744	56	5576
2026-01-30 02:14:56.84	306.13	40.54	-42.5	-46.0	18.2	6.03e-01	0	60	0	402128896	56	5422
2026-01-30 02:14:57.85	305.56	40.59	-42.5	-45.9	18.3	6.01e-01	0	60	0	403701760	56	5353
2026-01-30 02:14:58.86	305.00	40.64	-42.4	-45.7	18.3	6.01e-01	0	60	0	405798912	56	5272
2026-01-30 02:14:59.87	304.43	40.68	-42.6	-46.2	17.9	5.98e-01	0	60	0	407896064	56	5547
2026-01-30 02:15:00.88	303.85	40.72	-42.7	-46.3	17.8	6.03e-01	0	60	0	409468928	56	5599
2026-01-30 02:15:01.89	303.28	40.76	-42.7	-46.3	17.8	6.00e-01	0	60	0	411566080	56	5632
2026-01-30 02:15:02.90	302.71	40.80	-42.6	-46.1	18.0	6.01e-01	0	60	0	413138944	56	5525
2026-01-30 02:15:03.91	302.13	40.83	-42.5	-45.9	18.2	6.02e-01	0	60	0	415236096	56	5400
2026-01-30 02:15:04.92	301.55	40.86	-42.8	-46.5	17.6	6.00e-01	0	60	0	417333248	56	5747
2026-01-30 02:15:05.93	300.98	40.88	-42.9	-46.7	17.5	6.04e-01	0	60	0	418906112	56	5876
2026-01-30 02:15:06.94	300.40	40.90	-42.5	-46.0	18.1	6.00e-01	0	60	0	421003264	56	5426
2026-01-30 02:15:07.95	299.82	40.92	-42.7	-46.2	18.0	6.01e-01	0	60	0	422576128	56	5592
2026-01-30 02:15:08.96	299.24	40.94	-42.7	-46.3	17.9	6.01e-01	0	60	0	424673280	56	5618
2026-01-30 02:15:09.97	298.66	40.95	-42.6	-46.1	18.1	6.01e-01	0	60	0	426770432	56	5471
2026-01-30 02:15:10.98	298.07	40.96	-42.6	-46.1	18.1	6.04e-01	0	60	0	428343296	56	5527
2026-01-30 02:15:11.99	297.49	40.97	-42.6	-46.1	18.1	6.00e-01	0	60	0	430440448	56	5475
2026-01-30 02:15:13.00	296.91	40.97	-42.6	-46.2	18.1	6.02e-01	0	60	0	432537600	56	5535
2026-01-30 02:15:14.01	296.33	40.97	-42.5	-46.0	18.3	6.02e-01	0	60	0	434110464	56	5418
2026-01-30 02:15:15.02	295.75	40.96	-42.4	-45.7	18.6	6.02e-01	0	60	0	436207616	56	5274
2026-01-30 02:15:16.02	295.17	40.96	-42.3	-45.6	18.6	6.00e-01	0	60	0	437780480	56	5194
2026-01-30 02:15:17.04	294.59	40.94	-42.4	-45.8	18.5	6.01e-01	0	60	0	439877632	56	5291
2026-01-30 02:15:18.05	294.00	40.93	-42.6	-46.2	18.1	6.03e-01	0	60	0	441974784	56	5565
2026-01-30 02:15:19.06	293.42	40.91	-42.8	-46.5	17.8	6.00e-01	0	60	0	443547648	56	5772
2026-01-30 02:15:20.07	292.85	40.89	-42.6	-46.3	17.8	6.01e-01	0	60	0	445644800	55	5966
2026-01-30 02:15:21.08	292.27	40.87	-42.4	-45.9	18.3	6.00e-01	0	60	0	447217664	55	5695
2026-01-30 02:15:22.09	291.69	40.84	-42.4	-45.9	18.2	5.99e-01	0	60	0	449314816	55	5714
2026-01-30 02:15:23.10	291.11	40.81	-42.5	-46.1	17.9	5.99e-01	0	60	0	451411968	55	5795
2026-01-30 02:15:24.11	290.54	40.78	-42.8	-46.5	17.5	5.98e-01	0	60	0	452984832	56	5761
2026-01-30 02:15:25.12	289.96	40.74	-43.0	-47.0	17.2	6.00e-01	0	60	0	455081984	56	6082
2026-01-30 02:15:26.13	289.39	40.70	-42.7	-46.4	17.7	6.02e-01	0	60	0	456654848	55	6040
2026-01-30 02:15:27.14	288.82	40.66	-42.5	-45.9	18.3	6.01e-01	0	60	0	458752000	56	5377
2026-01-30 02:15:28.15	288.25	40.61	-42.1	-45.3	18.9	6.01e-01	0	60	0	460849152	56	4986
2026-01-30 02:15:29.16	287.68	40.56	-42.1	-45.3	18.8	6.01e-01	0	60	0	462422016	56	5012
2026-01-30 02:15:30.17	287.11	40.51	-42.7	-46.3	17.8	6.01e-01	0	60	0	464519168	56	5608
2026-01-30 02:15:31.18	286.55	40.46	-42.6	-46.2	18.0	6.01e-01	0	60	0	466092032	56	5573
2026-01-30 02:15:32.20	285.98	40.40	-42.4	-45.8	18.3	6.03e-01	0	60	0	468189184	56	5330
2026-01-30 02:15:33.21	285.42	40.34	-42.3	-45.5	18.6	5.99e-01	0	60	0	470286336	56	5120
2026-01-30 02:15:34.22	284.86	40.27	-42.3	-45.6	18.3	5.99e-01	0	60	0	471859200	56	5180
2026-01-30 02:15:35.23	284.31	40.20	-42.8	-46.6	17.5	6.04e-01	0	60	0	473956352	56	5789
2026-01-30 02:15:36.24	283.75	40.13	-42.7	-46.3	17.9	6.03e-01	0	60	0	476053504	56	5627
2026-01-30 02:15:37.25	283.20	40.06	-42.5	-45.9	18.3	6.01e-01	0	60	0	477626368	56	5355
2026-01-30 02:15:38.26	282.65	39.99	-42.6	-46.0	18.1	6.00e-01	0	60	0	479723520	56	5452
2026-01-30 02:15:39.27	282.11	39.91	-42.6	-46.1	18.1	6.02e-01	0	60	0	481296384	56	5485
2026-01-30 02:15:40.28	281.56	39.83	-42.4	-45.8	18.3	6.02e-01	0	60	0	483393536	56	5321
2026-01-30 02:15:41.29	281.02	39.74	-42.7	-46.3	17.8	5.99e-01	0	60	0	485490688	56	5604
2026-01-30 02:15:42.30	280.49	39.66	-42.3	-45.5	18.6	5.98e-01	0	60	0	487063552	56	5121
2026-01-30 02:15:43.31	279.95	39.57	-42.3	-45.6	18.4	6.01e-01	0	60	0	489160704	56	5187
2026-01-30 02:15:44.32	279.42	39.48	-42.9	-46.8	17.4	6.00e-01	0	60	0	490733568	56	5953
2026-01-30 02:15:45.33	278.89	39.38	-42.2	-45.4	18.8	6.03e-01	0	60	0	492830720	56	5075
2026-01-30 02:15:46.34	278.37	39.29	-42.5	-45.9	18.0	6.04e-01	0	60	0	494927872	56	5360
2026-01-30 02:15:47.35	277.84	39.19	-43.2	-47.4	16.8	6.05e-01	0	60	0	496500736	56	6392
2026-01-30 02:15:48.36	277.33	39.09	-42.4	-45.7	18.4	6.00e-01	0	60	0	498597888	56	5245
2026-01-30 02:15:49.37	276.81	38.98	-42.6	-46.2	17.7	6.02e-01	0	60	0	500695040	56	5556
2026-01-30 02:15:50.38	276.30	38.88	-43.0	-46.9	17.2	6.01e-01	0	60	0	502267904	56	6037
2026-01-30 02:15:51.39	275.79	38.77	-42.4	-45.8	18.4	6.03e-01	0	60	0	504365056	56	5286
2026-01-30 02:15:52.40	275.28	38.66	-42.9	-46.8	17.2	6.00e-01	0	60	0	505937920	57	5606
2026-01-30 02:15:53.41	274.78	38.55	-43.0	-47.0	17.2	6.02e-01	0	60	0	508035072	57	5746
2026-01-30 02:15:54.42	274.28	38.43	-42.7	-46.2	17.8	6.02e-01	0	60	0	510132224	57	5236
2026-01-30 02:15:55.43	273.79	38.32	-43.7	-48.5	15.6	6.00e-01	0	60	0	511705088	57	6815
2026-01-30 02:15:56.44	273.30	38.20	-42.4	-45.7	18.3	6.00e-01	0	60	0	513802240	56	5272
2026-01-30 02:15:57.45	272.81	38.08	-43.3	-47.5	16.4	6.02e-01	0	60	0	515899392	57	6108
2026-01-30 02:15:58.46	272.33	37.96	-42.9	-46.7	17.3	6.01e-01	0	60	0	517472256	57	5575
2026-01-30 02:15:59.47	271.85	37.84	-43.1	-47.0	16.8	6.04e-01	0	60	0	519569408	58	5428
2026-01-30 02:16:00.48	271.37	37.71	-43.6	-48.1	16.0	6.02e-01	0	60	0	521142272	57	6555
2026-01-30 02:16:01.49	270.90	37.58	-42.9	-46.7	17.3	6.02e-01	0	60	0	523239424	57	5538
2026-01-30 02:16:02.50	270.43	37.46	-43.9	-48.9	15.3	6.01e-01	0	60	0	525336576	58	6784
2026-01-30 02:16:03.51	269.96	37.33	-42.6	-46.2	17.8	6.01e-01	0	60	0	526909440	57	5223
2026-01-30 02:16:04.52	269.50	37.19	-43.6	-48.2	16.0	6.07e-01	0	60	0	529006592	57	6616
2026-01-30 02:16:05.53	269.05	37.06	-42.7	-46.4	17.6	6.00e-01	0	60	0	530579456	57	5349
2026-01-30 02:16:06.54	268.59	36.93	-43.7	-48.6	15.5	6.01e-01	0	60	0	532676608	57	6927
2026-01-30 02:16:07.55	268.14	36.79	-42.6	-46.1	17.8	6.03e-01	0	60	0	534773760	57	5163
2026-01-30 02:16:08.57	267.69	36.65	-43.0	-46.9	17.2	6.03e-01	0	60	0	536346624	56	6034
2026-01-30 02:16:09.58	267.25	36.51	-42.8	-46.5	17.4	6.02e-01	0	60	0	538443776	57	5405
2026-01-30 02:16:10.59	266.81	36.37	-43.0	-47.0	17.1	6.02e-01	0	60	0	540016640	57	5743
2026-01-30 02:16:11.60	266.38	36.23	-43.6	-48.3	15.5	6.02e-01	0	60	0	542113792	58	6301
2026-01-30 02:16:12.61	265.95	36.09	-43.0	-46.9	17.2	6.02e-01	0	60	0	544210944	58	5372
2026-01-30 02:16:13.62	265.52	35.95	-43.7	-48.6	15.5	6.02e-01	0	60	0	545783808	58	6528
2026-01-30 02:16:14.63	265.10	35.80	-43.2	-47.4	16.6	5.99e-01	0	60	0	547880960	58	5660
2026-01-30 02:16:15.64	264.68	35.66	-43.4	-47.8	16.3	6.00e-01	0	61	0	549453824	58	5945
2026-01-30 02:16:16.65	264.26	35.51	-43.6	-48.1	15.9	6.04e-01	0	61	0	551550976	58	6199
2026-01-30 02:16:17.66	263.85	35.36	-43.0	-46.9	17.2	6.01e-01	0	60	0	553648128	58	5385
2026-01-30 02:16:18.67	263.44	35.21	-43.5	-48.1	16.1	6.02e-01	0	61	0	555220992	58	6158
2026-01-30 02:16:19.68	263.04	35.06	-43.1	-47.1	16.8	6.04e-01	0	60	0	557318144	58	5494
2026-01-30 02:16:20.69	262.64	34.91	-42.5	-46.0	18.0	6.01e-01	0	60	0	558891008	57	5131
2026-01-30 02:16:21.70	262.24	34.76	-43.2	-47.3	16.7	6.03e-01	0	60	0	560988160	57	5984
2026-01-30 02:16:22.71	261.85	34.61	-42.7	-46.4	17.6	6.02e-01	0	60	0	563085312	57	5349
2026-01-30 02:16:23.72	261.46	34.46	-42.3	-45.6	18.4	6.02e-01	0	60	0	564658176	56	5204
2026-01-30 02:16:24.72	261.08	34.31	-42.6	-46.2	17.8	6.03e-01	0	60	0	566755328	56	5592
2026-01-30 02:16:25.73	260.70	34.15	-42.6	-46.3	17.7	5.98e-01	0	61	0	568852480	56	5616
2026-01-30 02:16:26.74	260.32	34.00	-42.3	-45.7	18.3	6.01e-01	0	60	0	570425344	56	5258
2026-01-30 02:16:27.75	259.95	33.85	-42.3	-45.7	18.4	6.02e-01	0	60	0	572522496	56	5249
2026-01-30 02:16:28.76	259.58	33.69	-42.6	-46.2	17.8	6.03e-01	0	60	0	574095360	56	5572
2026-01-30 02:16:29.77	259.21	33.53	-42.4	-45.9	18.2	6.00e-01	0	60	0	576192512	56	5349
2026-01-30 02:16:30.78	258.85	33.38	-42.1	-45.3	18.8	6.00e-01	0	61	0	578289664	56	5000
2026-01-30 02:16:31.79	258.49	33.22	-42.4	-45.8	18.2	6.02e-01	0	60	0	579862528	56	5317
2026-01-30 02:16:32.80	258.13	33.07	-42.6	-46.2	17.9	6.02e-01	0	60	0	581959680	56	5540
2026-01-30 02:16:33.81	257.78	32.91	-42.5	-45.9	18.1	6.01e-01	0	60	0	584056832	56	5392
2026-01-30 02:16:34.82	257.43	32.75	-42.2	-45.4	18.6	6.02e-01	0	60	0	585629696	56	5077
2026-01-30 02:16:35.83	257.09	32.59	-42.2	-45.5	18.5	6.03e-01	0	60	0	587726848	56	5110
2026-01-30 02:16:36.84	256.75	32.43	-42.6	-46.2	17.9	6.02e-01	0	60	0	589299712	56	5546
2026-01-30 02:16:37.85	256.41	32.28	-42.6	-46.2	17.8	6.04e-01	0	60	0	591396864	56	5583
2026-01-30 02:16:38.86	256.07	32.12	-42.2	-45.5	18.5	6.02e-01	0	61	0	593494016	56	5110
2026-01-30 02:16:39.87	255.74	31.96	-42.2	-45.5	18.5	6.02e-01	0	61	0	595066880	56	5127
2026-01-30 02:16:40.88	255.41	31.80	-42.4	-45.9	18.2	6.00e-01	0	60	0	597164032	56	5349
2026-01-30 02:16:41.89	255.09	31.64	-42.4	-45.9	18.1	6.03e-01	0	60	0	598736896	56	5373
2026-01-30 02:16:42.90	254.77	31.48	-42.4	-45.8	18.2	6.00e-01	0	60	0	600834048	56	5322
2026-01-30 02:16:43.91	254.45	31.32	-42.2	-45.6	18.4	6.03e-01	0	60	0	602931200	56	5182
2026-01-30 02:16:44.92	254.13	31.16	-42.0	-45.1	18.8	6.00e-01	0	60	0	604504064	56	4924
2026-01-30 02:16:45.93	253.82	31.00	-42.1	-45.2	18.8	6.01e-01	0	61	0	606601216	56	4983
2026-01-30 02:16:46.94	253.51	30.85	-42.1	-45.4	18.6	6.00e-01	0	60	0	608174080	56	5058
2026-01-30 02:16:47.95	253.20	30.69	-42.4	-45.8	18.2	5.99e-01	0	60	0	610271232	56	5303
2026-01-30 02:16:48.96	252.90	30.53	-42.4	-45.9	18.1	6.00e-01	0	61	0	612368384	56	5341
2026-01-30 02:16:49.97	252.60	30.37	-42.1	-45.4	18.6	6.01e-01	0	60	0	613941248	56	5080
2026-01-30 02:16:50.98	252.31	30.21	-42.0	-45.2	18.8	6.00e-01	0	60	0	616038400	56	4942
2026-01-30 02:16:51.99	252.01	30.05	-42.1	-45.4	18.6	6.01e-01	0	60	0	617611264	56	5071
2026-01-30 02:16:53.00	251.72	29.89	-42.2	-45.6	18.4	6.01e-01	0	61	0	619708416	56	5171
2026-01-30 02:16:54.01	251.43	29.73	-42.2	-45.4	18.6	6.01e-01	0	60	0	621805568	56	5092
2026-01-30 02:16:55.02	251.15	29.57	-42.2	-45.5	18.5	6.01e-01	0	60	0	623378432	56	5104
2026-01-30 02:16:56.03	250.87	29.42	-42.2	-45.5	18.5	6.00e-01	0	60	0	625475584	56	5117
2026-01-30 02:16:57.04	250.59	29.26	-42.1	-45.3	18.7	6.00e-01	0	60	0	627048448	56	5037
2026-01-30 02:16:58.05	250.31	29.10	-41.9	-45.0	18.8	6.03e-01	0	60	0	629145600	55	5156
2026-01-30 02:16:59.06	250.04	28.94	-41.9	-45.1	18.8	6.01e-01	0	60	0	631242752	55	5193
2026-01-30 02:17:00.07	249.77	28.79	-42.1	-45.4	18.5	6.02e-01	0	60	0	632815616	55	5392
2026-01-30 02:17:01.08	249.50	28.63	-42.2	-45.7	18.2	6.03e-01	0	60	0	634912768	55	5543
2026-01-30 02:17:02.09	249.24	28.47	-42.1	-45.4	18.5	6.02e-01	0	60	0	637009920	55	5391
2026-01-30 02:17:03.10	248.97	28.32	-41.9	-45.2	18.7	6.01e-01	0	60	0	638582784	55	5232
2026-01-30 02:17:04.11	248.71	28.16	-42.0	-45.3	18.5	6.01e-01	0	61	0	640679936	55	5333
2026-01-30 02:17:05.12	248.46	28.00	-42.3	-45.8	18.1	6.01e-01	0	60	0	642252800	55	5631
2026-01-30 02:17:06.13	248.20	27.85	-42.3	-45.9	18.0	6.03e-01	0	60	0	644349952	55	5680
2026-01-30 02:17:07.14	247.95	27.69	-42.1	-45.4	18.5	6.04e-01	0	60	0	646447104	55	5351
2026-01-30 02:17:08.15	247.70	27.54	-41.9	-45.1	18.7	6.00e-01	0	60	0	648019968	55	5212
2026-01-30 02:17:09.16	247.45	27.38	-42.1	-45.4	18.5	6.02e-01	0	60	0	650117120	55	5397
2026-01-30 02:17:10.17	247.21	27.23	-42.4	-46.0	17.9	5.99e-01	0	61	0	652214272	55	5724
2026-01-30 02:17:11.18	246.97	27.07	-42.4	-45.9	17.9	6.02e-01	0	60	0	653787136	55	5716
2026-01-30 02:17:12.19	246.73	26.92	-42.2	-45.6	18.2	5.98e-01	0	60	0	655884288	55	5525
2026-01-30 02:17:13.20	246.49	26.77	-42.2	-45.6	18.3	6.03e-01	0	60	0	657457152	55	5511
2026-01-30 02:17:14.21	246.25	26.62	-42.2	-45.6	18.2	6.00e-01	0	60	0	659554304	55	5518
2026-01-30 02:17:15.22	246.02	26.46	-42.2	-45.7	18.1	6.01e-01	0	61	0	661651456	55	5574
2026-01-30 02:17:16.23	245.79	26.31	-42.2	-45.7	18.2	6.02e-01	0	61	0	663224320	55	5542
2026-01-30 02:17:17.24	245.56	26.16	-42.2	-45.6	18.3	6.01e-01	0	60	0	665321472	55	5471
2026-01-30 02:17:18.25	245.34	26.01	-42.2	-45.6	18.3	6.01e-01	0	60	0	666894336	55	5480
2026-01-30 02:17:19.26	245.12	25.86	-42.3	-45.8	18.1	6.01e-01	0	60	0	668991488	55	5601
2026-01-30 02:17:20.27	244.89	25.71	-42.3	-45.9	18.0	6.00e-01	0	61	0	671088640	55	5667
2026-01-30 02:17:21.28	244.68	25.56	-42.3	-45.7	18.1	6.00e-01	0	61	0	672661504	55	5577
2026-01-30 02:17:22.28	244.46	25.41	-42.2	-45.7	18.1	6.01e-01	0	60	0	674758656	55	5547
2026-01-30 02:17:23.29	244.25	25.26	-42.2	-45.6	18.3	5.99e-01	0	61	0	676855808	55	5477
2026-01-30 02:17:24.30	244.03	25.11	-42.2	-45.6	18.2	5.99e-01	0	61	0	678428672	55	5502
2026-01-30 02:17:25.31	243.82	24.97	-42.3	-45.8	18.0	6.02e-01	0	60	0	680525824	55	5607
2026-01-30 02:17:26.32	243.61	24.82	-42.4	-46.0	17.8	6.00e-01	0	60	0	682098688	55	5752
2026-01-30 02:17:27.33	243.41	24.67	-42.4	-46.0	17.8	6.01e-01	0	60	0	684195840	55	5740
2026-01-30 02:17:28.35	243.20	24.53	-42.4	-46.0	17.9	6.02e-01	0	61	0	686292992	55	5739
2026-01-30 02:17:29.36	243.00	24.38	-42.3	-45.8	18.0	6.01e-01	0	60	0	687865856	55	5641
2026-01-30 02:17:30.36	242.80	24.24	-42.3	-45.8	18.1	6.03e-01	0	61	0	689963008	55	5594
2026-01-30 02:17:31.37	242.60	24.09	-42.4	-46.0	17.9	5.99e-01	0	60	0	691535872	55	5745
2026-01-30 02:17:32.39	242.40	23.95	-42.4	-46.1	17.8	6.03e-01	0	60	0	693633024	55	5797
2026-01-30 02:17:33.40	242.21	23.80	-42.5	-46.2	17.6	6.01e-01	0	61	0	695730176	55	5907
2026-01-30 02:17:34.41	242.02	23.66	-42.5	-46.2	17.6	6.00e-01	0	60	0	697303040	55	5898
2026-01-30 02:17:35.42	241.82	23.52	-42.4	-46.1	17.7	6.04e-01	0	60	0	699400192	55	5797
2026-01-30 02:17:36.43	241.64	23.37	-42.3	-45.9	17.9	6.01e-01	0	60	0	700973056	55	5693
2026-01-30 02:17:37.44	241.45	23.23	-42.4	-45.9	17.9	6.00e-01	0	60	0	703070208	55	5696
2026-01-30 02:17:38.45	241.26	23.09	-42.3	-45.9	17.8	6.01e-01	0	60	0	705167360	55	5700
2026-01-30 02:17:39.46	241.08	22.95	-42.3	-45.9	17.8	6.01e-01	0	60	0	706740224	55	5720
2026-01-30 02:17:40.47	240.90	22.81	-42.4	-46.0	17.8	6.01e-01	0	60	0	708837376	55	5763
2026-01-30 02:17:41.48	240.72	22.67	-42.4	-46.1	17.6	6.01e-01	0	60	0	710410240	55	5846
2026-01-30 02:17:42.49	240.54	22.53	-42.4	-46.1	17.7	6.01e-01	0	60	0	712507392	55	5809
2026-01-30 02:17:43.50	240.36	22.39	-42.4	-46.0	17.8	6.00e-01	0	60	0	714604544	55	5758
2026-01-30 02:17:44.51	240.19	22.26	-42.4	-46.0	17.8	6.00e-01	0	60	0	716177408	55	5758
2026-01-30 02:17:45.52	240.01	22.12	-42.4	-46.0	17.8	6.02e-01	0	60	0	718274560	55	5731
2026-01-30 02:17:46.53	239.84	21.98	-42.3	-46.0	17.8	6.01e-01	0	60	0	720371712	55	5730
2026-01-30 02:17:47.53	239.67	21.85	-42.4	-46.0	17.7	5.99e-01	0	61	0	721944576	55	5785
2026-01-30 02:17:48.54	239.50	21.71	-42.4	-46.1	17.7	6.01e-01	0	61	0	724041728	55	5790
2026-01-30 02:17:49.55	239.33	21.58	-42.3	-46.0	17.8	6.01e-01	0	61	0	725614592	55	5741
2026-01-30 02:17:50.56	239.17	21.44	-42.3	-45.9	17.8	6.01e-01	0	61	0	727711744	55	5712
2026-01-30 02:17:51.57	239.00	21.31	-42.2	-45.8	17.9	6.02e-01	0	61	0	729808896	55	5622
2026-01-30 02:17:52.58	238.84	21.17	-42.2	-45.7	18.0	5.97e-01	0	61	0	731381760	55	5576
2026-01-30 02:17:53.59	238.68	21.04	-42.2	-45.8	18.0	6.00e-01	0	60	0	733478912	55	5593
2026-01-30 02:17:54.60	238.52	20.91	-42.2	-45.7	18.1	6.02e-01	0	60	0	735051776	55	5550
2026-01-30 02:17:55.61	238.36	20.78	-42.2	-45.7	18.0	6.01e-01	0	61	0	737148928	55	5565
2026-01-30 02:17:56.62	238.21	20.64	-42.3	-45.8	17.9	6.04e-01	0	60	0	739246080	55	5639
2026-01-30 02:17:57.63	238.05	20.51	-42.3	-45.9	17.8	6.01e-01	0	60	0	740818944	55	5717
2026-01-30 02:17:58.65	237.89	20.38	-42.3	-45.9	17.8	6.01e-01	0	61	0	742916096	55	5689
2026-01-30 02:17:59.66	237.74	20.25	-42.2	-45.8	18.0	6.01e-01	0	60	0	745013248	55	5594
2026-01-30 02:18:00.67	237.59	20.12	-42.2	-45.7	18.0	6.01e-01	0	60	0	746586112	55	5552
2026-01-30 02:18:01.68	237.44	19.99	-42.2	-45.7	18.0	6.01e-01	0	60	0	748683264	55	5567
2026-01-30 02:18:02.69	237.29	19.86	-42.2	-45.8	17.9	6.01e-01	0	61	0	750256128	55	5620
2026-01-30 02:18:03.69	237.15	19.74	-42.3	-45.9	17.8	6.00e-01	0	60	0	752353280	55	5694
2026-01-30 02:18:04.70	237.00	19.61	-42.2	-45.8	17.9	6.03e-01	0	60	0	754450432	55	5613
2026-01-30 02:18:05.71	236.85	19.48	-42.1	-45.6	18.1	6.02e-01	0	61	0	756023296	55	5524
2026-01-30 02:18:06.72	236.71	19.36	-42.0	-45.4	18.3	5.99e-01	0	60	0	758120448	55	5378
2026-01-30 02:18:07.73	236.57	19.23	-42.0	-45.5	18.2	6.01e-01	0	60	0	759693312	55	5404
2026-01-30 02:18:08.74	236.43	19.11	-42.0	-45.5	18.2	6.04e-01	0	61	0	761790464	55	5410
2026-01-30 02:18:09.75	236.29	18.98	-42.1	-45.5	18.2	6.00e-01	0	60	0	763887616	55	5418
2026-01-30 02:18:10.76	236.15	18.86	-42.2	-45.7	18.0	6.03e-01	0	61	0	765460480	55	5566
2026-01-30 02:18:11.77	236.01	18.73	-42.2	-45.8	17.9	6.03e-01	0	60	0	767557632	55	5624
2026-01-30 02:18:12.78	235.88	18.61	-42.2	-45.7	17.9	6.02e-01	0	61	0	769130496	55	5563
2026-01-30 02:18:13.79	235.74	18.49	-42.2	-45.7	17.6	5.99e-01	0	61	0	771227648	55	5565
2026-01-30 02:18:14.80	235.61	18.37	-42.1	-45.7	17.9	6.01e-01	0	61	0	773324800	55	5559
2026-01-30 02:18:15.81	235.48	18.25	-42.2	-45.8	17.9	6.02e-01	0	61	0	774897664	55	5596
2026-01-30 02:18:16.82	235.34	18.12	-42.2	-45.8	17.8	6.00e-01	0	61	0	776994816	55	5629
2026-01-30 02:18:17.84	235.21	18.00	-42.1	-45.7	17.9	5.98e-01	0	61	0	778567680	55	5550
2026-01-30 02:18:18.84	235.08	17.88	-42.2	-45.8	17.8	6.02e-01	0	60	0	780664832	55	5656
2026-01-30 02:18:19.85	234.96	17.76	-42.3	-45.9	17.7	6.01e-01	0	60	0	782761984	55	5707
2026-01-30 02:18:20.87	234.83	17.64	-42.2	-45.8	17.8	6.01e-01	0	61	0	784334848	55	5633
2026-01-30 02:18:21.88	234.70	17.52	-42.1	-45.6	18.0	6.01e-01	0	61	0	786432000	55	5515
2026-01-30 02:18:22.89	234.58	17.41	-42.0	-45.5	18.1	6.02e-01	0	61	0	788004864	55	5437
2026-01-30 02:18:23.90	234.45	17.29	-42.0	-45.5	18.1	5.99e-01	0	60	0	790102016	55	5434
2026-01-30 02:18:24.91	234.33	17.17	-42.1	-45.6	18.1	6.02e-01	0	60	0	792199168	55	5469
2026-01-30 02:18:25.92	234.21	17.06	-42.1	-45.7	18.0	6.02e-01	0	60	0	793772032	55	5529
2026-01-30 02:18:26.93	234.09	16.94	-42.1	-45.7	17.9	6.00e-01	0	61	0	795869184	55	5562
2026-01-30 02:18:27.94	233.97	16.82	-42.2	-45.9	17.7	5.99e-01	0	61	0	797966336	55	5686
2026-01-30 02:18:28.95	233.85	16.71	-42.2	-45.9	17.7	6.01e-01	0	61	0	799539200	55	5673
2026-01-30 02:18:29.96	233.73	16.59	-42.2	-45.8	17.8	6.02e-01	0	60	0	801636352	55	5611
2026-01-30 02:18:30.97	233.61	16.48	-42.2	-45.8	17.8	6.01e-01	0	60	0	803209216	55	5607
2026-01-30 02:18:31.98	233.50	16.37	-42.1	-45.7	17.9	6.00e-01	0	61	0	805306368	55	5555
2026-01-30 02:18:32.99	233.38	16.25	-42.1	-45.6	18.0	6.02e-01	0	61	0	807403520	55	5478
2026-01-30 02:18:34.00	233.27	16.14	-42.1	-45.6	18.0	6.03e-01	0	61	0	808976384	55	5486
2026-01-30 02:18:35.01	233.16	16.03	-42.0	-45.5	18.0	6.00e-01	0	60	0	811073536	55	5438
2026-01-30 02:18:36.02	233.04	15.91	-42.1	-45.6	18.0	6.01e-01	0	61	0	813170688	55	5511
2026-01-30 02:18:37.03	232.93	15.80	-42.1	-45.7	17.8	6.03e-01	0	61	0	814743552	55	5576
2026-01-30 02:18:38.04	232.82	15.69	-42.1	-45.8	17.8	5.99e-01	0	61	0	816840704	55	5614
2026-01-30 02:18:39.05	232.71	15.58	-42.2	-45.8	17.7	6.02e-01	0	61	0	818413568	55	5639
2026-01-30 02:18:40.06	232.60	15.47	-42.2	-45.9	17.6	6.04e-01	0	60	0	820510720	55	5692
2026-01-30 02:18:41.07	232.50	15.36	-42.2	-45.9	17.6	5.97e-01	0	60	0	822607872	55	5715
2026-01-30 02:18:42.08	232.39	15.25	-42.1	-45.7	17.8	6.01e-01	0	60	0	824180736	55	5583
2026-01-30 02:18:43.09	232.28	15.14	-42.1	-45.6	17.9	6.04e-01	0	60	0	826277888	55	5510
2026-01-30 02:18:44.10	232.18	15.04	-42.0	-45.6	18.0	6.01e-01	0	60	0	827850752	55	5466
2026-01-30 02:18:45.11	232.07	14.93	-42.0	-45.5	18.0	6.00e-01	0	61	0	829947904	55	5448
2026-01-30 02:18:46.12	231.97	14.82	-42.0	-45.6	17.9	6.00e-01	0	60	0	832045056	55	5478
2026-01-30 02:18:47.13	231.87	14.71	-42.1	-45.6	17.9	6.05e-01	0	61	0	833617920	55	5523
2026-01-30 02:18:48.14	231.77	14.61	-42.1	-45.7	17.8	6.03e-01	0	60	0	835715072	55	5585
2026-01-30 02:18:49.15	231.66	14.50	-42.2	-45.9	17.6	6.01e-01	0	60	0	837812224	55	5661
2026-01-30 02:18:50.16	231.56	14.39	-42.1	-45.8	17.7	6.01e-01	0	60	0	839385088	55	5605
2026-01-30 02:18:51.17	231.46	14.29	-42.2	-45.9	17.6	6.03e-01	0	60	0	841482240	55	5698
2026-01-30 02:18:52.18	231.37	14.18	-42.2	-45.9	17.6	6.03e-01	0	61	0	843055104	55	5667
2026-01-30 02:18:53.19	231.27	14.08	-42.2	-46.0	17.5	6.01e-01	0	61	0	845152256	55	5731
2026-01-30 02:18:54.20	231.17	13.98	-42.2	-46.0	17.5	6.04e-01	0	61	0	847249408	55	5745
2026-01-30 02:18:55.21	231.07	13.87	-42.2	-45.9	17.5	6.03e-01	0	61	0	848822272	55	5710
2026-01-30 02:18:56.22	230.98	13.77	-42.2	-46.0	17.4	6.02e-01	0	60	0	850919424	55	5782
2026-01-30 02:18:57.23	230.88	13.67	-42.2	-46.0	17.5	6.01e-01	0	60	0	852492288	55	5737
2026-01-30 02:18:58.24	230.79	13.56	-42.2	-46.0	17.4	6.02e-01	0	61	0	854589440	55	5758
2026-01-30 02:18:59.25	230.69	13.46	-42.2	-46.0	17.5	6.01e-01	0	61	0	856686592	55	5738
2026-01-30 02:19:00.26	230.60	13.36	-42.2	-45.9	17.6	6.02e-01	0	60	0	858259456	55	5674
2026-01-30 02:19:01.28	230.51	13.26	-42.2	-45.9	17.5	6.01e-01	0	60	0	860356608	55	5699
2026-01-30 02:19:02.29	230.42	13.16	-42.2	-45.9	17.5	6.00e-01	0	60	0	861929472	55	5706
2026-01-30 02:19:03.30	230.33	13.06	-42.2	-45.9	17.5	6.04e-01	0	61	0	864026624	55	5690
2026-01-30 02:19:04.31	230.24	12.96	-42.1	-45.8	17.6	6.03e-01	0	60	0	866123776	55	5638
2026-01-30 02:19:05.32	230.15	12.86	-42.1	-45.9	17.5	6.01e-01	0	60	0	867696640	55	5669
2026-01-30 02:19:06.33	230.06	12.76	-42.1	-45.9	17.5	6.05e-01	0	60	0	869793792	55	5686
2026-01-30 02:19:07.34	229.97	12.66	-42.2	-46.0	17.4	6.01e-01	0	60	0	871366656	55	5748
2026-01-30 02:19:08.35	229.88	12.56	-42.2	-46.0	17.4	6.00e-01	0	60	0	873463808	55	5778
2026-01-30 02:19:09.36	229.79	12.46	-42.3	-46.2	17.2	6.02e-01	0	60	0	875560960	55	5876
2026-01-30 02:19:10.37	229.71	12.36	-42.3	-46.3	17.1	5.98e-01	0	61	0	877133824	55	5938
2026-01-30 02:19:11.37	229.62	12.27	-42.3	-46.3	17.1	6.02e-01	0	61	0	879230976	55	5937
2026-01-30 02:19:12.39	229.54	12.17	-42.2	-46.1	17.2	6.03e-01	0	60	0	881328128	55	5842
2026-01-30 02:19:13.39	229.45	12.07	-42.2	-46.1	17.2	6.00e-01	0	60	0	882900992	55	5835
2026-01-30 02:19:14.40	229.37	11.98	-42.2	-46.1	17.2	6.03e-01	0	60	0	884998144	55	5838
2026-01-30 02:19:15.41	229.29	11.88	-42.3	-46.2	17.2	6.00e-01	0	60	0	886571008	55	5862
2026-01-30 02:19:16.42	229.20	11.79	-42.3	-46.2	17.1	6.00e-01	0	61	0	888668160	55	5911
2026-01-30 02:19:17.43	229.12	11.69	-42.3	-46.2	17.2	6.00e-01	0	60	0	890765312	55	5868
2026-01-30 02:19:18.44	229.04	11.60	-42.3	-46.2	17.1	6.00e-01	0	61	0	892338176	55	5891
2026-01-30 02:19:19.45	228.96	11.50	-42.2	-46.2	17.1	6.01e-01	0	60	0	894435328	55	5862
2026-01-30 02:19:20.46	228.88	11.41	-42.3	-46.3	17.0	6.04e-01	0	60	0	896008192	55	5933
2026-01-30 02:19:21.47	228.80	11.31	-42.3	-46.4	16.9	6.03e-01	0	61	0	898105344	55	6001
2026-01-30 02:19:22.48	228.72	11.22	-42.4	-46.5	16.8	6.02e-01	0	60	0	900202496	55	6064
2026-01-30 02:19:23.49	228.64	11.13	-42.4	-46.5	16.8	5.99e-01	0	60	0	901775360	55	6106
2026-01-30 02:19:24.50	228.56	11.04	-42.4	-46.6	16.7	6.00e-01	0	60	0	903872512	55	6142
2026-01-30 02:19:25.52	228.48	10.94	-42.4	-46.6	16.7	6.04e-01	0	61	0	905969664	55	6154
2026-01-30 02:19:26.52	228.41	10.85	-42.4	-46.6	16.7	5.97e-01	0	60	0	907542528	55	6133
2026-01-30 02:19:27.53	228.33	10.76	-42.5	-46.7	16.5	6.03e-01	0	60	0	909639680	55	6259
2026-01-30 02:19:28.54	228.26	10.67	-42.5	-46.7	16.6	6.01e-01	0	60	0	911212544	55	6215
2026-01-30 02:19:29.55	228.18	10.58	-42.4	-46.5	16.7	5.99e-01	0	61	0	913309696	55	6113
2026-01-30 02:19:30.56	228.11	10.49	-42.3	-46.4	16.8	6.00e-01	0	60	0	915406848	55	6054
2026-01-30 02:19:31.57	228.03	10.40	-42.4	-46.5	16.8	6.00e-01	0	61	0	916979712	55	6073
2026-01-30 02:19:32.58	227.96	10.31	-42.4	-46.6	16.6	6.01e-01	0	61	0	919076864	55	6140
2026-01-30 02:19:33.59	227.88	10.22	-42.3	-46.4	16.9	6.00e-01	0	60	0	921174016	55	5995
2026-01-30 02:19:34.60	227.81	10.13	-42.3	-46.3	16.9	6.00e-01	0	60	0	922746880	55	5964
2026-01-30 02:19:35.61	227.74	10.04	-42.3	-46.4	16.8	6.03e-01	0	61	0	924844032	55	6043
2026-01-30 02:19:36.62	227.67	9.95	-42.3	-46.4	16.8	5.98e-01	0	60	0	926416896	55	6023
2026-01-30 02:19:37.63	227.60	9.86	-42.2	-46.2	16.9	6.01e-01	0	60	0	928514048	55	5908
2026-01-30 02:19:38.64	227.52	9.77	-42.3	-46.3	16.8	6.00e-01	0	60	0	930611200	55	5975
2026-01-30 02:19:39.65	227.45	9.68	-42.3	-46.4	16.8	6.02e-01	0	60	0	932184064	55	6005
2026-01-30 02:19:40.66	227.38	9.60	-42.3	-46.4	16.7	5.99e-01	0	60	0	934281216	55	6035
2026-01-30 02:19:41.67	227.31	9.51	-42.3	-46.5	16.7	6.01e-01	0	61	0	935854080	55	6089
2026-01-30 02:19:42.68	227.25	9.42	-42.3	-46.5	16.7	6.01e-01	0	61	0	937951232	55	6083
2026-01-30 02:19:43.69	227.18	9.33	-42.4	-46.6	16.6	5.99e-01	0	61	0	940048384	55	6147
2026-01-30 02:19:44.70	227.11	9.25	-42.4	-46.6	16.5	6.02e-01	0	61	0	941621248	55	6167
2026-01-30 02:19:45.71	227.04	9.16	-42.4	-46.6	16.5	5.98e-01	0	61	0	943718400	55	6190
2026-01-30 02:19:46.72	226.97	9.08	-42.4	-46.7	16.4	6.02e-01	0	61	0	945291264	55	6231
2026-01-30 02:19:47.73	226.91	8.99	-42.3	-46.5	16.5	6.00e-01	0	61	0	947388416	55	6118
2026-01-30 02:19:48.74	226.84	8.91	-42.4	-46.7	16.4	6.02e-01	0	60	0	949485568	55	6254
2026-01-30 02:19:49.75	226.78	8.82	-42.5	-46.8	16.3	6.03e-01	0	61	0	951058432	55	6339
2026-01-30 02:19:50.76	226.71	8.74	-42.4	-46.7	16.4	6.00e-01	0	60	0	953155584	55	6252
2026-01-30 02:19:51.77	226.64	8.65	-42.4	-46.8	16.3	6.01e-01	0	61	0	954728448	55	6327
2026-01-30 02:19:52.78	226.58	8.57	-42.4	-46.8	16.3	6.03e-01	0	61	0	956825600	55	6288
2026-01-30 02:19:53.79	226.52	8.48	-42.4	-46.8	16.3	6.02e-01	0	60	0	958922752	55	6276
2026-01-30 02:19:54.80	226.45	8.40	-42.5	-46.9	16.1	6.02e-01	0	61	0	960495616	55	6409
2026-01-30 02:19:55.81	226.39	8.32	-42.4	-46.8	16.2	6.02e-01	0	61	0	962592768	55	6321
2026-01-30 02:19:56.82	226.33	8.23	-42.5	-46.9	16.1	6.04e-01	0	61	0	964165632	55	6420
2026-01-30 02:19:57.83	226.26	8.15	-42.5	-47.0	16.0	6.00e-01	0	61	0	966262784	55	6473
2026-01-30 02:19:58.84	226.20	8.07	-42.5	-47.1	15.9	6.00e-01	0	60	0	968359936	55	6524
2026-01-30 02:19:59.85	226.14	7.99	-45.0	-60.8	4.2	7.44e-01	0	61	104	969932800	60	23751
2026-01-30 02:20:00.86	226.08	7.90	-45.5	-64.2	3.8	7.43e-01	0	61	104	969932800	61	32973
2026-01-30 02:20:01.87	226.02	7.82	-45.7	-64.5	3.8	7.49e-01	0	61	104	969932800	61	34429
2026-01-30 02:20:02.88	225.96	7.74	-45.9	-64.8	3.8	7.46e-01	0	61	104	969932800	62	33354
2026-01-30 02:20:03.89	225.90	7.66	-46.0	-64.9	3.8	7.46e-01	0	61	104	969932800	62	33785
2026-01-30 02:20:04.90	225.84	7.58	-46.0	-64.9	3.8	7.46e-01	0	61	104	969932800	62	33980
2026-01-30 02:20:05.91	225.78	7.50	-46.0	-64.9	3.8	7.46e-01	0	61	104	969932800	62	34081
2026-01-30 02:20:06.92	225.72	7.42	-46.1	-65.0	3.8	7.43e-01	0	61	104	969932800	62	34331
2026-01-30 02:20:07.93	225.66	7.34	-46.1	-65.0	3.8	7.47e-01	0	61	104	969932800	62	34317
2026-01-30 02:20:08.94	225.60	7.26	-46.1	-65.0	3.8	7.46e-01	0	61	104	969932800	62	34237
2026-01-30 02:20:09.95	225.54	7.18	-46.1	-65.0	3.8	7.44e-01	0	61	104	969932800	62	34183
2026-01-30 02:20:10.96	225.48	7.10	-46.1	-65.0	3.8	7.44e-01	0	61	104	969932800	62	34150
2026-01-30 02:20:11.97	225.43	7.02	-46.0	-64.9	3.8	7.46e-01	0	61	104	969932800	62	34005
2026-01-30 02:20:12.98	225.37	6.94	-46.0	-64.9	3.8	7.47e-01	0	61	104	969932800	62	34019
2026-01-30 02:20:13.99	225.31	6.86	-46.0	-64.9	3.8	7.48e-01	0	61	104	969932800	62	34005
2026-01-30 02:20:15.00	225.26	6.79	-46.0	-64.9	3.8	7.46e-01	0	61	104	969932800	62	33832
2026-01-30 02:20:16.01	225.20	6.71	-46.0	-64.9	3.8	7.46e-01	0	61	104	969932800	62	33844
2026-01-30 02:20:17.02	225.15	6.63	-45.9	-64.8	3.8	7.43e-01	0	61	104	969932800	62	33614
2026-01-30 02:20:18.03	225.09	6.55	-45.9	-64.8	3.8	7.44e-01	0	61	104	969932800	62	33627
2026-01-30 02:20:19.04	225.04	6.47	-45.9	-64.8	3.8	7.46e-01	0	61	104	969932800	62	33630
2026-01-30 02:20:20.05	224.98	6.40	-45.9	-64.8	3.8	7.44e-01	0	61	104	969932800	62	33672
2026-01-30 02:20:21.06	224.93	6.32	-45.9	-64.9	3.8	7.45e-01	0	61	104	969932800	62	33710
2026-01-30 02:20:22.07	224.87	6.24	-45.9	-64.9	3.8	7.45e-01	0	61	104	969932800	62	33699
2026-01-30 02:20:23.08	224.82	6.17	-45.9	-64.8	3.8	7.46e-01	0	61	104	969932800	62	33684
2026-01-30 02:20:24.09	224.77	6.09	-45.9	-64.9	3.8	7.47e-01	0	61	104	969932800	62	33719
2026-01-30 02:20:25.10	224.71	6.01	-45.9	-64.8	3.8	7.45e-01	0	61	104	969932800	62	33672
2026-01-30 02:20:26.11	224.66	5.94	-45.9	-64.8	3.8	7.43e-01	0	61	104	969932800	62	33673
2026-01-30 02:20:27.12	224.61	5.86	-45.9	-64.8	3.8	7.43e-01	0	61	104	969932800	62	33630
2026-01-30 02:20:28.13	224.56	5.79	-45.9	-64.8	3.8	7.45e-01	0	61	104	969932800	62	33664
2026-01-30 02:20:29.14	224.50	5.71	-45.9	-64.8	3.8	7.45e-01	0	61	104	969932800	62	33656
2026-01-30 02:20:30.15	224.45	5.64	-45.9	-64.8	3.8	7.46e-01	0	61	104	969932800	62	33638
2026-01-30 02:20:31.16	224.40	5.56	-45.9	-64.8	3.8	7.46e-01	0	61	104	969932800	62	33678
2026-01-30 02:20:32.17	224.35	5.49	-45.9	-64.8	3.8	7.44e-01	0	61	104	969932800	62	33670
2026-01-30 02:20:33.18	224.30	5.41	-45.9	-64.8	3.8	7.47e-01	0	61	104	969932800	62	33599
2026-01-30 02:20:34.20	224.25	5.34	-45.9	-64.8	3.8	7.44e-01	0	61	104	969932800	62	33691
2026-01-30 02:20:35.21	224.20	5.27	-45.9	-64.8	3.8	7.46e-01	0	61	104	969932800	62	33666
2026-01-30 02:20:36.22	224.15	5.19	-45.9	-64.8	3.8	7.43e-01	0	61	104	969932800	62	33588
2026-01-30 02:20:37.23	224.10	5.12	-45.9	-64.8	3.8	7.46e-01	0	61	104	969932800	62	33644
2026-01-30 02:20:38.24	224.05	5.05	-45.9	-64.8	3.8	7.47e-01	0	61	104	969932800	62	33643
2026-01-30 02:20:39.25	224.00	4.97	-45.9	-64.8	3.8	7.44e-01	0	61	104	969932800	62	33532
2026-01-30 02:20:40.26	223.95	4.90	-45.9	-64.8	3.8	7.40e-01	0	61	104	969932800	62	33632
2026-01-30 02:20:41.27	223.91	4.83	-45.9	-64.8	3.8	7.49e-01	0	61	104	969932800	62	33616
2026-01-30 02:20:42.28	223.86	4.75	-45.9	-64.8	3.8	7.49e-01	0	61	104	969932800	62	33572
2026-01-30 02:20:43.29	223.81	4.68	-45.9	-64.8	3.8	7.44e-01	0	61	104	969932800	62	33583
2026-01-30 02:20:44.30	223.76	4.61	-45.9	-64.8	3.8	7.45e-01	0	61	104	969932800	62	33627
2026-01-30 02:20:45.31	223.72	4.54	-45.9	-64.8	3.8	7.43e-01	0	61	104	969932800	62	33559
2026-01-30 02:20:46.32	223.67	4.47	-45.9	-64.8	3.8	7.46e-01	0	61	104	969932800	62	33542
2026-01-30 02:20:47.33	223.62	4.40	-45.9	-64.8	3.8	7.47e-01	0	61	104	969932800	62	33603
