passes_logs/2026/01/30/R2.0S_Moscow/R2.0S_Moscow__20260130_080549_SUOMI_NPP_rec.log

#Pass ID: 20260130_080549_SUOMI NPP
#Satellite: SUOMI NPP
#Configuration: NPP
#almurnet v.1.7.20251203
#Start time: 2026-01-30 08:05:50

#Version: 2.2.20231116
#Station: R2.0S_Moscow
#Location: 37.707566 lon 55.798166 lat
#TLE: 1 37849U 11061A   26029.48304708  .00000140  00000+0  87283-4 0  9999
#TLE: 2 37849  98.7824 331.4079 0002024  38.4342 321.6978 14.19531488738761

#Time	Az	El	Level	Level2	SNR	BER	BlckErr	Temp	State	Recorded	gain1	gain2
2026-01-30 08:05:50.07	104.50	2.03	-39.7	-54.3	3.8	1.49e+00	0	52	0	0	49	21178
2026-01-30 08:05:51.08	104.42	2.08	-38.7	-53.8	3.8	1.49e+00	0	52	104	0	48	21190
2026-01-30 08:05:52.09	104.35	2.14	-38.3	-54.6	3.9	1.49e+00	0	52	104	0	49	21765
2026-01-30 08:05:53.10	104.27	2.19	-38.9	-54.1	3.8	1.49e+00	0	52	104	0	48	21992
2026-01-30 08:05:54.11	104.19	2.24	-38.5	-54.1	3.9	1.49e+00	0	52	104	0	48	21787
2026-01-30 08:05:55.12	104.11	2.30	-39.0	-53.9	3.8	1.49e+00	0	52	104	0	48	21497
2026-01-30 08:05:56.13	104.04	2.35	-37.2	-53.7	3.8	1.49e+00	0	52	104	0	45	24757
2026-01-30 08:05:57.14	103.96	2.41	-39.2	-54.4	3.7	1.49e+00	0	52	104	0	49	21343
2026-01-30 08:05:58.15	103.88	2.46	-39.8	-54.3	3.8	1.49e+00	0	52	104	0	50	19940
2026-01-30 08:05:59.16	103.80	2.52	-39.7	-54.2	3.8	1.49e+00	0	52	104	0	50	19737
2026-01-30 08:06:00.17	103.72	2.57	-38.7	-54.1	3.8	1.49e+00	0	53	104	0	49	20754
2026-01-30 08:06:01.18	103.64	2.63	-39.5	-54.2	3.8	1.49e+00	0	53	104	0	49	20869
2026-01-30 08:06:02.19	103.56	2.68	-38.8	-54.1	3.8	1.49e+00	0	53	104	0	47	23126
2026-01-30 08:06:03.20	103.48	2.74	-39.5	-54.1	3.8	1.49e+00	0	53	104	0	49	20607
2026-01-30 08:06:04.21	103.40	2.79	-39.6	-54.4	3.8	1.49e+00	0	53	104	0	50	20243
2026-01-30 08:06:05.22	103.32	2.85	-36.8	-53.4	3.8	1.49e+00	0	53	104	0	44	25305
2026-01-30 08:06:06.23	103.24	2.90	-39.7	-54.2	3.8	1.49e+00	0	53	104	0	49	20867
2026-01-30 08:06:07.24	103.16	2.96	-36.8	-54.0	3.8	1.49e+00	0	53	104	0	49	20343
2026-01-30 08:06:08.25	103.08	3.01	-39.5	-54.1	3.8	1.49e+00	0	53	104	0	49	20740
2026-01-30 08:06:09.27	103.00	3.07	-39.6	-54.2	3.8	1.49e+00	0	53	104	0	50	19737
2026-01-30 08:06:10.28	102.92	3.13	-39.2	-54.1	3.9	1.49e+00	0	53	104	0	49	20730
2026-01-30 08:06:11.29	102.83	3.18	-37.1	-53.7	3.8	1.49e+00	0	53	104	0	48	20867
2026-01-30 08:06:12.30	102.75	3.24	-39.4	-54.1	3.8	1.49e+00	0	53	104	0	49	20576
2026-01-30 08:06:13.31	102.67	3.29	-39.6	-54.2	3.8	1.49e+00	0	54	104	0	50	19705
2026-01-30 08:06:14.32	102.58	3.35	-39.8	-54.3	3.8	1.49e+00	0	53	104	0	50	20040
2026-01-30 08:06:15.32	102.50	3.40	-39.7	-54.2	3.9	1.49e+00	0	54	104	0	50	19737
2026-01-30 08:06:16.33	102.42	3.46	-39.8	-54.2	3.8	1.49e+00	0	54	104	0	50	19742
2026-01-30 08:06:17.34	102.33	3.51	-39.7	-54.2	3.8	1.49e+00	0	54	104	0	50	19715
2026-01-30 08:06:18.35	102.25	3.57	-39.1	-53.8	3.8	1.49e+00	0	54	104	0	48	21171
2026-01-30 08:06:19.36	102.16	3.63	-38.8	-54.2	3.8	1.49e+00	0	54	104	0	50	19663
2026-01-30 08:06:20.37	102.08	3.68	-38.6	-53.8	3.8	1.49e+00	0	54	104	0	47	22432
2026-01-30 08:06:21.39	101.99	3.74	-39.7	-53.8	3.9	1.49e+00	0	54	104	0	48	21255
2026-01-30 08:06:22.40	101.91	3.79	-38.6	-54.1	3.9	1.49e+00	0	54	104	0	48	21997
2026-01-30 08:06:23.41	101.82	3.85	-39.5	-54.4	3.8	1.49e+00	0	54	104	0	49	21340
2026-01-30 08:06:24.42	101.73	3.91	-39.4	-54.2	3.8	1.49e+00	0	54	104	0	49	20866
2026-01-30 08:06:25.43	101.65	3.96	-38.2	-54.1	3.7	1.49e+00	0	54	104	0	47	23148
2026-01-30 08:06:26.44	101.56	4.02	-39.0	-54.1	3.8	1.49e+00	0	54	104	0	49	20708
2026-01-30 08:06:27.45	101.47	4.08	-39.7	-54.2	3.8	1.49e+00	0	54	104	0	50	19719
2026-01-30 08:06:28.45	101.38	4.13	-39.2	-54.1	3.9	1.49e+00	0	54	104	0	48	21951
2026-01-30 08:06:29.46	101.30	4.19	-38.4	-53.9	3.8	1.49e+00	0	55	104	0	48	21445
2026-01-30 08:06:30.47	101.21	4.25	-38.5	-54.3	3.8	1.49e+00	0	55	104	0	48	22462
2026-01-30 08:06:31.48	101.12	4.30	-38.4	-53.9	3.8	1.49e+00	0	55	104	0	48	21408
2026-01-30 08:06:32.49	101.03	4.36	-38.2	-53.9	3.8	1.49e+00	0	55	104	0	47	22597
2026-01-30 08:06:33.50	100.94	4.42	-37.6	-53.9	3.8	1.49e+00	0	55	104	0	47	22543
2026-01-30 08:06:34.52	100.85	4.47	-38.3	-54.1	3.8	1.49e+00	0	55	104	0	48	21979
2026-01-30 08:06:35.53	100.76	4.53	-39.4	-54.0	3.8	1.49e+00	0	55	104	0	47	22938
2026-01-30 08:06:36.54	100.67	4.59	-38.6	-53.8	3.9	1.49e+00	0	55	104	0	47	22416
2026-01-30 08:06:37.55	100.58	4.64	-37.7	-53.8	3.9	1.49e+00	0	55	104	0	46	23591
2026-01-30 08:06:38.56	100.48	4.70	-38.0	-54.1	3.8	1.49e+00	0	55	104	0	49	20679
2026-01-30 08:06:39.57	100.39	4.76	-39.4	-54.2	3.8	1.49e+00	0	55	104	0	49	20795
2026-01-30 08:06:40.58	100.30	4.81	-37.1	-53.8	3.9	1.49e+00	0	55	104	0	46	23728
2026-01-30 08:06:41.59	100.21	4.87	-39.6	-54.0	3.9	1.49e+00	0	55	104	0	48	21715
2026-01-30 08:06:42.60	100.11	4.93	-39.4	-54.1	3.8	1.49e+00	0	55	104	0	49	20678
2026-01-30 08:06:43.61	100.02	4.99	-39.4	-54.1	3.8	1.49e+00	0	56	104	0	49	20726
2026-01-30 08:06:44.62	99.93	5.04	-38.9	-54.1	3.8	1.49e+00	0	55	104	0	49	20593
2026-01-30 08:06:45.63	99.83	5.10	-39.2	-54.1	3.8	1.49e+00	0	56	104	0	49	20661
2026-01-30 08:06:46.64	99.74	5.16	-39.4	-54.1	3.8	1.49e+00	0	56	104	0	49	20687
2026-01-30 08:06:47.65	99.64	5.22	-39.7	-54.1	3.8	1.49e+00	0	55	104	0	49	20740
2026-01-30 08:06:48.66	99.55	5.27	-39.6	-54.1	3.8	1.49e+00	0	56	104	0	49	20740
2026-01-30 08:06:49.67	99.45	5.33	-39.0	-54.1	3.8	1.49e+00	0	56	104	0	49	20629
2026-01-30 08:06:50.68	99.36	5.39	-39.6	-54.1	3.8	1.49e+00	0	56	104	0	49	20612
2026-01-30 08:06:51.69	99.26	5.45	-39.5	-54.1	3.7	1.49e+00	0	56	104	0	49	20688
2026-01-30 08:06:52.71	99.16	5.50	-38.1	-53.9	3.8	1.49e+00	0	56	104	0	47	22574
2026-01-30 08:06:53.72	99.06	5.56	-39.5	-54.1	3.7	1.49e+00	0	56	104	0	49	20706
2026-01-30 08:06:54.73	98.97	5.62	-39.4	-54.1	3.8	1.49e+00	0	56	104	0	49	20764
2026-01-30 08:06:55.74	98.87	5.68	-38.4	-53.9	3.8	1.49e+00	0	56	104	0	48	21494
2026-01-30 08:06:56.75	98.77	5.74	-39.4	-54.2	3.7	1.49e+00	0	56	104	0	49	20825
2026-01-30 08:06:57.76	98.67	5.79	-39.4	-54.1	3.8	1.49e+00	0	56	104	0	49	20702
2026-01-30 08:06:58.77	98.57	5.85	-38.7	-54.0	3.8	1.49e+00	0	56	104	0	48	21743
2026-01-30 08:06:59.78	98.47	5.91	-38.7	-54.1	3.7	1.49e+00	0	56	104	0	48	21860
2026-01-30 08:07:00.79	98.37	5.97	-38.8	-54.3	3.9	1.49e+00	0	56	104	0	49	21246
2026-01-30 08:07:01.80	98.27	6.03	-38.3	-54.2	3.8	1.49e+00	0	56	104	0	49	20825
2026-01-30 08:07:02.81	98.17	6.09	-39.5	-54.2	3.8	1.49e+00	0	56	104	0	49	20782
2026-01-30 08:07:03.82	98.07	6.14	-39.6	-54.2	3.8	1.49e+00	0	56	104	0	50	19715
2026-01-30 08:07:04.84	97.97	6.20	-39.7	-54.2	3.8	1.49e+00	0	56	104	0	49	20958
2026-01-30 08:07:05.84	97.87	6.26	-39.5	-54.1	3.8	1.49e+00	0	56	104	0	49	20757
2026-01-30 08:07:06.86	97.76	6.32	-39.6	-54.2	3.9	1.49e+00	0	57	104	0	50	19683
2026-01-30 08:07:07.87	97.66	6.38	-39.6	-54.1	3.8	1.49e+00	0	57	104	0	49	20711
2026-01-30 08:07:08.88	97.56	6.44	-39.6	-54.1	3.9	1.49e+00	0	57	104	0	49	20699
2026-01-30 08:07:09.89	97.45	6.49	-39.5	-54.1	3.9	1.49e+00	0	56	104	0	49	20685
2026-01-30 08:07:10.90	97.35	6.55	-37.5	-54.1	3.8	1.49e+00	0	56	104	0	47	23100
2026-01-30 08:07:11.91	97.24	6.61	-39.2	-54.1	3.8	1.49e+00	0	57	104	0	49	20634
2026-01-30 08:07:12.92	97.14	6.67	-36.8	-53.4	3.8	1.49e+00	0	56	104	0	44	25279
2026-01-30 08:07:13.93	97.03	6.73	-39.6	-54.1	3.8	1.49e+00	0	57	104	0	49	20741
2026-01-30 08:07:14.94	96.93	6.79	-39.4	-54.1	3.8	1.49e+00	0	57	104	0	49	20771
2026-01-30 08:07:15.95	96.82	6.85	-39.2	-54.1	3.7	1.49e+00	0	57	104	0	49	20704
2026-01-30 08:07:16.96	96.71	6.91	-38.2	-53.7	3.8	1.49e+00	0	57	104	0	47	22204
2026-01-30 08:07:17.97	96.61	6.96	-39.1	-53.9	3.8	1.49e+00	0	57	104	0	49	20257
2026-01-30 08:07:18.98	96.50	7.02	-39.3	-54.1	3.8	1.49e+00	0	57	104	0	49	20680
2026-01-30 08:07:19.99	96.39	7.08	-39.1	-54.1	3.8	1.49e+00	0	57	104	0	49	20606
2026-01-30 08:07:21.00	96.28	7.14	-39.5	-54.2	3.8	1.49e+00	0	57	104	0	49	20803
2026-01-30 08:07:22.01	96.17	7.20	-39.2	-54.2	3.8	1.49e+00	0	57	104	0	50	19747
2026-01-30 08:07:23.02	96.06	7.26	-37.7	-53.6	3.8	1.49e+00	0	57	104	0	46	23111
2026-01-30 08:07:24.03	95.95	7.32	-38.8	-54.2	3.9	1.49e+00	0	57	104	0	49	20825
2026-01-30 08:07:25.04	95.84	7.38	-39.0	-54.1	3.8	1.49e+00	0	57	104	0	49	20553
2026-01-30 08:07:26.05	95.73	7.44	-37.4	-53.5	3.8	1.49e+00	0	57	104	0	46	22935
2026-01-30 08:07:27.07	95.62	7.50	-39.5	-54.1	3.8	1.49e+00	0	57	104	0	49	20600
2026-01-30 08:07:28.08	95.51	7.56	-39.4	-53.7	3.8	1.49e+00	0	57	104	0	48	21000
2026-01-30 08:07:29.09	95.39	7.62	-38.6	-54.2	3.7	1.49e+00	0	57	104	0	48	22008
2026-01-30 08:07:30.10	95.28	7.68	-39.4	-54.1	3.8	1.49e+00	0	57	104	0	49	20648
2026-01-30 08:07:31.11	95.17	7.73	-39.6	-54.1	3.9	1.49e+00	0	57	104	0	49	20688
2026-01-30 08:07:32.12	95.05	7.79	-38.4	-54.1	3.8	1.49e+00	0	58	104	0	49	20680
2026-01-30 08:07:33.13	94.94	7.85	-40.1	-54.5	3.8	1.49e+00	0	57	104	0	49	21625
2026-01-30 08:07:34.14	94.82	7.91	-39.7	-54.2	3.8	1.49e+00	0	57	104	0	50	19630
2026-01-30 08:07:35.15	94.71	7.97	-37.7	-53.7	3.8	1.49e+00	0	57	104	0	46	23466
2026-01-30 08:07:36.16	94.59	8.03	-39.4	-54.1	3.8	1.49e+00	0	58	104	0	49	20711
2026-01-30 08:07:37.17	94.48	8.09	-40.2	-54.7	3.8	1.49e+00	0	58	104	0	51	19615
2026-01-30 08:07:38.18	94.36	8.15	-40.0	-54.4	3.8	1.49e+00	0	57	104	0	50	20127
2026-01-30 08:07:39.19	94.24	8.21	-39.8	-54.2	3.8	1.49e+00	0	57	104	0	50	19807
2026-01-30 08:07:40.20	94.13	8.27	-39.8	-54.3	3.8	1.49e+00	0	58	104	0	50	20032
2026-01-30 08:07:41.21	94.01	8.33	-36.2	-53.2	3.8	1.49e+00	0	58	104	0	44	24906
2026-01-30 08:07:42.22	93.89	8.39	-38.8	-53.9	3.8	1.49e+00	0	58	104	0	48	21313
2026-01-30 08:07:43.23	93.77	8.45	-39.1	-54.1	3.8	1.49e+00	0	57	104	0	48	21858
2026-01-30 08:07:44.24	93.65	8.51	-39.6	-54.2	3.8	1.49e+00	0	58	104	0	49	20837
2026-01-30 08:07:45.25	93.53	8.57	-39.5	-54.2	3.8	1.49e+00	0	58	104	0	49	20847
2026-01-30 08:07:46.26	93.41	8.63	-39.4	-54.3	3.8	1.49e+00	0	58	104	0	50	20024
2026-01-30 08:07:47.27	93.29	8.69	-39.6	-54.7	3.7	1.49e+00	0	58	104	0	50	20845
2026-01-30 08:07:48.28	93.17	8.75	-40.1	-54.6	3.8	1.49e+00	0	58	104	0	51	19551
2026-01-30 08:07:49.29	93.05	8.81	-40.0	-54.4	3.8	1.49e+00	0	58	104	0	51	19075
2026-01-30 08:07:50.30	92.92	8.87	-40.1	-54.5	3.8	1.49e+00	0	58	104	0	51	19189
2026-01-30 08:07:51.31	92.80	8.93	-39.6	-54.3	3.8	1.49e+00	0	58	104	0	50	19903
2026-01-30 08:07:52.32	92.68	8.99	-40.3	-54.6	3.8	1.49e+00	0	58	104	0	51	19542
2026-01-30 08:07:53.33	92.55	9.05	-39.9	-54.4	3.8	1.49e+00	0	58	104	0	51	18992
2026-01-30 08:07:54.34	92.43	9.11	-40.1	-54.5	3.8	1.49e+00	0	58	104	0	51	19185
2026-01-30 08:07:55.35	92.30	9.17	-40.0	-54.5	3.8	1.49e+00	0	58	104	0	50	20368
2026-01-30 08:07:56.36	92.18	9.23	-40.3	-54.7	3.8	1.49e+00	0	58	104	0	51	19740
2026-01-30 08:07:57.37	92.05	9.29	-39.9	-54.4	3.8	1.49e+00	0	58	104	0	51	19007
2026-01-30 08:07:58.38	91.92	9.35	-40.1	-54.5	3.8	1.49e+00	0	58	104	0	51	19283
2026-01-30 08:07:59.39	91.80	9.41	-39.8	-54.5	3.8	1.49e+00	0	58	104	0	50	20371
2026-01-30 08:08:00.40	91.67	9.47	-40.2	-54.7	3.8	1.49e+00	0	58	104	0	51	19715
2026-01-30 08:08:01.41	91.54	9.53	-39.9	-54.4	3.9	1.49e+00	0	58	104	0	50	20162
2026-01-30 08:08:02.42	91.41	9.59	-40.0	-54.4	3.8	1.49e+00	0	58	104	0	50	20158
2026-01-30 08:08:03.43	91.28	9.65	-40.0	-54.3	3.8	1.49e+00	0	58	104	0	50	19989
2026-01-30 08:08:04.44	91.15	9.71	-40.0	-54.2	3.8	1.49e+00	0	58	104	0	50	19668
2026-01-30 08:08:05.45	91.02	9.77	-40.1	-54.0	3.8	1.49e+00	0	58	104	0	50	19215
2026-01-30 08:08:06.46	90.89	9.83	-40.3	-53.9	3.8	1.49e+00	0	58	104	0	51	18003
2026-01-30 08:08:07.47	90.76	9.89	-40.7	-53.9	3.8	1.49e+00	0	58	104	0	52	16980
2026-01-30 08:08:08.48	90.63	9.95	-40.4	-53.7	3.8	1.49e+00	0	58	104	0	52	16638
2026-01-30 08:08:09.49	90.49	10.01	-40.5	-53.4	3.8	1.49e+00	0	58	104	0	51	17042
2026-01-30 08:08:10.50	90.36	10.07	-40.6	-53.9	3.8	1.49e+00	0	58	104	0	52	16940
2026-01-30 08:08:11.51	90.23	10.13	-40.5	-54.5	3.8	1.49e+00	0	58	104	0	52	18237
2026-01-30 08:08:12.52	90.09	10.19	-40.8	-54.2	3.8	1.49e+00	0	58	104	0	52	17627
2026-01-30 08:08:13.53	89.96	10.25	-40.8	-55.0	3.8	1.49e+00	0	58	104	0	52	19379
2026-01-30 08:08:14.54	89.82	10.31	-40.8	-55.1	3.8	1.49e+00	0	59	104	0	52	19592
2026-01-30 08:08:15.55	89.69	10.37	-40.7	-55.2	3.8	1.49e+00	0	58	104	0	52	19667
2026-01-30 08:08:16.56	89.55	10.43	-40.7	-55.2	3.8	1.49e+00	0	58	104	0	52	19623
2026-01-30 08:08:17.57	89.41	10.49	-40.7	-55.2	3.8	1.49e+00	0	59	104	0	52	19768
2026-01-30 08:08:18.58	89.27	10.55	-40.8	-55.2	3.8	1.49e+00	0	58	104	0	52	19639
2026-01-30 08:08:19.59	89.14	10.61	-40.6	-55.1	3.8	1.49e+00	0	59	104	0	52	19512
2026-01-30 08:08:20.60	89.00	10.67	-40.6	-55.1	3.8	1.49e+00	0	58	104	0	52	19599
2026-01-30 08:08:21.61	88.86	10.73	-40.8	-55.2	3.8	1.49e+00	0	59	104	0	52	19829
2026-01-30 08:08:22.62	88.72	10.79	-40.7	-55.2	3.8	1.49e+00	0	59	104	0	52	19663
2026-01-30 08:08:23.63	88.58	10.85	-40.6	-55.1	3.8	1.49e+00	0	59	104	0	52	19463
2026-01-30 08:08:24.64	88.43	10.91	-40.7	-55.1	3.8	1.49e+00	0	59	104	0	52	19551
2026-01-30 08:08:25.65	88.29	10.97	-40.6	-55.2	3.8	1.49e+00	0	59	104	0	52	19626
2026-01-30 08:08:26.66	88.15	11.03	-40.3	-55.1	3.8	1.49e+00	0	59	104	0	52	19559
2026-01-30 08:08:27.67	88.01	11.09	-40.5	-55.1	3.8	1.49e+00	0	59	104	0	51	20688
2026-01-30 08:08:28.67	87.86	11.15	-40.7	-55.1	3.8	1.49e+00	0	59	104	0	51	20741
2026-01-30 08:08:29.68	87.72	11.21	-40.6	-55.1	3.8	1.49e+00	0	59	104	0	52	19451
2026-01-30 08:08:30.70	87.57	11.27	-40.7	-55.1	3.8	1.49e+00	0	58	104	0	52	19578
2026-01-30 08:08:31.71	87.43	11.33	-40.5	-55.0	3.8	1.49e+00	0	59	104	0	51	20520
2026-01-30 08:08:32.72	87.28	11.39	-40.6	-55.1	3.8	1.49e+00	0	59	104	0	51	20630
2026-01-30 08:08:33.73	87.14	11.45	-40.6	-55.1	3.8	1.49e+00	0	59	104	0	51	20588
2026-01-30 08:08:34.74	86.99	11.50	-40.5	-55.1	3.8	1.49e+00	0	59	104	0	51	20728
2026-01-30 08:08:35.75	86.84	11.56	-40.4	-54.9	3.8	1.49e+00	0	59	104	0	51	20256
2026-01-30 08:08:36.76	86.69	11.62	-40.5	-55.0	3.8	1.49e+00	0	59	104	0	51	20456
2026-01-30 08:08:37.77	86.54	11.68	-40.6	-55.1	3.8	1.49e+00	0	59	104	0	51	20666
2026-01-30 08:08:38.78	86.39	11.74	-40.3	-55.0	3.8	1.49e+00	0	59	104	0	51	20385
2026-01-30 08:08:39.79	86.24	11.80	-40.0	-54.7	3.8	1.49e+00	0	59	104	0	51	19735
2026-01-30 08:08:40.80	86.09	11.86	-40.4	-55.0	3.8	1.49e+00	0	59	104	0	51	20329
2026-01-30 08:08:41.81	85.94	11.92	-40.5	-54.9	3.8	1.49e+00	0	59	104	0	51	20296
2026-01-30 08:08:42.82	85.79	11.98	-40.1	-54.8	3.8	1.49e+00	0	59	104	0	51	19866
2026-01-30 08:08:43.83	85.64	12.04	-40.0	-54.7	3.8	1.49e+00	0	59	104	0	51	19665
2026-01-30 08:08:44.83	85.48	12.10	-40.4	-54.9	3.8	1.49e+00	0	59	104	0	51	20152
2026-01-30 08:08:45.84	85.33	12.16	-40.2	-54.7	3.8	1.49e+00	0	59	104	0	51	19628
2026-01-30 08:08:46.85	85.18	12.22	-40.2	-54.6	3.8	1.49e+00	0	59	104	0	51	19614
2026-01-30 08:08:47.86	85.02	12.27	-40.3	-54.8	3.8	1.49e+00	0	59	104	0	51	19861
2026-01-30 08:08:48.87	84.87	12.33	-40.2	-54.7	3.8	1.49e+00	0	59	104	0	51	19631
2026-01-30 08:08:49.88	84.71	12.39	-40.3	-54.7	3.8	1.49e+00	0	59	104	0	51	19710
2026-01-30 08:08:50.89	84.55	12.45	-40.4	-54.9	3.8	1.49e+00	0	59	104	0	51	20208
2026-01-30 08:08:51.90	84.39	12.51	-40.3	-54.7	3.8	1.49e+00	0	59	104	0	51	19757
2026-01-30 08:08:52.91	84.24	12.57	-40.2	-54.7	3.8	1.49e+00	0	59	104	0	51	19698
2026-01-30 08:08:53.92	84.08	12.63	-40.3	-54.8	3.8	1.49e+00	0	59	104	0	51	19968
2026-01-30 08:08:54.93	83.92	12.68	-40.3	-54.7	3.8	1.49e+00	0	59	104	0	51	19822
2026-01-30 08:08:55.94	83.76	12.74	-40.4	-54.9	3.8	1.49e+00	0	59	104	0	51	20137
2026-01-30 08:08:56.95	83.60	12.80	-40.2	-54.7	3.8	1.49e+00	0	59	104	0	51	19720
2026-01-30 08:08:57.96	83.43	12.86	-40.5	-54.9	3.8	1.49e+00	0	59	104	0	51	20266
2026-01-30 08:08:58.97	83.27	12.92	-40.3	-54.7	3.8	1.49e+00	0	59	104	0	51	19761
2026-01-30 08:08:59.98	83.11	12.98	-40.5	-54.9	3.8	1.49e+00	0	59	104	0	51	20174
2026-01-30 08:09:00.99	82.95	13.03	-40.1	-54.7	3.8	1.49e+00	0	60	104	0	51	19735
2026-01-30 08:09:02.00	82.78	13.09	-40.6	-54.9	3.8	1.49e+00	0	59	104	0	51	20229
2026-01-30 08:09:03.01	82.62	13.15	-40.4	-54.8	3.8	1.49e+00	0	60	104	0	51	20044
2026-01-30 08:09:04.02	82.45	13.21	-40.5	-54.9	3.8	1.49e+00	0	59	104	0	51	20215
2026-01-30 08:09:05.03	82.28	13.26	-40.4	-54.8	3.8	1.49e+00	0	59	104	0	51	20000
2026-01-30 08:09:06.04	82.12	13.32	-40.8	-54.9	3.8	1.49e+00	0	59	104	0	52	19098
2026-01-30 08:09:07.05	81.95	13.38	-40.3	-54.8	3.8	1.49e+00	0	60	104	0	52	18736
2026-01-30 08:09:08.06	81.78	13.44	-40.5	-54.9	3.8	1.49e+00	0	59	104	0	52	19091
2026-01-30 08:09:09.07	81.61	13.49	-40.5	-54.9	3.8	1.49e+00	0	59	104	0	51	20204
2026-01-30 08:09:10.08	81.44	13.55	-41.1	-55.2	3.8	1.49e+00	0	59	104	0	52	19616
2026-01-30 08:09:11.09	81.27	13.61	-40.3	-54.8	3.8	1.49e+00	0	60	104	0	52	18741
2026-01-30 08:09:12.10	81.10	13.66	-40.8	-54.8	3.8	1.49e+00	0	59	104	0	52	18848
2026-01-30 08:09:13.11	80.93	13.72	-40.5	-54.8	3.8	1.49e+00	0	59	104	0	52	18752
2026-01-30 08:09:14.12	80.76	13.78	-41.2	-55.1	3.8	1.49e+00	0	60	104	0	52	19603
2026-01-30 08:09:15.13	80.59	13.83	-40.5	-54.8	3.8	1.49e+00	0	60	104	0	52	18775
2026-01-30 08:09:16.14	80.41	13.89	-40.9	-52.9	3.9	1.49e+00	0	60	104	0	52	15178
2026-01-30 08:09:17.15	80.24	13.94	-40.5	-54.0	3.8	1.49e+00	0	60	104	0	52	17227
2026-01-30 08:09:18.15	80.07	14.00	-40.9	-53.6	3.8	1.49e+00	0	60	104	0	52	16486
2026-01-30 08:09:19.16	79.89	14.06	-40.8	-51.8	4.2	1.42e+00	0	60	0	0	52	13265
2026-01-30 08:09:20.18	79.71	14.11	-40.8	-51.9	4.2	1.35e+00	0	60	0	0	52	13470
2026-01-30 08:09:21.19	79.54	14.17	-40.8	-51.5	4.3	1.40e+00	0	60	0	0	52	12914
2026-01-30 08:09:22.19	79.36	14.22	-40.7	-50.5	4.7	9.03e-01	0	60	0	2097152	52	11449
2026-01-30 08:09:23.20	79.18	14.28	-40.7	-49.8	5.1	7.56e-01	0	60	0	4194304	52	10584
2026-01-30 08:09:24.21	79.00	14.33	-40.6	-49.4	5.4	5.90e-01	0	60	0	5242880	52	10114
2026-01-30 08:09:25.22	78.83	14.39	-40.7	-49.7	5.2	6.46e-01	0	60	0	7340032	52	10499
2026-01-30 08:09:26.24	78.64	14.44	-40.7	-50.1	4.9	7.05e-01	0	60	0	9437184	52	11011
2026-01-30 08:09:27.25	78.46	14.50	-40.7	-47.8	7.0	2.36e-01	0	60	0	11534336	52	8456
2026-01-30 08:09:28.25	78.28	14.55	-40.4	-50.0	4.8	9.39e-01	0	60	0	13631488	52	10899
2026-01-30 08:09:29.27	78.10	14.61	-40.3	-47.4	7.0	1.92e-01	0	60	0	15728640	52	8069
2026-01-30 08:09:30.27	77.92	14.66	-40.4	-48.1	6.4	2.04e-01	0	60	0	16777216	52	8695
2026-01-30 08:09:31.28	77.73	14.71	-40.4	-48.0	6.5	2.21e-01	0	60	0	18874368	52	8616
2026-01-30 08:09:32.29	77.55	14.77	-40.6	-48.9	5.7	3.46e-01	0	60	0	20971520	52	9602
2026-01-30 08:09:33.30	77.37	14.82	-40.5	-49.0	5.6	4.04e-01	0	60	0	23068672	52	9695
2026-01-30 08:09:34.31	77.18	14.87	-40.6	-49.5	5.3	4.92e-01	0	60	0	25165824	52	10284
2026-01-30 08:09:35.32	76.99	14.93	-40.5	-50.5	4.6	9.17e-01	0	60	0	26214400	52	11514
2026-01-30 08:09:36.34	76.81	14.98	-40.7	-50.8	4.5	1.21e+00	0	60	0	28311552	52	11880
2026-01-30 08:09:37.35	76.62	15.03	-40.6	-50.3	4.7	9.10e-01	0	60	0	30408704	52	11278
2026-01-30 08:09:38.36	76.43	15.09	-40.6	-49.6	5.3	6.18e-01	0	60	0	32505856	52	10294
2026-01-30 08:09:39.37	76.24	15.14	-40.9	-51.3	4.5	1.28e+00	0	60	0	33554432	52	12549
2026-01-30 08:09:40.38	76.05	15.19	-40.6	-49.2	5.5	5.72e-01	0	60	0	35651584	52	9845
2026-01-30 08:09:41.39	75.86	15.24	-40.6	-49.0	5.7	4.26e-01	0	60	0	37748736	52	9609
2026-01-30 08:09:42.40	75.67	15.30	-40.7	-49.0	5.7	4.03e-01	0	60	0	39845888	52	9708
2026-01-30 08:09:43.41	75.48	15.35	-40.8	-49.4	5.5	4.18e-01	0	60	0	40894464	52	10121
2026-01-30 08:09:44.42	75.29	15.40	-40.9	-49.5	5.6	4.53e-01	0	60	0	42991616	52	10188
2026-01-30 08:09:45.42	75.10	15.45	-41.0	-49.8	5.4	4.73e-01	0	60	0	45088768	52	10636
2026-01-30 08:09:46.43	74.90	15.50	-41.1	-50.2	5.1	1.10e+00	0	60	0	47185920	53	10524
2026-01-30 08:09:47.44	74.71	15.55	-41.1	-50.1	5.3	5.48e-01	0	60	0	49283072	53	10297
2026-01-30 08:09:48.45	74.52	15.60	-40.9	-50.8	4.5	1.27e+00	0	60	0	50331648	53	11285
2026-01-30 08:09:49.46	74.32	15.65	-41.0	-49.5	5.7	7.61e-01	0	60	0	52428800	53	9614
2026-01-30 08:09:50.47	74.12	15.70	-41.2	-50.9	4.7	1.07e+00	0	60	0	54525952	53	11393
2026-01-30 08:09:51.48	73.93	15.75	-41.0	-49.1	6.0	3.37e-01	0	60	0	55574528	53	9206
2026-01-30 08:09:52.49	73.73	15.80	-41.0	-49.1	5.9	3.62e-01	0	60	0	57671680	53	9262
2026-01-30 08:09:53.50	73.53	15.85	-41.0	-49.4	5.7	4.18e-01	0	60	0	59768832	53	9580
2026-01-30 08:09:54.51	73.33	15.90	-40.9	-49.6	5.5	4.88e-01	0	60	0	61865984	53	9753
2026-01-30 08:09:55.52	73.13	15.95	-40.7	-49.5	5.4	5.14e-01	0	60	0	63963136	53	9672
2026-01-30 08:09:56.53	72.93	16.00	-40.7	-50.4	4.8	5.44e-01	0	60	0	65011712	53	10706
2026-01-30 08:09:57.54	72.73	16.05	-40.7	-50.5	4.7	1.20e+00	0	60	0	66060288	53	10855
2026-01-30 08:09:58.55	72.53	16.09	-40.3	-49.6	5.0	7.51e-01	0	60	0	68157440	52	10356
2026-01-30 08:09:59.56	72.33	16.14	-40.5	-49.4	5.2	7.71e-01	0	60	0	70254592	52	10127
2026-01-30 08:10:00.57	72.13	16.19	-40.6	-50.4	4.8	5.75e-01	0	60	0	72351744	52	11292
2026-01-30 08:10:01.58	71.92	16.24	-40.8	-50.7	4.6	1.39e+00	0	60	0	72351744	52	11806
2026-01-30 08:10:02.59	71.72	16.28	-40.6	-49.4	5.4	5.54e-01	0	60	0	74448896	52	10076
2026-01-30 08:10:03.60	71.52	16.33	-40.8	-49.2	5.7	4.77e-01	0	60	0	76546048	52	9870
2026-01-30 08:10:04.61	71.31	16.38	-40.8	-48.5	6.3	3.17e-01	0	60	0	78643200	52	9174
2026-01-30 08:10:05.62	71.10	16.42	-40.8	-48.1	6.8	2.18e-01	0	61	0	80740352	52	8720
2026-01-30 08:10:06.63	70.90	16.47	-40.8	-47.8	7.2	1.60e-01	0	60	0	82837504	52	8382
2026-01-30 08:10:07.64	70.69	16.51	-41.2	-49.3	6.0	1.44e-01	0	60	0	83886080	52	10055
2026-01-30 08:10:08.65	70.48	16.56	-41.0	-47.6	7.6	3.98e-01	0	60	0	85983232	53	7740
2026-01-30 08:10:09.66	70.28	16.60	-41.3	-49.1	6.4	1.17e-01	0	60	0	88080384	53	9221
2026-01-30 08:10:10.67	70.07	16.65	-41.6	-48.5	7.1	4.08e-01	0	60	0	90177536	53	8654
2026-01-30 08:10:11.69	69.86	16.69	-41.2	-47.7	8.0	1.60e-02	0	60	0	92274688	53	7888
2026-01-30 08:10:12.69	69.65	16.74	-41.4	-47.8	7.8	4.51e-01	0	61	0	93323264	53	7977
2026-01-30 08:10:13.70	69.44	16.78	-41.4	-47.5	8.6	3.91e-02	0	61	0	95420416	53	7643
2026-01-30 08:10:14.71	69.22	16.82	-41.5	-47.2	9.0	2.79e-02	0	60	0	97517568	53	7447
2026-01-30 08:10:15.72	69.01	16.87	-41.5	-46.8	9.6	2.18e-02	0	61	0	99614720	53	7111
2026-01-30 08:10:16.73	68.80	16.91	-41.5	-46.8	9.8	1.17e-02	0	61	0	101711872	53	7085
2026-01-30 08:10:17.74	68.59	16.95	-41.5	-46.6	10.1	7.68e-03	0	61	0	102760448	53	6905
2026-01-30 08:10:18.75	68.37	16.99	-41.4	-46.3	10.5	4.97e-03	0	60	0	104857600	53	6680
2026-01-30 08:10:19.76	68.16	17.04	-41.4	-46.1	10.8	3.46e-03	0	60	0	106954752	53	6550
2026-01-30 08:10:20.77	67.94	17.08	-41.4	-46.0	11.0	2.18e-03	0	61	0	109051904	53	6453
2026-01-30 08:10:21.78	67.73	17.12	-41.3	-45.6	11.5	1.15e-03	0	61	0	111149056	53	6166
2026-01-30 08:10:22.79	67.51	17.16	-41.2	-45.2	12.0	6.76e-04	0	61	0	112197632	53	5909
2026-01-30 08:10:23.80	67.30	17.20	-41.1	-45.1	12.1	2.71e-04	0	61	0	114294784	53	5853
2026-01-30 08:10:24.81	67.08	17.24	-41.2	-45.1	12.1	2.49e-04	0	60	0	116391936	53	5835
2026-01-30 08:10:25.82	66.86	17.28	-41.1	-44.9	12.4	1.87e-04	0	61	0	118489088	53	5696
2026-01-30 08:10:26.83	66.64	17.32	-41.0	-44.8	12.5	1.43e-04	0	61	0	120586240	53	5631
2026-01-30 08:10:27.84	66.42	17.36	-41.0	-44.6	12.7	9.76e-05	0	60	0	121634816	53	5525
2026-01-30 08:10:28.85	66.20	17.40	-41.0	-44.7	12.7	8.69e-05	0	61	0	123731968	53	5544
2026-01-30 08:10:29.86	65.98	17.43	-41.1	-44.9	12.4	1.29e-04	0	60	0	125829120	53	5696
2026-01-30 08:10:30.87	65.76	17.47	-41.1	-44.9	12.5	1.35e-04	0	61	0	127926272	53	5704
2026-01-30 08:10:31.88	65.54	17.51	-41.2	-45.1	12.3	1.65e-04	0	61	0	130023424	53	5851
2026-01-30 08:10:32.89	65.32	17.55	-41.2	-45.1	12.3	1.72e-04	0	60	0	131072000	53	5825
2026-01-30 08:10:33.90	65.10	17.58	-41.2	-45.1	12.4	1.81e-04	0	61	0	133169152	53	5789
2026-01-30 08:10:34.91	64.87	17.62	-41.2	-45.2	12.2	1.79e-04	0	60	0	135266304	53	5877
2026-01-30 08:10:35.92	64.65	17.65	-41.3	-45.3	12.1	3.04e-04	0	61	0	137363456	53	5992
2026-01-30 08:10:36.93	64.43	17.69	-41.3	-45.2	12.1	3.33e-04	0	61	0	139460608	53	5913
2026-01-30 08:10:37.93	64.20	17.73	-41.4	-45.6	11.9	3.68e-04	0	60	0	140509184	53	6140
2026-01-30 08:10:38.94	63.98	17.76	-41.4	-45.5	11.9	3.91e-04	0	61	0	142606336	53	6116
2026-01-30 08:10:39.96	63.75	17.79	-41.5	-45.7	11.7	5.48e-04	0	61	0	144703488	53	6247
2026-01-30 08:10:40.97	63.53	17.83	-41.6	-45.8	11.6	6.65e-04	0	61	0	146800640	53	6314
2026-01-30 08:10:41.97	63.30	17.86	-41.6	-45.7	11.7	6.78e-04	0	61	0	148897792	53	6263
2026-01-30 08:10:42.99	63.07	17.89	-41.6	-45.8	11.7	6.51e-04	0	60	0	150994944	53	6290
2026-01-30 08:10:44.00	62.84	17.93	-41.6	-45.9	11.6	6.83e-04	0	60	0	152043520	53	6358
2026-01-30 08:10:45.01	62.62	17.96	-41.7	-46.0	11.5	5.93e-04	0	61	0	154140672	53	6440
2026-01-30 08:10:46.01	62.39	17.99	-41.7	-45.9	11.5	7.22e-04	0	61	0	156237824	53	6417
2026-01-30 08:10:47.02	62.16	18.02	-41.7	-46.0	11.4	8.06e-04	0	60	0	158334976	54	6121
2026-01-30 08:10:48.03	61.93	18.05	-41.8	-46.1	11.4	8.95e-04	0	61	0	160432128	54	6176
2026-01-30 08:10:49.04	61.70	18.08	-41.8	-46.2	11.2	1.13e-03	0	61	0	161480704	54	6257
2026-01-30 08:10:50.05	61.47	18.11	-41.8	-46.2	11.3	1.33e-03	0	61	0	163577856	54	6252
2026-01-30 08:10:51.06	61.24	18.14	-41.9	-46.3	11.2	1.04e-03	0	60	0	165675008	54	6310
2026-01-30 08:10:52.07	61.01	18.17	-41.9	-46.5	11.0	1.50e-03	0	60	0	167772160	54	6469
2026-01-30 08:10:53.08	60.78	18.20	-42.0	-46.5	11.0	1.60e-03	0	60	0	169869312	54	6490
2026-01-30 08:10:54.09	60.55	18.23	-41.9	-46.5	11.0	1.62e-03	0	61	0	170917888	54	6442
2026-01-30 08:10:55.10	60.31	18.26	-41.9	-46.4	11.2	1.57e-03	0	61	0	173015040	54	6365
2026-01-30 08:10:56.11	60.08	18.28	-41.8	-46.0	11.5	1.15e-03	0	60	0	175112192	54	6111
2026-01-30 08:10:57.12	59.85	18.31	-41.6	-45.7	11.9	5.17e-04	0	61	0	177209344	54	5907
2026-01-30 08:10:58.13	59.61	18.34	-41.5	-45.5	12.0	3.37e-04	0	61	0	179306496	54	5757
2026-01-30 08:10:59.14	59.38	18.36	-41.7	-45.8	11.7	4.76e-04	0	61	0	180355072	54	5953
2026-01-30 08:11:00.15	59.14	18.39	-41.8	-46.1	11.5	5.84e-04	0	61	0	182452224	54	6138
2026-01-30 08:11:01.16	58.91	18.41	-41.8	-46.1	11.5	7.21e-04	0	61	0	184549376	54	6141
2026-01-30 08:11:02.17	58.67	18.44	-41.8	-46.1	11.4	9.96e-04	0	61	0	186646528	54	6193
2026-01-30 08:11:03.18	58.44	18.46	-41.8	-46.1	11.5	7.88e-04	0	61	0	188743680	54	6133
2026-01-30 08:11:04.19	58.20	18.49	-41.8	-46.0	11.6	6.68e-04	0	61	0	189792256	54	6118
2026-01-30 08:11:05.20	57.97	18.51	-41.8	-46.2	11.4	6.71e-04	0	61	0	191889408	54	6218
2026-01-30 08:11:06.21	57.73	18.53	-41.8	-46.2	11.5	8.22e-04	0	61	0	193986560	54	6243
2026-01-30 08:11:07.22	57.49	18.55	-41.8	-46.1	11.5	7.99e-04	0	61	0	196083712	54	6187
2026-01-30 08:11:08.23	57.25	18.58	-41.9	-46.3	11.3	9.77e-04	0	61	0	198180864	54	6325
2026-01-30 08:11:09.24	57.02	18.60	-41.9	-46.4	11.2	1.43e-03	0	61	0	199229440	54	6416
2026-01-30 08:11:10.25	56.78	18.62	-42.0	-46.5	11.0	1.53e-03	0	61	0	201326592	54	6490
2026-01-30 08:11:11.26	56.54	18.64	-42.1	-46.8	10.8	2.06e-03	0	61	0	203423744	54	6655
2026-01-30 08:11:12.27	56.30	18.66	-42.2	-47.1	10.4	3.81e-03	0	61	0	205520896	54	6959
2026-01-30 08:11:13.28	56.06	18.68	-42.3	-47.5	10.1	6.14e-03	0	61	0	207618048	55	6825
2026-01-30 08:11:14.29	55.82	18.70	-42.4	-47.7	9.8	9.13e-03	0	61	0	208666624	55	6985
2026-01-30 08:11:15.30	55.58	18.71	-42.4	-47.7	9.8	1.06e-02	0	61	0	210763776	55	7032
2026-01-30 08:11:16.31	55.34	18.73	-42.3	-47.5	10.1	8.19e-03	0	61	0	212860928	55	6811
2026-01-30 08:11:17.32	55.10	18.75	-42.1	-47.0	10.6	5.28e-03	0	61	0	214958080	55	6432
2026-01-30 08:11:18.33	54.86	18.76	-42.1	-46.9	10.7	2.88e-03	0	61	0	217055232	55	6356
2026-01-30 08:11:19.34	54.62	18.78	-42.0	-46.7	10.9	2.54e-03	0	61	0	219152384	55	6212
2026-01-30 08:11:20.35	54.38	18.80	-42.0	-46.7	10.9	2.31e-03	0	61	0	220200960	55	6253
2026-01-30 08:11:21.36	54.14	18.81	-42.1	-46.8	10.8	2.14e-03	0	61	0	222298112	55	6332
2026-01-30 08:11:22.37	53.90	18.83	-42.1	-46.8	10.8	2.26e-03	0	61	0	224395264	55	6300
2026-01-30 08:11:23.38	53.66	18.84	-42.0	-46.6	10.9	2.16e-03	0	61	0	226492416	55	6182
2026-01-30 08:11:24.39	53.41	18.85	-42.0	-46.7	10.9	2.22e-03	0	61	0	228589568	55	6207
2026-01-30 08:11:25.40	53.17	18.87	-42.0	-46.7	10.9	2.73e-03	0	61	0	229638144	55	6221
2026-01-30 08:11:26.41	52.93	18.88	-42.0	-46.5	11.0	2.10e-03	0	61	0	231735296	55	6118
2026-01-30 08:11:27.42	52.69	18.89	-41.9	-46.5	11.1	1.69e-03	0	61	0	233832448	55	6095
2026-01-30 08:11:28.43	52.44	18.90	-41.8	-46.2	11.4	1.15e-03	0	61	0	235929600	55	5890
2026-01-30 08:11:29.44	52.20	18.91	-41.7	-46.0	11.6	7.67e-04	0	61	0	238026752	55	5753
2026-01-30 08:11:30.45	51.96	18.92	-41.7	-45.9	11.8	5.69e-04	0	61	0	239075328	55	5671
2026-01-30 08:11:31.46	51.71	18.93	-41.7	-45.9	11.7	5.10e-04	0	61	0	241172480	55	5672
2026-01-30 08:11:32.47	51.47	18.94	-41.6	-45.8	11.9	5.35e-04	0	61	0	243269632	55	5609
2026-01-30 08:11:33.48	51.23	18.95	-41.7	-45.9	11.8	4.80e-04	0	61	0	245366784	55	5677
2026-01-30 08:11:34.50	50.98	18.96	-41.7	-46.0	11.7	5.07e-04	0	61	0	247463936	55	5733
2026-01-30 08:11:35.51	50.74	18.97	-41.8	-46.0	11.7	6.77e-04	0	61	0	248512512	55	5741
2026-01-30 08:11:36.52	50.49	18.97	-41.9	-46.2	11.4	9.65e-04	0	61	0	250609664	55	5922
2026-01-30 08:11:37.53	50.25	18.98	-41.9	-46.4	11.2	1.11e-03	0	61	0	252706816	55	6028
2026-01-30 08:11:38.54	50.01	18.99	-41.9	-46.4	11.2	1.33e-03	0	61	0	254803968	55	5996
2026-01-30 08:11:39.55	49.76	18.99	-41.9	-46.2	11.4	1.19e-03	0	61	0	256901120	55	5895
2026-01-30 08:11:40.55	49.52	19.00	-41.9	-46.4	11.3	1.01e-03	0	61	0	257949696	55	5994
2026-01-30 08:11:41.57	49.27	19.00	-41.8	-46.1	11.5	7.51e-04	0	61	0	260046848	55	5834
2026-01-30 08:11:42.58	49.03	19.01	-41.8	-46.1	11.5	7.58e-04	0	61	0	262144000	55	5823
2026-01-30 08:11:43.59	48.78	19.01	-41.8	-46.1	11.5	7.48e-04	0	61	0	264241152	55	5825
2026-01-30 08:11:44.59	48.54	19.01	-41.9	-46.2	11.4	8.51e-04	0	61	0	266338304	55	5904
2026-01-30 08:11:45.60	48.30	19.01	-41.8	-46.1	11.5	8.32e-04	0	61	0	267386880	55	5837
2026-01-30 08:11:46.61	48.05	19.02	-42.0	-46.5	11.3	8.93e-04	0	61	0	269484032	55	6077
2026-01-30 08:11:47.62	47.81	19.02	-41.9	-46.3	11.3	9.57e-04	0	61	0	271581184	55	5984
2026-01-30 08:11:48.63	47.56	19.02	-42.0	-46.4	11.3	1.20e-03	0	61	0	273678336	55	6020
2026-01-30 08:11:49.65	47.32	19.02	-42.0	-46.7	11.0	1.62e-03	0	61	0	275775488	55	6205
2026-01-30 08:11:50.66	47.07	19.02	-42.1	-46.9	10.8	2.08e-03	0	61	0	276824064	55	6361
2026-01-30 08:11:51.67	46.83	19.02	-42.3	-47.3	10.4	3.84e-03	0	61	0	278921216	55	6656
2026-01-30 08:11:52.68	46.58	19.02	-42.4	-47.5	10.2	5.25e-03	0	61	0	281018368	55	6803
2026-01-30 08:11:53.69	46.34	19.01	-42.4	-47.7	9.9	7.46e-03	0	61	0	283115520	55	6995
2026-01-30 08:11:54.70	46.10	19.01	-42.4	-47.6	10.0	6.56e-03	0	61	0	285212672	55	6920
2026-01-30 08:11:55.70	45.85	19.01	-42.3	-47.4	10.3	7.18e-03	0	61	0	287309824	55	6744
2026-01-30 08:11:56.71	45.61	19.00	-42.2	-47.0	10.6	5.07e-03	0	61	0	288358400	55	6479
2026-01-30 08:11:57.72	45.36	19.00	-42.0	-46.5	11.1	2.27e-03	0	61	0	290455552	55	6131
2026-01-30 08:11:58.73	45.12	19.00	-41.8	-46.0	11.7	9.14e-04	0	61	0	292552704	55	5731
2026-01-30 08:11:59.74	44.88	18.99	-41.7	-45.8	11.9	4.58e-04	0	61	0	294649856	55	5638
2026-01-30 08:12:00.75	44.63	18.98	-41.4	-45.2	12.5	1.60e-04	0	61	0	296747008	54	5592
2026-01-30 08:12:01.76	44.39	18.98	-41.4	-45.2	12.5	1.20e-04	0	61	0	297795584	54	5566
2026-01-30 08:12:02.77	44.14	18.97	-41.4	-45.2	12.6	1.16e-04	0	61	0	299892736	54	5538
2026-01-30 08:12:03.78	43.90	18.96	-41.6	-45.5	12.2	1.72e-04	0	61	0	301989888	54	5769
2026-01-30 08:12:04.79	43.66	18.96	-41.6	-45.5	12.2	2.14e-04	0	61	0	304087040	54	5739
2026-01-30 08:12:05.80	43.41	18.95	-41.6	-45.5	12.2	2.08e-04	0	61	0	306184192	54	5778
2026-01-30 08:12:06.81	43.17	18.94	-41.5	-45.4	12.3	2.39e-04	0	61	0	307232768	54	5708
2026-01-30 08:12:07.82	42.93	18.93	-41.4	-45.1	12.7	1.02e-04	0	61	0	309329920	54	5488
2026-01-30 08:12:08.83	42.68	18.92	-41.4	-45.1	12.7	7.78e-05	0	61	0	311427072	54	5477
2026-01-30 08:12:09.84	42.44	18.91	-41.4	-45.1	12.6	7.70e-05	0	61	0	313524224	54	5482
2026-01-30 08:12:10.85	42.20	18.90	-41.4	-45.2	12.5	1.35e-04	0	61	0	315621376	54	5564
2026-01-30 08:12:11.86	41.96	18.88	-41.5	-45.3	12.5	1.14e-04	0	61	0	316669952	54	5613
2026-01-30 08:12:12.87	41.72	18.87	-41.5	-45.3	12.4	1.41e-04	0	61	0	318767104	54	5652
2026-01-30 08:12:13.88	41.47	18.86	-41.4	-45.2	12.5	1.43e-04	0	61	0	320864256	54	5556
2026-01-30 08:12:14.89	41.23	18.85	-41.3	-45.0	12.7	1.01e-04	0	61	0	322961408	54	5446
2026-01-30 08:12:15.90	40.99	18.83	-41.2	-44.8	12.9	6.10e-05	0	61	0	325058560	54	5318
2026-01-30 08:12:16.91	40.75	18.82	-41.3	-44.9	12.9	4.73e-05	0	61	0	326107136	54	5352
2026-01-30 08:12:17.92	40.51	18.80	-41.3	-44.9	12.8	5.49e-05	0	61	0	328204288	54	5370
2026-01-30 08:12:18.93	40.27	18.79	-41.2	-44.7	13.1	3.28e-05	0	61	0	330301440	54	5251
2026-01-30 08:12:19.94	40.03	18.77	-41.2	-44.7	13.0	3.66e-05	0	61	0	332398592	54	5258
2026-01-30 08:12:20.95	39.79	18.76	-41.1	-44.5	13.2	2.59e-05	0	61	0	334495744	54	5152
2026-01-30 08:12:21.96	39.55	18.74	-41.2	-44.7	13.0	3.20e-05	0	61	0	335544320	54	5264
2026-01-30 08:12:22.97	39.31	18.72	-41.3	-44.8	12.9	3.28e-05	0	61	0	337641472	54	5328
2026-01-30 08:12:23.98	39.07	18.70	-41.3	-44.9	12.8	6.17e-05	0	61	0	339738624	54	5394
2026-01-30 08:12:24.99	38.83	18.69	-41.4	-45.1	12.6	7.55e-05	0	61	0	341835776	54	5521
2026-01-30 08:12:26.01	38.59	18.67	-41.4	-45.1	12.6	7.78e-05	0	61	0	343932928	54	5520
2026-01-30 08:12:27.02	38.35	18.65	-41.5	-45.4	12.2	1.32e-04	0	61	0	344981504	54	5702
2026-01-30 08:12:28.03	38.11	18.63	-41.5	-45.4	12.4	1.17e-04	0	61	0	347078656	54	5664
2026-01-30 08:12:29.04	37.87	18.61	-41.7	-45.7	12.0	2.00e-04	0	61	0	349175808	54	5880
2026-01-30 08:12:30.05	37.63	18.59	-41.7	-45.8	12.0	3.79e-04	0	61	0	351272960	54	5931
2026-01-30 08:12:31.06	37.40	18.56	-41.7	-45.8	11.9	3.56e-04	0	61	0	353370112	54	5947
2026-01-30 08:12:32.07	37.16	18.54	-41.6	-45.6	12.1	2.20e-04	0	61	0	355467264	54	5817
2026-01-30 08:12:33.08	36.92	18.52	-41.7	-45.7	12.0	2.70e-04	0	61	0	356515840	54	5879
2026-01-30 08:12:34.09	36.69	18.50	-41.7	-45.8	12.0	2.39e-04	0	61	0	358612992	54	5940
2026-01-30 08:12:35.10	36.45	18.47	-41.6	-45.7	12.0	2.50e-04	0	61	0	360710144	54	5864
2026-01-30 08:12:36.11	36.22	18.45	-41.8	-45.9	11.7	4.06e-04	0	61	0	362807296	54	6061
2026-01-30 08:12:37.12	35.98	18.43	-41.9	-46.3	11.4	7.94e-04	0	61	0	364904448	54	6322
2026-01-30 08:12:38.13	35.75	18.40	-42.1	-46.7	11.0	1.47e-03	0	61	0	365953024	54	6573
2026-01-30 08:12:39.14	35.51	18.38	-42.2	-46.9	10.7	1.92e-03	0	61	0	368050176	54	6761
2026-01-30 08:12:40.15	35.28	18.35	-42.4	-47.4	10.2	4.94e-03	0	61	0	370147328	55	6779
2026-01-30 08:12:41.16	35.04	18.32	-42.3	-47.3	10.3	4.38e-03	0	61	0	372244480	55	6667
2026-01-30 08:12:42.17	34.81	18.30	-42.4	-47.5	10.1	5.42e-03	0	61	0	374341632	55	6858
2026-01-30 08:12:43.18	34.58	18.27	-42.3	-47.2	10.4	4.68e-03	0	61	0	375390208	55	6639
2026-01-30 08:12:44.19	34.35	18.24	-42.2	-47.0	10.6	4.50e-03	0	61	0	377487360	55	6487
2026-01-30 08:12:45.20	34.11	18.22	-42.2	-47.0	10.6	4.29e-03	0	61	0	379584512	55	6437
2026-01-30 08:12:46.21	33.88	18.19	-42.3	-47.1	10.5	4.07e-03	0	61	0	381681664	55	6556
2026-01-30 08:12:47.22	33.65	18.16	-42.3	-47.2	10.4	3.30e-03	0	61	0	383778816	55	6579
2026-01-30 08:12:48.23	33.42	18.13	-42.2	-47.0	10.6	3.75e-03	0	61	0	384827392	55	6477
2026-01-30 08:12:49.24	33.19	18.10	-42.1	-46.8	10.8	2.87e-03	0	61	0	386924544	55	6339
2026-01-30 08:12:50.25	32.96	18.07	-42.2	-46.9	10.7	2.33e-03	0	61	0	389021696	55	6377
2026-01-30 08:12:51.26	32.73	18.04	-42.0	-46.5	11.1	2.87e-03	0	61	0	391118848	55	6089
2026-01-30 08:12:52.27	32.50	18.01	-42.1	-46.7	10.9	1.91e-03	0	61	0	393216000	55	6204
2026-01-30 08:12:53.28	32.28	17.98	-42.2	-47.0	10.6	3.08e-03	0	61	0	395313152	55	6476
2026-01-30 08:12:54.29	32.05	17.94	-42.3	-47.2	10.4	3.83e-03	0	61	0	396361728	55	6581
2026-01-30 08:12:55.30	31.82	17.91	-42.3	-47.3	10.3	4.67e-03	0	61	0	398458880	55	6673
2026-01-30 08:12:56.31	31.59	17.88	-42.3	-47.2	10.4	4.20e-03	0	61	0	400556032	55	6638
2026-01-30 08:12:57.32	31.37	17.85	-42.2	-47.1	10.5	4.38e-03	0	61	0	402653184	55	6517
2026-01-30 08:12:58.33	31.14	17.81	-42.1	-46.8	10.8	3.61e-03	0	61	0	404750336	55	6299
2026-01-30 08:12:59.34	30.92	17.78	-42.0	-46.6	11.0	2.10e-03	0	61	0	405798912	55	6151
2026-01-30 08:13:00.36	30.69	17.74	-42.0	-46.5	11.1	1.75e-03	0	61	0	407896064	55	6105
2026-01-30 08:13:01.37	30.47	17.71	-42.0	-46.5	11.1	1.44e-03	0	61	0	409993216	55	6104
2026-01-30 08:13:02.38	30.24	17.67	-42.0	-46.4	11.2	1.35e-03	0	61	0	412090368	55	6032
2026-01-30 08:13:03.39	30.02	17.64	-41.9	-46.3	11.3	1.27e-03	0	61	0	414187520	55	5935
2026-01-30 08:13:04.40	29.80	17.60	-41.8	-46.1	11.5	1.18e-03	0	61	0	415236096	55	5835
2026-01-30 08:13:05.41	29.58	17.57	-41.8	-46.1	11.5	9.35e-04	0	61	0	417333248	55	5811
2026-01-30 08:13:06.42	29.35	17.53	-41.8	-46.1	11.5	8.02e-04	0	61	0	419430400	55	5845
2026-01-30 08:13:07.42	29.14	17.49	-41.9	-46.2	11.4	8.08e-04	0	61	0	421527552	55	5910
2026-01-30 08:13:08.43	28.92	17.45	-41.8	-46.1	11.5	8.63e-04	0	61	0	423624704	55	5852
2026-01-30 08:13:09.44	28.70	17.42	-41.8	-46.1	11.5	8.38e-04	0	62	0	424673280	55	5851
2026-01-30 08:13:10.46	28.47	17.38	-41.8	-46.1	11.5	8.49e-04	0	61	0	426770432	55	5840
2026-01-30 08:13:11.47	28.26	17.34	-41.7	-45.8	11.8	6.02e-04	0	61	0	428867584	55	5655
2026-01-30 08:13:12.48	28.04	17.30	-41.5	-45.5	12.2	2.66e-04	0	61	0	430964736	55	5422
2026-01-30 08:13:13.49	27.82	17.26	-41.5	-45.4	12.2	2.54e-04	0	61	0	433061888	55	5377
2026-01-30 08:13:14.50	27.60	17.22	-41.4	-45.1	12.6	1.31e-04	0	61	0	434110464	54	5525
2026-01-30 08:13:15.51	27.39	17.18	-41.4	-45.1	12.6	8.54e-05	0	61	0	436207616	54	5493
2026-01-30 08:13:16.52	27.17	17.14	-41.3	-45.1	12.6	9.76e-05	0	61	0	438304768	54	5480
2026-01-30 08:13:17.53	26.96	17.10	-41.3	-45.0	12.6	8.23e-05	0	61	0	440401920	54	5458
2026-01-30 08:13:18.54	26.74	17.06	-41.3	-45.0	12.6	6.86e-05	0	61	0	442499072	54	5447
2026-01-30 08:13:19.55	26.53	17.02	-41.4	-45.1	12.5	8.01e-05	0	61	0	443547648	54	5493
2026-01-30 08:13:20.56	26.31	16.97	-41.4	-45.2	12.4	1.01e-04	0	61	0	445644800	54	5572
2026-01-30 08:13:21.57	26.10	16.93	-41.7	-45.7	11.9	3.01e-04	0	61	0	447741952	54	5908
2026-01-30 08:13:22.58	25.89	16.89	-41.9	-46.3	11.3	9.84e-04	0	61	0	449839104	54	6318
2026-01-30 08:13:23.59	25.68	16.85	-42.2	-46.9	10.7	2.18e-03	0	61	0	451936256	54	6778
2026-01-30 08:13:24.60	25.47	16.80	-42.3	-47.3	10.2	4.32e-03	0	61	0	452984832	55	6718
2026-01-30 08:13:25.61	25.26	16.76	-42.3	-47.4	10.2	5.33e-03	0	61	0	455081984	55	6742
2026-01-30 08:13:26.62	25.05	16.72	-42.3	-47.4	10.1	7.13e-03	0	61	0	457179136	55	6791
2026-01-30 08:13:27.64	24.84	16.67	-42.2	-47.0	10.6	7.31e-03	0	61	0	459276288	55	6446
2026-01-30 08:13:28.65	24.63	16.63	-42.1	-46.9	10.6	3.68e-03	0	61	0	461373440	55	6396
2026-01-30 08:13:29.66	24.42	16.58	-42.2	-47.0	10.5	3.38e-03	0	62	0	463470592	55	6442
2026-01-30 08:13:30.67	24.21	16.54	-42.3	-47.4	10.2	3.99e-03	0	61	0	464519168	55	6767
2026-01-30 08:13:31.68	24.01	16.49	-42.2	-47.1	10.4	4.58e-03	0	61	0	466616320	55	6525
2026-01-30 08:13:32.69	23.80	16.45	-42.3	-47.2	10.3	5.30e-03	0	61	0	468713472	55	6633
2026-01-30 08:13:33.70	23.60	16.40	-42.4	-47.5	10.0	1.01e-02	0	61	0	470810624	55	6857
2026-01-30 08:13:34.71	23.39	16.36	-42.4	-47.7	9.8	9.07e-03	0	61	0	472907776	55	7015
2026-01-30 08:13:35.72	23.19	16.31	-42.4	-47.7	9.7	1.22e-02	0	61	0	473956352	55	7040
2026-01-30 08:13:36.73	22.98	16.26	-42.4	-47.8	9.7	1.02e-02	0	61	0	476053504	55	7043
2026-01-30 08:13:37.74	22.78	16.22	-42.3	-47.5	10.0	8.62e-03	0	61	0	478150656	55	6838
2026-01-30 08:13:38.75	22.58	16.17	-42.2	-47.1	10.4	5.03e-03	0	61	0	480247808	55	6532
2026-01-30 08:13:39.76	22.38	16.12	-42.0	-46.7	10.8	3.27e-03	0	61	0	482344960	55	6223
2026-01-30 08:13:40.77	22.18	16.07	-42.0	-46.6	10.9	2.23e-03	0	61	0	483393536	55	6144
2026-01-30 08:13:41.78	21.98	16.03	-41.9	-46.3	11.2	1.77e-03	0	61	0	485490688	55	5968
2026-01-30 08:13:42.79	21.78	15.98	-41.8	-46.2	11.4	9.79e-04	0	61	0	487587840	55	5860
2026-01-30 08:13:43.80	21.58	15.93	-41.8	-46.1	11.4	9.10e-04	0	61	0	489684992	55	5849
2026-01-30 08:13:44.81	21.38	15.88	-41.7	-46.1	11.5	1.09e-03	0	61	0	491782144	55	5798
2026-01-30 08:13:45.82	21.18	15.83	-41.8	-46.1	11.4	7.93e-04	0	61	0	492830720	55	5828
2026-01-30 08:13:46.83	20.99	15.78	-41.8	-46.2	11.3	1.21e-03	0	61	0	494927872	55	5896
2026-01-30 08:13:47.84	20.79	15.73	-41.8	-46.1	11.4	1.04e-03	0	61	0	497025024	55	5815
2026-01-30 08:13:48.85	20.60	15.68	-41.9	-46.3	11.0	1.06e-03	0	61	0	499122176	55	5980
2026-01-30 08:13:49.86	20.40	15.63	-42.0	-46.7	10.7	1.56e-03	0	61	0	501219328	55	6266
2026-01-30 08:13:50.87	20.21	15.58	-42.3	-47.3	10.2	5.15e-03	0	61	0	502267904	55	6705
2026-01-30 08:13:51.88	20.01	15.53	-42.1	-47.0	10.5	5.58e-03	0	61	0	504365056	55	6490
2026-01-30 08:13:52.89	19.82	15.48	-42.2	-47.3	10.1	5.51e-03	0	61	0	506462208	55	6696
2026-01-30 08:13:53.90	19.63	15.43	-42.1	-46.9	10.6	3.95e-03	0	62	0	508559360	55	6375
2026-01-30 08:13:54.91	19.44	15.38	-41.8	-46.6	10.9	2.43e-03	0	61	0	510656512	55	6189
2026-01-30 08:13:55.92	19.25	15.33	-41.8	-46.3	11.3	1.37e-03	0	61	0	511705088	55	5935
2026-01-30 08:13:56.93	19.06	15.28	-41.8	-46.2	11.3	7.19e-04	0	61	0	513802240	55	5877
2026-01-30 08:13:57.94	18.87	15.22	-41.7	-46.0	11.5	7.73e-04	0	62	0	515899392	55	5741
2026-01-30 08:13:58.95	18.68	15.17	-41.8	-46.1	11.4	8.99e-04	0	61	0	517996544	55	5826
2026-01-30 08:13:59.96	18.49	15.12	-41.9	-46.5	11.0	1.03e-03	0	62	0	520093696	55	6064
2026-01-30 08:14:00.97	18.30	15.07	-41.8	-46.9	10.6	2.74e-03	0	61	0	521142272	55	6410
2026-01-30 08:14:01.99	18.11	15.01	-42.2	-47.3	10.1	5.09e-03	0	61	0	523239424	55	6692
2026-01-30 08:14:02.99	17.93	14.96	-42.4	-47.7	9.7	7.73e-03	0	61	0	525336576	55	7008
2026-01-30 08:14:04.00	17.74	14.91	-42.5	-48.0	9.4	1.52e-02	0	61	0	527433728	55	7258
2026-01-30 08:14:05.01	17.56	14.86	-42.5	-48.2	9.2	2.37e-02	0	61	0	529530880	55	7386
2026-01-30 08:14:06.02	17.38	14.80	-42.6	-48.4	9.0	2.71e-02	0	61	0	531628032	55	7586
2026-01-30 08:14:07.03	17.19	14.75	-42.6	-48.5	8.8	3.03e-02	0	61	0	532676608	55	7718
2026-01-30 08:14:08.04	17.01	14.70	-42.6	-48.4	9.0	2.29e-02	0	62	0	534773760	55	7600
2026-01-30 08:14:09.06	16.83	14.64	-42.5	-48.1	9.3	1.93e-02	0	61	0	536870912	55	7314
2026-01-30 08:14:10.07	16.64	14.59	-42.4	-48.0	9.4	1.56e-02	0	61	0	538968064	55	7217
2026-01-30 08:14:11.08	16.46	14.53	-42.3	-47.7	9.7	1.69e-02	0	62	0	541065216	55	7028
2026-01-30 08:14:12.09	16.28	14.48	-42.3	-47.6	9.8	1.12e-02	0	62	0	542113792	55	6931
2026-01-30 08:14:13.10	16.10	14.42	-42.4	-47.8	9.6	1.06e-02	0	62	0	544210944	55	7045
2026-01-30 08:14:14.11	15.93	14.37	-42.3	-47.6	9.8	8.88e-03	0	61	0	546308096	55	6901
2026-01-30 08:14:15.12	15.75	14.31	-42.3	-47.5	9.9	9.04e-03	0	62	0	548405248	55	6851
2026-01-30 08:14:16.13	15.57	14.26	-42.2	-47.3	10.1	8.66e-03	0	61	0	550502400	55	6682
2026-01-30 08:14:17.14	15.39	14.20	-42.2	-47.4	10.0	7.50e-03	0	62	0	551550976	55	6728
2026-01-30 08:14:18.15	15.22	14.15	-42.1	-47.1	10.2	5.64e-03	0	62	0	553648128	55	6522
2026-01-30 08:14:19.16	15.04	14.09	-42.1	-47.1	10.2	5.22e-03	0	62	0	555745280	55	6532
2026-01-30 08:14:20.17	14.87	14.04	-42.1	-47.2	10.1	6.00e-03	0	61	0	557842432	55	6630
2026-01-30 08:14:21.18	14.69	13.98	-42.3	-47.6	9.8	7.97e-03	0	61	0	559939584	55	6923
2026-01-30 08:14:22.19	14.52	13.93	-42.3	-47.6	9.7	9.87e-03	0	61	0	560988160	55	6948
2026-01-30 08:14:23.20	14.35	13.87	-42.3	-47.8	9.6	1.29e-02	0	62	0	563085312	55	7041
2026-01-30 08:14:24.21	14.18	13.82	-42.4	-48.0	9.3	1.62e-02	0	61	0	565182464	55	7208
2026-01-30 08:14:25.22	14.00	13.76	-42.3	-47.9	9.4	1.53e-02	0	62	0	567279616	55	7140
2026-01-30 08:14:26.23	13.83	13.70	-42.3	-47.8	9.5	1.40e-02	0	62	0	569376768	55	7043
2026-01-30 08:14:27.24	13.66	13.65	-42.2	-47.5	9.8	1.26e-02	0	61	0	571473920	55	6839
2026-01-30 08:14:28.25	13.49	13.59	-42.2	-47.3	10.0	9.53e-03	0	61	0	572522496	55	6689
2026-01-30 08:14:29.26	13.33	13.53	-42.1	-47.1	10.2	7.01e-03	0	61	0	574619648	55	6516
2026-01-30 08:14:30.27	13.16	13.48	-42.0	-47.0	10.3	5.36e-03	0	61	0	576716800	55	6467
2026-01-30 08:14:31.28	12.99	13.42	-41.9	-46.8	10.5	4.44e-03	0	61	0	578813952	55	6299
2026-01-30 08:14:32.29	12.82	13.36	-42.0	-46.9	10.5	3.49e-03	0	61	0	580911104	55	6353
2026-01-30 08:14:33.30	12.66	13.31	-41.9	-46.8	10.5	3.99e-03	0	62	0	581959680	55	6296
2026-01-30 08:14:34.31	12.49	13.25	-41.9	-46.8	10.4	4.44e-03	0	61	0	584056832	55	6332
2026-01-30 08:14:35.32	12.33	13.19	-42.0	-47.0	10.2	5.56e-03	0	62	0	586153984	55	6464
2026-01-30 08:14:36.33	12.16	13.13	-42.1	-47.2	9.9	7.73e-03	0	62	0	588251136	55	6617
2026-01-30 08:14:37.34	12.00	13.08	-42.1	-47.4	9.7	1.02e-02	0	62	0	590348288	55	6774
2026-01-30 08:14:38.35	11.84	13.02	-42.1	-47.5	9.6	1.19e-02	0	61	0	591396864	55	6803
2026-01-30 08:14:39.36	11.67	12.96	-42.1	-47.6	9.5	1.36e-02	0	62	0	593494016	55	6886
2026-01-30 08:14:40.37	11.51	12.90	-42.0	-47.4	9.6	1.38e-02	0	62	0	595591168	55	6757
2026-01-30 08:14:41.38	11.35	12.84	-42.0	-47.5	9.5	1.30e-02	0	62	0	597688320	55	6804
2026-01-30 08:14:42.39	11.19	12.79	-42.0	-47.5	9.4	1.64e-02	0	62	0	599785472	55	6847
2026-01-30 08:14:43.40	11.03	12.73	-41.8	-47.1	9.8	1.45e-02	0	61	0	600834048	55	6511
2026-01-30 08:14:44.41	10.87	12.67	-41.7	-47.1	9.7	9.56e-03	0	62	0	602931200	55	6512
2026-01-30 08:14:45.42	10.71	12.61	-41.6	-46.8	9.9	1.07e-02	0	61	0	605028352	54	6687
2026-01-30 08:14:46.43	10.56	12.55	-41.6	-46.7	9.9	8.11e-03	0	62	0	607125504	54	6634
2026-01-30 08:14:47.43	10.40	12.50	-41.6	-46.9	9.7	1.03e-02	0	61	0	609222656	54	6745
2026-01-30 08:14:48.45	10.24	12.44	-41.5	-46.7	9.8	1.33e-02	0	62	0	610271232	54	6587
2026-01-30 08:14:49.45	10.09	12.38	-41.3	-46.4	10.1	7.20e-03	0	61	0	612368384	54	6365
2026-01-30 08:14:50.47	9.93	12.32	-41.1	-46.0	10.4	5.13e-03	0	62	0	614465536	54	6110
2026-01-30 08:14:51.47	9.78	12.26	-41.0	-45.8	10.4	4.83e-03	0	62	0	616562688	53	6289
2026-01-30 08:14:52.49	9.62	12.20	-40.7	-45.2	11.0	1.93e-03	0	62	0	618659840	53	5908
2026-01-30 08:14:53.49	9.47	12.14	-40.5	-45.0	11.1	1.77e-03	0	61	0	619708416	53	5760
2026-01-30 08:14:54.51	9.32	12.09	-40.4	-44.9	11.0	1.38e-03	0	62	0	621805568	52	6045
2026-01-30 08:14:55.51	9.17	12.03	-40.4	-45.0	10.9	2.23e-03	0	61	0	623902720	52	6097
2026-01-30 08:14:56.53	9.02	11.97	-40.5	-45.2	10.6	2.56e-03	0	61	0	625999872	52	6235
2026-01-30 08:14:57.54	8.86	11.91	-40.5	-45.6	10.0	5.65e-03	0	62	0	628097024	52	6509
2026-01-30 08:14:58.55	8.71	11.85	-40.7	-46.1	9.5	1.22e-02	0	62	0	629145600	52	6904
2026-01-30 08:14:59.56	8.57	11.79	-40.8	-46.7	8.6	2.46e-02	0	61	0	631242752	52	7403
2026-01-30 08:15:00.57	8.42	11.73	-40.9	-47.3	7.9	6.16e-02	0	62	0	633339904	52	7961
2026-01-30 08:15:01.58	8.27	11.67	-41.0	-48.2	6.9	1.49e-01	0	61	0	635437056	52	8812
2026-01-30 08:15:02.59	8.12	11.61	-41.0	-49.0	6.1	2.51e-01	0	61	0	637534208	52	9639
2026-01-30 08:15:03.60	7.97	11.55	-41.0	-49.4	5.7	3.51e-01	0	62	0	639631360	52	10102
2026-01-30 08:15:04.61	7.83	11.49	-41.0	-50.2	5.1	5.04e-01	0	61	0	640679936	52	11123
2026-01-30 08:15:05.62	7.68	11.43	-40.9	-50.9	4.7	8.35e-01	0	61	0	642777088	52	11997
2026-01-30 08:15:06.63	7.54	11.38	-41.2	-51.2	4.6	1.01e+00	0	62	0	644874240	52	12482
2026-01-30 08:15:07.64	7.39	11.32	-40.0	-53.8	3.8	1.14e+00	0	61	104	645922816	52	16715
2026-01-30 08:15:08.65	7.25	11.26	-40.4	-54.0	3.8	1.49e+00	0	62	104	645922816	51	18187
2026-01-30 08:15:09.66	7.10	11.20	-41.2	-54.0	3.8	1.49e+00	0	62	104	645922816	52	17138
2026-01-30 08:15:10.67	6.96	11.14	-41.2	-54.5	3.8	1.49e+00	0	62	104	645922816	54	16171
2026-01-30 08:15:11.68	6.82	11.08	-40.8	-54.5	3.8	1.49e+00	0	62	104	645922816	53	17234
2026-01-30 08:15:12.69	6.68	11.02	-40.6	-54.4	3.8	1.49e+00	0	62	104	645922816	53	16934
2026-01-30 08:15:13.69	6.54	10.96	-40.4	-54.2	3.8	1.49e+00	0	62	104	645922816	52	17650
2026-01-30 08:15:14.70	6.40	10.90	-40.5	-54.3	3.8	1.49e+00	0	62	104	645922816	52	17860
2026-01-30 08:15:15.71	6.26	10.84	-39.9	-54.3	3.8	1.49e+00	0	61	104	645922816	51	18810
2026-01-30 08:15:16.72	6.12	10.78	-39.9	-54.2	3.8	1.49e+00	0	61	104	645922816	51	18725
2026-01-30 08:15:17.73	5.98	10.72	-40.1	-54.4	3.8	1.49e+00	0	62	104	645922816	51	19082
2026-01-30 08:15:18.74	5.84	10.66	-40.4	-54.7	3.8	1.49e+00	0	62	104	645922816	51	19647
2026-01-30 08:15:19.75	5.70	10.60	-39.9	-54.2	3.8	1.49e+00	0	62	104	645922816	51	18711
2026-01-30 08:15:20.76	5.57	10.54	-39.9	-54.2	3.8	1.49e+00	0	62	104	645922816	51	18639
2026-01-30 08:15:21.77	5.43	10.48	-40.0	-54.4	3.8	1.49e+00	0	62	104	645922816	51	18951
2026-01-30 08:15:22.78	5.29	10.42	-40.2	-54.5	3.8	1.49e+00	0	62	104	645922816	51	19278
2026-01-30 08:15:23.79	5.16	10.36	-39.8	-54.2	3.8	1.49e+00	0	62	104	645922816	51	18640
2026-01-30 08:15:24.80	5.02	10.30	-39.8	-54.2	3.8	1.49e+00	0	62	104	645922816	51	18632
2026-01-30 08:15:25.81	4.89	10.24	-39.9	-54.3	3.8	1.49e+00	0	61	104	645922816	51	18795
2026-01-30 08:15:26.82	4.76	10.18	-40.1	-54.4	3.8	1.49e+00	0	61	104	645922816	51	19078
2026-01-30 08:15:27.83	4.62	10.12	-39.8	-54.2	3.8	1.49e+00	0	62	104	645922816	51	18611
2026-01-30 08:15:28.84	4.49	10.06	-39.8	-54.2	3.8	1.49e+00	0	62	104	645922816	51	18729
2026-01-30 08:15:29.85	4.36	10.00	-39.8	-54.2	3.8	1.49e+00	0	62	104	645922816	51	18650
2026-01-30 08:15:30.86	4.23	9.94	-40.0	-54.4	3.8	1.49e+00	0	61	104	645922816	51	18967
2026-01-30 08:15:31.87	4.10	9.88	-39.8	-54.2	3.8	1.49e+00	0	62	104	645922816	51	18636
2026-01-30 08:15:32.88	3.97	9.82	-39.8	-54.2	3.8	1.49e+00	0	62	104	645922816	51	18629
2026-01-30 08:15:33.89	3.84	9.76	-39.8	-54.2	3.8	1.49e+00	0	62	104	645922816	51	18623
2026-01-30 08:15:34.90	3.71	9.70	-39.9	-54.3	3.8	1.49e+00	0	61	104	645922816	51	18830
2026-01-30 08:15:35.91	3.58	9.64	-39.8	-54.2	3.8	1.49e+00	0	62	104	645922816	51	18604
2026-01-30 08:15:36.92	3.45	9.59	-39.8	-54.2	3.8	1.49e+00	0	62	104	645922816	51	18686
2026-01-30 08:15:37.93	3.32	9.53	-39.8	-54.2	3.8	1.49e+00	0	61	104	645922816	51	18586
2026-01-30 08:15:38.94	3.20	9.47	-39.9	-54.2	3.8	1.49e+00	0	62	104	645922816	51	18720
2026-01-30 08:15:39.95	3.07	9.41	-39.8	-54.2	3.8	1.49e+00	0	62	104	645922816	51	18695
2026-01-30 08:15:40.96	2.94	9.35	-39.9	-54.2	3.8	1.49e+00	0	62	104	645922816	51	18717
2026-01-30 08:15:41.97	2.82	9.29	-39.8	-54.2	3.8	1.49e+00	0	62	104	645922816	51	18556
2026-01-30 08:15:42.98	2.69	9.23	-39.8	-54.2	3.8	1.49e+00	0	62	104	645922816	51	18687
2026-01-30 08:15:43.99	2.57	9.17	-39.9	-54.3	3.8	1.49e+00	0	62	104	645922816	51	18740
2026-01-30 08:15:45.01	2.44	9.11	-39.9	-54.3	3.8	1.49e+00	0	61	104	645922816	51	18767
2026-01-30 08:15:46.01	2.32	9.05	-39.8	-54.2	3.8	1.49e+00	0	61	104	645922816	51	18579
2026-01-30 08:15:47.02	2.20	8.99	-39.9	-54.2	3.8	1.49e+00	0	62	104	645922816	51	18718
2026-01-30 08:15:48.03	2.08	8.93	-39.9	-54.3	3.8	1.49e+00	0	62	104	645922816	51	18774
2026-01-30 08:15:49.05	1.95	8.87	-39.8	-54.2	3.8	1.49e+00	0	62	104	645922816	51	18670
2026-01-30 08:15:50.06	1.83	8.81	-39.8	-54.2	3.8	1.49e+00	0	62	104	645922816	51	18556
2026-01-30 08:15:51.07	1.71	8.75	-39.8	-54.3	3.8	1.49e+00	0	62	104	645922816	51	18735
2026-01-30 08:15:52.08	1.59	8.69	-39.9	-54.3	3.8	1.49e+00	0	62	104	645922816	51	18755
2026-01-30 08:15:53.09	1.47	8.63	-39.8	-54.2	3.8	1.49e+00	0	62	104	645922816	51	18702
2026-01-30 08:15:54.10	1.35	8.57	-39.8	-54.2	3.8	1.49e+00	0	62	104	645922816	51	18701
2026-01-30 08:15:55.11	1.23	8.51	-39.8	-54.3	3.8	1.49e+00	0	62	104	645922816	51	18739
2026-01-30 08:15:56.12	1.12	8.45	-39.9	-54.3	3.8	1.49e+00	0	62	104	645922816	51	18764
2026-01-30 08:15:57.13	1.00	8.39	-39.8	-54.2	3.8	1.49e+00	0	62	104	645922816	51	18645
2026-01-30 08:15:58.14	0.88	8.33	-39.8	-54.2	3.8	1.49e+00	0	62	104	645922816	51	18620
2026-01-30 08:15:59.15	0.76	8.27	-39.8	-54.3	3.8	1.49e+00	0	62	104	645922816	51	18738
2026-01-30 08:16:00.16	0.65	8.21	-39.9	-54.3	3.8	1.49e+00	0	62	104	645922816	51	18746
2026-01-30 08:16:01.17	0.53	8.15	-39.8	-54.2	3.8	1.49e+00	0	62	104	645922816	51	18644
2026-01-30 08:16:02.17	0.42	8.09	-39.8	-54.2	3.8	1.49e+00	0	62	104	645922816	51	18595
2026-01-30 08:16:03.19	0.30	8.03	-39.9	-54.3	3.8	1.49e+00	0	62	104	645922816	51	18796
2026-01-30 08:16:04.20	0.19	7.98	-40.2	-54.6	3.8	1.49e+00	0	61	104	645922816	51	19497
2026-01-30 08:16:05.21	0.07	7.92	-44.6	-59.1	3.8	1.49e+00	0	61	104	645922816	59	20769
2026-01-30 08:16:06.22	359.96	7.86	-44.9	-59.6	3.8	1.49e+00	0	62	104	645922816	60	20729
2026-01-30 08:16:07.23	359.85	7.80	-45.0	-59.8	3.8	1.49e+00	0	62	104	645922816	60	21087
2026-01-30 08:16:08.24	359.73	7.74	-45.1	-60.0	3.8	1.49e+00	0	62	104	645922816	60	21511
2026-01-30 08:16:09.25	359.62	7.68	-45.2	-60.0	3.8	1.49e+00	0	61	104	645922816	60	21614
2026-01-30 08:16:10.26	359.51	7.62	-44.4	-60.1	3.8	1.49e+00	0	61	104	645922816	61	20687
2026-01-30 08:16:11.27	359.40	7.56	-45.3	-60.5	3.7	1.49e+00	0	62	104	645922816	60	22872
2026-01-30 08:16:12.28	359.29	7.50	-45.3	-60.1	3.8	1.49e+00	0	62	104	645922816	61	20678
2026-01-30 08:16:13.29	359.18	7.44	-45.3	-60.1	3.8	1.49e+00	0	62	104	645922816	61	20693
2026-01-30 08:16:14.30	359.07	7.38	-45.2	-60.0	3.8	1.49e+00	0	62	104	645922816	61	20530
2026-01-30 08:16:15.31	358.96	7.32	-45.1	-60.0	3.8	1.49e+00	0	62	104	645922816	60	21556
2026-01-30 08:16:16.32	358.85	7.27	-45.1	-60.0	3.8	1.49e+00	0	62	104	645922816	60	21509
2026-01-30 08:16:17.33	358.74	7.21	-45.1	-59.9	3.8	1.49e+00	0	62	104	645922816	60	21405
2026-01-30 08:16:18.34	358.64	7.15	-45.0	-59.9	3.8	1.49e+00	0	62	104	645922816	60	21414
2026-01-30 08:16:19.35	358.53	7.09	-45.0	-59.9	3.8	1.49e+00	0	62	104	645922816	60	21271
2026-01-30 08:16:20.36	358.42	7.03	-45.0	-59.8	3.8	1.49e+00	0	62	104	645922816	60	21155
2026-01-30 08:16:21.37	358.32	6.97	-45.0	-59.8	3.8	1.49e+00	0	62	104	645922816	60	21226
2026-01-30 08:16:22.38	358.21	6.91	-45.0	-59.8	3.8	1.49e+00	0	62	104	645922816	60	21178
2026-01-30 08:16:23.39	358.10	6.85	-45.0	-59.8	3.8	1.49e+00	0	62	104	645922816	60	21182
2026-01-30 08:16:24.40	358.00	6.80	-45.0	-59.8	3.8	1.49e+00	0	62	104	645922816	60	21182
2026-01-30 08:16:25.41	357.89	6.74	-45.0	-59.8	3.8	1.49e+00	0	62	104	645922816	60	21187
2026-01-30 08:16:26.43	357.79	6.68	-45.0	-59.8	3.8	1.49e+00	0	62	104	645922816	60	21228
2026-01-30 08:16:27.44	357.69	6.62	-45.0	-59.8	3.8	1.49e+00	0	62	104	645922816	60	21225
2026-01-30 08:16:28.45	357.58	6.56	-44.9	-59.8	3.8	1.49e+00	0	62	104	645922816	60	21208
2026-01-30 08:16:29.46	357.48	6.50	-45.0	-59.8	3.8	1.49e+00	0	62	104	645922816	60	21138
2026-01-30 08:16:30.47	357.38	6.44	-45.0	-59.8	3.8	1.49e+00	0	62	104	645922816	60	21143
2026-01-30 08:16:31.48	357.27	6.39	-44.9	-59.8	3.8	1.49e+00	0	62	104	645922816	60	21135
2026-01-30 08:16:32.49	357.17	6.33	-44.9	-59.8	3.8	1.49e+00	0	62	104	645922816	60	21171
2026-01-30 08:16:33.50	357.07	6.27	-44.9	-59.8	3.8	1.49e+00	0	62	104	645922816	60	21061
2026-01-30 08:16:34.51	356.97	6.21	-44.9	-59.8	3.8	1.49e+00	0	62	104	645922816	60	21144
2026-01-30 08:16:35.52	356.87	6.15	-44.9	-59.8	3.8	1.49e+00	0	62	104	645922816	60	21145
2026-01-30 08:16:36.53	356.77	6.10	-44.9	-59.8	3.8	1.49e+00	0	62	104	645922816	60	21116
2026-01-30 08:16:37.54	356.67	6.04	-44.9	-59.8	3.8	1.49e+00	0	61	104	645922816	60	21110
2026-01-30 08:16:38.55	356.57	5.98	-44.9	-59.8	3.8	1.49e+00	0	62	104	645922816	60	21060
2026-01-30 08:16:39.56	356.47	5.92	-44.9	-59.8	3.8	1.49e+00	0	62	104	645922816	60	21085
2026-01-30 08:16:40.57	356.37	5.86	-44.9	-59.8	3.8	1.49e+00	0	62	104	645922816	60	21073
2026-01-30 08:16:41.58	356.28	5.81	-44.9	-59.8	3.8	1.49e+00	0	62	104	645922816	60	21056
2026-01-30 08:16:42.59	356.18	5.75	-44.8	-59.7	3.8	1.49e+00	0	62	104	645922816	60	21008
2026-01-30 08:16:43.60	356.08	5.69	-44.6	-59.8	3.8	1.49e+00	0	62	104	645922816	60	21055
2026-01-30 08:16:44.61	355.98	5.63	-44.9	-59.8	3.8	1.49e+00	0	62	104	645922816	60	21073
2026-01-30 08:16:45.62	355.89	5.58	-44.9	-59.8	3.8	1.49e+00	0	62	104	645922816	60	21054
2026-01-30 08:16:46.63	355.79	5.52	-44.9	-59.7	3.8	1.49e+00	0	62	104	645922816	60	20997
2026-01-30 08:16:47.64	355.70	5.46	-44.9	-59.7	3.8	1.49e+00	0	62	104	645922816	60	21000
2026-01-30 08:16:48.65	355.60	5.40	-44.9	-59.7	3.8	1.49e+00	0	62	104	645922816	60	21002
2026-01-30 08:16:49.66	355.51	5.35	-44.9	-59.8	3.8	1.49e+00	0	62	104	645922816	60	21026
2026-01-30 08:16:50.67	355.41	5.29	-44.9	-59.7	3.8	1.49e+00	0	62	104	645922816	60	20990
2026-01-30 08:16:51.68	355.32	5.23	-44.9	-59.8	3.8	1.49e+00	0	62	104	645922816	60	21059
2026-01-30 08:16:52.69	355.22	5.17	-44.9	-59.8	3.8	1.49e+00	0	62	104	645922816	60	21028
2026-01-30 08:16:53.70	355.13	5.12	-44.9	-59.8	3.8	1.49e+00	0	62	104	645922816	60	21053
2026-01-30 08:16:54.71	355.04	5.06	-44.3	-59.4	3.8	1.49e+00	0	62	104	645922816	59	21367
2026-01-30 08:16:55.72	354.95	5.00	-44.9	-59.8	3.8	1.49e+00	0	62	104	645922816	60	21036
2026-01-30 08:16:56.73	354.85	4.94	-44.9	-59.8	3.8	1.49e+00	0	62	104	645922816	60	21039
2026-01-30 08:16:57.74	354.76	4.89	-44.9	-59.7	3.8	1.49e+00	0	62	104	645922816	60	21009
2026-01-30 08:16:58.75	354.67	4.83	-44.6	-59.7	3.8	1.49e+00	0	62	104	645922816	60	21008
2026-01-30 08:16:59.76	354.58	4.77	-44.9	-59.7	3.8	1.49e+00	0	62	104	645922816	60	21001
2026-01-30 08:17:00.77	354.49	4.72	-44.9	-59.7	3.8	1.49e+00	0	62	104	645922816	60	20965
2026-01-30 08:17:01.78	354.40	4.66	-44.6	-59.7	3.8	1.49e+00	0	62	104	645922816	60	20978
2026-01-30 08:17:02.79	354.31	4.60	-44.8	-59.8	3.8	1.49e+00	0	62	104	645922816	60	21140
2026-01-30 08:17:03.80	354.22	4.55	-44.9	-59.7	3.8	1.49e+00	0	62	104	645922816	60	21007
2026-01-30 08:17:04.81	354.13	4.49	-44.2	-59.7	3.8	1.49e+00	0	62	104	645922816	60	20970
2026-01-30 08:17:05.82	354.04	4.43	-44.8	-59.7	3.8	1.49e+00	0	62	104	645922816	60	20941
2026-01-30 08:17:06.83	353.95	4.38	-44.0	-59.4	3.8	1.49e+00	0	62	104	645922816	59	21327
2026-01-30 08:17:07.84	353.86	4.32	-44.6	-59.6	3.8	1.49e+00	0	62	104	645922816	59	21942
2026-01-30 08:17:08.85	353.78	4.26	-44.8	-59.7	3.8	1.49e+00	0	62	104	645922816	60	20984
2026-01-30 08:17:09.86	353.69	4.21	-44.9	-59.7	3.8	1.49e+00	0	62	104	645922816	60	20955
2026-01-30 08:17:10.87	353.60	4.15	-44.7	-59.7	3.8	1.49e+00	0	62	104	645922816	60	20990
2026-01-30 08:17:11.88	353.52	4.09	-44.9	-59.7	3.8	1.49e+00	0	62	104	645922816	60	20919
2026-01-30 08:17:12.89	353.43	4.04	-44.9	-59.7	3.8	1.49e+00	0	62	104	645922816	60	21015
2026-01-30 08:17:13.90	353.34	3.98	-44.9	-59.9	3.8	1.49e+00	0	62	104	645922816	60	21263
2026-01-30 08:17:14.91	353.26	3.93	-44.9	-59.7	3.8	1.49e+00	0	62	104	645922816	60	20956
2026-01-30 08:17:15.92	353.17	3.87	-44.7	-59.8	3.8	1.49e+00	0	62	104	645922816	60	21133
2026-01-30 08:17:16.93	353.09	3.81	-44.9	-59.8	3.8	1.49e+00	0	62	104	645922816	60	21022
2026-01-30 08:17:17.94	353.00	3.76	-44.9	-59.7	3.8	1.49e+00	0	62	104	645922816	60	20956
2026-01-30 08:17:18.95	352.92	3.70	-44.9	-59.7	3.8	1.49e+00	0	62	104	645922816	60	20979
2026-01-30 08:17:19.96	352.83	3.65	-44.9	-59.8	3.8	1.49e+00	0	62	104	645922816	60	21047
2026-01-30 08:17:20.97	352.75	3.59	-44.9	-59.7	3.8	1.49e+00	0	62	104	645922816	60	20965
2026-01-30 08:17:21.98	352.67	3.54	-44.9	-59.7	3.8	1.49e+00	0	62	104	645922816	60	20974
2026-01-30 08:17:22.99	352.58	3.48	-44.9	-59.7	3.8	1.49e+00	0	62	104	645922816	60	20966
2026-01-30 08:17:24.00	352.50	3.42	-44.9	-59.7	3.8	1.49e+00	0	62	104	645922816	60	20978
2026-01-30 08:17:25.02	352.42	3.37	-44.9	-59.7	3.8	1.49e+00	0	62	104	645922816	60	20918
2026-01-30 08:17:26.03	352.34	3.31	-44.9	-59.7	3.8	1.49e+00	0	62	104	645922816	60	20991
2026-01-30 08:17:27.04	352.26	3.26	-44.8	-59.6	3.8	1.49e+00	0	62	104	645922816	59	21792
2026-01-30 08:17:28.05	352.17	3.20	-44.9	-59.8	3.8	1.49e+00	0	62	104	645922816	60	21018
2026-01-30 08:17:29.06	352.09	3.15	-44.9	-59.7	3.8	1.49e+00	0	62	104	645922816	60	20934
2026-01-30 08:17:30.07	352.01	3.09	-44.6	-59.7	3.8	1.49e+00	0	62	104	645922816	60	20993
2026-01-30 08:17:31.08	351.93	3.04	-44.9	-59.7	3.8	1.49e+00	0	62	104	645922816	60	20947
2026-01-30 08:17:32.09	351.85	2.98	-44.9	-59.7	3.8	1.49e+00	0	62	104	645922816	60	20994
2026-01-30 08:17:33.10	351.77	2.93	-44.9	-59.7	3.8	1.49e+00	0	62	104	645922816	60	20941
2026-01-30 08:17:34.11	351.69	2.87	-44.9	-59.7	3.8	1.49e+00	0	62	104	645922816	60	20973
2026-01-30 08:17:35.12	351.61	2.82	-44.9	-59.7	3.8	1.49e+00	0	62	104	645922816	60	20985
2026-01-30 08:17:36.14	351.53	2.76	-44.9	-59.7	3.8	1.49e+00	0	62	104	645922816	60	21006
2026-01-30 08:17:37.15	351.46	2.70	-44.9	-59.7	3.8	1.49e+00	0	62	104	645922816	60	20920
2026-01-30 08:17:38.16	351.38	2.65	-44.9	-59.7	3.8	1.49e+00	0	62	104	645922816	60	21016
2026-01-30 08:17:39.17	351.30	2.60	-44.3	-59.5	3.8	1.49e+00	0	62	104	645922816	59	21711
2026-01-30 08:17:40.18	351.22	2.54	-44.9	-59.8	3.8	1.49e+00	0	62	104	645922816	60	21047
2026-01-30 08:17:41.19	351.14	2.49	-44.9	-59.7	3.8	1.49e+00	0	62	104	645922816	60	21010
2026-01-30 08:17:42.20	351.07	2.43	-44.9	-59.7	3.8	1.49e+00	0	62	104	645922816	60	20902
2026-01-30 08:17:43.21	350.99	2.38	-44.9	-59.8	3.8	1.49e+00	0	62	104	645922816	60	21040
