passes_logs/2026/01/30/R2.0S_Moscow/R2.0S_Moscow__20260130_003131_AQUA_rec.log

#Pass ID: 20260130_003131_AQUA
#Satellite: AQUA
#Configuration: AQUA
#almurnet v.1.7.20251203
#Start time: 2026-01-30 00:31:33

#Version: 2.2.20231116
#Station: R2.0S_Moscow
#Location: 37.707566 lon 55.798166 lat
#TLE: 1 27424U 02022A   26028.91948147  .00001781  00000+0  36607-3 0  9997
#TLE: 2 27424  98.4103 355.5827 0001815  62.4290   1.4641 14.61871847262923

#Time	Az	El	Level	Level2	SNR	BER	BlckErr	Temp	State	Recorded	gain1	gain2
2026-01-30 00:31:33.08	21.84	2.11	-43.3	-62.3	3.8	7.45e-01	0	54	0	0	58	31449
2026-01-30 00:31:34.08	21.89	2.17	-43.3	-62.2	3.8	7.43e-01	0	54	104	0	57	33256
2026-01-30 00:31:35.10	21.94	2.23	-43.3	-62.3	3.8	7.45e-01	0	54	104	0	57	33354
2026-01-30 00:31:36.11	21.99	2.30	-43.3	-62.2	3.8	7.47e-01	0	54	104	0	57	33298
2026-01-30 00:31:37.12	22.05	2.36	-43.3	-62.2	3.8	7.46e-01	0	54	104	0	57	33209
2026-01-30 00:31:38.13	22.10	2.43	-43.3	-62.2	3.8	7.45e-01	0	54	104	0	57	33219
2026-01-30 00:31:39.14	22.15	2.49	-43.3	-62.3	3.8	7.46e-01	0	54	104	0	57	33324
2026-01-30 00:31:40.15	22.20	2.55	-43.3	-62.2	3.8	7.47e-01	0	54	104	0	57	33309
2026-01-30 00:31:41.16	22.26	2.62	-43.3	-62.2	3.8	7.45e-01	0	55	104	0	57	33219
2026-01-30 00:31:42.17	22.31	2.68	-43.3	-62.2	3.8	7.47e-01	0	55	104	0	57	33268
2026-01-30 00:31:43.18	22.36	2.75	-43.3	-62.2	3.8	7.46e-01	0	55	104	0	57	33276
2026-01-30 00:31:44.19	22.42	2.81	-43.3	-62.2	3.8	7.45e-01	0	55	104	0	57	33215
2026-01-30 00:31:45.20	22.47	2.88	-43.3	-62.3	3.8	7.47e-01	0	55	104	0	57	33322
2026-01-30 00:31:46.21	22.53	2.94	-43.3	-62.2	3.8	7.42e-01	0	55	104	0	57	33275
2026-01-30 00:31:47.22	22.58	3.01	-43.3	-62.3	3.8	7.43e-01	0	55	104	0	57	33345
2026-01-30 00:31:48.23	22.63	3.07	-43.3	-62.2	3.8	7.47e-01	0	55	104	0	57	33204
2026-01-30 00:31:49.24	22.69	3.14	-43.3	-62.2	3.8	7.43e-01	0	55	104	0	57	33209
2026-01-30 00:31:50.25	22.74	3.20	-43.3	-62.2	3.8	7.44e-01	0	55	104	0	57	33246
2026-01-30 00:31:51.26	22.80	3.27	-43.3	-62.2	3.8	7.46e-01	0	55	104	0	57	33202
2026-01-30 00:31:52.27	22.86	3.33	-43.3	-62.2	3.8	7.42e-01	0	55	104	0	57	33226
2026-01-30 00:31:53.28	22.91	3.40	-43.3	-62.2	3.8	7.48e-01	0	55	104	0	57	33250
2026-01-30 00:31:54.29	22.97	3.47	-43.3	-62.2	3.8	7.45e-01	0	55	104	0	57	33197
2026-01-30 00:31:55.30	23.02	3.53	-43.3	-62.2	3.8	7.47e-01	0	55	104	0	57	33231
2026-01-30 00:31:56.31	23.08	3.60	-43.3	-62.2	3.8	7.47e-01	0	55	104	0	57	33266
2026-01-30 00:31:57.32	23.14	3.67	-43.3	-62.2	3.8	7.45e-01	0	55	104	0	57	33173
2026-01-30 00:31:58.33	23.19	3.73	-43.3	-62.2	3.8	7.43e-01	0	56	104	0	57	33160
2026-01-30 00:31:59.34	23.25	3.80	-43.3	-62.2	3.8	7.45e-01	0	55	104	0	57	33221
2026-01-30 00:32:00.35	23.31	3.87	-43.3	-62.2	3.8	7.44e-01	0	56	104	0	57	33233
2026-01-30 00:32:01.36	23.37	3.94	-43.3	-62.2	3.8	7.45e-01	0	56	104	0	57	33178
2026-01-30 00:32:02.37	23.43	4.00	-43.3	-62.2	3.8	7.46e-01	0	56	104	0	57	33233
2026-01-30 00:32:03.38	23.48	4.07	-43.3	-62.2	3.8	7.41e-01	0	56	104	0	57	33146
2026-01-30 00:32:04.39	23.54	4.14	-43.3	-62.2	3.8	7.46e-01	0	56	104	0	57	33109
2026-01-30 00:32:05.40	23.60	4.21	-43.3	-62.2	3.8	7.42e-01	0	56	104	0	57	33171
2026-01-30 00:32:06.42	23.66	4.28	-43.3	-62.2	3.8	7.50e-01	0	56	104	0	57	33172
2026-01-30 00:32:07.43	23.72	4.34	-43.3	-62.2	3.8	7.43e-01	0	56	104	0	57	33184
2026-01-30 00:32:08.44	23.78	4.41	-43.3	-62.2	3.8	7.43e-01	0	56	104	0	57	33218
2026-01-30 00:32:09.45	23.84	4.48	-43.3	-62.2	3.8	7.48e-01	0	56	104	0	57	33188
2026-01-30 00:32:10.46	23.90	4.55	-43.3	-62.2	3.8	7.42e-01	0	56	104	0	57	33148
2026-01-30 00:32:11.47	23.96	4.62	-43.3	-62.2	3.8	7.45e-01	0	56	104	0	57	33232
2026-01-30 00:32:12.48	24.02	4.69	-43.3	-62.2	3.8	7.43e-01	0	56	104	0	57	33180
2026-01-30 00:32:13.49	24.08	4.76	-43.3	-62.2	3.8	7.42e-01	0	56	104	0	57	33167
2026-01-30 00:32:14.50	24.15	4.83	-43.3	-62.2	3.8	7.45e-01	0	56	104	0	57	33072
2026-01-30 00:32:15.51	24.21	4.90	-43.3	-62.2	3.8	7.48e-01	0	56	104	0	57	33143
2026-01-30 00:32:16.52	24.27	4.97	-43.3	-62.2	3.8	7.44e-01	0	56	104	0	57	33145
2026-01-30 00:32:17.53	24.33	5.04	-43.3	-62.2	3.8	7.44e-01	0	56	104	0	57	33198
2026-01-30 00:32:18.54	24.40	5.11	-43.3	-62.2	3.8	7.43e-01	0	56	104	0	57	33138
2026-01-30 00:32:19.56	24.46	5.18	-43.3	-62.2	3.8	7.45e-01	0	56	104	0	57	33099
2026-01-30 00:32:20.57	24.52	5.25	-43.3	-62.2	3.8	7.47e-01	0	56	104	0	57	32932
2026-01-30 00:32:21.57	24.59	5.32	-43.3	-62.2	3.8	7.44e-01	0	56	104	0	57	33047
2026-01-30 00:32:22.58	24.65	5.39	-43.3	-62.2	3.8	7.45e-01	0	56	104	0	57	33066
2026-01-30 00:32:23.59	24.71	5.46	-43.3	-62.2	3.8	7.45e-01	0	56	104	0	57	33161
2026-01-30 00:32:24.60	24.78	5.53	-43.3	-62.2	3.8	7.44e-01	0	57	104	0	57	33121
2026-01-30 00:32:25.62	24.85	5.61	-43.3	-62.2	3.8	7.45e-01	0	57	104	0	57	33182
2026-01-30 00:32:26.63	24.91	5.68	-43.2	-62.1	3.8	7.47e-01	0	56	104	0	57	32854
2026-01-30 00:32:27.64	24.98	5.75	-43.2	-62.2	3.8	7.48e-01	0	57	104	0	57	33100
2026-01-30 00:32:28.65	25.04	5.82	-43.2	-62.2	3.8	7.46e-01	0	57	104	0	57	33099
2026-01-30 00:32:29.66	25.11	5.89	-43.2	-62.2	3.8	7.49e-01	0	57	104	0	57	33027
2026-01-30 00:32:30.67	25.18	5.97	-43.1	-62.1	3.8	7.42e-01	0	57	104	0	57	32889
2026-01-30 00:32:31.68	25.24	6.04	-43.1	-62.1	3.8	7.46e-01	0	57	104	0	57	32810
2026-01-30 00:32:32.69	25.31	6.11	-43.1	-62.2	3.8	7.45e-01	0	57	104	0	57	33096
2026-01-30 00:32:33.70	25.38	6.19	-43.0	-62.2	3.8	7.47e-01	0	57	104	0	57	33100
2026-01-30 00:32:34.71	25.45	6.26	-43.0	-62.2	3.8	7.47e-01	0	57	104	0	57	33025
2026-01-30 00:32:35.72	25.51	6.33	-42.9	-62.1	3.8	7.43e-01	0	57	104	0	57	32823
2026-01-30 00:32:36.73	25.58	6.41	-43.0	-62.1	3.8	7.47e-01	0	57	104	0	57	32831
2026-01-30 00:32:37.74	25.65	6.48	-42.7	-62.2	3.8	7.43e-01	0	57	104	0	57	33000
2026-01-30 00:32:38.75	25.72	6.56	-42.8	-62.2	3.8	7.48e-01	0	57	104	0	57	33004
2026-01-30 00:32:39.76	25.79	6.63	-42.7	-62.2	3.8	7.46e-01	0	57	104	0	57	32964
2026-01-30 00:32:40.77	25.86	6.70	-42.5	-61.9	3.8	7.46e-01	0	57	104	0	56	33743
2026-01-30 00:32:41.78	25.93	6.78	-42.4	-62.1	3.8	7.45e-01	0	57	104	0	56	34728
2026-01-30 00:32:42.79	26.00	6.85	-42.4	-61.5	3.8	7.44e-01	0	57	104	0	56	32346
2026-01-30 00:32:43.80	26.07	6.93	-42.6	-61.6	3.8	7.46e-01	0	57	104	0	56	32644
2026-01-30 00:32:44.81	26.15	7.01	-42.5	-60.9	3.8	7.46e-01	0	57	104	0	56	30350
2026-01-30 00:32:45.82	26.22	7.08	-42.4	-60.6	3.9	7.47e-01	0	57	104	0	56	29122
2026-01-30 00:32:46.83	26.29	7.16	-42.4	-59.9	3.9	7.43e-01	0	57	104	0	56	26917
2026-01-30 00:32:47.84	26.36	7.23	-42.4	-59.8	3.8	7.42e-01	0	57	104	0	56	26619
2026-01-30 00:32:48.85	26.44	7.31	-42.5	-59.5	3.9	7.42e-01	0	57	104	0	56	25816
2026-01-30 00:32:49.86	26.51	7.39	-42.6	-59.0	3.9	7.45e-01	0	57	104	0	56	24250
2026-01-30 00:32:50.87	26.58	7.46	-42.6	-56.9	4.9	7.15e-01	0	57	104	0	56	19045
2026-01-30 00:32:51.88	26.66	7.54	-42.6	-55.8	5.5	6.99e-01	13	57	0	0	56	16720
2026-01-30 00:32:52.89	26.73	7.62	-42.4	-53.1	7.8	6.49e-01	92	57	0	1572864	56	12353
2026-01-30 00:32:53.90	26.81	7.70	-42.4	-51.6	9.3	6.25e-01	0	58	0	3670016	56	10316
2026-01-30 00:32:54.92	26.88	7.77	-42.2	-49.9	11.1	6.10e-01	0	57	0	5242880	56	8495
2026-01-30 00:32:55.93	26.96	7.85	-42.1	-49.1	12.0	6.06e-01	0	57	0	7340032	56	7760
2026-01-30 00:32:56.94	27.04	7.93	-41.7	-47.9	13.1	6.03e-01	0	58	0	9437184	55	7191
2026-01-30 00:32:57.95	27.11	8.01	-41.4	-47.0	14.1	6.03e-01	0	58	0	11010048	54	6838
2026-01-30 00:32:58.96	27.19	8.09	-43.1	-49.2	13.5	6.03e-01	0	58	0	13107200	56	7811
2026-01-30 00:32:59.97	27.27	8.17	-43.1	-50.0	12.3	6.06e-01	0	58	0	14680064	56	8624
2026-01-30 00:33:00.98	27.35	8.25	-42.3	-51.8	8.8	6.34e-01	1	58	0	16777216	56	10573
2026-01-30 00:33:01.98	27.43	8.32	-42.3	-51.0	9.8	6.22e-01	0	58	0	18874368	56	9643
2026-01-30 00:33:03.00	27.51	8.40	-42.5	-47.5	15.1	6.01e-01	0	58	0	20447232	56	6482
2026-01-30 00:33:04.01	27.58	8.48	-42.4	-47.3	15.1	6.04e-01	0	58	0	22544384	56	6314
2026-01-30 00:33:05.02	27.66	8.56	-42.5	-47.5	15.0	6.02e-01	0	58	0	24117248	56	6459
2026-01-30 00:33:06.03	27.74	8.64	-42.3	-47.1	15.5	6.05e-01	0	58	0	26214400	56	6159
2026-01-30 00:33:07.04	27.83	8.73	-42.4	-47.4	15.2	6.01e-01	0	58	0	28311552	56	6352
2026-01-30 00:33:08.05	27.91	8.81	-42.5	-47.3	15.4	6.04e-01	0	58	0	29884416	56	6334
2026-01-30 00:33:09.06	27.99	8.89	-42.4	-47.0	15.7	6.03e-01	0	58	0	31981568	56	6126
2026-01-30 00:33:10.07	28.07	8.97	-42.5	-47.2	15.3	6.01e-01	0	58	0	34078720	56	6267
2026-01-30 00:33:11.08	28.15	9.05	-42.4	-47.0	15.8	6.02e-01	0	58	0	35651584	56	6089
2026-01-30 00:33:12.09	28.24	9.13	-42.6	-47.4	15.4	6.02e-01	0	58	0	37748736	56	6384
2026-01-30 00:33:13.09	28.32	9.21	-42.6	-47.3	15.6	5.99e-01	0	58	0	39321600	56	6282
2026-01-30 00:33:14.11	28.40	9.30	-42.6	-47.3	15.6	6.03e-01	0	58	0	41418752	56	6341
2026-01-30 00:33:15.12	28.49	9.38	-42.6	-47.3	15.7	6.00e-01	0	58	0	43515904	56	6304
2026-01-30 00:33:16.13	28.57	9.46	-42.6	-47.1	15.8	6.00e-01	0	58	0	45088768	56	6191
2026-01-30 00:33:17.14	28.66	9.55	-42.5	-46.9	16.0	6.04e-01	0	58	0	47185920	56	6052
2026-01-30 00:33:18.15	28.75	9.63	-42.5	-46.9	16.0	6.03e-01	0	58	0	48758784	56	6041
2026-01-30 00:33:19.16	28.83	9.71	-42.4	-46.7	16.3	6.01e-01	0	58	0	50855936	56	5918
2026-01-30 00:33:20.17	28.92	9.80	-42.4	-46.8	16.2	6.02e-01	0	58	0	52953088	56	5949
2026-01-30 00:33:21.18	29.01	9.88	-42.4	-46.7	16.4	6.03e-01	0	58	0	54525952	56	5877
2026-01-30 00:33:22.19	29.10	9.96	-42.5	-46.8	16.3	5.99e-01	0	58	0	56623104	56	5979
2026-01-30 00:33:23.20	29.19	10.05	-42.4	-46.7	16.4	6.01e-01	0	58	0	58720256	56	5884
2026-01-30 00:33:24.20	29.27	10.13	-42.4	-46.7	16.4	6.01e-01	0	58	0	60293120	56	5878
2026-01-30 00:33:25.21	29.36	10.22	-42.4	-46.6	16.5	6.03e-01	0	58	0	62390272	56	5840
2026-01-30 00:33:26.22	29.45	10.30	-42.4	-46.7	16.4	6.02e-01	0	58	0	63963136	56	5898
2026-01-30 00:33:27.23	29.54	10.39	-42.5	-46.7	16.4	6.02e-01	0	58	0	66060288	56	5918
2026-01-30 00:33:28.24	29.64	10.48	-42.4	-46.5	16.6	6.01e-01	0	58	0	68157440	56	5764
2026-01-30 00:33:29.25	29.73	10.56	-42.4	-46.5	16.7	6.00e-01	0	58	0	69730304	56	5785
2026-01-30 00:33:30.26	29.82	10.65	-42.4	-46.6	16.6	6.03e-01	0	59	0	71827456	56	5818
2026-01-30 00:33:31.27	29.91	10.74	-42.4	-46.6	16.7	6.02e-01	0	58	0	73400320	56	5804
2026-01-30 00:33:32.28	30.01	10.82	-42.4	-46.4	16.8	6.02e-01	0	58	0	75497472	56	5722
2026-01-30 00:33:33.29	30.10	10.91	-42.4	-46.4	16.9	6.01e-01	0	58	0	77594624	56	5679
2026-01-30 00:33:34.30	30.20	11.00	-42.3	-46.4	16.9	6.02e-01	0	59	0	79167488	56	5660
2026-01-30 00:33:35.31	30.29	11.09	-42.4	-46.4	16.9	6.01e-01	0	58	0	81264640	56	5704
2026-01-30 00:33:36.32	30.39	11.18	-42.4	-46.4	16.8	6.01e-01	0	58	0	82837504	56	5686
2026-01-30 00:33:37.33	30.48	11.26	-42.3	-46.3	17.1	6.02e-01	0	58	0	84934656	56	5617
2026-01-30 00:33:38.34	30.58	11.35	-42.4	-46.3	17.0	6.03e-01	0	58	0	87031808	56	5642
2026-01-30 00:33:39.35	30.68	11.44	-42.5	-46.5	16.8	6.02e-01	0	59	0	88604672	56	5777
2026-01-30 00:33:40.36	30.78	11.53	-42.4	-46.4	16.9	6.03e-01	0	59	0	90701824	56	5717
2026-01-30 00:33:41.37	30.88	11.62	-42.4	-46.4	16.9	6.03e-01	0	59	0	92274688	56	5697
2026-01-30 00:33:42.38	30.98	11.71	-42.4	-46.4	16.9	6.01e-01	0	58	0	94371840	56	5709
2026-01-30 00:33:43.39	31.08	11.80	-42.4	-46.3	17.0	6.01e-01	0	59	0	96468992	56	5630
2026-01-30 00:33:44.40	31.18	11.89	-42.4	-46.3	17.1	6.03e-01	0	59	0	98041856	56	5645
2026-01-30 00:33:45.41	31.28	11.98	-42.3	-46.2	17.2	6.02e-01	0	59	0	100139008	56	5583
2026-01-30 00:33:46.42	31.38	12.08	-42.3	-46.1	17.3	6.01e-01	0	59	0	102236160	56	5504
2026-01-30 00:33:47.43	31.48	12.17	-42.3	-46.1	17.2	5.97e-01	0	59	0	103809024	56	5504
2026-01-30 00:33:48.44	31.59	12.26	-42.2	-46.0	17.4	6.00e-01	0	59	0	105906176	56	5439
2026-01-30 00:33:49.45	31.69	12.35	-42.2	-46.0	17.4	6.02e-01	0	59	0	107479040	56	5453
2026-01-30 00:33:50.46	31.80	12.44	-42.2	-46.0	17.4	6.02e-01	0	59	0	109576192	56	5421
2026-01-30 00:33:51.47	31.90	12.54	-42.3	-46.0	17.4	6.01e-01	0	59	0	111673344	56	5464
2026-01-30 00:33:52.48	32.01	12.63	-42.2	-46.0	17.5	6.03e-01	0	59	0	113246208	56	5407
2026-01-30 00:33:53.50	32.12	12.72	-42.2	-45.9	17.5	6.00e-01	0	59	0	115343360	56	5401
2026-01-30 00:33:54.51	32.23	12.82	-42.3	-46.1	17.4	6.01e-01	0	59	0	116916224	56	5473
2026-01-30 00:33:55.52	32.33	12.91	-42.2	-45.9	17.5	6.02e-01	0	59	0	119013376	56	5396
2026-01-30 00:33:56.53	32.44	13.01	-42.3	-46.1	17.4	6.00e-01	0	59	0	121110528	56	5478
2026-01-30 00:33:57.54	32.55	13.10	-42.3	-46.1	17.4	6.02e-01	0	59	0	122683392	56	5501
2026-01-30 00:33:58.55	32.66	13.20	-42.3	-46.1	17.3	6.01e-01	0	59	0	124780544	56	5509
2026-01-30 00:33:59.56	32.77	13.29	-42.3	-46.1	17.3	6.02e-01	0	59	0	126877696	56	5483
2026-01-30 00:34:00.57	32.89	13.39	-42.3	-46.1	17.4	6.02e-01	0	59	0	128450560	56	5467
2026-01-30 00:34:01.58	33.00	13.48	-42.4	-46.2	17.3	6.03e-01	0	59	0	130547712	56	5548
2026-01-30 00:34:02.59	33.11	13.58	-42.3	-46.1	17.4	6.03e-01	0	59	0	132120576	56	5502
2026-01-30 00:34:03.60	33.23	13.68	-42.3	-46.0	17.5	6.03e-01	0	59	0	134217728	56	5434
2026-01-30 00:34:04.61	33.34	13.77	-42.2	-46.0	17.5	6.02e-01	0	59	0	136314880	56	5408
2026-01-30 00:34:05.62	33.46	13.87	-42.2	-45.9	17.6	6.04e-01	0	59	0	137887744	56	5372
2026-01-30 00:34:06.63	33.58	13.97	-42.2	-45.9	17.6	6.01e-01	0	59	0	139984896	56	5394
2026-01-30 00:34:07.64	33.69	14.07	-42.1	-45.7	17.8	6.05e-01	0	59	0	142082048	56	5239
2026-01-30 00:34:08.65	33.81	14.17	-42.2	-45.9	17.6	6.03e-01	0	59	0	143654912	56	5359
2026-01-30 00:34:09.66	33.93	14.27	-42.2	-45.8	17.7	6.01e-01	0	59	0	145752064	56	5315
2026-01-30 00:34:10.67	34.05	14.36	-42.2	-45.8	17.7	6.04e-01	0	59	0	147324928	56	5317
2026-01-30 00:34:11.68	34.17	14.46	-42.1	-45.7	17.8	6.02e-01	0	59	0	149422080	56	5269
2026-01-30 00:34:12.69	34.29	14.56	-42.1	-45.7	17.9	6.03e-01	0	59	0	151519232	56	5248
2026-01-30 00:34:13.70	34.41	14.66	-42.1	-45.7	17.9	6.01e-01	0	59	0	153092096	56	5228
2026-01-30 00:34:14.71	34.54	14.76	-42.1	-45.7	17.9	6.01e-01	0	59	0	155189248	56	5225
2026-01-30 00:34:15.72	34.66	14.87	-42.1	-45.6	18.0	6.05e-01	0	59	0	156762112	56	5213
2026-01-30 00:34:16.73	34.79	14.97	-42.1	-45.7	17.9	6.01e-01	0	59	0	158859264	56	5251
2026-01-30 00:34:17.74	34.91	15.07	-42.1	-45.6	17.9	6.02e-01	0	59	0	160956416	56	5200
2026-01-30 00:34:18.75	35.04	15.17	-42.2	-45.8	17.8	6.02e-01	0	59	0	162529280	56	5303
2026-01-30 00:34:19.76	35.17	15.27	-42.2	-45.7	17.9	6.01e-01	0	59	0	164626432	56	5268
2026-01-30 00:34:20.77	35.30	15.38	-42.1	-45.7	18.0	6.02e-01	0	59	0	166199296	56	5223
2026-01-30 00:34:21.78	35.43	15.48	-42.2	-45.8	17.9	6.03e-01	0	59	0	168296448	56	5298
2026-01-30 00:34:22.79	35.56	15.58	-42.2	-45.7	17.9	6.03e-01	0	59	0	170393600	56	5276
2026-01-30 00:34:23.79	35.69	15.68	-42.1	-45.7	18.0	6.02e-01	0	59	0	171966464	56	5230
2026-01-30 00:34:24.80	35.82	15.79	-42.2	-45.7	17.9	6.02e-01	0	59	0	174063616	56	5247
2026-01-30 00:34:25.82	35.95	15.89	-42.2	-45.8	17.9	6.05e-01	0	59	0	175636480	56	5308
2026-01-30 00:34:26.82	36.09	16.00	-42.2	-45.7	17.9	6.02e-01	0	59	0	177733632	56	5269
2026-01-30 00:34:27.84	36.22	16.10	-42.1	-45.6	18.0	6.01e-01	0	59	0	179830784	56	5186
2026-01-30 00:34:28.85	36.36	16.21	-42.1	-45.6	18.1	6.03e-01	0	59	0	181403648	56	5160
2026-01-30 00:34:29.86	36.50	16.32	-42.1	-45.6	18.1	6.02e-01	0	59	0	183500800	56	5177
2026-01-30 00:34:30.87	36.63	16.42	-42.1	-45.5	18.2	6.02e-01	0	59	0	185073664	56	5128
2026-01-30 00:34:31.88	36.77	16.53	-42.1	-45.5	18.2	6.02e-01	0	59	0	187170816	56	5148
2026-01-30 00:34:32.89	36.91	16.64	-42.1	-45.5	18.1	6.02e-01	0	59	0	189267968	56	5149
2026-01-30 00:34:33.90	37.05	16.74	-42.1	-45.5	18.1	6.02e-01	0	59	0	190840832	56	5156
2026-01-30 00:34:34.91	37.20	16.85	-42.2	-45.7	18.0	6.03e-01	0	59	0	192937984	56	5268
2026-01-30 00:34:35.92	37.34	16.96	-42.2	-45.7	18.1	6.04e-01	0	59	0	195035136	56	5235
2026-01-30 00:34:36.93	37.48	17.07	-42.2	-45.7	17.9	6.02e-01	0	59	0	196608000	56	5262
2026-01-30 00:34:37.94	37.63	17.18	-42.3	-45.9	17.8	6.02e-01	0	59	0	198705152	56	5345
2026-01-30 00:34:38.95	37.78	17.29	-42.3	-45.8	18.0	6.01e-01	0	60	0	200278016	56	5286
2026-01-30 00:34:39.96	37.92	17.40	-42.3	-45.8	17.9	5.98e-01	0	60	0	202375168	56	5302
2026-01-30 00:34:40.97	38.07	17.51	-42.4	-46.0	17.8	6.05e-01	0	60	0	204472320	56	5419
2026-01-30 00:34:41.98	38.22	17.62	-42.2	-45.7	18.1	6.02e-01	0	59	0	206045184	56	5229
2026-01-30 00:34:42.99	38.37	17.73	-42.3	-45.8	17.9	6.05e-01	0	59	0	208142336	56	5321
2026-01-30 00:34:44.00	38.53	17.84	-42.3	-45.8	18.0	6.02e-01	0	59	0	210239488	56	5282
2026-01-30 00:34:45.01	38.68	17.95	-42.3	-45.9	17.9	6.02e-01	0	59	0	211812352	56	5345
2026-01-30 00:34:46.02	38.83	18.06	-42.3	-45.8	17.9	6.01e-01	0	59	0	213909504	56	5325
2026-01-30 00:34:47.03	38.99	18.17	-42.2	-45.7	18.1	6.03e-01	0	60	0	215482368	56	5243
2026-01-30 00:34:48.04	39.15	18.29	-42.3	-45.7	18.0	6.00e-01	0	59	0	217579520	56	5267
2026-01-30 00:34:49.05	39.30	18.40	-42.3	-45.7	18.0	6.03e-01	0	60	0	219676672	56	5276
2026-01-30 00:34:50.06	39.46	18.51	-42.2	-45.6	18.1	6.00e-01	0	60	0	221249536	56	5215
2026-01-30 00:34:51.07	39.62	18.63	-42.2	-45.7	18.1	6.00e-01	0	60	0	223346688	56	5239
2026-01-30 00:34:52.08	39.79	18.74	-42.2	-45.6	18.2	6.00e-01	0	60	0	224919552	56	5197
2026-01-30 00:34:53.09	39.95	18.85	-42.2	-45.6	18.1	6.01e-01	0	59	0	227016704	56	5216
2026-01-30 00:34:54.10	40.11	18.97	-42.2	-45.6	18.2	6.02e-01	0	59	0	229113856	56	5179
2026-01-30 00:34:55.11	40.28	19.08	-42.1	-45.6	18.2	6.02e-01	0	59	0	230686720	56	5172
2026-01-30 00:34:56.12	40.45	19.20	-42.2	-45.7	18.1	6.01e-01	0	59	0	232783872	56	5230
2026-01-30 00:34:57.13	40.61	19.32	-42.2	-45.6	18.1	6.02e-01	0	59	0	234356736	56	5217
2026-01-30 00:34:58.14	40.78	19.43	-42.2	-45.6	18.2	6.00e-01	0	60	0	236453888	56	5206
2026-01-30 00:34:59.15	40.95	19.55	-42.2	-45.6	18.2	6.02e-01	0	60	0	238551040	56	5177
2026-01-30 00:35:00.16	41.13	19.67	-42.2	-45.7	18.1	6.02e-01	0	60	0	240123904	56	5225
2026-01-30 00:35:01.17	41.30	19.78	-42.2	-45.6	18.2	6.02e-01	0	60	0	242221056	56	5197
2026-01-30 00:35:02.18	41.48	19.90	-42.2	-45.6	18.2	6.01e-01	0	60	0	243793920	56	5183
2026-01-30 00:35:03.19	41.65	20.02	-42.2	-45.6	18.2	6.03e-01	0	60	0	245891072	56	5213
2026-01-30 00:35:04.20	41.83	20.14	-42.3	-45.7	18.1	6.03e-01	0	60	0	247988224	56	5255
2026-01-30 00:35:05.21	42.01	20.26	-42.2	-45.6	18.2	6.00e-01	0	60	0	249561088	56	5216
2026-01-30 00:35:06.22	42.19	20.37	-42.2	-45.7	18.2	6.03e-01	0	60	0	251658240	56	5220
2026-01-30 00:35:07.23	42.37	20.49	-42.2	-45.7	18.1	6.01e-01	0	60	0	253231104	56	5221
2026-01-30 00:35:08.24	42.55	20.61	-42.2	-45.6	18.3	6.00e-01	0	60	0	255328256	56	5162
2026-01-30 00:35:09.25	42.74	20.73	-42.2	-45.5	18.3	6.02e-01	0	60	0	257425408	56	5150
2026-01-30 00:35:10.26	42.93	20.86	-42.1	-45.5	18.3	6.02e-01	0	60	0	258998272	56	5132
2026-01-30 00:35:11.27	43.11	20.98	-42.2	-45.5	18.4	6.02e-01	0	59	0	261095424	56	5128
2026-01-30 00:35:12.27	43.30	21.10	-42.2	-45.6	18.3	6.00e-01	0	60	0	263192576	56	5198
2026-01-30 00:35:13.28	43.49	21.22	-42.3	-45.7	18.2	6.01e-01	0	60	0	264765440	56	5250
2026-01-30 00:35:14.29	43.68	21.34	-42.2	-45.7	18.2	6.00e-01	0	60	0	266862592	56	5223
2026-01-30 00:35:15.30	43.88	21.46	-42.2	-45.6	18.3	6.02e-01	0	60	0	268435456	56	5213
2026-01-30 00:35:16.31	44.07	21.58	-42.2	-45.6	18.3	6.01e-01	0	60	0	270532608	56	5196
2026-01-30 00:35:17.32	44.27	21.71	-42.3	-45.7	18.2	6.03e-01	0	60	0	272629760	56	5226
2026-01-30 00:35:18.33	44.47	21.83	-42.3	-45.7	18.2	6.01e-01	0	60	0	274202624	56	5244
2026-01-30 00:35:19.34	44.67	21.95	-42.3	-45.8	18.1	6.02e-01	0	60	0	276299776	56	5295
2026-01-30 00:35:20.35	44.87	22.08	-42.3	-45.8	18.1	6.03e-01	0	60	0	278396928	56	5310
2026-01-30 00:35:21.36	45.08	22.20	-42.3	-45.7	18.3	5.99e-01	0	60	0	279969792	56	5224
2026-01-30 00:35:22.37	45.28	22.33	-42.3	-45.7	18.3	6.02e-01	0	60	0	282066944	56	5223
2026-01-30 00:35:23.38	45.49	22.45	-42.3	-45.8	18.2	6.03e-01	0	60	0	283639808	56	5306
2026-01-30 00:35:24.40	45.70	22.58	-42.4	-45.9	18.0	6.02e-01	0	60	0	285736960	56	5395
2026-01-30 00:35:25.41	45.91	22.70	-42.4	-45.9	18.1	6.02e-01	0	60	0	287834112	56	5371
2026-01-30 00:35:26.42	46.12	22.83	-42.4	-45.8	18.1	6.04e-01	0	60	0	289406976	56	5340
2026-01-30 00:35:27.43	46.34	22.96	-42.4	-45.8	18.1	6.03e-01	0	60	0	291504128	56	5333
2026-01-30 00:35:28.44	46.55	23.08	-42.4	-45.8	18.2	6.02e-01	0	60	0	293076992	56	5317
2026-01-30 00:35:29.45	46.77	23.21	-42.4	-45.8	18.2	6.03e-01	0	60	0	295174144	56	5306
2026-01-30 00:35:30.46	46.99	23.34	-42.4	-45.8	18.1	6.02e-01	0	60	0	297271296	56	5328
2026-01-30 00:35:31.47	47.21	23.46	-42.4	-45.8	18.2	6.02e-01	0	60	0	298844160	56	5320
2026-01-30 00:35:32.48	47.44	23.59	-42.3	-45.7	18.2	6.02e-01	0	60	0	300941312	56	5277
2026-01-30 00:35:33.48	47.66	23.72	-42.4	-45.9	18.1	6.03e-01	0	60	0	303038464	56	5372
2026-01-30 00:35:34.49	47.89	23.85	-42.5	-46.0	17.9	6.01e-01	0	60	0	304611328	56	5463
2026-01-30 00:35:35.50	48.12	23.97	-42.4	-46.0	18.0	6.01e-01	0	60	0	306708480	56	5414
2026-01-30 00:35:36.52	48.35	24.10	-42.3	-45.7	18.2	6.04e-01	0	60	0	308281344	56	5242
2026-01-30 00:35:37.53	48.58	24.23	-42.3	-45.7	18.2	6.02e-01	0	60	0	310378496	56	5263
2026-01-30 00:35:38.53	48.82	24.36	-42.4	-46.0	17.9	6.03e-01	0	60	0	312475648	56	5417
2026-01-30 00:35:39.54	49.05	24.49	-42.5	-46.2	17.8	5.97e-01	0	60	0	314048512	56	5531
2026-01-30 00:35:40.55	49.29	24.62	-42.4	-46.0	18.0	6.03e-01	0	60	0	316145664	56	5416
2026-01-30 00:35:41.56	49.53	24.75	-42.4	-45.9	18.0	6.03e-01	0	60	0	317718528	56	5354
2026-01-30 00:35:42.57	49.77	24.88	-42.4	-45.9	18.0	6.01e-01	0	60	0	319815680	56	5397
2026-01-30 00:35:43.58	50.02	25.01	-42.5	-46.0	17.8	6.03e-01	0	60	0	321388544	56	5437
2026-01-30 00:35:44.59	50.27	25.14	-42.4	-46.0	17.9	6.02e-01	0	60	0	323485696	56	5403
2026-01-30 00:35:45.60	50.52	25.27	-42.4	-45.9	18.0	6.01e-01	0	60	0	325582848	56	5342
2026-01-30 00:35:46.61	50.77	25.40	-42.3	-45.7	18.2	6.02e-01	0	60	0	327155712	56	5273
2026-01-30 00:35:47.62	51.02	25.53	-42.4	-46.0	17.9	6.04e-01	0	60	0	329252864	56	5418
2026-01-30 00:35:48.63	51.28	25.66	-42.5	-46.0	18.0	6.03e-01	0	60	0	331350016	56	5421
2026-01-30 00:35:49.64	51.53	25.79	-42.4	-45.9	18.1	6.00e-01	0	60	0	332922880	56	5372
2026-01-30 00:35:50.65	51.79	25.92	-42.4	-45.8	18.1	6.00e-01	0	60	0	335020032	56	5340
2026-01-30 00:35:51.66	52.06	26.05	-42.5	-45.9	18.0	6.01e-01	0	60	0	336592896	56	5390
2026-01-30 00:35:52.67	52.32	26.18	-42.5	-46.0	18.0	6.04e-01	0	60	0	338690048	56	5433
2026-01-30 00:35:53.68	52.59	26.31	-42.6	-46.1	17.9	6.02e-01	0	60	0	340787200	56	5508
2026-01-30 00:35:54.69	52.86	26.44	-42.5	-46.0	18.0	6.02e-01	0	60	0	342360064	56	5434
2026-01-30 00:35:55.70	53.13	26.58	-42.5	-45.9	18.1	6.01e-01	0	60	0	344457216	56	5398
2026-01-30 00:35:56.71	53.40	26.71	-42.5	-46.0	18.0	6.02e-01	0	60	0	346554368	56	5434
2026-01-30 00:35:57.72	53.68	26.84	-42.6	-46.1	17.9	6.00e-01	0	60	0	348127232	56	5511
2026-01-30 00:35:58.73	53.95	26.97	-42.5	-46.1	18.0	6.01e-01	0	60	0	350224384	56	5465
2026-01-30 00:35:59.74	54.23	27.10	-42.5	-45.9	18.1	6.01e-01	0	60	0	351797248	56	5372
2026-01-30 00:36:00.75	54.52	27.23	-42.5	-45.9	18.2	6.03e-01	0	60	0	353894400	56	5372
2026-01-30 00:36:01.76	54.80	27.36	-42.4	-45.9	18.1	6.02e-01	0	60	0	355991552	56	5358
2026-01-30 00:36:02.77	55.09	27.49	-42.5	-45.9	18.1	6.02e-01	0	60	0	357564416	56	5399
2026-01-30 00:36:03.78	55.38	27.63	-42.4	-45.9	18.1	6.02e-01	0	60	0	359661568	56	5350
2026-01-30 00:36:04.79	55.67	27.76	-42.4	-45.8	18.2	6.03e-01	0	60	0	361234432	56	5318
2026-01-30 00:36:05.80	55.97	27.89	-42.4	-45.8	18.2	6.03e-01	0	60	0	363331584	56	5327
2026-01-30 00:36:06.81	56.26	28.02	-42.5	-45.9	18.1	6.03e-01	0	60	0	365428736	56	5384
2026-01-30 00:36:07.81	56.56	28.15	-42.5	-45.9	18.1	6.01e-01	0	60	0	367001600	56	5389
2026-01-30 00:36:08.83	56.87	28.28	-42.5	-45.9	18.2	6.02e-01	0	60	0	369098752	56	5357
2026-01-30 00:36:09.83	57.17	28.41	-42.4	-45.8	18.3	6.04e-01	0	60	0	370671616	56	5314
2026-01-30 00:36:10.84	57.48	28.54	-42.5	-46.0	18.1	6.02e-01	0	60	0	372768768	56	5403
2026-01-30 00:36:11.85	57.79	28.67	-42.5	-46.0	18.1	6.01e-01	0	60	0	374865920	56	5418
2026-01-30 00:36:12.86	58.10	28.80	-42.5	-46.0	18.1	6.02e-01	0	60	0	376438784	56	5442
2026-01-30 00:36:13.87	58.41	28.93	-42.6	-46.1	18.0	6.05e-01	0	60	0	378535936	56	5476
2026-01-30 00:36:14.88	58.73	29.06	-42.6	-46.2	17.9	6.03e-01	0	60	0	380108800	56	5567
2026-01-30 00:36:15.89	59.05	29.19	-42.6	-46.1	18.0	6.02e-01	0	60	0	382205952	56	5526
2026-01-30 00:36:16.90	59.38	29.31	-42.5	-45.9	18.2	6.00e-01	0	60	0	384303104	56	5357
2026-01-30 00:36:17.91	59.70	29.44	-42.5	-45.9	18.2	6.04e-01	0	60	0	385875968	56	5386
2026-01-30 00:36:18.92	60.03	29.57	-42.5	-45.9	18.2	5.99e-01	0	60	0	387973120	56	5381
2026-01-30 00:36:19.93	60.36	29.70	-42.5	-45.9	18.1	6.02e-01	0	60	0	389545984	56	5396
2026-01-30 00:36:20.94	60.69	29.83	-42.5	-46.0	18.1	6.02e-01	0	60	0	391643136	56	5415
2026-01-30 00:36:21.95	61.03	29.95	-42.6	-46.1	18.0	6.03e-01	0	60	0	393740288	56	5490
2026-01-30 00:36:22.96	61.37	30.08	-42.5	-45.9	18.2	6.02e-01	0	60	0	395313152	56	5366
2026-01-30 00:36:23.97	61.71	30.20	-42.3	-45.7	18.4	6.03e-01	0	60	0	397410304	56	5221
2026-01-30 00:36:24.98	62.06	30.33	-42.4	-45.7	18.4	6.01e-01	0	60	0	399507456	56	5274
2026-01-30 00:36:25.99	62.40	30.46	-42.5	-45.9	18.2	6.02e-01	0	60	0	401080320	56	5385
2026-01-30 00:36:27.00	62.75	30.58	-42.3	-45.6	18.5	6.01e-01	0	60	0	403177472	56	5201
2026-01-30 00:36:28.01	63.11	30.70	-42.3	-45.6	18.5	6.02e-01	0	60	0	404750336	56	5170
2026-01-30 00:36:29.02	63.46	30.83	-42.4	-45.8	18.3	6.01e-01	0	60	0	406847488	56	5306
2026-01-30 00:36:30.03	63.82	30.95	-42.4	-45.7	18.4	6.01e-01	0	60	0	408944640	56	5243
2026-01-30 00:36:31.04	64.18	31.07	-42.3	-45.5	18.7	6.03e-01	0	60	0	410517504	56	5129
2026-01-30 00:36:32.05	64.55	31.19	-42.4	-45.7	18.4	6.01e-01	0	60	0	412614656	56	5257
2026-01-30 00:36:33.06	64.91	31.31	-42.5	-46.0	18.1	6.00e-01	0	60	0	414711808	56	5406
2026-01-30 00:36:34.07	65.28	31.43	-42.4	-45.8	18.4	6.01e-01	0	60	0	416284672	56	5283
2026-01-30 00:36:35.08	65.65	31.55	-42.4	-45.7	18.4	6.02e-01	0	60	0	418381824	56	5246
2026-01-30 00:36:36.09	66.03	31.67	-42.3	-45.5	18.6	6.01e-01	0	60	0	419954688	56	5116
2026-01-30 00:36:37.10	66.41	31.79	-42.4	-45.7	18.4	6.01e-01	0	60	0	422051840	56	5244
2026-01-30 00:36:38.11	66.79	31.90	-42.4	-45.8	18.3	5.99e-01	0	60	0	424148992	56	5331
2026-01-30 00:36:39.12	67.17	32.02	-42.4	-45.8	18.3	6.03e-01	0	60	0	425721856	56	5327
2026-01-30 00:36:40.13	67.56	32.14	-42.5	-46.0	18.1	6.02e-01	0	60	0	427819008	56	5409
2026-01-30 00:36:41.13	67.94	32.25	-42.4	-45.8	18.3	6.01e-01	0	60	0	429391872	56	5296
2026-01-30 00:36:42.14	68.33	32.36	-42.4	-45.8	18.3	6.03e-01	0	60	0	431489024	56	5309
2026-01-30 00:36:43.15	68.73	32.47	-42.4	-45.7	18.4	6.01e-01	0	60	0	433586176	56	5273
2026-01-30 00:36:44.16	69.13	32.59	-42.5	-45.9	18.2	6.00e-01	0	60	0	435159040	56	5365
2026-01-30 00:36:45.17	69.53	32.70	-42.4	-45.8	18.3	6.02e-01	0	60	0	437256192	56	5321
2026-01-30 00:36:46.18	69.93	32.80	-42.4	-45.8	18.3	6.00e-01	0	60	0	438829056	56	5311
2026-01-30 00:36:47.19	70.34	32.91	-42.5	-45.9	18.2	6.03e-01	0	60	0	440926208	56	5379
2026-01-30 00:36:48.20	70.74	33.02	-42.4	-45.8	18.4	6.02e-01	0	60	0	443023360	56	5297
2026-01-30 00:36:49.21	71.15	33.12	-42.4	-45.8	18.3	6.00e-01	0	60	0	444596224	56	5300
2026-01-30 00:36:50.22	71.57	33.23	-42.4	-45.7	18.5	6.02e-01	0	60	0	446693376	56	5246
2026-01-30 00:36:51.23	71.99	33.33	-42.4	-45.7	18.4	6.02e-01	0	60	0	448790528	56	5259
2026-01-30 00:36:52.24	72.40	33.43	-42.4	-45.7	18.5	6.01e-01	0	60	0	450363392	56	5236
2026-01-30 00:36:53.26	72.83	33.54	-42.3	-45.6	18.5	6.02e-01	0	60	0	452460544	56	5204
2026-01-30 00:36:54.27	73.25	33.64	-42.4	-45.8	18.4	5.98e-01	0	60	0	454033408	56	5307
2026-01-30 00:36:55.27	73.68	33.73	-42.3	-45.5	18.7	6.02e-01	0	60	0	456130560	56	5124
2026-01-30 00:36:56.29	74.11	33.83	-42.4	-45.8	18.4	6.02e-01	0	60	0	458227712	56	5285
2026-01-30 00:36:57.30	74.54	33.93	-42.4	-45.8	18.4	6.01e-01	0	60	0	459800576	56	5290
2026-01-30 00:36:58.31	74.98	34.02	-42.2	-45.3	18.8	6.01e-01	0	60	0	461897728	56	5023
2026-01-30 00:36:59.32	75.42	34.11	-42.3	-45.5	18.6	6.02e-01	0	60	0	463470592	56	5155
2026-01-30 00:37:00.32	75.85	34.20	-42.4	-45.8	18.3	6.02e-01	0	60	0	465567744	56	5309
2026-01-30 00:37:01.33	76.30	34.29	-42.5	-45.8	18.4	6.01e-01	0	60	0	467664896	56	5323
2026-01-30 00:37:02.34	76.74	34.38	-42.3	-45.6	18.6	6.02e-01	0	60	0	469237760	56	5171
2026-01-30 00:37:03.35	77.19	34.46	-42.3	-45.6	18.6	6.01e-01	0	60	0	471334912	56	5185
2026-01-30 00:37:04.36	77.64	34.55	-42.4	-45.7	18.5	6.01e-01	0	60	0	472907776	56	5242
2026-01-30 00:37:05.37	78.09	34.63	-42.5	-45.9	18.3	6.02e-01	0	60	0	475004928	56	5373
2026-01-30 00:37:06.38	78.54	34.71	-42.5	-45.8	18.4	6.04e-01	0	60	0	477102080	56	5331
2026-01-30 00:37:07.39	79.00	34.79	-42.4	-45.7	18.5	6.01e-01	0	60	0	478674944	56	5244
2026-01-30 00:37:08.40	79.46	34.87	-42.2	-45.4	18.8	6.01e-01	0	60	0	480772096	56	5089
2026-01-30 00:37:09.41	79.92	34.94	-42.4	-45.8	18.3	5.99e-01	0	60	0	482869248	56	5319
2026-01-30 00:37:10.42	80.38	35.02	-42.5	-45.9	18.3	6.04e-01	0	60	0	484442112	56	5354
2026-01-30 00:37:11.43	80.85	35.09	-42.4	-45.7	18.4	6.03e-01	0	60	0	486539264	56	5273
2026-01-30 00:37:12.44	81.32	35.16	-42.4	-45.6	18.6	6.02e-01	0	60	0	488112128	56	5210
2026-01-30 00:37:13.45	81.79	35.23	-42.4	-45.7	18.5	6.01e-01	0	60	0	490209280	56	5234
2026-01-30 00:37:14.46	82.26	35.30	-42.4	-45.6	18.5	6.03e-01	0	60	0	492306432	56	5212
2026-01-30 00:37:15.47	82.73	35.36	-42.3	-45.6	18.6	6.02e-01	0	60	0	493879296	56	5184
2026-01-30 00:37:16.48	83.21	35.42	-42.3	-45.5	18.7	6.01e-01	0	60	0	495976448	56	5138
2026-01-30 00:37:17.49	83.69	35.48	-42.2	-45.4	18.8	6.04e-01	0	60	0	497549312	56	5046
2026-01-30 00:37:18.50	84.16	35.54	-42.4	-45.6	18.5	6.02e-01	0	60	0	499646464	56	5214
2026-01-30 00:37:19.51	84.65	35.60	-42.3	-45.6	18.6	6.01e-01	0	60	0	501743616	56	5167
2026-01-30 00:37:20.52	85.13	35.65	-42.4	-45.7	18.6	6.05e-01	0	60	0	503316480	56	5244
2026-01-30 00:37:21.53	85.61	35.70	-42.2	-45.4	18.8	6.02e-01	0	60	0	505413632	56	5081
2026-01-30 00:37:22.54	86.10	35.75	-42.3	-45.5	18.7	6.01e-01	0	60	0	507510784	56	5135
2026-01-30 00:37:23.55	86.58	35.80	-42.3	-45.5	18.7	6.03e-01	0	60	0	509083648	56	5151
2026-01-30 00:37:24.56	87.07	35.85	-42.3	-45.5	18.7	6.01e-01	0	60	0	511180800	56	5132
2026-01-30 00:37:25.57	87.56	35.89	-42.2	-45.4	18.8	6.00e-01	0	60	0	512753664	56	5085
2026-01-30 00:37:26.58	88.05	35.93	-42.3	-45.5	18.8	6.01e-01	0	60	0	514850816	56	5119
2026-01-30 00:37:27.59	88.55	35.97	-42.2	-45.4	18.8	6.01e-01	0	60	0	516947968	56	5099
2026-01-30 00:37:28.60	89.04	36.01	-42.3	-45.6	18.6	6.00e-01	0	60	0	518520832	56	5203
2026-01-30 00:37:29.61	89.54	36.04	-42.2	-45.4	18.8	6.02e-01	0	61	0	520617984	56	5071
2026-01-30 00:37:30.62	90.03	36.07	-42.2	-45.4	18.8	6.01e-01	0	60	0	522190848	56	5077
2026-01-30 00:37:31.63	90.53	36.10	-42.2	-45.4	18.8	6.01e-01	0	60	0	524288000	56	5053
2026-01-30 00:37:32.64	91.03	36.13	-42.4	-45.6	18.6	6.02e-01	0	60	0	526385152	56	5214
2026-01-30 00:37:33.65	91.52	36.16	-42.4	-45.6	18.7	6.00e-01	0	60	0	527958016	56	5213
2026-01-30 00:37:34.66	92.02	36.18	-42.4	-45.6	18.6	6.00e-01	0	60	0	530055168	56	5202
2026-01-30 00:37:35.67	92.52	36.20	-42.4	-45.7	18.5	6.03e-01	0	60	0	531628032	56	5224
2026-01-30 00:37:36.68	93.02	36.22	-42.3	-45.5	18.7	6.01e-01	0	60	0	533725184	56	5128
2026-01-30 00:37:37.69	93.52	36.23	-42.4	-45.7	18.6	6.04e-01	0	60	0	535822336	56	5224
2026-01-30 00:37:38.70	94.03	36.25	-42.4	-45.7	18.5	6.02e-01	0	60	0	537395200	56	5224
2026-01-30 00:37:39.71	94.53	36.26	-42.1	-45.2	19.0	6.01e-01	0	60	0	539492352	56	4965
2026-01-30 00:37:40.72	95.03	36.27	-42.1	-45.2	19.0	6.01e-01	0	60	0	541065216	56	4964
2026-01-30 00:37:41.73	95.53	36.27	-42.3	-45.6	18.7	6.03e-01	0	60	0	543162368	56	5165
2026-01-30 00:37:42.73	96.03	36.28	-42.4	-45.7	18.6	6.00e-01	0	60	0	545259520	56	5219
2026-01-30 00:37:43.74	96.53	36.28	-42.2	-45.3	18.9	6.03e-01	0	60	0	546832384	56	5025
2026-01-30 00:37:44.75	97.04	36.28	-42.2	-45.4	18.8	6.02e-01	0	60	0	548929536	56	5064
2026-01-30 00:37:45.76	97.54	36.28	-42.2	-45.3	18.9	6.01e-01	0	60	0	551026688	56	5038
2026-01-30 00:37:46.77	98.04	36.27	-42.4	-45.6	18.6	6.01e-01	0	61	0	552599552	56	5217
2026-01-30 00:37:47.78	98.55	36.26	-42.3	-45.6	18.6	5.99e-01	0	60	0	554696704	56	5169
2026-01-30 00:37:48.79	99.05	36.25	-42.2	-45.3	18.9	6.03e-01	0	60	0	556269568	56	5030
2026-01-30 00:37:49.80	99.55	36.24	-42.3	-45.5	18.7	6.00e-01	0	60	0	558366720	56	5155
2026-01-30 00:37:50.81	100.05	36.22	-42.4	-45.7	18.5	6.00e-01	0	60	0	560463872	56	5237
2026-01-30 00:37:51.82	100.55	36.21	-42.4	-45.7	18.5	6.05e-01	0	60	0	562036736	56	5235
2026-01-30 00:37:52.83	101.05	36.19	-42.3	-45.5	18.8	6.01e-01	0	60	0	564133888	56	5101
2026-01-30 00:37:53.84	101.55	36.16	-42.3	-45.5	18.7	6.03e-01	0	60	0	565706752	56	5131
2026-01-30 00:37:54.85	102.05	36.14	-42.4	-45.7	18.6	6.03e-01	0	60	0	567803904	56	5225
2026-01-30 00:37:55.86	102.55	36.11	-42.4	-45.7	18.5	5.99e-01	0	60	0	569901056	56	5224
2026-01-30 00:37:56.87	103.05	36.08	-42.1	-45.1	19.1	6.05e-01	0	60	0	571473920	56	4900
2026-01-30 00:37:57.88	103.54	36.05	-42.1	-45.2	18.9	6.02e-01	0	60	0	573571072	56	4955
2026-01-30 00:37:58.89	104.04	36.02	-42.2	-45.3	18.9	6.03e-01	0	60	0	575668224	56	5029
2026-01-30 00:37:59.90	104.53	35.98	-42.3	-45.5	18.7	6.00e-01	0	60	0	577241088	56	5131
2026-01-30 00:38:00.89	105.02	35.95	-42.3	-45.5	18.7	6.01e-01	0	60	0	579338240	56	5152
2026-01-30 00:38:01.90	105.51	35.90	-42.2	-45.3	18.9	6.01e-01	0	60	0	580911104	56	5011
2026-01-30 00:38:02.91	106.00	35.86	-42.2	-45.3	19.0	6.04e-01	0	60	0	583008256	56	4985
2026-01-30 00:38:03.92	106.49	35.82	-42.3	-45.4	18.8	6.03e-01	0	60	0	584581120	56	5097
2026-01-30 00:38:04.93	106.98	35.77	-42.4	-45.7	18.5	6.03e-01	0	60	0	586678272	56	5273
2026-01-30 00:38:05.94	107.47	35.72	-42.1	-45.1	19.0	6.01e-01	0	60	0	588775424	56	4911
2026-01-30 00:38:06.95	107.95	35.67	-41.9	-44.9	19.3	6.00e-01	0	61	0	590348288	55	5059
2026-01-30 00:38:07.96	108.43	35.62	-42.1	-45.3	18.8	6.03e-01	0	61	0	592445440	55	5280
2026-01-30 00:38:08.97	108.92	35.56	-42.1	-45.3	18.9	6.00e-01	0	60	0	594018304	55	5281
2026-01-30 00:38:09.98	109.40	35.50	-42.1	-45.3	18.8	6.02e-01	0	60	0	596115456	55	5300
2026-01-30 00:38:10.99	109.88	35.44	-42.1	-45.2	18.9	6.04e-01	0	60	0	598212608	55	5270
2026-01-30 00:38:12.00	110.35	35.38	-42.0	-45.1	19.0	6.00e-01	0	61	0	599785472	55	5208
2026-01-30 00:38:13.01	110.83	35.32	-42.0	-45.2	19.0	6.03e-01	0	60	0	601882624	55	5224
2026-01-30 00:38:14.02	111.30	35.25	-42.2	-45.4	18.7	6.04e-01	0	60	0	603979776	55	5367
2026-01-30 00:38:15.03	111.77	35.18	-42.1	-45.3	18.8	6.01e-01	0	60	0	605552640	55	5291
2026-01-30 00:38:16.04	112.24	35.11	-42.1	-45.2	18.9	6.03e-01	0	60	0	607649792	55	5268
2026-01-30 00:38:17.05	112.71	35.04	-42.1	-45.2	18.9	6.01e-01	0	60	0	609222656	55	5262
2026-01-30 00:38:18.06	113.17	34.97	-42.0	-45.2	19.0	6.01e-01	0	60	0	611319808	55	5223
2026-01-30 00:38:19.07	113.64	34.89	-42.0	-45.2	18.9	6.02e-01	0	60	0	613416960	55	5233
2026-01-30 00:38:20.08	114.10	34.82	-42.0	-45.1	19.0	6.02e-01	0	60	0	614989824	55	5177
2026-01-30 00:38:21.08	114.55	34.74	-42.1	-45.2	19.0	6.01e-01	0	60	0	617086976	55	5235
2026-01-30 00:38:22.10	115.01	34.66	-42.1	-45.3	18.8	6.02e-01	0	60	0	618659840	55	5312
2026-01-30 00:38:23.10	115.46	34.57	-42.0	-45.0	19.1	6.01e-01	0	61	0	620756992	55	5157
2026-01-30 00:38:24.11	115.91	34.49	-42.0	-45.0	19.1	6.02e-01	0	60	0	622854144	55	5146
2026-01-30 00:38:25.12	116.36	34.40	-41.9	-45.0	19.1	6.00e-01	0	60	0	624427008	55	5130
2026-01-30 00:38:26.13	116.81	34.32	-42.0	-45.2	19.0	6.01e-01	0	60	0	626524160	55	5228
2026-01-30 00:38:27.14	117.26	34.23	-41.9	-44.9	19.2	6.04e-01	0	60	0	628621312	55	5066
2026-01-30 00:38:28.15	117.70	34.14	-41.9	-44.9	19.2	6.05e-01	0	60	0	630194176	55	5085
2026-01-30 00:38:29.16	118.14	34.05	-41.8	-44.8	19.4	6.02e-01	0	60	0	632291328	55	4986
2026-01-30 00:38:30.17	118.57	33.95	-41.9	-44.9	19.2	6.00e-01	0	60	0	633864192	55	5068
2026-01-30 00:38:31.18	119.01	33.86	-41.9	-44.9	19.2	6.01e-01	0	60	0	635961344	55	5086
2026-01-30 00:38:32.19	119.44	33.76	-41.7	-44.6	19.5	6.00e-01	0	60	0	638058496	55	4902
2026-01-30 00:38:33.20	119.87	33.66	-41.6	-44.5	19.6	6.02e-01	0	60	0	639631360	55	4857
2026-01-30 00:38:34.21	120.30	33.56	-41.7	-44.6	19.5	6.04e-01	0	60	0	641728512	55	4888
2026-01-30 00:38:35.22	120.72	33.46	-41.8	-44.8	19.3	6.01e-01	0	60	0	643301376	55	4987
2026-01-30 00:38:36.23	121.14	33.36	-41.7	-44.6	19.5	6.02e-01	0	60	0	645398528	55	4904
2026-01-30 00:38:37.24	121.56	33.26	-41.8	-44.8	19.3	6.00e-01	0	60	0	647495680	55	4987
2026-01-30 00:38:38.25	121.98	33.15	-41.8	-44.8	19.3	6.02e-01	0	61	0	649068544	55	5011
2026-01-30 00:38:39.26	122.39	33.05	-41.6	-44.5	19.6	6.04e-01	0	60	0	651165696	55	4843
2026-01-30 00:38:40.27	122.80	32.94	-41.6	-44.5	19.6	6.02e-01	0	60	0	652738560	55	4859
2026-01-30 00:38:41.28	123.21	32.83	-41.6	-44.5	19.6	6.02e-01	0	60	0	654835712	55	4862
2026-01-30 00:38:42.29	123.61	32.72	-41.8	-44.7	19.4	6.01e-01	0	60	0	656932864	55	4962
2026-01-30 00:38:43.30	124.02	32.61	-41.7	-44.7	19.4	6.01e-01	0	60	0	658505728	55	4934
2026-01-30 00:38:44.31	124.42	32.50	-41.6	-44.5	19.6	6.03e-01	0	60	0	660602880	55	4843
2026-01-30 00:38:45.32	124.81	32.39	-41.7	-44.5	19.5	6.00e-01	0	61	0	662175744	55	4866
2026-01-30 00:38:46.33	125.21	32.27	-41.7	-44.5	19.6	6.01e-01	0	60	0	664272896	55	4863
2026-01-30 00:38:47.34	125.60	32.16	-41.6	-44.5	19.6	6.00e-01	0	60	0	666370048	55	4852
2026-01-30 00:38:48.35	125.99	32.04	-41.7	-44.6	19.6	6.04e-01	0	61	0	667942912	55	4871
2026-01-30 00:38:49.36	126.37	31.93	-41.7	-44.6	19.5	6.01e-01	0	60	0	670040064	55	4913
2026-01-30 00:38:50.37	126.75	31.81	-41.7	-44.6	19.5	6.01e-01	0	60	0	672137216	55	4891
2026-01-30 00:38:51.38	127.13	31.69	-41.6	-44.5	19.6	6.01e-01	0	60	0	673710080	55	4851
2026-01-30 00:38:52.39	127.51	31.57	-41.7	-44.6	19.5	6.04e-01	0	60	0	675807232	55	4899
2026-01-30 00:38:53.41	127.89	31.45	-41.6	-44.5	19.6	6.02e-01	0	61	0	677380096	55	4850
2026-01-30 00:38:54.42	128.26	31.33	-41.6	-44.5	19.7	6.01e-01	0	60	0	679477248	55	4818
2026-01-30 00:38:55.43	128.63	31.21	-41.7	-44.6	19.5	6.03e-01	0	60	0	681574400	55	4873
2026-01-30 00:38:56.44	129.00	31.09	-41.7	-44.5	19.5	6.02e-01	0	61	0	683147264	55	4869
2026-01-30 00:38:57.45	129.36	30.97	-41.6	-44.5	19.6	6.02e-01	0	61	0	685244416	55	4841
2026-01-30 00:38:58.46	129.72	30.85	-41.6	-44.5	19.6	6.01e-01	0	61	0	686817280	55	4865
2026-01-30 00:38:59.47	130.08	30.72	-41.5	-44.4	19.7	6.03e-01	0	61	0	688914432	55	4773
2026-01-30 00:39:00.48	130.43	30.60	-41.6	-44.4	19.7	6.02e-01	0	61	0	691011584	55	4791
2026-01-30 00:39:01.49	130.78	30.47	-41.6	-44.5	19.6	6.01e-01	0	60	0	692584448	55	4849
2026-01-30 00:39:02.50	131.13	30.35	-41.7	-44.6	19.5	6.03e-01	0	61	0	694681600	55	4895
2026-01-30 00:39:03.51	131.48	30.22	-41.7	-44.6	19.4	6.03e-01	0	60	0	696778752	55	4916
2026-01-30 00:39:04.52	131.82	30.09	-41.6	-44.5	19.5	6.03e-01	0	60	0	698351616	55	4854
2026-01-30 00:39:05.53	132.17	29.97	-41.6	-44.5	19.6	6.04e-01	0	61	0	700448768	55	4821
2026-01-30 00:39:06.54	132.50	29.84	-41.6	-44.5	19.6	6.04e-01	0	61	0	702021632	55	4845
2026-01-30 00:39:07.55	132.84	29.71	-41.7	-44.7	19.4	6.02e-01	0	60	0	704118784	55	4953
2026-01-30 00:39:08.56	133.17	29.58	-41.7	-44.7	19.4	6.01e-01	0	61	0	706215936	55	4945
2026-01-30 00:39:09.57	133.50	29.45	-41.7	-44.5	19.5	6.03e-01	0	60	0	707788800	55	4866
2026-01-30 00:39:10.58	133.83	29.33	-41.7	-44.6	19.5	6.02e-01	0	60	0	709885952	55	4896
2026-01-30 00:39:11.59	134.16	29.20	-41.8	-44.8	19.3	6.01e-01	0	61	0	711983104	55	4996
2026-01-30 00:39:12.60	134.48	29.07	-41.9	-44.9	19.2	6.01e-01	0	60	0	713555968	55	5077
2026-01-30 00:39:13.61	134.80	28.94	-41.9	-45.0	19.1	6.03e-01	0	61	0	715653120	55	5111
2026-01-30 00:39:14.62	135.11	28.81	-41.9	-44.9	19.2	6.02e-01	0	61	0	717225984	55	5076
2026-01-30 00:39:15.63	135.43	28.68	-41.8	-44.8	19.3	6.02e-01	0	61	0	719323136	55	4986
2026-01-30 00:39:16.63	135.74	28.55	-41.8	-44.8	19.3	6.01e-01	0	61	0	721420288	55	5018
2026-01-30 00:39:17.64	136.05	28.42	-41.8	-44.8	19.3	6.02e-01	0	61	0	722993152	55	5025
2026-01-30 00:39:18.65	136.35	28.28	-41.9	-44.9	19.1	6.01e-01	0	61	0	725090304	55	5092
2026-01-30 00:39:19.66	136.66	28.15	-41.8	-44.9	19.2	6.00e-01	0	61	0	726663168	55	5057
2026-01-30 00:39:20.68	136.96	28.02	-41.9	-44.9	19.1	5.99e-01	0	61	0	728760320	55	5088
2026-01-30 00:39:21.69	137.26	27.89	-41.9	-45.0	19.0	6.01e-01	0	61	0	730857472	55	5154
2026-01-30 00:39:22.70	137.56	27.76	-42.0	-45.1	19.0	6.01e-01	0	61	0	732430336	55	5175
2026-01-30 00:39:23.71	137.85	27.62	-42.0	-45.1	19.0	6.00e-01	0	61	0	734527488	55	5167
2026-01-30 00:39:24.72	138.15	27.49	-42.0	-45.1	19.0	6.04e-01	0	61	0	736100352	55	5184
2026-01-30 00:39:25.73	138.43	27.36	-42.0	-45.2	18.9	6.02e-01	0	61	0	738197504	55	5248
2026-01-30 00:39:26.74	138.72	27.23	-42.1	-45.2	18.8	6.01e-01	0	60	0	740294656	55	5267
2026-01-30 00:39:27.75	139.01	27.10	-42.1	-45.2	18.8	6.03e-01	0	60	0	741867520	55	5274
2026-01-30 00:39:28.76	139.29	26.96	-42.1	-45.2	18.8	6.01e-01	0	61	0	743964672	55	5265
2026-01-30 00:39:29.77	139.57	26.83	-42.1	-45.2	18.8	6.02e-01	0	61	0	745537536	55	5271
2026-01-30 00:39:30.78	139.84	26.70	-42.1	-45.3	18.7	6.00e-01	0	61	0	747634688	55	5335
2026-01-30 00:39:31.79	140.12	26.57	-42.2	-45.5	18.6	6.02e-01	0	60	0	749731840	55	5426
2026-01-30 00:39:32.80	140.39	26.44	-42.2	-45.5	18.5	6.00e-01	0	61	0	751304704	55	5448
2026-01-30 00:39:33.81	140.66	26.30	-42.1	-45.3	18.7	6.03e-01	0	61	0	753401856	55	5331
2026-01-30 00:39:34.82	140.93	26.17	-42.0	-45.2	18.8	6.04e-01	0	60	0	754974720	55	5229
2026-01-30 00:39:35.83	141.20	26.04	-41.9	-45.0	19.0	6.02e-01	0	61	0	757071872	55	5138
2026-01-30 00:39:36.83	141.46	25.91	-42.0	-45.1	18.9	5.99e-01	0	61	0	759169024	55	5195
2026-01-30 00:39:37.84	141.72	25.78	-42.1	-45.3	18.8	6.02e-01	0	61	0	760741888	55	5281
2026-01-30 00:39:38.85	141.98	25.65	-42.1	-45.4	18.6	6.00e-01	0	60	0	762839040	55	5371
2026-01-30 00:39:39.86	142.24	25.51	-42.2	-45.5	18.6	6.01e-01	0	61	0	764936192	55	5421
2026-01-30 00:39:40.87	142.49	25.38	-42.2	-45.4	18.6	6.02e-01	0	61	0	766509056	55	5380
2026-01-30 00:39:41.88	142.74	25.25	-42.2	-45.4	18.6	6.03e-01	0	61	0	768606208	55	5373
2026-01-30 00:39:42.89	142.99	25.12	-42.1	-45.4	18.6	6.02e-01	0	61	0	770179072	55	5366
2026-01-30 00:39:43.90	143.24	24.99	-42.0	-45.2	18.8	6.02e-01	0	61	0	772276224	55	5255
2026-01-30 00:39:44.91	143.49	24.86	-42.1	-45.3	18.7	6.02e-01	0	61	0	774373376	55	5325
2026-01-30 00:39:45.92	143.73	24.73	-42.1	-45.4	18.6	6.03e-01	0	61	0	775946240	55	5346
2026-01-30 00:39:46.93	143.97	24.60	-42.2	-45.5	18.5	6.00e-01	0	61	0	778043392	55	5424
2026-01-30 00:39:47.94	144.21	24.47	-42.2	-45.5	18.5	6.01e-01	0	61	0	780140544	55	5437
2026-01-30 00:39:48.95	144.45	24.34	-42.2	-45.5	18.5	6.02e-01	0	61	0	781713408	55	5463
2026-01-30 00:39:49.96	144.69	24.21	-42.2	-45.5	18.4	6.00e-01	0	61	0	783810560	55	5460
2026-01-30 00:39:50.97	144.92	24.08	-42.2	-45.6	18.4	6.04e-01	0	61	0	785383424	55	5472
2026-01-30 00:39:51.99	145.16	23.95	-42.2	-45.6	18.4	6.03e-01	0	61	0	787480576	55	5465
2026-01-30 00:39:52.99	145.39	23.82	-42.2	-45.5	18.4	6.01e-01	0	61	0	789577728	55	5463
2026-01-30 00:39:54.00	145.61	23.69	-42.2	-45.5	18.4	6.01e-01	0	61	0	791150592	55	5439
2026-01-30 00:39:55.01	145.84	23.56	-42.3	-45.7	18.3	6.01e-01	0	61	0	793247744	55	5536
2026-01-30 00:39:56.02	146.06	23.43	-42.2	-45.7	18.2	6.01e-01	0	61	0	794820608	55	5560
2026-01-30 00:39:57.03	146.29	23.30	-42.3	-45.6	18.3	6.01e-01	0	61	0	796917760	55	5523
2026-01-30 00:39:58.04	146.51	23.18	-42.2	-45.5	18.4	6.05e-01	0	60	0	799014912	55	5462
2026-01-30 00:39:59.05	146.73	23.05	-42.3	-45.7	18.3	6.01e-01	0	61	0	800587776	55	5543
2026-01-30 00:40:00.06	146.94	22.92	-42.2	-45.6	18.3	6.05e-01	0	61	0	802684928	55	5487
2026-01-30 00:40:01.06	147.16	22.80	-42.3	-45.7	18.2	6.02e-01	0	61	0	804257792	55	5555
2026-01-30 00:40:02.07	147.37	22.67	-42.3	-45.7	18.2	6.04e-01	0	61	0	806354944	55	5570
2026-01-30 00:40:03.08	147.58	22.54	-42.3	-45.7	18.2	6.04e-01	0	61	0	808452096	55	5589
2026-01-30 00:40:04.09	147.79	22.42	-42.3	-45.7	18.2	6.00e-01	0	61	0	810024960	55	5567
2026-01-30 00:40:05.10	148.00	22.29	-42.3	-45.7	18.2	5.99e-01	0	60	0	812122112	55	5533
2026-01-30 00:40:06.11	148.21	22.16	-42.2	-45.6	18.4	6.06e-01	0	61	0	813694976	55	5465
2026-01-30 00:40:07.12	148.41	22.04	-42.2	-45.5	18.4	6.01e-01	0	61	0	815792128	54	5767
2026-01-30 00:40:08.13	148.62	21.91	-42.2	-45.5	18.4	6.02e-01	0	61	0	817889280	54	5744
2026-01-30 00:40:09.14	148.82	21.79	-42.2	-45.6	18.3	5.99e-01	0	61	0	819462144	55	5527
2026-01-30 00:40:10.16	149.02	21.66	-42.2	-45.5	18.3	6.01e-01	0	61	0	821559296	55	5451
2026-01-30 00:40:11.17	149.22	21.54	-42.2	-45.5	18.4	6.03e-01	0	60	0	823132160	55	5427
2026-01-30 00:40:12.18	149.41	21.42	-42.1	-45.5	18.4	6.02e-01	0	61	0	825229312	55	5407
2026-01-30 00:40:13.19	149.61	21.29	-42.0	-45.6	18.3	6.01e-01	0	61	0	827326464	55	5470
2026-01-30 00:40:14.20	149.80	21.17	-42.2	-45.6	18.3	6.02e-01	0	61	0	828899328	55	5528
2026-01-30 00:40:15.21	149.99	21.05	-42.2	-45.5	18.4	6.03e-01	0	61	0	830996480	55	5441
2026-01-30 00:40:16.22	150.18	20.93	-42.1	-45.4	18.4	6.00e-01	0	61	0	833093632	55	5399
2026-01-30 00:40:17.23	150.37	20.80	-42.1	-45.5	18.4	6.02e-01	0	61	0	834666496	55	5427
2026-01-30 00:40:18.24	150.56	20.68	-42.2	-45.5	18.3	6.00e-01	0	61	0	836763648	55	5444
2026-01-30 00:40:19.25	150.75	20.56	-42.1	-45.5	18.4	6.00e-01	0	60	0	838336512	55	5409
2026-01-30 00:40:20.26	150.93	20.44	-42.1	-45.4	18.4	6.00e-01	0	61	0	840433664	55	5396
2026-01-30 00:40:21.27	151.11	20.32	-42.1	-45.4	18.4	6.03e-01	0	61	0	842530816	55	5402
2026-01-30 00:40:22.28	151.29	20.20	-42.1	-45.4	18.4	5.99e-01	0	60	0	844103680	55	5382
2026-01-30 00:40:23.29	151.47	20.08	-42.0	-45.3	18.6	6.02e-01	0	61	0	846200832	55	5280
2026-01-30 00:40:24.30	151.65	19.96	-42.0	-45.2	18.6	6.01e-01	0	61	0	848297984	55	5270
2026-01-30 00:40:25.31	151.83	19.84	-42.0	-45.3	18.5	6.02e-01	0	61	0	849870848	55	5317
2026-01-30 00:40:26.32	152.00	19.72	-42.0	-45.3	18.5	6.01e-01	0	60	0	851968000	55	5333
2026-01-30 00:40:27.33	152.18	19.60	-42.0	-45.3	18.4	6.02e-01	0	60	0	853540864	55	5331
2026-01-30 00:40:28.34	152.35	19.49	-42.0	-45.3	18.5	6.03e-01	0	61	0	855638016	55	5306
2026-01-30 00:40:29.35	152.52	19.37	-42.0	-45.3	18.5	6.03e-01	0	61	0	857735168	55	5313
2026-01-30 00:40:30.36	152.69	19.25	-42.1	-45.4	18.4	5.99e-01	0	61	0	859308032	55	5394
2026-01-30 00:40:31.37	152.86	19.13	-42.0	-45.4	18.4	6.02e-01	0	60	0	861405184	55	5346
2026-01-30 00:40:32.38	153.03	19.02	-42.1	-45.4	18.5	6.02e-01	0	61	0	862978048	55	5350
2026-01-30 00:40:33.39	153.19	18.90	-41.9	-45.2	18.6	6.00e-01	0	61	0	865075200	55	5250
2026-01-30 00:40:34.40	153.36	18.79	-41.9	-45.2	18.5	6.02e-01	0	60	0	867172352	55	5252
2026-01-30 00:40:35.41	153.52	18.67	-42.0	-45.2	18.5	6.02e-01	0	61	0	868745216	55	5278
2026-01-30 00:40:36.42	153.69	18.56	-41.8	-45.2	18.6	6.03e-01	0	61	0	870842368	55	5244
2026-01-30 00:40:37.43	153.85	18.44	-41.9	-45.1	18.7	6.02e-01	0	61	0	872415232	55	5215
2026-01-30 00:40:38.44	154.01	18.33	-41.9	-45.1	18.6	6.01e-01	0	61	0	874512384	55	5192
2026-01-30 00:40:39.45	154.16	18.21	-41.8	-45.0	18.8	6.03e-01	0	61	0	876609536	55	5125
2026-01-30 00:40:40.46	154.32	18.10	-41.9	-45.1	18.7	6.01e-01	0	60	0	878182400	55	5168
2026-01-30 00:40:41.47	154.48	17.99	-41.8	-45.0	18.8	6.01e-01	0	60	0	880279552	55	5109
2026-01-30 00:40:42.49	154.63	17.87	-41.8	-45.0	18.7	6.02e-01	0	61	0	882376704	55	5132
2026-01-30 00:40:43.49	154.79	17.76	-41.8	-45.0	18.8	6.02e-01	0	61	0	883949568	55	5107
2026-01-30 00:40:44.51	154.94	17.65	-41.8	-44.9	18.8	6.03e-01	0	61	0	886046720	55	5099
2026-01-30 00:40:45.51	155.09	17.54	-41.8	-45.0	18.7	6.04e-01	0	61	0	887619584	55	5136
2026-01-30 00:40:46.53	155.24	17.43	-41.8	-45.0	18.7	6.04e-01	0	61	0	889716736	55	5117
2026-01-30 00:40:47.53	155.39	17.32	-41.8	-45.0	18.7	6.02e-01	0	61	0	891813888	55	5134
2026-01-30 00:40:48.55	155.54	17.20	-41.9	-45.1	18.6	6.00e-01	0	61	0	893386752	55	5201
2026-01-30 00:40:49.55	155.68	17.10	-41.9	-45.1	18.6	6.01e-01	0	61	0	895483904	55	5211
2026-01-30 00:40:50.56	155.83	16.99	-41.9	-45.2	18.5	6.03e-01	0	60	0	897056768	55	5277
2026-01-30 00:40:51.58	155.98	16.88	-41.9	-45.3	18.4	5.99e-01	0	61	0	899153920	55	5288
2026-01-30 00:40:52.58	156.12	16.77	-41.9	-45.2	18.5	6.00e-01	0	60	0	901251072	55	5238
2026-01-30 00:40:53.60	156.26	16.66	-41.8	-45.1	18.6	6.02e-01	0	60	0	902823936	55	5187
2026-01-30 00:40:54.61	156.40	16.55	-41.9	-45.2	18.5	6.01e-01	0	60	0	904921088	55	5234
2026-01-30 00:40:55.62	156.54	16.44	-41.9	-45.2	18.5	6.04e-01	0	61	0	906493952	55	5239
2026-01-30 00:40:56.63	156.68	16.33	-41.9	-45.2	18.5	6.02e-01	0	61	0	908591104	55	5230
2026-01-30 00:40:57.64	156.82	16.23	-41.9	-45.2	18.5	6.03e-01	0	61	0	910688256	55	5251
2026-01-30 00:40:58.65	156.96	16.12	-41.9	-45.2	18.4	6.00e-01	0	61	0	912261120	55	5270
2026-01-30 00:40:59.66	157.10	16.01	-41.9	-45.2	18.5	6.04e-01	0	61	0	914358272	55	5234
2026-01-30 00:41:00.67	157.23	15.91	-41.9	-45.2	18.5	6.02e-01	0	61	0	916455424	55	5249
2026-01-30 00:41:01.68	157.37	15.80	-41.9	-45.2	18.4	6.03e-01	0	61	0	918028288	55	5236
2026-01-30 00:41:02.69	157.50	15.70	-41.9	-45.2	18.4	6.03e-01	0	61	0	920125440	55	5244
2026-01-30 00:41:03.70	157.63	15.59	-41.9	-45.2	18.5	5.98e-01	0	61	0	921698304	55	5233
2026-01-30 00:41:04.71	157.76	15.49	-41.9	-45.2	18.4	6.00e-01	0	61	0	923795456	55	5246
2026-01-30 00:41:05.72	157.89	15.38	-41.9	-45.3	18.4	6.03e-01	0	61	0	925892608	55	5305
2026-01-30 00:41:06.73	158.02	15.28	-41.9	-45.2	18.4	6.02e-01	0	60	0	927465472	55	5273
2026-01-30 00:41:07.74	158.15	15.18	-41.9	-45.2	18.4	6.04e-01	0	61	0	929562624	55	5238
2026-01-30 00:41:08.75	158.28	15.07	-41.9	-45.2	18.4	6.01e-01	0	61	0	931135488	55	5240
2026-01-30 00:41:09.76	158.41	14.97	-41.9	-45.3	18.3	6.01e-01	0	60	0	933232640	55	5314
2026-01-30 00:41:10.77	158.53	14.87	-42.0	-45.4	18.2	6.03e-01	0	61	0	935329792	55	5363
2026-01-30 00:41:11.78	158.66	14.77	-41.9	-45.3	18.2	6.01e-01	0	61	0	936902656	55	5312
2026-01-30 00:41:12.79	158.78	14.66	-41.8	-45.2	18.4	6.03e-01	0	61	0	938999808	55	5220
2026-01-30 00:41:13.80	158.90	14.56	-41.9	-45.2	18.3	6.01e-01	0	61	0	941096960	55	5272
2026-01-30 00:41:14.80	159.03	14.46	-41.8	-45.1	18.4	6.02e-01	0	61	0	942669824	55	5210
2026-01-30 00:41:15.82	159.15	14.36	-41.9	-45.2	18.3	6.01e-01	0	61	0	944766976	55	5267
2026-01-30 00:41:16.82	159.27	14.26	-41.9	-45.2	18.3	6.03e-01	0	61	0	946339840	55	5268
2026-01-30 00:41:17.83	159.39	14.16	-41.9	-45.3	18.3	6.01e-01	0	61	0	948436992	55	5298
2026-01-30 00:41:18.85	159.51	14.06	-41.9	-45.3	18.3	6.01e-01	0	61	0	950534144	55	5311
2026-01-30 00:41:19.86	159.63	13.96	-41.9	-45.4	18.2	6.00e-01	0	61	0	952107008	55	5357
2026-01-30 00:41:20.87	159.74	13.86	-41.9	-45.2	18.3	6.03e-01	0	61	0	954204160	55	5273
2026-01-30 00:41:21.88	159.86	13.77	-41.9	-45.4	18.2	6.01e-01	0	60	0	955777024	55	5361
2026-01-30 00:41:22.89	159.98	13.67	-41.9	-45.3	18.2	6.00e-01	0	60	0	957874176	55	5300
2026-01-30 00:41:23.90	160.09	13.57	-41.9	-45.3	18.2	6.03e-01	0	61	0	959971328	55	5309
2026-01-30 00:41:24.91	160.21	13.47	-41.9	-45.3	18.2	6.04e-01	0	60	0	961544192	55	5302
2026-01-30 00:41:25.92	160.32	13.37	-41.9	-45.3	18.0	6.04e-01	0	61	0	963641344	55	5306
2026-01-30 00:41:26.92	160.43	13.28	-42.0	-45.4	18.2	6.01e-01	0	61	0	965214208	55	5369
2026-01-30 00:41:27.94	160.54	13.18	-41.9	-45.3	18.2	6.02e-01	0	61	0	967311360	55	5308
2026-01-30 00:41:28.94	160.65	13.09	-41.9	-45.4	18.2	6.04e-01	0	61	0	969408512	55	5346
2026-01-30 00:41:29.96	160.77	12.99	-41.9	-45.3	18.2	6.00e-01	0	61	0	970981376	55	5326
2026-01-30 00:41:30.97	160.88	12.89	-41.9	-45.3	18.2	6.00e-01	0	61	0	973078528	55	5324
2026-01-30 00:41:31.98	160.98	12.80	-41.9	-45.4	18.1	6.02e-01	0	61	0	974651392	55	5357
2026-01-30 00:41:32.99	161.09	12.70	-41.9	-45.4	18.1	6.02e-01	0	60	0	976748544	55	5358
2026-01-30 00:41:34.00	161.20	12.61	-41.9	-45.4	18.1	6.02e-01	0	61	0	978845696	55	5362
2026-01-30 00:41:35.00	161.31	12.52	-41.9	-45.4	18.0	6.01e-01	0	61	0	980418560	55	5379
2026-01-30 00:41:36.01	161.41	12.42	-41.9	-45.4	18.0	6.03e-01	0	61	0	982515712	55	5398
2026-01-30 00:41:37.02	161.52	12.33	-42.0	-45.5	17.9	6.01e-01	0	61	0	984612864	55	5450
2026-01-30 00:41:38.04	161.62	12.23	-41.9	-45.5	18.0	6.01e-01	0	61	0	986185728	55	5405
2026-01-30 00:41:39.04	161.73	12.14	-42.0	-45.5	17.9	6.04e-01	0	61	0	988282880	55	5457
2026-01-30 00:41:40.05	161.83	12.05	-42.0	-45.6	17.9	6.04e-01	0	61	0	989855744	55	5466
2026-01-30 00:41:41.07	161.93	11.96	-41.9	-45.5	18.0	6.03e-01	0	61	0	991952896	55	5412
2026-01-30 00:41:42.08	162.04	11.86	-42.0	-45.5	17.9	6.03e-01	0	61	0	994050048	55	5457
2026-01-30 00:41:43.09	162.14	11.77	-42.0	-45.6	17.7	6.01e-01	0	61	0	995622912	55	5518
2026-01-30 00:41:44.10	162.24	11.68	-42.0	-45.7	17.7	5.99e-01	0	61	0	997720064	55	5529
2026-01-30 00:41:45.11	162.34	11.59	-42.0	-45.5	17.8	6.03e-01	0	61	0	999292928	55	5457
2026-01-30 00:41:46.12	162.44	11.50	-42.0	-45.6	17.8	6.02e-01	0	61	0	1001390080	55	5491
2026-01-30 00:41:47.13	162.54	11.41	-42.0	-45.7	17.7	6.01e-01	0	61	0	1003487232	55	5564
2026-01-30 00:41:48.14	162.63	11.32	-42.1	-45.8	17.5	6.00e-01	0	61	0	1005060096	55	5616
2026-01-30 00:41:49.15	162.73	11.23	-42.1	-45.8	17.6	6.01e-01	0	61	0	1007157248	55	5595
2026-01-30 00:41:50.16	162.83	11.14	-42.2	-46.0	17.3	6.00e-01	0	61	0	1009254400	55	5762
2026-01-30 00:41:51.17	162.92	11.05	-42.1	-45.8	17.5	6.01e-01	0	61	0	1010827264	55	5647
2026-01-30 00:41:52.18	163.02	10.96	-42.1	-45.8	17.5	6.02e-01	0	61	0	1012924416	55	5633
2026-01-30 00:41:53.19	163.11	10.87	-42.1	-45.8	17.5	5.99e-01	0	61	0	1014497280	55	5642
2026-01-30 00:41:54.20	163.21	10.78	-42.1	-45.8	17.5	6.01e-01	0	61	0	1016594432	55	5604
2026-01-30 00:41:55.21	163.30	10.70	-42.1	-45.8	17.5	6.04e-01	0	61	0	1018691584	55	5609
2026-01-30 00:41:56.22	163.40	10.61	-42.1	-45.8	17.5	6.05e-01	0	61	0	1020264448	55	5618
2026-01-30 00:41:57.23	163.49	10.52	-42.1	-45.8	17.5	6.02e-01	0	61	0	1022361600	55	5633
2026-01-30 00:41:58.24	163.58	10.43	-42.1	-45.9	17.4	6.00e-01	0	61	0	1023934464	55	5675
2026-01-30 00:41:59.25	163.67	10.35	-42.1	-46.0	17.3	6.03e-01	0	61	0	1026031616	55	5726
2026-01-30 00:42:00.26	163.76	10.26	-42.1	-45.9	17.3	6.00e-01	0	61	0	1028128768	55	5712
2026-01-30 00:42:01.27	163.85	10.17	-42.1	-46.0	17.3	5.99e-01	0	61	0	1029701632	55	5738
2026-01-30 00:42:02.28	163.94	10.09	-42.1	-46.0	17.2	6.02e-01	0	61	0	1031798784	55	5759
2026-01-30 00:42:03.29	164.03	10.00	-42.2	-46.1	17.1	6.00e-01	0	61	0	1033895936	55	5823
2026-01-30 00:42:04.30	164.12	9.92	-42.2	-46.2	17.0	5.99e-01	0	61	0	1035468800	55	5902
2026-01-30 00:42:05.31	164.21	9.83	-42.2	-46.3	16.9	6.04e-01	0	61	0	1037565952	55	5932
2026-01-30 00:42:06.32	164.30	9.74	-42.3	-46.3	16.9	6.01e-01	0	61	0	1039138816	55	5962
2026-01-30 00:42:07.33	164.39	9.66	-42.2	-46.2	17.0	6.03e-01	0	61	0	1041235968	55	5862
2026-01-30 00:42:08.34	164.47	9.58	-42.2	-46.2	17.0	6.00e-01	0	61	0	1043333120	55	5860
2026-01-30 00:42:09.35	164.56	9.49	-42.2	-46.2	17.0	6.01e-01	0	61	0	1044905984	55	5878
2026-01-30 00:42:10.36	164.64	9.41	-42.3	-46.3	16.9	6.02e-01	0	61	0	1047003136	55	5980
2026-01-30 00:42:11.37	164.73	9.32	-42.2	-46.2	17.0	6.00e-01	0	61	0	1048576000	55	5885
2026-01-30 00:42:12.39	164.82	9.24	-42.2	-46.2	17.0	6.03e-01	0	61	0	1050673152	55	5890
2026-01-30 00:42:13.40	164.90	9.16	-42.2	-46.3	16.9	6.02e-01	0	61	0	1052770304	55	5932
2026-01-30 00:42:14.41	164.98	9.07	-42.2	-46.2	16.9	5.98e-01	0	61	0	1054343168	55	5893
2026-01-30 00:42:15.41	165.07	8.99	-42.3	-46.4	16.7	6.04e-01	0	61	0	1056440320	55	6053
2026-01-30 00:42:16.42	165.15	8.91	-42.3	-46.5	16.6	6.02e-01	0	61	0	1058013184	55	6073
2026-01-30 00:42:17.43	165.23	8.83	-42.2	-46.2	16.9	6.02e-01	0	61	0	1060110336	55	5916
2026-01-30 00:42:18.44	165.31	8.75	-42.2	-46.3	16.8	6.04e-01	0	61	0	1062207488	55	5942
2026-01-30 00:42:19.45	165.39	8.66	-42.3	-46.4	16.7	6.02e-01	0	61	0	1063780352	55	6029
2026-01-30 00:42:20.46	165.47	8.58	-42.3	-46.4	16.7	6.02e-01	0	61	0	1065877504	55	6041
2026-01-30 00:42:21.47	165.55	8.50	-42.3	-46.4	16.7	6.02e-01	0	61	0	1067450368	55	6013
2026-01-30 00:42:22.48	165.63	8.42	-42.3	-46.4	16.6	6.03e-01	0	61	0	1069547520	55	6029
2026-01-30 00:42:23.49	165.71	8.34	-42.3	-46.5	16.6	6.03e-01	0	61	0	1071644672	55	6093
2026-01-30 00:42:24.50	165.79	8.26	-42.3	-46.5	16.6	6.02e-01	0	61	0	1073217536	55	6063
2026-01-30 00:42:25.51	165.87	8.18	-42.3	-46.5	16.5	6.02e-01	0	61	0	1075314688	55	6125
2026-01-30 00:42:26.52	165.95	8.10	-42.3	-46.6	16.4	6.03e-01	0	61	0	1077411840	55	6161
2026-01-30 00:42:27.53	166.03	8.02	-42.6	-47.1	16.3	6.03e-01	0	61	0	1078984704	55	6512
2026-01-30 00:42:28.54	166.10	7.94	-45.5	-64.1	3.8	7.47e-01	0	61	104	1079508992	61	32709
2026-01-30 00:42:29.55	166.18	7.86	-45.8	-64.6	3.8	7.45e-01	0	61	104	1079508992	62	32620
2026-01-30 00:42:30.56	166.26	7.78	-45.9	-64.8	3.8	7.46e-01	0	61	104	1079508992	62	33570
2026-01-30 00:42:31.57	166.33	7.70	-46.1	-64.9	3.8	7.45e-01	0	61	104	1079508992	62	34031
2026-01-30 00:42:32.58	166.41	7.62	-46.1	-65.0	3.8	7.46e-01	0	61	104	1079508992	62	34247
2026-01-30 00:42:33.59	166.48	7.55	-46.2	-64.9	3.8	7.45e-01	0	61	104	1079508992	62	34028
2026-01-30 00:42:34.60	166.56	7.47	-46.2	-65.1	3.8	7.47e-01	0	61	104	1079508992	62	34520
2026-01-30 00:42:35.62	166.63	7.39	-46.2	-64.9	3.8	7.46e-01	0	61	104	1079508992	63	31936
2026-01-30 00:42:36.63	166.71	7.31	-46.3	-65.2	3.8	7.48e-01	0	61	104	1079508992	63	32983
2026-01-30 00:42:37.64	166.78	7.23	-46.2	-65.1	3.8	7.44e-01	0	61	104	1079508992	63	32892
2026-01-30 00:42:38.65	166.85	7.16	-46.2	-65.1	3.8	7.46e-01	0	61	104	1079508992	63	32858
2026-01-30 00:42:39.65	166.92	7.08	-46.2	-65.1	3.8	7.49e-01	0	61	104	1079508992	63	32726
2026-01-30 00:42:40.67	167.00	7.00	-46.1	-65.1	3.8	7.45e-01	0	61	104	1079508992	63	32622
2026-01-30 00:42:41.68	167.07	6.93	-46.1	-65.0	3.8	7.46e-01	0	61	104	1079508992	63	32474
2026-01-30 00:42:42.69	167.14	6.85	-46.1	-65.0	3.8	7.44e-01	0	61	104	1079508992	63	32353
2026-01-30 00:42:43.70	167.21	6.78	-46.1	-65.0	3.8	7.46e-01	0	61	104	1079508992	63	32311
2026-01-30 00:42:44.71	167.28	6.70	-46.0	-64.9	3.8	7.43e-01	0	61	104	1079508992	63	32104
2026-01-30 00:42:45.72	167.35	6.62	-46.0	-64.9	3.8	7.44e-01	0	61	104	1079508992	63	32041
2026-01-30 00:42:46.73	167.42	6.55	-46.0	-64.9	3.8	7.44e-01	0	61	104	1079508992	63	32128
2026-01-30 00:42:47.74	167.49	6.47	-46.0	-64.9	3.8	7.48e-01	0	61	104	1079508992	63	32115
2026-01-30 00:42:48.75	167.56	6.40	-46.0	-64.9	3.8	7.46e-01	0	61	104	1079508992	63	32043
2026-01-30 00:42:49.76	167.63	6.32	-46.0	-64.9	3.8	7.45e-01	0	61	104	1079508992	63	32054
2026-01-30 00:42:50.77	167.70	6.25	-46.0	-64.9	3.8	7.44e-01	0	61	104	1079508992	63	31978
2026-01-30 00:42:51.78	167.77	6.17	-46.0	-64.9	3.8	7.45e-01	0	61	104	1079508992	63	32068
2026-01-30 00:42:52.79	167.83	6.10	-46.0	-64.9	3.8	7.46e-01	0	61	104	1079508992	63	31987
2026-01-30 00:42:53.80	167.90	6.03	-46.0	-64.9	3.8	7.46e-01	0	61	104	1079508992	63	31986
2026-01-30 00:42:54.82	167.97	5.95	-46.0	-64.9	3.8	7.44e-01	0	61	104	1079508992	63	31961
2026-01-30 00:42:55.83	168.03	5.88	-46.0	-64.9	3.8	7.47e-01	0	61	104	1079508992	63	31966
2026-01-30 00:42:56.84	168.10	5.81	-46.0	-64.9	3.8	7.47e-01	0	61	104	1079508992	63	31952
2026-01-30 00:42:57.85	168.17	5.73	-46.0	-64.9	3.8	7.44e-01	0	61	104	1079508992	63	31970
2026-01-30 00:42:58.86	168.23	5.66	-46.0	-64.9	3.8	7.44e-01	0	61	104	1079508992	63	31943
2026-01-30 00:42:59.87	168.30	5.59	-46.0	-64.9	3.8	7.46e-01	0	61	104	1079508992	63	31939
2026-01-30 00:43:00.88	168.36	5.51	-46.0	-64.9	3.8	7.45e-01	0	61	104	1079508992	63	31973
2026-01-30 00:43:01.89	168.43	5.44	-46.0	-64.9	3.8	7.43e-01	0	61	104	1079508992	63	31901
2026-01-30 00:43:02.90	168.49	5.37	-45.9	-64.9	3.8	7.48e-01	0	61	104	1079508992	63	31817
2026-01-30 00:43:03.91	168.56	5.30	-45.9	-64.8	3.8	7.48e-01	0	61	104	1079508992	63	31752
2026-01-30 00:43:04.92	168.62	5.23	-45.9	-64.8	3.8	7.45e-01	0	61	104	1079508992	63	31778
2026-01-30 00:43:05.93	168.68	5.15	-45.9	-64.8	3.8	7.45e-01	0	61	104	1079508992	63	31784
2026-01-30 00:43:06.94	168.75	5.08	-45.9	-64.8	3.8	7.43e-01	0	61	104	1079508992	63	31809
2026-01-30 00:43:07.95	168.81	5.01	-45.9	-64.8	3.8	7.48e-01	0	61	104	1079508992	63	31754
2026-01-30 00:43:08.96	168.87	4.94	-45.9	-64.8	3.8	7.44e-01	0	61	104	1079508992	63	31769
2026-01-30 00:43:09.97	168.93	4.87	-45.9	-64.8	3.8	7.45e-01	0	61	104	1079508992	63	31722
2026-01-30 00:43:10.98	168.99	4.80	-45.9	-64.8	3.8	7.45e-01	0	61	104	1079508992	63	31694
2026-01-30 00:43:11.99	169.05	4.73	-45.9	-64.8	3.8	7.46e-01	0	61	104	1079508992	63	31690
2026-01-30 00:43:13.00	169.12	4.66	-45.9	-64.8	3.8	7.46e-01	0	61	104	1079508992	63	31694
2026-01-30 00:43:14.01	169.18	4.59	-45.9	-64.8	3.8	7.46e-01	0	61	104	1079508992	63	31747
