passes_logs/2026/01/30/R2.0S_Moscow/R2.0S_Moscow__20260130_041221_FENGYUN_3E_rec.log

#Pass ID: 20260130_041221_FENGYUN 3E
#Satellite: FENGYUN 3E
#Configuration: FENGYUN 3E
#almurnet v.1.7.20251203
#Start time: 2026-01-30 04:12:22

#Version: 2.2.20231116
#Station: R2.0S_Moscow
#Location: 37.707566 lon 55.798166 lat
#TLE: 1 49008U 21062A   26028.95833242 -.00000015  00000+0  13843-4 0  9995
#TLE: 2 49008  98.7500  33.9242 0002547 112.2873 247.8573 14.19887818236829

#Time	Az	El	Level	Level2	SNR	BER	BlckErr	Temp	State	Recorded	gain1	gain2
2026-01-30 04:12:22.23	15.05	2.05	-42.7	-53.9	3.8	8.46e-01	0	51	0	0	56	12690
2026-01-30 04:12:23.23	15.04	2.12	-42.7	-53.9	3.8	8.46e-01	0	51	104	0	56	12705
2026-01-30 04:12:24.24	15.03	2.18	-42.7	-53.9	3.8	8.46e-01	0	51	104	0	56	12710
2026-01-30 04:12:25.25	15.03	2.25	-42.5	-53.7	3.8	8.47e-01	0	52	104	0	55	13196
2026-01-30 04:12:26.26	15.02	2.31	-42.6	-53.7	3.8	8.46e-01	0	52	104	0	55	13189
2026-01-30 04:12:27.27	15.01	2.38	-42.4	-53.6	3.8	8.48e-01	0	52	104	0	55	13106
2026-01-30 04:12:28.28	15.00	2.44	-42.5	-53.7	3.8	8.45e-01	0	52	104	0	55	13190
2026-01-30 04:12:29.29	15.00	2.51	-42.6	-53.7	3.8	8.46e-01	0	52	104	0	55	13182
2026-01-30 04:12:30.30	14.99	2.57	-42.6	-53.7	3.8	8.46e-01	0	52	104	0	55	13203
2026-01-30 04:12:31.31	14.98	2.64	-42.6	-53.7	3.8	8.47e-01	0	52	104	0	55	13218
2026-01-30 04:12:32.32	14.97	2.71	-42.6	-53.7	3.8	8.47e-01	0	52	104	0	55	13156
2026-01-30 04:12:33.33	14.96	2.77	-42.4	-53.6	3.8	8.46e-01	0	52	104	0	55	13006
2026-01-30 04:12:34.35	14.96	2.84	-42.6	-53.7	3.8	8.46e-01	0	52	104	0	55	13177
2026-01-30 04:12:35.36	14.95	2.91	-42.5	-53.7	3.8	8.47e-01	0	52	104	0	55	13199
2026-01-30 04:12:36.37	14.94	2.97	-42.4	-53.7	3.8	8.46e-01	0	52	104	0	55	13116
2026-01-30 04:12:37.38	14.93	3.04	-42.6	-53.7	3.8	8.46e-01	0	52	104	0	55	13182
2026-01-30 04:12:38.39	14.92	3.10	-42.6	-53.7	3.8	8.46e-01	0	53	104	0	55	13178
2026-01-30 04:12:39.40	14.92	3.17	-42.5	-53.7	3.8	8.47e-01	0	53	104	0	55	13122
2026-01-30 04:12:40.41	14.91	3.24	-42.5	-53.7	3.8	8.47e-01	0	53	104	0	55	13171
2026-01-30 04:12:41.42	14.90	3.31	-42.5	-53.7	3.8	8.44e-01	0	53	104	0	55	13232
2026-01-30 04:12:42.43	14.89	3.37	-42.5	-53.7	3.8	8.45e-01	0	53	104	0	55	13183
2026-01-30 04:12:43.44	14.88	3.44	-42.5	-53.7	3.8	8.46e-01	0	53	104	0	55	13141
2026-01-30 04:12:44.45	14.87	3.51	-42.5	-53.7	3.8	8.47e-01	0	53	104	0	55	13167
2026-01-30 04:12:45.46	14.87	3.58	-42.5	-53.6	3.8	8.48e-01	0	53	104	0	55	13102
2026-01-30 04:12:46.47	14.86	3.65	-42.5	-53.7	3.8	8.46e-01	0	53	104	0	55	13117
2026-01-30 04:12:47.48	14.85	3.71	-42.5	-53.7	3.8	8.47e-01	0	53	104	0	55	13137
2026-01-30 04:12:48.50	14.84	3.78	-42.5	-53.7	3.8	8.45e-01	0	53	104	0	55	13147
2026-01-30 04:12:49.50	14.83	3.85	-42.5	-53.7	3.8	8.47e-01	0	54	104	0	55	13132
2026-01-30 04:12:50.51	14.82	3.92	-42.5	-53.7	3.8	8.46e-01	0	54	104	0	55	13117
2026-01-30 04:12:51.53	14.81	3.99	-42.5	-53.7	3.8	8.48e-01	0	54	104	0	55	13151
2026-01-30 04:12:52.53	14.80	4.06	-42.5	-53.7	3.8	8.46e-01	0	54	104	0	55	13115
2026-01-30 04:12:53.55	14.79	4.13	-42.5	-53.6	3.8	8.45e-01	0	54	104	0	55	13086
2026-01-30 04:12:54.56	14.79	4.20	-42.5	-53.6	3.8	8.45e-01	0	54	104	0	55	13036
2026-01-30 04:12:55.57	14.78	4.27	-42.5	-53.7	3.8	8.46e-01	0	54	104	0	55	13140
2026-01-30 04:12:56.58	14.77	4.34	-42.5	-53.5	3.8	8.45e-01	0	54	104	0	55	12877
2026-01-30 04:12:57.59	14.76	4.41	-42.5	-53.6	3.8	8.46e-01	0	54	104	0	55	13053
2026-01-30 04:12:58.60	14.75	4.48	-42.5	-53.5	3.8	8.45e-01	0	54	104	0	55	12933
2026-01-30 04:12:59.61	14.74	4.55	-42.5	-53.5	3.8	8.46e-01	0	54	104	0	55	12875
2026-01-30 04:13:00.62	14.73	4.62	-42.5	-53.6	3.8	8.46e-01	0	54	104	0	55	12984
2026-01-30 04:13:01.63	14.72	4.69	-42.5	-53.4	3.8	8.46e-01	0	54	104	0	55	12758
2026-01-30 04:13:02.64	14.71	4.76	-42.5	-53.6	3.8	8.46e-01	0	54	104	0	55	12973
2026-01-30 04:13:03.65	14.70	4.83	-42.5	-53.4	3.8	8.47e-01	0	54	104	0	55	12717
2026-01-30 04:13:04.66	14.69	4.90	-42.5	-53.4	3.8	8.46e-01	0	54	104	0	55	12766
2026-01-30 04:13:05.67	14.68	4.97	-42.5	-53.6	3.8	8.45e-01	0	54	104	0	55	12987
2026-01-30 04:13:06.68	14.67	5.05	-42.5	-53.3	3.8	8.46e-01	0	54	104	0	55	12626
2026-01-30 04:13:07.69	14.66	5.12	-42.5	-53.3	3.8	8.45e-01	0	55	104	0	55	12634
2026-01-30 04:13:08.70	14.65	5.19	-42.5	-53.6	3.8	8.46e-01	0	54	104	0	55	13043
2026-01-30 04:13:09.71	14.64	5.26	-42.5	-53.6	3.8	8.45e-01	0	55	104	0	55	12997
2026-01-30 04:13:10.72	14.63	5.33	-42.5	-53.2	3.8	8.46e-01	0	55	104	0	55	12440
2026-01-30 04:13:11.73	14.62	5.41	-42.5	-53.2	3.8	8.45e-01	0	55	104	0	55	12457
2026-01-30 04:13:12.75	14.61	5.48	-42.5	-53.6	3.8	8.46e-01	0	55	104	0	55	13016
2026-01-30 04:13:13.75	14.60	5.55	-42.5	-53.7	3.8	8.45e-01	0	55	104	0	55	13147
2026-01-30 04:13:14.76	14.59	5.63	-42.5	-53.5	3.8	8.46e-01	0	55	104	0	55	12957
2026-01-30 04:13:15.77	14.58	5.70	-42.5	-53.3	3.8	8.45e-01	0	55	104	0	55	12649
2026-01-30 04:13:16.78	14.57	5.77	-42.5	-53.1	3.8	8.46e-01	0	55	104	0	55	12283
2026-01-30 04:13:17.79	14.56	5.85	-42.5	-53.0	3.8	8.45e-01	0	55	104	0	55	12179
2026-01-30 04:13:18.81	14.55	5.92	-42.5	-53.0	3.8	8.47e-01	0	55	104	0	55	12181
2026-01-30 04:13:19.82	14.53	6.00	-42.5	-53.1	3.8	8.46e-01	0	55	104	0	55	12326
2026-01-30 04:13:20.83	14.52	6.07	-42.5	-53.4	3.8	8.46e-01	0	55	104	0	55	12805
2026-01-30 04:13:21.83	14.51	6.15	-42.5	-53.7	3.8	8.47e-01	0	55	104	0	55	13119
2026-01-30 04:13:22.85	14.50	6.22	-42.5	-53.6	3.8	8.47e-01	0	55	104	0	55	13008
2026-01-30 04:13:23.86	14.49	6.30	-42.4	-52.9	3.8	8.46e-01	0	55	104	0	55	11994
2026-01-30 04:13:24.87	14.48	6.37	-42.3	-51.9	3.9	8.47e-01	0	55	104	0	55	10745
2026-01-30 04:13:25.88	14.47	6.45	-42.2	-50.8	4.0	8.43e-01	0	55	104	0	55	9486
2026-01-30 04:13:26.89	14.46	6.52	-42.0	-49.6	4.4	8.32e-01	0	56	0	0	54	8716
2026-01-30 04:13:27.90	14.44	6.60	-41.8	-48.8	4.7	8.09e-01	0	56	0	0	54	7934
2026-01-30 04:13:28.91	14.43	6.68	-41.6	-47.9	5.2	7.77e-01	0	56	0	0	54	7186
2026-01-30 04:13:29.92	14.42	6.75	-41.4	-47.4	5.4	7.21e-01	0	56	0	0	53	7194
2026-01-30 04:13:30.93	14.41	6.83	-41.2	-46.8	5.9	5.06e-01	0	56	0	2097152	53	6682
2026-01-30 04:13:31.94	14.40	6.91	-41.0	-46.1	6.4	2.70e-01	0	56	0	9437184	53	6133
2026-01-30 04:13:32.95	14.39	6.98	-40.7	-45.3	7.1	1.63e-01	0	56	0	16777216	52	5991
2026-01-30 04:13:33.96	14.37	7.06	-40.4	-44.4	8.1	6.99e-02	0	56	0	24117248	51	5675
2026-01-30 04:13:34.97	14.36	7.14	-39.8	-43.4	9.2	3.04e-02	0	56	0	31457280	50	5349
2026-01-30 04:13:35.98	14.35	7.22	-39.4	-42.6	10.0	1.07e-02	0	56	0	38797312	49	5192
2026-01-30 04:13:36.99	14.34	7.29	-39.3	-42.4	10.2	6.95e-03	0	56	0	46137344	49	5061
2026-01-30 04:13:38.01	14.32	7.37	-39.2	-42.3	10.3	4.65e-03	0	56	0	53477376	49	4999
2026-01-30 04:13:39.02	14.31	7.45	-39.7	-43.1	9.4	1.35e-02	0	56	0	60817408	49	5522
2026-01-30 04:13:40.03	14.30	7.53	-40.3	-44.4	8.1	5.21e-02	0	56	0	68157440	50	6027
2026-01-30 04:13:41.04	14.29	7.61	-40.6	-44.9	7.6	1.08e-01	0	56	0	75497472	50	6378
2026-01-30 04:13:42.05	14.27	7.69	-40.1	-43.9	8.6	5.58e-02	0	56	0	82837504	50	5675
2026-01-30 04:13:43.06	14.26	7.77	-39.6	-42.9	9.6	1.63e-02	0	56	0	90177536	50	5092
2026-01-30 04:13:44.07	14.25	7.85	-40.0	-43.6	8.9	2.23e-02	0	56	0	96468992	50	5495
2026-01-30 04:13:45.08	14.23	7.93	-40.7	-45.2	7.3	1.15e-01	0	57	0	104857600	50	6582
2026-01-30 04:13:46.09	14.22	8.01	-40.6	-44.8	7.6	1.33e-01	0	57	0	112197632	51	5976
2026-01-30 04:13:47.11	14.21	8.09	-40.3	-43.3	10.0	7.38e-03	0	57	0	118489088	51	4996
2026-01-30 04:13:48.12	14.19	8.17	-40.8	-44.8	8.0	6.48e-02	0	57	0	125829120	51	5926
2026-01-30 04:13:49.13	14.18	8.25	-41.1	-45.9	6.8	2.20e-01	0	57	0	134217728	51	6747
2026-01-30 04:13:50.14	14.17	8.33	-40.7	-43.9	9.4	1.50e-02	0	57	0	140509184	51	5377
2026-01-30 04:13:51.15	14.15	8.42	-40.7	-45.5	6.8	1.26e-01	0	57	0	147849216	51	6482
2026-01-30 04:13:52.16	14.14	8.50	-40.8	-44.1	9.1	3.04e-02	0	57	0	155189248	51	5512
2026-01-30 04:13:53.16	14.13	8.58	-40.5	-43.6	9.7	1.39e-02	0	57	0	162529280	51	5201
2026-01-30 04:13:54.18	14.11	8.66	-40.7	-43.9	9.4	1.81e-02	0	57	0	169869312	51	5378
2026-01-30 04:13:55.18	14.10	8.74	-40.7	-44.0	9.4	1.74e-02	0	57	0	177209344	51	5409
2026-01-30 04:13:56.19	14.08	8.83	-40.6	-43.8	9.6	1.62e-02	0	57	0	184549376	51	5303
2026-01-30 04:13:57.21	14.07	8.91	-40.5	-43.5	9.9	9.51e-03	0	57	0	191889408	51	5136
2026-01-30 04:13:58.22	14.06	9.00	-40.5	-43.7	9.7	1.17e-02	0	57	0	199229440	51	5219
2026-01-30 04:13:59.23	14.04	9.08	-40.5	-43.6	9.8	8.66e-03	0	57	0	206569472	51	5194
2026-01-30 04:14:00.24	14.03	9.16	-40.4	-43.5	9.9	9.88e-03	0	57	0	213909504	51	5129
2026-01-30 04:14:01.25	14.01	9.25	-40.5	-43.5	10.0	9.02e-03	0	57	0	221249536	51	5130
2026-01-30 04:14:02.26	14.00	9.33	-40.3	-43.3	10.2	6.86e-03	0	57	0	228589568	51	5020
2026-01-30 04:14:03.27	13.98	9.42	-40.5	-43.5	10.0	8.24e-03	0	57	0	235929600	51	5148
2026-01-30 04:14:04.28	13.97	9.50	-40.4	-43.3	10.2	9.08e-03	0	57	0	243269632	51	5027
2026-01-30 04:14:05.29	13.95	9.59	-40.5	-43.5	10.0	8.79e-03	0	57	0	250609664	51	5155
2026-01-30 04:14:06.30	13.94	9.67	-40.6	-43.6	9.9	9.37e-03	0	57	0	257949696	51	5209
2026-01-30 04:14:07.31	13.92	9.76	-40.6	-43.7	9.9	9.47e-03	0	57	0	265289728	51	5228
2026-01-30 04:14:08.32	13.91	9.85	-40.6	-43.5	10.0	8.38e-03	0	57	0	271581184	51	5150
2026-01-30 04:14:09.33	13.89	9.93	-40.6	-43.7	9.9	1.02e-02	0	57	0	279969792	51	5238
2026-01-30 04:14:10.34	13.87	10.02	-40.6	-43.6	10.0	8.43e-03	0	57	0	287309824	51	5174
2026-01-30 04:14:11.35	13.86	10.11	-40.6	-43.5	10.1	6.26e-03	0	58	0	293601280	51	5146
2026-01-30 04:14:12.36	13.84	10.20	-40.4	-43.3	10.3	5.78e-03	0	57	0	300941312	51	5001
2026-01-30 04:14:13.37	13.83	10.28	-40.3	-43.0	10.6	3.94e-03	0	57	0	308281344	51	4861
2026-01-30 04:14:14.38	13.81	10.37	-40.4	-43.1	10.6	3.71e-03	0	57	0	315621376	51	4920
2026-01-30 04:14:15.39	13.79	10.46	-40.3	-43.1	10.6	3.25e-03	0	58	0	322961408	51	4889
2026-01-30 04:14:16.40	13.78	10.55	-40.2	-42.9	10.8	2.89e-03	0	58	0	330301440	51	4799
2026-01-30 04:14:17.41	13.76	10.64	-40.4	-43.2	10.6	3.06e-03	0	58	0	337641472	51	4933
2026-01-30 04:14:18.42	13.74	10.73	-40.3	-43.0	10.7	3.93e-03	0	58	0	344981504	51	4850
2026-01-30 04:14:19.43	13.73	10.82	-40.2	-42.8	10.9	2.43e-03	0	58	0	352321536	51	4756
2026-01-30 04:14:20.44	13.71	10.91	-40.1	-42.8	11.0	2.38e-03	0	58	0	359661568	51	4736
2026-01-30 04:14:21.45	13.69	11.00	-40.1	-42.8	11.0	2.22e-03	0	58	0	367001600	51	4710
2026-01-30 04:14:22.46	13.68	11.09	-40.0	-42.6	11.1	1.74e-03	0	58	0	374341632	51	4644
2026-01-30 04:14:23.47	13.66	11.18	-40.1	-42.7	11.1	1.82e-03	0	58	0	381681664	51	4687
2026-01-30 04:14:24.47	13.64	11.27	-40.1	-42.6	11.2	1.31e-03	0	58	0	389021696	50	4912
2026-01-30 04:14:25.48	13.62	11.36	-40.0	-42.6	11.3	1.69e-03	0	58	0	396361728	50	4882
2026-01-30 04:14:26.49	13.61	11.46	-40.2	-42.8	11.0	1.82e-03	0	58	0	403701760	50	5000
2026-01-30 04:14:27.50	13.59	11.55	-40.1	-42.7	11.1	1.84e-03	0	58	0	411041792	50	4973
2026-01-30 04:14:28.51	13.57	11.64	-40.2	-42.8	11.0	2.14e-03	0	58	0	417333248	50	5021
2026-01-30 04:14:29.53	13.55	11.74	-40.2	-42.8	11.0	2.34e-03	0	58	0	424673280	50	5028
2026-01-30 04:14:30.54	13.53	11.83	-40.1	-42.8	11.1	1.88e-03	0	58	0	433061888	50	4985
2026-01-30 04:14:31.55	13.52	11.92	-40.1	-42.7	11.2	1.63e-03	0	58	0	439353344	50	4961
2026-01-30 04:14:32.55	13.50	12.02	-40.1	-42.6	11.3	1.44e-03	0	58	0	446693376	50	4909
2026-01-30 04:14:33.57	13.48	12.11	-40.0	-42.6	11.3	1.44e-03	0	58	0	454033408	50	4887
2026-01-30 04:14:34.58	13.46	12.21	-40.0	-42.5	11.4	1.17e-03	0	58	0	461373440	50	4837
2026-01-30 04:14:35.59	13.44	12.30	-39.8	-42.2	11.7	7.71e-04	0	58	0	468713472	50	4693
2026-01-30 04:14:36.59	13.42	12.40	-39.9	-42.3	11.6	7.38e-04	0	58	0	476053504	50	4722
2026-01-30 04:14:37.60	13.40	12.49	-39.8	-42.2	11.7	7.31e-04	0	58	0	483393536	50	4698
2026-01-30 04:14:38.61	13.38	12.59	-39.9	-42.3	11.7	8.42e-04	0	58	0	490733568	50	4739
2026-01-30 04:14:39.62	13.36	12.69	-39.9	-42.3	11.7	5.77e-04	0	58	0	498073600	50	4735
2026-01-30 04:14:40.63	13.34	12.79	-39.8	-42.1	11.8	6.71e-04	0	58	0	505413632	50	4647
2026-01-30 04:14:41.64	13.32	12.88	-39.8	-42.2	11.8	5.47e-04	0	58	0	512753664	50	4694
2026-01-30 04:14:42.65	13.30	12.98	-39.9	-42.3	11.8	5.07e-04	0	58	0	520093696	50	4723
2026-01-30 04:14:43.66	13.28	13.08	-39.9	-42.3	11.8	5.19e-04	0	58	0	527433728	50	4720
2026-01-30 04:14:44.67	13.26	13.18	-39.7	-42.1	12.0	3.73e-04	0	58	0	534773760	50	4607
2026-01-30 04:14:45.68	13.24	13.28	-39.8	-42.2	11.9	4.32e-04	0	58	0	542113792	50	4690
2026-01-30 04:14:46.69	13.22	13.38	-39.9	-42.2	11.9	4.99e-04	0	58	0	549453824	50	4697
2026-01-30 04:14:47.70	13.20	13.48	-39.9	-42.2	11.9	4.12e-04	0	58	0	556793856	50	4689
2026-01-30 04:14:48.71	13.18	13.58	-39.7	-41.9	12.2	3.13e-04	0	58	0	564133888	50	4537
2026-01-30 04:14:49.72	13.16	13.68	-39.6	-41.9	12.3	2.32e-04	0	58	0	570425344	50	4505
2026-01-30 04:14:50.73	13.14	13.78	-39.6	-41.8	12.4	1.61e-04	0	59	0	578813952	50	4476
2026-01-30 04:14:51.74	13.11	13.88	-39.6	-41.8	12.4	1.41e-04	0	59	0	586153984	50	4471
2026-01-30 04:14:52.75	13.09	13.99	-39.6	-41.8	12.3	1.88e-04	0	58	0	592445440	50	4485
2026-01-30 04:14:53.76	13.07	14.09	-39.6	-41.8	12.4	1.99e-04	0	59	0	599785472	50	4493
2026-01-30 04:14:54.77	13.05	14.19	-39.7	-41.9	12.3	1.66e-04	0	58	0	607125504	50	4521
2026-01-30 04:14:55.78	13.03	14.29	-39.6	-41.8	12.4	1.36e-04	0	58	0	614465536	50	4481
2026-01-30 04:14:56.79	13.00	14.40	-39.6	-41.9	12.4	2.17e-04	0	59	0	621805568	50	4496
2026-01-30 04:14:57.80	12.98	14.50	-39.7	-41.9	12.3	1.93e-04	0	59	0	629145600	50	4527
2026-01-30 04:14:58.81	12.96	14.61	-39.7	-41.9	12.3	1.97e-04	0	59	0	636485632	50	4540
2026-01-30 04:14:59.82	12.93	14.71	-39.7	-42.0	12.2	2.16e-04	0	59	0	643825664	50	4565
2026-01-30 04:15:00.83	12.91	14.82	-39.7	-42.0	12.2	2.40e-04	0	59	0	651165696	50	4565
2026-01-30 04:15:01.84	12.89	14.93	-39.7	-42.0	12.2	2.55e-04	0	59	0	658505728	50	4579
2026-01-30 04:15:02.85	12.86	15.03	-39.6	-41.9	12.4	1.76e-04	0	59	0	665845760	50	4506
2026-01-30 04:15:03.86	12.84	15.14	-39.6	-41.8	12.5	1.29e-04	0	59	0	673185792	50	4465
2026-01-30 04:15:04.87	12.81	15.25	-39.6	-41.8	12.5	1.15e-04	0	59	0	680525824	50	4456
2026-01-30 04:15:05.88	12.79	15.35	-39.7	-42.0	12.3	1.76e-04	0	59	0	687865856	50	4564
2026-01-30 04:15:06.89	12.77	15.46	-39.5	-41.6	12.7	1.27e-04	0	59	0	695205888	50	4390
2026-01-30 04:15:07.90	12.74	15.57	-39.5	-41.7	12.6	1.20e-04	0	59	0	702545920	50	4402
2026-01-30 04:15:08.91	12.72	15.68	-39.4	-41.6	12.8	9.61e-05	0	59	0	709885952	49	4604
2026-01-30 04:15:09.92	12.69	15.79	-39.5	-41.6	12.7	8.35e-05	0	59	0	716177408	49	4624
2026-01-30 04:15:10.93	12.67	15.90	-39.4	-41.4	12.9	5.14e-05	0	59	0	724566016	49	4545
2026-01-30 04:15:11.94	12.64	16.01	-39.4	-41.5	12.9	5.14e-05	0	59	0	731906048	49	4546
2026-01-30 04:15:12.95	12.61	16.13	-39.3	-41.4	13.0	3.54e-05	0	59	0	738197504	49	4504
2026-01-30 04:15:13.96	12.59	16.24	-39.2	-41.3	13.2	2.17e-05	0	59	0	745537536	49	4452
2026-01-30 04:15:14.97	12.56	16.35	-39.2	-41.2	13.2	2.28e-05	0	59	0	752877568	49	4406
2026-01-30 04:15:15.98	12.54	16.46	-39.1	-41.0	13.5	1.48e-05	0	59	0	760217600	49	4317
2026-01-30 04:15:16.99	12.51	16.58	-39.1	-41.0	13.4	2.17e-05	0	59	0	767557632	49	4320
2026-01-30 04:15:18.01	12.48	16.69	-39.1	-41.0	13.4	1.48e-05	0	59	0	774897664	49	4317
2026-01-30 04:15:19.02	12.45	16.81	-39.0	-41.0	13.5	1.14e-05	0	59	0	782237696	49	4307
2026-01-30 04:15:20.03	12.43	16.92	-39.0	-40.9	13.6	1.71e-05	0	59	0	789577728	49	4270
2026-01-30 04:15:21.04	12.40	17.04	-39.0	-40.9	13.6	5.70e-06	0	59	0	796917760	48	4533
2026-01-30 04:15:22.05	12.37	17.15	-38.8	-40.7	13.9	1.10e-06	0	59	0	804257792	48	4397
2026-01-30 04:15:23.06	12.34	17.27	-38.9	-40.7	13.8	4.50e-06	0	59	0	811597824	48	4435
2026-01-30 04:15:24.07	12.31	17.39	-38.9	-40.8	13.7	6.80e-06	0	59	0	818937856	48	4461
2026-01-30 04:15:25.08	12.29	17.51	-38.9	-40.8	13.8	5.70e-06	0	59	0	826277888	48	4446
2026-01-30 04:15:26.09	12.26	17.62	-38.8	-40.7	13.8	2.20e-06	0	59	0	833617920	48	4418
2026-01-30 04:15:27.10	12.23	17.74	-38.8	-40.6	13.9	5.83e-05	0	59	0	840957952	48	4374
2026-01-30 04:15:28.11	12.20	17.86	-38.8	-40.6	13.9	3.40e-06	0	59	0	848297984	48	4389
2026-01-30 04:15:29.12	12.17	17.98	-38.7	-40.5	14.0	1.10e-06	0	59	0	855638016	48	4338
2026-01-30 04:15:30.13	12.14	18.10	-38.7	-40.5	14.0	2.20e-06	0	59	0	862978048	48	4322
2026-01-30 04:15:31.14	12.11	18.23	-38.7	-40.6	14.0	4.50e-06	0	59	0	870318080	48	4363
2026-01-30 04:15:32.15	12.08	18.35	-38.7	-40.6	14.0	0.00e+00	0	59	0	877658112	48	4356
2026-01-30 04:15:33.16	12.05	18.47	-38.7	-40.5	14.1	0.00e+00	0	59	0	884998144	48	4305
2026-01-30 04:15:34.17	12.02	18.59	-38.7	-40.5	14.1	1.10e-06	0	59	0	891289600	48	4310
2026-01-30 04:15:35.19	11.98	18.72	-38.7	-40.5	14.1	0.00e+00	0	59	0	899678208	48	4294
2026-01-30 04:15:36.19	11.95	18.84	-38.7	-40.5	14.1	2.20e-06	0	59	0	907018240	48	4294
2026-01-30 04:15:37.20	11.92	18.97	-38.6	-40.3	14.3	0.00e+00	0	59	0	913309696	48	4231
2026-01-30 04:15:38.21	11.89	19.09	-38.7	-40.5	14.1	2.20e-06	0	59	0	920649728	48	4333
2026-01-30 04:15:39.22	11.86	19.22	-38.6	-40.4	14.2	1.10e-06	0	59	0	927989760	48	4270
2026-01-30 04:15:40.23	11.82	19.35	-38.6	-40.4	14.2	2.20e-06	0	59	0	935329792	48	4288
2026-01-30 04:15:41.24	11.79	19.47	-38.6	-40.4	14.2	2.20e-06	0	59	0	942669824	48	4263
2026-01-30 04:15:42.25	11.76	19.60	-38.7	-40.5	14.1	3.40e-06	0	59	0	950009856	48	4338
2026-01-30 04:15:43.26	11.72	19.73	-38.5	-40.3	14.3	2.20e-06	0	59	0	957349888	48	4223
2026-01-30 04:15:44.27	11.69	19.86	-38.6	-40.4	14.2	1.10e-06	0	59	0	964689920	48	4255
2026-01-30 04:15:45.28	11.65	19.99	-38.7	-40.5	14.2	1.10e-06	0	59	0	972029952	48	4296
2026-01-30 04:15:46.29	11.62	20.12	-38.6	-40.4	14.2	1.10e-06	0	59	0	979369984	48	4271
2026-01-30 04:15:47.31	11.58	20.25	-38.7	-40.6	14.1	0.00e+00	0	59	0	986710016	48	4345
2026-01-30 04:15:48.31	11.55	20.38	-38.6	-40.4	14.3	1.10e-06	0	59	0	994050048	48	4243
2026-01-30 04:15:49.32	11.51	20.52	-38.6	-40.4	14.2	0.00e+00	0	59	0	1001390080	48	4274
2026-01-30 04:15:50.33	11.48	20.65	-38.6	-40.4	14.2	0.00e+00	0	59	0	1008730112	48	4277
2026-01-30 04:15:51.35	11.44	20.79	-38.6	-40.5	14.2	1.10e-06	0	59	0	1016070144	48	4292
2026-01-30 04:15:52.36	11.40	20.92	-38.5	-40.3	14.4	3.40e-06	0	60	0	1023410176	48	4223
2026-01-30 04:15:53.37	11.37	21.06	-38.6	-40.3	14.3	0.00e+00	0	59	0	1030750208	48	4239
2026-01-30 04:15:54.38	11.33	21.19	-38.6	-40.4	14.3	0.00e+00	0	59	0	1038090240	48	4273
2026-01-30 04:15:55.39	11.29	21.33	-38.6	-40.4	14.3	2.20e-06	0	60	0	1045430272	48	4262
2026-01-30 04:15:56.40	11.25	21.47	-38.6	-40.4	14.3	2.20e-06	0	60	0	1052770304	48	4260
2026-01-30 04:15:57.41	11.21	21.61	-38.6	-40.3	14.3	1.10e-06	0	59	0	1059061760	48	4240
2026-01-30 04:15:58.42	11.17	21.75	-38.6	-40.4	14.3	1.10e-06	0	60	0	1066401792	48	4244
2026-01-30 04:15:59.43	11.13	21.89	-38.7	-40.5	14.2	2.20e-06	0	60	0	1074790400	48	4307
2026-01-30 04:16:00.44	11.09	22.03	-38.6	-40.4	14.3	0.00e+00	0	60	0	1081081856	48	4258
2026-01-30 04:16:01.45	11.05	22.17	-38.7	-40.4	14.3	2.20e-06	0	60	0	1088421888	48	4283
2026-01-30 04:16:02.46	11.01	22.31	-38.7	-40.5	14.2	2.20e-06	0	60	0	1095761920	48	4299
2026-01-30 04:16:03.47	10.97	22.46	-38.6	-40.4	14.3	1.10e-06	0	60	0	1103101952	48	4276
2026-01-30 04:16:04.48	10.93	22.60	-38.6	-40.4	14.3	1.10e-06	0	60	0	1110441984	48	4258
2026-01-30 04:16:05.49	10.89	22.75	-38.5	-40.3	14.4	2.20e-06	0	60	0	1117782016	48	4211
2026-01-30 04:16:06.50	10.85	22.89	-38.6	-40.3	14.4	1.10e-06	0	60	0	1125122048	48	4215
2026-01-30 04:16:07.51	10.80	23.04	-38.5	-40.3	14.4	0.00e+00	0	60	0	1132462080	48	4210
2026-01-30 04:16:08.52	10.76	23.19	-38.3	-40.0	14.5	1.10e-06	0	60	0	1139802112	47	4330
2026-01-30 04:16:09.53	10.72	23.33	-38.4	-40.2	14.4	1.10e-06	0	60	0	1147142144	47	4397
2026-01-30 04:16:10.54	10.67	23.48	-38.3	-40.1	14.5	0.00e+00	0	60	0	1154482176	47	4350
2026-01-30 04:16:11.55	10.63	23.63	-38.3	-40.0	14.6	0.00e+00	0	60	0	1161822208	47	4332
2026-01-30 04:16:12.56	10.58	23.78	-38.2	-39.9	14.6	1.10e-06	0	60	0	1169162240	47	4272
2026-01-30 04:16:13.57	10.54	23.94	-38.2	-39.9	14.6	1.10e-06	0	60	0	1176502272	47	4290
2026-01-30 04:16:14.58	10.49	24.09	-38.1	-39.8	14.8	1.10e-06	0	60	0	1183842304	47	4233
2026-01-30 04:16:15.59	10.44	24.24	-38.1	-39.8	14.8	0.00e+00	0	60	0	1191182336	47	4196
2026-01-30 04:16:16.60	10.40	24.40	-38.0	-39.7	14.9	1.10e-06	0	60	0	1198522368	47	4165
2026-01-30 04:16:17.61	10.35	24.55	-38.0	-39.7	14.9	0.00e+00	0	60	0	1205862400	47	4167
2026-01-30 04:16:18.62	10.30	24.71	-38.0	-39.7	14.9	1.10e-06	0	60	0	1212153856	47	4168
2026-01-30 04:16:19.63	10.25	24.86	-38.0	-39.7	14.9	0.00e+00	0	60	0	1220542464	46	4414
2026-01-30 04:16:20.64	10.20	25.02	-38.0	-39.6	15.0	0.00e+00	0	60	0	1227882496	46	4375
2026-01-30 04:16:21.65	10.15	25.18	-38.0	-39.6	15.0	0.00e+00	0	60	0	1234173952	46	4375
2026-01-30 04:16:22.66	10.10	25.34	-37.9	-39.5	15.0	0.00e+00	0	60	0	1241513984	46	4339
2026-01-30 04:16:23.67	10.05	25.50	-37.9	-39.5	15.1	0.00e+00	0	60	0	1248854016	46	4304
2026-01-30 04:16:24.68	10.00	25.66	-37.9	-39.5	15.1	1.10e-06	0	60	0	1256194048	46	4338
2026-01-30 04:16:25.69	9.95	25.83	-37.8	-39.4	15.2	0.00e+00	0	60	0	1263534080	46	4287
2026-01-30 04:16:26.70	9.90	25.99	-37.8	-39.5	15.2	0.00e+00	0	60	0	1270874112	46	4298
2026-01-30 04:16:27.71	9.85	26.15	-37.9	-39.5	15.1	0.00e+00	0	60	0	1278214144	46	4308
2026-01-30 04:16:28.73	9.79	26.32	-37.8	-39.4	15.3	0.00e+00	0	60	0	1285554176	46	4248
2026-01-30 04:16:29.74	9.74	26.49	-37.8	-39.3	15.2	1.10e-06	0	60	0	1292894208	46	4242
2026-01-30 04:16:30.75	9.68	26.65	-37.8	-39.4	15.2	0.00e+00	0	60	0	1300234240	46	4275
2026-01-30 04:16:31.76	9.63	26.82	-37.8	-39.4	15.3	0.00e+00	0	60	0	1307574272	46	4265
2026-01-30 04:16:32.77	9.57	26.99	-37.8	-39.4	15.3	0.00e+00	0	60	0	1314914304	46	4247
2026-01-30 04:16:33.78	9.51	27.16	-37.8	-39.4	15.2	0.00e+00	0	60	0	1322254336	46	4261
2026-01-30 04:16:34.79	9.46	27.34	-37.8	-39.4	15.3	0.00e+00	0	60	0	1329594368	46	4248
2026-01-30 04:16:35.80	9.40	27.51	-37.7	-39.2	15.4	0.00e+00	0	60	0	1336934400	46	4186
2026-01-30 04:16:36.81	9.34	27.68	-37.8	-39.4	15.3	0.00e+00	0	60	0	1344274432	46	4246
2026-01-30 04:16:37.82	9.28	27.86	-37.7	-39.3	15.3	0.00e+00	0	60	0	1351614464	46	4222
2026-01-30 04:16:38.83	9.22	28.03	-37.8	-39.4	15.2	0.00e+00	0	60	0	1358954496	46	4279
2026-01-30 04:16:39.84	9.16	28.21	-37.7	-39.3	15.4	0.00e+00	0	60	0	1366294528	46	4222
2026-01-30 04:16:40.85	9.10	28.39	-37.8	-39.4	15.3	0.00e+00	0	60	0	1373634560	46	4271
2026-01-30 04:16:41.86	9.04	28.57	-37.8	-39.4	15.2	0.00e+00	0	60	0	1379926016	46	4272
2026-01-30 04:16:42.87	8.97	28.75	-37.9	-39.5	15.2	0.00e+00	0	60	0	1387266048	46	4318
2026-01-30 04:16:43.88	8.91	28.93	-37.8	-39.4	15.3	0.00e+00	0	60	0	1395654656	46	4251
2026-01-30 04:16:44.89	8.85	29.11	-37.8	-39.4	15.3	0.00e+00	0	60	0	1401946112	46	4273
2026-01-30 04:16:45.90	8.78	29.30	-37.6	-39.2	15.5	0.00e+00	0	60	0	1409286144	46	4168
2026-01-30 04:16:46.91	8.71	29.48	-37.6	-39.1	15.6	0.00e+00	0	60	0	1416626176	46	4120
2026-01-30 04:16:47.92	8.65	29.67	-37.5	-39.0	15.6	0.00e+00	0	60	0	1423966208	46	4093
2026-01-30 04:16:48.93	8.58	29.86	-37.4	-38.9	15.8	0.00e+00	0	60	0	1431306240	45	4286
2026-01-30 04:16:49.94	8.51	30.04	-37.5	-39.0	15.7	0.00e+00	0	60	0	1438646272	45	4324
2026-01-30 04:16:50.95	8.44	30.23	-37.5	-39.0	15.7	0.00e+00	0	60	0	1445986304	45	4306
2026-01-30 04:16:51.96	8.37	30.42	-37.5	-39.0	15.7	0.00e+00	0	60	0	1453326336	45	4304
2026-01-30 04:16:52.97	8.30	30.62	-37.5	-39.0	15.7	0.00e+00	0	60	0	1460666368	45	4321
2026-01-30 04:16:53.98	8.23	30.81	-37.5	-39.0	15.7	0.00e+00	0	60	0	1468006400	45	4317
2026-01-30 04:16:55.00	8.15	31.01	-37.5	-39.1	15.6	0.00e+00	0	60	0	1475346432	45	4354
2026-01-30 04:16:56.00	8.08	31.20	-37.6	-39.1	15.6	0.00e+00	0	60	0	1482686464	45	4374
2026-01-30 04:16:57.01	8.01	31.40	-37.5	-39.1	15.6	0.00e+00	0	60	0	1490026496	45	4342
2026-01-30 04:16:58.03	7.93	31.60	-37.5	-39.0	15.7	0.00e+00	0	60	0	1497366528	45	4322
2026-01-30 04:16:59.04	7.85	31.80	-37.5	-39.0	15.7	0.00e+00	0	60	0	1504706560	45	4329
2026-01-30 04:17:00.05	7.78	32.00	-37.5	-39.0	15.7	0.00e+00	0	60	0	1512046592	45	4338
2026-01-30 04:17:01.06	7.70	32.20	-37.6	-39.1	15.6	0.00e+00	0	60	0	1519386624	45	4388
2026-01-30 04:17:02.07	7.62	32.41	-37.6	-39.2	15.6	0.00e+00	0	60	0	1526726656	45	4394
2026-01-30 04:17:03.08	7.54	32.61	-37.6	-39.2	15.6	0.00e+00	0	60	0	1534066688	45	4402
2026-01-30 04:17:04.09	7.45	32.82	-37.6	-39.2	15.5	0.00e+00	0	60	0	1541406720	45	4409
2026-01-30 04:17:05.10	7.37	33.03	-37.7	-39.3	15.5	0.00e+00	0	60	0	1548746752	45	4473
2026-01-30 04:17:06.11	7.29	33.24	-37.7	-39.2	15.5	0.00e+00	0	60	0	1555038208	45	4435
2026-01-30 04:17:07.12	7.20	33.45	-37.6	-39.2	15.5	0.00e+00	0	60	0	1562378240	45	4421
2026-01-30 04:17:08.13	7.11	33.66	-37.6	-39.2	15.6	0.00e+00	0	60	0	1570766848	45	4409
2026-01-30 04:17:09.14	7.03	33.87	-37.6	-39.1	15.7	0.00e+00	0	60	0	1577058304	45	4366
2026-01-30 04:17:10.15	6.94	34.09	-37.6	-39.1	15.6	0.00e+00	0	60	0	1584398336	45	4373
2026-01-30 04:17:11.16	6.85	34.30	-37.6	-39.1	15.6	0.00e+00	0	60	0	1591738368	45	4383
2026-01-30 04:17:12.17	6.76	34.52	-37.6	-39.2	15.6	0.00e+00	0	60	0	1599078400	45	4394
2026-01-30 04:17:13.19	6.66	34.74	-37.6	-39.2	15.6	0.00e+00	0	60	0	1606418432	45	4417
2026-01-30 04:17:14.20	6.57	34.96	-37.6	-39.2	15.6	0.00e+00	0	60	0	1613758464	45	4414
2026-01-30 04:17:15.21	6.47	35.18	-37.6	-39.2	15.6	0.00e+00	0	61	0	1621098496	45	4399
2026-01-30 04:17:16.22	6.38	35.41	-37.6	-39.1	15.6	0.00e+00	0	60	0	1628438528	45	4375
2026-01-30 04:17:17.23	6.28	35.63	-37.6	-39.2	15.6	0.00e+00	0	60	0	1635778560	45	4400
2026-01-30 04:17:18.24	6.18	35.86	-37.6	-39.1	15.7	1.10e-06	0	61	0	1643118592	45	4365
2026-01-30 04:17:19.25	6.08	36.09	-37.5	-39.0	15.7	0.00e+00	0	61	0	1650458624	45	4322
2026-01-30 04:17:20.26	5.98	36.32	-37.6	-39.2	15.6	0.00e+00	0	61	0	1657798656	45	4398
2026-01-30 04:17:21.27	5.87	36.55	-37.8	-39.3	15.4	0.00e+00	0	61	0	1665138688	45	4487
2026-01-30 04:17:22.28	5.77	36.78	-37.7	-39.3	15.4	1.10e-06	0	60	0	1672478720	45	4477
2026-01-30 04:17:23.29	5.66	37.02	-37.9	-39.5	15.3	1.10e-06	0	60	0	1679818752	45	4561
2026-01-30 04:17:24.30	5.55	37.25	-37.8	-39.4	15.4	0.00e+00	0	61	0	1687158784	45	4528
2026-01-30 04:17:25.31	5.44	37.49	-37.8	-39.4	15.4	0.00e+00	0	60	0	1694498816	45	4506
2026-01-30 04:17:26.32	5.33	37.73	-37.8	-39.3	15.4	0.00e+00	0	60	0	1700790272	45	4481
2026-01-30 04:17:27.33	5.22	37.97	-37.7	-39.2	15.6	0.00e+00	0	60	0	1709178880	45	4413
2026-01-30 04:17:28.34	5.10	38.21	-37.8	-39.4	15.4	0.00e+00	0	60	0	1716518912	45	4502
2026-01-30 04:17:29.35	4.98	38.45	-37.7	-39.3	15.5	0.00e+00	0	61	0	1722810368	45	4452
2026-01-30 04:17:30.36	4.86	38.70	-37.8	-39.4	15.4	0.00e+00	0	61	0	1730150400	45	4499
2026-01-30 04:17:31.37	4.74	38.95	-37.7	-39.2	15.6	0.00e+00	0	61	0	1737490432	45	4430
2026-01-30 04:17:32.38	4.62	39.20	-37.6	-39.2	15.6	0.00e+00	0	61	0	1744830464	45	4400
2026-01-30 04:17:33.39	4.49	39.45	-37.7	-39.3	15.5	0.00e+00	0	61	0	1752170496	45	4449
2026-01-30 04:17:34.40	4.37	39.70	-37.6	-39.1	15.6	0.00e+00	0	61	0	1759510528	45	4391
2026-01-30 04:17:35.41	4.24	39.95	-37.7	-39.3	15.6	0.00e+00	0	60	0	1766850560	45	4450
2026-01-30 04:17:36.42	4.11	40.21	-37.8	-39.4	15.4	0.00e+00	0	60	0	1774190592	45	4494
2026-01-30 04:17:37.43	3.98	40.46	-37.9	-39.5	15.4	0.00e+00	0	60	0	1781530624	45	4554
2026-01-30 04:17:38.44	3.84	40.72	-38.0	-39.6	15.1	0.00e+00	0	61	0	1788870656	45	4651
2026-01-30 04:17:39.45	3.70	40.98	-38.0	-39.6	15.2	0.00e+00	0	60	0	1796210688	45	4620
2026-01-30 04:17:40.46	3.56	41.25	-38.1	-39.7	15.1	4.69e-05	0	61	0	1803550720	45	4683
2026-01-30 04:17:41.47	3.42	41.51	-38.1	-39.7	15.2	0.00e+00	0	61	0	1810890752	45	4671
2026-01-30 04:17:42.48	3.28	41.78	-38.2	-39.8	15.0	0.00e+00	0	60	0	1818230784	45	4729
2026-01-30 04:17:43.49	3.13	42.04	-38.1	-39.7	15.1	3.00e-04	0	61	0	1825570816	45	4674
2026-01-30 04:17:44.50	2.98	42.31	-38.1	-39.8	15.1	0.00e+00	0	60	0	1832910848	46	4443
2026-01-30 04:17:45.51	2.83	42.58	-38.0	-39.5	15.3	0.00e+00	0	60	0	1840250880	46	4332
2026-01-30 04:17:46.52	2.67	42.85	-37.8	-39.4	15.5	0.00e+00	0	61	0	1847590912	46	4257
2026-01-30 04:17:47.53	2.51	43.13	-38.0	-39.5	15.3	0.00e+00	0	61	0	1854930944	46	4333
2026-01-30 04:17:48.54	2.35	43.41	-38.0	-39.5	15.3	0.00e+00	0	60	0	1862270976	46	4332
2026-01-30 04:17:49.56	2.19	43.69	-38.2	-39.9	15.0	0.00e+00	0	60	0	1869611008	46	4507
2026-01-30 04:17:50.56	2.02	43.96	-38.2	-39.9	15.0	0.00e+00	0	61	0	1875902464	46	4495
2026-01-30 04:17:51.57	1.86	44.24	-38.2	-39.9	15.0	0.00e+00	0	61	0	1883242496	46	4495
2026-01-30 04:17:52.58	1.68	44.53	-38.3	-39.9	14.9	0.00e+00	0	61	0	1891631104	46	4530
2026-01-30 04:17:53.59	1.51	44.81	-38.4	-40.1	14.8	1.10e-06	0	60	0	1897922560	46	4615
2026-01-30 04:17:54.60	1.33	45.10	-38.7	-40.4	14.4	0.00e+00	0	60	0	1905262592	47	4526
2026-01-30 04:17:55.61	1.15	45.39	-38.6	-40.4	14.5	0.00e+00	0	61	0	1912602624	47	4503
2026-01-30 04:17:56.62	0.96	45.68	-38.7	-40.5	14.3	1.10e-06	0	61	0	1919942656	47	4580
2026-01-30 04:17:57.63	0.77	45.97	-38.6	-40.4	14.4	2.20e-06	0	61	0	1927282688	47	4502
2026-01-30 04:17:58.64	0.58	46.26	-38.7	-40.4	14.4	1.10e-06	0	60	0	1934622720	47	4521
2026-01-30 04:17:59.65	0.38	46.56	-38.8	-40.5	14.3	4.50e-06	0	60	0	1941962752	47	4598
2026-01-30 04:18:00.67	0.18	46.86	-38.7	-40.5	14.3	1.10e-06	0	61	0	1949302784	47	4586
2026-01-30 04:18:01.68	359.98	47.16	-38.6	-40.3	14.6	1.10e-06	0	61	0	1956642816	47	4459
2026-01-30 04:18:02.69	359.77	47.46	-38.4	-40.1	14.7	0.00e+00	0	61	0	1963982848	47	4370
2026-01-30 04:18:03.70	359.56	47.76	-38.4	-40.1	14.8	1.10e-06	0	60	0	1971322880	47	4361
2026-01-30 04:18:04.71	359.34	48.06	-38.7	-40.5	14.4	3.40e-06	0	61	0	1978662912	47	4548
2026-01-30 04:18:05.72	359.12	48.37	-38.5	-40.1	14.7	1.10e-06	0	60	0	1986002944	47	4385
2026-01-30 04:18:06.73	358.90	48.68	-38.7	-40.5	14.4	2.20e-06	0	61	0	1993342976	47	4558
2026-01-30 04:18:07.74	358.67	48.99	-38.9	-40.8	14.1	4.50e-06	0	61	0	2000683008	47	4723
2026-01-30 04:18:08.75	358.43	49.30	-39.0	-40.9	14.0	5.70e-06	0	61	0	2008023040	47	4772
2026-01-30 04:18:09.75	358.19	49.61	-39.1	-40.9	14.2	2.20e-06	0	61	0	2015363072	48	4501
2026-01-30 04:18:10.76	357.95	49.92	-39.0	-40.8	14.2	2.20e-06	0	61	0	2022703104	48	4472
2026-01-30 04:18:11.78	357.70	50.24	-38.9	-40.7	14.4	0.00e+00	0	61	0	2028994560	48	4402
2026-01-30 04:18:12.79	357.44	50.56	-39.0	-40.8	14.3	1.10e-06	0	61	0	2037383168	48	4443
2026-01-30 04:18:13.80	357.18	50.88	-39.0	-40.8	14.2	3.40e-06	0	61	0	2044723200	48	4489
2026-01-30 04:18:14.81	356.92	51.20	-39.1	-41.0	14.1	4.50e-06	0	61	0	2051014656	48	4557
2026-01-30 04:18:15.82	356.64	51.52	-39.2	-41.0	14.0	0.00e+00	0	61	0	2058354688	48	4589
2026-01-30 04:18:16.83	356.37	51.84	-39.5	-41.4	13.6	8.00e-06	0	61	0	2065694720	48	4808
2026-01-30 04:18:17.84	356.08	52.17	-39.5	-41.4	13.6	9.10e-06	0	61	0	2073034752	48	4779
2026-01-30 04:18:18.85	355.79	52.49	-39.3	-41.1	13.9	5.70e-06	0	61	0	2080374784	48	4645
2026-01-30 04:18:19.86	355.49	52.82	-38.9	-40.7	14.4	0.00e+00	0	61	0	2087714816	48	4392
2026-01-30 04:18:20.87	355.19	53.15	-38.9	-40.6	14.5	2.20e-06	0	61	0	2095054848	48	4377
2026-01-30 04:18:21.88	354.88	53.48	-39.1	-40.9	14.2	1.02e-05	0	61	0	2102394880	48	4506
2026-01-30 04:18:22.89	354.56	53.81	-39.1	-40.9	14.2	4.50e-06	0	61	0	2109734912	48	4518
2026-01-30 04:18:23.90	354.23	54.15	-39.2	-41.1	13.9	6.80e-06	0	61	0	2117074944	48	4614
2026-01-30 04:18:24.91	353.90	54.48	-39.5	-41.4	13.6	1.02e-05	0	60	0	2124414976	48	4784
2026-01-30 04:18:25.92	353.56	54.81	-39.3	-41.1	13.9	2.17e-05	0	60	0	2131755008	49	4374
2026-01-30 04:18:26.93	353.21	55.15	-39.5	-41.5	13.6	1.60e-05	0	60	0	2139095040	49	4553
2026-01-30 04:18:27.94	352.85	55.49	-39.4	-41.3	13.7	8.00e-06	0	61	0	2146435072	49	4452
2026-01-30 04:18:28.95	352.48	55.83	-39.2	-41.0	14.0	4.50e-06	0	61	0	2153775104	49	4330
2026-01-30 04:18:29.96	352.10	56.17	-39.2	-41.1	14.0	4.50e-06	0	61	0	2161115136	49	4347
2026-01-30 04:18:30.97	351.72	56.51	-39.1	-40.9	14.0	4.50e-06	0	61	0	2168455168	48	4518
2026-01-30 04:18:31.98	351.32	56.85	-39.1	-40.9	14.2	8.00e-06	0	61	0	2175795200	48	4501
2026-01-30 04:18:32.99	350.92	57.19	-39.1	-40.9	14.1	0.00e+00	0	61	0	2183135232	48	4527
2026-01-30 04:18:34.00	350.50	57.53	-39.2	-41.0	14.0	2.51e-04	0	61	0	2190475264	48	4567
2026-01-30 04:18:35.01	350.07	57.88	-39.3	-41.2	13.9	1.37e-05	0	61	0	2196766720	48	4657
2026-01-30 04:18:36.02	349.64	58.22	-39.6	-41.6	13.4	9.10e-06	0	61	0	2204106752	48	4903
2026-01-30 04:18:37.04	349.18	58.57	-39.0	-40.7	14.3	5.70e-06	0	61	0	2212495360	48	4439
2026-01-30 04:18:38.05	348.72	58.91	-39.2	-41.0	14.1	3.40e-06	0	61	0	2218786816	48	4578
2026-01-30 04:18:39.05	348.25	59.25	-39.3	-41.2	13.8	1.25e-05	0	61	0	2226126848	48	4682
2026-01-30 04:18:40.06	347.77	59.60	-39.2	-41.1	14.0	1.71e-05	0	61	0	2233466880	48	4610
2026-01-30 04:18:41.08	347.26	59.94	-38.6	-40.2	14.8	3.54e-05	0	61	0	2240806912	48	4185
2026-01-30 04:18:42.09	346.75	60.29	-39.0	-40.8	14.2	2.20e-06	0	61	0	2248146944	48	4460
2026-01-30 04:18:43.10	346.22	60.63	-38.7	-40.4	14.4	2.20e-06	0	61	0	2255486976	47	4512
2026-01-30 04:18:44.11	345.68	60.98	-38.6	-40.3	14.5	1.10e-06	0	61	0	2262827008	47	4460
2026-01-30 04:18:45.12	345.12	61.32	-38.6	-40.3	14.5	4.46e-05	0	61	0	2270167040	47	4472
2026-01-30 04:18:46.13	344.55	61.66	-38.7	-40.4	14.3	1.15e-03	0	61	0	2277507072	47	4540
2026-01-30 04:18:47.14	343.96	62.00	-38.8	-40.5	14.2	2.63e-05	0	61	0	2284847104	47	4590
2026-01-30 04:18:48.15	343.35	62.34	-38.6	-40.3	14.5	4.23e-05	0	61	0	2292187136	47	4463
2026-01-30 04:18:49.16	342.73	62.68	-38.3	-40.0	14.9	1.92e-04	0	61	0	2299527168	47	4292
2026-01-30 04:18:50.17	342.09	63.02	-38.2	-39.8	15.0	0.00e+00	0	61	0	2306867200	47	4241
2026-01-30 04:18:51.18	341.43	63.36	-38.5	-40.2	14.6	1.10e-06	0	61	0	2314207232	47	4431
2026-01-30 04:18:52.19	340.75	63.69	-38.5	-40.3	14.6	4.50e-06	0	61	0	2321547264	47	4444
2026-01-30 04:18:53.20	340.05	64.03	-38.6	-40.3	14.5	0.00e+00	0	61	0	2328887296	47	4490
2026-01-30 04:18:54.21	339.33	64.36	-38.6	-40.4	14.4	3.13e-04	0	61	0	2336227328	47	4509
2026-01-30 04:18:55.22	338.59	64.69	-38.4	-40.1	14.7	3.40e-06	0	61	0	2343567360	47	4372
2026-01-30 04:18:56.23	337.83	65.01	-38.0	-39.6	15.2	2.40e-05	0	61	0	2350907392	47	4140
2026-01-30 04:18:57.24	337.05	65.34	-38.1	-39.7	15.1	2.04e-04	0	61	0	2358247424	46	4438
2026-01-30 04:18:58.25	336.24	65.66	-37.8	-39.3	15.5	3.56e-03	0	61	0	2365587456	45	4486
2026-01-30 04:18:59.26	335.41	65.98	-37.6	-39.2	15.6	1.17e-03	0	61	0	2371878912	45	4405
2026-01-30 04:19:00.27	334.55	66.29	-37.6	-39.1	15.7	0.00e+00	0	61	0	2379218944	45	4346
2026-01-30 04:19:01.28	333.67	66.60	-37.5	-39.0	15.8	0.00e+00	0	61	0	2386558976	45	4319
2026-01-30 04:19:02.28	332.77	66.91	-37.5	-39.0	15.8	0.00e+00	0	61	0	2393899008	45	4328
2026-01-30 04:19:03.30	331.83	67.21	-37.6	-39.1	15.6	2.20e-06	0	61	0	2401239040	45	4380
2026-01-30 04:19:04.31	330.87	67.51	-37.9	-39.5	15.2	5.70e-06	0	61	0	2408579072	45	4567
2026-01-30 04:19:05.32	329.88	67.80	-37.7	-39.2	15.5	3.77e-05	0	61	0	2415919104	45	4440
2026-01-30 04:19:06.33	328.86	68.09	-37.8	-39.4	15.4	1.10e-06	0	61	0	2423259136	45	4518
2026-01-30 04:19:07.34	327.81	68.37	-37.8	-39.3	15.4	1.10e-06	0	61	0	2430599168	45	4467
2026-01-30 04:19:08.35	326.74	68.64	-38.0	-39.6	15.1	1.10e-06	0	61	0	2437939200	45	4650
2026-01-30 04:19:09.36	325.63	68.91	-37.9	-39.5	15.2	0.00e+00	0	61	0	2445279232	45	4597
2026-01-30 04:19:10.37	324.49	69.18	-38.0	-39.6	15.2	0.00e+00	0	61	0	2452619264	45	4612
2026-01-30 04:19:11.38	323.32	69.43	-37.9	-39.6	15.2	1.10e-06	0	61	0	2459959296	45	4615
2026-01-30 04:19:12.39	322.12	69.68	-37.8	-39.3	15.4	0.00e+00	0	61	0	2467299328	45	4485
2026-01-30 04:19:13.40	320.89	69.92	-37.7	-39.2	15.5	0.00e+00	0	61	0	2474639360	45	4429
2026-01-30 04:19:14.41	319.63	70.15	-37.7	-39.3	15.5	0.00e+00	0	61	0	2481979392	45	4452
2026-01-30 04:19:15.42	318.34	70.37	-37.8	-39.4	15.3	1.10e-06	0	61	0	2489319424	45	4532
2026-01-30 04:19:16.43	317.01	70.59	-37.9	-39.4	15.3	1.10e-06	0	61	0	2496659456	45	4541
2026-01-30 04:19:17.44	315.66	70.79	-37.7	-39.3	15.4	0.00e+00	0	61	0	2503999488	45	4463
2026-01-30 04:19:18.45	314.27	70.98	-37.6	-39.2	15.5	2.70e-04	0	61	0	2511339520	45	4410
2026-01-30 04:19:19.46	312.85	71.17	-37.6	-39.2	15.6	1.14e-05	0	61	0	2517630976	45	4404
2026-01-30 04:19:20.48	311.39	71.34	-37.6	-39.1	15.6	0.00e+00	0	61	0	2524971008	45	4378
2026-01-30 04:19:21.48	309.94	71.50	-37.8	-39.3	15.4	1.10e-06	0	61	0	2533359616	45	4487
2026-01-30 04:19:22.49	308.44	71.65	-38.0	-39.6	15.1	1.10e-06	0	61	0	2539651072	45	4623
2026-01-30 04:19:23.51	306.90	71.79	-37.8	-39.4	15.4	1.10e-06	0	61	0	2546991104	45	4506
2026-01-30 04:19:24.52	305.35	71.92	-37.9	-39.5	15.2	2.20e-06	0	61	0	2554331136	45	4559
2026-01-30 04:19:25.53	303.78	72.03	-37.9	-39.6	15.0	0.00e+00	0	61	0	2561671168	45	4599
2026-01-30 04:19:26.54	302.19	72.13	-38.1	-39.8	14.9	3.43e-05	0	61	0	2569011200	45	4745
2026-01-30 04:19:27.55	300.58	72.22	-38.1	-39.8	14.9	5.16e-04	0	61	0	2576351232	46	4455
2026-01-30 04:19:28.56	298.96	72.29	-37.8	-39.4	15.3	2.97e-05	0	61	0	2583691264	46	4267
2026-01-30 04:19:29.57	297.32	72.35	-37.7	-39.3	15.4	2.20e-06	0	61	0	2591031296	46	4211
2026-01-30 04:19:30.58	295.67	72.40	-37.8	-39.4	15.3	0.00e+00	0	61	0	2598371328	46	4262
2026-01-30 04:19:31.59	294.02	72.43	-37.8	-39.3	15.4	0.00e+00	0	61	0	2605711360	46	4222
2026-01-30 04:19:32.60	292.36	72.45	-37.8	-39.3	15.4	0.00e+00	0	61	0	2613051392	46	4230
2026-01-30 04:19:33.61	290.70	72.45	-37.9	-39.5	15.2	2.20e-06	0	61	0	2620391424	45	4574
2026-01-30 04:19:34.62	289.03	72.44	-38.0	-39.6	15.1	1.10e-06	0	61	0	2627731456	45	4643
2026-01-30 04:19:35.63	287.38	72.42	-37.8	-39.4	15.3	1.10e-06	0	61	0	2635071488	45	4495
2026-01-30 04:19:36.64	285.72	72.38	-37.7	-39.2	15.5	1.83e-05	0	61	0	2642411520	45	4437
2026-01-30 04:19:37.65	284.08	72.33	-37.7	-39.3	15.4	1.71e-05	0	61	0	2649751552	45	4466
2026-01-30 04:19:38.66	282.45	72.26	-37.9	-39.4	15.2	4.23e-05	0	61	0	2657091584	45	4544
2026-01-30 04:19:39.67	280.83	72.18	-38.1	-39.8	14.9	9.10e-06	0	61	0	2664431616	45	4737
2026-01-30 04:19:40.69	279.21	72.09	-38.0	-39.7	15.0	6.80e-06	0	61	0	2671771648	45	4675
2026-01-30 04:19:41.70	277.63	71.99	-38.1	-39.7	15.0	0.00e+00	0	61	0	2679111680	45	4685
2026-01-30 04:19:42.71	276.07	71.87	-38.0	-39.6	15.1	1.10e-06	0	61	0	2686451712	45	4618
2026-01-30 04:19:43.72	274.53	71.74	-38.1	-39.7	15.0	2.05e-05	0	61	0	2692743168	45	4692
2026-01-30 04:19:44.73	273.01	71.60	-38.4	-40.1	14.7	1.10e-06	0	61	0	2701131776	46	4603
2026-01-30 04:19:45.74	271.52	71.44	-38.4	-40.1	14.6	2.20e-06	0	61	0	2708471808	46	4615
2026-01-30 04:19:46.75	270.06	71.27	-38.4	-40.1	14.6	3.40e-06	0	61	0	2714763264	46	4603
2026-01-30 04:19:47.76	268.62	71.10	-38.1	-39.7	15.0	0.00e+00	0	61	0	2722103296	46	4415
2026-01-30 04:19:48.77	267.21	70.91	-37.7	-39.3	15.4	5.72e-05	0	61	0	2729443328	46	4208
2026-01-30 04:19:49.78	265.84	70.71	-37.6	-39.1	15.6	8.46e-05	0	61	0	2736783360	46	4115
2026-01-30 04:19:50.79	264.49	70.50	-37.7	-39.2	15.5	7.78e-05	0	61	0	2744123392	45	4419
2026-01-30 04:19:51.80	263.18	70.29	-37.9	-39.5	15.2	2.86e-04	0	61	0	2751463424	45	4580
2026-01-30 04:19:52.81	261.89	70.06	-37.8	-39.6	15.0	6.13e-04	0	61	0	2758803456	45	4644
2026-01-30 04:19:53.82	260.64	69.83	-38.1	-39.8	14.9	2.13e-04	0	61	0	2766143488	46	4459
2026-01-30 04:19:54.83	259.42	69.58	-38.0	-39.6	15.1	1.60e-05	0	61	0	2773483520	46	4389
2026-01-30 04:19:55.84	258.23	69.33	-38.0	-39.6	15.1	3.66e-05	0	61	0	2780823552	46	4352
2026-01-30 04:19:56.85	257.07	69.07	-38.0	-39.6	15.1	1.34e-04	0	61	0	2788163584	46	4381
2026-01-30 04:19:57.86	255.95	68.81	-37.9	-39.5	15.1	8.00e-06	0	61	0	2795503616	46	4303
2026-01-30 04:19:58.87	254.85	68.54	-38.0	-39.6	15.0	1.71e-05	0	61	0	2802843648	46	4370
2026-01-30 04:19:59.88	253.78	68.26	-37.9	-39.5	15.2	1.81e-04	0	61	0	2810183680	46	4323
2026-01-30 04:20:00.89	252.75	67.97	-37.9	-39.5	15.3	1.25e-05	0	61	0	2817523712	46	4305
2026-01-30 04:20:01.90	251.74	67.68	-37.8	-39.3	15.4	0.00e+00	0	61	0	2824863744	46	4242
2026-01-30 04:20:02.91	250.76	67.39	-37.9	-39.5	15.2	0.00e+00	0	61	0	2832203776	46	4326
2026-01-30 04:20:03.92	249.81	67.09	-37.9	-39.5	15.2	0.00e+00	0	61	0	2838495232	46	4306
2026-01-30 04:20:04.93	248.88	66.79	-38.0	-39.5	15.2	1.10e-06	0	61	0	2846883840	46	4337
2026-01-30 04:20:05.94	247.98	66.48	-38.1	-39.7	15.0	1.37e-05	0	61	0	2854223872	46	4421
2026-01-30 04:20:06.95	247.11	66.16	-38.2	-39.8	14.9	0.00e+00	0	61	0	2860515328	46	4478
2026-01-30 04:20:07.96	246.26	65.85	-38.0	-39.6	15.1	2.20e-06	0	61	0	2867855360	46	4366
2026-01-30 04:20:08.97	245.44	65.53	-37.9	-39.5	15.3	0.00e+00	0	61	0	2875195392	46	4300
2026-01-30 04:20:09.98	244.64	65.21	-37.7	-39.3	15.4	2.99e-04	0	61	0	2882535424	45	4444
2026-01-30 04:20:10.99	243.86	64.88	-37.8	-39.3	15.4	0.00e+00	0	61	0	2889875456	45	4492
2026-01-30 04:20:12.00	243.11	64.55	-38.1	-39.7	15.0	0.00e+00	0	61	0	2897215488	45	4698
2026-01-30 04:20:13.02	242.37	64.22	-38.3	-40.0	14.7	0.00e+00	0	61	0	2904555520	46	4596
2026-01-30 04:20:14.03	241.66	63.88	-38.5	-40.3	14.5	3.40e-06	0	61	0	2911895552	46	4717
2026-01-30 04:20:15.04	240.96	63.55	-38.3	-40.0	14.7	1.10e-06	0	61	0	2919235584	46	4553
2026-01-30 04:20:16.05	240.29	63.21	-38.3	-39.9	14.8	0.00e+00	0	61	0	2926575616	46	4522
2026-01-30 04:20:17.06	239.64	62.87	-38.2	-39.8	15.0	0.00e+00	0	61	0	2933915648	46	4464
2026-01-30 04:20:18.07	239.01	62.53	-38.3	-39.9	14.8	0.00e+00	0	61	0	2941255680	46	4513
2026-01-30 04:20:19.08	238.39	62.19	-38.3	-40.0	14.7	2.20e-06	0	61	0	2948595712	46	4575
2026-01-30 04:20:20.09	237.79	61.85	-38.4	-40.1	14.6	0.00e+00	0	61	0	2955935744	46	4644
2026-01-30 04:20:21.10	237.20	61.51	-38.6	-40.4	14.4	0.00e+00	0	61	0	2963275776	46	4802
2026-01-30 04:20:22.12	236.63	61.16	-38.7	-40.4	14.3	2.20e-06	0	61	0	2970615808	47	4534
2026-01-30 04:20:23.13	236.08	60.82	-38.5	-40.2	14.6	1.10e-06	0	61	0	2977955840	47	4399
2026-01-30 04:20:24.14	235.54	60.47	-38.4	-40.0	14.7	2.20e-06	0	61	0	2985295872	47	4333
2026-01-30 04:20:25.14	235.03	60.13	-38.4	-40.1	14.7	0.00e+00	0	61	0	2992635904	47	4380
2026-01-30 04:20:26.15	234.52	59.78	-38.7	-40.4	14.4	2.20e-06	0	61	0	2999975936	47	4512
2026-01-30 04:20:27.16	234.02	59.44	-38.9	-40.7	14.0	3.40e-06	0	61	0	3007315968	47	4696
2026-01-30 04:20:28.17	233.54	59.09	-39.1	-41.0	13.8	6.80e-06	0	61	0	3013607424	47	4825
2026-01-30 04:20:29.19	233.07	58.74	-39.1	-41.0	13.7	4.12e-04	0	61	0	3021996032	47	4844
2026-01-30 04:20:30.20	232.61	58.40	-38.9	-40.7	14.0	2.20e-06	0	61	0	3029336064	47	4676
2026-01-30 04:20:31.21	232.16	58.05	-38.8	-40.5	14.2	3.40e-06	0	61	0	3035627520	47	4590
2026-01-30 04:20:32.22	231.73	57.71	-38.8	-40.6	14.1	2.20e-06	0	61	0	3042967552	47	4626
2026-01-30 04:20:33.23	231.31	57.37	-38.9	-40.7	14.0	5.70e-06	0	61	0	3051356160	47	4701
2026-01-30 04:20:34.24	230.89	57.02	-39.1	-40.9	13.8	8.00e-06	0	61	0	3057647616	47	4796
2026-01-30 04:20:35.25	230.49	56.68	-39.1	-41.0	13.7	5.70e-06	0	61	0	3064987648	47	4849
2026-01-30 04:20:36.26	230.10	56.34	-39.1	-41.0	13.7	4.50e-06	0	61	0	3072327680	47	4857
2026-01-30 04:20:37.27	229.72	56.00	-38.9	-40.8	14.0	3.40e-06	0	61	0	3079667712	47	4708
2026-01-30 04:20:38.28	229.34	55.66	-38.8	-40.5	14.2	1.10e-06	0	61	0	3087007744	47	4592
2026-01-30 04:20:39.29	228.98	55.32	-38.8	-40.5	14.2	0.00e+00	0	61	0	3094347776	47	4593
2026-01-30 04:20:40.30	228.62	54.98	-38.9	-40.7	14.1	2.20e-06	0	61	0	3101687808	47	4653
2026-01-30 04:20:41.31	228.28	54.64	-39.0	-40.8	13.9	4.50e-06	0	61	0	3109027840	47	4752
2026-01-30 04:20:42.32	227.94	54.31	-39.4	-41.3	13.5	6.17e-05	0	61	0	3116367872	48	4740
2026-01-30 04:20:43.33	227.60	53.97	-39.3	-41.2	13.6	1.37e-05	0	61	0	3123707904	48	4661
2026-01-30 04:20:44.34	227.28	53.64	-39.1	-40.9	14.0	2.20e-06	0	61	0	3131047936	48	4533
2026-01-30 04:20:45.35	226.96	53.31	-38.8	-40.5	14.4	0.00e+00	0	61	0	3138387968	48	4340
2026-01-30 04:20:46.36	226.66	52.97	-38.8	-40.5	14.4	0.00e+00	0	61	0	3145728000	48	4318
2026-01-30 04:20:47.37	226.35	52.65	-39.0	-40.7	14.2	0.00e+00	0	61	0	3153068032	48	4432
2026-01-30 04:20:48.38	226.06	52.32	-39.2	-41.0	13.9	1.10e-06	0	61	0	3160408064	48	4575
2026-01-30 04:20:49.40	225.77	51.99	-39.1	-41.0	14.0	4.50e-06	0	61	0	3167748096	48	4548
2026-01-30 04:20:50.41	225.48	51.66	-38.8	-40.6	14.3	0.00e+00	0	61	0	3175088128	48	4348
2026-01-30 04:20:51.42	225.21	51.34	-38.5	-40.2	14.8	1.10e-06	0	61	0	3181379584	48	4149
2026-01-30 04:20:52.43	224.94	51.01	-38.3	-39.9	14.7	0.00e+00	0	61	0	3189768192	47	4274
2026-01-30 04:20:53.44	224.67	50.69	-38.3	-40.0	14.8	0.00e+00	0	61	0	3197108224	47	4308
2026-01-30 04:20:54.45	224.41	50.37	-38.6	-40.3	14.4	0.00e+00	0	61	0	3203399680	47	4466
2026-01-30 04:20:55.46	224.16	50.06	-38.8	-40.6	14.1	8.00e-06	0	61	0	3210739712	47	4631
2026-01-30 04:20:56.47	223.91	49.74	-38.9	-40.7	14.0	1.10e-06	0	61	0	3218079744	47	4691
2026-01-30 04:20:57.48	223.67	49.43	-38.8	-40.6	14.0	1.10e-06	0	61	0	3225419776	47	4649
2026-01-30 04:20:58.49	223.43	49.11	-38.8	-40.5	14.2	1.10e-06	0	61	0	3232759808	47	4596
2026-01-30 04:20:59.51	223.20	48.80	-38.8	-40.5	14.2	3.40e-06	0	61	0	3240099840	47	4581
2026-01-30 04:21:00.52	222.97	48.49	-38.8	-40.6	14.1	1.10e-06	0	61	0	3247439872	47	4643
2026-01-30 04:21:01.53	222.74	48.18	-38.9	-40.7	14.0	2.20e-06	0	61	0	3254779904	47	4690
2026-01-30 04:21:02.54	222.52	47.87	-38.9	-40.7	14.0	3.40e-06	0	61	0	3262119936	47	4670
2026-01-30 04:21:03.55	222.31	47.57	-38.6	-40.4	14.3	3.40e-06	0	61	0	3269459968	47	4524
2026-01-30 04:21:04.56	222.10	47.27	-38.4	-40.1	14.6	1.10e-06	0	61	0	3276800000	47	4376
2026-01-30 04:21:05.57	221.89	46.97	-38.3	-39.9	14.8	0.00e+00	0	61	0	3284140032	47	4276
2026-01-30 04:21:06.58	221.69	46.67	-38.2	-39.8	14.9	0.00e+00	0	61	0	3291480064	47	4200
2026-01-30 04:21:07.59	221.49	46.37	-38.2	-39.8	14.9	0.00e+00	0	61	0	3298820096	47	4240
2026-01-30 04:21:08.60	221.30	46.07	-38.3	-40.0	14.7	0.00e+00	0	61	0	3306160128	47	4311
2026-01-30 04:21:09.61	221.10	45.78	-38.5	-40.1	14.6	0.00e+00	0	61	0	3313500160	47	4389
2026-01-30 04:21:10.62	220.92	45.49	-38.5	-40.2	14.5	0.00e+00	0	61	0	3320840192	47	4397
2026-01-30 04:21:11.64	220.73	45.19	-38.4	-40.1	14.7	1.10e-06	0	61	0	3328180224	47	4347
2026-01-30 04:21:12.65	220.55	44.91	-38.3	-39.9	14.6	0.00e+00	0	61	0	3335520256	47	4276
2026-01-30 04:21:13.66	220.37	44.62	-38.0	-39.6	15.1	0.00e+00	0	61	0	3342860288	47	4124
2026-01-30 04:21:14.67	220.20	44.33	-37.9	-39.5	15.3	0.00e+00	0	61	0	3350200320	46	4309
2026-01-30 04:21:15.68	220.02	44.05	-37.8	-39.3	15.4	2.20e-06	0	61	0	3357540352	46	4226
2026-01-30 04:21:16.69	219.86	43.77	-37.8	-39.4	15.4	0.00e+00	0	61	0	3364880384	46	4247
2026-01-30 04:21:17.70	219.69	43.49	-37.8	-39.3	15.4	1.10e-06	0	61	0	3372220416	46	4229
2026-01-30 04:21:18.70	219.53	43.21	-37.9	-39.4	15.4	2.20e-06	0	61	0	3378511872	46	4265
2026-01-30 04:21:19.71	219.37	42.94	-37.9	-39.4	15.3	0.00e+00	0	61	0	3385851904	46	4276
2026-01-30 04:21:20.72	219.21	42.66	-37.8	-39.4	15.3	0.00e+00	0	61	0	3394240512	46	4254
2026-01-30 04:21:21.73	219.06	42.39	-37.8	-39.4	15.3	0.00e+00	0	61	0	3400531968	46	4267
2026-01-30 04:21:22.75	218.91	42.12	-37.8	-39.4	15.4	0.00e+00	0	61	0	3407872000	46	4247
2026-01-30 04:21:23.76	218.76	41.85	-37.8	-39.3	15.4	0.00e+00	0	61	0	3415212032	46	4218
2026-01-30 04:21:24.77	218.61	41.58	-37.7	-39.3	15.5	0.00e+00	0	61	0	3422552064	46	4203
2026-01-30 04:21:25.78	218.47	41.31	-37.8	-39.4	15.4	0.00e+00	0	61	0	3429892096	46	4243
2026-01-30 04:21:26.79	218.33	41.05	-37.7	-39.3	15.4	0.00e+00	0	61	0	3437232128	46	4206
2026-01-30 04:21:27.80	218.19	40.79	-37.8	-39.3	15.4	0.00e+00	0	61	0	3444572160	46	4215
2026-01-30 04:21:28.81	218.05	40.53	-37.8	-39.4	15.4	0.00e+00	0	61	0	3451912192	46	4250
2026-01-30 04:21:29.82	217.91	40.27	-37.9	-39.4	15.3	0.00e+00	0	61	0	3459252224	46	4285
2026-01-30 04:21:30.83	217.78	40.01	-37.8	-39.4	15.3	0.00e+00	0	61	0	3466592256	46	4256
2026-01-30 04:21:31.84	217.65	39.75	-37.8	-39.4	15.3	0.00e+00	0	61	0	3473932288	46	4267
2026-01-30 04:21:32.85	217.52	39.50	-37.8	-39.4	15.3	0.00e+00	0	61	0	3481272320	46	4254
2026-01-30 04:21:33.86	217.40	39.25	-37.8	-39.4	15.3	0.00e+00	0	61	0	3488612352	46	4257
2026-01-30 04:21:34.87	217.27	39.00	-37.9	-39.4	15.3	0.00e+00	0	61	0	3495952384	46	4280
2026-01-30 04:21:35.88	217.15	38.75	-37.9	-39.5	15.2	0.00e+00	0	61	0	3503292416	46	4309
2026-01-30 04:21:36.89	217.03	38.50	-38.0	-39.6	15.1	0.00e+00	0	61	0	3510632448	46	4347
2026-01-30 04:21:37.91	216.91	38.25	-38.1	-39.7	15.0	1.10e-06	0	61	0	3517972480	46	4422
2026-01-30 04:21:38.92	216.79	38.01	-38.1	-39.8	14.9	0.00e+00	0	61	0	3525312512	46	4462
2026-01-30 04:21:39.93	216.68	37.77	-38.2	-39.8	14.9	0.00e+00	0	61	0	3532652544	46	4470
2026-01-30 04:21:40.94	216.56	37.53	-38.1	-39.8	14.9	0.00e+00	0	61	0	3539992576	46	4466
2026-01-30 04:21:41.95	216.45	37.29	-38.1	-39.8	14.9	0.00e+00	0	61	0	3546284032	46	4470
2026-01-30 04:21:42.96	216.34	37.05	-38.0	-39.6	15.1	0.00e+00	0	61	0	3553624064	46	4380
2026-01-30 04:21:43.97	216.23	36.81	-37.9	-39.5	15.2	0.00e+00	0	61	0	3562012672	46	4321
2026-01-30 04:21:44.98	216.13	36.58	-37.9	-39.5	15.3	0.00e+00	0	61	0	3568304128	46	4296
2026-01-30 04:21:45.99	216.02	36.35	-37.9	-39.5	15.3	0.00e+00	0	61	0	3575644160	46	4295
2026-01-30 04:21:47.00	215.92	36.11	-37.8	-39.4	15.3	0.00e+00	0	61	0	3582984192	46	4273
2026-01-30 04:21:48.01	215.81	35.88	-37.8	-39.4	15.4	0.00e+00	0	61	0	3590324224	46	4260
2026-01-30 04:21:49.02	215.71	35.66	-37.8	-39.3	15.3	0.00e+00	0	61	0	3597664256	46	4240
2026-01-30 04:21:50.03	215.61	35.43	-37.8	-39.4	15.4	0.00e+00	0	61	0	3605004288	46	4251
2026-01-30 04:21:51.04	215.52	35.20	-37.7	-39.3	15.4	0.00e+00	0	61	0	3612344320	46	4221
2026-01-30 04:21:52.05	215.42	34.98	-37.7	-39.3	15.4	0.00e+00	0	62	0	3619684352	46	4220
2026-01-30 04:21:53.06	215.32	34.76	-37.7	-39.3	15.4	0.00e+00	0	61	0	3627024384	46	4234
2026-01-30 04:21:54.08	215.23	34.53	-37.7	-39.3	15.4	0.00e+00	0	61	0	3634364416	46	4227
2026-01-30 04:21:55.08	215.14	34.32	-37.7	-39.3	15.4	1.10e-06	0	61	0	3641704448	46	4203
2026-01-30 04:21:56.09	215.05	34.10	-37.6	-39.1	15.6	0.00e+00	0	61	0	3649044480	46	4133
2026-01-30 04:21:57.10	214.96	33.88	-37.6	-39.1	15.6	0.00e+00	0	61	0	3656384512	46	4133
2026-01-30 04:21:58.11	214.87	33.67	-37.5	-39.1	15.6	0.00e+00	0	61	0	3663724544	46	4119
2026-01-30 04:21:59.13	214.78	33.45	-37.6	-39.2	15.5	0.00e+00	0	61	0	3671064576	46	4155
2026-01-30 04:22:00.14	214.69	33.24	-37.5	-39.1	15.6	0.00e+00	0	61	0	3678404608	46	4110
2026-01-30 04:22:01.15	214.61	33.03	-37.5	-39.0	15.7	0.00e+00	0	61	0	3685744640	46	4086
2026-01-30 04:22:02.16	214.52	32.82	-37.4	-39.0	15.7	0.00e+00	0	61	0	3693084672	45	4300
2026-01-30 04:22:03.17	214.44	32.61	-37.4	-38.9	15.8	0.00e+00	0	61	0	3700424704	45	4243
2026-01-30 04:22:04.18	214.36	32.41	-37.4	-38.9	15.8	0.00e+00	0	61	0	3707764736	45	4259
2026-01-30 04:22:05.19	214.28	32.20	-37.3	-38.8	15.9	0.00e+00	0	61	0	3715104768	45	4213
2026-01-30 04:22:06.20	214.20	32.00	-37.3	-38.8	15.9	0.00e+00	0	61	0	3721396224	45	4200
2026-01-30 04:22:07.21	214.12	31.79	-37.3	-38.8	15.9	0.00e+00	0	61	0	3728736256	45	4198
2026-01-30 04:22:08.22	214.04	31.59	-37.2	-38.7	15.9	0.00e+00	0	61	0	3737124864	45	4177
2026-01-30 04:22:09.23	213.96	31.39	-37.3	-38.8	15.9	0.00e+00	0	61	0	3743416320	45	4199
2026-01-30 04:22:10.25	213.89	31.19	-37.2	-38.7	15.9	0.00e+00	0	61	0	3750756352	45	4188
2026-01-30 04:22:11.26	213.81	30.99	-37.3	-38.8	15.8	0.00e+00	0	61	0	3758096384	45	4212
2026-01-30 04:22:12.27	213.74	30.80	-37.3	-38.8	15.8	0.00e+00	0	61	0	3765436416	45	4237
2026-01-30 04:22:13.28	213.66	30.60	-37.4	-38.9	15.8	0.00e+00	0	61	0	3772776448	45	4256
2026-01-30 04:22:14.29	213.59	30.41	-37.4	-38.9	15.7	0.00e+00	0	61	0	3780116480	45	4264
2026-01-30 04:22:15.30	213.52	30.22	-37.4	-38.9	15.8	0.00e+00	0	61	0	3787456512	45	4263
2026-01-30 04:22:16.31	213.45	30.03	-37.3	-38.8	15.8	1.10e-06	0	61	0	3794796544	45	4237
2026-01-30 04:22:17.32	213.38	29.84	-37.4	-38.9	15.7	0.00e+00	0	61	0	3802136576	45	4251
2026-01-30 04:22:18.33	213.31	29.65	-37.4	-38.9	15.7	0.00e+00	0	61	0	3809476608	45	4269
2026-01-30 04:22:19.34	213.24	29.46	-37.3	-38.9	15.8	0.00e+00	0	61	0	3816816640	45	4247
2026-01-30 04:22:20.35	213.18	29.27	-37.3	-38.9	15.8	0.00e+00	0	61	0	3824156672	45	4243
2026-01-30 04:22:21.36	213.11	29.09	-37.3	-38.9	15.8	0.00e+00	0	62	0	3831496704	45	4248
2026-01-30 04:22:22.37	213.05	28.90	-37.4	-39.0	15.6	0.00e+00	0	61	0	3838836736	45	4299
2026-01-30 04:22:23.38	212.98	28.72	-37.4	-39.0	15.6	0.00e+00	0	61	0	3846176768	45	4296
2026-01-30 04:22:24.39	212.92	28.54	-37.5	-39.0	15.6	0.00e+00	0	61	0	3853516800	45	4326
2026-01-30 04:22:25.40	212.85	28.36	-37.5	-39.1	15.5	0.00e+00	0	61	0	3860856832	45	4355
2026-01-30 04:22:26.41	212.79	28.18	-37.6	-39.1	15.5	0.00e+00	0	61	0	3867148288	45	4379
2026-01-30 04:22:27.42	212.73	28.00	-37.7	-39.2	15.4	0.00e+00	0	61	0	3875536896	45	4434
2026-01-30 04:22:28.44	212.67	27.82	-37.7	-39.3	15.3	0.00e+00	0	61	0	3882876928	45	4478
2026-01-30 04:22:29.45	212.61	27.65	-37.8	-39.4	15.2	0.00e+00	0	61	0	3889168384	45	4497
2026-01-30 04:22:30.46	212.55	27.47	-37.8	-39.4	15.1	0.00e+00	0	61	0	3896508416	45	4542
2026-01-30 04:22:31.47	212.49	27.30	-37.9	-39.6	15.0	0.00e+00	0	61	0	3904897024	45	4601
2026-01-30 04:22:32.48	212.43	27.12	-37.9	-39.6	15.0	0.00e+00	0	61	0	3911188480	45	4628
2026-01-30 04:22:33.49	212.37	26.95	-38.0	-39.6	14.9	0.00e+00	0	61	0	3918528512	45	4632
2026-01-30 04:22:34.50	212.32	26.78	-38.0	-39.6	14.9	0.00e+00	0	61	0	3925868544	45	4641
2026-01-30 04:22:35.51	212.26	26.61	-38.0	-39.6	14.8	0.00e+00	0	62	0	3933208576	45	4618
2026-01-30 04:22:36.52	212.20	26.44	-37.9	-39.5	15.1	0.00e+00	0	61	0	3940548608	45	4580
2026-01-30 04:22:37.53	212.15	26.28	-37.9	-39.5	15.1	0.00e+00	0	61	0	3947888640	45	4573
2026-01-30 04:22:38.54	212.09	26.11	-37.9	-39.5	15.1	0.00e+00	0	61	0	3955228672	45	4578
2026-01-30 04:22:39.55	212.04	25.94	-37.8	-39.5	15.1	0.00e+00	0	61	0	3962568704	45	4556
2026-01-30 04:22:40.56	211.99	25.78	-37.8	-39.4	15.2	0.00e+00	0	61	0	3969908736	45	4523
2026-01-30 04:22:41.58	211.93	25.61	-37.8	-39.4	15.1	0.00e+00	0	61	0	3977248768	45	4535
2026-01-30 04:22:42.59	211.88	25.45	-37.8	-39.4	15.1	0.00e+00	0	61	0	3984588800	45	4537
2026-01-30 04:22:43.60	211.83	25.29	-37.8	-39.4	15.1	0.00e+00	0	61	0	3991928832	45	4545
2026-01-30 04:22:44.61	211.78	25.13	-37.8	-39.4	15.2	1.10e-06	0	61	0	3999268864	45	4507
2026-01-30 04:22:45.62	211.73	24.97	-37.8	-39.5	15.1	0.00e+00	0	61	0	4006608896	45	4555
2026-01-30 04:22:46.63	211.68	24.81	-37.9	-39.5	15.1	0.00e+00	0	61	0	4013948928	45	4560
2026-01-30 04:22:47.64	211.63	24.65	-37.9	-39.5	15.1	0.00e+00	0	61	0	4021288960	45	4567
2026-01-30 04:22:48.65	211.58	24.49	-37.9	-39.5	15.0	0.00e+00	0	61	0	4028628992	45	4598
2026-01-30 04:22:49.66	211.53	24.34	-37.9	-39.6	15.0	0.00e+00	0	61	0	4035969024	45	4610
2026-01-30 04:22:50.67	211.48	24.18	-38.0	-39.7	14.9	0.00e+00	0	61	0	4043309056	45	4669
2026-01-30 04:22:51.68	211.44	24.03	-37.9	-39.6	14.9	1.10e-06	0	61	0	4050649088	45	4618
2026-01-30 04:22:52.69	211.39	23.87	-37.9	-39.5	15.0	0.00e+00	0	61	0	4056940544	45	4584
2026-01-30 04:22:53.70	211.34	23.72	-38.0	-39.6	14.9	0.00e+00	0	61	0	4064280576	45	4629
2026-01-30 04:22:54.71	211.30	23.57	-38.0	-39.6	14.9	0.00e+00	0	61	0	4071620608	45	4638
2026-01-30 04:22:55.72	211.25	23.42	-37.9	-39.6	14.9	0.00e+00	0	62	0	4078960640	45	4613
2026-01-30 04:22:56.73	211.21	23.27	-37.9	-39.5	14.9	0.00e+00	0	62	0	4086300672	45	4598
2026-01-30 04:22:57.74	211.16	23.12	-37.9	-39.6	14.9	0.00e+00	0	61	0	4093640704	45	4612
2026-01-30 04:22:58.75	211.12	22.97	-37.9	-39.6	14.9	0.00e+00	0	61	0	4100980736	45	4623
2026-01-30 04:22:59.76	211.07	22.82	-38.0	-39.6	14.9	0.00e+00	0	61	0	4108320768	45	4650
2026-01-30 04:23:00.77	211.03	22.68	-37.9	-39.6	14.9	0.00e+00	0	61	0	4115660800	45	4605
2026-01-30 04:23:01.78	210.99	22.53	-37.9	-39.6	14.9	0.00e+00	0	61	0	4123000832	45	4608
2026-01-30 04:23:02.79	210.95	22.39	-37.9	-39.6	14.9	0.00e+00	0	61	0	4130340864	45	4600
2026-01-30 04:23:03.80	210.90	22.24	-37.9	-39.5	15.0	0.00e+00	0	61	0	4137680896	45	4593
2026-01-30 04:23:04.81	210.86	22.10	-37.9	-39.6	14.9	1.10e-06	0	61	0	4145020928	45	4611
2026-01-30 04:23:05.82	210.82	21.96	-37.9	-39.5	15.0	0.00e+00	0	61	0	4152360960	45	4571
2026-01-30 04:23:06.83	210.78	21.82	-37.8	-39.5	14.9	0.00e+00	0	61	0	4159700992	45	4553
2026-01-30 04:23:07.84	210.74	21.67	-37.9	-39.5	14.9	0.00e+00	0	61	0	4167041024	45	4593
2026-01-30 04:23:08.85	210.70	21.53	-37.9	-39.5	14.9	0.00e+00	0	61	0	4174381056	45	4565
2026-01-30 04:23:09.86	210.66	21.39	-37.9	-39.6	14.8	0.00e+00	0	61	0	4181721088	45	4621
2026-01-30 04:23:10.87	210.62	21.26	-38.0	-39.6	14.8	0.00e+00	0	62	0	4189061120	45	4641
2026-01-30 04:23:11.88	210.58	21.12	-38.1	-39.8	14.6	1.10e-06	0	61	0	4196401152	45	4716
2026-01-30 04:23:12.89	210.54	20.98	-38.1	-39.8	14.6	0.00e+00	0	61	0	4203741184	45	4727
2026-01-30 04:23:13.90	210.51	20.84	-38.1	-39.8	14.6	0.00e+00	0	61	0	4210032640	45	4737
2026-01-30 04:23:14.91	210.47	20.71	-38.1	-39.8	14.6	0.00e+00	0	61	0	4217372672	45	4729
2026-01-30 04:23:15.92	210.43	20.57	-38.1	-39.8	14.6	2.20e-06	0	61	0	4225761280	45	4753
2026-01-30 04:23:16.93	210.39	20.44	-38.2	-39.9	14.5	0.00e+00	0	61	0	4232052736	45	4805
2026-01-30 04:23:17.94	210.36	20.30	-38.3	-40.0	14.4	0.00e+00	0	61	0	4239392768	46	4589
2026-01-30 04:23:18.95	210.32	20.17	-38.3	-40.1	14.3	1.10e-06	0	61	0	4246732800	46	4627
2026-01-30 04:23:19.96	210.28	20.04	-38.4	-40.2	14.2	2.20e-06	0	61	0	4254072832	46	4661
2026-01-30 04:23:20.97	210.25	19.91	-38.4	-40.2	14.1	3.40e-06	0	61	0	4261412864	46	4694
2026-01-30 04:23:21.98	210.21	19.78	-38.5	-40.3	14.0	2.20e-06	0	61	0	4268752896	46	4744
2026-01-30 04:23:23.00	210.18	19.64	-38.5	-40.3	14.0	2.20e-06	0	61	0	4276092928	46	4758
2026-01-30 04:23:24.01	210.14	19.51	-38.6	-40.4	13.9	5.70e-06	0	61	0	4283432960	46	4789
2026-01-30 04:23:25.02	210.11	19.39	-38.6	-40.5	13.9	5.70e-06	0	61	0	4290772992	46	4825
2026-01-30 04:23:26.03	210.07	19.26	-38.7	-40.5	13.8	4.50e-06	0	61	0	4298113024	46	4863
2026-01-30 04:23:27.04	210.04	19.13	-38.7	-40.5	13.8	4.50e-06	0	61	0	4305453056	46	4865
2026-01-30 04:23:28.05	210.01	19.00	-38.7	-40.6	13.8	9.10e-06	0	62	0	4312793088	47	4610
2026-01-30 04:23:29.06	209.97	18.88	-38.7	-40.5	13.8	1.10e-06	0	61	0	4320133120	47	4592
2026-01-30 04:23:30.07	209.94	18.75	-38.7	-40.6	13.8	4.50e-06	0	61	0	4327473152	47	4618
2026-01-30 04:23:31.08	209.91	18.63	-38.7	-40.6	13.7	3.40e-06	0	61	0	4334813184	47	4631
2026-01-30 04:23:32.08	209.88	18.50	-38.7	-40.6	13.7	5.70e-06	0	61	0	4342153216	47	4643
2026-01-30 04:23:33.09	209.84	18.38	-38.7	-40.7	13.7	5.70e-06	0	62	0	4349493248	47	4658
2026-01-30 04:23:34.10	209.81	18.26	-38.8	-40.7	13.6	6.80e-06	0	61	0	4356833280	47	4689
2026-01-30 04:23:35.11	209.78	18.13	-38.8	-40.8	13.5	1.25e-05	0	61	0	4363124736	47	4708
2026-01-30 04:23:36.12	209.75	18.01	-38.9	-40.8	13.5	1.83e-05	0	61	0	4371513344	47	4753
2026-01-30 04:23:37.13	209.72	17.89	-38.8	-40.8	13.5	1.25e-05	0	61	0	4377804800	47	4732
2026-01-30 04:23:38.14	209.69	17.77	-38.8	-40.7	13.5	1.48e-05	0	61	0	4385144832	47	4702
2026-01-30 04:23:39.15	209.66	17.65	-38.8	-40.7	13.5	9.10e-06	0	61	0	4392484864	47	4701
2026-01-30 04:23:40.16	209.63	17.53	-38.8	-40.7	13.5	6.80e-06	0	61	0	4399824896	47	4700
2026-01-30 04:23:41.17	209.60	17.41	-38.8	-40.7	13.5	2.20e-06	0	61	0	4407164928	47	4702
2026-01-30 04:23:42.18	209.57	17.29	-38.8	-40.7	13.6	1.02e-05	0	61	0	4414504960	47	4682
2026-01-30 04:23:43.19	209.54	17.17	-38.8	-40.8	13.5	5.70e-06	0	61	0	4421844992	47	4706
2026-01-30 04:23:44.20	209.51	17.06	-38.8	-40.7	13.6	1.48e-05	0	61	0	4429185024	47	4688
2026-01-30 04:23:45.21	209.48	16.94	-38.8	-40.7	13.6	1.02e-05	0	61	0	4436525056	47	4683
2026-01-30 04:23:46.22	209.45	16.82	-38.8	-40.7	13.6	9.10e-06	0	61	0	4443865088	47	4690
2026-01-30 04:23:47.23	209.42	16.71	-38.8	-40.7	13.5	9.10e-06	0	61	0	4451205120	47	4681
2026-01-30 04:23:48.24	209.40	16.59	-38.8	-40.7	13.5	6.80e-06	0	61	0	4458545152	47	4693
2026-01-30 04:23:49.25	209.37	16.48	-38.8	-40.8	13.5	1.14e-05	0	61	0	4465885184	47	4714
2026-01-30 04:23:50.26	209.34	16.36	-38.8	-40.7	13.5	1.71e-05	0	61	0	4473225216	47	4704
2026-01-30 04:23:51.27	209.31	16.25	-38.8	-40.8	13.4	1.48e-05	0	62	0	4480565248	47	4721
2026-01-30 04:23:52.28	209.29	16.13	-38.9	-40.9	13.4	1.83e-05	0	61	0	4487905280	47	4771
2026-01-30 04:23:53.29	209.26	16.02	-38.9	-40.8	13.4	9.10e-06	0	61	0	4495245312	47	4749
2026-01-30 04:23:54.30	209.23	15.91	-38.9	-40.9	13.3	1.60e-05	0	61	0	4502585344	47	4796
2026-01-30 04:23:55.31	209.21	15.80	-39.0	-40.9	13.3	3.08e-05	0	62	0	4508876800	47	4801
2026-01-30 04:23:56.32	209.18	15.69	-39.0	-40.9	13.3	3.20e-05	0	61	0	4517265408	47	4808
2026-01-30 04:23:57.33	209.15	15.58	-39.0	-41.0	13.2	1.83e-05	0	61	0	4524605440	47	4847
2026-01-30 04:23:58.34	209.13	15.47	-39.0	-41.0	13.2	3.20e-05	0	62	0	4530896896	47	4863
