passes_logs/2026/01/30/R2.0S_Moscow/R2.0S_Moscow__20260130_010410_NOAA_21_JPSS-2_rec.log

#Pass ID: 20260130_010410_NOAA 21 (JPSS-2)
#Satellite: NOAA 21 (JPSS-2)
#Configuration: NOAA-21
#almurnet v.1.7.20251203
#Start time: 2026-01-30 01:04:11

#Version: 2.2.20231116
#Station: R2.0S_Moscow
#Location: 37.707566 lon 55.798166 lat
#TLE: 1 54234U 22150A   26028.89828222  .00000145  00000+0  89569-4 0  9997
#TLE: 2 54234  98.7511 329.6308 0000927 198.8651 161.2491 14.19540676166783

#Time	Az	El	Level	Level2	SNR	BER	BlckErr	Temp	State	Recorded	gain1	gain2
2026-01-30 01:04:11.83	10.97	2.06	-45.0	-57.5	3.8	1.49e+00	0	61	0	0	61	15338
2026-01-30 01:04:12.83	10.92	2.12	-39.8	-52.0	3.8	1.49e+00	0	61	104	0	51	14480
2026-01-30 01:04:13.85	10.86	2.18	-39.8	-52.0	3.8	1.49e+00	0	61	104	0	51	14439
2026-01-30 01:04:14.86	10.81	2.24	-39.8	-52.0	3.8	1.49e+00	0	61	104	0	51	14499
2026-01-30 01:04:15.87	10.75	2.30	-39.8	-52.0	3.8	1.49e+00	0	61	104	0	51	14435
2026-01-30 01:04:16.88	10.70	2.36	-39.8	-52.0	3.8	1.49e+00	0	61	104	0	51	14411
2026-01-30 01:04:17.89	10.64	2.42	-39.8	-52.0	3.8	1.49e+00	0	61	104	0	51	14455
2026-01-30 01:04:18.90	10.58	2.48	-39.8	-52.0	3.8	1.49e+00	0	61	104	0	51	14430
2026-01-30 01:04:19.91	10.53	2.54	-39.8	-52.0	3.8	1.49e+00	0	61	104	0	51	14465
2026-01-30 01:04:20.92	10.47	2.60	-39.8	-52.0	3.8	1.49e+00	0	61	104	0	51	14432
2026-01-30 01:04:21.93	10.41	2.66	-39.8	-52.0	3.8	1.49e+00	0	61	104	0	51	14434
2026-01-30 01:04:22.94	10.35	2.72	-39.8	-52.0	3.8	1.49e+00	0	61	104	0	51	14404
2026-01-30 01:04:23.95	10.30	2.78	-39.8	-52.0	3.8	1.49e+00	0	61	104	0	51	14413
2026-01-30 01:04:24.96	10.24	2.84	-39.8	-52.0	3.8	1.49e+00	0	61	104	0	51	14411
2026-01-30 01:04:25.97	10.18	2.90	-39.8	-52.0	3.8	1.49e+00	0	61	104	0	51	14375
2026-01-30 01:04:26.99	10.12	2.96	-39.8	-52.0	3.8	1.49e+00	0	61	104	0	51	14404
2026-01-30 01:04:28.00	10.06	3.02	-39.8	-52.0	3.8	1.49e+00	0	61	104	0	51	14418
2026-01-30 01:04:29.01	10.00	3.08	-39.8	-52.0	3.8	1.49e+00	0	61	104	0	51	14389
2026-01-30 01:04:30.02	9.95	3.14	-39.8	-52.0	3.8	1.49e+00	0	61	104	0	51	14394
2026-01-30 01:04:31.02	9.89	3.20	-39.8	-52.0	3.8	1.49e+00	0	61	104	0	51	14405
2026-01-30 01:04:32.04	9.83	3.27	-39.8	-52.0	3.8	1.49e+00	0	61	104	0	51	14387
2026-01-30 01:04:33.05	9.77	3.33	-39.8	-52.0	3.8	1.49e+00	0	61	104	0	51	14451
2026-01-30 01:04:34.06	9.71	3.39	-39.8	-52.0	3.8	1.49e+00	0	61	104	0	51	14454
2026-01-30 01:04:35.07	9.65	3.45	-39.8	-52.0	3.8	1.49e+00	0	61	104	0	51	14405
2026-01-30 01:04:36.08	9.58	3.51	-39.8	-52.0	3.8	1.49e+00	0	61	104	0	51	14405
2026-01-30 01:04:37.09	9.52	3.57	-39.8	-51.9	3.8	1.49e+00	0	61	104	0	51	14373
2026-01-30 01:04:38.10	9.46	3.63	-39.8	-52.0	3.8	1.49e+00	0	61	104	0	51	14413
2026-01-30 01:04:39.11	9.40	3.70	-39.8	-52.0	3.8	1.49e+00	0	61	104	0	51	14400
2026-01-30 01:04:40.12	9.34	3.76	-39.8	-52.0	3.8	1.49e+00	0	61	104	0	51	14393
2026-01-30 01:04:41.13	9.28	3.82	-39.8	-51.9	3.8	1.49e+00	0	61	104	0	51	14371
2026-01-30 01:04:42.14	9.21	3.88	-39.8	-52.0	3.8	1.49e+00	0	61	104	0	51	14414
2026-01-30 01:04:43.15	9.15	3.94	-39.8	-51.9	3.8	1.49e+00	0	61	104	0	51	14311
2026-01-30 01:04:44.16	9.09	4.01	-39.8	-51.9	3.8	1.49e+00	0	61	104	0	51	14356
2026-01-30 01:04:45.17	9.03	4.07	-39.8	-52.0	3.8	1.49e+00	0	61	104	0	51	14385
2026-01-30 01:04:46.18	8.96	4.13	-39.8	-51.9	3.8	1.49e+00	0	61	104	0	51	14361
2026-01-30 01:04:47.19	8.90	4.20	-39.8	-52.0	3.8	1.49e+00	0	61	104	0	51	14387
2026-01-30 01:04:48.20	8.83	4.26	-39.8	-51.9	3.8	1.49e+00	0	61	104	0	51	14347
2026-01-30 01:04:49.21	8.77	4.32	-39.8	-52.0	3.8	1.49e+00	0	61	104	0	51	14397
2026-01-30 01:04:50.22	8.70	4.38	-39.8	-52.0	3.8	1.49e+00	0	61	104	0	51	14383
2026-01-30 01:04:51.23	8.64	4.45	-39.8	-52.0	3.8	1.49e+00	0	61	104	0	51	14374
2026-01-30 01:04:52.24	8.57	4.51	-39.8	-51.9	3.8	1.49e+00	0	61	104	0	51	14366
2026-01-30 01:04:53.25	8.51	4.57	-39.8	-51.9	3.8	1.49e+00	0	61	104	0	51	14362
2026-01-30 01:04:54.26	8.44	4.64	-39.8	-51.9	3.8	1.49e+00	0	61	104	0	51	14358
2026-01-30 01:04:55.27	8.38	4.70	-39.8	-51.9	3.8	1.49e+00	0	61	104	0	51	14323
2026-01-30 01:04:56.28	8.31	4.76	-39.8	-51.9	3.8	1.49e+00	0	61	104	0	51	14333
2026-01-30 01:04:57.29	8.24	4.83	-39.8	-52.0	3.8	1.49e+00	0	61	104	0	51	14399
2026-01-30 01:04:58.30	8.18	4.89	-39.8	-51.9	3.8	1.49e+00	0	61	104	0	51	14350
2026-01-30 01:04:59.31	8.11	4.96	-39.8	-52.0	3.8	1.49e+00	0	61	104	0	51	14380
2026-01-30 01:05:00.32	8.04	5.02	-39.8	-51.9	3.8	1.49e+00	0	61	104	0	51	14367
2026-01-30 01:05:01.33	7.97	5.09	-39.8	-52.0	3.8	1.49e+00	0	61	104	0	51	14378
2026-01-30 01:05:02.34	7.90	5.15	-39.8	-51.9	3.8	1.49e+00	0	61	104	0	51	14348
2026-01-30 01:05:03.35	7.83	5.21	-39.8	-52.0	3.8	1.49e+00	0	61	104	0	51	14408
2026-01-30 01:05:04.36	7.77	5.28	-39.8	-51.9	3.8	1.49e+00	0	61	104	0	51	14353
2026-01-30 01:05:05.38	7.70	5.34	-39.8	-51.9	3.8	1.49e+00	0	61	104	0	51	14321
2026-01-30 01:05:06.38	7.63	5.41	-39.8	-51.9	3.8	1.49e+00	0	61	104	0	51	14345
2026-01-30 01:05:07.40	7.56	5.47	-39.8	-52.0	3.8	1.49e+00	0	61	104	0	51	14374
2026-01-30 01:05:08.41	7.49	5.54	-39.8	-51.9	3.8	1.49e+00	0	61	104	0	51	14346
2026-01-30 01:05:09.42	7.41	5.60	-39.8	-51.9	3.8	1.49e+00	0	61	104	0	51	14323
2026-01-30 01:05:10.43	7.34	5.67	-39.8	-51.9	3.8	1.49e+00	0	61	104	0	51	14328
2026-01-30 01:05:11.44	7.27	5.74	-39.7	-51.9	3.8	1.49e+00	0	61	104	0	51	14333
2026-01-30 01:05:12.45	7.20	5.80	-39.7	-51.9	3.8	1.49e+00	0	61	104	0	51	14300
2026-01-30 01:05:13.46	7.13	5.87	-39.8	-51.9	3.8	1.49e+00	0	61	104	0	51	14331
2026-01-30 01:05:14.47	7.06	5.93	-39.7	-51.9	3.8	1.49e+00	0	61	104	0	51	14322
2026-01-30 01:05:15.48	6.98	6.00	-39.7	-51.9	3.8	1.49e+00	0	61	104	0	51	14351
2026-01-30 01:05:16.49	6.91	6.07	-39.8	-51.9	3.8	1.49e+00	0	61	104	0	51	14328
2026-01-30 01:05:17.50	6.84	6.13	-39.7	-51.9	3.8	1.49e+00	0	61	104	0	51	14355
2026-01-30 01:05:18.51	6.76	6.20	-39.7	-51.9	3.8	1.49e+00	0	61	104	0	51	14324
2026-01-30 01:05:19.52	6.69	6.26	-39.7	-51.9	3.8	1.49e+00	0	61	104	0	51	14325
2026-01-30 01:05:20.52	6.61	6.33	-39.7	-51.9	3.8	1.49e+00	0	61	104	0	51	14298
2026-01-30 01:05:21.53	6.54	6.40	-39.7	-51.9	3.8	1.49e+00	0	61	104	0	51	14291
2026-01-30 01:05:22.55	6.46	6.46	-39.7	-51.9	3.8	1.49e+00	0	61	104	0	51	14283
2026-01-30 01:05:23.56	6.39	6.53	-39.7	-51.9	3.8	1.49e+00	0	61	104	0	51	14318
2026-01-30 01:05:24.57	6.31	6.60	-39.7	-51.9	3.8	1.49e+00	0	61	104	0	51	14281
2026-01-30 01:05:25.58	6.24	6.67	-39.7	-51.9	3.8	1.49e+00	0	61	104	0	51	14276
2026-01-30 01:05:26.58	6.16	6.73	-39.7	-51.9	3.8	1.49e+00	0	61	104	0	51	14325
2026-01-30 01:05:27.59	6.08	6.80	-39.7	-51.9	3.8	1.49e+00	0	61	104	0	51	14318
2026-01-30 01:05:28.60	6.01	6.87	-39.7	-51.9	3.8	1.49e+00	0	61	104	0	51	14333
2026-01-30 01:05:29.61	5.93	6.94	-39.7	-51.9	3.8	1.49e+00	0	61	104	0	51	14333
2026-01-30 01:05:30.62	5.85	7.00	-39.7	-51.9	3.8	1.49e+00	0	61	104	0	51	14332
2026-01-30 01:05:31.63	5.77	7.07	-39.7	-51.9	3.8	1.49e+00	0	61	104	0	51	14303
2026-01-30 01:05:32.64	5.69	7.14	-39.7	-51.9	3.8	1.49e+00	0	61	104	0	51	14290
2026-01-30 01:05:33.65	5.61	7.21	-39.7	-51.9	3.8	1.49e+00	0	61	104	0	51	14310
2026-01-30 01:05:34.66	5.53	7.28	-39.7	-51.9	3.8	1.49e+00	0	61	104	0	51	14333
2026-01-30 01:05:35.67	5.45	7.34	-39.7	-51.9	3.8	1.49e+00	0	61	104	0	51	14314
2026-01-30 01:05:36.68	5.37	7.41	-39.7	-51.9	3.8	1.49e+00	0	61	104	0	51	14327
2026-01-30 01:05:37.69	5.29	7.48	-39.7	-51.9	3.8	1.49e+00	0	61	104	0	51	14361
2026-01-30 01:05:38.70	5.21	7.55	-39.7	-51.9	3.8	1.49e+00	0	62	104	0	51	14304
2026-01-30 01:05:39.71	5.13	7.62	-39.7	-51.9	3.8	1.49e+00	0	61	104	0	51	14277
2026-01-30 01:05:40.72	5.04	7.69	-39.7	-51.9	3.8	1.49e+00	0	61	104	0	51	14334
2026-01-30 01:05:41.73	4.96	7.76	-39.7	-51.9	3.8	1.49e+00	0	61	104	0	51	14333
2026-01-30 01:05:42.74	4.88	7.83	-39.7	-51.9	3.8	1.49e+00	0	61	104	0	51	14298
2026-01-30 01:05:43.75	4.80	7.90	-39.7	-51.9	3.8	1.49e+00	0	61	104	0	51	14281
2026-01-30 01:05:44.76	4.71	7.97	-39.7	-51.9	3.8	1.49e+00	0	61	104	0	51	14302
2026-01-30 01:05:45.77	4.63	8.04	-39.7	-51.9	3.8	1.49e+00	0	61	104	0	51	14304
2026-01-30 01:05:46.78	4.54	8.11	-39.8	-52.0	3.8	1.49e+00	0	61	104	0	51	14401
2026-01-30 01:05:47.79	4.46	8.18	-39.8	-52.0	3.8	1.49e+00	0	61	104	0	51	14473
2026-01-30 01:05:48.80	4.37	8.25	-39.9	-52.1	3.8	1.49e+00	0	61	104	0	51	14663
2026-01-30 01:05:49.81	4.29	8.32	-40.0	-52.2	3.8	1.49e+00	0	61	104	0	51	14749
2026-01-30 01:05:50.83	4.20	8.39	-39.9	-52.1	3.8	1.49e+00	0	61	104	0	51	14636
2026-01-30 01:05:51.83	4.11	8.46	-40.0	-52.1	3.8	1.49e+00	0	62	104	0	51	14689
2026-01-30 01:05:52.84	4.03	8.53	-39.9	-52.1	3.8	1.49e+00	0	62	104	0	51	14680
2026-01-30 01:05:53.85	3.94	8.60	-39.9	-52.1	3.8	1.49e+00	0	61	104	0	51	14621
2026-01-30 01:05:54.86	3.85	8.67	-39.9	-52.1	3.8	1.49e+00	0	61	104	0	51	14625
2026-01-30 01:05:55.87	3.76	8.74	-39.9	-52.1	3.8	1.49e+00	0	61	104	0	51	14677
2026-01-30 01:05:56.88	3.67	8.81	-39.9	-52.1	3.8	1.49e+00	0	61	104	0	51	14656
2026-01-30 01:05:57.89	3.58	8.88	-39.9	-52.1	3.8	1.49e+00	0	61	104	0	51	14650
2026-01-30 01:05:58.90	3.49	8.96	-39.9	-52.1	3.8	1.49e+00	0	62	104	0	51	14652
2026-01-30 01:05:59.91	3.40	9.03	-39.9	-52.1	3.8	1.49e+00	0	61	104	0	51	14696
2026-01-30 01:06:00.92	3.31	9.10	-39.9	-52.0	3.8	1.49e+00	0	61	104	0	51	14538
2026-01-30 01:06:01.93	3.22	9.17	-39.9	-52.1	3.8	1.49e+00	0	61	104	0	51	14642
2026-01-30 01:06:02.94	3.13	9.24	-39.9	-52.0	3.8	1.49e+00	0	62	104	0	51	14503
2026-01-30 01:06:03.95	3.04	9.32	-40.0	-52.1	3.8	1.49e+00	0	61	104	0	51	14703
2026-01-30 01:06:04.96	2.94	9.39	-39.9	-52.1	3.8	1.49e+00	0	62	104	0	51	14557
2026-01-30 01:06:05.97	2.85	9.46	-40.0	-52.1	3.8	1.49e+00	0	62	104	0	51	14680
2026-01-30 01:06:06.98	2.76	9.53	-39.8	-52.0	3.8	1.49e+00	0	61	104	0	51	14518
2026-01-30 01:06:07.99	2.66	9.61	-40.0	-52.1	3.8	1.49e+00	0	61	104	0	51	14699
2026-01-30 01:06:09.00	2.57	9.68	-39.9	-52.1	3.8	1.49e+00	0	61	104	0	51	14611
2026-01-30 01:06:10.01	2.47	9.75	-39.9	-52.1	3.8	1.49e+00	0	61	104	0	51	14645
2026-01-30 01:06:11.02	2.38	9.82	-39.9	-52.0	3.8	1.49e+00	0	61	104	0	51	14515
2026-01-30 01:06:12.03	2.28	9.90	-40.0	-52.2	3.8	1.49e+00	0	61	104	0	51	14713
2026-01-30 01:06:13.04	2.18	9.97	-39.9	-52.1	3.8	1.49e+00	0	61	104	0	51	14601
2026-01-30 01:06:14.05	2.08	10.05	-39.9	-52.1	3.8	1.49e+00	0	62	104	0	51	14651
2026-01-30 01:06:15.06	1.99	10.12	-39.9	-52.1	3.8	1.49e+00	0	62	104	0	51	14560
2026-01-30 01:06:16.07	1.89	10.19	-40.0	-52.2	3.8	1.49e+00	0	61	104	0	51	14728
2026-01-30 01:06:17.08	1.79	10.27	-39.9	-52.1	3.8	1.49e+00	0	61	104	0	51	14564
2026-01-30 01:06:18.09	1.69	10.34	-39.9	-52.1	3.8	1.49e+00	0	62	104	0	51	14612
2026-01-30 01:06:19.10	1.59	10.42	-39.9	-52.1	3.8	1.49e+00	0	61	104	0	51	14599
2026-01-30 01:06:20.11	1.49	10.49	-40.0	-52.1	3.8	1.49e+00	0	61	104	0	51	14690
2026-01-30 01:06:21.12	1.39	10.56	-39.9	-52.1	3.8	1.49e+00	0	61	104	0	51	14544
2026-01-30 01:06:22.13	1.29	10.64	-39.9	-52.1	3.8	1.49e+00	0	61	104	0	51	14635
2026-01-30 01:06:23.14	1.19	10.71	-39.9	-52.1	3.8	1.49e+00	0	61	104	0	51	14620
2026-01-30 01:06:24.15	1.08	10.79	-40.0	-52.2	3.8	1.49e+00	0	61	104	0	51	14769
2026-01-30 01:06:25.16	0.98	10.86	-39.8	-52.0	3.8	1.49e+00	0	61	104	0	51	14459
2026-01-30 01:06:26.17	0.88	10.94	-40.0	-52.1	3.8	1.49e+00	0	62	104	0	51	14674
2026-01-30 01:06:27.18	0.77	11.01	-39.9	-52.1	3.8	1.49e+00	0	61	104	0	51	14617
2026-01-30 01:06:28.19	0.67	11.09	-40.0	-52.2	3.8	1.49e+00	0	61	104	0	51	14804
2026-01-30 01:06:29.20	0.56	11.17	-39.8	-52.0	3.8	1.49e+00	0	61	104	0	51	14503
2026-01-30 01:06:30.21	0.46	11.24	-40.0	-52.2	3.8	1.49e+00	0	61	104	0	51	14716
2026-01-30 01:06:31.22	0.35	11.32	-39.9	-52.1	3.8	1.49e+00	0	62	104	0	51	14600
2026-01-30 01:06:32.23	0.24	11.39	-40.1	-52.3	3.8	1.49e+00	0	62	104	0	51	14925
2026-01-30 01:06:33.24	0.14	11.47	-39.8	-52.0	3.8	1.49e+00	0	61	104	0	51	14499
2026-01-30 01:06:34.25	0.03	11.55	-40.1	-52.2	3.8	1.49e+00	0	62	104	0	51	14851
2026-01-30 01:06:35.26	359.92	11.62	-40.0	-52.1	3.8	1.49e+00	0	61	104	0	51	14659
2026-01-30 01:06:36.27	359.81	11.70	-40.2	-52.3	3.8	1.49e+00	0	61	104	0	51	14917
2026-01-30 01:06:37.28	359.70	11.78	-39.8	-52.0	3.8	1.49e+00	0	61	104	0	51	14478
2026-01-30 01:06:38.28	359.59	11.85	-40.1	-52.3	3.8	1.49e+00	0	61	104	0	51	14886
2026-01-30 01:06:39.29	359.48	11.93	-40.0	-52.2	3.8	1.49e+00	0	61	104	0	51	14796
2026-01-30 01:06:40.30	359.37	12.01	-40.3	-52.3	3.8	1.49e+00	0	61	104	0	51	15023
2026-01-30 01:06:41.31	359.26	12.08	-39.9	-52.0	3.8	1.49e+00	0	61	104	0	51	14512
2026-01-30 01:06:42.32	359.14	12.16	-40.3	-52.3	3.8	1.49e+00	0	61	104	0	51	14928
2026-01-30 01:06:43.33	359.03	12.24	-40.1	-52.2	3.8	1.49e+00	0	62	104	0	51	14807
2026-01-30 01:06:44.34	358.91	12.32	-40.3	-52.3	3.8	1.49e+00	0	61	104	0	52	14085
2026-01-30 01:06:45.35	358.80	12.39	-40.0	-52.1	3.8	1.49e+00	0	62	104	0	51	14641
2026-01-30 01:06:46.36	358.68	12.47	-40.4	-52.3	3.8	1.49e+00	0	62	104	0	52	14119
2026-01-30 01:06:47.37	358.57	12.55	-40.1	-52.2	3.8	1.49e+00	0	62	104	0	52	13922
2026-01-30 01:06:48.38	358.45	12.63	-40.7	-52.2	3.8	1.49e+00	0	62	104	0	53	13240
2026-01-30 01:06:49.39	358.33	12.71	-40.0	-51.7	3.8	1.49e+00	0	62	104	0	51	13899
2026-01-30 01:06:50.40	358.22	12.78	-40.2	-51.2	3.8	1.49e+00	0	62	104	0	51	13188
2026-01-30 01:06:51.41	358.10	12.86	-40.0	-51.6	3.8	1.49e+00	0	62	104	0	51	13737
2026-01-30 01:06:52.42	357.98	12.94	-40.1	-49.6	4.1	1.48e+00	0	62	104	0	51	10910
2026-01-30 01:06:53.43	357.86	13.02	-40.0	-48.6	4.0	1.22e+00	0	62	104	0	51	9785
2026-01-30 01:06:54.44	357.74	13.10	-39.6	-46.3	5.5	5.21e-01	0	62	0	2097152	51	7511
2026-01-30 01:06:55.45	357.62	13.18	-39.4	-45.4	6.2	3.19e-01	0	62	0	5242880	50	7198
2026-01-30 01:06:56.46	357.49	13.26	-39.4	-45.3	6.4	2.43e-01	0	62	0	8388608	50	7043
2026-01-30 01:06:57.47	357.37	13.34	-39.4	-45.2	6.5	2.19e-01	0	62	0	11534336	50	6975
2026-01-30 01:06:58.48	357.25	13.42	-39.5	-44.9	7.0	1.87e-01	0	62	0	14680064	50	6796
2026-01-30 01:06:59.49	357.13	13.50	-39.8	-46.1	5.9	2.81e-01	0	61	0	17825792	50	7790
2026-01-30 01:07:00.50	357.00	13.58	-40.1	-45.3	7.2	3.86e-01	0	62	0	20971520	50	7105
2026-01-30 01:07:01.51	356.88	13.66	-40.0	-43.8	9.8	1.39e-02	0	62	0	24117248	51	5632
2026-01-30 01:07:02.52	356.75	13.74	-39.8	-43.3	10.4	1.79e-02	0	62	0	27262976	51	5340
2026-01-30 01:07:03.53	356.62	13.82	-40.2	-44.1	9.5	2.32e-02	0	61	0	30408704	51	5853
2026-01-30 01:07:04.54	356.49	13.90	-39.9	-43.8	9.6	1.17e-02	0	62	0	33554432	51	5628
2026-01-30 01:07:05.55	356.37	13.98	-40.0	-44.1	9.2	1.57e-02	0	62	0	36700160	51	5849
2026-01-30 01:07:06.56	356.24	14.06	-40.3	-44.8	8.5	3.72e-02	0	62	0	39845888	51	6316
2026-01-30 01:07:07.57	356.11	14.14	-40.6	-45.7	7.5	9.30e-02	0	62	0	42991616	51	6973
2026-01-30 01:07:08.58	355.98	14.22	-40.8	-46.5	6.6	1.59e-01	0	62	0	46137344	52	7280
2026-01-30 01:07:09.59	355.85	14.30	-41.1	-48.1	5.3	3.89e-01	0	61	0	49283072	52	8749
2026-01-30 01:07:10.60	355.72	14.38	-41.1	-48.6	5.0	6.80e-01	0	61	0	52428800	52	9185
2026-01-30 01:07:11.61	355.58	14.46	-41.3	-50.8	3.9	1.45e+00	0	62	104	53477376	53	11181
2026-01-30 01:07:12.61	355.45	14.54	-41.3	-50.6	4.1	1.46e+00	0	62	104	53477376	53	10959
2026-01-30 01:07:13.63	355.32	14.62	-41.4	-52.1	3.8	1.48e+00	0	62	104	53477376	53	12996
2026-01-30 01:07:14.63	355.18	14.70	-40.9	-52.2	3.8	1.49e+00	0	61	104	53477376	53	13133
2026-01-30 01:07:15.65	355.04	14.79	-40.6	-52.5	3.8	1.49e+00	0	62	104	53477376	53	13588
2026-01-30 01:07:16.65	354.91	14.87	-41.2	-53.0	3.8	1.49e+00	0	62	104	53477376	53	14530
2026-01-30 01:07:17.67	354.77	14.95	-40.7	-52.7	3.8	1.49e+00	0	62	104	53477376	53	13886
2026-01-30 01:07:18.68	354.63	15.03	-40.5	-52.6	3.8	1.49e+00	0	62	104	53477376	53	13800
2026-01-30 01:07:19.69	354.50	15.11	-40.4	-52.6	3.8	1.49e+00	0	61	104	53477376	52	14607
2026-01-30 01:07:20.70	354.36	15.20	-40.6	-52.7	3.8	1.49e+00	0	62	104	53477376	52	14863
2026-01-30 01:07:21.70	354.22	15.28	-40.5	-52.7	3.8	1.49e+00	0	61	104	53477376	52	14811
2026-01-30 01:07:22.71	354.08	15.36	-40.7	-52.8	3.8	1.49e+00	0	62	104	53477376	52	14913
2026-01-30 01:07:23.72	353.93	15.44	-40.7	-52.9	3.8	1.49e+00	0	62	104	53477376	52	15066
2026-01-30 01:07:24.74	353.79	15.52	-40.5	-52.6	3.8	1.49e+00	0	62	104	53477376	52	14680
2026-01-30 01:07:25.74	353.65	15.61	-40.5	-52.7	3.8	1.49e+00	0	62	104	53477376	52	14813
2026-01-30 01:07:26.75	353.50	15.69	-40.5	-52.7	3.8	1.49e+00	0	62	104	53477376	52	14849
2026-01-30 01:07:27.76	353.36	15.77	-40.6	-52.8	3.8	1.49e+00	0	62	104	53477376	52	14896
2026-01-30 01:07:28.77	353.21	15.85	-40.4	-52.6	3.8	1.49e+00	0	62	104	53477376	52	14700
2026-01-30 01:07:29.78	353.07	15.94	-40.7	-52.8	3.8	1.49e+00	0	62	104	53477376	52	15046
2026-01-30 01:07:30.79	352.92	16.02	-40.5	-52.7	3.8	1.49e+00	0	62	104	53477376	52	14800
2026-01-30 01:07:31.80	352.77	16.10	-40.5	-52.7	3.8	1.49e+00	0	62	104	53477376	52	14851
2026-01-30 01:07:32.81	352.62	16.19	-40.5	-52.7	3.8	1.49e+00	0	62	104	53477376	52	14847
2026-01-30 01:07:33.82	352.47	16.27	-40.7	-52.9	3.8	1.49e+00	0	62	104	53477376	52	15099
2026-01-30 01:07:34.83	352.32	16.35	-40.6	-52.8	3.8	1.49e+00	0	62	104	53477376	52	14937
2026-01-30 01:07:35.84	352.17	16.44	-40.6	-52.8	3.8	1.49e+00	0	62	104	53477376	52	14957
2026-01-30 01:07:36.85	352.02	16.52	-40.7	-52.8	3.8	1.49e+00	0	62	104	53477376	52	15019
2026-01-30 01:07:37.86	351.86	16.60	-40.6	-52.9	3.8	1.49e+00	0	62	104	53477376	52	15082
2026-01-30 01:07:38.86	351.71	16.69	-40.7	-52.8	3.8	1.49e+00	0	62	104	53477376	52	15042
2026-01-30 01:07:39.88	351.55	16.77	-40.7	-52.8	3.8	1.49e+00	0	62	104	53477376	52	15050
2026-01-30 01:07:40.89	351.40	16.85	-40.7	-52.9	3.8	1.49e+00	0	62	104	53477376	52	15063
2026-01-30 01:07:41.90	351.24	16.94	-40.7	-52.9	3.8	1.49e+00	0	62	104	53477376	52	15167
2026-01-30 01:07:42.91	351.08	17.02	-40.7	-52.9	3.8	1.49e+00	0	62	104	53477376	52	15101
2026-01-30 01:07:43.92	350.92	17.11	-40.6	-52.9	3.8	1.49e+00	0	62	104	53477376	52	15089
2026-01-30 01:07:44.93	350.76	17.19	-40.7	-53.0	3.8	1.49e+00	0	62	104	53477376	52	15237
2026-01-30 01:07:45.94	350.60	17.27	-40.9	-53.1	3.8	1.49e+00	0	62	104	53477376	52	15530
2026-01-30 01:07:46.94	350.44	17.36	-40.6	-52.9	3.8	1.49e+00	0	62	104	53477376	52	15065
2026-01-30 01:07:47.95	350.28	17.44	-40.7	-52.9	3.8	1.49e+00	0	62	104	53477376	52	15087
2026-01-30 01:07:48.96	350.12	17.53	-40.8	-53.0	3.8	1.49e+00	0	62	104	53477376	52	15247
2026-01-30 01:07:49.97	349.95	17.61	-40.9	-53.2	3.8	1.49e+00	0	62	104	53477376	52	15590
2026-01-30 01:07:50.98	349.79	17.69	-40.8	-53.0	3.8	1.49e+00	0	62	104	53477376	52	15278
2026-01-30 01:07:51.99	349.62	17.78	-40.6	-52.8	3.8	1.49e+00	0	62	104	53477376	52	15015
2026-01-30 01:07:53.00	349.45	17.86	-41.0	-53.2	3.8	1.49e+00	0	62	104	53477376	52	15707
2026-01-30 01:07:54.01	349.29	17.95	-40.9	-53.2	3.8	1.49e+00	0	62	104	53477376	52	15592
2026-01-30 01:07:55.02	349.12	18.03	-40.9	-53.1	3.8	1.49e+00	0	62	104	53477376	52	15560
2026-01-30 01:07:56.03	348.95	18.12	-40.6	-52.8	3.8	1.49e+00	0	62	104	53477376	52	14933
2026-01-30 01:07:57.04	348.78	18.20	-41.3	-53.6	3.8	1.49e+00	0	62	104	53477376	53	15421
2026-01-30 01:07:58.05	348.60	18.29	-40.6	-52.8	3.8	1.49e+00	0	62	104	53477376	53	14151
2026-01-30 01:07:59.06	348.43	18.37	-40.6	-52.8	3.8	1.49e+00	0	62	104	53477376	53	14058
2026-01-30 01:08:00.07	348.26	18.46	-40.6	-52.8	3.8	1.49e+00	0	62	104	53477376	53	14068
2026-01-30 01:08:01.08	348.08	18.54	-40.7	-52.9	3.8	1.49e+00	0	62	104	53477376	53	14261
2026-01-30 01:08:02.09	347.91	18.62	-40.6	-52.8	3.8	1.49e+00	0	62	104	53477376	53	14102
2026-01-30 01:08:03.10	347.73	18.71	-41.3	-53.6	3.8	1.49e+00	0	62	104	53477376	53	15442
2026-01-30 01:08:04.11	347.55	18.79	-40.6	-52.8	3.8	1.49e+00	0	62	104	53477376	53	14148
2026-01-30 01:08:05.11	347.37	18.88	-40.7	-52.9	3.8	1.49e+00	0	62	104	53477376	53	14277
2026-01-30 01:08:06.12	347.19	18.96	-40.6	-52.8	3.8	1.49e+00	0	62	104	53477376	53	14142
2026-01-30 01:08:07.13	347.01	19.05	-40.6	-52.8	3.8	1.49e+00	0	62	104	53477376	53	14127
2026-01-30 01:08:08.14	346.83	19.13	-40.6	-52.8	3.8	1.49e+00	0	62	104	53477376	53	14169
2026-01-30 01:08:09.15	346.65	19.22	-40.6	-52.8	3.8	1.49e+00	0	62	104	53477376	53	14103
2026-01-30 01:08:10.16	346.46	19.30	-40.7	-52.8	3.8	1.49e+00	0	62	104	53477376	53	14137
2026-01-30 01:08:11.17	346.28	19.39	-40.7	-52.9	3.8	1.49e+00	0	62	104	53477376	53	14220
2026-01-30 01:08:12.18	346.09	19.47	-40.6	-52.7	3.8	1.49e+00	0	62	104	53477376	53	13998
2026-01-30 01:08:13.19	345.91	19.55	-40.6	-52.8	3.8	1.49e+00	0	62	104	53477376	53	14132
2026-01-30 01:08:14.20	345.72	19.64	-40.7	-52.7	3.8	1.49e+00	0	62	104	53477376	53	14038
2026-01-30 01:08:15.21	345.53	19.72	-40.5	-52.7	3.8	1.49e+00	0	62	104	53477376	53	13952
2026-01-30 01:08:16.22	345.34	19.81	-40.6	-52.4	3.8	1.49e+00	0	62	104	53477376	53	13559
2026-01-30 01:08:17.23	345.15	19.89	-40.6	-52.6	3.8	1.49e+00	0	62	104	53477376	53	13834
2026-01-30 01:08:18.24	344.95	19.98	-40.9	-52.9	3.8	1.49e+00	0	62	104	53477376	53	14235
2026-01-30 01:08:19.25	344.76	20.06	-40.4	-52.6	3.8	1.49e+00	0	62	104	53477376	52	14567
2026-01-30 01:08:20.26	344.57	20.14	-40.8	-52.6	3.8	1.49e+00	0	62	104	53477376	52	14622
2026-01-30 01:08:21.27	344.37	20.23	-40.6	-52.6	3.8	1.49e+00	0	62	104	53477376	52	14589
2026-01-30 01:08:22.28	344.17	20.31	-41.3	-52.7	3.8	1.49e+00	0	62	104	53477376	53	13894
2026-01-30 01:08:23.29	343.98	20.40	-40.5	-52.3	3.8	1.49e+00	0	62	104	53477376	52	14147
2026-01-30 01:08:24.30	343.78	20.48	-41.0	-52.0	3.8	1.49e+00	0	62	104	53477376	52	13626
2026-01-30 01:08:25.31	343.58	20.56	-40.8	-52.3	3.8	1.49e+00	0	62	104	53477376	52	14144
2026-01-30 01:08:26.32	343.37	20.65	-41.5	-50.7	4.2	1.46e+00	0	62	104	53477376	54	10456
2026-01-30 01:08:27.33	343.17	20.73	-40.6	-51.6	3.8	1.49e+00	0	62	104	53477376	53	12331
2026-01-30 01:08:28.34	342.97	20.81	-41.8	-48.5	5.6	5.44e-01	0	62	0	54525952	54	8152
2026-01-30 01:08:29.35	342.76	20.90	-41.6	-50.5	4.0	1.45e+00	0	62	104	55574528	54	10194
2026-01-30 01:08:30.36	342.56	20.98	-41.6	-47.4	6.6	2.25e-01	0	62	0	56623104	54	7155
2026-01-30 01:08:31.37	342.35	21.06	-41.4	-46.8	7.1	1.73e-01	0	62	0	59768832	54	6706
2026-01-30 01:08:32.38	342.14	21.15	-41.3	-46.3	7.7	1.02e-01	0	62	0	62914560	54	6319
2026-01-30 01:08:33.39	341.93	21.23	-41.1	-45.7	8.4	5.41e-02	0	62	0	67108864	54	5884
2026-01-30 01:08:34.40	341.72	21.31	-40.9	-45.2	9.0	3.00e-02	0	62	0	69206016	53	5864
2026-01-30 01:08:35.41	341.51	21.40	-40.7	-44.6	9.7	1.31e-02	0	62	0	72351744	53	5480
2026-01-30 01:08:36.42	341.30	21.48	-40.6	-44.3	10.0	7.73e-03	0	62	0	75497472	53	5311
2026-01-30 01:08:37.43	341.09	21.56	-40.6	-44.3	10.2	6.29e-03	0	62	0	78643200	53	5309
2026-01-30 01:08:38.44	340.87	21.64	-40.7	-44.3	10.2	6.27e-03	0	62	0	82837504	53	5310
2026-01-30 01:08:39.45	340.66	21.72	-40.6	-44.0	10.6	4.23e-03	0	62	0	85983232	53	5134
2026-01-30 01:08:40.46	340.44	21.81	-40.3	-43.4	11.3	1.67e-03	0	62	0	89128960	52	5073
2026-01-30 01:08:41.47	340.22	21.89	-40.0	-42.9	11.8	5.36e-04	0	62	0	91226112	52	4805
2026-01-30 01:08:42.48	340.00	21.97	-40.3	-43.3	11.6	5.96e-04	0	62	0	94371840	51	5290
2026-01-30 01:08:43.49	339.78	22.05	-40.2	-43.2	11.7	5.54e-04	0	62	0	98566144	51	5268
2026-01-30 01:08:44.50	339.56	22.13	-40.3	-43.2	11.8	4.67e-04	0	62	0	101711872	51	5248
2026-01-30 01:08:45.51	339.33	22.21	-40.4	-43.4	11.7	6.44e-04	0	62	0	104857600	51	5383
2026-01-30 01:08:46.52	339.11	22.29	-40.1	-42.9	12.4	1.93e-04	0	62	0	108003328	51	5045
2026-01-30 01:08:47.53	338.88	22.37	-40.1	-42.8	12.6	8.69e-05	0	62	0	111149056	51	4984
2026-01-30 01:08:48.54	338.66	22.45	-40.2	-42.9	12.6	8.31e-05	0	62	0	114294784	51	5081
2026-01-30 01:08:49.55	338.43	22.53	-40.1	-42.6	13.0	4.65e-05	0	62	0	117440512	51	4901
2026-01-30 01:08:50.56	338.20	22.61	-39.8	-42.3	13.3	2.28e-05	0	62	0	120586240	51	4709
2026-01-30 01:08:51.57	337.97	22.69	-40.0	-42.5	13.1	2.51e-05	0	62	0	123731968	51	4846
2026-01-30 01:08:52.58	337.74	22.77	-40.0	-42.4	13.3	2.67e-05	0	62	0	126877696	51	4813
2026-01-30 01:08:53.59	337.51	22.85	-40.0	-42.5	13.3	1.14e-05	0	62	0	130023424	51	4823
2026-01-30 01:08:54.60	337.27	22.93	-40.1	-42.5	13.2	1.60e-05	0	62	0	133169152	51	4862
2026-01-30 01:08:55.61	337.04	23.01	-40.1	-42.6	13.2	2.74e-05	0	62	0	136314880	51	4910
2026-01-30 01:08:56.62	336.80	23.09	-40.2	-42.6	13.2	2.67e-05	0	62	0	139460608	51	4913
2026-01-30 01:08:57.63	336.56	23.16	-40.2	-42.7	13.1	2.67e-05	0	62	0	142606336	51	4962
2026-01-30 01:08:58.64	336.33	23.24	-40.3	-42.8	13.1	3.58e-05	0	62	0	145752064	51	4998
2026-01-30 01:08:59.65	336.09	23.32	-40.1	-42.6	13.3	1.90e-05	0	62	0	148897792	51	4873
2026-01-30 01:09:00.66	335.85	23.39	-40.0	-42.5	13.4	1.44e-05	0	61	0	152043520	51	4817
2026-01-30 01:09:01.67	335.60	23.47	-40.1	-42.5	13.3	1.22e-05	0	62	0	155189248	51	4840
2026-01-30 01:09:02.68	335.36	23.55	-40.1	-42.5	13.4	2.13e-05	0	62	0	158334976	51	4827
2026-01-30 01:09:03.69	335.11	23.62	-40.0	-42.4	13.5	1.67e-05	0	62	0	161480704	51	4797
2026-01-30 01:09:04.70	334.87	23.70	-40.1	-42.5	13.4	1.44e-05	0	62	0	164626432	51	4834
2026-01-30 01:09:05.71	334.62	23.77	-40.2	-42.7	13.2	2.13e-05	0	62	0	167772160	51	4932
2026-01-30 01:09:06.72	334.37	23.85	-40.1	-42.5	13.3	2.36e-05	0	62	0	170917888	51	4859
2026-01-30 01:09:07.73	334.12	23.92	-40.2	-42.6	13.3	2.05e-05	0	62	0	174063616	51	4903
2026-01-30 01:09:08.74	333.87	24.00	-40.2	-42.6	13.3	1.90e-05	0	62	0	177209344	51	4886
2026-01-30 01:09:09.75	333.62	24.07	-40.2	-42.7	13.2	3.05e-05	0	62	0	180355072	51	4949
2026-01-30 01:09:10.76	333.37	24.14	-40.2	-42.7	13.2	2.05e-05	0	62	0	183500800	51	4952
2026-01-30 01:09:11.77	333.11	24.22	-40.3	-42.7	13.2	2.51e-05	0	62	0	186646528	51	4962
2026-01-30 01:09:12.78	332.86	24.29	-40.2	-42.6	13.3	3.28e-05	0	62	0	189792256	51	4908
2026-01-30 01:09:13.80	332.60	24.36	-40.1	-42.6	13.3	1.75e-05	0	62	0	192937984	51	4875
2026-01-30 01:09:14.81	332.34	24.43	-40.1	-42.5	13.4	9.90e-06	0	62	0	196083712	51	4859
2026-01-30 01:09:15.82	332.08	24.51	-40.1	-42.5	13.4	1.52e-05	0	62	0	199229440	51	4839
2026-01-30 01:09:16.83	331.82	24.58	-40.1	-42.4	13.5	1.14e-05	0	62	0	202375168	51	4809
2026-01-30 01:09:17.84	331.56	24.65	-40.1	-42.4	13.5	6.80e-06	0	62	0	205520896	51	4810
2026-01-30 01:09:18.85	331.30	24.72	-40.1	-42.5	13.4	1.44e-05	0	62	0	208666624	51	4870
2026-01-30 01:09:19.86	331.04	24.79	-40.2	-42.6	13.3	1.22e-05	0	62	0	211812352	51	4926
2026-01-30 01:09:20.87	330.77	24.85	-40.1	-42.5	13.4	1.98e-05	0	62	0	214958080	51	4863
2026-01-30 01:09:21.88	330.50	24.92	-40.1	-42.5	13.4	1.14e-05	0	62	0	218103808	51	4859
2026-01-30 01:09:22.89	330.24	24.99	-40.2	-42.6	13.3	1.37e-05	0	62	0	221249536	51	4900
2026-01-30 01:09:23.90	329.97	25.06	-40.2	-42.6	13.3	1.83e-05	0	62	0	224395264	51	4898
2026-01-30 01:09:24.91	329.70	25.12	-40.3	-42.8	13.2	1.90e-05	0	62	0	227540992	51	5016
2026-01-30 01:09:25.92	329.43	25.19	-40.4	-43.0	13.0	4.19e-05	0	62	0	230686720	51	5112
2026-01-30 01:09:26.93	329.16	25.26	-40.4	-43.0	13.0	5.03e-05	0	62	0	233832448	51	5109
2026-01-30 01:09:27.93	328.89	25.32	-40.4	-42.9	13.0	4.57e-05	0	62	0	236978176	51	5087
2026-01-30 01:09:28.94	328.61	25.39	-40.4	-42.9	13.0	2.97e-05	0	62	0	240123904	51	5074
2026-01-30 01:09:29.96	328.33	25.45	-40.4	-42.9	13.0	2.67e-05	0	62	0	243269632	51	5055
2026-01-30 01:09:30.96	328.06	25.51	-40.4	-42.9	13.1	2.74e-05	0	62	0	246415360	51	5049
2026-01-30 01:09:31.97	327.78	25.58	-40.3	-42.8	13.2	2.51e-05	0	62	0	249561088	51	5002
2026-01-30 01:09:32.99	327.50	25.64	-40.3	-42.7	13.2	2.74e-05	0	62	0	252706816	51	4982
2026-01-30 01:09:34.00	327.22	25.70	-40.2	-42.7	13.2	1.67e-05	0	62	0	255852544	51	4960
2026-01-30 01:09:35.01	326.94	25.76	-40.2	-42.6	13.4	1.90e-05	0	62	0	258998272	51	4879
2026-01-30 01:09:36.02	326.66	25.82	-40.1	-42.4	13.5	1.14e-05	0	62	0	262144000	51	4808
2026-01-30 01:09:37.03	326.38	25.88	-40.1	-42.5	13.4	1.37e-05	0	61	0	265289728	51	4850
2026-01-30 01:09:38.04	326.09	25.94	-40.1	-42.5	13.4	1.29e-05	0	62	0	268435456	51	4855
2026-01-30 01:09:39.05	325.81	26.00	-40.1	-42.5	13.4	1.22e-05	0	62	0	271581184	51	4861
2026-01-30 01:09:40.06	325.52	26.06	-40.2	-42.6	13.3	1.75e-05	0	62	0	274726912	51	4910
2026-01-30 01:09:41.07	325.23	26.12	-40.3	-42.8	13.1	2.21e-05	0	62	0	277872640	51	5027
2026-01-30 01:09:42.08	324.95	26.17	-40.3	-42.8	13.1	3.05e-05	0	62	0	281018368	51	5023
2026-01-30 01:09:43.08	324.66	26.23	-40.3	-42.8	13.2	2.05e-05	0	62	0	284164096	51	4985
2026-01-30 01:09:44.09	324.37	26.28	-40.2	-42.7	13.3	1.14e-05	0	62	0	287309824	51	4929
2026-01-30 01:09:45.10	324.08	26.34	-40.1	-42.5	13.4	1.37e-05	0	62	0	290455552	51	4841
2026-01-30 01:09:46.11	323.78	26.39	-40.2	-42.6	13.4	9.90e-06	0	62	0	293601280	51	4888
2026-01-30 01:09:47.12	323.49	26.45	-40.2	-42.7	13.3	2.44e-05	0	62	0	296747008	51	4942
2026-01-30 01:09:48.13	323.20	26.50	-40.2	-42.6	13.4	1.83e-05	0	61	0	299892736	51	4884
2026-01-30 01:09:49.14	322.90	26.55	-40.2	-42.6	13.4	1.14e-05	0	62	0	303038464	51	4894
2026-01-30 01:09:50.15	322.61	26.60	-40.2	-42.6	13.4	1.29e-05	0	62	0	306184192	51	4872
2026-01-30 01:09:51.16	322.31	26.65	-40.1	-42.6	13.4	1.52e-05	0	62	0	309329920	51	4871
2026-01-30 01:09:52.17	322.01	26.70	-40.1	-42.5	13.4	6.80e-06	0	62	0	312475648	51	4844
2026-01-30 01:09:53.18	321.71	26.75	-40.1	-42.5	13.5	9.90e-06	0	62	0	315621376	51	4841
2026-01-30 01:09:54.19	321.41	26.80	-40.2	-42.6	13.4	1.52e-05	0	62	0	318767104	51	4882
2026-01-30 01:09:55.20	321.11	26.84	-40.2	-42.6	13.4	1.60e-05	0	62	0	321912832	51	4892
2026-01-30 01:09:56.21	320.81	26.89	-40.1	-42.5	13.5	1.67e-05	0	62	0	325058560	51	4822
2026-01-30 01:09:57.22	320.50	26.93	-40.1	-42.5	13.5	1.06e-05	0	62	0	328204288	51	4822
2026-01-30 01:09:58.23	320.20	26.98	-40.0	-42.3	13.6	1.22e-05	0	62	0	331350016	51	4748
2026-01-30 01:09:59.24	319.90	27.02	-40.0	-42.3	13.7	9.10e-06	0	62	0	334495744	51	4721
2026-01-30 01:10:00.25	319.59	27.07	-39.9	-42.2	13.8	5.30e-06	0	62	0	337641472	51	4652
2026-01-30 01:10:01.26	319.28	27.11	-40.0	-42.3	13.7	1.50e-06	0	62	0	340787200	51	4718
2026-01-30 01:10:02.27	318.98	27.15	-40.0	-42.3	13.7	6.80e-06	0	62	0	343932928	51	4734
2026-01-30 01:10:03.28	318.67	27.19	-40.1	-42.5	13.5	9.90e-06	0	62	0	347078656	51	4844
2026-01-30 01:10:04.29	318.36	27.23	-40.1	-42.5	13.4	1.67e-05	0	62	0	350224384	51	4859
2026-01-30 01:10:05.30	318.05	27.27	-40.1	-42.5	13.5	1.22e-05	0	62	0	353370112	51	4832
2026-01-30 01:10:06.31	317.74	27.31	-40.1	-42.5	13.4	6.10e-06	0	62	0	356515840	51	4854
2026-01-30 01:10:07.32	317.43	27.34	-40.2	-42.6	13.3	2.21e-05	0	62	0	359661568	51	4890
2026-01-30 01:10:08.33	317.12	27.38	-40.2	-42.6	13.3	1.29e-05	0	62	0	362807296	51	4909
2026-01-30 01:10:09.34	316.81	27.42	-40.1	-42.5	13.4	1.98e-05	0	62	0	365953024	51	4869
2026-01-30 01:10:10.35	316.49	27.45	-40.2	-42.6	13.3	1.44e-05	0	62	0	369098752	51	4905
2026-01-30 01:10:11.35	316.18	27.48	-40.2	-42.6	13.3	1.98e-05	0	62	0	372244480	51	4920
2026-01-30 01:10:12.36	315.87	27.51	-40.2	-42.6	13.4	1.37e-05	0	62	0	375390208	51	4887
2026-01-30 01:10:13.37	315.55	27.55	-40.1	-42.5	13.4	1.22e-05	0	62	0	378535936	51	4823
2026-01-30 01:10:14.38	315.24	27.58	-40.1	-42.5	13.5	6.80e-06	0	62	0	381681664	51	4827
2026-01-30 01:10:15.39	314.92	27.61	-40.0	-42.4	13.5	9.10e-06	0	61	0	384827392	51	4787
2026-01-30 01:10:16.40	314.60	27.64	-40.1	-42.5	13.4	1.75e-05	0	62	0	387973120	51	4845
2026-01-30 01:10:17.41	314.29	27.66	-40.1	-42.5	13.4	1.29e-05	0	62	0	391118848	51	4853
2026-01-30 01:10:18.42	313.97	27.69	-40.0	-42.4	13.6	9.10e-06	0	62	0	394264576	51	4788
2026-01-30 01:10:19.43	313.65	27.72	-39.9	-42.2	13.7	6.10e-06	0	62	0	397410304	51	4698
2026-01-30 01:10:20.44	313.33	27.74	-39.8	-42.1	13.9	3.80e-06	0	62	0	401604608	51	4618
2026-01-30 01:10:21.46	313.01	27.77	-39.8	-42.1	13.9	3.00e-06	0	62	0	404750336	51	4600
2026-01-30 01:10:22.46	312.69	27.79	-39.9	-42.1	13.8	7.60e-06	0	62	0	406847488	51	4650
2026-01-30 01:10:23.48	312.37	27.81	-40.0	-42.3	13.7	6.10e-06	0	62	0	409993216	51	4714
2026-01-30 01:10:24.48	312.05	27.83	-39.9	-42.1	13.8	5.30e-06	0	62	0	413138944	51	4650
2026-01-30 01:10:25.50	311.73	27.85	-39.8	-42.0	13.9	2.20e-06	0	62	0	417333248	51	4591
2026-01-30 01:10:26.51	311.40	27.87	-39.9	-42.1	13.8	5.30e-06	0	62	0	420478976	51	4643
2026-01-30 01:10:27.52	311.08	27.89	-40.0	-42.4	13.6	6.80e-06	0	62	0	423624704	51	4771
2026-01-30 01:10:28.52	310.76	27.91	-40.1	-42.4	13.5	1.14e-05	0	62	0	426770432	51	4803
2026-01-30 01:10:29.53	310.44	27.92	-40.0	-42.4	13.5	1.29e-05	0	62	0	429916160	51	4781
2026-01-30 01:10:30.54	310.12	27.94	-40.1	-42.4	13.5	7.60e-06	0	62	0	433061888	51	4793
2026-01-30 01:10:31.55	309.79	27.95	-40.1	-42.4	13.5	9.90e-06	0	62	0	436207616	51	4799
2026-01-30 01:10:32.56	309.47	27.97	-40.0	-42.4	13.6	1.37e-05	0	62	0	439353344	51	4765
2026-01-30 01:10:33.57	309.15	27.98	-39.9	-42.2	13.7	9.10e-06	0	62	0	442499072	51	4688
2026-01-30 01:10:34.58	308.82	27.99	-39.9	-42.2	13.7	3.00e-06	0	62	0	445644800	51	4663
2026-01-30 01:10:35.59	308.50	28.00	-40.0	-42.4	13.5	8.30e-06	0	62	0	448790528	51	4785
2026-01-30 01:10:36.60	308.17	28.01	-40.1	-42.5	13.5	8.30e-06	0	62	0	451936256	51	4833
2026-01-30 01:10:37.61	307.85	28.02	-40.1	-42.5	13.5	1.37e-05	0	62	0	455081984	51	4818
2026-01-30 01:10:38.62	307.52	28.02	-40.0	-42.4	13.6	9.90e-06	0	62	0	458227712	51	4773
2026-01-30 01:10:39.63	307.20	28.03	-40.0	-42.3	13.7	5.30e-06	0	62	0	461373440	51	4724
2026-01-30 01:10:40.64	306.87	28.03	-40.0	-42.3	13.6	1.14e-05	0	62	0	464519168	51	4741
2026-01-30 01:10:41.65	306.55	28.04	-39.9	-42.1	13.8	7.60e-06	0	62	0	467664896	51	4648
2026-01-30 01:10:42.66	306.22	28.04	-40.0	-42.3	13.6	1.22e-05	0	61	0	470810624	51	4741
2026-01-30 01:10:43.67	305.90	28.04	-40.0	-42.4	13.6	4.50e-06	0	62	0	473956352	51	4762
2026-01-30 01:10:44.68	305.57	28.04	-39.9	-42.2	13.7	5.30e-06	0	62	0	477102080	51	4700
2026-01-30 01:10:45.69	305.24	28.04	-39.9	-42.2	13.8	5.30e-06	0	62	0	480247808	51	4660
2026-01-30 01:10:46.70	304.92	28.04	-39.9	-42.2	13.7	2.20e-06	0	62	0	483393536	51	4683
2026-01-30 01:10:47.71	304.59	28.04	-39.9	-42.1	13.8	2.20e-06	0	62	0	486539264	51	4645
2026-01-30 01:10:48.72	304.27	28.04	-39.8	-42.0	13.9	6.10e-06	0	62	0	489684992	51	4583
2026-01-30 01:10:49.73	303.94	28.03	-39.8	-42.0	13.9	1.50e-06	0	62	0	492830720	51	4591
2026-01-30 01:10:50.74	303.62	28.03	-39.8	-42.0	13.9	2.20e-06	0	62	0	495976448	51	4580
2026-01-30 01:10:51.75	303.29	28.02	-39.8	-42.1	13.9	3.80e-06	0	62	0	499122176	51	4605
2026-01-30 01:10:52.76	302.97	28.01	-39.8	-42.1	13.8	5.30e-06	0	62	0	502267904	51	4623
2026-01-30 01:10:53.77	302.64	28.01	-39.9	-42.2	13.7	1.22e-05	0	62	0	505413632	51	4704
2026-01-30 01:10:54.78	302.32	28.00	-40.0	-42.3	13.6	9.10e-06	0	62	0	508559360	51	4741
2026-01-30 01:10:55.78	302.00	27.99	-40.1	-42.4	13.5	6.80e-06	0	62	0	511705088	51	4804
2026-01-30 01:10:56.79	301.67	27.97	-40.0	-42.3	13.6	1.14e-05	0	62	0	514850816	51	4743
2026-01-30 01:10:57.81	301.34	27.96	-39.9	-42.3	13.7	3.00e-06	0	62	0	517996544	51	4713
2026-01-30 01:10:58.82	301.02	27.95	-39.9	-42.3	13.7	4.50e-06	0	62	0	521142272	51	4709
2026-01-30 01:10:59.83	300.70	27.93	-39.8	-42.1	13.8	4.50e-06	0	62	0	524288000	51	4605
2026-01-30 01:11:00.84	300.37	27.92	-39.7	-41.9	14.0	1.50e-06	0	62	0	527433728	51	4524
2026-01-30 01:11:01.85	300.05	27.90	-39.7	-42.0	14.0	2.20e-06	0	62	0	530579456	51	4553
2026-01-30 01:11:02.86	299.73	27.89	-39.8	-42.0	13.9	3.00e-06	0	62	0	533725184	51	4566
2026-01-30 01:11:03.86	299.41	27.87	-39.7	-41.9	14.0	0.00e+00	0	62	0	536870912	51	4526
2026-01-30 01:11:04.88	299.08	27.85	-39.7	-41.9	14.0	1.50e-06	0	62	0	540016640	51	4541
2026-01-30 01:11:05.88	298.76	27.83	-39.8	-42.1	13.8	4.50e-06	0	62	0	543162368	51	4629
2026-01-30 01:11:06.89	298.44	27.81	-39.9	-42.2	13.8	3.80e-06	0	62	0	546308096	51	4672
2026-01-30 01:11:07.91	298.12	27.78	-39.9	-42.2	13.6	7.60e-06	0	62	0	549453824	51	4699
2026-01-30 01:11:08.92	297.80	27.76	-40.0	-42.3	13.6	4.50e-06	0	61	0	552599552	51	4740
2026-01-30 01:11:09.92	297.48	27.74	-40.0	-42.4	13.5	9.90e-06	0	62	0	555745280	51	4798
2026-01-30 01:11:10.93	297.16	27.71	-40.1	-42.5	13.5	9.90e-06	0	62	0	558891008	51	4818
2026-01-30 01:11:11.94	296.84	27.68	-40.1	-42.4	13.5	9.90e-06	0	62	0	562036736	51	4808
2026-01-30 01:11:12.95	296.53	27.66	-40.1	-42.5	13.4	1.44e-05	0	62	0	565182464	51	4845
2026-01-30 01:11:13.96	296.21	27.63	-40.1	-42.5	13.4	1.44e-05	0	62	0	568328192	51	4851
2026-01-30 01:11:14.97	295.89	27.60	-40.1	-42.5	13.5	1.22e-05	0	62	0	571473920	51	4818
2026-01-30 01:11:15.98	295.57	27.57	-40.1	-42.5	13.4	9.90e-06	0	62	0	574619648	51	4829
2026-01-30 01:11:16.99	295.26	27.54	-40.1	-42.5	13.4	1.67e-05	0	62	0	577765376	51	4826
2026-01-30 01:11:18.00	294.94	27.51	-40.1	-42.5	13.4	1.37e-05	0	62	0	580911104	51	4832
2026-01-30 01:11:19.01	294.63	27.47	-40.1	-42.5	13.4	1.37e-05	0	62	0	584056832	51	4863
2026-01-30 01:11:20.02	294.31	27.44	-40.0	-42.4	13.5	1.67e-05	0	62	0	587202560	51	4781
2026-01-30 01:11:21.03	294.00	27.41	-40.0	-42.3	13.6	6.10e-06	0	62	0	590348288	51	4742
2026-01-30 01:11:22.04	293.69	27.37	-40.0	-42.3	13.6	6.10e-06	0	62	0	593494016	51	4747
2026-01-30 01:11:23.06	293.37	27.33	-40.1	-42.4	13.5	9.10e-06	0	62	0	596639744	51	4807
2026-01-30 01:11:24.07	293.06	27.30	-40.1	-42.5	13.4	1.37e-05	0	61	0	599785472	51	4840
2026-01-30 01:11:25.08	292.75	27.26	-40.0	-42.4	13.5	7.60e-06	0	62	0	602931200	51	4795
2026-01-30 01:11:26.08	292.44	27.22	-40.0	-42.3	13.6	6.10e-06	0	62	0	606076928	51	4753
2026-01-30 01:11:27.09	292.13	27.18	-40.1	-42.4	13.5	1.14e-05	0	62	0	609222656	51	4811
2026-01-30 01:11:28.10	291.83	27.14	-40.1	-42.5	13.4	1.22e-05	0	62	0	612368384	51	4863
2026-01-30 01:11:29.11	291.52	27.10	-40.3	-42.7	13.1	2.67e-05	0	62	0	615514112	51	4977
2026-01-30 01:11:30.12	291.21	27.05	-40.3	-42.8	13.2	3.12e-05	0	62	0	618659840	51	4986
2026-01-30 01:11:31.13	290.91	27.01	-40.3	-42.8	13.1	3.20e-05	0	62	0	621805568	51	5002
2026-01-30 01:11:32.14	290.60	26.97	-40.3	-42.7	13.2	2.82e-05	0	62	0	624951296	51	4980
2026-01-30 01:11:33.15	290.30	26.92	-40.3	-42.7	13.1	2.82e-05	0	62	0	628097024	51	4978
2026-01-30 01:11:34.16	289.99	26.88	-40.2	-42.6	13.3	2.28e-05	0	62	0	631242752	51	4919
2026-01-30 01:11:35.17	289.69	26.83	-40.1	-42.5	13.4	2.28e-05	0	62	0	634388480	51	4859
2026-01-30 01:11:36.18	289.39	26.78	-40.0	-42.4	13.5	9.10e-06	0	62	0	637534208	51	4774
2026-01-30 01:11:37.19	289.09	26.73	-40.1	-42.5	13.4	1.06e-05	0	62	0	640679936	51	4820
2026-01-30 01:11:38.20	288.79	26.69	-40.1	-42.5	13.4	1.83e-05	0	62	0	643825664	51	4853
2026-01-30 01:11:39.21	288.49	26.64	-40.1	-42.5	13.4	9.90e-06	0	62	0	646971392	51	4842
2026-01-30 01:11:40.22	288.19	26.59	-40.1	-42.5	13.4	1.60e-05	0	62	0	650117120	51	4846
2026-01-30 01:11:41.23	287.90	26.53	-40.2	-42.6	13.3	2.44e-05	0	62	0	653262848	51	4897
2026-01-30 01:11:42.24	287.60	26.48	-40.1	-42.6	13.3	1.83e-05	0	62	0	656408576	51	4872
2026-01-30 01:11:43.25	287.30	26.43	-40.1	-42.5	13.4	1.67e-05	0	62	0	659554304	51	4832
2026-01-30 01:11:44.26	287.01	26.38	-40.1	-42.5	13.3	1.60e-05	0	62	0	662700032	51	4853
2026-01-30 01:11:45.27	286.72	26.32	-40.2	-42.6	13.2	1.90e-05	0	62	0	665845760	51	4910
2026-01-30 01:11:46.28	286.43	26.27	-40.3	-42.8	13.1	1.90e-05	0	62	0	668991488	51	4993
2026-01-30 01:11:47.29	286.13	26.21	-40.2	-42.7	13.1	2.21e-05	0	62	0	672137216	51	4976
2026-01-30 01:11:48.30	285.84	26.16	-40.2	-42.6	13.3	2.05e-05	0	62	0	675282944	51	4894
2026-01-30 01:11:49.31	285.56	26.10	-40.1	-42.6	13.3	2.44e-05	0	62	0	678428672	51	4888
2026-01-30 01:11:50.32	285.27	26.04	-40.2	-42.6	13.2	1.75e-05	0	62	0	681574400	51	4922
2026-01-30 01:11:51.33	284.98	25.98	-40.1	-42.5	13.3	1.60e-05	0	62	0	684720128	51	4840
2026-01-30 01:11:52.34	284.70	25.92	-40.0	-42.4	13.5	1.52e-05	0	62	0	687865856	51	4788
2026-01-30 01:11:53.35	284.41	25.86	-40.0	-42.3	13.5	8.30e-06	0	62	0	691011584	51	4749
2026-01-30 01:11:54.36	284.13	25.80	-40.0	-42.4	13.5	9.90e-06	0	62	0	694157312	51	4775
2026-01-30 01:11:55.36	283.85	25.74	-40.1	-42.5	13.4	1.44e-05	0	62	0	697303040	51	4820
2026-01-30 01:11:56.37	283.57	25.68	-40.0	-42.4	13.4	7.60e-06	0	62	0	700448768	51	4796
2026-01-30 01:11:57.38	283.29	25.62	-40.0	-42.4	13.5	1.14e-05	0	62	0	703594496	51	4773
2026-01-30 01:11:58.39	283.01	25.56	-39.9	-42.2	13.6	9.10e-06	0	62	0	706740224	51	4704
2026-01-30 01:11:59.40	282.73	25.49	-39.9	-42.1	13.7	3.00e-06	0	62	0	709885952	51	4649
2026-01-30 01:12:00.41	282.45	25.43	-39.8	-42.0	13.8	6.80e-06	0	62	0	713031680	51	4585
2026-01-30 01:12:01.42	282.17	25.37	-39.7	-41.9	13.9	3.80e-06	0	62	0	716177408	51	4541
2026-01-30 01:12:02.43	281.90	25.30	-39.8	-42.1	13.7	3.80e-06	0	62	0	719323136	51	4637
2026-01-30 01:12:03.44	281.63	25.23	-39.9	-42.3	13.6	6.10e-06	0	62	0	723517440	51	4713
2026-01-30 01:12:04.45	281.35	25.17	-40.0	-42.3	13.5	9.90e-06	0	62	0	725614592	51	4737
2026-01-30 01:12:05.46	281.08	25.10	-39.9	-42.2	13.6	7.60e-06	0	62	0	728760320	51	4685
2026-01-30 01:12:06.47	280.81	25.03	-39.8	-42.1	13.8	5.30e-06	0	62	0	731906048	51	4609
2026-01-30 01:12:07.48	280.54	24.97	-39.7	-42.0	13.8	8.30e-06	0	62	0	735051776	51	4571
2026-01-30 01:12:08.49	280.27	24.90	-39.6	-41.8	14.0	3.80e-06	0	62	0	739246080	51	4491
2026-01-30 01:12:09.50	280.01	24.83	-39.7	-42.0	13.9	3.00e-06	0	62	0	742391808	51	4551
2026-01-30 01:12:10.51	279.74	24.76	-39.7	-41.9	13.9	4.50e-06	0	62	0	745537536	51	4536
2026-01-30 01:12:11.52	279.48	24.69	-39.7	-42.0	13.9	4.50e-06	0	62	0	747634688	51	4563
2026-01-30 01:12:12.53	279.21	24.62	-39.8	-42.2	13.7	1.06e-05	0	62	0	750780416	51	4655
2026-01-30 01:12:13.54	278.95	24.55	-40.0	-42.4	13.5	1.60e-05	0	62	0	754974720	51	4769
2026-01-30 01:12:14.55	278.69	24.48	-40.1	-42.6	13.3	2.28e-05	0	62	0	758120448	51	4893
2026-01-30 01:12:15.56	278.43	24.41	-40.1	-42.6	13.2	2.05e-05	0	62	0	761266176	51	4901
2026-01-30 01:12:16.57	278.17	24.34	-40.0	-42.4	13.4	1.44e-05	0	62	0	764411904	51	4800
2026-01-30 01:12:17.58	277.92	24.26	-39.9	-42.2	13.6	4.50e-06	0	62	0	767557632	51	4672
2026-01-30 01:12:18.59	277.66	24.19	-39.7	-42.0	13.9	5.30e-06	0	62	0	770703360	51	4559
2026-01-30 01:12:19.60	277.41	24.12	-39.7	-42.0	13.9	5.30e-06	0	62	0	773849088	51	4558
2026-01-30 01:12:20.61	277.15	24.04	-39.7	-42.0	13.8	5.30e-06	0	62	0	776994816	51	4567
2026-01-30 01:12:21.62	276.90	23.97	-39.6	-41.8	14.0	3.00e-06	0	62	0	780140544	51	4485
2026-01-30 01:12:22.63	276.65	23.89	-39.6	-41.9	14.0	2.20e-06	0	62	0	783286272	51	4499
2026-01-30 01:12:23.64	276.40	23.82	-39.8	-42.0	13.8	2.20e-06	0	62	0	786432000	51	4579
2026-01-30 01:12:24.65	276.15	23.74	-39.9	-42.2	13.6	3.80e-06	0	62	0	789577728	51	4683
2026-01-30 01:12:25.66	275.90	23.67	-39.9	-42.3	13.6	9.10e-06	0	62	0	792723456	51	4706
2026-01-30 01:12:26.67	275.65	23.59	-40.0	-42.4	13.4	1.14e-05	0	62	0	795869184	51	4786
2026-01-30 01:12:27.68	275.41	23.52	-40.1	-42.5	13.3	1.60e-05	0	62	0	799014912	51	4845
2026-01-30 01:12:28.69	275.16	23.44	-40.1	-42.5	13.3	1.22e-05	0	62	0	802160640	51	4830
2026-01-30 01:12:29.70	274.92	23.36	-40.0	-42.4	13.4	1.60e-05	0	62	0	805306368	51	4802
2026-01-30 01:12:30.71	274.68	23.29	-39.9	-42.2	13.6	6.80e-06	0	62	0	808452096	51	4681
2026-01-30 01:12:31.72	274.44	23.21	-39.8	-42.1	13.7	7.60e-06	0	62	0	811597824	51	4634
2026-01-30 01:12:32.73	274.20	23.13	-39.7	-42.0	13.8	6.10e-06	0	62	0	814743552	51	4575
2026-01-30 01:12:33.74	273.96	23.05	-39.7	-42.0	13.7	4.50e-06	0	62	0	817889280	51	4588
2026-01-30 01:12:34.75	273.72	22.97	-39.7	-42.0	13.8	6.80e-06	0	62	0	821035008	51	4580
2026-01-30 01:12:35.76	273.49	22.89	-39.7	-41.9	13.9	2.20e-06	0	62	0	824180736	51	4515
2026-01-30 01:12:36.77	273.25	22.82	-39.6	-41.8	14.0	1.50e-06	0	62	0	827326464	51	4449
2026-01-30 01:12:37.78	273.02	22.74	-39.5	-41.7	14.1	7.00e-07	0	62	0	830472192	51	4427
2026-01-30 01:12:38.79	272.79	22.66	-39.5	-41.7	14.1	0.00e+00	0	62	0	833617920	51	4438
2026-01-30 01:12:39.80	272.56	22.58	-39.5	-41.7	14.1	1.50e-06	0	62	0	836763648	51	4433
2026-01-30 01:12:40.81	272.33	22.50	-39.6	-41.8	14.0	2.20e-06	0	62	0	839909376	51	4490
2026-01-30 01:12:41.82	272.10	22.42	-39.7	-42.0	13.8	3.00e-06	0	62	0	843055104	51	4567
2026-01-30 01:12:42.83	271.87	22.34	-39.9	-42.2	13.5	1.06e-05	0	62	0	846200832	51	4700
2026-01-30 01:12:43.84	271.64	22.26	-40.1	-42.5	13.3	1.75e-05	0	62	0	849346560	51	4843
2026-01-30 01:12:44.85	271.42	22.17	-40.2	-42.8	13.0	2.36e-05	0	62	0	852492288	51	5006
2026-01-30 01:12:45.85	271.20	22.09	-40.3	-42.9	12.9	5.87e-05	0	62	0	855638016	51	5058
2026-01-30 01:12:46.86	270.98	22.01	-40.3	-42.8	12.9	5.18e-05	0	62	0	858783744	51	5041
2026-01-30 01:12:47.88	270.75	21.93	-40.2	-42.8	13.0	4.95e-05	0	62	0	861929472	51	5001
2026-01-30 01:12:48.89	270.53	21.85	-40.1	-42.6	13.2	2.13e-05	0	62	0	865075200	51	4882
2026-01-30 01:12:49.90	270.31	21.77	-40.0	-42.4	13.3	1.98e-05	0	62	0	868220928	51	4814
2026-01-30 01:12:50.90	270.10	21.68	-40.0	-42.3	13.4	1.60e-05	0	62	0	871366656	51	4759
2026-01-30 01:12:51.91	269.88	21.60	-39.8	-42.1	13.7	1.22e-05	0	62	0	874512384	51	4615
2026-01-30 01:12:52.92	269.66	21.52	-39.7	-42.0	13.8	4.50e-06	0	62	0	877658112	51	4569
2026-01-30 01:12:53.94	269.45	21.44	-39.7	-42.0	13.7	7.60e-06	0	62	0	880803840	51	4589
2026-01-30 01:12:54.94	269.24	21.35	-39.9	-42.2	13.5	8.30e-06	0	62	0	883949568	51	4701
2026-01-30 01:12:55.96	269.02	21.27	-40.0	-42.4	13.3	2.28e-05	0	62	0	887095296	51	4813
2026-01-30 01:12:56.97	268.81	21.19	-40.1	-42.6	13.1	2.67e-05	0	62	0	890241024	51	4925
2026-01-30 01:12:57.98	268.60	21.10	-40.2	-42.7	13.1	3.43e-05	0	62	0	893386752	51	4935
2026-01-30 01:12:58.99	268.39	21.02	-40.1	-42.7	13.1	3.66e-05	0	62	0	896532480	51	4937
2026-01-30 01:13:00.00	268.18	20.94	-40.1	-42.6	13.1	3.50e-05	0	62	0	899678208	51	4918
2026-01-30 01:13:01.01	267.98	20.85	-40.1	-42.6	13.2	2.67e-05	0	62	0	902823936	51	4894
2026-01-30 01:13:02.02	267.77	20.77	-40.1	-42.6	13.1	1.83e-05	0	62	0	905969664	51	4909
2026-01-30 01:13:03.03	267.57	20.69	-40.2	-42.7	13.0	3.12e-05	0	62	0	909115392	51	4958
2026-01-30 01:13:04.04	267.36	20.60	-40.3	-42.9	12.9	4.73e-05	0	62	0	912261120	51	5046
2026-01-30 01:13:05.04	267.16	20.52	-40.4	-43.0	12.7	7.17e-05	0	62	0	915406848	51	5150
2026-01-30 01:13:06.06	266.96	20.43	-40.4	-43.1	12.6	1.05e-04	0	62	0	918552576	51	5197
2026-01-30 01:13:07.06	266.76	20.35	-40.5	-43.2	12.5	1.05e-04	0	62	0	921698304	51	5262
2026-01-30 01:13:08.07	266.56	20.27	-40.5	-43.2	12.5	1.32e-04	0	62	0	924844032	51	5266
2026-01-30 01:13:09.08	266.37	20.18	-40.4	-43.1	12.6	9.61e-05	0	62	0	927989760	51	5186
2026-01-30 01:13:10.09	266.17	20.10	-40.2	-42.8	12.9	5.41e-05	0	62	0	931135488	51	5007
2026-01-30 01:13:11.10	265.97	20.01	-40.1	-42.6	13.1	3.35e-05	0	62	0	934281216	51	4914
2026-01-30 01:13:12.11	265.78	19.93	-40.0	-42.5	13.3	2.36e-05	0	62	0	937426944	51	4825
2026-01-30 01:13:13.12	265.59	19.84	-40.0	-42.4	13.3	1.52e-05	0	62	0	940572672	51	4804
2026-01-30 01:13:14.14	265.39	19.76	-39.9	-42.3	13.5	9.90e-06	0	62	0	943718400	51	4707
2026-01-30 01:13:15.14	265.20	19.67	-40.0	-42.4	13.4	1.14e-05	0	62	0	946864128	51	4770
2026-01-30 01:13:16.15	265.01	19.59	-40.0	-42.4	13.3	1.52e-05	0	62	0	950009856	51	4767
2026-01-30 01:13:17.16	264.82	19.50	-40.0	-42.5	13.2	1.90e-05	0	62	0	953155584	51	4835
2026-01-30 01:13:18.17	264.63	19.42	-40.1	-42.7	13.0	3.50e-05	0	62	0	956301312	51	4937
2026-01-30 01:13:19.18	264.45	19.33	-40.3	-42.9	12.8	4.95e-05	0	62	0	959447040	51	5073
2026-01-30 01:13:20.18	264.26	19.25	-40.4	-43.0	12.7	8.16e-05	0	62	0	962592768	51	5137
2026-01-30 01:13:21.20	264.08	19.16	-40.5	-43.1	12.5	1.08e-04	0	62	0	965738496	51	5210
2026-01-30 01:13:22.21	263.89	19.08	-40.5	-43.1	12.5	1.01e-04	0	62	0	968884224	51	5208
2026-01-30 01:13:23.22	263.71	18.99	-40.4	-43.1	12.5	1.30e-04	0	62	0	972029952	51	5209
2026-01-30 01:13:24.23	263.53	18.91	-40.5	-43.2	12.5	1.53e-04	0	62	0	975175680	51	5236
2026-01-30 01:13:25.24	263.35	18.82	-40.6	-43.4	12.3	1.72e-04	0	62	0	978321408	51	5360
2026-01-30 01:13:26.25	263.17	18.74	-40.7	-43.5	12.2	2.37e-04	0	62	0	981467136	51	5431
2026-01-30 01:13:27.26	262.99	18.65	-40.7	-43.5	12.1	2.37e-04	0	62	0	984612864	51	5445
2026-01-30 01:13:28.27	262.81	18.57	-40.7	-43.5	12.1	2.78e-04	0	62	0	987758592	51	5437
2026-01-30 01:13:29.28	262.63	18.48	-40.7	-43.5	12.1	2.18e-04	0	62	0	990904320	51	5452
2026-01-30 01:13:30.29	262.46	18.40	-40.7	-43.5	12.0	3.10e-04	0	62	0	994050048	52	5149
2026-01-30 01:13:31.30	262.28	18.31	-40.5	-43.3	12.2	2.47e-04	0	62	0	997195776	52	5038
2026-01-30 01:13:32.31	262.11	18.23	-40.4	-43.1	12.5	1.27e-04	0	62	0	1000341504	52	4895
2026-01-30 01:13:33.32	261.94	18.14	-40.3	-43.0	12.6	1.07e-04	0	62	0	1003487232	52	4838
2026-01-30 01:13:34.33	261.76	18.06	-40.2	-42.9	12.7	8.46e-05	0	62	0	1006632960	52	4780
2026-01-30 01:13:35.34	261.59	17.97	-40.2	-42.8	12.8	7.01e-05	0	62	0	1009778688	52	4730
2026-01-30 01:13:36.35	261.42	17.89	-40.1	-42.7	12.9	5.64e-05	0	62	0	1012924416	52	4670
2026-01-30 01:13:37.36	261.26	17.80	-40.2	-42.8	12.8	6.48e-05	0	62	0	1016070144	52	4731
2026-01-30 01:13:38.37	261.09	17.72	-40.2	-42.8	12.8	4.80e-05	0	62	0	1019215872	52	4733
2026-01-30 01:13:39.38	260.92	17.63	-40.3	-43.0	12.6	7.24e-05	0	62	0	1022361600	52	4821
2026-01-30 01:13:40.39	260.75	17.55	-40.3	-42.9	12.7	8.69e-05	0	62	0	1025507328	52	4787
2026-01-30 01:13:41.40	260.59	17.46	-40.2	-42.9	12.7	9.23e-05	0	62	0	1028653056	52	4762
2026-01-30 01:13:42.41	260.42	17.38	-40.2	-42.8	12.7	7.40e-05	0	62	0	1031798784	52	4749
2026-01-30 01:13:43.42	260.26	17.30	-40.2	-42.8	12.8	6.17e-05	0	62	0	1034944512	52	4721
2026-01-30 01:13:44.43	260.10	17.21	-40.2	-42.8	12.8	5.64e-05	0	62	0	1038090240	52	4711
2026-01-30 01:13:45.44	259.94	17.13	-40.2	-42.8	12.7	7.47e-05	0	62	0	1041235968	52	4732
2026-01-30 01:13:46.45	259.78	17.04	-40.2	-42.8	12.7	8.31e-05	0	62	0	1044381696	52	4732
2026-01-30 01:13:47.46	259.62	16.96	-40.2	-42.8	12.7	9.38e-05	0	62	0	1047527424	52	4713
2026-01-30 01:13:48.47	259.46	16.87	-40.2	-42.8	12.7	6.17e-05	0	62	0	1050673152	52	4725
2026-01-30 01:13:49.47	259.30	16.79	-40.0	-42.5	13.0	4.27e-05	0	62	0	1053818880	52	4574
2026-01-30 01:13:50.48	259.14	16.71	-40.0	-42.5	13.1	2.51e-05	0	62	0	1056964608	51	4834
2026-01-30 01:13:51.49	258.99	16.62	-40.0	-42.5	13.1	2.82e-05	0	62	0	1061158912	51	4835
2026-01-30 01:13:52.50	258.83	16.54	-40.1	-42.6	13.0	4.27e-05	0	62	0	1063256064	51	4905
2026-01-30 01:13:53.51	258.68	16.45	-40.2	-42.7	12.8	4.88e-05	0	62	0	1066401792	51	4979
2026-01-30 01:13:54.52	258.53	16.37	-40.3	-42.9	12.6	8.46e-05	0	62	0	1069547520	51	5089
2026-01-30 01:13:55.53	258.37	16.29	-40.4	-43.1	12.5	1.04e-04	0	62	0	1072693248	51	5170
2026-01-30 01:13:56.54	258.22	16.20	-40.5	-43.2	12.3	1.50e-04	0	62	0	1076887552	51	5277
2026-01-30 01:13:57.55	258.07	16.12	-40.5	-43.3	12.3	1.89e-04	0	62	0	1080033280	51	5318
2026-01-30 01:13:58.56	257.92	16.04	-40.5	-43.3	12.3	2.12e-04	0	62	0	1083179008	51	5301
2026-01-30 01:13:59.57	257.77	15.95	-40.4	-43.2	12.4	1.47e-04	0	62	0	1086324736	51	5236
2026-01-30 01:14:00.58	257.62	15.87	-40.3	-43.0	12.6	1.06e-04	0	62	0	1088421888	51	5118
2026-01-30 01:14:01.59	257.47	15.78	-40.3	-42.9	12.6	9.15e-05	0	62	0	1092616192	51	5074
2026-01-30 01:14:02.60	257.33	15.70	-40.2	-42.8	12.7	6.56e-05	0	62	0	1095761920	51	5014
2026-01-30 01:14:03.62	257.18	15.62	-40.2	-42.7	12.8	6.63e-05	0	62	0	1098907648	51	4972
2026-01-30 01:14:04.62	257.04	15.54	-40.2	-42.8	12.8	7.01e-05	0	62	0	1102053376	51	4990
2026-01-30 01:14:05.63	256.89	15.45	-40.2	-42.8	12.7	8.08e-05	0	62	0	1105199104	51	5033
2026-01-30 01:14:06.64	256.75	15.37	-40.2	-42.8	12.8	7.17e-05	0	62	0	1108344832	51	5016
2026-01-30 01:14:07.65	256.61	15.29	-40.3	-43.0	12.6	9.23e-05	0	62	0	1111490560	51	5107
2026-01-30 01:14:08.66	256.46	15.20	-40.4	-43.2	12.3	1.46e-04	0	62	0	1114636288	51	5237
2026-01-30 01:14:09.67	256.32	15.12	-40.5	-43.2	12.3	1.90e-04	0	62	0	1117782016	51	5271
2026-01-30 01:14:10.68	256.18	15.04	-40.5	-43.3	12.2	2.48e-04	0	62	0	1120927744	51	5336
2026-01-30 01:14:11.69	256.04	14.96	-40.6	-43.4	12.0	2.71e-04	0	62	0	1124073472	51	5395
2026-01-30 01:14:12.70	255.91	14.88	-40.5	-43.4	12.1	2.65e-04	0	62	0	1127219200	51	5357
2026-01-30 01:14:13.71	255.77	14.79	-40.6	-43.4	12.1	2.96e-04	0	62	0	1130364928	51	5380
2026-01-30 01:14:14.72	255.63	14.71	-40.5	-43.3	12.2	1.97e-04	0	62	0	1133510656	51	5303
2026-01-30 01:14:15.73	255.49	14.63	-40.4	-43.1	12.4	1.82e-04	0	62	0	1136656384	51	5216
2026-01-30 01:14:16.74	255.36	14.55	-40.3	-43.0	12.5	1.06e-04	0	62	0	1139802112	51	5131
2026-01-30 01:14:17.75	255.22	14.47	-40.2	-42.8	12.7	9.38e-05	0	62	0	1142947840	51	5032
2026-01-30 01:14:18.76	255.09	14.38	-40.3	-42.9	12.6	8.85e-05	0	62	0	1146093568	51	5066
2026-01-30 01:14:19.77	254.96	14.30	-40.3	-43.0	12.5	1.30e-04	0	62	0	1149239296	51	5109
2026-01-30 01:14:20.78	254.82	14.22	-40.4	-43.1	12.4	1.29e-04	0	62	0	1152385024	51	5215
2026-01-30 01:14:21.79	254.69	14.14	-40.5	-43.3	12.2	1.90e-04	0	62	0	1155530752	51	5302
2026-01-30 01:14:22.80	254.56	14.06	-40.6	-43.5	12.0	2.75e-04	0	62	0	1158676480	51	5424
2026-01-30 01:14:23.81	254.43	13.98	-40.7	-43.6	11.9	4.23e-04	0	62	0	1161822208	51	5511
2026-01-30 01:14:24.82	254.30	13.90	-40.8	-43.8	11.6	6.78e-04	0	62	0	1164967936	52	5308
2026-01-30 01:14:25.83	254.17	13.82	-40.8	-43.9	11.5	8.25e-04	0	62	0	1168113664	52	5343
2026-01-30 01:14:26.84	254.04	13.74	-40.8	-43.9	11.5	9.93e-04	0	62	0	1171259392	52	5367
2026-01-30 01:14:27.85	253.91	13.66	-40.8	-43.8	11.5	7.88e-04	0	62	0	1174405120	52	5338
2026-01-30 01:14:28.86	253.79	13.58	-40.7	-43.8	11.6	7.87e-04	0	62	0	1177550848	52	5291
2026-01-30 01:14:29.87	253.66	13.50	-40.7	-43.7	11.7	5.56e-04	0	62	0	1180696576	52	5227
2026-01-30 01:14:30.88	253.54	13.42	-40.7	-43.7	11.7	4.90e-04	0	62	0	1183842304	52	5237
2026-01-30 01:14:31.89	253.41	13.34	-40.6	-43.5	11.9	4.26e-04	0	62	0	1186988032	52	5115
2026-01-30 01:14:32.90	253.29	13.26	-40.6	-43.5	11.9	3.65e-04	0	62	0	1190133760	52	5121
2026-01-30 01:14:33.91	253.16	13.18	-40.5	-43.3	12.0	3.12e-04	0	62	0	1193279488	52	5031
2026-01-30 01:14:34.92	253.04	13.10	-40.4	-43.2	12.2	2.72e-04	0	62	0	1196425216	52	4953
2026-01-30 01:14:35.94	252.92	13.02	-40.4	-43.2	12.2	1.94e-04	0	62	0	1199570944	52	4953
2026-01-30 01:14:36.95	252.80	12.94	-40.5	-43.3	12.1	2.88e-04	0	62	0	1202716672	52	5030
2026-01-30 01:14:37.96	252.67	12.86	-40.5	-43.4	12.0	3.66e-04	0	62	0	1205862400	52	5042
2026-01-30 01:14:38.96	252.56	12.78	-40.5	-43.5	11.9	3.97e-04	0	62	0	1209008128	52	5101
2026-01-30 01:14:39.97	252.44	12.70	-40.6	-43.6	11.8	4.73e-04	0	62	0	1212153856	52	5176
2026-01-30 01:14:40.98	252.32	12.62	-40.6	-43.7	11.6	6.23e-04	0	62	0	1215299584	52	5232
2026-01-30 01:14:41.99	252.20	12.54	-40.7	-43.8	11.6	7.38e-04	0	62	0	1218445312	52	5297
2026-01-30 01:14:43.00	252.08	12.47	-40.8	-43.9	11.5	8.68e-04	0	62	0	1221591040	52	5344
2026-01-30 01:14:44.01	251.96	12.39	-40.7	-43.8	11.5	8.64e-04	0	62	0	1224736768	52	5321
2026-01-30 01:14:45.02	251.85	12.31	-40.7	-43.7	11.6	7.23e-04	0	62	0	1227882496	52	5264
2026-01-30 01:14:46.03	251.73	12.23	-40.7	-43.7	11.6	6.91e-04	0	62	0	1231028224	52	5269
2026-01-30 01:14:47.04	251.62	12.15	-40.6	-43.7	11.6	6.83e-04	0	62	0	1234173952	52	5228
2026-01-30 01:14:48.05	251.50	12.07	-40.5	-43.5	11.8	5.37e-04	0	62	0	1237319680	52	5108
2026-01-30 01:14:49.06	251.39	12.00	-40.4	-43.2	12.1	3.78e-04	0	62	0	1240465408	52	4965
2026-01-30 01:14:50.08	251.27	11.92	-40.3	-43.1	12.2	2.55e-04	0	62	0	1243611136	52	4924
2026-01-30 01:14:51.09	251.16	11.84	-40.2	-43.0	12.3	1.70e-04	0	62	0	1246756864	52	4839
2026-01-30 01:14:52.10	251.05	11.76	-40.3	-43.0	12.3	1.80e-04	0	62	0	1249902592	52	4845
2026-01-30 01:14:53.11	250.94	11.69	-40.2	-42.9	12.4	1.43e-04	0	62	0	1253048320	52	4800
2026-01-30 01:14:54.12	250.83	11.61	-40.2	-42.9	12.4	1.36e-04	0	62	0	1256194048	52	4777
2026-01-30 01:14:55.13	250.72	11.53	-40.2	-42.9	12.4	1.74e-04	0	62	0	1259339776	52	4801
2026-01-30 01:14:56.14	250.61	11.46	-40.2	-43.0	12.3	1.83e-04	0	62	0	1262485504	52	4826
2026-01-30 01:14:57.15	250.50	11.38	-40.3	-43.1	12.2	2.26e-04	0	62	0	1265631232	52	4907
2026-01-30 01:14:58.16	250.39	11.30	-40.4	-43.2	12.1	2.62e-04	0	62	0	1268776960	52	4962
2026-01-30 01:14:59.17	250.28	11.23	-40.5	-43.4	11.8	4.71e-04	0	62	0	1271922688	52	5094
2026-01-30 01:15:00.18	250.18	11.15	-40.6	-43.6	11.7	6.14e-04	0	62	0	1275068416	52	5177
2026-01-30 01:15:01.18	250.07	11.08	-40.7	-43.8	11.4	7.95e-04	0	62	0	1278214144	52	5326
2026-01-30 01:15:02.20	249.96	11.00	-40.8	-43.9	11.3	1.06e-03	0	62	0	1281359872	52	5379
2026-01-30 01:15:03.20	249.86	10.92	-40.9	-44.1	11.1	1.42e-03	0	62	0	1284505600	52	5499
2026-01-30 01:15:04.21	249.75	10.85	-40.9	-44.1	11.1	1.44e-03	0	62	0	1287651328	52	5513
2026-01-30 01:15:05.22	249.65	10.77	-40.9	-44.1	11.1	1.50e-03	0	62	0	1290797056	52	5518
2026-01-30 01:15:06.23	249.54	10.70	-40.9	-44.1	11.1	1.52e-03	0	62	0	1293942784	52	5503
2026-01-30 01:15:07.24	249.44	10.62	-40.8	-44.0	11.2	1.34e-03	0	62	0	1297088512	52	5443
2026-01-30 01:15:08.25	249.34	10.55	-40.8	-43.9	11.3	1.34e-03	0	62	0	1300234240	52	5385
2026-01-30 01:15:09.26	249.24	10.47	-40.8	-44.0	11.2	1.23e-03	0	62	0	1303379968	52	5407
2026-01-30 01:15:10.27	249.13	10.40	-40.7	-43.7	11.4	9.35e-04	0	62	0	1306525696	52	5273
2026-01-30 01:15:11.28	249.03	10.32	-40.7	-43.7	11.5	9.34e-04	0	62	0	1309671424	52	5252
2026-01-30 01:15:12.29	248.93	10.25	-40.6	-43.7	11.5	9.09e-04	0	62	0	1312817152	52	5258
2026-01-30 01:15:13.30	248.83	10.17	-40.6	-43.6	11.6	7.44e-04	0	62	0	1315962880	52	5196
2026-01-30 01:15:14.31	248.73	10.10	-40.6	-43.7	11.5	9.07e-04	0	62	0	1319108608	52	5265
2026-01-30 01:15:15.32	248.63	10.03	-40.6	-43.6	11.6	7.00e-04	0	62	0	1322254336	52	5188
2026-01-30 01:15:16.33	248.53	9.95	-40.6	-43.6	11.5	7.03e-04	0	62	0	1325400064	52	5212
2026-01-30 01:15:17.34	248.44	9.88	-40.7	-43.8	11.4	8.49e-04	0	62	0	1328545792	52	5295
2026-01-30 01:15:18.35	248.34	9.80	-40.7	-43.8	11.4	9.25e-04	0	62	0	1331691520	52	5297
2026-01-30 01:15:19.36	248.24	9.73	-40.7	-43.9	11.2	1.15e-03	0	62	0	1334837248	52	5391
2026-01-30 01:15:20.37	248.14	9.66	-40.7	-43.9	11.2	1.45e-03	0	62	0	1337982976	52	5385
2026-01-30 01:15:21.38	248.05	9.58	-40.7	-43.9	11.2	1.53e-03	0	62	0	1341128704	52	5389
2026-01-30 01:15:22.40	247.95	9.51	-40.9	-44.2	11.0	1.91e-03	0	62	0	1344274432	52	5540
2026-01-30 01:15:23.41	247.86	9.44	-40.8	-44.1	11.0	1.78e-03	0	62	0	1347420160	52	5522
2026-01-30 01:15:24.42	247.76	9.36	-40.9	-44.2	10.9	2.24e-03	0	62	0	1350565888	52	5545
2026-01-30 01:15:25.42	247.67	9.29	-40.9	-44.4	10.7	2.73e-03	0	62	0	1353711616	52	5662
2026-01-30 01:15:26.43	247.57	9.22	-41.0	-44.4	10.7	2.73e-03	0	62	0	1356857344	52	5663
2026-01-30 01:15:27.44	247.48	9.15	-41.0	-44.4	10.7	2.86e-03	0	62	0	1360003072	52	5688
2026-01-30 01:15:28.45	247.39	9.07	-41.1	-44.6	10.5	3.69e-03	0	62	0	1363148800	52	5805
2026-01-30 01:15:29.46	247.29	9.00	-41.0	-44.4	10.6	3.58e-03	0	62	0	1366294528	52	5708
2026-01-30 01:15:30.47	247.20	8.93	-41.0	-44.4	10.6	3.02e-03	0	62	0	1369440256	52	5717
2026-01-30 01:15:31.48	247.11	8.86	-41.0	-44.5	10.5	4.22e-03	0	62	0	1372585984	52	5772
2026-01-30 01:15:32.50	247.02	8.79	-41.0	-44.5	10.6	3.37e-03	0	62	0	1376780288	52	5744
2026-01-30 01:15:33.51	246.93	8.71	-41.0	-44.4	10.7	3.32e-03	0	62	0	1378877440	52	5682
2026-01-30 01:15:34.52	246.84	8.64	-40.9	-44.4	10.6	3.12e-03	0	62	0	1382023168	52	5678
2026-01-30 01:15:35.53	246.75	8.57	-40.9	-44.4	10.6	3.38e-03	0	62	0	1385168896	52	5693
2026-01-30 01:15:36.54	246.66	8.50	-40.9	-44.3	10.7	3.02e-03	0	62	0	1389363200	52	5625
2026-01-30 01:15:37.55	246.57	8.43	-41.0	-44.4	10.6	3.67e-03	0	62	0	1392508928	52	5722
2026-01-30 01:15:38.56	246.48	8.36	-41.0	-44.5	10.5	3.78e-03	0	62	0	1395654656	52	5728
2026-01-30 01:15:39.57	246.40	8.29	-41.0	-44.5	10.5	3.50e-03	0	62	0	1398800384	52	5776
2026-01-30 01:15:40.58	246.31	8.22	-41.0	-44.5	10.5	4.15e-03	0	62	0	1401946112	52	5781
2026-01-30 01:15:41.59	246.22	8.15	-40.9	-44.3	10.7	3.07e-03	0	62	0	1405091840	52	5646
2026-01-30 01:15:42.60	246.13	8.08	-40.9	-44.4	10.6	3.40e-03	0	62	0	1408237568	52	5691
2026-01-30 01:15:43.61	246.05	8.01	-42.4	-47.7	7.5	4.59e-03	0	62	0	1411383296	55	6966
2026-01-30 01:15:44.62	245.96	7.93	-44.5	-56.9	3.8	1.49e+00	0	62	104	1411383296	59	15992
2026-01-30 01:15:45.63	245.88	7.86	-44.7	-57.2	3.8	1.49e+00	0	62	104	1411383296	60	15683
2026-01-30 01:15:46.64	245.79	7.79	-44.8	-57.4	3.8	1.49e+00	0	62	104	1411383296	60	16007
2026-01-30 01:15:47.65	245.71	7.73	-44.9	-57.5	3.8	1.49e+00	0	62	104	1411383296	60	16139
2026-01-30 01:15:48.66	245.62	7.66	-45.0	-57.6	3.8	1.49e+00	0	62	104	1411383296	60	16381
2026-01-30 01:15:49.67	245.54	7.59	-45.0	-57.6	3.8	1.49e+00	0	62	104	1411383296	60	16419
2026-01-30 01:15:50.68	245.46	7.52	-45.1	-57.6	3.8	1.49e+00	0	62	104	1411383296	60	16484
2026-01-30 01:15:51.69	245.37	7.45	-45.1	-57.6	3.8	1.49e+00	0	62	104	1411383296	60	16486
2026-01-30 01:15:52.70	245.29	7.38	-45.1	-57.7	3.8	1.49e+00	0	62	104	1411383296	60	16607
2026-01-30 01:15:53.71	245.21	7.31	-45.1	-57.7	3.8	1.49e+00	0	62	104	1411383296	60	16515
2026-01-30 01:15:54.72	245.13	7.24	-45.0	-57.6	3.8	1.49e+00	0	62	104	1411383296	60	16500
2026-01-30 01:15:55.73	245.05	7.17	-45.0	-57.6	3.8	1.49e+00	0	62	104	1411383296	60	16423
