passes_logs/2026/01/30/R2.0S_Moscow/R2.0S_Moscow__20260130_105503_NOAA_21_JPSS-2_rec.log

#Pass ID: 20260130_105503_NOAA 21 (JPSS-2)
#Satellite: NOAA 21 (JPSS-2)
#Configuration: NOAA-21
#almurnet v.1.7.20251203
#Start time: 2026-01-30 10:55:03

#Version: 2.2.20231116
#Station: R2.0S_Moscow
#Location: 37.707566 lon 55.798166 lat
#TLE: 1 54234U 22150A   26029.46216196  .00000141  00000+0  87503-4 0  9994
#TLE: 2 54234  98.7512 330.1880 0000955 196.3413 163.7732 14.19540905166865

#Time	Az	El	Level	Level2	SNR	BER	BlckErr	Temp	State	Recorded	gain1	gain2
2026-01-30 10:55:03.26	190.16	1.98	-43.8	-56.0	3.8	1.49e+00	0	62	0	0	58	15340
2026-01-30 10:55:04.28	190.20	2.04	-43.7	-55.9	3.8	1.49e+00	0	62	104	0	59	14368
2026-01-30 10:55:05.29	190.25	2.10	-43.8	-56.0	3.8	1.49e+00	0	62	104	0	58	15242
2026-01-30 10:55:06.30	190.30	2.17	-43.7	-56.0	3.8	1.49e+00	0	62	104	0	58	15240
2026-01-30 10:55:07.31	190.35	2.23	-43.8	-56.0	3.8	1.49e+00	0	62	104	0	58	15263
2026-01-30 10:55:08.32	190.40	2.29	-43.8	-56.0	3.8	1.49e+00	0	62	104	0	58	15249
2026-01-30 10:55:09.33	190.45	2.35	-43.8	-56.0	3.8	1.49e+00	0	62	104	0	58	15243
2026-01-30 10:55:10.34	190.49	2.41	-43.8	-56.0	3.8	1.49e+00	0	62	104	0	58	15228
2026-01-30 10:55:11.35	190.54	2.47	-43.7	-56.0	3.8	1.49e+00	0	62	104	0	58	15282
2026-01-30 10:55:12.36	190.59	2.54	-43.8	-55.9	3.8	1.49e+00	0	62	104	0	58	15206
2026-01-30 10:55:13.37	190.64	2.60	-43.7	-56.0	3.8	1.49e+00	0	62	104	0	58	15266
2026-01-30 10:55:14.38	190.69	2.66	-43.7	-56.0	3.8	1.49e+00	0	62	104	0	58	15234
2026-01-30 10:55:15.39	190.74	2.72	-43.7	-56.0	3.8	1.49e+00	0	62	104	0	58	15242
2026-01-30 10:55:16.41	190.79	2.79	-43.7	-56.0	3.8	1.49e+00	0	62	104	0	58	15259
2026-01-30 10:55:17.41	190.84	2.85	-43.7	-56.0	3.8	1.49e+00	0	62	104	0	58	15241
2026-01-30 10:55:18.42	190.89	2.91	-43.7	-56.0	3.8	1.49e+00	0	62	104	0	58	15244
2026-01-30 10:55:19.44	190.94	2.97	-43.7	-55.9	3.8	1.49e+00	0	62	104	0	58	15186
2026-01-30 10:55:20.45	190.99	3.04	-43.7	-56.0	3.8	1.49e+00	0	62	104	0	58	15246
2026-01-30 10:55:21.46	191.05	3.10	-43.7	-56.0	3.8	1.49e+00	0	62	104	0	58	15283
2026-01-30 10:55:22.47	191.10	3.16	-43.7	-55.9	3.8	1.49e+00	0	62	104	0	58	15223
2026-01-30 10:55:23.48	191.15	3.23	-43.7	-56.0	3.8	1.49e+00	0	62	104	0	58	15240
2026-01-30 10:55:24.49	191.20	3.29	-43.7	-55.9	3.8	1.49e+00	0	62	104	0	58	15159
2026-01-30 10:55:25.50	191.25	3.35	-43.7	-55.9	3.8	1.49e+00	0	62	104	0	58	15220
2026-01-30 10:55:26.51	191.30	3.42	-43.7	-55.9	3.8	1.49e+00	0	62	104	0	58	15225
2026-01-30 10:55:27.52	191.36	3.48	-43.7	-55.9	3.8	1.49e+00	0	62	104	0	58	15192
2026-01-30 10:55:28.53	191.41	3.55	-43.7	-55.9	3.8	1.49e+00	0	62	104	0	58	15203
2026-01-30 10:55:29.54	191.46	3.61	-43.7	-55.9	3.8	1.49e+00	0	62	104	0	58	15162
2026-01-30 10:55:30.55	191.52	3.67	-43.7	-56.0	3.8	1.49e+00	0	62	104	0	58	15241
2026-01-30 10:55:31.56	191.57	3.74	-43.7	-55.9	3.8	1.49e+00	0	62	104	0	58	15167
2026-01-30 10:55:32.57	191.62	3.80	-43.7	-55.9	3.8	1.49e+00	0	62	104	0	58	15221
2026-01-30 10:55:33.58	191.68	3.87	-43.7	-55.9	3.8	1.49e+00	0	62	104	0	58	15175
2026-01-30 10:55:34.59	191.73	3.93	-43.7	-55.9	3.8	1.49e+00	0	62	104	0	58	15185
2026-01-30 10:55:35.60	191.78	4.00	-43.7	-55.9	3.8	1.49e+00	0	62	104	0	58	15171
2026-01-30 10:55:36.61	191.84	4.06	-43.7	-55.9	3.8	1.49e+00	0	62	104	0	58	15212
2026-01-30 10:55:37.62	191.89	4.13	-43.7	-55.9	3.8	1.49e+00	0	62	104	0	58	15205
2026-01-30 10:55:38.63	191.95	4.19	-43.7	-55.9	3.8	1.49e+00	0	62	104	0	58	15152
2026-01-30 10:55:39.64	192.00	4.26	-43.7	-55.9	3.8	1.49e+00	0	62	104	0	58	15161
2026-01-30 10:55:40.65	192.06	4.32	-43.7	-56.0	3.8	1.49e+00	0	62	104	0	58	15228
2026-01-30 10:55:41.66	192.11	4.39	-43.7	-55.9	3.8	1.49e+00	0	62	104	0	58	15148
2026-01-30 10:55:42.67	192.17	4.46	-43.7	-55.9	3.8	1.49e+00	0	62	104	0	58	15198
2026-01-30 10:55:43.68	192.23	4.52	-43.7	-55.9	3.8	1.49e+00	0	62	104	0	58	15145
2026-01-30 10:55:44.69	192.28	4.59	-43.7	-55.9	3.8	1.49e+00	0	62	104	0	58	15172
2026-01-30 10:55:45.69	192.34	4.65	-43.7	-55.9	3.8	1.49e+00	0	62	104	0	58	15128
2026-01-30 10:55:46.70	192.39	4.72	-43.7	-55.9	3.8	1.49e+00	0	62	104	0	58	15160
2026-01-30 10:55:47.71	192.45	4.79	-43.7	-55.9	3.8	1.49e+00	0	62	104	0	58	15106
2026-01-30 10:55:48.72	192.51	4.85	-43.7	-55.9	3.8	1.49e+00	0	62	104	0	58	15092
2026-01-30 10:55:49.73	192.57	4.92	-43.7	-55.8	3.8	1.49e+00	0	62	104	0	58	15022
2026-01-30 10:55:50.74	192.62	4.99	-43.7	-55.8	3.8	1.49e+00	0	62	104	0	58	14919
2026-01-30 10:55:51.75	192.68	5.06	-43.7	-55.7	3.8	1.49e+00	0	62	104	0	58	14750
2026-01-30 10:55:52.76	192.74	5.12	-43.7	-55.6	3.8	1.49e+00	0	62	104	0	58	14590
2026-01-30 10:55:53.77	192.80	5.19	-43.7	-55.5	3.8	1.49e+00	0	62	104	0	58	14471
2026-01-30 10:55:54.78	192.86	5.26	-43.7	-55.4	3.8	1.49e+00	0	62	104	0	58	14369
2026-01-30 10:55:55.79	192.92	5.33	-43.7	-55.3	3.8	1.49e+00	0	62	104	0	58	14180
2026-01-30 10:55:56.80	192.98	5.39	-43.6	-55.2	3.8	1.49e+00	0	62	104	0	58	13889
2026-01-30 10:55:57.81	193.03	5.46	-43.6	-54.9	3.8	1.49e+00	0	62	104	0	58	13529
2026-01-30 10:55:58.82	193.09	5.53	-43.6	-54.8	3.8	1.49e+00	0	62	104	0	58	13266
2026-01-30 10:55:59.83	193.15	5.60	-43.5	-54.5	3.8	1.49e+00	0	62	104	0	58	12951
2026-01-30 10:56:00.84	193.21	5.67	-43.5	-54.2	3.8	1.49e+00	0	62	104	0	58	12519
2026-01-30 10:56:01.85	193.28	5.74	-43.5	-53.8	3.9	1.49e+00	0	62	104	0	58	11935
2026-01-30 10:56:02.86	193.34	5.80	-43.4	-53.4	3.9	1.48e+00	0	62	104	0	58	11341
2026-01-30 10:56:03.87	193.40	5.87	-43.3	-52.5	4.2	1.47e+00	0	62	104	0	58	10203
2026-01-30 10:56:04.88	193.46	5.94	-43.3	-52.1	3.9	1.45e+00	0	62	104	0	58	9745
2026-01-30 10:56:05.89	193.52	6.01	-43.2	-51.7	4.4	1.44e+00	0	62	104	0	58	9333
2026-01-30 10:56:06.90	193.58	6.08	-43.2	-51.4	4.0	1.12e+00	0	62	104	0	58	8981
2026-01-30 10:56:07.91	193.64	6.15	-43.1	-51.1	4.6	1.21e+00	0	62	104	0	58	8697
2026-01-30 10:56:08.92	193.71	6.22	-43.1	-50.9	4.7	1.12e+00	2	62	104	0	58	8500
2026-01-30 10:56:09.93	193.77	6.29	-43.1	-51.0	4.7	9.64e-01	0	62	104	0	58	8578
2026-01-30 10:56:10.94	193.83	6.36	-43.1	-51.0	4.7	1.03e+00	2	62	104	0	58	8631
2026-01-30 10:56:11.95	193.90	6.43	-43.2	-51.4	4.5	1.23e+00	2	62	104	0	58	8973
2026-01-30 10:56:12.96	193.96	6.50	-43.2	-51.9	4.3	1.41e+00	0	62	104	0	58	9509
2026-01-30 10:56:13.97	194.02	6.57	-43.3	-53.0	3.9	1.47e+00	0	62	104	0	58	10873
2026-01-30 10:56:14.98	194.09	6.64	-43.4	-53.4	4.0	1.48e+00	0	62	104	0	58	11383
2026-01-30 10:56:15.99	194.15	6.72	-43.6	-54.7	3.8	1.49e+00	0	62	104	0	58	13121
2026-01-30 10:56:17.00	194.22	6.79	-43.7	-55.4	3.8	1.49e+00	0	62	104	0	58	14276
2026-01-30 10:56:18.01	194.28	6.86	-43.7	-55.9	3.8	1.49e+00	0	62	104	0	58	15078
2026-01-30 10:56:19.03	194.35	6.93	-43.7	-55.7	3.8	1.49e+00	0	62	104	0	58	14864
2026-01-30 10:56:20.04	194.42	7.00	-43.6	-55.2	3.8	1.49e+00	0	62	104	0	58	13916
2026-01-30 10:56:21.05	194.48	7.07	-43.5	-54.3	3.8	1.49e+00	0	62	104	0	58	12561
2026-01-30 10:56:22.06	194.55	7.15	-43.3	-53.0	3.9	1.47e+00	0	62	104	0	58	10895
2026-01-30 10:56:23.07	194.61	7.22	-43.1	-51.3	4.5	1.29e+00	0	62	104	0	58	8875
2026-01-30 10:56:24.08	194.68	7.29	-42.9	-50.0	5.2	1.21e+00	0	62	104	0	57	8176
2026-01-30 10:56:25.09	194.75	7.36	-42.7	-49.2	5.7	4.73e-01	0	62	0	2097152	57	7445
2026-01-30 10:56:26.10	194.82	7.44	-42.5	-48.6	6.1	3.17e-01	0	62	0	5242880	57	6916
2026-01-30 10:56:27.11	194.88	7.51	-42.4	-48.3	6.4	2.54e-01	0	62	0	8388608	56	7099
2026-01-30 10:56:28.12	194.95	7.58	-42.3	-47.9	6.7	2.05e-01	0	62	0	11534336	56	6759
2026-01-30 10:56:29.13	195.02	7.65	-42.3	-47.8	6.9	1.72e-01	0	62	0	14680064	56	6687
2026-01-30 10:56:30.14	195.09	7.73	-42.3	-48.0	6.7	1.90e-01	0	62	0	17825792	56	6824
2026-01-30 10:56:31.15	195.16	7.80	-42.4	-48.2	6.5	2.27e-01	0	62	0	20971520	56	7020
2026-01-30 10:56:32.17	195.23	7.88	-42.6	-48.7	6.1	2.77e-01	0	62	0	24117248	56	7430
2026-01-30 10:56:33.18	195.30	7.95	-42.6	-49.0	5.8	3.60e-01	0	62	0	27262976	56	7710
2026-01-30 10:56:34.19	195.37	8.02	-42.8	-49.6	5.5	4.86e-01	0	62	0	30408704	56	8206
2026-01-30 10:56:35.19	195.44	8.10	-43.7	-51.9	4.5	1.43e+00	0	62	104	31457280	58	9595
2026-01-30 10:56:36.20	195.51	8.17	-42.0	-47.4	7.0	1.60e-01	0	62	0	31457280	55	6765
2026-01-30 10:56:37.21	195.58	8.25	-43.9	-55.9	3.8	1.49e+00	0	62	104	32505856	58	15083
2026-01-30 10:56:38.22	195.65	8.32	-41.5	-45.8	8.7	4.08e-02	0	62	0	32505856	55	5617
2026-01-30 10:56:39.23	195.73	8.40	-42.7	-50.9	4.0	8.82e-01	0	62	104	34603008	55	10160
2026-01-30 10:56:40.24	195.80	8.47	-41.4	-45.6	9.0	3.09e-02	0	62	0	36700160	54	5822
2026-01-30 10:56:41.25	195.87	8.55	-41.4	-45.6	9.0	2.51e-02	0	62	0	39845888	54	5794
2026-01-30 10:56:42.26	195.95	8.62	-41.4	-45.5	9.1	2.24e-02	0	62	0	42991616	54	5745
2026-01-30 10:56:43.27	196.02	8.70	-41.4	-45.5	9.1	2.27e-02	0	62	0	46137344	54	5762
2026-01-30 10:56:44.28	196.09	8.77	-41.4	-45.4	9.2	2.03e-02	0	62	0	49283072	54	5661
2026-01-30 10:56:45.29	196.17	8.85	-41.4	-45.5	9.1	2.06e-02	0	62	0	52428800	54	5754
2026-01-30 10:56:46.30	196.24	8.93	-41.4	-45.5	9.2	2.08e-02	0	62	0	55574528	54	5729
2026-01-30 10:56:47.31	196.32	9.00	-41.4	-45.4	9.3	1.92e-02	0	62	0	58720256	54	5680
2026-01-30 10:56:48.32	196.39	9.08	-41.4	-45.3	9.4	1.68e-02	0	62	0	61865984	54	5623
2026-01-30 10:56:49.33	196.47	9.16	-41.4	-45.3	9.3	1.77e-02	0	62	0	65011712	54	5633
2026-01-30 10:56:50.34	196.54	9.23	-41.3	-45.2	9.5	1.42e-02	0	62	0	68157440	54	5533
2026-01-30 10:56:51.35	196.62	9.31	-41.4	-45.4	9.4	1.72e-02	0	62	0	71303168	54	5663
2026-01-30 10:56:52.36	196.70	9.39	-41.4	-45.3	9.4	1.56e-02	0	62	0	74448896	54	5627
2026-01-30 10:56:53.37	196.77	9.47	-41.4	-45.3	9.4	1.64e-02	0	62	0	77594624	54	5646
2026-01-30 10:56:54.38	196.85	9.55	-41.3	-45.3	9.4	1.59e-02	0	62	0	80740352	54	5608
2026-01-30 10:56:55.39	196.93	9.62	-41.4	-45.3	9.4	1.62e-02	0	62	0	83886080	54	5611
2026-01-30 10:56:56.39	197.01	9.70	-41.4	-45.4	9.4	1.67e-02	0	62	0	87031808	54	5660
2026-01-30 10:56:57.40	197.09	9.78	-41.4	-45.3	9.4	1.62e-02	0	62	0	90177536	54	5620
2026-01-30 10:56:58.41	197.17	9.86	-41.4	-45.2	9.5	1.62e-02	0	62	0	93323264	54	5566
2026-01-30 10:56:59.42	197.25	9.94	-41.3	-45.2	9.5	1.38e-02	0	62	0	96468992	54	5559
2026-01-30 10:57:00.43	197.33	10.02	-41.3	-45.1	9.6	1.21e-02	0	62	0	99614720	54	5496
2026-01-30 10:57:01.44	197.41	10.10	-41.3	-45.0	9.8	1.06e-02	0	62	0	102760448	54	5458
2026-01-30 10:57:02.46	197.49	10.18	-41.2	-44.9	9.9	9.29e-03	0	62	0	105906176	54	5352
2026-01-30 10:57:03.47	197.57	10.26	-41.1	-44.8	10.0	7.90e-03	0	62	0	109051904	54	5285
2026-01-30 10:57:04.48	197.65	10.34	-41.1	-44.7	10.0	7.28e-03	0	62	0	112197632	54	5242
2026-01-30 10:57:05.49	197.73	10.42	-41.1	-44.7	10.0	7.95e-03	0	62	0	115343360	54	5261
2026-01-30 10:57:06.50	197.82	10.50	-41.1	-44.7	10.1	7.05e-03	0	62	0	118489088	54	5256
2026-01-30 10:57:07.51	197.90	10.58	-41.1	-44.7	10.2	6.72e-03	0	62	0	121634816	54	5221
2026-01-30 10:57:08.52	197.98	10.66	-41.2	-44.9	10.0	6.34e-03	0	62	0	124780544	54	5346
2026-01-30 10:57:09.53	198.07	10.74	-41.2	-44.8	10.1	6.59e-03	0	62	0	127926272	54	5287
2026-01-30 10:57:10.54	198.15	10.82	-41.1	-44.6	10.3	5.45e-03	0	62	0	131072000	54	5192
2026-01-30 10:57:11.55	198.24	10.90	-41.1	-44.6	10.3	5.13e-03	0	62	0	134217728	54	5174
2026-01-30 10:57:12.56	198.32	10.98	-41.1	-44.7	10.3	4.77e-03	0	62	0	137363456	54	5226
2026-01-30 10:57:13.57	198.41	11.07	-41.0	-44.5	10.4	5.01e-03	0	62	0	140509184	54	5142
2026-01-30 10:57:14.58	198.49	11.15	-41.0	-44.6	10.3	5.19e-03	0	62	0	143654912	54	5168
2026-01-30 10:57:15.59	198.58	11.23	-41.0	-44.6	10.2	5.98e-03	0	62	0	146800640	54	5179
2026-01-30 10:57:16.60	198.67	11.31	-41.0	-44.6	10.2	6.42e-03	0	62	0	149946368	54	5182
2026-01-30 10:57:17.61	198.76	11.40	-40.9	-44.5	10.1	6.06e-03	0	62	0	153092096	53	5427
2026-01-30 10:57:18.62	198.84	11.48	-40.8	-44.4	10.2	6.14e-03	0	62	0	156237824	53	5398
2026-01-30 10:57:19.63	198.93	11.56	-40.9	-44.5	10.1	6.36e-03	0	62	0	159383552	53	5416
2026-01-30 10:57:20.64	199.02	11.65	-40.7	-44.3	10.2	6.61e-03	0	62	0	162529280	53	5314
2026-01-30 10:57:21.65	199.11	11.73	-40.7	-44.3	10.1	6.27e-03	0	62	0	165675008	53	5306
2026-01-30 10:57:22.66	199.20	11.81	-40.7	-44.3	10.3	5.78e-03	0	62	0	168820736	53	5311
2026-01-30 10:57:23.67	199.29	11.90	-40.8	-44.4	10.4	4.45e-03	0	62	0	171966464	53	5342
2026-01-30 10:57:24.67	199.38	11.98	-40.9	-44.5	10.4	4.74e-03	0	62	0	175112192	53	5413
2026-01-30 10:57:25.68	199.47	12.07	-40.8	-44.3	10.5	4.05e-03	0	62	0	178257920	53	5309
2026-01-30 10:57:26.69	199.57	12.15	-40.7	-44.2	10.5	3.90e-03	0	62	0	181403648	53	5263
2026-01-30 10:57:27.70	199.66	12.24	-40.8	-44.3	10.6	4.23e-03	0	62	0	184549376	53	5284
2026-01-30 10:57:28.71	199.75	12.32	-40.8	-44.3	10.5	3.36e-03	0	62	0	187695104	53	5291
2026-01-30 10:57:29.72	199.85	12.41	-40.9	-44.3	10.6	3.43e-03	0	62	0	190840832	53	5298
2026-01-30 10:57:30.73	199.94	12.49	-41.0	-44.3	10.7	3.00e-03	0	62	0	193986560	53	5317
2026-01-30 10:57:31.74	200.04	12.58	-40.9	-44.2	10.8	2.53e-03	0	62	0	197132288	53	5272
2026-01-30 10:57:32.75	200.13	12.66	-40.9	-44.2	10.8	2.60e-03	0	62	0	200278016	53	5269
2026-01-30 10:57:33.76	200.23	12.75	-40.9	-44.3	10.8	2.72e-03	0	62	0	203423744	53	5282
2026-01-30 10:57:34.77	200.32	12.84	-40.9	-44.3	10.7	2.62e-03	0	62	0	206569472	53	5297
2026-01-30 10:57:35.78	200.42	12.92	-40.8	-44.2	10.6	3.74e-03	0	62	0	209715200	53	5254
2026-01-30 10:57:36.79	200.52	13.01	-40.9	-44.3	10.5	4.01e-03	0	62	0	212860928	53	5301
2026-01-30 10:57:37.80	200.62	13.10	-40.8	-44.1	10.6	3.69e-03	0	62	0	216006656	53	5210
2026-01-30 10:57:38.80	200.71	13.19	-40.8	-44.1	10.6	3.35e-03	0	62	0	219152384	53	5193
2026-01-30 10:57:39.81	200.81	13.27	-40.8	-44.1	10.8	2.85e-03	0	62	0	222298112	53	5194
2026-01-30 10:57:40.82	200.91	13.36	-40.9	-44.2	10.8	2.58e-03	0	62	0	225443840	53	5242
2026-01-30 10:57:41.83	201.01	13.45	-40.9	-44.2	10.8	2.57e-03	0	62	0	228589568	53	5234
2026-01-30 10:57:42.84	201.11	13.54	-40.8	-44.1	10.9	2.29e-03	0	62	0	231735296	53	5165
2026-01-30 10:57:43.85	201.21	13.63	-40.8	-44.0	11.0	2.18e-03	0	62	0	234881024	53	5142
2026-01-30 10:57:44.86	201.32	13.72	-40.9	-44.1	11.1	1.82e-03	0	62	0	238026752	53	5174
2026-01-30 10:57:45.87	201.42	13.81	-41.0	-44.2	11.1	1.65e-03	0	62	0	241172480	53	5223
2026-01-30 10:57:46.88	201.52	13.90	-40.9	-44.0	11.2	1.36e-03	0	62	0	244318208	53	5151
2026-01-30 10:57:47.89	201.63	13.99	-40.9	-44.0	11.3	1.19e-03	0	62	0	247463936	53	5105
2026-01-30 10:57:48.90	201.73	14.08	-40.9	-44.1	11.2	1.30e-03	0	62	0	250609664	53	5175
2026-01-30 10:57:49.91	201.84	14.17	-40.9	-44.0	11.3	1.31e-03	0	62	0	253755392	53	5129
2026-01-30 10:57:50.92	201.94	14.26	-41.0	-44.1	11.1	1.51e-03	0	62	0	256901120	53	5216
2026-01-30 10:57:51.92	202.05	14.35	-41.0	-44.3	10.9	1.97e-03	0	62	0	260046848	53	5283
2026-01-30 10:57:52.94	202.15	14.44	-40.9	-44.1	11.0	1.80e-03	0	62	0	263192576	53	5201
2026-01-30 10:57:53.94	202.26	14.53	-40.9	-44.1	11.2	1.71e-03	0	62	0	266338304	53	5167
2026-01-30 10:57:54.95	202.37	14.62	-40.9	-44.1	11.1	1.36e-03	0	62	0	269484032	53	5174
2026-01-30 10:57:55.96	202.48	14.71	-40.9	-44.2	11.1	1.58e-03	0	62	0	272629760	53	5223
2026-01-30 10:57:56.97	202.59	14.80	-41.0	-44.2	11.0	1.80e-03	0	62	0	275775488	53	5279
2026-01-30 10:57:57.98	202.70	14.90	-41.0	-44.3	11.0	1.86e-03	0	62	0	278921216	53	5289
2026-01-30 10:57:58.99	202.81	14.99	-40.9	-44.1	11.2	1.40e-03	0	62	0	282066944	53	5161
2026-01-30 10:58:00.00	202.92	15.08	-40.9	-44.0	11.3	1.21e-03	0	62	0	285212672	53	5130
2026-01-30 10:58:01.01	203.03	15.18	-40.9	-44.0	11.3	1.29e-03	0	62	0	288358400	53	5122
2026-01-30 10:58:02.02	203.14	15.27	-40.9	-44.0	11.3	1.14e-03	0	62	0	291504128	53	5126
2026-01-30 10:58:03.03	203.26	15.36	-40.9	-44.1	11.3	1.10e-03	0	62	0	294649856	53	5166
2026-01-30 10:58:04.04	203.37	15.46	-40.9	-44.0	11.3	1.07e-03	0	62	0	297795584	53	5149
2026-01-30 10:58:05.05	203.49	15.55	-41.0	-44.1	11.3	1.16e-03	0	62	0	300941312	53	5182
2026-01-30 10:58:06.06	203.60	15.65	-41.0	-44.0	11.3	1.03e-03	0	62	0	304087040	53	5159
2026-01-30 10:58:07.07	203.72	15.74	-41.0	-44.1	11.4	9.64e-04	0	62	0	307232768	53	5166
2026-01-30 10:58:08.08	203.84	15.83	-41.0	-44.0	11.4	1.05e-03	0	62	0	310378496	53	5154
2026-01-30 10:58:09.08	203.95	15.93	-41.0	-44.1	11.4	9.73e-04	0	62	0	313524224	53	5190
2026-01-30 10:58:10.09	204.07	16.02	-41.0	-44.1	11.3	1.10e-03	0	62	0	316669952	53	5196
2026-01-30 10:58:11.10	204.19	16.12	-41.0	-44.2	11.3	1.17e-03	0	62	0	319815680	53	5219
2026-01-30 10:58:12.11	204.31	16.22	-41.0	-44.1	11.3	1.14e-03	0	62	0	322961408	53	5216
2026-01-30 10:58:13.12	204.43	16.31	-41.0	-44.1	11.3	1.16e-03	0	62	0	326107136	53	5218
2026-01-30 10:58:14.13	204.55	16.41	-41.1	-44.2	11.2	1.24e-03	0	62	0	329252864	53	5266
2026-01-30 10:58:15.14	204.67	16.51	-41.1	-44.2	11.2	1.33e-03	0	62	0	332398592	53	5270
2026-01-30 10:58:16.15	204.80	16.60	-41.0	-44.2	11.3	1.17e-03	0	62	0	335544320	53	5220
2026-01-30 10:58:17.16	204.92	16.70	-41.1	-44.3	11.2	1.33e-03	0	62	0	338690048	53	5284
2026-01-30 10:58:18.17	205.05	16.80	-41.1	-44.3	11.2	1.39e-03	0	62	0	341835776	53	5304
2026-01-30 10:58:19.18	205.17	16.90	-41.1	-44.3	11.2	1.39e-03	0	62	0	344981504	53	5280
2026-01-30 10:58:20.19	205.30	16.99	-41.2	-44.3	11.2	1.48e-03	0	62	0	348127232	53	5320
2026-01-30 10:58:21.20	205.42	17.09	-41.2	-44.4	11.1	1.49e-03	0	62	0	351272960	53	5356
2026-01-30 10:58:22.21	205.55	17.19	-41.2	-44.3	11.2	1.30e-03	0	62	0	355467264	53	5334
2026-01-30 10:58:23.22	205.68	17.29	-41.2	-44.3	11.2	1.43e-03	0	62	0	358612992	53	5313
2026-01-30 10:58:24.23	205.81	17.39	-41.2	-44.3	11.2	1.39e-03	0	62	0	361758720	53	5338
2026-01-30 10:58:25.24	205.94	17.49	-41.2	-44.4	11.1	1.48e-03	0	62	0	363855872	53	5354
2026-01-30 10:58:26.25	206.07	17.59	-41.2	-44.4	11.1	1.64e-03	0	62	0	367001600	53	5372
2026-01-30 10:58:27.26	206.20	17.69	-41.2	-44.5	11.0	1.81e-03	0	62	0	370147328	53	5413
2026-01-30 10:58:28.27	206.33	17.79	-41.3	-44.6	10.9	2.02e-03	0	62	0	374341632	53	5471
2026-01-30 10:58:29.28	206.47	17.89	-41.3	-44.6	10.9	2.10e-03	0	62	0	377487360	53	5475
2026-01-30 10:58:30.29	206.60	17.99	-41.3	-44.5	11.0	2.08e-03	0	62	0	380633088	53	5443
2026-01-30 10:58:31.30	206.74	18.09	-41.3	-44.5	11.0	1.94e-03	0	62	0	383778816	53	5441
2026-01-30 10:58:32.31	206.87	18.19	-41.3	-44.6	10.9	2.11e-03	0	62	0	386924544	53	5472
2026-01-30 10:58:33.32	207.01	18.29	-41.4	-44.6	10.9	2.35e-03	0	62	0	390070272	53	5513
2026-01-30 10:58:34.33	207.15	18.39	-41.3	-44.5	11.0	1.81e-03	0	62	0	393216000	53	5462
2026-01-30 10:58:35.34	207.29	18.50	-41.4	-44.6	11.0	1.96e-03	0	62	0	396361728	53	5496
2026-01-30 10:58:36.35	207.43	18.60	-41.4	-44.8	10.8	2.45e-03	0	62	0	399507456	53	5608
2026-01-30 10:58:37.37	207.57	18.70	-41.4	-44.6	11.0	1.91e-03	0	62	0	402653184	53	5513
2026-01-30 10:58:38.38	207.71	18.80	-41.4	-44.7	11.0	1.94e-03	0	62	0	405798912	53	5529
2026-01-30 10:58:39.39	207.85	18.91	-41.4	-44.6	11.1	1.71e-03	0	62	0	408944640	53	5487
2026-01-30 10:58:40.39	207.99	19.01	-41.3	-44.5	11.1	1.55e-03	0	62	0	412090368	53	5461
2026-01-30 10:58:41.41	208.14	19.11	-41.3	-44.5	11.2	1.45e-03	0	62	0	415236096	53	5440
2026-01-30 10:58:42.42	208.29	19.22	-41.4	-44.6	11.1	1.57e-03	0	62	0	418381824	53	5466
2026-01-30 10:58:43.43	208.43	19.32	-41.3	-44.4	11.2	1.40e-03	0	62	0	421527552	53	5392
2026-01-30 10:58:44.44	208.58	19.43	-41.2	-44.3	11.4	1.17e-03	0	62	0	424673280	53	5313
2026-01-30 10:58:45.45	208.73	19.53	-41.2	-44.3	11.4	1.04e-03	0	62	0	427819008	53	5300
2026-01-30 10:58:46.46	208.88	19.64	-41.2	-44.3	11.4	9.37e-04	0	62	0	430964736	53	5281
2026-01-30 10:58:47.47	209.03	19.74	-41.1	-44.2	11.5	7.88e-04	0	62	0	434110464	53	5220
2026-01-30 10:58:48.48	209.18	19.85	-41.1	-44.2	11.5	8.15e-04	0	62	0	437256192	53	5234
2026-01-30 10:58:49.49	209.33	19.95	-41.1	-44.2	11.5	9.12e-04	0	62	0	440401920	53	5229
2026-01-30 10:58:50.50	209.48	20.06	-41.2	-44.2	11.5	9.02e-04	0	62	0	443547648	53	5279
2026-01-30 10:58:51.51	209.64	20.16	-41.2	-44.2	11.5	7.35e-04	0	62	0	446693376	53	5242
2026-01-30 10:58:52.52	209.79	20.27	-41.2	-44.2	11.5	7.97e-04	0	62	0	449839104	53	5256
2026-01-30 10:58:53.53	209.95	20.38	-41.2	-44.2	11.6	7.71e-04	0	62	0	452984832	53	5239
2026-01-30 10:58:54.54	210.11	20.48	-41.1	-44.1	11.7	5.98e-04	0	62	0	456130560	53	5180
2026-01-30 10:58:55.55	210.27	20.59	-41.1	-44.0	11.8	5.55e-04	0	62	0	459276288	53	5114
2026-01-30 10:58:56.56	210.43	20.70	-41.0	-43.8	11.9	4.23e-04	0	62	0	462422016	53	5040
2026-01-30 10:58:57.57	210.59	20.81	-41.0	-43.9	11.9	3.86e-04	0	62	0	465567744	53	5049
2026-01-30 10:58:58.58	210.75	20.91	-41.0	-43.9	11.9	4.21e-04	0	62	0	468713472	53	5055
2026-01-30 10:58:59.59	210.91	21.02	-41.0	-43.9	11.9	3.91e-04	0	62	0	471859200	53	5053
2026-01-30 10:59:00.60	211.07	21.13	-41.0	-43.8	12.0	3.22e-04	0	62	0	475004928	53	5019
2026-01-30 10:59:01.61	211.24	21.24	-41.0	-43.8	11.9	3.60e-04	0	62	0	478150656	53	5033
2026-01-30 10:59:02.62	211.41	21.35	-41.0	-43.8	11.9	3.87e-04	0	62	0	481296384	53	5040
2026-01-30 10:59:03.63	211.57	21.46	-41.0	-43.9	11.9	3.23e-04	0	62	0	484442112	53	5044
2026-01-30 10:59:04.63	211.74	21.56	-40.9	-43.8	12.0	3.55e-04	0	62	0	487587840	53	4997
2026-01-30 10:59:05.64	211.91	21.67	-41.0	-43.9	11.9	3.70e-04	0	62	0	490733568	53	5046
2026-01-30 10:59:06.66	212.08	21.79	-40.9	-43.7	12.1	2.82e-04	0	62	0	493879296	53	4942
2026-01-30 10:59:07.67	212.25	21.89	-40.9	-43.7	12.1	2.84e-04	0	62	0	497025024	53	4955
2026-01-30 10:59:08.68	212.43	22.00	-40.9	-43.8	12.0	3.11e-04	0	62	0	500170752	53	4993
2026-01-30 10:59:09.68	212.60	22.11	-40.8	-43.6	12.2	2.44e-04	0	62	0	503316480	53	4917
2026-01-30 10:59:10.69	212.78	22.22	-40.7	-43.5	12.4	1.85e-04	0	62	0	506462208	53	4816
2026-01-30 10:59:11.70	212.95	22.34	-40.8	-43.5	12.3	1.76e-04	0	62	0	509607936	53	4870
2026-01-30 10:59:12.71	213.13	22.45	-40.8	-43.5	12.3	1.82e-04	0	62	0	512753664	53	4837
2026-01-30 10:59:13.72	213.31	22.56	-40.6	-43.2	12.6	9.84e-05	0	62	0	515899392	53	4700
2026-01-30 10:59:14.73	213.49	22.67	-40.6	-43.2	12.6	8.31e-05	0	62	0	519045120	53	4689
2026-01-30 10:59:15.74	213.67	22.78	-40.6	-43.3	12.6	8.31e-05	0	62	0	522190848	53	4708
2026-01-30 10:59:16.75	213.86	22.89	-40.6	-43.2	12.6	1.04e-04	0	62	0	525336576	53	4675
2026-01-30 10:59:17.76	214.04	23.00	-40.5	-43.1	12.7	6.94e-05	0	62	0	528482304	53	4615
2026-01-30 10:59:18.77	214.23	23.12	-40.5	-43.1	12.7	7.24e-05	0	62	0	531628032	53	4640
2026-01-30 10:59:19.78	214.41	23.23	-40.6	-43.2	12.7	8.46e-05	0	62	0	534773760	53	4683
2026-01-30 10:59:20.79	214.60	23.34	-40.6	-43.2	12.6	9.15e-05	0	62	0	537919488	53	4699
2026-01-30 10:59:21.80	214.79	23.45	-40.6	-43.2	12.6	9.91e-05	0	62	0	541065216	53	4702
2026-01-30 10:59:22.81	214.98	23.57	-40.7	-43.4	12.5	9.76e-05	0	62	0	544210944	53	4764
2026-01-30 10:59:23.82	215.17	23.68	-40.7	-43.4	12.5	1.03e-04	0	62	0	547356672	53	4767
2026-01-30 10:59:24.83	215.37	23.79	-40.6	-43.3	12.6	1.04e-04	0	62	0	550502400	53	4723
2026-01-30 10:59:25.84	215.56	23.91	-40.7	-43.3	12.6	1.02e-04	0	62	0	553648128	53	4729
2026-01-30 10:59:26.85	215.76	24.02	-40.7	-43.3	12.6	1.16e-04	0	62	0	556793856	53	4743
2026-01-30 10:59:27.86	215.96	24.13	-40.7	-43.3	12.6	1.06e-04	0	62	0	559939584	53	4714
2026-01-30 10:59:28.87	216.16	24.25	-40.6	-43.2	12.7	9.23e-05	0	62	0	563085312	53	4653
2026-01-30 10:59:29.88	216.36	24.36	-40.6	-43.2	12.7	9.46e-05	0	62	0	566231040	53	4687
2026-01-30 10:59:30.89	216.56	24.47	-40.7	-43.3	12.6	1.17e-04	0	62	0	569376768	53	4739
2026-01-30 10:59:31.90	216.76	24.59	-40.7	-43.4	12.4	1.11e-04	0	62	0	572522496	53	4805
2026-01-30 10:59:32.91	216.97	24.70	-40.8	-43.5	12.4	1.36e-04	0	62	0	575668224	53	4821
2026-01-30 10:59:33.92	217.17	24.82	-40.8	-43.5	12.4	1.47e-04	0	62	0	578813952	53	4825
2026-01-30 10:59:34.93	217.38	24.93	-40.8	-43.5	12.3	1.72e-04	0	62	0	581959680	53	4852
2026-01-30 10:59:35.94	217.59	25.05	-40.8	-43.5	12.3	1.88e-04	0	62	0	585105408	53	4844
2026-01-30 10:59:36.95	217.80	25.16	-40.8	-43.5	12.4	1.51e-04	0	62	0	588251136	53	4869
2026-01-30 10:59:37.96	218.01	25.27	-40.8	-43.4	12.4	1.20e-04	0	62	0	591396864	53	4813
2026-01-30 10:59:38.98	218.23	25.39	-40.8	-43.5	12.4	1.25e-04	0	62	0	594542592	53	4833
2026-01-30 10:59:39.99	218.45	25.51	-40.7	-43.3	12.6	1.14e-04	0	62	0	597688320	53	4725
2026-01-30 10:59:41.00	218.66	25.62	-40.7	-43.4	12.5	1.05e-04	0	62	0	600834048	53	4789
2026-01-30 10:59:42.01	218.88	25.74	-40.7	-43.3	12.6	9.76e-05	0	62	0	603979776	53	4754
2026-01-30 10:59:43.02	219.10	25.85	-40.7	-43.4	12.6	9.84e-05	0	62	0	607125504	53	4764
2026-01-30 10:59:44.03	219.32	25.97	-40.7	-43.4	12.5	1.07e-04	0	62	0	610271232	53	4783
2026-01-30 10:59:45.04	219.55	26.08	-40.8	-43.4	12.5	1.40e-04	0	62	0	613416960	53	4798
2026-01-30 10:59:46.05	219.77	26.20	-40.8	-43.5	12.5	1.40e-04	0	62	0	616562688	53	4816
2026-01-30 10:59:47.06	220.00	26.31	-40.8	-43.6	12.3	1.62e-04	0	62	0	619708416	53	4883
2026-01-30 10:59:48.07	220.22	26.43	-41.0	-43.7	12.2	2.04e-04	0	62	0	622854144	53	4972
2026-01-30 10:59:49.08	220.45	26.54	-41.0	-43.9	12.1	2.60e-04	0	62	0	625999872	53	5046
2026-01-30 10:59:50.09	220.69	26.66	-41.0	-43.9	12.0	3.19e-04	0	62	0	629145600	53	5051
2026-01-30 10:59:51.10	220.92	26.77	-41.1	-43.9	12.0	3.41e-04	0	62	0	632291328	53	5095
2026-01-30 10:59:52.11	221.15	26.89	-41.1	-44.0	11.9	4.01e-04	0	62	0	635437056	53	5148
2026-01-30 10:59:53.12	221.39	27.00	-41.2	-44.1	11.8	4.50e-04	0	62	0	638582784	53	5177
2026-01-30 10:59:54.13	221.63	27.12	-41.2	-44.1	11.8	5.70e-04	0	62	0	641728512	53	5182
2026-01-30 10:59:55.14	221.87	27.23	-41.2	-44.1	11.8	4.95e-04	0	62	0	644874240	53	5214
2026-01-30 10:59:56.15	222.11	27.35	-41.3	-44.2	11.7	6.30e-04	0	62	0	648019968	53	5257
2026-01-30 10:59:57.16	222.35	27.46	-41.3	-44.2	11.7	6.11e-04	0	62	0	651165696	53	5264
2026-01-30 10:59:58.17	222.59	27.58	-41.2	-44.2	11.7	5.46e-04	0	62	0	655360000	53	5240
2026-01-30 10:59:59.18	222.84	27.69	-41.3	-44.2	11.7	6.18e-04	0	62	0	657457152	53	5254
2026-01-30 11:00:00.19	223.09	27.81	-41.3	-44.2	11.7	5.72e-04	0	62	0	660602880	53	5245
2026-01-30 11:00:01.20	223.34	27.92	-41.2	-44.2	11.7	5.34e-04	0	62	0	663748608	53	5222
2026-01-30 11:00:02.21	223.59	28.04	-41.1	-44.0	11.9	3.85e-04	0	62	0	666894336	53	5117
2026-01-30 11:00:03.22	223.84	28.15	-41.1	-43.9	12.0	3.13e-04	0	62	0	671088640	53	5070
2026-01-30 11:00:04.23	224.10	28.27	-41.1	-43.9	12.0	3.92e-04	0	62	0	674234368	53	5095
2026-01-30 11:00:05.24	224.36	28.38	-41.1	-43.9	12.0	2.93e-04	0	62	0	677380096	53	5063
2026-01-30 11:00:06.25	224.62	28.50	-41.0	-43.9	12.1	3.04e-04	0	62	0	679477248	53	5047
2026-01-30 11:00:07.26	224.88	28.61	-41.1	-43.9	12.1	2.72e-04	0	62	0	682622976	53	5059
2026-01-30 11:00:08.27	225.14	28.72	-40.9	-43.7	12.2	2.08e-04	0	62	0	686817280	53	4942
2026-01-30 11:00:09.28	225.40	28.84	-40.9	-43.6	12.4	1.55e-04	0	62	0	689963008	53	4874
2026-01-30 11:00:10.29	225.67	28.95	-40.9	-43.6	12.3	1.56e-04	0	62	0	693108736	53	4893
2026-01-30 11:00:11.30	225.94	29.06	-41.0	-43.8	12.2	1.94e-04	0	62	0	696254464	53	4989
2026-01-30 11:00:12.31	226.21	29.18	-40.9	-43.7	12.3	1.88e-04	0	62	0	699400192	53	4946
2026-01-30 11:00:13.32	226.48	29.29	-41.0	-43.8	12.2	2.28e-04	0	62	0	702545920	53	4984
2026-01-30 11:00:14.33	226.75	29.40	-41.0	-43.7	12.2	2.26e-04	0	62	0	705691648	53	4969
2026-01-30 11:00:15.34	227.03	29.52	-40.9	-43.6	12.3	1.61e-04	0	62	0	708837376	53	4895
2026-01-30 11:00:16.35	227.30	29.63	-40.9	-43.6	12.3	1.98e-04	0	62	0	711983104	53	4923
2026-01-30 11:00:17.36	227.58	29.74	-40.9	-43.6	12.4	1.52e-04	0	62	0	715128832	53	4890
2026-01-30 11:00:18.37	227.86	29.85	-40.9	-43.6	12.3	1.62e-04	0	62	0	718274560	53	4907
2026-01-30 11:00:19.38	228.15	29.96	-40.9	-43.6	12.3	1.91e-04	0	62	0	721420288	53	4911
2026-01-30 11:00:20.38	228.43	30.07	-40.9	-43.6	12.4	1.68e-04	0	62	0	724566016	53	4877
2026-01-30 11:00:21.40	228.72	30.18	-40.9	-43.6	12.3	1.63e-04	0	62	0	727711744	53	4916
2026-01-30 11:00:22.41	229.01	30.29	-40.9	-43.7	12.3	1.98e-04	0	62	0	730857472	53	4937
2026-01-30 11:00:23.42	229.30	30.40	-40.9	-43.7	12.3	1.82e-04	0	62	0	734003200	53	4928
2026-01-30 11:00:24.43	229.59	30.51	-41.0	-43.7	12.2	1.76e-04	0	62	0	737148928	53	4965
2026-01-30 11:00:25.44	229.89	30.62	-41.1	-43.9	12.1	2.97e-04	0	62	0	740294656	53	5051
2026-01-30 11:00:26.45	230.18	30.73	-41.1	-43.9	12.0	2.68e-04	0	62	0	743440384	53	5066
2026-01-30 11:00:27.46	230.48	30.84	-41.1	-43.9	12.0	3.03e-04	0	62	0	746586112	53	5086
2026-01-30 11:00:28.47	230.78	30.95	-41.1	-44.0	12.0	3.55e-04	0	62	0	749731840	53	5115
2026-01-30 11:00:29.48	231.08	31.05	-41.2	-44.0	11.9	3.84e-04	0	62	0	752877568	53	5142
2026-01-30 11:00:30.49	231.39	31.16	-41.1	-44.0	12.0	3.71e-04	0	62	0	756023296	53	5107
2026-01-30 11:00:31.50	231.69	31.27	-41.1	-44.0	11.9	3.51e-04	0	62	0	759169024	53	5138
2026-01-30 11:00:32.52	232.00	31.37	-41.2	-44.1	11.8	4.16e-04	0	62	0	762314752	53	5177
2026-01-30 11:00:33.53	232.32	31.48	-41.2	-44.0	11.9	4.17e-04	0	62	0	765460480	53	5145
2026-01-30 11:00:34.54	232.63	31.58	-41.2	-44.1	11.8	4.56e-04	0	62	0	768606208	53	5165
2026-01-30 11:00:35.55	232.94	31.69	-41.2	-44.1	11.8	4.69e-04	0	62	0	771751936	53	5200
2026-01-30 11:00:36.56	233.26	31.79	-41.2	-44.1	11.8	4.36e-04	0	62	0	774897664	53	5206
2026-01-30 11:00:37.57	233.58	31.89	-41.3	-44.2	11.8	4.98e-04	0	62	0	778043392	53	5245
2026-01-30 11:00:38.58	233.90	32.00	-41.4	-44.3	11.6	6.19e-04	0	62	0	781189120	53	5331
2026-01-30 11:00:39.59	234.22	32.10	-41.4	-44.4	11.5	7.95e-04	0	62	0	784334848	53	5379
2026-01-30 11:00:40.60	234.54	32.20	-41.4	-44.5	11.4	9.21e-04	0	62	0	787480576	53	5426
2026-01-30 11:00:41.61	234.87	32.30	-41.4	-44.5	11.4	9.81e-04	0	62	0	790626304	53	5434
2026-01-30 11:00:42.61	235.19	32.40	-41.5	-44.6	11.3	9.75e-04	0	62	0	793772032	53	5508
2026-01-30 11:00:43.62	235.52	32.50	-41.5	-44.6	11.3	1.12e-03	0	62	0	796917760	53	5515
2026-01-30 11:00:44.63	235.86	32.60	-41.5	-44.6	11.3	1.18e-03	0	62	0	800063488	53	5513
2026-01-30 11:00:45.64	236.19	32.69	-41.6	-44.7	11.3	1.10e-03	0	62	0	803209216	53	5544
2026-01-30 11:00:46.65	236.53	32.79	-41.6	-44.8	11.1	1.36e-03	0	62	0	806354944	53	5621
2026-01-30 11:00:47.66	236.86	32.89	-41.7	-44.9	11.0	1.72e-03	0	62	0	809500672	53	5663
2026-01-30 11:00:48.67	237.20	32.98	-41.8	-45.0	10.9	1.99e-03	0	62	0	812646400	54	5442
2026-01-30 11:00:49.68	237.55	33.08	-41.7	-45.0	10.9	2.31e-03	0	62	0	815792128	54	5443
2026-01-30 11:00:50.69	237.89	33.17	-41.8	-45.2	10.7	2.68e-03	0	62	0	818937856	54	5544
2026-01-30 11:00:51.70	238.23	33.26	-41.8	-45.2	10.7	2.85e-03	0	62	0	822083584	54	5537
2026-01-30 11:00:52.71	238.58	33.35	-41.8	-45.2	10.7	2.82e-03	0	62	0	825229312	54	5546
2026-01-30 11:00:53.72	238.93	33.45	-41.8	-45.1	10.9	2.44e-03	0	62	0	828375040	54	5472
2026-01-30 11:00:54.73	239.28	33.54	-41.7	-44.9	11.0	2.02e-03	0	62	0	831520768	54	5390
2026-01-30 11:00:55.74	239.64	33.62	-41.7	-45.0	10.9	2.09e-03	0	62	0	834666496	54	5419
2026-01-30 11:00:56.75	239.99	33.71	-41.8	-45.2	10.8	2.70e-03	0	62	0	837812224	54	5533
2026-01-30 11:00:57.76	240.35	33.80	-41.8	-45.1	10.8	2.51e-03	0	62	0	840957952	54	5514
2026-01-30 11:00:58.77	240.71	33.89	-41.8	-45.2	10.8	2.79e-03	0	62	0	844103680	54	5545
2026-01-30 11:00:59.78	241.07	33.97	-41.8	-45.0	10.8	2.53e-03	0	62	0	847249408	54	5458
2026-01-30 11:01:00.79	241.43	34.06	-41.8	-45.0	10.9	2.35e-03	0	62	0	850395136	54	5456
2026-01-30 11:01:01.80	241.80	34.14	-41.8	-45.0	10.9	2.48e-03	0	62	0	853540864	54	5447
2026-01-30 11:01:02.81	242.16	34.22	-41.8	-45.1	10.8	2.34e-03	0	62	0	856686592	54	5479
2026-01-30 11:01:03.82	242.53	34.30	-41.8	-45.1	10.8	2.61e-03	0	62	0	859832320	54	5490
2026-01-30 11:01:04.83	242.90	34.38	-41.7	-44.9	11.0	1.91e-03	0	62	0	862978048	54	5375
2026-01-30 11:01:05.84	243.27	34.46	-41.6	-44.7	11.2	1.75e-03	0	62	0	866123776	54	5263
2026-01-30 11:01:06.85	243.65	34.54	-41.5	-44.6	11.3	1.19e-03	0	62	0	869269504	54	5173
2026-01-30 11:01:07.86	244.02	34.62	-41.5	-44.6	11.3	9.44e-04	0	62	0	872415232	54	5171
2026-01-30 11:01:08.87	244.40	34.69	-41.6	-44.8	11.1	1.51e-03	0	62	0	875560960	54	5309
2026-01-30 11:01:09.88	244.78	34.77	-41.7	-44.9	10.9	1.84e-03	0	62	0	878706688	54	5386
2026-01-30 11:01:10.89	245.16	34.84	-41.7	-45.0	10.9	2.17e-03	0	62	0	881852416	54	5432
2026-01-30 11:01:11.90	245.54	34.91	-41.7	-45.0	10.9	2.26e-03	0	62	0	884998144	54	5448
2026-01-30 11:01:12.91	245.92	34.98	-41.8	-45.0	10.9	2.21e-03	0	62	0	888143872	54	5451
2026-01-30 11:01:13.92	246.31	35.05	-41.9	-45.2	10.7	2.46e-03	0	62	0	891289600	54	5547
2026-01-30 11:01:14.93	246.70	35.12	-41.6	-44.8	11.1	1.78e-03	0	62	0	894435328	54	5304
2026-01-30 11:01:15.94	247.08	35.19	-41.7	-44.8	11.1	1.56e-03	0	62	0	897581056	54	5338
2026-01-30 11:01:16.95	247.47	35.25	-41.8	-45.0	10.9	2.16e-03	0	62	0	900726784	54	5436
2026-01-30 11:01:17.96	247.87	35.32	-41.9	-45.3	10.7	2.80e-03	0	62	0	903872512	54	5594
2026-01-30 11:01:18.97	248.26	35.38	-41.8	-45.2	10.7	3.02e-03	0	62	0	907018240	54	5531
2026-01-30 11:01:19.98	248.65	35.44	-41.7	-44.9	11.0	2.32e-03	0	62	0	910163968	54	5350
2026-01-30 11:01:20.99	249.05	35.50	-41.5	-44.6	11.3	1.23e-03	0	62	0	913309696	54	5206
2026-01-30 11:01:22.00	249.45	35.56	-41.5	-44.6	11.3	1.21e-03	0	62	0	916455424	54	5205
2026-01-30 11:01:23.01	249.85	35.62	-41.6	-44.8	11.1	1.50e-03	0	62	0	919601152	54	5288
2026-01-30 11:01:24.02	250.25	35.67	-41.7	-44.8	11.1	1.61e-03	0	62	0	922746880	54	5335
2026-01-30 11:01:25.03	250.65	35.73	-41.7	-45.0	11.0	1.93e-03	0	62	0	925892608	54	5415
2026-01-30 11:01:26.04	251.05	35.78	-41.6	-44.8	11.1	1.68e-03	0	62	0	929038336	54	5295
2026-01-30 11:01:27.05	251.45	35.83	-41.7	-44.8	11.1	1.50e-03	0	62	0	932184064	54	5332
2026-01-30 11:01:28.06	251.86	35.88	-41.7	-44.9	11.0	1.86e-03	0	62	0	935329792	54	5387
2026-01-30 11:01:29.06	252.26	35.93	-41.7	-45.0	10.8	1.98e-03	0	62	0	938475520	54	5449
2026-01-30 11:01:30.07	252.67	35.98	-41.8	-45.1	10.7	2.82e-03	0	62	0	941621248	54	5526
2026-01-30 11:01:31.08	253.08	36.02	-41.8	-45.1	10.8	2.66e-03	0	62	0	944766976	54	5513
2026-01-30 11:01:32.09	253.49	36.06	-41.7	-44.9	11.0	2.00e-03	0	62	0	947912704	54	5374
2026-01-30 11:01:33.10	253.90	36.11	-41.6	-44.8	11.1	1.52e-03	0	62	0	951058432	54	5309
2026-01-30 11:01:34.11	254.31	36.15	-41.7	-44.8	11.1	1.62e-03	0	62	0	954204160	54	5327
2026-01-30 11:01:35.12	254.72	36.19	-41.8	-45.2	10.8	2.08e-03	0	62	0	957349888	54	5532
2026-01-30 11:01:36.13	255.14	36.22	-42.0	-45.5	10.4	3.73e-03	0	62	0	960495616	54	5726
2026-01-30 11:01:37.14	255.55	36.26	-42.0	-45.5	10.4	4.55e-03	0	62	0	963641344	54	5764
2026-01-30 11:01:38.15	255.97	36.29	-42.0	-45.4	10.4	4.54e-03	0	62	0	966787072	54	5716
2026-01-30 11:01:39.17	256.39	36.33	-41.9	-45.4	10.5	3.65e-03	0	62	0	970981376	54	5661
2026-01-30 11:01:40.18	256.81	36.36	-41.9	-45.2	10.7	2.97e-03	0	62	0	973078528	54	5573
2026-01-30 11:01:41.19	257.22	36.39	-41.9	-45.4	10.5	3.42e-03	0	62	0	976224256	54	5658
2026-01-30 11:01:42.20	257.64	36.42	-41.9	-45.3	10.6	3.12e-03	0	62	0	979369984	54	5612
2026-01-30 11:01:43.21	258.06	36.44	-41.9	-45.3	10.6	3.81e-03	0	62	0	982515712	54	5620
2026-01-30 11:01:44.22	258.48	36.47	-42.0	-45.4	10.5	3.84e-03	0	62	0	986710016	54	5691
2026-01-30 11:01:45.22	258.90	36.49	-42.0	-45.5	10.4	4.17e-03	0	62	0	989855744	54	5741
2026-01-30 11:01:46.23	259.32	36.51	-42.1	-45.6	10.3	4.88e-03	0	62	0	993001472	54	5797
2026-01-30 11:01:47.24	259.74	36.53	-42.0	-45.5	10.4	4.69e-03	0	62	0	996147200	54	5785
2026-01-30 11:01:48.25	260.16	36.55	-42.0	-45.4	10.5	4.76e-03	0	62	0	998244352	54	5686
2026-01-30 11:01:49.26	260.59	36.56	-41.8	-45.2	10.7	2.97e-03	0	62	0	1001390080	54	5541
2026-01-30 11:01:50.27	261.01	36.58	-41.8	-45.0	10.9	2.42e-03	0	62	0	1005584384	54	5450
2026-01-30 11:01:51.28	261.43	36.59	-41.8	-45.1	10.8	2.41e-03	0	62	0	1008730112	54	5521
2026-01-30 11:01:52.29	261.86	36.60	-41.8	-45.1	10.7	2.84e-03	0	62	0	1011875840	54	5517
2026-01-30 11:01:53.31	262.28	36.61	-41.8	-45.1	10.8	2.63e-03	0	62	0	1015021568	54	5493
2026-01-30 11:01:54.32	262.71	36.62	-41.8	-45.1	10.8	2.37e-03	0	62	0	1018167296	54	5493
2026-01-30 11:01:55.33	263.13	36.62	-41.7	-45.0	10.9	2.33e-03	0	62	0	1021313024	54	5423
2026-01-30 11:01:56.34	263.56	36.62	-41.8	-45.0	10.9	2.14e-03	0	62	0	1024458752	54	5460
2026-01-30 11:01:57.35	263.98	36.63	-41.8	-45.1	10.8	2.42e-03	0	62	0	1027604480	54	5495
2026-01-30 11:01:58.36	264.40	36.63	-41.8	-45.1	10.8	2.46e-03	0	62	0	1030750208	54	5483
2026-01-30 11:01:59.37	264.83	36.63	-41.8	-45.1	10.7	2.65e-03	0	62	0	1033895936	54	5501
2026-01-30 11:02:00.38	265.25	36.62	-41.8	-45.1	10.8	2.39e-03	0	62	0	1037041664	54	5519
2026-01-30 11:02:01.38	265.67	36.62	-41.9	-45.2	10.7	3.14e-03	0	62	0	1040187392	54	5589
2026-01-30 11:02:02.40	266.10	36.61	-41.9	-45.3	10.6	3.38e-03	0	62	0	1043333120	54	5617
2026-01-30 11:02:03.40	266.52	36.60	-41.9	-45.2	10.7	3.20e-03	0	62	0	1046478848	54	5570
2026-01-30 11:02:04.41	266.94	36.59	-41.7	-44.9	11.0	1.93e-03	0	62	0	1049624576	54	5360
2026-01-30 11:02:05.43	267.37	36.58	-41.6	-44.8	11.2	1.44e-03	0	62	0	1052770304	54	5304
2026-01-30 11:02:06.43	267.79	36.57	-41.7	-44.9	11.0	1.66e-03	0	62	0	1055916032	54	5376
2026-01-30 11:02:07.45	268.22	36.55	-41.7	-44.9	11.1	1.58e-03	0	62	0	1059061760	54	5349
2026-01-30 11:02:08.46	268.64	36.54	-41.7	-44.8	11.1	1.55e-03	0	62	0	1062207488	54	5324
2026-01-30 11:02:09.46	269.06	36.52	-41.7	-44.8	11.1	1.57e-03	0	62	0	1065353216	54	5338
2026-01-30 11:02:10.47	269.48	36.50	-41.7	-44.9	11.0	1.75e-03	0	62	0	1068498944	54	5372
2026-01-30 11:02:11.49	269.90	36.48	-41.8	-45.1	10.8	2.33e-03	0	62	0	1071644672	54	5494
2026-01-30 11:02:12.50	270.32	36.45	-42.0	-45.3	10.5	3.55e-03	0	62	0	1074790400	54	5654
2026-01-30 11:02:13.51	270.74	36.43	-42.0	-45.4	10.5	3.80e-03	0	62	0	1077936128	54	5670
2026-01-30 11:02:14.52	271.16	36.40	-42.0	-45.4	10.5	3.85e-03	0	62	0	1081081856	54	5716
2026-01-30 11:02:15.53	271.58	36.37	-41.9	-45.3	10.6	3.31e-03	0	62	0	1084227584	54	5635
2026-01-30 11:02:16.53	271.99	36.34	-42.0	-45.4	10.5	3.96e-03	0	62	0	1087373312	54	5700
2026-01-30 11:02:17.54	272.41	36.31	-42.0	-45.4	10.5	4.21e-03	0	62	0	1090519040	54	5704
2026-01-30 11:02:18.55	272.82	36.28	-42.0	-45.5	10.4	4.23e-03	0	62	0	1093664768	54	5726
2026-01-30 11:02:19.56	273.24	36.24	-42.0	-45.4	10.6	3.65e-03	0	62	0	1096810496	54	5676
2026-01-30 11:02:20.57	273.65	36.20	-41.9	-45.2	10.7	2.92e-03	0	62	0	1099956224	54	5579
2026-01-30 11:02:21.58	274.06	36.17	-41.9	-45.3	10.6	3.05e-03	0	62	0	1103101952	54	5632
2026-01-30 11:02:22.59	274.48	36.13	-41.9	-45.3	10.5	3.73e-03	0	62	0	1106247680	54	5643
2026-01-30 11:02:23.60	274.89	36.08	-42.0	-45.4	10.5	3.71e-03	0	62	0	1109393408	54	5671
2026-01-30 11:02:24.61	275.30	36.04	-41.9	-45.3	10.7	3.41e-03	0	62	0	1112539136	54	5606
2026-01-30 11:02:25.62	275.70	36.00	-41.9	-45.3	10.6	3.78e-03	0	62	0	1115684864	54	5617
2026-01-30 11:02:26.63	276.11	35.95	-41.9	-45.3	10.6	3.62e-03	0	62	0	1118830592	54	5631
2026-01-30 11:02:27.64	276.52	35.90	-42.0	-45.5	10.4	4.30e-03	0	62	0	1121976320	54	5737
2026-01-30 11:02:28.65	276.92	35.85	-42.1	-45.6	10.3	5.52e-03	0	62	0	1125122048	54	5820
2026-01-30 11:02:29.65	277.32	35.80	-42.1	-45.7	10.2	6.55e-03	0	62	0	1128267776	54	5897
2026-01-30 11:02:30.66	277.73	35.75	-42.1	-45.6	10.3	5.46e-03	0	62	0	1131413504	54	5811
2026-01-30 11:02:31.67	278.13	35.70	-41.9	-45.3	10.5	4.08e-03	0	62	0	1134559232	54	5655
2026-01-30 11:02:32.68	278.53	35.64	-41.9	-45.3	10.6	3.57e-03	0	62	0	1137704960	54	5597
2026-01-30 11:02:33.69	278.93	35.59	-41.9	-45.2	10.7	3.03e-03	0	62	0	1140850688	54	5568
2026-01-30 11:02:34.70	279.32	35.53	-41.8	-45.2	10.7	3.23e-03	0	62	0	1143996416	54	5543
2026-01-30 11:02:35.71	279.72	35.47	-41.9	-45.2	10.7	3.02e-03	0	62	0	1147142144	54	5585
2026-01-30 11:02:36.72	280.11	35.41	-41.9	-45.3	10.5	3.40e-03	0	62	0	1150287872	54	5656
2026-01-30 11:02:37.73	280.51	35.35	-41.9	-45.2	10.7	2.95e-03	0	62	0	1153433600	54	5559
2026-01-30 11:02:38.74	280.90	35.28	-41.9	-45.3	10.6	3.14e-03	0	62	0	1156579328	54	5601
2026-01-30 11:02:39.75	281.29	35.22	-41.9	-45.3	10.5	4.05e-03	0	62	0	1159725056	54	5646
2026-01-30 11:02:40.76	281.68	35.15	-42.0	-45.4	10.5	3.89e-03	0	62	0	1162870784	54	5677
2026-01-30 11:02:41.77	282.06	35.09	-42.0	-45.5	10.4	4.66e-03	0	62	0	1166016512	54	5747
2026-01-30 11:02:42.78	282.45	35.02	-42.1	-45.6	10.3	5.27e-03	0	62	0	1169162240	54	5825
2026-01-30 11:02:43.79	282.83	34.95	-41.9	-45.4	10.5	4.48e-03	0	62	0	1172307968	54	5659
2026-01-30 11:02:44.80	283.21	34.88	-41.8	-45.0	10.9	2.73e-03	0	62	0	1175453696	54	5458
2026-01-30 11:02:45.81	283.59	34.80	-41.8	-45.1	10.9	2.20e-03	0	62	0	1178599424	54	5467
2026-01-30 11:02:46.82	283.97	34.73	-41.7	-44.9	11.0	2.09e-03	0	62	0	1181745152	54	5402
2026-01-30 11:02:47.83	284.35	34.66	-41.8	-45.1	10.8	2.08e-03	0	62	0	1184890880	54	5470
2026-01-30 11:02:48.84	284.72	34.58	-41.8	-45.1	10.8	2.45e-03	0	62	0	1188036608	54	5485
2026-01-30 11:02:49.85	285.10	34.50	-41.8	-45.2	10.8	2.62e-03	0	62	0	1191182336	54	5539
2026-01-30 11:02:50.86	285.47	34.42	-41.7	-44.9	11.0	2.04e-03	0	62	0	1194328064	54	5357
2026-01-30 11:02:51.87	285.84	34.35	-41.7	-44.9	11.0	1.80e-03	0	62	0	1197473792	54	5348
2026-01-30 11:02:52.88	286.21	34.26	-41.7	-44.9	11.0	1.90e-03	0	62	0	1200619520	54	5395
2026-01-30 11:02:53.89	286.57	34.18	-41.6	-44.8	11.1	1.58e-03	0	62	0	1203765248	54	5303
2026-01-30 11:02:54.89	286.93	34.10	-41.5	-44.6	11.3	1.29e-03	0	62	0	1206910976	54	5208
2026-01-30 11:02:55.90	287.30	34.02	-41.4	-44.5	11.4	1.09e-03	0	62	0	1210056704	54	5113
2026-01-30 11:02:56.91	287.66	33.93	-41.5	-44.5	11.4	1.04e-03	0	62	0	1213202432	54	5157
2026-01-30 11:02:57.92	288.02	33.85	-41.7	-44.8	11.1	1.66e-03	0	62	0	1216348160	54	5331
2026-01-30 11:02:58.94	288.38	33.76	-41.8	-45.2	10.7	2.62e-03	0	62	0	1219493888	54	5532
2026-01-30 11:02:59.95	288.73	33.67	-41.7	-45.0	10.9	2.46e-03	0	62	0	1222639616	54	5443
2026-01-30 11:03:00.96	289.08	33.59	-41.7	-44.9	11.0	1.98e-03	0	62	0	1225785344	54	5345
2026-01-30 11:03:01.97	289.44	33.50	-41.6	-44.7	11.1	1.63e-03	0	62	0	1228931072	54	5276
2026-01-30 11:03:02.97	289.78	33.41	-41.6	-44.7	11.2	1.44e-03	0	62	0	1232076800	54	5229
2026-01-30 11:03:03.98	290.13	33.32	-41.6	-44.7	11.2	1.42e-03	0	62	0	1235222528	54	5264
2026-01-30 11:03:04.99	290.48	33.22	-41.6	-44.7	11.2	1.34e-03	0	62	0	1238368256	54	5250
2026-01-30 11:03:06.00	290.82	33.13	-41.5	-44.6	11.2	1.34e-03	0	62	0	1241513984	54	5205
2026-01-30 11:03:07.01	291.16	33.04	-41.5	-44.7	11.2	1.24e-03	0	62	0	1244659712	54	5230
2026-01-30 11:03:08.02	291.50	32.94	-41.6	-44.7	11.2	1.34e-03	0	62	0	1247805440	54	5265
2026-01-30 11:03:09.03	291.84	32.85	-41.6	-44.7	11.2	1.42e-03	0	62	0	1250951168	54	5277
2026-01-30 11:03:10.04	292.17	32.75	-41.4	-44.5	11.4	1.20e-03	0	62	0	1254096896	54	5132
2026-01-30 11:03:11.05	292.51	32.65	-41.4	-44.4	11.5	7.65e-04	0	62	0	1257242624	54	5064
2026-01-30 11:03:12.06	292.84	32.56	-41.4	-44.4	11.5	7.65e-04	0	62	0	1260388352	54	5073
2026-01-30 11:03:13.07	293.17	32.46	-41.3	-44.2	11.7	5.81e-04	0	62	0	1263534080	54	4941
2026-01-30 11:03:14.09	293.50	32.36	-41.1	-44.0	11.9	3.68e-04	0	62	0	1266679808	54	4830
2026-01-30 11:03:15.10	293.83	32.26	-41.1	-44.0	12.0	4.05e-04	0	62	0	1269825536	54	4827
2026-01-30 11:03:16.11	294.15	32.16	-41.2	-44.1	11.8	5.14e-04	0	62	0	1272971264	54	4921
2026-01-30 11:03:17.12	294.47	32.06	-41.3	-44.3	11.7	5.55e-04	0	62	0	1276116992	54	4988
2026-01-30 11:03:18.13	294.79	31.96	-41.3	-44.2	11.6	6.71e-04	0	62	0	1279262720	54	4977
2026-01-30 11:03:19.14	295.11	31.86	-41.3	-44.3	11.6	6.36e-04	0	62	0	1282408448	54	5006
2026-01-30 11:03:20.15	295.43	31.75	-41.2	-44.2	11.7	5.50e-04	0	62	0	1285554176	54	4941
2026-01-30 11:03:21.16	295.74	31.65	-41.3	-44.2	11.7	5.88e-04	0	62	0	1288699904	54	4973
2026-01-30 11:03:22.17	296.05	31.55	-41.2	-44.1	11.7	5.11e-04	0	62	0	1291845632	54	4923
2026-01-30 11:03:23.18	296.36	31.44	-41.2	-44.1	11.8	4.66e-04	0	62	0	1294991360	54	4875
2026-01-30 11:03:24.19	296.67	31.34	-41.2	-44.0	11.8	4.35e-04	0	62	0	1298137088	54	4870
2026-01-30 11:03:25.20	296.98	31.23	-41.0	-43.8	12.1	3.33e-04	0	62	0	1301282816	54	4745
2026-01-30 11:03:26.21	297.28	31.12	-41.0	-43.8	12.1	3.04e-04	0	62	0	1304428544	54	4719
2026-01-30 11:03:27.22	297.58	31.02	-41.0	-43.8	12.0	2.72e-04	0	62	0	1308622848	54	4745
2026-01-30 11:03:28.23	297.88	30.91	-41.1	-43.9	11.9	3.60e-04	0	62	0	1311768576	54	4793
2026-01-30 11:03:29.24	298.18	30.80	-41.1	-44.1	11.8	4.22e-04	0	62	0	1313865728	54	4877
2026-01-30 11:03:30.25	298.48	30.70	-41.2	-44.2	11.7	4.83e-04	0	62	0	1317011456	54	4934
2026-01-30 11:03:31.27	298.78	30.59	-41.3	-44.2	11.6	7.25e-04	0	62	0	1321205760	54	4978
2026-01-30 11:03:32.28	299.07	30.48	-41.2	-44.2	11.7	5.55e-04	0	62	0	1324351488	54	4929
2026-01-30 11:03:33.29	299.36	30.37	-41.2	-44.2	11.7	5.19e-04	0	62	0	1327497216	54	4946
2026-01-30 11:03:34.30	299.65	30.26	-41.2	-44.1	11.7	5.26e-04	0	62	0	1330642944	54	4899
2026-01-30 11:03:35.31	299.93	30.15	-41.2	-44.1	11.7	5.72e-04	0	62	0	1333788672	54	4909
2026-01-30 11:03:36.32	300.22	30.04	-41.1	-44.0	11.9	4.41e-04	0	62	0	1336934400	54	4848
2026-01-30 11:03:37.33	300.50	29.93	-41.1	-44.0	11.9	4.76e-04	0	62	0	1340080128	54	4831
2026-01-30 11:03:38.34	300.78	29.82	-41.1	-44.0	11.8	4.36e-04	0	62	0	1343225856	54	4866
2026-01-30 11:03:39.35	301.06	29.71	-41.2	-44.1	11.7	5.84e-04	0	62	0	1346371584	54	4921
2026-01-30 11:03:40.36	301.34	29.60	-41.2	-44.1	11.7	6.61e-04	0	62	0	1349517312	54	4922
2026-01-30 11:03:41.37	301.61	29.49	-41.2	-44.2	11.6	6.98e-04	0	62	0	1352663040	54	4981
2026-01-30 11:03:42.39	301.89	29.37	-41.2	-44.1	11.7	5.66e-04	0	62	0	1355808768	54	4894
2026-01-30 11:03:43.39	302.16	29.26	-41.2	-44.1	11.7	5.35e-04	0	62	0	1358954496	54	4898
2026-01-30 11:03:44.40	302.43	29.15	-41.2	-44.1	11.7	5.59e-04	0	62	0	1362100224	54	4887
2026-01-30 11:03:45.42	302.70	29.04	-41.1	-44.0	11.9	5.22e-04	0	62	0	1365245952	54	4820
2026-01-30 11:03:46.43	302.97	28.92	-40.9	-43.6	12.2	3.11e-04	0	62	0	1368391680	53	4905
2026-01-30 11:03:47.44	303.23	28.81	-40.7	-43.3	12.5	1.20e-04	0	62	0	1371537408	53	4737
2026-01-30 11:03:48.45	303.49	28.70	-40.6	-43.2	12.6	7.01e-05	0	62	0	1374683136	53	4657
2026-01-30 11:03:49.46	303.75	28.59	-40.6	-43.2	12.6	7.62e-05	0	62	0	1377828864	53	4681
2026-01-30 11:03:50.47	304.01	28.47	-40.6	-43.2	12.6	1.08e-04	0	62	0	1380974592	53	4670
2026-01-30 11:03:51.48	304.27	28.36	-40.6	-43.2	12.6	1.07e-04	0	62	0	1384120320	53	4699
2026-01-30 11:03:52.49	304.52	28.25	-40.6	-43.2	12.5	1.03e-04	0	62	0	1387266048	53	4704
2026-01-30 11:03:53.50	304.78	28.13	-40.6	-43.1	12.7	8.39e-05	0	62	0	1390411776	53	4648
2026-01-30 11:03:54.51	305.03	28.02	-40.5	-43.1	12.7	7.47e-05	0	62	0	1393557504	53	4622
2026-01-30 11:03:55.52	305.28	27.90	-40.6	-43.3	12.5	8.23e-05	0	62	0	1396703232	53	4713
2026-01-30 11:03:56.53	305.53	27.79	-40.7	-43.3	12.4	1.27e-04	0	63	0	1399848960	53	4753
2026-01-30 11:03:57.55	305.78	27.67	-40.8	-43.6	12.2	1.58e-04	0	62	0	1402994688	53	4871
2026-01-30 11:03:58.56	306.02	27.56	-40.8	-43.6	12.2	2.23e-04	0	62	0	1406140416	53	4877
2026-01-30 11:03:59.57	306.26	27.45	-40.8	-43.6	12.2	2.14e-04	0	62	0	1409286144	53	4886
2026-01-30 11:04:00.58	306.50	27.33	-40.8	-43.6	12.2	2.38e-04	0	62	0	1412431872	53	4887
2026-01-30 11:04:01.59	306.74	27.22	-40.8	-43.5	12.2	1.77e-04	0	62	0	1415577600	53	4862
2026-01-30 11:04:02.60	306.98	27.10	-40.7	-43.4	12.4	1.47e-04	0	62	0	1418723328	53	4777
2026-01-30 11:04:03.61	307.22	26.99	-40.7	-43.4	12.4	1.49e-04	0	62	0	1421869056	53	4788
2026-01-30 11:04:04.62	307.45	26.87	-40.7	-43.4	12.4	1.54e-04	0	62	0	1425014784	53	4776
2026-01-30 11:04:05.63	307.69	26.76	-40.7	-43.4	12.4	1.24e-04	0	62	0	1428160512	53	4779
2026-01-30 11:04:06.64	307.92	26.65	-40.7	-43.4	12.4	1.41e-04	0	62	0	1431306240	53	4761
2026-01-30 11:04:07.64	308.14	26.53	-40.7	-43.4	12.4	1.47e-04	0	62	0	1434451968	53	4772
2026-01-30 11:04:08.66	308.37	26.42	-40.7	-43.4	12.4	1.57e-04	0	62	0	1437597696	53	4779
2026-01-30 11:04:09.67	308.60	26.30	-40.7	-43.4	12.4	1.73e-04	0	62	0	1440743424	53	4779
2026-01-30 11:04:10.68	308.83	26.19	-40.7	-43.4	12.4	1.58e-04	0	62	0	1443889152	53	4792
2026-01-30 11:04:11.68	309.05	26.07	-40.7	-43.5	12.3	1.81e-04	0	62	0	1447034880	53	4828
2026-01-30 11:04:12.69	309.27	25.96	-40.8	-43.5	12.2	1.97e-04	0	62	0	1450180608	53	4866
2026-01-30 11:04:13.70	309.49	25.85	-40.8	-43.5	12.2	2.11e-04	0	62	0	1453326336	53	4849
2026-01-30 11:04:14.71	309.71	25.73	-40.7	-43.5	12.3	2.02e-04	0	62	0	1456472064	53	4827
2026-01-30 11:04:15.72	309.92	25.62	-40.7	-43.3	12.4	1.52e-04	0	62	0	1459617792	53	4752
2026-01-30 11:04:16.73	310.14	25.50	-40.6	-43.3	12.4	1.33e-04	0	62	0	1462763520	53	4747
2026-01-30 11:04:17.74	310.35	25.39	-40.7	-43.4	12.3	1.53e-04	0	62	0	1465909248	53	4790
2026-01-30 11:04:18.76	310.57	25.27	-40.7	-43.4	12.3	2.21e-04	0	62	0	1469054976	53	4785
2026-01-30 11:04:19.77	310.78	25.16	-40.8	-43.6	12.1	2.53e-04	0	62	0	1472200704	53	4894
2026-01-30 11:04:20.78	310.99	25.05	-40.7	-43.5	12.2	2.61e-04	0	62	0	1475346432	53	4853
2026-01-30 11:04:21.79	311.20	24.93	-40.7	-43.5	12.1	2.51e-04	0	62	0	1478492160	53	4850
2026-01-30 11:04:22.80	311.40	24.82	-40.8	-43.6	12.1	2.68e-04	0	62	0	1481637888	53	4872
2026-01-30 11:04:23.81	311.61	24.71	-40.8	-43.6	12.1	2.84e-04	0	62	0	1484783616	53	4892
2026-01-30 11:04:24.82	311.81	24.59	-40.8	-43.6	12.1	2.74e-04	0	62	0	1487929344	53	4903
2026-01-30 11:04:25.83	312.01	24.48	-40.8	-43.7	12.0	3.28e-04	0	62	0	1491075072	53	4941
2026-01-30 11:04:26.84	312.21	24.37	-40.7	-43.4	12.3	2.51e-04	0	62	0	1494220800	53	4770
2026-01-30 11:04:27.85	312.41	24.25	-40.6	-43.3	12.3	1.73e-04	0	62	0	1497366528	53	4742
2026-01-30 11:04:28.86	312.61	24.14	-40.6	-43.2	12.5	1.45e-04	0	62	0	1500512256	53	4688
2026-01-30 11:04:29.87	312.81	24.03	-40.6	-43.3	12.4	1.59e-04	0	62	0	1503657984	53	4712
2026-01-30 11:04:30.88	313.00	23.92	-40.6	-43.3	12.3	1.74e-04	0	62	0	1506803712	53	4743
2026-01-30 11:04:31.90	313.20	23.80	-40.6	-43.3	12.4	1.61e-04	0	62	0	1509949440	53	4717
2026-01-30 11:04:32.90	313.39	23.69	-40.6	-43.2	12.4	1.22e-04	0	62	0	1513095168	53	4688
2026-01-30 11:04:33.91	313.58	23.58	-40.6	-43.2	12.4	1.33e-04	0	62	0	1516240896	53	4704
2026-01-30 11:04:34.92	313.77	23.47	-40.6	-43.4	12.3	1.79e-04	0	62	0	1519386624	53	4767
2026-01-30 11:04:35.94	313.96	23.35	-40.6	-43.3	12.3	1.67e-04	0	62	0	1522532352	53	4728
2026-01-30 11:04:36.95	314.15	23.24	-40.6	-43.4	12.3	2.01e-04	0	62	0	1525678080	53	4782
2026-01-30 11:04:37.96	314.34	23.13	-40.7	-43.4	12.2	2.24e-04	0	62	0	1528823808	53	4806
2026-01-30 11:04:38.97	314.52	23.02	-40.7	-43.4	12.2	2.37e-04	0	62	0	1531969536	53	4797
2026-01-30 11:04:39.98	314.70	22.91	-40.7	-43.5	12.1	2.72e-04	0	62	0	1535115264	53	4860
2026-01-30 11:04:40.99	314.89	22.80	-40.8	-43.6	12.0	2.84e-04	0	62	0	1538260992	53	4890
2026-01-30 11:04:42.00	315.07	22.69	-40.8	-43.6	12.0	2.95e-04	0	62	0	1541406720	53	4873
2026-01-30 11:04:43.01	315.25	22.58	-40.8	-43.7	11.9	4.18e-04	0	62	0	1544552448	53	4968
2026-01-30 11:04:44.02	315.42	22.47	-40.9	-43.8	11.8	4.90e-04	0	62	0	1547698176	53	5021
2026-01-30 11:04:45.03	315.60	22.36	-40.9	-43.8	11.8	5.39e-04	0	62	0	1550843904	53	5019
2026-01-30 11:04:46.04	315.78	22.25	-40.8	-43.7	11.9	4.13e-04	0	62	0	1553989632	53	4945
2026-01-30 11:04:47.05	315.95	22.14	-40.8	-43.7	11.9	4.39e-04	0	62	0	1557135360	53	4951
2026-01-30 11:04:48.06	316.13	22.03	-40.9	-43.8	11.8	4.68e-04	0	62	0	1560281088	53	5009
2026-01-30 11:04:49.07	316.30	21.92	-40.8	-43.7	11.9	4.10e-04	0	62	0	1563426816	53	4944
2026-01-30 11:04:50.08	316.47	21.81	-40.8	-43.7	11.8	4.35e-04	0	62	0	1566572544	53	4963
2026-01-30 11:04:51.09	316.64	21.70	-40.9	-43.8	11.8	4.70e-04	0	62	0	1569718272	53	4985
2026-01-30 11:04:52.10	316.81	21.59	-40.9	-43.8	11.8	4.90e-04	0	62	0	1572864000	53	4994
2026-01-30 11:04:53.11	316.98	21.49	-40.9	-43.8	11.8	5.05e-04	0	62	0	1577058304	53	5002
2026-01-30 11:04:54.13	317.14	21.38	-40.9	-43.8	11.7	5.70e-04	0	62	0	1580204032	53	5031
2026-01-30 11:04:55.14	317.31	21.27	-40.9	-43.8	11.8	4.89e-04	0	62	0	1582301184	53	5001
2026-01-30 11:04:56.15	317.47	21.16	-40.9	-43.9	11.7	5.71e-04	0	62	0	1585446912	53	5056
2026-01-30 11:04:57.16	317.64	21.05	-40.8	-43.8	11.8	4.90e-04	0	62	0	1588592640	53	4995
2026-01-30 11:04:58.17	317.80	20.95	-40.9	-43.9	11.6	6.60e-04	0	62	0	1592786944	53	5091
2026-01-30 11:04:59.18	317.96	20.84	-41.0	-44.0	11.5	7.31e-04	0	62	0	1595932672	53	5135
2026-01-30 11:05:00.19	318.12	20.73	-40.9	-43.8	11.7	5.69e-04	0	62	0	1599078400	53	5012
2026-01-30 11:05:01.20	318.28	20.63	-40.8	-43.7	11.9	4.74e-04	0	62	0	1602224128	53	4962
2026-01-30 11:05:02.20	318.43	20.52	-40.8	-43.7	11.8	4.68e-04	0	62	0	1604321280	53	4955
2026-01-30 11:05:03.21	318.59	20.42	-40.8	-43.7	11.8	5.44e-04	0	62	0	1608515584	53	4953
2026-01-30 11:05:04.22	318.75	20.31	-40.7	-43.6	11.9	3.75e-04	0	62	0	1611661312	53	4911
2026-01-30 11:05:05.23	318.90	20.21	-40.7	-43.6	12.0	3.29e-04	0	62	0	1614807040	53	4874
2026-01-30 11:05:06.24	319.05	20.10	-40.7	-43.5	12.0	3.48e-04	0	62	0	1617952768	53	4852
2026-01-30 11:05:07.25	319.21	20.00	-40.7	-43.6	12.0	3.33e-04	0	62	0	1621098496	53	4871
2026-01-30 11:05:08.26	319.36	19.89	-40.7	-43.6	11.9	4.27e-04	0	62	0	1624244224	53	4895
2026-01-30 11:05:09.27	319.51	19.79	-40.7	-43.5	12.0	3.27e-04	0	62	0	1627389952	53	4840
2026-01-30 11:05:10.28	319.66	19.68	-40.7	-43.5	12.0	3.55e-04	0	62	0	1630535680	53	4840
2026-01-30 11:05:11.29	319.81	19.58	-40.8	-43.6	11.9	3.76e-04	0	62	0	1633681408	53	4909
2026-01-30 11:05:12.30	319.96	19.47	-40.7	-43.5	12.0	3.26e-04	0	62	0	1636827136	53	4838
2026-01-30 11:05:13.31	320.10	19.37	-40.7	-43.5	11.9	3.49e-04	0	62	0	1639972864	53	4870
2026-01-30 11:05:14.31	320.25	19.27	-40.7	-43.5	12.0	3.17e-04	0	62	0	1643118592	53	4842
2026-01-30 11:05:15.33	320.39	19.16	-40.7	-43.5	12.0	3.64e-04	0	62	0	1646264320	53	4837
2026-01-30 11:05:16.33	320.54	19.06	-40.6	-43.4	12.1	2.62e-04	0	62	0	1649410048	53	4790
2026-01-30 11:05:17.34	320.68	18.96	-40.6	-43.4	12.0	2.91e-04	0	62	0	1652555776	53	4804
2026-01-30 11:05:18.35	320.82	18.86	-40.7	-43.5	11.9	3.56e-04	0	62	0	1655701504	53	4857
2026-01-30 11:05:19.36	320.96	18.76	-40.7	-43.6	11.9	3.76e-04	0	62	0	1658847232	53	4895
2026-01-30 11:05:20.37	321.10	18.66	-40.7	-43.6	11.8	4.26e-04	0	62	0	1661992960	53	4907
2026-01-30 11:05:21.38	321.24	18.55	-40.8	-43.6	11.8	4.94e-04	0	62	0	1665138688	53	4921
2026-01-30 11:05:22.39	321.38	18.45	-40.8	-43.7	11.8	5.00e-04	0	62	0	1668284416	53	4946
2026-01-30 11:05:23.40	321.52	18.35	-40.8	-43.8	11.6	5.86e-04	0	62	0	1671430144	53	5007
2026-01-30 11:05:24.41	321.65	18.25	-40.7	-43.7	11.8	6.26e-04	0	62	0	1674575872	53	4930
2026-01-30 11:05:25.42	321.79	18.15	-40.8	-43.7	11.8	5.00e-04	0	62	0	1677721600	53	4940
2026-01-30 11:05:26.43	321.92	18.05	-40.8	-43.8	11.6	5.43e-04	0	62	0	1680867328	53	5004
2026-01-30 11:05:27.45	322.06	17.95	-40.8	-43.8	11.6	6.83e-04	0	62	0	1684013056	53	5000
2026-01-30 11:05:28.46	322.19	17.85	-40.8	-43.8	11.6	6.79e-04	0	62	0	1687158784	53	5013
2026-01-30 11:05:29.47	322.32	17.75	-40.9	-43.9	11.5	8.10e-04	0	62	0	1690304512	53	5056
2026-01-30 11:05:30.48	322.46	17.65	-40.9	-43.9	11.5	7.20e-04	0	62	0	1693450240	53	5051
2026-01-30 11:05:31.49	322.59	17.55	-40.8	-43.8	11.6	7.12e-04	0	62	0	1696595968	53	5011
2026-01-30 11:05:32.50	322.72	17.45	-40.8	-43.8	11.5	7.50e-04	0	62	0	1699741696	53	5022
2026-01-30 11:05:33.51	322.84	17.36	-40.8	-43.8	11.5	8.07e-04	0	62	0	1702887424	53	5028
2026-01-30 11:05:34.52	322.97	17.26	-40.8	-43.7	11.6	6.39e-04	0	62	0	1706033152	53	4967
2026-01-30 11:05:35.53	323.10	17.16	-40.8	-43.7	11.6	6.87e-04	0	62	0	1709178880	53	4973
2026-01-30 11:05:36.54	323.23	17.06	-40.8	-43.8	11.6	6.60e-04	0	62	0	1712324608	53	4985
2026-01-30 11:05:37.55	323.35	16.97	-40.8	-43.8	11.6	7.99e-04	0	62	0	1715470336	53	5005
2026-01-30 11:05:38.56	323.48	16.87	-40.8	-43.8	11.5	8.33e-04	0	62	0	1718616064	53	5033
2026-01-30 11:05:39.58	323.60	16.77	-40.8	-43.8	11.5	8.37e-04	0	62	0	1721761792	53	5025
2026-01-30 11:05:40.59	323.73	16.67	-40.8	-43.9	11.4	8.23e-04	0	62	0	1724907520	53	5056
2026-01-30 11:05:41.59	323.85	16.58	-40.9	-44.0	11.3	1.11e-03	0	62	0	1728053248	53	5130
2026-01-30 11:05:42.61	323.97	16.48	-41.0	-44.1	11.2	1.31e-03	0	62	0	1731198976	53	5201
2026-01-30 11:05:43.62	324.09	16.39	-41.0	-44.2	11.1	1.49e-03	0	62	0	1734344704	53	5219
2026-01-30 11:05:44.63	324.21	16.29	-41.0	-44.2	11.0	1.79e-03	0	62	0	1737490432	53	5275
2026-01-30 11:05:45.63	324.33	16.20	-41.0	-44.3	11.0	1.93e-03	0	62	0	1740636160	53	5283
2026-01-30 11:05:46.64	324.45	16.10	-41.1	-44.4	10.9	2.26e-03	0	62	0	1743781888	53	5360
2026-01-30 11:05:47.65	324.57	16.01	-41.1	-44.4	10.8	2.56e-03	0	62	0	1746927616	53	5387
2026-01-30 11:05:48.66	324.69	15.91	-41.1	-44.5	10.7	2.74e-03	0	62	0	1750073344	53	5419
2026-01-30 11:05:49.67	324.80	15.82	-41.2	-44.6	10.7	3.12e-03	0	62	0	1753219072	53	5468
2026-01-30 11:05:50.68	324.92	15.73	-41.2	-44.5	10.6	2.83e-03	0	62	0	1756364800	53	5461
2026-01-30 11:05:51.69	325.04	15.63	-41.2	-44.5	10.6	3.17e-03	0	62	0	1759510528	53	5461
2026-01-30 11:05:52.70	325.15	15.54	-41.2	-44.6	10.6	3.36e-03	0	62	0	1762656256	53	5497
2026-01-30 11:05:53.71	325.26	15.45	-41.3	-44.7	10.5	3.60e-03	0	62	0	1765801984	53	5550
2026-01-30 11:05:54.72	325.38	15.35	-41.3	-44.8	10.3	4.44e-03	0	62	0	1768947712	53	5630
2026-01-30 11:05:55.73	325.49	15.26	-41.3	-44.8	10.3	4.90e-03	0	62	0	1772093440	53	5629
2026-01-30 11:05:56.74	325.60	15.17	-41.4	-44.9	10.2	5.22e-03	0	62	0	1775239168	53	5699
2026-01-30 11:05:57.75	325.71	15.08	-41.3	-44.9	10.2	5.83e-03	0	62	0	1778384896	53	5680
2026-01-30 11:05:58.76	325.82	14.98	-41.3	-44.9	10.2	5.63e-03	0	62	0	1781530624	53	5672
2026-01-30 11:05:59.77	325.93	14.89	-41.2	-44.7	10.4	5.04e-03	0	62	0	1784676352	53	5583
2026-01-30 11:06:00.78	326.04	14.80	-41.3	-44.8	10.3	4.97e-03	0	62	0	1787822080	53	5596
2026-01-30 11:06:01.79	326.15	14.71	-41.3	-44.8	10.2	5.78e-03	0	62	0	1790967808	53	5637
2026-01-30 11:06:02.80	326.26	14.62	-41.3	-44.8	10.2	5.30e-03	0	62	0	1794113536	53	5641
2026-01-30 11:06:03.81	326.37	14.53	-41.2	-44.7	10.3	5.17e-03	0	62	0	1797259264	53	5576
2026-01-30 11:06:04.82	326.48	14.44	-41.3	-44.9	10.2	5.53e-03	0	62	0	1800404992	53	5667
2026-01-30 11:06:05.83	326.58	14.35	-41.2	-44.8	10.3	5.53e-03	0	62	0	1803550720	53	5608
2026-01-30 11:06:06.84	326.69	14.26	-41.2	-44.7	10.4	4.90e-03	0	62	0	1806696448	53	5551
2026-01-30 11:06:07.85	326.79	14.17	-41.2	-44.6	10.4	4.75e-03	0	62	0	1809842176	53	5510
2026-01-30 11:06:08.86	326.90	14.08	-41.1	-44.6	10.4	4.67e-03	0	62	0	1812987904	53	5487
2026-01-30 11:06:09.87	327.00	13.99	-41.1	-44.7	10.3	4.97e-03	0	62	0	1816133632	53	5531
2026-01-30 11:06:10.88	327.10	13.90	-41.2	-44.7	10.3	5.18e-03	0	62	0	1819279360	53	5535
2026-01-30 11:06:11.89	327.21	13.81	-41.1	-44.6	10.3	5.20e-03	0	62	0	1822425088	53	5521
2026-01-30 11:06:12.90	327.31	13.72	-41.2	-44.8	10.1	6.58e-03	0	62	0	1825570816	53	5623
2026-01-30 11:06:13.92	327.41	13.64	-41.2	-44.8	10.1	6.26e-03	0	62	0	1828716544	53	5623
2026-01-30 11:06:14.92	327.51	13.55	-41.2	-44.8	10.1	6.83e-03	0	62	0	1831862272	53	5649
2026-01-30 11:06:15.94	327.61	13.46	-41.3	-45.0	10.0	7.70e-03	0	62	0	1835008000	53	5725
2026-01-30 11:06:16.94	327.71	13.37	-41.3	-45.0	9.9	9.49e-03	0	62	0	1838153728	53	5757
2026-01-30 11:06:17.95	327.81	13.29	-41.2	-44.9	10.0	7.76e-03	0	62	0	1841299456	53	5658
2026-01-30 11:06:18.96	327.91	13.20	-41.2	-44.8	10.1	7.60e-03	0	62	0	1844445184	53	5625
2026-01-30 11:06:19.97	328.01	13.11	-41.2	-44.9	10.0	7.50e-03	0	62	0	1847590912	53	5685
2026-01-30 11:06:20.98	328.11	13.03	-41.2	-44.9	10.0	7.98e-03	0	62	0	1850736640	53	5662
2026-01-30 11:06:21.99	328.20	12.94	-41.2	-44.9	10.0	7.52e-03	0	62	0	1853882368	53	5673
2026-01-30 11:06:23.00	328.30	12.85	-41.2	-44.8	10.1	7.69e-03	0	62	0	1857028096	53	5611
2026-01-30 11:06:24.01	328.40	12.77	-41.2	-44.9	10.0	7.83e-03	0	62	0	1860173824	53	5657
2026-01-30 11:06:25.02	328.49	12.68	-41.2	-44.9	9.9	7.80e-03	0	62	0	1863319552	53	5678
2026-01-30 11:06:26.03	328.59	12.60	-41.2	-44.9	9.8	9.33e-03	0	62	0	1866465280	53	5718
2026-01-30 11:06:27.04	328.68	12.51	-41.2	-44.8	9.9	8.85e-03	0	62	0	1869611008	53	5644
2026-01-30 11:06:28.05	328.77	12.43	-41.2	-45.0	9.8	9.01e-03	0	62	0	1872756736	53	5762
2026-01-30 11:06:29.06	328.87	12.34	-41.2	-45.0	9.8	1.11e-02	0	62	0	1875902464	53	5752
2026-01-30 11:06:30.07	328.96	12.26	-41.2	-44.8	9.9	8.91e-03	0	62	0	1879048192	53	5651
2026-01-30 11:06:31.08	329.05	12.17	-41.2	-45.0	9.8	9.36e-03	0	62	0	1882193920	53	5733
2026-01-30 11:06:32.09	329.15	12.09	-41.2	-44.9	9.8	9.69e-03	0	62	0	1885339648	53	5716
2026-01-30 11:06:33.10	329.24	12.01	-41.1	-44.9	9.8	9.11e-03	0	62	0	1888485376	53	5671
2026-01-30 11:06:34.11	329.33	11.92	-41.1	-44.7	10.0	8.26e-03	0	62	0	1891631104	53	5588
2026-01-30 11:06:35.12	329.42	11.84	-41.1	-44.8	9.9	8.85e-03	0	62	0	1895825408	53	5633
2026-01-30 11:06:36.13	329.51	11.76	-41.1	-44.9	9.8	9.28e-03	0	62	0	1897922560	53	5677
2026-01-30 11:06:37.14	329.60	11.67	-41.1	-44.9	9.8	1.09e-02	0	62	0	1901068288	53	5657
2026-01-30 11:06:38.15	329.69	11.59	-41.1	-44.8	9.8	9.15e-03	0	62	0	1904214016	53	5626
