passes_logs/2026/01/30/R2.0S_Moscow/R2.0S_Moscow__20260130_091432_NOAA_21_JPSS-2_rec.log

#Pass ID: 20260130_091432_NOAA 21 (JPSS-2)
#Satellite: NOAA 21 (JPSS-2)
#Configuration: NOAA-21
#almurnet v.1.7.20251203
#Start time: 2026-01-30 09:14:32

#Version: 2.2.20231116
#Station: R2.0S_Moscow
#Location: 37.707566 lon 55.798166 lat
#TLE: 1 54234U 22150A   26029.46216196  .00000141  00000+0  87503-4 0  9994
#TLE: 2 54234  98.7512 330.1880 0000955 196.3413 163.7732 14.19540905166865

#Time	Az	El	Level	Level2	SNR	BER	BlckErr	Temp	State	Recorded	gain1	gain2
2026-01-30 09:14:32.99	140.85	2.01	-35.1	-54.8	3.8	1.49e+00	0	52	0	0	51	19998
2026-01-30 09:14:33.99	140.82	2.08	-41.5	-54.1	3.9	1.49e+00	0	52	104	0	53	16406
2026-01-30 09:14:35.00	140.80	2.14	-30.9	-52.3	3.5	1.49e+00	0	52	104	0	42	25100
2026-01-30 09:14:36.01	140.77	2.20	-41.6	-54.1	3.9	1.49e+00	0	52	104	0	53	16472
2026-01-30 09:14:37.02	140.74	2.27	-39.9	-54.7	3.7	1.49e+00	0	52	104	0	48	23405
2026-01-30 09:14:38.03	140.71	2.33	-41.6	-54.3	3.8	1.49e+00	0	52	104	0	54	15903
2026-01-30 09:14:39.04	140.68	2.40	-34.0	-53.1	3.9	1.49e+00	0	52	104	0	49	18361
2026-01-30 09:14:40.05	140.65	2.46	-42.0	-54.9	3.7	1.49e+00	0	53	104	0	50	21438
2026-01-30 09:14:41.07	140.63	2.53	-38.0	-54.2	3.9	1.49e+00	0	52	104	0	52	17562
2026-01-30 09:14:42.08	140.60	2.59	-38.5	-54.2	3.9	1.49e+00	0	53	104	0	52	17516
2026-01-30 09:14:43.09	140.57	2.66	-40.5	-54.3	4.0	1.49e+00	0	53	104	0	49	21227
2026-01-30 09:14:44.09	140.54	2.72	-37.2	-54.2	3.8	1.49e+00	0	53	104	0	52	17611
2026-01-30 09:14:45.11	140.51	2.79	-39.9	-54.6	3.8	1.49e+00	0	53	104	0	50	20651
2026-01-30 09:14:46.12	140.48	2.85	-39.5	-54.3	4.1	1.49e+00	0	53	104	0	38	39620
2026-01-30 09:14:47.13	140.45	2.92	-32.7	-54.0	3.9	1.49e+00	0	53	104	0	38	38407
2026-01-30 09:14:48.14	140.42	2.98	-38.9	-53.8	3.8	1.49e+00	0	53	104	0	45	25161
2026-01-30 09:14:49.15	140.39	3.05	-21.8	-50.1	3.2	1.50e+00	0	53	104	0	21	65535
2026-01-30 09:14:50.16	140.36	3.12	-35.2	-54.1	3.8	1.49e+00	0	53	104	0	42	30975
2026-01-30 09:14:51.17	140.33	3.18	-39.9	-54.6	3.8	1.49e+00	0	53	104	0	39	39094
2026-01-30 09:14:52.18	140.30	3.25	-33.2	-53.8	4.0	1.49e+00	0	54	104	0	41	31612
2026-01-30 09:14:53.19	140.27	3.32	-30.4	-53.8	3.9	1.49e+00	0	53	104	0	37	39839
2026-01-30 09:14:54.20	140.24	3.38	-25.0	-49.1	3.5	1.50e+00	0	53	104	0	19	65535
2026-01-30 09:14:55.21	140.21	3.45	-24.3	-51.8	4.1	1.50e+00	0	54	104	0	28	53115
2026-01-30 09:14:56.22	140.18	3.52	-40.9	-54.0	3.8	1.49e+00	0	54	104	0	52	17212
2026-01-30 09:14:57.23	140.15	3.58	-38.8	-54.0	4.0	1.49e+00	0	54	104	0	48	21749
2026-01-30 09:14:58.24	140.12	3.65	-28.1	-53.5	3.4	1.49e+00	0	54	104	0	28	64609
2026-01-30 09:14:59.25	140.09	3.72	-33.0	-50.6	3.4	1.52e+00	0	54	104	0	22	65535
2026-01-30 09:15:00.26	140.06	3.79	-26.4	-52.1	3.1	1.54e+00	0	54	104	0	25	65535
2026-01-30 09:15:01.27	140.02	3.85	-22.9	-51.6	3.6	1.52e+00	0	54	104	0	24	65535
2026-01-30 09:15:02.29	139.99	3.92	-23.8	-49.1	3.4	1.55e+00	0	54	104	0	19	65535
2026-01-30 09:15:03.30	139.96	3.99	-25.3	-49.6	3.0	1.55e+00	0	54	104	0	20	65535
2026-01-30 09:15:04.31	139.93	4.06	-35.7	-53.8	4.0	1.52e+00	0	54	104	0	32	53336
2026-01-30 09:15:05.32	139.90	4.13	-25.4	-52.1	3.5	1.50e+00	0	54	104	0	25	65301
2026-01-30 09:15:06.33	139.86	4.20	-26.6	-52.7	3.6	1.54e+00	0	54	104	0	34	41686
2026-01-30 09:15:07.34	139.83	4.26	-28.7	-53.3	3.8	1.49e+00	0	54	104	0	36	39597
2026-01-30 09:15:08.35	139.80	4.33	-35.0	-53.7	4.0	1.49e+00	0	54	104	0	48	20791
2026-01-30 09:15:09.36	139.77	4.40	-40.3	-54.5	3.9	1.49e+00	0	55	104	0	52	18163
2026-01-30 09:15:10.37	139.73	4.47	-39.0	-53.6	3.7	1.49e+00	0	55	104	0	47	21959
2026-01-30 09:15:11.38	139.70	4.54	-41.3	-54.5	3.8	1.49e+00	0	55	104	0	50	20371
2026-01-30 09:15:12.39	139.67	4.61	-41.7	-54.0	3.8	1.49e+00	0	55	104	0	54	15301
2026-01-30 09:15:13.40	139.63	4.68	-41.5	-54.1	3.9	1.49e+00	0	55	104	0	46	24511
2026-01-30 09:15:14.42	139.60	4.75	-40.6	-54.0	3.9	1.49e+00	0	55	104	0	53	16150
2026-01-30 09:15:15.43	139.57	4.82	-37.8	-54.1	3.7	1.49e+00	0	55	104	0	50	19404
2026-01-30 09:15:16.44	139.53	4.89	-40.2	-54.1	3.9	1.49e+00	0	55	104	0	50	19529
2026-01-30 09:15:17.45	139.50	4.96	-35.3	-53.6	3.6	1.49e+00	0	55	104	0	37	38789
2026-01-30 09:15:18.46	139.46	5.03	-23.6	-52.1	3.8	1.50e+00	0	55	104	0	25	64979
2026-01-30 09:15:19.47	139.43	5.10	-37.3	-53.3	4.0	1.49e+00	0	55	104	0	31	53375
2026-01-30 09:15:20.48	139.39	5.17	-24.1	-50.2	3.8	1.52e+00	0	55	104	0	22	62269
2026-01-30 09:15:21.49	139.36	5.25	-25.2	-50.1	3.7	1.50e+00	0	55	104	0	27	46037
2026-01-30 09:15:22.50	139.33	5.32	-26.9	-50.9	3.6	1.49e+00	0	55	104	0	23	63903
2026-01-30 09:15:23.51	139.29	5.39	-32.6	-52.6	3.9	1.49e+00	0	55	104	0	38	32825
2026-01-30 09:15:24.52	139.25	5.46	-33.0	-52.9	3.9	1.49e+00	0	56	104	0	39	32041
2026-01-30 09:15:25.53	139.22	5.53	-31.3	-52.7	3.7	1.49e+00	0	55	104	0	39	31143
2026-01-30 09:15:26.54	139.18	5.60	-32.0	-53.9	4.0	1.49e+00	0	56	104	0	37	40096
2026-01-30 09:15:27.55	139.15	5.68	-41.6	-53.9	3.9	1.49e+00	0	56	104	0	46	23932
2026-01-30 09:15:28.56	139.11	5.75	-40.1	-53.9	3.7	1.49e+00	0	55	104	0	45	25543
2026-01-30 09:15:29.57	139.07	5.82	-41.1	-54.5	3.9	1.49e+00	0	56	104	0	49	21526
2026-01-30 09:15:30.58	139.04	5.89	-41.6	-54.0	3.8	1.49e+00	0	56	104	0	53	16144
2026-01-30 09:15:31.60	139.00	5.97	-40.6	-51.9	3.8	1.49e+00	0	56	104	0	28	53907
2026-01-30 09:15:32.60	138.96	6.04	-41.6	-54.0	3.8	1.49e+00	0	56	104	0	52	17187
2026-01-30 09:15:33.62	138.93	6.11	-30.8	-53.3	3.8	1.49e+00	0	56	104	0	47	21075
2026-01-30 09:15:34.63	138.89	6.19	-35.1	-53.8	3.8	1.49e+00	0	56	104	0	35	44804
2026-01-30 09:15:35.64	138.85	6.26	-39.3	-53.9	3.7	1.49e+00	0	56	104	0	52	16989
2026-01-30 09:15:36.65	138.81	6.34	-30.5	-53.6	3.8	1.49e+00	0	56	104	0	48	20589
2026-01-30 09:15:37.66	138.78	6.41	-38.2	-54.3	4.0	1.49e+00	0	56	104	0	41	33380
2026-01-30 09:15:38.67	138.74	6.48	-37.3	-54.5	3.8	1.49e+00	0	56	104	0	50	20470
2026-01-30 09:15:39.68	138.70	6.56	-39.0	-54.2	3.8	1.49e+00	0	56	104	0	53	16550
2026-01-30 09:15:40.69	138.66	6.63	-38.8	-54.0	3.9	1.49e+00	0	56	104	0	51	18241
2026-01-30 09:15:41.70	138.62	6.71	-39.2	-53.7	3.8	1.49e+00	0	56	104	0	52	16685
2026-01-30 09:15:42.71	138.58	6.78	-29.6	-53.7	3.5	1.49e+00	0	56	104	0	47	22211
2026-01-30 09:15:43.72	138.54	6.86	-36.4	-53.4	3.8	1.49e+00	0	56	104	0	45	24118
2026-01-30 09:15:44.73	138.51	6.94	-34.5	-53.8	3.5	1.50e+00	0	56	104	0	34	47532
2026-01-30 09:15:45.75	138.47	7.01	-33.1	-52.7	4.1	1.49e+00	0	56	104	0	41	27726
2026-01-30 09:15:46.76	138.43	7.09	-26.5	-52.2	3.9	1.49e+00	0	57	104	0	38	31380
2026-01-30 09:15:47.77	138.39	7.16	-26.3	-52.7	4.1	1.49e+00	0	56	104	0	36	36998
2026-01-30 09:15:48.78	138.34	7.24	-32.3	-53.2	4.0	1.49e+00	0	57	104	0	38	35128
2026-01-30 09:15:49.79	138.30	7.32	-37.4	-53.4	3.7	1.49e+00	0	57	104	0	36	40385
2026-01-30 09:15:50.80	138.26	7.39	-35.6	-52.6	3.4	1.50e+00	0	57	104	0	26	65535
2026-01-30 09:15:51.81	138.22	7.47	-40.8	-53.8	4.1	1.50e+00	0	57	104	0	34	47320
2026-01-30 09:15:52.82	138.18	7.55	-40.5	-53.6	3.9	1.49e+00	0	57	104	0	48	20547
2026-01-30 09:15:53.83	138.14	7.63	-40.9	-53.9	3.8	1.49e+00	0	57	104	0	52	17010
2026-01-30 09:15:54.84	138.10	7.70	-40.5	-54.7	3.6	1.49e+00	0	57	104	0	51	19693
2026-01-30 09:15:55.85	138.06	7.78	-40.0	-54.6	3.7	1.49e+00	0	57	104	0	50	20717
2026-01-30 09:15:56.86	138.01	7.86	-41.6	-54.2	3.8	1.49e+00	0	57	104	0	53	16583
2026-01-30 09:15:57.87	137.97	7.94	-41.8	-54.3	3.8	1.49e+00	0	57	104	0	54	15934
2026-01-30 09:15:58.88	137.93	8.02	-40.5	-54.1	3.8	1.49e+00	0	57	104	0	46	24492
2026-01-30 09:15:59.89	137.89	8.10	-39.2	-54.9	3.8	1.49e+00	0	57	104	0	48	23996
2026-01-30 09:16:00.90	137.84	8.18	-27.7	-53.7	4.0	1.49e+00	0	57	104	0	40	33045
2026-01-30 09:16:01.91	137.80	8.26	-32.6	-53.8	3.5	1.49e+00	0	57	104	0	33	50011
2026-01-30 09:16:02.92	137.76	8.33	-33.9	-54.8	4.0	1.49e+00	0	57	104	0	42	33576
2026-01-30 09:16:03.93	137.71	8.41	-39.9	-51.1	3.9	1.50e+00	0	57	104	0	23	65535
2026-01-30 09:16:04.94	137.67	8.49	-38.4	-54.3	3.8	1.49e+00	0	57	104	0	44	28301
2026-01-30 09:16:05.95	137.62	8.58	-25.9	-51.6	4.0	1.50e+00	0	57	104	0	24	65230
2026-01-30 09:16:06.96	137.58	8.66	-35.5	-54.2	4.0	1.49e+00	0	57	104	0	42	31417
2026-01-30 09:16:07.97	137.53	8.74	-41.8	-54.3	3.8	1.49e+00	0	57	104	0	49	21178
2026-01-30 09:16:08.98	137.49	8.82	-41.4	-54.5	3.7	1.49e+00	0	57	104	0	50	20498
2026-01-30 09:16:09.99	137.44	8.90	-35.9	-51.1	3.6	1.53e+00	0	57	104	0	23	65535
2026-01-30 09:16:11.00	137.40	8.98	-39.0	-54.7	3.8	1.49e+00	0	57	104	0	51	19818
2026-01-30 09:16:12.01	137.35	9.06	-33.7	-52.3	3.9	1.49e+00	0	58	104	0	36	35345
2026-01-30 09:16:13.02	137.31	9.14	-23.1	-48.6	3.9	1.52e+00	0	58	104	0	18	65535
2026-01-30 09:16:14.03	137.26	9.23	-29.9	-49.8	4.3	1.51e+00	0	57	104	0	23	56259
2026-01-30 09:16:15.04	137.21	9.31	-28.1	-49.5	4.2	1.51e+00	0	58	104	0	24	51377
2026-01-30 09:16:16.06	137.17	9.39	-38.9	-53.7	4.2	1.49e+00	0	58	104	0	38	37062
2026-01-30 09:16:17.07	137.12	9.48	-30.7	-52.4	3.9	1.50e+00	0	58	104	0	27	60471
2026-01-30 09:16:18.08	137.07	9.56	-40.0	-52.7	3.7	1.51e+00	0	58	104	0	34	41757
2026-01-30 09:16:19.09	137.02	9.64	-38.3	-54.2	4.0	1.49e+00	0	58	104	0	45	26176
2026-01-30 09:16:20.10	136.97	9.73	-34.6	-54.1	3.6	1.49e+00	0	58	104	0	47	23132
2026-01-30 09:16:21.11	136.93	9.81	-35.2	-53.7	3.7	1.49e+00	0	58	104	0	37	39481
2026-01-30 09:16:22.12	136.88	9.90	-26.2	-50.9	4.0	1.50e+00	0	58	104	0	25	56979
2026-01-30 09:16:23.13	136.83	9.98	-27.9	-51.6	4.0	1.50e+00	0	58	104	0	27	54732
2026-01-30 09:16:24.14	136.78	10.07	-29.0	-52.4	3.6	1.49e+00	0	58	104	0	32	44964
2026-01-30 09:16:25.14	136.73	10.15	-31.4	-51.4	4.1	1.49e+00	0	58	104	0	35	33897
2026-01-30 09:16:26.15	136.68	10.24	-26.1	-50.2	3.9	1.49e+00	0	58	104	0	25	52640
2026-01-30 09:16:27.16	136.63	10.32	-30.3	-51.1	3.9	1.49e+00	0	58	104	0	31	40989
2026-01-30 09:16:28.18	136.58	10.41	-25.2	-42.9	3.7	1.50e+00	0	58	104	0	21	28645
2026-01-30 09:16:29.18	136.53	10.49	-28.8	-44.8	4.2	1.49e+00	0	58	104	0	28	23649
2026-01-30 09:16:30.19	136.48	10.58	-38.0	-46.4	4.4	8.24e-01	0	58	104	0	43	12009
2026-01-30 09:16:31.20	136.42	10.67	-30.5	-44.0	5.9	2.36e-01	0	58	0	1048576	34	15345
2026-01-30 09:16:32.21	136.37	10.75	-24.3	-42.7	4.7	9.72e-01	0	58	104	1048576	19	31196
2026-01-30 09:16:33.22	136.32	10.84	-30.9	-42.6	4.8	1.43e+00	0	58	104	1048576	31	15520
2026-01-30 09:16:34.23	136.27	10.93	-29.7	-43.6	4.6	1.43e+00	0	58	104	1048576	28	20556
2026-01-30 09:16:35.24	136.21	11.02	-35.6	-44.7	6.8	7.25e-01	7	58	0	1048576	30	20874
2026-01-30 09:16:36.25	136.16	11.11	-29.0	-43.4	6.0	6.96e-01	24	58	0	2097152	26	22758
2026-01-30 09:16:37.26	136.11	11.19	-36.8	-45.2	8.3	8.83e-02	0	58	0	5242880	40	12460
2026-01-30 09:16:38.27	136.05	11.28	-34.7	-43.8	8.9	2.44e-01	0	58	0	7340032	41	9972
2026-01-30 09:16:39.28	136.00	11.37	-27.6	-44.7	6.4	1.59e-01	2	58	0	10485760	33	17602
2026-01-30 09:16:40.29	135.95	11.46	-35.2	-43.2	9.8	6.73e-02	0	58	0	13631488	39	10475
2026-01-30 09:16:41.30	135.89	11.55	-32.8	-43.3	9.7	3.10e-02	0	58	0	16777216	39	10590
2026-01-30 09:16:42.31	135.83	11.64	-29.0	-42.6	9.6	1.53e-01	0	58	0	19922944	34	13070
2026-01-30 09:16:43.32	135.78	11.73	-37.9	-43.2	10.0	2.51e-02	0	58	0	23068672	43	8318
2026-01-30 09:16:44.33	135.72	11.82	-31.1	-42.9	10.0	5.36e-02	0	58	0	26214400	40	9570
2026-01-30 09:16:45.34	135.67	11.91	-34.1	-43.4	10.2	6.74e-02	0	58	0	29360128	45	7560
2026-01-30 09:16:46.35	135.61	12.01	-28.9	-42.3	10.1	5.37e-02	0	58	0	32505856	33	13356
2026-01-30 09:16:47.36	135.55	12.10	-36.8	-43.0	10.2	3.68e-02	0	59	0	35651584	43	8159
2026-01-30 09:16:48.37	135.50	12.19	-30.8	-42.7	10.4	7.30e-02	0	58	0	38797312	32	14860
2026-01-30 09:16:49.38	135.44	12.28	-38.4	-43.4	10.7	4.72e-02	0	58	0	41943040	46	7148
2026-01-30 09:16:50.39	135.38	12.37	-34.3	-43.1	8.5	6.95e-01	0	58	104	42991616	39	10326
2026-01-30 09:16:51.40	135.32	12.47	-40.0	-43.4	11.2	1.31e-02	0	59	0	45088768	50	5704
2026-01-30 09:16:52.41	135.26	12.56	-38.5	-43.4	11.0	1.51e-02	0	59	0	48234496	49	6035
2026-01-30 09:16:53.42	135.20	12.65	-34.9	-43.1	9.1	5.52e-02	8	59	0	51380224	44	7773
2026-01-30 09:16:54.43	135.14	12.75	-38.8	-42.6	9.7	1.02e+00	4	59	104	52428800	32	14598
2026-01-30 09:16:55.44	135.08	12.84	-33.2	-43.1	10.7	2.92e-02	0	59	0	54525952	38	11006
2026-01-30 09:16:56.45	135.02	12.94	-39.9	-43.4	11.0	1.57e-02	0	59	0	57671680	49	6059
2026-01-30 09:16:57.46	134.96	13.03	-40.2	-43.5	11.4	5.08e-03	0	59	0	60817408	50	5734
2026-01-30 09:16:58.47	134.90	13.13	-40.8	-43.7	11.2	1.18e-02	0	59	0	63963136	51	5559
2026-01-30 09:16:59.48	134.84	13.22	-36.2	-43.5	11.4	4.01e-02	0	59	0	67108864	50	5753
2026-01-30 09:17:00.49	134.78	13.32	-39.0	-43.5	11.4	7.81e-03	0	59	0	70254592	50	5724
2026-01-30 09:17:01.51	134.71	13.42	-39.1	-43.3	11.5	1.04e-02	0	59	0	73400320	49	5949
2026-01-30 09:17:02.52	134.65	13.51	-39.9	-43.3	11.3	5.14e-03	0	59	0	76546048	50	5596
2026-01-30 09:17:03.53	134.59	13.61	-38.5	-43.2	11.5	5.36e-03	0	59	0	79691776	49	5858
2026-01-30 09:17:04.54	134.52	13.71	-40.2	-43.4	11.7	1.68e-02	0	59	0	82837504	51	5350
2026-01-30 09:17:05.55	134.46	13.80	-39.8	-43.1	10.5	2.19e-02	0	59	0	85983232	39	10324
2026-01-30 09:17:06.56	134.39	13.90	-38.1	-43.2	10.4	2.51e-02	0	59	0	89128960	47	6621
2026-01-30 09:17:07.57	134.33	14.00	-39.7	-43.5	11.5	2.99e-02	0	59	0	92274688	48	6448
2026-01-30 09:17:08.58	134.26	14.10	-38.0	-43.2	11.4	7.90e-03	0	59	0	95420416	49	5875
2026-01-30 09:17:09.59	134.20	14.20	-38.9	-43.1	11.4	9.47e-03	0	59	0	98566144	49	5852
2026-01-30 09:17:10.60	134.13	14.30	-39.7	-43.2	11.2	7.41e-03	0	59	0	101711872	49	5912
2026-01-30 09:17:11.61	134.06	14.40	-36.7	-42.9	12.0	6.77e-03	0	59	0	104857600	47	6348
2026-01-30 09:17:12.62	133.99	14.50	-36.7	-43.0	12.2	3.71e-03	0	59	0	108003328	51	5159
2026-01-30 09:17:13.63	133.93	14.60	-39.8	-42.9	12.3	1.04e-03	0	59	0	111149056	50	5379
2026-01-30 09:17:14.64	133.86	14.70	-39.9	-43.0	12.3	3.14e-03	0	59	0	114294784	49	5726
2026-01-30 09:17:15.65	133.79	14.80	-37.4	-42.9	12.2	8.12e-02	0	59	0	117440512	50	5392
2026-01-30 09:17:16.66	133.72	14.90	-37.9	-43.0	12.3	8.29e-04	0	59	0	120586240	51	5153
2026-01-30 09:17:17.67	133.65	15.01	-40.1	-43.0	12.2	8.77e-04	0	59	0	123731968	51	5136
2026-01-30 09:17:18.69	133.58	15.11	-39.3	-43.0	11.9	1.30e-03	0	59	0	126877696	49	5764
2026-01-30 09:17:19.70	133.51	15.21	-39.8	-43.1	12.1	8.99e-04	0	59	0	130023424	49	5799
2026-01-30 09:17:20.71	133.44	15.32	-37.7	-42.7	12.0	1.20e-03	0	59	0	133169152	50	5258
2026-01-30 09:17:21.72	133.36	15.42	-38.5	-43.0	11.5	4.97e-03	0	59	0	136314880	49	5744
2026-01-30 09:17:22.73	133.29	15.52	-38.7	-43.1	12.2	5.86e-03	0	59	0	139460608	50	5467
2026-01-30 09:17:23.74	133.22	15.63	-36.5	-43.1	11.9	2.74e-03	0	59	0	142606336	48	6158
2026-01-30 09:17:24.75	133.14	15.73	-40.3	-43.1	12.1	1.06e-03	0	59	0	145752064	49	5840
2026-01-30 09:17:25.76	133.07	15.84	-40.3	-43.2	11.9	8.39e-04	0	59	0	148897792	50	5590
2026-01-30 09:17:26.77	133.00	15.94	-40.3	-43.3	12.2	1.13e-03	0	59	0	152043520	51	5292
2026-01-30 09:17:27.78	132.92	16.05	-40.4	-43.2	12.2	2.59e-04	0	59	0	155189248	51	5272
2026-01-30 09:17:28.79	132.85	16.16	-40.4	-43.2	12.2	1.76e-04	0	59	0	158334976	50	5530
2026-01-30 09:17:29.80	132.77	16.26	-40.3	-43.1	12.4	1.58e-04	0	59	0	161480704	51	5171
2026-01-30 09:17:30.82	132.69	16.37	-40.4	-43.1	12.4	1.73e-04	0	59	0	164626432	51	5210
2026-01-30 09:17:31.83	132.61	16.48	-40.3	-43.1	12.4	1.37e-04	0	59	0	167772160	51	5205
2026-01-30 09:17:32.84	132.54	16.59	-40.4	-43.2	12.4	1.43e-04	0	59	0	170917888	51	5242
2026-01-30 09:17:33.85	132.46	16.70	-40.2	-43.2	12.3	1.65e-04	0	59	0	174063616	51	5255
2026-01-30 09:17:34.86	132.38	16.81	-40.5	-43.2	12.3	1.76e-04	0	59	0	177209344	51	5268
2026-01-30 09:17:35.87	132.30	16.91	-40.5	-43.2	12.3	2.31e-04	0	59	0	180355072	51	5269
2026-01-30 09:17:36.88	132.22	17.02	-40.5	-43.3	12.3	1.82e-04	0	59	0	183500800	51	5287
2026-01-30 09:17:37.89	132.14	17.14	-40.3	-43.1	12.3	2.06e-04	0	60	0	186646528	50	5495
2026-01-30 09:17:38.90	132.06	17.25	-39.5	-43.0	12.5	1.66e-04	0	60	0	189792256	51	5134
2026-01-30 09:17:39.90	131.97	17.36	-40.4	-43.1	12.5	1.18e-04	0	60	0	192937984	51	5171
2026-01-30 09:17:40.91	131.89	17.47	-40.4	-43.1	12.5	1.29e-04	0	59	0	196083712	51	5180
2026-01-30 09:17:41.92	131.81	17.58	-38.7	-43.0	12.5	1.01e-04	0	60	0	199229440	51	5106
2026-01-30 09:17:42.93	131.72	17.69	-40.3	-43.0	12.6	8.23e-05	0	59	0	202375168	51	5111
2026-01-30 09:17:43.94	131.64	17.81	-40.3	-42.9	12.7	9.15e-05	0	60	0	205520896	51	5083
2026-01-30 09:17:44.95	131.55	17.92	-40.3	-42.9	12.7	7.47e-05	0	60	0	208666624	51	5067
2026-01-30 09:17:45.96	131.47	18.03	-40.2	-42.8	12.7	7.47e-05	0	59	0	211812352	51	5040
2026-01-30 09:17:46.97	131.38	18.15	-40.2	-42.8	12.8	6.40e-05	0	60	0	214958080	51	5018
2026-01-30 09:17:47.98	131.29	18.26	-40.3	-42.9	12.7	7.40e-05	0	60	0	218103808	51	5060
2026-01-30 09:17:48.99	131.21	18.38	-40.3	-43.0	12.6	9.46e-05	0	60	0	221249536	51	5131
2026-01-30 09:17:49.99	131.12	18.49	-40.3	-43.0	12.6	7.55e-05	0	60	0	224395264	51	5138
2026-01-30 09:17:51.00	131.03	18.61	-40.4	-43.1	12.6	1.03e-04	0	60	0	227540992	51	5173
2026-01-30 09:17:52.01	130.94	18.73	-40.5	-43.1	12.5	1.04e-04	0	60	0	230686720	51	5212
2026-01-30 09:17:53.02	130.85	18.84	-40.5	-43.1	12.5	1.23e-04	0	60	0	233832448	51	5212
2026-01-30 09:17:54.03	130.75	18.96	-40.4	-43.1	12.5	1.22e-04	0	60	0	236978176	51	5176
2026-01-30 09:17:55.04	130.66	19.08	-40.3	-42.9	12.7	9.23e-05	0	60	0	240123904	51	5096
2026-01-30 09:17:56.05	130.57	19.20	-40.3	-42.9	12.7	7.17e-05	0	60	0	243269632	51	5085
2026-01-30 09:17:57.06	130.48	19.32	-40.3	-43.0	12.7	8.01e-05	0	60	0	246415360	51	5115
2026-01-30 09:17:58.07	130.38	19.44	-40.4	-43.0	12.7	7.78e-05	0	60	0	249561088	51	5133
2026-01-30 09:17:59.08	130.29	19.56	-40.4	-43.0	12.7	9.23e-05	0	60	0	252706816	51	5113
2026-01-30 09:18:00.09	130.19	19.68	-40.4	-43.0	12.7	8.31e-05	0	60	0	255852544	51	5142
2026-01-30 09:18:01.10	130.09	19.80	-40.3	-42.9	12.8	6.79e-05	0	60	0	258998272	51	5094
2026-01-30 09:18:02.11	130.00	19.92	-40.3	-42.8	12.9	5.64e-05	0	60	0	262144000	51	5036
2026-01-30 09:18:03.12	129.90	20.04	-40.2	-42.7	13.0	4.42e-05	0	60	0	265289728	51	4975
2026-01-30 09:18:04.12	129.80	20.16	-40.2	-42.7	13.0	4.34e-05	0	60	0	268435456	51	4953
2026-01-30 09:18:05.13	129.70	20.29	-40.2	-42.7	13.0	5.11e-05	0	60	0	271581184	51	4958
2026-01-30 09:18:06.15	129.60	20.41	-40.1	-42.6	13.1	3.05e-05	0	60	0	274726912	51	4920
2026-01-30 09:18:07.16	129.49	20.54	-40.1	-42.6	13.1	2.67e-05	0	60	0	277872640	51	4897
2026-01-30 09:18:08.17	129.39	20.66	-40.1	-42.5	13.2	2.21e-05	0	60	0	281018368	51	4840
2026-01-30 09:18:09.18	129.29	20.79	-40.1	-42.5	13.2	2.05e-05	0	60	0	284164096	50	5155
2026-01-30 09:18:10.18	129.19	20.91	-40.0	-42.5	13.3	2.13e-05	0	60	0	287309824	50	5104
2026-01-30 09:18:11.19	129.08	21.04	-40.1	-42.5	13.3	1.52e-05	0	60	0	290455552	50	5123
2026-01-30 09:18:12.20	128.97	21.16	-40.1	-42.5	13.3	2.36e-05	0	60	0	293601280	50	5127
2026-01-30 09:18:13.22	128.87	21.29	-40.0	-42.4	13.4	2.13e-05	0	60	0	296747008	50	5047
2026-01-30 09:18:14.22	128.76	21.42	-39.8	-42.2	13.6	2.89e-05	0	60	0	299892736	50	4927
2026-01-30 09:18:15.23	128.65	21.55	-39.9	-42.2	13.6	5.30e-06	0	60	0	303038464	50	4959
2026-01-30 09:18:16.24	128.54	21.68	-39.8	-42.1	13.7	9.90e-06	0	60	0	306184192	50	4899
2026-01-30 09:18:17.25	128.43	21.80	-39.8	-42.1	13.7	6.80e-06	0	60	0	309329920	50	4919
2026-01-30 09:18:18.27	128.32	21.94	-39.8	-42.1	13.7	6.80e-06	0	60	0	312475648	50	4920
2026-01-30 09:18:19.28	128.20	22.07	-39.5	-42.0	13.8	6.80e-06	0	60	0	315621376	50	4851
2026-01-30 09:18:20.29	128.09	22.20	-39.7	-42.0	13.8	8.30e-06	0	60	0	318767104	50	4845
2026-01-30 09:18:21.30	127.98	22.33	-39.7	-41.9	13.9	6.80e-06	0	60	0	321912832	49	5077
2026-01-30 09:18:22.31	127.86	22.46	-39.6	-41.9	14.0	3.66e-05	0	60	0	325058560	49	5054
2026-01-30 09:18:23.32	127.74	22.59	-39.6	-41.8	14.0	3.00e-06	0	60	0	328204288	49	5021
2026-01-30 09:18:24.33	127.63	22.73	-39.6	-41.8	14.0	3.00e-06	0	60	0	331350016	49	4995
2026-01-30 09:18:25.34	127.51	22.86	-39.6	-41.8	14.0	1.50e-06	0	60	0	334495744	49	5021
2026-01-30 09:18:26.35	127.39	23.00	-39.6	-41.9	14.0	1.50e-06	0	60	0	337641472	49	5042
2026-01-30 09:18:27.36	127.27	23.13	-39.5	-41.7	14.2	3.80e-06	0	60	0	340787200	49	4945
2026-01-30 09:18:28.37	127.15	23.27	-39.5	-41.7	14.1	7.00e-07	0	60	0	343932928	49	4975
2026-01-30 09:18:29.39	127.02	23.41	-39.5	-41.7	14.2	1.50e-06	0	60	0	347078656	49	4949
2026-01-30 09:18:30.40	126.90	23.54	-39.4	-41.7	14.2	7.00e-07	0	60	0	351272960	49	4932
2026-01-30 09:18:31.40	126.77	23.68	-39.5	-41.7	14.2	3.80e-06	0	60	0	354418688	49	4953
2026-01-30 09:18:32.41	126.65	23.82	-39.5	-41.8	14.1	2.20e-06	0	60	0	357564416	49	5015
2026-01-30 09:18:33.42	126.52	23.95	-39.6	-41.8	14.1	0.00e+00	0	60	0	359661568	49	5010
2026-01-30 09:18:34.44	126.39	24.09	-39.6	-41.7	14.1	7.00e-07	0	60	0	362807296	49	4963
2026-01-30 09:18:35.45	126.26	24.23	-39.5	-41.6	14.3	2.20e-06	0	60	0	367001600	49	4906
2026-01-30 09:18:36.46	126.13	24.37	-39.5	-41.7	14.2	1.50e-06	0	60	0	370147328	49	4931
2026-01-30 09:18:37.47	126.00	24.52	-39.5	-41.6	14.3	7.00e-07	0	60	0	373293056	49	4911
2026-01-30 09:18:38.48	125.87	24.66	-39.5	-41.6	14.3	2.20e-06	0	60	0	376438784	49	4903
2026-01-30 09:18:39.49	125.73	24.80	-39.4	-41.6	14.3	1.50e-06	0	60	0	379584512	49	4904
2026-01-30 09:18:40.50	125.60	24.94	-39.5	-41.7	14.2	2.20e-06	0	60	0	382730240	49	4935
2026-01-30 09:18:41.51	125.46	25.09	-39.6	-41.7	14.1	2.20e-06	0	60	0	385875968	49	4979
2026-01-30 09:18:42.52	125.32	25.23	-39.6	-41.8	14.1	2.20e-06	0	60	0	389021696	49	4997
2026-01-30 09:18:43.53	125.18	25.37	-39.7	-41.9	14.0	7.00e-07	0	60	0	392167424	49	5050
2026-01-30 09:18:44.54	125.04	25.52	-39.7	-41.9	14.0	1.50e-06	0	60	0	395313152	50	4803
2026-01-30 09:18:45.55	124.90	25.66	-39.8	-42.0	14.0	2.20e-06	0	60	0	398458880	50	4837
2026-01-30 09:18:46.56	124.76	25.81	-39.8	-42.1	13.8	4.50e-06	0	60	0	401604608	50	4897
2026-01-30 09:18:47.57	124.61	25.96	-39.9	-42.1	13.8	3.80e-06	0	60	0	404750336	50	4920
2026-01-30 09:18:48.58	124.46	26.10	-39.9	-42.1	13.8	1.50e-06	0	60	0	407896064	50	4926
2026-01-30 09:18:49.59	124.32	26.25	-40.0	-42.3	13.7	3.80e-06	0	60	0	411041792	50	5001
2026-01-30 09:18:50.60	124.17	26.40	-40.0	-42.4	13.6	6.80e-06	0	60	0	414187520	50	5048
2026-01-30 09:18:51.61	124.02	26.55	-40.1	-42.5	13.5	9.10e-06	0	60	0	417333248	50	5117
2026-01-30 09:18:52.62	123.87	26.70	-40.1	-42.5	13.5	1.14e-05	0	60	0	420478976	50	5132
2026-01-30 09:18:53.63	123.71	26.85	-40.1	-42.5	13.4	9.10e-06	0	60	0	423624704	50	5144
2026-01-30 09:18:54.64	123.56	27.00	-40.2	-42.6	13.3	1.90e-05	0	60	0	426770432	50	5184
2026-01-30 09:18:55.65	123.40	27.15	-40.2	-42.6	13.3	1.75e-05	0	60	0	429916160	51	4897
2026-01-30 09:18:56.66	123.24	27.31	-40.2	-42.6	13.3	1.90e-05	0	60	0	433061888	51	4914
2026-01-30 09:18:57.67	123.08	27.46	-40.2	-42.5	13.4	1.37e-05	0	60	0	436207616	51	4859
2026-01-30 09:18:58.68	122.92	27.61	-40.1	-42.4	13.6	9.90e-06	0	60	0	439353344	51	4779
2026-01-30 09:18:59.69	122.76	27.77	-40.3	-42.7	13.3	1.22e-05	0	60	0	442499072	51	4940
2026-01-30 09:19:00.70	122.60	27.92	-40.3	-42.8	13.2	2.82e-05	0	60	0	445644800	51	5001
2026-01-30 09:19:01.71	122.43	28.08	-40.4	-42.8	13.1	2.21e-05	0	60	0	448790528	51	5017
2026-01-30 09:19:02.72	122.26	28.23	-40.5	-43.0	13.0	3.73e-05	0	60	0	451936256	51	5113
2026-01-30 09:19:03.73	122.10	28.39	-40.5	-43.0	13.0	5.11e-05	0	60	0	455081984	51	5108
2026-01-30 09:19:04.74	121.92	28.55	-40.5	-43.1	12.9	5.49e-05	0	61	0	458227712	51	5160
2026-01-30 09:19:05.75	121.75	28.70	-40.5	-43.0	13.0	3.81e-05	0	61	0	461373440	51	5128
2026-01-30 09:19:06.76	121.58	28.86	-40.3	-42.8	13.2	1.98e-05	0	60	0	464519168	51	5001
2026-01-30 09:19:07.77	121.40	29.02	-40.3	-42.8	13.2	2.67e-05	0	60	0	467664896	51	5010
2026-01-30 09:19:08.78	121.23	29.18	-40.3	-42.7	13.3	1.52e-05	0	60	0	470810624	51	4957
2026-01-30 09:19:09.79	121.05	29.34	-40.3	-42.8	13.2	2.21e-05	0	60	0	473956352	51	4985
2026-01-30 09:19:10.81	120.86	29.50	-40.2	-42.6	13.4	1.60e-05	0	60	0	477102080	51	4917
2026-01-30 09:19:11.82	120.68	29.66	-40.2	-42.6	13.5	1.29e-05	0	60	0	480247808	51	4882
2026-01-30 09:19:12.83	120.50	29.83	-40.1	-42.4	13.6	1.37e-05	0	60	0	483393536	51	4804
2026-01-30 09:19:13.84	120.31	29.99	-40.1	-42.5	13.6	9.10e-06	0	61	0	486539264	51	4821
2026-01-30 09:19:14.85	120.12	30.15	-40.2	-42.5	13.5	1.14e-05	0	60	0	489684992	51	4853
2026-01-30 09:19:15.86	119.93	30.31	-40.3	-42.7	13.3	1.22e-05	0	60	0	492830720	51	4935
2026-01-30 09:19:16.87	119.74	30.48	-40.3	-42.7	13.3	2.05e-05	0	61	0	495976448	51	4976
2026-01-30 09:19:17.88	119.54	30.64	-40.4	-42.9	13.2	3.20e-05	0	61	0	499122176	51	5049
2026-01-30 09:19:18.89	119.35	30.81	-40.5	-43.0	13.1	3.28e-05	0	60	0	502267904	51	5129
2026-01-30 09:19:19.90	119.15	30.97	-40.5	-43.0	13.0	3.96e-05	0	61	0	505413632	51	5159
2026-01-30 09:19:20.91	118.95	31.14	-40.5	-43.0	13.0	3.81e-05	0	60	0	508559360	51	5158
2026-01-30 09:19:21.92	118.74	31.31	-40.4	-42.9	13.2	2.59e-05	0	60	0	511705088	51	5055
2026-01-30 09:19:22.93	118.54	31.47	-40.5	-43.0	13.1	3.12e-05	0	61	0	514850816	51	5119
2026-01-30 09:19:23.94	118.33	31.64	-40.5	-43.0	13.0	2.59e-05	0	61	0	517996544	51	5137
2026-01-30 09:19:24.95	118.12	31.81	-40.6	-43.1	12.9	4.19e-05	0	60	0	521142272	51	5191
2026-01-30 09:19:25.97	117.91	31.98	-40.5	-43.0	13.0	3.58e-05	0	61	0	524288000	51	5151
2026-01-30 09:19:26.98	117.70	32.15	-40.6	-43.1	12.9	4.34e-05	0	61	0	527433728	51	5201
2026-01-30 09:19:27.99	117.48	32.32	-40.7	-43.2	12.9	5.34e-05	0	61	0	530579456	51	5271
2026-01-30 09:19:29.00	117.26	32.49	-40.7	-43.3	12.8	7.01e-05	0	61	0	533725184	51	5305
2026-01-30 09:19:30.01	117.04	32.66	-40.6	-43.1	12.9	3.43e-05	0	60	0	536870912	51	5209
2026-01-30 09:19:31.02	116.82	32.83	-40.7	-43.2	12.8	5.34e-05	0	61	0	540016640	51	5279
2026-01-30 09:19:32.03	116.59	33.01	-40.7	-43.3	12.8	5.49e-05	0	61	0	543162368	51	5280
2026-01-30 09:19:33.04	116.37	33.18	-40.6	-43.2	12.9	4.11e-05	0	60	0	546308096	51	5236
2026-01-30 09:19:34.05	116.14	33.35	-40.6	-43.1	12.9	3.89e-05	0	61	0	549453824	51	5199
2026-01-30 09:19:35.06	115.90	33.52	-40.7	-43.2	12.8	5.87e-05	0	61	0	552599552	51	5277
2026-01-30 09:19:36.07	115.67	33.70	-40.7	-43.2	12.7	6.48e-05	0	61	0	555745280	52	4981
2026-01-30 09:19:37.08	115.43	33.87	-40.6	-43.2	12.8	6.71e-05	0	61	0	558891008	52	4968
2026-01-30 09:19:38.09	115.19	34.05	-40.7	-43.4	12.6	6.63e-05	0	60	0	562036736	52	5057
2026-01-30 09:19:39.10	114.95	34.22	-40.7	-43.3	12.7	8.31e-05	0	61	0	565182464	52	5029
2026-01-30 09:19:40.11	114.70	34.40	-40.8	-43.4	12.6	1.03e-04	0	61	0	568328192	52	5098
2026-01-30 09:19:41.12	114.45	34.57	-40.8	-43.5	12.5	1.08e-04	0	61	0	571473920	52	5154
2026-01-30 09:19:42.13	114.20	34.75	-40.8	-43.5	12.4	1.42e-04	0	60	0	574619648	52	5152
2026-01-30 09:19:43.14	113.95	34.93	-40.9	-43.7	12.3	1.92e-04	0	60	0	577765376	52	5256
2026-01-30 09:19:44.15	113.69	35.10	-40.9	-43.7	12.3	1.77e-04	0	61	0	580911104	52	5257
2026-01-30 09:19:45.16	113.43	35.28	-40.9	-43.6	12.4	1.48e-04	0	61	0	584056832	52	5169
2026-01-30 09:19:46.17	113.17	35.46	-40.9	-43.7	12.3	1.83e-04	0	61	0	587202560	52	5245
2026-01-30 09:19:47.18	112.91	35.64	-40.9	-43.7	12.3	2.11e-04	0	61	0	590348288	52	5221
2026-01-30 09:19:48.20	112.63	35.82	-41.0	-43.7	12.3	1.98e-04	0	61	0	593494016	52	5267
2026-01-30 09:19:49.21	112.36	35.99	-41.0	-43.9	12.1	2.73e-04	0	61	0	596639744	52	5353
2026-01-30 09:19:50.22	112.09	36.17	-41.1	-44.0	12.0	3.10e-04	0	61	0	599785472	52	5441
2026-01-30 09:19:51.23	111.81	36.35	-41.2	-44.2	11.8	4.72e-04	0	61	0	602931200	52	5533
2026-01-30 09:19:52.24	111.53	36.53	-41.3	-44.2	11.7	5.21e-04	0	61	0	606076928	53	5271
2026-01-30 09:19:53.25	111.25	36.71	-41.2	-44.2	11.7	5.04e-04	0	61	0	609222656	53	5258
2026-01-30 09:19:54.26	110.96	36.89	-41.2	-44.1	11.8	4.85e-04	0	61	0	612368384	53	5195
2026-01-30 09:19:55.27	110.67	37.07	-41.3	-44.2	11.8	5.58e-04	0	61	0	615514112	53	5262
2026-01-30 09:19:56.28	110.38	37.25	-41.2	-44.1	11.9	4.14e-04	0	61	0	618659840	53	5190
2026-01-30 09:19:57.29	110.09	37.43	-41.2	-44.2	11.8	4.49e-04	0	61	0	622854144	53	5239
2026-01-30 09:19:58.30	109.79	37.61	-41.3	-44.2	11.7	5.57e-04	0	61	0	625999872	53	5276
2026-01-30 09:19:59.31	109.48	37.79	-41.2	-44.2	11.7	5.49e-04	0	61	0	628097024	53	5246
2026-01-30 09:20:00.32	109.18	37.97	-41.2	-44.1	11.8	4.45e-04	0	61	0	631242752	53	5212
2026-01-30 09:20:01.34	108.87	38.15	-41.2	-44.2	11.8	5.28e-04	0	61	0	634388480	53	5245
2026-01-30 09:20:02.35	108.55	38.33	-41.2	-44.1	11.8	4.55e-04	0	61	0	638582784	53	5209
2026-01-30 09:20:03.36	108.24	38.51	-41.3	-44.3	11.7	6.10e-04	0	61	0	641728512	53	5335
2026-01-30 09:20:04.37	107.92	38.69	-41.3	-44.2	11.8	5.32e-04	0	61	0	644874240	53	5268
2026-01-30 09:20:05.38	107.59	38.87	-41.2	-44.1	11.9	3.97e-04	0	61	0	648019968	53	5189
2026-01-30 09:20:06.38	107.27	39.05	-41.2	-44.1	11.9	3.98e-04	0	61	0	651165696	53	5174
2026-01-30 09:20:07.39	106.94	39.23	-41.0	-43.9	12.1	2.55e-04	0	61	0	654311424	53	5054
2026-01-30 09:20:08.40	106.60	39.41	-41.0	-43.7	12.3	1.85e-04	0	61	0	657457152	53	4982
2026-01-30 09:20:09.41	106.27	39.58	-41.0	-43.8	12.3	2.23e-04	0	61	0	660602880	53	4984
2026-01-30 09:20:10.42	105.92	39.76	-41.1	-44.0	12.0	2.26e-04	0	61	0	663748608	53	5112
2026-01-30 09:20:11.43	105.58	39.94	-41.2	-44.1	12.0	3.20e-04	0	61	0	666894336	53	5172
2026-01-30 09:20:12.44	105.23	40.12	-41.2	-44.2	11.8	4.20e-04	0	61	0	670040064	53	5239
2026-01-30 09:20:13.46	104.87	40.30	-41.3	-44.3	11.7	5.49e-04	0	61	0	673185792	53	5336
2026-01-30 09:20:14.47	104.51	40.48	-41.4	-44.5	11.5	7.32e-04	0	61	0	676331520	53	5421
2026-01-30 09:20:15.48	104.15	40.66	-41.5	-44.7	11.4	1.04e-03	0	61	0	679477248	53	5531
2026-01-30 09:20:16.49	103.79	40.83	-41.6	-44.7	11.2	1.17e-03	0	61	0	682622976	53	5582
2026-01-30 09:20:17.50	103.42	41.01	-41.6	-44.8	11.2	1.41e-03	0	61	0	685768704	53	5638
2026-01-30 09:20:18.51	103.05	41.18	-41.7	-45.0	11.0	1.71e-03	0	61	0	688914432	53	5746
2026-01-30 09:20:19.52	102.67	41.36	-41.8	-45.0	11.0	1.75e-03	0	61	0	692060160	54	5462
2026-01-30 09:20:20.53	102.29	41.53	-41.9	-45.3	10.7	3.13e-03	0	61	0	695205888	54	5628
2026-01-30 09:20:21.55	101.90	41.71	-42.0	-45.5	10.5	3.47e-03	0	61	0	698351616	54	5735
2026-01-30 09:20:22.56	101.51	41.88	-42.0	-45.5	10.5	4.13e-03	0	61	0	701497344	54	5762
2026-01-30 09:20:23.57	101.11	42.06	-42.1	-45.7	10.3	5.06e-03	0	61	0	704643072	54	5906
2026-01-30 09:20:24.58	100.71	42.23	-42.1	-45.8	10.2	5.83e-03	0	61	0	707788800	54	5942
2026-01-30 09:20:25.59	100.31	42.40	-42.2	-45.8	10.2	6.20e-03	0	61	0	710934528	54	5942
2026-01-30 09:20:26.60	99.90	42.57	-42.2	-45.9	10.1	6.39e-03	0	61	0	714080256	55	5711
2026-01-30 09:20:27.61	99.49	42.74	-42.3	-46.1	9.9	9.35e-03	0	61	0	717225984	55	5818
2026-01-30 09:20:28.62	99.08	42.91	-42.5	-46.4	9.6	1.18e-02	0	61	0	720371712	55	6028
2026-01-30 09:20:29.63	98.66	43.07	-42.5	-46.4	9.6	1.33e-02	0	61	0	723517440	55	6031
2026-01-30 09:20:30.64	98.23	43.24	-42.4	-46.2	9.8	1.13e-02	0	61	0	726663168	55	5893
2026-01-30 09:20:31.65	97.80	43.41	-42.1	-45.6	10.4	4.89e-03	0	61	0	729808896	55	5484
2026-01-30 09:20:32.66	97.37	43.57	-41.9	-45.2	10.9	2.94e-03	0	61	0	732954624	55	5227
2026-01-30 09:20:33.67	96.93	43.73	-41.7	-44.9	11.1	1.66e-03	0	61	0	736100352	55	5091
2026-01-30 09:20:34.68	96.49	43.90	-41.7	-44.8	11.3	1.21e-03	0	61	0	739246080	55	5020
2026-01-30 09:20:35.69	96.04	44.06	-41.7	-44.9	11.2	1.33e-03	0	61	0	742391808	55	5095
2026-01-30 09:20:36.70	95.59	44.22	-41.9	-45.2	10.9	1.91e-03	0	61	0	745537536	55	5233
2026-01-30 09:20:37.72	95.13	44.38	-41.9	-45.3	10.8	2.58e-03	0	61	0	748683264	55	5289
2026-01-30 09:20:38.73	94.67	44.53	-41.9	-45.3	10.8	2.61e-03	0	61	0	751828992	55	5315
2026-01-30 09:20:39.74	94.21	44.69	-42.0	-45.4	10.7	3.10e-03	0	61	0	754974720	55	5347
2026-01-30 09:20:40.75	93.74	44.84	-42.1	-45.5	10.6	3.70e-03	0	61	0	758120448	55	5451
2026-01-30 09:20:41.75	93.27	44.99	-42.1	-45.6	10.5	4.22e-03	0	61	0	761266176	55	5486
2026-01-30 09:20:42.76	92.79	45.14	-42.0	-45.5	10.6	3.36e-03	0	61	0	764411904	55	5427
2026-01-30 09:20:43.78	92.30	45.29	-42.0	-45.3	10.8	2.86e-03	0	61	0	767557632	55	5319
2026-01-30 09:20:44.79	91.81	45.44	-41.8	-45.0	11.2	2.24e-03	0	61	0	770703360	55	5110
2026-01-30 09:20:45.79	91.33	45.58	-41.7	-44.8	11.3	1.23e-03	0	61	0	773849088	55	5017
2026-01-30 09:20:46.80	90.83	45.73	-41.8	-45.1	11.0	1.56e-03	0	61	0	776994816	55	5172
2026-01-30 09:20:47.82	90.32	45.87	-42.0	-45.3	10.7	2.67e-03	0	61	0	780140544	55	5336
2026-01-30 09:20:48.83	89.82	46.01	-42.0	-45.3	10.8	2.79e-03	0	61	0	783286272	55	5337
2026-01-30 09:20:49.84	89.31	46.15	-41.8	-45.0	11.2	1.58e-03	0	61	0	786432000	55	5104
2026-01-30 09:20:50.85	88.79	46.28	-41.7	-44.8	11.4	9.19e-04	0	61	0	789577728	55	4997
2026-01-30 09:20:51.86	88.27	46.41	-41.7	-44.8	11.3	1.16e-03	0	61	0	792723456	55	5028
2026-01-30 09:20:52.87	87.75	46.55	-42.0	-45.4	10.6	2.21e-03	0	61	0	795869184	55	5391
2026-01-30 09:20:53.88	87.22	46.67	-42.1	-45.6	10.5	3.65e-03	0	61	0	799014912	55	5480
2026-01-30 09:20:54.89	86.69	46.80	-42.1	-45.4	10.7	3.65e-03	0	61	0	802160640	55	5398
2026-01-30 09:20:55.90	86.15	46.92	-42.0	-45.4	10.7	2.88e-03	0	61	0	805306368	55	5358
2026-01-30 09:20:56.91	85.61	47.05	-41.9	-45.3	10.8	2.46e-03	0	61	0	808452096	55	5293
2026-01-30 09:20:57.92	85.07	47.17	-42.2	-45.7	10.4	4.49e-03	0	61	0	811597824	55	5572
2026-01-30 09:20:58.93	84.52	47.28	-42.4	-46.1	9.9	6.67e-03	0	61	0	814743552	55	5824
2026-01-30 09:20:59.94	83.97	47.40	-42.1	-45.6	10.5	5.41e-03	0	61	0	817889280	55	5479
2026-01-30 09:21:00.95	83.41	47.51	-41.9	-45.2	10.9	2.31e-03	0	61	0	821035008	55	5242
2026-01-30 09:21:01.96	82.85	47.62	-42.0	-45.4	10.7	2.46e-03	0	61	0	824180736	55	5383
2026-01-30 09:21:02.97	82.28	47.72	-42.2	-45.8	10.3	4.98e-03	0	61	0	827326464	55	5623
2026-01-30 09:21:03.98	81.72	47.83	-42.4	-46.1	10.0	7.21e-03	0	61	0	830472192	55	5837
2026-01-30 09:21:04.99	81.14	47.93	-42.3	-46.0	10.1	7.02e-03	0	61	0	833617920	55	5746
2026-01-30 09:21:06.00	80.57	48.02	-42.1	-45.5	10.6	3.79e-03	0	61	0	836763648	55	5414
2026-01-30 09:21:07.01	79.99	48.12	-42.1	-45.6	10.5	3.86e-03	0	61	0	839909376	55	5470
2026-01-30 09:21:08.02	79.40	48.21	-42.1	-45.6	10.4	4.94e-03	0	61	0	843055104	55	5514
2026-01-30 09:21:09.03	78.82	48.30	-41.9	-45.2	10.8	2.77e-03	0	61	0	846200832	55	5236
2026-01-30 09:21:10.04	78.23	48.38	-41.8	-45.1	11.0	1.90e-03	0	61	0	849346560	55	5178
2026-01-30 09:21:11.06	77.63	48.47	-41.8	-45.0	11.0	1.87e-03	0	61	0	852492288	55	5132
2026-01-30 09:21:12.07	77.03	48.54	-41.9	-45.2	10.9	1.89e-03	0	61	0	855638016	55	5228
2026-01-30 09:21:13.08	76.43	48.62	-41.9	-45.3	10.8	2.35e-03	0	61	0	858783744	55	5306
2026-01-30 09:21:14.09	75.83	48.69	-41.7	-44.9	11.2	1.80e-03	0	61	0	861929472	55	5075
2026-01-30 09:21:15.10	75.23	48.76	-41.6	-44.8	11.4	9.40e-04	0	61	0	865075200	55	5020
2026-01-30 09:21:16.11	74.62	48.83	-41.7	-44.9	11.2	1.16e-03	0	61	0	868220928	55	5088
2026-01-30 09:21:17.12	74.01	48.89	-42.0	-45.4	10.7	2.32e-03	0	61	0	871366656	55	5387
2026-01-30 09:21:18.12	73.40	48.95	-42.1	-45.8	10.3	5.32e-03	0	61	0	874512384	55	5628
2026-01-30 09:21:19.13	72.79	49.00	-42.1	-45.9	10.2	6.93e-03	0	61	0	877658112	55	5696
2026-01-30 09:21:20.14	72.17	49.06	-42.0	-45.5	10.5	4.12e-03	0	61	0	880803840	55	5459
2026-01-30 09:21:21.15	71.55	49.10	-41.9	-45.4	10.8	2.71e-03	0	61	0	883949568	55	5342
2026-01-30 09:21:22.16	70.93	49.15	-41.9	-45.3	10.8	2.46e-03	0	61	0	887095296	55	5291
2026-01-30 09:21:23.17	70.31	49.19	-41.9	-45.4	10.8	2.73e-03	0	61	0	890241024	55	5344
2026-01-30 09:21:24.18	69.69	49.23	-42.1	-45.6	10.5	4.22e-03	0	61	0	894435328	55	5500
2026-01-30 09:21:25.19	69.06	49.26	-41.8	-45.0	11.2	1.66e-03	0	61	0	896532480	55	5127
2026-01-30 09:21:26.20	68.43	49.29	-41.7	-44.8	11.4	1.15e-03	0	61	0	899678208	55	5013
2026-01-30 09:21:27.21	67.81	49.32	-41.6	-44.7	11.5	8.98e-04	0	61	0	902823936	55	4941
2026-01-30 09:21:28.22	67.18	49.34	-41.5	-44.4	11.8	6.35e-04	0	61	0	905969664	54	5086
2026-01-30 09:21:29.24	66.54	49.36	-41.4	-44.4	11.8	4.90e-04	0	61	0	910163968	54	5062
2026-01-30 09:21:30.25	65.91	49.38	-41.5	-44.4	11.8	4.54e-04	0	61	0	913309696	54	5062
2026-01-30 09:21:31.26	65.28	49.39	-41.8	-45.0	11.2	1.17e-03	0	61	0	916455424	54	5415
2026-01-30 09:21:32.27	64.65	49.40	-42.0	-45.4	10.8	2.32e-03	0	61	0	919601152	54	5670
2026-01-30 09:21:33.28	64.02	49.40	-41.8	-45.0	11.2	1.65e-03	0	61	0	922746880	54	5416
2026-01-30 09:21:34.29	63.39	49.40	-41.7	-44.9	11.3	1.07e-03	0	61	0	925892608	54	5346
2026-01-30 09:21:35.30	62.75	49.40	-41.5	-44.5	11.7	7.49e-04	0	61	0	929038336	54	5135
2026-01-30 09:21:36.31	62.12	49.39	-41.4	-44.3	11.9	4.29e-04	0	61	0	932184064	54	5036
2026-01-30 09:21:37.32	61.49	49.38	-41.4	-44.3	11.8	4.32e-04	0	61	0	935329792	54	5034
2026-01-30 09:21:38.33	60.86	49.37	-41.4	-44.3	11.9	3.65e-04	0	61	0	938475520	54	4996
2026-01-30 09:21:39.34	60.23	49.35	-41.5	-44.4	11.7	4.42e-04	0	61	0	941621248	54	5095
2026-01-30 09:21:40.35	59.60	49.33	-41.6	-44.6	11.5	7.73e-04	0	61	0	944766976	54	5216
2026-01-30 09:21:41.36	58.97	49.30	-41.7	-44.8	11.4	7.99e-04	0	61	0	947912704	54	5337
2026-01-30 09:21:42.37	58.35	49.28	-41.9	-45.2	11.0	1.59e-03	0	61	0	951058432	54	5544
2026-01-30 09:21:43.38	57.72	49.24	-41.8	-45.0	11.1	1.61e-03	0	61	0	954204160	54	5452
2026-01-30 09:21:44.39	57.10	49.21	-41.8	-44.9	11.2	1.27e-03	0	61	0	957349888	54	5401
2026-01-30 09:21:45.40	56.47	49.17	-41.9	-45.2	11.0	1.78e-03	0	61	0	960495616	54	5534
2026-01-30 09:21:46.41	55.85	49.12	-41.9	-45.2	11.0	1.90e-03	0	61	0	963641344	54	5567
2026-01-30 09:21:47.42	55.23	49.08	-42.1	-45.6	10.6	2.94e-03	0	61	0	966787072	54	5799
2026-01-30 09:21:48.44	54.61	49.03	-42.1	-45.5	10.6	4.05e-03	0	61	0	969932800	54	5778
2026-01-30 09:21:49.45	53.99	48.97	-41.8	-45.1	11.1	1.99e-03	0	61	0	973078528	54	5479
2026-01-30 09:21:50.46	53.38	48.91	-41.8	-45.0	11.1	1.51e-03	0	61	0	976224256	54	5435
2026-01-30 09:21:51.47	52.77	48.85	-41.9	-45.2	11.0	1.68e-03	0	61	0	979369984	54	5556
2026-01-30 09:21:52.47	52.17	48.79	-42.1	-45.5	10.6	3.02e-03	0	61	0	982515712	54	5785
2026-01-30 09:21:53.48	51.56	48.72	-42.0	-45.3	10.8	3.22e-03	0	61	0	985661440	54	5639
2026-01-30 09:21:54.49	50.96	48.65	-41.7	-44.9	11.2	1.42e-03	0	61	0	988807168	54	5375
2026-01-30 09:21:55.51	50.36	48.58	-41.6	-44.7	11.4	9.21e-04	0	61	0	991952896	54	5263
2026-01-30 09:21:56.52	49.76	48.50	-41.7	-44.8	11.3	9.71e-04	0	61	0	995098624	54	5340
2026-01-30 09:21:57.53	49.17	48.42	-41.7	-44.8	11.4	1.10e-03	0	61	0	998244352	54	5295
2026-01-30 09:21:58.54	48.58	48.33	-41.6	-44.6	11.4	1.08e-03	0	62	0	1001390080	54	5211
2026-01-30 09:21:59.55	47.99	48.25	-41.5	-44.5	11.7	6.36e-04	0	61	0	1004535808	54	5109
2026-01-30 09:22:00.56	47.41	48.16	-41.5	-44.5	11.7	5.77e-04	0	61	0	1007681536	54	5112
2026-01-30 09:22:01.57	46.83	48.06	-41.5	-44.4	11.7	5.15e-04	0	61	0	1010827264	54	5090
2026-01-30 09:22:02.58	46.25	47.97	-41.5	-44.4	11.7	6.50e-04	0	61	0	1013972992	54	5094
2026-01-30 09:22:03.59	45.68	47.87	-41.6	-44.6	11.5	6.64e-04	0	61	0	1017118720	54	5208
2026-01-30 09:22:04.60	45.11	47.77	-41.3	-44.2	11.9	5.78e-04	0	61	0	1020264448	54	4942
2026-01-30 09:22:05.61	44.54	47.66	-41.0	-43.7	12.4	1.90e-04	0	61	0	1023410176	54	4694
2026-01-30 09:22:06.62	43.98	47.55	-40.9	-43.6	12.5	1.32e-04	0	61	0	1026555904	53	4903
2026-01-30 09:22:07.63	43.42	47.44	-41.3	-44.2	11.9	3.07e-04	0	61	0	1029701632	53	5275
2026-01-30 09:22:08.64	42.87	47.33	-41.7	-44.8	11.3	1.16e-03	0	61	0	1032847360	53	5651
2026-01-30 09:22:09.65	42.32	47.22	-42.2	-45.8	10.3	3.10e-03	0	61	0	1035993088	54	5956
2026-01-30 09:22:10.66	41.77	47.10	-42.3	-46.0	10.0	7.96e-03	0	61	0	1039138816	55	5772
2026-01-30 09:22:11.67	41.23	46.98	-42.0	-45.4	10.7	4.19e-03	0	61	0	1042284544	55	5370
2026-01-30 09:22:12.68	40.69	46.85	-41.5	-44.6	11.5	1.17e-03	0	61	0	1045430272	55	4890
2026-01-30 09:22:13.69	40.16	46.73	-41.2	-44.1	12.0	3.36e-04	0	61	0	1048576000	54	4888
2026-01-30 09:22:14.70	39.63	46.60	-41.3	-44.2	11.9	3.89e-04	0	61	0	1051721728	54	4938
2026-01-30 09:22:15.71	39.11	46.47	-41.6	-44.8	11.3	7.00e-04	0	61	0	1054867456	54	5300
2026-01-30 09:22:16.73	38.58	46.34	-42.1	-45.7	10.3	3.68e-03	0	61	0	1058013184	54	5919
2026-01-30 09:22:17.74	38.07	46.20	-42.3	-46.1	9.9	9.34e-03	0	61	0	1061158912	55	5811
2026-01-30 09:22:18.75	37.56	46.07	-41.9	-45.3	10.6	5.35e-03	0	61	0	1064304640	55	5287
2026-01-30 09:22:19.76	37.05	45.93	-41.3	-44.3	11.7	8.72e-04	0	61	0	1067450368	54	4997
2026-01-30 09:22:20.77	36.55	45.79	-41.2	-44.0	12.0	2.75e-04	0	61	0	1070596096	54	4865
2026-01-30 09:22:21.78	36.05	45.65	-41.5	-44.6	11.4	6.04e-04	0	62	0	1073741824	54	5182
2026-01-30 09:22:22.79	35.56	45.50	-42.2	-46.0	10.0	6.00e-03	0	61	0	1076887552	55	5723
2026-01-30 09:22:23.80	35.07	45.36	-43.0	-47.5	8.5	2.72e-02	0	61	0	1080033280	56	6489
2026-01-30 09:22:24.81	34.59	45.21	-43.1	-47.7	8.4	5.82e-02	0	61	0	1083179008	57	6260
2026-01-30 09:22:25.82	34.11	45.06	-42.5	-46.3	9.6	2.14e-02	0	61	0	1086324736	57	5339
2026-01-30 09:22:26.83	33.63	44.91	-41.4	-44.3	11.6	1.38e-03	0	61	0	1089470464	54	5039
2026-01-30 09:22:27.84	33.16	44.76	-40.7	-43.3	12.7	9.00e-05	0	61	0	1092616192	53	4741
2026-01-30 09:22:28.85	32.70	44.60	-40.7	-43.3	12.7	6.25e-05	0	61	0	1095761920	53	4744
2026-01-30 09:22:29.86	32.24	44.45	-41.2	-44.0	12.0	1.87e-04	0	61	0	1098907648	53	5152
2026-01-30 09:22:30.87	31.78	44.29	-41.9	-45.3	10.7	1.65e-03	0	62	0	1102053376	54	5630
2026-01-30 09:22:31.88	31.33	44.13	-42.5	-46.6	9.3	1.23e-02	0	61	0	1105199104	55	6195
2026-01-30 09:22:32.89	30.88	43.97	-42.6	-46.7	9.2	2.36e-02	0	61	0	1108344832	55	6204
2026-01-30 09:22:33.90	30.44	43.81	-42.0	-45.5	10.4	6.85e-03	0	61	0	1111490560	55	5425
2026-01-30 09:22:34.91	30.00	43.65	-41.5	-44.5	11.4	1.21e-03	0	62	0	1114636288	54	5146
2026-01-30 09:22:35.92	29.56	43.49	-41.5	-44.5	11.4	7.85e-04	0	61	0	1117782016	54	5149
2026-01-30 09:22:36.93	29.13	43.32	-42.0	-45.4	10.6	3.16e-03	0	61	0	1120927744	54	5720
2026-01-30 09:22:37.94	28.71	43.16	-42.6	-46.8	9.1	1.28e-02	0	61	0	1124073472	55	6299
2026-01-30 09:22:38.95	28.29	42.99	-43.1	-47.7	8.4	3.98e-02	0	61	0	1127219200	56	6591
2026-01-30 09:22:39.96	27.87	42.82	-42.9	-47.3	8.8	3.84e-02	0	61	0	1130364928	56	6311
2026-01-30 09:22:40.97	27.46	42.65	-42.5	-46.5	9.7	1.48e-02	0	61	0	1133510656	56	5730
2026-01-30 09:22:41.98	27.05	42.49	-42.0	-45.5	10.7	3.76e-03	0	61	0	1136656384	56	5101
2026-01-30 09:22:42.99	26.65	42.32	-41.3	-44.2	11.8	6.28e-04	0	61	0	1139802112	54	4971
2026-01-30 09:22:44.00	26.25	42.14	-41.0	-43.8	12.3	2.14e-04	0	61	0	1142947840	54	4728
2026-01-30 09:22:45.01	25.86	41.97	-41.1	-43.9	12.1	1.95e-04	0	61	0	1146093568	54	4808
2026-01-30 09:22:46.02	25.47	41.80	-41.7	-44.9	11.1	1.07e-03	0	61	0	1149239296	54	5356
2026-01-30 09:22:47.03	25.08	41.63	-42.3	-46.0	9.9	7.07e-03	0	61	0	1152385024	55	5762
2026-01-30 09:22:48.04	24.70	41.45	-42.5	-46.6	9.4	1.65e-02	0	61	0	1155530752	55	6132
2026-01-30 09:22:49.05	24.32	41.28	-42.3	-46.0	9.9	1.20e-02	0	61	0	1158676480	55	5770
2026-01-30 09:22:50.07	23.94	41.10	-41.9	-45.4	10.5	5.63e-03	0	61	0	1161822208	55	5357
2026-01-30 09:22:51.08	23.57	40.93	-41.7	-44.9	11.1	2.21e-03	0	61	0	1164967936	55	5055
2026-01-30 09:22:52.09	23.21	40.75	-41.6	-44.7	11.3	1.48e-03	0	61	0	1168113664	55	4943
2026-01-30 09:22:53.10	22.84	40.57	-41.6	-44.7	11.3	9.98e-04	0	61	0	1171259392	54	5239
2026-01-30 09:22:54.11	22.49	40.40	-41.7	-45.0	11.0	1.67e-03	0	61	0	1174405120	54	5444
2026-01-30 09:22:55.12	22.13	40.22	-42.0	-45.6	10.4	3.81e-03	0	62	0	1177550848	54	5794
2026-01-30 09:22:56.13	21.78	40.04	-42.3	-46.2	9.7	1.04e-02	0	62	0	1180696576	55	5912
2026-01-30 09:22:57.14	21.44	39.87	-42.6	-47.0	8.9	2.44e-02	0	61	0	1184890880	55	6426
2026-01-30 09:22:58.14	21.10	39.69	-42.6	-46.9	9.0	2.49e-02	0	61	0	1188036608	55	6358
2026-01-30 09:22:59.16	20.76	39.51	-42.4	-46.3	9.6	1.75e-02	0	61	0	1190133760	55	5960
2026-01-30 09:23:00.17	20.42	39.33	-42.0	-45.5	10.5	5.12e-03	0	61	0	1193279488	55	5426
2026-01-30 09:23:01.18	20.09	39.15	-41.7	-44.9	11.1	1.83e-03	0	61	0	1196425216	55	5068
2026-01-30 09:23:02.19	19.76	38.97	-41.7	-44.8	11.1	1.37e-03	0	62	0	1200619520	55	5037
2026-01-30 09:23:03.20	19.44	38.79	-41.6	-44.8	11.1	1.46e-03	0	62	0	1203765248	55	5019
2026-01-30 09:23:04.20	19.12	38.62	-41.9	-45.3	10.6	2.48e-03	0	61	0	1206910976	55	5319
2026-01-30 09:23:05.21	18.80	38.44	-42.1	-45.8	10.2	5.16e-03	0	61	0	1210056704	55	5603
2026-01-30 09:23:06.22	18.49	38.26	-42.1	-45.7	10.3	6.14e-03	0	61	0	1212153856	55	5548
2026-01-30 09:23:07.23	18.18	38.08	-41.8	-45.2	10.8	3.23e-03	0	61	0	1216348160	55	5242
2026-01-30 09:23:08.24	17.87	37.90	-41.5	-44.7	11.3	1.43e-03	0	62	0	1219493888	55	4954
2026-01-30 09:23:09.25	17.57	37.72	-41.5	-44.7	11.3	1.12e-03	0	61	0	1222639616	55	4928
2026-01-30 09:23:10.26	17.27	37.54	-41.4	-44.4	11.6	7.70e-04	0	61	0	1225785344	54	5090
2026-01-30 09:23:11.27	16.98	37.36	-41.2	-44.1	11.9	5.09e-04	0	61	0	1228931072	54	4875
2026-01-30 09:23:12.28	16.68	37.18	-40.9	-43.7	12.3	2.27e-04	0	61	0	1232076800	53	4973
2026-01-30 09:23:13.29	16.39	37.00	-40.8	-43.6	12.4	1.55e-04	0	62	0	1235222528	53	4882
2026-01-30 09:23:14.30	16.11	36.83	-40.9	-43.6	12.3	1.46e-04	0	61	0	1238368256	53	4921
2026-01-30 09:23:15.31	15.82	36.65	-41.1	-43.9	12.1	2.58e-04	0	61	0	1241513984	53	5069
2026-01-30 09:23:16.32	15.54	36.47	-41.2	-44.1	11.8	4.45e-04	0	62	0	1244659712	53	5212
2026-01-30 09:23:17.33	15.26	36.29	-41.2	-44.1	11.9	4.10e-04	0	62	0	1247805440	53	5184
2026-01-30 09:23:18.34	14.99	36.11	-40.9	-43.6	12.3	2.43e-04	0	61	0	1250951168	53	4924
2026-01-30 09:23:19.35	14.72	35.94	-40.7	-43.3	12.8	9.76e-05	0	61	0	1254096896	53	4712
2026-01-30 09:23:20.36	14.45	35.76	-40.5	-43.1	13.0	5.18e-05	0	61	0	1257242624	52	4882
2026-01-30 09:23:21.37	14.19	35.58	-40.5	-43.0	13.1	2.82e-05	0	61	0	1260388352	52	4829
2026-01-30 09:23:22.38	13.92	35.40	-40.6	-43.2	12.8	6.33e-05	0	62	0	1263534080	52	4983
2026-01-30 09:23:23.39	13.66	35.23	-40.8	-43.5	12.5	1.11e-04	0	61	0	1266679808	52	5137
2026-01-30 09:23:24.40	13.41	35.05	-40.8	-43.6	12.4	1.59e-04	0	62	0	1269825536	52	5197
2026-01-30 09:23:25.41	13.15	34.87	-40.7	-43.4	12.7	1.15e-04	0	62	0	1272971264	52	5046
2026-01-30 09:23:26.42	12.90	34.70	-40.6	-43.2	12.8	6.17e-05	0	61	0	1276116992	52	4949
2026-01-30 09:23:27.43	12.65	34.52	-40.6	-43.1	12.9	4.57e-05	0	62	0	1279262720	52	4907
2026-01-30 09:23:28.44	12.41	34.35	-40.6	-43.2	12.9	5.18e-05	0	61	0	1282408448	52	4935
2026-01-30 09:23:29.45	12.16	34.17	-40.6	-43.3	12.7	6.86e-05	0	61	0	1285554176	52	5016
2026-01-30 09:23:30.46	11.92	34.00	-40.7	-43.3	12.7	7.62e-05	0	62	0	1288699904	52	5021
2026-01-30 09:23:31.47	11.69	33.83	-40.7	-43.4	12.6	8.54e-05	0	61	0	1291845632	52	5065
2026-01-30 09:23:32.48	11.45	33.65	-40.7	-43.3	12.6	8.39e-05	0	61	0	1294991360	52	5025
2026-01-30 09:23:33.49	11.22	33.48	-40.6	-43.3	12.7	6.94e-05	0	62	0	1298137088	52	5013
2026-01-30 09:23:34.50	10.99	33.31	-40.6	-43.2	12.8	6.02e-05	0	61	0	1301282816	52	4948
2026-01-30 09:23:35.51	10.76	33.14	-40.6	-43.2	12.8	7.55e-05	0	62	0	1304428544	52	4965
2026-01-30 09:23:36.52	10.53	32.97	-40.6	-43.2	12.8	6.63e-05	0	61	0	1307574272	52	4945
2026-01-30 09:23:37.53	10.31	32.79	-40.8	-43.5	12.5	1.13e-04	0	62	0	1310720000	52	5103
2026-01-30 09:23:38.54	10.09	32.62	-40.9	-43.7	12.2	1.72e-04	0	61	0	1313865728	52	5279
2026-01-30 09:23:39.55	9.87	32.45	-40.9	-43.7	12.2	2.37e-04	0	62	0	1317011456	52	5272
2026-01-30 09:23:40.56	9.66	32.28	-40.9	-43.7	12.2	2.27e-04	0	61	0	1320157184	52	5266
2026-01-30 09:23:41.57	9.44	32.12	-40.8	-43.5	12.5	1.16e-04	0	61	0	1323302912	52	5111
2026-01-30 09:23:42.58	9.23	31.95	-40.7	-43.4	12.6	1.19e-04	0	62	0	1326448640	52	5080
2026-01-30 09:23:43.59	9.02	31.78	-40.6	-43.3	12.7	7.32e-05	0	61	0	1329594368	52	4988
2026-01-30 09:23:44.60	8.81	31.61	-40.6	-43.2	12.8	7.78e-05	0	61	0	1332740096	52	4969
2026-01-30 09:23:45.61	8.61	31.44	-40.5	-43.1	12.9	5.18e-05	0	61	0	1335885824	52	4877
2026-01-30 09:23:46.62	8.41	31.28	-40.5	-43.1	12.8	4.04e-05	0	61	0	1339031552	52	4883
2026-01-30 09:23:47.63	8.21	31.11	-40.6	-43.2	12.7	5.41e-05	0	62	0	1342177280	52	4937
2026-01-30 09:23:48.64	8.01	30.95	-40.5	-43.1	12.8	5.49e-05	0	61	0	1345323008	52	4912
2026-01-30 09:23:49.65	7.81	30.78	-40.5	-43.1	12.8	4.34e-05	0	62	0	1348468736	52	4901
2026-01-30 09:23:50.66	7.62	30.62	-40.5	-43.0	12.9	4.11e-05	0	62	0	1351614464	52	4841
2026-01-30 09:23:51.67	7.42	30.45	-40.4	-42.9	13.0	4.95e-05	0	61	0	1354760192	52	4779
2026-01-30 09:23:52.68	7.23	30.29	-40.4	-42.9	13.1	3.12e-05	0	62	0	1357905920	52	4771
2026-01-30 09:23:53.70	7.04	30.13	-40.3	-42.8	13.2	3.58e-05	0	61	0	1361051648	52	4725
2026-01-30 09:23:54.70	6.86	29.97	-40.3	-42.7	13.2	2.44e-05	0	61	0	1364197376	52	4698
2026-01-30 09:23:55.72	6.67	29.80	-40.3	-42.8	13.1	3.89e-05	0	62	0	1367343104	52	4756
2026-01-30 09:23:56.72	6.49	29.64	-40.4	-42.9	13.0	3.20e-05	0	61	0	1370488832	52	4785
2026-01-30 09:23:57.74	6.31	29.48	-40.5	-43.1	12.8	5.49e-05	0	61	0	1373634560	52	4876
2026-01-30 09:23:58.75	6.13	29.32	-40.4	-43.0	12.9	4.57e-05	0	62	0	1376780288	52	4848
2026-01-30 09:23:59.76	5.95	29.16	-40.5	-43.0	12.9	4.80e-05	0	61	0	1379926016	52	4854
2026-01-30 09:24:00.77	5.77	29.01	-40.5	-43.1	12.8	4.80e-05	0	62	0	1383071744	52	4895
2026-01-30 09:24:01.78	5.60	28.85	-40.4	-43.0	12.9	4.50e-05	0	61	0	1386217472	52	4835
2026-01-30 09:24:02.79	5.43	28.69	-40.4	-43.0	12.9	4.57e-05	0	62	0	1389363200	52	4848
2026-01-30 09:24:03.80	5.26	28.53	-40.4	-43.0	12.9	4.73e-05	0	61	0	1392508928	52	4835
2026-01-30 09:24:04.81	5.09	28.38	-40.4	-42.9	13.0	5.11e-05	0	61	0	1395654656	52	4800
2026-01-30 09:24:05.82	4.92	28.22	-40.2	-42.7	13.2	2.97e-05	0	62	0	1398800384	52	4663
2026-01-30 09:24:06.83	4.76	28.07	-40.1	-42.5	13.3	1.29e-05	0	61	0	1401946112	52	4587
2026-01-30 09:24:07.84	4.59	27.91	-40.1	-42.5	13.3	6.80e-06	0	62	0	1405091840	52	4578
2026-01-30 09:24:08.85	4.43	27.76	-40.1	-42.4	13.4	9.90e-06	0	62	0	1408237568	52	4542
2026-01-30 09:24:09.86	4.27	27.61	-40.0	-42.4	13.5	1.22e-05	0	61	0	1411383296	52	4521
2026-01-30 09:24:10.88	4.11	27.45	-40.0	-42.4	13.5	1.90e-05	0	61	0	1414529024	52	4539
2026-01-30 09:24:11.89	3.95	27.30	-40.0	-42.4	13.5	1.67e-05	0	62	0	1417674752	52	4506
2026-01-30 09:24:12.90	3.79	27.15	-40.0	-42.4	13.5	6.80e-06	0	62	0	1420820480	51	4786
2026-01-30 09:24:13.91	3.64	27.00	-40.0	-42.3	13.7	4.50e-06	0	61	0	1423966208	51	4711
2026-01-30 09:24:14.92	3.49	26.85	-39.9	-42.1	13.8	9.10e-06	0	62	0	1427111936	51	4634
2026-01-30 09:24:15.93	3.33	26.70	-39.8	-42.1	13.8	2.20e-06	0	61	0	1430257664	51	4616
2026-01-30 09:24:16.94	3.18	26.55	-39.8	-42.1	13.8	3.00e-06	0	62	0	1433403392	51	4620
2026-01-30 09:24:17.95	3.04	26.40	-39.8	-42.1	13.9	6.80e-06	0	62	0	1436549120	51	4608
2026-01-30 09:24:18.96	2.89	26.25	-39.7	-41.9	14.0	2.20e-06	0	62	0	1439694848	51	4536
2026-01-30 09:24:19.97	2.74	26.11	-39.8	-42.0	13.9	4.50e-06	0	61	0	1442840576	51	4591
2026-01-30 09:24:20.98	2.60	25.96	-39.8	-42.1	13.8	3.80e-06	0	62	0	1445986304	51	4631
2026-01-30 09:24:21.99	2.45	25.81	-39.8	-42.0	13.9	6.10e-06	0	61	0	1449132032	51	4585
2026-01-30 09:24:23.00	2.31	25.67	-39.9	-42.1	13.7	3.80e-06	0	62	0	1452277760	51	4646
2026-01-30 09:24:24.01	2.17	25.52	-39.8	-42.0	13.9	6.10e-06	0	62	0	1455423488	51	4590
2026-01-30 09:24:25.02	2.03	25.38	-39.8	-42.0	13.9	4.50e-06	0	61	0	1458569216	51	4586
2026-01-30 09:24:26.03	1.90	25.24	-39.8	-42.1	13.8	4.50e-06	0	61	0	1461714944	51	4606
2026-01-30 09:24:27.04	1.76	25.09	-39.9	-42.2	13.7	5.30e-06	0	61	0	1464860672	51	4659
2026-01-30 09:24:28.05	1.62	24.95	-39.8	-42.0	13.9	6.10e-06	0	61	0	1468006400	51	4582
2026-01-30 09:24:29.06	1.49	24.81	-39.8	-42.1	13.8	2.20e-06	0	61	0	1471152128	51	4641
2026-01-30 09:24:30.07	1.36	24.67	-39.9	-42.2	13.7	5.30e-06	0	61	0	1474297856	51	4656
2026-01-30 09:24:31.08	1.22	24.53	-39.9	-42.2	13.6	3.00e-06	0	62	0	1477443584	51	4704
2026-01-30 09:24:32.09	1.09	24.39	-40.0	-42.4	13.4	7.60e-06	0	61	0	1480589312	51	4789
2026-01-30 09:24:33.10	0.96	24.25	-40.0	-42.4	13.4	1.14e-05	0	62	0	1483735040	51	4794
2026-01-30 09:24:34.11	0.84	24.11	-40.0	-42.4	13.5	1.60e-05	0	62	0	1486880768	51	4766
2026-01-30 09:24:35.12	0.71	23.97	-40.0	-42.3	13.5	9.90e-06	0	61	0	1490026496	51	4747
2026-01-30 09:24:36.13	0.58	23.83	-40.0	-42.4	13.5	9.90e-06	0	62	0	1493172224	51	4776
2026-01-30 09:24:37.14	0.46	23.70	-40.0	-42.4	13.4	1.37e-05	0	61	0	1497366528	51	4810
2026-01-30 09:24:38.15	0.33	23.56	-40.0	-42.4	13.4	1.37e-05	0	62	0	1500512256	51	4795
2026-01-30 09:24:39.15	0.21	23.43	-40.1	-42.5	13.3	1.60e-05	0	62	0	1503657984	51	4833
2026-01-30 09:24:40.17	0.09	23.29	-40.1	-42.6	13.2	2.13e-05	0	61	0	1505755136	51	4886
2026-01-30 09:24:41.18	359.97	23.15	-40.1	-42.5	13.3	1.67e-05	0	62	0	1508900864	51	4836
2026-01-30 09:24:42.19	359.85	23.02	-40.1	-42.5	13.3	1.44e-05	0	62	0	1513095168	51	4838
2026-01-30 09:24:43.20	359.73	22.89	-40.0	-42.4	13.4	1.83e-05	0	61	0	1516240896	51	4791
2026-01-30 09:24:44.21	359.62	22.75	-40.0	-42.4	13.4	8.30e-06	0	61	0	1519386624	51	4798
2026-01-30 09:24:45.22	359.50	22.62	-40.0	-42.4	13.3	1.44e-05	0	62	0	1522532352	51	4809
2026-01-30 09:24:46.23	359.38	22.49	-40.0	-42.4	13.3	1.37e-05	0	61	0	1525678080	51	4807
2026-01-30 09:24:47.24	359.27	22.36	-40.0	-42.4	13.4	1.60e-05	0	62	0	1528823808	51	4773
2026-01-30 09:24:48.26	359.16	22.23	-40.0	-42.4	13.3	1.29e-05	0	62	0	1531969536	51	4804
2026-01-30 09:24:49.27	359.04	22.09	-40.0	-42.4	13.3	1.83e-05	0	62	0	1535115264	51	4806
2026-01-30 09:24:50.28	358.93	21.97	-40.1	-42.6	13.1	2.67e-05	0	61	0	1538260992	51	4896
2026-01-30 09:24:51.29	358.82	21.84	-40.1	-42.6	13.1	2.89e-05	0	62	0	1541406720	51	4884
2026-01-30 09:24:52.30	358.71	21.71	-40.1	-42.6	13.1	4.04e-05	0	61	0	1544552448	51	4887
2026-01-30 09:24:53.31	358.60	21.58	-40.1	-42.6	13.0	3.81e-05	0	62	0	1547698176	51	4911
2026-01-30 09:24:54.32	358.50	21.45	-40.0	-42.6	13.0	3.05e-05	0	62	0	1550843904	51	4884
2026-01-30 09:24:55.33	358.39	21.32	-40.1	-42.6	12.9	4.88e-05	0	62	0	1553989632	51	4917
2026-01-30 09:24:56.34	358.28	21.20	-40.0	-42.6	12.8	5.26e-05	0	61	0	1557135360	51	4896
2026-01-30 09:24:57.35	358.18	21.07	-39.9	-42.5	12.9	5.72e-05	0	61	0	1560281088	51	4837
2026-01-30 09:24:58.36	358.08	20.95	-39.9	-42.4	13.0	3.73e-05	0	62	0	1563426816	51	4782
2026-01-30 09:24:59.38	357.97	20.82	-39.8	-42.4	13.0	4.50e-05	0	61	0	1566572544	51	4770
2026-01-30 09:25:00.38	357.87	20.70	-39.8	-42.4	12.8	6.40e-05	0	61	0	1569718272	51	4775
2026-01-30 09:25:01.39	357.77	20.57	-39.7	-42.3	12.8	6.33e-05	0	61	0	1572864000	51	4711
2026-01-30 09:25:02.40	357.67	20.45	-39.5	-42.0	13.0	5.26e-05	0	62	0	1576009728	51	4587
2026-01-30 09:25:03.41	357.57	20.33	-39.5	-42.0	12.9	4.42e-05	0	62	0	1579155456	50	4862
2026-01-30 09:25:04.42	357.47	20.20	-39.5	-42.1	12.7	7.70e-05	0	62	0	1582301184	50	4925
2026-01-30 09:25:05.43	357.37	20.08	-39.6	-42.3	12.4	1.22e-04	0	61	0	1585446912	50	5008
2026-01-30 09:25:06.44	357.27	19.96	-39.5	-42.2	12.5	1.10e-04	0	61	0	1588592640	50	4941
2026-01-30 09:25:07.46	357.18	19.84	-39.3	-41.9	12.7	7.85e-05	0	61	0	1591738368	50	4808
2026-01-30 09:25:08.47	357.08	19.72	-39.2	-41.8	12.8	5.95e-05	0	62	0	1594884096	50	4748
2026-01-30 09:25:09.47	356.99	19.60	-39.2	-41.8	12.8	6.48e-05	0	62	0	1598029824	50	4723
2026-01-30 09:25:10.48	356.89	19.48	-39.2	-41.7	12.7	7.40e-05	0	62	0	1601175552	50	4697
2026-01-30 09:25:11.49	356.80	19.36	-39.0	-41.5	12.9	5.56e-05	0	62	0	1604321280	50	4580
2026-01-30 09:25:12.51	356.71	19.24	-38.9	-41.4	12.9	3.81e-05	0	61	0	1607467008	49	4807
2026-01-30 09:25:13.52	356.62	19.12	-38.9	-41.5	12.7	6.17e-05	0	62	0	1610612736	49	4847
2026-01-30 09:25:14.53	356.52	19.01	-39.1	-41.8	12.3	1.11e-04	0	61	0	1613758464	49	5029
2026-01-30 09:25:15.54	356.43	18.89	-39.4	-42.3	11.7	5.69e-04	0	61	0	1616904192	49	5325
2026-01-30 09:25:16.55	356.34	18.77	-39.6	-42.9	10.9	1.57e-03	0	62	0	1620049920	49	5704
2026-01-30 09:25:17.56	356.25	18.66	-40.0	-43.7	9.9	5.88e-03	0	62	0	1623195648	50	5906
2026-01-30 09:25:18.57	356.17	18.54	-40.3	-44.6	8.9	2.26e-02	0	62	0	1626341376	51	6156
2026-01-30 09:25:19.58	356.08	18.43	-40.6	-45.5	7.8	6.71e-02	0	62	0	1629487104	51	6838
2026-01-30 09:25:20.59	355.99	18.31	-40.7	-46.3	6.8	1.58e-01	0	62	0	1632632832	52	7064
2026-01-30 09:25:21.60	355.91	18.20	-40.9	-47.0	6.1	2.88e-01	0	62	0	1635778560	52	7668
2026-01-30 09:25:22.61	355.82	18.08	-41.0	-47.7	5.6	4.16e-01	0	62	0	1638924288	52	8311
2026-01-30 09:25:23.62	355.74	17.97	-41.0	-48.4	5.0	6.04e-01	0	62	0	1642070016	52	9012
2026-01-30 09:25:24.63	355.65	17.86	-41.1	-50.0	4.0	1.12e+00	0	62	104	1643118592	52	10786
2026-01-30 09:25:25.64	355.57	17.74	-41.2	-50.2	4.2	1.46e+00	0	62	104	1643118592	52	11066
2026-01-30 09:25:26.65	355.49	17.63	-41.0	-51.8	3.8	1.48e+00	0	62	104	1643118592	52	13317
2026-01-30 09:25:27.66	355.40	17.52	-41.6	-52.2	3.8	1.49e+00	0	62	104	1643118592	53	13254
2026-01-30 09:25:28.67	355.32	17.41	-41.1	-52.6	3.8	1.49e+00	0	62	104	1643118592	54	13031
2026-01-30 09:25:29.68	355.24	17.30	-41.2	-52.0	3.8	1.49e+00	0	62	104	1643118592	53	12936
2026-01-30 09:25:30.69	355.16	17.19	-41.6	-52.4	3.8	1.49e+00	0	62	104	1643118592	53	13473
2026-01-30 09:25:31.70	355.08	17.08	-41.5	-52.6	3.8	1.49e+00	0	62	104	1643118592	53	13878
2026-01-30 09:25:32.70	355.00	16.97	-41.4	-52.7	3.8	1.49e+00	0	62	104	1643118592	53	13957
2026-01-30 09:25:33.71	354.92	16.86	-41.3	-52.8	3.8	1.49e+00	0	62	104	1643118592	53	14194
2026-01-30 09:25:34.72	354.84	16.75	-41.3	-52.9	3.8	1.49e+00	0	62	104	1643118592	53	14280
2026-01-30 09:25:35.73	354.77	16.65	-40.7	-52.7	3.8	1.49e+00	0	62	104	1643118592	53	13953
2026-01-30 09:25:36.74	354.69	16.54	-40.6	-52.7	3.8	1.49e+00	0	62	104	1643118592	53	13947
2026-01-30 09:25:37.75	354.61	16.43	-41.1	-53.1	3.8	1.49e+00	0	62	104	1643118592	53	14575
2026-01-30 09:25:38.76	354.54	16.32	-40.5	-52.6	3.8	1.49e+00	0	62	104	1643118592	53	13860
2026-01-30 09:25:39.77	354.46	16.22	-40.9	-52.9	3.8	1.49e+00	0	62	104	1643118592	53	14309
2026-01-30 09:25:40.78	354.39	16.11	-40.6	-52.7	3.8	1.49e+00	0	62	104	1643118592	53	14011
2026-01-30 09:25:41.79	354.31	16.01	-40.8	-52.9	3.8	1.49e+00	0	62	104	1643118592	53	14262
2026-01-30 09:25:42.80	354.24	15.90	-40.5	-52.7	3.8	1.49e+00	0	62	104	1643118592	52	14720
2026-01-30 09:25:43.81	354.17	15.80	-40.7	-52.9	3.8	1.49e+00	0	62	104	1643118592	52	15061
2026-01-30 09:25:44.82	354.10	15.69	-40.6	-52.8	3.8	1.49e+00	0	62	104	1643118592	52	14926
2026-01-30 09:25:45.83	354.02	15.59	-40.7	-52.8	3.8	1.49e+00	0	62	104	1643118592	52	14949
2026-01-30 09:25:46.84	353.95	15.48	-40.5	-52.7	3.8	1.49e+00	0	62	104	1643118592	52	14742
2026-01-30 09:25:47.85	353.88	15.38	-40.6	-52.8	3.8	1.49e+00	0	62	104	1643118592	52	14906
2026-01-30 09:25:48.86	353.81	15.28	-40.5	-52.7	3.8	1.49e+00	0	62	104	1643118592	52	14826
2026-01-30 09:25:49.87	353.74	15.18	-40.6	-52.7	3.8	1.49e+00	0	62	104	1643118592	52	14795
2026-01-30 09:25:50.88	353.67	15.07	-40.5	-52.7	3.8	1.49e+00	0	62	104	1643118592	52	14858
2026-01-30 09:25:51.89	353.60	14.97	-40.5	-52.7	3.8	1.49e+00	0	62	104	1643118592	52	14733
2026-01-30 09:25:52.90	353.54	14.87	-40.5	-52.7	3.8	1.49e+00	0	62	104	1643118592	52	14835
2026-01-30 09:25:53.91	353.47	14.77	-40.5	-52.7	3.8	1.49e+00	0	62	104	1643118592	52	14736
2026-01-30 09:25:54.92	353.40	14.67	-40.5	-52.7	3.8	1.49e+00	0	61	104	1643118592	52	14841
2026-01-30 09:25:55.93	353.33	14.57	-40.4	-52.6	3.8	1.49e+00	0	62	104	1643118592	52	14681
2026-01-30 09:25:56.94	353.27	14.47	-40.5	-52.7	3.8	1.49e+00	0	62	104	1643118592	52	14827
2026-01-30 09:25:57.95	353.20	14.37	-40.4	-52.5	3.8	1.49e+00	0	62	104	1643118592	52	14492
2026-01-30 09:25:58.96	353.14	14.27	-40.5	-52.7	3.8	1.49e+00	0	62	104	1643118592	52	14814
2026-01-30 09:25:59.97	353.07	14.17	-40.5	-52.6	3.8	1.49e+00	0	62	104	1643118592	52	14646
2026-01-30 09:26:00.98	353.01	14.07	-40.6	-52.8	3.8	1.49e+00	0	62	104	1643118592	52	14905
2026-01-30 09:26:01.99	352.94	13.98	-40.3	-52.5	3.8	1.49e+00	0	62	104	1643118592	52	14464
2026-01-30 09:26:03.00	352.88	13.88	-40.4	-52.6	3.8	1.49e+00	0	62	104	1643118592	52	14698
2026-01-30 09:26:04.01	352.81	13.78	-40.5	-52.7	3.8	1.49e+00	0	62	104	1643118592	52	14768
2026-01-30 09:26:05.02	352.75	13.69	-40.6	-52.8	3.8	1.49e+00	0	62	104	1643118592	52	14959
2026-01-30 09:26:06.03	352.69	13.59	-40.3	-52.5	3.8	1.49e+00	0	62	104	1643118592	52	14521
2026-01-30 09:26:07.04	352.63	13.49	-40.5	-52.7	3.8	1.49e+00	0	62	104	1643118592	52	14762
2026-01-30 09:26:08.05	352.57	13.40	-40.5	-52.7	3.8	1.49e+00	0	62	104	1643118592	52	14794
2026-01-30 09:26:09.06	352.51	13.30	-40.6	-52.8	3.8	1.49e+00	0	62	104	1643118592	52	14971
2026-01-30 09:26:10.07	352.44	13.21	-40.4	-52.6	3.8	1.49e+00	0	62	104	1643118592	52	14644
2026-01-30 09:26:11.09	352.38	13.11	-40.5	-52.7	3.8	1.49e+00	0	62	104	1643118592	52	14820
2026-01-30 09:26:12.10	352.32	13.02	-40.5	-52.7	3.8	1.49e+00	0	62	104	1643118592	52	14740
