passes_logs/2026/01/30/R2.0S_Moscow/R2.0S_Moscow__20260130_140247_FENGYUN_3E_rec.log

#Pass ID: 20260130_140247_FENGYUN 3E
#Satellite: FENGYUN 3E
#Configuration: FENGYUN 3E
#almurnet v.1.7.20251203
#Start time: 2026-01-30 14:02:48

#Version: 2.2.20231116
#Station: R2.0S_Moscow
#Location: 37.707566 lon 55.798166 lat
#TLE: 1 49008U 21062A   26030.15628484 -.00000231  00000+0 -88238-4 0  9991
#TLE: 2 49008  98.7496  35.1082 0002567 110.3408 249.8045 14.19886954236998

#Time	Az	El	Level	Level2	SNR	BER	BlckErr	Temp	State	Recorded	gain1	gain2
2026-01-30 14:02:48.14	156.01	2.02	-44.3	-55.2	3.8	8.45e-01	0	54	0	0	59	12494
2026-01-30 14:02:49.14	156.01	2.09	-44.3	-55.2	3.8	8.46e-01	0	54	104	0	59	12500
2026-01-30 14:02:50.16	156.00	2.15	-44.3	-55.2	3.8	8.47e-01	0	54	104	0	59	12462
2026-01-30 14:02:51.17	156.00	2.22	-44.3	-55.2	3.8	8.46e-01	0	54	104	0	59	12402
2026-01-30 14:02:52.18	155.99	2.29	-44.3	-55.2	3.8	8.44e-01	0	54	104	0	59	12413
2026-01-30 14:02:53.19	155.99	2.35	-44.3	-55.2	3.8	8.45e-01	0	54	104	0	59	12423
2026-01-30 14:02:54.20	155.98	2.42	-44.3	-55.2	3.8	8.47e-01	0	54	104	0	59	12458
2026-01-30 14:02:55.21	155.98	2.48	-44.3	-55.2	3.8	8.45e-01	0	54	104	0	59	12516
2026-01-30 14:02:56.22	155.97	2.55	-44.3	-55.2	3.8	8.47e-01	0	54	104	0	59	12441
2026-01-30 14:02:57.23	155.97	2.62	-44.3	-55.2	3.8	8.47e-01	0	55	104	0	59	12446
2026-01-30 14:02:58.24	155.96	2.68	-44.3	-55.2	3.8	8.46e-01	0	54	104	0	59	12514
2026-01-30 14:02:59.25	155.96	2.75	-44.3	-55.2	3.8	8.46e-01	0	55	104	0	59	12461
2026-01-30 14:03:00.26	155.95	2.82	-44.3	-55.2	3.8	8.46e-01	0	55	104	0	59	12497
2026-01-30 14:03:01.27	155.95	2.88	-44.3	-55.2	3.8	8.46e-01	0	55	104	0	59	12441
2026-01-30 14:03:02.28	155.94	2.95	-44.3	-55.2	3.8	8.47e-01	0	55	104	0	59	12418
2026-01-30 14:03:03.29	155.94	3.02	-44.3	-55.2	3.8	8.45e-01	0	55	104	0	59	12444
2026-01-30 14:03:04.30	155.93	3.08	-44.3	-55.2	3.8	8.46e-01	0	55	104	0	59	12480
2026-01-30 14:03:05.31	155.93	3.15	-44.3	-55.2	3.8	8.45e-01	0	55	104	0	59	12471
2026-01-30 14:03:06.32	155.92	3.22	-44.3	-55.2	3.8	8.46e-01	0	55	104	0	59	12428
2026-01-30 14:03:07.33	155.92	3.29	-44.3	-55.2	3.8	8.46e-01	0	55	104	0	59	12400
2026-01-30 14:03:08.34	155.91	3.36	-44.3	-55.1	3.8	8.47e-01	0	55	104	0	59	12355
2026-01-30 14:03:09.35	155.91	3.42	-44.3	-55.2	3.8	8.46e-01	0	55	104	0	59	12428
2026-01-30 14:03:10.36	155.90	3.49	-44.3	-55.2	3.8	8.46e-01	0	55	104	0	59	12410
2026-01-30 14:03:11.37	155.90	3.56	-44.3	-55.2	3.8	8.47e-01	0	55	104	0	59	12461
2026-01-30 14:03:12.38	155.89	3.63	-44.3	-55.2	3.8	8.46e-01	0	56	104	0	59	12391
2026-01-30 14:03:13.39	155.89	3.70	-44.3	-55.2	3.8	8.47e-01	0	56	104	0	59	12438
2026-01-30 14:03:14.40	155.88	3.77	-44.3	-55.2	3.8	8.47e-01	0	56	104	0	59	12417
2026-01-30 14:03:15.41	155.87	3.84	-44.3	-55.2	3.8	8.46e-01	0	56	104	0	59	12425
2026-01-30 14:03:16.42	155.87	3.91	-44.3	-55.2	3.8	8.47e-01	0	56	104	0	59	12459
2026-01-30 14:03:17.43	155.86	3.98	-44.3	-55.2	3.8	8.46e-01	0	56	104	0	59	12446
2026-01-30 14:03:18.44	155.86	4.05	-44.3	-55.2	3.8	8.46e-01	0	56	104	0	59	12465
2026-01-30 14:03:19.45	155.85	4.12	-44.3	-55.2	3.8	8.46e-01	0	56	104	0	59	12491
2026-01-30 14:03:20.46	155.85	4.19	-44.3	-55.2	3.8	8.46e-01	0	56	104	0	59	12432
2026-01-30 14:03:21.47	155.84	4.26	-44.3	-55.2	3.8	8.47e-01	0	56	104	0	59	12396
2026-01-30 14:03:22.48	155.83	4.33	-44.3	-55.2	3.8	8.45e-01	0	56	104	0	59	12401
2026-01-30 14:03:23.49	155.83	4.40	-44.3	-55.2	3.8	8.46e-01	0	56	104	0	59	12387
2026-01-30 14:03:24.50	155.82	4.47	-44.3	-55.2	3.8	8.46e-01	0	56	104	0	59	12450
2026-01-30 14:03:25.51	155.82	4.54	-44.3	-55.2	3.8	8.46e-01	0	56	104	0	59	12437
2026-01-30 14:03:26.52	155.81	4.61	-44.3	-55.2	3.8	8.45e-01	0	57	104	0	59	12457
2026-01-30 14:03:27.53	155.80	4.68	-44.3	-55.2	3.8	8.46e-01	0	56	104	0	59	12449
2026-01-30 14:03:28.55	155.80	4.76	-44.3	-55.2	3.8	8.46e-01	0	56	104	0	59	12406
2026-01-30 14:03:29.56	155.79	4.83	-44.3	-55.1	3.8	8.46e-01	0	57	104	0	59	12252
2026-01-30 14:03:30.56	155.79	4.90	-44.3	-55.0	3.8	8.46e-01	0	57	104	0	59	12228
2026-01-30 14:03:31.58	155.78	4.97	-44.2	-54.9	3.8	8.46e-01	0	57	104	0	59	12025
2026-01-30 14:03:32.59	155.77	5.04	-44.2	-54.8	3.8	8.46e-01	0	57	104	0	59	11842
2026-01-30 14:03:33.60	155.77	5.12	-44.2	-54.6	3.8	8.45e-01	0	57	104	0	59	11579
2026-01-30 14:03:34.61	155.76	5.19	-44.2	-54.5	3.8	8.46e-01	0	57	104	0	59	11466
2026-01-30 14:03:35.62	155.75	5.26	-44.2	-54.4	3.8	8.46e-01	0	57	104	0	59	11322
2026-01-30 14:03:36.63	155.75	5.34	-44.1	-54.3	3.8	8.44e-01	0	57	104	0	59	11221
2026-01-30 14:03:37.64	155.74	5.41	-44.1	-54.2	3.8	8.46e-01	0	57	104	0	59	11091
2026-01-30 14:03:38.65	155.73	5.48	-44.1	-54.0	3.8	8.47e-01	0	57	104	0	59	10857
2026-01-30 14:03:39.66	155.73	5.56	-44.1	-53.8	3.8	8.46e-01	0	57	104	0	59	10587
2026-01-30 14:03:40.67	155.72	5.63	-44.0	-53.5	3.8	8.44e-01	0	57	104	0	59	10190
2026-01-30 14:03:41.68	155.71	5.71	-43.9	-52.8	3.8	8.45e-01	0	58	104	0	58	10019
2026-01-30 14:03:42.69	155.71	5.78	-43.8	-52.0	4.1	8.40e-01	0	58	0	0	58	9141
2026-01-30 14:03:43.70	155.70	5.86	-43.6	-51.3	4.3	8.36e-01	0	57	0	0	58	8443
2026-01-30 14:03:44.71	155.69	5.93	-43.4	-50.6	4.5	8.22e-01	0	58	0	0	57	8190
2026-01-30 14:03:45.72	155.69	6.01	-43.2	-50.0	4.8	8.00e-01	0	58	0	0	57	7669
2026-01-30 14:03:46.73	155.68	6.08	-43.2	-49.8	4.9	7.79e-01	0	58	0	0	57	7458
2026-01-30 14:03:47.74	155.67	6.16	-43.1	-49.7	5.0	7.74e-01	0	58	0	0	57	7373
2026-01-30 14:03:48.75	155.67	6.23	-43.2	-49.9	4.9	7.83e-01	0	58	0	0	57	7555
2026-01-30 14:03:49.76	155.66	6.31	-43.3	-50.2	4.7	7.98e-01	0	58	0	0	57	7830
2026-01-30 14:03:50.77	155.65	6.38	-43.5	-50.8	4.4	8.20e-01	0	58	0	0	57	8450
2026-01-30 14:03:51.78	155.64	6.46	-43.6	-51.3	4.3	8.31e-01	0	58	0	0	57	8901
2026-01-30 14:03:52.79	155.64	6.54	-43.5	-50.8	4.5	8.30e-01	0	58	0	0	57	8380
2026-01-30 14:03:53.80	155.63	6.61	-43.3	-49.9	4.9	7.96e-01	0	58	0	0	57	7554
2026-01-30 14:03:54.81	155.62	6.69	-42.9	-48.8	5.5	7.28e-01	0	58	0	0	56	7078
2026-01-30 14:03:55.83	155.61	6.77	-42.8	-48.2	5.9	4.18e-01	0	58	0	4194304	56	6631
2026-01-30 14:03:56.84	155.61	6.85	-42.3	-47.3	6.6	2.66e-01	0	58	0	11534336	55	6282
2026-01-30 14:03:57.85	155.60	6.93	-41.8	-46.2	7.5	1.10e-01	0	58	0	18874368	54	5880
2026-01-30 14:03:58.86	155.59	7.00	-41.4	-45.4	8.3	6.62e-02	0	58	0	26214400	53	5680
2026-01-30 14:03:59.87	155.58	7.08	-41.1	-44.9	8.9	4.03e-02	0	58	0	33554432	53	5351
2026-01-30 14:04:00.88	155.58	7.16	-40.7	-44.3	9.5	1.77e-02	0	58	0	40894464	52	5287
2026-01-30 14:04:01.89	155.57	7.24	-40.5	-43.9	9.9	9.88e-03	0	58	0	48234496	51	5377
2026-01-30 14:04:02.90	155.56	7.32	-40.3	-43.6	10.2	6.56e-03	0	59	0	55574528	51	5213
2026-01-30 14:04:03.91	155.55	7.40	-40.2	-43.6	10.3	6.00e-03	0	59	0	62914560	51	5160
2026-01-30 14:04:04.92	155.55	7.48	-40.2	-43.5	10.3	5.35e-03	0	59	0	70254592	51	5103
2026-01-30 14:04:05.93	155.54	7.56	-40.2	-43.4	10.3	5.04e-03	0	59	0	77594624	51	5088
2026-01-30 14:04:06.94	155.53	7.64	-40.2	-43.5	10.3	5.67e-03	0	58	0	84934656	51	5111
2026-01-30 14:04:07.96	155.52	7.72	-40.4	-43.9	9.8	7.78e-03	0	59	0	92274688	51	5391
2026-01-30 14:04:08.97	155.51	7.80	-40.5	-44.1	9.6	1.31e-02	0	59	0	99614720	51	5503
2026-01-30 14:04:09.98	155.51	7.88	-41.0	-44.9	8.8	2.55e-02	0	59	0	105906176	51	6026
2026-01-30 14:04:10.99	155.50	7.96	-41.1	-45.1	8.6	3.96e-02	0	59	0	113246208	51	6201
2026-01-30 14:04:12.00	155.49	8.04	-41.5	-46.0	7.6	8.24e-02	0	59	0	121634816	52	6487
2026-01-30 14:04:13.01	155.48	8.12	-40.7	-44.1	9.9	1.25e-02	0	59	0	127926272	52	5207
2026-01-30 14:04:14.02	155.47	8.21	-43.4	-50.4	4.7	6.96e-01	0	59	0	134217728	56	8472
2026-01-30 14:04:15.03	155.46	8.29	-41.5	-45.7	8.1	3.57e-02	0	59	0	138412032	53	5872
2026-01-30 14:04:16.04	155.45	8.37	-41.4	-45.1	9.0	1.58e-02	0	59	0	146800640	52	5848
2026-01-30 14:04:17.05	155.45	8.45	-43.6	-52.6	3.8	8.43e-01	0	59	104	150994944	57	10333
2026-01-30 14:04:18.06	155.44	8.54	-40.1	-43.2	10.9	2.24e-01	0	59	104	150994944	51	4950
2026-01-30 14:04:19.07	155.43	8.62	-39.9	-43.0	11.1	1.54e-03	0	59	0	157286400	50	5134
2026-01-30 14:04:20.08	155.42	8.70	-39.8	-42.8	11.4	1.12e-03	0	59	0	164626432	50	5009
2026-01-30 14:04:21.09	155.41	8.79	-39.9	-42.9	11.2	1.20e-03	0	59	0	171966464	50	5084
2026-01-30 14:04:22.11	155.40	8.87	-39.9	-42.8	11.3	1.03e-03	0	59	0	179306496	50	5040
2026-01-30 14:04:23.12	155.39	8.96	-39.9	-42.9	11.2	1.24e-03	0	59	0	186646528	50	5084
2026-01-30 14:04:24.13	155.38	9.04	-39.8	-42.7	11.5	1.02e-03	0	59	0	193986560	50	4964
2026-01-30 14:04:25.14	155.37	9.13	-39.7	-42.6	11.5	6.69e-04	0	59	0	201326592	50	4919
2026-01-30 14:04:26.15	155.37	9.21	-39.8	-42.8	11.4	8.79e-04	0	59	0	208666624	50	4995
2026-01-30 14:04:27.16	155.36	9.30	-39.7	-42.5	11.8	4.77e-04	0	59	0	216006656	50	4849
2026-01-30 14:04:28.17	155.35	9.38	-39.7	-42.5	11.7	6.27e-04	0	59	0	223346688	50	4870
2026-01-30 14:04:29.19	155.34	9.47	-39.7	-42.6	11.6	5.98e-04	0	59	0	230686720	50	4912
2026-01-30 14:04:30.20	155.33	9.56	-39.6	-42.4	11.9	4.03e-04	0	59	0	238026752	50	4798
2026-01-30 14:04:31.20	155.32	9.64	-39.6	-42.4	11.9	2.82e-04	0	59	0	245366784	50	4778
2026-01-30 14:04:32.21	155.31	9.73	-39.6	-42.4	11.9	3.26e-04	0	59	0	252706816	50	4778
2026-01-30 14:04:33.23	155.30	9.82	-39.6	-42.5	11.8	3.23e-04	0	60	0	258998272	50	4831
2026-01-30 14:04:34.24	155.29	9.91	-39.6	-42.5	11.9	3.58e-04	0	59	0	266338304	50	4824
2026-01-30 14:04:35.24	155.28	9.99	-39.6	-42.4	12.0	3.49e-04	0	60	0	274726912	50	4766
2026-01-30 14:04:36.25	155.27	10.08	-39.6	-42.4	11.9	3.56e-04	0	60	0	281018368	50	4789
2026-01-30 14:04:37.26	155.26	10.17	-39.6	-42.4	12.0	2.82e-04	0	60	0	288358400	50	4773
2026-01-30 14:04:38.27	155.25	10.26	-39.5	-42.3	12.0	2.69e-04	0	60	0	295698432	49	5022
2026-01-30 14:04:39.28	155.24	10.35	-39.5	-42.3	12.0	2.64e-04	0	60	0	303038464	49	5001
2026-01-30 14:04:40.29	155.23	10.44	-39.5	-42.3	12.1	2.02e-04	0	60	0	310378496	49	4985
2026-01-30 14:04:41.30	155.22	10.53	-39.4	-42.1	12.2	2.24e-04	0	60	0	317718528	49	4910
2026-01-30 14:04:42.31	155.21	10.62	-39.5	-42.2	12.1	1.73e-04	0	60	0	325058560	49	4975
2026-01-30 14:04:43.32	155.20	10.71	-39.5	-42.3	12.0	2.10e-04	0	60	0	332398592	49	4991
2026-01-30 14:04:44.33	155.19	10.80	-39.4	-42.1	12.3	1.91e-04	0	60	0	339738624	49	4895
2026-01-30 14:04:45.34	155.18	10.89	-39.4	-42.1	12.3	1.57e-04	0	60	0	347078656	49	4874
2026-01-30 14:04:46.35	155.17	10.98	-39.4	-42.2	12.2	2.05e-04	0	60	0	354418688	49	4941
2026-01-30 14:04:47.36	155.15	11.07	-39.5	-42.2	12.2	2.04e-04	0	60	0	361758720	49	4966
2026-01-30 14:04:48.37	155.14	11.17	-39.5	-42.2	12.2	1.74e-04	0	60	0	369098752	49	4961
2026-01-30 14:04:49.38	155.13	11.26	-39.5	-42.2	12.2	1.82e-04	0	60	0	376438784	49	4945
2026-01-30 14:04:50.39	155.12	11.35	-39.6	-42.3	12.2	1.82e-04	0	60	0	382730240	49	5006
2026-01-30 14:04:51.40	155.11	11.45	-39.4	-42.1	12.3	1.50e-04	0	60	0	391118848	49	4911
2026-01-30 14:04:52.41	155.10	11.54	-39.4	-42.2	12.3	1.48e-04	0	60	0	398458880	49	4927
2026-01-30 14:04:53.42	155.09	11.63	-39.3	-42.0	12.5	1.34e-04	0	60	0	404750336	49	4840
2026-01-30 14:04:54.43	155.08	11.73	-39.4	-42.1	12.4	1.13e-04	0	60	0	412090368	49	4894
2026-01-30 14:04:55.45	155.06	11.82	-39.4	-42.1	12.4	1.12e-04	0	60	0	420478976	49	4900
2026-01-30 14:04:56.46	155.05	11.92	-39.5	-42.2	12.3	1.54e-04	0	60	0	426770432	49	4946
2026-01-30 14:04:57.47	155.04	12.01	-39.4	-42.1	12.4	1.81e-04	0	60	0	434110464	49	4875
2026-01-30 14:04:58.48	155.03	12.11	-39.4	-42.2	12.3	1.37e-04	0	60	0	441450496	49	4949
2026-01-30 14:04:59.49	155.02	12.21	-39.4	-42.1	12.4	1.13e-04	0	60	0	448790528	49	4883
2026-01-30 14:05:00.50	155.01	12.30	-39.4	-42.1	12.4	1.18e-04	0	60	0	456130560	49	4875
2026-01-30 14:05:01.51	154.99	12.40	-39.3	-41.9	12.6	1.17e-04	0	60	0	463470592	49	4802
2026-01-30 14:05:02.52	154.98	12.50	-39.3	-42.0	12.5	6.98e-05	0	60	0	470810624	49	4848
2026-01-30 14:05:03.53	154.97	12.60	-39.2	-41.9	12.7	7.32e-05	0	60	0	478150656	49	4770
2026-01-30 14:05:04.55	154.96	12.69	-39.3	-42.0	12.6	8.46e-05	0	60	0	485490688	49	4818
2026-01-30 14:05:05.56	154.94	12.79	-39.2	-41.8	12.7	6.63e-05	0	60	0	492830720	49	4759
2026-01-30 14:05:06.57	154.93	12.89	-39.3	-41.9	12.7	6.17e-05	0	61	0	500170752	49	4798
2026-01-30 14:05:07.57	154.92	12.99	-39.3	-41.9	12.7	5.95e-05	0	60	0	507510784	49	4806
2026-01-30 14:05:08.58	154.91	13.09	-39.4	-42.0	12.6	7.55e-05	0	60	0	514850816	49	4852
2026-01-30 14:05:09.59	154.89	13.19	-39.3	-41.9	12.7	7.89e-05	0	61	0	522190848	49	4804
2026-01-30 14:05:10.61	154.88	13.29	-39.3	-41.9	12.7	6.75e-05	0	60	0	529530880	49	4797
2026-01-30 14:05:11.62	154.87	13.39	-39.2	-41.7	12.9	2.74e-05	0	61	0	536870912	49	4693
2026-01-30 14:05:12.63	154.85	13.49	-39.3	-41.8	12.8	6.29e-05	0	61	0	544210944	49	4752
2026-01-30 14:05:13.64	154.84	13.60	-39.3	-41.8	12.8	2.97e-05	0	60	0	551550976	49	4755
2026-01-30 14:05:14.65	154.83	13.70	-39.3	-41.9	12.7	6.98e-05	0	61	0	558891008	49	4798
2026-01-30 14:05:15.66	154.81	13.80	-39.3	-41.9	12.8	5.72e-05	0	60	0	566231040	49	4791
2026-01-30 14:05:16.67	154.80	13.90	-39.3	-41.9	12.8	4.34e-05	0	61	0	573571072	49	4761
2026-01-30 14:05:17.68	154.79	14.01	-39.2	-41.8	12.9	3.54e-05	0	61	0	579862528	49	4707
2026-01-30 14:05:18.69	154.77	14.11	-39.3	-41.9	12.8	4.11e-05	0	61	0	587202560	49	4761
2026-01-30 14:05:19.70	154.76	14.22	-39.3	-41.8	12.9	4.57e-05	0	61	0	595591168	49	4752
2026-01-30 14:05:20.71	154.74	14.32	-39.2	-41.7	13.0	3.66e-05	0	61	0	601882624	49	4698
2026-01-30 14:05:21.72	154.73	14.43	-39.2	-41.7	13.0	2.63e-05	0	61	0	609222656	49	4676
2026-01-30 14:05:22.73	154.71	14.53	-39.2	-41.8	12.9	4.00e-05	0	61	0	616562688	49	4720
2026-01-30 14:05:23.74	154.70	14.64	-39.1	-41.7	13.1	2.97e-05	0	61	0	623902720	49	4665
2026-01-30 14:05:24.74	154.69	14.75	-39.1	-41.6	13.1	2.74e-05	0	61	0	631242752	49	4642
2026-01-30 14:05:25.76	154.67	14.85	-39.2	-41.7	13.0	2.51e-05	0	61	0	638582784	49	4676
2026-01-30 14:05:26.76	154.66	14.96	-39.1	-41.5	13.2	3.20e-05	0	61	0	645922816	49	4592
2026-01-30 14:05:27.77	154.64	15.07	-39.2	-41.7	13.0	2.97e-05	0	61	0	653262848	49	4684
2026-01-30 14:05:28.78	154.63	15.18	-39.2	-41.8	13.0	2.74e-05	0	61	0	660602880	49	4714
2026-01-30 14:05:29.79	154.61	15.29	-39.2	-41.8	13.0	2.74e-05	0	61	0	667942912	49	4707
2026-01-30 14:05:30.81	154.59	15.40	-39.1	-41.6	13.2	2.40e-05	0	61	0	675282944	49	4609
2026-01-30 14:05:31.82	154.58	15.51	-39.2	-41.7	13.1	3.20e-05	0	61	0	682622976	49	4662
2026-01-30 14:05:32.83	154.56	15.62	-39.1	-41.7	13.1	1.48e-05	0	61	0	689963008	49	4663
2026-01-30 14:05:33.84	154.55	15.73	-39.0	-41.5	13.3	1.60e-05	0	61	0	697303040	49	4549
2026-01-30 14:05:34.85	154.53	15.84	-39.0	-41.4	13.4	1.02e-05	0	61	0	704643072	48	4770
2026-01-30 14:05:35.85	154.52	15.95	-39.0	-41.4	13.4	4.50e-06	0	61	0	711983104	48	4787
2026-01-30 14:05:36.86	154.50	16.07	-38.9	-41.3	13.5	1.25e-05	0	61	0	719323136	48	4741
2026-01-30 14:05:37.88	154.48	16.18	-39.0	-41.4	13.4	1.71e-05	0	61	0	725614592	48	4776
2026-01-30 14:05:38.89	154.47	16.29	-38.9	-41.2	13.6	3.40e-06	0	61	0	732954624	48	4694
2026-01-30 14:05:39.90	154.45	16.41	-39.0	-41.4	13.5	9.10e-06	0	61	0	741343232	48	4769
2026-01-30 14:05:40.91	154.43	16.52	-38.9	-41.4	13.5	1.25e-05	0	61	0	747634688	48	4763
2026-01-30 14:05:41.92	154.42	16.64	-38.9	-41.3	13.6	6.80e-06	0	61	0	754974720	48	4715
2026-01-30 14:05:42.93	154.40	16.75	-38.8	-41.2	13.7	3.40e-06	0	61	0	762314752	48	4686
2026-01-30 14:05:43.94	154.38	16.87	-38.9	-41.3	13.6	3.40e-06	0	61	0	769654784	48	4718
2026-01-30 14:05:44.95	154.36	16.99	-38.7	-41.0	13.9	1.10e-06	0	61	0	776994816	48	4576
2026-01-30 14:05:45.96	154.35	17.11	-38.6	-40.9	14.0	2.20e-06	0	61	0	784334848	48	4507
2026-01-30 14:05:46.97	154.33	17.22	-38.7	-41.0	13.9	1.10e-06	0	61	0	791674880	48	4567
2026-01-30 14:05:47.98	154.31	17.34	-38.5	-40.8	14.1	1.10e-06	0	61	0	799014912	48	4466
2026-01-30 14:05:48.99	154.29	17.46	-38.6	-40.8	14.0	2.20e-06	0	61	0	806354944	48	4487
2026-01-30 14:05:50.00	154.27	17.58	-38.2	-40.4	14.3	2.20e-06	0	61	0	813694976	47	4514
2026-01-30 14:05:51.00	154.26	17.70	-38.2	-40.4	14.3	0.00e+00	0	61	0	821035008	47	4518
2026-01-30 14:05:52.01	154.24	17.82	-38.2	-40.4	14.3	0.00e+00	0	62	0	828375040	47	4517
2026-01-30 14:05:53.02	154.22	17.94	-38.2	-40.3	14.4	0.00e+00	0	61	0	835715072	47	4480
2026-01-30 14:05:54.03	154.20	18.07	-38.1	-40.3	14.4	0.00e+00	0	61	0	843055104	47	4453
2026-01-30 14:05:55.04	154.18	18.19	-38.1	-40.3	14.4	0.00e+00	0	61	0	850395136	47	4446
2026-01-30 14:05:56.05	154.16	18.31	-38.1	-40.3	14.4	1.10e-06	0	61	0	857735168	47	4468
2026-01-30 14:05:57.06	154.14	18.44	-38.1	-40.3	14.4	0.00e+00	0	62	0	865075200	47	4466
2026-01-30 14:05:58.07	154.12	18.56	-38.1	-40.2	14.5	0.00e+00	0	61	0	872415232	47	4410
2026-01-30 14:05:59.08	154.10	18.69	-38.1	-40.1	14.6	2.20e-06	0	62	0	878706688	47	4389
2026-01-30 14:06:00.09	154.08	18.81	-38.1	-40.2	14.6	0.00e+00	0	61	0	887095296	47	4392
2026-01-30 14:06:01.11	154.06	18.94	-38.1	-40.2	14.6	1.10e-06	0	62	0	894435328	47	4392
2026-01-30 14:06:02.12	154.04	19.07	-38.1	-40.2	14.5	0.00e+00	0	61	0	900726784	47	4437
2026-01-30 14:06:03.13	154.02	19.20	-38.0	-40.0	14.8	0.00e+00	0	61	0	908066816	46	4581
2026-01-30 14:06:04.14	154.00	19.32	-37.9	-40.0	14.8	0.00e+00	0	62	0	915406848	46	4555
2026-01-30 14:06:05.15	153.98	19.45	-38.1	-40.1	14.6	0.00e+00	0	61	0	922746880	46	4648
2026-01-30 14:06:06.16	153.96	19.58	-38.1	-40.1	14.7	1.10e-06	0	61	0	930086912	46	4642
2026-01-30 14:06:07.17	153.94	19.71	-37.9	-40.0	14.8	1.10e-06	0	61	0	937426944	46	4546
2026-01-30 14:06:08.18	153.92	19.85	-38.0	-40.0	14.7	0.00e+00	0	61	0	944766976	46	4591
2026-01-30 14:06:09.19	153.89	19.98	-37.9	-39.9	14.8	0.00e+00	0	61	0	952107008	46	4533
2026-01-30 14:06:10.20	153.87	20.11	-37.8	-39.9	14.9	0.00e+00	0	61	0	959447040	46	4525
2026-01-30 14:06:11.21	153.85	20.24	-37.8	-39.9	14.9	0.00e+00	0	62	0	966787072	46	4508
2026-01-30 14:06:12.22	153.83	20.38	-37.8	-39.9	14.8	0.00e+00	0	62	0	974127104	46	4521
2026-01-30 14:06:13.23	153.80	20.51	-37.8	-39.8	15.0	0.00e+00	0	62	0	981467136	46	4486
2026-01-30 14:06:14.24	153.78	20.65	-37.8	-39.9	14.9	0.00e+00	0	62	0	988807168	46	4514
2026-01-30 14:06:15.25	153.76	20.79	-37.8	-39.9	14.9	0.00e+00	0	61	0	996147200	46	4495
2026-01-30 14:06:16.26	153.73	20.92	-37.8	-39.9	14.9	0.00e+00	0	62	0	1003487232	46	4502
2026-01-30 14:06:17.27	153.71	21.06	-37.8	-39.8	15.0	0.00e+00	0	62	0	1010827264	46	4481
2026-01-30 14:06:18.28	153.69	21.20	-37.7	-39.8	15.0	0.00e+00	0	62	0	1018167296	46	4448
2026-01-30 14:06:19.29	153.66	21.34	-37.8	-39.8	14.9	0.00e+00	0	62	0	1025507328	46	4489
2026-01-30 14:06:20.30	153.64	21.48	-37.8	-39.9	14.9	0.00e+00	0	62	0	1032847360	46	4497
2026-01-30 14:06:21.31	153.61	21.62	-37.7	-39.7	15.1	1.10e-06	0	62	0	1040187392	46	4436
2026-01-30 14:06:22.33	153.59	21.76	-37.7	-39.8	15.0	0.00e+00	0	62	0	1046478848	46	4449
2026-01-30 14:06:23.34	153.56	21.90	-37.8	-39.9	14.9	0.00e+00	0	62	0	1053818880	46	4515
2026-01-30 14:06:24.35	153.54	22.05	-37.8	-39.9	14.9	0.00e+00	0	62	0	1062207488	46	4506
2026-01-30 14:06:25.36	153.51	22.19	-37.8	-39.9	14.9	0.00e+00	0	62	0	1068498944	46	4516
2026-01-30 14:06:26.37	153.49	22.34	-37.8	-39.9	14.9	0.00e+00	0	62	0	1075838976	46	4512
2026-01-30 14:06:27.38	153.46	22.48	-37.9	-40.0	14.8	0.00e+00	0	62	0	1083179008	46	4581
2026-01-30 14:06:28.39	153.43	22.63	-37.8	-39.9	14.8	0.00e+00	0	62	0	1090519040	46	4537
2026-01-30 14:06:29.40	153.41	22.78	-37.8	-40.0	14.8	0.00e+00	0	62	0	1097859072	46	4556
2026-01-30 14:06:30.41	153.38	22.93	-37.8	-40.0	14.8	0.00e+00	0	62	0	1105199104	46	4552
2026-01-30 14:06:31.42	153.35	23.07	-37.8	-40.0	14.8	0.00e+00	0	62	0	1112539136	46	4553
2026-01-30 14:06:32.43	153.33	23.22	-37.8	-40.0	14.8	0.00e+00	0	62	0	1119879168	46	4583
2026-01-30 14:06:33.44	153.30	23.37	-37.8	-40.0	14.8	0.00e+00	0	62	0	1127219200	46	4560
2026-01-30 14:06:34.45	153.27	23.53	-37.8	-40.0	14.8	0.00e+00	0	62	0	1134559232	46	4572
2026-01-30 14:06:35.46	153.24	23.68	-37.9	-40.0	14.8	0.00e+00	0	62	0	1141899264	46	4588
2026-01-30 14:06:36.47	153.21	23.83	-37.8	-39.9	14.9	0.00e+00	0	62	0	1149239296	46	4544
2026-01-30 14:06:37.48	153.18	23.99	-37.8	-39.9	14.9	0.00e+00	0	62	0	1156579328	46	4529
2026-01-30 14:06:38.49	153.15	24.14	-37.7	-39.9	14.9	1.10e-06	0	62	0	1163919360	46	4496
2026-01-30 14:06:39.50	153.12	24.30	-37.8	-39.9	14.9	0.00e+00	0	62	0	1171259392	46	4538
2026-01-30 14:06:40.51	153.09	24.46	-37.7	-39.9	15.0	0.00e+00	0	62	0	1178599424	46	4504
2026-01-30 14:06:41.52	153.06	24.61	-37.6	-39.7	15.1	0.00e+00	0	62	0	1185939456	46	4424
2026-01-30 14:06:42.53	153.03	24.77	-37.6	-39.8	15.0	0.00e+00	0	62	0	1193279488	46	4459
2026-01-30 14:06:43.54	153.00	24.93	-37.7	-39.8	15.0	0.00e+00	0	62	0	1199570944	46	4468
2026-01-30 14:06:44.55	152.97	25.09	-37.5	-39.6	15.2	0.00e+00	0	62	0	1207959552	46	4388
2026-01-30 14:06:45.56	152.94	25.26	-37.5	-39.6	15.2	0.00e+00	0	62	0	1215299584	45	4642
2026-01-30 14:06:46.57	152.91	25.42	-37.6	-39.7	15.1	1.10e-06	0	62	0	1221591040	45	4703
2026-01-30 14:06:47.58	152.87	25.58	-37.5	-39.6	15.2	0.00e+00	0	62	0	1228931072	45	4647
2026-01-30 14:06:48.59	152.84	25.75	-37.4	-39.5	15.3	0.00e+00	0	62	0	1237319680	45	4582
2026-01-30 14:06:49.60	152.81	25.91	-37.3	-39.4	15.4	0.00e+00	0	62	0	1243611136	45	4519
2026-01-30 14:06:50.61	152.77	26.08	-37.3	-39.4	15.4	0.00e+00	0	62	0	1250951168	45	4507
2026-01-30 14:06:51.62	152.74	26.25	-37.3	-39.4	15.4	0.00e+00	0	62	0	1258291200	45	4522
2026-01-30 14:06:52.63	152.71	26.42	-37.2	-39.3	15.6	0.00e+00	0	62	0	1265631232	45	4444
2026-01-30 14:06:53.64	152.67	26.59	-37.2	-39.3	15.5	0.00e+00	0	62	0	1272971264	45	4463
2026-01-30 14:06:54.66	152.64	26.76	-37.3	-39.4	15.4	0.00e+00	0	62	0	1280311296	45	4531
2026-01-30 14:06:55.67	152.60	26.93	-37.2	-39.2	15.6	0.00e+00	0	62	0	1287651328	45	4439
2026-01-30 14:06:56.68	152.56	27.11	-37.2	-39.3	15.5	0.00e+00	0	62	0	1294991360	45	4486
2026-01-30 14:06:57.69	152.53	27.28	-37.2	-39.3	15.6	0.00e+00	0	62	0	1302331392	45	4454
2026-01-30 14:06:58.70	152.49	27.46	-37.2	-39.2	15.6	0.00e+00	0	62	0	1309671424	45	4438
2026-01-30 14:06:59.71	152.45	27.63	-37.2	-39.3	15.5	0.00e+00	0	62	0	1317011456	45	4467
2026-01-30 14:07:00.72	152.42	27.81	-37.2	-39.2	15.6	0.00e+00	0	62	0	1324351488	45	4440
2026-01-30 14:07:01.73	152.38	27.99	-37.2	-39.3	15.6	0.00e+00	0	62	0	1331691520	45	4458
2026-01-30 14:07:02.74	152.34	28.17	-37.2	-39.2	15.6	0.00e+00	0	62	0	1339031552	45	4436
2026-01-30 14:07:03.75	152.30	28.35	-37.2	-39.3	15.6	0.00e+00	0	62	0	1346371584	45	4442
2026-01-30 14:07:04.76	152.26	28.53	-37.2	-39.2	15.6	0.00e+00	0	62	0	1353711616	45	4434
2026-01-30 14:07:05.77	152.22	28.72	-37.1	-39.1	15.8	0.00e+00	0	62	0	1361051648	45	4353
2026-01-30 14:07:06.78	152.18	28.90	-37.1	-39.0	15.8	0.00e+00	0	62	0	1367343104	45	4326
2026-01-30 14:07:07.79	152.14	29.09	-36.9	-38.9	16.0	0.00e+00	0	62	0	1374683136	44	4496
2026-01-30 14:07:08.80	152.10	29.27	-37.0	-38.9	15.9	0.00e+00	0	62	0	1383071744	44	4529
2026-01-30 14:07:09.81	152.06	29.46	-37.0	-38.9	15.9	0.00e+00	0	62	0	1389363200	44	4525
2026-01-30 14:07:10.82	152.01	29.65	-36.9	-38.8	16.1	0.00e+00	0	62	0	1396703232	44	4444
2026-01-30 14:07:11.83	151.97	29.84	-36.9	-38.8	16.0	0.00e+00	0	62	0	1404043264	44	4486
2026-01-30 14:07:12.84	151.93	30.04	-37.0	-38.9	15.9	0.00e+00	0	62	0	1411383296	44	4539
2026-01-30 14:07:13.85	151.88	30.23	-37.0	-38.9	16.0	0.00e+00	0	62	0	1418723328	44	4526
2026-01-30 14:07:14.86	151.84	30.42	-37.0	-38.9	16.0	0.00e+00	0	62	0	1426063360	44	4503
2026-01-30 14:07:15.87	151.79	30.62	-37.0	-38.9	16.0	0.00e+00	0	62	0	1433403392	44	4539
2026-01-30 14:07:16.88	151.74	30.82	-37.0	-38.9	16.0	0.00e+00	0	62	0	1440743424	44	4516
2026-01-30 14:07:17.89	151.70	31.02	-37.0	-38.9	16.0	0.00e+00	0	62	0	1448083456	44	4495
2026-01-30 14:07:18.90	151.65	31.22	-37.1	-39.0	15.9	0.00e+00	0	62	0	1455423488	44	4551
2026-01-30 14:07:19.91	151.60	31.42	-37.1	-39.0	15.9	0.00e+00	0	62	0	1462763520	44	4592
2026-01-30 14:07:20.92	151.55	31.62	-37.0	-39.0	15.9	0.00e+00	0	62	0	1470103552	44	4553
2026-01-30 14:07:21.93	151.51	31.82	-37.0	-39.0	15.9	0.00e+00	0	62	0	1477443584	44	4553
2026-01-30 14:07:22.94	151.46	32.03	-37.1	-39.0	15.9	0.00e+00	0	62	0	1484783616	44	4583
2026-01-30 14:07:23.95	151.40	32.24	-37.1	-39.1	15.8	0.00e+00	0	62	0	1492123648	44	4616
2026-01-30 14:07:24.96	151.35	32.45	-37.1	-39.0	15.9	0.00e+00	0	62	0	1499463680	44	4582
2026-01-30 14:07:25.97	151.30	32.66	-37.0	-39.0	15.9	0.00e+00	0	62	0	1506803712	44	4569
2026-01-30 14:07:26.98	151.25	32.87	-37.1	-39.1	15.7	0.00e+00	0	62	0	1514143744	44	4647
2026-01-30 14:07:27.99	151.20	33.08	-37.0	-39.0	15.9	0.00e+00	0	62	0	1521483776	44	4567
2026-01-30 14:07:29.00	151.14	33.29	-37.0	-39.0	15.8	0.00e+00	0	62	0	1528823808	44	4574
2026-01-30 14:07:30.01	151.09	33.51	-37.0	-39.0	15.9	0.00e+00	0	62	0	1536163840	44	4554
2026-01-30 14:07:31.02	151.03	33.73	-37.0	-39.0	15.8	0.00e+00	0	62	0	1542455296	44	4590
2026-01-30 14:07:32.03	150.97	33.95	-36.9	-38.9	16.0	0.00e+00	0	62	0	1549795328	44	4511
2026-01-30 14:07:33.04	150.92	34.17	-37.0	-39.0	15.9	0.00e+00	0	62	0	1557135360	44	4556
2026-01-30 14:07:34.05	150.86	34.39	-37.1	-39.0	15.8	0.00e+00	0	62	0	1564475392	44	4598
2026-01-30 14:07:35.06	150.80	34.61	-36.9	-38.8	16.1	0.00e+00	0	62	0	1571815424	44	4470
2026-01-30 14:07:36.07	150.74	34.84	-37.0	-39.0	15.9	0.00e+00	0	62	0	1579155456	44	4557
2026-01-30 14:07:37.08	150.68	35.06	-37.0	-38.9	15.9	0.00e+00	0	62	0	1586495488	44	4537
2026-01-30 14:07:38.09	150.62	35.29	-37.0	-38.9	15.9	0.00e+00	0	62	0	1593835520	44	4534
2026-01-30 14:07:39.10	150.56	35.52	-36.9	-38.9	16.0	0.00e+00	0	62	0	1601175552	44	4520
2026-01-30 14:07:40.11	150.49	35.75	-37.1	-39.1	15.8	0.00e+00	0	62	0	1608515584	44	4625
2026-01-30 14:07:41.12	150.43	35.98	-37.0	-39.0	15.9	0.00e+00	0	62	0	1615855616	44	4566
2026-01-30 14:07:42.13	150.36	36.22	-37.1	-39.1	15.8	0.00e+00	0	62	0	1623195648	44	4635
2026-01-30 14:07:43.14	150.30	36.45	-37.1	-39.1	15.8	0.00e+00	0	62	0	1630535680	44	4610
2026-01-30 14:07:44.15	150.23	36.69	-37.3	-39.3	15.7	0.00e+00	0	62	0	1637875712	44	4727
2026-01-30 14:07:45.17	150.16	36.93	-37.3	-39.4	15.6	0.00e+00	0	62	0	1645215744	44	4768
2026-01-30 14:07:46.18	150.09	37.18	-37.4	-39.5	15.5	0.00e+00	0	62	0	1652555776	44	4815
2026-01-30 14:07:47.18	150.02	37.42	-37.4	-39.5	15.5	0.00e+00	0	62	0	1659895808	44	4822
2026-01-30 14:07:48.19	149.95	37.66	-37.4	-39.5	15.5	0.00e+00	0	62	0	1667235840	44	4835
2026-01-30 14:07:49.20	149.88	37.91	-37.5	-39.7	15.3	0.00e+00	0	62	0	1674575872	44	4929
2026-01-30 14:07:50.21	149.80	38.16	-37.2	-39.2	15.7	0.00e+00	0	62	0	1681915904	44	4684
2026-01-30 14:07:51.22	149.73	38.41	-37.3	-39.3	15.7	0.00e+00	0	62	0	1689255936	44	4721
2026-01-30 14:07:52.23	149.65	38.66	-37.3	-39.4	15.6	0.00e+00	0	62	0	1695547392	44	4772
2026-01-30 14:07:53.24	149.58	38.91	-37.3	-39.3	15.6	0.00e+00	0	62	0	1703936000	44	4752
2026-01-30 14:07:54.25	149.50	39.17	-37.2	-39.2	15.8	0.00e+00	0	62	0	1710227456	44	4654
2026-01-30 14:07:55.26	149.42	39.43	-37.2	-39.2	15.8	0.00e+00	0	62	0	1717567488	44	4692
2026-01-30 14:07:56.27	149.33	39.69	-37.1	-39.1	15.9	0.00e+00	0	62	0	1724907520	44	4603
2026-01-30 14:07:57.28	149.25	39.95	-37.2	-39.2	15.7	0.00e+00	0	62	0	1732247552	44	4693
2026-01-30 14:07:58.29	149.17	40.21	-37.2	-39.2	15.8	0.00e+00	0	62	0	1739587584	44	4686
2026-01-30 14:07:59.30	149.08	40.47	-37.4	-39.4	15.6	0.00e+00	0	62	0	1746927616	44	4790
2026-01-30 14:08:00.31	149.00	40.74	-37.6	-39.7	15.3	0.00e+00	0	62	0	1754267648	44	4955
2026-01-30 14:08:01.32	148.91	41.01	-37.5	-39.6	15.4	0.00e+00	0	62	0	1761607680	44	4895
2026-01-30 14:08:02.33	148.82	41.28	-37.6	-39.8	15.2	0.00e+00	0	62	0	1768947712	44	4998
2026-01-30 14:08:03.34	148.73	41.55	-37.6	-39.7	15.3	0.00e+00	0	62	0	1776287744	44	4931
2026-01-30 14:08:04.35	148.63	41.83	-38.0	-39.5	15.8	0.00e+00	0	62	0	1783627776	45	4556
2026-01-30 14:08:05.36	148.54	42.10	-38.0	-39.5	15.8	0.00e+00	0	62	0	1790967808	45	4549
2026-01-30 14:08:06.37	148.44	42.38	-37.8	-39.2	16.1	0.00e+00	0	62	0	1798307840	45	4427
2026-01-30 14:08:07.38	148.34	42.66	-37.8	-39.2	16.1	0.00e+00	0	62	0	1805647872	45	4411
2026-01-30 14:08:08.39	148.24	42.95	-37.8	-39.3	16.0	0.00e+00	0	62	0	1812987904	45	4446
2026-01-30 14:08:09.40	148.14	43.23	-37.8	-39.2	16.1	0.00e+00	0	62	0	1820327936	45	4415
2026-01-30 14:08:10.42	148.04	43.52	-37.8	-39.2	16.1	0.00e+00	0	62	0	1827667968	45	4418
2026-01-30 14:08:11.43	147.93	43.81	-37.7	-39.2	16.1	0.00e+00	0	62	0	1835008000	45	4409
2026-01-30 14:08:12.44	147.82	44.10	-38.1	-39.6	15.7	0.00e+00	0	62	0	1841299456	45	4608
2026-01-30 14:08:13.45	147.71	44.39	-38.2	-39.7	15.5	0.00e+00	0	62	0	1849688064	45	4679
2026-01-30 14:08:14.46	147.60	44.69	-38.3	-39.9	15.4	0.00e+00	0	62	0	1857028096	46	4497
2026-01-30 14:08:15.47	147.49	44.98	-38.3	-39.8	15.5	0.00e+00	0	62	0	1863319552	46	4467
2026-01-30 14:08:16.48	147.37	45.28	-38.4	-39.9	15.3	0.00e+00	0	62	0	1870659584	46	4537
2026-01-30 14:08:17.49	147.25	45.58	-38.4	-40.0	15.3	0.00e+00	0	62	0	1877999616	46	4566
2026-01-30 14:08:18.50	147.13	45.89	-38.4	-39.9	15.3	0.00e+00	0	62	0	1885339648	46	4542
2026-01-30 14:08:19.51	147.01	46.19	-38.3	-39.8	15.5	0.00e+00	0	62	0	1892679680	46	4488
2026-01-30 14:08:20.52	146.88	46.50	-38.3	-39.8	15.5	0.00e+00	0	62	0	1900019712	46	4474
2026-01-30 14:08:21.53	146.75	46.81	-38.2	-39.7	15.6	0.00e+00	0	62	0	1907359744	46	4409
2026-01-30 14:08:22.55	146.62	47.13	-38.1	-39.6	15.7	0.00e+00	0	62	0	1914699776	46	4360
2026-01-30 14:08:23.56	146.49	47.44	-38.1	-39.6	15.7	0.00e+00	0	62	0	1922039808	46	4350
2026-01-30 14:08:24.57	146.35	47.76	-38.3	-39.8	15.5	0.00e+00	0	62	0	1929379840	46	4457
2026-01-30 14:08:25.58	146.21	48.07	-38.4	-40.0	15.3	0.00e+00	0	62	0	1936719872	46	4554
2026-01-30 14:08:26.59	146.07	48.39	-38.6	-40.3	15.0	0.00e+00	0	62	0	1944059904	46	4707
2026-01-30 14:08:27.60	145.92	48.72	-38.9	-40.6	14.7	0.00e+00	0	62	0	1951399936	47	4608
2026-01-30 14:08:28.61	145.78	49.04	-38.9	-40.6	14.7	0.00e+00	0	62	0	1958739968	47	4623
2026-01-30 14:08:29.62	145.62	49.37	-39.1	-40.8	14.4	0.00e+00	0	62	0	1966080000	47	4748
2026-01-30 14:08:30.63	145.47	49.70	-39.0	-40.7	14.5	1.10e-06	0	62	0	1973420032	47	4701
2026-01-30 14:08:31.64	145.31	50.03	-38.9	-40.6	14.7	1.10e-06	0	62	0	1980760064	47	4600
2026-01-30 14:08:32.65	145.15	50.36	-39.2	-40.9	14.6	0.00e+00	0	62	0	1988100096	48	4516
2026-01-30 14:08:33.66	144.98	50.70	-39.2	-41.0	14.5	0.00e+00	0	62	0	1995440128	48	4555
2026-01-30 14:08:34.67	144.81	51.04	-39.3	-41.0	14.5	0.00e+00	0	62	0	2002780160	48	4578
2026-01-30 14:08:35.68	144.64	51.38	-39.0	-40.6	14.9	0.00e+00	0	62	0	2010120192	48	4387
2026-01-30 14:08:36.69	144.46	51.72	-38.9	-40.5	15.0	0.00e+00	0	62	0	2017460224	48	4319
2026-01-30 14:08:37.70	144.28	52.06	-38.7	-40.3	15.2	0.00e+00	0	62	0	2024800256	48	4234
2026-01-30 14:08:38.71	144.09	52.41	-38.7	-40.3	15.3	0.00e+00	0	62	0	2032140288	48	4196
2026-01-30 14:08:39.72	143.90	52.76	-38.8	-40.4	15.1	0.00e+00	0	62	0	2038431744	48	4280
2026-01-30 14:08:40.73	143.71	53.11	-38.9	-40.5	15.0	0.00e+00	0	62	0	2045771776	48	4316
2026-01-30 14:08:41.74	143.51	53.46	-39.1	-40.8	14.7	0.00e+00	0	62	0	2053111808	48	4452
2026-01-30 14:08:42.75	143.30	53.82	-39.7	-41.5	14.0	0.00e+00	0	62	0	2060451840	48	4855
2026-01-30 14:08:43.76	143.09	54.18	-39.2	-41.0	14.5	2.20e-06	0	62	0	2067791872	48	4548
2026-01-30 14:08:44.77	142.88	54.53	-39.3	-41.0	14.5	0.00e+00	0	62	0	2075131904	48	4567
2026-01-30 14:08:45.78	142.65	54.90	-39.2	-40.9	14.6	0.00e+00	0	62	0	2082471936	48	4498
2026-01-30 14:08:46.79	142.43	55.26	-39.1	-40.8	14.7	0.00e+00	0	62	0	2089811968	48	4449
2026-01-30 14:08:47.80	142.19	55.62	-39.2	-41.0	14.5	1.10e-06	0	62	0	2097152000	48	4577
2026-01-30 14:08:48.81	141.95	55.99	-39.2	-40.9	14.6	0.00e+00	0	62	0	2104492032	48	4509
2026-01-30 14:08:49.82	141.71	56.36	-39.3	-41.1	14.4	0.00e+00	0	62	0	2111832064	48	4615
2026-01-30 14:08:50.84	141.45	56.74	-39.4	-41.1	14.3	0.00e+00	0	63	0	2119172096	48	4644
2026-01-30 14:08:51.85	141.19	57.11	-39.2	-40.9	14.6	0.00e+00	0	62	0	2126512128	48	4496
2026-01-30 14:08:52.86	140.93	57.48	-39.2	-40.9	14.5	0.00e+00	0	62	0	2133852160	48	4526
2026-01-30 14:08:53.86	140.65	57.86	-39.1	-40.8	14.6	0.00e+00	0	62	0	2141192192	48	4465
2026-01-30 14:08:54.87	140.37	58.24	-38.9	-40.5	14.9	0.00e+00	0	62	0	2148532224	48	4331
2026-01-30 14:08:55.88	140.08	58.62	-39.0	-40.6	14.9	0.00e+00	0	62	0	2155872256	48	4367
2026-01-30 14:08:56.89	139.78	59.00	-39.0	-40.7	14.8	0.00e+00	0	62	0	2163212288	48	4402
2026-01-30 14:08:57.91	139.47	59.38	-39.3	-41.0	14.4	2.20e-06	0	62	0	2170552320	48	4586
2026-01-30 14:08:58.91	139.16	59.77	-39.1	-40.8	14.6	0.00e+00	0	62	0	2177892352	48	4483
2026-01-30 14:08:59.93	138.83	60.16	-38.8	-40.4	15.0	0.00e+00	0	62	0	2184183808	48	4274
2026-01-30 14:09:00.94	138.49	60.55	-38.8	-40.4	15.1	0.00e+00	0	62	0	2191523840	48	4258
2026-01-30 14:09:01.95	138.14	60.94	-38.7	-40.3	15.2	0.00e+00	0	62	0	2199912448	48	4204
2026-01-30 14:09:02.96	137.78	61.33	-38.6	-40.2	15.0	0.00e+00	0	62	0	2206203904	47	4398
2026-01-30 14:09:03.97	137.41	61.72	-39.1	-40.8	14.6	0.00e+00	0	62	0	2213543936	48	4458
2026-01-30 14:09:04.98	137.03	62.11	-39.0	-40.7	14.7	1.10e-06	0	62	0	2220883968	48	4425
2026-01-30 14:09:05.99	136.63	62.51	-38.6	-40.2	15.2	0.00e+00	0	62	0	2228224000	48	4147
2026-01-30 14:09:07.00	136.23	62.90	-38.0	-39.5	15.7	0.00e+00	0	63	0	2235564032	47	4075
2026-01-30 14:09:08.01	135.80	63.30	-37.8	-39.2	16.0	0.00e+00	0	62	0	2242904064	46	4178
2026-01-30 14:09:09.02	135.37	63.70	-37.8	-39.2	16.0	0.00e+00	0	62	0	2250244096	45	4417
2026-01-30 14:09:10.03	134.91	64.10	-38.0	-39.5	15.7	0.00e+00	0	62	0	2257584128	45	4596
2026-01-30 14:09:11.04	134.45	64.50	-37.9	-39.4	15.8	0.00e+00	0	62	0	2264924160	45	4530
2026-01-30 14:09:12.05	133.96	64.90	-37.8	-39.3	15.9	0.00e+00	0	62	0	2272264192	45	4469
2026-01-30 14:09:13.06	133.46	65.30	-37.7	-39.2	16.1	0.00e+00	0	62	0	2279604224	45	4393
2026-01-30 14:09:14.07	132.94	65.70	-37.4	-38.7	16.4	0.00e+00	0	62	0	2286944256	45	4188
2026-01-30 14:09:15.08	132.40	66.10	-37.8	-39.3	15.8	0.00e+00	0	63	0	2294284288	45	4480
2026-01-30 14:09:16.09	131.84	66.50	-37.9	-39.4	15.8	0.00e+00	0	62	0	2301624320	45	4510
2026-01-30 14:09:17.10	131.26	66.90	-37.9	-39.3	15.9	0.00e+00	0	63	0	2308964352	45	4488
2026-01-30 14:09:18.11	130.65	67.30	-37.7	-39.2	16.0	0.00e+00	0	62	0	2316304384	45	4403
2026-01-30 14:09:19.12	130.02	67.70	-37.6	-39.1	16.1	0.00e+00	0	63	0	2323644416	45	4364
2026-01-30 14:09:20.13	129.37	68.09	-37.7	-39.1	16.0	0.00e+00	0	62	0	2330984448	45	4385
2026-01-30 14:09:21.14	128.69	68.49	-37.8	-39.3	15.9	0.00e+00	0	62	0	2337275904	45	4467
2026-01-30 14:09:22.15	127.98	68.89	-37.9	-39.5	15.7	0.00e+00	0	63	0	2345664512	45	4559
2026-01-30 14:09:23.16	127.24	69.28	-37.9	-39.4	15.8	0.00e+00	0	62	0	2353004544	45	4495
2026-01-30 14:09:24.17	126.47	69.68	-38.0	-39.5	15.6	0.00e+00	0	62	0	2359296000	46	4300
2026-01-30 14:09:25.18	125.67	70.07	-38.1	-39.7	15.5	0.00e+00	0	62	0	2366636032	46	4405
2026-01-30 14:09:26.19	124.84	70.46	-38.2	-39.7	15.4	0.00e+00	0	62	0	2375024640	46	4428
2026-01-30 14:09:27.21	123.96	70.85	-38.2	-39.8	15.4	0.00e+00	0	62	0	2381316096	46	4452
2026-01-30 14:09:28.22	123.05	71.23	-38.0	-39.5	15.6	0.00e+00	0	63	0	2388656128	46	4337
2026-01-30 14:09:29.23	122.10	71.61	-38.0	-39.5	15.6	0.00e+00	0	62	0	2395996160	46	4302
2026-01-30 14:09:30.24	121.11	71.99	-37.8	-39.3	15.9	0.00e+00	0	62	0	2403336192	46	4199
2026-01-30 14:09:31.25	120.07	72.36	-37.7	-39.1	16.0	0.00e+00	0	63	0	2410676224	46	4134
2026-01-30 14:09:32.26	118.98	72.73	-37.5	-38.9	16.3	0.00e+00	0	63	0	2418016256	45	4249
2026-01-30 14:09:33.27	117.85	73.09	-37.3	-38.7	16.5	0.00e+00	0	62	0	2425356288	45	4169
2026-01-30 14:09:34.27	116.68	73.44	-37.3	-38.6	16.5	0.00e+00	0	63	0	2432696320	45	4139
2026-01-30 14:09:35.28	115.44	73.80	-37.3	-38.7	16.5	0.00e+00	0	63	0	2440036352	45	4153
2026-01-30 14:09:36.29	114.14	74.14	-37.4	-38.8	16.4	0.00e+00	0	63	0	2447376384	45	4206
2026-01-30 14:09:37.30	112.78	74.48	-37.1	-38.5	16.6	0.00e+00	0	62	0	2454716416	45	4071
2026-01-30 14:09:38.31	111.36	74.81	-37.1	-38.4	16.8	0.00e+00	0	63	0	2462056448	45	4022
2026-01-30 14:09:39.33	109.87	75.13	-37.1	-38.5	16.7	0.00e+00	0	63	0	2469396480	44	4306
2026-01-30 14:09:40.34	108.31	75.44	-36.9	-38.2	16.9	0.00e+00	0	63	0	2476736512	44	4152
2026-01-30 14:09:41.35	106.69	75.75	-37.0	-38.3	16.9	0.00e+00	0	62	0	2484076544	44	4212
2026-01-30 14:09:42.35	105.02	76.03	-37.1	-38.4	16.7	0.00e+00	0	63	0	2491416576	44	4281
2026-01-30 14:09:43.36	103.25	76.31	-37.2	-38.6	16.5	0.00e+00	0	63	0	2498756608	44	4385
2026-01-30 14:09:44.37	101.42	76.58	-37.2	-38.5	16.6	0.00e+00	0	62	0	2505048064	44	4327
2026-01-30 14:09:45.38	99.50	76.83	-36.9	-38.2	16.9	0.00e+00	0	63	0	2512388096	44	4193
2026-01-30 14:09:46.39	97.51	77.07	-36.7	-38.0	17.2	0.00e+00	0	63	0	2520776704	44	4059
2026-01-30 14:09:47.40	95.45	77.29	-36.7	-38.0	17.1	0.00e+00	0	63	0	2527068160	44	4081
2026-01-30 14:09:48.41	93.32	77.50	-36.9	-38.2	17.0	0.00e+00	0	63	0	2534408192	44	4168
2026-01-30 14:09:49.42	91.11	77.69	-37.0	-38.4	16.8	0.00e+00	0	63	0	2541748224	44	4244
2026-01-30 14:09:50.43	88.84	77.86	-36.8	-38.2	17.0	0.00e+00	0	63	0	2549088256	44	4150
2026-01-30 14:09:51.44	86.50	78.01	-36.2	-37.4	17.5	0.00e+00	0	63	0	2556428288	43	4040
2026-01-30 14:09:52.45	84.11	78.14	-36.2	-37.4	17.6	0.00e+00	0	62	0	2563768320	43	4025
2026-01-30 14:09:53.47	81.64	78.26	-36.5	-37.8	17.2	0.00e+00	0	63	0	2571108352	43	4203
2026-01-30 14:09:54.48	79.15	78.35	-36.9	-38.2	16.8	0.00e+00	0	63	0	2578448384	43	4436
2026-01-30 14:09:55.49	76.62	78.42	-36.7	-38.0	17.0	0.00e+00	0	63	0	2585788416	43	4318
2026-01-30 14:09:56.50	74.07	78.46	-36.3	-37.6	17.5	0.00e+00	0	63	0	2593128448	43	4099
2026-01-30 14:09:57.51	71.51	78.49	-36.2	-37.4	17.6	0.00e+00	0	62	0	2600468480	43	4029
2026-01-30 14:09:58.52	68.94	78.49	-36.1	-37.3	17.7	0.00e+00	0	63	0	2607808512	43	3977
2026-01-30 14:09:59.53	66.37	78.46	-36.0	-37.2	17.7	0.00e+00	0	62	0	2615148544	43	3949
2026-01-30 14:10:00.54	63.82	78.42	-36.2	-37.5	17.6	0.00e+00	0	63	0	2622488576	43	4052
2026-01-30 14:10:01.55	61.30	78.35	-36.3	-37.6	17.4	0.00e+00	0	63	0	2629828608	43	4111
2026-01-30 14:10:02.56	58.81	78.26	-36.5	-37.7	17.3	0.00e+00	0	63	0	2637168640	43	4192
2026-01-30 14:10:03.57	56.36	78.15	-36.3	-37.6	17.4	0.00e+00	0	63	0	2644508672	43	4107
2026-01-30 14:10:04.58	53.96	78.02	-36.3	-37.6	17.4	0.00e+00	0	63	0	2651848704	43	4099
2026-01-30 14:10:05.59	51.62	77.87	-36.3	-37.5	17.4	0.00e+00	0	63	0	2658140160	43	4098
2026-01-30 14:10:06.60	49.34	77.70	-36.6	-37.9	17.1	0.00e+00	0	63	0	2666528768	43	4256
2026-01-30 14:10:07.61	47.13	77.52	-36.7	-38.0	17.0	0.00e+00	0	63	0	2673868800	43	4324
2026-01-30 14:10:08.62	44.99	77.31	-36.6	-37.9	17.2	0.00e+00	0	63	0	2680160256	43	4249
2026-01-30 14:10:09.63	42.92	77.09	-36.5	-37.8	17.2	0.00e+00	0	63	0	2687500288	43	4212
2026-01-30 14:10:10.64	40.93	76.85	-36.7	-38.0	17.1	0.00e+00	0	63	0	2695888896	43	4300
2026-01-30 14:10:11.65	39.01	76.60	-37.0	-38.3	16.7	0.00e+00	0	63	0	2702180352	43	4486
2026-01-30 14:10:12.66	37.17	76.34	-36.9	-38.3	16.8	0.00e+00	0	63	0	2709520384	43	4460
2026-01-30 14:10:13.67	35.40	76.06	-36.8	-38.1	16.9	0.00e+00	0	63	0	2716860416	43	4365
2026-01-30 14:10:14.68	33.70	75.77	-36.8	-38.1	16.9	0.00e+00	0	63	0	2724200448	43	4368
2026-01-30 14:10:15.69	32.08	75.47	-36.9	-38.2	16.8	0.00e+00	0	63	0	2731540480	43	4424
2026-01-30 14:10:16.70	30.52	75.16	-36.7	-38.0	17.0	0.00e+00	0	63	0	2738880512	43	4292
2026-01-30 14:10:17.71	29.03	74.84	-36.8	-38.1	16.9	0.00e+00	0	63	0	2746220544	43	4390
2026-01-30 14:10:18.72	27.61	74.51	-37.0	-38.4	16.6	0.00e+00	0	63	0	2753560576	43	4515
2026-01-30 14:10:19.73	26.25	74.17	-37.5	-38.9	16.3	0.00e+00	0	63	0	2760900608	44	4540
2026-01-30 14:10:20.74	24.95	73.83	-37.7	-39.1	16.1	0.00e+00	0	63	0	2768240640	45	4369
2026-01-30 14:10:21.75	23.71	73.48	-37.6	-39.0	16.2	0.00e+00	0	63	0	2775580672	45	4327
2026-01-30 14:10:22.76	22.52	73.12	-37.7	-39.2	16.1	0.00e+00	0	63	0	2782920704	45	4402
2026-01-30 14:10:23.77	21.38	72.76	-37.9	-39.4	15.8	0.00e+00	0	63	0	2790260736	45	4500
2026-01-30 14:10:24.78	20.29	72.39	-38.1	-39.6	15.6	0.00e+00	0	63	0	2797600768	45	4634
2026-01-30 14:10:25.79	19.25	72.02	-38.1	-39.6	15.6	0.00e+00	0	63	0	2803892224	46	4365
2026-01-30 14:10:26.80	18.26	71.65	-38.0	-39.6	15.7	0.00e+00	0	62	0	2812280832	46	4344
2026-01-30 14:10:27.81	17.31	71.27	-38.2	-39.8	15.5	0.00e+00	0	63	0	2819620864	46	4446
2026-01-30 14:10:28.83	16.38	70.88	-38.2	-39.8	15.4	2.20e-06	0	63	0	2825912320	46	4468
2026-01-30 14:10:29.84	15.51	70.49	-38.1	-39.6	15.7	0.00e+00	0	63	0	2833252352	46	4353
2026-01-30 14:10:30.84	14.68	70.11	-37.8	-39.2	16.0	0.00e+00	0	63	0	2841640960	46	4163
2026-01-30 14:10:31.86	13.87	69.72	-37.8	-39.2	16.0	0.00e+00	0	63	0	2847932416	46	4175
2026-01-30 14:10:32.87	13.10	69.32	-37.9	-39.4	15.8	0.00e+00	0	63	0	2855272448	46	4278
2026-01-30 14:10:33.88	12.36	68.93	-38.2	-39.7	15.6	0.00e+00	0	63	0	2862612480	46	4419
2026-01-30 14:10:34.88	11.66	68.54	-38.0	-39.5	15.8	0.00e+00	0	62	0	2869952512	46	4318
2026-01-30 14:10:35.89	10.98	68.14	-37.8	-39.3	15.9	0.00e+00	0	63	0	2877292544	46	4208
2026-01-30 14:10:36.90	10.32	67.74	-37.9	-39.3	16.0	0.00e+00	0	63	0	2884632576	46	4222
2026-01-30 14:10:37.91	9.69	67.35	-37.9	-39.4	16.0	0.00e+00	0	63	0	2891972608	46	4249
2026-01-30 14:10:38.92	9.09	66.95	-37.8	-39.3	16.1	0.00e+00	0	63	0	2899312640	46	4194
2026-01-30 14:10:39.93	8.50	66.55	-37.9	-39.3	15.9	0.00e+00	0	63	0	2906652672	46	4226
2026-01-30 14:10:40.94	7.94	66.15	-37.9	-39.3	16.0	0.00e+00	0	63	0	2913992704	46	4235
2026-01-30 14:10:41.95	7.40	65.75	-38.0	-39.5	15.8	1.10e-06	0	63	0	2921332736	46	4315
2026-01-30 14:10:42.96	6.88	65.35	-38.0	-39.5	15.8	2.20e-06	0	63	0	2928672768	46	4316
2026-01-30 14:10:43.97	6.37	64.95	-38.0	-39.5	15.8	1.10e-06	0	63	0	2936012800	46	4299
2026-01-30 14:10:44.98	5.89	64.55	-38.0	-39.4	15.9	0.00e+00	0	63	0	2943352832	46	4281
2026-01-30 14:10:46.00	5.41	64.15	-38.0	-39.4	15.8	0.00e+00	0	63	0	2950692864	46	4280
2026-01-30 14:10:47.01	4.96	63.75	-38.3	-39.8	15.5	0.00e+00	0	63	0	2958032896	46	4484
2026-01-30 14:10:48.02	4.52	63.35	-38.5	-40.1	15.2	1.60e-05	0	63	0	2965372928	46	4626
2026-01-30 14:10:49.03	4.10	62.96	-38.7	-40.4	14.9	8.06e-04	0	63	0	2972712960	46	4777
2026-01-30 14:10:50.04	3.69	62.56	-38.7	-40.3	15.0	3.40e-06	0	63	0	2979004416	47	4456
2026-01-30 14:10:51.05	3.30	62.17	-38.9	-40.6	14.7	5.70e-06	0	63	0	2987393024	47	4624
2026-01-30 14:10:52.06	2.91	61.78	-38.9	-40.6	14.7	8.00e-06	0	63	0	2994733056	47	4628
2026-01-30 14:10:53.07	2.54	61.39	-39.0	-40.8	14.4	2.51e-05	0	63	0	3001024512	47	4733
2026-01-30 14:10:54.08	2.18	61.00	-39.4	-41.2	14.3	3.77e-05	0	63	0	3008364544	48	4673
2026-01-30 14:10:55.08	1.84	60.61	-39.3	-41.1	14.3	7.43e-05	0	63	0	3015704576	48	4601
2026-01-30 14:10:56.09	1.50	60.22	-39.2	-40.9	14.5	1.25e-05	0	63	0	3023044608	48	4526
2026-01-30 14:10:57.10	1.17	59.84	-39.0	-40.7	14.7	5.70e-06	0	63	0	3030384640	48	4429
2026-01-30 14:10:58.11	0.85	59.45	-38.8	-40.6	14.5	1.09e-03	0	63	0	3037724672	47	4640
2026-01-30 14:10:59.12	0.55	59.07	-38.1	-40.7	13.9	8.47e-04	0	63	0	3045064704	47	4666
2026-01-30 14:11:00.14	0.24	58.68	-38.7	-40.8	14.3	1.47e-03	0	63	0	3052404736	47	4715
2026-01-30 14:11:01.14	359.95	58.31	-38.7	-40.6	14.3	2.56e-04	0	63	0	3059744768	47	4640
2026-01-30 14:11:02.15	359.67	57.93	-38.5	-40.5	14.6	3.02e-04	0	63	0	3067084800	47	4576
2026-01-30 14:11:03.17	359.39	57.55	-38.7	-40.3	14.9	1.02e-05	0	63	0	3074424832	47	4491
2026-01-30 14:11:04.18	359.13	57.18	-38.8	-40.5	14.8	1.65e-04	0	63	0	3081764864	47	4562
2026-01-30 14:11:05.19	358.87	56.81	-38.9	-40.6	14.7	1.02e-05	0	63	0	3089104896	47	4624
2026-01-30 14:11:06.20	358.61	56.44	-38.9	-40.6	14.7	1.14e-05	0	63	0	3096444928	47	4640
2026-01-30 14:11:07.21	358.37	56.07	-38.9	-40.6	14.6	9.10e-06	0	62	0	3103784960	47	4642
2026-01-30 14:11:08.22	358.13	55.70	-38.5	-40.5	14.5	8.56e-04	0	63	0	3111124992	47	4563
2026-01-30 14:11:09.23	357.90	55.34	-38.8	-40.5	14.5	4.11e-04	0	63	0	3118465024	47	4581
2026-01-30 14:11:10.24	357.67	54.97	-38.9	-40.7	14.3	5.42e-04	0	63	0	3124756480	47	4656
2026-01-30 14:11:11.25	357.45	54.61	-39.0	-40.8	14.5	5.65e-03	0	63	0	3133145088	47	4720
2026-01-30 14:11:12.26	357.23	54.26	-39.2	-40.9	14.3	1.10e-06	0	63	0	3140485120	47	4801
2026-01-30 14:11:13.27	357.02	53.90	-39.0	-40.8	14.5	2.20e-06	0	63	0	3146776576	47	4708
2026-01-30 14:11:14.28	356.81	53.54	-38.9	-40.6	14.6	5.70e-06	0	63	0	3154116608	47	4616
2026-01-30 14:11:15.29	356.61	53.19	-38.8	-40.5	14.8	1.02e-05	0	63	0	3161456640	47	4565
2026-01-30 14:11:16.30	356.42	52.84	-38.9	-40.6	14.6	1.14e-05	0	63	0	3168796672	47	4647
2026-01-30 14:11:17.31	356.23	52.50	-39.0	-40.7	14.5	2.20e-06	0	63	0	3176136704	47	4667
2026-01-30 14:11:18.32	356.04	52.15	-38.6	-40.7	14.2	2.95e-04	0	63	0	3183476736	47	4705
2026-01-30 14:11:19.33	355.86	51.81	-38.9	-40.6	14.4	2.30e-04	0	63	0	3190816768	47	4635
2026-01-30 14:11:20.34	355.68	51.46	-38.7	-40.7	14.3	1.44e-04	0	63	0	3198156800	47	4676
2026-01-30 14:11:21.35	355.51	51.13	-38.9	-40.6	14.4	3.89e-05	0	63	0	3205496832	47	4635
2026-01-30 14:11:22.36	355.34	50.79	-39.0	-40.7	14.4	0.00e+00	0	63	0	3212836864	47	4676
2026-01-30 14:11:23.37	355.17	50.45	-38.9	-40.7	14.6	4.50e-06	0	62	0	3220176896	47	4660
2026-01-30 14:11:24.38	355.01	50.12	-38.9	-40.6	14.6	6.29e-05	0	63	0	3227516928	47	4621
2026-01-30 14:11:25.39	354.85	49.79	-38.7	-40.4	14.9	0.00e+00	0	63	0	3234856960	47	4499
2026-01-30 14:11:26.40	354.70	49.46	-38.6	-40.2	14.9	0.00e+00	0	63	0	3242196992	47	4431
2026-01-30 14:11:27.41	354.55	49.14	-38.7	-40.3	14.9	0.00e+00	0	63	0	3249537024	47	4458
2026-01-30 14:11:28.42	354.40	48.81	-38.8	-40.4	14.8	1.10e-06	0	63	0	3256877056	47	4535
2026-01-30 14:11:29.43	354.25	48.49	-38.7	-40.4	14.8	2.20e-06	0	63	0	3264217088	47	4520
2026-01-30 14:11:30.44	354.11	48.17	-38.7	-40.4	14.8	7.20e-05	0	63	0	3271557120	47	4528
2026-01-30 14:11:31.45	353.97	47.85	-38.8	-40.4	14.8	0.00e+00	0	63	0	3278897152	47	4536
2026-01-30 14:11:32.46	353.83	47.54	-38.5	-40.2	15.1	0.00e+00	0	63	0	3286237184	47	4394
2026-01-30 14:11:33.47	353.70	47.22	-38.3	-39.9	15.4	0.00e+00	0	63	0	3293577216	47	4258
2026-01-30 14:11:34.48	353.57	46.91	-38.2	-39.8	15.5	0.00e+00	0	63	0	3299868672	47	4194
2026-01-30 14:11:35.49	353.44	46.60	-38.0	-39.6	15.7	0.00e+00	0	63	0	3307208704	46	4345
2026-01-30 14:11:36.50	353.32	46.30	-38.1	-39.7	15.6	0.00e+00	0	63	0	3315597312	46	4397
2026-01-30 14:11:37.51	353.19	45.99	-38.1	-39.6	15.6	6.80e-06	0	63	0	3321888768	46	4357
2026-01-30 14:11:38.52	353.07	45.69	-38.0	-39.5	15.7	1.10e-06	0	63	0	3329228800	46	4305
2026-01-30 14:11:39.53	352.95	45.39	-37.9	-39.4	15.8	1.10e-06	0	63	0	3336568832	46	4248
2026-01-30 14:11:40.54	352.84	45.09	-38.0	-39.5	15.7	0.00e+00	0	63	0	3343908864	46	4302
2026-01-30 14:11:41.55	352.72	44.79	-37.9	-39.4	15.9	4.69e-05	0	63	0	3351248896	46	4243
2026-01-30 14:11:42.56	352.61	44.50	-38.0	-39.5	15.7	5.70e-06	0	63	0	3358588928	46	4315
2026-01-30 14:11:43.57	352.50	44.21	-37.9	-39.4	15.8	0.00e+00	0	63	0	3365928960	46	4253
2026-01-30 14:11:44.58	352.39	43.92	-38.0	-39.5	15.7	0.00e+00	0	63	0	3373268992	46	4339
2026-01-30 14:11:45.59	352.29	43.63	-37.9	-39.3	15.7	0.00e+00	0	63	0	3380609024	46	4228
2026-01-30 14:11:46.60	352.18	43.34	-37.9	-39.4	15.7	0.00e+00	0	63	0	3387949056	46	4291
2026-01-30 14:11:47.61	352.08	43.06	-37.9	-39.4	15.8	0.00e+00	0	63	0	3395289088	46	4288
2026-01-30 14:11:48.62	351.98	42.78	-37.7	-39.2	15.9	1.37e-04	0	63	0	3402629120	46	4161
2026-01-30 14:11:49.63	351.89	42.50	-37.8	-39.3	15.8	1.10e-06	0	63	0	3409969152	46	4215
2026-01-30 14:11:50.64	351.79	42.22	-37.9	-39.3	15.8	0.00e+00	0	63	0	3417309184	46	4236
2026-01-30 14:11:51.65	351.69	41.94	-37.9	-39.4	15.6	1.02e-05	0	63	0	3424649216	46	4255
2026-01-30 14:11:52.66	351.60	41.67	-37.9	-39.4	15.7	4.46e-05	0	63	0	3431989248	46	4281
2026-01-30 14:11:53.67	351.51	41.40	-37.9	-39.4	15.7	1.25e-05	0	63	0	3439329280	46	4244
2026-01-30 14:11:54.68	351.42	41.13	-37.9	-39.4	15.8	0.00e+00	0	63	0	3445620736	46	4266
2026-01-30 14:11:55.69	351.33	40.86	-37.9	-39.4	15.7	0.00e+00	0	63	0	3454009344	46	4286
2026-01-30 14:11:56.70	351.25	40.59	-38.1	-39.6	15.5	0.00e+00	0	63	0	3461349376	46	4356
2026-01-30 14:11:57.71	351.16	40.33	-38.0	-39.5	15.6	0.00e+00	0	63	0	3467640832	46	4340
2026-01-30 14:11:58.72	351.08	40.07	-38.0	-39.5	15.6	0.00e+00	0	63	0	3474980864	46	4321
2026-01-30 14:11:59.73	350.99	39.81	-38.0	-39.5	15.6	0.00e+00	0	63	0	3482320896	46	4336
2026-01-30 14:12:00.74	350.91	39.55	-38.0	-39.6	15.6	0.00e+00	0	63	0	3489660928	46	4349
2026-01-30 14:12:01.75	350.83	39.29	-38.0	-39.5	15.6	0.00e+00	0	63	0	3497000960	46	4315
2026-01-30 14:12:02.76	350.75	39.04	-38.0	-39.5	15.6	0.00e+00	0	63	0	3504340992	46	4313
2026-01-30 14:12:03.77	350.68	38.78	-38.0	-39.5	15.6	0.00e+00	0	63	0	3511681024	46	4318
2026-01-30 14:12:04.78	350.60	38.53	-37.9	-39.4	15.8	0.00e+00	0	63	0	3519021056	46	4258
2026-01-30 14:12:05.79	350.53	38.28	-37.8	-39.3	15.6	0.00e+00	0	63	0	3526361088	46	4222
2026-01-30 14:12:06.80	350.45	38.04	-37.7	-39.1	16.0	0.00e+00	0	63	0	3533701120	46	4144
2026-01-30 14:12:07.81	350.38	37.79	-37.7	-39.2	16.0	0.00e+00	0	63	0	3541041152	46	4147
2026-01-30 14:12:08.82	350.31	37.54	-37.7	-39.1	16.0	0.00e+00	0	63	0	3548381184	46	4141
2026-01-30 14:12:09.83	350.24	37.30	-37.7	-39.2	15.9	0.00e+00	0	63	0	3555721216	46	4164
2026-01-30 14:12:10.85	350.17	37.06	-37.8	-39.3	15.8	0.00e+00	0	63	0	3563061248	46	4230
2026-01-30 14:12:11.85	350.10	36.82	-37.8	-39.3	15.8	0.00e+00	0	63	0	3570401280	46	4225
2026-01-30 14:12:12.87	350.03	36.58	-37.8	-39.2	15.8	0.00e+00	0	63	0	3577741312	46	4193
2026-01-30 14:12:13.88	349.97	36.35	-37.8	-39.3	15.8	0.00e+00	0	63	0	3585081344	46	4205
2026-01-30 14:12:14.89	349.90	36.11	-37.7	-39.1	15.9	0.00e+00	0	63	0	3592421376	46	4144
2026-01-30 14:12:15.90	349.84	35.88	-37.6	-39.1	15.9	0.00e+00	0	63	0	3599761408	46	4135
2026-01-30 14:12:16.91	349.78	35.65	-37.6	-39.1	16.0	0.00e+00	0	63	0	3607101440	46	4108
2026-01-30 14:12:17.92	349.71	35.42	-37.4	-38.9	16.2	0.00e+00	0	63	0	3614441472	45	4257
2026-01-30 14:12:18.93	349.65	35.19	-37.3	-38.7	16.3	0.00e+00	0	63	0	3620732928	45	4155
2026-01-30 14:12:19.94	349.59	34.97	-37.2	-38.6	16.4	0.00e+00	0	63	0	3628072960	45	4125
2026-01-30 14:12:20.95	349.53	34.74	-37.3	-38.7	16.3	0.00e+00	0	63	0	3636461568	45	4154
2026-01-30 14:12:21.96	349.48	34.52	-37.1	-38.5	16.5	0.00e+00	0	63	0	3642753024	45	4066
2026-01-30 14:12:22.97	349.42	34.30	-37.0	-38.4	16.6	0.00e+00	0	63	0	3650093056	45	4009
2026-01-30 14:12:23.98	349.36	34.08	-37.0	-38.3	16.6	0.00e+00	0	63	0	3657433088	45	4004
2026-01-30 14:12:24.99	349.31	33.86	-37.0	-38.4	16.6	0.00e+00	0	63	0	3664773120	45	4021
2026-01-30 14:12:26.01	349.25	33.64	-37.1	-38.5	16.5	0.00e+00	0	63	0	3672113152	45	4055
2026-01-30 14:12:27.02	349.19	33.43	-37.1	-38.5	16.4	0.00e+00	0	63	0	3679453184	45	4062
2026-01-30 14:12:28.03	349.14	33.21	-37.1	-38.5	16.4	0.00e+00	0	63	0	3686793216	45	4082
2026-01-30 14:12:29.03	349.09	33.00	-37.2	-38.6	16.3	0.00e+00	0	63	0	3694133248	45	4115
2026-01-30 14:12:30.04	349.04	32.79	-37.2	-38.6	16.3	0.00e+00	0	63	0	3701473280	45	4124
2026-01-30 14:12:31.06	348.98	32.58	-37.3	-38.7	16.2	0.00e+00	0	63	0	3708813312	45	4174
2026-01-30 14:12:32.07	348.93	32.37	-37.3	-38.8	16.1	0.00e+00	0	63	0	3716153344	45	4201
2026-01-30 14:12:33.08	348.88	32.17	-37.3	-38.8	16.1	0.00e+00	0	63	0	3723493376	45	4203
2026-01-30 14:12:34.09	348.83	31.96	-37.4	-38.9	16.0	0.00e+00	0	63	0	3730833408	45	4246
2026-01-30 14:12:35.10	348.79	31.76	-37.4	-38.8	16.1	0.00e+00	0	63	0	3738173440	45	4214
2026-01-30 14:12:36.11	348.74	31.56	-37.4	-38.9	16.0	0.00e+00	0	63	0	3745513472	45	4250
2026-01-30 14:12:37.12	348.69	31.35	-37.5	-39.0	15.7	0.00e+00	0	63	0	3752853504	45	4292
2026-01-30 14:12:38.13	348.64	31.15	-37.5	-39.0	15.8	0.00e+00	0	63	0	3760193536	45	4306
2026-01-30 14:12:39.14	348.60	30.96	-37.6	-39.1	15.8	0.00e+00	0	63	0	3766484992	45	4344
2026-01-30 14:12:40.15	348.55	30.76	-37.6	-39.1	15.7	0.00e+00	0	63	0	3774873600	45	4369
2026-01-30 14:12:41.16	348.51	30.56	-37.6	-39.1	15.7	0.00e+00	0	63	0	3782213632	45	4346
2026-01-30 14:12:42.17	348.46	30.37	-37.6	-39.1	15.6	0.00e+00	0	63	0	3788505088	45	4387
2026-01-30 14:12:43.18	348.42	30.18	-37.6	-39.2	15.6	0.00e+00	0	63	0	3795845120	45	4393
2026-01-30 14:12:44.19	348.37	29.98	-37.7	-39.2	15.5	0.00e+00	0	63	0	3803185152	45	4433
2026-01-30 14:12:45.20	348.33	29.79	-37.7	-39.2	15.5	0.00e+00	0	63	0	3810525184	45	4411
2026-01-30 14:12:46.21	348.29	29.61	-37.6	-39.1	15.6	0.00e+00	0	63	0	3817865216	45	4352
2026-01-30 14:12:47.22	348.25	29.42	-37.7	-39.3	15.4	0.00e+00	0	63	0	3825205248	45	4444
2026-01-30 14:12:48.23	348.21	29.23	-37.6	-39.1	15.5	0.00e+00	0	63	0	3832545280	45	4388
2026-01-30 14:12:49.24	348.17	29.04	-37.6	-39.1	15.5	0.00e+00	0	63	0	3839885312	45	4374
2026-01-30 14:12:50.26	348.13	28.86	-37.6	-39.2	15.5	0.00e+00	0	63	0	3847225344	45	4397
2026-01-30 14:12:51.27	348.09	28.68	-37.6	-39.2	15.4	0.00e+00	0	63	0	3854565376	45	4419
2026-01-30 14:12:52.28	348.05	28.49	-37.6	-39.1	15.4	0.00e+00	0	63	0	3861905408	45	4383
2026-01-30 14:12:53.29	348.01	28.31	-37.5	-39.0	15.5	0.00e+00	0	63	0	3869245440	45	4335
2026-01-30 14:12:54.30	347.97	28.13	-37.6	-39.2	15.3	0.00e+00	0	63	0	3876585472	45	4395
2026-01-30 14:12:55.31	347.93	27.95	-37.6	-39.2	15.3	0.00e+00	0	63	0	3883925504	45	4412
2026-01-30 14:12:56.32	347.90	27.78	-37.6	-39.2	15.3	0.00e+00	0	63	0	3891265536	45	4414
2026-01-30 14:12:57.33	347.86	27.60	-37.7	-39.2	15.2	1.10e-06	0	63	0	3898605568	45	4427
2026-01-30 14:12:58.34	347.82	27.43	-37.7	-39.3	15.1	0.00e+00	0	63	0	3905945600	45	4465
2026-01-30 14:12:59.35	347.79	27.25	-37.8	-39.4	15.0	0.00e+00	0	63	0	3913285632	45	4507
2026-01-30 14:13:00.36	347.75	27.08	-37.7	-39.3	15.1	1.10e-06	0	63	0	3920625664	45	4475
2026-01-30 14:13:01.37	347.72	26.91	-37.7	-39.3	15.1	0.00e+00	0	63	0	3927965696	45	4463
2026-01-30 14:13:02.38	347.68	26.74	-37.8	-39.4	14.9	0.00e+00	0	63	0	3935305728	45	4532
2026-01-30 14:13:03.39	347.65	26.57	-37.8	-39.5	14.8	0.00e+00	0	63	0	3941597184	45	4557
2026-01-30 14:13:04.40	347.61	26.40	-37.9	-39.6	14.7	0.00e+00	0	63	0	3949985792	45	4601
2026-01-30 14:13:05.41	347.58	26.23	-37.9	-39.5	14.7	0.00e+00	0	63	0	3957325824	45	4580
2026-01-30 14:13:06.42	347.55	26.06	-37.9	-39.6	14.6	0.00e+00	0	63	0	3963617280	45	4612
2026-01-30 14:13:07.43	347.51	25.90	-37.9	-39.6	14.6	0.00e+00	0	63	0	3970957312	45	4602
2026-01-30 14:13:08.44	347.48	25.73	-37.9	-39.6	14.4	0.00e+00	0	63	0	3979345920	45	4647
2026-01-30 14:13:09.46	347.45	25.57	-37.9	-39.7	14.3	1.10e-06	0	63	0	3985637376	45	4654
2026-01-30 14:13:10.47	347.42	25.41	-37.7	-39.4	14.5	0.00e+00	0	63	0	3992977408	45	4512
2026-01-30 14:13:11.48	347.39	25.24	-37.8	-39.6	14.3	0.00e+00	0	63	0	4000317440	45	4627
2026-01-30 14:13:12.49	347.36	25.08	-37.7	-39.5	14.3	2.20e-06	0	63	0	4007657472	45	4548
2026-01-30 14:13:13.50	347.33	24.92	-37.8	-39.6	14.1	3.40e-06	0	63	0	4014997504	45	4601
2026-01-30 14:13:14.51	347.30	24.77	-37.7	-39.4	14.2	2.20e-06	0	63	0	4022337536	45	4531
2026-01-30 14:13:15.52	347.27	24.61	-37.8	-39.6	13.9	4.50e-06	0	63	0	4029677568	45	4632
2026-01-30 14:13:16.53	347.24	24.45	-37.6	-39.3	14.2	2.20e-06	0	63	0	4037017600	45	4486
2026-01-30 14:13:17.54	347.21	24.30	-37.5	-39.3	14.2	3.40e-06	0	63	0	4044357632	45	4471
2026-01-30 14:13:18.55	347.18	24.14	-37.6	-39.4	14.0	4.50e-06	0	63	0	4051697664	45	4535
2026-01-30 14:13:19.56	347.15	23.99	-37.4	-39.2	14.2	1.10e-06	0	63	0	4059037696	45	4405
2026-01-30 14:13:20.57	347.12	23.83	-37.6	-39.4	14.0	2.20e-06	0	63	0	4066377728	45	4515
2026-01-30 14:13:21.58	347.09	23.68	-37.5	-39.3	14.0	2.20e-06	0	63	0	4073717760	45	4456
2026-01-30 14:13:22.59	347.07	23.53	-37.5	-39.3	13.9	1.10e-06	0	63	0	4081057792	45	4478
2026-01-30 14:13:23.60	347.04	23.38	-37.8	-39.8	13.3	6.80e-06	0	63	0	4088397824	45	4714
2026-01-30 14:13:24.61	347.01	23.23	-37.8	-39.8	13.3	1.48e-05	0	63	0	4095737856	45	4707
2026-01-30 14:13:25.62	346.99	23.08	-37.5	-39.5	13.4	8.00e-06	0	63	0	4103077888	45	4549
2026-01-30 14:13:26.63	346.96	22.93	-37.5	-39.5	13.3	1.94e-05	0	63	0	4109369344	45	4570
2026-01-30 14:13:27.64	346.93	22.79	-37.6	-39.6	13.2	2.74e-05	0	63	0	4117757952	45	4603
2026-01-30 14:13:28.66	346.91	22.64	-37.5	-39.5	13.2	2.17e-05	0	63	0	4125097984	45	4571
2026-01-30 14:13:29.66	346.88	22.49	-37.4	-39.3	13.3	2.05e-05	0	63	0	4131389440	45	4490
2026-01-30 14:13:30.67	346.86	22.35	-37.3	-39.3	13.2	1.71e-05	0	63	0	4138729472	45	4479
2026-01-30 14:13:31.69	346.83	22.20	-37.4	-39.5	13.0	2.63e-05	0	63	0	4146069504	45	4565
2026-01-30 14:13:32.70	346.81	22.06	-37.7	-39.8	12.5	6.52e-05	0	63	0	4153409536	45	4759
2026-01-30 14:13:33.71	346.78	21.92	-38.0	-40.3	11.9	2.77e-04	0	63	0	4160749568	45	5031
2026-01-30 14:13:34.72	346.76	21.78	-38.3	-40.9	11.2	8.73e-04	0	63	0	4168089600	46	5082
2026-01-30 14:13:35.73	346.73	21.64	-38.8	-41.7	10.2	3.97e-03	0	63	0	4175429632	47	5243
2026-01-30 14:13:36.74	346.71	21.50	-39.4	-42.8	9.2	1.57e-02	0	63	0	4182769664	48	5609
2026-01-30 14:13:37.75	346.69	21.36	-40.0	-44.1	7.7	6.38e-02	0	63	0	4190109696	49	6136
2026-01-30 14:13:38.76	346.66	21.22	-40.5	-45.4	6.4	2.08e-01	0	63	0	4197449728	50	6773
2026-01-30 14:13:39.77	346.64	21.08	-40.9	-46.9	5.2	6.60e-01	0	63	0	4202692608	51	7576
2026-01-30 14:13:40.78	346.62	20.95	-41.2	-48.5	4.4	8.22e-01	0	63	0	4202692608	51	9132
2026-01-30 14:13:41.79	346.60	20.81	-41.3	-50.1	3.8	8.43e-01	0	63	104	4202692608	52	10337
2026-01-30 14:13:42.80	346.57	20.67	-41.4	-51.0	3.8	8.46e-01	0	63	104	4202692608	52	11538
2026-01-30 14:13:43.81	346.55	20.54	-41.4	-51.7	3.8	8.47e-01	0	63	104	4202692608	52	12454
2026-01-30 14:13:44.83	346.53	20.40	-41.5	-51.6	3.8	8.47e-01	0	63	104	4202692608	52	12371
2026-01-30 14:13:45.84	346.51	20.27	-41.4	-52.1	3.8	8.47e-01	0	63	104	4202692608	52	12976
2026-01-30 14:13:46.85	346.49	20.14	-41.3	-51.9	3.8	8.47e-01	0	63	104	4202692608	52	12796
2026-01-30 14:13:47.86	346.47	20.01	-41.8	-51.7	3.8	8.46e-01	0	63	104	4202692608	53	11818
2026-01-30 14:13:48.87	346.44	19.88	-41.8	-51.9	3.8	8.46e-01	0	63	104	4202692608	53	12064
2026-01-30 14:13:49.88	346.42	19.75	-41.8	-52.2	3.8	8.47e-01	0	63	104	4202692608	53	12490
2026-01-30 14:13:50.89	346.40	19.62	-41.8	-52.5	3.8	8.46e-01	0	63	104	4202692608	53	12852
2026-01-30 14:13:51.90	346.38	19.49	-41.6	-52.5	3.8	8.46e-01	0	63	104	4202692608	53	12822
2026-01-30 14:13:52.91	346.36	19.36	-41.5	-52.4	3.8	8.46e-01	0	63	104	4202692608	53	12726
2026-01-30 14:13:53.92	346.34	19.23	-41.1	-52.0	3.8	8.46e-01	0	63	104	4202692608	53	12138
2026-01-30 14:13:54.93	346.32	19.10	-41.3	-52.2	3.8	8.46e-01	0	63	104	4202692608	53	12392
2026-01-30 14:13:55.94	346.30	18.98	-41.3	-52.2	3.8	8.46e-01	0	63	104	4202692608	53	12407
2026-01-30 14:13:56.94	346.28	18.85	-41.2	-52.0	3.8	8.48e-01	0	63	104	4202692608	53	12200
2026-01-30 14:13:57.95	346.27	18.73	-41.3	-52.2	3.8	8.46e-01	0	63	104	4202692608	53	12467
2026-01-30 14:13:58.96	346.25	18.60	-41.2	-52.0	3.8	8.45e-01	0	63	104	4202692608	53	12220
2026-01-30 14:13:59.97	346.23	18.48	-41.2	-52.1	3.8	8.46e-01	0	63	104	4202692608	53	12269
2026-01-30 14:14:00.98	346.21	18.36	-41.4	-52.2	3.8	8.46e-01	0	63	104	4202692608	53	12430
2026-01-30 14:14:01.99	346.19	18.23	-41.3	-52.1	3.8	8.46e-01	0	63	104	4202692608	53	12341
2026-01-30 14:14:03.00	346.17	18.11	-41.1	-51.9	3.8	8.47e-01	0	63	104	4202692608	53	12020
2026-01-30 14:14:04.01	346.15	17.99	-41.3	-52.1	3.8	8.46e-01	0	63	104	4202692608	53	12288
2026-01-30 14:14:05.02	346.14	17.87	-41.4	-52.3	3.8	8.46e-01	0	63	104	4202692608	53	12545
2026-01-30 14:14:06.03	346.12	17.75	-41.2	-52.0	3.8	8.46e-01	0	63	104	4202692608	53	12198
2026-01-30 14:14:07.04	346.10	17.63	-41.1	-52.0	3.8	8.47e-01	0	63	104	4202692608	53	12120
2026-01-30 14:14:08.05	346.08	17.51	-41.5	-52.3	3.8	8.46e-01	0	63	104	4202692608	53	12587
2026-01-30 14:14:09.06	346.07	17.39	-41.4	-52.2	3.8	8.46e-01	0	63	104	4202692608	53	12496
2026-01-30 14:14:10.07	346.05	17.27	-41.1	-51.9	3.8	8.46e-01	0	63	104	4202692608	53	12051
2026-01-30 14:14:11.08	346.03	17.16	-41.2	-52.1	3.8	8.45e-01	0	63	104	4202692608	53	12287
2026-01-30 14:14:12.09	346.02	17.04	-41.5	-52.4	3.8	8.45e-01	0	63	104	4202692608	53	12702
2026-01-30 14:14:13.10	346.00	16.92	-41.4	-52.2	3.8	8.45e-01	0	63	104	4202692608	53	12511
2026-01-30 14:14:14.11	345.98	16.81	-41.2	-52.0	3.8	8.46e-01	0	63	104	4202692608	53	12210
2026-01-30 14:14:15.12	345.97	16.69	-41.2	-52.1	3.8	8.46e-01	0	63	104	4202692608	53	12273
2026-01-30 14:14:16.13	345.95	16.58	-41.5	-52.4	3.8	8.46e-01	0	63	104	4202692608	53	12707
2026-01-30 14:14:17.14	345.94	16.46	-41.4	-52.2	3.8	8.47e-01	0	63	104	4202692608	53	12496
2026-01-30 14:14:18.15	345.92	16.35	-41.3	-52.2	3.8	8.47e-01	0	63	104	4202692608	53	12384
2026-01-30 14:14:19.16	345.90	16.24	-41.2	-52.0	3.8	8.45e-01	0	63	104	4202692608	53	12206
