passes_logs/2026/01/30/R2.0S_Moscow/R2.0S_Moscow__20260130_001400_NOAA_20_JPSS-1_rec.log

#Pass ID: 20260130_001400_NOAA 20 (JPSS-1)
#Satellite: NOAA 20 (JPSS-1)
#Configuration: NOAA 20
#almurnet v.1.7.20251203
#Start time: 2026-01-30 00:14:01

#Version: 2.2.20231116
#Station: R2.0S_Moscow
#Location: 37.707566 lon 55.798166 lat
#TLE: 1 43013U 17073A   26028.86313978  .00000144  00000+0  89200-4 0  9993
#TLE: 2 43013  98.7648 329.6571 0000891  20.0014 340.1197 14.19541559424709

#Time	Az	El	Level	Level2	SNR	BER	BlckErr	Temp	State	Recorded	gain1	gain2
2026-01-30 00:14:01.44	13.88	2.04	-42.1	-56.6	3.8	1.49e+00	0	52	0	0	56	18498
2026-01-30 00:14:02.44	13.86	2.10	-42.0	-56.5	3.8	1.49e+00	0	52	104	0	55	19337
2026-01-30 00:14:03.45	13.84	2.17	-42.0	-56.5	3.8	1.49e+00	0	52	104	0	55	19231
2026-01-30 00:14:04.46	13.82	2.23	-42.0	-56.5	3.8	1.49e+00	0	53	104	0	55	19213
2026-01-30 00:14:05.47	13.80	2.29	-42.0	-56.5	3.8	1.49e+00	0	52	104	0	55	19224
2026-01-30 00:14:06.48	13.78	2.36	-42.0	-56.5	3.8	1.49e+00	0	52	104	0	55	19189
2026-01-30 00:14:07.49	13.75	2.42	-42.0	-56.5	3.8	1.49e+00	0	53	104	0	55	19285
2026-01-30 00:14:08.50	13.73	2.49	-42.0	-56.5	3.8	1.49e+00	0	53	104	0	55	19239
2026-01-30 00:14:09.51	13.71	2.55	-42.0	-56.5	3.8	1.49e+00	0	53	104	0	55	19171
2026-01-30 00:14:10.52	13.69	2.62	-42.0	-56.5	3.8	1.49e+00	0	53	104	0	55	19239
2026-01-30 00:14:11.53	13.67	2.68	-42.0	-56.5	3.8	1.49e+00	0	53	104	0	55	19202
2026-01-30 00:14:12.54	13.65	2.75	-42.0	-56.5	3.8	1.49e+00	0	53	104	0	55	19181
2026-01-30 00:14:13.55	13.63	2.81	-42.0	-56.5	3.8	1.49e+00	0	53	104	0	55	19274
2026-01-30 00:14:14.56	13.60	2.88	-42.0	-56.5	3.8	1.49e+00	0	53	104	0	55	19223
2026-01-30 00:14:15.58	13.58	2.95	-42.0	-56.5	3.8	1.49e+00	0	53	104	0	55	19239
2026-01-30 00:14:16.58	13.56	3.01	-42.0	-56.5	3.8	1.49e+00	0	53	104	0	55	19266
2026-01-30 00:14:17.59	13.54	3.08	-42.0	-56.5	3.8	1.49e+00	0	53	104	0	55	19195
2026-01-30 00:14:18.60	13.52	3.14	-42.0	-56.4	3.8	1.49e+00	0	53	104	0	55	19152
2026-01-30 00:14:19.61	13.49	3.21	-42.0	-56.4	3.8	1.49e+00	0	54	104	0	55	19125
2026-01-30 00:14:20.62	13.47	3.28	-42.0	-56.4	3.8	1.49e+00	0	54	104	0	55	19010
2026-01-30 00:14:21.63	13.45	3.34	-42.0	-56.4	3.8	1.49e+00	0	54	104	0	55	18988
2026-01-30 00:14:22.64	13.42	3.41	-42.0	-56.3	3.8	1.49e+00	0	54	104	0	55	18897
2026-01-30 00:14:23.65	13.40	3.48	-42.0	-56.4	3.8	1.49e+00	0	54	104	0	55	19028
2026-01-30 00:14:24.66	13.38	3.54	-42.0	-56.2	3.8	1.49e+00	0	54	104	0	55	18673
2026-01-30 00:14:25.67	13.36	3.61	-41.9	-56.1	3.8	1.49e+00	0	54	104	0	55	18432
2026-01-30 00:14:26.68	13.33	3.68	-41.9	-56.0	3.8	1.49e+00	0	54	104	0	55	18106
2026-01-30 00:14:27.70	13.31	3.75	-41.9	-55.9	3.8	1.49e+00	0	54	104	0	55	17960
2026-01-30 00:14:28.71	13.28	3.81	-41.9	-55.7	3.8	1.49e+00	0	54	104	0	55	17510
2026-01-30 00:14:29.72	13.26	3.88	-41.9	-55.7	3.8	1.49e+00	0	54	104	0	55	17498
2026-01-30 00:14:30.73	13.24	3.95	-41.9	-55.6	3.8	1.49e+00	0	54	104	0	55	17394
2026-01-30 00:14:31.74	13.21	4.02	-41.9	-55.7	3.8	1.49e+00	0	54	104	0	55	17503
2026-01-30 00:14:32.75	13.19	4.09	-41.9	-55.6	3.8	1.49e+00	0	54	104	0	55	17365
2026-01-30 00:14:33.76	13.17	4.15	-41.9	-55.4	3.8	1.49e+00	0	54	104	0	55	17001
2026-01-30 00:14:34.77	13.14	4.22	-41.9	-55.3	3.8	1.49e+00	0	54	104	0	55	16850
2026-01-30 00:14:35.78	13.12	4.29	-41.9	-55.2	3.8	1.49e+00	0	54	104	0	55	16632
2026-01-30 00:14:36.79	13.09	4.36	-41.9	-55.3	3.8	1.49e+00	0	55	104	0	55	16843
2026-01-30 00:14:37.80	13.07	4.43	-41.9	-55.2	3.8	1.49e+00	0	55	104	0	55	16576
2026-01-30 00:14:38.81	13.04	4.50	-41.9	-55.1	3.8	1.49e+00	0	55	104	0	55	16396
2026-01-30 00:14:39.82	13.02	4.57	-41.8	-54.8	3.8	1.49e+00	0	55	104	0	55	15834
2026-01-30 00:14:40.83	12.99	4.64	-41.9	-54.8	3.8	1.49e+00	0	55	104	0	55	15896
2026-01-30 00:14:41.84	12.97	4.71	-41.8	-54.7	3.8	1.49e+00	0	55	104	0	55	15756
2026-01-30 00:14:42.85	12.94	4.78	-41.8	-54.5	3.8	1.49e+00	0	55	104	0	55	15271
2026-01-30 00:14:43.86	12.92	4.85	-41.8	-54.6	3.8	1.49e+00	0	55	104	0	55	15444
2026-01-30 00:14:44.87	12.89	4.92	-41.8	-54.6	3.8	1.49e+00	0	55	104	0	55	15531
2026-01-30 00:14:45.88	12.86	4.99	-41.8	-54.3	3.8	1.49e+00	0	55	104	0	55	15007
2026-01-30 00:14:46.89	12.84	5.06	-41.8	-54.5	3.8	1.49e+00	0	55	104	0	55	15398
2026-01-30 00:14:47.90	12.81	5.13	-41.8	-54.5	3.8	1.48e+00	0	55	104	0	55	15266
2026-01-30 00:14:48.91	12.79	5.20	-41.8	-54.2	3.9	1.48e+00	0	55	104	0	55	14753
2026-01-30 00:14:49.92	12.76	5.28	-41.8	-54.6	3.8	1.49e+00	0	55	104	0	55	15469
2026-01-30 00:14:50.93	12.73	5.35	-41.8	-54.6	3.8	1.49e+00	0	55	104	0	55	15513
2026-01-30 00:14:51.94	12.71	5.42	-41.9	-54.8	3.8	1.49e+00	0	55	104	0	55	15908
2026-01-30 00:14:52.95	12.68	5.49	-41.9	-55.0	3.8	1.49e+00	0	55	104	0	55	16156
2026-01-30 00:14:53.96	12.65	5.56	-41.9	-54.9	3.8	1.49e+00	0	55	104	0	55	16063
2026-01-30 00:14:54.97	12.62	5.63	-41.8	-54.6	3.8	1.49e+00	0	55	104	0	55	15412
2026-01-30 00:14:55.99	12.60	5.71	-41.8	-54.5	3.8	1.49e+00	0	56	104	0	55	15275
2026-01-30 00:14:57.00	12.57	5.78	-41.8	-54.0	3.9	1.49e+00	0	56	104	0	55	14507
2026-01-30 00:14:58.01	12.54	5.85	-41.8	-53.9	4.0	1.48e+00	0	56	104	0	55	14307
2026-01-30 00:14:59.02	12.51	5.93	-41.8	-53.7	3.8	1.47e+00	0	56	104	0	55	13994
2026-01-30 00:15:00.03	12.48	6.00	-41.7	-53.1	4.1	1.44e+00	0	56	0	0	55	13017
2026-01-30 00:15:01.04	12.46	6.07	-41.7	-52.5	4.3	1.34e+00	92	56	0	0	55	12115
2026-01-30 00:15:02.05	12.43	6.15	-41.6	-51.8	4.5	1.11e+00	0	56	0	1048576	55	11250
2026-01-30 00:15:03.06	12.40	6.22	-41.5	-51.2	4.8	9.04e-01	0	56	0	3145728	55	10512
2026-01-30 00:15:04.07	12.37	6.30	-41.4	-50.6	5.2	6.67e-01	0	56	0	5242880	54	10370
2026-01-30 00:15:05.08	12.34	6.37	-41.4	-50.0	5.5	5.27e-01	0	56	0	7340032	54	9645
2026-01-30 00:15:06.09	12.31	6.44	-41.3	-49.6	5.8	4.01e-01	0	56	0	9437184	54	9223
2026-01-30 00:15:07.10	12.28	6.52	-41.2	-48.9	6.3	3.51e-01	0	56	0	10485760	54	8546
2026-01-30 00:15:08.11	12.25	6.59	-41.1	-48.4	6.8	2.24e-01	0	56	0	12582912	54	8027
2026-01-30 00:15:09.12	12.22	6.67	-41.0	-48.0	7.1	1.46e-01	0	56	0	14680064	53	8153
2026-01-30 00:15:10.13	12.20	6.74	-40.8	-47.5	7.6	1.37e-01	0	56	0	16777216	53	7692
2026-01-30 00:15:11.14	12.17	6.82	-40.8	-47.3	7.8	8.59e-02	0	56	0	18874368	53	7499
2026-01-30 00:15:12.15	12.14	6.90	-40.7	-47.0	8.0	6.68e-02	0	56	0	19922944	53	7270
2026-01-30 00:15:13.16	12.10	6.97	-40.6	-46.6	8.5	4.88e-02	0	56	0	22020096	53	6917
2026-01-30 00:15:14.17	12.07	7.05	-40.5	-46.5	8.7	3.68e-02	0	56	0	24117248	53	6803
2026-01-30 00:15:15.18	12.04	7.12	-40.5	-46.4	8.7	2.90e-02	0	56	0	26214400	53	6749
2026-01-30 00:15:16.19	12.01	7.20	-40.4	-46.0	9.2	3.08e-02	0	56	0	28311552	52	6851
2026-01-30 00:15:17.20	11.98	7.28	-40.4	-45.9	9.3	2.21e-02	0	56	0	29360128	52	6743
2026-01-30 00:15:18.21	11.95	7.35	-40.4	-46.1	9.1	2.39e-02	0	56	0	31457280	52	6910
2026-01-30 00:15:19.22	11.92	7.43	-40.4	-45.9	9.3	1.87e-02	0	56	0	33554432	52	6747
2026-01-30 00:15:20.23	11.89	7.51	-40.4	-46.0	9.2	1.87e-02	0	57	0	35651584	52	6812
2026-01-30 00:15:21.24	11.86	7.59	-40.4	-46.0	9.1	2.48e-02	0	57	0	37748736	52	6874
2026-01-30 00:15:22.25	11.82	7.67	-40.5	-46.4	8.7	2.96e-02	0	57	0	38797312	52	7150
2026-01-30 00:15:23.27	11.79	7.74	-40.5	-46.4	8.7	3.18e-02	0	57	0	40894464	52	7195
2026-01-30 00:15:24.28	11.76	7.82	-40.6	-46.7	8.5	4.08e-02	0	57	0	42991616	52	7383
2026-01-30 00:15:25.29	11.73	7.90	-40.7	-46.9	8.2	4.71e-02	0	57	0	45088768	52	7624
2026-01-30 00:15:26.30	11.69	7.98	-40.7	-47.1	8.0	6.24e-02	0	57	0	47185920	52	7800
2026-01-30 00:15:27.31	11.66	8.06	-40.8	-47.6	7.5	7.98e-02	0	57	0	48234496	52	8213
2026-01-30 00:15:28.32	11.63	8.14	-40.3	-49.0	5.4	6.01e-01	0	57	0	50331648	52	9664
2026-01-30 00:15:29.33	11.59	8.22	-40.7	-47.4	7.6	1.67e-01	0	57	0	52428800	52	8054
2026-01-30 00:15:30.34	11.56	8.30	-41.5	-49.6	5.9	5.26e-01	0	57	0	54525952	53	9778
2026-01-30 00:15:31.35	11.53	8.38	-41.1	-47.6	7.7	1.42e-01	0	57	0	56623104	53	7775
2026-01-30 00:15:32.36	11.49	8.46	-40.5	-49.3	5.4	4.75e-01	0	57	0	58720256	52	9977
2026-01-30 00:15:33.37	11.46	8.54	-40.8	-48.0	6.9	1.76e-01	0	57	0	59768832	52	8637
2026-01-30 00:15:34.38	11.42	8.62	-40.9	-48.6	6.4	2.14e-01	0	57	0	61865984	52	9223
2026-01-30 00:15:35.39	11.39	8.70	-41.0	-49.0	6.1	2.99e-01	0	57	0	63963136	52	9654
2026-01-30 00:15:36.40	11.36	8.78	-41.0	-49.4	5.7	3.95e-01	0	57	0	66060288	52	10134
2026-01-30 00:15:37.41	11.32	8.86	-41.0	-49.5	5.6	4.30e-01	0	57	0	68157440	52	10273
2026-01-30 00:15:38.42	11.28	8.95	-40.9	-50.0	5.2	4.77e-01	0	57	0	69206016	52	10830
2026-01-30 00:15:39.43	11.25	9.03	-40.5	-50.6	4.5	1.04e+00	2	58	0	71303168	52	11649
2026-01-30 00:15:40.44	11.21	9.11	-41.0	-50.0	5.3	6.36e-01	0	57	0	73400320	52	10813
2026-01-30 00:15:41.45	11.18	9.19	-41.7	-51.0	4.9	1.29e+00	0	57	0	74448896	54	10879
2026-01-30 00:15:42.45	11.14	9.28	-41.2	-49.9	5.6	3.62e-01	0	57	0	76546048	54	9515
2026-01-30 00:15:43.46	11.11	9.36	-40.6	-51.4	4.3	1.47e+00	0	58	104	77594624	52	12692
2026-01-30 00:15:44.47	11.07	9.44	-41.1	-49.7	5.6	4.72e-01	0	57	0	78643200	52	10481
2026-01-30 00:15:45.48	11.03	9.53	-41.2	-50.2	5.3	5.04e-01	0	57	0	80740352	52	11089
2026-01-30 00:15:46.49	11.00	9.61	-41.3	-50.3	5.2	6.14e-01	0	57	0	82837504	53	10614
2026-01-30 00:15:47.50	10.96	9.69	-41.3	-50.5	5.1	6.45e-01	0	58	0	83886080	53	10881
2026-01-30 00:15:48.51	10.92	9.78	-41.3	-50.6	5.0	7.07e-01	0	58	0	85983232	53	11024
2026-01-30 00:15:49.52	10.88	9.86	-41.0	-51.4	4.5	8.24e-01	4	58	0	88080384	53	12091
2026-01-30 00:15:50.53	10.84	9.95	-41.1	-51.5	4.4	1.42e+00	66	58	0	88080384	53	12138
2026-01-30 00:15:51.55	10.81	10.03	-41.1	-52.3	4.2	6.21e-01	79	58	0	90177536	54	12612
2026-01-30 00:15:52.55	10.77	10.12	-41.0	-52.0	4.2	1.47e+00	0	58	104	90177536	52	13682
2026-01-30 00:15:53.56	10.73	10.20	-41.9	-51.5	4.9	1.17e+00	0	58	0	91226112	55	10815
2026-01-30 00:15:54.57	10.69	10.29	-41.9	-52.1	4.6	1.32e+00	2	58	0	92274688	55	11613
2026-01-30 00:15:55.59	10.65	10.38	-41.8	-51.8	4.7	8.71e-01	0	58	0	94371840	55	11213
2026-01-30 00:15:56.59	10.61	10.46	-41.9	-52.0	4.6	9.82e-01	0	58	0	96468992	55	11528
2026-01-30 00:15:57.60	10.57	10.55	-42.0	-52.1	4.6	9.53e-01	0	58	0	97517568	55	11573
2026-01-30 00:15:58.61	10.53	10.64	-41.9	-51.9	4.6	9.08e-01	0	58	0	99614720	55	11414
2026-01-30 00:15:59.62	10.49	10.73	-42.0	-51.8	4.8	8.39e-01	0	58	0	101711872	55	11174
2026-01-30 00:16:00.63	10.45	10.81	-42.1	-51.2	5.2	7.25e-01	0	58	0	103809024	55	10466
2026-01-30 00:16:01.64	10.41	10.90	-42.1	-51.2	5.3	5.79e-01	0	58	0	105906176	55	10413
2026-01-30 00:16:02.65	10.37	10.99	-40.8	-53.1	3.8	1.05e+00	0	58	104	106954752	53	14581
2026-01-30 00:16:03.66	10.33	11.08	-41.6	-51.0	4.9	1.48e+00	0	58	0	106954752	53	11547
2026-01-30 00:16:04.67	10.28	11.17	-42.0	-51.6	4.9	5.34e-01	0	58	0	108003328	55	10984
2026-01-30 00:16:05.68	10.24	11.26	-42.1	-51.3	5.1	1.24e+00	0	58	0	110100480	55	10607
2026-01-30 00:16:06.69	10.20	11.35	-42.3	-50.8	5.6	5.02e-01	0	58	0	112197632	55	10007
2026-01-30 00:16:07.70	10.16	11.44	-42.2	-50.3	6.0	3.85e-01	0	58	0	114294784	55	9466
2026-01-30 00:16:08.71	10.12	11.53	-42.1	-50.1	6.2	3.18e-01	0	58	0	115343360	55	9177
2026-01-30 00:16:09.72	10.07	11.62	-42.0	-49.5	6.6	2.49e-01	0	58	0	117440512	55	8644
2026-01-30 00:16:10.73	10.03	11.71	-41.8	-48.6	7.4	1.55e-01	0	58	0	119537664	55	7775
2026-01-30 00:16:11.74	9.98	11.80	-42.1	-48.4	8.2	7.92e-02	0	58	0	121634816	55	7561
2026-01-30 00:16:12.75	9.94	11.89	-41.9	-47.9	8.6	3.14e-02	0	58	0	123731968	55	7177
2026-01-30 00:16:13.76	9.90	11.99	-40.5	-48.0	6.7	4.24e-02	0	59	0	124780544	53	8091
2026-01-30 00:16:14.77	9.85	12.08	-40.9	-45.5	10.7	2.56e-01	0	58	0	126877696	52	6427
2026-01-30 00:16:15.77	9.81	12.17	-40.9	-47.5	7.8	1.72e-02	0	58	0	128974848	52	8176
2026-01-30 00:16:16.78	9.76	12.26	-40.8	-45.7	10.3	1.09e-01	0	58	0	131072000	52	6593
2026-01-30 00:16:17.80	9.72	12.36	-40.8	-45.2	11.2	1.64e-03	0	58	0	133169152	52	6232
2026-01-30 00:16:18.80	9.67	12.45	-40.8	-45.3	11.1	1.38e-03	0	58	0	134217728	52	6296
2026-01-30 00:16:19.81	9.62	12.54	-40.9	-45.3	11.2	1.31e-03	0	58	0	136314880	52	6278
2026-01-30 00:16:20.82	9.58	12.64	-40.9	-45.2	11.3	1.50e-03	0	58	0	138412032	52	6268
2026-01-30 00:16:21.83	9.53	12.73	-41.0	-45.4	11.2	1.12e-03	0	58	0	140509184	52	6415
2026-01-30 00:16:22.84	9.48	12.83	-41.0	-45.5	11.1	1.33e-03	0	58	0	142606336	52	6423
2026-01-30 00:16:23.85	9.44	12.92	-41.1	-45.4	11.3	1.27e-03	0	58	0	143654912	52	6397
2026-01-30 00:16:24.86	9.39	13.02	-41.1	-45.5	11.2	1.38e-03	0	59	0	145752064	52	6471
2026-01-30 00:16:25.87	9.34	13.12	-41.3	-45.9	10.8	2.11e-03	0	58	0	147849216	53	6370
2026-01-30 00:16:26.88	9.29	13.21	-41.3	-45.7	11.0	1.88e-03	0	59	0	149946368	53	6260
2026-01-30 00:16:27.89	9.24	13.31	-41.2	-45.6	11.2	1.81e-03	0	59	0	152043520	53	6188
2026-01-30 00:16:28.90	9.19	13.41	-41.1	-45.3	11.5	8.36e-04	0	59	0	153092096	53	5989
2026-01-30 00:16:29.91	9.14	13.50	-41.2	-45.4	11.5	7.94e-04	0	59	0	155189248	53	6061
2026-01-30 00:16:30.92	9.09	13.60	-41.3	-45.6	11.3	8.60e-04	0	58	0	157286400	53	6189
2026-01-30 00:16:31.93	9.04	13.70	-41.4	-45.8	11.3	1.16e-03	0	59	0	159383552	53	6286
2026-01-30 00:16:32.94	8.99	13.80	-41.3	-45.5	11.5	9.76e-04	0	59	0	161480704	53	6092
2026-01-30 00:16:33.95	8.94	13.90	-41.3	-45.4	11.6	6.85e-04	0	59	0	163577856	53	6020
2026-01-30 00:16:34.96	8.89	14.00	-41.4	-45.6	11.5	7.29e-04	0	59	0	164626432	53	6183
2026-01-30 00:16:35.97	8.84	14.10	-41.4	-45.6	11.5	6.97e-04	0	59	0	166723584	53	6179
2026-01-30 00:16:36.98	8.79	14.20	-41.4	-45.6	11.5	8.60e-04	0	59	0	168820736	53	6173
2026-01-30 00:16:37.99	8.74	14.30	-41.4	-45.7	11.5	7.50e-04	0	59	0	170917888	53	6211
2026-01-30 00:16:39.00	8.68	14.40	-41.5	-45.9	11.3	9.05e-04	0	59	0	173015040	53	6371
2026-01-30 00:16:40.01	8.63	14.50	-41.6	-45.9	11.3	1.21e-03	0	59	0	174063616	53	6397
2026-01-30 00:16:41.02	8.58	14.60	-41.5	-45.7	11.6	1.06e-03	0	59	0	176160768	53	6236
2026-01-30 00:16:42.03	8.52	14.70	-41.5	-45.6	11.8	5.61e-04	0	59	0	178257920	53	6156
2026-01-30 00:16:43.04	8.47	14.81	-41.5	-45.7	11.7	5.24e-04	0	59	0	180355072	53	6238
2026-01-30 00:16:44.05	8.41	14.91	-41.5	-45.5	11.9	5.94e-04	0	58	0	182452224	53	6126
2026-01-30 00:16:45.06	8.36	15.01	-41.4	-45.3	12.1	3.71e-04	0	59	0	183500800	53	5970
2026-01-30 00:16:46.07	8.30	15.12	-41.5	-45.5	11.9	3.56e-04	0	59	0	185597952	53	6124
2026-01-30 00:16:47.08	8.25	15.22	-41.5	-45.5	12.1	2.94e-04	0	59	0	187695104	53	6062
2026-01-30 00:16:48.09	8.19	15.33	-41.5	-45.5	12.1	2.76e-04	0	59	0	189792256	53	6081
2026-01-30 00:16:49.10	8.13	15.43	-41.5	-45.4	12.1	3.25e-04	0	59	0	191889408	53	6054
2026-01-30 00:16:50.11	8.07	15.54	-41.5	-45.4	12.2	2.66e-04	0	59	0	192937984	53	6018
2026-01-30 00:16:51.12	8.02	15.64	-41.5	-45.5	12.1	2.55e-04	0	59	0	195035136	53	6067
2026-01-30 00:16:52.13	7.96	15.75	-41.5	-45.4	12.2	2.21e-04	0	59	0	197132288	53	6014
2026-01-30 00:16:53.14	7.90	15.86	-41.5	-45.5	12.1	2.66e-04	0	59	0	199229440	53	6071
2026-01-30 00:16:54.15	7.84	15.96	-41.5	-45.4	12.2	2.91e-04	0	59	0	201326592	53	6041
2026-01-30 00:16:55.16	7.78	16.07	-41.5	-45.4	12.2	2.16e-04	0	59	0	202375168	53	6006
2026-01-30 00:16:56.17	7.72	16.18	-41.5	-45.3	12.3	2.00e-04	0	59	0	204472320	53	5966
2026-01-30 00:16:57.18	7.66	16.29	-41.5	-45.4	12.3	2.04e-04	0	59	0	206569472	53	6020
2026-01-30 00:16:58.18	7.60	16.40	-41.5	-45.4	12.3	1.78e-04	0	59	0	208666624	53	6009
2026-01-30 00:16:59.19	7.54	16.51	-41.5	-45.4	12.3	1.88e-04	0	59	0	210763776	53	6014
2026-01-30 00:17:00.20	7.48	16.62	-41.5	-45.4	12.3	1.97e-04	0	59	0	211812352	53	6028
2026-01-30 00:17:01.21	7.41	16.73	-41.5	-45.4	12.2	1.73e-04	0	59	0	213909504	53	6035
2026-01-30 00:17:02.22	7.35	16.84	-41.5	-45.4	12.2	2.06e-04	0	59	0	216006656	53	6031
2026-01-30 00:17:03.23	7.29	16.95	-41.5	-45.4	12.3	1.75e-04	0	59	0	218103808	53	6005
2026-01-30 00:17:04.24	7.22	17.06	-41.5	-45.4	12.3	1.73e-04	0	59	0	220200960	53	6010
2026-01-30 00:17:05.25	7.16	17.17	-41.6	-45.4	12.3	1.59e-04	0	59	0	221249536	53	6048
2026-01-30 00:17:06.26	7.10	17.28	-41.5	-45.4	12.3	1.67e-04	0	59	0	223346688	53	6004
2026-01-30 00:17:07.27	7.03	17.40	-41.6	-45.5	12.2	1.81e-04	0	59	0	225443840	53	6082
2026-01-30 00:17:08.28	6.96	17.51	-41.5	-45.3	12.4	2.03e-04	0	59	0	227540992	53	5926
2026-01-30 00:17:09.29	6.90	17.63	-41.6	-45.4	12.2	1.59e-04	0	59	0	229638144	53	6051
2026-01-30 00:17:10.30	6.83	17.74	-41.6	-45.4	12.3	2.10e-04	0	59	0	231735296	53	6046
2026-01-30 00:17:11.31	6.76	17.86	-41.5	-45.3	12.3	1.88e-04	0	59	0	232783872	53	5989
2026-01-30 00:17:12.32	6.70	17.97	-41.6	-45.4	12.3	1.67e-04	0	59	0	234881024	53	6054
2026-01-30 00:17:13.33	6.63	18.09	-41.5	-45.3	12.4	1.64e-04	0	59	0	236978176	53	5982
2026-01-30 00:17:14.34	6.56	18.20	-41.6	-45.4	12.4	1.53e-04	0	59	0	239075328	53	6004
2026-01-30 00:17:15.35	6.49	18.32	-41.6	-45.4	12.4	1.59e-04	0	59	0	241172480	53	6034
2026-01-30 00:17:16.36	6.42	18.44	-41.5	-45.3	12.4	1.76e-04	0	59	0	242221056	53	5978
2026-01-30 00:17:17.37	6.35	18.56	-41.6	-45.3	12.4	1.42e-04	0	59	0	244318208	53	5985
2026-01-30 00:17:18.38	6.27	18.68	-41.5	-45.3	12.5	1.56e-04	0	59	0	246415360	53	5974
2026-01-30 00:17:19.39	6.20	18.80	-41.6	-45.4	12.4	1.45e-04	0	59	0	248512512	53	5998
2026-01-30 00:17:20.40	6.13	18.92	-41.6	-45.4	12.3	1.62e-04	0	59	0	250609664	53	6029
2026-01-30 00:17:21.41	6.06	19.04	-41.6	-45.3	12.4	1.29e-04	0	59	0	251658240	53	5983
2026-01-30 00:17:22.42	5.98	19.16	-41.6	-45.3	12.4	1.50e-04	0	59	0	253755392	53	5974
2026-01-30 00:17:23.43	5.91	19.28	-41.5	-45.3	12.5	1.27e-04	0	59	0	255852544	53	5947
2026-01-30 00:17:24.44	5.83	19.40	-41.5	-45.3	12.5	1.18e-04	0	59	0	257949696	53	5940
2026-01-30 00:17:25.45	5.76	19.52	-41.6	-45.4	12.4	1.11e-04	0	59	0	260046848	53	6012
2026-01-30 00:17:26.46	5.68	19.65	-41.6	-45.3	12.4	1.38e-04	0	59	0	261095424	53	5988
2026-01-30 00:17:27.47	5.60	19.77	-41.6	-45.3	12.4	1.43e-04	0	59	0	263192576	53	5978
2026-01-30 00:17:28.48	5.53	19.89	-41.5	-45.3	12.5	1.23e-04	0	59	0	265289728	53	5950
2026-01-30 00:17:29.49	5.45	20.02	-41.5	-45.3	12.5	1.14e-04	0	59	0	267386880	53	5934
2026-01-30 00:17:30.50	5.37	20.14	-41.6	-45.3	12.5	1.17e-04	0	59	0	269484032	53	5984
2026-01-30 00:17:31.51	5.29	20.27	-41.5	-45.2	12.6	1.07e-04	0	60	0	270532608	53	5901
2026-01-30 00:17:32.52	5.21	20.40	-41.6	-45.3	12.5	1.01e-04	0	59	0	272629760	53	5955
2026-01-30 00:17:33.53	5.13	20.52	-41.6	-45.3	12.5	1.05e-04	0	59	0	274726912	53	5959
2026-01-30 00:17:34.54	5.05	20.65	-41.5	-45.2	12.6	8.92e-05	0	59	0	276824064	53	5904
2026-01-30 00:17:35.55	4.96	20.78	-41.5	-45.2	12.7	8.54e-05	0	59	0	278921216	53	5877
2026-01-30 00:17:36.56	4.88	20.91	-41.6	-45.3	12.6	9.07e-05	0	59	0	279969792	53	5949
2026-01-30 00:17:37.57	4.80	21.04	-41.5	-45.2	12.6	1.03e-04	0	59	0	282066944	53	5913
2026-01-30 00:17:38.58	4.71	21.17	-41.5	-45.2	12.6	8.01e-05	0	59	0	284164096	53	5906
2026-01-30 00:17:39.59	4.63	21.30	-41.5	-45.2	12.7	8.85e-05	0	59	0	286261248	53	5868
2026-01-30 00:17:40.60	4.54	21.43	-41.6	-45.3	12.6	9.07e-05	0	59	0	288358400	53	5940
2026-01-30 00:17:41.61	4.45	21.56	-41.6	-45.3	12.6	1.11e-04	0	60	0	289406976	53	5946
2026-01-30 00:17:42.62	4.37	21.69	-41.6	-45.4	12.5	9.07e-05	0	60	0	291504128	53	6001
2026-01-30 00:17:43.63	4.28	21.83	-41.6	-45.3	12.6	8.69e-05	0	60	0	293601280	53	5946
2026-01-30 00:17:44.64	4.19	21.96	-41.6	-45.3	12.6	9.23e-05	0	59	0	295698432	53	5948
2026-01-30 00:17:45.64	4.10	22.09	-41.6	-45.3	12.6	1.06e-04	0	60	0	297795584	53	5945
2026-01-30 00:17:46.65	4.01	22.23	-41.6	-45.4	12.5	1.18e-04	0	60	0	299892736	53	5997
2026-01-30 00:17:47.66	3.92	22.37	-41.6	-45.4	12.5	1.21e-04	0	60	0	300941312	53	6008
2026-01-30 00:17:48.67	3.82	22.50	-41.7	-45.5	12.4	1.41e-04	0	60	0	303038464	53	6065
2026-01-30 00:17:49.68	3.73	22.64	-41.7	-45.5	12.4	1.23e-04	0	60	0	305135616	53	6064
2026-01-30 00:17:50.69	3.64	22.78	-41.7	-45.5	12.4	1.56e-04	0	60	0	307232768	53	6079
2026-01-30 00:17:51.70	3.54	22.91	-41.7	-45.5	12.4	1.75e-04	0	59	0	309329920	54	5786
2026-01-30 00:17:52.71	3.44	23.05	-41.8	-45.7	12.2	2.23e-04	0	60	0	310378496	54	5865
2026-01-30 00:17:53.72	3.35	23.19	-41.8	-45.6	12.3	1.92e-04	0	60	0	312475648	54	5831
2026-01-30 00:17:54.74	3.25	23.33	-41.8	-45.7	12.2	2.01e-04	0	60	0	314572800	54	5879
2026-01-30 00:17:55.75	3.15	23.48	-41.8	-45.7	12.2	2.17e-04	0	60	0	316669952	54	5907
2026-01-30 00:17:56.76	3.05	23.62	-41.8	-45.7	12.2	2.34e-04	0	60	0	318767104	54	5906
2026-01-30 00:17:57.77	2.95	23.76	-41.9	-45.8	12.1	2.23e-04	0	60	0	319815680	54	5936
2026-01-30 00:17:58.78	2.85	23.90	-41.9	-45.8	12.1	2.43e-04	0	60	0	321912832	54	5962
2026-01-30 00:17:59.79	2.74	24.05	-41.9	-45.8	12.1	2.28e-04	0	60	0	324009984	54	5983
2026-01-30 00:18:00.80	2.64	24.19	-41.9	-45.8	12.1	2.97e-04	0	60	0	326107136	54	5976
2026-01-30 00:18:01.81	2.54	24.34	-42.0	-46.0	12.0	3.05e-04	0	60	0	328204288	54	6085
2026-01-30 00:18:02.81	2.43	24.48	-42.0	-46.1	11.9	3.87e-04	0	60	0	329252864	54	6142
2026-01-30 00:18:03.82	2.33	24.63	-42.0	-46.1	11.8	4.14e-04	0	60	0	331350016	54	6159
2026-01-30 00:18:04.84	2.22	24.77	-42.1	-46.3	11.7	4.96e-04	0	60	0	333447168	54	6300
2026-01-30 00:18:05.85	2.11	24.92	-42.1	-46.3	11.6	7.14e-04	0	60	0	335544320	54	6324
2026-01-30 00:18:06.86	2.00	25.07	-42.2	-46.4	11.5	9.92e-04	0	60	0	337641472	54	6411
2026-01-30 00:18:07.87	1.89	25.22	-42.2	-46.5	11.4	9.18e-04	0	60	0	338690048	55	6122
2026-01-30 00:18:08.88	1.78	25.37	-42.3	-46.7	11.2	1.09e-03	0	60	0	340787200	55	6252
2026-01-30 00:18:09.89	1.66	25.52	-42.4	-47.0	10.9	1.95e-03	0	60	0	342884352	55	6478
2026-01-30 00:18:10.89	1.55	25.67	-42.5	-47.1	10.8	2.44e-03	0	60	0	344981504	55	6510
2026-01-30 00:18:11.90	1.43	25.82	-42.5	-47.2	10.7	2.28e-03	0	60	0	347078656	55	6622
2026-01-30 00:18:12.91	1.32	25.98	-42.6	-47.3	10.5	3.09e-03	0	60	0	348127232	55	6709
2026-01-30 00:18:13.92	1.20	26.13	-42.6	-47.3	10.5	3.56e-03	0	60	0	350224384	55	6706
2026-01-30 00:18:14.93	1.08	26.28	-42.6	-47.4	10.5	4.01e-03	0	60	0	352321536	55	6771
2026-01-30 00:18:15.94	0.96	26.44	-42.7	-47.6	10.3	4.51e-03	0	60	0	354418688	55	6929
2026-01-30 00:18:16.95	0.84	26.60	-42.9	-47.9	10.2	4.74e-03	0	60	0	356515840	56	6770
2026-01-30 00:18:17.96	0.72	26.75	-42.9	-47.8	10.2	5.40e-03	0	60	0	357564416	56	6715
2026-01-30 00:18:18.97	0.60	26.91	-42.9	-47.8	10.2	5.97e-03	0	60	0	359661568	56	6711
2026-01-30 00:18:19.98	0.47	27.07	-42.9	-48.0	10.1	6.73e-03	0	60	0	361758720	56	6835
2026-01-30 00:18:20.99	0.34	27.23	-43.0	-48.1	9.9	7.90e-03	0	60	0	363855872	56	6904
2026-01-30 00:18:22.00	0.22	27.39	-42.9	-48.0	10.0	7.47e-03	0	60	0	365953024	56	6857
2026-01-30 00:18:23.01	0.09	27.55	-43.0	-48.2	9.9	8.74e-03	0	60	0	368050176	56	6998
2026-01-30 00:18:24.02	359.96	27.71	-43.1	-48.3	9.8	1.03e-02	0	60	0	369098752	56	7078
2026-01-30 00:18:25.02	359.83	27.87	-43.1	-48.4	9.6	1.00e-02	0	60	0	371195904	56	7204
2026-01-30 00:18:26.03	359.70	28.03	-43.1	-48.5	9.6	1.27e-02	0	60	0	373293056	56	7264
2026-01-30 00:18:27.04	359.56	28.20	-43.1	-48.5	9.6	1.53e-02	0	60	0	375390208	56	7221
2026-01-30 00:18:28.05	359.43	28.36	-43.2	-48.8	9.3	1.54e-02	0	60	0	377487360	57	7064
2026-01-30 00:18:29.06	359.29	28.53	-43.2	-48.8	9.3	1.82e-02	0	60	0	378535936	57	7045
2026-01-30 00:18:30.07	359.15	28.69	-43.3	-48.8	9.3	1.84e-02	0	60	0	380633088	57	7104
2026-01-30 00:18:31.08	359.01	28.86	-43.3	-48.9	9.1	2.29e-02	0	60	0	382730240	57	7183
2026-01-30 00:18:32.09	358.87	29.03	-43.3	-49.0	9.1	2.31e-02	0	60	0	384827392	57	7212
2026-01-30 00:18:33.10	358.73	29.20	-43.3	-48.9	9.2	1.93e-02	0	60	0	386924544	57	7161
2026-01-30 00:18:34.11	358.58	29.36	-43.3	-49.0	9.1	2.20e-02	0	60	0	387973120	57	7251
2026-01-30 00:18:35.12	358.43	29.53	-43.2	-48.8	9.3	2.10e-02	0	60	0	390070272	57	7048
2026-01-30 00:18:36.13	358.29	29.71	-43.3	-48.9	9.2	2.05e-02	0	60	0	392167424	57	7169
2026-01-30 00:18:37.14	358.14	29.88	-43.3	-48.9	9.3	1.80e-02	0	60	0	394264576	57	7136
2026-01-30 00:18:38.15	357.99	30.05	-43.3	-48.8	9.3	1.45e-02	0	60	0	396361728	57	7059
2026-01-30 00:18:39.16	357.83	30.22	-43.3	-48.7	9.4	1.62e-02	0	60	0	397410304	57	7038
2026-01-30 00:18:40.17	357.68	30.40	-43.2	-48.7	9.4	1.78e-02	0	60	0	399507456	57	6983
2026-01-30 00:18:41.18	357.52	30.57	-43.2	-48.7	9.5	1.35e-02	0	60	0	401604608	57	6979
2026-01-30 00:18:42.19	357.37	30.75	-43.2	-48.6	9.5	1.58e-02	0	60	0	403701760	57	6916
2026-01-30 00:18:43.20	357.21	30.93	-43.1	-48.2	10.0	1.28e-02	0	60	0	405798912	57	6606
2026-01-30 00:18:44.21	357.04	31.10	-43.2	-48.4	9.8	1.11e-02	0	60	0	406847488	57	6757
2026-01-30 00:18:45.22	356.88	31.28	-43.1	-48.3	9.8	9.75e-03	0	60	0	408944640	57	6713
2026-01-30 00:18:46.23	356.72	31.46	-43.2	-48.5	9.7	1.03e-02	0	60	0	411041792	57	6830
2026-01-30 00:18:47.24	356.55	31.64	-43.1	-48.3	9.8	1.08e-02	0	60	0	413138944	57	6706
2026-01-30 00:18:48.25	356.38	31.82	-43.1	-48.2	10.0	8.47e-03	0	60	0	415236096	57	6590
2026-01-30 00:18:49.26	356.21	32.00	-43.1	-48.2	10.0	8.00e-03	0	60	0	416284672	57	6585
2026-01-30 00:18:50.27	356.04	32.19	-43.1	-48.2	9.9	8.43e-03	0	60	0	418381824	57	6619
2026-01-30 00:18:51.28	355.86	32.37	-43.0	-48.1	10.1	7.44e-03	0	60	0	420478976	57	6508
2026-01-30 00:18:52.29	355.69	32.55	-43.1	-48.2	10.0	8.20e-03	0	60	0	422576128	57	6576
2026-01-30 00:18:53.30	355.51	32.74	-43.1	-48.1	10.1	6.77e-03	0	60	0	424673280	57	6570
2026-01-30 00:18:54.31	355.33	32.92	-43.1	-48.2	10.0	7.58e-03	0	60	0	425721856	57	6591
2026-01-30 00:18:55.32	355.14	33.11	-43.1	-48.1	10.1	7.06e-03	0	60	0	427819008	57	6532
2026-01-30 00:18:56.33	354.96	33.30	-43.1	-48.2	10.0	6.66e-03	0	60	0	429916160	57	6593
2026-01-30 00:18:57.34	354.77	33.49	-43.1	-48.1	10.1	6.06e-03	0	60	0	432013312	57	6504
2026-01-30 00:18:58.35	354.58	33.67	-43.0	-47.9	10.3	6.12e-03	0	60	0	434110464	57	6398
2026-01-30 00:18:59.36	354.39	33.86	-43.1	-48.1	10.2	6.43e-03	0	60	0	436207616	57	6503
2026-01-30 00:19:00.37	354.19	34.05	-43.1	-48.0	10.2	7.02e-03	0	60	0	437256192	57	6487
2026-01-30 00:19:01.38	354.00	34.25	-43.1	-48.2	10.1	7.03e-03	0	60	0	439353344	57	6581
2026-01-30 00:19:02.39	353.80	34.44	-43.2	-48.3	9.9	7.33e-03	0	60	0	441450496	57	6709
2026-01-30 00:19:03.40	353.60	34.63	-43.3	-48.6	9.7	9.50e-03	0	60	0	443547648	57	6911
2026-01-30 00:19:04.41	353.39	34.83	-43.3	-48.8	9.5	1.49e-02	0	60	0	445644800	57	7049
2026-01-30 00:19:05.42	353.19	35.02	-43.4	-48.9	9.3	1.72e-02	0	60	0	446693376	57	7198
2026-01-30 00:19:06.43	352.98	35.22	-43.4	-49.2	9.0	2.10e-02	0	60	0	448790528	57	7382
2026-01-30 00:19:07.44	352.77	35.41	-43.5	-49.2	8.9	2.44e-02	0	60	0	450887680	57	7423
2026-01-30 00:19:08.45	352.55	35.61	-43.6	-49.6	8.6	3.31e-02	0	60	0	452984832	57	7783
2026-01-30 00:19:09.46	352.34	35.81	-43.6	-49.6	8.6	3.79e-02	0	60	0	455081984	57	7725
2026-01-30 00:19:10.47	352.12	36.00	-43.6	-49.6	8.6	3.42e-02	0	60	0	456130560	57	7731
2026-01-30 00:19:11.48	351.90	36.20	-43.6	-49.6	8.6	3.82e-02	0	61	0	458227712	57	7763
2026-01-30 00:19:12.49	351.67	36.40	-43.5	-49.4	8.8	3.88e-02	0	60	0	460324864	57	7608
2026-01-30 00:19:13.50	351.44	36.60	-43.6	-49.6	8.5	3.56e-02	0	60	0	462422016	57	7804
2026-01-30 00:19:14.51	351.21	36.80	-43.7	-49.9	8.3	4.77e-02	0	60	0	464519168	57	8057
2026-01-30 00:19:15.52	350.98	37.01	-43.8	-50.2	8.1	5.75e-02	0	60	0	465567744	58	7888
2026-01-30 00:19:16.53	350.74	37.21	-43.8	-50.3	7.9	7.17e-02	0	60	0	467664896	58	7922
2026-01-30 00:19:17.54	350.50	37.41	-43.8	-50.1	8.1	6.50e-02	0	60	0	469762048	58	7794
2026-01-30 00:19:18.55	350.26	37.62	-43.8	-50.1	8.2	5.88e-02	0	60	0	471859200	58	7738
2026-01-30 00:19:19.56	350.02	37.82	-43.8	-50.1	8.2	5.48e-02	0	60	0	473956352	58	7730
2026-01-30 00:19:20.56	349.77	38.02	-43.7	-50.0	8.3	5.17e-02	0	61	0	475004928	58	7683
2026-01-30 00:19:21.57	349.52	38.23	-43.7	-49.9	8.3	5.27e-02	0	61	0	477102080	58	7613
2026-01-30 00:19:22.58	349.26	38.44	-43.7	-49.8	8.4	4.29e-02	0	60	0	479199232	58	7497
2026-01-30 00:19:23.59	349.01	38.64	-43.8	-50.2	8.1	6.20e-02	0	60	0	481296384	58	7822
2026-01-30 00:19:24.61	348.74	38.85	-43.8	-50.2	8.0	6.56e-02	0	60	0	483393536	58	7878
2026-01-30 00:19:25.62	348.48	39.06	-43.8	-50.3	7.9	6.83e-02	0	60	0	484442112	58	7961
2026-01-30 00:19:26.63	348.21	39.27	-43.8	-50.3	7.9	7.93e-02	0	60	0	486539264	58	7912
2026-01-30 00:19:27.64	347.94	39.48	-43.8	-50.1	8.1	6.32e-02	0	60	0	488636416	58	7765
2026-01-30 00:19:28.65	347.66	39.69	-43.8	-50.3	7.9	6.42e-02	0	60	0	490733568	58	7948
2026-01-30 00:19:29.66	347.38	39.90	-43.9	-50.7	7.7	7.08e-02	0	60	0	492830720	58	8310
2026-01-30 00:19:30.67	347.10	40.11	-44.0	-50.8	7.5	9.95e-02	0	60	0	493879296	58	8381
2026-01-30 00:19:31.68	346.81	40.32	-43.9	-50.7	7.6	9.78e-02	0	60	0	495976448	58	8323
2026-01-30 00:19:32.69	346.52	40.54	-43.9	-50.5	7.8	9.16e-02	0	60	0	498073600	58	8138
2026-01-30 00:19:33.70	346.23	40.75	-43.8	-50.0	8.2	5.89e-02	0	60	0	500170752	58	7710
2026-01-30 00:19:34.71	345.93	40.96	-43.8	-50.1	8.1	5.27e-02	0	60	0	502267904	58	7802
2026-01-30 00:19:35.72	345.63	41.17	-43.8	-50.2	8.0	7.00e-02	0	60	0	504365056	58	7875
2026-01-30 00:19:36.73	345.32	41.39	-43.8	-50.2	8.1	5.98e-02	0	60	0	505413632	58	7821
2026-01-30 00:19:37.74	345.01	41.60	-43.7	-49.7	8.5	5.08e-02	0	61	0	507510784	58	7454
2026-01-30 00:19:38.75	344.69	41.81	-43.5	-49.3	9.0	3.42e-02	0	60	0	509607936	58	7062
2026-01-30 00:19:39.76	344.38	42.03	-43.5	-49.0	9.3	1.95e-02	0	60	0	511705088	58	6846
2026-01-30 00:19:40.77	344.05	42.24	-43.5	-49.0	9.3	1.82e-02	0	60	0	513802240	58	6835
2026-01-30 00:19:41.78	343.73	42.46	-43.4	-48.9	9.4	1.88e-02	0	60	0	514850816	58	6738
2026-01-30 00:19:42.79	343.39	42.67	-43.4	-48.8	9.5	1.49e-02	0	61	0	516947968	58	6656
2026-01-30 00:19:43.80	343.06	42.89	-43.3	-48.7	9.7	1.25e-02	0	60	0	519045120	58	6580
2026-01-30 00:19:44.81	342.72	43.10	-43.3	-48.6	9.8	1.20e-02	0	61	0	521142272	58	6508
2026-01-30 00:19:45.82	342.37	43.32	-43.4	-48.7	9.6	1.12e-02	0	60	0	523239424	58	6637
2026-01-30 00:19:46.83	342.02	43.53	-43.5	-49.0	9.3	1.44e-02	0	60	0	524288000	58	6854
2026-01-30 00:19:47.84	341.66	43.75	-43.4	-48.8	9.5	1.36e-02	0	60	0	526385152	58	6698
2026-01-30 00:19:48.85	341.30	43.96	-43.3	-48.5	9.8	1.11e-02	0	60	0	528482304	58	6487
2026-01-30 00:19:49.86	340.94	44.18	-43.2	-48.3	10.0	8.72e-03	0	60	0	530579456	58	6318
2026-01-30 00:19:50.87	340.57	44.39	-43.4	-48.7	9.6	1.03e-02	0	61	0	532676608	58	6630
2026-01-30 00:19:51.88	340.19	44.61	-43.5	-49.0	9.3	1.59e-02	0	61	0	533725184	58	6861
2026-01-30 00:19:52.89	339.81	44.82	-43.6	-49.3	9.1	2.13e-02	0	61	0	535822336	58	7065
2026-01-30 00:19:53.90	339.43	45.04	-43.6	-49.3	9.1	2.50e-02	0	60	0	537919488	58	7083
2026-01-30 00:19:54.91	339.04	45.25	-43.6	-49.3	9.0	2.77e-02	0	60	0	540016640	58	7046
2026-01-30 00:19:55.92	338.64	45.46	-43.6	-49.5	8.8	2.89e-02	0	61	0	542113792	58	7251
2026-01-30 00:19:56.93	338.24	45.68	-43.6	-49.5	8.8	3.54e-02	0	61	0	543162368	58	7253
2026-01-30 00:19:57.94	337.83	45.89	-43.7	-49.7	8.6	3.61e-02	0	60	0	545259520	58	7389
2026-01-30 00:19:58.95	337.42	46.10	-43.5	-49.2	9.0	2.71e-02	0	61	0	547356672	58	7032
2026-01-30 00:19:59.96	337.00	46.31	-43.5	-49.1	9.2	2.14e-02	0	60	0	549453824	58	6932
2026-01-30 00:20:00.97	336.58	46.52	-43.4	-48.9	9.4	1.55e-02	0	60	0	551550976	58	6746
2026-01-30 00:20:01.98	336.15	46.73	-43.4	-48.9	9.5	1.40e-02	0	60	0	552599552	58	6741
2026-01-30 00:20:02.99	335.71	46.94	-43.5	-49.1	9.3	1.46e-02	0	60	0	554696704	58	6886
2026-01-30 00:20:03.99	335.27	47.15	-43.5	-49.1	9.2	2.12e-02	0	61	0	556793856	58	6949
2026-01-30 00:20:05.00	334.83	47.36	-43.7	-49.7	8.6	2.70e-02	0	61	0	558891008	58	7391
2026-01-30 00:20:06.01	334.37	47.56	-43.7	-49.8	8.5	3.68e-02	0	60	0	560988160	58	7526
2026-01-30 00:20:07.02	333.91	47.77	-43.8	-49.9	8.5	4.26e-02	0	61	0	562036736	58	7597
2026-01-30 00:20:08.03	333.45	47.98	-43.8	-49.9	8.4	4.54e-02	0	61	0	564133888	58	7582
2026-01-30 00:20:09.04	332.98	48.18	-43.8	-49.9	8.5	4.52e-02	0	61	0	566231040	58	7582
2026-01-30 00:20:10.05	332.50	48.38	-43.8	-49.9	8.4	4.41e-02	0	61	0	568328192	58	7596
2026-01-30 00:20:11.06	332.01	48.58	-43.6	-49.5	8.8	4.35e-02	0	61	0	570425344	58	7229
2026-01-30 00:20:12.07	331.52	48.78	-43.6	-49.3	9.0	2.38e-02	0	61	0	572522496	58	7080
2026-01-30 00:20:13.08	331.02	48.98	-43.5	-49.0	9.4	1.87e-02	0	61	0	573571072	58	6877
2026-01-30 00:20:14.09	330.52	49.18	-43.4	-48.8	9.6	1.90e-02	0	61	0	575668224	58	6702
2026-01-30 00:20:15.10	330.01	49.37	-43.3	-48.6	9.8	1.27e-02	0	61	0	577765376	58	6541
2026-01-30 00:20:16.11	329.49	49.57	-43.3	-48.5	9.9	1.03e-02	0	61	0	579862528	58	6439
2026-01-30 00:20:17.12	328.97	49.76	-43.2	-48.3	10.1	8.61e-03	0	61	0	581959680	58	6298
2026-01-30 00:20:18.13	328.44	49.95	-43.2	-48.2	10.2	7.57e-03	0	61	0	583008256	58	6236
2026-01-30 00:20:19.14	327.90	50.14	-42.9	-47.6	10.8	3.57e-03	0	61	0	585105408	57	6165
2026-01-30 00:20:20.15	327.36	50.33	-42.8	-47.3	11.1	1.98e-03	0	61	0	587202560	57	5971
2026-01-30 00:20:21.16	326.81	50.51	-42.8	-47.2	11.2	1.63e-03	0	61	0	589299712	57	5885
2026-01-30 00:20:22.17	326.25	50.69	-42.7	-47.0	11.4	7.61e-04	0	61	0	591396864	57	5759
2026-01-30 00:20:23.18	325.69	50.87	-42.6	-46.7	11.7	6.29e-04	0	60	0	592445440	57	5566
2026-01-30 00:20:24.19	325.12	51.05	-42.4	-46.4	12.1	4.14e-04	0	60	0	594542592	56	5694
2026-01-30 00:20:25.20	324.54	51.23	-42.2	-46.0	12.4	1.63e-04	0	61	0	596639744	56	5464
2026-01-30 00:20:26.21	323.95	51.40	-42.2	-46.1	12.5	1.12e-04	0	61	0	598736896	56	5471
2026-01-30 00:20:27.22	323.36	51.57	-42.3	-46.2	12.3	1.31e-04	0	60	0	600834048	56	5545
2026-01-30 00:20:28.23	322.76	51.74	-42.2	-46.0	12.5	1.05e-04	0	60	0	601882624	56	5434
2026-01-30 00:20:29.24	322.16	51.90	-42.2	-46.0	12.5	1.12e-04	0	61	0	603979776	56	5419
2026-01-30 00:20:30.25	321.55	52.07	-42.3	-46.1	12.3	1.02e-04	0	60	0	606076928	56	5509
2026-01-30 00:20:31.26	320.93	52.23	-42.2	-46.1	12.4	1.44e-04	0	61	0	608174080	56	5474
2026-01-30 00:20:32.27	320.30	52.38	-42.2	-45.9	12.6	1.20e-04	0	61	0	610271232	56	5357
2026-01-30 00:20:33.28	319.67	52.54	-42.0	-45.7	12.8	6.48e-05	0	61	0	611319808	56	5230
2026-01-30 00:20:34.29	319.03	52.69	-41.7	-45.2	13.1	4.11e-05	0	60	0	613416960	55	5253
2026-01-30 00:20:35.30	318.39	52.83	-41.8	-45.3	13.0	3.28e-05	0	60	0	615514112	55	5311
2026-01-30 00:20:36.31	317.74	52.98	-41.8	-45.4	12.9	3.66e-05	0	61	0	617611264	55	5373
2026-01-30 00:20:37.32	317.08	53.12	-42.0	-45.7	12.7	5.87e-05	0	60	0	619708416	55	5534
2026-01-30 00:20:38.33	316.41	53.26	-42.1	-45.9	12.5	1.04e-04	0	60	0	620756992	55	5694
2026-01-30 00:20:39.34	315.74	53.39	-42.2	-46.2	12.1	2.20e-04	0	60	0	622854144	55	5905
2026-01-30 00:20:40.35	315.07	53.52	-42.4	-46.6	11.7	3.90e-04	0	61	0	624951296	55	6151
2026-01-30 00:20:41.36	314.38	53.64	-42.6	-47.0	11.3	1.02e-03	0	61	0	627048448	55	6452
2026-01-30 00:20:42.37	313.70	53.77	-42.5	-46.9	11.4	1.05e-03	0	61	0	629145600	55	6359
2026-01-30 00:20:43.38	313.00	53.88	-42.5	-46.7	11.5	9.30e-04	0	60	0	630194176	55	6273
2026-01-30 00:20:44.39	312.30	54.00	-42.3	-46.3	12.0	3.84e-04	0	61	0	632291328	55	5973
2026-01-30 00:20:45.40	311.60	54.11	-42.1	-46.0	12.3	2.29e-04	0	61	0	634388480	55	5751
2026-01-30 00:20:46.41	310.89	54.21	-42.2	-46.0	12.3	1.30e-04	0	60	0	636485632	55	5777
2026-01-30 00:20:47.42	310.17	54.32	-42.0	-45.8	12.5	1.72e-04	0	60	0	638582784	55	5639
2026-01-30 00:20:48.43	309.45	54.41	-41.9	-45.5	12.9	4.65e-05	0	61	0	640679936	55	5407
2026-01-30 00:20:49.44	308.72	54.50	-41.8	-45.3	13.0	2.74e-05	0	61	0	641728512	55	5310
2026-01-30 00:20:50.45	307.99	54.59	-41.8	-45.4	13.0	3.50e-05	0	61	0	643825664	55	5352
2026-01-30 00:20:51.46	307.26	54.68	-41.9	-45.5	12.8	4.73e-05	0	61	0	645922816	55	5450
2026-01-30 00:20:52.47	306.52	54.76	-41.7	-45.2	13.2	3.96e-05	0	61	0	648019968	55	5248
2026-01-30 00:20:53.48	305.78	54.83	-41.7	-45.1	13.2	2.13e-05	0	61	0	650117120	55	5177
2026-01-30 00:20:54.49	305.03	54.90	-41.4	-44.7	13.6	5.30e-06	0	61	0	651165696	54	5256
2026-01-30 00:20:55.50	304.28	54.96	-41.3	-44.5	13.8	2.20e-06	0	61	0	653262848	54	5148
2026-01-30 00:20:56.51	303.53	55.02	-41.3	-44.5	13.8	3.80e-06	0	61	0	655360000	54	5144
2026-01-30 00:20:57.52	302.77	55.08	-41.2	-44.2	14.1	2.20e-06	0	61	0	657457152	54	4976
2026-01-30 00:20:58.53	302.01	55.13	-41.0	-43.9	14.4	1.50e-06	0	61	0	659554304	54	4808
2026-01-30 00:20:59.54	301.25	55.17	-40.8	-43.7	14.7	0.00e+00	0	60	0	660602880	53	4939
2026-01-30 00:21:00.55	300.48	55.22	-40.8	-43.5	14.8	0.00e+00	0	61	0	662700032	53	4866
2026-01-30 00:21:01.56	299.72	55.25	-40.7	-43.5	14.9	7.00e-07	0	61	0	664797184	53	4817
2026-01-30 00:21:02.57	298.95	55.28	-40.6	-43.3	15.1	0.00e+00	0	61	0	666894336	53	4749
2026-01-30 00:21:03.58	298.18	55.31	-40.6	-43.3	15.1	0.00e+00	0	61	0	668991488	53	4733
2026-01-30 00:21:04.59	297.41	55.32	-40.6	-43.3	15.0	0.00e+00	0	61	0	670040064	53	4734
2026-01-30 00:21:05.59	296.64	55.34	-40.5	-43.2	15.1	0.00e+00	0	61	0	672137216	53	4688
2026-01-30 00:21:06.60	295.87	55.35	-40.6	-43.2	15.1	0.00e+00	0	61	0	674234368	53	4699
2026-01-30 00:21:07.61	295.10	55.35	-40.7	-43.5	14.8	0.00e+00	0	61	0	676331520	53	4844
2026-01-30 00:21:08.62	294.32	55.35	-40.9	-43.8	14.6	0.00e+00	0	61	0	678428672	53	5034
2026-01-30 00:21:09.63	293.55	55.35	-40.8	-43.6	14.8	1.50e-06	0	61	0	679477248	53	4901
2026-01-30 00:21:10.64	292.78	55.34	-40.8	-43.7	14.6	1.50e-06	0	61	0	681574400	53	4966
2026-01-30 00:21:11.66	292.00	55.32	-40.9	-43.9	14.5	0.00e+00	0	61	0	683671552	53	5056
2026-01-30 00:21:12.67	291.22	55.30	-40.9	-43.8	14.5	0.00e+00	0	61	0	685768704	53	5033
2026-01-30 00:21:13.68	290.45	55.27	-40.9	-43.8	14.6	7.00e-07	0	61	0	687865856	53	5035
2026-01-30 00:21:14.69	289.69	55.24	-41.1	-44.1	14.2	0.00e+00	0	61	0	688914432	53	5197
2026-01-30 00:21:15.70	288.92	55.20	-41.1	-44.1	14.2	3.80e-06	0	61	0	691011584	53	5208
2026-01-30 00:21:16.71	288.16	55.16	-41.1	-44.2	14.2	7.00e-07	0	61	0	693108736	53	5224
2026-01-30 00:21:17.72	287.39	55.11	-41.1	-44.2	14.1	3.80e-06	0	61	0	695205888	53	5253
2026-01-30 00:21:18.72	286.64	55.06	-41.0	-44.1	14.3	7.00e-07	0	61	0	697303040	53	5161
2026-01-30 00:21:19.72	285.89	55.01	-40.9	-43.8	14.6	0.00e+00	0	61	0	698351616	53	5018
2026-01-30 00:21:20.73	285.14	54.95	-40.8	-43.6	14.7	0.00e+00	0	61	0	700448768	53	4913
2026-01-30 00:21:21.74	284.39	54.88	-40.8	-43.7	14.7	7.00e-07	0	61	0	702545920	53	4935
2026-01-30 00:21:22.76	283.64	54.81	-40.5	-43.1	15.2	0.00e+00	0	61	0	704643072	52	4910
2026-01-30 00:21:23.77	282.89	54.73	-40.1	-42.6	15.7	0.00e+00	0	61	0	706740224	52	4641
2026-01-30 00:21:24.78	282.16	54.65	-40.0	-42.3	16.1	0.00e+00	0	61	0	708837376	51	4750
2026-01-30 00:21:25.79	281.42	54.57	-40.0	-42.4	16.1	0.00e+00	0	61	0	709885952	51	4768
2026-01-30 00:21:26.80	280.69	54.48	-40.0	-42.4	16.0	0.00e+00	0	61	0	711983104	51	4806
2026-01-30 00:21:27.81	279.97	54.38	-40.1	-42.6	15.8	0.00e+00	0	61	0	714080256	51	4888
2026-01-30 00:21:28.82	279.25	54.28	-40.1	-42.5	15.9	0.00e+00	0	61	0	716177408	51	4868
2026-01-30 00:21:29.83	278.53	54.18	-40.2	-42.7	15.7	0.00e+00	0	61	0	718274560	51	4949
2026-01-30 00:21:30.84	277.82	54.08	-40.2	-42.7	15.7	0.00e+00	0	61	0	719323136	51	4975
2026-01-30 00:21:31.85	277.12	53.96	-40.1	-42.6	15.9	0.00e+00	0	61	0	721420288	51	4871
2026-01-30 00:21:32.86	276.42	53.85	-40.1	-42.6	15.9	0.00e+00	0	61	0	723517440	51	4881
2026-01-30 00:21:33.87	275.72	53.73	-40.3	-42.9	15.6	0.00e+00	0	60	0	725614592	51	5043
2026-01-30 00:21:34.88	275.04	53.61	-40.5	-43.1	15.3	0.00e+00	0	61	0	727711744	51	5191
2026-01-30 00:21:35.89	274.35	53.48	-40.6	-43.3	15.1	0.00e+00	0	61	0	728760320	51	5324
2026-01-30 00:21:36.90	273.68	53.35	-40.8	-43.6	14.8	0.00e+00	0	60	0	730857472	52	5190
2026-01-30 00:21:37.91	273.01	53.21	-40.9	-43.8	14.5	7.00e-07	0	60	0	732954624	52	5327
2026-01-30 00:21:38.92	272.35	53.07	-41.0	-44.1	14.3	7.00e-07	0	61	0	735051776	52	5465
2026-01-30 00:21:39.93	271.69	52.93	-41.1	-44.2	14.2	3.80e-06	0	61	0	737148928	52	5538
2026-01-30 00:21:40.94	271.04	52.79	-41.3	-44.6	13.7	7.60e-06	0	61	0	738197504	53	5488
2026-01-30 00:21:41.95	270.39	52.64	-41.6	-45.0	13.3	1.83e-05	0	61	0	740294656	53	5759
2026-01-30 00:21:42.96	269.76	52.49	-42.0	-45.7	12.6	7.93e-05	0	61	0	742391808	54	5896
2026-01-30 00:21:43.97	269.13	52.33	-42.0	-45.8	12.5	1.40e-04	0	61	0	744488960	54	5952
2026-01-30 00:21:44.98	268.50	52.17	-42.1	-45.9	12.3	1.52e-04	0	61	0	746586112	54	6024
2026-01-30 00:21:45.99	267.88	52.01	-42.0	-45.7	12.6	1.01e-04	0	61	0	748683264	54	5883
2026-01-30 00:21:47.00	267.27	51.85	-41.8	-45.5	12.8	1.07e-04	0	61	0	749731840	54	5730
2026-01-30 00:21:48.01	266.67	51.68	-41.8	-45.5	12.8	6.63e-05	0	61	0	751828992	54	5724
2026-01-30 00:21:49.02	266.07	51.51	-41.9	-45.6	12.7	6.33e-05	0	61	0	753926144	54	5808
2026-01-30 00:21:50.03	265.48	51.34	-42.1	-45.9	12.4	9.30e-05	0	61	0	756023296	54	6036
2026-01-30 00:21:51.04	264.90	51.17	-42.2	-46.3	12.0	2.68e-04	0	61	0	758120448	55	5924
2026-01-30 00:21:52.05	264.32	50.99	-42.2	-46.2	12.0	2.95e-04	0	61	0	759169024	55	5875
2026-01-30 00:21:53.06	263.75	50.81	-42.2	-46.2	12.1	2.62e-04	0	61	0	761266176	55	5861
2026-01-30 00:21:54.07	263.19	50.63	-42.2	-46.2	12.0	2.94e-04	0	61	0	763363328	55	5886
2026-01-30 00:21:55.08	262.63	50.45	-42.1	-46.1	12.1	3.21e-04	0	61	0	765460480	55	5803
2026-01-30 00:21:56.09	262.08	50.26	-42.2	-46.2	12.0	2.49e-04	0	61	0	767557632	55	5887
2026-01-30 00:21:57.10	261.54	50.07	-42.3	-46.3	11.9	3.49e-04	0	61	0	768606208	55	5978
2026-01-30 00:21:58.11	261.00	49.88	-42.4	-46.7	11.5	6.00e-04	0	61	0	770703360	55	6254
2026-01-30 00:21:59.11	260.48	49.69	-42.7	-47.3	10.9	1.17e-03	0	61	0	772800512	55	6709
2026-01-30 00:22:00.12	259.96	49.50	-42.9	-47.7	10.6	2.69e-03	0	61	0	774897664	56	6589
2026-01-30 00:22:01.13	259.44	49.31	-42.9	-47.6	10.8	2.53e-03	0	61	0	776994816	56	6516
2026-01-30 00:22:02.14	258.93	49.11	-42.8	-47.4	10.9	2.20e-03	0	61	0	778043392	56	6397
2026-01-30 00:22:03.15	258.43	48.91	-43.0	-47.8	10.5	2.81e-03	0	61	0	780140544	56	6706
2026-01-30 00:22:04.16	257.93	48.71	-43.0	-47.9	10.5	3.50e-03	0	61	0	782237696	56	6742
2026-01-30 00:22:05.17	257.44	48.51	-43.0	-48.0	10.3	4.18e-03	0	61	0	784334848	56	6816
2026-01-30 00:22:06.18	256.96	48.31	-43.2	-48.4	9.9	5.48e-03	0	61	0	786432000	56	7182
2026-01-30 00:22:07.19	256.48	48.10	-43.4	-49.0	9.2	1.53e-02	0	61	0	787480576	57	7269
2026-01-30 00:22:08.20	256.01	47.90	-43.6	-49.6	8.7	2.58e-02	0	61	0	789577728	57	7745
2026-01-30 00:22:09.21	255.54	47.69	-43.7	-50.0	8.2	5.46e-02	0	61	0	791674880	58	7705
2026-01-30 00:22:10.22	255.08	47.49	-43.9	-50.6	7.8	6.99e-02	0	61	0	793772032	58	8227
2026-01-30 00:22:11.23	254.63	47.28	-43.9	-50.8	7.5	1.02e-01	0	61	0	795869184	58	8368
2026-01-30 00:22:12.24	254.18	47.07	-44.0	-51.1	7.2	1.21e-01	0	61	0	796917760	58	8714
2026-01-30 00:22:13.26	253.74	46.86	-43.9	-50.9	7.3	1.24e-01	0	60	0	799014912	58	8515
2026-01-30 00:22:14.27	253.30	46.65	-43.9	-50.5	7.7	9.65e-02	0	61	0	801112064	58	8168
2026-01-30 00:22:15.28	252.87	46.44	-43.7	-50.0	8.2	7.11e-02	0	61	0	803209216	58	7696
2026-01-30 00:22:16.28	252.46	46.23	-43.7	-50.0	8.2	4.87e-02	0	61	0	805306368	58	7687
2026-01-30 00:22:17.29	252.04	46.01	-43.8	-50.4	7.8	6.40e-02	0	61	0	806354944	58	8039
2026-01-30 00:22:18.30	251.63	45.80	-43.9	-50.9	7.4	9.20e-02	0	61	0	808452096	58	8464
2026-01-30 00:22:19.31	251.22	45.59	-43.8	-50.4	7.9	9.92e-02	0	61	0	810549248	58	8011
2026-01-30 00:22:20.33	250.81	45.37	-43.8	-50.2	8.0	6.64e-02	0	61	0	812646400	58	7874
2026-01-30 00:22:21.34	250.42	45.16	-43.7	-49.9	8.3	5.91e-02	0	61	0	814743552	58	7568
2026-01-30 00:22:22.35	250.03	44.94	-43.6	-49.5	8.7	4.08e-02	0	61	0	816840704	58	7278
2026-01-30 00:22:23.36	249.64	44.73	-43.6	-49.5	8.8	3.15e-02	0	61	0	817889280	58	7208
2026-01-30 00:22:24.37	249.26	44.51	-43.6	-49.5	8.8	3.10e-02	0	61	0	819986432	58	7242
2026-01-30 00:22:25.38	248.89	44.30	-43.6	-49.5	8.7	3.41e-02	0	61	0	822083584	58	7242
2026-01-30 00:22:26.39	248.52	44.08	-43.5	-49.3	8.9	3.07e-02	0	61	0	824180736	58	7048
2026-01-30 00:22:27.40	248.16	43.87	-43.4	-48.8	9.5	2.28e-02	0	61	0	826277888	58	6673
2026-01-30 00:22:28.40	247.80	43.65	-43.1	-48.2	10.1	7.55e-03	0	61	0	827326464	58	6215
2026-01-30 00:22:29.41	247.44	43.44	-43.1	-48.1	10.2	6.53e-03	0	61	0	829423616	58	6181
2026-01-30 00:22:30.42	247.09	43.22	-43.1	-48.1	10.1	6.93e-03	0	61	0	831520768	58	6185
2026-01-30 00:22:31.43	246.75	43.00	-43.2	-48.3	9.9	8.34e-03	0	61	0	833617920	58	6324
2026-01-30 00:22:32.44	246.41	42.79	-43.3	-48.6	9.7	1.07e-02	0	61	0	835715072	58	6525
2026-01-30 00:22:33.45	246.07	42.57	-43.4	-48.9	9.4	1.54e-02	0	61	0	836763648	58	6764
2026-01-30 00:22:34.46	245.74	42.36	-43.3	-48.8	9.4	1.77e-02	0	61	0	838860800	58	6709
2026-01-30 00:22:35.47	245.41	42.14	-43.4	-49.0	9.3	2.13e-02	0	61	0	840957952	58	6805
2026-01-30 00:22:36.48	245.09	41.93	-43.4	-49.0	9.2	1.84e-02	0	61	0	843055104	58	6863
2026-01-30 00:22:37.49	244.77	41.71	-43.5	-49.2	9.0	2.25e-02	0	61	0	845152256	58	7005
2026-01-30 00:22:38.50	244.46	41.50	-43.4	-49.1	9.1	2.39e-02	0	61	0	846200832	58	6957
2026-01-30 00:22:39.51	244.15	41.28	-43.5	-49.4	8.9	2.81e-02	0	61	0	848297984	58	7137
2026-01-30 00:22:40.53	243.84	41.07	-43.6	-49.6	8.7	3.12e-02	0	61	0	850395136	58	7321
2026-01-30 00:22:41.54	243.54	40.85	-43.6	-49.8	8.4	4.49e-02	0	61	0	852492288	58	7515
2026-01-30 00:22:42.55	243.24	40.64	-43.6	-49.8	8.4	4.77e-02	0	61	0	854589440	58	7513
2026-01-30 00:22:43.56	242.94	40.43	-43.6	-49.7	8.4	4.73e-02	0	61	0	855638016	58	7448
2026-01-30 00:22:44.57	242.65	40.21	-43.7	-49.9	8.2	5.00e-02	0	61	0	857735168	58	7596
2026-01-30 00:22:45.58	242.37	40.00	-43.8	-50.5	7.7	7.92e-02	0	61	0	859832320	58	8167
2026-01-30 00:22:46.59	242.09	39.79	-43.9	-50.7	7.5	1.06e-01	0	61	0	861929472	58	8329
2026-01-30 00:22:47.60	241.81	39.58	-43.9	-50.6	7.6	1.06e-01	0	61	0	864026624	58	8253
2026-01-30 00:22:48.61	241.53	39.37	-43.8	-50.3	7.8	8.33e-02	0	61	0	865075200	58	7977
2026-01-30 00:22:49.62	241.26	39.16	-43.7	-50.0	8.2	6.46e-02	0	61	0	867172352	58	7644
2026-01-30 00:22:50.63	240.99	38.95	-43.6	-49.8	8.4	5.21e-02	0	61	0	869269504	58	7471
2026-01-30 00:22:51.64	240.73	38.74	-43.6	-49.6	8.6	3.91e-02	0	61	0	871366656	58	7327
2026-01-30 00:22:52.65	240.46	38.53	-43.5	-49.3	8.9	2.84e-02	0	61	0	873463808	58	7075
2026-01-30 00:22:53.66	240.21	38.32	-43.6	-49.6	8.6	3.05e-02	0	61	0	874512384	58	7318
2026-01-30 00:22:54.67	239.95	38.11	-43.6	-49.7	8.5	4.32e-02	0	61	0	876609536	58	7436
2026-01-30 00:22:55.68	239.70	37.91	-43.7	-50.0	8.2	5.52e-02	0	61	0	878706688	58	7700
2026-01-30 00:22:56.69	239.45	37.70	-43.6	-49.7	8.5	4.91e-02	0	61	0	880803840	58	7402
2026-01-30 00:22:57.70	239.21	37.50	-43.5	-49.4	8.8	3.26e-02	0	61	0	882900992	58	7203
2026-01-30 00:22:58.71	238.96	37.29	-43.4	-49.1	9.0	2.70e-02	0	61	0	884998144	58	6945
2026-01-30 00:22:59.72	238.73	37.09	-43.4	-49.3	8.9	2.58e-02	0	61	0	886046720	58	7046
2026-01-30 00:23:00.73	238.49	36.88	-43.3	-48.9	9.3	2.01e-02	0	61	0	888143872	58	6750
2026-01-30 00:23:01.74	238.26	36.68	-43.3	-48.8	9.4	1.76e-02	0	61	0	890241024	58	6664
2026-01-30 00:23:02.75	238.03	36.48	-43.2	-48.5	9.7	1.41e-02	0	61	0	892338176	58	6429
2026-01-30 00:23:03.76	237.80	36.28	-43.1	-48.3	9.9	9.04e-03	0	61	0	894435328	58	6295
2026-01-30 00:23:04.77	237.57	36.08	-43.1	-48.4	9.8	9.27e-03	0	61	0	895483904	58	6360
2026-01-30 00:23:05.78	237.35	35.88	-43.3	-48.8	9.5	1.21e-02	0	61	0	897581056	58	6657
2026-01-30 00:23:06.79	237.13	35.68	-43.3	-48.9	9.2	1.77e-02	0	61	0	899678208	58	6760
2026-01-30 00:23:07.80	236.92	35.48	-43.4	-49.0	9.1	2.14e-02	0	61	0	901775360	58	6875
2026-01-30 00:23:08.81	236.70	35.28	-43.3	-48.9	9.3	1.92e-02	0	61	0	903872512	58	6784
2026-01-30 00:23:09.82	236.49	35.09	-43.4	-49.0	9.2	1.78e-02	0	61	0	904921088	58	6816
2026-01-30 00:23:10.83	236.28	34.89	-43.3	-48.9	9.2	2.09e-02	0	61	0	907018240	58	6792
2026-01-30 00:23:11.84	236.08	34.70	-43.3	-48.9	9.2	1.90e-02	0	61	0	909115392	58	6766
2026-01-30 00:23:12.85	235.87	34.50	-43.2	-48.8	9.4	1.78e-02	0	61	0	911212544	58	6686
2026-01-30 00:23:13.86	235.67	34.31	-43.3	-48.8	9.3	1.70e-02	0	61	0	913309696	58	6723
2026-01-30 00:23:14.87	235.47	34.12	-43.4	-49.0	9.1	1.96e-02	0	61	0	914358272	58	6805
2026-01-30 00:23:15.88	235.28	33.92	-43.5	-49.4	8.8	2.14e-02	0	61	0	916455424	58	7166
2026-01-30 00:23:16.89	235.08	33.73	-43.6	-49.6	8.5	4.10e-02	0	61	0	918552576	58	7371
2026-01-30 00:23:17.90	234.89	33.54	-43.5	-49.6	8.5	4.22e-02	0	61	0	920649728	58	7362
2026-01-30 00:23:18.91	234.70	33.35	-43.5	-49.5	8.7	4.39e-02	0	61	0	922746880	58	7228
2026-01-30 00:23:19.92	234.51	33.16	-43.5	-49.4	8.8	3.21e-02	0	61	0	923795456	58	7125
2026-01-30 00:23:20.93	234.33	32.98	-43.5	-49.5	8.7	3.40e-02	0	61	0	925892608	58	7256
2026-01-30 00:23:21.94	234.15	32.79	-43.5	-49.6	8.6	3.60e-02	0	61	0	927989760	58	7294
2026-01-30 00:23:22.95	233.96	32.60	-43.5	-49.6	8.5	4.00e-02	0	61	0	930086912	58	7358
2026-01-30 00:23:23.96	233.79	32.42	-43.5	-49.4	8.8	3.38e-02	0	61	0	932184064	58	7150
2026-01-30 00:23:24.96	233.61	32.23	-43.4	-49.2	8.9	3.03e-02	0	61	0	933232640	58	7019
2026-01-30 00:23:25.97	233.44	32.05	-43.3	-48.8	9.3	2.18e-02	0	61	0	935329792	58	6690
2026-01-30 00:23:26.98	233.26	31.87	-43.3	-48.8	9.3	1.77e-02	0	61	0	937426944	58	6677
2026-01-30 00:23:28.00	233.09	31.68	-43.3	-48.7	9.5	1.51e-02	0	61	0	939524096	58	6618
2026-01-30 00:23:29.00	232.92	31.50	-43.2	-48.6	9.5	1.47e-02	0	61	0	941621248	58	6567
2026-01-30 00:23:30.02	232.75	31.32	-43.1	-48.3	9.8	1.04e-02	0	61	0	942669824	58	6340
2026-01-30 00:23:31.02	232.59	31.14	-43.1	-48.3	9.8	9.02e-03	0	61	0	944766976	58	6337
2026-01-30 00:23:32.04	232.43	30.96	-43.1	-48.3	9.9	9.65e-03	0	61	0	946864128	58	6315
2026-01-30 00:23:33.04	232.27	30.79	-43.2	-48.5	9.6	1.19e-02	0	61	0	948961280	58	6469
2026-01-30 00:23:34.06	232.10	30.61	-43.2	-48.7	9.5	1.27e-02	0	61	0	951058432	58	6577
2026-01-30 00:23:35.07	231.95	30.43	-43.3	-48.9	9.3	1.51e-02	0	61	0	953155584	58	6747
2026-01-30 00:23:36.08	231.79	30.26	-43.3	-48.9	9.3	1.78e-02	0	61	0	954204160	58	6724
2026-01-30 00:23:37.09	231.64	30.08	-43.2	-48.7	9.5	1.44e-02	0	61	0	956301312	58	6577
2026-01-30 00:23:38.10	231.48	29.91	-43.2	-48.5	9.7	1.33e-02	0	61	0	958398464	58	6448
2026-01-30 00:23:39.11	231.33	29.74	-43.2	-48.5	9.7	1.15e-02	0	61	0	960495616	58	6460
2026-01-30 00:23:40.12	231.18	29.56	-43.1	-48.4	9.8	1.14e-02	0	61	0	962592768	58	6388
2026-01-30 00:23:41.13	231.03	29.39	-43.2	-48.4	9.7	1.10e-02	0	61	0	963641344	58	6414
2026-01-30 00:23:42.14	230.89	29.22	-43.1	-48.3	9.8	1.06e-02	0	61	0	965738496	58	6329
2026-01-30 00:23:43.15	230.74	29.05	-43.0	-48.2	9.9	7.94e-03	0	61	0	967835648	57	6594
2026-01-30 00:23:44.16	230.60	28.88	-43.0	-48.1	10.0	8.06e-03	0	61	0	969932800	57	6535
2026-01-30 00:23:45.17	230.46	28.71	-42.9	-48.0	10.2	7.72e-03	0	61	0	972029952	57	6461
2026-01-30 00:23:46.18	230.32	28.55	-43.0	-48.0	10.1	7.16e-03	0	61	0	973078528	57	6470
2026-01-30 00:23:47.19	230.18	28.38	-42.9	-47.9	10.2	5.98e-03	0	61	0	975175680	57	6401
2026-01-30 00:23:48.20	230.04	28.22	-42.9	-47.8	10.3	5.07e-03	0	61	0	977272832	57	6315
2026-01-30 00:23:49.21	229.91	28.05	-42.9	-47.8	10.3	5.40e-03	0	61	0	979369984	57	6325
2026-01-30 00:23:50.22	229.77	27.89	-42.9	-47.8	10.3	4.76e-03	0	61	0	981467136	57	6332
2026-01-30 00:23:51.23	229.64	27.72	-42.9	-47.8	10.4	5.13e-03	0	61	0	982515712	57	6315
2026-01-30 00:23:52.24	229.51	27.56	-42.8	-47.7	10.4	4.84e-03	0	61	0	984612864	57	6228
2026-01-30 00:23:53.25	229.38	27.40	-42.8	-47.6	10.6	4.01e-03	0	61	0	986710016	57	6135
2026-01-30 00:23:54.26	229.25	27.24	-42.8	-47.6	10.6	3.41e-03	0	61	0	988807168	57	6150
2026-01-30 00:23:55.27	229.12	27.08	-42.8	-47.5	10.6	3.24e-03	0	61	0	990904320	57	6129
2026-01-30 00:23:56.28	228.99	26.92	-42.8	-47.5	10.6	3.20e-03	0	61	0	993001472	57	6131
2026-01-30 00:23:57.29	228.87	26.76	-42.8	-47.6	10.5	3.59e-03	0	61	0	994050048	57	6160
2026-01-30 00:23:58.30	228.74	26.60	-42.8	-47.7	10.4	3.91e-03	0	61	0	996147200	57	6263
2026-01-30 00:23:59.31	228.62	26.44	-42.8	-47.7	10.5	4.30e-03	0	61	0	998244352	57	6210
2026-01-30 00:24:00.32	228.50	26.29	-42.8	-47.7	10.5	4.37e-03	0	61	0	1000341504	57	6219
2026-01-30 00:24:01.33	228.38	26.13	-42.9	-47.7	10.5	4.34e-03	0	61	0	1001390080	57	6252
2026-01-30 00:24:02.34	228.26	25.98	-42.8	-47.6	10.6	4.05e-03	0	61	0	1003487232	57	6141
2026-01-30 00:24:03.35	228.14	25.82	-42.8	-47.5	10.6	3.56e-03	0	61	0	1005584384	57	6126
2026-01-30 00:24:04.36	228.03	25.67	-42.8	-47.5	10.6	3.57e-03	0	61	0	1007681536	57	6109
2026-01-30 00:24:05.37	227.91	25.52	-42.8	-47.6	10.5	3.72e-03	0	61	0	1009778688	57	6136
2026-01-30 00:24:06.38	227.80	25.37	-42.8	-47.7	10.4	3.92e-03	0	61	0	1011875840	57	6254
2026-01-30 00:24:07.39	227.68	25.22	-42.8	-47.6	10.5	4.67e-03	0	61	0	1012924416	57	6188
2026-01-30 00:24:08.40	227.57	25.06	-42.8	-47.7	10.4	4.46e-03	0	61	0	1015021568	57	6256
2026-01-30 00:24:09.41	227.46	24.92	-42.9	-47.8	10.3	4.80e-03	0	61	0	1017118720	57	6284
2026-01-30 00:24:10.42	227.35	24.77	-42.9	-47.9	10.2	5.60e-03	0	61	0	1019215872	57	6359
2026-01-30 00:24:11.43	227.24	24.62	-42.9	-47.9	10.2	5.32e-03	0	61	0	1021313024	57	6382
2026-01-30 00:24:12.45	227.13	24.47	-42.9	-47.9	10.2	5.69e-03	0	61	0	1022361600	57	6355
2026-01-30 00:24:13.46	227.02	24.32	-42.8	-47.8	10.3	5.33e-03	0	61	0	1024458752	57	6285
2026-01-30 00:24:14.47	226.92	24.18	-42.8	-47.7	10.3	4.72e-03	0	61	0	1026555904	57	6261
2026-01-30 00:24:15.48	226.81	24.03	-42.8	-47.6	10.4	4.40e-03	0	61	0	1028653056	57	6197
2026-01-30 00:24:16.48	226.71	23.89	-42.7	-47.4	10.7	3.81e-03	0	61	0	1030750208	57	6055
2026-01-30 00:24:17.49	226.61	23.74	-42.7	-47.3	10.8	3.00e-03	0	61	0	1031798784	57	5991
2026-01-30 00:24:18.51	226.50	23.60	-42.7	-47.3	10.8	2.58e-03	0	61	0	1033895936	57	5976
2026-01-30 00:24:19.51	226.40	23.46	-42.6	-47.3	10.8	2.84e-03	0	61	0	1035993088	57	5969
2026-01-30 00:24:20.52	226.30	23.32	-42.7	-47.3	10.7	2.59e-03	0	61	0	1038090240	57	5968
2026-01-30 00:24:21.53	226.21	23.18	-42.7	-47.5	10.7	2.76e-03	0	61	0	1040187392	57	6063
2026-01-30 00:24:22.54	226.11	23.03	-42.6	-47.2	10.9	2.46e-03	0	61	0	1041235968	57	5884
2026-01-30 00:24:23.55	226.01	22.89	-42.6	-47.2	10.9	2.11e-03	0	61	0	1043333120	57	5876
2026-01-30 00:24:24.56	225.91	22.76	-42.6	-47.4	10.7	2.44e-03	0	61	0	1045430272	57	5998
2026-01-30 00:24:25.57	225.82	22.62	-42.7	-47.4	10.7	2.90e-03	0	61	0	1047527424	57	6000
2026-01-30 00:24:26.58	225.72	22.48	-42.7	-47.5	10.6	3.35e-03	0	61	0	1049624576	57	6087
2026-01-30 00:24:27.59	225.63	22.34	-42.7	-47.5	10.5	3.61e-03	0	61	0	1050673152	57	6112
2026-01-30 00:24:28.60	225.54	22.21	-42.7	-47.5	10.5	3.70e-03	0	61	0	1052770304	57	6109
2026-01-30 00:24:29.61	225.44	22.07	-42.7	-47.4	10.7	3.31e-03	0	61	0	1054867456	57	5998
2026-01-30 00:24:30.62	225.35	21.93	-42.7	-47.4	10.6	3.11e-03	0	61	0	1056964608	57	6034
2026-01-30 00:24:31.63	225.26	21.80	-42.7	-47.4	10.6	3.22e-03	0	61	0	1059061760	57	6061
2026-01-30 00:24:32.64	225.17	21.67	-42.7	-47.4	10.6	3.48e-03	0	61	0	1061158912	57	6012
2026-01-30 00:24:33.65	225.08	21.53	-42.6	-47.2	10.8	2.99e-03	0	61	0	1062207488	57	5911
2026-01-30 00:24:34.66	224.99	21.40	-42.6	-47.3	10.8	2.66e-03	0	61	0	1064304640	57	5931
2026-01-30 00:24:35.67	224.91	21.27	-42.6	-47.3	10.7	2.98e-03	0	61	0	1066401792	57	5968
2026-01-30 00:24:36.68	224.82	21.14	-42.5	-47.0	11.0	1.99e-03	0	61	0	1068498944	57	5781
2026-01-30 00:24:37.69	224.73	21.01	-42.5	-47.1	11.0	1.88e-03	0	61	0	1070596096	57	5817
2026-01-30 00:24:38.70	224.65	20.87	-42.5	-47.0	11.1	1.81e-03	0	61	0	1071644672	57	5760
2026-01-30 00:24:39.71	224.56	20.75	-42.5	-47.0	11.0	1.72e-03	0	61	0	1073741824	57	5786
2026-01-30 00:24:40.72	224.48	20.62	-42.6	-47.2	10.9	1.87e-03	0	61	0	1075838976	57	5880
2026-01-30 00:24:41.73	224.40	20.49	-42.6	-47.2	10.8	2.29e-03	0	61	0	1077936128	57	5889
2026-01-30 00:24:42.74	224.32	20.36	-42.6	-47.4	10.7	2.60e-03	0	61	0	1080033280	57	5993
2026-01-30 00:24:43.75	224.23	20.23	-42.7	-47.4	10.6	3.61e-03	0	61	0	1081081856	57	6056
2026-01-30 00:24:44.76	224.15	20.11	-42.7	-47.6	10.4	4.14e-03	0	61	0	1083179008	57	6171
2026-01-30 00:24:45.77	224.07	19.98	-42.7	-47.6	10.4	4.66e-03	0	61	0	1085276160	57	6182
2026-01-30 00:24:46.78	223.99	19.85	-42.8	-47.8	10.2	4.87e-03	0	61	0	1087373312	57	6282
2026-01-30 00:24:47.79	223.91	19.73	-42.8	-47.9	10.1	6.24e-03	0	61	0	1089470464	57	6358
2026-01-30 00:24:48.80	223.84	19.60	-42.8	-47.8	10.2	5.63e-03	0	61	0	1090519040	57	6312
2026-01-30 00:24:49.81	223.76	19.48	-42.8	-47.8	10.2	6.08e-03	0	61	0	1092616192	57	6317
2026-01-30 00:24:50.82	223.68	19.36	-42.8	-47.8	10.1	6.24e-03	0	61	0	1094713344	57	6316
2026-01-30 00:24:51.83	223.61	19.23	-42.7	-47.6	10.4	5.43e-03	0	61	0	1096810496	57	6163
2026-01-30 00:24:52.84	223.53	19.11	-42.6	-47.4	10.6	4.13e-03	0	61	0	1098907648	57	6023
2026-01-30 00:24:53.85	223.45	18.99	-42.5	-47.2	10.8	3.19e-03	0	61	0	1099956224	57	5862
2026-01-30 00:24:54.87	223.38	18.87	-42.5	-47.1	10.9	2.58e-03	0	61	0	1102053376	57	5829
2026-01-30 00:24:55.87	223.31	18.75	-42.5	-47.1	10.9	2.26e-03	0	61	0	1104150528	57	5826
2026-01-30 00:24:56.89	223.23	18.63	-42.5	-47.0	10.9	2.35e-03	0	61	0	1106247680	57	5787
2026-01-30 00:24:57.90	223.16	18.51	-42.4	-46.8	11.2	1.60e-03	0	61	0	1108344832	56	5984
2026-01-30 00:24:58.91	223.09	18.39	-42.4	-46.8	11.2	1.11e-03	0	61	0	1109393408	56	5977
2026-01-30 00:24:59.92	223.02	18.27	-42.3	-46.7	11.3	1.28e-03	0	61	0	1111490560	56	5883
2026-01-30 00:25:00.93	222.95	18.15	-42.4	-46.8	11.2	1.21e-03	0	61	0	1113587712	56	5945
2026-01-30 00:25:01.94	222.88	18.04	-42.4	-46.8	11.2	1.43e-03	0	61	0	1115684864	56	5969
2026-01-30 00:25:02.95	222.81	17.92	-42.4	-46.9	11.1	1.52e-03	0	61	0	1117782016	56	6029
2026-01-30 00:25:03.96	222.74	17.80	-42.4	-47.0	11.0	1.95e-03	0	61	0	1118830592	56	6085
2026-01-30 00:25:04.97	222.67	17.69	-42.5	-47.1	10.9	2.17e-03	0	61	0	1120927744	56	6138
2026-01-30 00:25:05.98	222.60	17.57	-42.5	-47.2	10.7	2.56e-03	0	61	0	1123024896	56	6257
2026-01-30 00:25:06.99	222.53	17.46	-42.6	-47.4	10.6	3.55e-03	0	61	0	1125122048	56	6367
2026-01-30 00:25:08.00	222.46	17.34	-42.6	-47.4	10.5	3.61e-03	0	61	0	1127219200	56	6373
2026-01-30 00:25:09.01	222.40	17.23	-42.7	-47.6	10.3	4.36e-03	0	61	0	1129316352	56	6509
2026-01-30 00:25:10.01	222.33	17.11	-42.7	-47.5	10.4	4.76e-03	0	61	0	1130364928	56	6480
2026-01-30 00:25:11.02	222.27	17.00	-42.7	-47.7	10.2	5.78e-03	0	61	0	1132462080	56	6614
2026-01-30 00:25:12.03	222.20	16.89	-42.7	-47.7	10.2	6.29e-03	0	61	0	1134559232	56	6631
2026-01-30 00:25:13.04	222.14	16.78	-42.7	-47.6	10.3	5.61e-03	0	61	0	1136656384	56	6546
2026-01-30 00:25:14.05	222.07	16.67	-42.7	-47.7	10.2	5.68e-03	0	61	0	1138753536	56	6593
2026-01-30 00:25:15.06	222.01	16.55	-42.7	-47.8	10.1	6.72e-03	0	61	0	1139802112	56	6664
2026-01-30 00:25:16.07	221.95	16.44	-42.7	-47.6	10.2	6.11e-03	0	61	0	1141899264	56	6556
2026-01-30 00:25:17.08	221.88	16.33	-42.7	-47.6	10.3	5.33e-03	0	61	0	1143996416	56	6544
2026-01-30 00:25:18.09	221.82	16.22	-42.7	-47.7	10.2	5.67e-03	0	61	0	1146093568	56	6599
2026-01-30 00:25:19.10	221.76	16.12	-42.7	-47.7	10.2	6.47e-03	0	61	0	1148190720	56	6588
2026-01-30 00:25:20.11	221.70	16.01	-42.7	-47.7	10.1	6.74e-03	0	61	0	1149239296	56	6634
2026-01-30 00:25:21.12	221.64	15.90	-42.7	-47.7	10.1	6.65e-03	0	61	0	1151336448	56	6637
2026-01-30 00:25:22.13	221.58	15.79	-42.7	-47.7	10.1	6.08e-03	0	61	0	1153433600	56	6616
2026-01-30 00:25:23.14	221.52	15.68	-42.8	-47.9	9.9	8.40e-03	0	61	0	1155530752	56	6767
2026-01-30 00:25:24.15	221.46	15.58	-42.7	-47.8	10.0	7.77e-03	0	61	0	1157627904	56	6686
2026-01-30 00:25:25.16	221.40	15.47	-42.7	-47.7	10.1	7.33e-03	0	61	0	1158676480	56	6637
2026-01-30 00:25:26.17	221.34	15.36	-42.7	-47.8	10.0	7.71e-03	0	61	0	1160773632	56	6714
2026-01-30 00:25:27.18	221.28	15.26	-42.7	-47.8	10.0	8.11e-03	0	61	0	1162870784	56	6708
2026-01-30 00:25:28.19	221.23	15.15	-42.7	-47.9	9.9	7.75e-03	0	61	0	1164967936	56	6762
2026-01-30 00:25:29.20	221.17	15.05	-42.7	-47.9	9.9	8.66e-03	0	61	0	1167065088	56	6755
2026-01-30 00:25:30.21	221.11	14.94	-42.8	-48.0	9.8	9.24e-03	0	61	0	1168113664	56	6816
2026-01-30 00:25:31.22	221.06	14.84	-42.8	-48.0	9.8	9.87e-03	0	61	0	1170210816	56	6844
2026-01-30 00:25:32.23	221.00	14.74	-42.8	-48.1	9.7	1.03e-02	0	61	0	1172307968	56	6912
2026-01-30 00:25:33.24	220.94	14.63	-42.8	-48.1	9.7	1.05e-02	0	61	0	1174405120	56	6880
2026-01-30 00:25:34.25	220.89	14.53	-42.8	-48.0	9.8	1.07e-02	0	61	0	1176502272	56	6858
2026-01-30 00:25:35.26	220.84	14.43	-42.8	-48.1	9.7	1.20e-02	0	61	0	1177550848	56	6901
2026-01-30 00:25:36.27	220.78	14.33	-42.8	-48.0	9.8	1.18e-02	0	61	0	1179648000	56	6856
2026-01-30 00:25:37.28	220.73	14.22	-42.8	-48.1	9.7	1.08e-02	0	61	0	1181745152	56	6905
2026-01-30 00:25:38.29	220.67	14.12	-42.8	-48.1	9.7	1.17e-02	0	61	0	1183842304	56	6896
2026-01-30 00:25:39.29	220.62	14.02	-42.7	-48.0	9.8	1.11e-02	0	61	0	1185939456	56	6815
2026-01-30 00:25:40.30	220.57	13.92	-42.8	-48.1	9.6	1.15e-02	0	61	0	1186988032	56	6957
2026-01-30 00:25:41.31	220.52	13.82	-42.8	-48.1	9.7	1.22e-02	0	61	0	1189085184	56	6913
2026-01-30 00:25:42.32	220.46	13.72	-42.7	-47.9	9.8	1.03e-02	0	61	0	1191182336	56	6780
2026-01-30 00:25:43.33	220.41	13.62	-42.7	-48.0	9.7	1.10e-02	0	61	0	1193279488	56	6836
