passes_logs/2026/01/22/R4.6S_Anadyr/R4.6S_Anadyr__20260122_150349_AQUA_rec.log

#Pass ID: 20260122_150349_AQUA
#Satellite: AQUA
#Configuration: AQUA
#almurnet v.1.7.20251203
#Start time: 2026-01-22 15:03:52

#Version: 2.2.20231116
#Station: R4.6S_Anadyr
#Location: 177.4865 lon 64.73178 lat
#TLE: 1 27424U 02022A   26021.53721517  .00002456  00000+0  50140-3 0  9996
#TLE: 2 27424  98.4098 348.0744 0002012  70.1009  46.1672 14.61843091261845

#Time	Az	El	Level	Level2	SNR	BER	BlckErr	Temp	State	Recorded	gain1	gain2
2026-01-22 15:03:52.72	20.00	0.17	-51.7	-68.1	3.2	3.02e+01	0	40	0	0	60	97312
2026-01-22 15:03:53.72	20.05	0.23	-51.6	-69.5	3.5	3.02e+01	0	40	104	0	60	114673
2026-01-22 15:03:54.73	20.10	0.29	-51.7	-69.5	3.5	3.02e+01	0	40	104	0	60	115133
2026-01-22 15:03:55.74	20.16	0.35	-51.7	-69.5	3.5	3.02e+01	0	40	104	0	60	115522
2026-01-22 15:03:56.75	20.21	0.40	-51.6	-69.5	3.5	3.02e+01	0	40	104	0	60	114358
2026-01-22 15:03:57.76	20.26	0.46	-51.6	-69.5	3.5	3.02e+01	0	40	104	0	60	114709
2026-01-22 15:03:58.77	20.32	0.52	-51.6	-69.4	3.5	3.02e+01	0	40	104	0	60	113548
2026-01-22 15:03:59.78	20.37	0.58	-51.5	-69.4	3.5	3.02e+01	0	40	104	0	60	113749
2026-01-22 15:04:00.79	20.43	0.64	-51.5	-69.4	3.5	3.02e+01	0	40	104	0	60	113257
2026-01-22 15:04:01.80	20.48	0.70	-51.5	-69.3	3.5	3.02e+01	0	40	104	0	60	111735
2026-01-22 15:04:02.81	20.54	0.76	-51.4	-69.2	3.5	3.02e+01	0	40	104	0	60	111598
2026-01-22 15:04:03.82	20.59	0.82	-51.5	-69.3	3.5	3.02e+01	0	40	104	0	60	112013
2026-01-22 15:04:04.83	20.65	0.87	-51.3	-69.2	3.5	3.02e+01	0	40	104	0	60	110527
2026-01-22 15:04:05.84	20.70	0.93	-51.3	-69.2	3.5	3.02e+01	0	40	104	0	60	110756
2026-01-22 15:04:06.85	20.76	0.99	-51.1	-68.1	3.5	3.02e+01	0	40	104	0	60	98261
2026-01-22 15:04:07.86	20.81	1.05	-51.0	-68.8	3.5	3.02e+01	0	40	104	0	60	106505
2026-01-22 15:04:08.87	20.87	1.11	-50.9	-68.5	3.5	3.02e+01	0	40	104	0	60	102697
2026-01-22 15:04:09.88	20.93	1.17	-50.9	-68.7	3.5	3.02e+01	0	40	104	0	60	104356
2026-01-22 15:04:10.90	20.98	1.23	-50.8	-68.5	3.5	3.02e+01	0	41	104	0	60	102788
2026-01-22 15:04:11.91	21.04	1.29	-50.6	-68.5	3.5	3.02e+01	0	41	104	0	60	102402
2026-01-22 15:04:12.92	21.10	1.35	-50.5	-68.3	3.5	3.02e+01	0	41	104	0	60	100494
2026-01-22 15:04:13.93	21.16	1.41	-50.2	-67.8	3.5	3.02e+01	0	41	104	0	60	94591
2026-01-22 15:04:14.94	21.21	1.47	-50.1	-67.8	3.5	3.02e+01	0	41	104	0	60	94583
2026-01-22 15:04:15.95	21.27	1.53	-50.1	-67.8	3.5	3.02e+01	0	41	104	0	60	94550
2026-01-22 15:04:16.96	21.33	1.59	-50.1	-67.7	3.5	3.02e+01	0	41	104	0	60	93137
2026-01-22 15:04:17.97	21.39	1.66	-50.1	-67.7	3.5	3.02e+01	0	41	104	0	60	93218
2026-01-22 15:04:18.98	21.45	1.72	-50.1	-67.6	3.5	3.02e+01	0	40	104	0	60	91950
2026-01-22 15:04:19.99	21.51	1.78	-50.0	-67.3	3.5	3.02e+01	0	41	104	0	60	89302
2026-01-22 15:04:21.00	21.57	1.84	-50.1	-67.4	3.5	3.02e+01	0	41	104	0	60	90165
2026-01-22 15:04:22.01	21.62	1.90	-50.0	-67.5	3.5	3.02e+01	0	41	104	0	60	91468
2026-01-22 15:04:23.02	21.68	1.96	-50.1	-67.7	3.5	3.02e+01	0	41	104	0	60	92944
2026-01-22 15:04:24.03	21.74	2.02	-50.1	-67.7	3.5	3.02e+01	0	41	104	0	60	92958
2026-01-22 15:04:25.04	21.80	2.08	-50.1	-67.7	3.5	3.02e+01	0	41	104	0	60	93474
2026-01-22 15:04:26.05	21.86	2.15	-50.1	-67.9	3.5	3.02e+01	0	41	104	0	60	95511
2026-01-22 15:04:27.06	21.93	2.21	-50.1	-67.8	3.5	3.02e+01	0	41	104	0	60	93949
2026-01-22 15:04:28.07	21.99	2.27	-50.0	-67.1	3.5	3.02e+01	0	41	104	0	60	87600
2026-01-22 15:04:29.08	22.05	2.33	-50.0	-66.0	3.5	3.02e+01	0	41	104	0	60	76668
2026-01-22 15:04:30.09	22.11	2.39	-49.9	-64.4	4.1	3.02e+01	0	41	104	0	60	63722
2026-01-22 15:04:31.10	22.17	2.46	-49.9	-63.8	4.3	3.02e+01	0	41	104	0	60	59541
2026-01-22 15:04:32.11	22.23	2.52	-50.0	-65.2	3.8	3.02e+01	0	41	104	0	60	70252
2026-01-22 15:04:33.12	22.29	2.58	-50.0	-67.3	3.5	3.02e+01	0	41	104	0	60	89258
2026-01-22 15:04:34.13	22.36	2.64	-49.8	-62.4	5.4	3.02e+01	0	41	104	0	60	50928
2026-01-22 15:04:35.14	22.42	2.71	-48.6	-54.6	12.5	3.02e+01	58	41	0	524288	60	20731
2026-01-22 15:04:36.16	22.48	2.77	-47.2	-51.2	16.2	3.02e+01	47	41	0	2621440	60	14050
2026-01-22 15:04:37.17	22.55	2.83	-45.3	-48.0	19.4	3.02e+01	62	41	0	4194304	60	9638
2026-01-22 15:04:38.18	22.61	2.90	-43.9	-46.1	21.3	3.02e+01	52	41	0	6291456	60	7757
2026-01-22 15:04:39.19	22.67	2.96	-42.4	-44.2	23.1	3.02e+01	59	41	0	8388608	60	6277
2026-01-22 15:04:40.20	22.74	3.02	-42.4	-44.2	23.2	3.02e+01	58	41	0	9961472	60	6273
2026-01-22 15:04:41.21	22.80	3.09	-41.9	-43.6	23.8	3.02e+01	59	41	0	12058624	58	6522
2026-01-22 15:04:42.22	22.87	3.15	-42.4	-44.2	23.0	3.02e+01	58	41	0	13631488	58	6978
2026-01-22 15:04:43.23	22.93	3.21	-43.3	-54.1	3.6	3.02e+01	0	41	104	14155776	60	19483
2026-01-22 15:04:44.24	23.00	3.28	-44.3	-55.3	3.6	3.02e+01	0	41	104	14155776	60	22276
2026-01-22 15:04:45.25	23.06	3.34	-46.2	-57.9	3.4	3.02e+01	0	41	104	14155776	60	30388
2026-01-22 15:04:46.26	23.13	3.41	-48.2	-61.5	3.6	3.02e+01	0	41	104	14155776	60	45733
2026-01-22 15:04:47.27	23.20	3.47	-49.4	-65.0	3.5	3.02e+01	0	41	104	14155776	60	68663
2026-01-22 15:04:48.28	23.26	3.54	-41.1	-51.5	3.6	3.02e+01	0	41	104	14155776	58	16169
2026-01-22 15:04:49.28	23.33	3.60	-42.7	-53.3	3.6	3.02e+01	0	41	104	14155776	58	19883
2026-01-22 15:04:50.30	23.40	3.67	-49.9	-67.5	3.5	3.02e+01	0	41	104	14155776	60	90814
2026-01-22 15:04:51.30	23.46	3.73	-46.7	-58.8	3.6	3.02e+01	0	41	104	14155776	60	33585
2026-01-22 15:04:52.31	23.53	3.80	-50.1	-67.2	3.5	3.02e+01	0	41	104	14155776	60	88556
2026-01-22 15:04:53.32	23.60	3.86	-44.3	-55.3	3.5	3.02e+01	0	41	104	14155776	60	22335
2026-01-22 15:04:54.34	23.67	3.93	-44.2	-55.1	3.4	3.02e+01	0	41	104	14155776	60	21977
2026-01-22 15:04:55.34	23.74	3.99	-43.9	-54.8	3.4	3.02e+01	0	41	104	14155776	60	21071
2026-01-22 15:04:56.35	23.80	4.06	-43.7	-54.6	4.0	3.02e+01	0	41	104	14155776	60	20621
2026-01-22 15:04:57.36	23.87	4.12	-41.3	-51.7	4.0	3.02e+01	0	41	104	14155776	58	16524
2026-01-22 15:04:58.37	23.94	4.19	-42.1	-52.6	4.0	3.02e+01	0	41	104	14155776	58	18437
2026-01-22 15:04:59.38	24.01	4.26	-50.0	-67.4	3.5	3.02e+01	0	41	104	14155776	60	89924
2026-01-22 15:05:00.39	24.08	4.32	-45.0	-56.2	3.5	3.02e+01	0	41	104	14155776	60	24964
2026-01-22 15:05:01.40	24.15	4.39	-50.1	-67.0	3.5	3.02e+01	0	41	104	14155776	60	86460
2026-01-22 15:05:02.41	24.22	4.46	-44.5	-55.5	3.5	3.02e+01	0	41	104	14155776	60	22987
2026-01-22 15:05:03.42	24.30	4.52	-44.5	-55.6	3.5	3.02e+01	0	41	104	14155776	60	23094
2026-01-22 15:05:04.43	24.37	4.59	-44.1	-55.1	3.5	3.02e+01	0	41	104	14155776	60	21840
2026-01-22 15:05:05.44	24.44	4.66	-43.2	-53.9	3.5	3.02e+01	0	41	104	14155776	60	19006
2026-01-22 15:05:06.45	24.51	4.72	-41.5	-52.0	3.5	3.02e+01	0	41	104	14155776	58	17116
2026-01-22 15:05:07.46	24.58	4.79	-42.6	-53.2	3.5	3.02e+01	0	41	104	14155776	58	19824
2026-01-22 15:05:08.47	24.66	4.86	-50.0	-67.2	3.5	3.02e+01	0	41	104	14155776	60	88648
2026-01-22 15:05:09.48	24.73	4.93	-45.2	-56.5	3.6	3.02e+01	0	41	104	14155776	60	25852
2026-01-22 15:05:10.49	24.80	4.99	-50.1	-66.9	3.5	3.02e+01	0	41	104	14155776	60	85420
2026-01-22 15:05:11.49	24.88	5.06	-42.3	-52.8	3.5	3.02e+01	0	41	104	14155776	60	16809
2026-01-22 15:05:12.51	24.95	5.13	-41.7	-52.1	3.5	3.02e+01	0	41	104	14155776	58	17482
2026-01-22 15:05:13.52	25.03	5.20	-41.5	-51.9	3.5	3.02e+01	0	41	104	14155776	58	17082
2026-01-22 15:05:14.52	25.10	5.27	-41.6	-52.1	3.5	3.02e+01	0	41	104	14155776	58	17376
2026-01-22 15:05:15.53	25.18	5.34	-45.9	-57.4	3.5	3.02e+01	0	41	104	14155776	60	28507
2026-01-22 15:05:16.54	25.25	5.41	-43.0	-53.7	3.5	3.02e+01	0	41	104	14155776	60	18719
2026-01-22 15:05:17.55	25.33	5.47	-50.2	-67.1	3.5	3.02e+01	0	41	104	14155776	60	87498
2026-01-22 15:05:18.56	25.40	5.54	-44.4	-55.4	3.5	3.02e+01	0	41	104	14155776	60	22626
2026-01-22 15:05:19.57	25.48	5.61	-50.3	-67.2	3.5	3.02e+01	0	41	104	14155776	60	88049
2026-01-22 15:05:20.58	25.56	5.68	-44.2	-55.2	3.5	3.02e+01	0	41	104	14155776	60	22021
2026-01-22 15:05:21.59	25.63	5.75	-44.3	-55.3	3.5	3.02e+01	0	41	104	14155776	60	22362
2026-01-22 15:05:22.60	25.71	5.82	-44.0	-54.8	3.5	3.02e+01	0	41	104	14155776	60	21160
2026-01-22 15:05:23.61	25.79	5.89	-45.3	-56.6	3.5	3.02e+01	0	41	104	14155776	60	26000
2026-01-22 15:05:24.62	25.87	5.96	-47.2	-59.5	3.6	3.02e+01	0	41	104	14155776	60	36204
2026-01-22 15:05:25.63	25.95	6.03	-45.1	-56.2	3.5	3.02e+01	0	41	104	14155776	60	24925
2026-01-22 15:05:26.64	26.03	6.10	-50.3	-67.6	3.5	3.02e+01	0	41	104	14155776	60	92629
2026-01-22 15:05:27.65	26.11	6.17	-41.8	-52.3	3.5	3.02e+01	0	41	104	14155776	60	15830
2026-01-22 15:05:28.66	26.19	6.25	-49.9	-65.4	3.5	3.02e+01	0	41	104	14155776	60	71949
2026-01-22 15:05:29.67	26.27	6.32	-44.1	-55.0	3.5	3.02e+01	0	41	104	14155776	60	21681
2026-01-22 15:05:30.68	26.35	6.39	-44.4	-55.5	3.5	3.02e+01	0	41	104	14155776	60	22838
2026-01-22 15:05:31.69	26.43	6.46	-43.4	-54.2	3.5	3.02e+01	0	41	104	14155776	60	19638
2026-01-22 15:05:32.70	26.51	6.53	-42.2	-52.7	3.5	3.02e+01	0	41	104	14155776	60	16609
2026-01-22 15:05:33.71	26.60	6.60	-40.8	-51.2	3.5	3.02e+01	0	41	104	14155776	56	17616
2026-01-22 15:05:34.71	26.68	6.67	-45.7	-57.0	3.5	3.02e+01	0	41	104	14155776	60	27121
2026-01-22 15:05:35.72	26.76	6.75	-50.5	-68.0	3.5	3.02e+01	0	41	104	14155776	60	96673
2026-01-22 15:05:36.73	26.84	6.82	-41.7	-52.2	3.5	3.02e+01	0	41	104	14155776	56	19639
2026-01-22 15:05:37.74	26.93	6.89	-46.6	-58.5	3.6	3.02e+01	0	41	104	14155776	60	32427
2026-01-22 15:05:38.75	27.01	6.96	-41.0	-51.4	3.5	3.02e+01	0	41	104	14155776	58	16051
2026-01-22 15:05:39.76	27.10	7.04	-40.9	-51.3	3.6	3.02e+01	0	41	104	14155776	56	17787
2026-01-22 15:05:40.77	27.18	7.11	-40.8	-51.2	3.5	3.02e+01	0	41	104	14155776	56	17515
2026-01-22 15:05:41.78	27.27	7.18	-41.9	-52.5	3.5	3.02e+01	0	41	104	14155776	56	20383
2026-01-22 15:05:42.79	27.36	7.26	-43.1	-53.8	3.5	3.02e+01	0	41	104	14155776	60	18803
2026-01-22 15:05:43.80	27.44	7.33	-49.6	-64.1	3.5	3.02e+01	0	41	104	14155776	60	62052
2026-01-22 15:05:44.81	27.53	7.40	-49.5	-64.3	3.5	3.02e+01	0	41	104	14155776	60	63144
2026-01-22 15:05:45.82	27.62	7.48	-42.3	-52.8	3.5	3.02e+01	0	41	104	14155776	56	21255
2026-01-22 15:05:46.83	27.70	7.55	-48.3	-61.3	3.5	3.02e+01	0	41	104	14155776	60	44565
2026-01-22 15:05:47.84	27.79	7.63	-43.7	-54.4	3.5	3.02e+01	0	41	104	14155776	60	20300
2026-01-22 15:05:48.85	27.88	7.70	-44.1	-55.0	3.5	3.02e+01	0	41	104	14155776	60	21586
2026-01-22 15:05:49.86	27.97	7.78	-44.8	-55.9	3.5	3.02e+01	0	41	104	14155776	60	23892
2026-01-22 15:05:50.87	28.06	7.85	-47.4	-59.5	3.5	3.02e+01	0	41	104	14155776	60	36454
2026-01-22 15:05:51.88	28.15	7.93	-42.8	-53.5	3.5	3.02e+01	0	41	104	14155776	60	18153
2026-01-22 15:05:52.89	28.24	8.00	-50.5	-67.9	3.5	3.02e+01	0	41	104	14155776	60	95795
2026-01-22 15:05:53.91	28.33	8.08	-47.5	-59.8	3.6	3.02e+01	0	41	104	14155776	60	37563
2026-01-22 15:05:54.91	28.43	8.15	-47.2	-59.1	3.5	3.02e+01	0	41	104	14155776	60	34794
2026-01-22 15:05:55.93	28.52	8.23	-46.4	-58.0	3.5	3.02e+01	0	41	104	14155776	60	30492
2026-01-22 15:05:56.94	28.61	8.31	-44.3	-55.1	3.5	3.02e+01	0	41	104	14155776	60	21883
2026-01-22 15:05:57.95	28.70	8.38	-42.9	-53.5	3.5	3.02e+01	0	41	104	14155776	60	18207
2026-01-22 15:05:58.96	28.80	8.46	-41.1	-51.5	3.5	3.02e+01	0	41	104	14155776	58	16308
2026-01-22 15:05:59.97	28.89	8.54	-40.8	-51.2	3.5	3.02e+01	0	41	104	14155776	56	17580
2026-01-22 15:06:00.98	28.99	8.61	-40.0	-50.4	3.5	3.02e+01	0	41	104	14155776	54	17941
2026-01-22 15:06:01.99	29.08	8.69	-50.5	-67.3	3.5	3.02e+01	0	41	104	14155776	60	88985
2026-01-22 15:06:03.00	29.18	8.77	-45.7	-57.1	3.5	3.02e+01	0	41	104	14155776	60	27609
2026-01-22 15:06:04.01	29.28	8.84	-48.0	-60.7	3.5	3.02e+01	0	41	104	14155776	60	41478
2026-01-22 15:06:05.02	29.37	8.92	-42.8	-53.4	3.5	3.02e+01	0	41	104	14155776	60	18068
2026-01-22 15:06:06.02	29.47	9.00	-40.3	-50.7	3.5	3.02e+01	0	41	104	14155776	56	16653
2026-01-22 15:06:07.04	29.57	9.08	-39.8	-50.1	3.6	3.02e+01	0	41	104	14155776	54	17469
2026-01-22 15:06:08.04	29.67	9.16	-39.6	-49.9	3.5	3.02e+01	0	41	104	14155776	54	16962
2026-01-22 15:06:09.06	29.77	9.24	-44.1	-55.1	3.6	3.02e+01	0	41	104	14155776	60	21777
2026-01-22 15:06:10.07	29.87	9.31	-40.9	-51.4	3.4	3.02e+01	0	41	104	14155776	58	16004
2026-01-22 15:06:11.08	29.97	9.39	-50.3	-66.7	3.5	3.02e+01	0	41	104	14155776	60	83372
2026-01-22 15:06:12.09	30.07	9.47	-44.4	-55.5	3.5	3.02e+01	0	41	104	14155776	60	22845
2026-01-22 15:06:13.10	30.17	9.55	-49.5	-66.4	3.5	3.02e+01	0	41	104	14155776	60	80382
2026-01-22 15:06:14.11	30.27	9.63	-44.3	-55.4	3.5	3.02e+01	0	41	104	14155776	60	22594
2026-01-22 15:06:15.12	30.37	9.71	-42.4	-53.0	3.5	3.02e+01	0	41	104	14155776	60	17101
2026-01-22 15:06:16.13	30.47	9.79	-42.7	-53.4	3.5	3.02e+01	0	41	104	14155776	60	17958
2026-01-22 15:06:17.14	30.58	9.87	-43.4	-54.2	3.5	3.02e+01	0	41	104	14155776	60	19698
2026-01-22 15:06:18.15	30.68	9.95	-49.9	-65.5	3.5	3.02e+01	0	41	104	14155776	60	72525
2026-01-22 15:06:19.16	30.79	10.03	-40.8	-51.3	3.5	3.02e+01	0	41	104	14155776	58	15819
2026-01-22 15:06:20.17	30.89	10.11	-50.4	-66.9	3.5	3.02e+01	0	41	104	14155776	60	84885
2026-01-22 15:06:21.18	31.00	10.20	-44.9	-56.2	3.5	3.02e+01	0	41	104	14155776	60	24859
2026-01-22 15:06:22.19	31.11	10.28	-50.4	-67.0	3.5	3.02e+01	0	41	104	14155776	60	85879
2026-01-22 15:06:23.20	31.21	10.36	-44.0	-54.8	3.5	3.02e+01	0	41	104	14155776	60	21059
2026-01-22 15:06:24.21	31.32	10.44	-43.1	-53.8	3.6	3.02e+01	0	41	104	14155776	60	18766
2026-01-22 15:06:25.22	31.43	10.52	-43.2	-53.8	3.5	3.02e+01	0	41	104	14155776	60	18892
2026-01-22 15:06:26.23	31.54	10.61	-43.6	-54.3	3.5	3.02e+01	0	41	104	14155776	60	20032
2026-01-22 15:06:27.24	31.65	10.69	-48.6	-61.7	3.5	3.02e+01	0	41	104	14155776	60	46797
2026-01-22 15:06:28.24	31.76	10.77	-40.9	-51.3	3.5	3.02e+01	0	41	104	14155776	56	17720
2026-01-22 15:06:29.26	31.87	10.85	-50.4	-67.4	3.5	3.02e+01	0	41	104	14155776	60	90233
2026-01-22 15:06:30.27	31.98	10.94	-44.9	-56.1	3.5	3.02e+01	0	41	104	14155776	60	24546
2026-01-22 15:06:31.27	32.09	11.02	-50.6	-67.0	3.5	3.02e+01	0	41	104	14155776	60	86295
2026-01-22 15:06:32.28	32.21	11.10	-40.5	-50.8	3.5	3.02e+01	0	41	104	14155776	56	16880
2026-01-22 15:06:33.30	32.32	11.19	-40.3	-50.7	3.5	3.02e+01	0	41	104	14155776	56	16607
2026-01-22 15:06:34.30	32.43	11.27	-39.7	-50.0	3.5	3.02e+01	0	41	104	14155776	54	17244
2026-01-22 15:06:35.31	32.55	11.36	-39.2	-49.5	3.6	3.02e+01	0	41	104	14155776	54	16212
2026-01-22 15:06:36.32	32.66	11.44	-44.9	-56.0	3.5	3.02e+01	0	41	104	14155776	60	24420
2026-01-22 15:06:37.33	32.78	11.52	-40.6	-51.0	3.5	3.02e+01	0	41	104	14155776	56	17159
2026-01-22 15:06:38.34	32.90	11.61	-50.5	-67.0	3.5	3.02e+01	0	41	104	14155776	60	86245
2026-01-22 15:06:39.35	33.02	11.70	-42.9	-53.6	3.6	3.02e+01	0	41	104	14155776	60	18477
2026-01-22 15:06:40.36	33.13	11.78	-49.9	-66.6	3.5	3.02e+01	0	41	104	14155776	60	82180
2026-01-22 15:06:41.37	33.25	11.87	-43.0	-53.7	3.5	3.02e+01	0	41	104	14155776	60	18570
2026-01-22 15:06:42.38	33.37	11.95	-43.2	-53.9	3.5	3.02e+01	0	41	104	14155776	60	19014
2026-01-22 15:06:43.39	33.49	12.04	-44.0	-54.9	3.5	3.02e+01	0	41	104	14155776	60	21448
2026-01-22 15:06:44.40	33.62	12.12	-44.9	-56.1	3.5	3.02e+01	0	41	104	14155776	60	24481
2026-01-22 15:06:45.41	33.74	12.21	-50.2	-66.0	3.5	3.02e+01	0	41	104	14155776	60	76742
2026-01-22 15:06:46.42	33.86	12.30	-40.5	-50.8	3.5	3.02e+01	0	41	104	14155776	56	16807
2026-01-22 15:06:47.43	33.98	12.39	-50.5	-66.8	3.5	3.02e+01	0	41	104	14155776	60	84451
2026-01-22 15:06:48.44	34.11	12.47	-43.2	-54.0	3.6	3.02e+01	0	41	104	14155776	60	19243
2026-01-22 15:06:49.45	34.23	12.56	-50.6	-67.0	3.5	3.02e+01	0	41	104	14155776	60	85949
2026-01-22 15:06:50.46	34.36	12.65	-43.5	-54.2	3.6	3.02e+01	0	41	104	14155776	60	19779
2026-01-22 15:06:51.47	34.49	12.74	-43.4	-54.1	3.6	3.02e+01	0	41	104	14155776	60	19441
2026-01-22 15:06:52.48	34.61	12.82	-41.6	-52.1	3.5	3.02e+01	0	41	104	14155776	58	17395
2026-01-22 15:06:53.49	34.74	12.91	-40.2	-50.5	3.6	3.02e+01	0	41	104	14155776	56	16175
2026-01-22 15:06:54.50	34.87	13.00	-39.5	-49.7	3.6	3.02e+01	0	41	104	14155776	52	18721
2026-01-22 15:06:55.51	35.00	13.09	-40.5	-50.8	3.5	3.02e+01	0	41	104	14155776	54	18857
2026-01-22 15:06:56.52	35.13	13.18	-50.0	-66.7	3.5	3.02e+01	0	41	104	14155776	60	83013
2026-01-22 15:06:57.53	35.26	13.27	-40.1	-50.3	3.5	3.02e+01	0	41	104	14155776	58	14210
2026-01-22 15:06:58.54	35.40	13.36	-50.0	-65.6	3.5	3.02e+01	0	41	104	14155776	60	73744
2026-01-22 15:06:59.55	35.53	13.45	-39.4	-49.7	3.5	3.02e+01	0	41	104	14155776	54	16630
2026-01-22 15:07:00.55	35.66	13.54	-39.2	-49.5	3.5	3.02e+01	0	41	104	14155776	54	16198
2026-01-22 15:07:01.56	35.80	13.63	-38.8	-49.1	3.5	3.02e+01	0	41	104	14155776	52	17304
2026-01-22 15:07:02.57	35.93	13.72	-38.6	-48.8	3.6	3.02e+01	0	41	104	14155776	52	16889
2026-01-22 15:07:03.58	36.07	13.81	-40.9	-51.4	3.6	3.02e+01	0	41	104	14155776	60	14251
2026-01-22 15:07:04.59	36.21	13.90	-42.0	-52.5	3.5	3.02e+01	0	41	104	14155776	54	22818
2026-01-22 15:07:05.60	36.35	13.99	-50.6	-66.7	3.5	3.02e+01	0	41	104	14155776	60	83046
2026-01-22 15:07:06.61	36.49	14.09	-39.3	-49.5	3.5	3.02e+01	0	41	104	14155776	56	14475
2026-01-22 15:07:07.62	36.63	14.18	-50.0	-65.2	3.6	3.02e+01	0	41	104	14155776	60	70289
2026-01-22 15:07:08.63	36.77	14.27	-39.4	-49.6	3.6	3.02e+01	0	41	104	14155776	54	16426
2026-01-22 15:07:09.64	36.91	14.36	-39.3	-49.6	3.5	3.02e+01	0	41	104	14155776	54	16414
2026-01-22 15:07:10.65	37.05	14.45	-39.3	-49.6	3.5	3.02e+01	0	41	104	14155776	54	16335
2026-01-22 15:07:11.66	37.20	14.55	-38.5	-48.7	3.6	3.02e+01	0	41	104	14155776	52	16607
2026-01-22 15:07:12.67	37.34	14.64	-40.7	-51.1	3.5	3.02e+01	0	41	104	14155776	60	13816
2026-01-22 15:07:13.68	37.49	14.73	-45.8	-56.9	3.4	3.02e+01	0	41	104	14155776	60	27018
2026-01-22 15:07:14.69	37.63	14.83	-50.3	-66.2	3.6	3.02e+01	0	41	104	14155776	60	78718
2026-01-22 15:07:15.70	37.78	14.92	-39.0	-49.3	3.5	3.02e+01	0	41	104	14155776	52	17788
2026-01-22 15:07:16.71	37.93	15.02	-47.6	-59.8	3.6	3.02e+01	0	41	104	14155776	60	37660
2026-01-22 15:07:17.71	38.08	15.11	-39.5	-49.8	3.5	3.02e+01	0	41	104	14155776	54	16865
2026-01-22 15:07:18.72	38.23	15.20	-39.2	-49.5	3.5	3.02e+01	0	41	104	14155776	54	16292
2026-01-22 15:07:19.73	38.38	15.30	-39.4	-49.8	3.6	3.02e+01	0	41	104	14155776	54	16720
2026-01-22 15:07:20.75	38.53	15.39	-38.5	-48.7	3.6	3.02e+01	0	41	104	14155776	52	16517
2026-01-22 15:07:21.75	38.68	15.49	-38.5	-48.7	3.5	3.02e+01	0	41	104	14155776	54	14774
2026-01-22 15:07:22.76	38.84	15.58	-47.5	-60.0	3.5	3.02e+01	0	41	104	14155776	60	38340
2026-01-22 15:07:23.77	38.99	15.68	-49.4	-64.1	3.6	3.02e+01	0	41	104	14155776	60	61517
2026-01-22 15:07:24.78	39.15	15.78	-39.5	-49.8	3.5	3.02e+01	0	41	104	14155776	52	18834
2026-01-22 15:07:25.79	39.31	15.87	-46.5	-58.4	3.6	3.02e+01	0	41	104	14155776	60	32059
2026-01-22 15:07:26.80	39.47	15.97	-39.0	-49.3	3.6	3.02e+01	0	41	104	14155776	54	15868
2026-01-22 15:07:27.81	39.63	16.06	-39.1	-49.4	3.5	3.02e+01	0	41	104	14155776	54	16009
2026-01-22 15:07:28.82	39.79	16.16	-39.1	-49.5	3.5	3.02e+01	0	41	104	14155776	52	18109
2026-01-22 15:07:29.84	39.95	16.26	-45.0	-56.1	3.5	3.02e+01	0	41	104	14155776	60	24564
2026-01-22 15:07:30.85	40.11	16.36	-41.9	-52.3	3.4	3.02e+01	0	41	104	14155776	60	15835
2026-01-22 15:07:31.86	40.28	16.45	-50.5	-68.0	3.5	3.02e+01	0	41	104	14155776	60	96804
2026-01-22 15:07:32.87	40.44	16.55	-45.3	-56.7	3.5	3.02e+01	0	41	104	14155776	60	26259
2026-01-22 15:07:33.88	40.61	16.65	-45.0	-56.0	3.5	3.02e+01	0	41	104	14155776	54	34348
2026-01-22 15:07:34.89	40.78	16.75	-42.6	-53.2	3.5	3.02e+01	0	41	104	14155776	60	17514
2026-01-22 15:07:35.90	40.95	16.85	-39.3	-49.5	3.5	3.02e+01	0	41	104	14155776	54	16309
2026-01-22 15:07:36.91	41.12	16.94	-39.8	-50.1	3.5	3.02e+01	0	41	104	14155776	54	17326
2026-01-22 15:07:37.91	41.28	17.04	-39.7	-50.1	3.5	3.02e+01	0	41	104	14155776	54	17314
2026-01-22 15:07:38.92	41.46	17.14	-48.3	-61.2	3.5	3.02e+01	0	41	104	14155776	60	43933
2026-01-22 15:07:39.93	41.63	17.24	-42.0	-52.6	3.5	3.02e+01	0	41	104	14155776	60	16366
2026-01-22 15:07:40.94	41.80	17.34	-50.7	-67.9	3.5	3.02e+01	0	41	104	14155776	60	95412
2026-01-22 15:07:41.95	41.98	17.44	-45.1	-56.4	3.6	3.02e+01	0	41	104	14155776	60	25331
2026-01-22 15:07:42.96	42.16	17.54	-46.6	-58.1	3.5	3.02e+01	0	41	104	14155776	58	34746
2026-01-22 15:07:43.97	42.33	17.64	-45.9	-57.2	3.5	3.02e+01	0	41	104	14155776	60	27839
2026-01-22 15:07:44.98	42.51	17.74	-43.0	-53.7	3.5	3.02e+01	0	41	104	14155776	60	18708
2026-01-22 15:07:45.99	42.69	17.84	-41.0	-51.4	3.5	3.02e+01	0	41	104	14155776	58	16017
2026-01-22 15:07:46.99	42.87	17.94	-39.5	-49.8	3.5	3.02e+01	0	41	104	14155776	54	16759
2026-01-22 15:07:48.00	43.06	18.04	-38.6	-48.8	3.5	3.02e+01	0	41	104	14155776	52	16836
2026-01-22 15:07:49.01	43.24	18.14	-38.6	-48.8	3.5	3.02e+01	0	41	104	14155776	52	16739
2026-01-22 15:07:50.02	43.43	18.24	-50.7	-67.6	3.5	3.02e+01	0	41	104	14155776	60	92014
2026-01-22 15:07:51.03	43.61	18.34	-42.7	-53.3	3.5	3.02e+01	0	41	104	14155776	60	17798
2026-01-22 15:07:52.04	43.80	18.45	-50.2	-65.4	3.5	3.02e+01	0	41	104	14155776	60	71915
2026-01-22 15:07:53.05	43.99	18.55	-40.0	-50.4	3.5	3.02e+01	0	41	104	14155776	58	14277
2026-01-22 15:07:54.06	44.18	18.65	-38.9	-49.1	3.6	3.02e+01	0	41	104	14155776	52	17418
2026-01-22 15:07:55.07	44.37	18.75	-38.3	-48.5	3.5	3.02e+01	0	41	104	14155776	52	16236
2026-01-22 15:07:56.08	44.57	18.85	-38.1	-48.3	3.6	3.02e+01	0	41	104	14155776	52	15804
2026-01-22 15:07:57.09	44.76	18.96	-43.0	-53.7	3.5	3.02e+01	0	41	104	14155776	56	23445
2026-01-22 15:07:58.10	44.96	19.06	-39.7	-50.0	3.5	3.02e+01	0	41	104	14155776	56	15383
2026-01-22 15:07:59.11	45.15	19.16	-50.8	-66.8	3.5	3.02e+01	0	41	104	14155776	60	84432
2026-01-22 15:08:00.12	45.35	19.26	-42.7	-53.2	3.5	3.02e+01	0	41	104	14155776	60	17689
2026-01-22 15:08:01.13	45.55	19.37	-50.1	-66.0	3.5	3.02e+01	0	41	104	14155776	60	76955
2026-01-22 15:08:02.14	45.75	19.47	-40.0	-50.3	3.6	3.02e+01	0	41	104	14155776	56	15895
2026-01-22 15:08:03.15	45.96	19.57	-39.4	-49.7	3.5	3.02e+01	0	41	104	14155776	54	16583
2026-01-22 15:08:04.15	46.16	19.68	-38.6	-48.8	3.5	3.02e+01	0	41	104	14155776	52	16780
2026-01-22 15:08:05.16	46.36	19.78	-38.2	-48.4	3.5	3.02e+01	0	41	104	14155776	52	16008
2026-01-22 15:08:06.17	46.57	19.88	-45.8	-57.0	3.5	3.02e+01	0	41	104	14155776	60	27222
2026-01-22 15:08:07.18	46.78	19.99	-39.5	-49.8	3.5	3.02e+01	0	41	104	14155776	52	18926
2026-01-22 15:08:08.19	46.99	20.09	-50.9	-67.3	3.5	3.02e+01	0	41	104	14155776	60	89640
2026-01-22 15:08:09.20	47.20	20.20	-43.2	-53.8	3.5	3.02e+01	0	41	104	14155776	60	18890
2026-01-22 15:08:10.21	47.41	20.30	-50.5	-66.1	3.5	3.02e+01	0	41	104	14155776	60	78101
2026-01-22 15:08:11.22	47.63	20.40	-39.7	-49.9	3.5	3.02e+01	0	41	104	14155776	54	17045
2026-01-22 15:08:12.23	47.84	20.51	-39.4	-49.8	3.5	3.02e+01	0	41	104	14155776	54	16719
2026-01-22 15:08:13.24	48.06	20.61	-38.8	-49.0	3.5	3.02e+01	0	41	104	14155776	52	17120
2026-01-22 15:08:14.25	48.28	20.72	-38.9	-49.1	3.5	3.02e+01	0	41	104	14155776	52	17316
2026-01-22 15:08:15.27	48.50	20.82	-49.6	-64.0	3.5	3.02e+01	0	41	104	14155776	60	60652
2026-01-22 15:08:16.27	48.72	20.93	-40.1	-50.4	3.5	3.02e+01	0	41	104	14155776	56	16036
2026-01-22 15:08:17.28	48.95	21.03	-50.8	-67.7	3.5	3.02e+01	0	41	104	14155776	60	93539
2026-01-22 15:08:18.29	49.17	21.14	-44.4	-55.3	3.5	3.02e+01	0	41	104	14155776	60	22470
2026-01-22 15:08:19.30	49.40	21.24	-50.2	-66.1	3.5	3.02e+01	0	41	104	14155776	60	77499
2026-01-22 15:08:20.31	49.63	21.35	-39.6	-50.0	3.6	3.02e+01	0	41	104	14155776	54	17209
2026-01-22 15:08:21.32	49.86	21.45	-39.0	-49.3	3.5	3.02e+01	0	41	104	14155776	54	15827
2026-01-22 15:08:22.33	50.09	21.56	-39.0	-49.2	3.5	3.02e+01	0	41	104	14155776	52	17634
2026-01-22 15:08:23.34	50.32	21.66	-39.0	-49.2	3.5	3.02e+01	0	41	104	14155776	52	17624
2026-01-22 15:08:24.35	50.56	21.77	-43.0	-53.7	3.5	3.02e+01	0	41	104	14155776	60	18608
2026-01-22 15:08:25.36	50.79	21.87	-39.9	-50.3	3.5	3.02e+01	0	41	104	14155776	52	19876
2026-01-22 15:08:26.37	51.03	21.98	-50.7	-67.4	3.5	3.02e+01	0	41	104	14155776	60	90271
2026-01-22 15:08:27.38	51.27	22.08	-41.8	-52.3	3.4	3.02e+01	0	41	104	14155776	60	15839
2026-01-22 15:08:28.38	51.51	22.18	-50.2	-66.2	3.5	3.02e+01	0	41	104	14155776	60	78623
2026-01-22 15:08:29.39	51.75	22.29	-39.7	-50.0	3.5	3.02e+01	0	41	104	14155776	54	17173
2026-01-22 15:08:30.40	52.00	22.39	-39.1	-49.3	3.5	3.02e+01	0	41	104	14155776	54	15814
2026-01-22 15:08:31.41	52.25	22.50	-39.7	-49.9	3.5	3.02e+01	0	41	104	14155776	54	17014
2026-01-22 15:08:32.42	52.49	22.60	-39.4	-49.7	3.6	3.02e+01	0	41	104	14155776	54	16650
2026-01-22 15:08:33.44	52.75	22.71	-48.0	-62.8	3.5	3.02e+01	0	41	104	14155776	60	53006
2026-01-22 15:08:34.44	53.00	22.81	-39.9	-50.3	3.5	3.02e+01	0	41	104	14155776	54	17826
2026-01-22 15:08:35.45	53.25	22.92	-50.7	-67.2	3.5	3.02e+01	0	41	104	14155776	60	88428
2026-01-22 15:08:36.46	53.51	23.02	-42.3	-53.2	3.6	3.02e+01	0	41	104	14155776	60	17660
2026-01-22 15:08:37.47	53.76	23.13	-50.1	-66.7	3.5	3.02e+01	0	41	104	14155776	60	83033
2026-01-22 15:08:38.49	54.02	23.23	-43.5	-54.1	3.5	3.02e+01	0	41	104	14155776	60	19588
2026-01-22 15:08:39.49	54.28	23.34	-41.1	-51.4	3.5	3.02e+01	0	41	104	14155776	58	16135
2026-01-22 15:08:40.50	54.54	23.44	-39.8	-50.1	3.5	3.02e+01	0	41	104	14155776	54	17425
2026-01-22 15:08:41.51	54.81	23.54	-38.6	-48.8	3.6	3.02e+01	0	41	104	14155776	52	16830
2026-01-22 15:08:42.52	55.07	23.65	-40.7	-51.0	3.5	3.02e+01	0	41	104	14155776	56	17219
2026-01-22 15:08:43.54	55.34	23.75	-41.6	-52.1	3.5	3.02e+01	0	41	104	14155776	54	21772
2026-01-22 15:08:44.54	55.61	23.86	-50.8	-67.0	3.5	3.02e+01	0	41	104	14155776	60	85955
2026-01-22 15:08:45.55	55.88	23.96	-39.6	-49.9	3.5	3.02e+01	0	41	104	14155776	56	15085
2026-01-22 15:08:46.57	56.16	24.06	-50.4	-66.2	3.5	3.02e+01	0	41	104	14155776	60	78550
2026-01-22 15:08:47.58	56.43	24.17	-39.4	-49.7	3.5	3.02e+01	0	41	104	14155776	54	16692
2026-01-22 15:08:48.59	56.71	24.27	-39.1	-49.3	3.6	3.02e+01	0	41	104	14155776	54	15857
2026-01-22 15:08:49.60	56.99	24.37	-38.9	-49.2	3.5	3.02e+01	0	41	104	14155776	52	17645
2026-01-22 15:08:50.61	57.27	24.47	-38.4	-48.8	3.5	3.02e+01	0	41	104	14155776	52	16744
2026-01-22 15:08:51.61	57.55	24.57	-41.2	-51.9	3.5	3.02e+01	0	41	104	14155776	60	15106
2026-01-22 15:08:52.62	57.84	24.68	-41.8	-52.5	3.5	3.02e+01	0	41	104	14155776	54	22976
2026-01-22 15:08:53.63	58.12	24.78	-49.2	-68.1	3.5	3.02e+01	0	41	104	14155776	60	97660
2026-01-22 15:08:54.64	58.41	24.88	-38.8	-49.0	3.5	3.02e+01	0	41	104	14155776	52	17225
2026-01-22 15:08:55.65	58.70	24.98	-49.1	-62.6	3.5	3.02e+01	0	41	104	14155776	60	52155
2026-01-22 15:08:56.66	58.99	25.08	-39.6	-49.8	3.6	3.02e+01	0	41	104	14155776	54	16724
2026-01-22 15:08:57.66	59.28	25.18	-38.8	-49.1	3.5	3.02e+01	0	41	104	14155776	52	17299
2026-01-22 15:08:58.67	59.58	25.28	-38.8	-49.1	3.5	3.02e+01	0	41	104	14155776	52	17328
2026-01-22 15:08:59.68	59.88	25.38	-39.6	-49.8	3.5	3.02e+01	0	41	104	14155776	52	18782
2026-01-22 15:09:00.69	60.18	25.48	-40.2	-50.4	3.5	3.02e+01	0	41	104	14155776	60	12802
2026-01-22 15:09:01.70	60.48	25.58	-45.9	-57.0	3.5	3.02e+01	0	41	104	14155776	60	27191
2026-01-22 15:09:02.71	60.78	25.67	-50.5	-66.3	3.6	3.02e+01	0	41	104	14155776	60	79606
2026-01-22 15:09:03.72	61.09	25.77	-39.2	-49.3	3.5	3.02e+01	0	41	104	14155776	52	17888
2026-01-22 15:09:04.73	61.40	25.87	-48.9	-62.2	3.6	3.02e+01	0	41	104	14155776	60	49694
2026-01-22 15:09:05.74	61.70	25.97	-39.4	-49.7	3.5	3.02e+01	0	41	104	14155776	54	16564
2026-01-22 15:09:06.75	62.02	26.06	-38.6	-48.8	3.5	3.02e+01	0	41	104	14155776	52	16890
2026-01-22 15:09:07.76	62.33	26.16	-38.4	-48.6	3.5	3.02e+01	0	41	104	14155776	52	16395
2026-01-22 15:09:08.77	62.64	26.25	-40.0	-50.5	3.5	3.02e+01	0	41	104	14155776	52	20508
2026-01-22 15:09:09.78	62.96	26.35	-42.5	-53.3	3.5	3.02e+01	0	41	104	14155776	60	17812
2026-01-22 15:09:10.79	63.28	26.44	-45.9	-58.0	3.5	3.02e+01	0	41	104	14155776	60	30627
2026-01-22 15:09:11.79	63.60	26.54	-48.6	-63.1	3.6	3.02e+01	0	41	104	14155776	60	54799
2026-01-22 15:09:12.80	63.92	26.63	-40.0	-50.3	3.5	3.02e+01	0	41	104	14155776	52	20055
2026-01-22 15:09:13.81	64.25	26.72	-47.8	-60.2	3.6	3.02e+01	0	41	104	14155776	60	39340
2026-01-22 15:09:14.82	64.57	26.81	-39.6	-49.9	3.5	3.02e+01	0	41	104	14155776	54	17046
2026-01-22 15:09:15.83	64.90	26.91	-39.0	-49.2	3.5	3.02e+01	0	41	104	14155776	54	15706
2026-01-22 15:09:16.84	65.23	27.00	-38.7	-48.9	3.5	3.02e+01	0	41	104	14155776	52	16978
2026-01-22 15:09:17.85	65.57	27.09	-41.4	-51.8	3.5	3.02e+01	0	41	104	14155776	52	23824
2026-01-22 15:09:18.86	65.90	27.18	-38.6	-48.8	3.5	3.02e+01	0	41	104	14155776	54	14925
2026-01-22 15:09:19.87	66.24	27.27	-50.7	-67.2	3.5	3.02e+01	0	41	104	14155776	60	88411
2026-01-22 15:09:20.88	66.58	27.35	-43.9	-54.7	3.5	3.02e+01	0	41	104	14155776	60	20895
2026-01-22 15:09:21.89	66.92	27.44	-45.4	-56.4	3.5	3.02e+01	0	41	104	14155776	56	31916
2026-01-22 15:09:22.90	67.26	27.53	-43.7	-54.4	3.6	3.02e+01	0	41	104	14155776	60	20261
2026-01-22 15:09:23.91	67.60	27.61	-40.3	-50.7	3.6	3.02e+01	0	41	104	14155776	54	18574
2026-01-22 15:09:24.92	67.95	27.70	-40.1	-50.4	3.5	3.02e+01	0	41	104	14155776	54	17976
2026-01-22 15:09:25.93	68.30	27.78	-40.0	-50.2	3.6	3.02e+01	0	41	104	14155776	54	17664
2026-01-22 15:09:26.94	68.65	27.87	-40.8	-51.2	3.5	3.02e+01	0	41	104	14155776	52	22070
2026-01-22 15:09:27.95	69.00	27.95	-38.8	-49.1	3.5	3.02e+01	0	41	104	14155776	52	17371
2026-01-22 15:09:28.96	69.35	28.03	-50.9	-68.4	3.5	3.02e+01	0	41	104	14155776	60	101499
2026-01-22 15:09:29.97	69.71	28.11	-42.4	-52.9	3.5	3.02e+01	0	41	104	14155776	60	17006
2026-01-22 15:09:30.98	70.06	28.19	-50.1	-64.9	3.5	3.02e+01	0	41	104	14155776	60	68012
2026-01-22 15:09:31.98	70.42	28.27	-41.3	-51.7	3.5	3.02e+01	0	41	104	14155776	60	14813
2026-01-22 15:09:32.99	70.78	28.35	-39.5	-49.7	3.5	3.02e+01	0	41	104	14155776	54	16662
2026-01-22 15:09:34.00	71.14	28.43	-39.0	-49.2	3.5	3.02e+01	0	41	104	14155776	54	15736
2026-01-22 15:09:35.02	71.51	28.50	-38.5	-48.8	3.5	3.02e+01	0	41	104	14155776	52	16748
2026-01-22 15:09:36.03	71.88	28.58	-45.0	-56.1	3.5	3.02e+01	0	41	104	14155776	60	24486
2026-01-22 15:09:37.04	72.25	28.65	-39.4	-49.7	3.5	3.02e+01	0	41	104	14155776	54	16537
2026-01-22 15:09:38.05	72.62	28.73	-50.7	-67.6	3.5	3.02e+01	0	41	104	14155776	60	92607
2026-01-22 15:09:39.05	72.98	28.80	-42.0	-52.4	3.5	3.02e+01	0	41	104	14155776	60	15992
2026-01-22 15:09:40.06	73.36	28.87	-50.1	-65.8	3.5	3.02e+01	0	41	104	14155776	60	75236
2026-01-22 15:09:41.07	73.73	28.94	-40.6	-51.0	3.5	3.02e+01	0	41	104	14155776	58	15244
2026-01-22 15:09:42.08	74.11	29.01	-38.7	-48.9	3.5	3.02e+01	0	41	104	14155776	52	16961
2026-01-22 15:09:43.09	74.49	29.08	-38.1	-48.3	3.5	3.02e+01	0	41	104	14155776	52	15782
2026-01-22 15:09:44.10	74.87	29.14	-38.2	-48.5	3.5	3.02e+01	0	41	104	14155776	52	16146
2026-01-22 15:09:45.11	75.25	29.21	-48.6	-61.5	3.5	3.02e+01	0	41	104	14155776	60	45575
2026-01-22 15:09:46.12	75.63	29.27	-40.3	-50.6	3.6	3.02e+01	0	41	104	14155776	56	16424
2026-01-22 15:09:47.12	76.01	29.34	-50.8	-67.4	3.5	3.02e+01	0	41	104	14155776	60	90724
2026-01-22 15:09:48.13	76.40	29.40	-42.2	-52.7	3.6	3.02e+01	0	41	104	14155776	56	21025
2026-01-22 15:09:49.14	76.79	29.46	-50.1	-65.9	3.5	3.02e+01	0	41	104	14155776	60	75839
2026-01-22 15:09:50.15	77.17	29.52	-39.7	-50.1	3.5	3.02e+01	0	41	104	14155776	54	17379
2026-01-22 15:09:51.16	77.57	29.58	-38.4	-48.7	3.5	3.02e+01	0	41	104	14155776	52	16555
2026-01-22 15:09:52.17	77.96	29.63	-38.0	-48.3	3.5	3.02e+01	0	41	104	14155776	52	15900
2026-01-22 15:09:53.18	78.35	29.69	-38.1	-48.3	3.5	3.02e+01	0	41	104	14155776	52	15863
2026-01-22 15:09:54.19	78.75	29.74	-48.0	-60.3	3.5	3.02e+01	0	41	104	14155776	60	39651
2026-01-22 15:09:55.20	79.14	29.80	-39.5	-49.9	3.5	3.02e+01	0	41	104	14155776	52	19058
2026-01-22 15:09:56.21	79.54	29.85	-49.8	-67.5	3.5	3.02e+01	0	41	104	14155776	60	91309
2026-01-22 15:09:57.22	79.94	29.90	-42.3	-52.8	3.5	3.02e+01	0	41	104	14155776	56	21203
2026-01-22 15:09:58.23	80.34	29.95	-50.2	-65.7	3.6	3.02e+01	0	41	104	14155776	60	74466
2026-01-22 15:09:59.24	80.74	30.00	-39.8	-50.0	3.5	3.02e+01	0	41	104	14155776	56	15379
2026-01-22 15:10:00.25	81.14	30.04	-39.0	-49.3	3.6	3.02e+01	0	41	104	14155776	52	17868
2026-01-22 15:10:01.26	81.55	30.09	-39.2	-49.4	3.5	3.02e+01	0	41	104	14155776	52	18026
2026-01-22 15:10:02.27	81.95	30.13	-39.4	-49.6	3.5	3.02e+01	0	41	104	14155776	52	18390
2026-01-22 15:10:03.28	82.36	30.17	-44.1	-54.8	3.5	3.02e+01	0	41	104	14155776	60	21257
2026-01-22 15:10:04.29	82.76	30.21	-39.4	-49.5	3.5	3.02e+01	0	41	104	14155776	52	18313
2026-01-22 15:10:05.30	83.17	30.25	-51.0	-67.7	3.5	3.02e+01	0	41	104	14155776	60	93354
2026-01-22 15:10:06.31	83.58	30.29	-43.2	-53.8	3.5	3.02e+01	0	41	104	14155776	60	18939
2026-01-22 15:10:07.32	83.99	30.33	-50.6	-66.0	3.5	3.02e+01	0	41	104	14155776	60	76726
2026-01-22 15:10:08.33	84.40	30.36	-38.8	-49.0	3.5	3.02e+01	0	41	104	14155776	52	17242
2026-01-22 15:10:09.34	84.81	30.40	-39.0	-49.3	3.5	3.02e+01	0	41	104	14155776	52	17844
2026-01-22 15:10:10.35	85.23	30.43	-38.6	-48.7	3.5	3.02e+01	0	41	104	14155776	52	16649
2026-01-22 15:10:11.36	85.64	30.46	-38.7	-49.1	3.5	3.02e+01	0	41	104	14155776	52	17294
2026-01-22 15:10:12.37	86.05	30.49	-50.3	-66.4	3.5	3.02e+01	0	41	104	14155776	60	80683
2026-01-22 15:10:13.38	86.47	30.51	-39.1	-49.3	3.5	3.02e+01	0	41	104	14155776	54	15782
2026-01-22 15:10:14.39	86.88	30.54	-49.9	-67.8	3.5	3.02e+01	0	41	104	14155776	60	93999
2026-01-22 15:10:15.40	87.30	30.56	-41.8	-52.4	3.5	3.02e+01	0	41	104	14155776	60	15955
2026-01-22 15:10:16.41	87.72	30.59	-50.3	-66.1	3.5	3.02e+01	0	41	104	14155776	60	77260
2026-01-22 15:10:17.42	88.14	30.61	-39.1	-49.3	3.5	3.02e+01	0	41	104	14155776	52	17816
2026-01-22 15:10:18.43	88.55	30.63	-37.8	-48.0	3.5	3.02e+01	0	41	104	14155776	50	17163
2026-01-22 15:10:19.44	88.97	30.64	-37.6	-47.7	3.5	3.02e+01	0	41	104	14155776	50	16689
2026-01-22 15:10:20.45	89.39	30.66	-37.5	-47.6	3.5	3.02e+01	0	41	104	14155776	50	16438
2026-01-22 15:10:21.46	89.81	30.67	-46.4	-58.0	3.5	3.02e+01	0	41	104	14155776	60	30463
2026-01-22 15:10:22.47	90.23	30.69	-39.2	-49.4	3.5	3.02e+01	0	41	104	14155776	54	15975
2026-01-22 15:10:23.48	90.65	30.70	-50.8	-66.6	3.5	3.02e+01	0	41	104	14155776	60	82378
2026-01-22 15:10:24.49	91.07	30.71	-39.3	-49.6	3.5	3.02e+01	0	41	104	14155776	58	13034
2026-01-22 15:10:25.50	91.49	30.71	-50.6	-66.3	3.5	3.02e+01	0	41	104	14155776	60	79400
2026-01-22 15:10:26.51	91.91	30.72	-42.5	-53.0	3.5	3.02e+01	0	41	104	14155776	60	17181
2026-01-22 15:10:27.52	92.33	30.73	-39.9	-50.3	3.5	3.02e+01	0	41	104	14155776	54	17694
2026-01-22 15:10:28.53	92.76	30.73	-39.5	-49.8	3.5	3.02e+01	0	41	104	14155776	54	16741
2026-01-22 15:10:29.54	93.18	30.73	-37.7	-47.7	3.5	3.02e+01	0	41	104	14155776	50	16697
2026-01-22 15:10:30.55	93.60	30.73	-39.1	-49.5	3.5	3.02e+01	0	41	104	14155776	54	16195
2026-01-22 15:10:31.55	94.01	30.73	-39.7	-50.1	3.5	3.02e+01	0	41	104	14155776	50	21835
2026-01-22 15:10:32.57	94.44	30.72	-50.6	-66.6	3.5	3.02e+01	0	41	104	14155776	60	82691
2026-01-22 15:10:33.58	94.86	30.72	-38.3	-48.5	3.5	3.02e+01	0	41	104	14155776	54	14481
2026-01-22 15:10:34.58	95.28	30.71	-50.3	-65.7	3.5	3.02e+01	0	41	104	14155776	60	73925
2026-01-22 15:10:35.59	95.70	30.70	-38.1	-48.2	3.5	3.02e+01	0	41	104	14155776	52	15694
2026-01-22 15:10:36.61	96.12	30.69	-37.3	-47.5	3.5	3.02e+01	0	41	104	14155776	50	16303
2026-01-22 15:10:37.61	96.54	30.68	-37.2	-47.5	3.5	3.02e+01	0	41	104	14155776	50	16145
2026-01-22 15:10:38.62	96.96	30.67	-37.5	-47.7	3.5	3.02e+01	0	41	104	14155776	50	16546
2026-01-22 15:10:39.63	97.38	30.65	-41.9	-52.3	3.5	3.02e+01	0	41	104	14155776	60	15789
2026-01-22 15:10:40.64	97.80	30.64	-41.9	-52.3	3.5	3.02e+01	0	41	104	14155776	52	25041
2026-01-22 15:10:41.65	98.22	30.62	-50.6	-66.6	3.6	3.02e+01	0	41	104	14155776	60	82493
2026-01-22 15:10:42.66	98.64	30.60	-37.2	-47.6	3.5	3.02e+01	0	41	104	14155776	50	16359
2026-01-22 15:10:43.67	99.05	30.58	-48.7	-61.6	3.5	3.02e+01	0	41	104	14155776	60	46043
2026-01-22 15:10:44.68	99.47	30.56	-37.8	-47.9	3.5	3.02e+01	0	41	104	14155776	50	16900
2026-01-22 15:10:45.69	99.89	30.53	-37.4	-47.7	3.5	3.02e+01	0	41	104	14155776	50	16581
2026-01-22 15:10:46.70	100.30	30.51	-37.1	-47.0	3.5	3.02e+01	0	41	104	14155776	50	15357
2026-01-22 15:10:47.71	100.72	30.48	-38.9	-49.1	3.5	3.02e+01	0	41	104	14155776	50	19616
2026-01-22 15:10:48.72	101.13	30.45	-43.1	-53.8	3.6	3.02e+01	0	41	104	14155776	60	18937
2026-01-22 15:10:49.73	101.55	30.42	-43.2	-53.8	3.5	3.02e+01	0	41	104	14155776	54	26523
2026-01-22 15:10:50.74	101.96	30.39	-50.3	-65.8	3.6	3.02e+01	0	41	104	14155776	60	75337
2026-01-22 15:10:51.75	102.37	30.35	-38.1	-48.3	3.5	3.02e+01	0	41	104	14155776	50	17725
2026-01-22 15:10:52.76	102.78	30.32	-50.0	-64.2	3.6	3.02e+01	0	41	104	14155776	60	62242
2026-01-22 15:10:53.77	103.19	30.28	-43.5	-54.2	3.5	3.02e+01	0	41	104	14155776	60	19757
2026-01-22 15:10:54.78	103.60	30.24	-42.9	-53.4	3.5	3.02e+01	0	41	104	14155776	60	18053
2026-01-22 15:10:55.79	104.01	30.20	-44.3	-55.0	3.5	3.02e+01	0	41	104	14155776	60	21643
2026-01-22 15:10:56.80	104.42	30.16	-38.2	-48.4	3.5	3.02e+01	0	41	104	14155776	52	16088
2026-01-22 15:10:57.81	104.82	30.12	-38.0	-48.2	3.5	3.02e+01	0	41	104	14155776	50	17638
2026-01-22 15:10:58.82	105.23	30.07	-49.0	-62.2	3.5	3.02e+01	0	41	104	14155776	60	49381
2026-01-22 15:10:59.83	105.63	30.03	-42.5	-52.9	3.6	3.02e+01	0	41	104	14155776	60	16991
2026-01-22 15:11:00.84	106.04	29.98	-41.3	-51.8	3.5	3.02e+01	0	41	104	14155776	48	29822
2026-01-22 15:11:01.85	106.44	29.93	-42.4	-52.9	3.6	3.02e+01	0	41	104	14155776	60	16990
2026-01-22 15:11:02.86	106.84	29.88	-37.6	-47.9	3.5	3.02e+01	0	41	104	14155776	50	16900
2026-01-22 15:11:03.87	107.24	29.83	-37.3	-47.4	3.5	3.02e+01	0	41	104	14155776	50	16115
2026-01-22 15:11:04.88	107.63	29.78	-36.9	-47.0	3.6	3.02e+01	0	41	104	14155776	48	17098
2026-01-22 15:11:05.89	108.03	29.73	-41.4	-51.9	3.6	3.02e+01	0	41	104	14155776	52	23901
2026-01-22 15:11:06.90	108.43	29.67	-40.4	-50.8	3.5	3.02e+01	0	41	104	14155776	56	16741
2026-01-22 15:11:07.91	108.82	29.61	-49.9	-64.7	3.5	3.02e+01	0	41	104	14155776	60	66456
2026-01-22 15:11:08.92	109.21	29.56	-41.6	-52.0	3.5	3.02e+01	0	41	104	14155776	60	15252
2026-01-22 15:11:09.93	109.60	29.50	-43.5	-54.2	3.5	3.02e+01	0	41	104	14155776	50	35182
2026-01-22 15:11:10.93	109.99	29.44	-39.8	-50.0	3.3	3.02e+01	0	41	104	14155776	56	15279
2026-01-22 15:11:11.94	110.38	29.38	-37.2	-47.4	3.4	3.02e+01	0	41	104	14155776	50	15978
2026-01-22 15:11:12.95	110.76	29.31	-37.4	-47.6	3.6	3.02e+01	0	41	104	14155776	50	16442
2026-01-22 15:11:13.96	111.15	29.25	-36.5	-38.0	24.9	3.02e+01	58	41	104	14155776	48	6098
2026-01-22 15:11:14.97	111.53	29.18	-36.6	-37.8	29.9	3.02e+01	58	41	0	14680064	48	5972
2026-01-22 15:11:15.98	111.91	29.12	-36.5	-37.7	30.1	3.02e+01	51	41	0	16777216	48	5868
2026-01-22 15:11:16.99	112.29	29.05	-36.6	-37.7	30.1	3.02e+01	59	41	0	18874368	48	5912
2026-01-22 15:11:18.00	112.67	28.98	-36.5	-37.6	30.1	3.02e+01	61	41	0	20447232	48	5853
2026-01-22 15:11:19.01	113.05	28.91	-36.6	-37.8	30.1	3.02e+01	44	41	0	22544384	48	5930
2026-01-22 15:11:20.02	113.42	28.84	-36.5	-37.7	30.1	3.02e+01	62	41	0	24117248	48	5870
2026-01-22 15:11:21.03	113.80	28.77	-36.5	-37.7	30.1	3.02e+01	58	41	0	26214400	48	5882
2026-01-22 15:11:22.04	114.17	28.70	-36.6	-37.8	29.9	3.02e+01	59	41	0	28311552	48	5961
2026-01-22 15:11:23.05	114.54	28.62	-36.7	-37.9	30.0	3.02e+01	61	41	0	29884416	48	6023
2026-01-22 15:11:24.06	114.91	28.55	-36.4	-37.5	30.2	3.02e+01	50	41	0	31981568	48	5771
2026-01-22 15:11:25.07	115.27	28.47	-36.5	-37.6	30.2	3.02e+01	58	41	0	34078720	48	5839
2026-01-22 15:11:26.08	115.64	28.40	-36.5	-37.7	30.1	3.02e+01	54	41	0	35651584	48	5876
2026-01-22 15:11:27.09	116.00	28.32	-36.5	-37.7	29.9	3.02e+01	61	41	0	37748736	48	5885
2026-01-22 15:11:28.10	116.36	28.24	-36.6	-37.7	30.0	3.02e+01	56	41	0	39321600	48	5924
2026-01-22 15:11:29.11	116.72	28.16	-36.6	-37.7	29.9	3.02e+01	44	41	0	41418752	48	5923
2026-01-22 15:11:30.12	117.08	28.08	-36.6	-37.8	30.0	3.02e+01	61	41	0	43515904	48	5967
2026-01-22 15:11:31.13	117.44	28.00	-36.6	-37.8	30.0	3.02e+01	57	41	0	45088768	48	5980
2026-01-22 15:11:32.13	117.79	27.92	-36.5	-37.7	30.0	3.02e+01	45	41	0	47185920	48	5870
2026-01-22 15:11:33.14	118.14	27.83	-36.5	-37.7	30.1	3.02e+01	59	41	0	48758784	48	5863
2026-01-22 15:11:34.15	118.49	27.75	-36.7	-37.9	29.8	3.02e+01	58	41	0	50855936	48	6031
2026-01-22 15:11:35.16	118.84	27.66	-36.7	-37.9	29.9	3.02e+01	60	41	0	52953088	48	6022
2026-01-22 15:11:36.17	119.18	27.58	-36.5	-37.7	30.1	3.02e+01	58	41	0	54525952	48	5870
2026-01-22 15:11:37.18	119.53	27.49	-36.7	-37.9	29.9	3.02e+01	59	41	0	56623104	48	6021
2026-01-22 15:11:38.19	119.87	27.40	-36.6	-37.8	29.9	3.02e+01	58	41	0	58720256	48	5961
2026-01-22 15:11:39.20	120.21	27.31	-36.7	-37.8	29.8	3.02e+01	57	41	0	60293120	48	5984
2026-01-22 15:11:40.21	120.55	27.23	-36.5	-37.7	30.1	3.02e+01	45	41	0	62390272	48	5878
2026-01-22 15:11:41.22	120.89	27.14	-36.8	-38.0	29.8	3.02e+01	59	41	0	63963136	48	6098
2026-01-22 15:11:42.23	121.22	27.05	-36.8	-38.0	29.7	3.02e+01	64	41	0	66060288	48	6074
2026-01-22 15:11:43.24	121.56	26.96	-36.7	-37.9	29.8	3.02e+01	59	41	0	68157440	48	6012
2026-01-22 15:11:44.25	121.89	26.86	-36.5	-37.7	30.0	3.02e+01	60	41	0	69730304	48	5885
2026-01-22 15:11:45.26	122.22	26.77	-36.6	-37.7	29.9	3.02e+01	58	41	0	71827456	48	5910
2026-01-22 15:11:46.26	122.54	26.68	-36.7	-37.9	29.8	3.02e+01	59	41	0	73400320	48	6033
2026-01-22 15:11:47.27	122.87	26.59	-36.8	-38.0	29.8	3.02e+01	63	41	0	75497472	48	6117
2026-01-22 15:11:48.28	123.19	26.49	-36.7	-37.9	29.7	3.02e+01	46	41	0	77594624	48	6057
2026-01-22 15:11:49.29	123.51	26.40	-36.7	-37.9	29.8	3.02e+01	58	41	0	79167488	48	6028
2026-01-22 15:11:50.30	123.83	26.30	-36.8	-38.0	29.7	3.02e+01	61	41	0	81264640	48	6116
2026-01-22 15:11:51.31	124.15	26.21	-36.8	-38.0	29.7	3.02e+01	63	41	0	82837504	48	6112
2026-01-22 15:11:52.32	124.46	26.11	-36.8	-38.0	29.7	3.02e+01	60	41	0	84934656	48	6123
2026-01-22 15:11:53.33	124.78	26.01	-36.7	-37.9	29.8	3.02e+01	51	41	0	87031808	48	6006
2026-01-22 15:11:54.34	125.09	25.92	-36.7	-37.9	29.9	3.02e+01	59	41	0	88604672	48	6002
2026-01-22 15:11:55.35	125.40	25.82	-36.8	-38.0	29.7	3.02e+01	58	41	0	90701824	48	6083
2026-01-22 15:11:56.36	125.71	25.72	-36.9	-38.0	29.7	3.02e+01	44	41	0	92274688	48	6130
2026-01-22 15:11:57.37	126.01	25.62	-37.0	-38.2	29.6	3.02e+01	60	41	0	94371840	48	6226
2026-01-22 15:11:58.38	126.32	25.52	-36.9	-38.1	29.5	3.02e+01	59	41	0	96468992	48	6191
2026-01-22 15:11:59.39	126.62	25.42	-36.8	-38.0	29.7	3.02e+01	57	41	0	98041856	48	6096
2026-01-22 15:12:00.39	126.92	25.33	-36.7	-37.9	29.8	3.02e+01	59	41	0	100139008	48	6013
2026-01-22 15:12:01.40	127.21	25.23	-36.8	-38.0	29.7	3.02e+01	48	41	0	102236160	48	6121
2026-01-22 15:12:02.41	127.51	25.12	-36.9	-38.1	29.5	3.02e+01	61	41	0	103809024	48	6157
2026-01-22 15:12:03.42	127.80	25.02	-36.8	-38.0	29.6	3.02e+01	58	41	0	105906176	48	6108
2026-01-22 15:12:04.43	128.10	24.92	-36.8	-38.0	29.7	3.02e+01	59	41	0	107479040	48	6070
2026-01-22 15:12:05.44	128.39	24.82	-36.9	-38.1	29.6	3.02e+01	56	41	0	109576192	48	6197
2026-01-22 15:12:06.45	128.68	24.72	-36.9	-38.1	29.7	3.02e+01	51	41	0	111673344	48	6152
2026-01-22 15:12:07.46	128.96	24.62	-37.0	-38.2	29.5	3.02e+01	57	41	0	113246208	48	6212
2026-01-22 15:12:08.47	129.25	24.51	-36.9	-38.1	29.5	3.02e+01	59	41	0	115343360	48	6187
2026-01-22 15:12:09.48	129.53	24.41	-37.0	-38.2	29.6	3.02e+01	52	41	0	116916224	48	6229
2026-01-22 15:12:10.49	129.81	24.31	-37.0	-38.2	29.6	3.02e+01	58	41	0	119013376	48	6225
2026-01-22 15:12:11.50	130.09	24.21	-37.1	-38.3	29.5	3.02e+01	57	41	0	121110528	48	6284
2026-01-22 15:12:12.51	130.37	24.10	-37.6	-38.8	29.0	3.02e+01	61	41	0	122683392	48	6703
2026-01-22 15:12:13.52	130.64	24.00	-37.1	-38.3	29.4	3.02e+01	58	41	0	124780544	48	6343
2026-01-22 15:12:14.53	130.92	23.90	-36.9	-38.1	29.6	3.02e+01	53	41	0	126353408	48	6202
2026-01-22 15:12:15.54	131.19	23.79	-36.9	-38.1	29.6	3.02e+01	60	41	0	128450560	48	6174
2026-01-22 15:12:16.54	131.46	23.69	-36.9	-38.1	29.6	3.02e+01	57	41	0	130547712	48	6190
2026-01-22 15:12:17.55	131.72	23.58	-37.0	-38.1	29.6	3.02e+01	53	41	0	132120576	48	6194
2026-01-22 15:12:18.56	131.99	23.48	-37.0	-38.2	29.5	3.02e+01	60	41	0	134217728	48	6227
2026-01-22 15:12:19.57	132.25	23.37	-36.9	-38.1	29.5	3.02e+01	57	41	0	135790592	48	6167
2026-01-22 15:12:20.58	132.52	23.27	-36.8	-38.0	29.6	3.02e+01	61	41	0	137887744	48	6119
2026-01-22 15:12:21.59	132.78	23.16	-36.9	-38.0	29.6	3.02e+01	59	41	0	139984896	48	6118
2026-01-22 15:12:22.60	133.04	23.06	-36.7	-37.9	29.7	3.02e+01	48	41	0	141557760	48	6023
2026-01-22 15:12:23.61	133.29	22.95	-36.9	-38.1	29.7	3.02e+01	58	41	0	143654912	48	6163
2026-01-22 15:12:24.62	133.55	22.85	-36.9	-38.1	29.5	3.02e+01	60	41	0	145227776	48	6203
2026-01-22 15:12:25.63	133.80	22.74	-37.0	-38.1	29.5	3.02e+01	46	41	0	147324928	48	6202
2026-01-22 15:12:26.64	134.06	22.64	-37.0	-38.1	29.5	3.02e+01	59	41	0	149422080	48	6204
2026-01-22 15:12:27.65	134.31	22.53	-36.9	-38.1	29.6	3.02e+01	58	41	0	150994944	48	6175
2026-01-22 15:12:28.66	134.55	22.43	-37.0	-38.2	29.5	3.02e+01	63	41	0	153092096	48	6215
2026-01-22 15:12:29.67	134.80	22.32	-36.9	-38.2	29.5	3.02e+01	59	41	0	155189248	48	6207
2026-01-22 15:12:30.68	135.05	22.22	-36.9	-38.1	29.5	3.02e+01	48	41	0	156762112	48	6167
2026-01-22 15:12:31.68	135.29	22.11	-36.8	-37.9	29.7	3.02e+01	59	41	0	158859264	48	6061
2026-01-22 15:12:32.69	135.53	22.01	-36.8	-37.9	29.7	3.02e+01	58	41	0	160432128	48	6059
2026-01-22 15:12:33.70	135.77	21.90	-36.7	-37.9	29.7	3.02e+01	62	41	0	162529280	48	6010
2026-01-22 15:12:34.71	136.01	21.79	-36.9	-38.1	29.6	3.02e+01	57	41	0	164626432	48	6193
2026-01-22 15:12:35.72	136.24	21.69	-37.0	-38.3	29.5	3.02e+01	61	41	0	166199296	48	6284
2026-01-22 15:12:36.73	136.48	21.58	-36.9	-38.1	29.6	3.02e+01	58	41	0	168296448	48	6183
2026-01-22 15:12:37.74	136.71	21.48	-36.9	-38.2	29.5	3.02e+01	54	41	0	170393600	48	6206
2026-01-22 15:12:38.75	136.94	21.37	-36.9	-38.0	29.6	3.02e+01	47	41	0	171966464	48	6131
2026-01-22 15:12:39.76	137.18	21.27	-36.7	-37.8	29.8	3.02e+01	54	41	0	174063616	48	5982
2026-01-22 15:12:40.77	137.40	21.16	-36.6	-37.8	29.9	3.02e+01	61	41	0	175636480	48	5970
2026-01-22 15:12:41.78	137.63	21.06	-36.7	-37.9	29.7	3.02e+01	56	41	0	177733632	48	6043
2026-01-22 15:12:42.79	137.86	20.95	-36.7	-37.8	29.8	3.02e+01	62	41	0	179830784	48	5988
2026-01-22 15:12:43.80	138.08	20.84	-36.8	-38.0	29.7	3.02e+01	53	41	0	181403648	48	6066
2026-01-22 15:12:44.80	138.30	20.74	-36.8	-38.0	29.6	3.02e+01	60	41	0	183500800	48	6098
2026-01-22 15:12:45.81	138.52	20.63	-36.7	-37.9	29.7	3.02e+01	58	41	0	185073664	48	6047
2026-01-22 15:12:46.82	138.74	20.53	-36.8	-38.0	29.7	3.02e+01	45	41	0	187170816	48	6084
2026-01-22 15:12:47.83	138.96	20.42	-36.8	-38.0	29.7	3.02e+01	60	41	0	189267968	48	6097
2026-01-22 15:12:48.84	139.17	20.32	-36.8	-37.9	29.7	3.02e+01	60	41	0	190840832	48	6058
2026-01-22 15:12:49.85	139.39	20.21	-36.6	-37.8	29.9	3.02e+01	57	41	0	192937984	48	5979
2026-01-22 15:12:50.86	139.60	20.11	-36.6	-37.8	29.9	3.02e+01	60	41	0	194510848	48	5946
2026-01-22 15:12:51.87	139.81	20.00	-36.7	-37.9	29.8	3.02e+01	59	41	0	196608000	48	6039
2026-01-22 15:12:52.88	140.02	19.90	-36.8	-38.0	29.7	3.02e+01	57	41	0	198705152	48	6069
2026-01-22 15:12:53.89	140.23	19.80	-36.8	-38.0	29.8	3.02e+01	59	41	0	200278016	48	6071
2026-01-22 15:12:54.90	140.44	19.69	-36.8	-38.0	29.7	3.02e+01	52	41	0	202375168	48	6130
2026-01-22 15:12:55.91	140.64	19.59	-36.9	-38.1	29.5	3.02e+01	57	41	0	203948032	48	6155
2026-01-22 15:12:56.92	140.85	19.48	-36.8	-38.0	29.5	3.02e+01	56	41	0	206045184	48	6100
2026-01-22 15:12:57.93	141.05	19.38	-36.9	-38.1	29.4	3.02e+01	57	41	0	208142336	48	6171
2026-01-22 15:12:58.94	141.25	19.28	-36.6	-37.8	29.7	3.02e+01	60	41	0	209715200	48	5957
2026-01-22 15:12:59.95	141.45	19.17	-36.6	-37.8	29.7	3.02e+01	46	41	0	211812352	48	5962
2026-01-22 15:13:00.96	141.65	19.07	-36.6	-37.8	29.6	3.02e+01	59	41	0	213385216	48	5972
2026-01-22 15:13:01.97	141.85	18.96	-36.7	-37.9	29.6	3.02e+01	58	41	0	215482368	48	6026
2026-01-22 15:13:02.98	142.05	18.86	-36.7	-37.8	29.6	3.02e+01	54	41	0	217579520	48	5982
2026-01-22 15:13:03.99	142.24	18.76	-36.6	-37.8	29.7	3.02e+01	63	41	0	219152384	48	5948
2026-01-22 15:13:05.00	142.43	18.66	-36.7	-37.9	29.6	3.02e+01	58	41	0	221249536	48	6014
2026-01-22 15:13:06.01	142.63	18.55	-36.5	-37.6	29.9	3.02e+01	58	41	0	223346688	48	5845
2026-01-22 15:13:07.02	142.82	18.45	-36.6	-37.8	29.8	3.02e+01	60	41	0	224919552	48	5929
2026-01-22 15:13:08.03	143.00	18.35	-36.5	-37.7	29.8	3.02e+01	57	41	0	227016704	48	5887
2026-01-22 15:13:09.04	143.19	18.25	-36.6	-37.8	29.7	3.02e+01	59	41	0	228589568	48	5962
2026-01-22 15:13:10.05	143.38	18.14	-36.7	-37.9	29.6	3.02e+01	59	41	0	230686720	48	6023
2026-01-22 15:13:11.06	143.56	18.04	-36.6	-37.8	29.7	3.02e+01	55	41	0	232783872	48	5968
2026-01-22 15:13:12.07	143.75	17.94	-36.6	-37.8	29.7	3.02e+01	57	41	0	234356736	48	5931
2026-01-22 15:13:13.08	143.93	17.84	-36.7	-37.9	29.6	3.02e+01	46	41	0	236453888	48	6011
2026-01-22 15:13:14.09	144.11	17.74	-36.8	-38.0	29.5	3.02e+01	59	41	0	238026752	48	6099
2026-01-22 15:13:15.10	144.29	17.64	-36.6	-37.8	29.7	3.02e+01	58	41	0	240123904	48	5937
2026-01-22 15:13:16.11	144.47	17.54	-36.5	-37.7	29.7	3.02e+01	51	41	0	242221056	48	5901
2026-01-22 15:13:17.12	144.65	17.44	-36.8	-38.0	29.5	3.02e+01	58	41	0	243793920	48	6071
2026-01-22 15:13:18.13	144.83	17.34	-36.7	-37.9	29.6	3.02e+01	52	41	0	245891072	48	6015
2026-01-22 15:13:19.14	145.00	17.23	-36.6	-37.8	29.8	3.02e+01	59	41	0	247988224	48	5967
2026-01-22 15:13:20.15	145.18	17.13	-36.7	-37.9	29.7	3.02e+01	61	41	0	249561088	48	6053
2026-01-22 15:13:21.16	145.35	17.04	-36.7	-37.9	29.7	3.02e+01	61	41	0	251658240	48	6005
2026-01-22 15:13:22.16	145.52	16.94	-36.6	-37.8	29.7	3.02e+01	60	41	0	253231104	48	5974
2026-01-22 15:13:23.17	145.69	16.84	-36.7	-37.9	29.6	3.02e+01	60	41	0	255328256	48	6049
2026-01-22 15:13:24.18	145.86	16.74	-36.6	-37.8	29.7	3.02e+01	47	41	0	257425408	48	5927
2026-01-22 15:13:25.19	146.03	16.64	-36.6	-37.8	29.6	3.02e+01	60	41	0	258998272	48	5978
2026-01-22 15:13:26.20	146.20	16.54	-36.6	-37.8	29.7	3.02e+01	60	41	0	261095424	48	5958
2026-01-22 15:13:27.22	146.36	16.44	-36.6	-37.8	29.7	3.02e+01	60	41	0	262668288	48	5939
2026-01-22 15:13:28.22	146.53	16.34	-36.6	-37.8	29.6	3.02e+01	58	41	0	264765440	48	5974
2026-01-22 15:13:29.23	146.69	16.25	-36.5	-37.7	29.7	3.02e+01	45	41	0	266862592	48	5906
2026-01-22 15:13:30.24	146.85	16.15	-36.6	-37.8	29.6	3.02e+01	58	41	0	268435456	48	5972
2026-01-22 15:13:31.25	147.02	16.05	-36.5	-37.6	29.8	3.02e+01	61	41	0	270532608	48	5857
2026-01-22 15:13:32.26	147.18	15.95	-36.6	-37.8	29.7	3.02e+01	50	41	0	272105472	48	5930
2026-01-22 15:13:33.27	147.34	15.86	-36.6	-37.8	29.7	3.02e+01	62	41	0	274202624	48	5940
2026-01-22 15:13:34.28	147.49	15.76	-36.5	-37.7	29.8	3.02e+01	58	41	0	276299776	48	5911
2026-01-22 15:13:35.30	147.65	15.66	-36.6	-37.7	29.8	3.02e+01	59	41	0	277872640	48	5914
2026-01-22 15:13:36.31	147.81	15.56	-36.6	-37.8	29.8	3.02e+01	58	41	0	279969792	48	5972
2026-01-22 15:13:37.32	147.97	15.47	-36.7	-37.9	29.6	3.02e+01	48	41	0	281542656	48	6055
2026-01-22 15:13:38.33	148.12	15.37	-36.7	-38.0	29.6	3.02e+01	57	41	0	283639808	48	6067
2026-01-22 15:13:39.34	148.27	15.28	-36.8	-38.0	29.6	3.02e+01	58	41	0	285736960	48	6097
2026-01-22 15:13:40.34	148.42	15.18	-36.7	-37.9	29.6	3.02e+01	57	41	0	287309824	48	6049
2026-01-22 15:13:41.35	148.58	15.09	-36.8	-38.0	29.6	3.02e+01	59	41	0	289406976	48	6087
2026-01-22 15:13:42.36	148.73	14.99	-36.9	-38.1	29.4	3.02e+01	56	41	0	291504128	48	6164
2026-01-22 15:13:43.38	148.88	14.90	-36.7	-37.9	29.6	3.02e+01	58	41	0	293076992	48	5999
2026-01-22 15:13:44.38	149.02	14.80	-36.7	-37.9	29.6	3.02e+01	57	41	0	295174144	48	6017
2026-01-22 15:13:45.40	149.17	14.71	-36.6	-37.8	29.6	3.02e+01	49	41	0	296747008	48	5946
2026-01-22 15:13:46.41	149.32	14.61	-36.7	-37.8	29.6	3.02e+01	58	41	0	298844160	48	5988
2026-01-22 15:13:47.41	149.46	14.52	-36.7	-37.9	29.6	3.02e+01	57	41	0	300941312	48	6005
2026-01-22 15:13:48.42	149.61	14.43	-36.8	-38.0	29.6	3.02e+01	58	41	0	302514176	48	6093
2026-01-22 15:13:49.43	149.75	14.33	-36.8	-37.9	29.5	3.02e+01	60	41	0	304611328	48	6058
2026-01-22 15:13:50.44	149.89	14.24	-36.7	-37.9	29.7	3.02e+01	47	41	0	306184192	48	6019
2026-01-22 15:13:51.45	150.03	14.15	-36.9	-38.1	29.5	3.02e+01	54	41	0	308281344	48	6148
2026-01-22 15:13:52.46	150.18	14.05	-36.8	-38.0	29.6	3.02e+01	59	41	0	310378496	48	6087
2026-01-22 15:13:53.47	150.32	13.96	-36.9	-38.1	29.5	3.02e+01	45	41	0	311951360	48	6162
2026-01-22 15:13:54.48	150.45	13.87	-36.9	-38.1	29.4	3.02e+01	59	41	0	314048512	48	6148
2026-01-22 15:13:55.49	150.59	13.78	-36.9	-38.1	29.5	3.02e+01	62	41	0	316145664	48	6165
2026-01-22 15:13:56.50	150.73	13.69	-36.9	-38.1	29.5	3.02e+01	54	41	0	317718528	48	6152
2026-01-22 15:13:57.51	150.87	13.59	-37.0	-38.2	29.4	3.02e+01	57	41	0	319815680	48	6225
2026-01-22 15:13:58.52	151.00	13.50	-36.8	-38.0	29.4	3.02e+01	60	41	0	321388544	48	6118
2026-01-22 15:13:59.53	151.14	13.41	-37.0	-38.2	29.3	3.02e+01	50	41	0	323485696	48	6244
2026-01-22 15:14:00.51	151.27	13.32	-37.1	-38.3	29.2	3.02e+01	60	41	0	325058560	48	6303
2026-01-22 15:14:01.51	151.40	13.23	-36.9	-38.1	29.3	3.02e+01	43	41	0	327155712	48	6191
2026-01-22 15:14:02.52	151.53	13.14	-36.8	-38.0	29.5	3.02e+01	59	41	0	329252864	48	6096
2026-01-22 15:14:03.53	151.66	13.05	-36.9	-38.1	29.4	3.02e+01	59	41	0	330825728	48	6143
2026-01-22 15:14:04.54	151.79	12.96	-36.9	-38.1	29.4	3.02e+01	61	41	0	332922880	48	6177
2026-01-22 15:14:05.55	151.92	12.88	-37.1	-38.3	29.3	3.02e+01	61	41	0	334495744	48	6299
2026-01-22 15:14:06.56	152.05	12.79	-36.9	-38.1	29.3	3.02e+01	53	41	0	336592896	48	6175
2026-01-22 15:14:07.57	152.18	12.70	-37.0	-38.2	29.3	3.02e+01	61	41	0	338690048	48	6214
2026-01-22 15:14:08.58	152.31	12.61	-37.0	-38.2	29.3	3.02e+01	61	41	0	340262912	48	6211
2026-01-22 15:14:09.59	152.43	12.52	-37.1	-38.3	29.1	3.02e+01	46	41	0	342360064	48	6334
2026-01-22 15:14:10.60	152.56	12.43	-37.4	-38.6	28.9	3.02e+01	60	41	0	344457216	48	6535
2026-01-22 15:14:11.61	152.68	12.34	-37.2	-38.4	29.1	3.02e+01	61	41	0	346030080	48	6401
2026-01-22 15:14:12.62	152.81	12.26	-37.4	-38.6	28.9	3.02e+01	60	41	0	348127232	48	6533
2026-01-22 15:14:13.63	152.93	12.17	-37.6	-38.8	28.6	3.02e+01	62	41	0	349700096	48	6694
2026-01-22 15:14:14.64	153.05	12.08	-37.9	-39.1	28.4	3.02e+01	56	41	0	351797248	48	6933
2026-01-22 15:14:15.65	153.17	11.99	-37.9	-39.2	28.1	3.02e+01	57	41	0	353894400	48	7013
2026-01-22 15:14:16.66	153.30	11.91	-38.3	-39.6	27.8	3.02e+01	61	41	0	355467264	50	6516
2026-01-22 15:14:17.67	153.42	11.82	-38.5	-39.8	27.5	3.02e+01	44	41	0	357564416	50	6722
2026-01-22 15:14:18.68	153.54	11.73	-38.8	-40.1	27.2	3.02e+01	54	41	0	359661568	50	6959
2026-01-22 15:14:19.69	153.65	11.65	-39.3	-40.7	26.7	3.02e+01	49	41	0	361234432	52	6580
2026-01-22 15:14:20.70	153.77	11.56	-39.7	-41.1	26.1	3.02e+01	60	41	0	363331584	52	6943
2026-01-22 15:14:21.71	153.89	11.48	-39.7	-41.2	26.0	3.02e+01	55	41	0	364904448	52	6969
2026-01-22 15:14:22.72	154.01	11.39	-40.0	-41.5	25.5	3.02e+01	55	41	0	367001600	54	6487
2026-01-22 15:14:23.73	154.12	11.30	-40.3	-41.8	25.2	3.02e+01	62	41	0	369098752	54	6703
2026-01-22 15:14:24.74	154.24	11.22	-40.5	-42.1	24.9	3.02e+01	60	41	0	370671616	54	6894
2026-01-22 15:14:25.75	154.35	11.13	-40.8	-42.4	24.6	3.02e+01	61	41	0	372768768	54	7173
2026-01-22 15:14:26.76	154.47	11.05	-40.9	-42.6	23.2	3.02e+01	58	41	0	374341632	54	7292
2026-01-22 15:14:27.77	154.58	10.97	-41.3	-43.0	24.0	3.02e+01	46	41	0	376438784	56	6861
2026-01-22 15:14:28.78	154.69	10.88	-41.5	-43.2	23.9	3.02e+01	61	41	0	378535936	56	7020
2026-01-22 15:14:29.78	154.80	10.80	-41.8	-43.6	23.5	3.02e+01	59	41	0	380108800	56	7324
2026-01-22 15:14:30.80	154.92	10.71	-41.8	-43.5	23.5	3.02e+01	45	41	0	382205952	56	7278
2026-01-22 15:14:31.81	155.03	10.63	-41.8	-43.6	23.4	3.02e+01	59	41	0	383778816	56	7335
2026-01-22 15:14:32.82	155.14	10.55	-41.7	-43.4	23.7	3.02e+01	61	41	0	385875968	58	6386
2026-01-22 15:14:33.83	155.25	10.46	-41.6	-43.3	23.8	3.02e+01	59	41	0	387973120	58	6334
2026-01-22 15:14:34.84	155.35	10.38	-41.6	-43.3	23.9	3.02e+01	59	41	0	389545984	58	6289
2026-01-22 15:14:35.85	155.46	10.30	-41.3	-42.9	24.4	3.02e+01	58	41	0	391643136	58	6022
2026-01-22 15:14:36.86	155.57	10.22	-41.1	-42.8	24.5	3.02e+01	60	41	0	393216000	58	5935
2026-01-22 15:14:37.87	155.68	10.14	-41.0	-42.6	24.7	3.02e+01	60	41	0	395313152	58	5856
2026-01-22 15:14:38.88	155.78	10.05	-40.7	-42.2	25.0	3.02e+01	45	41	0	397410304	56	6276
2026-01-22 15:14:39.89	155.89	9.97	-40.6	-42.1	25.2	3.02e+01	57	41	0	398983168	56	6159
2026-01-22 15:14:40.90	155.99	9.89	-40.6	-42.1	25.3	3.02e+01	57	41	0	401080320	56	6164
2026-01-22 15:14:41.90	156.10	9.81	-40.0	-41.4	26.0	3.02e+01	58	41	0	402653184	56	5705
2026-01-22 15:14:42.91	156.20	9.73	-40.0	-41.5	25.9	3.02e+01	58	41	0	404750336	54	6433
2026-01-22 15:14:43.92	156.30	9.65	-39.2	-40.6	26.8	3.02e+01	49	41	0	406847488	54	5834
2026-01-22 15:14:44.93	156.41	9.57	-39.2	-40.6	26.7	3.02e+01	56	41	0	408420352	54	5839
2026-01-22 15:14:45.94	156.51	9.49	-39.0	-40.3	27.0	3.02e+01	59	41	0	410517504	54	5647
2026-01-22 15:14:46.95	156.61	9.41	-38.7	-40.0	27.4	3.02e+01	44	41	0	412614656	52	6091
2026-01-22 15:14:47.96	156.71	9.33	-38.8	-40.1	27.4	3.02e+01	61	41	0	414187520	52	6153
2026-01-22 15:14:48.97	156.81	9.25	-38.5	-39.8	27.7	3.02e+01	59	41	0	416284672	52	5955
2026-01-22 15:14:49.98	156.91	9.17	-38.6	-39.9	27.7	3.02e+01	61	41	0	417857536	52	6011
2026-01-22 15:14:50.99	157.01	9.09	-38.2	-39.5	28.0	3.02e+01	60	41	0	419954688	52	5730
2026-01-22 15:14:52.00	157.11	9.01	-38.3	-39.6	27.9	3.02e+01	49	41	0	422051840	52	5828
2026-01-22 15:14:53.01	157.21	8.93	-37.9	-39.2	28.3	3.02e+01	62	41	0	423624704	52	5538
2026-01-22 15:14:54.02	157.30	8.85	-38.2	-39.4	28.0	3.02e+01	59	41	0	425721856	50	6422
2026-01-22 15:14:55.03	157.40	8.77	-38.2	-39.5	28.1	3.02e+01	54	41	0	427294720	50	6426
2026-01-22 15:14:56.03	157.50	8.70	-38.4	-39.7	27.9	3.02e+01	61	41	0	429391872	50	6595
2026-01-22 15:14:57.05	157.59	8.62	-38.5	-39.8	27.6	3.02e+01	61	41	0	431489024	50	6706
2026-01-22 15:14:58.05	157.69	8.54	-38.9	-40.2	27.4	3.02e+01	58	41	0	433061888	50	6987
2026-01-22 15:14:59.07	157.78	8.46	-38.4	-39.6	27.9	3.02e+01	61	41	0	435159040	50	6568
2026-01-22 15:15:00.08	157.88	8.39	-38.3	-39.6	27.9	3.02e+01	53	41	0	436731904	50	6556
2026-01-22 15:15:01.09	157.97	8.31	-38.3	-39.6	27.8	3.02e+01	60	41	0	438829056	50	6568
2026-01-22 15:15:02.10	158.07	8.23	-38.3	-39.6	27.9	3.02e+01	55	41	0	440926208	50	6509
2026-01-22 15:15:03.11	158.16	8.15	-38.4	-39.7	27.8	3.02e+01	60	41	0	442499072	50	6622
2026-01-22 15:15:04.12	158.25	8.08	-38.2	-39.5	27.9	3.02e+01	59	41	0	444596224	50	6471
2026-01-22 15:15:05.13	158.34	8.00	-38.3	-39.6	27.9	3.02e+01	44	41	0	446693376	50	6500
2026-01-22 15:15:06.14	158.43	7.93	-38.3	-39.6	27.9	3.02e+01	60	41	0	448266240	50	6550
2026-01-22 15:15:07.15	158.52	7.85	-38.3	-39.6	27.9	3.02e+01	59	41	0	450363392	50	6512
2026-01-22 15:15:08.15	158.61	7.77	-38.2	-39.5	28.0	3.02e+01	44	41	0	451936256	50	6446
2026-01-22 15:15:09.16	158.70	7.70	-38.1	-39.4	28.0	3.02e+01	60	41	0	454033408	50	6404
2026-01-22 15:15:10.17	158.79	7.62	-38.2	-39.5	27.9	3.02e+01	58	41	0	456130560	50	6433
2026-01-22 15:15:11.18	158.88	7.55	-38.2	-39.5	28.0	3.02e+01	60	41	0	457703424	50	6428
2026-01-22 15:15:12.19	158.97	7.47	-38.2	-39.5	28.0	3.02e+01	61	41	0	459800576	50	6439
2026-01-22 15:15:13.20	159.06	7.40	-38.3	-39.6	27.8	3.02e+01	58	41	0	461373440	50	6538
2026-01-22 15:15:14.21	159.15	7.32	-38.4	-39.6	27.8	3.02e+01	59	41	0	463470592	50	6568
2026-01-22 15:15:15.22	159.23	7.25	-38.3	-39.6	27.8	3.02e+01	59	41	0	465567744	50	6515
2026-01-22 15:15:16.23	159.32	7.18	-38.4	-39.7	27.8	3.02e+01	54	41	0	467140608	50	6585
2026-01-22 15:15:17.24	159.40	7.10	-38.3	-39.6	27.8	3.02e+01	59	41	0	469237760	50	6511
2026-01-22 15:15:18.25	159.49	7.03	-38.6	-39.9	27.6	3.02e+01	62	41	0	470810624	50	6737
2026-01-22 15:15:19.26	159.58	6.95	-38.4	-39.7	27.7	3.02e+01	54	41	0	472907776	50	6613
2026-01-22 15:15:20.27	159.66	6.88	-38.4	-39.6	27.8	3.02e+01	61	41	0	475004928	50	6572
2026-01-22 15:15:21.28	159.74	6.81	-38.6	-39.9	27.5	3.02e+01	56	41	0	476577792	50	6801
2026-01-22 15:15:22.29	159.83	6.73	-38.8	-40.1	27.3	3.02e+01	60	41	0	478674944	50	6949
2026-01-22 15:15:23.30	159.91	6.66	-38.5	-39.9	27.5	3.02e+01	57	41	0	480772096	50	6728
2026-01-22 15:15:24.31	159.99	6.59	-38.6	-39.9	27.6	3.02e+01	47	41	0	482344960	50	6762
2026-01-22 15:15:25.32	160.08	6.52	-38.7	-40.1	27.4	3.02e+01	56	41	0	484442112	50	6901
