passes_logs/2026/01/22/R4.6S_Anadyr/R4.6S_Anadyr__20260122_210351_TY-39_rec.log

#Pass ID: 20260122_210351_TY-39
#Satellite: TY-39
#Configuration: TY-39
#almurnet v.1.7.20251203
#Start time: 2026-01-22 21:03:57

#Version: 2.2.20231116
#Station: R4.6S_Anadyr
#Location: 177.4865 lon 64.73178 lat
#TLE: 1 51832U 22019J   26022.26750231  .00003894  00000-0  18539-3 0  9994
#TLE: 2 51832  97.3626  88.7794 0009273  30.1891 329.9876 15.19696318215630

#Time	Az	El	Level	Level2	SNR	BER	BlckErr	Temp	State	Recorded	gain1	gain2
2026-01-22 21:03:57.86	23.66	0.24	-51.2	-62.7	3.5	8.44e-01	0	39	0	0	60	49506
2026-01-22 21:03:58.87	23.75	0.29	-51.4	-53.9	3.6	0.00e+00	0	40	104	0	60	60609
2026-01-22 21:03:59.88	23.85	0.34	-51.5	-53.9	3.6	0.00e+00	0	40	104	0	60	60971
2026-01-22 21:04:00.89	23.95	0.40	-51.5	-54.0	3.6	0.00e+00	0	40	104	0	60	61315
2026-01-22 21:04:01.89	24.05	0.45	-51.5	-54.0	3.6	0.00e+00	0	40	104	0	60	61260
2026-01-22 21:04:02.90	24.14	0.50	-51.5	-53.9	3.6	0.00e+00	0	40	104	0	60	60940
2026-01-22 21:04:03.92	24.24	0.56	-51.4	-53.9	3.6	0.00e+00	0	40	104	0	60	60851
2026-01-22 21:04:04.92	24.34	0.61	-51.4	-53.8	3.6	0.00e+00	0	40	104	0	60	60246
2026-01-22 21:04:05.94	24.44	0.67	-51.4	-53.8	3.6	0.00e+00	0	40	104	0	60	60324
2026-01-22 21:04:06.94	24.54	0.72	-51.3	-53.8	3.6	0.00e+00	0	40	104	0	60	59775
2026-01-22 21:04:07.95	24.65	0.77	-51.4	-53.8	3.6	0.00e+00	0	40	104	0	60	60327
2026-01-22 21:04:08.96	24.75	0.83	-51.2	-53.7	3.6	0.00e+00	0	40	104	0	60	59534
2026-01-22 21:04:09.97	24.85	0.88	-51.2	-53.7	3.6	0.00e+00	0	41	104	0	60	59490
2026-01-22 21:04:10.98	24.95	0.94	-51.1	-53.6	3.6	0.00e+00	0	41	104	0	60	58711
2026-01-22 21:04:11.99	25.05	0.99	-51.0	-53.5	3.6	0.00e+00	0	40	104	0	60	58108
2026-01-22 21:04:12.99	25.16	1.05	-50.7	-53.3	3.6	0.00e+00	0	41	104	0	60	56485
2026-01-22 21:04:14.00	25.26	1.10	-51.0	-53.4	3.6	0.00e+00	0	41	104	0	60	57457
2026-01-22 21:04:15.01	25.36	1.16	-50.6	-53.1	3.6	0.00e+00	0	41	104	0	60	55490
2026-01-22 21:04:16.02	25.47	1.21	-50.8	-53.3	3.6	0.00e+00	0	41	104	0	60	56376
2026-01-22 21:04:17.03	25.57	1.27	-50.6	-53.0	3.6	0.00e+00	0	41	104	0	60	54894
2026-01-22 21:04:18.04	25.68	1.32	-50.4	-52.9	3.6	0.00e+00	0	41	104	0	60	54020
2026-01-22 21:04:19.05	25.79	1.38	-50.0	-52.4	3.6	0.00e+00	0	41	104	0	60	51231
2026-01-22 21:04:20.06	25.89	1.43	-49.9	-52.3	3.6	0.00e+00	0	41	104	0	60	50583
2026-01-22 21:04:21.07	26.00	1.49	-49.8	-52.3	3.6	0.00e+00	0	41	104	0	60	50490
2026-01-22 21:04:22.08	26.11	1.54	-49.8	-52.3	3.6	0.00e+00	0	41	104	0	60	50270
2026-01-22 21:04:23.09	26.21	1.60	-49.8	-52.3	3.6	0.00e+00	0	41	104	0	60	50557
2026-01-22 21:04:24.10	26.32	1.65	-49.8	-52.3	3.5	0.00e+00	0	41	104	0	60	50723
2026-01-22 21:04:25.11	26.43	1.71	-49.8	-52.3	3.6	0.00e+00	0	41	104	0	60	50378
2026-01-22 21:04:26.12	26.54	1.76	-49.8	-52.3	3.6	0.00e+00	0	41	104	0	60	50303
2026-01-22 21:04:27.13	26.65	1.82	-49.8	-52.3	3.6	0.00e+00	0	41	104	0	60	50535
2026-01-22 21:04:28.14	26.76	1.87	-49.8	-52.3	3.6	0.00e+00	0	41	104	0	60	50594
2026-01-22 21:04:29.15	26.87	1.93	-49.8	-52.3	3.6	0.00e+00	0	41	104	0	60	50505
2026-01-22 21:04:30.16	26.99	1.99	-49.8	-52.3	3.6	0.00e+00	0	41	104	0	60	50494
2026-01-22 21:04:31.17	27.10	2.04	-49.8	-52.3	3.6	0.00e+00	0	41	104	0	60	50487
2026-01-22 21:04:32.18	27.21	2.10	-49.8	-52.3	3.6	0.00e+00	0	41	104	0	60	50450
2026-01-22 21:04:33.19	27.32	2.15	-49.8	-52.3	3.6	0.00e+00	0	41	104	0	60	50419
2026-01-22 21:04:34.20	27.44	2.21	-49.8	-52.3	3.6	0.00e+00	0	41	104	0	60	50527
2026-01-22 21:04:35.20	27.55	2.26	-49.8	-52.3	3.6	0.00e+00	0	41	104	0	60	50470
2026-01-22 21:04:36.21	27.66	2.32	-49.8	-52.3	3.6	0.00e+00	0	41	104	0	60	50493
2026-01-22 21:04:37.22	27.78	2.38	-49.8	-52.3	3.6	0.00e+00	0	41	104	0	60	50634
2026-01-22 21:04:38.23	27.90	2.43	-49.8	-52.3	3.6	0.00e+00	0	41	104	0	60	50197
2026-01-22 21:04:39.24	28.01	2.49	-49.8	-52.3	3.6	0.00e+00	0	41	104	0	60	50446
2026-01-22 21:04:40.25	28.13	2.55	-49.8	-52.3	3.6	0.00e+00	0	41	104	0	60	50280
2026-01-22 21:04:41.27	28.25	2.60	-49.8	-52.3	3.6	0.00e+00	0	41	104	0	60	50414
2026-01-22 21:04:42.27	28.36	2.66	-49.8	-52.3	3.6	0.00e+00	0	41	104	0	60	50551
2026-01-22 21:04:43.28	28.48	2.72	-49.8	-52.3	3.6	0.00e+00	0	41	104	0	60	50426
2026-01-22 21:04:44.29	28.60	2.77	-49.8	-52.3	3.6	0.00e+00	0	41	104	0	60	50257
2026-01-22 21:04:45.30	28.72	2.83	-49.8	-52.3	3.6	0.00e+00	0	41	104	0	60	50436
2026-01-22 21:04:46.31	28.84	2.89	-49.8	-52.3	3.6	0.00e+00	0	41	104	0	60	50592
2026-01-22 21:04:47.32	28.96	2.94	-49.8	-52.2	3.6	0.00e+00	0	42	104	0	60	50011
2026-01-22 21:04:48.33	29.08	3.00	-49.8	-52.3	3.6	0.00e+00	0	41	104	0	60	50596
2026-01-22 21:04:49.34	29.20	3.06	-49.8	-52.3	3.6	0.00e+00	0	41	104	0	60	50597
2026-01-22 21:04:50.35	29.33	3.12	-49.8	-52.3	3.6	0.00e+00	0	42	104	0	60	50364
2026-01-22 21:04:51.36	29.45	3.17	-49.8	-52.3	3.6	0.00e+00	0	42	104	0	60	50357
2026-01-22 21:04:52.37	29.57	3.23	-49.8	-52.4	3.6	0.00e+00	0	42	104	0	60	51013
2026-01-22 21:04:53.38	29.70	3.29	-50.0	-52.4	3.6	0.00e+00	0	41	104	0	60	51174
2026-01-22 21:04:54.38	29.82	3.34	-49.8	-52.3	3.6	0.00e+00	0	42	104	0	60	50681
2026-01-22 21:04:55.39	29.95	3.40	-49.7	-52.2	3.6	0.00e+00	0	42	104	0	60	50027
2026-01-22 21:04:56.40	30.07	3.46	-49.5	-52.0	3.6	0.00e+00	0	41	104	0	60	48826
2026-01-22 21:04:57.41	30.20	3.52	-50.0	-52.4	3.6	0.00e+00	0	42	104	0	60	51102
2026-01-22 21:04:58.42	30.33	3.57	-50.0	-52.4	3.6	0.00e+00	0	42	104	0	60	51192
2026-01-22 21:04:59.43	30.45	3.63	-49.6	-52.1	3.6	0.00e+00	0	42	104	0	60	49117
2026-01-22 21:05:00.44	30.58	3.69	-49.9	-52.4	3.6	0.00e+00	0	42	104	0	60	51144
2026-01-22 21:05:01.45	30.71	3.75	-50.0	-52.5	3.6	0.00e+00	0	42	104	0	60	51702
2026-01-22 21:05:02.46	30.84	3.81	-49.9	-52.3	3.6	0.00e+00	0	42	104	0	60	50745
2026-01-22 21:05:03.46	30.97	3.86	-49.9	-52.5	3.6	0.00e+00	0	42	104	0	60	51381
2026-01-22 21:05:04.47	31.10	3.92	-49.8	-52.3	3.6	0.00e+00	0	42	104	0	60	50380
2026-01-22 21:05:05.48	31.23	3.98	-49.8	-52.4	3.6	0.00e+00	0	42	104	0	60	50815
2026-01-22 21:05:06.49	31.37	4.04	-49.8	-52.3	3.6	0.00e+00	0	42	104	0	60	50391
2026-01-22 21:05:07.50	31.50	4.10	-49.7	-52.3	3.6	0.00e+00	0	42	104	0	60	50218
2026-01-22 21:05:08.51	31.63	4.15	-49.8	-52.4	3.6	0.00e+00	0	42	104	0	60	50871
2026-01-22 21:05:09.52	31.77	4.21	-50.1	-52.5	3.6	0.00e+00	0	42	104	0	60	51857
2026-01-22 21:05:10.53	31.90	4.27	-50.1	-52.6	3.6	0.00e+00	0	42	104	0	60	52065
2026-01-22 21:05:11.54	32.04	4.33	-49.9	-52.4	3.6	0.00e+00	0	42	104	0	60	50956
2026-01-22 21:05:12.55	32.17	4.39	-50.1	-52.6	3.6	0.00e+00	0	42	104	0	60	52193
2026-01-22 21:05:13.55	32.31	4.45	-50.2	-52.6	3.6	0.00e+00	0	42	104	0	60	52297
2026-01-22 21:05:14.56	32.45	4.50	-50.2	-52.6	3.6	0.00e+00	0	42	104	0	60	52518
2026-01-22 21:05:15.57	32.58	4.56	-50.0	-52.5	3.6	0.00e+00	0	42	104	0	60	51604
2026-01-22 21:05:16.58	32.72	4.62	-50.2	-52.6	3.6	0.00e+00	0	42	104	0	60	52497
2026-01-22 21:05:17.59	32.86	4.68	-50.1	-52.6	3.6	0.00e+00	0	42	104	0	60	52231
2026-01-22 21:05:18.60	33.00	4.74	-50.1	-52.6	3.6	0.00e+00	0	42	104	0	60	52098
2026-01-22 21:05:19.61	33.14	4.80	-50.0	-52.5	3.6	0.00e+00	0	42	104	0	60	51516
2026-01-22 21:05:20.62	33.28	4.86	-44.2	-44.9	4.4	0.00e+00	520	42	104	0	60	21566
2026-01-22 21:05:21.62	33.43	4.92	-46.8	-46.7	5.5	0.00e+00	2205	42	0	0	60	26512
2026-01-22 21:05:22.63	33.57	4.98	-42.9	-42.9	7.7	2.80e-01	0	42	0	83886080	60	17148
2026-01-22 21:05:23.64	33.71	5.03	-40.1	-40.3	10.0	1.84e-02	0	42	0	159383552	56	16050
2026-01-22 21:05:24.65	33.86	5.09	-37.8	-38.2	11.7	3.92e-03	0	42	0	234881024	52	15735
2026-01-22 21:05:25.66	34.00	5.15	-36.2	-36.5	12.9	1.11e-04	0	42	0	310378496	48	16418
2026-01-22 21:05:26.67	34.15	5.21	-34.7	-35.1	13.8	2.08e-05	0	42	0	377487360	46	15671
2026-01-22 21:05:27.68	34.29	5.27	-33.8	-34.3	14.4	0.00e+00	0	42	0	461373440	44	15893
2026-01-22 21:05:28.69	34.44	5.33	-34.3	-34.7	14.0	0.00e+00	0	42	0	536870912	42	18767
2026-01-22 21:05:29.70	34.59	5.39	-33.4	-33.8	14.7	0.00e+00	0	42	0	612368384	42	16935
2026-01-22 21:05:30.71	34.74	5.45	-33.3	-33.7	14.7	0.00e+00	0	42	0	687865856	42	16667
2026-01-22 21:05:31.72	34.89	5.51	-33.7	-34.1	14.6	0.00e+00	0	43	0	763363328	42	17597
2026-01-22 21:05:32.73	35.04	5.57	-33.4	-33.8	14.5	0.00e+00	0	42	0	838860800	42	16887
2026-01-22 21:05:33.73	35.19	5.63	-33.1	-33.5	14.8	0.00e+00	0	43	0	914358272	42	16378
2026-01-22 21:05:34.75	35.34	5.69	-32.1	-32.6	15.2	0.00e+00	0	43	0	989855744	40	16522
2026-01-22 21:05:35.75	35.49	5.75	-32.4	-32.9	15.2	0.00e+00	0	42	0	1065353216	40	17135
2026-01-22 21:05:36.76	35.64	5.81	-32.6	-33.0	15.0	0.00e+00	0	43	0	1140850688	40	17376
2026-01-22 21:05:37.77	35.80	5.87	-33.0	-33.4	15.0	0.00e+00	0	43	0	1216348160	40	18111
2026-01-22 21:05:38.78	35.95	5.93	-31.9	-32.4	15.4	0.00e+00	0	43	0	1291845632	40	16105
2026-01-22 21:05:39.79	36.11	5.99	-31.8	-32.2	15.5	0.00e+00	0	43	0	1367343104	40	15826
2026-01-22 21:05:40.80	36.26	6.05	-31.8	-32.3	15.4	0.00e+00	0	43	0	1442840576	38	17825
2026-01-22 21:05:41.81	36.42	6.11	-31.8	-32.2	15.4	0.00e+00	0	43	0	1518338048	38	17710
2026-01-22 21:05:42.81	36.58	6.17	-31.8	-32.2	15.4	0.00e+00	0	43	0	1593835520	38	17755
2026-01-22 21:05:43.82	36.74	6.23	-31.7	-32.1	15.6	0.00e+00	0	43	0	1669332992	38	17558
2026-01-22 21:05:44.83	36.90	6.29	-31.7	-32.2	15.5	0.00e+00	0	43	0	1744830464	38	17620
2026-01-22 21:05:45.84	37.06	6.35	-31.4	-31.8	15.6	0.00e+00	0	43	0	1820327936	38	16912
2026-01-22 21:05:46.85	37.22	6.41	-31.4	-31.9	15.6	0.00e+00	0	43	0	1895825408	38	17008
2026-01-22 21:05:47.86	37.38	6.47	-31.6	-32.1	15.5	0.00e+00	0	43	0	1971322880	38	17404
2026-01-22 21:05:48.87	37.54	6.53	-31.5	-31.9	15.6	0.00e+00	0	43	0	2046820352	38	17138
2026-01-22 21:05:49.88	37.71	6.59	-31.5	-32.0	15.6	0.00e+00	0	43	0	2122317824	38	17293
2026-01-22 21:05:50.89	37.87	6.65	-31.6	-32.1	15.5	0.00e+00	0	43	0	2197815296	38	17500
2026-01-22 21:05:51.90	38.03	6.71	-31.7	-32.2	15.5	0.00e+00	0	43	0	2273312768	38	17673
2026-01-22 21:05:52.90	38.20	6.77	-31.7	-32.2	15.5	0.00e+00	0	43	0	2348810240	38	17679
2026-01-22 21:05:53.91	38.37	6.83	-31.9	-32.4	15.4	0.00e+00	0	43	0	2424307712	38	18093
2026-01-22 21:05:54.92	38.53	6.89	-31.6	-32.1	15.5	0.00e+00	0	43	0	2499805184	38	17451
2026-01-22 21:05:55.93	38.70	6.95	-31.8	-32.3	15.4	0.00e+00	0	43	0	2575302656	38	17882
2026-01-22 21:05:56.94	38.87	7.01	-31.9	-32.4	15.3	0.00e+00	0	43	0	2650800128	38	18099
2026-01-22 21:05:57.95	39.04	7.07	-31.9	-32.3	15.3	0.00e+00	0	43	0	2726297600	38	18009
2026-01-22 21:05:58.96	39.21	7.13	-31.7	-32.2	15.5	0.00e+00	0	43	0	2801795072	38	17667
2026-01-22 21:05:59.97	39.38	7.19	-31.1	-31.6	15.8	0.00e+00	0	43	0	2877292544	38	16476
2026-01-22 21:06:00.98	39.56	7.25	-31.4	-31.8	15.7	0.00e+00	0	43	0	2961178624	38	16973
2026-01-22 21:06:01.99	39.73	7.31	-31.1	-31.6	15.7	0.00e+00	0	43	0	3036676096	38	16496
2026-01-22 21:06:03.00	39.90	7.37	-31.3	-31.8	15.6	0.00e+00	0	43	0	3103784960	38	16811
2026-01-22 21:06:04.01	40.08	7.43	-31.1	-31.6	15.6	0.00e+00	0	43	0	3179282432	38	16453
2026-01-22 21:06:05.02	40.26	7.49	-31.2	-31.6	15.5	0.00e+00	0	43	0	3254779904	38	16572
2026-01-22 21:06:06.02	40.43	7.55	-31.4	-31.8	15.4	0.00e+00	0	43	0	3330277376	38	16910
2026-01-22 21:06:07.03	40.61	7.61	-31.1	-31.6	15.5	0.00e+00	0	43	0	3414163456	38	16439
2026-01-22 21:06:08.04	40.79	7.67	-31.3	-31.8	15.4	0.00e+00	0	43	0	3489660928	38	16909
2026-01-22 21:06:09.05	40.97	7.73	-31.2	-31.6	15.6	0.00e+00	0	43	0	3565158400	38	16545
2026-01-22 21:06:10.06	41.15	7.79	-31.1	-31.5	15.6	0.00e+00	0	43	0	3632267264	38	16412
2026-01-22 21:06:11.07	41.33	7.85	-31.1	-31.6	15.6	0.00e+00	0	43	0	3707764736	38	16463
2026-01-22 21:06:12.07	41.51	7.91	-31.1	-31.5	15.7	0.00e+00	0	43	0	3783262208	38	16407
2026-01-22 21:06:13.09	41.70	7.97	-30.9	-31.4	15.8	0.00e+00	0	43	0	3867148288	38	16059
2026-01-22 21:06:14.10	41.88	8.03	-30.9	-31.3	15.8	0.00e+00	0	43	0	3942645760	38	16030
2026-01-22 21:06:15.10	42.06	8.09	-31.0	-31.4	15.7	0.00e+00	0	43	0	4018143232	38	16235
2026-01-22 21:06:16.11	42.25	8.15	-30.8	-31.3	15.8	0.00e+00	0	43	0	4093640704	38	15942
2026-01-22 21:06:17.12	42.44	8.21	-31.0	-31.5	15.7	0.00e+00	0	43	0	4169138176	38	16361
2026-01-22 21:06:18.13	42.62	8.27	-30.9	-31.4	15.8	0.00e+00	0	43	0	4244635648	38	16054
2026-01-22 21:06:19.14	42.81	8.33	-31.1	-31.5	15.7	0.00e+00	0	43	0	4320133120	38	16412
2026-01-22 21:06:20.15	43.00	8.39	-30.8	-31.2	15.8	0.00e+00	0	43	0	4395630592	38	15865
2026-01-22 21:06:21.16	43.19	8.45	-30.9	-31.4	15.9	0.00e+00	0	43	0	4471128064	38	16067
2026-01-22 21:06:22.17	43.39	8.51	-30.8	-31.2	15.8	0.00e+00	0	43	0	4546625536	38	15824
2026-01-22 21:06:23.18	43.58	8.57	-31.1	-31.5	15.8	0.00e+00	0	43	0	4622123008	36	18366
2026-01-22 21:06:24.18	43.77	8.63	-31.0	-31.4	15.8	0.00e+00	0	43	0	4697620480	36	18194
2026-01-22 21:06:25.19	43.96	8.69	-31.5	-32.0	15.6	0.00e+00	0	43	0	4773117952	36	19408
2026-01-22 21:06:26.20	44.16	8.74	-31.3	-31.7	15.7	0.00e+00	0	43	0	4848615424	36	18818
2026-01-22 21:06:27.21	44.36	8.80	-31.2	-31.7	15.7	0.00e+00	0	43	0	4924112896	36	18682
2026-01-22 21:06:28.21	44.55	8.86	-31.4	-31.9	15.6	0.00e+00	0	43	0	4999610368	36	19196
2026-01-22 21:06:29.22	44.75	8.92	-31.2	-31.6	15.6	0.00e+00	0	43	0	5075107840	36	18626
2026-01-22 21:06:30.23	44.95	8.98	-31.4	-31.9	15.7	0.00e+00	0	43	0	5150605312	36	19178
2026-01-22 21:06:31.24	45.15	9.04	-31.3	-31.7	15.7	0.00e+00	0	43	0	5226102784	36	18829
2026-01-22 21:06:32.25	45.35	9.10	-31.4	-31.9	15.8	0.00e+00	0	43	0	5301600256	36	19144
2026-01-22 21:06:33.26	45.55	9.16	-31.0	-31.5	15.9	0.00e+00	0	43	0	5377097728	36	18266
2026-01-22 21:06:34.27	45.76	9.22	-30.7	-31.2	15.9	0.00e+00	0	43	0	5452595200	36	17675
2026-01-22 21:06:35.27	45.96	9.28	-30.5	-31.0	15.9	0.00e+00	0	43	0	5528092672	36	17265
2026-01-22 21:06:36.28	46.16	9.34	-30.7	-31.2	15.8	0.00e+00	0	43	0	5603590144	36	17727
2026-01-22 21:06:37.29	46.37	9.39	-30.5	-31.0	16.0	0.00e+00	0	43	0	5679087616	36	17202
2026-01-22 21:06:38.30	46.58	9.45	-30.4	-30.8	16.0	0.00e+00	0	43	0	5754585088	36	16977
2026-01-22 21:06:39.31	46.79	9.51	-30.4	-30.9	16.0	0.00e+00	0	43	0	5830082560	36	17005
2026-01-22 21:06:40.31	46.99	9.57	-30.4	-30.9	15.9	0.00e+00	0	43	0	5905580032	36	17034
2026-01-22 21:06:41.32	47.20	9.63	-30.3	-30.8	15.9	0.00e+00	0	43	0	5981077504	36	16827
2026-01-22 21:06:42.33	47.41	9.69	-30.4	-30.8	16.0	0.00e+00	0	43	0	6056574976	36	16931
2026-01-22 21:06:43.34	47.63	9.74	-30.3	-30.7	15.9	0.00e+00	0	43	0	6132072448	36	16778
2026-01-22 21:06:44.35	47.84	9.80	-30.2	-30.7	16.0	0.00e+00	0	43	0	6207569920	36	16661
2026-01-22 21:06:45.36	48.05	9.86	-30.3	-30.8	15.7	0.00e+00	0	43	0	6283067392	36	16856
2026-01-22 21:06:46.37	48.27	9.92	-30.2	-30.6	15.6	0.00e+00	0	43	0	6358564864	36	16587
2026-01-22 21:06:47.37	48.48	9.97	-30.3	-30.8	15.5	0.00e+00	0	43	0	6434062336	36	16883
2026-01-22 21:06:48.38	48.70	10.03	-30.3	-30.8	15.6	0.00e+00	0	43	0	6509559808	36	16819
2026-01-22 21:06:49.39	48.92	10.09	-30.1	-30.6	15.7	0.00e+00	0	43	0	6585057280	36	16429
2026-01-22 21:06:50.40	49.14	10.15	-30.1	-30.5	15.8	0.00e+00	0	43	0	6660554752	36	16368
2026-01-22 21:06:51.40	49.36	10.20	-30.4	-30.9	15.9	0.00e+00	0	43	0	6736052224	36	17091
2026-01-22 21:06:52.41	49.58	10.26	-30.1	-30.6	16.1	0.00e+00	0	43	0	6811549696	36	16453
2026-01-22 21:06:53.42	49.80	10.32	-30.2	-30.7	16.1	0.00e+00	0	43	0	6887047168	36	16663
2026-01-22 21:06:54.43	50.02	10.37	-30.2	-30.7	16.0	0.00e+00	0	43	0	6962544640	36	16670
2026-01-22 21:06:55.44	50.25	10.43	-30.0	-30.4	16.1	0.00e+00	0	44	0	7038042112	36	16193
2026-01-22 21:06:56.45	50.47	10.48	-30.1	-30.5	16.0	0.00e+00	0	43	0	7113539584	36	16380
2026-01-22 21:06:57.46	50.70	10.54	-30.2	-30.6	16.0	0.00e+00	0	44	0	7189037056	36	16574
2026-01-22 21:06:58.46	50.92	10.60	-29.9	-30.4	16.1	0.00e+00	0	44	0	7264534528	36	16169
2026-01-22 21:06:59.47	51.15	10.65	-30.0	-30.5	16.0	0.00e+00	0	43	0	7340032000	36	16296
2026-01-22 21:07:00.48	51.38	10.71	-30.2	-30.7	15.9	0.00e+00	0	44	0	7423918080	36	16680
2026-01-22 21:07:01.49	51.61	10.76	-30.0	-30.5	15.8	0.00e+00	0	44	0	7499415552	36	16286
2026-01-22 21:07:02.50	51.85	10.82	-30.0	-30.5	15.8	0.00e+00	0	44	0	7566524416	36	16352
2026-01-22 21:07:03.51	52.08	10.87	-29.8	-30.3	15.9	0.00e+00	0	44	0	7642021888	36	15964
2026-01-22 21:07:04.52	52.31	10.93	-30.0	-30.5	16.0	0.00e+00	0	43	0	7717519360	36	16282
2026-01-22 21:07:05.53	52.55	10.98	-30.0	-30.4	16.0	0.00e+00	0	44	0	7801405440	36	16152
2026-01-22 21:07:06.54	52.78	11.04	-29.7	-30.2	16.0	0.00e+00	0	44	0	7876902912	34	17686
2026-01-22 21:07:07.54	53.02	11.09	-30.0	-30.5	16.0	0.00e+00	0	44	0	7952400384	34	18261
2026-01-22 21:07:08.56	53.26	11.14	-29.9	-30.3	16.0	0.00e+00	0	44	0	8027897856	34	17957
2026-01-22 21:07:09.57	53.50	11.20	-29.9	-30.4	16.1	0.00e+00	0	44	0	8095006720	34	18055
2026-01-22 21:07:10.57	53.73	11.25	-29.8	-30.2	16.1	0.00e+00	0	44	0	8170504192	34	17748
2026-01-22 21:07:11.59	53.98	11.30	-29.7	-30.2	16.0	0.00e+00	0	44	0	8254390272	34	17657
2026-01-22 21:07:12.59	54.22	11.36	-29.9	-30.4	16.0	0.00e+00	0	44	0	8329887744	34	18024
2026-01-22 21:07:13.60	54.46	11.41	-29.9	-30.3	16.2	0.00e+00	0	44	0	8405385216	34	18000
2026-01-22 21:07:14.61	54.70	11.46	-29.8	-30.2	16.1	0.00e+00	0	44	0	8480882688	34	17780
2026-01-22 21:07:15.62	54.95	11.51	-29.6	-30.0	16.1	0.00e+00	0	44	0	8556380160	34	17356
2026-01-22 21:07:16.63	55.20	11.57	-29.6	-30.1	15.9	0.00e+00	0	44	0	8631877632	34	17483
2026-01-22 21:07:17.63	55.44	11.62	-29.8	-30.3	15.7	0.00e+00	0	44	0	8707375104	34	17858
2026-01-22 21:07:18.64	55.69	11.67	-29.6	-30.1	15.9	0.00e+00	0	44	0	8782872576	34	17479
2026-01-22 21:07:19.65	55.94	11.72	-29.6	-30.0	15.9	0.00e+00	0	44	0	8858370048	34	17366
2026-01-22 21:07:20.66	56.19	11.77	-29.5	-30.0	16.0	0.00e+00	0	44	0	8933867520	34	17261
2026-01-22 21:07:21.66	56.44	11.82	-29.6	-30.1	16.2	0.00e+00	0	44	0	9009364992	34	17479
2026-01-22 21:07:22.67	56.69	11.87	-29.5	-30.0	16.2	0.00e+00	0	44	0	9084862464	34	17334
2026-01-22 21:07:23.68	56.94	11.92	-29.5	-30.0	16.0	0.00e+00	0	44	0	9160359936	34	17285
2026-01-22 21:07:24.69	57.20	11.97	-29.5	-30.0	15.9	0.00e+00	0	44	0	9235857408	34	17280
2026-01-22 21:07:25.69	57.45	12.02	-29.5	-30.0	16.1	0.00e+00	0	44	0	9311354880	34	17329
2026-01-22 21:07:26.70	57.71	12.07	-29.4	-29.9	16.3	0.00e+00	0	44	0	9386852352	34	17108
2026-01-22 21:07:27.70	57.96	12.12	-29.4	-29.9	16.2	0.00e+00	0	44	0	9462349824	34	17136
2026-01-22 21:07:28.72	58.22	12.16	-29.5	-29.9	16.2	0.00e+00	0	44	0	9537847296	34	17148
2026-01-22 21:07:29.73	58.48	12.21	-29.4	-29.9	16.2	0.00e+00	0	44	0	9613344768	34	17120
2026-01-22 21:07:30.74	58.74	12.26	-29.6	-30.0	16.0	0.00e+00	0	44	0	9688842240	34	17366
2026-01-22 21:07:31.74	59.00	12.31	-29.5	-29.9	16.0	0.00e+00	0	44	0	9764339712	34	17154
2026-01-22 21:07:32.75	59.26	12.35	-29.3	-29.8	16.0	0.00e+00	0	44	0	9839837184	34	16882
2026-01-22 21:07:33.76	59.53	12.40	-29.3	-29.7	16.1	0.00e+00	0	44	0	9915334656	34	16786
2026-01-22 21:07:34.78	59.79	12.45	-29.4	-29.8	16.2	0.00e+00	0	44	0	9990832128	34	16942
2026-01-22 21:07:35.78	60.06	12.49	-29.4	-29.9	16.1	0.00e+00	0	44	0	10066329600	34	17106
2026-01-22 21:07:36.79	60.32	12.54	-29.4	-29.8	16.2	0.00e+00	0	44	0	10141827072	34	16942
2026-01-22 21:07:37.80	60.59	12.58	-29.5	-29.9	16.3	0.00e+00	0	44	0	10217324544	34	17180
2026-01-22 21:07:38.81	60.86	12.63	-29.4	-29.9	16.0	0.00e+00	0	44	0	10292822016	34	17023
2026-01-22 21:07:39.81	61.12	12.67	-29.3	-29.7	15.4	0.00e+00	0	44	0	10368319488	34	16801
2026-01-22 21:07:40.82	61.40	12.71	-29.5	-30.0	15.3	0.00e+00	0	44	0	10443816960	34	17223
2026-01-22 21:07:41.83	61.67	12.76	-29.6	-30.0	15.5	0.00e+00	0	44	0	10519314432	34	17312
2026-01-22 21:07:42.84	61.94	12.80	-29.3	-29.8	15.7	0.00e+00	0	44	0	10594811904	34	16852
2026-01-22 21:07:43.85	62.21	12.84	-29.2	-29.7	15.7	0.00e+00	0	44	0	10670309376	34	16712
2026-01-22 21:07:44.86	62.49	12.89	-29.1	-29.6	15.3	0.00e+00	0	44	0	10745806848	34	16489
2026-01-22 21:07:45.87	62.76	12.93	-29.3	-29.7	15.4	0.00e+00	0	44	0	10821304320	34	16738
2026-01-22 21:07:46.88	63.04	12.97	-29.1	-29.6	15.9	0.00e+00	0	44	0	10896801792	34	16432
2026-01-22 21:07:47.89	63.31	13.01	-29.2	-29.7	16.2	0.00e+00	0	44	0	10972299264	34	16634
2026-01-22 21:07:48.90	63.59	13.05	-29.2	-29.7	16.2	0.00e+00	0	44	0	11047796736	34	16719
2026-01-22 21:07:49.91	63.87	13.09	-29.1	-29.6	16.2	0.00e+00	0	44	0	11123294208	34	16557
2026-01-22 21:07:50.92	64.15	13.13	-29.1	-29.6	16.3	0.00e+00	0	44	0	11198791680	34	16495
2026-01-22 21:07:51.93	64.43	13.17	-29.1	-29.6	16.3	0.00e+00	0	44	0	11282677760	34	16448
2026-01-22 21:07:52.93	64.71	13.21	-29.1	-29.6	16.2	0.00e+00	0	44	0	11358175232	34	16505
2026-01-22 21:07:53.94	64.99	13.25	-29.2	-29.6	16.2	0.00e+00	0	44	0	11425284096	34	16602
2026-01-22 21:07:54.95	65.27	13.28	-29.2	-29.7	16.1	0.00e+00	0	44	0	11500781568	34	16685
2026-01-22 21:07:55.96	65.55	13.32	-29.1	-29.6	16.1	0.00e+00	0	44	0	11576279040	34	16453
2026-01-22 21:07:56.97	65.84	13.36	-28.9	-29.4	16.1	0.00e+00	0	44	0	11651776512	34	16137
2026-01-22 21:07:57.98	66.12	13.39	-29.1	-29.5	16.1	0.00e+00	0	44	0	11735662592	34	16420
2026-01-22 21:07:58.99	66.41	13.43	-29.0	-29.5	16.2	0.00e+00	0	44	0	11811160064	34	16366
2026-01-22 21:08:00.00	66.70	13.46	-29.0	-29.5	16.0	0.00e+00	0	44	0	11886657536	34	16326
2026-01-22 21:08:01.01	66.98	13.50	-29.1	-29.5	15.6	0.00e+00	0	44	0	11953766400	34	16377
2026-01-22 21:08:02.02	67.27	13.53	-29.0	-29.4	15.7	0.00e+00	0	44	0	12029263872	34	16229
2026-01-22 21:08:03.03	67.56	13.57	-29.0	-29.4	15.8	0.00e+00	0	44	0	12113149952	34	16188
2026-01-22 21:08:04.04	67.85	13.60	-28.9	-29.4	16.1	0.00e+00	0	44	0	12188647424	34	16128
2026-01-22 21:08:05.05	68.14	13.63	-29.0	-29.5	16.2	0.00e+00	0	44	0	12264144896	34	16249
2026-01-22 21:08:06.05	68.43	13.66	-28.8	-29.3	16.2	0.00e+00	0	44	0	12339642368	34	15953
2026-01-22 21:08:07.06	68.72	13.70	-28.9	-29.4	16.2	0.00e+00	0	44	0	12415139840	34	16086
2026-01-22 21:08:08.07	69.02	13.73	-29.0	-29.4	16.2	0.00e+00	0	44	0	12490637312	34	16186
2026-01-22 21:08:09.08	69.31	13.76	-28.9	-29.3	16.1	0.00e+00	0	44	0	12566134784	34	16027
2026-01-22 21:08:10.09	69.60	13.79	-28.9	-29.4	16.0	0.00e+00	0	44	0	12641632256	34	16139
2026-01-22 21:08:11.10	69.90	13.82	-28.9	-29.4	15.8	0.00e+00	0	44	0	12717129728	34	16066
2026-01-22 21:08:12.11	70.20	13.84	-28.9	-29.3	15.8	0.00e+00	0	44	0	12792627200	34	16008
2026-01-22 21:08:13.12	70.49	13.87	-28.9	-29.4	15.6	0.00e+00	0	44	0	12868124672	34	16095
2026-01-22 21:08:14.13	70.79	13.90	-28.9	-29.4	15.8	0.00e+00	0	44	0	12943622144	34	16132
2026-01-22 21:08:15.14	71.09	13.93	-28.8	-29.3	16.3	0.00e+00	0	44	0	13019119616	34	15888
2026-01-22 21:08:16.15	71.38	13.95	-28.9	-29.3	16.3	0.00e+00	0	44	0	13094617088	34	16012
2026-01-22 21:08:17.16	71.68	13.98	-28.8	-29.3	16.4	0.00e+00	0	44	0	13170114560	32	17846
2026-01-22 21:08:18.17	71.98	14.00	-28.9	-29.3	16.4	0.00e+00	0	44	0	13245612032	32	17969
2026-01-22 21:08:19.18	72.28	14.03	-29.1	-29.5	16.4	0.00e+00	0	44	0	13321109504	32	18403
2026-01-22 21:08:20.19	72.58	14.05	-28.8	-29.2	16.4	0.00e+00	0	44	0	13396606976	32	17766
2026-01-22 21:08:21.20	72.89	14.07	-29.0	-29.4	16.4	0.00e+00	0	44	0	13472104448	32	18205
2026-01-22 21:08:22.21	73.19	14.10	-29.0	-29.5	16.4	0.00e+00	0	44	0	13547601920	32	18367
2026-01-22 21:08:23.21	73.49	14.12	-28.8	-29.2	16.4	0.00e+00	0	44	0	13623099392	32	17760
2026-01-22 21:08:24.22	73.79	14.14	-28.8	-29.3	16.4	0.00e+00	0	44	0	13698596864	32	17829
2026-01-22 21:08:25.23	74.09	14.16	-28.9	-29.4	16.4	0.00e+00	0	44	0	13774094336	32	18160
2026-01-22 21:08:26.24	74.40	14.18	-28.7	-29.1	16.1	0.00e+00	0	44	0	13849591808	32	17561
2026-01-22 21:08:27.25	74.70	14.20	-28.8	-29.3	16.1	0.00e+00	0	44	0	13925089280	32	17886
2026-01-22 21:08:28.26	75.01	14.22	-28.8	-29.3	16.4	0.00e+00	0	44	0	14000586752	32	17926
2026-01-22 21:08:29.26	75.31	14.24	-28.9	-29.3	16.3	0.00e+00	0	44	0	14076084224	32	17964
2026-01-22 21:08:30.27	75.61	14.26	-28.9	-29.4	16.3	0.00e+00	0	44	0	14151581696	32	18032
2026-01-22 21:08:31.28	75.92	14.27	-28.9	-29.4	16.1	0.00e+00	0	44	0	14227079168	32	18061
2026-01-22 21:08:32.29	76.23	14.29	-28.9	-29.4	15.8	0.00e+00	0	44	0	14302576640	32	18094
2026-01-22 21:08:33.30	76.53	14.30	-28.9	-29.4	15.5	0.00e+00	0	44	0	14378074112	32	18015
2026-01-22 21:08:34.31	76.84	14.32	-28.9	-29.3	16.1	0.00e+00	0	44	0	14453571584	32	18004
2026-01-22 21:08:35.32	77.15	14.33	-28.7	-29.2	16.5	0.00e+00	0	44	0	14529069056	32	17687
2026-01-22 21:08:36.33	77.46	14.35	-28.9	-29.3	16.3	0.00e+00	0	44	0	14612955136	32	17961
2026-01-22 21:08:37.34	77.76	14.36	-28.7	-29.2	16.3	0.00e+00	0	44	0	14680064000	32	17714
2026-01-22 21:08:38.35	78.07	14.37	-28.7	-29.2	16.4	0.00e+00	0	44	0	14755561472	32	17675
2026-01-22 21:08:39.36	78.38	14.38	-28.7	-29.2	16.2	0.00e+00	0	44	0	14831058944	32	17633
2026-01-22 21:08:40.37	78.69	14.39	-28.8	-29.3	15.9	0.00e+00	0	44	0	14906556416	32	17845
2026-01-22 21:08:41.37	79.00	14.40	-28.9	-29.4	15.8	0.00e+00	0	44	0	14982053888	32	18062
2026-01-22 21:08:42.38	79.31	14.41	-29.0	-29.4	16.0	0.00e+00	0	44	0	15065939968	32	18150
2026-01-22 21:08:43.39	79.62	14.42	-28.7	-29.2	16.0	0.00e+00	0	44	0	15141437440	32	17631
2026-01-22 21:08:44.40	79.93	14.43	-28.7	-29.2	16.1	0.00e+00	0	44	0	15216934912	32	17672
2026-01-22 21:08:45.41	80.24	14.44	-28.6	-29.0	16.2	0.00e+00	0	44	0	15284043776	32	17386
2026-01-22 21:08:46.41	80.54	14.45	-28.7	-29.2	16.4	0.00e+00	0	44	0	15359541248	32	17634
2026-01-22 21:08:47.42	80.85	14.45	-28.7	-29.1	16.5	0.00e+00	0	44	0	15435038720	32	17563
2026-01-22 21:08:48.43	81.17	14.46	-28.7	-29.1	16.4	0.00e+00	0	44	0	15518924800	32	17581
2026-01-22 21:08:49.44	81.48	14.46	-28.7	-29.2	16.4	0.00e+00	0	44	0	15594422272	32	17638
2026-01-22 21:08:50.44	81.78	14.47	-28.6	-29.1	16.4	0.00e+00	0	44	0	15669919744	32	17488
2026-01-22 21:08:51.45	82.10	14.47	-28.8	-29.2	16.4	0.00e+00	0	44	0	15745417216	32	17752
2026-01-22 21:08:52.46	82.41	14.47	-28.8	-29.3	16.4	0.00e+00	0	44	0	15812526080	32	17897
2026-01-22 21:08:53.47	82.72	14.47	-28.7	-29.2	16.5	0.00e+00	0	44	0	15888023552	32	17730
2026-01-22 21:08:54.48	83.03	14.47	-28.7	-29.1	16.4	0.00e+00	0	44	0	15971909632	32	17588
2026-01-22 21:08:55.48	83.34	14.48	-28.8	-29.2	16.4	0.00e+00	0	44	0	16047407104	32	17804
2026-01-22 21:08:56.49	83.65	14.48	-28.7	-29.2	16.3	0.00e+00	0	44	0	16122904576	32	17687
2026-01-22 21:08:57.50	83.96	14.47	-28.7	-29.2	16.3	0.00e+00	0	44	0	16198402048	32	17658
2026-01-22 21:08:58.51	84.27	14.47	-28.8	-29.3	16.4	0.00e+00	0	44	0	16273899520	32	17823
2026-01-22 21:08:59.52	84.58	14.47	-28.6	-29.1	16.4	0.00e+00	0	44	0	16349396992	32	17530
2026-01-22 21:09:00.53	84.89	14.47	-28.8	-29.2	16.4	0.00e+00	0	44	0	16424894464	32	17722
2026-01-22 21:09:01.54	85.20	14.46	-28.8	-29.3	16.4	0.00e+00	0	44	0	16500391936	32	17932
2026-01-22 21:09:02.55	85.52	14.46	-28.6	-29.1	16.5	0.00e+00	0	44	0	16575889408	32	17555
2026-01-22 21:09:03.56	85.83	14.45	-28.7	-29.2	16.4	0.00e+00	0	44	0	16651386880	32	17742
2026-01-22 21:09:04.57	86.14	14.45	-28.7	-29.2	16.5	0.00e+00	0	44	0	16726884352	32	17603
2026-01-22 21:09:05.58	86.45	14.44	-28.7	-29.1	16.5	0.00e+00	0	44	0	16802381824	32	17600
2026-01-22 21:09:06.59	86.76	14.44	-28.6	-29.1	16.4	0.00e+00	0	44	0	16877879296	32	17520
2026-01-22 21:09:07.60	87.07	14.43	-28.8	-29.3	16.4	0.00e+00	0	44	0	16953376768	32	17846
2026-01-22 21:09:08.61	87.38	14.42	-28.8	-29.2	16.4	0.00e+00	0	44	0	17028874240	32	17779
2026-01-22 21:09:09.62	87.69	14.41	-28.8	-29.2	16.5	0.00e+00	0	44	0	17104371712	32	17750
2026-01-22 21:09:10.63	88.00	14.40	-28.7	-29.1	16.5	0.00e+00	0	44	0	17179869184	32	17538
2026-01-22 21:09:11.63	88.30	14.39	-28.7	-29.2	16.5	0.00e+00	0	44	0	17255366656	32	17753
2026-01-22 21:09:12.64	88.61	14.38	-28.9	-29.3	16.4	0.00e+00	0	44	0	17330864128	32	18006
2026-01-22 21:09:13.65	88.92	14.37	-28.7	-29.1	16.5	0.00e+00	0	44	0	17406361600	32	17601
2026-01-22 21:09:14.66	89.23	14.35	-28.8	-29.3	16.4	0.00e+00	0	44	0	17481859072	32	17883
2026-01-22 21:09:15.67	89.54	14.34	-28.7	-29.2	16.4	0.00e+00	0	44	0	17557356544	32	17718
2026-01-22 21:09:16.68	89.85	14.33	-28.8	-29.2	16.4	0.00e+00	0	44	0	17632854016	32	17775
2026-01-22 21:09:17.69	90.16	14.31	-28.8	-29.3	16.4	0.00e+00	0	44	0	17708351488	32	17812
2026-01-22 21:09:18.70	90.46	14.30	-28.7	-29.2	16.4	0.00e+00	0	44	0	17783848960	32	17650
2026-01-22 21:09:19.71	90.77	14.28	-28.8	-29.2	16.4	0.00e+00	0	44	0	17859346432	32	17793
2026-01-22 21:09:20.72	91.08	14.27	-28.8	-29.3	16.5	0.00e+00	0	44	0	17934843904	32	17902
2026-01-22 21:09:21.73	91.38	14.25	-28.7	-29.2	16.4	0.00e+00	0	44	0	18010341376	32	17690
2026-01-22 21:09:22.73	91.69	14.23	-29.0	-29.5	16.2	0.00e+00	0	44	0	18085838848	32	18258
2026-01-22 21:09:23.74	91.99	14.21	-28.7	-29.2	16.3	0.00e+00	0	44	0	18161336320	32	17609
2026-01-22 21:09:24.75	92.30	14.19	-28.7	-29.2	16.4	0.00e+00	0	44	0	18236833792	32	17760
2026-01-22 21:09:25.76	92.60	14.17	-28.8	-29.3	16.3	0.00e+00	0	44	0	18312331264	32	17897
2026-01-22 21:09:26.77	92.90	14.15	-28.9	-29.3	16.3	0.00e+00	0	44	0	18387828736	32	17951
2026-01-22 21:09:27.78	93.21	14.13	-28.7	-29.2	16.3	0.00e+00	0	44	0	18471714816	32	17687
2026-01-22 21:09:28.79	93.51	14.11	-29.0	-29.5	16.3	0.00e+00	0	44	0	18538823680	32	18256
2026-01-22 21:09:29.79	93.81	14.09	-28.8	-29.3	16.4	0.00e+00	0	44	0	18614321152	32	17857
2026-01-22 21:09:30.81	94.11	14.06	-29.0	-29.5	16.3	0.00e+00	0	44	0	18689818624	32	18299
2026-01-22 21:09:31.81	94.41	14.04	-28.9	-29.3	16.4	0.00e+00	0	44	0	18765316096	32	17993
2026-01-22 21:09:32.82	94.71	14.02	-29.0	-29.4	16.4	0.00e+00	0	44	0	18840813568	32	18151
2026-01-22 21:09:33.83	95.01	13.99	-29.2	-29.7	16.3	0.00e+00	0	44	0	18924699648	32	18681
2026-01-22 21:09:34.84	95.31	13.97	-28.8	-29.3	16.4	0.00e+00	0	44	0	19000197120	32	17871
2026-01-22 21:09:35.85	95.61	13.94	-28.9	-29.4	16.5	0.00e+00	0	44	0	19067305984	32	18097
2026-01-22 21:09:36.86	95.91	13.91	-28.9	-29.4	16.4	0.00e+00	0	44	0	19142803456	32	18037
2026-01-22 21:09:37.86	96.21	13.89	-28.9	-29.4	16.5	0.00e+00	0	44	0	19218300928	32	18065
2026-01-22 21:09:38.87	96.50	13.86	-28.7	-29.2	16.5	0.00e+00	0	44	0	19293798400	32	17742
2026-01-22 21:09:39.88	96.80	13.83	-28.9	-29.4	16.3	0.00e+00	0	44	0	19377684480	32	18100
2026-01-22 21:09:40.89	97.10	13.80	-28.9	-29.4	16.4	0.00e+00	0	44	0	19453181952	32	18121
2026-01-22 21:09:41.90	97.39	13.77	-28.9	-29.4	16.4	0.00e+00	0	44	0	19528679424	32	18122
2026-01-22 21:09:42.91	97.68	13.74	-29.0	-29.5	16.4	0.00e+00	0	44	0	19604176896	32	18396
2026-01-22 21:09:43.92	97.98	13.71	-28.9	-29.4	16.3	0.00e+00	0	44	0	19671285760	32	18030
2026-01-22 21:09:44.93	98.27	13.68	-28.8	-29.3	16.4	0.00e+00	0	44	0	19755171840	32	17926
2026-01-22 21:09:45.94	98.56	13.65	-28.9	-29.4	16.4	0.00e+00	0	44	0	19830669312	32	18131
2026-01-22 21:09:46.95	98.86	13.62	-29.0	-29.5	16.4	0.00e+00	0	44	0	19906166784	32	18267
2026-01-22 21:09:47.96	99.15	13.58	-28.9	-29.3	16.4	0.00e+00	0	44	0	19981664256	32	17997
2026-01-22 21:09:48.96	99.43	13.55	-29.0	-29.5	16.3	0.00e+00	0	44	0	20057161728	32	18227
2026-01-22 21:09:49.97	99.72	13.52	-28.9	-29.4	16.4	0.00e+00	0	44	0	20132659200	32	18035
2026-01-22 21:09:50.98	100.01	13.48	-28.9	-29.4	16.3	0.00e+00	0	44	0	20208156672	32	18127
2026-01-22 21:09:51.99	100.30	13.45	-29.0	-29.5	16.2	0.00e+00	0	44	0	20283654144	32	18227
2026-01-22 21:09:53.00	100.59	13.41	-29.0	-29.5	16.2	0.00e+00	0	44	0	20359151616	32	18261
2026-01-22 21:09:54.01	100.87	13.38	-29.0	-29.5	16.2	0.00e+00	0	44	0	20434649088	32	18264
2026-01-22 21:09:55.02	101.16	13.34	-29.0	-29.5	16.4	0.00e+00	0	44	0	20510146560	32	18229
2026-01-22 21:09:56.02	101.44	13.30	-29.0	-29.5	16.3	0.00e+00	0	44	0	20585644032	32	18250
2026-01-22 21:09:57.03	101.72	13.27	-29.0	-29.5	16.3	0.00e+00	0	44	0	20661141504	32	18290
2026-01-22 21:09:58.04	102.01	13.23	-29.1	-29.6	16.3	0.00e+00	0	44	0	20736638976	32	18458
2026-01-22 21:09:59.05	102.29	13.19	-29.2	-29.6	16.3	0.00e+00	0	44	0	20812136448	32	18586
2026-01-22 21:10:00.06	102.57	13.15	-29.1	-29.6	16.4	0.00e+00	0	44	0	20887633920	32	18456
2026-01-22 21:10:01.07	102.85	13.11	-29.0	-29.5	16.4	0.00e+00	0	44	0	20963131392	32	18315
2026-01-22 21:10:02.08	103.13	13.07	-29.1	-29.6	16.4	0.00e+00	0	44	0	21038628864	32	18528
2026-01-22 21:10:03.09	103.41	13.03	-29.2	-29.6	16.3	0.00e+00	0	44	0	21114126336	32	18625
2026-01-22 21:10:04.10	103.69	12.99	-29.1	-29.5	16.4	0.00e+00	0	44	0	21189623808	32	18398
2026-01-22 21:10:05.11	103.96	12.95	-29.1	-29.6	16.3	0.00e+00	0	44	0	21265121280	32	18530
2026-01-22 21:10:06.12	104.24	12.91	-29.2	-29.6	16.3	0.00e+00	0	44	0	21340618752	32	18624
2026-01-22 21:10:07.13	104.51	12.87	-29.2	-29.6	16.3	0.00e+00	0	44	0	21416116224	32	18591
2026-01-22 21:10:08.14	104.79	12.82	-29.2	-29.6	16.3	0.00e+00	0	44	0	21491613696	32	18617
2026-01-22 21:10:09.15	105.06	12.78	-29.3	-29.7	16.3	0.00e+00	0	44	0	21567111168	32	18845
2026-01-22 21:10:10.16	105.33	12.74	-29.2	-29.7	16.3	0.00e+00	0	44	0	21642608640	32	18693
2026-01-22 21:10:11.17	105.60	12.69	-29.1	-29.5	16.3	0.00e+00	0	43	0	21718106112	32	18427
2026-01-22 21:10:12.17	105.87	12.65	-29.3	-29.7	16.3	0.00e+00	0	44	0	21793603584	32	18831
2026-01-22 21:10:13.18	106.14	12.61	-29.3	-29.8	16.3	0.00e+00	0	44	0	21869101056	32	18912
2026-01-22 21:10:14.19	106.41	12.56	-29.3	-29.8	16.2	0.00e+00	0	43	0	21944598528	32	18949
2026-01-22 21:10:15.20	106.68	12.51	-29.3	-29.8	16.2	0.00e+00	0	44	0	22020096000	32	18927
2026-01-22 21:10:16.21	106.94	12.47	-29.3	-29.7	16.3	0.00e+00	0	44	0	22095593472	32	18847
2026-01-22 21:10:17.22	107.21	12.42	-29.3	-29.8	16.3	0.00e+00	0	44	0	22171090944	32	18962
2026-01-22 21:10:18.23	107.47	12.38	-29.4	-29.9	16.3	0.00e+00	0	44	0	22254977024	32	19157
2026-01-22 21:10:19.24	107.74	12.33	-29.4	-29.9	16.3	0.00e+00	0	44	0	22330474496	32	19148
2026-01-22 21:10:20.25	108.00	12.28	-29.5	-29.9	16.3	0.00e+00	0	44	0	22397583360	32	19299
2026-01-22 21:10:21.26	108.26	12.23	-29.3	-29.7	16.3	0.00e+00	0	44	0	22473080832	32	18832
2026-01-22 21:10:22.27	108.52	12.19	-29.2	-29.7	16.3	0.00e+00	0	44	0	22548578304	32	18721
2026-01-22 21:10:23.28	108.78	12.14	-29.4	-29.9	16.2	0.00e+00	0	44	0	22624075776	32	19100
2026-01-22 21:10:24.28	109.04	12.09	-29.4	-29.9	16.2	0.00e+00	0	44	0	22707961856	32	19175
2026-01-22 21:10:25.29	109.29	12.04	-29.4	-29.8	16.2	0.00e+00	0	44	0	22783459328	32	19049
2026-01-22 21:10:26.30	109.55	11.99	-29.5	-30.0	16.2	0.00e+00	0	44	0	22858956800	32	19404
2026-01-22 21:10:27.31	109.81	11.94	-29.5	-30.0	16.3	0.00e+00	0	44	0	22926065664	32	19344
2026-01-22 21:10:28.32	110.06	11.89	-29.6	-30.1	16.1	0.00e+00	0	44	0	23001563136	32	19526
2026-01-22 21:10:29.33	110.31	11.84	-29.5	-30.0	16.3	0.00e+00	0	44	0	23085449216	32	19301
2026-01-22 21:10:30.34	110.57	11.79	-29.6	-30.1	16.2	0.00e+00	0	44	0	23160946688	32	19567
2026-01-22 21:10:31.35	110.82	11.74	-29.6	-30.0	16.2	0.00e+00	0	44	0	23236444160	32	19507
2026-01-22 21:10:32.36	111.07	11.69	-29.5	-30.0	16.1	0.00e+00	0	44	0	23311941632	32	19414
2026-01-22 21:10:33.37	111.32	11.64	-29.5	-30.0	16.2	0.00e+00	0	44	0	23387439104	32	19340
2026-01-22 21:10:34.38	111.57	11.59	-29.6	-30.1	16.1	0.00e+00	0	44	0	23462936576	32	19577
2026-01-22 21:10:35.38	111.81	11.54	-29.7	-30.1	16.1	0.00e+00	0	44	0	23538434048	32	19710
2026-01-22 21:10:36.39	112.06	11.48	-29.6	-30.1	16.1	0.00e+00	0	44	0	23613931520	34	17468
2026-01-22 21:10:37.40	112.30	11.43	-29.6	-30.1	16.2	0.00e+00	0	44	0	23689428992	34	17436
2026-01-22 21:10:38.41	112.55	11.38	-29.5	-30.0	16.2	0.00e+00	0	44	0	23764926464	34	17335
2026-01-22 21:10:39.42	112.79	11.33	-29.6	-30.1	16.2	0.00e+00	0	44	0	23840423936	34	17456
2026-01-22 21:10:40.43	113.03	11.27	-29.6	-30.0	16.2	0.00e+00	0	44	0	23915921408	34	17336
2026-01-22 21:10:41.44	113.27	11.22	-29.6	-30.1	16.2	0.00e+00	0	44	0	23991418880	34	17438
2026-01-22 21:10:42.45	113.51	11.17	-29.9	-30.4	16.1	0.00e+00	0	44	0	24066916352	34	18082
2026-01-22 21:10:43.46	113.75	11.11	-29.8	-30.2	16.1	0.00e+00	0	44	0	24142413824	34	17792
2026-01-22 21:10:44.47	113.99	11.06	-29.8	-30.3	16.2	0.00e+00	0	44	0	24217911296	34	17875
2026-01-22 21:10:45.48	114.23	11.00	-30.0	-30.4	16.1	0.00e+00	0	44	0	24293408768	34	18211
2026-01-22 21:10:46.49	114.46	10.95	-30.4	-30.8	16.0	0.00e+00	0	44	0	24368906240	34	19015
2026-01-22 21:10:47.50	114.70	10.89	-30.3	-30.7	16.0	0.00e+00	0	44	0	24444403712	34	18833
2026-01-22 21:10:48.50	114.93	10.84	-29.9	-30.4	16.1	0.00e+00	0	44	0	24519901184	34	18069
2026-01-22 21:10:49.51	115.16	10.78	-29.9	-30.3	16.2	0.00e+00	0	44	0	24595398656	34	18007
2026-01-22 21:10:50.52	115.39	10.73	-29.8	-30.3	16.2	0.00e+00	0	44	0	24670896128	34	17810
2026-01-22 21:10:51.53	115.62	10.67	-29.8	-30.3	16.2	0.00e+00	0	44	0	24746393600	34	17928
2026-01-22 21:10:52.53	115.85	10.62	-30.1	-30.5	16.1	0.00e+00	0	44	0	24821891072	34	18415
2026-01-22 21:10:53.54	116.08	10.56	-29.9	-30.4	16.1	0.00e+00	0	44	0	24897388544	34	18125
2026-01-22 21:10:54.55	116.31	10.50	-29.8	-30.3	16.2	0.00e+00	0	44	0	24972886016	34	17924
2026-01-22 21:10:55.56	116.53	10.45	-29.9	-30.4	16.2	0.00e+00	0	44	0	25048383488	34	18085
2026-01-22 21:10:56.57	116.76	10.39	-29.9	-30.4	16.1	0.00e+00	0	43	0	25123880960	34	18129
2026-01-22 21:10:57.58	116.98	10.34	-30.1	-30.6	16.1	0.00e+00	0	44	0	25199378432	34	18515
2026-01-22 21:10:58.59	117.21	10.28	-29.9	-30.4	16.1	0.00e+00	0	44	0	25274875904	34	18091
2026-01-22 21:10:59.60	117.43	10.22	-30.0	-30.5	16.1	0.00e+00	0	44	0	25350373376	34	18338
2026-01-22 21:11:00.61	117.65	10.16	-30.1	-30.6	16.1	0.00e+00	0	44	0	25425870848	34	18531
2026-01-22 21:11:01.62	117.87	10.11	-30.0	-30.5	16.1	0.00e+00	0	44	0	25501368320	34	18366
2026-01-22 21:11:02.63	118.09	10.05	-30.2	-30.6	16.1	0.00e+00	0	44	0	25576865792	34	18619
2026-01-22 21:11:03.63	118.31	9.99	-30.2	-30.7	16.0	0.00e+00	0	44	0	25652363264	34	18782
2026-01-22 21:11:04.64	118.52	9.93	-30.3	-30.8	16.0	0.00e+00	0	44	0	25727860736	34	18948
2026-01-22 21:11:05.65	118.74	9.88	-30.1	-30.5	16.1	0.00e+00	0	43	0	25803358208	34	18395
2026-01-22 21:11:06.66	118.96	9.82	-30.2	-30.7	16.0	0.00e+00	0	44	0	25878855680	34	18675
2026-01-22 21:11:07.66	119.17	9.76	-30.3	-30.7	16.1	0.00e+00	0	44	0	25954353152	34	18841
2026-01-22 21:11:08.67	119.38	9.70	-30.2	-30.7	16.0	0.00e+00	0	44	0	26029850624	34	18724
2026-01-22 21:11:09.68	119.59	9.64	-30.3	-30.8	15.9	0.00e+00	0	44	0	26113736704	34	18909
2026-01-22 21:11:10.69	119.80	9.59	-30.2	-30.7	16.0	0.00e+00	0	44	0	26189234176	34	18753
2026-01-22 21:11:11.70	120.01	9.53	-30.3	-30.8	15.9	0.00e+00	0	44	0	26256343040	34	19005
2026-01-22 21:11:12.71	120.22	9.47	-30.4	-30.9	15.9	0.00e+00	0	44	0	26331840512	34	19207
2026-01-22 21:11:13.72	120.43	9.41	-30.6	-31.1	15.9	0.00e+00	0	44	0	26407337984	34	19615
2026-01-22 21:11:14.72	120.64	9.35	-30.3	-30.8	16.0	0.00e+00	0	44	0	26482835456	34	18952
2026-01-22 21:11:15.73	120.84	9.29	-30.4	-30.9	15.9	0.00e+00	0	44	0	26566721536	34	19244
2026-01-22 21:11:16.74	121.05	9.23	-30.4	-30.9	16.0	0.00e+00	0	44	0	26642219008	34	19116
2026-01-22 21:11:17.75	121.25	9.17	-30.4	-30.8	15.9	0.00e+00	0	44	0	26717716480	34	19064
2026-01-22 21:11:18.76	121.46	9.11	-30.3	-30.8	16.0	0.00e+00	0	44	0	26784825344	34	18878
2026-01-22 21:11:19.77	121.66	9.06	-30.3	-30.8	15.9	0.00e+00	0	44	0	26860322816	34	19018
2026-01-22 21:11:20.78	121.86	9.00	-30.4	-30.9	15.9	0.00e+00	0	44	0	26944208896	34	19167
2026-01-22 21:11:21.79	122.06	8.94	-30.5	-30.9	15.9	0.00e+00	0	44	0	27019706368	34	19275
2026-01-22 21:11:22.79	122.26	8.88	-30.6	-31.0	15.9	0.00e+00	0	44	0	27095203840	34	19491
2026-01-22 21:11:23.80	122.45	8.82	-30.5	-31.0	15.9	0.00e+00	0	44	0	27170701312	34	19335
2026-01-22 21:11:24.81	122.65	8.76	-30.5	-31.0	15.9	0.00e+00	0	44	0	27246198784	34	19311
2026-01-22 21:11:25.82	122.85	8.70	-30.6	-31.1	15.9	0.00e+00	0	44	0	27321696256	34	19602
2026-01-22 21:11:26.83	123.04	8.64	-30.8	-31.3	15.8	0.00e+00	0	44	0	27397193728	36	17824
2026-01-22 21:11:27.84	123.24	8.58	-30.5	-31.0	15.9	0.00e+00	0	44	0	27472691200	36	17288
2026-01-22 21:11:28.85	123.43	8.52	-30.7	-31.2	15.9	0.00e+00	0	44	0	27548188672	36	17696
2026-01-22 21:11:29.86	123.62	8.46	-30.6	-31.1	15.9	0.00e+00	0	44	0	27623686144	36	17480
2026-01-22 21:11:30.87	123.82	8.40	-30.7	-31.2	15.8	0.00e+00	0	44	0	27699183616	36	17638
2026-01-22 21:11:31.88	124.01	8.34	-30.9	-31.3	15.8	0.00e+00	0	44	0	27774681088	36	17966
2026-01-22 21:11:32.89	124.20	8.28	-30.8	-31.3	15.8	0.00e+00	0	44	0	27850178560	36	17853
2026-01-22 21:11:33.90	124.38	8.22	-30.8	-31.2	15.7	0.00e+00	0	44	0	27925676032	36	17761
2026-01-22 21:11:34.90	124.57	8.16	-30.8	-31.3	15.8	0.00e+00	0	44	0	28001173504	36	17815
2026-01-22 21:11:35.91	124.76	8.10	-30.7	-31.2	15.8	0.00e+00	0	44	0	28076670976	36	17616
2026-01-22 21:11:36.92	124.94	8.04	-30.8	-31.3	15.9	0.00e+00	0	44	0	28152168448	36	17879
2026-01-22 21:11:37.93	125.13	7.98	-30.8	-31.3	15.8	0.00e+00	0	44	0	28227665920	36	17950
2026-01-22 21:11:38.94	125.31	7.92	-31.1	-31.5	15.7	0.00e+00	0	44	0	28303163392	36	18394
2026-01-22 21:11:39.95	125.50	7.86	-30.8	-31.3	15.8	0.00e+00	0	44	0	28378660864	36	17964
2026-01-22 21:11:40.96	125.68	7.80	-31.0	-31.5	15.8	0.00e+00	0	44	0	28454158336	36	18258
2026-01-22 21:11:41.97	125.86	7.74	-31.0	-31.5	15.7	0.00e+00	0	44	0	28529655808	36	18279
2026-01-22 21:11:42.97	126.04	7.68	-31.2	-31.6	15.7	0.00e+00	0	44	0	28605153280	36	18633
2026-01-22 21:11:43.98	126.22	7.62	-31.0	-31.5	15.7	0.00e+00	0	44	0	28680650752	36	18286
2026-01-22 21:11:44.99	126.40	7.56	-31.2	-31.6	15.7	0.00e+00	0	44	0	28756148224	36	18615
2026-01-22 21:11:46.00	126.57	7.49	-31.1	-31.5	15.7	0.00e+00	0	44	0	28831645696	36	18414
2026-01-22 21:11:47.01	126.75	7.43	-31.1	-31.6	15.7	0.00e+00	0	44	0	28907143168	36	18458
2026-01-22 21:11:48.02	126.93	7.37	-30.9	-31.4	15.7	0.00e+00	0	44	0	28982640640	36	18123
2026-01-22 21:11:49.03	127.10	7.31	-31.2	-31.7	15.7	0.00e+00	0	44	0	29058138112	36	18726
2026-01-22 21:11:50.03	127.27	7.25	-31.3	-31.8	15.6	0.00e+00	0	44	0	29133635584	36	18934
2026-01-22 21:11:51.04	127.45	7.19	-31.2	-31.7	15.6	0.00e+00	0	44	0	29209133056	36	18773
2026-01-22 21:11:52.05	127.62	7.13	-31.3	-31.8	15.6	0.00e+00	0	44	0	29284630528	36	19005
2026-01-22 21:11:53.06	127.79	7.07	-30.9	-31.4	15.7	0.00e+00	0	44	0	29360128000	36	18146
2026-01-22 21:11:54.07	127.96	7.01	-31.2	-31.7	15.6	0.00e+00	0	44	0	29435625472	36	18683
2026-01-22 21:11:55.09	128.13	6.95	-31.3	-31.8	15.5	0.00e+00	0	44	0	29511122944	36	18981
2026-01-22 21:11:56.10	128.30	6.89	-31.5	-31.9	15.5	0.00e+00	0	44	0	29586620416	36	19297
2026-01-22 21:11:57.10	128.47	6.83	-31.2	-31.6	15.6	0.00e+00	0	44	0	29662117888	36	18617
2026-01-22 21:11:58.11	128.64	6.77	-31.2	-31.7	15.6	0.00e+00	0	43	0	29737615360	36	18787
2026-01-22 21:11:59.12	128.80	6.71	-31.2	-31.7	15.6	0.00e+00	0	44	0	29813112832	36	18792
2026-01-22 21:12:00.13	128.97	6.65	-31.1	-31.6	15.6	0.00e+00	0	44	0	29896998912	36	18584
2026-01-22 21:12:01.14	129.13	6.59	-31.3	-31.7	15.5	0.00e+00	0	44	0	29972496384	36	18856
2026-01-22 21:12:02.15	129.30	6.53	-31.5	-32.0	15.5	0.00e+00	0	44	0	30047993856	36	19314
2026-01-22 21:12:03.16	129.46	6.47	-31.3	-31.8	15.5	0.00e+00	0	44	0	30115102720	36	18957
2026-01-22 21:12:04.17	129.62	6.41	-31.5	-31.9	15.5	0.00e+00	0	44	0	30190600192	36	19248
2026-01-22 21:12:05.18	129.78	6.35	-31.5	-31.9	15.5	0.00e+00	0	44	0	30274486272	36	19296
2026-01-22 21:12:06.19	129.95	6.29	-31.6	-32.1	15.4	0.00e+00	0	44	0	30349983744	36	19551
2026-01-22 21:12:07.20	130.11	6.23	-31.6	-32.1	15.4	0.00e+00	0	44	0	30425481216	36	19612
2026-01-22 21:12:08.21	130.26	6.17	-31.6	-32.1	15.5	0.00e+00	0	44	0	30500978688	38	17497
2026-01-22 21:12:09.22	130.42	6.11	-31.7	-32.1	15.4	0.00e+00	0	44	0	30576476160	38	17576
2026-01-22 21:12:10.22	130.58	6.05	-31.3	-31.8	15.6	0.00e+00	0	44	0	30643585024	38	16872
2026-01-22 21:12:11.23	130.74	5.99	-31.7	-32.1	15.4	0.00e+00	0	44	0	30727471104	38	17578
2026-01-22 21:12:12.24	130.89	5.93	-32.2	-32.7	15.3	0.00e+00	0	44	0	30802968576	38	18646
2026-01-22 21:12:13.25	131.05	5.87	-31.8	-32.3	15.4	0.00e+00	0	44	0	30878466048	38	17848
2026-01-22 21:12:14.26	131.20	5.81	-32.2	-32.7	15.2	0.00e+00	0	44	0	30953963520	38	18773
2026-01-22 21:12:15.27	131.36	5.75	-32.0	-32.5	15.3	0.00e+00	0	44	0	31029460992	38	18243
2026-01-22 21:12:16.28	131.51	5.69	-31.9	-32.4	15.4	0.00e+00	0	44	0	31104958464	38	18132
2026-01-22 21:12:17.29	131.66	5.63	-31.8	-32.2	15.4	0.00e+00	0	44	0	31180455936	38	17761
2026-01-22 21:12:18.30	131.81	5.57	-31.6	-32.1	15.5	0.00e+00	0	44	0	31255953408	38	17496
2026-01-22 21:12:19.31	131.96	5.51	-31.9	-32.3	15.3	0.00e+00	0	44	0	31331450880	38	18007
2026-01-22 21:12:20.32	132.11	5.45	-31.5	-31.9	15.5	0.00e+00	0	44	0	31406948352	38	17193
2026-01-22 21:12:21.33	132.26	5.39	-32.2	-32.6	15.2	0.00e+00	0	44	0	31482445824	38	18619
2026-01-22 21:12:22.34	132.41	5.33	-31.9	-32.4	15.2	0.00e+00	0	44	0	31557943296	38	18114
2026-01-22 21:12:23.35	132.56	5.27	-32.0	-32.5	15.2	0.00e+00	0	44	0	31633440768	38	18349
2026-01-22 21:12:24.36	132.70	5.21	-32.3	-32.7	15.1	0.00e+00	0	44	0	31708938240	38	18830
2026-01-22 21:12:25.36	132.85	5.15	-32.0	-32.5	15.3	0.00e+00	0	44	0	31784435712	38	18307
2026-01-22 21:12:26.37	132.99	5.09	-32.1	-32.6	15.2	0.00e+00	0	44	0	31859933184	38	18527
2026-01-22 21:12:27.38	133.14	5.03	-32.2	-32.6	15.2	0.00e+00	0	44	0	31935430656	38	18549
2026-01-22 21:12:28.39	133.28	4.97	-32.2	-32.6	15.1	0.00e+00	0	44	0	32010928128	38	18636
2026-01-22 21:12:29.40	133.43	4.91	-32.1	-32.6	15.2	0.00e+00	0	44	0	32086425600	38	18547
2026-01-22 21:12:30.41	133.57	4.85	-32.4	-32.9	15.0	0.00e+00	0	44	0	32161923072	38	19199
2026-01-22 21:12:31.42	133.71	4.79	-32.4	-32.8	15.2	0.00e+00	0	44	0	32237420544	38	19062
2026-01-22 21:12:32.43	133.85	4.73	-32.3	-32.7	15.1	0.00e+00	0	44	0	32312918016	38	18830
2026-01-22 21:12:33.44	133.99	4.67	-31.8	-32.3	15.3	0.00e+00	0	44	0	32388415488	38	17928
2026-01-22 21:12:34.45	134.13	4.61	-32.5	-33.0	15.1	0.00e+00	0	44	0	32463912960	38	19306
2026-01-22 21:12:35.46	134.27	4.55	-32.0	-32.5	15.2	0.00e+00	0	44	0	32539410432	38	18250
2026-01-22 21:12:36.47	134.41	4.50	-32.3	-32.8	15.1	0.00e+00	0	44	0	32614907904	38	18911
2026-01-22 21:12:37.48	134.55	4.44	-32.3	-32.8	15.1	0.00e+00	0	44	0	32698793984	38	18938
2026-01-22 21:12:38.49	134.68	4.38	-32.3	-32.8	15.0	0.00e+00	0	44	0	32765902848	38	18948
2026-01-22 21:12:39.50	134.82	4.32	-32.4	-32.9	15.0	0.00e+00	0	44	0	32841400320	38	19185
2026-01-22 21:12:40.51	134.96	4.26	-32.2	-32.6	15.1	0.00e+00	0	44	0	32916897792	38	18600
2026-01-22 21:12:41.52	135.09	4.20	-32.3	-32.8	15.0	0.00e+00	0	44	0	32992395264	40	16818
2026-01-22 21:12:42.53	135.23	4.14	-32.8	-33.3	14.8	0.00e+00	0	44	0	33076281344	40	17806
2026-01-22 21:12:43.54	135.36	4.08	-50.0	-52.5	3.6	0.00e+00	0	44	104	33126612992	60	51423
2026-01-22 21:12:44.55	135.49	4.03	-50.0	-52.4	3.6	0.00e+00	0	43	104	33126612992	60	51060
2026-01-22 21:12:45.56	135.63	3.97	-49.9	-52.4	3.6	0.00e+00	0	43	104	33126612992	60	51057
2026-01-22 21:12:46.57	135.76	3.91	-49.9	-52.4	3.5	0.00e+00	0	43	104	33126612992	60	51123
2026-01-22 21:12:47.58	135.89	3.85	-49.9	-52.4	3.6	0.00e+00	0	43	104	33126612992	60	50844
2026-01-22 21:12:48.58	136.02	3.79	-49.9	-52.4	3.6	0.00e+00	0	43	104	33126612992	60	50865
2026-01-22 21:12:49.59	136.15	3.73	-49.8	-52.3	3.6	0.00e+00	0	43	104	33126612992	60	50575
2026-01-22 21:12:50.60	136.28	3.68	-49.9	-52.4	3.6	0.00e+00	0	44	104	33126612992	60	50826
2026-01-22 21:12:51.61	136.40	3.62	-49.9	-52.4	3.6	0.00e+00	0	43	104	33126612992	60	50769
2026-01-22 21:12:52.62	136.53	3.56	-49.8	-52.4	3.6	0.00e+00	0	43	104	33126612992	60	50816
2026-01-22 21:12:53.63	136.66	3.50	-49.8	-52.2	3.6	0.00e+00	0	43	104	33126612992	60	50156
2026-01-22 21:12:54.64	136.79	3.44	-49.9	-52.3	3.6	0.00e+00	0	43	104	33126612992	60	50591
2026-01-22 21:12:55.65	136.91	3.39	-49.9	-52.3	3.6	0.00e+00	0	43	104	33126612992	60	50425
2026-01-22 21:12:56.66	137.04	3.33	-49.8	-52.3	3.6	0.00e+00	0	43	104	33126612992	60	50267
2026-01-22 21:12:57.67	137.16	3.27	-49.6	-52.1	3.6	0.00e+00	0	43	104	33126612992	60	49489
2026-01-22 21:12:58.68	137.29	3.21	-49.9	-52.3	3.5	0.00e+00	0	43	104	33126612992	60	50695
2026-01-22 21:12:59.69	137.41	3.15	-49.7	-52.2	3.6	0.00e+00	0	43	104	33126612992	60	49747
2026-01-22 21:13:00.70	137.53	3.10	-49.7	-52.2	3.6	0.00e+00	0	43	104	33126612992	60	49872
2026-01-22 21:13:01.71	137.66	3.04	-49.6	-52.1	3.6	0.00e+00	0	43	104	33126612992	60	49119
2026-01-22 21:13:02.72	137.78	2.98	-49.8	-52.2	3.6	0.00e+00	0	43	104	33126612992	60	49777
2026-01-22 21:13:03.73	137.90	2.92	-50.3	-52.7	3.6	0.00e+00	0	43	104	33126612992	60	53094
2026-01-22 21:13:04.74	138.02	2.87	-50.5	-53.0	3.5	0.00e+00	0	43	104	33126612992	60	54508
2026-01-22 21:13:05.75	138.14	2.81	-50.5	-53.0	3.6	0.00e+00	0	43	104	33126612992	60	54823
2026-01-22 21:13:06.76	138.26	2.75	-50.8	-53.3	3.6	0.00e+00	0	43	104	33126612992	60	56721
2026-01-22 21:13:07.77	138.38	2.70	-50.9	-53.4	3.6	0.00e+00	0	43	104	33126612992	60	57425
2026-01-22 21:13:08.78	138.50	2.64	-50.8	-53.4	3.6	0.00e+00	0	43	104	33126612992	60	57038
2026-01-22 21:13:09.79	138.62	2.58	-51.0	-53.4	3.6	0.00e+00	0	43	104	33126612992	60	57575
2026-01-22 21:13:10.80	138.73	2.52	-51.2	-53.6	3.6	0.00e+00	0	43	104	33126612992	60	58951
2026-01-22 21:13:11.81	138.85	2.47	-51.1	-53.6	3.6	0.00e+00	0	43	104	33126612992	60	58348
2026-01-22 21:13:12.82	138.97	2.41	-51.1	-53.6	3.6	0.00e+00	0	43	104	33126612992	60	58378
2026-01-22 21:13:13.83	139.08	2.35	-51.2	-53.6	3.6	0.00e+00	0	43	104	33126612992	60	58929
2026-01-22 21:13:14.84	139.20	2.30	-51.2	-53.7	3.6	0.00e+00	0	43	104	33126612992	60	59272
2026-01-22 21:13:15.85	139.31	2.24	-51.3	-53.7	3.6	0.00e+00	0	43	104	33126612992	60	59629
2026-01-22 21:13:16.87	139.43	2.18	-51.3	-53.8	3.6	0.00e+00	0	43	104	33126612992	60	59901
2026-01-22 21:13:17.88	139.54	2.13	-51.3	-53.8	3.6	0.00e+00	0	43	104	33126612992	60	60046
2026-01-22 21:13:18.89	139.65	2.07	-51.3	-53.8	3.6	0.00e+00	0	43	104	33126612992	60	59816
2026-01-22 21:13:19.90	139.77	2.02	-51.3	-53.8	3.6	0.00e+00	0	43	104	33126612992	60	59832
2026-01-22 21:13:20.91	139.88	1.96	-51.4	-53.9	3.6	0.00e+00	0	43	104	33126612992	60	60413
2026-01-22 21:13:21.92	139.99	1.90	-51.3	-53.8	3.6	0.00e+00	0	43	104	33126612992	60	60032
2026-01-22 21:13:22.93	140.10	1.85	-51.3	-53.8	3.6	0.00e+00	0	43	104	33126612992	60	59821
2026-01-22 21:13:23.94	140.21	1.79	-51.4	-53.9	3.6	0.00e+00	0	43	104	33126612992	60	60720
2026-01-22 21:13:24.95	140.32	1.74	-51.4	-53.8	3.6	0.00e+00	0	43	104	33126612992	60	60288
2026-01-22 21:13:25.96	140.43	1.68	-51.4	-53.9	3.6	0.00e+00	0	43	104	33126612992	60	60422
2026-01-22 21:13:26.97	140.54	1.62	-51.3	-53.8	3.6	0.00e+00	0	43	104	33126612992	60	60063
2026-01-22 21:13:27.98	140.65	1.57	-51.3	-53.8	3.6	0.00e+00	0	43	104	33126612992	60	60326
2026-01-22 21:13:28.99	140.76	1.51	-51.4	-53.8	3.6	0.00e+00	0	43	104	33126612992	60	60205
2026-01-22 21:13:30.00	140.86	1.46	-51.4	-53.8	3.6	0.00e+00	0	43	104	33126612992	60	60142
2026-01-22 21:13:31.01	140.97	1.40	-51.3	-53.8	3.6	0.00e+00	0	43	104	33126612992	60	59883
2026-01-22 21:13:32.02	141.08	1.35	-51.3	-53.8	3.6	0.00e+00	0	43	104	33126612992	60	60071
2026-01-22 21:13:33.03	141.18	1.29	-51.3	-53.8	3.6	0.00e+00	0	43	104	33126612992	60	59955
2026-01-22 21:13:34.04	141.29	1.24	-51.4	-53.8	3.6	0.00e+00	0	43	104	33126612992	60	60196
2026-01-22 21:13:35.05	141.39	1.18	-51.4	-53.8	3.6	0.00e+00	0	43	104	33126612992	60	59777
2026-01-22 21:13:36.06	141.50	1.13	-51.4	-53.9	3.6	0.00e+00	0	43	104	33126612992	60	60522
2026-01-22 21:13:37.07	141.60	1.07	-51.3	-53.8	3.6	0.00e+00	0	43	104	33126612992	60	60315
2026-01-22 21:13:38.08	141.71	1.02	-51.4	-53.8	3.6	0.00e+00	0	43	104	33126612992	60	60223
2026-01-22 21:13:39.09	141.81	0.96	-51.4	-53.8	3.6	0.00e+00	0	43	104	33126612992	60	59915
2026-01-22 21:13:40.10	141.91	0.91	-51.4	-53.9	3.6	0.00e+00	0	43	104	33126612992	60	60465
2026-01-22 21:13:41.11	142.01	0.85	-51.4	-53.8	3.6	0.00e+00	0	43	104	33126612992	60	60160
2026-01-22 21:13:42.12	142.12	0.80	-51.4	-53.8	3.6	0.00e+00	0	43	104	33126612992	60	60296
2026-01-22 21:13:43.13	142.22	0.74	-51.4	-53.8	3.6	0.00e+00	0	43	104	33126612992	60	59861
2026-01-22 21:13:44.13	142.32	0.69	-51.4	-53.9	3.6	0.00e+00	0	43	104	33126612992	60	60363
2026-01-22 21:13:45.14	142.42	0.63	-51.4	-53.8	3.6	0.00e+00	0	43	104	33126612992	60	59791
2026-01-22 21:13:46.15	142.52	0.58	-51.4	-53.8	3.6	0.00e+00	0	43	104	33126612992	60	60176
2026-01-22 21:13:47.16	142.62	0.52	-51.3	-53.8	3.6	0.00e+00	0	43	104	33126612992	60	60053
2026-01-22 21:13:48.17	142.72	0.47	-51.4	-53.9	3.6	0.00e+00	0	43	104	33126612992	60	60342
2026-01-22 21:13:49.18	142.81	0.42	-51.4	-53.8	3.6	0.00e+00	0	43	104	33126612992	60	60123
2026-01-22 21:13:50.19	142.91	0.36	-51.3	-53.8	3.6	0.00e+00	0	43	104	33126612992	60	60307
2026-01-22 21:13:51.20	143.01	0.31	-51.4	-53.8	3.6	0.00e+00	0	43	104	33126612992	60	59820
2026-01-22 21:13:52.20	143.11	0.25	-51.3	-53.8	3.6	0.00e+00	0	43	104	33126612992	60	59902
2026-01-22 21:13:53.21	143.20	0.20	-51.3	-53.8	3.6	0.00e+00	0	43	104	33126612992	60	60048
2026-01-22 21:13:54.22	143.30	0.15	-51.3	-53.8	3.6	0.00e+00	0	43	104	33126612992	60	59996
2026-01-22 21:13:55.23	143.40	0.09	-51.4	-53.8	3.6	0.00e+00	0	43	104	33126612992	60	60116

#Closed at: 2026-01-22 21:13:55
#Recorded file [33126 MB]: D:/lorett/data/35029_260123_090357.dat