passes_logs/2026/01/22/R4.6S_Anadyr/R4.6S_Anadyr__20260122_222922_SUOMI_NPP_rec.log

#Pass ID: 20260122_222922_SUOMI NPP
#Satellite: SUOMI NPP
#Configuration: NPP
#almurnet v.1.7.20251203
#Start time: 2026-01-22 22:29:23

#Version: 2.2.20231116
#Station: R4.6S_Anadyr
#Location: 177.4865 lon 64.73178 lat
#TLE: 1 37849U 11061A   26022.50498765  .00000208  00000+0  11976-3 0  9992
#TLE: 2 37849  98.7820 324.4892 0002275  50.8149 309.3229 14.19528284737775

#Time	Az	El	Level	Level2	SNR	BER	BlckErr	Temp	State	Recorded	gain1	gain2
2026-01-22 22:29:23.18	112.58	0.04	-50.9	-63.5	3.5	1.52e+00	0	38	0	0	60	52244
2026-01-22 22:29:24.18	112.54	0.10	-51.1	-66.3	3.6	1.51e+00	0	39	104	0	60	74789
2026-01-22 22:29:25.19	112.50	0.15	-51.0	-66.2	3.6	1.51e+00	0	39	104	0	60	73913
2026-01-22 22:29:26.20	112.45	0.21	-51.0	-66.2	3.6	1.51e+00	0	40	104	0	60	73596
2026-01-22 22:29:27.20	112.41	0.27	-51.0	-66.2	3.6	1.51e+00	0	39	104	0	60	73414
2026-01-22 22:29:28.21	112.37	0.33	-51.0	-66.2	3.6	1.51e+00	0	40	104	0	60	73425
2026-01-22 22:29:29.22	112.32	0.38	-51.0	-66.2	3.6	1.51e+00	0	40	104	0	60	73410
2026-01-22 22:29:30.23	112.28	0.44	-50.9	-66.1	3.6	1.51e+00	0	40	104	0	60	73253
2026-01-22 22:29:31.24	112.23	0.50	-51.0	-66.2	3.6	1.51e+00	0	40	104	0	60	73649
2026-01-22 22:29:32.25	112.19	0.56	-51.0	-66.2	3.6	1.51e+00	0	40	104	0	60	73804
2026-01-22 22:29:33.26	112.14	0.62	-51.0	-66.2	3.6	1.51e+00	0	40	104	0	60	73656
2026-01-22 22:29:34.27	112.10	0.67	-51.0	-66.2	3.6	1.51e+00	0	40	104	0	60	73601
2026-01-22 22:29:35.28	112.05	0.73	-50.9	-66.2	3.6	1.51e+00	0	40	104	0	60	73542
2026-01-22 22:29:36.29	112.01	0.79	-51.0	-66.2	3.6	1.51e+00	0	40	104	0	60	73645
2026-01-22 22:29:37.30	111.96	0.85	-50.9	-66.1	3.6	1.51e+00	0	40	104	0	60	72936
2026-01-22 22:29:38.31	111.92	0.91	-50.9	-66.2	3.6	1.51e+00	0	40	104	0	60	73887
2026-01-22 22:29:39.32	111.87	0.97	-50.9	-66.1	3.6	1.51e+00	0	40	104	0	60	72808
2026-01-22 22:29:40.33	111.83	1.03	-50.9	-66.1	3.6	1.51e+00	0	40	104	0	60	72905
2026-01-22 22:29:41.34	111.78	1.08	-50.8	-66.0	3.6	1.51e+00	0	40	104	0	60	72274
2026-01-22 22:29:42.35	111.73	1.14	-50.7	-65.9	3.6	1.51e+00	0	40	104	0	60	71428
2026-01-22 22:29:43.36	111.69	1.20	-50.7	-65.9	3.6	1.51e+00	0	40	104	0	60	71294
2026-01-22 22:29:44.36	111.64	1.26	-50.6	-65.8	3.6	1.51e+00	0	40	104	0	60	70497
2026-01-22 22:29:45.37	111.59	1.32	-50.4	-65.5	3.6	1.51e+00	0	40	104	0	60	68243
2026-01-22 22:29:46.38	111.55	1.38	-50.2	-65.5	3.6	1.51e+00	0	40	104	0	60	68410
2026-01-22 22:29:47.39	111.50	1.44	-49.6	-65.4	3.6	1.51e+00	0	40	104	0	60	67515
2026-01-22 22:29:48.40	111.45	1.50	-49.4	-64.8	3.6	1.51e+00	0	40	104	0	60	63074
2026-01-22 22:29:49.41	111.40	1.56	-48.4	-64.1	3.6	1.51e+00	0	40	104	0	60	58283
2026-01-22 22:29:50.42	111.35	1.62	-48.4	-64.1	3.6	1.51e+00	0	40	104	0	60	57874
2026-01-22 22:29:51.43	111.31	1.68	-48.4	-64.0	3.6	1.51e+00	0	40	104	0	60	57592
2026-01-22 22:29:52.44	111.26	1.74	-48.4	-64.1	3.6	1.51e+00	0	40	104	0	60	57823
2026-01-22 22:29:53.45	111.21	1.80	-48.4	-64.1	3.6	1.51e+00	0	40	104	0	60	57794
2026-01-22 22:29:54.46	111.16	1.86	-48.4	-64.0	3.6	1.51e+00	0	40	104	0	60	57455
2026-01-22 22:29:55.47	111.11	1.92	-48.4	-64.1	3.6	1.51e+00	0	40	104	0	60	57926
2026-01-22 22:29:56.48	111.06	1.98	-48.4	-64.1	3.6	1.51e+00	0	40	104	0	60	58005
2026-01-22 22:29:57.49	111.01	2.04	-48.4	-64.1	3.6	1.51e+00	0	40	104	0	60	57629
2026-01-22 22:29:58.50	110.96	2.10	-48.4	-64.1	3.6	1.51e+00	0	40	104	0	60	57693
2026-01-22 22:29:59.51	110.91	2.16	-48.5	-64.1	3.6	1.51e+00	0	40	104	0	60	57953
2026-01-22 22:30:00.52	110.86	2.22	-48.4	-64.0	3.6	1.51e+00	0	40	104	0	60	57600
2026-01-22 22:30:01.53	110.81	2.28	-48.4	-64.0	3.6	1.51e+00	0	40	104	0	60	57519
2026-01-22 22:30:02.53	110.76	2.34	-48.4	-64.0	3.6	1.51e+00	0	40	104	0	60	57211
2026-01-22 22:30:03.54	110.71	2.40	-48.4	-64.1	3.6	1.51e+00	0	40	104	0	60	57781
2026-01-22 22:30:04.55	110.66	2.47	-48.4	-64.1	3.6	1.51e+00	0	40	104	0	60	57802
2026-01-22 22:30:05.56	110.61	2.53	-48.4	-64.1	3.6	1.51e+00	0	40	104	0	60	57935
2026-01-22 22:30:06.57	110.56	2.59	-48.4	-64.1	3.6	1.51e+00	0	40	104	0	60	58085
2026-01-22 22:30:07.58	110.50	2.65	-48.4	-64.1	3.6	1.51e+00	0	40	104	0	60	57710
2026-01-22 22:30:08.59	110.45	2.71	-48.4	-64.0	3.6	1.51e+00	0	40	104	0	60	57421
2026-01-22 22:30:09.60	110.40	2.77	-48.4	-64.0	3.6	1.51e+00	0	40	104	0	60	57277
2026-01-22 22:30:10.61	110.35	2.84	-48.4	-64.1	3.6	1.51e+00	0	40	104	0	60	57772
2026-01-22 22:30:11.62	110.29	2.90	-48.4	-64.1	3.6	1.51e+00	0	40	104	0	60	57732
2026-01-22 22:30:12.63	110.24	2.96	-48.4	-64.1	3.6	1.51e+00	0	40	104	0	60	57665
2026-01-22 22:30:13.64	110.19	3.02	-48.4	-63.9	3.6	1.51e+00	0	40	104	0	60	56551
2026-01-22 22:30:14.65	110.13	3.09	-48.4	-63.8	3.6	1.51e+00	0	40	104	0	60	56060
2026-01-22 22:30:15.65	110.08	3.15	-48.4	-63.8	3.6	1.51e+00	0	40	104	0	60	55952
2026-01-22 22:30:16.66	110.03	3.21	-48.4	-63.9	3.6	1.51e+00	0	40	104	0	60	56587
2026-01-22 22:30:17.68	109.97	3.27	-48.4	-63.6	3.6	1.51e+00	0	40	104	0	60	54821
2026-01-22 22:30:18.69	109.92	3.34	-48.3	-61.9	3.6	1.51e+00	0	40	104	0	60	45075
2026-01-22 22:30:19.70	109.86	3.40	-48.2	-59.1	4.7	1.10e+00	49	40	104	0	60	32604
2026-01-22 22:30:20.71	109.81	3.46	-47.9	-55.7	6.7	3.80e-01	0	40	0	1048576	60	22096
2026-01-22 22:30:21.72	109.75	3.53	-48.8	-63.5	3.6	5.70e-01	0	40	104	2097152	60	54141
2026-01-22 22:30:22.72	109.70	3.59	-48.3	-59.6	5.4	1.51e+00	0	40	104	2097152	60	34589
2026-01-22 22:30:23.73	109.64	3.65	-48.6	-60.4	3.6	1.31e-01	0	40	104	2097152	60	37986
2026-01-22 22:30:24.74	109.59	3.72	-48.9	-64.1	3.6	1.51e+00	0	40	104	2097152	60	58106
2026-01-22 22:30:25.75	109.53	3.78	-45.9	-49.8	13.0	1.51e+00	2	40	104	2097152	60	11159
2026-01-22 22:30:26.76	109.47	3.84	-45.8	-49.4	13.6	5.30e-06	90	40	0	2097152	60	10680
2026-01-22 22:30:27.77	109.42	3.91	-46.2	-50.3	12.8	2.36e-05	0	40	0	4194304	60	11790
2026-01-22 22:30:28.78	109.36	3.97	-45.3	-48.4	14.8	1.67e-05	92	40	0	6291456	60	9514
2026-01-22 22:30:29.79	109.30	4.04	-44.3	-46.7	16.7	0.00e+00	0	40	0	8388608	60	7827
2026-01-22 22:30:30.80	109.24	4.10	-44.2	-46.6	16.9	0.00e+00	92	40	0	9437184	60	7743
2026-01-22 22:30:31.81	109.19	4.17	-43.6	-45.7	17.7	0.00e+00	0	40	0	11534336	60	6954
2026-01-22 22:30:32.82	109.13	4.23	-44.3	-46.8	16.8	0.00e+00	92	40	0	13631488	60	7893
2026-01-22 22:30:33.83	109.07	4.30	-44.1	-46.5	16.9	0.00e+00	90	40	0	15728640	60	7627
2026-01-22 22:30:34.84	109.01	4.36	-43.9	-46.1	17.5	0.00e+00	0	40	0	16777216	60	7270
2026-01-22 22:30:35.85	108.95	4.43	-44.3	-46.7	16.8	0.00e+00	62	40	0	18874368	60	7823
2026-01-22 22:30:36.85	108.89	4.49	-44.5	-46.9	16.9	0.00e+00	0	40	0	20971520	60	7979
2026-01-22 22:30:37.86	108.84	4.56	-44.5	-46.8	16.8	0.00e+00	92	40	0	23068672	60	7901
2026-01-22 22:30:38.87	108.78	4.62	-44.4	-46.6	17.2	0.00e+00	9	40	0	25165824	60	7766
2026-01-22 22:30:39.88	108.72	4.69	-44.7	-47.0	16.8	0.00e+00	92	40	0	27262976	60	8050
2026-01-22 22:30:40.89	108.66	4.75	-44.5	-46.8	16.9	0.00e+00	90	40	0	28311552	60	7886
2026-01-22 22:30:41.90	108.59	4.82	-44.3	-46.4	17.3	0.00e+00	0	40	0	30408704	60	7566
2026-01-22 22:30:42.91	108.53	4.88	-44.1	-46.1	17.5	0.00e+00	90	40	0	32505856	60	7332
2026-01-22 22:30:43.92	108.47	4.95	-44.2	-46.3	17.4	0.00e+00	0	40	0	34603008	60	7455
2026-01-22 22:30:44.93	108.41	5.02	-44.0	-46.2	17.5	0.00e+00	58	41	0	36700160	60	7377
2026-01-22 22:30:45.94	108.35	5.08	-43.3	-45.2	18.5	0.00e+00	0	40	0	37748736	60	6558
2026-01-22 22:30:46.95	108.29	5.15	-43.4	-45.3	18.4	0.00e+00	90	40	0	39845888	60	6673
2026-01-22 22:30:47.96	108.23	5.22	-43.4	-45.4	18.3	0.00e+00	92	40	0	41943040	60	6709
2026-01-22 22:30:48.96	108.16	5.28	-43.5	-45.6	18.1	0.00e+00	0	41	0	44040192	60	6905
2026-01-22 22:30:49.97	108.10	5.35	-43.8	-46.1	17.6	0.00e+00	90	41	0	46137344	60	7261
2026-01-22 22:30:50.98	108.04	5.42	-43.4	-45.4	18.3	0.00e+00	0	40	0	47185920	60	6749
2026-01-22 22:30:51.99	107.97	5.48	-43.4	-45.5	18.4	0.00e+00	92	41	0	49283072	60	6795
2026-01-22 22:30:53.00	107.91	5.55	-43.5	-45.6	18.2	0.00e+00	0	40	0	51380224	60	6882
2026-01-22 22:30:54.01	107.85	5.62	-43.0	-44.8	18.9	0.00e+00	92	41	0	53477376	60	6301
2026-01-22 22:30:55.02	107.78	5.68	-42.9	-44.7	19.2	0.00e+00	38	40	0	55574528	60	6176
2026-01-22 22:30:56.03	107.72	5.75	-42.5	-44.1	19.5	0.00e+00	0	40	0	56623104	58	6534
2026-01-22 22:30:57.04	107.65	5.82	-42.7	-44.4	19.4	0.00e+00	92	41	0	58720256	58	6709
2026-01-22 22:30:58.05	107.59	5.89	-42.6	-44.1	19.6	0.00e+00	0	40	0	60817408	58	6530
2026-01-22 22:30:59.06	107.52	5.96	-42.4	-44.0	19.7	0.00e+00	92	41	0	62914560	58	6431
2026-01-22 22:31:00.07	107.45	6.02	-42.3	-43.9	19.9	0.00e+00	0	40	0	65011712	58	6347
2026-01-22 22:31:01.08	107.39	6.09	-42.8	-44.5	19.2	0.00e+00	92	41	0	66060288	58	6779
2026-01-22 22:31:02.09	107.32	6.16	-42.7	-44.3	19.3	0.00e+00	19	40	0	68157440	58	6662
2026-01-22 22:31:03.10	107.25	6.23	-42.9	-44.6	19.2	0.00e+00	32	41	0	70254592	58	6914
2026-01-22 22:31:04.11	107.19	6.30	-42.8	-44.5	19.3	0.00e+00	92	40	0	72351744	58	6798
2026-01-22 22:31:05.11	107.12	6.37	-42.6	-44.2	19.6	0.00e+00	0	41	0	74448896	58	6582
2026-01-22 22:31:06.12	107.05	6.44	-42.5	-44.0	19.8	0.00e+00	92	41	0	75497472	58	6425
2026-01-22 22:31:07.13	106.98	6.51	-42.3	-43.7	20.1	0.00e+00	33	41	0	77594624	58	6194
2026-01-22 22:31:08.14	106.92	6.58	-42.5	-44.0	19.9	0.00e+00	92	41	0	79691776	58	6420
2026-01-22 22:31:09.15	106.85	6.65	-42.6	-44.0	19.9	0.00e+00	43	40	0	81788928	58	6446
2026-01-22 22:31:10.16	106.78	6.71	-42.5	-44.0	19.9	0.00e+00	92	40	0	83886080	58	6417
2026-01-22 22:31:11.17	106.71	6.78	-42.2	-43.6	20.2	0.00e+00	90	40	0	84934656	58	6107
2026-01-22 22:31:12.18	106.64	6.85	-42.4	-43.9	19.9	0.00e+00	0	41	0	87031808	58	6362
2026-01-22 22:31:13.19	106.57	6.92	-42.5	-44.1	19.7	0.00e+00	92	41	0	89128960	58	6467
2026-01-22 22:31:14.20	106.50	7.00	-43.1	-44.7	19.2	0.00e+00	0	41	0	91226112	58	6982
2026-01-22 22:31:15.21	106.42	7.07	-42.9	-44.5	19.4	0.00e+00	92	41	0	93323264	58	6838
2026-01-22 22:31:16.22	106.35	7.14	-42.9	-44.4	19.4	0.00e+00	0	41	0	95420416	58	6732
2026-01-22 22:31:17.23	106.28	7.21	-43.2	-44.8	19.2	0.00e+00	90	41	0	96468992	58	7068
2026-01-22 22:31:18.23	106.21	7.28	-42.7	-44.2	19.7	0.00e+00	92	41	0	98566144	58	6581
2026-01-22 22:31:19.24	106.14	7.35	-42.5	-43.9	19.9	0.00e+00	0	41	0	100663296	58	6372
2026-01-22 22:31:20.25	106.06	7.42	-42.9	-44.4	19.5	0.00e+00	90	41	0	102760448	58	6725
2026-01-22 22:31:21.26	105.99	7.49	-42.7	-44.1	19.7	0.00e+00	0	41	0	104857600	58	6535
2026-01-22 22:31:22.27	105.92	7.56	-42.8	-44.2	19.7	0.00e+00	92	41	0	105906176	58	6601
2026-01-22 22:31:23.28	105.84	7.63	-42.5	-43.8	20.1	0.00e+00	0	41	0	108003328	58	6298
2026-01-22 22:31:24.29	105.77	7.71	-42.8	-44.2	19.8	0.00e+00	92	41	0	110100480	58	6553
2026-01-22 22:31:25.30	105.69	7.78	-43.1	-44.6	19.5	0.00e+00	91	41	0	112197632	58	6862
2026-01-22 22:31:26.30	105.62	7.85	-43.0	-44.4	19.6	0.00e+00	0	41	0	114294784	58	6743
2026-01-22 22:31:27.31	105.54	7.92	-43.4	-45.0	19.2	0.00e+00	92	41	0	115343360	58	7219
2026-01-22 22:31:28.32	105.47	7.99	-43.3	-44.9	19.1	0.00e+00	0	41	0	117440512	58	7101
2026-01-22 22:31:29.33	105.39	8.07	-43.0	-44.5	19.5	0.00e+00	72	41	0	119537664	58	6820
2026-01-22 22:31:30.34	105.31	8.14	-43.2	-44.8	19.3	0.00e+00	0	41	0	121634816	58	7012
2026-01-22 22:31:31.35	105.24	8.21	-43.0	-44.5	19.6	0.00e+00	92	41	0	123731968	58	6780
2026-01-22 22:31:32.36	105.16	8.29	-42.8	-44.2	19.9	0.00e+00	92	41	0	124780544	58	6610
2026-01-22 22:31:33.37	105.08	8.36	-42.9	-44.4	19.7	0.00e+00	81	41	0	126877696	58	6741
2026-01-22 22:31:34.38	105.00	8.43	-42.7	-44.2	19.9	0.00e+00	92	41	0	128974848	58	6562
2026-01-22 22:31:35.38	104.93	8.51	-42.7	-44.2	19.6	0.00e+00	0	41	0	131072000	58	6543
2026-01-22 22:31:36.39	104.85	8.58	-42.8	-44.3	19.6	0.00e+00	92	41	0	133169152	58	6680
2026-01-22 22:31:37.40	104.77	8.65	-43.1	-44.6	19.4	0.00e+00	0	41	0	134217728	58	6915
2026-01-22 22:31:38.41	104.69	8.73	-43.2	-44.8	19.2	0.00e+00	92	41	0	136314880	58	7076
2026-01-22 22:31:39.42	104.61	8.80	-43.3	-44.9	19.1	0.00e+00	41	41	0	138412032	58	7149
2026-01-22 22:31:40.43	104.53	8.88	-43.1	-44.7	19.4	0.00e+00	92	41	0	140509184	58	6950
2026-01-22 22:31:41.44	104.44	8.95	-42.7	-44.1	19.8	0.00e+00	92	41	0	142606336	58	6520
2026-01-22 22:31:42.45	104.36	9.03	-42.0	-43.3	20.4	0.00e+00	0	41	0	143654912	58	5940
2026-01-22 22:31:43.46	104.28	9.10	-42.2	-43.6	20.0	0.00e+00	92	41	0	145752064	58	6157
2026-01-22 22:31:44.47	104.20	9.18	-42.2	-43.7	20.2	0.00e+00	0	41	0	147849216	58	6199
2026-01-22 22:31:45.48	104.11	9.25	-42.3	-43.8	20.2	0.00e+00	88	41	0	149946368	58	6287
2026-01-22 22:31:46.49	104.03	9.33	-42.5	-44.2	19.8	0.00e+00	0	41	0	152043520	58	6558
2026-01-22 22:31:47.50	103.95	9.40	-42.0	-43.5	20.6	0.00e+00	90	41	0	153092096	58	6038
2026-01-22 22:31:48.51	103.86	9.48	-41.9	-43.2	20.7	0.00e+00	92	41	0	155189248	58	5887
2026-01-22 22:31:49.51	103.78	9.55	-41.8	-43.2	20.8	0.00e+00	0	41	0	157286400	58	5833
2026-01-22 22:31:50.52	103.69	9.63	-41.7	-43.0	20.9	0.00e+00	77	41	0	159383552	56	6393
2026-01-22 22:31:51.53	103.61	9.71	-42.0	-43.3	20.9	0.00e+00	0	41	0	161480704	56	6672
2026-01-22 22:31:52.54	103.52	9.78	-41.7	-42.9	21.0	0.00e+00	92	41	0	162529280	56	6348
2026-01-22 22:31:53.55	103.43	9.86	-41.8	-43.1	21.0	0.00e+00	0	41	0	164626432	56	6476
2026-01-22 22:31:54.55	103.35	9.93	-41.8	-43.0	20.9	0.00e+00	90	41	0	166723584	56	6443
2026-01-22 22:31:55.56	103.26	10.01	-41.7	-43.0	21.1	0.00e+00	90	41	0	168820736	56	6395
2026-01-22 22:31:56.57	103.17	10.09	-41.8	-43.0	20.9	0.00e+00	69	41	0	170917888	56	6452
2026-01-22 22:31:57.58	103.08	10.17	-42.0	-43.4	20.5	0.00e+00	92	41	0	171966464	56	6741
2026-01-22 22:31:58.59	102.99	10.24	-41.8	-43.1	20.9	0.00e+00	0	41	0	174063616	56	6530
2026-01-22 22:31:59.60	102.90	10.32	-42.2	-43.5	20.6	0.00e+00	92	41	0	176160768	56	6818
2026-01-22 22:32:00.61	102.81	10.40	-41.8	-43.1	21.0	0.00e+00	0	41	0	178257920	56	6509
2026-01-22 22:32:01.62	102.72	10.48	-41.5	-42.7	21.3	0.00e+00	92	41	0	180355072	56	6174
2026-01-22 22:32:02.63	102.63	10.56	-41.5	-42.7	21.3	0.00e+00	37	41	0	181403648	56	6223
2026-01-22 22:32:03.64	102.54	10.63	-41.6	-42.8	21.3	0.00e+00	31	41	0	183500800	56	6248
2026-01-22 22:32:04.65	102.45	10.71	-41.9	-43.1	21.0	0.00e+00	92	41	0	185597952	56	6482
2026-01-22 22:32:05.66	102.36	10.79	-41.9	-43.1	21.0	0.00e+00	0	41	0	187695104	56	6506
2026-01-22 22:32:06.66	102.26	10.87	-42.0	-43.2	20.9	0.00e+00	71	41	0	189792256	56	6603
2026-01-22 22:32:07.67	102.17	10.95	-42.0	-43.2	20.9	0.00e+00	0	41	0	191889408	56	6581
2026-01-22 22:32:08.68	102.08	11.03	-41.9	-43.1	20.9	0.00e+00	92	41	0	192937984	56	6511
2026-01-22 22:32:09.69	101.98	11.11	-41.8	-43.0	21.1	0.00e+00	51	41	0	195035136	56	6449
2026-01-22 22:32:10.70	101.89	11.19	-41.7	-42.9	21.1	0.00e+00	77	41	0	197132288	56	6378
2026-01-22 22:32:11.71	101.79	11.27	-41.7	-42.8	21.3	0.00e+00	91	41	0	199229440	56	6311
2026-01-22 22:32:12.72	101.70	11.35	-41.7	-42.9	21.5	0.00e+00	0	41	0	201326592	56	6341
2026-01-22 22:32:13.73	101.60	11.43	-41.7	-42.9	21.3	0.00e+00	91	41	0	202375168	56	6324
2026-01-22 22:32:14.74	101.50	11.51	-41.9	-43.1	21.1	0.00e+00	0	41	0	204472320	56	6491
2026-01-22 22:32:15.75	101.40	11.59	-41.8	-43.1	21.1	0.00e+00	92	41	0	206569472	56	6466
2026-01-22 22:32:16.76	101.30	11.67	-41.6	-42.7	21.3	0.00e+00	47	41	0	208666624	56	6240
2026-01-22 22:32:17.77	101.21	11.75	-41.7	-42.8	21.1	0.00e+00	92	41	0	210763776	56	6315
2026-01-22 22:32:18.78	101.11	11.83	-41.9	-43.1	20.9	0.00e+00	90	41	0	211812352	56	6485
2026-01-22 22:32:19.78	101.01	11.91	-41.6	-42.8	21.1	0.00e+00	0	41	0	213909504	56	6260
2026-01-22 22:32:20.80	100.91	11.99	-41.6	-42.8	21.3	0.00e+00	65	41	0	216006656	56	6290
2026-01-22 22:32:21.80	100.80	12.07	-41.2	-42.3	21.6	0.00e+00	0	41	0	218103808	56	5964
2026-01-22 22:32:22.81	100.70	12.15	-41.4	-42.6	21.4	0.00e+00	92	41	0	220200960	56	6124
2026-01-22 22:32:23.82	100.60	12.24	-41.2	-42.4	21.5	0.00e+00	0	41	0	221249536	56	5980
2026-01-22 22:32:24.83	100.50	12.32	-41.4	-42.6	21.4	0.00e+00	92	41	0	223346688	56	6126
2026-01-22 22:32:25.84	100.39	12.40	-41.4	-42.5	21.5	0.00e+00	92	41	0	225443840	56	6076
2026-01-22 22:32:26.85	100.29	12.48	-41.3	-42.4	21.7	0.00e+00	0	41	0	227540992	56	6016
2026-01-22 22:32:27.86	100.18	12.57	-41.4	-42.5	21.5	0.00e+00	92	41	0	229638144	56	6096
2026-01-22 22:32:28.86	100.08	12.65	-41.6	-42.7	21.5	0.00e+00	0	41	0	230686720	56	6210
2026-01-22 22:32:29.87	99.97	12.73	-41.5	-42.6	21.4	0.00e+00	92	41	0	232783872	56	6144
2026-01-22 22:32:30.89	99.87	12.82	-41.6	-42.8	21.4	0.00e+00	0	41	0	234881024	56	6266
2026-01-22 22:32:31.90	99.76	12.90	-41.7	-42.9	21.2	0.00e+00	90	41	0	236978176	56	6376
2026-01-22 22:32:32.90	99.65	12.98	-41.9	-43.1	21.0	0.00e+00	92	41	0	239075328	56	6510
2026-01-22 22:32:33.92	99.54	13.07	-42.0	-43.2	21.0	0.00e+00	0	41	0	240123904	56	6607
2026-01-22 22:32:34.92	99.43	13.15	-41.6	-42.8	21.4	0.00e+00	92	41	0	242221056	56	6271
2026-01-22 22:32:35.93	99.33	13.23	-41.7	-42.8	21.3	0.00e+00	0	41	0	244318208	56	6310
2026-01-22 22:32:36.94	99.21	13.32	-41.5	-42.6	21.5	0.00e+00	90	41	0	246415360	56	6171
2026-01-22 22:32:37.95	99.10	13.40	-41.8	-43.0	21.3	0.00e+00	0	41	0	248512512	56	6439
2026-01-22 22:32:38.96	98.99	13.49	-41.8	-42.9	21.2	0.00e+00	92	41	0	249561088	56	6368
2026-01-22 22:32:39.97	98.88	13.57	-41.5	-42.7	21.3	0.00e+00	90	41	0	251658240	56	6196
2026-01-22 22:32:40.98	98.77	13.66	-41.9	-43.1	21.1	0.00e+00	0	41	0	253755392	56	6475
2026-01-22 22:32:41.99	98.65	13.74	-41.8	-43.0	21.1	0.00e+00	65	41	0	255852544	56	6448
2026-01-22 22:32:43.00	98.54	13.83	-42.0	-43.2	20.8	0.00e+00	0	41	0	257949696	56	6614
2026-01-22 22:32:44.01	98.42	13.91	-41.7	-42.9	21.3	0.00e+00	57	41	0	260046848	56	6381
2026-01-22 22:32:45.02	98.31	14.00	-41.2	-42.3	21.7	0.00e+00	0	41	0	261095424	56	5955
2026-01-22 22:32:46.03	98.19	14.09	-41.7	-42.9	21.3	0.00e+00	92	41	0	263192576	56	6322
2026-01-22 22:32:47.04	98.07	14.17	-41.5	-42.7	21.4	0.00e+00	18	41	0	265289728	56	6198
2026-01-22 22:32:48.05	97.96	14.26	-41.6	-42.8	21.3	0.00e+00	83	41	0	267386880	56	6299
2026-01-22 22:32:49.06	97.84	14.35	-41.7	-42.9	21.2	0.00e+00	92	41	0	269484032	56	6382
2026-01-22 22:32:50.07	97.72	14.43	-41.8	-43.0	21.3	0.00e+00	0	41	0	270532608	56	6444
2026-01-22 22:32:51.08	97.60	14.52	-41.6	-42.8	21.6	0.00e+00	92	41	0	272629760	56	6250
2026-01-22 22:32:52.09	97.48	14.61	-41.4	-42.5	21.7	0.00e+00	0	41	0	274726912	56	6043
2026-01-22 22:32:53.09	97.36	14.69	-41.1	-42.1	21.9	0.00e+00	92	41	0	276824064	56	5790
2026-01-22 22:32:54.10	97.24	14.78	-41.5	-42.6	21.5	0.00e+00	0	41	0	278921216	56	6155
2026-01-22 22:32:55.11	97.11	14.87	-41.3	-42.4	21.8	0.00e+00	91	41	0	279969792	56	5997
2026-01-22 22:32:56.12	96.99	14.96	-41.2	-42.3	21.8	0.00e+00	92	41	0	282066944	56	5910
2026-01-22 22:32:57.13	96.86	15.04	-41.2	-42.3	21.9	0.00e+00	0	41	0	284164096	56	5955
2026-01-22 22:32:58.14	96.74	15.13	-41.2	-42.3	21.8	0.00e+00	92	41	0	286261248	56	5903
2026-01-22 22:32:59.15	96.61	15.22	-41.2	-42.3	21.8	0.00e+00	0	41	0	288358400	56	5955
2026-01-22 22:33:00.16	96.49	15.31	-41.1	-42.2	21.9	0.00e+00	92	41	0	289406976	56	5849
2026-01-22 22:33:01.17	96.36	15.40	-40.5	-41.6	22.3	0.00e+00	0	41	0	291504128	54	6118
2026-01-22 22:33:02.18	96.23	15.49	-41.0	-42.1	22.0	0.00e+00	92	41	0	293601280	54	6503
2026-01-22 22:33:03.19	96.10	15.58	-41.2	-42.3	21.7	0.00e+00	92	41	0	295698432	54	6685
2026-01-22 22:33:04.20	95.97	15.66	-41.5	-42.7	21.5	0.00e+00	12	41	0	297795584	54	6934
2026-01-22 22:33:05.21	95.84	15.75	-42.0	-43.3	21.0	0.00e+00	52	41	0	298844160	56	6619
2026-01-22 22:33:06.22	95.71	15.84	-42.1	-43.4	21.1	0.00e+00	0	41	0	300941312	56	6733
2026-01-22 22:33:07.22	95.58	15.93	-42.2	-43.5	20.9	0.00e+00	92	41	0	303038464	56	6816
2026-01-22 22:33:08.24	95.45	16.02	-42.2	-43.4	20.9	0.00e+00	0	41	0	305135616	56	6732
2026-01-22 22:33:09.25	95.31	16.11	-42.0	-43.2	21.0	0.00e+00	92	41	0	307232768	56	6584
2026-01-22 22:33:10.26	95.18	16.20	-42.0	-43.2	21.0	0.00e+00	48	41	0	308281344	56	6577
2026-01-22 22:33:11.27	95.04	16.29	-42.1	-43.3	21.0	0.00e+00	0	41	0	310378496	56	6654
2026-01-22 22:33:12.28	94.91	16.39	-42.6	-43.9	20.4	0.00e+00	92	41	0	312475648	56	7160
2026-01-22 22:33:13.28	94.77	16.48	-43.0	-44.5	19.9	0.00e+00	0	41	0	314572800	58	6789
2026-01-22 22:33:14.29	94.63	16.57	-42.4	-43.7	20.7	0.00e+00	92	41	0	316669952	58	6197
2026-01-22 22:33:15.30	94.49	16.66	-42.3	-43.5	20.8	0.00e+00	0	41	0	317718528	58	6103
2026-01-22 22:33:16.31	94.35	16.75	-42.2	-43.5	20.9	0.00e+00	90	41	0	319815680	58	6048
2026-01-22 22:33:17.32	94.21	16.84	-41.9	-43.1	21.2	0.00e+00	4	41	0	321912832	56	6500
2026-01-22 22:33:18.33	94.07	16.93	-41.8	-43.0	21.3	0.00e+00	57	41	0	324009984	56	6415
2026-01-22 22:33:19.34	93.93	17.02	-41.8	-43.0	21.4	0.00e+00	90	41	0	326107136	56	6430
2026-01-22 22:33:20.35	93.79	17.12	-41.4	-42.6	21.6	0.00e+00	0	41	0	328204288	56	6106
2026-01-22 22:33:21.36	93.64	17.21	-41.5	-42.7	21.5	0.00e+00	92	41	0	329252864	56	6184
2026-01-22 22:33:22.37	93.50	17.30	-41.3	-42.4	21.8	0.00e+00	0	41	0	331350016	56	5989
2026-01-22 22:33:23.38	93.35	17.39	-41.6	-42.8	21.3	0.00e+00	91	41	0	333447168	56	6292
2026-01-22 22:33:24.38	93.21	17.48	-41.4	-42.6	21.7	0.00e+00	17	41	0	335544320	56	6119
2026-01-22 22:33:25.39	93.06	17.58	-41.4	-42.5	21.7	0.00e+00	92	41	0	337641472	56	6102
2026-01-22 22:33:26.40	92.91	17.67	-41.0	-42.1	22.1	0.00e+00	92	41	0	338690048	56	5784
2026-01-22 22:33:27.41	92.76	17.76	-40.9	-41.9	22.2	0.00e+00	0	41	0	340787200	56	5661
2026-01-22 22:33:28.42	92.61	17.86	-40.8	-41.8	22.2	0.00e+00	92	41	0	342884352	54	6269
2026-01-22 22:33:29.43	92.46	17.95	-40.8	-41.9	22.3	0.00e+00	0	41	0	344981504	54	6319
2026-01-22 22:33:30.44	92.31	18.04	-40.6	-41.6	22.3	0.00e+00	92	41	0	346030080	54	6154
2026-01-22 22:33:31.45	92.15	18.14	-40.7	-41.7	22.3	0.00e+00	0	41	0	348127232	54	6231
2026-01-22 22:33:32.46	92.00	18.23	-40.4	-41.4	22.7	0.00e+00	92	41	0	350224384	54	5979
2026-01-22 22:33:33.47	91.84	18.32	-40.4	-41.4	22.6	0.00e+00	92	41	0	352321536	54	6013
2026-01-22 22:33:34.48	91.69	18.42	-40.4	-41.4	22.6	0.00e+00	0	41	0	354418688	54	6029
2026-01-22 22:33:35.49	91.53	18.51	-40.7	-41.7	22.4	0.00e+00	92	41	0	356515840	54	6224
2026-01-22 22:33:36.50	91.37	18.61	-40.5	-41.5	22.5	0.00e+00	0	41	0	357564416	54	6076
2026-01-22 22:33:37.51	91.21	18.70	-40.6	-41.6	22.4	0.00e+00	86	41	0	359661568	54	6137
2026-01-22 22:33:38.52	91.05	18.80	-40.6	-41.6	22.2	0.00e+00	0	41	0	361758720	54	6136
2026-01-22 22:33:39.53	90.89	18.89	-40.5	-41.5	22.4	0.00e+00	92	41	0	363855872	54	6090
2026-01-22 22:33:40.53	90.73	18.99	-40.8	-41.8	22.2	0.00e+00	84	41	0	365953024	54	6282
2026-01-22 22:33:41.54	90.57	19.08	-41.0	-42.0	22.0	0.00e+00	0	41	0	367001600	54	6463
2026-01-22 22:33:42.55	90.40	19.18	-41.0	-42.1	22.0	0.00e+00	92	41	0	369098752	54	6493
2026-01-22 22:33:43.56	90.24	19.27	-41.0	-42.1	22.3	0.00e+00	0	41	0	371195904	54	6492
2026-01-22 22:33:44.57	90.07	19.37	-41.1	-42.2	22.0	0.00e+00	92	41	0	373293056	54	6546
2026-01-22 22:33:45.58	89.90	19.46	-41.1	-42.2	22.0	0.00e+00	0	41	0	375390208	54	6558
2026-01-22 22:33:46.59	89.74	19.56	-41.5	-42.6	21.6	0.00e+00	92	41	0	376438784	54	6885
2026-01-22 22:33:47.59	89.57	19.65	-41.2	-42.3	21.8	0.00e+00	92	41	0	378535936	54	6691
2026-01-22 22:33:48.60	89.40	19.75	-41.1	-42.2	22.1	0.00e+00	80	41	0	380633088	54	6550
2026-01-22 22:33:49.61	89.23	19.84	-41.0	-42.0	22.2	0.00e+00	92	41	0	382730240	54	6432
2026-01-22 22:33:50.62	89.05	19.94	-40.8	-41.8	22.3	0.00e+00	0	41	0	384827392	54	6267
2026-01-22 22:33:51.63	88.88	20.03	-40.5	-41.5	22.5	0.00e+00	71	41	0	385875968	54	6080
2026-01-22 22:33:52.64	88.70	20.13	-40.5	-41.5	22.6	0.00e+00	0	41	0	387973120	54	6046
2026-01-22 22:33:53.65	88.53	20.23	-40.4	-41.3	22.6	0.00e+00	91	41	0	390070272	54	5942
2026-01-22 22:33:54.66	88.35	20.32	-40.3	-41.3	22.7	0.00e+00	76	41	0	392167424	54	5936
2026-01-22 22:33:55.66	88.17	20.42	-40.2	-41.1	22.9	0.00e+00	92	41	0	394264576	54	5822
2026-01-22 22:33:56.67	87.99	20.52	-40.0	-40.9	23.0	0.00e+00	92	41	0	395313152	54	5662
2026-01-22 22:33:57.68	87.81	20.61	-39.8	-40.7	23.0	0.00e+00	33	41	0	397410304	54	5533
2026-01-22 22:33:58.69	87.63	20.71	-40.0	-40.9	23.0	0.00e+00	66	41	0	399507456	54	5671
2026-01-22 22:33:59.70	87.45	20.80	-40.1	-41.0	22.9	0.00e+00	0	41	0	401604608	54	5730
2026-01-22 22:34:00.71	87.26	20.90	-40.3	-41.2	22.8	0.00e+00	92	41	0	403701760	54	5894
2026-01-22 22:34:01.72	87.08	21.00	-40.6	-41.6	22.5	0.00e+00	48	41	0	404750336	54	6127
2026-01-22 22:34:02.73	86.89	21.09	-40.8	-41.9	22.3	0.00e+00	91	41	0	406847488	54	6340
2026-01-22 22:34:03.74	86.71	21.19	-40.9	-41.9	22.2	0.00e+00	92	41	0	408944640	54	6350
2026-01-22 22:34:04.75	86.52	21.29	-41.0	-42.1	22.0	0.00e+00	0	41	0	411041792	54	6484
2026-01-22 22:34:05.76	86.33	21.39	-41.0	-42.1	22.1	0.00e+00	87	41	0	413138944	54	6492
2026-01-22 22:34:06.77	86.14	21.48	-40.9	-42.0	22.2	0.00e+00	0	41	0	414187520	54	6410
2026-01-22 22:34:07.78	85.94	21.58	-40.9	-42.0	22.2	0.00e+00	92	41	0	416284672	54	6421
2026-01-22 22:34:08.79	85.75	21.68	-40.7	-41.7	22.3	0.00e+00	0	41	0	418381824	54	6226
2026-01-22 22:34:09.80	85.55	21.77	-40.8	-41.8	22.3	0.00e+00	92	41	0	420478976	54	6282
2026-01-22 22:34:10.81	85.36	21.87	-41.1	-42.2	22.1	0.00e+00	92	41	0	422576128	54	6562
2026-01-22 22:34:11.82	85.16	21.97	-41.0	-42.0	22.2	0.00e+00	0	41	0	424673280	54	6435
2026-01-22 22:34:12.82	84.96	22.06	-40.5	-41.5	22.7	0.00e+00	92	41	0	425721856	54	6048
2026-01-22 22:34:13.83	84.76	22.16	-40.7	-41.6	22.5	0.00e+00	0	41	0	427819008	54	6173
2026-01-22 22:34:14.84	84.56	22.26	-40.4	-41.4	22.7	0.00e+00	91	41	0	429916160	54	5992
2026-01-22 22:34:15.85	84.36	22.35	-40.6	-41.6	22.5	0.00e+00	0	41	0	432013312	54	6166
2026-01-22 22:34:16.86	84.16	22.45	-41.0	-42.1	22.2	0.00e+00	91	41	0	434110464	54	6470
2026-01-22 22:34:17.87	83.95	22.55	-41.4	-42.5	21.9	0.00e+00	91	41	0	435159040	54	6821
2026-01-22 22:34:18.88	83.75	22.65	-41.3	-42.4	21.8	0.00e+00	0	41	0	437256192	54	6701
2026-01-22 22:34:19.89	83.54	22.74	-41.2	-42.3	22.0	0.00e+00	91	41	0	439353344	54	6616
2026-01-22 22:34:20.90	83.33	22.84	-41.1	-42.2	22.1	0.00e+00	0	41	0	441450496	54	6553
2026-01-22 22:34:21.91	83.12	22.94	-41.0	-42.0	22.1	0.00e+00	92	41	0	443547648	54	6462
2026-01-22 22:34:22.92	82.91	23.03	-41.0	-42.1	22.1	0.00e+00	0	41	0	444596224	54	6488
2026-01-22 22:34:23.92	82.70	23.13	-41.0	-42.1	22.1	0.00e+00	91	41	0	446693376	54	6505
2026-01-22 22:34:24.94	82.48	23.23	-41.0	-42.1	22.2	0.00e+00	50	41	0	448790528	54	6473
2026-01-22 22:34:25.94	82.27	23.32	-40.9	-41.9	22.3	0.00e+00	10	41	0	450887680	54	6373
2026-01-22 22:34:26.95	82.05	23.42	-41.0	-42.1	22.1	0.00e+00	90	41	0	452984832	54	6469
2026-01-22 22:34:27.96	81.83	23.51	-41.2	-42.3	22.1	0.00e+00	0	41	0	454033408	54	6624
2026-01-22 22:34:28.97	81.61	23.61	-41.4	-42.5	21.8	0.00e+00	68	41	0	456130560	54	6835
2026-01-22 22:34:29.98	81.39	23.71	-41.5	-42.7	21.7	0.00e+00	0	41	0	458227712	54	6947
2026-01-22 22:34:30.99	81.17	23.80	-41.5	-42.6	21.7	0.00e+00	92	41	0	460324864	54	6887
2026-01-22 22:34:32.00	80.95	23.90	-41.1	-42.1	22.1	0.00e+00	17	41	0	462422016	54	6521
2026-01-22 22:34:33.01	80.72	23.99	-40.7	-41.7	22.5	0.00e+00	0	41	0	463470592	54	6214
2026-01-22 22:34:34.02	80.49	24.09	-40.6	-41.6	22.6	0.00e+00	92	41	0	465567744	54	6130
2026-01-22 22:34:35.03	80.27	24.19	-40.2	-41.1	23.0	0.00e+00	0	41	0	467664896	54	5823
2026-01-22 22:34:36.03	80.04	24.28	-40.2	-41.1	23.0	0.00e+00	19	41	0	469762048	54	5817
2026-01-22 22:34:37.04	79.81	24.37	-39.9	-40.9	23.2	0.00e+00	0	41	0	471859200	54	5647
2026-01-22 22:34:38.05	79.58	24.47	-40.2	-41.2	22.9	0.00e+00	75	41	0	472907776	54	5845
2026-01-22 22:34:39.06	79.34	24.56	-40.2	-41.1	22.9	0.00e+00	22	41	0	475004928	54	5796
2026-01-22 22:34:40.07	79.11	24.66	-39.8	-40.8	22.8	0.00e+00	83	41	0	477102080	54	5567
2026-01-22 22:34:41.08	78.87	24.75	-39.3	-40.2	23.7	0.00e+00	92	41	0	479199232	52	5830
2026-01-22 22:34:42.09	78.63	24.85	-39.1	-39.9	23.9	0.00e+00	0	41	0	481296384	52	5678
2026-01-22 22:34:43.10	78.40	24.94	-38.9	-39.8	24.0	0.00e+00	70	41	0	482344960	52	5569
2026-01-22 22:34:44.10	78.16	25.04	-39.0	-39.9	24.0	0.00e+00	0	41	0	484442112	52	5648
2026-01-22 22:34:45.11	77.91	25.13	-39.3	-40.2	23.7	0.00e+00	92	41	0	486539264	52	5843
2026-01-22 22:34:46.12	77.67	25.22	-39.2	-40.1	23.8	0.00e+00	0	41	0	488636416	52	5779
2026-01-22 22:34:47.13	77.43	25.32	-39.3	-40.2	23.7	0.00e+00	92	41	0	490733568	52	5866
2026-01-22 22:34:48.14	77.18	25.41	-39.2	-40.1	23.7	0.00e+00	92	41	0	492830720	52	5780
2026-01-22 22:34:49.15	76.93	25.50	-39.3	-40.2	23.6	0.00e+00	0	41	0	493879296	52	5867
2026-01-22 22:34:50.16	76.68	25.59	-39.9	-40.8	23.3	0.00e+00	52	41	0	495976448	52	6300
2026-01-22 22:34:51.17	76.43	25.69	-40.0	-41.0	23.0	0.00e+00	0	41	0	498073600	52	6418
2026-01-22 22:34:52.18	76.18	25.78	-40.3	-41.3	22.8	0.00e+00	92	41	0	500170752	52	6632
2026-01-22 22:34:53.19	75.93	25.87	-40.5	-41.6	22.5	0.00e+00	0	41	0	501219328	52	6851
2026-01-22 22:34:54.20	75.67	25.96	-40.6	-41.7	22.5	0.00e+00	92	41	0	503316480	54	6191
2026-01-22 22:34:55.21	75.41	26.05	-40.8	-41.9	22.4	0.00e+00	90	41	0	505413632	54	6319
2026-01-22 22:34:56.22	75.16	26.14	-40.3	-41.3	22.7	0.00e+00	33	41	0	507510784	54	5946
2026-01-22 22:34:57.23	74.90	26.23	-40.3	-41.3	22.8	0.00e+00	92	41	0	509607936	54	5945
2026-01-22 22:34:58.24	74.64	26.32	-40.2	-41.1	23.0	0.00e+00	0	41	0	510656512	54	5814
2026-01-22 22:34:59.25	74.37	26.41	-40.3	-41.3	22.9	0.00e+00	90	41	0	512753664	54	5939
2026-01-22 22:35:00.25	74.11	26.50	-40.3	-41.3	22.8	0.00e+00	0	41	0	514850816	54	5921
2026-01-22 22:35:01.26	73.85	26.59	-40.4	-41.3	22.7	0.00e+00	91	41	0	516947968	54	5947
2026-01-22 22:35:02.27	73.58	26.68	-40.6	-41.6	22.5	0.00e+00	90	41	0	519045120	54	6115
2026-01-22 22:35:03.28	73.31	26.76	-40.2	-41.1	22.9	0.00e+00	0	41	0	521142272	54	5822
2026-01-22 22:35:04.29	73.04	26.85	-40.4	-41.4	22.9	0.00e+00	90	41	0	522190848	54	5984
2026-01-22 22:35:05.30	72.77	26.94	-40.3	-41.3	22.8	0.00e+00	0	41	0	524288000	54	5931
2026-01-22 22:35:06.31	72.50	27.03	-40.3	-41.2	22.9	0.00e+00	92	41	0	526385152	54	5891
2026-01-22 22:35:07.32	72.22	27.11	-40.2	-41.1	23.0	0.00e+00	0	41	0	528482304	54	5802
2026-01-22 22:35:08.33	71.95	27.20	-40.1	-41.0	23.0	0.00e+00	92	41	0	530579456	54	5735
2026-01-22 22:35:09.34	71.67	27.28	-39.8	-40.7	23.4	0.00e+00	53	41	0	531628032	52	6184
2026-01-22 22:35:10.35	71.39	27.37	-39.9	-40.8	23.3	0.00e+00	0	41	0	533725184	52	6265
2026-01-22 22:35:11.36	71.11	27.45	-40.1	-41.0	23.2	0.00e+00	92	41	0	535822336	52	6440
2026-01-22 22:35:12.37	70.83	27.54	-40.6	-41.6	22.5	0.00e+00	0	41	0	537919488	52	6907
2026-01-22 22:35:13.38	70.54	27.62	-41.2	-42.2	22.1	0.00e+00	51	41	0	540016640	54	6606
2026-01-22 22:35:14.39	70.26	27.70	-41.3	-42.4	21.8	0.00e+00	0	41	0	541065216	54	6727
2026-01-22 22:35:15.40	69.97	27.78	-41.7	-42.9	21.6	0.00e+00	92	41	0	543162368	56	6366
2026-01-22 22:35:16.41	69.68	27.86	-41.9	-43.0	21.5	0.00e+00	47	41	0	545259520	56	6460
2026-01-22 22:35:17.42	69.39	27.95	-42.2	-43.4	21.2	0.00e+00	92	41	0	547356672	56	6725
2026-01-22 22:35:18.42	69.11	28.03	-41.9	-43.0	21.5	0.00e+00	92	41	0	549453824	56	6458
2026-01-22 22:35:19.43	68.81	28.11	-41.4	-42.5	22.0	0.00e+00	0	41	0	550502400	56	6046
2026-01-22 22:35:20.44	68.52	28.18	-41.3	-42.3	22.0	0.00e+00	39	41	0	552599552	56	5941
2026-01-22 22:35:21.45	68.23	28.26	-41.6	-42.7	21.8	0.00e+00	0	41	0	554696704	56	6199
2026-01-22 22:35:22.46	67.93	28.34	-41.6	-42.7	21.8	0.00e+00	92	41	0	556793856	56	6212
2026-01-22 22:35:23.47	67.63	28.42	-41.1	-42.2	22.2	0.00e+00	0	41	0	558891008	56	5841
2026-01-22 22:35:24.48	67.33	28.50	-41.0	-42.0	22.4	0.00e+00	92	41	0	559939584	56	5705
2026-01-22 22:35:25.49	67.03	28.57	-40.4	-41.4	22.7	0.00e+00	38	41	0	562036736	54	5996
2026-01-22 22:35:26.50	66.73	28.65	-40.8	-41.8	22.5	0.00e+00	0	41	0	564133888	54	6274
2026-01-22 22:35:27.51	66.42	28.72	-40.6	-41.6	22.6	0.00e+00	55	41	0	566231040	54	6154
2026-01-22 22:35:28.52	66.12	28.80	-40.5	-41.5	22.9	0.00e+00	0	41	0	568328192	54	6047
2026-01-22 22:35:29.53	65.81	28.87	-40.3	-41.3	22.8	0.00e+00	71	41	0	569376768	54	5917
2026-01-22 22:35:30.54	65.50	28.94	-40.7	-41.7	22.4	0.00e+00	0	41	0	571473920	54	6236
2026-01-22 22:35:31.55	65.19	29.01	-41.3	-42.4	22.0	0.00e+00	92	41	0	573571072	54	6727
2026-01-22 22:35:32.56	64.88	29.08	-41.5	-42.7	21.8	0.00e+00	92	41	0	575668224	54	6929
2026-01-22 22:35:33.57	64.57	29.15	-41.5	-42.6	21.8	0.00e+00	0	41	0	577765376	54	6885
2026-01-22 22:35:34.57	64.26	29.22	-41.5	-42.6	21.9	0.00e+00	53	41	0	578813952	54	6869
2026-01-22 22:35:35.58	63.95	29.29	-41.1	-42.2	22.1	0.00e+00	0	41	0	580911104	54	6547
2026-01-22 22:35:36.59	63.63	29.36	-41.2	-42.3	22.0	0.00e+00	80	41	0	583008256	54	6644
2026-01-22 22:35:37.60	63.31	29.43	-41.3	-42.4	22.1	0.00e+00	0	41	0	585105408	54	6703
2026-01-22 22:35:38.61	62.99	29.49	-41.1	-42.1	22.2	0.00e+00	92	41	0	587202560	54	6533
2026-01-22 22:35:39.62	62.67	29.56	-40.9	-42.0	22.4	0.00e+00	53	41	0	589299712	54	6394
2026-01-22 22:35:40.63	62.35	29.62	-41.1	-42.1	22.1	0.00e+00	0	41	0	590348288	54	6528
2026-01-22 22:35:41.64	62.03	29.69	-41.1	-42.2	22.3	0.00e+00	92	41	0	592445440	54	6541
2026-01-22 22:35:42.65	61.71	29.75	-40.4	-41.3	22.8	0.00e+00	0	41	0	594542592	54	5956
2026-01-22 22:35:43.66	61.38	29.81	-40.3	-41.3	23.0	0.00e+00	56	41	0	596639744	54	5934
2026-01-22 22:35:44.67	61.05	29.87	-40.3	-41.3	23.0	0.00e+00	0	41	0	598736896	54	5901
2026-01-22 22:35:45.68	60.73	29.93	-40.3	-41.2	22.9	0.00e+00	92	41	0	599785472	54	5896
2026-01-22 22:35:46.69	60.40	29.99	-40.4	-41.4	22.8	0.00e+00	0	41	0	601882624	54	6002
2026-01-22 22:35:47.70	60.07	30.05	-41.0	-42.0	22.3	0.00e+00	0	41	0	603979776	54	6425
2026-01-22 22:35:48.70	59.74	30.10	-40.7	-41.7	22.6	0.00e+00	92	41	0	606076928	54	6181
2026-01-22 22:35:49.71	59.41	30.16	-40.9	-41.9	22.2	0.00e+00	0	41	0	608174080	54	6357
2026-01-22 22:35:50.72	59.07	30.22	-40.8	-41.8	22.5	0.00e+00	92	41	0	609222656	54	6299
2026-01-22 22:35:51.73	58.74	30.27	-40.1	-41.1	23.2	0.00e+00	0	41	0	611319808	54	5775
2026-01-22 22:35:52.73	58.40	30.32	-39.8	-40.7	23.4	0.00e+00	92	41	0	613416960	52	6191
2026-01-22 22:35:53.74	58.07	30.38	-39.8	-40.7	23.3	0.00e+00	0	41	0	615514112	52	6195
2026-01-22 22:35:54.76	57.73	30.43	-39.9	-40.8	23.3	0.00e+00	0	41	0	617611264	52	6249
2026-01-22 22:35:55.77	57.39	30.48	-39.9	-40.8	23.3	0.00e+00	92	41	0	618659840	52	6295
2026-01-22 22:35:56.78	57.05	30.53	-40.3	-41.3	22.9	0.00e+00	0	41	0	620756992	52	6659
2026-01-22 22:35:57.79	56.71	30.57	-40.3	-41.2	22.9	0.00e+00	50	41	0	622854144	52	6591
2026-01-22 22:35:58.80	56.36	30.62	-40.4	-41.4	22.8	0.00e+00	0	41	0	624951296	52	6706
2026-01-22 22:35:59.81	56.02	30.67	-40.8	-41.8	22.3	0.00e+00	92	41	0	627048448	54	6314
2026-01-22 22:36:00.81	55.68	30.71	-41.6	-42.7	21.6	0.00e+00	0	41	0	628097024	54	7004
2026-01-22 22:36:01.82	55.33	30.75	-42.0	-43.2	21.4	0.00e+00	47	41	0	630194176	56	6589
2026-01-22 22:36:02.83	54.99	30.80	-42.4	-43.7	20.9	0.00e+00	78	41	0	632291328	56	6992
2026-01-22 22:36:03.84	54.64	30.84	-42.8	-44.2	20.4	0.00e+00	0	41	0	634388480	56	7395
2026-01-22 22:36:04.85	54.29	30.88	-42.5	-43.8	20.8	0.00e+00	92	41	0	636485632	58	6299
2026-01-22 22:36:05.86	53.95	30.92	-42.3	-43.5	21.1	0.00e+00	0	41	0	637534208	58	6081
2026-01-22 22:36:06.87	53.60	30.96	-41.9	-43.1	21.5	0.00e+00	56	41	0	639631360	58	5773
2026-01-22 22:36:07.88	53.25	30.99	-41.8	-42.9	21.7	0.00e+00	0	41	0	641728512	58	5648
2026-01-22 22:36:08.89	52.89	31.03	-42.0	-43.1	21.6	0.00e+00	75	41	0	643825664	56	6521
2026-01-22 22:36:09.90	52.54	31.06	-42.2	-43.4	21.3	0.00e+00	84	41	0	645922816	56	6717
2026-01-22 22:36:10.91	52.19	31.10	-42.1	-43.2	21.4	0.00e+00	0	41	0	646971392	56	6602
2026-01-22 22:36:11.92	51.84	31.13	-41.5	-42.6	21.9	0.00e+00	27	41	0	649068544	56	6158
2026-01-22 22:36:12.93	51.48	31.16	-40.7	-41.7	22.7	0.00e+00	0	41	0	651165696	56	5511
2026-01-22 22:36:13.94	51.13	31.19	-40.4	-41.3	22.9	0.00e+00	92	41	0	653262848	54	5915
2026-01-22 22:36:14.95	50.77	31.22	-40.2	-41.1	23.0	0.00e+00	0	41	0	655360000	54	5777
2026-01-22 22:36:15.96	50.42	31.25	-40.3	-41.2	23.0	0.00e+00	80	41	0	657457152	54	5863
2026-01-22 22:36:16.97	50.06	31.27	-40.9	-41.9	22.3	0.00e+00	53	41	0	658505728	54	6377
2026-01-22 22:36:17.98	49.70	31.30	-41.5	-42.6	21.9	0.00e+00	0	41	0	660602880	54	6867
2026-01-22 22:36:18.98	49.35	31.32	-41.5	-42.6	21.8	0.00e+00	78	41	0	662700032	56	6155
2026-01-22 22:36:19.99	48.99	31.34	-41.6	-42.7	21.8	0.00e+00	0	41	0	664797184	56	6244
2026-01-22 22:36:21.00	48.63	31.36	-41.4	-42.4	22.0	0.00e+00	92	41	0	666894336	56	6031
2026-01-22 22:36:22.01	48.27	31.38	-41.1	-42.1	22.3	0.00e+00	0	41	0	667942912	56	5815
2026-01-22 22:36:23.02	47.91	31.40	-41.4	-42.5	22.0	0.00e+00	54	41	0	670040064	56	6039
2026-01-22 22:36:24.03	47.55	31.42	-41.6	-42.6	22.0	0.00e+00	0	41	0	672137216	56	6173
2026-01-22 22:36:25.04	47.19	31.44	-41.8	-42.9	21.7	0.00e+00	0	41	0	674234368	56	6388
2026-01-22 22:36:26.05	46.83	31.45	-42.1	-43.3	21.5	0.00e+00	80	41	0	676331520	56	6619
2026-01-22 22:36:27.06	46.47	31.46	-42.1	-43.2	21.3	0.00e+00	0	41	0	677380096	56	6592
2026-01-22 22:36:28.07	46.11	31.48	-41.9	-43.0	21.6	0.00e+00	18	41	0	679477248	56	6403
2026-01-22 22:36:29.07	45.75	31.49	-41.6	-42.7	22.1	0.00e+00	0	41	0	681574400	56	6205
2026-01-22 22:36:30.15	45.37	31.50	-41.7	-42.8	21.8	0.00e+00	73	41	0	683671552	56	6274
2026-01-22 22:36:31.02	45.06	31.50	-41.8	-42.9	21.4	0.00e+00	0	41	0	684720128	56	6381
2026-01-22 22:36:32.17	44.64	31.51	-42.2	-43.4	21.3	0.00e+00	33	41	0	686817280	56	6750
2026-01-22 22:36:33.03	44.34	31.52	-42.5	-43.7	21.0	0.00e+00	45	41	0	688914432	56	6956
2026-01-22 22:36:34.19	43.92	31.52	-42.8	-44.1	20.5	0.00e+00	0	41	0	691011584	58	6481
2026-01-22 22:36:35.05	43.61	31.53	-42.7	-44.0	20.8	0.00e+00	92	41	0	692060160	58	6426
2026-01-22 22:36:36.20	43.20	31.53	-42.5	-43.7	21.0	0.00e+00	0	41	0	695205888	58	6245
2026-01-22 22:36:37.07	42.89	31.53	-42.0	-43.2	21.4	0.00e+00	92	41	0	696254464	58	5867
2026-01-22 22:36:38.22	42.47	31.53	-41.6	-42.7	21.8	0.00e+00	33	41	0	698351616	56	6203
2026-01-22 22:36:39.08	42.17	31.53	-41.6	-42.7	21.8	0.00e+00	92	41	0	700448768	56	6211
2026-01-22 22:36:40.24	41.75	31.52	-40.9	-41.9	22.5	0.00e+00	92	41	0	702545920	56	5683
2026-01-22 22:36:41.10	41.44	31.52	-40.8	-41.8	22.6	0.00e+00	0	41	0	703594496	56	5607
2026-01-22 22:36:42.26	41.03	31.51	-40.3	-41.3	22.6	0.00e+00	53	41	0	705691648	54	5907
2026-01-22 22:36:43.12	40.72	31.51	-40.6	-41.6	22.6	0.00e+00	0	41	0	707788800	54	6131
2026-01-22 22:36:44.27	40.31	31.50	-41.2	-42.3	22.1	0.00e+00	92	41	0	709885952	54	6620
2026-01-22 22:36:45.14	39.99	31.49	-41.8	-42.8	21.7	0.00e+00	0	41	0	711983104	56	6315
2026-01-22 22:36:46.30	39.58	31.48	-42.3	-43.5	20.6	0.00e+00	59	41	0	714080256	56	6817
2026-01-22 22:36:47.16	39.27	31.46	-41.8	-42.9	21.6	0.00e+00	25	41	0	715128832	56	6363
2026-01-22 22:36:48.31	38.86	31.45	-41.6	-42.7	21.6	0.00e+00	0	41	0	717225984	56	6236
2026-01-22 22:36:49.18	38.55	31.44	-41.2	-42.2	22.0	0.00e+00	90	41	0	719323136	56	5883
2026-01-22 22:36:50.33	38.14	31.42	-42.0	-43.2	21.3	0.00e+00	0	41	0	721420288	56	6604
2026-01-22 22:36:51.20	37.83	31.40	-41.7	-42.9	21.5	0.00e+00	86	41	0	722468864	56	6320
2026-01-22 22:36:52.35	37.42	31.38	-41.9	-43.1	21.5	0.00e+00	0	41	0	724566016	56	6479
2026-01-22 22:36:53.22	37.11	31.37	-41.6	-42.7	21.8	0.00e+00	91	41	0	726663168	56	6244
2026-01-22 22:36:54.37	36.71	31.34	-42.1	-43.3	21.3	0.00e+00	0	41	0	728760320	56	6647
2026-01-22 22:36:55.23	36.40	31.32	-41.6	-42.7	21.7	0.00e+00	0	41	0	730857472	56	6185
2026-01-22 22:36:56.38	35.99	31.30	-41.6	-42.6	22.0	0.00e+00	92	41	0	732954624	56	6170
2026-01-22 22:36:57.25	35.69	31.27	-41.0	-42.0	22.4	0.00e+00	0	41	0	734003200	56	5736
2026-01-22 22:36:58.41	35.28	31.24	-41.2	-42.3	21.9	0.00e+00	69	41	0	736100352	54	6659
2026-01-22 22:36:59.27	34.97	31.22	-41.3	-42.4	22.0	0.00e+00	0	41	0	738197504	54	6696
2026-01-22 22:37:00.42	34.57	31.19	-41.6	-42.7	21.6	0.00e+00	87	42	0	740294656	54	6970
2026-01-22 22:37:01.29	34.27	31.16	-42.0	-43.2	21.2	0.00e+00	0	41	0	741343232	56	6600
2026-01-22 22:37:02.44	33.86	31.13	-42.2	-43.5	20.9	0.00e+00	0	42	0	743440384	56	6821
2026-01-22 22:37:03.30	33.56	31.10	-42.2	-43.4	21.3	0.00e+00	0	41	0	745537536	56	6729
2026-01-22 22:37:04.46	33.16	31.06	-41.5	-42.6	21.9	0.00e+00	0	42	0	747634688	56	6112
2026-01-22 22:37:05.32	32.86	31.03	-41.2	-42.2	22.2	0.00e+00	90	41	0	749731840	56	5895
2026-01-22 22:37:06.47	32.46	30.99	-41.3	-42.3	22.1	0.00e+00	0	41	0	751828992	56	5955
2026-01-22 22:37:07.34	32.16	30.96	-40.9	-42.0	22.3	0.00e+00	92	41	0	752877568	56	5699
2026-01-22 22:37:08.49	31.76	30.92	-41.1	-42.2	22.2	0.00e+00	33	41	0	754974720	56	5841
2026-01-22 22:37:09.36	31.46	30.88	-41.5	-42.6	21.7	0.00e+00	92	41	0	757071872	56	6133
2026-01-22 22:37:10.51	31.06	30.84	-41.5	-42.6	21.9	0.00e+00	92	41	0	759169024	56	6169
2026-01-22 22:37:11.38	30.77	30.80	-41.1	-42.2	22.2	0.00e+00	0	41	0	760217600	56	5852
2026-01-22 22:37:12.53	30.37	30.75	-40.9	-41.9	22.4	0.00e+00	92	42	0	763363328	56	5694
2026-01-22 22:37:13.40	30.08	30.72	-41.2	-42.2	22.2	0.00e+00	0	41	0	764411904	56	5888
2026-01-22 22:37:14.55	29.68	30.67	-41.7	-42.9	21.7	0.00e+00	62	41	0	766509056	56	6364
2026-01-22 22:37:15.41	29.39	30.63	-41.9	-43.1	21.4	0.00e+00	0	41	0	768606208	56	6537
2026-01-22 22:37:16.57	29.00	30.57	-41.8	-43.0	21.7	0.00e+00	48	41	0	770703360	56	6393
2026-01-22 22:37:17.44	28.71	30.53	-41.8	-42.9	21.7	0.00e+00	0	41	0	771751936	56	6388
2026-01-22 22:37:18.59	28.32	30.48	-41.2	-42.3	22.1	0.00e+00	0	41	0	773849088	56	5912
2026-01-22 22:37:19.45	28.03	30.43	-41.0	-42.1	22.3	0.00e+00	92	42	0	775946240	56	5778
2026-01-22 22:37:20.61	27.64	30.38	-41.1	-42.2	22.3	0.00e+00	0	41	0	778043392	56	5851
2026-01-22 22:37:21.47	27.36	30.33	-41.4	-42.4	22.1	0.00e+00	46	42	0	780140544	56	6019
2026-01-22 22:37:22.62	26.97	30.27	-41.0	-42.0	22.1	0.00e+00	0	42	0	782237696	56	5750
2026-01-22 22:37:23.49	26.69	30.22	-41.0	-42.0	22.3	0.00e+00	88	41	0	783286272	54	6447
2026-01-22 22:37:24.65	26.30	30.16	-40.9	-41.9	22.5	0.00e+00	49	41	0	785383424	54	6349
2026-01-22 22:37:25.51	26.02	30.11	-41.0	-42.1	22.2	0.00e+00	0	41	0	787480576	54	6471
2026-01-22 22:37:26.66	25.64	30.05	-41.0	-42.0	22.4	0.00e+00	41	41	0	789577728	54	6397
2026-01-22 22:37:27.53	25.36	30.00	-41.2	-42.2	22.0	0.00e+00	0	41	0	790626304	54	6614
2026-01-22 22:37:28.68	24.99	29.93	-41.9	-43.0	21.4	0.00e+00	71	41	0	792723456	56	6460
2026-01-22 22:37:29.55	24.70	29.88	-42.2	-43.5	21.1	0.00e+00	0	41	0	794820608	56	6770
2026-01-22 22:37:30.70	24.33	29.81	-42.5	-43.7	20.9	0.00e+00	78	41	0	796917760	56	7003
2026-01-22 22:37:31.57	24.05	29.76	-42.2	-43.4	21.3	0.00e+00	0	42	0	799014912	56	6737
2026-01-22 22:37:32.72	23.69	29.69	-42.2	-43.3	21.2	0.00e+00	0	41	0	801112064	56	6667
2026-01-22 22:37:33.58	23.41	29.63	-42.4	-43.6	21.1	0.00e+00	46	41	0	802160640	56	6878
2026-01-22 22:37:34.74	23.04	29.56	-42.9	-44.2	20.6	0.00e+00	0	41	0	804257792	58	6568
2026-01-22 22:37:35.60	22.77	29.50	-43.3	-44.8	20.0	0.00e+00	29	41	0	806354944	58	7015
2026-01-22 22:37:36.76	22.40	29.43	-43.3	-44.7	20.0	0.00e+00	0	42	0	808452096	58	6981
2026-01-22 22:37:37.62	22.14	29.37	-43.3	-44.7	20.0	0.00e+00	71	41	0	809500672	58	6996
2026-01-22 22:37:38.78	21.77	29.29	-43.2	-44.6	20.4	0.00e+00	0	41	0	811597824	58	6853
2026-01-22 22:37:39.64	21.50	29.23	-42.9	-44.2	20.6	0.00e+00	75	41	0	813694976	58	6606
2026-01-22 22:37:40.80	21.15	29.16	-42.4	-43.5	21.1	0.00e+00	92	41	0	815792128	58	6102
2026-01-22 22:37:41.66	20.88	29.10	-42.4	-43.6	21.0	0.00e+00	0	42	0	817889280	58	6158
2026-01-22 22:37:42.81	20.53	29.02	-42.7	-44.0	20.6	0.00e+00	90	41	0	819986432	58	6392
2026-01-22 22:37:43.68	20.26	28.95	-42.9	-44.2	20.6	0.00e+00	0	41	0	821035008	58	6592
2026-01-22 22:37:44.83	19.91	28.87	-42.8	-44.2	20.4	0.00e+00	90	41	0	823132160	58	6541
2026-01-22 22:37:45.70	19.65	28.81	-42.7	-44.0	20.6	0.00e+00	0	41	0	825229312	58	6413
2026-01-22 22:37:46.85	19.30	28.72	-42.4	-43.6	21.0	0.00e+00	8	41	0	827326464	58	6121
2026-01-22 22:37:47.72	19.04	28.66	-42.2	-43.4	21.1	0.00e+00	0	41	0	828375040	58	5977
2026-01-22 22:37:48.87	18.70	28.57	-41.2	-42.2	22.4	0.00e+00	0	41	0	831520768	56	5870
2026-01-22 22:37:49.74	18.44	28.51	-40.4	-41.4	22.9	0.00e+00	43	41	0	832569344	54	5966
2026-01-22 22:37:50.89	18.10	28.42	-39.7	-40.6	23.6	0.00e+00	0	41	0	834666496	54	5481
2026-01-22 22:37:51.76	17.84	28.36	-39.1	-40.0	23.9	0.00e+00	91	41	0	836763648	52	5700
2026-01-22 22:37:52.91	17.50	28.27	-39.5	-40.3	23.6	0.00e+00	0	42	0	838860800	52	5937
2026-01-22 22:37:53.77	17.25	28.20	-39.6	-40.5	23.5	0.00e+00	90	41	0	839909376	52	6067
2026-01-22 22:37:54.93	16.92	28.11	-39.8	-40.7	23.4	0.00e+00	91	41	0	842006528	52	6219
2026-01-22 22:37:55.79	16.67	28.04	-39.7	-40.6	23.4	0.00e+00	0	41	0	844103680	52	6110
2026-01-22 22:37:56.95	16.33	27.95	-39.8	-40.7	22.8	0.00e+00	20	41	0	846200832	52	6244
2026-01-22 22:37:57.81	16.09	27.88	-40.3	-41.2	22.9	0.00e+00	0	41	0	848297984	52	6559
2026-01-22 22:37:58.97	15.76	27.79	-41.4	-42.5	21.9	0.00e+00	81	41	0	850395136	54	6811
2026-01-22 22:37:59.83	15.52	27.72	-41.6	-42.7	21.7	0.00e+00	0	41	0	851443712	56	6227
2026-01-22 22:38:00.99	15.19	27.62	-41.3	-42.3	22.2	0.00e+00	90	41	0	853540864	56	5914
2026-01-22 22:38:01.85	14.95	27.55	-41.0	-41.9	22.5	0.00e+00	0	42	0	855638016	54	6385
2026-01-22 22:38:03.00	14.63	27.46	-40.3	-41.3	22.9	0.00e+00	0	42	0	857735168	54	5904
2026-01-22 22:38:03.87	14.39	27.39	-40.4	-41.4	22.6	0.00e+00	78	42	0	858783744	54	5995
2026-01-22 22:38:05.02	14.07	27.29	-41.8	-43.0	21.4	0.00e+00	0	42	0	860880896	54	7181
2026-01-22 22:38:05.89	13.83	27.22	-42.6	-44.0	20.8	0.00e+00	47	42	0	862978048	56	7172
2026-01-22 22:38:07.04	13.52	27.12	-43.2	-44.6	20.2	0.00e+00	0	42	0	865075200	58	6914
2026-01-22 22:38:07.91	13.28	27.04	-43.6	-45.1	19.6	0.00e+00	80	41	0	867172352	58	7298
2026-01-22 22:38:09.06	12.97	26.95	-44.0	-45.6	19.5	0.00e+00	0	42	0	869269504	60	6867
2026-01-22 22:38:09.93	12.74	26.87	-43.5	-44.9	19.9	0.00e+00	0	41	0	870318080	60	6389
2026-01-22 22:38:11.08	12.43	26.77	-42.6	-43.9	20.7	0.00e+00	30	42	0	872415232	58	6358
2026-01-22 22:38:11.94	12.20	26.70	-42.3	-43.4	21.1	0.00e+00	0	41	0	874512384	58	6029
2026-01-22 22:38:13.10	11.90	26.60	-42.0	-43.1	21.6	0.00e+00	35	41	0	876609536	56	6529
2026-01-22 22:38:13.96	11.67	26.52	-41.8	-42.9	21.9	0.00e+00	0	42	0	877658112	56	6365
2026-01-22 22:38:15.12	11.37	26.42	-41.2	-42.2	22.2	0.00e+00	0	42	0	879755264	56	5886
2026-01-22 22:38:15.98	11.15	26.34	-41.5	-42.6	21.9	0.00e+00	0	41	0	881852416	56	6112
2026-01-22 22:38:17.14	10.85	26.24	-40.7	-41.7	22.7	0.00e+00	0	42	0	883949568	56	5543
2026-01-22 22:38:18.00	10.63	26.16	-40.2	-41.2	22.9	0.00e+00	50	42	0	886046720	54	5829
2026-01-22 22:38:19.16	10.33	26.06	-39.6	-40.5	23.5	0.00e+00	0	42	0	888143872	52	6075
2026-01-22 22:38:20.02	10.12	25.98	-39.4	-40.2	23.7	0.00e+00	71	42	0	889192448	52	5884
2026-01-22 22:38:21.18	9.82	25.88	-39.5	-40.4	23.6	0.00e+00	0	41	0	891289600	52	6003
2026-01-22 22:38:22.04	9.61	25.80	-39.5	-40.4	23.6	0.00e+00	24	42	0	893386752	52	6007
2026-01-22 22:38:23.20	9.32	25.70	-39.5	-40.4	23.5	0.00e+00	0	42	0	895483904	52	5987
2026-01-22 22:38:24.06	9.11	25.62	-39.8	-40.7	23.5	0.00e+00	0	41	0	896532480	52	6202
2026-01-22 22:38:25.22	8.82	25.51	-39.6	-40.5	23.5	0.00e+00	51	42	0	899678208	52	6066
2026-01-22 22:38:26.08	8.61	25.43	-39.6	-40.5	23.5	0.00e+00	0	42	0	900726784	52	6091
2026-01-22 22:38:27.24	8.33	25.33	-39.6	-40.5	23.4	0.00e+00	92	42	0	902823936	52	6103
2026-01-22 22:38:28.10	8.12	25.25	-40.0	-40.9	23.2	0.00e+00	0	42	0	904921088	52	6365
2026-01-22 22:38:29.25	7.84	25.14	-40.2	-41.1	23.0	0.00e+00	0	41	0	907018240	52	6537
2026-01-22 22:38:30.12	7.64	25.06	-40.3	-41.3	22.9	0.00e+00	0	42	0	908066816	52	6644
2026-01-22 22:38:31.27	7.36	24.96	-40.3	-41.2	23.0	0.00e+00	0	42	0	910163968	52	6612
2026-01-22 22:38:32.14	7.16	24.87	-40.1	-41.1	23.1	0.00e+00	0	41	0	912261120	52	6506
2026-01-22 22:38:33.29	6.89	24.77	-40.3	-41.3	22.9	0.00e+00	0	42	0	914358272	52	6627
2026-01-22 22:38:34.16	6.68	24.69	-40.1	-41.1	23.0	0.00e+00	91	42	0	916455424	52	6471
2026-01-22 22:38:35.31	6.42	24.58	-40.3	-41.3	22.9	0.00e+00	0	42	0	918552576	52	6640
2026-01-22 22:38:36.18	6.22	24.50	-40.2	-41.2	22.9	0.00e+00	90	42	0	919601152	52	6568
2026-01-22 22:38:37.33	5.95	24.39	-40.1	-41.1	23.0	0.00e+00	0	41	0	921698304	52	6523
2026-01-22 22:38:38.19	5.76	24.31	-40.1	-41.1	23.0	0.00e+00	0	42	0	923795456	52	6497
2026-01-22 22:38:39.35	5.50	24.20	-39.9	-40.8	23.2	0.00e+00	54	42	0	925892608	52	6299
2026-01-22 22:38:40.21	5.30	24.12	-39.4	-40.3	23.6	0.00e+00	0	42	0	926941184	52	5955
2026-01-22 22:38:41.37	5.04	24.01	-39.4	-40.2	23.8	0.00e+00	90	42	0	929038336	52	5893
2026-01-22 22:38:42.23	4.85	23.93	-38.8	-39.7	24.0	0.00e+00	0	42	0	931135488	52	5514
2026-01-22 22:38:43.39	4.60	23.82	-38.5	-39.3	24.3	0.00e+00	30	42	0	933232640	50	5932
2026-01-22 22:38:44.25	4.41	23.74	-38.1	-38.9	24.6	0.00e+00	0	41	0	935329792	50	5652
2026-01-22 22:38:45.40	4.16	23.63	-38.1	-38.9	24.7	0.00e+00	0	42	0	937426944	50	5634
2026-01-22 22:38:46.27	3.97	23.55	-38.0	-38.8	24.7	0.00e+00	0	41	0	938475520	50	5572
2026-01-22 22:38:47.42	3.72	23.44	-38.2	-39.0	24.4	0.00e+00	0	41	0	940572672	50	5718
2026-01-22 22:38:48.29	3.53	23.35	-38.8	-39.7	24.0	0.00e+00	58	42	0	942669824	50	6191
2026-01-22 22:38:49.44	3.29	23.24	-39.3	-40.2	23.7	0.00e+00	0	42	0	944766976	50	6551
2026-01-22 22:38:50.31	3.11	23.16	-39.5	-40.4	23.6	0.00e+00	92	42	0	945815552	50	6705
2026-01-22 22:38:51.46	2.86	23.05	-39.5	-40.4	23.5	0.00e+00	0	41	0	947912704	50	6744
2026-01-22 22:38:52.33	2.68	22.97	-39.4	-40.3	23.4	0.00e+00	0	42	0	950009856	50	6688
2026-01-22 22:38:53.48	2.44	22.86	-39.0	-39.9	23.9	0.00e+00	36	41	0	952107008	50	6336
2026-01-22 22:38:54.34	2.27	22.78	-39.0	-39.9	23.9	0.00e+00	0	41	0	954204160	50	6376
2026-01-22 22:38:55.50	2.03	22.67	-39.0	-39.9	23.9	0.00e+00	56	41	0	956301312	50	6336
2026-01-22 22:38:56.36	1.86	22.58	-38.9	-39.8	24.0	0.00e+00	0	41	0	957349888	50	6263
2026-01-22 22:38:57.52	1.62	22.47	-39.2	-40.1	23.8	0.00e+00	58	41	0	959447040	50	6498
2026-01-22 22:38:58.38	1.45	22.39	-39.4	-40.2	23.7	0.00e+00	0	41	0	961544192	50	6603
2026-01-22 22:38:59.54	1.22	22.28	-38.9	-39.8	24.1	0.00e+00	0	41	0	963641344	50	6252
2026-01-22 22:39:00.40	1.05	22.20	-38.8	-39.6	24.0	0.00e+00	0	41	0	964689920	50	6157
2026-01-22 22:39:01.55	0.82	22.09	-39.1	-40.0	23.9	0.00e+00	0	42	0	966787072	50	6419
2026-01-22 22:39:02.41	0.65	22.00	-39.0	-39.9	23.8	0.00e+00	50	41	0	968884224	50	6357
2026-01-22 22:39:03.56	0.43	21.89	-39.2	-40.0	23.8	0.00e+00	0	42	0	970981376	50	6446
2026-01-22 22:39:04.43	0.26	21.81	-39.3	-40.2	23.7	0.00e+00	92	41	0	973078528	50	6548
2026-01-22 22:39:05.58	0.04	21.70	-39.4	-40.3	23.6	0.00e+00	0	41	0	975175680	50	6630
2026-01-22 22:39:06.45	359.87	21.62	-39.1	-40.0	23.8	0.00e+00	70	41	0	976224256	50	6438
2026-01-22 22:39:07.60	359.65	21.51	-39.1	-40.0	23.8	0.00e+00	0	41	0	978321408	50	6440
2026-01-22 22:39:08.47	359.49	21.42	-38.9	-39.7	24.0	0.00e+00	0	41	0	980418560	50	6244
2026-01-22 22:39:09.62	359.27	21.31	-38.9	-39.7	24.0	0.00e+00	22	41	0	982515712	50	6227
2026-01-22 22:39:10.49	359.11	21.23	-39.1	-40.0	23.8	0.00e+00	0	41	0	983564288	50	6409
2026-01-22 22:39:11.64	358.90	21.12	-39.5	-40.4	23.5	0.00e+00	80	41	0	986710016	50	6695
2026-01-22 22:39:12.51	358.74	21.04	-39.5	-40.4	23.5	0.00e+00	0	41	0	987758592	50	6719
2026-01-22 22:39:13.66	358.53	20.93	-39.5	-40.4	23.4	0.00e+00	0	41	0	989855744	50	6760
2026-01-22 22:39:14.53	358.37	20.85	-40.0	-41.0	23.1	0.00e+00	0	41	0	991952896	52	6404
2026-01-22 22:39:15.68	358.16	20.74	-39.7	-40.6	23.3	0.00e+00	0	41	0	994050048	52	6163
2026-01-22 22:39:16.55	358.01	20.65	-39.6	-40.5	23.3	0.00e+00	0	41	0	995098624	52	6066
2026-01-22 22:39:17.70	357.80	20.54	-39.5	-40.4	23.5	0.00e+00	0	41	0	997195776	52	6022
2026-01-22 22:39:18.57	357.65	20.46	-39.5	-40.4	23.5	0.00e+00	47	41	0	999292928	52	5995
2026-01-22 22:39:19.72	357.44	20.35	-39.0	-39.9	23.9	0.00e+00	0	41	0	1001390080	52	5639
2026-01-22 22:39:20.59	357.29	20.27	-39.1	-39.9	23.8	0.00e+00	45	41	0	1003487232	52	5684
2026-01-22 22:39:21.74	357.09	20.16	-39.0	-39.8	23.8	0.00e+00	0	41	0	1005584384	52	5595
2026-01-22 22:39:22.61	356.94	20.08	-38.7	-39.5	24.0	0.00e+00	0	41	0	1006632960	50	6070
2026-01-22 22:39:23.76	356.75	19.97	-38.7	-39.5	24.1	0.00e+00	0	41	0	1008730112	50	6054
2026-01-22 22:39:24.62	356.60	19.89	-38.6	-39.4	23.8	0.00e+00	0	41	0	1010827264	50	6032
2026-01-22 22:39:25.78	356.40	19.78	-39.0	-39.8	23.9	0.00e+00	69	41	0	1012924416	50	6273
2026-01-22 22:39:26.64	356.26	19.70	-39.0	-39.9	23.7	0.00e+00	0	41	0	1013972992	50	6358
2026-01-22 22:39:27.80	356.06	19.59	-39.6	-40.5	23.0	0.00e+00	71	41	0	1016070144	50	6844
2026-01-22 22:39:28.66	355.92	19.51	-40.0	-40.9	22.3	0.00e+00	0	41	0	1018167296	52	6388
2026-01-22 22:39:29.81	355.73	19.40	-40.5	-41.5	22.5	0.00e+00	0	41	0	1020264448	52	6786
2026-01-22 22:39:30.68	355.59	19.32	-40.6	-41.6	22.6	0.00e+00	0	41	0	1022361600	52	6868
2026-01-22 22:39:31.83	355.40	19.21	-40.8	-41.9	22.2	0.00e+00	0	41	0	1024458752	54	6362
2026-01-22 22:39:32.70	355.26	19.13	-40.9	-42.0	22.2	0.00e+00	0	41	0	1025507328	54	6435
2026-01-22 22:39:33.85	355.08	19.02	-40.3	-41.3	22.7	0.00e+00	0	41	0	1027604480	54	5915
2026-01-22 22:39:34.71	354.94	18.94	-40.2	-41.2	22.8	0.00e+00	92	41	0	1029701632	54	5881
2026-01-22 22:39:35.87	354.75	18.83	-39.9	-40.8	23.1	0.00e+00	0	41	0	1031798784	54	5618
2026-01-22 22:39:36.74	354.62	18.75	-39.5	-40.4	23.4	0.00e+00	10	41	0	1032847360	52	6022
2026-01-22 22:39:37.89	354.44	18.64	-39.7	-40.6	23.3	0.00e+00	0	41	0	1034944512	52	6114
2026-01-22 22:39:38.76	354.30	18.56	-39.9	-40.9	23.1	0.00e+00	0	41	0	1037041664	52	6334
2026-01-22 22:39:39.91	354.12	18.45	-39.9	-40.9	23.2	0.00e+00	64	41	0	1039138816	52	6332
2026-01-22 22:39:40.78	353.99	18.37	-40.2	-41.2	22.8	0.00e+00	0	41	0	1041235968	52	6554
2026-01-22 22:39:41.93	353.81	18.27	-40.5	-41.5	22.6	0.00e+00	92	41	0	1043333120	52	6821
2026-01-22 22:39:42.80	353.68	18.19	-40.5	-41.6	22.5	0.00e+00	0	41	0	1044381696	52	6849
2026-01-22 22:39:43.95	353.51	18.08	-40.8	-41.8	22.2	0.00e+00	0	41	0	1046478848	54	6313
2026-01-22 22:39:44.82	353.38	18.00	-40.8	-41.8	22.4	0.00e+00	0	41	0	1048576000	54	6278
2026-01-22 22:39:45.97	353.20	17.89	-40.5	-41.5	22.5	0.00e+00	0	41	0	1050673152	54	6049
2026-01-22 22:39:46.84	353.07	17.81	-39.9	-40.8	23.1	0.00e+00	0	41	0	1051721728	54	5614
2026-01-22 22:39:47.99	352.91	17.71	-39.9	-40.8	23.0	0.00e+00	0	41	0	1054867456	54	5597
2026-01-22 22:39:48.86	352.78	17.63	-39.7	-40.7	23.2	0.00e+00	51	41	0	1055916032	52	6189
2026-01-22 22:39:50.01	352.61	17.52	-39.5	-40.4	23.5	0.00e+00	0	41	0	1058013184	52	6026
2026-01-22 22:39:50.88	352.48	17.44	-39.4	-40.3	23.5	0.00e+00	86	41	0	1060110336	52	5920
2026-01-22 22:39:52.03	352.32	17.34	-39.3	-40.2	23.5	0.00e+00	0	41	0	1062207488	52	5857
2026-01-22 22:39:52.90	352.20	17.26	-39.6	-40.5	23.4	0.00e+00	0	41	0	1063256064	52	6060
2026-01-22 22:39:54.05	352.03	17.15	-39.1	-39.9	23.8	0.00e+00	7	41	0	1065353216	52	5675
2026-01-22 22:39:54.92	351.91	17.08	-39.5	-40.4	23.5	0.00e+00	0	41	0	1067450368	52	6008
2026-01-22 22:39:56.07	351.75	16.97	-39.6	-40.5	23.3	0.00e+00	92	41	0	1069547520	52	6047
2026-01-22 22:39:56.94	351.63	16.89	-39.7	-40.6	23.3	0.00e+00	0	41	0	1071644672	52	6109
2026-01-22 22:39:58.09	351.47	16.79	-39.9	-40.8	23.2	0.00e+00	91	41	0	1073741824	52	6281
2026-01-22 22:39:58.96	351.35	16.71	-40.2	-41.1	22.8	0.00e+00	0	41	0	1074790400	52	6535
2026-01-22 22:40:00.11	351.19	16.61	-40.2	-41.2	22.9	0.00e+00	0	41	0	1076887552	52	6542
2026-01-22 22:40:00.97	351.07	16.53	-40.4	-41.4	22.5	0.00e+00	0	41	0	1078984704	52	6704
2026-01-22 22:40:02.12	350.92	16.43	-40.5	-41.5	22.5	0.00e+00	0	41	0	1081081856	52	6805
2026-01-22 22:40:02.99	350.80	16.35	-40.0	-41.0	23.0	0.00e+00	47	41	0	1082130432	52	6416
2026-01-22 22:40:04.14	350.65	16.25	-40.1	-41.1	23.0	0.00e+00	0	41	0	1084227584	52	6478
2026-01-22 22:40:05.01	350.53	16.17	-39.9	-40.9	23.1	0.00e+00	89	41	0	1086324736	52	6322
2026-01-22 22:40:06.16	350.38	16.07	-40.1	-41.1	22.9	0.00e+00	0	41	0	1088421888	52	6474
2026-01-22 22:40:07.03	350.27	15.99	-40.1	-41.1	23.0	0.00e+00	0	41	0	1090519040	52	6466
2026-01-22 22:40:08.18	350.12	15.89	-40.6	-41.6	22.5	0.00e+00	17	41	0	1092616192	52	6860
2026-01-22 22:40:09.04	350.01	15.81	-40.5	-41.5	22.5	0.00e+00	0	41	0	1093664768	52	6813
2026-01-22 22:40:10.20	349.86	15.71	-41.2	-42.3	21.9	0.00e+00	44	41	0	1095761920	54	6627
2026-01-22 22:40:11.07	349.75	15.63	-41.7	-42.9	21.4	0.00e+00	0	41	0	1097859072	54	7089
2026-01-22 22:40:12.22	349.60	15.53	-42.1	-43.4	20.9	0.00e+00	71	41	0	1099956224	56	6701
2026-01-22 22:40:13.08	349.49	15.46	-42.8	-44.2	20.2	0.00e+00	0	41	0	1101004800	58	6605
2026-01-22 22:40:14.24	349.35	15.35	-43.1	-44.5	20.1	0.00e+00	0	41	0	1103101952	58	6819
2026-01-22 22:40:15.10	349.24	15.28	-43.0	-44.4	20.1	0.00e+00	0	41	0	1105199104	58	6695
2026-01-22 22:40:16.26	349.10	15.18	-42.5	-43.8	20.7	0.00e+00	0	41	0	1107296256	58	6283
2026-01-22 22:40:17.12	348.99	15.10	-42.3	-43.5	20.9	0.00e+00	17	41	0	1109393408	58	6075
2026-01-22 22:40:18.28	348.85	15.00	-41.7	-42.8	21.4	0.00e+00	0	41	0	1111490560	56	6307
2026-01-22 22:40:19.14	348.74	14.93	-40.9	-42.0	22.1	0.00e+00	92	41	0	1112539136	56	5703
2026-01-22 22:40:20.30	348.60	14.83	-39.9	-40.8	23.0	0.00e+00	0	41	0	1114636288	54	5627
2026-01-22 22:40:21.16	348.50	14.75	-39.6	-40.4	23.3	0.00e+00	92	41	0	1116733440	52	6031
2026-01-22 22:40:22.31	348.36	14.65	-39.5	-40.4	23.4	0.00e+00	0	41	0	1118830592	52	5977
2026-01-22 22:40:23.18	348.26	14.58	-39.5	-40.4	23.3	0.00e+00	0	41	0	1119879168	52	5987
2026-01-22 22:40:24.33	348.12	14.48	-39.8	-40.7	23.2	0.00e+00	47	41	0	1121976320	52	6226
2026-01-22 22:40:25.19	348.02	14.41	-40.0	-41.0	22.9	0.00e+00	33	41	0	1124073472	52	6434
2026-01-22 22:40:26.35	347.89	14.31	-40.3	-41.3	22.6	0.00e+00	92	41	0	1126170624	52	6650
2026-01-22 22:40:27.21	347.79	14.23	-40.8	-41.8	22.2	0.00e+00	0	41	0	1128267776	52	7063
2026-01-22 22:40:28.36	347.65	14.14	-41.2	-42.3	21.8	0.00e+00	0	41	0	1130364928	54	6644
2026-01-22 22:40:29.23	347.55	14.06	-41.5	-42.7	21.4	0.00e+00	0	41	0	1131413504	54	6960
2026-01-22 22:40:30.38	347.42	13.97	-41.9	-43.1	21.2	0.00e+00	0	41	0	1133510656	56	6480
2026-01-22 22:40:31.25	347.32	13.89	-41.9	-43.1	21.2	0.00e+00	0	41	0	1135607808	56	6504
2026-01-22 22:40:32.40	347.20	13.79	-41.9	-43.1	21.2	0.00e+00	0	41	0	1137704960	56	6535
2026-01-22 22:40:33.27	347.10	13.72	-42.2	-43.5	20.8	0.00e+00	33	41	0	1139802112	56	6786
2026-01-22 22:40:34.42	346.97	13.62	-42.1	-43.4	20.9	0.00e+00	0	41	0	1141899264	56	6716
2026-01-22 22:40:35.28	346.87	13.55	-41.9	-43.1	21.1	0.00e+00	92	41	0	1142947840	56	6536
2026-01-22 22:40:36.44	346.75	13.46	-42.0	-43.2	21.1	0.00e+00	0	41	0	1145044992	56	6592
2026-01-22 22:40:37.31	346.65	13.38	-41.8	-43.0	21.4	0.00e+00	0	41	0	1147142144	56	6436
2026-01-22 22:40:38.46	346.53	13.29	-42.0	-43.2	21.0	0.00e+00	0	41	0	1149239296	56	6609
2026-01-22 22:40:39.33	346.43	13.21	-41.7	-42.9	21.3	0.00e+00	0	41	0	1150287872	56	6380
2026-01-22 22:40:40.48	346.31	13.12	-41.7	-42.9	21.3	0.00e+00	74	41	0	1152385024	56	6347
2026-01-22 22:40:41.34	346.22	13.05	-42.0	-43.2	21.1	0.00e+00	0	41	0	1154482176	56	6555
2026-01-22 22:40:42.50	346.09	12.95	-41.7	-42.9	21.4	0.00e+00	92	41	0	1156579328	56	6347
2026-01-22 22:40:43.36	346.00	12.88	-41.9	-43.1	21.2	0.00e+00	0	41	0	1158676480	56	6485
2026-01-22 22:40:44.51	345.88	12.79	-41.9	-43.1	21.2	0.00e+00	0	41	0	1160773632	56	6518
2026-01-22 22:40:45.38	345.79	12.72	-42.1	-43.4	20.9	0.00e+00	0	41	0	1161822208	56	6703
2026-01-22 22:40:46.53	345.67	12.62	-42.3	-43.5	20.8	0.00e+00	0	41	0	1163919360	56	6813
2026-01-22 22:40:47.39	345.58	12.55	-42.0	-43.3	21.0	0.00e+00	45	41	0	1166016512	56	6619
2026-01-22 22:40:48.54	345.47	12.46	-42.1	-43.3	20.9	0.00e+00	0	41	0	1168113664	56	6673
2026-01-22 22:40:49.41	345.38	12.39	-42.2	-43.4	20.9	0.00e+00	45	41	0	1169162240	56	6753
2026-01-22 22:40:50.57	345.26	12.29	-42.4	-43.7	20.4	0.00e+00	0	41	0	1171259392	56	6956
2026-01-22 22:40:51.43	345.17	12.22	-42.3	-43.5	20.7	0.00e+00	78	41	0	1173356544	56	6818
2026-01-22 22:40:52.58	345.06	12.13	-42.3	-43.5	20.6	0.00e+00	0	41	0	1175453696	56	6822
2026-01-22 22:40:53.45	344.97	12.06	-42.1	-43.3	20.9	0.00e+00	0	41	0	1177550848	56	6690
2026-01-22 22:40:54.61	344.86	11.97	-42.3	-43.5	20.7	0.00e+00	42	41	0	1179648000	56	6843
2026-01-22 22:40:55.47	344.77	11.90	-41.9	-43.0	21.1	0.00e+00	0	41	0	1180696576	56	6461
2026-01-22 22:40:56.62	344.66	11.81	-41.8	-43.0	21.1	0.00e+00	90	41	0	1182793728	56	6444
2026-01-22 22:40:57.49	344.57	11.74	-41.5	-42.7	21.6	0.00e+00	0	41	0	1184890880	56	6176
2026-01-22 22:40:58.64	344.46	11.65	-41.1	-42.2	21.8	0.00e+00	0	41	0	1186988032	56	5877
2026-01-22 22:40:59.51	344.38	11.58	-41.1	-42.2	21.8	0.00e+00	0	41	0	1188036608	56	5860
