passes_logs/2026/01/22/R4.6S_Anadyr/R4.6S_Anadyr__20260122_044825_FENGYUN_3D_rec.log

#Pass ID: 20260122_044825_FENGYUN 3D
#Satellite: FENGYUN 3D
#Configuration: FENGYUN 3D
#almurnet v.1.7.20251203
#Start time: 2026-01-22 04:48:26

#Version: 2.2.20231116
#Station: R4.6S_Anadyr
#Location: 177.4865 lon 64.73178 lat
#TLE: 1 43010U 17072A   26020.92362722 -.00000077  00000+0 -14488-4 0  9992
#TLE: 2 43010  98.9946 352.8312 0002486  99.3651 260.7806 14.19696535424099

#Time	Az	El	Level	Level2	SNR	BER	BlckErr	Temp	State	Recorded	gain1	gain2
2026-01-22 04:48:26.88	223.14	0.07	-51.9	-63.6	3.5	8.45e-01	0	39	0	0	60	54746
2026-01-22 04:48:27.89	223.22	0.12	-52.7	-64.9	3.5	8.46e-01	0	40	104	0	60	63189
2026-01-22 04:48:28.90	223.30	0.16	-52.4	-64.6	3.6	8.45e-01	0	40	104	0	60	61414
2026-01-22 04:48:29.91	223.38	0.21	-52.5	-64.6	3.6	8.45e-01	0	40	104	0	60	61099
2026-01-22 04:48:30.91	223.46	0.26	-52.0	-64.3	3.6	8.45e-01	0	40	104	0	60	59235
2026-01-22 04:48:31.92	223.54	0.31	-52.2	-64.3	3.6	8.45e-01	0	40	104	0	60	59101
2026-01-22 04:48:32.93	223.62	0.36	-52.1	-64.3	3.6	8.46e-01	0	40	104	0	60	59029
2026-01-22 04:48:33.94	223.70	0.41	-52.7	-64.8	3.6	8.46e-01	0	40	104	0	60	62722
2026-01-22 04:48:34.95	223.78	0.45	-51.9	-64.2	3.6	8.45e-01	0	40	104	0	60	58609
2026-01-22 04:48:35.96	223.86	0.50	-52.2	-64.4	3.6	8.45e-01	0	40	104	0	60	60212
2026-01-22 04:48:36.97	223.94	0.55	-52.5	-64.7	3.6	8.46e-01	0	40	104	0	60	62268
2026-01-22 04:48:37.98	224.03	0.60	-52.5	-64.8	3.6	8.46e-01	0	40	104	0	60	62566
2026-01-22 04:48:38.99	224.11	0.65	-52.3	-64.5	3.6	8.44e-01	0	40	104	0	60	60584
2026-01-22 04:48:40.00	224.19	0.70	-51.8	-64.0	3.6	8.46e-01	0	40	104	0	60	57356
2026-01-22 04:48:41.01	224.27	0.75	-51.7	-63.9	3.6	8.45e-01	0	40	104	0	60	56533
2026-01-22 04:48:42.02	224.36	0.79	-51.6	-63.8	3.6	8.45e-01	0	40	104	0	60	56257
2026-01-22 04:48:43.03	224.44	0.84	-52.0	-64.2	3.6	8.44e-01	0	40	104	0	60	58681
2026-01-22 04:48:44.04	224.52	0.89	-51.9	-64.0	3.6	8.45e-01	0	40	104	0	60	57515
2026-01-22 04:48:45.05	224.61	0.94	-51.6	-63.8	3.6	8.44e-01	0	40	104	0	60	55722
2026-01-22 04:48:46.06	224.69	0.99	-51.9	-64.0	3.6	8.45e-01	0	40	104	0	60	57534
2026-01-22 04:48:47.07	224.78	1.04	-51.6	-63.8	3.6	8.47e-01	0	40	104	0	60	55817
2026-01-22 04:48:48.08	224.86	1.09	-51.6	-63.7	3.6	8.45e-01	0	40	104	0	60	55562
2026-01-22 04:48:49.09	224.95	1.14	-51.1	-63.3	3.6	8.45e-01	0	40	104	0	60	52717
2026-01-22 04:48:50.10	225.03	1.19	-50.6	-62.6	3.6	8.45e-01	0	40	104	0	60	48834
2026-01-22 04:48:51.11	225.12	1.23	-50.4	-62.4	3.6	8.44e-01	0	40	104	0	60	47417
2026-01-22 04:48:52.12	225.20	1.28	-49.1	-61.1	3.6	8.46e-01	0	40	104	0	60	41029
2026-01-22 04:48:53.13	225.29	1.33	-49.0	-61.0	3.6	8.45e-01	0	40	104	0	60	40546
2026-01-22 04:48:54.14	225.37	1.38	-49.0	-60.9	3.6	8.45e-01	0	40	104	0	60	39938
2026-01-22 04:48:55.15	225.46	1.43	-49.0	-60.9	3.6	8.45e-01	0	40	104	0	60	40185
2026-01-22 04:48:56.16	225.55	1.48	-49.0	-61.0	3.6	8.45e-01	0	40	104	0	60	40536
2026-01-22 04:48:57.17	225.63	1.53	-49.1	-61.1	3.6	8.45e-01	0	40	104	0	60	40794
2026-01-22 04:48:58.18	225.72	1.58	-49.2	-61.2	3.6	8.46e-01	0	40	104	0	60	41360
2026-01-22 04:48:59.19	225.81	1.63	-49.1	-61.0	3.6	8.45e-01	0	40	104	0	60	40727
2026-01-22 04:49:00.20	225.90	1.68	-49.0	-60.9	3.6	8.44e-01	0	40	104	0	60	40270
2026-01-22 04:49:01.21	225.98	1.73	-49.3	-61.2	3.6	8.45e-01	0	40	104	0	60	41652
2026-01-22 04:49:02.23	226.07	1.78	-49.2	-61.2	3.6	8.47e-01	0	40	104	0	60	41281
2026-01-22 04:49:03.24	226.16	1.83	-49.3	-61.3	3.6	8.45e-01	0	40	104	0	60	41808
2026-01-22 04:49:04.25	226.25	1.87	-49.3	-61.2	3.6	8.46e-01	0	40	104	0	60	41492
2026-01-22 04:49:05.26	226.34	1.92	-49.0	-61.0	3.6	8.44e-01	0	40	104	0	60	40450
2026-01-22 04:49:06.27	226.43	1.97	-49.1	-61.0	3.6	8.46e-01	0	40	104	0	60	40481
2026-01-22 04:49:07.28	226.52	2.02	-49.2	-61.1	3.6	8.44e-01	0	40	104	0	60	41112
2026-01-22 04:49:08.29	226.61	2.07	-49.0	-60.8	3.6	8.45e-01	0	40	104	0	60	39797
2026-01-22 04:49:09.30	226.70	2.12	-48.8	-60.7	3.6	8.45e-01	0	40	104	0	60	38993
2026-01-22 04:49:10.31	226.79	2.17	-49.0	-60.8	3.6	8.46e-01	0	40	104	0	60	39638
2026-01-22 04:49:11.31	226.88	2.22	-48.8	-60.6	3.6	8.45e-01	0	40	104	0	60	38796
2026-01-22 04:49:12.32	226.97	2.27	-49.3	-61.2	3.6	8.46e-01	0	40	104	0	60	41504
2026-01-22 04:49:13.33	227.06	2.32	-49.3	-61.1	3.6	8.45e-01	0	40	104	0	60	41004
2026-01-22 04:49:14.34	227.16	2.37	-49.3	-61.1	3.6	8.45e-01	0	40	104	0	60	41051
2026-01-22 04:49:15.35	227.25	2.42	-49.1	-60.9	3.6	8.46e-01	0	41	104	0	60	40034
2026-01-22 04:49:16.36	227.34	2.47	-49.1	-60.7	3.6	8.45e-01	0	41	104	0	60	38975
2026-01-22 04:49:17.37	227.43	2.52	-48.9	-60.3	3.6	8.46e-01	0	40	104	0	60	37426
2026-01-22 04:49:18.38	227.53	2.57	-48.9	-60.0	3.6	8.45e-01	0	40	104	0	60	36274
2026-01-22 04:49:19.39	227.62	2.62	-48.5	-59.3	3.6	8.46e-01	0	40	104	0	60	33159
2026-01-22 04:49:20.40	227.71	2.67	-48.3	-58.3	3.6	8.45e-01	0	41	104	0	60	29785
2026-01-22 04:49:21.41	227.81	2.72	-48.1	-57.2	3.9	8.44e-01	0	41	104	0	60	26335
2026-01-22 04:49:22.42	227.90	2.77	-47.7	-54.3	4.3	8.25e-01	0	40	0	0	60	18734
2026-01-22 04:49:23.43	228.00	2.82	-47.9	-54.1	4.6	8.02e-01	0	41	0	0	60	18333
2026-01-22 04:49:24.44	228.09	2.87	-47.4	-52.8	5.7	6.13e-01	0	41	0	1048576	60	15765
2026-01-22 04:49:25.45	228.19	2.92	-47.2	-52.2	6.2	2.97e-01	0	41	0	7340032	60	14749
2026-01-22 04:49:26.46	228.28	2.97	-47.4	-52.4	6.1	3.01e-01	0	41	0	12582912	60	15064
2026-01-22 04:49:27.47	228.38	3.02	-47.5	-52.6	5.9	2.85e-01	0	41	0	17825792	60	15503
2026-01-22 04:49:28.48	228.47	3.07	-47.3	-51.6	6.6	1.66e-01	0	41	0	24117248	60	13769
2026-01-22 04:49:29.49	228.57	3.12	-48.5	-57.4	3.8	8.45e-01	0	40	104	24117248	60	26748
2026-01-22 04:49:30.50	228.67	3.17	-47.2	-52.7	5.6	1.98e-01	0	41	104	24117248	60	15623
2026-01-22 04:49:31.51	228.76	3.22	-48.0	-58.5	3.6	8.45e-01	0	41	104	24117248	60	30525
2026-01-22 04:49:32.52	228.86	3.27	-47.8	-54.4	4.7	8.38e-01	0	41	104	24117248	60	19038
2026-01-22 04:49:33.52	228.96	3.32	-47.3	-52.0	7.8	9.31e-02	0	41	0	24117248	60	14380
2026-01-22 04:49:34.53	229.05	3.37	-47.3	-51.6	7.7	4.89e-02	0	41	0	29360128	60	13757
2026-01-22 04:49:35.54	229.15	3.42	-47.4	-51.6	7.8	5.65e-02	0	41	0	35651584	60	13684
2026-01-22 04:49:36.55	229.25	3.47	-47.9	-52.5	7.0	1.24e-01	0	41	0	40894464	60	15162
2026-01-22 04:49:37.56	229.35	3.52	-47.8	-52.5	6.8	1.53e-01	0	40	0	46137344	60	15239
2026-01-22 04:49:38.57	229.45	3.57	-47.9	-52.7	6.5	1.47e-01	0	41	0	52428800	60	15543
2026-01-22 04:49:39.58	229.55	3.62	-47.9	-52.4	7.2	1.09e-01	0	41	0	57671680	60	15014
2026-01-22 04:49:40.59	229.65	3.67	-47.9	-52.5	7.0	1.17e-01	0	41	0	62914560	60	15320
2026-01-22 04:49:41.60	229.75	3.72	-47.8	-52.4	6.9	1.37e-01	0	41	0	69206016	60	15130
2026-01-22 04:49:42.61	229.85	3.77	-47.8	-52.4	6.9	1.34e-01	0	41	0	74448896	60	15043
2026-01-22 04:49:43.62	229.95	3.82	-47.8	-52.7	6.5	1.78e-01	0	41	0	80740352	60	15570
2026-01-22 04:49:44.64	230.05	3.87	-47.7	-52.3	7.0	1.54e-01	0	41	0	85983232	60	14920
2026-01-22 04:49:45.64	230.15	3.92	-48.1	-53.0	6.5	1.96e-01	0	41	0	92274688	60	16169
2026-01-22 04:49:46.66	230.26	3.98	-48.1	-52.9	6.5	1.83e-01	0	41	0	97517568	60	16030
2026-01-22 04:49:47.66	230.36	4.03	-48.0	-52.9	6.4	2.24e-01	0	41	0	103809024	60	15994
2026-01-22 04:49:48.67	230.46	4.08	-48.2	-53.0	6.7	1.57e-01	0	41	0	109051904	60	16122
2026-01-22 04:49:49.68	230.56	4.13	-48.2	-53.0	6.6	1.49e-01	0	41	0	114294784	60	16102
2026-01-22 04:49:50.69	230.67	4.18	-47.9	-52.4	7.0	1.45e-01	0	41	0	120586240	60	15130
2026-01-22 04:49:51.70	230.77	4.23	-47.9	-52.5	6.9	1.25e-01	0	41	0	125829120	60	15265
2026-01-22 04:49:52.71	230.87	4.28	-48.3	-53.1	6.7	1.68e-01	0	41	0	132120576	60	16264
2026-01-22 04:49:53.72	230.98	4.33	-48.2	-53.1	6.4	1.73e-01	0	41	0	137363456	60	16365
2026-01-22 04:49:54.73	231.08	4.38	-48.1	-52.9	6.7	1.33e-01	0	41	0	142606336	60	15874
2026-01-22 04:49:55.74	231.19	4.43	-48.0	-52.6	6.9	2.04e-01	0	41	0	148897792	60	15411
2026-01-22 04:49:56.75	231.29	4.48	-48.3	-53.1	6.5	1.71e-01	0	41	0	154140672	60	16280
2026-01-22 04:49:57.76	231.40	4.53	-48.1	-52.9	6.6	2.24e-01	0	41	0	160432128	60	15990
2026-01-22 04:49:58.77	231.51	4.58	-48.0	-52.5	7.0	1.09e-01	0	41	0	165675008	60	15309
2026-01-22 04:49:59.78	231.61	4.63	-48.0	-52.7	6.7	1.45e-01	0	41	0	170917888	60	15634
2026-01-22 04:50:00.80	231.72	4.68	-48.1	-52.8	6.8	1.53e-01	0	41	0	177209344	60	15731
2026-01-22 04:50:01.81	231.83	4.74	-47.9	-52.5	7.2	1.35e-01	0	41	0	182452224	60	15161
2026-01-22 04:50:02.82	231.93	4.79	-47.9	-52.6	6.9	1.21e-01	0	41	0	188743680	60	15400
2026-01-22 04:50:03.83	232.04	4.84	-48.2	-52.8	7.0	1.18e-01	0	41	0	193986560	60	15816
2026-01-22 04:50:04.84	232.15	4.89	-48.2	-52.8	7.0	1.14e-01	0	41	0	200278016	60	15692
2026-01-22 04:50:05.84	232.26	4.94	-48.3	-53.0	6.8	1.52e-01	0	41	0	205520896	60	16238
2026-01-22 04:50:06.86	232.37	4.99	-48.4	-53.2	6.6	1.52e-01	0	41	0	211812352	60	16463
2026-01-22 04:50:07.87	232.48	5.04	-48.4	-53.3	6.5	1.95e-01	0	41	0	217055232	60	16747
2026-01-22 04:50:08.87	232.59	5.09	-48.2	-53.1	6.6	1.83e-01	0	41	0	222298112	60	16253
2026-01-22 04:50:09.88	232.70	5.14	-48.2	-53.0	6.6	1.70e-01	0	41	0	228589568	60	16155
2026-01-22 04:50:10.89	232.81	5.19	-48.2	-53.2	6.4	1.68e-01	0	41	0	233832448	60	16430
2026-01-22 04:50:11.90	232.92	5.24	-48.2	-52.9	6.6	1.95e-01	0	41	0	240123904	60	15984
2026-01-22 04:50:12.91	233.03	5.29	-48.2	-52.9	6.7	1.67e-01	0	41	0	245366784	60	15919
2026-01-22 04:50:13.92	233.14	5.35	-48.2	-52.9	6.8	1.57e-01	0	41	0	250609664	60	15978
2026-01-22 04:50:14.93	233.25	5.40	-48.2	-52.9	6.7	1.58e-01	0	41	0	256901120	60	15977
2026-01-22 04:50:15.94	233.36	5.45	-48.3	-53.1	6.7	1.44e-01	0	41	0	262144000	60	16301
2026-01-22 04:50:16.95	233.48	5.50	-48.1	-52.6	7.0	1.67e-01	0	41	0	268435456	60	15407
2026-01-22 04:50:17.96	233.59	5.55	-48.4	-53.0	7.1	1.22e-01	0	41	0	273678336	60	16227
2026-01-22 04:50:18.97	233.70	5.60	-48.5	-53.1	7.1	1.33e-01	0	41	0	278921216	60	16351
2026-01-22 04:50:19.98	233.82	5.65	-48.6	-52.9	7.4	1.30e-01	0	41	0	285212672	60	16012
2026-01-22 04:50:20.99	233.93	5.70	-49.1	-53.6	7.0	1.58e-01	0	41	0	290455552	60	17324
2026-01-22 04:50:22.00	234.04	5.75	-49.3	-53.8	7.2	9.51e-02	0	41	0	296747008	60	17612
2026-01-22 04:50:23.02	234.16	5.81	-49.1	-53.4	7.6	8.02e-02	0	41	0	301989888	60	16975
2026-01-22 04:50:24.02	234.28	5.86	-49.2	-53.6	7.6	9.84e-02	0	41	0	308281344	60	17265
2026-01-22 04:50:25.03	234.39	5.91	-48.8	-52.8	7.9	5.52e-02	0	41	0	313524224	60	15854
2026-01-22 04:50:26.04	234.51	5.96	-49.0	-53.2	7.9	5.14e-02	0	41	0	319815680	60	16439
2026-01-22 04:50:27.05	234.62	6.01	-48.5	-52.7	8.0	5.51e-02	0	41	0	325058560	60	15607
2026-01-22 04:50:28.06	234.74	6.06	-48.6	-52.6	8.1	4.94e-02	0	41	0	330301440	60	15456
2026-01-22 04:50:29.07	234.86	6.11	-48.4	-52.3	8.3	4.23e-02	0	41	0	336592896	60	14942
2026-01-22 04:50:30.08	234.98	6.16	-48.3	-52.1	8.5	4.05e-02	0	41	0	341835776	60	14636
2026-01-22 04:50:31.09	235.09	6.21	-48.1	-51.9	8.7	2.85e-02	0	41	0	348127232	60	14239
2026-01-22 04:50:32.10	235.21	6.26	-48.0	-51.9	8.5	3.14e-02	0	41	0	353370112	60	14210
2026-01-22 04:50:33.12	235.33	6.32	-47.9	-51.7	8.7	2.91e-02	0	41	0	358612992	60	13928
2026-01-22 04:50:34.12	235.45	6.37	-47.8	-51.6	8.7	2.67e-02	0	41	0	364904448	60	13787
2026-01-22 04:50:35.14	235.57	6.42	-47.6	-51.1	9.3	2.17e-02	0	41	0	370147328	60	12985
2026-01-22 04:50:36.14	235.69	6.47	-47.5	-51.0	9.4	1.28e-02	0	41	0	376438784	60	12779
2026-01-22 04:50:37.16	235.81	6.52	-47.4	-51.0	9.3	1.45e-02	0	41	0	381681664	60	12760
2026-01-22 04:50:38.17	235.93	6.57	-47.9	-51.3	9.5	1.21e-02	0	41	0	386924544	60	13343
2026-01-22 04:50:39.18	236.05	6.62	-48.2	-51.8	9.4	1.20e-02	0	41	0	393216000	60	14016
2026-01-22 04:50:40.19	236.18	6.67	-48.0	-51.4	9.8	8.44e-03	0	41	0	398458880	60	13387
2026-01-22 04:50:41.20	236.30	6.72	-48.0	-51.2	10.1	5.77e-03	0	41	0	404750336	60	13078
2026-01-22 04:50:42.21	236.42	6.78	-47.7	-50.7	10.6	2.93e-03	0	41	0	409993216	60	12443
2026-01-22 04:50:43.22	236.54	6.83	-47.6	-50.4	11.0	1.73e-03	0	41	0	416284672	60	12028
2026-01-22 04:50:44.23	236.67	6.88	-47.6	-50.5	11.0	1.31e-03	0	41	0	421527552	60	12128
2026-01-22 04:50:45.24	236.79	6.93	-47.5	-50.5	10.9	1.64e-03	0	41	0	426770432	60	12057
2026-01-22 04:50:46.25	236.91	6.98	-47.3	-49.9	11.6	9.60e-04	0	41	0	433061888	60	11359
2026-01-22 04:50:47.26	237.04	7.03	-47.0	-49.5	12.0	1.88e-04	0	41	0	438304768	60	10828
2026-01-22 04:50:48.27	237.16	7.08	-46.8	-49.3	12.1	2.04e-04	0	41	0	444596224	60	10540
2026-01-22 04:50:49.28	237.29	7.13	-46.8	-49.3	12.2	1.40e-04	0	41	0	449839104	60	10514
2026-01-22 04:50:50.29	237.41	7.18	-46.5	-48.8	12.7	1.14e-04	0	41	0	455081984	60	9933
2026-01-22 04:50:51.30	237.54	7.23	-46.4	-48.6	12.9	4.11e-05	0	41	0	461373440	60	9772
2026-01-22 04:50:52.31	237.67	7.28	-45.9	-48.0	13.4	1.60e-05	0	41	0	466616320	60	9091
2026-01-22 04:50:53.32	237.79	7.34	-45.9	-48.0	13.7	1.02e-05	0	41	0	472907776	60	9032
2026-01-22 04:50:54.33	237.92	7.39	-46.1	-48.0	13.9	0.00e+00	0	41	0	478150656	60	9109
2026-01-22 04:50:55.34	238.05	7.44	-46.0	-47.9	13.9	0.00e+00	0	41	0	483393536	60	9025
2026-01-22 04:50:56.35	238.18	7.49	-45.8	-47.7	14.2	2.20e-06	0	41	0	489684992	60	8820
2026-01-22 04:50:57.36	238.31	7.54	-45.5	-47.4	14.4	0.00e+00	0	41	0	494927872	60	8442
2026-01-22 04:50:58.37	238.44	7.59	-45.4	-47.4	14.2	0.00e+00	0	41	0	501219328	60	8437
2026-01-22 04:50:59.38	238.57	7.64	-45.5	-47.3	14.4	1.10e-06	0	41	0	506462208	60	8420
2026-01-22 04:51:00.39	238.70	7.69	-45.2	-47.0	14.7	0.00e+00	0	41	0	512753664	60	8091
2026-01-22 04:51:01.39	238.83	7.74	-45.0	-46.7	14.9	1.10e-06	0	41	0	517996544	60	7857
2026-01-22 04:51:02.40	238.96	7.79	-44.5	-46.1	15.3	0.00e+00	0	41	0	524288000	60	7334
2026-01-22 04:51:03.41	239.09	7.84	-44.2	-45.8	15.5	0.00e+00	0	41	0	529530880	60	7088
2026-01-22 04:51:04.42	239.22	7.89	-44.0	-45.6	15.9	0.00e+00	0	41	0	534773760	60	6861
2026-01-22 04:51:05.43	239.35	7.94	-43.6	-45.1	16.4	0.00e+00	0	41	0	541065216	60	6489
2026-01-22 04:51:06.44	239.49	7.99	-43.5	-44.9	16.5	0.00e+00	0	41	0	546308096	60	6336
2026-01-22 04:51:07.45	239.62	8.05	-42.9	-44.2	17.1	0.00e+00	0	41	0	552599552	60	5891
2026-01-22 04:51:08.46	239.75	8.10	-43.0	-44.3	17.1	0.00e+00	0	41	0	557842432	60	5921
2026-01-22 04:51:09.47	239.89	8.15	-43.4	-44.7	17.2	0.00e+00	0	41	0	563085312	60	6243
2026-01-22 04:51:10.48	240.02	8.20	-43.4	-44.7	17.2	0.00e+00	0	41	0	569376768	60	6188
2026-01-22 04:51:11.49	240.16	8.25	-43.2	-44.4	17.5	0.00e+00	0	41	0	574619648	60	6031
2026-01-22 04:51:12.50	240.29	8.30	-43.1	-44.4	17.5	0.00e+00	0	41	0	580911104	60	5985
2026-01-22 04:51:13.51	240.43	8.35	-43.5	-44.8	17.7	0.00e+00	0	41	0	586153984	60	6288
2026-01-22 04:51:14.52	240.56	8.40	-43.1	-44.3	18.0	0.00e+00	0	41	0	591396864	60	5956
2026-01-22 04:51:15.53	240.70	8.45	-42.8	-44.0	18.0	0.00e+00	0	41	0	597688320	58	6421
2026-01-22 04:51:16.54	240.84	8.50	-42.6	-43.8	18.2	0.00e+00	0	41	0	602931200	58	6272
2026-01-22 04:51:17.55	240.98	8.55	-42.3	-43.4	18.4	0.00e+00	0	41	0	609222656	58	6026
2026-01-22 04:51:18.56	241.11	8.60	-42.5	-43.7	18.3	0.00e+00	0	41	0	614465536	58	6178
2026-01-22 04:51:19.57	241.25	8.65	-41.9	-43.0	18.9	0.00e+00	0	41	0	620756992	58	5736
2026-01-22 04:51:20.58	241.39	8.70	-41.4	-42.5	19.2	0.00e+00	0	41	0	625999872	56	6039
2026-01-22 04:51:21.59	241.53	8.75	-41.4	-42.4	19.0	0.00e+00	0	41	0	631242752	56	6023
2026-01-22 04:51:22.60	241.67	8.80	-41.0	-42.0	19.5	0.00e+00	0	41	0	637534208	56	5759
2026-01-22 04:51:23.61	241.81	8.85	-41.7	-42.8	19.3	0.00e+00	0	41	0	642777088	56	6272
2026-01-22 04:51:24.62	241.95	8.90	-41.5	-42.5	19.5	0.00e+00	0	41	0	649068544	56	6081
2026-01-22 04:51:25.63	242.09	8.95	-41.2	-42.1	20.0	0.00e+00	0	41	0	654311424	56	5791
2026-01-22 04:51:26.63	242.24	9.00	-41.0	-42.0	20.1	0.00e+00	0	41	0	659554304	56	5696
2026-01-22 04:51:27.65	242.38	9.05	-41.1	-42.1	20.3	0.00e+00	0	41	0	665845760	56	5780
2026-01-22 04:51:28.66	242.52	9.10	-40.6	-41.5	20.5	0.00e+00	0	41	0	671088640	54	6060
2026-01-22 04:51:29.67	242.66	9.15	-40.6	-41.5	20.3	0.00e+00	0	41	0	677380096	54	6073
2026-01-22 04:51:30.67	242.81	9.20	-40.6	-41.6	20.3	0.00e+00	0	41	0	682622976	54	6112
2026-01-22 04:51:31.68	242.95	9.25	-40.9	-41.8	20.4	0.00e+00	0	41	0	687865856	54	6317
2026-01-22 04:51:32.69	243.10	9.30	-40.5	-41.4	20.8	0.00e+00	0	41	0	694157312	54	5979
2026-01-22 04:51:33.70	243.24	9.35	-40.2	-41.1	20.8	0.00e+00	0	41	0	699400192	54	5802
2026-01-22 04:51:34.71	243.39	9.39	-40.0	-40.9	20.9	0.00e+00	0	41	0	705691648	54	5638
2026-01-22 04:51:35.72	243.53	9.44	-39.0	-39.8	21.8	0.00e+00	0	41	0	710934528	52	5628
2026-01-22 04:51:36.73	243.68	9.49	-38.6	-39.4	22.1	0.00e+00	0	41	0	717225984	50	6004
2026-01-22 04:51:37.74	243.83	9.54	-38.4	-39.2	22.2	0.00e+00	0	41	0	722468864	50	5837
2026-01-22 04:51:38.75	243.97	9.59	-38.5	-39.4	22.1	0.00e+00	0	41	0	728760320	50	5969
2026-01-22 04:51:39.76	244.12	9.64	-38.1	-38.8	22.5	0.00e+00	0	41	0	734003200	50	5624
2026-01-22 04:51:40.77	244.27	9.69	-37.9	-38.7	22.5	0.00e+00	0	41	0	739246080	50	5521
2026-01-22 04:51:41.78	244.42	9.74	-37.8	-38.5	22.9	0.00e+00	0	41	0	745537536	50	5436
2026-01-22 04:51:42.79	244.57	9.79	-37.6	-38.4	22.9	0.00e+00	0	41	0	750780416	48	5989
2026-01-22 04:51:43.80	244.72	9.84	-37.6	-38.3	23.1	0.00e+00	0	41	0	757071872	48	5937
2026-01-22 04:51:44.81	244.87	9.88	-37.9	-38.6	23.0	0.00e+00	0	41	0	762314752	48	6148
2026-01-22 04:51:45.82	245.02	9.93	-38.5	-39.3	22.7	0.00e+00	0	41	0	767557632	48	6637
2026-01-22 04:51:46.83	245.17	9.98	-38.4	-39.1	22.7	0.00e+00	0	41	0	773849088	48	6533
2026-01-22 04:51:47.84	245.32	10.03	-37.8	-38.6	23.2	0.00e+00	0	41	0	779091968	48	6132
2026-01-22 04:51:48.85	245.48	10.08	-37.6	-38.3	23.2	0.00e+00	0	41	0	785383424	48	5956
2026-01-22 04:51:49.86	245.63	10.13	-37.6	-38.3	23.3	0.00e+00	0	41	0	790626304	48	5941
2026-01-22 04:51:50.87	245.78	10.17	-37.4	-38.1	23.6	0.00e+00	0	41	0	795869184	48	5816
2026-01-22 04:51:51.88	245.94	10.22	-37.4	-38.1	23.5	0.00e+00	0	41	0	802160640	48	5809
2026-01-22 04:51:52.89	246.09	10.27	-37.6	-38.3	23.6	0.00e+00	0	41	0	807403520	48	5954
2026-01-22 04:51:53.90	246.25	10.32	-37.7	-38.4	23.4	0.00e+00	0	41	0	813694976	48	6009
2026-01-22 04:51:54.91	246.40	10.37	-37.2	-38.0	23.7	0.00e+00	0	41	0	818937856	48	5722
2026-01-22 04:51:55.92	246.56	10.41	-37.3	-38.1	23.7	0.00e+00	0	41	0	825229312	48	5788
2026-01-22 04:51:56.94	246.72	10.46	-37.2	-37.9	23.7	0.00e+00	0	41	0	830472192	48	5690
2026-01-22 04:51:57.95	246.87	10.51	-37.2	-37.9	23.9	0.00e+00	0	41	0	836763648	48	5689
2026-01-22 04:51:58.96	247.03	10.56	-37.3	-38.1	24.1	0.00e+00	0	41	0	842006528	48	5762
2026-01-22 04:51:59.97	247.19	10.60	-37.0	-37.7	24.1	0.00e+00	0	41	0	847249408	48	5554
2026-01-22 04:52:00.98	247.35	10.65	-37.0	-37.7	24.2	0.00e+00	0	41	0	853540864	48	5561
2026-01-22 04:52:01.99	247.50	10.70	-37.3	-38.0	24.0	0.00e+00	0	41	0	858783744	48	5755
2026-01-22 04:52:03.00	247.66	10.75	-37.1	-37.8	24.3	0.00e+00	0	41	0	865075200	48	5585
2026-01-22 04:52:04.01	247.82	10.79	-37.1	-37.9	24.4	0.00e+00	0	41	0	870318080	48	5631
2026-01-22 04:52:05.02	247.98	10.84	-36.9	-37.6	24.4	0.00e+00	0	41	0	875560960	48	5497
2026-01-22 04:52:06.03	248.14	10.89	-37.1	-37.8	24.4	0.00e+00	0	41	0	881852416	48	5575
2026-01-22 04:52:07.04	248.31	10.93	-37.1	-37.8	24.5	0.00e+00	0	41	0	887095296	48	5600
2026-01-22 04:52:08.05	248.47	10.98	-37.1	-37.8	24.5	0.00e+00	0	41	0	893386752	48	5625
2026-01-22 04:52:09.05	248.63	11.02	-37.0	-37.8	24.5	0.00e+00	0	41	0	898629632	48	5567
2026-01-22 04:52:10.06	248.79	11.07	-36.8	-37.5	24.4	0.00e+00	0	41	0	903872512	48	5420
2026-01-22 04:52:11.08	248.96	11.12	-36.7	-37.4	24.6	0.00e+00	0	41	0	910163968	46	5975
2026-01-22 04:52:12.09	249.12	11.16	-37.1	-37.7	24.4	0.00e+00	0	41	0	915406848	46	6234
2026-01-22 04:52:13.09	249.28	11.21	-36.6	-37.3	24.5	0.00e+00	0	41	0	921698304	46	5948
2026-01-22 04:52:14.10	249.45	11.25	-37.1	-37.8	24.5	0.00e+00	0	41	0	926941184	46	6275
2026-01-22 04:52:15.11	249.61	11.30	-36.9	-37.6	24.6	0.00e+00	0	41	0	933232640	46	6120
2026-01-22 04:52:16.12	249.78	11.35	-36.8	-37.5	24.5	0.00e+00	0	41	0	938475520	46	6092
2026-01-22 04:52:17.13	249.94	11.39	-36.8	-37.5	24.6	0.00e+00	0	41	0	943718400	46	6051
2026-01-22 04:52:18.14	250.11	11.44	-37.0	-37.7	24.6	0.00e+00	0	41	0	950009856	46	6220
2026-01-22 04:52:19.15	250.28	11.48	-37.0	-37.7	24.4	0.00e+00	0	41	0	955252736	46	6214
2026-01-22 04:52:20.16	250.44	11.53	-36.7	-37.4	24.5	0.00e+00	0	41	0	961544192	46	5990
2026-01-22 04:52:21.17	250.61	11.57	-37.0	-37.7	24.3	0.00e+00	0	41	0	966787072	46	6222
2026-01-22 04:52:22.18	250.78	11.62	-36.9	-37.7	24.5	0.00e+00	0	41	0	972029952	46	6179
2026-01-22 04:52:23.19	250.95	11.66	-37.0	-37.7	24.5	0.00e+00	0	41	0	978321408	46	6196
2026-01-22 04:52:24.20	251.12	11.70	-36.5	-37.2	24.8	0.00e+00	0	41	0	983564288	46	5880
2026-01-22 04:52:25.21	251.29	11.75	-36.4	-37.1	24.7	0.00e+00	0	41	0	989855744	46	5776
2026-01-22 04:52:26.22	251.46	11.79	-36.7	-37.4	24.5	0.00e+00	0	41	0	995098624	46	6014
2026-01-22 04:52:27.22	251.63	11.84	-36.9	-37.6	24.5	0.00e+00	0	41	0	1000341504	46	6131
2026-01-22 04:52:28.23	251.80	11.88	-36.4	-37.1	24.7	0.00e+00	0	41	0	1006632960	46	5767
2026-01-22 04:52:29.24	251.97	11.92	-36.3	-37.0	24.7	0.00e+00	0	41	0	1011875840	46	5734
2026-01-22 04:52:30.25	252.15	11.97	-36.2	-36.9	24.7	0.00e+00	0	41	0	1018167296	46	5662
2026-01-22 04:52:31.26	252.32	12.01	-36.2	-36.9	24.8	0.00e+00	0	41	0	1023410176	46	5658
2026-01-22 04:52:32.27	252.49	12.05	-36.3	-37.0	24.7	0.00e+00	0	41	0	1029701632	46	5705
2026-01-22 04:52:33.28	252.67	12.10	-36.1	-36.8	24.9	0.00e+00	0	41	0	1034944512	46	5581
2026-01-22 04:52:34.29	252.84	12.14	-36.0	-36.7	24.9	0.00e+00	0	41	0	1040187392	46	5552
2026-01-22 04:52:35.30	253.02	12.18	-36.1	-36.7	24.9	0.00e+00	0	41	0	1046478848	46	5563
2026-01-22 04:52:36.31	253.19	12.23	-36.3	-37.0	24.9	0.00e+00	0	41	0	1051721728	46	5701
2026-01-22 04:52:37.32	253.37	12.27	-36.2	-36.9	25.0	0.00e+00	0	41	0	1058013184	46	5649
2026-01-22 04:52:38.33	253.55	12.31	-36.4	-37.1	24.9	0.00e+00	0	41	0	1063256064	46	5800
2026-01-22 04:52:39.34	253.72	12.35	-36.8	-37.5	24.9	0.00e+00	0	41	0	1068498944	46	6038
2026-01-22 04:52:40.35	253.90	12.39	-36.6	-37.2	25.0	0.00e+00	0	41	0	1074790400	46	5893
2026-01-22 04:52:41.36	254.08	12.44	-36.6	-37.3	25.0	0.00e+00	0	41	0	1080033280	46	5900
2026-01-22 04:52:42.37	254.26	12.48	-36.3	-37.0	25.1	0.00e+00	0	41	0	1086324736	46	5744
2026-01-22 04:52:43.38	254.44	12.52	-36.4	-37.1	25.1	0.00e+00	0	41	0	1091567616	46	5780
2026-01-22 04:52:44.40	254.62	12.56	-36.4	-37.1	25.1	0.00e+00	0	41	0	1097859072	46	5767
2026-01-22 04:52:45.40	254.80	12.60	-36.4	-37.0	25.2	0.00e+00	0	41	0	1103101952	46	5755
2026-01-22 04:52:46.41	254.98	12.64	-36.5	-37.2	25.2	0.00e+00	0	41	0	1108344832	46	5848
2026-01-22 04:52:47.42	255.16	12.68	-36.4	-37.1	25.1	0.00e+00	0	41	0	1114636288	46	5788
2026-01-22 04:52:48.43	255.34	12.72	-36.6	-37.2	25.1	0.00e+00	0	41	0	1119879168	46	5890
2026-01-22 04:52:49.44	255.52	12.76	-36.5	-37.2	24.9	0.00e+00	0	41	0	1126170624	46	5871
2026-01-22 04:52:50.45	255.70	12.80	-36.2	-36.9	25.0	0.00e+00	0	41	0	1131413504	46	5635
2026-01-22 04:52:51.46	255.89	12.84	-36.0	-36.7	25.0	0.00e+00	0	41	0	1137704960	46	5557
2026-01-22 04:52:52.47	256.07	12.88	-36.2	-36.9	24.8	0.00e+00	0	41	0	1142947840	46	5635
2026-01-22 04:52:53.48	256.25	12.92	-35.9	-36.6	25.0	0.00e+00	0	41	0	1148190720	46	5466
2026-01-22 04:52:54.49	256.44	12.96	-35.8	-36.5	25.1	0.00e+00	0	41	0	1154482176	46	5385
2026-01-22 04:52:55.50	256.62	13.00	-35.7	-36.4	25.0	0.00e+00	0	41	0	1159725056	44	6008
2026-01-22 04:52:56.51	256.81	13.04	-35.6	-36.3	25.0	0.00e+00	0	41	0	1166016512	44	5950
2026-01-22 04:52:57.52	256.99	13.08	-35.5	-36.2	25.1	0.00e+00	0	41	0	1171259392	44	5871
2026-01-22 04:52:58.53	257.18	13.11	-35.5	-36.3	25.2	0.00e+00	0	41	0	1176502272	44	5900
2026-01-22 04:52:59.53	257.36	13.15	-35.6	-36.3	25.2	0.00e+00	0	41	0	1182793728	44	5899
2026-01-22 04:53:00.54	257.55	13.19	-35.5	-36.2	25.2	0.00e+00	0	41	0	1188036608	44	5859
2026-01-22 04:53:01.55	257.74	13.23	-35.5	-36.2	25.2	0.00e+00	0	41	0	1194328064	44	5853
2026-01-22 04:53:02.56	257.93	13.27	-35.7	-36.4	25.1	0.00e+00	0	41	0	1199570944	44	5968
2026-01-22 04:53:03.57	258.11	13.30	-35.5	-36.2	25.2	0.00e+00	0	41	0	1204813824	44	5858
2026-01-22 04:53:04.58	258.30	13.34	-35.6	-36.3	25.1	0.00e+00	0	41	0	1211105280	44	5922
2026-01-22 04:53:05.59	258.49	13.38	-35.6	-36.3	25.1	0.00e+00	0	41	0	1216348160	44	5911
2026-01-22 04:53:06.60	258.68	13.41	-35.8	-36.5	24.9	0.00e+00	0	41	0	1222639616	44	6085
2026-01-22 04:53:07.61	258.87	13.45	-35.6	-36.3	25.0	0.00e+00	0	41	0	1227882496	44	5925
2026-01-22 04:53:08.62	259.06	13.49	-35.7	-36.4	25.0	0.00e+00	0	41	0	1234173952	44	5978
2026-01-22 04:53:09.63	259.25	13.52	-35.4	-36.1	25.2	0.00e+00	0	41	0	1239416832	44	5769
2026-01-22 04:53:10.64	259.45	13.56	-35.3	-36.0	25.3	0.00e+00	0	41	0	1244659712	44	5702
2026-01-22 04:53:11.65	259.64	13.59	-35.1	-35.8	25.4	0.00e+00	0	41	0	1250951168	44	5595
2026-01-22 04:53:12.66	259.83	13.63	-35.2	-35.9	25.4	0.00e+00	0	41	0	1256194048	44	5631
2026-01-22 04:53:13.67	260.02	13.66	-35.9	-36.5	25.4	0.00e+00	0	41	0	1262485504	44	6090
2026-01-22 04:53:14.68	260.22	13.70	-35.8	-36.5	25.5	0.00e+00	0	41	0	1267728384	44	6061
2026-01-22 04:53:15.69	260.41	13.73	-35.9	-36.6	25.5	0.00e+00	0	41	0	1272971264	44	6132
2026-01-22 04:53:16.70	260.61	13.77	-36.3	-37.0	25.3	0.00e+00	0	41	0	1279262720	44	6438
2026-01-22 04:53:17.71	260.80	13.80	-36.2	-36.8	25.1	0.00e+00	0	41	0	1284505600	44	6298
2026-01-22 04:53:18.72	261.00	13.83	-36.3	-36.9	25.1	0.00e+00	0	41	0	1290797056	44	6376
2026-01-22 04:53:19.73	261.19	13.87	-35.8	-36.5	25.3	0.00e+00	0	41	0	1296039936	44	6081
2026-01-22 04:53:20.74	261.39	13.90	-35.6	-36.3	25.3	0.00e+00	0	41	0	1301282816	44	5937
2026-01-22 04:53:21.75	261.58	13.93	-35.7	-36.4	25.3	0.00e+00	0	41	0	1307574272	44	5996
2026-01-22 04:53:22.75	261.78	13.96	-35.9	-36.6	25.4	0.00e+00	0	41	0	1312817152	44	6153
2026-01-22 04:53:23.76	261.98	14.00	-35.9	-36.6	25.4	0.00e+00	0	41	0	1319108608	44	6106
2026-01-22 04:53:24.77	262.17	14.03	-35.7	-36.3	25.4	0.00e+00	0	41	0	1324351488	44	5948
2026-01-22 04:53:25.78	262.37	14.06	-35.4	-36.0	25.6	0.00e+00	0	41	0	1330642944	44	5747
2026-01-22 04:53:26.79	262.57	14.09	-35.2	-35.8	25.7	0.00e+00	0	41	0	1335885824	44	5610
2026-01-22 04:53:27.80	262.77	14.12	-35.2	-35.9	25.6	0.00e+00	0	41	0	1342177280	44	5662
2026-01-22 04:53:28.81	262.97	14.15	-35.1	-35.8	25.6	0.00e+00	0	41	0	1347420160	44	5589
2026-01-22 04:53:29.83	263.17	14.19	-35.0	-35.7	25.7	0.00e+00	0	41	0	1352663040	44	5507
2026-01-22 04:53:30.84	263.37	14.22	-35.2	-35.8	25.7	0.00e+00	0	41	0	1358954496	44	5629
2026-01-22 04:53:31.85	263.57	14.25	-35.1	-35.7	25.7	0.00e+00	0	41	0	1364197376	44	5558
2026-01-22 04:53:32.86	263.77	14.28	-35.2	-35.8	25.6	0.00e+00	0	41	0	1370488832	44	5606
2026-01-22 04:53:33.87	263.97	14.31	-35.2	-35.9	25.5	0.00e+00	0	41	0	1375731712	44	5658
2026-01-22 04:53:34.88	264.17	14.33	-35.2	-35.9	25.5	0.00e+00	0	41	0	1380974592	44	5662
2026-01-22 04:53:35.89	264.38	14.36	-35.3	-36.0	25.4	0.00e+00	0	41	0	1387266048	44	5699
2026-01-22 04:53:36.90	264.58	14.39	-35.3	-36.0	25.5	0.00e+00	0	41	0	1392508928	44	5711
2026-01-22 04:53:37.91	264.78	14.42	-36.4	-37.1	25.5	0.00e+00	0	41	0	1398800384	46	5805
2026-01-22 04:53:38.92	264.98	14.45	-36.2	-36.9	25.2	0.00e+00	0	41	0	1404043264	46	5641
2026-01-22 04:53:39.92	265.19	14.48	-36.2	-36.9	25.5	0.00e+00	0	41	0	1409286144	46	5671
2026-01-22 04:53:40.93	265.39	14.50	-35.9	-36.6	25.4	0.00e+00	0	41	0	1415577600	46	5472
2026-01-22 04:53:41.94	265.59	14.53	-35.6	-36.3	25.5	0.00e+00	0	41	0	1420820480	44	5904
2026-01-22 04:53:42.95	265.80	14.56	-35.5	-36.2	25.5	0.00e+00	0	41	0	1427111936	44	5832
2026-01-22 04:53:43.96	266.00	14.58	-35.4	-36.1	25.5	0.00e+00	0	41	0	1432354816	44	5763
2026-01-22 04:53:44.97	266.21	14.61	-35.4	-36.1	25.4	0.00e+00	0	41	0	1438646272	44	5778
2026-01-22 04:53:45.98	266.41	14.64	-35.5	-36.2	25.3	0.00e+00	0	41	0	1443889152	44	5860
2026-01-22 04:53:46.99	266.62	14.66	-35.5	-36.1	25.5	0.00e+00	0	41	0	1450180608	44	5800
2026-01-22 04:53:48.00	266.83	14.69	-35.7	-36.4	25.1	0.00e+00	0	41	0	1455423488	44	6012
2026-01-22 04:53:49.01	267.03	14.71	-35.3	-36.0	25.4	0.00e+00	0	41	0	1460666368	44	5714
2026-01-22 04:53:50.03	267.24	14.74	-35.3	-36.0	25.4	0.00e+00	0	41	0	1466957824	44	5752
2026-01-22 04:53:51.03	267.45	14.76	-35.2	-35.9	25.5	0.00e+00	0	41	0	1472200704	44	5684
2026-01-22 04:53:52.04	267.65	14.78	-35.1	-35.8	25.5	0.00e+00	0	41	0	1478492160	44	5608
2026-01-22 04:53:53.05	267.86	14.81	-35.0	-35.6	25.7	0.00e+00	0	41	0	1483735040	44	5467
2026-01-22 04:53:54.07	268.07	14.83	-34.9	-35.5	25.8	0.00e+00	0	41	0	1488977920	44	5423
2026-01-22 04:53:55.07	268.28	14.85	-35.2	-35.9	25.6	0.00e+00	0	41	0	1495269376	44	5675
2026-01-22 04:53:56.08	268.49	14.88	-35.2	-35.9	25.6	0.00e+00	0	41	0	1500512256	44	5672
2026-01-22 04:53:57.09	268.70	14.90	-35.4	-36.0	25.1	0.00e+00	0	41	0	1506803712	44	5756
2026-01-22 04:53:58.10	268.91	14.92	-35.8	-36.5	25.6	0.00e+00	0	41	0	1512046592	44	6089
2026-01-22 04:53:59.11	269.12	14.94	-35.9	-36.6	25.5	0.00e+00	0	41	0	1517289472	44	6137
2026-01-22 04:54:00.12	269.33	14.96	-36.1	-36.8	25.4	0.00e+00	0	41	0	1523580928	44	6255
2026-01-22 04:54:01.13	269.54	14.99	-36.3	-37.0	25.0	0.00e+00	0	41	0	1528823808	44	6449
2026-01-22 04:54:02.14	269.75	15.01	-35.6	-36.3	25.7	0.00e+00	0	41	0	1535115264	44	5936
2026-01-22 04:54:03.15	269.96	15.03	-35.6	-36.3	25.8	0.00e+00	0	41	0	1540358144	44	5914
2026-01-22 04:54:04.16	270.17	15.05	-35.5	-36.2	25.7	0.00e+00	0	41	0	1546649600	44	5835
2026-01-22 04:54:05.17	270.38	15.07	-35.6	-36.3	25.6	0.00e+00	0	41	0	1551892480	44	5906
2026-01-22 04:54:06.18	270.59	15.08	-36.0	-36.7	25.0	0.00e+00	0	41	0	1557135360	44	6202
2026-01-22 04:54:07.19	270.81	15.10	-36.2	-36.9	25.2	0.00e+00	0	41	0	1563426816	46	5666
2026-01-22 04:54:08.20	271.02	15.12	-36.1	-36.8	25.4	0.00e+00	0	41	0	1568669696	46	5584
2026-01-22 04:54:09.21	271.23	15.14	-36.1	-36.7	25.4	0.00e+00	0	41	0	1574961152	46	5560
2026-01-22 04:54:10.22	271.44	15.16	-36.2	-37.0	25.1	0.00e+00	0	41	0	1580204032	46	5698
2026-01-22 04:54:11.23	271.66	15.18	-36.8	-37.6	24.0	0.00e+00	0	41	0	1585446912	46	6116
2026-01-22 04:54:12.23	271.87	15.19	-37.1	-37.8	24.5	0.00e+00	0	41	0	1591738368	46	6284
2026-01-22 04:54:13.25	272.08	15.21	-36.5	-37.3	24.8	0.00e+00	0	41	0	1596981248	46	5897
2026-01-22 04:54:14.26	272.30	15.23	-36.8	-37.5	24.9	0.00e+00	0	41	0	1603272704	46	6034
2026-01-22 04:54:15.26	272.51	15.24	-35.9	-36.6	25.3	0.00e+00	0	41	0	1608515584	46	5475
2026-01-22 04:54:16.27	272.72	15.26	-36.0	-36.7	25.2	0.00e+00	0	41	0	1613758464	46	5512
2026-01-22 04:54:17.28	272.94	15.27	-35.9	-36.5	25.2	0.00e+00	0	41	0	1620049920	46	5432
2026-01-22 04:54:18.29	273.15	15.29	-35.6	-36.2	25.5	0.00e+00	0	41	0	1625292800	44	5885
2026-01-22 04:54:19.30	273.37	15.30	-35.7	-36.4	25.6	0.00e+00	0	41	0	1631584256	44	5983
2026-01-22 04:54:20.31	273.58	15.32	-35.5	-36.1	25.6	0.00e+00	0	41	0	1636827136	44	5810
2026-01-22 04:54:21.32	273.80	15.33	-35.3	-35.9	25.8	0.00e+00	0	41	0	1643118592	44	5695
2026-01-22 04:54:22.33	274.01	15.34	-35.6	-36.2	25.8	0.00e+00	0	41	0	1648361472	44	5877
2026-01-22 04:54:23.34	274.23	15.36	-36.0	-36.6	25.7	0.00e+00	0	41	0	1653604352	44	6139
2026-01-22 04:54:24.35	274.44	15.37	-35.9	-36.6	25.6	0.00e+00	0	41	0	1659895808	44	6120
2026-01-22 04:54:25.36	274.66	15.38	-35.8	-36.5	25.6	0.00e+00	0	41	0	1665138688	44	6070
2026-01-22 04:54:26.37	274.87	15.39	-35.5	-36.2	25.8	0.00e+00	0	41	0	1671430144	44	5861
2026-01-22 04:54:27.38	275.09	15.41	-35.5	-36.2	25.7	0.00e+00	0	41	0	1676673024	44	5895
2026-01-22 04:54:28.39	275.31	15.42	-35.4	-36.1	25.8	0.00e+00	0	41	0	1681915904	44	5804
2026-01-22 04:54:29.40	275.52	15.43	-35.5	-36.1	25.7	0.00e+00	0	41	0	1688207360	44	5823
2026-01-22 04:54:30.41	275.74	15.44	-35.2	-35.9	25.7	0.00e+00	0	41	0	1693450240	44	5663
2026-01-22 04:54:31.42	275.96	15.45	-35.2	-35.9	25.8	0.00e+00	0	41	0	1699741696	44	5635
2026-01-22 04:54:32.43	276.17	15.46	-35.5	-36.2	25.7	0.00e+00	0	41	0	1704984576	44	5868
2026-01-22 04:54:33.44	276.39	15.47	-35.4	-36.1	25.8	0.00e+00	0	41	0	1710227456	44	5766
2026-01-22 04:54:34.45	276.61	15.48	-35.4	-36.1	25.8	0.00e+00	0	41	0	1716518912	44	5774
2026-01-22 04:54:35.46	276.82	15.48	-35.4	-36.1	25.9	0.00e+00	0	41	0	1721761792	44	5769
2026-01-22 04:54:36.47	277.04	15.49	-35.1	-35.7	26.0	0.00e+00	0	41	0	1728053248	44	5549
2026-01-22 04:54:37.48	277.26	15.50	-35.5	-36.2	25.9	0.00e+00	0	41	0	1733296128	44	5872
2026-01-22 04:54:38.49	277.48	15.51	-35.2	-35.8	26.0	0.00e+00	0	41	0	1739587584	44	5607
2026-01-22 04:54:39.50	277.70	15.52	-35.2	-35.8	26.0	0.00e+00	0	41	0	1744830464	44	5582
2026-01-22 04:54:40.51	277.91	15.52	-35.4	-36.0	25.9	0.00e+00	0	41	0	1751121920	44	5754
2026-01-22 04:54:41.52	278.13	15.53	-35.2	-35.9	25.9	0.00e+00	0	41	0	1756364800	44	5669
2026-01-22 04:54:42.53	278.35	15.53	-35.4	-36.1	25.7	0.00e+00	0	41	0	1761607680	44	5797
2026-01-22 04:54:43.54	278.57	15.54	-35.3	-36.0	25.8	0.00e+00	0	41	0	1767899136	44	5714
2026-01-22 04:54:44.55	278.78	15.54	-35.1	-35.8	25.8	0.00e+00	0	41	0	1773142016	44	5608
2026-01-22 04:54:45.56	279.00	15.55	-35.3	-36.0	25.7	0.00e+00	0	41	0	1779433472	44	5700
2026-01-22 04:54:46.57	279.22	15.55	-35.2	-35.9	25.8	0.00e+00	0	41	0	1784676352	44	5677
2026-01-22 04:54:47.58	279.44	15.56	-35.1	-35.8	25.7	0.00e+00	0	41	0	1789919232	44	5615
2026-01-22 04:54:48.59	279.66	15.56	-35.2	-35.8	25.6	0.00e+00	0	41	0	1796210688	44	5620
2026-01-22 04:54:49.60	279.88	15.56	-35.4	-36.0	25.5	0.00e+00	0	41	0	1801453568	44	5751
2026-01-22 04:54:50.61	280.09	15.57	-35.6	-36.3	25.4	0.00e+00	0	41	0	1807745024	44	5961
2026-01-22 04:54:51.62	280.31	15.57	-35.8	-36.4	25.5	0.00e+00	0	41	0	1812987904	44	6033
2026-01-22 04:54:52.63	280.53	15.57	-35.6	-36.3	25.6	0.00e+00	0	41	0	1818230784	44	5912
2026-01-22 04:54:53.64	280.75	15.57	-35.6	-36.3	25.6	0.00e+00	0	41	0	1824522240	44	5902
2026-01-22 04:54:54.65	280.97	15.57	-35.4	-36.0	25.7	0.00e+00	0	41	0	1829765120	44	5749
2026-01-22 04:54:55.66	281.19	15.58	-35.2	-35.9	25.7	0.00e+00	0	41	0	1836056576	44	5668
2026-01-22 04:54:56.67	281.41	15.58	-35.3	-35.9	25.7	0.00e+00	0	41	0	1841299456	44	5681
2026-01-22 04:54:57.68	281.62	15.58	-35.3	-36.0	25.7	0.00e+00	0	41	0	1847590912	44	5705
2026-01-22 04:54:58.69	281.84	15.58	-35.2	-35.8	25.8	0.00e+00	0	41	0	1852833792	44	5602
2026-01-22 04:54:59.70	282.06	15.57	-35.1	-35.8	25.8	0.00e+00	0	41	0	1859125248	44	5573
2026-01-22 04:55:00.71	282.28	15.57	-35.0	-35.6	25.9	0.00e+00	0	41	0	1864368128	44	5488
2026-01-22 04:55:01.72	282.50	15.57	-35.0	-35.7	25.8	0.00e+00	0	41	0	1869611008	44	5553
2026-01-22 04:55:02.73	282.72	15.57	-35.0	-35.6	25.7	0.00e+00	0	41	0	1875902464	44	5483
2026-01-22 04:55:03.74	282.94	15.57	-35.0	-35.6	25.7	0.00e+00	0	41	0	1881145344	44	5495
2026-01-22 04:55:04.75	283.15	15.57	-34.9	-35.6	25.8	0.00e+00	0	41	0	1887436800	44	5450
2026-01-22 04:55:05.76	283.37	15.56	-35.0	-35.6	25.7	0.00e+00	0	41	0	1892679680	44	5475
2026-01-22 04:55:06.77	283.59	15.56	-35.0	-35.7	25.7	0.00e+00	0	41	0	1897922560	44	5504
2026-01-22 04:55:07.78	283.81	15.55	-35.3	-36.0	25.7	0.00e+00	0	41	0	1904214016	44	5735
2026-01-22 04:55:08.79	284.03	15.55	-35.4	-36.1	25.6	0.00e+00	0	41	0	1909456896	44	5774
2026-01-22 04:55:09.81	284.25	15.55	-35.3	-35.9	25.4	0.00e+00	0	41	0	1915748352	44	5692
2026-01-22 04:55:10.82	284.47	15.54	-35.3	-35.9	25.4	0.00e+00	0	41	0	1920991232	44	5683
2026-01-22 04:55:11.83	284.68	15.54	-35.3	-36.0	25.4	0.00e+00	0	41	0	1926234112	44	5711
2026-01-22 04:55:12.83	284.90	15.53	-35.3	-36.0	25.5	0.00e+00	0	41	0	1932525568	44	5723
2026-01-22 04:55:13.85	285.12	15.52	-35.3	-36.0	25.6	0.00e+00	0	41	0	1937768448	44	5705
2026-01-22 04:55:14.85	285.33	15.52	-35.2	-35.8	25.6	0.00e+00	0	41	0	1944059904	44	5624
2026-01-22 04:55:15.87	285.55	15.51	-35.3	-36.0	25.4	0.00e+00	0	41	0	1949302784	44	5741
2026-01-22 04:55:16.88	285.77	15.50	-35.5	-36.2	25.1	0.00e+00	0	41	0	1955594240	44	5833
2026-01-22 04:55:17.89	285.99	15.49	-35.5	-36.2	25.2	0.00e+00	0	41	0	1960837120	44	5883
2026-01-22 04:55:18.90	286.21	15.49	-36.1	-36.8	25.1	0.00e+00	0	41	0	1967128576	44	6293
2026-01-22 04:55:19.91	286.42	15.48	-35.8	-36.5	25.4	0.00e+00	0	41	0	1972371456	44	6062
2026-01-22 04:55:20.92	286.64	15.47	-35.6	-36.3	25.5	0.00e+00	0	41	0	1977614336	44	5899
2026-01-22 04:55:21.93	286.86	15.46	-35.6	-36.2	25.5	0.00e+00	0	41	0	1983905792	44	5857
2026-01-22 04:55:22.93	287.07	15.45	-35.5	-36.1	25.7	0.00e+00	0	41	0	1989148672	44	5824
2026-01-22 04:55:23.94	287.29	15.44	-35.5	-36.1	25.6	0.00e+00	0	41	0	1995440128	44	5797
2026-01-22 04:55:24.95	287.50	15.43	-35.3	-36.0	25.6	0.00e+00	0	41	0	2000683008	44	5708
2026-01-22 04:55:25.96	287.72	15.42	-35.3	-35.9	25.7	0.00e+00	0	41	0	2005925888	44	5663
2026-01-22 04:55:26.97	287.94	15.41	-35.4	-36.1	25.7	0.00e+00	0	41	0	2012217344	44	5771
2026-01-22 04:55:27.98	288.15	15.40	-35.6	-36.2	25.6	0.00e+00	0	41	0	2017460224	44	5834
2026-01-22 04:55:28.99	288.37	15.38	-35.4	-36.1	25.5	0.00e+00	0	41	0	2023751680	44	5766
2026-01-22 04:55:30.00	288.58	15.37	-35.6	-36.2	25.6	0.00e+00	0	41	0	2028994560	44	5892
2026-01-22 04:55:31.01	288.80	15.36	-36.4	-37.1	25.1	0.00e+00	0	41	0	2034237440	44	6476
2026-01-22 04:55:32.02	289.02	15.35	-36.6	-37.3	24.9	0.00e+00	0	41	0	2040528896	44	6655
2026-01-22 04:55:33.03	289.23	15.33	-36.2	-36.9	25.1	0.00e+00	0	41	0	2045771776	44	6355
2026-01-22 04:55:34.04	289.45	15.32	-36.0	-36.7	25.4	0.00e+00	0	41	0	2052063232	44	6206
2026-01-22 04:55:35.05	289.66	15.31	-35.9	-36.6	25.3	0.00e+00	0	41	0	2057306112	44	6168
2026-01-22 04:55:36.06	289.87	15.29	-35.8	-36.4	25.2	0.00e+00	0	41	0	2063597568	44	6028
2026-01-22 04:55:37.07	290.09	15.28	-35.4	-36.0	25.6	0.00e+00	0	41	0	2068840448	44	5747
2026-01-22 04:55:38.08	290.30	15.26	-35.4	-36.1	25.5	0.00e+00	0	41	0	2074083328	44	5776
2026-01-22 04:55:39.09	290.52	15.25	-35.4	-36.2	25.4	0.00e+00	0	41	0	2080374784	44	5829
2026-01-22 04:55:40.10	290.73	15.23	-35.2	-35.9	25.4	0.00e+00	0	41	0	2085617664	44	5667
2026-01-22 04:55:41.11	290.94	15.21	-35.1	-35.8	25.5	0.00e+00	0	41	0	2091909120	44	5578
2026-01-22 04:55:42.12	291.16	15.20	-35.2	-35.8	25.6	0.00e+00	0	41	0	2097152000	44	5581
2026-01-22 04:55:43.13	291.37	15.18	-35.2	-35.9	25.6	0.00e+00	0	41	0	2102394880	44	5660
2026-01-22 04:55:44.14	291.58	15.16	-35.5	-36.1	25.3	0.00e+00	0	41	0	2108686336	44	5812
2026-01-22 04:55:45.15	291.79	15.14	-35.2	-35.9	25.5	0.00e+00	0	41	0	2113929216	44	5635
2026-01-22 04:55:46.17	292.01	15.13	-35.2	-35.9	25.5	0.00e+00	0	41	0	2120220672	44	5690
2026-01-22 04:55:47.18	292.22	15.11	-35.4	-36.0	25.3	0.00e+00	0	41	0	2125463552	44	5756
2026-01-22 04:55:48.19	292.43	15.09	-35.5	-36.2	25.3	0.00e+00	0	41	0	2130706432	44	5849
2026-01-22 04:55:49.20	292.64	15.07	-35.5	-36.2	25.3	0.00e+00	0	41	0	2136997888	44	5840
2026-01-22 04:55:50.21	292.85	15.05	-35.5	-36.3	25.3	0.00e+00	0	41	0	2142240768	44	5924
2026-01-22 04:55:51.22	293.07	15.03	-36.0	-36.7	25.1	0.00e+00	0	41	0	2148532224	44	6190
2026-01-22 04:55:52.23	293.28	15.01	-35.7	-36.3	25.3	0.00e+00	0	41	0	2153775104	44	5941
2026-01-22 04:55:53.24	293.49	14.99	-35.9	-36.5	25.1	0.00e+00	0	41	0	2160066560	44	6085
2026-01-22 04:55:54.25	293.70	14.97	-35.7	-36.4	25.2	0.00e+00	0	41	0	2165309440	44	6020
2026-01-22 04:55:55.26	293.91	14.95	-36.5	-37.1	24.8	0.00e+00	0	41	0	2171600896	44	6514
2026-01-22 04:55:56.27	294.12	14.93	-35.8	-36.5	25.4	0.00e+00	0	41	0	2176843776	44	6045
2026-01-22 04:55:57.28	294.32	14.91	-35.9	-36.6	25.4	0.00e+00	0	41	0	2182086656	44	6121
2026-01-22 04:55:58.29	294.53	14.88	-35.6	-36.3	25.5	0.00e+00	0	41	0	2188378112	44	5960
2026-01-22 04:55:59.30	294.74	14.86	-35.8	-36.4	25.3	0.00e+00	0	41	0	2193620992	44	6028
2026-01-22 04:56:00.31	294.95	14.84	-36.0	-36.7	25.4	0.00e+00	0	41	0	2199912448	44	6179
2026-01-22 04:56:01.32	295.16	14.81	-35.5	-36.2	25.5	0.00e+00	0	41	0	2205155328	44	5884
2026-01-22 04:56:02.33	295.37	14.79	-35.6	-36.4	25.4	0.00e+00	0	41	0	2210398208	44	5979
2026-01-22 04:56:03.34	295.57	14.77	-35.9	-36.6	25.3	0.00e+00	0	41	0	2216689664	44	6172
2026-01-22 04:56:04.35	295.78	14.74	-35.7	-36.3	25.3	0.00e+00	0	41	0	2221932544	44	5963
2026-01-22 04:56:05.36	295.99	14.72	-35.7	-36.3	25.3	0.00e+00	0	41	0	2228224000	44	5939
2026-01-22 04:56:06.37	296.19	14.69	-35.7	-36.3	25.1	0.00e+00	0	41	0	2233466880	44	5956
2026-01-22 04:56:07.38	296.40	14.67	-35.7	-36.5	25.0	0.00e+00	0	41	0	2238709760	44	6043
2026-01-22 04:56:08.39	296.60	14.64	-35.8	-36.6	25.0	0.00e+00	0	41	0	2245001216	44	6117
2026-01-22 04:56:09.40	296.81	14.62	-35.7	-36.5	25.1	0.00e+00	0	41	0	2250244096	44	6065
2026-01-22 04:56:10.41	297.01	14.59	-35.8	-36.4	25.1	0.00e+00	0	41	0	2256535552	44	6024
2026-01-22 04:56:11.42	297.22	14.57	-35.8	-36.5	25.0	0.00e+00	0	41	0	2261778432	44	6050
2026-01-22 04:56:12.43	297.42	14.54	-35.7	-36.5	25.0	0.00e+00	0	41	0	2268069888	44	6056
2026-01-22 04:56:13.44	297.63	14.51	-35.7	-36.5	24.9	0.00e+00	0	41	0	2273312768	44	6043
2026-01-22 04:56:14.45	297.83	14.48	-35.9	-36.7	24.8	0.00e+00	0	41	0	2279604224	44	6192
2026-01-22 04:56:15.46	298.03	14.46	-36.0	-36.6	24.6	0.00e+00	0	41	0	2284847104	44	6169
2026-01-22 04:56:16.47	298.24	14.43	-35.7	-36.4	25.0	0.00e+00	0	41	0	2290089984	44	6033
2026-01-22 04:56:17.48	298.44	14.40	-36.4	-37.1	24.6	0.00e+00	0	41	0	2296381440	44	6531
2026-01-22 04:56:18.49	298.64	14.37	-36.5	-37.3	24.6	0.00e+00	0	41	0	2301624320	44	6665
2026-01-22 04:56:19.51	298.84	14.34	-36.2	-36.8	24.9	0.00e+00	0	41	0	2307915776	46	5626
2026-01-22 04:56:20.52	299.04	14.31	-36.4	-37.1	25.0	0.00e+00	0	41	0	2313158656	46	5776
2026-01-22 04:56:21.53	299.24	14.29	-36.5	-37.2	24.8	0.00e+00	0	41	0	2318401536	46	5840
2026-01-22 04:56:22.53	299.44	14.26	-36.3	-37.0	24.7	0.00e+00	0	41	0	2324692992	46	5731
2026-01-22 04:56:23.54	299.64	14.23	-36.4	-37.1	24.7	0.00e+00	0	41	0	2329935872	46	5809
2026-01-22 04:56:24.55	299.84	14.20	-36.7	-37.4	24.6	0.00e+00	0	41	0	2336227328	46	5969
2026-01-22 04:56:25.56	300.04	14.17	-37.0	-37.7	24.7	0.00e+00	0	41	0	2341470208	46	6232
2026-01-22 04:56:26.57	300.24	14.13	-36.6	-37.2	25.0	0.00e+00	0	41	0	2346713088	46	5856
2026-01-22 04:56:27.58	300.44	14.10	-36.1	-36.7	25.0	0.00e+00	0	41	0	2353004544	46	5529
2026-01-22 04:56:28.59	300.64	14.07	-35.9	-36.6	25.1	0.00e+00	0	41	0	2358247424	46	5448
2026-01-22 04:56:29.61	300.84	14.04	-35.6	-36.2	25.2	0.00e+00	0	41	0	2364538880	44	5886
2026-01-22 04:56:30.61	301.03	14.01	-35.8	-36.5	25.1	0.00e+00	0	41	0	2369781760	44	6089
2026-01-22 04:56:31.62	301.23	13.98	-36.0	-36.6	24.9	0.00e+00	0	41	0	2376073216	44	6139
2026-01-22 04:56:32.63	301.42	13.94	-36.0	-36.6	25.0	0.00e+00	0	41	0	2381316096	44	6150
2026-01-22 04:56:33.64	301.62	13.91	-35.9	-36.6	25.1	0.00e+00	0	41	0	2386558976	44	6156
2026-01-22 04:56:34.65	301.82	13.88	-35.9	-36.5	25.0	0.00e+00	0	41	0	2392850432	44	6071
2026-01-22 04:56:35.66	302.01	13.85	-35.8	-36.5	25.0	0.00e+00	0	40	0	2398093312	44	6047
2026-01-22 04:56:36.66	302.20	13.81	-35.7	-36.3	25.0	0.00e+00	0	41	0	2404384768	44	5960
2026-01-22 04:56:37.68	302.40	13.78	-35.8	-36.4	25.1	0.00e+00	0	41	0	2409627648	44	5976
2026-01-22 04:56:38.69	302.59	13.75	-35.9	-36.5	25.1	0.00e+00	0	41	0	2414870528	44	6056
2026-01-22 04:56:39.70	302.79	13.71	-35.8	-36.4	25.1	0.00e+00	0	41	0	2421161984	44	5981
2026-01-22 04:56:40.70	302.98	13.68	-35.8	-36.4	25.0	0.00e+00	0	41	0	2426404864	44	6019
2026-01-22 04:56:41.72	303.17	13.64	-35.8	-36.6	24.9	0.00e+00	0	40	0	2432696320	44	6111
2026-01-22 04:56:42.73	303.36	13.61	-35.9	-36.5	24.8	0.00e+00	0	41	0	2437939200	44	6067
2026-01-22 04:56:43.74	303.56	13.57	-35.7	-36.4	25.1	0.00e+00	0	41	0	2443182080	44	6025
2026-01-22 04:56:44.74	303.75	13.54	-35.8	-36.5	25.0	0.00e+00	0	41	0	2449473536	44	6057
2026-01-22 04:56:45.76	303.94	13.50	-35.8	-36.4	25.1	0.00e+00	0	41	0	2454716416	44	6023
2026-01-22 04:56:46.77	304.13	13.47	-36.0	-36.6	25.0	0.00e+00	0	41	0	2461007872	44	6165
2026-01-22 04:56:47.78	304.32	13.43	-36.0	-36.7	25.0	0.00e+00	0	41	0	2466250752	44	6241
2026-01-22 04:56:48.79	304.51	13.39	-35.9	-36.6	24.9	0.00e+00	0	41	0	2472542208	44	6137
2026-01-22 04:56:49.80	304.70	13.36	-36.0	-36.7	24.8	0.00e+00	0	41	0	2477785088	44	6202
2026-01-22 04:56:50.81	304.88	13.32	-36.0	-36.8	24.7	0.00e+00	0	41	0	2484076544	44	6282
2026-01-22 04:56:51.82	305.07	13.28	-36.0	-36.7	24.7	0.00e+00	0	41	0	2489319424	44	6188
2026-01-22 04:56:52.83	305.26	13.25	-36.0	-36.8	24.7	0.00e+00	0	41	0	2494562304	44	6260
2026-01-22 04:56:53.84	305.45	13.21	-36.2	-36.9	24.5	0.00e+00	0	40	0	2500853760	44	6377
2026-01-22 04:56:54.85	305.63	13.17	-36.0	-36.7	24.8	0.00e+00	0	40	0	2506096640	44	6199
2026-01-22 04:56:55.86	305.82	13.13	-35.9	-36.5	24.7	0.00e+00	0	40	0	2512388096	44	6101
2026-01-22 04:56:56.87	306.00	13.09	-36.5	-37.2	24.3	0.00e+00	0	41	0	2517630976	44	6544
2026-01-22 04:56:57.89	306.19	13.06	-36.3	-37.1	24.4	0.00e+00	0	41	0	2522873856	44	6473
2026-01-22 04:56:58.90	306.38	13.02	-36.1	-36.8	24.6	0.00e+00	0	41	0	2529165312	44	6303
2026-01-22 04:56:59.91	306.56	12.98	-36.2	-37.0	24.4	0.00e+00	0	41	0	2534408192	44	6444
2026-01-22 04:57:00.92	306.74	12.94	-36.2	-37.0	24.4	0.00e+00	0	41	0	2540699648	44	6412
2026-01-22 04:57:01.93	306.93	12.90	-36.0	-36.7	24.6	0.00e+00	0	41	0	2545942528	44	6221
2026-01-22 04:57:02.94	307.11	12.86	-36.0	-36.7	24.6	0.00e+00	0	41	0	2551185408	44	6192
2026-01-22 04:57:03.95	307.29	12.82	-36.2	-36.9	24.4	0.00e+00	0	41	0	2557476864	44	6377
2026-01-22 04:57:04.96	307.47	12.78	-36.2	-37.0	24.5	0.00e+00	0	41	0	2562719744	44	6423
2026-01-22 04:57:05.97	307.66	12.74	-36.3	-37.0	24.5	0.00e+00	0	41	0	2569011200	44	6419
2026-01-22 04:57:06.97	307.83	12.70	-36.1	-36.8	24.5	0.00e+00	0	41	0	2574254080	44	6281
2026-01-22 04:57:07.99	308.02	12.66	-36.3	-37.0	24.6	0.00e+00	0	41	0	2580545536	44	6403
2026-01-22 04:57:08.99	308.20	12.62	-36.3	-37.0	24.2	0.00e+00	0	41	0	2585788416	44	6435
2026-01-22 04:57:10.00	308.37	12.58	-36.9	-37.5	24.1	0.00e+00	0	41	0	2592079872	46	6087
2026-01-22 04:57:11.01	308.55	12.54	-36.5	-37.1	24.6	0.00e+00	0	41	0	2597322752	46	5798
2026-01-22 04:57:12.02	308.73	12.50	-36.5	-37.2	24.7	0.00e+00	0	41	0	2602565632	46	5853
2026-01-22 04:57:13.03	308.91	12.46	-36.8	-37.5	24.5	0.00e+00	0	41	0	2608857088	46	6076
2026-01-22 04:57:14.04	309.09	12.42	-36.6	-37.2	24.6	0.00e+00	0	41	0	2614099968	46	5845
2026-01-22 04:57:15.05	309.26	12.38	-36.5	-37.2	24.5	0.00e+00	0	41	0	2620391424	46	5887
2026-01-22 04:57:16.06	309.44	12.33	-36.5	-37.2	24.5	0.00e+00	0	41	0	2625634304	46	5845
2026-01-22 04:57:17.08	309.62	12.29	-36.4	-37.2	24.5	0.00e+00	0	41	0	2630877184	46	5850
2026-01-22 04:57:18.09	309.79	12.25	-36.2	-36.9	24.6	0.00e+00	0	41	0	2637168640	46	5644
2026-01-22 04:57:19.09	309.97	12.21	-36.3	-37.0	24.4	0.00e+00	0	41	0	2642411520	46	5728
2026-01-22 04:57:20.10	310.14	12.17	-36.4	-37.0	24.4	0.00e+00	0	41	0	2648702976	46	5746
2026-01-22 04:57:21.12	310.32	12.12	-36.2	-36.8	24.5	0.00e+00	0	41	0	2653945856	46	5624
2026-01-22 04:57:22.13	310.49	12.08	-36.2	-36.9	24.5	0.00e+00	0	41	0	2659188736	46	5684
2026-01-22 04:57:23.13	310.66	12.04	-36.4	-37.0	24.4	0.00e+00	0	41	0	2665480192	46	5741
2026-01-22 04:57:24.14	310.84	11.99	-36.2	-36.9	24.5	0.00e+00	0	41	0	2670723072	46	5636
2026-01-22 04:57:25.15	311.01	11.95	-36.3	-37.0	24.4	0.00e+00	0	41	0	2677014528	46	5757
2026-01-22 04:57:26.17	311.18	11.91	-36.0	-36.7	24.7	0.00e+00	0	41	0	2682257408	46	5510
2026-01-22 04:57:27.18	311.35	11.86	-36.2	-37.0	24.4	0.00e+00	0	41	0	2688548864	46	5700
2026-01-22 04:57:28.19	311.52	11.82	-36.4	-37.2	24.3	0.00e+00	0	41	0	2693791744	46	5844
2026-01-22 04:57:29.20	311.69	11.78	-36.7	-37.4	24.2	0.00e+00	0	41	0	2700083200	46	5990
2026-01-22 04:57:30.21	311.86	11.73	-36.7	-37.5	24.1	0.00e+00	0	41	0	2705326080	46	6034
2026-01-22 04:57:31.22	312.03	11.69	-36.5	-37.2	24.2	0.00e+00	0	41	0	2710568960	46	5881
2026-01-22 04:57:32.23	312.20	11.64	-36.6	-37.2	24.3	0.00e+00	0	41	0	2716860416	46	5875
2026-01-22 04:57:33.24	312.37	11.60	-36.6	-37.3	24.3	0.00e+00	0	41	0	2722103296	46	5927
2026-01-22 04:57:34.25	312.54	11.56	-36.5	-37.2	24.3	0.00e+00	0	41	0	2728394752	46	5891
2026-01-22 04:57:35.26	312.70	11.51	-36.5	-37.2	24.3	0.00e+00	0	41	0	2733637632	46	5837
2026-01-22 04:57:36.27	312.87	11.47	-36.6	-37.3	24.0	0.00e+00	0	41	0	2738880512	46	5921
2026-01-22 04:57:37.28	313.04	11.42	-36.6	-37.3	24.0	0.00e+00	0	41	0	2745171968	46	5949
2026-01-22 04:57:38.29	313.20	11.38	-36.8	-37.6	23.9	0.00e+00	0	41	0	2750414848	46	6140
2026-01-22 04:57:39.30	313.37	11.33	-37.2	-37.9	23.9	0.00e+00	0	41	0	2756706304	46	6364
2026-01-22 04:57:40.31	313.53	11.29	-37.0	-37.7	23.8	0.00e+00	0	41	0	2761949184	46	6207
2026-01-22 04:57:41.32	313.70	11.24	-37.1	-37.9	23.8	0.00e+00	0	41	0	2767192064	46	6334
2026-01-22 04:57:42.33	313.86	11.20	-37.0	-37.7	23.8	0.00e+00	0	41	0	2773483520	46	6216
2026-01-22 04:57:43.34	314.02	11.15	-36.9	-37.7	23.9	0.00e+00	0	41	0	2778726400	46	6199
2026-01-22 04:57:44.35	314.19	11.10	-36.9	-37.6	24.0	0.00e+00	0	41	0	2785017856	46	6166
2026-01-22 04:57:45.36	314.35	11.06	-37.0	-37.7	23.9	0.00e+00	0	41	0	2790260736	46	6211
2026-01-22 04:57:46.37	314.51	11.01	-36.7	-37.5	24.0	0.00e+00	0	41	0	2796552192	46	6082
2026-01-22 04:57:47.38	314.67	10.97	-36.6	-37.4	24.0	0.00e+00	0	41	0	2801795072	46	5966
2026-01-22 04:57:48.39	314.83	10.92	-37.0	-37.8	23.8	0.00e+00	0	41	0	2807037952	46	6256
2026-01-22 04:57:49.40	314.99	10.87	-37.0	-37.8	23.8	0.00e+00	0	41	0	2813329408	46	6255
2026-01-22 04:57:50.41	315.15	10.83	-36.8	-37.5	23.9	0.00e+00	0	41	0	2818572288	46	6103
2026-01-22 04:57:51.42	315.31	10.78	-36.7	-37.4	24.0	0.00e+00	0	41	0	2824863744	46	6015
2026-01-22 04:57:52.43	315.47	10.73	-36.6	-37.4	24.0	0.00e+00	0	41	0	2830106624	46	5993
2026-01-22 04:57:53.44	315.63	10.69	-36.6	-37.3	24.0	0.00e+00	0	41	0	2835349504	46	5938
2026-01-22 04:57:54.45	315.79	10.64	-36.7	-37.4	23.9	0.00e+00	0	41	0	2841640960	46	6003
2026-01-22 04:57:55.46	315.94	10.59	-36.9	-37.5	23.7	0.00e+00	0	41	0	2846883840	46	6096
2026-01-22 04:57:56.47	316.10	10.55	-36.8	-37.6	23.8	0.00e+00	0	41	0	2853175296	46	6147
2026-01-22 04:57:57.48	316.26	10.50	-36.6	-37.3	23.9	0.00e+00	0	41	0	2858418176	46	5947
2026-01-22 04:57:58.49	316.41	10.45	-36.5	-37.3	24.0	0.00e+00	0	41	0	2863661056	46	5903
2026-01-22 04:57:59.49	316.57	10.41	-36.7	-37.4	23.8	0.00e+00	0	41	0	2869952512	46	5973
2026-01-22 04:58:00.51	316.72	10.36	-36.4	-37.2	24.0	0.00e+00	0	41	0	2875195392	46	5840
2026-01-22 04:58:01.51	316.88	10.31	-36.9	-37.6	23.8	0.00e+00	0	41	0	2881486848	46	6129
2026-01-22 04:58:02.53	317.03	10.26	-37.3	-38.1	23.7	0.00e+00	0	41	0	2886729728	46	6503
2026-01-22 04:58:03.54	317.18	10.22	-36.9	-37.7	23.9	0.00e+00	0	41	0	2893021184	46	6199
2026-01-22 04:58:04.54	317.34	10.17	-36.8	-37.5	23.9	0.00e+00	0	41	0	2898264064	46	6100
2026-01-22 04:58:05.55	317.49	10.12	-36.7	-37.5	23.8	0.00e+00	0	41	0	2904555520	46	6073
2026-01-22 04:58:06.56	317.64	10.07	-36.8	-37.5	23.7	0.00e+00	0	41	0	2909798400	46	6048
2026-01-22 04:58:07.57	317.79	10.02	-36.7	-37.4	23.8	0.00e+00	0	41	0	2915041280	46	5974
2026-01-22 04:58:08.58	317.94	9.98	-37.1	-37.8	23.6	0.00e+00	0	41	0	2921332736	46	6298
2026-01-22 04:58:09.59	318.09	9.93	-37.1	-37.8	23.5	0.00e+00	0	41	0	2926575616	46	6307
2026-01-22 04:58:10.60	318.24	9.88	-37.1	-37.9	23.4	0.00e+00	0	41	0	2932867072	46	6362
2026-01-22 04:58:11.61	318.39	9.83	-37.0	-37.8	23.6	0.00e+00	0	41	0	2938109952	46	6298
2026-01-22 04:58:12.62	318.54	9.78	-37.0	-37.7	23.7	0.00e+00	0	41	0	2943352832	46	6231
2026-01-22 04:58:13.63	318.69	9.74	-37.0	-37.7	23.7	0.00e+00	0	41	0	2949644288	46	6239
2026-01-22 04:58:14.64	318.84	9.69	-37.4	-38.1	23.3	0.00e+00	0	41	0	2954887168	46	6477
2026-01-22 04:58:15.65	318.99	9.64	-37.5	-38.3	23.2	0.00e+00	0	41	0	2961178624	46	6629
2026-01-22 04:58:16.66	319.13	9.59	-37.7	-38.4	23.3	0.00e+00	0	41	0	2966421504	48	6007
2026-01-22 04:58:17.67	319.28	9.54	-37.4	-38.3	23.4	0.00e+00	0	41	0	2971664384	48	5899
2026-01-22 04:58:18.68	319.43	9.49	-37.6	-38.3	23.3	0.00e+00	0	41	0	2977955840	48	5955
2026-01-22 04:58:19.69	319.57	9.44	-37.2	-37.9	23.5	0.00e+00	0	41	0	2983198720	48	5668
2026-01-22 04:58:20.70	319.72	9.39	-37.4	-38.1	23.3	0.00e+00	0	41	0	2989490176	48	5816
2026-01-22 04:58:21.71	319.86	9.35	-37.7	-38.5	23.0	0.00e+00	0	41	0	2994733056	48	6099
2026-01-22 04:58:22.72	320.01	9.30	-37.4	-38.2	23.3	0.00e+00	0	41	0	3001024512	48	5840
2026-01-22 04:58:23.73	320.15	9.25	-37.2	-37.9	23.3	0.00e+00	0	41	0	3006267392	48	5668
2026-01-22 04:58:24.74	320.29	9.20	-37.3	-38.0	23.2	0.00e+00	0	41	0	3011510272	48	5761
2026-01-22 04:58:25.75	320.44	9.15	-37.0	-37.7	23.5	0.00e+00	0	41	0	3017801728	48	5534
2026-01-22 04:58:26.76	320.58	9.10	-37.1	-37.8	23.3	0.00e+00	0	41	0	3023044608	48	5574
2026-01-22 04:58:27.77	320.72	9.05	-37.2	-37.9	23.2	0.00e+00	0	41	0	3029336064	48	5653
2026-01-22 04:58:28.77	320.86	9.00	-37.2	-37.8	23.2	0.00e+00	0	41	0	3034578944	48	5628
2026-01-22 04:58:29.78	321.00	8.95	-37.3	-38.1	23.0	0.00e+00	0	41	0	3039821824	48	5803
2026-01-22 04:58:30.79	321.14	8.90	-37.4	-38.2	23.1	0.00e+00	0	41	0	3046113280	48	5850
2026-01-22 04:58:31.80	321.28	8.85	-37.5	-38.3	23.1	0.00e+00	0	41	0	3051356160	48	5937
2026-01-22 04:58:32.81	321.42	8.80	-37.4	-38.1	23.2	0.00e+00	0	41	0	3057647616	48	5798
2026-01-22 04:58:33.82	321.56	8.75	-37.4	-38.1	23.1	0.00e+00	0	41	0	3062890496	48	5792
2026-01-22 04:58:34.83	321.70	8.71	-37.7	-38.5	22.8	0.00e+00	0	41	0	3068133376	48	6069
2026-01-22 04:58:35.84	321.84	8.66	-37.5	-38.3	23.0	0.00e+00	0	41	0	3074424832	48	5918
2026-01-22 04:58:36.85	321.98	8.61	-37.3	-38.1	23.2	0.00e+00	0	41	0	3079667712	48	5793
2026-01-22 04:58:37.86	322.12	8.56	-37.4	-38.1	23.1	0.00e+00	0	41	0	3085959168	48	5811
2026-01-22 04:58:38.87	322.25	8.51	-37.4	-38.1	23.1	0.00e+00	0	41	0	3091202048	48	5819
2026-01-22 04:58:39.88	322.39	8.46	-37.6	-38.3	22.8	0.00e+00	0	41	0	3097493504	48	5955
2026-01-22 04:58:40.90	322.53	8.41	-37.9	-38.6	22.6	0.00e+00	0	41	0	3102736384	48	6115
2026-01-22 04:58:41.91	322.66	8.36	-37.4	-38.1	23.1	0.00e+00	0	41	0	3109027840	48	5773
2026-01-22 04:58:42.92	322.80	8.31	-37.5	-38.3	23.0	0.00e+00	0	41	0	3114270720	48	5956
2026-01-22 04:58:43.93	322.93	8.26	-37.5	-38.4	22.9	0.00e+00	0	41	0	3119513600	48	5982
2026-01-22 04:58:44.94	323.07	8.21	-37.5	-38.2	22.9	0.00e+00	0	41	0	3125805056	48	5845
2026-01-22 04:58:45.95	323.20	8.16	-37.5	-38.2	22.9	0.00e+00	0	41	0	3131047936	48	5888
2026-01-22 04:58:46.96	323.33	8.11	-37.6	-38.4	22.7	0.00e+00	0	41	0	3137339392	48	5988
2026-01-22 04:58:47.97	323.47	8.06	-37.5	-38.2	22.6	0.00e+00	0	41	0	3142582272	48	5896
2026-01-22 04:58:48.98	323.60	8.01	-38.2	-39.0	22.2	0.00e+00	0	41	0	3147825152	48	6397
2026-01-22 04:58:49.99	323.73	7.96	-37.6	-38.3	22.6	0.00e+00	0	41	0	3154116608	48	5912
2026-01-22 04:58:51.00	323.86	7.91	-37.8	-38.5	22.6	0.00e+00	0	41	0	3159359488	48	6088
2026-01-22 04:58:52.01	323.99	7.86	-37.8	-38.6	22.7	0.00e+00	0	41	0	3165650944	48	6153
2026-01-22 04:58:53.02	324.13	7.81	-37.8	-38.5	22.7	0.00e+00	0	41	0	3170893824	48	6083
2026-01-22 04:58:54.03	324.26	7.76	-37.6	-38.3	22.8	0.00e+00	0	41	0	3176136704	48	5952
2026-01-22 04:58:55.04	324.39	7.70	-37.8	-38.6	22.5	0.00e+00	0	41	0	3182428160	48	6130
2026-01-22 04:58:56.05	324.52	7.65	-37.8	-38.5	22.6	0.00e+00	0	41	0	3187671040	48	6070
2026-01-22 04:58:57.06	324.64	7.60	-37.7	-38.5	22.7	0.00e+00	0	41	0	3193962496	48	6053
2026-01-22 04:58:58.07	324.77	7.55	-38.4	-39.2	22.4	0.00e+00	0	41	0	3199205376	48	6597
2026-01-22 04:58:59.07	324.90	7.50	-38.1	-38.8	22.5	0.00e+00	0	41	0	3205496832	48	6291
2026-01-22 04:59:00.08	325.03	7.45	-38.0	-38.7	22.4	0.00e+00	0	41	0	3210739712	48	6244
2026-01-22 04:59:01.09	325.16	7.40	-37.9	-38.8	22.4	0.00e+00	0	41	0	3217031168	48	6265
2026-01-22 04:59:02.10	325.28	7.35	-37.9	-38.6	22.5	0.00e+00	0	41	0	3222274048	48	6123
2026-01-22 04:59:03.11	325.41	7.30	-38.1	-38.8	22.2	0.00e+00	0	41	0	3227516928	48	6301
2026-01-22 04:59:04.12	325.53	7.25	-38.5	-39.3	21.8	0.00e+00	0	41	0	3233808384	48	6645
2026-01-22 04:59:05.13	325.66	7.20	-38.4	-39.3	22.1	0.00e+00	0	41	0	3239051264	48	6627
2026-01-22 04:59:06.14	325.79	7.15	-39.0	-39.9	22.0	0.00e+00	0	41	0	3245342720	50	6361
2026-01-22 04:59:07.15	325.91	7.10	-38.7	-39.6	22.1	0.00e+00	0	41	0	3250585600	50	6115
2026-01-22 04:59:08.17	326.04	7.05	-39.3	-40.1	22.2	0.00e+00	0	41	0	3255828480	50	6535
2026-01-22 04:59:09.17	326.16	7.00	-39.0	-39.8	22.1	0.00e+00	0	41	0	3262119936	50	6246
2026-01-22 04:59:10.19	326.28	6.95	-39.2	-39.9	21.8	0.00e+00	0	41	0	3267362816	50	6382
2026-01-22 04:59:11.19	326.41	6.90	-38.9	-39.6	22.0	0.00e+00	0	41	0	3273654272	50	6137
2026-01-22 04:59:12.21	326.53	6.85	-38.5	-39.3	22.3	0.00e+00	0	41	0	3278897152	50	5912
2026-01-22 04:59:13.21	326.65	6.80	-38.4	-39.2	22.4	0.00e+00	0	41	0	3284140032	50	5876
2026-01-22 04:59:14.22	326.77	6.75	-38.6	-39.4	22.2	0.00e+00	0	41	0	3290431488	50	6031
2026-01-22 04:59:15.23	326.89	6.70	-38.6	-39.4	22.2	0.00e+00	0	41	0	3295674368	50	6028
2026-01-22 04:59:16.25	327.02	6.65	-38.3	-39.1	22.3	0.00e+00	0	41	0	3301965824	50	5811
2026-01-22 04:59:17.26	327.14	6.59	-38.9	-39.6	21.6	0.00e+00	0	41	0	3307208704	50	6170
2026-01-22 04:59:18.27	327.26	6.54	-38.7	-39.6	21.9	0.00e+00	0	41	0	3313500160	50	6130
2026-01-22 04:59:19.28	327.38	6.49	-38.7	-39.6	21.6	0.00e+00	0	41	0	3318743040	50	6130
2026-01-22 04:59:20.29	327.50	6.44	-39.1	-39.9	21.5	0.00e+00	0	41	0	3323985920	50	6331
2026-01-22 04:59:21.30	327.62	6.39	-38.9	-39.7	21.9	0.00e+00	0	41	0	3330277376	50	6242
2026-01-22 04:59:22.31	327.74	6.34	-38.3	-39.1	22.3	0.00e+00	0	41	0	3335520256	50	5815
2026-01-22 04:59:23.32	327.85	6.29	-38.9	-39.7	21.8	0.00e+00	0	41	0	3341811712	50	6208
2026-01-22 04:59:24.33	327.97	6.24	-39.1	-39.9	21.6	0.00e+00	0	41	0	3347054592	50	6350
2026-01-22 04:59:25.34	328.09	6.19	-39.1	-40.0	21.6	0.00e+00	0	41	0	3352297472	50	6431
2026-01-22 04:59:26.35	328.21	6.14	-39.3	-40.1	21.6	0.00e+00	0	41	0	3358588928	50	6466
2026-01-22 04:59:27.36	328.32	6.09	-39.1	-39.9	21.7	0.00e+00	0	41	0	3363831808	50	6375
2026-01-22 04:59:28.37	328.44	6.04	-39.4	-40.2	21.3	0.00e+00	0	41	0	3370123264	50	6595
2026-01-22 04:59:29.38	328.56	5.99	-39.4	-40.3	21.4	0.00e+00	0	41	0	3375366144	50	6652
2026-01-22 04:59:30.39	328.67	5.94	-39.6	-40.5	21.2	0.00e+00	0	41	0	3380609024	50	6785
2026-01-22 04:59:31.40	328.79	5.89	-38.8	-39.6	21.6	0.00e+00	0	41	0	3386900480	50	6116
2026-01-22 04:59:32.41	328.90	5.84	-39.4	-40.3	21.4	0.00e+00	0	41	0	3392143360	50	6658
2026-01-22 04:59:33.42	329.02	5.79	-39.4	-40.2	21.6	0.00e+00	0	41	0	3398434816	50	6591
2026-01-22 04:59:34.43	329.13	5.74	-39.1	-39.8	21.5	0.00e+00	0	41	0	3403677696	50	6296
2026-01-22 04:59:35.44	329.24	5.68	-39.0	-39.8	21.6	0.00e+00	0	41	0	3409969152	50	6265
2026-01-22 04:59:36.45	329.36	5.63	-38.8	-39.5	21.8	0.00e+00	0	41	0	3415212032	50	6087
2026-01-22 04:59:37.46	329.47	5.58	-38.8	-39.5	21.8	0.00e+00	0	41	0	3421503488	50	6069
2026-01-22 04:59:38.47	329.58	5.53	-38.6	-39.4	22.0	0.00e+00	0	41	0	3426746368	50	6027
2026-01-22 04:59:39.48	329.70	5.48	-38.8	-39.6	21.5	0.00e+00	0	41	0	3431989248	50	6171
2026-01-22 04:59:40.49	329.81	5.43	-38.4	-39.2	21.9	0.00e+00	0	41	0	3438280704	50	5893
2026-01-22 04:59:41.50	329.92	5.38	-38.9	-39.8	21.9	0.00e+00	0	41	0	3443523584	50	6299
2026-01-22 04:59:42.51	330.03	5.33	-38.7	-39.6	21.8	0.00e+00	0	41	0	3449815040	50	6172
2026-01-22 04:59:43.52	330.14	5.28	-38.8	-39.6	21.7	0.00e+00	0	41	0	3455057920	50	6124
2026-01-22 04:59:44.53	330.25	5.23	-39.0	-39.8	21.3	0.00e+00	0	41	0	3460300800	50	6305
2026-01-22 04:59:45.54	330.36	5.18	-39.1	-39.9	21.3	0.00e+00	0	41	0	3466592256	50	6329
2026-01-22 04:59:46.55	330.47	5.13	-39.2	-40.1	21.0	0.00e+00	0	41	0	3471835136	50	6529
2026-01-22 04:59:47.56	330.58	5.08	-38.9	-39.8	21.3	0.00e+00	0	41	0	3478126592	50	6252
2026-01-22 04:59:48.57	330.69	5.03	-39.1	-40.1	20.8	0.00e+00	0	41	0	3483369472	50	6490
2026-01-22 04:59:49.58	330.80	4.98	-39.1	-40.0	20.9	0.00e+00	0	41	0	3488612352	50	6457
2026-01-22 04:59:50.59	330.91	4.93	-38.6	-39.4	21.6	0.00e+00	0	41	0	3494903808	50	5980
2026-01-22 04:59:51.60	331.02	4.88	-38.9	-39.7	21.3	0.00e+00	0	41	0	3500146688	50	6244
2026-01-22 04:59:52.61	331.12	4.83	-38.8	-39.7	21.4	0.00e+00	0	41	0	3506438144	50	6219
2026-01-22 04:59:53.62	331.23	4.78	-38.8	-39.6	21.2	0.00e+00	0	41	0	3511681024	50	6164
2026-01-22 04:59:54.63	331.34	4.73	-38.8	-39.7	21.0	0.00e+00	0	41	0	3517972480	50	6234
2026-01-22 04:59:55.64	331.44	4.68	-38.9	-39.8	21.0	0.00e+00	0	41	0	3523215360	50	6278
2026-01-22 04:59:56.65	331.55	4.63	-39.2	-40.1	20.7	0.00e+00	0	41	0	3529506816	50	6470
2026-01-22 04:59:57.66	331.66	4.58	-39.5	-40.5	20.3	0.00e+00	0	41	0	3534749696	50	6837
2026-01-22 04:59:58.67	331.76	4.53	-40.0	-40.9	19.8	0.00e+00	0	41	0	3539992576	52	6382
