passes_logs/2026/01/22/R4.6S_Anadyr/R4.6S_Anadyr__20260122_220007_NOAA_21_JPSS-2_rec.log

#Pass ID: 20260122_220007_NOAA 21 (JPSS-2)
#Satellite: NOAA 21 (JPSS-2)
#Configuration: NOAA-21
#almurnet v.1.7.20251203
#Start time: 2026-01-22 22:00:08

#Version: 2.2.20231116
#Station: R4.6S_Anadyr
#Location: 177.4865 lon 64.73178 lat
#TLE: 1 54234U 22150A   26022.41365820  .00000211  00000+0  12084-3 0  9990
#TLE: 2 54234  98.7507 323.2240 0000658 234.5287 125.5828 14.19537645165864

#Time	Az	El	Level	Level2	SNR	BER	BlckErr	Temp	State	Recorded	gain1	gain2
2026-01-22 22:00:08.64	103.08	0.07	-51.5	-69.2	3.5	7.67e-01	0	38	0	0	60	110635
2026-01-22 22:00:09.65	103.02	0.13	-51.0	-63.9	3.5	1.52e+00	0	40	104	0	60	54883
2026-01-22 22:00:10.66	102.97	0.18	-51.0	-63.9	3.5	1.52e+00	0	40	104	0	60	55192
2026-01-22 22:00:11.67	102.92	0.24	-51.0	-63.8	3.5	1.52e+00	0	40	104	0	60	54541
2026-01-22 22:00:12.68	102.87	0.29	-51.0	-63.8	3.5	1.52e+00	0	40	104	0	60	54579
2026-01-22 22:00:13.69	102.81	0.35	-51.0	-63.8	3.5	1.52e+00	0	40	104	0	60	54505
2026-01-22 22:00:14.70	102.76	0.41	-51.0	-63.8	3.5	1.52e+00	0	40	104	0	60	54552
2026-01-22 22:00:15.70	102.71	0.46	-50.9	-63.8	3.5	1.52e+00	0	40	104	0	60	54612
2026-01-22 22:00:16.71	102.66	0.52	-51.0	-63.8	3.5	1.52e+00	0	40	104	0	60	54487
2026-01-22 22:00:17.73	102.60	0.58	-51.0	-63.8	3.5	1.51e+00	0	40	104	0	60	54447
2026-01-22 22:00:18.74	102.55	0.63	-50.9	-63.8	3.5	1.52e+00	0	40	104	0	60	54518
2026-01-22 22:00:19.75	102.50	0.69	-51.0	-63.8	3.5	1.51e+00	0	40	104	0	60	54588
2026-01-22 22:00:20.76	102.44	0.74	-50.9	-63.8	3.5	1.52e+00	0	40	104	0	60	54206
2026-01-22 22:00:21.76	102.39	0.80	-51.0	-63.8	3.5	1.52e+00	0	40	104	0	60	54409
2026-01-22 22:00:22.77	102.33	0.86	-51.0	-63.8	3.5	1.52e+00	0	40	104	0	60	54544
2026-01-22 22:00:23.79	102.28	0.92	-50.9	-63.8	3.6	1.52e+00	0	40	104	0	60	54169
2026-01-22 22:00:24.79	102.22	0.97	-50.9	-63.8	3.5	1.51e+00	0	40	104	0	60	54201
2026-01-22 22:00:25.80	102.17	1.03	-50.9	-63.7	3.5	1.52e+00	0	40	104	0	60	53751
2026-01-22 22:00:26.81	102.11	1.09	-50.8	-63.7	3.5	1.52e+00	0	40	104	0	60	53455
2026-01-22 22:00:27.82	102.06	1.14	-50.7	-63.6	3.5	1.52e+00	0	40	104	0	60	52984
2026-01-22 22:00:28.83	102.00	1.20	-50.7	-63.5	3.5	1.51e+00	0	40	104	0	60	52473
2026-01-22 22:00:29.84	101.95	1.26	-50.6	-63.5	3.5	1.52e+00	0	40	104	0	60	52373
2026-01-22 22:00:30.85	101.89	1.32	-50.5	-63.3	3.5	1.51e+00	0	40	104	0	60	51513
2026-01-22 22:00:31.86	101.83	1.37	-50.3	-63.1	3.5	1.52e+00	0	40	104	0	60	49906
2026-01-22 22:00:32.87	101.78	1.43	-49.9	-62.9	3.5	1.51e+00	0	40	104	0	60	48994
2026-01-22 22:00:33.88	101.72	1.49	-49.3	-62.3	3.5	1.51e+00	0	40	104	0	60	45520
2026-01-22 22:00:34.89	101.66	1.55	-48.1	-62.0	3.5	1.51e+00	0	40	104	0	60	43938
2026-01-22 22:00:35.90	101.61	1.60	-48.1	-61.9	3.5	1.52e+00	0	40	104	0	60	43789
2026-01-22 22:00:36.91	101.55	1.66	-48.1	-61.9	3.5	1.52e+00	0	40	104	0	60	43684
2026-01-22 22:00:37.92	101.49	1.72	-48.2	-62.0	3.5	1.52e+00	0	40	104	0	60	43960
2026-01-22 22:00:38.93	101.43	1.78	-48.0	-62.0	3.5	1.52e+00	0	40	104	0	60	44270
2026-01-22 22:00:39.94	101.37	1.84	-48.1	-62.0	3.5	1.51e+00	0	40	104	0	60	44439
2026-01-22 22:00:40.95	101.32	1.89	-48.2	-62.0	3.5	1.52e+00	0	40	104	0	60	44412
2026-01-22 22:00:41.96	101.26	1.95	-48.0	-62.1	3.5	1.51e+00	0	40	104	0	60	44454
2026-01-22 22:00:42.97	101.20	2.01	-48.1	-62.0	3.5	1.52e+00	0	40	104	0	60	44252
2026-01-22 22:00:43.98	101.14	2.07	-48.0	-62.0	3.5	1.52e+00	0	40	104	0	60	44433
2026-01-22 22:00:44.99	101.08	2.13	-48.1	-62.0	3.5	1.52e+00	0	40	104	0	60	44037
2026-01-22 22:00:46.00	101.02	2.19	-47.9	-61.9	3.5	1.52e+00	0	40	104	0	60	43509
2026-01-22 22:00:47.01	100.96	2.25	-47.8	-61.8	3.5	1.52e+00	0	40	104	0	60	43213
2026-01-22 22:00:48.02	100.90	2.31	-47.7	-61.7	3.5	1.52e+00	0	41	104	0	60	42592
2026-01-22 22:00:49.03	100.84	2.36	-47.7	-61.7	3.5	1.52e+00	0	40	104	0	60	42443
2026-01-22 22:00:50.04	100.78	2.42	-47.7	-61.8	3.5	1.52e+00	0	40	104	0	60	43381
2026-01-22 22:00:51.05	100.72	2.48	-47.7	-61.9	3.5	1.52e+00	0	40	104	0	60	43447
2026-01-22 22:00:52.06	100.66	2.54	-47.7	-62.0	3.5	1.52e+00	0	40	104	0	60	44106
2026-01-22 22:00:53.07	100.59	2.60	-47.7	-62.1	3.5	1.52e+00	0	41	104	0	60	44557
2026-01-22 22:00:54.08	100.53	2.66	-47.7	-62.1	3.5	1.52e+00	0	41	104	0	60	44455
2026-01-22 22:00:55.09	100.47	2.72	-47.8	-62.0	3.5	1.52e+00	0	41	104	0	60	44421
2026-01-22 22:00:56.10	100.41	2.78	-47.7	-62.1	3.5	1.52e+00	0	41	104	0	60	44587
2026-01-22 22:00:57.11	100.35	2.84	-47.8	-62.0	3.5	1.52e+00	0	41	104	0	60	44303
2026-01-22 22:00:58.12	100.28	2.90	-47.6	-61.7	3.5	1.52e+00	0	41	104	0	60	42915
2026-01-22 22:00:59.13	100.22	2.96	-47.7	-61.3	3.5	1.52e+00	0	41	104	0	60	40979
2026-01-22 22:01:00.14	100.16	3.02	-47.6	-61.2	3.5	1.52e+00	0	41	104	0	60	40369
2026-01-22 22:01:01.14	100.09	3.08	-47.7	-61.2	3.5	1.51e+00	0	41	104	0	60	40125
2026-01-22 22:01:02.16	100.03	3.14	-47.6	-61.6	3.5	1.51e+00	0	41	104	0	60	42371
2026-01-22 22:01:03.17	99.96	3.20	-47.6	-60.9	3.5	1.51e+00	0	41	104	0	60	38953
2026-01-22 22:01:04.17	99.90	3.26	-47.3	-57.8	4.5	1.43e+00	122	41	104	0	60	27112
2026-01-22 22:01:05.18	99.84	3.32	-46.6	-52.8	8.1	1.43e-01	122	41	0	0	60	15294
2026-01-22 22:01:06.19	99.77	3.38	-46.0	-51.0	9.3	7.02e-03	120	41	0	3145728	60	12433
2026-01-22 22:01:07.20	99.71	3.44	-49.7	-62.5	3.5	1.52e+00	0	41	104	3145728	60	46919
2026-01-22 22:01:08.21	99.64	3.50	-47.8	-61.5	3.5	1.52e+00	0	41	104	3145728	60	41855
2026-01-22 22:01:09.22	99.57	3.57	-42.4	-44.7	16.7	0.00e+00	122	41	0	3145728	60	6014
2026-01-22 22:01:10.23	99.51	3.63	-40.2	-41.6	19.0	0.00e+00	123	41	0	6291456	54	5948
2026-01-22 22:01:11.24	99.44	3.69	-47.3	-60.7	3.5	1.51e+00	0	41	104	7340032	60	38074
2026-01-22 22:01:12.25	99.37	3.75	-42.3	-44.9	16.3	0.00e+00	120	41	104	7340032	58	6892
2026-01-22 22:01:13.26	99.31	3.81	-42.0	-44.2	17.0	0.00e+00	123	41	0	9437184	58	6365
2026-01-22 22:01:14.27	99.24	3.87	-42.1	-44.4	16.9	0.00e+00	123	41	0	12582912	58	6509
2026-01-22 22:01:15.28	99.17	3.93	-42.3	-44.5	16.8	0.00e+00	123	41	0	15728640	58	6625
2026-01-22 22:01:16.29	99.10	4.00	-42.7	-44.9	16.3	0.00e+00	121	41	0	18874368	58	6885
2026-01-22 22:01:17.30	99.04	4.06	-42.7	-44.7	16.5	0.00e+00	123	41	0	22020096	58	6754
2026-01-22 22:01:18.31	98.97	4.12	-43.0	-45.1	15.9	0.00e+00	123	41	0	25165824	58	7113
2026-01-22 22:01:19.31	98.90	4.18	-43.5	-45.8	15.0	0.00e+00	120	41	0	28311552	58	7689
2026-01-22 22:01:20.33	98.83	4.24	-42.7	-44.8	16.7	0.00e+00	118	41	0	31457280	58	6807
2026-01-22 22:01:21.34	98.76	4.31	-42.7	-44.7	16.9	0.00e+00	121	41	0	34603008	58	6787
2026-01-22 22:01:22.34	98.69	4.37	-42.3	-44.2	17.5	0.00e+00	123	41	0	37748736	58	6354
2026-01-22 22:01:23.35	98.62	4.43	-41.3	-42.9	18.6	0.00e+00	123	41	0	40894464	56	6140
2026-01-22 22:01:24.36	98.55	4.49	-40.7	-42.0	19.5	0.00e+00	122	41	0	44040192	54	6264
2026-01-22 22:01:25.37	98.48	4.55	-40.8	-42.2	19.4	0.00e+00	121	41	0	47185920	54	6362
2026-01-22 22:01:26.38	98.41	4.62	-40.1	-41.3	20.0	0.00e+00	123	41	0	50331648	54	5789
2026-01-22 22:01:27.39	98.34	4.68	-40.3	-41.6	19.8	0.00e+00	123	41	0	53477376	54	5952
2026-01-22 22:01:28.40	98.27	4.74	-40.1	-41.4	20.0	0.00e+00	123	41	0	56623104	54	5818
2026-01-22 22:01:29.41	98.19	4.81	-40.3	-41.5	20.0	0.00e+00	120	41	0	59768832	54	5890
2026-01-22 22:01:30.42	98.12	4.87	-39.6	-40.8	20.5	0.00e+00	122	41	0	62914560	52	6102
2026-01-22 22:01:31.43	98.05	4.93	-40.2	-41.4	20.3	0.00e+00	123	41	0	66060288	52	6513
2026-01-22 22:01:32.44	97.98	5.00	-40.3	-41.5	20.2	0.00e+00	123	41	0	69206016	52	6587
2026-01-22 22:01:33.45	97.90	5.06	-40.3	-41.5	20.1	0.00e+00	123	41	0	72351744	52	6599
2026-01-22 22:01:34.46	97.83	5.12	-40.2	-41.4	20.1	0.00e+00	122	41	0	75497472	52	6564
2026-01-22 22:01:35.47	97.76	5.19	-39.9	-41.1	20.3	0.00e+00	121	41	0	78643200	52	6325
2026-01-22 22:01:36.48	97.68	5.25	-39.8	-41.0	20.4	0.00e+00	120	41	0	81788928	52	6256
2026-01-22 22:01:37.49	97.61	5.31	-39.8	-41.0	20.4	0.00e+00	123	41	0	84934656	52	6267
2026-01-22 22:01:38.50	97.53	5.38	-39.8	-40.9	20.4	0.00e+00	122	41	0	88080384	52	6202
2026-01-22 22:01:39.51	97.46	5.44	-39.8	-41.0	20.3	0.00e+00	123	41	0	91226112	52	6248
2026-01-22 22:01:40.52	97.38	5.51	-39.8	-41.0	20.2	0.00e+00	122	41	0	94371840	52	6245
2026-01-22 22:01:41.53	97.31	5.57	-39.9	-41.2	20.0	0.00e+00	120	41	0	97517568	52	6361
2026-01-22 22:01:42.54	97.23	5.64	-39.9	-41.2	20.1	0.00e+00	122	41	0	100663296	52	6351
2026-01-22 22:01:43.55	97.15	5.70	-39.9	-41.1	20.2	0.00e+00	121	41	0	103809024	52	6298
2026-01-22 22:01:44.56	97.08	5.76	-39.6	-40.8	20.5	0.00e+00	123	41	0	106954752	52	6092
2026-01-22 22:01:45.57	97.00	5.83	-40.0	-41.2	20.3	0.00e+00	123	41	0	110100480	52	6399
2026-01-22 22:01:46.58	96.92	5.89	-40.0	-41.2	20.4	0.00e+00	123	41	0	113246208	52	6398
2026-01-22 22:01:47.59	96.84	5.96	-40.3	-41.5	20.2	0.00e+00	122	41	0	116391936	52	6623
2026-01-22 22:01:48.60	96.76	6.02	-40.3	-41.5	20.2	0.00e+00	123	41	0	119537664	52	6642
2026-01-22 22:01:49.61	96.68	6.09	-40.2	-41.4	20.4	0.00e+00	122	41	0	122683392	52	6513
2026-01-22 22:01:50.62	96.61	6.16	-40.2	-41.4	20.4	0.00e+00	120	41	0	125829120	52	6529
2026-01-22 22:01:51.63	96.53	6.22	-39.8	-41.0	20.6	0.00e+00	123	41	0	128974848	52	6250
2026-01-22 22:01:52.64	96.45	6.29	-39.8	-41.0	20.8	0.00e+00	121	41	0	132120576	52	6212
2026-01-22 22:01:53.65	96.37	6.35	-39.8	-41.0	20.7	0.00e+00	122	41	0	135266304	52	6250
2026-01-22 22:01:54.66	96.28	6.42	-40.0	-41.1	20.7	0.00e+00	123	41	0	138412032	52	6350
2026-01-22 22:01:55.67	96.20	6.48	-39.7	-40.8	20.9	0.00e+00	118	41	0	141557760	52	6111
2026-01-22 22:01:56.68	96.12	6.55	-39.7	-40.8	20.9	0.00e+00	122	41	0	144703488	52	6128
2026-01-22 22:01:57.69	96.04	6.62	-39.5	-40.6	21.0	0.00e+00	123	41	0	147849216	52	5957
2026-01-22 22:01:58.70	95.96	6.68	-39.4	-40.5	21.2	0.00e+00	121	41	0	150994944	52	5893
2026-01-22 22:01:59.70	95.88	6.75	-39.5	-40.6	21.1	0.00e+00	122	41	0	154140672	52	5947
2026-01-22 22:02:00.71	95.79	6.81	-39.6	-40.7	21.1	0.00e+00	122	41	0	157286400	52	6039
2026-01-22 22:02:01.72	95.71	6.88	-39.5	-40.6	21.2	0.00e+00	120	41	0	160432128	52	5992
2026-01-22 22:02:02.73	95.63	6.95	-39.5	-40.6	21.1	0.00e+00	123	41	0	163577856	52	5979
2026-01-22 22:02:03.74	95.54	7.01	-39.3	-40.4	21.3	0.00e+00	123	41	0	166723584	52	5846
2026-01-22 22:02:04.75	95.46	7.08	-39.1	-40.2	21.6	0.00e+00	122	41	0	169869312	52	5700
2026-01-22 22:02:05.76	95.37	7.15	-39.1	-40.2	21.4	0.00e+00	122	41	0	173015040	52	5714
2026-01-22 22:02:06.77	95.29	7.22	-39.3	-40.4	21.3	0.00e+00	120	41	0	176160768	52	5858
2026-01-22 22:02:07.78	95.20	7.28	-39.3	-40.4	21.4	0.00e+00	122	41	0	179306496	52	5819
2026-01-22 22:02:08.79	95.12	7.35	-39.1	-40.2	21.5	0.00e+00	123	41	0	182452224	52	5675
2026-01-22 22:02:09.80	95.03	7.42	-39.2	-40.3	21.5	0.00e+00	123	41	0	185597952	52	5750
2026-01-22 22:02:10.81	94.94	7.48	-39.1	-40.2	21.5	0.00e+00	122	41	0	188743680	52	5709
2026-01-22 22:02:11.82	94.85	7.55	-39.2	-40.2	21.5	0.00e+00	123	41	0	191889408	52	5717
2026-01-22 22:02:12.83	94.77	7.62	-39.2	-40.3	21.4	0.00e+00	123	41	0	195035136	52	5771
2026-01-22 22:02:13.84	94.68	7.69	-38.9	-39.9	21.7	0.00e+00	123	41	0	198180864	52	5524
2026-01-22 22:02:14.85	94.59	7.76	-38.9	-40.0	21.7	0.00e+00	122	41	0	201326592	52	5548
2026-01-22 22:02:15.86	94.50	7.82	-39.1	-40.2	21.4	0.00e+00	123	41	0	204472320	52	5716
2026-01-22 22:02:16.87	94.41	7.89	-39.0	-40.1	21.4	0.00e+00	122	41	0	207618048	52	5601
2026-01-22 22:02:17.88	94.32	7.96	-39.0	-40.1	21.6	0.00e+00	122	41	0	210763776	52	5651
2026-01-22 22:02:18.89	94.23	8.03	-39.0	-40.1	21.7	0.00e+00	120	41	0	213909504	52	5613
2026-01-22 22:02:19.90	94.14	8.10	-38.6	-39.6	22.0	0.00e+00	122	41	0	217055232	50	5959
2026-01-22 22:02:20.91	94.05	8.17	-38.5	-39.6	22.0	0.00e+00	120	41	0	220200960	50	5941
2026-01-22 22:02:21.92	93.96	8.24	-38.7	-39.8	21.7	0.00e+00	122	41	0	223346688	50	6099
2026-01-22 22:02:22.92	93.86	8.30	-38.5	-39.6	21.9	0.00e+00	122	41	0	226492416	50	5949
2026-01-22 22:02:23.93	93.77	8.37	-38.6	-39.7	21.9	0.00e+00	123	41	0	229638144	50	6004
2026-01-22 22:02:24.94	93.68	8.44	-38.8	-39.8	21.9	0.00e+00	122	41	0	232783872	50	6132
2026-01-22 22:02:25.95	93.59	8.51	-38.5	-39.5	22.2	0.00e+00	121	41	0	235929600	50	5891
2026-01-22 22:02:26.96	93.49	8.58	-38.6	-39.6	22.1	0.00e+00	123	41	0	239075328	50	5947
2026-01-22 22:02:27.97	93.40	8.65	-38.6	-39.6	22.1	0.00e+00	122	41	0	242221056	50	5941
2026-01-22 22:02:28.98	93.30	8.72	-38.4	-39.5	22.2	0.00e+00	123	41	0	245366784	50	5860
2026-01-22 22:02:29.99	93.21	8.79	-38.7	-39.7	22.0	0.00e+00	123	41	0	248512512	50	6036
2026-01-22 22:02:31.00	93.11	8.86	-38.5	-39.5	22.1	0.00e+00	122	41	0	251658240	50	5885
2026-01-22 22:02:32.01	93.01	8.93	-38.4	-39.5	22.1	0.00e+00	120	41	0	254803968	50	5865
2026-01-22 22:02:33.02	92.92	9.00	-38.4	-39.4	22.2	0.00e+00	123	41	0	257949696	50	5846
2026-01-22 22:02:34.03	92.82	9.07	-38.0	-39.0	22.6	0.00e+00	123	41	0	261095424	50	5573
2026-01-22 22:02:35.04	92.72	9.14	-38.1	-39.1	22.5	0.00e+00	122	41	0	264241152	50	5631
2026-01-22 22:02:36.05	92.62	9.21	-38.4	-39.4	22.3	0.00e+00	122	41	0	267386880	50	5836
2026-01-22 22:02:37.06	92.53	9.28	-38.2	-39.2	22.5	0.00e+00	120	41	0	270532608	50	5690
2026-01-22 22:02:38.07	92.43	9.35	-37.8	-38.8	22.8	0.00e+00	122	41	0	273678336	50	5457
2026-01-22 22:02:39.08	92.33	9.42	-37.9	-38.9	22.7	0.00e+00	127	41	0	276824064	50	5507
2026-01-22 22:02:40.09	92.23	9.49	-38.1	-39.1	22.6	0.00e+00	123	41	0	279969792	50	5607
2026-01-22 22:02:41.10	92.13	9.57	-37.9	-38.9	22.8	0.00e+00	122	41	0	283115520	50	5490
2026-01-22 22:02:42.11	92.02	9.64	-38.1	-39.1	22.6	0.00e+00	120	41	0	286261248	50	5629
2026-01-22 22:02:43.12	91.92	9.71	-38.2	-39.2	22.5	0.00e+00	123	41	0	289406976	50	5710
2026-01-22 22:02:44.13	91.82	9.78	-38.0	-39.0	22.7	0.00e+00	120	41	0	292552704	50	5582
2026-01-22 22:02:45.14	91.72	9.85	-38.1	-39.2	22.6	0.00e+00	122	41	0	295698432	50	5660
2026-01-22 22:02:46.15	91.61	9.92	-37.8	-38.8	23.0	0.00e+00	123	41	0	298844160	50	5408
2026-01-22 22:02:47.16	91.51	9.99	-37.9	-38.9	22.9	0.00e+00	122	41	0	303038464	50	5481
2026-01-22 22:02:48.17	91.41	10.07	-37.9	-38.9	22.8	0.00e+00	123	41	0	306184192	50	5516
2026-01-22 22:02:49.18	91.30	10.14	-37.7	-38.7	23.0	0.00e+00	123	41	0	308281344	48	6031
2026-01-22 22:02:50.19	91.19	10.21	-37.6	-38.6	23.0	0.00e+00	120	41	0	311427072	48	5965
2026-01-22 22:02:51.20	91.09	10.28	-37.8	-38.8	22.9	0.00e+00	123	41	0	314572800	48	6096
2026-01-22 22:02:52.20	90.98	10.35	-37.9	-38.9	22.8	0.00e+00	122	41	0	317718528	48	6194
2026-01-22 22:02:53.21	90.88	10.43	-37.7	-38.7	23.1	0.00e+00	122	41	0	321912832	48	6008
2026-01-22 22:02:54.22	90.77	10.50	-38.0	-38.9	22.8	0.00e+00	122	41	0	325058560	48	6192
2026-01-22 22:02:55.23	90.66	10.57	-37.7	-38.6	23.0	0.00e+00	123	41	0	328204288	48	5971
2026-01-22 22:02:56.24	90.55	10.65	-37.8	-38.8	23.0	0.00e+00	123	41	0	330301440	48	6108
2026-01-22 22:02:57.26	90.44	10.72	-37.4	-38.3	23.3	0.00e+00	122	41	0	333447168	48	5770
2026-01-22 22:02:58.27	90.33	10.79	-37.3	-38.2	23.3	0.00e+00	123	41	0	337641472	48	5723
2026-01-22 22:02:59.28	90.22	10.87	-37.4	-38.3	23.3	0.00e+00	122	41	0	340787200	48	5772
2026-01-22 22:03:00.29	90.11	10.94	-37.4	-38.3	23.3	0.00e+00	120	41	0	343932928	48	5782
2026-01-22 22:03:01.30	90.00	11.01	-37.5	-38.5	23.1	0.00e+00	120	41	0	347078656	48	5880
2026-01-22 22:03:02.31	89.89	11.09	-37.4	-38.3	23.3	0.00e+00	123	41	0	350224384	48	5764
2026-01-22 22:03:03.32	89.77	11.16	-37.7	-38.6	23.0	0.00e+00	120	41	0	353370112	48	5992
2026-01-22 22:03:04.32	89.66	11.23	-37.3	-38.3	23.3	0.00e+00	122	41	0	356515840	48	5754
2026-01-22 22:03:05.33	89.55	11.31	-37.3	-38.2	23.4	0.00e+00	123	41	0	359661568	48	5709
2026-01-22 22:03:06.34	89.43	11.38	-37.4	-38.4	23.3	0.00e+00	124	41	0	362807296	48	5800
2026-01-22 22:03:07.35	89.32	11.45	-37.3	-38.2	23.5	0.00e+00	122	41	0	365953024	48	5701
2026-01-22 22:03:08.36	89.20	11.53	-37.3	-38.2	23.5	0.00e+00	123	41	0	369098752	48	5702
2026-01-22 22:03:09.37	89.09	11.60	-37.2	-38.1	23.5	0.00e+00	123	41	0	372244480	48	5642
2026-01-22 22:03:10.38	88.97	11.68	-37.2	-38.1	23.5	0.00e+00	120	41	0	375390208	48	5648
2026-01-22 22:03:11.39	88.85	11.75	-37.3	-38.2	23.4	0.00e+00	128	42	0	378535936	48	5724
2026-01-22 22:03:12.40	88.74	11.83	-37.4	-38.4	23.3	0.00e+00	120	41	0	381681664	48	5800
2026-01-22 22:03:13.41	88.62	11.90	-37.1	-38.1	23.5	0.00e+00	122	41	0	384827392	48	5639
2026-01-22 22:03:14.42	88.50	11.97	-37.3	-38.3	23.3	0.00e+00	121	41	0	387973120	48	5783
2026-01-22 22:03:15.43	88.38	12.05	-37.3	-38.3	23.4	0.00e+00	122	41	0	391118848	48	5727
2026-01-22 22:03:16.44	88.26	12.12	-37.2	-38.2	23.4	0.00e+00	120	41	0	394264576	48	5698
2026-01-22 22:03:17.44	88.14	12.20	-37.4	-38.3	23.2	0.00e+00	123	41	0	397410304	48	5780
2026-01-22 22:03:18.45	88.02	12.27	-37.3	-38.2	23.3	0.00e+00	122	41	0	400556032	48	5725
2026-01-22 22:03:19.46	87.89	12.35	-37.3	-38.3	23.3	0.00e+00	122	41	0	403701760	48	5774
2026-01-22 22:03:20.47	87.77	12.42	-37.3	-38.3	23.4	0.00e+00	123	41	0	406847488	48	5735
2026-01-22 22:03:21.48	87.65	12.50	-37.3	-38.2	23.5	0.00e+00	123	41	0	409993216	48	5705
2026-01-22 22:03:22.49	87.52	12.58	-37.3	-38.3	23.5	0.00e+00	123	41	0	413138944	48	5727
2026-01-22 22:03:23.50	87.40	12.65	-37.4	-38.4	23.4	0.00e+00	120	41	0	416284672	48	5823
2026-01-22 22:03:24.51	87.27	12.73	-37.0	-37.9	23.7	0.00e+00	122	41	0	419430400	48	5504
2026-01-22 22:03:25.52	87.14	12.80	-37.1	-38.1	23.6	0.00e+00	124	42	0	422576128	48	5610
2026-01-22 22:03:26.53	87.02	12.88	-37.2	-38.1	23.5	0.00e+00	120	41	0	425721856	48	5625
2026-01-22 22:03:27.54	86.89	12.96	-37.1	-38.1	23.5	0.00e+00	122	42	0	428867584	48	5607
2026-01-22 22:03:28.54	86.76	13.03	-37.1	-38.1	23.6	0.00e+00	120	41	0	432013312	48	5597
2026-01-22 22:03:29.55	86.63	13.11	-37.2	-38.1	23.5	0.00e+00	122	42	0	435159040	48	5655
2026-01-22 22:03:30.56	86.50	13.18	-37.3	-38.3	23.4	0.00e+00	123	41	0	438304768	48	5748
2026-01-22 22:03:31.57	86.37	13.26	-37.3	-38.3	23.3	0.00e+00	120	41	0	441450496	48	5736
2026-01-22 22:03:32.58	86.24	13.34	-37.2	-38.1	23.4	0.00e+00	122	41	0	444596224	48	5655
2026-01-22 22:03:33.59	86.11	13.41	-37.2	-38.2	23.4	0.00e+00	122	41	0	447741952	48	5702
2026-01-22 22:03:34.60	85.98	13.49	-37.4	-38.3	23.3	0.00e+00	120	42	0	450887680	48	5777
2026-01-22 22:03:35.61	85.85	13.57	-37.2	-38.2	23.5	0.00e+00	123	42	0	454033408	48	5677
2026-01-22 22:03:36.61	85.71	13.64	-37.4	-38.4	23.4	0.00e+00	123	42	0	457179136	48	5807
2026-01-22 22:03:37.62	85.58	13.72	-37.3	-38.3	23.5	0.00e+00	123	41	0	460324864	48	5735
2026-01-22 22:03:38.63	85.44	13.80	-37.1	-38.0	23.7	0.00e+00	123	41	0	463470592	48	5564
2026-01-22 22:03:39.64	85.31	13.87	-37.3	-38.2	23.6	0.00e+00	120	42	0	466616320	48	5703
2026-01-22 22:03:40.65	85.17	13.95	-37.1	-38.0	23.7	0.00e+00	123	41	0	469762048	48	5577
2026-01-22 22:03:41.66	85.03	14.03	-37.1	-38.0	23.7	0.00e+00	123	42	0	472907776	48	5575
2026-01-22 22:03:42.67	84.90	14.11	-37.0	-37.9	23.7	0.00e+00	123	41	0	476053504	48	5525
2026-01-22 22:03:43.68	84.76	14.18	-37.0	-37.9	23.7	0.00e+00	122	42	0	479199232	48	5525
2026-01-22 22:03:44.69	84.62	14.26	-37.0	-38.0	23.7	0.00e+00	122	42	0	482344960	48	5551
2026-01-22 22:03:45.70	84.48	14.34	-37.0	-38.0	23.6	0.00e+00	120	42	0	485490688	48	5547
2026-01-22 22:03:46.71	84.34	14.42	-37.1	-38.1	23.6	0.00e+00	123	41	0	488636416	48	5628
2026-01-22 22:03:47.72	84.19	14.49	-37.1	-38.0	23.6	0.00e+00	122	42	0	491782144	48	5559
2026-01-22 22:03:48.73	84.05	14.57	-37.1	-38.1	23.6	0.00e+00	123	41	0	494927872	48	5603
2026-01-22 22:03:49.74	83.91	14.65	-37.2	-38.1	23.6	0.00e+00	123	42	0	498073600	48	5641
2026-01-22 22:03:50.74	83.77	14.73	-37.2	-38.2	23.6	0.00e+00	123	42	0	501219328	48	5673
2026-01-22 22:03:51.75	83.62	14.81	-37.3	-38.2	23.5	0.00e+00	120	42	0	504365056	48	5700
2026-01-22 22:03:52.76	83.48	14.88	-37.3	-38.3	23.4	0.00e+00	123	42	0	507510784	48	5745
2026-01-22 22:03:53.77	83.33	14.96	-37.1	-38.1	23.6	0.00e+00	122	41	0	510656512	48	5598
2026-01-22 22:03:54.78	83.18	15.04	-37.0	-37.9	23.7	0.00e+00	120	42	0	513802240	48	5527
2026-01-22 22:03:55.79	83.03	15.12	-37.2	-38.1	23.6	0.00e+00	122	41	0	516947968	48	5616
2026-01-22 22:03:56.80	82.88	15.20	-37.3	-38.2	23.5	0.00e+00	123	41	0	520093696	48	5689
2026-01-22 22:03:57.81	82.74	15.27	-37.3	-38.2	23.4	0.00e+00	123	42	0	523239424	48	5711
2026-01-22 22:03:58.82	82.58	15.35	-37.5	-38.4	23.2	0.00e+00	122	42	0	526385152	48	5844
2026-01-22 22:03:59.83	82.43	15.43	-37.4	-38.4	23.2	0.00e+00	122	42	0	529530880	48	5831
2026-01-22 22:04:00.84	82.28	15.51	-37.6	-38.6	23.2	0.00e+00	123	42	0	532676608	48	5936
2026-01-22 22:04:01.85	82.13	15.59	-37.6	-38.5	23.1	0.00e+00	123	41	0	535822336	48	5915
2026-01-22 22:04:02.86	81.98	15.67	-37.7	-38.7	23.1	0.00e+00	118	42	0	538968064	48	5999
2026-01-22 22:04:03.87	81.82	15.75	-37.8	-38.8	23.1	0.00e+00	123	42	0	542113792	48	6067
2026-01-22 22:04:04.88	81.67	15.82	-37.9	-38.9	23.0	0.00e+00	123	42	0	545259520	48	6203
2026-01-22 22:04:05.88	81.51	15.90	-37.7	-38.7	23.2	0.00e+00	121	42	0	548405248	48	6027
2026-01-22 22:04:06.89	81.35	15.98	-37.7	-38.7	23.2	0.00e+00	123	41	0	551550976	48	6048
2026-01-22 22:04:07.90	81.20	16.06	-37.6	-38.5	23.3	0.00e+00	123	41	0	554696704	48	5921
2026-01-22 22:04:08.91	81.04	16.14	-37.6	-38.6	23.4	0.00e+00	123	42	0	557842432	48	5946
2026-01-22 22:04:09.92	80.88	16.22	-37.6	-38.6	23.3	0.00e+00	122	42	0	560988160	48	5935
2026-01-22 22:04:10.93	80.72	16.30	-37.6	-38.6	23.1	0.00e+00	122	42	0	564133888	48	5958
2026-01-22 22:04:11.94	80.56	16.38	-37.6	-38.6	23.2	0.00e+00	123	42	0	567279616	48	5959
2026-01-22 22:04:12.95	80.39	16.45	-37.8	-38.8	23.1	0.00e+00	123	42	0	570425344	48	6077
2026-01-22 22:04:13.96	80.23	16.53	-37.7	-38.6	23.3	0.00e+00	123	41	0	573571072	48	5967
2026-01-22 22:04:14.97	80.07	16.61	-37.8	-38.8	23.1	0.00e+00	123	42	0	576716800	48	6103
2026-01-22 22:04:15.98	79.90	16.69	-37.7	-38.6	23.3	0.00e+00	122	42	0	579862528	48	5973
2026-01-22 22:04:16.99	79.74	16.77	-37.4	-38.4	23.4	0.00e+00	121	42	0	583008256	48	5829
2026-01-22 22:04:18.00	79.57	16.85	-37.7	-38.6	23.2	0.00e+00	123	41	0	586153984	48	5992
2026-01-22 22:04:19.01	79.40	16.93	-37.7	-38.7	23.1	0.00e+00	122	42	0	589299712	48	6015
2026-01-22 22:04:20.02	79.24	17.01	-37.6	-38.5	23.4	0.00e+00	123	42	0	592445440	48	5911
2026-01-22 22:04:21.03	79.07	17.09	-37.5	-38.5	23.4	0.00e+00	123	42	0	595591168	48	5865
2026-01-22 22:04:22.04	78.90	17.17	-37.6	-38.6	23.3	0.00e+00	122	42	0	598736896	48	5942
2026-01-22 22:04:23.05	78.73	17.24	-37.5	-38.4	23.4	0.00e+00	120	42	0	601882624	48	5852
2026-01-22 22:04:24.06	78.55	17.32	-37.6	-38.6	23.2	0.00e+00	122	42	0	605028352	48	5972
2026-01-22 22:04:25.07	78.38	17.40	-37.5	-38.5	23.3	0.00e+00	123	42	0	608174080	48	5886
2026-01-22 22:04:26.08	78.21	17.48	-37.5	-38.4	23.4	0.00e+00	122	41	0	611319808	48	5851
2026-01-22 22:04:27.09	78.03	17.56	-37.4	-38.3	23.5	0.00e+00	121	42	0	614465536	48	5764
2026-01-22 22:04:28.10	77.86	17.64	-37.3	-38.2	23.6	0.00e+00	123	42	0	617611264	48	5690
2026-01-22 22:04:29.11	77.68	17.72	-37.2	-38.1	23.6	0.00e+00	121	42	0	620756992	48	5627
2026-01-22 22:04:30.12	77.50	17.80	-37.0	-37.9	23.7	0.00e+00	123	42	0	623902720	48	5519
2026-01-22 22:04:31.13	77.33	17.88	-37.1	-38.1	23.7	0.00e+00	123	41	0	627048448	48	5601
2026-01-22 22:04:32.14	77.15	17.95	-37.0	-37.9	23.8	0.00e+00	123	42	0	630194176	48	5509
2026-01-22 22:04:33.15	76.97	18.03	-36.9	-37.8	23.9	0.00e+00	122	42	0	633339904	48	5461
2026-01-22 22:04:34.15	76.79	18.11	-36.9	-37.8	23.9	0.00e+00	122	42	0	636485632	48	5461
2026-01-22 22:04:35.16	76.61	18.19	-36.8	-37.7	23.9	0.00e+00	123	41	0	639631360	48	5377
2026-01-22 22:04:36.17	76.42	18.27	-36.8	-37.8	24.0	0.00e+00	122	42	0	642777088	48	5408
2026-01-22 22:04:37.18	76.24	18.35	-36.8	-37.7	24.0	0.00e+00	123	42	0	645922816	46	6007
2026-01-22 22:04:38.20	76.05	18.43	-36.8	-37.7	23.9	0.00e+00	123	42	0	649068544	46	6049
2026-01-22 22:04:39.21	75.87	18.50	-36.7	-37.6	24.0	0.00e+00	122	42	0	652214272	46	5967
2026-01-22 22:04:40.22	75.68	18.58	-36.7	-37.7	24.0	0.00e+00	123	42	0	655360000	46	5995
2026-01-22 22:04:41.23	75.49	18.66	-36.7	-37.6	24.0	0.00e+00	123	42	0	658505728	46	5942
2026-01-22 22:04:42.24	75.30	18.74	-36.9	-37.8	23.8	0.00e+00	123	42	0	661651456	46	6078
2026-01-22 22:04:43.25	75.11	18.82	-36.9	-37.8	23.8	0.00e+00	123	42	0	664797184	46	6111
2026-01-22 22:04:44.26	74.92	18.90	-37.0	-37.9	23.7	0.00e+00	123	42	0	667942912	46	6175
2026-01-22 22:04:45.26	74.73	18.97	-37.0	-38.0	23.8	0.00e+00	123	42	0	671088640	46	6219
2026-01-22 22:04:46.28	74.54	19.05	-37.0	-38.0	23.7	0.00e+00	123	42	0	674234368	46	6217
2026-01-22 22:04:47.28	74.35	19.13	-36.9	-37.8	23.9	0.00e+00	123	42	0	677380096	46	6124
2026-01-22 22:04:48.29	74.15	19.21	-36.8	-37.7	24.0	0.00e+00	123	42	0	680525824	46	6033
2026-01-22 22:04:49.30	73.96	19.28	-36.8	-37.7	23.9	0.00e+00	120	42	0	683671552	46	6039
2026-01-22 22:04:50.31	73.76	19.36	-36.6	-37.5	24.2	0.00e+00	123	41	0	687865856	46	5893
2026-01-22 22:04:51.32	73.56	19.44	-36.6	-37.5	24.2	0.00e+00	120	42	0	691011584	46	5877
2026-01-22 22:04:52.33	73.36	19.52	-36.8	-37.7	24.1	0.00e+00	121	42	0	694157312	46	6007
2026-01-22 22:04:53.34	73.16	19.59	-36.6	-37.5	24.2	0.00e+00	122	42	0	696254464	46	5863
2026-01-22 22:04:54.35	72.96	19.67	-36.7	-37.6	24.2	0.00e+00	123	42	0	699400192	46	5957
2026-01-22 22:04:55.36	72.76	19.75	-36.7	-37.6	24.1	0.00e+00	122	42	0	703594496	46	5991
2026-01-22 22:04:56.37	72.56	19.82	-36.8	-37.7	24.0	0.00e+00	120	42	0	706740224	46	6034
2026-01-22 22:04:57.38	72.35	19.90	-36.8	-37.7	24.0	0.00e+00	122	42	0	709885952	46	6037
2026-01-22 22:04:58.39	72.15	19.98	-36.5	-37.4	24.3	0.00e+00	122	42	0	713031680	46	5827
2026-01-22 22:04:59.40	71.94	20.05	-36.3	-37.2	24.4	0.00e+00	123	42	0	716177408	46	5673
2026-01-22 22:05:00.41	71.74	20.13	-36.2	-37.1	24.4	0.00e+00	123	42	0	719323136	46	5630
2026-01-22 22:05:01.42	71.53	20.20	-36.3	-37.2	24.2	0.00e+00	123	42	0	722468864	46	5688
2026-01-22 22:05:02.43	71.32	20.28	-36.2	-37.1	24.2	0.00e+00	123	42	0	725614592	46	5649
2026-01-22 22:05:03.43	71.11	20.35	-36.4	-37.3	24.2	0.00e+00	123	42	0	728760320	46	5748
2026-01-22 22:05:04.44	70.90	20.43	-36.5	-37.5	24.2	0.00e+00	120	42	0	731906048	46	5868
2026-01-22 22:05:05.46	70.68	20.51	-36.4	-37.4	24.3	0.00e+00	127	42	0	735051776	46	5792
2026-01-22 22:05:06.46	70.47	20.58	-36.4	-37.3	24.3	0.00e+00	122	42	0	738197504	46	5749
2026-01-22 22:05:07.47	70.26	20.65	-36.3	-37.2	24.3	0.00e+00	120	42	0	741343232	46	5695
2026-01-22 22:05:08.49	70.04	20.73	-36.4	-37.3	24.3	0.00e+00	122	42	0	744488960	46	5732
2026-01-22 22:05:09.50	69.83	20.80	-36.3	-37.2	24.4	0.00e+00	120	42	0	747634688	46	5710
2026-01-22 22:05:10.51	69.61	20.88	-36.2	-37.1	24.4	0.00e+00	122	42	0	750780416	46	5615
2026-01-22 22:05:11.52	69.39	20.95	-36.4	-37.3	24.2	0.00e+00	123	42	0	753926144	46	5761
2026-01-22 22:05:12.53	69.17	21.03	-36.2	-37.1	24.4	0.00e+00	122	42	0	757071872	46	5648
2026-01-22 22:05:13.54	68.95	21.10	-36.5	-37.4	24.3	0.00e+00	123	42	0	760217600	46	5803
2026-01-22 22:05:14.55	68.73	21.17	-36.6	-37.5	24.2	0.00e+00	123	42	0	763363328	46	5918
2026-01-22 22:05:15.55	68.51	21.25	-36.6	-37.5	24.2	0.00e+00	123	42	0	766509056	46	5886
2026-01-22 22:05:16.56	68.28	21.32	-36.5	-37.4	24.3	0.00e+00	123	42	0	769654784	46	5848
2026-01-22 22:05:17.58	68.06	21.39	-36.6	-37.5	24.1	0.00e+00	123	42	0	772800512	46	5915
2026-01-22 22:05:18.59	67.83	21.46	-36.8	-37.7	24.0	0.00e+00	122	42	0	775946240	46	6058
2026-01-22 22:05:19.59	67.61	21.53	-36.7	-37.6	24.1	0.00e+00	123	42	0	779091968	46	5983
2026-01-22 22:05:20.60	67.38	21.61	-36.7	-37.6	24.1	0.00e+00	123	42	0	782237696	46	5950
2026-01-22 22:05:21.61	67.15	21.68	-36.7	-37.6	24.1	0.00e+00	120	42	0	785383424	46	5973
2026-01-22 22:05:22.62	66.92	21.75	-36.7	-37.6	24.1	0.00e+00	124	42	0	788529152	46	5970
2026-01-22 22:05:23.63	66.69	21.82	-36.6	-37.5	24.2	0.00e+00	120	42	0	791674880	46	5885
2026-01-22 22:05:24.64	66.46	21.89	-36.4	-37.3	24.3	0.00e+00	123	42	0	794820608	46	5787
2026-01-22 22:05:25.65	66.22	21.96	-36.6	-37.5	24.3	0.00e+00	123	42	0	797966336	46	5869
2026-01-22 22:05:26.66	65.99	22.03	-36.6	-37.5	24.1	0.00e+00	124	42	0	801112064	46	5892
2026-01-22 22:05:27.67	65.75	22.10	-36.7	-37.6	24.1	0.00e+00	123	42	0	804257792	46	5974
2026-01-22 22:05:28.68	65.52	22.17	-36.9	-37.8	23.9	0.00e+00	122	42	0	807403520	46	6111
2026-01-22 22:05:29.69	65.28	22.24	-36.7	-37.6	24.1	0.00e+00	123	42	0	810549248	46	5970
2026-01-22 22:05:30.70	65.04	22.31	-36.7	-37.6	24.1	0.00e+00	122	42	0	813694976	46	5988
2026-01-22 22:05:31.71	64.80	22.37	-36.6	-37.5	24.2	0.00e+00	122	42	0	816840704	46	5897
2026-01-22 22:05:32.72	64.56	22.44	-36.6	-37.5	24.2	0.00e+00	120	42	0	819986432	46	5926
2026-01-22 22:05:33.73	64.32	22.51	-36.7	-37.6	24.1	0.00e+00	122	42	0	823132160	46	5986
2026-01-22 22:05:34.74	64.08	22.58	-36.6	-37.5	24.2	0.00e+00	123	42	0	826277888	46	5919
2026-01-22 22:05:35.76	63.83	22.64	-36.8	-37.7	24.1	0.00e+00	122	42	0	829423616	46	6056
2026-01-22 22:05:36.77	63.58	22.71	-36.9	-37.8	24.0	0.00e+00	123	42	0	832569344	46	6077
2026-01-22 22:05:37.77	63.34	22.77	-36.7	-37.6	24.2	0.00e+00	122	42	0	835715072	46	5988
2026-01-22 22:05:38.79	63.09	22.84	-36.6	-37.5	24.3	0.00e+00	123	42	0	838860800	46	5898
2026-01-22 22:05:39.80	62.84	22.91	-36.7	-37.6	24.2	0.00e+00	120	42	0	842006528	46	5969
2026-01-22 22:05:40.81	62.59	22.97	-36.7	-37.6	24.2	0.00e+00	122	42	0	845152256	46	5988
2026-01-22 22:05:41.82	62.34	23.03	-36.5	-37.4	24.3	0.00e+00	123	42	0	848297984	46	5824
2026-01-22 22:05:42.83	62.09	23.10	-36.6	-37.5	24.3	0.00e+00	123	42	0	851443712	46	5860
2026-01-22 22:05:43.84	61.84	23.16	-36.7	-37.6	24.1	0.00e+00	123	42	0	854589440	46	5993
2026-01-22 22:05:44.85	61.59	23.22	-36.5	-37.4	24.2	0.00e+00	122	42	0	857735168	46	5827
2026-01-22 22:05:45.86	61.33	23.29	-36.4	-37.3	24.4	0.00e+00	122	42	0	860880896	46	5787
2026-01-22 22:05:46.87	61.08	23.35	-36.3	-37.2	24.3	0.00e+00	120	42	0	864026624	46	5718
2026-01-22 22:05:47.88	60.82	23.41	-36.4	-37.3	24.4	0.00e+00	123	42	0	867172352	46	5759
2026-01-22 22:05:48.88	60.57	23.47	-36.2	-37.1	24.4	0.00e+00	120	42	0	870318080	46	5638
2026-01-22 22:05:49.89	60.31	23.53	-36.2	-37.1	24.4	0.00e+00	122	42	0	873463808	46	5651
2026-01-22 22:05:50.90	60.05	23.59	-36.2	-37.1	24.5	0.00e+00	120	42	0	876609536	46	5632
2026-01-22 22:05:51.91	59.79	23.65	-36.3	-37.1	24.4	0.00e+00	123	42	0	879755264	46	5652
2026-01-22 22:05:52.92	59.53	23.71	-36.3	-37.2	24.4	0.00e+00	123	42	0	882900992	46	5675
2026-01-22 22:05:53.93	59.27	23.77	-36.5	-37.4	24.2	0.00e+00	123	42	0	886046720	46	5805
2026-01-22 22:05:54.94	59.00	23.83	-36.6	-37.5	24.1	0.00e+00	120	42	0	889192448	46	5892
2026-01-22 22:05:55.95	58.74	23.88	-36.6	-37.5	24.1	0.00e+00	122	42	0	892338176	46	5917
2026-01-22 22:05:56.96	58.47	23.94	-36.7	-37.6	24.1	0.00e+00	122	42	0	895483904	46	5961
2026-01-22 22:05:57.97	58.21	24.00	-36.6	-37.5	24.3	0.00e+00	122	42	0	898629632	46	5891
2026-01-22 22:05:58.98	57.94	24.05	-36.7	-37.6	24.2	0.00e+00	123	42	0	901775360	46	5964
2026-01-22 22:06:00.00	57.67	24.11	-36.5	-37.4	24.3	0.00e+00	123	42	0	904921088	46	5819
2026-01-22 22:06:01.00	57.40	24.16	-36.5	-37.4	24.3	0.00e+00	122	42	0	908066816	46	5835
2026-01-22 22:06:02.01	57.13	24.22	-36.5	-37.4	24.4	0.00e+00	123	42	0	911212544	46	5847
2026-01-22 22:06:03.02	56.86	24.27	-36.4	-37.3	24.5	0.00e+00	123	42	0	914358272	46	5730
2026-01-22 22:06:04.03	56.59	24.32	-36.3	-37.2	24.6	0.00e+00	120	42	0	917504000	46	5681
2026-01-22 22:06:05.04	56.32	24.38	-36.3	-37.1	24.6	0.00e+00	123	42	0	920649728	46	5647
2026-01-22 22:06:06.05	56.04	24.43	-36.2	-37.0	24.6	0.00e+00	120	42	0	923795456	46	5586
2026-01-22 22:06:07.06	55.77	24.48	-36.2	-37.1	24.5	0.00e+00	123	42	0	926941184	46	5638
2026-01-22 22:06:08.07	55.49	24.53	-36.1	-36.9	24.5	0.00e+00	123	42	0	930086912	46	5528
2026-01-22 22:06:09.08	55.22	24.58	-36.1	-37.0	24.5	0.00e+00	122	42	0	933232640	46	5567
2026-01-22 22:06:10.09	54.94	24.63	-36.2	-37.1	24.5	0.00e+00	123	42	0	936378368	46	5658
2026-01-22 22:06:11.10	54.66	24.68	-36.2	-37.1	24.6	0.00e+00	123	42	0	939524096	46	5605
2026-01-22 22:06:12.11	54.38	24.72	-36.1	-37.0	24.6	0.00e+00	123	42	0	942669824	46	5535
2026-01-22 22:06:13.12	54.10	24.77	-36.1	-36.9	24.5	0.00e+00	122	42	0	945815552	46	5521
2026-01-22 22:06:14.13	53.82	24.82	-36.2	-37.1	24.4	0.00e+00	123	42	0	948961280	46	5644
2026-01-22 22:06:15.14	53.54	24.86	-36.4	-37.3	24.4	0.00e+00	122	42	0	952107008	46	5774
2026-01-22 22:06:16.15	53.26	24.91	-36.4	-37.3	24.3	0.00e+00	122	42	0	955252736	46	5784
2026-01-22 22:06:17.16	52.98	24.95	-36.4	-37.3	24.3	0.00e+00	123	42	0	958398464	46	5754
2026-01-22 22:06:18.17	52.69	25.00	-36.4	-37.3	24.2	0.00e+00	120	42	0	961544192	46	5731
2026-01-22 22:06:19.18	52.41	25.04	-36.4	-37.2	24.3	0.00e+00	122	42	0	964689920	46	5725
2026-01-22 22:06:20.19	52.12	25.08	-36.3	-37.2	24.4	0.00e+00	123	42	0	967835648	46	5661
2026-01-22 22:06:21.20	51.84	25.12	-36.2	-37.1	24.5	0.00e+00	122	42	0	970981376	46	5614
2026-01-22 22:06:22.21	51.55	25.17	-36.1	-37.0	24.6	0.00e+00	120	42	0	974127104	46	5565
2026-01-22 22:06:23.22	51.26	25.21	-36.0	-36.9	24.7	0.00e+00	122	42	0	977272832	46	5503
2026-01-22 22:06:24.23	50.97	25.25	-35.8	-36.7	24.8	0.00e+00	123	42	0	980418560	46	5361
2026-01-22 22:06:25.24	50.69	25.28	-35.8	-36.7	24.8	0.00e+00	122	42	0	983564288	46	5381
2026-01-22 22:06:26.25	50.40	25.32	-35.8	-36.7	24.7	0.00e+00	122	42	0	986710016	44	6032
2026-01-22 22:06:27.26	50.11	25.36	-35.8	-36.7	24.7	0.00e+00	123	42	0	989855744	44	6050
2026-01-22 22:06:28.28	49.81	25.40	-35.8	-36.7	24.7	0.00e+00	122	42	0	993001472	44	6009
2026-01-22 22:06:29.28	49.52	25.43	-35.9	-36.8	24.6	0.00e+00	120	42	0	996147200	44	6094
2026-01-22 22:06:30.29	49.23	25.47	-36.0	-36.9	24.5	0.00e+00	123	42	0	999292928	44	6201
2026-01-22 22:06:31.30	48.94	25.50	-36.2	-37.1	24.4	0.00e+00	122	42	0	1002438656	44	6315
2026-01-22 22:06:32.31	48.64	25.54	-36.3	-37.2	24.4	0.00e+00	123	42	0	1006632960	44	6379
2026-01-22 22:06:33.32	48.35	25.57	-36.5	-37.4	24.3	0.00e+00	123	42	0	1009778688	44	6548
2026-01-22 22:06:34.33	48.05	25.60	-36.4	-37.3	24.3	0.00e+00	122	42	0	1011875840	44	6429
2026-01-22 22:06:35.34	47.76	25.63	-36.2	-37.1	24.5	0.00e+00	123	42	0	1015021568	44	6282
2026-01-22 22:06:36.35	47.46	25.66	-36.2	-37.1	24.4	0.00e+00	122	42	0	1018167296	44	6290
2026-01-22 22:06:37.36	47.17	25.69	-36.3	-37.2	24.4	0.00e+00	123	42	0	1022361600	44	6388
2026-01-22 22:06:38.37	46.87	25.72	-36.2	-37.1	24.5	0.00e+00	123	42	0	1025507328	44	6310
2026-01-22 22:06:39.38	46.57	25.75	-36.3	-37.2	24.4	0.00e+00	123	42	0	1028653056	44	6393
2026-01-22 22:06:40.39	46.27	25.77	-36.2	-37.1	24.5	0.00e+00	122	42	0	1031798784	44	6338
2026-01-22 22:06:41.40	45.97	25.80	-36.4	-37.3	24.4	0.00e+00	123	42	0	1034944512	44	6465
2026-01-22 22:06:42.41	45.67	25.83	-36.1	-37.0	24.6	0.00e+00	123	42	0	1038090240	44	6247
2026-01-22 22:06:43.42	45.38	25.85	-36.1	-37.0	24.5	0.00e+00	122	42	0	1041235968	44	6249
2026-01-22 22:06:44.43	45.08	25.87	-36.1	-37.0	24.5	0.00e+00	123	42	0	1044381696	44	6244
2026-01-22 22:06:45.44	44.77	25.90	-36.2	-37.1	24.6	0.00e+00	123	42	0	1047527424	44	6281
2026-01-22 22:06:46.45	44.47	25.92	-36.3	-37.2	24.5	0.00e+00	122	42	0	1050673152	44	6372
2026-01-22 22:06:47.46	44.17	25.94	-36.2	-37.1	24.6	0.00e+00	123	42	0	1053818880	44	6287
2026-01-22 22:06:48.48	43.87	25.96	-36.3	-37.2	24.5	0.00e+00	123	42	0	1056964608	44	6351
2026-01-22 22:06:49.48	43.57	25.98	-36.5	-37.4	24.4	0.00e+00	123	42	0	1060110336	44	6501
2026-01-22 22:06:50.49	43.27	26.00	-36.4	-37.4	24.5	0.00e+00	123	42	0	1063256064	44	6503
2026-01-22 22:06:51.50	42.96	26.02	-36.5	-37.4	24.4	0.00e+00	123	42	0	1066401792	44	6561
2026-01-22 22:06:52.51	42.66	26.03	-36.5	-37.4	24.4	0.00e+00	123	42	0	1069547520	44	6543
2026-01-22 22:06:53.52	42.36	26.05	-36.5	-37.4	24.3	0.00e+00	122	42	0	1072693248	44	6524
2026-01-22 22:06:54.53	42.05	26.06	-36.5	-37.4	24.4	0.00e+00	122	42	0	1075838976	44	6545
2026-01-22 22:06:55.54	41.75	26.08	-36.3	-37.2	24.6	0.00e+00	123	42	0	1078984704	44	6353
2026-01-22 22:06:56.55	41.44	26.09	-36.2	-37.1	24.7	0.00e+00	120	42	0	1082130432	44	6289
2026-01-22 22:06:57.56	41.14	26.10	-35.9	-36.8	24.8	0.00e+00	122	42	0	1085276160	44	6111
2026-01-22 22:06:58.57	40.83	26.12	-36.1	-37.0	24.7	0.00e+00	123	42	0	1088421888	44	6212
2026-01-22 22:06:59.58	40.53	26.13	-36.2	-37.1	24.6	0.00e+00	123	42	0	1091567616	44	6284
2026-01-22 22:07:00.59	40.22	26.14	-36.2	-37.1	24.5	0.00e+00	123	42	0	1094713344	44	6338
2026-01-22 22:07:01.60	39.92	26.15	-36.4	-37.3	24.4	0.00e+00	123	42	0	1097859072	44	6451
2026-01-22 22:07:02.61	39.61	26.15	-36.4	-37.3	24.4	0.00e+00	120	42	0	1101004800	44	6484
2026-01-22 22:07:03.62	39.31	26.16	-36.3	-37.2	24.4	0.00e+00	122	42	0	1104150528	44	6394
2026-01-22 22:07:04.63	39.00	26.17	-36.3	-37.2	24.3	0.00e+00	123	42	0	1107296256	44	6377
2026-01-22 22:07:05.64	38.70	26.17	-36.2	-37.1	24.5	0.00e+00	122	42	0	1110441984	44	6342
2026-01-22 22:07:06.65	38.39	26.18	-36.2	-37.2	24.5	0.00e+00	120	42	0	1113587712	44	6352
2026-01-22 22:07:07.66	38.08	26.18	-36.4	-37.3	24.4	0.00e+00	120	42	0	1116733440	44	6439
2026-01-22 22:07:08.67	37.78	26.18	-36.4	-37.3	24.5	0.00e+00	122	42	0	1119879168	44	6449
2026-01-22 22:07:09.68	37.47	26.18	-36.5	-37.4	24.4	0.00e+00	123	42	0	1123024896	44	6529
2026-01-22 22:07:10.69	37.16	26.19	-36.6	-37.5	24.3	0.00e+00	122	42	0	1126170624	44	6630
2026-01-22 22:07:11.70	36.86	26.18	-36.5	-37.4	24.4	0.00e+00	120	42	0	1129316352	44	6547
2026-01-22 22:07:12.71	36.55	26.18	-36.3	-37.2	24.5	0.00e+00	123	42	0	1132462080	44	6411
2026-01-22 22:07:13.72	36.25	26.18	-36.3	-37.2	24.4	0.00e+00	123	42	0	1135607808	44	6420
2026-01-22 22:07:14.73	35.94	26.18	-36.4	-37.3	24.3	0.00e+00	123	42	0	1138753536	44	6493
2026-01-22 22:07:15.74	35.63	26.18	-36.5	-37.4	24.4	0.00e+00	123	42	0	1141899264	44	6568
2026-01-22 22:07:16.75	35.33	26.17	-36.3	-37.2	24.5	0.00e+00	123	42	0	1145044992	44	6356
2026-01-22 22:07:17.76	35.02	26.17	-36.0	-36.9	24.7	0.00e+00	123	42	0	1148190720	44	6149
2026-01-22 22:07:18.77	34.72	26.16	-36.0	-36.9	24.7	0.00e+00	123	42	0	1151336448	44	6179
2026-01-22 22:07:19.78	34.41	26.15	-36.0	-36.8	24.7	0.00e+00	123	42	0	1154482176	44	6124
2026-01-22 22:07:20.79	34.10	26.14	-36.0	-36.8	24.8	0.00e+00	121	42	0	1157627904	44	6129
2026-01-22 22:07:21.81	33.80	26.13	-36.0	-36.9	24.7	0.00e+00	123	42	0	1160773632	44	6164
2026-01-22 22:07:22.81	33.49	26.12	-36.0	-36.9	24.8	0.00e+00	123	42	0	1163919360	44	6164
2026-01-22 22:07:23.82	33.19	26.11	-36.0	-36.9	24.7	0.00e+00	122	42	0	1167065088	44	6194
2026-01-22 22:07:24.83	32.88	26.10	-36.1	-36.9	24.6	0.00e+00	120	42	0	1170210816	44	6191
2026-01-22 22:07:25.84	32.58	26.09	-36.2	-37.1	24.5	0.00e+00	123	42	0	1173356544	44	6288
2026-01-22 22:07:26.85	32.28	26.08	-36.2	-37.1	24.5	0.00e+00	123	42	0	1176502272	44	6349
2026-01-22 22:07:27.86	31.97	26.06	-36.3	-37.2	24.4	0.00e+00	122	42	0	1179648000	44	6388
2026-01-22 22:07:28.88	31.67	26.05	-36.4	-37.3	24.4	0.00e+00	123	42	0	1182793728	44	6436
2026-01-22 22:07:29.88	31.37	26.03	-36.3	-37.2	24.5	0.00e+00	123	42	0	1185939456	44	6418
2026-01-22 22:07:30.89	31.06	26.01	-36.2	-37.1	24.5	0.00e+00	123	42	0	1189085184	44	6321
2026-01-22 22:07:31.90	30.76	26.00	-36.2	-37.1	24.5	0.00e+00	122	42	0	1192230912	44	6325
2026-01-22 22:07:32.91	30.46	25.98	-36.2	-37.1	24.6	0.00e+00	123	42	0	1195376640	44	6347
2026-01-22 22:07:33.92	30.16	25.96	-36.3	-37.1	24.5	0.00e+00	122	42	0	1198522368	44	6347
2026-01-22 22:07:34.93	29.85	25.94	-36.3	-37.2	24.5	0.00e+00	123	42	0	1201668096	44	6400
2026-01-22 22:07:35.94	29.55	25.91	-36.4	-37.3	24.3	0.00e+00	123	42	0	1204813824	44	6461
2026-01-22 22:07:36.95	29.25	25.89	-36.5	-37.4	24.3	0.00e+00	122	42	0	1207959552	44	6515
2026-01-22 22:07:37.96	28.95	25.87	-36.3	-37.2	24.4	0.00e+00	123	42	0	1211105280	44	6351
2026-01-22 22:07:38.98	28.65	25.85	-36.3	-37.2	24.5	0.00e+00	123	42	0	1214251008	44	6391
2026-01-22 22:07:39.99	28.35	25.82	-36.1	-37.0	24.7	0.00e+00	122	42	0	1217396736	44	6251
2026-01-22 22:07:41.00	28.05	25.80	-36.3	-37.1	24.6	0.00e+00	123	42	0	1220542464	44	6341
2026-01-22 22:07:42.01	27.75	25.77	-36.1	-37.0	24.6	0.00e+00	123	42	0	1223688192	44	6271
2026-01-22 22:07:43.02	27.45	25.74	-36.0	-36.9	24.7	0.00e+00	123	42	0	1226833920	44	6150
2026-01-22 22:07:44.03	27.16	25.71	-36.0	-36.9	24.7	0.00e+00	123	42	0	1229979648	44	6178
2026-01-22 22:07:45.04	26.86	25.68	-35.9	-36.8	24.7	0.00e+00	123	42	0	1233125376	44	6103
2026-01-22 22:07:46.05	26.56	25.66	-36.0	-36.9	24.8	0.00e+00	122	42	0	1236271104	44	6136
2026-01-22 22:07:47.06	26.27	25.62	-36.0	-36.9	24.7	0.00e+00	123	42	0	1239416832	44	6176
2026-01-22 22:07:48.07	25.97	25.59	-36.1	-37.0	24.7	0.00e+00	123	42	0	1242562560	44	6207
2026-01-22 22:07:49.08	25.68	25.56	-36.0	-36.9	24.7	0.00e+00	122	42	0	1245708288	44	6153
2026-01-22 22:07:50.09	25.39	25.53	-36.1	-37.0	24.5	0.00e+00	123	42	0	1248854016	44	6215
2026-01-22 22:07:51.10	25.09	25.50	-36.1	-37.0	24.5	0.00e+00	123	42	0	1251999744	44	6211
2026-01-22 22:07:52.11	24.80	25.46	-36.0	-36.9	24.4	0.00e+00	121	42	0	1255145472	44	6148
2026-01-22 22:07:53.12	24.51	25.43	-36.0	-36.9	24.5	0.00e+00	123	42	0	1258291200	44	6164
2026-01-22 22:07:54.13	24.22	25.39	-36.0	-37.0	24.5	0.00e+00	122	42	0	1261436928	44	6207
2026-01-22 22:07:55.14	23.93	25.35	-35.9	-36.7	24.7	0.00e+00	120	42	0	1264582656	44	6063
2026-01-22 22:07:56.14	23.64	25.32	-35.9	-36.8	24.7	0.00e+00	122	42	0	1267728384	44	6116
2026-01-22 22:07:57.15	23.35	25.28	-36.0	-36.9	24.6	0.00e+00	120	42	0	1270874112	44	6162
2026-01-22 22:07:58.17	23.06	25.24	-36.0	-36.8	24.6	0.00e+00	123	42	0	1274019840	44	6131
2026-01-22 22:07:59.18	22.77	25.20	-35.9	-36.8	24.6	0.00e+00	120	42	0	1277165568	44	6106
2026-01-22 22:08:00.19	22.48	25.16	-35.9	-36.8	24.7	0.00e+00	123	42	0	1280311296	44	6075
2026-01-22 22:08:01.20	22.20	25.12	-36.0	-36.9	24.6	0.00e+00	122	42	0	1283457024	44	6160
2026-01-22 22:08:02.21	21.91	25.08	-35.9	-36.8	24.6	0.00e+00	123	42	0	1286602752	44	6096
2026-01-22 22:08:03.22	21.63	25.03	-36.0	-36.9	24.5	0.00e+00	121	42	0	1289748480	44	6142
2026-01-22 22:08:04.23	21.34	24.99	-36.1	-36.9	24.5	0.00e+00	122	42	0	1292894208	44	6200
2026-01-22 22:08:05.24	21.06	24.95	-36.0	-36.8	24.6	0.00e+00	123	42	0	1296039936	44	6130
2026-01-22 22:08:06.25	20.78	24.90	-36.0	-36.8	24.6	0.00e+00	122	42	0	1299185664	44	6112
2026-01-22 22:08:07.26	20.50	24.86	-36.0	-36.9	24.6	0.00e+00	123	42	0	1303379968	44	6143
2026-01-22 22:08:08.27	20.21	24.81	-36.1	-37.0	24.5	0.00e+00	120	42	0	1305477120	44	6217
2026-01-22 22:08:09.28	19.93	24.76	-35.7	-36.6	25.0	0.00e+00	123	42	0	1308622848	44	5928
2026-01-22 22:08:10.29	19.66	24.72	-35.6	-36.5	25.0	0.00e+00	120	42	0	1311768576	44	5876
2026-01-22 22:08:11.30	19.38	24.67	-35.7	-36.6	24.9	0.00e+00	122	42	0	1314914304	44	5928
2026-01-22 22:08:12.31	19.10	24.62	-35.7	-36.6	24.9	0.00e+00	123	42	0	1319108608	44	5935
2026-01-22 22:08:13.32	18.82	24.57	-35.9	-36.8	24.8	0.00e+00	122	42	0	1322254336	44	6065
2026-01-22 22:08:14.33	18.55	24.52	-35.9	-36.7	24.8	0.00e+00	120	42	0	1325400064	44	6048
2026-01-22 22:08:15.34	18.27	24.47	-36.1	-37.0	24.6	0.00e+00	123	42	0	1327497216	44	6246
2026-01-22 22:08:16.35	18.00	24.42	-36.3	-37.2	24.4	0.00e+00	120	42	0	1330642944	44	6367
2026-01-22 22:08:17.36	17.73	24.37	-36.4	-37.3	24.4	0.00e+00	123	42	0	1334837248	44	6483
2026-01-22 22:08:18.37	17.45	24.31	-36.5	-37.4	24.3	0.00e+00	121	42	0	1337982976	44	6518
2026-01-22 22:08:19.38	17.18	24.26	-36.4	-37.3	24.3	0.00e+00	123	42	0	1341128704	44	6460
2026-01-22 22:08:20.39	16.91	24.21	-36.5	-37.4	24.2	0.00e+00	120	42	0	1344274432	44	6543
2026-01-22 22:08:21.40	16.64	24.15	-36.6	-37.5	24.1	0.00e+00	123	42	0	1347420160	44	6618
2026-01-22 22:08:22.41	16.38	24.10	-36.4	-37.3	24.3	0.00e+00	120	42	0	1350565888	44	6455
2026-01-22 22:08:23.42	16.11	24.04	-36.6	-37.5	24.2	0.00e+00	122	42	0	1353711616	44	6606
2026-01-22 22:08:24.43	15.84	23.99	-36.2	-37.1	24.4	0.00e+00	122	42	0	1356857344	44	6323
2026-01-22 22:08:25.44	15.58	23.93	-36.3	-37.2	24.3	0.00e+00	120	42	0	1360003072	44	6370
2026-01-22 22:08:26.45	15.31	23.87	-36.1	-37.0	24.4	0.00e+00	122	42	0	1363148800	44	6247
2026-01-22 22:08:27.46	15.05	23.82	-36.1	-37.0	24.5	0.00e+00	123	42	0	1366294528	44	6226
2026-01-22 22:08:28.47	14.79	23.76	-36.1	-37.0	24.6	0.00e+00	123	42	0	1369440256	44	6211
2026-01-22 22:08:29.48	14.52	23.70	-36.2	-37.1	24.6	0.00e+00	120	42	0	1372585984	44	6312
2026-01-22 22:08:30.49	14.26	23.64	-36.1	-37.0	24.6	0.00e+00	121	42	0	1375731712	44	6227
2026-01-22 22:08:31.50	14.00	23.58	-36.2	-37.1	24.5	0.00e+00	122	42	0	1378877440	44	6303
2026-01-22 22:08:32.51	13.75	23.52	-36.4	-37.3	24.4	0.00e+00	120	42	0	1382023168	44	6438
2026-01-22 22:08:33.52	13.49	23.46	-36.4	-37.3	24.4	0.00e+00	122	42	0	1385168896	44	6450
2026-01-22 22:08:34.53	13.23	23.40	-36.3	-37.2	24.5	0.00e+00	123	42	0	1388314624	44	6365
2026-01-22 22:08:35.54	12.98	23.34	-36.1	-37.0	24.5	0.00e+00	123	42	0	1391460352	44	6264
2026-01-22 22:08:36.54	12.72	23.28	-36.0	-36.9	24.5	0.00e+00	120	42	0	1394606080	44	6162
2026-01-22 22:08:37.56	12.47	23.21	-36.0	-36.9	24.5	0.00e+00	123	42	0	1397751808	44	6137
2026-01-22 22:08:38.57	12.22	23.15	-35.8	-36.7	24.6	0.00e+00	122	42	0	1400897536	44	6029
2026-01-22 22:08:39.58	11.97	23.09	-35.8	-36.7	24.6	0.00e+00	123	42	0	1404043264	44	6032
2026-01-22 22:08:40.59	11.71	23.03	-35.9	-36.7	24.6	0.00e+00	123	42	0	1407188992	44	6057
2026-01-22 22:08:41.60	11.47	22.96	-36.0	-36.9	24.5	0.00e+00	123	42	0	1410334720	44	6201
2026-01-22 22:08:42.61	11.22	22.90	-36.3	-37.2	24.4	0.00e+00	120	42	0	1413480448	44	6378
2026-01-22 22:08:43.62	10.97	22.83	-36.5	-37.4	24.3	0.00e+00	121	42	0	1416626176	44	6540
2026-01-22 22:08:44.63	10.72	22.77	-36.6	-37.5	24.2	0.00e+00	123	42	0	1419771904	44	6581
2026-01-22 22:08:45.64	10.48	22.70	-36.7	-37.6	24.1	0.00e+00	121	42	0	1422917632	44	6685
2026-01-22 22:08:46.65	10.23	22.63	-36.7	-37.6	24.1	0.00e+00	123	42	0	1426063360	46	5945
2026-01-22 22:08:47.66	9.99	22.57	-36.6	-37.5	24.1	0.00e+00	120	42	0	1429209088	46	5894
2026-01-22 22:08:48.67	9.75	22.50	-36.3	-37.2	24.4	0.00e+00	123	42	0	1432354816	46	5710
2026-01-22 22:08:49.68	9.51	22.43	-36.2	-37.1	24.5	0.00e+00	120	42	0	1435500544	46	5616
2026-01-22 22:08:50.69	9.27	22.37	-35.8	-36.7	24.8	0.00e+00	123	42	0	1438646272	46	5359
2026-01-22 22:08:51.70	9.03	22.30	-35.9	-36.8	24.7	0.00e+00	122	42	0	1441792000	46	5443
2026-01-22 22:08:52.71	8.79	22.23	-36.1	-36.9	24.7	0.00e+00	123	42	0	1444937728	46	5523
2026-01-22 22:08:53.72	8.56	22.16	-36.0	-36.9	24.7	0.00e+00	122	42	0	1448083456	46	5496
2026-01-22 22:08:54.73	8.32	22.09	-36.1	-37.0	24.6	0.00e+00	123	42	0	1451229184	46	5533
2026-01-22 22:08:55.74	8.09	22.02	-36.0	-36.8	24.7	0.00e+00	123	42	0	1454374912	46	5458
2026-01-22 22:08:56.75	7.85	21.95	-36.0	-36.9	24.6	0.00e+00	123	42	0	1457520640	46	5508
2026-01-22 22:08:57.76	7.62	21.88	-36.1	-36.9	24.6	0.00e+00	121	42	0	1460666368	46	5530
2026-01-22 22:08:58.77	7.39	21.81	-35.9	-36.8	24.7	0.00e+00	122	42	0	1463812096	46	5441
2026-01-22 22:08:59.78	7.16	21.74	-35.8	-36.7	24.8	0.00e+00	120	42	0	1466957824	46	5367
2026-01-22 22:09:00.79	6.93	21.67	-35.9	-36.8	24.8	0.00e+00	121	42	0	1470103552	46	5428
2026-01-22 22:09:01.80	6.70	21.60	-36.0	-36.9	24.7	0.00e+00	123	42	0	1473249280	46	5506
2026-01-22 22:09:02.81	6.47	21.53	-36.1	-37.0	24.7	0.00e+00	123	42	0	1476395008	46	5558
2026-01-22 22:09:03.82	6.25	21.46	-36.2	-37.1	24.6	0.00e+00	123	42	0	1479540736	46	5643
2026-01-22 22:09:04.84	6.02	21.38	-36.2	-37.1	24.6	0.00e+00	122	42	0	1482686464	46	5642
2026-01-22 22:09:05.85	5.80	21.31	-36.4	-37.2	24.5	0.00e+00	120	42	0	1485832192	46	5719
2026-01-22 22:09:06.86	5.57	21.24	-36.1	-37.0	24.6	0.00e+00	122	42	0	1488977920	46	5571
2026-01-22 22:09:07.87	5.35	21.17	-36.1	-37.0	24.5	0.00e+00	125	42	0	1492123648	46	5555
2026-01-22 22:09:08.88	5.13	21.09	-35.7	-36.6	24.9	0.00e+00	123	42	0	1495269376	46	5325
2026-01-22 22:09:09.89	4.91	21.02	-35.8	-36.6	24.9	0.00e+00	123	42	0	1498415104	44	5975
2026-01-22 22:09:10.90	4.69	20.95	-35.6	-36.4	25.0	0.00e+00	122	42	0	1501560832	44	5830
2026-01-22 22:09:11.91	4.47	20.87	-35.6	-36.5	25.0	0.00e+00	123	42	0	1504706560	44	5869
2026-01-22 22:09:12.92	4.26	20.80	-35.7	-36.6	24.9	0.00e+00	123	42	0	1507852288	44	5958
2026-01-22 22:09:13.93	4.04	20.72	-35.9	-36.8	24.7	0.00e+00	123	42	0	1510998016	44	6108
2026-01-22 22:09:14.94	3.83	20.65	-36.2	-37.0	24.5	0.00e+00	120	42	0	1514143744	44	6276
2026-01-22 22:09:15.95	3.61	20.57	-36.3	-37.2	24.5	0.00e+00	123	42	0	1517289472	44	6373
2026-01-22 22:09:16.96	3.40	20.50	-36.4	-37.3	24.4	0.00e+00	121	42	0	1520435200	44	6459
2026-01-22 22:09:17.97	3.19	20.42	-36.4	-37.3	24.3	0.00e+00	123	42	0	1523580928	44	6464
2026-01-22 22:09:18.98	2.98	20.35	-36.6	-37.5	24.2	0.00e+00	121	42	0	1526726656	44	6594
2026-01-22 22:09:19.99	2.77	20.27	-36.5	-37.4	24.4	0.00e+00	122	42	0	1529872384	44	6544
2026-01-22 22:09:21.00	2.56	20.20	-36.5	-37.4	24.2	0.00e+00	123	42	0	1533018112	44	6533
2026-01-22 22:09:22.01	2.36	20.12	-36.3	-37.2	24.4	0.00e+00	122	42	0	1536163840	44	6422
2026-01-22 22:09:23.02	2.15	20.05	-36.4	-37.3	24.3	0.00e+00	123	42	0	1539309568	44	6494
2026-01-22 22:09:24.03	1.94	19.97	-36.5	-37.4	24.3	0.00e+00	120	42	0	1542455296	44	6528
2026-01-22 22:09:25.04	1.74	19.89	-36.5	-37.4	24.2	0.00e+00	123	42	0	1545601024	44	6544
2026-01-22 22:09:26.05	1.54	19.82	-36.7	-37.6	24.1	0.00e+00	123	42	0	1548746752	44	6683
2026-01-22 22:09:27.06	1.34	19.74	-36.5	-37.4	24.2	0.00e+00	123	42	0	1551892480	44	6517
2026-01-22 22:09:28.07	1.14	19.67	-36.6	-37.6	24.0	0.00e+00	120	42	0	1555038208	44	6653
2026-01-22 22:09:29.08	0.94	19.59	-36.4	-37.4	24.3	0.00e+00	122	42	0	1558183936	44	6507
2026-01-22 22:09:30.09	0.74	19.51	-36.2	-37.1	24.4	0.00e+00	120	42	0	1561329664	44	6304
2026-01-22 22:09:31.10	0.54	19.43	-36.4	-37.3	24.2	0.00e+00	123	42	0	1564475392	44	6476
2026-01-22 22:09:32.11	0.34	19.36	-36.3	-37.2	24.4	0.00e+00	120	42	0	1567621120	44	6373
2026-01-22 22:09:33.12	0.15	19.28	-36.2	-37.1	24.5	0.00e+00	122	42	0	1570766848	44	6310
2026-01-22 22:09:34.13	359.95	19.20	-36.4	-37.3	24.4	0.00e+00	120	42	0	1573912576	44	6428
2026-01-22 22:09:35.14	359.76	19.13	-36.6	-37.5	24.2	0.00e+00	123	42	0	1577058304	44	6591
2026-01-22 22:09:36.15	359.56	19.05	-36.7	-37.6	24.0	0.00e+00	122	42	0	1580204032	44	6696
2026-01-22 22:09:37.16	359.37	18.97	-36.9	-37.8	24.0	0.00e+00	123	42	0	1583349760	46	6090
2026-01-22 22:09:38.17	359.18	18.89	-37.0	-37.9	23.8	0.00e+00	122	42	0	1586495488	46	6190
2026-01-22 22:09:39.18	358.99	18.81	-37.1	-38.0	23.8	0.00e+00	122	42	0	1589641216	46	6251
2026-01-22 22:09:40.19	358.80	18.74	-37.2	-38.1	23.6	0.00e+00	122	42	0	1592786944	46	6319
2026-01-22 22:09:41.19	358.62	18.66	-37.1	-38.0	23.7	0.00e+00	122	42	0	1595932672	46	6277
2026-01-22 22:09:42.21	358.43	18.58	-37.1	-38.0	23.7	0.00e+00	123	42	0	1599078400	46	6259
2026-01-22 22:09:43.22	358.24	18.50	-37.0	-38.0	23.7	0.00e+00	120	42	0	1602224128	46	6237
2026-01-22 22:09:44.23	358.06	18.42	-37.1	-38.1	23.6	0.00e+00	122	42	0	1605369856	46	6312
2026-01-22 22:09:45.24	357.87	18.35	-37.2	-38.1	23.6	0.00e+00	123	42	0	1608515584	46	6323
2026-01-22 22:09:46.25	357.69	18.27	-37.0	-38.0	23.7	0.00e+00	123	42	0	1611661312	46	6224
2026-01-22 22:09:47.26	357.51	18.19	-37.1	-38.0	23.5	0.00e+00	120	42	0	1615855616	46	6271
2026-01-22 22:09:48.27	357.33	18.11	-37.0	-38.0	23.6	0.00e+00	123	42	0	1619001344	46	6207
2026-01-22 22:09:49.28	357.15	18.03	-37.1	-38.1	23.5	0.00e+00	123	42	0	1621098496	46	6299
2026-01-22 22:09:50.29	356.97	17.95	-37.1	-38.0	23.6	0.00e+00	121	42	0	1624244224	46	6277
2026-01-22 22:09:51.30	356.79	17.88	-37.0	-37.9	23.6	0.00e+00	123	42	0	1627389952	46	6194
2026-01-22 22:09:52.31	356.61	17.80	-37.0	-38.0	23.6	0.00e+00	123	42	0	1631584256	46	6239
2026-01-22 22:09:53.32	356.43	17.72	-37.0	-37.9	23.7	0.00e+00	122	42	0	1634729984	46	6171
2026-01-22 22:09:54.33	356.26	17.64	-36.9	-37.9	23.7	0.00e+00	120	42	0	1637875712	46	6148
2026-01-22 22:09:55.34	356.08	17.56	-36.8	-37.7	23.7	0.00e+00	123	42	0	1641021440	46	6053
2026-01-22 22:09:56.35	355.91	17.48	-36.8	-37.7	23.8	0.00e+00	120	42	0	1643118592	46	6046
2026-01-22 22:09:57.36	355.74	17.40	-36.7	-37.7	23.9	0.00e+00	122	42	0	1646264320	46	5995
2026-01-22 22:09:58.37	355.57	17.32	-36.8	-37.7	23.9	0.00e+00	122	42	0	1650458624	46	6050
2026-01-22 22:09:59.38	355.40	17.25	-36.6	-37.5	24.0	0.00e+00	123	42	0	1653604352	46	5919
2026-01-22 22:10:00.39	355.23	17.17	-36.5	-37.4	24.1	0.00e+00	122	42	0	1656750080	46	5840
2026-01-22 22:10:01.39	355.06	17.09	-36.6	-37.5	24.0	0.00e+00	120	42	0	1659895808	46	5905
2026-01-22 22:10:02.40	354.89	17.01	-36.4	-37.3	24.3	0.00e+00	122	42	0	1663041536	46	5726
2026-01-22 22:10:03.41	354.72	16.93	-36.4	-37.3	24.2	0.00e+00	123	42	0	1666187264	46	5788
2026-01-22 22:10:04.42	354.56	16.85	-36.5	-37.4	24.1	0.00e+00	123	42	0	1669332992	46	5829
2026-01-22 22:10:05.43	354.39	16.77	-36.5	-37.4	24.2	0.00e+00	123	42	0	1672478720	46	5803
2026-01-22 22:10:06.44	354.23	16.70	-36.5	-37.4	24.2	0.00e+00	120	42	0	1675624448	46	5804
2026-01-22 22:10:07.45	354.06	16.62	-36.7	-37.6	24.0	0.00e+00	122	42	0	1678770176	46	5945
2026-01-22 22:10:08.46	353.90	16.54	-36.7	-37.6	24.0	0.00e+00	123	42	0	1681915904	46	5974
2026-01-22 22:10:09.48	353.74	16.46	-36.8	-37.7	23.9	0.00e+00	123	42	0	1685061632	46	6024
2026-01-22 22:10:10.49	353.57	16.38	-36.9	-37.8	23.8	0.00e+00	120	42	0	1688207360	46	6089
2026-01-22 22:10:11.50	353.41	16.30	-36.9	-37.9	23.7	0.00e+00	122	42	0	1691353088	46	6160
2026-01-22 22:10:12.50	353.26	16.22	-36.9	-37.8	23.7	0.00e+00	120	42	0	1694498816	46	6112
2026-01-22 22:10:13.52	353.10	16.14	-36.8	-37.7	23.8	0.00e+00	122	42	0	1697644544	46	6044
2026-01-22 22:10:14.53	352.94	16.06	-36.7	-37.7	23.8	0.00e+00	122	42	0	1700790272	46	5999
2026-01-22 22:10:15.54	352.78	15.99	-36.8	-37.7	23.9	0.00e+00	122	42	0	1703936000	46	6040
2026-01-22 22:10:16.55	352.62	15.91	-36.6	-37.5	24.0	0.00e+00	122	42	0	1707081728	46	5897
2026-01-22 22:10:17.56	352.47	15.83	-36.6	-37.5	24.0	0.00e+00	122	42	0	1710227456	46	5919
2026-01-22 22:10:18.57	352.32	15.75	-36.6	-37.5	24.0	0.00e+00	122	42	0	1713373184	46	5910
2026-01-22 22:10:19.58	352.16	15.67	-36.7	-37.6	24.0	0.00e+00	122	42	0	1716518912	46	5982
2026-01-22 22:10:20.59	352.01	15.59	-36.7	-37.7	24.0	0.00e+00	123	42	0	1719664640	46	5998
2026-01-22 22:10:21.60	351.86	15.52	-37.0	-37.9	23.8	0.00e+00	123	42	0	1722810368	46	6161
2026-01-22 22:10:22.61	351.71	15.44	-37.1	-38.0	23.7	0.00e+00	123	42	0	1725956096	46	6265
2026-01-22 22:10:23.62	351.56	15.36	-37.3	-38.2	23.6	0.00e+00	123	42	0	1729101824	46	6391
2026-01-22 22:10:24.63	351.41	15.28	-37.4	-38.4	23.4	0.00e+00	123	42	0	1732247552	46	6499
2026-01-22 22:10:25.64	351.26	15.20	-37.3	-38.3	23.4	0.00e+00	120	42	0	1735393280	46	6437
2026-01-22 22:10:26.65	351.11	15.12	-37.4	-38.4	23.2	0.00e+00	122	42	0	1738539008	46	6532
2026-01-22 22:10:27.66	350.96	15.05	-37.3	-38.3	23.2	0.00e+00	120	42	0	1741684736	46	6436
2026-01-22 22:10:28.67	350.82	14.97	-37.4	-38.3	23.2	0.00e+00	122	42	0	1744830464	46	6471
2026-01-22 22:10:29.68	350.67	14.89	-37.2	-38.2	23.3	0.00e+00	123	42	0	1747976192	46	6389
2026-01-22 22:10:30.69	350.53	14.81	-37.0	-37.9	23.5	0.00e+00	123	42	0	1751121920	46	6178
2026-01-22 22:10:31.70	350.38	14.73	-37.0	-37.9	23.5	0.00e+00	122	42	0	1754267648	46	6166
2026-01-22 22:10:32.71	350.24	14.66	-37.0	-37.9	23.7	0.00e+00	120	42	0	1757413376	46	6162
2026-01-22 22:10:33.72	350.10	14.58	-36.8	-37.7	23.8	0.00e+00	123	42	0	1760559104	46	6050
2026-01-22 22:10:34.73	349.95	14.50	-37.0	-37.9	23.7	0.00e+00	120	41	0	1763704832	46	6155
2026-01-22 22:10:35.75	349.81	14.42	-37.2	-38.1	23.6	0.00e+00	123	42	0	1766850560	46	6327
2026-01-22 22:10:36.76	349.67	14.35	-37.2	-38.2	23.6	0.00e+00	122	42	0	1769996288	46	6354
2026-01-22 22:10:37.77	349.53	14.27	-37.4	-38.4	23.4	0.00e+00	122	41	0	1773142016	46	6504
2026-01-22 22:10:38.78	349.39	14.19	-37.7	-38.6	23.1	0.00e+00	123	41	0	1776287744	46	6722
2026-01-22 22:10:39.79	349.25	14.11	-37.8	-38.8	23.0	0.00e+00	121	41	0	1779433472	48	6088
2026-01-22 22:10:40.80	349.12	14.04	-37.9	-38.9	22.8	0.00e+00	123	42	0	1782579200	48	6182
2026-01-22 22:10:41.81	348.98	13.96	-38.0	-39.0	22.7	0.00e+00	123	41	0	1785724928	48	6219
2026-01-22 22:10:42.82	348.84	13.88	-37.9	-38.9	22.7	0.00e+00	122	42	0	1788870656	48	6188
2026-01-22 22:10:43.83	348.71	13.81	-37.9	-38.9	22.8	0.00e+00	122	42	0	1792016384	48	6176
2026-01-22 22:10:44.84	348.58	13.73	-38.0	-39.0	22.7	0.00e+00	123	41	0	1795162112	48	6238
2026-01-22 22:10:45.85	348.44	13.65	-37.5	-38.5	23.1	0.00e+00	120	42	0	1798307840	48	5880
2026-01-22 22:10:46.86	348.31	13.58	-37.6	-38.5	23.1	0.00e+00	120	42	0	1801453568	48	5915
2026-01-22 22:10:47.87	348.18	13.50	-37.4	-38.4	23.2	0.00e+00	123	42	0	1804599296	48	5828
2026-01-22 22:10:48.88	348.04	13.42	-37.6	-38.5	23.0	0.00e+00	123	42	0	1807745024	48	5917
2026-01-22 22:10:49.89	347.91	13.35	-37.7	-38.7	23.1	0.00e+00	122	41	0	1810890752	48	5997
2026-01-22 22:10:50.90	347.78	13.27	-37.3	-38.3	23.4	0.00e+00	123	42	0	1814036480	48	5751
2026-01-22 22:10:51.91	347.65	13.19	-37.5	-38.5	23.2	0.00e+00	123	41	0	1817182208	48	5877
2026-01-22 22:10:52.92	347.53	13.12	-37.5	-38.5	23.2	0.00e+00	123	41	0	1820327936	48	5881
2026-01-22 22:10:53.93	347.40	13.04	-37.6	-38.5	23.2	0.00e+00	120	42	0	1823473664	48	5919
2026-01-22 22:10:54.94	347.27	12.97	-37.9	-38.8	22.9	0.00e+00	122	41	0	1826619392	48	6123
2026-01-22 22:10:55.95	347.14	12.89	-37.8	-38.8	23.0	0.00e+00	120	41	0	1829765120	48	6122
2026-01-22 22:10:56.96	347.02	12.81	-38.1	-39.1	22.7	0.00e+00	123	41	0	1832910848	48	6323
2026-01-22 22:10:57.97	346.89	12.74	-38.1	-39.1	22.6	0.00e+00	123	41	0	1836056576	48	6278
2026-01-22 22:10:58.98	346.77	12.66	-37.9	-38.9	22.7	0.00e+00	122	41	0	1839202304	48	6202
2026-01-22 22:10:59.98	346.64	12.59	-38.0	-39.0	22.7	0.00e+00	120	41	0	1842348032	48	6265
2026-01-22 22:11:00.99	346.52	12.51	-37.7	-38.7	22.8	0.00e+00	123	41	0	1845493760	48	6030
2026-01-22 22:11:02.00	346.40	12.44	-37.6	-38.6	22.9	0.00e+00	121	41	0	1848639488	48	5938
2026-01-22 22:11:03.01	346.28	12.36	-37.4	-38.4	23.0	0.00e+00	120	41	0	1851785216	48	5822
2026-01-22 22:11:04.03	346.15	12.29	-37.3	-38.2	23.3	0.00e+00	122	41	0	1854930944	48	5709
2026-01-22 22:11:05.04	346.03	12.21	-37.1	-38.0	23.4	0.00e+00	123	41	0	1858076672	48	5555
2026-01-22 22:11:06.05	345.91	12.14	-37.0	-37.9	23.5	0.00e+00	122	41	0	1861222400	48	5523
2026-01-22 22:11:07.06	345.79	12.06	-36.8	-37.7	23.7	0.00e+00	120	41	0	1864368128	48	5402
2026-01-22 22:11:08.07	345.67	11.99	-36.8	-37.7	23.8	0.00e+00	123	41	0	1867513856	46	6038
2026-01-22 22:11:09.08	345.55	11.91	-37.0	-37.9	23.7	0.00e+00	120	41	0	1870659584	46	6177
2026-01-22 22:11:10.09	345.44	11.84	-37.1	-38.0	23.6	0.00e+00	121	41	0	1873805312	46	6229
2026-01-22 22:11:11.10	345.32	11.76	-37.2	-38.1	23.5	0.00e+00	123	41	0	1876951040	46	6350
2026-01-22 22:11:12.11	345.20	11.69	-37.3	-38.3	23.4	0.00e+00	120	41	0	1880096768	46	6436
2026-01-22 22:11:13.12	345.09	11.62	-37.6	-38.5	23.2	0.00e+00	123	41	0	1883242496	46	6644
2026-01-22 22:11:14.13	344.97	11.54	-37.8	-38.8	23.0	0.00e+00	123	41	0	1886388224	48	6080
2026-01-22 22:11:15.14	344.86	11.47	-38.0	-39.0	22.8	0.00e+00	121	41	0	1889533952	48	6214
2026-01-22 22:11:16.15	344.74	11.39	-38.1	-39.2	22.6	0.00e+00	123	41	0	1892679680	48	6355
2026-01-22 22:11:17.16	344.63	11.32	-38.4	-39.4	22.4	0.00e+00	122	41	0	1895825408	48	6532
2026-01-22 22:11:18.17	344.52	11.25	-38.3	-39.3	22.5	0.00e+00	123	41	0	1898971136	48	6490
2026-01-22 22:11:19.18	344.40	11.17	-38.2	-39.2	22.4	0.00e+00	120	41	0	1902116864	48	6412
2026-01-22 22:11:20.19	344.29	11.10	-38.3	-39.3	22.3	0.00e+00	122	41	0	1905262592	48	6456
2026-01-22 22:11:21.19	344.18	11.03	-38.0	-39.0	22.5	0.00e+00	122	41	0	1908408320	48	6243
2026-01-22 22:11:22.21	344.07	10.95	-37.9	-38.9	22.6	0.00e+00	123	41	0	1911554048	48	6183
2026-01-22 22:11:23.22	343.96	10.88	-37.9	-38.9	22.5	0.00e+00	122	41	0	1914699776	48	6164
2026-01-22 22:11:24.23	343.85	10.81	-37.7	-38.7	22.8	0.00e+00	123	41	0	1917845504	48	6008
2026-01-22 22:11:25.23	343.74	10.73	-37.6	-38.6	22.8	0.00e+00	122	41	0	1920991232	48	5941
2026-01-22 22:11:26.24	343.63	10.66	-37.4	-38.4	23.0	0.00e+00	120	41	0	1924136960	48	5804
2026-01-22 22:11:27.25	343.53	10.59	-37.6	-38.5	22.9	0.00e+00	122	41	0	1927282688	48	5914
2026-01-22 22:11:28.26	343.42	10.52	-37.4	-38.3	23.1	0.00e+00	122	41	0	1931476992	48	5765
2026-01-22 22:11:29.27	343.31	10.44	-37.5	-38.5	23.0	0.00e+00	122	41	0	1934622720	48	5863
2026-01-22 22:11:30.28	343.20	10.37	-37.6	-38.5	23.1	0.00e+00	123	41	0	1936719872	48	5910
2026-01-22 22:11:31.29	343.10	10.30	-37.7	-38.6	23.0	0.00e+00	120	41	0	1939865600	48	5983
2026-01-22 22:11:32.30	342.99	10.23	-37.8	-38.8	22.9	0.00e+00	123	41	0	1943011328	48	6093
2026-01-22 22:11:33.30	342.89	10.16	-37.9	-38.9	22.8	0.00e+00	123	41	0	1946157056	48	6140
