passes_logs/2026/01/22/R4.6S_Anadyr/R4.6S_Anadyr__20260122_012532_FENGYUN_3D_rec.log

#Pass ID: 20260122_012532_FENGYUN 3D
#Satellite: FENGYUN 3D
#Configuration: FENGYUN 3D
#almurnet v.1.7.20251203
#Start time: 2026-01-22 01:25:34

#Version: 2.2.20231116
#Station: R4.6S_Anadyr
#Location: 177.4865 lon 64.73178 lat
#TLE: 1 43010U 17072A   26020.92362722 -.00000077  00000+0 -14488-4 0  9992
#TLE: 2 43010  98.9946 352.8312 0002486  99.3651 260.7806 14.19696535424099

#Time	Az	El	Level	Level2	SNR	BER	BlckErr	Temp	State	Recorded	gain1	gain2
2026-01-22 01:25:34.70	135.29	0.15	-51.3	-66.1	3.5	1.51e+00	0	39	0	0	60	73264
2026-01-22 01:25:35.71	135.27	0.21	-51.9	-64.0	3.6	8.44e-01	0	40	104	0	60	57156
2026-01-22 01:25:36.72	135.25	0.27	-52.3	-64.5	3.5	8.44e-01	0	40	104	0	60	60477
2026-01-22 01:25:37.73	135.23	0.33	-51.7	-63.9	3.6	8.45e-01	0	40	104	0	60	56450
2026-01-22 01:25:38.74	135.21	0.39	-51.6	-63.7	3.6	8.44e-01	0	40	104	0	60	55257
2026-01-22 01:25:39.75	135.19	0.45	-51.4	-63.5	3.6	8.45e-01	0	40	104	0	60	53957
2026-01-22 01:25:40.76	135.17	0.51	-51.5	-63.6	3.6	8.45e-01	0	40	104	0	60	54876
2026-01-22 01:25:41.77	135.15	0.58	-51.3	-63.5	3.6	8.44e-01	0	40	104	0	60	54175
2026-01-22 01:25:42.78	135.13	0.64	-51.2	-63.3	3.6	8.45e-01	0	40	104	0	60	52798
2026-01-22 01:25:43.79	135.11	0.70	-51.2	-63.3	3.6	8.45e-01	0	40	104	0	60	53020
2026-01-22 01:25:44.80	135.09	0.76	-51.2	-63.3	3.6	8.45e-01	0	40	104	0	60	52826
2026-01-22 01:25:45.81	135.07	0.82	-51.1	-63.3	3.6	8.46e-01	0	40	104	0	60	52719
2026-01-22 01:25:46.82	135.05	0.88	-51.1	-63.2	3.6	8.45e-01	0	40	104	0	60	52281
2026-01-22 01:25:47.83	135.03	0.94	-51.0	-63.1	3.6	8.45e-01	0	40	104	0	60	51816
2026-01-22 01:25:48.84	135.01	1.01	-50.7	-63.1	3.6	8.46e-01	0	40	104	0	60	51455
2026-01-22 01:25:49.85	134.99	1.07	-50.9	-63.0	3.6	8.44e-01	0	40	104	0	60	50944
2026-01-22 01:25:50.86	134.97	1.13	-50.8	-62.9	3.6	8.46e-01	0	40	104	0	60	50725
2026-01-22 01:25:51.87	134.95	1.19	-50.8	-62.9	3.6	8.46e-01	0	40	104	0	60	50584
2026-01-22 01:25:52.88	134.92	1.25	-50.8	-62.9	3.6	8.46e-01	0	40	104	0	60	50613
2026-01-22 01:25:53.89	134.90	1.32	-50.6	-62.8	3.6	8.46e-01	0	40	104	0	60	50088
2026-01-22 01:25:54.90	134.88	1.38	-50.5	-62.7	3.6	8.45e-01	0	40	104	0	60	49429
2026-01-22 01:25:55.91	134.86	1.44	-50.4	-62.5	3.6	8.44e-01	0	40	104	0	60	48083
2026-01-22 01:25:56.92	134.84	1.51	-50.1	-62.3	3.6	8.46e-01	0	40	104	0	60	47364
2026-01-22 01:25:57.93	134.82	1.57	-49.9	-62.1	3.6	8.46e-01	0	40	104	0	60	45959
2026-01-22 01:25:58.94	134.79	1.63	-49.7	-61.8	3.6	8.46e-01	0	40	104	0	60	44490
2026-01-22 01:25:59.95	134.77	1.70	-49.7	-61.8	3.6	8.45e-01	0	40	104	0	60	44415
2026-01-22 01:26:00.96	134.75	1.76	-49.7	-61.8	3.6	8.45e-01	0	40	104	0	60	44457
2026-01-22 01:26:01.97	134.73	1.82	-49.7	-61.8	3.6	8.45e-01	0	41	104	0	60	44639
2026-01-22 01:26:02.98	134.70	1.89	-49.7	-61.8	3.6	8.45e-01	0	40	104	0	60	44676
2026-01-22 01:26:03.99	134.68	1.95	-49.7	-61.8	3.6	8.45e-01	0	40	104	0	60	44618
2026-01-22 01:26:05.00	134.66	2.01	-49.7	-61.7	3.6	8.46e-01	0	40	104	0	60	43975
2026-01-22 01:26:06.01	134.64	2.08	-49.6	-61.7	3.6	8.45e-01	0	40	104	0	60	43987
2026-01-22 01:26:07.02	134.61	2.14	-49.6	-61.1	3.5	8.46e-01	0	41	104	0	60	40889
2026-01-22 01:26:08.03	134.59	2.21	-49.6	-61.5	3.6	8.44e-01	0	41	104	0	60	43089
2026-01-22 01:26:09.04	134.57	2.27	-49.6	-61.5	3.6	8.45e-01	0	41	104	0	60	42778
2026-01-22 01:26:10.05	134.55	2.34	-49.6	-61.5	3.6	8.45e-01	0	41	104	0	60	43132
2026-01-22 01:26:11.06	134.52	2.40	-49.7	-61.6	3.6	8.46e-01	0	41	104	0	60	43388
2026-01-22 01:26:12.07	134.50	2.47	-49.7	-61.7	3.6	8.45e-01	0	41	104	0	60	43872
2026-01-22 01:26:13.08	134.48	2.53	-49.7	-61.8	3.6	8.46e-01	0	41	104	0	60	44597
2026-01-22 01:26:14.09	134.45	2.60	-49.7	-61.8	3.6	8.46e-01	0	41	104	0	60	44640
2026-01-22 01:26:15.10	134.43	2.66	-49.7	-61.6	3.6	8.44e-01	0	41	104	0	60	43415
2026-01-22 01:26:16.11	134.40	2.73	-49.6	-61.5	3.6	8.47e-01	0	41	104	0	60	43042
2026-01-22 01:26:17.12	134.38	2.79	-49.6	-61.6	3.6	8.46e-01	0	41	104	0	60	43489
2026-01-22 01:26:18.13	134.36	2.86	-49.7	-61.7	3.6	8.44e-01	0	41	104	0	60	43845
2026-01-22 01:26:19.15	134.33	2.93	-49.5	-60.1	3.6	8.45e-01	0	41	104	0	60	36457
2026-01-22 01:26:20.16	134.31	2.99	-49.6	-60.8	3.6	8.45e-01	0	41	104	0	60	39689
2026-01-22 01:26:21.17	134.28	3.06	-49.5	-60.2	3.6	8.45e-01	0	41	104	0	60	37149
2026-01-22 01:26:22.18	134.26	3.12	-49.6	-60.7	3.6	8.45e-01	0	41	104	0	60	39232
2026-01-22 01:26:23.18	134.23	3.19	-49.6	-61.0	3.5	8.46e-01	0	41	104	0	60	40337
2026-01-22 01:26:24.19	134.21	3.26	-49.6	-60.4	3.6	8.44e-01	0	41	104	0	60	38015
2026-01-22 01:26:25.21	134.18	3.33	-49.7	-61.8	3.6	8.45e-01	0	41	104	0	60	44545
2026-01-22 01:26:26.21	134.16	3.39	-49.6	-61.1	3.6	8.45e-01	0	41	104	0	60	41246
2026-01-22 01:26:27.22	134.13	3.46	-49.4	-59.3	3.6	8.45e-01	0	41	104	0	60	33228
2026-01-22 01:26:28.23	134.11	3.53	-48.9	-56.2	4.9	8.06e-01	0	41	104	0	60	23302
2026-01-22 01:26:29.24	134.08	3.59	-47.6	-51.3	9.0	2.28e-01	0	41	0	3145728	60	13241
2026-01-22 01:26:30.25	134.06	3.66	-46.0	-48.6	12.0	1.51e-04	0	41	0	9437184	60	9687
2026-01-22 01:26:31.26	134.03	3.73	-46.9	-50.0	10.5	4.50e-04	0	41	0	14680064	60	11433
2026-01-22 01:26:32.27	134.01	3.80	-45.8	-48.2	12.6	9.80e-04	0	41	0	20971520	60	9240
2026-01-22 01:26:33.28	133.98	3.87	-49.5	-59.6	3.6	8.44e-01	0	41	104	23068672	60	34619
2026-01-22 01:26:34.29	133.95	3.93	-42.0	-43.3	16.8	1.28e-01	0	41	104	23068672	58	5898
2026-01-22 01:26:35.30	133.93	4.00	-49.4	-59.2	3.8	8.45e-01	0	41	104	23068672	60	32810
2026-01-22 01:26:36.31	133.90	4.07	-49.6	-59.6	3.6	8.41e-01	0	41	104	23068672	60	34339
2026-01-22 01:26:37.32	133.87	4.14	-40.2	-41.3	18.6	1.84e-01	0	41	104	23068672	52	6628
2026-01-22 01:26:38.33	133.85	4.21	-38.4	-39.3	21.3	0.00e+00	0	41	0	26214400	48	6648
2026-01-22 01:26:39.34	133.82	4.28	-38.2	-39.0	21.4	0.00e+00	0	41	0	32505856	50	5745
2026-01-22 01:26:40.35	133.79	4.35	-39.3	-40.2	21.4	0.00e+00	0	41	0	37748736	54	5205
2026-01-22 01:26:41.36	133.77	4.42	-38.5	-39.4	21.4	0.00e+00	0	41	0	42991616	48	6710
2026-01-22 01:26:42.37	133.74	4.49	-38.4	-39.3	21.5	0.00e+00	0	41	0	49283072	50	5908
2026-01-22 01:26:43.38	133.71	4.56	-38.7	-39.6	21.3	0.00e+00	0	41	0	54525952	50	6120
2026-01-22 01:26:44.39	133.68	4.63	-38.3	-39.1	21.8	0.00e+00	0	41	0	60817408	50	5789
2026-01-22 01:26:45.40	133.66	4.70	-38.2	-39.0	21.8	0.00e+00	0	41	0	66060288	50	5726
2026-01-22 01:26:46.41	133.63	4.77	-37.8	-38.6	22.1	0.00e+00	0	41	0	71303168	50	5483
2026-01-22 01:26:47.42	133.60	4.84	-37.4	-38.1	22.7	0.00e+00	0	41	0	77594624	50	5180
2026-01-22 01:26:48.43	133.57	4.91	-39.9	-40.8	20.3	0.00e+00	0	41	0	82837504	52	6271
2026-01-22 01:26:49.44	133.54	4.98	-37.9	-38.7	22.2	0.00e+00	0	41	0	89128960	48	6206
2026-01-22 01:26:50.46	133.52	5.05	-38.8	-39.7	21.1	0.00e+00	0	41	0	94371840	48	6944
2026-01-22 01:26:51.46	133.49	5.12	-39.1	-40.0	21.0	0.00e+00	0	41	0	99614720	50	6440
2026-01-22 01:26:52.48	133.46	5.20	-38.0	-38.8	22.2	0.00e+00	0	41	0	105906176	50	5597
2026-01-22 01:26:53.48	133.43	5.27	-39.3	-40.1	21.0	0.00e+00	0	41	0	111149056	50	6515
2026-01-22 01:26:54.50	133.40	5.34	-38.6	-39.4	21.9	0.00e+00	0	41	0	117440512	50	6018
2026-01-22 01:26:55.51	133.37	5.41	-37.8	-38.6	22.5	0.00e+00	0	41	0	122683392	50	5442
2026-01-22 01:26:56.52	133.34	5.48	-38.9	-39.8	20.9	0.00e+00	0	41	0	128974848	50	6302
2026-01-22 01:26:57.53	133.31	5.56	-38.6	-39.4	21.7	0.00e+00	0	41	0	134217728	50	6023
2026-01-22 01:26:58.53	133.28	5.63	-37.1	-37.9	23.0	0.00e+00	0	41	0	140509184	48	5664
2026-01-22 01:26:59.55	133.25	5.70	-38.5	-39.3	21.6	0.00e+00	0	41	0	145752064	48	6640
2026-01-22 01:27:00.55	133.22	5.77	-37.9	-38.7	22.4	0.00e+00	0	41	0	150994944	50	5542
2026-01-22 01:27:01.56	133.19	5.85	-38.0	-38.8	22.3	0.00e+00	0	41	0	157286400	50	5605
2026-01-22 01:27:02.57	133.16	5.92	-37.7	-38.5	22.5	0.00e+00	0	41	0	162529280	50	5419
2026-01-22 01:27:03.58	133.13	5.99	-37.7	-38.5	22.5	0.00e+00	0	41	0	168820736	48	6055
2026-01-22 01:27:04.59	133.10	6.07	-38.0	-38.8	22.2	0.00e+00	0	41	0	174063616	48	6291
2026-01-22 01:27:05.60	133.07	6.14	-37.9	-38.6	22.4	0.00e+00	0	41	0	179306496	48	6169
2026-01-22 01:27:06.61	133.04	6.22	-37.7	-38.4	22.5	0.00e+00	0	41	0	185597952	48	6031
2026-01-22 01:27:07.62	133.01	6.29	-37.4	-38.2	22.9	0.00e+00	0	41	0	190840832	48	5860
2026-01-22 01:27:08.63	132.98	6.37	-37.2	-38.0	22.9	0.00e+00	0	41	0	197132288	48	5704
2026-01-22 01:27:09.64	132.94	6.44	-38.4	-39.2	21.9	0.00e+00	0	41	0	202375168	48	6567
2026-01-22 01:27:10.65	132.91	6.52	-37.9	-38.7	22.3	0.00e+00	0	41	0	207618048	48	6191
2026-01-22 01:27:11.66	132.88	6.59	-38.6	-39.5	21.5	0.00e+00	0	41	0	213909504	50	6037
2026-01-22 01:27:12.67	132.85	6.67	-38.0	-38.8	22.4	0.00e+00	0	41	0	219152384	50	5579
2026-01-22 01:27:13.68	132.82	6.74	-37.0	-37.8	23.2	0.00e+00	0	41	0	225443840	48	5583
2026-01-22 01:27:14.69	132.78	6.82	-37.1	-37.8	23.2	0.00e+00	0	41	0	230686720	48	5620
2026-01-22 01:27:15.69	132.75	6.89	-38.0	-38.8	22.2	0.00e+00	0	41	0	236978176	48	6258
2026-01-22 01:27:16.71	132.72	6.97	-37.7	-38.5	22.5	0.00e+00	0	41	0	242221056	48	6075
2026-01-22 01:27:17.71	132.68	7.05	-38.0	-38.7	22.5	0.00e+00	0	41	0	247463936	48	6237
2026-01-22 01:27:18.72	132.65	7.12	-37.4	-38.2	22.9	0.00e+00	0	41	0	253755392	48	5846
2026-01-22 01:27:19.73	132.62	7.20	-37.5	-38.3	22.8	0.00e+00	0	41	0	258998272	48	5900
2026-01-22 01:27:20.74	132.58	7.28	-37.4	-38.1	23.0	0.00e+00	0	41	0	265289728	48	5814
2026-01-22 01:27:21.75	132.55	7.36	-37.5	-38.2	22.9	0.00e+00	0	41	0	270532608	48	5868
2026-01-22 01:27:22.76	132.52	7.43	-37.7	-38.5	22.7	0.00e+00	0	41	0	275775488	48	6048
2026-01-22 01:27:23.77	132.48	7.51	-38.0	-38.8	22.2	0.00e+00	0	41	0	282066944	48	6310
2026-01-22 01:27:24.78	132.45	7.59	-37.5	-38.3	22.9	0.00e+00	0	41	0	287309824	48	5903
2026-01-22 01:27:25.79	132.41	7.67	-37.7	-38.5	22.7	0.00e+00	0	41	0	293601280	48	6054
2026-01-22 01:27:26.79	132.38	7.75	-37.6	-38.4	22.8	0.00e+00	0	41	0	298844160	48	5976
2026-01-22 01:27:27.81	132.34	7.83	-37.1	-37.9	23.3	0.00e+00	0	41	0	304087040	48	5649
2026-01-22 01:27:28.82	132.31	7.91	-37.2	-37.9	23.2	0.00e+00	0	41	0	310378496	48	5669
2026-01-22 01:27:29.83	132.27	7.98	-37.2	-38.0	23.3	0.00e+00	0	41	0	315621376	48	5708
2026-01-22 01:27:30.84	132.24	8.06	-37.4	-38.1	23.1	0.00e+00	0	41	0	321912832	48	5821
2026-01-22 01:27:31.85	132.20	8.14	-37.1	-37.8	23.3	0.00e+00	0	41	0	327155712	48	5622
2026-01-22 01:27:32.86	132.16	8.22	-37.0	-37.8	23.4	0.00e+00	0	41	0	333447168	48	5592
2026-01-22 01:27:33.87	132.13	8.30	-37.3	-38.1	23.1	0.00e+00	0	41	0	338690048	48	5769
2026-01-22 01:27:34.88	132.09	8.38	-37.3	-38.0	23.2	0.00e+00	0	41	0	344981504	48	5761
2026-01-22 01:27:35.89	132.06	8.47	-37.1	-37.9	23.3	0.00e+00	0	41	0	350224384	48	5653
2026-01-22 01:27:36.90	132.02	8.55	-37.4	-38.1	23.0	0.00e+00	0	41	0	355467264	48	5815
2026-01-22 01:27:37.91	131.98	8.63	-37.2	-38.0	23.3	0.00e+00	0	41	0	361758720	48	5699
2026-01-22 01:27:38.92	131.94	8.71	-37.2	-38.0	23.1	0.00e+00	0	41	0	367001600	48	5730
2026-01-22 01:27:39.93	131.91	8.79	-37.2	-37.9	23.4	0.00e+00	0	41	0	373293056	48	5664
2026-01-22 01:27:40.94	131.87	8.87	-37.4	-38.1	23.2	0.00e+00	0	41	0	378535936	48	5805
2026-01-22 01:27:41.95	131.83	8.96	-37.3	-38.1	23.2	0.00e+00	0	41	0	383778816	48	5786
2026-01-22 01:27:42.96	131.79	9.04	-37.3	-38.1	23.2	0.00e+00	0	41	0	390070272	48	5786
2026-01-22 01:27:43.97	131.75	9.12	-37.4	-38.2	23.0	0.00e+00	0	41	0	395313152	48	5851
2026-01-22 01:27:44.98	131.71	9.20	-37.5	-38.3	23.1	0.00e+00	0	41	0	401604608	48	5910
2026-01-22 01:27:45.99	131.68	9.29	-37.2	-38.0	23.3	0.00e+00	0	41	0	406847488	48	5735
2026-01-22 01:27:47.00	131.64	9.37	-37.6	-38.4	23.0	0.00e+00	0	41	0	412090368	48	5993
2026-01-22 01:27:48.01	131.60	9.46	-37.4	-38.2	23.1	0.00e+00	0	41	0	418381824	48	5852
2026-01-22 01:27:49.02	131.56	9.54	-36.9	-37.7	23.5	0.00e+00	0	41	0	423624704	48	5528
2026-01-22 01:27:50.03	131.52	9.62	-36.8	-37.5	23.7	0.00e+00	0	41	0	429916160	48	5438
2026-01-22 01:27:51.04	131.48	9.71	-37.1	-37.9	23.4	0.00e+00	0	41	0	435159040	48	5635
2026-01-22 01:27:52.05	131.44	9.79	-36.9	-37.6	23.6	0.00e+00	0	41	0	441450496	48	5486
2026-01-22 01:27:53.06	131.39	9.88	-36.9	-37.6	23.7	0.00e+00	0	41	0	446693376	48	5475
2026-01-22 01:27:54.07	131.35	9.96	-36.9	-37.6	23.7	0.00e+00	0	41	0	452984832	48	5490
2026-01-22 01:27:55.08	131.31	10.05	-36.9	-37.6	23.6	0.00e+00	0	41	0	458227712	48	5478
2026-01-22 01:27:56.09	131.27	10.14	-37.0	-37.8	23.5	0.00e+00	0	41	0	463470592	48	5585
2026-01-22 01:27:57.10	131.23	10.22	-36.6	-37.3	24.0	0.00e+00	0	41	0	469762048	46	5904
2026-01-22 01:27:58.11	131.19	10.31	-36.4	-37.2	24.1	0.00e+00	0	41	0	475004928	46	5835
2026-01-22 01:27:59.12	131.14	10.40	-36.7	-37.4	23.8	0.00e+00	0	41	0	481296384	46	6001
2026-01-22 01:28:00.13	131.10	10.48	-36.7	-37.5	23.8	0.00e+00	0	41	0	486539264	46	6042
2026-01-22 01:28:01.14	131.06	10.57	-36.7	-37.4	23.9	0.00e+00	0	41	0	491782144	46	6003
2026-01-22 01:28:02.15	131.02	10.66	-36.7	-37.4	23.9	0.00e+00	0	41	0	498073600	46	6003
2026-01-22 01:28:03.16	130.97	10.75	-36.4	-37.0	24.3	0.00e+00	0	41	0	503316480	46	5759
2026-01-22 01:28:04.17	130.93	10.84	-36.3	-37.1	24.2	0.00e+00	0	41	0	509607936	46	5765
2026-01-22 01:28:05.18	130.88	10.93	-36.4	-37.1	24.2	0.00e+00	0	41	0	514850816	46	5788
2026-01-22 01:28:06.19	130.84	11.01	-36.2	-36.9	24.3	0.00e+00	0	41	0	520093696	46	5691
2026-01-22 01:28:07.20	130.80	11.10	-36.4	-37.1	24.2	0.00e+00	0	41	0	526385152	46	5819
2026-01-22 01:28:08.21	130.75	11.19	-36.6	-37.2	24.1	0.00e+00	0	41	0	531628032	46	5881
2026-01-22 01:28:09.22	130.71	11.28	-36.5	-37.2	24.0	0.00e+00	0	41	0	537919488	46	5863
2026-01-22 01:28:10.23	130.66	11.37	-36.3	-37.0	24.3	0.00e+00	0	41	0	543162368	46	5727
2026-01-22 01:28:11.24	130.61	11.46	-36.6	-37.3	24.1	0.00e+00	0	41	0	549453824	46	5957
2026-01-22 01:28:12.25	130.57	11.56	-36.6	-37.4	24.0	0.00e+00	0	41	0	554696704	46	5968
2026-01-22 01:28:13.26	130.52	11.65	-36.1	-36.8	24.5	0.00e+00	0	41	0	559939584	46	5611
2026-01-22 01:28:14.27	130.47	11.74	-36.0	-36.7	24.5	0.00e+00	0	41	0	566231040	46	5536
2026-01-22 01:28:15.28	130.43	11.83	-36.1	-36.8	24.4	0.00e+00	0	41	0	571473920	46	5611
2026-01-22 01:28:16.29	130.38	11.92	-36.0	-36.6	24.6	0.00e+00	0	41	0	577765376	46	5502
2026-01-22 01:28:17.30	130.33	12.01	-36.1	-36.8	24.5	0.00e+00	0	41	0	583008256	46	5597
2026-01-22 01:28:18.31	130.28	12.11	-35.9	-36.6	24.7	0.00e+00	0	41	0	588251136	46	5445
2026-01-22 01:28:19.32	130.24	12.20	-35.7	-36.4	24.8	0.00e+00	0	41	0	594542592	46	5355
2026-01-22 01:28:20.33	130.19	12.29	-35.9	-36.6	24.7	0.00e+00	0	41	0	599785472	44	6126
2026-01-22 01:28:21.34	130.14	12.39	-35.7	-36.4	24.8	0.00e+00	0	41	0	606076928	44	6016
2026-01-22 01:28:22.35	130.09	12.48	-35.7	-36.3	24.9	0.00e+00	0	41	0	611319808	44	5950
2026-01-22 01:28:23.36	130.04	12.58	-35.7	-36.4	24.9	0.00e+00	0	41	0	616562688	44	6001
2026-01-22 01:28:24.37	129.99	12.67	-35.7	-36.4	24.9	0.00e+00	0	41	0	622854144	44	5978
2026-01-22 01:28:25.38	129.94	12.77	-35.5	-36.2	25.1	0.00e+00	0	41	0	628097024	44	5843
2026-01-22 01:28:26.39	129.89	12.86	-35.5	-36.2	25.1	0.00e+00	0	41	0	634388480	44	5883
2026-01-22 01:28:27.40	129.84	12.96	-35.7	-36.4	24.9	0.00e+00	0	41	0	639631360	44	5979
2026-01-22 01:28:28.41	129.79	13.06	-35.6	-36.2	25.0	0.00e+00	0	41	0	645922816	44	5891
2026-01-22 01:28:29.42	129.73	13.15	-35.7	-36.3	24.9	0.00e+00	0	41	0	651165696	44	5961
2026-01-22 01:28:30.43	129.68	13.25	-35.7	-36.4	24.9	0.00e+00	0	41	0	657457152	44	6010
2026-01-22 01:28:31.44	129.63	13.35	-35.7	-36.4	24.9	0.00e+00	0	41	0	662700032	44	5973
2026-01-22 01:28:32.45	129.58	13.44	-35.7	-36.4	24.9	0.00e+00	0	41	0	667942912	44	5980
2026-01-22 01:28:33.46	129.52	13.54	-35.8	-36.5	24.8	0.00e+00	0	41	0	674234368	44	6068
2026-01-22 01:28:34.47	129.47	13.64	-35.5	-36.2	25.1	0.00e+00	0	41	0	679477248	44	5856
2026-01-22 01:28:35.48	129.42	13.74	-35.5	-36.2	25.0	0.00e+00	0	41	0	685768704	44	5869
2026-01-22 01:28:36.49	129.36	13.84	-35.6	-36.3	25.0	0.00e+00	0	41	0	691011584	44	5908
2026-01-22 01:28:37.50	129.31	13.94	-35.7	-36.4	24.9	0.00e+00	0	41	0	696254464	44	5970
2026-01-22 01:28:38.51	129.25	14.04	-35.6	-36.3	25.0	0.00e+00	0	41	0	702545920	44	5938
2026-01-22 01:28:39.51	129.20	14.14	-35.8	-36.5	24.9	0.00e+00	0	41	0	707788800	44	6047
2026-01-22 01:28:40.52	129.14	14.24	-35.5	-36.2	25.1	0.00e+00	0	41	0	714080256	44	5836
2026-01-22 01:28:41.53	129.09	14.34	-35.5	-36.2	25.2	0.00e+00	0	41	0	719323136	44	5833
2026-01-22 01:28:42.54	129.03	14.44	-35.5	-36.2	25.2	0.00e+00	0	41	0	724566016	44	5847
2026-01-22 01:28:43.56	128.97	14.55	-35.4	-36.0	25.3	0.00e+00	0	41	0	730857472	44	5756
2026-01-22 01:28:44.57	128.91	14.65	-35.5	-36.2	25.1	0.00e+00	0	41	0	736100352	44	5852
2026-01-22 01:28:45.58	128.86	14.75	-35.3	-36.0	25.3	0.00e+00	0	41	0	742391808	44	5716
2026-01-22 01:28:46.59	128.80	14.85	-35.4	-36.1	25.2	0.00e+00	0	41	0	747634688	44	5786
2026-01-22 01:28:47.60	128.74	14.96	-35.5	-36.1	25.1	0.00e+00	0	41	0	753926144	44	5817
2026-01-22 01:28:48.61	128.68	15.06	-35.3	-36.0	25.3	0.00e+00	0	41	0	759169024	44	5747
2026-01-22 01:28:49.62	128.62	15.17	-35.3	-36.0	25.3	0.00e+00	0	41	0	765460480	44	5745
2026-01-22 01:28:50.63	128.56	15.27	-35.2	-35.8	25.5	0.00e+00	0	41	0	770703360	44	5606
2026-01-22 01:28:51.64	128.50	15.38	-35.0	-35.6	25.6	0.00e+00	0	41	0	775946240	44	5482
2026-01-22 01:28:52.65	128.44	15.48	-35.0	-35.6	25.6	0.00e+00	0	41	0	782237696	44	5495
2026-01-22 01:28:53.66	128.38	15.59	-35.0	-35.6	25.5	0.00e+00	0	41	0	787480576	44	5492
2026-01-22 01:28:54.67	128.32	15.69	-34.9	-35.5	25.6	0.00e+00	0	41	0	793772032	44	5435
2026-01-22 01:28:55.68	128.25	15.80	-34.9	-35.6	25.7	0.00e+00	0	41	0	799014912	44	5457
2026-01-22 01:28:56.70	128.19	15.91	-34.9	-35.5	25.8	0.00e+00	0	41	0	804257792	42	6082
2026-01-22 01:28:57.70	128.13	16.02	-34.8	-35.5	25.8	0.00e+00	0	41	0	810549248	42	6059
2026-01-22 01:28:58.72	128.06	16.13	-34.9	-35.5	25.8	0.00e+00	0	41	0	815792128	42	6085
2026-01-22 01:28:59.73	128.00	16.24	-34.9	-35.5	25.8	0.00e+00	0	41	0	822083584	42	6081
2026-01-22 01:29:00.73	127.93	16.34	-34.8	-35.4	25.9	0.00e+00	0	41	0	827326464	42	6033
2026-01-22 01:29:01.74	127.87	16.45	-34.8	-35.5	25.8	0.00e+00	0	41	0	832569344	42	6035
2026-01-22 01:29:02.75	127.80	16.56	-34.7	-35.4	25.9	0.00e+00	0	41	0	838860800	42	5976
2026-01-22 01:29:03.76	127.74	16.67	-34.7	-35.3	25.9	0.00e+00	0	41	0	844103680	42	5930
2026-01-22 01:29:04.77	127.67	16.78	-34.7	-35.4	25.9	0.00e+00	0	41	0	850395136	42	5987
2026-01-22 01:29:05.78	127.60	16.90	-34.7	-35.3	25.9	0.00e+00	0	41	0	855638016	42	5956
2026-01-22 01:29:06.79	127.53	17.01	-34.7	-35.3	25.9	0.00e+00	0	41	0	861929472	42	5931
2026-01-22 01:29:07.80	127.47	17.12	-34.8	-35.5	25.8	0.00e+00	0	41	0	867172352	42	6052
2026-01-22 01:29:08.81	127.40	17.23	-34.7	-35.4	26.0	0.00e+00	0	41	0	872415232	42	6005
2026-01-22 01:29:09.82	127.33	17.35	-34.6	-35.3	26.0	0.00e+00	0	41	0	878706688	42	5916
2026-01-22 01:29:10.83	127.26	17.46	-34.6	-35.2	26.1	0.00e+00	0	41	0	883949568	42	5861
2026-01-22 01:29:11.84	127.19	17.58	-34.6	-35.2	26.0	0.00e+00	0	41	0	890241024	42	5889
2026-01-22 01:29:12.85	127.12	17.69	-34.6	-35.2	26.0	0.00e+00	0	41	0	895483904	42	5885
2026-01-22 01:29:13.86	127.04	17.81	-34.4	-35.0	26.2	0.00e+00	0	41	0	900726784	42	5747
2026-01-22 01:29:14.87	126.97	17.92	-34.4	-35.0	26.2	0.00e+00	0	41	0	907018240	42	5716
2026-01-22 01:29:15.88	126.90	18.04	-34.4	-35.0	26.3	0.00e+00	0	41	0	912261120	42	5714
2026-01-22 01:29:16.89	126.83	18.15	-34.3	-35.0	26.2	0.00e+00	0	41	0	918552576	42	5707
2026-01-22 01:29:17.90	126.75	18.27	-34.3	-34.9	26.3	0.00e+00	0	41	0	923795456	42	5683
2026-01-22 01:29:18.91	126.68	18.39	-34.1	-34.8	26.3	0.00e+00	0	41	0	929038336	42	5572
2026-01-22 01:29:19.92	126.60	18.51	-34.0	-34.6	26.5	0.00e+00	0	41	0	935329792	42	5487
2026-01-22 01:29:20.93	126.53	18.63	-34.1	-34.7	26.5	0.00e+00	0	41	0	940572672	42	5557
2026-01-22 01:29:21.95	126.45	18.75	-33.9	-34.6	26.6	0.00e+00	0	41	0	946864128	42	5446
2026-01-22 01:29:22.96	126.37	18.87	-33.9	-34.5	26.7	0.00e+00	0	41	0	952107008	42	5392
2026-01-22 01:29:23.97	126.29	18.99	-33.9	-34.6	26.6	0.00e+00	0	41	0	958398464	42	5458
2026-01-22 01:29:24.98	126.22	19.11	-33.8	-34.5	26.7	0.00e+00	0	41	0	963641344	42	5386
2026-01-22 01:29:25.99	126.14	19.23	-33.8	-34.5	26.7	0.00e+00	0	41	0	969932800	42	5380
2026-01-22 01:29:27.00	126.06	19.35	-33.9	-34.6	26.6	0.00e+00	0	41	0	975175680	42	5460
2026-01-22 01:29:28.01	125.98	19.48	-34.0	-34.6	26.6	0.00e+00	0	41	0	980418560	42	5466
2026-01-22 01:29:29.02	125.90	19.60	-34.0	-34.6	26.7	0.00e+00	0	41	0	986710016	42	5471
2026-01-22 01:29:30.03	125.82	19.72	-33.9	-34.6	26.7	0.00e+00	0	41	0	991952896	42	5470
2026-01-22 01:29:31.04	125.73	19.85	-34.0	-34.6	26.7	0.00e+00	0	41	0	998244352	42	5480
2026-01-22 01:29:32.05	125.65	19.97	-33.9	-34.5	26.7	0.00e+00	0	41	0	1003487232	42	5435
2026-01-22 01:29:33.06	125.57	20.10	-33.9	-34.5	26.7	0.00e+00	0	41	0	1008730112	42	5393
2026-01-22 01:29:34.07	125.48	20.22	-34.0	-34.6	26.6	0.00e+00	0	41	0	1015021568	42	5449
2026-01-22 01:29:35.08	125.40	20.35	-34.0	-34.6	26.6	0.00e+00	0	41	0	1020264448	42	5472
2026-01-22 01:29:36.09	125.31	20.48	-33.9	-34.5	26.8	0.00e+00	0	41	0	1026555904	42	5422
2026-01-22 01:29:37.09	125.23	20.60	-33.6	-34.2	26.8	0.00e+00	0	41	0	1031798784	40	5877
2026-01-22 01:29:38.10	125.14	20.73	-33.6	-34.3	26.9	0.00e+00	0	41	0	1037041664	40	5904
2026-01-22 01:29:39.11	125.05	20.86	-33.6	-34.2	27.0	0.00e+00	0	41	0	1043333120	40	5890
2026-01-22 01:29:40.13	124.96	20.99	-33.4	-34.0	27.2	0.00e+00	0	41	0	1048576000	40	5726
2026-01-22 01:29:41.13	124.87	21.12	-33.5	-34.1	27.1	0.00e+00	0	41	0	1054867456	40	5802
2026-01-22 01:29:42.14	124.78	21.25	-33.5	-34.2	27.0	0.00e+00	0	41	0	1060110336	40	5835
2026-01-22 01:29:43.15	124.69	21.38	-33.5	-34.1	27.0	0.00e+00	0	41	0	1066401792	40	5807
2026-01-22 01:29:44.16	124.60	21.51	-33.6	-34.3	26.8	0.00e+00	0	41	0	1071644672	40	5898
2026-01-22 01:29:45.17	124.50	21.65	-33.5	-34.1	27.0	0.00e+00	0	41	0	1077936128	40	5815
2026-01-22 01:29:46.18	124.41	21.78	-33.5	-34.2	27.0	0.00e+00	0	41	0	1083179008	40	5829
2026-01-22 01:29:47.19	124.32	21.91	-33.7	-34.3	26.9	0.00e+00	0	41	0	1088421888	40	5948
2026-01-22 01:29:48.20	124.22	22.05	-33.5	-34.1	27.0	0.00e+00	0	41	0	1094713344	40	5811
2026-01-22 01:29:49.21	124.12	22.18	-33.5	-34.1	27.0	0.00e+00	0	41	0	1099956224	40	5820
2026-01-22 01:29:50.22	124.03	22.32	-33.6	-34.2	26.9	0.00e+00	0	41	0	1106247680	40	5873
2026-01-22 01:29:51.23	123.93	22.45	-33.6	-34.3	27.0	0.00e+00	0	41	0	1111490560	40	5916
2026-01-22 01:29:52.25	123.83	22.59	-33.8	-34.4	26.9	0.00e+00	0	41	0	1116733440	40	6009
2026-01-22 01:29:53.26	123.73	22.73	-33.4	-34.1	27.2	0.00e+00	0	41	0	1123024896	40	5764
2026-01-22 01:29:54.27	123.63	22.87	-33.4	-34.0	27.1	0.00e+00	0	41	0	1128267776	40	5744
2026-01-22 01:29:55.28	123.53	23.01	-33.4	-34.0	27.2	0.00e+00	0	41	0	1134559232	40	5710
2026-01-22 01:29:56.29	123.43	23.14	-33.2	-33.9	27.2	0.00e+00	0	41	0	1139802112	40	5638
2026-01-22 01:29:57.30	123.32	23.28	-33.2	-33.8	27.3	0.00e+00	0	41	0	1145044992	40	5626
2026-01-22 01:29:58.31	123.22	23.43	-33.3	-33.9	27.3	0.00e+00	0	41	0	1151336448	40	5684
2026-01-22 01:29:59.32	123.11	23.57	-33.0	-33.7	27.4	0.00e+00	0	41	0	1156579328	40	5504
2026-01-22 01:30:00.33	123.01	23.71	-33.0	-33.6	27.5	0.00e+00	0	41	0	1162870784	40	5476
2026-01-22 01:30:01.33	122.90	23.85	-33.0	-33.6	27.5	0.00e+00	0	41	0	1168113664	40	5471
2026-01-22 01:30:02.34	122.79	23.99	-32.9	-33.5	27.6	0.00e+00	0	41	0	1174405120	40	5432
2026-01-22 01:30:03.35	122.68	24.14	-32.9	-33.5	27.5	0.00e+00	0	41	0	1179648000	40	5421
2026-01-22 01:30:04.36	122.57	24.28	-32.9	-33.5	27.6	0.00e+00	0	41	0	1184890880	40	5386
2026-01-22 01:30:05.37	122.46	24.43	-33.0	-33.6	27.5	0.00e+00	0	41	0	1191182336	40	5474
2026-01-22 01:30:06.38	122.35	24.57	-32.9	-33.5	27.5	0.00e+00	0	41	0	1196425216	40	5416
2026-01-22 01:30:07.39	122.23	24.72	-32.8	-33.4	27.6	0.00e+00	0	41	0	1202716672	40	5374
2026-01-22 01:30:08.40	122.12	24.87	-32.9	-33.5	27.5	0.00e+00	0	41	0	1207959552	40	5396
2026-01-22 01:30:09.41	122.00	25.02	-33.0	-33.6	27.5	0.00e+00	0	41	0	1213202432	40	5465
2026-01-22 01:30:10.42	121.89	25.16	-33.0	-33.7	27.4	0.00e+00	0	41	0	1219493888	40	5504
2026-01-22 01:30:11.43	121.77	25.31	-33.2	-33.8	27.4	0.00e+00	0	41	0	1224736768	40	5581
2026-01-22 01:30:12.43	121.65	25.46	-33.1	-33.7	27.5	0.00e+00	0	41	0	1231028224	40	5524
2026-01-22 01:30:13.44	121.53	25.61	-33.1	-33.7	27.4	0.00e+00	0	41	0	1236271104	40	5566
2026-01-22 01:30:14.45	121.41	25.77	-33.4	-34.0	26.9	0.00e+00	0	41	0	1241513984	40	5721
2026-01-22 01:30:15.46	121.29	25.92	-33.3	-33.9	27.3	0.00e+00	0	41	0	1247805440	40	5677
2026-01-22 01:30:16.47	121.16	26.07	-33.2	-33.8	27.4	0.00e+00	0	41	0	1253048320	40	5603
2026-01-22 01:30:17.48	121.04	26.22	-33.1	-33.8	27.4	0.00e+00	0	41	0	1259339776	40	5578
2026-01-22 01:30:18.49	120.91	26.38	-33.2	-33.8	27.3	0.00e+00	0	41	0	1264582656	40	5604
2026-01-22 01:30:19.50	120.78	26.53	-33.1	-33.8	27.4	0.00e+00	0	41	0	1270874112	40	5579
2026-01-22 01:30:20.51	120.65	26.69	-33.0	-33.6	27.5	0.00e+00	0	41	0	1276116992	40	5463
2026-01-22 01:30:21.52	120.52	26.85	-33.1	-33.7	27.4	0.00e+00	0	41	0	1282408448	40	5536
2026-01-22 01:30:22.53	120.39	27.01	-33.0	-33.7	27.5	0.00e+00	0	41	0	1287651328	40	5511
2026-01-22 01:30:23.54	120.26	27.16	-33.1	-33.7	27.5	0.00e+00	0	41	0	1292894208	40	5561
2026-01-22 01:30:24.55	120.12	27.32	-33.1	-33.7	27.5	0.00e+00	0	41	0	1299185664	40	5522
2026-01-22 01:30:25.56	119.99	27.48	-33.4	-34.1	27.2	0.00e+00	0	41	0	1304428544	40	5762
2026-01-22 01:30:26.57	119.85	27.64	-33.2	-33.8	27.4	0.00e+00	0	41	0	1310720000	40	5613
2026-01-22 01:30:27.58	119.71	27.80	-33.3	-34.0	27.3	0.00e+00	0	41	0	1315962880	40	5717
2026-01-22 01:30:28.59	119.57	27.97	-33.3	-33.9	27.3	0.00e+00	0	41	0	1321205760	40	5677
2026-01-22 01:30:29.59	119.43	28.13	-33.2	-33.9	27.4	0.00e+00	0	41	0	1327497216	40	5644
2026-01-22 01:30:30.60	119.29	28.29	-33.1	-33.7	27.5	0.00e+00	0	41	0	1332740096	40	5537
2026-01-22 01:30:31.61	119.15	28.46	-33.1	-33.7	27.5	0.00e+00	0	41	0	1337982976	40	5564
2026-01-22 01:30:32.62	119.00	28.62	-33.1	-33.7	27.5	0.00e+00	0	41	0	1344274432	40	5539
2026-01-22 01:30:33.63	118.85	28.79	-32.8	-33.4	27.7	0.00e+00	0	41	0	1349517312	40	5360
2026-01-22 01:30:34.64	118.70	28.95	-32.8	-33.4	27.7	0.00e+00	0	41	0	1355808768	38	6007
2026-01-22 01:30:35.65	118.55	29.12	-32.7	-33.4	27.8	0.00e+00	0	41	0	1361051648	38	5974
2026-01-22 01:30:36.66	118.40	29.29	-32.9	-33.5	27.6	0.00e+00	0	41	0	1367343104	38	6060
2026-01-22 01:30:37.67	118.25	29.46	-32.8	-33.5	27.7	0.00e+00	0	41	0	1372585984	38	6035
2026-01-22 01:30:38.68	118.09	29.63	-32.8	-33.4	27.7	0.00e+00	0	41	0	1378877440	38	5976
2026-01-22 01:30:39.69	117.94	29.80	-32.9	-33.5	27.7	0.00e+00	0	41	0	1384120320	38	6043
2026-01-22 01:30:40.70	117.78	29.97	-33.0	-33.6	27.6	0.00e+00	0	41	0	1389363200	38	6137
2026-01-22 01:30:41.71	117.62	30.14	-33.0	-33.6	27.6	0.00e+00	0	41	0	1395654656	38	6136
2026-01-22 01:30:42.72	117.45	30.31	-33.0	-33.6	27.6	0.00e+00	0	41	0	1400897536	38	6130
2026-01-22 01:30:43.73	117.29	30.49	-32.8	-33.5	27.7	0.00e+00	0	41	0	1407188992	38	6038
2026-01-22 01:30:44.74	117.12	30.66	-32.8	-33.5	27.7	0.00e+00	0	41	0	1412431872	38	6046
2026-01-22 01:30:45.75	116.96	30.84	-32.6	-33.3	27.8	0.00e+00	0	41	0	1417674752	38	5942
2026-01-22 01:30:46.76	116.79	31.01	-32.7	-33.3	27.8	0.00e+00	0	41	0	1423966208	38	5956
2026-01-22 01:30:47.77	116.62	31.19	-32.4	-33.0	27.9	0.00e+00	0	41	0	1429209088	38	5741
2026-01-22 01:30:48.78	116.44	31.37	-32.5	-33.1	27.9	0.00e+00	0	41	0	1435500544	38	5790
2026-01-22 01:30:49.79	116.27	31.54	-32.2	-32.8	28.2	0.00e+00	0	41	0	1440743424	38	5621
2026-01-22 01:30:50.81	116.09	31.73	-32.3	-32.9	28.1	0.00e+00	0	41	0	1445986304	38	5651
2026-01-22 01:30:51.81	115.91	31.90	-32.3	-32.9	28.1	0.00e+00	0	41	0	1452277760	38	5681
2026-01-22 01:30:52.83	115.73	32.09	-32.3	-33.0	28.1	0.00e+00	0	41	0	1457520640	38	5710
2026-01-22 01:30:53.84	115.54	32.27	-32.4	-33.0	28.1	0.00e+00	0	41	0	1463812096	38	5724
2026-01-22 01:30:54.85	115.36	32.45	-32.5	-33.1	28.0	0.00e+00	0	41	0	1469054976	38	5805
2026-01-22 01:30:55.85	115.17	32.63	-32.6	-33.1	27.9	0.00e+00	0	41	0	1475346432	38	5819
2026-01-22 01:30:56.87	114.98	32.82	-32.5	-33.2	28.0	0.00e+00	0	41	0	1480589312	38	5836
2026-01-22 01:30:57.87	114.79	33.00	-32.3	-32.9	28.2	0.00e+00	0	41	0	1486880768	38	5644
2026-01-22 01:30:58.89	114.59	33.18	-32.1	-32.7	28.3	0.00e+00	0	41	0	1492123648	38	5539
2026-01-22 01:30:59.90	114.40	33.37	-32.1	-32.7	28.3	0.00e+00	0	41	0	1497366528	38	5525
2026-01-22 01:31:00.91	114.20	33.56	-32.0	-32.6	28.3	0.00e+00	0	41	0	1503657984	38	5442
2026-01-22 01:31:01.92	114.00	33.74	-32.0	-32.6	28.4	0.00e+00	0	41	0	1508900864	38	5447
2026-01-22 01:31:02.93	113.80	33.93	-32.0	-32.6	28.4	0.00e+00	0	41	0	1515192320	38	5496
2026-01-22 01:31:03.93	113.59	34.12	-32.1	-32.7	28.2	0.00e+00	0	41	0	1520435200	38	5543
2026-01-22 01:31:04.94	113.38	34.31	-32.3	-32.9	28.2	0.00e+00	0	41	0	1525678080	38	5692
2026-01-22 01:31:05.95	113.17	34.50	-32.2	-32.8	28.2	0.00e+00	0	41	0	1531969536	38	5568
2026-01-22 01:31:06.96	112.96	34.69	-32.1	-32.7	28.2	0.00e+00	0	41	0	1537212416	38	5540
2026-01-22 01:31:07.97	112.74	34.88	-32.1	-32.7	28.3	0.00e+00	0	41	0	1543503872	38	5538
2026-01-22 01:31:08.98	112.53	35.07	-32.3	-32.9	28.2	0.00e+00	0	41	0	1548746752	38	5652
2026-01-22 01:31:09.99	112.30	35.27	-32.2	-32.8	28.3	0.00e+00	0	41	0	1553989632	38	5586
2026-01-22 01:31:11.00	112.08	35.46	-32.2	-32.8	28.2	0.00e+00	0	41	0	1560281088	38	5598
2026-01-22 01:31:12.01	111.86	35.66	-32.1	-32.7	28.3	0.00e+00	0	41	0	1565523968	38	5539
2026-01-22 01:31:13.02	111.63	35.85	-32.2	-32.8	28.2	0.00e+00	0	41	0	1571815424	38	5587
2026-01-22 01:31:14.03	111.39	36.05	-32.4	-33.0	28.0	0.00e+00	0	41	0	1577058304	38	5729
2026-01-22 01:31:15.04	111.16	36.24	-32.5	-33.1	28.0	0.00e+00	0	41	0	1583349760	38	5791
2026-01-22 01:31:16.05	110.92	36.44	-32.5	-33.1	28.0	0.00e+00	0	41	0	1588592640	38	5800
2026-01-22 01:31:17.06	110.68	36.64	-32.4	-33.0	28.1	0.00e+00	0	41	0	1593835520	38	5728
2026-01-22 01:31:18.08	110.44	36.84	-32.5	-33.2	28.0	0.00e+00	0	41	0	1600126976	38	5834
2026-01-22 01:31:19.09	110.19	37.04	-32.2	-32.7	28.3	0.00e+00	0	41	0	1605369856	38	5554
2026-01-22 01:31:20.10	109.94	37.24	-32.1	-32.7	28.2	0.00e+00	0	41	0	1611661312	38	5519
2026-01-22 01:31:21.11	109.69	37.44	-32.2	-32.9	28.2	0.00e+00	0	41	0	1616904192	38	5636
2026-01-22 01:31:22.12	109.43	37.64	-32.3	-32.9	28.1	0.00e+00	0	41	0	1623195648	38	5640
2026-01-22 01:31:23.13	109.17	37.84	-32.2	-32.8	28.2	0.00e+00	0	41	0	1628438528	38	5585
2026-01-22 01:31:24.14	108.91	38.04	-32.3	-32.8	28.2	0.00e+00	0	41	0	1633681408	38	5625
2026-01-22 01:31:25.15	108.64	38.24	-32.4	-33.0	28.1	0.00e+00	0	41	0	1639972864	38	5716
2026-01-22 01:31:26.16	108.38	38.44	-32.5	-33.1	28.0	0.00e+00	0	41	0	1645215744	38	5780
2026-01-22 01:31:27.17	108.10	38.65	-32.4	-33.0	28.0	0.00e+00	0	41	0	1651507200	38	5759
2026-01-22 01:31:28.18	107.83	38.85	-32.5	-33.1	28.0	0.00e+00	0	41	0	1656750080	38	5821
2026-01-22 01:31:29.20	107.55	39.06	-32.2	-32.8	28.3	0.00e+00	0	41	0	1661992960	38	5615
2026-01-22 01:31:30.21	107.26	39.26	-32.3	-32.9	28.2	0.00e+00	0	41	0	1668284416	38	5656
2026-01-22 01:31:31.22	106.98	39.46	-32.3	-32.9	28.1	0.00e+00	0	41	0	1673527296	38	5635
2026-01-22 01:31:32.23	106.69	39.67	-32.3	-32.9	28.1	0.00e+00	0	41	0	1679818752	38	5658
2026-01-22 01:31:33.24	106.39	39.88	-32.4	-33.0	28.1	0.00e+00	0	41	0	1685061632	38	5740
2026-01-22 01:31:34.25	106.10	40.08	-32.4	-33.0	28.0	0.00e+00	0	41	0	1691353088	38	5740
2026-01-22 01:31:35.26	105.79	40.29	-32.4	-33.0	28.1	0.00e+00	0	41	0	1696595968	38	5741
2026-01-22 01:31:36.27	105.49	40.49	-32.4	-33.0	28.2	0.00e+00	0	41	0	1702887424	38	5729
2026-01-22 01:31:37.28	105.18	40.70	-32.5	-33.1	28.1	0.00e+00	0	41	0	1708130304	38	5785
2026-01-22 01:31:38.29	104.87	40.91	-32.5	-33.2	28.1	0.00e+00	0	41	0	1713373184	38	5839
2026-01-22 01:31:39.30	104.55	41.11	-32.8	-33.4	27.8	0.00e+00	0	41	0	1719664640	38	6031
2026-01-22 01:31:40.31	104.23	41.32	-32.8	-33.4	27.7	0.00e+00	0	41	0	1724907520	38	5990
2026-01-22 01:31:41.32	103.90	41.53	-32.6	-33.2	28.0	0.00e+00	0	41	0	1731198976	38	5831
2026-01-22 01:31:42.33	103.57	41.74	-32.4	-33.0	28.1	0.00e+00	0	41	0	1736441856	38	5745
2026-01-22 01:31:43.34	103.24	41.94	-32.3	-32.9	28.2	0.00e+00	0	41	0	1741684736	38	5632
2026-01-22 01:31:44.35	102.90	42.15	-32.2	-32.8	28.2	0.00e+00	0	41	0	1747976192	38	5602
2026-01-22 01:31:45.36	102.56	42.36	-32.3	-32.9	28.1	0.00e+00	0	41	0	1753219072	38	5663
2026-01-22 01:31:46.37	102.21	42.57	-32.5	-33.1	28.1	0.00e+00	0	41	0	1759510528	38	5786
2026-01-22 01:31:47.38	101.86	42.77	-32.7	-33.3	27.9	0.00e+00	0	41	0	1764753408	38	5946
2026-01-22 01:31:48.39	101.50	42.98	-32.5	-33.1	28.0	0.00e+00	0	41	0	1769996288	38	5785
2026-01-22 01:31:49.39	101.14	43.19	-32.4	-33.0	28.1	0.00e+00	0	41	0	1776287744	38	5756
2026-01-22 01:31:50.40	100.78	43.39	-32.2	-32.8	28.3	0.00e+00	0	41	0	1781530624	38	5606
2026-01-22 01:31:51.41	100.41	43.60	-32.1	-32.7	28.3	0.00e+00	0	41	0	1787822080	38	5548
2026-01-22 01:31:52.42	100.03	43.81	-32.3	-32.9	28.1	0.00e+00	0	41	0	1793064960	38	5631
2026-01-22 01:31:53.43	99.65	44.01	-32.4	-33.0	28.2	0.00e+00	0	41	0	1799356416	38	5720
2026-01-22 01:31:54.44	99.26	44.22	-32.3	-32.9	28.3	0.00e+00	0	41	0	1804599296	38	5664
2026-01-22 01:31:55.45	98.87	44.43	-32.2	-32.8	28.3	0.00e+00	0	41	0	1809842176	38	5622
2026-01-22 01:31:56.46	98.48	44.63	-32.3	-32.9	28.0	0.00e+00	0	41	0	1816133632	38	5677
2026-01-22 01:31:57.47	98.08	44.84	-32.6	-33.3	28.0	0.00e+00	0	41	0	1821376512	38	5899
2026-01-22 01:31:58.49	97.67	45.04	-32.7	-33.4	27.8	0.00e+00	0	41	0	1827667968	38	5984
2026-01-22 01:31:59.49	97.26	45.24	-32.7	-33.3	27.9	0.00e+00	0	41	0	1832910848	38	5936
2026-01-22 01:32:00.50	96.84	45.45	-32.7	-33.2	27.9	0.00e+00	0	41	0	1838153728	38	5887
2026-01-22 01:32:01.51	96.42	45.65	-32.5	-33.2	28.0	0.00e+00	0	41	0	1844445184	38	5831
2026-01-22 01:32:02.52	96.00	45.85	-32.6	-33.2	28.0	0.00e+00	0	41	0	1849688064	38	5884
2026-01-22 01:32:03.53	95.56	46.05	-32.7	-33.4	27.9	0.00e+00	0	41	0	1855979520	38	5977
2026-01-22 01:32:04.54	95.12	46.25	-32.9	-33.5	27.7	0.00e+00	0	41	0	1861222400	38	6049
2026-01-22 01:32:05.55	94.68	46.45	-32.8	-33.4	27.9	0.00e+00	0	41	0	1866465280	38	6008
2026-01-22 01:32:06.56	94.23	46.65	-32.9	-33.5	27.8	0.00e+00	0	41	0	1872756736	38	6093
2026-01-22 01:32:07.57	93.77	46.85	-33.0	-33.6	27.8	0.00e+00	0	41	0	1877999616	38	6169
2026-01-22 01:32:08.58	93.31	47.04	-33.1	-33.8	27.6	0.00e+00	0	41	0	1884291072	38	6247
2026-01-22 01:32:09.59	92.85	47.24	-33.3	-33.9	27.6	0.00e+00	0	41	0	1889533952	38	6329
2026-01-22 01:32:10.60	92.37	47.43	-33.0	-33.7	27.7	0.00e+00	0	41	0	1895825408	38	6174
2026-01-22 01:32:11.60	91.90	47.62	-33.0	-33.6	27.8	0.00e+00	0	41	0	1901068288	38	6126
2026-01-22 01:32:12.62	91.41	47.81	-33.1	-33.7	27.6	0.00e+00	0	41	0	1906311168	38	6243
2026-01-22 01:32:13.62	90.92	48.00	-33.4	-34.0	27.4	0.00e+00	0	41	0	1912602624	38	6423
2026-01-22 01:32:14.63	90.43	48.19	-33.3	-34.0	27.4	0.00e+00	0	41	0	1917845504	38	6401
2026-01-22 01:32:15.64	89.92	48.37	-33.3	-33.9	27.5	0.00e+00	0	41	0	1924136960	38	6353
2026-01-22 01:32:16.65	89.41	48.56	-33.3	-34.0	27.5	0.00e+00	0	41	0	1929379840	38	6403
2026-01-22 01:32:17.66	88.90	48.74	-33.1	-33.7	27.7	0.00e+00	0	41	0	1934622720	38	6230
2026-01-22 01:32:18.67	88.38	48.92	-33.3	-33.9	27.5	0.00e+00	0	41	0	1940914176	38	6367
2026-01-22 01:32:19.68	87.85	49.10	-33.8	-34.4	27.1	0.00e+00	0	41	0	1946157056	38	6727
2026-01-22 01:32:20.69	87.32	49.28	-33.8	-34.4	27.1	0.00e+00	0	41	0	1952448512	40	6026
2026-01-22 01:32:21.70	86.78	49.46	-33.4	-34.1	27.4	0.00e+00	0	41	0	1957691392	40	5775
2026-01-22 01:32:22.71	86.23	49.63	-33.3	-33.9	27.4	0.00e+00	0	41	0	1962934272	40	5691
2026-01-22 01:32:23.72	85.68	49.80	-33.5	-34.1	27.3	0.00e+00	0	41	0	1969225728	40	5774
2026-01-22 01:32:24.73	85.12	49.97	-33.6	-34.2	27.2	0.00e+00	0	41	0	1974468608	40	5871
2026-01-22 01:32:25.74	84.56	50.14	-33.6	-34.3	27.2	0.00e+00	0	41	0	1980760064	40	5914
2026-01-22 01:32:26.75	83.98	50.30	-33.4	-34.0	27.4	0.00e+00	0	41	0	1986002944	40	5724
2026-01-22 01:32:27.76	83.41	50.46	-33.4	-34.0	27.4	0.00e+00	0	41	0	1992294400	40	5757
2026-01-22 01:32:28.77	82.82	50.62	-33.4	-34.0	27.4	0.00e+00	0	41	0	1997537280	40	5735
2026-01-22 01:32:29.78	82.23	50.78	-33.5	-34.2	27.3	0.00e+00	0	41	0	2003828736	40	5847
2026-01-22 01:32:30.79	81.64	50.93	-33.7	-34.3	27.1	0.00e+00	0	41	0	2009071616	40	5963
2026-01-22 01:32:31.80	81.04	51.08	-33.6	-34.2	27.2	0.00e+00	0	41	0	2014314496	40	5879
2026-01-22 01:32:32.81	80.43	51.23	-33.6	-34.2	27.2	0.00e+00	0	41	0	2020605952	40	5895
2026-01-22 01:32:33.82	79.82	51.38	-33.4	-34.0	27.4	0.00e+00	0	41	0	2025848832	40	5736
2026-01-22 01:32:34.83	79.20	51.52	-33.5	-34.1	27.4	0.00e+00	0	41	0	2032140288	40	5792
2026-01-22 01:32:35.84	78.57	51.66	-33.2	-33.8	27.5	0.00e+00	0	41	0	2037383168	40	5616
2026-01-22 01:32:36.85	77.94	51.79	-33.3	-33.9	27.6	0.00e+00	0	41	0	2042626048	40	5662
2026-01-22 01:32:37.86	77.30	51.92	-33.1	-33.7	27.6	0.00e+00	0	41	0	2048917504	40	5538
2026-01-22 01:32:38.87	76.66	52.05	-33.1	-33.7	27.7	0.00e+00	0	41	0	2054160384	40	5535
2026-01-22 01:32:39.88	76.01	52.18	-33.0	-33.6	27.7	0.00e+00	0	41	0	2060451840	40	5468
2026-01-22 01:32:40.89	75.36	52.30	-33.1	-33.7	27.7	0.00e+00	0	41	0	2065694720	40	5543
2026-01-22 01:32:41.90	74.70	52.42	-32.8	-33.4	27.9	0.00e+00	0	41	0	2070937600	40	5373
2026-01-22 01:32:42.91	74.03	52.53	-32.6	-33.2	28.0	0.00e+00	0	41	0	2077229056	38	5885
2026-01-22 01:32:43.92	73.37	52.64	-32.9	-33.5	27.9	0.00e+00	0	41	0	2082471936	38	6089
2026-01-22 01:32:44.93	72.69	52.75	-33.4	-34.0	27.5	0.00e+00	0	41	0	2088763392	38	6416
2026-01-22 01:32:45.94	72.01	52.86	-33.3	-34.0	27.5	0.00e+00	0	41	0	2094006272	38	6405
2026-01-22 01:32:46.95	71.33	52.95	-33.2	-33.8	27.6	0.00e+00	0	41	0	2100297728	38	6277
2026-01-22 01:32:47.96	70.64	53.05	-32.9	-33.5	27.8	0.00e+00	0	41	0	2105540608	38	6083
2026-01-22 01:32:48.97	69.95	53.14	-33.0	-33.6	27.8	0.00e+00	0	41	0	2110783488	38	6124
2026-01-22 01:32:49.98	69.25	53.23	-33.1	-33.7	27.7	0.00e+00	0	41	0	2117074944	38	6242
2026-01-22 01:32:50.99	68.55	53.31	-32.9	-33.5	27.8	0.00e+00	0	41	0	2122317824	38	6070
2026-01-22 01:32:52.00	67.84	53.39	-33.2	-33.8	27.6	0.00e+00	0	41	0	2128609280	38	6298
2026-01-22 01:32:53.01	67.13	53.46	-33.5	-34.1	27.3	0.00e+00	0	41	0	2133852160	38	6495
2026-01-22 01:32:54.02	66.42	53.53	-33.3	-34.0	27.4	0.00e+00	0	41	0	2140143616	38	6392
2026-01-22 01:32:55.03	65.71	53.60	-33.2	-33.8	27.5	0.00e+00	0	41	0	2145386496	38	6312
2026-01-22 01:32:56.04	64.99	53.66	-33.6	-34.3	27.3	0.00e+00	0	41	0	2150629376	38	6616
2026-01-22 01:32:57.05	64.27	53.72	-33.6	-34.2	27.3	0.00e+00	0	41	0	2156920832	38	6606
2026-01-22 01:32:58.06	63.54	53.77	-33.6	-34.2	27.3	0.00e+00	0	41	0	2162163712	38	6606
2026-01-22 01:32:59.06	62.82	53.81	-33.4	-34.0	27.5	0.00e+00	0	41	0	2167406592	38	6401
2026-01-22 01:33:00.08	62.08	53.86	-33.4	-34.0	27.4	0.00e+00	0	41	0	2173698048	38	6459
2026-01-22 01:33:01.08	61.36	53.89	-33.5	-34.2	27.3	0.00e+00	0	41	0	2178940928	38	6553
2026-01-22 01:33:02.09	60.63	53.93	-33.6	-34.3	27.3	0.00e+00	0	41	0	2185232384	38	6635
2026-01-22 01:33:03.11	59.89	53.96	-33.3	-33.9	27.5	0.00e+00	0	41	0	2190475264	38	6352
2026-01-22 01:33:04.11	59.16	53.98	-33.3	-33.8	27.4	0.00e+00	0	41	0	2196766720	38	6316
2026-01-22 01:33:05.13	58.41	54.00	-33.3	-33.9	27.4	0.00e+00	0	41	0	2202009600	38	6352
2026-01-22 01:33:06.13	57.68	54.01	-33.3	-33.9	27.4	0.00e+00	0	41	0	2207252480	38	6370
2026-01-22 01:33:07.14	56.94	54.02	-33.4	-34.0	27.4	0.00e+00	0	41	0	2213543936	38	6460
2026-01-22 01:33:08.15	56.21	54.03	-33.7	-34.3	27.2	0.00e+00	0	41	0	2218786816	38	6684
2026-01-22 01:33:09.17	55.46	54.03	-33.7	-34.3	27.1	0.00e+00	0	41	0	2225078272	40	5917
2026-01-22 01:33:10.18	54.72	54.02	-33.6	-34.2	27.3	0.00e+00	0	41	0	2230321152	40	5832
2026-01-22 01:33:11.19	53.98	54.01	-33.2	-33.8	27.6	0.00e+00	0	41	0	2236612608	40	5585
2026-01-22 01:33:12.19	53.25	54.00	-33.0	-33.7	27.6	0.00e+00	0	41	0	2241855488	40	5526
2026-01-22 01:33:13.20	52.52	53.98	-33.2	-33.9	27.4	0.00e+00	0	41	0	2247098368	40	5641
2026-01-22 01:33:14.22	51.77	53.95	-33.4	-34.1	27.2	0.00e+00	0	41	0	2253389824	40	5767
2026-01-22 01:33:15.22	51.05	53.92	-33.2	-33.9	27.4	0.00e+00	0	41	0	2258632704	40	5636
2026-01-22 01:33:16.23	50.31	53.89	-33.3	-33.9	27.4	0.00e+00	0	41	0	2264924160	40	5676
2026-01-22 01:33:17.24	49.58	53.85	-33.4	-33.9	27.4	0.00e+00	0	41	0	2270167040	40	5695
2026-01-22 01:33:18.26	48.85	53.81	-33.0	-33.6	27.7	0.00e+00	0	41	0	2275409920	40	5471
2026-01-22 01:33:19.26	48.13	53.76	-33.2	-33.8	27.5	0.00e+00	0	41	0	2281701376	40	5630
2026-01-22 01:33:20.27	47.41	53.71	-33.5	-34.2	27.3	0.00e+00	0	41	0	2286944256	40	5840
2026-01-22 01:33:21.29	46.68	53.65	-33.3	-33.9	27.5	0.00e+00	0	41	0	2293235712	40	5678
2026-01-22 01:33:22.30	45.96	53.59	-33.0	-33.7	27.8	0.00e+00	0	41	0	2298478592	40	5505
2026-01-22 01:33:23.31	45.25	53.52	-32.8	-33.4	27.8	0.00e+00	0	41	0	2303721472	40	5332
2026-01-22 01:33:24.32	44.53	53.45	-32.9	-33.5	27.8	0.00e+00	0	41	0	2310012928	40	5402
2026-01-22 01:33:25.33	43.83	53.38	-32.9	-33.6	27.7	0.00e+00	0	41	0	2315255808	40	5446
2026-01-22 01:33:26.34	43.12	53.30	-32.9	-33.4	27.8	0.00e+00	0	41	0	2321547264	40	5365
2026-01-22 01:33:27.35	42.42	53.21	-32.9	-33.5	27.9	0.00e+00	0	41	0	2326790144	38	6034
2026-01-22 01:33:28.36	41.73	53.12	-32.8	-33.5	27.9	0.00e+00	0	41	0	2333081600	38	6043
2026-01-22 01:33:29.37	41.03	53.03	-33.0	-33.6	27.8	0.00e+00	0	41	0	2338324480	38	6172
2026-01-22 01:33:30.38	40.35	52.94	-32.9	-33.5	27.9	0.00e+00	0	41	0	2344615936	38	6060
2026-01-22 01:33:31.39	39.67	52.84	-32.9	-33.5	27.9	0.00e+00	0	41	0	2349858816	38	6058
2026-01-22 01:33:32.40	38.99	52.73	-32.9	-33.5	27.8	0.00e+00	0	41	0	2355101696	38	6079
2026-01-22 01:33:33.41	38.31	52.63	-33.0	-33.6	27.7	0.00e+00	0	41	0	2361393152	38	6171
2026-01-22 01:33:34.42	37.65	52.51	-32.9	-33.5	27.9	0.00e+00	0	41	0	2366636032	38	6048
2026-01-22 01:33:35.43	36.98	52.40	-32.6	-33.2	28.0	0.00e+00	0	41	0	2372927488	38	5847
2026-01-22 01:33:36.44	36.33	52.28	-32.6	-33.2	28.1	0.00e+00	0	41	0	2378170368	38	5831
2026-01-22 01:33:37.45	35.67	52.16	-32.6	-33.1	28.1	0.00e+00	0	41	0	2383413248	38	5821
2026-01-22 01:33:38.46	35.03	52.03	-32.9	-33.5	27.8	0.00e+00	0	41	0	2389704704	38	6035
2026-01-22 01:33:39.47	34.39	51.90	-33.1	-33.8	27.8	0.00e+00	0	41	0	2394947584	38	6264
2026-01-22 01:33:40.49	33.75	51.77	-33.0	-33.7	27.7	0.00e+00	0	41	0	2401239040	38	6200
2026-01-22 01:33:41.49	33.12	51.63	-33.1	-33.7	27.6	0.00e+00	0	41	0	2406481920	38	6243
2026-01-22 01:33:42.50	32.50	51.49	-33.0	-33.5	27.6	0.00e+00	0	41	0	2411724800	38	6100
2026-01-22 01:33:43.51	31.88	51.35	-33.0	-33.6	27.8	0.00e+00	0	41	0	2418016256	38	6167
2026-01-22 01:33:44.53	31.26	51.20	-33.0	-33.7	27.7	0.00e+00	0	41	0	2423259136	38	6191
2026-01-22 01:33:45.53	30.66	51.06	-33.1	-33.8	27.7	0.00e+00	0	41	0	2429550592	38	6275
2026-01-22 01:33:46.54	30.06	50.91	-33.5	-34.1	27.4	0.00e+00	0	41	0	2434793472	38	6495
2026-01-22 01:33:47.56	29.46	50.75	-33.6	-34.1	27.3	0.00e+00	0	41	0	2441084928	38	6523
2026-01-22 01:33:48.57	28.88	50.59	-33.1	-33.6	27.8	0.00e+00	0	41	0	2446327808	38	6141
2026-01-22 01:33:49.58	28.30	50.43	-32.9	-33.5	27.8	0.00e+00	0	41	0	2452619264	38	6054
2026-01-22 01:33:50.58	27.73	50.27	-32.7	-33.3	28.0	0.00e+00	0	41	0	2457862144	38	5961
2026-01-22 01:33:51.60	27.15	50.11	-32.8	-33.5	27.8	0.00e+00	0	41	0	2463105024	38	6064
2026-01-22 01:33:52.61	26.59	49.94	-33.1	-33.7	27.7	0.00e+00	0	41	0	2469396480	38	6242
2026-01-22 01:33:53.61	26.04	49.77	-33.2	-33.9	27.5	0.00e+00	0	41	0	2474639360	38	6333
2026-01-22 01:33:54.62	25.49	49.60	-32.9	-33.5	27.9	0.00e+00	0	41	0	2480930816	38	6041
2026-01-22 01:33:55.63	24.94	49.43	-32.7	-33.2	28.0	0.00e+00	0	41	0	2486173696	38	5855
2026-01-22 01:33:56.64	24.41	49.25	-32.6	-33.2	28.1	0.00e+00	0	41	0	2491416576	38	5895
2026-01-22 01:33:57.65	23.87	49.08	-32.7	-33.3	28.0	0.00e+00	0	41	0	2497708032	38	5945
2026-01-22 01:33:58.66	23.35	48.90	-32.7	-33.4	27.9	0.00e+00	0	41	0	2502950912	38	6013
2026-01-22 01:33:59.67	22.83	48.72	-32.7	-33.2	28.1	0.00e+00	0	41	0	2509242368	38	5866
2026-01-22 01:34:00.69	22.31	48.53	-32.6	-33.2	28.1	0.00e+00	0	41	0	2514485248	38	5843
2026-01-22 01:34:01.69	21.81	48.35	-32.6	-33.2	28.0	0.00e+00	0	41	0	2519728128	38	5836
2026-01-22 01:34:02.70	21.31	48.16	-32.5	-33.0	28.1	0.00e+00	0	41	0	2526019584	38	5747
2026-01-22 01:34:03.72	20.81	47.97	-32.5	-33.0	28.1	0.00e+00	0	41	0	2531262464	38	5747
2026-01-22 01:34:04.73	20.32	47.78	-32.5	-33.1	28.0	0.00e+00	0	41	0	2537553920	38	5811
2026-01-22 01:34:05.73	19.84	47.60	-32.3	-32.9	28.2	0.00e+00	0	41	0	2542796800	38	5680
2026-01-22 01:34:06.74	19.37	47.40	-32.3	-32.9	28.3	0.00e+00	0	41	0	2549088256	38	5653
2026-01-22 01:34:07.76	18.89	47.21	-32.1	-32.8	28.4	0.00e+00	0	41	0	2554331136	38	5602
2026-01-22 01:34:08.76	18.43	47.02	-32.2	-32.8	28.3	0.00e+00	0	41	0	2559574016	38	5629
2026-01-22 01:34:09.78	17.97	46.82	-32.1	-32.7	28.5	0.00e+00	0	41	0	2565865472	38	5531
2026-01-22 01:34:10.79	17.51	46.62	-32.1	-32.8	28.4	0.00e+00	0	41	0	2571108352	38	5605
2026-01-22 01:34:11.79	17.07	46.43	-32.4	-32.9	28.2	0.00e+00	0	41	0	2577399808	38	5681
2026-01-22 01:34:12.80	16.63	46.23	-32.3	-32.9	28.2	0.00e+00	0	41	0	2582642688	38	5653
2026-01-22 01:34:13.81	16.19	46.03	-32.4	-33.1	28.2	0.00e+00	0	41	0	2587885568	38	5772
2026-01-22 01:34:14.83	15.75	45.83	-32.3	-33.0	28.3	0.00e+00	0	41	0	2594177024	38	5732
2026-01-22 01:34:15.83	15.33	45.63	-32.3	-33.0	28.3	0.00e+00	0	41	0	2599419904	38	5736
2026-01-22 01:34:16.84	14.91	45.42	-32.2	-32.9	28.4	0.00e+00	0	41	0	2605711360	38	5675
2026-01-22 01:34:17.85	14.50	45.22	-32.2	-32.8	28.4	0.00e+00	0	41	0	2610954240	38	5603
2026-01-22 01:34:18.86	14.09	45.02	-31.9	-32.5	28.6	0.00e+00	0	41	0	2616197120	38	5395
2026-01-22 01:34:19.87	13.68	44.81	-31.9	-32.5	28.5	0.00e+00	0	41	0	2622488576	38	5436
2026-01-22 01:34:20.89	13.28	44.61	-32.0	-32.5	28.5	0.00e+00	0	41	0	2627731456	38	5435
2026-01-22 01:34:21.90	12.89	44.40	-32.0	-32.5	28.5	0.00e+00	0	41	0	2634022912	38	5424
2026-01-22 01:34:22.91	12.50	44.20	-32.2	-32.7	28.2	0.00e+00	0	41	0	2639265792	38	5562
2026-01-22 01:34:23.92	12.12	43.99	-32.2	-32.8	28.3	0.00e+00	0	41	0	2645557248	38	5585
2026-01-22 01:34:24.93	11.74	43.79	-32.2	-32.8	28.3	0.00e+00	0	41	0	2650800128	38	5572
2026-01-22 01:34:25.94	11.36	43.58	-32.2	-32.9	28.3	0.00e+00	0	41	0	2657091584	38	5671
2026-01-22 01:34:26.95	10.99	43.37	-31.9	-32.6	28.5	0.00e+00	0	41	0	2662334464	38	5458
2026-01-22 01:34:27.96	10.63	43.17	-31.9	-32.5	28.5	0.00e+00	0	41	0	2667577344	38	5427
2026-01-22 01:34:28.97	10.27	42.96	-32.0	-32.6	28.6	0.00e+00	0	41	0	2673868800	38	5491
2026-01-22 01:34:29.98	9.92	42.75	-32.0	-32.5	28.3	0.00e+00	0	41	0	2679111680	38	5432
2026-01-22 01:34:30.99	9.57	42.55	-32.4	-33.1	28.1	0.00e+00	0	41	0	2685403136	38	5811
2026-01-22 01:34:32.00	9.22	42.34	-32.2	-32.8	28.2	0.00e+00	0	41	0	2690646016	38	5570
2026-01-22 01:34:33.01	8.88	42.13	-32.1	-32.8	28.1	0.00e+00	0	41	0	2695888896	38	5568
2026-01-22 01:34:34.02	8.54	41.93	-32.2	-32.8	28.1	0.00e+00	0	41	0	2702180352	38	5608
2026-01-22 01:34:35.03	8.21	41.72	-32.0	-32.5	28.2	0.00e+00	0	41	0	2707423232	38	5417
2026-01-22 01:34:36.04	7.88	41.51	-32.2	-32.7	28.0	0.00e+00	0	41	0	2713714688	38	5525
2026-01-22 01:34:37.05	7.56	41.31	-32.2	-32.9	28.2	0.00e+00	0	41	0	2718957568	38	5641
2026-01-22 01:34:38.06	7.24	41.10	-32.3	-32.8	27.8	0.00e+00	0	41	0	2724200448	38	5596
2026-01-22 01:34:39.07	6.92	40.89	-32.1	-32.8	28.1	0.00e+00	0	41	0	2730491904	38	5587
2026-01-22 01:34:40.08	6.61	40.69	-32.1	-32.6	28.3	0.00e+00	0	41	0	2735734784	38	5492
2026-01-22 01:34:41.09	6.30	40.48	-31.7	-32.2	28.7	0.00e+00	0	41	0	2742026240	36	5884
2026-01-22 01:34:42.09	6.00	40.28	-31.6	-32.2	28.6	0.00e+00	0	41	0	2747269120	36	5883
2026-01-22 01:34:43.10	5.70	40.07	-31.9	-32.4	28.5	0.00e+00	0	41	0	2753560576	36	5973
2026-01-22 01:34:44.11	5.40	39.87	-31.7	-32.2	28.6	0.00e+00	0	41	0	2758803456	36	5873
2026-01-22 01:34:45.13	5.11	39.66	-31.7	-32.3	28.6	0.00e+00	0	41	0	2765094912	36	5908
2026-01-22 01:34:46.14	4.82	39.45	-31.9	-32.4	28.5	0.00e+00	0	41	0	2770337792	36	5997
2026-01-22 01:34:47.15	4.54	39.25	-31.9	-32.4	28.4	0.00e+00	0	41	0	2775580672	36	6023
2026-01-22 01:34:48.15	4.26	39.05	-32.2	-32.7	28.2	0.00e+00	0	41	0	2781872128	36	6207
2026-01-22 01:34:49.16	3.98	38.85	-31.9	-32.4	28.4	0.00e+00	0	41	0	2787115008	36	6016
2026-01-22 01:34:50.17	3.70	38.64	-32.0	-32.7	28.4	0.00e+00	0	41	0	2793406464	36	6206
2026-01-22 01:34:51.18	3.43	38.44	-32.0	-32.5	28.5	0.00e+00	0	41	0	2798649344	36	6045
2026-01-22 01:34:52.19	3.17	38.24	-32.1	-32.7	28.4	0.00e+00	0	41	0	2803892224	36	6217
2026-01-22 01:34:53.20	2.90	38.04	-32.1	-32.8	28.3	0.00e+00	0	41	0	2810183680	36	6257
2026-01-22 01:34:54.21	2.64	37.84	-32.2	-32.7	28.3	0.00e+00	0	41	0	2815426560	36	6216
2026-01-22 01:34:55.22	2.38	37.64	-32.0	-32.6	28.4	0.00e+00	0	41	0	2821718016	36	6112
2026-01-22 01:34:56.23	2.13	37.44	-31.9	-32.5	28.4	0.00e+00	0	41	0	2826960896	36	6044
2026-01-22 01:34:57.24	1.88	37.24	-32.0	-32.5	28.4	0.00e+00	0	41	0	2832203776	36	6080
2026-01-22 01:34:58.25	1.63	37.04	-32.0	-32.7	28.3	0.00e+00	0	41	0	2838495232	36	6216
2026-01-22 01:34:59.26	1.38	36.84	-32.0	-32.5	28.4	0.00e+00	0	41	0	2843738112	36	6076
2026-01-22 01:35:00.27	1.14	36.64	-32.0	-32.6	28.4	0.00e+00	0	41	0	2850029568	36	6153
2026-01-22 01:35:01.28	0.90	36.45	-32.0	-32.7	28.4	0.00e+00	0	41	0	2855272448	36	6228
2026-01-22 01:35:02.29	0.67	36.25	-31.7	-32.3	28.6	0.00e+00	0	41	0	2861563904	36	5902
2026-01-22 01:35:03.30	0.43	36.05	-31.8	-32.3	28.6	0.00e+00	0	41	0	2866806784	36	5927
2026-01-22 01:35:04.31	0.20	35.86	-31.6	-32.1	28.6	0.00e+00	0	41	0	2872049664	36	5824
2026-01-22 01:35:05.32	359.97	35.66	-31.8	-32.3	28.6	0.00e+00	0	41	0	2878341120	36	5927
2026-01-22 01:35:06.33	359.75	35.47	-31.8	-32.4	28.5	0.00e+00	0	41	0	2883584000	36	5978
2026-01-22 01:35:07.34	359.53	35.28	-31.7	-32.3	28.5	0.00e+00	0	41	0	2889875456	36	5962
2026-01-22 01:35:08.35	359.31	35.09	-31.7	-32.2	28.6	0.00e+00	0	41	0	2895118336	36	5885
2026-01-22 01:35:09.36	359.09	34.89	-31.9	-32.4	28.4	0.00e+00	0	41	0	2900361216	36	5999
2026-01-22 01:35:10.37	358.87	34.70	-31.8	-32.4	28.5	0.00e+00	0	41	0	2906652672	36	6031
2026-01-22 01:35:11.38	358.66	34.51	-31.9	-32.4	28.4	0.00e+00	0	41	0	2911895552	36	5990
2026-01-22 01:35:12.39	358.45	34.32	-31.9	-32.4	28.5	0.00e+00	0	41	0	2918187008	36	6024
2026-01-22 01:35:13.40	358.25	34.14	-31.9	-32.6	28.5	0.00e+00	0	41	0	2923429888	36	6125
2026-01-22 01:35:14.41	358.04	33.95	-32.0	-32.5	28.5	0.00e+00	0	41	0	2928672768	36	6084
2026-01-22 01:35:15.42	357.84	33.76	-31.8	-32.4	28.5	0.00e+00	0	41	0	2934964224	36	5970
2026-01-22 01:35:16.43	357.64	33.57	-31.8	-32.3	28.6	0.00e+00	0	41	0	2940207104	36	5927
2026-01-22 01:35:17.44	357.44	33.39	-31.6	-32.2	28.6	0.00e+00	0	41	0	2946498560	36	5858
2026-01-22 01:35:18.46	357.24	33.20	-31.8	-32.5	28.5	0.00e+00	0	41	0	2951741440	36	6056
2026-01-22 01:35:19.46	357.05	33.02	-31.7	-32.4	28.5	0.00e+00	0	41	0	2958032896	36	6015
2026-01-22 01:35:20.47	356.86	32.83	-31.8	-32.3	28.6	0.00e+00	0	41	0	2963275776	36	5964
2026-01-22 01:35:21.49	356.67	32.65	-31.9	-32.6	28.3	0.00e+00	0	41	0	2969567232	36	6124
2026-01-22 01:35:22.49	356.49	32.47	-31.9	-32.4	28.4	0.00e+00	0	41	0	2974810112	36	6014
2026-01-22 01:35:23.50	356.30	32.29	-32.0	-32.5	28.3	0.00e+00	0	41	0	2980052992	36	6094
2026-01-22 01:35:24.51	356.12	32.11	-32.0	-32.6	28.3	0.00e+00	0	41	0	2986344448	36	6114
2026-01-22 01:35:25.52	355.94	31.93	-32.2	-32.9	28.2	0.00e+00	0	41	0	2991587328	36	6373
2026-01-22 01:35:26.53	355.76	31.75	-32.1	-32.8	28.3	0.00e+00	0	41	0	2997878784	36	6256
2026-01-22 01:35:27.54	355.58	31.57	-32.1	-32.6	28.3	0.00e+00	0	41	0	3003121664	36	6167
2026-01-22 01:35:28.55	355.41	31.39	-32.1	-32.6	28.3	0.00e+00	0	41	0	3008364544	36	6167
2026-01-22 01:35:29.56	355.24	31.22	-32.0	-32.6	28.3	0.00e+00	0	41	0	3014656000	36	6107
2026-01-22 01:35:30.57	355.07	31.04	-32.0	-32.6	28.3	0.00e+00	0	41	0	3019898880	36	6171
2026-01-22 01:35:31.58	354.90	30.86	-32.0	-32.7	28.3	0.00e+00	0	41	0	3026190336	36	6197
2026-01-22 01:35:32.59	354.73	30.69	-32.1	-32.6	28.3	0.00e+00	0	41	0	3031433216	36	6157
2026-01-22 01:35:33.60	354.57	30.52	-32.2	-32.7	28.2	0.00e+00	0	41	0	3036676096	36	6243
2026-01-22 01:35:34.61	354.40	30.34	-32.3	-32.8	28.1	0.00e+00	0	41	0	3042967552	36	6277
2026-01-22 01:35:35.62	354.24	30.17	-32.4	-32.9	28.1	0.00e+00	0	41	0	3048210432	36	6365
2026-01-22 01:35:36.63	354.08	30.00	-32.3	-32.8	28.1	0.00e+00	0	41	0	3054501888	36	6295
2026-01-22 01:35:37.64	353.92	29.83	-32.3	-33.0	28.1	0.00e+00	0	41	0	3059744768	36	6397
2026-01-22 01:35:38.65	353.77	29.66	-32.4	-33.1	27.9	0.00e+00	0	41	0	3066036224	36	6522
2026-01-22 01:35:39.66	353.61	29.49	-32.4	-33.1	27.8	0.00e+00	0	41	0	3071279104	36	6524
2026-01-22 01:35:40.67	353.46	29.32	-32.6	-33.2	27.9	0.00e+00	0	41	0	3077570560	36	6610
2026-01-22 01:35:41.68	353.31	29.15	-32.5	-33.2	27.9	0.00e+00	0	41	0	3082813440	36	6562
2026-01-22 01:35:42.69	353.16	28.99	-32.6	-33.3	27.9	0.00e+00	0	41	0	3088056320	36	6657
2026-01-22 01:35:43.70	353.01	28.82	-32.4	-33.0	28.0	0.00e+00	0	41	0	3094347776	36	6409
2026-01-22 01:35:44.71	352.86	28.66	-32.4	-33.0	28.0	0.00e+00	0	41	0	3099590656	36	6451
2026-01-22 01:35:45.72	352.72	28.49	-32.5	-33.0	28.0	0.00e+00	0	41	0	3105882112	36	6447
2026-01-22 01:35:46.74	352.57	28.33	-32.5	-33.0	28.1	0.00e+00	0	41	0	3111124992	36	6431
2026-01-22 01:35:47.75	352.43	28.16	-32.3	-32.8	28.1	0.00e+00	0	41	0	3116367872	36	6279
2026-01-22 01:35:48.76	352.29	28.00	-32.5	-33.0	28.0	0.00e+00	0	41	0	3122659328	36	6426
2026-01-22 01:35:49.77	352.15	27.84	-32.2	-32.8	28.1	0.00e+00	0	41	0	3127902208	36	6259
2026-01-22 01:35:50.78	352.01	27.68	-32.5	-33.0	27.9	0.00e+00	0	41	0	3134193664	36	6424
2026-01-22 01:35:51.79	351.88	27.52	-32.4	-32.9	28.0	0.00e+00	0	41	0	3139436544	36	6377
2026-01-22 01:35:52.80	351.74	27.36	-32.4	-32.9	28.0	0.00e+00	0	41	0	3144679424	36	6383
2026-01-22 01:35:53.81	351.61	27.20	-32.5	-33.1	27.9	0.00e+00	0	41	0	3150970880	36	6467
2026-01-22 01:35:54.82	351.48	27.05	-32.4	-32.9	28.0	0.00e+00	0	41	0	3156213760	36	6363
2026-01-22 01:35:55.83	351.35	26.89	-32.5	-33.0	27.9	0.00e+00	0	41	0	3162505216	36	6438
2026-01-22 01:35:56.84	351.22	26.73	-32.6	-33.1	27.9	0.00e+00	0	41	0	3167748096	36	6526
2026-01-22 01:35:57.85	351.09	26.58	-32.7	-33.4	27.7	0.00e+00	0	41	0	3174039552	36	6699
2026-01-22 01:35:58.86	350.96	26.42	-32.4	-32.9	28.0	0.00e+00	0	41	0	3179282432	36	6346
2026-01-22 01:35:59.87	350.84	26.27	-32.5	-33.0	27.9	0.00e+00	0	41	0	3185573888	36	6444
2026-01-22 01:36:00.88	350.71	26.11	-32.4	-33.0	28.0	0.00e+00	0	41	0	3190816768	36	6455
2026-01-22 01:36:01.89	350.59	25.96	-32.3	-33.0	28.0	0.00e+00	0	41	0	3196059648	36	6395
2026-01-22 01:36:02.90	350.47	25.81	-32.3	-32.9	28.0	0.00e+00	0	41	0	3202351104	36	6381
2026-01-22 01:36:03.91	350.35	25.66	-32.2	-32.7	28.1	0.00e+00	0	41	0	3207593984	36	6245
2026-01-22 01:36:04.92	350.23	25.51	-32.3	-32.8	28.0	0.00e+00	0	41	0	3213885440	36	6315
2026-01-22 01:36:05.93	350.11	25.36	-32.3	-32.8	28.0	0.00e+00	0	41	0	3219128320	36	6283
2026-01-22 01:36:06.94	349.99	25.21	-32.4	-32.9	28.1	0.00e+00	0	41	0	3224371200	36	6341
2026-01-22 01:36:07.95	349.87	25.06	-32.4	-32.9	27.9	0.00e+00	0	41	0	3230662656	36	6361
2026-01-22 01:36:08.97	349.76	24.91	-32.6	-33.1	27.9	0.00e+00	0	41	0	3235905536	36	6514
2026-01-22 01:36:09.97	349.65	24.77	-32.4	-33.0	27.9	0.00e+00	0	41	0	3242196992	36	6392
2026-01-22 01:36:10.98	349.53	24.62	-32.5	-33.2	27.8	0.00e+00	0	41	0	3247439872	36	6585
2026-01-22 01:36:11.99	349.42	24.48	-32.5	-33.0	27.9	0.00e+00	0	41	0	3252682752	36	6453
2026-01-22 01:36:13.00	349.31	24.33	-32.6	-33.1	27.8	0.00e+00	0	41	0	3258974208	36	6522
2026-01-22 01:36:14.01	349.20	24.19	-32.6	-33.1	27.8	0.00e+00	0	41	0	3264217088	36	6533
2026-01-22 01:36:15.02	349.09	24.04	-32.7	-33.2	27.8	0.00e+00	0	41	0	3270508544	38	5873
2026-01-22 01:36:16.03	348.98	23.90	-32.7	-33.3	27.7	0.00e+00	0	41	0	3275751424	38	5923
2026-01-22 01:36:17.04	348.88	23.76	-32.8	-33.4	27.7	0.00e+00	0	41	0	3282042880	38	5988
2026-01-22 01:36:18.05	348.77	23.62	-32.9	-33.4	27.7	0.00e+00	0	41	0	3287285760	38	5996
2026-01-22 01:36:19.06	348.67	23.48	-32.8	-33.4	27.7	0.00e+00	0	41	0	3292528640	38	5984
2026-01-22 01:36:20.07	348.56	23.34	-33.0	-33.5	27.5	0.00e+00	0	41	0	3298820096	38	6087
2026-01-22 01:36:21.08	348.46	23.20	-32.8	-33.3	27.7	0.00e+00	0	41	0	3304062976	38	5951
2026-01-22 01:36:22.09	348.36	23.06	-32.8	-33.4	27.6	0.00e+00	0	41	0	3310354432	38	5995
2026-01-22 01:36:23.10	348.26	22.92	-32.7	-33.4	27.7	0.00e+00	0	41	0	3315597312	38	6000
2026-01-22 01:36:24.11	348.16	22.78	-32.8	-33.3	27.7	0.00e+00	0	41	0	3320840192	38	5935
2026-01-22 01:36:25.12	348.06	22.64	-32.7	-33.3	27.6	0.00e+00	0	41	0	3327131648	38	5921
2026-01-22 01:36:26.13	347.96	22.51	-32.9	-33.6	27.5	0.00e+00	0	41	0	3332374528	38	6106
2026-01-22 01:36:26.93	347.88	22.40	-33.1	-33.8	27.5	0.00e+00	0	41	0	3338665984	38	6273
2026-01-22 01:36:28.08	347.77	22.25	-33.1	-33.7	27.5	0.00e+00	0	41	0	3344957440	38	6236
2026-01-22 01:36:28.94	347.69	22.13	-33.0	-33.6	27.5	0.00e+00	0	41	0	3349151744	38	6168
2026-01-22 01:36:30.10	347.58	21.98	-33.0	-33.6	27.5	0.00e+00	0	41	0	3356491776	38	6107
2026-01-22 01:36:30.97	347.50	21.86	-32.9	-33.4	27.6	0.00e+00	0	41	0	3360686080	38	5999
2026-01-22 01:36:32.12	347.40	21.71	-33.0	-33.5	27.5	0.00e+00	0	41	0	3368026112	38	6063
2026-01-22 01:36:32.98	347.32	21.60	-33.1	-33.6	27.4	0.00e+00	0	41	0	3372220416	38	6151
2026-01-22 01:36:34.14	347.21	21.45	-33.0	-33.6	27.5	0.00e+00	0	41	0	3378511872	38	6132
2026-01-22 01:36:35.00	347.14	21.34	-33.0	-33.5	27.5	0.00e+00	0	41	0	3383754752	38	6075
2026-01-22 01:36:36.16	347.03	21.19	-33.1	-33.6	27.3	0.00e+00	0	41	0	3390046208	38	6136
2026-01-22 01:36:37.02	346.96	21.08	-33.1	-33.7	27.3	0.00e+00	0	41	0	3395289088	38	6182
2026-01-22 01:36:38.18	346.86	20.93	-33.1	-33.6	27.4	0.00e+00	0	41	0	3401580544	38	6159
2026-01-22 01:36:39.04	346.78	20.82	-33.1	-33.7	27.4	0.00e+00	0	41	0	3406823424	38	6195
2026-01-22 01:36:40.19	346.68	20.68	-33.2	-33.7	27.4	0.00e+00	0	41	0	3413114880	38	6217
2026-01-22 01:36:41.06	346.61	20.57	-33.3	-33.9	27.3	0.00e+00	0	41	0	3418357760	38	6321
2026-01-22 01:36:42.21	346.51	20.42	-33.3	-33.9	27.3	0.00e+00	0	41	0	3424649216	38	6325
2026-01-22 01:36:43.08	346.44	20.31	-33.3	-33.9	27.2	0.00e+00	0	41	0	3428843520	38	6334
2026-01-22 01:36:44.24	346.34	20.17	-33.5	-34.0	27.1	0.00e+00	0	41	0	3436183552	38	6432
2026-01-22 01:36:45.10	346.27	20.06	-33.6	-34.1	27.0	0.00e+00	0	41	0	3440377856	38	6531
2026-01-22 01:36:46.26	346.18	19.92	-33.6	-34.2	26.9	0.00e+00	0	41	0	3447717888	38	6567
2026-01-22 01:36:47.12	346.11	19.81	-33.7	-34.3	26.8	0.00e+00	0	41	0	3451912192	40	5934
2026-01-22 01:36:48.28	346.01	19.67	-33.7	-34.3	26.8	0.00e+00	0	41	0	3458203648	40	5934
2026-01-22 01:36:49.15	345.95	19.57	-33.9	-34.4	26.8	0.00e+00	0	41	0	3463446528	40	6022
2026-01-22 01:36:50.30	345.85	19.43	-33.8	-34.4	26.8	0.00e+00	0	41	0	3469737984	40	5979
2026-01-22 01:36:51.17	345.79	19.32	-33.9	-34.5	26.7	0.00e+00	0	41	0	3474980864	40	6068
2026-01-22 01:36:52.32	345.70	19.18	-33.9	-34.4	26.7	0.00e+00	0	41	0	3481272320	40	6031
2026-01-22 01:36:53.18	345.63	19.08	-33.9	-34.4	26.7	0.00e+00	0	41	0	3486515200	40	6023
2026-01-22 01:36:54.34	345.54	18.94	-34.0	-34.6	26.6	0.00e+00	0	41	0	3492806656	40	6136
2026-01-22 01:36:55.20	345.48	18.84	-34.1	-34.7	26.6	0.00e+00	0	41	0	3497000960	40	6174
2026-01-22 01:36:56.36	345.39	18.70	-34.0	-34.7	26.6	0.00e+00	0	41	0	3504340992	40	6195
2026-01-22 01:36:57.22	345.33	18.60	-33.9	-34.4	26.8	0.00e+00	0	41	0	3508535296	40	6012
2026-01-22 01:36:58.38	345.24	18.47	-33.9	-34.7	26.6	0.00e+00	0	41	0	3514826752	40	6174
2026-01-22 01:36:59.25	345.18	18.37	-34.2	-34.8	26.5	0.00e+00	0	41	0	3520069632	40	6257
2026-01-22 01:37:00.40	345.09	18.23	-33.8	-34.5	26.7	0.00e+00	0	41	0	3526361088	40	6092
2026-01-22 01:37:01.26	345.03	18.13	-34.0	-34.5	26.6	0.00e+00	0	41	0	3531603968	40	6071
2026-01-22 01:37:02.42	344.95	18.00	-34.1	-34.6	26.5	0.00e+00	0	41	0	3537895424	40	6149
2026-01-22 01:37:03.28	344.89	17.90	-34.1	-34.7	26.5	0.00e+00	0	41	0	3543138304	40	6189
2026-01-22 01:37:04.44	344.81	17.77	-34.1	-34.6	26.5	0.00e+00	0	41	0	3549429760	40	6164
2026-01-22 01:37:05.30	344.75	17.67	-34.1	-34.6	26.5	0.00e+00	0	41	0	3553624064	40	6149
2026-01-22 01:37:06.45	344.67	17.54	-34.1	-34.7	26.5	0.00e+00	0	41	0	3560964096	40	6206
2026-01-22 01:37:07.32	344.61	17.45	-34.2	-34.8	26.4	0.00e+00	0	41	0	3565158400	40	6283
