passes_logs/2026/01/22/R4.6S_Anadyr/R4.6S_Anadyr__20260122_233901_NOAA_21_JPSS-2_rec.log

#Pass ID: 20260122_233901_NOAA 21 (JPSS-2)
#Satellite: NOAA 21 (JPSS-2)
#Configuration: NOAA-21
#almurnet v.1.7.20251203
#Start time: 2026-01-22 23:39:02

#Version: 2.2.20231116
#Station: R4.6S_Anadyr
#Location: 177.4865 lon 64.73178 lat
#TLE: 1 54234U 22150A   26022.41365820  .00000211  00000+0  12084-3 0  9990
#TLE: 2 54234  98.7507 323.2240 0000658 234.5287 125.5828 14.19537645165864

#Time	Az	El	Level	Level2	SNR	BER	BlckErr	Temp	State	Recorded	gain1	gain2
2026-01-22 23:39:02.79	142.25	0.08	-51.6	-69.3	3.5	7.71e-01	0	39	0	0	60	112323
2026-01-22 23:39:03.79	142.24	0.14	-51.3	-64.2	3.5	1.51e+00	0	40	104	0	60	56814
2026-01-22 23:39:04.80	142.23	0.20	-51.2	-64.1	3.5	1.52e+00	0	40	104	0	60	56228
2026-01-22 23:39:05.81	142.22	0.26	-51.2	-64.1	3.5	1.52e+00	0	40	104	0	60	56130
2026-01-22 23:39:06.82	142.20	0.32	-51.2	-64.1	3.5	1.51e+00	0	40	104	0	60	56196
2026-01-22 23:39:07.83	142.19	0.38	-51.2	-64.1	3.5	1.52e+00	0	40	104	0	60	56349
2026-01-22 23:39:08.84	142.18	0.45	-51.2	-64.1	3.5	1.52e+00	0	40	104	0	60	56101
2026-01-22 23:39:09.85	142.16	0.51	-51.2	-64.1	3.5	1.52e+00	0	40	104	0	60	56146
2026-01-22 23:39:10.86	142.15	0.57	-51.2	-64.1	3.5	1.52e+00	0	40	104	0	60	56355
2026-01-22 23:39:11.87	142.14	0.63	-51.2	-64.1	3.5	1.52e+00	0	40	104	0	60	56382
2026-01-22 23:39:12.88	142.12	0.69	-51.2	-64.1	3.5	1.52e+00	0	40	104	0	60	56264
2026-01-22 23:39:13.89	142.11	0.75	-51.2	-64.1	3.5	1.51e+00	0	40	104	0	60	56171
2026-01-22 23:39:14.90	142.10	0.82	-51.2	-64.1	3.5	1.52e+00	0	41	104	0	60	56037
2026-01-22 23:39:15.92	142.08	0.88	-51.1	-64.0	3.5	1.52e+00	0	40	104	0	60	55584
2026-01-22 23:39:16.92	142.07	0.94	-51.0	-63.9	3.5	1.52e+00	0	41	104	0	60	55018
2026-01-22 23:39:17.93	142.06	1.00	-51.0	-63.8	3.5	1.51e+00	0	41	104	0	60	54639
2026-01-22 23:39:18.94	142.04	1.06	-50.9	-63.8	3.5	1.52e+00	0	41	104	0	60	54132
2026-01-22 23:39:19.95	142.03	1.13	-50.8	-63.7	3.5	1.52e+00	0	41	104	0	60	53534
2026-01-22 23:39:20.96	142.02	1.19	-50.7	-63.6	3.5	1.52e+00	0	41	104	0	60	53391
2026-01-22 23:39:21.98	142.00	1.25	-50.5	-63.4	3.5	1.52e+00	0	41	104	0	60	51792
2026-01-22 23:39:22.98	141.99	1.32	-50.2	-63.0	3.5	1.52e+00	0	41	104	0	60	49747
2026-01-22 23:39:23.99	141.98	1.38	-49.9	-62.8	3.5	1.51e+00	0	41	104	0	60	48190
2026-01-22 23:39:25.01	141.96	1.44	-49.5	-62.4	3.5	1.52e+00	0	41	104	0	60	46115
2026-01-22 23:39:26.01	141.95	1.50	-48.6	-61.5	3.5	1.52e+00	0	41	104	0	60	41668
2026-01-22 23:39:27.02	141.93	1.57	-47.3	-60.8	3.5	1.52e+00	0	41	104	0	60	38434
2026-01-22 23:39:28.03	141.92	1.63	-47.7	-60.8	3.5	1.52e+00	0	41	104	0	60	38363
2026-01-22 23:39:29.04	141.91	1.70	-47.8	-60.8	3.5	1.52e+00	0	41	104	0	60	38477
2026-01-22 23:39:30.05	141.89	1.76	-47.8	-60.8	3.5	1.52e+00	0	41	104	0	60	38386
2026-01-22 23:39:31.06	141.88	1.82	-47.9	-60.8	3.5	1.52e+00	0	41	104	0	60	38454
2026-01-22 23:39:32.07	141.86	1.89	-47.8	-60.8	3.5	1.52e+00	0	41	104	0	60	38543
2026-01-22 23:39:33.08	141.85	1.95	-47.8	-60.8	3.5	1.51e+00	0	41	104	0	60	38379
2026-01-22 23:39:34.09	141.83	2.02	-47.8	-60.8	3.5	1.52e+00	0	41	104	0	60	38344
2026-01-22 23:39:35.10	141.82	2.08	-47.8	-60.7	3.5	1.52e+00	0	41	104	0	60	38217
2026-01-22 23:39:36.11	141.80	2.15	-47.8	-60.7	3.5	1.52e+00	0	41	104	0	60	38067
2026-01-22 23:39:37.12	141.79	2.21	-47.8	-60.7	3.5	1.52e+00	0	41	104	0	60	37908
2026-01-22 23:39:38.13	141.77	2.28	-47.8	-60.7	3.5	1.52e+00	0	41	104	0	60	38204
2026-01-22 23:39:39.14	141.76	2.34	-47.8	-60.7	3.5	1.52e+00	0	41	104	0	60	38207
2026-01-22 23:39:40.15	141.74	2.41	-47.8	-60.7	3.5	1.52e+00	0	41	104	0	60	38153
2026-01-22 23:39:41.16	141.73	2.47	-47.8	-60.8	3.5	1.52e+00	0	41	104	0	60	38367
2026-01-22 23:39:42.17	141.71	2.54	-47.9	-60.7	3.5	1.52e+00	0	41	104	0	60	38099
2026-01-22 23:39:43.18	141.70	2.60	-47.8	-60.7	3.5	1.52e+00	0	41	104	0	60	38136
2026-01-22 23:39:44.20	141.68	2.67	-47.8	-60.7	3.5	1.52e+00	0	41	104	0	60	38105
2026-01-22 23:39:45.21	141.67	2.74	-47.8	-60.7	3.5	1.52e+00	0	41	104	0	60	38026
2026-01-22 23:39:46.22	141.65	2.80	-47.8	-60.7	3.5	1.52e+00	0	41	104	0	60	38032
2026-01-22 23:39:47.23	141.64	2.87	-47.8	-60.7	3.5	1.52e+00	0	41	104	0	60	38124
2026-01-22 23:39:48.24	141.62	2.94	-47.9	-60.6	3.5	1.52e+00	0	41	104	0	60	37720
2026-01-22 23:39:49.25	141.60	3.00	-47.8	-60.6	3.5	1.52e+00	0	41	104	0	60	37410
2026-01-22 23:39:50.26	141.59	3.07	-47.8	-60.3	3.5	1.51e+00	0	41	104	0	60	36445
2026-01-22 23:39:51.27	141.57	3.14	-47.8	-60.1	3.5	1.52e+00	0	41	104	0	60	35607
2026-01-22 23:39:52.28	141.56	3.20	-47.8	-59.9	3.5	1.51e+00	0	41	104	0	60	34693
2026-01-22 23:39:53.29	141.54	3.27	-47.7	-59.8	3.5	1.52e+00	0	41	104	0	60	34397
2026-01-22 23:39:54.30	141.52	3.34	-47.7	-59.6	3.5	1.51e+00	0	41	104	0	60	33367
2026-01-22 23:39:55.31	141.51	3.41	-47.7	-59.8	3.5	1.51e+00	0	41	104	0	60	34437
2026-01-22 23:39:56.32	141.49	3.47	-47.7	-59.7	3.5	1.51e+00	0	41	104	0	60	33871
2026-01-22 23:39:57.33	141.47	3.54	-47.7	-60.0	3.5	1.51e+00	0	41	104	0	60	35193
2026-01-22 23:39:58.34	141.46	3.61	-47.8	-59.9	3.5	1.51e+00	0	41	104	0	60	34556
2026-01-22 23:39:59.35	141.44	3.68	-47.9	-60.0	3.5	1.51e+00	0	41	104	0	60	35006
2026-01-22 23:40:00.36	141.42	3.75	-47.7	-60.0	3.5	1.52e+00	0	41	104	0	60	35085
2026-01-22 23:40:01.36	141.41	3.82	-47.7	-59.5	3.5	1.51e+00	0	41	104	0	60	33317
2026-01-22 23:40:02.37	141.39	3.88	-48.0	-60.6	3.5	1.52e+00	0	41	104	0	60	37743
2026-01-22 23:40:03.38	141.37	3.95	-47.8	-59.9	3.5	1.52e+00	0	41	104	0	60	34723
2026-01-22 23:40:04.39	141.36	4.02	-47.7	-60.7	3.5	1.51e+00	0	41	104	0	60	38047
2026-01-22 23:40:05.40	141.34	4.09	-47.7	-58.7	3.6	1.49e+00	0	41	104	0	60	30298
2026-01-22 23:40:06.41	141.32	4.16	-47.6	-58.1	3.5	1.51e+00	0	41	104	0	60	28287
2026-01-22 23:40:07.42	141.30	4.23	-47.4	-56.3	4.6	9.29e-01	0	41	104	0	60	23026
2026-01-22 23:40:08.43	141.29	4.30	-47.3	-55.4	5.4	6.38e-01	0	41	104	0	60	20594
2026-01-22 23:40:09.44	141.27	4.37	-47.2	-54.6	4.2	7.21e-01	2	41	104	0	60	18820
2026-01-22 23:40:10.45	141.25	4.44	-46.9	-55.1	5.6	4.52e-01	0	41	104	0	60	19975
2026-01-22 23:40:11.46	141.23	4.51	-47.2	-54.7	4.0	1.14e+00	0	41	104	1048576	60	18959
2026-01-22 23:40:12.47	141.21	4.58	-47.0	-53.4	6.1	2.28e-01	0	41	0	1048576	60	16361
2026-01-22 23:40:13.48	141.20	4.65	-47.1	-53.1	6.1	2.82e-01	0	41	0	4194304	60	15939
2026-01-22 23:40:14.49	141.18	4.72	-46.9	-52.4	6.9	1.70e-01	0	41	0	7340032	60	14664
2026-01-22 23:40:15.50	141.16	4.80	-46.7	-52.2	7.1	1.22e-01	0	41	0	10485760	60	14265
2026-01-22 23:40:16.51	141.14	4.87	-46.9	-52.2	7.2	9.64e-02	0	41	0	13631488	60	14245
2026-01-22 23:40:17.52	141.12	4.94	-46.9	-52.1	7.4	1.12e-01	0	41	0	16777216	60	14131
2026-01-22 23:40:18.53	141.10	5.01	-46.9	-52.2	7.3	1.18e-01	0	41	0	19922944	60	14302
2026-01-22 23:40:19.54	141.09	5.08	-46.9	-52.0	7.5	1.16e-01	0	41	0	23068672	60	13972
2026-01-22 23:40:20.55	141.07	5.15	-46.8	-51.9	7.6	8.84e-02	0	41	0	26214400	60	13844
2026-01-22 23:40:21.56	141.05	5.23	-46.8	-51.7	8.0	7.47e-02	0	41	0	29360128	60	13504
2026-01-22 23:40:22.57	141.03	5.30	-46.9	-51.9	7.7	6.00e-02	0	41	0	32505856	60	13869
2026-01-22 23:40:23.58	141.01	5.37	-46.7	-51.3	8.6	4.04e-02	0	41	0	35651584	60	12832
2026-01-22 23:40:24.59	140.99	5.45	-46.6	-51.2	8.6	3.45e-02	0	41	0	38797312	60	12687
2026-01-22 23:40:25.60	140.97	5.52	-46.8	-51.5	8.5	4.76e-02	0	41	0	41943040	60	13141
2026-01-22 23:40:26.61	140.95	5.59	-46.6	-51.1	8.9	2.48e-02	0	41	0	45088768	60	12567
2026-01-22 23:40:27.62	140.93	5.67	-46.6	-50.9	9.2	2.01e-02	0	41	0	48234496	60	12265
2026-01-22 23:40:28.63	140.91	5.74	-46.5	-50.7	9.4	1.55e-02	0	41	0	51380224	60	12048
2026-01-22 23:40:29.64	140.89	5.81	-46.4	-50.5	9.7	1.33e-02	0	41	0	54525952	60	11807
2026-01-22 23:40:30.65	140.87	5.89	-46.3	-50.2	10.2	6.17e-03	0	41	0	57671680	60	11313
2026-01-22 23:40:31.66	140.85	5.96	-46.1	-49.8	10.5	4.57e-03	0	41	0	60817408	60	10893
2026-01-22 23:40:32.67	140.83	6.04	-46.0	-49.6	10.8	5.50e-03	0	41	0	63963136	60	10625
2026-01-22 23:40:33.68	140.81	6.11	-46.0	-49.4	11.2	1.33e-03	0	41	0	67108864	60	10343
2026-01-22 23:40:34.69	140.79	6.19	-45.9	-49.3	11.3	9.67e-04	0	42	0	70254592	60	10282
2026-01-22 23:40:35.70	140.77	6.26	-45.8	-49.1	11.6	1.23e-03	0	41	0	73400320	60	10056
2026-01-22 23:40:36.71	140.75	6.34	-45.7	-48.9	11.9	4.13e-04	0	41	0	76546048	60	9805
2026-01-22 23:40:37.72	140.73	6.41	-45.5	-48.5	12.3	1.50e-04	0	41	0	79691776	60	9311
2026-01-22 23:40:38.73	140.71	6.49	-45.3	-48.1	12.9	8.54e-05	0	41	0	82837504	60	8883
2026-01-22 23:40:39.74	140.69	6.56	-45.0	-47.7	13.3	2.44e-05	0	41	0	85983232	60	8497
2026-01-22 23:40:40.76	140.67	6.64	-45.0	-47.7	13.3	2.28e-05	0	41	0	89128960	60	8529
2026-01-22 23:40:41.77	140.65	6.72	-44.9	-47.5	13.6	1.67e-05	0	41	0	92274688	60	8330
2026-01-22 23:40:42.78	140.62	6.79	-44.5	-46.9	14.2	2.20e-06	0	41	0	95420416	60	7725
2026-01-22 23:40:43.79	140.60	6.87	-44.5	-46.9	14.3	2.20e-06	0	41	0	98566144	60	7787
2026-01-22 23:40:44.80	140.58	6.95	-44.2	-46.4	14.9	0.00e+00	0	41	0	101711872	60	7318
2026-01-22 23:40:45.81	140.56	7.03	-44.1	-46.2	15.1	0.00e+00	0	41	0	104857600	60	7149
2026-01-22 23:40:46.82	140.54	7.10	-43.9	-46.0	15.3	0.00e+00	0	41	0	108003328	60	7004
2026-01-22 23:40:47.83	140.51	7.18	-43.9	-45.9	15.4	0.00e+00	0	41	0	111149056	60	6928
2026-01-22 23:40:48.84	140.49	7.26	-43.5	-45.4	16.0	0.00e+00	0	41	0	114294784	60	6550
2026-01-22 23:40:49.85	140.47	7.34	-43.1	-44.9	16.5	0.00e+00	0	41	0	117440512	60	6161
2026-01-22 23:40:50.86	140.45	7.42	-43.0	-44.8	16.6	0.00e+00	0	41	0	120586240	60	6079
2026-01-22 23:40:51.87	140.43	7.50	-43.0	-44.8	16.7	0.00e+00	0	41	0	123731968	60	6072
2026-01-22 23:40:52.88	140.40	7.57	-42.9	-44.6	16.9	0.00e+00	0	42	0	126877696	60	5993
2026-01-22 23:40:53.89	140.38	7.65	-42.4	-44.0	17.5	0.00e+00	0	41	0	130023424	58	6262
2026-01-22 23:40:54.90	140.36	7.73	-42.2	-43.8	17.7	0.00e+00	0	41	0	134217728	58	6070
2026-01-22 23:40:55.91	140.33	7.81	-42.0	-43.5	18.1	0.00e+00	0	41	0	137363456	58	5901
2026-01-22 23:40:56.92	140.31	7.89	-41.8	-43.2	18.2	0.00e+00	0	41	0	140509184	58	5694
2026-01-22 23:40:57.93	140.29	7.97	-41.6	-43.0	18.6	0.00e+00	0	42	0	142606336	56	6247
2026-01-22 23:40:58.94	140.26	8.05	-41.6	-43.0	18.6	0.00e+00	0	41	0	145752064	56	6268
2026-01-22 23:40:59.95	140.24	8.13	-41.4	-42.8	18.9	0.00e+00	0	41	0	149946368	56	6112
2026-01-22 23:41:00.96	140.22	8.22	-41.2	-42.5	19.1	0.00e+00	0	41	0	153092096	56	5918
2026-01-22 23:41:01.97	140.19	8.30	-41.0	-42.3	19.5	0.00e+00	0	41	0	156237824	56	5770
2026-01-22 23:41:02.98	140.17	8.38	-40.9	-42.2	19.7	0.00e+00	0	41	0	159383552	56	5672
2026-01-22 23:41:03.99	140.14	8.46	-40.8	-42.1	19.8	0.00e+00	0	41	0	162529280	56	5595
2026-01-22 23:41:05.00	140.12	8.54	-40.4	-41.6	20.1	0.00e+00	0	41	0	164626432	54	5986
2026-01-22 23:41:06.01	140.09	8.62	-40.5	-41.8	20.2	0.00e+00	0	41	0	168820736	54	6068
2026-01-22 23:41:07.02	140.07	8.71	-40.4	-41.6	20.3	0.00e+00	0	42	0	171966464	54	5930
2026-01-22 23:41:08.03	140.04	8.79	-40.2	-41.3	20.5	0.00e+00	0	41	0	175112192	54	5769
2026-01-22 23:41:09.04	140.02	8.87	-40.0	-41.2	20.7	0.00e+00	0	41	0	178257920	54	5670
2026-01-22 23:41:10.05	139.99	8.96	-40.0	-41.2	20.6	0.00e+00	0	41	0	181403648	54	5688
2026-01-22 23:41:11.06	139.97	9.04	-40.1	-41.3	20.6	0.00e+00	0	42	0	184549376	54	5769
2026-01-22 23:41:12.07	139.94	9.12	-39.8	-40.9	20.9	0.00e+00	0	41	0	187695104	54	5519
2026-01-22 23:41:13.08	139.92	9.21	-39.6	-40.7	21.2	0.00e+00	0	41	0	190840832	52	6040
2026-01-22 23:41:14.08	139.89	9.29	-39.8	-40.9	21.0	0.00e+00	0	41	0	193986560	52	6174
2026-01-22 23:41:15.10	139.86	9.38	-39.8	-40.9	21.1	0.00e+00	0	41	0	197132288	52	6160
2026-01-22 23:41:16.10	139.84	9.46	-39.6	-40.7	21.2	0.00e+00	0	41	0	200278016	52	6001
2026-01-22 23:41:17.11	139.81	9.55	-39.5	-40.5	21.3	0.00e+00	0	41	0	203423744	52	5925
2026-01-22 23:41:18.12	139.78	9.63	-39.3	-40.4	21.5	0.00e+00	0	41	0	206569472	52	5834
2026-01-22 23:41:19.13	139.76	9.72	-39.5	-40.6	21.3	0.00e+00	0	41	0	209715200	52	5965
2026-01-22 23:41:20.14	139.73	9.81	-39.4	-40.5	21.4	0.00e+00	0	41	0	212860928	52	5907
2026-01-22 23:41:21.15	139.70	9.89	-39.5	-40.5	21.4	0.00e+00	0	41	0	216006656	52	5915
2026-01-22 23:41:22.17	139.68	9.98	-39.7	-40.8	21.3	0.00e+00	0	41	0	219152384	52	6085
2026-01-22 23:41:23.18	139.65	10.07	-39.3	-40.4	21.5	0.00e+00	0	41	0	222298112	52	5848
2026-01-22 23:41:24.18	139.62	10.15	-39.2	-40.3	21.7	0.00e+00	0	41	0	225443840	52	5746
2026-01-22 23:41:25.20	139.59	10.24	-39.0	-40.1	21.9	0.00e+00	0	41	0	228589568	52	5604
2026-01-22 23:41:26.21	139.56	10.33	-39.0	-40.1	21.8	0.00e+00	0	41	0	231735296	52	5628
2026-01-22 23:41:27.21	139.54	10.42	-39.0	-40.0	21.9	0.00e+00	0	41	0	234881024	52	5576
2026-01-22 23:41:28.22	139.51	10.51	-38.9	-39.9	22.0	0.00e+00	0	41	0	238026752	52	5523
2026-01-22 23:41:29.23	139.48	10.59	-38.9	-40.0	22.0	0.00e+00	0	41	0	241172480	52	5541
2026-01-22 23:41:30.24	139.45	10.68	-38.7	-39.8	22.1	0.00e+00	0	41	0	244318208	50	6073
2026-01-22 23:41:31.25	139.42	10.77	-38.7	-39.7	22.2	0.00e+00	0	41	0	247463936	50	6050
2026-01-22 23:41:32.26	139.39	10.86	-38.6	-39.7	22.3	0.00e+00	0	41	0	250609664	50	6006
2026-01-22 23:41:33.27	139.36	10.95	-38.7	-39.7	22.2	0.00e+00	0	41	0	253755392	50	6043
2026-01-22 23:41:34.28	139.33	11.04	-38.7	-39.8	22.2	0.00e+00	0	41	0	256901120	50	6068
2026-01-22 23:41:35.29	139.30	11.14	-38.6	-39.6	22.4	0.00e+00	0	41	0	260046848	50	5966
2026-01-22 23:41:36.30	139.27	11.23	-38.5	-39.5	22.5	0.00e+00	0	41	0	263192576	50	5882
2026-01-22 23:41:37.31	139.24	11.32	-38.3	-39.3	22.6	0.00e+00	0	41	0	266338304	50	5737
2026-01-22 23:41:38.32	139.21	11.41	-38.4	-39.4	22.6	0.00e+00	0	41	0	269484032	50	5816
2026-01-22 23:41:39.33	139.18	11.50	-38.3	-39.3	22.6	0.00e+00	0	41	0	272629760	50	5741
2026-01-22 23:41:40.34	139.15	11.59	-38.3	-39.2	22.7	0.00e+00	0	41	0	275775488	50	5720
2026-01-22 23:41:41.35	139.12	11.69	-38.2	-39.2	22.9	0.00e+00	0	41	0	278921216	50	5710
2026-01-22 23:41:42.36	139.09	11.78	-38.2	-39.2	22.8	0.00e+00	0	41	0	282066944	50	5661
2026-01-22 23:41:43.37	139.06	11.87	-38.1	-39.1	22.9	0.00e+00	0	41	0	285212672	50	5625
2026-01-22 23:41:44.38	139.03	11.97	-38.0	-39.0	23.0	0.00e+00	0	41	0	288358400	50	5537
2026-01-22 23:41:45.39	138.99	12.06	-37.9	-38.9	23.1	0.00e+00	0	41	0	291504128	50	5488
2026-01-22 23:41:46.40	138.96	12.16	-37.8	-38.8	23.2	0.00e+00	0	41	0	294649856	50	5436
2026-01-22 23:41:47.41	138.93	12.25	-37.9	-38.9	23.1	0.00e+00	0	41	0	297795584	50	5482
2026-01-22 23:41:48.42	138.90	12.35	-37.8	-38.8	23.2	0.00e+00	0	41	0	300941312	50	5437
2026-01-22 23:41:49.43	138.86	12.44	-38.0	-38.9	23.1	0.00e+00	0	41	0	304087040	50	5514
2026-01-22 23:41:50.44	138.83	12.54	-37.7	-38.6	23.3	0.00e+00	0	41	0	307232768	48	5981
2026-01-22 23:41:51.45	138.80	12.64	-37.6	-38.6	23.4	0.00e+00	0	41	0	310378496	48	5944
2026-01-22 23:41:52.46	138.76	12.73	-37.5	-38.5	23.5	0.00e+00	0	41	0	313524224	48	5885
2026-01-22 23:41:53.47	138.73	12.83	-37.4	-38.4	23.5	0.00e+00	0	41	0	316669952	48	5811
2026-01-22 23:41:54.48	138.69	12.93	-37.5	-38.4	23.6	0.00e+00	0	41	0	319815680	48	5833
2026-01-22 23:41:55.49	138.66	13.03	-37.4	-38.3	23.6	0.00e+00	0	41	0	322961408	48	5770
2026-01-22 23:41:56.50	138.63	13.12	-37.4	-38.3	23.6	0.00e+00	0	41	0	326107136	48	5777
2026-01-22 23:41:57.51	138.59	13.22	-37.3	-38.3	23.7	0.00e+00	0	41	0	329252864	48	5728
2026-01-22 23:41:58.52	138.56	13.32	-37.3	-38.2	23.7	0.00e+00	0	41	0	332398592	48	5690
2026-01-22 23:41:59.53	138.52	13.42	-37.4	-38.3	23.7	0.00e+00	0	41	0	335544320	48	5745
2026-01-22 23:42:00.54	138.49	13.52	-37.4	-38.3	23.6	0.00e+00	0	41	0	338690048	48	5785
2026-01-22 23:42:01.55	138.45	13.62	-37.3	-38.2	23.7	0.00e+00	0	41	0	341835776	48	5681
2026-01-22 23:42:02.56	138.41	13.72	-37.2	-38.2	23.7	0.00e+00	0	41	0	344981504	48	5665
2026-01-22 23:42:03.57	138.38	13.82	-37.2	-38.1	23.8	0.00e+00	0	41	0	348127232	48	5633
2026-01-22 23:42:04.58	138.34	13.92	-37.2	-38.1	23.8	0.00e+00	0	41	0	351272960	48	5647
2026-01-22 23:42:05.59	138.30	14.03	-37.2	-38.1	23.8	0.00e+00	0	41	0	354418688	48	5597
2026-01-22 23:42:06.60	138.27	14.13	-37.1	-38.0	23.9	0.00e+00	0	41	0	357564416	48	5545
2026-01-22 23:42:07.61	138.23	14.23	-37.1	-38.0	23.9	0.00e+00	0	41	0	360710144	48	5551
2026-01-22 23:42:08.62	138.19	14.33	-37.1	-38.0	23.9	0.00e+00	0	41	0	363855872	48	5586
2026-01-22 23:42:09.63	138.15	14.44	-37.0	-38.0	23.9	0.00e+00	0	41	0	367001600	48	5535
2026-01-22 23:42:10.64	138.11	14.54	-36.9	-37.8	24.1	0.00e+00	0	41	0	370147328	48	5419
2026-01-22 23:42:11.66	138.07	14.65	-37.0	-37.9	23.9	0.00e+00	0	41	0	373293056	48	5509
2026-01-22 23:42:12.67	138.04	14.75	-37.0	-38.0	23.9	0.00e+00	0	41	0	376438784	48	5531
2026-01-22 23:42:13.68	138.00	14.86	-37.0	-37.9	23.9	0.00e+00	0	41	0	379584512	48	5517
2026-01-22 23:42:14.69	137.96	14.96	-37.0	-37.9	23.9	0.00e+00	0	41	0	382730240	48	5508
2026-01-22 23:42:15.70	137.92	15.07	-37.0	-37.9	24.0	0.00e+00	0	41	0	385875968	48	5499
2026-01-22 23:42:16.71	137.88	15.18	-37.1	-38.0	23.9	0.00e+00	0	41	0	389021696	48	5576
2026-01-22 23:42:17.72	137.84	15.28	-37.0	-37.9	24.0	0.00e+00	0	41	0	392167424	48	5510
2026-01-22 23:42:18.73	137.80	15.39	-37.0	-37.9	24.0	0.00e+00	0	41	0	395313152	48	5495
2026-01-22 23:42:19.74	137.75	15.50	-37.0	-37.9	23.9	0.00e+00	0	41	0	398458880	48	5508
2026-01-22 23:42:20.75	137.71	15.61	-37.0	-37.9	23.9	0.00e+00	0	41	0	401604608	48	5517
2026-01-22 23:42:21.76	137.67	15.72	-37.2	-38.1	23.9	0.00e+00	0	41	0	404750336	48	5620
2026-01-22 23:42:22.77	137.63	15.83	-37.1	-38.0	23.8	0.00e+00	0	41	0	407896064	48	5588
2026-01-22 23:42:23.78	137.59	15.94	-36.9	-37.8	24.1	0.00e+00	0	41	0	411041792	48	5420
2026-01-22 23:42:24.79	137.54	16.05	-37.0	-37.9	24.0	0.00e+00	0	41	0	414187520	48	5488
2026-01-22 23:42:25.80	137.50	16.16	-37.0	-37.9	24.0	0.00e+00	0	41	0	417333248	48	5528
2026-01-22 23:42:26.81	137.46	16.27	-37.1	-38.0	23.9	0.00e+00	0	41	0	420478976	48	5551
2026-01-22 23:42:27.82	137.41	16.38	-37.1	-38.0	23.8	0.00e+00	0	41	0	423624704	48	5569
2026-01-22 23:42:28.84	137.37	16.50	-37.1	-38.0	24.0	0.00e+00	0	41	0	426770432	48	5542
2026-01-22 23:42:29.84	137.33	16.61	-37.1	-38.0	23.9	0.00e+00	0	41	0	429916160	48	5573
2026-01-22 23:42:30.86	137.28	16.72	-37.1	-38.0	23.9	0.00e+00	0	41	0	434110464	48	5547
2026-01-22 23:42:31.87	137.23	16.84	-37.3	-38.3	23.7	0.00e+00	0	41	0	436207616	48	5738
2026-01-22 23:42:32.88	137.19	16.95	-37.2	-38.1	23.9	0.00e+00	0	41	0	439353344	48	5646
2026-01-22 23:42:33.88	137.14	17.06	-37.1	-38.0	23.9	0.00e+00	0	41	0	442499072	48	5547
2026-01-22 23:42:34.89	137.10	17.18	-37.1	-38.0	23.8	0.00e+00	0	41	0	445644800	48	5567
2026-01-22 23:42:35.90	137.05	17.29	-37.2	-38.1	23.8	0.00e+00	0	41	0	449839104	48	5617
2026-01-22 23:42:36.91	137.00	17.41	-37.2	-38.1	23.8	0.00e+00	0	41	0	452984832	48	5630
2026-01-22 23:42:37.92	136.96	17.53	-37.2	-38.1	23.8	0.00e+00	0	41	0	456130560	48	5639
2026-01-22 23:42:38.93	136.91	17.65	-37.2	-38.1	23.7	0.00e+00	0	41	0	458227712	48	5648
2026-01-22 23:42:39.94	136.86	17.76	-37.3	-38.2	23.7	0.00e+00	0	41	0	461373440	48	5723
2026-01-22 23:42:40.95	136.81	17.88	-37.3	-38.2	23.6	0.00e+00	0	41	0	465567744	48	5707
2026-01-22 23:42:41.96	136.76	18.00	-37.3	-38.3	23.7	0.00e+00	0	41	0	468713472	48	5730
2026-01-22 23:42:42.97	136.71	18.12	-37.4	-38.4	23.5	0.00e+00	0	41	0	471859200	48	5812
2026-01-22 23:42:43.98	136.66	18.24	-37.4	-38.4	23.6	0.00e+00	0	41	0	475004928	48	5800
2026-01-22 23:42:44.99	136.61	18.36	-37.4	-38.4	23.6	0.00e+00	0	41	0	478150656	48	5803
2026-01-22 23:42:46.00	136.56	18.48	-37.5	-38.5	23.5	0.00e+00	0	41	0	481296384	48	5888
2026-01-22 23:42:47.01	136.51	18.61	-37.5	-38.5	23.5	0.00e+00	0	41	0	484442112	48	5868
2026-01-22 23:42:48.02	136.46	18.73	-37.4	-38.3	23.7	0.00e+00	0	41	0	487587840	48	5766
2026-01-22 23:42:49.03	136.41	18.85	-37.4	-38.3	23.6	0.00e+00	0	41	0	490733568	48	5760
2026-01-22 23:42:50.04	136.35	18.98	-37.4	-38.4	23.6	0.00e+00	0	41	0	493879296	48	5803
2026-01-22 23:42:51.05	136.30	19.10	-37.4	-38.3	23.6	0.00e+00	0	41	0	497025024	48	5775
2026-01-22 23:42:52.06	136.25	19.23	-37.4	-38.4	23.6	0.00e+00	0	41	0	500170752	48	5807
2026-01-22 23:42:53.07	136.19	19.35	-37.4	-38.3	23.7	0.00e+00	0	41	0	503316480	48	5752
2026-01-22 23:42:54.08	136.14	19.48	-37.4	-38.3	23.7	0.00e+00	0	41	0	506462208	48	5764
2026-01-22 23:42:55.09	136.08	19.60	-37.2	-38.2	23.7	0.00e+00	0	41	0	509607936	48	5683
2026-01-22 23:42:56.10	136.03	19.73	-37.3	-38.2	23.8	0.00e+00	0	41	0	512753664	48	5704
2026-01-22 23:42:57.11	135.97	19.86	-37.3	-38.2	23.7	0.00e+00	0	41	0	515899392	48	5716
2026-01-22 23:42:58.12	135.92	19.99	-37.4	-38.3	23.8	0.00e+00	0	41	0	519045120	48	5747
2026-01-22 23:42:59.13	135.86	20.12	-37.2	-38.1	23.8	0.00e+00	0	41	0	522190848	48	5633
2026-01-22 23:43:00.14	135.80	20.25	-37.0	-37.9	24.1	0.00e+00	0	41	0	525336576	48	5509
2026-01-22 23:43:01.15	135.75	20.38	-37.1	-38.0	24.0	0.00e+00	0	41	0	528482304	48	5568
2026-01-22 23:43:02.16	135.69	20.51	-37.1	-38.0	23.9	0.00e+00	0	41	0	531628032	48	5594
2026-01-22 23:43:03.17	135.63	20.64	-37.2	-38.1	23.9	0.00e+00	0	41	0	534773760	48	5622
2026-01-22 23:43:04.18	135.57	20.77	-37.0	-37.9	24.0	0.00e+00	0	41	0	537919488	48	5523
2026-01-22 23:43:05.19	135.51	20.91	-36.7	-37.6	24.3	0.00e+00	0	41	0	541065216	46	5994
2026-01-22 23:43:06.20	135.45	21.04	-36.8	-37.7	24.2	0.00e+00	0	41	0	544210944	46	6013
2026-01-22 23:43:07.21	135.39	21.18	-36.8	-37.7	24.1	0.00e+00	0	41	0	547356672	46	6059
2026-01-22 23:43:08.22	135.33	21.31	-36.7	-37.6	24.3	0.00e+00	0	41	0	550502400	46	5955
2026-01-22 23:43:09.23	135.26	21.45	-36.7	-37.6	24.2	0.00e+00	0	41	0	553648128	46	5943
2026-01-22 23:43:10.24	135.20	21.58	-36.6	-37.5	24.3	0.00e+00	0	41	0	556793856	46	5901
2026-01-22 23:43:11.24	135.14	21.72	-36.3	-37.1	24.6	0.00e+00	0	41	0	559939584	46	5652
2026-01-22 23:43:12.25	135.07	21.86	-36.0	-36.9	24.7	0.00e+00	0	41	0	563085312	46	5514
2026-01-22 23:43:13.26	135.01	22.00	-36.0	-36.9	24.7	0.00e+00	0	41	0	566231040	46	5482
2026-01-22 23:43:14.27	134.94	22.14	-36.1	-37.0	24.7	0.00e+00	0	41	0	569376768	46	5534
2026-01-22 23:43:15.28	134.88	22.28	-36.1	-37.0	24.7	0.00e+00	0	41	0	572522496	46	5541
2026-01-22 23:43:16.29	134.81	22.42	-35.8	-36.7	24.9	0.00e+00	0	41	0	575668224	46	5349
2026-01-22 23:43:17.30	134.75	22.56	-35.7	-36.6	24.9	0.00e+00	0	41	0	578813952	44	5934
2026-01-22 23:43:18.31	134.68	22.70	-35.7	-36.6	24.9	0.00e+00	0	41	0	581959680	44	5951
2026-01-22 23:43:19.32	134.61	22.85	-35.7	-36.5	24.9	0.00e+00	0	41	0	585105408	44	5917
2026-01-22 23:43:20.33	134.54	22.99	-35.8	-36.7	24.7	0.00e+00	0	41	0	588251136	44	6025
2026-01-22 23:43:21.34	134.47	23.13	-35.7	-36.6	24.8	0.00e+00	0	41	0	591396864	44	5950
2026-01-22 23:43:22.34	134.40	23.28	-35.7	-36.5	24.9	0.00e+00	0	41	0	594542592	44	5906
2026-01-22 23:43:23.35	134.33	23.42	-35.8	-36.6	24.8	0.00e+00	0	41	0	597688320	44	5980
2026-01-22 23:43:24.37	134.26	23.57	-35.7	-36.6	25.0	0.00e+00	0	41	0	600834048	44	5927
2026-01-22 23:43:25.38	134.19	23.72	-35.7	-36.6	25.0	0.00e+00	0	41	0	603979776	44	5962
2026-01-22 23:43:26.39	134.11	23.87	-35.6	-36.4	25.1	0.00e+00	0	41	0	607125504	44	5852
2026-01-22 23:43:27.40	134.04	24.02	-35.6	-36.5	25.1	0.00e+00	0	41	0	610271232	44	5879
2026-01-22 23:43:28.41	133.96	24.17	-35.7	-36.6	24.9	0.00e+00	0	41	0	613416960	44	5950
2026-01-22 23:43:29.42	133.89	24.32	-35.8	-36.7	24.9	0.00e+00	0	41	0	616562688	44	6023
2026-01-22 23:43:30.43	133.81	24.47	-36.0	-36.9	24.7	0.00e+00	0	41	0	619708416	44	6153
2026-01-22 23:43:31.44	133.74	24.62	-35.9	-36.8	24.8	0.00e+00	0	41	0	622854144	44	6095
2026-01-22 23:43:32.45	133.66	24.78	-36.0	-36.9	24.8	0.00e+00	0	41	0	625999872	44	6135
2026-01-22 23:43:33.46	133.58	24.93	-36.1	-37.0	24.7	0.00e+00	0	41	0	629145600	44	6210
2026-01-22 23:43:34.47	133.50	25.09	-36.3	-37.2	24.5	0.00e+00	0	41	0	632291328	44	6354
2026-01-22 23:43:35.48	133.42	25.24	-36.3	-37.2	24.5	0.00e+00	0	41	0	635437056	44	6364
2026-01-22 23:43:36.49	133.34	25.40	-36.5	-37.4	24.4	0.00e+00	0	41	0	638582784	44	6512
2026-01-22 23:43:37.50	133.26	25.56	-36.5	-37.4	24.3	0.00e+00	0	41	0	641728512	44	6507
2026-01-22 23:43:38.51	133.18	25.72	-36.7	-37.6	24.2	0.00e+00	0	41	0	644874240	44	6699
2026-01-22 23:43:39.52	133.09	25.88	-36.9	-37.8	24.1	0.00e+00	0	41	0	648019968	46	6086
2026-01-22 23:43:40.52	133.01	26.03	-36.7	-37.7	24.3	0.00e+00	0	41	0	651165696	46	6002
2026-01-22 23:43:41.53	132.92	26.20	-36.9	-37.8	24.1	0.00e+00	0	41	0	654311424	46	6079
2026-01-22 23:43:42.54	132.84	26.36	-36.9	-37.8	24.1	0.00e+00	0	41	0	657457152	46	6109
2026-01-22 23:43:43.55	132.75	26.52	-37.0	-37.9	24.0	0.00e+00	0	41	0	660602880	46	6144
2026-01-22 23:43:44.56	132.66	26.69	-37.2	-38.1	23.8	0.00e+00	0	41	0	663748608	46	6299
2026-01-22 23:43:45.57	132.57	26.85	-37.3	-38.2	23.6	0.00e+00	0	41	0	666894336	46	6386
2026-01-22 23:43:46.58	132.48	27.02	-37.4	-38.3	23.6	0.00e+00	0	41	0	670040064	46	6455
2026-01-22 23:43:47.59	132.39	27.18	-37.5	-38.4	23.6	0.00e+00	0	41	0	673185792	46	6566
2026-01-22 23:43:48.61	132.30	27.35	-37.6	-38.5	23.6	0.00e+00	0	41	0	676331520	46	6614
2026-01-22 23:43:49.61	132.21	27.52	-37.7	-38.6	23.6	0.00e+00	0	41	0	679477248	46	6709
2026-01-22 23:43:50.62	132.11	27.69	-37.7	-38.7	23.5	0.00e+00	0	41	0	682622976	46	6727
2026-01-22 23:43:51.63	132.02	27.86	-37.7	-38.7	23.5	0.00e+00	0	41	0	685768704	46	6733
2026-01-22 23:43:52.64	131.92	28.03	-37.7	-38.7	23.5	0.00e+00	0	41	0	688914432	46	6738
2026-01-22 23:43:53.65	131.83	28.20	-37.6	-38.6	23.6	0.00e+00	0	41	0	692060160	46	6658
2026-01-22 23:43:54.66	131.73	28.38	-37.7	-38.6	23.5	0.00e+00	0	41	0	695205888	46	6704
2026-01-22 23:43:55.67	131.63	28.55	-37.7	-38.7	23.6	0.00e+00	0	41	0	698351616	48	6002
2026-01-22 23:43:56.68	131.53	28.73	-37.8	-38.7	23.5	0.00e+00	0	41	0	701497344	48	6026
2026-01-22 23:43:57.69	131.43	28.90	-37.7	-38.6	23.6	0.00e+00	0	41	0	704643072	48	5980
2026-01-22 23:43:58.70	131.33	29.08	-37.4	-38.4	23.8	0.00e+00	0	41	0	707788800	48	5802
2026-01-22 23:43:59.71	131.22	29.26	-37.4	-38.3	23.9	0.00e+00	0	41	0	710934528	48	5764
2026-01-22 23:44:00.72	131.12	29.44	-37.3	-38.2	23.9	0.00e+00	0	41	0	714080256	48	5721
2026-01-22 23:44:01.73	131.01	29.62	-37.2	-38.2	23.9	0.00e+00	0	41	0	717225984	48	5667
2026-01-22 23:44:02.74	130.90	29.80	-37.3	-38.2	23.9	0.00e+00	0	41	0	720371712	48	5698
2026-01-22 23:44:03.75	130.80	29.98	-37.2	-38.1	23.9	0.00e+00	0	41	0	723517440	48	5653
2026-01-22 23:44:04.76	130.69	30.17	-36.9	-37.8	24.2	0.00e+00	0	41	0	726663168	48	5432
2026-01-22 23:44:05.77	130.57	30.35	-36.8	-37.7	24.3	0.00e+00	0	41	0	729808896	48	5385
2026-01-22 23:44:06.78	130.46	30.54	-36.8	-37.7	24.2	0.00e+00	0	41	0	732954624	46	6054
2026-01-22 23:44:07.79	130.35	30.72	-36.7	-37.6	24.4	0.00e+00	0	41	0	736100352	46	5951
2026-01-22 23:44:08.80	130.23	30.91	-36.9	-37.8	24.2	0.00e+00	0	41	0	739246080	46	6082
2026-01-22 23:44:09.81	130.12	31.10	-36.7	-37.6	24.5	0.00e+00	0	41	0	742391808	46	5944
2026-01-22 23:44:10.82	130.00	31.29	-36.8	-37.7	24.4	0.00e+00	0	41	0	745537536	46	6058
2026-01-22 23:44:11.83	129.88	31.48	-36.7	-37.6	24.5	0.00e+00	0	41	0	748683264	46	5963
2026-01-22 23:44:12.84	129.76	31.68	-36.8	-37.7	24.5	0.00e+00	0	41	0	751828992	46	5996
2026-01-22 23:44:13.85	129.64	31.87	-36.9	-37.8	24.4	0.00e+00	0	41	0	754974720	46	6071
2026-01-22 23:44:14.86	129.51	32.06	-36.9	-37.8	24.4	0.00e+00	0	41	0	758120448	46	6102
2026-01-22 23:44:15.87	129.39	32.26	-36.8	-37.7	24.4	0.00e+00	0	41	0	761266176	46	6020
2026-01-22 23:44:16.88	129.26	32.46	-36.8	-37.7	24.5	0.00e+00	0	41	0	764411904	46	6036
2026-01-22 23:44:17.89	129.13	32.65	-36.9	-37.8	24.4	0.00e+00	0	41	0	767557632	46	6084
2026-01-22 23:44:18.90	129.00	32.85	-37.1	-38.0	24.2	0.00e+00	0	41	0	770703360	46	6261
2026-01-22 23:44:19.90	128.87	33.05	-37.0	-37.9	24.3	0.00e+00	0	41	0	774897664	46	6165
2026-01-22 23:44:20.92	128.74	33.25	-37.2	-38.1	24.2	0.00e+00	0	41	0	776994816	46	6281
2026-01-22 23:44:21.92	128.60	33.45	-37.3	-38.2	24.0	0.00e+00	0	41	0	780140544	46	6384
2026-01-22 23:44:22.93	128.47	33.66	-37.6	-38.5	23.8	0.00e+00	0	41	0	783286272	46	6644
2026-01-22 23:44:23.94	128.33	33.86	-37.7	-38.7	23.7	0.00e+00	0	41	0	786432000	46	6759
2026-01-22 23:44:24.95	128.19	34.07	-37.7	-38.6	23.7	0.00e+00	0	41	0	790626304	48	5975
2026-01-22 23:44:25.96	128.04	34.28	-37.8	-38.7	23.7	0.00e+00	0	41	0	793772032	48	6030
2026-01-22 23:44:26.97	127.90	34.48	-38.0	-38.9	23.4	0.00e+00	0	41	0	796917760	48	6203
2026-01-22 23:44:27.98	127.75	34.69	-38.3	-39.3	23.2	0.00e+00	0	41	0	799014912	48	6449
2026-01-22 23:44:28.99	127.61	34.90	-38.1	-39.0	23.5	0.00e+00	0	41	0	802160640	48	6240
2026-01-22 23:44:30.00	127.46	35.12	-38.4	-39.3	23.2	0.00e+00	0	41	0	806354944	48	6484
2026-01-22 23:44:31.01	127.31	35.33	-38.5	-39.5	23.0	0.00e+00	0	41	0	809500672	48	6596
2026-01-22 23:44:32.02	127.15	35.54	-38.7	-39.7	22.9	0.00e+00	0	41	0	812646400	48	6768
2026-01-22 23:44:33.03	127.00	35.76	-39.1	-40.1	22.6	0.00e+00	0	41	0	815792128	50	6337
2026-01-22 23:44:34.05	126.84	35.98	-39.2	-40.2	22.6	0.00e+00	0	41	0	818937856	50	6378
2026-01-22 23:44:35.05	126.68	36.19	-39.1	-40.1	22.6	0.00e+00	0	41	0	822083584	50	6339
2026-01-22 23:44:36.06	126.51	36.41	-39.1	-40.1	22.6	0.00e+00	0	41	0	825229312	50	6342
2026-01-22 23:44:37.08	126.35	36.64	-39.2	-40.2	22.5	0.00e+00	0	41	0	828375040	50	6417
2026-01-22 23:44:38.09	126.18	36.86	-39.6	-40.6	22.3	0.00e+00	0	41	0	831520768	50	6697
2026-01-22 23:44:39.10	126.01	37.08	-39.3	-40.3	22.5	0.00e+00	0	41	0	834666496	50	6442
2026-01-22 23:44:40.10	125.84	37.30	-39.4	-40.5	22.3	0.00e+00	0	41	0	837812224	50	6579
2026-01-22 23:44:41.11	125.67	37.53	-39.6	-40.6	22.1	0.00e+00	0	41	0	840957952	50	6720
2026-01-22 23:44:42.12	125.49	37.75	-39.9	-41.0	21.9	0.00e+00	0	41	0	844103680	52	6219
2026-01-22 23:44:43.13	125.31	37.98	-39.7	-40.7	22.1	0.00e+00	0	41	0	847249408	52	6043
2026-01-22 23:44:44.14	125.13	38.21	-39.5	-40.5	22.2	0.00e+00	0	41	0	850395136	52	5904
2026-01-22 23:44:45.15	124.95	38.44	-39.3	-40.3	22.5	0.00e+00	0	41	0	853540864	52	5743
2026-01-22 23:44:46.16	124.76	38.67	-39.5	-40.5	22.3	0.00e+00	0	41	0	856686592	52	5907
2026-01-22 23:44:47.17	124.57	38.90	-39.4	-40.4	22.4	0.00e+00	0	41	0	859832320	52	5833
2026-01-22 23:44:48.18	124.38	39.14	-39.5	-40.6	22.2	0.00e+00	0	41	0	862978048	52	5951
2026-01-22 23:44:49.19	124.18	39.37	-39.8	-40.8	22.0	0.00e+00	0	41	0	866123776	52	6107
2026-01-22 23:44:50.21	123.98	39.61	-39.9	-40.9	21.9	0.00e+00	0	41	0	869269504	52	6201
2026-01-22 23:44:51.22	123.78	39.85	-39.7	-40.8	22.1	0.00e+00	0	41	0	872415232	52	6072
2026-01-22 23:44:52.23	123.58	40.09	-39.6	-40.6	22.2	0.00e+00	0	41	0	875560960	52	5986
2026-01-22 23:44:53.24	123.37	40.33	-39.5	-40.5	22.4	0.00e+00	0	41	0	878706688	52	5912
2026-01-22 23:44:54.24	123.16	40.56	-39.4	-40.4	22.4	0.00e+00	0	41	0	881852416	52	5817
2026-01-22 23:44:55.25	122.95	40.81	-39.4	-40.4	22.5	0.00e+00	0	41	0	884998144	52	5824
2026-01-22 23:44:56.26	122.73	41.05	-39.0	-40.0	22.9	0.00e+00	0	41	0	888143872	52	5545
2026-01-22 23:44:57.27	122.51	41.29	-38.8	-39.7	23.1	0.00e+00	0	41	0	891289600	52	5397
2026-01-22 23:44:58.28	122.29	41.54	-38.6	-39.5	23.1	0.00e+00	0	41	0	894435328	50	5921
2026-01-22 23:44:59.29	122.06	41.79	-38.8	-39.8	22.8	0.00e+00	0	41	0	897581056	50	6098
2026-01-22 23:45:00.30	121.83	42.03	-39.0	-40.0	22.6	0.00e+00	0	41	0	900726784	50	6267
2026-01-22 23:45:01.31	121.60	42.28	-39.3	-40.3	22.5	0.00e+00	0	41	0	903872512	50	6455
2026-01-22 23:45:02.31	121.36	42.53	-39.5	-40.5	22.3	0.00e+00	0	41	0	907018240	50	6621
2026-01-22 23:45:03.33	121.12	42.78	-39.6	-40.7	22.2	0.00e+00	0	41	0	910163968	50	6731
2026-01-22 23:45:04.34	120.87	43.04	-40.0	-41.1	21.8	0.00e+00	0	41	0	913309696	52	6297
2026-01-22 23:45:05.35	120.62	43.29	-40.4	-41.4	21.5	0.00e+00	0	41	0	916455424	52	6572
2026-01-22 23:45:06.36	120.37	43.54	-40.4	-41.5	21.5	0.00e+00	0	41	0	919601152	52	6601
2026-01-22 23:45:07.36	120.11	43.80	-40.6	-41.7	21.3	0.00e+00	0	41	0	922746880	52	6789
2026-01-22 23:45:08.37	119.85	44.05	-40.6	-41.7	21.3	0.00e+00	0	41	0	925892608	52	6762
2026-01-22 23:45:09.38	119.59	44.31	-40.7	-41.8	21.2	0.00e+00	0	41	0	929038336	52	6857
2026-01-22 23:45:10.39	119.32	44.57	-40.6	-41.8	21.1	0.00e+00	0	41	0	932184064	54	6066
2026-01-22 23:45:11.40	119.04	44.83	-39.9	-41.0	21.7	0.00e+00	0	41	0	935329792	54	5570
2026-01-22 23:45:12.41	118.76	45.09	-39.7	-40.8	21.9	0.00e+00	0	41	0	938475520	54	5428
2026-01-22 23:45:13.42	118.48	45.35	-39.7	-40.8	22.1	0.00e+00	0	41	0	941621248	52	6087
2026-01-22 23:45:14.43	118.19	45.61	-39.6	-40.6	22.2	0.00e+00	0	41	0	944766976	52	5971
2026-01-22 23:45:15.44	117.90	45.88	-39.6	-40.7	22.2	0.00e+00	0	41	0	947912704	52	6006
2026-01-22 23:45:16.45	117.60	46.14	-39.7	-40.7	22.2	0.00e+00	0	41	0	951058432	52	6021
2026-01-22 23:45:17.46	117.29	46.40	-39.6	-40.6	22.3	0.00e+00	0	41	0	954204160	52	5956
2026-01-22 23:45:18.47	116.98	46.67	-39.9	-40.9	22.1	0.00e+00	0	41	0	957349888	52	6197
2026-01-22 23:45:19.48	116.67	46.94	-39.3	-40.3	22.5	0.00e+00	0	41	0	960495616	52	5766
2026-01-22 23:45:20.49	116.35	47.20	-38.9	-39.9	22.9	0.00e+00	0	41	0	963641344	52	5519
2026-01-22 23:45:21.50	116.03	47.47	-38.8	-39.7	23.1	0.00e+00	0	41	0	966787072	50	6053
2026-01-22 23:45:22.50	115.70	47.74	-38.9	-39.8	22.8	0.00e+00	0	41	0	969932800	50	6133
2026-01-22 23:45:23.52	115.36	48.01	-39.0	-40.0	22.8	0.00e+00	0	41	0	973078528	50	6229
2026-01-22 23:45:24.53	115.01	48.28	-39.2	-40.3	22.5	0.00e+00	0	41	0	976224256	50	6427
2026-01-22 23:45:25.54	114.67	48.55	-39.7	-40.7	22.1	0.00e+00	0	41	0	979369984	50	6799
2026-01-22 23:45:26.55	114.31	48.82	-39.5	-40.6	22.2	0.00e+00	0	41	0	982515712	52	5937
2026-01-22 23:45:27.55	113.95	49.09	-39.5	-40.5	22.4	0.00e+00	0	41	0	985661440	52	5926
2026-01-22 23:45:28.56	113.59	49.36	-39.2	-40.2	22.6	0.00e+00	0	41	0	988807168	52	5678
2026-01-22 23:45:29.57	113.21	49.63	-39.2	-40.2	22.5	0.00e+00	0	41	0	991952896	52	5701
2026-01-22 23:45:30.58	112.83	49.90	-39.3	-40.3	22.7	0.00e+00	0	41	0	995098624	52	5740
2026-01-22 23:45:31.59	112.44	50.17	-39.1	-40.1	22.4	0.00e+00	0	41	0	998244352	52	5644
2026-01-22 23:45:32.60	112.05	50.45	-39.6	-40.7	22.0	0.00e+00	0	41	0	1001390080	52	6038
2026-01-22 23:45:33.61	111.64	50.72	-39.7	-40.7	21.7	0.00e+00	0	41	0	1004535808	52	6043
2026-01-22 23:45:34.62	111.23	50.99	-39.5	-40.6	21.8	0.00e+00	0	41	0	1007681536	52	5961
2026-01-22 23:45:35.63	110.82	51.26	-39.8	-40.8	22.4	0.00e+00	0	41	0	1010827264	52	6094
2026-01-22 23:45:36.64	110.39	51.54	-39.3	-40.3	22.6	0.00e+00	0	41	0	1013972992	52	5767
2026-01-22 23:45:37.65	109.96	51.81	-39.1	-40.1	22.6	0.00e+00	0	41	0	1017118720	52	5628
2026-01-22 23:45:38.66	109.52	52.08	-38.5	-39.5	23.1	0.00e+00	0	41	0	1020264448	50	5873
2026-01-22 23:45:39.67	109.07	52.35	-38.5	-39.5	22.8	0.00e+00	0	41	0	1023410176	50	5917
2026-01-22 23:45:40.68	108.61	52.62	-38.7	-39.7	22.8	0.00e+00	0	41	0	1026555904	50	6018
2026-01-22 23:45:41.69	108.14	52.90	-38.6	-39.5	23.1	0.00e+00	0	41	0	1029701632	50	5924
2026-01-22 23:45:42.70	107.67	53.17	-38.0	-38.9	23.6	0.00e+00	0	41	0	1032847360	50	5527
2026-01-22 23:45:43.71	107.18	53.44	-37.8	-38.7	23.8	0.00e+00	0	41	0	1035993088	50	5402
2026-01-22 23:45:44.72	106.69	53.70	-37.5	-38.4	23.9	0.00e+00	0	41	0	1039138816	48	5854
2026-01-22 23:45:45.73	106.19	53.97	-37.4	-38.4	23.6	0.00e+00	0	41	0	1042284544	48	5816
2026-01-22 23:45:46.75	105.67	54.24	-37.7	-38.6	23.5	0.00e+00	0	41	0	1045430272	48	5958
2026-01-22 23:45:47.75	105.16	54.51	-37.9	-38.9	23.7	0.00e+00	0	41	0	1048576000	48	6144
2026-01-22 23:45:48.76	104.63	54.77	-37.8	-38.8	23.8	0.00e+00	0	41	0	1051721728	48	6070
2026-01-22 23:45:49.77	104.08	55.04	-37.4	-38.3	24.1	0.00e+00	0	41	0	1054867456	48	5750
2026-01-22 23:45:50.78	103.53	55.30	-37.2	-38.1	24.2	0.00e+00	0	41	0	1058013184	48	5646
2026-01-22 23:45:51.79	102.97	55.56	-37.0	-37.9	24.3	0.00e+00	0	41	0	1061158912	48	5527
2026-01-22 23:45:52.80	102.40	55.82	-37.0	-37.9	24.3	0.00e+00	0	41	0	1064304640	48	5484
2026-01-22 23:45:53.80	101.82	56.08	-37.4	-38.3	24.0	0.00e+00	0	41	0	1067450368	48	5782
2026-01-22 23:45:54.82	101.22	56.34	-37.4	-38.4	24.1	0.00e+00	0	41	0	1070596096	48	5796
2026-01-22 23:45:55.83	100.62	56.59	-37.1	-38.0	24.3	0.00e+00	0	41	0	1073741824	48	5538
2026-01-22 23:45:56.84	100.00	56.84	-36.7	-37.6	24.5	0.00e+00	0	41	0	1076887552	48	5307
2026-01-22 23:45:57.84	99.38	57.09	-36.5	-37.4	24.5	0.00e+00	0	41	0	1080033280	46	5838
2026-01-22 23:45:58.85	98.74	57.34	-36.6	-37.5	24.4	0.00e+00	0	41	0	1083179008	46	5902
2026-01-22 23:45:59.86	98.09	57.59	-36.9	-37.9	24.3	0.00e+00	0	41	0	1086324736	46	6149
2026-01-22 23:46:00.87	97.42	57.83	-37.0	-37.9	24.2	0.00e+00	0	41	0	1089470464	46	6152
2026-01-22 23:46:01.88	96.75	58.07	-37.1	-38.0	24.2	0.00e+00	0	41	0	1092616192	46	6241
2026-01-22 23:46:02.89	96.06	58.31	-37.0	-37.9	24.3	0.00e+00	0	41	0	1095761920	46	6148
2026-01-22 23:46:03.90	95.36	58.54	-37.1	-38.0	23.8	0.00e+00	0	41	0	1098907648	46	6277
2026-01-22 23:46:04.91	94.65	58.77	-37.2	-38.1	23.9	0.00e+00	0	41	0	1102053376	46	6321
2026-01-22 23:46:05.92	93.93	59.00	-37.2	-38.1	24.2	0.00e+00	0	41	0	1105199104	46	6308
2026-01-22 23:46:06.93	93.19	59.23	-37.0	-37.9	24.4	0.00e+00	0	41	0	1108344832	46	6151
2026-01-22 23:46:07.94	92.44	59.45	-36.6	-37.5	24.6	0.00e+00	0	41	0	1111490560	46	5890
2026-01-22 23:46:08.95	91.68	59.67	-36.1	-37.0	24.7	0.00e+00	0	41	0	1114636288	46	5572
2026-01-22 23:46:09.96	90.90	59.88	-36.3	-37.2	24.6	0.00e+00	0	41	0	1117782016	46	5714
2026-01-22 23:46:10.97	90.11	60.09	-36.4	-37.3	24.8	0.00e+00	0	41	0	1120927744	46	5740
2026-01-22 23:46:11.98	89.31	60.29	-36.1	-36.9	25.1	0.00e+00	0	41	0	1124073472	46	5526
2026-01-22 23:46:12.99	88.50	60.50	-35.9	-36.7	25.2	0.00e+00	0	41	0	1127219200	46	5394
2026-01-22 23:46:14.00	87.67	60.69	-35.7	-36.6	25.3	0.00e+00	0	41	0	1130364928	46	5300
2026-01-22 23:46:15.01	86.83	60.88	-35.8	-36.6	25.3	0.00e+00	0	41	0	1134559232	44	5968
2026-01-22 23:46:16.02	85.98	61.07	-36.0	-36.8	25.1	0.00e+00	0	41	0	1137704960	44	6121
2026-01-22 23:46:17.03	85.11	61.25	-35.8	-36.7	25.2	0.00e+00	0	41	0	1139802112	44	6025
2026-01-22 23:46:18.04	84.24	61.43	-36.2	-37.1	24.9	0.00e+00	0	41	0	1142947840	44	6279
2026-01-22 23:46:19.04	83.36	61.59	-36.1	-37.0	24.9	0.00e+00	0	41	0	1146093568	44	6222
2026-01-22 23:46:20.06	82.44	61.76	-36.0	-36.9	24.9	0.00e+00	0	41	0	1150287872	44	6179
2026-01-22 23:46:21.07	81.53	61.92	-36.2	-37.1	24.7	0.00e+00	0	41	0	1153433600	44	6322
2026-01-22 23:46:22.08	80.61	62.07	-36.2	-37.1	24.7	0.00e+00	0	41	0	1156579328	44	6329
2026-01-22 23:46:23.09	79.67	62.22	-36.5	-37.4	24.6	0.00e+00	0	41	0	1159725056	44	6528
2026-01-22 23:46:24.09	78.73	62.36	-36.5	-37.4	24.5	0.00e+00	0	41	0	1162870784	44	6506
2026-01-22 23:46:25.10	77.77	62.49	-36.4	-37.3	24.7	0.00e+00	0	41	0	1166016512	44	6464
2026-01-22 23:46:26.11	76.80	62.62	-36.3	-37.2	24.9	0.00e+00	0	41	0	1169162240	44	6391
2026-01-22 23:46:27.12	75.82	62.74	-36.4	-37.3	24.6	0.00e+00	0	41	0	1172307968	44	6482
2026-01-22 23:46:28.13	74.83	62.85	-36.4	-37.3	24.8	0.00e+00	0	41	0	1175453696	44	6425
2026-01-22 23:46:29.14	73.84	62.96	-35.8	-36.7	25.2	0.00e+00	0	41	0	1178599424	44	6042
2026-01-22 23:46:30.15	72.83	63.06	-35.8	-36.6	25.2	0.00e+00	0	41	0	1181745152	44	5968
2026-01-22 23:46:31.16	71.82	63.15	-35.8	-36.7	25.1	0.00e+00	0	41	0	1184890880	44	6010
2026-01-22 23:46:32.17	70.79	63.23	-35.8	-36.6	25.0	0.00e+00	0	41	0	1188036608	44	5979
2026-01-22 23:46:33.18	69.76	63.31	-35.5	-36.3	24.7	0.00e+00	0	41	0	1191182336	44	5784
2026-01-22 23:46:34.19	68.73	63.38	-35.7	-36.6	24.6	0.00e+00	0	41	0	1194328064	44	5947
2026-01-22 23:46:35.20	67.69	63.44	-36.0	-36.9	24.7	0.00e+00	0	41	0	1197473792	44	6142
2026-01-22 23:46:36.21	66.64	63.50	-36.2	-37.1	24.6	0.00e+00	0	41	0	1200619520	44	6342
2026-01-22 23:46:37.21	65.60	63.54	-36.3	-37.2	24.7	0.00e+00	0	41	0	1203765248	44	6390
2026-01-22 23:46:38.22	64.55	63.58	-36.5	-37.4	24.7	0.00e+00	0	41	0	1206910976	44	6520
2026-01-22 23:46:39.23	63.49	63.61	-36.6	-37.6	24.3	0.00e+00	0	41	0	1210056704	44	6659
2026-01-22 23:46:40.24	62.43	63.63	-36.3	-37.2	24.6	0.00e+00	0	41	0	1213202432	44	6406
2026-01-22 23:46:41.25	61.37	63.65	-36.3	-37.2	24.9	0.00e+00	0	41	0	1216348160	44	6381
2026-01-22 23:46:42.26	60.31	63.65	-36.2	-37.1	24.9	0.00e+00	0	41	0	1219493888	44	6320
2026-01-22 23:46:43.27	59.24	63.65	-36.3	-37.2	25.0	0.00e+00	0	41	0	1222639616	44	6391
2026-01-22 23:46:44.28	58.18	63.64	-36.0	-36.9	25.1	0.00e+00	0	41	0	1225785344	44	6135
2026-01-22 23:46:45.29	57.12	63.62	-36.0	-36.9	25.1	0.00e+00	0	41	0	1228931072	44	6157
2026-01-22 23:46:46.30	56.06	63.59	-36.0	-36.8	25.2	0.00e+00	0	41	0	1232076800	44	6109
2026-01-22 23:46:47.31	55.01	63.56	-36.1	-37.0	25.1	0.00e+00	0	41	0	1235222528	44	6212
2026-01-22 23:46:48.31	53.97	63.52	-36.0	-36.8	25.2	0.00e+00	0	41	0	1238368256	44	6133
2026-01-22 23:46:49.32	52.92	63.47	-36.2	-37.1	25.0	0.00e+00	0	41	0	1241513984	44	6282
2026-01-22 23:46:50.33	51.87	63.41	-36.4	-37.3	24.9	0.00e+00	0	41	0	1244659712	44	6425
2026-01-22 23:46:51.34	50.84	63.34	-36.0	-36.8	25.1	0.00e+00	0	41	0	1247805440	44	6100
2026-01-22 23:46:52.35	49.81	63.27	-35.3	-36.1	25.6	0.00e+00	0	41	0	1250951168	44	5655
2026-01-22 23:46:53.37	48.77	63.19	-35.7	-36.6	25.0	0.00e+00	0	41	0	1254096896	44	5960
2026-01-22 23:46:54.38	47.75	63.10	-36.4	-37.4	24.7	0.00e+00	0	41	0	1257242624	44	6501
2026-01-22 23:46:55.39	46.74	63.00	-36.6	-37.5	24.8	0.00e+00	0	41	0	1260388352	44	6574
2026-01-22 23:46:56.40	45.74	62.90	-36.2	-37.1	24.9	0.00e+00	0	41	0	1263534080	44	6302
2026-01-22 23:46:57.41	44.75	62.79	-36.6	-37.5	24.5	0.00e+00	0	41	0	1266679808	44	6589
2026-01-22 23:46:58.42	43.77	62.67	-36.8	-37.7	24.5	0.00e+00	0	41	0	1269825536	46	6031
2026-01-22 23:46:59.43	42.80	62.55	-36.8	-37.7	24.5	0.00e+00	0	41	0	1272971264	46	6057
2026-01-22 23:47:00.44	41.83	62.42	-36.9	-37.8	24.5	0.00e+00	0	41	0	1276116992	46	6094
2026-01-22 23:47:01.44	40.89	62.28	-37.1	-38.0	24.4	0.00e+00	0	41	0	1279262720	46	6242
2026-01-22 23:47:02.46	39.94	62.14	-36.6	-37.5	24.5	0.00e+00	0	41	0	1282408448	46	5919
2026-01-22 23:47:03.46	39.02	61.99	-36.3	-37.2	24.7	0.00e+00	0	41	0	1285554176	46	5711
2026-01-22 23:47:04.47	38.10	61.83	-36.6	-37.4	24.5	0.00e+00	0	41	0	1288699904	46	5854
2026-01-22 23:47:05.48	37.20	61.67	-36.8	-37.7	24.5	0.00e+00	0	41	0	1291845632	46	6039
2026-01-22 23:47:06.49	36.30	61.50	-37.1	-38.1	24.3	0.00e+00	0	41	0	1294991360	46	6280
2026-01-22 23:47:07.50	35.42	61.33	-37.1	-38.0	24.4	0.00e+00	0	41	0	1298137088	46	6244
2026-01-22 23:47:08.51	34.55	61.15	-36.9	-37.8	24.5	0.00e+00	0	41	0	1301282816	46	6116
2026-01-22 23:47:09.52	33.69	60.97	-35.9	-36.8	25.1	0.00e+00	0	41	0	1304428544	46	5438
2026-01-22 23:47:10.53	32.85	60.78	-35.9	-36.7	25.2	0.00e+00	0	41	0	1307574272	46	5390
2026-01-22 23:47:11.54	32.02	60.59	-36.1	-36.9	25.2	0.00e+00	0	41	0	1310720000	46	5520
2026-01-22 23:47:12.55	31.20	60.39	-36.5	-37.3	24.8	0.00e+00	0	41	0	1313865728	46	5789
2026-01-22 23:47:13.56	30.39	60.18	-36.7	-37.6	24.7	0.00e+00	0	41	0	1317011456	46	5969
2026-01-22 23:47:14.57	29.60	59.98	-36.7	-37.5	24.3	0.00e+00	0	41	0	1320157184	46	5921
2026-01-22 23:47:15.58	28.82	59.77	-36.6	-37.6	24.2	0.00e+00	0	41	0	1323302912	46	5929
2026-01-22 23:47:16.59	28.05	59.55	-36.6	-37.5	24.6	0.00e+00	0	41	0	1326448640	46	5879
2026-01-22 23:47:17.60	27.30	59.33	-36.6	-37.5	24.8	0.00e+00	0	41	0	1329594368	46	5886
2026-01-22 23:47:18.61	26.56	59.11	-36.4	-37.2	24.9	0.00e+00	0	41	0	1332740096	46	5703
2026-01-22 23:47:19.62	25.83	58.88	-36.7	-37.5	24.8	0.00e+00	0	41	0	1335885824	46	5914
2026-01-22 23:47:20.63	25.11	58.65	-36.9	-37.8	24.2	0.00e+00	0	41	0	1339031552	46	6121
2026-01-22 23:47:21.64	24.41	58.42	-37.0	-37.9	23.9	0.00e+00	0	41	0	1342177280	46	6168
2026-01-22 23:47:22.65	23.71	58.18	-36.7	-37.6	24.2	0.00e+00	0	41	0	1345323008	46	5952
2026-01-22 23:47:23.66	23.03	57.94	-36.6	-37.5	24.4	0.00e+00	0	41	0	1348468736	46	5894
2026-01-22 23:47:24.67	22.37	57.70	-36.5	-37.4	24.6	0.00e+00	0	41	0	1351614464	46	5814
2026-01-22 23:47:25.68	21.71	57.46	-37.4	-38.4	23.8	0.00e+00	0	41	0	1354760192	46	6523
2026-01-22 23:47:26.69	21.07	57.21	-37.9	-38.8	23.8	0.00e+00	0	41	0	1357905920	48	6112
2026-01-22 23:47:27.70	20.44	56.96	-38.0	-39.0	23.7	0.00e+00	0	41	0	1361051648	48	6218
2026-01-22 23:47:28.71	19.82	56.71	-38.2	-39.1	23.1	0.00e+00	0	42	0	1364197376	48	6343
2026-01-22 23:47:29.72	19.21	56.46	-38.0	-39.0	23.1	0.00e+00	0	41	0	1367343104	48	6257
2026-01-22 23:47:30.73	18.61	56.20	-37.5	-38.5	23.6	0.00e+00	0	41	0	1370488832	48	5867
2026-01-22 23:47:31.74	18.02	55.95	-37.0	-37.9	24.4	0.00e+00	0	42	0	1373634560	48	5494
2026-01-22 23:47:32.74	17.45	55.69	-37.2	-38.1	24.2	0.00e+00	0	42	0	1376780288	48	5630
2026-01-22 23:47:33.76	16.88	55.43	-38.2	-39.2	23.6	0.00e+00	0	41	0	1379926016	48	6364
2026-01-22 23:47:34.76	16.33	55.17	-38.5	-39.5	23.0	0.00e+00	0	41	0	1383071744	48	6635
2026-01-22 23:47:35.78	15.78	54.90	-38.8	-39.9	22.8	0.00e+00	0	41	0	1386217472	50	6143
2026-01-22 23:47:36.79	15.25	54.64	-38.0	-38.9	23.7	0.00e+00	0	41	0	1389363200	50	5510
2026-01-22 23:47:37.80	14.72	54.37	-37.2	-38.1	24.0	0.00e+00	0	41	0	1392508928	48	5646
2026-01-22 23:47:38.81	14.21	54.11	-37.0	-37.9	24.2	0.00e+00	0	41	0	1395654656	48	5468
2026-01-22 23:47:39.82	13.70	53.84	-37.1	-38.0	24.3	0.00e+00	0	41	0	1398800384	48	5558
2026-01-22 23:47:40.83	13.20	53.57	-37.4	-38.3	24.1	0.00e+00	0	41	0	1401946112	48	5758
2026-01-22 23:47:41.84	12.72	53.30	-38.4	-39.3	23.3	0.00e+00	0	41	0	1405091840	48	6478
2026-01-22 23:47:42.85	12.24	53.03	-39.8	-41.0	21.6	0.00e+00	0	41	0	1408237568	52	6217
2026-01-22 23:47:43.86	11.77	52.76	-40.3	-41.6	20.2	0.00e+00	0	41	0	1411383296	52	6689
2026-01-22 23:47:44.87	11.31	52.49	-40.2	-41.5	20.5	0.00e+00	0	41	0	1414529024	52	6574
2026-01-22 23:47:45.88	10.86	52.22	-39.1	-40.2	22.0	0.00e+00	0	41	0	1417674752	52	5681
2026-01-22 23:47:46.89	10.41	51.95	-38.5	-39.4	22.9	0.00e+00	0	41	0	1420820480	50	5851
2026-01-22 23:47:47.90	9.98	51.68	-38.5	-39.5	23.1	0.00e+00	0	41	0	1423966208	50	5901
2026-01-22 23:47:48.91	9.55	51.41	-38.2	-39.2	23.5	0.00e+00	0	41	0	1427111936	50	5682
2026-01-22 23:47:49.92	9.13	51.13	-38.5	-39.4	23.2	0.00e+00	0	41	0	1430257664	50	5845
2026-01-22 23:47:50.93	8.72	50.86	-39.3	-40.3	22.5	0.00e+00	0	41	0	1433403392	50	6455
2026-01-22 23:47:51.94	8.31	50.59	-40.0	-41.1	21.9	0.00e+00	0	41	0	1436549120	52	6294
2026-01-22 23:47:52.95	7.91	50.32	-40.3	-41.4	21.6	0.00e+00	0	41	0	1439694848	52	6518
2026-01-22 23:47:53.96	7.52	50.05	-40.1	-41.2	21.7	0.00e+00	0	41	0	1442840576	52	6390
2026-01-22 23:47:54.97	7.14	49.78	-39.0	-40.0	22.7	0.00e+00	0	41	0	1445986304	52	5542
2026-01-22 23:47:55.98	6.76	49.51	-38.8	-39.7	22.8	0.00e+00	0	41	0	1449132032	50	6049
2026-01-22 23:47:56.99	6.39	49.23	-38.8	-39.8	22.9	0.00e+00	0	41	0	1452277760	50	6088
2026-01-22 23:47:58.00	6.03	48.96	-39.1	-40.1	22.5	0.00e+00	0	41	0	1456472064	50	6313
2026-01-22 23:47:59.01	5.67	48.69	-39.6	-40.6	22.2	0.00e+00	0	41	0	1458569216	50	6698
2026-01-22 23:48:00.02	5.32	48.43	-40.0	-41.1	21.9	0.00e+00	0	41	0	1461714944	52	6279
2026-01-22 23:48:01.03	4.98	48.16	-40.2	-41.3	21.7	0.00e+00	0	41	0	1464860672	52	6460
2026-01-22 23:48:02.04	4.64	47.89	-40.7	-41.9	21.2	0.00e+00	0	41	0	1468006400	52	6905
2026-01-22 23:48:03.05	4.31	47.62	-41.1	-42.3	20.8	0.00e+00	0	41	0	1472200704	54	6438
2026-01-22 23:48:04.06	3.98	47.35	-41.1	-42.3	20.8	0.00e+00	0	41	0	1475346432	54	6464
2026-01-22 23:48:05.07	3.66	47.09	-40.9	-42.1	20.8	0.00e+00	0	41	0	1478492160	54	6318
2026-01-22 23:48:06.08	3.34	46.82	-40.4	-41.5	21.5	0.00e+00	0	41	0	1480589312	54	5862
2026-01-22 23:48:07.09	3.03	46.56	-39.5	-40.5	22.4	0.00e+00	0	41	0	1483735040	52	5925
2026-01-22 23:48:08.10	2.73	46.29	-39.2	-40.2	22.6	0.00e+00	0	41	0	1487929344	52	5672
2026-01-22 23:48:09.11	2.42	46.03	-39.4	-40.4	22.1	0.00e+00	0	41	0	1491075072	52	5858
2026-01-22 23:48:10.12	2.13	45.77	-39.7	-40.8	21.9	0.00e+00	0	42	0	1494220800	52	6084
2026-01-22 23:48:11.14	1.84	45.50	-40.1	-41.2	21.9	0.00e+00	0	41	0	1497366528	52	6386
2026-01-22 23:48:12.15	1.55	45.24	-39.9	-40.9	21.9	0.00e+00	0	41	0	1500512256	52	6180
2026-01-22 23:48:13.16	1.27	44.98	-39.5	-40.5	22.3	0.00e+00	0	41	0	1503657984	52	5888
2026-01-22 23:48:14.17	0.99	44.72	-39.2	-40.2	22.6	0.00e+00	0	41	0	1506803712	52	5660
2026-01-22 23:48:15.17	0.73	44.47	-39.0	-39.9	22.8	0.00e+00	0	41	0	1509949440	52	5524
2026-01-22 23:48:16.18	0.46	44.21	-39.4	-40.4	22.4	0.00e+00	0	41	0	1513095168	52	5821
2026-01-22 23:48:17.19	0.20	43.95	-39.3	-40.3	22.6	0.00e+00	0	42	0	1516240896	52	5756
2026-01-22 23:48:18.20	359.94	43.70	-39.2	-40.2	22.4	0.00e+00	0	41	0	1519386624	52	5671
2026-01-22 23:48:19.21	359.68	43.44	-39.1	-40.1	22.2	0.00e+00	0	41	0	1522532352	52	5628
2026-01-22 23:48:20.22	359.43	43.19	-38.9	-39.9	22.6	0.00e+00	0	41	0	1525678080	52	5516
2026-01-22 23:48:21.23	359.18	42.94	-38.7	-39.7	23.0	0.00e+00	0	42	0	1528823808	50	5996
2026-01-22 23:48:22.25	358.94	42.69	-38.9	-39.9	22.8	0.00e+00	0	41	0	1531969536	50	6155
2026-01-22 23:48:23.25	358.70	42.44	-39.8	-40.9	22.1	0.00e+00	0	41	0	1535115264	50	6898
2026-01-22 23:48:24.26	358.47	42.19	-40.5	-41.7	21.4	0.00e+00	0	41	0	1538260992	52	6756
2026-01-22 23:48:25.28	358.23	41.94	-40.9	-42.1	20.9	0.00e+00	0	42	0	1541406720	54	6312
2026-01-22 23:48:26.28	358.01	41.70	-40.8	-42.0	20.6	0.00e+00	0	42	0	1544552448	54	6234
2026-01-22 23:48:27.29	357.78	41.45	-40.2	-41.4	21.1	0.00e+00	0	42	0	1547698176	54	5795
2026-01-22 23:48:28.30	357.56	41.21	-39.9	-41.0	21.7	0.00e+00	0	42	0	1550843904	54	5534
2026-01-22 23:48:29.32	357.34	40.96	-39.3	-40.4	22.4	0.00e+00	0	42	0	1553989632	52	5803
2026-01-22 23:48:30.32	357.13	40.72	-38.9	-39.9	22.8	0.00e+00	0	41	0	1557135360	52	5516
2026-01-22 23:48:31.33	356.92	40.48	-39.3	-40.3	22.5	0.00e+00	0	41	0	1560281088	52	5743
2026-01-22 23:48:32.34	356.71	40.24	-39.4	-40.4	22.4	0.00e+00	0	41	0	1563426816	52	5852
2026-01-22 23:48:33.35	356.51	40.00	-39.1	-40.1	22.7	0.00e+00	0	41	0	1566572544	52	5636
2026-01-22 23:48:34.36	356.31	39.77	-38.9	-39.9	23.0	0.00e+00	0	41	0	1569718272	52	5494
2026-01-22 23:48:35.37	356.11	39.53	-38.7	-39.6	23.1	0.00e+00	0	41	0	1572864000	50	5974
2026-01-22 23:48:36.38	355.91	39.30	-38.6	-39.6	23.0	0.00e+00	0	41	0	1576009728	50	5956
2026-01-22 23:48:37.39	355.72	39.06	-38.7	-39.7	23.1	0.00e+00	0	41	0	1579155456	50	6004
2026-01-22 23:48:38.40	355.53	38.83	-38.8	-39.8	23.0	0.00e+00	0	42	0	1582301184	50	6067
2026-01-22 23:48:39.41	355.34	38.60	-39.0	-39.9	22.8	0.00e+00	0	41	0	1585446912	50	6200
2026-01-22 23:48:40.42	355.16	38.37	-39.3	-40.3	22.5	0.00e+00	0	42	0	1588592640	50	6482
2026-01-22 23:48:41.43	354.97	38.14	-39.5	-40.6	22.2	0.00e+00	0	41	0	1591738368	50	6666
2026-01-22 23:48:42.44	354.79	37.91	-39.6	-40.6	22.0	0.00e+00	0	41	0	1594884096	50	6712
2026-01-22 23:48:43.45	354.62	37.69	-39.3	-40.3	22.2	0.00e+00	0	41	0	1598029824	50	6494
2026-01-22 23:48:44.46	354.44	37.46	-39.1	-40.1	22.5	0.00e+00	0	41	0	1601175552	50	6305
2026-01-22 23:48:45.47	354.27	37.24	-38.7	-39.7	22.9	0.00e+00	0	41	0	1604321280	50	5999
2026-01-22 23:48:46.48	354.10	37.02	-38.4	-39.4	23.2	0.00e+00	0	41	0	1607467008	50	5816
2026-01-22 23:48:47.49	353.93	36.80	-38.2	-39.2	23.4	0.00e+00	0	42	0	1610612736	50	5666
2026-01-22 23:48:48.50	353.77	36.58	-38.4	-39.3	23.2	0.00e+00	0	41	0	1613758464	50	5787
2026-01-22 23:48:49.51	353.60	36.36	-38.6	-39.6	22.9	0.00e+00	0	41	0	1616904192	50	5973
2026-01-22 23:48:50.52	353.44	36.14	-39.1	-40.1	22.4	0.00e+00	0	42	0	1620049920	50	6320
2026-01-22 23:48:51.53	353.28	35.92	-39.3	-40.3	22.2	0.00e+00	0	42	0	1623195648	50	6486
2026-01-22 23:48:52.54	353.13	35.71	-39.4	-40.5	22.1	0.00e+00	0	42	0	1626341376	50	6585
2026-01-22 23:48:53.55	352.97	35.49	-39.2	-40.3	22.3	0.00e+00	0	42	0	1629487104	50	6443
2026-01-22 23:48:54.56	352.82	35.28	-39.2	-40.2	22.3	0.00e+00	0	42	0	1632632832	50	6421
2026-01-22 23:48:55.57	352.67	35.07	-38.7	-39.7	22.8	0.00e+00	0	42	0	1635778560	50	6041
2026-01-22 23:48:56.58	352.52	34.86	-38.5	-39.5	23.0	0.00e+00	0	41	0	1638924288	50	5878
2026-01-22 23:48:57.59	352.38	34.65	-38.3	-39.2	23.1	0.00e+00	0	42	0	1642070016	50	5698
2026-01-22 23:48:58.60	352.23	34.44	-38.0	-39.0	23.4	0.00e+00	0	41	0	1645215744	50	5545
2026-01-22 23:48:59.61	352.09	34.23	-37.9	-38.9	23.5	0.00e+00	0	41	0	1648361472	50	5478
2026-01-22 23:49:00.62	351.95	34.03	-37.9	-38.8	23.5	0.00e+00	0	41	0	1651507200	50	5436
2026-01-22 23:49:01.63	351.81	33.82	-37.9	-38.9	23.4	0.00e+00	0	41	0	1654652928	50	5502
2026-01-22 23:49:02.64	351.67	33.62	-38.1	-39.1	23.4	0.00e+00	0	41	0	1657798656	50	5606
2026-01-22 23:49:03.65	351.54	33.42	-38.2	-39.2	23.3	0.00e+00	0	41	0	1660944384	50	5663
2026-01-22 23:49:04.66	351.40	33.22	-38.4	-39.4	23.2	0.00e+00	0	41	0	1664090112	50	5834
2026-01-22 23:49:05.67	351.27	33.02	-38.4	-39.4	23.1	0.00e+00	0	41	0	1667235840	50	5828
2026-01-22 23:49:06.68	351.14	32.82	-38.5	-39.5	23.1	0.00e+00	0	41	0	1670381568	50	5875
2026-01-22 23:49:07.69	351.01	32.62	-38.4	-39.3	23.3	0.00e+00	0	41	0	1673527296	50	5786
2026-01-22 23:49:08.70	350.89	32.42	-38.2	-39.1	23.4	0.00e+00	0	41	0	1676673024	50	5655
2026-01-22 23:49:09.71	350.76	32.23	-38.3	-39.3	23.4	0.00e+00	0	41	0	1679818752	50	5734
2026-01-22 23:49:10.72	350.64	32.03	-38.2	-39.2	23.4	0.00e+00	0	41	0	1682964480	50	5666
2026-01-22 23:49:11.73	350.51	31.84	-38.1	-39.1	23.4	0.00e+00	0	42	0	1686110208	50	5627
2026-01-22 23:49:12.74	350.39	31.65	-38.1	-39.1	23.5	0.00e+00	0	41	0	1689255936	50	5598
2026-01-22 23:49:13.76	350.27	31.45	-37.8	-38.8	23.6	0.00e+00	0	42	0	1692401664	50	5413
2026-01-22 23:49:14.77	350.15	31.26	-37.8	-38.8	23.5	0.00e+00	0	42	0	1695547392	50	5432
2026-01-22 23:49:15.78	350.04	31.08	-37.7	-38.7	23.5	0.00e+00	0	42	0	1698693120	48	6041
2026-01-22 23:49:16.79	349.92	30.89	-37.8	-38.7	23.5	0.00e+00	0	41	0	1701838848	48	6041
2026-01-22 23:49:17.80	349.81	30.70	-37.6	-38.6	23.6	0.00e+00	0	41	0	1704984576	48	5959
2026-01-22 23:49:18.81	349.70	30.52	-37.3	-38.2	23.9	0.00e+00	0	41	0	1708130304	48	5695
2026-01-22 23:49:19.81	349.59	30.33	-36.9	-37.8	24.2	0.00e+00	0	42	0	1711276032	48	5420
2026-01-22 23:49:20.82	349.48	30.15	-36.8	-37.7	24.3	0.00e+00	0	41	0	1714421760	46	6014
2026-01-22 23:49:21.83	349.37	29.97	-36.9	-37.8	24.3	0.00e+00	0	42	0	1717567488	46	6088
2026-01-22 23:49:22.84	349.26	29.78	-36.6	-37.5	24.5	0.00e+00	0	42	0	1720713216	46	5898
2026-01-22 23:49:23.86	349.15	29.60	-36.5	-37.4	24.6	0.00e+00	0	41	0	1723858944	46	5809
2026-01-22 23:49:24.87	349.05	29.42	-36.5	-37.4	24.6	0.00e+00	0	41	0	1727004672	46	5840
2026-01-22 23:49:25.88	348.94	29.24	-36.4	-37.3	24.7	0.00e+00	0	41	0	1730150400	46	5755
2026-01-22 23:49:26.88	348.84	29.07	-36.6	-37.4	24.6	0.00e+00	0	41	0	1733296128	46	5858
2026-01-22 23:49:27.89	348.74	28.89	-36.6	-37.5	24.5	0.00e+00	0	42	0	1736441856	46	5882
2026-01-22 23:49:28.90	348.64	28.72	-36.7	-37.6	24.4	0.00e+00	0	41	0	1739587584	46	5935
2026-01-22 23:49:29.92	348.54	28.54	-36.8	-37.7	24.4	0.00e+00	0	42	0	1742733312	46	6016
2026-01-22 23:49:30.92	348.44	28.37	-37.0	-38.0	24.2	0.00e+00	0	42	0	1745879040	46	6210
2026-01-22 23:49:31.93	348.35	28.20	-37.2	-38.2	24.0	0.00e+00	0	42	0	1749024768	46	6361
2026-01-22 23:49:32.94	348.25	28.03	-37.5	-38.4	23.9	0.00e+00	0	42	0	1752170496	46	6540
2026-01-22 23:49:33.95	348.16	27.86	-37.5	-38.4	23.8	0.00e+00	0	42	0	1755316224	46	6571
2026-01-22 23:49:34.96	348.06	27.69	-37.6	-38.5	23.6	0.00e+00	0	42	0	1758461952	46	6638
2026-01-22 23:49:35.97	347.97	27.52	-37.8	-38.8	23.5	0.00e+00	0	42	0	1761607680	46	6834
2026-01-22 23:49:36.98	347.88	27.35	-37.6	-38.6	23.5	0.00e+00	0	42	0	1764753408	48	5973
2026-01-22 23:49:37.99	347.79	27.18	-37.6	-38.6	23.7	0.00e+00	0	42	0	1767899136	48	5970
2026-01-22 23:49:39.00	347.70	27.02	-37.5	-38.5	23.7	0.00e+00	0	41	0	1771044864	48	5870
2026-01-22 23:49:40.01	347.61	26.85	-37.3	-38.3	23.9	0.00e+00	0	42	0	1774190592	48	5749
2026-01-22 23:49:41.02	347.52	26.69	-37.4	-38.3	23.9	0.00e+00	0	42	0	1777336320	48	5763
2026-01-22 23:49:42.03	347.43	26.53	-37.3	-38.2	23.9	0.00e+00	0	42	0	1780482048	48	5684
2026-01-22 23:49:43.04	347.35	26.36	-37.1	-38.1	23.9	0.00e+00	0	42	0	1783627776	48	5606
2026-01-22 23:49:44.05	347.26	26.20	-36.9	-37.8	24.1	0.00e+00	0	42	0	1787822080	48	5448
2026-01-22 23:49:45.06	347.18	26.04	-36.6	-37.5	24.4	0.00e+00	0	42	0	1790967808	46	5891
2026-01-22 23:49:46.07	347.10	25.88	-36.5	-37.4	24.5	0.00e+00	0	42	0	1794113536	46	5826
2026-01-22 23:49:47.08	347.01	25.72	-36.5	-37.4	24.6	0.00e+00	0	42	0	1796210688	46	5820
2026-01-22 23:49:48.09	346.93	25.57	-36.4	-37.3	24.6	0.00e+00	0	42	0	1799356416	46	5776
2026-01-22 23:49:49.10	346.85	25.41	-36.2	-37.1	24.8	0.00e+00	0	42	0	1802502144	46	5624
2026-01-22 23:49:50.11	346.77	25.25	-36.2	-37.0	24.9	0.00e+00	0	42	0	1806696448	46	5587
2026-01-22 23:49:51.12	346.69	25.10	-36.1	-37.0	24.9	0.00e+00	0	41	0	1809842176	46	5535
2026-01-22 23:49:52.12	346.62	24.95	-36.2	-37.1	24.8	0.00e+00	0	42	0	1812987904	46	5601
2026-01-22 23:49:53.13	346.54	24.79	-36.2	-37.0	24.8	0.00e+00	0	42	0	1816133632	46	5556
2026-01-22 23:49:54.15	346.46	24.64	-36.2	-37.1	24.8	0.00e+00	0	42	0	1818230784	46	5620
2026-01-22 23:49:55.15	346.39	24.49	-36.3	-37.2	24.7	0.00e+00	0	42	0	1822425088	46	5693
2026-01-22 23:49:56.16	346.31	24.34	-36.5	-37.4	24.6	0.00e+00	0	42	0	1825570816	46	5801
2026-01-22 23:49:57.17	346.24	24.19	-36.5	-37.4	24.6	0.00e+00	0	42	0	1828716544	46	5806
2026-01-22 23:49:58.18	346.16	24.04	-36.6	-37.5	24.5	0.00e+00	0	42	0	1831862272	46	5895
2026-01-22 23:49:59.20	346.09	23.89	-36.7	-37.6	24.4	0.00e+00	0	42	0	1835008000	46	5935
2026-01-22 23:50:00.20	346.02	23.74	-36.7	-37.6	24.4	0.00e+00	0	42	0	1838153728	46	5992
2026-01-22 23:50:01.22	345.94	23.59	-36.7	-37.6	24.4	0.00e+00	0	42	0	1841299456	46	5993
2026-01-22 23:50:02.23	345.87	23.45	-36.8	-37.7	24.4	0.00e+00	0	42	0	1844445184	46	6030
2026-01-22 23:50:03.24	345.80	23.30	-36.8	-37.7	24.4	0.00e+00	0	42	0	1847590912	46	6004
2026-01-22 23:50:04.24	345.74	23.16	-36.8	-37.8	24.4	0.00e+00	0	42	0	1850736640	46	6069
2026-01-22 23:50:05.25	345.67	23.01	-36.8	-37.7	24.4	0.00e+00	0	42	0	1853882368	46	6059
2026-01-22 23:50:06.26	345.60	22.87	-36.9	-37.8	24.3	0.00e+00	0	42	0	1857028096	46	6113
2026-01-22 23:50:07.28	345.53	22.73	-36.8	-37.7	24.3	0.00e+00	0	42	0	1860173824	46	6007
2026-01-22 23:50:08.29	345.46	22.59	-36.9	-37.8	24.3	0.00e+00	0	42	0	1863319552	46	6091
2026-01-22 23:50:09.30	345.40	22.45	-36.9	-37.8	24.3	0.00e+00	0	42	0	1866465280	46	6099
2026-01-22 23:50:10.31	345.33	22.31	-36.9	-37.8	24.3	0.00e+00	0	42	0	1869611008	46	6093
2026-01-22 23:50:11.32	345.27	22.17	-36.9	-37.8	24.3	0.00e+00	0	42	0	1872756736	46	6072
2026-01-22 23:50:12.33	345.20	22.03	-36.9	-37.7	24.3	0.00e+00	0	42	0	1875902464	46	6060
2026-01-22 23:50:13.34	345.14	21.89	-36.9	-37.8	24.3	0.00e+00	0	42	0	1879048192	46	6108
2026-01-22 23:50:14.35	345.08	21.75	-37.2	-38.1	24.2	0.00e+00	0	42	0	1882193920	46	6295
2026-01-22 23:50:15.36	345.01	21.62	-37.2	-38.2	24.0	0.00e+00	0	42	0	1885339648	46	6357
2026-01-22 23:50:16.36	344.95	21.48	-37.0	-37.9	24.2	0.00e+00	0	42	0	1888485376	46	6143
2026-01-22 23:50:17.37	344.89	21.35	-36.9	-37.8	24.2	0.00e+00	0	42	0	1891631104	46	6134
2026-01-22 23:50:18.38	344.83	21.21	-37.0	-37.9	24.3	0.00e+00	0	42	0	1894776832	46	6150
2026-01-22 23:50:19.39	344.77	21.08	-37.1	-38.0	24.1	0.00e+00	0	42	0	1897922560	46	6258
2026-01-22 23:50:20.40	344.71	20.94	-37.1	-38.1	24.1	0.00e+00	0	42	0	1901068288	46	6283
2026-01-22 23:50:21.41	344.65	20.81	-37.1	-38.0	24.1	0.00e+00	0	42	0	1904214016	46	6249
2026-01-22 23:50:22.42	344.59	20.68	-37.0	-37.9	24.2	0.00e+00	0	42	0	1907359744	46	6195
2026-01-22 23:50:23.43	344.53	20.55	-37.2	-38.1	24.1	0.00e+00	0	42	0	1910505472	46	6331
2026-01-22 23:50:24.44	344.48	20.42	-37.2	-38.1	24.0	0.00e+00	0	42	0	1913651200	46	6294
2026-01-22 23:50:25.45	344.42	20.29	-37.2	-38.1	24.2	0.00e+00	0	42	0	1916796928	46	6305
2026-01-22 23:50:26.46	344.36	20.16	-37.2	-38.1	24.1	0.00e+00	0	42	0	1919942656	46	6346
2026-01-22 23:50:27.47	344.31	20.03	-37.1	-38.1	24.0	0.00e+00	0	42	0	1923088384	46	6297
2026-01-22 23:50:28.48	344.25	19.90	-37.2	-38.1	24.1	0.00e+00	0	42	0	1926234112	46	6293
2026-01-22 23:50:29.49	344.20	19.77	-37.2	-38.1	24.0	0.00e+00	0	42	0	1929379840	46	6324
2026-01-22 23:50:30.50	344.14	19.65	-37.3	-38.2	24.0	0.00e+00	0	42	0	1932525568	46	6413
2026-01-22 23:50:31.51	344.09	19.52	-37.2	-38.1	24.1	0.00e+00	0	42	0	1935671296	46	6305
2026-01-22 23:50:32.52	344.03	19.40	-37.3	-38.3	23.9	0.00e+00	0	42	0	1938817024	46	6450
2026-01-22 23:50:33.53	343.98	19.27	-37.2	-38.1	24.0	0.00e+00	0	42	0	1941962752	46	6305
2026-01-22 23:50:34.54	343.93	19.15	-37.3	-38.2	24.0	0.00e+00	0	42	0	1945108480	46	6390
2026-01-22 23:50:35.55	343.88	19.02	-37.3	-38.2	23.9	0.00e+00	0	42	0	1948254208	46	6414
2026-01-22 23:50:36.56	343.83	18.90	-37.4	-38.3	23.9	0.00e+00	0	42	0	1951399936	46	6456
2026-01-22 23:50:37.57	343.77	18.78	-37.5	-38.4	23.7	0.00e+00	0	42	0	1954545664	46	6551
